passes_logs/2026/01/03/R2M6_AANII_01/R2M6_AANII_01__20260103_011026_NOAA_21_JPSS-2_rec.log

#Pass ID: 20260103_011026_NOAA 21 (JPSS-2)
#Satellite: NOAA 21 (JPSS-2)
#Configuration: NOAA 21
#almurnet v.1.7.20240730
#Start time: 2026-01-03 01:11:52

#Version: 2.2.20231116
#Station: R2M6_AANII_01
#Location: 30.233357 lon 59.946436 lat
#TLE: 1 54234U 22150A   26002.25486487  .00000200  00000+0  11573-3 0  9993
#TLE: 2 54234  98.7485 303.3096 0001220 350.9074   9.2080 14.19531212163006

#Time	Az	El	Level	Level2	SNR	BER	BlckErr	Temp	State	Recorded	gain1	gain2
2026-01-03 01:11:52.26	9.74	14.31	-32.9	-44.4	3.8	8.46e-01	0	43	0	0	25	13567
2026-01-03 01:11:53.26	9.67	14.41	-33.6	-45.6	3.8	1.49e+00	0	43	104	0	27	14288
2026-01-03 01:11:54.27	9.60	14.51	-33.6	-45.6	3.8	1.49e+00	0	43	104	0	27	14291
2026-01-03 01:11:55.27	9.53	14.60	-33.6	-45.6	3.8	1.49e+00	0	43	104	0	27	14339
2026-01-03 01:11:56.27	9.46	14.70	-33.7	-45.7	3.8	1.49e+00	0	43	104	0	27	14350
2026-01-03 01:11:57.28	9.39	14.80	-33.7	-45.7	3.8	1.49e+00	0	43	104	0	27	14406
2026-01-03 01:11:58.29	9.32	14.90	-33.7	-45.8	3.8	1.49e+00	0	43	104	0	27	14426
2026-01-03 01:11:59.29	9.25	15.00	-33.7	-45.8	3.8	1.49e+00	0	43	104	0	27	14480
2026-01-03 01:12:00.30	9.17	15.10	-33.7	-45.8	3.8	1.49e+00	0	43	104	0	27	14461
2026-01-03 01:12:01.31	9.10	15.20	-33.7	-45.8	3.8	1.49e+00	0	43	104	0	27	14481
2026-01-03 01:12:02.32	9.03	15.31	-33.7	-45.8	3.8	1.49e+00	0	43	104	0	27	14412
2026-01-03 01:12:03.33	8.95	15.41	-33.7	-45.7	3.8	1.49e+00	0	43	104	0	27	14329
2026-01-03 01:12:04.33	8.88	15.51	-33.6	-45.5	3.8	1.49e+00	0	43	104	0	27	14180
2026-01-03 01:12:05.34	8.80	15.61	-33.7	-45.7	3.8	1.49e+00	0	43	104	0	27	14383
2026-01-03 01:12:06.33	8.73	15.71	-33.7	-45.8	3.8	1.49e+00	0	43	104	0	27	14435
2026-01-03 01:12:07.33	8.65	15.82	-33.7	-45.7	3.7	1.49e+00	0	43	104	0	27	14384
2026-01-03 01:12:08.33	8.58	15.92	-33.7	-45.7	3.8	1.49e+00	0	43	104	0	27	14378
2026-01-03 01:12:09.33	8.50	16.02	-33.7	-45.7	3.8	1.49e+00	0	43	104	0	27	14332
2026-01-03 01:12:10.33	8.42	16.13	-33.7	-45.8	3.8	1.49e+00	0	43	104	0	27	14398
2026-01-03 01:12:11.33	8.34	16.23	-33.8	-45.9	3.8	1.49e+00	0	43	104	0	27	14543
2026-01-03 01:12:12.33	8.26	16.34	-33.7	-45.8	3.8	1.49e+00	0	43	104	0	27	14478
2026-01-03 01:12:13.33	8.19	16.44	-33.7	-45.8	3.8	1.49e+00	0	43	104	0	27	14436
2026-01-03 01:12:14.33	8.11	16.55	-33.7	-45.8	3.8	1.49e+00	0	43	104	0	27	14419
2026-01-03 01:12:15.33	8.03	16.65	-33.7	-45.7	3.8	1.49e+00	0	43	104	0	27	14346
2026-01-03 01:12:16.33	7.94	16.76	-33.6	-45.7	3.8	1.49e+00	0	43	104	0	27	14373
2026-01-03 01:12:17.33	7.86	16.86	-33.6	-45.6	3.8	1.49e+00	0	43	104	0	27	14345
2026-01-03 01:12:18.34	7.78	16.97	-33.6	-45.6	3.8	1.49e+00	0	43	104	0	27	14259
2026-01-03 01:12:19.35	7.70	17.08	-33.6	-45.6	3.8	1.49e+00	0	43	104	0	27	14239
2026-01-03 01:12:20.35	7.61	17.19	-33.6	-45.5	3.8	1.49e+00	0	43	104	0	27	14141
2026-01-03 01:12:21.34	7.53	17.30	-33.5	-45.4	3.8	1.49e+00	0	43	104	0	27	14112
2026-01-03 01:12:22.34	7.45	17.40	-33.5	-45.8	3.8	1.49e+00	0	43	104	0	26	14848
2026-01-03 01:12:23.34	7.36	17.51	-33.4	-45.6	3.8	1.49e+00	0	43	104	0	26	14728
2026-01-03 01:12:24.34	7.27	17.62	-33.3	-45.2	3.8	1.49e+00	0	43	104	0	26	14211
2026-01-03 01:12:25.34	7.19	17.73	-33.0	-43.9	3.8	1.49e+00	0	43	104	0	26	12535
2026-01-03 01:12:26.34	7.10	17.84	-32.8	-42.2	3.9	1.48e+00	0	43	104	0	25	10724
2026-01-03 01:12:27.33	7.01	17.95	-32.7	-41.2	4.3	1.45e+00	0	43	104	0	25	9645
2026-01-03 01:12:28.34	6.92	18.06	-32.6	-41.4	3.9	1.48e+00	0	43	104	0	25	9955
2026-01-03 01:12:29.34	6.83	18.18	-32.6	-41.2	4.0	1.36e+00	0	43	104	0	25	9746
2026-01-03 01:12:30.34	6.74	18.29	-32.6	-40.5	4.5	1.25e+00	0	43	104	0	25	9010
2026-01-03 01:12:31.34	6.65	18.40	-32.6	-41.3	3.9	1.43e+00	0	43	104	0	25	9865
2026-01-03 01:12:32.35	6.56	18.51	-32.7	-41.3	4.3	1.42e+00	0	43	104	0	25	9705
2026-01-03 01:12:33.35	6.47	18.63	-32.8	-42.7	3.9	1.48e+00	0	43	104	0	25	11278
2026-01-03 01:12:34.34	6.38	18.74	-32.9	-43.5	3.9	1.48e+00	0	43	104	0	25	12182
2026-01-03 01:12:35.35	6.28	18.85	-33.1	-44.5	3.8	1.49e+00	0	43	104	0	26	13494
2026-01-03 01:12:36.35	6.19	18.97	-33.1	-44.9	3.8	1.49e+00	0	43	104	0	26	13975
2026-01-03 01:12:37.35	6.09	19.08	-32.9	-43.9	3.8	1.49e+00	0	43	104	0	25	12774
2026-01-03 01:12:38.34	6.00	19.20	-32.6	-41.1	4.0	1.48e+00	0	43	104	0	25	9662
2026-01-03 01:12:39.34	5.90	19.31	-31.9	-37.7	6.1	4.49e-01	0	43	104	0	24	6963
2026-01-03 01:12:40.35	5.80	19.43	-31.3	-35.6	7.8	1.09e-01	0	44	0	1048576	23	5910
2026-01-03 01:12:41.34	5.71	19.55	-30.6	-33.8	9.5	1.81e-02	0	44	0	4194304	22	5220
2026-01-03 01:12:42.34	5.61	19.67	-30.1	-33.3	10.5	1.09e-02	0	43	0	7340032	20	5216
2026-01-03 01:12:43.34	5.51	19.78	-29.8	-33.0	11.0	6.72e-03	0	43	0	10485760	19	5219
2026-01-03 01:12:44.34	5.41	19.90	-29.7	-32.7	11.3	1.50e-03	0	43	0	13631488	19	5089
2026-01-03 01:12:45.35	5.31	20.02	-29.8	-33.0	11.1	6.27e-03	0	43	0	16777216	19	5209
2026-01-03 01:12:46.34	5.21	20.14	-30.0	-33.5	10.7	6.68e-03	0	43	0	19922944	19	5411
2026-01-03 01:12:47.33	5.10	20.26	-29.9	-32.7	10.9	2.48e-03	0	43	0	23068672	20	4998
2026-01-03 01:12:48.33	5.00	20.38	-29.8	-33.1	11.1	6.05e-03	0	43	0	26214400	19	5222
2026-01-03 01:12:49.33	4.90	20.50	-29.8	-33.0	11.1	5.87e-03	0	43	0	29360128	19	5197
2026-01-03 01:12:50.33	4.79	20.62	-29.6	-32.4	11.5	1.17e-03	0	43	0	32505856	19	4995
2026-01-03 01:12:51.33	4.68	20.74	-29.5	-32.0	11.8	4.86e-03	0	43	0	35651584	19	4849
2026-01-03 01:12:52.33	4.58	20.86	-29.3	-32.2	12.0	3.39e-04	0	43	0	38797312	18	5005
2026-01-03 01:12:53.34	4.47	20.99	-29.2	-32.0	12.1	5.42e-04	0	43	0	41943040	18	4936
2026-01-03 01:12:54.34	4.36	21.11	-29.5	-32.5	11.8	5.12e-03	0	43	0	45088768	18	5137
2026-01-03 01:12:55.34	4.25	21.23	-29.6	-32.5	11.5	6.01e-03	0	43	0	48234496	19	5017
2026-01-03 01:12:56.34	4.14	21.36	-29.1	-31.0	12.4	5.93e-04	0	43	0	51380224	19	4510
2026-01-03 01:12:57.35	4.03	21.48	-28.5	-30.6	13.3	3.28e-05	0	43	0	54525952	17	4587
2026-01-03 01:12:58.34	3.91	21.61	-27.8	-29.4	14.3	3.96e-03	0	43	0	57671680	16	4329
2026-01-03 01:12:59.35	3.80	21.73	-27.1	-28.3	15.0	2.27e-04	0	43	0	60817408	15	4152
2026-01-03 01:13:00.35	3.69	21.86	-26.6	-27.8	15.6	3.90e-03	0	43	0	63963136	14	4125
2026-01-03 01:13:01.34	3.57	21.99	-26.3	-27.6	16.0	4.35e-03	0	43	0	67108864	13	4177
2026-01-03 01:13:02.34	3.46	22.11	-26.2	-27.2	16.2	0.00e+00	0	43	0	70254592	13	4078
2026-01-03 01:13:03.34	3.34	22.24	-26.0	-27.4	16.3	0.00e+00	0	43	0	73400320	12	4242
2026-01-03 01:13:04.34	3.22	22.37	-26.0	-27.5	16.3	4.24e-03	0	43	0	76546048	12	4244
2026-01-03 01:13:05.34	3.10	22.50	-26.1	-27.7	16.2	2.10e-04	0	43	0	79691776	12	4300
2026-01-03 01:13:06.34	2.98	22.63	-26.2	-27.7	16.2	4.34e-03	0	43	0	82837504	12	4318
2026-01-03 01:13:07.34	2.86	22.75	-26.0	-27.4	16.4	0.00e+00	0	43	0	85983232	12	4227
2026-01-03 01:13:08.35	2.73	22.89	-26.0	-27.3	16.4	0.00e+00	0	43	0	89128960	12	4207
2026-01-03 01:13:09.34	2.61	23.02	-26.0	-27.4	16.4	4.00e-03	0	43	0	92274688	12	4220
2026-01-03 01:13:10.33	2.49	23.15	-26.0	-27.4	16.4	4.26e-03	0	43	0	95420416	12	4218
2026-01-03 01:13:11.33	2.36	23.28	-25.9	-27.3	16.4	2.28e-05	0	43	0	98566144	12	4191
2026-01-03 01:13:12.34	2.24	23.41	-25.9	-27.3	16.5	0.00e+00	0	43	0	101711872	12	4192
2026-01-03 01:13:13.35	2.11	23.54	-26.0	-27.4	16.4	0.00e+00	0	43	0	104857600	12	4224
2026-01-03 01:13:14.34	1.98	23.68	-25.9	-27.1	16.5	0.00e+00	0	43	0	108003328	12	4153
2026-01-03 01:13:15.34	1.85	23.81	-25.9	-27.7	16.5	4.05e-03	0	43	0	111149056	11	4417
2026-01-03 01:13:16.34	1.72	23.94	-26.0	-27.3	16.5	0.00e+00	0	43	0	114294784	12	4199
2026-01-03 01:13:17.34	1.59	24.08	-26.0	-27.5	16.3	0.00e+00	0	43	0	117440512	12	4248
2026-01-03 01:13:18.33	1.45	24.21	-26.1	-27.7	16.3	0.00e+00	0	43	0	120586240	12	4310
2026-01-03 01:13:19.33	1.32	24.35	-26.2	-27.8	16.2	0.00e+00	0	43	0	123731968	12	4343
2026-01-03 01:13:20.33	1.18	24.48	-26.1	-27.6	16.3	5.56e-05	0	43	0	125829120	12	4282
2026-01-03 01:13:21.32	1.05	24.62	-26.1	-27.6	16.3	0.00e+00	0	43	0	128974848	12	4275
2026-01-03 01:13:22.32	0.91	24.76	-26.1	-27.6	16.3	0.00e+00	0	43	0	132120576	12	4282
2026-01-03 01:13:23.30	0.77	24.89	-26.1	-27.6	16.2	0.00e+00	0	43	0	135266304	12	4280
2026-01-03 01:13:24.31	0.63	25.03	-26.1	-27.6	16.3	0.00e+00	0	43	0	138412032	12	4289
2026-01-03 01:13:25.32	0.49	25.17	-26.2	-27.9	16.1	3.91e-03	0	43	0	141557760	12	4362
2026-01-03 01:13:26.32	0.34	25.31	-26.3	-28.0	16.1	0.00e+00	0	43	0	144703488	12	4390
2026-01-03 01:13:27.32	0.20	25.45	-26.4	-28.3	15.9	0.00e+00	0	43	0	147849216	12	4481
2026-01-03 01:13:28.32	0.05	25.59	-26.3	-28.2	16.0	0.00e+00	0	43	0	150994944	12	4431
2026-01-03 01:13:29.31	359.91	25.73	-26.4	-28.3	15.9	0.00e+00	0	43	0	154140672	12	4485
2026-01-03 01:13:30.30	359.76	25.87	-26.5	-28.0	15.8	4.17e-03	0	43	0	157286400	13	4290
2026-01-03 01:13:31.29	359.61	26.01	-26.6	-28.3	15.7	0.00e+00	0	43	0	160432128	13	4355
2026-01-03 01:13:32.30	359.46	26.16	-26.7	-28.4	15.6	0.00e+00	0	44	0	163577856	13	4381
2026-01-03 01:13:33.31	359.30	26.30	-26.8	-28.6	15.5	0.00e+00	0	43	0	166723584	13	4461
2026-01-03 01:13:34.30	359.15	26.45	-26.8	-28.7	15.5	0.00e+00	0	43	0	169869312	13	4470
2026-01-03 01:13:35.30	358.99	26.59	-26.8	-28.8	15.4	0.00e+00	0	43	0	173015040	13	4511
2026-01-03 01:13:36.30	358.84	26.73	-26.9	-28.9	15.4	0.00e+00	0	43	0	176160768	13	4521
2026-01-03 01:13:37.30	358.68	26.88	-27.0	-29.1	15.2	0.00e+00	0	43	0	179306496	13	4591
2026-01-03 01:13:38.30	358.52	27.03	-27.0	-28.5	15.3	0.00e+00	0	43	0	182452224	14	4318
2026-01-03 01:13:39.30	358.36	27.17	-27.0	-28.7	15.2	0.00e+00	0	43	0	185597952	14	4368
2026-01-03 01:13:40.29	358.19	27.32	-26.9	-28.9	15.4	1.50e-06	0	44	0	188743680	13	4530
2026-01-03 01:13:41.28	358.03	27.46	-26.9	-29.0	15.3	0.00e+00	0	43	0	191889408	13	4549
2026-01-03 01:13:42.29	357.86	27.61	-26.8	-28.6	15.6	0.00e+00	0	43	0	195035136	13	4428
2026-01-03 01:13:43.29	357.70	27.76	-26.7	-28.5	15.6	7.00e-07	0	43	0	198180864	13	4406
2026-01-03 01:13:44.29	357.53	27.91	-26.7	-28.4	15.6	0.00e+00	0	43	0	201326592	13	4379
2026-01-03 01:13:45.30	357.35	28.06	-26.8	-28.6	15.6	0.00e+00	0	43	0	204472320	13	4427
2026-01-03 01:13:46.30	357.18	28.21	-26.8	-28.8	15.5	7.00e-07	0	43	0	207618048	13	4492
2026-01-03 01:13:47.30	357.01	28.36	-26.7	-28.4	15.7	0.00e+00	0	43	0	210763776	13	4376
2026-01-03 01:13:48.30	356.83	28.51	-26.7	-28.4	15.7	0.00e+00	0	43	0	213909504	13	4383
2026-01-03 01:13:49.31	356.65	28.67	-26.7	-28.5	15.6	7.00e-07	0	43	0	217055232	13	4406
2026-01-03 01:13:50.31	356.47	28.82	-26.8	-28.6	15.6	0.00e+00	0	43	0	220200960	13	4427
2026-01-03 01:13:51.30	356.29	28.97	-26.8	-28.8	15.5	0.00e+00	0	43	0	223346688	13	4486
2026-01-03 01:13:52.31	356.11	29.13	-26.8	-28.7	15.5	0.00e+00	0	43	0	226492416	13	4489
2026-01-03 01:13:53.32	355.92	29.28	-26.7	-28.4	15.7	0.00e+00	0	43	0	229638144	13	4382
2026-01-03 01:13:54.32	355.73	29.44	-26.7	-28.5	15.6	0.00e+00	0	43	0	232783872	13	4412
2026-01-03 01:13:55.32	355.54	29.59	-26.7	-28.5	15.6	0.00e+00	0	43	0	235929600	13	4404
2026-01-03 01:13:56.32	355.35	29.75	-26.8	-28.6	15.5	7.00e-07	0	43	0	239075328	13	4447
2026-01-03 01:13:57.31	355.16	29.90	-26.8	-28.8	15.5	0.00e+00	0	43	0	242221056	13	4482
2026-01-03 01:13:58.31	354.97	30.06	-27.1	-28.7	15.2	0.00e+00	0	43	0	245366784	14	4360
2026-01-03 01:13:59.30	354.78	30.21	-27.0	-28.5	15.3	0.00e+00	0	43	0	248512512	14	4312
2026-01-03 01:14:00.31	354.58	30.37	-27.0	-29.1	15.3	0.00e+00	0	43	0	251658240	13	4578
2026-01-03 01:14:01.30	354.38	30.53	-27.1	-28.9	15.2	0.00e+00	0	43	0	254803968	14	4415
2026-01-03 01:14:02.29	354.18	30.68	-27.2	-29.2	15.0	0.00e+00	0	43	0	257949696	14	4493
2026-01-03 01:14:03.30	353.97	30.84	-27.0	-28.7	15.3	0.00e+00	0	43	0	261095424	14	4352
2026-01-03 01:14:04.29	353.77	31.00	-26.9	-28.5	15.4	2.20e-06	0	43	0	263192576	14	4288
2026-01-03 01:14:05.30	353.56	31.16	-26.9	-28.8	15.5	0.00e+00	0	43	0	266338304	13	4493
2026-01-03 01:14:06.29	353.35	31.32	-26.9	-28.9	15.4	0.00e+00	0	43	0	269484032	13	4521
2026-01-03 01:14:07.30	353.14	31.48	-26.9	-28.9	15.4	0.00e+00	0	43	0	272629760	13	4507
2026-01-03 01:14:08.29	352.92	31.64	-26.7	-28.4	15.7	0.00e+00	0	43	0	275775488	13	4369
2026-01-03 01:14:09.29	352.71	31.80	-26.5	-28.1	15.9	0.00e+00	0	43	0	278921216	13	4287
2026-01-03 01:14:10.29	352.49	31.96	-26.6	-28.2	15.8	0.00e+00	0	43	0	282066944	13	4334
2026-01-03 01:14:11.28	352.27	32.12	-26.7	-28.4	15.7	0.00e+00	0	43	0	285212672	13	4382
2026-01-03 01:14:12.29	352.04	32.29	-26.6	-28.1	15.9	0.00e+00	0	43	0	288358400	13	4303
2026-01-03 01:14:13.29	351.82	32.45	-26.7	-28.4	15.7	0.00e+00	0	43	0	291504128	13	4386
2026-01-03 01:14:14.30	351.59	32.61	-26.8	-28.5	15.6	0.00e+00	0	43	0	294649856	13	4411
2026-01-03 01:14:15.29	351.36	32.78	-26.9	-28.8	15.5	0.00e+00	0	43	0	297795584	13	4485
2026-01-03 01:14:16.28	351.13	32.94	-26.9	-28.9	15.4	0.00e+00	0	43	0	300941312	13	4513
2026-01-03 01:14:17.28	350.90	33.10	-27.1	-28.8	15.2	0.00e+00	0	43	0	304087040	14	4371
2026-01-03 01:14:18.28	350.66	33.27	-27.0	-28.7	15.3	0.00e+00	0	43	0	307232768	14	4347
2026-01-03 01:14:19.27	350.42	33.43	-27.1	-28.8	15.2	0.00e+00	0	43	0	310378496	14	4382
2026-01-03 01:14:20.28	350.18	33.60	-27.1	-28.9	15.2	0.00e+00	0	43	0	313524224	14	4417
2026-01-03 01:14:21.27	349.93	33.76	-27.2	-29.2	15.1	0.00e+00	0	43	0	316669952	14	4492
2026-01-03 01:14:22.26	349.69	33.93	-27.3	-29.2	15.0	0.00e+00	0	43	0	319815680	14	4502
2026-01-03 01:14:23.26	349.44	34.09	-27.3	-29.4	14.9	0.00e+00	0	43	0	322961408	14	4544
2026-01-03 01:14:24.26	349.19	34.26	-27.4	-29.5	14.9	7.00e-07	0	43	0	326107136	14	4589
2026-01-03 01:14:25.27	348.93	34.43	-27.6	-29.5	14.6	7.00e-07	0	43	0	329252864	15	4483
2026-01-03 01:14:26.27	348.67	34.59	-27.9	-30.2	14.2	2.20e-06	0	43	0	332398592	15	4688
2026-01-03 01:14:27.26	348.41	34.76	-27.8	-29.9	14.3	3.00e-06	0	43	0	335544320	15	4607
2026-01-03 01:14:28.26	348.15	34.93	-28.0	-30.3	14.2	2.20e-06	0	43	0	338690048	15	4718
2026-01-03 01:14:29.26	347.89	35.09	-27.9	-30.1	14.3	7.00e-07	0	43	0	341835776	15	4669
2026-01-03 01:14:30.26	347.62	35.26	-27.7	-29.7	14.5	1.50e-06	0	43	0	344981504	15	4522
2026-01-03 01:14:31.25	347.35	35.43	-27.8	-29.9	14.3	0.00e+00	0	43	0	348127232	15	4587
2026-01-03 01:14:32.25	347.07	35.59	-27.9	-30.2	14.2	1.50e-06	0	43	0	351272960	15	4688
2026-01-03 01:14:33.26	346.79	35.76	-27.9	-30.1	14.3	0.00e+00	0	43	0	354418688	15	4647
2026-01-03 01:14:34.25	346.52	35.93	-28.2	-30.3	14.0	2.20e-06	0	43	0	357564416	16	4595
2026-01-03 01:14:35.26	346.23	36.10	-28.0	-29.8	14.3	7.00e-07	0	43	0	360710144	16	4430
2026-01-03 01:14:36.26	345.95	36.27	-27.8	-30.0	14.3	1.50e-06	0	43	0	363855872	15	4613
2026-01-03 01:14:37.26	345.66	36.44	-27.8	-30.0	14.3	1.50e-06	0	43	0	367001600	15	4602
2026-01-03 01:14:38.26	345.36	36.61	-27.8	-29.9	14.4	1.50e-06	0	43	0	370147328	15	4599
2026-01-03 01:14:39.26	345.07	36.77	-27.9	-30.1	14.3	2.20e-06	0	43	0	373293056	15	4651
2026-01-03 01:14:40.26	344.77	36.94	-27.7	-29.8	14.5	1.50e-06	0	43	0	376438784	15	4545
2026-01-03 01:14:41.26	344.47	37.11	-27.9	-30.1	14.2	0.00e+00	0	43	0	379584512	15	4640
2026-01-03 01:14:42.26	344.17	37.28	-28.1	-30.1	14.1	2.20e-06	0	43	0	382730240	16	4515
2026-01-03 01:14:43.26	343.86	37.45	-28.0	-29.8	14.2	1.50e-06	0	43	0	385875968	16	4450
2026-01-03 01:14:44.26	343.55	37.61	-28.0	-29.8	14.3	0.00e+00	0	43	0	389021696	16	4428
2026-01-03 01:14:45.26	343.23	37.78	-27.9	-30.1	14.2	0.00e+00	0	43	0	392167424	15	4665
2026-01-03 01:14:46.26	342.92	37.95	-28.2	-30.3	14.0	2.20e-06	0	43	0	395313152	16	4596
2026-01-03 01:14:47.26	342.60	38.12	-28.2	-30.4	13.9	5.30e-06	0	43	0	398458880	16	4621
2026-01-03 01:14:48.25	342.27	38.28	-28.0	-29.8	14.4	0.00e+00	0	43	0	400556032	16	4430
2026-01-03 01:14:49.26	341.94	38.45	-27.7	-29.8	14.5	7.00e-07	0	43	0	403701760	15	4548
2026-01-03 01:14:50.26	341.61	38.62	-27.7	-29.7	14.5	0.00e+00	0	43	0	406847488	15	4518
2026-01-03 01:14:51.25	341.28	38.78	-27.6	-29.8	12.2	0.00e+00	0	43	0	409993216	15	4640
2026-01-03 01:14:52.25	340.94	38.95	-27.7	-29.7	14.5	0.00e+00	0	43	0	413138944	15	4517
2026-01-03 01:14:53.25	340.60	39.12	-27.7	-29.7	13.4	7.00e-07	0	43	0	416284672	15	4528
2026-01-03 01:14:54.26	340.26	39.28	-27.8	-30.0	14.3	6.71e-05	0	43	0	419430400	15	4607
2026-01-03 01:14:55.26	339.91	39.45	-27.6	-29.5	14.6	0.00e+00	0	43	0	422576128	15	4475
2026-01-03 01:14:56.26	339.56	39.61	-27.5	-29.2	14.8	0.00e+00	0	43	0	425721856	15	4369
2026-01-03 01:14:57.26	339.20	39.78	-27.6	-29.3	14.7	0.00e+00	0	43	0	428867584	15	4419
2026-01-03 01:14:58.25	338.84	39.94	-27.8	-30.0	14.3	0.00e+00	0	43	0	432013312	15	4614
2026-01-03 01:14:59.25	338.48	40.10	-27.8	-30.0	14.3	3.85e-03	0	43	0	435159040	15	4627
2026-01-03 01:15:00.25	338.12	40.27	-28.2	-30.2	14.1	3.00e-06	0	43	0	438304768	16	4549
2026-01-03 01:15:01.24	337.75	40.43	-28.0	-29.9	14.3	2.20e-06	0	43	0	441450496	16	4461
2026-01-03 01:15:02.24	337.37	40.59	-28.1	-30.1	14.2	2.20e-06	0	43	0	444596224	16	4516
2026-01-03 01:15:03.23	337.00	40.75	-28.3	-30.6	13.9	5.30e-06	0	43	0	447741952	16	4684
2026-01-03 01:15:04.23	336.62	40.91	-28.5	-31.0	13.7	7.40e-05	0	43	0	450887680	16	4803
2026-01-03 01:15:05.23	336.23	41.07	-28.7	-31.0	13.4	2.73e-03	0	43	0	454033408	17	4677
2026-01-03 01:15:06.23	335.85	41.23	-28.8	-31.3	13.2	3.50e-05	0	43	0	457179136	17	4790
2026-01-03 01:15:07.23	335.45	41.38	-28.9	-31.4	13.1	2.51e-05	0	43	0	460324864	17	4836
2026-01-03 01:15:08.22	335.06	41.54	-29.1	-31.4	12.8	6.86e-05	0	43	0	463470592	18	4710
2026-01-03 01:15:09.22	334.66	41.69	-29.5	-32.1	12.9	2.16e-03	0	43	0	466616320	18	4861
2026-01-03 01:15:10.22	334.25	41.85	-29.0	-31.3	12.9	9.15e-05	0	43	0	469762048	18	4667
2026-01-03 01:15:11.21	333.85	42.00	-29.0	-31.4	12.8	4.88e-05	0	43	0	472907776	18	4701
2026-01-03 01:15:12.20	333.44	42.15	-29.1	-31.6	12.7	8.77e-05	0	43	0	476053504	18	4775
2026-01-03 01:15:13.20	333.03	42.31	-29.0	-31.2	12.9	5.03e-05	0	43	0	479199232	18	4641
2026-01-03 01:15:14.21	332.60	42.46	-29.0	-31.2	12.9	9.55e-04	0	43	0	482344960	18	4646
2026-01-03 01:15:15.20	332.18	42.61	-29.4	-32.2	12.4	8.61e-04	0	43	0	485490688	18	4976
2026-01-03 01:15:16.20	331.75	42.75	-29.3	-32.1	12.4	1.11e-04	0	43	0	488636416	18	4936
2026-01-03 01:15:17.20	331.32	42.90	-29.3	-31.9	12.4	1.58e-04	0	43	0	491782144	18	4876
2026-01-03 01:15:18.20	330.88	43.05	-29.1	-31.5	12.8	4.43e-04	0	43	0	494927872	18	4748
2026-01-03 01:15:19.20	330.44	43.19	-29.1	-31.5	12.8	5.79e-05	0	43	0	498073600	18	4732
2026-01-03 01:15:20.20	330.00	43.34	-29.1	-31.4	12.8	1.12e-03	0	43	0	501219328	18	4715
2026-01-03 01:15:21.20	329.55	43.48	-29.1	-31.6	12.7	9.53e-05	0	43	0	504365056	18	4779
2026-01-03 01:15:22.20	329.10	43.62	-28.8	-30.8	13.2	3.81e-05	0	43	0	507510784	18	4520
2026-01-03 01:15:23.20	328.64	43.76	-28.8	-31.2	13.3	3.41e-03	0	43	0	510656512	17	4748
2026-01-03 01:15:24.20	328.18	43.89	-29.2	-31.8	12.6	3.83e-03	0	43	0	513802240	18	4830
2026-01-03 01:15:25.19	327.72	44.03	-29.3	-32.1	12.4	1.43e-04	0	43	0	516947968	18	4933
2026-01-03 01:15:26.20	327.25	44.16	-29.5	-32.4	12.1	2.02e-04	0	43	0	520093696	18	5056
2026-01-03 01:15:27.19	326.78	44.29	-29.5	-32.1	12.0	2.55e-04	0	43	0	523239424	19	4856
2026-01-03 01:15:28.20	326.30	44.43	-29.5	-31.9	12.2	2.52e-04	0	43	0	526385152	19	4774
2026-01-03 01:15:29.20	325.82	44.56	-29.3	-32.0	12.5	4.21e-03	0	43	0	529530880	18	4917
2026-01-03 01:15:30.21	325.33	44.68	-29.1	-31.4	12.8	3.85e-03	0	43	0	532676608	18	4721
2026-01-03 01:15:31.21	324.85	44.81	-29.1	-31.5	12.8	8.08e-05	0	43	0	534773760	18	4739
2026-01-03 01:15:32.21	324.35	44.93	-28.6	-30.8	13.5	3.51e-03	0	43	0	538968064	17	4617
2026-01-03 01:15:33.22	323.85	45.05	-28.4	-30.7	13.8	3.93e-03	0	43	0	542113792	16	4694
2026-01-03 01:15:34.21	323.36	45.17	-28.5	-30.9	13.8	7.32e-05	0	43	0	544210944	16	4778
2026-01-03 01:15:35.21	322.86	45.29	-28.6	-30.7	13.6	3.27e-03	0	43	0	548405248	17	4579
2026-01-03 01:15:36.21	322.35	45.40	-28.5	-30.5	13.7	3.21e-03	0	43	0	551550976	17	4524
2026-01-03 01:15:37.22	321.83	45.52	-28.4	-30.2	13.8	3.80e-06	0	43	0	553648128	17	4449
2026-01-03 01:15:38.22	321.32	45.63	-28.6	-30.6	13.5	3.54e-03	0	43	0	556793856	17	4577
2026-01-03 01:15:39.21	320.81	45.74	-28.9	-31.4	13.1	3.55e-03	0	43	0	559939584	17	4834
2026-01-03 01:15:40.22	320.28	45.84	-29.1	-31.5	12.7	4.65e-05	0	43	0	563085312	18	4743
2026-01-03 01:15:41.21	319.76	45.94	-29.2	-31.7	12.6	3.57e-03	0	43	0	566231040	18	4796
2026-01-03 01:15:42.20	319.24	46.04	-29.2	-31.8	12.5	2.48e-04	0	43	0	569376768	18	4847
2026-01-03 01:15:43.21	318.70	46.14	-29.2	-31.8	12.6	2.78e-04	0	43	0	572522496	18	4828
2026-01-03 01:15:44.21	318.17	46.24	-29.3	-32.1	12.4	1.33e-03	0	43	0	575668224	18	4939
2026-01-03 01:15:45.21	317.63	46.33	-29.1	-31.5	12.8	6.61e-04	0	43	0	578813952	18	4739
2026-01-03 01:15:46.20	317.09	46.42	-28.8	-30.7	13.3	1.94e-04	0	43	0	581959680	18	4471
2026-01-03 01:15:47.20	316.55	46.51	-28.6	-30.3	13.5	9.90e-06	0	43	0	585105408	18	4370
2026-01-03 01:15:48.21	315.99	46.60	-28.8	-31.1	13.3	7.90e-04	0	43	0	588251136	17	4736
2026-01-03 01:15:49.21	315.44	46.68	-28.8	-31.2	13.3	6.02e-05	0	43	0	591396864	17	4746
2026-01-03 01:15:50.22	314.88	46.76	-28.6	-30.7	13.5	1.71e-03	0	43	0	594542592	17	4586
2026-01-03 01:15:51.21	314.33	46.84	-28.7	-31.1	13.4	2.28e-03	0	43	0	597688320	17	4706
2026-01-03 01:15:52.20	313.78	46.91	-28.8	-31.2	13.2	3.28e-05	0	43	0	600834048	17	4763
2026-01-03 01:15:53.21	313.21	46.98	-28.6	-30.8	13.5	3.28e-03	0	43	0	603979776	17	4610
2026-01-03 01:15:54.20	312.65	47.05	-28.7	-30.9	13.4	3.67e-03	0	43	0	607125504	17	4674
2026-01-03 01:15:55.21	312.08	47.12	-28.4	-30.3	13.8	2.71e-04	0	43	0	610271232	17	4463
2026-01-03 01:15:56.21	311.51	47.18	-28.3	-30.6	13.9	3.52e-03	0	43	0	613416960	16	4678
2026-01-03 01:15:57.21	310.94	47.24	-28.4	-30.8	13.8	1.75e-05	0	43	0	616562688	16	4746
2026-01-03 01:15:58.21	310.37	47.30	-28.4	-30.8	13.8	4.50e-06	0	43	0	619708416	16	4754
2026-01-03 01:15:59.21	309.79	47.35	-28.5	-30.6	13.6	2.70e-03	0	43	0	622854144	17	4569
2026-01-03 01:16:00.21	309.22	47.40	-28.5	-30.5	13.7	2.54e-03	0	43	0	625999872	17	4548
2026-01-03 01:16:01.20	308.64	47.45	-28.3	-30.0	14.0	1.21e-04	0	43	0	629145600	17	4375
2026-01-03 01:16:02.20	308.06	47.49	-28.6	-30.7	13.6	9.90e-06	0	43	0	632291328	17	4592
2026-01-03 01:16:03.21	307.47	47.54	-28.6	-30.7	13.5	2.36e-05	0	43	0	635437056	17	4604
2026-01-03 01:16:04.22	306.88	47.57	-28.7	-30.9	13.4	9.90e-06	0	43	0	638582784	17	4671
2026-01-03 01:16:05.22	306.30	47.61	-28.7	-31.1	13.3	2.33e-03	0	43	0	641728512	17	4724
2026-01-03 01:16:06.22	305.71	47.64	-28.5	-30.5	13.7	1.37e-05	0	43	0	644874240	17	4543
2026-01-03 01:16:07.23	305.12	47.67	-28.6	-30.7	13.6	6.80e-06	0	43	0	648019968	17	4587
2026-01-03 01:16:08.23	304.53	47.69	-28.6	-30.8	13.5	1.83e-05	0	43	0	651165696	17	4615
2026-01-03 01:16:09.23	303.94	47.71	-28.5	-30.6	13.7	1.06e-05	0	43	0	654311424	17	4571
2026-01-03 01:16:10.23	303.35	47.73	-28.6	-30.8	13.4	1.75e-05	0	43	0	657457152	17	4638
2026-01-03 01:16:11.22	302.76	47.75	-28.6	-30.8	13.5	1.29e-05	0	43	0	660602880	17	4625
2026-01-03 01:16:12.22	302.17	47.76	-28.6	-30.7	13.6	6.80e-06	0	43	0	663748608	17	4583
2026-01-03 01:16:13.23	301.57	47.77	-28.8	-31.2	13.3	2.28e-05	0	43	0	666894336	17	4763
2026-01-03 01:16:14.24	300.97	47.77	-29.0	-31.7	13.0	3.12e-05	0	43	0	670040064	17	4926
2026-01-03 01:16:15.23	300.39	47.77	-29.1	-31.6	12.7	8.23e-05	0	43	0	673185792	18	4767
2026-01-03 01:16:16.22	299.80	47.77	-29.2	-31.7	12.7	9.91e-05	0	44	0	676331520	18	4829
2026-01-03 01:16:17.23	299.20	47.77	-29.1	-31.5	12.7	6.25e-05	0	43	0	679477248	18	4757
2026-01-03 01:16:18.23	298.61	47.76	-29.2	-31.9	12.6	8.62e-05	0	43	0	682622976	18	4868
2026-01-03 01:16:19.23	298.02	47.75	-29.3	-32.1	12.4	1.85e-04	0	43	0	685768704	18	4948
2026-01-03 01:16:20.24	297.42	47.73	-29.2	-31.8	12.6	8.92e-05	0	43	0	688914432	18	4841
2026-01-03 01:16:21.23	296.84	47.71	-29.4	-32.3	12.3	1.07e-04	0	43	0	692060160	18	5032
2026-01-03 01:16:22.22	296.25	47.69	-29.4	-32.4	12.3	1.81e-04	0	43	0	695205888	18	5053
2026-01-03 01:16:23.22	295.66	47.67	-29.3	-32.0	12.5	1.46e-04	0	43	0	698351616	18	4906
2026-01-03 01:16:24.23	295.07	47.64	-28.8	-30.8	13.2	3.35e-05	0	43	0	701497344	18	4525
2026-01-03 01:16:25.23	294.48	47.60	-28.4	-30.4	13.7	2.89e-04	0	43	0	704643072	17	4493
2026-01-03 01:16:26.22	293.90	47.57	-28.5	-30.5	13.7	2.93e-04	0	43	0	707788800	17	4531
2026-01-03 01:16:27.22	293.32	47.53	-28.6	-30.7	13.5	8.30e-06	0	43	0	710934528	17	4609
2026-01-03 01:16:28.22	292.74	47.49	-28.6	-30.8	13.4	1.37e-05	0	43	0	713031680	17	4633
2026-01-03 01:16:29.23	292.15	47.45	-28.8	-31.2	13.2	1.75e-05	0	43	0	716177408	17	4749
2026-01-03 01:16:30.23	291.57	47.40	-28.7	-31.1	13.3	2.36e-05	0	43	0	719323136	17	4737
2026-01-03 01:16:31.23	290.99	47.35	-28.7	-31.0	13.3	1.90e-05	0	43	0	722468864	17	4699
2026-01-03 01:16:32.22	290.42	47.29	-28.7	-31.0	13.4	1.44e-05	0	43	0	725614592	17	4708
2026-01-03 01:16:33.23	289.84	47.24	-28.2	-29.8	14.0	1.50e-06	0	43	0	728760320	17	4339
2026-01-03 01:16:34.24	289.27	47.18	-28.5	-30.4	13.8	5.30e-06	0	43	0	731906048	17	4512
2026-01-03 01:16:35.24	288.70	47.11	-28.8	-31.4	13.1	2.13e-05	0	43	0	735051776	17	4820
2026-01-03 01:16:36.24	288.13	47.05	-29.0	-31.4	12.8	4.19e-05	0	43	0	738197504	18	4712
2026-01-03 01:16:37.24	287.56	46.98	-29.2	-31.8	12.6	9.07e-05	0	43	0	741343232	18	4838
2026-01-03 01:16:38.24	287.00	46.91	-29.2	-31.9	12.5	1.05e-04	0	44	0	744488960	18	4872
2026-01-03 01:16:39.24	286.44	46.83	-29.0	-31.3	12.9	5.49e-05	0	43	0	747634688	18	4699
2026-01-03 01:16:40.23	285.89	46.75	-29.1	-31.4	12.8	7.01e-05	0	43	0	750780416	18	4729
2026-01-03 01:16:41.23	285.34	46.67	-28.9	-30.9	13.1	3.20e-05	0	43	0	753926144	18	4568
2026-01-03 01:16:42.23	284.79	46.59	-28.8	-30.6	13.3	1.83e-05	0	43	0	757071872	18	4463
2026-01-03 01:16:43.23	284.24	46.50	-29.0	-31.2	12.9	4.19e-05	0	43	0	760217600	18	4638
2026-01-03 01:16:44.23	283.69	46.42	-28.6	-30.3	13.5	1.52e-05	0	43	0	763363328	18	4375
2026-01-03 01:16:45.24	283.15	46.32	-28.4	-29.7	13.8	4.50e-06	0	43	0	766509056	18	4196
2026-01-03 01:16:46.24	282.61	46.23	-28.4	-29.8	13.8	6.10e-06	0	43	0	769654784	18	4236
2026-01-03 01:16:47.25	282.07	46.13	-28.3	-29.9	14.0	7.60e-06	0	43	0	772800512	17	4369
2026-01-03 01:16:48.25	281.54	46.03	-28.4	-30.9	13.7	1.50e-06	0	43	0	775946240	16	4768
2026-01-03 01:16:49.25	281.01	45.93	-28.9	-31.6	13.0	3.12e-05	0	43	0	779091968	17	4895
2026-01-03 01:16:50.25	280.48	45.83	-29.0	-31.3	12.8	1.93e-04	0	43	0	782237696	18	4672
2026-01-03 01:16:51.24	279.96	45.72	-29.2	-31.8	12.5	8.01e-05	0	43	0	785383424	18	4847
2026-01-03 01:16:52.25	279.44	45.61	-29.2	-31.7	12.7	2.09e-04	0	43	0	788529152	18	4813
2026-01-03 01:16:53.25	278.93	45.50	-28.7	-30.6	13.3	9.15e-05	0	43	0	791674880	18	4475
2026-01-03 01:16:54.26	278.41	45.39	-28.6	-30.9	13.4	1.60e-05	0	43	0	794820608	17	4657
2026-01-03 01:16:55.27	277.90	45.27	-28.9	-31.4	13.1	3.28e-05	0	43	0	797966336	17	4837
2026-01-03 01:16:56.27	277.39	45.15	-29.2	-31.8	12.6	6.63e-05	0	43	0	801112064	18	4836
2026-01-03 01:16:57.27	276.90	45.03	-29.4	-32.3	12.2	1.81e-04	0	43	0	804257792	18	5036
2026-01-03 01:16:58.27	276.40	44.91	-29.6	-32.2	12.0	4.01e-04	0	43	0	807403520	19	4881
2026-01-03 01:16:59.27	275.91	44.79	-29.4	-31.8	12.2	2.78e-04	0	43	0	810549248	19	4734
2026-01-03 01:17:00.27	275.42	44.66	-29.1	-31.5	12.7	1.46e-04	0	43	0	813694976	18	4732
2026-01-03 01:17:01.26	274.94	44.54	-28.4	-29.8	13.8	2.14e-04	0	43	0	816840704	18	4220
2026-01-03 01:17:02.26	274.46	44.41	-28.3	-30.0	13.9	3.76e-04	0	43	0	819986432	17	4378
2026-01-03 01:17:03.26	273.98	44.28	-28.7	-31.0	13.3	1.22e-05	0	43	0	823132160	17	4709
2026-01-03 01:17:04.27	273.50	44.14	-29.1	-31.4	12.8	4.68e-04	0	43	0	826277888	18	4719
2026-01-03 01:17:05.28	273.03	44.01	-28.8	-30.9	13.1	3.07e-04	0	43	0	829423616	18	4540
2026-01-03 01:17:06.28	272.57	43.87	-28.6	-30.8	13.4	1.67e-05	0	43	0	832569344	17	4627
2026-01-03 01:17:07.28	272.11	43.73	-28.6	-30.6	13.5	2.51e-04	0	43	0	835715072	17	4565
2026-01-03 01:17:08.29	271.64	43.59	-28.6	-30.6	13.5	3.96e-04	0	43	0	838860800	17	4577
2026-01-03 01:17:09.29	271.19	43.45	-28.5	-30.4	13.6	7.60e-06	0	43	0	842006528	17	4505
2026-01-03 01:17:10.28	270.75	43.31	-29.3	-31.9	12.5	4.32e-04	0	43	0	845152256	18	4891
2026-01-03 01:17:11.29	270.30	43.16	-30.3	-33.7	10.5	2.23e-03	0	43	0	848297984	20	5356
2026-01-03 01:17:12.29	269.86	43.02	-30.4	-34.1	10.2	6.75e-03	0	43	0	851443712	20	5499
2026-01-03 01:17:13.30	269.42	42.87	-30.0	-33.1	10.8	4.42e-03	0	43	0	854589440	20	5094
2026-01-03 01:17:14.31	268.98	42.72	-29.3	-31.5	12.3	7.91e-04	0	43	0	857735168	19	4641
2026-01-03 01:17:15.31	268.55	42.57	-29.0	-31.3	12.8	7.17e-05	0	43	0	860880896	18	4664
2026-01-03 01:17:16.32	268.12	42.42	-28.8	-31.2	13.0	2.59e-05	0	43	0	864026624	17	4744
2026-01-03 01:17:17.32	267.70	42.27	-28.3	-30.6	13.7	1.05e-04	0	43	0	867172352	16	4683
2026-01-03 01:17:18.32	267.28	42.12	-28.9	-31.4	12.9	1.60e-05	0	43	0	870318080	17	4841
2026-01-03 01:17:19.32	266.87	41.96	-29.7	-32.6	11.6	8.49e-04	0	43	0	873463808	19	5009
2026-01-03 01:17:20.32	266.46	41.81	-30.0	-33.1	11.0	1.88e-03	0	43	0	876609536	20	5102
2026-01-03 01:17:21.34	266.05	41.65	-29.9	-32.8	11.1	1.53e-03	0	43	0	879755264	20	4986
2026-01-03 01:17:22.35	265.65	41.49	-29.6	-32.2	11.8	4.68e-03	0	43	0	882900992	19	4879
2026-01-03 01:17:23.35	265.25	41.33	-29.2	-31.8	12.4	1.15e-03	0	43	0	886046720	18	4855
2026-01-03 01:17:24.35	264.86	41.18	-28.6	-30.3	13.4	1.06e-05	0	43	0	889192448	18	4374
2026-01-03 01:17:25.36	264.46	41.01	-28.8	-31.3	13.1	7.81e-04	0	43	0	892338176	17	4812
2026-01-03 01:17:26.36	264.08	40.85	-29.7	-32.6	11.7	3.45e-03	0	43	0	895483904	19	5020
2026-01-03 01:17:27.37	263.69	40.69	-30.5	-34.4	10.0	5.93e-03	0	43	0	898629632	20	5624
2026-01-03 01:17:28.37	263.31	40.53	-30.4	-34.2	10.2	1.08e-02	0	43	0	901775360	20	5546
2026-01-03 01:17:29.38	262.94	40.37	-30.0	-33.1	10.9	5.46e-03	0	43	0	904921088	20	5108
2026-01-03 01:17:30.39	262.56	40.20	-29.4	-31.7	12.2	4.69e-04	0	43	0	908066816	19	4706
2026-01-03 01:17:31.39	262.20	40.04	-28.7	-30.9	13.3	4.82e-03	0	43	0	911212544	17	4663
2026-01-03 01:17:32.39	261.83	39.87	-28.4	-30.8	13.6	3.79e-03	0	43	0	914358272	16	4742
2026-01-03 01:17:33.39	261.47	39.71	-28.7	-30.9	13.3	2.13e-05	0	43	0	917504000	17	4679
2026-01-03 01:17:34.40	261.12	39.54	-29.2	-31.7	12.5	3.90e-03	0	43	0	920649728	18	4821
2026-01-03 01:17:35.41	260.76	39.38	-30.2	-33.6	10.5	6.09e-03	0	43	0	923795456	20	5323
2026-01-03 01:17:36.42	260.41	39.21	-31.2	-35.6	8.5	2.46e-02	0	43	0	926941184	22	5987
2026-01-03 01:17:37.42	260.06	39.04	-31.0	-35.0	8.9	3.29e-02	0	43	0	930086912	22	5706
2026-01-03 01:17:38.43	259.72	38.87	-30.4	-33.7	10.0	1.51e-02	0	43	0	933232640	21	5245
2026-01-03 01:17:39.44	259.38	38.71	-30.0	-32.5	10.8	2.43e-03	0	43	0	936378368	21	4784
2026-01-03 01:17:40.45	259.04	38.54	-30.1	-33.2	10.8	6.85e-03	0	44	0	939524096	20	5131
2026-01-03 01:17:41.45	258.71	38.37	-29.9	-33.0	11.3	4.98e-03	0	43	0	942669824	19	5160
2026-01-03 01:17:42.46	258.38	38.20	-30.1	-33.1	10.9	1.57e-03	0	43	0	945815552	20	5114
2026-01-03 01:17:43.47	258.05	38.03	-30.0	-32.9	10.9	5.79e-03	0	43	0	948961280	20	5043
2026-01-03 01:17:44.47	257.73	37.86	-30.4	-34.0	10.2	9.23e-03	0	43	0	952107008	20	5459
2026-01-03 01:17:45.48	257.41	37.69	-30.6	-34.2	9.7	1.07e-02	0	43	0	955252736	21	5453
2026-01-03 01:17:46.49	257.10	37.52	-30.7	-34.4	9.6	1.38e-02	0	43	0	958398464	21	5520
2026-01-03 01:17:47.50	256.78	37.35	-30.3	-33.2	10.4	1.39e-02	0	43	0	961544192	21	5064
2026-01-03 01:17:48.50	256.48	37.18	-29.5	-31.5	11.9	9.87e-04	0	43	0	964689920	20	4560
2026-01-03 01:17:49.50	256.17	37.01	-28.9	-31.0	12.9	4.33e-03	0	43	0	967835648	18	4588
2026-01-03 01:17:50.50	255.87	36.84	-28.4	-30.4	13.5	2.80e-03	0	43	0	970981376	17	4527
2026-01-03 01:17:51.50	255.57	36.67	-28.2	-29.7	13.9	3.80e-06	0	43	0	974127104	17	4320
2026-01-03 01:17:52.51	255.28	36.50	-28.2	-30.3	13.8	3.00e-06	0	43	0	977272832	16	4600
2026-01-03 01:17:53.52	254.98	36.33	-28.4	-30.8	13.5	6.80e-06	0	43	0	980418560	16	4770
2026-01-03 01:17:54.53	254.69	36.16	-28.8	-31.3	12.9	2.74e-05	0	43	0	983564288	17	4809
2026-01-03 01:17:55.53	254.40	35.99	-28.9	-31.1	12.8	7.78e-05	0	43	0	986710016	18	4635
2026-01-03 01:17:56.53	254.12	35.83	-28.4	-30.3	13.6	1.90e-05	0	43	0	989855744	17	4491
2026-01-03 01:17:57.54	253.84	35.65	-27.9	-29.2	14.2	1.50e-06	0	43	0	993001472	17	4168
2026-01-03 01:17:58.54	253.56	35.49	-27.5	-29.2	14.6	0.00e+00	0	43	0	996147200	15	4396
2026-01-03 01:17:59.55	253.29	35.32	-27.3	-29.3	14.9	3.97e-03	0	43	0	999292928	14	4528
2026-01-03 01:18:00.55	253.02	35.15	-27.2	-29.0	15.1	0.00e+00	0	43	0	1002438656	14	4435
2026-01-03 01:18:01.56	252.74	34.98	-27.1	-28.9	15.1	0.00e+00	0	43	0	1005584384	14	4411
2026-01-03 01:18:02.56	252.48	34.81	-27.2	-29.1	15.0	0.00e+00	0	43	0	1008730112	14	4478
2026-01-03 01:18:03.56	252.22	34.64	-27.4	-29.4	14.8	7.00e-07	0	43	0	1011875840	14	4582
2026-01-03 01:18:04.57	251.95	34.47	-27.6	-29.5	14.5	7.00e-07	0	43	0	1015021568	15	4472
2026-01-03 01:18:05.57	251.70	34.31	-27.7	-29.8	14.3	7.00e-07	0	43	0	1018167296	15	4574
2026-01-03 01:18:06.58	251.44	34.14	-27.8	-30.0	14.2	7.00e-07	0	43	0	1021313024	15	4650
2026-01-03 01:18:07.59	251.19	33.97	-27.8	-29.9	14.2	1.50e-06	0	43	0	1024458752	15	4607
2026-01-03 01:18:08.59	250.94	33.80	-27.5	-29.2	14.7	0.00e+00	0	44	0	1027604480	15	4383
2026-01-03 01:18:09.59	250.69	33.64	-27.1	-28.4	15.1	0.00e+00	0	43	0	1030750208	15	4167
2026-01-03 01:18:10.60	250.44	33.47	-27.1	-28.8	15.2	0.00e+00	0	43	0	1033895936	14	4376
2026-01-03 01:18:11.61	250.20	33.30	-26.9	-28.5	15.4	0.00e+00	0	43	0	1035993088	14	4285
2026-01-03 01:18:12.62	249.96	33.13	-26.6	-27.7	15.7	0.00e+00	0	43	0	1040187392	14	4095
2026-01-03 01:18:13.62	249.72	32.97	-26.7	-28.5	15.5	0.00e+00	0	43	0	1043333120	13	4413
2026-01-03 01:18:14.63	249.48	32.80	-27.1	-28.9	15.1	0.00e+00	0	43	0	1046478848	14	4410
2026-01-03 01:18:15.63	249.25	32.64	-27.4	-29.5	14.7	0.00e+00	0	43	0	1049624576	14	4598
2026-01-03 01:18:16.63	249.02	32.47	-27.6	-29.5	14.5	0.00e+00	0	43	0	1052770304	15	4484
2026-01-03 01:18:17.64	248.79	32.31	-27.5	-29.3	14.6	0.00e+00	0	43	0	1055916032	15	4422
2026-01-03 01:18:18.65	248.56	32.14	-27.5	-29.2	14.6	0.00e+00	0	43	0	1059061760	15	4400
2026-01-03 01:18:19.66	248.34	31.98	-27.2	-29.0	15.0	7.00e-07	0	43	0	1062207488	14	4447
2026-01-03 01:18:20.66	248.12	31.82	-26.9	-28.3	15.4	0.00e+00	0	43	0	1065353216	14	4251
2026-01-03 01:18:21.66	247.90	31.66	-26.8	-28.7	15.5	0.00e+00	0	44	0	1068498944	13	4466
2026-01-03 01:18:22.67	247.68	31.49	-26.7	-28.5	15.6	0.00e+00	0	43	0	1071644672	13	4404
2026-01-03 01:18:23.68	247.47	31.33	-26.8	-28.6	15.5	0.00e+00	0	43	0	1074790400	13	4446
2026-01-03 01:18:24.68	247.26	31.17	-26.7	-28.5	15.6	0.00e+00	0	43	0	1077936128	13	4415
2026-01-03 01:18:25.69	247.04	31.01	-26.8	-28.6	15.5	0.00e+00	0	44	0	1081081856	13	4440
2026-01-03 01:18:26.69	246.84	30.85	-27.1	-28.9	15.1	0.00e+00	0	43	0	1083179008	14	4411
2026-01-03 01:18:27.70	246.63	30.69	-27.0	-28.5	15.3	0.00e+00	0	43	0	1086324736	14	4314
2026-01-03 01:18:28.70	246.43	30.53	-26.9	-28.9	15.3	0.00e+00	0	43	0	1089470464	13	4539
2026-01-03 01:18:29.70	246.22	30.37	-26.9	-28.9	15.3	0.00e+00	0	43	0	1092616192	13	4537
2026-01-03 01:18:30.70	246.02	30.21	-27.0	-29.1	15.2	7.00e-07	0	43	0	1095761920	13	4584
2026-01-03 01:18:31.71	245.83	30.05	-26.9	-28.8	15.3	0.00e+00	0	43	0	1098907648	13	4515
2026-01-03 01:18:32.71	245.63	29.90	-26.8	-28.6	15.4	0.00e+00	0	43	0	1103101952	13	4463
2026-01-03 01:18:33.72	245.43	29.74	-26.8	-28.8	15.4	0.00e+00	0	43	0	1106247680	13	4502
2026-01-03 01:18:34.72	245.24	29.58	-26.7	-28.4	15.5	7.60e-06	0	43	0	1108344832	13	4405
2026-01-03 01:18:35.73	245.05	29.42	-26.6	-28.3	15.6	0.00e+00	0	43	0	1111490560	13	4367
2026-01-03 01:18:36.73	244.86	29.27	-26.7	-28.4	15.6	0.00e+00	0	43	0	1114636288	13	4382
2026-01-03 01:18:37.73	244.68	29.11	-26.7	-28.4	15.6	0.00e+00	0	43	0	1117782016	13	4395
2026-01-03 01:18:38.74	244.49	28.96	-26.8	-28.6	15.4	0.00e+00	0	43	0	1120927744	13	4458
2026-01-03 01:18:39.74	244.31	28.81	-26.6	-28.1	15.7	0.00e+00	0	43	0	1124073472	13	4314
2026-01-03 01:18:40.75	244.13	28.65	-26.3	-27.7	15.9	1.22e-05	0	43	0	1127219200	13	4188
2026-01-03 01:18:41.76	243.94	28.50	-26.3	-28.0	16.0	0.00e+00	0	43	0	1130364928	12	4395
2026-01-03 01:18:42.77	243.77	28.34	-26.4	-28.2	15.8	0.00e+00	0	43	0	1133510656	12	4460
2026-01-03 01:18:43.77	243.59	28.19	-26.3	-28.1	16.0	0.00e+00	0	43	0	1136656384	12	4418
2026-01-03 01:18:44.78	243.41	28.04	-26.3	-28.0	16.0	0.00e+00	0	43	0	1139802112	12	4390
2026-01-03 01:18:45.78	243.24	27.89	-25.9	-27.6	16.0	0.00e+00	0	43	0	1142947840	12	4389
2026-01-03 01:18:46.78	243.07	27.74	-26.1	-27.5	15.7	3.40e-03	0	43	0	1146093568	13	4276
2026-01-03 01:18:47.79	242.90	27.59	-27.1	-29.0	15.0	0.00e+00	0	43	0	1149239296	14	4434
2026-01-03 01:18:48.79	242.73	27.44	-26.9	-28.5	14.9	0.00e+00	0	43	0	1152385024	14	4306
2026-01-03 01:18:49.80	242.57	27.29	-26.6	-28.2	15.3	1.44e-05	0	43	0	1155530752	13	4333
2026-01-03 01:18:50.81	242.40	27.14	-26.6	-28.3	15.6	0.00e+00	0	44	0	1158676480	13	4359
2026-01-03 01:18:51.81	242.24	26.99	-26.7	-28.5	15.4	7.64e-04	0	43	0	1161822208	13	4435
2026-01-03 01:18:52.82	242.07	26.85	-26.8	-28.8	15.3	5.09e-04	0	43	0	1164967936	13	4502
2026-01-03 01:18:53.82	241.91	26.70	-26.7	-28.5	15.4	0.00e+00	0	43	0	1168113664	13	4438
2026-01-03 01:18:54.82	241.76	26.55	-26.6	-28.3	15.6	7.00e-07	0	43	0	1171259392	13	4364
2026-01-03 01:18:55.83	241.60	26.41	-26.7	-28.6	15.4	1.22e-05	0	43	0	1174405120	13	4441
2026-01-03 01:18:56.83	241.44	26.26	-26.7	-28.5	15.4	0.00e+00	0	43	0	1177550848	13	4434
2026-01-03 01:18:57.84	241.29	26.12	-26.7	-28.4	15.4	5.55e-04	0	43	0	1180696576	13	4404
2026-01-03 01:18:58.84	241.13	25.97	-26.7	-28.4	15.5	3.19e-03	0	43	0	1183842304	13	4390
2026-01-03 01:18:59.84	240.98	25.83	-26.6	-28.3	15.5	0.00e+00	0	43	0	1186988032	13	4375
2026-01-03 01:19:00.84	240.83	25.69	-26.8	-28.8	15.3	8.30e-06	0	43	0	1190133760	13	4505
2026-01-03 01:19:01.85	240.68	25.55	-26.5	-28.1	15.6	3.38e-03	0	43	0	1193279488	13	4307
2026-01-03 01:19:02.86	240.54	25.40	-26.2	-27.9	16.0	2.32e-04	0	43	0	1196425216	12	4366
2026-01-03 01:19:03.87	240.39	25.26	-26.0	-27.5	16.2	4.31e-03	0	44	0	1199570944	12	4251
2026-01-03 01:19:04.87	240.24	25.12	-25.9	-27.2	16.4	3.99e-03	0	43	0	1202716672	12	4176
2026-01-03 01:19:05.87	240.10	24.98	-26.0	-27.8	16.4	0.00e+00	0	43	0	1205862400	11	4445
2026-01-03 01:19:06.88	239.96	24.84	-25.9	-27.7	16.4	3.33e-03	0	43	0	1209008128	11	4426
2026-01-03 01:19:07.88	239.82	24.70	-26.2	-27.8	16.0	3.95e-03	0	43	0	1212153856	12	4338
2026-01-03 01:19:08.89	239.68	24.56	-26.4	-28.4	15.7	3.21e-04	0	43	0	1215299584	12	4501
2026-01-03 01:19:09.90	239.54	24.42	-26.2	-28.0	15.9	3.43e-03	0	43	0	1218445312	12	4384
2026-01-03 01:19:10.91	239.40	24.29	-26.1	-27.6	16.1	0.00e+00	0	43	0	1221591040	12	4290
2026-01-03 01:19:11.91	239.26	24.15	-26.1	-27.5	16.2	0.00e+00	0	43	0	1224736768	12	4272
2026-01-03 01:19:12.92	239.13	24.01	-26.2	-27.8	16.0	3.16e-03	0	43	0	1227882496	12	4353
2026-01-03 01:19:13.92	238.99	23.88	-26.3	-28.2	15.8	3.51e-03	0	43	0	1231028224	12	4455
2026-01-03 01:19:14.92	238.86	23.74	-26.4	-28.4	15.7	5.11e-05	0	43	0	1234173952	12	4511
2026-01-03 01:19:15.93	238.73	23.61	-26.3	-28.2	15.8	1.93e-03	0	43	0	1237319680	12	4451
2026-01-03 01:19:16.93	238.60	23.47	-26.4	-28.2	15.8	2.57e-03	0	43	0	1240465408	12	4462
2026-01-03 01:19:17.95	238.47	23.34	-26.5	-28.1	15.6	0.00e+00	0	43	0	1243611136	13	4324
2026-01-03 01:19:18.95	238.34	23.20	-26.8	-28.8	15.2	6.88e-03	0	43	0	1246756864	13	4531
2026-01-03 01:19:19.96	238.21	23.07	-26.7	-28.6	15.3	7.49e-03	0	43	0	1249902592	13	4449
2026-01-03 01:19:20.96	238.09	22.94	-27.0	-28.8	14.9	0.00e+00	0	43	0	1253048320	14	4392
2026-01-03 01:19:21.97	237.96	22.81	-26.8	-28.9	15.1	3.88e-03	0	43	0	1256194048	13	4535
2026-01-03 01:19:22.98	237.84	22.68	-26.8	-28.8	15.2	3.76e-03	0	43	0	1259339776	13	4516
2026-01-03 01:19:23.99	237.72	22.54	-26.9	-29.0	15.0	0.00e+00	0	43	0	1262485504	13	4578
2026-01-03 01:19:24.99	237.59	22.41	-26.9	-29.0	15.0	7.33e-03	0	43	0	1265631232	13	4574
2026-01-03 01:19:26.00	237.47	22.28	-26.8	-28.7	15.2	3.60e-03	0	43	0	1268776960	13	4502
2026-01-03 01:19:27.00	237.35	22.16	-26.5	-28.0	15.6	0.00e+00	0	43	0	1271922688	13	4288
2026-01-03 01:19:28.01	237.24	22.03	-26.3	-28.0	15.8	3.44e-03	0	43	0	1275068416	12	4403
2026-01-03 01:19:29.01	237.12	21.90	-26.2	-27.9	15.9	7.00e-07	0	43	0	1278214144	12	4376
2026-01-03 01:19:30.02	237.00	21.77	-26.3	-28.1	15.8	0.00e+00	0	43	0	1281359872	12	4427
2026-01-03 01:19:31.02	236.89	21.64	-26.1	-27.7	16.0	0.00e+00	0	43	0	1284505600	12	4317
2026-01-03 01:19:32.02	236.77	21.52	-26.2	-27.8	15.9	2.93e-03	0	43	0	1287651328	12	4349
2026-01-03 01:19:33.02	236.66	21.39	-26.2	-27.8	15.9	0.00e+00	0	43	0	1290797056	12	4351
2026-01-03 01:19:34.02	236.55	21.27	-26.3	-28.0	15.8	0.00e+00	0	43	0	1293942784	12	4411
2026-01-03 01:19:35.03	236.43	21.14	-26.2	-27.9	15.9	7.00e-07	0	43	0	1297088512	12	4363
2026-01-03 01:19:36.04	236.32	21.02	-26.2	-28.0	15.8	0.00e+00	0	43	0	1300234240	12	4386
2026-01-03 01:19:37.05	236.21	20.89	-26.1	-27.5	16.1	2.02e-03	0	43	0	1303379968	12	4272
2026-01-03 01:19:38.05	236.10	20.77	-26.0	-27.5	16.1	1.83e-03	0	43	0	1306525696	12	4261
2026-01-03 01:19:39.06	235.99	20.65	-26.0	-27.3	16.2	0.00e+00	0	43	0	1309671424	12	4214
2026-01-03 01:19:40.06	235.89	20.52	-26.1	-27.5	16.0	0.00e+00	0	43	0	1312817152	12	4275
2026-01-03 01:19:41.07	235.78	20.40	-25.9	-27.2	16.3	0.00e+00	0	43	0	1315962880	12	4171
2026-01-03 01:19:42.08	235.67	20.28	-26.1	-27.6	16.0	0.00e+00	0	43	0	1319108608	12	4286
2026-01-03 01:19:43.09	235.57	20.16	-26.0	-27.4	16.1	1.72e-03	0	43	0	1322254336	12	4232
2026-01-03 01:19:44.09	235.47	20.04	-25.9	-27.3	16.2	0.00e+00	0	43	0	1325400064	12	4197
2026-01-03 01:19:45.09	235.36	19.92	-26.2	-27.8	15.9	0.00e+00	0	43	0	1328545792	12	4343
2026-01-03 01:19:46.10	235.26	19.80	-26.4	-28.4	15.5	0.00e+00	0	43	0	1331691520	12	4521
2026-01-03 01:19:47.10	235.16	19.68	-26.4	-28.2	15.6	0.00e+00	0	43	0	1334837248	12	4473
2026-01-03 01:19:48.11	235.06	19.56	-26.6	-28.3	15.3	0.00e+00	0	43	0	1337982976	13	4372
2026-01-03 01:19:49.11	234.96	19.44	-26.9	-28.9	15.0	3.80e-06	0	44	0	1341128704	13	4559
2026-01-03 01:19:50.11	234.86	19.32	-26.7	-28.5	15.2	0.00e+00	0	43	0	1344274432	13	4446
2026-01-03 01:19:51.12	234.76	19.21	-26.5	-28.2	15.4	0.00e+00	0	43	0	1347420160	13	4339
2026-01-03 01:19:52.13	234.66	19.09	-26.4	-28.5	15.5	0.00e+00	0	43	0	1350565888	12	4535
2026-01-03 01:19:53.14	234.57	18.97	-26.5	-28.1	15.4	0.00e+00	0	43	0	1353711616	13	4320
2026-01-03 01:19:54.15	234.47	18.86	-26.8	-28.7	15.1	0.00e+00	0	43	0	1356857344	13	4493
2026-01-03 01:19:55.15	234.37	18.74	-27.1	-28.9	14.7	0.00e+00	0	43	0	1360003072	14	4441
2026-01-03 01:19:56.16	234.28	18.63	-26.7	-28.1	15.1	0.00e+00	0	43	0	1363148800	14	4217
2026-01-03 01:19:57.16	234.19	18.51	-26.6	-28.4	15.2	0.00e+00	0	43	0	1366294528	13	4402
2026-01-03 01:19:58.17	234.09	18.40	-26.8	-28.8	15.0	0.00e+00	0	43	0	1369440256	13	4518
2026-01-03 01:19:59.17	234.00	18.28	-26.6	-28.4	15.2	0.00e+00	0	43	0	1372585984	13	4413
2026-01-03 01:20:00.18	233.91	18.17	-26.5	-28.0	15.4	0.00e+00	0	43	0	1375731712	13	4303
2026-01-03 01:20:01.19	233.82	18.06	-26.4	-28.4	15.5	0.00e+00	0	43	0	1378877440	12	4522
2026-01-03 01:20:02.20	233.73	17.94	-26.4	-28.4	15.5	0.00e+00	0	44	0	1382023168	12	4519
2026-01-03 01:20:03.21	233.64	17.83	-26.6	-28.2	15.3	0.00e+00	0	43	0	1385168896	13	4355
2026-01-03 01:20:04.21	233.55	17.72	-26.7	-28.5	15.2	0.00e+00	0	43	0	1388314624	13	4435
2026-01-03 01:20:05.22	233.46	17.61	-26.4	-28.0	15.4	0.00e+00	0	43	0	1391460352	13	4284
2026-01-03 01:20:06.23	233.37	17.50	-26.4	-27.9	15.4	0.00e+00	0	43	0	1394606080	13	4280
2026-01-03 01:20:07.23	233.28	17.39	-26.5	-28.0	15.4	9.99e-04	0	43	0	1397751808	13	4296
2026-01-03 01:20:08.24	233.20	17.28	-26.5	-28.1	15.3	0.00e+00	0	43	0	1400897536	13	4337
2026-01-03 01:20:09.25	233.11	17.17	-26.7	-28.5	15.1	0.00e+00	0	43	0	1404043264	13	4439
2026-01-03 01:20:10.26	233.03	17.06	-26.6	-28.2	15.3	3.00e-06	0	43	0	1407188992	13	4361
2026-01-03 01:20:11.26	232.94	16.95	-26.5	-28.2	15.3	0.00e+00	0	43	0	1410334720	13	4348
2026-01-03 01:20:12.27	232.86	16.84	-26.6	-28.4	15.2	3.87e-03	0	43	0	1413480448	13	4405
2026-01-03 01:20:13.28	232.77	16.73	-26.7	-28.5	15.1	3.77e-03	0	43	0	1416626176	13	4428
2026-01-03 01:20:14.29	232.69	16.63	-26.7	-28.6	15.0	0.00e+00	0	43	0	1419771904	13	4478
2026-01-03 01:20:15.29	232.61	16.52	-26.8	-28.9	14.9	0.00e+00	0	43	0	1422917632	13	4555
2026-01-03 01:20:16.29	232.53	16.41	-26.9	-29.0	14.8	3.66e-04	0	43	0	1426063360	13	4596
2026-01-03 01:20:17.30	232.45	16.31	-27.0	-29.1	14.7	0.00e+00	0	43	0	1429209088	13	4630
2026-01-03 01:20:18.31	232.37	16.20	-27.5	-29.5	14.7	3.72e-03	0	43	0	1432354816	14	4526
2026-01-03 01:20:19.32	232.29	16.09	-27.1	-29.0	14.5	4.17e-03	0	43	0	1435500544	14	4477
2026-01-03 01:20:20.32	232.21	15.99	-27.2	-29.2	14.4	0.00e+00	0	43	0	1438646272	14	4522
2026-01-03 01:20:21.33	232.13	15.89	-27.1	-29.1	14.5	4.24e-03	0	43	0	1441792000	14	4503
2026-01-03 01:20:22.33	232.05	15.78	-27.2	-29.3	14.3	4.11e-03	0	43	0	1444937728	14	4572
2026-01-03 01:20:23.33	231.98	15.68	-27.2	-29.2	14.4	6.10e-06	0	43	0	1448083456	14	4528
2026-01-03 01:20:24.34	231.90	15.57	-27.2	-29.2	14.4	4.11e-03	0	43	0	1451229184	14	4529
2026-01-03 01:20:25.35	231.82	15.47	-27.3	-29.4	14.3	3.97e-03	0	43	0	1454374912	14	4612
2026-01-03 01:20:26.35	231.75	15.37	-27.3	-29.4	14.3	7.00e-07	0	43	0	1457520640	14	4589
2026-01-03 01:20:27.35	231.67	15.27	-27.3	-29.4	14.2	3.88e-03	0	43	0	1460666368	14	4599
2026-01-03 01:20:28.36	231.60	15.17	-27.2	-29.2	14.3	4.21e-03	0	43	0	1463812096	14	4552
2026-01-03 01:20:29.36	231.52	15.06	-27.2	-29.2	14.4	5.11e-05	0	43	0	1466957824	14	4529
2026-01-03 01:20:30.37	231.45	14.96	-27.3	-29.5	14.2	4.39e-03	0	43	0	1470103552	14	4618
2026-01-03 01:20:31.38	231.38	14.86	-27.4	-29.6	14.1	3.00e-06	0	43	0	1473249280	14	4667
2026-01-03 01:20:32.39	231.30	14.76	-27.2	-29.3	14.3	1.50e-06	0	43	0	1476395008	14	4576
2026-01-03 01:20:33.39	231.23	14.66	-27.2	-29.2	14.3	4.31e-03	0	43	0	1479540736	14	4550
2026-01-03 01:20:34.40	231.16	14.56	-27.2	-29.3	14.3	4.12e-03	0	43	0	1482686464	14	4571
2026-01-03 01:20:35.40	231.09	14.46	-27.2	-29.3	14.3	3.96e-05	0	43	0	1485832192	14	4575
2026-01-03 01:20:36.41	231.02	14.36	-27.3	-29.6	14.1	7.00e-07	0	43	0	1488977920	14	4653
2026-01-03 01:20:37.41	230.95	14.26	-27.4	-29.6	14.0	3.80e-06	0	43	0	1492123648	14	4677
2026-01-03 01:20:38.42	230.88	14.17	-27.3	-29.4	14.2	0.00e+00	0	43	0	1495269376	14	4603
2026-01-03 01:20:39.43	230.81	14.07	-27.2	-29.3	14.1	4.38e-03	0	43	0	1498415104	14	4591
2026-01-03 01:20:40.44	230.74	13.97	-27.2	-29.3	14.2	2.27e-04	0	43	0	1501560832	14	4568
2026-01-03 01:20:41.44	230.67	13.87	-27.1	-29.1	14.3	2.20e-06	0	43	0	1504706560	14	4531
2026-01-03 01:20:42.45	230.60	13.78	-27.3	-29.5	14.1	7.00e-07	0	43	0	1507852288	14	4628
2026-01-03 01:20:43.45	230.54	13.68	-27.3	-29.6	14.1	2.20e-06	0	43	0	1510998016	14	4657
2026-01-03 01:20:44.46	230.47	13.58	-27.2	-29.3	14.2	3.52e-04	0	43	0	1514143744	14	4590
2026-01-03 01:20:45.46	230.40	13.49	-27.2	-29.2	14.3	7.55e-05	0	43	0	1517289472	14	4548
2026-01-03 01:20:46.46	230.34	13.39	-27.2	-29.2	14.3	2.20e-06	0	43	0	1520435200	14	4541
2026-01-03 01:20:47.47	230.27	13.30	-27.2	-29.2	14.3	1.50e-06	0	43	0	1523580928	14	4544
2026-01-03 01:20:48.48	230.21	13.20	-27.2	-29.2	14.3	0.00e+00	0	43	0	1526726656	14	4539
2026-01-03 01:20:49.48	230.14	13.11	-27.1	-29.0	14.4	2.49e-04	0	43	0	1529872384	14	4500
2026-01-03 01:20:50.48	230.08	13.02	-27.1	-29.1	14.3	7.00e-07	0	43	0	1533018112	14	4509
2026-01-03 01:20:51.49	230.01	12.92	-27.2	-29.3	14.2	7.00e-07	0	43	0	1536163840	14	4570
2026-01-03 01:20:52.50	229.95	12.83	-27.2	-29.2	14.2	0.00e+00	0	43	0	1539309568	14	4562
2026-01-03 01:20:53.51	229.89	12.73	-27.2	-29.2	14.2	2.20e-06	0	43	0	1542455296	14	4551
2026-01-03 01:20:54.52	229.82	12.64	-27.3	-29.5	14.0	4.00e-04	0	43	0	1545601024	14	4644
2026-01-03 01:20:55.52	229.76	12.55	-27.3	-29.6	14.0	4.00e-04	0	43	0	1548746752	14	4657
2026-01-03 01:20:56.53	229.70	12.46	-27.3	-29.6	14.0	3.00e-06	0	43	0	1551892480	14	4675
2026-01-03 01:20:57.53	229.64	12.36	-27.4	-29.7	13.9	5.30e-06	0	43	0	1555038208	14	4709
2026-01-03 01:20:58.54	229.58	12.27	-27.4	-29.6	13.9	3.00e-06	0	43	0	1558183936	14	4688
2026-01-03 01:20:59.55	229.52	12.18	-27.5	-30.0	13.7	4.50e-06	0	43	0	1561329664	14	4791
2026-01-03 01:21:00.55	229.46	12.09	-27.6	-29.8	13.5	6.74e-04	0	43	0	1564475392	15	4634
2026-01-03 01:21:01.56	229.40	12.00	-27.7	-29.9	13.5	7.16e-04	0	43	0	1567621120	15	4654
2026-01-03 01:21:02.57	229.34	11.91	-27.5	-29.6	13.7	1.60e-05	0	43	0	1570766848	15	4559
2026-01-03 01:21:03.58	229.28	11.82	-27.6	-29.7	13.6	6.33e-04	0	43	0	1573912576	15	4592
2026-01-03 01:21:04.58	229.22	11.73	-27.6	-29.8	13.5	9.90e-06	0	43	0	1577058304	15	4629
2026-01-03 01:21:05.59	229.16	11.64	-27.7	-30.0	13.4	1.52e-05	0	43	0	1580204032	15	4707
2026-01-03 01:21:06.60	229.10	11.55	-27.8	-30.2	13.3	6.48e-04	0	43	0	1583349760	15	4748
2026-01-03 01:21:07.61	229.05	11.46	-27.9	-30.5	13.1	5.38e-04	0	43	0	1586495488	15	4843
2026-01-03 01:21:08.61	228.99	11.37	-28.0	-30.7	13.0	4.80e-05	0	43	0	1589641216	15	4911
2026-01-03 01:21:09.62	228.93	11.28	-27.9	-30.5	13.1	5.00e-04	0	43	0	1592786944	15	4849
2026-01-03 01:21:10.62	228.88	11.20	-27.9	-30.5	13.0	4.87e-04	0	43	0	1595932672	15	4874
2026-01-03 01:21:11.62	228.82	11.11	-28.1	-30.5	12.9	5.95e-05	0	43	0	1599078400	16	4739
2026-01-03 01:21:12.63	228.76	11.02	-28.2	-30.7	12.8	4.17e-04	0	43	0	1602224128	16	4790
2026-01-03 01:21:13.64	228.71	10.93	-28.2	-30.7	12.8	2.76e-04	0	43	0	1605369856	16	4821
2026-01-03 01:21:14.65	228.65	10.85	-28.2	-30.8	12.7	7.32e-05	0	43	0	1608515584	16	4822
2026-01-03 01:21:15.66	228.60	10.76	-28.2	-30.7	12.8	7.09e-05	0	43	0	1611661312	16	4801
2026-01-03 01:21:16.66	228.54	10.67	-28.1	-30.5	12.9	5.49e-05	0	43	0	1614807040	16	4739
2026-01-03 01:21:17.67	228.49	10.59	-28.2	-30.6	12.8	4.50e-05	0	43	0	1617952768	16	4763
2026-01-03 01:21:18.67	228.44	10.50	-28.2	-30.6	12.8	1.79e-04	0	43	0	1621098496	16	4770
2026-01-03 01:21:19.68	228.38	10.42	-28.1	-30.6	12.8	9.00e-05	0	43	0	1624244224	16	4771
2026-01-03 01:21:20.68	228.33	10.33	-28.2	-30.6	12.8	7.78e-05	0	43	0	1627389952	16	4791
2026-01-03 01:21:21.69	228.28	10.25	-28.2	-30.7	12.8	5.64e-05	0	43	0	1630535680	16	4795
2026-01-03 01:21:22.70	228.22	10.16	-28.1	-30.6	12.8	7.70e-05	0	43	0	1633681408	16	4768
2026-01-03 01:21:23.71	228.17	10.08	-28.2	-30.7	12.7	6.86e-05	0	43	0	1636827136	16	4804
2026-01-03 01:21:24.71	228.12	9.99	-28.2	-30.6	12.7	1.18e-04	0	43	0	1639972864	16	4790
2026-01-03 01:21:25.72	228.07	9.91	-28.2	-30.8	12.6	9.68e-05	0	43	0	1643118592	16	4833
2026-01-03 01:21:26.73	228.02	9.82	-28.3	-30.9	12.5	9.53e-05	0	43	0	1646264320	16	4889
2026-01-03 01:21:27.74	227.97	9.74	-28.3	-30.9	12.5	2.39e-03	0	43	0	1649410048	16	4885
2026-01-03 01:21:28.74	227.92	9.66	-28.1	-30.6	12.7	2.32e-04	0	43	0	1652555776	16	4786
2026-01-03 01:21:29.75	227.87	9.57	-28.1	-30.6	12.7	9.38e-05	0	43	0	1655701504	16	4783
2026-01-03 01:21:30.76	227.82	9.49	-28.2	-30.7	12.7	6.10e-05	0	43	0	1658847232	16	4805
2026-01-03 01:21:31.76	227.77	9.41	-28.1	-30.5	12.7	8.23e-05	0	43	0	1661992960	16	4757
2026-01-03 01:21:32.77	227.72	9.33	-28.0	-30.8	12.7	2.64e-03	0	43	0	1665138688	15	4965
2026-01-03 01:21:33.78	227.67	9.24	-28.1	-30.5	12.8	2.72e-03	0	43	0	1668284416	16	4758
2026-01-03 01:21:34.78	227.62	9.16	-28.1	-30.6	12.6	2.42e-04	0	43	0	1671430144	16	4779
2026-01-03 01:21:35.78	227.57	9.08	-28.1	-30.5	12.7	6.79e-05	0	43	0	1674575872	16	4767
2026-01-03 01:21:36.79	227.52	9.00	-28.3	-30.9	12.5	1.24e-04	0	43	0	1677721600	16	4872
2026-01-03 01:21:37.79	227.47	8.92	-28.1	-30.6	12.6	1.84e-04	0	43	0	1680867328	16	4788
2026-01-03 01:21:38.80	227.43	8.84	-28.1	-30.6	12.7	3.26e-03	0	43	0	1684013056	16	4780
2026-01-03 01:21:39.80	227.38	8.76	-28.2	-30.6	12.6	3.66e-03	0	43	0	1687158784	16	4800
2026-01-03 01:21:40.81	227.33	8.68	-28.1	-30.6	12.7	2.73e-04	0	43	0	1690304512	16	4770
2026-01-03 01:21:41.82	227.29	8.60	-28.2	-30.6	12.6	3.54e-03	0	43	0	1693450240	16	4792
2026-01-03 01:21:42.83	227.24	8.52	-28.1	-30.6	12.6	3.59e-03	0	43	0	1696595968	16	4787
2026-01-03 01:21:43.83	227.19	8.44	-28.2	-30.7	12.5	2.84e-04	0	43	0	1699741696	16	4813
2026-01-03 01:21:44.84	227.15	8.36	-28.1	-30.7	12.6	3.56e-03	0	43	0	1702887424	16	4804
2026-01-03 01:21:45.84	227.10	8.28	-28.2	-30.7	12.6	3.36e-03	0	43	0	1706033152	16	4819
2026-01-03 01:21:46.85	227.05	8.20	-28.2	-30.8	12.5	1.11e-04	0	43	0	1709178880	16	4837
2026-01-03 01:21:47.85	227.01	8.12	-28.4	-31.4	12.1	3.37e-03	0	43	0	1712324608	16	5052
2026-01-03 01:21:48.86	226.96	8.05	-28.3	-31.1	12.3	3.66e-03	0	43	0	1715470336	16	4943
2026-01-03 01:21:49.87	226.92	7.97	-28.3	-30.9	12.4	3.39e-04	0	43	0	1718616064	16	4900
2026-01-03 01:21:50.86	226.88	7.89	-28.2	-30.7	12.5	3.24e-03	0	43	0	1721761792	16	4819
2026-01-03 01:21:51.86	226.83	7.81	-28.2	-30.9	12.4	1.55e-04	0	43	0	1724907520	16	4890
2026-01-03 01:21:52.87	226.79	7.74	-28.2	-30.8	12.4	1.40e-04	0	43	0	1728053248	16	4858
2026-01-03 01:21:53.88	226.74	7.66	-28.2	-30.9	12.4	3.05e-03	0	43	0	1731198976	16	4870
2026-01-03 01:21:54.88	226.70	7.58	-28.2	-30.9	12.3	3.02e-03	0	43	0	1734344704	16	4900
2026-01-03 01:21:55.89	226.66	7.50	-28.3	-30.9	12.3	3.36e-04	0	43	0	1737490432	16	4909
2026-01-03 01:21:56.90	226.61	7.43	-28.3	-31.1	12.2	1.81e-04	0	43	0	1740636160	16	4951
2026-01-03 01:21:57.91	226.57	7.35	-28.4	-31.3	12.1	2.75e-04	0	43	0	1743781888	16	5037
2026-01-03 01:21:58.92	226.53	7.27	-28.4	-31.3	12.1	3.17e-04	0	43	0	1746927616	16	5039
2026-01-03 01:21:59.93	226.49	7.20	-28.4	-31.4	12.0	2.56e-03	0	43	0	1750073344	16	5086
2026-01-03 01:22:00.93	226.44	7.12	-28.3	-31.0	12.2	3.31e-04	0	43	0	1753219072	16	4927
2026-01-03 01:22:01.94	226.40	7.05	-32.3	-43.9	3.8	1.49e+00	0	43	104	1755316224	24	13657
2026-01-03 01:22:02.95	226.36	6.97	-32.7	-44.7	3.8	1.49e+00	0	43	104	1755316224	25	14399

#Closed at: 2026-01-03 01:22:03
#Recorded file [1755 MB]: D:/data/31010_260103_041239.dat