passes_logs/2026/01/03/R2M6_AANII_01/R2M6_AANII_01__20260103_115456_NOAA_20_JPSS-1_rec.log

#Pass ID: 20260103_115456_NOAA 20 (JPSS-1)
#Satellite: NOAA 20 (JPSS-1)
#Configuration: NOAA 20
#almurnet v.1.7.20240730
#Start time: 2026-01-03 11:54:58

#Version: 2.2.20231116
#Station: R2M6_AANII_01
#Location: 30.233357 lon 59.946436 lat
#TLE: 1 43013U 17073A   26002.21975278  .00000202  00000+0  11669-3 0  9999
#TLE: 2 43013  98.7622 303.2950 0001915  57.9213 302.2149 14.19532512420923

#Time	Az	El	Level	Level2	SNR	BER	BlckErr	Temp	State	Recorded	gain1	gain2
2026-01-03 11:54:58.20	212.68	7.11	-31.1	-36.5	5.2	1.19e+00	0	40	0	0	23	6655
2026-01-03 11:54:59.20	212.77	7.17	-31.6	-37.9	4.9	1.26e+00	0	41	104	0	24	7447
2026-01-03 11:55:00.21	212.87	7.24	-31.6	-38.1	7.0	1.58e-01	0	41	0	0	24	7575
2026-01-03 11:55:01.22	212.96	7.30	-31.5	-37.3	7.6	1.09e-01	0	40	0	1048576	24	7026
2026-01-03 11:55:02.22	213.06	7.37	-31.3	-36.5	8.2	6.62e-02	0	41	0	3145728	24	6555
2026-01-03 11:55:03.23	213.16	7.43	-31.2	-36.4	8.8	4.13e-02	0	41	0	5242880	23	6535
2026-01-03 11:55:04.22	213.25	7.49	-31.0	-35.5	9.5	2.51e-02	0	41	0	7340032	23	6056
2026-01-03 11:55:05.23	213.35	7.56	-30.9	-35.1	9.7	1.24e-02	0	41	0	9437184	23	5859
2026-01-03 11:55:06.23	213.45	7.62	-30.8	-34.8	10.1	8.15e-03	0	41	0	10485760	23	5691
2026-01-03 11:55:07.23	213.55	7.69	-30.8	-35.1	10.2	6.49e-03	0	41	0	12582912	22	5942
2026-01-03 11:55:08.24	213.65	7.75	-30.7	-35.0	10.2	6.28e-03	0	41	0	14680064	22	5903
2026-01-03 11:55:09.24	213.74	7.82	-30.6	-34.4	10.8	3.48e-03	0	41	0	16777216	22	5578
2026-01-03 11:55:10.25	213.85	7.88	-30.3	-33.6	11.4	1.75e-03	0	41	0	18874368	22	5258
2026-01-03 11:55:11.25	213.94	7.95	-30.2	-33.7	11.7	8.05e-04	0	41	0	19922944	21	5378
2026-01-03 11:55:12.26	214.05	8.01	-30.1	-33.5	11.8	4.71e-04	0	41	0	22020096	21	5313
2026-01-03 11:55:13.26	214.15	8.08	-30.2	-33.8	11.6	5.61e-04	0	41	0	24117248	21	5416
2026-01-03 11:55:14.26	214.25	8.14	-30.3	-34.0	11.4	8.30e-04	0	41	0	26214400	21	5514
2026-01-03 11:55:15.27	214.35	8.21	-30.3	-34.0	11.4	8.34e-04	0	41	0	28311552	21	5523
2026-01-03 11:55:16.28	214.45	8.27	-30.4	-34.3	11.2	9.76e-04	0	41	0	29360128	21	5666
2026-01-03 11:55:17.28	214.56	8.34	-30.5	-34.6	11.0	1.69e-03	0	41	0	31457280	21	5770
2026-01-03 11:55:18.29	214.66	8.40	-30.4	-34.2	11.3	1.25e-03	0	41	0	33554432	21	5607
2026-01-03 11:55:19.30	214.76	8.47	-30.3	-34.0	11.5	8.62e-04	0	41	0	35651584	21	5508
2026-01-03 11:55:20.31	214.87	8.54	-30.3	-34.0	11.5	7.93e-04	0	41	0	37748736	21	5521
2026-01-03 11:55:21.31	214.97	8.60	-30.3	-34.0	11.5	9.32e-04	0	41	0	38797312	21	5534
2026-01-03 11:55:22.32	215.08	8.67	-30.3	-33.9	11.6	7.71e-04	0	41	0	40894464	21	5455
2026-01-03 11:55:23.32	215.18	8.73	-30.2	-33.8	11.7	6.18e-04	0	41	0	42991616	21	5415
2026-01-03 11:55:24.33	215.29	8.80	-30.3	-33.8	11.7	6.47e-04	0	41	0	45088768	21	5432
2026-01-03 11:55:25.34	215.40	8.87	-30.2	-33.7	11.7	5.73e-04	0	41	0	46137344	21	5395
2026-01-03 11:55:26.34	215.50	8.93	-30.3	-33.9	11.6	6.64e-04	0	41	0	48234496	21	5445
2026-01-03 11:55:27.35	215.61	9.00	-30.2	-33.6	11.8	5.69e-04	0	41	0	50331648	21	5335
2026-01-03 11:55:28.36	215.72	9.07	-30.2	-33.7	11.7	5.81e-04	0	41	0	52428800	21	5391
2026-01-03 11:55:29.37	215.83	9.13	-30.2	-33.5	11.9	4.82e-04	0	41	0	54525952	21	5309
2026-01-03 11:55:30.38	215.94	9.20	-30.2	-33.7	11.8	4.18e-04	0	41	0	56623104	21	5362
2026-01-03 11:55:31.38	216.05	9.27	-30.2	-33.7	11.7	6.23e-04	0	42	0	57671680	21	5380
2026-01-03 11:55:32.38	216.16	9.33	-30.1	-33.4	12.0	4.04e-04	0	41	0	59768832	21	5240
2026-01-03 11:55:33.39	216.27	9.40	-30.1	-33.2	12.1	2.77e-04	0	42	0	61865984	21	5161
2026-01-03 11:55:34.40	216.38	9.47	-30.0	-33.1	12.2	2.16e-04	0	41	0	63963136	21	5144
2026-01-03 11:55:35.40	216.49	9.54	-30.0	-33.0	12.3	1.97e-04	0	42	0	66060288	21	5088
2026-01-03 11:55:36.41	216.60	9.60	-29.9	-32.8	12.5	1.42e-04	0	42	0	67108864	21	4997
2026-01-03 11:55:37.42	216.71	9.67	-30.0	-32.8	12.5	1.27e-04	0	42	0	69206016	21	5006
2026-01-03 11:55:38.42	216.83	9.74	-29.9	-32.8	12.5	1.38e-04	0	42	0	71303168	21	5002
2026-01-03 11:55:39.43	216.94	9.81	-29.8	-32.4	12.8	8.39e-05	0	42	0	73400320	21	4864
2026-01-03 11:55:40.43	217.05	9.87	-29.9	-32.6	12.6	5.87e-05	0	42	0	74448896	21	4924
2026-01-03 11:55:41.44	217.17	9.94	-29.9	-32.7	12.6	1.24e-04	0	42	0	76546048	21	4960
2026-01-03 11:55:42.44	217.28	10.01	-29.9	-32.7	12.6	7.70e-05	0	42	0	78643200	21	4948
2026-01-03 11:55:43.45	217.40	10.08	-29.9	-32.6	12.7	9.15e-05	0	42	0	80740352	21	4911
2026-01-03 11:55:44.45	217.51	10.15	-29.9	-32.7	12.6	8.54e-05	0	42	0	82837504	21	4953
2026-01-03 11:55:45.45	217.63	10.21	-29.9	-32.7	12.6	1.11e-04	0	42	0	84934656	21	4979
2026-01-03 11:55:46.46	217.75	10.28	-29.9	-32.5	12.7	8.31e-05	0	42	0	85983232	21	4892
2026-01-03 11:55:47.47	217.87	10.35	-29.9	-32.7	12.6	8.62e-05	0	42	0	88080384	21	4960
2026-01-03 11:55:48.43	217.98	10.42	-29.9	-32.8	12.6	1.26e-04	0	42	0	90177536	21	4982
2026-01-03 11:55:49.44	218.10	10.48	-29.9	-32.7	12.6	9.53e-05	0	42	0	92274688	21	4969
2026-01-03 11:55:50.44	218.22	10.55	-30.0	-33.0	12.4	1.07e-04	0	42	0	93323264	21	5063
2026-01-03 11:55:51.45	218.34	10.62	-30.1	-33.1	12.3	1.87e-04	0	42	0	95420416	21	5100
2026-01-03 11:55:52.46	218.46	10.69	-29.9	-32.7	12.6	1.04e-04	0	42	0	97517568	21	4957
2026-01-03 11:55:53.46	218.58	10.76	-29.9	-32.6	12.7	8.62e-05	0	42	0	99614720	21	4917
2026-01-03 11:55:54.46	218.70	10.83	-30.0	-32.8	12.6	9.76e-05	0	42	0	101711872	21	4996
2026-01-03 11:55:55.47	218.82	10.90	-30.0	-32.8	12.5	1.12e-04	0	42	0	102760448	21	5008
2026-01-03 11:55:56.48	218.94	10.97	-30.0	-33.0	12.5	1.04e-04	0	42	0	104857600	21	5061
2026-01-03 11:55:57.48	219.06	11.04	-30.0	-33.0	12.5	1.63e-04	0	42	0	106954752	21	5061
2026-01-03 11:55:58.47	219.19	11.10	-30.0	-32.8	12.6	1.04e-04	0	42	0	109051904	21	4983
2026-01-03 11:55:59.48	219.31	11.17	-30.0	-32.9	12.5	9.23e-05	0	42	0	111149056	21	5012
2026-01-03 11:56:00.49	219.44	11.24	-30.0	-33.0	12.4	1.50e-04	0	42	0	112197632	21	5058
2026-01-03 11:56:01.49	219.56	11.31	-30.0	-32.9	12.5	1.17e-04	0	42	0	114294784	21	5025
2026-01-03 11:56:02.49	219.69	11.38	-30.1	-33.2	12.3	1.53e-04	0	42	0	116391936	21	5135
2026-01-03 11:56:03.50	219.81	11.45	-30.1	-33.2	12.3	2.00e-04	0	42	0	118489088	21	5144
2026-01-03 11:56:04.51	219.94	11.52	-30.0	-32.9	12.5	1.31e-04	0	42	0	120586240	21	5016
2026-01-03 11:56:05.51	220.07	11.59	-30.0	-32.8	12.6	9.07e-05	0	42	0	121634816	21	4995
2026-01-03 11:56:06.52	220.20	11.66	-29.9	-32.7	12.7	1.02e-04	0	42	0	123731968	21	4952
2026-01-03 11:56:07.53	220.32	11.73	-29.9	-32.6	12.7	6.48e-05	0	42	0	125829120	21	4924
2026-01-03 11:56:08.53	220.45	11.80	-29.9	-32.7	12.7	7.32e-05	0	42	0	127926272	21	4940
2026-01-03 11:56:09.54	220.58	11.87	-29.9	-32.6	12.8	7.93e-05	0	42	0	130023424	21	4897
2026-01-03 11:56:10.55	220.71	11.94	-29.8	-32.4	12.9	5.26e-05	0	42	0	131072000	21	4827
2026-01-03 11:56:11.55	220.85	12.01	-29.9	-32.6	12.8	4.50e-05	0	42	0	133169152	21	4885
2026-01-03 11:56:12.56	220.98	12.08	-29.8	-32.4	12.9	5.49e-05	0	42	0	135266304	21	4838
2026-01-03 11:56:13.56	221.11	12.15	-29.9	-32.5	12.9	3.89e-05	0	42	0	137363456	21	4855
2026-01-03 11:56:14.57	221.24	12.22	-29.8	-32.4	12.9	3.35e-05	0	42	0	139460608	21	4828
2026-01-03 11:56:15.57	221.38	12.29	-29.9	-32.6	12.8	4.04e-05	0	42	0	140509184	21	4891
2026-01-03 11:56:16.57	221.51	12.36	-29.9	-32.5	12.8	7.09e-05	0	42	0	142606336	21	4870
2026-01-03 11:56:17.58	221.64	12.43	-29.8	-32.6	13.1	4.42e-05	0	42	0	144703488	20	5018
2026-01-03 11:56:18.59	221.78	12.50	-29.7	-32.6	13.2	2.21e-05	0	42	0	146800640	20	5000
2026-01-03 11:56:19.59	221.92	12.57	-29.7	-32.5	13.2	2.97e-05	0	42	0	148897792	20	4985
2026-01-03 11:56:20.60	222.05	12.64	-29.7	-32.5	13.3	2.51e-05	0	42	0	149946368	20	4949
2026-01-03 11:56:21.61	222.19	12.72	-29.7	-32.4	13.3	1.44e-05	0	42	0	152043520	20	4914
2026-01-03 11:56:22.60	222.33	12.79	-29.6	-32.3	13.4	1.29e-05	0	42	0	154140672	20	4880
2026-01-03 11:56:23.61	222.47	12.86	-29.7	-32.3	13.4	1.29e-05	0	42	0	156237824	20	4901
2026-01-03 11:56:24.61	222.60	12.93	-29.6	-32.3	13.4	1.44e-05	0	43	0	158334976	20	4885
2026-01-03 11:56:25.62	222.74	13.00	-29.6	-32.2	13.5	1.06e-05	0	42	0	159383552	20	4854
2026-01-03 11:56:26.63	222.89	13.07	-29.7	-32.5	13.3	1.37e-05	0	42	0	161480704	20	4945
2026-01-03 11:56:27.63	223.03	13.14	-29.7	-32.4	13.4	1.44e-05	0	42	0	163577856	20	4904
2026-01-03 11:56:28.64	223.17	13.21	-29.7	-32.5	13.4	2.05e-05	0	42	0	165675008	20	4938
2026-01-03 11:56:29.64	223.31	13.28	-29.7	-32.5	13.3	1.75e-05	0	42	0	167772160	20	4966
2026-01-03 11:56:30.65	223.45	13.35	-29.8	-32.7	13.2	2.36e-05	0	42	0	168820736	20	5040
2026-01-03 11:56:31.65	223.60	13.43	-29.8	-32.8	13.2	2.28e-05	0	42	0	170917888	20	5052
2026-01-03 11:56:32.65	223.74	13.50	-29.8	-32.6	13.2	2.36e-05	0	42	0	173015040	20	4993
2026-01-03 11:56:33.66	223.89	13.57	-29.8	-32.8	13.1	2.51e-05	0	42	0	175112192	20	5065
2026-01-03 11:56:34.67	224.03	13.64	-29.8	-32.7	13.2	3.58e-05	0	42	0	177209344	20	5042
2026-01-03 11:56:35.68	224.18	13.71	-29.7	-32.5	13.3	1.29e-05	0	43	0	178257920	20	4966
2026-01-03 11:56:36.69	224.33	13.78	-29.7	-32.5	13.4	2.28e-05	0	43	0	180355072	20	4946
2026-01-03 11:56:37.69	224.47	13.85	-29.8	-32.8	13.1	2.89e-05	0	42	0	182452224	20	5074
2026-01-03 11:56:38.69	224.62	13.93	-29.8	-32.6	13.3	2.82e-05	0	43	0	184549376	20	4977
2026-01-03 11:56:39.70	224.77	14.00	-29.7	-32.4	13.5	1.60e-05	0	42	0	186646528	20	4903
2026-01-03 11:56:40.71	224.92	14.07	-29.6	-32.2	13.5	1.52e-05	0	43	0	187695104	20	4842
2026-01-03 11:56:41.71	225.07	14.14	-29.6	-32.1	13.6	5.30e-06	0	43	0	189792256	20	4821
2026-01-03 11:56:42.72	225.22	14.21	-29.6	-32.1	13.6	1.29e-05	0	43	0	191889408	20	4806
2026-01-03 11:56:43.73	225.38	14.29	-29.7	-32.3	13.5	2.20e-06	0	43	0	193986560	20	4877
2026-01-03 11:56:44.73	225.53	14.36	-29.6	-32.1	13.7	9.10e-06	0	43	0	196083712	20	4800
2026-01-03 11:56:45.74	225.68	14.43	-29.6	-32.0	13.7	6.10e-06	0	43	0	197132288	20	4785
2026-01-03 11:56:46.75	225.84	14.50	-29.6	-32.2	13.6	3.80e-06	0	42	0	199229440	20	4833
2026-01-03 11:56:47.75	225.99	14.57	-29.6	-32.2	13.6	4.50e-06	0	42	0	201326592	20	4832
2026-01-03 11:56:48.75	226.15	14.64	-29.6	-32.0	13.7	6.80e-06	0	43	0	203423744	20	4775
2026-01-03 11:56:49.74	226.30	14.71	-29.6	-32.0	13.7	6.10e-06	0	43	0	204472320	20	4771
2026-01-03 11:56:50.75	226.46	14.79	-29.6	-32.1	13.6	5.30e-06	0	43	0	206569472	20	4817
2026-01-03 11:56:51.75	226.62	14.86	-29.7	-32.3	13.6	1.06e-05	0	43	0	208666624	20	4866
2026-01-03 11:56:52.76	226.78	14.93	-29.7	-32.3	13.6	5.30e-06	0	43	0	210763776	20	4875
2026-01-03 11:56:53.76	226.93	15.00	-29.7	-32.3	13.6	9.10e-06	0	43	0	212860928	20	4887
2026-01-03 11:56:54.77	227.10	15.07	-29.9	-32.8	13.3	8.30e-06	0	43	0	214958080	20	5052
2026-01-03 11:56:55.78	227.26	15.15	-29.8	-32.5	13.4	2.28e-05	0	43	0	216006656	20	4962
2026-01-03 11:56:56.78	227.42	15.22	-29.6	-32.2	13.6	6.10e-06	0	43	0	218103808	20	4843
2026-01-03 11:56:57.79	227.58	15.29	-29.6	-32.1	13.7	5.30e-06	0	43	0	220200960	20	4810
2026-01-03 11:56:58.79	227.74	15.36	-29.7	-32.3	13.6	6.10e-06	0	43	0	222298112	20	4851
2026-01-03 11:56:59.80	227.91	15.43	-29.6	-32.0	13.8	6.10e-06	0	43	0	223346688	20	4768
2026-01-03 11:57:00.81	228.07	15.51	-29.5	-31.7	13.9	4.50e-06	0	43	0	225443840	20	4674
2026-01-03 11:57:01.81	228.24	15.58	-29.5	-31.8	13.9	1.50e-06	0	43	0	227540992	20	4687
2026-01-03 11:57:02.82	228.41	15.65	-29.6	-32.2	13.7	3.80e-06	0	43	0	229638144	20	4830
2026-01-03 11:57:03.82	228.57	15.72	-29.8	-32.7	13.4	7.60e-06	0	43	0	231735296	20	5002
2026-01-03 11:57:04.83	228.74	15.79	-29.7	-32.4	13.5	7.60e-06	0	43	0	232783872	20	4890
2026-01-03 11:57:05.84	228.91	15.87	-29.6	-32.0	13.8	8.30e-06	0	43	0	234881024	20	4748
2026-01-03 11:57:06.84	229.08	15.94	-29.5	-31.9	13.9	2.20e-06	0	43	0	236978176	20	4716
2026-01-03 11:57:07.85	229.25	16.01	-29.5	-31.7	14.0	3.00e-06	0	43	0	239075328	20	4657
2026-01-03 11:57:08.86	229.42	16.08	-29.5	-31.7	14.0	3.00e-06	0	43	0	241172480	20	4665
2026-01-03 11:57:09.86	229.59	16.15	-29.7	-32.2	13.7	2.20e-06	0	43	0	243269632	20	4828
2026-01-03 11:57:10.86	229.76	16.22	-29.5	-31.8	14.0	5.30e-06	0	43	0	244318208	20	4694
2026-01-03 11:57:11.87	229.94	16.30	-29.4	-31.6	14.1	7.00e-07	0	43	0	246415360	20	4618
2026-01-03 11:57:12.88	230.11	16.37	-29.4	-31.4	14.2	0.00e+00	0	43	0	248512512	20	4572
2026-01-03 11:57:13.88	230.29	16.44	-29.5	-31.7	14.1	2.20e-06	0	43	0	250609664	20	4646
2026-01-03 11:57:14.89	230.46	16.51	-29.5	-31.8	14.0	2.20e-06	0	43	0	251658240	20	4674
2026-01-03 11:57:15.89	230.64	16.58	-29.6	-32.1	13.8	3.00e-06	0	43	0	253755392	20	4792
2026-01-03 11:57:16.90	230.82	16.65	-29.6	-32.0	13.8	4.50e-06	0	43	0	255852544	20	4760
2026-01-03 11:57:17.90	230.99	16.73	-29.6	-32.2	13.8	6.10e-06	0	43	0	257949696	20	4807
2026-01-03 11:57:18.90	231.17	16.80	-29.7	-32.4	13.6	3.80e-06	0	43	0	260046848	20	4893
2026-01-03 11:57:19.90	231.35	16.87	-29.6	-32.1	13.8	4.50e-06	0	43	0	261095424	20	4792
2026-01-03 11:57:20.91	231.53	16.94	-29.6	-32.0	13.9	3.80e-06	0	43	0	263192576	20	4744
2026-01-03 11:57:21.91	231.71	17.01	-29.6	-32.2	13.8	6.10e-06	0	43	0	265289728	20	4803
2026-01-03 11:57:22.92	231.90	17.08	-29.7	-32.3	13.7	3.80e-06	0	43	0	267386880	20	4873
2026-01-03 11:57:23.92	232.08	17.15	-29.7	-32.2	13.7	6.80e-06	0	43	0	269484032	20	4833
2026-01-03 11:57:24.92	232.26	17.22	-29.7	-32.3	13.7	8.30e-06	0	43	0	270532608	20	4873
2026-01-03 11:57:25.93	232.45	17.29	-29.8	-32.5	13.5	5.30e-06	0	43	0	272629760	20	4938
2026-01-03 11:57:26.94	232.63	17.36	-29.7	-32.3	13.7	1.06e-05	0	43	0	274726912	20	4844
2026-01-03 11:57:27.94	232.82	17.44	-29.5	-31.8	14.0	1.50e-06	0	43	0	276824064	20	4686
2026-01-03 11:57:28.94	233.00	17.51	-29.5	-31.7	14.1	1.50e-06	0	43	0	278921216	20	4646
2026-01-03 11:57:29.95	233.19	17.58	-29.4	-31.5	14.3	2.20e-06	0	43	0	279969792	20	4567
2026-01-03 11:57:30.96	233.38	17.65	-29.4	-31.6	14.2	7.00e-07	0	43	0	282066944	20	4609
2026-01-03 11:57:31.97	233.57	17.72	-29.3	-31.3	14.4	2.20e-06	0	43	0	284164096	20	4519
2026-01-03 11:57:32.98	233.77	17.79	-29.3	-31.3	14.4	0.00e+00	0	43	0	286261248	20	4523
2026-01-03 11:57:33.98	233.96	17.86	-29.4	-31.4	14.4	1.50e-06	0	43	0	288358400	20	4530
2026-01-03 11:57:34.99	234.15	17.93	-29.3	-31.3	14.4	7.00e-07	0	43	0	289406976	20	4515
2026-01-03 11:57:35.99	234.34	18.00	-29.4	-31.3	14.4	7.00e-07	0	43	0	291504128	20	4521
2026-01-03 11:57:37.00	234.54	18.07	-29.3	-31.2	14.5	2.20e-06	0	43	0	293601280	20	4471
2026-01-03 11:57:38.00	234.73	18.14	-29.3	-31.8	14.5	1.50e-06	0	43	0	295698432	19	4757
2026-01-03 11:57:39.01	234.93	18.21	-29.2	-31.3	14.8	0.00e+00	0	43	0	297795584	19	4605
2026-01-03 11:57:40.01	235.12	18.28	-29.1	-31.2	14.9	0.00e+00	0	43	0	298844160	19	4571
2026-01-03 11:57:41.02	235.32	18.35	-29.2	-31.5	14.7	0.00e+00	0	43	0	300941312	19	4657
2026-01-03 11:57:42.03	235.52	18.42	-29.1	-31.2	14.8	0.00e+00	0	43	0	303038464	19	4587
2026-01-03 11:57:43.03	235.72	18.48	-29.1	-31.1	14.9	0.00e+00	0	43	0	305135616	19	4543
2026-01-03 11:57:44.04	235.92	18.55	-29.2	-31.3	14.8	0.00e+00	0	43	0	307232768	19	4611
2026-01-03 11:57:45.05	236.13	18.62	-29.1	-31.2	14.9	0.00e+00	0	43	0	308281344	19	4564
2026-01-03 11:57:46.05	236.33	18.69	-29.1	-31.2	14.9	3.00e-06	0	43	0	310378496	19	4569
2026-01-03 11:57:47.06	236.53	18.76	-29.2	-31.3	14.8	0.00e+00	0	43	0	312475648	19	4607
2026-01-03 11:57:48.06	236.73	18.83	-29.1	-31.2	14.9	0.00e+00	0	43	0	314572800	19	4562
2026-01-03 11:57:49.07	236.94	18.90	-29.2	-31.3	14.8	0.00e+00	0	43	0	316669952	19	4615
2026-01-03 11:57:50.08	237.15	18.96	-29.3	-31.6	14.6	0.00e+00	0	43	0	317718528	19	4717
2026-01-03 11:57:51.08	237.35	19.03	-29.0	-31.0	15.0	0.00e+00	0	43	0	319815680	19	4510
2026-01-03 11:57:52.09	237.56	19.10	-29.0	-30.8	15.2	0.00e+00	0	43	0	321912832	19	4427
2026-01-03 11:57:53.10	237.77	19.17	-28.9	-30.6	15.2	0.00e+00	0	43	0	324009984	19	4396
2026-01-03 11:57:54.11	237.98	19.23	-29.0	-30.8	15.1	0.00e+00	0	43	0	326107136	19	4443
2026-01-03 11:57:55.11	238.19	19.30	-29.0	-30.8	15.2	7.00e-07	0	43	0	327155712	19	4431
2026-01-03 11:57:56.11	238.40	19.37	-29.0	-31.0	15.1	0.00e+00	0	43	0	329252864	19	4493
2026-01-03 11:57:57.11	238.61	19.43	-29.0	-31.0	15.0	0.00e+00	0	43	0	331350016	19	4495
2026-01-03 11:57:58.12	238.82	19.50	-29.1	-31.1	15.0	7.00e-07	0	43	0	333447168	19	4540
2026-01-03 11:57:59.13	239.04	19.57	-29.0	-31.0	15.1	0.00e+00	0	43	0	335544320	19	4495
2026-01-03 11:58:00.14	239.25	19.63	-29.0	-30.9	15.1	0.00e+00	0	43	0	336592896	19	4485
2026-01-03 11:58:01.15	239.47	19.70	-29.1	-31.0	15.0	0.00e+00	0	43	0	338690048	19	4508
2026-01-03 11:58:02.15	239.69	19.76	-29.1	-31.2	14.9	0.00e+00	0	43	0	340787200	19	4568
2026-01-03 11:58:03.16	239.90	19.83	-29.2	-31.4	14.8	0.00e+00	0	43	0	342884352	19	4620
2026-01-03 11:58:04.16	240.12	19.89	-29.3	-31.7	14.6	0.00e+00	0	43	0	344981504	19	4726
2026-01-03 11:58:05.17	240.34	19.96	-29.3	-31.7	14.6	0.00e+00	0	43	0	346030080	19	4735
2026-01-03 11:58:06.17	240.56	20.02	-29.4	-31.8	14.5	7.00e-07	0	43	0	348127232	19	4756
2026-01-03 11:58:07.18	240.78	20.09	-29.4	-31.8	14.6	0.00e+00	0	43	0	350224384	19	4768
2026-01-03 11:58:08.18	241.00	20.15	-29.5	-32.0	14.4	7.00e-07	0	43	0	352321536	19	4842
2026-01-03 11:58:09.19	241.23	20.22	-29.3	-31.5	14.7	0.00e+00	0	43	0	354418688	19	4666
2026-01-03 11:58:10.19	241.45	20.28	-29.2	-31.3	14.9	0.00e+00	0	43	0	355467264	19	4586
2026-01-03 11:58:11.19	241.67	20.34	-29.2	-31.3	14.9	0.00e+00	0	43	0	357564416	19	4606
2026-01-03 11:58:12.20	241.90	20.40	-29.2	-31.4	14.8	7.00e-07	0	43	0	359661568	19	4640
2026-01-03 11:58:13.21	242.13	20.47	-29.3	-31.6	14.7	7.00e-07	0	43	0	361758720	19	4713
2026-01-03 11:58:14.20	242.35	20.53	-29.4	-31.8	14.6	0.00e+00	0	43	0	363855872	19	4750
2026-01-03 11:58:15.21	242.58	20.59	-29.4	-31.9	14.5	2.20e-06	0	43	0	364904448	19	4796
2026-01-03 11:58:16.21	242.81	20.65	-29.6	-32.3	14.3	1.50e-06	0	43	0	367001600	19	4919
2026-01-03 11:58:17.22	243.04	20.71	-29.6	-32.5	14.2	0.00e+00	0	43	0	369098752	19	4991
2026-01-03 11:58:18.23	243.27	20.78	-29.7	-32.6	14.1	1.50e-06	0	43	0	371195904	19	5024
2026-01-03 11:58:19.23	243.50	20.84	-29.7	-32.7	14.1	7.00e-07	0	43	0	373293056	19	5078
2026-01-03 11:58:20.23	243.73	20.90	-29.8	-32.9	13.9	7.00e-07	0	43	0	374341632	19	5127
2026-01-03 11:58:21.24	243.97	20.96	-29.8	-32.9	13.9	3.00e-06	0	43	0	376438784	19	5162
2026-01-03 11:58:22.25	244.20	21.02	-29.8	-33.0	13.9	5.30e-06	0	43	0	378535936	19	5193
2026-01-03 11:58:23.26	244.44	21.08	-29.9	-33.1	13.8	3.00e-06	0	43	0	380633088	19	5213
2026-01-03 11:58:24.26	244.67	21.14	-29.9	-33.1	13.8	4.50e-06	0	43	0	382730240	19	5220
2026-01-03 11:58:25.26	244.91	21.19	-29.9	-32.9	13.6	8.30e-06	0	43	0	383778816	20	5032
2026-01-03 11:58:26.26	245.15	21.25	-30.0	-33.1	13.4	1.06e-05	0	43	0	385875968	20	5132
2026-01-03 11:58:27.27	245.39	21.31	-30.2	-33.5	13.2	1.37e-05	0	43	0	387973120	20	5269
2026-01-03 11:58:28.28	245.63	21.37	-30.2	-33.5	13.2	2.59e-05	0	43	0	390070272	20	5278
2026-01-03 11:58:29.28	245.87	21.43	-30.2	-33.6	13.1	3.96e-05	0	43	0	391118848	20	5297
2026-01-03 11:58:30.29	246.11	21.48	-30.2	-33.5	13.1	2.36e-05	0	43	0	393216000	20	5279
2026-01-03 11:58:31.30	246.35	21.54	-30.2	-33.6	13.1	3.50e-05	0	43	0	395313152	20	5306
2026-01-03 11:58:32.30	246.60	21.60	-30.2	-33.6	13.1	3.20e-05	0	43	0	397410304	20	5305
2026-01-03 11:58:33.31	246.84	21.65	-30.2	-33.4	13.2	1.98e-05	0	43	0	399507456	20	5246
2026-01-03 11:58:34.31	247.08	21.71	-30.2	-33.6	13.1	3.12e-05	0	43	0	401604608	20	5318
2026-01-03 11:58:35.31	247.33	21.76	-30.3	-33.7	13.0	4.73e-05	0	43	0	402653184	20	5361
2026-01-03 11:58:36.32	247.58	21.82	-30.0	-33.0	13.4	1.52e-05	0	43	0	404750336	20	5094
2026-01-03 11:58:37.33	247.82	21.87	-29.9	-32.6	13.7	7.60e-06	0	43	0	406847488	20	4944
2026-01-03 11:58:38.34	248.07	21.93	-29.9	-32.6	13.8	7.60e-06	0	43	0	408944640	20	4922
2026-01-03 11:58:39.34	248.32	21.98	-29.9	-32.7	13.7	7.60e-06	0	43	0	409993216	20	4967
2026-01-03 11:58:40.34	248.57	22.03	-30.0	-32.8	13.6	5.30e-06	0	43	0	412090368	20	5016
2026-01-03 11:58:41.35	248.82	22.08	-30.1	-33.1	13.4	1.52e-05	0	43	0	414187520	20	5128
2026-01-03 11:58:42.36	249.08	22.14	-29.9	-32.6	13.8	8.30e-06	0	43	0	416284672	20	4917
2026-01-03 11:58:43.36	249.33	22.19	-29.8	-32.3	14.0	4.50e-06	0	43	0	418381824	20	4832
2026-01-03 11:58:44.36	249.58	22.24	-29.7	-32.2	14.0	1.50e-06	0	43	0	419430400	20	4803
2026-01-03 11:58:45.37	249.83	22.29	-29.7	-32.3	14.0	3.00e-06	0	43	0	421527552	20	4820
2026-01-03 11:58:46.38	250.09	22.34	-29.8	-32.3	13.9	3.00e-06	0	43	0	423624704	20	4828
2026-01-03 11:58:47.38	250.34	22.39	-29.8	-32.5	13.9	2.20e-06	0	43	0	425721856	20	4904
2026-01-03 11:58:48.39	250.60	22.44	-29.8	-32.4	13.9	4.50e-06	0	43	0	427819008	20	4859
2026-01-03 11:58:49.40	250.86	22.49	-29.8	-32.4	13.9	1.50e-06	0	43	0	428867584	20	4862
2026-01-03 11:58:50.40	251.12	22.53	-29.9	-32.7	13.7	3.80e-06	0	43	0	430964736	20	4961
2026-01-03 11:58:51.41	251.38	22.58	-30.0	-32.9	13.6	7.60e-06	0	43	0	433061888	20	5047
2026-01-03 11:58:52.41	251.63	22.63	-30.1	-33.3	13.4	9.90e-06	0	43	0	435159040	20	5192
2026-01-03 11:58:53.42	251.90	22.68	-30.3	-33.9	13.0	3.73e-05	0	43	0	437256192	20	5422
2026-01-03 11:58:54.42	252.16	22.72	-30.4	-34.2	12.8	6.71e-05	0	43	0	438304768	20	5540
2026-01-03 11:58:55.43	252.42	22.77	-30.5	-34.0	12.6	9.84e-05	0	43	0	440401920	21	5346
2026-01-03 11:58:56.44	252.68	22.81	-30.5	-33.9	12.6	8.69e-05	0	43	0	442499072	21	5307
2026-01-03 11:58:57.44	252.94	22.86	-30.5	-33.8	12.7	8.31e-05	0	43	0	444596224	21	5288
2026-01-03 11:58:58.45	253.21	22.90	-30.5	-33.8	12.7	6.86e-05	0	43	0	446693376	21	5268
2026-01-03 11:58:59.45	253.47	22.95	-30.6	-34.1	12.5	8.46e-05	0	43	0	447741952	21	5405
2026-01-03 11:59:00.46	253.74	22.99	-30.6	-34.1	12.5	1.68e-04	0	43	0	449839104	21	5387
2026-01-03 11:59:01.47	254.01	23.03	-30.3	-33.4	12.9	4.65e-05	0	43	0	451936256	21	5110
2026-01-03 11:59:02.47	254.27	23.07	-30.2	-33.0	13.2	2.21e-05	0	43	0	454033408	21	4952
2026-01-03 11:59:03.47	254.54	23.11	-30.1	-32.6	13.5	1.14e-05	0	43	0	456130560	21	4830
2026-01-03 11:59:04.48	254.81	23.15	-30.1	-32.7	13.5	9.90e-06	0	43	0	457179136	21	4850
2026-01-03 11:59:05.48	255.08	23.19	-30.1	-32.7	13.4	1.52e-05	0	43	0	459276288	21	4874
2026-01-03 11:59:06.49	255.35	23.23	-30.2	-33.0	13.2	1.60e-05	0	43	0	461373440	21	4976
2026-01-03 11:59:07.49	255.61	23.27	-30.2	-32.9	13.3	2.05e-05	0	43	0	463470592	21	4922
2026-01-03 11:59:08.50	255.89	23.31	-30.2	-33.1	13.2	2.28e-05	0	43	0	465567744	21	4984
2026-01-03 11:59:09.50	256.16	23.35	-30.2	-33.1	13.2	2.13e-05	0	43	0	466616320	21	4988
2026-01-03 11:59:10.50	256.43	23.39	-30.1	-32.7	13.4	1.67e-05	0	43	0	468713472	21	4870
2026-01-03 11:59:11.51	256.70	23.42	-30.0	-32.5	13.6	8.30e-06	0	43	0	470810624	21	4774
2026-01-03 11:59:12.52	256.98	23.46	-30.0	-32.4	13.6	6.10e-06	0	43	0	472907776	21	4760
2026-01-03 11:59:13.52	257.25	23.49	-30.0	-32.5	13.6	6.10e-06	0	43	0	475004928	21	4769
2026-01-03 11:59:14.53	257.52	23.53	-30.1	-32.6	13.5	9.10e-06	0	43	0	476053504	21	4824
2026-01-03 11:59:15.54	257.80	23.56	-30.1	-32.6	13.5	1.60e-05	0	43	0	478150656	21	4833
2026-01-03 11:59:16.54	258.08	23.60	-30.2	-33.0	13.3	1.14e-05	0	43	0	480247808	21	4949
2026-01-03 11:59:17.55	258.35	23.63	-30.2	-33.1	13.2	2.82e-05	0	43	0	482344960	21	4987
2026-01-03 11:59:18.55	258.63	23.66	-30.3	-33.2	13.1	2.13e-05	0	43	0	484442112	21	5022
2026-01-03 11:59:19.56	258.91	23.69	-30.4	-33.5	13.0	3.50e-05	0	43	0	485490688	21	5134
2026-01-03 11:59:20.56	259.18	23.72	-30.4	-33.5	12.9	4.57e-05	0	43	0	487587840	21	5156
2026-01-03 11:59:21.56	259.46	23.75	-30.4	-33.6	12.9	4.95e-05	0	43	0	489684992	21	5189
2026-01-03 11:59:22.57	259.74	23.78	-30.4	-33.6	12.8	6.33e-05	0	43	0	491782144	21	5195
2026-01-03 11:59:23.57	260.02	23.81	-30.4	-33.6	12.9	2.74e-05	0	43	0	493879296	21	5177
2026-01-03 11:59:24.59	260.30	23.84	-30.4	-33.4	13.0	4.65e-05	0	43	0	494927872	21	5123
2026-01-03 11:59:25.59	260.58	23.87	-30.4	-33.6	12.9	3.96e-05	0	43	0	497025024	21	5200
2026-01-03 11:59:26.59	260.86	23.89	-30.5	-33.8	12.7	7.24e-05	0	43	0	499122176	21	5250
2026-01-03 11:59:27.59	261.14	23.92	-30.5	-33.9	12.7	5.11e-05	0	43	0	501219328	21	5310
2026-01-03 11:59:28.60	261.42	23.95	-30.6	-34.0	12.6	1.22e-04	0	43	0	503316480	21	5343
2026-01-03 11:59:29.61	261.71	23.97	-30.7	-34.3	12.4	7.40e-05	0	43	0	504365056	21	5445
2026-01-03 11:59:30.61	261.99	23.99	-30.7	-34.3	12.4	1.90e-04	0	43	0	506462208	21	5465
2026-01-03 11:59:31.61	262.27	24.02	-30.6	-34.1	12.5	8.16e-05	0	43	0	508559360	21	5382
2026-01-03 11:59:32.62	262.55	24.04	-30.7	-34.3	12.4	1.24e-04	0	43	0	510656512	21	5480
2026-01-03 11:59:33.63	262.84	24.06	-30.6	-34.1	12.6	1.25e-04	0	43	0	512753664	21	5373
2026-01-03 11:59:34.63	263.12	24.08	-30.5	-33.9	12.6	6.63e-05	0	43	0	513802240	21	5318
2026-01-03 11:59:35.63	263.41	24.10	-30.4	-33.4	13.0	4.88e-05	0	43	0	515899392	21	5123
2026-01-03 11:59:36.64	263.69	24.12	-30.3	-33.1	13.2	2.51e-05	0	43	0	517996544	21	4997
2026-01-03 11:59:37.65	263.98	24.14	-30.2	-32.9	13.3	2.51e-05	0	43	0	520093696	21	4926
2026-01-03 11:59:38.66	264.27	24.16	-30.3	-33.1	13.2	1.60e-05	0	43	0	522190848	21	5010
2026-01-03 11:59:39.67	264.55	24.18	-30.4	-33.5	12.9	1.98e-05	0	43	0	523239424	21	5149
2026-01-03 11:59:40.67	264.84	24.20	-30.4	-33.4	13.0	4.73e-05	0	43	0	525336576	21	5108
2026-01-03 11:59:41.68	265.13	24.21	-30.2	-32.9	13.3	1.67e-05	0	43	0	527433728	21	4937
2026-01-03 11:59:42.69	265.41	24.23	-30.2	-32.9	13.4	1.37e-05	0	43	0	529530880	21	4918
2026-01-03 11:59:43.69	265.70	24.24	-30.2	-33.0	13.3	1.75e-05	0	43	0	531628032	21	4959
2026-01-03 11:59:44.69	265.98	24.26	-30.2	-32.9	13.3	1.60e-05	0	43	0	532676608	21	4920
2026-01-03 11:59:45.70	266.27	24.27	-30.3	-33.2	13.2	2.28e-05	0	43	0	534773760	21	5038
2026-01-03 11:59:46.70	266.56	24.28	-30.1	-32.8	13.4	2.51e-05	0	43	0	536870912	21	4869
2026-01-03 11:59:47.71	266.85	24.29	-29.9	-32.1	13.9	1.14e-05	0	43	0	538968064	21	4637
2026-01-03 11:59:48.72	267.14	24.31	-29.7	-32.0	14.3	3.80e-06	0	43	0	541065216	20	4697
2026-01-03 11:59:49.73	267.43	24.32	-29.7	-32.1	14.2	2.20e-06	0	43	0	542113792	20	4752
2026-01-03 11:59:50.73	267.72	24.33	-29.7	-32.2	14.2	5.30e-06	0	43	0	544210944	20	4772
2026-01-03 11:59:51.73	268.00	24.33	-29.9	-32.5	14.0	7.00e-07	0	43	0	546308096	20	4887
2026-01-03 11:59:52.74	268.29	24.34	-30.0	-32.9	13.6	6.80e-06	0	43	0	548405248	20	5035
2026-01-03 11:59:53.75	268.58	24.35	-30.2	-33.4	13.3	7.60e-06	0	43	0	550502400	20	5197
2026-01-03 11:59:54.75	268.87	24.36	-30.3	-33.7	13.2	2.51e-05	0	43	0	551550976	20	5333
2026-01-03 11:59:55.76	269.16	24.36	-30.3	-33.7	13.1	1.75e-05	0	43	0	553648128	20	5347
2026-01-03 11:59:56.76	269.45	24.37	-30.2	-33.4	13.3	2.05e-05	0	43	0	555745280	20	5213
2026-01-03 11:59:57.77	269.74	24.37	-30.0	-33.0	13.6	6.80e-06	0	43	0	557842432	20	5065
2026-01-03 11:59:58.77	270.03	24.38	-29.9	-32.5	13.9	3.00e-06	0	43	0	559939584	20	4897
2026-01-03 11:59:59.78	270.32	24.38	-29.8	-32.4	14.0	2.20e-06	0	43	0	560988160	20	4840
2026-01-03 12:00:00.78	270.61	24.38	-29.7	-32.2	14.1	1.50e-06	0	43	0	563085312	20	4787
2026-01-03 12:00:01.79	270.90	24.38	-29.7	-32.2	14.1	3.00e-06	0	43	0	565182464	20	4771
2026-01-03 12:00:02.79	271.19	24.38	-29.8	-32.3	14.0	3.00e-06	0	43	0	567279616	20	4826
2026-01-03 12:00:03.79	271.47	24.38	-30.0	-32.8	13.8	3.80e-06	0	43	0	568328192	20	5001
2026-01-03 12:00:04.80	271.76	24.38	-30.0	-32.9	13.6	8.30e-06	0	43	0	570425344	20	5046
2026-01-03 12:00:05.81	272.06	24.38	-30.1	-33.2	13.4	1.06e-05	0	43	0	572522496	20	5156
2026-01-03 12:00:06.81	272.34	24.38	-30.1	-33.2	13.5	1.44e-05	0	43	0	574619648	20	5125
2026-01-03 12:00:07.82	272.63	24.37	-30.1	-33.2	13.4	1.37e-05	0	43	0	576716800	20	5157
2026-01-03 12:00:08.82	272.92	24.37	-30.1	-33.3	13.4	1.06e-05	0	43	0	578813952	20	5174
2026-01-03 12:00:09.83	273.21	24.37	-30.2	-33.5	13.2	1.14e-05	0	43	0	579862528	20	5269
2026-01-03 12:00:10.83	273.50	24.36	-30.1	-33.3	13.4	1.90e-05	0	43	0	581959680	20	5167
2026-01-03 12:00:11.83	273.79	24.35	-30.0	-33.0	13.6	4.50e-06	0	43	0	584056832	20	5053
2026-01-03 12:00:12.83	274.07	24.35	-30.0	-33.0	13.6	6.80e-06	0	43	0	586153984	20	5069
2026-01-03 12:00:13.84	274.37	24.34	-30.1	-33.1	13.5	7.60e-06	0	43	0	587202560	20	5113
2026-01-03 12:00:14.84	274.65	24.33	-30.2	-33.4	13.3	9.10e-06	0	43	0	589299712	20	5216
2026-01-03 12:00:15.85	274.94	24.32	-30.2	-33.5	13.3	1.22e-05	0	43	0	591396864	20	5241
2026-01-03 12:00:16.86	275.23	24.31	-30.5	-34.2	12.8	2.51e-05	0	43	0	593494016	20	5536
2026-01-03 12:00:17.86	275.52	24.30	-30.3	-33.3	13.1	4.34e-05	0	43	0	595591168	21	5054
2026-01-03 12:00:18.87	275.81	24.29	-30.0	-32.5	13.6	1.67e-05	0	43	0	596639744	21	4770
2026-01-03 12:00:19.88	276.10	24.28	-29.8	-32.0	13.9	4.50e-06	0	43	0	598736896	21	4605
2026-01-03 12:00:20.88	276.38	24.27	-29.8	-31.8	14.0	1.50e-06	0	43	0	600834048	21	4554
2026-01-03 12:00:21.89	276.67	24.25	-29.8	-32.3	14.0	2.20e-06	0	43	0	602931200	20	4813
2026-01-03 12:00:22.89	276.96	24.24	-29.7	-32.1	14.2	2.20e-06	0	43	0	605028352	20	4749
2026-01-03 12:00:23.89	277.24	24.22	-29.7	-32.0	14.2	1.50e-06	0	43	0	606076928	20	4722
2026-01-03 12:00:24.90	277.53	24.21	-29.8	-32.3	14.0	3.80e-06	0	43	0	608174080	20	4836
2026-01-03 12:00:25.91	277.82	24.19	-29.7	-32.1	14.2	3.00e-06	0	43	0	610271232	20	4739
2026-01-03 12:00:26.91	278.10	24.17	-29.7	-32.2	14.1	0.00e+00	0	43	0	612368384	20	4770
2026-01-03 12:00:27.91	278.38	24.15	-29.9	-32.7	13.8	5.30e-06	0	43	0	614465536	20	4961
2026-01-03 12:00:28.92	278.67	24.14	-30.0	-32.9	13.6	8.30e-06	0	43	0	615514112	20	5043
2026-01-03 12:00:29.92	278.95	24.12	-30.1	-33.2	13.5	8.30e-06	0	43	0	617611264	20	5121
2026-01-03 12:00:30.93	279.24	24.10	-30.2	-33.5	13.3	9.10e-06	0	43	0	619708416	20	5266
2026-01-03 12:00:31.93	279.52	24.08	-30.1	-33.3	13.4	1.67e-05	0	43	0	621805568	20	5154
2026-01-03 12:00:32.93	279.80	24.05	-30.2	-33.4	13.3	9.90e-06	0	43	0	623902720	20	5210
2026-01-03 12:00:33.93	280.09	24.03	-30.2	-33.4	13.3	2.44e-05	0	43	0	624951296	20	5221
2026-01-03 12:00:34.94	280.37	24.01	-30.2	-33.5	13.2	2.05e-05	0	43	0	627048448	20	5272
2026-01-03 12:00:35.94	280.65	23.99	-30.2	-33.4	13.4	2.36e-05	0	43	0	629145600	20	5207
2026-01-03 12:00:36.95	280.93	23.96	-30.2	-33.4	13.3	1.29e-05	0	43	0	631242752	20	5220
2026-01-03 12:00:37.95	281.21	23.94	-30.3	-33.6	13.2	2.28e-05	0	43	0	633339904	20	5300
2026-01-03 12:00:38.96	281.50	23.91	-30.0	-33.0	13.5	1.52e-05	0	43	0	634388480	20	5079
2026-01-03 12:00:39.97	281.78	23.88	-29.9	-32.7	13.7	6.80e-06	0	43	0	636485632	20	4971
2026-01-03 12:00:40.97	282.06	23.86	-29.9	-32.6	13.9	3.80e-06	0	43	0	638582784	20	4924
2026-01-03 12:00:41.97	282.34	23.83	-29.9	-32.8	13.7	2.20e-06	0	43	0	640679936	20	4991
2026-01-03 12:00:42.98	282.62	23.80	-29.9	-32.7	13.8	3.80e-06	0	43	0	642777088	20	4955
2026-01-03 12:00:43.98	282.89	23.77	-30.1	-33.1	13.5	3.80e-06	0	43	0	643825664	20	5099
2026-01-03 12:00:44.99	283.17	23.74	-30.1	-33.2	13.5	1.22e-05	0	43	0	645922816	20	5152
2026-01-03 12:00:46.00	283.45	23.71	-30.1	-33.1	13.5	8.30e-06	0	43	0	648019968	20	5101
2026-01-03 12:00:47.00	283.73	23.68	-30.1	-33.3	13.4	1.06e-05	0	43	0	650117120	20	5162
2026-01-03 12:00:48.01	284.01	23.65	-29.9	-32.6	13.8	5.30e-06	0	43	0	652214272	20	4937
2026-01-03 12:00:49.02	284.28	23.62	-29.7	-32.1	14.1	0.00e+00	0	43	0	653262848	20	4758
2026-01-03 12:00:50.03	284.56	23.58	-29.7	-32.2	14.1	2.20e-06	0	43	0	655360000	20	4772
2026-01-03 12:00:51.03	284.83	23.55	-29.8	-32.4	14.0	2.20e-06	0	43	0	657457152	20	4850
2026-01-03 12:00:52.04	285.11	23.52	-29.7	-32.1	14.1	3.00e-06	0	43	0	659554304	20	4763
2026-01-03 12:00:53.05	285.38	23.48	-29.7	-32.2	14.1	3.00e-06	0	43	0	661651456	20	4771
2026-01-03 12:00:54.06	285.66	23.45	-29.8	-32.3	14.0	1.50e-06	0	43	0	662700032	20	4813
2026-01-03 12:00:55.07	285.93	23.41	-29.9	-32.5	13.8	2.20e-06	0	43	0	664797184	20	4893
2026-01-03 12:00:56.06	286.20	23.37	-29.6	-31.8	14.3	2.20e-06	0	43	0	666894336	20	4646
2026-01-03 12:00:57.07	286.47	23.34	-29.4	-31.4	14.6	7.00e-07	0	43	0	668991488	20	4523
2026-01-03 12:00:58.07	286.74	23.30	-29.4	-31.3	14.6	7.00e-07	0	43	0	671088640	20	4498
2026-01-03 12:00:59.08	287.01	23.26	-29.5	-31.5	14.5	0.00e+00	0	43	0	672137216	20	4551
2026-01-03 12:01:00.08	287.28	23.22	-29.4	-31.4	14.6	0.00e+00	0	43	0	674234368	20	4514
2026-01-03 12:01:01.09	287.55	23.18	-29.4	-31.3	14.7	7.00e-07	0	43	0	676331520	20	4488
2026-01-03 12:01:02.10	287.82	23.14	-29.4	-31.3	14.7	0.00e+00	0	43	0	678428672	20	4473
2026-01-03 12:01:03.10	288.08	23.10	-29.4	-31.5	14.5	7.00e-07	0	43	0	680525824	20	4544
2026-01-03 12:01:04.10	288.35	23.06	-29.3	-31.1	14.8	7.00e-07	0	43	0	681574400	20	4422
2026-01-03 12:01:05.10	288.61	23.02	-29.3	-31.5	14.9	0.00e+00	0	43	0	683671552	19	4653
2026-01-03 12:01:06.10	288.88	22.98	-29.3	-31.4	14.9	7.00e-07	0	43	0	685768704	19	4632
2026-01-03 12:01:07.11	289.14	22.93	-29.3	-31.5	14.9	0.00e+00	0	43	0	687865856	19	4643
2026-01-03 12:01:08.12	289.41	22.89	-29.3	-31.5	14.9	0.00e+00	0	43	0	689963008	19	4663
2026-01-03 12:01:09.13	289.67	22.85	-29.3	-31.5	14.9	0.00e+00	0	43	0	691011584	19	4642
2026-01-03 12:01:10.13	289.93	22.80	-29.3	-31.5	14.9	0.00e+00	0	43	0	693108736	19	4656
2026-01-03 12:01:11.13	290.19	22.76	-29.2	-31.3	15.0	7.00e-07	0	43	0	695205888	19	4586
2026-01-03 12:01:12.14	290.45	22.71	-29.1	-31.1	15.1	0.00e+00	0	43	0	697303040	19	4516
2026-01-03 12:01:13.15	290.72	22.66	-29.1	-31.2	15.1	0.00e+00	0	43	0	698351616	19	4542
2026-01-03 12:01:14.15	290.97	22.62	-29.1	-31.0	15.2	0.00e+00	0	43	0	700448768	19	4479
2026-01-03 12:01:15.16	291.23	22.57	-29.1	-31.0	15.2	0.00e+00	0	43	0	702545920	19	4483
2026-01-03 12:01:16.17	291.49	22.52	-29.1	-31.0	15.2	0.00e+00	0	43	0	704643072	19	4479
2026-01-03 12:01:17.17	291.75	22.47	-28.7	-30.7	15.7	0.00e+00	0	43	0	706740224	18	4494
2026-01-03 12:01:18.17	292.00	22.43	-28.5	-30.1	16.0	0.00e+00	0	43	0	708837376	18	4319
2026-01-03 12:01:19.18	292.26	22.38	-28.5	-30.1	16.1	0.00e+00	0	43	0	709885952	18	4311
2026-01-03 12:01:20.19	292.51	22.33	-28.5	-30.2	16.0	0.00e+00	0	43	0	711983104	18	4347
2026-01-03 12:01:21.20	292.77	22.28	-28.5	-30.0	16.0	0.00e+00	0	43	0	714080256	18	4304
2026-01-03 12:01:22.20	293.02	22.23	-28.6	-30.2	15.9	0.00e+00	0	43	0	716177408	18	4362
2026-01-03 12:01:23.21	293.27	22.18	-28.6	-30.3	15.9	0.00e+00	0	43	0	718274560	18	4372
2026-01-03 12:01:24.22	293.53	22.12	-28.6	-30.3	15.8	0.00e+00	0	43	0	719323136	18	4386
2026-01-03 12:01:25.22	293.77	22.07	-28.6	-30.4	15.8	0.00e+00	0	43	0	721420288	18	4424
2026-01-03 12:01:26.22	294.02	22.02	-28.5	-30.2	15.9	0.00e+00	0	43	0	723517440	18	4346
2026-01-03 12:01:27.23	294.27	21.97	-28.6	-30.3	15.9	0.00e+00	0	43	0	725614592	18	4387
2026-01-03 12:01:28.24	294.52	21.91	-28.7	-30.6	15.7	0.00e+00	0	43	0	726663168	18	4471
2026-01-03 12:01:29.24	294.77	21.86	-29.0	-31.3	15.3	0.00e+00	0	43	0	728760320	18	4695
2026-01-03 12:01:30.25	295.02	21.81	-29.1	-31.6	15.1	0.00e+00	0	43	0	730857472	18	4798
2026-01-03 12:01:31.26	295.26	21.75	-29.4	-32.2	14.7	1.50e-06	0	43	0	732954624	18	5016
2026-01-03 12:01:32.27	295.51	21.70	-29.4	-32.3	14.7	0.00e+00	0	43	0	735051776	18	5034
2026-01-03 12:01:33.28	295.75	21.64	-29.4	-32.3	14.7	0.00e+00	0	43	0	737148928	18	5040
2026-01-03 12:01:34.29	296.00	21.59	-29.2	-31.9	14.9	0.00e+00	0	43	0	738197504	18	4908
2026-01-03 12:01:35.29	296.24	21.53	-29.2	-31.9	14.9	0.00e+00	0	43	0	740294656	18	4888
2026-01-03 12:01:36.30	296.48	21.47	-29.2	-31.7	15.0	0.00e+00	0	43	0	742391808	18	4839
2026-01-03 12:01:37.30	296.72	21.42	-29.0	-31.2	15.3	0.00e+00	0	43	0	744488960	18	4675
2026-01-03 12:01:38.30	296.96	21.36	-28.9	-31.1	15.4	0.00e+00	0	43	0	745537536	18	4623
2026-01-03 12:01:39.30	297.19	21.30	-28.9	-31.0	15.4	0.00e+00	0	43	0	747634688	18	4605
2026-01-03 12:01:40.31	297.43	21.24	-28.8	-30.8	15.6	0.00e+00	0	43	0	749731840	18	4532
2026-01-03 12:01:41.32	297.67	21.19	-28.8	-30.7	15.6	0.00e+00	0	43	0	751828992	18	4514
2026-01-03 12:01:42.32	297.90	21.13	-28.8	-30.8	15.6	0.00e+00	0	43	0	753926144	18	4545
2026-01-03 12:01:43.33	298.14	21.07	-28.8	-30.9	15.5	0.00e+00	0	43	0	754974720	18	4561
2026-01-03 12:01:44.34	298.38	21.01	-29.0	-31.2	15.3	0.00e+00	0	43	0	757071872	18	4674
2026-01-03 12:01:45.34	298.61	20.95	-29.2	-31.8	14.9	0.00e+00	0	43	0	759169024	18	4871
2026-01-03 12:01:46.34	298.84	20.89	-29.5	-32.2	14.4	0.00e+00	0	43	0	761266176	19	4896
2026-01-03 12:01:47.35	299.07	20.83	-29.8	-32.9	14.0	1.50e-06	0	43	0	763363328	19	5133
2026-01-03 12:01:48.36	299.30	20.77	-30.0	-33.4	13.7	5.30e-06	0	43	0	765460480	19	5316
2026-01-03 12:01:49.37	299.53	20.71	-30.1	-33.2	13.4	1.22e-05	0	43	0	766509056	20	5140
2026-01-03 12:01:50.38	299.76	20.65	-30.1	-33.4	13.3	1.60e-05	0	43	0	768606208	20	5214
2026-01-03 12:01:51.38	299.99	20.59	-30.1	-33.3	13.2	1.75e-05	0	43	0	770703360	20	5213
2026-01-03 12:01:52.38	300.21	20.52	-30.1	-33.3	13.3	2.13e-05	0	43	0	772800512	20	5179
2026-01-03 12:01:53.39	300.44	20.46	-30.1	-33.4	13.2	1.60e-05	0	43	0	773849088	20	5226
2026-01-03 12:01:54.39	300.67	20.40	-30.1	-33.4	13.2	1.44e-05	0	43	0	775946240	20	5231
2026-01-03 12:01:55.39	300.89	20.34	-30.1	-33.3	13.3	2.05e-05	0	43	0	778043392	20	5178
2026-01-03 12:01:56.40	301.11	20.27	-29.8	-32.4	13.8	7.60e-06	0	43	0	780140544	20	4876
2026-01-03 12:01:57.41	301.34	20.21	-29.6	-31.8	14.3	1.50e-06	0	43	0	782237696	20	4649
2026-01-03 12:01:58.41	301.56	20.15	-29.4	-31.5	14.4	7.00e-07	0	43	0	783286272	20	4552
2026-01-03 12:01:59.42	301.78	20.08	-29.5	-31.6	14.4	1.50e-06	0	43	0	785383424	20	4592
2026-01-03 12:02:00.42	302.00	20.02	-29.5	-31.6	14.4	0.00e+00	0	43	0	787480576	20	4583
2026-01-03 12:02:01.43	302.22	19.96	-29.5	-31.6	14.4	0.00e+00	0	43	0	789577728	20	4597
2026-01-03 12:02:02.44	302.44	19.89	-29.6	-31.9	14.2	0.00e+00	0	43	0	791674880	20	4687
2026-01-03 12:02:03.44	302.65	19.83	-29.8	-32.3	13.9	7.00e-07	0	43	0	792723456	20	4834
2026-01-03 12:02:04.44	302.87	19.76	-29.8	-32.5	13.8	7.60e-06	0	43	0	794820608	20	4908
2026-01-03 12:02:05.45	303.08	19.70	-29.9	-32.7	13.7	8.30e-06	0	43	0	796917760	20	4975
2026-01-03 12:02:06.45	303.30	19.63	-30.0	-33.0	13.5	8.30e-06	0	43	0	799014912	20	5067
2026-01-03 12:02:07.46	303.51	19.57	-30.0	-32.9	13.6	1.75e-05	0	43	0	801112064	20	5029
2026-01-03 12:02:08.47	303.72	19.50	-30.0	-32.9	13.5	6.80e-06	0	43	0	802160640	20	5044
2026-01-03 12:02:09.48	303.94	19.43	-30.0	-33.0	13.5	9.90e-06	0	43	0	804257792	20	5077
2026-01-03 12:02:10.48	304.15	19.37	-30.0	-33.1	13.4	1.52e-05	0	43	0	806354944	20	5127
2026-01-03 12:02:11.49	304.36	19.30	-30.1	-33.3	13.2	2.21e-05	0	43	0	808452096	20	5203
2026-01-03 12:02:12.50	304.57	19.24	-30.1	-33.1	13.4	2.59e-05	0	43	0	810549248	20	5139
2026-01-03 12:02:13.50	304.77	19.17	-29.9	-32.7	13.6	1.29e-05	0	43	0	811597824	20	4990
2026-01-03 12:02:14.51	304.98	19.10	-29.7	-32.3	13.9	6.80e-06	0	43	0	813694976	20	4818
2026-01-03 12:02:15.52	305.19	19.03	-29.7	-32.2	14.0	7.00e-07	0	43	0	815792128	20	4787
2026-01-03 12:02:16.53	305.40	18.97	-29.7	-32.3	13.9	3.80e-06	0	43	0	817889280	20	4829
2026-01-03 12:02:17.53	305.60	18.90	-29.7	-32.2	14.0	5.30e-06	0	43	0	819986432	20	4796
2026-01-03 12:02:18.54	305.80	18.83	-29.6	-32.0	14.0	2.20e-06	0	43	0	821035008	20	4738
2026-01-03 12:02:19.55	306.01	18.76	-29.6	-32.0	14.0	3.80e-06	0	43	0	823132160	20	4747
2026-01-03 12:02:20.55	306.21	18.70	-29.8	-32.4	13.8	1.50e-06	0	43	0	825229312	20	4877
2026-01-03 12:02:21.56	306.41	18.63	-29.8	-32.5	13.7	8.30e-06	0	43	0	827326464	20	4920
2026-01-03 12:02:22.56	306.61	18.56	-29.8	-32.5	13.7	3.00e-06	0	43	0	829423616	20	4911
2026-01-03 12:02:23.57	306.81	18.49	-29.9	-32.9	13.5	9.90e-06	0	43	0	830472192	20	5034
2026-01-03 12:02:24.57	307.01	18.42	-29.8	-32.5	13.7	8.30e-06	0	43	0	832569344	20	4913
2026-01-03 12:02:25.58	307.21	18.35	-29.7	-32.1	14.0	4.50e-06	0	43	0	834666496	20	4762
2026-01-03 12:02:26.58	307.40	18.29	-29.6	-31.9	14.1	1.50e-06	0	43	0	836763648	20	4712
2026-01-03 12:02:27.57	307.59	18.22	-29.6	-32.0	14.0	2.20e-06	0	43	0	838860800	20	4729
2026-01-03 12:02:28.58	307.79	18.15	-29.7	-32.3	13.9	6.10e-06	0	43	0	839909376	20	4823
2026-01-03 12:02:29.59	307.99	18.08	-29.8	-32.4	13.8	3.80e-06	0	43	0	842006528	20	4853
2026-01-03 12:02:30.60	308.18	18.01	-29.8	-32.6	13.7	4.50e-06	0	43	0	844103680	20	4940
2026-01-03 12:02:31.60	308.37	17.94	-29.8	-32.5	13.7	6.10e-06	0	43	0	846200832	20	4912
2026-01-03 12:02:32.60	308.56	17.87	-29.8	-32.6	13.7	7.60e-06	0	43	0	848297984	20	4938
2026-01-03 12:02:33.61	308.75	17.80	-29.9	-32.7	13.6	9.10e-06	0	43	0	849346560	20	4977
2026-01-03 12:02:34.62	308.94	17.73	-30.0	-33.0	13.4	9.10e-06	0	43	0	851443712	20	5089
2026-01-03 12:02:35.62	309.13	17.66	-30.2	-33.5	13.0	2.51e-05	0	43	0	853540864	20	5292
2026-01-03 12:02:36.63	309.32	17.59	-30.3	-33.8	12.8	4.65e-05	0	43	0	855638016	20	5387
2026-01-03 12:02:37.64	309.51	17.52	-30.4	-34.1	12.6	5.87e-05	0	43	0	857735168	20	5529
2026-01-03 12:02:38.65	309.70	17.45	-30.4	-34.2	12.6	1.01e-04	0	43	0	858783744	20	5560
2026-01-03 12:02:39.65	309.88	17.38	-30.3	-33.9	12.8	6.86e-05	0	43	0	860880896	20	5432
2026-01-03 12:02:40.65	310.06	17.31	-30.2	-33.7	12.9	6.56e-05	0	43	0	862978048	20	5380
2026-01-03 12:02:41.65	310.25	17.24	-30.2	-33.7	12.9	5.03e-05	0	43	0	865075200	20	5350
2026-01-03 12:02:42.66	310.43	17.17	-30.3	-34.0	12.7	5.72e-05	0	43	0	867172352	20	5484
2026-01-03 12:02:43.66	310.61	17.10	-30.3	-33.9	12.7	9.76e-05	0	43	0	868220928	20	5461
2026-01-03 12:02:44.66	310.79	17.03	-30.3	-33.9	12.7	7.17e-05	0	43	0	870318080	20	5467
2026-01-03 12:02:45.67	310.97	16.96	-30.5	-34.5	12.4	1.43e-04	0	43	0	872415232	20	5687
2026-01-03 12:02:46.67	311.15	16.89	-30.7	-34.7	11.9	2.32e-04	0	43	0	874512384	21	5669
2026-01-03 12:02:47.68	311.33	16.82	-30.9	-35.3	11.4	6.32e-04	0	43	0	876609536	21	5971
2026-01-03 12:02:48.68	311.51	16.75	-31.1	-35.2	11.1	1.31e-03	0	43	0	877658112	22	5822
2026-01-03 12:02:49.69	311.69	16.68	-31.1	-35.3	11.0	2.08e-03	0	43	0	879755264	22	5860
2026-01-03 12:02:50.69	311.86	16.61	-31.2	-35.8	10.7	1.70e-03	0	43	0	881852416	22	6077
2026-01-03 12:02:51.69	312.04	16.54	-31.0	-34.9	11.3	1.61e-03	0	43	0	883949568	22	5660
2026-01-03 12:02:52.70	312.21	16.47	-30.7	-34.0	12.0	5.41e-04	0	43	0	884998144	22	5278
2026-01-03 12:02:53.70	312.39	16.40	-30.3	-32.9	12.8	1.64e-04	0	43	0	887095296	22	4841
2026-01-03 12:02:54.71	312.56	16.32	-30.1	-32.8	13.1	3.43e-05	0	43	0	889192448	21	4924
2026-01-03 12:02:55.72	312.73	16.25	-30.1	-32.7	13.2	2.51e-05	0	43	0	891289600	21	4896
2026-01-03 12:02:56.73	312.90	16.18	-30.1	-32.9	13.1	3.28e-05	0	43	0	893386752	21	4951
2026-01-03 12:02:57.73	313.07	16.11	-30.4	-33.7	12.5	6.56e-05	0	43	0	895483904	21	5259
2026-01-03 12:02:58.73	313.24	16.04	-30.4	-33.8	12.4	1.72e-04	0	43	0	896532480	21	5301
2026-01-03 12:02:59.73	313.41	15.97	-30.3	-33.4	12.7	9.30e-05	0	43	0	898629632	21	5132
2026-01-03 12:03:00.74	313.58	15.90	-30.1	-33.0	13.0	6.10e-05	0	43	0	900726784	21	4995
2026-01-03 12:03:01.75	313.75	15.83	-30.1	-32.7	13.2	2.67e-05	0	43	0	902823936	21	4888
2026-01-03 12:03:02.75	313.92	15.75	-29.9	-32.3	13.4	2.05e-05	0	43	0	903872512	21	4753
2026-01-03 12:03:03.76	314.08	15.68	-29.9	-32.4	13.3	1.22e-05	0	43	0	905969664	21	4779
2026-01-03 12:03:04.76	314.25	15.61	-29.8	-32.1	13.5	9.90e-06	0	43	0	908066816	21	4686
2026-01-03 12:03:05.77	314.41	15.54	-30.0	-32.7	13.2	1.67e-05	0	43	0	910163968	21	4878
2026-01-03 12:03:06.78	314.58	15.47	-30.0	-32.7	13.1	2.97e-05	0	43	0	912261120	21	4894
2026-01-03 12:03:07.78	314.74	15.40	-30.3	-33.4	12.7	3.05e-05	0	43	0	913309696	21	5142
2026-01-03 12:03:08.79	314.90	15.33	-30.3	-33.6	12.5	1.09e-04	0	43	0	915406848	21	5232
2026-01-03 12:03:09.80	315.07	15.26	-30.5	-34.1	12.2	1.50e-04	0	43	0	917504000	21	5433
2026-01-03 12:03:10.81	315.23	15.18	-30.5	-33.9	12.3	2.73e-04	0	43	0	919601152	21	5372
2026-01-03 12:03:11.81	315.39	15.11	-30.4	-33.6	12.5	1.22e-04	0	43	0	921698304	21	5236
2026-01-03 12:03:12.81	315.54	15.04	-30.3	-33.4	12.7	7.93e-05	0	43	0	923795456	21	5137
2026-01-03 12:03:13.82	315.70	14.97	-30.2	-33.2	12.8	7.78e-05	0	43	0	924844032	21	5068
2026-01-03 12:03:14.83	315.86	14.90	-30.2	-33.1	12.8	4.57e-05	0	43	0	926941184	21	5040
2026-01-03 12:03:15.84	316.02	14.83	-30.4	-33.7	12.4	1.01e-04	0	43	0	929038336	21	5291
2026-01-03 12:03:16.84	316.18	14.76	-30.3	-33.4	12.7	1.17e-04	0	43	0	931135488	21	5148
2026-01-03 12:03:17.84	316.33	14.69	-30.2	-33.2	12.8	7.24e-05	0	43	0	932184064	21	5090
2026-01-03 12:03:18.85	316.49	14.61	-30.4	-33.9	12.3	1.28e-04	0	43	0	934281216	21	5346
2026-01-03 12:03:19.86	316.64	14.54	-30.7	-34.6	11.8	3.22e-04	0	43	0	936378368	21	5642
2026-01-03 12:03:20.86	316.79	14.47	-30.6	-34.5	11.8	4.92e-04	0	43	0	938475520	21	5635
2026-01-03 12:03:21.86	316.95	14.40	-30.8	-34.9	11.6	7.12e-04	0	43	0	940572672	21	5784
2026-01-03 12:03:22.87	317.10	14.33	-30.6	-34.4	11.9	5.80e-04	0	43	0	941621248	21	5579
2026-01-03 12:03:23.87	317.25	14.26	-30.5	-34.0	12.2	3.42e-04	0	43	0	943718400	21	5387
2026-01-03 12:03:24.87	317.40	14.19	-30.3	-33.6	12.5	1.32e-04	0	43	0	945815552	21	5251
2026-01-03 12:03:25.87	317.55	14.12	-30.3	-33.5	12.6	1.02e-04	0	43	0	947912704	21	5194
2026-01-03 12:03:26.87	317.70	14.05	-30.3	-33.6	12.4	1.10e-04	0	43	0	950009856	21	5249
2026-01-03 12:03:27.88	317.85	13.98	-30.2	-33.1	12.8	1.04e-04	0	43	0	951058432	21	5053
2026-01-03 12:03:28.88	317.99	13.91	-30.4	-33.8	12.3	1.11e-04	0	43	0	953155584	21	5314
2026-01-03 12:03:29.88	318.14	13.83	-30.4	-33.7	12.4	1.75e-04	0	43	0	955252736	21	5287
2026-01-03 12:03:30.89	318.29	13.76	-30.6	-34.4	12.0	1.92e-04	0	43	0	957349888	21	5562
2026-01-03 12:03:31.90	318.43	13.69	-30.6	-34.3	12.0	4.16e-04	0	43	0	959447040	21	5532
2026-01-03 12:03:32.90	318.58	13.62	-30.5	-34.1	12.1	3.21e-04	0	43	0	960495616	21	5466
2026-01-03 12:03:33.91	318.72	13.55	-30.5	-34.0	12.2	2.54e-04	0	43	0	962592768	21	5414
2026-01-03 12:03:34.92	318.87	13.48	-30.3	-33.8	12.2	1.95e-04	0	43	0	964689920	21	5331
2026-01-03 12:03:35.93	319.01	13.41	-30.2	-33.5	12.4	1.52e-04	0	43	0	966787072	21	5245
2026-01-03 12:03:36.93	319.15	13.34	-30.2	-33.4	12.5	1.15e-04	0	43	0	968884224	21	5221
2026-01-03 12:03:37.94	319.30	13.27	-30.3	-33.5	12.4	1.25e-04	0	43	0	969932800	21	5246
2026-01-03 12:03:38.95	319.44	13.20	-30.5	-34.1	12.0	2.25e-04	0	43	0	972029952	21	5471
2026-01-03 12:03:39.96	319.58	13.13	-30.2	-33.4	12.6	1.85e-04	0	43	0	974127104	21	5157
2026-01-03 12:03:40.96	319.72	13.06	-30.3	-33.6	12.4	1.12e-04	0	43	0	976224256	21	5254
2026-01-03 12:03:41.97	319.86	12.99	-30.4	-33.8	12.3	1.98e-04	0	43	0	978321408	21	5315
2026-01-03 12:03:42.97	320.00	12.92	-30.4	-34.0	12.1	2.58e-04	0	43	0	979369984	21	5442
2026-01-03 12:03:43.98	320.14	12.85	-30.5	-34.3	11.9	3.29e-04	0	43	0	981467136	21	5567
2026-01-03 12:03:44.99	320.27	12.77	-30.6	-34.4	11.7	4.64e-04	0	43	0	983564288	21	5627
2026-01-03 12:03:46.00	320.41	12.70	-30.6	-34.5	11.7	4.75e-04	0	43	0	985661440	21	5661
2026-01-03 12:03:47.00	320.55	12.63	-30.7	-34.7	11.6	6.69e-04	0	43	0	987758592	21	5725
2026-01-03 12:03:48.01	320.68	12.56	-30.8	-35.2	11.2	1.35e-03	0	43	0	988807168	21	5978
2026-01-03 12:03:49.02	320.82	12.49	-30.7	-34.7	11.6	1.01e-03	0	43	0	990904320	21	5706
2026-01-03 12:03:50.02	320.95	12.42	-30.4	-33.8	12.2	3.47e-04	0	43	0	993001472	21	5336
2026-01-03 12:03:51.03	321.09	12.35	-30.2	-33.3	12.5	1.65e-04	0	43	0	995098624	21	5143
2026-01-03 12:03:52.04	321.22	12.28	-30.2	-33.2	12.6	9.99e-05	0	43	0	997195776	21	5100
2026-01-03 12:03:53.04	321.35	12.22	-30.2	-33.3	12.5	9.07e-05	0	43	0	998244352	21	5147
2026-01-03 12:03:54.05	321.48	12.15	-30.3	-33.5	12.4	1.15e-04	0	43	0	1000341504	21	5207
2026-01-03 12:03:55.06	321.62	12.08	-30.3	-33.5	12.4	1.37e-04	0	43	0	1002438656	21	5224
2026-01-03 12:03:56.06	321.75	12.01	-30.4	-33.8	12.2	1.82e-04	0	43	0	1004535808	21	5348
2026-01-03 12:03:57.07	321.88	11.94	-30.5	-34.1	12.0	2.51e-04	0	43	0	1006632960	21	5447
2026-01-03 12:03:58.07	322.01	11.87	-30.5	-34.3	11.8	4.14e-04	0	43	0	1007681536	21	5548
2026-01-03 12:03:59.07	322.13	11.80	-30.5	-34.3	11.8	4.84e-04	0	43	0	1009778688	21	5572
2026-01-03 12:04:00.08	322.26	11.73	-30.7	-34.6	11.6	6.64e-04	0	43	0	1011875840	21	5696
2026-01-03 12:04:01.08	322.39	11.66	-30.6	-34.6	11.6	7.05e-04	0	43	0	1013972992	21	5682
2026-01-03 12:04:02.08	322.52	11.59	-30.6	-34.6	11.6	6.64e-04	0	43	0	1016070144	21	5672
2026-01-03 12:04:03.09	322.64	11.52	-30.5	-34.1	11.9	5.05e-04	0	43	0	1017118720	21	5485
2026-01-03 12:04:04.09	322.77	11.45	-30.4	-33.8	12.1	2.62e-04	0	43	0	1019215872	21	5352
2026-01-03 12:04:05.09	322.89	11.39	-30.4	-34.0	12.1	2.98e-04	0	43	0	1021313024	21	5409
2026-01-03 12:04:06.09	323.02	11.32	-30.4	-34.0	12.0	3.49e-04	0	43	0	1023410176	21	5437
2026-01-03 12:04:07.10	323.14	11.25	-30.4	-33.9	12.1	3.30e-04	0	43	0	1025507328	21	5369
2026-01-03 12:04:08.10	323.27	11.18	-30.4	-33.9	12.1	2.56e-04	0	43	0	1026555904	21	5371
2026-01-03 12:04:09.11	323.39	11.11	-30.4	-34.0	11.9	3.30e-04	0	43	0	1028653056	21	5443
2026-01-03 12:04:10.11	323.51	11.04	-30.3	-33.7	12.2	3.00e-04	0	43	0	1030750208	21	5315
2026-01-03 12:04:11.11	323.63	10.98	-30.4	-33.8	12.1	2.19e-04	0	43	0	1032847360	21	5361
2026-01-03 12:04:12.12	323.75	10.91	-30.4	-34.0	12.0	3.23e-04	0	43	0	1034944512	21	5414
2026-01-03 12:04:13.12	323.87	10.84	-30.4	-33.9	12.0	3.27e-04	0	43	0	1035993088	21	5400
2026-01-03 12:04:14.14	324.00	10.77	-30.6	-34.5	11.6	5.07e-04	0	43	0	1038090240	21	5673
2026-01-03 12:04:15.14	324.12	10.70	-30.4	-34.1	11.9	4.66e-04	0	43	0	1040187392	21	5466
2026-01-03 12:04:16.15	324.24	10.63	-30.4	-33.8	12.1	2.94e-04	0	43	0	1042284544	21	5358
2026-01-03 12:04:17.16	324.36	10.57	-30.4	-33.9	12.0	3.09e-04	0	43	0	1044381696	21	5410
2026-01-03 12:04:18.16	324.47	10.50	-30.4	-33.8	12.1	3.23e-04	0	43	0	1045430272	21	5366
2026-01-03 12:04:19.17	324.59	10.43	-30.4	-34.0	11.9	3.01e-04	0	43	0	1047527424	21	5440
2026-01-03 12:04:20.18	324.71	10.36	-30.5	-34.2	11.8	3.92e-04	0	43	0	1049624576	21	5498
2026-01-03 12:04:21.18	324.83	10.30	-30.5	-34.1	11.8	4.22e-04	0	43	0	1051721728	21	5489
2026-01-03 12:04:22.19	324.94	10.23	-30.5	-34.4	11.7	6.27e-04	0	43	0	1053818880	21	5583
2026-01-03 12:04:23.20	325.06	10.16	-30.6	-34.5	11.6	6.28e-04	0	43	0	1054867456	21	5646
2026-01-03 12:04:24.20	325.17	10.09	-30.7	-34.7	11.4	8.28e-04	0	43	0	1056964608	21	5765
2026-01-03 12:04:25.21	325.29	10.03	-30.7	-34.8	11.3	1.17e-03	0	43	0	1059061760	21	5795
2026-01-03 12:04:26.22	325.40	9.96	-30.7	-34.9	11.3	1.24e-03	0	43	0	1061158912	21	5839
2026-01-03 12:04:27.23	325.52	9.89	-30.7	-35.0	11.1	1.27e-03	0	43	0	1063256064	21	5907
2026-01-03 12:04:28.23	325.63	9.82	-30.8	-35.3	10.9	1.77e-03	0	43	0	1064304640	21	6031
2026-01-03 12:04:29.24	325.74	9.76	-30.8	-35.4	10.9	2.31e-03	0	43	0	1066401792	21	6077
2026-01-03 12:04:30.25	325.86	9.69	-30.8	-35.1	11.1	1.86e-03	0	43	0	1068498944	21	5928
2026-01-03 12:04:31.25	325.97	9.62	-30.6	-34.7	11.4	1.39e-03	0	43	0	1070596096	21	5758
2026-01-03 12:04:32.25	326.08	9.56	-30.6	-34.6	11.5	8.83e-04	0	43	0	1072693248	21	5687
2026-01-03 12:04:33.26	326.19	9.49	-30.6	-34.5	11.5	9.57e-04	0	43	0	1073741824	21	5655
2026-01-03 12:04:34.27	326.30	9.42	-30.5	-34.2	11.7	6.88e-04	0	43	0	1075838976	21	5543
2026-01-03 12:04:35.28	326.41	9.36	-30.5	-34.3	11.7	5.70e-04	0	43	0	1077936128	21	5561
2026-01-03 12:04:36.28	326.52	9.29	-30.5	-34.3	11.6	6.46e-04	0	43	0	1080033280	21	5592
2026-01-03 12:04:37.28	326.63	9.23	-30.5	-34.2	11.7	5.92e-04	0	43	0	1082130432	21	5523
2026-01-03 12:04:38.29	326.74	9.16	-30.5	-34.4	11.5	7.84e-04	0	43	0	1083179008	21	5635
2026-01-03 12:04:39.30	326.84	9.09	-30.5	-34.5	11.5	8.64e-04	0	43	0	1085276160	21	5644
2026-01-03 12:04:40.30	326.95	9.03	-30.6	-34.8	11.3	8.20e-04	0	43	0	1087373312	21	5789
2026-01-03 12:04:41.31	327.06	8.96	-30.8	-35.3	10.9	1.52e-03	0	43	0	1089470464	21	6038
2026-01-03 12:04:42.31	327.16	8.90	-30.8	-35.4	10.9	2.38e-03	0	43	0	1091567616	21	6067
2026-01-03 12:04:43.32	327.27	8.83	-30.8	-35.4	10.8	2.16e-03	0	43	0	1092616192	21	6102
2026-01-03 12:04:44.32	327.38	8.76	-30.9	-35.5	10.7	2.84e-03	0	43	0	1094713344	21	6140
2026-01-03 12:04:45.33	327.48	8.70	-30.9	-35.5	10.7	2.87e-03	0	43	0	1096810496	21	6149
2026-01-03 12:04:46.34	327.59	8.63	-30.9	-35.7	10.6	3.55e-03	0	43	0	1098907648	21	6243
2026-01-03 12:04:47.34	327.69	8.57	-30.9	-35.7	10.5	3.54e-03	0	43	0	1101004800	21	6274
2026-01-03 12:04:48.35	327.80	8.50	-31.1	-35.6	10.3	4.84e-03	0	43	0	1102053376	22	6108
2026-01-03 12:04:49.35	327.90	8.44	-31.2	-36.2	9.9	7.48e-03	0	43	0	1104150528	22	6381
2026-01-03 12:04:50.36	328.00	8.37	-31.2	-36.2	9.8	1.14e-02	0	43	0	1106247680	22	6384
2026-01-03 12:04:51.36	328.10	8.31	-31.1	-35.8	10.0	7.99e-03	0	43	0	1108344832	22	6221
2026-01-03 12:04:52.37	328.21	8.24	-31.0	-35.7	10.2	6.80e-03	0	43	0	1110441984	22	6145
2026-01-03 12:04:53.37	328.31	8.18	-31.0	-35.4	10.4	5.14e-03	0	43	0	1111490560	22	6018
2026-01-03 12:04:54.38	328.41	8.11	-31.1	-35.7	10.2	5.85e-03	0	43	0	1113587712	22	6157
2026-01-03 12:04:55.39	328.51	8.05	-31.1	-35.9	10.0	7.60e-03	0	43	0	1115684864	22	6229
2026-01-03 12:04:56.39	328.61	7.99	-31.2	-36.1	9.8	8.30e-03	0	43	0	1117782016	22	6380
2026-01-03 12:04:57.39	328.71	7.92	-31.2	-36.4	9.6	1.36e-02	0	43	0	1118830592	22	6537
2026-01-03 12:04:58.39	328.81	7.86	-31.1	-36.1	9.8	1.04e-02	0	43	0	1120927744	22	6363
2026-01-03 12:04:59.39	328.91	7.79	-31.2	-36.4	9.6	1.10e-02	0	43	0	1123024896	22	6522
2026-01-03 12:05:00.39	329.01	7.73	-31.2	-36.2	9.7	1.27e-02	0	43	0	1125122048	22	6445
2026-01-03 12:05:01.40	329.10	7.67	-31.2	-36.2	9.7	1.03e-02	0	43	0	1127219200	22	6412
2026-01-03 12:05:02.40	329.20	7.60	-31.2	-36.4	9.5	1.51e-02	0	43	0	1128267776	22	6535
2026-01-03 12:05:03.41	329.30	7.54	-31.1	-36.0	9.8	1.18e-02	0	43	0	1130364928	22	6314
2026-01-03 12:05:04.42	329.40	7.47	-31.1	-36.0	9.9	8.45e-03	0	43	0	1132462080	22	6324
2026-01-03 12:05:05.43	329.49	7.41	-31.1	-36.0	9.8	9.79e-03	0	43	0	1134559232	22	6311
2026-01-03 12:05:06.43	329.59	7.35	-31.1	-35.8	9.9	8.81e-03	0	43	0	1136656384	22	6236
2026-01-03 12:05:07.43	329.68	7.28	-31.2	-36.5	9.4	1.04e-02	0	43	0	1137704960	22	6582
2026-01-03 12:05:08.44	329.78	7.22	-31.2	-36.5	9.4	1.64e-02	0	43	0	1139802112	22	6621
2026-01-03 12:05:09.45	329.88	7.16	-31.3	-36.7	9.3	1.62e-02	0	43	0	1141899264	22	6698
2026-01-03 12:05:10.46	329.97	7.09	-32.9	-46.5	3.8	2.76e-02	0	43	104	1143996416	25	17192
2026-01-03 12:05:11.47	330.07	7.03	-33.2	-47.6	3.8	1.49e+00	0	43	104	1143996416	26	18732
2026-01-03 12:05:12.47	330.16	6.97	-33.5	-48.0	3.8	1.49e+00	0	43	104	1143996416	26	19238
2026-01-03 12:05:13.48	330.25	6.90	-33.6	-47.8	3.8	1.49e+00	0	43	104	1143996416	27	18414
2026-01-03 12:05:14.49	330.35	6.84	-33.8	-48.1	3.8	1.49e+00	0	43	104	1143996416	27	18748

#Closed at: 2026-01-03 12:05:14
#Recorded file [1143 MB]: D:/data/31010_260103_145500.dat