passes_logs/2026/01/03/R2M6_AANII_01/R2M6_AANII_01__20260103_092314_NOAA_21_JPSS-2_rec.log

#Pass ID: 20260103_092314_NOAA 21 (JPSS-2)
#Satellite: NOAA 21 (JPSS-2)
#Configuration: NOAA 21
#almurnet v.1.7.20240730
#Start time: 2026-01-03 09:23:14

#Version: 2.2.20231116
#Station: R2M6_AANII_01
#Location: 30.233357 lon 59.946436 lat
#TLE: 1 54234U 22150A   26002.25486487  .00000200  00000+0  11573-3 0  9993
#TLE: 2 54234  98.7485 303.3096 0001220 350.9074   9.2080 14.19531212163006

#Time	Az	El	Level	Level2	SNR	BER	BlckErr	Temp	State	Recorded	gain1	gain2
2026-01-03 09:23:14.32	131.48	6.99	-30.1	-34.3	4.7	1.39e+00	0	40	0	0	21	5812
2026-01-03 09:23:15.32	131.43	7.07	-30.5	-35.4	4.6	1.40e+00	0	40	104	0	21	6360
2026-01-03 09:23:16.33	131.39	7.14	-30.4	-34.2	8.7	3.97e-02	0	40	0	0	21	5620
2026-01-03 09:23:17.33	131.34	7.22	-30.3	-34.0	8.9	2.44e-02	0	40	0	3145728	21	5510
2026-01-03 09:23:18.32	131.29	7.29	-30.3	-34.2	8.8	3.69e-02	0	40	0	6291456	21	5590
2026-01-03 09:23:19.33	131.25	7.37	-30.1	-33.4	9.3	1.92e-02	0	40	0	9437184	21	5279
2026-01-03 09:23:20.33	131.20	7.45	-29.9	-32.9	9.7	1.37e-02	0	41	0	12582912	21	5064
2026-01-03 09:23:21.33	131.15	7.52	-29.8	-32.6	9.9	8.54e-03	0	40	0	15728640	21	4944
2026-01-03 09:23:22.34	131.11	7.60	-29.8	-32.5	10.1	7.62e-03	0	41	0	18874368	21	4902
2026-01-03 09:23:23.34	131.06	7.67	-29.8	-33.1	10.0	7.39e-03	0	41	0	22020096	20	5238
2026-01-03 09:23:24.35	131.01	7.75	-29.5	-32.3	10.5	4.89e-03	0	41	0	24117248	20	4931
2026-01-03 09:23:25.36	130.96	7.83	-29.3	-31.5	11.1	2.29e-03	0	41	0	27262976	20	4652
2026-01-03 09:23:26.37	130.92	7.91	-29.0	-31.3	11.6	9.76e-04	0	41	0	30408704	19	4667
2026-01-03 09:23:27.37	130.87	7.98	-28.8	-30.6	12.1	3.34e-04	0	41	0	33554432	19	4446
2026-01-03 09:23:28.38	130.82	8.06	-28.7	-30.9	12.3	1.88e-04	0	41	0	37748736	18	4633
2026-01-03 09:23:29.38	130.77	8.14	-28.7	-30.9	12.2	2.88e-04	0	41	0	40894464	18	4634
2026-01-03 09:23:30.38	130.72	8.22	-28.5	-30.5	12.5	9.99e-05	0	41	0	44040192	18	4520
2026-01-03 09:23:31.38	130.67	8.29	-28.6	-30.7	12.4	1.42e-04	0	41	0	47185920	18	4586
2026-01-03 09:23:32.38	130.62	8.37	-28.6	-30.7	12.4	1.54e-04	0	41	0	49283072	18	4575
2026-01-03 09:23:33.39	130.57	8.45	-28.6	-30.5	12.6	1.17e-04	0	41	0	52428800	18	4511
2026-01-03 09:23:34.40	130.52	8.53	-28.5	-30.5	12.6	8.31e-05	0	41	0	55574528	18	4500
2026-01-03 09:23:35.41	130.47	8.61	-28.6	-30.7	12.5	1.04e-04	0	41	0	58720256	18	4551
2026-01-03 09:23:36.42	130.42	8.69	-28.6	-30.7	12.5	1.37e-04	0	41	0	61865984	18	4556
2026-01-03 09:23:37.42	130.37	8.77	-28.7	-30.8	12.4	1.50e-04	0	41	0	66060288	18	4602
2026-01-03 09:23:38.43	130.32	8.85	-28.5	-30.3	12.7	9.23e-05	0	41	0	69206016	18	4432
2026-01-03 09:23:39.44	130.26	8.93	-28.4	-30.0	12.9	5.11e-05	0	41	0	71303168	18	4361
2026-01-03 09:23:40.44	130.21	9.01	-28.3	-30.3	13.0	2.59e-05	0	41	0	74448896	17	4552
2026-01-03 09:23:41.45	130.16	9.09	-28.3	-30.3	13.0	4.50e-05	0	41	0	77594624	17	4552
2026-01-03 09:23:42.46	130.11	9.17	-28.3	-30.3	13.1	2.97e-05	0	41	0	80740352	17	4537
2026-01-03 09:23:43.47	130.05	9.25	-28.3	-30.3	13.1	2.82e-05	0	41	0	83886080	17	4536
2026-01-03 09:23:44.47	130.00	9.33	-28.3	-30.4	13.0	3.73e-05	0	41	0	88080384	17	4590
2026-01-03 09:23:45.48	129.95	9.42	-28.3	-30.3	13.1	3.81e-05	0	41	0	91226112	17	4535
2026-01-03 09:23:46.49	129.89	9.50	-28.2	-30.2	13.2	3.12e-05	0	41	0	94371840	17	4506
2026-01-03 09:23:47.49	129.84	9.58	-28.2	-30.1	13.3	1.98e-05	0	41	0	96468992	17	4468
2026-01-03 09:23:48.49	129.78	9.66	-28.2	-30.1	13.2	1.83e-05	0	41	0	99614720	17	4474
2026-01-03 09:23:49.50	129.73	9.75	-28.2	-30.1	13.2	1.67e-05	0	41	0	102760448	17	4498
2026-01-03 09:23:50.51	129.67	9.83	-28.2	-30.2	13.2	2.44e-05	0	42	0	105906176	17	4499
2026-01-03 09:23:51.51	129.62	9.91	-28.2	-30.0	13.3	1.83e-05	0	42	0	109051904	17	4439
2026-01-03 09:23:52.52	129.56	9.99	-28.1	-29.9	13.3	1.22e-05	0	41	0	112197632	17	4431
2026-01-03 09:23:53.52	129.51	10.08	-28.1	-29.9	13.4	2.36e-05	0	42	0	115343360	17	4428
2026-01-03 09:23:54.53	129.45	10.16	-28.1	-29.9	13.4	1.29e-05	0	42	0	118489088	17	4412
2026-01-03 09:23:55.53	129.39	10.25	-28.2	-29.9	13.4	9.10e-06	0	42	0	121634816	17	4420
2026-01-03 09:23:56.54	129.34	10.33	-28.2	-30.1	13.3	2.59e-05	0	42	0	124780544	17	4477
2026-01-03 09:23:57.54	129.28	10.41	-28.2	-30.1	13.4	1.67e-05	0	42	0	127926272	17	4444
2026-01-03 09:23:58.54	129.22	10.50	-28.2	-29.9	13.4	1.22e-05	0	42	0	131072000	17	4415
2026-01-03 09:23:59.55	129.16	10.58	-28.2	-30.0	13.4	1.75e-05	0	42	0	134217728	17	4430
2026-01-03 09:24:00.55	129.10	10.67	-28.2	-29.9	13.5	1.22e-05	0	42	0	137363456	17	4408
2026-01-03 09:24:01.56	129.04	10.76	-28.1	-29.8	13.6	5.30e-06	0	42	0	140509184	17	4360
2026-01-03 09:24:02.57	128.98	10.84	-28.1	-29.7	13.6	1.14e-05	0	42	0	143654912	17	4322
2026-01-03 09:24:03.58	128.92	10.93	-28.2	-30.0	13.5	7.60e-06	0	42	0	146800640	17	4414
2026-01-03 09:24:04.58	128.86	11.01	-28.1	-29.9	13.5	1.14e-05	0	42	0	149946368	17	4390
2026-01-03 09:24:05.59	128.80	11.10	-27.9	-29.3	13.9	9.10e-06	0	42	0	153092096	17	4230
2026-01-03 09:24:06.60	128.74	11.19	-27.8	-29.1	14.0	1.50e-06	0	42	0	156237824	17	4165
2026-01-03 09:24:07.60	128.68	11.28	-27.8	-29.0	14.1	3.00e-06	0	42	0	159383552	17	4143
2026-01-03 09:24:08.60	128.62	11.36	-27.8	-29.1	14.0	4.65e-05	0	42	0	162529280	17	4156
2026-01-03 09:24:09.61	128.56	11.45	-27.8	-29.4	14.2	3.80e-06	0	42	0	165675008	16	4360
2026-01-03 09:24:10.61	128.50	11.54	-27.7	-29.2	14.3	1.50e-06	0	42	0	168820736	16	4296
2026-01-03 09:24:11.62	128.43	11.63	-27.7	-29.3	14.2	1.50e-06	0	42	0	171966464	16	4338
2026-01-03 09:24:12.62	128.37	11.72	-27.7	-29.4	14.2	4.50e-06	0	42	0	175112192	16	4345
2026-01-03 09:24:13.63	128.31	11.80	-27.6	-29.1	14.3	0.00e+00	0	42	0	178257920	16	4281
2026-01-03 09:24:14.63	128.24	11.89	-27.6	-29.1	14.4	0.00e+00	0	42	0	181403648	16	4266
2026-01-03 09:24:15.64	128.18	11.98	-27.6	-29.0	14.4	0.00e+00	0	42	0	184549376	16	4246
2026-01-03 09:24:16.65	128.11	12.07	-27.5	-28.9	14.5	0.00e+00	0	42	0	187695104	16	4216
2026-01-03 09:24:17.66	128.05	12.16	-27.6	-29.1	14.4	1.50e-06	0	42	0	190840832	16	4275
2026-01-03 09:24:18.66	127.98	12.25	-27.6	-29.1	14.4	0.00e+00	0	42	0	193986560	16	4265
2026-01-03 09:24:19.66	127.92	12.34	-27.5	-28.9	14.5	0.00e+00	0	42	0	197132288	16	4223
2026-01-03 09:24:20.67	127.85	12.44	-27.6	-29.0	14.5	7.00e-07	0	42	0	200278016	16	4227
2026-01-03 09:24:21.68	127.78	12.53	-27.6	-29.0	14.5	0.00e+00	0	42	0	203423744	16	4230
2026-01-03 09:24:22.68	127.71	12.62	-27.6	-29.0	14.5	0.00e+00	0	42	0	206569472	16	4252
2026-01-03 09:24:23.68	127.65	12.71	-27.6	-29.1	14.4	7.00e-07	0	42	0	209715200	16	4260
2026-01-03 09:24:24.69	127.58	12.80	-27.6	-29.1	14.5	0.00e+00	0	42	0	212860928	16	4253
2026-01-03 09:24:25.69	127.51	12.89	-27.6	-29.1	14.5	1.50e-06	0	42	0	216006656	16	4257
2026-01-03 09:24:26.69	127.44	12.99	-27.7	-29.2	14.4	0.00e+00	0	42	0	219152384	16	4286
2026-01-03 09:24:27.69	127.37	13.08	-27.7	-29.2	14.4	0.00e+00	0	42	0	222298112	16	4272
2026-01-03 09:24:28.70	127.30	13.17	-27.6	-29.0	14.6	0.00e+00	0	42	0	225443840	16	4217
2026-01-03 09:24:29.71	127.23	13.27	-27.6	-28.9	14.6	7.00e-07	0	42	0	228589568	16	4212
2026-01-03 09:24:30.71	127.16	13.36	-27.6	-28.9	14.6	7.00e-07	0	42	0	231735296	16	4206
2026-01-03 09:24:31.72	127.09	13.46	-27.6	-29.0	14.6	0.00e+00	0	42	0	234881024	16	4220
2026-01-03 09:24:32.73	127.02	13.55	-27.5	-28.8	14.7	0.00e+00	0	42	0	238026752	16	4171
2026-01-03 09:24:33.73	126.94	13.65	-27.5	-28.8	14.7	0.00e+00	0	42	0	241172480	16	4161
2026-01-03 09:24:34.74	126.87	13.74	-27.5	-28.7	14.8	0.00e+00	0	42	0	244318208	16	4143
2026-01-03 09:24:35.74	126.80	13.84	-27.6	-29.1	14.6	7.00e-07	0	42	0	247463936	16	4243
2026-01-03 09:24:36.75	126.72	13.93	-27.6	-29.0	14.6	0.00e+00	0	42	0	250609664	16	4222
2026-01-03 09:24:37.75	126.65	14.03	-27.4	-28.5	14.9	0.00e+00	0	42	0	253755392	16	4090
2026-01-03 09:24:38.76	126.57	14.13	-27.3	-28.4	15.0	0.00e+00	0	42	0	256901120	16	4046
2026-01-03 09:24:39.77	126.50	14.22	-27.4	-28.4	15.0	7.00e-07	0	42	0	260046848	16	4056
2026-01-03 09:24:40.78	126.42	14.32	-27.3	-28.3	15.0	0.00e+00	0	42	0	263192576	16	4044
2026-01-03 09:24:41.79	126.35	14.42	-27.4	-28.4	15.0	0.00e+00	0	42	0	266338304	16	4059
2026-01-03 09:24:42.79	126.27	14.52	-27.5	-28.7	14.8	0.00e+00	0	42	0	269484032	16	4133
2026-01-03 09:24:43.80	126.19	14.62	-27.4	-28.6	14.8	0.00e+00	0	42	0	272629760	16	4119
2026-01-03 09:24:44.80	126.11	14.72	-27.3	-28.3	15.0	0.00e+00	0	42	0	275775488	16	4048
2026-01-03 09:24:45.80	126.04	14.81	-27.4	-28.5	15.0	0.00e+00	0	42	0	278921216	16	4076
2026-01-03 09:24:46.81	125.96	14.91	-27.4	-28.5	15.0	1.50e-06	0	42	0	282066944	16	4079
2026-01-03 09:24:47.81	125.88	15.01	-27.4	-28.6	14.9	0.00e+00	0	42	0	285212672	16	4123
2026-01-03 09:24:48.82	125.80	15.11	-27.5	-28.7	14.9	0.00e+00	0	42	0	288358400	16	4137
2026-01-03 09:24:49.83	125.72	15.21	-27.5	-28.7	14.9	0.00e+00	0	42	0	291504128	16	4144
2026-01-03 09:24:50.83	125.63	15.31	-27.5	-28.7	14.9	0.00e+00	0	42	0	294649856	16	4148
2026-01-03 09:24:51.84	125.55	15.42	-27.7	-29.2	14.6	0.00e+00	0	42	0	297795584	16	4285
2026-01-03 09:24:52.85	125.47	15.52	-27.6	-28.9	14.7	0.00e+00	0	42	0	300941312	16	4196
2026-01-03 09:24:53.85	125.39	15.62	-27.6	-28.8	14.8	7.00e-07	0	42	0	304087040	16	4178
2026-01-03 09:24:54.86	125.30	15.72	-27.6	-29.0	14.7	7.00e-07	0	42	0	307232768	16	4233
2026-01-03 09:24:55.87	125.22	15.83	-27.6	-28.9	14.8	5.30e-06	0	42	0	310378496	16	4183
2026-01-03 09:24:56.87	125.13	15.93	-27.7	-29.1	14.7	7.00e-07	0	42	0	313524224	16	4244
2026-01-03 09:24:57.87	125.05	16.03	-27.6	-29.0	14.8	0.00e+00	0	42	0	316669952	16	4202
2026-01-03 09:24:58.88	124.96	16.14	-27.5	-28.7	14.9	0.00e+00	0	42	0	319815680	16	4129
2026-01-03 09:24:59.89	124.88	16.24	-27.6	-29.0	14.8	7.00e-07	0	42	0	322961408	16	4219
2026-01-03 09:25:00.89	124.79	16.34	-27.6	-28.8	14.9	0.00e+00	0	42	0	326107136	16	4166
2026-01-03 09:25:01.90	124.70	16.45	-27.6	-28.9	14.8	0.00e+00	0	42	0	329252864	16	4192
2026-01-03 09:25:02.91	124.61	16.56	-27.5	-28.8	14.9	0.00e+00	0	42	0	332398592	16	4155
2026-01-03 09:25:03.91	124.52	16.66	-27.5	-28.8	14.9	7.00e-07	0	42	0	335544320	16	4153
2026-01-03 09:25:04.92	124.43	16.77	-27.6	-28.9	14.9	0.00e+00	0	42	0	338690048	16	4182
2026-01-03 09:25:05.93	124.34	16.87	-27.8	-29.5	14.5	0.00e+00	0	42	0	341835776	16	4358
2026-01-03 09:25:06.94	124.25	16.98	-27.6	-29.0	14.8	7.00e-07	0	43	0	344981504	16	4205
2026-01-03 09:25:07.94	124.16	17.09	-27.5	-28.8	14.9	7.00e-07	0	43	0	348127232	16	4164
2026-01-03 09:25:08.94	124.07	17.20	-27.5	-28.8	15.0	0.00e+00	0	42	0	351272960	16	4151
2026-01-03 09:25:09.95	123.97	17.30	-27.6	-28.9	14.8	0.00e+00	0	43	0	354418688	16	4201
2026-01-03 09:25:10.96	123.88	17.41	-27.6	-29.0	14.8	0.00e+00	0	42	0	357564416	16	4233
2026-01-03 09:25:11.96	123.79	17.52	-27.6	-29.1	14.8	7.00e-07	0	42	0	360710144	16	4236
2026-01-03 09:25:12.97	123.69	17.63	-27.7	-29.1	14.8	0.00e+00	0	42	0	363855872	16	4250
2026-01-03 09:25:13.97	123.59	17.74	-27.9	-29.6	14.5	7.00e-07	0	43	0	367001600	16	4393
2026-01-03 09:25:14.97	123.50	17.85	-27.7	-29.2	14.7	1.50e-06	0	42	0	370147328	16	4290
2026-01-03 09:25:15.98	123.40	17.96	-27.7	-29.2	14.7	7.00e-07	0	42	0	373293056	16	4281
2026-01-03 09:25:16.98	123.30	18.07	-27.7	-29.3	14.7	0.00e+00	0	42	0	376438784	16	4314
2026-01-03 09:25:17.99	123.20	18.18	-27.9	-29.7	14.4	0.00e+00	0	43	0	379584512	16	4429
2026-01-03 09:25:18.99	123.10	18.29	-27.8	-29.4	14.6	7.00e-07	0	43	0	382730240	16	4339
2026-01-03 09:25:20.00	123.00	18.41	-27.8	-29.3	14.7	0.00e+00	0	42	0	385875968	16	4320
2026-01-03 09:25:21.01	122.90	18.52	-27.8	-29.4	14.6	7.00e-07	0	42	0	389021696	16	4343
2026-01-03 09:25:22.02	122.80	18.63	-27.8	-29.4	14.7	0.00e+00	0	42	0	392167424	16	4327
2026-01-03 09:25:23.02	122.70	18.75	-27.7	-29.2	14.8	0.00e+00	0	43	0	395313152	16	4268
2026-01-03 09:25:24.03	122.59	18.86	-27.8	-29.4	14.6	0.00e+00	0	42	0	398458880	16	4342
2026-01-03 09:25:25.04	122.49	18.97	-28.0	-29.8	14.4	0.00e+00	0	42	0	401604608	16	4439
2026-01-03 09:25:26.04	122.38	19.09	-27.9	-29.5	14.6	0.00e+00	0	43	0	404750336	16	4366
2026-01-03 09:25:27.05	122.28	19.20	-27.8	-29.3	14.7	0.00e+00	0	42	0	407896064	16	4309
2026-01-03 09:25:28.05	122.17	19.32	-27.9	-29.6	14.6	0.00e+00	0	43	0	411041792	16	4376
2026-01-03 09:25:29.06	122.06	19.44	-27.7	-29.1	14.8	0.00e+00	0	43	0	414187520	16	4255
2026-01-03 09:25:30.07	121.96	19.55	-27.7	-29.1	14.9	0.00e+00	0	43	0	417333248	16	4235
2026-01-03 09:25:31.08	121.85	19.67	-27.6	-29.0	14.9	0.00e+00	0	42	0	420478976	16	4211
2026-01-03 09:25:32.09	121.73	19.79	-27.7	-29.2	14.8	0.00e+00	0	43	0	423624704	16	4253
2026-01-03 09:25:33.09	121.62	19.90	-27.6	-28.9	15.0	0.00e+00	0	43	0	426770432	16	4197
2026-01-03 09:25:34.10	121.51	20.02	-27.9	-29.5	14.6	0.00e+00	0	42	0	429916160	16	4352
2026-01-03 09:25:35.10	121.40	20.14	-27.5	-28.7	15.1	0.00e+00	0	43	0	433061888	16	4138
2026-01-03 09:25:36.10	121.29	20.26	-27.3	-28.3	15.3	0.00e+00	0	43	0	436207616	16	4027
2026-01-03 09:25:37.12	121.17	20.38	-27.0	-28.1	15.6	0.00e+00	0	42	0	439353344	15	4082
2026-01-03 09:25:38.12	121.06	20.50	-27.0	-28.1	15.6	0.00e+00	0	42	0	442499072	15	4087
2026-01-03 09:25:39.13	120.94	20.62	-27.1	-28.3	15.5	0.00e+00	0	43	0	445644800	15	4122
2026-01-03 09:25:40.14	120.82	20.74	-27.0	-28.0	15.7	0.00e+00	0	43	0	448790528	15	4047
2026-01-03 09:25:41.14	120.70	20.86	-26.9	-27.9	15.7	0.00e+00	0	42	0	451936256	15	4027
2026-01-03 09:25:42.15	120.58	20.99	-27.0	-28.0	15.7	0.00e+00	0	43	0	455081984	15	4038
2026-01-03 09:25:43.15	120.46	21.11	-26.8	-27.6	15.9	0.00e+00	0	43	0	458227712	15	3938
2026-01-03 09:25:44.15	120.34	21.23	-26.7	-27.9	16.0	0.00e+00	0	43	0	461373440	14	4119
2026-01-03 09:25:45.16	120.22	21.35	-26.6	-27.7	16.1	0.00e+00	0	43	0	464519168	14	4066
2026-01-03 09:25:46.17	120.10	21.48	-26.6	-27.6	16.2	0.00e+00	0	43	0	467664896	14	4050
2026-01-03 09:25:47.17	119.97	21.60	-26.4	-27.3	16.3	0.00e+00	0	43	0	470810624	14	3966
2026-01-03 09:25:48.18	119.85	21.73	-26.4	-27.3	16.4	0.00e+00	0	43	0	473956352	14	3966
2026-01-03 09:25:49.18	119.72	21.85	-26.5	-27.4	16.3	0.00e+00	0	43	0	477102080	14	4009
2026-01-03 09:25:50.18	119.60	21.97	-26.7	-27.8	16.0	0.00e+00	0	43	0	480247808	14	4113
2026-01-03 09:25:51.19	119.47	22.10	-26.4	-27.3	16.3	0.00e+00	0	43	0	483393536	14	3968
2026-01-03 09:25:52.20	119.34	22.23	-26.3	-27.0	16.5	7.00e-07	0	43	0	486539264	14	3892
2026-01-03 09:25:53.20	119.21	22.35	-26.3	-27.0	16.5	0.00e+00	0	43	0	489684992	14	3904
2026-01-03 09:25:54.22	119.08	22.48	-26.3	-27.0	16.5	0.00e+00	0	43	0	492830720	14	3902
2026-01-03 09:25:55.22	118.94	22.61	-26.3	-27.4	16.5	0.00e+00	0	43	0	495976448	13	4116
2026-01-03 09:25:56.22	118.81	22.74	-26.4	-27.6	16.4	0.00e+00	0	43	0	499122176	13	4156
2026-01-03 09:25:57.23	118.68	22.87	-26.3	-27.6	16.5	0.00e+00	0	43	0	502267904	13	4144
2026-01-03 09:25:58.24	118.54	23.00	-26.4	-27.6	16.4	7.00e-07	0	43	0	505413632	13	4163
2026-01-03 09:25:59.24	118.40	23.13	-26.3	-27.6	16.5	0.00e+00	0	43	0	508559360	13	4142
2026-01-03 09:26:00.25	118.26	23.26	-26.4	-27.8	16.4	0.00e+00	0	43	0	511705088	13	4196
2026-01-03 09:26:01.25	118.12	23.39	-26.5	-27.9	16.3	0.00e+00	0	43	0	514850816	13	4240
2026-01-03 09:26:02.26	117.98	23.52	-26.5	-27.9	16.3	0.00e+00	0	43	0	517996544	13	4240
2026-01-03 09:26:03.26	117.84	23.65	-26.5	-27.9	16.3	0.00e+00	0	43	0	521142272	13	4246
2026-01-03 09:26:04.27	117.70	23.78	-26.6	-28.0	16.2	0.00e+00	0	43	0	524288000	13	4264
2026-01-03 09:26:05.28	117.55	23.91	-26.5	-28.0	16.2	0.00e+00	0	43	0	527433728	13	4269
2026-01-03 09:26:06.28	117.41	24.05	-26.6	-28.0	16.2	0.00e+00	0	43	0	530579456	13	4267
2026-01-03 09:26:07.29	117.26	24.18	-26.5	-27.9	16.3	7.00e-07	0	43	0	533725184	13	4234
2026-01-03 09:26:08.29	117.11	24.31	-26.6	-28.1	16.2	0.00e+00	0	43	0	536870912	13	4283
2026-01-03 09:26:09.30	116.96	24.45	-26.4	-27.6	16.5	0.00e+00	0	43	0	540016640	13	4148
2026-01-03 09:26:10.31	116.81	24.58	-26.2	-27.3	16.7	0.00e+00	0	43	0	543162368	13	4062
2026-01-03 09:26:11.31	116.66	24.72	-26.3	-27.3	16.7	0.00e+00	0	43	0	546308096	13	4081
2026-01-03 09:26:12.32	116.51	24.86	-26.3	-27.3	16.6	0.00e+00	0	43	0	549453824	13	4082
2026-01-03 09:26:13.33	116.35	24.99	-26.3	-27.3	16.6	0.00e+00	0	43	0	552599552	13	4080
2026-01-03 09:26:14.34	116.20	25.13	-26.3	-27.4	16.6	0.00e+00	0	43	0	555745280	13	4108
2026-01-03 09:26:15.34	116.04	25.27	-26.3	-27.5	16.6	0.00e+00	0	43	0	558891008	13	4113
2026-01-03 09:26:16.34	115.88	25.40	-26.4	-27.6	16.5	0.00e+00	0	43	0	562036736	13	4151
2026-01-03 09:26:17.35	115.72	25.54	-26.4	-27.7	16.5	0.00e+00	0	43	0	565182464	13	4188
2026-01-03 09:26:18.35	115.56	25.68	-26.5	-28.0	16.3	0.00e+00	0	43	0	568328192	13	4250
2026-01-03 09:26:19.35	115.40	25.82	-26.6	-28.2	16.2	0.00e+00	0	43	0	571473920	13	4316
2026-01-03 09:26:20.36	115.23	25.96	-26.6	-28.2	16.2	0.00e+00	0	43	0	574619648	13	4305
2026-01-03 09:26:21.36	115.07	26.10	-26.8	-28.5	16.1	0.00e+00	0	43	0	577765376	13	4387
2026-01-03 09:26:22.37	114.90	26.24	-26.9	-28.7	16.0	0.00e+00	0	43	0	580911104	13	4441
2026-01-03 09:26:23.37	114.73	26.38	-26.9	-28.7	16.0	0.00e+00	0	43	0	584056832	13	4449
2026-01-03 09:26:24.38	114.56	26.52	-27.0	-28.9	15.9	0.00e+00	0	43	0	587202560	13	4508
2026-01-03 09:26:25.38	114.39	26.66	-27.0	-28.5	15.8	0.00e+00	0	43	0	590348288	14	4274
2026-01-03 09:26:26.39	114.21	26.80	-27.0	-28.6	15.8	0.00e+00	0	43	0	593494016	14	4296
2026-01-03 09:26:27.40	114.04	26.95	-27.0	-28.5	15.8	0.00e+00	0	43	0	596639744	14	4272
2026-01-03 09:26:28.40	113.86	27.09	-27.1	-28.7	15.8	0.00e+00	0	43	0	599785472	14	4322
2026-01-03 09:26:29.41	113.68	27.23	-27.2	-28.9	15.6	0.00e+00	0	43	0	602931200	14	4378
2026-01-03 09:26:30.41	113.50	27.38	-27.1	-28.7	15.7	0.00e+00	0	43	0	606076928	14	4339
2026-01-03 09:26:31.42	113.32	27.52	-27.2	-29.0	15.6	0.00e+00	0	43	0	609222656	14	4428
2026-01-03 09:26:32.43	113.14	27.67	-27.4	-29.4	15.4	0.00e+00	0	43	0	612368384	14	4521
2026-01-03 09:26:33.43	112.95	27.81	-27.5	-29.1	15.3	0.00e+00	0	43	0	615514112	15	4327
2026-01-03 09:26:34.43	112.77	27.96	-27.6	-29.3	15.1	0.00e+00	0	43	0	618659840	15	4399
2026-01-03 09:26:35.44	112.58	28.11	-27.5	-29.1	15.3	0.00e+00	0	43	0	621805568	15	4337
2026-01-03 09:26:36.45	112.39	28.25	-27.5	-29.1	15.2	0.00e+00	0	43	0	624951296	15	4321
2026-01-03 09:26:37.46	112.20	28.40	-27.4	-28.9	15.3	0.00e+00	0	43	0	628097024	15	4270
2026-01-03 09:26:38.45	112.00	28.55	-27.2	-28.5	15.6	0.00e+00	0	43	0	631242752	15	4155
2026-01-03 09:26:39.46	111.81	28.69	-27.2	-28.4	15.7	0.00e+00	0	43	0	634388480	15	4140
2026-01-03 09:26:40.46	111.61	28.84	-27.2	-28.4	15.7	0.00e+00	0	43	0	637534208	15	4124
2026-01-03 09:26:41.48	111.41	28.99	-27.3	-28.5	15.6	0.00e+00	0	43	0	640679936	15	4169
2026-01-03 09:26:42.48	111.21	29.14	-27.4	-28.8	15.5	0.00e+00	0	43	0	643825664	15	4237
2026-01-03 09:26:43.48	111.01	29.29	-27.2	-28.5	15.6	0.00e+00	0	43	0	646971392	15	4174
2026-01-03 09:26:44.49	110.80	29.44	-27.4	-28.8	15.4	0.00e+00	0	43	0	650117120	15	4256
2026-01-03 09:26:45.49	110.60	29.59	-27.4	-29.0	15.3	0.00e+00	0	43	0	653262848	15	4299
2026-01-03 09:26:46.50	110.39	29.74	-27.4	-28.8	15.4	0.00e+00	0	43	0	656408576	15	4260
2026-01-03 09:26:47.51	110.17	29.89	-27.4	-28.8	15.5	0.00e+00	0	43	0	659554304	15	4257
2026-01-03 09:26:48.51	109.96	30.04	-27.3	-28.6	15.6	0.00e+00	0	43	0	662700032	15	4194
2026-01-03 09:26:49.52	109.75	30.20	-27.1	-28.2	15.8	0.00e+00	0	43	0	665845760	15	4089
2026-01-03 09:26:50.53	109.53	30.35	-27.1	-28.2	15.8	0.00e+00	0	43	0	668991488	15	4097
2026-01-03 09:26:51.53	109.31	30.50	-27.2	-28.3	15.7	0.00e+00	0	43	0	672137216	15	4117
2026-01-03 09:26:52.53	109.09	30.65	-27.3	-28.7	15.5	0.00e+00	0	43	0	675282944	15	4225
2026-01-03 09:26:53.54	108.87	30.81	-27.2	-28.3	15.7	0.00e+00	0	43	0	678428672	15	4114
2026-01-03 09:26:54.55	108.64	30.96	-27.2	-28.4	15.7	4.50e-06	0	43	0	681574400	15	4128
2026-01-03 09:26:55.56	108.41	31.11	-27.2	-28.3	15.7	0.00e+00	0	43	0	684720128	15	4120
2026-01-03 09:26:56.56	108.18	31.27	-27.1	-28.2	15.8	0.00e+00	0	43	0	687865856	15	4084
2026-01-03 09:26:57.57	107.95	31.42	-27.1	-28.1	15.8	4.50e-06	0	43	0	691011584	15	4070
2026-01-03 09:26:58.57	107.72	31.58	-27.0	-28.0	15.9	0.00e+00	0	43	0	694157312	15	4034
2026-01-03 09:26:59.57	107.48	31.73	-27.0	-27.9	16.0	0.00e+00	0	43	0	697303040	15	3997
2026-01-03 09:27:00.58	107.24	31.88	-27.1	-28.1	15.9	0.00e+00	0	43	0	700448768	15	4066
2026-01-03 09:27:01.58	107.00	32.04	-27.1	-28.1	15.9	0.00e+00	0	43	0	703594496	15	4067
2026-01-03 09:27:02.59	106.76	32.20	-27.1	-28.2	15.8	0.00e+00	0	43	0	706740224	15	4081
2026-01-03 09:27:03.59	106.51	32.35	-27.1	-28.2	15.8	7.00e-07	0	43	0	709885952	15	4082
2026-01-03 09:27:04.60	106.27	32.51	-27.1	-28.2	15.8	0.00e+00	0	43	0	713031680	15	4093
2026-01-03 09:27:05.60	106.02	32.66	-27.2	-28.4	15.7	0.00e+00	0	43	0	716177408	15	4138
2026-01-03 09:27:06.60	105.77	32.82	-27.1	-28.3	15.8	0.00e+00	0	43	0	719323136	15	4101
2026-01-03 09:27:07.61	105.51	32.97	-27.0	-28.1	15.9	0.00e+00	0	43	0	722468864	15	4046
2026-01-03 09:27:08.62	105.25	33.13	-27.1	-28.2	15.8	0.00e+00	0	43	0	725614592	15	4087
2026-01-03 09:27:09.61	104.99	33.29	-27.2	-28.4	15.7	0.00e+00	0	43	0	728760320	15	4128
2026-01-03 09:27:10.62	104.73	33.44	-27.3	-28.7	15.6	0.00e+00	0	43	0	731906048	15	4216
2026-01-03 09:27:11.62	104.47	33.60	-27.4	-28.8	15.5	0.00e+00	0	43	0	735051776	15	4243
2026-01-03 09:27:12.63	104.20	33.76	-27.3	-28.7	15.6	0.00e+00	0	43	0	738197504	15	4217
2026-01-03 09:27:13.63	103.93	33.91	-27.4	-28.8	15.5	0.00e+00	0	43	0	741343232	15	4251
2026-01-03 09:27:14.64	103.65	34.07	-27.5	-29.1	15.4	0.00e+00	0	43	0	744488960	15	4319
2026-01-03 09:27:15.65	103.38	34.23	-27.5	-29.2	15.3	0.00e+00	0	43	0	747634688	15	4343
2026-01-03 09:27:16.66	103.10	34.39	-27.6	-29.3	15.2	0.00e+00	0	43	0	750780416	15	4388
2026-01-03 09:27:17.66	102.82	34.54	-27.7	-29.6	15.1	0.00e+00	0	43	0	753926144	15	4464
2026-01-03 09:27:18.65	102.54	34.70	-27.9	-30.0	14.9	0.00e+00	0	43	0	757071872	15	4579
2026-01-03 09:27:19.65	102.25	34.85	-28.1	-30.0	14.7	7.00e-07	0	43	0	760217600	16	4468
2026-01-03 09:27:20.66	101.96	35.01	-28.2	-30.2	14.6	0.00e+00	0	43	0	763363328	16	4529
2026-01-03 09:27:21.67	101.67	35.17	-28.3	-30.4	14.5	0.00e+00	0	43	0	766509056	16	4576
2026-01-03 09:27:22.67	101.37	35.33	-28.4	-30.6	14.4	2.20e-06	0	43	0	769654784	16	4639
2026-01-03 09:27:23.68	101.07	35.48	-28.3	-30.4	14.5	0.00e+00	0	43	0	772800512	16	4595
2026-01-03 09:27:24.69	100.77	35.64	-28.2	-30.2	14.6	0.00e+00	0	43	0	775946240	16	4526
2026-01-03 09:27:25.69	100.47	35.80	-28.4	-30.6	14.4	0.00e+00	0	43	0	779091968	16	4633
2026-01-03 09:27:26.70	100.16	35.95	-28.4	-30.7	14.3	7.00e-07	0	43	0	782237696	16	4694
2026-01-03 09:27:27.70	99.85	36.11	-28.5	-30.5	14.2	3.00e-06	0	43	0	785383424	17	4489
2026-01-03 09:27:28.69	99.54	36.26	-28.6	-30.7	14.1	2.20e-06	0	43	0	788529152	17	4553
2026-01-03 09:27:29.70	99.23	36.42	-28.8	-31.2	13.8	3.80e-06	0	43	0	791674880	17	4715
2026-01-03 09:27:30.71	98.91	36.58	-28.9	-31.4	13.7	7.60e-06	0	43	0	794820608	17	4774
2026-01-03 09:27:31.71	98.59	36.73	-29.0	-31.5	13.5	1.22e-05	0	43	0	797966336	17	4816
2026-01-03 09:27:32.72	98.26	36.89	-29.1	-31.3	13.4	1.37e-05	0	43	0	801112064	18	4649
2026-01-03 09:27:33.72	97.93	37.04	-29.2	-31.6	13.2	1.90e-05	0	43	0	804257792	18	4743
2026-01-03 09:27:34.73	97.60	37.19	-29.1	-31.3	13.4	6.80e-06	0	43	0	807403520	18	4631
2026-01-03 09:27:35.74	97.26	37.35	-29.1	-31.3	13.4	1.98e-05	0	43	0	810549248	18	4629
2026-01-03 09:27:36.75	96.92	37.50	-29.3	-31.9	13.1	2.82e-05	0	43	0	813694976	18	4844
2026-01-03 09:27:37.75	96.59	37.66	-29.1	-31.3	13.4	1.98e-05	0	43	0	816840704	18	4627
2026-01-03 09:27:38.76	96.24	37.81	-29.0	-31.0	13.6	4.50e-06	0	43	0	819986432	18	4538
2026-01-03 09:27:39.77	95.89	37.96	-28.9	-30.8	13.7	1.06e-05	0	43	0	823132160	18	4495
2026-01-03 09:27:40.78	95.54	38.11	-29.0	-31.0	13.6	8.30e-06	0	43	0	826277888	18	4546
2026-01-03 09:27:41.79	95.18	38.26	-28.9	-30.8	13.7	2.20e-06	0	43	0	829423616	18	4473
2026-01-03 09:27:42.80	94.82	38.42	-28.7	-30.3	14.0	7.00e-07	0	43	0	832569344	18	4340
2026-01-03 09:27:43.81	94.46	38.57	-28.6	-30.1	14.1	1.50e-06	0	43	0	835715072	18	4282
2026-01-03 09:27:44.81	94.10	38.71	-28.7	-30.3	14.1	2.20e-06	0	43	0	838860800	18	4316
2026-01-03 09:27:45.82	93.73	38.86	-28.7	-30.3	14.1	7.00e-07	0	43	0	842006528	18	4320
2026-01-03 09:27:46.83	93.36	39.01	-28.6	-30.0	14.2	2.20e-06	0	43	0	845152256	18	4260
2026-01-03 09:27:47.83	92.99	39.16	-28.5	-29.9	14.3	1.50e-06	0	43	0	848297984	18	4220
2026-01-03 09:27:48.84	92.61	39.30	-28.6	-30.1	14.2	1.50e-06	0	43	0	851443712	18	4267
2026-01-03 09:27:49.84	92.23	39.45	-28.5	-29.9	14.3	7.00e-07	0	43	0	854589440	18	4227
2026-01-03 09:27:50.85	91.84	39.59	-28.7	-30.3	13.9	1.50e-06	0	43	0	857735168	18	4342
2026-01-03 09:27:51.86	91.45	39.74	-29.1	-31.2	13.4	1.14e-05	0	43	0	860880896	18	4606
2026-01-03 09:27:52.87	91.06	39.88	-29.5	-32.2	12.9	3.43e-05	0	43	0	864026624	18	4933
2026-01-03 09:27:53.87	90.67	40.02	-29.5	-31.7	12.9	6.25e-05	0	43	0	867172352	19	4660
2026-01-03 09:27:54.87	90.27	40.16	-29.3	-31.2	13.2	2.82e-05	0	43	0	870318080	19	4507
2026-01-03 09:27:55.88	89.87	40.30	-29.4	-31.4	13.1	2.59e-05	0	43	0	873463808	19	4559
2026-01-03 09:27:56.88	89.47	40.44	-29.3	-31.4	13.1	2.89e-05	0	43	0	876609536	19	4548
2026-01-03 09:27:57.89	89.06	40.58	-29.4	-31.6	13.0	4.80e-05	0	43	0	879755264	19	4631
2026-01-03 09:27:58.89	88.65	40.71	-29.3	-31.3	13.1	2.97e-05	0	43	0	882900992	19	4536
2026-01-03 09:27:59.89	88.23	40.85	-29.2	-30.9	13.4	1.37e-05	0	43	0	886046720	19	4404
2026-01-03 09:28:00.91	87.81	40.98	-29.1	-30.7	13.6	1.29e-05	0	43	0	889192448	19	4328
2026-01-03 09:28:01.92	87.38	41.12	-28.9	-30.3	13.8	6.80e-06	0	43	0	892338176	19	4220
2026-01-03 09:28:02.92	86.96	41.25	-29.3	-31.2	13.2	9.90e-06	0	43	0	895483904	19	4496
2026-01-03 09:28:03.93	86.53	41.38	-29.2	-31.0	13.4	1.98e-05	0	43	0	898629632	19	4420
2026-01-03 09:28:04.94	86.09	41.51	-29.3	-31.3	13.2	2.36e-05	0	43	0	901775360	19	4507
2026-01-03 09:28:05.95	85.66	41.63	-29.2	-31.1	13.3	2.82e-05	0	43	0	904921088	19	4455
2026-01-03 09:28:06.95	85.22	41.76	-29.2	-30.9	13.4	1.67e-05	0	43	0	908066816	19	4395
2026-01-03 09:28:07.95	84.78	41.88	-29.3	-31.1	13.3	1.44e-05	0	43	0	911212544	19	4454
2026-01-03 09:28:08.96	84.33	42.01	-29.3	-31.2	13.2	1.67e-05	0	43	0	914358272	19	4473
2026-01-03 09:28:09.97	83.88	42.13	-29.5	-31.7	12.9	2.44e-05	0	43	0	917504000	19	4636
2026-01-03 09:28:10.97	83.43	42.25	-29.9	-32.7	12.3	1.08e-04	0	43	0	920649728	19	4979
2026-01-03 09:28:11.98	82.97	42.36	-29.6	-31.9	12.9	8.54e-05	0	43	0	923795456	19	4708
2026-01-03 09:28:13.00	82.50	42.48	-29.3	-31.2	13.2	3.66e-05	0	43	0	926941184	19	4487
2026-01-03 09:28:13.99	82.05	42.60	-29.0	-30.6	13.6	8.30e-06	0	43	0	930086912	19	4301
2026-01-03 09:28:15.00	81.58	42.71	-29.0	-30.5	13.7	7.60e-06	0	43	0	933232640	19	4273
2026-01-03 09:28:16.01	81.11	42.82	-29.3	-31.1	13.3	1.83e-05	0	43	0	936378368	19	4470
2026-01-03 09:28:17.02	80.63	42.93	-29.3	-31.3	13.2	1.37e-05	0	43	0	939524096	19	4521
2026-01-03 09:28:18.03	80.15	43.04	-29.3	-31.4	13.1	2.97e-05	0	43	0	942669824	19	4548
2026-01-03 09:28:19.03	79.68	43.14	-29.3	-31.4	13.1	2.21e-05	0	43	0	945815552	19	4550
2026-01-03 09:28:20.04	79.19	43.24	-29.6	-31.9	12.8	6.48e-05	0	43	0	948961280	19	4737
2026-01-03 09:28:21.04	78.71	43.34	-29.4	-31.4	13.1	3.81e-05	0	43	0	952107008	19	4575
2026-01-03 09:28:22.05	78.22	43.44	-29.1	-30.8	13.5	6.80e-06	0	43	0	955252736	19	4386
2026-01-03 09:28:23.06	77.72	43.54	-29.1	-30.9	13.4	1.14e-05	0	43	0	958398464	19	4395
2026-01-03 09:28:24.07	77.23	43.64	-29.4	-31.5	13.0	2.74e-05	0	43	0	961544192	19	4590
2026-01-03 09:28:25.07	76.73	43.73	-29.3	-31.2	13.2	3.73e-05	0	43	0	964689920	19	4491
2026-01-03 09:28:26.07	76.23	43.82	-29.5	-31.8	12.9	5.41e-05	0	43	0	967835648	19	4670
2026-01-03 09:28:27.08	75.73	43.91	-29.6	-31.9	12.8	5.26e-05	0	43	0	970981376	19	4718
2026-01-03 09:28:28.09	75.22	43.99	-29.5	-31.9	12.9	6.02e-05	0	43	0	974127104	19	4698
2026-01-03 09:28:29.08	74.72	44.07	-29.5	-31.7	12.9	4.88e-05	0	43	0	977272832	19	4635
2026-01-03 09:28:30.09	74.21	44.16	-29.5	-31.7	13.0	3.96e-05	0	43	0	980418560	19	4651
2026-01-03 09:28:31.10	73.69	44.23	-29.6	-32.0	12.8	5.18e-05	0	43	0	983564288	19	4763
2026-01-03 09:28:32.10	73.18	44.31	-29.9	-32.8	12.3	1.42e-04	0	43	0	986710016	19	5025
2026-01-03 09:28:33.10	72.66	44.38	-30.0	-32.6	12.1	2.54e-04	0	43	0	989855744	20	4840
2026-01-03 09:28:34.11	72.14	44.45	-30.0	-32.6	12.0	4.12e-04	0	43	0	993001472	20	4853
2026-01-03 09:28:35.11	71.62	44.52	-29.8	-32.1	12.3	1.67e-04	0	43	0	996147200	20	4668
2026-01-03 09:28:36.11	71.10	44.59	-29.6	-31.4	12.8	8.31e-05	0	43	0	999292928	20	4444
2026-01-03 09:28:37.11	70.57	44.65	-29.2	-31.0	13.4	2.05e-05	0	43	0	1002438656	19	4438
2026-01-03 09:28:38.12	70.04	44.71	-29.3	-31.3	13.2	1.83e-05	0	43	0	1005584384	19	4529
2026-01-03 09:28:39.13	69.51	44.77	-29.3	-31.1	13.3	2.74e-05	0	43	0	1008730112	19	4470
2026-01-03 09:28:40.13	68.97	44.83	-29.0	-30.5	13.7	9.90e-06	0	43	0	1011875840	19	4292
2026-01-03 09:28:41.14	68.44	44.88	-29.1	-30.7	13.5	9.90e-06	0	43	0	1015021568	19	4341
2026-01-03 09:28:42.15	67.90	44.93	-29.1	-30.7	13.6	1.52e-05	0	43	0	1018167296	19	4342
2026-01-03 09:28:43.15	67.36	44.98	-28.9	-30.3	13.8	6.10e-06	0	43	0	1021313024	19	4206
2026-01-03 09:28:44.15	66.82	45.02	-28.9	-30.2	13.8	4.50e-06	0	43	0	1024458752	19	4205
2026-01-03 09:28:45.15	66.29	45.06	-28.6	-30.0	14.3	7.00e-07	0	43	0	1027604480	18	4225
2026-01-03 09:28:46.15	65.75	45.10	-28.6	-30.2	14.2	7.00e-07	0	43	0	1030750208	18	4283
2026-01-03 09:28:47.16	65.20	45.14	-28.9	-30.8	13.8	4.50e-06	0	43	0	1033895936	18	4469
2026-01-03 09:28:48.17	64.65	45.17	-28.7	-30.4	14.0	7.00e-07	0	43	0	1037041664	18	4350
2026-01-03 09:28:49.17	64.11	45.20	-29.0	-31.1	13.7	6.10e-06	0	43	0	1039138816	18	4581
2026-01-03 09:28:50.18	63.56	45.23	-29.5	-31.6	12.9	4.65e-05	0	43	0	1042284544	19	4632
2026-01-03 09:28:51.18	63.01	45.25	-29.3	-31.2	13.3	3.96e-05	0	43	0	1045430272	19	4502
2026-01-03 09:28:52.19	62.46	45.28	-29.4	-31.5	13.0	1.98e-05	0	43	0	1048576000	19	4597
2026-01-03 09:28:53.19	61.91	45.29	-29.3	-31.3	13.2	4.95e-05	0	43	0	1052770304	19	4527
2026-01-03 09:28:54.20	61.36	45.31	-29.2	-30.9	13.5	1.75e-05	0	43	0	1055916032	19	4403
2026-01-03 09:28:55.21	60.81	45.32	-29.4	-31.5	13.1	2.67e-05	0	43	0	1059061760	19	4596
2026-01-03 09:28:56.21	60.26	45.33	-29.7	-32.2	12.6	1.03e-04	0	43	0	1061158912	19	4826
2026-01-03 09:28:57.22	59.70	45.34	-29.5	-31.8	12.9	6.40e-05	0	43	0	1064304640	19	4690
2026-01-03 09:28:58.23	59.15	45.35	-29.5	-31.8	12.9	4.19e-05	0	43	0	1067450368	19	4675
2026-01-03 09:28:59.22	58.61	45.35	-29.4	-31.5	13.1	3.20e-05	0	43	0	1070596096	19	4596
2026-01-03 09:29:00.22	58.06	45.34	-29.4	-31.5	13.0	3.12e-05	0	43	0	1073741824	19	4594
2026-01-03 09:29:01.23	57.50	45.34	-29.5	-31.8	12.9	4.57e-05	0	43	0	1076887552	19	4670
2026-01-03 09:29:02.24	56.95	45.33	-29.3	-31.1	13.3	2.67e-05	0	43	0	1080033280	19	4472
2026-01-03 09:29:03.24	56.40	45.32	-29.1	-30.7	13.5	9.90e-06	0	43	0	1084227584	19	4335
2026-01-03 09:29:04.24	55.85	45.31	-29.2	-31.0	13.4	1.44e-05	0	43	0	1086324736	19	4425
2026-01-03 09:29:05.25	55.30	45.29	-29.3	-31.4	13.2	2.51e-05	0	43	0	1089470464	19	4536
2026-01-03 09:29:06.26	54.75	45.27	-29.5	-31.7	12.9	4.57e-05	0	43	0	1092616192	19	4661
2026-01-03 09:29:07.27	54.20	45.25	-29.3	-31.3	13.2	2.82e-05	0	43	0	1095761920	19	4510
2026-01-03 09:29:08.27	53.65	45.23	-29.1	-30.8	13.5	5.30e-06	0	43	0	1098907648	19	4356
2026-01-03 09:29:09.28	53.10	45.20	-29.2	-31.1	13.4	1.37e-05	0	43	0	1102053376	19	4444
2026-01-03 09:29:10.28	52.56	45.17	-29.2	-31.0	13.4	2.21e-05	0	43	0	1105199104	19	4422
2026-01-03 09:29:11.29	52.01	45.13	-29.3	-31.2	13.3	2.74e-05	0	43	0	1108344832	19	4486
2026-01-03 09:29:12.30	51.46	45.10	-29.4	-31.6	13.0	3.28e-05	0	43	0	1111490560	19	4623
2026-01-03 09:29:13.30	50.92	45.06	-29.3	-31.4	13.2	2.97e-05	0	43	0	1114636288	19	4537
2026-01-03 09:29:14.30	50.39	45.01	-29.2	-31.1	13.3	1.44e-05	0	43	0	1117782016	19	4464
2026-01-03 09:29:15.31	49.84	44.97	-29.2	-31.1	13.3	2.05e-05	0	43	0	1120927744	19	4455
2026-01-03 09:29:16.31	49.31	44.92	-29.1	-30.7	13.5	1.83e-05	0	43	0	1124073472	19	4355
2026-01-03 09:29:17.32	48.77	44.87	-29.3	-31.3	13.1	1.67e-05	0	43	0	1127219200	19	4537
2026-01-03 09:29:18.32	48.24	44.82	-29.6	-32.1	12.7	6.94e-05	0	43	0	1130364928	19	4768
2026-01-03 09:29:19.32	47.71	44.76	-29.6	-31.9	12.8	6.56e-05	0	43	0	1133510656	19	4713
2026-01-03 09:29:20.33	47.18	44.70	-29.7	-32.2	12.7	6.33e-05	0	43	0	1136656384	19	4795
2026-01-03 09:29:21.34	46.65	44.64	-29.5	-31.9	12.9	5.79e-05	0	43	0	1139802112	19	4713
2026-01-03 09:29:22.35	46.12	44.58	-29.3	-31.2	13.2	3.12e-05	0	43	0	1142947840	19	4498
2026-01-03 09:29:23.36	45.59	44.51	-29.3	-31.3	13.2	2.97e-05	0	43	0	1146093568	19	4521
2026-01-03 09:29:24.36	45.07	44.44	-29.3	-31.2	13.2	1.90e-05	0	43	0	1149239296	19	4506
2026-01-03 09:29:25.37	44.55	44.37	-29.2	-31.0	13.3	9.90e-06	0	43	0	1152385024	19	4435
2026-01-03 09:29:26.38	44.03	44.30	-29.2	-31.1	13.3	2.51e-05	0	43	0	1155530752	19	4457
2026-01-03 09:29:27.38	43.52	44.22	-29.2	-31.0	13.3	1.14e-05	0	43	0	1158676480	19	4435
2026-01-03 09:29:28.39	43.00	44.14	-29.3	-31.2	13.2	2.05e-05	0	43	0	1161822208	19	4499
2026-01-03 09:29:29.39	42.49	44.06	-29.5	-31.9	12.8	4.73e-05	0	43	0	1164967936	19	4725
2026-01-03 09:29:30.39	41.99	43.98	-29.8	-32.4	12.5	1.10e-04	0	43	0	1168113664	19	4894
2026-01-03 09:29:31.40	41.48	43.89	-29.9	-32.3	12.1	2.48e-04	0	43	0	1171259392	20	4764
2026-01-03 09:29:32.40	40.98	43.80	-30.2	-33.1	11.6	6.04e-04	0	43	0	1174405120	20	5041
2026-01-03 09:29:33.41	40.48	43.71	-29.7	-31.7	12.5	4.71e-04	0	43	0	1177550848	20	4560
2026-01-03 09:29:34.42	39.98	43.62	-28.7	-30.4	14.0	1.14e-05	0	43	0	1180696576	18	4349
2026-01-03 09:29:35.43	39.49	43.52	-28.3	-29.4	14.6	0.00e+00	0	43	0	1183842304	18	4067
2026-01-03 09:29:36.44	39.00	43.43	-28.7	-30.2	14.1	2.20e-06	0	43	0	1186988032	18	4305
2026-01-03 09:29:37.44	38.51	43.33	-29.6	-32.0	12.7	2.44e-05	0	43	0	1190133760	19	4755
2026-01-03 09:29:38.45	38.03	43.23	-30.5	-33.9	11.1	9.57e-04	0	43	0	1193279488	20	5336
2026-01-03 09:29:39.46	37.54	43.12	-31.0	-34.8	10.2	6.28e-03	0	43	0	1196425216	21	5588
2026-01-03 09:29:40.46	37.07	43.02	-30.4	-33.1	11.3	2.80e-03	0	43	0	1199570944	21	4912
2026-01-03 09:29:41.47	36.59	42.91	-29.5	-31.2	12.8	1.27e-04	0	43	0	1202716672	20	4396
2026-01-03 09:29:42.48	36.12	42.80	-28.8	-30.1	13.8	6.80e-06	0	43	0	1205862400	19	4181
2026-01-03 09:29:43.48	35.65	42.69	-28.8	-30.6	13.9	3.00e-06	0	43	0	1209008128	18	4428
2026-01-03 09:29:44.48	35.19	42.58	-29.4	-32.1	13.0	3.12e-05	0	43	0	1212153856	18	4882
2026-01-03 09:29:45.49	34.73	42.46	-30.0	-32.9	12.1	1.18e-04	0	43	0	1215299584	19	5081
2026-01-03 09:29:46.50	34.27	42.35	-29.9	-32.3	12.2	4.07e-04	0	43	0	1218445312	20	4749
2026-01-03 09:29:47.51	33.81	42.23	-29.5	-31.3	12.8	1.27e-04	0	43	0	1221591040	20	4420
2026-01-03 09:29:48.52	33.36	42.11	-29.1	-30.8	13.4	1.06e-05	0	43	0	1224736768	19	4367
2026-01-03 09:29:49.52	32.91	41.99	-28.6	-30.1	14.1	1.50e-06	0	43	0	1227882496	18	4270
2026-01-03 09:29:50.52	32.47	41.87	-28.9	-30.8	13.6	6.80e-06	0	43	0	1231028224	18	4474
2026-01-03 09:29:51.53	32.03	41.74	-29.3	-31.8	13.0	2.89e-05	0	43	0	1234173952	18	4791
2026-01-03 09:29:52.53	31.59	41.62	-29.7	-32.4	12.3	6.71e-05	0	43	0	1237319680	19	4912
2026-01-03 09:29:53.54	31.15	41.49	-29.9	-32.4	12.0	3.49e-04	0	43	0	1240465408	20	4790
2026-01-03 09:29:54.54	30.72	41.36	-29.5	-31.3	12.6	1.67e-04	0	43	0	1243611136	20	4448
2026-01-03 09:29:55.55	30.30	41.23	-28.9	-30.2	13.7	9.10e-06	0	43	0	1246756864	19	4210
2026-01-03 09:29:56.55	29.87	41.10	-28.2	-29.8	14.6	7.00e-07	0	43	0	1249902592	17	4285
2026-01-03 09:29:57.55	29.46	40.97	-28.4	-30.1	14.3	0.00e+00	0	43	0	1253048320	17	4388
2026-01-03 09:29:58.55	29.04	40.84	-28.9	-31.3	13.5	4.50e-06	0	43	0	1256194048	17	4760
2026-01-03 09:29:59.56	28.62	40.70	-29.8	-32.7	11.9	1.50e-04	0	43	0	1259339776	19	5015
2026-01-03 09:30:00.56	28.22	40.57	-30.8	-34.4	10.2	4.86e-03	0	43	0	1262485504	21	5445
2026-01-03 09:30:01.57	27.81	40.43	-31.0	-34.6	9.8	9.98e-03	0	43	0	1265631232	22	5417
2026-01-03 09:30:02.57	27.41	40.29	-30.4	-32.8	10.9	3.18e-03	0	43	0	1268776960	22	4754
2026-01-03 09:30:03.59	27.00	40.15	-29.8	-31.6	12.1	3.23e-04	0	43	0	1271922688	21	4422
2026-01-03 09:30:04.59	26.61	40.01	-29.5	-31.3	12.6	8.62e-05	0	43	0	1275068416	20	4441
2026-01-03 09:30:05.60	26.21	39.87	-29.7	-31.7	12.4	1.36e-04	0	43	0	1278214144	20	4568
2026-01-03 09:30:06.60	25.83	39.73	-29.7	-31.9	12.2	3.00e-04	0	43	0	1281359872	20	4638
2026-01-03 09:30:07.61	25.44	39.58	-29.9	-32.4	11.8	3.47e-04	0	43	0	1284505600	20	4804
2026-01-03 09:30:08.61	25.06	39.44	-30.5	-33.5	10.9	1.68e-03	0	43	0	1287651328	21	5093
2026-01-03 09:30:09.62	24.68	39.30	-30.6	-33.8	10.7	3.30e-03	0	43	0	1290797056	21	5180
2026-01-03 09:30:10.62	24.30	39.15	-30.3	-33.0	11.2	1.94e-03	0	43	0	1293942784	21	4889
2026-01-03 09:30:11.62	23.93	39.00	-30.0	-32.1	11.7	6.52e-04	0	43	0	1297088512	21	4591
2026-01-03 09:30:12.63	23.56	38.86	-29.9	-32.0	11.9	3.63e-04	0	43	0	1300234240	21	4547
2026-01-03 09:30:13.63	23.20	38.71	-30.3	-32.9	11.3	8.46e-04	0	43	0	1303379968	21	4867
2026-01-03 09:30:14.63	22.84	38.56	-30.9	-34.6	10.1	5.03e-03	0	43	0	1306525696	21	5525
2026-01-03 09:30:15.64	22.48	38.41	-31.3	-35.2	9.3	1.87e-02	0	43	0	1309671424	22	5684
2026-01-03 09:30:16.65	22.12	38.26	-31.8	-36.5	8.1	3.26e-02	0	43	0	1312817152	23	6155
2026-01-03 09:30:17.65	21.77	38.11	-31.7	-36.2	8.3	6.77e-02	0	43	0	1315962880	23	6025
2026-01-03 09:30:18.66	21.42	37.96	-31.1	-34.2	9.7	1.92e-02	0	43	0	1319108608	23	5137
2026-01-03 09:30:19.66	21.07	37.81	-30.4	-32.6	11.2	2.17e-03	0	43	0	1322254336	22	4641
2026-01-03 09:30:20.67	20.73	37.66	-29.7	-31.7	12.4	2.36e-04	0	43	0	1325400064	20	4561
2026-01-03 09:30:21.68	20.39	37.50	-29.2	-31.0	13.1	2.97e-05	0	43	0	1328545792	19	4439
2026-01-03 09:30:22.68	20.06	37.35	-29.0	-30.6	13.4	8.30e-06	0	43	0	1331691520	19	4319
2026-01-03 09:30:23.69	19.72	37.20	-29.2	-31.1	13.1	1.67e-05	0	43	0	1334837248	19	4479
2026-01-03 09:30:24.70	19.39	37.04	-29.5	-32.0	12.5	6.94e-05	0	43	0	1337982976	19	4752
2026-01-03 09:30:25.70	19.06	36.89	-29.6	-32.2	12.4	1.78e-04	0	43	0	1341128704	19	4818
2026-01-03 09:30:26.71	18.74	36.74	-29.5	-31.8	12.6	9.46e-05	0	43	0	1344274432	19	4714
2026-01-03 09:30:27.72	18.42	36.58	-29.1	-30.9	13.1	2.36e-05	0	43	0	1347420160	19	4435
2026-01-03 09:30:28.72	18.10	36.43	-28.6	-30.0	14.0	1.06e-05	0	43	0	1350565888	18	4261
2026-01-03 09:30:29.73	17.79	36.27	-28.0	-29.1	14.8	1.50e-06	0	43	0	1353711616	17	4113
2026-01-03 09:30:30.72	17.48	36.12	-27.6	-28.7	15.3	0.00e+00	0	43	0	1356857344	16	4109
2026-01-03 09:30:31.73	17.17	35.96	-27.6	-28.8	15.3	0.00e+00	0	43	0	1360003072	16	4128
2026-01-03 09:30:32.74	16.86	35.81	-27.9	-29.4	15.0	0.00e+00	0	43	0	1363148800	16	4301
2026-01-03 09:30:33.74	16.56	35.65	-28.2	-30.1	14.5	7.00e-07	0	43	0	1366294528	16	4515
2026-01-03 09:30:34.75	16.26	35.49	-28.4	-30.8	14.2	2.20e-06	0	43	0	1369440256	16	4707
2026-01-03 09:30:35.75	15.97	35.34	-28.3	-30.5	14.3	2.20e-06	0	43	0	1372585984	16	4611
2026-01-03 09:30:36.75	15.67	35.18	-28.0	-29.7	14.7	7.00e-07	0	43	0	1375731712	16	4375
2026-01-03 09:30:37.75	15.38	35.03	-27.8	-29.3	15.0	0.00e+00	0	43	0	1378877440	16	4256
2026-01-03 09:30:38.76	15.10	34.87	-27.9	-29.4	14.9	0.00e+00	0	43	0	1382023168	16	4298
2026-01-03 09:30:39.77	14.81	34.71	-27.8	-29.2	15.0	0.00e+00	0	43	0	1385168896	16	4255
2026-01-03 09:30:40.78	14.52	34.56	-27.9	-29.4	14.9	7.00e-07	0	43	0	1388314624	16	4297
2026-01-03 09:30:41.79	14.24	34.40	-28.0	-29.8	14.7	0.00e+00	0	43	0	1391460352	16	4416
2026-01-03 09:30:42.79	13.97	34.24	-28.2	-30.3	14.4	7.00e-07	0	43	0	1394606080	16	4554
2026-01-03 09:30:43.79	13.69	34.09	-28.3	-30.4	14.3	0.00e+00	0	43	0	1397751808	16	4598
2026-01-03 09:30:44.80	13.42	33.93	-28.4	-30.6	14.2	7.00e-07	0	43	0	1400897536	16	4671
2026-01-03 09:30:45.81	13.15	33.77	-28.3	-30.6	14.3	1.50e-06	0	43	0	1404043264	16	4642
2026-01-03 09:30:46.82	12.88	33.62	-28.1	-29.9	14.6	7.00e-07	0	43	0	1407188992	16	4442
2026-01-03 09:30:47.82	12.62	33.46	-27.7	-29.0	15.1	0.00e+00	0	43	0	1410334720	16	4202
2026-01-03 09:30:48.83	12.36	33.30	-27.4	-28.3	15.5	0.00e+00	0	43	0	1413480448	16	3997
2026-01-03 09:30:49.83	12.10	33.15	-27.1	-28.2	15.7	0.00e+00	0	43	0	1416626176	15	4101
2026-01-03 09:30:50.84	11.84	32.99	-27.2	-28.5	15.5	0.00e+00	0	43	0	1419771904	15	4175
2026-01-03 09:30:51.85	11.59	32.84	-27.2	-28.4	15.5	0.00e+00	0	43	0	1422917632	15	4155
2026-01-03 09:30:52.85	11.34	32.68	-27.4	-29.0	15.2	7.00e-07	0	43	0	1426063360	15	4303
2026-01-03 09:30:53.86	11.09	32.53	-27.7	-29.7	14.8	0.00e+00	0	43	0	1429209088	15	4509
2026-01-03 09:30:54.86	10.84	32.37	-28.0	-30.3	14.5	7.00e-07	0	43	0	1432354816	15	4693
2026-01-03 09:30:55.87	10.60	32.22	-28.1	-30.0	14.5	0.00e+00	0	43	0	1435500544	16	4490
2026-01-03 09:30:56.88	10.35	32.06	-28.0	-29.8	14.7	0.00e+00	0	43	0	1438646272	16	4406
2026-01-03 09:30:57.88	10.11	31.91	-27.9	-29.5	14.8	7.00e-07	0	43	0	1441792000	16	4330
2026-01-03 09:30:58.88	9.88	31.75	-28.0	-29.7	14.7	0.00e+00	0	43	0	1444937728	16	4382
2026-01-03 09:30:59.89	9.64	31.60	-27.7	-29.0	15.1	0.00e+00	0	43	0	1448083456	16	4188
2026-01-03 09:31:00.88	9.41	31.45	-27.5	-28.7	15.2	7.00e-07	0	43	0	1451229184	16	4116
2026-01-03 09:31:01.89	9.18	31.29	-27.5	-28.6	15.4	0.00e+00	0	43	0	1454374912	16	4075
2026-01-03 09:31:02.89	8.95	31.14	-27.5	-28.7	15.3	0.00e+00	0	43	0	1457520640	16	4103
2026-01-03 09:31:03.90	8.73	30.99	-27.4	-28.5	15.4	0.00e+00	0	43	0	1460666368	16	4054
2026-01-03 09:31:04.91	8.50	30.83	-27.6	-28.7	15.3	0.00e+00	0	43	0	1463812096	16	4123
2026-01-03 09:31:05.92	8.28	30.68	-27.5	-28.7	15.3	0.00e+00	0	43	0	1466957824	16	4108
2026-01-03 09:31:06.92	8.06	30.53	-27.8	-29.3	14.9	0.00e+00	0	43	0	1470103552	16	4282
2026-01-03 09:31:07.92	7.84	30.38	-27.6	-28.8	15.3	0.00e+00	0	43	0	1473249280	16	4133
2026-01-03 09:31:08.92	7.63	30.23	-27.3	-28.2	15.5	0.00e+00	0	43	0	1476395008	16	3990
2026-01-03 09:31:09.93	7.41	30.08	-27.1	-28.2	15.7	0.00e+00	0	43	0	1479540736	15	4083
2026-01-03 09:31:10.94	7.20	29.93	-27.0	-28.0	15.8	0.00e+00	0	43	0	1482686464	15	4050
2026-01-03 09:31:11.94	6.99	29.78	-27.1	-28.2	15.7	0.00e+00	0	43	0	1485832192	15	4098
2026-01-03 09:31:12.94	6.79	29.63	-27.0	-27.9	15.8	0.00e+00	0	43	0	1488977920	15	4024
2026-01-03 09:31:13.95	6.58	29.48	-27.1	-28.3	15.6	0.00e+00	0	43	0	1492123648	15	4116
2026-01-03 09:31:14.96	6.38	29.33	-27.0	-28.0	15.7	0.00e+00	0	43	0	1495269376	15	4051
2026-01-03 09:31:15.97	6.17	29.18	-27.0	-28.1	15.7	0.00e+00	0	43	0	1498415104	15	4077
2026-01-03 09:31:16.97	5.97	29.03	-27.1	-28.3	15.6	0.00e+00	0	43	0	1501560832	15	4120
2026-01-03 09:31:17.98	5.78	28.88	-27.0	-28.1	15.7	0.00e+00	0	43	0	1504706560	15	4080
2026-01-03 09:31:18.98	5.58	28.73	-27.0	-28.1	15.7	0.00e+00	0	43	0	1507852288	15	4068
2026-01-03 09:31:19.99	5.38	28.59	-27.0	-28.0	15.7	0.00e+00	0	43	0	1510998016	15	4042
2026-01-03 09:31:21.00	5.19	28.44	-27.0	-28.1	15.7	0.00e+00	0	43	0	1514143744	15	4067
2026-01-03 09:31:22.01	5.00	28.29	-26.9	-27.9	15.8	0.00e+00	0	43	0	1517289472	15	4015
2026-01-03 09:31:23.01	4.81	28.15	-26.9	-27.8	15.8	0.00e+00	0	43	0	1520435200	15	3989
2026-01-03 09:31:24.02	4.62	28.00	-27.0	-28.0	15.7	0.00e+00	0	43	0	1523580928	15	4038
2026-01-03 09:31:25.03	4.44	27.86	-26.9	-27.8	15.8	0.00e+00	0	43	0	1526726656	15	3995
2026-01-03 09:31:26.04	4.25	27.71	-26.9	-27.8	15.7	0.00e+00	0	43	0	1529872384	15	3995
2026-01-03 09:31:27.04	4.07	27.57	-27.0	-28.1	15.5	0.00e+00	0	43	0	1533018112	15	4071
2026-01-03 09:31:28.04	3.89	27.42	-27.1	-28.3	15.4	0.00e+00	0	43	0	1536163840	15	4126
2026-01-03 09:31:29.05	3.71	27.28	-27.1	-28.4	15.3	0.00e+00	0	43	0	1539309568	15	4147
2026-01-03 09:31:30.06	3.53	27.14	-27.2	-28.5	15.3	0.00e+00	0	43	0	1542455296	15	4194
2026-01-03 09:31:31.07	3.36	26.99	-27.2	-28.6	15.4	0.00e+00	0	43	0	1545601024	15	4195
2026-01-03 09:31:32.08	3.18	26.85	-27.2	-28.6	15.3	0.00e+00	0	43	0	1548746752	15	4212
2026-01-03 09:31:33.08	3.01	26.71	-27.4	-29.0	15.1	0.00e+00	0	43	0	1551892480	15	4312
2026-01-03 09:31:34.09	2.84	26.57	-27.2	-28.6	15.4	0.00e+00	0	43	0	1555038208	15	4198
2026-01-03 09:31:35.10	2.67	26.43	-27.0	-28.1	15.6	7.00e-07	0	43	0	1558183936	15	4085
2026-01-03 09:31:36.11	2.50	26.29	-27.0	-28.1	15.6	0.00e+00	0	43	0	1561329664	15	4073
2026-01-03 09:31:37.11	2.33	26.15	-27.1	-28.2	15.5	0.00e+00	0	43	0	1564475392	15	4096
2026-01-03 09:31:38.11	2.17	26.01	-27.0	-28.0	15.6	0.00e+00	0	43	0	1567621120	15	4056
2026-01-03 09:31:39.12	2.01	25.87	-27.1	-28.2	15.6	0.00e+00	0	43	0	1570766848	15	4096
2026-01-03 09:31:40.12	1.85	25.73	-27.0	-28.0	15.6	0.00e+00	0	43	0	1573912576	15	4050
2026-01-03 09:31:41.12	1.69	25.59	-27.2	-28.6	15.3	0.00e+00	0	43	0	1577058304	15	4211
2026-01-03 09:31:42.12	1.53	25.46	-26.9	-27.9	15.7	0.00e+00	0	43	0	1580204032	15	4024
2026-01-03 09:31:43.12	1.37	25.32	-26.7	-27.9	15.9	0.00e+00	0	43	0	1583349760	14	4134
2026-01-03 09:31:44.13	1.21	25.18	-26.6	-27.7	16.1	0.00e+00	0	43	0	1586495488	14	4063
2026-01-03 09:31:45.13	1.06	25.05	-26.6	-27.6	16.1	0.00e+00	0	43	0	1589641216	14	4055
2026-01-03 09:31:46.14	0.91	24.91	-26.7	-27.9	15.9	0.00e+00	0	43	0	1592786944	14	4134
2026-01-03 09:31:47.15	0.75	24.78	-26.7	-28.0	15.9	0.00e+00	0	43	0	1595932672	14	4146
2026-01-03 09:31:48.16	0.60	24.64	-26.7	-27.8	16.0	0.00e+00	0	43	0	1599078400	14	4105
2026-01-03 09:31:49.16	0.45	24.51	-26.7	-27.8	16.0	0.00e+00	0	43	0	1602224128	14	4110
2026-01-03 09:31:50.17	0.30	24.37	-26.6	-27.7	16.0	0.00e+00	0	43	0	1605369856	14	4067
2026-01-03 09:31:51.17	0.16	24.24	-26.7	-28.0	15.8	0.00e+00	0	43	0	1608515584	14	4152
2026-01-03 09:31:52.18	0.01	24.11	-26.8	-28.0	15.7	0.00e+00	0	43	0	1611661312	14	4159
2026-01-03 09:31:53.18	359.87	23.98	-26.9	-28.2	15.7	0.00e+00	0	43	0	1614807040	14	4221
2026-01-03 09:31:54.19	359.72	23.84	-26.8	-28.0	15.8	0.00e+00	0	43	0	1617952768	14	4149
2026-01-03 09:31:55.20	359.58	23.71	-26.7	-27.9	15.9	0.00e+00	0	43	0	1621098496	14	4118
2026-01-03 09:31:56.20	359.44	23.58	-26.7	-27.9	15.9	0.00e+00	0	43	0	1624244224	14	4126
2026-01-03 09:31:57.21	359.30	23.45	-26.7	-28.0	15.9	2.20e-06	0	43	0	1627389952	14	4147
2026-01-03 09:31:58.22	359.16	23.32	-26.8	-28.2	15.7	0.00e+00	0	43	0	1630535680	14	4209
2026-01-03 09:31:59.22	359.02	23.19	-26.8	-28.0	15.8	0.00e+00	0	43	0	1633681408	14	4152
2026-01-03 09:32:00.23	358.89	23.06	-26.8	-28.1	15.7	0.00e+00	0	43	0	1636827136	14	4187
2026-01-03 09:32:01.24	358.75	22.93	-26.8	-28.1	15.7	0.00e+00	0	43	0	1639972864	14	4171
2026-01-03 09:32:02.25	358.62	22.80	-26.8	-28.2	15.6	0.00e+00	0	43	0	1643118592	14	4209
2026-01-03 09:32:03.26	358.48	22.68	-26.8	-28.1	15.7	7.00e-07	0	43	0	1646264320	14	4191
2026-01-03 09:32:04.27	358.35	22.55	-26.8	-28.2	15.7	0.00e+00	0	43	0	1649410048	14	4210
2026-01-03 09:32:05.27	358.22	22.42	-26.7	-28.0	15.8	0.00e+00	0	43	0	1652555776	14	4149
2026-01-03 09:32:06.28	358.09	22.30	-26.7	-28.0	15.8	0.00e+00	0	43	0	1655701504	14	4155
2026-01-03 09:32:07.29	357.96	22.17	-26.7	-28.0	15.8	0.00e+00	0	43	0	1658847232	14	4147
2026-01-03 09:32:08.29	357.84	22.04	-26.6	-27.7	15.9	0.00e+00	0	43	0	1661992960	14	4088
2026-01-03 09:32:09.30	357.71	21.92	-26.7	-27.9	15.6	0.00e+00	0	43	0	1665138688	14	4123
2026-01-03 09:32:10.31	357.58	21.79	-26.7	-27.9	15.5	0.00e+00	0	43	0	1668284416	14	4133
2026-01-03 09:32:11.32	357.46	21.67	-26.5	-27.6	15.6	0.00e+00	0	43	0	1671430144	14	4044
2026-01-03 09:32:12.33	357.34	21.55	-26.6	-27.6	15.6	0.00e+00	0	43	0	1674575872	14	4061
2026-01-03 09:32:13.34	357.21	21.42	-26.6	-27.6	15.6	0.00e+00	0	43	0	1677721600	14	4065
2026-01-03 09:32:14.34	357.09	21.30	-26.4	-27.3	16.0	0.00e+00	0	43	0	1680867328	14	3977
2026-01-03 09:32:15.35	356.97	21.18	-26.5	-27.4	16.1	0.00e+00	0	43	0	1684013056	14	4010
2026-01-03 09:32:16.35	356.85	21.06	-26.6	-27.5	16.1	0.00e+00	0	43	0	1687158784	14	4037
2026-01-03 09:32:17.36	356.74	20.94	-26.5	-27.4	16.1	0.00e+00	0	43	0	1690304512	14	3993
2026-01-03 09:32:18.36	356.62	20.82	-26.6	-27.6	15.9	0.00e+00	0	43	0	1693450240	14	4051
2026-01-03 09:32:19.36	356.50	20.70	-26.7	-27.9	15.7	0.00e+00	0	43	0	1696595968	14	4133
2026-01-03 09:32:20.37	356.39	20.58	-26.8	-28.2	15.5	0.00e+00	0	43	0	1699741696	14	4206
2026-01-03 09:32:21.38	356.27	20.46	-26.8	-28.2	15.3	0.00e+00	0	43	0	1702887424	14	4222
2026-01-03 09:32:22.38	356.16	20.34	-26.9	-28.5	15.0	0.00e+00	0	43	0	1706033152	14	4297
2026-01-03 09:32:23.38	356.05	20.22	-26.9	-28.3	15.0	7.00e-07	0	43	0	1709178880	14	4247
2026-01-03 09:32:24.38	355.94	20.10	-27.0	-28.5	14.9	7.00e-07	0	43	0	1712324608	14	4303
2026-01-03 09:32:25.39	355.82	19.98	-27.0	-28.5	15.0	0.00e+00	0	43	0	1715470336	14	4310
2026-01-03 09:32:26.39	355.72	19.87	-26.8	-28.1	15.3	0.00e+00	0	43	0	1718616064	14	4183
2026-01-03 09:32:27.39	355.61	19.75	-26.8	-28.1	15.4	0.00e+00	0	43	0	1721761792	14	4185
2026-01-03 09:32:28.40	355.50	19.63	-26.7	-27.9	15.6	0.00e+00	0	43	0	1724907520	14	4123
2026-01-03 09:32:29.40	355.39	19.52	-26.6	-27.7	15.7	0.00e+00	0	43	0	1728053248	14	4079
2026-01-03 09:32:30.40	355.28	19.40	-26.6	-27.8	15.8	0.00e+00	0	43	0	1731198976	14	4097
2026-01-03 09:32:31.41	355.18	19.29	-26.7	-27.9	15.8	0.00e+00	0	43	0	1734344704	14	4132
2026-01-03 09:32:32.41	355.07	19.17	-26.7	-27.9	15.7	0.00e+00	0	43	0	1737490432	14	4143
2026-01-03 09:32:33.42	354.97	19.06	-26.8	-28.2	15.3	0.00e+00	0	43	0	1740636160	14	4220
2026-01-03 09:32:34.43	354.87	18.95	-26.7	-27.9	15.4	0.00e+00	0	43	0	1743781888	14	4141
2026-01-03 09:32:35.43	354.76	18.83	-26.7	-27.8	15.4	0.00e+00	0	43	0	1746927616	14	4126
2026-01-03 09:32:36.44	354.66	18.72	-26.7	-27.9	15.3	0.00e+00	0	43	0	1750073344	14	4137
2026-01-03 09:32:37.45	354.56	18.61	-26.8	-28.1	15.3	0.00e+00	0	43	0	1753219072	14	4197
2026-01-03 09:32:38.45	354.46	18.50	-26.8	-28.2	15.4	0.00e+00	0	43	0	1756364800	14	4219
2026-01-03 09:32:39.46	354.36	18.38	-26.9	-28.3	15.4	0.00e+00	0	43	0	1759510528	14	4260
2026-01-03 09:32:40.46	354.26	18.27	-27.0	-28.5	15.4	0.00e+00	0	43	0	1762656256	14	4299
2026-01-03 09:32:41.47	354.16	18.16	-27.1	-28.7	15.2	0.00e+00	0	43	0	1765801984	14	4368
2026-01-03 09:32:42.48	354.07	18.05	-27.1	-28.8	15.1	0.00e+00	0	43	0	1768947712	14	4382
2026-01-03 09:32:43.48	353.97	17.94	-27.1	-28.9	15.0	0.00e+00	0	43	0	1772093440	14	4423
2026-01-03 09:32:44.48	353.88	17.83	-27.2	-29.0	14.9	7.00e-07	0	43	0	1775239168	14	4456
2026-01-03 09:32:45.49	353.78	17.72	-27.3	-29.2	14.7	0.00e+00	0	43	0	1778384896	14	4520
2026-01-03 09:32:46.50	353.68	17.61	-27.3	-29.3	14.6	0.00e+00	0	43	0	1781530624	14	4524
2026-01-03 09:32:47.51	353.59	17.50	-27.3	-29.3	14.6	7.00e-07	0	43	0	1784676352	14	4546
2026-01-03 09:32:48.51	353.50	17.40	-27.3	-29.4	14.6	7.00e-07	0	43	0	1787822080	14	4563
2026-01-03 09:32:49.52	353.41	17.29	-27.3	-29.4	14.6	0.00e+00	0	43	0	1790967808	14	4561
2026-01-03 09:32:50.53	353.31	17.18	-27.4	-29.5	14.6	0.00e+00	0	43	0	1794113536	14	4581
2026-01-03 09:32:51.54	353.22	17.07	-27.4	-29.4	14.7	1.50e-06	0	43	0	1797259264	14	4563
2026-01-03 09:32:52.54	353.13	16.97	-27.4	-29.5	14.6	3.00e-06	0	43	0	1800404992	14	4585
2026-01-03 09:32:53.54	353.04	16.86	-27.4	-29.5	14.6	0.00e+00	0	43	0	1803550720	14	4589
2026-01-03 09:32:54.54	352.96	16.76	-27.4	-29.5	14.7	7.00e-07	0	43	0	1806696448	14	4579
2026-01-03 09:32:55.54	352.87	16.65	-27.5	-29.6	14.6	0.00e+00	0	43	0	1809842176	14	4635
2026-01-03 09:32:56.55	352.78	16.55	-27.5	-29.7	14.6	1.50e-06	0	43	0	1812987904	14	4644
2026-01-03 09:32:57.56	352.69	16.44	-27.4	-29.6	14.7	0.00e+00	0	43	0	1816133632	14	4614
2026-01-03 09:32:58.56	352.61	16.34	-27.5	-29.7	14.6	0.00e+00	0	43	0	1819279360	14	4655
2026-01-03 09:32:59.56	352.52	16.24	-27.7	-29.7	14.4	0.00e+00	0	43	0	1822425088	15	4525
2026-01-03 09:33:00.57	352.44	16.13	-27.7	-29.6	14.3	1.50e-06	0	43	0	1825570816	15	4513
2026-01-03 09:33:01.58	352.35	16.03	-27.4	-29.0	14.6	0.00e+00	0	43	0	1828716544	15	4336
2026-01-03 09:33:02.58	352.27	15.93	-27.2	-28.7	14.7	0.00e+00	0	43	0	1831862272	15	4246
2026-01-03 09:33:03.58	352.18	15.82	-27.2	-28.6	14.8	0.00e+00	0	43	0	1835008000	15	4215
2026-01-03 09:33:04.59	352.10	15.72	-27.2	-28.7	14.6	0.00e+00	0	43	0	1838153728	15	4241
2026-01-03 09:33:05.60	352.02	15.62	-27.2	-28.6	14.6	1.50e-06	0	43	0	1841299456	15	4229
2026-01-03 09:33:06.60	351.94	15.52	-27.2	-28.5	14.8	7.00e-07	0	43	0	1844445184	15	4189
2026-01-03 09:33:07.60	351.86	15.42	-27.1	-28.4	14.9	0.00e+00	0	43	0	1847590912	15	4181
2026-01-03 09:33:08.61	351.78	15.32	-27.2	-28.5	15.0	0.00e+00	0	43	0	1850736640	15	4208
2026-01-03 09:33:09.61	351.70	15.22	-27.1	-28.4	15.1	0.00e+00	0	43	0	1853882368	15	4175
2026-01-03 09:33:10.61	351.62	15.12	-27.3	-28.7	14.8	7.00e-07	0	43	0	1857028096	15	4251
2026-01-03 09:33:11.61	351.54	15.02	-27.3	-28.7	14.7	7.00e-07	0	43	0	1860173824	15	4256
2026-01-03 09:33:12.62	351.46	14.92	-27.3	-28.7	14.7	7.00e-07	0	43	0	1863319552	15	4263
2026-01-03 09:33:13.62	351.38	14.82	-27.4	-29.1	14.4	0.00e+00	0	43	0	1866465280	15	4366
2026-01-03 09:33:14.62	351.31	14.73	-27.5	-29.2	14.4	2.20e-06	0	43	0	1869611008	15	4399
2026-01-03 09:33:15.63	351.23	14.63	-27.5	-29.3	14.4	0.00e+00	0	43	0	1872756736	15	4434
2026-01-03 09:33:16.63	351.15	14.53	-27.5	-29.3	14.4	1.50e-06	0	43	0	1875902464	15	4440
2026-01-03 09:33:17.64	351.08	14.43	-27.6	-29.5	14.3	1.50e-06	0	43	0	1879048192	15	4497
2026-01-03 09:33:18.64	351.00	14.34	-27.6	-29.6	14.3	7.00e-07	0	43	0	1882193920	15	4517
2026-01-03 09:33:19.64	350.93	14.24	-27.6	-29.6	14.3	1.50e-06	0	43	0	1885339648	15	4522
2026-01-03 09:33:20.65	350.85	14.14	-27.6	-29.6	14.3	7.00e-07	0	43	0	1888485376	15	4529
2026-01-03 09:33:21.66	350.78	14.05	-27.7	-29.7	14.2	0.00e+00	0	43	0	1891631104	15	4557
2026-01-03 09:33:22.66	350.71	13.95	-27.8	-30.0	14.0	3.80e-06	0	43	0	1894776832	15	4651
2026-01-03 09:33:23.66	350.64	13.86	-27.8	-30.1	13.9	6.80e-06	0	43	0	1897922560	15	4683
2026-01-03 09:33:24.67	350.56	13.76	-27.8	-30.1	13.8	5.30e-06	0	43	0	1901068288	15	4689
2026-01-03 09:33:25.68	350.49	13.67	-27.9	-30.2	13.8	3.00e-06	0	43	0	1904214016	15	4710
2026-01-03 09:33:26.68	350.42	13.57	-28.0	-30.4	13.6	6.10e-06	0	43	0	1906311168	15	4783
2026-01-03 09:33:27.69	350.35	13.48	-28.2	-30.5	13.4	6.10e-06	0	43	0	1910505472	16	4694
2026-01-03 09:33:28.70	350.28	13.38	-28.2	-30.5	13.5	1.52e-05	0	43	0	1913651200	16	4673
2026-01-03 09:33:29.71	350.21	13.29	-28.2	-30.4	13.6	6.80e-06	0	43	0	1916796928	16	4642
2026-01-03 09:33:30.71	350.14	13.20	-28.2	-30.4	13.6	6.80e-06	0	43	0	1919942656	16	4636
2026-01-03 09:33:31.71	350.07	13.10	-28.2	-30.4	13.6	1.29e-05	0	43	0	1923088384	16	4653
2026-01-03 09:33:32.72	350.00	13.01	-28.3	-30.7	13.4	9.90e-06	0	43	0	1926234112	16	4756
2026-01-03 09:33:33.72	349.94	12.92	-28.3	-30.5	13.5	1.75e-05	0	43	0	1929379840	16	4691
2026-01-03 09:33:34.72	349.87	12.83	-28.0	-30.1	13.8	6.10e-06	0	43	0	1931476992	16	4540
2026-01-03 09:33:35.73	349.80	12.74	-27.9	-29.8	14.0	3.00e-06	0	43	0	1934622720	16	4468
2026-01-03 09:33:36.74	349.74	12.64	-27.9	-29.7	14.0	4.50e-06	0	43	0	1937768448	16	4444
2026-01-03 09:33:37.75	349.67	12.55	-27.9	-29.8	14.0	7.00e-07	0	43	0	1941962752	16	4456
2026-01-03 09:33:38.75	349.60	12.46	-27.9	-29.7	14.0	1.50e-06	0	43	0	1945108480	16	4441
2026-01-03 09:33:39.76	349.54	12.37	-28.0	-29.9	13.9	4.50e-06	0	43	0	1948254208	16	4481
2026-01-03 09:33:40.77	349.47	12.28	-28.0	-29.9	13.9	1.50e-06	0	43	0	1951399936	16	4494
2026-01-03 09:33:41.78	349.41	12.19	-28.0	-30.0	13.8	4.50e-06	0	43	0	1953497088	16	4516
2026-01-03 09:33:42.78	349.34	12.10	-27.9	-29.7	14.0	5.30e-06	0	43	0	1956642816	16	4432
2026-01-03 09:33:43.79	349.28	12.01	-27.9	-29.8	14.0	1.50e-06	0	43	0	1959788544	16	4458
2026-01-03 09:33:44.79	349.22	11.92	-27.9	-29.8	13.9	6.10e-06	0	43	0	1962934272	16	4473
2026-01-03 09:33:45.79	349.16	11.84	-27.9	-29.6	14.0	7.00e-07	0	43	0	1967128576	16	4418
2026-01-03 09:33:46.80	349.09	11.75	-27.8	-29.4	14.2	1.50e-06	0	43	0	1970274304	16	4353
2026-01-03 09:33:47.81	349.03	11.66	-27.9	-29.7	14.0	7.00e-07	0	43	0	1973420032	16	4428
2026-01-03 09:33:48.82	348.97	11.57	-27.9	-29.6	14.0	4.50e-06	0	43	0	1975517184	16	4408
2026-01-03 09:33:49.82	348.91	11.48	-27.8	-29.5	14.1	3.80e-06	0	43	0	1978662912	16	4381
2026-01-03 09:33:50.83	348.85	11.40	-27.9	-29.8	14.0	2.20e-06	0	43	0	1981808640	16	4457
2026-01-03 09:33:51.83	348.79	11.31	-27.9	-29.8	14.0	1.50e-06	0	43	0	1984954368	16	4459
2026-01-03 09:33:52.84	348.73	11.22	-27.9	-29.8	13.9	3.00e-06	0	43	0	1988100096	16	4480
2026-01-03 09:33:53.84	348.67	11.14	-27.9	-29.8	13.9	2.20e-06	0	43	0	1991245824	16	4458
2026-01-03 09:33:54.85	348.61	11.05	-28.0	-29.9	13.8	1.50e-06	0	43	0	1995440128	16	4495
2026-01-03 09:33:55.85	348.55	10.96	-28.0	-29.9	13.8	6.80e-06	0	43	0	1998585856	16	4516
2026-01-03 09:33:56.85	348.49	10.88	-27.9	-29.8	13.8	2.20e-06	0	43	0	2000683008	16	4474
2026-01-03 09:33:57.85	348.43	10.79	-28.1	-30.1	13.7	8.30e-06	0	43	0	2003828736	16	4571
2026-01-03 09:33:58.86	348.38	10.71	-28.0	-30.0	13.8	9.90e-06	0	43	0	2006974464	16	4522
2026-01-03 09:33:59.87	348.32	10.62	-28.0	-29.9	13.8	3.80e-06	0	43	0	2010120192	16	4503
2026-01-03 09:34:00.88	348.26	10.54	-28.0	-30.0	13.7	9.90e-06	0	43	0	2013265920	16	4529
2026-01-03 09:34:01.89	348.20	10.45	-28.0	-30.1	13.7	4.50e-06	0	43	0	2016411648	16	4569
2026-01-03 09:34:02.90	348.15	10.37	-28.1	-30.1	13.6	7.60e-06	0	43	0	2020605952	16	4576
2026-01-03 09:34:03.90	348.09	10.29	-28.0	-30.0	13.7	2.20e-06	0	43	0	2023751680	16	4545
2026-01-03 09:34:04.91	348.03	10.20	-28.0	-30.1	13.6	9.10e-06	0	43	0	2025848832	16	4569
2026-01-03 09:34:05.91	347.98	10.12	-28.2	-30.4	13.4	9.90e-06	0	43	0	2028994560	16	4663
2026-01-03 09:34:06.91	347.93	10.04	-28.3	-30.7	13.2	1.83e-05	0	43	0	2032140288	16	4770
2026-01-03 09:34:07.92	347.87	9.95	-28.2	-30.6	13.3	1.98e-05	0	43	0	2035286016	16	4723
2026-01-03 09:34:08.93	347.82	9.87	-28.2	-30.6	13.3	1.60e-05	0	43	0	2038431744	16	4719
2026-01-03 09:34:09.94	347.76	9.79	-28.2	-30.6	13.3	2.82e-05	0	43	0	2042626048	16	4720
2026-01-03 09:34:10.95	347.71	9.71	-28.4	-30.9	13.1	2.51e-05	0	43	0	2045771776	16	4830
2026-01-03 09:34:11.96	347.65	9.62	-28.2	-30.6	13.3	3.05e-05	0	43	0	2047868928	16	4728
2026-01-03 09:34:12.96	347.60	9.54	-28.5	-31.2	13.0	4.11e-05	0	43	0	2051014656	16	4921
2026-01-03 09:34:13.97	347.55	9.46	-28.3	-30.9	13.1	3.50e-05	0	43	0	2054160384	16	4806
2026-01-03 09:34:14.98	347.50	9.38	-28.3	-30.8	13.2	2.28e-05	0	43	0	2057306112	16	4793
2026-01-03 09:34:15.99	347.44	9.30	-28.2	-30.6	13.3	1.22e-05	0	43	0	2060451840	16	4735
2026-01-03 09:34:17.00	347.39	9.22	-28.3	-30.8	13.2	2.36e-05	0	43	0	2064646144	16	4789
2026-01-03 09:34:18.00	347.34	9.14	-28.3	-30.8	13.1	2.51e-05	0	43	0	2067791872	16	4802
2026-01-03 09:34:19.01	347.29	9.06	-28.4	-31.0	13.0	4.50e-05	0	43	0	2070937600	16	4866
2026-01-03 09:34:20.01	347.24	8.98	-28.3	-30.9	13.0	3.28e-05	0	43	0	2073034752	16	4822
2026-01-03 09:34:21.01	347.19	8.90	-28.4	-31.0	13.0	4.19e-05	0	43	0	2076180480	16	4877
2026-01-03 09:34:22.01	347.14	8.82	-28.4	-31.1	12.9	4.95e-05	0	43	0	2079326208	16	4910
2026-01-03 09:34:23.02	347.09	8.74	-28.4	-31.1	12.9	4.65e-05	0	43	0	2082471936	16	4911
2026-01-03 09:34:24.02	347.04	8.66	-28.5	-30.7	12.8	5.03e-05	0	43	0	2085617664	17	4666
2026-01-03 09:34:25.03	346.99	8.58	-28.5	-30.8	12.7	6.63e-05	0	43	0	2088763392	17	4692
2026-01-03 09:34:26.04	346.94	8.50	-28.6	-31.0	12.7	9.07e-05	0	43	0	2091909120	17	4756
2026-01-03 09:34:27.04	346.89	8.42	-28.6	-30.9	12.7	8.62e-05	0	43	0	2095054848	17	4735
2026-01-03 09:34:28.05	346.84	8.35	-28.7	-31.2	12.5	7.70e-05	0	43	0	2098200576	17	4825
2026-01-03 09:34:29.05	346.79	8.27	-28.6	-31.1	12.6	1.10e-04	0	43	0	2101346304	17	4791
2026-01-03 09:34:30.06	346.74	8.19	-28.6	-31.0	12.6	8.77e-05	0	43	0	2104492032	17	4760
2026-01-03 09:34:31.07	346.70	8.11	-28.6	-31.2	12.5	1.06e-04	0	43	0	2107637760	17	4814
2026-01-03 09:34:32.07	346.65	8.04	-28.6	-31.1	12.5	1.05e-04	0	43	0	2110783488	17	4784
2026-01-03 09:34:33.07	346.60	7.96	-28.7	-31.3	12.4	1.56e-04	0	43	0	2113929216	17	4873
2026-01-03 09:34:34.07	346.56	7.88	-28.6	-31.2	12.4	1.25e-04	0	43	0	2117074944	17	4830
2026-01-03 09:34:35.07	346.51	7.81	-28.7	-31.3	12.4	1.56e-04	0	43	0	2120220672	17	4865
2026-01-03 09:34:36.08	346.46	7.73	-28.8	-31.6	12.1	2.14e-04	0	43	0	2123366400	17	4980
2026-01-03 09:34:37.09	346.42	7.65	-28.7	-31.4	12.3	1.65e-04	0	43	0	2126512128	17	4893
2026-01-03 09:34:38.10	346.37	7.58	-28.7	-31.3	12.3	1.70e-04	0	43	0	2129657856	17	4876
2026-01-03 09:34:39.10	346.33	7.50	-28.8	-31.5	12.2	1.85e-04	0	43	0	2132803584	17	4940
2026-01-03 09:34:40.11	346.28	7.43	-28.8	-31.7	12.1	2.61e-04	0	43	0	2135949312	17	5009
2026-01-03 09:34:41.12	346.23	7.35	-28.8	-31.7	12.1	3.23e-04	0	43	0	2139095040	17	5003
2026-01-03 09:34:42.12	346.19	7.28	-28.9	-31.8	12.0	2.67e-04	0	43	0	2142240768	17	5030
