passes_logs/2026/01/03/R2M6_AANII_01/R2M6_AANII_01__20260103_095228_SUOMI_NPP_rec.log

#Pass ID: 20260103_095228_SUOMI NPP
#Satellite: SUOMI NPP
#Configuration: NPP
#almurnet v.1.7.20240730
#Start time: 2026-01-03 09:52:28

#Version: 2.2.20231116
#Station: R2M6_AANII_01
#Location: 30.233357 lon 59.946436 lat
#TLE: 1 37849U 11061A   26001.07732418  .00000182  00000+0  10735-3 0  9990
#TLE: 2 37849  98.7795 303.2470 0002580  87.2016 272.9455 14.19520779734739

#Time	Az	El	Level	Level2	SNR	BER	BlckErr	Temp	State	Recorded	gain1	gain2
2026-01-03 09:52:28.76	144.25	6.99	-30.4	-34.0	5.2	1.26e+00	0	40	0	0	22	5452
2026-01-03 09:52:29.77	144.23	7.06	-30.7	-35.2	4.9	1.31e+00	0	40	104	0	22	6046
2026-01-03 09:52:30.77	144.20	7.14	-30.6	-34.3	8.6	6.59e-02	0	40	0	0	22	5508
2026-01-03 09:52:31.77	144.18	7.22	-30.6	-34.4	8.6	3.57e-02	0	40	0	1048576	22	5535
2026-01-03 09:52:32.77	144.15	7.30	-30.6	-34.0	8.9	3.93e-02	0	40	0	3145728	22	5364
2026-01-03 09:52:33.78	144.13	7.37	-30.4	-33.3	9.4	2.16e-02	0	41	0	5242880	22	5035
2026-01-03 09:52:34.79	144.11	7.45	-30.3	-32.8	9.9	1.31e-02	0	41	0	7340032	22	4802
2026-01-03 09:52:35.79	144.08	7.53	-30.2	-33.0	10.2	6.60e-03	0	41	0	9437184	21	4923
2026-01-03 09:52:36.80	144.06	7.61	-30.3	-33.2	10.0	6.27e-03	0	41	0	10485760	21	5020
2026-01-03 09:52:37.81	144.03	7.69	-30.5	-33.9	9.5	8.70e-03	0	41	0	12582912	21	5308
2026-01-03 09:52:38.81	144.01	7.77	-30.5	-33.9	9.5	1.69e-02	0	41	0	14680064	21	5320
2026-01-03 09:52:39.82	143.98	7.85	-30.6	-34.1	9.3	1.44e-02	0	41	0	16777216	21	5433
2026-01-03 09:52:40.82	143.96	7.93	-30.6	-34.2	9.3	2.12e-02	0	41	0	18874368	21	5434
2026-01-03 09:52:41.83	143.93	8.01	-30.7	-34.5	9.1	1.98e-02	0	41	0	19922944	21	5592
2026-01-03 09:52:42.83	143.91	8.09	-30.5	-33.9	9.5	1.75e-02	0	41	0	22020096	21	5322
2026-01-03 09:52:43.84	143.88	8.17	-30.6	-34.1	9.4	1.36e-02	0	41	0	24117248	21	5404
2026-01-03 09:52:44.84	143.86	8.25	-30.4	-33.5	9.8	1.36e-02	0	41	0	26214400	21	5158
2026-01-03 09:52:45.84	143.83	8.33	-30.2	-32.7	10.4	6.11e-03	0	41	0	28311552	21	4833
2026-01-03 09:52:46.85	143.80	8.41	-30.0	-32.2	10.8	2.97e-03	0	41	0	29360128	21	4647
2026-01-03 09:52:47.86	143.78	8.49	-29.7	-32.0	11.3	1.78e-03	0	41	0	31457280	20	4656
2026-01-03 09:52:48.86	143.75	8.57	-29.7	-31.9	11.4	1.08e-03	0	41	0	33554432	20	4648
2026-01-03 09:52:49.86	143.73	8.66	-29.7	-32.0	11.4	1.10e-03	0	41	0	35651584	20	4679
2026-01-03 09:52:50.86	143.70	8.74	-29.7	-31.8	11.5	1.02e-03	0	41	0	37748736	20	4579
2026-01-03 09:52:51.87	143.67	8.82	-29.5	-31.4	11.7	5.97e-04	0	41	0	38797312	20	4481
2026-01-03 09:52:52.87	143.65	8.90	-29.4	-31.2	11.9	3.26e-04	0	41	0	40894464	20	4402
2026-01-03 09:52:53.88	143.62	8.99	-29.3	-31.2	12.4	2.21e-04	0	41	0	42991616	19	4468
2026-01-03 09:52:54.89	143.59	9.07	-29.4	-31.4	12.2	1.43e-04	0	41	0	45088768	19	4558
2026-01-03 09:52:55.90	143.56	9.15	-29.2	-31.1	12.4	2.20e-04	0	41	0	46137344	19	4442
2026-01-03 09:52:56.90	143.54	9.24	-29.3	-31.2	12.4	1.43e-04	0	41	0	48234496	19	4487
2026-01-03 09:52:57.90	143.51	9.32	-29.4	-31.4	12.3	1.62e-04	0	41	0	50331648	19	4557
2026-01-03 09:52:58.91	143.48	9.41	-29.5	-31.7	12.1	2.38e-04	0	41	0	52428800	19	4644
2026-01-03 09:52:59.91	143.45	9.49	-29.4	-31.4	12.3	2.13e-04	0	41	0	54525952	19	4538
2026-01-03 09:53:00.91	143.42	9.58	-29.3	-31.2	12.4	1.21e-04	0	41	0	56623104	19	4473
2026-01-03 09:53:01.92	143.40	9.66	-29.2	-30.8	12.7	9.76e-05	0	41	0	57671680	19	4335
2026-01-03 09:53:02.92	143.37	9.75	-29.2	-30.8	12.7	8.85e-05	0	41	0	59768832	19	4344
2026-01-03 09:53:03.93	143.34	9.83	-29.1	-30.4	12.9	7.78e-05	0	41	0	61865984	19	4212
2026-01-03 09:53:04.93	143.31	9.92	-29.1	-30.6	12.9	4.80e-05	0	41	0	63963136	19	4247
2026-01-03 09:53:05.93	143.28	10.01	-29.3	-30.9	12.7	4.19e-05	0	41	0	65011712	19	4361
2026-01-03 09:53:06.93	143.25	10.09	-29.2	-30.6	12.9	6.94e-05	0	41	0	67108864	19	4251
2026-01-03 09:53:07.94	143.22	10.18	-29.1	-30.2	13.2	3.81e-05	0	42	0	69206016	19	4123
2026-01-03 09:53:08.94	143.19	10.27	-29.0	-30.1	13.3	1.29e-05	0	42	0	71303168	19	4085
2026-01-03 09:53:09.95	143.16	10.35	-29.0	-29.9	13.5	1.52e-05	0	42	0	73400320	19	3998
2026-01-03 09:53:10.96	143.13	10.44	-29.1	-30.2	13.3	1.67e-05	0	42	0	74448896	19	4098
2026-01-03 09:53:11.96	143.10	10.53	-29.2	-30.4	13.2	2.89e-05	0	42	0	76546048	19	4136
2026-01-03 09:53:12.97	143.07	10.62	-29.3	-30.9	12.9	3.58e-05	0	42	0	78643200	19	4301
2026-01-03 09:53:13.97	143.04	10.71	-29.3	-30.8	13.0	4.27e-05	0	42	0	80740352	19	4266
2026-01-03 09:53:14.97	143.01	10.80	-29.4	-30.9	12.8	4.42e-05	0	42	0	82837504	19	4323
2026-01-03 09:53:15.98	142.98	10.89	-29.3	-30.9	12.9	3.96e-05	0	42	0	83886080	19	4294
2026-01-03 09:53:16.98	142.95	10.98	-29.4	-31.0	12.8	3.96e-05	0	41	0	85983232	19	4342
2026-01-03 09:53:17.99	142.91	11.07	-29.3	-30.7	13.0	5.87e-05	0	42	0	88080384	19	4231
2026-01-03 09:53:19.00	142.88	11.16	-29.2	-30.5	13.2	3.05e-05	0	42	0	90177536	19	4187
2026-01-03 09:53:20.00	142.85	11.25	-29.2	-30.6	13.1	3.05e-05	0	42	0	92274688	19	4216
2026-01-03 09:53:21.01	142.82	11.34	-29.3	-30.8	13.0	4.42e-05	0	42	0	93323264	19	4260
2026-01-03 09:53:22.02	142.78	11.43	-29.2	-30.4	13.2	2.74e-05	0	42	0	95420416	19	4156
2026-01-03 09:53:23.02	142.75	11.52	-29.2	-30.4	13.3	2.13e-05	0	42	0	97517568	19	4152
2026-01-03 09:53:24.02	142.72	11.61	-29.3	-30.7	13.0	2.36e-05	0	42	0	99614720	19	4251
2026-01-03 09:53:25.03	142.69	11.71	-29.2	-30.5	13.3	3.50e-05	0	42	0	101711872	19	4164
2026-01-03 09:53:26.04	142.65	11.80	-29.1	-30.1	13.5	9.90e-06	0	42	0	102760448	19	4049
2026-01-03 09:53:27.04	142.62	11.89	-29.2	-30.5	13.3	9.90e-06	0	42	0	104857600	19	4156
2026-01-03 09:53:28.05	142.58	11.99	-29.3	-30.7	13.2	2.74e-05	0	42	0	106954752	19	4209
2026-01-03 09:53:29.06	142.55	12.08	-29.1	-30.1	13.5	9.90e-06	0	42	0	109051904	19	4046
2026-01-03 09:53:30.07	142.52	12.18	-29.0	-30.0	13.6	2.20e-06	0	42	0	111149056	19	3998
2026-01-03 09:53:31.07	142.48	12.27	-29.1	-30.2	13.5	9.90e-06	0	42	0	112197632	19	4077
2026-01-03 09:53:32.07	142.45	12.37	-29.0	-30.0	13.6	9.10e-06	0	42	0	114294784	19	4016
2026-01-03 09:53:33.07	142.41	12.46	-29.0	-29.9	13.6	6.10e-06	0	42	0	116391936	19	4004
2026-01-03 09:53:34.08	142.38	12.56	-29.1	-30.2	13.5	1.14e-05	0	42	0	118489088	19	4086
2026-01-03 09:53:35.09	142.34	12.65	-28.9	-29.7	13.7	1.06e-05	0	42	0	120586240	19	3962
2026-01-03 09:53:36.10	142.30	12.75	-29.1	-30.2	13.5	9.90e-06	0	42	0	121634816	19	4086
2026-01-03 09:53:37.10	142.27	12.85	-29.0	-29.9	13.6	6.80e-06	0	42	0	123731968	19	4014
2026-01-03 09:53:38.11	142.23	12.94	-28.9	-29.8	13.7	4.50e-06	0	42	0	125829120	19	3979
2026-01-03 09:53:39.11	142.20	13.04	-28.8	-29.6	13.8	4.50e-06	0	42	0	127926272	19	3931
2026-01-03 09:53:40.11	142.16	13.14	-29.0	-30.1	13.5	6.10e-06	0	42	0	130023424	19	4073
2026-01-03 09:53:41.12	142.12	13.24	-29.3	-30.8	13.1	1.37e-05	0	42	0	131072000	19	4279
2026-01-03 09:53:42.12	142.08	13.34	-29.0	-30.1	13.6	6.10e-06	0	42	0	133169152	19	4058
2026-01-03 09:53:43.12	142.05	13.43	-29.0	-30.0	13.7	9.10e-06	0	42	0	135266304	19	4019
2026-01-03 09:53:44.13	142.01	13.53	-29.4	-30.9	13.1	1.90e-05	0	42	0	137363456	19	4288
2026-01-03 09:53:45.14	141.97	13.63	-29.3	-30.5	13.4	1.37e-05	0	42	0	139460608	19	4166
2026-01-03 09:53:46.14	141.93	13.73	-29.3	-30.7	13.2	1.22e-05	0	42	0	140509184	19	4200
2026-01-03 09:53:47.15	141.89	13.84	-29.4	-30.9	13.1	2.36e-05	0	42	0	142606336	19	4280
2026-01-03 09:53:48.15	141.85	13.94	-29.4	-30.9	13.1	2.21e-05	0	42	0	144703488	19	4258
2026-01-03 09:53:49.16	141.81	14.04	-29.6	-31.3	12.9	3.20e-05	0	42	0	146800640	19	4397
2026-01-03 09:53:50.16	141.78	14.14	-29.4	-30.7	13.2	1.98e-05	0	42	0	148897792	19	4214
2026-01-03 09:53:51.17	141.74	14.24	-29.2	-30.3	13.5	1.60e-05	0	42	0	149946368	19	4106
2026-01-03 09:53:52.17	141.70	14.34	-29.1	-30.1	13.6	8.30e-06	0	42	0	152043520	19	4046
2026-01-03 09:53:53.18	141.65	14.45	-29.1	-30.2	13.6	3.00e-06	0	42	0	154140672	19	4069
2026-01-03 09:53:54.18	141.61	14.55	-29.1	-30.1	13.6	4.50e-06	0	42	0	156237824	19	4060
2026-01-03 09:53:55.18	141.57	14.65	-28.9	-29.7	13.9	9.90e-06	0	42	0	158334976	19	3944
2026-01-03 09:53:56.18	141.53	14.76	-28.9	-29.6	14.0	7.00e-07	0	42	0	159383552	19	3914
2026-01-03 09:53:57.19	141.49	14.86	-29.1	-30.2	13.6	3.00e-06	0	42	0	161480704	19	4086
2026-01-03 09:53:58.19	141.45	14.97	-28.9	-29.7	14.0	3.80e-06	0	42	0	163577856	19	3916
2026-01-03 09:53:59.20	141.41	15.08	-29.0	-29.9	13.9	9.10e-06	0	42	0	165675008	19	3964
2026-01-03 09:54:00.20	141.36	15.18	-29.2	-30.2	13.7	7.60e-06	0	42	0	166723584	19	4064
2026-01-03 09:54:01.21	141.32	15.29	-29.1	-30.1	13.8	6.80e-06	0	42	0	168820736	19	4018
2026-01-03 09:54:02.21	141.28	15.39	-29.1	-29.8	14.0	3.00e-06	0	42	0	170917888	19	3942
2026-01-03 09:54:03.21	141.23	15.50	-29.1	-30.0	13.9	1.50e-06	0	42	0	173015040	19	3985
2026-01-03 09:54:04.22	141.19	15.61	-29.2	-30.1	13.9	6.10e-06	0	42	0	175112192	19	4020
2026-01-03 09:54:05.22	141.14	15.72	-29.1	-30.1	13.9	2.20e-06	0	42	0	176160768	19	4005
2026-01-03 09:54:06.23	141.10	15.83	-29.0	-29.7	14.1	7.00e-07	0	42	0	178257920	19	3915
2026-01-03 09:54:07.24	141.05	15.94	-29.0	-29.6	14.2	2.20e-06	0	42	0	180355072	19	3887
2026-01-03 09:54:08.24	141.01	16.05	-28.9	-29.5	14.2	3.00e-06	0	42	0	182452224	19	3866
2026-01-03 09:54:09.25	140.96	16.16	-28.9	-29.4	14.3	2.61e-04	0	42	0	184549376	19	3837
2026-01-03 09:54:10.26	140.92	16.27	-28.9	-29.5	14.3	2.20e-06	0	42	0	185597952	19	3855
2026-01-03 09:54:11.26	140.87	16.38	-28.9	-29.6	14.2	3.00e-06	0	42	0	187695104	19	3888
2026-01-03 09:54:12.26	140.82	16.49	-28.8	-29.4	14.4	7.00e-07	0	42	0	189792256	19	3822
2026-01-03 09:54:13.26	140.78	16.60	-29.0	-29.8	14.2	3.00e-06	0	42	0	191889408	19	3927
2026-01-03 09:54:14.27	140.73	16.72	-29.0	-29.7	14.2	0.00e+00	0	42	0	193986560	19	3905
2026-01-03 09:54:15.27	140.68	16.83	-29.1	-29.9	14.1	7.00e-07	0	42	0	195035136	19	3973
2026-01-03 09:54:16.27	140.63	16.94	-29.1	-30.0	14.1	2.20e-06	0	42	0	197132288	19	3973
2026-01-03 09:54:17.29	140.58	17.06	-29.3	-30.4	13.8	3.00e-06	0	42	0	199229440	19	4103
2026-01-03 09:54:18.29	140.54	17.17	-29.3	-30.4	13.9	2.20e-06	0	42	0	201326592	19	4089
2026-01-03 09:54:19.30	140.49	17.29	-29.2	-30.1	14.0	1.59e-04	0	42	0	203423744	19	3975
2026-01-03 09:54:20.30	140.44	17.40	-29.2	-30.0	14.2	0.00e+00	0	43	0	204472320	19	3956
2026-01-03 09:54:21.30	140.39	17.52	-29.4	-30.5	13.9	3.00e-06	0	42	0	206569472	19	4094
2026-01-03 09:54:22.31	140.33	17.64	-29.1	-29.9	14.3	1.50e-06	0	43	0	208666624	19	3921
2026-01-03 09:54:23.31	140.28	17.75	-29.0	-29.5	14.5	1.50e-06	0	42	0	210763776	19	3833
2026-01-03 09:54:24.32	140.23	17.87	-29.0	-29.5	14.6	0.00e+00	0	42	0	212860928	19	3818
2026-01-03 09:54:25.32	140.18	17.99	-28.9	-29.3	14.7	0.00e+00	0	42	0	213909504	19	3767
2026-01-03 09:54:26.32	140.13	18.11	-28.9	-29.4	14.6	0.00e+00	0	43	0	216006656	19	3807
2026-01-03 09:54:27.32	140.08	18.23	-28.9	-29.4	14.7	3.80e-06	0	42	0	218103808	19	3790
2026-01-03 09:54:28.33	140.02	18.35	-29.1	-30.0	14.3	0.00e+00	0	43	0	220200960	19	3961
2026-01-03 09:54:29.34	139.97	18.47	-29.3	-30.4	14.0	3.80e-06	0	43	0	222298112	19	4071
2026-01-03 09:54:30.34	139.91	18.59	-29.1	-29.8	14.4	3.00e-06	0	43	0	223346688	19	3906
2026-01-03 09:54:31.35	139.86	18.71	-29.2	-30.1	14.2	1.50e-06	0	42	0	225443840	19	4000
2026-01-03 09:54:32.36	139.80	18.84	-29.2	-30.0	14.3	1.50e-06	0	42	0	227540992	19	3975
2026-01-03 09:54:33.36	139.75	18.96	-29.2	-30.0	14.4	7.00e-07	0	43	0	229638144	19	3946
2026-01-03 09:54:34.37	139.69	19.08	-29.4	-30.7	13.9	7.00e-07	0	42	0	231735296	19	4153
2026-01-03 09:54:35.38	139.63	19.21	-29.4	-30.5	14.1	2.20e-06	0	42	0	232783872	19	4084
2026-01-03 09:54:36.38	139.58	19.33	-29.3	-30.4	14.1	3.00e-06	0	42	0	234881024	19	4062
2026-01-03 09:54:37.39	139.52	19.46	-29.2	-29.9	14.4	7.00e-07	0	43	0	236978176	19	3914
2026-01-03 09:54:38.40	139.46	19.59	-29.0	-29.4	14.7	0.00e+00	0	43	0	239075328	19	3794
2026-01-03 09:54:39.40	139.40	19.71	-28.7	-29.3	15.1	0.00e+00	0	43	0	241172480	18	3863
2026-01-03 09:54:40.41	139.34	19.84	-28.7	-29.3	15.1	1.14e-05	0	43	0	242221056	18	3850
2026-01-03 09:54:41.42	139.28	19.97	-28.7	-29.2	15.1	0.00e+00	0	43	0	244318208	18	3827
2026-01-03 09:54:42.43	139.22	20.10	-28.9	-29.7	14.9	0.00e+00	0	43	0	246415360	18	3969
2026-01-03 09:54:43.44	139.16	20.23	-28.5	-28.9	15.4	0.00e+00	0	43	0	248512512	18	3752
2026-01-03 09:54:44.44	139.10	20.36	-28.7	-29.2	15.1	0.00e+00	0	43	0	250609664	18	3843
2026-01-03 09:54:45.44	139.04	20.49	-28.8	-29.5	15.0	0.00e+00	0	43	0	251658240	18	3907
2026-01-03 09:54:46.44	138.98	20.62	-28.8	-29.4	15.1	0.00e+00	0	43	0	253755392	18	3886
2026-01-03 09:54:47.44	138.92	20.75	-28.9	-29.7	14.9	0.00e+00	0	43	0	255852544	18	3946
2026-01-03 09:54:48.45	138.85	20.88	-29.0	-30.0	14.7	7.00e-07	0	43	0	257949696	18	4038
2026-01-03 09:54:49.46	138.79	21.01	-29.1	-30.2	14.7	0.00e+00	0	42	0	260046848	18	4071
2026-01-03 09:54:50.46	138.72	21.15	-29.3	-30.8	14.3	0.00e+00	0	42	0	261095424	18	4249
2026-01-03 09:54:51.47	138.66	21.28	-29.3	-30.8	14.3	3.00e-06	0	43	0	263192576	18	4248
2026-01-03 09:54:52.47	138.59	21.42	-29.3	-30.8	14.3	3.00e-06	0	43	0	265289728	18	4262
2026-01-03 09:54:53.47	138.53	21.55	-29.4	-30.5	14.2	3.00e-06	0	43	0	267386880	19	4074
2026-01-03 09:54:54.48	138.46	21.69	-29.6	-30.9	13.9	2.20e-06	0	43	0	269484032	19	4206
2026-01-03 09:54:55.49	138.39	21.83	-29.6	-30.9	13.9	1.50e-06	0	43	0	270532608	19	4202
2026-01-03 09:54:56.49	138.32	21.96	-29.4	-30.6	14.1	7.00e-07	0	43	0	272629760	19	4114
2026-01-03 09:54:57.50	138.25	22.10	-29.5	-30.6	14.1	3.00e-06	0	43	0	274726912	19	4126
2026-01-03 09:54:58.50	138.19	22.24	-29.5	-30.8	14.0	7.00e-07	0	43	0	276824064	19	4166
2026-01-03 09:54:59.51	138.12	22.38	-29.5	-30.7	14.1	2.20e-06	0	43	0	277872640	19	4138
2026-01-03 09:55:00.52	138.04	22.52	-29.5	-30.9	14.0	1.50e-06	0	43	0	279969792	19	4198
2026-01-03 09:55:01.52	137.97	22.66	-29.5	-30.7	14.0	3.00e-06	0	43	0	282066944	19	4156
2026-01-03 09:55:02.53	137.90	22.81	-29.4	-30.6	14.1	0.00e+00	0	43	0	284164096	19	4103
2026-01-03 09:55:03.53	137.83	22.95	-29.5	-30.6	14.2	4.50e-06	0	43	0	286261248	19	4100
2026-01-03 09:55:04.54	137.75	23.09	-29.3	-30.3	14.3	7.00e-07	0	43	0	288358400	19	4016
2026-01-03 09:55:05.55	137.68	23.24	-29.3	-30.2	14.4	0.00e+00	0	43	0	289406976	19	3994
2026-01-03 09:55:06.54	137.61	23.38	-29.6	-31.0	13.9	2.20e-06	0	43	0	291504128	19	4218
2026-01-03 09:55:07.55	137.53	23.53	-29.3	-30.2	14.5	2.20e-06	0	43	0	293601280	19	3973
2026-01-03 09:55:08.56	137.45	23.68	-29.4	-30.4	14.3	0.00e+00	0	43	0	295698432	19	4045
2026-01-03 09:55:09.56	137.38	23.82	-29.6	-30.8	14.1	1.50e-06	0	43	0	297795584	19	4147
2026-01-03 09:55:10.56	137.30	23.97	-29.5	-30.8	14.1	5.30e-06	0	43	0	298844160	19	4139
2026-01-03 09:55:11.57	137.22	24.12	-29.6	-31.0	13.9	4.50e-06	0	43	0	300941312	19	4230
2026-01-03 09:55:12.57	137.14	24.27	-29.8	-31.0	13.6	6.80e-06	0	43	0	303038464	20	4135
2026-01-03 09:55:13.58	137.06	24.42	-29.7	-30.9	13.6	1.22e-05	0	43	0	305135616	20	4132
2026-01-03 09:55:14.59	136.98	24.57	-29.9	-31.2	13.3	3.80e-06	0	43	0	306184192	20	4227
2026-01-03 09:55:15.60	136.90	24.73	-29.8	-31.1	13.5	1.14e-05	0	43	0	308281344	20	4187
2026-01-03 09:55:16.61	136.81	24.88	-30.0	-31.6	13.1	2.97e-05	0	43	0	310378496	20	4341
2026-01-03 09:55:17.62	136.73	25.03	-29.9	-31.4	13.3	1.75e-05	0	43	0	312475648	20	4262
2026-01-03 09:55:18.62	136.65	25.19	-30.0	-31.5	13.3	2.36e-05	0	43	0	314572800	20	4300
2026-01-03 09:55:19.63	136.56	25.34	-30.0	-31.6	13.2	2.44e-05	0	43	0	316669952	20	4329
2026-01-03 09:55:20.64	136.47	25.50	-30.2	-32.1	12.9	2.74e-05	0	43	0	317718528	20	4480
2026-01-03 09:55:21.64	136.39	25.66	-30.3	-32.3	12.8	4.04e-05	0	43	0	319815680	20	4540
2026-01-03 09:55:22.65	136.30	25.82	-30.4	-32.7	12.4	7.01e-05	0	43	0	321912832	20	4699
2026-01-03 09:55:23.65	136.21	25.97	-30.3	-32.5	12.6	8.85e-05	0	43	0	324009984	20	4604
2026-01-03 09:55:24.65	136.12	26.13	-30.5	-32.3	12.4	1.26e-04	0	43	0	325058560	21	4474
2026-01-03 09:55:25.66	136.03	26.30	-30.6	-32.8	12.1	3.34e-04	0	43	0	327155712	21	4628
2026-01-03 09:55:26.67	135.94	26.46	-30.5	-32.5	12.3	3.64e-04	0	43	0	329252864	21	4546
2026-01-03 09:55:27.67	135.85	26.62	-30.5	-32.5	12.4	1.94e-04	0	43	0	331350016	21	4530
2026-01-03 09:55:28.68	135.75	26.78	-30.5	-32.4	12.4	3.06e-04	0	43	0	333447168	21	4512
2026-01-03 09:55:29.68	135.66	26.95	-30.4	-32.1	12.6	1.02e-04	0	43	0	334495744	21	4412
2026-01-03 09:55:30.69	135.56	27.11	-30.5	-32.5	12.2	8.23e-05	0	43	0	336592896	21	4545
2026-01-03 09:55:31.69	135.47	27.28	-30.5	-32.6	12.2	1.82e-04	0	43	0	338690048	21	4588
2026-01-03 09:55:32.70	135.37	27.45	-30.6	-32.9	12.0	2.75e-04	0	43	0	340787200	21	4677
2026-01-03 09:55:33.70	135.27	27.61	-30.7	-33.3	11.8	5.83e-04	0	43	0	342884352	21	4814
2026-01-03 09:55:34.71	135.17	27.78	-31.0	-34.1	11.2	8.57e-04	0	43	0	343932928	21	5142
2026-01-03 09:55:35.71	135.07	27.95	-31.1	-34.0	11.0	1.74e-03	0	43	0	346030080	22	5003
2026-01-03 09:55:36.71	134.97	28.12	-31.0	-33.5	11.3	1.75e-03	0	43	0	348127232	22	4783
2026-01-03 09:55:37.71	134.86	28.29	-30.8	-33.0	11.7	9.34e-04	0	43	0	350224384	22	4590
2026-01-03 09:55:38.72	134.76	28.47	-30.5	-31.9	12.4	3.46e-04	0	43	0	352321536	22	4222
2026-01-03 09:55:39.74	134.65	28.64	-30.4	-31.6	12.8	8.54e-05	0	43	0	353370112	22	4124
2026-01-03 09:55:40.74	134.55	28.82	-30.6	-32.2	12.3	9.99e-05	0	43	0	355467264	22	4309
2026-01-03 09:55:41.73	134.44	28.99	-30.7	-32.5	12.1	3.63e-04	0	43	0	357564416	22	4441
2026-01-03 09:55:42.74	134.33	29.17	-30.7	-32.5	12.1	2.49e-04	0	43	0	359661568	22	4442
2026-01-03 09:55:43.74	134.22	29.34	-31.1	-33.6	11.4	5.17e-04	0	43	0	361758720	22	4840
2026-01-03 09:55:44.75	134.11	29.52	-30.9	-33.0	11.7	7.19e-04	0	43	0	362807296	22	4604
2026-01-03 09:55:45.75	134.00	29.70	-30.9	-33.0	11.7	4.86e-04	0	43	0	364904448	22	4604
2026-01-03 09:55:46.75	133.88	29.88	-30.8	-32.7	11.9	5.42e-04	0	43	0	367001600	22	4510
2026-01-03 09:55:47.75	133.77	30.06	-31.0	-33.4	11.5	4.97e-04	0	43	0	369098752	22	4728
2026-01-03 09:55:48.76	133.65	30.25	-31.0	-33.2	11.6	5.60e-04	0	43	0	371195904	22	4673
2026-01-03 09:55:49.76	133.53	30.43	-31.0	-33.4	11.5	6.25e-04	0	43	0	372244480	22	4756
2026-01-03 09:55:50.77	133.41	30.61	-30.9	-33.1	11.7	1.07e-03	0	43	0	374341632	22	4621
2026-01-03 09:55:51.77	133.29	30.80	-30.9	-33.2	11.7	5.19e-04	0	43	0	376438784	22	4670
2026-01-03 09:55:52.78	133.17	30.99	-30.9	-33.0	11.8	4.45e-04	0	43	0	378535936	22	4611
2026-01-03 09:55:53.78	133.05	31.17	-30.9	-32.9	11.9	6.40e-04	0	43	0	380633088	22	4564
2026-01-03 09:55:54.79	132.92	31.36	-30.9	-33.2	11.7	1.25e-03	0	43	0	381681664	22	4673
2026-01-03 09:55:55.80	132.80	31.55	-31.0	-33.2	11.6	6.83e-04	0	43	0	383778816	22	4683
2026-01-03 09:55:56.81	132.67	31.75	-31.1	-33.8	11.2	7.26e-04	0	43	0	385875968	22	4875
2026-01-03 09:55:57.81	132.54	31.94	-30.9	-33.0	11.7	1.69e-03	0	43	0	387973120	22	4591
2026-01-03 09:55:58.82	132.41	32.13	-31.1	-33.5	11.6	6.65e-04	0	43	0	390070272	22	4770
2026-01-03 09:55:59.81	132.27	32.32	-31.3	-34.3	10.9	1.30e-03	0	43	0	391118848	22	5085
2026-01-03 09:56:00.81	132.14	32.52	-30.8	-32.7	12.1	3.91e-04	0	43	0	393216000	22	4465
2026-01-03 09:56:01.81	132.01	32.71	-30.9	-32.8	12.0	3.30e-04	0	43	0	395313152	22	4517
2026-01-03 09:56:02.82	131.87	32.91	-31.1	-33.6	11.5	2.30e-03	0	43	0	397410304	22	4775
2026-01-03 09:56:03.82	131.73	33.11	-31.3	-34.3	11.0	9.14e-04	0	43	0	399507456	22	5029
2026-01-03 09:56:04.83	131.59	33.31	-31.5	-34.3	10.6	2.20e-03	0	43	0	400556032	23	4973
2026-01-03 09:56:05.83	131.44	33.51	-31.9	-35.6	9.6	6.97e-03	0	43	0	402653184	23	5531
2026-01-03 09:56:06.83	131.30	33.71	-31.9	-35.5	9.9	8.95e-03	0	43	0	404750336	23	5451
2026-01-03 09:56:07.84	131.15	33.91	-32.2	-36.2	8.8	9.26e-03	0	43	0	406847488	24	5712
2026-01-03 09:56:08.85	131.00	34.12	-31.6	-34.0	10.5	9.16e-03	0	43	0	407896064	24	4751
2026-01-03 09:56:09.85	130.85	34.32	-31.5	-33.7	10.8	3.33e-03	0	43	0	409993216	24	4621
2026-01-03 09:56:10.86	130.70	34.53	-31.7	-34.5	10.2	8.91e-03	0	43	0	412090368	24	4939
2026-01-03 09:56:11.86	130.55	34.74	-31.6	-33.8	10.6	5.38e-03	0	43	0	414187520	24	4684
2026-01-03 09:56:12.87	130.39	34.95	-31.5	-33.6	10.9	2.47e-03	0	43	0	416284672	24	4572
2026-01-03 09:56:13.87	130.23	35.16	-31.5	-33.7	10.7	4.33e-03	0	43	0	418381824	24	4624
2026-01-03 09:56:14.88	130.07	35.37	-31.6	-34.1	10.5	4.54e-03	0	43	0	419430400	24	4769
2026-01-03 09:56:15.89	129.90	35.58	-31.8	-34.8	9.9	4.63e-03	0	43	0	421527552	24	5052
2026-01-03 09:56:16.89	129.74	35.79	-31.9	-35.1	9.7	6.64e-03	0	43	0	423624704	24	5191
2026-01-03 09:56:17.90	129.57	36.01	-31.8	-34.6	10.1	1.07e-02	0	43	0	425721856	24	4998
2026-01-03 09:56:18.91	129.40	36.23	-31.5	-33.7	10.7	5.53e-03	0	43	0	427819008	24	4607
2026-01-03 09:56:19.91	129.23	36.44	-31.5	-33.5	10.9	3.46e-03	0	43	0	428867584	24	4557
2026-01-03 09:56:20.92	129.06	36.66	-31.6	-33.9	10.7	4.21e-03	0	43	0	430964736	24	4693
2026-01-03 09:56:21.92	128.88	36.88	-31.6	-34.1	10.4	5.60e-03	0	43	0	433061888	24	4778
2026-01-03 09:56:22.92	128.70	37.10	-31.6	-34.1	10.5	4.03e-03	0	43	0	435159040	24	4780
2026-01-03 09:56:23.93	128.52	37.32	-31.6	-34.0	10.5	3.97e-03	0	43	0	436207616	24	4760
2026-01-03 09:56:24.94	128.34	37.54	-31.8	-34.6	10.1	4.85e-03	0	43	0	438304768	24	4975
2026-01-03 09:56:25.95	128.15	37.77	-31.9	-35.0	9.7	1.09e-02	0	43	0	440401920	24	5134
2026-01-03 09:56:26.94	127.96	37.99	-31.9	-35.0	9.9	9.11e-03	0	43	0	442499072	24	5144
2026-01-03 09:56:27.95	127.77	38.22	-31.8	-34.7	10.0	7.05e-03	0	43	0	444596224	24	5018
2026-01-03 09:56:28.95	127.58	38.44	-31.4	-33.4	11.0	1.94e-03	0	43	0	446693376	24	4504
2026-01-03 09:56:29.96	127.38	38.67	-31.0	-32.7	11.8	6.10e-04	0	43	0	447741952	23	4349
2026-01-03 09:56:30.96	127.18	38.90	-31.0	-32.6	12.0	2.65e-04	0	43	0	449839104	23	4306
2026-01-03 09:56:31.96	126.98	39.13	-31.0	-32.6	11.9	4.43e-04	0	43	0	451936256	23	4336
2026-01-03 09:56:32.97	126.77	39.36	-31.3	-33.4	11.4	1.21e-03	0	43	0	454033408	23	4601
2026-01-03 09:56:33.96	126.56	39.59	-31.1	-32.9	11.7	8.33e-04	0	43	0	455081984	23	4404
2026-01-03 09:56:34.97	126.35	39.83	-30.6	-31.8	12.8	1.53e-04	0	43	0	457179136	22	4141
2026-01-03 09:56:35.97	126.14	40.06	-30.3	-31.4	13.4	1.44e-05	0	43	0	459276288	21	4126
2026-01-03 09:56:36.98	125.92	40.30	-30.2	-31.4	13.3	1.44e-05	0	43	0	461373440	21	4107
2026-01-03 09:56:37.98	125.70	40.53	-30.6	-32.5	12.6	4.04e-05	0	43	0	463470592	21	4462
2026-01-03 09:56:38.99	125.47	40.77	-30.5	-32.2	12.9	1.14e-04	0	43	0	464519168	21	4359
2026-01-03 09:56:40.00	125.24	41.01	-30.7	-32.7	12.6	1.26e-04	0	43	0	466616320	21	4533
2026-01-03 09:56:41.00	125.01	41.25	-30.8	-33.1	12.3	1.85e-04	0	43	0	468713472	21	4674
2026-01-03 09:56:42.01	124.77	41.50	-30.7	-32.7	12.6	1.56e-04	0	43	0	470810624	21	4530
2026-01-03 09:56:43.01	124.54	41.74	-30.9	-33.3	12.2	1.84e-04	0	43	0	472907776	21	4739
2026-01-03 09:56:44.01	124.30	41.98	-31.1	-33.5	11.7	5.59e-04	0	43	0	473956352	22	4743
2026-01-03 09:56:45.02	124.05	42.23	-31.5	-34.2	10.9	1.12e-03	0	43	0	476053504	23	4893
2026-01-03 09:56:46.03	123.80	42.47	-31.3	-33.6	11.3	1.95e-03	0	43	0	478150656	23	4675
2026-01-03 09:56:47.03	123.54	42.72	-31.1	-33.0	11.7	8.67e-04	0	43	0	480247808	23	4452
2026-01-03 09:56:48.04	123.29	42.97	-31.6	-34.4	10.7	1.12e-03	0	43	0	482344960	23	4971
2026-01-03 09:56:49.05	123.02	43.22	-31.3	-33.4	11.4	8.12e-04	0	43	0	483393536	23	4602
2026-01-03 09:56:50.05	122.76	43.46	-31.4	-33.7	11.2	1.05e-03	0	43	0	485490688	23	4713
2026-01-03 09:56:51.06	122.49	43.71	-31.3	-33.4	11.4	2.03e-03	0	43	0	487587840	23	4576
2026-01-03 09:56:52.05	122.22	43.96	-31.2	-33.1	11.6	7.96e-04	0	43	0	489684992	23	4492
2026-01-03 09:56:53.06	121.94	44.22	-31.7	-34.6	10.6	1.66e-03	0	43	0	491782144	23	5058
2026-01-03 09:56:54.06	121.65	44.47	-31.5	-34.2	10.9	2.42e-03	0	43	0	492830720	23	4909
2026-01-03 09:56:55.07	121.36	44.72	-31.7	-34.6	10.5	2.70e-03	0	43	0	494927872	23	5061
2026-01-03 09:56:56.07	121.07	44.98	-31.2	-33.1	11.6	9.35e-04	0	43	0	497025024	23	4472
2026-01-03 09:56:57.08	120.77	45.23	-30.9	-32.3	12.1	3.11e-04	0	43	0	499122176	23	4216
2026-01-03 09:56:58.08	120.47	45.49	-30.9	-32.2	12.3	2.31e-04	0	43	0	501219328	23	4182
2026-01-03 09:56:59.09	120.17	45.74	-31.2	-33.6	11.7	1.82e-04	0	43	0	502267904	22	4755
2026-01-03 09:57:00.09	119.85	46.00	-31.3	-33.9	11.4	9.51e-04	0	43	0	504365056	22	4877
2026-01-03 09:57:01.10	119.54	46.26	-30.9	-32.7	12.3	3.24e-04	0	43	0	506462208	22	4436
2026-01-03 09:57:02.11	119.21	46.52	-30.4	-31.2	13.3	7.24e-05	0	43	0	508559360	22	3970
2026-01-03 09:57:03.11	118.88	46.78	-30.2	-31.2	13.6	6.80e-06	0	43	0	510656512	21	4049
2026-01-03 09:57:04.12	118.55	47.04	-30.4	-31.9	13.2	4.50e-06	0	43	0	511705088	21	4271
2026-01-03 09:57:05.13	118.21	47.30	-30.7	-32.5	12.6	4.27e-05	0	43	0	513802240	21	4447
2026-01-03 09:57:06.13	117.86	47.56	-30.5	-32.1	13.0	1.83e-05	0	43	0	515899392	21	4320
2026-01-03 09:57:07.13	117.52	47.82	-30.1	-30.9	13.8	8.30e-06	0	43	0	517996544	21	3947
2026-01-03 09:57:08.14	117.16	48.08	-30.1	-30.9	13.8	7.60e-06	0	43	0	520093696	21	3965
2026-01-03 09:57:09.15	116.79	48.35	-30.4	-31.7	13.3	1.14e-05	0	43	0	521142272	21	4193
2026-01-03 09:57:10.16	116.42	48.61	-30.5	-32.0	13.2	1.83e-05	0	43	0	523239424	21	4298
2026-01-03 09:57:11.16	116.05	48.87	-30.8	-32.8	12.6	7.62e-05	0	43	0	525336576	21	4548
2026-01-03 09:57:12.17	115.66	49.14	-30.8	-33.0	12.6	1.21e-04	0	43	0	527433728	21	4633
2026-01-03 09:57:13.17	115.28	49.40	-31.2	-33.4	11.8	4.14e-04	0	43	0	529530880	22	4687
2026-01-03 09:57:14.18	114.88	49.66	-31.2	-33.4	12.1	4.81e-04	0	43	0	530579456	22	4669
2026-01-03 09:57:15.18	114.48	49.92	-30.9	-32.8	12.3	4.02e-04	0	43	0	532676608	22	4440
2026-01-03 09:57:16.19	114.06	50.19	-30.6	-31.7	13.0	7.09e-05	0	43	0	534773760	22	4116
2026-01-03 09:57:17.19	113.65	50.45	-30.2	-31.1	13.7	1.60e-05	0	43	0	536870912	21	4008
2026-01-03 09:57:18.19	113.23	50.71	-30.2	-31.2	13.7	8.30e-06	0	43	0	538968064	21	4055
2026-01-03 09:57:19.18	112.80	50.97	-29.9	-30.4	14.2	3.00e-06	0	43	0	540016640	21	3809
2026-01-03 09:57:20.19	112.36	51.23	-29.6	-30.1	14.6	7.00e-07	0	43	0	542113792	20	3818
2026-01-03 09:57:21.19	111.92	51.49	-29.4	-30.2	15.0	0.00e+00	0	43	0	544210944	19	3926
2026-01-03 09:57:22.19	111.46	51.75	-28.6	-28.8	16.1	0.00e+00	0	43	0	546308096	18	3658
2026-01-03 09:57:23.20	111.00	52.02	-28.1	-28.1	16.8	0.00e+00	0	43	0	547356672	17	3576
2026-01-03 09:57:24.20	110.53	52.28	-28.3	-28.4	16.7	0.00e+00	0	43	0	549453824	17	3640
2026-01-03 09:57:25.21	110.05	52.54	-28.8	-29.6	16.0	0.00e+00	0	43	0	551550976	17	3965
2026-01-03 09:57:26.21	109.56	52.79	-29.4	-30.6	15.1	0.00e+00	0	43	0	553648128	18	4155
2026-01-03 09:57:27.22	109.06	53.05	-29.8	-31.2	14.4	0.00e+00	0	43	0	555745280	19	4222
2026-01-03 09:57:28.23	108.55	53.31	-30.0	-31.6	14.2	1.50e-06	0	43	0	556793856	19	4338
2026-01-03 09:57:29.23	108.04	53.57	-30.4	-32.3	13.3	3.00e-06	0	43	0	558891008	20	4494
2026-01-03 09:57:30.24	107.51	53.82	-30.7	-32.7	12.9	1.60e-05	0	43	0	560988160	21	4536
2026-01-03 09:57:31.25	106.98	54.08	-31.1	-33.2	12.1	1.62e-04	0	43	0	563085312	22	4604
2026-01-03 09:57:32.26	106.43	54.33	-31.0	-32.9	12.2	1.69e-04	0	43	0	565182464	22	4507
2026-01-03 09:57:33.26	105.88	54.58	-30.7	-32.1	12.9	1.60e-04	0	43	0	567279616	22	4226
2026-01-03 09:57:34.26	105.32	54.83	-29.9	-30.5	14.1	1.52e-05	0	43	0	568328192	21	3860
2026-01-03 09:57:35.27	104.75	55.08	-29.4	-29.7	15.0	0.00e+00	0	43	0	570425344	20	3718
2026-01-03 09:57:36.26	104.17	55.32	-29.3	-29.9	15.2	0.00e+00	0	43	0	572522496	19	3843
2026-01-03 09:57:37.27	103.58	55.57	-29.7	-30.9	14.6	7.00e-07	0	43	0	574619648	19	4135
2026-01-03 09:57:38.28	102.97	55.81	-30.3	-32.0	13.6	1.50e-06	0	43	0	575668224	20	4363
2026-01-03 09:57:39.28	102.36	56.05	-30.5	-32.1	13.2	1.98e-05	0	43	0	577765376	21	4301
2026-01-03 09:57:40.28	101.74	56.29	-30.4	-31.7	13.4	4.11e-05	0	43	0	579862528	21	4178
2026-01-03 09:57:41.29	101.10	56.52	-29.5	-29.8	14.9	3.00e-06	0	43	0	581959680	20	3738
2026-01-03 09:57:42.30	100.45	56.76	-29.3	-29.8	15.3	0.00e+00	0	43	0	584056832	19	3825
2026-01-03 09:57:43.31	99.79	56.99	-29.5	-30.3	15.0	0.00e+00	0	43	0	585105408	19	3942
2026-01-03 09:57:44.32	99.12	57.22	-29.7	-30.9	14.7	0.00e+00	0	43	0	587202560	19	4124
2026-01-03 09:57:45.33	98.44	57.44	-29.7	-31.0	14.6	7.00e-07	0	43	0	589299712	19	4139
2026-01-03 09:57:46.33	97.75	57.66	-29.7	-30.8	14.7	0.00e+00	0	43	0	591396864	19	4107
2026-01-03 09:57:47.33	97.05	57.88	-29.8	-31.0	14.6	7.00e-07	0	43	0	593494016	19	4159
2026-01-03 09:57:48.33	96.34	58.10	-29.6	-30.6	14.8	0.00e+00	0	43	0	594542592	19	4045
2026-01-03 09:57:49.34	95.61	58.31	-29.7	-30.8	14.7	7.00e-07	0	43	0	596639744	19	4082
2026-01-03 09:57:50.35	94.87	58.52	-29.8	-30.8	14.4	1.50e-06	0	43	0	598736896	20	3994
2026-01-03 09:57:51.35	94.13	58.72	-29.5	-29.9	14.9	0.00e+00	0	43	0	600834048	20	3761
2026-01-03 09:57:52.36	93.36	58.92	-29.7	-30.8	14.7	0.00e+00	0	43	0	602931200	19	4102
2026-01-03 09:57:53.36	92.59	59.12	-30.3	-31.9	13.6	2.20e-06	0	43	0	603979776	20	4330
2026-01-03 09:57:54.37	91.81	59.31	-30.6	-32.2	13.1	3.12e-05	0	43	0	606076928	21	4338
2026-01-03 09:57:55.38	91.01	59.50	-30.4	-31.8	13.3	2.51e-05	0	43	0	608174080	21	4241
2026-01-03 09:57:56.38	90.21	59.68	-30.3	-31.4	13.6	1.75e-05	0	43	0	610271232	21	4100
2026-01-03 09:57:57.39	89.39	59.86	-30.5	-31.9	13.3	9.90e-06	0	43	0	612368384	21	4255
2026-01-03 09:57:58.40	88.55	60.03	-30.5	-32.1	13.1	3.66e-05	0	43	0	613416960	21	4304
2026-01-03 09:57:59.40	87.72	60.20	-30.4	-31.7	13.4	1.37e-05	0	43	0	615514112	21	4181
2026-01-03 09:58:00.41	86.86	60.37	-30.5	-32.1	13.1	2.36e-05	0	43	0	617611264	21	4317
2026-01-03 09:58:01.41	86.01	60.52	-30.2	-31.2	13.7	3.35e-05	0	43	0	619708416	21	4035
2026-01-03 09:58:02.41	85.14	60.68	-30.0	-30.5	14.2	7.00e-07	0	43	0	621805568	21	3846
2026-01-03 09:58:03.42	84.25	60.82	-30.3	-31.4	13.6	2.20e-06	0	43	0	622854144	21	4107
2026-01-03 09:58:04.43	83.36	60.96	-31.3	-34.0	11.6	1.97e-04	0	43	0	624951296	22	4872
2026-01-03 09:58:05.44	82.45	61.10	-31.2	-33.1	11.8	1.06e-03	0	43	0	627048448	23	4473
2026-01-03 09:58:06.45	81.53	61.23	-30.7	-32.0	12.9	6.48e-05	0	43	0	629145600	22	4175
2026-01-03 09:58:07.45	80.62	61.35	-30.9	-32.5	12.6	7.09e-05	0	43	0	631242752	22	4325
2026-01-03 09:58:08.46	79.68	61.47	-31.4	-34.0	11.5	7.32e-04	0	43	0	632291328	22	4875
2026-01-03 09:58:09.46	78.75	61.58	-31.5	-33.9	11.2	9.34e-04	0	43	0	634388480	23	4730
2026-01-03 09:58:10.47	77.80	61.68	-31.7	-34.6	10.8	3.39e-03	0	43	0	636485632	23	5021
2026-01-03 09:58:11.48	76.84	61.78	-31.6	-34.2	11.1	9.29e-04	0	43	0	638582784	23	4831
2026-01-03 09:58:12.47	75.89	61.87	-31.8	-34.9	10.6	2.99e-03	0	43	0	640679936	23	5127
2026-01-03 09:58:13.49	74.91	61.95	-31.7	-34.5	10.9	1.91e-03	0	43	0	641728512	23	4963
2026-01-03 09:58:14.49	73.94	62.03	-31.1	-32.6	12.2	7.41e-04	0	43	0	643825664	23	4297
2026-01-03 09:58:15.50	72.95	62.10	-29.9	-30.4	14.3	3.73e-05	0	43	0	645922816	21	3802
2026-01-03 09:58:16.50	71.97	62.16	-29.6	-30.0	14.9	0.00e+00	0	43	0	648019968	20	3795
2026-01-03 09:58:17.51	70.98	62.22	-29.7	-30.5	14.5	0.00e+00	0	43	0	650117120	20	3915
2026-01-03 09:58:18.52	69.98	62.26	-29.4	-29.5	15.1	1.50e-06	0	43	0	651165696	20	3657
2026-01-03 09:58:19.52	68.98	62.30	-28.8	-28.5	16.0	0.00e+00	0	43	0	653262848	19	3505
2026-01-03 09:58:20.53	67.98	62.34	-28.1	-27.9	17.0	0.00e+00	0	43	0	655360000	17	3532
2026-01-03 09:58:21.53	66.98	62.36	-28.0	-27.8	17.0	0.00e+00	0	43	0	657457152	17	3507
2026-01-03 09:58:22.54	65.97	62.38	-27.7	-27.5	17.5	0.00e+00	0	43	0	659554304	16	3523
2026-01-03 09:58:23.54	64.97	62.39	-28.4	-29.2	16.6	0.00e+00	0	43	0	660602880	16	3968
2026-01-03 09:58:24.55	63.95	62.39	-29.1	-30.0	15.5	2.20e-06	0	43	0	662700032	18	3965
2026-01-03 09:58:25.55	62.95	62.39	-28.5	-28.5	16.4	0.00e+00	0	43	0	664797184	18	3581
2026-01-03 09:58:26.55	61.95	62.37	-27.8	-27.3	17.2	0.00e+00	0	43	0	666894336	17	3393
2026-01-03 09:58:27.55	60.95	62.36	-28.2	-28.7	16.8	0.00e+00	0	43	0	668991488	16	3825
2026-01-03 09:58:28.56	59.94	62.33	-28.6	-29.0	16.3	0.00e+00	0	43	0	670040064	17	3807
2026-01-03 09:58:29.57	58.94	62.29	-28.6	-29.1	16.3	0.00e+00	0	43	0	672137216	17	3827
2026-01-03 09:58:30.58	57.94	62.25	-29.0	-29.6	15.6	0.00e+00	0	43	0	674234368	18	3865
2026-01-03 09:58:31.58	56.95	62.20	-28.3	-28.0	16.6	0.00e+00	0	43	0	676331520	18	3473
2026-01-03 09:58:32.58	55.96	62.14	-28.1	-28.0	16.9	0.00e+00	0	43	0	678428672	17	3546
2026-01-03 09:58:33.59	54.98	62.08	-28.5	-28.8	16.5	0.00e+00	0	43	0	679477248	17	3750
2026-01-03 09:58:34.60	53.99	62.01	-27.9	-27.6	17.1	0.00e+00	0	43	0	681574400	17	3463
2026-01-03 09:58:35.60	53.02	61.93	-28.5	-29.0	16.4	0.00e+00	0	43	0	683671552	17	3797
2026-01-03 09:58:36.59	52.07	61.85	-29.9	-30.9	14.2	0.00e+00	0	43	0	685768704	20	4032
2026-01-03 09:58:37.60	51.11	61.75	-29.6	-30.2	14.8	7.00e-07	0	43	0	686817280	20	3850
2026-01-03 09:58:38.61	50.15	61.65	-29.4	-30.0	15.2	0.00e+00	0	43	0	688914432	19	3884
2026-01-03 09:58:39.62	49.20	61.55	-29.2	-29.6	15.4	0.00e+00	0	43	0	691011584	19	3781
2026-01-03 09:58:40.61	48.28	61.44	-28.2	-28.2	16.7	0.00e+00	0	43	0	693108736	17	3591
2026-01-03 09:58:41.62	47.35	61.32	-28.0	-27.8	17.0	0.00e+00	0	43	0	695205888	17	3506
2026-01-03 09:58:42.63	46.43	61.19	-28.0	-27.9	16.9	4.50e-06	0	43	0	697303040	17	3528
2026-01-03 09:58:43.63	45.53	61.06	-27.8	-27.8	17.3	0.00e+00	0	43	0	698351616	16	3603
2026-01-03 09:58:44.64	44.62	60.93	-27.9	-28.2	17.0	0.00e+00	0	43	0	700448768	16	3686
2026-01-03 09:58:45.65	43.73	60.78	-28.2	-28.2	16.7	7.00e-07	0	43	0	702545920	17	3606
2026-01-03 09:58:46.66	42.85	60.64	-28.0	-27.8	17.0	0.00e+00	0	43	0	704643072	17	3515
2026-01-03 09:58:47.66	41.98	60.48	-27.8	-27.7	17.3	0.00e+00	0	43	0	706740224	16	3588
2026-01-03 09:58:48.67	41.12	60.32	-28.1	-28.6	16.9	1.50e-06	0	43	0	707788800	16	3785
2026-01-03 09:58:49.67	40.28	60.16	-28.4	-29.1	16.5	0.00e+00	0	43	0	709885952	16	3923
2026-01-03 09:58:50.67	39.45	59.99	-28.3	-28.5	16.5	0.00e+00	0	43	0	711983104	17	3689
2026-01-03 09:58:51.67	38.63	59.82	-28.1	-28.1	16.8	0.00e+00	0	43	0	714080256	17	3578
2026-01-03 09:58:52.68	37.81	59.64	-28.9	-29.8	15.9	0.00e+00	0	43	0	715128832	17	4012
2026-01-03 09:58:53.68	37.01	59.45	-29.8	-31.2	14.5	0.00e+00	0	43	0	717225984	19	4205
2026-01-03 09:58:54.69	36.22	59.26	-30.5	-32.1	13.2	4.50e-06	0	43	0	719323136	21	4318
2026-01-03 09:58:55.69	35.44	59.07	-31.0	-32.9	12.2	5.34e-05	0	43	0	721420288	22	4489
2026-01-03 09:58:56.69	34.68	58.88	-30.9	-32.6	12.5	1.40e-04	0	43	0	723517440	22	4378
2026-01-03 09:58:57.70	33.92	58.67	-30.7	-32.0	13.0	3.73e-05	0	43	0	724566016	22	4210
2026-01-03 09:58:58.70	33.18	58.47	-30.9	-32.7	12.5	5.64e-05	0	43	0	726663168	22	4409
2026-01-03 09:58:59.70	32.45	58.26	-31.5	-34.3	11.3	1.06e-03	0	43	0	728760320	22	5013
2026-01-03 09:59:00.71	31.73	58.05	-30.8	-31.7	12.6	3.47e-04	0	43	0	730857472	23	4024
2026-01-03 09:59:01.72	31.01	57.83	-30.4	-31.6	13.4	5.79e-05	0	43	0	732954624	21	4158
2026-01-03 09:59:02.72	30.32	57.61	-30.9	-33.0	12.5	1.98e-05	0	43	0	734003200	21	4625
2026-01-03 09:59:03.72	29.64	57.39	-31.1	-33.1	12.1	2.85e-04	0	43	0	736100352	22	4545
2026-01-03 09:59:04.74	28.95	57.17	-31.0	-32.9	12.3	5.77e-04	0	43	0	738197504	22	4484
2026-01-03 09:59:05.74	28.29	56.94	-30.6	-31.7	13.0	1.67e-04	0	43	0	740294656	22	4106
2026-01-03 09:59:06.75	27.63	56.71	-30.5	-32.0	13.0	1.37e-05	0	43	0	742391808	21	4291
2026-01-03 09:59:07.75	26.99	56.47	-30.2	-31.3	13.6	9.90e-06	0	43	0	743440384	21	4063
2026-01-03 09:59:08.75	26.37	56.24	-29.9	-30.4	14.0	1.52e-05	0	43	0	745537536	21	3820
2026-01-03 09:59:09.76	25.74	56.00	-29.4	-29.6	14.9	0.00e+00	0	43	0	747634688	20	3694
2026-01-03 09:59:10.76	25.13	55.76	-29.0	-29.2	15.5	7.00e-07	0	43	0	749731840	19	3669
2026-01-03 09:59:11.76	24.54	55.52	-28.9	-29.4	15.7	0.00e+00	0	43	0	751828992	18	3818
2026-01-03 09:59:12.77	23.95	55.28	-29.2	-30.2	15.3	0.00e+00	0	43	0	752877568	18	4033
2026-01-03 09:59:13.77	23.37	55.03	-30.0	-31.7	14.1	0.00e+00	0	43	0	754974720	19	4376
2026-01-03 09:59:14.78	22.80	54.78	-30.3	-31.9	13.5	2.20e-06	0	43	0	757071872	20	4368
2026-01-03 09:59:15.79	22.24	54.53	-30.8	-32.8	12.6	2.97e-05	0	43	0	759169024	21	4565
2026-01-03 09:59:16.80	21.68	54.28	-30.4	-31.8	13.1	3.66e-05	0	43	0	761266176	21	4224
2026-01-03 09:59:17.81	21.14	54.03	-29.7	-30.4	14.4	5.30e-06	0	43	0	762314752	20	3908
2026-01-03 09:59:18.81	20.61	53.77	-29.2	-29.6	15.3	0.00e+00	0	43	0	764411904	19	3772
2026-01-03 09:59:19.82	20.09	53.52	-29.6	-30.7	14.6	0.00e+00	0	43	0	766509056	19	4090
2026-01-03 09:59:20.83	19.58	53.26	-30.3	-32.0	13.4	1.50e-06	0	43	0	768606208	20	4368
2026-01-03 09:59:21.82	19.08	53.01	-30.1	-31.5	13.8	3.80e-06	0	43	0	770703360	20	4234
2026-01-03 09:59:22.83	18.58	52.75	-30.6	-32.3	12.9	6.10e-06	0	43	0	771751936	21	4375
2026-01-03 09:59:23.84	18.10	52.49	-30.2	-31.4	13.5	1.52e-05	0	43	0	773849088	21	4100
2026-01-03 09:59:24.85	17.62	52.23	-29.8	-30.8	14.3	4.50e-06	0	43	0	775946240	20	4024
2026-01-03 09:59:25.86	17.15	51.97	-29.2	-29.7	15.2	0.00e+00	0	43	0	778043392	19	3809
2026-01-03 09:59:26.87	16.68	51.71	-29.6	-30.7	14.6	7.00e-07	0	43	0	780140544	19	4077
2026-01-03 09:59:27.87	16.23	51.45	-29.8	-31.3	14.3	2.20e-06	0	43	0	781189120	19	4233
2026-01-03 09:59:28.88	15.79	51.19	-29.9	-31.3	14.2	7.00e-07	0	43	0	783286272	19	4241
2026-01-03 09:59:29.88	15.35	50.93	-29.4	-30.2	14.9	0.00e+00	0	43	0	785383424	19	3938
2026-01-03 09:59:30.89	14.92	50.66	-30.0	-31.2	14.0	1.50e-06	0	43	0	787480576	20	4129
2026-01-03 09:59:31.89	14.50	50.40	-30.2	-31.8	13.6	1.06e-05	0	43	0	789577728	20	4309
2026-01-03 09:59:32.90	14.09	50.14	-29.3	-29.5	14.8	5.30e-06	0	43	0	790626304	20	3658
2026-01-03 09:59:33.90	13.68	49.88	-28.3	-28.0	16.5	0.00e+00	0	43	0	792723456	18	3461
2026-01-03 09:59:34.91	13.28	49.61	-28.8	-29.6	15.9	0.00e+00	0	43	0	794820608	17	3961
2026-01-03 09:59:35.91	12.89	49.35	-29.5	-30.8	14.8	0.00e+00	0	43	0	796917760	18	4202
2026-01-03 09:59:36.91	12.50	49.09	-29.8	-31.0	14.4	7.00e-07	0	43	0	799014912	19	4172
2026-01-03 09:59:37.92	12.12	48.83	-29.8	-30.7	14.2	3.80e-06	0	43	0	800063488	20	3999
2026-01-03 09:59:38.92	11.75	48.57	-30.5	-32.1	13.0	9.10e-06	0	43	0	802160640	21	4305
2026-01-03 09:59:39.93	11.38	48.31	-30.5	-32.2	13.0	3.05e-05	0	43	0	804257792	21	4346
2026-01-03 09:59:40.94	11.02	48.04	-30.5	-32.0	13.2	3.12e-05	0	43	0	806354944	21	4282
2026-01-03 09:59:41.94	10.67	47.78	-31.1	-33.3	12.0	7.78e-05	0	43	0	808452096	22	4627
2026-01-03 09:59:42.94	10.32	47.53	-31.5	-34.0	11.0	6.57e-04	0	43	0	809500672	23	4787
2026-01-03 09:59:43.96	9.97	47.26	-30.8	-32.3	12.6	2.91e-04	0	43	0	811597824	22	4288
2026-01-03 09:59:44.96	9.64	47.00	-30.9	-32.6	12.3	1.01e-04	0	43	0	813694976	22	4400
2026-01-03 09:59:45.96	9.31	46.75	-31.5	-34.1	11.0	3.19e-04	0	43	0	815792128	23	4840
2026-01-03 09:59:46.97	8.98	46.49	-31.6	-34.2	10.8	3.19e-03	0	43	0	817889280	23	4902
2026-01-03 09:59:47.98	8.66	46.23	-30.7	-32.0	12.7	5.90e-04	0	43	0	818937856	22	4214
2026-01-03 09:59:48.98	8.34	45.97	-30.6	-32.4	12.7	3.89e-05	0	43	0	821035008	21	4434
2026-01-03 09:59:49.99	8.03	45.71	-31.0	-33.1	12.0	1.43e-04	0	43	0	823132160	22	4570
2026-01-03 09:59:50.99	7.73	45.46	-31.1	-33.4	11.7	4.71e-04	0	43	0	825229312	22	4697
2026-01-03 09:59:51.99	7.43	45.21	-31.2	-33.7	11.6	9.13e-04	0	43	0	827326464	22	4790
2026-01-03 09:59:52.99	7.14	44.95	-31.4	-34.2	11.2	1.72e-03	0	43	0	828375040	22	4989
2026-01-03 09:59:54.00	6.84	44.70	-31.2	-33.8	11.5	9.57e-04	0	43	0	830472192	22	4808
2026-01-03 09:59:55.00	6.56	44.45	-31.1	-33.3	11.7	1.05e-03	0	43	0	832569344	22	4652
2026-01-03 09:59:56.01	6.28	44.19	-30.9	-32.6	12.3	3.41e-04	0	43	0	834666496	22	4393
2026-01-03 09:59:57.01	6.00	43.94	-31.2	-33.5	11.7	3.84e-04	0	43	0	836763648	22	4715
2026-01-03 09:59:58.02	5.73	43.69	-31.7	-34.6	10.5	1.98e-03	0	43	0	837812224	23	5043
2026-01-03 09:59:59.02	5.46	43.45	-32.1	-35.6	9.4	1.23e-02	0	43	0	839909376	24	5417
2026-01-03 10:00:00.02	5.20	43.20	-31.5	-33.6	10.8	3.89e-03	0	43	0	842006528	24	4578
2026-01-03 10:00:01.02	4.94	42.95	-30.9	-32.2	12.2	7.54e-04	0	43	0	844103680	23	4182
2026-01-03 10:00:02.03	4.68	42.71	-30.7	-32.2	12.6	1.34e-04	0	43	0	845152256	22	4277
2026-01-03 10:00:03.03	4.43	42.46	-30.9	-32.8	12.2	1.96e-04	0	43	0	847249408	22	4463
2026-01-03 10:00:04.04	4.18	42.22	-31.2	-33.7	11.5	5.76e-04	0	43	0	849346560	22	4787
2026-01-03 10:00:05.04	3.94	41.97	-31.8	-34.9	10.2	1.94e-03	0	43	0	851443712	23	5200
2026-01-03 10:00:06.05	3.70	41.73	-32.0	-35.6	9.7	4.54e-03	0	43	0	853540864	23	5498
2026-01-03 10:00:07.05	3.46	41.49	-31.7	-34.9	10.3	5.33e-03	0	43	0	855638016	23	5184
2026-01-03 10:00:08.06	3.22	41.25	-31.5	-34.1	10.8	4.44e-03	0	43	0	856686592	23	4872
2026-01-03 10:00:09.06	3.00	41.01	-32.3	-36.6	8.5	1.21e-02	0	43	0	858783744	24	5884
2026-01-03 10:00:10.07	2.77	40.77	-32.4	-37.1	8.3	4.98e-02	0	43	0	860880896	24	6153
2026-01-03 10:00:11.07	2.55	40.54	-32.6	-37.5	7.3	1.15e-01	0	43	0	862978048	25	6327
2026-01-03 10:00:12.07	2.33	40.30	-32.5	-37.1	7.8	1.12e-01	0	43	0	864026624	25	6071
2026-01-03 10:00:13.08	2.11	40.06	-32.6	-37.1	7.7	7.26e-02	0	43	0	866123776	25	6071
2026-01-03 10:00:14.08	1.90	39.83	-31.7	-34.3	10.3	1.59e-02	0	43	0	868220928	24	4852
2026-01-03 10:00:15.09	1.68	39.60	-31.3	-32.9	11.3	1.87e-03	0	43	0	870318080	24	4334
2026-01-03 10:00:16.10	1.48	39.37	-30.9	-32.2	12.1	5.14e-04	0	43	0	872415232	23	4197
2026-01-03 10:00:17.10	1.27	39.14	-31.4	-33.9	10.9	2.00e-03	0	43	0	873463808	23	4781
2026-01-03 10:00:18.11	1.07	38.91	-31.5	-34.2	11.1	1.96e-03	0	43	0	875560960	23	4906
2026-01-03 10:00:19.11	0.87	38.68	-31.7	-34.6	10.4	2.54e-03	0	43	0	877658112	23	5078
2026-01-03 10:00:20.11	0.68	38.45	-31.4	-33.7	11.1	2.05e-03	0	43	0	879755264	23	4708
2026-01-03 10:00:21.12	0.48	38.23	-31.4	-33.7	11.0	1.61e-03	0	43	0	881852416	23	4729
2026-01-03 10:00:22.12	0.29	38.00	-31.2	-33.3	11.4	1.51e-03	0	43	0	882900992	23	4552
2026-01-03 10:00:23.13	0.10	37.78	-31.4	-33.9	11.0	1.00e-03	0	43	0	884998144	23	4785
2026-01-03 10:00:24.13	359.92	37.56	-31.9	-35.6	9.6	6.22e-03	0	43	0	887095296	23	5510
2026-01-03 10:00:25.14	359.74	37.33	-32.2	-36.1	8.9	2.37e-02	0	43	0	889192448	24	5659
2026-01-03 10:00:26.14	359.56	37.11	-32.4	-36.8	8.5	3.85e-02	0	43	0	891289600	24	5986
2026-01-03 10:00:27.15	359.38	36.89	-32.4	-37.0	8.2	4.64e-02	0	43	0	892338176	24	6131
2026-01-03 10:00:28.16	359.20	36.67	-32.3	-36.4	8.8	4.45e-02	0	43	0	894435328	24	5773
2026-01-03 10:00:29.17	359.03	36.46	-32.1	-35.7	9.2	2.94e-02	0	43	0	896532480	24	5462
2026-01-03 10:00:30.17	358.86	36.24	-31.9	-35.0	9.7	1.23e-02	0	43	0	898629632	24	5149
2026-01-03 10:00:31.18	358.69	36.03	-31.6	-34.1	10.4	7.39e-03	0	43	0	900726784	24	4785
2026-01-03 10:00:32.19	358.52	35.81	-31.7	-34.5	10.1	1.06e-02	0	43	0	901775360	24	4957
2026-01-03 10:00:33.19	358.36	35.60	-31.5	-33.6	10.7	4.10e-03	0	43	0	903872512	24	4596
2026-01-03 10:00:34.19	358.20	35.39	-31.9	-35.1	9.6	4.27e-03	0	43	0	905969664	24	5186
2026-01-03 10:00:35.20	358.04	35.18	-31.8	-34.7	10.0	1.76e-02	0	43	0	908066816	24	5022
2026-01-03 10:00:36.21	357.88	34.97	-31.5	-33.9	10.5	1.22e-02	0	43	0	910163968	24	4697
2026-01-03 10:00:37.21	357.72	34.76	-31.0	-32.7	11.7	1.05e-03	0	43	0	911212544	23	4360
2026-01-03 10:00:38.22	357.57	34.56	-30.4	-31.3	13.0	1.21e-04	0	43	0	913309696	22	3992
2026-01-03 10:00:39.22	357.42	34.35	-29.8	-30.2	14.0	1.37e-05	0	43	0	915406848	21	3775
2026-01-03 10:00:40.23	357.27	34.15	-29.3	-29.9	14.9	0.00e+00	0	43	0	917504000	19	3871
2026-01-03 10:00:41.24	357.12	33.94	-29.4	-30.2	14.7	0.00e+00	0	43	0	919601152	19	3952
2026-01-03 10:00:42.25	356.97	33.74	-30.0	-31.3	13.7	2.20e-06	0	43	0	920649728	20	4193
2026-01-03 10:00:43.25	356.83	33.54	-30.6	-32.4	12.6	7.55e-05	0	43	0	922746880	21	4455
2026-01-03 10:00:44.26	356.69	33.34	-31.0	-33.5	11.9	3.56e-04	0	43	0	924844032	21	4838
2026-01-03 10:00:45.26	356.55	33.14	-31.4	-33.9	10.9	1.54e-03	0	43	0	926941184	23	4795
2026-01-03 10:00:46.27	356.41	32.94	-31.1	-32.9	11.5	1.23e-03	0	43	0	929038336	23	4430
2026-01-03 10:00:47.28	356.27	32.74	-30.8	-32.6	12.1	3.29e-04	0	43	0	930086912	22	4404
2026-01-03 10:00:48.28	356.14	32.55	-30.9	-32.8	12.1	2.65e-04	0	43	0	932184064	22	4477
2026-01-03 10:00:49.28	356.00	32.36	-31.1	-33.5	11.5	5.10e-04	0	43	0	934281216	22	4723
2026-01-03 10:00:50.29	355.87	32.16	-31.0	-33.3	11.7	8.31e-04	0	43	0	936378368	22	4654
2026-01-03 10:00:51.30	355.74	31.97	-31.2	-33.8	11.2	6.83e-04	0	43	0	938475520	22	4865
2026-01-03 10:00:52.30	355.61	31.78	-31.0	-33.1	11.7	8.35e-04	0	43	0	939524096	22	4584
2026-01-03 10:00:53.31	355.49	31.59	-30.8	-32.6	12.1	3.23e-04	0	43	0	941621248	22	4424
2026-01-03 10:00:54.32	355.36	31.40	-30.7	-32.3	12.4	2.73e-04	0	43	0	943718400	22	4313
2026-01-03 10:00:55.33	355.23	31.21	-30.3	-31.6	13.0	3.66e-05	0	43	0	945815552	21	4203
2026-01-03 10:00:56.32	355.11	31.03	-30.5	-32.1	12.7	3.20e-05	0	43	0	947912704	21	4360
2026-01-03 10:00:57.33	354.99	30.84	-30.4	-32.1	12.8	5.49e-05	0	43	0	948961280	21	4345
2026-01-03 10:00:58.34	354.87	30.65	-30.5	-32.3	12.6	8.31e-05	0	43	0	951058432	21	4414
2026-01-03 10:00:59.34	354.75	30.47	-30.6	-32.4	12.6	1.01e-04	0	43	0	953155584	21	4458
2026-01-03 10:01:00.34	354.64	30.29	-30.6	-32.6	12.4	1.33e-04	0	43	0	955252736	21	4530
2026-01-03 10:01:01.35	354.52	30.11	-30.7	-32.8	12.3	1.30e-04	0	43	0	957349888	21	4567
2026-01-03 10:01:02.35	354.41	29.93	-31.2	-33.8	11.3	4.90e-04	0	43	0	958398464	22	4833
2026-01-03 10:01:03.36	354.29	29.75	-31.5	-34.2	10.6	3.07e-03	0	43	0	960495616	23	4922
2026-01-03 10:01:04.36	354.18	29.57	-31.7	-35.0	9.9	4.32e-03	0	43	0	962592768	23	5255
2026-01-03 10:01:05.36	354.07	29.39	-32.1	-36.0	8.9	1.89e-02	0	43	0	964689920	24	5614
2026-01-03 10:01:06.36	353.96	29.21	-32.5	-37.7	7.6	4.85e-02	0	43	0	966787072	24	6517
2026-01-03 10:01:07.37	353.85	29.04	-32.6	-37.8	7.1	1.37e-01	0	43	0	967835648	25	6518
2026-01-03 10:01:08.37	353.75	28.86	-32.5	-37.4	7.3	1.31e-01	0	43	0	969932800	25	6315
2026-01-03 10:01:09.38	353.64	28.69	-32.5	-37.2	7.4	1.49e-01	0	43	0	972029952	25	6172
2026-01-03 10:01:10.39	353.54	28.52	-32.3	-36.2	8.2	7.20e-02	0	43	0	974127104	25	5658
2026-01-03 10:01:11.39	353.43	28.34	-32.2	-35.8	8.5	4.69e-02	0	43	0	975175680	25	5471
2026-01-03 10:01:12.40	353.33	28.17	-31.9	-34.9	9.3	3.01e-02	0	43	0	977272832	25	5037
2026-01-03 10:01:13.40	353.23	28.00	-31.9	-34.8	9.3	2.01e-02	0	43	0	979369984	25	5028
2026-01-03 10:01:14.41	353.13	27.83	-32.0	-35.2	9.0	2.74e-02	0	43	0	981467136	25	5191
2026-01-03 10:01:15.42	353.03	27.67	-32.0	-35.2	9.0	2.20e-02	0	43	0	983564288	25	5196
2026-01-03 10:01:16.43	352.93	27.50	-32.0	-35.0	9.2	3.08e-02	0	43	0	985661440	25	5110
2026-01-03 10:01:17.43	352.84	27.33	-31.7	-34.5	9.8	1.47e-02	0	43	0	986710016	24	4979
2026-01-03 10:01:18.43	352.74	27.17	-31.6	-34.3	10.1	7.92e-03	0	43	0	988807168	24	4906
2026-01-03 10:01:19.44	352.65	27.00	-31.7	-34.7	9.9	7.93e-03	0	43	0	990904320	24	5067
2026-01-03 10:01:20.45	352.55	26.84	-31.8	-34.8	9.6	1.69e-02	0	43	0	993001472	24	5104
2026-01-03 10:01:21.46	352.46	26.67	-31.7	-34.4	10.1	6.97e-03	0	43	0	995098624	24	4918
2026-01-03 10:01:22.46	352.37	26.51	-31.5	-33.8	10.5	6.33e-03	0	43	0	996147200	24	4686
2026-01-03 10:01:23.47	352.28	26.35	-31.7	-34.4	10.0	5.97e-03	0	43	0	998244352	24	4932
2026-01-03 10:01:24.48	352.19	26.19	-31.7	-34.5	9.9	9.40e-03	0	43	0	1000341504	24	4992
2026-01-03 10:01:25.48	352.10	26.03	-31.7	-34.5	9.9	7.52e-03	0	43	0	1002438656	24	4975
2026-01-03 10:01:26.49	352.01	25.87	-31.8	-34.9	9.6	9.45e-03	0	43	0	1003487232	24	5160
2026-01-03 10:01:27.50	351.92	25.72	-31.8	-35.1	9.4	1.34e-02	0	43	0	1005584384	24	5251
2026-01-03 10:01:28.50	351.84	25.56	-31.9	-35.4	9.2	2.66e-02	0	43	0	1007681536	24	5366
2026-01-03 10:01:29.51	351.75	25.40	-32.0	-35.7	8.7	1.85e-02	0	43	0	1009778688	24	5527
2026-01-03 10:01:30.51	351.67	25.25	-32.1	-36.2	8.5	5.11e-02	0	43	0	1011875840	24	5758
2026-01-03 10:01:31.52	351.58	25.10	-32.0	-36.0	8.7	3.23e-02	0	43	0	1013972992	24	5653
2026-01-03 10:01:32.52	351.50	24.94	-32.0	-35.8	8.8	3.34e-02	0	43	0	1015021568	24	5570
2026-01-03 10:01:33.53	351.42	24.79	-31.9	-35.6	9.0	3.07e-02	0	43	0	1017118720	24	5451
2026-01-03 10:01:34.54	351.34	24.64	-32.2	-36.4	8.4	3.24e-02	0	43	0	1019215872	24	5860
2026-01-03 10:01:35.54	351.26	24.49	-32.2	-36.6	8.3	3.74e-02	0	43	0	1021313024	24	5956
2026-01-03 10:01:36.55	351.18	24.34	-32.1	-36.1	8.5	4.43e-02	0	43	0	1023410176	24	5745
2026-01-03 10:01:37.56	351.10	24.19	-32.0	-35.9	8.7	3.51e-02	0	43	0	1024458752	24	5621
2026-01-03 10:01:38.57	351.02	24.04	-32.1	-36.1	8.5	3.77e-02	0	43	0	1026555904	24	5747
2026-01-03 10:01:39.57	350.94	23.89	-32.2	-36.6	8.2	4.19e-02	0	43	0	1028653056	24	5970
2026-01-03 10:01:40.58	350.87	23.74	-32.2	-36.7	8.1	7.07e-02	0	43	0	1030750208	24	6022
2026-01-03 10:01:41.58	350.79	23.60	-32.0	-35.9	8.7	4.36e-02	0	43	0	1031798784	24	5636
2026-01-03 10:01:42.59	350.72	23.45	-31.9	-35.3	9.1	2.97e-02	0	43	0	1033895936	24	5348
2026-01-03 10:01:43.59	350.64	23.31	-31.8	-35.0	9.4	1.92e-02	0	43	0	1035993088	24	5207
2026-01-03 10:01:44.60	350.57	23.16	-31.8	-35.0	9.4	1.81e-02	0	43	0	1038090240	24	5192
2026-01-03 10:01:45.59	350.50	23.02	-31.8	-35.1	9.3	1.81e-02	0	43	0	1040187392	24	5247
2026-01-03 10:01:46.60	350.43	22.88	-31.8	-35.0	9.5	1.53e-02	0	43	0	1042284544	24	5211
2026-01-03 10:01:47.61	350.35	22.74	-31.6	-34.2	10.0	1.17e-02	0	43	0	1043333120	24	4881
2026-01-03 10:01:48.62	350.28	22.60	-31.2	-33.5	10.9	4.83e-03	0	43	0	1045430272	23	4668
2026-01-03 10:01:49.63	350.21	22.46	-30.9	-32.7	11.5	1.90e-03	0	43	0	1047527424	23	4389
2026-01-03 10:01:50.63	350.14	22.32	-30.7	-32.3	12.1	3.99e-04	0	43	0	1049624576	22	4362
2026-01-03 10:01:51.64	350.07	22.18	-30.5	-31.9	12.3	1.52e-04	0	43	0	1050673152	22	4229
2026-01-03 10:01:52.64	350.01	22.04	-30.2	-31.5	12.9	6.48e-05	0	43	0	1052770304	21	4185
2026-01-03 10:01:53.64	349.94	21.90	-30.1	-31.1	13.2	3.35e-05	0	43	0	1054867456	21	4071
2026-01-03 10:01:54.64	349.87	21.77	-30.1	-31.2	13.1	2.89e-05	0	43	0	1056964608	21	4108
2026-01-03 10:01:55.64	349.81	21.63	-30.1	-31.2	13.1	2.59e-05	0	43	0	1059061760	21	4097
2026-01-03 10:01:56.65	349.74	21.50	-30.3	-31.7	12.8	4.73e-05	0	43	0	1060110336	21	4243
2026-01-03 10:01:57.66	349.68	21.36	-30.3	-31.9	12.6	7.70e-05	0	43	0	1062207488	21	4306
2026-01-03 10:01:58.67	349.61	21.23	-30.2	-31.6	12.8	5.34e-05	0	43	0	1064304640	21	4211
2026-01-03 10:01:59.67	349.55	21.10	-30.2	-31.6	12.8	6.02e-05	0	43	0	1066401792	21	4208
2026-01-03 10:02:00.68	349.49	20.96	-30.3	-31.9	12.5	6.94e-05	0	43	0	1068498944	21	4333
2026-01-03 10:02:01.68	349.42	20.83	-30.5	-32.3	12.3	1.76e-04	0	43	0	1069547520	21	4460
2026-01-03 10:02:02.68	349.36	20.70	-30.5	-32.3	12.3	1.89e-04	0	43	0	1071644672	21	4459
2026-01-03 10:02:03.69	349.30	20.57	-30.7	-33.1	11.7	4.10e-04	0	43	0	1073741824	21	4740
2026-01-03 10:02:04.70	349.24	20.44	-30.8	-33.2	11.7	5.53e-04	0	43	0	1075838976	21	4772
2026-01-03 10:02:05.70	349.18	20.31	-30.7	-33.1	11.7	6.96e-04	0	43	0	1077936128	21	4723
2026-01-03 10:02:06.71	349.12	20.18	-30.7	-33.0	11.7	5.71e-04	0	43	0	1078984704	21	4715
2026-01-03 10:02:07.71	349.06	20.05	-30.7	-32.9	11.9	3.17e-04	0	43	0	1081081856	21	4651
2026-01-03 10:02:08.72	349.00	19.93	-30.8	-33.3	11.7	4.36e-04	0	43	0	1083179008	21	4799
2026-01-03 10:02:09.72	348.94	19.80	-30.6	-32.8	12.0	8.67e-04	0	43	0	1085276160	21	4611
2026-01-03 10:02:10.73	348.88	19.67	-30.3	-31.9	12.5	1.52e-04	0	43	0	1087373312	21	4316
2026-01-03 10:02:11.74	348.83	19.55	-30.2	-31.7	12.7	7.62e-05	0	43	0	1088421888	21	4248
2026-01-03 10:02:12.74	348.77	19.42	-30.2	-31.5	12.9	5.72e-05	0	43	0	1090519040	21	4181
2026-01-03 10:02:13.75	348.71	19.30	-30.1	-31.2	13.0	4.42e-05	0	43	0	1092616192	21	4097
2026-01-03 10:02:14.76	348.66	19.17	-30.2	-31.6	12.8	4.04e-05	0	43	0	1094713344	21	4217
2026-01-03 10:02:15.76	348.60	19.05	-30.1	-31.4	12.9	7.17e-05	0	43	0	1096810496	21	4168
2026-01-03 10:02:16.77	348.55	18.93	-30.1	-31.4	12.9	6.10e-05	0	43	0	1097859072	21	4159
2026-01-03 10:02:17.77	348.49	18.81	-30.2	-31.6	12.8	4.42e-05	0	43	0	1099956224	21	4220
2026-01-03 10:02:18.77	348.44	18.69	-30.4	-32.3	12.3	1.04e-04	0	43	0	1102053376	21	4458
2026-01-03 10:02:19.78	348.39	18.56	-30.2	-31.7	12.6	1.80e-04	0	43	0	1104150528	21	4263
2026-01-03 10:02:20.79	348.33	18.44	-30.3	-31.8	12.5	6.94e-05	0	43	0	1106247680	21	4308
2026-01-03 10:02:21.80	348.28	18.32	-30.4	-32.1	12.3	1.20e-04	0	43	0	1107296256	21	4393
2026-01-03 10:02:22.80	348.23	18.20	-30.4	-32.1	12.3	1.23e-04	0	43	0	1109393408	21	4392
2026-01-03 10:02:23.81	348.18	18.09	-30.3	-31.8	12.5	1.62e-04	0	43	0	1111490560	21	4294
2026-01-03 10:02:24.82	348.12	17.97	-30.1	-31.5	12.8	9.61e-05	0	43	0	1113587712	21	4193
2026-01-03 10:02:25.82	348.07	17.85	-30.1	-31.4	12.8	6.33e-05	0	43	0	1115684864	21	4175
2026-01-03 10:02:26.83	348.02	17.73	-30.2	-31.7	12.6	7.78e-05	0	43	0	1116733440	21	4260
2026-01-03 10:02:27.83	347.97	17.62	-30.1	-31.4	12.7	7.17e-05	0	43	0	1118830592	21	4186
2026-01-03 10:02:28.84	347.92	17.50	-30.0	-31.2	12.9	6.71e-05	0	43	0	1120927744	21	4101
2026-01-03 10:02:29.85	347.87	17.38	-30.0	-31.2	12.9	4.88e-05	0	43	0	1123024896	21	4117
2026-01-03 10:02:30.86	347.83	17.27	-30.0	-31.2	12.9	6.48e-05	0	43	0	1125122048	21	4108
2026-01-03 10:02:31.87	347.78	17.15	-30.0	-31.2	12.9	3.43e-05	0	43	0	1126170624	21	4113
2026-01-03 10:02:32.87	347.73	17.04	-30.3	-31.9	12.4	5.18e-05	0	43	0	1128267776	21	4348
2026-01-03 10:02:33.88	347.68	16.93	-30.4	-32.1	12.2	1.98e-04	0	43	0	1130364928	21	4409
2026-01-03 10:02:34.88	347.63	16.81	-30.4	-32.2	12.2	2.20e-04	0	43	0	1132462080	21	4443
2026-01-03 10:02:35.89	347.59	16.70	-30.5	-32.5	12.0	2.23e-04	0	43	0	1134559232	21	4542
2026-01-03 10:02:36.90	347.54	16.59	-30.6	-32.8	11.8	4.42e-04	0	43	0	1135607808	21	4653
2026-01-03 10:02:37.91	347.49	16.48	-30.7	-33.1	11.6	5.24e-04	0	43	0	1137704960	21	4742
2026-01-03 10:02:38.91	347.45	16.37	-30.6	-33.0	11.6	6.24e-04	0	43	0	1139802112	21	4733
2026-01-03 10:02:39.91	347.40	16.26	-30.8	-33.5	11.2	1.28e-03	0	43	0	1141899264	21	4922
2026-01-03 10:02:40.92	347.36	16.15	-30.8	-33.4	11.3	1.11e-03	0	43	0	1143996416	21	4886
2026-01-03 10:02:41.93	347.31	16.04	-30.8	-33.4	11.3	1.23e-03	0	43	0	1145044992	21	4890
2026-01-03 10:02:42.94	347.27	15.93	-31.0	-34.1	10.8	1.74e-03	0	43	0	1147142144	21	5138
2026-01-03 10:02:43.94	347.23	15.82	-30.8	-33.5	11.2	1.95e-03	0	43	0	1149239296	21	4914
2026-01-03 10:02:44.95	347.18	15.71	-30.6	-32.9	11.6	1.04e-03	0	43	0	1151336448	21	4688
2026-01-03 10:02:45.95	347.14	15.60	-30.5	-32.7	11.8	5.02e-04	0	43	0	1153433600	21	4614
2026-01-03 10:02:46.96	347.10	15.50	-30.5	-32.6	11.8	4.92e-04	0	43	0	1154482176	21	4578
2026-01-03 10:02:47.96	347.05	15.39	-30.5	-32.7	11.8	5.29e-04	0	43	0	1156579328	21	4614
2026-01-03 10:02:48.98	347.01	15.28	-30.5	-32.7	11.7	4.74e-04	0	43	0	1158676480	21	4643
2026-01-03 10:02:49.98	346.97	15.18	-30.7	-33.3	11.3	1.05e-03	0	43	0	1160773632	21	4862
2026-01-03 10:02:50.99	346.93	15.07	-30.6	-33.0	11.5	1.00e-03	0	43	0	1162870784	21	4753
2026-01-03 10:02:51.99	346.89	14.97	-30.4	-32.5	11.8	4.79e-04	0	43	0	1163919360	21	4566
2026-01-03 10:02:53.00	346.85	14.86	-30.5	-32.7	11.7	4.69e-04	0	43	0	1166016512	21	4638
2026-01-03 10:02:54.01	346.81	14.76	-30.6	-32.9	11.5	6.59e-04	0	43	0	1168113664	21	4710
2026-01-03 10:02:55.01	346.77	14.65	-30.7	-33.2	11.4	7.22e-04	0	43	0	1170210816	21	4821
2026-01-03 10:02:56.01	346.73	14.55	-31.0	-34.3	10.6	1.64e-03	0	43	0	1172307968	21	5241
2026-01-03 10:02:57.01	346.69	14.45	-30.9	-33.9	10.8	2.46e-03	0	43	0	1173356544	21	5092
2026-01-03 10:02:58.01	346.65	14.35	-31.1	-33.9	10.5	3.48e-03	0	43	0	1175453696	22	5014
2026-01-03 10:02:59.01	346.61	14.25	-31.2	-34.5	10.0	5.30e-03	0	43	0	1177550848	22	5248
2026-01-03 10:03:00.01	346.57	14.14	-31.2	-34.3	10.1	6.43e-03	0	43	0	1179648000	22	5186
2026-01-03 10:03:01.02	346.53	14.04	-31.3	-34.7	9.9	8.21e-03	0	43	0	1181745152	22	5324
2026-01-03 10:03:02.03	346.49	13.94	-31.2	-34.4	10.1	8.94e-03	0	43	0	1182793728	22	5223
2026-01-03 10:03:03.03	346.45	13.84	-31.3	-34.8	9.8	8.47e-03	0	43	0	1184890880	22	5375
2026-01-03 10:03:04.04	346.42	13.74	-31.2	-34.4	10.1	7.02e-03	0	43	0	1186988032	22	5214
2026-01-03 10:03:05.05	346.38	13.64	-31.4	-35.0	9.6	9.36e-03	0	43	0	1189085184	22	5502
2026-01-03 10:03:06.05	346.34	13.54	-31.2	-34.6	9.9	1.24e-02	0	43	0	1190133760	22	5316
2026-01-03 10:03:07.06	346.31	13.44	-31.1	-34.2	10.2	6.96e-03	0	43	0	1192230912	22	5145
2026-01-03 10:03:08.06	346.27	13.35	-31.1	-34.2	10.2	6.48e-03	0	43	0	1194328064	22	5153
2026-01-03 10:03:09.07	346.23	13.25	-31.1	-34.2	10.2	7.70e-03	0	43	0	1196425216	22	5121
2026-01-03 10:03:10.08	346.20	13.15	-31.0	-33.9	10.4	4.49e-03	0	43	0	1198522368	22	5024
2026-01-03 10:03:11.08	346.16	13.05	-31.1	-34.3	10.1	5.21e-03	0	43	0	1200619520	22	5168
2026-01-03 10:03:12.09	346.13	12.96	-31.0	-33.9	10.4	4.99e-03	0	43	0	1201668096	22	5000
2026-01-03 10:03:13.10	346.09	12.86	-30.9	-33.6	10.6	3.34e-03	0	43	0	1203765248	22	4896
2026-01-03 10:03:14.10	346.06	12.76	-30.9	-33.5	10.7	3.48e-03	0	43	0	1205862400	22	4860
2026-01-03 10:03:15.11	346.02	12.67	-31.0	-33.8	10.3	3.60e-03	0	43	0	1207959552	22	4980
2026-01-03 10:03:16.11	345.99	12.57	-30.8	-33.3	10.8	2.85e-03	0	43	0	1210056704	22	4796
2026-01-03 10:03:17.12	345.95	12.48	-30.8	-33.2	10.8	2.18e-03	0	43	0	1211105280	22	4758
2026-01-03 10:03:18.12	345.92	12.38	-30.9	-33.5	10.6	3.09e-03	0	43	0	1213202432	22	4864
2026-01-03 10:03:19.12	345.88	12.29	-30.6	-32.7	11.2	2.69e-03	0	43	0	1215299584	22	4561
2026-01-03 10:03:20.13	345.85	12.19	-30.5	-32.4	11.4	8.73e-04	0	43	0	1217396736	22	4455
2026-01-03 10:03:21.14	345.82	12.10	-30.4	-32.0	11.7	7.09e-04	0	43	0	1218445312	22	4312
2026-01-03 10:03:22.14	345.78	12.01	-30.4	-32.1	11.6	8.04e-04	0	43	0	1220542464	22	4351
2026-01-03 10:03:23.15	345.75	11.91	-30.4	-32.1	11.6	7.24e-04	0	43	0	1222639616	22	4347
2026-01-03 10:03:24.16	345.72	11.82	-30.6	-32.6	11.3	8.30e-04	0	43	0	1224736768	22	4539
2026-01-03 10:03:25.16	345.69	11.73	-30.7	-33.0	11.0	1.66e-03	0	43	0	1226833920	22	4682
2026-01-03 10:03:26.16	345.65	11.64	-30.5	-32.3	11.5	1.33e-03	0	43	0	1228931072	22	4412
2026-01-03 10:03:27.17	345.62	11.55	-30.3	-31.8	11.8	5.26e-04	0	43	0	1229979648	22	4258
2026-01-03 10:03:28.17	345.59	11.46	-30.3	-32.3	11.8	4.41e-04	0	43	0	1232076800	21	4522
2026-01-03 10:03:29.18	345.56	11.36	-30.1	-31.7	12.1	3.97e-04	0	43	0	1234173952	21	4330
2026-01-03 10:03:30.19	345.53	11.27	-30.3	-32.3	11.9	2.83e-04	0	43	0	1236271104	21	4507
2026-01-03 10:03:31.19	345.50	11.18	-30.5	-32.8	11.3	8.60e-04	0	43	0	1237319680	21	4699
2026-01-03 10:03:32.20	345.47	11.09	-30.2	-32.0	11.9	6.45e-04	0	43	0	1239416832	21	4425
2026-01-03 10:03:33.20	345.44	11.00	-30.2	-31.9	12.0	2.73e-04	0	43	0	1241513984	21	4367
2026-01-03 10:03:34.21	345.41	10.91	-30.2	-31.8	12.1	2.92e-04	0	43	0	1243611136	21	4361
2026-01-03 10:03:35.22	345.38	10.82	-30.2	-32.0	12.0	3.68e-04	0	43	0	1245708288	21	4398
2026-01-03 10:03:36.22	345.35	10.74	-30.3	-32.3	11.7	3.92e-04	0	43	0	1246756864	21	4504
2026-01-03 10:03:37.22	345.32	10.65	-30.2	-32.0	11.9	4.08e-04	0	43	0	1248854016	21	4433
2026-01-03 10:03:38.23	345.29	10.56	-30.5	-32.7	11.4	6.29e-04	0	43	0	1250951168	21	4682
2026-01-03 10:03:39.23	345.26	10.47	-30.3	-32.4	11.6	8.25e-04	0	43	0	1253048320	21	4552
2026-01-03 10:03:40.23	345.23	10.39	-30.4	-32.6	11.5	8.05e-04	0	43	0	1255145472	21	4626
2026-01-03 10:03:41.24	345.20	10.30	-30.6	-33.1	11.1	1.76e-03	0	43	0	1256194048	21	4820
2026-01-03 10:03:42.25	345.17	10.21	-30.5	-33.1	11.1	1.83e-03	0	43	0	1258291200	21	4819
2026-01-03 10:03:43.25	345.14	10.13	-30.6	-33.4	10.9	1.77e-03	0	43	0	1260388352	21	4923
2026-01-03 10:03:44.26	345.11	10.04	-30.8	-33.9	10.5	3.15e-03	0	43	0	1262485504	21	5149
2026-01-03 10:03:45.27	345.09	9.95	-30.7	-33.6	10.6	3.11e-03	0	43	0	1264582656	21	5040
2026-01-03 10:03:46.27	345.06	9.87	-30.8	-33.9	10.5	3.52e-03	0	43	0	1265631232	21	5154
2026-01-03 10:03:47.28	345.03	9.78	-30.8	-33.9	10.4	4.24e-03	0	43	0	1267728384	21	5161
2026-01-03 10:03:48.28	345.00	9.70	-30.9	-34.4	10.1	5.81e-03	0	43	0	1269825536	21	5354
2026-01-03 10:03:49.29	344.97	9.61	-30.7	-33.7	10.6	5.60e-03	0	43	0	1271922688	21	5079
2026-01-03 10:03:50.30	344.95	9.53	-30.7	-33.7	10.6	3.20e-03	0	43	0	1274019840	21	5049
2026-01-03 10:03:51.30	344.92	9.44	-30.7	-33.7	10.5	3.40e-03	0	43	0	1275068416	21	5082
2026-01-03 10:03:52.31	344.89	9.36	-30.8	-33.8	10.4	4.10e-03	0	43	0	1277165568	21	5120
2026-01-03 10:03:53.32	344.87	9.27	-30.8	-33.9	10.4	4.84e-03	0	43	0	1279262720	21	5174
2026-01-03 10:03:54.32	344.84	9.19	-30.8	-34.0	10.3	7.50e-03	0	43	0	1281359872	21	5193
2026-01-03 10:03:55.33	344.81	9.11	-30.9	-34.2	10.1	6.05e-03	0	43	0	1283457024	21	5289
2026-01-03 10:03:56.34	344.79	9.02	-30.9	-34.2	10.1	7.96e-03	0	43	0	1284505600	21	5280
2026-01-03 10:03:57.34	344.76	8.94	-30.8	-33.9	10.4	5.09e-03	0	43	0	1286602752	21	5146
2026-01-03 10:03:58.35	344.74	8.86	-30.8	-34.1	10.2	5.02e-03	0	43	0	1288699904	21	5235
