passes_logs/2026/01/03/R2M6_AANII_01/R2M6_AANII_01__20260103_024104_FENGYUN_3D_rec.log

#Pass ID: 20260103_024104_FENGYUN 3D
#Satellite: FENGYUN 3D
#Configuration: FENGYUN 3D
#almurnet v.1.7.20240730
#Start time: 2026-01-03 02:41:06

#Version: 2.2.20231116
#Station: R2M6_AANII_01
#Location: 30.233357 lon 59.946436 lat
#TLE: 1 43010U 17072A   26002.31768531  .00000715  00000+0  35975-3 0  9993
#TLE: 2 43010  98.9910 333.9388 0001871 131.0716 229.0622 14.19693418421454

#Time	Az	El	Level	Level2	SNR	BER	BlckErr	Temp	State	Recorded	gain1	gain2
2026-01-03 02:41:06.02	17.20	7.15	-29.5	-33.0	5.2	7.93e-01	0	41	0	0	19	5391
2026-01-03 02:41:07.02	17.19	7.23	-29.6	-32.6	5.2	7.98e-01	0	41	104	0	20	5118
2026-01-03 02:41:08.03	17.18	7.30	-30.0	-34.3	8.2	4.28e-02	0	41	0	0	19	5921
2026-01-03 02:41:09.03	17.17	7.38	-29.6	-33.0	9.1	2.38e-02	0	41	0	5242880	19	5350
2026-01-03 02:41:10.04	17.16	7.46	-29.1	-31.8	10.0	1.05e-02	0	41	0	10485760	19	4880
2026-01-03 02:41:11.05	17.14	7.54	-28.7	-31.1	10.7	3.06e-03	0	41	0	16777216	18	4759
2026-01-03 02:41:12.05	17.13	7.62	-28.4	-30.9	11.2	1.32e-03	0	41	0	22020096	17	4781
2026-01-03 02:41:13.06	17.12	7.70	-27.4	-29.7	11.3	4.42e-04	0	41	0	28311552	16	4668
2026-01-03 02:41:14.07	17.11	7.78	-27.7	-30.2	12.2	2.02e-04	0	41	0	33554432	15	4785
2026-01-03 02:41:15.08	17.10	7.86	-27.7	-30.2	12.2	1.51e-04	0	41	0	39845888	15	4794
2026-01-03 02:41:16.09	17.08	7.94	-27.7	-30.1	12.3	1.09e-04	0	41	0	45088768	15	4748
2026-01-03 02:41:17.09	17.07	8.02	-27.5	-29.7	12.5	2.39e-03	0	41	0	50331648	15	4622
2026-01-03 02:41:18.09	17.06	8.10	-27.2	-29.4	13.0	3.66e-05	0	41	0	56623104	14	4632
2026-01-03 02:41:19.09	17.05	8.18	-27.0	-29.0	13.3	2.06e-03	0	41	0	61865984	14	4505
2026-01-03 02:41:20.10	17.04	8.26	-26.7	-28.8	13.6	8.00e-06	0	41	0	67108864	13	4581
2026-01-03 02:41:21.10	17.02	8.34	-26.6	-28.4	13.9	3.40e-06	0	41	0	73400320	13	4440
2026-01-03 02:41:22.11	17.01	8.42	-26.6	-28.5	13.8	1.81e-03	0	41	0	78643200	13	4477
2026-01-03 02:41:23.11	17.00	8.50	-26.7	-28.8	13.7	0.00e+00	0	41	0	84934656	13	4557
2026-01-03 02:41:24.12	16.98	8.58	-26.5	-28.3	14.0	2.91e-04	0	41	0	90177536	13	4423
2026-01-03 02:41:25.13	16.97	8.67	-26.5	-28.3	13.9	3.40e-06	0	41	0	95420416	13	4411
2026-01-03 02:41:26.13	16.96	8.75	-26.5	-28.7	14.1	2.05e-03	0	41	0	101711872	12	4636
2026-01-03 02:41:27.14	16.95	8.83	-26.5	-28.3	14.0	3.00e-04	0	41	0	106954752	13	4407
2026-01-03 02:41:28.15	16.93	8.91	-26.5	-28.3	14.0	2.48e-03	0	41	0	113246208	13	4429
2026-01-03 02:41:29.15	16.92	9.00	-26.7	-28.7	13.9	1.95e-03	0	41	0	118489088	13	4514
2026-01-03 02:41:30.16	16.90	9.08	-26.5	-28.3	14.0	1.10e-06	0	42	0	123731968	13	4419
2026-01-03 02:41:31.17	16.89	9.16	-26.5	-28.3	14.0	1.94e-03	0	41	0	130023424	13	4424
2026-01-03 02:41:32.18	16.88	9.25	-26.8	-28.9	13.7	2.51e-03	0	41	0	135266304	13	4601
2026-01-03 02:41:33.19	16.86	9.33	-26.5	-28.2	14.2	3.09e-04	0	41	0	141557760	13	4375
2026-01-03 02:41:34.20	16.85	9.42	-26.4	-28.4	14.3	1.94e-03	0	41	0	146800640	12	4561
2026-01-03 02:41:35.20	16.84	9.50	-26.2	-28.0	14.5	2.38e-03	0	42	0	152043520	12	4453
2026-01-03 02:41:36.20	16.82	9.59	-26.2	-28.1	14.5	2.80e-04	0	42	0	158334976	12	4467
2026-01-03 02:41:37.21	16.81	9.67	-26.2	-28.0	14.6	2.31e-03	0	42	0	163577856	12	4433
2026-01-03 02:41:38.22	16.79	9.76	-26.2	-28.1	14.5	1.73e-03	0	42	0	169869312	12	4453
2026-01-03 02:41:39.21	16.78	9.84	-26.1	-27.8	14.7	1.10e-06	0	41	0	175112192	12	4381
2026-01-03 02:41:40.23	16.76	9.93	-26.0	-27.6	14.8	1.78e-03	0	42	0	181403648	12	4330
2026-01-03 02:41:41.23	16.75	10.02	-26.2	-28.0	14.6	4.06e-04	0	41	0	186646528	12	4426
2026-01-03 02:41:42.24	16.73	10.11	-26.4	-28.5	14.3	3.19e-04	0	41	0	191889408	12	4583
2026-01-03 02:41:43.25	16.72	10.19	-26.6	-28.4	14.0	2.06e-03	0	42	0	198180864	13	4444
2026-01-03 02:41:44.25	16.71	10.28	-26.4	-28.5	14.2	4.61e-04	0	42	0	203423744	12	4590
2026-01-03 02:41:45.25	16.69	10.37	-26.4	-28.6	14.2	2.79e-04	0	42	0	208666624	12	4607
2026-01-03 02:41:46.25	16.68	10.46	-26.2	-28.0	14.6	4.63e-04	0	42	0	214958080	12	4449
2026-01-03 02:41:47.26	16.66	10.54	-26.0	-27.7	14.8	2.29e-03	0	42	0	220200960	12	4351
2026-01-03 02:41:48.27	16.64	10.63	-25.8	-27.2	15.1	0.00e+00	0	42	0	225443840	12	4201
2026-01-03 02:41:49.27	16.63	10.72	-25.9	-27.9	15.0	2.11e-03	0	42	0	231735296	11	4526
2026-01-03 02:41:50.28	16.61	10.81	-25.9	-27.8	15.1	5.00e-04	0	42	0	236978176	11	4498
2026-01-03 02:41:51.29	16.60	10.90	-26.2	-27.9	14.6	0.00e+00	0	42	0	243269632	12	4418
2026-01-03 02:41:52.29	16.58	10.99	-25.9	-27.9	15.0	1.71e-05	0	42	0	248512512	11	4513
2026-01-03 02:41:53.30	16.57	11.08	-26.2	-27.9	14.7	5.26e-04	0	42	0	254803968	12	4413
2026-01-03 02:41:54.31	16.55	11.17	-26.4	-28.4	14.4	2.95e-04	0	42	0	260046848	12	4541
2026-01-03 02:41:55.32	16.53	11.27	-26.0	-27.6	14.9	5.53e-04	0	42	0	265289728	12	4311
2026-01-03 02:41:56.32	16.52	11.36	-25.8	-27.6	15.2	5.09e-04	0	42	0	271581184	11	4430
2026-01-03 02:41:57.33	16.50	11.45	-25.6	-27.2	15.4	0.00e+00	0	42	0	276824064	11	4321
2026-01-03 02:41:58.33	16.48	11.54	-25.6	-27.0	15.6	4.36e-04	0	42	0	283115520	11	4267
2026-01-03 02:41:59.34	16.47	11.63	-25.6	-27.0	15.6	0.00e+00	0	42	0	288358400	11	4266
2026-01-03 02:42:00.34	16.45	11.73	-25.6	-27.1	15.6	0.00e+00	0	42	0	293601280	11	4275
2026-01-03 02:42:01.35	16.43	11.82	-25.6	-27.0	15.6	0.00e+00	0	42	0	299892736	11	4269
2026-01-03 02:42:02.35	16.41	11.91	-25.7	-27.3	15.4	4.58e-04	0	42	0	305135616	11	4342
2026-01-03 02:42:03.36	16.40	12.01	-25.6	-27.1	15.6	0.00e+00	0	42	0	310378496	11	4278
2026-01-03 02:42:04.37	16.38	12.10	-25.7	-27.4	15.4	4.70e-04	0	42	0	316669952	11	4360
2026-01-03 02:42:05.37	16.36	12.20	-26.0	-27.5	15.0	4.52e-04	0	42	0	321912832	12	4303
2026-01-03 02:42:06.37	16.34	12.29	-25.9	-27.3	15.2	0.00e+00	0	42	0	328204288	12	4224
2026-01-03 02:42:07.38	16.33	12.39	-25.9	-27.8	15.2	4.44e-04	0	42	0	333447168	11	4486
2026-01-03 02:42:08.38	16.31	12.48	-25.9	-27.7	15.3	0.00e+00	0	42	0	339738624	11	4448
2026-01-03 02:42:09.38	16.29	12.58	-25.9	-27.8	15.2	0.00e+00	0	42	0	344981504	11	4467
2026-01-03 02:42:10.39	16.27	12.67	-25.9	-27.7	15.3	0.00e+00	0	42	0	350224384	11	4443
2026-01-03 02:42:11.39	16.25	12.77	-25.9	-27.7	15.3	0.00e+00	0	42	0	356515840	11	4459
2026-01-03 02:42:12.40	16.23	12.87	-26.0	-28.0	15.2	0.00e+00	0	42	0	361758720	11	4522
2026-01-03 02:42:13.41	16.22	12.97	-26.2	-28.0	14.7	1.10e-06	0	42	0	367001600	12	4438
2026-01-03 02:42:14.42	16.20	13.06	-26.2	-28.1	14.7	5.42e-04	0	42	0	373293056	12	4443
2026-01-03 02:42:15.43	16.18	13.16	-25.8	-27.1	15.3	0.00e+00	0	42	0	378535936	12	4175
2026-01-03 02:42:16.43	16.16	13.26	-25.7	-27.3	15.5	4.59e-04	0	42	0	384827392	11	4331
2026-01-03 02:42:17.44	16.14	13.36	-25.4	-26.7	15.9	0.00e+00	0	42	0	390070272	11	4173
2026-01-03 02:42:18.45	16.12	13.46	-25.3	-27.0	16.0	0.00e+00	0	42	0	395313152	10	4370
2026-01-03 02:42:19.46	16.10	13.56	-25.3	-26.9	16.0	0.00e+00	0	42	0	401604608	10	4343
2026-01-03 02:42:20.46	16.08	13.66	-25.3	-27.0	16.0	0.00e+00	0	42	0	406847488	10	4371
2026-01-03 02:42:21.47	16.06	13.76	-25.3	-26.9	16.0	0.00e+00	0	42	0	413138944	10	4336
2026-01-03 02:42:22.46	16.04	13.86	-25.3	-27.0	16.0	0.00e+00	0	42	0	418381824	10	4363
2026-01-03 02:42:23.47	16.02	13.96	-25.3	-26.9	16.1	6.04e-04	0	43	0	423624704	10	4333
2026-01-03 02:42:24.47	16.00	14.07	-25.3	-26.9	16.0	0.00e+00	0	42	0	429916160	10	4333
2026-01-03 02:42:25.48	15.98	14.17	-25.4	-27.2	15.8	0.00e+00	0	42	0	435159040	10	4437
2026-01-03 02:42:26.47	15.96	14.27	-25.8	-27.5	15.4	0.00e+00	0	43	0	441450496	11	4380
2026-01-03 02:42:27.47	15.94	14.37	-25.7	-27.3	15.5	0.00e+00	0	42	0	446693376	11	4349
2026-01-03 02:42:28.48	15.92	14.48	-25.5	-26.9	15.8	0.00e+00	0	42	0	451936256	11	4240
2026-01-03 02:42:29.49	15.89	14.58	-25.5	-27.0	15.7	0.00e+00	0	42	0	458227712	11	4244
2026-01-03 02:42:30.49	15.87	14.69	-25.5	-27.0	15.8	0.00e+00	0	42	0	463470592	11	4245
2026-01-03 02:42:31.50	15.85	14.79	-25.4	-27.2	15.8	0.00e+00	0	43	0	468713472	10	4440
2026-01-03 02:42:32.50	15.83	14.90	-25.5	-27.3	15.2	0.00e+00	0	42	0	475004928	10	4465
2026-01-03 02:42:33.51	15.81	15.00	-25.5	-26.9	12.4	0.00e+00	0	42	0	480247808	11	4233
2026-01-03 02:42:34.52	15.78	15.11	-25.4	-27.1	15.1	0.00e+00	0	42	0	486539264	10	4407
2026-01-03 02:42:35.53	15.76	15.22	-25.1	-26.5	16.3	0.00e+00	0	42	0	491782144	10	4226
2026-01-03 02:42:36.53	15.74	15.32	-24.9	-26.6	16.5	0.00e+00	0	42	0	498073600	9	4375
2026-01-03 02:42:37.54	15.72	15.43	-24.9	-26.6	16.5	0.00e+00	0	42	0	503316480	9	4368
2026-01-03 02:42:38.54	15.69	15.54	-24.8	-26.4	16.6	0.00e+00	0	42	0	508559360	9	4325
2026-01-03 02:42:39.54	15.67	15.65	-24.8	-26.3	16.7	1.54e-03	0	42	0	514850816	9	4290
2026-01-03 02:42:40.54	15.65	15.76	-24.9	-26.5	16.6	0.00e+00	0	43	0	520093696	9	4354
2026-01-03 02:42:41.55	15.62	15.87	-24.9	-26.0	16.6	2.18e-04	0	43	0	525336576	10	4110
2026-01-03 02:42:42.56	15.60	15.98	-24.8	-26.5	16.6	0.00e+00	0	43	0	531628032	9	4341
2026-01-03 02:42:43.56	15.57	16.09	-24.8	-26.3	16.7	0.00e+00	0	42	0	536870912	9	4300
2026-01-03 02:42:44.57	15.55	16.20	-24.6	-26.0	16.9	2.14e-04	0	43	0	542113792	9	4212
2026-01-03 02:42:45.57	15.52	16.31	-24.6	-25.9	17.0	1.66e-03	0	42	0	548405248	9	4175
2026-01-03 02:42:46.58	15.50	16.43	-24.6	-25.9	16.9	1.60e-03	0	42	0	553648128	9	4198
2026-01-03 02:42:47.59	15.47	16.54	-24.6	-25.9	17.0	0.00e+00	0	43	0	559939584	9	4174
2026-01-03 02:42:48.59	15.45	16.65	-24.4	-25.5	17.1	1.50e-03	0	42	0	565182464	9	4094
2026-01-03 02:42:49.60	15.42	16.77	-24.4	-26.0	17.2	1.49e-03	0	42	0	571473920	8	4312
2026-01-03 02:42:50.61	15.40	16.88	-24.4	-26.0	17.2	1.90e-04	0	43	0	576716800	8	4318
2026-01-03 02:42:51.61	15.37	17.00	-24.3	-25.8	17.3	1.51e-03	0	43	0	581959680	8	4276
2026-01-03 02:42:52.61	15.35	17.11	-24.3	-25.9	17.3	1.62e-03	0	43	0	588251136	8	4285
2026-01-03 02:42:53.62	15.32	17.23	-24.3	-25.7	17.3	2.16e-04	0	43	0	593494016	8	4240
2026-01-03 02:42:54.62	15.29	17.34	-24.2	-25.5	17.5	1.48e-03	0	43	0	599785472	8	4188
2026-01-03 02:42:55.63	15.27	17.46	-24.2	-25.5	17.5	1.53e-03	0	42	0	605028352	8	4193
2026-01-03 02:42:56.64	15.24	17.58	-24.1	-25.2	17.6	2.16e-04	0	43	0	610271232	8	4119
2026-01-03 02:42:57.65	15.21	17.70	-24.0	-25.1	17.7	1.56e-03	0	43	0	616562688	8	4085
2026-01-03 02:42:58.65	15.18	17.82	-24.0	-25.2	17.6	1.42e-03	0	42	0	621805568	8	4115
2026-01-03 02:42:59.65	15.16	17.93	-24.0	-25.2	17.6	2.09e-04	0	43	0	627048448	8	4117
2026-01-03 02:43:00.66	15.13	18.06	-24.1	-25.3	17.5	1.48e-03	0	43	0	633339904	8	4151
2026-01-03 02:43:01.67	15.10	18.18	-24.0	-25.0	17.7	0.00e+00	0	43	0	638582784	8	4068
2026-01-03 02:43:02.67	15.07	18.30	-23.8	-25.3	17.8	1.92e-04	0	43	0	644874240	7	4252
2026-01-03 02:43:03.67	15.04	18.42	-23.9	-25.3	17.9	0.00e+00	0	43	0	650117120	7	4257
2026-01-03 02:43:04.68	15.01	18.54	-23.8	-25.1	17.9	1.43e-03	0	43	0	656408576	7	4202
2026-01-03 02:43:05.69	14.98	18.66	-23.8	-25.3	17.9	0.00e+00	0	43	0	661651456	7	4244
2026-01-03 02:43:06.69	14.95	18.79	-23.8	-25.2	17.9	0.00e+00	0	43	0	666894336	7	4213
2026-01-03 02:43:07.70	14.92	18.91	-23.7	-24.9	18.0	1.38e-03	0	43	0	673185792	7	4161
2026-01-03 02:43:08.70	14.89	19.04	-23.7	-25.0	18.0	0.00e+00	0	43	0	678428672	7	4180
2026-01-03 02:43:09.71	14.86	19.16	-23.7	-25.0	18.0	1.31e-03	0	43	0	683671552	7	4181
2026-01-03 02:43:10.71	14.83	19.29	-23.7	-24.9	18.0	0.00e+00	0	43	0	689963008	7	4158
2026-01-03 02:43:11.72	14.80	19.41	-23.8	-25.1	17.9	0.00e+00	0	43	0	695205888	7	4211
2026-01-03 02:43:12.73	14.77	19.54	-23.8	-25.2	17.9	0.00e+00	0	43	0	701497344	7	4222
2026-01-03 02:43:13.73	14.74	19.67	-23.8	-25.2	17.9	0.00e+00	0	43	0	706740224	7	4228
2026-01-03 02:43:14.73	14.71	19.80	-24.1	-25.2	17.7	0.00e+00	0	43	0	711983104	8	4122
2026-01-03 02:43:15.74	14.68	19.93	-24.2	-25.6	17.5	0.00e+00	0	43	0	718274560	8	4213
2026-01-03 02:43:16.75	14.64	20.06	-24.3	-25.8	17.3	8.47e-04	0	43	0	723517440	8	4280
2026-01-03 02:43:17.76	14.61	20.19	-24.7	-26.0	17.0	0.00e+00	0	43	0	729808896	9	4202
2026-01-03 02:43:18.76	14.58	20.32	-24.8	-26.3	16.9	0.00e+00	0	43	0	735051776	9	4290
2026-01-03 02:43:19.77	14.54	20.45	-24.8	-26.3	16.9	0.00e+00	0	43	0	740294656	9	4277
2026-01-03 02:43:20.77	14.51	20.59	-24.8	-26.3	16.9	0.00e+00	0	43	0	746586112	9	4293
2026-01-03 02:43:21.77	14.48	20.72	-24.7	-26.1	17.0	3.16e-04	0	43	0	751828992	9	4241
2026-01-03 02:43:22.78	14.44	20.85	-25.0	-26.4	16.6	0.00e+00	0	43	0	758120448	10	4185
2026-01-03 02:43:23.79	14.41	20.99	-24.7	-25.7	17.0	0.00e+00	0	43	0	763363328	10	4019
2026-01-03 02:43:24.80	14.37	21.12	-24.3	-25.8	17.4	0.00e+00	0	43	0	768606208	8	4282
2026-01-03 02:43:25.80	14.34	21.26	-24.5	-26.1	17.2	3.66e-04	0	43	0	774897664	8	4350
2026-01-03 02:43:26.81	14.30	21.40	-24.3	-25.2	17.4	0.00e+00	0	43	0	780140544	9	4016
2026-01-03 02:43:27.82	14.26	21.54	-24.0	-25.1	17.8	3.46e-04	0	43	0	786432000	8	4086
2026-01-03 02:43:28.83	14.23	21.67	-23.9	-24.8	17.9	3.01e-04	0	43	0	791674880	8	4019
2026-01-03 02:43:29.84	14.19	21.81	-23.7	-25.0	18.1	0.00e+00	0	43	0	796917760	7	4174
2026-01-03 02:43:30.84	14.15	21.95	-23.8	-25.1	18.0	3.20e-04	0	43	0	803209216	7	4197
2026-01-03 02:43:31.84	14.11	22.09	-23.5	-24.6	18.3	0.00e+00	0	43	0	808452096	7	4077
2026-01-03 02:43:32.85	14.08	22.24	-23.3	-24.1	18.5	0.00e+00	0	43	0	814743552	7	3958
2026-01-03 02:43:33.85	14.04	22.38	-23.3	-24.5	18.6	3.54e-04	0	43	0	819986432	6	4168
2026-01-03 02:43:34.86	14.00	22.52	-23.3	-24.5	18.6	3.35e-04	0	43	0	825229312	6	4171
2026-01-03 02:43:35.87	13.96	22.67	-23.3	-24.7	18.5	0.00e+00	0	43	0	831520768	6	4215
2026-01-03 02:43:36.88	13.92	22.81	-23.2	-24.4	18.7	3.89e-04	0	43	0	836763648	6	4146
2026-01-03 02:43:37.87	13.88	22.95	-23.2	-24.4	18.6	4.27e-04	0	43	0	843055104	6	4149
2026-01-03 02:43:38.88	13.84	23.10	-23.3	-24.7	18.6	0.00e+00	0	43	0	848297984	6	4205
2026-01-03 02:43:39.88	13.80	23.25	-23.2	-24.4	18.7	3.80e-04	0	43	0	853540864	6	4142
2026-01-03 02:43:40.89	13.76	23.40	-23.0	-24.0	18.9	4.08e-04	0	43	0	859832320	6	4048
2026-01-03 02:43:41.90	13.72	23.54	-23.1	-24.1	18.9	0.00e+00	0	43	0	865075200	6	4064
2026-01-03 02:43:42.90	13.67	23.69	-23.0	-24.1	18.9	3.95e-04	0	43	0	870318080	6	4054
2026-01-03 02:43:43.91	13.63	23.84	-23.0	-23.9	19.0	4.15e-04	0	43	0	876609536	6	4021
2026-01-03 02:43:44.92	13.59	24.00	-23.1	-24.2	18.8	0.00e+00	0	43	0	881852416	6	4076
2026-01-03 02:43:45.93	13.54	24.15	-23.0	-24.0	18.9	0.00e+00	0	43	0	888143872	6	4043
2026-01-03 02:43:46.93	13.50	24.30	-23.0	-24.0	18.9	3.67e-04	0	43	0	893386752	6	4033
2026-01-03 02:43:47.94	13.46	24.46	-23.1	-24.1	18.8	0.00e+00	0	43	0	899678208	6	4072
2026-01-03 02:43:48.95	13.41	24.61	-23.0	-24.0	18.9	3.31e-04	0	43	0	904921088	6	4038
2026-01-03 02:43:49.95	13.36	24.77	-22.9	-24.0	18.6	3.62e-04	0	43	0	910163968	6	4047
2026-01-03 02:43:50.96	13.32	24.92	-23.0	-24.1	14.1	0.00e+00	0	43	0	916455424	6	4056
2026-01-03 02:43:51.96	13.27	25.08	-23.0	-24.0	17.4	3.43e-04	0	43	0	921698304	6	4027
2026-01-03 02:43:52.96	13.23	25.24	-23.1	-24.1	18.9	0.00e+00	0	43	0	926941184	6	4072
2026-01-03 02:43:53.96	13.18	25.40	-23.0	-24.0	19.0	0.00e+00	0	43	0	933232640	6	4026
2026-01-03 02:43:54.97	13.13	25.56	-22.9	-23.8	19.0	1.02e-03	0	43	0	938475520	6	3996
2026-01-03 02:43:55.98	13.08	25.72	-23.0	-23.9	19.0	3.31e-04	0	43	0	944766976	6	4016
2026-01-03 02:43:56.98	13.03	25.88	-22.8	-23.6	19.1	9.20e-04	0	43	0	950009856	6	3951
2026-01-03 02:43:57.99	12.98	26.05	-22.9	-23.8	19.0	1.37e-05	0	43	0	955252736	6	3989
2026-01-03 02:43:58.99	12.93	26.21	-22.8	-24.0	19.2	0.00e+00	0	43	0	961544192	5	4141
2026-01-03 02:44:00.00	12.88	26.37	-22.8	-24.1	19.1	0.00e+00	0	43	0	966787072	5	4181
2026-01-03 02:44:01.00	12.83	26.54	-22.7	-23.9	19.2	3.68e-04	0	43	0	973078528	5	4132
2026-01-03 02:44:02.01	12.78	26.71	-22.8	-24.1	19.2	0.00e+00	0	43	0	978321408	5	4164
2026-01-03 02:44:03.01	12.73	26.88	-22.8	-24.1	19.1	0.00e+00	0	43	0	983564288	5	4190
2026-01-03 02:44:04.02	12.67	27.05	-22.8	-24.0	19.2	9.94e-04	0	43	0	989855744	5	4162
2026-01-03 02:44:05.03	12.62	27.22	-22.9	-24.4	19.0	0.00e+00	0	43	0	995098624	5	4244
2026-01-03 02:44:06.04	12.57	27.39	-22.9	-24.3	19.0	8.96e-04	0	43	0	1001390080	5	4227
2026-01-03 02:44:07.04	12.51	27.56	-23.1	-24.2	18.9	8.39e-04	0	43	0	1006632960	6	4079
2026-01-03 02:44:08.05	12.46	27.73	-23.4	-24.8	18.6	0.00e+00	0	43	0	1011875840	6	4253
2026-01-03 02:44:09.06	12.40	27.91	-23.0	-24.1	19.0	8.52e-04	0	43	0	1018167296	6	4057
2026-01-03 02:44:10.07	12.34	28.09	-23.2	-24.4	18.8	2.52e-04	0	43	0	1023410176	6	4150
2026-01-03 02:44:11.08	12.28	28.26	-23.3	-24.6	18.7	0.00e+00	0	43	0	1029701632	6	4196
2026-01-03 02:44:12.08	12.23	28.44	-23.0	-24.0	19.0	7.74e-04	0	43	0	1034944512	6	4045
2026-01-03 02:44:13.09	12.17	28.62	-22.8	-23.6	19.2	7.70e-04	0	43	0	1040187392	6	3935
2026-01-03 02:44:14.10	12.11	28.80	-22.8	-23.6	19.2	0.00e+00	0	43	0	1046478848	6	3937
2026-01-03 02:44:15.10	12.05	28.98	-22.9	-23.7	19.1	7.55e-04	0	43	0	1051721728	6	3975
2026-01-03 02:44:16.11	11.99	29.16	-22.7	-23.8	19.3	8.03e-04	0	43	0	1058013184	5	4107
2026-01-03 02:44:17.12	11.92	29.35	-22.8	-24.1	19.2	0.00e+00	0	43	0	1063256064	5	4188
2026-01-03 02:44:18.13	11.86	29.53	-22.7	-23.9	19.3	7.44e-04	0	43	0	1069547520	5	4113
2026-01-03 02:44:19.13	11.80	29.72	-22.6	-23.6	19.4	0.00e+00	0	43	0	1074790400	5	4053
2026-01-03 02:44:20.14	11.73	29.91	-22.6	-23.6	19.4	0.00e+00	0	43	0	1080033280	5	4060
2026-01-03 02:44:21.14	11.67	30.09	-22.6	-23.7	19.4	0.00e+00	0	43	0	1086324736	5	4075
2026-01-03 02:44:22.15	11.60	30.28	-22.7	-23.9	19.3	7.29e-04	0	43	0	1091567616	5	4118
2026-01-03 02:44:23.15	11.54	30.47	-22.6	-23.8	19.4	0.00e+00	0	43	0	1096810496	5	4091
2026-01-03 02:44:24.15	11.47	30.66	-22.7	-23.9	19.3	0.00e+00	0	43	0	1103101952	5	4117
2026-01-03 02:44:25.16	11.40	30.86	-22.8	-24.1	19.2	7.38e-04	0	43	0	1108344832	5	4188
2026-01-03 02:44:26.17	11.33	31.05	-22.6	-23.7	19.4	0.00e+00	0	43	0	1114636288	5	4067
2026-01-03 02:44:27.18	11.26	31.25	-22.5	-23.4	19.6	6.76e-04	0	43	0	1119879168	5	4003
2026-01-03 02:44:28.19	11.19	31.45	-22.4	-23.3	19.7	0.00e+00	0	43	0	1125122048	5	3968
2026-01-03 02:44:29.19	11.12	31.64	-22.3	-22.9	19.8	0.00e+00	0	43	0	1131413504	5	3894
2026-01-03 02:44:30.20	11.05	31.84	-22.2	-22.9	19.8	0.00e+00	0	43	0	1136656384	5	3882
2026-01-03 02:44:31.20	10.97	32.04	-22.3	-23.1	19.8	0.00e+00	0	43	0	1142947840	5	3918
2026-01-03 02:44:32.21	10.90	32.25	-22.1	-22.6	20.0	0.00e+00	0	43	0	1148190720	5	3805
2026-01-03 02:44:33.21	10.82	32.45	-22.0	-22.3	20.1	0.00e+00	0	43	0	1153433600	5	3751
2026-01-03 02:44:34.21	10.75	32.65	-22.0	-22.8	20.1	6.35e-04	0	43	0	1159725056	4	3977
2026-01-03 02:44:35.22	10.67	32.86	-22.0	-22.8	20.1	0.00e+00	0	43	0	1164967936	4	3973
2026-01-03 02:44:36.23	10.59	33.07	-22.0	-22.9	20.1	0.00e+00	0	43	0	1171259392	4	4001
2026-01-03 02:44:37.24	10.51	33.28	-22.0	-23.0	20.1	0.00e+00	0	43	0	1176502272	4	4005
2026-01-03 02:44:38.24	10.43	33.49	-22.1	-23.2	20.0	0.00e+00	0	43	0	1181745152	4	4055
2026-01-03 02:44:39.25	10.35	33.70	-22.2	-23.3	19.9	0.00e+00	0	43	0	1188036608	4	4079
2026-01-03 02:44:40.25	10.26	33.91	-22.3	-23.5	19.8	0.00e+00	0	43	0	1193279488	4	4147
2026-01-03 02:44:41.26	10.18	34.13	-22.2	-23.4	19.9	0.00e+00	0	43	0	1198522368	4	4108
2026-01-03 02:44:42.26	10.10	34.34	-22.2	-23.4	19.9	0.00e+00	0	43	0	1204813824	4	4105
2026-01-03 02:44:43.26	10.01	34.56	-22.1	-23.1	20.0	0.00e+00	0	43	0	1210056704	4	4033
2026-01-03 02:44:44.27	9.92	34.78	-22.1	-23.1	20.0	0.00e+00	0	43	0	1216348160	4	4032
2026-01-03 02:44:45.28	9.83	35.00	-22.1	-23.1	20.0	0.00e+00	0	43	0	1221591040	4	4040
2026-01-03 02:44:46.29	9.74	35.22	-21.8	-22.5	20.3	0.00e+00	0	43	0	1227882496	4	3888
2026-01-03 02:44:47.29	9.65	35.44	-21.7	-22.2	20.4	0.00e+00	0	43	0	1233125376	4	3835
2026-01-03 02:44:48.30	9.56	35.67	-21.7	-22.3	20.4	0.00e+00	0	43	0	1238368256	4	3844
2026-01-03 02:44:49.31	9.46	35.89	-21.8	-22.4	20.4	0.00e+00	0	43	0	1244659712	4	3879
2026-01-03 02:44:50.31	9.37	36.12	-22.1	-23.0	20.1	0.00e+00	0	43	0	1249902592	4	4019
2026-01-03 02:44:51.32	9.27	36.35	-22.0	-22.8	20.2	0.00e+00	0	43	0	1256194048	4	3973
2026-01-03 02:44:52.32	9.17	36.58	-22.0	-22.9	20.1	0.00e+00	0	43	0	1261436928	4	3987
2026-01-03 02:44:53.32	9.07	36.81	-22.0	-22.8	20.2	0.00e+00	0	43	0	1266679808	4	3980
2026-01-03 02:44:54.33	8.97	37.05	-21.9	-22.8	20.2	0.00e+00	0	43	0	1272971264	4	3960
2026-01-03 02:44:55.34	8.87	37.28	-22.0	-22.8	20.2	0.00e+00	0	43	0	1278214144	4	3970
2026-01-03 02:44:56.35	8.76	37.52	-21.9	-22.6	20.3	0.00e+00	0	43	0	1283457024	4	3918
2026-01-03 02:44:57.35	8.66	37.76	-21.9	-22.6	20.3	0.00e+00	0	43	0	1289748480	4	3924
2026-01-03 02:44:58.35	8.55	38.00	-22.0	-22.8	20.1	0.00e+00	0	43	0	1294991360	4	3977
2026-01-03 02:44:59.36	8.44	38.24	-22.0	-22.9	20.2	0.00e+00	0	43	0	1301282816	4	3998
2026-01-03 02:45:00.36	8.33	38.48	-22.3	-23.4	19.9	0.00e+00	0	43	0	1306525696	4	4116
2026-01-03 02:45:01.37	8.22	38.73	-22.3	-23.6	19.7	0.00e+00	0	43	0	1311768576	4	4163
2026-01-03 02:45:02.37	8.10	38.97	-22.5	-23.9	19.7	0.00e+00	0	43	0	1318060032	4	4247
2026-01-03 02:45:03.38	7.99	39.22	-22.6	-23.7	19.5	0.00e+00	0	43	0	1323302912	5	4076
2026-01-03 02:45:04.38	7.87	39.47	-22.5	-23.5	19.6	0.00e+00	0	43	0	1329594368	5	4022
2026-01-03 02:45:05.39	7.75	39.72	-22.2	-22.8	20.0	0.00e+00	0	43	0	1334837248	5	3862
2026-01-03 02:45:06.39	7.63	39.97	-22.1	-23.1	20.1	0.00e+00	0	43	0	1340080128	4	4029
2026-01-03 02:45:07.39	7.50	40.23	-22.2	-23.3	20.0	0.00e+00	0	43	0	1346371584	4	4072
2026-01-03 02:45:08.39	7.38	40.48	-22.3	-23.5	19.9	0.00e+00	0	43	0	1351614464	4	4140
2026-01-03 02:45:09.39	7.25	40.74	-22.4	-23.8	19.7	0.00e+00	0	43	0	1356857344	4	4202
2026-01-03 02:45:10.40	7.12	41.00	-22.6	-23.6	19.6	1.64e-04	0	43	0	1363148800	5	4047
2026-01-03 02:45:11.40	6.99	41.26	-22.8	-24.1	19.4	0.00e+00	0	43	0	1368391680	5	4170
2026-01-03 02:45:12.40	6.85	41.52	-22.9	-24.3	19.3	2.68e-04	0	43	0	1374683136	5	4217
2026-01-03 02:45:13.41	6.72	41.79	-22.7	-23.9	19.5	0.00e+00	0	43	0	1379926016	5	4136
2026-01-03 02:45:14.42	6.58	42.06	-22.8	-24.0	19.4	5.85e-04	0	43	0	1386217472	5	4142
2026-01-03 02:45:15.43	6.44	42.33	-22.8	-24.0	19.4	0.00e+00	0	43	0	1391460352	5	4153
2026-01-03 02:45:16.43	6.29	42.60	-22.7	-23.9	19.5	0.00e+00	0	43	0	1396703232	5	4117
2026-01-03 02:45:17.44	6.14	42.87	-22.7	-23.9	19.5	0.00e+00	0	43	0	1402994688	5	4118
2026-01-03 02:45:18.45	5.99	43.14	-22.7	-23.8	19.5	0.00e+00	0	43	0	1408237568	5	4099
2026-01-03 02:45:19.45	5.84	43.42	-22.5	-23.3	19.8	3.33e-04	0	43	0	1413480448	5	3981
2026-01-03 02:45:20.46	5.69	43.70	-22.5	-23.5	19.7	0.00e+00	0	43	0	1419771904	5	4031
2026-01-03 02:45:21.47	5.53	43.98	-22.7	-23.8	19.5	8.54e-04	0	43	0	1425014784	5	4107
2026-01-03 02:45:22.48	5.37	44.26	-22.7	-23.9	19.5	0.00e+00	0	43	0	1431306240	5	4115
2026-01-03 02:45:23.47	5.21	44.54	-22.7	-23.8	19.5	5.50e-04	0	43	0	1436549120	5	4106
2026-01-03 02:45:24.48	5.04	44.82	-22.6	-23.7	19.6	2.16e-04	0	43	0	1442840576	5	4060
2026-01-03 02:45:25.49	4.87	45.11	-22.6	-23.7	19.6	0.00e+00	0	43	0	1448083456	5	4078
2026-01-03 02:45:26.50	4.70	45.40	-22.8	-24.2	19.4	7.98e-04	0	43	0	1453326336	5	4185
2026-01-03 02:45:27.51	4.52	45.69	-22.9	-24.3	19.3	0.00e+00	0	43	0	1459617792	5	4218
2026-01-03 02:45:28.51	4.35	45.98	-22.8	-24.0	19.4	2.20e-06	0	43	0	1464860672	5	4160
2026-01-03 02:45:29.52	4.16	46.28	-22.5	-23.4	19.8	0.00e+00	0	43	0	1471152128	5	4009
2026-01-03 02:45:30.53	3.98	46.58	-22.4	-23.2	19.9	8.24e-04	0	43	0	1476395008	5	3952
2026-01-03 02:45:31.53	3.79	46.87	-22.5	-23.5	19.7	0.00e+00	0	43	0	1481637888	5	4029
2026-01-03 02:45:32.54	3.59	47.17	-22.5	-23.5	19.7	7.21e-04	0	43	0	1487929344	5	4015
2026-01-03 02:45:33.54	3.40	47.47	-22.4	-23.2	19.9	7.68e-04	0	43	0	1493172224	5	3951
2026-01-03 02:45:34.54	3.20	47.77	-22.5	-23.5	19.7	0.00e+00	0	43	0	1498415104	5	4021
2026-01-03 02:45:35.55	2.99	48.08	-22.6	-23.6	19.6	8.73e-04	0	43	0	1504706560	5	4058
2026-01-03 02:45:36.56	2.78	48.38	-22.5	-23.5	19.7	0.00e+00	0	43	0	1509949440	5	4014
2026-01-03 02:45:37.57	2.57	48.69	-22.6	-23.7	19.6	0.00e+00	0	43	0	1516240896	5	4066
2026-01-03 02:45:38.57	2.35	49.00	-22.6	-23.7	19.6	1.03e-03	0	43	0	1521483776	5	4056
2026-01-03 02:45:39.58	2.13	49.31	-22.7	-23.8	19.6	9.98e-04	0	43	0	1527775232	5	4086
2026-01-03 02:45:40.58	1.90	49.62	-23.0	-24.1	19.3	0.00e+00	0	43	0	1533018112	6	4047
2026-01-03 02:45:41.59	1.67	49.94	-23.2	-24.3	19.1	1.00e-03	0	43	0	1538260992	6	4103
2026-01-03 02:45:42.60	1.43	50.26	-23.3	-24.6	19.0	1.11e-03	0	43	0	1544552448	6	4185
2026-01-03 02:45:43.60	1.19	50.57	-23.3	-24.6	19.0	0.00e+00	0	43	0	1549795328	6	4175
2026-01-03 02:45:44.61	0.94	50.89	-23.3	-24.5	19.0	1.08e-03	0	43	0	1555038208	6	4158
2026-01-03 02:45:45.62	0.69	51.22	-23.5	-24.5	18.8	0.00e+00	0	43	0	1561329664	7	4050
2026-01-03 02:45:46.63	0.43	51.54	-23.9	-25.3	18.3	0.00e+00	0	43	0	1566572544	7	4255
2026-01-03 02:45:47.64	0.17	51.87	-24.0	-25.2	18.2	0.00e+00	0	43	0	1572864000	8	4096
2026-01-03 02:45:48.65	359.89	52.19	-23.7	-24.4	18.6	1.15e-03	0	43	0	1578106880	8	3908
2026-01-03 02:45:49.66	359.62	52.52	-23.5	-24.1	18.8	0.00e+00	0	43	0	1583349760	8	3834
2026-01-03 02:45:50.67	359.33	52.85	-23.7	-24.9	18.6	0.00e+00	0	43	0	1589641216	7	4147
2026-01-03 02:45:51.67	359.05	53.18	-23.8	-25.2	18.4	1.08e-03	0	43	0	1594884096	7	4225
2026-01-03 02:45:52.67	358.75	53.51	-23.9	-25.4	18.3	0.00e+00	0	43	0	1601175552	7	4278
2026-01-03 02:45:53.67	358.45	53.84	-23.7	-24.5	18.6	8.90e-04	0	43	0	1606418432	8	3935
2026-01-03 02:45:54.68	358.14	54.18	-23.6	-24.8	18.6	0.00e+00	0	43	0	1612709888	7	4116
2026-01-03 02:45:55.67	357.83	54.51	-23.8	-25.1	18.5	0.00e+00	0	43	0	1617952768	7	4184
2026-01-03 02:45:56.69	357.50	54.85	-23.7	-25.0	18.6	0.00e+00	0	43	0	1623195648	7	4154
2026-01-03 02:45:57.70	357.17	55.19	-24.0	-25.5	18.3	0.00e+00	0	43	0	1629487104	7	4301
2026-01-03 02:45:58.70	356.83	55.53	-23.9	-25.0	18.3	0.00e+00	0	43	0	1634729984	8	4043
2026-01-03 02:45:59.71	356.48	55.87	-23.7	-24.5	18.6	0.00e+00	0	43	0	1639972864	8	3924
2026-01-03 02:46:00.72	356.12	56.22	-23.4	-24.3	18.9	4.46e-05	0	43	0	1646264320	7	3987
2026-01-03 02:46:01.72	355.75	56.56	-23.4	-24.3	18.9	0.00e+00	0	43	0	1651507200	7	3979
2026-01-03 02:46:02.73	355.38	56.90	-23.4	-24.3	18.9	0.00e+00	0	43	0	1657798656	7	3988
2026-01-03 02:46:03.74	354.99	57.25	-23.2	-23.8	19.1	0.00e+00	0	43	0	1663041536	7	3875
2026-01-03 02:46:04.75	354.59	57.59	-23.1	-23.6	19.3	0.00e+00	0	43	0	1668284416	7	3830
2026-01-03 02:46:05.76	354.18	57.94	-23.1	-24.1	19.3	0.00e+00	0	43	0	1674575872	6	4055
2026-01-03 02:46:06.77	353.77	58.29	-22.8	-23.4	19.6	0.00e+00	0	43	0	1679818752	6	3895
2026-01-03 02:46:07.77	353.34	58.64	-22.6	-23.1	19.7	0.00e+00	0	43	0	1686110208	6	3825
2026-01-03 02:46:08.78	352.90	58.99	-23.1	-24.1	19.3	0.00e+00	0	43	0	1691353088	6	4056
2026-01-03 02:46:09.78	352.45	59.33	-22.9	-23.8	19.4	0.00e+00	0	43	0	1697644544	6	3990
2026-01-03 02:46:10.79	351.98	59.68	-22.8	-23.5	19.6	0.00e+00	0	43	0	1702887424	6	3903
2026-01-03 02:46:11.79	351.51	60.03	-23.0	-23.9	19.4	0.00e+00	0	43	0	1708130304	6	4001
2026-01-03 02:46:12.80	351.02	60.38	-23.0	-24.0	19.3	0.00e+00	0	43	0	1714421760	6	4029
2026-01-03 02:46:13.81	350.51	60.73	-23.2	-24.4	19.1	0.00e+00	0	43	0	1719664640	6	4138
2026-01-03 02:46:14.82	349.99	61.08	-23.1	-24.1	19.2	0.00e+00	0	43	0	1724907520	6	4064
2026-01-03 02:46:15.82	349.46	61.43	-22.7	-23.3	19.7	0.00e+00	0	43	0	1731198976	6	3854
2026-01-03 02:46:16.83	348.91	61.78	-22.8	-23.6	19.5	0.00e+00	0	43	0	1736441856	6	3928
2026-01-03 02:46:17.84	348.35	62.13	-23.0	-23.9	19.4	0.00e+00	0	43	0	1742733312	6	4015
2026-01-03 02:46:18.85	347.77	62.47	-22.9	-23.8	19.5	0.00e+00	0	43	0	1747976192	6	3975
2026-01-03 02:46:19.85	347.17	62.82	-22.8	-23.6	19.5	0.00e+00	0	43	0	1753219072	6	3938
2026-01-03 02:46:20.86	346.56	63.17	-22.8	-23.5	19.6	0.00e+00	0	43	0	1759510528	6	3905
2026-01-03 02:46:21.87	345.92	63.51	-23.6	-24.8	18.7	0.00e+00	0	43	0	1764753408	7	4105
2026-01-03 02:46:22.88	345.27	63.85	-23.5	-24.5	18.8	0.00e+00	0	43	0	1771044864	7	4051
2026-01-03 02:46:23.87	344.61	64.19	-22.9	-23.3	19.4	0.00e+00	0	43	0	1776287744	7	3771
2026-01-03 02:46:24.88	343.91	64.53	-22.5	-22.9	19.9	0.00e+00	0	43	0	1782579200	6	3764
2026-01-03 02:46:25.89	343.20	64.87	-22.1	-22.5	20.3	0.00e+00	0	43	0	1787822080	5	3796
2026-01-03 02:46:26.89	342.47	65.20	-21.8	-22.5	20.5	0.00e+00	0	43	0	1793064960	4	3905
2026-01-03 02:46:27.90	341.71	65.54	-21.9	-22.7	20.5	0.00e+00	0	43	0	1799356416	4	3943
2026-01-03 02:46:28.91	340.93	65.87	-21.6	-22.0	20.8	0.00e+00	0	43	0	1804599296	4	3775
2026-01-03 02:46:29.91	340.13	66.20	-21.4	-21.6	21.0	0.00e+00	0	43	0	1809842176	4	3683
2026-01-03 02:46:30.92	339.30	66.52	-21.7	-22.7	20.7	0.00e+00	0	43	0	1816133632	3	4050
2026-01-03 02:46:31.93	338.44	66.85	-21.4	-22.0	21.1	0.00e+00	0	43	0	1821376512	3	3892
2026-01-03 02:46:32.93	337.56	67.16	-21.4	-22.2	21.0	0.00e+00	0	43	0	1827667968	3	3933
2026-01-03 02:46:33.94	336.65	67.48	-21.7	-22.7	20.8	0.00e+00	0	43	0	1832910848	3	4051
2026-01-03 02:46:34.94	335.72	67.78	-21.6	-22.6	20.8	0.00e+00	0	43	0	1838153728	3	4042
2026-01-03 02:46:35.95	334.75	68.09	-21.2	-21.7	21.3	0.00e+00	0	43	0	1844445184	3	3815
2026-01-03 02:46:36.96	333.76	68.39	-21.2	-21.7	21.3	0.00e+00	0	43	0	1849688064	3	3816
2026-01-03 02:46:37.96	332.74	68.68	-21.3	-21.9	21.2	0.00e+00	0	43	0	1855979520	3	3869
2026-01-03 02:46:38.96	331.69	68.97	-21.2	-21.8	21.2	0.00e+00	0	43	0	1861222400	3	3839
2026-01-03 02:46:39.96	330.61	69.25	-21.6	-22.5	20.9	0.00e+00	0	43	0	1866465280	3	3999
2026-01-03 02:46:40.97	329.49	69.53	-21.6	-22.6	20.8	0.00e+00	0	43	0	1872756736	3	4032
2026-01-03 02:46:41.98	328.33	69.80	-21.5	-22.3	21.0	0.00e+00	0	43	0	1877999616	3	3951
2026-01-03 02:46:42.99	327.14	70.07	-21.6	-22.4	20.9	0.00e+00	0	43	0	1884291072	3	3989
2026-01-03 02:46:44.00	325.92	70.32	-21.8	-22.9	20.7	0.00e+00	0	43	0	1889533952	3	4106
2026-01-03 02:46:45.00	324.68	70.57	-21.8	-23.0	20.6	0.00e+00	0	43	0	1894776832	3	4138
2026-01-03 02:46:46.01	323.39	70.81	-21.5	-22.3	21.0	0.00e+00	0	43	0	1901068288	3	3950
2026-01-03 02:46:47.01	322.08	71.04	-21.7	-22.7	20.8	0.00e+00	0	43	0	1906311168	3	4049
2026-01-03 02:46:48.02	320.72	71.26	-21.4	-22.2	21.0	2.20e-06	0	43	0	1912602624	3	3939
2026-01-03 02:46:49.03	319.32	71.48	-21.5	-22.4	20.9	0.00e+00	0	43	0	1917845504	3	3977
2026-01-03 02:46:50.03	317.91	71.68	-21.4	-22.2	21.0	2.97e-05	0	43	0	1923088384	3	3929
2026-01-03 02:46:51.04	316.45	71.87	-21.3	-22.0	21.2	0.00e+00	0	43	0	1929379840	3	3874
2026-01-03 02:46:52.04	314.98	72.05	-21.4	-22.1	21.1	0.00e+00	0	43	0	1934622720	3	3896
2026-01-03 02:46:53.04	313.47	72.21	-21.8	-22.9	20.7	0.00e+00	0	43	0	1940914176	3	4089
2026-01-03 02:46:54.04	311.93	72.37	-21.6	-22.6	20.8	2.91e-04	0	43	0	1946157056	3	4031
2026-01-03 02:46:55.05	310.35	72.52	-21.3	-21.9	21.2	0.00e+00	0	43	0	1951399936	3	3856
2026-01-03 02:46:56.05	308.76	72.65	-21.2	-21.7	21.3	0.00e+00	0	43	0	1957691392	3	3811
2026-01-03 02:46:57.07	307.11	72.77	-21.5	-22.3	21.0	0.00e+00	0	43	0	1962934272	3	3944
2026-01-03 02:46:58.07	305.47	72.87	-21.7	-22.7	20.8	0.00e+00	0	43	0	1969225728	3	4053
2026-01-03 02:46:59.08	303.80	72.97	-21.6	-22.6	20.8	0.00e+00	0	43	0	1974468608	3	4033
2026-01-03 02:47:00.09	302.11	73.04	-21.4	-22.1	21.1	0.00e+00	0	43	0	1979711488	3	3896
2026-01-03 02:47:01.10	300.40	73.11	-21.6	-22.6	20.9	1.40e-04	0	43	0	1986002944	3	4019
2026-01-03 02:47:02.11	298.68	73.16	-21.4	-22.2	21.0	3.86e-04	0	43	0	1991245824	3	3931
2026-01-03 02:47:03.11	296.97	73.19	-21.2	-21.7	21.2	8.37e-04	0	43	0	1996488704	3	3828
2026-01-03 02:47:04.11	295.25	73.21	-21.3	-21.8	21.2	0.00e+00	0	43	0	2002780160	3	3850
2026-01-03 02:47:05.12	293.51	73.22	-21.6	-22.5	20.9	0.00e+00	0	43	0	2008023040	3	4008
2026-01-03 02:47:06.13	291.78	73.21	-21.7	-22.8	20.8	7.48e-04	0	43	0	2014314496	3	4071
2026-01-03 02:47:07.14	290.04	73.19	-21.7	-22.7	20.8	0.00e+00	0	43	0	2019557376	3	4058
2026-01-03 02:47:08.14	288.33	73.15	-21.4	-22.1	21.1	7.19e-04	0	43	0	2025848832	3	3913
2026-01-03 02:47:09.15	286.61	73.10	-21.4	-22.1	21.1	8.01e-04	0	43	0	2031091712	3	3898
2026-01-03 02:47:10.16	284.91	73.03	-21.5	-22.4	20.9	0.00e+00	0	43	0	2036334592	3	3979
2026-01-03 02:47:11.17	283.22	72.95	-21.4	-22.0	21.1	1.00e-03	0	43	0	2042626048	3	3892
2026-01-03 02:47:12.17	281.56	72.86	-21.6	-22.5	20.9	2.36e-04	0	43	0	2047868928	3	3992
2026-01-03 02:47:13.18	279.91	72.75	-21.4	-22.1	21.1	1.69e-04	0	43	0	2054160384	3	3907
2026-01-03 02:47:14.18	278.30	72.63	-21.4	-22.1	21.1	0.00e+00	0	43	0	2059403264	3	3905
2026-01-03 02:47:15.19	276.69	72.49	-21.6	-22.6	20.8	1.02e-03	0	43	0	2064646144	3	4027
2026-01-03 02:47:16.19	275.13	72.35	-21.3	-21.9	21.2	1.48e-04	0	43	0	2070937600	3	3851
2026-01-03 02:47:17.19	273.60	72.19	-21.2	-21.8	21.2	0.00e+00	0	43	0	2076180480	3	3831
2026-01-03 02:47:18.20	272.08	72.02	-21.2	-21.6	21.3	9.28e-04	0	43	0	2081423360	3	3802
2026-01-03 02:47:19.20	270.61	71.84	-21.3	-22.0	21.1	1.79e-04	0	43	0	2087714816	3	3880
2026-01-03 02:47:20.21	269.15	71.64	-21.4	-22.1	21.0	6.56e-04	0	43	0	2092957696	3	3913
2026-01-03 02:47:21.22	267.73	71.44	-21.4	-22.0	21.1	0.00e+00	0	43	0	2099249152	3	3890
2026-01-03 02:47:22.22	266.36	71.23	-21.2	-21.6	21.3	6.63e-05	0	43	0	2104492032	3	3788
2026-01-03 02:47:23.23	265.00	71.00	-21.3	-21.9	21.2	0.00e+00	0	43	0	2110783488	3	3858
2026-01-03 02:47:24.23	263.70	70.77	-21.5	-22.4	20.9	1.37e-05	0	43	0	2116026368	3	3984
2026-01-03 02:47:25.23	262.42	70.53	-21.5	-22.3	20.9	0.00e+00	0	43	0	2121269248	3	3966
2026-01-03 02:47:26.23	261.18	70.28	-21.4	-22.2	21.0	0.00e+00	0	43	0	2127560704	3	3938
2026-01-03 02:47:27.24	259.96	70.02	-21.2	-21.8	21.2	1.17e-03	0	43	0	2132803584	3	3836
2026-01-03 02:47:28.24	258.79	69.76	-21.4	-22.2	21.0	2.01e-04	0	43	0	2138046464	3	3927
2026-01-03 02:47:29.24	257.65	69.49	-21.5	-22.4	20.9	0.00e+00	0	43	0	2144337920	3	3976
2026-01-03 02:47:30.25	256.53	69.21	-21.6	-22.5	20.9	0.00e+00	0	43	0	2149580800	3	3993
2026-01-03 02:47:31.26	255.44	68.92	-21.3	-21.9	21.1	1.62e-04	0	43	0	2154823680	3	3858
2026-01-03 02:47:32.27	254.39	68.63	-21.1	-21.9	21.4	0.00e+00	0	43	0	2161115136	2	3977
2026-01-03 02:47:33.28	253.37	68.34	-21.1	-21.9	21.3	1.36e-04	0	43	0	2166358016	2	3971
2026-01-03 02:47:34.29	252.37	68.03	-21.4	-22.6	21.0	0.00e+00	0	43	0	2172649472	2	4146
2026-01-03 02:47:35.30	251.41	67.72	-21.5	-22.5	20.8	0.00e+00	0	43	0	2177892352	3	4000
2026-01-03 02:47:36.30	250.48	67.42	-21.1	-21.6	21.3	0.00e+00	0	43	0	2184183808	3	3790
2026-01-03 02:47:37.31	249.58	67.10	-21.1	-21.9	21.4	0.00e+00	0	43	0	2189426688	2	3971
2026-01-03 02:47:38.32	248.69	66.78	-21.3	-22.4	21.1	0.00e+00	0	43	0	2194669568	2	4104
2026-01-03 02:47:39.31	247.86	66.46	-21.5	-22.4	20.9	0.00e+00	0	43	0	2200961024	3	3982
2026-01-03 02:47:40.32	247.03	66.13	-21.5	-22.3	20.9	1.41e-04	0	43	0	2206203904	3	3955
2026-01-03 02:47:41.33	246.23	65.80	-21.5	-22.3	21.0	0.00e+00	0	43	0	2212495360	3	3952
2026-01-03 02:47:42.34	245.45	65.47	-21.5	-22.3	20.9	1.11e-04	0	43	0	2217738240	3	3962
2026-01-03 02:47:43.34	244.70	65.14	-21.6	-22.6	20.8	0.00e+00	0	43	0	2222981120	3	4031
2026-01-03 02:47:44.35	243.96	64.80	-21.5	-22.3	20.9	0.00e+00	0	43	0	2229272576	3	3962
2026-01-03 02:47:45.35	243.26	64.46	-21.5	-22.4	20.9	0.00e+00	0	43	0	2234515456	3	3982
2026-01-03 02:47:46.35	242.57	64.12	-21.8	-22.9	20.6	0.00e+00	0	43	0	2239758336	3	4093
2026-01-03 02:47:47.37	241.89	63.78	-21.8	-23.0	20.6	0.00e+00	0	43	0	2246049792	3	4114
2026-01-03 02:47:48.37	241.25	63.44	-21.6	-22.6	20.8	0.00e+00	0	43	0	2251292672	3	4022
2026-01-03 02:47:49.38	240.62	63.09	-21.8	-23.0	20.6	0.00e+00	0	43	0	2257584128	3	4114
2026-01-03 02:47:50.37	240.01	62.75	-21.8	-23.1	20.6	0.00e+00	0	43	0	2262827008	3	4135
2026-01-03 02:47:51.38	239.42	62.40	-21.8	-23.0	20.6	0.00e+00	0	43	0	2269118464	3	4123
2026-01-03 02:47:52.39	238.84	62.05	-21.8	-22.9	20.7	0.00e+00	0	43	0	2274361344	3	4083
2026-01-03 02:47:53.39	238.28	61.70	-22.0	-22.8	20.4	0.00e+00	0	43	0	2279604224	4	3956
2026-01-03 02:47:54.39	237.73	61.36	-22.2	-23.4	20.1	0.00e+00	0	43	0	2285895680	4	4106
2026-01-03 02:47:55.40	237.20	61.01	-22.4	-23.7	19.9	0.00e+00	0	43	0	2291138560	4	4190
2026-01-03 02:47:56.40	236.69	60.66	-22.3	-23.5	20.0	0.00e+00	0	43	0	2296381440	4	4143
2026-01-03 02:47:57.41	236.18	60.31	-22.4	-23.8	19.9	0.00e+00	0	43	0	2302672896	4	4215
2026-01-03 02:47:58.42	235.69	59.95	-22.5	-23.9	19.8	0.00e+00	0	43	0	2307915776	4	4231
2026-01-03 02:47:59.42	235.22	59.61	-22.6	-23.6	19.7	0.00e+00	0	43	0	2313158656	5	4044
2026-01-03 02:48:00.41	234.77	59.26	-22.6	-23.7	19.7	0.00e+00	0	43	0	2319450112	5	4070
2026-01-03 02:48:01.43	234.31	58.91	-22.5	-23.3	19.9	0.00e+00	0	43	0	2324692992	5	3975
2026-01-03 02:48:02.43	233.87	58.56	-22.4	-23.2	19.9	0.00e+00	0	43	0	2330984448	5	3944
2026-01-03 02:48:03.44	233.44	58.21	-22.3	-23.0	20.0	0.00e+00	0	43	0	2336227328	5	3903
2026-01-03 02:48:04.44	233.03	57.87	-22.2	-22.8	14.1	0.00e+00	0	43	0	2342518784	5	3874
2026-01-03 02:48:05.45	232.62	57.52	-22.4	-23.1	13.9	0.00e+00	0	43	0	2347761664	5	3926
2026-01-03 02:48:06.45	232.23	57.17	-22.6	-23.6	19.6	0.00e+00	0	43	0	2353004544	5	4049
2026-01-03 02:48:07.46	231.84	56.83	-22.7	-23.8	19.3	7.28e-04	0	43	0	2359296000	5	4100
2026-01-03 02:48:08.47	231.47	56.48	-22.8	-23.9	19.4	0.00e+00	0	43	0	2364538880	5	4125
2026-01-03 02:48:09.47	231.10	56.14	-22.8	-24.0	19.5	0.00e+00	0	43	0	2370830336	5	4142
2026-01-03 02:48:10.48	230.75	55.79	-22.9	-24.3	19.4	0.00e+00	0	43	0	2376073216	5	4219
2026-01-03 02:48:11.49	230.40	55.45	-23.1	-24.1	19.2	0.00e+00	0	43	0	2381316096	6	4064
2026-01-03 02:48:12.50	230.05	55.11	-23.3	-24.6	19.0	0.00e+00	0	43	0	2387607552	6	4178
2026-01-03 02:48:13.50	229.72	54.77	-23.4	-24.3	18.9	0.00e+00	0	43	0	2392850432	7	3984
2026-01-03 02:48:14.50	229.40	54.43	-23.2	-24.0	19.0	3.09e-04	0	43	0	2398093312	7	3916
2026-01-03 02:48:15.51	229.08	54.10	-23.2	-23.8	19.1	0.00e+00	0	43	0	2404384768	7	3875
2026-01-03 02:48:16.52	228.77	53.76	-23.1	-24.2	19.2	2.91e-04	0	43	0	2409627648	6	4071
2026-01-03 02:48:17.52	228.47	53.43	-23.0	-24.0	19.2	0.00e+00	0	43	0	2415919104	6	4046
2026-01-03 02:48:18.53	228.18	53.09	-22.9	-23.8	19.4	0.00e+00	0	43	0	2421161984	6	3974
2026-01-03 02:48:19.54	227.89	52.76	-22.9	-23.9	19.3	2.13e-04	0	43	0	2427453440	6	4000
2026-01-03 02:48:20.54	227.61	52.43	-23.0	-23.9	19.3	0.00e+00	0	43	0	2432696320	6	4010
2026-01-03 02:48:21.55	227.33	52.10	-22.7	-23.4	19.5	0.00e+00	0	43	0	2437939200	6	3884
2026-01-03 02:48:22.55	227.06	51.78	-22.6	-23.1	19.7	0.00e+00	0	43	0	2444230656	6	3808
2026-01-03 02:48:23.56	226.80	51.45	-22.7	-23.2	19.6	2.40e-04	0	43	0	2449473536	6	3847
2026-01-03 02:48:24.56	226.54	51.13	-22.7	-23.3	19.5	0.00e+00	0	43	0	2454716416	6	3869
2026-01-03 02:48:25.57	226.29	50.80	-22.6	-23.1	19.7	2.15e-04	0	43	0	2461007872	6	3815
2026-01-03 02:48:26.58	226.04	50.48	-22.5	-22.9	19.8	2.82e-04	0	43	0	2466250752	6	3768
2026-01-03 02:48:27.59	225.80	50.16	-22.6	-23.0	19.7	0.00e+00	0	43	0	2472542208	6	3802
2026-01-03 02:48:28.59	225.56	49.85	-22.6	-23.1	19.6	2.25e-04	0	43	0	2477785088	6	3827
2026-01-03 02:48:29.60	225.33	49.53	-22.5	-23.0	19.7	2.28e-05	0	43	0	2483027968	6	3803
2026-01-03 02:48:30.61	225.10	49.21	-22.4	-22.8	19.8	0.00e+00	0	43	0	2489319424	6	3756
2026-01-03 02:48:31.61	224.88	48.90	-22.4	-22.8	19.8	1.10e-04	0	43	0	2494562304	6	3743
2026-01-03 02:48:32.62	224.66	48.59	-22.2	-22.8	19.7	5.70e-06	0	43	0	2500853760	5	3862
2026-01-03 02:48:33.62	224.45	48.29	-22.2	-22.7	20.1	0.00e+00	0	43	0	2506096640	5	3844
2026-01-03 02:48:34.63	224.24	47.98	-22.3	-23.0	19.9	2.36e-04	0	43	0	2512388096	5	3916
2026-01-03 02:48:35.63	224.04	47.67	-22.3	-23.0	19.9	3.09e-04	0	43	0	2517630976	5	3917
2026-01-03 02:48:36.63	223.84	47.37	-22.3	-23.0	19.9	0.00e+00	0	43	0	2522873856	5	3898
2026-01-03 02:48:37.64	223.64	47.07	-22.2	-22.9	20.0	3.09e-04	0	43	0	2529165312	5	3883
2026-01-03 02:48:38.65	223.45	46.77	-22.2	-22.9	20.0	1.02e-05	0	43	0	2534408192	5	3878
2026-01-03 02:48:39.66	223.26	46.47	-22.3	-23.0	19.9	0.00e+00	0	43	0	2539651072	5	3916
2026-01-03 02:48:40.67	223.07	46.17	-22.4	-23.2	19.8	6.21e-04	0	43	0	2545942528	5	3945
2026-01-03 02:48:41.67	222.89	45.88	-22.4	-23.3	19.8	0.00e+00	0	43	0	2551185408	5	3968
2026-01-03 02:48:42.68	222.71	45.58	-22.3	-23.0	19.9	9.95e-05	0	43	0	2557476864	5	3919
2026-01-03 02:48:43.68	222.53	45.30	-22.6	-23.5	19.6	0.00e+00	0	43	0	2562719744	5	4030
2026-01-03 02:48:44.69	222.36	45.01	-22.4	-23.2	19.8	6.18e-04	0	43	0	2567962624	5	3954
2026-01-03 02:48:45.70	222.19	44.72	-22.2	-22.7	20.1	7.55e-05	0	43	0	2574254080	5	3833
2026-01-03 02:48:46.71	222.02	44.43	-22.1	-22.5	20.1	0.00e+00	0	43	0	2579496960	5	3797
2026-01-03 02:48:47.71	221.86	44.15	-22.1	-23.2	20.0	6.75e-05	0	43	0	2585788416	4	4064
2026-01-03 02:48:48.72	221.70	43.86	-22.1	-23.1	20.1	0.00e+00	0	43	0	2591031296	4	4042
2026-01-03 02:48:49.73	221.54	43.58	-22.0	-22.9	20.2	0.00e+00	0	43	0	2597322752	4	3988
2026-01-03 02:48:50.74	221.39	43.30	-22.2	-23.2	20.0	1.10e-06	0	43	0	2602565632	4	4071
2026-01-03 02:48:51.73	221.24	43.03	-22.1	-23.1	20.1	2.05e-05	0	43	0	2607808512	4	4036
2026-01-03 02:48:52.74	221.09	42.76	-22.1	-23.1	20.1	0.00e+00	0	43	0	2614099968	4	4034
2026-01-03 02:48:53.75	220.94	42.48	-22.1	-23.2	20.0	0.00e+00	0	43	0	2619342848	4	4061
2026-01-03 02:48:54.75	220.80	42.21	-22.1	-23.2	20.0	0.00e+00	0	43	0	2624585728	4	4059
2026-01-03 02:48:55.75	220.66	41.94	-22.1	-23.2	20.1	0.00e+00	0	43	0	2630877184	4	4059
2026-01-03 02:48:56.77	220.52	41.67	-22.2	-23.3	20.0	0.00e+00	0	43	0	2636120064	4	4084
2026-01-03 02:48:57.77	220.38	41.41	-22.4	-23.7	19.7	0.00e+00	0	43	0	2641362944	4	4189
2026-01-03 02:48:58.77	220.24	41.15	-22.1	-23.1	20.1	0.00e+00	0	43	0	2647654400	4	4031
2026-01-03 02:48:59.78	220.11	40.88	-21.7	-22.3	20.4	0.00e+00	0	43	0	2652897280	4	3852
2026-01-03 02:49:00.78	219.98	40.62	-21.5	-21.9	20.6	1.10e-06	0	43	0	2659188736	4	3759
2026-01-03 02:49:01.78	219.85	40.36	-21.4	-21.7	20.7	0.00e+00	0	43	0	2664431616	4	3716
2026-01-03 02:49:02.78	219.73	40.11	-21.7	-22.7	20.6	0.00e+00	0	43	0	2670723072	3	4048
2026-01-03 02:49:03.79	219.60	39.85	-21.6	-22.5	20.6	1.10e-06	0	43	0	2675965952	3	4011
2026-01-03 02:49:04.80	219.48	39.60	-21.7	-22.8	20.5	0.00e+00	0	43	0	2681208832	3	4072
2026-01-03 02:49:05.79	219.36	39.35	-21.7	-22.9	20.5	0.00e+00	0	43	0	2687500288	3	4095
2026-01-03 02:49:06.80	219.24	39.10	-21.8	-22.9	20.5	0.00e+00	0	43	0	2692743168	3	4102
2026-01-03 02:49:07.81	219.13	38.85	-21.8	-22.9	20.4	0.00e+00	0	43	0	2697986048	3	4114
2026-01-03 02:49:08.81	219.01	38.60	-21.8	-22.9	20.4	0.00e+00	0	43	0	2704277504	3	4105
2026-01-03 02:49:09.82	218.90	38.35	-21.8	-23.0	20.4	0.00e+00	0	43	0	2709520384	3	4121
2026-01-03 02:49:10.83	218.79	38.11	-21.9	-23.2	20.3	0.00e+00	0	43	0	2715811840	3	4182
2026-01-03 02:49:11.82	218.68	37.87	-21.8	-22.9	20.4	0.00e+00	0	43	0	2721054720	3	4104
2026-01-03 02:49:12.83	218.57	37.63	-21.7	-22.8	20.5	1.10e-06	0	43	0	2726297600	3	4069
2026-01-03 02:49:13.84	218.47	37.39	-21.8	-22.9	20.4	0.00e+00	0	43	0	2732589056	3	4109
2026-01-03 02:49:14.85	218.36	37.15	-21.7	-22.8	20.4	0.00e+00	0	43	0	2737831936	3	4086
2026-01-03 02:49:15.85	218.26	36.92	-21.7	-22.8	20.5	2.20e-06	0	43	0	2744123392	3	4081
2026-01-03 02:49:16.86	218.16	36.68	-21.8	-22.9	20.4	0.00e+00	0	43	0	2749366272	3	4100
2026-01-03 02:49:17.86	218.06	36.45	-21.7	-22.8	20.5	1.94e-05	0	43	0	2754609152	3	4079
2026-01-03 02:49:18.87	217.96	36.22	-21.8	-22.9	20.4	0.00e+00	0	43	0	2760900608	3	4112
2026-01-03 02:49:19.87	217.86	35.99	-21.8	-23.0	20.4	0.00e+00	0	43	0	2766143488	3	4122
2026-01-03 02:49:20.88	217.76	35.76	-21.9	-23.2	20.3	0.00e+00	0	43	0	2772434944	3	4183
2026-01-03 02:49:21.88	217.67	35.53	-22.0	-23.3	20.2	0.00e+00	0	43	0	2777677824	3	4204
2026-01-03 02:49:22.89	217.58	35.31	-22.0	-23.0	20.1	0.00e+00	0	43	0	2782920704	4	4015
2026-01-03 02:49:23.89	217.49	35.08	-22.2	-23.4	19.9	0.00e+00	0	43	0	2789212160	4	4110
2026-01-03 02:49:24.89	217.40	34.86	-22.2	-23.3	19.9	1.94e-04	0	43	0	2794455040	4	4084
2026-01-03 02:49:25.89	217.31	34.64	-22.2	-23.3	19.9	0.00e+00	0	43	0	2799697920	4	4099
2026-01-03 02:49:26.89	217.22	34.43	-22.2	-23.3	19.9	0.00e+00	0	43	0	2805989376	4	4097
2026-01-03 02:49:27.90	217.13	34.21	-22.3	-23.6	19.7	0.00e+00	0	43	0	2811232256	4	4169
2026-01-03 02:49:28.90	217.05	33.99	-21.8	-22.9	18.7	0.00e+00	0	43	0	2817523712	4	4049
2026-01-03 02:49:29.91	216.96	33.78	-22.4	-23.7	19.6	0.00e+00	0	43	0	2822766592	4	4175
2026-01-03 02:49:30.92	216.88	33.56	-22.3	-23.5	15.6	0.00e+00	0	43	0	2828009472	4	4136
2026-01-03 02:49:31.92	216.80	33.35	-22.2	-23.3	19.6	0.00e+00	0	43	0	2834300928	4	4095
2026-01-03 02:49:32.92	216.72	33.14	-22.2	-23.4	19.8	0.00e+00	0	43	0	2839543808	4	4108
2026-01-03 02:49:33.93	216.64	32.93	-22.2	-23.3	19.9	0.00e+00	0	43	0	2845835264	4	4080
2026-01-03 02:49:34.93	216.56	32.72	-22.2	-23.2	19.9	0.00e+00	0	43	0	2851078144	4	4074
2026-01-03 02:49:35.93	216.48	32.52	-22.2	-23.3	19.9	0.00e+00	0	43	0	2856321024	4	4086
2026-01-03 02:49:36.94	216.40	32.31	-22.2	-23.3	19.9	6.42e-04	0	43	0	2862612480	4	4084
2026-01-03 02:49:37.94	216.33	32.11	-22.3	-23.5	19.8	0.00e+00	0	43	0	2867855360	4	4135
2026-01-03 02:49:38.94	216.25	31.91	-22.2	-23.3	19.9	0.00e+00	0	43	0	2873098240	4	4087
2026-01-03 02:49:39.95	216.18	31.71	-22.2	-23.3	19.9	0.00e+00	0	43	0	2879389696	4	4084
2026-01-03 02:49:40.95	216.10	31.51	-22.2	-23.4	19.8	6.63e-04	0	43	0	2884632576	4	4104
2026-01-03 02:49:41.96	216.03	31.31	-22.4	-23.6	19.7	0.00e+00	0	43	0	2890924032	4	4176
2026-01-03 02:49:42.97	215.96	31.11	-22.4	-23.6	19.7	0.00e+00	0	43	0	2896166912	4	4176
2026-01-03 02:49:43.97	215.89	30.91	-22.4	-23.7	19.7	7.24e-04	0	43	0	2902458368	4	4175
2026-01-03 02:49:44.98	215.82	30.72	-22.4	-23.7	19.7	0.00e+00	0	43	0	2907701248	4	4179
2026-01-03 02:49:45.98	215.75	30.53	-22.5	-23.9	19.6	7.53e-04	0	43	0	2912944128	4	4238
2026-01-03 02:49:46.98	215.69	30.34	-22.3	-23.6	19.7	0.00e+00	0	43	0	2919235584	4	4151
2026-01-03 02:49:47.99	215.62	30.14	-22.3	-23.4	19.8	0.00e+00	0	43	0	2924478464	4	4119
2026-01-03 02:49:49.00	215.55	29.95	-22.4	-23.7	19.6	6.67e-04	0	43	0	2929721344	4	4183
2026-01-03 02:49:50.01	215.49	29.76	-22.3	-23.4	19.8	6.74e-04	0	43	0	2936012800	4	4122
2026-01-03 02:49:51.01	215.42	29.58	-22.5	-23.4	19.5	0.00e+00	0	43	0	2941255680	5	4008
2026-01-03 02:49:52.02	215.36	29.39	-22.3	-23.0	19.8	8.78e-04	0	43	0	2947547136	5	3904
2026-01-03 02:49:53.03	215.29	29.20	-22.2	-22.7	19.9	1.00e-03	0	43	0	2952790016	5	3844
2026-01-03 02:49:54.04	215.23	29.02	-22.2	-22.9	19.8	0.00e+00	0	43	0	2958032896	5	3873
2026-01-03 02:49:55.04	215.17	28.84	-22.3	-23.0	19.8	1.16e-03	0	43	0	2964324352	5	3895
2026-01-03 02:49:56.04	215.11	28.66	-22.3	-23.0	19.7	1.27e-03	0	43	0	2969567232	5	3918
2026-01-03 02:49:57.05	215.05	28.47	-22.4	-23.8	19.6	0.00e+00	0	43	0	2975858688	4	4205
2026-01-03 02:49:58.06	214.99	28.29	-22.3	-23.6	19.7	1.20e-03	0	43	0	2981101568	4	4158
2026-01-03 02:49:59.06	214.93	28.12	-22.4	-23.7	19.6	1.17e-03	0	43	0	2986344448	4	4197
2026-01-03 02:50:00.07	214.87	27.94	-22.3	-23.6	19.7	0.00e+00	0	43	0	2992635904	4	4175
2026-01-03 02:50:01.06	214.82	27.77	-22.4	-23.7	19.6	0.00e+00	0	43	0	2997878784	4	4192
2026-01-03 02:50:02.08	214.76	27.59	-22.3	-23.5	19.7	1.22e-03	0	43	0	3004170240	4	4139
2026-01-03 02:50:03.08	214.70	27.42	-22.4	-23.6	19.6	0.00e+00	0	43	0	3009413120	4	4174
2026-01-03 02:50:04.09	214.65	27.24	-22.2	-23.4	19.8	1.25e-03	0	43	0	3014656000	4	4106
2026-01-03 02:50:05.09	214.59	27.07	-22.2	-23.3	19.8	1.29e-03	0	43	0	3020947456	4	4101
2026-01-03 02:50:06.10	214.54	26.90	-22.4	-23.6	19.6	5.60e-05	0	43	0	3026190336	4	4167
2026-01-03 02:50:07.11	214.49	26.73	-22.2	-23.2	19.8	1.20e-03	0	43	0	3031433216	4	4062
2026-01-03 02:50:08.12	214.43	26.56	-22.2	-23.2	19.8	0.00e+00	0	43	0	3037724672	4	4070
2026-01-03 02:50:09.12	214.38	26.39	-22.2	-23.3	19.8	9.38e-05	0	43	0	3042967552	4	4097
2026-01-03 02:50:10.13	214.33	26.23	-22.3	-23.5	19.7	0.00e+00	0	43	0	3049259008	4	4132
2026-01-03 02:50:11.13	214.28	26.06	-22.3	-23.5	19.7	1.45e-03	0	43	0	3054501888	4	4133
2026-01-03 02:50:12.14	214.23	25.90	-22.4	-23.6	19.6	0.00e+00	0	43	0	3060793344	4	4172
2026-01-03 02:50:13.14	214.18	25.73	-22.3	-23.6	19.6	0.00e+00	0	43	0	3066036224	4	4167
2026-01-03 02:50:14.15	214.13	25.57	-21.9	-23.3	19.3	1.29e-03	0	43	0	3071279104	4	4211
2026-01-03 02:50:15.16	214.08	25.41	-21.8	-23.2	17.8	0.00e+00	0	44	0	3077570560	4	4230
2026-01-03 02:50:16.16	214.03	25.25	-22.8	-24.0	19.2	1.27e-03	0	43	0	3082813440	5	4144
2026-01-03 02:50:17.17	213.98	25.09	-22.6	-23.6	18.3	0.00e+00	0	43	0	3088056320	6	4059
2026-01-03 02:50:18.17	213.94	24.93	-22.8	-23.6	18.6	0.00e+00	0	43	0	3094347776	6	3949
2026-01-03 02:50:19.17	213.89	24.77	-22.7	-23.4	19.2	0.00e+00	0	43	0	3099590656	6	3891
2026-01-03 02:50:20.18	213.84	24.61	-22.7	-23.9	19.2	0.00e+00	0	43	0	3105882112	5	4123
2026-01-03 02:50:21.18	213.80	24.46	-22.7	-24.0	19.2	6.80e-06	0	43	0	3111124992	5	4141
2026-01-03 02:50:22.19	213.75	24.30	-22.8	-24.0	19.1	0.00e+00	0	43	0	3116367872	5	4161
2026-01-03 02:50:23.20	213.71	24.15	-22.7	-24.0	19.2	2.63e-05	0	43	0	3122659328	5	4145
2026-01-03 02:50:24.21	213.66	23.99	-22.8	-24.1	19.1	0.00e+00	0	43	0	3127902208	5	4179
2026-01-03 02:50:25.22	213.62	23.84	-22.9	-24.3	19.0	0.00e+00	0	43	0	3134193664	5	4236
2026-01-03 02:50:26.22	213.57	23.69	-22.8	-24.1	19.1	0.00e+00	0	43	0	3139436544	5	4169
2026-01-03 02:50:27.23	213.53	23.54	-22.8	-24.0	19.1	0.00e+00	0	43	0	3145728000	5	4154
2026-01-03 02:50:28.23	213.49	23.39	-22.8	-24.0	19.1	0.00e+00	0	43	0	3150970880	5	4154
2026-01-03 02:50:29.23	213.45	23.24	-22.7	-24.0	19.1	0.00e+00	0	43	0	3156213760	5	4147
2026-01-03 02:50:30.24	213.40	23.09	-22.7	-23.8	19.2	1.38e-04	0	43	0	3162505216	5	4107
2026-01-03 02:50:31.25	213.36	22.94	-22.8	-24.1	19.1	0.00e+00	0	43	0	3167748096	5	4164
2026-01-03 02:50:32.26	213.32	22.80	-22.7	-23.9	19.2	1.85e-04	0	43	0	3172990976	5	4118
2026-01-03 02:50:33.27	213.28	22.65	-22.8	-24.0	19.1	0.00e+00	0	43	0	3179282432	5	4158
2026-01-03 02:50:34.27	213.24	22.50	-22.8	-24.0	19.1	0.00e+00	0	43	0	3184525312	5	4155
2026-01-03 02:50:35.28	213.20	22.36	-22.8	-24.1	19.1	3.01e-04	0	43	0	3190816768	5	4180
2026-01-03 02:50:36.29	213.16	22.22	-22.8	-24.1	19.1	2.69e-04	0	43	0	3196059648	5	4185
2026-01-03 02:50:37.30	213.12	22.07	-22.8	-24.2	19.0	0.00e+00	0	43	0	3201302528	5	4196
2026-01-03 02:50:38.30	213.08	21.93	-22.9	-24.2	19.0	0.00e+00	0	43	0	3207593984	5	4208
2026-01-03 02:50:39.31	213.04	21.79	-22.9	-24.3	18.9	2.20e-04	0	43	0	3212836864	5	4240
2026-01-03 02:50:40.31	213.01	21.65	-23.0	-24.0	18.8	0.00e+00	0	43	0	3219128320	6	4049
2026-01-03 02:50:41.32	212.97	21.51	-23.0	-24.0	18.9	2.30e-04	0	43	0	3224371200	6	4043
2026-01-03 02:50:42.33	212.93	21.37	-23.0	-23.9	18.9	2.44e-04	0	43	0	3230662656	6	4029
2026-01-03 02:50:43.33	212.90	21.23	-23.0	-24.1	18.8	0.00e+00	0	43	0	3235905536	6	4068
2026-01-03 02:50:44.33	212.86	21.10	-23.1	-24.2	18.7	2.10e-04	0	43	0	3241148416	6	4088
2026-01-03 02:50:45.34	212.82	20.96	-23.1	-24.2	18.7	1.62e-04	0	43	0	3247439872	6	4100
2026-01-03 02:50:46.34	212.79	20.82	-23.2	-24.4	18.6	0.00e+00	0	43	0	3252682752	6	4145
2026-01-03 02:50:47.35	212.75	20.69	-23.2	-24.4	18.6	1.54e-04	0	43	0	3257925632	6	4139
2026-01-03 02:50:48.35	212.72	20.56	-23.3	-24.7	18.4	1.62e-04	0	43	0	3264217088	6	4224
2026-01-03 02:50:49.36	212.68	20.42	-23.5	-24.6	18.3	0.00e+00	0	43	0	3269459968	7	4074
2026-01-03 02:50:50.37	212.65	20.29	-23.5	-24.6	18.3	1.88e-04	0	43	0	3274702848	7	4076
2026-01-03 02:50:51.37	212.61	20.16	-23.7	-24.9	18.1	1.91e-04	0	43	0	3280994304	7	4141
2026-01-03 02:50:52.37	212.58	20.02	-23.7	-24.9	18.1	0.00e+00	0	43	0	3286237184	7	4144
2026-01-03 02:50:53.38	212.55	19.89	-23.7	-25.0	18.0	1.69e-04	0	43	0	3292528640	7	4184
2026-01-03 02:50:54.38	212.51	19.76	-23.8	-25.1	16.8	0.00e+00	0	43	0	3297771520	7	4210
2026-01-03 02:50:55.39	212.48	19.63	-23.8	-25.2	17.8	0.00e+00	0	43	0	3304062976	7	4223
2026-01-03 02:50:56.39	212.45	19.51	-23.8	-25.1	17.9	0.00e+00	0	43	0	3309305856	7	4217
2026-01-03 02:50:57.40	212.42	19.38	-23.7	-25.0	18.0	1.77e-04	0	43	0	3314548736	7	4189
2026-01-03 02:50:58.41	212.38	19.25	-23.8	-25.1	17.9	0.00e+00	0	43	0	3320840192	7	4207
2026-01-03 02:50:59.41	212.35	19.12	-23.8	-25.2	17.9	1.62e-04	0	44	0	3326083072	7	4234
2026-01-03 02:51:00.41	212.32	19.00	-23.8	-25.2	17.9	1.14e-04	0	43	0	3331325952	7	4231
2026-01-03 02:51:01.41	212.29	18.87	-23.8	-25.2	17.9	6.04e-04	0	43	0	3337617408	7	4238
2026-01-03 02:51:02.42	212.26	18.75	-24.0	-25.6	17.7	9.15e-05	0	43	0	3342860288	7	4340
2026-01-03 02:51:03.42	212.23	18.62	-24.1	-25.4	17.5	4.94e-04	0	43	0	3348103168	8	4167
2026-01-03 02:51:04.42	212.20	18.50	-24.0	-25.1	17.7	0.00e+00	0	43	0	3354394624	8	4105
2026-01-03 02:51:05.43	212.17	18.37	-24.0	-25.0	17.7	0.00e+00	0	43	0	3359637504	8	4081
2026-01-03 02:51:06.44	212.14	18.25	-24.0	-25.2	17.7	6.29e-05	0	43	0	3365928960	8	4110
2026-01-03 02:51:07.44	212.11	18.13	-24.1	-25.3	17.6	0.00e+00	0	43	0	3371171840	8	4134
2026-01-03 02:51:08.45	212.08	18.01	-24.2	-25.5	17.5	0.00e+00	0	43	0	3377463296	8	4203
2026-01-03 02:51:09.46	212.05	17.89	-24.2	-25.5	17.4	5.14e-05	0	43	0	3382706176	8	4205
2026-01-03 02:51:10.46	212.02	17.77	-24.1	-25.3	17.6	7.48e-04	0	43	0	3387949056	8	4140
2026-01-03 02:51:11.47	211.99	17.65	-24.1	-25.3	17.5	1.94e-05	0	43	0	3394240512	8	4155
2026-01-03 02:51:12.47	211.97	17.53	-24.1	-25.4	17.5	7.28e-04	0	43	0	3399483392	8	4173
2026-01-03 02:51:13.47	211.94	17.41	-24.1	-25.4	17.5	7.90e-04	0	43	0	3405774848	8	4179
2026-01-03 02:51:14.48	211.91	17.29	-24.2	-25.6	17.4	0.00e+00	0	43	0	3411017728	8	4212
2026-01-03 02:51:15.49	211.88	17.17	-24.2	-25.6	17.4	8.37e-04	0	43	0	3416260608	8	4236
2026-01-03 02:51:16.49	211.85	17.06	-24.3	-25.7	17.3	8.98e-04	0	43	0	3422552064	8	4245
2026-01-03 02:51:17.49	211.83	16.94	-24.3	-25.8	17.3	0.00e+00	0	43	0	3427794944	8	4279
2026-01-03 02:51:18.49	211.80	16.83	-24.3	-25.8	17.2	9.88e-04	0	43	0	3433037824	8	4285
2026-01-03 02:51:19.49	211.77	16.71	-24.4	-25.9	17.2	9.42e-04	0	43	0	3439329280	8	4311
2026-01-03 02:51:20.49	211.75	16.60	-24.4	-26.1	17.1	0.00e+00	0	43	0	3444572160	8	4359
2026-01-03 02:51:21.49	211.72	16.48	-24.7	-26.2	16.8	1.03e-03	0	43	0	3450863616	9	4265
2026-01-03 02:51:22.50	211.70	16.37	-24.8	-26.4	16.7	9.18e-04	0	43	0	3456106496	9	4312
2026-01-03 02:51:23.51	211.67	16.26	-24.5	-25.8	17.0	1.02e-05	0	43	0	3461349376	9	4163
2026-01-03 02:51:24.51	211.65	16.14	-24.5	-25.6	17.1	1.08e-03	0	43	0	3467640832	9	4117
2026-01-03 02:51:25.52	211.62	16.03	-24.4	-25.6	17.1	1.05e-03	0	43	0	3472883712	9	4103
2026-01-03 02:51:26.53	211.59	15.92	-24.4	-25.6	17.1	1.02e-05	0	43	0	3479175168	9	4120
2026-01-03 02:51:27.54	211.57	15.81	-24.5	-25.8	17.0	9.30e-04	0	43	0	3484418048	9	4161
2026-01-03 02:51:28.54	211.55	15.70	-24.6	-25.9	16.9	9.72e-04	0	43	0	3489660928	9	4184
2026-01-03 02:51:29.55	211.52	15.59	-24.6	-25.8	16.9	0.00e+00	0	43	0	3495952384	9	4176
2026-01-03 02:51:30.56	211.50	15.48	-24.6	-25.9	16.9	0.00e+00	0	43	0	3501195264	9	4191
2026-01-03 02:51:31.57	211.47	15.37	-24.6	-25.9	16.9	1.12e-03	0	43	0	3506438144	9	4187
2026-01-03 02:51:32.57	211.45	15.26	-24.7	-26.1	16.8	9.10e-06	0	43	0	3512729600	9	4238
2026-01-03 02:51:33.58	211.42	15.15	-24.7	-26.2	16.7	1.11e-03	0	43	0	3517972480	9	4257
2026-01-03 02:51:34.59	211.40	15.04	-24.8	-26.3	16.7	0.00e+00	0	43	0	3524263936	9	4294
2026-01-03 02:51:35.59	211.38	14.94	-24.8	-26.5	16.6	9.10e-06	0	43	0	3529506816	9	4341
2026-01-03 02:51:36.60	211.36	14.83	-24.8	-26.4	16.6	0.00e+00	0	43	0	3535798272	9	4340
2026-01-03 02:51:37.61	211.33	14.72	-24.8	-26.5	16.5	0.00e+00	0	43	0	3541041152	9	4341
2026-01-03 02:51:38.62	211.31	14.62	-24.8	-26.4	16.6	1.25e-05	0	43	0	3546284032	9	4332
2026-01-03 02:51:39.62	211.29	14.51	-24.8	-26.3	16.6	0.00e+00	0	43	0	3552575488	9	4299
2026-01-03 02:51:40.62	211.26	14.41	-24.7	-26.2	16.7	1.04e-03	0	43	0	3557818368	9	4277
2026-01-03 02:51:41.63	211.24	14.30	-24.7	-26.2	16.7	0.00e+00	0	43	0	3564109824	9	4277
2026-01-03 02:51:42.64	211.22	14.20	-24.8	-26.4	16.6	0.00e+00	0	43	0	3569352704	9	4314
2026-01-03 02:51:43.65	211.20	14.09	-24.8	-26.4	16.6	0.00e+00	0	43	0	3574595584	9	4320
2026-01-03 02:51:44.65	211.18	13.99	-24.8	-26.3	16.6	5.70e-06	0	43	0	3580887040	9	4294
2026-01-03 02:51:45.66	211.16	13.89	-24.8	-26.3	16.6	0.00e+00	0	43	0	3586129920	9	4307
2026-01-03 02:51:46.66	211.13	13.79	-24.8	-26.4	16.5	0.00e+00	0	43	0	3591372800	9	4321
2026-01-03 02:51:47.67	211.11	13.68	-24.8	-26.3	16.6	6.80e-06	0	43	0	3597664256	9	4310
2026-01-03 02:51:48.67	211.09	13.58	-24.8	-26.3	16.6	0.00e+00	0	43	0	3602907136	9	4294
2026-01-03 02:51:49.67	211.07	13.48	-24.8	-26.4	16.5	0.00e+00	0	43	0	3609198592	9	4324
2026-01-03 02:51:50.68	211.05	13.38	-24.8	-26.4	16.5	0.00e+00	0	43	0	3614441472	9	4321
2026-01-03 02:51:51.68	211.03	13.28	-24.8	-26.3	16.5	0.00e+00	0	43	0	3620732928	9	4309
2026-01-03 02:51:52.69	211.01	13.18	-24.8	-26.3	16.5	0.00e+00	0	43	0	3625975808	9	4304
2026-01-03 02:51:53.69	210.99	13.08	-24.8	-26.4	16.5	0.00e+00	0	43	0	3631218688	9	4310
2026-01-03 02:51:54.71	210.97	12.98	-24.9	-26.5	16.4	0.00e+00	0	43	0	3637510144	9	4346
2026-01-03 02:51:55.71	210.95	12.88	-24.8	-26.4	16.5	0.00e+00	0	43	0	3642753024	9	4320
2026-01-03 02:51:56.72	210.93	12.78	-24.9	-26.5	16.4	0.00e+00	0	43	0	3647995904	9	4350
2026-01-03 02:51:57.72	210.91	12.69	-24.8	-26.4	16.4	0.00e+00	0	43	0	3654287360	9	4333
2026-01-03 02:51:58.73	210.89	12.59	-24.9	-26.6	16.4	0.00e+00	0	43	0	3659530240	9	4368
2026-01-03 02:51:59.73	210.87	12.49	-24.9	-26.5	16.4	0.00e+00	0	43	0	3665821696	9	4359
2026-01-03 02:52:00.74	210.85	12.40	-25.0	-26.7	16.3	0.00e+00	0	43	0	3671064576	9	4404
2026-01-03 02:52:01.75	210.83	12.30	-24.9	-26.2	16.3	0.00e+00	0	43	0	3676307456	10	4150
2026-01-03 02:52:02.76	210.81	12.20	-24.9	-26.1	16.3	0.00e+00	0	43	0	3682598912	10	4139
2026-01-03 02:52:03.77	210.80	12.11	-24.9	-26.2	16.3	0.00e+00	0	44	0	3687841792	10	4144
2026-01-03 02:52:04.78	210.78	12.01	-25.0	-26.8	16.2	0.00e+00	0	43	0	3694133248	9	4437
2026-01-03 02:52:05.78	210.76	11.92	-25.1	-26.4	16.1	0.00e+00	0	43	0	3699376128	10	4218
2026-01-03 02:52:06.79	210.74	11.82	-25.0	-26.4	16.2	0.00e+00	0	43	0	3705667584	10	4199
2026-01-03 02:52:07.79	210.72	11.73	-25.1	-26.5	16.1	0.00e+00	0	43	0	3710910464	10	4246
2026-01-03 02:52:08.80	210.70	11.63	-25.1	-26.6	16.1	0.00e+00	0	43	0	3716153344	10	4251
2026-01-03 02:52:09.81	210.69	11.54	-25.2	-26.7	16.0	0.00e+00	0	43	0	3722444800	10	4286
2026-01-03 02:52:10.81	210.67	11.45	-25.1	-26.6	16.0	0.00e+00	0	43	0	3727687680	10	4268
2026-01-03 02:52:11.82	210.65	11.35	-25.2	-26.7	16.0	0.00e+00	0	43	0	3732930560	10	4287
2026-01-03 02:52:12.83	210.63	11.26	-25.2	-26.7	16.0	0.00e+00	0	43	0	3739222016	10	4294
2026-01-03 02:52:13.82	210.62	11.17	-25.3	-27.0	15.8	0.00e+00	0	43	0	3744464896	10	4360
2026-01-03 02:52:14.83	210.60	11.08	-25.3	-26.9	15.9	0.00e+00	0	43	0	3750756352	10	4339
2026-01-03 02:52:15.83	210.58	10.99	-25.3	-27.0	15.8	0.00e+00	0	43	0	3755999232	10	4361
2026-01-03 02:52:16.84	210.56	10.90	-25.3	-26.9	15.8	0.00e+00	0	43	0	3761242112	10	4362
2026-01-03 02:52:17.84	210.55	10.81	-25.4	-27.2	15.7	0.00e+00	0	43	0	3767533568	10	4427
2026-01-03 02:52:18.85	210.53	10.72	-25.2	-26.7	15.7	0.00e+00	0	43	0	3772776448	10	4293
2026-01-03 02:52:19.86	210.51	10.63	-25.4	-27.2	15.2	0.00e+00	0	43	0	3779067904	10	4416
2026-01-03 02:52:20.87	210.50	10.54	-25.4	-27.2	15.1	0.00e+00	0	43	0	3784310784	10	4432
2026-01-03 02:52:21.87	210.48	10.45	-25.6	-27.1	15.3	0.00e+00	0	43	0	3789553664	11	4279
2026-01-03 02:52:22.87	210.46	10.36	-25.6	-27.3	15.3	0.00e+00	0	43	0	3795845120	11	4331
2026-01-03 02:52:23.87	210.45	10.27	-25.6	-27.2	15.4	0.00e+00	0	43	0	3801088000	11	4311
2026-01-03 02:52:24.87	210.43	10.18	-25.6	-27.1	15.4	0.00e+00	0	43	0	3807379456	11	4296
2026-01-03 02:52:25.89	210.42	10.09	-25.5	-27.0	15.4	1.12e-04	0	43	0	3812622336	11	4271
2026-01-03 02:52:26.89	210.40	10.01	-25.6	-27.2	15.3	0.00e+00	0	43	0	3817865216	11	4321
2026-01-03 02:52:27.89	210.38	9.92	-25.6	-27.2	15.4	5.70e-04	0	43	0	3824156672	11	4315
2026-01-03 02:52:28.90	210.37	9.83	-25.7	-27.4	15.2	0.00e+00	0	43	0	3829399552	11	4368
2026-01-03 02:52:29.91	210.35	9.74	-26.0	-28.1	14.8	5.90e-04	0	43	0	3835691008	11	4564
2026-01-03 02:52:30.91	210.34	9.66	-25.8	-27.7	15.0	0.00e+00	0	43	0	3840933888	11	4462
2026-01-03 02:52:31.91	210.32	9.57	-25.7	-27.4	15.2	0.00e+00	0	43	0	3846176768	11	4365
2026-01-03 02:52:32.92	210.31	9.49	-25.7	-27.3	15.2	7.67e-04	0	43	0	3852468224	11	4353
2026-01-03 02:52:33.93	210.29	9.40	-25.7	-27.5	15.1	1.10e-06	0	43	0	3857711104	11	4396
2026-01-03 02:52:34.94	210.28	9.31	-25.8	-27.6	15.0	6.17e-05	0	43	0	3864002560	11	4439
2026-01-03 02:52:35.95	210.26	9.23	-25.8	-27.5	15.1	0.00e+00	0	43	0	3869245440	11	4414
2026-01-03 02:52:36.95	210.25	9.14	-25.8	-27.7	15.0	9.19e-04	0	43	0	3874488320	11	4466
2026-01-03 02:52:37.95	210.23	9.06	-25.8	-27.5	15.1	9.49e-05	0	43	0	3880779776	11	4418
