passes_logs/2026/01/03/R2M6_AANII_01/R2M6_AANII_01__20260103_113325_SUOMI_NPP_rec.log

#Pass ID: 20260103_113325_SUOMI NPP
#Satellite: SUOMI NPP
#Configuration: NPP
#almurnet v.1.7.20240730
#Start time: 2026-01-03 11:33:27

#Version: 2.2.20231116
#Station: R2M6_AANII_01
#Location: 30.233357 lon 59.946436 lat
#TLE: 1 37849U 11061A   26001.07732418  .00000182  00000+0  10735-3 0  9990
#TLE: 2 37849  98.7795 303.2470 0002580  87.2016 272.9455 14.19520779734739

#Time	Az	El	Level	Level2	SNR	BER	BlckErr	Temp	State	Recorded	gain1	gain2
2026-01-03 11:33:27.21	197.71	7.13	-31.3	-35.7	5.0	1.26e+00	0	41	0	0	23	5920
2026-01-03 11:33:28.21	197.78	7.20	-31.4	-35.6	4.9	1.30e+00	0	41	104	0	24	5833
2026-01-03 11:33:29.21	197.85	7.27	-31.5	-35.9	7.3	1.41e-01	0	41	0	0	24	5941
2026-01-03 11:33:30.22	197.93	7.34	-31.4	-35.2	7.8	9.53e-02	0	41	0	1048576	24	5589
2026-01-03 11:33:31.23	198.00	7.41	-31.1	-34.7	8.4	5.63e-02	0	41	0	3145728	23	5476
2026-01-03 11:33:32.23	198.07	7.48	-30.9	-34.2	8.7	4.01e-02	0	41	0	5242880	23	5260
2026-01-03 11:33:33.24	198.15	7.56	-30.7	-34.1	9.0	3.27e-02	0	41	0	7340032	22	5327
2026-01-03 11:33:34.25	198.22	7.63	-30.6	-33.8	9.1	2.12e-02	0	41	0	9437184	22	5230
2026-01-03 11:33:35.25	198.29	7.70	-30.7	-34.1	8.9	2.24e-02	0	41	0	10485760	22	5364
2026-01-03 11:33:36.26	198.37	7.77	-30.6	-34.3	8.6	3.34e-02	0	41	0	12582912	22	5471
2026-01-03 11:33:37.27	198.44	7.84	-30.5	-33.4	9.4	2.25e-02	0	41	0	14680064	22	5061
2026-01-03 11:33:38.28	198.52	7.92	-30.2	-33.1	10.1	1.17e-02	0	41	0	16777216	21	4981
2026-01-03 11:33:39.28	198.59	7.99	-30.3	-33.1	10.2	6.11e-03	0	41	0	18874368	21	4982
2026-01-03 11:33:40.29	198.67	8.06	-30.3	-33.1	10.1	7.35e-03	0	41	0	19922944	21	4995
2026-01-03 11:33:41.30	198.74	8.14	-30.3	-32.9	10.4	5.12e-03	0	41	0	22020096	21	4874
2026-01-03 11:33:42.30	198.82	8.21	-30.2	-32.7	10.7	3.69e-03	0	41	0	24117248	21	4788
2026-01-03 11:33:43.30	198.90	8.28	-30.3	-32.7	10.8	2.73e-03	0	41	0	26214400	21	4786
2026-01-03 11:33:44.30	198.97	8.35	-30.4	-33.0	10.6	3.11e-03	0	41	0	28311552	21	4862
2026-01-03 11:33:45.31	199.05	8.43	-30.3	-32.5	11.1	2.07e-03	0	41	0	29360128	21	4676
2026-01-03 11:33:46.32	199.13	8.50	-30.4	-33.0	10.8	1.85e-03	0	41	0	31457280	21	4828
2026-01-03 11:33:47.32	199.21	8.58	-30.4	-33.0	10.8	3.04e-03	0	41	0	33554432	21	4849
2026-01-03 11:33:48.33	199.29	8.65	-30.3	-32.7	11.0	1.89e-03	0	41	0	35651584	21	4725
2026-01-03 11:33:49.33	199.36	8.72	-30.4	-32.8	11.0	1.61e-03	0	41	0	37748736	21	4754
2026-01-03 11:33:50.34	199.44	8.80	-30.3	-32.7	11.0	1.78e-03	0	41	0	38797312	21	4720
2026-01-03 11:33:51.34	199.52	8.87	-30.4	-32.9	10.9	2.33e-03	0	41	0	40894464	21	4803
2026-01-03 11:33:52.35	199.60	8.95	-30.5	-33.2	10.6	3.08e-03	0	41	0	42991616	21	4923
2026-01-03 11:33:53.35	199.68	9.02	-30.4	-32.9	10.9	3.08e-03	0	41	0	45088768	21	4785
2026-01-03 11:33:54.36	199.76	9.10	-30.6	-33.4	10.5	3.23e-03	0	41	0	46137344	21	4987
2026-01-03 11:33:55.36	199.85	9.17	-30.5	-33.2	10.6	4.19e-03	0	41	0	48234496	21	4929
2026-01-03 11:33:56.37	199.93	9.25	-30.5	-33.1	10.7	3.59e-03	0	41	0	50331648	21	4867
2026-01-03 11:33:57.38	200.01	9.32	-30.5	-33.3	10.5	3.39e-03	0	41	0	52428800	21	4967
2026-01-03 11:33:58.38	200.09	9.40	-30.6	-33.5	10.4	3.78e-03	0	42	0	54525952	21	5040
2026-01-03 11:33:59.38	200.17	9.48	-30.7	-34.0	10.0	7.08e-03	0	41	0	56623104	21	5264
2026-01-03 11:34:00.38	200.26	9.55	-30.5	-33.3	10.6	4.02e-03	0	41	0	57671680	21	4938
2026-01-03 11:34:01.38	200.34	9.63	-30.3	-32.7	10.9	2.86e-03	0	42	0	59768832	21	4724
2026-01-03 11:34:02.39	200.42	9.70	-30.3	-32.8	10.8	2.16e-03	0	41	0	61865984	21	4762
2026-01-03 11:34:03.40	200.51	9.78	-30.3	-32.8	10.7	2.77e-03	0	41	0	63963136	21	4794
2026-01-03 11:34:04.40	200.59	9.86	-30.2	-32.4	10.9	3.11e-03	0	42	0	65011712	21	4659
2026-01-03 11:34:05.41	200.68	9.94	-30.1	-32.1	11.1	1.83e-03	0	42	0	67108864	21	4528
2026-01-03 11:34:06.42	200.77	10.01	-30.0	-31.8	11.3	1.32e-03	0	42	0	69206016	21	4451
2026-01-03 11:34:07.42	200.85	10.09	-30.0	-31.7	11.4	9.17e-04	0	41	0	71303168	21	4412
2026-01-03 11:34:08.41	200.94	10.17	-30.0	-31.7	11.6	6.30e-04	0	42	0	73400320	21	4383
2026-01-03 11:34:09.42	201.03	10.24	-29.9	-31.5	11.7	7.54e-04	0	42	0	74448896	21	4329
2026-01-03 11:34:10.43	201.11	10.32	-29.9	-31.3	11.8	4.65e-04	0	42	0	76546048	21	4260
2026-01-03 11:34:11.44	201.20	10.40	-29.8	-31.1	12.0	4.20e-04	0	42	0	78643200	21	4189
2026-01-03 11:34:12.44	201.29	10.48	-29.8	-31.1	12.0	4.29e-04	0	42	0	80740352	21	4168
2026-01-03 11:34:13.44	201.38	10.56	-29.8	-31.7	12.0	3.26e-04	0	42	0	82837504	20	4448
2026-01-03 11:34:14.45	201.47	10.64	-29.9	-31.8	11.9	4.63e-04	0	42	0	83886080	20	4500
2026-01-03 11:34:15.45	201.56	10.72	-29.9	-31.7	12.1	2.96e-04	0	42	0	85983232	20	4446
2026-01-03 11:34:16.46	201.65	10.80	-30.0	-31.9	11.9	2.64e-04	0	42	0	88080384	20	4523
2026-01-03 11:34:17.47	201.74	10.88	-29.9	-31.8	12.1	4.26e-04	0	42	0	90177536	20	4488
2026-01-03 11:34:18.48	201.83	10.96	-29.9	-31.9	12.1	2.29e-04	0	42	0	92274688	20	4487
2026-01-03 11:34:19.48	201.92	11.03	-30.0	-31.9	12.2	3.36e-04	0	42	0	93323264	20	4498
2026-01-03 11:34:20.48	202.01	11.11	-29.9	-31.6	12.3	1.45e-04	0	42	0	95420416	20	4414
2026-01-03 11:34:21.50	202.11	11.20	-29.9	-31.7	12.3	1.88e-04	0	42	0	97517568	20	4422
2026-01-03 11:34:22.50	202.20	11.28	-29.8	-31.4	12.5	1.77e-04	0	42	0	99614720	20	4345
2026-01-03 11:34:23.51	202.30	11.36	-29.9	-31.7	12.3	1.59e-04	0	42	0	101711872	20	4415
2026-01-03 11:34:24.51	202.39	11.44	-29.9	-31.7	12.3	2.27e-04	0	42	0	102760448	20	4422
2026-01-03 11:34:25.52	202.48	11.52	-29.9	-31.8	12.3	1.44e-04	0	42	0	104857600	20	4440
2026-01-03 11:34:26.52	202.58	11.60	-30.1	-32.2	12.0	1.99e-04	0	42	0	106954752	20	4596
2026-01-03 11:34:27.52	202.67	11.68	-30.2	-32.5	11.8	6.28e-04	0	42	0	109051904	20	4708
2026-01-03 11:34:28.53	202.77	11.76	-30.2	-32.4	12.0	3.45e-04	0	42	0	111149056	20	4636
2026-01-03 11:34:29.53	202.87	11.84	-30.1	-32.3	12.0	5.46e-04	0	42	0	112197632	20	4619
2026-01-03 11:34:30.53	202.96	11.92	-30.0	-31.9	12.3	2.58e-04	0	42	0	114294784	20	4493
2026-01-03 11:34:31.54	203.06	12.01	-30.2	-32.4	12.0	2.00e-04	0	42	0	116391936	20	4649
2026-01-03 11:34:32.54	203.16	12.09	-30.1	-32.0	12.3	2.66e-04	0	42	0	118489088	20	4512
2026-01-03 11:34:33.55	203.26	12.17	-30.1	-32.1	12.2	1.88e-04	0	42	0	120586240	20	4536
2026-01-03 11:34:34.55	203.36	12.25	-30.1	-32.3	12.1	2.64e-04	0	42	0	121634816	20	4594
2026-01-03 11:34:35.56	203.46	12.34	-30.1	-32.2	12.2	3.04e-04	0	42	0	123731968	20	4576
2026-01-03 11:34:36.57	203.56	12.42	-30.1	-32.2	12.2	2.02e-04	0	42	0	125829120	20	4564
2026-01-03 11:34:37.58	203.66	12.51	-30.2	-32.3	12.1	2.17e-04	0	42	0	127926272	20	4612
2026-01-03 11:34:38.58	203.76	12.59	-30.2	-32.3	12.1	3.71e-04	0	42	0	130023424	20	4604
2026-01-03 11:34:39.58	203.86	12.67	-30.2	-32.4	12.0	2.43e-04	0	42	0	131072000	20	4643
2026-01-03 11:34:40.59	203.97	12.76	-30.1	-32.2	12.2	4.08e-04	0	42	0	133169152	20	4569
2026-01-03 11:34:41.60	204.07	12.84	-30.0	-31.7	12.5	1.39e-04	0	42	0	135266304	20	4412
2026-01-03 11:34:42.60	204.17	12.93	-29.8	-31.3	12.8	6.10e-05	0	42	0	137363456	20	4269
2026-01-03 11:34:43.61	204.28	13.01	-29.8	-31.2	12.8	7.09e-05	0	42	0	139460608	20	4243
2026-01-03 11:34:44.62	204.38	13.10	-29.9	-31.5	12.7	8.01e-05	0	42	0	140509184	20	4317
2026-01-03 11:34:45.62	204.49	13.18	-30.0	-31.9	12.4	1.17e-04	0	42	0	142606336	20	4459
2026-01-03 11:34:46.63	204.60	13.27	-30.0	-31.8	12.5	6.63e-05	0	42	0	144703488	20	4444
2026-01-03 11:34:47.64	204.70	13.35	-30.0	-31.9	12.4	1.21e-04	0	42	0	146800640	20	4456
2026-01-03 11:34:48.64	204.81	13.44	-30.0	-31.9	12.4	1.69e-04	0	42	0	148897792	20	4462
2026-01-03 11:34:49.65	204.92	13.52	-29.8	-31.3	12.8	7.17e-05	0	43	0	149946368	20	4271
2026-01-03 11:34:50.66	205.03	13.61	-29.7	-30.8	13.2	3.58e-05	0	42	0	152043520	20	4117
2026-01-03 11:34:51.67	205.14	13.70	-29.6	-30.7	13.2	1.98e-05	0	42	0	154140672	20	4072
2026-01-03 11:34:52.67	205.25	13.78	-29.6	-30.7	13.3	2.44e-05	0	43	0	156237824	20	4078
2026-01-03 11:34:53.68	205.36	13.87	-29.4	-30.2	13.6	1.98e-05	0	42	0	158334976	20	3939
2026-01-03 11:34:54.68	205.47	13.96	-29.4	-30.1	13.6	1.06e-05	0	42	0	159383552	20	3896
2026-01-03 11:34:55.68	205.58	14.04	-29.5	-30.5	13.4	9.10e-06	0	42	0	161480704	20	4012
2026-01-03 11:34:56.69	205.69	14.13	-29.5	-30.4	13.4	1.52e-05	0	43	0	163577856	20	3997
2026-01-03 11:34:57.69	205.80	14.22	-29.5	-30.4	13.5	1.22e-05	0	42	0	165675008	20	3995
2026-01-03 11:34:58.69	205.92	14.31	-29.6	-30.7	13.3	1.83e-05	0	42	0	167772160	20	4083
2026-01-03 11:34:59.70	206.03	14.40	-29.7	-31.0	13.1	1.22e-05	0	42	0	168820736	20	4182
2026-01-03 11:35:00.70	206.15	14.48	-29.8	-31.2	13.0	3.28e-05	0	43	0	170917888	20	4222
2026-01-03 11:35:01.71	206.26	14.57	-30.1	-31.9	12.5	4.80e-05	0	42	0	173015040	20	4466
2026-01-03 11:35:02.72	206.38	14.66	-30.0	-31.6	12.7	8.77e-05	0	42	0	175112192	20	4360
2026-01-03 11:35:03.72	206.49	14.75	-29.8	-31.2	12.9	7.01e-05	0	42	0	177209344	20	4240
2026-01-03 11:35:04.73	206.61	14.84	-29.9	-31.3	12.9	6.71e-05	0	42	0	178257920	20	4273
2026-01-03 11:35:05.72	206.73	14.93	-29.9	-31.4	12.9	3.50e-05	0	42	0	180355072	20	4292
2026-01-03 11:35:06.73	206.85	15.02	-29.9	-31.4	12.9	4.73e-05	0	42	0	182452224	20	4299
2026-01-03 11:35:07.74	206.97	15.11	-29.8	-31.1	13.1	5.95e-05	0	42	0	184549376	20	4209
2026-01-03 11:35:08.74	207.09	15.20	-29.7	-31.0	13.2	2.21e-05	0	42	0	186646528	20	4151
2026-01-03 11:35:09.75	207.21	15.29	-29.8	-31.2	13.0	2.74e-05	0	42	0	187695104	20	4224
2026-01-03 11:35:10.75	207.33	15.38	-29.7	-30.8	13.3	3.50e-05	0	42	0	189792256	20	4113
2026-01-03 11:35:11.76	207.45	15.47	-29.5	-30.3	13.6	1.14e-05	0	42	0	191889408	20	3951
2026-01-03 11:35:12.77	207.58	15.56	-29.5	-30.2	13.7	9.90e-06	0	42	0	193986560	20	3930
2026-01-03 11:35:13.78	207.70	15.65	-29.6	-30.6	13.5	1.67e-05	0	43	0	196083712	20	4031
2026-01-03 11:35:14.78	207.83	15.74	-29.6	-30.6	13.5	8.30e-06	0	43	0	197132288	20	4041
2026-01-03 11:35:15.79	207.95	15.84	-29.6	-30.6	13.4	6.80e-06	0	43	0	199229440	20	4044
2026-01-03 11:35:16.79	208.08	15.93	-29.6	-30.7	13.4	1.60e-05	0	43	0	201326592	20	4074
2026-01-03 11:35:17.80	208.20	16.02	-29.6	-30.5	13.5	1.67e-05	0	42	0	203423744	20	4007
2026-01-03 11:35:18.81	208.33	16.11	-29.6	-30.6	13.4	1.83e-05	0	43	0	204472320	20	4049
2026-01-03 11:35:19.82	208.46	16.20	-29.7	-30.9	13.3	2.21e-05	0	43	0	206569472	20	4129
2026-01-03 11:35:20.82	208.59	16.30	-29.7	-30.9	13.3	1.83e-05	0	42	0	208666624	20	4119
2026-01-03 11:35:21.83	208.72	16.39	-29.7	-31.0	13.3	2.05e-05	0	43	0	210763776	20	4144
2026-01-03 11:35:22.83	208.85	16.48	-29.8	-31.1	13.2	2.05e-05	0	43	0	212860928	20	4190
2026-01-03 11:35:23.84	208.98	16.58	-29.8	-31.0	13.3	2.05e-05	0	43	0	214958080	20	4169
2026-01-03 11:35:24.85	209.12	16.67	-29.9	-31.4	13.0	3.58e-05	0	43	0	216006656	20	4267
2026-01-03 11:35:25.85	209.25	16.76	-30.0	-31.6	12.8	4.80e-05	0	43	0	218103808	20	4345
2026-01-03 11:35:26.85	209.38	16.86	-30.1	-31.8	12.8	5.64e-05	0	42	0	220200960	20	4417
2026-01-03 11:35:27.86	209.52	16.95	-30.0	-31.7	12.9	3.43e-05	0	43	0	222298112	20	4371
2026-01-03 11:35:28.87	209.65	17.05	-30.1	-31.9	12.6	9.07e-05	0	42	0	224395264	20	4448
2026-01-03 11:35:29.87	209.79	17.14	-30.0	-31.6	12.8	7.93e-05	0	43	0	225443840	20	4357
2026-01-03 11:35:30.87	209.93	17.24	-30.0	-31.7	12.8	8.08e-05	0	43	0	227540992	20	4385
2026-01-03 11:35:31.88	210.06	17.33	-30.1	-32.0	12.6	7.55e-05	0	43	0	229638144	20	4456
2026-01-03 11:35:32.89	210.20	17.43	-30.0	-31.7	12.9	4.11e-05	0	43	0	231735296	20	4360
2026-01-03 11:35:33.89	210.34	17.52	-29.8	-31.0	13.3	1.52e-05	0	43	0	232783872	20	4148
2026-01-03 11:35:34.90	210.48	17.62	-30.0	-31.5	12.9	2.74e-05	0	43	0	234881024	20	4316
2026-01-03 11:35:35.90	210.62	17.71	-29.9	-31.2	13.1	3.58e-05	0	43	0	236978176	20	4227
2026-01-03 11:35:36.91	210.77	17.81	-29.7	-30.9	13.3	1.67e-05	0	43	0	239075328	20	4134
2026-01-03 11:35:37.91	210.91	17.91	-29.9	-31.3	13.1	1.98e-05	0	43	0	241172480	20	4242
2026-01-03 11:35:38.92	211.05	18.00	-29.9	-31.4	13.1	3.66e-05	0	43	0	243269632	20	4264
2026-01-03 11:35:39.92	211.20	18.10	-30.0	-31.6	12.9	3.12e-05	0	43	0	244318208	20	4344
2026-01-03 11:35:40.93	211.35	18.20	-30.0	-31.7	12.8	4.04e-05	0	43	0	246415360	20	4375
2026-01-03 11:35:41.93	211.49	18.29	-30.1	-31.8	12.8	6.63e-05	0	43	0	248512512	20	4414
2026-01-03 11:35:42.94	211.64	18.39	-30.2	-32.1	12.6	5.79e-05	0	43	0	250609664	20	4499
2026-01-03 11:35:43.93	211.79	18.49	-30.1	-31.9	12.8	6.56e-05	0	43	0	251658240	20	4427
2026-01-03 11:35:44.94	211.94	18.58	-30.0	-31.6	12.9	8.39e-05	0	43	0	253755392	20	4349
2026-01-03 11:35:45.94	212.09	18.68	-30.0	-31.7	12.9	7.40e-05	0	43	0	255852544	20	4377
2026-01-03 11:35:46.95	212.24	18.78	-30.1	-31.9	12.7	6.33e-05	0	43	0	257949696	20	4440
2026-01-03 11:35:47.95	212.39	18.88	-30.1	-31.8	12.8	5.18e-05	0	43	0	260046848	20	4404
2026-01-03 11:35:48.96	212.54	18.98	-30.1	-31.9	12.8	7.17e-05	0	43	0	261095424	20	4432
2026-01-03 11:35:49.96	212.70	19.08	-30.4	-32.7	12.3	9.68e-05	0	43	0	263192576	20	4702
2026-01-03 11:35:50.96	212.85	19.17	-30.2	-32.3	12.5	1.80e-04	0	43	0	265289728	20	4558
2026-01-03 11:35:51.97	213.01	19.27	-30.4	-32.9	12.1	1.72e-04	0	43	0	267386880	20	4772
2026-01-03 11:35:52.98	213.17	19.37	-30.4	-32.6	12.3	1.51e-04	0	43	0	269484032	20	4669
2026-01-03 11:35:53.98	213.32	19.47	-30.3	-32.5	12.4	1.72e-04	0	43	0	270532608	20	4616
2026-01-03 11:35:54.99	213.48	19.57	-30.3	-32.4	12.4	1.50e-04	0	43	0	272629760	20	4607
2026-01-03 11:35:55.99	213.64	19.67	-30.3	-32.5	12.4	1.72e-04	0	43	0	274726912	20	4626
2026-01-03 11:35:57.00	213.81	19.77	-30.2	-32.3	12.5	1.09e-04	0	43	0	276824064	20	4555
2026-01-03 11:35:58.00	213.97	19.87	-30.2	-32.1	12.7	7.09e-05	0	43	0	278921216	20	4479
2026-01-03 11:35:59.01	214.13	19.97	-30.2	-32.0	12.7	5.64e-05	0	43	0	279969792	20	4464
2026-01-03 11:36:00.01	214.29	20.07	-30.2	-32.1	12.7	6.56e-05	0	43	0	282066944	20	4498
2026-01-03 11:36:01.02	214.46	20.17	-30.1	-31.9	12.8	6.02e-05	0	43	0	284164096	20	4420
2026-01-03 11:36:02.03	214.63	20.28	-30.5	-32.9	12.2	1.23e-04	0	43	0	286261248	20	4758
2026-01-03 11:36:03.03	214.79	20.38	-30.3	-32.4	12.5	1.37e-04	0	43	0	288358400	20	4581
2026-01-03 11:36:04.04	214.96	20.48	-30.2	-32.0	12.8	6.48e-05	0	43	0	289406976	20	4453
2026-01-03 11:36:05.04	215.13	20.58	-30.1	-31.9	12.8	7.70e-05	0	43	0	291504128	20	4404
2026-01-03 11:36:06.05	215.30	20.68	-30.2	-32.1	12.7	6.48e-05	0	43	0	293601280	20	4487
2026-01-03 11:36:07.05	215.48	20.78	-30.1	-31.8	12.9	3.73e-05	0	43	0	295698432	20	4371
2026-01-03 11:36:08.06	215.65	20.89	-30.0	-31.5	13.1	3.89e-05	0	43	0	297795584	20	4278
2026-01-03 11:36:09.07	215.82	20.99	-30.0	-31.5	13.1	2.59e-05	0	43	0	298844160	20	4294
2026-01-03 11:36:10.08	216.00	21.09	-30.0	-31.5	13.2	1.90e-05	0	43	0	300941312	20	4282
2026-01-03 11:36:11.08	216.18	21.19	-29.9	-31.3	13.2	2.05e-05	0	43	0	303038464	20	4228
2026-01-03 11:36:12.09	216.35	21.30	-29.7	-30.7	13.6	7.60e-06	0	43	0	305135616	20	4041
2026-01-03 11:36:13.09	216.53	21.40	-29.4	-29.9	14.2	4.50e-06	0	43	0	307232768	20	3807
2026-01-03 11:36:14.10	216.71	21.50	-29.3	-30.1	14.4	7.00e-07	0	43	0	308281344	19	3959
2026-01-03 11:36:15.11	216.90	21.60	-29.2	-30.0	14.4	1.50e-06	0	43	0	310378496	19	3920
2026-01-03 11:36:16.12	217.08	21.71	-29.2	-30.0	14.5	7.00e-07	0	43	0	312475648	19	3917
2026-01-03 11:36:17.12	217.26	21.81	-29.2	-30.0	14.5	0.00e+00	0	43	0	314572800	19	3918
2026-01-03 11:36:18.12	217.44	21.91	-29.2	-29.9	14.6	0.00e+00	0	43	0	316669952	19	3912
2026-01-03 11:36:19.12	217.63	22.02	-29.3	-30.3	14.3	2.20e-06	0	43	0	317718528	19	3997
2026-01-03 11:36:20.13	217.82	22.12	-29.4	-30.3	14.3	2.20e-06	0	43	0	319815680	19	4009
2026-01-03 11:36:21.13	218.00	22.22	-29.3	-30.0	14.5	7.00e-07	0	43	0	321912832	19	3934
2026-01-03 11:36:22.14	218.19	22.33	-29.3	-30.2	14.4	2.20e-06	0	43	0	324009984	19	3994
2026-01-03 11:36:23.15	218.39	22.43	-29.4	-30.3	14.4	2.20e-06	0	43	0	326107136	19	4011
2026-01-03 11:36:24.16	218.58	22.54	-29.1	-29.5	14.8	1.50e-06	0	43	0	327155712	19	3785
2026-01-03 11:36:25.17	218.77	22.64	-29.2	-29.9	14.6	1.50e-06	0	43	0	329252864	19	3891
2026-01-03 11:36:26.17	218.97	22.74	-29.3	-30.1	14.5	0.00e+00	0	43	0	331350016	19	3957
2026-01-03 11:36:27.18	219.16	22.85	-28.9	-29.2	15.0	0.00e+00	0	43	0	333447168	19	3728
2026-01-03 11:36:28.19	219.36	22.95	-28.9	-29.1	15.1	0.00e+00	0	43	0	335544320	19	3674
2026-01-03 11:36:29.20	219.56	23.06	-28.9	-29.0	15.1	0.00e+00	0	43	0	336592896	19	3667
2026-01-03 11:36:30.20	219.76	23.16	-28.9	-29.0	15.2	0.00e+00	0	43	0	338690048	19	3668
2026-01-03 11:36:31.21	219.96	23.27	-28.9	-29.2	15.1	0.00e+00	0	43	0	340787200	19	3694
2026-01-03 11:36:32.21	220.16	23.37	-29.3	-30.0	14.5	0.00e+00	0	43	0	342884352	19	3931
2026-01-03 11:36:33.21	220.36	23.48	-28.9	-29.1	15.1	0.00e+00	0	43	0	344981504	19	3681
2026-01-03 11:36:34.22	220.57	23.58	-28.8	-29.5	15.3	0.00e+00	0	43	0	346030080	18	3861
2026-01-03 11:36:35.23	220.78	23.69	-28.9	-29.5	15.2	0.00e+00	0	43	0	348127232	18	3887
2026-01-03 11:36:36.24	220.99	23.79	-29.0	-29.8	15.0	0.00e+00	0	43	0	350224384	18	3960
2026-01-03 11:36:37.24	221.19	23.90	-29.3	-30.6	14.6	0.00e+00	0	43	0	352321536	18	4175
2026-01-03 11:36:38.24	221.40	24.00	-29.2	-30.3	14.7	7.00e-07	0	43	0	354418688	18	4098
2026-01-03 11:36:39.25	221.62	24.11	-29.3	-30.6	14.5	7.00e-07	0	43	0	355467264	18	4187
2026-01-03 11:36:40.26	221.83	24.21	-29.3	-30.7	14.5	3.00e-06	0	43	0	357564416	18	4205
2026-01-03 11:36:41.27	222.05	24.32	-29.2	-30.2	14.8	7.00e-07	0	43	0	359661568	18	4078
2026-01-03 11:36:42.27	222.26	24.42	-29.2	-30.3	14.8	1.50e-06	0	43	0	361758720	18	4080
2026-01-03 11:36:43.28	222.48	24.53	-29.3	-30.5	14.6	0.00e+00	0	43	0	363855872	18	4163
2026-01-03 11:36:44.28	222.70	24.63	-29.0	-29.9	15.0	0.00e+00	0	43	0	364904448	18	3986
2026-01-03 11:36:45.29	222.92	24.74	-28.9	-29.6	15.2	0.00e+00	0	43	0	367001600	18	3887
2026-01-03 11:36:46.30	223.14	24.84	-29.1	-30.1	14.9	0.00e+00	0	43	0	369098752	18	4028
2026-01-03 11:36:47.30	223.36	24.95	-29.1	-30.1	14.8	0.00e+00	0	43	0	371195904	18	4040
2026-01-03 11:36:48.31	223.59	25.05	-28.8	-29.3	15.3	0.00e+00	0	43	0	373293056	18	3816
2026-01-03 11:36:49.32	223.81	25.16	-28.8	-29.3	15.3	0.00e+00	0	43	0	374341632	18	3821
2026-01-03 11:36:50.32	224.04	25.26	-28.9	-29.6	15.1	0.00e+00	0	43	0	376438784	18	3913
2026-01-03 11:36:51.32	224.27	25.37	-29.2	-30.4	14.7	0.00e+00	0	43	0	378535936	18	4122
2026-01-03 11:36:52.33	224.50	25.47	-29.2	-30.3	14.8	1.50e-06	0	43	0	380633088	18	4087
2026-01-03 11:36:53.34	224.73	25.58	-29.4	-30.9	14.4	0.00e+00	0	43	0	382730240	18	4259
2026-01-03 11:36:54.34	224.96	25.68	-29.5	-30.5	14.3	1.50e-06	0	43	0	383778816	19	4061
2026-01-03 11:36:55.35	225.20	25.79	-29.3	-30.1	14.6	0.00e+00	0	43	0	385875968	19	3949
2026-01-03 11:36:56.35	225.44	25.89	-29.3	-30.0	14.7	0.00e+00	0	43	0	387973120	19	3908
2026-01-03 11:36:57.36	225.67	25.99	-29.3	-30.0	14.7	1.50e-06	0	43	0	390070272	19	3904
2026-01-03 11:36:58.37	225.92	26.10	-29.2	-29.7	14.8	7.00e-07	0	43	0	392167424	19	3848
2026-01-03 11:36:59.38	226.16	26.20	-29.2	-29.7	14.8	0.00e+00	0	43	0	393216000	19	3841
2026-01-03 11:37:00.38	226.40	26.31	-29.2	-29.7	14.8	0.00e+00	0	43	0	395313152	19	3833
2026-01-03 11:37:01.39	226.64	26.41	-29.1	-29.5	15.0	0.00e+00	0	43	0	397410304	19	3785
2026-01-03 11:37:02.39	226.89	26.51	-29.2	-29.8	14.8	0.00e+00	0	43	0	399507456	19	3864
2026-01-03 11:37:03.40	227.14	26.62	-29.3	-30.0	14.7	0.00e+00	0	43	0	401604608	19	3910
2026-01-03 11:37:04.41	227.39	26.72	-29.2	-29.7	14.8	0.00e+00	0	43	0	402653184	19	3842
2026-01-03 11:37:05.41	227.64	26.82	-29.4	-30.2	14.5	0.00e+00	0	43	0	404750336	19	3973
2026-01-03 11:37:06.42	227.89	26.93	-29.4	-30.3	14.5	1.50e-06	0	43	0	406847488	19	4005
2026-01-03 11:37:07.42	228.14	27.03	-29.5	-30.5	14.4	0.00e+00	0	43	0	408944640	19	4050
2026-01-03 11:37:08.42	228.40	27.13	-29.3	-30.0	14.7	7.00e-07	0	43	0	411041792	19	3924
2026-01-03 11:37:09.43	228.65	27.24	-29.2	-29.7	14.8	0.00e+00	0	43	0	412090368	19	3839
2026-01-03 11:37:10.44	228.91	27.34	-29.1	-29.5	15.0	0.00e+00	0	43	0	414187520	19	3784
2026-01-03 11:37:11.44	229.17	27.44	-29.3	-30.1	14.6	0.00e+00	0	43	0	416284672	19	3936
2026-01-03 11:37:12.45	229.43	27.54	-29.3	-30.1	14.7	0.00e+00	0	43	0	418381824	19	3925
2026-01-03 11:37:13.45	229.70	27.64	-29.6	-30.9	14.1	7.00e-07	0	43	0	419430400	19	4177
2026-01-03 11:37:14.46	229.96	27.74	-29.8	-31.4	13.8	3.00e-06	0	43	0	421527552	19	4320
2026-01-03 11:37:15.46	230.23	27.84	-29.7	-31.0	14.0	3.00e-06	0	43	0	423624704	19	4208
2026-01-03 11:37:16.46	230.49	27.94	-29.8	-31.3	14.0	2.20e-06	0	43	0	425721856	19	4277
2026-01-03 11:37:17.47	230.77	28.04	-30.0	-31.3	13.6	9.10e-06	0	43	0	427819008	20	4200
2026-01-03 11:37:18.48	231.04	28.14	-30.0	-31.4	13.5	9.90e-06	0	43	0	429916160	20	4217
2026-01-03 11:37:19.48	231.31	28.24	-30.1	-31.8	13.2	1.83e-05	0	43	0	430964736	20	4348
2026-01-03 11:37:20.49	231.59	28.34	-30.1	-31.7	13.3	4.34e-05	0	43	0	433061888	20	4311
2026-01-03 11:37:21.50	231.86	28.44	-30.2	-32.0	13.1	2.82e-05	0	43	0	435159040	20	4406
2026-01-03 11:37:22.51	232.14	28.54	-30.2	-31.8	13.2	2.89e-05	0	43	0	437256192	20	4361
2026-01-03 11:37:23.52	232.42	28.64	-30.0	-31.4	13.5	1.52e-05	0	43	0	439353344	20	4219
2026-01-03 11:37:24.52	232.70	28.74	-30.3	-32.2	12.9	1.37e-05	0	43	0	440401920	20	4499
2026-01-03 11:37:25.53	232.99	28.84	-30.4	-32.7	12.7	5.72e-05	0	43	0	442499072	20	4642
2026-01-03 11:37:26.53	233.27	28.93	-30.5	-32.4	12.4	1.27e-04	0	43	0	444596224	21	4459
2026-01-03 11:37:27.53	233.56	29.03	-30.8	-33.1	12.0	2.78e-04	0	43	0	446693376	21	4687
2026-01-03 11:37:28.54	233.85	29.12	-31.0	-33.2	11.6	5.87e-04	0	43	0	447741952	22	4643
2026-01-03 11:37:29.55	234.14	29.22	-31.2	-33.7	11.3	9.53e-04	0	43	0	449839104	22	4844
2026-01-03 11:37:30.56	234.43	29.32	-31.3	-34.3	10.8	2.03e-03	0	43	0	451936256	22	5065
2026-01-03 11:37:31.56	234.72	29.41	-31.4	-34.4	10.8	1.46e-03	0	43	0	454033408	22	5088
2026-01-03 11:37:32.57	235.02	29.50	-31.3	-34.1	11.0	2.09e-03	0	43	0	456130560	22	4987
2026-01-03 11:37:33.58	235.32	29.60	-31.1	-33.6	11.3	1.98e-03	0	43	0	458227712	22	4782
2026-01-03 11:37:34.58	235.62	29.69	-31.3	-34.1	11.0	1.22e-03	0	43	0	459276288	22	4977
2026-01-03 11:37:35.58	235.91	29.78	-31.4	-34.3	10.8	2.57e-03	0	43	0	461373440	22	5062
2026-01-03 11:37:36.59	236.22	29.88	-31.5	-34.7	10.6	2.53e-03	0	43	0	463470592	22	5218
2026-01-03 11:37:37.59	236.52	29.97	-31.6	-34.5	10.3	3.47e-03	0	43	0	465567744	23	5047
2026-01-03 11:37:38.60	236.83	30.06	-31.6	-34.6	10.3	3.99e-03	0	43	0	466616320	23	5070
2026-01-03 11:37:39.61	237.13	30.15	-31.7	-34.9	10.0	6.35e-03	0	43	0	468713472	23	5226
2026-01-03 11:37:40.61	237.44	30.24	-31.7	-35.0	10.0	8.13e-03	0	43	0	470810624	23	5274
2026-01-03 11:37:41.62	237.75	30.33	-31.9	-35.7	9.5	9.94e-03	0	43	0	472907776	23	5573
2026-01-03 11:37:42.62	238.06	30.42	-32.0	-36.0	9.3	1.13e-02	0	43	0	475004928	23	5702
2026-01-03 11:37:43.63	238.38	30.50	-32.0	-35.7	9.1	2.38e-02	0	43	0	476053504	24	5468
2026-01-03 11:37:44.64	238.69	30.59	-32.0	-35.6	9.1	1.45e-02	0	43	0	478150656	24	5439
2026-01-03 11:37:45.64	239.01	30.68	-32.1	-35.8	9.0	1.67e-02	0	43	0	480247808	24	5513
2026-01-03 11:37:46.65	239.33	30.76	-32.0	-35.7	9.0	2.02e-02	0	43	0	482344960	24	5484
2026-01-03 11:37:47.66	239.65	30.85	-31.9	-35.1	9.5	1.54e-02	0	43	0	484442112	24	5233
2026-01-03 11:37:48.67	239.98	30.93	-31.9	-35.2	9.5	1.17e-02	0	43	0	486539264	24	5235
2026-01-03 11:37:49.68	240.30	31.02	-31.9	-35.3	9.4	1.64e-02	0	43	0	487587840	24	5292
2026-01-03 11:37:50.69	240.63	31.10	-32.1	-35.8	9.0	1.58e-02	0	43	0	489684992	24	5539
2026-01-03 11:37:51.69	240.95	31.18	-32.0	-35.7	9.1	1.90e-02	0	43	0	491782144	24	5460
2026-01-03 11:37:52.69	241.28	31.26	-31.9	-35.3	9.4	1.54e-02	0	43	0	493879296	24	5293
2026-01-03 11:37:53.70	241.61	31.34	-31.8	-34.8	9.7	1.35e-02	0	43	0	494927872	24	5102
2026-01-03 11:37:54.71	241.94	31.42	-31.7	-34.4	10.1	8.84e-03	0	43	0	497025024	24	4920
2026-01-03 11:37:55.71	242.27	31.50	-31.3	-33.1	11.0	4.42e-03	0	43	0	499122176	24	4427
2026-01-03 11:37:56.72	242.61	31.58	-31.0	-32.6	11.8	7.64e-04	0	43	0	501219328	23	4333
2026-01-03 11:37:57.73	242.95	31.66	-31.1	-32.9	11.6	4.68e-04	0	43	0	503316480	23	4444
2026-01-03 11:37:58.73	243.29	31.73	-31.1	-33.1	11.4	6.73e-04	0	43	0	504365056	23	4498
2026-01-03 11:37:59.73	243.62	31.81	-31.3	-33.7	11.1	1.01e-03	0	43	0	506462208	23	4720
2026-01-03 11:38:00.73	243.96	31.88	-31.6	-34.4	10.5	2.37e-03	0	43	0	508559360	23	5000
2026-01-03 11:38:01.74	244.31	31.96	-31.7	-34.9	10.2	5.68e-03	0	43	0	510656512	23	5187
2026-01-03 11:38:02.74	244.65	32.03	-31.7	-34.9	10.1	7.93e-03	0	43	0	512753664	23	5187
2026-01-03 11:38:03.75	245.00	32.10	-31.5	-34.2	10.6	5.05e-03	0	43	0	513802240	23	4907
2026-01-03 11:38:04.75	245.34	32.17	-31.3	-33.5	11.1	1.80e-03	0	43	0	515899392	23	4635
2026-01-03 11:38:05.76	245.69	32.24	-30.9	-32.2	12.0	5.93e-04	0	43	0	517996544	23	4201
2026-01-03 11:38:06.77	246.04	32.31	-30.6	-32.0	12.5	1.10e-04	0	43	0	520093696	22	4233
2026-01-03 11:38:07.77	246.39	32.38	-30.6	-32.0	12.6	8.01e-05	0	43	0	522190848	22	4209
2026-01-03 11:38:08.77	246.74	32.44	-31.0	-33.1	11.8	1.26e-04	0	43	0	523239424	22	4598
2026-01-03 11:38:09.78	247.10	32.51	-31.6	-34.5	10.4	1.08e-03	0	43	0	525336576	23	5046
2026-01-03 11:38:10.79	247.46	32.58	-31.9	-35.8	9.4	1.12e-02	0	43	0	527433728	23	5589
2026-01-03 11:38:11.79	247.81	32.64	-32.2	-36.2	8.8	2.59e-02	0	43	0	529530880	24	5732
2026-01-03 11:38:12.80	248.17	32.70	-32.1	-35.9	9.0	3.36e-02	0	43	0	531628032	24	5566
2026-01-03 11:38:13.80	248.53	32.76	-31.9	-35.1	9.6	1.59e-02	0	43	0	532676608	24	5198
2026-01-03 11:38:14.81	248.89	32.82	-31.7	-34.5	9.9	8.27e-03	0	43	0	534773760	24	4960
2026-01-03 11:38:15.81	249.25	32.88	-31.6	-34.2	10.3	4.63e-03	0	43	0	536870912	24	4826
2026-01-03 11:38:16.82	249.62	32.94	-31.5	-33.7	10.6	3.47e-03	0	43	0	538968064	24	4657
2026-01-03 11:38:17.83	249.99	33.00	-31.5	-33.6	10.8	2.52e-03	0	43	0	541065216	24	4587
2026-01-03 11:38:18.83	250.35	33.05	-31.6	-34.1	10.4	2.52e-03	0	43	0	542113792	24	4773
2026-01-03 11:38:19.84	250.72	33.11	-31.9	-35.0	9.7	7.00e-03	0	43	0	544210944	24	5142
2026-01-03 11:38:20.84	251.09	33.16	-32.3	-36.5	8.6	2.95e-02	0	43	0	546308096	24	5839
2026-01-03 11:38:21.85	251.46	33.21	-32.7	-38.3	6.9	7.35e-02	0	43	0	548405248	25	6802
2026-01-03 11:38:22.85	251.83	33.26	-32.7	-37.8	7.1	1.70e-01	0	43	0	550502400	25	6537
2026-01-03 11:38:23.85	252.20	33.31	-32.6	-37.3	7.5	9.83e-02	0	43	0	551550976	25	6242
2026-01-03 11:38:24.85	252.57	33.36	-32.5	-37.2	7.6	7.44e-02	0	43	0	553648128	25	6184
2026-01-03 11:38:25.85	252.94	33.41	-32.7	-38.1	6.9	1.01e-01	0	43	0	555745280	25	6660
2026-01-03 11:38:26.86	253.32	33.45	-32.8	-38.5	6.6	1.76e-01	0	43	0	557842432	25	6966
2026-01-03 11:38:27.86	253.69	33.50	-33.0	-39.4	6.0	2.92e-01	0	43	0	559939584	25	7593
2026-01-03 11:38:28.87	254.07	33.54	-32.8	-38.1	6.5	2.64e-01	0	43	0	560988160	26	6580
2026-01-03 11:38:29.87	254.45	33.58	-32.6	-36.8	7.5	1.40e-01	0	43	0	563085312	26	5883
2026-01-03 11:38:30.87	254.82	33.62	-32.2	-35.8	8.7	4.27e-02	0	43	0	565182464	25	5414
2026-01-03 11:38:31.88	255.20	33.66	-32.3	-36.0	8.5	3.10e-02	0	43	0	567279616	25	5547
2026-01-03 11:38:32.88	255.58	33.70	-32.4	-36.8	7.9	4.60e-02	0	43	0	569376768	25	5912
2026-01-03 11:38:33.88	255.96	33.74	-32.6	-37.7	7.3	1.15e-01	0	43	0	570425344	25	6419
2026-01-03 11:38:34.88	256.34	33.77	-32.6	-37.3	7.5	1.10e-01	0	43	0	572522496	25	6222
2026-01-03 11:38:35.89	256.73	33.81	-32.1	-35.4	9.0	4.71e-02	0	43	0	574619648	25	5249
2026-01-03 11:38:36.90	257.11	33.84	-31.8	-34.2	9.9	2.08e-02	0	43	0	576716800	25	4750
2026-01-03 11:38:37.91	257.50	33.87	-31.6	-34.1	10.5	4.49e-03	0	43	0	578813952	24	4776
2026-01-03 11:38:38.91	257.88	33.90	-31.5	-33.6	10.7	2.75e-03	0	43	0	579862528	24	4599
2026-01-03 11:38:39.91	258.27	33.93	-31.5	-33.5	10.8	1.83e-03	0	43	0	581959680	24	4558
2026-01-03 11:38:40.92	258.66	33.96	-31.3	-32.9	11.2	1.57e-03	0	43	0	584056832	24	4356
2026-01-03 11:38:41.93	259.05	33.98	-31.2	-33.3	11.3	9.92e-04	0	43	0	586153984	23	4590
2026-01-03 11:38:42.93	259.43	34.01	-31.6	-34.5	10.4	2.16e-03	0	43	0	588251136	23	5042
2026-01-03 11:38:43.94	259.82	34.03	-31.9	-35.7	9.6	1.15e-02	0	43	0	589299712	23	5537
2026-01-03 11:38:44.94	260.21	34.05	-32.2	-36.1	8.9	2.46e-02	0	43	0	591396864	24	5643
2026-01-03 11:38:45.95	260.60	34.07	-32.3	-36.4	8.6	3.45e-02	0	43	0	593494016	24	5813
2026-01-03 11:38:46.96	260.99	34.09	-32.1	-35.9	9.0	2.90e-02	0	43	0	595591168	24	5576
2026-01-03 11:38:47.96	261.38	34.10	-32.0	-35.5	9.3	2.09e-02	0	43	0	597688320	24	5386
2026-01-03 11:38:48.97	261.77	34.12	-32.1	-35.7	9.1	1.99e-02	0	43	0	598736896	24	5477
2026-01-03 11:38:49.98	262.17	34.13	-32.1	-35.7	9.1	2.35e-02	0	43	0	600834048	24	5485
2026-01-03 11:38:50.99	262.56	34.15	-32.0	-35.6	9.3	1.74e-02	0	43	0	602931200	24	5407
2026-01-03 11:38:51.99	262.95	34.16	-31.9	-35.1	9.7	1.58e-02	0	43	0	605028352	24	5179
2026-01-03 11:38:53.00	263.34	34.17	-32.0	-35.3	9.6	1.42e-02	0	43	0	607125504	24	5282
2026-01-03 11:38:54.00	263.73	34.18	-32.0	-35.3	9.5	1.62e-02	0	43	0	608174080	24	5271
2026-01-03 11:38:55.01	264.13	34.18	-32.1	-35.9	9.0	1.95e-02	0	43	0	610271232	24	5575
2026-01-03 11:38:56.02	264.52	34.19	-32.2	-36.1	8.9	2.14e-02	0	43	0	612368384	24	5635
2026-01-03 11:38:57.03	264.92	34.19	-32.2	-36.0	8.9	2.73e-02	0	43	0	614465536	24	5614
2026-01-03 11:38:58.03	265.31	34.19	-32.3	-36.7	8.4	3.74e-02	0	43	0	616562688	24	5940
2026-01-03 11:38:59.04	265.70	34.20	-32.6	-37.5	7.4	8.11e-02	0	43	0	617611264	25	6301
2026-01-03 11:39:00.04	266.09	34.20	-32.7	-37.9	7.1	1.32e-01	0	43	0	619708416	25	6571
2026-01-03 11:39:01.06	266.49	34.19	-32.7	-37.7	7.3	1.28e-01	0	43	0	621805568	25	6465
2026-01-03 11:39:02.06	266.88	34.19	-32.7	-37.7	7.3	1.06e-01	0	43	0	623902720	25	6455
2026-01-03 11:39:03.07	267.28	34.18	-32.3	-36.2	8.3	8.97e-02	0	43	0	625999872	25	5638
2026-01-03 11:39:04.08	267.67	34.18	-32.1	-35.4	9.0	3.56e-02	0	43	0	627048448	25	5267
2026-01-03 11:39:05.08	268.06	34.17	-31.9	-34.6	9.7	1.83e-02	0	43	0	629145600	25	4909
2026-01-03 11:39:06.09	268.45	34.16	-31.5	-33.8	10.6	7.17e-03	0	43	0	631242752	24	4674
2026-01-03 11:39:07.09	268.84	34.15	-31.5	-33.6	10.8	2.01e-03	0	43	0	633339904	24	4582
2026-01-03 11:39:08.09	269.23	34.14	-31.7	-34.3	10.3	2.61e-03	0	43	0	635437056	24	4856
2026-01-03 11:39:09.10	269.63	34.12	-31.8	-34.7	9.9	5.63e-03	0	43	0	636485632	24	5020
2026-01-03 11:39:10.10	270.01	34.11	-32.2	-36.1	8.9	1.45e-02	0	43	0	638582784	24	5662
2026-01-03 11:39:11.11	270.41	34.09	-32.2	-36.4	8.6	3.80e-02	0	43	0	640679936	24	5801
2026-01-03 11:39:12.12	270.80	34.07	-32.2	-36.2	8.8	3.52e-02	0	43	0	642777088	24	5705
2026-01-03 11:39:13.12	271.19	34.05	-32.2	-36.2	8.9	2.95e-02	0	43	0	644874240	24	5687
2026-01-03 11:39:14.12	271.57	34.03	-32.1	-35.8	9.0	2.35e-02	0	43	0	645922816	24	5529
2026-01-03 11:39:15.12	271.96	34.01	-31.8	-34.8	9.8	1.32e-02	0	43	0	648019968	24	5059
2026-01-03 11:39:16.13	272.35	33.99	-31.4	-33.5	10.8	4.66e-03	0	43	0	650117120	24	4555
2026-01-03 11:39:17.14	272.74	33.96	-31.4	-33.5	10.8	2.08e-03	0	43	0	652214272	24	4575
2026-01-03 11:39:18.14	273.12	33.94	-31.6	-34.0	10.4	3.41e-03	0	43	0	653262848	24	4754
2026-01-03 11:39:19.15	273.51	33.91	-31.6	-33.9	10.5	3.67e-03	0	43	0	655360000	24	4722
2026-01-03 11:39:20.16	273.90	33.88	-31.9	-35.0	9.7	6.79e-03	0	43	0	657457152	24	5154
2026-01-03 11:39:21.16	274.28	33.85	-32.0	-35.6	9.3	1.41e-02	0	43	0	659554304	24	5406
2026-01-03 11:39:22.17	274.67	33.81	-32.0	-35.3	9.4	1.99e-02	0	43	0	661651456	24	5302
2026-01-03 11:39:23.18	275.05	33.78	-32.0	-35.6	9.3	1.52e-02	0	43	0	663748608	24	5410
2026-01-03 11:39:24.19	275.43	33.75	-32.4	-37.2	8.3	3.63e-02	0	43	0	664797184	24	6233
2026-01-03 11:39:25.19	275.81	33.71	-32.6	-37.4	7.4	7.95e-02	0	43	0	666894336	25	6280
2026-01-03 11:39:26.20	276.20	33.67	-32.7	-37.8	7.2	1.27e-01	0	43	0	668991488	25	6475
2026-01-03 11:39:27.21	276.58	33.63	-32.6	-37.4	7.5	1.04e-01	0	43	0	671088640	25	6289
2026-01-03 11:39:28.21	276.95	33.59	-32.5	-37.1	7.7	1.09e-01	0	43	0	672137216	25	6098
2026-01-03 11:39:29.22	277.33	33.55	-32.2	-35.6	8.9	4.93e-02	0	43	0	674234368	25	5345
2026-01-03 11:39:30.22	277.71	33.51	-32.0	-35.0	9.3	1.58e-02	0	43	0	676331520	25	5062
2026-01-03 11:39:31.23	278.09	33.46	-31.9	-34.4	9.8	1.07e-02	0	43	0	678428672	25	4825
2026-01-03 11:39:32.24	278.46	33.42	-31.8	-34.5	10.1	7.95e-03	0	43	0	680525824	24	4949
2026-01-03 11:39:33.24	278.83	33.37	-31.6	-34.0	10.4	5.95e-03	0	43	0	681574400	24	4737
2026-01-03 11:39:34.25	279.21	33.32	-31.6	-34.1	10.4	2.37e-03	0	43	0	683671552	24	4792
2026-01-03 11:39:35.25	279.58	33.27	-31.8	-34.6	10.1	5.29e-03	0	43	0	685768704	24	4965
2026-01-03 11:39:36.26	279.95	33.22	-31.9	-35.1	9.7	9.07e-03	0	43	0	687865856	24	5213
2026-01-03 11:39:37.26	280.32	33.17	-32.1	-36.0	9.0	2.31e-02	0	43	0	689963008	24	5590
2026-01-03 11:39:38.27	280.69	33.12	-31.9	-35.0	9.7	1.17e-02	0	43	0	692060160	24	5138
2026-01-03 11:39:39.28	281.06	33.07	-31.4	-33.4	10.9	2.94e-03	0	43	0	693108736	24	4530
2026-01-03 11:39:40.28	281.42	33.01	-31.2	-33.2	11.4	1.20e-03	0	43	0	695205888	23	4547
2026-01-03 11:39:41.29	281.79	32.95	-31.5	-34.2	10.7	1.93e-03	0	43	0	697303040	23	4912
2026-01-03 11:39:42.29	282.15	32.90	-31.7	-35.0	10.1	3.40e-03	0	43	0	699400192	23	5261
2026-01-03 11:39:43.30	282.51	32.84	-32.0	-35.5	9.3	1.19e-02	0	43	0	700448768	24	5395
2026-01-03 11:39:44.31	282.87	32.78	-31.6	-34.2	10.4	6.16e-03	0	43	0	702545920	24	4812
2026-01-03 11:39:45.31	283.23	32.72	-31.0	-32.7	11.7	1.02e-03	0	43	0	704643072	23	4374
2026-01-03 11:39:46.32	283.59	32.65	-30.6	-32.0	12.5	1.96e-04	0	43	0	706740224	22	4224
2026-01-03 11:39:47.33	283.95	32.59	-30.7	-32.3	12.4	8.62e-05	0	43	0	708837376	22	4301
2026-01-03 11:39:48.33	284.30	32.53	-30.8	-32.6	12.2	1.88e-04	0	43	0	709885952	22	4407
2026-01-03 11:39:49.34	284.66	32.46	-30.6	-32.0	12.5	3.00e-04	0	43	0	711983104	22	4220
2026-01-03 11:39:50.34	285.01	32.40	-30.3	-31.8	13.1	3.35e-05	0	43	0	714080256	21	4239
2026-01-03 11:39:51.35	285.36	32.33	-29.9	-30.6	13.8	6.10e-06	0	43	0	716177408	21	3897
2026-01-03 11:39:52.36	285.71	32.26	-30.1	-31.5	13.5	2.20e-06	0	43	0	718274560	20	4250
2026-01-03 11:39:53.37	286.06	32.19	-30.3	-32.1	13.1	1.98e-05	0	43	0	720371712	20	4432
2026-01-03 11:39:54.38	286.41	32.12	-30.4	-32.5	12.9	3.89e-05	0	43	0	721420288	20	4579
2026-01-03 11:39:55.38	286.75	32.05	-30.5	-32.3	12.7	1.33e-04	0	43	0	723517440	21	4418
2026-01-03 11:39:56.39	287.10	31.98	-30.7	-32.7	12.5	1.20e-04	0	43	0	725614592	21	4524
2026-01-03 11:39:57.40	287.44	31.90	-30.6	-32.4	12.7	1.07e-04	0	43	0	727711744	21	4441
2026-01-03 11:39:58.39	287.78	31.83	-30.4	-31.8	13.0	3.05e-05	0	43	0	728760320	21	4245
2026-01-03 11:39:59.40	288.12	31.76	-30.3	-31.5	13.1	3.12e-05	0	43	0	730857472	21	4166
2026-01-03 11:40:00.40	288.45	31.68	-30.2	-31.4	13.2	2.13e-05	0	43	0	732954624	21	4129
2026-01-03 11:40:01.40	288.79	31.60	-30.1	-31.2	13.4	2.21e-05	0	43	0	735051776	21	4056
2026-01-03 11:40:02.41	289.12	31.53	-29.9	-30.6	13.8	1.14e-05	0	43	0	737148928	21	3896
2026-01-03 11:40:03.41	289.45	31.45	-29.8	-30.7	14.0	2.20e-06	0	43	0	738197504	20	3993
2026-01-03 11:40:04.41	289.78	31.37	-29.6	-30.3	14.3	5.30e-06	0	43	0	740294656	20	3893
2026-01-03 11:40:05.42	290.11	31.29	-29.7	-30.5	14.2	1.50e-06	0	43	0	742391808	20	3943
2026-01-03 11:40:06.43	290.44	31.21	-30.3	-32.0	13.2	6.10e-06	0	43	0	744488960	20	4406
2026-01-03 11:40:07.43	290.77	31.13	-30.7	-32.7	12.4	6.63e-05	0	43	0	746586112	21	4538
2026-01-03 11:40:08.43	291.09	31.04	-30.5	-32.2	12.7	1.54e-04	0	43	0	747634688	21	4371
2026-01-03 11:40:09.44	291.41	30.96	-30.1	-31.1	13.4	2.36e-05	0	43	0	749731840	21	4045
2026-01-03 11:40:10.45	291.74	30.88	-29.6	-30.3	14.3	2.20e-06	0	43	0	751828992	20	3892
2026-01-03 11:40:11.45	292.05	30.79	-29.7	-30.5	14.2	3.80e-06	0	43	0	753926144	20	3957
2026-01-03 11:40:12.46	292.37	30.71	-30.2	-31.8	13.3	3.00e-06	0	43	0	756023296	20	4352
2026-01-03 11:40:13.47	292.69	30.62	-30.8	-32.9	12.3	1.79e-04	0	43	0	757071872	21	4614
2026-01-03 11:40:14.47	293.00	30.54	-30.8	-33.1	12.1	1.61e-04	0	43	0	759169024	21	4691
2026-01-03 11:40:15.48	293.32	30.45	-30.7	-32.8	12.3	3.55e-04	0	43	0	761266176	21	4570
2026-01-03 11:40:16.49	293.63	30.36	-30.1	-31.2	13.4	6.79e-05	0	43	0	763363328	21	4062
2026-01-03 11:40:17.50	293.94	30.27	-29.5	-30.1	14.3	6.10e-06	0	43	0	765460480	20	3855
2026-01-03 11:40:18.50	294.25	30.18	-29.5	-29.9	14.5	0.00e+00	0	43	0	766509056	20	3802
2026-01-03 11:40:19.51	294.56	30.09	-29.5	-29.9	14.5	7.00e-07	0	43	0	768606208	20	3779
2026-01-03 11:40:20.51	294.86	30.00	-30.0	-31.4	13.6	5.30e-06	0	43	0	770703360	20	4206
2026-01-03 11:40:21.52	295.16	29.91	-30.3	-32.0	13.2	1.90e-05	0	43	0	772800512	20	4404
2026-01-03 11:40:22.53	295.47	29.82	-30.3	-32.2	13.0	1.75e-05	0	43	0	774897664	20	4455
2026-01-03 11:40:23.53	295.77	29.73	-30.0	-31.4	13.6	6.10e-06	0	43	0	775946240	20	4224
2026-01-03 11:40:24.54	296.06	29.63	-29.9	-31.0	13.8	1.06e-05	0	43	0	778043392	20	4105
2026-01-03 11:40:25.54	296.36	29.54	-30.1	-31.6	13.4	1.60e-05	0	43	0	780140544	20	4284
2026-01-03 11:40:26.55	296.65	29.45	-30.4	-32.4	13.0	1.37e-05	0	43	0	782237696	20	4521
2026-01-03 11:40:27.55	296.95	29.35	-30.6	-32.5	12.5	9.91e-05	0	43	0	784334848	21	4493
2026-01-03 11:40:28.56	297.24	29.26	-30.7	-32.8	12.4	1.10e-04	0	43	0	785383424	21	4562
2026-01-03 11:40:29.57	297.53	29.16	-30.3	-31.6	13.1	8.23e-05	0	43	0	787480576	21	4185
2026-01-03 11:40:30.57	297.82	29.07	-29.8	-30.7	14.0	7.60e-06	0	43	0	789577728	20	4013
2026-01-03 11:40:31.58	298.10	28.97	-29.6	-30.4	14.2	2.20e-06	0	43	0	791674880	20	3915
2026-01-03 11:40:32.58	298.39	28.88	-29.8	-30.9	13.9	1.50e-06	0	43	0	793772032	20	4058
2026-01-03 11:40:33.59	298.67	28.78	-30.0	-31.4	13.5	7.60e-06	0	43	0	794820608	20	4200
2026-01-03 11:40:34.60	298.95	28.68	-30.4	-32.5	12.9	2.51e-05	0	43	0	796917760	20	4567
2026-01-03 11:40:35.60	299.23	28.59	-30.2	-31.9	13.2	4.27e-05	0	43	0	799014912	20	4376
2026-01-03 11:40:36.61	299.51	28.49	-29.8	-30.8	13.9	3.05e-05	0	43	0	801112064	20	4037
2026-01-03 11:40:37.62	299.79	28.39	-29.7	-30.4	14.2	4.50e-06	0	43	0	803209216	20	3918
2026-01-03 11:40:38.62	300.06	28.29	-29.8	-30.7	14.0	7.00e-07	0	43	0	804257792	20	3994
2026-01-03 11:40:39.63	300.33	28.19	-30.1	-31.7	13.4	4.50e-06	0	43	0	806354944	20	4295
2026-01-03 11:40:40.63	300.60	28.09	-30.5	-32.1	12.7	5.64e-05	0	43	0	808452096	21	4356
2026-01-03 11:40:41.64	300.87	27.99	-31.1	-33.5	11.5	3.42e-04	0	43	0	810549248	22	4753
2026-01-03 11:40:42.64	301.14	27.89	-31.1	-33.5	11.4	1.29e-03	0	43	0	812646400	22	4764
2026-01-03 11:40:43.65	301.41	27.79	-30.9	-32.8	11.9	5.21e-04	0	43	0	813694976	22	4507
2026-01-03 11:40:44.65	301.67	27.69	-30.6	-32.1	12.5	3.00e-04	0	43	0	815792128	22	4259
2026-01-03 11:40:45.66	301.93	27.59	-30.4	-31.4	12.9	8.62e-05	0	43	0	817889280	22	4034
2026-01-03 11:40:46.66	302.19	27.49	-30.7	-32.3	12.3	6.48e-05	0	43	0	819986432	22	4309
2026-01-03 11:40:47.67	302.45	27.39	-30.7	-32.4	12.3	3.16e-04	0	43	0	822083584	22	4332
2026-01-03 11:40:48.67	302.71	27.29	-31.2	-33.9	11.3	5.70e-04	0	43	0	823132160	22	4877
2026-01-03 11:40:49.68	302.97	27.19	-31.6	-34.5	10.4	2.94e-03	0	43	0	825229312	23	5037
2026-01-03 11:40:50.69	303.22	27.09	-31.7	-34.9	10.1	6.54e-03	0	43	0	827326464	23	5195
2026-01-03 11:40:51.69	303.48	26.98	-31.4	-33.8	10.8	6.34e-03	0	43	0	829423616	23	4778
2026-01-03 11:40:52.69	303.73	26.88	-30.9	-32.5	11.8	1.03e-03	0	43	0	831520768	23	4298
2026-01-03 11:40:53.69	303.97	26.78	-31.0	-32.8	11.6	5.27e-04	0	43	0	832569344	23	4402
2026-01-03 11:40:54.70	304.22	26.68	-30.8	-32.0	12.1	3.43e-04	0	43	0	834666496	23	4156
2026-01-03 11:40:55.70	304.47	26.57	-31.0	-33.0	11.8	2.98e-04	0	43	0	836763648	22	4572
2026-01-03 11:40:56.70	304.71	26.47	-31.2	-33.7	11.3	6.68e-04	0	43	0	838860800	22	4824
2026-01-03 11:40:57.70	304.96	26.37	-31.2	-33.9	11.2	1.41e-03	0	43	0	839909376	22	4885
2026-01-03 11:40:58.70	305.20	26.27	-31.3	-34.0	11.1	1.65e-03	0	43	0	842006528	22	4915
2026-01-03 11:40:59.72	305.44	26.16	-31.0	-33.2	11.7	1.26e-03	0	43	0	844103680	22	4620
2026-01-03 11:41:00.72	305.68	26.06	-30.7	-32.4	12.3	1.69e-04	0	43	0	846200832	22	4345
2026-01-03 11:41:01.72	305.92	25.96	-30.6	-32.1	12.4	1.45e-04	0	43	0	848297984	22	4257
2026-01-03 11:41:02.73	306.15	25.85	-31.1	-33.3	11.6	1.49e-04	0	43	0	850395136	22	4683
2026-01-03 11:41:03.73	306.39	25.75	-31.4	-34.5	10.8	1.86e-03	0	43	0	851443712	22	5124
2026-01-03 11:41:04.73	306.62	25.65	-31.7	-34.9	10.1	3.38e-03	0	43	0	853540864	23	5211
2026-01-03 11:41:05.74	306.85	25.54	-32.0	-35.4	9.3	1.33e-02	0	43	0	855638016	24	5334
2026-01-03 11:41:06.75	307.08	25.44	-31.9	-35.3	9.3	2.18e-02	0	43	0	857735168	24	5318
2026-01-03 11:41:07.75	307.31	25.33	-31.9	-35.0	9.6	1.02e-02	0	43	0	858783744	24	5169
2026-01-03 11:41:08.76	307.54	25.23	-31.6	-34.0	10.3	5.37e-03	0	43	0	860880896	24	4760
2026-01-03 11:41:09.76	307.76	25.13	-31.4	-33.4	10.8	2.91e-03	0	43	0	862978048	24	4520
2026-01-03 11:41:10.77	307.99	25.02	-31.6	-34.3	10.1	3.47e-03	0	43	0	865075200	24	4869
2026-01-03 11:41:11.77	308.21	24.92	-31.6	-34.2	10.2	5.11e-03	0	43	0	867172352	24	4850
2026-01-03 11:41:12.78	308.43	24.81	-31.8	-34.7	9.8	7.42e-03	0	43	0	868220928	24	5061
2026-01-03 11:41:13.79	308.65	24.71	-31.8	-34.8	9.7	1.27e-02	0	43	0	870318080	24	5064
2026-01-03 11:41:14.80	308.87	24.60	-31.8	-34.7	9.8	1.14e-02	0	43	0	872415232	24	5028
2026-01-03 11:41:15.80	309.09	24.50	-31.5	-33.7	10.5	7.04e-03	0	43	0	874512384	24	4632
2026-01-03 11:41:16.81	309.30	24.39	-31.1	-32.8	11.5	1.88e-03	0	43	0	876609536	23	4425
2026-01-03 11:41:17.81	309.52	24.29	-31.0	-32.7	11.6	6.00e-04	0	43	0	877658112	23	4374
2026-01-03 11:41:18.82	309.73	24.19	-30.9	-32.4	11.8	6.67e-04	0	43	0	879755264	23	4266
2026-01-03 11:41:19.83	309.94	24.08	-30.9	-32.4	11.9	5.17e-04	0	43	0	881852416	23	4273
2026-01-03 11:41:20.83	310.15	23.98	-31.2	-33.2	11.3	8.94e-04	0	43	0	883949568	23	4539
2026-01-03 11:41:21.84	310.36	23.87	-31.4	-34.0	10.7	1.96e-03	0	43	0	886046720	23	4840
2026-01-03 11:41:22.85	310.57	23.77	-31.4	-33.8	10.8	2.63e-03	0	43	0	887095296	23	4787
2026-01-03 11:41:23.85	310.78	23.67	-31.0	-32.7	11.6	1.13e-03	0	43	0	889192448	23	4387
2026-01-03 11:41:24.86	310.98	23.56	-30.5	-31.6	12.6	1.97e-04	0	43	0	891289600	22	4120
2026-01-03 11:41:25.86	311.18	23.46	-30.2	-31.4	13.1	4.34e-05	0	43	0	893386752	21	4130
2026-01-03 11:41:26.88	311.39	23.35	-30.4	-32.0	12.7	3.35e-05	0	43	0	895483904	21	4334
2026-01-03 11:41:27.88	311.59	23.25	-30.5	-32.4	12.4	9.07e-05	0	43	0	896532480	21	4453
2026-01-03 11:41:28.89	311.79	23.14	-31.0	-33.6	11.6	2.49e-04	0	43	0	898629632	21	4887
2026-01-03 11:41:29.89	311.99	23.04	-31.2	-33.9	11.0	8.50e-04	0	43	0	900726784	22	4907
2026-01-03 11:41:30.90	312.18	22.94	-31.5	-34.5	10.3	3.74e-03	0	43	0	902823936	23	5043
2026-01-03 11:41:31.90	312.38	22.83	-31.5	-34.3	10.4	5.04e-03	0	43	0	904921088	23	4976
2026-01-03 11:41:32.91	312.57	22.73	-31.3	-33.5	10.9	3.94e-03	0	43	0	905969664	23	4686
2026-01-03 11:41:33.91	312.76	22.63	-31.0	-32.7	11.6	9.15e-04	0	43	0	908066816	23	4371
2026-01-03 11:41:34.92	312.96	22.52	-30.6	-32.1	12.3	2.42e-04	0	43	0	910163968	22	4288
2026-01-03 11:41:35.92	313.15	22.42	-30.4	-31.4	12.7	1.91e-04	0	43	0	912261120	22	4061
2026-01-03 11:41:36.93	313.34	22.32	-30.3	-31.1	13.0	7.09e-05	0	43	0	914358272	22	3977
2026-01-03 11:41:37.93	313.52	22.21	-30.5	-32.3	12.5	9.46e-05	0	43	0	915406848	21	4412
2026-01-03 11:41:38.94	313.71	22.11	-30.3	-31.7	12.9	7.17e-05	0	43	0	917504000	21	4222
2026-01-03 11:41:39.94	313.90	22.01	-30.1	-31.3	13.2	3.35e-05	0	43	0	919601152	21	4104
2026-01-03 11:41:40.94	314.08	21.91	-30.1	-31.2	13.2	1.90e-05	0	43	0	921698304	21	4075
2026-01-03 11:41:41.94	314.26	21.81	-29.7	-30.6	13.9	1.06e-05	0	43	0	923795456	20	3983
2026-01-03 11:41:42.95	314.45	21.70	-29.4	-29.8	14.4	7.00e-07	0	43	0	924844032	20	3787
2026-01-03 11:41:43.96	314.63	21.60	-29.3	-30.1	14.6	2.20e-06	0	43	0	926941184	19	3923
2026-01-03 11:41:44.96	314.81	21.50	-29.4	-30.2	14.5	7.00e-07	0	43	0	929038336	19	3958
2026-01-03 11:41:45.96	314.98	21.40	-29.7	-31.1	14.0	7.00e-07	0	43	0	931135488	19	4216
2026-01-03 11:41:46.97	315.16	21.29	-29.7	-31.1	14.0	3.00e-06	0	43	0	933232640	19	4234
2026-01-03 11:41:47.98	315.34	21.19	-30.0	-31.5	13.3	4.50e-06	0	43	0	934281216	20	4252
2026-01-03 11:41:48.99	315.52	21.09	-30.1	-31.7	13.2	5.30e-06	0	43	0	936378368	20	4330
2026-01-03 11:41:50.00	315.69	20.99	-30.4	-32.7	12.5	3.58e-05	0	43	0	938475520	20	4645
2026-01-03 11:41:51.01	315.86	20.89	-30.5	-32.3	12.4	1.46e-04	0	43	0	940572672	21	4450
2026-01-03 11:41:52.01	316.04	20.79	-30.8	-33.1	11.9	2.09e-04	0	43	0	942669824	21	4718
2026-01-03 11:41:53.01	316.21	20.69	-30.6	-32.7	12.2	2.65e-04	0	43	0	943718400	21	4561
2026-01-03 11:41:54.01	316.37	20.59	-30.4	-32.1	12.6	1.09e-04	0	43	0	945815552	21	4357
2026-01-03 11:41:55.01	316.54	20.49	-30.3	-31.7	12.8	6.71e-05	0	43	0	947912704	21	4244
2026-01-03 11:41:56.01	316.71	20.39	-30.1	-31.3	13.1	4.65e-05	0	43	0	950009856	21	4103
2026-01-03 11:41:57.02	316.88	20.28	-30.2	-31.4	13.0	2.51e-05	0	43	0	952107008	21	4159
2026-01-03 11:41:58.02	317.04	20.19	-30.3	-31.7	12.8	3.20e-05	0	43	0	953155584	21	4240
2026-01-03 11:41:59.02	317.20	20.09	-30.1	-31.1	13.2	3.35e-05	0	43	0	955252736	21	4071
2026-01-03 11:42:00.03	317.37	19.99	-29.9	-30.6	13.6	1.67e-05	0	43	0	957349888	21	3908
2026-01-03 11:42:01.03	317.53	19.89	-29.8	-30.4	13.7	9.10e-06	0	43	0	959447040	21	3861
2026-01-03 11:42:02.03	317.69	19.79	-29.8	-30.8	13.7	6.80e-06	0	43	0	961544192	20	4075
2026-01-03 11:42:03.04	317.85	19.69	-29.7	-30.6	13.8	6.10e-06	0	43	0	962592768	20	4012
2026-01-03 11:42:04.04	318.01	19.59	-29.7	-30.7	13.7	7.60e-06	0	43	0	964689920	20	4036
2026-01-03 11:42:05.05	318.17	19.49	-29.8	-30.8	13.7	6.10e-06	0	43	0	966787072	20	4064
2026-01-03 11:42:06.06	318.33	19.39	-29.7	-30.6	13.8	2.20e-06	0	43	0	968884224	20	4001
2026-01-03 11:42:07.06	318.48	19.29	-29.6	-30.3	14.0	3.80e-06	0	43	0	969932800	20	3913
2026-01-03 11:42:08.06	318.64	19.20	-29.4	-29.9	14.2	3.00e-06	0	43	0	972029952	20	3818
2026-01-03 11:42:09.06	318.79	19.10	-29.6	-30.4	13.9	2.20e-06	0	43	0	974127104	20	3950
2026-01-03 11:42:10.07	318.95	19.00	-29.5	-30.0	14.2	2.20e-06	0	43	0	976224256	20	3839
2026-01-03 11:42:11.07	319.10	18.90	-29.5	-30.2	14.1	2.20e-06	0	43	0	978321408	20	3884
2026-01-03 11:42:12.08	319.25	18.80	-29.7	-30.7	13.7	4.50e-06	0	43	0	980418560	20	4027
2026-01-03 11:42:13.09	319.40	18.71	-29.8	-31.0	13.6	1.37e-05	0	43	0	981467136	20	4110
2026-01-03 11:42:14.10	319.55	18.61	-29.7	-30.8	13.7	3.80e-06	0	43	0	983564288	20	4054
2026-01-03 11:42:15.10	319.70	18.51	-29.7	-30.6	13.7	7.60e-06	0	43	0	985661440	20	4017
2026-01-03 11:42:16.10	319.85	18.42	-29.8	-31.1	13.5	1.29e-05	0	43	0	987758592	20	4147
2026-01-03 11:42:17.11	319.99	18.32	-29.9	-31.1	13.5	9.10e-06	0	43	0	988807168	20	4162
2026-01-03 11:42:18.12	320.14	18.22	-30.0	-31.4	13.2	2.21e-05	0	43	0	990904320	20	4256
2026-01-03 11:42:19.12	320.29	18.13	-29.8	-31.0	13.5	1.52e-05	0	43	0	993001472	20	4135
2026-01-03 11:42:20.13	320.43	18.03	-30.0	-31.4	13.2	9.90e-06	0	43	0	995098624	20	4240
2026-01-03 11:42:21.14	320.57	17.93	-29.6	-30.5	13.8	8.30e-06	0	43	0	997195776	20	3968
2026-01-03 11:42:22.15	320.72	17.84	-29.2	-29.8	14.7	0.00e+00	0	43	0	998244352	19	3855
2026-01-03 11:42:23.15	320.86	17.74	-28.9	-29.1	15.1	0.00e+00	0	43	0	1000341504	19	3685
2026-01-03 11:42:24.16	321.00	17.65	-28.7	-29.0	15.4	7.00e-07	0	43	0	1002438656	18	3753
2026-01-03 11:42:25.16	321.14	17.55	-28.7	-29.0	15.4	0.00e+00	0	43	0	1004535808	18	3751
2026-01-03 11:42:26.17	321.28	17.46	-28.9	-29.5	15.1	0.00e+00	0	43	0	1006632960	18	3883
2026-01-03 11:42:27.17	321.42	17.37	-28.8	-29.4	15.2	0.00e+00	0	43	0	1008730112	18	3845
2026-01-03 11:42:28.18	321.55	17.27	-29.2	-30.4	14.6	0.00e+00	0	43	0	1009778688	18	4110
2026-01-03 11:42:29.18	321.69	17.18	-29.4	-31.0	14.2	1.50e-06	0	43	0	1011875840	18	4294
2026-01-03 11:42:30.19	321.83	17.08	-29.6	-30.8	14.0	0.00e+00	0	43	0	1013972992	19	4155
2026-01-03 11:42:31.19	321.96	16.99	-29.8	-31.5	13.5	4.50e-06	0	43	0	1016070144	19	4371
2026-01-03 11:42:32.20	322.10	16.90	-29.9	-31.7	13.4	1.60e-05	0	43	0	1017118720	19	4425
2026-01-03 11:42:33.20	322.23	16.80	-30.0	-31.4	13.2	1.75e-05	0	43	0	1019215872	20	4247
2026-01-03 11:42:34.21	322.36	16.71	-30.0	-31.5	13.1	2.59e-05	0	43	0	1021313024	20	4285
2026-01-03 11:42:35.22	322.49	16.62	-29.9	-31.2	13.3	3.43e-05	0	43	0	1023410176	20	4192
2026-01-03 11:42:36.23	322.63	16.52	-29.9	-31.2	13.3	2.36e-05	0	43	0	1025507328	20	4179
2026-01-03 11:42:37.23	322.76	16.43	-29.9	-31.1	13.4	1.37e-05	0	43	0	1026555904	20	4166
2026-01-03 11:42:38.24	322.89	16.34	-30.0	-31.5	13.0	2.13e-05	0	43	0	1028653056	20	4291
2026-01-03 11:42:39.23	323.01	16.25	-30.1	-31.8	12.9	2.51e-05	0	43	0	1030750208	20	4371
2026-01-03 11:42:40.24	323.14	16.16	-30.1	-31.9	12.8	4.11e-05	0	43	0	1032847360	20	4403
2026-01-03 11:42:41.24	323.27	16.07	-30.1	-31.7	12.9	4.19e-05	0	43	0	1034944512	20	4354
2026-01-03 11:42:42.24	323.39	15.97	-30.2	-32.1	12.7	3.81e-05	0	43	0	1035993088	20	4462
2026-01-03 11:42:43.25	323.52	15.88	-30.3	-32.4	12.5	9.61e-05	0	43	0	1038090240	20	4595
2026-01-03 11:42:44.26	323.65	15.79	-30.3	-32.3	12.5	1.01e-04	0	43	0	1040187392	20	4553
2026-01-03 11:42:45.27	323.77	15.70	-30.4	-32.7	12.3	1.78e-04	0	43	0	1042284544	20	4693
2026-01-03 11:42:46.27	323.89	15.61	-30.4	-32.8	12.2	2.00e-04	0	43	0	1044381696	20	4707
2026-01-03 11:42:47.27	324.02	15.52	-30.4	-32.3	12.2	2.47e-04	0	43	0	1045430272	21	4461
2026-01-03 11:42:48.28	324.14	15.43	-30.3	-32.0	12.4	1.80e-04	0	43	0	1047527424	21	4354
2026-01-03 11:42:49.28	324.26	15.34	-30.3	-32.0	12.4	1.82e-04	0	43	0	1049624576	21	4372
2026-01-03 11:42:50.29	324.38	15.25	-30.6	-32.8	11.9	1.91e-04	0	43	0	1051721728	21	4627
2026-01-03 11:42:51.29	324.50	15.16	-30.7	-33.1	11.6	6.65e-04	0	43	0	1053818880	21	4732
2026-01-03 11:42:52.30	324.62	15.07	-30.6	-32.8	11.8	4.85e-04	0	43	0	1054867456	21	4628
2026-01-03 11:42:53.31	324.74	14.98	-30.7	-33.2	11.5	5.65e-04	0	43	0	1056964608	21	4772
2026-01-03 11:42:54.31	324.86	14.90	-30.6	-32.8	11.9	6.48e-04	0	43	0	1059061760	21	4627
2026-01-03 11:42:55.32	324.97	14.81	-30.5	-32.7	11.9	3.39e-04	0	43	0	1061158912	21	4598
2026-01-03 11:42:56.33	325.09	14.72	-30.5	-32.7	11.9	3.49e-04	0	43	0	1063256064	21	4592
2026-01-03 11:42:57.34	325.21	14.63	-30.5	-32.7	11.9	5.80e-04	0	43	0	1064304640	21	4592
2026-01-03 11:42:58.35	325.32	14.54	-30.5	-32.5	12.0	3.39e-04	0	43	0	1066401792	21	4536
2026-01-03 11:42:59.35	325.44	14.45	-30.6	-32.9	11.7	4.88e-04	0	43	0	1068498944	21	4677
2026-01-03 11:43:00.35	325.55	14.37	-30.6	-32.9	11.7	4.95e-04	0	43	0	1070596096	21	4663
2026-01-03 11:43:01.35	325.66	14.28	-30.7	-33.3	11.5	6.42e-04	0	43	0	1072693248	21	4816
2026-01-03 11:43:02.35	325.78	14.19	-30.6	-32.8	11.8	6.41e-04	0	43	0	1073741824	21	4638
2026-01-03 11:43:03.36	325.89	14.11	-30.6	-32.9	11.6	5.30e-04	0	43	0	1075838976	21	4697
2026-01-03 11:43:04.37	326.00	14.02	-30.7	-33.1	11.5	1.06e-03	0	43	0	1077936128	21	4752
2026-01-03 11:43:05.38	326.11	13.93	-30.4	-32.3	12.1	5.00e-04	0	43	0	1080033280	21	4475
2026-01-03 11:43:06.38	326.22	13.85	-30.4	-32.2	12.2	2.30e-04	0	43	0	1082130432	21	4424
2026-01-03 11:43:07.39	326.33	13.76	-30.4	-32.4	12.1	3.07e-04	0	43	0	1083179008	21	4494
2026-01-03 11:43:08.39	326.44	13.68	-30.1	-31.5	12.6	1.38e-04	0	43	0	1085276160	21	4204
2026-01-03 11:43:09.40	326.55	13.59	-30.1	-31.5	12.6	7.32e-05	0	43	0	1087373312	21	4219
2026-01-03 11:43:10.40	326.66	13.51	-30.1	-31.3	12.7	9.76e-05	0	43	0	1089470464	21	4149
2026-01-03 11:43:11.41	326.76	13.42	-29.8	-30.6	13.2	4.04e-05	0	43	0	1091567616	21	3951
2026-01-03 11:43:12.42	326.87	13.34	-29.9	-31.3	13.1	2.05e-05	0	43	0	1092616192	20	4232
2026-01-03 11:43:13.42	326.98	13.25	-29.8	-31.0	13.3	3.81e-05	0	43	0	1094713344	20	4147
2026-01-03 11:43:14.43	327.08	13.17	-29.7	-30.7	13.4	1.75e-05	0	43	0	1096810496	20	4059
2026-01-03 11:43:15.43	327.19	13.08	-29.8	-31.0	13.2	6.10e-06	0	43	0	1098907648	20	4145
2026-01-03 11:43:16.43	327.29	13.00	-29.7	-30.7	13.4	9.90e-06	0	43	0	1101004800	20	4061
2026-01-03 11:43:17.44	327.39	12.92	-30.0	-31.6	12.9	3.43e-05	0	43	0	1102053376	20	4325
2026-01-03 11:43:18.45	327.50	12.83	-29.8	-31.2	13.1	4.04e-05	0	43	0	1104150528	20	4194
2026-01-03 11:43:19.46	327.60	12.75	-30.0	-31.5	12.9	3.05e-05	0	43	0	1106247680	20	4308
2026-01-03 11:43:20.46	327.70	12.67	-30.2	-32.1	12.5	8.92e-05	0	43	0	1108344832	20	4482
2026-01-03 11:43:21.46	327.80	12.58	-30.1	-31.9	12.6	9.15e-05	0	43	0	1110441984	20	4448
2026-01-03 11:43:22.47	327.91	12.50	-30.4	-32.8	12.0	1.57e-04	0	43	0	1111490560	20	4748
2026-01-03 11:43:23.47	328.00	12.42	-30.6	-32.9	11.5	6.01e-04	0	43	0	1113587712	21	4693
2026-01-03 11:43:24.48	328.11	12.33	-30.4	-32.3	11.9	3.74e-04	0	43	0	1115684864	21	4490
2026-01-03 11:43:25.48	328.20	12.25	-30.5	-32.6	11.8	4.28e-04	0	43	0	1117782016	21	4581
2026-01-03 11:43:26.49	328.30	12.17	-30.5	-32.5	11.8	5.10e-04	0	43	0	1119879168	21	4550
2026-01-03 11:43:27.49	328.40	12.09	-30.5	-32.7	11.7	4.22e-04	0	43	0	1120927744	21	4624
2026-01-03 11:43:28.50	328.50	12.01	-30.7	-33.1	11.4	9.15e-04	0	43	0	1123024896	21	4783
2026-01-03 11:43:29.51	328.60	11.93	-30.3	-32.2	12.0	5.42e-04	0	43	0	1125122048	21	4447
2026-01-03 11:43:30.51	328.69	11.85	-30.4	-32.3	12.0	2.82e-04	0	43	0	1127219200	21	4502
2026-01-03 11:43:31.52	328.79	11.76	-30.4	-32.3	12.0	3.82e-04	0	43	0	1129316352	21	4474
2026-01-03 11:43:32.53	328.89	11.68	-30.3	-31.9	12.2	2.61e-04	0	43	0	1130364928	21	4356
2026-01-03 11:43:33.54	328.98	11.60	-30.3	-31.9	12.2	1.85e-04	0	43	0	1132462080	21	4356
2026-01-03 11:43:34.54	329.08	11.52	-30.1	-31.5	12.5	1.98e-04	0	43	0	1134559232	21	4210
2026-01-03 11:43:35.55	329.17	11.44	-30.1	-31.4	12.5	1.29e-04	0	43	0	1136656384	21	4193
2026-01-03 11:43:36.55	329.26	11.36	-30.3	-32.0	12.1	2.65e-04	0	43	0	1138753536	21	4372
2026-01-03 11:43:37.56	329.36	11.28	-30.1	-31.5	12.4	1.57e-04	0	43	0	1139802112	21	4211
2026-01-03 11:43:38.56	329.45	11.20	-30.3	-32.2	12.0	1.50e-04	0	43	0	1141899264	21	4448
2026-01-03 11:43:39.56	329.54	11.12	-30.3	-32.0	12.1	3.94e-04	0	43	0	1143996416	21	4411
2026-01-03 11:43:40.57	329.64	11.04	-30.2	-31.8	12.3	2.25e-04	0	43	0	1146093568	21	4311
2026-01-03 11:43:41.57	329.73	10.97	-30.4	-32.4	11.8	3.47e-04	0	43	0	1148190720	21	4547
2026-01-03 11:43:42.57	329.82	10.89	-30.4	-32.3	11.9	4.68e-04	0	43	0	1149239296	21	4492
2026-01-03 11:43:43.58	329.91	10.81	-30.5	-32.7	11.6	4.54e-04	0	43	0	1151336448	21	4627
2026-01-03 11:43:44.58	330.00	10.73	-30.6	-33.0	11.3	1.02e-03	0	43	0	1153433600	21	4756
2026-01-03 11:43:45.58	330.09	10.65	-30.5	-32.7	11.6	7.73e-04	0	43	0	1155530752	21	4627
2026-01-03 11:43:46.59	330.18	10.57	-30.6	-32.9	11.5	5.84e-04	0	43	0	1156579328	21	4699
2026-01-03 11:43:47.59	330.26	10.50	-30.6	-33.0	11.4	1.08e-03	0	43	0	1158676480	21	4742
2026-01-03 11:43:48.59	330.35	10.42	-30.5	-32.9	11.5	8.19e-04	0	43	0	1160773632	21	4702
2026-01-03 11:43:49.60	330.44	10.34	-30.7	-33.3	11.1	1.39e-03	0	43	0	1162870784	21	4870
2026-01-03 11:43:50.60	330.53	10.27	-30.6	-32.9	11.4	1.27e-03	0	43	0	1164967936	21	4700
2026-01-03 11:43:51.61	330.61	10.19	-30.6	-33.0	11.3	8.23e-04	0	43	0	1166016512	21	4756
2026-01-03 11:43:52.62	330.70	10.11	-30.6	-32.9	11.4	1.32e-03	0	43	0	1168113664	21	4716
2026-01-03 11:43:53.62	330.79	10.03	-30.3	-32.2	11.9	6.00e-04	0	43	0	1170210816	21	4485
2026-01-03 11:43:54.63	330.87	9.96	-30.5	-32.7	11.6	5.43e-04	0	43	0	1172307968	21	4632
2026-01-03 11:43:55.64	330.96	9.88	-30.3	-32.2	11.8	6.97e-04	0	43	0	1174405120	21	4485
2026-01-03 11:43:56.65	331.04	9.80	-30.2	-31.7	12.2	2.94e-04	0	43	0	1175453696	21	4318
2026-01-03 11:43:57.65	331.13	9.73	-30.2	-31.9	12.0	3.08e-04	0	43	0	1177550848	21	4382
2026-01-03 11:43:58.66	331.21	9.65	-30.0	-31.3	12.4	2.02e-04	0	43	0	1179648000	21	4187
2026-01-03 11:43:59.66	331.30	9.58	-30.1	-31.7	12.2	1.19e-04	0	43	0	1181745152	21	4294
2026-01-03 11:44:00.66	331.38	9.50	-30.1	-31.5	12.3	2.35e-04	0	43	0	1183842304	21	4243
2026-01-03 11:44:01.66	331.46	9.43	-29.8	-30.8	12.8	8.23e-05	0	43	0	1184890880	21	4020
2026-01-03 11:44:02.67	331.54	9.35	-29.9	-30.9	12.7	7.47e-05	0	43	0	1186988032	21	4066
2026-01-03 11:44:03.68	331.63	9.28	-29.8	-30.8	12.7	1.01e-04	0	43	0	1189085184	21	4044
2026-01-03 11:44:04.67	331.71	9.20	-29.9	-31.0	12.6	8.69e-05	0	43	0	1191182336	21	4098
2026-01-03 11:44:05.68	331.79	9.13	-30.0	-31.4	12.4	1.60e-04	0	43	0	1193279488	21	4210
2026-01-03 11:44:06.69	331.87	9.05	-30.0	-31.2	12.5	1.23e-04	0	43	0	1194328064	21	4143
2026-01-03 11:44:07.70	331.95	8.98	-30.1	-31.6	12.2	1.52e-04	0	43	0	1196425216	21	4285
2026-01-03 11:44:08.70	332.03	8.91	-30.1	-31.7	12.1	2.89e-04	0	43	0	1198522368	21	4312
2026-01-03 11:44:09.71	332.11	8.83	-30.0	-31.3	12.4	1.35e-04	0	43	0	1200619520	21	4186
2026-01-03 11:44:10.72	332.19	8.76	-30.1	-31.7	12.1	2.30e-04	0	43	0	1202716672	21	4332
2026-01-03 11:44:11.72	332.27	8.69	-30.1	-31.6	12.2	2.54e-04	0	43	0	1203765248	21	4291
2026-01-03 11:44:12.73	332.35	8.61	-30.1	-31.5	12.2	2.27e-04	0	43	0	1205862400	21	4266
2026-01-03 11:44:13.73	332.42	8.54	-30.2	-32.0	11.9	3.07e-04	0	43	0	1207959552	21	4419
2026-01-03 11:44:14.74	332.50	8.47	-30.1	-31.7	12.1	3.39e-04	0	43	0	1210056704	21	4321
2026-01-03 11:44:15.74	332.58	8.39	-30.3	-32.2	11.7	4.25e-04	0	43	0	1212153856	21	4489
2026-01-03 11:44:16.75	332.66	8.32	-30.3	-32.2	11.7	8.46e-04	0	43	0	1213202432	21	4487
2026-01-03 11:44:17.76	332.73	8.25	-30.1	-31.7	12.0	3.29e-04	0	43	0	1215299584	21	4336
2026-01-03 11:44:18.76	332.81	8.18	-30.2	-31.8	12.0	3.10e-04	0	43	0	1217396736	21	4369
2026-01-03 11:44:19.77	332.89	8.10	-30.0	-31.5	12.1	2.76e-04	0	43	0	1219493888	21	4269
2026-01-03 11:44:20.77	332.96	8.03	-30.1	-31.6	12.1	2.46e-04	0	43	0	1221591040	21	4309
2026-01-03 11:44:21.78	333.04	7.96	-30.1	-31.8	11.9	4.31e-04	0	43	0	1222639616	21	4372
2026-01-03 11:44:22.78	333.11	7.89	-30.2	-31.9	11.9	3.36e-04	0	44	0	1224736768	21	4391
2026-01-03 11:44:23.79	333.19	7.82	-30.2	-32.0	11.8	4.00e-04	0	43	0	1226833920	21	4433
2026-01-03 11:44:24.79	333.26	7.75	-30.1	-31.8	11.9	4.73e-04	0	43	0	1228931072	21	4368
2026-01-03 11:44:25.80	333.33	7.67	-30.2	-32.0	11.8	3.95e-04	0	43	0	1231028224	21	4419
2026-01-03 11:44:26.81	333.41	7.60	-30.3	-32.3	11.6	5.94e-04	0	43	0	1232076800	21	4519
2026-01-03 11:44:27.82	333.48	7.53	-30.2	-31.9	11.8	5.36e-04	0	43	0	1234173952	21	4412
2026-01-03 11:44:28.82	333.55	7.46	-30.2	-32.0	11.8	4.84e-04	0	43	0	1236271104	21	4427
2026-01-03 11:44:29.83	333.63	7.39	-30.3	-32.3	11.5	7.45e-04	0	43	0	1238368256	21	4551
2026-01-03 11:44:30.83	333.70	7.32	-30.3	-32.3	11.5	6.55e-04	0	43	0	1240465408	21	4546
2026-01-03 11:44:31.83	333.77	7.25	-30.3	-32.5	11.4	6.52e-04	0	43	0	1241513984	21	4607
2026-01-03 11:44:32.83	333.84	7.18	-30.4	-32.6	11.3	1.04e-03	0	43	0	1243611136	21	4659
2026-01-03 11:44:33.84	333.91	7.11	-30.5	-33.0	11.0	1.20e-03	0	43	0	1245708288	21	4810
2026-01-03 11:44:34.84	333.98	7.04	-33.0	-44.6	3.8	1.28e+00	0	43	104	1246756864	26	13645
2026-01-03 11:44:35.84	334.05	6.97	-33.3	-45.9	3.8	1.49e+00	0	43	104	1246756864	26	15286
2026-01-03 11:44:36.84	334.12	6.90	-33.5	-46.2	3.8	1.49e+00	0	43	104	1246756864	26	15625

#Closed at: 2026-01-03 11:44:37
#Recorded file [1246 MB]: D:/data/31010_260103_143329.dat