passes_logs/2026/01/03/R2M6_AANII_01/R2M6_AANII_01__20260103_014003_SUOMI_NPP_rec.log

#Pass ID: 20260103_014003_SUOMI NPP
#Satellite: SUOMI NPP
#Configuration: NPP
#almurnet v.1.7.20240730
#Start time: 2026-01-03 01:40:04

#Version: 2.2.20231116
#Station: R2M6_AANII_01
#Location: 30.233357 lon 59.946436 lat
#TLE: 1 37849U 11061A   26001.07732418  .00000182  00000+0  10735-3 0  9990
#TLE: 2 37849  98.7795 303.2470 0002580  87.2016 272.9455 14.19520779734739

#Time	Az	El	Level	Level2	SNR	BER	BlckErr	Temp	State	Recorded	gain1	gain2
2026-01-03 01:40:04.71	12.62	7.08	-31.6	-38.2	4.4	1.40e+00	0	41	0	0	23	7722
2026-01-03 01:40:05.71	12.56	7.16	-31.6	-38.3	4.4	1.40e+00	0	41	104	0	23	7758
2026-01-03 01:40:06.72	12.50	7.23	-31.0	-37.6	5.7	4.65e-01	0	41	0	0	23	7661
2026-01-03 01:40:07.73	12.44	7.30	-30.1	-36.9	5.5	4.49e-01	0	41	0	1048576	22	7887
2026-01-03 01:40:08.74	12.37	7.37	-31.6	-38.7	5.5	4.76e-01	0	41	0	3145728	22	8160
2026-01-03 01:40:09.74	12.31	7.45	-31.6	-37.9	5.8	4.03e-01	0	41	0	5242880	23	7419
2026-01-03 01:40:10.75	12.25	7.52	-31.6	-37.8	5.8	3.51e-01	0	41	0	7340032	23	7359
2026-01-03 01:40:11.75	12.19	7.59	-31.7	-38.1	5.6	3.77e-01	0	41	0	9437184	23	7570
2026-01-03 01:40:12.75	12.12	7.66	-31.7	-38.5	5.5	4.17e-01	0	41	0	10485760	23	7876
2026-01-03 01:40:13.76	12.06	7.74	-31.6	-37.8	5.9	4.89e-01	0	41	0	12582912	23	7319
2026-01-03 01:40:14.77	11.99	7.81	-31.5	-37.4	6.6	2.81e-01	0	41	0	14680064	22	7120
2026-01-03 01:40:15.77	11.93	7.88	-31.3	-36.5	7.3	1.66e-01	0	41	0	16777216	22	6561
2026-01-03 01:40:16.77	11.86	7.96	-31.0	-35.4	8.1	1.03e-01	0	41	0	18874368	22	5924
2026-01-03 01:40:17.78	11.80	8.03	-30.8	-35.1	8.7	4.36e-02	0	41	0	19922944	21	5848
2026-01-03 01:40:18.78	11.73	8.11	-30.7	-34.6	9.1	2.22e-02	0	41	0	22020096	21	5615
2026-01-03 01:40:19.78	11.67	8.18	-30.5	-34.1	9.8	1.46e-02	0	41	0	24117248	20	5495
2026-01-03 01:40:20.78	11.60	8.25	-30.3	-33.5	10.3	6.27e-03	0	41	0	26214400	20	5227
2026-01-03 01:40:21.79	11.53	8.33	-30.2	-33.3	10.5	6.53e-03	0	41	0	28311552	20	5114
2026-01-03 01:40:22.79	11.47	8.40	-30.0	-32.7	10.9	2.94e-03	0	41	0	29360128	20	4894
2026-01-03 01:40:23.80	11.40	8.48	-29.9	-32.3	11.2	1.91e-03	0	41	0	31457280	20	4746
2026-01-03 01:40:24.81	11.33	8.55	-30.1	-32.7	10.9	3.37e-03	0	41	0	33554432	20	4882
2026-01-03 01:40:25.81	11.26	8.63	-30.0	-32.6	11.0	2.59e-03	0	41	0	35651584	20	4854
2026-01-03 01:40:26.82	11.19	8.71	-30.0	-32.4	11.2	1.34e-03	0	41	0	37748736	20	4753
2026-01-03 01:40:27.82	11.13	8.78	-30.0	-32.6	11.0	2.04e-03	0	41	0	38797312	20	4850
2026-01-03 01:40:28.83	11.06	8.86	-29.9	-32.2	11.3	4.97e-03	0	41	0	40894464	20	4694
2026-01-03 01:40:29.84	10.99	8.93	-29.9	-32.7	11.5	9.32e-04	0	42	0	42991616	19	4935
2026-01-03 01:40:30.84	10.92	9.01	-29.9	-32.7	11.4	1.41e-03	0	41	0	45088768	19	4947
2026-01-03 01:40:31.85	10.85	9.09	-30.0	-32.4	11.3	4.36e-03	0	42	0	46137344	20	4777
2026-01-03 01:40:32.85	10.78	9.16	-30.0	-32.3	11.3	4.51e-03	0	42	0	48234496	20	4734
2026-01-03 01:40:33.86	10.70	9.24	-30.0	-32.6	11.1	1.83e-03	0	42	0	50331648	20	4823
2026-01-03 01:40:34.86	10.63	9.32	-30.1	-32.8	11.0	4.65e-03	0	42	0	52428800	20	4908
2026-01-03 01:40:35.87	10.56	9.40	-30.1	-32.6	11.1	4.41e-03	0	42	0	54525952	20	4827
2026-01-03 01:40:36.87	10.49	9.47	-30.1	-32.7	11.1	1.85e-03	0	41	0	56623104	20	4846
2026-01-03 01:40:37.88	10.41	9.55	-30.1	-32.7	11.0	5.02e-03	0	42	0	57671680	20	4851
2026-01-03 01:40:38.89	10.34	9.63	-30.2	-33.0	10.9	4.82e-03	0	42	0	59768832	20	4994
2026-01-03 01:40:39.90	10.27	9.71	-30.2	-33.0	10.9	3.07e-03	0	42	0	61865984	20	4967
2026-01-03 01:40:40.90	10.19	9.79	-30.2	-33.0	10.9	3.07e-03	0	42	0	63963136	20	4966
2026-01-03 01:40:41.91	10.12	9.86	-30.0	-32.5	11.2	4.48e-03	0	42	0	65011712	20	4795
2026-01-03 01:40:42.91	10.04	9.94	-30.0	-32.8	11.5	1.81e-03	0	42	0	67108864	19	4970
2026-01-03 01:40:43.92	9.97	10.02	-30.0	-32.4	11.3	4.27e-03	0	42	0	69206016	20	4752
2026-01-03 01:40:44.92	9.89	10.10	-30.0	-32.4	11.3	4.01e-03	0	42	0	71303168	20	4759
2026-01-03 01:40:45.93	9.82	10.18	-30.0	-32.5	11.3	2.19e-03	0	42	0	73400320	20	4781
2026-01-03 01:40:46.93	9.74	10.26	-30.1	-32.8	11.1	4.82e-03	0	42	0	74448896	20	4885
2026-01-03 01:40:47.94	9.66	10.34	-29.9	-32.1	11.6	3.96e-03	0	42	0	76546048	20	4628
2026-01-03 01:40:48.94	9.58	10.42	-29.9	-32.0	11.6	1.17e-03	0	42	0	78643200	20	4611
2026-01-03 01:40:49.95	9.51	10.50	-29.9	-32.1	11.6	3.79e-03	0	42	0	80740352	20	4641
2026-01-03 01:40:50.96	9.43	10.58	-29.9	-32.2	11.5	6.48e-04	0	42	0	82837504	20	4678
2026-01-03 01:40:51.97	9.35	10.66	-29.9	-32.1	11.6	1.03e-03	0	42	0	84934656	20	4631
2026-01-03 01:40:52.98	9.27	10.74	-30.0	-32.3	11.5	3.59e-03	0	42	0	85983232	20	4702
2026-01-03 01:40:53.98	9.19	10.82	-29.9	-32.1	11.6	3.54e-03	0	42	0	88080384	20	4634
2026-01-03 01:40:54.99	9.11	10.90	-30.0	-32.4	11.4	8.40e-04	0	42	0	90177536	20	4732
2026-01-03 01:40:55.99	9.03	10.99	-30.0	-32.4	11.4	4.16e-03	0	42	0	92274688	20	4727
2026-01-03 01:40:57.00	8.95	11.07	-30.1	-32.6	11.3	4.34e-03	0	42	0	93323264	20	4801
2026-01-03 01:40:58.00	8.86	11.15	-30.0	-32.3	11.5	8.73e-04	0	42	0	95420416	20	4685
2026-01-03 01:40:59.00	8.78	11.23	-29.9	-32.6	11.7	3.27e-03	0	42	0	97517568	19	4899
2026-01-03 01:41:00.01	8.70	11.31	-30.0	-32.4	11.4	3.54e-03	0	42	0	99614720	20	4753
2026-01-03 01:41:01.01	8.62	11.40	-29.8	-31.9	11.7	5.96e-04	0	42	0	101711872	20	4550
2026-01-03 01:41:02.02	8.53	11.48	-30.0	-32.3	11.5	7.21e-04	0	42	0	102760448	20	4712
2026-01-03 01:41:03.02	8.45	11.56	-30.0	-32.3	11.5	3.85e-03	0	42	0	104857600	20	4690
2026-01-03 01:41:04.03	8.36	11.64	-29.7	-31.3	12.2	1.09e-03	0	42	0	106954752	20	4348
2026-01-03 01:41:05.03	8.28	11.73	-29.8	-32.1	12.1	3.86e-04	0	42	0	109051904	19	4704
2026-01-03 01:41:06.04	8.19	11.81	-29.8	-32.2	12.0	2.56e-04	0	42	0	111149056	19	4739
2026-01-03 01:41:07.05	8.11	11.90	-29.7	-32.0	12.2	5.39e-04	0	42	0	112197632	19	4658
2026-01-03 01:41:08.05	8.02	11.98	-29.7	-32.0	12.2	2.75e-04	0	42	0	114294784	19	4650
2026-01-03 01:41:09.05	7.93	12.06	-29.7	-31.9	12.1	2.04e-04	0	42	0	116391936	19	4640
2026-01-03 01:41:10.06	7.84	12.15	-29.8	-32.0	12.2	4.61e-04	0	42	0	118489088	19	4677
2026-01-03 01:41:11.07	7.76	12.23	-29.7	-31.9	12.3	1.59e-04	0	42	0	120586240	19	4625
2026-01-03 01:41:12.08	7.67	12.32	-29.6	-31.4	12.7	1.36e-04	0	42	0	121634816	19	4440
2026-01-03 01:41:13.08	7.58	12.40	-29.9	-32.1	11.7	3.51e-04	0	42	0	123731968	20	4613
2026-01-03 01:41:14.09	7.49	12.49	-29.7	-31.9	12.2	3.16e-03	0	42	0	125829120	19	4646
2026-01-03 01:41:15.10	7.40	12.57	-29.8	-32.2	12.1	1.19e-04	0	42	0	127926272	19	4731
2026-01-03 01:41:16.10	7.31	12.66	-30.0	-32.6	11.8	4.33e-04	0	42	0	130023424	19	4867
2026-01-03 01:41:17.11	7.21	12.75	-29.8	-32.0	12.2	3.83e-04	0	42	0	131072000	19	4667
2026-01-03 01:41:18.11	7.12	12.83	-29.7	-31.9	12.2	2.46e-04	0	42	0	133169152	19	4619
2026-01-03 01:41:19.12	7.03	12.92	-29.8	-32.2	12.1	2.10e-04	0	42	0	135266304	19	4706
2026-01-03 01:41:20.12	6.94	13.01	-29.8	-32.0	12.3	2.12e-04	0	42	0	137363456	19	4636
2026-01-03 01:41:21.13	6.84	13.09	-29.8	-32.0	12.3	2.14e-04	0	42	0	139460608	19	4634
2026-01-03 01:41:22.13	6.75	13.18	-29.9	-32.4	12.0	2.46e-04	0	42	0	140509184	19	4777
2026-01-03 01:41:23.14	6.65	13.27	-29.9	-32.0	11.8	2.10e-04	0	42	0	142606336	20	4575
2026-01-03 01:41:24.15	6.56	13.36	-29.8	-32.0	12.3	3.42e-04	0	42	0	144703488	19	4632
2026-01-03 01:41:25.16	6.46	13.44	-29.4	-31.0	12.9	8.16e-05	0	42	0	146800640	19	4323
2026-01-03 01:41:26.17	6.36	13.53	-29.4	-31.0	13.0	5.03e-05	0	42	0	148897792	19	4308
2026-01-03 01:41:27.17	6.27	13.62	-29.3	-31.2	13.1	2.44e-05	0	42	0	149946368	18	4465
2026-01-03 01:41:28.18	6.17	13.71	-28.3	-30.2	13.0	1.37e-05	0	42	0	152043520	18	4457
2026-01-03 01:41:29.18	6.07	13.80	-29.3	-31.2	12.6	3.35e-05	0	42	0	154140672	18	4454
2026-01-03 01:41:30.18	5.97	13.89	-29.3	-31.0	13.2	2.13e-05	0	42	0	156237824	18	4397
2026-01-03 01:41:31.18	5.87	13.98	-29.3	-31.1	11.7	1.06e-05	0	42	0	158334976	18	4427
2026-01-03 01:41:32.18	5.77	14.06	-29.4	-31.2	12.0	2.51e-05	0	42	0	159383552	18	4467
2026-01-03 01:41:33.19	5.67	14.15	-29.1	-30.5	13.6	1.37e-05	0	42	0	161480704	18	4249
2026-01-03 01:41:34.20	5.57	14.25	-29.3	-31.2	13.1	1.67e-05	0	42	0	163577856	18	4459
2026-01-03 01:41:35.20	5.46	14.34	-29.4	-31.3	13.1	2.82e-05	0	42	0	165675008	18	4504
2026-01-03 01:41:36.21	5.36	14.43	-29.4	-31.2	13.1	1.52e-05	0	43	0	167772160	18	4463
2026-01-03 01:41:37.21	5.26	14.52	-29.7	-31.5	12.5	4.19e-05	0	43	0	168820736	19	4477
2026-01-03 01:41:38.22	5.15	14.61	-29.7	-31.6	12.7	2.86e-03	0	42	0	170917888	19	4491
2026-01-03 01:41:39.22	5.05	14.70	-29.7	-31.8	12.4	8.85e-05	0	43	0	173015040	19	4552
2026-01-03 01:41:40.23	4.94	14.79	-29.8	-31.9	12.2	1.14e-04	0	43	0	175112192	19	4619
2026-01-03 01:41:41.24	4.84	14.88	-29.7	-31.8	12.6	2.90e-03	0	43	0	177209344	19	4555
2026-01-03 01:41:42.25	4.73	14.98	-29.9	-32.2	12.0	1.69e-04	0	43	0	178257920	19	4717
2026-01-03 01:41:43.25	4.62	15.07	-29.9	-32.3	12.0	2.08e-04	0	43	0	180355072	19	4742
2026-01-03 01:41:44.25	4.51	15.16	-30.0	-32.1	11.9	3.36e-04	0	43	0	182452224	20	4602
2026-01-03 01:41:45.26	4.40	15.25	-30.1	-32.4	11.6	1.02e-03	0	43	0	184549376	20	4692
2026-01-03 01:41:46.27	4.29	15.35	-29.9	-31.9	12.0	4.08e-04	0	43	0	186646528	20	4511
2026-01-03 01:41:47.27	4.18	15.44	-29.9	-32.4	12.2	1.87e-04	0	43	0	187695104	19	4763
2026-01-03 01:41:48.27	4.07	15.53	-29.8	-32.0	12.4	4.02e-04	0	43	0	189792256	19	4615
2026-01-03 01:41:49.27	3.96	15.62	-29.8	-31.9	12.5	1.23e-03	0	43	0	191889408	19	4591
2026-01-03 01:41:50.28	3.85	15.72	-29.9	-32.3	12.3	1.27e-04	0	43	0	193986560	19	4716
2026-01-03 01:41:51.28	3.74	15.81	-29.9	-32.1	12.3	4.97e-04	0	43	0	196083712	19	4681
2026-01-03 01:41:52.29	3.62	15.91	-29.9	-32.1	12.4	3.01e-03	0	43	0	197132288	19	4659
2026-01-03 01:41:53.30	3.51	16.00	-29.9	-31.7	12.2	2.39e-04	0	43	0	199229440	20	4441
2026-01-03 01:41:54.29	3.39	16.10	-29.8	-31.6	12.3	2.59e-04	0	43	0	201326592	20	4389
2026-01-03 01:41:55.30	3.27	16.19	-29.9	-32.2	12.4	2.82e-03	0	43	0	203423744	19	4707
2026-01-03 01:41:56.31	3.16	16.29	-29.9	-32.3	12.2	3.25e-03	0	43	0	204472320	19	4746
2026-01-03 01:41:57.31	3.04	16.38	-29.7	-31.6	12.8	1.35e-04	0	43	0	206569472	19	4485
2026-01-03 01:41:58.31	2.92	16.48	-29.5	-31.1	13.1	2.74e-03	0	42	0	208666624	19	4327
2026-01-03 01:41:59.32	2.80	16.58	-29.5	-31.2	13.1	2.72e-03	0	43	0	210763776	19	4338
2026-01-03 01:42:00.32	2.68	16.67	-29.3	-31.0	13.5	1.37e-05	0	43	0	212860928	18	4361
2026-01-03 01:42:01.32	2.56	16.77	-29.2	-30.8	13.6	2.59e-03	0	43	0	214958080	18	4313
2026-01-03 01:42:02.32	2.44	16.86	-29.2	-30.7	13.7	2.46e-03	0	43	0	216006656	18	4287
2026-01-03 01:42:03.33	2.32	16.96	-29.1	-30.4	13.9	2.17e-04	0	43	0	218103808	18	4191
2026-01-03 01:42:04.34	2.19	17.06	-29.0	-30.6	14.1	6.10e-06	0	43	0	220200960	17	4328
2026-01-03 01:42:05.35	2.07	17.16	-29.2	-30.6	13.8	2.62e-03	0	43	0	222298112	18	4244
2026-01-03 01:42:06.35	1.94	17.25	-29.3	-30.9	13.6	1.79e-04	0	43	0	223346688	18	4351
2026-01-03 01:42:07.35	1.82	17.35	-29.1	-30.4	13.9	2.65e-03	0	43	0	225443840	18	4200
2026-01-03 01:42:08.36	1.69	17.45	-29.1	-30.5	13.9	2.50e-03	0	43	0	227540992	18	4214
2026-01-03 01:42:09.37	1.56	17.55	-29.2	-30.8	13.7	1.56e-04	0	43	0	229638144	18	4290
2026-01-03 01:42:10.37	1.43	17.65	-29.3	-31.0	13.6	2.65e-03	0	43	0	231735296	18	4356
2026-01-03 01:42:11.38	1.30	17.75	-29.4	-31.1	13.4	2.48e-03	0	43	0	232783872	18	4411
2026-01-03 01:42:12.39	1.17	17.85	-29.5	-31.0	13.3	2.43e-04	0	43	0	234881024	19	4274
2026-01-03 01:42:13.39	1.04	17.95	-29.6	-31.4	13.0	2.34e-03	0	43	0	236978176	19	4406
2026-01-03 01:42:14.39	0.91	18.05	-29.6	-31.3	13.0	2.78e-03	0	43	0	239075328	19	4391
2026-01-03 01:42:15.40	0.78	18.15	-29.5	-30.9	13.2	4.22e-04	0	43	0	241172480	19	4259
2026-01-03 01:42:16.39	0.65	18.25	-29.5	-30.9	13.3	2.94e-03	0	43	0	242221056	19	4261
2026-01-03 01:42:17.40	0.51	18.35	-29.5	-30.9	13.3	2.63e-03	0	43	0	244318208	19	4254
2026-01-03 01:42:18.40	0.37	18.45	-29.4	-30.8	13.3	2.08e-04	0	43	0	246415360	19	4206
2026-01-03 01:42:19.41	0.24	18.55	-29.4	-31.3	13.3	2.76e-03	0	43	0	248512512	18	4472
2026-01-03 01:42:20.41	0.10	18.65	-29.3	-31.0	13.5	2.42e-03	0	43	0	250609664	18	4382
2026-01-03 01:42:21.41	359.96	18.75	-29.4	-31.2	13.4	1.71e-04	0	43	0	251658240	18	4427
2026-01-03 01:42:22.41	359.82	18.85	-29.3	-30.9	13.6	2.71e-03	0	43	0	253755392	18	4335
2026-01-03 01:42:23.42	359.68	18.96	-29.4	-31.2	13.4	2.61e-03	0	43	0	255852544	18	4443
2026-01-03 01:42:24.42	359.54	19.06	-29.4	-30.7	13.4	2.32e-04	0	43	0	257949696	19	4189
2026-01-03 01:42:25.43	359.40	19.16	-29.4	-30.9	13.2	3.59e-04	0	43	0	260046848	19	4253
2026-01-03 01:42:26.44	359.26	19.26	-29.6	-31.3	13.1	2.62e-03	0	43	0	261095424	19	4378
2026-01-03 01:42:27.44	359.11	19.37	-29.7	-31.5	12.9	2.60e-04	0	43	0	263192576	19	4435
2026-01-03 01:42:28.44	358.97	19.47	-29.7	-31.5	12.9	3.43e-04	0	43	0	265289728	19	4459
2026-01-03 01:42:29.45	358.82	19.57	-29.9	-31.7	12.3	7.09e-05	0	43	0	267386880	20	4436
2026-01-03 01:42:30.46	358.67	19.68	-29.9	-32.1	12.5	7.06e-04	0	43	0	269484032	19	4648
2026-01-03 01:42:31.46	358.52	19.78	-29.9	-32.2	12.5	7.26e-04	0	43	0	270532608	19	4663
2026-01-03 01:42:32.47	358.37	19.89	-29.9	-31.7	12.4	4.19e-04	0	43	0	272629760	20	4436
2026-01-03 01:42:33.47	358.22	19.99	-29.8	-32.0	12.7	7.15e-04	0	43	0	274726912	19	4601
2026-01-03 01:42:34.47	358.07	20.09	-30.0	-32.3	12.5	3.07e-03	0	43	0	276824064	19	4732
2026-01-03 01:42:35.47	357.92	20.20	-29.7	-31.2	12.7	6.79e-05	0	43	0	278921216	20	4266
2026-01-03 01:42:36.47	357.77	20.30	-29.8	-31.9	12.7	5.06e-04	0	43	0	279969792	19	4555
2026-01-03 01:42:37.48	357.61	20.41	-29.9	-31.7	12.4	3.11e-03	0	43	0	282066944	20	4417
2026-01-03 01:42:38.48	357.46	20.51	-29.9	-31.8	12.4	1.11e-04	0	43	0	284164096	20	4440
2026-01-03 01:42:39.48	357.30	20.62	-29.8	-31.4	12.6	7.83e-04	0	43	0	286261248	20	4320
2026-01-03 01:42:40.49	357.14	20.73	-29.9	-31.7	12.4	8.30e-04	0	43	0	288358400	20	4437
2026-01-03 01:42:41.50	356.98	20.83	-30.1	-32.2	12.1	2.38e-04	0	43	0	289406976	20	4597
2026-01-03 01:42:42.51	356.82	20.94	-30.4	-33.1	11.6	7.45e-04	0	43	0	291504128	20	4912
2026-01-03 01:42:43.51	356.66	21.05	-30.1	-32.3	12.0	5.94e-04	0	43	0	293601280	20	4639
2026-01-03 01:42:44.52	356.50	21.15	-30.1	-32.3	12.0	2.64e-03	0	43	0	295698432	20	4622
2026-01-03 01:42:45.52	356.34	21.26	-30.2	-32.1	11.8	1.61e-03	0	43	0	297795584	21	4451
2026-01-03 01:42:46.53	356.17	21.37	-30.0	-31.8	12.4	6.68e-04	0	43	0	298844160	20	4453
2026-01-03 01:42:47.54	356.00	21.48	-29.8	-31.9	12.7	9.99e-05	0	43	0	300941312	19	4557
2026-01-03 01:42:48.55	355.83	21.58	-29.8	-31.3	12.7	9.00e-05	0	43	0	303038464	20	4283
2026-01-03 01:42:49.55	355.67	21.69	-29.7	-31.5	13.0	3.71e-04	0	43	0	305135616	19	4448
2026-01-03 01:42:50.56	355.50	21.80	-29.8	-31.9	12.7	4.04e-05	0	43	0	306184192	19	4583
2026-01-03 01:42:51.56	355.33	21.91	-29.4	-30.8	13.4	1.75e-05	0	43	0	308281344	19	4223
2026-01-03 01:42:52.56	355.16	22.01	-29.5	-31.5	13.4	3.62e-04	0	43	0	310378496	18	4510
2026-01-03 01:42:53.57	354.98	22.12	-29.6	-31.2	13.1	3.73e-05	0	43	0	312475648	19	4345
2026-01-03 01:42:54.57	354.81	22.23	-29.6	-31.3	13.1	4.72e-04	0	43	0	314572800	19	4364
2026-01-03 01:42:55.58	354.63	22.34	-29.7	-31.5	13.0	4.34e-05	0	43	0	316669952	19	4431
2026-01-03 01:42:56.58	354.45	22.45	-29.8	-31.8	12.8	9.84e-05	0	43	0	317718528	19	4535
2026-01-03 01:42:57.59	354.28	22.56	-29.9	-32.2	12.5	5.06e-04	0	43	0	319815680	19	4678
2026-01-03 01:42:58.59	354.10	22.67	-29.2	-31.1	12.3	9.00e-05	0	43	0	321912832	20	4505
2026-01-03 01:42:59.59	353.92	22.78	-29.9	-32.0	12.6	7.09e-05	0	43	0	324009984	19	4609
2026-01-03 01:43:00.60	353.73	22.89	-29.7	-31.4	12.4	3.44e-04	0	43	0	325058560	19	4397
2026-01-03 01:43:01.60	353.55	23.00	-29.6	-31.3	12.3	1.97e-03	0	43	0	327155712	19	4378
2026-01-03 01:43:02.61	353.37	23.11	-30.0	-32.4	12.6	5.41e-05	0	43	0	329252864	19	4720
2026-01-03 01:43:03.61	353.18	23.22	-29.9	-32.1	12.7	4.66e-04	0	43	0	331350016	19	4608
2026-01-03 01:43:04.62	352.99	23.33	-30.0	-31.8	12.5	1.63e-03	0	43	0	333447168	20	4435
2026-01-03 01:43:05.62	352.80	23.44	-30.3	-32.8	11.8	3.17e-04	0	43	0	334495744	20	4800
2026-01-03 01:43:06.62	352.62	23.55	-30.6	-33.3	11.1	8.55e-04	0	43	0	336592896	21	4881
2026-01-03 01:43:07.63	352.42	23.66	-30.6	-33.2	11.1	8.52e-04	0	43	0	338690048	21	4851
2026-01-03 01:43:08.63	352.23	23.77	-30.7	-33.4	11.0	1.74e-03	0	43	0	340787200	21	4930
2026-01-03 01:43:09.63	352.04	23.88	-30.7	-33.4	11.1	2.46e-03	0	43	0	342884352	21	4923
2026-01-03 01:43:10.63	351.84	23.99	-30.8	-33.8	10.8	2.61e-03	0	43	0	343932928	21	5068
2026-01-03 01:43:11.64	351.64	24.10	-30.8	-33.8	10.8	2.82e-03	0	43	0	346030080	21	5081
2026-01-03 01:43:12.64	351.45	24.21	-30.8	-33.8	10.7	4.81e-03	0	43	0	348127232	21	5096
2026-01-03 01:43:13.65	351.25	24.33	-30.7	-33.4	11.0	2.59e-03	0	43	0	350224384	21	4926
2026-01-03 01:43:14.65	351.05	24.44	-30.5	-32.9	11.3	1.22e-03	0	43	0	352321536	21	4734
2026-01-03 01:43:15.65	350.84	24.55	-30.3	-32.8	11.8	2.58e-03	0	43	0	353370112	20	4801
2026-01-03 01:43:16.66	350.64	24.66	-30.4	-32.9	11.7	4.07e-04	0	43	0	355467264	20	4846
2026-01-03 01:43:17.66	350.43	24.77	-30.5	-32.9	11.4	9.61e-04	0	43	0	357564416	21	4743
2026-01-03 01:43:18.67	350.22	24.88	-30.4	-33.2	11.5	3.21e-03	0	43	0	359661568	20	4954
2026-01-03 01:43:19.67	350.02	25.00	-30.6	-33.3	11.0	4.08e-03	0	43	0	361758720	21	4900
2026-01-03 01:43:20.68	349.81	25.11	-30.7	-33.7	10.7	3.25e-03	0	43	0	362807296	21	5065
2026-01-03 01:43:21.69	349.59	25.22	-30.7	-33.5	10.9	4.29e-03	0	43	0	364904448	21	4993
2026-01-03 01:43:22.69	349.38	25.33	-30.8	-34.0	10.6	4.48e-03	0	43	0	367001600	21	5176
2026-01-03 01:43:23.70	349.16	25.44	-30.7	-33.7	10.7	2.69e-03	0	43	0	369098752	21	5079
2026-01-03 01:43:24.71	348.95	25.56	-30.7	-33.6	10.9	2.19e-03	0	43	0	371195904	21	5008
2026-01-03 01:43:25.72	348.73	25.67	-30.5	-33.0	11.3	2.96e-03	0	43	0	372244480	21	4793
2026-01-03 01:43:26.72	348.51	25.78	-30.4	-32.7	11.5	1.05e-03	0	43	0	374341632	21	4681
2026-01-03 01:43:27.73	348.29	25.89	-30.6	-33.4	11.1	1.05e-03	0	43	0	376438784	21	4927
2026-01-03 01:43:28.74	348.06	26.01	-30.5	-32.8	11.5	1.83e-03	0	43	0	378535936	21	4684
2026-01-03 01:43:29.74	347.84	26.12	-30.3	-32.1	11.9	9.04e-04	0	43	0	380633088	21	4458
2026-01-03 01:43:30.75	347.61	26.23	-30.1	-31.5	12.4	3.87e-04	0	43	0	381681664	21	4266
2026-01-03 01:43:31.76	347.38	26.34	-30.3	-32.7	11.9	4.23e-04	0	43	0	383778816	20	4773
2026-01-03 01:43:32.76	347.16	26.45	-30.4	-33.2	11.5	4.13e-04	0	43	0	385875968	20	4957
2026-01-03 01:43:33.76	346.93	26.57	-30.4	-32.5	11.7	6.10e-04	0	43	0	387973120	21	4580
2026-01-03 01:43:34.77	346.69	26.68	-30.3	-32.3	11.7	5.91e-04	0	43	0	390070272	21	4541
2026-01-03 01:43:35.78	346.46	26.79	-30.1	-31.8	12.2	3.46e-04	0	43	0	391118848	21	4349
2026-01-03 01:43:36.79	346.22	26.90	-30.1	-32.0	12.3	2.22e-04	0	43	0	393216000	20	4513
2026-01-03 01:43:37.79	345.98	27.01	-30.2	-32.4	12.1	5.94e-04	0	43	0	395313152	20	4651
2026-01-03 01:43:38.79	345.74	27.12	-30.1	-32.2	12.3	1.90e-04	0	43	0	397410304	20	4580
2026-01-03 01:43:39.79	345.51	27.24	-30.3	-32.7	11.9	1.76e-03	0	43	0	399507456	20	4754
2026-01-03 01:43:40.80	345.26	27.35	-30.2	-32.5	12.1	2.11e-03	0	43	0	400556032	20	4676
2026-01-03 01:43:41.81	345.02	27.46	-30.2	-32.4	12.2	2.12e-04	0	43	0	402653184	20	4632
2026-01-03 01:43:42.82	344.77	27.57	-30.3	-32.7	11.8	2.20e-03	0	43	0	404750336	20	4757
2026-01-03 01:43:43.82	344.52	27.68	-30.3	-32.8	11.8	2.55e-03	0	43	0	406847488	20	4801
2026-01-03 01:43:44.83	344.27	27.79	-30.2	-32.5	11.9	9.68e-04	0	43	0	408944640	20	4692
2026-01-03 01:43:45.83	344.02	27.90	-30.2	-32.5	12.0	3.23e-04	0	43	0	409993216	20	4672
2026-01-03 01:43:46.84	343.77	28.01	-30.0	-31.9	12.4	2.15e-03	0	43	0	412090368	20	4484
2026-01-03 01:43:47.85	343.51	28.12	-29.9	-32.0	12.8	1.14e-04	0	43	0	414187520	19	4579
2026-01-03 01:43:48.85	343.25	28.23	-29.9	-31.9	12.9	4.27e-05	0	43	0	416284672	19	4565
2026-01-03 01:43:49.86	342.99	28.34	-29.9	-31.7	12.7	1.82e-03	0	43	0	418381824	20	4391
2026-01-03 01:43:50.86	342.74	28.45	-30.1	-32.3	12.3	1.11e-04	0	43	0	419430400	20	4591
2026-01-03 01:43:51.86	342.47	28.56	-30.2	-32.3	12.3	1.62e-03	0	43	0	421527552	20	4583
2026-01-03 01:43:52.87	342.21	28.67	-30.3	-32.8	11.9	3.86e-04	0	43	0	423624704	20	4771
2026-01-03 01:43:53.88	341.94	28.78	-30.4	-33.1	11.7	4.91e-04	0	43	0	425721856	20	4910
2026-01-03 01:43:54.89	341.67	28.89	-30.6	-33.1	11.3	2.58e-03	0	43	0	427819008	21	4808
2026-01-03 01:43:55.89	341.40	29.00	-30.4	-32.4	11.7	5.54e-04	0	43	0	428867584	21	4546
2026-01-03 01:43:56.90	341.13	29.11	-30.2	-32.4	12.2	4.42e-04	0	43	0	430964736	20	4633
2026-01-03 01:43:57.91	340.86	29.22	-29.9	-31.6	12.7	2.32e-03	0	43	0	433061888	20	4381
2026-01-03 01:43:58.92	340.58	29.32	-29.9	-31.5	12.6	6.71e-05	0	43	0	435159040	20	4348
2026-01-03 01:43:59.92	340.31	29.43	-29.8	-31.6	13.1	3.05e-05	0	43	0	437256192	19	4437
2026-01-03 01:44:00.93	340.03	29.54	-29.9	-32.0	12.8	1.48e-03	0	43	0	438304768	19	4589
2026-01-03 01:44:01.94	339.74	29.64	-30.0	-31.8	12.6	7.24e-05	0	43	0	440401920	20	4450
2026-01-03 01:44:02.95	339.46	29.75	-30.0	-31.9	12.5	1.82e-03	0	43	0	442499072	20	4481
2026-01-03 01:44:03.94	339.18	29.85	-30.3	-32.8	11.8	4.23e-04	0	43	0	444596224	20	4804
2026-01-03 01:44:04.95	338.89	29.96	-30.3	-32.8	11.8	5.52e-04	0	43	0	446693376	20	4802
2026-01-03 01:44:05.95	338.60	30.06	-30.2	-32.6	11.9	1.05e-03	0	43	0	447741952	20	4739
2026-01-03 01:44:06.96	338.31	30.17	-30.2	-32.6	11.9	3.17e-04	0	43	0	449839104	20	4744
2026-01-03 01:44:07.96	338.02	30.27	-30.3	-32.9	11.8	3.24e-04	0	43	0	451936256	20	4833
2026-01-03 01:44:08.96	337.73	30.38	-30.7	-33.5	11.0	2.20e-03	0	43	0	454033408	21	4974
2026-01-03 01:44:09.97	337.43	30.48	-30.8	-33.8	10.8	2.61e-03	0	43	0	456130560	21	5110
2026-01-03 01:44:10.98	337.13	30.58	-31.2	-34.6	9.8	4.43e-03	0	43	0	457179136	22	5351
2026-01-03 01:44:11.98	336.84	30.68	-31.2	-35.0	9.5	1.19e-02	0	43	0	459276288	22	5516
2026-01-03 01:44:12.98	336.54	30.78	-31.2	-35.0	9.5	1.31e-02	0	43	0	461373440	22	5541
2026-01-03 01:44:13.99	336.23	30.88	-31.2	-34.8	9.6	1.39e-02	0	43	0	463470592	22	5460
2026-01-03 01:44:15.00	335.92	30.99	-30.9	-33.7	10.5	5.09e-03	0	43	0	464519168	22	4972
2026-01-03 01:44:16.00	335.62	31.08	-30.6	-33.1	11.3	1.68e-03	0	43	0	466616320	21	4817
2026-01-03 01:44:17.01	335.31	31.18	-30.6	-33.1	11.2	1.05e-03	0	43	0	468713472	21	4829
2026-01-03 01:44:18.01	335.00	31.28	-30.7	-33.5	10.9	3.69e-03	0	43	0	470810624	21	4958
2026-01-03 01:44:19.02	334.68	31.38	-30.7	-33.4	11.1	1.85e-03	0	43	0	472907776	21	4910
2026-01-03 01:44:20.02	334.37	31.48	-31.2	-34.6	10.0	3.59e-03	0	43	0	475004928	22	5317
2026-01-03 01:44:21.03	334.05	31.57	-31.1	-34.5	9.8	8.24e-03	0	43	0	476053504	22	5294
2026-01-03 01:44:22.04	333.73	31.67	-31.7	-36.3	8.2	2.90e-02	0	43	0	478150656	23	6096
2026-01-03 01:44:23.04	333.41	31.76	-31.8	-36.5	8.0	5.41e-02	0	43	0	480247808	23	6212
2026-01-03 01:44:24.05	333.09	31.86	-32.0	-37.4	7.3	6.94e-02	0	43	0	482344960	23	6748
2026-01-03 01:44:25.06	332.76	31.95	-31.7	-36.4	8.1	7.74e-02	0	43	0	483393536	23	6152
2026-01-03 01:44:26.06	332.44	32.05	-31.6	-35.7	8.6	3.75e-02	0	43	0	485490688	23	5797
2026-01-03 01:44:27.06	332.11	32.14	-31.4	-35.3	8.9	4.88e-02	0	43	0	487587840	23	5622
2026-01-03 01:44:28.07	331.78	32.23	-31.4	-35.7	8.9	2.94e-02	0	43	0	489684992	22	5890
2026-01-03 01:44:29.08	331.45	32.32	-31.5	-35.7	8.5	2.77e-02	0	43	0	491782144	23	5834
2026-01-03 01:44:30.09	331.11	32.41	-31.6	-36.2	8.2	4.44e-02	0	43	0	492830720	23	6119
2026-01-03 01:44:31.09	330.78	32.50	-31.8	-36.8	7.7	6.05e-02	0	43	0	494927872	23	6439
2026-01-03 01:44:32.10	330.44	32.59	-31.7	-37.0	7.4	1.28e-01	0	43	0	497025024	23	6619
2026-01-03 01:44:33.10	330.10	32.67	-31.9	-37.4	7.2	1.45e-01	0	43	0	499122176	23	6807
2026-01-03 01:44:34.10	329.76	32.76	-31.6	-35.8	8.4	9.64e-02	0	43	0	501219328	23	5882
2026-01-03 01:44:35.10	329.42	32.85	-31.2	-34.5	9.5	1.33e-02	0	43	0	502267904	23	5255
2026-01-03 01:44:36.11	329.07	32.93	-30.8	-34.0	10.6	7.78e-03	0	43	0	504365056	21	5218
2026-01-03 01:44:37.12	328.72	33.01	-30.8	-33.8	10.9	2.30e-03	0	43	0	506462208	21	5096
2026-01-03 01:44:38.12	328.38	33.10	-30.9	-33.8	10.4	3.83e-03	0	43	0	508559360	22	5025
2026-01-03 01:44:39.13	328.03	33.18	-30.9	-34.3	10.5	4.89e-03	0	43	0	510656512	21	5303
2026-01-03 01:44:40.13	327.67	33.26	-31.3	-35.0	9.5	1.02e-02	0	43	0	511705088	22	5528
2026-01-03 01:44:41.14	327.32	33.34	-31.5	-35.8	8.9	1.63e-02	0	43	0	513802240	22	5960
2026-01-03 01:44:42.15	326.96	33.42	-31.4	-35.2	9.0	2.75e-02	0	43	0	515899392	23	5535
2026-01-03 01:44:43.16	326.60	33.49	-31.1	-34.6	9.9	2.08e-02	0	43	0	517996544	22	5332
2026-01-03 01:44:44.16	326.25	33.57	-31.0	-34.2	10.1	7.15e-03	0	43	0	520093696	22	5177
2026-01-03 01:44:45.17	325.88	33.65	-30.9	-34.2	10.4	6.03e-03	0	43	0	521142272	21	5278
2026-01-03 01:44:46.18	325.52	33.72	-30.8	-34.1	10.5	5.52e-03	0	43	0	523239424	21	5241
2026-01-03 01:44:47.18	325.16	33.79	-30.9	-34.6	10.1	5.38e-03	0	43	0	525336576	21	5476
2026-01-03 01:44:48.19	324.79	33.86	-31.4	-35.9	8.7	2.88e-02	0	43	0	527433728	22	6025
2026-01-03 01:44:49.19	324.42	33.93	-31.5	-36.4	8.3	4.26e-02	0	43	0	529530880	22	6307
2026-01-03 01:44:50.19	324.06	34.00	-31.3	-35.6	8.9	3.38e-02	0	43	0	530579456	22	5894
2026-01-03 01:44:51.20	323.69	34.07	-31.3	-35.4	9.1	2.95e-02	0	43	0	532676608	22	5771
2026-01-03 01:44:52.19	323.32	34.14	-31.3	-35.1	9.4	1.75e-02	0	43	0	534773760	22	5612
2026-01-03 01:44:53.20	322.94	34.20	-31.0	-34.0	10.4	1.03e-02	0	43	0	536870912	22	5088
2026-01-03 01:44:54.20	322.57	34.27	-31.0	-34.1	10.1	9.51e-03	0	43	0	538968064	22	5164
2026-01-03 01:44:55.21	322.19	34.33	-30.8	-34.0	10.7	5.80e-03	0	43	0	540016640	21	5194
2026-01-03 01:44:56.22	321.81	34.39	-30.7	-33.5	10.8	1.82e-03	0	43	0	542113792	21	5013
2026-01-03 01:44:57.22	321.43	34.45	-30.6	-33.2	11.2	4.39e-03	0	43	0	544210944	21	4880
2026-01-03 01:44:58.23	321.05	34.51	-30.3	-32.3	11.9	5.31e-04	0	43	0	546308096	21	4542
2026-01-03 01:44:59.23	320.67	34.57	-29.9	-31.0	12.8	2.91e-04	0	43	0	548405248	21	4093
2026-01-03 01:45:00.24	320.29	34.63	-29.6	-31.1	13.4	2.48e-03	0	43	0	549453824	19	4290
2026-01-03 01:45:01.24	319.90	34.68	-29.7	-31.5	13.3	2.80e-03	0	43	0	551550976	19	4424
2026-01-03 01:45:02.25	319.52	34.74	-29.9	-31.9	13.0	2.13e-05	0	43	0	553648128	19	4537
2026-01-03 01:45:03.25	319.13	34.79	-29.7	-31.3	13.4	2.08e-03	0	43	0	555745280	19	4362
2026-01-03 01:45:04.26	318.74	34.84	-29.5	-31.0	13.5	1.94e-03	0	43	0	557842432	19	4244
2026-01-03 01:45:05.27	318.35	34.89	-29.4	-30.6	13.9	1.50e-06	0	43	0	558891008	19	4133
2026-01-03 01:45:06.27	317.96	34.94	-29.6	-31.3	13.3	2.32e-03	0	43	0	560988160	19	4349
2026-01-03 01:45:07.28	317.56	34.99	-30.1	-32.2	12.3	2.34e-03	0	43	0	563085312	20	4586
2026-01-03 01:45:08.29	317.17	35.03	-30.5	-33.3	11.7	4.10e-04	0	43	0	565182464	20	4965
2026-01-03 01:45:09.29	316.78	35.08	-30.5	-32.9	11.5	8.03e-04	0	44	0	567279616	21	4745
2026-01-03 01:45:10.30	316.38	35.12	-30.3	-32.8	12.0	2.05e-03	0	43	0	568328192	20	4773
2026-01-03 01:45:11.30	315.98	35.16	-29.6	-30.6	13.4	5.13e-04	0	43	0	570425344	20	4051
2026-01-03 01:45:12.31	315.58	35.20	-29.3	-30.3	14.0	1.06e-05	0	43	0	572522496	19	4044
2026-01-03 01:45:13.32	315.18	35.24	-29.0	-29.7	14.3	0.00e+00	0	43	0	574619648	19	3874
2026-01-03 01:45:14.33	314.78	35.27	-29.1	-30.4	14.2	2.19e-04	0	43	0	576716800	18	4179
2026-01-03 01:45:15.33	314.38	35.31	-29.5	-31.3	13.7	9.10e-06	0	43	0	577765376	18	4461
2026-01-03 01:45:16.33	313.98	35.34	-29.5	-31.3	13.7	3.00e-06	0	43	0	579862528	18	4460
2026-01-03 01:45:17.34	313.58	35.37	-29.1	-29.9	14.2	2.00e-04	0	43	0	581959680	19	3946
2026-01-03 01:45:18.34	313.18	35.40	-29.4	-31.1	13.8	3.00e-06	0	43	0	584056832	18	4367
2026-01-03 01:45:19.34	312.78	35.43	-29.3	-30.8	14.1	0.00e+00	0	43	0	586153984	18	4274
2026-01-03 01:45:20.34	312.38	35.46	-29.2	-30.7	14.1	0.00e+00	0	43	0	587202560	18	4265
2026-01-03 01:45:21.35	311.97	35.48	-29.4	-31.2	13.8	2.10e-03	0	43	0	589299712	18	4398
2026-01-03 01:45:22.35	311.57	35.51	-29.1	-30.4	14.2	3.00e-06	0	43	0	591396864	18	4158
2026-01-03 01:45:23.35	311.16	35.53	-28.7	-29.3	14.9	0.00e+00	0	43	0	593494016	18	3861
2026-01-03 01:45:24.36	310.75	35.55	-28.6	-29.4	15.1	0.00e+00	0	43	0	595591168	17	3986
2026-01-03 01:45:25.37	310.34	35.57	-28.8	-29.9	14.8	0.00e+00	0	43	0	596639744	17	4129
2026-01-03 01:45:26.38	309.94	35.58	-29.2	-30.6	13.8	0.00e+00	0	43	0	598736896	18	4225
2026-01-03 01:45:27.38	309.53	35.60	-29.5	-30.9	13.5	6.10e-06	0	43	0	600834048	19	4234
2026-01-03 01:45:28.38	309.12	35.61	-29.6	-31.1	13.6	1.29e-05	0	43	0	602931200	19	4277
2026-01-03 01:45:29.39	308.71	35.62	-29.6	-31.2	13.4	1.06e-05	0	43	0	605028352	19	4299
2026-01-03 01:45:30.40	308.30	35.63	-29.8	-31.6	13.4	1.37e-05	0	43	0	606076928	19	4430
2026-01-03 01:45:31.41	307.89	35.64	-29.9	-31.9	13.0	2.21e-05	0	43	0	608174080	19	4532
2026-01-03 01:45:32.41	307.48	35.65	-29.9	-32.0	12.9	3.58e-05	0	43	0	610271232	19	4570
2026-01-03 01:45:33.42	307.07	35.66	-29.9	-31.8	13.1	4.80e-05	0	43	0	612368384	19	4512
2026-01-03 01:45:34.43	306.66	35.66	-30.0	-31.9	12.6	5.26e-05	0	43	0	614465536	20	4436
2026-01-03 01:45:35.43	306.25	35.66	-30.0	-32.1	13.0	1.70e-03	0	43	0	615514112	19	4599
2026-01-03 01:45:36.43	305.84	35.66	-29.9	-31.9	13.0	6.10e-05	0	43	0	617611264	19	4550
2026-01-03 01:45:37.44	305.43	35.66	-29.7	-31.3	13.4	2.67e-05	0	43	0	619708416	19	4331
2026-01-03 01:45:38.44	305.02	35.66	-29.8	-31.7	13.2	1.27e-03	0	43	0	621805568	19	4484
2026-01-03 01:45:39.45	304.61	35.65	-29.6	-31.1	13.5	2.74e-05	0	43	0	623902720	19	4274
2026-01-03 01:45:40.46	304.20	35.65	-29.8	-31.5	13.4	1.06e-05	0	43	0	624951296	19	4404
2026-01-03 01:45:41.47	303.79	35.64	-29.5	-30.7	13.8	2.57e-03	0	43	0	627048448	19	4163
2026-01-03 01:45:42.47	303.38	35.63	-29.3	-30.6	14.2	7.32e-05	0	43	0	629145600	18	4221
2026-01-03 01:45:43.48	302.97	35.62	-29.6	-31.0	13.6	3.00e-06	0	43	0	631242752	19	4250
2026-01-03 01:45:44.48	302.56	35.61	-30.0	-31.8	12.6	3.43e-05	0	43	0	633339904	20	4402
2026-01-03 01:45:45.49	302.15	35.59	-30.2	-32.4	12.2	5.19e-04	0	44	0	634388480	20	4622
2026-01-03 01:45:46.49	301.75	35.58	-30.4	-32.9	12.1	2.68e-04	0	43	0	636485632	20	4806
2026-01-03 01:45:47.50	301.34	35.56	-30.3	-32.8	11.9	2.10e-04	0	44	0	638582784	20	4754
2026-01-03 01:45:48.50	300.93	35.54	-30.4	-33.0	11.8	2.95e-03	0	43	0	640679936	20	4871
2026-01-03 01:45:49.51	300.53	35.52	-30.5	-32.9	11.5	6.65e-04	0	43	0	641728512	21	4751
2026-01-03 01:45:50.51	300.12	35.49	-30.4	-32.9	11.7	4.81e-04	0	43	0	643825664	20	4852
2026-01-03 01:45:51.51	299.72	35.47	-30.3	-32.8	12.0	1.76e-03	0	43	0	645922816	20	4773
2026-01-03 01:45:52.52	299.31	35.44	-30.6	-32.6	11.4	2.53e-03	0	43	0	648019968	22	4539
2026-01-03 01:45:53.53	298.91	35.42	-30.4	-32.5	11.8	7.32e-04	0	43	0	650117120	21	4583
2026-01-03 01:45:54.53	298.50	35.39	-30.6	-33.1	11.4	4.53e-04	0	43	0	652214272	21	4810
2026-01-03 01:45:55.54	298.10	35.36	-31.2	-34.5	10.0	3.34e-03	0	43	0	653262848	22	5267
2026-01-03 01:45:56.55	297.70	35.32	-31.4	-35.2	9.5	1.46e-02	0	43	0	655360000	22	5609
2026-01-03 01:45:57.55	297.30	35.29	-31.6	-35.6	8.7	3.18e-02	0	43	0	657457152	23	5740
2026-01-03 01:45:58.55	296.90	35.25	-31.5	-35.3	9.0	3.55e-02	0	44	0	659554304	23	5568
2026-01-03 01:45:59.55	296.50	35.22	-31.2	-34.6	10.0	1.62e-02	0	43	0	660602880	22	5319
2026-01-03 01:46:00.56	296.10	35.18	-30.8	-33.9	10.8	6.30e-03	0	43	0	662700032	21	5122
2026-01-03 01:46:01.57	295.70	35.14	-30.7	-33.3	11.2	1.72e-03	0	43	0	664797184	21	4889
2026-01-03 01:46:02.58	295.30	35.10	-30.7	-33.4	11.3	3.14e-03	0	43	0	666894336	21	4905
2026-01-03 01:46:03.58	294.91	35.05	-30.7	-33.3	11.3	2.90e-03	0	43	0	668991488	21	4879
2026-01-03 01:46:04.58	294.52	35.01	-30.9	-33.9	10.8	2.57e-03	0	43	0	670040064	21	5129
2026-01-03 01:46:05.59	294.12	34.96	-30.7	-33.6	11.0	3.41e-03	0	43	0	672137216	21	4992
2026-01-03 01:46:06.59	293.73	34.92	-31.0	-34.3	10.5	5.95e-03	0	43	0	674234368	21	5309
2026-01-03 01:46:07.60	293.34	34.87	-31.1	-34.2	10.3	7.77e-03	0	44	0	676331520	22	5163
2026-01-03 01:46:08.61	292.95	34.82	-31.2	-34.6	9.9	9.72e-03	0	43	0	678428672	22	5309
2026-01-03 01:46:09.61	292.56	34.76	-31.0	-33.9	10.3	1.06e-02	0	43	0	680525824	22	5046
2026-01-03 01:46:10.62	292.17	34.71	-31.1	-34.4	9.9	6.25e-03	0	43	0	681574400	22	5249
2026-01-03 01:46:11.63	291.78	34.66	-31.0	-33.9	10.4	8.16e-03	0	43	0	683671552	22	5025
2026-01-03 01:46:12.63	291.40	34.60	-30.9	-34.2	10.6	6.76e-03	0	43	0	685768704	21	5230
2026-01-03 01:46:13.64	291.01	34.54	-30.6	-33.0	11.4	2.03e-03	0	43	0	687865856	21	4783
2026-01-03 01:46:14.64	290.63	34.48	-30.3	-32.1	12.1	3.26e-03	0	43	0	688914432	21	4452
2026-01-03 01:46:15.65	290.25	34.42	-30.4	-33.0	11.8	2.97e-03	0	43	0	691011584	20	4860
2026-01-03 01:46:16.66	289.87	34.36	-30.6	-33.1	11.3	1.07e-03	0	43	0	693108736	21	4828
2026-01-03 01:46:17.66	289.49	34.30	-30.5	-32.8	11.4	3.54e-03	0	43	0	695205888	21	4732
2026-01-03 01:46:18.67	289.12	34.24	-30.1	-32.4	12.1	2.97e-03	0	44	0	697303040	20	4662
2026-01-03 01:46:19.67	288.74	34.17	-29.8	-31.3	12.8	2.94e-04	0	43	0	698351616	20	4307
2026-01-03 01:46:20.68	288.37	34.10	-29.6	-31.3	13.2	3.05e-03	0	43	0	700448768	19	4401
2026-01-03 01:46:21.68	288.00	34.04	-29.6	-30.8	13.8	5.30e-06	0	44	0	702545920	19	4171
2026-01-03 01:46:22.69	287.62	33.97	-29.5	-30.7	13.9	1.46e-04	0	43	0	704643072	19	4145
2026-01-03 01:46:23.69	287.26	33.90	-29.4	-31.0	14.1	3.04e-03	0	43	0	706740224	18	4324
2026-01-03 01:46:24.70	286.89	33.83	-29.5	-30.6	13.9	2.93e-03	0	44	0	707788800	19	4112
2026-01-03 01:46:25.71	286.52	33.75	-30.1	-31.8	12.9	2.59e-05	0	44	0	709885952	20	4393
2026-01-03 01:46:26.71	286.16	33.68	-30.5	-32.7	11.8	1.79e-03	0	43	0	711983104	21	4609
2026-01-03 01:46:27.72	285.80	33.60	-30.7	-33.3	11.4	2.97e-03	0	43	0	714080256	21	4838
2026-01-03 01:46:28.72	285.44	33.53	-30.9	-33.8	11.0	1.74e-03	0	44	0	716177408	21	5010
2026-01-03 01:46:29.73	285.08	33.45	-30.3	-32.6	12.2	2.52e-03	0	43	0	717225984	20	4650
2026-01-03 01:46:30.74	284.72	33.37	-29.8	-30.9	13.4	2.10e-03	0	43	0	719323136	20	4107
2026-01-03 01:46:31.75	284.36	33.29	-29.5	-30.3	13.7	9.10e-06	0	43	0	721420288	20	3931
2026-01-03 01:46:32.75	284.01	33.21	-30.0	-31.6	12.9	1.23e-04	0	43	0	723517440	20	4332
2026-01-03 01:46:33.76	283.66	33.13	-30.4	-32.8	12.0	2.01e-03	0	44	0	725614592	20	4731
2026-01-03 01:46:34.76	283.31	33.05	-30.5	-32.4	12.0	3.13e-04	0	43	0	726663168	21	4515
2026-01-03 01:46:35.77	282.96	32.97	-30.6	-33.0	11.7	4.32e-04	0	43	0	728760320	21	4702
2026-01-03 01:46:36.78	282.61	32.88	-31.0	-33.7	10.7	1.18e-03	0	43	0	730857472	22	4914
2026-01-03 01:46:37.78	282.27	32.80	-31.5	-34.9	9.4	6.95e-03	0	43	0	732954624	23	5331
2026-01-03 01:46:38.78	281.92	32.71	-31.6	-35.4	9.1	2.33e-02	0	43	0	735051776	23	5566
2026-01-03 01:46:39.79	281.58	32.62	-31.7	-35.7	9.1	3.30e-02	0	44	0	736100352	23	5672
2026-01-03 01:46:40.80	281.24	32.54	-31.7	-35.6	8.9	2.23e-02	0	44	0	738197504	23	5654
2026-01-03 01:46:41.81	280.90	32.45	-31.6	-35.1	9.3	2.28e-02	0	43	0	740294656	23	5407
2026-01-03 01:46:42.82	280.56	32.36	-31.3	-34.5	10.2	8.61e-03	0	43	0	742391808	22	5246
2026-01-03 01:46:43.82	280.23	32.27	-31.1	-33.9	10.6	5.23e-03	0	43	0	744488960	22	4993
2026-01-03 01:46:44.83	279.90	32.18	-31.1	-34.2	10.4	6.28e-03	0	43	0	745537536	22	5101
2026-01-03 01:46:45.82	279.57	32.09	-31.4	-34.6	9.7	1.48e-02	0	43	0	747634688	23	5204
2026-01-03 01:46:46.83	279.24	31.99	-31.2	-33.9	10.2	8.23e-03	0	43	0	749731840	23	4901
2026-01-03 01:46:47.84	278.92	31.90	-30.9	-33.3	11.0	4.26e-03	0	44	0	751828992	22	4751
2026-01-03 01:46:48.84	278.59	31.80	-30.3	-32.1	12.2	4.71e-04	0	43	0	753926144	21	4421
2026-01-03 01:46:49.85	278.27	31.71	-30.1	-31.5	12.5	1.27e-04	0	44	0	754974720	21	4227
2026-01-03 01:46:50.85	277.95	31.61	-30.2	-32.1	12.6	1.76e-04	0	43	0	757071872	20	4491
2026-01-03 01:46:51.86	277.63	31.52	-30.0	-31.7	12.8	6.33e-05	0	43	0	759169024	20	4363
2026-01-03 01:46:52.86	277.32	31.42	-29.8	-31.0	13.3	2.59e-05	0	43	0	761266176	20	4145
2026-01-03 01:46:53.87	277.00	31.32	-29.5	-30.9	13.6	9.10e-06	0	44	0	763363328	19	4196
2026-01-03 01:46:54.88	276.68	31.22	-29.6	-30.9	13.7	6.10e-06	0	44	0	764411904	19	4212
2026-01-03 01:46:55.88	276.38	31.12	-30.1	-32.1	12.5	2.36e-05	0	43	0	766509056	20	4490
2026-01-03 01:46:56.89	276.06	31.02	-30.2	-32.2	12.4	8.54e-05	0	43	0	768606208	20	4547
2026-01-03 01:46:57.89	275.76	30.92	-30.9	-34.0	10.8	3.98e-04	0	43	0	770703360	21	5136
2026-01-03 01:46:58.89	275.46	30.82	-31.4	-35.1	9.6	6.90e-03	0	43	0	772800512	22	5485
2026-01-03 01:46:59.90	275.15	30.72	-31.8	-35.9	8.6	2.55e-02	0	43	0	773849088	23	5817
2026-01-03 01:47:00.91	274.85	30.62	-31.5	-34.9	9.3	3.11e-02	0	43	0	775946240	23	5323
2026-01-03 01:47:01.91	274.55	30.52	-31.0	-33.8	10.4	8.63e-03	0	43	0	778043392	22	4936
2026-01-03 01:47:02.92	274.25	30.41	-30.5	-32.8	11.5	1.11e-03	0	44	0	780140544	21	4685
2026-01-03 01:47:03.92	273.96	30.31	-30.6	-32.9	11.5	2.60e-04	0	43	0	782237696	21	4713
2026-01-03 01:47:04.93	273.66	30.21	-30.4	-32.8	11.9	2.74e-03	0	43	0	783286272	20	4758
2026-01-03 01:47:05.93	273.37	30.10	-30.9	-33.8	10.9	7.84e-04	0	43	0	785383424	21	5043
2026-01-03 01:47:06.94	273.08	30.00	-31.2	-34.4	10.0	4.08e-03	0	43	0	787480576	22	5185
2026-01-03 01:47:07.94	272.79	29.89	-31.9	-36.5	8.1	2.09e-02	0	43	0	789577728	23	6114
2026-01-03 01:47:08.95	272.50	29.79	-31.9	-36.6	8.0	7.23e-02	0	43	0	791674880	23	6169
2026-01-03 01:47:09.96	272.22	29.68	-31.8	-36.2	8.4	3.97e-02	0	43	0	792723456	23	5955
2026-01-03 01:47:10.96	271.94	29.57	-31.6	-35.6	8.8	3.48e-02	0	43	0	794820608	23	5656
2026-01-03 01:47:11.96	271.66	29.47	-31.9	-36.5	8.1	4.27e-02	0	43	0	796917760	23	6111
2026-01-03 01:47:12.97	271.38	29.36	-31.4	-34.6	9.5	2.54e-02	0	43	0	799014912	23	5217
2026-01-03 01:47:13.97	271.10	29.25	-31.1	-34.2	10.2	8.37e-03	0	44	0	801112064	22	5121
2026-01-03 01:47:14.98	270.83	29.14	-31.2	-34.6	10.0	9.48e-03	0	43	0	802160640	22	5275
2026-01-03 01:47:15.98	270.55	29.04	-31.3	-34.8	9.8	8.81e-03	0	43	0	804257792	22	5384
2026-01-03 01:47:16.99	270.28	28.93	-31.3	-34.9	9.7	1.06e-02	0	43	0	806354944	22	5436
2026-01-03 01:47:17.99	270.01	28.82	-31.3	-34.8	9.8	8.06e-03	0	43	0	808452096	22	5397
2026-01-03 01:47:19.00	269.75	28.71	-31.4	-35.3	9.4	1.37e-02	0	43	0	810549248	22	5600
2026-01-03 01:47:20.00	269.48	28.60	-31.5	-35.3	9.0	2.17e-02	0	43	0	811597824	23	5524
2026-01-03 01:47:21.01	269.22	28.49	-31.5	-35.1	9.2	2.27e-02	0	43	0	813694976	23	5439
2026-01-03 01:47:22.02	268.95	28.38	-31.0	-33.6	10.7	5.97e-03	0	43	0	815792128	22	4887
2026-01-03 01:47:23.02	268.69	28.27	-30.6	-32.9	11.5	3.83e-03	0	43	0	817889280	21	4709
2026-01-03 01:47:24.03	268.43	28.16	-30.1	-31.9	12.6	2.66e-04	0	43	0	819986432	20	4440
2026-01-03 01:47:25.03	268.18	28.05	-30.0	-31.7	12.8	1.31e-04	0	43	0	821035008	20	4390
2026-01-03 01:47:26.04	267.92	27.94	-29.9	-31.4	12.8	2.03e-03	0	43	0	823132160	20	4274
2026-01-03 01:47:27.05	267.67	27.83	-30.0	-31.6	12.7	1.34e-03	0	43	0	825229312	20	4371
2026-01-03 01:47:28.05	267.42	27.72	-30.1	-31.9	12.5	8.23e-05	0	43	0	827326464	20	4462
2026-01-03 01:47:29.06	267.17	27.60	-30.2	-32.2	12.3	2.35e-04	0	44	0	829423616	20	4546
2026-01-03 01:47:30.06	266.92	27.49	-30.2	-32.3	12.3	4.87e-04	0	43	0	830472192	20	4580
2026-01-03 01:47:31.06	266.67	27.38	-30.0	-31.6	12.7	1.50e-04	0	43	0	832569344	20	4353
2026-01-03 01:47:32.07	266.43	27.27	-29.7	-31.3	13.4	1.03e-03	0	44	0	834666496	19	4319
2026-01-03 01:47:33.08	266.18	27.16	-29.4	-30.5	13.7	1.03e-03	0	44	0	836763648	19	4093
2026-01-03 01:47:34.09	265.94	27.05	-29.5	-30.9	13.6	9.10e-06	0	44	0	838860800	19	4208
2026-01-03 01:47:35.09	265.70	26.93	-29.3	-30.8	13.9	4.76e-04	0	43	0	839909376	18	4275
2026-01-03 01:47:36.09	265.47	26.82	-29.6	-31.1	13.5	8.08e-05	0	43	0	842006528	19	4260
2026-01-03 01:47:37.09	265.23	26.71	-29.6	-31.0	13.5	1.06e-05	0	43	0	844103680	19	4252
2026-01-03 01:47:38.10	265.00	26.60	-29.7	-31.4	13.2	1.45e-03	0	43	0	846200832	19	4381
2026-01-03 01:47:39.10	264.77	26.49	-29.6	-31.2	13.4	1.81e-03	0	43	0	847249408	19	4314
2026-01-03 01:47:40.11	264.53	26.37	-29.6	-31.1	13.4	7.32e-05	0	43	0	849346560	19	4285
2026-01-03 01:47:41.11	264.31	26.26	-29.5	-30.8	13.6	2.27e-03	0	43	0	851443712	19	4196
2026-01-03 01:47:42.12	264.08	26.15	-29.4	-30.9	13.8	2.15e-03	0	43	0	853540864	18	4316
2026-01-03 01:47:43.13	263.85	26.04	-29.4	-30.6	13.7	3.00e-06	0	43	0	855638016	19	4133
2026-01-03 01:47:44.13	263.63	25.92	-29.0	-30.1	14.4	1.99e-03	0	43	0	856686592	18	4070
2026-01-03 01:47:45.14	263.40	25.81	-28.9	-30.2	14.6	2.52e-03	0	43	0	858783744	17	4192
2026-01-03 01:47:46.15	263.18	25.70	-28.9	-30.3	14.5	0.00e+00	0	43	0	860880896	17	4223
2026-01-03 01:47:47.14	262.96	25.59	-29.2	-30.5	14.0	1.82e-04	0	43	0	862978048	18	4204
2026-01-03 01:47:48.15	262.74	25.47	-29.3	-30.9	13.8	2.64e-04	0	43	0	865075200	18	4323
2026-01-03 01:47:49.15	262.53	25.36	-29.7	-31.4	13.2	2.74e-05	0	43	0	866123776	19	4372
2026-01-03 01:47:50.16	262.31	25.25	-30.0	-32.1	12.7	1.71e-03	0	43	0	868220928	19	4629
2026-01-03 01:47:51.16	262.10	25.14	-30.0	-31.8	12.4	2.03e-03	0	43	0	870318080	20	4440
2026-01-03 01:47:52.17	261.89	25.02	-29.4	-30.2	13.6	1.90e-05	0	43	0	872415232	20	3924
2026-01-03 01:47:53.18	261.67	24.91	-29.0	-30.1	14.3	4.16e-04	0	43	0	874512384	18	4076
2026-01-03 01:47:54.18	261.47	24.80	-28.5	-29.4	15.0	2.23e-03	0	43	0	875560960	17	3969
2026-01-03 01:47:55.19	261.26	24.69	-28.4	-29.2	15.2	0.00e+00	0	43	0	877658112	17	3910
2026-01-03 01:47:56.19	261.05	24.57	-28.4	-29.5	15.3	0.00e+00	0	43	0	879755264	16	4098
2026-01-03 01:47:57.20	260.85	24.46	-28.7	-29.8	14.8	2.12e-03	0	43	0	881852416	17	4072
2026-01-03 01:47:58.21	260.64	24.35	-28.7	-29.9	14.8	0.00e+00	0	43	0	883949568	17	4101
2026-01-03 01:47:59.20	260.44	24.24	-28.6	-29.6	14.9	1.85e-04	0	43	0	884998144	17	4025
2026-01-03 01:48:00.21	260.24	24.13	-28.5	-29.3	15.0	5.37e-04	0	43	0	887095296	17	3947
2026-01-03 01:48:01.21	260.05	24.02	-28.6	-29.5	14.9	0.00e+00	0	43	0	889192448	17	4008
2026-01-03 01:48:02.22	259.85	23.90	-28.5	-29.2	15.1	1.46e-03	0	43	0	891289600	17	3930
2026-01-03 01:48:03.23	259.65	23.79	-28.4	-29.6	15.1	1.70e-03	0	43	0	893386752	16	4116
2026-01-03 01:48:04.23	259.46	23.68	-28.5	-29.3	15.1	0.00e+00	0	43	0	894435328	17	3932
2026-01-03 01:48:05.24	259.26	23.57	-28.3	-29.4	15.3	1.66e-03	0	44	0	896532480	16	4073
2026-01-03 01:48:06.24	259.07	23.46	-28.3	-29.3	15.4	1.52e-03	0	43	0	898629632	16	4036
2026-01-03 01:48:07.25	258.88	23.35	-28.2	-29.0	15.6	0.00e+00	0	43	0	900726784	16	3955
2026-01-03 01:48:08.26	258.69	23.24	-28.3	-29.2	15.4	1.71e-03	0	43	0	902823936	16	4014
2026-01-03 01:48:09.26	258.50	23.13	-28.2	-29.0	15.5	7.59e-04	0	43	0	903872512	16	3968
2026-01-03 01:48:10.27	258.32	23.01	-28.4	-29.6	15.2	0.00e+00	0	43	0	905969664	16	4126
2026-01-03 01:48:11.27	258.13	22.90	-28.5	-29.4	15.0	6.10e-06	0	43	0	908066816	17	3966
2026-01-03 01:48:12.28	257.95	22.79	-28.7	-29.8	14.7	4.52e-04	0	43	0	910163968	17	4074
2026-01-03 01:48:13.29	257.77	22.68	-28.7	-29.8	14.8	0.00e+00	0	43	0	912261120	17	4076
2026-01-03 01:48:14.30	257.58	22.57	-28.8	-30.1	14.6	5.12e-04	0	43	0	913309696	17	4166
2026-01-03 01:48:15.30	257.40	22.46	-28.8	-30.1	14.5	6.75e-04	0	43	0	915406848	17	4187
2026-01-03 01:48:16.31	257.23	22.35	-28.5	-29.4	14.9	0.00e+00	0	43	0	917504000	17	3987
2026-01-03 01:48:17.32	257.05	22.24	-28.7	-29.9	14.7	1.14e-03	0	43	0	919601152	17	4109
2026-01-03 01:48:18.32	256.87	22.13	-29.1	-30.3	14.1	1.39e-03	0	43	0	921698304	18	4153
2026-01-03 01:48:19.33	256.70	22.02	-28.4	-30.1	13.6	6.10e-06	0	43	0	922746880	18	4364
2026-01-03 01:48:20.34	256.52	21.92	-28.8	-30.6	13.5	1.59e-03	0	43	0	924844032	18	4409
2026-01-03 01:48:21.34	256.35	21.81	-29.7	-31.4	13.0	1.75e-03	0	43	0	926941184	19	4387
2026-01-03 01:48:22.35	256.18	21.70	-29.7	-31.5	12.0	4.57e-05	0	43	0	929038336	19	4415
2026-01-03 01:48:23.35	256.01	21.59	-29.5	-30.9	13.0	1.76e-03	0	43	0	931135488	19	4247
2026-01-03 01:48:24.36	255.84	21.48	-29.4	-31.2	13.5	1.72e-03	0	43	0	932184064	18	4410
2026-01-03 01:48:25.37	255.67	21.37	-29.3	-30.8	13.8	1.12e-04	0	43	0	934281216	18	4284
2026-01-03 01:48:26.37	255.51	21.27	-29.4	-31.1	13.5	1.59e-03	0	43	0	936378368	18	4381
2026-01-03 01:48:27.38	255.34	21.16	-29.4	-31.3	13.5	1.47e-03	0	43	0	938475520	18	4438
2026-01-03 01:48:28.38	255.18	21.05	-29.7	-31.5	12.9	2.11e-03	0	43	0	940572672	19	4424
2026-01-03 01:48:29.38	255.02	20.94	-29.7	-31.6	12.9	7.98e-04	0	43	0	941621248	19	4453
2026-01-03 01:48:30.39	254.85	20.84	-30.0	-31.9	12.2	5.41e-04	0	43	0	943718400	20	4492
2026-01-03 01:48:31.39	254.69	20.73	-29.9	-32.0	12.6	1.27e-04	0	43	0	945815552	19	4589
2026-01-03 01:48:32.40	254.53	20.62	-29.8	-31.8	12.7	2.70e-03	0	43	0	947912704	19	4538
2026-01-03 01:48:33.41	254.37	20.52	-29.7	-31.5	12.9	2.73e-04	0	43	0	950009856	19	4441
2026-01-03 01:48:34.41	254.22	20.41	-29.7	-31.5	13.0	2.97e-05	0	43	0	951058432	19	4435
2026-01-03 01:48:35.42	254.06	20.31	-29.6	-31.3	13.0	2.76e-03	0	43	0	953155584	19	4379
2026-01-03 01:48:36.42	253.91	20.20	-29.4	-31.3	13.4	7.73e-04	0	43	0	955252736	18	4449
2026-01-03 01:48:37.43	253.75	20.09	-29.5	-31.0	13.2	1.06e-05	0	43	0	957349888	19	4270
2026-01-03 01:48:38.44	253.60	19.99	-29.6	-31.2	13.1	3.36e-03	0	43	0	959447040	19	4341
2026-01-03 01:48:39.45	253.45	19.88	-29.6	-31.3	13.0	1.09e-03	0	43	0	960495616	19	4381
2026-01-03 01:48:40.45	253.30	19.78	-29.6	-31.1	13.2	1.98e-05	0	43	0	962592768	19	4317
2026-01-03 01:48:41.46	253.15	19.67	-29.6	-31.4	13.0	5.45e-04	0	43	0	964689920	19	4391
2026-01-03 01:48:42.47	253.00	19.57	-29.3	-30.5	13.6	1.42e-03	0	43	0	966787072	19	4135
2026-01-03 01:48:43.47	252.85	19.47	-29.3	-31.1	13.5	3.25e-03	0	43	0	968884224	18	4385
2026-01-03 01:48:44.47	252.70	19.36	-29.3	-31.0	13.5	8.19e-04	0	44	0	969932800	18	4371
2026-01-03 01:48:45.48	252.56	19.26	-29.1	-30.5	13.8	1.62e-03	0	43	0	972029952	18	4215
2026-01-03 01:48:46.48	252.41	19.16	-29.0	-30.2	14.0	2.96e-03	0	43	0	974127104	18	4114
2026-01-03 01:48:47.48	252.27	19.05	-29.1	-30.3	14.0	4.95e-03	0	43	0	976224256	18	4146
2026-01-03 01:48:48.48	252.13	18.95	-29.3	-30.9	13.6	1.53e-03	0	43	0	978321408	18	4325
2026-01-03 01:48:49.49	251.99	18.85	-29.1	-30.5	13.8	3.40e-03	0	43	0	979369984	18	4210
2026-01-03 01:48:50.49	251.85	18.75	-29.2	-30.7	13.6	3.21e-03	0	43	0	981467136	18	4268
2026-01-03 01:48:51.50	251.71	18.64	-29.2	-30.7	13.7	2.48e-03	0	43	0	983564288	18	4271
2026-01-03 01:48:52.50	251.57	18.54	-29.2	-30.7	13.7	3.34e-03	0	43	0	985661440	18	4291
2026-01-03 01:48:53.51	251.43	18.44	-29.3	-31.0	13.5	2.93e-03	0	43	0	987758592	18	4373
2026-01-03 01:48:54.51	251.29	18.34	-29.3	-31.0	13.5	3.87e-03	0	43	0	988807168	18	4356
2026-01-03 01:48:55.52	251.16	18.24	-29.3	-30.9	13.6	2.71e-03	0	43	0	990904320	18	4330
2026-01-03 01:48:56.53	251.02	18.14	-29.2	-30.7	13.7	3.29e-03	0	43	0	993001472	18	4278
2026-01-03 01:48:57.53	250.89	18.04	-29.3	-31.0	13.5	8.77e-04	0	43	0	995098624	18	4360
2026-01-03 01:48:58.54	250.75	17.93	-29.0	-30.1	14.0	6.80e-06	0	43	0	997195776	18	4100
2026-01-03 01:48:59.54	250.62	17.84	-29.0	-30.0	14.1	2.79e-03	0	43	0	998244352	18	4073
2026-01-03 01:49:00.55	250.49	17.73	-29.0	-30.1	14.1	2.93e-04	0	44	0	1000341504	18	4092
2026-01-03 01:49:01.56	250.36	17.63	-28.8	-30.1	14.4	2.57e-03	0	43	0	1002438656	17	4193
2026-01-03 01:49:02.56	250.23	17.54	-28.8	-30.3	14.2	2.42e-03	0	43	0	1004535808	17	4239
2026-01-03 01:49:03.57	250.10	17.44	-28.9	-30.5	14.1	2.78e-04	0	43	0	1006632960	17	4306
2026-01-03 01:49:04.57	249.97	17.34	-29.1	-30.5	13.8	2.54e-03	0	43	0	1007681536	18	4216
2026-01-03 01:49:05.58	249.84	17.24	-29.1	-30.5	13.8	4.50e-06	0	43	0	1009778688	18	4218
2026-01-03 01:49:06.59	249.72	17.14	-29.3	-31.0	13.5	1.29e-03	0	43	0	1011875840	18	4370
2026-01-03 01:49:07.59	249.59	17.04	-29.5	-31.5	13.2	3.04e-03	0	43	0	1013972992	18	4519
2026-01-03 01:49:08.60	249.47	16.94	-29.8	-31.9	12.6	8.92e-05	0	43	0	1015021568	19	4561
2026-01-03 01:49:09.61	249.34	16.85	-30.0	-32.1	11.9	2.72e-04	0	43	0	1017118720	20	4578
2026-01-03 01:49:10.62	249.22	16.75	-30.4	-33.1	11.3	4.15e-03	0	43	0	1019215872	20	4926
2026-01-03 01:49:11.63	249.10	16.65	-30.6	-33.5	10.6	5.82e-03	0	43	0	1021313024	21	5003
2026-01-03 01:49:12.64	248.97	16.55	-30.7	-33.6	10.5	2.97e-03	0	43	0	1023410176	21	5048
2026-01-03 01:49:13.63	248.85	16.46	-30.5	-33.2	10.8	6.45e-03	0	43	0	1025507328	21	4900
2026-01-03 01:49:14.64	248.73	16.36	-30.5	-33.0	11.1	5.68e-03	0	43	0	1026555904	21	4804
2026-01-03 01:49:15.65	248.61	16.26	-30.0	-32.1	11.9	6.26e-04	0	43	0	1028653056	20	4591
2026-01-03 01:49:16.65	248.50	16.17	-29.8	-31.4	12.4	2.49e-04	0	43	0	1030750208	20	4337
2026-01-03 01:49:17.66	248.38	16.07	-29.8	-31.8	12.5	2.88e-03	0	43	0	1032847360	19	4555
2026-01-03 01:49:18.66	248.26	15.98	-29.7	-31.5	12.7	9.76e-05	0	43	0	1034944512	19	4449
2026-01-03 01:49:19.66	248.15	15.88	-29.7	-31.6	12.6	7.93e-05	0	43	0	1035993088	19	4467
2026-01-03 01:49:20.67	248.03	15.79	-29.6	-31.4	12.8	2.48e-03	0	43	0	1038090240	19	4416
2026-01-03 01:49:21.67	247.92	15.69	-29.5	-31.1	13.0	2.75e-04	0	43	0	1040187392	19	4323
2026-01-03 01:49:22.68	247.80	15.60	-29.6	-31.4	12.8	6.79e-05	0	43	0	1042284544	19	4410
2026-01-03 01:49:23.68	247.69	15.51	-29.8	-32.0	12.3	1.22e-04	0	43	0	1043333120	19	4627
2026-01-03 01:49:24.69	247.58	15.41	-29.8	-32.3	12.0	6.03e-04	0	43	0	1045430272	19	4790
2026-01-03 01:49:25.69	247.47	15.32	-30.0	-32.1	11.9	3.91e-04	0	43	0	1047527424	20	4573
2026-01-03 01:49:26.70	247.36	15.22	-30.1	-32.2	11.8	4.74e-04	0	43	0	1049624576	20	4632
2026-01-03 01:49:27.71	247.24	15.13	-30.2	-32.8	11.4	5.74e-04	0	43	0	1051721728	20	4828
2026-01-03 01:49:28.70	247.14	15.04	-30.2	-32.8	11.4	1.04e-03	0	43	0	1052770304	20	4823
2026-01-03 01:49:29.71	247.03	14.95	-30.1	-32.5	11.6	9.25e-04	0	43	0	1054867456	20	4727
2026-01-03 01:49:30.71	246.92	14.85	-29.9	-31.9	11.9	6.50e-04	0	43	0	1056964608	20	4517
2026-01-03 01:49:31.71	246.81	14.76	-30.0	-32.4	12.0	3.25e-03	0	43	0	1059061760	19	4776
2026-01-03 01:49:32.72	246.71	14.67	-29.9	-32.0	11.9	3.39e-04	0	43	0	1061158912	20	4535
2026-01-03 01:49:33.73	246.60	14.58	-29.9	-31.8	12.0	3.22e-04	0	43	0	1062207488	20	4491
2026-01-03 01:49:34.73	246.49	14.49	-29.7	-31.3	12.3	2.89e-04	0	43	0	1064304640	20	4332
2026-01-03 01:49:35.74	246.39	14.39	-29.9	-32.3	12.2	2.07e-04	0	43	0	1066401792	19	4732
2026-01-03 01:49:36.74	246.29	14.30	-29.8	-31.9	12.3	2.30e-04	0	43	0	1068498944	19	4593
2026-01-03 01:49:37.74	246.18	14.21	-29.7	-31.8	12.4	1.84e-04	0	43	0	1070596096	19	4577
2026-01-03 01:49:38.75	246.08	14.12	-29.9	-32.2	12.1	4.16e-04	0	43	0	1071644672	19	4701
2026-01-03 01:49:39.75	245.98	14.03	-29.9	-32.3	12.1	2.96e-04	0	43	0	1073741824	19	4733
2026-01-03 01:49:40.75	245.88	13.94	-29.9	-32.2	12.1	2.81e-04	0	43	0	1075838976	19	4711
2026-01-03 01:49:41.76	245.78	13.85	-29.9	-32.2	12.0	2.02e-04	0	43	0	1077936128	19	4705
2026-01-03 01:49:42.77	245.67	13.76	-29.9	-31.7	11.9	3.49e-04	0	43	0	1080033280	20	4462
2026-01-03 01:49:43.78	245.57	13.67	-29.9	-32.3	12.0	3.39e-04	0	43	0	1081081856	19	4739
2026-01-03 01:49:44.78	245.48	13.59	-29.9	-32.0	11.8	3.94e-04	0	43	0	1083179008	20	4540
2026-01-03 01:49:45.79	245.38	13.50	-30.0	-32.3	11.6	5.60e-04	0	43	0	1085276160	20	4672
2026-01-03 01:49:46.80	245.28	13.41	-29.4	-31.7	11.6	6.11e-04	0	43	0	1087373312	20	4668
2026-01-03 01:49:47.80	245.18	13.32	-28.6	-31.0	11.5	5.77e-04	0	43	0	1089470464	19	4776
2026-01-03 01:49:48.80	245.09	13.23	-30.0	-32.9	10.8	2.18e-03	0	44	0	1090519040	19	5022
2026-01-03 01:49:49.80	244.99	13.15	-30.1	-32.8	10.6	7.70e-04	0	44	0	1092616192	19	4950
2026-01-03 01:49:50.81	244.89	13.06	-30.1	-32.5	10.9	7.44e-04	0	43	0	1094713344	20	4747
2026-01-03 01:49:51.82	244.80	12.97	-30.0	-32.2	11.5	8.45e-04	0	43	0	1096810496	20	4635
2026-01-03 01:49:52.82	244.70	12.88	-29.9	-32.1	11.7	7.74e-04	0	43	0	1098907648	20	4593
2026-01-03 01:49:53.82	244.61	12.80	-29.9	-31.9	11.8	5.49e-04	0	43	0	1099956224	20	4539
2026-01-03 01:49:54.83	244.52	12.71	-30.0	-32.3	11.5	6.50e-04	0	43	0	1102053376	20	4669
2026-01-03 01:49:55.84	244.42	12.62	-29.9	-32.3	11.9	3.37e-03	0	43	0	1104150528	19	4737
2026-01-03 01:49:56.84	244.33	12.54	-29.8	-32.1	12.1	2.59e-04	0	43	0	1106247680	19	4674
2026-01-03 01:49:57.84	244.24	12.45	-29.9	-32.3	11.9	3.08e-04	0	43	0	1108344832	19	4751
2026-01-03 01:49:58.85	244.15	12.37	-29.7	-31.7	12.3	5.66e-04	0	43	0	1109393408	19	4534
2026-01-03 01:49:59.85	244.06	12.28	-29.5	-31.2	12.7	4.26e-04	0	43	0	1111490560	19	4387
2026-01-03 01:50:00.85	243.97	12.20	-29.5	-31.1	12.8	6.40e-05	0	43	0	1113587712	19	4347
2026-01-03 01:50:01.86	243.88	12.11	-29.4	-31.3	12.9	5.87e-05	0	43	0	1115684864	18	4506
2026-01-03 01:50:02.86	243.79	12.03	-29.4	-31.4	12.9	4.26e-04	0	43	0	1116733440	18	4522
2026-01-03 01:50:03.87	243.70	11.94	-29.7	-31.9	12.2	1.02e-04	0	43	0	1118830592	19	4597
2026-01-03 01:50:04.87	243.62	11.86	-29.6	-31.6	12.4	2.17e-04	0	44	0	1120927744	19	4517
2026-01-03 01:50:05.88	243.53	11.77	-29.6	-31.5	12.4	7.41e-04	0	43	0	1123024896	19	4498
2026-01-03 01:50:06.88	243.44	11.69	-29.7	-31.9	12.1	2.62e-03	0	44	0	1125122048	19	4636
2026-01-03 01:50:07.89	243.36	11.60	-29.9	-32.6	11.7	3.63e-04	0	44	0	1127219200	19	4867
2026-01-03 01:50:08.89	243.27	11.52	-30.0	-32.3	11.4	1.33e-03	0	43	0	1128267776	20	4679
2026-01-03 01:50:09.90	243.19	11.44	-30.3	-33.2	10.8	4.94e-03	0	43	0	1130364928	20	5024
2026-01-03 01:50:10.91	243.10	11.35	-30.3	-33.3	10.7	2.65e-03	0	43	0	1132462080	20	5069
2026-01-03 01:50:11.92	243.02	11.27	-30.6	-33.7	10.0	7.33e-03	0	43	0	1134559232	21	5173
2026-01-03 01:50:12.91	242.93	11.19	-30.5	-33.6	10.1	1.01e-02	0	44	0	1136656384	21	5106
2026-01-03 01:50:13.92	242.85	11.11	-30.7	-34.1	9.7	1.22e-02	0	44	0	1137704960	21	5341
2026-01-03 01:50:14.93	242.77	11.02	-30.6	-34.0	9.8	1.06e-02	0	43	0	1139802112	21	5282
2026-01-03 01:50:15.94	242.68	10.94	-30.6	-33.7	10.0	1.03e-02	0	43	0	1141899264	21	5167
2026-01-03 01:50:16.94	242.60	10.86	-30.5	-33.6	10.0	1.25e-02	0	43	0	1143996416	21	5148
2026-01-03 01:50:17.95	242.52	10.78	-30.4	-33.7	10.2	7.12e-03	0	43	0	1145044992	20	5269
2026-01-03 01:50:18.96	242.44	10.70	-30.5	-33.6	10.0	8.67e-03	0	43	0	1147142144	21	5125
2026-01-03 01:50:19.96	242.36	10.62	-30.4	-33.6	10.3	7.74e-03	0	43	0	1149239296	20	5237
2026-01-03 01:50:20.97	242.28	10.54	-30.4	-33.6	10.4	5.22e-03	0	44	0	1151336448	20	5206
2026-01-03 01:50:21.98	242.20	10.45	-30.3	-33.3	10.6	6.18e-03	0	43	0	1153433600	20	5102
2026-01-03 01:50:22.98	242.12	10.37	-30.2	-33.0	10.8	6.08e-03	0	44	0	1155530752	20	4991
2026-01-03 01:50:23.99	242.04	10.29	-30.1	-32.8	10.9	3.08e-03	0	43	0	1156579328	20	4895
2026-01-03 01:50:25.00	241.96	10.21	-30.2	-33.1	10.8	4.31e-03	0	43	0	1158676480	20	4999
2026-01-03 01:50:26.01	241.88	10.13	-30.1	-32.7	11.0	5.25e-03	0	44	0	1160773632	20	4865
2026-01-03 01:50:27.01	241.81	10.05	-30.0	-32.5	11.1	2.17e-03	0	43	0	1162870784	20	4777
2026-01-03 01:50:28.02	241.73	9.97	-30.1	-32.6	11.0	3.37e-03	0	43	0	1164967936	20	4835
2026-01-03 01:50:29.02	241.65	9.89	-30.1	-32.7	10.9	1.90e-03	0	43	0	1166016512	20	4877
2026-01-03 01:50:30.02	241.58	9.82	-30.1	-32.8	10.9	1.93e-03	0	43	0	1168113664	20	4899
2026-01-03 01:50:31.02	241.50	9.74	-30.2	-33.0	10.7	4.84e-03	0	44	0	1170210816	20	5000
2026-01-03 01:50:32.02	241.43	9.66	-30.0	-32.6	11.0	2.23e-03	0	43	0	1172307968	20	4827
2026-01-03 01:50:33.02	241.35	9.58	-29.9	-32.1	11.3	1.49e-03	0	43	0	1173356544	20	4650
2026-01-03 01:50:34.03	241.28	9.50	-29.9	-32.4	11.6	3.11e-03	0	43	0	1175453696	19	4851
2026-01-03 01:50:35.04	241.20	9.42	-29.9	-32.6	11.4	3.59e-03	0	43	0	1177550848	19	4911
2026-01-03 01:50:36.04	241.13	9.35	-29.8	-32.4	11.6	8.96e-04	0	43	0	1179648000	19	4816
2026-01-03 01:50:37.05	241.06	9.27	-29.8	-32.2	11.8	3.11e-03	0	43	0	1181745152	19	4765
2026-01-03 01:50:38.05	240.99	9.19	-29.8	-32.3	11.7	3.51e-03	0	43	0	1182793728	19	4774
2026-01-03 01:50:39.06	240.91	9.11	-29.8	-32.2	11.7	5.52e-04	0	44	0	1184890880	19	4759
2026-01-03 01:50:40.07	240.84	9.04	-29.8	-32.4	11.6	1.85e-03	0	43	0	1186988032	19	4828
2026-01-03 01:50:41.07	240.77	8.96	-29.7	-32.1	11.8	3.66e-03	0	43	0	1189085184	19	4711
2026-01-03 01:50:42.07	240.70	8.88	-29.9	-32.4	11.5	7.58e-04	0	43	0	1191182336	19	4849
2026-01-03 01:50:43.07	240.63	8.81	-29.9	-32.7	11.4	9.89e-04	0	43	0	1192230912	19	4934
2026-01-03 01:50:44.08	240.56	8.73	-29.9	-32.3	11.2	4.91e-03	0	43	0	1194328064	20	4723
2026-01-03 01:50:45.09	240.49	8.66	-30.1	-32.8	10.7	1.72e-03	0	43	0	1196425216	20	4914
2026-01-03 01:50:46.09	240.42	8.58	-30.1	-32.7	10.9	2.38e-03	0	43	0	1198522368	20	4871
2026-01-03 01:50:47.10	240.35	8.50	-30.1	-32.9	10.7	2.92e-03	0	43	0	1200619520	20	4963
2026-01-03 01:50:48.10	240.28	8.43	-30.1	-33.0	10.6	3.65e-03	0	43	0	1201668096	20	4996
2026-01-03 01:50:49.11	240.21	8.35	-30.3	-33.4	10.3	4.60e-03	0	44	0	1203765248	20	5170
2026-01-03 01:50:50.11	240.14	8.28	-30.3	-33.5	10.2	5.35e-03	0	44	0	1205862400	20	5231
2026-01-03 01:50:51.11	240.07	8.20	-30.3	-33.6	10.1	6.61e-03	0	43	0	1207959552	20	5250
2026-01-03 01:50:52.12	240.01	8.13	-30.3	-33.7	10.0	6.83e-03	0	43	0	1210056704	20	5323
2026-01-03 01:50:53.12	239.94	8.05	-30.3	-33.5	10.1	8.75e-03	0	43	0	1211105280	20	5222
2026-01-03 01:50:54.13	239.87	7.98	-30.3	-33.8	10.0	8.36e-03	0	43	0	1213202432	20	5336
2026-01-03 01:50:55.13	239.81	7.91	-30.3	-33.8	9.9	1.30e-02	0	43	0	1215299584	20	5345
2026-01-03 01:50:56.13	239.74	7.83	-30.4	-33.8	9.9	9.03e-03	0	43	0	1217396736	20	5382
2026-01-03 01:50:57.14	239.68	7.76	-30.5	-34.2	9.5	1.19e-02	0	43	0	1219493888	20	5558
2026-01-03 01:50:58.14	239.61	7.68	-30.4	-34.1	9.6	1.18e-02	0	43	0	1220542464	20	5487
2026-01-03 01:50:59.15	239.55	7.61	-30.4	-33.8	9.8	1.12e-02	0	43	0	1222639616	20	5377
2026-01-03 01:51:00.15	239.48	7.54	-30.3	-33.8	9.9	9.14e-03	0	43	0	1224736768	20	5364
2026-01-03 01:51:01.15	239.42	7.46	-30.3	-33.5	10.0	9.61e-03	0	43	0	1226833920	20	5247
2026-01-03 01:51:02.16	239.35	7.39	-30.3	-33.7	9.9	1.31e-02	0	43	0	1228931072	20	5325
2026-01-03 01:51:03.16	239.29	7.32	-30.4	-33.9	9.7	1.10e-02	0	43	0	1229979648	20	5432
2026-01-03 01:51:04.17	239.23	7.25	-30.4	-34.0	9.7	1.16e-02	0	43	0	1232076800	20	5464
2026-01-03 01:51:05.17	239.16	7.17	-30.3	-33.7	9.9	1.09e-02	0	43	0	1234173952	20	5350
2026-01-03 01:51:06.18	239.10	7.10	-30.4	-34.1	9.8	9.56e-03	0	44	0	1236271104	20	5494
2026-01-03 01:51:07.19	239.04	7.03	-32.4	-45.1	3.8	1.49e+00	0	43	104	1236271104	24	15460
2026-01-03 01:51:08.19	238.98	6.96	-32.7	-45.2	3.8	1.49e+00	0	44	104	1236271104	25	15165

#Closed at: 2026-01-03 01:51:09
#Recorded file [1236 MB]: D:/data/31010_260103_044006.dat