passes_logs/2026/01/03/R2M6_AANII_01/R2M6_AANII_01__20260103_234049_SUOMI_NPP_rec.log

#Pass ID: 20260103_234049_SUOMI NPP
#Satellite: SUOMI NPP
#Configuration: NPP
#almurnet v.1.7.20240730
#Start time: 2026-01-03 23:40:49

#Version: 2.2.20231116
#Station: R2M6_AANII_01
#Location: 30.233357 lon 59.946436 lat
#TLE: 1 37849U 11061A   26001.07732418  .00000182  00000+0  10735-3 0  9990
#TLE: 2 37849  98.7795 303.2470 0002580  87.2016 272.9455 14.19520779734739

#Time	Az	El	Level	Level2	SNR	BER	BlckErr	Temp	State	Recorded	gain1	gain2
2026-01-03 23:40:49.74	22.56	7.04	-31.1	-35.4	5.1	1.27e+00	0	40	0	0	22	5851
2026-01-03 23:40:50.74	22.61	7.12	-31.6	-37.1	4.7	1.33e+00	0	41	104	0	23	6736
2026-01-03 23:40:51.75	22.65	7.19	-31.6	-36.6	7.1	1.64e-01	0	40	0	0	23	6457
2026-01-03 23:40:52.75	22.70	7.27	-31.6	-36.7	7.1	1.28e-01	0	41	0	1048576	23	6493
2026-01-03 23:40:53.76	22.75	7.34	-31.7	-37.4	6.6	1.87e-01	0	40	0	3145728	23	6914
2026-01-03 23:40:54.76	22.79	7.42	-31.7	-37.4	6.6	2.29e-01	0	41	0	5242880	23	6889
2026-01-03 23:40:55.76	22.84	7.49	-31.6	-36.9	7.0	1.70e-01	0	41	0	7340032	23	6587
2026-01-03 23:40:56.77	22.89	7.57	-31.5	-36.3	7.5	1.24e-01	0	41	0	9437184	23	6211
2026-01-03 23:40:57.77	22.93	7.64	-31.4	-35.8	7.8	9.67e-02	0	41	0	10485760	23	5948
2026-01-03 23:40:58.78	22.98	7.72	-31.4	-35.6	8.1	6.79e-02	0	41	0	12582912	23	5826
2026-01-03 23:40:59.78	23.03	7.80	-31.4	-36.0	8.1	6.16e-02	0	41	0	14680064	22	6124
2026-01-03 23:41:00.78	23.07	7.87	-31.3	-35.7	8.4	4.90e-02	0	41	0	16777216	22	5940
2026-01-03 23:41:01.79	23.12	7.95	-31.3	-35.5	8.3	5.04e-02	0	41	0	18874368	22	5861
2026-01-03 23:41:02.79	23.17	8.03	-31.1	-34.8	9.0	2.85e-02	0	41	0	19922944	22	5515
2026-01-03 23:41:03.80	23.22	8.10	-31.0	-34.4	9.4	1.88e-02	0	41	0	22020096	22	5322
2026-01-03 23:41:04.81	23.27	8.18	-30.9	-34.7	9.5	1.41e-02	0	41	0	24117248	21	5563
2026-01-03 23:41:05.81	23.31	8.26	-30.9	-34.6	9.6	1.41e-02	0	41	0	26214400	21	5532
2026-01-03 23:41:06.81	23.36	8.34	-31.0	-34.8	9.5	1.54e-02	0	41	0	28311552	21	5578
2026-01-03 23:41:07.82	23.41	8.41	-31.0	-34.4	9.4	1.53e-02	0	41	0	29360128	22	5346
2026-01-03 23:41:08.82	23.46	8.49	-31.0	-34.8	9.5	1.38e-02	0	41	0	31457280	21	5590
2026-01-03 23:41:09.82	23.51	8.57	-30.9	-34.6	9.6	1.23e-02	0	41	0	33554432	21	5528
2026-01-03 23:41:10.82	23.56	8.65	-30.8	-34.0	10.0	9.32e-03	0	41	0	35651584	21	5251
2026-01-03 23:41:11.83	23.61	8.73	-30.8	-34.0	10.1	7.84e-03	0	41	0	36700160	21	5238
2026-01-03 23:41:12.83	23.66	8.81	-30.8	-34.1	10.0	7.28e-03	0	41	0	38797312	21	5291
2026-01-03 23:41:13.83	23.71	8.89	-30.8	-34.1	10.0	6.53e-03	0	41	0	40894464	21	5292
2026-01-03 23:41:14.84	23.76	8.97	-30.7	-33.8	10.3	7.36e-03	0	41	0	42991616	21	5140
2026-01-03 23:41:15.84	23.81	9.05	-30.6	-33.6	10.5	4.25e-03	0	41	0	45088768	21	5044
2026-01-03 23:41:16.85	23.86	9.13	-30.5	-33.1	10.7	4.37e-03	0	41	0	46137344	21	4875
2026-01-03 23:41:17.85	23.91	9.21	-30.6	-33.4	10.6	3.09e-03	0	41	0	48234496	21	4974
2026-01-03 23:41:18.86	23.97	9.29	-30.6	-33.3	10.7	4.64e-03	0	41	0	50331648	21	4934
2026-01-03 23:41:19.86	24.02	9.37	-30.5	-33.1	10.8	2.81e-03	0	41	0	52428800	21	4846
2026-01-03 23:41:20.87	24.07	9.45	-30.5	-33.5	10.9	2.46e-03	0	41	0	54525952	20	5116
2026-01-03 23:41:21.87	24.12	9.53	-30.5	-33.0	10.9	2.72e-03	0	41	0	55574528	21	4806
2026-01-03 23:41:22.88	24.18	9.61	-30.5	-33.0	10.9	1.99e-03	0	41	0	57671680	21	4807
2026-01-03 23:41:23.89	24.23	9.69	-30.6	-33.4	10.6	3.29e-03	0	41	0	59768832	21	4983
2026-01-03 23:41:24.89	24.28	9.78	-30.5	-33.2	10.8	4.57e-03	0	41	0	61865984	21	4896
2026-01-03 23:41:25.90	24.34	9.86	-30.4	-33.1	11.2	1.86e-03	0	42	0	63963136	20	4956
2026-01-03 23:41:26.90	24.39	9.94	-30.3	-33.1	11.3	1.60e-03	0	42	0	65011712	20	4939
2026-01-03 23:41:27.91	24.44	10.02	-30.6	-33.3	10.8	1.85e-03	0	42	0	67108864	21	4911
2026-01-03 23:41:28.91	24.50	10.11	-30.8	-34.0	10.2	3.58e-03	0	42	0	69206016	21	5234
2026-01-03 23:41:29.92	24.55	10.19	-30.8	-34.2	10.1	7.78e-03	0	42	0	71303168	21	5306
2026-01-03 23:41:30.92	24.61	10.27	-30.8	-34.1	10.2	6.17e-03	0	42	0	73400320	21	5240
2026-01-03 23:41:31.93	24.66	10.36	-30.8	-34.0	10.2	7.01e-03	0	42	0	74448896	21	5223
2026-01-03 23:41:32.94	24.72	10.44	-30.7	-33.7	10.4	5.55e-03	0	42	0	76546048	21	5104
2026-01-03 23:41:33.95	24.78	10.53	-30.7	-33.7	10.5	3.87e-03	0	42	0	78643200	21	5071
2026-01-03 23:41:34.95	24.83	10.61	-30.8	-33.9	10.4	5.39e-03	0	42	0	80740352	21	5159
2026-01-03 23:41:35.96	24.89	10.70	-31.1	-34.6	9.5	1.17e-02	0	42	0	82837504	22	5366
2026-01-03 23:41:36.96	24.94	10.78	-30.8	-33.5	10.3	8.21e-03	0	42	0	83886080	22	4896
2026-01-03 23:41:37.97	25.00	10.87	-30.6	-33.2	10.9	4.71e-03	0	42	0	85983232	21	4865
2026-01-03 23:41:38.98	25.06	10.95	-30.5	-32.9	11.1	3.38e-03	0	42	0	88080384	21	4763
2026-01-03 23:41:39.99	25.12	11.04	-30.2	-32.5	11.8	6.96e-04	0	42	0	90177536	20	4693
2026-01-03 23:41:41.00	25.18	11.13	-30.1	-32.3	11.9	1.83e-03	0	42	0	92274688	20	4636
2026-01-03 23:41:42.00	25.23	11.21	-30.1	-32.2	12.0	1.71e-03	0	42	0	93323264	20	4596
2026-01-03 23:41:43.00	25.29	11.30	-30.1	-32.1	12.1	3.18e-04	0	42	0	95420416	20	4566
2026-01-03 23:41:44.00	25.35	11.39	-30.1	-32.1	12.1	1.41e-03	0	42	0	97517568	20	4546
2026-01-03 23:41:45.00	25.41	11.47	-30.2	-32.6	11.8	1.33e-03	0	42	0	99614720	20	4725
2026-01-03 23:41:46.01	25.47	11.56	-30.0	-31.8	12.3	2.33e-04	0	42	0	101711872	20	4442
2026-01-03 23:41:47.01	25.53	11.65	-29.9	-31.7	12.4	9.00e-04	0	42	0	102760448	20	4410
2026-01-03 23:41:48.02	25.59	11.74	-29.8	-31.8	12.7	5.52e-04	0	42	0	104857600	19	4525
2026-01-03 23:41:49.02	25.65	11.83	-29.9	-32.0	12.6	6.10e-05	0	42	0	106954752	19	4594
2026-01-03 23:41:50.03	25.71	11.92	-29.8	-31.7	12.8	8.31e-05	0	42	0	109051904	19	4491
2026-01-03 23:41:51.04	25.77	12.01	-30.3	-32.5	12.3	2.53e-04	0	42	0	111149056	19	4620
2026-01-03 23:41:52.04	25.84	12.10	-29.8	-31.7	12.8	5.26e-05	0	42	0	112197632	19	4484
2026-01-03 23:41:53.05	25.90	12.19	-29.8	-31.9	12.6	3.89e-05	0	42	0	114294784	19	4547
2026-01-03 23:41:54.06	25.96	12.28	-29.8	-31.8	12.8	5.79e-05	0	42	0	116391936	19	4525
2026-01-03 23:41:55.06	26.02	12.37	-29.8	-31.7	12.9	5.56e-05	0	42	0	118489088	19	4495
2026-01-03 23:41:56.06	26.09	12.46	-29.8	-31.7	12.9	7.06e-04	0	42	0	120586240	19	4486
2026-01-03 23:41:57.07	26.15	12.55	-29.9	-32.1	12.6	7.40e-05	0	42	0	121634816	19	4615
2026-01-03 23:41:58.07	26.21	12.64	-29.8	-31.7	12.8	6.25e-05	0	42	0	123731968	19	4493
2026-01-03 23:41:59.08	26.28	12.73	-29.8	-31.7	12.8	7.85e-05	0	42	0	125829120	19	4495
2026-01-03 23:42:00.09	26.34	12.82	-29.8	-31.7	12.9	5.56e-05	0	42	0	127926272	19	4482
2026-01-03 23:42:01.09	26.41	12.92	-29.9	-31.9	12.7	5.87e-05	0	42	0	130023424	19	4547
2026-01-03 23:42:02.10	26.47	13.01	-29.9	-31.9	12.7	1.71e-04	0	42	0	131072000	19	4545
2026-01-03 23:42:03.11	26.54	13.10	-29.8	-31.9	12.8	1.17e-03	0	42	0	133169152	19	4540
2026-01-03 23:42:04.12	26.61	13.20	-30.0	-32.2	12.5	8.77e-05	0	42	0	135266304	19	4663
2026-01-03 23:42:05.12	26.67	13.29	-29.7	-31.5	13.0	7.24e-05	0	42	0	137363456	19	4426
2026-01-03 23:42:06.12	26.74	13.38	-29.6	-31.3	13.2	1.23e-03	0	42	0	139460608	19	4352
2026-01-03 23:42:07.12	26.81	13.48	-29.6	-31.1	13.3	2.05e-05	0	42	0	140509184	19	4289
2026-01-03 23:42:08.13	26.87	13.57	-29.7	-31.4	13.2	1.67e-05	0	42	0	142606336	19	4378
2026-01-03 23:42:09.13	26.94	13.67	-29.7	-31.5	13.0	5.16e-04	0	42	0	144703488	19	4419
2026-01-03 23:42:10.13	27.01	13.76	-29.8	-31.7	12.9	4.50e-05	0	42	0	146800640	19	4477
2026-01-03 23:42:11.13	27.08	13.86	-29.8	-31.7	12.9	5.11e-05	0	42	0	147849216	19	4476
2026-01-03 23:42:12.14	27.15	13.95	-29.7	-31.3	13.2	4.11e-05	0	42	0	149946368	19	4369
2026-01-03 23:42:13.14	27.22	14.05	-29.6	-31.1	13.3	2.13e-05	0	42	0	152043520	19	4277
2026-01-03 23:42:14.15	27.29	14.15	-29.5	-31.0	13.4	1.07e-03	0	42	0	154140672	19	4252
2026-01-03 23:42:15.15	27.36	14.24	-29.6	-31.0	13.4	1.60e-05	0	42	0	156237824	19	4247
2026-01-03 23:42:16.14	27.43	14.34	-29.6	-31.1	13.4	8.30e-06	0	42	0	158334976	19	4278
2026-01-03 23:42:17.14	27.50	14.44	-29.6	-31.2	13.3	8.83e-04	0	42	0	159383552	19	4304
2026-01-03 23:42:18.15	27.57	14.54	-29.4	-31.2	13.6	8.44e-04	0	42	0	161480704	18	4420
2026-01-03 23:42:19.15	27.64	14.63	-29.3	-30.9	13.8	4.50e-06	0	42	0	163577856	18	4312
2026-01-03 23:42:20.15	27.72	14.73	-29.5	-31.2	13.6	7.45e-04	0	42	0	165675008	18	4422
2026-01-03 23:42:21.16	27.79	14.83	-29.6	-31.3	13.3	7.92e-04	0	42	0	166723584	19	4335
2026-01-03 23:42:22.16	27.86	14.93	-29.4	-30.7	13.6	6.10e-06	0	43	0	168820736	19	4162
2026-01-03 23:42:23.16	27.94	15.03	-29.5	-31.3	13.6	6.80e-04	0	42	0	170917888	18	4431
2026-01-03 23:42:24.16	28.01	15.13	-29.6	-31.1	13.4	8.38e-04	0	42	0	173015040	19	4282
2026-01-03 23:42:25.17	28.09	15.23	-29.5	-30.9	13.6	8.30e-06	0	42	0	175112192	19	4211
2026-01-03 23:42:26.18	28.16	15.33	-29.4	-31.2	13.6	6.10e-06	0	42	0	176160768	18	4405
2026-01-03 23:42:27.18	28.24	15.44	-29.4	-30.7	13.6	9.83e-04	0	42	0	178257920	19	4160
2026-01-03 23:42:28.18	28.31	15.54	-29.5	-30.7	13.6	6.80e-06	0	42	0	180355072	19	4170
2026-01-03 23:42:29.19	28.39	15.64	-29.5	-30.8	13.6	8.30e-06	0	42	0	182452224	19	4185
2026-01-03 23:42:30.20	28.47	15.74	-29.5	-31.0	13.5	1.02e-03	0	42	0	184549376	19	4239
2026-01-03 23:42:31.21	28.55	15.85	-29.3	-30.3	13.9	5.30e-06	0	42	0	185597952	19	4051
2026-01-03 23:42:32.21	28.63	15.95	-29.2	-30.5	14.2	1.02e-03	0	43	0	187695104	18	4175
2026-01-03 23:42:33.21	28.71	16.05	-29.2	-30.7	14.0	9.85e-04	0	42	0	189792256	18	4242
2026-01-03 23:42:34.22	28.79	16.16	-29.4	-31.2	13.7	6.10e-06	0	42	0	191889408	18	4396
2026-01-03 23:42:35.22	28.87	16.26	-29.2	-30.6	14.0	1.00e-03	0	42	0	193986560	18	4229
2026-01-03 23:42:36.23	28.95	16.37	-29.2	-30.6	14.1	1.08e-03	0	42	0	195035136	18	4208
2026-01-03 23:42:37.23	29.03	16.47	-29.3	-30.8	14.0	3.23e-04	0	42	0	197132288	18	4264
2026-01-03 23:42:38.23	29.11	16.58	-29.3	-30.8	14.0	9.73e-04	0	42	0	199229440	18	4268
2026-01-03 23:42:39.24	29.19	16.68	-29.2	-30.5	14.1	1.13e-03	0	42	0	201326592	18	4190
2026-01-03 23:42:40.24	29.27	16.79	-29.2	-30.7	14.0	7.19e-04	0	42	0	203423744	18	4231
2026-01-03 23:42:41.24	29.36	16.90	-29.3	-30.7	14.0	1.11e-03	0	43	0	204472320	18	4246
2026-01-03 23:42:42.25	29.44	17.00	-29.4	-31.1	13.8	1.08e-03	0	42	0	206569472	18	4351
2026-01-03 23:42:43.26	29.53	17.11	-29.4	-31.1	13.8	8.86e-04	0	42	0	208666624	18	4381
2026-01-03 23:42:44.26	29.61	17.22	-29.4	-31.0	13.9	1.96e-03	0	42	0	210763776	18	4326
2026-01-03 23:42:45.26	29.70	17.33	-29.2	-30.5	14.2	8.51e-04	0	42	0	212860928	18	4191
2026-01-03 23:42:46.27	29.78	17.44	-29.2	-30.5	14.2	2.20e-06	0	43	0	213909504	18	4172
2026-01-03 23:42:47.28	29.87	17.55	-29.3	-30.7	14.1	4.74e-04	0	42	0	216006656	18	4231
2026-01-03 23:42:48.28	29.96	17.66	-29.3	-30.6	14.1	7.08e-04	0	42	0	218103808	18	4216
2026-01-03 23:42:49.29	30.05	17.77	-29.3	-30.7	14.1	7.00e-07	0	42	0	220200960	18	4243
2026-01-03 23:42:50.30	30.14	17.88	-29.3	-30.7	14.1	4.65e-05	0	42	0	222298112	18	4234
2026-01-03 23:42:51.30	30.22	17.99	-29.4	-31.0	13.9	5.15e-04	0	43	0	223346688	18	4330
2026-01-03 23:42:52.31	30.32	18.11	-29.5	-30.9	13.7	3.35e-05	0	42	0	225443840	19	4193
2026-01-03 23:42:53.31	30.41	18.22	-29.4	-30.5	14.0	2.13e-05	0	43	0	227540992	19	4077
2026-01-03 23:42:54.32	30.50	18.33	-29.4	-30.9	14.0	3.00e-06	0	43	0	229638144	18	4294
2026-01-03 23:42:55.32	30.59	18.44	-29.5	-30.8	13.7	1.98e-05	0	42	0	231735296	19	4175
2026-01-03 23:42:56.33	30.68	18.56	-29.7	-31.3	13.5	5.73e-04	0	43	0	232783872	19	4313
2026-01-03 23:42:57.34	30.78	18.67	-29.5	-30.8	13.7	3.80e-06	0	43	0	234881024	19	4175
2026-01-03 23:42:58.34	30.87	18.79	-29.6	-31.1	13.6	3.50e-05	0	43	0	236978176	19	4258
2026-01-03 23:42:59.34	30.96	18.90	-29.7	-31.3	13.4	6.62e-04	0	43	0	239075328	19	4330
2026-01-03 23:43:00.34	31.06	19.02	-29.8	-31.5	13.3	1.52e-05	0	43	0	241172480	19	4381
2026-01-03 23:43:01.35	31.15	19.13	-29.8	-31.7	13.2	1.62e-04	0	43	0	242221056	19	4445
2026-01-03 23:43:02.35	31.25	19.25	-30.0	-32.0	13.0	1.12e-03	0	43	0	244318208	19	4550
2026-01-03 23:43:03.36	31.35	19.37	-29.8	-31.6	13.2	2.67e-05	0	43	0	246415360	19	4426
2026-01-03 23:43:04.37	31.45	19.48	-30.0	-32.0	13.0	3.91e-04	0	43	0	248512512	19	4549
2026-01-03 23:43:05.37	31.55	19.60	-30.0	-31.5	12.9	4.06e-04	0	43	0	249561088	20	4314
2026-01-03 23:43:06.37	31.64	19.72	-29.8	-31.1	13.2	8.03e-04	0	43	0	251658240	20	4189
2026-01-03 23:43:07.38	31.75	19.84	-29.5	-30.8	13.8	4.29e-04	0	43	0	253755392	19	4188
2026-01-03 23:43:08.39	31.85	19.96	-29.5	-30.7	13.9	4.04e-04	0	43	0	255852544	19	4128
2026-01-03 23:43:09.39	31.95	20.08	-29.6	-31.0	13.7	4.85e-04	0	43	0	257949696	19	4242
2026-01-03 23:43:10.40	32.05	20.20	-29.5	-30.8	13.8	4.50e-06	0	43	0	260046848	19	4174
2026-01-03 23:43:11.40	32.15	20.32	-29.5	-30.7	13.9	4.55e-04	0	43	0	261095424	19	4151
2026-01-03 23:43:12.41	32.26	20.44	-29.7	-31.1	13.6	3.00e-06	0	43	0	263192576	19	4274
2026-01-03 23:43:13.42	32.36	20.56	-29.6	-31.1	13.6	6.10e-06	0	42	0	265289728	19	4251
2026-01-03 23:43:14.42	32.47	20.68	-29.6	-31.0	13.7	7.60e-06	0	43	0	267386880	19	4224
2026-01-03 23:43:15.42	32.58	20.81	-29.7	-31.2	13.6	9.90e-06	0	43	0	268435456	19	4298
2026-01-03 23:43:16.43	32.68	20.93	-29.7	-31.2	13.6	6.86e-05	0	43	0	270532608	19	4273
2026-01-03 23:43:17.43	32.79	21.05	-29.7	-31.3	13.5	9.90e-06	0	43	0	272629760	19	4328
2026-01-03 23:43:18.44	32.90	21.18	-29.8	-31.4	13.4	2.59e-05	0	43	0	274726912	19	4364
2026-01-03 23:43:19.45	33.01	21.30	-29.6	-31.0	13.7	1.29e-05	0	43	0	276824064	19	4216
2026-01-03 23:43:20.46	33.12	21.43	-29.8	-31.4	13.4	1.14e-05	0	43	0	277872640	19	4361
2026-01-03 23:43:21.46	33.23	21.56	-29.7	-31.3	13.5	6.80e-06	0	43	0	279969792	19	4316
2026-01-03 23:43:22.47	33.35	21.68	-29.8	-31.5	13.5	8.30e-06	0	43	0	282066944	19	4366
2026-01-03 23:43:23.48	33.46	21.81	-29.9	-31.7	13.3	1.37e-05	0	43	0	284164096	19	4444
2026-01-03 23:43:24.48	33.57	21.94	-29.9	-31.7	13.3	1.06e-05	0	43	0	286261248	19	4448
2026-01-03 23:43:25.48	33.69	22.07	-29.7	-31.3	13.5	5.56e-05	0	43	0	287309824	19	4315
2026-01-03 23:43:26.49	33.80	22.19	-29.7	-31.2	13.1	2.28e-04	0	42	0	289406976	19	4289
2026-01-03 23:43:27.50	33.92	22.32	-29.8	-31.6	13.4	1.22e-05	0	43	0	291504128	19	4407
2026-01-03 23:43:28.51	34.04	22.46	-29.7	-31.2	13.6	1.22e-05	0	43	0	293601280	19	4281
2026-01-03 23:43:29.51	34.16	22.58	-29.5	-31.1	13.9	9.07e-05	0	43	0	295698432	18	4354
2026-01-03 23:43:30.52	34.28	22.72	-29.6	-30.9	13.8	2.20e-06	0	43	0	296747008	19	4200
2026-01-03 23:43:31.52	34.40	22.85	-29.5	-30.6	14.0	7.00e-07	0	43	0	298844160	19	4097
2026-01-03 23:43:32.53	34.52	22.98	-29.5	-30.7	14.0	2.20e-06	0	43	0	300941312	19	4125
2026-01-03 23:43:33.54	34.65	23.11	-29.4	-30.4	14.2	5.30e-06	0	43	0	303038464	19	4031
2026-01-03 23:43:34.55	34.77	23.25	-29.5	-30.7	14.0	3.00e-06	0	43	0	305135616	19	4113
2026-01-03 23:43:35.56	34.90	23.38	-29.6	-30.9	13.9	2.20e-06	0	43	0	306184192	19	4180
2026-01-03 23:43:36.56	35.02	23.51	-29.5	-30.8	13.9	3.00e-06	0	43	0	308281344	19	4163
2026-01-03 23:43:37.56	35.15	23.65	-29.6	-30.9	13.9	3.00e-06	0	43	0	310378496	19	4187
2026-01-03 23:43:38.57	35.28	23.78	-29.6	-30.8	13.9	1.50e-06	0	43	0	312475648	19	4153
2026-01-03 23:43:39.57	35.40	23.92	-29.7	-31.1	13.8	5.30e-06	0	43	0	314572800	19	4235
2026-01-03 23:43:40.58	35.54	24.06	-29.6	-30.8	13.9	1.29e-04	0	43	0	315621376	19	4157
2026-01-03 23:43:41.58	35.67	24.19	-29.7	-31.3	13.7	1.50e-06	0	43	0	317718528	19	4301
2026-01-03 23:43:42.59	35.80	24.33	-29.6	-30.8	13.9	3.00e-06	0	43	0	319815680	19	4158
2026-01-03 23:43:43.60	35.93	24.47	-29.4	-30.3	14.3	1.71e-04	0	43	0	321912832	19	3993
2026-01-03 23:43:44.60	36.07	24.61	-29.4	-30.4	14.2	2.12e-04	0	43	0	324009984	19	4035
2026-01-03 23:43:45.61	36.20	24.75	-29.5	-30.7	14.0	2.20e-06	0	43	0	325058560	19	4110
2026-01-03 23:43:46.62	36.34	24.89	-29.5	-30.7	13.9	2.30e-04	0	43	0	327155712	19	4120
2026-01-03 23:43:47.62	36.48	25.03	-29.5	-31.0	14.1	2.57e-04	0	43	0	329252864	18	4309
2026-01-03 23:43:48.63	36.62	25.17	-29.6	-30.9	13.9	1.50e-06	0	43	0	331350016	19	4173
2026-01-03 23:43:49.64	36.76	25.31	-29.4	-30.3	14.3	3.00e-06	0	43	0	333447168	19	4005
2026-01-03 23:43:50.64	36.90	25.45	-29.5	-30.7	14.1	1.98e-04	0	43	0	334495744	19	4129
2026-01-03 23:43:51.64	37.04	25.60	-29.7	-31.1	13.8	2.20e-06	0	43	0	336592896	19	4238
2026-01-03 23:43:52.64	37.19	25.74	-29.7	-31.1	13.8	2.20e-06	0	43	0	338690048	19	4249
2026-01-03 23:43:53.64	37.33	25.88	-29.7	-31.2	13.7	1.36e-04	0	43	0	340787200	19	4283
2026-01-03 23:43:54.64	37.48	26.03	-29.7	-31.3	13.7	4.50e-06	0	43	0	342884352	19	4292
2026-01-03 23:43:55.65	37.63	26.17	-29.9	-31.6	13.5	8.30e-06	0	43	0	343932928	19	4408
2026-01-03 23:43:56.66	37.78	26.32	-30.1	-31.7	13.0	1.62e-04	0	43	0	346030080	20	4347
2026-01-03 23:43:57.67	37.93	26.47	-30.3	-32.3	12.7	3.35e-05	0	43	0	348127232	20	4548
2026-01-03 23:43:58.67	38.08	26.61	-30.1	-31.9	13.0	2.52e-04	0	43	0	350224384	20	4395
2026-01-03 23:43:59.67	38.23	26.76	-30.3	-32.3	12.6	6.10e-05	0	43	0	352321536	20	4548
2026-01-03 23:44:00.68	38.39	26.91	-30.4	-32.2	12.4	2.37e-04	0	43	0	353370112	21	4406
2026-01-03 23:44:01.69	38.55	27.06	-30.2	-31.5	12.8	3.17e-04	0	43	0	355467264	21	4192
2026-01-03 23:44:02.70	38.71	27.21	-30.3	-31.7	12.7	2.60e-04	0	43	0	357564416	21	4263
2026-01-03 23:44:03.70	38.86	27.36	-30.2	-31.4	12.9	7.85e-05	0	43	0	359661568	21	4163
2026-01-03 23:44:04.70	39.02	27.51	-30.1	-31.9	12.9	2.39e-04	0	43	0	361758720	20	4388
2026-01-03 23:44:05.71	39.19	27.66	-30.0	-31.6	13.1	2.23e-04	0	43	0	362807296	20	4291
2026-01-03 23:44:06.71	39.35	27.81	-30.1	-31.8	13.0	4.27e-05	0	43	0	364904448	20	4381
2026-01-03 23:44:07.71	39.51	27.96	-30.2	-32.0	12.9	2.16e-04	0	43	0	367001600	20	4429
2026-01-03 23:44:08.72	39.68	28.12	-30.1	-31.7	13.1	1.81e-04	0	43	0	369098752	20	4337
2026-01-03 23:44:09.73	39.85	28.27	-30.2	-32.1	12.8	6.48e-05	0	43	0	371195904	20	4470
2026-01-03 23:44:10.73	40.02	28.42	-30.3	-31.8	12.7	5.44e-04	0	43	0	372244480	21	4285
2026-01-03 23:44:11.74	40.19	28.58	-30.5	-32.4	12.3	1.58e-04	0	43	0	374341632	21	4492
2026-01-03 23:44:12.75	40.37	28.74	-30.5	-32.5	12.3	1.59e-04	0	43	0	376438784	21	4519
2026-01-03 23:44:13.75	40.54	28.89	-30.6	-32.7	12.1	6.06e-04	0	43	0	378535936	21	4592
2026-01-03 23:44:14.75	40.72	29.05	-30.7	-33.0	11.9	4.32e-04	0	43	0	380633088	21	4695
2026-01-03 23:44:15.76	40.90	29.20	-30.7	-32.9	12.0	8.50e-04	0	43	0	381681664	21	4640
2026-01-03 23:44:16.77	41.08	29.36	-30.8	-33.2	11.8	5.19e-04	0	43	0	383778816	21	4745
2026-01-03 23:44:17.78	41.26	29.52	-30.8	-33.3	11.7	4.62e-04	0	43	0	385875968	21	4795
2026-01-03 23:44:18.78	41.44	29.68	-30.9	-33.6	11.5	5.27e-04	0	43	0	387973120	21	4910
2026-01-03 23:44:19.79	41.63	29.84	-30.9	-33.0	11.5	1.35e-03	0	43	0	390070272	22	4604
2026-01-03 23:44:20.79	41.81	30.00	-31.0	-33.2	11.5	8.51e-04	0	43	0	391118848	22	4668
2026-01-03 23:44:21.80	42.00	30.16	-31.0	-33.4	11.3	1.17e-03	0	43	0	393216000	22	4720
2026-01-03 23:44:22.80	42.19	30.32	-31.2	-33.9	11.0	1.10e-03	0	43	0	395313152	22	4914
2026-01-03 23:44:23.81	42.39	30.49	-31.1	-33.6	11.2	9.70e-04	0	43	0	397410304	22	4798
2026-01-03 23:44:24.81	42.58	30.65	-31.0	-33.2	11.5	6.64e-04	0	43	0	399507456	22	4651
2026-01-03 23:44:25.82	42.78	30.81	-31.0	-33.3	11.3	7.21e-04	0	43	0	400556032	22	4704
2026-01-03 23:44:26.82	42.97	30.97	-30.9	-32.9	11.7	7.60e-04	0	43	0	402653184	22	4544
2026-01-03 23:44:27.82	43.17	31.14	-31.2	-33.9	11.1	8.03e-04	0	43	0	404750336	22	4914
2026-01-03 23:44:28.83	43.38	31.30	-31.0	-33.3	11.4	9.77e-04	0	43	0	406847488	22	4688
2026-01-03 23:44:29.83	43.58	31.47	-31.0	-33.4	11.4	7.29e-04	0	43	0	407896064	22	4717
2026-01-03 23:44:30.84	43.79	31.63	-31.1	-33.5	11.3	1.08e-03	0	43	0	409993216	22	4754
2026-01-03 23:44:31.84	43.99	31.80	-31.3	-34.1	10.8	1.74e-03	0	43	0	412090368	22	5007
2026-01-03 23:44:32.85	44.21	31.97	-31.2	-33.4	11.0	3.42e-03	0	43	0	414187520	23	4630
2026-01-03 23:44:33.86	44.42	32.13	-31.0	-32.8	11.4	1.11e-03	0	43	0	416284672	23	4438
2026-01-03 23:44:34.87	44.64	32.30	-31.1	-33.0	11.3	8.86e-04	0	43	0	418381824	23	4491
2026-01-03 23:44:35.88	44.85	32.47	-31.0	-32.7	11.5	9.80e-04	0	43	0	419430400	23	4387
2026-01-03 23:44:36.88	45.07	32.64	-31.1	-33.2	11.1	1.15e-03	0	43	0	421527552	23	4562
2026-01-03 23:44:37.88	45.29	32.81	-30.6	-32.1	12.3	4.20e-04	0	43	0	423624704	22	4271
2026-01-03 23:44:38.88	45.52	32.98	-30.5	-31.7	12.5	1.69e-04	0	43	0	425721856	22	4157
2026-01-03 23:44:39.89	45.74	33.15	-30.0	-31.0	13.3	2.21e-05	0	43	0	427819008	21	4013
2026-01-03 23:44:40.89	45.97	33.32	-29.7	-30.6	14.0	7.00e-07	0	43	0	428867584	20	3989
2026-01-03 23:44:41.90	46.20	33.49	-29.8	-30.8	13.7	3.00e-06	0	43	0	430964736	20	4043
2026-01-03 23:44:42.90	46.43	33.66	-29.9	-31.1	13.7	3.80e-06	0	43	0	433061888	20	4130
2026-01-03 23:44:43.91	46.67	33.84	-29.9	-31.2	13.6	6.10e-06	0	43	0	435159040	20	4167
2026-01-03 23:44:44.91	46.91	34.01	-30.0	-31.3	13.5	9.90e-06	0	43	0	436207616	20	4200
2026-01-03 23:44:45.92	47.15	34.18	-30.2	-32.0	13.1	2.28e-05	0	43	0	438304768	20	4408
2026-01-03 23:44:46.92	47.39	34.36	-30.1	-31.7	13.2	1.52e-05	0	43	0	440401920	20	4326
2026-01-03 23:44:47.92	47.64	34.53	-29.9	-31.1	13.7	1.75e-05	0	43	0	442499072	20	4132
2026-01-03 23:44:48.93	47.89	34.70	-30.0	-31.3	13.5	7.60e-06	0	43	0	444596224	20	4210
2026-01-03 23:44:49.93	48.13	34.88	-29.8	-30.7	13.9	1.14e-05	0	43	0	445644800	20	4028
2026-01-03 23:44:50.94	48.39	35.05	-29.7	-30.5	14.0	4.50e-06	0	43	0	447741952	20	3957
2026-01-03 23:44:51.94	48.64	35.23	-29.8	-30.7	13.9	3.80e-06	0	43	0	449839104	20	4022
2026-01-03 23:44:52.95	48.90	35.41	-29.7	-30.7	13.9	9.90e-06	0	43	0	451936256	20	4013
2026-01-03 23:44:53.95	49.17	35.58	-29.9	-31.0	13.7	3.80e-06	0	43	0	454033408	20	4110
2026-01-03 23:44:54.96	49.43	35.76	-30.0	-31.4	13.5	4.50e-06	0	43	0	455081984	20	4217
2026-01-03 23:44:55.96	49.70	35.93	-29.9	-31.2	13.6	1.29e-05	0	43	0	457179136	20	4156
2026-01-03 23:44:56.97	49.97	36.11	-29.9	-31.2	13.6	1.60e-05	0	43	0	459276288	20	4171
2026-01-03 23:44:57.97	50.24	36.29	-30.1	-31.7	13.3	1.06e-05	0	43	0	461373440	20	4315
2026-01-03 23:44:58.98	50.52	36.47	-29.9	-31.0	13.7	1.52e-05	0	43	0	463470592	20	4109
2026-01-03 23:44:59.98	50.80	36.65	-29.8	-30.8	13.9	2.20e-06	0	43	0	464519168	20	4032
2026-01-03 23:45:00.98	51.08	36.82	-29.7	-30.6	14.0	2.20e-06	0	43	0	466616320	20	3989
2026-01-03 23:45:01.98	51.36	37.00	-29.8	-30.9	13.8	4.50e-06	0	43	0	468713472	20	4069
2026-01-03 23:45:02.98	51.65	37.18	-29.6	-30.4	14.2	3.80e-06	0	43	0	470810624	20	3924
2026-01-03 23:45:03.99	51.94	37.36	-29.5	-30.1	14.4	0.00e+00	0	43	0	472907776	20	3848
2026-01-03 23:45:04.99	52.23	37.54	-29.3	-30.1	14.7	0.00e+00	0	43	0	473956352	19	3926
2026-01-03 23:45:06.00	52.53	37.72	-29.4	-30.2	14.6	0.00e+00	0	43	0	476053504	19	3949
2026-01-03 23:45:07.00	52.83	37.89	-29.5	-30.5	14.5	0.00e+00	0	43	0	478150656	19	4029
2026-01-03 23:45:08.01	53.14	38.07	-29.8	-31.4	13.9	7.00e-07	0	43	0	480247808	19	4305
2026-01-03 23:45:09.02	53.45	38.25	-29.5	-30.4	14.4	7.00e-07	0	43	0	482344960	19	4025
2026-01-03 23:45:10.02	53.76	38.43	-29.9	-31.1	13.8	7.00e-07	0	43	0	483393536	20	4140
2026-01-03 23:45:11.03	54.07	38.61	-29.6	-30.3	14.2	3.00e-06	0	43	0	485490688	20	3905
2026-01-03 23:45:12.03	54.39	38.79	-29.6	-30.4	14.2	0.00e+00	0	43	0	487587840	20	3925
2026-01-03 23:45:13.04	54.71	38.97	-29.8	-30.8	13.9	3.00e-06	0	43	0	489684992	20	4032
2026-01-03 23:45:14.05	55.04	39.15	-29.7	-30.7	14.0	3.80e-06	0	43	0	491782144	20	4008
2026-01-03 23:45:15.05	55.36	39.33	-29.6	-30.4	14.1	6.80e-06	0	43	0	492830720	20	3943
2026-01-03 23:45:16.05	55.69	39.51	-29.9	-31.1	13.7	5.30e-06	0	43	0	494927872	20	4145
2026-01-03 23:45:17.06	56.03	39.69	-30.4	-32.4	12.9	2.44e-05	0	43	0	497025024	20	4528
2026-01-03 23:45:18.07	56.37	39.87	-30.3	-32.2	13.0	3.73e-05	0	43	0	499122176	20	4474
2026-01-03 23:45:19.07	56.71	40.05	-30.6	-32.7	12.4	8.85e-05	0	43	0	501219328	21	4540
2026-01-03 23:45:20.08	57.06	40.23	-31.1	-33.4	11.6	2.83e-04	0	43	0	502267904	22	4706
2026-01-03 23:45:21.09	57.41	40.40	-30.8	-32.5	12.1	4.90e-04	0	43	0	504365056	22	4393
2026-01-03 23:45:22.09	57.77	40.58	-30.3	-31.6	13.2	9.76e-05	0	43	0	506462208	21	4192
2026-01-03 23:45:23.10	58.13	40.76	-29.6	-30.3	14.3	1.75e-05	0	43	0	508559360	20	3908
2026-01-03 23:45:24.11	58.49	40.94	-29.3	-29.5	14.7	5.34e-05	0	43	0	510656512	20	3691
2026-01-03 23:45:25.11	58.86	41.11	-29.5	-30.5	14.6	7.40e-05	0	43	0	511705088	19	4029
2026-01-03 23:45:26.12	59.23	41.29	-29.8	-31.3	14.0	7.00e-07	0	43	0	513802240	19	4267
2026-01-03 23:45:27.12	59.60	41.47	-30.1	-31.6	13.5	1.64e-04	0	43	0	515899392	20	4301
2026-01-03 23:45:28.13	59.98	41.64	-30.1	-31.6	13.3	2.68e-04	0	43	0	517996544	20	4291
2026-01-03 23:45:29.14	60.36	41.82	-29.7	-30.4	14.2	9.90e-06	0	43	0	520093696	20	3920
2026-01-03 23:45:30.14	60.75	41.99	-29.1	-29.5	15.1	2.17e-04	0	43	0	521142272	19	3763
2026-01-03 23:45:31.15	61.14	42.17	-29.2	-29.8	14.9	9.84e-05	0	43	0	523239424	19	3838
2026-01-03 23:45:32.16	61.54	42.34	-29.6	-30.8	14.3	0.00e+00	0	43	0	525336576	19	4119
2026-01-03 23:45:33.17	61.94	42.51	-29.7	-31.1	14.2	7.00e-07	0	43	0	527433728	19	4198
2026-01-03 23:45:34.17	62.34	42.69	-30.0	-31.2	13.7	2.44e-05	0	43	0	529530880	20	4149
2026-01-03 23:45:35.18	62.75	42.86	-30.2	-31.8	13.2	1.29e-05	0	43	0	530579456	20	4341
2026-01-03 23:45:36.19	63.16	43.03	-30.2	-31.9	13.3	2.67e-05	0	43	0	532676608	20	4355
2026-01-03 23:45:37.19	63.58	43.20	-30.4	-32.4	13.0	5.18e-05	0	43	0	534773760	20	4534
2026-01-03 23:45:38.19	63.99	43.36	-30.4	-32.4	12.8	2.82e-05	0	43	0	536870912	20	4538
2026-01-03 23:45:39.19	64.42	43.53	-30.3	-32.2	13.0	1.29e-05	0	43	0	538968064	20	4465
2026-01-03 23:45:40.20	64.85	43.70	-29.6	-30.3	14.3	2.20e-06	0	43	0	540016640	20	3897
2026-01-03 23:45:41.20	65.28	43.86	-29.6	-30.3	14.3	1.50e-06	0	43	0	542113792	20	3906
2026-01-03 23:45:42.20	65.72	44.03	-29.7	-30.4	14.2	1.50e-06	0	43	0	544210944	20	3938
2026-01-03 23:45:43.21	66.16	44.19	-30.0	-31.2	13.8	4.50e-06	0	43	0	546308096	20	4148
2026-01-03 23:45:44.21	66.61	44.35	-30.0	-31.2	13.7	4.50e-06	0	43	0	548405248	20	4155
2026-01-03 23:45:45.21	67.06	44.51	-30.2	-31.7	13.5	6.80e-06	0	43	0	549453824	20	4317
2026-01-03 23:45:46.21	67.51	44.67	-30.1	-31.6	13.4	1.44e-05	0	43	0	551550976	20	4264
2026-01-03 23:45:47.22	67.97	44.83	-30.1	-31.5	13.5	1.75e-05	0	43	0	553648128	20	4259
2026-01-03 23:45:48.22	68.43	44.98	-30.0	-31.3	13.7	8.30e-06	0	43	0	555745280	20	4190
2026-01-03 23:45:49.22	68.90	45.14	-30.0	-31.2	13.8	1.44e-05	0	43	0	556793856	20	4138
2026-01-03 23:45:50.22	69.37	45.29	-30.0	-31.3	13.7	6.10e-06	0	43	0	558891008	20	4181
2026-01-03 23:45:51.23	69.85	45.44	-30.5	-32.3	12.7	3.66e-05	0	43	0	560988160	21	4410
2026-01-03 23:45:52.23	70.34	45.59	-30.8	-33.0	12.2	2.22e-04	0	43	0	563085312	21	4653
2026-01-03 23:45:53.23	70.82	45.74	-30.3	-31.7	13.1	1.66e-04	0	43	0	565182464	21	4215
2026-01-03 23:45:54.23	71.31	45.89	-29.9	-31.0	13.9	5.30e-06	0	43	0	566231040	20	4087
2026-01-03 23:45:55.24	71.81	46.03	-30.0	-31.3	13.7	2.20e-06	0	43	0	568328192	20	4191
2026-01-03 23:45:56.25	72.31	46.18	-30.8	-33.1	12.3	3.50e-05	0	43	0	570425344	21	4669
2026-01-03 23:45:57.25	72.82	46.32	-31.4	-34.3	11.0	1.25e-03	0	43	0	572522496	22	5026
2026-01-03 23:45:58.26	73.33	46.46	-31.2	-33.3	11.3	1.89e-03	0	43	0	574619648	23	4560
2026-01-03 23:45:59.27	73.85	46.60	-31.4	-33.9	10.9	2.12e-03	0	43	0	575668224	23	4803
2026-01-03 23:46:00.27	74.37	46.73	-31.7	-34.7	10.4	2.95e-03	0	43	0	577765376	23	5123
2026-01-03 23:46:01.28	74.89	46.87	-31.6	-34.4	10.6	4.45e-03	0	43	0	579862528	23	4984
2026-01-03 23:46:02.28	75.42	47.00	-31.4	-33.7	11.1	4.15e-03	0	43	0	581959680	23	4720
2026-01-03 23:46:03.28	75.95	47.13	-31.4	-33.8	11.1	2.93e-03	0	43	0	584056832	23	4743
2026-01-03 23:46:04.29	76.49	47.26	-31.2	-33.2	11.4	9.22e-04	0	43	0	585105408	23	4545
2026-01-03 23:46:05.30	77.03	47.38	-31.2	-33.3	11.3	2.16e-03	0	43	0	587202560	23	4551
2026-01-03 23:46:06.30	77.58	47.50	-31.0	-32.6	11.9	4.74e-04	0	43	0	589299712	23	4324
2026-01-03 23:46:07.31	78.13	47.62	-31.4	-33.7	11.2	9.35e-04	0	43	0	591396864	23	4689
2026-01-03 23:46:08.31	78.68	47.74	-31.9	-35.4	10.0	4.22e-03	0	43	0	593494016	23	5392
2026-01-03 23:46:09.32	79.24	47.86	-31.9	-35.1	9.7	1.44e-02	0	43	0	594542592	24	5189
2026-01-03 23:46:10.32	79.80	47.97	-31.8	-34.6	10.1	1.31e-02	0	43	0	596639744	24	4976
2026-01-03 23:46:11.33	80.37	48.08	-31.8	-34.8	10.0	1.00e-02	0	43	0	598736896	24	5051
2026-01-03 23:46:12.34	80.95	48.19	-31.8	-34.7	10.0	1.00e-02	0	43	0	600834048	24	4995
2026-01-03 23:46:13.35	81.52	48.29	-31.8	-34.7	10.0	7.69e-03	0	43	0	602931200	24	5036
2026-01-03 23:46:14.35	82.10	48.39	-31.4	-33.4	11.0	1.82e-03	0	43	0	603979776	24	4516
2026-01-03 23:46:15.36	82.68	48.49	-31.2	-33.1	11.6	1.07e-03	0	43	0	606076928	23	4487
2026-01-03 23:46:16.36	83.27	48.58	-31.4	-33.7	11.2	6.96e-04	0	43	0	608174080	23	4701
2026-01-03 23:46:17.37	83.86	48.68	-31.1	-33.0	11.6	1.22e-03	0	43	0	610271232	23	4457
2026-01-03 23:46:18.38	84.45	48.77	-30.5	-31.7	12.9	1.56e-04	0	43	0	612368384	22	4130
2026-01-03 23:46:19.38	85.05	48.85	-29.9	-30.4	13.9	1.60e-05	0	43	0	613416960	21	3833
2026-01-03 23:46:20.38	85.64	48.94	-29.2	-29.7	15.1	0.00e+00	0	43	0	615514112	19	3804
2026-01-03 23:46:21.38	86.24	49.02	-28.9	-28.9	15.6	0.00e+00	0	43	0	617611264	19	3604
2026-01-03 23:46:22.38	86.85	49.09	-28.9	-29.5	15.6	0.00e+00	0	43	0	619708416	18	3846
2026-01-03 23:46:23.38	87.45	49.17	-29.4	-30.7	14.9	0.00e+00	0	43	0	621805568	18	4192
2026-01-03 23:46:24.39	88.07	49.24	-29.2	-30.2	15.2	0.00e+00	0	43	0	622854144	18	4034
2026-01-03 23:46:25.40	88.68	49.30	-28.7	-28.9	15.9	0.00e+00	0	43	0	624951296	18	3683
2026-01-03 23:46:26.41	89.30	49.37	-28.5	-28.4	16.1	0.00e+00	0	43	0	627048448	18	3583
2026-01-03 23:46:27.41	89.92	49.43	-28.4	-28.4	16.2	0.00e+00	0	43	0	629145600	18	3563
2026-01-03 23:46:28.41	90.54	49.48	-28.3	-28.6	16.3	0.00e+00	0	43	0	631242752	17	3712
2026-01-03 23:46:29.42	91.16	49.54	-28.4	-28.9	16.1	0.00e+00	0	43	0	632291328	17	3774
2026-01-03 23:46:30.42	91.79	49.59	-28.5	-29.1	15.8	0.00e+00	0	43	0	634388480	17	3838
2026-01-03 23:46:31.43	92.42	49.63	-28.6	-29.1	16.0	0.00e+00	0	43	0	636485632	17	3836
2026-01-03 23:46:32.43	93.05	49.68	-28.6	-29.1	16.0	0.00e+00	0	43	0	638582784	17	3841
2026-01-03 23:46:33.44	93.68	49.72	-28.5	-28.9	16.1	0.00e+00	0	43	0	640679936	17	3799
2026-01-03 23:46:34.45	94.32	49.75	-28.3	-28.6	16.3	0.00e+00	0	43	0	641728512	17	3706
2026-01-03 23:46:35.46	94.95	49.78	-28.0	-27.9	16.8	0.00e+00	0	43	0	643825664	17	3532
2026-01-03 23:46:36.46	95.59	49.81	-27.9	-27.6	16.9	0.00e+00	0	43	0	645922816	17	3469
2026-01-03 23:46:37.47	96.23	49.84	-28.4	-28.8	16.2	0.00e+00	0	43	0	648019968	17	3765
2026-01-03 23:46:38.48	96.87	49.86	-29.2	-30.1	15.2	0.00e+00	0	43	0	650117120	18	4018
2026-01-03 23:46:39.48	97.50	49.88	-29.4	-30.6	14.9	0.00e+00	0	43	0	651165696	18	4162
2026-01-03 23:46:40.49	98.15	49.89	-29.2	-29.7	15.1	7.00e-07	0	43	0	653262848	19	3809
2026-01-03 23:46:41.50	98.79	49.90	-29.4	-30.2	14.8	6.79e-05	0	43	0	655360000	19	3947
2026-01-03 23:46:42.50	99.43	49.90	-29.5	-30.3	14.8	0.00e+00	0	43	0	657457152	19	3980
2026-01-03 23:46:43.51	100.07	49.91	-29.3	-29.9	15.0	7.00e-07	0	43	0	659554304	19	3875
2026-01-03 23:46:44.52	100.71	49.91	-28.9	-29.0	15.5	6.10e-06	0	43	0	660602880	19	3638
2026-01-03 23:46:45.52	101.35	49.90	-28.8	-29.2	15.7	0.00e+00	0	43	0	662700032	18	3770
2026-01-03 23:46:46.52	101.99	49.89	-29.0	-29.7	15.4	0.00e+00	0	43	0	664797184	18	3902
2026-01-03 23:46:47.53	102.63	49.88	-29.0	-29.7	15.4	0.00e+00	0	43	0	666894336	18	3900
2026-01-03 23:46:48.53	103.27	49.86	-28.8	-29.1	15.8	2.20e-06	0	43	0	668991488	18	3746
2026-01-03 23:46:49.54	103.91	49.84	-29.0	-29.8	15.4	0.00e+00	0	43	0	670040064	18	3920
2026-01-03 23:46:50.55	104.55	49.82	-29.3	-30.5	14.9	0.00e+00	0	43	0	672137216	18	4131
2026-01-03 23:46:51.55	105.18	49.79	-29.4	-30.2	14.8	0.00e+00	0	43	0	674234368	19	3951
2026-01-03 23:46:52.56	105.82	49.76	-29.0	-29.2	15.4	0.00e+00	0	43	0	676331520	19	3667
2026-01-03 23:46:53.57	106.46	49.73	-28.7	-29.1	15.8	0.00e+00	0	43	0	678428672	18	3736
2026-01-03 23:46:54.57	107.09	49.69	-29.3	-30.3	15.1	0.00e+00	0	43	0	679477248	18	4072
2026-01-03 23:46:55.57	107.71	49.65	-29.9	-31.4	14.1	1.50e-06	0	43	0	681574400	19	4307
2026-01-03 23:46:56.57	108.34	49.60	-30.2	-31.8	13.5	9.10e-06	0	43	0	683671552	20	4334
2026-01-03 23:46:57.57	108.96	49.55	-29.6	-30.1	14.5	7.00e-07	0	43	0	685768704	20	3839
2026-01-03 23:46:58.58	109.59	49.50	-29.4	-30.2	14.8	0.00e+00	0	43	0	686817280	19	3950
2026-01-03 23:46:59.58	110.21	49.44	-29.7	-30.9	14.4	7.00e-07	0	43	0	688914432	19	4153
2026-01-03 23:47:00.59	110.84	49.38	-30.6	-32.4	12.7	2.89e-05	0	43	0	691011584	21	4440
2026-01-03 23:47:01.60	111.46	49.32	-30.9	-32.9	12.0	2.95e-04	0	43	0	693108736	22	4497
2026-01-03 23:47:02.60	112.07	49.25	-31.0	-33.0	12.1	3.65e-04	0	43	0	695205888	22	4526
2026-01-03 23:47:03.61	112.69	49.18	-31.1	-33.3	11.8	3.50e-04	0	43	0	697303040	22	4639
2026-01-03 23:47:04.62	113.30	49.11	-31.7	-34.9	10.3	2.22e-03	0	43	0	698351616	23	5186
2026-01-03 23:47:05.62	113.90	49.03	-31.6	-34.5	10.6	3.86e-03	0	43	0	700448768	23	4990
2026-01-03 23:47:06.63	114.51	48.95	-31.3	-33.4	11.4	1.62e-03	0	43	0	702545920	23	4581
2026-01-03 23:47:07.63	115.11	48.87	-31.1	-32.7	11.9	8.57e-04	0	43	0	704643072	23	4353
2026-01-03 23:47:08.64	115.71	48.79	-31.3	-33.6	11.3	5.10e-04	0	43	0	705691648	23	4649
2026-01-03 23:47:09.64	116.30	48.70	-31.2	-33.1	11.6	1.22e-03	0	43	0	707788800	23	4461
2026-01-03 23:47:10.64	116.89	48.61	-32.0	-35.2	9.6	6.19e-03	0	43	0	709885952	24	5238
2026-01-03 23:47:11.65	117.48	48.51	-32.0	-35.3	9.6	1.61e-02	0	43	0	711983104	24	5263
2026-01-03 23:47:12.66	118.06	48.41	-32.3	-36.6	8.6	1.64e-02	0	43	0	714080256	24	5905
2026-01-03 23:47:13.67	118.65	48.31	-32.3	-36.1	8.5	4.71e-02	0	43	0	715128832	25	5560
2026-01-03 23:47:14.68	119.23	48.21	-31.9	-34.2	10.1	1.71e-02	0	43	0	717225984	25	4731
2026-01-03 23:47:15.68	119.80	48.10	-32.2	-35.6	9.1	1.12e-02	0	43	0	719323136	25	5313
2026-01-03 23:47:16.69	120.37	47.99	-32.7	-37.7	7.4	5.22e-02	0	43	0	721420288	25	6401
2026-01-03 23:47:17.69	120.93	47.88	-32.7	-37.7	7.2	1.66e-01	0	43	0	723517440	25	6394
2026-01-03 23:47:18.70	121.49	47.76	-32.4	-36.4	8.4	6.38e-02	0	43	0	725614592	25	5687
2026-01-03 23:47:19.71	122.05	47.65	-32.6	-37.3	7.7	5.32e-02	0	43	0	726663168	25	6192
2026-01-03 23:47:20.72	122.60	47.53	-33.1	-39.1	6.2	2.08e-01	0	43	0	728760320	26	7216
2026-01-03 23:47:21.73	123.16	47.40	-33.3	-40.7	5.1	6.35e-01	0	43	0	730857472	26	8471
2026-01-03 23:47:22.73	123.70	47.28	-33.1	-39.6	5.6	6.33e-01	0	43	0	732954624	26	7598
2026-01-03 23:47:23.74	124.24	47.15	-32.7	-37.2	7.3	3.13e-01	0	43	0	734003200	26	6057
2026-01-03 23:47:24.74	124.77	47.02	-32.3	-35.7	8.9	4.16e-02	0	43	0	736100352	25	5376
2026-01-03 23:47:25.74	125.30	46.89	-31.9	-34.4	9.9	1.64e-02	0	43	0	738197504	25	4810
2026-01-03 23:47:26.75	125.83	46.76	-32.0	-34.7	9.7	1.07e-02	0	43	0	740294656	25	4929
2026-01-03 23:47:27.76	126.35	46.62	-31.9	-35.1	9.8	6.31e-03	0	43	0	742391808	24	5167
2026-01-03 23:47:28.76	126.87	46.48	-31.7	-34.2	10.4	7.13e-03	0	43	0	743440384	24	4808
2026-01-03 23:47:29.77	127.38	46.34	-31.3	-33.0	11.3	2.10e-03	0	43	0	745537536	24	4375
2026-01-03 23:47:30.78	127.89	46.20	-31.3	-33.4	11.4	9.54e-04	0	43	0	747634688	23	4590
2026-01-03 23:47:31.78	128.39	46.06	-31.8	-34.9	10.3	2.45e-03	0	43	0	749731840	23	5167
2026-01-03 23:47:32.79	128.89	45.91	-31.8	-34.6	10.2	9.75e-03	0	43	0	751828992	24	4965
2026-01-03 23:47:33.80	129.39	45.76	-31.7	-34.2	10.4	7.03e-03	0	43	0	753926144	24	4822
2026-01-03 23:47:34.80	129.88	45.61	-31.9	-35.0	10.0	8.03e-03	0	43	0	754974720	24	5117
2026-01-03 23:47:35.81	130.37	45.46	-32.4	-36.9	8.4	2.37e-02	0	43	0	757071872	24	6026
2026-01-03 23:47:36.81	130.84	45.31	-33.1	-39.2	6.0	1.43e-01	0	43	0	759169024	26	7284
2026-01-03 23:47:37.81	131.32	45.16	-33.1	-39.3	5.9	5.51e-01	0	43	0	761266176	26	7371
2026-01-03 23:47:38.82	131.79	45.00	-32.4	-35.9	8.3	1.62e-01	0	43	0	762314752	26	5378
2026-01-03 23:47:39.83	132.26	44.84	-31.5	-33.8	10.6	1.72e-02	0	43	0	764411904	24	4692
2026-01-03 23:47:40.84	132.73	44.69	-31.4	-33.2	11.0	2.07e-03	0	43	0	766509056	24	4472
2026-01-03 23:47:41.84	133.18	44.53	-31.5	-33.6	10.8	2.11e-03	0	43	0	768606208	24	4617
2026-01-03 23:47:42.85	133.64	44.36	-31.2	-33.2	11.5	1.86e-03	0	43	0	770703360	23	4552
2026-01-03 23:47:43.86	134.09	44.20	-30.7	-32.3	12.5	2.24e-04	0	43	0	771751936	22	4310
2026-01-03 23:47:44.86	134.53	44.04	-30.5	-31.9	12.7	1.17e-04	0	43	0	773849088	22	4221
2026-01-03 23:47:45.87	134.97	43.87	-30.6	-32.0	12.7	7.01e-05	0	43	0	775946240	22	4210
2026-01-03 23:47:46.87	135.40	43.71	-30.6	-31.8	12.8	7.40e-05	0	43	0	778043392	22	4153
2026-01-03 23:47:47.88	135.84	43.54	-30.4	-31.9	13.0	3.81e-05	0	43	0	780140544	21	4268
2026-01-03 23:47:48.89	136.27	43.37	-30.2	-31.3	13.5	3.12e-05	0	43	0	782237696	21	4078
2026-01-03 23:47:49.90	136.69	43.20	-29.8	-31.2	14.2	9.10e-06	0	43	0	783286272	19	4224
2026-01-03 23:47:50.91	137.11	43.03	-29.4	-30.2	14.7	5.22e-04	0	43	0	785383424	19	3955
2026-01-03 23:47:51.91	137.52	42.86	-29.8	-31.3	14.2	0.00e+00	0	43	0	787480576	19	4248
2026-01-03 23:47:52.91	137.93	42.69	-30.3	-32.0	13.3	1.50e-06	0	43	0	789577728	20	4394
2026-01-03 23:47:53.92	138.33	42.52	-30.0	-31.4	13.7	3.10e-04	0	43	0	790626304	20	4201
2026-01-03 23:47:54.93	138.74	42.34	-30.1	-31.5	13.6	6.10e-06	0	43	0	792723456	20	4249
2026-01-03 23:47:55.93	139.13	42.17	-29.9	-31.6	14.0	3.00e-06	0	43	0	794820608	19	4346
2026-01-03 23:47:56.94	139.53	42.00	-30.0	-31.6	13.9	1.39e-03	0	43	0	796917760	19	4365
2026-01-03 23:47:57.94	139.91	41.82	-29.8	-30.7	14.1	2.20e-06	0	43	0	799014912	20	4013
2026-01-03 23:47:58.95	140.30	41.64	-29.9	-31.0	13.8	0.00e+00	0	43	0	800063488	20	4095
2026-01-03 23:47:59.96	140.68	41.47	-29.7	-30.9	14.4	3.00e-06	0	43	0	802160640	19	4128
2026-01-03 23:48:00.96	141.05	41.29	-29.3	-29.9	15.0	1.50e-06	0	43	0	804257792	19	3876
2026-01-03 23:48:01.97	141.42	41.11	-29.3	-30.0	15.0	4.58e-04	0	43	0	806354944	19	3886
2026-01-03 23:48:02.97	141.79	40.94	-29.5	-30.5	14.6	1.50e-06	0	43	0	808452096	19	4045
2026-01-03 23:48:03.98	142.16	40.76	-29.7	-30.9	14.4	1.50e-06	0	43	0	809500672	19	4138
2026-01-03 23:48:04.99	142.52	40.58	-30.3	-32.1	13.2	4.98e-04	0	43	0	811597824	20	4430
2026-01-03 23:48:05.99	142.87	40.40	-30.6	-32.5	12.6	5.72e-05	0	43	0	813694976	21	4482
2026-01-03 23:48:07.00	143.22	40.22	-30.8	-33.0	12.2	1.46e-04	0	43	0	815792128	21	4631
2026-01-03 23:48:08.00	143.57	40.04	-30.9	-33.3	12.0	1.45e-03	0	43	0	817889280	21	4768
2026-01-03 23:48:09.01	143.92	39.86	-30.7	-32.9	12.3	1.35e-03	0	43	0	818937856	21	4597
2026-01-03 23:48:10.02	144.26	39.68	-30.7	-32.7	12.5	1.80e-04	0	43	0	821035008	21	4558
2026-01-03 23:48:11.02	144.59	39.50	-31.3	-34.0	11.3	1.42e-03	0	43	0	823132160	22	4929
2026-01-03 23:48:12.02	144.93	39.32	-31.7	-35.0	10.1	3.66e-03	0	43	0	825229312	23	5263
2026-01-03 23:48:13.02	145.25	39.14	-32.5	-37.4	7.8	1.97e-02	0	43	0	827326464	24	6371
2026-01-03 23:48:14.02	145.58	38.96	-32.0	-35.4	9.3	3.24e-02	0	43	0	828375040	24	5335
2026-01-03 23:48:15.03	145.90	38.78	-31.4	-33.9	10.9	8.80e-03	0	43	0	830472192	23	4795
2026-01-03 23:48:16.04	146.22	38.60	-30.8	-32.4	12.4	1.32e-03	0	43	0	832569344	22	4345
2026-01-03 23:48:17.04	146.54	38.42	-30.6	-32.4	12.6	1.40e-04	0	43	0	834666496	21	4437
2026-01-03 23:48:18.03	146.84	38.25	-31.0	-33.2	11.8	1.93e-03	0	43	0	836763648	22	4619
2026-01-03 23:48:19.04	147.15	38.06	-31.9	-35.4	9.8	2.51e-03	0	43	0	837812224	23	5432
2026-01-03 23:48:20.05	147.46	37.88	-31.9	-35.5	9.8	1.16e-02	0	43	0	839909376	23	5460
2026-01-03 23:48:21.06	147.76	37.70	-31.7	-34.8	10.2	1.53e-02	0	43	0	842006528	23	5157
2026-01-03 23:48:22.06	148.06	37.52	-31.0	-32.7	11.8	3.19e-03	0	43	0	844103680	23	4355
2026-01-03 23:48:23.07	148.36	37.34	-30.5	-32.2	12.8	1.66e-03	0	43	0	846200832	21	4371
2026-01-03 23:48:24.07	148.65	37.16	-30.4	-31.8	13.0	1.18e-03	0	43	0	847249408	21	4259
2026-01-03 23:48:25.08	148.94	36.98	-30.7	-32.8	12.4	8.39e-05	0	43	0	849346560	21	4574
2026-01-03 23:48:26.08	149.23	36.80	-31.8	-35.3	9.9	2.92e-03	0	43	0	851443712	23	5367
2026-01-03 23:48:27.09	149.51	36.62	-32.2	-36.4	8.6	3.73e-02	0	43	0	853540864	24	5814
2026-01-03 23:48:28.09	149.79	36.45	-32.0	-35.5	9.3	2.76e-02	0	43	0	855638016	24	5406
2026-01-03 23:48:29.10	150.07	36.27	-31.6	-34.6	10.3	9.97e-03	0	43	0	856686592	23	5092
2026-01-03 23:48:30.10	150.34	36.09	-31.1	-33.5	11.5	5.24e-03	0	43	0	858783744	22	4735
2026-01-03 23:48:31.11	150.61	35.91	-30.9	-32.8	12.1	3.23e-04	0	43	0	860880896	22	4468
2026-01-03 23:48:32.12	150.88	35.73	-31.2	-33.9	11.2	2.93e-03	0	43	0	862978048	22	4884
2026-01-03 23:48:33.13	151.15	35.55	-31.2	-33.9	11.2	3.31e-03	0	43	0	865075200	22	4899
2026-01-03 23:48:34.13	151.41	35.38	-32.1	-35.8	8.9	1.59e-02	0	43	0	866123776	24	5534
2026-01-03 23:48:35.14	151.67	35.20	-32.0	-35.7	9.1	4.94e-02	0	43	0	868220928	24	5485
2026-01-03 23:48:36.15	151.93	35.02	-31.2	-33.3	11.3	8.63e-03	0	43	0	870318080	23	4590
2026-01-03 23:48:37.15	152.18	34.85	-30.2	-31.2	13.3	5.49e-05	0	43	0	872415232	21	4084
2026-01-03 23:48:38.15	152.43	34.67	-29.7	-30.6	14.1	5.30e-06	0	43	0	874512384	20	3968
2026-01-03 23:48:39.15	152.68	34.50	-29.9	-31.4	14.0	1.55e-03	0	43	0	875560960	19	4302
2026-01-03 23:48:40.16	152.93	34.32	-30.0	-31.3	13.6	1.29e-05	0	43	0	877658112	20	4186
2026-01-03 23:48:41.16	153.17	34.15	-30.7	-32.8	12.5	6.02e-05	0	43	0	879755264	21	4581
2026-01-03 23:48:42.17	153.41	33.97	-32.0	-36.0	9.5	3.43e-03	0	43	0	881852416	23	5684
2026-01-03 23:48:43.18	153.65	33.80	-32.4	-37.0	8.1	3.99e-02	0	43	0	883949568	24	6159
2026-01-03 23:48:44.18	153.89	33.62	-32.6	-37.6	7.2	1.45e-01	0	43	0	884998144	25	6409
2026-01-03 23:48:45.19	154.12	33.45	-32.1	-35.8	8.9	5.92e-02	0	43	0	887095296	24	5532
2026-01-03 23:48:46.20	154.36	33.28	-31.4	-33.2	11.0	7.49e-03	0	43	0	889192448	24	4465
2026-01-03 23:48:47.20	154.58	33.11	-30.7	-32.3	12.4	4.62e-04	0	43	0	891289600	22	4304
2026-01-03 23:48:48.21	154.81	32.93	-30.7	-32.3	12.4	1.40e-04	0	43	0	893386752	22	4316
2026-01-03 23:48:49.22	155.04	32.76	-30.7	-32.3	12.4	1.36e-04	0	43	0	894435328	22	4323
2026-01-03 23:48:50.23	155.26	32.59	-31.2	-33.9	11.3	1.10e-03	0	43	0	896532480	22	4873
2026-01-03 23:48:51.23	155.48	32.42	-31.8	-35.2	9.9	4.34e-03	0	43	0	898629632	23	5325
2026-01-03 23:48:52.23	155.69	32.25	-32.2	-36.2	8.7	1.52e-02	0	43	0	900726784	24	5722
2026-01-03 23:48:53.23	155.91	32.09	-32.3	-36.8	8.2	3.81e-02	0	43	0	901775360	24	6023
2026-01-03 23:48:54.23	156.12	31.92	-32.2	-36.3	8.6	5.45e-02	0	43	0	903872512	24	5814
2026-01-03 23:48:55.24	156.33	31.75	-31.8	-35.0	9.6	2.19e-02	0	43	0	905969664	24	5165
2026-01-03 23:48:56.25	156.54	31.58	-31.4	-34.0	10.7	5.83e-03	0	43	0	908066816	23	4855
2026-01-03 23:48:57.25	156.75	31.42	-31.3	-33.6	11.1	1.95e-03	0	43	0	910163968	23	4678
2026-01-03 23:48:58.25	156.95	31.25	-31.2	-33.4	11.2	1.63e-03	0	43	0	912261120	23	4633
2026-01-03 23:48:59.26	157.16	31.08	-31.4	-33.9	10.7	2.26e-03	0	43	0	913309696	23	4793
2026-01-03 23:49:00.27	157.36	30.92	-31.0	-33.2	11.7	1.64e-03	0	43	0	915406848	22	4629
2026-01-03 23:49:01.28	157.56	30.75	-31.4	-34.3	10.9	1.44e-03	0	43	0	917504000	22	5073
2026-01-03 23:49:02.27	157.75	30.59	-31.9	-35.6	9.6	9.19e-03	0	43	0	919601152	23	5522
2026-01-03 23:49:03.28	157.95	30.43	-32.1	-36.2	8.7	1.86e-02	0	43	0	920649728	24	5738
2026-01-03 23:49:04.29	158.14	30.26	-32.4	-37.3	7.7	6.09e-02	0	43	0	922746880	24	6347
2026-01-03 23:49:05.29	158.33	30.10	-32.3	-37.0	7.9	7.37e-02	0	43	0	924844032	24	6154
2026-01-03 23:49:06.30	158.52	29.94	-32.2	-36.5	8.4	7.09e-02	0	43	0	926941184	24	5905
2026-01-03 23:49:07.30	158.71	29.78	-31.9	-35.8	9.3	3.04e-02	0	43	0	929038336	23	5618
2026-01-03 23:49:08.31	158.89	29.62	-31.4	-34.6	10.6	7.08e-03	0	43	0	930086912	22	5204
2026-01-03 23:49:09.31	159.08	29.46	-31.2	-33.7	11.2	1.81e-03	0	43	0	932184064	22	4843
2026-01-03 23:49:10.32	159.26	29.30	-31.0	-33.6	11.6	1.42e-03	0	43	0	934281216	21	4899
2026-01-03 23:49:11.33	159.44	29.14	-31.2	-33.9	11.1	1.06e-03	0	43	0	936378368	22	4907
2026-01-03 23:49:12.33	159.62	28.98	-31.2	-34.0	11.1	1.84e-03	0	43	0	938475520	22	4938
2026-01-03 23:49:13.34	159.80	28.82	-31.7	-35.0	9.9	2.57e-03	0	43	0	940572672	23	5285
2026-01-03 23:49:14.35	159.97	28.67	-31.8	-35.5	9.6	1.47e-02	0	43	0	941621248	23	5501
2026-01-03 23:49:15.35	160.14	28.51	-31.6	-34.8	10.0	7.05e-03	0	43	0	943718400	23	5203
2026-01-03 23:49:16.36	160.32	28.35	-31.8	-35.5	9.6	1.14e-02	0	43	0	945815552	23	5503
2026-01-03 23:49:17.37	160.49	28.20	-31.5	-34.3	10.5	8.40e-03	0	43	0	947912704	23	4969
2026-01-03 23:49:18.37	160.66	28.04	-31.2	-33.5	11.1	1.95e-03	0	43	0	948961280	23	4667
2026-01-03 23:49:19.38	160.82	27.89	-31.0	-33.3	11.4	1.54e-03	0	43	0	951058432	22	4694
2026-01-03 23:49:20.38	160.99	27.74	-30.4	-32.0	12.6	3.65e-04	0	43	0	953155584	21	4331
2026-01-03 23:49:21.39	161.15	27.58	-30.5	-32.2	12.5	1.04e-04	0	43	0	955252736	21	4391
2026-01-03 23:49:22.39	161.31	27.43	-29.9	-31.1	13.6	3.50e-05	0	43	0	957349888	20	4154
2026-01-03 23:49:23.40	161.48	27.28	-30.0	-31.8	13.5	5.30e-06	0	43	0	958398464	19	4461
2026-01-03 23:49:24.40	161.63	27.13	-30.0	-31.3	13.5	2.13e-05	0	43	0	960495616	20	4208
2026-01-03 23:49:25.41	161.79	26.98	-29.6	-30.8	14.2	2.25e-03	0	43	0	962592768	19	4148
2026-01-03 23:49:26.40	161.95	26.83	-29.7	-31.1	14.0	1.50e-06	0	43	0	964689920	19	4217
2026-01-03 23:49:27.41	162.10	26.68	-29.7	-31.2	13.9	1.22e-05	0	43	0	966787072	19	4259
2026-01-03 23:49:28.41	162.26	26.53	-29.9	-31.6	13.7	2.23e-03	0	43	0	967835648	19	4381
2026-01-03 23:49:29.41	162.41	26.39	-30.3	-32.2	12.8	2.08e-03	0	43	0	969932800	20	4516
2026-01-03 23:49:30.42	162.56	26.24	-30.5	-32.6	12.1	9.07e-05	0	43	0	972029952	21	4542
2026-01-03 23:49:31.43	162.71	26.09	-30.8	-33.2	11.8	2.43e-03	0	43	0	974127104	21	4784
2026-01-03 23:49:32.43	162.86	25.95	-30.9	-33.5	11.5	2.81e-03	0	43	0	976224256	21	4885
2026-01-03 23:49:33.43	163.00	25.80	-31.2	-34.0	10.9	1.61e-03	0	43	0	977272832	22	4963
2026-01-03 23:49:34.44	163.15	25.65	-31.1	-33.8	11.0	5.21e-03	0	43	0	979369984	22	4898
2026-01-03 23:49:35.45	163.29	25.51	-31.0	-33.5	11.2	3.81e-03	0	43	0	981467136	22	4785
2026-01-03 23:49:36.46	163.44	25.37	-30.9	-33.1	11.5	1.88e-03	0	43	0	983564288	22	4619
2026-01-03 23:49:37.46	163.58	25.22	-30.3	-31.9	12.7	2.43e-03	0	43	0	985661440	21	4314
2026-01-03 23:49:38.46	163.72	25.08	-30.2	-31.9	13.0	2.10e-03	0	43	0	986710016	20	4394
2026-01-03 23:49:39.46	163.86	24.94	-29.8	-31.5	13.7	8.30e-06	0	43	0	988807168	19	4338
2026-01-03 23:49:40.47	164.00	24.80	-29.6	-30.9	14.1	1.90e-03	0	43	0	990904320	19	4180
2026-01-03 23:49:41.47	164.13	24.66	-29.8	-31.4	13.7	2.52e-03	0	43	0	993001472	19	4332
2026-01-03 23:49:42.48	164.27	24.52	-29.8	-31.2	13.9	6.10e-06	0	43	0	995098624	19	4272
2026-01-03 23:49:43.48	164.40	24.38	-29.6	-30.8	14.1	1.81e-03	0	43	0	996147200	19	4147
2026-01-03 23:49:44.49	164.54	24.24	-30.0	-31.9	13.4	2.46e-03	0	43	0	998244352	19	4476
2026-01-03 23:49:45.49	164.67	24.10	-29.9	-31.7	13.5	9.90e-06	0	43	0	1000341504	19	4426
2026-01-03 23:49:46.50	164.80	23.96	-30.1	-31.8	13.1	1.91e-03	0	43	0	1002438656	20	4373
2026-01-03 23:49:47.50	164.93	23.83	-30.1	-31.9	13.0	6.66e-04	0	43	0	1004535808	20	4408
2026-01-03 23:49:48.51	165.06	23.69	-30.4	-32.6	12.5	5.93e-04	0	43	0	1005584384	20	4659
2026-01-03 23:49:49.52	165.19	23.55	-30.6	-32.7	12.1	2.19e-03	0	43	0	1007681536	21	4594
2026-01-03 23:49:50.52	165.31	23.42	-30.5	-32.3	12.4	2.41e-03	0	43	0	1009778688	21	4449
2026-01-03 23:49:51.52	165.44	23.28	-30.5	-32.8	12.4	5.63e-04	0	43	0	1011875840	20	4730
2026-01-03 23:49:52.53	165.57	23.15	-30.5	-32.4	12.3	2.43e-03	0	43	0	1013972992	21	4483
2026-01-03 23:49:53.53	165.69	23.01	-30.0	-31.6	13.1	2.06e-03	0	43	0	1015021568	20	4324
2026-01-03 23:49:54.53	165.81	22.88	-30.0	-32.0	13.3	4.93e-04	0	43	0	1017118720	19	4534
2026-01-03 23:49:55.53	165.93	22.75	-29.8	-31.0	13.6	1.97e-03	0	43	0	1019215872	20	4125
2026-01-03 23:49:56.54	166.05	22.62	-29.9	-31.7	13.5	1.89e-03	0	43	0	1021313024	19	4429
2026-01-03 23:49:57.54	166.17	22.49	-29.8	-31.5	13.6	4.97e-04	0	43	0	1023410176	19	4388
2026-01-03 23:49:58.55	166.29	22.35	-29.5	-30.6	14.2	7.00e-07	0	43	0	1024458752	19	4100
2026-01-03 23:49:59.56	166.41	22.22	-29.4	-30.9	14.3	2.30e-03	0	43	0	1026555904	18	4284
2026-01-03 23:50:00.57	166.53	22.09	-29.5	-30.7	14.1	2.20e-06	0	43	0	1028653056	19	4115
2026-01-03 23:50:01.57	166.64	21.96	-29.6	-30.9	14.0	3.00e-06	0	43	0	1030750208	19	4180
2026-01-03 23:50:02.58	166.76	21.83	-29.6	-31.0	13.9	3.84e-04	0	43	0	1031798784	19	4217
2026-01-03 23:50:03.58	166.87	21.71	-29.6	-31.0	13.9	2.02e-04	0	43	0	1033895936	19	4225
2026-01-03 23:50:04.59	166.99	21.58	-29.8	-31.5	13.6	9.90e-06	0	43	0	1035993088	19	4356
2026-01-03 23:50:05.59	167.10	21.45	-30.0	-31.8	13.3	3.97e-04	0	43	0	1038090240	19	4474
2026-01-03 23:50:06.60	167.21	21.32	-30.0	-31.5	13.1	3.87e-04	0	43	0	1040187392	20	4296
2026-01-03 23:50:07.61	167.32	21.20	-30.2	-32.1	12.8	6.10e-05	0	43	0	1042284544	20	4470
2026-01-03 23:50:08.61	167.43	21.07	-30.3	-32.4	12.6	4.69e-04	0	43	0	1043333120	20	4577
2026-01-03 23:50:09.62	167.54	20.95	-30.5	-32.3	12.3	5.80e-04	0	43	0	1045430272	21	4472
2026-01-03 23:50:10.63	167.65	20.82	-30.4	-32.3	12.3	2.08e-03	0	43	0	1047527424	21	4442
2026-01-03 23:50:11.63	167.75	20.70	-30.5	-32.6	12.0	6.85e-04	0	43	0	1049624576	21	4557
2026-01-03 23:50:12.64	167.86	20.57	-30.7	-33.0	11.7	7.13e-04	0	43	0	1051721728	21	4707
2026-01-03 23:50:13.65	167.97	20.45	-30.6	-32.8	11.9	3.72e-04	0	43	0	1052770304	21	4627
2026-01-03 23:50:14.65	168.07	20.33	-30.4	-32.6	12.4	5.12e-04	0	43	0	1054867456	20	4635
2026-01-03 23:50:15.66	168.18	20.21	-30.2	-32.1	12.7	4.10e-04	0	43	0	1056964608	20	4488
2026-01-03 23:50:16.66	168.28	20.09	-30.2	-32.0	12.8	5.56e-05	0	43	0	1059061760	20	4453
2026-01-03 23:50:17.66	168.38	19.97	-30.1	-31.9	12.9	5.56e-05	0	43	0	1060110336	20	4419
2026-01-03 23:50:18.67	168.48	19.84	-29.7	-30.7	13.7	3.38e-04	0	43	0	1062207488	20	4044
2026-01-03 23:50:19.68	168.58	19.72	-29.7	-31.1	13.7	1.50e-06	0	43	0	1064304640	19	4256
2026-01-03 23:50:20.69	168.68	19.60	-29.6	-30.8	14.0	3.52e-04	0	43	0	1066401792	19	4150
2026-01-03 23:50:21.70	168.78	19.48	-29.4	-30.9	13.9	2.20e-06	0	43	0	1068498944	18	4285
2026-01-03 23:50:22.70	168.88	19.37	-29.4	-30.4	13.4	3.00e-06	0	43	0	1070596096	19	4048
2026-01-03 23:50:23.70	168.98	19.25	-29.4	-30.8	14.2	3.61e-04	0	43	0	1071644672	18	4241
2026-01-03 23:50:24.71	169.08	19.13	-29.5	-30.8	13.7	4.50e-06	0	43	0	1073741824	19	4150
2026-01-03 23:50:25.71	169.17	19.01	-29.7	-31.0	13.7	4.50e-06	0	43	0	1075838976	19	4227
2026-01-03 23:50:26.72	169.27	18.90	-29.8	-31.3	13.7	3.93e-04	0	43	0	1077936128	19	4315
2026-01-03 23:50:27.73	169.36	18.78	-29.9	-31.9	13.2	1.82e-03	0	43	0	1078984704	19	4494
2026-01-03 23:50:28.74	169.46	18.66	-29.9	-31.4	13.2	2.59e-05	0	43	0	1081081856	20	4251
2026-01-03 23:50:29.74	169.55	18.55	-29.9	-31.3	13.2	3.86e-04	0	43	0	1083179008	20	4240
2026-01-03 23:50:30.75	169.64	18.43	-30.0	-31.6	13.0	1.77e-03	0	43	0	1085276160	20	4334
2026-01-03 23:50:31.75	169.74	18.32	-29.9	-31.3	13.2	4.34e-05	0	43	0	1087373312	20	4241
2026-01-03 23:50:32.76	169.83	18.21	-30.0	-31.6	13.0	4.55e-04	0	43	0	1088421888	20	4330
2026-01-03 23:50:33.77	169.92	18.09	-29.9	-31.8	13.2	5.12e-04	0	43	0	1090519040	19	4477
2026-01-03 23:50:34.77	170.01	17.98	-29.8	-31.5	13.4	1.79e-03	0	43	0	1092616192	19	4380
2026-01-03 23:50:35.78	170.10	17.87	-29.8	-31.5	13.5	7.60e-06	0	43	0	1094713344	19	4380
2026-01-03 23:50:36.79	170.19	17.75	-29.7	-31.2	13.7	4.65e-04	0	43	0	1096810496	19	4267
2026-01-03 23:50:37.80	170.28	17.64	-29.4	-31.0	14.1	1.74e-03	0	43	0	1098907648	18	4305
2026-01-03 23:50:38.80	170.36	17.53	-29.4	-30.5	14.1	9.15e-05	0	43	0	1099956224	19	4065
2026-01-03 23:50:39.80	170.45	17.42	-29.4	-30.5	14.1	6.80e-06	0	43	0	1102053376	19	4072
2026-01-03 23:50:40.80	170.54	17.31	-29.3	-30.7	14.3	1.64e-03	0	43	0	1104150528	18	4221
2026-01-03 23:50:41.81	170.62	17.20	-29.2	-30.3	14.5	5.18e-05	0	43	0	1106247680	18	4111
2026-01-03 23:50:42.82	170.71	17.09	-29.1	-30.2	14.6	6.80e-06	0	43	0	1107296256	18	4075
2026-01-03 23:50:43.83	170.79	16.98	-29.1	-30.1	14.6	7.00e-07	0	43	0	1109393408	18	4058
2026-01-03 23:50:44.84	170.88	16.87	-29.2	-30.3	14.4	6.48e-05	0	43	0	1111490560	18	4114
2026-01-03 23:50:45.84	170.96	16.76	-29.3	-30.6	14.3	1.57e-03	0	43	0	1113587712	18	4207
2026-01-03 23:50:46.85	171.05	16.66	-29.3	-30.6	14.3	7.00e-07	0	43	0	1115684864	18	4198
2026-01-03 23:50:47.86	171.13	16.55	-29.4	-31.0	14.0	7.70e-05	0	43	0	1116733440	18	4327
2026-01-03 23:50:48.85	171.21	16.44	-29.7	-31.3	13.5	1.49e-03	0	43	0	1118830592	19	4330
2026-01-03 23:50:49.85	171.29	16.34	-29.6	-31.1	13.6	1.38e-03	0	43	0	1120927744	19	4263
2026-01-03 23:50:50.86	171.37	16.23	-29.7	-31.2	13.6	9.46e-05	0	43	0	1123024896	19	4294
2026-01-03 23:50:51.87	171.45	16.13	-29.7	-31.4	13.4	1.27e-03	0	43	0	1125122048	19	4382
2026-01-03 23:50:52.87	171.53	16.02	-29.9	-31.9	13.1	1.15e-03	0	43	0	1126170624	19	4535
2026-01-03 23:50:53.88	171.61	15.92	-30.0	-31.6	12.9	1.98e-05	0	43	0	1128267776	20	4361
2026-01-03 23:50:54.89	171.69	15.81	-30.2	-32.3	12.4	1.21e-03	0	43	0	1130364928	20	4589
2026-01-03 23:50:55.89	171.77	15.71	-30.2	-32.2	12.4	1.34e-03	0	43	0	1132462080	20	4565
2026-01-03 23:50:56.89	171.84	15.60	-30.5	-32.8	11.7	3.44e-04	0	43	0	1134559232	21	4669
2026-01-03 23:50:57.90	171.92	15.50	-30.5	-32.6	11.8	1.66e-03	0	43	0	1135607808	21	4604
2026-01-03 23:50:58.90	172.00	15.40	-30.4	-32.9	11.8	1.72e-03	0	43	0	1137704960	20	4815
2026-01-03 23:50:59.91	172.07	15.29	-30.6	-33.0	11.4	6.81e-04	0	43	0	1139802112	21	4757
2026-01-03 23:51:00.92	172.15	15.19	-30.7	-33.4	11.2	9.18e-04	0	43	0	1141899264	21	4902
2026-01-03 23:51:01.92	172.23	15.09	-30.7	-33.4	11.2	2.41e-03	0	43	0	1143996416	21	4894
2026-01-03 23:51:02.93	172.30	14.99	-30.7	-33.4	11.2	1.49e-03	0	43	0	1145044992	21	4903
2026-01-03 23:51:03.93	172.37	14.89	-30.8	-33.7	11.0	2.95e-03	0	43	0	1147142144	21	5005
2026-01-03 23:51:04.93	172.45	14.79	-30.8	-33.6	11.1	3.05e-03	0	43	0	1149239296	21	4968
2026-01-03 23:51:05.93	172.52	14.69	-30.6	-32.9	11.6	1.23e-03	0	43	0	1151336448	21	4709
2026-01-03 23:51:06.94	172.59	14.59	-30.5	-32.7	11.7	1.80e-03	0	43	0	1153433600	21	4633
2026-01-03 23:51:07.95	172.67	14.49	-30.5	-32.7	11.7	8.44e-04	0	43	0	1154482176	21	4651
2026-01-03 23:51:08.95	172.74	14.39	-30.6	-32.9	11.6	8.35e-04	0	43	0	1156579328	21	4701
2026-01-03 23:51:09.95	172.81	14.29	-30.4	-32.9	11.9	1.65e-03	0	43	0	1158676480	20	4813
2026-01-03 23:51:10.96	172.88	14.19	-30.5	-33.0	11.8	7.69e-04	0	43	0	1160773632	20	4850
2026-01-03 23:51:11.97	172.95	14.10	-30.5	-32.8	11.7	5.74e-04	0	43	0	1162870784	21	4660
2026-01-03 23:51:12.97	173.02	14.00	-30.7	-33.4	11.2	1.75e-03	0	43	0	1163919360	21	4881
2026-01-03 23:51:13.98	173.09	13.90	-30.5	-33.0	11.8	1.87e-03	0	43	0	1166016512	20	4844
2026-01-03 23:51:14.98	173.16	13.80	-30.1	-32.1	12.5	5.75e-04	0	43	0	1168113664	20	4522
2026-01-03 23:51:15.98	173.23	13.71	-29.8	-31.3	13.0	6.61e-04	0	43	0	1170210816	20	4243
2026-01-03 23:51:16.99	173.30	13.61	-29.7	-31.4	13.3	4.83e-04	0	43	0	1172307968	19	4367
2026-01-03 23:51:18.00	173.36	13.52	-29.9	-31.8	13.1	3.78e-04	0	43	0	1173356544	19	4497
2026-01-03 23:51:19.00	173.43	13.42	-29.8	-31.7	13.2	3.20e-05	0	43	0	1175453696	19	4451
2026-01-03 23:51:20.00	173.50	13.33	-29.8	-31.7	13.1	3.42e-04	0	43	0	1177550848	19	4460
2026-01-03 23:51:21.01	173.56	13.23	-29.9	-31.9	13.0	3.29e-04	0	43	0	1179648000	19	4516
2026-01-03 23:51:22.01	173.63	13.14	-29.8	-31.7	13.1	3.96e-05	0	43	0	1181745152	19	4457
2026-01-03 23:51:23.02	173.70	13.04	-29.9	-31.8	13.0	3.05e-05	0	43	0	1182793728	19	4481
2026-01-03 23:51:24.02	173.76	12.95	-29.9	-31.9	13.0	1.59e-04	0	43	0	1184890880	19	4517
2026-01-03 23:51:25.02	173.83	12.86	-30.0	-31.7	12.7	7.17e-05	0	43	0	1186988032	20	4388
2026-01-03 23:51:26.02	173.89	12.76	-30.4	-32.8	11.9	5.18e-04	0	43	0	1189085184	20	4779
2026-01-03 23:51:27.04	173.96	12.67	-30.2	-32.4	12.2	4.89e-04	0	43	0	1190133760	20	4632
2026-01-03 23:51:28.04	174.02	12.58	-30.0	-31.8	12.5	1.34e-04	0	43	0	1192230912	20	4437
2026-01-03 23:51:29.05	174.08	12.48	-30.0	-31.8	12.6	4.87e-04	0	43	0	1194328064	20	4417
2026-01-03 23:51:30.05	174.15	12.39	-29.9	-31.5	12.7	9.38e-05	0	43	0	1196425216	20	4329
2026-01-03 23:51:31.05	174.21	12.30	-30.2	-32.3	12.2	1.72e-04	0	43	0	1198522368	20	4607
2026-01-03 23:51:32.06	174.27	12.21	-30.2	-32.3	12.2	6.17e-04	0	43	0	1200619520	20	4583
2026-01-03 23:51:33.06	174.33	12.12	-30.3	-32.5	12.1	6.46e-04	0	43	0	1201668096	20	4669
2026-01-03 23:51:34.06	174.40	12.03	-30.3	-32.6	12.0	2.88e-04	0	43	0	1203765248	20	4717
2026-01-03 23:51:35.07	174.46	11.94	-30.2	-32.4	12.1	6.77e-04	0	43	0	1205862400	20	4633
2026-01-03 23:51:36.08	174.52	11.85	-30.3	-32.8	11.9	7.67e-04	0	43	0	1207959552	20	4771
2026-01-03 23:51:37.08	174.58	11.76	-30.3	-32.6	12.0	4.00e-04	0	43	0	1209008128	20	4694
2026-01-03 23:51:38.09	174.64	11.67	-30.4	-32.9	11.8	8.77e-04	0	43	0	1211105280	20	4796
2026-01-03 23:51:39.09	174.70	11.58	-30.6	-33.2	11.2	1.44e-03	0	43	0	1213202432	21	4842
2026-01-03 23:51:40.09	174.76	11.49	-30.4	-32.4	11.8	9.63e-04	0	43	0	1215299584	21	4526
2026-01-03 23:51:41.09	174.82	11.40	-30.3	-32.7	11.9	8.32e-04	0	43	0	1217396736	20	4727
2026-01-03 23:51:42.10	174.88	11.31	-30.4	-33.0	11.7	9.88e-04	0	43	0	1218445312	20	4835
2026-01-03 23:51:43.10	174.93	11.23	-30.3	-32.6	12.0	4.42e-04	0	43	0	1220542464	20	4711
2026-01-03 23:51:44.10	174.99	11.14	-30.2	-32.3	12.1	6.61e-04	0	43	0	1222639616	20	4615
2026-01-03 23:51:45.11	175.05	11.05	-30.1	-32.2	12.2	6.42e-04	0	43	0	1224736768	20	4553
2026-01-03 23:51:46.11	175.11	10.97	-30.1	-32.0	12.4	1.45e-04	0	43	0	1226833920	20	4491
2026-01-03 23:51:47.11	175.16	10.88	-30.1	-32.0	12.3	6.06e-04	0	43	0	1227882496	20	4503
2026-01-03 23:51:48.12	175.22	10.79	-29.9	-31.6	12.3	3.30e-04	0	43	0	1229979648	20	4359
2026-01-03 23:51:49.12	175.28	10.71	-29.9	-32.0	12.4	8.08e-05	0	43	0	1232076800	19	4562
2026-01-03 23:51:50.12	175.33	10.62	-29.8	-31.8	12.8	5.58e-04	0	43	0	1234173952	19	4506
2026-01-03 23:51:51.13	175.39	10.53	-29.8	-31.7	12.9	5.11e-04	0	43	0	1236271104	19	4478
2026-01-03 23:51:52.14	175.45	10.45	-29.9	-31.9	12.8	5.72e-05	0	43	0	1237319680	19	4556
2026-01-03 23:51:53.15	175.50	10.36	-29.8	-31.7	12.9	5.12e-04	0	43	0	1239416832	19	4472
2026-01-03 23:51:54.15	175.56	10.28	-29.8	-31.6	12.9	5.10e-04	0	43	0	1241513984	19	4458
2026-01-03 23:51:55.16	175.61	10.19	-29.9	-32.0	12.7	6.11e-04	0	43	0	1243611136	19	4597
2026-01-03 23:51:56.16	175.67	10.11	-29.9	-31.9	12.8	5.34e-04	0	43	0	1245708288	19	4536
2026-01-03 23:51:57.16	175.72	10.03	-29.8	-31.8	12.9	5.02e-04	0	43	0	1246756864	19	4509
2026-01-03 23:51:58.17	175.78	9.94	-29.9	-31.9	12.8	8.35e-04	0	43	0	1248854016	19	4552
2026-01-03 23:51:59.17	175.83	9.86	-29.8	-31.6	13.0	5.45e-04	0	43	0	1250951168	19	4449
2026-01-03 23:52:00.17	175.88	9.78	-29.9	-31.9	12.8	5.33e-04	0	43	0	1253048320	19	4553
2026-01-03 23:52:01.17	175.93	9.69	-29.8	-31.8	12.9	5.79e-05	0	43	0	1255145472	19	4505
2026-01-03 23:52:02.18	175.99	9.61	-29.9	-32.1	12.6	7.93e-05	0	43	0	1256194048	19	4627
2026-01-03 23:52:03.19	176.04	9.53	-29.9	-32.0	12.7	5.70e-04	0	43	0	1258291200	19	4597
2026-01-03 23:52:04.19	176.09	9.45	-29.9	-31.6	12.5	1.02e-04	0	43	0	1260388352	20	4378
2026-01-03 23:52:05.19	176.14	9.36	-30.2	-32.5	11.9	3.29e-04	0	43	0	1262485504	20	4695
2026-01-03 23:52:06.20	176.20	9.28	-30.3	-32.9	11.6	2.27e-03	0	43	0	1264582656	20	4815
2026-01-03 23:52:07.21	176.25	9.20	-30.2	-32.4	11.9	4.05e-04	0	43	0	1265631232	20	4636
2026-01-03 23:52:08.21	176.30	9.12	-30.2	-32.6	11.9	3.49e-04	0	43	0	1267728384	20	4706
2026-01-03 23:52:09.21	176.35	9.04	-30.3	-32.7	11.7	2.05e-03	0	43	0	1269825536	20	4763
2026-01-03 23:52:10.21	176.40	8.96	-30.3	-32.6	11.8	4.97e-04	0	43	0	1271922688	20	4743
2026-01-03 23:52:11.22	176.45	8.88	-30.4	-33.1	11.4	9.61e-04	0	43	0	1274019840	20	4909
2026-01-03 23:52:12.23	176.50	8.80	-30.4	-33.0	11.5	2.38e-03	0	43	0	1275068416	20	4870
2026-01-03 23:52:13.24	176.55	8.72	-30.4	-33.3	11.3	2.62e-03	0	43	0	1277165568	20	4985
2026-01-03 23:52:14.24	176.60	8.64	-30.6	-33.3	10.9	2.16e-03	0	43	0	1279262720	21	4925
2026-01-03 23:52:15.24	176.65	8.56	-30.8	-34.0	10.4	6.14e-03	0	43	0	1281359872	21	5182
2026-01-03 23:52:16.25	176.70	8.48	-30.7	-33.6	10.6	5.48e-03	0	43	0	1283457024	21	5028
2026-01-03 23:52:17.26	176.75	8.40	-30.8	-34.1	10.2	4.10e-03	0	43	0	1284505600	21	5251
2026-01-03 23:52:18.26	176.80	8.32	-31.1	-34.4	9.7	1.12e-02	0	43	0	1286602752	22	5273
2026-01-03 23:52:19.26	176.84	8.24	-30.9	-34.3	10.0	1.13e-02	0	43	0	1288699904	21	5347
2026-01-03 23:52:20.26	176.89	8.16	-30.8	-34.0	10.3	5.84e-03	0	43	0	1290797056	21	5212
2026-01-03 23:52:21.27	176.94	8.09	-30.7	-33.6	10.5	4.90e-03	0	43	0	1292894208	21	5053
