passes_logs/2026/01/03/R2M6_AANII_01/R2M6_AANII_01__20260103_081419_SUOMI_NPP_rec.log

#Pass ID: 20260103_081419_SUOMI NPP
#Satellite: SUOMI NPP
#Configuration: NPP
#almurnet v.1.7.20240730
#Start time: 2026-01-03 08:14:20

#Version: 2.2.20231116
#Station: R2M6_AANII_01
#Location: 30.233357 lon 59.946436 lat
#TLE: 1 37849U 11061A   26001.07732418  .00000182  00000+0  10735-3 0  9990
#TLE: 2 37849  98.7795 303.2470 0002580  87.2016 272.9455 14.19520779734739

#Time	Az	El	Level	Level2	SNR	BER	BlckErr	Temp	State	Recorded	gain1	gain2
2026-01-03 08:14:20.67	93.36	7.05	-31.1	-43.0	3.7	1.50e+00	0	40	0	0	23	14159
2026-01-03 08:14:21.68	93.26	7.11	-31.1	-42.8	3.8	1.49e+00	0	40	104	0	23	13942
2026-01-03 08:14:22.68	93.16	7.17	-31.0	-42.7	3.8	1.49e+00	0	40	104	0	23	13793
2026-01-03 08:14:23.69	93.06	7.23	-30.9	-42.5	3.8	1.49e+00	0	40	104	0	23	13672
2026-01-03 08:14:24.70	92.95	7.30	-30.9	-42.5	3.8	1.49e+00	0	41	104	0	23	13601
2026-01-03 08:14:25.71	92.85	7.36	-31.0	-42.5	3.8	1.49e+00	0	41	104	0	23	13562
2026-01-03 08:14:26.71	92.75	7.42	-31.0	-42.4	3.8	1.49e+00	0	41	104	0	23	13389
2026-01-03 08:14:27.72	92.64	7.48	-31.1	-42.2	3.8	1.49e+00	0	41	104	0	23	12818
2026-01-03 08:14:28.73	92.53	7.54	-31.2	-41.6	3.8	1.49e+00	0	41	104	0	23	11825
2026-01-03 08:14:29.74	92.43	7.60	-31.4	-41.0	3.9	1.49e+00	0	41	104	0	23	10882
2026-01-03 08:14:30.75	92.32	7.66	-31.5	-40.0	4.3	1.46e+00	0	41	104	0	23	9639
2026-01-03 08:14:31.75	92.22	7.73	-31.5	-38.9	5.0	9.18e-01	0	41	0	0	23	8424
2026-01-03 08:14:32.76	92.11	7.79	-31.5	-37.8	5.8	6.09e-01	0	41	0	2097152	23	7398
2026-01-03 08:14:33.77	92.00	7.85	-31.4	-36.8	6.6	2.55e-01	0	41	0	4194304	23	6707
2026-01-03 08:14:34.78	91.89	7.91	-31.4	-36.5	6.9	1.44e-01	0	41	0	6291456	23	6474
2026-01-03 08:14:35.78	91.79	7.97	-31.5	-36.4	7.1	1.49e-01	0	41	0	7340032	23	6385
2026-01-03 08:14:36.79	91.68	8.04	-31.4	-36.2	7.4	1.09e-01	0	41	0	9437184	23	6251
2026-01-03 08:14:37.78	91.57	8.10	-31.3	-35.8	7.7	1.04e-01	0	41	0	11534336	23	5982
2026-01-03 08:14:38.79	91.46	8.16	-31.6	-36.9	6.9	1.05e-01	0	41	0	13631488	23	6651
2026-01-03 08:14:39.79	91.35	8.22	-31.5	-36.6	7.1	1.68e-01	0	41	0	15728640	23	6435
2026-01-03 08:14:40.79	91.24	8.28	-31.4	-35.8	7.7	9.84e-02	0	41	0	16777216	23	5996
2026-01-03 08:14:41.80	91.13	8.34	-31.3	-35.2	8.2	5.75e-02	0	41	0	18874368	23	5680
2026-01-03 08:14:42.81	91.01	8.41	-31.2	-35.0	8.4	4.47e-02	0	41	0	20971520	23	5549
2026-01-03 08:14:43.82	90.90	8.47	-31.1	-34.3	9.0	2.90e-02	0	41	0	23068672	23	5253
2026-01-03 08:14:44.82	90.79	8.53	-30.9	-33.8	9.4	2.03e-02	0	41	0	24117248	23	5010
2026-01-03 08:14:45.82	90.68	8.59	-30.7	-33.6	9.9	1.55e-02	0	41	0	26214400	22	5017
2026-01-03 08:14:46.83	90.56	8.66	-30.7	-33.6	9.9	8.38e-03	0	41	0	28311552	22	5017
2026-01-03 08:14:47.84	90.45	8.72	-30.6	-33.2	10.4	5.20e-03	0	41	0	30408704	22	4817
2026-01-03 08:14:48.85	90.33	8.78	-30.6	-33.0	10.5	4.49e-03	0	41	0	32505856	22	4740
2026-01-03 08:14:49.86	90.22	8.84	-30.5	-32.6	10.7	3.15e-03	0	41	0	33554432	22	4620
2026-01-03 08:14:50.86	90.10	8.91	-30.6	-33.1	10.4	3.93e-03	0	41	0	35651584	22	4796
2026-01-03 08:14:51.87	89.99	8.97	-30.6	-33.0	10.5	4.80e-03	0	41	0	37748736	22	4769
2026-01-03 08:14:52.87	89.87	9.03	-30.6	-33.1	10.5	3.79e-03	0	41	0	39845888	22	4779
2026-01-03 08:14:53.88	89.75	9.09	-30.8	-33.6	10.1	6.55e-03	0	41	0	41943040	22	4971
2026-01-03 08:14:54.87	89.64	9.16	-30.7	-33.3	10.3	6.55e-03	0	41	0	42991616	22	4857
2026-01-03 08:14:55.88	89.52	9.22	-30.6	-33.0	10.5	4.43e-03	0	41	0	45088768	22	4762
2026-01-03 08:14:56.89	89.40	9.28	-30.7	-33.3	10.3	4.65e-03	0	42	0	47185920	22	4868
2026-01-03 08:14:57.89	89.28	9.35	-30.6	-32.9	10.7	3.49e-03	0	41	0	49283072	22	4693
2026-01-03 08:14:58.89	89.16	9.41	-30.5	-32.6	10.9	2.57e-03	0	41	0	51380224	22	4593
2026-01-03 08:14:59.90	89.04	9.47	-30.6	-32.8	10.8	2.62e-03	0	42	0	52428800	22	4654
2026-01-03 08:15:00.90	88.92	9.53	-30.7	-33.2	10.6	2.68e-03	0	42	0	54525952	22	4787
2026-01-03 08:15:01.91	88.80	9.60	-30.7	-33.3	10.5	4.04e-03	0	42	0	56623104	22	4830
2026-01-03 08:15:02.92	88.68	9.66	-30.8	-33.6	10.2	4.04e-03	0	42	0	58720256	22	4950
2026-01-03 08:15:03.92	88.55	9.72	-30.8	-33.4	10.4	4.06e-03	0	42	0	60817408	22	4878
2026-01-03 08:15:04.93	88.43	9.79	-30.6	-33.0	10.7	3.49e-03	0	42	0	61865984	22	4698
2026-01-03 08:15:05.93	88.31	9.85	-30.6	-32.7	10.9	2.57e-03	0	42	0	63963136	22	4614
2026-01-03 08:15:06.94	88.18	9.91	-30.6	-32.9	10.8	2.50e-03	0	42	0	66060288	22	4670
2026-01-03 08:15:07.95	88.06	9.98	-30.5	-32.5	11.1	2.05e-03	0	42	0	68157440	22	4542
2026-01-03 08:15:08.95	87.93	10.04	-30.8	-33.4	10.5	2.13e-03	0	42	0	70254592	22	4850
2026-01-03 08:15:09.96	87.81	10.10	-30.7	-33.2	10.6	4.18e-03	0	42	0	71303168	22	4799
2026-01-03 08:15:10.97	87.68	10.17	-30.8	-33.3	10.6	3.56e-03	0	42	0	73400320	22	4811
2026-01-03 08:15:11.97	87.55	10.23	-31.0	-34.0	10.2	4.93e-03	0	42	0	75497472	22	5096
2026-01-03 08:15:12.98	87.43	10.29	-30.9	-33.9	10.1	7.17e-03	0	42	0	77594624	22	5057
2026-01-03 08:15:13.99	87.30	10.36	-31.0	-34.1	10.0	8.09e-03	0	42	0	79691776	22	5149
2026-01-03 08:15:14.99	87.17	10.42	-30.9	-33.7	10.2	7.68e-03	0	42	0	80740352	22	4998
2026-01-03 08:15:15.99	87.04	10.48	-30.8	-33.5	10.4	5.30e-03	0	42	0	82837504	22	4927
2026-01-03 08:15:17.00	86.91	10.55	-30.8	-33.6	10.4	4.95e-03	0	42	0	84934656	22	4951
2026-01-03 08:15:18.01	86.78	10.61	-30.7	-33.2	10.7	3.75e-03	0	42	0	87031808	22	4767
2026-01-03 08:15:19.02	86.65	10.67	-30.7	-33.1	10.8	3.04e-03	0	42	0	89128960	22	4741
2026-01-03 08:15:20.03	86.52	10.74	-30.8	-33.5	10.4	2.64e-03	0	42	0	90177536	22	4909
2026-01-03 08:15:21.04	86.38	10.80	-30.7	-33.2	10.7	2.19e-03	0	42	0	92274688	22	4778
2026-01-03 08:15:22.04	86.25	10.86	-30.8	-33.3	10.7	3.17e-03	0	42	0	94371840	22	4794
2026-01-03 08:15:23.05	86.12	10.93	-30.7	-32.9	10.9	2.90e-03	0	42	0	96468992	22	4672
2026-01-03 08:15:24.05	85.99	10.99	-30.6	-32.5	11.2	1.39e-03	0	42	0	98566144	22	4519
2026-01-03 08:15:25.06	85.85	11.05	-30.5	-32.2	11.4	9.96e-04	0	42	0	99614720	22	4422
2026-01-03 08:15:26.07	85.72	11.12	-30.3	-31.8	11.8	8.07e-04	0	42	0	101711872	22	4262
2026-01-03 08:15:27.08	85.58	11.18	-30.4	-32.2	11.5	8.51e-04	0	42	0	103809024	22	4401
2026-01-03 08:15:28.08	85.44	11.25	-30.4	-32.1	11.6	6.77e-04	0	42	0	105906176	22	4355
2026-01-03 08:15:29.09	85.31	11.31	-30.2	-32.2	11.7	4.76e-04	0	42	0	108003328	21	4518
2026-01-03 08:15:30.09	85.17	11.37	-30.2	-32.3	11.6	5.97e-04	0	42	0	109051904	21	4579
2026-01-03 08:15:31.09	85.03	11.44	-30.3	-32.5	11.4	8.84e-04	0	42	0	111149056	21	4666
2026-01-03 08:15:32.10	84.89	11.50	-30.3	-32.4	11.5	7.64e-04	0	42	0	113246208	21	4623
2026-01-03 08:15:33.11	84.75	11.56	-30.3	-32.5	11.5	6.87e-04	0	42	0	115343360	21	4654
2026-01-03 08:15:34.11	84.62	11.63	-30.2	-32.3	11.6	7.46e-04	0	42	0	117440512	21	4589
2026-01-03 08:15:35.12	84.47	11.69	-30.3	-32.5	11.5	6.83e-04	0	42	0	118489088	21	4655
2026-01-03 08:15:36.13	84.33	11.76	-30.2	-32.3	11.6	5.97e-04	0	42	0	120586240	21	4569
2026-01-03 08:15:37.13	84.19	11.82	-30.3	-32.5	11.5	8.41e-04	0	42	0	122683392	21	4651
2026-01-03 08:15:38.13	84.05	11.88	-30.2	-32.3	11.6	7.77e-04	0	42	0	124780544	21	4566
2026-01-03 08:15:39.14	83.91	11.95	-30.2	-32.3	11.7	7.12e-04	0	42	0	126877696	21	4548
2026-01-03 08:15:40.15	83.76	12.01	-30.3	-32.6	11.4	9.09e-04	0	42	0	127926272	21	4687
2026-01-03 08:15:41.16	83.62	12.07	-30.3	-32.6	11.4	9.57e-04	0	42	0	130023424	21	4675
2026-01-03 08:15:42.17	83.47	12.14	-30.3	-32.5	11.6	8.48e-04	0	42	0	132120576	21	4630
2026-01-03 08:15:43.17	83.33	12.20	-30.3	-32.5	11.5	8.91e-04	0	42	0	134217728	21	4641
2026-01-03 08:15:44.18	83.18	12.26	-30.3	-32.5	11.5	7.54e-04	0	42	0	136314880	21	4614
2026-01-03 08:15:45.18	83.04	12.33	-30.4	-32.7	11.4	9.25e-04	0	42	0	137363456	21	4714
2026-01-03 08:15:46.19	82.89	12.39	-30.2	-32.2	11.7	7.30e-04	0	42	0	139460608	21	4526
2026-01-03 08:15:47.19	82.74	12.45	-30.2	-32.3	11.7	4.91e-04	0	42	0	141557760	21	4554
2026-01-03 08:15:48.20	82.59	12.52	-30.3	-32.5	11.6	7.54e-04	0	42	0	143654912	21	4620
2026-01-03 08:15:49.20	82.44	12.58	-30.5	-33.1	11.2	1.22e-03	0	42	0	145752064	21	4864
2026-01-03 08:15:50.20	82.29	12.64	-30.4	-32.8	11.3	1.15e-03	0	42	0	146800640	21	4751
2026-01-03 08:15:51.21	82.14	12.71	-30.3	-32.7	11.5	6.79e-04	0	42	0	148897792	21	4698
2026-01-03 08:15:52.22	81.99	12.77	-30.4	-32.9	11.3	8.47e-04	0	42	0	150994944	21	4793
2026-01-03 08:15:53.22	81.84	12.83	-30.5	-33.0	11.2	1.11e-03	0	42	0	153092096	21	4833
2026-01-03 08:15:54.23	81.69	12.90	-30.5	-33.0	11.2	1.38e-03	0	42	0	155189248	21	4835
2026-01-03 08:15:55.24	81.53	12.96	-30.5	-33.3	11.0	1.85e-03	0	42	0	156237824	21	4927
2026-01-03 08:15:56.24	81.38	13.02	-30.6	-33.3	11.0	1.61e-03	0	42	0	158334976	21	4939
2026-01-03 08:15:57.24	81.23	13.09	-30.6	-33.5	11.0	1.86e-03	0	42	0	160432128	21	5012
2026-01-03 08:15:58.25	81.07	13.15	-30.6	-33.5	10.9	1.94e-03	0	42	0	162529280	21	5003
2026-01-03 08:15:59.24	80.92	13.21	-30.6	-33.5	10.8	1.95e-03	0	42	0	164626432	21	5016
2026-01-03 08:16:00.25	80.76	13.28	-30.6	-33.5	10.8	2.85e-03	0	42	0	165675008	21	5034
2026-01-03 08:16:01.26	80.60	13.34	-30.6	-33.5	10.9	1.96e-03	0	42	0	167772160	21	4998
2026-01-03 08:16:02.26	80.44	13.40	-30.6	-33.3	11.0	1.83e-03	0	42	0	169869312	21	4950
2026-01-03 08:16:03.27	80.29	13.46	-30.6	-33.4	11.0	2.18e-03	0	42	0	171966464	21	4968
2026-01-03 08:16:04.27	80.13	13.53	-30.6	-33.3	11.0	1.98e-03	0	42	0	174063616	21	4924
2026-01-03 08:16:05.28	79.97	13.59	-30.6	-33.5	10.9	1.99e-03	0	42	0	175112192	21	4997
2026-01-03 08:16:06.28	79.81	13.65	-30.7	-33.8	10.7	2.39e-03	0	43	0	177209344	21	5124
2026-01-03 08:16:07.30	79.64	13.72	-30.6	-33.4	11.0	2.03e-03	0	42	0	179306496	21	4978
2026-01-03 08:16:08.30	79.48	13.78	-30.5	-33.0	11.2	1.26e-03	0	42	0	181403648	21	4800
2026-01-03 08:16:09.30	79.32	13.84	-30.4	-32.8	11.4	9.62e-04	0	42	0	183500800	21	4745
2026-01-03 08:16:10.31	79.16	13.90	-30.5	-32.9	11.4	1.12e-03	0	42	0	184549376	21	4775
2026-01-03 08:16:11.31	78.99	13.96	-30.3	-32.5	11.7	6.74e-04	0	42	0	186646528	21	4612
2026-01-03 08:16:12.32	78.83	14.03	-30.5	-33.0	11.3	8.15e-04	0	42	0	188743680	21	4810
2026-01-03 08:16:13.33	78.66	14.09	-30.5	-33.1	11.3	1.92e-03	0	42	0	190840832	21	4848
2026-01-03 08:16:14.33	78.50	14.15	-30.7	-33.7	10.8	1.88e-03	0	43	0	192937984	21	5080
2026-01-03 08:16:15.34	78.33	14.21	-30.7	-33.8	10.7	3.43e-03	0	42	0	193986560	21	5140
2026-01-03 08:16:16.34	78.16	14.27	-30.6	-33.5	10.9	2.51e-03	0	43	0	196083712	21	5004
2026-01-03 08:16:17.35	77.99	14.34	-30.6	-33.3	11.1	1.71e-03	0	42	0	198180864	21	4943
2026-01-03 08:16:18.36	77.82	14.40	-30.6	-33.5	11.0	1.78e-03	0	43	0	200278016	21	5000
2026-01-03 08:16:19.37	77.65	14.46	-30.7	-33.6	10.9	1.68e-03	0	43	0	202375168	21	5034
2026-01-03 08:16:20.37	77.48	14.52	-30.7	-33.7	10.8	2.56e-03	0	42	0	203423744	21	5085
2026-01-03 08:16:21.38	77.31	14.58	-30.5	-33.0	11.3	2.07e-03	0	42	0	205520896	21	4822
2026-01-03 08:16:22.39	77.14	14.64	-30.5	-32.9	11.4	1.59e-03	0	43	0	207618048	21	4777
2026-01-03 08:16:23.38	76.97	14.71	-30.3	-32.3	11.8	5.29e-04	0	43	0	209715200	21	4536
2026-01-03 08:16:24.39	76.79	14.77	-30.4	-32.7	11.6	5.88e-04	0	42	0	211812352	21	4684
2026-01-03 08:16:25.40	76.62	14.83	-30.2	-32.2	11.9	5.97e-04	0	42	0	212860928	21	4497
2026-01-03 08:16:26.40	76.45	14.89	-30.2	-32.0	12.0	3.33e-04	0	43	0	214958080	21	4449
2026-01-03 08:16:27.41	76.27	14.95	-30.1	-31.9	12.0	3.94e-04	0	42	0	217055232	21	4407
2026-01-03 08:16:28.41	76.09	15.01	-30.0	-31.6	12.3	2.69e-04	0	43	0	219152384	21	4335
2026-01-03 08:16:29.42	75.92	15.07	-30.1	-31.9	12.1	1.83e-04	0	42	0	221249536	21	4433
2026-01-03 08:16:30.43	75.74	15.13	-30.0	-31.6	12.4	2.20e-04	0	42	0	222298112	21	4310
2026-01-03 08:16:31.43	75.56	15.19	-29.8	-31.0	12.7	9.61e-05	0	43	0	224395264	21	4139
2026-01-03 08:16:32.43	75.38	15.25	-29.8	-31.5	12.7	7.01e-05	0	42	0	226492416	20	4389
2026-01-03 08:16:33.44	75.20	15.31	-29.8	-31.6	12.7	7.32e-05	0	43	0	228589568	20	4407
2026-01-03 08:16:34.44	75.02	15.37	-29.9	-31.7	12.6	8.77e-05	0	43	0	230686720	20	4444
2026-01-03 08:16:35.45	74.84	15.43	-29.8	-31.3	12.8	5.03e-05	0	43	0	231735296	20	4320
2026-01-03 08:16:36.45	74.66	15.49	-29.7	-31.3	12.9	2.97e-05	0	42	0	233832448	20	4311
2026-01-03 08:16:37.46	74.47	15.55	-29.6	-31.0	13.1	4.65e-05	0	43	0	235929600	20	4201
2026-01-03 08:16:38.46	74.29	15.61	-29.7	-31.1	13.0	3.89e-05	0	43	0	238026752	20	4240
2026-01-03 08:16:39.47	74.11	15.67	-29.6	-31.0	13.2	2.51e-05	0	43	0	239075328	20	4205
2026-01-03 08:16:40.47	73.92	15.73	-29.4	-30.4	13.4	1.06e-05	0	42	0	241172480	20	4010
2026-01-03 08:16:41.47	73.74	15.78	-29.6	-30.7	13.3	1.52e-05	0	43	0	243269632	20	4114
2026-01-03 08:16:42.48	73.55	15.84	-29.6	-30.9	13.2	1.37e-05	0	43	0	245366784	20	4154
2026-01-03 08:16:43.48	73.37	15.90	-29.5	-30.6	13.4	1.67e-05	0	43	0	247463936	20	4078
2026-01-03 08:16:44.48	73.18	15.96	-29.5	-30.5	13.5	1.14e-05	0	43	0	249561088	20	4044
2026-01-03 08:16:45.49	72.99	16.02	-29.4	-30.4	13.5	1.60e-05	0	43	0	250609664	20	4021
2026-01-03 08:16:46.50	72.80	16.08	-29.5	-30.6	13.4	7.60e-06	0	43	0	252706816	20	4082
2026-01-03 08:16:47.51	72.61	16.13	-29.6	-30.8	13.3	2.05e-05	0	43	0	254803968	20	4131
2026-01-03 08:16:48.51	72.42	16.19	-29.7	-31.1	13.1	2.51e-05	0	42	0	256901120	20	4238
2026-01-03 08:16:49.52	72.23	16.25	-29.7	-31.1	13.1	2.89e-05	0	43	0	257949696	20	4238
2026-01-03 08:16:50.52	72.03	16.31	-29.8	-31.3	13.0	4.19e-05	0	43	0	260046848	20	4294
2026-01-03 08:16:51.53	71.84	16.36	-29.7	-31.0	13.1	2.44e-05	0	43	0	262144000	20	4206
2026-01-03 08:16:52.54	71.65	16.42	-29.7	-31.0	13.1	2.82e-05	0	43	0	264241152	20	4207
2026-01-03 08:16:53.54	71.45	16.48	-29.6	-30.9	13.2	1.90e-05	0	43	0	266338304	20	4171
2026-01-03 08:16:54.55	71.26	16.53	-29.5	-30.7	13.3	1.98e-05	0	43	0	267386880	20	4117
2026-01-03 08:16:55.55	71.06	16.59	-29.5	-30.5	13.4	1.37e-05	0	43	0	269484032	20	4047
2026-01-03 08:16:56.56	70.86	16.65	-29.5	-30.5	13.5	5.30e-06	0	43	0	271581184	20	4053
2026-01-03 08:16:57.57	70.66	16.70	-29.3	-30.1	13.7	9.10e-06	0	43	0	273678336	20	3947
2026-01-03 08:16:58.57	70.47	16.76	-29.2	-30.2	14.0	6.10e-06	0	43	0	275775488	19	4052
2026-01-03 08:16:59.57	70.27	16.81	-29.2	-30.2	14.1	2.20e-06	0	43	0	276824064	19	4042
2026-01-03 08:17:00.58	70.07	16.87	-29.3	-30.3	14.0	7.00e-07	0	43	0	278921216	19	4082
2026-01-03 08:17:01.58	69.87	16.92	-29.2	-30.2	14.1	3.80e-06	0	43	0	281018368	19	4032
2026-01-03 08:17:02.59	69.67	16.98	-29.4	-30.7	13.8	4.50e-06	0	43	0	283115520	19	4181
2026-01-03 08:17:03.59	69.47	17.03	-29.5	-31.0	13.6	3.00e-06	0	43	0	285212672	19	4290
2026-01-03 08:17:04.60	69.26	17.08	-29.5	-31.0	13.6	1.22e-05	0	43	0	286261248	19	4294
2026-01-03 08:17:05.60	69.06	17.14	-29.7	-31.4	13.3	1.06e-05	0	43	0	288358400	19	4408
2026-01-03 08:17:06.61	68.86	17.19	-29.6	-31.3	13.5	1.98e-05	0	43	0	290455552	19	4355
2026-01-03 08:17:07.62	68.65	17.25	-29.6	-31.3	13.4	1.37e-05	0	43	0	292552704	19	4363
2026-01-03 08:17:08.63	68.44	17.30	-29.7	-31.5	13.3	1.14e-05	0	43	0	294649856	19	4423
2026-01-03 08:17:09.63	68.24	17.35	-29.7	-31.4	13.3	2.59e-05	0	43	0	295698432	19	4406
2026-01-03 08:17:10.63	68.03	17.40	-29.4	-30.7	13.8	6.80e-06	0	43	0	297795584	19	4183
2026-01-03 08:17:11.64	67.82	17.46	-29.5	-30.9	13.7	6.10e-06	0	43	0	299892736	19	4222
2026-01-03 08:17:12.65	67.61	17.51	-29.5	-31.1	13.6	8.30e-06	0	43	0	301989888	19	4291
2026-01-03 08:17:13.66	67.40	17.56	-29.6	-31.1	13.6	1.22e-05	0	43	0	304087040	19	4302
2026-01-03 08:17:14.66	67.20	17.61	-29.5	-31.0	13.6	9.90e-06	0	43	0	305135616	19	4263
2026-01-03 08:17:15.66	66.99	17.66	-29.3	-30.3	14.1	5.30e-06	0	43	0	307232768	19	4062
2026-01-03 08:17:16.67	66.77	17.71	-29.0	-29.6	14.5	1.50e-06	0	43	0	309329920	19	3870
2026-01-03 08:17:17.68	66.56	17.76	-28.7	-29.4	14.9	0.00e+00	0	43	0	311427072	18	3895
2026-01-03 08:17:18.69	66.35	17.82	-28.8	-29.6	14.9	0.00e+00	0	43	0	313524224	18	3935
2026-01-03 08:17:19.69	66.13	17.86	-28.7	-29.2	15.1	0.00e+00	0	43	0	314572800	18	3838
2026-01-03 08:17:20.69	65.92	17.91	-28.5	-28.9	15.3	0.00e+00	0	43	0	316669952	18	3757
2026-01-03 08:17:21.70	65.71	17.96	-28.6	-29.1	15.2	7.00e-07	0	43	0	318767104	18	3796
2026-01-03 08:17:22.71	65.49	18.01	-28.6	-29.1	15.2	7.00e-07	0	43	0	320864256	18	3812
2026-01-03 08:17:23.72	65.27	18.06	-28.6	-29.0	15.2	0.00e+00	0	43	0	322961408	18	3786
2026-01-03 08:17:24.72	65.06	18.11	-28.7	-29.3	15.1	0.00e+00	0	43	0	324009984	18	3847
2026-01-03 08:17:25.72	64.84	18.16	-28.9	-29.7	14.9	7.00e-07	0	43	0	326107136	18	3953
2026-01-03 08:17:26.73	64.62	18.21	-28.7	-29.4	15.0	7.00e-07	0	43	0	328204288	18	3881
2026-01-03 08:17:27.74	64.40	18.25	-28.8	-29.4	15.0	0.00e+00	0	43	0	330301440	18	3874
2026-01-03 08:17:28.74	64.18	18.30	-28.9	-29.8	14.8	0.00e+00	0	43	0	332398592	18	3995
2026-01-03 08:17:29.75	63.96	18.35	-29.0	-30.0	14.7	0.00e+00	0	43	0	333447168	18	4053
2026-01-03 08:17:30.76	63.74	18.39	-29.2	-30.5	14.4	0.00e+00	0	43	0	335544320	18	4175
2026-01-03 08:17:31.76	63.52	18.44	-29.3	-30.7	14.2	3.80e-06	0	43	0	337641472	18	4270
2026-01-03 08:17:32.77	63.29	18.48	-29.2	-30.5	14.4	0.00e+00	0	43	0	339738624	18	4201
2026-01-03 08:17:33.77	63.07	18.53	-29.3	-30.9	14.2	0.00e+00	0	43	0	341835776	18	4295
2026-01-03 08:17:34.78	62.85	18.57	-29.5	-30.8	13.9	5.30e-06	0	43	0	342884352	19	4186
2026-01-03 08:17:35.78	62.62	18.62	-29.6	-31.1	13.7	3.00e-06	0	43	0	344981504	19	4282
2026-01-03 08:17:36.78	62.40	18.66	-29.4	-30.6	14.0	6.10e-06	0	43	0	347078656	19	4130
2026-01-03 08:17:37.79	62.17	18.71	-29.3	-30.2	14.3	2.20e-06	0	43	0	349175808	19	4002
2026-01-03 08:17:38.79	61.95	18.75	-29.2	-30.0	14.4	1.50e-06	0	43	0	351272960	19	3964
2026-01-03 08:17:39.80	61.72	18.79	-29.2	-30.1	14.4	0.00e+00	0	43	0	352321536	19	3971
2026-01-03 08:17:40.81	61.49	18.84	-29.0	-29.6	14.7	7.00e-07	0	43	0	354418688	19	3830
2026-01-03 08:17:41.81	61.26	18.88	-29.1	-29.8	14.5	0.00e+00	0	43	0	356515840	19	3890
2026-01-03 08:17:42.81	61.04	18.92	-28.8	-29.1	15.0	0.00e+00	0	43	0	358612992	19	3717
2026-01-03 08:17:43.82	60.81	18.96	-28.7	-29.3	15.2	0.00e+00	0	43	0	360710144	18	3835
2026-01-03 08:17:44.82	60.58	19.00	-28.6	-29.0	15.3	0.00e+00	0	43	0	361758720	18	3774
2026-01-03 08:17:45.82	60.35	19.04	-28.5	-28.7	15.6	0.00e+00	0	43	0	363855872	18	3683
2026-01-03 08:17:46.82	60.12	19.08	-28.5	-28.6	15.6	0.00e+00	0	43	0	365953024	18	3665
2026-01-03 08:17:47.82	59.89	19.12	-28.7	-29.2	15.3	0.00e+00	0	43	0	368050176	18	3811
2026-01-03 08:17:48.82	59.65	19.16	-28.6	-28.9	15.4	0.00e+00	0	43	0	369098752	18	3728
2026-01-03 08:17:49.83	59.42	19.20	-28.5	-28.6	15.6	0.00e+00	0	43	0	371195904	18	3665
2026-01-03 08:17:50.83	59.19	19.24	-28.5	-28.8	15.5	0.00e+00	0	43	0	373293056	18	3701
2026-01-03 08:17:51.84	58.95	19.27	-28.5	-28.7	15.5	0.00e+00	0	43	0	375390208	18	3685
2026-01-03 08:17:52.85	58.72	19.31	-28.4	-28.6	15.6	0.00e+00	0	43	0	377487360	18	3649
2026-01-03 08:17:53.85	58.48	19.35	-28.5	-28.7	15.5	0.00e+00	0	43	0	379584512	18	3677
2026-01-03 08:17:54.86	58.24	19.39	-28.6	-29.1	15.4	0.00e+00	0	43	0	380633088	18	3777
2026-01-03 08:17:55.86	58.01	19.42	-28.8	-29.5	15.1	0.00e+00	0	43	0	382730240	18	3882
2026-01-03 08:17:56.87	57.77	19.46	-29.0	-30.0	14.8	0.00e+00	0	43	0	384827392	18	4029
2026-01-03 08:17:57.88	57.53	19.49	-29.1	-30.2	14.6	7.00e-07	0	43	0	386924544	18	4098
2026-01-03 08:17:58.88	57.29	19.53	-29.3	-30.7	14.3	0.00e+00	0	43	0	389021696	18	4232
2026-01-03 08:17:59.89	57.05	19.56	-29.3	-30.7	14.3	3.00e-06	0	43	0	390070272	18	4228
2026-01-03 08:18:00.90	56.81	19.60	-29.3	-30.7	14.3	2.20e-06	0	43	0	392167424	18	4245
2026-01-03 08:18:01.91	56.57	19.63	-29.3	-30.8	14.3	7.00e-07	0	43	0	394264576	18	4275
2026-01-03 08:18:02.91	56.33	19.66	-29.5	-30.9	13.9	3.00e-06	0	43	0	396361728	19	4207
2026-01-03 08:18:03.92	56.09	19.69	-30.0	-32.1	13.1	2.28e-05	0	43	0	397410304	19	4599
2026-01-03 08:18:04.92	55.85	19.73	-29.8	-31.2	13.3	3.50e-05	0	43	0	399507456	20	4214
2026-01-03 08:18:05.93	55.61	19.76	-29.8	-31.1	13.4	1.29e-05	0	43	0	401604608	20	4177
2026-01-03 08:18:06.93	55.37	19.79	-29.8	-31.1	13.4	2.28e-05	0	43	0	403701760	20	4189
2026-01-03 08:18:07.94	55.12	19.82	-30.0	-31.7	13.0	2.74e-05	0	43	0	405798912	20	4370
2026-01-03 08:18:08.94	54.88	19.85	-30.0	-31.8	12.9	6.63e-05	0	43	0	407896064	20	4418
2026-01-03 08:18:09.95	54.64	19.88	-30.0	-31.8	12.9	4.57e-05	0	43	0	408944640	20	4418
2026-01-03 08:18:10.96	54.39	19.91	-30.0	-31.7	12.9	4.50e-05	0	43	0	411041792	20	4382
2026-01-03 08:18:11.96	54.15	19.93	-29.8	-31.1	13.3	2.82e-05	0	43	0	413138944	20	4191
2026-01-03 08:18:12.97	53.90	19.96	-29.6	-30.6	13.6	6.80e-06	0	43	0	415236096	20	4049
2026-01-03 08:18:13.97	53.66	19.99	-29.5	-30.3	13.9	3.80e-06	0	43	0	416284672	20	3952
2026-01-03 08:18:14.97	53.41	20.02	-29.5	-30.2	13.9	3.80e-06	0	43	0	418381824	20	3930
2026-01-03 08:18:15.97	53.17	20.04	-29.4	-30.2	14.0	2.20e-06	0	43	0	420478976	20	3914
2026-01-03 08:18:16.98	52.92	20.07	-29.7	-30.8	13.5	4.50e-06	0	43	0	422576128	20	4101
2026-01-03 08:18:17.99	52.67	20.09	-29.7	-30.9	13.5	1.98e-05	0	43	0	424673280	20	4144
2026-01-03 08:18:18.99	52.42	20.12	-30.1	-31.9	12.8	1.60e-05	0	43	0	425721856	20	4453
2026-01-03 08:18:20.00	52.17	20.14	-30.0	-31.7	12.9	5.34e-05	0	43	0	427819008	20	4376
2026-01-03 08:18:20.99	51.93	20.17	-30.1	-32.1	12.7	6.94e-05	0	43	0	429916160	20	4531
2026-01-03 08:18:21.99	51.68	20.19	-29.9	-31.4	13.1	5.34e-05	0	43	0	432013312	20	4295
2026-01-03 08:18:22.99	51.43	20.21	-29.8	-31.2	13.3	1.60e-05	0	43	0	434110464	20	4239
2026-01-03 08:18:24.00	51.18	20.23	-29.8	-31.1	13.4	1.22e-05	0	43	0	435159040	20	4198
2026-01-03 08:18:25.00	50.93	20.25	-29.8	-31.3	13.3	1.52e-05	0	43	0	437256192	20	4249
2026-01-03 08:18:26.01	50.68	20.27	-29.9	-31.4	13.2	1.52e-05	0	43	0	439353344	20	4296
2026-01-03 08:18:27.01	50.43	20.29	-30.0	-31.6	13.0	3.58e-05	0	43	0	441450496	20	4363
2026-01-03 08:18:28.02	50.18	20.31	-30.0	-31.9	12.8	5.18e-05	0	43	0	443547648	20	4440
2026-01-03 08:18:29.03	49.93	20.33	-30.1	-32.1	12.7	5.87e-05	0	43	0	444596224	20	4519
2026-01-03 08:18:30.02	49.68	20.35	-30.1	-32.1	12.7	5.26e-05	0	43	0	446693376	20	4533
2026-01-03 08:18:31.02	49.43	20.37	-30.0	-31.9	12.8	3.66e-05	0	43	0	448790528	20	4455
2026-01-03 08:18:32.03	49.18	20.39	-29.8	-31.1	13.4	2.67e-05	0	43	0	450887680	20	4189
2026-01-03 08:18:33.04	48.92	20.40	-29.6	-30.6	13.7	1.14e-05	0	43	0	452984832	20	4058
2026-01-03 08:18:34.04	48.67	20.42	-29.7	-30.9	13.5	6.10e-06	0	43	0	454033408	20	4120
2026-01-03 08:18:35.04	48.42	20.44	-29.9	-31.4	13.1	1.29e-05	0	43	0	456130560	20	4297
2026-01-03 08:18:36.05	48.16	20.45	-29.8	-31.1	13.4	1.52e-05	0	43	0	458227712	20	4184
2026-01-03 08:18:37.06	47.91	20.47	-30.0	-31.8	12.8	2.97e-05	0	43	0	460324864	20	4427
2026-01-03 08:18:38.06	47.66	20.48	-29.9	-31.6	13.0	5.64e-05	0	43	0	462422016	20	4369
2026-01-03 08:18:39.07	47.40	20.49	-30.0	-31.7	12.8	4.88e-05	0	43	0	463470592	20	4414
2026-01-03 08:18:40.07	47.15	20.51	-30.2	-32.4	12.5	6.79e-05	0	43	0	465567744	20	4645
2026-01-03 08:18:41.08	46.89	20.52	-30.2	-32.4	12.4	1.04e-04	0	43	0	467664896	20	4641
2026-01-03 08:18:42.08	46.64	20.53	-30.3	-32.6	12.3	1.55e-04	0	43	0	469762048	20	4708
2026-01-03 08:18:43.09	46.38	20.54	-30.2	-32.3	12.6	1.68e-04	0	43	0	471859200	20	4588
2026-01-03 08:18:44.10	46.13	20.55	-30.1	-32.3	12.5	1.04e-04	0	43	0	472907776	20	4595
2026-01-03 08:18:45.10	45.87	20.56	-30.1	-32.1	12.7	8.31e-05	0	43	0	475004928	20	4541
2026-01-03 08:18:46.10	45.62	20.57	-30.2	-32.3	12.5	7.17e-05	0	43	0	477102080	20	4609
2026-01-03 08:18:47.10	45.37	20.58	-30.4	-33.0	12.1	2.66e-04	0	43	0	479199232	20	4851
2026-01-03 08:18:48.11	45.11	20.59	-30.2	-32.3	12.5	1.49e-04	0	43	0	481296384	20	4595
2026-01-03 08:18:49.12	44.85	20.59	-30.1	-32.0	12.7	8.31e-05	0	43	0	482344960	20	4507
2026-01-03 08:18:50.12	44.60	20.60	-29.9	-31.7	12.9	6.33e-05	0	43	0	484442112	20	4385
2026-01-03 08:18:51.13	44.34	20.61	-29.8	-31.4	13.1	3.66e-05	0	43	0	486539264	20	4288
2026-01-03 08:18:52.14	44.08	20.61	-29.8	-31.2	13.2	1.60e-05	0	43	0	488636416	20	4225
2026-01-03 08:18:53.15	43.83	20.62	-29.8	-31.3	13.3	1.67e-05	0	43	0	490733568	20	4251
2026-01-03 08:18:54.15	43.57	20.62	-29.7	-30.8	13.5	9.90e-06	0	43	0	491782144	20	4120
2026-01-03 08:18:55.16	43.31	20.63	-29.7	-30.9	13.5	1.06e-05	0	43	0	493879296	20	4150
2026-01-03 08:18:56.17	43.06	20.63	-29.5	-30.4	13.8	9.90e-06	0	43	0	495976448	20	4010
2026-01-03 08:18:57.17	42.80	20.63	-29.4	-30.3	13.9	6.80e-06	0	43	0	498073600	20	3961
2026-01-03 08:18:58.18	42.54	20.63	-29.4	-30.2	13.9	1.50e-06	0	43	0	500170752	20	3931
2026-01-03 08:18:59.19	42.29	20.63	-29.5	-30.9	13.9	2.20e-06	0	43	0	501219328	19	4220
2026-01-03 08:19:00.19	42.03	20.64	-29.7	-31.3	13.5	3.80e-06	0	43	0	503316480	19	4349
2026-01-03 08:19:01.20	41.77	20.64	-29.9	-31.4	13.1	1.90e-05	0	43	0	505413632	20	4283
2026-01-03 08:19:02.20	41.52	20.63	-29.9	-31.5	13.0	2.89e-05	0	43	0	507510784	20	4336
2026-01-03 08:19:03.21	41.26	20.63	-30.0	-31.8	12.9	4.80e-05	0	43	0	509607936	20	4416
2026-01-03 08:19:04.21	41.01	20.63	-30.0	-31.6	12.9	6.48e-05	0	43	0	510656512	20	4364
2026-01-03 08:19:05.22	40.75	20.63	-30.0	-31.9	12.8	3.96e-05	0	43	0	512753664	20	4446
2026-01-03 08:19:06.23	40.49	20.63	-30.0	-31.8	12.8	4.88e-05	0	43	0	514850816	20	4429
2026-01-03 08:19:07.24	40.23	20.62	-30.0	-31.8	12.8	4.42e-05	0	43	0	516947968	20	4426
2026-01-03 08:19:08.24	39.98	20.62	-30.0	-31.7	12.9	5.34e-05	0	43	0	519045120	20	4374
2026-01-03 08:19:09.25	39.72	20.61	-29.7	-30.9	13.4	2.74e-05	0	43	0	520093696	20	4119
2026-01-03 08:19:10.25	39.47	20.61	-29.4	-30.2	13.9	9.90e-06	0	43	0	522190848	20	3916
2026-01-03 08:19:11.26	39.21	20.60	-29.3	-30.2	14.3	2.20e-06	0	43	0	524288000	19	4007
2026-01-03 08:19:12.26	38.96	20.60	-29.3	-30.4	14.1	2.20e-06	0	43	0	526385152	19	4054
2026-01-03 08:19:13.26	38.70	20.59	-29.4	-30.5	14.1	0.00e+00	0	43	0	527433728	19	4077
2026-01-03 08:19:14.26	38.45	20.58	-29.4	-30.6	14.0	7.00e-07	0	43	0	529530880	19	4123
2026-01-03 08:19:15.27	38.19	20.57	-29.5	-30.6	14.0	2.20e-06	0	43	0	531628032	19	4120
2026-01-03 08:19:16.27	37.94	20.57	-29.5	-30.9	13.9	5.30e-06	0	43	0	533725184	19	4194
2026-01-03 08:19:17.28	37.68	20.56	-29.3	-30.4	14.2	3.80e-06	0	43	0	535822336	19	4043
2026-01-03 08:19:18.28	37.43	20.55	-29.4	-30.4	14.2	1.50e-06	0	43	0	537919488	19	4065
2026-01-03 08:19:19.29	37.17	20.54	-29.4	-30.4	14.2	1.50e-06	0	43	0	538968064	19	4054
2026-01-03 08:19:20.30	36.92	20.52	-29.3	-30.2	14.3	7.00e-07	0	43	0	541065216	19	3988
2026-01-03 08:19:21.30	36.66	20.51	-29.3	-30.2	14.3	7.00e-07	0	43	0	543162368	19	3995
2026-01-03 08:19:22.31	36.41	20.50	-29.4	-30.4	14.2	7.00e-07	0	43	0	545259520	19	4067
2026-01-03 08:19:23.31	36.15	20.49	-29.7	-31.1	13.7	7.60e-06	0	43	0	546308096	19	4278
2026-01-03 08:19:24.32	35.90	20.47	-29.5	-30.7	14.0	3.00e-06	0	43	0	548405248	19	4130
2026-01-03 08:19:25.33	35.65	20.46	-29.3	-30.3	14.2	0.00e+00	0	43	0	550502400	19	4037
2026-01-03 08:19:26.33	35.39	20.44	-29.0	-29.4	14.7	7.00e-07	0	43	0	552599552	19	3792
2026-01-03 08:19:27.33	35.14	20.43	-28.8	-28.9	15.0	0.00e+00	0	43	0	554696704	19	3662
2026-01-03 08:19:28.34	34.89	20.41	-28.7	-29.1	15.2	0.00e+00	0	43	0	555745280	18	3799
2026-01-03 08:19:29.35	34.63	20.40	-28.7	-29.3	15.2	0.00e+00	0	43	0	557842432	18	3835
2026-01-03 08:19:30.34	34.39	20.38	-28.7	-29.2	15.2	0.00e+00	0	43	0	559939584	18	3817
2026-01-03 08:19:31.35	34.13	20.36	-28.8	-29.4	15.1	0.00e+00	0	43	0	562036736	18	3863
2026-01-03 08:19:32.36	33.88	20.34	-28.9	-29.6	14.9	0.00e+00	0	43	0	564133888	18	3933
2026-01-03 08:19:33.36	33.63	20.32	-28.7	-29.3	15.1	0.00e+00	0	43	0	565182464	18	3841
2026-01-03 08:19:34.37	33.38	20.31	-28.8	-29.4	15.1	0.00e+00	0	43	0	567279616	18	3861
2026-01-03 08:19:35.38	33.13	20.29	-28.9	-29.6	14.9	0.00e+00	0	43	0	569376768	18	3921
2026-01-03 08:19:36.38	32.88	20.26	-28.9	-29.8	14.9	0.00e+00	0	43	0	571473920	18	3968
2026-01-03 08:19:37.38	32.63	20.24	-28.9	-29.6	14.9	0.00e+00	0	43	0	573571072	18	3930
2026-01-03 08:19:38.39	32.38	20.22	-28.7	-29.2	15.2	0.00e+00	0	43	0	574619648	18	3819
2026-01-03 08:19:39.39	32.13	20.20	-28.7	-29.2	15.2	0.00e+00	0	43	0	576716800	18	3806
2026-01-03 08:19:40.40	31.88	20.18	-28.7	-29.1	15.3	0.00e+00	0	43	0	578813952	18	3779
2026-01-03 08:19:41.40	31.63	20.15	-28.6	-29.0	15.3	0.00e+00	0	43	0	580911104	18	3772
2026-01-03 08:19:42.41	31.38	20.13	-28.7	-29.2	15.2	7.00e-07	0	43	0	583008256	18	3811
2026-01-03 08:19:43.41	31.14	20.11	-28.7	-29.2	15.1	0.00e+00	0	43	0	584056832	18	3824
2026-01-03 08:19:44.42	30.89	20.08	-28.7	-29.2	15.2	0.00e+00	0	43	0	586153984	18	3823
2026-01-03 08:19:45.42	30.64	20.06	-28.7	-29.3	15.1	0.00e+00	0	43	0	588251136	18	3841
2026-01-03 08:19:46.43	30.40	20.03	-28.7	-29.1	15.3	0.00e+00	0	43	0	590348288	18	3782
2026-01-03 08:19:47.44	30.15	20.00	-28.8	-29.4	15.1	0.00e+00	0	43	0	592445440	18	3881
2026-01-03 08:19:48.44	29.90	19.98	-29.1	-30.1	14.6	0.00e+00	0	43	0	593494016	18	4072
2026-01-03 08:19:49.44	29.66	19.95	-29.5	-30.8	13.9	2.20e-06	0	43	0	595591168	19	4176
2026-01-03 08:19:50.45	29.41	19.92	-29.6	-31.1	13.7	4.50e-06	0	43	0	597688320	19	4263
2026-01-03 08:19:51.46	29.17	19.89	-29.7	-31.4	13.5	9.90e-06	0	43	0	599785472	19	4354
2026-01-03 08:19:52.46	28.93	19.86	-29.8	-31.6	13.3	1.37e-05	0	43	0	601882624	19	4435
2026-01-03 08:19:53.47	28.68	19.83	-29.7	-31.3	13.5	1.06e-05	0	43	0	602931200	19	4332
2026-01-03 08:19:54.47	28.44	19.80	-29.7	-31.3	13.6	4.50e-06	0	43	0	605028352	19	4327
2026-01-03 08:19:55.47	28.20	19.77	-29.6	-31.1	13.7	3.00e-06	0	43	0	607125504	19	4254
2026-01-03 08:19:56.48	27.96	19.74	-29.7	-31.2	13.6	3.80e-06	0	43	0	609222656	19	4296
2026-01-03 08:19:57.49	27.71	19.71	-29.6	-31.1	13.7	2.20e-06	0	43	0	611319808	19	4272
2026-01-03 08:19:58.49	27.47	19.68	-29.8	-31.5	13.4	9.10e-06	0	43	0	612368384	19	4401
2026-01-03 08:19:59.50	27.23	19.65	-29.9	-32.0	13.1	1.22e-05	0	43	0	614465536	19	4568
2026-01-03 08:20:00.50	27.00	19.61	-30.1	-32.0	12.7	6.17e-05	0	43	0	616562688	20	4480
2026-01-03 08:20:01.51	26.75	19.58	-30.2	-32.4	12.4	1.06e-04	0	43	0	618659840	20	4620
2026-01-03 08:20:02.52	26.51	19.55	-30.4	-32.9	12.2	2.43e-04	0	43	0	620756992	20	4804
2026-01-03 08:20:03.52	26.28	19.51	-30.4	-32.4	12.1	2.83e-04	0	43	0	621805568	21	4516
2026-01-03 08:20:04.54	26.04	19.48	-30.6	-32.9	11.7	5.04e-04	0	43	0	623902720	21	4707
2026-01-03 08:20:05.55	25.80	19.44	-30.7	-33.1	11.6	8.21e-04	0	43	0	625999872	21	4780
2026-01-03 08:20:06.55	25.56	19.41	-30.4	-32.4	12.0	4.00e-04	0	43	0	628097024	21	4528
2026-01-03 08:20:07.55	25.33	19.37	-30.2	-31.7	12.5	1.46e-04	0	43	0	630194176	21	4284
2026-01-03 08:20:08.56	25.09	19.33	-29.9	-30.9	13.1	3.66e-05	0	43	0	631242752	21	4038
2026-01-03 08:20:09.57	24.86	19.29	-29.6	-30.7	13.5	2.67e-05	0	43	0	633339904	20	4066
2026-01-03 08:20:10.57	24.62	19.26	-29.7	-30.8	13.6	7.60e-06	0	43	0	635437056	20	4084
2026-01-03 08:20:11.58	24.39	19.22	-29.6	-30.5	13.6	9.10e-06	0	43	0	637534208	20	4024
2026-01-03 08:20:12.58	24.16	19.18	-29.7	-30.8	13.4	9.10e-06	0	43	0	639631360	20	4111
2026-01-03 08:20:13.58	23.93	19.14	-29.9	-31.4	13.0	1.37e-05	0	43	0	640679936	20	4299
2026-01-03 08:20:14.59	23.69	19.10	-29.9	-31.4	13.0	3.12e-05	0	43	0	642777088	20	4279
2026-01-03 08:20:15.59	23.46	19.06	-29.8	-31.1	13.3	1.98e-05	0	43	0	644874240	20	4186
2026-01-03 08:20:16.60	23.23	19.02	-29.6	-30.5	13.6	1.37e-05	0	43	0	646971392	20	4026
2026-01-03 08:20:17.60	23.00	18.98	-29.6	-30.6	13.5	1.60e-05	0	43	0	649068544	20	4053
2026-01-03 08:20:18.60	22.77	18.94	-29.7	-30.8	13.5	1.52e-05	0	43	0	650117120	20	4111
2026-01-03 08:20:19.61	22.54	18.90	-29.6	-30.5	13.6	8.30e-06	0	43	0	652214272	20	4021
2026-01-03 08:20:20.62	22.32	18.86	-29.4	-30.0	13.9	2.20e-06	0	43	0	654311424	20	3871
2026-01-03 08:20:21.62	22.09	18.82	-29.3	-30.4	14.1	3.80e-06	0	43	0	656408576	19	4055
2026-01-03 08:20:22.63	21.86	18.77	-29.3	-30.2	14.2	7.00e-07	0	43	0	658505728	19	3993
2026-01-03 08:20:23.63	21.64	18.73	-29.0	-29.6	14.6	7.00e-07	0	43	0	659554304	19	3824
2026-01-03 08:20:24.63	21.41	18.69	-29.0	-29.5	14.6	0.00e+00	0	43	0	661651456	19	3810
2026-01-03 08:20:25.63	21.19	18.64	-29.0	-29.6	14.5	0.00e+00	0	43	0	663748608	19	3847
2026-01-03 08:20:26.64	20.96	18.60	-29.0	-29.4	14.7	0.00e+00	0	43	0	665845760	19	3801
2026-01-03 08:20:27.65	20.74	18.55	-29.0	-29.5	14.6	0.00e+00	0	43	0	667942912	19	3802
2026-01-03 08:20:28.65	20.52	18.51	-29.0	-29.5	14.6	7.00e-07	0	43	0	668991488	19	3805
2026-01-03 08:20:29.66	20.29	18.46	-29.0	-29.5	14.6	7.00e-07	0	43	0	671088640	19	3818
2026-01-03 08:20:30.67	20.07	18.42	-29.2	-30.0	14.3	1.50e-06	0	43	0	673185792	19	3949
2026-01-03 08:20:31.67	19.85	18.37	-29.6	-31.0	13.6	3.00e-06	0	43	0	675282944	19	4252
2026-01-03 08:20:32.68	19.63	18.33	-30.0	-32.1	12.9	1.29e-05	0	43	0	677380096	19	4619
2026-01-03 08:20:33.68	19.41	18.28	-30.3	-32.8	12.0	1.11e-04	0	43	0	678428672	20	4760
2026-01-03 08:20:34.69	19.19	18.23	-30.2	-32.5	12.2	4.36e-04	0	43	0	680525824	20	4660
2026-01-03 08:20:35.70	18.97	18.18	-30.3	-32.6	12.1	2.78e-04	0	43	0	682622976	20	4719
2026-01-03 08:20:36.70	18.76	18.14	-30.1	-32.1	12.5	2.13e-04	0	43	0	684720128	20	4541
2026-01-03 08:20:37.71	18.54	18.09	-30.0	-31.8	12.6	6.71e-05	0	43	0	685768704	20	4441
2026-01-03 08:20:38.72	18.32	18.04	-30.0	-31.7	12.7	6.17e-05	0	43	0	687865856	20	4389
2026-01-03 08:20:39.72	18.11	17.99	-30.1	-32.1	12.5	9.46e-05	0	43	0	689963008	20	4524
2026-01-03 08:20:40.73	17.89	17.94	-30.3	-32.8	12.0	2.94e-04	0	43	0	692060160	20	4778
2026-01-03 08:20:41.74	17.68	17.89	-30.5	-32.9	11.6	4.86e-04	0	43	0	694157312	21	4721
2026-01-03 08:20:42.74	17.47	17.84	-30.8	-33.7	11.0	9.77e-04	0	43	0	696254464	21	5039
2026-01-03 08:20:43.75	17.25	17.79	-30.8	-33.8	10.9	2.25e-03	0	43	0	697303040	21	5071
2026-01-03 08:20:44.75	17.04	17.74	-30.8	-33.8	10.9	2.41e-03	0	43	0	699400192	21	5079
2026-01-03 08:20:45.76	16.83	17.69	-30.6	-33.2	11.3	1.76e-03	0	43	0	701497344	21	4850
2026-01-03 08:20:46.77	16.62	17.64	-30.6	-33.3	11.2	1.23e-03	0	43	0	703594496	21	4878
2026-01-03 08:20:47.77	16.41	17.59	-30.5	-32.8	11.6	7.97e-04	0	43	0	704643072	21	4692
2026-01-03 08:20:48.78	16.20	17.54	-30.1	-31.6	12.4	2.91e-04	0	43	0	706740224	21	4286
2026-01-03 08:20:49.78	15.99	17.49	-29.7	-30.9	13.2	6.25e-05	0	43	0	708837376	20	4155
2026-01-03 08:20:50.78	15.79	17.44	-29.6	-30.6	13.4	1.90e-05	0	43	0	710934528	20	4050
2026-01-03 08:20:51.79	15.58	17.38	-29.5	-30.4	13.6	1.22e-05	0	43	0	713031680	20	3982
2026-01-03 08:20:52.79	15.37	17.33	-29.7	-31.0	13.2	1.22e-05	0	43	0	714080256	20	4177
2026-01-03 08:20:53.80	15.17	17.28	-29.6	-30.7	13.4	2.67e-05	0	43	0	716177408	20	4067
2026-01-03 08:20:54.81	14.96	17.22	-29.6	-30.8	13.3	1.44e-05	0	43	0	718274560	20	4110
2026-01-03 08:20:55.82	14.76	17.17	-29.7	-30.9	13.3	2.44e-05	0	43	0	720371712	20	4135
2026-01-03 08:20:56.83	14.55	17.12	-29.8	-31.2	13.0	2.13e-05	0	43	0	722468864	20	4237
2026-01-03 08:20:57.84	14.35	17.06	-29.9	-31.5	12.8	5.64e-05	0	43	0	724566016	20	4337
2026-01-03 08:20:58.84	14.15	17.01	-30.1	-32.1	12.4	1.04e-04	0	43	0	725614592	20	4548
2026-01-03 08:20:59.85	13.95	16.95	-30.0	-31.8	12.6	1.18e-04	0	43	0	727711744	20	4443
2026-01-03 08:21:00.85	13.75	16.90	-30.0	-32.0	12.4	1.51e-04	0	43	0	729808896	20	4514
2026-01-03 08:21:01.85	13.55	16.85	-30.1	-32.3	12.3	1.39e-04	0	43	0	731906048	20	4593
2026-01-03 08:21:02.86	13.35	16.79	-29.9	-31.7	12.6	1.42e-04	0	43	0	732954624	20	4399
2026-01-03 08:21:03.86	13.16	16.74	-29.6	-30.8	13.3	5.03e-05	0	43	0	735051776	20	4118
2026-01-03 08:21:04.87	12.96	16.68	-29.5	-30.4	13.5	1.67e-05	0	43	0	737148928	20	3995
2026-01-03 08:21:05.88	12.76	16.62	-29.4	-30.2	13.6	6.10e-06	0	43	0	739246080	20	3943
2026-01-03 08:21:06.88	12.57	16.57	-29.6	-30.8	13.1	1.14e-05	0	43	0	741343232	20	4133
2026-01-03 08:21:07.88	12.37	16.51	-29.6	-30.9	13.1	1.67e-05	0	43	0	742391808	20	4159
2026-01-03 08:21:08.89	12.18	16.46	-30.0	-31.9	12.5	5.34e-05	0	43	0	744488960	20	4473
2026-01-03 08:21:09.89	11.98	16.40	-30.1	-32.3	12.2	1.59e-04	0	43	0	746586112	20	4602
2026-01-03 08:21:10.90	11.79	16.34	-30.5	-32.9	11.4	6.27e-04	0	43	0	748683264	21	4763
2026-01-03 08:21:11.89	11.60	16.29	-30.4	-32.6	11.6	1.08e-03	0	43	0	750780416	21	4642
2026-01-03 08:21:12.90	11.41	16.23	-30.5	-32.8	11.4	7.66e-04	0	43	0	751828992	21	4729
2026-01-03 08:21:13.91	11.22	16.17	-30.5	-32.9	11.4	8.60e-04	0	43	0	753926144	21	4757
2026-01-03 08:21:14.91	11.03	16.11	-30.4	-32.6	11.7	6.31e-04	0	43	0	756023296	21	4623
2026-01-03 08:21:15.91	10.84	16.06	-30.1	-31.8	12.1	3.54e-04	0	43	0	758120448	21	4374
2026-01-03 08:21:16.92	10.65	16.00	-30.0	-31.4	12.4	2.01e-04	0	43	0	760217600	21	4227
2026-01-03 08:21:17.93	10.46	15.94	-30.0	-31.4	12.5	1.81e-04	0	43	0	761266176	21	4221
2026-01-03 08:21:18.93	10.28	15.88	-29.8	-30.9	12.8	9.76e-05	0	43	0	763363328	21	4073
2026-01-03 08:21:19.94	10.09	15.82	-29.8	-31.2	12.8	5.11e-05	0	43	0	765460480	20	4253
2026-01-03 08:21:20.95	9.91	15.77	-29.8	-31.2	12.9	4.11e-05	0	43	0	767557632	20	4261
2026-01-03 08:21:21.95	9.72	15.71	-29.8	-31.2	12.9	5.03e-05	0	43	0	769654784	20	4259
2026-01-03 08:21:22.95	9.54	15.65	-29.7	-30.9	13.1	6.10e-05	0	43	0	770703360	20	4170
2026-01-03 08:21:23.96	9.36	15.59	-29.9	-31.7	12.6	6.33e-05	0	43	0	772800512	20	4423
2026-01-03 08:21:24.96	9.17	15.53	-29.7	-31.0	13.0	4.65e-05	0	43	0	774897664	20	4179
2026-01-03 08:21:25.96	8.99	15.47	-29.6	-30.8	13.2	2.21e-05	0	43	0	776994816	20	4128
2026-01-03 08:21:26.97	8.81	15.41	-29.7	-31.0	13.0	2.59e-05	0	43	0	779091968	20	4190
2026-01-03 08:21:27.97	8.63	15.35	-29.7	-31.1	13.0	3.50e-05	0	43	0	780140544	20	4232
2026-01-03 08:21:28.98	8.45	15.29	-29.8	-31.2	12.9	4.50e-05	0	43	0	782237696	20	4265
2026-01-03 08:21:29.98	8.27	15.23	-29.9	-31.7	12.6	6.10e-05	0	43	0	784334848	20	4427
2026-01-03 08:21:30.98	8.10	15.17	-30.1	-32.4	12.1	1.92e-04	0	43	0	786432000	20	4644
2026-01-03 08:21:31.99	7.92	15.11	-30.1	-32.3	12.2	2.25e-04	0	43	0	788529152	20	4624
2026-01-03 08:21:32.99	7.74	15.05	-30.1	-32.4	12.1	2.84e-04	0	43	0	789577728	20	4654
2026-01-03 08:21:33.99	7.57	14.99	-30.1	-32.2	12.2	2.37e-04	0	43	0	791674880	20	4603
2026-01-03 08:21:35.00	7.39	14.93	-30.0	-31.9	12.4	1.52e-04	0	43	0	793772032	20	4468
2026-01-03 08:21:36.01	7.22	14.87	-29.9	-31.6	12.7	1.14e-04	0	43	0	795869184	20	4374
2026-01-03 08:21:37.01	7.05	14.81	-30.0	-31.9	12.4	1.14e-04	0	43	0	797966336	20	4493
2026-01-03 08:21:38.02	6.87	14.75	-29.8	-31.4	12.7	9.23e-05	0	43	0	799014912	20	4318
2026-01-03 08:21:39.02	6.70	14.69	-29.7	-30.9	13.0	4.57e-05	0	43	0	801112064	20	4167
2026-01-03 08:21:40.03	6.53	14.63	-29.7	-31.1	13.0	2.82e-05	0	43	0	803209216	20	4219
2026-01-03 08:21:41.04	6.36	14.57	-29.8	-31.3	12.8	6.02e-05	0	43	0	805306368	20	4289
2026-01-03 08:21:42.04	6.19	14.51	-29.8	-31.3	12.8	5.26e-05	0	43	0	807403520	20	4283
2026-01-03 08:21:43.05	6.02	14.44	-29.9	-31.7	12.5	1.03e-04	0	43	0	808452096	20	4436
2026-01-03 08:21:44.05	5.85	14.38	-30.0	-31.9	12.4	1.38e-04	0	43	0	810549248	20	4489
2026-01-03 08:21:45.06	5.68	14.32	-30.0	-31.9	12.4	1.63e-04	0	43	0	812646400	20	4486
2026-01-03 08:21:46.06	5.51	14.26	-30.0	-31.9	12.4	1.26e-04	0	43	0	814743552	20	4474
2026-01-03 08:21:47.07	5.35	14.20	-30.0	-31.9	12.4	1.26e-04	0	43	0	815792128	20	4477
2026-01-03 08:21:48.08	5.18	14.14	-29.9	-31.5	12.7	1.06e-04	0	43	0	817889280	20	4345
2026-01-03 08:21:49.08	5.02	14.07	-29.9	-31.6	12.6	7.55e-05	0	43	0	819986432	20	4379
2026-01-03 08:21:50.09	4.85	14.01	-30.0	-31.9	12.4	1.02e-04	0	43	0	822083584	20	4479
2026-01-03 08:21:51.10	4.69	13.95	-29.7	-31.0	13.0	4.73e-05	0	43	0	824180736	20	4202
2026-01-03 08:21:52.11	4.52	13.89	-29.6	-30.7	13.2	2.59e-05	0	43	0	826277888	20	4096
2026-01-03 08:21:53.11	4.36	13.82	-29.6	-30.7	13.1	2.05e-05	0	43	0	827326464	20	4114
2026-01-03 08:21:54.12	4.20	13.76	-29.6	-30.9	13.1	1.83e-05	0	43	0	829423616	20	4158
2026-01-03 08:21:55.13	4.04	13.70	-29.5	-30.6	13.2	2.59e-05	0	43	0	831520768	20	4061
2026-01-03 08:21:56.13	3.88	13.64	-29.6	-30.8	13.1	3.28e-05	0	43	0	833617920	20	4119
2026-01-03 08:21:57.13	3.72	13.58	-29.4	-30.2	13.5	1.67e-05	0	43	0	835715072	20	3960
2026-01-03 08:21:58.13	3.56	13.51	-29.2	-30.0	14.0	3.80e-06	0	43	0	836763648	19	3965
2026-01-03 08:21:59.14	3.40	13.45	-29.1	-29.8	14.2	2.20e-06	0	43	0	838860800	19	3904
2026-01-03 08:22:00.14	3.25	13.39	-29.0	-29.6	14.3	1.50e-06	0	43	0	840957952	19	3868
2026-01-03 08:22:01.14	3.09	13.33	-29.1	-29.8	14.2	1.50e-06	0	43	0	843055104	19	3903
2026-01-03 08:22:02.16	2.93	13.26	-28.9	-29.3	14.4	0.00e+00	0	43	0	844103680	19	3783
2026-01-03 08:22:03.16	2.78	13.20	-29.1	-29.9	14.1	1.50e-06	0	43	0	846200832	19	3936
2026-01-03 08:22:04.17	2.62	13.14	-29.1	-30.0	14.1	3.00e-06	0	43	0	848297984	19	3954
2026-01-03 08:22:05.18	2.47	13.07	-29.3	-30.5	13.7	6.80e-06	0	43	0	850395136	19	4104
2026-01-03 08:22:06.18	2.32	13.01	-29.4	-30.6	13.6	9.90e-06	0	43	0	852492288	19	4149
2026-01-03 08:22:07.19	2.16	12.95	-29.6	-31.2	13.2	4.50e-06	0	43	0	854589440	19	4343
2026-01-03 08:22:08.20	2.01	12.88	-29.7	-31.5	13.0	2.28e-05	0	43	0	855638016	19	4430
2026-01-03 08:22:09.21	1.86	12.82	-29.9	-32.2	12.6	4.88e-05	0	43	0	857735168	19	4645
2026-01-03 08:22:10.21	1.71	12.76	-30.1	-32.2	12.2	1.40e-04	0	43	0	859832320	20	4567
2026-01-03 08:22:11.21	1.56	12.69	-29.8	-31.4	12.7	1.23e-04	0	43	0	861929472	20	4330
2026-01-03 08:22:12.21	1.41	12.63	-29.8	-31.3	12.7	8.39e-05	0	43	0	862978048	20	4287
2026-01-03 08:22:13.22	1.26	12.57	-29.7	-30.9	13.0	5.18e-05	0	43	0	865075200	20	4168
2026-01-03 08:22:14.22	1.11	12.51	-29.5	-30.6	13.2	2.05e-05	0	43	0	867172352	20	4053
2026-01-03 08:22:15.23	0.97	12.44	-29.3	-30.0	13.6	1.52e-05	0	43	0	869269504	20	3886
2026-01-03 08:22:16.23	0.82	12.38	-29.3	-30.3	13.8	5.30e-06	0	43	0	871366656	19	4042
2026-01-03 08:22:17.24	0.67	12.32	-29.1	-29.8	14.1	4.50e-06	0	43	0	872415232	19	3925
2026-01-03 08:22:18.25	0.53	12.25	-29.2	-30.2	13.9	3.80e-06	0	43	0	874512384	19	4022
2026-01-03 08:22:19.26	0.38	12.19	-29.4	-30.7	13.5	3.80e-06	0	43	0	876609536	19	4179
2026-01-03 08:22:20.27	0.24	12.12	-29.2	-30.0	14.0	1.50e-06	0	43	0	878706688	19	3980
2026-01-03 08:22:21.27	0.09	12.06	-29.0	-29.7	14.1	3.00e-06	0	43	0	880803840	19	3881
2026-01-03 08:22:22.28	359.95	12.00	-29.2	-30.1	13.9	1.50e-06	0	43	0	882900992	19	3999
2026-01-03 08:22:23.28	359.81	11.94	-29.4	-30.6	13.6	5.30e-06	0	43	0	883949568	19	4149
2026-01-03 08:22:24.28	359.67	11.87	-29.5	-31.0	13.3	1.14e-05	0	43	0	886046720	19	4267
2026-01-03 08:22:25.29	359.52	11.81	-29.6	-31.2	13.2	1.06e-05	0	43	0	888143872	19	4342
2026-01-03 08:22:26.29	359.39	11.75	-29.7	-31.4	13.0	3.12e-05	0	43	0	890241024	19	4409
2026-01-03 08:22:27.30	359.24	11.68	-29.7	-31.5	13.0	3.66e-05	0	43	0	891289600	19	4444
2026-01-03 08:22:28.31	359.10	11.62	-29.8	-31.8	12.8	5.72e-05	0	43	0	893386752	19	4544
2026-01-03 08:22:29.31	358.97	11.56	-29.8	-31.8	12.7	9.91e-05	0	43	0	895483904	19	4549
2026-01-03 08:22:30.32	358.83	11.49	-29.8	-31.9	12.7	8.16e-05	0	43	0	897581056	19	4562
2026-01-03 08:22:31.33	358.69	11.43	-29.9	-32.0	12.6	7.78e-05	0	43	0	899678208	19	4605
2026-01-03 08:22:32.34	358.55	11.36	-29.9	-32.2	12.5	9.91e-05	0	43	0	900726784	19	4658
2026-01-03 08:22:33.34	358.42	11.30	-29.7	-31.6	12.9	7.32e-05	0	43	0	902823936	19	4457
2026-01-03 08:22:34.35	358.28	11.24	-29.6	-31.4	13.0	3.43e-05	0	43	0	904921088	19	4396
2026-01-03 08:22:35.36	358.15	11.17	-29.6	-31.2	13.1	3.43e-05	0	43	0	907018240	19	4335
2026-01-03 08:22:36.36	358.01	11.11	-29.3	-30.4	13.6	1.90e-05	0	43	0	909115392	19	4098
2026-01-03 08:22:37.37	357.88	11.05	-29.4	-30.7	13.5	6.10e-06	0	43	0	910163968	19	4176
2026-01-03 08:22:38.38	357.74	10.98	-29.2	-30.1	13.8	1.06e-05	0	43	0	912261120	19	4007
2026-01-03 08:22:39.38	357.61	10.92	-28.9	-29.4	14.3	2.20e-06	0	43	0	914358272	19	3806
2026-01-03 08:22:40.39	357.48	10.86	-28.7	-29.4	14.6	2.20e-06	0	43	0	916455424	18	3908
2026-01-03 08:22:41.40	357.35	10.79	-28.9	-29.8	14.3	0.00e+00	0	43	0	918552576	18	4018
2026-01-03 08:22:42.41	357.22	10.73	-29.0	-30.1	14.1	7.00e-07	0	43	0	919601152	18	4093
2026-01-03 08:22:43.42	357.09	10.67	-29.2	-30.6	13.8	5.30e-06	0	43	0	921698304	18	4241
2026-01-03 08:22:44.42	356.96	10.60	-29.4	-31.3	13.4	8.30e-06	0	43	0	923795456	18	4471
2026-01-03 08:22:45.42	356.83	10.54	-29.6	-31.2	13.1	2.28e-05	0	43	0	925892608	19	4357
2026-01-03 08:22:46.43	356.70	10.48	-29.9	-32.0	12.5	5.49e-05	0	43	0	927989760	19	4616
2026-01-03 08:22:47.43	356.57	10.41	-30.0	-31.9	12.2	2.02e-04	0	43	0	929038336	20	4484
2026-01-03 08:22:48.44	356.44	10.35	-30.1	-32.2	12.0	1.85e-04	0	43	0	931135488	20	4605
2026-01-03 08:22:49.44	356.32	10.29	-30.0	-32.0	12.1	2.78e-04	0	43	0	933232640	20	4536
2026-01-03 08:22:50.45	356.19	10.22	-29.9	-31.7	12.3	2.34e-04	0	43	0	935329792	20	4431
2026-01-03 08:22:51.46	356.06	10.16	-29.9	-31.6	12.4	2.63e-04	0	43	0	937426944	20	4399
2026-01-03 08:22:52.46	355.94	10.10	-29.8	-31.5	12.5	1.43e-04	0	43	0	938475520	20	4352
2026-01-03 08:22:53.47	355.81	10.03	-30.0	-31.9	12.2	1.36e-04	0	43	0	940572672	20	4506
2026-01-03 08:22:54.47	355.69	9.97	-29.8	-31.4	12.5	1.40e-04	0	43	0	942669824	20	4336
2026-01-03 08:22:55.48	355.57	9.91	-29.7	-31.0	12.7	8.62e-05	0	43	0	944766976	20	4209
2026-01-03 08:22:56.48	355.44	9.85	-29.6	-31.0	12.8	8.31e-05	0	43	0	946864128	20	4198
2026-01-03 08:22:57.48	355.32	9.78	-29.7	-31.1	12.6	9.68e-05	0	43	0	947912704	20	4251
2026-01-03 08:22:58.47	355.20	9.72	-29.7	-31.1	12.6	9.00e-05	0	43	0	950009856	20	4228
2026-01-03 08:22:59.48	355.08	9.66	-29.7	-31.2	12.6	7.17e-05	0	43	0	952107008	20	4269
2026-01-03 08:23:00.48	354.96	9.60	-29.7	-31.3	12.6	1.08e-04	0	43	0	954204160	20	4292
2026-01-03 08:23:01.47	354.84	9.53	-29.7	-31.2	12.5	1.04e-04	0	43	0	956301312	20	4281
2026-01-03 08:23:02.47	354.72	9.47	-29.9	-31.8	12.2	1.66e-04	0	43	0	957349888	20	4479
2026-01-03 08:23:03.48	354.60	9.41	-29.9	-31.8	12.1	3.07e-04	0	43	0	959447040	20	4473
2026-01-03 08:23:04.48	354.49	9.35	-29.8	-31.6	12.3	1.40e-04	0	43	0	961544192	20	4404
2026-01-03 08:23:05.49	354.37	9.28	-29.9	-31.6	12.3	1.94e-04	0	43	0	963641344	20	4415
2026-01-03 08:23:06.50	354.25	9.22	-29.9	-31.7	12.1	2.57e-04	0	43	0	965738496	20	4448
2026-01-03 08:23:07.50	354.13	9.16	-30.0	-32.1	11.9	3.68e-04	0	43	0	966787072	20	4587
2026-01-03 08:23:08.51	354.02	9.10	-30.0	-32.2	11.8	4.09e-04	0	43	0	968884224	20	4618
2026-01-03 08:23:09.51	353.90	9.03	-30.2	-32.6	11.6	4.43e-04	0	43	0	970981376	20	4764
2026-01-03 08:23:10.52	353.78	8.97	-30.2	-32.5	11.6	1.05e-03	0	43	0	973078528	20	4738
2026-01-03 08:23:11.52	353.67	8.91	-30.2	-32.6	11.6	7.97e-04	0	43	0	975175680	20	4754
2026-01-03 08:23:12.53	353.55	8.85	-30.2	-32.6	11.5	9.48e-04	0	43	0	976224256	20	4764
2026-01-03 08:23:13.53	353.44	8.78	-30.3	-33.0	11.3	7.98e-04	0	43	0	978321408	20	4908
2026-01-03 08:23:14.54	353.33	8.72	-30.2	-32.9	11.3	1.17e-03	0	43	0	980418560	20	4878
2026-01-03 08:23:15.54	353.21	8.66	-30.1	-32.6	11.5	7.95e-04	0	43	0	982515712	20	4771
2026-01-03 08:23:16.54	353.10	8.60	-30.1	-32.4	11.6	6.03e-04	0	43	0	984612864	20	4701
2026-01-03 08:23:17.55	352.99	8.54	-30.0	-32.2	11.8	5.64e-04	0	43	0	985661440	20	4619
2026-01-03 08:23:18.56	352.88	8.47	-30.1	-32.3	11.7	5.48e-04	0	43	0	987758592	20	4672
2026-01-03 08:23:19.57	352.77	8.41	-30.1	-32.5	11.5	7.32e-04	0	43	0	989855744	20	4743
2026-01-03 08:23:20.58	352.66	8.35	-30.2	-32.8	11.3	7.21e-04	0	43	0	991952896	20	4868
2026-01-03 08:23:21.58	352.55	8.29	-30.3	-33.0	11.2	1.71e-03	0	43	0	994050048	20	4922
2026-01-03 08:23:22.58	352.44	8.23	-30.3	-33.2	11.0	1.54e-03	0	43	0	995098624	20	5004
2026-01-03 08:23:23.59	352.33	8.16	-30.5	-33.2	10.6	2.78e-03	0	43	0	997195776	21	4935
2026-01-03 08:23:24.60	352.22	8.10	-30.5	-33.4	10.4	3.72e-03	0	43	0	999292928	21	5025
2026-01-03 08:23:25.61	352.11	8.04	-30.6	-33.6	10.4	4.41e-03	0	43	0	1001390080	21	5076
2026-01-03 08:23:26.62	352.00	7.98	-30.7	-33.9	10.1	7.44e-03	0	43	0	1003487232	21	5211
2026-01-03 08:23:27.62	351.89	7.92	-30.7	-33.9	10.1	6.28e-03	0	43	0	1004535808	21	5211
2026-01-03 08:23:28.63	351.79	7.85	-30.7	-33.9	10.0	7.49e-03	0	43	0	1006632960	21	5217
2026-01-03 08:23:29.64	351.68	7.79	-30.6	-33.5	10.4	6.35e-03	0	43	0	1008730112	21	5065
2026-01-03 08:23:30.65	351.57	7.73	-30.6	-33.8	10.2	4.90e-03	0	43	0	1010827264	21	5157
2026-01-03 08:23:31.65	351.47	7.67	-30.5	-33.3	10.5	4.88e-03	0	43	0	1012924416	21	4961
2026-01-03 08:23:32.65	351.36	7.61	-30.4	-33.0	10.8	3.47e-03	0	43	0	1013972992	21	4835
2026-01-03 08:23:33.66	351.26	7.55	-30.3	-32.7	10.9	2.22e-03	0	43	0	1016070144	21	4754
2026-01-03 08:23:34.67	351.16	7.49	-30.2	-32.5	11.1	1.55e-03	0	43	0	1018167296	21	4651
2026-01-03 08:23:35.67	351.05	7.42	-30.3	-32.5	11.1	1.36e-03	0	43	0	1020264448	21	4655
2026-01-03 08:23:36.67	350.95	7.36	-30.1	-32.0	11.5	1.29e-03	0	43	0	1021313024	21	4480
2026-01-03 08:23:37.68	350.85	7.30	-30.2	-32.5	11.0	1.62e-03	0	43	0	1023410176	21	4667
2026-01-03 08:23:38.68	350.74	7.24	-30.2	-32.3	11.2	1.68e-03	0	43	0	1025507328	21	4585
2026-01-03 08:23:39.68	350.64	7.18	-30.2	-32.3	11.2	1.05e-03	0	43	0	1027604480	21	4598
2026-01-03 08:23:40.69	350.54	7.12	-30.2	-32.5	11.1	1.33e-03	0	43	0	1029701632	21	4657
2026-01-03 08:23:41.69	350.44	7.06	-32.7	-44.3	3.7	1.22e-01	0	43	104	1030750208	25	13684
2026-01-03 08:23:42.70	350.34	7.00	-33.0	-45.0	3.8	1.49e+00	0	43	104	1030750208	26	14340

#Closed at: 2026-01-03 08:23:42
#Recorded file [1030 MB]: D:/data/31010_260103_111431.dat