passes_logs/2026/01/03/R2M6_AANII_01/R2M6_AANII_01__20260103_231121_NOAA_21_JPSS-2_rec.log

#Pass ID: 20260103_231121_NOAA 21 (JPSS-2)
#Satellite: NOAA 21 (JPSS-2)
#Configuration: NOAA 21
#almurnet v.1.7.20240730
#Start time: 2026-01-03 23:11:20

#Version: 2.2.20231116
#Station: R2M6_AANII_01
#Location: 30.233357 lon 59.946436 lat
#TLE: 1 54234U 22150A   26003.45311712  .00000198  00000+0  11468-3 0  9993
#TLE: 2 54234  98.7487 304.4932 0001159 347.5017  12.6130 14.19531745163172

#Time	Az	El	Level	Level2	SNR	BER	BlckErr	Temp	State	Recorded	gain1	gain2
2026-01-03 23:11:20.37	25.51	6.95	-29.8	-34.0	4.9	1.33e+00	0	40	0	0	19	5812
2026-01-03 23:11:21.36	25.58	7.02	-31.0	-36.6	4.6	1.40e+00	0	40	104	0	21	6886
2026-01-03 23:11:22.37	25.64	7.09	-31.3	-36.3	7.4	1.08e-01	0	40	0	0	22	6421
2026-01-03 23:11:23.38	25.71	7.16	-31.1	-35.8	7.8	9.75e-02	0	40	0	3145728	22	6167
2026-01-03 23:11:24.38	25.78	7.23	-31.0	-35.4	8.1	5.47e-02	0	40	0	6291456	22	5953
2026-01-03 23:11:25.39	25.85	7.31	-31.1	-35.6	7.9	7.87e-02	0	40	0	9437184	22	6065
2026-01-03 23:11:26.40	25.92	7.38	-30.9	-34.8	8.6	4.93e-02	0	41	0	12582912	22	5644
2026-01-03 23:11:27.40	25.99	7.45	-30.6	-34.4	9.2	2.63e-02	0	41	0	15728640	21	5603
2026-01-03 23:11:28.41	26.06	7.52	-30.2	-33.7	10.1	8.79e-03	0	41	0	18874368	20	5396
2026-01-03 23:11:29.41	26.13	7.59	-30.0	-33.1	10.5	4.53e-03	0	41	0	22020096	20	5160
2026-01-03 23:11:30.42	26.20	7.66	-29.8	-33.1	11.0	4.12e-03	0	41	0	25165824	19	5232
2026-01-03 23:11:31.42	26.28	7.73	-29.7	-32.9	11.1	3.21e-03	0	41	0	28311552	19	5165
2026-01-03 23:11:32.42	26.35	7.80	-29.9	-33.2	10.9	1.85e-03	0	41	0	31457280	19	5285
2026-01-03 23:11:33.43	26.42	7.88	-29.9	-33.3	10.8	3.46e-03	0	41	0	34603008	19	5347
2026-01-03 23:11:34.44	26.49	7.95	-29.6	-32.6	11.3	1.58e-03	0	41	0	37748736	19	5059
2026-01-03 23:11:35.44	26.56	8.02	-29.5	-32.2	11.6	7.80e-04	0	41	0	40894464	19	4925
2026-01-03 23:11:36.45	26.64	8.09	-29.4	-32.5	11.7	2.31e-03	0	41	0	44040192	18	5119
2026-01-03 23:11:37.45	26.71	8.16	-29.3	-32.2	11.9	2.09e-03	0	41	0	47185920	18	5028
2026-01-03 23:11:38.46	26.78	8.24	-29.3	-32.2	11.9	4.58e-04	0	41	0	49283072	18	5026
2026-01-03 23:11:39.46	26.86	8.31	-29.1	-31.7	12.2	2.08e-04	0	41	0	52428800	18	4857
2026-01-03 23:11:40.47	26.93	8.38	-29.1	-31.6	12.3	2.33e-03	0	41	0	56623104	18	4813
2026-01-03 23:11:41.47	27.01	8.46	-29.1	-31.7	12.3	1.57e-04	0	41	0	59768832	18	4826
2026-01-03 23:11:42.48	27.08	8.53	-29.2	-31.9	12.2	2.33e-03	0	41	0	62914560	18	4913
2026-01-03 23:11:43.49	27.16	8.60	-29.2	-31.8	12.3	2.17e-03	0	41	0	66060288	18	4861
2026-01-03 23:11:44.49	27.23	8.68	-29.1	-31.7	12.3	1.85e-04	0	41	0	69206016	18	4844
2026-01-03 23:11:45.50	27.31	8.75	-29.2	-32.0	12.2	2.11e-03	0	41	0	71303168	18	4930
2026-01-03 23:11:46.50	27.39	8.83	-29.2	-31.9	12.2	1.85e-03	0	41	0	74448896	18	4912
2026-01-03 23:11:47.51	27.46	8.90	-29.2	-32.0	12.1	2.36e-04	0	41	0	77594624	18	4926
2026-01-03 23:11:48.51	27.54	8.97	-29.3	-32.2	12.0	1.48e-03	0	41	0	80740352	18	5007
2026-01-03 23:11:49.51	27.62	9.05	-29.3	-32.2	12.0	3.53e-04	0	41	0	83886080	18	4996
2026-01-03 23:11:50.52	27.70	9.12	-29.1	-31.5	12.5	1.43e-04	0	41	0	88080384	18	4768
2026-01-03 23:11:51.53	27.78	9.20	-28.9	-31.6	12.7	1.20e-03	0	41	0	91226112	17	4908
2026-01-03 23:11:52.53	27.85	9.27	-28.8	-31.4	12.9	1.23e-03	0	41	0	94371840	17	4829
2026-01-03 23:11:53.53	27.93	9.35	-28.8	-31.2	13.0	4.19e-05	0	41	0	96468992	17	4791
2026-01-03 23:11:54.54	28.01	9.43	-28.8	-31.2	13.0	3.66e-05	0	41	0	99614720	17	4786
2026-01-03 23:11:55.55	28.09	9.50	-28.8	-31.3	12.9	4.19e-05	0	42	0	102760448	17	4821
2026-01-03 23:11:56.55	28.17	9.58	-29.0	-31.8	12.6	6.33e-05	0	41	0	105906176	17	4981
2026-01-03 23:11:57.55	28.25	9.65	-29.0	-31.3	12.7	1.86e-03	0	41	0	109051904	18	4689
2026-01-03 23:11:58.56	28.33	9.73	-28.8	-31.4	12.8	1.62e-03	0	41	0	112197632	17	4859
2026-01-03 23:11:59.56	28.42	9.81	-28.8	-31.4	12.8	5.03e-05	0	41	0	115343360	17	4856
2026-01-03 23:12:00.56	28.50	9.88	-28.9	-31.7	12.7	6.63e-05	0	42	0	118489088	17	4934
2026-01-03 23:12:01.57	28.58	9.96	-28.9	-31.6	12.8	7.01e-05	0	41	0	121634816	17	4895
2026-01-03 23:12:02.57	28.66	10.04	-29.0	-31.7	12.7	7.62e-05	0	41	0	124780544	17	4956
2026-01-03 23:12:03.57	28.74	10.11	-29.3	-32.0	12.3	1.76e-03	0	42	0	127926272	18	4919
2026-01-03 23:12:04.58	28.83	10.19	-29.2	-31.8	12.3	2.25e-04	0	41	0	131072000	18	4877
2026-01-03 23:12:05.59	28.91	10.27	-29.0	-31.2	12.7	7.47e-05	0	42	0	134217728	18	4674
2026-01-03 23:12:06.59	29.00	10.35	-28.8	-31.3	13.0	4.04e-05	0	41	0	137363456	17	4811
2026-01-03 23:12:07.60	29.08	10.42	-28.8	-31.2	13.1	2.89e-05	0	42	0	140509184	17	4771
2026-01-03 23:12:08.60	29.17	10.50	-28.8	-31.4	13.0	3.12e-05	0	42	0	143654912	17	4827
2026-01-03 23:12:09.61	29.25	10.58	-28.7	-31.1	13.1	3.12e-05	0	42	0	146800640	17	4726
2026-01-03 23:12:10.62	29.34	10.66	-28.4	-30.4	13.5	1.22e-05	0	42	0	149946368	17	4528
2026-01-03 23:12:11.63	29.43	10.74	-28.5	-30.6	13.5	1.06e-05	0	42	0	153092096	17	4580
2026-01-03 23:12:12.63	29.51	10.82	-28.5	-30.6	13.5	1.06e-05	0	42	0	156237824	17	4562
2026-01-03 23:12:13.64	29.60	10.90	-28.6	-30.9	13.3	1.37e-05	0	42	0	159383552	17	4655
2026-01-03 23:12:14.64	29.69	10.98	-28.5	-30.5	13.5	1.75e-05	0	42	0	162529280	17	4540
2026-01-03 23:12:15.65	29.78	11.06	-28.6	-30.8	13.4	1.06e-05	0	42	0	165675008	17	4624
2026-01-03 23:12:16.65	29.87	11.14	-28.6	-30.9	13.3	1.44e-05	0	42	0	168820736	17	4669
2026-01-03 23:12:17.65	29.95	11.22	-28.6	-30.8	13.4	1.29e-05	0	42	0	171966464	17	4624
2026-01-03 23:12:18.66	30.04	11.30	-28.8	-31.3	13.1	2.82e-05	0	42	0	175112192	17	4798
2026-01-03 23:12:19.67	30.13	11.38	-28.8	-31.4	13.0	3.35e-05	0	42	0	178257920	17	4840
2026-01-03 23:12:20.67	30.23	11.46	-28.8	-31.4	13.0	3.05e-05	0	42	0	181403648	17	4832
2026-01-03 23:12:21.68	30.32	11.54	-29.0	-31.7	12.8	4.65e-05	0	42	0	184549376	17	4926
2026-01-03 23:12:22.69	30.41	11.62	-28.9	-31.1	12.9	5.64e-05	0	42	0	187695104	18	4616
2026-01-03 23:12:23.69	30.50	11.70	-28.7	-30.5	13.3	2.44e-05	0	42	0	190840832	18	4436
2026-01-03 23:12:24.69	30.59	11.78	-28.5	-30.6	13.5	1.14e-05	0	42	0	193986560	17	4558
2026-01-03 23:12:25.69	30.69	11.86	-28.5	-30.5	13.5	9.10e-06	0	42	0	197132288	17	4549
2026-01-03 23:12:26.70	30.78	11.95	-28.5	-30.6	13.5	1.22e-05	0	42	0	200278016	17	4588
2026-01-03 23:12:27.70	30.87	12.03	-28.5	-30.6	13.6	1.22e-05	0	42	0	203423744	17	4561
2026-01-03 23:12:28.70	30.97	12.11	-28.7	-31.0	13.3	1.22e-05	0	42	0	206569472	17	4707
2026-01-03 23:12:29.71	31.06	12.19	-28.6	-30.8	13.5	9.10e-06	0	42	0	209715200	17	4622
2026-01-03 23:12:30.71	31.16	12.28	-28.5	-30.5	13.6	9.90e-06	0	42	0	212860928	17	4543
2026-01-03 23:12:31.72	31.25	12.36	-28.3	-30.6	13.9	1.50e-06	0	42	0	216006656	16	4682
2026-01-03 23:12:32.72	31.35	12.44	-28.3	-30.6	13.9	2.20e-06	0	42	0	219152384	16	4674
2026-01-03 23:12:33.73	31.45	12.53	-28.4	-30.9	13.7	6.80e-06	0	42	0	222298112	16	4780
2026-01-03 23:12:34.73	31.54	12.61	-28.5	-30.6	13.5	3.80e-06	0	42	0	225443840	17	4587
2026-01-03 23:12:35.73	31.64	12.69	-28.7	-30.9	13.3	1.29e-05	0	42	0	228589568	17	4680
2026-01-03 23:12:36.74	31.74	12.78	-28.6	-30.7	13.5	1.22e-05	0	42	0	231735296	17	4617
2026-01-03 23:12:37.75	31.84	12.86	-28.4	-30.3	13.8	3.00e-06	0	42	0	234881024	17	4470
2026-01-03 23:12:38.75	31.94	12.94	-28.3	-30.0	13.9	2.20e-06	0	42	0	238026752	17	4393
2026-01-03 23:12:39.76	32.04	13.03	-28.3	-30.5	13.9	1.50e-06	0	42	0	241172480	16	4648
2026-01-03 23:12:40.76	32.14	13.11	-28.3	-30.5	13.9	2.20e-06	0	42	0	244318208	16	4651
2026-01-03 23:12:41.77	32.24	13.20	-28.5	-31.0	13.7	8.30e-06	0	42	0	247463936	16	4792
2026-01-03 23:12:42.77	32.35	13.29	-28.4	-30.3	13.8	7.60e-06	0	42	0	250609664	17	4479
2026-01-03 23:12:43.78	32.45	13.37	-28.3	-30.5	14.0	3.00e-06	0	42	0	253755392	16	4645
2026-01-03 23:12:44.78	32.55	13.46	-28.3	-30.7	13.9	2.20e-06	0	42	0	256901120	16	4695
2026-01-03 23:12:45.78	32.65	13.54	-28.2	-30.3	14.1	7.00e-07	0	42	0	260046848	16	4579
2026-01-03 23:12:46.78	32.76	13.63	-28.1	-30.1	14.2	7.00e-07	0	42	0	263192576	16	4530
2026-01-03 23:12:47.79	32.86	13.71	-28.1	-30.0	14.3	0.00e+00	0	42	0	266338304	16	4507
2026-01-03 23:12:48.79	32.97	13.80	-28.1	-30.1	14.3	1.50e-06	0	42	0	269484032	16	4507
2026-01-03 23:12:49.80	33.07	13.89	-27.8	-30.0	14.4	7.00e-07	0	42	0	272629760	15	4601
2026-01-03 23:12:50.80	33.18	13.98	-27.8	-29.8	14.5	0.00e+00	0	42	0	275775488	15	4554
2026-01-03 23:12:51.81	33.29	14.06	-27.8	-29.9	14.5	2.20e-06	0	42	0	278921216	15	4571
2026-01-03 23:12:52.81	33.40	14.15	-27.7	-29.7	14.6	0.00e+00	0	42	0	282066944	15	4517
2026-01-03 23:12:53.82	33.50	14.24	-27.8	-29.9	14.5	0.00e+00	0	42	0	285212672	15	4569
2026-01-03 23:12:54.82	33.61	14.33	-27.6	-29.6	14.5	0.00e+00	0	42	0	288358400	15	4556
2026-01-03 23:12:55.83	33.72	14.41	-27.8	-30.0	14.5	0.00e+00	0	42	0	291504128	15	4601
2026-01-03 23:12:56.84	33.83	14.50	-27.9	-30.0	14.4	7.00e-07	0	42	0	294649856	15	4608
2026-01-03 23:12:57.85	33.95	14.59	-27.9	-30.1	14.4	0.00e+00	0	42	0	297795584	15	4648
2026-01-03 23:12:58.85	34.06	14.68	-27.9	-30.1	14.4	0.00e+00	0	42	0	300941312	15	4640
2026-01-03 23:12:59.86	34.17	14.77	-27.9	-30.0	14.5	0.00e+00	0	42	0	304087040	15	4624
2026-01-03 23:13:00.86	34.28	14.86	-27.9	-30.2	14.4	0.00e+00	0	42	0	307232768	15	4670
2026-01-03 23:13:01.87	34.40	14.95	-27.9	-30.0	14.4	2.20e-06	0	42	0	310378496	15	4625
2026-01-03 23:13:02.87	34.51	15.04	-27.8	-29.9	14.6	6.47e-04	0	42	0	313524224	15	4566
2026-01-03 23:13:03.87	34.62	15.13	-27.8	-29.9	14.5	7.00e-07	0	42	0	316669952	15	4585
2026-01-03 23:13:04.88	34.74	15.22	-27.8	-29.8	14.6	7.00e-07	0	42	0	319815680	15	4559
2026-01-03 23:13:05.89	34.86	15.31	-27.9	-30.2	14.4	7.00e-07	0	42	0	322961408	15	4655
2026-01-03 23:13:06.89	34.97	15.40	-27.9	-30.0	14.5	6.48e-04	0	42	0	326107136	15	4611
2026-01-03 23:13:07.90	35.09	15.49	-27.9	-30.1	14.5	2.20e-06	0	42	0	329252864	15	4632
2026-01-03 23:13:08.91	35.21	15.58	-28.2	-30.4	14.2	7.00e-07	0	42	0	332398592	16	4591
2026-01-03 23:13:09.92	35.33	15.68	-28.1	-30.1	14.3	2.20e-06	0	42	0	335544320	16	4531
2026-01-03 23:13:10.92	35.45	15.77	-28.1	-30.0	14.4	0.00e+00	0	42	0	338690048	16	4488
2026-01-03 23:13:11.93	35.57	15.86	-28.1	-30.1	14.4	3.97e-04	0	42	0	341835776	16	4515
2026-01-03 23:13:12.93	35.69	15.95	-28.0	-29.9	14.5	3.76e-04	0	42	0	344981504	16	4451
2026-01-03 23:13:13.94	35.81	16.05	-28.0	-29.9	14.5	7.00e-07	0	42	0	348127232	16	4454
2026-01-03 23:13:14.95	35.94	16.14	-28.1	-30.1	14.4	2.56e-04	0	42	0	351272960	16	4503
2026-01-03 23:13:15.96	36.06	16.23	-27.9	-29.6	14.7	2.58e-04	0	42	0	354418688	16	4365
2026-01-03 23:13:16.96	36.18	16.32	-27.9	-29.5	14.7	0.00e+00	0	42	0	357564416	16	4349
2026-01-03 23:13:17.96	36.31	16.42	-28.0	-29.7	14.7	2.43e-04	0	43	0	360710144	16	4380
2026-01-03 23:13:18.97	36.43	16.51	-27.9	-29.6	14.7	2.29e-04	0	42	0	363855872	16	4372
2026-01-03 23:13:19.98	36.56	16.61	-27.9	-29.6	14.7	1.50e-06	0	42	0	367001600	16	4368
2026-01-03 23:13:20.99	36.69	16.70	-28.0	-29.8	14.6	7.00e-07	0	42	0	370147328	16	4432
2026-01-03 23:13:22.00	36.82	16.80	-28.1	-29.9	14.5	3.08e-04	0	43	0	373293056	16	4459
2026-01-03 23:13:23.01	36.94	16.89	-28.1	-29.9	14.5	7.00e-07	0	42	0	376438784	16	4456
2026-01-03 23:13:24.01	37.07	16.98	-28.0	-29.7	14.6	3.27e-04	0	42	0	379584512	16	4405
2026-01-03 23:13:25.02	37.20	17.08	-28.0	-29.9	14.6	3.03e-04	0	43	0	382730240	16	4437
2026-01-03 23:13:26.02	37.33	17.18	-27.9	-29.6	14.7	0.00e+00	0	43	0	385875968	16	4368
2026-01-03 23:13:27.03	37.47	17.27	-28.1	-29.9	14.6	0.00e+00	0	42	0	389021696	16	4447
2026-01-03 23:13:28.04	37.60	17.37	-28.2	-30.3	14.3	2.63e-04	0	43	0	392167424	16	4585
2026-01-03 23:13:29.05	37.73	17.46	-28.1	-30.0	14.5	7.00e-07	0	43	0	395313152	16	4471
2026-01-03 23:13:30.04	37.87	17.56	-27.9	-29.5	14.8	1.91e-04	0	43	0	398458880	16	4337
2026-01-03 23:13:31.04	38.00	17.65	-27.9	-29.5	14.8	7.00e-07	0	43	0	401604608	16	4337
2026-01-03 23:13:32.05	38.14	17.75	-28.0	-29.8	14.6	0.00e+00	0	42	0	404750336	16	4418
2026-01-03 23:13:33.06	38.27	17.85	-28.1	-29.9	14.6	7.00e-07	0	43	0	407896064	16	4453
2026-01-03 23:13:34.06	38.41	17.95	-28.0	-29.7	14.7	7.00e-07	0	43	0	411041792	16	4399
2026-01-03 23:13:35.05	38.55	18.04	-28.0	-29.8	14.6	0.00e+00	0	43	0	414187520	16	4427
2026-01-03 23:13:36.06	38.69	18.14	-28.1	-30.1	14.5	0.00e+00	0	42	0	417333248	16	4505
2026-01-03 23:13:37.07	38.83	18.24	-28.0	-29.7	14.7	1.50e-06	0	43	0	420478976	16	4381
2026-01-03 23:13:38.07	38.97	18.34	-27.9	-29.5	14.8	0.00e+00	0	42	0	423624704	16	4330
2026-01-03 23:13:39.08	39.11	18.43	-27.9	-29.5	14.8	0.00e+00	0	43	0	426770432	16	4332
2026-01-03 23:13:40.09	39.25	18.53	-27.9	-29.5	14.8	0.00e+00	0	42	0	429916160	16	4343
2026-01-03 23:13:41.10	39.40	18.63	-28.0	-29.7	14.7	0.00e+00	0	43	0	433061888	16	4386
2026-01-03 23:13:42.10	39.54	18.73	-27.9	-29.4	14.9	0.00e+00	0	43	0	436207616	16	4305
2026-01-03 23:13:43.11	39.69	18.83	-27.8	-29.4	14.9	0.00e+00	0	42	0	439353344	16	4297
2026-01-03 23:13:44.11	39.83	18.93	-28.0	-29.7	14.8	0.00e+00	0	43	0	442499072	16	4374
2026-01-03 23:13:45.12	39.98	19.03	-27.9	-29.6	14.8	0.00e+00	0	42	0	445644800	16	4353
2026-01-03 23:13:46.13	40.13	19.13	-28.0	-29.7	14.8	0.00e+00	0	43	0	448790528	16	4386
2026-01-03 23:13:47.14	40.28	19.23	-28.1	-29.9	14.7	7.00e-07	0	43	0	451936256	16	4433
2026-01-03 23:13:48.14	40.43	19.33	-28.1	-30.0	14.6	0.00e+00	0	43	0	455081984	16	4472
2026-01-03 23:13:49.15	40.58	19.43	-27.9	-29.5	14.8	1.50e-06	0	43	0	458227712	16	4336
2026-01-03 23:13:50.16	40.74	19.53	-27.9	-29.6	14.8	0.00e+00	0	43	0	461373440	16	4354
2026-01-03 23:13:51.16	40.89	19.63	-27.9	-29.6	14.8	0.00e+00	0	43	0	464519168	16	4350
2026-01-03 23:13:52.16	41.04	19.73	-27.8	-29.2	15.0	0.00e+00	0	42	0	467664896	16	4233
2026-01-03 23:13:53.16	41.20	19.83	-27.7	-29.0	15.2	0.00e+00	0	43	0	470810624	16	4189
2026-01-03 23:13:54.17	41.35	19.94	-27.8	-29.3	15.0	0.00e+00	0	43	0	473956352	16	4256
2026-01-03 23:13:55.17	41.51	20.04	-27.7	-29.1	15.1	0.00e+00	0	42	0	477102080	16	4221
2026-01-03 23:13:56.18	41.67	20.14	-27.9	-29.6	14.8	0.00e+00	0	43	0	480247808	16	4354
2026-01-03 23:13:57.18	41.83	20.24	-27.7	-29.1	15.1	0.00e+00	0	43	0	483393536	16	4215
2026-01-03 23:13:58.19	41.99	20.35	-27.6	-28.8	15.3	0.00e+00	0	43	0	486539264	16	4135
2026-01-03 23:13:59.20	42.15	20.45	-27.5	-28.5	15.4	0.00e+00	0	43	0	489684992	16	4068
2026-01-03 23:14:00.20	42.31	20.55	-27.6	-28.8	15.3	0.00e+00	0	43	0	492830720	16	4130
2026-01-03 23:14:01.21	42.47	20.65	-27.6	-28.9	15.3	0.00e+00	0	43	0	495976448	16	4160
2026-01-03 23:14:02.21	42.64	20.76	-27.5	-28.5	15.5	0.00e+00	0	43	0	499122176	16	4052
2026-01-03 23:14:03.21	42.80	20.86	-27.4	-28.3	15.6	0.00e+00	0	43	0	502267904	16	4011
2026-01-03 23:14:04.22	42.97	20.96	-27.4	-28.4	15.6	0.00e+00	0	43	0	505413632	16	4016
2026-01-03 23:14:05.22	43.14	21.07	-27.3	-28.2	15.7	0.00e+00	0	43	0	508559360	16	3964
2026-01-03 23:14:06.22	43.30	21.17	-27.3	-28.2	15.7	0.00e+00	0	43	0	511705088	16	3969
2026-01-03 23:14:07.23	43.47	21.28	-27.3	-28.1	15.8	0.00e+00	0	43	0	514850816	16	3950
2026-01-03 23:14:08.23	43.64	21.38	-27.3	-28.2	15.7	0.00e+00	0	43	0	517996544	16	3966
2026-01-03 23:14:09.23	43.82	21.48	-27.1	-28.2	15.8	0.00e+00	0	43	0	521142272	15	4086
2026-01-03 23:14:10.24	43.99	21.59	-27.0	-28.0	15.9	0.00e+00	0	43	0	524288000	15	4046
2026-01-03 23:14:11.24	44.16	21.69	-27.1	-28.2	15.8	0.00e+00	0	43	0	527433728	15	4081
2026-01-03 23:14:12.24	44.34	21.80	-27.1	-28.3	15.8	0.00e+00	0	43	0	530579456	15	4101
2026-01-03 23:14:13.25	44.52	21.90	-26.9	-27.8	16.1	0.00e+00	0	43	0	533725184	15	3968
2026-01-03 23:14:14.26	44.69	22.01	-26.9	-27.6	16.2	0.00e+00	0	43	0	536870912	15	3938
2026-01-03 23:14:15.26	44.87	22.11	-26.9	-27.7	16.1	0.00e+00	0	43	0	540016640	15	3960
2026-01-03 23:14:16.27	45.05	22.22	-27.0	-28.0	15.9	0.00e+00	0	43	0	543162368	15	4029
2026-01-03 23:14:17.27	45.23	22.33	-27.0	-27.9	16.0	0.00e+00	0	43	0	546308096	15	4007
2026-01-03 23:14:18.28	45.42	22.43	-26.9	-27.8	16.0	0.00e+00	0	43	0	549453824	15	3990
2026-01-03 23:14:19.28	45.60	22.54	-26.9	-27.7	16.1	0.00e+00	0	42	0	552599552	15	3961
2026-01-03 23:14:20.29	45.79	22.64	-27.0	-27.9	16.0	0.00e+00	0	43	0	555745280	15	4003
2026-01-03 23:14:21.29	45.97	22.75	-26.9	-27.7	16.1	0.00e+00	0	43	0	558891008	15	3958
2026-01-03 23:14:22.30	46.16	22.86	-26.9	-27.7	16.1	0.00e+00	0	43	0	562036736	15	3943
2026-01-03 23:14:23.30	46.35	22.96	-26.9	-27.8	16.1	0.00e+00	0	43	0	565182464	15	3973
2026-01-03 23:14:24.30	46.54	23.07	-26.8	-27.6	16.2	0.00e+00	0	43	0	568328192	15	3922
2026-01-03 23:14:25.31	46.73	23.18	-26.8	-27.5	16.2	0.00e+00	0	43	0	571473920	15	3915
2026-01-03 23:14:26.31	46.92	23.28	-26.9	-27.7	16.2	0.00e+00	0	43	0	574619648	15	3941
2026-01-03 23:14:27.32	47.12	23.39	-26.8	-27.6	16.2	0.00e+00	0	43	0	577765376	15	3918
2026-01-03 23:14:28.32	47.31	23.50	-26.9	-27.7	16.1	0.00e+00	0	43	0	580911104	15	3952
2026-01-03 23:14:29.33	47.51	23.61	-26.8	-27.6	16.2	0.00e+00	0	43	0	584056832	15	3931
2026-01-03 23:14:30.34	47.71	23.72	-26.9	-27.6	16.2	0.00e+00	0	43	0	587202560	15	3938
2026-01-03 23:14:31.34	47.90	23.82	-26.8	-27.6	16.2	0.00e+00	0	43	0	590348288	15	3925
2026-01-03 23:14:32.35	48.11	23.93	-26.8	-28.0	16.3	0.00e+00	0	43	0	593494016	14	4121
2026-01-03 23:14:33.35	48.31	24.04	-26.8	-28.0	16.2	0.00e+00	0	43	0	596639744	14	4145
2026-01-03 23:14:34.35	48.51	24.15	-26.8	-28.0	16.2	0.00e+00	0	43	0	599785472	14	4148
2026-01-03 23:14:35.36	48.71	24.25	-26.9	-28.2	16.2	0.00e+00	0	43	0	602931200	14	4179
2026-01-03 23:14:36.36	48.92	24.36	-26.9	-28.2	16.2	0.00e+00	0	43	0	606076928	14	4182
2026-01-03 23:14:37.36	49.13	24.47	-26.9	-28.3	16.1	0.00e+00	0	43	0	609222656	14	4214
2026-01-03 23:14:38.37	49.33	24.58	-27.0	-28.5	16.0	0.00e+00	0	43	0	612368384	14	4261
2026-01-03 23:14:39.38	49.55	24.69	-26.9	-28.2	16.2	0.00e+00	0	43	0	615514112	14	4192
2026-01-03 23:14:40.38	49.76	24.80	-26.9	-28.2	16.1	0.00e+00	0	43	0	618659840	14	4198
2026-01-03 23:14:41.39	49.97	24.90	-26.9	-28.3	16.1	0.00e+00	0	43	0	621805568	14	4217
2026-01-03 23:14:42.40	50.19	25.01	-27.0	-28.4	16.1	0.00e+00	0	43	0	624951296	14	4237
2026-01-03 23:14:43.41	50.40	25.12	-27.0	-28.5	16.0	0.00e+00	0	43	0	628097024	14	4255
2026-01-03 23:14:44.41	50.62	25.23	-27.1	-28.6	15.9	0.00e+00	0	43	0	631242752	14	4299
2026-01-03 23:14:45.42	50.84	25.34	-27.1	-28.8	15.9	0.00e+00	0	43	0	634388480	14	4337
2026-01-03 23:14:46.43	51.06	25.45	-27.2	-28.9	15.8	0.00e+00	0	43	0	637534208	14	4385
2026-01-03 23:14:47.43	51.28	25.56	-27.2	-29.0	15.7	0.00e+00	0	43	0	640679936	14	4406
2026-01-03 23:14:48.43	51.50	25.66	-27.4	-29.3	15.6	0.00e+00	0	43	0	643825664	14	4486
2026-01-03 23:14:49.43	51.73	25.77	-27.4	-29.4	15.5	0.00e+00	0	43	0	646971392	14	4522
2026-01-03 23:14:50.44	51.95	25.88	-27.5	-29.0	15.5	0.00e+00	0	43	0	650117120	15	4305
2026-01-03 23:14:51.44	52.18	25.99	-27.5	-29.2	15.4	0.00e+00	0	43	0	653262848	15	4346
2026-01-03 23:14:52.44	52.41	26.10	-27.6	-29.3	15.3	0.00e+00	0	43	0	656408576	15	4368
2026-01-03 23:14:53.45	52.64	26.21	-27.5	-29.1	15.5	0.00e+00	0	43	0	659554304	15	4314
2026-01-03 23:14:54.46	52.88	26.32	-27.5	-29.1	15.4	0.00e+00	0	43	0	662700032	15	4323
2026-01-03 23:14:55.46	53.11	26.42	-27.5	-29.0	15.5	0.00e+00	0	42	0	665845760	15	4300
2026-01-03 23:14:56.47	53.34	26.53	-27.3	-28.6	15.7	0.00e+00	0	43	0	668991488	15	4186
2026-01-03 23:14:57.48	53.58	26.64	-27.4	-28.8	15.6	0.00e+00	0	43	0	672137216	15	4234
2026-01-03 23:14:58.49	53.82	26.75	-27.4	-28.9	15.6	0.00e+00	0	43	0	675282944	15	4263
2026-01-03 23:14:59.49	54.06	26.86	-27.5	-29.0	15.5	0.00e+00	0	43	0	678428672	15	4306
2026-01-03 23:15:00.50	54.31	26.97	-27.6	-29.2	15.4	0.00e+00	0	43	0	681574400	15	4354
2026-01-03 23:15:01.50	54.55	27.07	-27.6	-29.3	15.3	0.00e+00	0	43	0	684720128	15	4391
2026-01-03 23:15:02.51	54.79	27.18	-27.6	-29.4	15.3	0.00e+00	0	43	0	687865856	15	4399
2026-01-03 23:15:03.51	55.04	27.29	-27.6	-29.3	15.4	0.00e+00	0	43	0	691011584	15	4369
2026-01-03 23:15:04.52	55.29	27.40	-27.5	-29.1	15.5	0.00e+00	0	43	0	694157312	15	4331
2026-01-03 23:15:05.52	55.54	27.50	-27.6	-29.3	15.4	0.00e+00	0	43	0	697303040	15	4370
2026-01-03 23:15:06.52	55.79	27.61	-27.7	-29.5	15.2	0.00e+00	0	43	0	700448768	15	4430
2026-01-03 23:15:07.52	56.04	27.72	-27.7	-29.6	15.2	0.00e+00	0	43	0	703594496	15	4454
2026-01-03 23:15:08.52	56.29	27.82	-27.8	-29.6	15.2	7.00e-07	0	43	0	706740224	15	4468
2026-01-03 23:15:09.53	56.55	27.93	-27.8	-29.7	15.2	7.00e-07	0	43	0	709885952	15	4487
2026-01-03 23:15:10.53	56.81	28.04	-27.7	-29.6	15.2	7.00e-07	0	43	0	713031680	15	4447
2026-01-03 23:15:11.54	57.07	28.14	-27.6	-29.2	15.4	0.00e+00	0	43	0	716177408	15	4343
2026-01-03 23:15:12.54	57.33	28.25	-27.6	-29.3	15.4	0.00e+00	0	43	0	719323136	15	4369
2026-01-03 23:15:13.55	57.60	28.35	-27.5	-29.1	15.5	0.00e+00	0	43	0	722468864	15	4325
2026-01-03 23:15:14.57	57.87	28.46	-27.6	-29.2	15.5	0.00e+00	0	43	0	725614592	15	4343
2026-01-03 23:15:15.56	58.13	28.57	-27.7	-29.6	15.2	0.00e+00	0	43	0	728760320	15	4444
2026-01-03 23:15:16.58	58.40	28.67	-27.8	-29.7	15.2	7.00e-07	0	43	0	731906048	15	4478
2026-01-03 23:15:17.58	58.67	28.78	-27.7	-29.5	15.3	0.00e+00	0	43	0	735051776	15	4435
2026-01-03 23:15:18.58	58.94	28.88	-27.7	-29.6	15.3	0.00e+00	0	43	0	738197504	15	4446
2026-01-03 23:15:19.59	59.22	28.98	-27.7	-29.6	15.2	0.00e+00	0	43	0	741343232	15	4451
2026-01-03 23:15:20.60	59.49	29.09	-27.7	-29.5	15.3	0.00e+00	0	43	0	744488960	15	4428
2026-01-03 23:15:21.60	59.77	29.19	-27.7	-29.5	15.3	0.00e+00	0	43	0	747634688	15	4438
2026-01-03 23:15:22.61	60.05	29.30	-27.7	-29.4	15.3	0.00e+00	0	43	0	750780416	15	4399
2026-01-03 23:15:23.62	60.33	29.40	-27.6	-29.3	15.4	0.00e+00	0	43	0	753926144	15	4367
2026-01-03 23:15:24.62	60.61	29.50	-27.5	-29.1	15.5	0.00e+00	0	43	0	757071872	15	4328
2026-01-03 23:15:25.63	60.90	29.60	-27.5	-29.1	15.5	0.00e+00	0	43	0	760217600	15	4325
2026-01-03 23:15:26.63	61.19	29.71	-27.5	-29.0	15.5	0.00e+00	0	43	0	763363328	15	4298
2026-01-03 23:15:27.64	61.47	29.81	-27.6	-29.4	15.4	0.00e+00	0	43	0	766509056	15	4399
2026-01-03 23:15:28.65	61.77	29.91	-27.6	-29.3	15.4	1.50e-06	0	43	0	769654784	15	4382
2026-01-03 23:15:29.65	62.06	30.01	-27.7	-29.5	15.3	0.00e+00	0	43	0	772800512	15	4432
2026-01-03 23:15:30.66	62.35	30.11	-27.7	-29.5	15.3	0.00e+00	0	43	0	775946240	15	4437
2026-01-03 23:15:31.66	62.64	30.21	-27.8	-29.8	15.2	5.30e-06	0	43	0	778043392	15	4515
2026-01-03 23:15:32.66	62.94	30.31	-27.9	-30.1	15.0	0.00e+00	0	43	0	781189120	15	4594
2026-01-03 23:15:33.67	63.24	30.41	-27.8	-29.8	15.1	0.00e+00	0	43	0	785383424	15	4520
2026-01-03 23:15:34.68	63.54	30.50	-27.8	-29.6	15.2	0.00e+00	0	43	0	788529152	15	4470
2026-01-03 23:15:35.68	63.84	30.60	-27.7	-29.6	15.3	0.00e+00	0	43	0	791674880	15	4448
2026-01-03 23:15:36.69	64.15	30.70	-27.9	-30.0	15.1	0.00e+00	0	43	0	794820608	15	4578
2026-01-03 23:15:37.70	64.46	30.80	-27.8	-29.8	15.2	1.50e-06	0	43	0	797966336	15	4506
2026-01-03 23:15:38.70	64.76	30.89	-27.6	-29.2	15.5	0.00e+00	0	43	0	800063488	15	4348
2026-01-03 23:15:39.71	65.08	30.99	-27.5	-28.9	15.6	0.00e+00	0	43	0	803209216	15	4273
2026-01-03 23:15:40.72	65.39	31.08	-27.4	-28.8	15.7	0.00e+00	0	43	0	807403520	15	4228
2026-01-03 23:15:41.72	65.70	31.18	-27.6	-29.3	15.4	0.00e+00	0	43	0	810549248	15	4380
2026-01-03 23:15:42.73	66.02	31.27	-27.6	-29.3	15.5	0.00e+00	0	43	0	813694976	15	4368
2026-01-03 23:15:43.74	66.34	31.36	-28.0	-30.1	15.1	0.00e+00	0	43	0	816840704	15	4592
2026-01-03 23:15:44.75	66.66	31.46	-28.1	-29.8	15.1	0.00e+00	0	43	0	819986432	16	4385
2026-01-03 23:15:45.75	66.97	31.55	-28.0	-29.6	15.2	0.00e+00	0	43	0	823132160	16	4338
2026-01-03 23:15:46.77	67.30	31.64	-27.9	-29.5	15.2	0.00e+00	0	43	0	825229312	16	4301
2026-01-03 23:15:47.77	67.62	31.73	-27.9	-29.4	15.3	0.00e+00	0	43	0	829423616	16	4282
2026-01-03 23:15:48.78	67.95	31.82	-28.0	-29.5	15.2	0.00e+00	0	43	0	832569344	16	4318
2026-01-03 23:15:49.79	68.28	31.91	-27.8	-29.1	15.5	0.00e+00	0	43	0	835715072	16	4203
2026-01-03 23:15:50.79	68.61	32.00	-27.7	-29.0	15.5	0.00e+00	0	43	0	838860800	16	4163
2026-01-03 23:15:51.80	68.94	32.08	-27.9	-29.4	15.3	0.00e+00	0	43	0	842006528	16	4264
2026-01-03 23:15:52.81	69.28	32.17	-28.1	-29.8	15.1	0.00e+00	0	43	0	845152256	16	4374
2026-01-03 23:15:53.81	69.61	32.26	-28.3	-30.2	14.8	7.00e-07	0	43	0	847249408	16	4521
2026-01-03 23:15:54.82	69.95	32.34	-28.4	-30.5	14.7	0.00e+00	0	43	0	851443712	16	4604
2026-01-03 23:15:55.82	70.28	32.42	-28.5	-30.3	14.5	0.00e+00	0	43	0	854589440	17	4432
2026-01-03 23:15:56.83	70.63	32.51	-28.5	-30.2	14.6	1.50e-06	0	43	0	857735168	17	4388
2026-01-03 23:15:57.83	70.97	32.59	-28.4	-30.1	14.6	0.00e+00	0	43	0	860880896	17	4378
2026-01-03 23:15:58.84	71.31	32.67	-28.4	-30.0	14.7	0.00e+00	0	43	0	864026624	17	4342
2026-01-03 23:15:59.85	71.66	32.75	-28.5	-30.3	14.6	0.00e+00	0	43	0	867172352	17	4417
2026-01-03 23:16:00.85	72.00	32.83	-28.4	-30.1	14.6	0.00e+00	0	43	0	870318080	17	4374
2026-01-03 23:16:01.86	72.35	32.91	-28.5	-30.3	14.6	7.00e-07	0	43	0	872415232	17	4413
2026-01-03 23:16:02.86	72.70	32.99	-28.6	-30.6	14.4	7.00e-07	0	43	0	875560960	17	4518
2026-01-03 23:16:03.87	73.05	33.06	-28.6	-30.4	14.5	0.00e+00	0	43	0	879755264	17	4466
2026-01-03 23:16:04.87	73.41	33.14	-28.5	-30.4	14.5	0.00e+00	0	43	0	882900992	17	4444
2026-01-03 23:16:05.87	73.76	33.21	-28.5	-30.2	14.6	0.00e+00	0	43	0	886046720	17	4399
2026-01-03 23:16:06.87	74.11	33.29	-28.3	-29.9	14.7	0.00e+00	0	43	0	889192448	17	4296
2026-01-03 23:16:07.88	74.47	33.36	-28.4	-29.9	14.7	0.00e+00	0	43	0	892338176	17	4316
2026-01-03 23:16:08.89	74.83	33.43	-28.4	-30.1	14.6	7.00e-07	0	43	0	895483904	17	4377
2026-01-03 23:16:09.89	75.19	33.50	-28.5	-30.2	14.6	0.00e+00	0	43	0	897581056	17	4404
2026-01-03 23:16:10.90	75.56	33.57	-28.4	-30.1	14.7	0.00e+00	0	43	0	900726784	17	4356
2026-01-03 23:16:11.91	75.92	33.64	-28.3	-29.9	14.8	0.00e+00	0	43	0	903872512	17	4301
2026-01-03 23:16:12.91	76.29	33.71	-28.4	-29.9	14.7	0.00e+00	0	43	0	907018240	17	4322
2026-01-03 23:16:13.92	76.66	33.77	-28.3	-29.7	14.9	0.00e+00	0	43	0	911212544	17	4257
2026-01-03 23:16:14.93	77.03	33.84	-28.2	-29.6	14.9	0.00e+00	0	43	0	914358272	17	4232
2026-01-03 23:16:15.94	77.40	33.90	-28.4	-29.9	14.8	0.00e+00	0	43	0	917504000	17	4325
2026-01-03 23:16:16.94	77.77	33.97	-28.3	-29.9	14.8	0.00e+00	0	43	0	919601152	17	4299
2026-01-03 23:16:17.95	78.15	34.03	-28.4	-30.0	14.7	0.00e+00	0	43	0	922746880	17	4340
2026-01-03 23:16:18.95	78.52	34.09	-28.3	-29.8	14.8	0.00e+00	0	43	0	925892608	17	4265
2026-01-03 23:16:19.96	78.90	34.15	-28.4	-30.0	14.7	0.00e+00	0	43	0	929038336	17	4323
2026-01-03 23:16:20.96	79.27	34.20	-28.4	-30.0	14.7	0.00e+00	0	43	0	932184064	17	4339
2026-01-03 23:16:21.97	79.65	34.26	-28.5	-30.2	14.6	0.00e+00	0	43	0	936378368	17	4394
2026-01-03 23:16:22.98	80.03	34.32	-28.4	-30.1	14.7	0.00e+00	0	43	0	939524096	17	4355
2026-01-03 23:16:23.99	80.42	34.37	-28.4	-30.1	14.7	0.00e+00	0	43	0	942669824	17	4367
2026-01-03 23:16:24.99	80.80	34.42	-28.5	-30.4	14.5	0.00e+00	0	43	0	944766976	17	4452
2026-01-03 23:16:26.00	81.18	34.47	-28.8	-31.0	14.2	0.00e+00	0	43	0	947912704	17	4639
2026-01-03 23:16:27.01	81.57	34.52	-28.6	-30.5	14.4	1.50e-06	0	43	0	951058432	17	4492
2026-01-03 23:16:28.01	81.95	34.57	-28.5	-30.2	14.6	7.00e-07	0	43	0	954204160	17	4398
2026-01-03 23:16:29.01	82.34	34.62	-28.4	-30.0	14.7	0.00e+00	0	43	0	957349888	17	4320
2026-01-03 23:16:30.02	82.73	34.66	-28.4	-29.9	14.8	7.00e-07	0	43	0	961544192	17	4311
2026-01-03 23:16:31.03	83.12	34.71	-28.5	-30.3	14.5	0.00e+00	0	43	0	964689920	17	4415
2026-01-03 23:16:32.03	83.51	34.75	-28.3	-29.9	14.8	0.00e+00	0	43	0	966787072	17	4307
2026-01-03 23:16:33.04	83.90	34.79	-28.5	-30.3	14.5	0.00e+00	0	43	0	969932800	17	4425
2026-01-03 23:16:34.05	84.29	34.83	-28.5	-30.2	14.6	7.00e-07	0	43	0	973078528	17	4405
2026-01-03 23:16:35.06	84.69	34.87	-28.6	-30.5	14.5	7.00e-07	0	43	0	976224256	17	4472
2026-01-03 23:16:36.06	85.08	34.91	-28.5	-30.4	14.5	7.00e-07	0	43	0	979369984	17	4440
2026-01-03 23:16:37.07	85.48	34.95	-28.7	-30.8	14.3	0.00e+00	0	43	0	983564288	17	4573
2026-01-03 23:16:38.08	85.88	34.98	-28.8	-30.9	14.2	0.00e+00	0	43	0	986710016	17	4598
2026-01-03 23:16:39.08	86.27	35.01	-28.9	-31.3	13.9	1.50e-06	0	43	0	989855744	17	4732
2026-01-03 23:16:40.09	86.67	35.05	-29.2	-31.3	13.7	1.22e-05	0	43	0	991952896	18	4618
2026-01-03 23:16:41.10	87.07	35.08	-28.9	-30.7	14.1	3.80e-06	0	43	0	995098624	18	4440
2026-01-03 23:16:42.10	87.47	35.10	-28.8	-30.4	14.2	7.00e-07	0	43	0	998244352	18	4352
2026-01-03 23:16:43.10	87.87	35.13	-28.8	-30.5	14.2	7.00e-07	0	43	0	1001390080	18	4363
2026-01-03 23:16:44.11	88.27	35.16	-28.8	-30.5	14.2	2.20e-06	0	43	0	1004535808	18	4364
2026-01-03 23:16:45.11	88.67	35.18	-28.9	-30.7	14.1	1.50e-06	0	43	0	1007681536	18	4419
2026-01-03 23:16:46.12	89.07	35.20	-28.7	-30.3	14.3	0.00e+00	0	43	0	1011875840	18	4303
2026-01-03 23:16:47.12	89.47	35.22	-28.7	-30.2	14.3	7.00e-07	0	43	0	1013972992	18	4286
2026-01-03 23:16:48.13	89.87	35.24	-28.8	-30.5	14.2	1.50e-06	0	43	0	1017118720	18	4361
2026-01-03 23:16:49.13	90.27	35.26	-28.5	-29.8	14.6	7.00e-07	0	43	0	1020264448	18	4174
2026-01-03 23:16:50.14	90.68	35.28	-28.3	-29.3	14.8	0.00e+00	0	43	0	1023410176	18	4041
2026-01-03 23:16:51.15	91.09	35.29	-28.2	-29.6	14.9	0.00e+00	0	43	0	1026555904	17	4232
2026-01-03 23:16:52.15	91.49	35.31	-28.3	-29.8	14.8	7.00e-07	0	43	0	1029701632	17	4277
2026-01-03 23:16:53.15	91.89	35.32	-28.3	-29.8	14.8	0.00e+00	0	43	0	1032847360	17	4289
2026-01-03 23:16:54.16	92.30	35.33	-28.5	-30.2	14.6	0.00e+00	0	43	0	1035993088	17	4390
2026-01-03 23:16:55.17	92.70	35.34	-28.5	-30.2	14.6	0.00e+00	0	43	0	1039138816	17	4398
2026-01-03 23:16:56.17	93.11	35.34	-28.5	-30.3	14.6	7.00e-07	0	43	0	1042284544	17	4436
2026-01-03 23:16:57.18	93.51	35.35	-28.4	-30.1	14.7	0.00e+00	0	43	0	1045430272	17	4359
2026-01-03 23:16:58.18	93.92	35.35	-28.5	-30.3	14.5	0.00e+00	0	43	0	1048576000	17	4411
2026-01-03 23:16:59.19	94.33	35.35	-28.7	-30.6	14.3	0.00e+00	0	43	0	1051721728	17	4526
2026-01-03 23:17:00.19	94.73	35.36	-28.5	-30.3	14.6	1.50e-06	0	43	0	1054867456	17	4416
2026-01-03 23:17:01.20	95.14	35.35	-28.5	-30.2	14.7	7.00e-07	0	43	0	1058013184	17	4381
2026-01-03 23:17:02.19	95.54	35.35	-28.4	-30.1	14.6	7.00e-07	0	43	0	1061158912	17	4373
2026-01-03 23:17:03.20	95.94	35.35	-28.5	-30.2	14.6	0.00e+00	0	43	0	1064304640	17	4394
2026-01-03 23:17:04.20	96.35	35.34	-28.4	-29.9	14.8	0.00e+00	0	43	0	1067450368	17	4307
2026-01-03 23:17:05.21	96.75	35.33	-28.3	-29.8	14.8	0.00e+00	0	43	0	1070596096	17	4280
2026-01-03 23:17:06.21	97.16	35.33	-28.4	-30.0	14.7	0.00e+00	0	43	0	1073741824	17	4324
2026-01-03 23:17:07.21	97.56	35.32	-28.4	-29.9	14.8	0.00e+00	0	43	0	1076887552	17	4309
2026-01-03 23:17:08.22	97.97	35.30	-28.4	-30.0	14.7	0.00e+00	0	43	0	1080033280	17	4343
2026-01-03 23:17:09.23	98.37	35.29	-28.4	-30.1	14.6	7.00e-07	0	43	0	1083179008	17	4372
2026-01-03 23:17:10.23	98.77	35.28	-28.4	-30.0	14.7	0.00e+00	0	43	0	1086324736	17	4341
2026-01-03 23:17:11.24	99.18	35.26	-28.4	-30.0	14.7	0.00e+00	0	43	0	1089470464	17	4319
2026-01-03 23:17:12.25	99.58	35.24	-28.2	-29.5	15.0	1.50e-06	0	43	0	1092616192	17	4196
2026-01-03 23:17:13.26	99.99	35.22	-28.2	-29.7	14.9	0.00e+00	0	43	0	1095761920	17	4237
2026-01-03 23:17:14.27	100.39	35.20	-28.4	-30.0	14.7	0.00e+00	0	43	0	1098907648	17	4348
2026-01-03 23:17:15.27	100.79	35.18	-28.5	-30.2	14.6	6.10e-06	0	43	0	1102053376	17	4398
2026-01-03 23:17:16.27	101.19	35.15	-28.5	-30.2	14.6	7.00e-07	0	43	0	1105199104	17	4401
2026-01-03 23:17:17.28	101.59	35.13	-28.5	-30.3	14.6	7.00e-07	0	43	0	1108344832	17	4425
2026-01-03 23:17:18.28	101.99	35.10	-28.5	-30.3	14.6	5.30e-06	0	43	0	1111490560	17	4406
2026-01-03 23:17:19.29	102.39	35.07	-28.6	-30.6	14.4	7.00e-07	0	43	0	1114636288	17	4505
2026-01-03 23:17:20.30	102.79	35.04	-29.0	-31.0	13.9	1.50e-06	0	43	0	1117782016	18	4510
2026-01-03 23:17:21.30	103.19	35.01	-29.0	-30.9	13.9	2.20e-06	0	43	0	1120927744	18	4483
2026-01-03 23:17:22.31	103.59	34.97	-28.9	-30.7	14.1	2.20e-06	0	43	0	1124073472	18	4416
2026-01-03 23:17:23.31	103.98	34.94	-28.9	-30.7	14.1	2.20e-06	0	43	0	1127219200	18	4422
2026-01-03 23:17:24.32	104.38	34.90	-28.8	-30.5	14.1	1.50e-06	0	43	0	1130364928	18	4371
2026-01-03 23:17:25.32	104.77	34.87	-28.8	-30.4	14.2	7.00e-07	0	43	0	1133510656	18	4346
2026-01-03 23:17:26.32	105.16	34.83	-28.9	-30.8	14.0	5.30e-06	0	43	0	1136656384	18	4468
2026-01-03 23:17:27.33	105.56	34.79	-29.2	-31.3	13.7	7.60e-06	0	43	0	1139802112	18	4622
2026-01-03 23:17:28.34	105.95	34.74	-28.8	-30.5	14.1	3.80e-06	0	43	0	1142947840	18	4383
2026-01-03 23:17:29.35	106.35	34.70	-28.6	-30.0	14.4	7.00e-07	0	43	0	1146093568	18	4228
2026-01-03 23:17:30.35	106.73	34.66	-28.5	-29.8	14.6	7.00e-07	0	43	0	1149239296	18	4180
2026-01-03 23:17:31.36	107.12	34.61	-28.7	-30.1	14.4	2.20e-06	0	43	0	1152385024	18	4268
2026-01-03 23:17:32.36	107.51	34.56	-28.7	-30.1	14.4	0.00e+00	0	43	0	1155530752	18	4268
2026-01-03 23:17:33.37	107.90	34.51	-28.8	-30.4	14.2	2.20e-06	0	43	0	1158676480	18	4341
2026-01-03 23:17:34.38	108.28	34.46	-28.8	-30.4	14.2	0.00e+00	0	43	0	1161822208	18	4340
2026-01-03 23:17:35.38	108.67	34.41	-28.7	-30.3	14.3	2.20e-06	0	43	0	1164967936	18	4324
2026-01-03 23:17:36.38	109.05	34.36	-28.7	-30.1	14.3	7.00e-07	0	43	0	1168113664	18	4272
2026-01-03 23:17:37.38	109.43	34.30	-28.5	-29.8	14.5	0.00e+00	0	43	0	1171259392	18	4177
2026-01-03 23:17:38.39	109.81	34.25	-28.5	-29.8	14.5	1.50e-06	0	43	0	1174405120	18	4174
2026-01-03 23:17:39.39	110.19	34.19	-28.5	-29.8	14.5	1.50e-06	0	43	0	1177550848	18	4180
2026-01-03 23:17:40.39	110.56	34.13	-28.5	-29.8	14.5	7.00e-07	0	43	0	1180696576	18	4172
2026-01-03 23:17:41.40	110.94	34.08	-28.6	-30.1	14.4	0.00e+00	0	43	0	1183842304	18	4250
2026-01-03 23:17:42.41	111.32	34.01	-28.5	-29.9	14.5	7.00e-07	0	43	0	1186988032	18	4203
2026-01-03 23:17:43.41	111.69	33.95	-28.6	-30.1	14.4	0.00e+00	0	43	0	1190133760	18	4259
2026-01-03 23:17:44.42	112.06	33.89	-28.6	-30.1	14.4	0.00e+00	0	43	0	1193279488	18	4247
2026-01-03 23:17:45.42	112.43	33.83	-28.5	-29.8	14.5	0.00e+00	0	43	0	1196425216	18	4186
2026-01-03 23:17:46.43	112.80	33.76	-28.4	-29.6	14.6	0.00e+00	0	43	0	1199570944	18	4122
2026-01-03 23:17:47.43	113.17	33.69	-28.4	-29.5	14.7	0.00e+00	0	43	0	1202716672	18	4102
2026-01-03 23:17:48.44	113.54	33.63	-28.3	-29.3	14.8	7.00e-07	0	43	0	1205862400	18	4055
2026-01-03 23:17:49.44	113.90	33.56	-28.4	-29.7	14.6	0.00e+00	0	43	0	1209008128	18	4138
2026-01-03 23:17:50.45	114.27	33.49	-28.7	-30.3	14.2	7.00e-07	0	43	0	1212153856	18	4309
2026-01-03 23:17:51.46	114.63	33.42	-28.8	-30.5	14.1	3.00e-06	0	43	0	1215299584	18	4368
2026-01-03 23:17:52.46	114.99	33.34	-28.6	-30.0	14.4	1.50e-06	0	43	0	1218445312	18	4239
2026-01-03 23:17:53.47	115.35	33.27	-28.5	-29.7	14.6	7.00e-07	0	43	0	1221591040	18	4140
2026-01-03 23:17:54.48	115.71	33.20	-28.5	-29.8	14.5	7.00e-07	0	43	0	1224736768	18	4181
2026-01-03 23:17:55.49	116.07	33.12	-28.4	-29.7	14.6	0.00e+00	0	43	0	1227882496	18	4137
2026-01-03 23:17:56.50	116.42	33.05	-28.2	-29.6	14.8	0.00e+00	0	43	0	1231028224	17	4238
2026-01-03 23:17:57.51	116.77	32.97	-28.3	-29.7	14.8	0.00e+00	0	43	0	1234173952	17	4262
2026-01-03 23:17:58.51	117.12	32.89	-28.3	-29.9	14.7	0.00e+00	0	43	0	1237319680	17	4327
2026-01-03 23:17:59.52	117.47	32.81	-28.4	-30.0	14.7	7.00e-07	0	43	0	1240465408	17	4340
2026-01-03 23:18:00.52	117.82	32.73	-28.6	-30.5	14.4	7.00e-07	0	43	0	1243611136	17	4490
2026-01-03 23:18:01.53	118.17	32.65	-28.5	-30.3	14.4	0.00e+00	0	43	0	1246756864	17	4434
2026-01-03 23:18:02.53	118.51	32.57	-28.2	-29.5	14.9	6.80e-06	0	43	0	1249902592	17	4199
2026-01-03 23:18:03.54	118.85	32.48	-27.9	-28.9	15.2	0.00e+00	0	43	0	1253048320	17	4045
2026-01-03 23:18:04.54	119.19	32.40	-28.0	-29.2	15.1	0.00e+00	0	43	0	1256194048	17	4119
2026-01-03 23:18:05.55	119.53	32.32	-28.0	-29.1	15.1	0.00e+00	0	43	0	1259339776	17	4109
2026-01-03 23:18:06.55	119.87	32.23	-28.0	-29.2	15.1	7.00e-07	0	43	0	1262485504	17	4120
2026-01-03 23:18:07.56	120.21	32.15	-28.1	-29.5	14.9	0.00e+00	0	43	0	1265631232	17	4195
2026-01-03 23:18:08.57	120.54	32.06	-27.9	-29.0	15.2	5.30e-06	0	43	0	1268776960	17	4054
2026-01-03 23:18:09.58	120.87	31.97	-27.8	-28.8	15.3	0.00e+00	0	43	0	1271922688	17	4005
2026-01-03 23:18:10.58	121.20	31.88	-27.9	-29.0	15.2	0.00e+00	0	43	0	1275068416	17	4062
2026-01-03 23:18:11.58	121.53	31.79	-28.1	-29.3	15.0	6.80e-06	0	43	0	1278214144	17	4152
2026-01-03 23:18:12.59	121.86	31.70	-28.1	-29.3	15.0	0.00e+00	0	43	0	1281359872	17	4162
2026-01-03 23:18:13.60	122.18	31.61	-28.0	-29.2	15.0	0.00e+00	0	43	0	1284505600	17	4131
2026-01-03 23:18:14.61	122.51	31.52	-27.7	-29.0	15.4	0.00e+00	0	43	0	1287651328	16	4178
2026-01-03 23:18:15.61	122.83	31.43	-27.5	-28.5	15.7	0.00e+00	0	43	0	1290797056	16	4048
2026-01-03 23:18:16.61	123.15	31.33	-27.6	-28.7	15.6	0.00e+00	0	43	0	1293942784	16	4084
2026-01-03 23:18:17.62	123.47	31.24	-27.6	-28.6	15.6	5.30e-06	0	43	0	1297088512	16	4078
2026-01-03 23:18:18.62	123.78	31.15	-27.4	-28.4	15.8	0.00e+00	0	43	0	1300234240	16	4020
2026-01-03 23:18:19.63	124.09	31.05	-27.5	-28.5	15.8	0.00e+00	0	43	0	1303379968	16	4035
2026-01-03 23:18:20.63	124.41	30.96	-27.6	-28.7	15.6	0.00e+00	0	43	0	1306525696	16	4108
2026-01-03 23:18:21.63	124.71	30.86	-27.8	-29.1	15.4	0.00e+00	0	43	0	1309671424	16	4205
2026-01-03 23:18:22.63	125.02	30.77	-27.8	-29.3	15.3	0.00e+00	0	43	0	1312817152	16	4260
2026-01-03 23:18:23.64	125.33	30.67	-27.8	-29.2	15.3	0.00e+00	0	43	0	1315962880	16	4222
2026-01-03 23:18:24.64	125.63	30.57	-27.8	-29.1	15.4	7.00e-07	0	43	0	1319108608	16	4217
2026-01-03 23:18:25.65	125.94	30.47	-27.8	-29.1	15.4	0.00e+00	0	43	0	1322254336	16	4198
2026-01-03 23:18:26.66	126.24	30.37	-27.9	-29.5	15.2	0.00e+00	0	43	0	1325400064	16	4297
2026-01-03 23:18:27.67	126.54	30.27	-27.9	-29.5	15.1	0.00e+00	0	43	0	1328545792	16	4308
2026-01-03 23:18:28.67	126.84	30.17	-27.9	-29.5	15.1	0.00e+00	0	43	0	1331691520	16	4309
2026-01-03 23:18:29.68	127.14	30.07	-28.0	-29.6	15.0	0.00e+00	0	43	0	1334837248	16	4352
2026-01-03 23:18:30.69	127.43	29.97	-28.2	-30.1	14.8	0.00e+00	0	43	0	1337982976	16	4475
2026-01-03 23:18:31.69	127.72	29.87	-28.1	-29.9	14.9	0.00e+00	0	43	0	1341128704	16	4434
2026-01-03 23:18:32.69	128.01	29.77	-27.9	-29.4	15.2	0.00e+00	0	43	0	1344274432	16	4290
2026-01-03 23:18:33.70	128.30	29.67	-27.8	-29.1	15.3	0.00e+00	0	43	0	1347420160	16	4214
2026-01-03 23:18:34.70	128.59	29.57	-27.6	-28.7	15.6	7.00e-07	0	43	0	1350565888	16	4091
2026-01-03 23:18:35.71	128.87	29.46	-27.7	-28.9	15.4	0.00e+00	0	43	0	1353711616	16	4160
2026-01-03 23:18:36.71	129.16	29.36	-27.6	-28.7	15.5	0.00e+00	0	43	0	1356857344	16	4088
2026-01-03 23:18:37.72	129.44	29.26	-27.4	-28.2	15.8	0.00e+00	0	43	0	1360003072	16	3964
2026-01-03 23:18:38.73	129.72	29.15	-27.3	-28.2	15.8	0.00e+00	0	43	0	1363148800	16	3953
2026-01-03 23:18:39.73	130.00	29.05	-27.3	-28.1	15.8	0.00e+00	0	43	0	1366294528	16	3940
2026-01-03 23:18:40.74	130.27	28.94	-27.3	-28.1	15.8	0.00e+00	0	43	0	1369440256	16	3946
2026-01-03 23:18:41.75	130.55	28.84	-27.2	-28.3	15.9	0.00e+00	0	43	0	1372585984	15	4100
2026-01-03 23:18:42.76	130.82	28.73	-27.0	-27.9	16.1	0.00e+00	0	43	0	1375731712	15	3988
2026-01-03 23:18:43.77	131.10	28.62	-26.9	-27.6	16.2	0.00e+00	0	43	0	1378877440	15	3936
2026-01-03 23:18:44.77	131.36	28.52	-26.9	-27.6	16.2	0.00e+00	0	43	0	1382023168	15	3925
2026-01-03 23:18:45.77	131.63	28.41	-27.0	-28.0	16.0	0.00e+00	0	43	0	1385168896	15	4032
2026-01-03 23:18:46.78	131.90	28.31	-27.1	-28.2	15.9	0.00e+00	0	43	0	1388314624	15	4091
2026-01-03 23:18:47.78	132.16	28.20	-27.4	-28.9	15.5	0.00e+00	0	43	0	1391460352	15	4272
2026-01-03 23:18:48.78	132.42	28.09	-27.4	-29.0	15.5	0.00e+00	0	43	0	1394606080	15	4284
2026-01-03 23:18:49.79	132.68	27.99	-27.6	-29.3	15.3	0.00e+00	0	43	0	1397751808	15	4378
2026-01-03 23:18:50.80	132.94	27.88	-27.5	-29.1	15.4	0.00e+00	0	43	0	1400897536	15	4328
2026-01-03 23:18:51.80	133.20	27.77	-27.5	-29.0	15.5	0.00e+00	0	43	0	1404043264	15	4296
2026-01-03 23:18:52.80	133.45	27.67	-27.5	-29.2	15.4	0.00e+00	0	43	0	1407188992	15	4336
2026-01-03 23:18:53.81	133.71	27.56	-27.8	-29.7	15.1	0.00e+00	0	43	0	1410334720	15	4486
2026-01-03 23:18:54.82	133.96	27.45	-27.6	-29.3	15.2	0.00e+00	0	43	0	1413480448	15	4390
2026-01-03 23:18:55.82	134.21	27.34	-27.3	-28.6	15.6	0.00e+00	0	43	0	1416626176	15	4203
2026-01-03 23:18:56.82	134.46	27.23	-27.2	-28.3	15.8	0.00e+00	0	43	0	1419771904	15	4123
2026-01-03 23:18:57.83	134.71	27.12	-27.1	-28.3	15.8	6.10e-06	0	43	0	1422917632	15	4102
2026-01-03 23:18:58.84	134.96	27.02	-27.2	-28.4	15.8	0.00e+00	0	43	0	1426063360	15	4130
2026-01-03 23:18:59.85	135.20	26.91	-27.1	-28.2	15.8	0.00e+00	0	43	0	1429209088	15	4094
2026-01-03 23:19:00.86	135.44	26.80	-26.9	-27.9	16.0	0.00e+00	0	43	0	1432354816	15	3998
2026-01-03 23:19:01.86	135.68	26.69	-27.0	-28.0	16.0	8.30e-06	0	43	0	1435500544	15	4023
2026-01-03 23:19:02.87	135.92	26.58	-27.1	-28.2	15.9	0.00e+00	0	43	0	1438646272	15	4078
2026-01-03 23:19:03.87	136.16	26.47	-27.1	-28.1	15.9	0.00e+00	0	43	0	1441792000	15	4064
2026-01-03 23:19:04.88	136.40	26.36	-27.0	-27.9	16.0	1.06e-05	0	43	0	1444937728	15	4001
2026-01-03 23:19:05.88	136.63	26.25	-27.0	-27.9	16.0	0.00e+00	0	43	0	1448083456	15	4014
2026-01-03 23:19:06.87	136.86	26.15	-27.2	-28.5	15.7	0.00e+00	0	43	0	1451229184	15	4168
2026-01-03 23:19:07.88	137.09	26.04	-27.2	-28.4	15.7	5.18e-05	0	43	0	1454374912	15	4145
2026-01-03 23:19:08.89	137.32	25.93	-27.5	-29.0	15.4	0.00e+00	0	43	0	1457520640	15	4308
2026-01-03 23:19:09.90	137.55	25.82	-27.3	-28.7	15.6	0.00e+00	0	43	0	1460666368	15	4211
2026-01-03 23:19:10.91	137.78	25.71	-27.2	-28.5	15.7	3.80e-06	0	43	0	1463812096	15	4158
2026-01-03 23:19:11.91	138.01	25.60	-27.2	-28.3	15.8	0.00e+00	0	43	0	1466957824	15	4121
2026-01-03 23:19:12.92	138.23	25.49	-27.2	-28.3	15.7	0.00e+00	0	43	0	1470103552	15	4123
2026-01-03 23:19:13.93	138.45	25.38	-27.0	-28.1	15.9	0.00e+00	0	43	0	1473249280	15	4054
2026-01-03 23:19:14.94	138.67	25.27	-27.0	-28.0	15.9	0.00e+00	0	43	0	1476395008	15	4026
2026-01-03 23:19:15.94	138.89	25.16	-27.1	-28.2	15.8	0.00e+00	0	43	0	1479540736	15	4085
2026-01-03 23:19:16.95	139.11	25.05	-26.8	-27.5	16.1	9.10e-06	0	43	0	1482686464	15	3922
2026-01-03 23:19:17.95	139.33	24.94	-26.8	-27.9	16.2	0.00e+00	0	43	0	1485832192	14	4128
2026-01-03 23:19:18.96	139.54	24.83	-26.8	-28.1	16.1	0.00e+00	0	43	0	1488977920	14	4162
2026-01-03 23:19:19.97	139.76	24.72	-26.8	-28.0	16.1	0.00e+00	0	43	0	1492123648	14	4148
2026-01-03 23:19:20.97	139.97	24.61	-26.9	-28.2	16.0	0.00e+00	0	43	0	1495269376	14	4204
2026-01-03 23:19:21.98	140.18	24.50	-27.0	-28.5	15.9	0.00e+00	0	43	0	1498415104	14	4265
2026-01-03 23:19:22.98	140.39	24.39	-26.9	-28.3	15.9	0.00e+00	0	43	0	1501560832	14	4231
2026-01-03 23:19:23.98	140.59	24.29	-27.0	-28.4	15.9	0.00e+00	0	43	0	1504706560	14	4256
2026-01-03 23:19:24.99	140.80	24.18	-27.0	-28.5	15.9	0.00e+00	0	43	0	1507852288	14	4263
2026-01-03 23:19:26.00	141.01	24.07	-27.0	-28.6	15.8	0.00e+00	0	43	0	1510998016	14	4300
2026-01-03 23:19:27.00	141.21	23.96	-27.0	-28.5	15.8	0.00e+00	0	43	0	1514143744	14	4277
2026-01-03 23:19:28.01	141.41	23.85	-27.2	-28.9	15.6	0.00e+00	0	43	0	1517289472	14	4379
2026-01-03 23:19:29.02	141.61	23.74	-27.0	-28.5	15.8	0.00e+00	0	43	0	1520435200	14	4290
2026-01-03 23:19:30.03	141.81	23.63	-27.0	-28.4	15.9	0.00e+00	0	43	0	1523580928	14	4248
2026-01-03 23:19:31.04	142.01	23.52	-27.0	-28.6	15.7	0.00e+00	0	43	0	1526726656	14	4311
2026-01-03 23:19:32.05	142.21	23.41	-27.0	-28.5	15.8	0.00e+00	0	43	0	1529872384	14	4267
2026-01-03 23:19:33.05	142.41	23.31	-27.1	-28.7	15.7	0.00e+00	0	43	0	1533018112	14	4342
2026-01-03 23:19:34.06	142.60	23.20	-27.0	-28.5	15.8	0.00e+00	0	43	0	1536163840	14	4274
2026-01-03 23:19:35.06	142.79	23.09	-27.1	-28.6	15.7	0.00e+00	0	43	0	1539309568	14	4319
2026-01-03 23:19:36.07	142.98	22.98	-27.0	-28.5	15.8	0.00e+00	0	43	0	1542455296	14	4266
2026-01-03 23:19:37.08	143.18	22.87	-27.1	-28.6	15.7	0.00e+00	0	43	0	1545601024	14	4312
2026-01-03 23:19:38.08	143.36	22.77	-27.1	-28.8	15.6	0.00e+00	0	43	0	1548746752	14	4372
2026-01-03 23:19:39.09	143.55	22.66	-27.3	-29.2	15.4	0.00e+00	0	43	0	1551892480	14	4469
2026-01-03 23:19:40.10	143.74	22.55	-27.3	-29.2	15.4	0.00e+00	0	43	0	1555038208	14	4477
2026-01-03 23:19:41.10	143.92	22.44	-27.4	-29.5	15.2	0.00e+00	0	43	0	1558183936	14	4577
2026-01-03 23:19:42.11	144.11	22.34	-27.4	-29.4	15.2	0.00e+00	0	43	0	1561329664	14	4528
2026-01-03 23:19:43.11	144.29	22.23	-27.4	-29.4	15.2	0.00e+00	0	43	0	1564475392	14	4555
2026-01-03 23:19:44.11	144.47	22.12	-27.3	-29.3	15.3	0.00e+00	0	43	0	1567621120	14	4518
2026-01-03 23:19:45.12	144.65	22.02	-27.4	-29.5	15.2	0.00e+00	0	43	0	1570766848	14	4572
2026-01-03 23:19:46.13	144.83	21.91	-27.4	-29.4	15.2	0.00e+00	0	43	0	1573912576	14	4540
2026-01-03 23:19:47.13	145.01	21.81	-27.4	-29.5	15.2	0.00e+00	0	43	0	1577058304	14	4567
2026-01-03 23:19:48.14	145.19	21.70	-27.4	-29.4	15.2	0.00e+00	0	43	0	1580204032	14	4545
2026-01-03 23:19:49.14	145.36	21.59	-27.4	-29.4	15.2	0.00e+00	0	43	0	1583349760	14	4550
2026-01-03 23:19:50.15	145.54	21.49	-27.3	-29.1	15.4	0.00e+00	0	43	0	1586495488	14	4447
2026-01-03 23:19:51.15	145.71	21.38	-27.3	-29.1	15.4	0.00e+00	0	43	0	1589641216	14	4454
2026-01-03 23:19:52.16	145.88	21.28	-27.4	-29.3	15.2	6.10e-06	0	43	0	1592786944	14	4521
2026-01-03 23:19:53.16	146.05	21.17	-27.4	-29.3	15.2	0.00e+00	0	43	0	1595932672	14	4517
2026-01-03 23:19:54.16	146.22	21.07	-27.5	-29.6	15.1	0.00e+00	0	43	0	1599078400	14	4587
2026-01-03 23:19:55.17	146.39	20.96	-27.6	-29.3	14.9	1.06e-05	0	43	0	1602224128	15	4411
2026-01-03 23:19:56.18	146.56	20.86	-27.7	-29.6	14.8	7.00e-07	0	43	0	1605369856	15	4472
2026-01-03 23:19:57.19	146.73	20.75	-27.5	-29.3	15.0	0.00e+00	0	43	0	1608515584	15	4391
2026-01-03 23:19:58.21	146.89	20.65	-27.5	-29.2	15.0	1.22e-05	0	43	0	1611661312	15	4372
2026-01-03 23:19:59.21	147.06	20.54	-27.6	-29.3	14.9	0.00e+00	0	43	0	1614807040	15	4394
2026-01-03 23:20:00.22	147.22	20.44	-27.7	-29.6	14.8	0.00e+00	0	43	0	1617952768	15	4474
2026-01-03 23:20:01.22	147.38	20.34	-27.6	-29.3	14.9	7.00e-07	0	43	0	1621098496	15	4410
2026-01-03 23:20:02.22	147.54	20.23	-27.6	-29.3	14.9	7.00e-07	0	43	0	1624244224	15	4407
2026-01-03 23:20:03.23	147.70	20.13	-27.6	-29.4	14.8	0.00e+00	0	43	0	1627389952	15	4438
2026-01-03 23:20:04.24	147.86	20.03	-27.7	-29.7	14.6	0.00e+00	0	43	0	1630535680	15	4523
2026-01-03 23:20:05.25	148.02	19.92	-27.7	-29.6	14.7	7.00e-07	0	43	0	1633681408	15	4506
2026-01-03 23:20:06.25	148.18	19.82	-27.7	-29.7	14.6	0.00e+00	0	43	0	1636827136	15	4540
2026-01-03 23:20:07.25	148.33	19.72	-27.8	-29.8	14.6	1.06e-05	0	43	0	1639972864	15	4557
2026-01-03 23:20:08.26	148.49	19.62	-27.9	-30.0	14.4	0.00e+00	0	43	0	1643118592	15	4627
2026-01-03 23:20:09.27	148.64	19.51	-27.5	-29.2	14.9	0.00e+00	0	43	0	1646264320	15	4369
2026-01-03 23:20:10.27	148.80	19.41	-27.3	-28.6	15.3	0.00e+00	0	43	0	1649410048	15	4211
2026-01-03 23:20:11.28	148.95	19.31	-27.1	-28.3	15.4	0.00e+00	0	43	0	1652555776	15	4133
2026-01-03 23:20:12.29	149.10	19.21	-27.1	-28.3	15.4	0.00e+00	0	43	0	1655701504	15	4120
2026-01-03 23:20:13.29	149.25	19.11	-27.2	-28.4	15.4	0.00e+00	0	43	0	1658847232	15	4156
2026-01-03 23:20:14.30	149.40	19.01	-27.1	-28.4	15.4	0.00e+00	0	43	0	1661992960	15	4143
2026-01-03 23:20:15.31	149.55	18.91	-27.2	-28.4	15.4	0.00e+00	0	43	0	1665138688	15	4147
2026-01-03 23:20:16.32	149.70	18.81	-27.1	-28.3	15.4	0.00e+00	0	43	0	1668284416	15	4114
2026-01-03 23:20:17.32	149.84	18.71	-27.0	-28.2	15.5	0.00e+00	0	43	0	1671430144	15	4091
2026-01-03 23:20:18.33	149.99	18.61	-27.0	-28.1	15.5	0.00e+00	0	43	0	1674575872	15	4093
2026-01-03 23:20:19.33	150.13	18.51	-27.1	-28.3	15.3	0.00e+00	0	43	0	1677721600	15	4123
2026-01-03 23:20:20.34	150.28	18.41	-27.1	-28.2	15.5	0.00e+00	0	43	0	1680867328	15	4098
2026-01-03 23:20:21.34	150.42	18.31	-27.1	-28.4	15.3	0.00e+00	0	43	0	1684013056	15	4152
2026-01-03 23:20:22.34	150.56	18.21	-27.2	-28.5	15.3	0.00e+00	0	43	0	1687158784	15	4172
2026-01-03 23:20:23.35	150.70	18.11	-27.2	-28.6	15.2	0.00e+00	0	43	0	1690304512	15	4211
2026-01-03 23:20:24.36	150.84	18.01	-27.3	-28.8	15.1	0.00e+00	0	43	0	1693450240	15	4276
2026-01-03 23:20:25.36	150.98	17.91	-27.3	-28.8	15.0	0.00e+00	0	43	0	1696595968	15	4279
2026-01-03 23:20:26.37	151.12	17.82	-27.4	-29.1	14.9	0.00e+00	0	43	0	1699741696	15	4346
2026-01-03 23:20:27.37	151.25	17.72	-27.5	-29.3	14.8	2.20e-06	0	43	0	1702887424	15	4406
2026-01-03 23:20:28.37	151.39	17.62	-27.5	-29.2	14.8	7.00e-07	0	43	0	1706033152	15	4393
2026-01-03 23:20:29.37	151.52	17.52	-27.7	-29.6	14.6	1.50e-06	0	43	0	1709178880	15	4490
2026-01-03 23:20:30.37	151.66	17.43	-27.7	-29.8	14.5	0.00e+00	0	43	0	1712324608	15	4552
2026-01-03 23:20:31.37	151.79	17.33	-27.6	-29.5	14.6	0.00e+00	0	43	0	1715470336	15	4464
2026-01-03 23:20:32.38	151.93	17.23	-27.6	-29.5	14.6	0.00e+00	0	43	0	1718616064	15	4470
2026-01-03 23:20:33.38	152.06	17.14	-27.6	-29.5	14.6	0.00e+00	0	43	0	1721761792	15	4461
2026-01-03 23:20:34.39	152.19	17.04	-27.7	-29.7	14.5	7.00e-07	0	43	0	1724907520	15	4524
2026-01-03 23:20:35.39	152.32	16.95	-27.8	-29.9	14.3	0.00e+00	0	43	0	1728053248	15	4595
2026-01-03 23:20:36.40	152.45	16.85	-27.6	-29.4	14.6	3.80e-06	0	43	0	1731198976	15	4455
2026-01-03 23:20:37.40	152.58	16.76	-27.6	-29.5	14.6	0.00e+00	0	43	0	1734344704	15	4466
2026-01-03 23:20:38.41	152.71	16.66	-27.6	-29.5	14.6	7.00e-07	0	43	0	1737490432	15	4478
2026-01-03 23:20:39.42	152.83	16.56	-27.6	-29.6	14.5	0.00e+00	0	43	0	1740636160	15	4518
2026-01-03 23:20:40.42	152.96	16.47	-27.7	-29.7	14.4	1.50e-06	0	43	0	1743781888	15	4555
2026-01-03 23:20:41.43	153.09	16.38	-27.8	-30.0	14.2	1.50e-06	0	43	0	1746927616	15	4630
2026-01-03 23:20:42.43	153.21	16.28	-27.8	-29.9	14.2	1.50e-06	0	43	0	1750073344	15	4613
2026-01-03 23:20:43.44	153.34	16.19	-27.7	-29.8	14.3	7.00e-07	0	43	0	1753219072	15	4577
2026-01-03 23:20:44.45	153.46	16.09	-27.7	-29.8	14.3	0.00e+00	0	43	0	1756364800	15	4580
2026-01-03 23:20:45.46	153.58	16.00	-27.8	-29.9	14.3	3.00e-06	0	43	0	1759510528	15	4604
2026-01-03 23:20:46.47	153.71	15.91	-27.8	-29.9	14.2	7.00e-07	0	43	0	1762656256	15	4606
2026-01-03 23:20:47.48	153.83	15.81	-27.8	-29.9	14.3	2.20e-06	0	43	0	1765801984	15	4598
2026-01-03 23:20:48.47	153.95	15.72	-27.8	-30.0	14.1	7.00e-07	0	43	0	1768947712	15	4640
2026-01-03 23:20:49.48	154.07	15.63	-27.8	-30.0	14.2	7.00e-07	0	43	0	1772093440	15	4649
2026-01-03 23:20:50.49	154.19	15.53	-27.8	-30.0	14.2	7.00e-07	0	43	0	1775239168	15	4635
2026-01-03 23:20:51.50	154.31	15.44	-27.8	-30.1	14.1	1.50e-06	0	43	0	1778384896	15	4659
2026-01-03 23:20:52.51	154.43	15.35	-27.9	-30.3	14.0	2.20e-06	0	43	0	1781530624	15	4710
2026-01-03 23:20:53.51	154.54	15.26	-28.2	-30.3	13.8	1.50e-06	0	43	0	1784676352	16	4611
2026-01-03 23:20:54.52	154.66	15.17	-28.1	-30.1	14.0	4.50e-06	0	43	0	1787822080	16	4539
2026-01-03 23:20:55.52	154.78	15.08	-28.1	-30.3	13.9	1.50e-06	0	43	0	1790967808	16	4588
2026-01-03 23:20:56.53	154.89	14.98	-28.2	-30.2	13.9	2.20e-06	0	43	0	1794113536	16	4571
2026-01-03 23:20:57.54	155.01	14.89	-28.2	-30.4	13.9	1.50e-06	0	43	0	1797259264	16	4617
2026-01-03 23:20:58.55	155.12	14.80	-28.2	-30.4	13.8	3.00e-06	0	43	0	1800404992	16	4616
2026-01-03 23:20:59.55	155.23	14.71	-28.2	-30.3	13.8	3.80e-06	0	43	0	1803550720	16	4610
2026-01-03 23:21:00.56	155.35	14.62	-28.2	-30.4	13.8	1.50e-06	0	43	0	1806696448	16	4617
2026-01-03 23:21:01.57	155.46	14.53	-28.3	-30.6	13.7	5.30e-06	0	43	0	1809842176	16	4676
2026-01-03 23:21:02.58	155.57	14.44	-28.4	-30.9	13.5	6.80e-06	0	43	0	1812987904	16	4785
2026-01-03 23:21:03.58	155.68	14.35	-28.4	-30.3	13.6	1.29e-05	0	43	0	1816133632	17	4487
2026-01-03 23:21:04.59	155.79	14.26	-28.2	-29.9	13.8	4.50e-06	0	43	0	1819279360	17	4358
2026-01-03 23:21:05.59	155.90	14.18	-28.1	-29.7	13.9	3.00e-06	0	43	0	1822425088	17	4313
2026-01-03 23:21:06.59	156.01	14.09	-28.1	-29.6	14.0	3.00e-06	0	43	0	1825570816	17	4289
2026-01-03 23:21:07.60	156.12	14.00	-28.2	-29.8	13.9	4.50e-06	0	43	0	1828716544	17	4330
2026-01-03 23:21:08.60	156.22	13.91	-28.2	-29.9	13.8	5.30e-06	0	43	0	1831862272	17	4385
2026-01-03 23:21:09.61	156.33	13.82	-28.2	-29.9	13.8	6.80e-06	0	43	0	1835008000	17	4369
2026-01-03 23:21:10.61	156.44	13.74	-28.1	-29.7	13.9	4.50e-06	0	43	0	1838153728	17	4316
2026-01-03 23:21:11.61	156.54	13.65	-28.2	-29.8	13.8	6.10e-06	0	43	0	1841299456	17	4355
2026-01-03 23:21:12.61	156.65	13.56	-28.2	-29.8	13.8	6.10e-06	0	43	0	1844445184	17	4354
2026-01-03 23:21:13.62	156.75	13.47	-28.3	-30.1	13.6	6.10e-06	0	43	0	1847590912	17	4449
2026-01-03 23:21:14.62	156.85	13.39	-28.3	-30.3	13.6	7.60e-06	0	43	0	1850736640	17	4489
2026-01-03 23:21:15.62	156.96	13.30	-28.4	-30.3	13.5	9.10e-06	0	43	0	1853882368	17	4497
2026-01-03 23:21:16.64	157.06	13.21	-28.5	-30.7	13.2	1.98e-05	0	43	0	1857028096	17	4646
2026-01-03 23:21:17.64	157.16	13.13	-28.5	-30.6	13.3	2.13e-05	0	43	0	1860173824	17	4611
2026-01-03 23:21:18.64	157.26	13.04	-28.4	-30.3	13.5	6.80e-06	0	43	0	1863319552	17	4519
2026-01-03 23:21:19.65	157.36	12.96	-28.4	-30.4	13.5	1.29e-05	0	43	0	1866465280	17	4523
2026-01-03 23:21:20.66	157.46	12.87	-28.5	-30.7	13.3	1.67e-05	0	43	0	1869611008	17	4614
2026-01-03 23:21:21.67	157.57	12.78	-28.5	-30.7	13.2	1.37e-05	0	43	0	1872756736	17	4619
2026-01-03 23:21:22.68	157.66	12.70	-28.7	-31.1	13.0	2.05e-05	0	43	0	1875902464	17	4766
2026-01-03 23:21:23.67	157.76	12.62	-28.6	-31.0	13.1	3.28e-05	0	43	0	1879048192	17	4724
2026-01-03 23:21:24.68	157.86	12.53	-28.5	-30.6	13.2	2.28e-05	0	43	0	1882193920	17	4612
2026-01-03 23:21:25.68	157.96	12.45	-28.3	-30.3	13.5	1.52e-05	0	43	0	1885339648	17	4497
2026-01-03 23:21:26.69	158.06	12.36	-28.3	-30.2	13.5	1.29e-05	0	43	0	1888485376	17	4474
2026-01-03 23:21:27.71	158.15	12.28	-28.3	-30.2	13.5	1.67e-05	0	43	0	1891631104	17	4482
2026-01-03 23:21:28.72	158.25	12.19	-28.3	-30.3	13.5	1.44e-05	0	43	0	1894776832	17	4489
2026-01-03 23:21:29.72	158.34	12.11	-28.4	-30.5	13.3	1.37e-05	0	43	0	1897922560	17	4570
2026-01-03 23:21:30.73	158.44	12.03	-28.4	-30.4	13.3	1.98e-05	0	43	0	1901068288	17	4547
2026-01-03 23:21:31.73	158.53	11.94	-28.3	-30.2	13.5	1.06e-05	0	43	0	1904214016	17	4468
2026-01-03 23:21:32.74	158.63	11.86	-28.4	-30.4	13.4	1.67e-05	0	43	0	1907359744	17	4517
2026-01-03 23:21:33.74	158.72	11.78	-28.3	-30.3	13.5	1.37e-05	0	43	0	1910505472	17	4489
2026-01-03 23:21:34.76	158.82	11.69	-28.3	-30.2	13.5	8.30e-06	0	43	0	1913651200	17	4481
2026-01-03 23:21:35.77	158.91	11.61	-28.4	-30.4	13.3	2.59e-05	0	43	0	1916796928	17	4548
2026-01-03 23:21:36.77	159.00	11.53	-28.5	-30.6	13.2	2.44e-05	0	43	0	1919942656	17	4604
2026-01-03 23:21:37.78	159.09	11.45	-28.5	-30.6	13.2	2.13e-05	0	43	0	1923088384	17	4589
2026-01-03 23:21:38.78	159.18	11.37	-28.5	-30.7	13.2	2.28e-05	0	43	0	1926234112	17	4625
2026-01-03 23:21:39.78	159.27	11.29	-28.4	-30.5	13.2	2.67e-05	0	43	0	1929379840	17	4566
2026-01-03 23:21:40.79	159.36	11.21	-28.5	-30.6	13.1	3.05e-05	0	43	0	1932525568	17	4620
2026-01-03 23:21:41.80	159.45	11.12	-28.4	-30.5	13.2	2.21e-05	0	43	0	1935671296	17	4574
2026-01-03 23:21:42.81	159.54	11.04	-28.5	-30.8	13.0	3.12e-05	0	43	0	1938817024	17	4695
2026-01-03 23:21:43.82	159.63	10.96	-28.5	-30.7	13.1	3.20e-05	0	43	0	1941962752	17	4655
2026-01-03 23:21:44.83	159.72	10.88	-28.4	-30.4	13.2	1.98e-05	0	43	0	1945108480	17	4566
2026-01-03 23:21:45.84	159.81	10.80	-28.3	-30.4	13.3	1.29e-05	0	43	0	1948254208	17	4552
2026-01-03 23:21:46.85	159.90	10.72	-28.4	-30.5	13.2	2.59e-05	0	43	0	1951399936	17	4598
2026-01-03 23:21:47.85	159.98	10.64	-28.4	-30.6	13.2	2.21e-05	0	43	0	1954545664	17	4606
2026-01-03 23:21:48.85	160.07	10.56	-28.5	-30.6	13.1	2.74e-05	0	43	0	1957691392	17	4633
2026-01-03 23:21:49.85	160.15	10.48	-28.5	-30.8	13.0	4.19e-05	0	43	0	1960837120	17	4703
2026-01-03 23:21:50.87	160.24	10.40	-28.5	-30.8	13.0	3.73e-05	0	43	0	1963982848	17	4699
2026-01-03 23:21:51.88	160.33	10.32	-28.6	-31.1	12.8	3.25e-04	0	43	0	1967128576	17	4777
2026-01-03 23:21:52.88	160.41	10.24	-28.7	-31.2	12.7	8.23e-05	0	43	0	1970274304	17	4824
2026-01-03 23:21:53.88	160.49	10.17	-28.8	-31.4	12.6	1.02e-04	0	43	0	1973420032	17	4900
2026-01-03 23:21:54.89	160.58	10.09	-28.8	-31.6	12.4	1.14e-04	0	43	0	1976565760	17	4968
2026-01-03 23:21:55.90	160.66	10.01	-28.8	-31.7	12.4	1.27e-04	0	43	0	1979711488	17	5010
2026-01-03 23:21:56.90	160.74	9.93	-28.9	-31.9	12.3	5.54e-04	0	43	0	1982857216	17	5074
2026-01-03 23:21:57.90	160.83	9.85	-28.9	-31.8	12.3	1.75e-04	0	43	0	1986002944	17	5040
2026-01-03 23:21:58.91	160.91	9.78	-28.9	-31.9	12.2	2.45e-04	0	43	0	1989148672	17	5077
2026-01-03 23:21:59.91	160.99	9.70	-28.9	-31.9	12.2	2.24e-04	0	43	0	1992294400	17	5102
2026-01-03 23:22:00.92	161.07	9.62	-29.0	-32.1	12.1	4.80e-04	0	43	0	1995440128	17	5153
2026-01-03 23:22:01.93	161.15	9.55	-29.0	-32.1	12.0	2.85e-04	0	43	0	1998585856	17	5168
2026-01-03 23:22:02.94	161.23	9.47	-29.0	-32.2	12.0	5.00e-04	0	43	0	2001731584	17	5194
2026-01-03 23:22:03.94	161.31	9.39	-29.0	-31.8	12.0	3.16e-04	0	43	0	2004877312	18	4934
2026-01-03 23:22:04.95	161.39	9.32	-29.1	-31.9	11.9	3.88e-04	0	43	0	2008023040	18	4979
2026-01-03 23:22:05.96	161.47	9.24	-29.0	-31.7	12.0	4.58e-04	0	43	0	2011168768	18	4907
2026-01-03 23:22:06.97	161.55	9.16	-29.0	-31.6	12.1	4.65e-04	0	43	0	2014314496	18	4866
2026-01-03 23:22:07.97	161.63	9.09	-29.0	-31.6	12.1	2.54e-04	0	43	0	2017460224	18	4838
2026-01-03 23:22:08.98	161.71	9.01	-29.0	-31.7	12.1	5.26e-04	0	43	0	2020605952	18	4882
2026-01-03 23:22:09.99	161.79	8.93	-29.2	-32.0	11.8	5.99e-04	0	43	0	2023751680	18	4989
2026-01-03 23:22:11.00	161.86	8.86	-29.0	-31.6	12.1	3.10e-04	0	43	0	2026897408	18	4827
2026-01-03 23:22:12.00	161.94	8.78	-29.0	-31.5	12.2	5.23e-04	0	43	0	2030043136	18	4797
2026-01-03 23:22:13.01	162.02	8.71	-28.9	-31.3	12.3	5.08e-04	0	43	0	2033188864	18	4738
2026-01-03 23:22:14.01	162.09	8.63	-29.0	-31.6	12.1	2.57e-04	0	43	0	2036334592	18	4849
2026-01-03 23:22:15.02	162.17	8.56	-28.9	-31.3	12.3	5.13e-04	0	43	0	2039480320	18	4730
2026-01-03 23:22:16.02	162.24	8.49	-29.0	-31.6	12.1	2.46e-04	0	43	0	2042626048	18	4819
2026-01-03 23:22:17.03	162.32	8.41	-29.0	-31.4	12.2	2.09e-04	0	43	0	2045771776	18	4776
2026-01-03 23:22:18.04	162.39	8.34	-28.9	-31.4	12.2	7.16e-04	0	43	0	2048917504	18	4760
2026-01-03 23:22:19.05	162.47	8.26	-28.8	-31.7	12.3	7.91e-04	0	43	0	2052063232	17	4977
2026-01-03 23:22:20.06	162.54	8.19	-28.9	-31.7	12.2	2.01e-04	0	43	0	2055208960	17	5017
2026-01-03 23:22:21.06	162.62	8.12	-29.0	-32.0	12.0	3.00e-04	0	43	0	2058354688	17	5103
2026-01-03 23:22:22.08	162.69	8.04	-28.9	-31.8	12.2	2.83e-04	0	43	0	2061500416	17	5033
2026-01-03 23:22:23.08	162.76	7.97	-28.9	-31.8	12.2	2.52e-04	0	43	0	2064646144	17	5039
2026-01-03 23:22:24.09	162.84	7.90	-28.9	-32.0	12.0	1.27e-03	0	43	0	2067791872	17	5114
2026-01-03 23:22:25.09	162.91	7.82	-28.9	-32.0	12.0	9.43e-04	0	43	0	2070937600	17	5117
2026-01-03 23:22:26.10	162.98	7.75	-28.9	-32.0	12.0	2.76e-04	0	43	0	2074083328	17	5114
2026-01-03 23:22:27.10	163.05	7.68	-29.1	-31.8	11.8	4.88e-04	0	43	0	2077229056	18	4925
2026-01-03 23:22:28.10	163.12	7.61	-29.0	-32.1	11.9	3.80e-04	0	43	0	2080374784	17	5168
2026-01-03 23:22:29.10	163.19	7.53	-29.1	-31.8	11.7	5.07e-04	0	43	0	2083520512	18	4961
2026-01-03 23:22:30.11	163.26	7.46	-29.0	-31.8	11.7	6.13e-04	0	43	0	2086666240	18	4965
2026-01-03 23:22:31.11	163.33	7.39	-29.1	-32.1	11.6	6.50e-04	0	43	0	2089811968	18	5051
2026-01-03 23:22:32.11	163.40	7.32	-29.1	-32.1	11.6	6.61e-04	0	43	0	2092957696	18	5047
2026-01-03 23:22:33.11	163.47	7.25	-29.3	-32.4	11.3	1.13e-03	0	43	0	2095054848	18	5184
2026-01-03 23:22:34.12	163.54	7.18	-29.2	-32.2	11.5	8.49e-04	0	43	0	2099249152	18	5093
2026-01-03 23:22:35.13	163.61	7.11	-29.6	-32.8	10.8	1.21e-03	0	43	0	2102394880	19	5223
2026-01-03 23:22:36.13	163.68	7.03	-32.9	-45.2	3.8	1.49e+00	0	43	104	2102394880	25	14816

#Closed at: 2026-01-03 23:22:37
#Recorded file [2102 MB]: D:/data/31010_260104_021122.dat