passes_logs/2026/01/03/R2M6_AANII_01/R2M6_AANII_01__20260103_042809_FENGYUN_3E_rec.log

#Pass ID: 20260103_042809_FENGYUN 3E
#Satellite: FENGYUN 3E
#Configuration: FENGYUN 3E
#almurnet v.1.7.20240730
#Start time: 2026-01-03 04:31:37

#Version: 2.2.20231116
#Station: R2M6_AANII_01
#Location: 30.233357 lon 59.946436 lat
#TLE: 1 49008U 21062A   26002.32147302  .00000239  00000+0  13357-3 0  9999
#TLE: 2 49008  98.7477   7.5995 0001398 164.3382 195.7838 14.19884140233041

#Time	Az	El	Level	Level2	SNR	BER	BlckErr	Temp	State	Recorded	gain1	gain2
2026-01-03 04:31:37.68	23.53	32.47	-33.1	-44.3	3.8	8.46e-01	0	43	0	0	26	13017
2026-01-03 04:31:38.67	23.57	32.68	-33.6	-43.1	3.8	8.47e-01	0	43	104	0	27	10681
2026-01-03 04:31:39.66	23.62	32.88	-33.7	-43.1	3.8	8.46e-01	0	43	104	0	27	10700
2026-01-03 04:31:40.66	23.67	33.09	-33.7	-43.2	3.8	8.46e-01	0	43	104	0	27	10781
2026-01-03 04:31:41.65	23.71	33.30	-33.7	-43.3	3.8	8.47e-01	0	43	104	0	27	10828
2026-01-03 04:31:42.66	23.76	33.52	-33.7	-43.3	3.8	8.45e-01	0	43	104	0	27	10814
2026-01-03 04:31:43.67	23.81	33.73	-33.7	-43.3	3.8	8.47e-01	0	43	104	0	27	10819
2026-01-03 04:31:44.67	23.86	33.95	-33.7	-43.2	3.8	8.47e-01	0	43	104	0	27	10797
2026-01-03 04:31:45.67	23.91	34.16	-33.7	-43.2	3.8	8.46e-01	0	43	104	0	27	10800
2026-01-03 04:31:46.68	23.96	34.39	-33.7	-43.2	3.8	8.46e-01	0	43	104	0	27	10775
2026-01-03 04:31:47.68	24.02	34.61	-33.7	-43.2	3.8	8.46e-01	0	43	104	0	27	10763
2026-01-03 04:31:48.69	24.07	34.83	-33.7	-43.2	3.8	8.45e-01	0	43	104	0	27	10755
2026-01-03 04:31:49.69	24.12	35.05	-33.6	-43.1	3.8	8.46e-01	0	43	104	0	27	10729
2026-01-03 04:31:50.69	24.17	35.28	-33.6	-43.1	3.8	8.45e-01	0	43	104	0	27	10736
2026-01-03 04:31:51.69	24.23	35.50	-33.7	-43.1	3.8	8.46e-01	0	43	104	0	27	10704
2026-01-03 04:31:52.70	24.28	35.73	-33.7	-43.2	3.8	8.46e-01	0	43	104	0	27	10747
2026-01-03 04:31:53.70	24.34	35.96	-33.6	-43.1	3.8	8.46e-01	0	43	104	0	27	10713
2026-01-03 04:31:54.70	24.39	36.19	-33.7	-43.2	3.8	8.46e-01	0	43	104	0	27	10750
2026-01-03 04:31:55.70	24.45	36.42	-33.7	-43.2	3.8	8.45e-01	0	43	104	0	27	10774
2026-01-03 04:31:56.70	24.51	36.66	-33.7	-43.2	3.8	8.46e-01	0	43	104	0	27	10798
2026-01-03 04:31:57.70	24.57	36.89	-33.7	-43.2	3.8	8.47e-01	0	43	104	0	27	10794
2026-01-03 04:31:58.71	24.63	37.13	-33.6	-43.1	3.8	8.46e-01	0	43	104	0	27	10733
2026-01-03 04:31:59.70	24.69	37.37	-33.6	-43.1	3.8	8.45e-01	0	44	104	0	27	10708
2026-01-03 04:32:00.70	24.75	37.61	-33.5	-42.9	3.8	8.46e-01	0	43	104	0	27	10610
2026-01-03 04:32:01.70	24.81	37.85	-33.5	-42.8	3.8	8.47e-01	0	43	104	0	27	10476
2026-01-03 04:32:02.70	24.87	38.10	-33.4	-42.5	3.8	8.47e-01	0	43	104	0	27	10311
2026-01-03 04:32:03.70	24.94	38.35	-33.4	-42.6	3.8	8.48e-01	0	43	104	0	27	10434
2026-01-03 04:32:04.71	25.00	38.60	-33.3	-42.5	3.8	8.46e-01	0	43	104	0	26	10448
2026-01-03 04:32:05.71	25.07	38.85	-33.2	-42.3	3.8	8.46e-01	0	43	104	0	26	10210
2026-01-03 04:32:06.72	25.13	39.10	-33.2	-42.4	3.8	8.46e-01	0	43	104	0	26	10301
2026-01-03 04:32:07.72	25.20	39.35	-33.2	-42.4	3.8	8.46e-01	0	43	104	0	26	10316
2026-01-03 04:32:08.72	25.27	39.61	-33.3	-42.4	3.8	8.45e-01	0	43	104	0	26	10349
2026-01-03 04:32:09.72	25.34	39.87	-33.3	-42.6	3.8	8.46e-01	0	43	104	0	26	10497
2026-01-03 04:32:10.72	25.41	40.12	-33.3	-42.8	3.8	8.47e-01	0	43	104	0	26	10771
2026-01-03 04:32:11.71	25.48	40.38	-33.3	-42.9	3.8	8.45e-01	0	43	104	0	26	10828
2026-01-03 04:32:12.71	25.55	40.65	-33.3	-42.8	3.8	8.46e-01	0	43	104	0	26	10793
2026-01-03 04:32:13.71	25.63	40.91	-33.3	-42.6	3.8	8.47e-01	0	43	104	0	26	10580
2026-01-03 04:32:14.71	25.70	41.18	-33.2	-41.9	3.8	8.46e-01	0	43	104	0	26	9818
2026-01-03 04:32:15.70	25.78	41.44	-33.0	-40.4	3.8	8.46e-01	0	44	104	0	26	8503
2026-01-03 04:32:16.70	25.85	41.71	-32.7	-39.5	3.9	8.43e-01	0	43	104	0	25	7880
2026-01-03 04:32:17.70	25.93	41.98	-32.6	-38.9	4.3	8.35e-01	0	43	104	0	25	7422
2026-01-03 04:32:18.71	26.01	42.26	-32.8	-39.8	4.1	8.37e-01	0	43	0	0	25	8058
2026-01-03 04:32:19.71	26.09	42.54	-33.0	-41.1	3.8	8.44e-01	0	43	104	0	25	9127
2026-01-03 04:32:20.72	26.18	42.82	-33.1	-41.7	3.8	8.46e-01	0	43	104	0	26	9677
2026-01-03 04:32:21.72	26.26	43.10	-33.2	-42.1	3.8	8.46e-01	0	43	104	0	26	10071
2026-01-03 04:32:22.72	26.35	43.38	-33.2	-41.9	3.8	8.45e-01	0	43	104	0	26	9832
2026-01-03 04:32:23.72	26.43	43.67	-33.1	-41.4	3.8	8.46e-01	0	43	104	0	26	9383
2026-01-03 04:32:24.73	26.52	43.96	-33.1	-41.6	3.8	8.45e-01	0	43	104	0	26	9521
2026-01-03 04:32:25.72	26.61	44.24	-33.0	-40.5	3.8	8.46e-01	0	43	104	0	26	8551
2026-01-03 04:32:26.73	26.70	44.54	-32.5	-37.8	4.0	8.40e-01	0	43	104	0	26	6627
2026-01-03 04:32:27.73	26.80	44.83	-31.9	-35.8	5.4	7.47e-01	0	43	104	0	25	5602
2026-01-03 04:32:28.73	26.89	45.12	-31.4	-34.6	6.6	2.89e-01	0	43	0	4194304	23	5256
2026-01-03 04:32:29.72	26.99	45.42	-29.9	-32.0	8.9	3.84e-02	0	44	0	11534336	20	4572
2026-01-03 04:32:30.72	27.08	45.72	-28.1	-29.4	12.1	1.03e-03	0	43	0	18874368	16	4187
2026-01-03 04:32:31.72	27.18	46.02	-26.6	-27.0	14.0	4.50e-06	0	43	0	26214400	14	3774
2026-01-03 04:32:32.73	27.29	46.32	-26.5	-27.2	14.2	0.00e+00	0	43	0	33554432	13	3902
2026-01-03 04:32:33.73	27.39	46.63	-26.6	-27.5	14.0	1.10e-06	0	43	0	40894464	13	3991
2026-01-03 04:32:34.73	27.50	46.94	-26.7	-27.8	13.9	0.00e+00	0	43	0	47185920	13	4057
2026-01-03 04:32:35.73	27.60	47.25	-26.5	-27.2	14.2	0.00e+00	0	43	0	54525952	13	3920
2026-01-03 04:32:36.73	27.71	47.56	-26.7	-27.6	14.0	2.43e-04	0	43	0	62914560	13	4016
2026-01-03 04:32:37.74	27.83	47.88	-26.5	-27.3	14.1	1.10e-06	0	43	0	69206016	13	3942
2026-01-03 04:32:38.74	27.94	48.20	-25.8	-26.3	15.0	2.17e-05	0	44	0	76546048	12	3785
2026-01-03 04:32:39.73	28.06	48.51	-25.4	-25.3	15.5	0.00e+00	0	43	0	83886080	12	3577
2026-01-03 04:32:40.73	28.17	48.83	-24.9	-25.3	16.2	0.00e+00	0	43	0	91226112	10	3757
2026-01-03 04:32:41.73	28.30	49.16	-24.5	-25.0	16.5	5.89e-04	0	43	0	98566144	9	3798
2026-01-03 04:32:42.74	28.42	49.48	-24.2	-24.4	16.9	0.00e+00	0	44	0	105906176	9	3653
2026-01-03 04:32:43.74	28.55	49.81	-23.8	-24.0	17.3	0.00e+00	0	44	0	113246208	8	3663
2026-01-03 04:32:44.74	28.68	50.14	-23.3	-23.4	17.9	5.09e-04	0	44	0	120586240	7	3623
2026-01-03 04:32:45.74	28.81	50.48	-23.7	-24.2	17.5	3.99e-04	0	44	0	127926272	7	3805
2026-01-03 04:32:46.74	28.94	50.81	-23.7	-24.3	17.4	0.00e+00	0	44	0	134217728	7	3828
2026-01-03 04:32:47.74	29.08	51.15	-23.9	-24.5	17.3	0.00e+00	0	43	0	141557760	7	3892
2026-01-03 04:32:48.74	29.22	51.49	-24.0	-24.8	17.2	3.07e-04	0	43	0	148897792	7	3957
2026-01-03 04:32:49.73	29.36	51.82	-24.2	-24.8	16.9	0.00e+00	0	44	0	156237824	8	3851
2026-01-03 04:32:50.74	29.51	52.17	-24.2	-24.7	17.0	4.02e-04	0	44	0	163577856	8	3812
2026-01-03 04:32:51.74	29.66	52.52	-24.0	-24.4	17.1	4.22e-04	0	43	0	170917888	8	3748
2026-01-03 04:32:52.73	29.81	52.86	-23.8	-23.9	17.4	0.00e+00	0	44	0	178257920	8	3638
2026-01-03 04:32:53.73	29.97	53.21	-23.7	-24.2	17.5	6.48e-04	0	43	0	184549376	7	3822
2026-01-03 04:32:54.72	30.13	53.56	-23.9	-24.7	17.3	6.37e-04	0	44	0	191889408	7	3926
2026-01-03 04:32:55.73	30.30	53.92	-23.8	-23.4	17.0	0.00e+00	0	44	0	199229440	9	3430
2026-01-03 04:32:56.73	30.47	54.28	-24.0	-24.2	17.2	7.75e-04	0	44	0	206569472	8	3721
2026-01-03 04:32:57.73	30.64	54.64	-23.8	-24.4	17.4	7.77e-04	0	44	0	213909504	7	3863
2026-01-03 04:32:58.73	30.82	55.00	-23.8	-24.5	17.3	0.00e+00	0	43	0	221249536	7	3869
2026-01-03 04:32:59.73	31.00	55.37	-23.9	-24.6	17.3	7.98e-04	0	44	0	228589568	7	3899
2026-01-03 04:33:00.71	31.18	55.72	-24.1	-24.6	17.1	3.09e-04	0	44	0	234881024	8	3790
2026-01-03 04:33:01.70	31.37	56.09	-24.3	-24.9	17.0	0.00e+00	0	44	0	242221056	8	3874
2026-01-03 04:33:02.71	31.57	56.46	-24.1	-24.4	17.2	9.23e-04	0	43	0	249561088	8	3761
2026-01-03 04:33:03.71	31.77	56.84	-23.9	-24.1	17.4	8.75e-04	0	44	0	256901120	8	3677
2026-01-03 04:33:04.71	31.98	57.21	-24.0	-24.4	17.2	0.00e+00	0	44	0	264241152	8	3763
2026-01-03 04:33:05.71	32.20	57.59	-24.1	-24.0	17.1	9.29e-04	0	43	0	271581184	9	3561
2026-01-03 04:33:06.71	32.41	57.97	-24.5	-24.9	16.7	8.43e-04	0	44	0	278921216	9	3763
2026-01-03 04:33:07.71	32.64	58.35	-24.3	-24.5	16.9	0.00e+00	0	43	0	286261248	9	3675
2026-01-03 04:33:08.71	32.87	58.73	-24.1	-24.4	17.2	8.16e-04	0	43	0	293601280	8	3767
2026-01-03 04:33:09.71	33.11	59.12	-23.9	-24.2	17.3	8.75e-04	0	43	0	299892736	8	3702
2026-01-03 04:33:10.71	33.36	59.51	-23.6	-23.6	17.6	0.00e+00	0	43	0	307232768	8	3568
2026-01-03 04:33:11.72	33.61	59.90	-23.6	-23.4	17.8	8.95e-04	0	43	0	314572800	8	3524
2026-01-03 04:33:12.72	33.87	60.29	-24.0	-24.8	17.3	8.73e-04	0	44	0	321912832	7	3943
2026-01-03 04:33:13.72	34.14	60.69	-23.8	-24.4	17.4	0.00e+00	0	43	0	329252864	7	3859
2026-01-03 04:33:14.72	34.42	61.08	-23.9	-24.6	17.4	5.03e-04	0	44	0	336592896	7	3908
2026-01-03 04:33:15.72	34.70	61.48	-23.9	-24.7	17.3	0.00e+00	0	44	0	343932928	7	3927
2026-01-03 04:33:16.72	35.00	61.88	-23.6	-23.4	17.2	0.00e+00	0	44	0	351272960	8	3534
2026-01-03 04:33:17.72	35.30	62.28	-23.6	-24.1	17.6	8.37e-04	0	44	0	357564416	7	3773
2026-01-03 04:33:18.73	35.62	62.68	-23.4	-23.5	18.0	0.00e+00	0	44	0	364904448	7	3656
2026-01-03 04:33:19.73	35.94	63.09	-23.2	-23.1	18.2	0.00e+00	0	44	0	372244480	7	3560
2026-01-03 04:33:20.73	36.28	63.49	-23.1	-23.4	18.3	0.00e+00	0	43	0	379584512	6	3730
2026-01-03 04:33:21.72	36.63	63.90	-23.5	-24.3	17.6	1.05e-04	0	44	0	386924544	6	3940
2026-01-03 04:33:22.73	36.99	64.31	-22.7	-22.6	18.6	0.00e+00	0	44	0	394264576	6	3558
2026-01-03 04:33:23.72	37.36	64.71	-22.7	-23.0	18.7	0.00e+00	0	43	0	401604608	5	3752
2026-01-03 04:33:24.72	37.75	65.13	-22.7	-23.1	18.6	7.16e-04	0	43	0	408944640	5	3780
2026-01-03 04:33:25.71	38.14	65.53	-22.5	-22.7	18.9	0.00e+00	0	43	0	416284672	5	3677
2026-01-03 04:33:26.71	38.56	65.95	-22.1	-21.9	19.3	0.00e+00	0	44	0	422576128	5	3512
2026-01-03 04:33:27.72	39.00	66.37	-22.3	-22.7	19.1	7.53e-04	0	44	0	429916160	4	3780
2026-01-03 04:33:28.72	39.45	66.78	-22.5	-23.2	18.8	0.00e+00	0	43	0	437256192	4	3902
2026-01-03 04:33:29.72	39.91	67.20	-22.7	-23.1	18.7	8.03e-04	0	43	0	444596224	5	3761
2026-01-03 04:33:30.71	40.39	67.61	-22.7	-23.1	18.7	0.00e+00	0	43	0	451936256	5	3776
2026-01-03 04:33:31.72	40.91	68.03	-22.6	-22.8	18.8	0.00e+00	0	43	0	459276288	5	3703
2026-01-03 04:33:32.72	41.43	68.45	-22.5	-22.8	18.9	7.41e-04	0	43	0	466616320	5	3697
2026-01-03 04:33:33.73	41.99	68.87	-22.8	-23.4	18.6	0.00e+00	0	44	0	473956352	5	3825
2026-01-03 04:33:34.72	42.56	69.28	-22.8	-23.4	18.5	0.00e+00	0	44	0	481296384	5	3828
2026-01-03 04:33:35.72	43.15	69.70	-23.0	-23.7	18.3	0.00e+00	0	43	0	487587840	5	3900
2026-01-03 04:33:36.72	43.78	70.12	-23.2	-23.6	18.2	0.00e+00	0	44	0	494927872	6	3772
2026-01-03 04:33:37.72	44.43	70.54	-23.9	-24.8	17.2	0.00e+00	0	43	0	502267904	7	3970
2026-01-03 04:33:38.73	45.13	70.96	-23.2	-23.3	18.1	0.00e+00	0	44	0	509607936	7	3604
2026-01-03 04:33:39.73	45.84	71.37	-23.2	-23.6	18.2	0.00e+00	0	44	0	516947968	6	3782
2026-01-03 04:33:40.73	46.59	71.79	-22.9	-23.0	18.5	0.00e+00	0	43	0	524288000	6	3631
2026-01-03 04:33:41.72	47.37	72.20	-22.6	-22.3	18.8	0.00e+00	0	43	0	531628032	6	3500
2026-01-03 04:33:42.73	48.21	72.61	-22.4	-22.5	19.0	0.00e+00	0	44	0	538968064	5	3628
2026-01-03 04:33:43.73	49.08	73.02	-22.4	-22.5	19.0	0.00e+00	0	43	0	546308096	5	3635
2026-01-03 04:33:44.73	50.00	73.43	-22.4	-22.5	19.0	0.00e+00	0	44	0	553648128	5	3642
2026-01-03 04:33:45.73	50.96	73.83	-22.2	-22.0	19.2	0.00e+00	0	43	0	559939584	5	3522
2026-01-03 04:33:46.71	51.95	74.22	-22.2	-22.0	19.3	0.00e+00	0	44	0	567279616	5	3528
2026-01-03 04:33:47.71	53.02	74.62	-22.1	-21.9	19.3	0.00e+00	0	44	0	574619648	5	3499
2026-01-03 04:33:48.70	54.13	75.01	-22.0	-22.1	19.5	0.00e+00	0	44	0	581959680	4	3653
2026-01-03 04:33:49.69	55.31	75.39	-21.8	-21.8	19.6	0.00e+00	0	43	0	589299712	4	3581
2026-01-03 04:33:50.68	56.55	75.77	-21.7	-21.6	19.8	0.00e+00	0	44	0	595591168	4	3531
2026-01-03 04:33:51.68	57.87	76.15	-21.8	-21.8	19.6	0.00e+00	0	43	0	602931200	4	3584
2026-01-03 04:33:52.68	59.27	76.52	-21.8	-21.7	19.7	0.00e+00	0	43	0	610271232	4	3555
2026-01-03 04:33:53.69	60.77	76.89	-21.8	-22.3	19.7	0.00e+00	0	44	0	617611264	3	3795
2026-01-03 04:33:54.69	62.34	77.24	-21.7	-22.0	19.7	0.00e+00	0	44	0	624951296	3	3737
2026-01-03 04:33:55.69	64.00	77.59	-21.7	-22.1	19.8	0.00e+00	0	43	0	632291328	3	3750
2026-01-03 04:33:56.69	65.75	77.93	-21.9	-22.5	19.6	3.40e-06	0	43	0	639631360	3	3840
2026-01-03 04:33:57.70	67.63	78.26	-21.7	-22.1	19.8	2.17e-05	0	44	0	646971392	3	3745
2026-01-03 04:33:58.70	69.59	78.57	-21.7	-21.9	19.8	0.00e+00	0	44	0	654311424	3	3714
2026-01-03 04:33:59.69	71.64	78.87	-21.9	-22.5	19.6	0.00e+00	0	43	0	661651456	3	3845
2026-01-03 04:34:00.69	73.83	79.15	-22.1	-22.4	19.4	0.00e+00	0	43	0	668991488	4	3703
2026-01-03 04:34:01.69	76.13	79.42	-22.8	-23.2	18.7	0.00e+00	0	43	0	675282944	5	3788
2026-01-03 04:34:02.68	78.53	79.67	-22.7	-23.1	18.8	0.00e+00	0	44	0	682622976	5	3763
2026-01-03 04:34:03.69	81.10	79.91	-22.1	-21.8	19.4	0.00e+00	0	44	0	689963008	5	3490
2026-01-03 04:34:04.68	83.73	80.12	-21.5	-21.1	20.0	0.00e+00	0	43	0	697303040	4	3443
2026-01-03 04:34:05.68	86.50	80.31	-21.2	-20.9	20.3	0.00e+00	0	43	0	704643072	3	3495
2026-01-03 04:34:06.67	89.35	80.48	-21.0	-21.0	20.5	0.00e+00	0	44	0	710934528	2	3620
2026-01-03 04:34:07.67	92.33	80.63	-21.3	-21.6	20.3	0.00e+00	0	44	0	718274560	2	3756
2026-01-03 04:34:08.66	95.36	80.75	-21.5	-22.0	20.1	0.00e+00	0	43	0	725614592	2	3833
2026-01-03 04:34:09.66	98.49	80.84	-21.8	-22.1	19.8	0.00e+00	0	44	0	732954624	3	3761
2026-01-03 04:34:10.65	101.65	80.90	-22.1	-22.4	19.4	0.00e+00	0	43	0	740294656	4	3705
2026-01-03 04:34:11.65	104.88	80.94	-22.0	-22.2	19.5	0.00e+00	0	43	0	747634688	4	3676
2026-01-03 04:34:12.65	108.13	80.95	-22.1	-22.3	19.5	0.00e+00	0	44	0	754974720	4	3684
2026-01-03 04:34:13.65	111.37	80.93	-22.3	-22.7	19.3	0.00e+00	0	44	0	762314752	4	3787
2026-01-03 04:34:14.64	114.55	80.89	-22.0	-22.1	19.5	0.00e+00	0	44	0	769654784	4	3636
2026-01-03 04:34:15.63	117.70	80.81	-21.4	-21.4	20.2	0.00e+00	0	44	0	775946240	3	3597
2026-01-03 04:34:16.63	120.81	80.71	-21.4	-21.4	20.3	0.00e+00	0	44	0	783286272	3	3588
2026-01-03 04:34:17.63	123.85	80.58	-21.7	-21.9	20.0	0.00e+00	0	43	0	790626304	3	3707
2026-01-03 04:34:18.63	126.80	80.43	-21.2	-21.0	20.4	0.00e+00	0	44	0	797966336	3	3510
2026-01-03 04:34:19.63	129.65	80.25	-20.8	-20.6	20.6	0.00e+00	0	44	0	805306368	2	3514
2026-01-03 04:34:20.63	132.39	80.05	-20.8	-20.6	20.9	0.00e+00	0	44	0	812646400	2	3530
2026-01-03 04:34:21.64	135.03	79.83	-21.3	-21.6	20.4	0.00e+00	0	43	0	819986432	2	3751
2026-01-03 04:34:22.64	137.54	79.59	-21.5	-22.1	20.2	0.00e+00	0	44	0	827326464	2	3851
2026-01-03 04:34:23.64	139.92	79.33	-21.6	-21.7	20.1	0.00e+00	0	43	0	834666496	3	3663
2026-01-03 04:34:24.64	142.19	79.06	-21.6	-21.8	20.0	0.00e+00	0	44	0	840957952	3	3688
2026-01-03 04:34:25.63	144.32	78.77	-21.5	-21.6	20.1	0.00e+00	0	44	0	848297984	3	3643
2026-01-03 04:34:26.63	146.36	78.46	-21.4	-21.3	20.1	0.00e+00	0	44	0	855638016	3	3569
2026-01-03 04:34:27.62	148.26	78.15	-21.6	-21.8	20.0	0.00e+00	0	44	0	862978048	3	3675
2026-01-03 04:34:28.61	150.07	77.82	-21.7	-22.0	19.9	0.00e+00	0	44	0	870318080	3	3734
2026-01-03 04:34:29.62	151.81	77.48	-21.5	-21.6	20.1	0.00e+00	0	44	0	876609536	3	3636
2026-01-03 04:34:30.62	153.44	77.13	-21.3	-21.1	20.3	0.00e+00	0	44	0	883949568	3	3541
2026-01-03 04:34:31.63	155.00	76.77	-21.4	-21.4	20.0	0.00e+00	0	44	0	891289600	3	3605
2026-01-03 04:34:32.63	156.46	76.40	-21.4	-21.4	20.2	0.00e+00	0	44	0	898629632	3	3598
2026-01-03 04:34:33.63	157.83	76.03	-21.3	-21.3	20.1	0.00e+00	0	44	0	905969664	3	3566
2026-01-03 04:34:34.63	159.14	75.65	-21.7	-22.1	19.9	0.00e+00	0	43	0	913309696	3	3743
2026-01-03 04:34:35.63	160.37	75.26	-22.1	-22.3	19.4	0.00e+00	0	44	0	920649728	4	3696
2026-01-03 04:34:36.62	161.52	74.88	-22.3	-22.7	19.1	0.00e+00	0	44	0	927989760	4	3773
2026-01-03 04:34:37.63	162.64	74.48	-22.4	-23.0	19.1	0.00e+00	0	44	0	935329792	4	3843
2026-01-03 04:34:38.63	163.69	74.08	-22.7	-23.0	18.9	0.00e+00	0	44	0	941621248	5	3747
2026-01-03 04:34:39.62	164.68	73.68	-23.1	-23.9	18.4	0.00e+00	0	44	0	948961280	5	3941
2026-01-03 04:34:40.62	165.62	73.27	-23.2	-23.5	18.3	0.00e+00	0	44	0	956301312	6	3767
2026-01-03 04:34:41.62	166.52	72.87	-23.3	-23.8	18.2	0.00e+00	0	44	0	963641344	6	3819
2026-01-03 04:34:42.61	167.37	72.46	-23.3	-23.8	18.2	0.00e+00	0	44	0	970981376	6	3817
2026-01-03 04:34:43.61	168.18	72.05	-23.1	-23.5	18.4	0.00e+00	0	44	0	978321408	6	3758
2026-01-03 04:34:44.62	168.96	71.63	-22.9	-23.0	18.5	2.63e-05	0	44	0	985661440	6	3652
2026-01-03 04:34:45.61	169.70	71.22	-22.8	-22.7	18.7	0.00e+00	0	44	0	993001472	6	3587
2026-01-03 04:34:46.62	170.41	70.80	-22.6	-22.4	18.9	0.00e+00	0	44	0	999292928	6	3523
2026-01-03 04:34:47.63	171.09	70.37	-22.6	-22.4	18.9	0.00e+00	0	44	0	1007681536	6	3516
2026-01-03 04:34:48.64	171.74	69.95	-22.7	-22.7	18.7	0.00e+00	0	44	0	1015021568	6	3568
2026-01-03 04:34:49.64	172.36	69.53	-22.6	-22.4	18.9	0.00e+00	0	43	0	1021313024	6	3504
2026-01-03 04:34:50.64	172.95	69.11	-22.9	-23.0	18.6	0.00e+00	0	44	0	1028653056	6	3635
2026-01-03 04:34:51.64	173.51	68.70	-22.9	-23.1	18.5	0.00e+00	0	44	0	1035993088	6	3675
2026-01-03 04:34:52.64	174.05	68.28	-22.9	-23.0	18.5	0.00e+00	0	44	0	1043333120	6	3656
2026-01-03 04:34:53.63	174.57	67.86	-22.8	-22.7	18.7	0.00e+00	0	44	0	1050673152	6	3588
2026-01-03 04:34:54.64	175.07	67.44	-22.7	-22.7	18.6	0.00e+00	0	44	0	1058013184	6	3569
2026-01-03 04:34:55.64	175.55	67.02	-22.9	-22.9	18.6	0.00e+00	0	44	0	1065353216	6	3621
2026-01-03 04:34:56.63	176.01	66.61	-22.9	-23.1	18.5	0.00e+00	0	44	0	1072693248	6	3669
2026-01-03 04:34:57.63	176.45	66.19	-23.0	-23.2	18.4	0.00e+00	0	44	0	1078984704	6	3694
2026-01-03 04:34:58.62	176.87	65.78	-22.8	-22.8	18.6	0.00e+00	0	44	0	1086324736	6	3612
2026-01-03 04:34:59.62	177.28	65.37	-22.7	-22.7	18.7	0.00e+00	0	44	0	1093664768	6	3568
2026-01-03 04:35:00.62	177.68	64.95	-23.0	-23.1	18.5	0.00e+00	0	43	0	1101004800	6	3662
2026-01-03 04:35:01.62	178.06	64.54	-23.2	-23.6	18.2	0.00e+00	0	44	0	1108344832	6	3786
2026-01-03 04:35:02.63	178.43	64.13	-23.2	-23.7	18.2	0.00e+00	0	44	0	1115684864	6	3790
2026-01-03 04:35:03.62	178.79	63.72	-23.3	-23.8	18.1	0.00e+00	0	44	0	1123024896	6	3832
2026-01-03 04:35:04.62	179.13	63.32	-23.3	-23.8	18.1	0.00e+00	0	44	0	1129316352	6	3833
2026-01-03 04:35:05.62	179.46	62.91	-23.4	-24.0	18.0	0.00e+00	0	43	0	1136656384	6	3858
2026-01-03 04:35:06.62	179.78	62.50	-23.5	-24.3	17.8	0.00e+00	0	43	0	1143996416	6	3945
2026-01-03 04:35:07.62	180.10	62.10	-23.7	-24.3	17.6	0.00e+00	0	43	0	1151336448	7	3824
2026-01-03 04:35:08.62	180.40	61.70	-24.0	-24.8	17.4	0.00e+00	0	44	0	1158676480	7	3958
2026-01-03 04:35:09.62	180.69	61.30	-24.4	-25.2	16.9	0.00e+00	0	44	0	1166016512	8	3944
2026-01-03 04:35:10.61	180.97	60.91	-24.4	-24.7	16.9	0.00e+00	0	44	0	1173356544	9	3717
2026-01-03 04:35:11.60	181.24	60.51	-23.9	-23.7	17.4	0.00e+00	0	44	0	1180696576	9	3500
2026-01-03 04:35:12.60	181.51	60.12	-23.6	-23.4	17.9	0.00e+00	0	43	0	1186988032	8	3519
2026-01-03 04:35:13.60	181.76	59.73	-23.6	-23.5	17.8	0.00e+00	0	44	0	1194328064	8	3553
2026-01-03 04:35:14.61	182.02	59.33	-23.9	-24.1	17.4	0.00e+00	0	44	0	1201668096	8	3692
2026-01-03 04:35:15.61	182.26	58.95	-24.1	-24.4	17.2	0.00e+00	0	44	0	1209008128	8	3754
2026-01-03 04:35:16.61	182.50	58.56	-24.0	-24.4	17.3	0.00e+00	0	44	0	1216348160	8	3744
2026-01-03 04:35:17.61	182.72	58.18	-24.0	-24.3	17.4	0.00e+00	0	44	0	1223688192	8	3737
2026-01-03 04:35:18.61	182.95	57.79	-24.0	-24.4	17.3	0.00e+00	0	44	0	1231028224	8	3747
2026-01-03 04:35:19.61	183.16	57.41	-24.1	-24.6	17.2	0.00e+00	0	43	0	1238368256	8	3795
2026-01-03 04:35:20.60	183.37	57.04	-23.5	-23.9	15.3	0.00e+00	0	44	0	1245708288	8	3770
2026-01-03 04:35:21.59	183.58	56.67	-24.3	-24.9	17.0	0.00e+00	0	43	0	1251999744	8	3879
2026-01-03 04:35:22.59	183.78	56.29	-24.2	-24.7	17.0	0.00e+00	0	44	0	1259339776	8	3815
2026-01-03 04:35:23.59	183.97	55.92	-23.9	-24.6	17.3	0.00e+00	0	44	0	1266679808	7	3893
2026-01-03 04:35:24.59	184.16	55.55	-23.7	-24.2	17.5	0.00e+00	0	43	0	1274019840	7	3812
2026-01-03 04:35:25.58	184.35	55.19	-24.0	-24.8	17.3	0.00e+00	0	44	0	1281359872	7	3962
2026-01-03 04:35:26.58	184.53	54.83	-24.1	-24.6	17.2	0.00e+00	0	43	0	1288699904	8	3805
2026-01-03 04:35:27.58	184.70	54.46	-23.9	-24.2	17.4	0.00e+00	0	44	0	1296039936	8	3705
2026-01-03 04:35:28.57	184.87	54.11	-23.9	-24.2	14.6	0.00e+00	0	44	0	1302331392	8	3714
2026-01-03 04:35:29.57	185.04	53.75	-24.1	-24.6	17.1	0.00e+00	0	44	0	1309671424	8	3804
2026-01-03 04:35:30.57	185.20	53.39	-24.1	-24.5	17.1	0.00e+00	0	44	0	1317011456	8	3780
2026-01-03 04:35:31.57	185.36	53.04	-24.0	-24.4	17.3	0.00e+00	0	44	0	1324351488	8	3752
2026-01-03 04:35:32.57	185.52	52.69	-23.9	-24.1	17.4	0.00e+00	0	44	0	1331691520	8	3691
2026-01-03 04:35:33.57	185.67	52.34	-24.2	-24.7	17.2	0.00e+00	0	44	0	1339031552	8	3814
2026-01-03 04:35:34.58	185.82	51.99	-24.3	-24.9	17.0	0.00e+00	0	44	0	1346371584	8	3863
2026-01-03 04:35:35.58	185.97	51.64	-24.1	-24.4	17.3	3.23e-04	0	44	0	1353711616	8	3767
2026-01-03 04:35:36.59	186.11	51.30	-23.9	-24.1	17.4	0.00e+00	0	44	0	1361051648	8	3678
2026-01-03 04:35:37.59	186.25	50.96	-23.9	-24.1	17.4	3.17e-04	0	44	0	1368391680	8	3694
2026-01-03 04:35:38.59	186.39	50.62	-24.1	-24.6	17.1	0.00e+00	0	44	0	1374683136	8	3796
2026-01-03 04:35:39.58	186.52	50.29	-24.4	-25.1	16.8	0.00e+00	0	44	0	1382023168	8	3922
2026-01-03 04:35:40.58	186.65	49.96	-24.3	-25.1	16.9	4.47e-04	0	44	0	1389363200	8	3910
2026-01-03 04:35:41.58	186.78	49.63	-24.4	-25.1	16.9	0.00e+00	0	44	0	1396703232	8	3924
2026-01-03 04:35:42.57	186.90	49.30	-24.4	-25.3	16.8	0.00e+00	0	44	0	1404043264	8	3955
2026-01-03 04:35:43.57	187.03	48.98	-24.4	-25.2	16.7	5.64e-04	0	43	0	1411383296	8	3945
2026-01-03 04:35:44.57	187.15	48.65	-24.4	-25.2	16.8	0.00e+00	0	44	0	1417674752	8	3945
2026-01-03 04:35:45.55	187.26	48.34	-24.7	-25.4	16.4	0.00e+00	0	44	0	1425014784	9	3875
2026-01-03 04:35:46.56	187.38	48.01	-24.7	-25.4	16.4	0.00e+00	0	44	0	1432354816	9	3880
2026-01-03 04:35:47.56	187.49	47.70	-24.0	-24.4	17.2	8.07e-04	0	44	0	1439694848	8	3763
2026-01-03 04:35:48.56	187.60	47.38	-23.5	-23.4	17.6	0.00e+00	0	44	0	1447034880	8	3537
2026-01-03 04:35:49.56	187.71	47.07	-23.1	-23.5	18.1	0.00e+00	0	44	0	1454374912	6	3760
2026-01-03 04:35:50.55	187.82	46.76	-23.1	-23.5	18.1	4.22e-04	0	44	0	1461714944	6	3759
2026-01-03 04:35:51.55	187.92	46.45	-23.3	-23.8	18.0	0.00e+00	0	44	0	1469054976	6	3816
2026-01-03 04:35:52.56	188.03	46.14	-23.2	-23.7	18.0	5.96e-04	0	44	0	1476395008	6	3788
2026-01-03 04:35:53.56	188.13	45.84	-23.1	-23.4	18.1	4.39e-04	0	44	0	1482686464	6	3736
2026-01-03 04:35:54.57	188.23	45.53	-23.2	-23.6	18.1	0.00e+00	0	44	0	1490026496	6	3776
2026-01-03 04:35:55.57	188.33	45.23	-23.1	-23.5	18.1	6.73e-04	0	44	0	1497366528	6	3750
2026-01-03 04:35:56.58	188.42	44.93	-23.0	-23.1	18.3	7.00e-04	0	44	0	1504706560	6	3676
2026-01-03 04:35:57.59	188.52	44.64	-22.8	-22.9	18.4	0.00e+00	0	44	0	1512046592	6	3622
2026-01-03 04:35:58.59	188.61	44.34	-22.9	-23.1	18.2	7.08e-04	0	44	0	1519386624	6	3667
2026-01-03 04:35:59.59	188.70	44.05	-22.9	-22.9	18.3	2.82e-04	0	44	0	1526726656	6	3619
2026-01-03 04:36:00.58	188.79	43.76	-22.7	-22.6	18.5	0.00e+00	0	44	0	1534066688	6	3568
2026-01-03 04:36:01.58	188.87	43.48	-22.6	-22.9	18.6	8.65e-04	0	44	0	1541406720	5	3725
2026-01-03 04:36:02.58	188.96	43.19	-22.7	-23.1	18.5	7.72e-04	0	44	0	1547698176	5	3771
2026-01-03 04:36:03.59	189.05	42.91	-22.8	-23.3	18.4	0.00e+00	0	44	0	1556086784	5	3814
2026-01-03 04:36:04.59	189.13	42.63	-22.8	-23.4	18.3	0.00e+00	0	44	0	1562378240	5	3831
2026-01-03 04:36:05.59	189.21	42.35	-22.9	-23.6	18.3	7.48e-04	0	44	0	1569718272	5	3891
2026-01-03 04:36:06.59	189.29	42.07	-23.0	-23.7	18.2	0.00e+00	0	44	0	1577058304	5	3905
2026-01-03 04:36:07.59	189.37	41.80	-22.9	-23.0	18.2	6.11e-04	0	44	0	1584398336	6	3637
2026-01-03 04:36:08.58	189.45	41.53	-22.7	-23.1	18.5	8.46e-04	0	44	0	1591738368	5	3780
2026-01-03 04:36:09.59	189.52	41.25	-22.7	-23.1	18.1	0.00e+00	0	43	0	1599078400	5	3775
2026-01-03 04:36:10.58	189.60	40.99	-22.8	-23.4	18.4	8.82e-04	0	44	0	1606418432	5	3833
2026-01-03 04:36:11.58	189.67	40.72	-22.8	-23.3	18.4	0.00e+00	0	44	0	1613758464	5	3812
2026-01-03 04:36:12.59	189.75	40.45	-22.8	-23.4	18.4	0.00e+00	0	44	0	1621098496	5	3830
2026-01-03 04:36:13.59	189.82	40.19	-22.9	-23.5	18.3	8.86e-04	0	44	0	1627389952	5	3871
2026-01-03 04:36:14.59	189.89	39.93	-23.0	-23.7	18.2	0.00e+00	0	44	0	1634729984	5	3905
2026-01-03 04:36:15.59	189.96	39.67	-23.0	-23.8	18.1	0.00e+00	0	44	0	1642070016	5	3941
2026-01-03 04:36:16.60	190.03	39.41	-23.1	-23.9	18.1	0.00e+00	0	44	0	1649410048	5	3956
2026-01-03 04:36:17.60	190.10	39.15	-23.1	-23.5	18.0	0.00e+00	0	44	0	1656750080	6	3754
2026-01-03 04:36:18.60	190.16	38.90	-23.2	-23.7	18.0	0.00e+00	0	44	0	1664090112	6	3802
2026-01-03 04:36:19.61	190.23	38.64	-23.0	-23.3	18.0	0.00e+00	0	44	0	1671430144	6	3719
2026-01-03 04:36:20.61	190.29	38.39	-22.9	-23.0	18.3	0.00e+00	0	44	0	1678770176	6	3637
2026-01-03 04:36:21.62	190.36	38.14	-22.8	-22.8	18.4	0.00e+00	0	44	0	1685061632	6	3611
2026-01-03 04:36:22.62	190.42	37.90	-22.6	-23.0	18.6	0.00e+00	0	44	0	1692401664	5	3744
2026-01-03 04:36:23.63	190.48	37.65	-22.6	-22.8	18.6	8.26e-04	0	44	0	1699741696	5	3712
2026-01-03 04:36:24.64	190.55	37.40	-22.5	-22.7	18.7	0.00e+00	0	44	0	1707081728	5	3684
2026-01-03 04:36:25.64	190.61	37.16	-22.5	-22.7	18.7	0.00e+00	0	44	0	1714421760	5	3691
2026-01-03 04:36:26.64	190.67	36.92	-22.6	-22.8	18.6	0.00e+00	0	44	0	1721761792	5	3707
2026-01-03 04:36:27.65	190.73	36.68	-22.8	-23.3	18.4	0.00e+00	0	43	0	1729101824	5	3812
2026-01-03 04:36:28.65	190.78	36.45	-22.8	-23.4	18.3	0.00e+00	0	44	0	1736441856	5	3829
2026-01-03 04:36:29.66	190.84	36.21	-22.7	-23.0	18.5	0.00e+00	0	44	0	1743781888	5	3754
2026-01-03 04:36:30.66	190.90	35.98	-22.7	-23.2	18.4	0.00e+00	0	44	0	1751121920	5	3800
2026-01-03 04:36:31.67	190.95	35.74	-22.8	-23.3	18.4	0.00e+00	0	44	0	1758461952	5	3810
2026-01-03 04:36:32.68	191.01	35.51	-22.9	-23.5	18.3	0.00e+00	0	44	0	1765801984	5	3852
2026-01-03 04:36:33.68	191.06	35.28	-22.8	-23.3	18.3	0.00e+00	0	44	0	1773142016	5	3809
2026-01-03 04:36:34.69	191.12	35.06	-22.7	-23.1	18.5	0.00e+00	0	44	0	1780482048	5	3770
2026-01-03 04:36:35.69	191.17	34.83	-22.0	-22.4	17.8	0.00e+00	0	44	0	1787822080	5	3787
2026-01-03 04:36:36.70	191.22	34.61	-22.5	-22.8	18.6	0.00e+00	0	44	0	1794113536	5	3702
2026-01-03 04:36:37.71	191.27	34.38	-22.4	-22.5	17.9	2.67e-04	0	44	0	1801453568	5	3646
2026-01-03 04:36:38.71	191.32	34.16	-22.3	-22.8	18.8	0.00e+00	0	44	0	1808793600	4	3819
2026-01-03 04:36:39.72	191.38	33.94	-22.2	-22.6	18.9	0.00e+00	0	44	0	1816133632	4	3767
2026-01-03 04:36:40.73	191.43	33.72	-22.2	-22.7	18.9	0.00e+00	0	44	0	1823473664	4	3780
2026-01-03 04:36:41.74	191.47	33.51	-22.2	-22.5	18.9	0.00e+00	0	44	0	1830813696	4	3747
2026-01-03 04:36:42.73	191.52	33.29	-22.0	-22.1	19.2	0.00e+00	0	44	0	1838153728	4	3662
2026-01-03 04:36:43.74	191.57	33.08	-21.9	-22.0	19.2	2.20e-06	0	44	0	1845493760	4	3631
2026-01-03 04:36:44.74	191.62	32.87	-22.0	-22.1	19.2	1.75e-04	0	44	0	1852833792	4	3651
2026-01-03 04:36:45.75	191.67	32.66	-22.0	-22.2	19.1	0.00e+00	0	44	0	1860173824	4	3677
2026-01-03 04:36:46.76	191.71	32.45	-22.1	-22.4	19.0	2.20e-06	0	44	0	1867513856	4	3716
2026-01-03 04:36:47.77	191.76	32.24	-22.4	-22.9	18.8	1.84e-04	0	44	0	1874853888	4	3836
2026-01-03 04:36:48.77	191.80	32.03	-22.4	-23.0	18.7	0.00e+00	0	44	0	1881145344	4	3847
2026-01-03 04:36:49.78	191.85	31.83	-22.6	-23.3	18.6	1.96e-04	0	43	0	1888485376	4	3923
2026-01-03 04:36:50.78	191.89	31.62	-22.6	-22.8	18.4	2.23e-04	0	44	0	1896873984	5	3712
2026-01-03 04:36:51.79	191.93	31.42	-22.5	-22.8	18.6	0.00e+00	0	44	0	1903165440	5	3696
2026-01-03 04:36:52.79	191.98	31.22	-22.6	-22.9	18.5	1.76e-04	0	44	0	1910505472	5	3735
2026-01-03 04:36:53.80	192.02	31.02	-22.6	-22.9	18.5	0.00e+00	0	44	0	1917845504	5	3734
2026-01-03 04:36:54.81	192.06	30.82	-22.6	-23.0	18.3	0.00e+00	0	43	0	1925185536	5	3743
2026-01-03 04:36:55.82	192.10	30.62	-22.8	-23.3	18.3	1.70e-04	0	44	0	1932525568	5	3827
2026-01-03 04:36:56.82	192.15	30.43	-22.7	-23.2	18.3	1.81e-04	0	43	0	1939865600	5	3797
2026-01-03 04:36:57.83	192.19	30.24	-22.6	-23.0	18.5	0.00e+00	0	44	0	1947205632	5	3742
2026-01-03 04:36:58.84	192.23	30.04	-22.5	-22.7	18.6	1.51e-04	0	44	0	1954545664	5	3680
2026-01-03 04:36:59.84	192.27	29.85	-22.5	-22.6	18.6	1.01e-04	0	44	0	1961885696	5	3669
2026-01-03 04:37:00.84	192.31	29.66	-22.6	-22.9	18.4	0.00e+00	0	44	0	1969225728	5	3728
2026-01-03 04:37:01.85	192.35	29.47	-22.6	-22.9	18.4	6.98e-05	0	44	0	1976565760	5	3729
2026-01-03 04:37:02.86	192.38	29.28	-22.7	-23.1	18.3	7.32e-05	0	44	0	1982857216	5	3768
2026-01-03 04:37:03.87	192.42	29.10	-22.5	-22.8	18.5	0.00e+00	0	43	0	1990197248	5	3701
2026-01-03 04:37:04.87	192.46	28.91	-22.5	-22.7	18.5	9.38e-05	0	43	0	1997537280	5	3685
2026-01-03 04:37:05.88	192.50	28.73	-22.6	-22.8	18.5	0.00e+00	0	43	0	2004877312	5	3713
2026-01-03 04:37:06.88	192.54	28.55	-22.8	-23.3	18.3	0.00e+00	0	44	0	2012217344	5	3816
2026-01-03 04:37:07.89	192.57	28.36	-22.7	-23.0	18.4	1.43e-03	0	44	0	2019557376	5	3761
2026-01-03 04:37:08.90	192.61	28.18	-22.6	-23.0	18.4	0.00e+00	0	44	0	2026897408	5	3748
2026-01-03 04:37:09.90	192.64	28.00	-22.7	-23.0	18.4	0.00e+00	0	44	0	2034237440	5	3762
2026-01-03 04:37:10.91	192.68	27.82	-22.8	-23.2	18.3	0.00e+00	0	44	0	2041577472	5	3805
2026-01-03 04:37:11.91	192.71	27.65	-22.7	-23.2	18.3	3.89e-05	0	44	0	2048917504	5	3789
2026-01-03 04:37:12.91	192.75	27.47	-22.8	-23.3	18.2	1.60e-03	0	44	0	2056257536	5	3827
2026-01-03 04:37:13.92	192.78	27.30	-23.0	-23.8	18.0	0.00e+00	0	44	0	2063597568	5	3937
2026-01-03 04:37:14.93	192.82	27.12	-22.9	-23.7	18.1	5.95e-05	0	44	0	2069889024	5	3905
2026-01-03 04:37:15.93	192.85	26.95	-23.0	-23.8	18.0	1.61e-03	0	44	0	2078277632	5	3943
2026-01-03 04:37:16.95	192.89	26.78	-23.1	-23.9	17.9	0.00e+00	0	44	0	2085617664	5	3951
2026-01-03 04:37:17.95	192.92	26.61	-23.1	-23.5	17.9	1.73e-04	0	44	0	2091909120	6	3762
2026-01-03 04:37:18.96	192.95	26.44	-23.2	-23.7	17.8	0.00e+00	0	43	0	2099249152	6	3818
2026-01-03 04:37:19.96	192.98	26.27	-23.1	-23.6	17.8	1.58e-03	0	44	0	2106589184	6	3785
2026-01-03 04:37:20.97	193.02	26.10	-23.1	-23.5	17.9	1.80e-04	0	44	0	2113929216	6	3769
2026-01-03 04:37:21.98	193.05	25.93	-23.3	-23.8	17.6	0.00e+00	0	43	0	2121269248	6	3840
2026-01-03 04:37:22.98	193.08	25.77	-23.2	-23.7	17.8	1.54e-03	0	44	0	2128609280	6	3809
2026-01-03 04:37:23.99	193.11	25.60	-23.0	-23.3	17.9	0.00e+00	0	44	0	2135949312	6	3708
2026-01-03 04:37:25.00	193.14	25.44	-23.0	-23.2	18.0	1.47e-03	0	43	0	2143289344	6	3704
2026-01-03 04:37:26.00	193.17	25.28	-23.1	-23.6	17.8	1.42e-03	0	44	0	2150629376	6	3782
2026-01-03 04:37:27.01	193.20	25.12	-23.0	-23.8	17.9	2.54e-04	0	43	0	2157969408	5	3948
2026-01-03 04:37:28.02	193.24	24.96	-23.1	-23.9	17.9	1.37e-03	0	44	0	2165309440	5	3967
2026-01-03 04:37:29.02	193.27	24.80	-23.3	-23.8	17.7	0.00e+00	0	44	0	2171600896	6	3837
2026-01-03 04:37:30.03	193.29	24.64	-23.1	-23.4	17.9	2.76e-04	0	43	0	2178940928	6	3735
2026-01-03 04:37:31.03	193.32	24.48	-23.0	-23.3	18.0	0.00e+00	0	43	0	2187329536	6	3707
2026-01-03 04:37:32.04	193.35	24.32	-23.1	-23.4	17.9	0.00e+00	0	44	0	2193620992	6	3745
2026-01-03 04:37:33.04	193.38	24.17	-22.9	-23.6	18.0	2.47e-04	0	44	0	2200961024	5	3897
2026-01-03 04:37:34.05	193.41	24.01	-23.1	-23.9	17.9	0.00e+00	0	44	0	2208301056	5	3952
2026-01-03 04:37:35.06	193.44	23.86	-23.0	-23.7	18.0	1.30e-03	0	44	0	2215641088	5	3901
2026-01-03 04:37:36.06	193.47	23.71	-22.9	-23.5	18.0	0.00e+00	0	43	0	2222981120	5	3871
2026-01-03 04:37:37.07	193.50	23.55	-22.9	-23.5	18.1	0.00e+00	0	43	0	2230321152	5	3872
2026-01-03 04:37:38.08	193.52	23.40	-22.9	-23.5	18.1	1.36e-03	0	43	0	2237661184	5	3855
2026-01-03 04:37:39.09	193.55	23.25	-23.0	-23.7	17.9	0.00e+00	0	43	0	2245001216	5	3917
2026-01-03 04:37:40.08	193.58	23.11	-22.9	-23.5	18.0	0.00e+00	0	44	0	2252341248	5	3864
2026-01-03 04:37:41.08	193.61	22.96	-22.8	-23.4	18.1	0.00e+00	0	44	0	2259681280	5	3846
2026-01-03 04:37:42.09	193.63	22.81	-22.8	-23.4	18.1	0.00e+00	0	43	0	2267021312	5	3850
2026-01-03 04:37:43.10	193.66	22.66	-22.8	-23.4	18.1	0.00e+00	0	44	0	2274361344	5	3832
2026-01-03 04:37:44.11	193.69	22.51	-23.0	-23.7	18.0	0.00e+00	0	44	0	2280652800	5	3904
2026-01-03 04:37:45.11	193.71	22.37	-22.8	-23.3	18.0	0.00e+00	0	44	0	2287992832	5	3821
2026-01-03 04:37:46.12	193.74	22.23	-22.9	-23.4	18.1	0.00e+00	0	44	0	2295332864	5	3854
2026-01-03 04:37:47.12	193.76	22.08	-22.9	-23.6	18.0	0.00e+00	0	44	0	2302672896	5	3890
2026-01-03 04:37:48.13	193.79	21.94	-22.8	-23.4	18.1	0.00e+00	0	44	0	2310012928	5	3838
2026-01-03 04:37:49.13	193.81	21.80	-22.9	-23.5	18.1	0.00e+00	0	43	0	2317352960	5	3856
2026-01-03 04:37:50.14	193.84	21.66	-23.1	-23.9	17.8	0.00e+00	0	44	0	2324692992	5	3969
2026-01-03 04:37:51.14	193.86	21.52	-23.1	-23.9	17.8	0.00e+00	0	44	0	2332033024	5	3957
2026-01-03 04:37:52.15	193.89	21.38	-23.0	-23.8	17.9	0.00e+00	0	43	0	2339373056	5	3939
2026-01-03 04:37:53.15	193.91	21.24	-23.1	-23.5	17.7	0.00e+00	0	43	0	2346713088	6	3761
2026-01-03 04:37:54.16	193.94	21.10	-23.1	-23.5	17.8	0.00e+00	0	44	0	2354053120	6	3765
2026-01-03 04:37:55.17	193.96	20.96	-23.1	-23.4	17.8	0.00e+00	0	43	0	2360344576	6	3740
2026-01-03 04:37:56.18	193.99	20.82	-23.1	-23.5	17.8	0.00e+00	0	44	0	2367684608	6	3770
2026-01-03 04:37:57.18	194.01	20.69	-23.1	-23.5	17.8	0.00e+00	0	43	0	2376073216	6	3761
2026-01-03 04:37:58.19	194.03	20.55	-23.3	-24.0	17.5	0.00e+00	0	44	0	2382364672	6	3875
2026-01-03 04:37:59.19	194.06	20.42	-23.1	-23.4	17.8	0.00e+00	0	44	0	2389704704	6	3746
2026-01-03 04:38:00.20	194.08	20.29	-23.0	-23.7	17.9	0.00e+00	0	44	0	2397044736	5	3916
2026-01-03 04:38:01.20	194.10	20.15	-23.1	-23.5	17.8	1.10e-06	0	44	0	2404384768	6	3758
2026-01-03 04:38:02.21	194.13	20.02	-23.0	-23.2	17.9	0.00e+00	0	44	0	2411724800	6	3691
2026-01-03 04:38:03.22	194.15	19.89	-23.0	-23.2	17.9	0.00e+00	0	43	0	2419064832	6	3695
2026-01-03 04:38:04.22	194.17	19.76	-23.0	-23.4	17.8	0.00e+00	0	44	0	2426404864	6	3732
2026-01-03 04:38:05.23	194.19	19.63	-23.1	-23.5	17.7	0.00e+00	0	44	0	2433744896	6	3754
2026-01-03 04:38:06.24	194.22	19.50	-23.1	-23.5	17.7	0.00e+00	0	44	0	2441084928	6	3765
2026-01-03 04:38:07.24	194.24	19.37	-23.1	-23.6	17.7	0.00e+00	0	44	0	2448424960	6	3781
2026-01-03 04:38:08.25	194.26	19.24	-23.1	-23.6	17.7	0.00e+00	0	44	0	2455764992	6	3775
2026-01-03 04:38:09.25	194.28	19.11	-23.2	-23.8	17.6	0.00e+00	0	44	0	2463105024	6	3832
2026-01-03 04:38:10.26	194.30	18.99	-23.2	-23.7	17.6	0.00e+00	0	44	0	2469396480	6	3820
2026-01-03 04:38:11.27	194.33	18.86	-23.3	-23.9	17.5	0.00e+00	0	44	0	2476736512	6	3858
2026-01-03 04:38:12.27	194.35	18.73	-23.3	-24.0	17.5	0.00e+00	0	44	0	2484076544	6	3871
2026-01-03 04:38:13.28	194.37	18.61	-23.4	-24.2	17.4	0.00e+00	0	44	0	2491416576	6	3915
2026-01-03 04:38:14.28	194.39	18.48	-23.6	-24.0	17.2	0.00e+00	0	43	0	2498756608	7	3777
2026-01-03 04:38:15.28	194.41	18.36	-23.5	-23.9	17.2	0.00e+00	0	44	0	2506096640	7	3742
2026-01-03 04:38:16.28	194.43	18.24	-23.5	-23.9	17.2	1.10e-06	0	44	0	2513436672	7	3755
2026-01-03 04:38:17.28	194.45	18.12	-23.6	-24.5	17.2	0.00e+00	0	44	0	2520776704	6	3988
2026-01-03 04:38:18.28	194.47	18.00	-23.6	-24.5	17.2	0.00e+00	0	44	0	2528116736	6	3993
2026-01-03 04:38:19.29	194.49	17.87	-23.6	-24.1	17.2	0.00e+00	0	44	0	2535456768	7	3785
2026-01-03 04:38:20.30	194.51	17.75	-23.7	-24.1	17.1	5.49e-05	0	44	0	2542796800	7	3804
2026-01-03 04:38:21.30	194.53	17.63	-23.7	-24.3	17.0	0.00e+00	0	44	0	2550136832	7	3841
2026-01-03 04:38:22.31	194.55	17.51	-23.8	-24.3	17.0	0.00e+00	0	44	0	2556428288	7	3854
2026-01-03 04:38:23.32	194.57	17.39	-23.8	-24.5	16.9	1.94e-05	0	44	0	2563768320	7	3886
2026-01-03 04:38:24.32	194.59	17.28	-23.9	-24.6	16.9	0.00e+00	0	43	0	2571108352	7	3909
2026-01-03 04:38:25.32	194.61	17.16	-23.9	-24.7	16.8	2.28e-05	0	44	0	2578448384	7	3939
2026-01-03 04:38:26.33	194.63	17.04	-24.0	-24.9	16.6	1.83e-05	0	44	0	2585788416	7	3976
2026-01-03 04:38:27.34	194.65	16.92	-24.1	-25.0	16.6	0.00e+00	0	44	0	2593128448	7	4008
2026-01-03 04:38:28.35	194.67	16.81	-24.0	-24.9	16.7	1.37e-05	0	44	0	2600468480	7	3992
2026-01-03 04:38:29.35	194.69	16.69	-24.2	-24.7	16.5	2.97e-05	0	44	0	2607808512	8	3837
2026-01-03 04:38:30.35	194.71	16.58	-24.4	-25.1	16.3	0.00e+00	0	44	0	2615148544	8	3938
2026-01-03 04:38:31.36	194.73	16.46	-24.5	-25.5	16.1	0.00e+00	0	44	0	2622488576	8	4021
2026-01-03 04:38:32.36	194.74	16.35	-24.5	-25.4	16.1	9.72e-05	0	44	0	2629828608	8	4009
2026-01-03 04:38:33.37	194.76	16.24	-24.6	-25.2	16.0	0.00e+00	0	43	0	2636120064	9	3846
2026-01-03 04:38:34.37	194.78	16.12	-24.5	-24.9	16.2	0.00e+00	0	44	0	2643460096	9	3780
2026-01-03 04:38:35.38	194.80	16.01	-24.3	-24.5	16.3	2.20e-06	0	44	0	2651848704	9	3691
2026-01-03 04:38:36.39	194.82	15.90	-24.3	-24.9	16.4	0.00e+00	0	44	0	2658140160	8	3892
2026-01-03 04:38:37.40	194.84	15.79	-24.3	-25.0	16.4	8.47e-04	0	44	0	2665480192	8	3896
2026-01-03 04:38:38.41	194.85	15.67	-24.4	-25.2	16.3	8.00e-06	0	44	0	2672820224	8	3945
2026-01-03 04:38:39.42	194.87	15.56	-24.4	-25.3	16.2	9.26e-04	0	44	0	2680160256	8	3986
2026-01-03 04:38:40.42	194.89	15.45	-24.5	-25.4	16.2	1.02e-03	0	43	0	2687500288	8	3993
2026-01-03 04:38:41.43	194.91	15.34	-24.5	-25.5	16.1	1.79e-04	0	44	0	2694840320	8	4025
2026-01-03 04:38:42.44	194.92	15.23	-24.4	-25.3	16.2	1.02e-03	0	44	0	2702180352	8	3971
2026-01-03 04:38:43.44	194.94	15.13	-24.4	-25.3	16.2	9.86e-04	0	43	0	2709520384	8	3981
2026-01-03 04:38:44.45	194.96	15.02	-24.5	-25.4	16.1	1.99e-04	0	44	0	2716860416	8	4000
2026-01-03 04:38:45.45	194.98	14.91	-24.6	-25.6	16.0	9.50e-04	0	44	0	2724200448	8	4053
2026-01-03 04:38:46.46	194.99	14.80	-24.6	-25.6	16.0	9.09e-04	0	43	0	2731540480	8	4049
2026-01-03 04:38:47.47	195.01	14.70	-24.6	-25.2	16.0	1.97e-04	0	44	0	2738880512	9	3855
2026-01-03 04:38:48.47	195.03	14.59	-24.8	-25.6	15.8	2.86e-05	0	44	0	2745171968	9	3940
2026-01-03 04:38:49.48	195.05	14.49	-24.8	-25.7	15.7	1.16e-03	0	44	0	2752512000	9	3964
2026-01-03 04:38:50.48	195.06	14.38	-24.8	-25.7	15.7	0.00e+00	0	44	0	2760900608	9	3967
2026-01-03 04:38:51.49	195.08	14.28	-24.9	-25.8	15.6	1.14e-03	0	44	0	2767192064	9	3996
2026-01-03 04:38:52.49	195.10	14.17	-24.9	-25.9	15.6	1.12e-03	0	44	0	2774532096	9	4011
2026-01-03 04:38:53.50	195.11	14.07	-25.0	-26.0	15.5	0.00e+00	0	44	0	2781872128	9	4049
2026-01-03 04:38:54.50	195.13	13.97	-25.0	-26.1	15.5	1.10e-03	0	43	0	2789212160	9	4065
2026-01-03 04:38:55.51	195.14	13.86	-25.0	-26.0	15.5	0.00e+00	0	44	0	2796552192	9	4054
2026-01-03 04:38:56.52	195.16	13.76	-24.9	-25.9	15.5	1.22e-04	0	44	0	2803892224	9	4020
2026-01-03 04:38:57.52	195.18	13.66	-24.8	-25.6	15.7	9.93e-04	0	44	0	2811232256	9	3942
2026-01-03 04:38:58.53	195.19	13.56	-24.8	-25.5	15.7	0.00e+00	0	44	0	2818572288	9	3939
2026-01-03 04:38:59.54	195.21	13.45	-24.8	-25.5	15.7	1.14e-04	0	44	0	2825912320	9	3930
2026-01-03 04:39:00.54	195.22	13.35	-24.8	-25.6	15.7	3.40e-06	0	44	0	2833252352	9	3959
2026-01-03 04:39:01.55	195.24	13.25	-24.8	-25.5	15.7	0.00e+00	0	43	0	2840592384	9	3939
2026-01-03 04:39:02.56	195.26	13.15	-24.8	-25.6	15.6	0.00e+00	0	44	0	2846883840	9	3961
2026-01-03 04:39:03.57	195.27	13.05	-24.8	-25.6	15.7	5.70e-06	0	44	0	2854223872	9	3955
2026-01-03 04:39:04.57	195.29	12.95	-24.8	-25.6	15.7	0.00e+00	0	44	0	2861563904	9	3962
2026-01-03 04:39:05.58	195.30	12.85	-24.8	-25.7	15.6	0.00e+00	0	44	0	2868903936	9	3970
2026-01-03 04:39:06.59	195.32	12.76	-24.9	-25.7	15.6	0.00e+00	0	44	0	2876243968	9	3988
2026-01-03 04:39:07.60	195.33	12.66	-24.9	-25.9	15.5	0.00e+00	0	44	0	2883584000	9	4027
2026-01-03 04:39:08.60	195.35	12.56	-24.9	-25.8	15.5	0.00e+00	0	44	0	2890924032	9	4007
2026-01-03 04:39:09.62	195.36	12.46	-24.9	-25.9	15.5	0.00e+00	0	44	0	2898264064	9	4012
2026-01-03 04:39:10.63	195.38	12.36	-24.9	-25.9	15.5	0.00e+00	0	44	0	2905604096	9	4037
2026-01-03 04:39:11.63	195.39	12.27	-25.0	-26.1	15.4	0.00e+00	0	44	0	2912944128	9	4073
2026-01-03 04:39:12.64	195.41	12.17	-25.0	-26.1	15.4	0.00e+00	0	44	0	2920284160	9	4077
2026-01-03 04:39:13.64	195.42	12.08	-25.1	-26.2	15.3	0.00e+00	0	44	0	2927624192	9	4095
2026-01-03 04:39:14.65	195.44	11.98	-25.1	-26.2	15.3	0.00e+00	0	43	0	2934964224	9	4105
2026-01-03 04:39:15.66	195.45	11.89	-25.2	-26.0	15.2	0.00e+00	0	44	0	2942304256	10	3944
2026-01-03 04:39:16.66	195.47	11.79	-25.3	-26.1	15.1	0.00e+00	0	44	0	2949644288	10	3979
2026-01-03 04:39:17.67	195.48	11.70	-25.3	-26.2	15.0	0.00e+00	0	44	0	2955935744	10	4008
2026-01-03 04:39:18.68	195.50	11.60	-25.4	-26.4	15.0	0.00e+00	0	44	0	2964324352	10	4035
2026-01-03 04:39:19.69	195.51	11.51	-25.4	-26.5	14.9	0.00e+00	0	43	0	2971664384	10	4054
2026-01-03 04:39:20.70	195.53	11.42	-25.4	-26.4	14.9	0.00e+00	0	44	0	2977955840	10	4041
2026-01-03 04:39:21.70	195.54	11.32	-25.4	-26.5	14.9	0.00e+00	0	44	0	2985295872	10	4068
2026-01-03 04:39:22.71	195.55	11.23	-25.4	-26.5	14.9	0.00e+00	0	44	0	2992635904	10	4062
2026-01-03 04:39:23.72	195.57	11.14	-25.3	-26.2	15.0	0.00e+00	0	44	0	2999975936	10	4000
2026-01-03 04:39:24.73	195.58	11.05	-25.2	-26.0	15.1	0.00e+00	0	44	0	3007315968	10	3952
2026-01-03 04:39:25.74	195.60	10.96	-25.2	-26.1	15.1	0.00e+00	0	43	0	3014656000	10	3970
2026-01-03 04:39:26.74	195.61	10.86	-25.3	-26.2	15.0	0.00e+00	0	43	0	3021996032	10	3996
2026-01-03 04:39:27.74	195.62	10.77	-25.3	-26.2	15.0	0.00e+00	0	44	0	3029336064	10	3995
2026-01-03 04:39:28.74	195.64	10.68	-25.3	-26.2	15.0	0.00e+00	0	44	0	3036676096	10	4000
2026-01-03 04:39:29.75	195.65	10.59	-25.3	-26.3	14.9	0.00e+00	0	44	0	3044016128	10	4013
2026-01-03 04:39:30.76	195.66	10.50	-25.4	-26.4	14.9	0.00e+00	0	44	0	3051356160	10	4038
2026-01-03 04:39:31.76	195.68	10.42	-25.4	-26.4	14.9	0.00e+00	0	43	0	3058696192	10	4045
2026-01-03 04:39:32.77	195.69	10.33	-25.4	-26.3	14.9	0.00e+00	0	44	0	3064987648	10	4034
2026-01-03 04:39:33.78	195.70	10.24	-25.5	-26.6	14.7	0.00e+00	0	44	0	3072327680	10	4112
2026-01-03 04:39:34.78	195.72	10.15	-25.5	-26.6	14.6	0.00e+00	0	43	0	3079667712	10	4102
2026-01-03 04:39:35.79	195.73	10.06	-25.5	-26.6	14.7	0.00e+00	0	44	0	3087007744	10	4092
2026-01-03 04:39:36.80	195.74	9.97	-25.5	-26.6	14.7	0.00e+00	0	44	0	3094347776	10	4097
2026-01-03 04:39:37.81	195.76	9.88	-25.5	-26.7	14.6	0.00e+00	0	44	0	3101687808	10	4134
2026-01-03 04:39:38.82	195.77	9.80	-25.6	-26.3	14.6	0.00e+00	0	43	0	3109027840	11	3924
2026-01-03 04:39:39.83	195.78	9.71	-25.5	-26.3	14.6	0.00e+00	0	44	0	3116367872	11	3907
2026-01-03 04:39:40.84	195.80	9.62	-25.6	-26.3	14.6	1.10e-06	0	44	0	3123707904	11	3918
2026-01-03 04:39:41.85	195.81	9.54	-25.6	-26.5	14.5	0.00e+00	0	44	0	3131047936	11	3971
2026-01-03 04:39:42.85	195.82	9.45	-25.7	-26.5	14.5	0.00e+00	0	44	0	3138387968	11	3981
2026-01-03 04:39:43.86	195.84	9.36	-25.7	-26.6	14.4	8.00e-06	0	44	0	3145728000	11	4001
2026-01-03 04:39:44.86	195.85	9.28	-25.7	-26.6	14.4	1.10e-06	0	44	0	3153068032	11	4006
2026-01-03 04:39:45.87	195.86	9.19	-25.8	-26.8	14.3	0.00e+00	0	44	0	3160408064	11	4041
2026-01-03 04:39:46.87	195.87	9.11	-25.7	-26.7	14.4	2.28e-05	0	44	0	3166699520	11	4007
2026-01-03 04:39:47.88	195.89	9.03	-25.1	-26.3	14.2	1.10e-06	0	44	0	3174039552	11	4111
2026-01-03 04:39:48.89	195.90	8.94	-25.8	-26.9	14.2	3.40e-06	0	44	0	3182428160	11	4077
2026-01-03 04:39:49.89	195.91	8.86	-25.7	-26.7	14.3	0.00e+00	0	43	0	3188719616	11	4028
2026-01-03 04:39:50.90	195.92	8.77	-25.8	-26.9	14.2	1.25e-03	0	44	0	3196059648	11	4064
2026-01-03 04:39:51.91	195.94	8.69	-25.9	-27.0	14.1	6.80e-06	0	44	0	3203399680	11	4106
2026-01-03 04:39:52.91	195.95	8.61	-25.8	-26.9	14.2	9.04e-05	0	44	0	3210739712	11	4083
2026-01-03 04:39:53.92	195.96	8.52	-26.0	-27.3	13.9	2.20e-06	0	44	0	3218079744	11	4186
2026-01-03 04:39:54.92	195.97	8.44	-26.0	-27.2	14.0	1.10e-06	0	44	0	3225419776	11	4161
2026-01-03 04:39:55.93	195.98	8.36	-25.9	-27.2	14.0	8.69e-05	0	44	0	3232759808	11	4150
2026-01-03 04:39:56.93	196.00	8.28	-26.1	-27.0	13.7	5.70e-06	0	44	0	3240099840	12	4015
2026-01-03 04:39:57.94	196.01	8.20	-26.4	-27.8	13.3	1.45e-03	0	44	0	3247439872	12	4217
2026-01-03 04:39:58.94	196.02	8.11	-26.2	-27.2	13.6	1.59e-04	0	44	0	3254779904	12	4062
2026-01-03 04:39:59.95	196.03	8.03	-26.1	-27.0	13.7	1.51e-03	0	44	0	3262119936	12	4008
2026-01-03 04:40:00.95	196.04	7.95	-26.1	-27.5	13.8	1.52e-03	0	43	0	3269459968	11	4226
2026-01-03 04:40:01.96	196.06	7.87	-26.1	-27.1	13.6	7.09e-05	0	43	0	3275751424	12	4033
2026-01-03 04:40:02.96	196.07	7.79	-26.1	-27.0	13.7	1.54e-03	0	44	0	3283091456	12	4004
2026-01-03 04:40:03.97	196.08	7.71	-26.1	-27.0	13.7	1.61e-03	0	44	0	3290431488	12	4004
2026-01-03 04:40:04.98	196.09	7.63	-26.2	-27.2	13.5	1.15e-04	0	44	0	3297771520	12	4063
2026-01-03 04:40:05.98	196.10	7.55	-26.1	-27.1	13.6	1.59e-03	0	44	0	3305111552	12	4043
2026-01-03 04:40:06.99	196.12	7.47	-26.2	-27.2	13.5	1.01e-04	0	43	0	3312451584	12	4061
2026-01-03 04:40:08.00	196.13	7.39	-26.1	-27.1	13.5	1.04e-04	0	44	0	3319791616	12	4040
2026-01-03 04:40:09.00	196.14	7.31	-26.3	-27.6	13.3	1.48e-03	0	44	0	3327131648	12	4160
2026-01-03 04:40:10.01	196.15	7.23	-26.2	-27.3	13.4	1.70e-03	0	44	0	3334471680	12	4083
2026-01-03 04:40:11.01	196.16	7.16	-26.2	-27.3	13.4	2.39e-04	0	44	0	3341811712	12	4085
2026-01-03 04:40:12.02	196.17	7.08	-26.2	-27.3	13.5	1.60e-05	0	44	0	3349151744	12	4073
2026-01-03 04:40:13.02	196.18	7.00	-32.6	-42.5	3.8	8.46e-01	0	44	104	3351248896	24	11312
2026-01-03 04:40:14.03	196.20	6.92	-32.8	-42.4	3.8	8.45e-01	0	44	104	3351248896	25	10943
2026-01-03 04:40:15.04	196.21	6.85	-32.9	-42.6	3.8	8.45e-01	0	44	104	3351248896	25	11065

#Closed at: 2026-01-03 04:40:15
#Recorded file [3351 MB]: D:/data/31010_260103_073227.dat