passes_logs/2025/01/08/X_MFTI_01/X_MFTI_01__20250108_005921_FENGYUN_3D_rec.log

#Pass ID: 20250108_005921_FENGYUN 3D
#Satellite: FENGYUN 3D
#Configuration: FENGYUN 3D
#Start time: 2025-01-08 00:59:16

#Version: 1.5.20200625
#Station: X_MFTI_01
#Location: 37.5186 lon 55.9291 lat
#TLE: 1 43010U 17072A   23362.50642187  .00000183  00000+0  10870-3 0  9994
#TLE: 2 43010  98.8887 311.3857 0002475  98.0400 262.1057 14.19259665317063

#Time	Az	El	Level	Level2	SNR	BER	Gain	Gain2
2025-01-08 00:59:16.39	40.96	68.29	-74.7	-95.7	3.8	8455558	99	40286
2025-01-08 00:59:16.60	41.07	68.37	-74.8	-95.8	3.8	8455101	99	40334
2025-01-08 00:59:16.80	41.18	68.46	-74.8	-95.8	3.8	8455101	99	39987
2025-01-08 00:59:17.00	41.30	68.54	-74.8	-95.7	3.8	8474418	99	39999
2025-01-08 00:59:17.20	41.41	68.62	-74.7	-95.6	3.8	8449665	99	39976
2025-01-08 00:59:17.41	41.53	68.71	-74.8	-95.7	3.8	8449665	99	39943
2025-01-08 00:59:17.62	41.65	68.80	-74.8	-95.4	3.8	8461601	99	38686
2025-01-08 00:59:17.82	41.76	68.88	-74.8	-95.4	3.8	8453876	99	38750
2025-01-08 00:59:18.04	41.89	68.97	-74.7	-95.6	3.8	8465881	99	39988
2025-01-08 00:59:18.24	42.01	69.05	-74.8	-95.7	3.8	8465881	99	39949
2025-01-08 00:59:18.44	42.13	69.14	-74.8	-95.7	3.8	8457618	99	40046
2025-01-08 00:59:18.64	42.25	69.22	-74.8	-95.8	3.8	8445854	99	40004
2025-01-08 00:59:18.84	42.37	69.30	-74.8	-95.7	3.8	8445854	99	39996
2025-01-08 00:59:19.04	42.49	69.39	-74.7	-95.5	3.8	8462722	99	39164
2025-01-08 00:59:19.25	42.62	69.47	-74.8	-95.6	3.8	8455696	99	39277
2025-01-08 00:59:19.45	42.75	69.56	-74.8	-95.6	3.8	8455696	99	39243
2025-01-08 00:59:19.65	42.87	69.64	-74.8	-95.7	3.8	8447021	99	40049
2025-01-08 00:59:19.85	43.00	69.72	-74.7	-95.6	3.8	8459838	99	39935
2025-01-08 00:59:20.05	43.13	69.80	-74.7	-95.6	3.8	8459838	99	39989
2025-01-08 00:59:20.25	43.26	69.89	-74.8	-95.7	3.8	8467689	99	39962
2025-01-08 00:59:20.45	43.39	69.97	-74.9	-95.8	3.8	8452789	99	40006
2025-01-08 00:59:20.65	43.52	70.05	-74.8	-95.4	3.8	8459850	99	38727
2025-01-08 00:59:20.86	43.66	70.14	-74.7	-95.4	3.8	8459850	99	38640
2025-01-08 00:59:21.06	43.79	70.22	-74.7	-95.3	3.8	8458614	99	38550
2025-01-08 00:59:21.26	43.92	70.31	-74.8	-95.7	3.8	8452835	99	39962
2025-01-08 00:59:21.47	44.07	70.39	-74.8	-95.7	3.8	8452835	99	40031
2025-01-08 00:59:21.67	44.20	70.47	-74.8	-95.6	3.8	8461017	99	39736
2025-01-08 00:59:21.88	44.35	70.56	-74.8	-95.7	3.8	8460903	99	39965
2025-01-08 00:59:22.08	44.49	70.64	-74.7	-95.7	3.8	8460903	99	39991
2025-01-08 00:59:22.29	44.64	70.73	-74.8	-95.5	3.8	8466327	99	39143
2025-01-08 00:59:22.49	44.78	70.81	-74.8	-95.5	3.8	8453945	99	39153
2025-01-08 00:59:22.70	44.93	70.90	-74.8	-95.7	3.8	8439846	99	39939
2025-01-08 00:59:22.90	45.07	70.98	-74.8	-95.7	3.8	8439846	99	40011
2025-01-08 00:59:23.10	45.22	71.06	-74.7	-95.7	3.8	8460845	99	40503
2025-01-08 00:59:23.31	45.38	71.15	-74.7	-95.7	3.8	8463603	99	40353
2025-01-08 00:59:23.51	45.52	71.23	-74.8	-95.8	3.8	8463603	99	40371
2025-01-08 00:59:23.72	45.68	71.32	-74.8	-95.7	3.8	8462997	99	39781
2025-01-08 00:59:23.92	45.83	71.40	-74.7	-95.6	3.8	8464553	99	39782
2025-01-08 00:59:24.12	45.99	71.48	-74.7	-95.5	3.8	8464553	99	39750
2025-01-08 00:59:24.32	46.14	71.57	-74.7	-95.7	3.8	8445178	99	40402
2025-01-08 00:59:24.54	46.31	71.66	-74.8	-95.8	3.8	8453338	99	40399
2025-01-08 00:59:24.74	46.47	71.74	-74.6	-95.6	3.8	8460525	99	40322
2025-01-08 00:59:24.94	46.63	71.82	-74.7	-95.8	3.8	8460525	99	40498
2025-01-08 00:59:25.14	46.79	71.90	-74.8	-95.8	3.8	8465606	99	40457
2025-01-08 00:59:25.34	46.96	71.98	-74.7	-95.6	3.8	8460342	99	39910
2025-01-08 00:59:25.54	47.12	72.07	-74.8	-95.7	3.9	8460342	99	39917
2025-01-08 00:59:25.74	47.28	72.15	-74.7	-95.6	3.9	8453361	99	39752
2025-01-08 00:59:25.94	47.45	72.23	-74.7	-95.7	3.8	8458385	99	40432
2025-01-08 00:59:26.15	47.63	72.31	-74.8	-95.8	3.8	8458385	99	40356
2025-01-08 00:59:26.35	47.80	72.39	-74.7	-95.7	3.8	8457653	99	40399
2025-01-08 00:59:26.56	47.98	72.48	-74.8	-95.8	3.8	8461864	99	40248
2025-01-08 00:59:26.76	48.15	72.56	-74.7	-95.6	3.7	8461864	99	40213
2025-01-08 00:59:26.97	48.34	72.65	-74.7	-95.6	3.8	8443004	99	40170
2025-01-08 00:59:27.17	48.52	72.73	-74.7	-95.7	3.8	8465183	99	40232
2025-01-08 00:59:27.37	48.70	72.81	-74.7	-95.7	3.8	8462528	99	40301
2025-01-08 00:59:27.57	48.88	72.89	-74.7	-95.7	3.8	8462528	99	40284
2025-01-08 00:59:27.77	49.06	72.97	-74.7	-95.7	3.8	8458831	99	40214
2025-01-08 00:59:27.97	49.24	73.05	-74.7	-95.7	3.8	8454620	99	40138
2025-01-08 00:59:28.17	49.43	73.13	-74.7	-95.7	3.8	8454620	99	40294
2025-01-08 00:59:28.37	49.62	73.21	-74.8	-95.4	3.8	8457916	99	38738
2025-01-08 00:59:28.58	49.82	73.29	-74.7	-95.3	3.8	8451461	99	38765
2025-01-08 00:59:28.78	50.01	73.37	-74.7	-95.4	3.8	8451461	99	38780
2025-01-08 00:59:28.98	50.21	73.45	-74.7	-95.7	3.8	8475769	99	40141
2025-01-08 00:59:29.18	50.40	73.53	-74.8	-95.7	3.8	8460720	99	40163
2025-01-08 00:59:29.38	50.60	73.61	-74.7	-95.6	3.8	8460720	99	40186
2025-01-08 00:59:29.58	50.80	73.69	-74.7	-95.6	3.8	8466190	99	40175
2025-01-08 00:59:29.78	51.00	73.77	-74.6	-95.5	3.7	8458168	99	40112
2025-01-08 00:59:29.98	51.21	73.85	-74.7	-95.5	3.8	8458168	99	39515
2025-01-08 00:59:30.18	51.41	73.93	-74.6	-95.5	3.8	8460685	99	39575
2025-01-08 00:59:30.39	51.63	74.01	-74.7	-95.5	3.8	8467655	99	39572
2025-01-08 00:59:30.59	51.84	74.09	-74.7	-95.6	3.8	8480827	99	40166
2025-01-08 00:59:30.79	52.05	74.17	-74.7	-95.6	3.8	8480827	99	40221
2025-01-08 00:59:31.00	52.28	74.25	-74.7	-95.6	3.8	8464920	99	40188
2025-01-08 00:59:31.21	52.51	74.34	-74.7	-95.7	3.8	8455192	99	40167
2025-01-08 00:59:31.42	52.74	74.42	-74.7	-95.6	3.7	8455192	99	39675
2025-01-08 00:59:31.62	52.96	74.50	-74.7	-95.6	3.8	8454689	99	39863
2025-01-08 00:59:31.82	53.19	74.57	-74.7	-95.6	3.8	8448326	99	39769
2025-01-08 00:59:32.03	53.43	74.66	-74.7	-95.7	3.8	8471958	99	40387
2025-01-08 00:59:32.24	53.67	74.74	-74.7	-95.7	3.8	8471958	99	40378
2025-01-08 00:59:32.44	53.90	74.81	-74.7	-95.7	3.8	8449962	99	40412
2025-01-08 00:59:32.66	54.16	74.90	-74.7	-95.7	3.8	8459999	99	40391
2025-01-08 00:59:32.86	54.39	74.98	-74.8	-95.8	3.7	8459999	99	40356
2025-01-08 00:59:33.08	54.66	75.06	-74.7	-95.3	3.8	8468616	99	38992
2025-01-08 00:59:33.29	54.91	75.14	-74.7	-95.4	3.8	8462104	99	39084
2025-01-08 00:59:33.49	55.16	75.22	-74.7	-95.4	3.8	8468627	99	39049
2025-01-08 00:59:33.69	55.41	75.29	-74.7	-95.6	3.8	8468627	99	40325
2025-01-08 00:59:33.89	55.66	75.37	-74.7	-95.7	3.8	8456222	99	40436
2025-01-08 00:59:34.10	55.92	75.45	-74.7	-95.7	3.8	8457504	99	40363
2025-01-08 00:59:34.30	56.18	75.52	-74.7	-95.7	3.7	8457504	99	40449
2025-01-08 00:59:34.50	56.44	75.60	-74.7	-95.6	3.8	8454368	99	39728
2025-01-08 00:59:34.70	56.70	75.67	-74.7	-95.6	3.8	8463478	99	39822
2025-01-08 00:59:34.90	56.96	75.75	-74.7	-95.6	3.8	8463478	99	39875
2025-01-08 00:59:35.12	57.26	75.83	-74.7	-95.7	3.8	8460330	99	40456
2025-01-08 00:59:35.32	57.53	75.90	-74.8	-95.8	3.8	8448841	99	40474
2025-01-08 00:59:35.52	57.80	75.98	-74.7	-95.7	3.8	8460720	99	40434
2025-01-08 00:59:35.72	58.08	76.05	-74.7	-95.7	3.8	8460720	99	40402
2025-01-08 00:59:35.92	58.36	76.12	-74.7	-95.6	3.8	8454402	99	40234
2025-01-08 00:59:36.14	58.67	76.20	-74.7	-95.6	3.8	8472335	99	40165
2025-01-08 00:59:36.34	58.95	76.28	-74.7	-95.6	3.8	8472335	99	40109
2025-01-08 00:59:36.54	59.24	76.35	-74.7	-95.7	3.8	8460651	99	40195
2025-01-08 00:59:36.74	59.54	76.42	-74.8	-95.8	3.8	8457756	99	40466
2025-01-08 00:59:36.94	59.83	76.49	-74.7	-95.8	3.8	8447696	99	40448
2025-01-08 00:59:37.14	60.13	76.56	-74.7	-95.7	3.9	8447696	99	40453
2025-01-08 00:59:37.36	60.46	76.64	-74.6	-95.6	3.8	8460090	99	40436
2025-01-08 00:59:37.56	60.77	76.71	-74.8	-95.8	3.8	8460880	99	40344
2025-01-08 00:59:37.76	61.08	76.78	-74.7	-95.6	3.8	8460880	99	39820
2025-01-08 00:59:37.96	61.39	76.85	-74.8	-95.5	3.8	8457332	99	39317
2025-01-08 00:59:38.18	61.74	76.93	-74.6	-95.5	3.8	8457984	99	39897
2025-01-08 00:59:38.38	62.06	77.00	-74.7	-95.7	3.8	8457984	99	40383
2025-01-08 00:59:38.59	62.40	77.07	-74.7	-95.7	3.8	8445156	99	40341
2025-01-08 00:59:38.81	62.76	77.14	-74.7	-95.7	3.8	8449470	99	40381
2025-01-08 00:59:39.01	63.09	77.21	-74.7	-95.7	3.8	8452812	99	40257
2025-01-08 00:59:39.21	63.42	77.28	-74.7	-95.6	3.9	8452812	99	39924
2025-01-08 00:59:39.41	63.76	77.35	-74.7	-95.6	3.8	8449893	99	39547
2025-01-08 00:59:39.63	64.13	77.42	-74.7	-95.5	3.8	8454368	99	39517
2025-01-08 00:59:39.84	64.50	77.49	-74.8	-95.7	3.8	8454368	99	40011
2025-01-08 00:59:40.05	64.86	77.56	-74.7	-95.6	3.8	8459712	99	40001
2025-01-08 00:59:40.25	65.22	77.63	-74.8	-95.7	3.8	8459644	99	39938
2025-01-08 00:59:40.45	65.58	77.69	-74.7	-95.6	3.8	8459106	99	39877
2025-01-08 00:59:40.65	65.94	77.76	-74.7	-95.6	3.8	8459106	99	39998
2025-01-08 00:59:40.85	66.30	77.82	-74.8	-95.8	3.8	8451942	99	40286
2025-01-08 00:59:41.05	66.67	77.88	-74.6	-95.5	3.8	8458740	99	39933
2025-01-08 00:59:41.25	67.05	77.95	-74.7	-95.7	3.8	8458740	99	40137
2025-01-08 00:59:41.45	67.42	78.01	-74.8	-95.8	3.8	8457481	99	40202
2025-01-08 00:59:41.65	67.80	78.07	-74.8	-95.8	3.8	8465457	99	40129
2025-01-08 00:59:41.85	68.19	78.13	-74.8	-95.7	3.8	8465457	99	39962
2025-01-08 00:59:42.06	68.60	78.20	-74.6	-95.4	3.8	8458454	99	39230
2025-01-08 00:59:42.26	68.99	78.26	-74.7	-95.7	3.7	8458522	99	40045
2025-01-08 00:59:42.46	69.39	78.32	-74.8	-95.7	3.8	8458522	99	40064
2025-01-08 00:59:42.66	69.79	78.38	-74.8	-95.7	3.8	8461372	99	40093
2025-01-08 00:59:42.86	70.20	78.44	-74.8	-95.7	3.8	8455593	99	39975
2025-01-08 00:59:43.06	70.61	78.50	-74.7	-95.6	3.8	8455593	99	40070
2025-01-08 00:59:43.28	71.07	78.56	-74.7	-95.6	3.8	8457229	99	39964
2025-01-08 00:59:43.48	71.49	78.62	-74.7	-95.6	3.8	8444206	99	39947
2025-01-08 00:59:43.69	71.93	78.68	-74.7	-95.6	3.7	8448577	99	40075
2025-01-08 00:59:43.89	72.36	78.73	-74.7	-95.3	3.8	8448577	99	38677
2025-01-08 00:59:44.09	72.80	78.79	-74.6	-95.1	3.8	8458831	99	37983
2025-01-08 00:59:44.30	73.25	78.85	-74.8	-95.4	3.8	8465927	99	38685
2025-01-08 00:59:44.51	73.72	78.90	-74.8	-95.7	3.8	8465927	99	40080
2025-01-08 00:59:44.71	74.17	78.96	-74.7	-95.7	3.8	8457206	99	40018
2025-01-08 00:59:44.91	74.62	79.01	-74.8	-95.7	3.8	8463672	99	40025
2025-01-08 00:59:45.12	75.10	79.07	-74.7	-95.6	3.8	8463672	99	40024
2025-01-08 00:59:45.33	75.58	79.12	-74.7	-95.6	3.8	8456531	99	39987
2025-01-08 00:59:45.53	76.04	79.17	-74.7	-95.5	3.8	8463500	99	39494
2025-01-08 00:59:45.73	76.51	79.22	-74.8	-95.6	3.8	8456211	99	39546
2025-01-08 00:59:45.94	77.01	79.27	-74.7	-95.6	3.8	8456211	99	39520
2025-01-08 00:59:46.15	77.51	79.32	-74.5	-95.3	3.8	8455638	99	39622
2025-01-08 00:59:46.37	78.04	79.38	-74.8	-95.7	3.8	8454025	99	40043
2025-01-08 00:59:46.57	78.53	79.42	-74.8	-95.7	3.8	8454025	99	39996
2025-01-08 00:59:46.77	79.02	79.47	-74.7	-95.6	3.8	8464176	99	40047
2025-01-08 00:59:46.97	79.52	79.52	-74.8	-95.6	3.8	8457790	99	39547
2025-01-08 00:59:47.17	80.02	79.56	-74.8	-95.6	3.8	8462814	99	39558
2025-01-08 00:59:47.37	80.53	79.61	-74.8	-95.6	3.8	8462814	99	39556
2025-01-08 00:59:47.57	81.04	79.65	-74.7	-95.7	3.8	8459335	99	40006
2025-01-08 00:59:47.79	81.60	79.70	-74.9	-95.8	3.8	8460960	99	40231
2025-01-08 00:59:47.99	82.12	79.74	-74.8	-95.7	3.8	8460960	99	40034
2025-01-08 00:59:48.21	82.70	79.78	-74.7	-95.6	3.8	8461006	99	40042
2025-01-08 00:59:48.41	83.23	79.82	-74.7	-95.7	3.8	8448177	99	40078
2025-01-08 00:59:48.61	83.76	79.86	-74.7	-95.4	3.8	8448177	99	39022
2025-01-08 00:59:48.81	84.30	79.90	-74.8	-95.5	3.8	8464725	99	39062
2025-01-08 00:59:49.02	84.86	79.94	-74.7	-95.4	3.8	8463420	99	39029
2025-01-08 00:59:49.23	85.44	79.98	-74.7	-95.6	3.8	8448841	99	40025
2025-01-08 00:59:49.43	85.98	80.01	-74.8	-95.6	3.8	8448841	99	39829
2025-01-08 00:59:49.63	86.54	80.05	-74.7	-95.6	3.8	8455444	99	40036
2025-01-08 00:59:49.83	87.09	80.08	-74.8	-95.7	3.8	8450157	99	40014
2025-01-08 00:59:50.05	87.71	80.12	-74.8	-95.4	3.8	8450157	99	38765
2025-01-08 00:59:50.25	88.28	80.15	-74.8	-95.4	3.8	8460285	99	38757
2025-01-08 00:59:50.45	88.84	80.18	-74.7	-95.4	3.8	8456336	99	38777
2025-01-08 00:59:50.65	89.42	80.21	-74.7	-95.6	3.8	8449436	99	39991
2025-01-08 00:59:50.85	89.99	80.24	-74.7	-95.6	3.8	8449436	99	39997
2025-01-08 00:59:51.07	90.63	80.27	-74.8	-95.8	3.8	8442787	99	40014
2025-01-08 00:59:51.27	91.21	80.30	-74.7	-95.7	3.8	8460868	99	39980
2025-01-08 00:59:51.47	91.80	80.32	-74.7	-95.6	3.8	8460868	99	40080
2025-01-08 00:59:51.67	92.39	80.35	-74.7	-95.7	3.8	8447147	99	40076
2025-01-08 00:59:51.87	92.98	80.37	-74.7	-95.7	3.8	8448051	99	40459
2025-01-08 00:59:52.09	93.63	80.40	-74.6	-95.7	3.8	8457252	99	40425
2025-01-08 00:59:52.29	94.23	80.42	-74.7	-95.7	3.8	8457252	99	40418
2025-01-08 00:59:52.49	94.83	80.44	-74.7	-95.7	3.8	8457332	99	40277
2025-01-08 00:59:52.69	95.43	80.46	-74.7	-95.7	3.8	8458511	99	40415
2025-01-08 00:59:52.89	96.04	80.48	-74.7	-95.7	3.8	8458511	99	40408
2025-01-08 00:59:53.09	96.65	80.50	-74.7	-95.5	3.7	8453762	99	39793
2025-01-08 00:59:53.31	97.32	80.51	-74.7	-95.6	3.8	8457492	99	40001
2025-01-08 00:59:53.51	97.93	80.53	-74.7	-95.6	3.8	8457492	99	39809
2025-01-08 00:59:53.71	98.55	80.54	-74.8	-95.8	3.8	8458557	99	40427
2025-01-08 00:59:53.91	99.16	80.56	-74.7	-95.7	3.8	8469543	99	40307
2025-01-08 00:59:54.11	99.78	80.57	-74.7	-95.7	3.8	8469543	99	40385
2025-01-08 00:59:54.31	100.40	80.58	-74.7	-95.6	3.8	8454368	99	40264
2025-01-08 00:59:54.51	101.02	80.59	-74.8	-95.8	3.8	8452972	99	40441
2025-01-08 00:59:54.72	101.68	80.60	-74.7	-95.6	3.9	8452972	99	39880
2025-01-08 00:59:54.92	102.30	80.61	-74.7	-95.6	3.9	8461372	99	39928
2025-01-08 00:59:55.12	102.92	80.62	-74.7	-95.6	3.8	8463867	99	39964
2025-01-08 00:59:55.32	103.55	80.62	-74.7	-95.7	3.8	8463867	99	40482
2025-01-08 00:59:55.52	104.18	80.63	-74.7	-95.6	3.8	8464679	99	40204
2025-01-08 00:59:55.72	104.80	80.63	-74.7	-95.7	3.8	8454483	99	40409
2025-01-08 00:59:55.92	105.43	80.63	-74.7	-95.6	3.7	8461246	99	40255
2025-01-08 00:59:56.12	106.06	80.63	-74.6	-95.6	3.7	8461246	99	40175
2025-01-08 00:59:56.33	106.71	80.63	-74.7	-95.5	3.9	8453727	99	39778
2025-01-08 00:59:56.53	107.34	80.63	-74.8	-95.6	3.8	8460079	99	39642
2025-01-08 00:59:56.73	107.97	80.63	-74.7	-95.6	3.8	8460079	99	39736
2025-01-08 00:59:56.93	108.60	80.63	-74.6	-95.6	3.8	8450580	99	40136
2025-01-08 00:59:57.13	109.22	80.62	-74.7	-95.7	3.8	8463478	99	40484
2025-01-08 00:59:57.33	109.85	80.62	-74.6	-95.6	3.8	8463478	99	40448
2025-01-08 00:59:57.53	110.47	80.61	-74.7	-95.7	3.8	8460765	99	40333
2025-01-08 00:59:57.73	111.10	80.60	-74.8	-95.8	3.8	8462265	99	40328
2025-01-08 00:59:57.93	111.72	80.59	-74.7	-95.6	3.8	8462265	99	39909
2025-01-08 00:59:58.15	112.40	80.58	-74.7	-95.6	3.8	8453201	99	39830
2025-01-08 00:59:58.35	113.02	80.57	-74.7	-95.7	3.8	8446403	99	40417
2025-01-08 00:59:58.55	113.64	80.56	-74.6	-95.6	3.8	8452720	99	40281
2025-01-08 00:59:58.77	114.32	80.55	-74.7	-95.7	3.8	8452720	99	40305
2025-01-08 00:59:58.97	114.93	80.53	-74.8	-95.8	3.8	8461143	99	40308
2025-01-08 00:59:59.17	115.55	80.52	-74.7	-95.7	3.8	8455810	99	40227
2025-01-08 00:59:59.38	116.19	80.50	-74.7	-95.6	3.8	8455810	99	39952
2025-01-08 00:59:59.59	116.83	80.48	-74.6	-95.4	3.8	8455455	99	39761
2025-01-08 00:59:59.79	117.43	80.46	-74.7	-95.6	3.8	8464290	99	39931
2025-01-08 01:00:00.00	118.07	80.44	-74.7	-95.6	3.8	8461807	99	40170
2025-01-08 01:00:00.20	118.67	80.42	-74.6	-95.6	3.8	8461807	99	40188
2025-01-08 01:00:00.40	119.27	80.40	-74.8	-95.7	3.8	8448280	99	40255
2025-01-08 01:00:00.61	119.89	80.37	-74.7	-95.7	3.8	8467323	99	40266
2025-01-08 01:00:00.82	120.51	80.35	-74.7	-95.7	3.8	8467323	99	40303
2025-01-08 01:00:01.04	121.16	80.32	-74.7	-95.5	3.8	8457218	99	39545
2025-01-08 01:00:01.24	121.75	80.29	-74.6	-95.4	3.8	8470561	99	39368
2025-01-08 01:00:01.44	122.33	80.27	-74.7	-95.6	3.8	8459358	99	40206
2025-01-08 01:00:01.65	122.94	80.24	-74.6	-95.6	3.8	8459358	99	40252
2025-01-08 01:00:01.86	123.54	80.21	-74.7	-95.7	3.8	8458087	99	40266
2025-01-08 01:00:02.07	124.14	80.18	-74.8	-95.7	3.8	8472129	99	39949
2025-01-08 01:00:02.27	124.71	80.15	-74.8	-95.6	3.8	8472129	99	39722
2025-01-08 01:00:02.47	125.27	80.11	-74.7	-95.5	3.8	8466133	99	39296
2025-01-08 01:00:02.68	125.86	80.08	-74.7	-95.5	3.8	8469692	99	39315
2025-01-08 01:00:02.89	126.45	80.04	-74.7	-95.5	3.8	8468559	99	39534
2025-01-08 01:00:03.09	127.00	80.01	-74.8	-95.7	3.8	8468559	99	40083
2025-01-08 01:00:03.29	127.55	79.97	-74.8	-95.7	3.8	8465148	99	39983
2025-01-08 01:00:03.49	128.09	79.94	-74.7	-95.7	3.8	8468078	99	40063
2025-01-08 01:00:03.69	128.63	79.90	-74.7	-95.6	3.8	8468078	99	40145
2025-01-08 01:00:03.91	129.22	79.86	-74.8	-95.7	3.8	8467048	99	40143
2025-01-08 01:00:04.13	129.81	79.81	-74.6	-95.3	3.8	8454105	99	39144
2025-01-08 01:00:04.33	130.33	79.77	-74.7	-95.5	3.8	8454105	99	39200
2025-01-08 01:00:04.53	130.86	79.73	-74.8	-95.5	3.8	8463272	99	39114
2025-01-08 01:00:04.73	131.38	79.69	-74.7	-95.6	3.8	8462551	99	40010
2025-01-08 01:00:04.93	131.89	79.65	-74.7	-95.6	3.8	8462551	99	39977
2025-01-08 01:00:05.13	132.40	79.60	-74.8	-95.7	3.8	8468570	99	40019
2025-01-08 01:00:05.33	132.91	79.56	-74.8	-95.7	3.8	8447628	99	40024
2025-01-08 01:00:05.53	133.41	79.51	-74.7	-95.6	3.7	8461074	99	39674
2025-01-08 01:00:05.74	133.93	79.47	-74.7	-95.5	3.8	8461074	99	39450
2025-01-08 01:00:05.95	134.44	79.42	-74.7	-95.6	3.8	8458271	99	39709
2025-01-08 01:00:06.15	134.93	79.37	-74.7	-95.6	3.8	8449790	99	40006
2025-01-08 01:00:06.35	135.42	79.32	-74.7	-95.6	3.8	8449790	99	40000
2025-01-08 01:00:06.55	135.89	79.27	-74.7	-95.6	3.8	8453498	99	40001
2025-01-08 01:00:06.75	136.37	79.22	-74.7	-95.7	3.7	8456565	99	40137
2025-01-08 01:00:06.96	136.86	79.17	-74.8	-95.7	3.7	8456565	99	40261
2025-01-08 01:00:07.16	137.33	79.12	-74.7	-95.6	3.8	8454986	99	39639
2025-01-08 01:00:07.36	137.79	79.07	-74.7	-95.6	3.8	8458831	99	39669
2025-01-08 01:00:07.56	138.24	79.02	-74.8	-95.6	3.8	8454219	99	39465
2025-01-08 01:00:07.76	138.70	78.96	-74.7	-95.5	3.8	8454219	99	39596
2025-01-08 01:00:07.96	139.14	78.91	-74.7	-95.7	3.8	8453670	99	40286
2025-01-08 01:00:08.16	139.59	78.85	-74.7	-95.7	3.8	8464656	99	40258
2025-01-08 01:00:08.36	140.02	78.80	-74.8	-95.8	3.8	8464656	99	40191
2025-01-08 01:00:08.56	140.46	78.74	-74.7	-95.7	3.8	8461486	99	40215
2025-01-08 01:00:08.78	140.93	78.68	-74.8	-95.6	3.8	8466144	99	39695
2025-01-08 01:00:08.98	141.36	78.63	-74.7	-95.6	3.8	8466144	99	39696
2025-01-08 01:00:09.18	141.78	78.57	-74.8	-95.6	3.8	8460033	99	39756
2025-01-08 01:00:09.38	142.19	78.51	-74.7	-95.6	3.8	8451290	99	40225
2025-01-08 01:00:09.58	142.61	78.45	-74.8	-95.8	3.8	8451290	99	40241
2025-01-08 01:00:09.78	143.01	78.39	-74.7	-95.7	3.8	8451679	99	40207
2025-01-08 01:00:09.99	143.44	78.33	-74.7	-95.6	3.7	8462905	99	40164
2025-01-08 01:00:10.20	143.86	78.27	-74.8	-95.7	3.8	8458305	99	39883
2025-01-08 01:00:10.40	144.25	78.21	-74.7	-95.6	3.8	8458305	99	39898
2025-01-08 01:00:10.60	144.64	78.14	-74.8	-95.6	3.8	8471637	99	39867
2025-01-08 01:00:10.82	145.07	78.08	-74.8	-95.8	3.8	8443164	99	40234
2025-01-08 01:00:11.02	145.45	78.01	-74.8	-95.8	3.8	8443164	99	40337
2025-01-08 01:00:11.23	145.85	77.95	-74.8	-95.8	3.8	8454975	99	40292
2025-01-08 01:00:11.44	146.24	77.88	-74.7	-95.7	3.8	8458465	99	40178
2025-01-08 01:00:11.64	146.61	77.82	-74.8	-95.7	3.8	8458465	99	40144
2025-01-08 01:00:11.85	146.99	77.75	-74.7	-95.4	3.8	8454998	99	38719
2025-01-08 01:00:12.05	147.35	77.69	-74.8	-95.4	3.8	8457515	99	38743
2025-01-08 01:00:12.25	147.71	77.62	-74.6	-95.3	3.8	8468811	99	38841
2025-01-08 01:00:12.47	148.10	77.55	-74.7	-95.6	3.8	8468811	99	40350
2025-01-08 01:00:12.67	148.45	77.48	-74.7	-95.7	3.8	8453681	99	40370
2025-01-08 01:00:12.89	148.83	77.41	-74.7	-95.5	3.8	8462150	99	39777
2025-01-08 01:00:13.10	149.19	77.34	-74.6	-95.6	3.8	8458190	99	40444
2025-01-08 01:00:13.32	149.56	77.26	-74.7	-95.6	3.8	8458190	99	40056
2025-01-08 01:00:13.52	149.89	77.20	-74.8	-95.7	3.8	8441745	99	39932
2025-01-08 01:00:13.72	150.22	77.13	-74.7	-95.6	3.8	8464519	99	39756
2025-01-08 01:00:13.94	150.58	77.05	-74.8	-95.7	3.8	8464519	99	40226
2025-01-08 01:00:14.14	150.91	76.98	-74.8	-95.7	3.8	8463100	99	40190
2025-01-08 01:00:14.34	151.22	76.91	-74.8	-95.8	3.8	8459632	99	40183
2025-01-08 01:00:14.54	151.54	76.84	-74.8	-95.8	3.8	8465297	99	40304
2025-01-08 01:00:14.74	151.85	76.77	-74.7	-95.7	3.8	8465297	99	40220
2025-01-08 01:00:14.94	152.16	76.70	-74.7	-95.5	3.8	8447147	99	39731
2025-01-08 01:00:15.14	152.47	76.63	-74.8	-95.8	3.8	8464530	99	40381
2025-01-08 01:00:15.34	152.77	76.56	-74.8	-95.8	3.8	8464530	99	40363
2025-01-08 01:00:15.56	153.10	76.48	-74.7	-95.7	3.8	8458499	99	40179
2025-01-08 01:00:15.76	153.39	76.41	-74.8	-95.8	3.8	8458614	99	40281
2025-01-08 01:00:15.96	153.69	76.34	-74.7	-95.7	3.8	8458614	99	40185
2025-01-08 01:00:16.16	153.97	76.27	-74.7	-95.6	3.8	8461898	99	40032
2025-01-08 01:00:16.38	154.29	76.19	-74.8	-95.6	3.7	8459037	99	39152
2025-01-08 01:00:16.58	154.57	76.11	-74.7	-95.4	3.8	8459037	99	39051
2025-01-08 01:00:16.78	154.85	76.04	-74.7	-95.4	3.8	8462505	99	39091
2025-01-08 01:00:16.98	155.13	75.97	-74.8	-95.7	3.8	8453556	99	40221
2025-01-08 01:00:17.20	155.43	75.89	-74.7	-95.7	3.8	8460731	99	40244
2025-01-08 01:00:17.40	155.70	75.81	-74.8	-95.7	3.8	8460731	99	40235
2025-01-08 01:00:17.60	155.97	75.74	-74.8	-95.8	3.8	8462207	99	40233
2025-01-08 01:00:17.80	156.23	75.66	-74.7	-95.6	3.7	8457103	99	40193
2025-01-08 01:00:18.00	156.49	75.59	-74.8	-95.5	3.8	8457103	99	38842
2025-01-08 01:00:18.20	156.75	75.51	-74.8	-95.5	3.8	8468845	99	38890
2025-01-08 01:00:18.41	157.02	75.43	-74.6	-95.3	3.8	8455249	99	38766
2025-01-08 01:00:18.61	157.27	75.36	-74.7	-95.6	3.8	8455249	99	40026
2025-01-08 01:00:18.82	157.54	75.28	-74.7	-95.7	3.8	8458694	99	40081
2025-01-08 01:00:19.02	157.78	75.20	-74.7	-95.6	3.8	8461841	99	40073
2025-01-08 01:00:19.23	158.04	75.12	-74.7	-95.6	3.8	8468444	99	39916
2025-01-08 01:00:19.43	158.28	75.05	-74.7	-95.6	3.8	8468444	99	39929
2025-01-08 01:00:19.64	158.54	74.97	-74.7	-95.5	3.8	8456108	99	39438
2025-01-08 01:00:19.84	158.77	74.89	-74.8	-95.5	3.8	8467861	99	39427
2025-01-08 01:00:20.05	159.02	74.81	-74.5	-95.2	3.8	8467861	99	39187
2025-01-08 01:00:20.25	159.25	74.73	-74.7	-95.6	3.8	8461040	99	39995
2025-01-08 01:00:20.45	159.48	74.65	-74.7	-95.7	3.8	8462230	99	40019
2025-01-08 01:00:20.65	159.71	74.58	-74.7	-95.6	3.8	8469966	99	40088
2025-01-08 01:00:20.86	159.94	74.49	-74.7	-95.7	3.8	8469966	99	40113
2025-01-08 01:00:21.07	160.18	74.41	-74.7	-95.5	3.8	8453613	99	39166
2025-01-08 01:00:21.27	160.40	74.33	-74.7	-95.5	3.8	8469612	99	39138
2025-01-08 01:00:21.47	160.62	74.25	-74.7	-95.5	3.8	8469612	99	39212
2025-01-08 01:00:21.67	160.83	74.18	-74.7	-95.6	3.8	8458854	99	40031
2025-01-08 01:00:21.87	161.04	74.10	-74.7	-95.7	3.8	8451255	99	40023
2025-01-08 01:00:22.07	161.26	74.02	-74.8	-95.7	3.8	8451255	99	40054
2025-01-08 01:00:22.27	161.47	73.94	-74.7	-95.7	3.8	8452594	99	40038
2025-01-08 01:00:22.47	161.67	73.86	-74.7	-95.6	3.8	8461921	99	39995
2025-01-08 01:00:22.67	161.88	73.78	-74.7	-95.3	3.8	8461921	99	38773
2025-01-08 01:00:22.88	162.09	73.70	-74.8	-95.4	3.8	8444755	99	38835
2025-01-08 01:00:23.10	162.31	73.61	-74.7	-95.4	3.8	8452411	99	38893
2025-01-08 01:00:23.30	162.51	73.53	-74.7	-95.7	3.8	8454265	99	40189
2025-01-08 01:00:23.50	162.70	73.45	-74.7	-95.7	3.8	8454265	99	40273
2025-01-08 01:00:23.70	162.90	73.37	-74.7	-95.6	3.8	8462837	99	40124
2025-01-08 01:00:23.90	163.09	73.29	-74.7	-95.6	3.8	8458889	99	40149
2025-01-08 01:00:24.10	163.28	73.21	-74.7	-95.4	3.7	8458889	99	39158
2025-01-08 01:00:24.30	163.47	73.13	-74.3	-93.9	3.8	8453979	99	34219
2025-01-08 01:00:24.51	163.67	73.04	-74.7	-95.5	3.8	8449218	99	39299
2025-01-08 01:00:24.71	163.85	72.96	-74.7	-95.8	3.8	8449218	99	40430
2025-01-08 01:00:24.93	164.05	72.88	-74.7	-95.7	3.8	8454860	99	40412
2025-01-08 01:00:25.14	164.24	72.79	-74.8	-95.8	3.8	8459243	99	40337
2025-01-08 01:00:25.35	164.43	72.71	-74.7	-95.7	3.7	8458614	99	40394
2025-01-08 01:00:25.56	164.62	72.62	-74.7	-95.7	3.7	8458614	99	40345
2025-01-08 01:00:25.76	164.79	72.54	-74.6	-95.4	3.8	8456703	99	39400
2025-01-08 01:00:25.97	164.97	72.45	-74.8	-95.7	3.8	8459598	99	40180
2025-01-08 01:00:26.17	165.15	72.37	-74.8	-95.8	3.8	8459598	99	40123
2025-01-08 01:00:26.38	165.33	72.29	-74.7	-95.7	3.8	8452251	99	40343
2025-01-08 01:00:26.58	165.49	72.21	-74.7	-95.7	3.8	8454208	99	40286
2025-01-08 01:00:26.80	165.68	72.12	-74.7	-95.7	3.8	8464153	99	40338
2025-01-08 01:00:27.00	165.84	72.03	-74.7	-95.7	3.8	8464153	99	40221
2025-01-08 01:00:27.21	166.01	71.95	-74.7	-95.3	3.7	8451026	99	38500
2025-01-08 01:00:27.42	166.18	71.86	-74.7	-95.4	3.8	8458751	99	39118
2025-01-08 01:00:27.62	166.35	71.78	-74.7	-95.5	3.8	8458751	99	39307
2025-01-08 01:00:27.84	166.52	71.69	-74.6	-95.6	3.8	8459724	99	40294
2025-01-08 01:00:28.04	166.68	71.61	-74.6	-95.6	3.8	8464130	99	40307
2025-01-08 01:00:28.24	166.83	71.53	-74.5	-95.3	3.8	8452342	99	39622
2025-01-08 01:00:28.46	167.00	71.43	-74.6	-95.6	3.8	8452342	99	40279
2025-01-08 01:00:28.67	167.16	71.35	-74.7	-95.6	3.8	8452159	99	40247
2025-01-08 01:00:28.87	167.31	71.27	-74.7	-95.5	3.8	8452239	99	39138
2025-01-08 01:00:29.09	167.48	71.18	-74.7	-95.5	3.8	8460102	99	39175
2025-01-08 01:00:29.29	167.63	71.09	-74.7	-95.4	3.8	8460102	99	38909
2025-01-08 01:00:29.49	167.77	71.01	-74.7	-95.7	3.8	8462036	99	40335
2025-01-08 01:00:29.69	167.92	70.93	-74.7	-95.7	3.8	8454963	99	40374
2025-01-08 01:00:29.90	168.07	70.84	-74.7	-95.7	3.8	8454963	99	40238
2025-01-08 01:00:30.10	168.22	70.76	-74.8	-95.7	3.8	8452159	99	40173
2025-01-08 01:00:30.30	168.36	70.68	-74.7	-95.6	3.7	8460342	99	39847
2025-01-08 01:00:30.50	168.50	70.59	-74.7	-95.7	3.8	8460342	99	40644
2025-01-08 01:00:30.72	168.65	70.50	-74.8	-95.8	3.8	8461395	99	40524
2025-01-08 01:00:30.92	168.79	70.42	-74.7	-95.7	3.8	8464656	99	40209
2025-01-08 01:00:31.12	168.92	70.34	-74.8	-95.8	3.8	8464656	99	40293

#Closed at: 2025-01-08 01:00:31