passes_logs/2026/01/13/planumMaritime01/planumMaritime01__20260113_174354_METEOR-M2_3_rec.log

#Pass ID: 20260113_174354_METEOR-M2 3
#Satellite: METEOR-M2 3
#Configuration: METEOR-M2 3
#Start time: 2026-01-13 17:43:59.452150

#LorettStation: 1.0.0 05.05.2024
#Station: planumMaritime01
#Location: 37.49445 lon 55.92918 lat
#TLE: 1 57166U 23091A   26012.95860029 -.00000007  00000+0  15979-4 0  9992
#TLE: 2 57166  98.6333  70.9458 0002901 257.2519 102.8335 14.24030333132422

#Time	Az	El	Level	SNR
2026-01-13 17:44:01.623879	159.5	10.2	-75.6	0.0
2026-01-13 17:44:02.751751	159.5	10.3	-74.9	0.0
2026-01-13 17:44:03.886674	159.5	10.4	-75.4	0.0
2026-01-13 17:44:05.022588	159.5	10.5	-76.9	0.0
2026-01-13 17:44:06.158503	159.5	10.6	-77.8	0.0
2026-01-13 17:44:07.294991	159.5	10.7	-78.7	4.7
2026-01-13 17:44:08.430638	159.5	10.8	-78.4	6.1
2026-01-13 17:44:09.565255	159.5	10.9	-78.2	5.5
2026-01-13 17:44:10.703165	159.5	11.0	-77.7	4.7
2026-01-13 17:44:11.837340	159.5	11.1	-77.6	4.9
2026-01-13 17:44:12.973846	159.5	11.2	-77.9	3.8
2026-01-13 17:44:14.108757	159.5	11.3	-78.2	4.7
2026-01-13 17:44:15.244159	159.5	11.4	-77.4	5.3
2026-01-13 17:44:16.380631	159.5	11.5	-78.0	4.4
2026-01-13 17:44:17.518313	159.5	11.6	-77.7	5.3
2026-01-13 17:44:18.655443	159.5	11.8	-77.9	5.7
2026-01-13 17:44:19.792185	159.5	11.9	-77.8	4.8
2026-01-13 17:44:20.927585	159.5	12.0	-77.8	5.7
2026-01-13 17:44:22.063234	159.5	12.1	-78.1	5.4
2026-01-13 17:44:23.200186	159.5	12.2	-77.8	6.0
2026-01-13 17:44:24.334910	159.5	12.3	-77.5	6.4
2026-01-13 17:44:25.472007	159.5	12.4	-77.7	5.8
2026-01-13 17:44:26.608513	159.5	12.5	-77.9	7.0
2026-01-13 17:44:27.746185	159.5	12.6	-78.2	8.2
2026-01-13 17:44:28.881755	159.5	12.7	-78.2	8.0
2026-01-13 17:44:30.014928	159.5	12.8	-78.2	8.1
2026-01-13 17:44:31.149043	159.5	13.0	-78.2	7.0
2026-01-13 17:44:32.286854	159.5	13.1	-78.0	6.3
2026-01-13 17:44:33.423262	159.5	13.2	-77.8	7.2
2026-01-13 17:44:34.559072	159.5	13.3	-78.0	6.9
2026-01-13 17:44:35.690831	159.5	13.4	-77.8	7.7
2026-01-13 17:44:36.821095	159.5	13.5	-77.4	4.7
2026-01-13 17:44:37.951739	159.5	13.6	-77.6	5.6
2026-01-13 17:44:39.081767	159.5	13.8	-77.9	6.8
2026-01-13 17:44:40.212965	159.5	13.9	-77.4	5.4
2026-01-13 17:44:41.342880	159.4	14.0	-77.4	6.8
2026-01-13 17:44:42.469885	159.4	14.1	-77.1	6.6
2026-01-13 17:44:43.598126	159.4	14.2	-76.7	5.1
2026-01-13 17:44:44.725690	159.4	14.4	-77.5	6.3
2026-01-13 17:44:45.855640	159.4	14.5	-77.2	4.1
2026-01-13 17:44:46.988688	159.4	14.6	-77.3	3.8
2026-01-13 17:44:48.118231	159.4	14.7	-77.3	2.0
2026-01-13 17:44:49.245340	159.4	14.8	-77.0	4.2
2026-01-13 17:44:50.376826	159.4	15.0	-76.3	4.0
2026-01-13 17:44:51.505310	159.4	15.1	-76.8	5.2
2026-01-13 17:44:52.632670	159.4	15.2	-77.1	0.8
2026-01-13 17:44:53.764824	159.4	15.3	-76.6	3.3
2026-01-13 17:44:54.895295	159.4	15.4	-76.6	0.0
2026-01-13 17:44:56.022571	159.4	15.6	-76.3	0.0
2026-01-13 17:44:57.153909	159.4	15.7	-76.7	0.5
2026-01-13 17:44:58.286793	159.4	15.8	-76.2	0.0
2026-01-13 17:44:59.424692	159.4	16.0	-76.5	0.0
2026-01-13 17:45:00.561302	159.4	16.1	-76.0	0.0
2026-01-13 17:45:01.697483	159.4	16.2	-76.3	0.0
2026-01-13 17:45:02.833411	159.4	16.3	-75.7	0.0
2026-01-13 17:45:03.969679	159.4	16.5	-75.7	0.0
2026-01-13 17:45:05.105444	159.4	16.6	-75.7	0.0
2026-01-13 17:45:06.241214	159.4	16.7	-75.6	0.0
2026-01-13 17:45:07.378971	159.4	16.9	-75.6	0.0
2026-01-13 17:45:08.514077	159.4	17.0	-76.1	0.0
2026-01-13 17:45:09.651462	159.4	17.1	-75.3	0.0
2026-01-13 17:45:10.789353	159.4	17.3	-75.3	0.0
2026-01-13 17:45:11.924499	159.4	17.4	-75.1	0.0
2026-01-13 17:45:13.059418	159.4	17.5	-75.3	0.0
2026-01-13 17:45:14.197798	159.4	17.7	-74.8	0.0
2026-01-13 17:45:15.333599	159.3	17.8	-74.4	0.0
2026-01-13 17:45:16.467207	159.3	17.9	-74.4	0.0
2026-01-13 17:45:17.601747	159.3	18.1	-75.3	0.0
2026-01-13 17:45:18.735357	159.3	18.2	-75.0	0.0
2026-01-13 17:45:19.869291	159.3	18.4	-74.2	0.0
2026-01-13 17:45:21.005528	159.3	18.5	-75.0	0.0
2026-01-13 17:45:22.139224	159.3	18.7	-74.4	0.0
2026-01-13 17:45:23.274655	159.3	18.8	-75.2	0.0
2026-01-13 17:45:24.410926	159.3	18.9	-74.8	0.0
2026-01-13 17:45:25.547285	159.3	19.1	-75.4	0.0
2026-01-13 17:45:26.686065	159.3	19.2	-74.6	0.0
2026-01-13 17:45:27.821897	159.3	19.4	-75.2	0.0
2026-01-13 17:45:28.956702	159.3	19.5	-75.2	0.0
2026-01-13 17:45:30.090805	159.3	19.7	-75.1	0.0
2026-01-13 17:45:31.225715	159.3	19.8	-74.1	0.0
2026-01-13 17:45:32.358581	159.3	20.0	-74.6	0.0
2026-01-13 17:45:33.496138	159.3	20.1	-75.0	0.0
2026-01-13 17:45:34.631539	159.3	20.3	-73.9	0.0
2026-01-13 17:45:35.767879	159.3	20.4	-74.1	0.0
2026-01-13 17:45:36.905387	159.3	20.6	-74.6	0.0
2026-01-13 17:45:38.042822	159.3	20.7	-74.2	0.0
2026-01-13 17:45:39.181848	159.2	20.9	-74.4	0.0
2026-01-13 17:45:40.316521	159.2	21.1	-74.3	0.0
2026-01-13 17:45:41.453305	159.2	21.2	-74.4	0.0
2026-01-13 17:45:42.590376	159.2	21.4	-74.0	0.0
2026-01-13 17:45:43.726691	159.2	21.5	-74.9	0.0
2026-01-13 17:45:44.864840	159.2	21.7	-74.9	0.0
2026-01-13 17:45:46.001998	159.2	21.9	-72.7	0.0
2026-01-13 17:45:47.139396	159.2	22.0	-74.3	0.0
2026-01-13 17:45:48.275829	159.2	22.2	-74.5	0.0
2026-01-13 17:45:49.412612	159.2	22.3	-73.0	0.0
2026-01-13 17:45:50.549132	159.2	22.5	-73.9	0.0
2026-01-13 17:45:51.684626	159.2	22.7	-73.8	0.0
2026-01-13 17:45:52.820647	159.2	22.8	-76.3	8.0
2026-01-13 17:45:53.959154	159.2	23.0	-76.5	8.1
2026-01-13 17:45:55.098481	159.2	23.2	-76.9	9.3
2026-01-13 17:45:56.232530	159.1	23.4	-76.3	8.5
2026-01-13 17:45:57.370803	159.1	23.5	-76.9	8.5
2026-01-13 17:45:58.510651	159.1	23.7	-76.7	8.9
2026-01-13 17:45:59.646770	159.1	23.9	-76.8	8.6
2026-01-13 17:46:00.780485	159.1	24.1	-77.1	9.3
2026-01-13 17:46:01.918631	159.1	24.2	-77.0	8.9
2026-01-13 17:46:03.056416	159.1	24.4	-76.4	8.0
2026-01-13 17:46:04.190620	159.1	24.6	-76.4	9.3
2026-01-13 17:46:05.329557	159.1	24.8	-76.2	6.4
2026-01-13 17:46:06.466847	159.1	25.0	-76.0	6.2
2026-01-13 17:46:07.602751	159.1	25.1	-75.1	6.2
2026-01-13 17:46:08.736245	159.1	25.3	-76.7	7.0
2026-01-13 17:46:09.870920	159.0	25.5	-76.4	7.9
2026-01-13 17:46:11.006149	159.0	25.7	-76.9	9.3
2026-01-13 17:46:12.145839	159.0	25.9	-77.1	10.1
2026-01-13 17:46:13.280426	159.0	26.1	-75.6	6.1
2026-01-13 17:46:14.417991	159.0	26.3	-77.0	10.1
2026-01-13 17:46:15.555106	159.0	26.5	-76.1	7.2
2026-01-13 17:46:16.692591	159.0	26.7	-77.5	9.5
2026-01-13 17:46:17.827998	159.0	26.9	-77.3	10.3
2026-01-13 17:46:18.962859	159.0	27.1	-77.6	9.5
2026-01-13 17:46:20.097032	159.0	27.3	-77.6	11.1
2026-01-13 17:46:21.232519	158.9	27.5	-77.0	8.4
2026-01-13 17:46:22.367072	158.9	27.7	-77.5	9.9
2026-01-13 17:46:23.503640	158.9	27.9	-76.5	8.5
2026-01-13 17:46:24.639716	158.9	28.1	-77.2	10.6
2026-01-13 17:46:25.775370	158.9	28.3	-77.5	10.2
2026-01-13 17:46:26.911069	158.9	28.5	-76.2	7.0
2026-01-13 17:46:28.046359	158.9	28.7	-77.1	9.5
2026-01-13 17:46:29.184791	158.9	28.9	-77.2	11.2
2026-01-13 17:46:30.319083	158.9	29.1	-77.6	10.8
2026-01-13 17:46:31.452288	158.8	29.3	-76.7	7.9
2026-01-13 17:46:32.587233	158.8	29.6	-77.9	8.9
2026-01-13 17:46:33.726183	158.8	29.8	-77.7	10.7
2026-01-13 17:46:34.864733	158.8	30.0	-76.4	8.6
2026-01-13 17:46:36.001331	158.8	30.2	-77.7	11.0
2026-01-13 17:46:37.137670	158.8	30.4	-77.5	10.1
2026-01-13 17:46:38.272765	158.8	30.7	-77.3	10.1
2026-01-13 17:46:39.408184	158.8	30.9	-77.1	8.7
2026-01-13 17:46:40.542424	158.7	31.1	-77.6	11.5
2026-01-13 17:46:41.677384	158.7	31.3	-76.7	9.7
2026-01-13 17:46:42.810860	158.7	31.6	-77.6	12.3
2026-01-13 17:46:43.946443	158.7	31.8	-77.6	10.5
2026-01-13 17:46:45.082257	158.7	32.0	-77.2	9.6
2026-01-13 17:46:46.212993	158.7	32.3	-77.8	11.9
2026-01-13 17:46:47.346764	158.7	32.5	-77.3	10.1
2026-01-13 17:46:48.483846	158.6	32.8	-78.0	12.1
2026-01-13 17:46:49.619768	158.6	33.0	-77.4	10.8
2026-01-13 17:46:50.752342	158.6	33.3	-77.2	10.6
2026-01-13 17:46:51.889797	158.6	33.5	-77.3	10.2
2026-01-13 17:46:53.026295	158.6	33.8	-77.5	11.4
2026-01-13 17:46:54.156759	158.5	34.0	-77.0	10.6
2026-01-13 17:46:55.286308	158.5	34.3	-77.8	11.5
2026-01-13 17:46:56.415187	158.5	34.5	-77.2	10.4
2026-01-13 17:46:57.539871	158.5	34.8	-78.0	11.5
2026-01-13 17:46:58.668766	158.5	35.0	-77.5	11.0
2026-01-13 17:46:59.794256	158.5	35.3	-77.9	11.3
2026-01-13 17:47:00.921564	158.4	35.5	-77.9	12.2
2026-01-13 17:47:02.047214	158.4	35.8	-77.9	12.0
2026-01-13 17:47:03.173138	158.4	36.1	-78.2	12.7
2026-01-13 17:47:04.300470	158.4	36.3	-78.1	13.1
2026-01-13 17:47:05.425923	158.4	36.6	-78.0	12.3
2026-01-13 17:47:06.553548	158.3	36.9	-77.7	11.3
2026-01-13 17:47:07.680367	158.3	37.2	-77.9	12.1
2026-01-13 17:47:08.808200	158.3	37.4	-77.7	11.9
2026-01-13 17:47:09.936586	158.3	37.7	-77.8	11.8
2026-01-13 17:47:11.065585	158.2	38.0	-78.3	12.6
2026-01-13 17:47:12.198430	158.2	38.3	-78.1	12.8
2026-01-13 17:47:13.329005	158.2	38.6	-78.1	12.1
2026-01-13 17:47:14.458650	158.2	38.9	-78.1	12.8
2026-01-13 17:47:15.593366	158.1	39.2	-78.0	12.2
2026-01-13 17:47:16.724269	158.1	39.5	-78.5	11.4
2026-01-13 17:47:17.855753	158.1	39.8	-78.1	12.1
2026-01-13 17:47:18.988229	158.1	40.1	-78.2	11.7
2026-01-13 17:47:20.121162	158.0	40.4	-78.5	12.9
2026-01-13 17:47:21.254310	158.0	40.7	-78.2	12.4
2026-01-13 17:47:22.385656	158.0	41.0	-78.2	11.8
2026-01-13 17:47:23.517426	158.0	41.3	-78.4	12.2
2026-01-13 17:47:24.648458	157.9	41.6	-78.5	12.6
2026-01-13 17:47:25.779385	157.9	41.9	-78.3	12.1
2026-01-13 17:47:26.913636	157.9	42.2	-78.7	12.9
2026-01-13 17:47:28.043344	157.8	42.6	-78.6	12.3
2026-01-13 17:47:29.175031	157.8	42.9	-78.5	12.1
2026-01-13 17:47:30.304591	157.8	43.2	-79.0	12.1
2026-01-13 17:47:31.436439	157.7	43.6	-78.9	11.8
2026-01-13 17:47:32.569350	157.7	43.9	-78.8	12.0
2026-01-13 17:47:33.700836	157.7	44.2	-78.9	11.5
2026-01-13 17:47:34.833085	157.6	44.6	-79.0	11.2
2026-01-13 17:47:35.961614	157.6	44.9	-78.7	10.9
2026-01-13 17:47:37.091910	157.6	45.3	-78.6	12.1
2026-01-13 17:47:38.222667	157.5	45.6	-78.6	10.5
2026-01-13 17:47:39.350900	157.5	46.0	-78.8	12.6
2026-01-13 17:47:40.478204	157.4	46.3	-78.8	12.5
2026-01-13 17:47:41.610580	157.4	46.7	-79.0	12.3
2026-01-13 17:47:42.740989	157.3	47.0	-79.1	11.9
2026-01-13 17:47:43.870911	157.3	47.4	-79.3	12.0
2026-01-13 17:47:45.000376	157.3	47.8	-79.2	11.8
2026-01-13 17:47:46.134413	157.2	48.1	-79.4	11.7
2026-01-13 17:47:47.268584	157.2	48.5	-79.4	12.3
2026-01-13 17:47:48.402477	157.1	48.9	-79.2	11.7
2026-01-13 17:47:49.534853	157.1	49.3	-79.1	11.5
2026-01-13 17:47:50.669310	157.0	49.6	-79.4	9.8
2026-01-13 17:47:51.803571	157.0	50.0	-79.6	11.8
2026-01-13 17:47:52.937760	156.9	50.4	-79.7	11.6
2026-01-13 17:47:54.074416	156.8	50.8	-80.0	11.2
2026-01-13 17:47:55.209024	156.8	51.2	-79.5	10.9
2026-01-13 17:47:56.344601	156.7	51.6	-80.2	10.2
2026-01-13 17:47:57.481248	156.7	52.0	-80.1	10.9
2026-01-13 17:47:58.616527	156.6	52.4	-80.1	11.1
2026-01-13 17:47:59.751145	156.5	52.8	-80.4	10.0
2026-01-13 17:48:00.886052	156.5	53.3	-80.5	10.3
2026-01-13 17:48:02.022848	156.4	53.7	-80.6	10.3
2026-01-13 17:48:03.159156	156.3	54.1	-80.6	9.2
2026-01-13 17:48:04.294674	156.3	54.5	-80.6	9.6
2026-01-13 17:48:05.431278	156.2	55.0	-80.9	9.4
2026-01-13 17:48:06.566652	156.1	55.4	-81.0	9.6
2026-01-13 17:48:07.702960	156.0	55.8	-81.1	8.9
2026-01-13 17:48:08.839406	155.9	56.3	-80.5	9.3
2026-01-13 17:48:09.971734	155.8	56.7	-80.5	9.3
2026-01-13 17:48:11.109934	155.8	57.2	-80.2	9.3
2026-01-13 17:48:12.242050	155.7	57.6	-80.0	10.1
2026-01-13 17:48:13.376485	155.6	58.1	-79.8	10.4
2026-01-13 17:48:14.513263	155.5	58.5	-79.7	10.8
2026-01-13 17:48:15.648964	155.4	59.0	-79.8	10.3
2026-01-13 17:48:16.784618	155.3	59.4	-79.7	10.6
2026-01-13 17:48:17.918196	155.2	59.9	-79.9	11.1
2026-01-13 17:48:19.054563	155.0	60.4	-79.6	8.9
2026-01-13 17:48:20.190715	154.9	60.8	-80.1	11.2
2026-01-13 17:48:21.325421	154.8	61.3	-79.7	9.5
2026-01-13 17:48:22.460637	154.7	61.8	-80.0	10.8
2026-01-13 17:48:23.596731	154.5	62.3	-80.1	10.4
2026-01-13 17:48:24.734854	154.4	62.8	-80.0	10.4
2026-01-13 17:48:25.868782	154.2	63.3	-80.4	10.5
2026-01-13 17:48:27.002880	154.1	63.8	-80.5	10.7
2026-01-13 17:48:28.139752	153.9	64.3	-80.1	9.1
2026-01-13 17:48:29.276000	153.8	64.8	-80.2	8.3
2026-01-13 17:48:30.410899	153.6	65.3	-80.3	8.4
2026-01-13 17:48:31.548450	153.4	65.8	-80.4	9.6
2026-01-13 17:48:32.682992	153.2	66.3	-80.2	8.8
2026-01-13 17:48:33.818757	153.0	66.8	-79.9	9.0
2026-01-13 17:48:34.953020	152.8	67.3	-79.8	7.9
2026-01-13 17:48:36.090179	152.6	67.8	-79.6	7.9
2026-01-13 17:48:37.225626	152.4	68.3	-79.5	8.3
2026-01-13 17:48:38.361757	152.1	68.9	-79.4	9.0
2026-01-13 17:48:39.496313	151.9	69.4	-79.5	9.8
2026-01-13 17:48:40.634499	151.6	69.9	-78.8	7.0
2026-01-13 17:48:41.772399	151.3	70.4	-79.7	9.7
2026-01-13 17:48:42.909664	151.0	71.0	-79.8	10.0
2026-01-13 17:48:44.045429	150.6	71.5	-79.1	8.5
2026-01-13 17:48:45.179839	150.3	72.0	-78.8	8.9
2026-01-13 17:48:46.313892	149.9	72.6	-78.7	7.7
2026-01-13 17:48:47.448427	149.5	73.1	-79.4	9.7
2026-01-13 17:48:48.581871	149.1	73.7	-79.5	9.8
2026-01-13 17:48:49.716247	148.7	74.2	-79.5	10.5
2026-01-13 17:48:50.850149	148.2	74.8	-79.3	10.2
2026-01-13 17:48:51.988486	147.6	75.3	-79.6	11.1
2026-01-13 17:48:53.123787	147.1	75.9	-79.1	9.5
2026-01-13 17:48:54.261923	146.4	76.4	-79.6	10.5
2026-01-13 17:48:55.397474	145.8	77.0	-79.2	10.7
2026-01-13 17:48:56.535948	145.0	77.5	-78.8	9.7
2026-01-13 17:48:57.673919	144.2	78.1	-79.1	10.1
2026-01-13 17:48:58.811425	143.4	78.6	-77.7	8.7
2026-01-13 17:48:59.947141	142.4	79.1	-78.9	9.7
2026-01-13 17:49:01.083904	141.3	79.7	-77.7	9.0
2026-01-13 17:49:02.221495	140.1	80.2	-78.7	10.0
2026-01-13 17:49:03.358243	138.7	80.8	-78.6	8.9
2026-01-13 17:49:04.493624	137.2	81.3	-77.7	8.0
2026-01-13 17:49:05.631898	135.5	81.8	-78.2	8.0
2026-01-13 17:49:06.769649	133.5	82.4	-78.7	9.7
2026-01-13 17:49:07.901225	131.3	82.9	-78.5	8.9
2026-01-13 17:49:09.030341	128.7	83.4	-78.8	6.3
2026-01-13 17:49:10.158895	125.7	83.9	-79.4	7.0
2026-01-13 17:49:11.289864	122.2	84.3	-79.3	8.1
2026-01-13 17:49:12.420140	118.1	84.8	-79.5	8.8
2026-01-13 17:49:13.547133	113.3	85.2	-79.1	6.4
2026-01-13 17:49:14.675374	107.6	85.5	-79.1	8.0
2026-01-13 17:49:15.805086	100.9	85.9	-78.4	6.2
2026-01-13 17:49:16.933525	93.3	86.1	-79.0	9.6
2026-01-13 17:49:18.060708	84.8	86.3	-77.8	7.9
2026-01-13 17:49:19.187926	75.7	86.4	-77.9	10.4
2026-01-13 17:49:20.320476	66.3	86.4	-77.8	7.9
2026-01-13 17:49:21.448749	57.2	86.3	-78.0	8.6
2026-01-13 17:49:22.580316	48.8	86.1	-77.8	9.3
2026-01-13 17:49:23.708383	41.4	85.8	-77.3	7.4
2026-01-13 17:49:24.836986	34.9	85.5	-76.9	6.7
2026-01-13 17:49:25.962962	29.4	85.1	-76.8	5.1
2026-01-13 17:49:27.092887	24.6	84.7	-77.4	5.4
2026-01-13 17:49:28.223045	20.6	84.2	-77.1	3.8
2026-01-13 17:49:29.350336	17.2	83.8	-77.2	5.2
2026-01-13 17:49:30.478465	14.3	83.3	-78.2	5.6
2026-01-13 17:49:31.609821	11.8	82.8	-78.0	4.5
2026-01-13 17:49:32.746141	9.6	82.3	-78.0	3.6
2026-01-13 17:49:33.881721	7.7	81.8	-78.2	6.8
2026-01-13 17:49:35.018641	6.0	81.2	-76.7	3.7
2026-01-13 17:49:36.157032	4.5	80.7	-78.4	7.7
2026-01-13 17:49:37.292118	3.2	80.2	-76.9	5.4
2026-01-13 17:49:38.426266	2.0	79.6	-77.8	8.0
2026-01-13 17:49:39.561858	0.9	79.1	-76.9	6.5
2026-01-13 17:49:40.699122	360.0	78.5	-76.3	4.7
2026-01-13 17:49:41.834203	359.1	78.0	-77.0	6.2
2026-01-13 17:49:42.972662	358.3	77.4	-77.6	8.3
2026-01-13 17:49:44.110063	357.6	76.9	-77.4	6.8
2026-01-13 17:49:45.246084	356.9	76.3	-77.1	6.3
2026-01-13 17:49:46.380645	356.3	75.8	-77.1	6.3
2026-01-13 17:49:47.519341	355.7	75.2	-76.6	5.6
2026-01-13 17:49:48.654847	355.2	74.7	-76.9	4.7
2026-01-13 17:49:49.791108	354.7	74.1	-78.2	6.6
2026-01-13 17:49:50.923898	354.3	73.6	-77.8	6.4
2026-01-13 17:49:52.056565	353.9	73.1	-78.4	8.6
2026-01-13 17:49:53.192753	353.5	72.5	-77.3	6.3
2026-01-13 17:49:54.324455	353.1	72.0	-76.1	1.7
2026-01-13 17:49:55.457469	352.8	71.4	-78.4	8.4
2026-01-13 17:49:56.592677	352.4	70.9	-77.3	6.1
2026-01-13 17:49:57.726666	352.1	70.4	-77.9	6.1
2026-01-13 17:49:58.859584	351.8	69.9	-77.7	8.4
2026-01-13 17:49:59.992917	351.6	69.3	-78.0	8.1
2026-01-13 17:50:01.126021	351.3	68.8	-77.8	6.4
2026-01-13 17:50:02.258756	351.1	68.3	-76.8	4.9
2026-01-13 17:50:03.393120	350.8	67.8	-76.9	6.3
2026-01-13 17:50:04.525849	350.6	67.3	-77.6	6.4
2026-01-13 17:50:05.659321	350.4	66.7	-77.0	4.8
2026-01-13 17:50:06.795185	350.2	66.2	-77.2	6.4
2026-01-13 17:50:07.930066	350.0	65.7	-77.4	7.3
2026-01-13 17:50:09.064519	349.8	65.2	-77.5	6.3
2026-01-13 17:50:10.202975	349.7	64.7	-77.2	5.2
2026-01-13 17:50:11.339499	349.5	64.2	-77.5	5.6
2026-01-13 17:50:12.477122	349.4	63.7	-76.5	4.7
2026-01-13 17:50:13.612536	349.2	63.2	-77.6	5.7
2026-01-13 17:50:14.748153	349.1	62.7	-77.8	7.1
2026-01-13 17:50:15.886133	348.9	62.3	-77.9	8.2
2026-01-13 17:50:17.023311	348.8	61.8	-78.4	7.3
2026-01-13 17:50:18.160826	348.7	61.3	-77.9	4.9
2026-01-13 17:50:19.295174	348.5	60.8	-77.9	7.4
2026-01-13 17:50:20.432729	348.4	60.4	-78.1	3.3
2026-01-13 17:50:21.570333	348.3	59.9	-77.2	4.2
2026-01-13 17:50:22.705982	348.2	59.4	-77.4	4.2
2026-01-13 17:50:23.844336	348.1	59.0	-77.7	4.0
2026-01-13 17:50:24.983448	348.0	58.5	-77.8	6.5
2026-01-13 17:50:26.119222	347.9	58.0	-77.8	5.1
2026-01-13 17:50:27.256218	347.8	57.6	-78.0	5.6
2026-01-13 17:50:28.393772	347.7	57.1	-77.6	5.3
2026-01-13 17:50:29.531134	347.6	56.7	-77.2	5.5
2026-01-13 17:50:30.672526	347.5	56.3	-77.3	5.6
2026-01-13 17:50:31.810124	347.4	55.8	-78.5	6.5
2026-01-13 17:50:32.946203	347.4	55.4	-78.5	5.9
2026-01-13 17:50:34.084599	347.3	55.0	-78.3	8.2
2026-01-13 17:50:35.223282	347.2	54.5	-78.5	6.4
2026-01-13 17:50:36.358916	347.1	54.1	-77.4	3.6
2026-01-13 17:50:37.497214	347.1	53.7	-78.5	5.3
2026-01-13 17:50:38.634073	347.0	53.3	-78.4	5.2
2026-01-13 17:50:39.770798	346.9	52.9	-78.5	5.8
2026-01-13 17:50:40.909398	346.9	52.4	-78.1	5.2
2026-01-13 17:50:42.045152	346.8	52.0	-77.2	3.1
2026-01-13 17:50:43.183957	346.7	51.6	-77.4	3.5
2026-01-13 17:50:44.318506	346.7	51.2	-78.2	6.5
2026-01-13 17:50:45.456106	346.6	50.8	-77.7	7.7
2026-01-13 17:50:46.592664	346.6	50.4	-77.1	4.6
2026-01-13 17:50:47.728217	346.5	50.1	-76.3	2.4
2026-01-13 17:50:48.861816	346.5	49.7	-77.0	6.6
2026-01-13 17:50:49.999636	346.4	49.3	-75.7	1.3
2026-01-13 17:50:51.136817	346.4	48.9	-76.3	6.0
2026-01-13 17:50:52.272351	346.3	48.5	-76.4	5.8
2026-01-13 17:50:53.407675	346.3	48.2	-75.7	5.4
2026-01-13 17:50:54.544683	346.2	47.8	-77.0	7.1
2026-01-13 17:50:55.680680	346.2	47.4	-76.0	6.5
2026-01-13 17:50:56.818439	346.1	47.0	-75.5	1.8
2026-01-13 17:50:57.953492	346.1	46.7	-74.9	2.8
2026-01-13 17:50:59.088934	346.0	46.3	-75.0	4.0
2026-01-13 17:51:00.223449	346.0	46.0	-74.9	3.2
2026-01-13 17:51:01.358674	346.0	45.6	-75.3	4.4
2026-01-13 17:51:02.494135	345.9	45.3	-74.3	1.9
2026-01-13 17:51:03.626549	345.9	44.9	-74.7	3.7
2026-01-13 17:51:04.766775	345.8	44.6	-74.4	4.3
2026-01-13 17:51:05.902751	345.8	44.3	-74.3	3.9
2026-01-13 17:51:07.039346	345.8	43.9	-75.1	1.8
2026-01-13 17:51:08.175350	345.7	43.6	-74.1	4.4
2026-01-13 17:51:09.312930	345.7	43.2	-73.8	4.5
2026-01-13 17:51:10.447696	345.7	42.9	-73.3	0.7
2026-01-13 17:51:11.585956	345.6	42.6	-71.6	0.0
2026-01-13 17:51:12.721342	345.6	42.3	-72.9	0.0
2026-01-13 17:51:13.856395	345.6	42.0	-73.2	1.1
2026-01-13 17:51:14.997157	345.5	41.6	-73.6	2.2
2026-01-13 17:51:16.134752	345.5	41.3	-72.9	0.0
2026-01-13 17:51:17.271603	345.5	41.0	-74.0	1.7
2026-01-13 17:51:18.408533	345.5	40.7	-73.5	2.8
2026-01-13 17:51:19.545520	345.4	40.4	-72.6	1.1
2026-01-13 17:51:20.674512	345.4	40.1	-72.0	2.2
2026-01-13 17:51:21.802795	345.4	39.8	-72.9	1.2
2026-01-13 17:51:22.936457	345.4	39.5	-73.7	2.8
2026-01-13 17:51:24.067715	345.3	39.2	-71.4	0.0
2026-01-13 17:51:25.205673	345.3	38.9	-72.7	0.0
2026-01-13 17:51:26.341538	345.3	38.6	-72.8	0.0
2026-01-13 17:51:27.477610	345.3	38.3	-72.6	0.0
2026-01-13 17:51:28.614571	345.2	38.0	-72.9	0.0
2026-01-13 17:51:29.749181	345.2	37.8	-72.6	0.0
2026-01-13 17:51:30.885061	345.2	37.5	-72.2	0.4
2026-01-13 17:51:32.024609	345.2	37.2	-73.0	0.0
2026-01-13 17:51:33.160559	345.1	36.9	-72.9	0.0
2026-01-13 17:51:34.294703	345.1	36.7	-72.3	0.4
2026-01-13 17:51:35.430970	345.1	36.4	-71.5	0.0
2026-01-13 17:51:36.563983	345.1	36.1	-72.7	0.0
2026-01-13 17:51:37.699728	345.1	35.8	-72.0	0.0
2026-01-13 17:51:38.833694	345.0	35.6	-71.0	0.0
2026-01-13 17:51:39.971872	345.0	35.3	-69.3	0.0
2026-01-13 17:51:41.108466	345.0	35.1	-70.3	0.0
2026-01-13 17:51:42.240957	345.0	34.8	-68.8	0.0
2026-01-13 17:51:43.373706	345.0	34.5	-68.7	0.0
2026-01-13 17:51:44.504896	345.0	34.3	-70.9	0.0
2026-01-13 17:51:45.635916	344.9	34.0	-72.3	0.0
2026-01-13 17:51:46.766942	344.9	33.8	-71.2	0.0
2026-01-13 17:51:47.897943	344.9	33.5	-71.8	0.0
2026-01-13 17:51:49.029204	344.9	33.3	-71.7	0.0
2026-01-13 17:51:50.158550	344.9	33.1	-71.1	0.0
2026-01-13 17:51:51.292810	344.9	32.8	-69.2	0.0
2026-01-13 17:51:52.424403	344.8	32.6	-70.0	0.0
2026-01-13 17:51:53.557978	344.8	32.3	-71.2	0.0
2026-01-13 17:51:54.691806	344.8	32.1	-71.2	0.0
2026-01-13 17:51:55.822466	344.8	31.9	-71.8	0.0
2026-01-13 17:51:56.951911	344.8	31.6	-71.5	0.0
2026-01-13 17:51:58.084847	344.8	31.4	-71.1	0.0
2026-01-13 17:51:59.219839	344.8	31.2	-72.5	0.1
2026-01-13 17:52:00.351790	344.7	31.0	-72.8	0.0
2026-01-13 17:52:01.484547	344.7	30.7	-72.4	0.0
2026-01-13 17:52:02.613429	344.7	30.5	-72.3	0.0
2026-01-13 17:52:03.744905	344.7	30.3	-72.1	0.0
2026-01-13 17:52:04.876809	344.7	30.1	-69.6	0.0
2026-01-13 17:52:06.009201	344.7	29.9	-70.8	0.0
2026-01-13 17:52:07.140699	344.7	29.6	-70.1	0.0
2026-01-13 17:52:08.273958	344.7	29.4	-69.9	0.0
2026-01-13 17:52:09.405906	344.6	29.2	-70.1	0.0
2026-01-13 17:52:10.537426	344.6	29.0	-70.8	0.0
2026-01-13 17:52:11.669469	344.6	28.8	-71.5	0.0
2026-01-13 17:52:12.801578	344.6	28.6	-70.6	0.0
2026-01-13 17:52:13.934140	344.6	28.4	-71.2	0.0
2026-01-13 17:52:15.064100	344.6	28.2	-70.0	0.0
2026-01-13 17:52:16.191600	344.6	28.0	-71.3	0.0
2026-01-13 17:52:17.322163	344.6	27.8	-70.6	0.0
2026-01-13 17:52:18.450832	344.6	27.6	-71.0	0.0
2026-01-13 17:52:19.579253	344.5	27.4	-71.4	0.0
2026-01-13 17:52:20.708745	344.5	27.2	-70.9	0.0
2026-01-13 17:52:21.837804	344.5	27.0	-71.0	0.0
2026-01-13 17:52:22.971229	344.5	26.8	-70.5	0.0
2026-01-13 17:52:24.105448	344.5	26.6	-70.8	0.0
2026-01-13 17:52:25.238023	344.5	26.4	-71.1	0.0
2026-01-13 17:52:26.371748	344.5	26.2	-69.7	0.0
2026-01-13 17:52:27.503329	344.5	26.0	-70.2	0.0
2026-01-13 17:52:28.638106	344.5	25.8	-71.9	0.0
2026-01-13 17:52:29.771421	344.5	25.6	-71.2	0.0
2026-01-13 17:52:30.905845	344.5	25.5	-70.8	0.0
2026-01-13 17:52:32.037240	344.5	25.3	-70.1	0.0
2026-01-13 17:52:33.172682	344.4	25.1	-71.0	0.0
2026-01-13 17:52:34.303380	344.4	24.9	-70.4	0.0
2026-01-13 17:52:35.436586	344.4	24.7	-70.3	0.0
2026-01-13 17:52:36.571321	344.4	24.5	-68.7	0.0
2026-01-13 17:52:37.705441	344.4	24.4	-70.1	0.0
2026-01-13 17:52:38.837533	344.4	24.2	-70.7	0.0
2026-01-13 17:52:39.971238	344.4	24.0	-70.4	0.0
2026-01-13 17:52:41.106591	344.4	23.8	-69.2	0.0
2026-01-13 17:52:42.239352	344.4	23.7	-69.5	0.0
2026-01-13 17:52:43.374290	344.4	23.5	-70.0	0.0
2026-01-13 17:52:44.507415	344.4	23.3	-70.4	0.0
2026-01-13 17:52:45.639657	344.4	23.2	-68.4	0.0
2026-01-13 17:52:46.773179	344.4	23.0	-66.1	0.0
2026-01-13 17:52:47.902469	344.4	22.8	-65.5	0.0
2026-01-13 17:52:49.037176	344.3	22.7	-67.5	0.0
2026-01-13 17:52:50.175607	344.3	22.5	-66.8	0.0
2026-01-13 17:52:51.313438	344.3	22.3	-67.8	0.0
2026-01-13 17:52:52.448445	344.3	22.2	-69.7	0.0
2026-01-13 17:52:53.585609	344.3	22.0	-70.2	0.0
2026-01-13 17:52:54.721239	344.3	21.8	-70.0	0.0
2026-01-13 17:52:55.860671	344.3	21.7	-70.8	0.0
2026-01-13 17:52:56.998710	344.3	21.5	-71.3	0.0
2026-01-13 17:52:58.134954	344.3	21.4	-71.2	0.0
2026-01-13 17:52:59.274082	344.3	21.2	-70.7	0.0
2026-01-13 17:53:00.413345	344.3	21.0	-72.0	0.0
2026-01-13 17:53:01.551361	344.3	20.9	-69.9	0.0
2026-01-13 17:53:02.688094	344.3	20.7	-69.0	0.0
2026-01-13 17:53:03.825980	344.3	20.6	-71.4	0.0
2026-01-13 17:53:04.963353	344.3	20.4	-70.3	0.0
2026-01-13 17:53:06.098399	344.3	20.3	-68.9	0.0
2026-01-13 17:53:07.234469	344.3	20.1	-70.1	0.0
2026-01-13 17:53:08.373805	344.3	20.0	-70.1	0.0
2026-01-13 17:53:09.510221	344.3	19.8	-70.4	0.0
2026-01-13 17:53:10.648055	344.2	19.7	-70.1	0.0
2026-01-13 17:53:11.782323	344.2	19.5	-69.8	0.0
2026-01-13 17:53:12.919277	344.2	19.4	-69.4	0.0
2026-01-13 17:53:14.056786	344.2	19.2	-71.4	0.0
2026-01-13 17:53:15.196245	344.2	19.1	-70.1	0.0
2026-01-13 17:53:16.333635	344.2	19.0	-69.1	0.0
2026-01-13 17:53:17.472682	344.2	18.8	-69.4	0.0
2026-01-13 17:53:18.609030	344.2	18.7	-69.4	0.0
2026-01-13 17:53:19.745599	344.2	18.5	-71.9	0.0
2026-01-13 17:53:20.884921	344.2	18.4	-68.1	0.0
2026-01-13 17:53:22.023687	344.2	18.2	-70.2	0.0
2026-01-13 17:53:23.161559	344.2	18.1	-71.3	0.0
2026-01-13 17:53:24.297443	344.2	18.0	-71.4	0.0
2026-01-13 17:53:25.435594	344.2	17.8	-71.2	0.0
2026-01-13 17:53:26.571827	344.2	17.7	-72.1	0.0
2026-01-13 17:53:27.708584	344.2	17.6	-72.1	0.0
2026-01-13 17:53:28.843932	344.2	17.4	-72.4	0.0
2026-01-13 17:53:29.978332	344.2	17.3	-71.5	0.0
2026-01-13 17:53:31.112994	344.2	17.2	-72.4	0.0
2026-01-13 17:53:32.244270	344.2	17.0	-71.2	0.0
2026-01-13 17:53:33.374667	344.2	16.9	-73.7	0.0
2026-01-13 17:53:34.502931	344.2	16.8	-73.1	0.0
2026-01-13 17:53:35.633210	344.2	16.6	-72.4	0.0
2026-01-13 17:53:36.761862	344.2	16.5	-71.7	0.0
2026-01-13 17:53:37.889051	344.2	16.4	-71.9	0.0
2026-01-13 17:53:39.019720	344.2	16.2	-73.0	0.0
2026-01-13 17:53:40.149054	344.2	16.1	-71.6	0.0
2026-01-13 17:53:41.277344	344.2	16.0	-71.9	0.0
2026-01-13 17:53:42.405863	344.2	15.9	-71.4	0.0
2026-01-13 17:53:43.533933	344.2	15.7	-72.6	0.0
2026-01-13 17:53:44.665726	344.2	15.6	-72.3	0.0
2026-01-13 17:53:45.794058	344.2	15.5	-73.2	0.0
2026-01-13 17:53:46.921486	344.1	15.4	-72.5	0.0
2026-01-13 17:53:48.050621	344.1	15.3	-72.5	0.0
2026-01-13 17:53:49.177418	344.1	15.1	-73.1	0.0
2026-01-13 17:53:50.304498	344.1	15.0	-72.3	0.0
2026-01-13 17:53:51.435540	344.1	14.9	-73.5	0.0
2026-01-13 17:53:52.563281	344.1	14.8	-73.3	0.0
2026-01-13 17:53:53.690833	344.1	14.7	-73.3	0.0
2026-01-13 17:53:54.825472	344.1	14.5	-72.6	0.0
2026-01-13 17:53:55.961139	344.1	14.4	-71.5	0.0
2026-01-13 17:53:57.097409	344.1	14.3	-73.4	0.0
2026-01-13 17:53:58.233138	344.1	14.2	-71.4	0.0
2026-01-13 17:53:59.366003	344.1	14.1	-72.5	0.0
2026-01-13 17:54:00.502479	344.1	13.9	-71.2	0.0
2026-01-13 17:54:01.638959	344.1	13.8	-72.2	0.0
2026-01-13 17:54:02.774279	344.1	13.7	-73.8	0.0
2026-01-13 17:54:03.909496	344.1	13.6	-74.6	0.0
2026-01-13 17:54:05.042839	344.1	13.5	-72.3	0.0
2026-01-13 17:54:06.177918	344.1	13.4	-72.2	0.0
2026-01-13 17:54:07.315334	344.1	13.3	-73.1	0.0
2026-01-13 17:54:08.450395	344.1	13.1	-72.3	0.0
2026-01-13 17:54:09.586795	344.1	13.0	-73.3	0.0
2026-01-13 17:54:10.723488	344.1	12.9	-72.5	0.0
2026-01-13 17:54:11.856498	344.1	12.8	-72.2	0.0
2026-01-13 17:54:12.987030	344.1	12.7	-72.4	0.0
2026-01-13 17:54:14.113968	344.1	12.6	-73.0	0.0
2026-01-13 17:54:15.241988	344.1	12.5	-69.9	0.0
2026-01-13 17:54:16.375010	344.1	12.4	-72.8	0.0
2026-01-13 17:54:17.505192	344.1	12.3	-72.8	0.0
2026-01-13 17:54:18.636147	344.1	12.2	-73.4	0.0
2026-01-13 17:54:19.767908	344.1	12.0	-72.9	0.0
2026-01-13 17:54:20.901593	344.1	11.9	-73.1	0.0
2026-01-13 17:54:22.032158	344.1	11.8	-73.7	0.0
2026-01-13 17:54:23.163565	344.1	11.7	-72.4	0.0
2026-01-13 17:54:24.295264	344.1	11.6	-73.6	0.0
2026-01-13 17:54:25.425462	344.1	11.5	-73.2	0.0
2026-01-13 17:54:26.558916	344.1	11.4	-73.3	0.0
2026-01-13 17:54:27.689414	344.1	11.3	-72.3	0.0
2026-01-13 17:54:28.823114	344.1	11.2	-71.8	0.0
2026-01-13 17:54:29.953278	344.1	11.1	-72.9	0.0
2026-01-13 17:54:31.092225	344.1	11.0	-73.3	0.0
2026-01-13 17:54:32.223655	344.1	10.9	-73.8	0.0
2026-01-13 17:54:33.355790	344.1	10.8	-71.8	0.0
2026-01-13 17:54:34.491991	344.1	10.7	-72.3	0.0
2026-01-13 17:54:35.628755	344.1	10.6	-71.0	0.0
2026-01-13 17:54:36.761993	344.1	10.5	-70.9	0.0
2026-01-13 17:54:37.897138	344.1	10.4	-70.6	0.0
2026-01-13 17:54:39.031304	344.1	10.3	-73.9	0.0
2026-01-13 17:54:40.168970	344.1	10.2	-74.2	0.0
2026-01-13 17:54:41.306981	344.1	10.1	-79.1	0.0
#Closed at: 2026-01-13 17:43:54.456875