passes_logs/2026/01/13/planumMaritime01/planumMaritime01__20260113_064133_METOP-B_rec.log

#Pass ID: 20260113_064133_METOP-B
#Satellite: METOP-B
#Configuration: METOP-B
#Start time: 2026-01-13 06:41:38.961641

#LorettStation: 1.0.0 05.05.2024
#Station: planumMaritime01
#Location: 37.49445 lon 55.92918 lat
#TLE: 1 38771U 12049A   26012.90633838  .00000094  00000+0  63105-4 0  9994
#TLE: 2 38771  98.6755  67.3301 0003319  81.0772 279.0781 14.21421823691209

#Time	Az	El	Level	SNR
2026-01-13 06:41:45.671649	23.5	10.6	-61.7	0.0
2026-01-13 06:41:46.793113	23.6	10.7	-62.4	0.0
2026-01-13 06:41:47.914531	23.6	10.8	-59.7	0.0
2026-01-13 06:41:49.034676	23.7	10.9	-58.7	0.0
2026-01-13 06:41:50.160819	23.7	11.0	-61.6	0.0
2026-01-13 06:41:51.282323	23.8	11.1	-62.2	0.0
2026-01-13 06:41:52.405421	23.9	11.1	-60.4	0.0
2026-01-13 06:41:53.526901	23.9	11.2	-59.6	0.0
2026-01-13 06:41:54.650590	24.0	11.3	-60.0	0.0
2026-01-13 06:41:55.776079	24.0	11.4	-59.1	0.0
2026-01-13 06:41:56.898099	24.1	11.5	-60.0	0.0
2026-01-13 06:41:58.021090	24.2	11.6	-60.6	0.0
2026-01-13 06:41:59.143589	24.2	11.7	-61.3	0.0
2026-01-13 06:42:00.266447	24.3	11.8	-61.0	0.0
2026-01-13 06:42:01.388220	24.3	11.9	-59.3	0.0
2026-01-13 06:42:02.508902	24.4	12.0	-61.0	0.0
2026-01-13 06:42:03.629625	24.5	12.1	-60.3	0.0
2026-01-13 06:42:04.751817	24.5	12.3	-57.7	0.0
2026-01-13 06:42:05.875034	24.6	12.4	-60.1	0.0
2026-01-13 06:42:06.998029	24.7	12.5	-60.0	0.0
2026-01-13 06:42:08.120864	24.7	12.6	-59.1	0.0
2026-01-13 06:42:09.244290	24.8	12.7	-58.5	0.0
2026-01-13 06:42:10.369958	24.9	12.8	-60.4	0.0
2026-01-13 06:42:11.493440	24.9	12.9	-60.7	0.0
2026-01-13 06:42:12.616147	25.0	13.0	-56.8	0.0
2026-01-13 06:42:13.738774	25.1	13.1	-59.3	0.0
2026-01-13 06:42:14.863391	25.1	13.2	-57.9	0.0
2026-01-13 06:42:15.984774	25.2	13.3	-60.8	0.0
2026-01-13 06:42:17.107753	25.3	13.4	-59.1	0.0
2026-01-13 06:42:18.232519	25.3	13.5	-61.9	0.0
2026-01-13 06:42:19.354324	25.4	13.6	-60.7	0.0
2026-01-13 06:42:20.479590	25.5	13.7	-58.2	0.0
2026-01-13 06:42:21.601222	25.5	13.8	-59.6	0.0
2026-01-13 06:42:22.722348	25.6	13.9	-59.7	0.0
2026-01-13 06:42:23.845569	25.7	14.1	-61.6	0.0
2026-01-13 06:42:24.966015	25.7	14.2	-59.1	0.0
2026-01-13 06:42:26.089323	25.8	14.3	-59.0	0.0
2026-01-13 06:42:27.211134	25.9	14.4	-59.6	0.0
2026-01-13 06:42:28.332495	26.0	14.5	-59.7	0.0
2026-01-13 06:42:29.454097	26.0	14.6	-59.5	0.0
2026-01-13 06:42:30.576094	26.1	14.7	-60.6	0.0
2026-01-13 06:42:31.699391	26.2	14.8	-62.9	0.0
2026-01-13 06:42:32.822096	26.2	14.9	-60.4	0.0
2026-01-13 06:42:33.944948	26.3	15.1	-57.9	0.0
2026-01-13 06:42:35.069371	26.4	15.2	-58.7	0.0
2026-01-13 06:42:36.191866	26.5	15.3	-62.8	0.0
2026-01-13 06:42:37.314254	26.6	15.4	-56.8	0.0
2026-01-13 06:42:38.435438	26.6	15.5	-60.7	0.0
2026-01-13 06:42:39.555784	26.7	15.6	-58.0	0.0
2026-01-13 06:42:40.677113	26.8	15.8	-58.9	0.0
2026-01-13 06:42:41.799188	26.9	15.9	-61.6	0.0
2026-01-13 06:42:42.920791	26.9	16.0	-60.9	0.0
2026-01-13 06:42:44.043271	27.0	16.1	-62.0	0.0
2026-01-13 06:42:45.166049	27.1	16.2	-59.7	0.0
2026-01-13 06:42:46.287120	27.2	16.3	-60.1	0.0
2026-01-13 06:42:47.409894	27.3	16.5	-61.7	0.0
2026-01-13 06:42:48.532511	27.3	16.6	-61.3	0.0
2026-01-13 06:42:49.655967	27.4	16.7	-62.7	0.0
2026-01-13 06:42:50.777742	27.5	16.8	-64.4	0.0
2026-01-13 06:42:51.900131	27.6	17.0	-64.1	0.0
2026-01-13 06:42:53.021153	27.7	17.1	-61.0	0.0
2026-01-13 06:42:54.144889	27.8	17.2	-57.6	0.0
2026-01-13 06:42:55.267156	27.9	17.3	-62.7	0.0
2026-01-13 06:42:56.390241	27.9	17.4	-63.2	0.0
2026-01-13 06:42:57.513648	28.0	17.6	-63.1	0.0
2026-01-13 06:42:58.635954	28.1	17.7	-62.5	0.0
2026-01-13 06:42:59.758204	28.2	17.8	-63.7	0.0
2026-01-13 06:43:00.880497	28.3	18.0	-61.7	0.0
2026-01-13 06:43:02.001488	28.4	18.1	-55.8	0.0
2026-01-13 06:43:03.123612	28.5	18.2	-60.7	0.0
2026-01-13 06:43:04.246688	28.6	18.3	-64.3	0.0
2026-01-13 06:43:05.367745	28.7	18.5	-59.6	0.0
2026-01-13 06:43:06.490266	28.8	18.6	-62.2	0.0
2026-01-13 06:43:07.614452	28.9	18.7	-63.3	0.0
2026-01-13 06:43:08.736322	28.9	18.9	-61.8	0.0
2026-01-13 06:43:09.859462	29.0	19.0	-56.6	0.0
2026-01-13 06:43:10.980910	29.1	19.1	-62.0	0.0
2026-01-13 06:43:12.104681	29.2	19.3	-63.6	0.0
2026-01-13 06:43:13.228117	29.3	19.4	-61.7	0.0
2026-01-13 06:43:14.348554	29.4	19.5	-60.8	0.0
2026-01-13 06:43:15.471427	29.5	19.7	-61.3	0.0
2026-01-13 06:43:16.594446	29.6	19.8	-61.0	0.0
2026-01-13 06:43:17.719128	29.7	19.9	-62.4	0.0
2026-01-13 06:43:18.840364	29.8	20.1	-64.2	0.0
2026-01-13 06:43:19.962282	29.9	20.2	-61.8	0.0
2026-01-13 06:43:21.084072	30.0	20.3	-62.9	0.0
2026-01-13 06:43:22.206422	30.2	20.5	-57.6	0.0
2026-01-13 06:43:23.327669	30.3	20.6	-61.0	0.0
2026-01-13 06:43:24.448919	30.4	20.8	-64.3	0.0
2026-01-13 06:43:25.571185	30.5	20.9	-63.1	0.0
2026-01-13 06:43:26.695491	30.6	21.0	-63.2	0.0
2026-01-13 06:43:27.817174	30.7	21.2	-64.8	0.0
2026-01-13 06:43:28.939572	30.8	21.3	-61.7	0.0
2026-01-13 06:43:30.064325	30.9	21.5	-57.8	0.0
2026-01-13 06:43:31.185418	31.0	21.6	-64.1	0.0
2026-01-13 06:43:32.308157	31.1	21.8	-66.2	0.0
2026-01-13 06:43:33.430406	31.3	21.9	-63.7	0.0
2026-01-13 06:43:34.552084	31.4	22.1	-63.5	0.0
2026-01-13 06:43:35.675892	31.5	22.2	-62.8	0.0
2026-01-13 06:43:36.797425	31.6	22.4	-64.3	0.0
2026-01-13 06:43:37.918550	31.7	22.5	-56.8	0.0
2026-01-13 06:43:39.040992	31.8	22.7	-66.3	0.0
2026-01-13 06:43:40.164351	32.0	22.8	-65.4	0.0
2026-01-13 06:43:41.285472	32.1	23.0	-64.5	0.0
2026-01-13 06:43:42.405662	32.2	23.1	-62.2	0.0
2026-01-13 06:43:43.527263	32.3	23.3	-64.5	0.0
2026-01-13 06:43:44.649218	32.5	23.4	-60.3	0.0
2026-01-13 06:43:45.774011	32.6	23.6	-61.9	0.0
2026-01-13 06:43:46.897779	32.7	23.7	-61.6	0.0
2026-01-13 06:43:48.019392	32.9	23.9	-55.4	0.0
2026-01-13 06:43:49.139756	33.0	24.0	-62.7	0.0
2026-01-13 06:43:50.262348	33.1	24.2	-63.4	0.0
2026-01-13 06:43:51.385404	33.2	24.4	-60.0	0.0
2026-01-13 06:43:52.507788	33.4	24.5	-58.7	0.0
2026-01-13 06:43:53.631430	33.5	24.7	-58.2	0.0
2026-01-13 06:43:54.757415	33.7	24.8	-63.4	0.0
2026-01-13 06:43:55.879150	33.8	25.0	-59.9	0.0
2026-01-13 06:43:57.003118	33.9	25.2	-63.5	0.0
2026-01-13 06:43:58.124448	34.1	25.3	-61.4	0.0
2026-01-13 06:43:59.247901	34.2	25.5	-58.5	0.0
2026-01-13 06:44:00.373292	34.4	25.7	-61.0	0.0
2026-01-13 06:44:01.496418	34.5	25.8	-61.2	0.0
2026-01-13 06:44:02.619509	34.7	26.0	-59.1	0.0
2026-01-13 06:44:03.740899	34.8	26.2	-58.8	0.0
2026-01-13 06:44:04.864296	35.0	26.3	-65.2	0.0
2026-01-13 06:44:05.984983	35.1	26.5	-64.4	0.0
2026-01-13 06:44:07.108483	35.3	26.7	-65.8	0.0
2026-01-13 06:44:08.232039	35.4	26.8	-63.3	0.0
2026-01-13 06:44:09.355043	35.6	27.0	-65.9	0.0
2026-01-13 06:44:10.479012	35.7	27.2	-66.5	0.0
2026-01-13 06:44:11.599608	35.9	27.4	-65.5	0.0
2026-01-13 06:44:12.722241	36.1	27.5	-62.3	0.0
2026-01-13 06:44:13.845806	36.2	27.7	-60.8	0.0
2026-01-13 06:44:14.968132	36.4	27.9	-66.2	0.0
2026-01-13 06:44:16.090269	36.6	28.1	-66.3	0.0
2026-01-13 06:44:17.211133	36.7	28.3	-64.4	0.0
2026-01-13 06:44:18.335122	36.9	28.4	-62.4	0.0
2026-01-13 06:44:19.456789	37.1	28.6	-61.3	0.0
2026-01-13 06:44:20.578755	37.2	28.8	-62.2	0.0
2026-01-13 06:44:21.702528	37.4	29.0	-65.4	0.0
2026-01-13 06:44:22.824292	37.6	29.2	-63.3	0.0
2026-01-13 06:44:23.947498	37.8	29.3	-67.0	0.0
2026-01-13 06:44:25.069581	38.0	29.5	-64.4	0.0
2026-01-13 06:44:26.194167	38.2	29.7	-66.0	0.0
2026-01-13 06:44:27.316429	38.3	29.9	-68.8	0.0
2026-01-13 06:44:28.441677	38.5	30.1	-66.2	0.0
2026-01-13 06:44:29.564040	38.7	30.3	-66.8	0.0
2026-01-13 06:44:30.687515	38.9	30.5	-66.7	0.0
2026-01-13 06:44:31.812426	39.1	30.7	-66.5	0.0
2026-01-13 06:44:32.935415	39.3	30.9	-66.2	0.0
2026-01-13 06:44:34.057829	39.5	31.0	-66.0	0.0
2026-01-13 06:44:35.181793	39.7	31.2	-65.1	0.0
2026-01-13 06:44:36.305404	39.9	31.4	-66.6	0.0
2026-01-13 06:44:37.428085	40.1	31.6	-66.7	0.0
2026-01-13 06:44:38.551549	40.3	31.8	-68.2	0.0
2026-01-13 06:44:39.675627	40.5	32.0	-68.6	0.1
2026-01-13 06:44:40.796200	40.8	32.2	-68.1	0.0
2026-01-13 06:44:41.917298	41.0	32.4	-69.0	0.0
2026-01-13 06:44:43.041232	41.2	32.6	-69.3	0.0
2026-01-13 06:44:44.163740	41.4	32.8	-69.2	2.3
2026-01-13 06:44:45.285342	41.6	33.0	-69.4	0.2
2026-01-13 06:44:46.407196	41.9	33.2	-68.9	2.2
2026-01-13 06:44:47.532438	42.1	33.4	-69.7	3.4
2026-01-13 06:44:48.656488	42.3	33.6	-68.8	0.0
2026-01-13 06:44:49.779465	42.6	33.8	-69.9	2.2
2026-01-13 06:44:50.901293	42.8	34.0	-69.4	1.0
2026-01-13 06:44:52.022905	43.1	34.3	-69.0	0.9
2026-01-13 06:44:53.143372	43.3	34.5	-68.8	1.5
2026-01-13 06:44:54.265790	43.6	34.7	-69.2	3.3
2026-01-13 06:44:55.390024	43.8	34.9	-68.8	2.3
2026-01-13 06:44:56.509453	44.1	35.1	-68.6	0.5
2026-01-13 06:44:57.632549	44.3	35.3	-69.3	3.7
2026-01-13 06:44:58.755765	44.6	35.5	-68.9	2.4
2026-01-13 06:44:59.875822	44.9	35.7	-69.1	2.3
2026-01-13 06:45:00.999112	45.1	35.9	-70.0	3.8
2026-01-13 06:45:02.122099	45.4	36.1	-70.0	5.6
2026-01-13 06:45:03.246388	45.7	36.4	-70.6	5.5
2026-01-13 06:45:04.368978	46.0	36.6	-69.7	4.2
2026-01-13 06:45:05.491740	46.2	36.8	-69.1	2.3
2026-01-13 06:45:06.617761	46.5	37.0	-70.1	4.2
2026-01-13 06:45:07.741525	46.8	37.2	-66.1	0.0
2026-01-13 06:45:08.862287	47.1	37.4	-68.5	0.0
2026-01-13 06:45:09.987432	47.4	37.7	-69.4	4.4
2026-01-13 06:45:11.106680	47.7	37.9	-69.5	6.0
2026-01-13 06:45:12.229755	48.0	38.1	-69.1	3.4
2026-01-13 06:45:13.352675	48.3	38.3	-69.7	4.0
2026-01-13 06:45:14.474240	48.6	38.5	-69.1	3.6
2026-01-13 06:45:15.599239	49.0	38.8	-69.6	1.9
2026-01-13 06:45:16.726220	49.3	39.0	-69.1	4.9
2026-01-13 06:45:17.848299	49.6	39.2	-69.2	5.0
2026-01-13 06:45:18.969931	49.9	39.4	-69.8	4.8
2026-01-13 06:45:20.092162	50.3	39.7	-69.2	3.3
2026-01-13 06:45:21.215197	50.6	39.9	-69.4	2.7
2026-01-13 06:45:22.339227	51.0	40.1	-69.3	4.0
2026-01-13 06:45:23.463923	51.3	40.3	-68.4	4.4
2026-01-13 06:45:24.585493	51.7	40.6	-68.6	4.1
2026-01-13 06:45:25.709132	52.0	40.8	-68.3	4.0
2026-01-13 06:45:26.829419	52.4	41.0	-68.3	0.2
2026-01-13 06:45:27.954122	52.8	41.2	-67.3	3.1
2026-01-13 06:45:29.077790	53.2	41.5	-67.8	2.2
2026-01-13 06:45:30.199585	53.5	41.7	-68.1	1.8
2026-01-13 06:45:31.323441	53.9	41.9	-67.9	2.3
2026-01-13 06:45:32.444231	54.3	42.1	-67.5	2.2
2026-01-13 06:45:33.565160	54.7	42.3	-68.0	0.9
2026-01-13 06:45:34.687528	55.1	42.6	-67.6	2.3
2026-01-13 06:45:35.809939	55.5	42.8	-69.2	3.5
2026-01-13 06:45:36.932336	55.9	43.0	-68.5	3.0
2026-01-13 06:45:38.053497	56.4	43.2	-69.4	5.3
2026-01-13 06:45:39.176789	56.8	43.5	-69.4	5.1
2026-01-13 06:45:40.299062	57.2	43.7	-68.6	3.4
2026-01-13 06:45:41.424088	57.7	43.9	-69.5	4.6
2026-01-13 06:45:42.545668	58.1	44.1	-69.7	5.9
2026-01-13 06:45:43.668360	58.5	44.4	-70.4	5.9
2026-01-13 06:45:44.792337	59.0	44.6	-69.7	4.1
2026-01-13 06:45:45.914221	59.5	44.8	-70.1	6.8
2026-01-13 06:45:47.036688	59.9	45.0	-69.7	5.5
2026-01-13 06:45:48.159316	60.4	45.2	-69.0	4.9
2026-01-13 06:45:49.282838	60.9	45.5	-68.9	5.5
2026-01-13 06:45:50.403421	61.4	45.7	-68.7	3.8
2026-01-13 06:45:51.525882	61.9	45.9	-68.6	1.6
2026-01-13 06:45:52.647818	62.4	46.1	-67.9	0.0
2026-01-13 06:45:53.770644	62.9	46.3	-66.5	1.1
2026-01-13 06:45:54.892966	63.4	46.5	-69.5	5.9
2026-01-13 06:45:56.017640	63.9	46.7	-68.9	7.1
2026-01-13 06:45:57.141736	64.5	46.9	-68.5	3.7
2026-01-13 06:45:58.264377	65.0	47.1	-68.5	3.8
2026-01-13 06:45:59.387460	65.5	47.4	-68.5	1.0
2026-01-13 06:46:00.508431	66.1	47.6	-68.2	4.9
2026-01-13 06:46:01.631086	66.6	47.8	-68.4	5.7
2026-01-13 06:46:02.753106	67.2	48.0	-68.9	6.6
2026-01-13 06:46:03.875466	67.8	48.2	-68.7	6.6
2026-01-13 06:46:04.998698	68.4	48.3	-67.9	1.0
2026-01-13 06:46:06.121429	68.9	48.5	-68.5	2.4
2026-01-13 06:46:07.247455	69.5	48.7	-67.5	0.7
2026-01-13 06:46:08.372220	70.1	48.9	-68.5	4.2
2026-01-13 06:46:09.495326	70.7	49.1	-68.3	5.1
2026-01-13 06:46:10.617339	71.4	49.3	-68.3	3.5
2026-01-13 06:46:11.739829	72.0	49.5	-68.7	7.1
2026-01-13 06:46:12.863575	72.6	49.6	-68.1	5.9
2026-01-13 06:46:13.986410	73.3	49.8	-68.2	6.7
2026-01-13 06:46:15.106714	73.9	50.0	-68.6	5.4
2026-01-13 06:46:16.229567	74.6	50.2	-69.2	6.4
2026-01-13 06:46:17.351975	75.2	50.3	-68.7	6.4
2026-01-13 06:46:18.472597	75.9	50.5	-68.7	5.1
2026-01-13 06:46:19.596283	76.5	50.6	-66.6	2.4
2026-01-13 06:46:20.720228	77.2	50.8	-67.1	0.0
2026-01-13 06:46:21.840669	77.9	50.9	-69.4	5.4
2026-01-13 06:46:22.964357	78.6	51.1	-68.2	1.9
2026-01-13 06:46:24.087359	79.3	51.2	-69.0	5.0
2026-01-13 06:46:25.209984	80.0	51.4	-69.7	4.9
2026-01-13 06:46:26.334126	80.7	51.5	-68.6	5.3
2026-01-13 06:46:27.456879	81.5	51.6	-69.6	3.8
2026-01-13 06:46:28.578234	82.2	51.8	-69.6	7.5
2026-01-13 06:46:29.701179	82.9	51.9	-69.6	6.0
2026-01-13 06:46:30.826114	83.7	52.0	-69.8	4.0
2026-01-13 06:46:31.948596	84.4	52.1	-69.9	7.4
2026-01-13 06:46:33.069057	85.1	52.2	-70.4	5.7
2026-01-13 06:46:34.190124	85.9	52.3	-69.3	4.4
2026-01-13 06:46:35.312452	86.7	52.4	-68.7	2.2
2026-01-13 06:46:36.435638	87.4	52.5	-68.1	0.0
2026-01-13 06:46:37.557568	88.2	52.6	-68.2	0.0
2026-01-13 06:46:38.680130	89.0	52.7	-68.6	5.9
2026-01-13 06:46:39.805017	89.7	52.8	-69.9	4.4
2026-01-13 06:46:40.927951	90.5	52.8	-68.2	2.8
2026-01-13 06:46:42.049535	91.3	52.9	-69.1	4.1
2026-01-13 06:46:43.169274	92.1	53.0	-68.9	2.9
2026-01-13 06:46:44.292526	92.9	53.0	-70.0	6.5
2026-01-13 06:46:45.413682	93.7	53.1	-69.2	3.0
2026-01-13 06:46:46.537675	94.5	53.1	-69.7	6.1
2026-01-13 06:46:47.659217	95.3	53.2	-69.6	4.8
2026-01-13 06:46:48.780296	96.1	53.2	-70.9	5.7
2026-01-13 06:46:49.903859	96.9	53.2	-71.1	7.1
2026-01-13 06:46:51.024739	97.7	53.3	-70.5	1.3
2026-01-13 06:46:52.147743	98.5	53.3	-68.9	4.5
2026-01-13 06:46:53.269784	99.3	53.3	-69.6	3.6
2026-01-13 06:46:54.392821	100.1	53.3	-71.3	7.6
2026-01-13 06:46:55.514471	100.9	53.3	-71.4	7.4
2026-01-13 06:46:56.637299	101.7	53.3	-71.3	7.5
2026-01-13 06:46:57.759094	102.6	53.3	-71.1	7.9
2026-01-13 06:46:58.884876	103.4	53.3	-71.4	6.4
2026-01-13 06:47:00.010704	104.2	53.2	-71.5	4.3
2026-01-13 06:47:01.133771	105.0	53.2	-71.9	8.9
2026-01-13 06:47:02.257259	105.8	53.2	-71.6	8.4
2026-01-13 06:47:03.382045	106.6	53.1	-71.8	8.0
2026-01-13 06:47:04.503948	107.4	53.1	-70.5	3.5
2026-01-13 06:47:05.624469	108.2	53.0	-70.7	6.2
2026-01-13 06:47:06.745245	109.0	53.0	-71.3	7.6
2026-01-13 06:47:07.867286	109.8	52.9	-71.4	5.6
2026-01-13 06:47:08.989563	110.6	52.9	-72.0	7.8
2026-01-13 06:47:10.110228	111.3	52.8	-70.6	6.5
2026-01-13 06:47:11.231211	112.1	52.7	-71.4	8.0
2026-01-13 06:47:12.354691	112.9	52.6	-71.3	8.0
2026-01-13 06:47:13.476231	113.7	52.5	-70.4	5.9
2026-01-13 06:47:14.597575	114.4	52.4	-71.6	5.4
2026-01-13 06:47:15.718435	115.2	52.3	-71.5	6.6
2026-01-13 06:47:16.838754	115.9	52.2	-71.6	6.4
2026-01-13 06:47:17.961085	116.7	52.1	-71.2	7.9
2026-01-13 06:47:19.085444	117.4	52.0	-71.5	8.9
2026-01-13 06:47:20.207897	118.2	51.9	-70.3	7.3
2026-01-13 06:47:21.330112	118.9	51.8	-71.5	7.0
2026-01-13 06:47:22.454309	119.6	51.7	-71.5	6.6
2026-01-13 06:47:23.579378	120.4	51.5	-70.8	8.0
2026-01-13 06:47:24.700608	121.1	51.4	-71.8	9.4
2026-01-13 06:47:25.823944	121.8	51.3	-72.2	8.4
2026-01-13 06:47:26.945930	122.5	51.1	-70.4	6.7
2026-01-13 06:47:28.067301	123.2	51.0	-71.6	6.6
2026-01-13 06:47:29.190013	123.9	50.8	-72.0	8.8
2026-01-13 06:47:30.312206	124.6	50.7	-71.2	7.2
2026-01-13 06:47:31.432627	125.2	50.5	-71.9	6.9
2026-01-13 06:47:32.555794	125.9	50.3	-71.8	8.1
2026-01-13 06:47:33.679460	126.6	50.2	-72.0	9.3
2026-01-13 06:47:34.804712	127.2	50.0	-71.8	9.6
2026-01-13 06:47:35.928455	127.9	49.8	-72.3	9.6
2026-01-13 06:47:37.053771	128.5	49.7	-72.1	9.9
2026-01-13 06:47:38.177259	129.1	49.5	-72.5	8.5
2026-01-13 06:47:39.299542	129.8	49.3	-72.3	9.7
2026-01-13 06:47:40.422547	130.4	49.1	-72.5	9.5
2026-01-13 06:47:41.545638	131.0	48.9	-72.1	8.7
2026-01-13 06:47:42.668971	131.6	48.7	-72.8	8.7
2026-01-13 06:47:43.792775	132.2	48.6	-71.9	8.6
2026-01-13 06:47:44.915602	132.8	48.4	-72.1	9.3
2026-01-13 06:47:46.035578	133.4	48.2	-72.5	8.6
2026-01-13 06:47:47.156763	133.9	48.0	-72.4	10.1
2026-01-13 06:47:48.278537	134.5	47.8	-73.5	10.8
2026-01-13 06:47:49.402318	135.1	47.6	-72.5	7.5
2026-01-13 06:47:50.525524	135.6	47.4	-72.2	9.8
2026-01-13 06:47:51.648905	136.2	47.2	-72.4	10.0
2026-01-13 06:47:52.771916	136.7	46.9	-72.5	9.3
2026-01-13 06:47:53.892348	137.2	46.7	-73.6	11.0
2026-01-13 06:47:55.014553	137.8	46.5	-72.5	8.6
2026-01-13 06:47:56.135578	138.3	46.3	-72.8	9.0
2026-01-13 06:47:57.256285	138.8	46.1	-72.9	9.7
2026-01-13 06:47:58.378589	139.3	45.9	-73.0	9.9
2026-01-13 06:47:59.501719	139.8	45.7	-72.9	9.2
2026-01-13 06:48:00.623291	140.3	45.5	-72.6	9.2
2026-01-13 06:48:01.749637	140.8	45.2	-72.5	10.1
2026-01-13 06:48:02.877060	141.2	45.0	-72.5	10.1
2026-01-13 06:48:04.001085	141.7	44.8	-72.8	9.9
2026-01-13 06:48:05.123275	142.2	44.6	-72.9	10.5
2026-01-13 06:48:06.244393	142.6	44.4	-72.9	10.6
2026-01-13 06:48:07.366985	143.1	44.1	-72.6	10.5
2026-01-13 06:48:08.492328	143.5	43.9	-72.3	10.0
2026-01-13 06:48:09.613282	144.0	43.7	-72.7	9.8
2026-01-13 06:48:10.735644	144.4	43.5	-72.5	10.0
2026-01-13 06:48:11.858420	144.8	43.2	-72.8	10.9
2026-01-13 06:48:12.981426	145.2	43.0	-72.8	10.0
2026-01-13 06:48:14.104842	145.7	42.8	-73.0	11.0
2026-01-13 06:48:15.227539	146.1	42.6	-73.0	10.2
2026-01-13 06:48:16.349648	146.5	42.3	-73.1	11.1
2026-01-13 06:48:17.472569	146.9	42.1	-73.1	11.3
2026-01-13 06:48:18.596170	147.3	41.9	-72.7	10.5
2026-01-13 06:48:19.719660	147.7	41.7	-73.0	10.2
2026-01-13 06:48:20.842510	148.0	41.4	-73.0	10.4
2026-01-13 06:48:21.964215	148.4	41.2	-72.9	10.7
2026-01-13 06:48:23.088405	148.8	41.0	-73.0	10.6
2026-01-13 06:48:24.210753	149.2	40.8	-73.4	11.1
2026-01-13 06:48:25.334339	149.5	40.5	-73.5	10.7
2026-01-13 06:48:26.457687	149.9	40.3	-73.2	9.7
2026-01-13 06:48:27.579628	150.2	40.1	-73.1	10.3
2026-01-13 06:48:28.701835	150.6	39.9	-73.3	9.8
2026-01-13 06:48:29.823397	150.9	39.6	-73.4	11.3
2026-01-13 06:48:30.946647	151.3	39.4	-73.4	10.2
2026-01-13 06:48:32.068786	151.6	39.2	-73.3	10.9
2026-01-13 06:48:33.193206	151.9	39.0	-73.3	10.3
2026-01-13 06:48:34.315429	152.2	38.7	-73.2	10.6
2026-01-13 06:48:35.439734	152.6	38.5	-73.0	10.2
2026-01-13 06:48:36.562420	152.9	38.3	-73.1	10.1
2026-01-13 06:48:37.687500	153.2	38.1	-73.0	10.3
2026-01-13 06:48:38.810764	153.5	37.9	-73.1	11.3
2026-01-13 06:48:39.935247	153.8	37.6	-72.5	9.4
2026-01-13 06:48:41.058368	154.1	37.4	-73.1	11.7
2026-01-13 06:48:42.181928	154.4	37.2	-72.3	9.0
2026-01-13 06:48:43.305298	154.7	37.0	-72.9	10.8
2026-01-13 06:48:44.429674	155.0	36.8	-73.1	10.8
2026-01-13 06:48:45.556842	155.3	36.5	-73.2	10.4
2026-01-13 06:48:46.681071	155.6	36.3	-73.4	10.4
2026-01-13 06:48:47.801229	155.8	36.1	-73.5	10.3
2026-01-13 06:48:48.922310	156.1	35.9	-73.3	10.6
2026-01-13 06:48:50.046743	156.4	35.7	-73.4	10.9
2026-01-13 06:48:51.169589	156.6	35.5	-73.0	10.0
2026-01-13 06:48:52.292480	156.9	35.3	-73.6	10.0
2026-01-13 06:48:53.412311	157.2	35.0	-73.5	9.1
2026-01-13 06:48:54.535726	157.4	34.8	-73.2	9.8
2026-01-13 06:48:55.658294	157.7	34.6	-73.2	9.5
2026-01-13 06:48:56.780913	157.9	34.4	-73.7	8.9
2026-01-13 06:48:57.904193	158.2	34.2	-73.7	9.9
2026-01-13 06:48:59.026747	158.4	34.0	-73.2	9.3
2026-01-13 06:49:00.147475	158.6	33.8	-73.3	8.8
2026-01-13 06:49:01.272367	158.9	33.6	-73.8	9.8
2026-01-13 06:49:02.394426	159.1	33.4	-73.4	10.8
2026-01-13 06:49:03.517729	159.4	33.2	-73.5	10.2
2026-01-13 06:49:04.641261	159.6	33.0	-73.4	9.3
2026-01-13 06:49:05.764896	159.8	32.8	-73.0	4.8
2026-01-13 06:49:06.887322	160.0	32.6	-71.8	6.0
2026-01-13 06:49:08.010355	160.3	32.4	-73.4	8.1
2026-01-13 06:49:09.132284	160.5	32.2	-73.3	8.1
2026-01-13 06:49:10.255833	160.7	32.0	-73.4	8.2
2026-01-13 06:49:11.378895	160.9	31.8	-73.0	8.5
2026-01-13 06:49:12.504597	161.1	31.6	-73.1	9.0
2026-01-13 06:49:13.627247	161.3	31.4	-71.8	6.3
2026-01-13 06:49:14.748194	161.5	31.2	-72.3	7.9
2026-01-13 06:49:15.869363	161.7	31.0	-71.6	4.0
2026-01-13 06:49:16.992383	161.9	30.8	-72.3	7.9
2026-01-13 06:49:18.114284	162.1	30.6	-72.2	7.7
2026-01-13 06:49:19.237606	162.3	30.4	-72.5	5.4
2026-01-13 06:49:20.361691	162.5	30.2	-72.5	8.5
2026-01-13 06:49:21.486512	162.7	30.0	-72.7	7.7
2026-01-13 06:49:22.609566	162.9	29.8	-70.7	2.4
2026-01-13 06:49:23.731735	163.1	29.6	-72.0	7.4
2026-01-13 06:49:24.853947	163.3	29.5	-72.0	7.9
2026-01-13 06:49:25.976338	163.5	29.3	-72.7	5.2
2026-01-13 06:49:27.098932	163.6	29.1	-72.9	7.7
2026-01-13 06:49:28.222510	163.8	28.9	-72.3	8.0
2026-01-13 06:49:29.344508	164.0	28.7	-71.4	6.8
2026-01-13 06:49:30.468542	164.2	28.5	-72.6	7.3
2026-01-13 06:49:31.591016	164.3	28.3	-70.7	7.7
2026-01-13 06:49:32.713438	164.5	28.2	-73.2	8.0
2026-01-13 06:49:33.836530	164.7	28.0	-72.9	3.3
2026-01-13 06:49:34.960888	164.8	27.8	-72.3	5.7
2026-01-13 06:49:36.083873	165.0	27.6	-73.0	6.4
2026-01-13 06:49:37.207792	165.2	27.5	-73.2	6.9
2026-01-13 06:49:38.328771	165.3	27.3	-73.2	7.5
2026-01-13 06:49:39.451936	165.5	27.1	-73.6	6.0
2026-01-13 06:49:40.574740	165.7	26.9	-73.5	7.5
2026-01-13 06:49:41.697377	165.8	26.8	-73.6	5.7
2026-01-13 06:49:42.821132	166.0	26.6	-73.2	7.3
2026-01-13 06:49:43.945783	166.1	26.4	-72.9	6.2
2026-01-13 06:49:45.066642	166.3	26.2	-73.1	7.1
2026-01-13 06:49:46.187430	166.4	26.1	-72.7	6.2
2026-01-13 06:49:47.309981	166.6	25.9	-72.5	6.0
2026-01-13 06:49:48.431105	166.7	25.7	-73.2	6.5
2026-01-13 06:49:49.553587	166.9	25.6	-72.4	5.9
2026-01-13 06:49:50.677343	167.0	25.4	-72.7	5.4
2026-01-13 06:49:51.799365	167.2	25.2	-73.4	6.9
2026-01-13 06:49:52.920575	167.3	25.1	-72.7	7.4
2026-01-13 06:49:54.042361	167.4	24.9	-73.4	6.4
2026-01-13 06:49:55.167637	167.6	24.7	-73.1	6.3
2026-01-13 06:49:56.289313	167.7	24.6	-73.6	5.7
2026-01-13 06:49:57.410606	167.8	24.4	-72.9	3.9
2026-01-13 06:49:58.532900	168.0	24.3	-73.1	5.9
2026-01-13 06:49:59.655581	168.1	24.1	-72.7	5.5
2026-01-13 06:50:00.777278	168.2	23.9	-73.0	6.3
2026-01-13 06:50:01.899654	168.4	23.8	-72.9	6.2
2026-01-13 06:50:03.024668	168.5	23.6	-73.1	5.7
2026-01-13 06:50:04.146488	168.6	23.5	-72.7	5.0
2026-01-13 06:50:05.271877	168.8	23.3	-73.4	8.1
2026-01-13 06:50:06.395190	168.9	23.2	-72.6	4.9
2026-01-13 06:50:07.518100	169.0	23.0	-73.1	5.8
2026-01-13 06:50:08.641127	169.1	22.8	-73.4	5.9
2026-01-13 06:50:09.763062	169.3	22.7	-73.0	5.4
2026-01-13 06:50:10.885902	169.4	22.5	-73.1	5.8
2026-01-13 06:50:12.009000	169.5	22.4	-72.7	4.6
2026-01-13 06:50:13.130842	169.6	22.2	-72.8	4.4
2026-01-13 06:50:14.254909	169.7	22.1	-73.8	6.1
2026-01-13 06:50:15.378668	169.9	21.9	-73.2	4.6
2026-01-13 06:50:16.501231	170.0	21.8	-73.5	5.4
2026-01-13 06:50:17.623949	170.1	21.6	-73.2	4.9
2026-01-13 06:50:18.747255	170.2	21.5	-73.4	6.0
2026-01-13 06:50:19.870931	170.3	21.4	-72.7	5.0
2026-01-13 06:50:20.993912	170.4	21.2	-73.2	3.6
2026-01-13 06:50:22.117175	170.5	21.1	-73.1	4.9
2026-01-13 06:50:23.238532	170.6	20.9	-73.2	5.9
2026-01-13 06:50:24.364612	170.7	20.8	-73.1	4.9
2026-01-13 06:50:25.488131	170.9	20.6	-73.3	5.4
2026-01-13 06:50:26.609474	171.0	20.5	-73.3	5.9
2026-01-13 06:50:27.735281	171.1	20.4	-73.2	6.5
2026-01-13 06:50:28.857905	171.2	20.2	-73.4	4.2
2026-01-13 06:50:29.983704	171.3	20.1	-72.8	5.2
2026-01-13 06:50:31.107740	171.4	19.9	-73.1	5.0
2026-01-13 06:50:32.229071	171.5	19.8	-73.1	5.9
2026-01-13 06:50:33.352360	171.6	19.7	-73.6	5.7
2026-01-13 06:50:34.473611	171.7	19.5	-73.1	5.6
2026-01-13 06:50:35.595329	171.8	19.4	-73.6	5.1
2026-01-13 06:50:36.717334	171.9	19.3	-73.4	3.6
2026-01-13 06:50:37.841142	172.0	19.1	-73.3	5.2
2026-01-13 06:50:38.963929	172.1	19.0	-73.5	6.0
2026-01-13 06:50:40.087630	172.2	18.9	-73.9	5.1
2026-01-13 06:50:41.209464	172.3	18.7	-73.8	5.0
2026-01-13 06:50:42.330596	172.4	18.6	-73.5	3.1
2026-01-13 06:50:43.454608	172.5	18.5	-73.5	3.8
2026-01-13 06:50:44.577414	172.5	18.3	-73.8	4.7
2026-01-13 06:50:45.702941	172.6	18.2	-74.1	5.0
2026-01-13 06:50:46.827329	172.7	18.1	-74.0	5.6
2026-01-13 06:50:47.950523	172.8	17.9	-73.9	4.7
2026-01-13 06:50:49.072912	172.9	17.8	-74.2	5.8
2026-01-13 06:50:50.195090	173.0	17.7	-74.0	5.6
2026-01-13 06:50:51.316479	173.1	17.6	-74.9	5.2
2026-01-13 06:50:52.441528	173.2	17.4	-74.3	4.8
2026-01-13 06:50:53.564030	173.3	17.3	-74.5	5.4
2026-01-13 06:50:54.687315	173.4	17.2	-75.0	5.6
2026-01-13 06:50:55.809797	173.4	17.1	-75.3	5.7
2026-01-13 06:50:56.932254	173.5	16.9	-74.5	3.7
2026-01-13 06:50:58.054170	173.6	16.8	-74.7	3.8
2026-01-13 06:50:59.177517	173.7	16.7	-75.0	5.0
2026-01-13 06:51:00.301843	173.8	16.6	-74.0	3.5
2026-01-13 06:51:01.422484	173.9	16.4	-74.1	4.0
2026-01-13 06:51:02.544671	173.9	16.3	-75.2	5.4
2026-01-13 06:51:03.669649	174.0	16.2	-74.7	5.9
2026-01-13 06:51:04.794350	174.1	16.1	-75.1	5.9
2026-01-13 06:51:05.915070	174.2	16.0	-75.0	5.8
2026-01-13 06:51:07.036710	174.3	15.8	-75.5	5.7
2026-01-13 06:51:08.159212	174.3	15.7	-75.4	5.2
2026-01-13 06:51:09.281987	174.4	15.6	-75.2	5.8
2026-01-13 06:51:10.405582	174.5	15.5	-75.1	4.5
2026-01-13 06:51:11.527040	174.6	15.4	-75.5	4.5
2026-01-13 06:51:12.649007	174.6	15.3	-75.5	5.1
2026-01-13 06:51:13.770758	174.7	15.1	-75.4	5.0
2026-01-13 06:51:14.892176	174.8	15.0	-75.4	5.6
2026-01-13 06:51:16.015138	174.9	14.9	-75.3	5.7
2026-01-13 06:51:17.137590	174.9	14.8	-75.6	5.5
2026-01-13 06:51:18.259873	175.0	14.7	-75.5	6.1
2026-01-13 06:51:19.381148	175.1	14.6	-75.6	6.0
2026-01-13 06:51:20.503532	175.2	14.5	-75.3	5.0
2026-01-13 06:51:21.625493	175.2	14.3	-75.3	4.6
2026-01-13 06:51:22.748435	175.3	14.2	-75.3	5.3
2026-01-13 06:51:23.871485	175.4	14.1	-75.0	5.6
2026-01-13 06:51:24.993647	175.5	14.0	-75.3	5.1
2026-01-13 06:51:26.116202	175.5	13.9	-75.1	4.4
2026-01-13 06:51:27.239279	175.6	13.8	-74.8	4.6
2026-01-13 06:51:28.361503	175.7	13.7	-75.0	2.9
2026-01-13 06:51:29.486009	175.7	13.6	-74.9	4.0
2026-01-13 06:51:30.609687	175.8	13.5	-75.3	4.5
2026-01-13 06:51:31.731881	175.9	13.3	-75.1	4.4
2026-01-13 06:51:32.853995	175.9	13.2	-75.0	4.4
2026-01-13 06:51:33.975927	176.0	13.1	-74.7	4.8
2026-01-13 06:51:35.098179	176.1	13.0	-74.6	3.6
2026-01-13 06:51:36.220557	176.1	12.9	-74.8	3.5
2026-01-13 06:51:37.343699	176.2	12.8	-74.3	3.5
2026-01-13 06:51:38.467048	176.3	12.7	-74.4	3.6
2026-01-13 06:51:39.588797	176.3	12.6	-74.2	2.9
2026-01-13 06:51:40.712448	176.4	12.5	-74.8	0.6
2026-01-13 06:51:41.835493	176.5	12.4	-74.2	0.0
2026-01-13 06:51:42.958343	176.5	12.3	-74.3	0.1
2026-01-13 06:51:44.077583	176.6	12.2	-74.2	0.0
2026-01-13 06:51:45.199251	176.6	12.1	-73.7	2.0
2026-01-13 06:51:46.320620	176.7	12.0	-74.0	0.0
2026-01-13 06:51:47.443345	176.8	11.9	-73.7	0.0
2026-01-13 06:51:48.565668	176.8	11.8	-74.2	0.0
2026-01-13 06:51:49.689305	176.9	11.7	-73.9	0.0
2026-01-13 06:51:50.812824	176.9	11.6	-74.0	0.0
2026-01-13 06:51:51.935490	177.0	11.5	-73.5	0.0
2026-01-13 06:51:53.058709	177.1	11.4	-73.8	0.0
2026-01-13 06:51:54.180919	177.1	11.3	-72.8	0.0
2026-01-13 06:51:55.303564	177.2	11.2	-73.7	0.0
2026-01-13 06:51:56.425962	177.2	11.1	-73.6	0.0
2026-01-13 06:51:57.548711	177.3	11.0	-74.2	1.5
2026-01-13 06:51:58.672031	177.4	10.9	-75.0	1.7
2026-01-13 06:51:59.793696	177.4	10.8	-74.1	0.0
2026-01-13 06:52:00.918203	177.5	10.7	-72.8	0.0
2026-01-13 06:52:02.040615	177.5	10.6	-74.2	0.0
2026-01-13 06:52:03.162503	177.6	10.5	-74.1	0.0
2026-01-13 06:52:04.284270	177.6	10.4	-76.2	0.0
2026-01-13 06:52:05.407740	177.7	10.3	-78.0	0.0
2026-01-13 06:52:06.528936	177.7	10.2	-80.4	0.0
2026-01-13 06:52:07.651545	177.8	10.1	-81.1	0.0
2026-01-13 06:52:08.772246	177.9	10.0	-80.1	0.0
#Closed at: 2026-01-13 06:41:33.968348