passes_logs/2026/01/13/planumMaritime01/planumMaritime01__20260113_082157_METOP-B_rec.log

#Pass ID: 20260113_082157_METOP-B
#Satellite: METOP-B
#Configuration: METOP-B
#Start time: 2026-01-13 08:22:02.619138

#LorettStation: 1.0.0 05.05.2024
#Station: planumMaritime01
#Location: 37.49445 lon 55.92918 lat
#TLE: 1 38771U 12049A   26012.90633838  .00000094  00000+0  63105-4 0  9994
#TLE: 2 38771  98.6755  67.3301 0003319  81.0772 279.0781 14.21421823691209

#Time	Az	El	Level	SNR
2026-01-13 08:22:04.786297	5.1	10.2	-65.7	0.0
2026-01-13 08:22:05.913236	5.0	10.3	-65.5	0.0
2026-01-13 08:22:07.040205	4.9	10.3	-65.1	0.0
2026-01-13 08:22:08.168252	4.8	10.4	-65.1	0.0
2026-01-13 08:22:09.296823	4.7	10.5	-64.6	0.0
2026-01-13 08:22:10.425223	4.6	10.6	-65.8	0.0
2026-01-13 08:22:11.552922	4.5	10.7	-66.1	0.0
2026-01-13 08:22:12.681197	4.5	10.8	-65.4	0.0
2026-01-13 08:22:13.805840	4.4	10.9	-65.8	0.0
2026-01-13 08:22:14.931010	4.3	11.0	-67.5	0.0
2026-01-13 08:22:16.062681	4.2	11.1	-66.2	0.0
2026-01-13 08:22:17.187680	4.1	11.2	-65.1	0.0
2026-01-13 08:22:18.317211	4.0	11.3	-65.2	0.0
2026-01-13 08:22:19.443497	3.9	11.4	-62.1	0.0
2026-01-13 08:22:20.570775	3.8	11.4	-65.0	0.0
2026-01-13 08:22:21.700029	3.7	11.5	-63.8	0.0
2026-01-13 08:22:22.826696	3.6	11.6	-64.7	0.0
2026-01-13 08:22:23.950856	3.5	11.7	-62.5	0.0
2026-01-13 08:22:25.077617	3.4	11.8	-63.8	0.0
2026-01-13 08:22:26.204581	3.3	11.9	-64.6	0.0
2026-01-13 08:22:27.331214	3.2	12.0	-65.6	0.0
2026-01-13 08:22:28.457727	3.1	12.1	-65.1	0.0
2026-01-13 08:22:29.585528	3.0	12.2	-64.4	0.0
2026-01-13 08:22:30.712422	2.9	12.3	-62.4	0.0
2026-01-13 08:22:31.837039	2.8	12.4	-65.2	0.0
2026-01-13 08:22:32.963848	2.7	12.5	-63.4	0.0
2026-01-13 08:22:34.089810	2.6	12.6	-63.4	0.0
2026-01-13 08:22:35.217970	2.5	12.7	-64.7	0.0
2026-01-13 08:22:36.344864	2.4	12.8	-63.7	0.0
2026-01-13 08:22:37.471428	2.3	12.9	-65.9	0.0
2026-01-13 08:22:38.598136	2.2	13.0	-65.9	0.0
2026-01-13 08:22:39.725297	2.1	13.1	-61.2	0.0
2026-01-13 08:22:40.850881	2.0	13.2	-66.8	0.0
2026-01-13 08:22:41.978649	1.9	13.3	-67.7	0.0
2026-01-13 08:22:43.106869	1.8	13.4	-64.9	0.0
2026-01-13 08:22:44.231634	1.6	13.5	-65.2	0.0
2026-01-13 08:22:45.358435	1.5	13.6	-67.4	0.0
2026-01-13 08:22:46.484155	1.4	13.7	-67.3	0.0
2026-01-13 08:22:47.609284	1.3	13.8	-66.6	0.0
2026-01-13 08:22:48.735786	1.2	13.9	-64.9	0.0
2026-01-13 08:22:49.861326	1.1	14.0	-65.7	0.0
2026-01-13 08:22:50.986892	1.0	14.1	-66.9	0.0
2026-01-13 08:22:52.114918	0.9	14.2	-64.6	0.0
2026-01-13 08:22:53.241779	0.7	14.3	-61.8	0.0
2026-01-13 08:22:54.369510	0.6	14.4	-66.1	0.0
2026-01-13 08:22:55.495312	0.5	14.5	-63.9	0.0
2026-01-13 08:22:56.621478	0.4	14.6	-66.6	0.0
2026-01-13 08:22:57.749352	0.3	14.7	-66.7	0.0
2026-01-13 08:22:58.876649	0.1	14.8	-65.5	0.0
2026-01-13 08:23:00.005047	0.0	14.9	-65.9	0.0
2026-01-13 08:23:01.132805	359.9	15.0	-65.4	0.0
2026-01-13 08:23:02.261626	359.8	15.1	-64.3	0.0
2026-01-13 08:23:03.388178	359.7	15.2	-65.9	0.0
2026-01-13 08:23:04.514644	359.5	15.3	-66.4	0.0
2026-01-13 08:23:05.641284	359.4	15.4	-65.9	0.0
2026-01-13 08:23:06.765720	359.3	15.5	-64.1	0.0
2026-01-13 08:23:07.893072	359.2	15.6	-67.2	0.0
2026-01-13 08:23:09.020474	359.0	15.7	-65.1	0.0
2026-01-13 08:23:10.147344	358.9	15.8	-65.5	0.0
2026-01-13 08:23:11.273204	358.8	15.9	-65.3	0.0
2026-01-13 08:23:12.401013	358.6	16.0	-64.8	0.0
2026-01-13 08:23:13.529206	358.5	16.1	-65.6	0.0
2026-01-13 08:23:14.655625	358.4	16.2	-65.8	0.0
2026-01-13 08:23:15.782076	358.2	16.3	-66.2	0.0
2026-01-13 08:23:16.907787	358.1	16.4	-64.6	0.0
2026-01-13 08:23:18.034688	358.0	16.6	-65.0	0.0
2026-01-13 08:23:19.161209	357.8	16.7	-65.5	0.0
2026-01-13 08:23:20.287973	357.7	16.8	-62.6	0.0
2026-01-13 08:23:21.416044	357.5	16.9	-65.0	0.0
2026-01-13 08:23:22.542776	357.4	17.0	-64.8	0.0
2026-01-13 08:23:23.669486	357.3	17.1	-63.2	0.0
2026-01-13 08:23:24.796845	357.1	17.2	-63.0	0.0
2026-01-13 08:23:25.923487	357.0	17.3	-64.3	0.0
2026-01-13 08:23:27.050534	356.8	17.4	-65.2	0.0
2026-01-13 08:23:28.177794	356.7	17.5	-60.4	0.0
2026-01-13 08:23:29.304422	356.5	17.7	-63.4	0.0
2026-01-13 08:23:30.432885	356.4	17.8	-65.4	0.0
2026-01-13 08:23:31.559463	356.2	17.9	-61.8	0.0
2026-01-13 08:23:32.687324	356.1	18.0	-62.7	0.0
2026-01-13 08:23:33.815159	355.9	18.1	-63.0	0.0
2026-01-13 08:23:34.939600	355.8	18.2	-65.0	0.0
2026-01-13 08:23:36.067619	355.6	18.3	-64.4	0.0
2026-01-13 08:23:37.195591	355.5	18.4	-64.1	0.0
2026-01-13 08:23:38.320999	355.3	18.6	-63.8	0.0
2026-01-13 08:23:39.447535	355.2	18.7	-65.4	0.0
2026-01-13 08:23:40.574852	355.0	18.8	-64.1	0.0
2026-01-13 08:23:41.701109	354.9	18.9	-65.2	0.0
2026-01-13 08:23:42.829426	354.7	19.0	-64.0	0.0
2026-01-13 08:23:43.956949	354.5	19.1	-64.4	0.0
2026-01-13 08:23:45.084640	354.4	19.2	-65.1	0.0
2026-01-13 08:23:46.210933	354.2	19.4	-65.3	0.0
2026-01-13 08:23:47.338584	354.0	19.5	-65.0	0.0
2026-01-13 08:23:48.465576	353.9	19.6	-65.7	0.0
2026-01-13 08:23:49.590802	353.7	19.7	-67.1	0.0
2026-01-13 08:23:50.719648	353.5	19.8	-67.0	0.0
2026-01-13 08:23:51.845716	353.4	19.9	-67.4	0.0
2026-01-13 08:23:52.972369	353.2	20.1	-67.5	0.0
2026-01-13 08:23:54.099766	353.0	20.2	-65.7	0.0
2026-01-13 08:23:55.227550	352.8	20.3	-65.9	0.0
2026-01-13 08:23:56.354674	352.7	20.4	-66.4	0.0
2026-01-13 08:23:57.479014	352.5	20.5	-66.7	0.0
2026-01-13 08:23:58.606108	352.3	20.6	-67.9	0.0
2026-01-13 08:23:59.731868	352.1	20.8	-65.1	0.0
2026-01-13 08:24:00.859268	351.9	20.9	-66.8	0.0
2026-01-13 08:24:01.984646	351.8	21.0	-66.6	0.0
2026-01-13 08:24:03.112536	351.6	21.1	-68.8	0.0
2026-01-13 08:24:04.238773	351.4	21.2	-66.8	0.0
2026-01-13 08:24:05.364675	351.2	21.4	-64.0	0.0
2026-01-13 08:24:06.490802	351.0	21.5	-64.9	0.0
2026-01-13 08:24:07.617629	350.8	21.6	-65.1	0.0
2026-01-13 08:24:08.743033	350.6	21.7	-64.4	0.0
2026-01-13 08:24:09.868393	350.4	21.8	-64.1	0.0
2026-01-13 08:24:10.995709	350.2	22.0	-65.5	0.0
2026-01-13 08:24:12.123339	350.0	22.1	-63.9	0.0
2026-01-13 08:24:13.249614	349.8	22.2	-62.5	0.0
2026-01-13 08:24:14.376646	349.6	22.3	-65.7	0.0
2026-01-13 08:24:15.502380	349.4	22.4	-66.1	0.0
2026-01-13 08:24:16.628754	349.2	22.6	-65.3	0.0
2026-01-13 08:24:17.755228	349.0	22.7	-62.5	0.0
2026-01-13 08:24:18.885584	348.8	22.8	-66.2	0.0
2026-01-13 08:24:20.011543	348.6	22.9	-65.7	0.0
2026-01-13 08:24:21.138946	348.4	23.1	-65.8	0.0
2026-01-13 08:24:22.263754	348.2	23.2	-66.4	0.0
2026-01-13 08:24:23.390146	348.0	23.3	-67.2	0.0
2026-01-13 08:24:24.517558	347.8	23.4	-66.7	0.0
2026-01-13 08:24:25.645173	347.5	23.6	-65.8	0.0
2026-01-13 08:24:26.772660	347.3	23.7	-68.7	0.0
2026-01-13 08:24:27.900690	347.1	23.8	-66.1	0.0
2026-01-13 08:24:29.027119	346.9	23.9	-69.5	0.0
2026-01-13 08:24:30.154267	346.7	24.1	-65.5	0.0
2026-01-13 08:24:31.279181	346.4	24.2	-68.3	0.0
2026-01-13 08:24:32.405533	346.2	24.3	-67.4	0.0
2026-01-13 08:24:33.531139	346.0	24.4	-67.0	0.0
2026-01-13 08:24:34.658292	345.7	24.6	-67.5	0.0
2026-01-13 08:24:35.785756	345.5	24.7	-66.6	0.0
2026-01-13 08:24:36.914428	345.3	24.8	-68.5	0.0
2026-01-13 08:24:38.039037	345.0	24.9	-67.4	0.0
2026-01-13 08:24:39.165561	344.8	25.0	-67.7	0.0
2026-01-13 08:24:40.292913	344.6	25.2	-66.3	0.0
2026-01-13 08:24:41.419960	344.3	25.3	-63.4	0.0
2026-01-13 08:24:42.546168	344.1	25.4	-65.3	0.0
2026-01-13 08:24:43.674671	343.8	25.5	-66.0	0.0
2026-01-13 08:24:44.799985	343.6	25.7	-65.4	0.0
2026-01-13 08:24:45.926540	343.3	25.8	-66.1	0.0
2026-01-13 08:24:47.051539	343.1	25.9	-66.6	0.0
2026-01-13 08:24:48.177737	342.8	26.0	-65.9	0.0
2026-01-13 08:24:49.303965	342.6	26.2	-66.0	0.0
2026-01-13 08:24:50.429442	342.3	26.3	-66.3	0.0
2026-01-13 08:24:51.556402	342.0	26.4	-65.7	0.0
2026-01-13 08:24:52.681899	341.8	26.5	-67.0	0.0
2026-01-13 08:24:53.810578	341.5	26.7	-65.9	0.0
2026-01-13 08:24:54.937642	341.2	26.8	-66.5	0.0
2026-01-13 08:24:56.063896	341.0	26.9	-67.0	0.0
2026-01-13 08:24:57.190421	340.7	27.0	-66.9	0.0
2026-01-13 08:24:58.317805	340.4	27.2	-66.9	0.0
2026-01-13 08:24:59.444246	340.1	27.3	-66.8	0.0
2026-01-13 08:25:00.570781	339.9	27.4	-66.2	0.0
2026-01-13 08:25:01.696559	339.6	27.5	-65.7	0.0
2026-01-13 08:25:02.823478	339.3	27.7	-60.1	0.0
2026-01-13 08:25:03.949526	339.0	27.8	-64.6	0.0
2026-01-13 08:25:05.077303	338.7	27.9	-65.4	0.0
2026-01-13 08:25:06.204644	338.4	28.0	-61.4	0.0
2026-01-13 08:25:07.334093	338.1	28.2	-59.5	0.0
2026-01-13 08:25:08.461593	337.9	28.3	-66.5	0.0
2026-01-13 08:25:09.590191	337.6	28.4	-68.5	0.0
2026-01-13 08:25:10.717072	337.3	28.5	-67.3	0.0
2026-01-13 08:25:11.844791	337.0	28.6	-63.7	0.0
2026-01-13 08:25:12.972367	336.6	28.8	-66.5	0.0
2026-01-13 08:25:14.099600	336.3	28.9	-68.4	0.0
2026-01-13 08:25:15.226346	336.0	29.0	-69.3	0.0
2026-01-13 08:25:16.352499	335.7	29.1	-67.7	0.0
2026-01-13 08:25:17.478473	335.4	29.2	-69.7	0.0
2026-01-13 08:25:18.607366	335.1	29.4	-70.1	0.0
2026-01-13 08:25:19.735010	334.8	29.5	-71.1	0.0
2026-01-13 08:25:20.865452	334.5	29.6	-69.5	0.0
2026-01-13 08:25:21.992824	334.1	29.7	-70.1	0.0
2026-01-13 08:25:23.121552	333.8	29.8	-68.9	0.0
2026-01-13 08:25:24.249523	333.5	29.9	-67.1	0.0
2026-01-13 08:25:25.379351	333.2	30.1	-70.9	0.0
2026-01-13 08:25:26.505449	332.8	30.2	-71.3	2.4
2026-01-13 08:25:27.631389	332.5	30.3	-70.3	0.0
2026-01-13 08:25:28.758025	332.2	30.4	-69.6	0.0
2026-01-13 08:25:29.884644	331.8	30.5	-70.0	0.0
2026-01-13 08:25:31.010882	331.5	30.6	-70.7	3.5
2026-01-13 08:25:32.139569	331.1	30.7	-68.6	0.0
2026-01-13 08:25:33.264436	330.8	30.8	-67.9	0.0
2026-01-13 08:25:34.390434	330.4	31.0	-67.6	0.0
2026-01-13 08:25:35.517855	330.1	31.1	-67.4	0.0
2026-01-13 08:25:36.645599	329.7	31.2	-67.8	0.0
2026-01-13 08:25:37.771174	329.4	31.3	-69.2	0.0
2026-01-13 08:25:38.896950	329.0	31.4	-71.6	4.9
2026-01-13 08:25:40.023283	328.7	31.5	-69.3	1.6
2026-01-13 08:25:41.151139	328.3	31.6	-70.3	3.6
2026-01-13 08:25:42.277665	327.9	31.7	-69.2	3.3
2026-01-13 08:25:43.403191	327.6	31.8	-71.3	3.8
2026-01-13 08:25:44.528975	327.2	31.9	-69.8	2.4
2026-01-13 08:25:45.654489	326.8	32.0	-68.9	2.2
2026-01-13 08:25:46.782656	326.4	32.1	-70.6	3.5
2026-01-13 08:25:47.909106	326.1	32.2	-69.0	0.0
2026-01-13 08:25:49.034589	325.7	32.3	-68.6	0.0
2026-01-13 08:25:50.160383	325.3	32.4	-68.3	2.4
2026-01-13 08:25:51.288171	324.9	32.5	-69.8	6.3
2026-01-13 08:25:52.415025	324.5	32.6	-69.9	2.1
2026-01-13 08:25:53.540689	324.2	32.7	-70.1	3.7
2026-01-13 08:25:54.667631	323.8	32.8	-69.8	1.0
2026-01-13 08:25:55.792973	323.4	32.9	-70.7	1.8
2026-01-13 08:25:56.920997	323.0	33.0	-70.0	2.7
2026-01-13 08:25:58.046828	322.6	33.0	-71.8	4.3
2026-01-13 08:25:59.171358	322.2	33.1	-70.7	3.7
2026-01-13 08:26:00.295891	321.8	33.2	-71.3	4.6
2026-01-13 08:26:01.422641	321.4	33.3	-71.4	4.6
2026-01-13 08:26:02.547673	321.0	33.4	-71.1	4.5
2026-01-13 08:26:03.672651	320.6	33.5	-69.8	2.6
2026-01-13 08:26:04.798402	320.2	33.5	-70.2	2.2
2026-01-13 08:26:05.924882	319.7	33.6	-73.2	5.9
2026-01-13 08:26:07.051336	319.3	33.7	-73.4	6.3
2026-01-13 08:26:08.177210	318.9	33.8	-72.5	4.9
2026-01-13 08:26:09.302257	318.5	33.8	-71.6	3.9
2026-01-13 08:26:10.428751	318.1	33.9	-71.7	3.6
2026-01-13 08:26:11.554205	317.7	34.0	-73.4	3.9
2026-01-13 08:26:12.681152	317.2	34.1	-70.4	3.8
2026-01-13 08:26:13.808456	316.8	34.1	-73.5	4.2
2026-01-13 08:26:14.935172	316.4	34.2	-72.5	6.4
2026-01-13 08:26:16.062682	316.0	34.3	-72.2	5.3
2026-01-13 08:26:17.190261	315.5	34.3	-73.9	6.7
2026-01-13 08:26:18.316562	315.1	34.4	-73.2	6.0
2026-01-13 08:26:19.444448	314.7	34.4	-73.9	7.9
2026-01-13 08:26:20.569285	314.2	34.5	-73.2	7.3
2026-01-13 08:26:21.694397	313.8	34.6	-72.9	5.6
2026-01-13 08:26:22.823997	313.3	34.6	-73.1	4.4
2026-01-13 08:26:23.949384	312.9	34.7	-72.3	5.4
2026-01-13 08:26:25.076312	312.5	34.7	-73.4	8.2
2026-01-13 08:26:26.201512	312.0	34.8	-72.4	5.9
2026-01-13 08:26:27.326050	311.6	34.8	-73.2	7.0
2026-01-13 08:26:28.451843	311.1	34.8	-71.2	6.2
2026-01-13 08:26:29.577120	310.7	34.9	-70.9	6.6
2026-01-13 08:26:30.703651	310.2	34.9	-72.3	7.4
2026-01-13 08:26:31.831346	309.8	35.0	-70.5	1.5
2026-01-13 08:26:32.956088	309.3	35.0	-70.8	1.2
2026-01-13 08:26:34.080957	308.9	35.0	-68.1	0.0
2026-01-13 08:26:35.208286	308.4	35.1	-71.3	2.9
2026-01-13 08:26:36.332532	308.0	35.1	-71.5	3.6
2026-01-13 08:26:37.457247	307.5	35.1	-71.4	6.3
2026-01-13 08:26:38.584552	307.1	35.2	-73.1	6.3
2026-01-13 08:26:39.709365	306.6	35.2	-72.0	4.6
2026-01-13 08:26:40.833633	306.2	35.2	-73.3	6.8
2026-01-13 08:26:41.958703	305.7	35.2	-72.9	6.5
2026-01-13 08:26:43.085938	305.3	35.2	-72.9	7.8
2026-01-13 08:26:44.211455	304.8	35.3	-70.6	2.9
2026-01-13 08:26:45.338099	304.4	35.3	-70.0	2.2
2026-01-13 08:26:46.464263	303.9	35.3	-71.5	2.2
2026-01-13 08:26:47.590604	303.4	35.3	-72.7	5.7
2026-01-13 08:26:48.717016	303.0	35.3	-70.3	0.3
2026-01-13 08:26:49.842173	302.5	35.3	-73.4	6.6
2026-01-13 08:26:50.967536	302.1	35.3	-71.2	5.4
2026-01-13 08:26:52.093925	301.6	35.3	-70.7	2.5
2026-01-13 08:26:53.220477	301.1	35.3	-72.7	3.6
2026-01-13 08:26:54.347173	300.7	35.3	-70.8	2.6
2026-01-13 08:26:55.474694	300.2	35.3	-69.9	2.2
2026-01-13 08:26:56.602338	299.8	35.3	-67.7	0.0
2026-01-13 08:26:57.728328	299.3	35.3	-67.8	0.0
2026-01-13 08:26:58.855766	298.9	35.3	-67.5	0.0
2026-01-13 08:26:59.981862	298.4	35.3	-68.7	0.0
2026-01-13 08:27:01.109076	297.9	35.3	-70.1	1.2
2026-01-13 08:27:02.234844	297.5	35.2	-70.1	0.0
2026-01-13 08:27:03.359431	297.0	35.2	-70.2	3.1
2026-01-13 08:27:04.487839	296.6	35.2	-70.7	4.3
2026-01-13 08:27:05.614737	296.1	35.2	-72.5	4.1
2026-01-13 08:27:06.740267	295.7	35.2	-72.4	1.6
2026-01-13 08:27:07.868338	295.2	35.1	-69.3	0.0
2026-01-13 08:27:08.996189	294.8	35.1	-68.8	1.5
2026-01-13 08:27:10.123811	294.3	35.1	-71.7	5.2
2026-01-13 08:27:11.250523	293.8	35.0	-71.9	4.3
2026-01-13 08:27:12.378194	293.4	35.0	-72.1	7.1
2026-01-13 08:27:13.505590	292.9	35.0	-71.9	7.3
2026-01-13 08:27:14.630445	292.5	34.9	-71.2	5.5
2026-01-13 08:27:15.756519	292.1	34.9	-70.8	5.3
2026-01-13 08:27:16.882954	291.6	34.8	-71.7	6.7
2026-01-13 08:27:18.009204	291.2	34.8	-69.3	0.0
2026-01-13 08:27:19.134972	290.7	34.8	-71.7	6.0
2026-01-13 08:27:20.260071	290.3	34.7	-70.4	4.2
2026-01-13 08:27:21.384721	289.8	34.7	-71.0	5.4
2026-01-13 08:27:22.509928	289.4	34.6	-70.9	4.4
2026-01-13 08:27:23.636112	289.0	34.5	-71.4	7.6
2026-01-13 08:27:24.761860	288.5	34.5	-71.7	7.2
2026-01-13 08:27:25.891140	288.1	34.4	-71.8	7.1
2026-01-13 08:27:27.016623	287.6	34.4	-70.7	4.4
2026-01-13 08:27:28.142865	287.2	34.3	-71.4	6.2
2026-01-13 08:27:29.267549	286.8	34.3	-69.7	3.2
2026-01-13 08:27:30.393467	286.4	34.2	-71.8	6.2
2026-01-13 08:27:31.520205	285.9	34.1	-71.9	7.9
2026-01-13 08:27:32.646390	285.5	34.1	-72.3	7.3
2026-01-13 08:27:33.773898	285.1	34.0	-70.3	3.8
2026-01-13 08:27:34.899568	284.7	33.9	-72.2	7.5
2026-01-13 08:27:36.026190	284.2	33.8	-71.7	7.3
2026-01-13 08:27:37.151677	283.8	33.8	-72.6	8.7
2026-01-13 08:27:38.278585	283.4	33.7	-72.8	8.4
2026-01-13 08:27:39.405420	283.0	33.6	-73.2	8.1
2026-01-13 08:27:40.533425	282.6	33.5	-71.8	5.0
2026-01-13 08:27:41.659648	282.2	33.5	-72.0	5.2
2026-01-13 08:27:42.783459	281.8	33.4	-71.5	4.3
2026-01-13 08:27:43.911541	281.4	33.3	-72.2	6.1
2026-01-13 08:27:45.035734	281.0	33.2	-73.1	8.4
2026-01-13 08:27:46.161273	280.5	33.1	-73.1	8.4
2026-01-13 08:27:47.287495	280.1	33.0	-72.4	7.0
2026-01-13 08:27:48.412995	279.8	32.9	-70.8	0.7
2026-01-13 08:27:49.539371	279.4	32.9	-72.5	5.6
2026-01-13 08:27:50.665866	279.0	32.8	-71.9	5.8
2026-01-13 08:27:51.794476	278.6	32.7	-72.2	6.3
2026-01-13 08:27:52.919330	278.2	32.6	-72.6	5.9
2026-01-13 08:27:54.044270	277.8	32.5	-72.8	8.6
2026-01-13 08:27:55.169925	277.4	32.4	-72.4	6.8
2026-01-13 08:27:56.293585	277.0	32.3	-71.2	5.0
2026-01-13 08:27:57.417598	276.7	32.2	-72.1	5.4
2026-01-13 08:27:58.543172	276.3	32.1	-72.1	3.9
2026-01-13 08:27:59.668139	275.9	32.0	-72.0	6.5
2026-01-13 08:28:00.792641	275.5	31.9	-72.8	7.7
2026-01-13 08:28:01.919784	275.2	31.8	-72.4	6.8
2026-01-13 08:28:03.046473	274.8	31.7	-72.8	7.9
2026-01-13 08:28:04.172618	274.4	31.6	-73.1	7.3
2026-01-13 08:28:05.298227	274.1	31.5	-73.7	8.2
2026-01-13 08:28:06.423352	273.7	31.4	-73.5	6.8
2026-01-13 08:28:07.550030	273.3	31.3	-73.8	6.2
2026-01-13 08:28:08.675277	273.0	31.2	-73.8	6.6
2026-01-13 08:28:09.800970	272.6	31.0	-74.0	7.0
2026-01-13 08:28:10.927313	272.3	30.9	-74.0	8.5
2026-01-13 08:28:12.053568	271.9	30.8	-73.9	8.1
2026-01-13 08:28:13.180600	271.6	30.7	-72.2	4.3
2026-01-13 08:28:14.307657	271.2	30.6	-74.1	7.4
2026-01-13 08:28:15.433558	270.9	30.5	-73.5	5.1
2026-01-13 08:28:16.558439	270.6	30.4	-74.0	7.2
2026-01-13 08:28:17.685073	270.2	30.3	-73.8	7.1
2026-01-13 08:28:18.811108	269.9	30.2	-74.4	6.6
2026-01-13 08:28:19.936368	269.6	30.0	-73.1	5.5
2026-01-13 08:28:21.061692	269.2	29.9	-73.6	8.4
2026-01-13 08:28:22.188684	268.9	29.8	-72.7	5.9
2026-01-13 08:28:23.314981	268.6	29.7	-73.8	8.3
2026-01-13 08:28:24.441358	268.2	29.6	-73.3	6.4
2026-01-13 08:28:25.566507	267.9	29.5	-73.2	7.5
2026-01-13 08:28:26.691068	267.6	29.3	-74.0	8.0
2026-01-13 08:28:27.815541	267.3	29.2	-73.5	7.5
2026-01-13 08:28:28.941432	267.0	29.1	-73.6	8.5
2026-01-13 08:28:30.066585	266.7	29.0	-73.4	8.5
2026-01-13 08:28:31.195591	266.4	28.9	-73.6	7.4
2026-01-13 08:28:32.320055	266.1	28.7	-73.6	7.5
2026-01-13 08:28:33.447027	265.8	28.6	-73.8	8.5
2026-01-13 08:28:34.572810	265.5	28.5	-73.6	8.1
2026-01-13 08:28:35.701742	265.2	28.4	-74.0	7.3
2026-01-13 08:28:36.829155	264.9	28.3	-74.4	8.9
2026-01-13 08:28:37.955192	264.6	28.1	-73.5	7.1
2026-01-13 08:28:39.079821	264.3	28.0	-74.2	7.3
2026-01-13 08:28:40.206648	264.0	27.9	-74.0	7.3
2026-01-13 08:28:41.332050	263.7	27.8	-74.1	7.6
2026-01-13 08:28:42.457807	263.4	27.6	-74.1	8.7
2026-01-13 08:28:43.584124	263.1	27.5	-74.1	7.9
2026-01-13 08:28:44.712799	262.8	27.4	-74.1	8.0
2026-01-13 08:28:45.838378	262.6	27.3	-73.7	6.7
2026-01-13 08:28:46.962141	262.3	27.1	-73.7	7.7
2026-01-13 08:28:48.088568	262.0	27.0	-73.6	7.3
2026-01-13 08:28:49.217683	261.7	26.9	-73.6	7.8
2026-01-13 08:28:50.343460	261.5	26.8	-73.7	7.7
2026-01-13 08:28:51.471345	261.2	26.6	-73.2	6.4
2026-01-13 08:28:52.597385	260.9	26.5	-73.4	7.8
2026-01-13 08:28:53.722902	260.7	26.4	-73.5	6.2
2026-01-13 08:28:54.848236	260.4	26.3	-74.2	7.9
2026-01-13 08:28:55.977352	260.1	26.1	-73.8	8.0
2026-01-13 08:28:57.105806	259.9	26.0	-73.5	6.7
2026-01-13 08:28:58.230979	259.6	25.9	-73.8	7.9
2026-01-13 08:28:59.358430	259.4	25.8	-74.1	7.9
2026-01-13 08:29:00.484687	259.1	25.6	-73.5	4.7
2026-01-13 08:29:01.613620	258.9	25.5	-74.2	7.8
2026-01-13 08:29:02.739455	258.6	25.4	-74.2	7.3
2026-01-13 08:29:03.864840	258.4	25.3	-74.1	7.0
2026-01-13 08:29:04.991221	258.1	25.1	-74.0	5.9
2026-01-13 08:29:06.119007	257.9	25.0	-74.7	7.4
2026-01-13 08:29:07.248650	257.6	24.9	-74.4	7.6
2026-01-13 08:29:08.375297	257.4	24.8	-74.0	7.2
2026-01-13 08:29:09.502303	257.2	24.6	-74.4	7.4
2026-01-13 08:29:10.627642	256.9	24.5	-74.1	6.9
2026-01-13 08:29:11.752577	256.7	24.4	-73.7	4.3
2026-01-13 08:29:12.879152	256.5	24.3	-74.6	7.5
2026-01-13 08:29:14.006510	256.2	24.1	-74.3	7.5
2026-01-13 08:29:15.132977	256.0	24.0	-74.3	6.4
2026-01-13 08:29:16.258270	255.8	23.9	-74.4	7.2
2026-01-13 08:29:17.385094	255.6	23.8	-74.8	7.2
2026-01-13 08:29:18.511165	255.3	23.6	-74.4	7.3
2026-01-13 08:29:19.640403	255.1	23.5	-74.0	7.2
2026-01-13 08:29:20.765860	254.9	23.4	-74.5	8.1
2026-01-13 08:29:21.890299	254.7	23.3	-74.3	7.8
2026-01-13 08:29:23.016486	254.5	23.1	-74.3	7.6
2026-01-13 08:29:24.142476	254.3	23.0	-74.4	7.1
2026-01-13 08:29:25.267547	254.1	22.9	-74.4	8.0
2026-01-13 08:29:26.393394	253.8	22.8	-74.6	8.0
2026-01-13 08:29:27.520262	253.6	22.6	-74.5	7.1
2026-01-13 08:29:28.644824	253.4	22.5	-74.8	7.5
2026-01-13 08:29:29.770121	253.2	22.4	-74.7	7.5
2026-01-13 08:29:30.896321	253.0	22.3	-74.4	7.2
2026-01-13 08:29:32.023941	252.8	22.2	-74.5	7.6
2026-01-13 08:29:33.150124	252.6	22.0	-74.8	8.4
2026-01-13 08:29:34.274747	252.4	21.9	-74.9	7.6
2026-01-13 08:29:35.399889	252.2	21.8	-74.9	7.8
2026-01-13 08:29:36.527813	252.0	21.7	-75.0	8.0
2026-01-13 08:29:37.656404	251.8	21.5	-74.8	7.9
2026-01-13 08:29:38.781282	251.6	21.4	-74.6	7.7
2026-01-13 08:29:39.906654	251.5	21.3	-75.1	7.0
2026-01-13 08:29:41.032998	251.3	21.2	-75.1	7.5
2026-01-13 08:29:42.159969	251.1	21.1	-74.5	4.8
2026-01-13 08:29:43.286769	250.9	20.9	-75.0	7.6
2026-01-13 08:29:44.410210	250.7	20.8	-75.1	7.9
2026-01-13 08:29:45.539439	250.5	20.7	-74.6	7.2
2026-01-13 08:29:46.666555	250.3	20.6	-74.9	6.6
2026-01-13 08:29:47.793439	250.2	20.5	-74.7	6.1
2026-01-13 08:29:48.920861	250.0	20.4	-75.2	7.1
2026-01-13 08:29:50.045609	249.8	20.2	-74.6	6.2
2026-01-13 08:29:51.173213	249.6	20.1	-74.4	5.3
2026-01-13 08:29:52.299022	249.5	20.0	-74.8	7.9
2026-01-13 08:29:53.426028	249.3	19.9	-75.0	7.0
2026-01-13 08:29:54.553540	249.1	19.8	-74.8	5.1
2026-01-13 08:29:55.677507	248.9	19.6	-74.6	6.3
2026-01-13 08:29:56.805137	248.8	19.5	-74.8	5.5
2026-01-13 08:29:57.930586	248.6	19.4	-74.9	6.3
2026-01-13 08:29:59.056249	248.4	19.3	-74.9	6.4
2026-01-13 08:30:00.182485	248.3	19.2	-74.3	4.8
2026-01-13 08:30:01.309609	248.1	19.1	-74.3	4.9
2026-01-13 08:30:02.435148	247.9	18.9	-74.9	5.8
2026-01-13 08:30:03.561414	247.8	18.8	-74.9	6.3
2026-01-13 08:30:04.691298	247.6	18.7	-75.2	7.3
2026-01-13 08:30:05.816209	247.5	18.6	-75.5	7.9
2026-01-13 08:30:06.941255	247.3	18.5	-75.1	5.7
2026-01-13 08:30:08.067536	247.1	18.4	-75.5	7.1
2026-01-13 08:30:09.195002	247.0	18.3	-75.4	6.3
2026-01-13 08:30:10.321829	246.8	18.1	-75.1	6.2
2026-01-13 08:30:11.447429	246.7	18.0	-75.5	6.0
2026-01-13 08:30:12.574304	246.5	17.9	-74.5	6.4
2026-01-13 08:30:13.700546	246.4	17.8	-74.6	4.7
2026-01-13 08:30:14.826100	246.2	17.7	-75.3	6.8
2026-01-13 08:30:15.950315	246.1	17.6	-75.3	6.0
2026-01-13 08:30:17.075727	245.9	17.5	-75.0	6.9
2026-01-13 08:30:18.203140	245.8	17.4	-74.7	5.3
2026-01-13 08:30:19.328750	245.6	17.3	-75.0	6.0
2026-01-13 08:30:20.455331	245.5	17.1	-74.8	5.5
2026-01-13 08:30:21.583167	245.4	17.0	-75.3	5.0
2026-01-13 08:30:22.709542	245.2	16.9	-75.3	5.4
2026-01-13 08:30:23.837336	245.1	16.8	-75.0	4.7
2026-01-13 08:30:24.963415	244.9	16.7	-75.3	5.7
2026-01-13 08:30:26.086846	244.8	16.6	-75.1	5.7
2026-01-13 08:30:27.213347	244.7	16.5	-75.3	5.3
2026-01-13 08:30:28.340815	244.5	16.4	-75.5	5.7
2026-01-13 08:30:29.467909	244.4	16.3	-75.5	5.6
2026-01-13 08:30:30.593515	244.2	16.2	-75.2	3.6
2026-01-13 08:30:31.718956	244.1	16.1	-75.3	4.9
2026-01-13 08:30:32.847154	244.0	16.0	-75.4	4.8
2026-01-13 08:30:33.973716	243.8	15.8	-75.5	4.2
2026-01-13 08:30:35.097078	243.7	15.7	-75.6	5.0
2026-01-13 08:30:36.223529	243.6	15.6	-75.6	4.5
2026-01-13 08:30:37.349684	243.5	15.5	-75.2	4.4
2026-01-13 08:30:38.475265	243.3	15.4	-75.4	3.4
2026-01-13 08:30:39.602655	243.2	15.3	-75.2	3.9
2026-01-13 08:30:40.727808	243.1	15.2	-75.3	4.1
2026-01-13 08:30:41.854230	242.9	15.1	-75.2	4.3
2026-01-13 08:30:42.979505	242.8	15.0	-75.0	4.2
2026-01-13 08:30:44.107013	242.7	14.9	-75.5	4.2
2026-01-13 08:30:45.233959	242.6	14.8	-75.4	5.0
2026-01-13 08:30:46.360801	242.4	14.7	-75.1	3.1
2026-01-13 08:30:47.488558	242.3	14.6	-75.0	4.4
2026-01-13 08:30:48.613829	242.2	14.5	-74.9	4.4
2026-01-13 08:30:49.741414	242.1	14.4	-75.0	2.0
2026-01-13 08:30:50.866601	242.0	14.3	-74.5	1.2
2026-01-13 08:30:51.992067	241.9	14.2	-75.0	3.0
2026-01-13 08:30:53.118077	241.7	14.1	-74.8	2.9
2026-01-13 08:30:54.243798	241.6	14.0	-75.2	3.8
2026-01-13 08:30:55.370317	241.5	13.9	-74.8	3.0
2026-01-13 08:30:56.495291	241.4	13.8	-74.5	4.1
2026-01-13 08:30:57.620545	241.3	13.7	-74.5	3.1
2026-01-13 08:30:58.747388	241.2	13.6	-75.2	2.4
2026-01-13 08:30:59.874102	241.0	13.5	-74.9	2.6
2026-01-13 08:31:00.999266	240.9	13.4	-74.8	1.7
2026-01-13 08:31:02.125065	240.8	13.3	-75.0	2.8
2026-01-13 08:31:03.250989	240.7	13.2	-75.0	3.0
2026-01-13 08:31:04.376308	240.6	13.1	-74.7	3.6
2026-01-13 08:31:05.501001	240.5	13.0	-74.5	1.2
2026-01-13 08:31:06.627071	240.4	12.9	-74.7	3.5
2026-01-13 08:31:07.753453	240.3	12.8	-75.0	3.7
2026-01-13 08:31:08.878603	240.2	12.7	-75.0	2.3
2026-01-13 08:31:10.004269	240.1	12.6	-74.6	4.1
2026-01-13 08:31:11.131772	240.0	12.5	-74.9	2.8
2026-01-13 08:31:12.257703	239.9	12.4	-74.9	2.5
2026-01-13 08:31:13.383433	239.8	12.3	-74.8	3.4
2026-01-13 08:31:14.510465	239.7	12.2	-74.5	3.2
2026-01-13 08:31:15.635608	239.6	12.1	-74.7	1.7
2026-01-13 08:31:16.762396	239.5	12.0	-74.8	2.9
2026-01-13 08:31:17.890134	239.4	11.9	-74.9	2.5
2026-01-13 08:31:19.017871	239.3	11.8	-74.5	2.6
2026-01-13 08:31:20.145114	239.2	11.7	-74.1	0.0
2026-01-13 08:31:21.271560	239.1	11.6	-74.5	1.5
2026-01-13 08:31:22.396372	239.0	11.6	-74.6	2.4
2026-01-13 08:31:23.522356	238.9	11.5	-74.5	2.0
2026-01-13 08:31:24.647322	238.8	11.4	-74.9	1.3
2026-01-13 08:31:25.774743	238.7	11.3	-75.0	4.1
2026-01-13 08:31:26.901368	238.6	11.2	-74.5	1.2
2026-01-13 08:31:28.026624	238.5	11.1	-74.5	2.0
2026-01-13 08:31:29.154604	238.4	11.0	-74.7	3.3
2026-01-13 08:31:30.281497	238.3	10.9	-74.7	3.3
2026-01-13 08:31:31.407638	238.2	10.8	-75.3	3.7
2026-01-13 08:31:32.534730	238.1	10.7	-76.2	2.8
2026-01-13 08:31:33.664934	238.0	10.6	-77.2	0.4
2026-01-13 08:31:34.793679	237.9	10.5	-77.4	0.0
2026-01-13 08:31:35.920830	237.8	10.4	-78.2	0.0
2026-01-13 08:31:37.047675	237.7	10.4	-79.0	0.0
2026-01-13 08:31:38.173526	237.6	10.3	-78.9	0.0
2026-01-13 08:31:39.299721	237.6	10.2	-78.7	0.0
2026-01-13 08:31:40.426429	237.5	10.1	-78.5	0.0
#Closed at: 2026-01-13 08:21:57.621713