passes_logs/2026/01/05/planumMaritime01/planumMaritime01__20260105_082606_METOP-C_rec.log

#Pass ID: 20260105_082606_METOP-C
#Satellite: METOP-C
#Configuration: METOP-C
#Start time: 2026-01-05 08:26:11.137164

#LorettStation: 1.0.0 05.05.2024
#Station: planumMaritime01
#Location: 37.49445 lon 55.92918 lat
#TLE: 1 43689U 18087A   26004.62757632  .00000231  00000+0  12556-3 0  9991
#TLE: 2 43689  98.6895  67.0425 0000107 306.6752  53.4416 14.21494733371594

#Time	Az	El	Level	SNR
2026-01-05 08:26:13.312325	9.9	10.2	-69.8	0.0
2026-01-05 08:26:14.440779	9.8	10.3	-66.7	0.0
2026-01-05 08:26:15.567093	9.7	10.4	-66.3	0.0
2026-01-05 08:26:16.692127	9.7	10.5	-67.9	0.0
2026-01-05 08:26:17.818013	9.6	10.6	-67.3	0.0
2026-01-05 08:26:18.944022	9.6	10.7	-63.9	0.0
2026-01-05 08:26:20.068981	9.5	10.8	-66.3	0.0
2026-01-05 08:26:21.197228	9.5	10.9	-64.9	0.0
2026-01-05 08:26:22.324439	9.4	11.0	-63.2	0.0
2026-01-05 08:26:23.450541	9.4	11.1	-65.7	0.0
2026-01-05 08:26:24.575816	9.3	11.2	-65.6	0.0
2026-01-05 08:26:25.702668	9.3	11.3	-65.3	0.0
2026-01-05 08:26:26.829368	9.2	11.4	-64.4	0.0
2026-01-05 08:26:27.957491	9.2	11.5	-64.8	0.0
2026-01-05 08:26:29.082096	9.1	11.6	-61.5	0.0
2026-01-05 08:26:30.208118	9.1	11.7	-63.1	0.0
2026-01-05 08:26:31.336106	9.0	11.8	-62.5	0.0
2026-01-05 08:26:32.462275	8.9	11.9	-63.6	0.0
2026-01-05 08:26:33.589780	8.9	12.0	-63.9	0.0
2026-01-05 08:26:34.716634	8.8	12.1	-64.6	0.0
2026-01-05 08:26:35.843670	8.8	12.2	-65.9	0.0
2026-01-05 08:26:36.969969	8.7	12.3	-65.2	0.0
2026-01-05 08:26:38.095522	8.7	12.4	-64.9	0.0
2026-01-05 08:26:39.221589	8.6	12.5	-65.4	0.0
2026-01-05 08:26:40.348829	8.5	12.6	-67.5	0.0
2026-01-05 08:26:41.474994	8.5	12.7	-66.5	0.0
2026-01-05 08:26:42.600344	8.4	12.8	-66.7	0.0
2026-01-05 08:26:43.727201	8.4	12.9	-67.0	0.0
2026-01-05 08:26:44.852694	8.3	13.0	-65.9	0.0
2026-01-05 08:26:45.977856	8.2	13.1	-67.0	0.0
2026-01-05 08:26:47.105867	8.2	13.2	-64.5	0.0
2026-01-05 08:26:48.231370	8.1	13.3	-65.3	0.0
2026-01-05 08:26:49.359314	8.0	13.4	-65.5	0.0
2026-01-05 08:26:50.483297	8.0	13.5	-65.9	0.0
2026-01-05 08:26:51.609469	7.9	13.6	-62.3	0.0
2026-01-05 08:26:52.735507	7.9	13.8	-64.3	0.0
2026-01-05 08:26:53.862039	7.8	13.9	-65.9	0.0
2026-01-05 08:26:54.989063	7.7	14.0	-64.9	0.0
2026-01-05 08:26:56.114973	7.7	14.1	-65.5	0.0
2026-01-05 08:26:57.242409	7.6	14.2	-64.5	0.0
2026-01-05 08:26:58.368313	7.5	14.3	-64.2	0.0
2026-01-05 08:26:59.494563	7.5	14.4	-63.4	0.0
2026-01-05 08:27:00.620492	7.4	14.5	-63.7	0.0
2026-01-05 08:27:01.746821	7.3	14.6	-61.4	0.0
2026-01-05 08:27:02.873867	7.2	14.8	-61.7	0.0
2026-01-05 08:27:04.000052	7.2	14.9	-65.6	0.0
2026-01-05 08:27:05.126712	7.1	15.0	-62.5	0.0
2026-01-05 08:27:06.252317	7.0	15.1	-63.7	0.0
2026-01-05 08:27:07.383502	7.0	15.2	-65.8	0.0
2026-01-05 08:27:08.510085	6.9	15.3	-65.8	0.0
2026-01-05 08:27:09.636495	6.8	15.5	-64.9	0.0
2026-01-05 08:27:10.762617	6.7	15.6	-64.8	0.0
2026-01-05 08:27:11.889028	6.7	15.7	-64.7	0.0
2026-01-05 08:27:13.017017	6.6	15.8	-65.0	0.0
2026-01-05 08:27:14.143868	6.5	15.9	-65.2	0.0
2026-01-05 08:27:15.271045	6.4	16.0	-63.5	0.0
2026-01-05 08:27:16.397869	6.4	16.2	-67.8	0.0
2026-01-05 08:27:17.526290	6.3	16.3	-65.4	0.0
2026-01-05 08:27:18.651142	6.2	16.4	-66.4	0.0
2026-01-05 08:27:19.777848	6.1	16.5	-66.6	0.0
2026-01-05 08:27:20.903252	6.0	16.6	-65.9	0.0
2026-01-05 08:27:22.029788	6.0	16.8	-67.5	0.0
2026-01-05 08:27:23.157001	5.9	16.9	-63.5	0.0
2026-01-05 08:27:24.281395	5.8	17.0	-66.6	0.0
2026-01-05 08:27:25.408730	5.7	17.1	-64.9	0.0
2026-01-05 08:27:26.535470	5.6	17.3	-66.5	0.0
2026-01-05 08:27:27.664509	5.6	17.4	-68.0	0.0
2026-01-05 08:27:28.791949	5.5	17.5	-66.5	0.0
2026-01-05 08:27:29.918908	5.4	17.6	-66.2	0.0
2026-01-05 08:27:31.043986	5.3	17.8	-65.9	0.0
2026-01-05 08:27:32.172620	5.2	17.9	-63.1	0.0
2026-01-05 08:27:33.299041	5.1	18.0	-63.8	0.0
2026-01-05 08:27:34.426372	5.0	18.1	-65.7	0.0
2026-01-05 08:27:35.553975	4.9	18.3	-67.8	0.0
2026-01-05 08:27:36.683118	4.9	18.4	-66.8	0.0
2026-01-05 08:27:37.810494	4.8	18.5	-65.4	0.0
2026-01-05 08:27:38.937200	4.7	18.7	-66.0	0.0
2026-01-05 08:27:40.064537	4.6	18.8	-66.7	0.0
2026-01-05 08:27:41.191937	4.5	18.9	-66.0	0.0
2026-01-05 08:27:42.319070	4.4	19.1	-65.9	0.0
2026-01-05 08:27:43.445717	4.3	19.2	-66.0	0.0
2026-01-05 08:27:44.572004	4.2	19.3	-66.4	0.0
2026-01-05 08:27:45.699499	4.1	19.5	-65.3	0.0
2026-01-05 08:27:46.826267	4.0	19.6	-64.5	0.0
2026-01-05 08:27:47.956911	3.9	19.7	-66.7	0.0
2026-01-05 08:27:49.082908	3.8	19.9	-65.4	0.0
2026-01-05 08:27:50.210432	3.7	20.0	-66.9	0.0
2026-01-05 08:27:51.338601	3.6	20.2	-67.3	0.0
2026-01-05 08:27:52.464227	3.5	20.3	-68.0	0.0
2026-01-05 08:27:53.592834	3.4	20.4	-67.4	0.0
2026-01-05 08:27:54.719986	3.3	20.6	-66.9	0.0
2026-01-05 08:27:55.846819	3.2	20.7	-68.6	0.0
2026-01-05 08:27:56.972510	3.1	20.9	-67.8	0.0
2026-01-05 08:27:58.100339	3.0	21.0	-67.3	0.0
2026-01-05 08:27:59.226686	2.9	21.1	-68.6	0.0
2026-01-05 08:28:00.352921	2.8	21.3	-66.7	0.0
2026-01-05 08:28:01.479475	2.7	21.4	-64.5	0.0
2026-01-05 08:28:02.607881	2.5	21.6	-66.0	0.0
2026-01-05 08:28:03.735090	2.4	21.7	-68.4	0.0
2026-01-05 08:28:04.862766	2.3	21.9	-68.6	0.0
2026-01-05 08:28:05.991240	2.2	22.0	-67.2	0.0
2026-01-05 08:28:07.116808	2.1	22.2	-67.5	0.0
2026-01-05 08:28:08.242713	2.0	22.3	-67.4	0.0
2026-01-05 08:28:09.370501	1.8	22.5	-68.2	0.0
2026-01-05 08:28:10.497470	1.7	22.6	-67.2	0.0
2026-01-05 08:28:11.622048	1.6	22.8	-67.1	0.0
2026-01-05 08:28:12.749754	1.5	22.9	-66.8	0.0
2026-01-05 08:28:13.876583	1.4	23.1	-66.5	0.0
2026-01-05 08:28:15.004594	1.2	23.2	-66.7	0.0
2026-01-05 08:28:16.128771	1.1	23.4	-68.1	0.0
2026-01-05 08:28:17.254676	1.0	23.5	-65.1	0.0
2026-01-05 08:28:18.380341	0.9	23.7	-66.8	0.0
2026-01-05 08:28:19.508965	0.7	23.8	-68.1	0.0
2026-01-05 08:28:20.635282	0.6	24.0	-66.8	0.0
2026-01-05 08:28:21.761457	0.5	24.2	-65.3	0.0
2026-01-05 08:28:22.888331	0.3	24.3	-66.2	0.0
2026-01-05 08:28:24.016139	0.2	24.5	-66.8	0.0
2026-01-05 08:28:25.143621	0.1	24.6	-66.8	0.0
2026-01-05 08:28:26.269879	359.9	24.8	-65.3	0.0
2026-01-05 08:28:27.397965	359.8	25.0	-65.6	0.0
2026-01-05 08:28:28.524211	359.6	25.1	-66.9	0.0
2026-01-05 08:28:29.651611	359.5	25.3	-65.1	0.0
2026-01-05 08:28:30.780169	359.4	25.5	-65.4	0.0
2026-01-05 08:28:31.907491	359.2	25.6	-67.8	0.0
2026-01-05 08:28:33.033870	359.1	25.8	-66.8	0.0
2026-01-05 08:28:34.162364	358.9	25.9	-66.3	0.0
2026-01-05 08:28:35.289420	358.8	26.1	-65.7	0.0
2026-01-05 08:28:36.416802	358.6	26.3	-65.5	0.0
2026-01-05 08:28:37.543536	358.5	26.5	-65.3	0.0
2026-01-05 08:28:38.671918	358.3	26.6	-65.4	0.0
2026-01-05 08:28:39.799461	358.1	26.8	-66.0	0.0
2026-01-05 08:28:40.924710	358.0	27.0	-64.2	0.0
2026-01-05 08:28:42.050826	357.8	27.1	-65.7	0.0
2026-01-05 08:28:43.176837	357.7	27.3	-65.5	0.0
2026-01-05 08:28:44.303706	357.5	27.5	-67.4	0.0
2026-01-05 08:28:45.429235	357.3	27.7	-65.2	0.0
2026-01-05 08:28:46.557218	357.2	27.8	-66.5	0.0
2026-01-05 08:28:47.684298	357.0	28.0	-67.5	0.0
2026-01-05 08:28:48.809828	356.8	28.2	-66.6	0.0
2026-01-05 08:28:49.936095	356.6	28.4	-66.3	0.0
2026-01-05 08:28:51.063323	356.5	28.6	-66.5	0.0
2026-01-05 08:28:52.190269	356.3	28.7	-67.1	0.0
2026-01-05 08:28:53.318435	356.1	28.9	-65.8	0.0
2026-01-05 08:28:54.444690	355.9	29.1	-65.9	0.0
2026-01-05 08:28:55.573058	355.7	29.3	-65.7	0.0
2026-01-05 08:28:56.700097	355.6	29.5	-67.3	0.0
2026-01-05 08:28:57.825335	355.4	29.7	-65.3	0.0
2026-01-05 08:28:58.951303	355.2	29.8	-65.7	0.0
2026-01-05 08:29:00.079042	355.0	30.0	-65.7	0.0
2026-01-05 08:29:01.206131	354.8	30.2	-65.8	0.0
2026-01-05 08:29:02.333676	354.6	30.4	-66.2	0.0
2026-01-05 08:29:03.461610	354.4	30.6	-65.1	0.0
2026-01-05 08:29:04.589365	354.2	30.8	-66.1	0.0
2026-01-05 08:29:05.715963	354.0	31.0	-65.9	0.0
2026-01-05 08:29:06.842361	353.8	31.2	-65.1	0.0
2026-01-05 08:29:07.970394	353.6	31.4	-65.9	0.0
2026-01-05 08:29:09.097037	353.4	31.5	-64.8	0.0
2026-01-05 08:29:10.223526	353.1	31.7	-67.6	0.0
2026-01-05 08:29:11.350441	352.9	31.9	-66.1	0.0
2026-01-05 08:29:12.478932	352.7	32.1	-66.5	0.0
2026-01-05 08:29:13.605570	352.5	32.3	-65.7	0.0
2026-01-05 08:29:14.732223	352.3	32.5	-65.2	0.0
2026-01-05 08:29:15.858330	352.0	32.7	-65.9	0.0
2026-01-05 08:29:16.985936	351.8	32.9	-60.4	0.0
2026-01-05 08:29:18.111712	351.6	33.1	-60.7	0.0
2026-01-05 08:29:19.238948	351.3	33.3	-63.0	0.0
2026-01-05 08:29:20.363508	351.1	33.5	-61.1	0.0
2026-01-05 08:29:21.492548	350.8	33.7	-67.3	0.0
2026-01-05 08:29:22.620306	350.6	33.9	-65.7	0.0
2026-01-05 08:29:23.745126	350.3	34.1	-67.2	0.0
2026-01-05 08:29:24.870813	350.1	34.3	-68.1	0.0
2026-01-05 08:29:25.996150	349.8	34.5	-69.3	0.0
2026-01-05 08:29:27.121646	349.6	34.7	-68.1	0.0
2026-01-05 08:29:28.248150	349.3	35.0	-68.5	0.0
2026-01-05 08:29:29.375627	349.0	35.2	-68.5	0.0
2026-01-05 08:29:30.500853	348.8	35.4	-68.2	0.0
2026-01-05 08:29:31.627745	348.5	35.6	-68.4	0.0
2026-01-05 08:29:32.757897	348.2	35.8	-68.2	0.0
2026-01-05 08:29:33.883664	347.9	36.0	-69.2	0.0
2026-01-05 08:29:35.009934	347.7	36.2	-69.9	1.0
2026-01-05 08:29:36.136958	347.4	36.4	-70.3	0.0
2026-01-05 08:29:37.261839	347.1	36.6	-69.7	0.0
2026-01-05 08:29:38.388574	346.8	36.8	-70.5	0.0
2026-01-05 08:29:39.517017	346.5	37.1	-69.6	0.0
2026-01-05 08:29:40.644317	346.2	37.3	-69.5	0.0
2026-01-05 08:29:41.771238	345.9	37.5	-67.5	0.0
2026-01-05 08:29:42.899123	345.6	37.7	-69.6	0.0
2026-01-05 08:29:44.026802	345.2	37.9	-68.9	1.6
2026-01-05 08:29:45.152953	344.9	38.1	-70.8	0.0
2026-01-05 08:29:46.279305	344.6	38.3	-68.8	2.6
2026-01-05 08:29:47.406840	344.3	38.6	-70.6	3.4
2026-01-05 08:29:48.531704	343.9	38.8	-71.2	4.2
2026-01-05 08:29:49.657024	343.6	39.0	-70.4	0.5
2026-01-05 08:29:50.783802	343.3	39.2	-70.9	4.0
2026-01-05 08:29:51.909472	342.9	39.4	-71.3	5.1
2026-01-05 08:29:53.036755	342.6	39.6	-70.0	4.7
2026-01-05 08:29:54.162754	342.2	39.8	-70.0	3.9
2026-01-05 08:29:55.288663	341.9	40.1	-69.8	4.5
2026-01-05 08:29:56.416131	341.5	40.3	-70.8	2.9
2026-01-05 08:29:57.542937	341.1	40.5	-70.2	5.1
2026-01-05 08:29:58.668723	340.7	40.7	-70.8	2.5
2026-01-05 08:29:59.800446	340.4	40.9	-70.9	7.0
2026-01-05 08:30:00.927857	340.0	41.1	-71.0	4.0
2026-01-05 08:30:02.054513	339.6	41.4	-70.6	6.2
2026-01-05 08:30:03.182060	339.2	41.6	-71.8	9.0
2026-01-05 08:30:04.306857	338.8	41.8	-70.6	6.9
2026-01-05 08:30:05.434699	338.4	42.0	-70.6	6.6
2026-01-05 08:30:06.560023	338.0	42.2	-71.2	9.1
2026-01-05 08:30:07.686012	337.5	42.4	-70.4	7.4
2026-01-05 08:30:08.813303	337.1	42.6	-70.8	7.4
2026-01-05 08:30:09.937324	336.7	42.9	-71.8	7.3
2026-01-05 08:30:11.064012	336.3	43.1	-71.5	8.3
2026-01-05 08:30:12.191260	335.8	43.3	-71.7	6.3
2026-01-05 08:30:13.316133	335.4	43.5	-71.3	7.2
2026-01-05 08:30:14.442978	334.9	43.7	-71.1	5.3
2026-01-05 08:30:15.568848	334.5	43.9	-71.6	7.6
2026-01-05 08:30:16.695321	334.0	44.1	-71.6	6.0
2026-01-05 08:30:17.826856	333.5	44.3	-71.6	7.2
2026-01-05 08:30:18.953336	333.0	44.5	-72.0	9.1
2026-01-05 08:30:20.079180	332.6	44.7	-72.0	8.0
2026-01-05 08:30:21.204652	332.1	44.9	-71.9	8.3
2026-01-05 08:30:22.330790	331.6	45.1	-71.1	6.8
2026-01-05 08:30:23.458713	331.1	45.3	-71.9	7.1
2026-01-05 08:30:24.584022	330.6	45.5	-72.4	7.3
2026-01-05 08:30:25.710067	330.0	45.7	-71.7	6.6
2026-01-05 08:30:26.837450	329.5	45.9	-71.5	7.9
2026-01-05 08:30:27.964867	329.0	46.1	-72.2	9.7
2026-01-05 08:30:29.090909	328.4	46.3	-71.6	8.2
2026-01-05 08:30:30.217837	327.9	46.5	-72.1	9.2
2026-01-05 08:30:31.344427	327.4	46.7	-72.5	9.8
2026-01-05 08:30:32.468887	326.8	46.9	-72.5	9.3
2026-01-05 08:30:33.596401	326.2	47.1	-72.4	9.3
2026-01-05 08:30:34.720990	325.7	47.2	-72.2	9.7
2026-01-05 08:30:35.849395	325.1	47.4	-71.8	10.0
2026-01-05 08:30:36.975242	324.5	47.6	-72.1	9.6
2026-01-05 08:30:38.100250	323.9	47.8	-71.4	8.8
2026-01-05 08:30:39.227233	323.3	48.0	-72.4	10.4
2026-01-05 08:30:40.353816	322.7	48.1	-71.9	8.5
2026-01-05 08:30:41.480685	322.1	48.3	-72.1	10.5
2026-01-05 08:30:42.608212	321.5	48.5	-72.2	9.7
2026-01-05 08:30:43.734745	320.9	48.6	-72.1	9.6
2026-01-05 08:30:44.860550	320.3	48.8	-71.8	9.0
2026-01-05 08:30:45.989234	319.6	48.9	-72.3	10.3
2026-01-05 08:30:47.112998	319.0	49.1	-71.7	8.8
2026-01-05 08:30:48.241429	318.3	49.2	-72.7	9.4
2026-01-05 08:30:49.366106	317.7	49.4	-72.1	8.4
2026-01-05 08:30:50.491474	317.0	49.5	-72.1	8.6
2026-01-05 08:30:51.617887	316.3	49.6	-71.5	9.3
2026-01-05 08:30:52.744031	315.7	49.8	-71.6	8.0
2026-01-05 08:30:53.870603	315.0	49.9	-72.4	9.5
2026-01-05 08:30:54.996936	314.3	50.0	-70.3	4.5
2026-01-05 08:30:56.123367	313.6	50.2	-71.3	9.0
2026-01-05 08:30:57.247484	312.9	50.3	-71.5	7.0
2026-01-05 08:30:58.371996	312.2	50.4	-71.8	7.3
2026-01-05 08:30:59.496896	311.5	50.5	-71.0	8.5
2026-01-05 08:31:00.622956	310.8	50.6	-71.0	0.8
2026-01-05 08:31:01.748099	310.1	50.7	-71.5	9.7
2026-01-05 08:31:02.874920	309.4	50.8	-72.2	9.0
2026-01-05 08:31:04.001433	308.7	50.9	-71.4	8.6
2026-01-05 08:31:05.128503	307.9	51.0	-72.2	8.5
2026-01-05 08:31:06.254984	307.2	51.0	-70.6	7.4
2026-01-05 08:31:07.382565	306.5	51.1	-72.0	9.2
2026-01-05 08:31:08.508669	305.7	51.2	-70.0	8.5
2026-01-05 08:31:09.635115	305.0	51.3	-71.0	8.2
2026-01-05 08:31:10.758289	304.2	51.3	-70.6	5.4
2026-01-05 08:31:11.884567	303.5	51.4	-71.7	10.6
2026-01-05 08:31:13.010333	302.7	51.4	-70.7	4.8
2026-01-05 08:31:14.135086	302.0	51.5	-71.7	9.6
2026-01-05 08:31:15.260745	301.2	51.5	-71.5	8.4
2026-01-05 08:31:16.387429	300.5	51.6	-70.7	6.5
2026-01-05 08:31:17.513549	299.7	51.6	-71.5	9.1
2026-01-05 08:31:18.641988	298.9	51.6	-71.7	8.5
2026-01-05 08:31:19.767432	298.2	51.6	-71.3	6.6
2026-01-05 08:31:20.892024	297.4	51.6	-71.7	8.4
2026-01-05 08:31:22.016587	296.6	51.7	-71.8	5.6
2026-01-05 08:31:23.142533	295.9	51.7	-71.1	7.6
2026-01-05 08:31:24.267657	295.1	51.7	-71.0	8.8
2026-01-05 08:31:25.393304	294.3	51.6	-70.8	6.4
2026-01-05 08:31:26.522225	293.6	51.6	-71.8	9.5
2026-01-05 08:31:27.650169	292.8	51.6	-70.6	3.3
2026-01-05 08:31:28.776202	292.1	51.6	-72.1	8.0
2026-01-05 08:31:29.904021	291.3	51.6	-71.5	5.7
2026-01-05 08:31:31.028524	290.5	51.5	-72.8	10.2
2026-01-05 08:31:32.160254	289.8	51.5	-72.3	5.2
2026-01-05 08:31:33.285648	289.0	51.5	-72.7	8.3
2026-01-05 08:31:34.410472	288.3	51.4	-72.9	8.9
2026-01-05 08:31:35.537054	287.5	51.3	-72.9	10.2
2026-01-05 08:31:36.662725	286.8	51.3	-72.6	8.2
2026-01-05 08:31:37.792222	286.0	51.2	-72.5	7.0
2026-01-05 08:31:38.918207	285.3	51.2	-72.0	9.3
2026-01-05 08:31:40.045334	284.5	51.1	-73.0	10.8
2026-01-05 08:31:41.171059	283.8	51.0	-72.6	6.0
2026-01-05 08:31:42.298917	283.1	50.9	-72.6	10.1
2026-01-05 08:31:43.423911	282.3	50.8	-72.3	8.1
2026-01-05 08:31:44.550435	281.6	50.7	-72.0	8.7
2026-01-05 08:31:45.676457	280.9	50.6	-72.5	9.9
2026-01-05 08:31:46.803094	280.2	50.5	-71.3	7.4
2026-01-05 08:31:47.930458	279.5	50.4	-72.3	9.0
2026-01-05 08:31:49.055935	278.8	50.3	-71.9	7.5
2026-01-05 08:31:50.182655	278.1	50.2	-72.5	10.1
2026-01-05 08:31:51.309897	277.4	50.1	-72.5	8.3
2026-01-05 08:31:52.435463	276.7	50.0	-71.7	6.7
2026-01-05 08:31:53.563583	276.0	49.8	-71.6	8.6
2026-01-05 08:31:54.690533	275.3	49.7	-72.3	10.8
2026-01-05 08:31:55.820349	274.7	49.6	-72.2	9.5
2026-01-05 08:31:56.947790	274.0	49.4	-72.0	7.9
2026-01-05 08:31:58.075212	273.3	49.3	-72.2	8.7
2026-01-05 08:31:59.203916	272.7	49.1	-71.9	9.4
2026-01-05 08:32:00.330007	272.0	49.0	-73.1	11.8
2026-01-05 08:32:01.457391	271.4	48.8	-72.9	11.9
2026-01-05 08:32:02.584579	270.8	48.7	-73.1	11.0
2026-01-05 08:32:03.712038	270.1	48.5	-72.6	9.4
2026-01-05 08:32:04.838620	269.5	48.4	-72.8	11.1
2026-01-05 08:32:05.966060	268.9	48.2	-72.6	10.0
2026-01-05 08:32:07.092458	268.3	48.0	-72.1	10.1
2026-01-05 08:32:08.217995	267.7	47.9	-71.9	6.6
2026-01-05 08:32:09.345447	267.1	47.7	-72.6	8.9
2026-01-05 08:32:10.473340	266.5	47.5	-72.5	9.1
2026-01-05 08:32:11.600265	265.9	47.3	-72.9	9.9
2026-01-05 08:32:12.726105	265.4	47.1	-73.0	8.2
2026-01-05 08:32:13.852609	264.8	47.0	-73.1	10.2
2026-01-05 08:32:14.978615	264.2	46.8	-72.6	9.9
2026-01-05 08:32:16.105702	263.7	46.6	-73.5	9.8
2026-01-05 08:32:17.232828	263.1	46.4	-73.1	8.0
2026-01-05 08:32:18.358735	262.6	46.2	-72.5	7.1
2026-01-05 08:32:19.484773	262.1	46.0	-73.4	9.7
2026-01-05 08:32:20.613020	261.5	45.8	-73.3	9.1
2026-01-05 08:32:21.740423	261.0	45.6	-73.8	9.3
2026-01-05 08:32:22.868392	260.5	45.4	-73.3	8.3
2026-01-05 08:32:23.993652	260.0	45.2	-73.0	9.3
2026-01-05 08:32:25.122122	259.5	45.0	-73.6	8.7
2026-01-05 08:32:26.247962	259.0	44.8	-73.6	9.7
2026-01-05 08:32:27.377077	258.5	44.6	-73.7	9.8
2026-01-05 08:32:28.503111	258.0	44.4	-73.7	9.3
2026-01-05 08:32:29.629015	257.6	44.2	-73.9	8.9
2026-01-05 08:32:30.755701	257.1	44.0	-73.4	9.6
2026-01-05 08:32:31.881744	256.6	43.8	-73.4	9.4
2026-01-05 08:32:33.008003	256.2	43.6	-73.4	9.6
2026-01-05 08:32:34.132975	255.7	43.3	-73.9	10.6
2026-01-05 08:32:35.260743	255.3	43.1	-73.9	11.1
2026-01-05 08:32:36.387632	254.8	42.9	-74.0	11.5
2026-01-05 08:32:37.513473	254.4	42.7	-73.7	10.5
2026-01-05 08:32:38.638724	254.0	42.5	-73.9	11.5
2026-01-05 08:32:39.766131	253.5	42.3	-73.7	10.6
2026-01-05 08:32:40.893652	253.1	42.1	-73.9	11.7
2026-01-05 08:32:42.019624	252.7	41.9	-74.0	11.1
2026-01-05 08:32:43.146692	252.3	41.6	-74.1	9.8
2026-01-05 08:32:44.272879	251.9	41.4	-74.3	12.1
2026-01-05 08:32:45.401937	251.5	41.2	-73.9	11.0
2026-01-05 08:32:46.528364	251.1	41.0	-73.8	10.5
2026-01-05 08:32:47.655665	250.7	40.8	-73.3	7.9
2026-01-05 08:32:48.781555	250.4	40.6	-73.3	10.1
2026-01-05 08:32:49.907065	250.0	40.3	-73.6	10.6
2026-01-05 08:32:51.031395	249.6	40.1	-73.9	11.9
2026-01-05 08:32:52.157779	249.3	39.9	-73.9	12.3
2026-01-05 08:32:53.283671	248.9	39.7	-73.9	13.3
2026-01-05 08:32:54.410051	248.5	39.5	-73.5	12.9
2026-01-05 08:32:55.535532	248.2	39.3	-73.7	12.5
2026-01-05 08:32:56.663490	247.8	39.0	-73.6	11.5
2026-01-05 08:32:57.790143	247.5	38.8	-74.3	12.6
2026-01-05 08:32:58.916803	247.2	38.6	-74.0	13.0
2026-01-05 08:33:00.041842	246.8	38.4	-74.0	12.4
2026-01-05 08:33:01.169755	246.5	38.2	-74.1	11.5
2026-01-05 08:33:02.294778	246.2	38.0	-73.9	12.2
2026-01-05 08:33:03.420896	245.9	37.7	-73.8	12.3
2026-01-05 08:33:04.549042	245.6	37.5	-74.2	13.4
2026-01-05 08:33:05.675492	245.2	37.3	-74.0	12.2
2026-01-05 08:33:06.802023	244.9	37.1	-74.1	11.8
2026-01-05 08:33:07.929003	244.6	36.9	-74.0	11.8
2026-01-05 08:33:09.053916	244.3	36.7	-74.1	12.6
2026-01-05 08:33:10.180227	244.0	36.5	-74.1	12.3
2026-01-05 08:33:11.307003	243.8	36.2	-73.9	12.2
2026-01-05 08:33:12.433908	243.5	36.0	-74.2	13.0
2026-01-05 08:33:13.561086	243.2	35.8	-73.7	11.6
2026-01-05 08:33:14.688027	242.9	35.6	-74.2	12.8
2026-01-05 08:33:15.813564	242.6	35.4	-74.0	12.2
2026-01-05 08:33:16.939230	242.4	35.2	-74.5	13.1
2026-01-05 08:33:18.066693	242.1	35.0	-74.5	11.8
2026-01-05 08:33:19.193213	241.8	34.8	-74.2	12.4
2026-01-05 08:33:20.317500	241.6	34.6	-74.3	12.2
2026-01-05 08:33:21.441917	241.3	34.4	-74.7	12.3
2026-01-05 08:33:22.572561	241.0	34.2	-74.7	11.7
2026-01-05 08:33:23.697922	240.8	34.0	-74.7	11.6
2026-01-05 08:33:24.825246	240.5	33.8	-75.0	12.4
2026-01-05 08:33:25.955744	240.3	33.6	-74.7	11.2
2026-01-05 08:33:27.081501	240.1	33.3	-74.5	12.0
2026-01-05 08:33:28.208587	239.8	33.1	-74.3	11.2
2026-01-05 08:33:29.335585	239.6	32.9	-75.0	12.6
2026-01-05 08:33:30.462086	239.3	32.7	-74.9	12.1
2026-01-05 08:33:31.588300	239.1	32.5	-74.4	11.4
2026-01-05 08:33:32.712980	238.9	32.3	-74.6	11.3
2026-01-05 08:33:33.838443	238.7	32.2	-74.7	12.5
2026-01-05 08:33:34.963529	238.4	32.0	-74.5	11.6
2026-01-05 08:33:36.089733	238.2	31.8	-74.4	11.5
2026-01-05 08:33:37.215414	238.0	31.6	-74.8	13.1
2026-01-05 08:33:38.341747	237.8	31.4	-74.4	11.5
2026-01-05 08:33:39.469028	237.6	31.2	-74.8	10.9
2026-01-05 08:33:40.596017	237.4	31.0	-74.8	11.9
2026-01-05 08:33:41.722951	237.2	30.8	-74.8	11.9
2026-01-05 08:33:42.851513	237.0	30.6	-74.7	10.0
2026-01-05 08:33:43.977248	236.8	30.4	-74.7	10.8
2026-01-05 08:33:45.105023	236.6	30.2	-74.3	10.2
2026-01-05 08:33:46.232488	236.4	30.0	-75.0	11.3
2026-01-05 08:33:47.357700	236.2	29.8	-75.1	10.8
2026-01-05 08:33:48.485233	236.0	29.7	-74.7	11.1
2026-01-05 08:33:49.614106	235.8	29.5	-74.9	11.2
2026-01-05 08:33:50.741269	235.6	29.3	-74.8	11.0
2026-01-05 08:33:51.867140	235.4	29.1	-74.8	10.8
2026-01-05 08:33:52.994008	235.2	28.9	-74.4	11.0
2026-01-05 08:33:54.121407	235.0	28.7	-74.5	9.5
2026-01-05 08:33:55.248053	234.9	28.5	-74.4	10.7
2026-01-05 08:33:56.374217	234.7	28.4	-74.8	11.5
2026-01-05 08:33:57.503070	234.5	28.2	-75.1	12.1
2026-01-05 08:33:58.629233	234.3	28.0	-75.2	12.1
2026-01-05 08:33:59.754876	234.2	27.8	-75.2	11.6
2026-01-05 08:34:00.881456	234.0	27.7	-75.1	11.1
2026-01-05 08:34:02.007069	233.8	27.5	-75.3	11.4
2026-01-05 08:34:03.135039	233.7	27.3	-75.6	11.3
2026-01-05 08:34:04.261543	233.5	27.1	-75.4	11.2
2026-01-05 08:34:05.387793	233.3	27.0	-75.5	10.4
2026-01-05 08:34:06.514046	233.2	26.8	-75.7	10.4
2026-01-05 08:34:07.640525	233.0	26.6	-75.6	9.8
2026-01-05 08:34:08.767735	232.9	26.4	-75.8	9.9
2026-01-05 08:34:09.895244	232.7	26.3	-75.4	10.2
2026-01-05 08:34:11.020898	232.5	26.1	-75.6	10.2
2026-01-05 08:34:12.145948	232.4	25.9	-75.8	10.2
2026-01-05 08:34:13.272573	232.2	25.8	-75.7	9.3
2026-01-05 08:34:14.400119	232.1	25.6	-75.7	10.0
2026-01-05 08:34:15.524865	232.0	25.4	-75.4	10.3
2026-01-05 08:34:16.651833	231.8	25.3	-75.8	9.9
2026-01-05 08:34:17.777626	231.7	25.1	-75.9	10.5
2026-01-05 08:34:18.905729	231.5	24.9	-75.0	8.5
2026-01-05 08:34:20.032492	231.4	24.8	-75.6	10.8
2026-01-05 08:34:21.159055	231.2	24.6	-75.8	11.0
2026-01-05 08:34:22.286417	231.1	24.4	-75.7	9.6
2026-01-05 08:34:23.413360	231.0	24.3	-75.2	9.7
2026-01-05 08:34:24.541312	230.8	24.1	-75.4	10.4
2026-01-05 08:34:25.669768	230.7	24.0	-75.4	9.3
2026-01-05 08:34:26.796514	230.6	23.8	-75.6	9.5
2026-01-05 08:34:27.922548	230.4	23.6	-75.6	10.2
2026-01-05 08:34:29.050050	230.3	23.5	-75.0	9.7
2026-01-05 08:34:30.175976	230.2	23.3	-74.5	6.9
2026-01-05 08:34:31.303685	230.0	23.2	-75.3	8.3
2026-01-05 08:34:32.428028	229.9	23.0	-75.0	9.7
2026-01-05 08:34:33.553831	229.8	22.9	-74.6	7.5
2026-01-05 08:34:34.679487	229.7	22.7	-74.8	7.6
2026-01-05 08:34:35.805344	229.5	22.6	-75.4	9.7
2026-01-05 08:34:36.930976	229.4	22.4	-75.1	8.6
2026-01-05 08:34:38.060702	229.3	22.3	-75.0	9.4
2026-01-05 08:34:39.188493	229.2	22.1	-75.1	8.0
2026-01-05 08:34:40.314840	229.1	22.0	-75.1	9.0
2026-01-05 08:34:41.441286	229.0	21.8	-75.4	8.9
2026-01-05 08:34:42.567794	228.8	21.7	-75.3	7.6
2026-01-05 08:34:43.696205	228.7	21.5	-75.1	8.2
2026-01-05 08:34:44.823211	228.6	21.4	-74.6	5.3
2026-01-05 08:34:45.950801	228.5	21.2	-75.6	8.8
2026-01-05 08:34:47.076139	228.4	21.1	-75.6	8.6
2026-01-05 08:34:48.203092	228.3	20.9	-75.3	8.2
2026-01-05 08:34:49.326608	228.2	20.8	-75.3	8.4
2026-01-05 08:34:50.453248	228.1	20.7	-75.5	9.0
2026-01-05 08:34:51.579591	228.0	20.5	-75.4	8.5
2026-01-05 08:34:52.705284	227.9	20.4	-74.9	6.9
2026-01-05 08:34:53.834881	227.7	20.2	-74.8	5.7
2026-01-05 08:34:54.959468	227.6	20.1	-74.8	7.2
2026-01-05 08:34:56.086910	227.5	20.0	-74.7	5.3
2026-01-05 08:34:57.213345	227.4	19.8	-75.2	7.5
2026-01-05 08:34:58.339894	227.3	19.7	-75.4	7.9
2026-01-05 08:34:59.465678	227.2	19.5	-75.0	8.1
2026-01-05 08:35:00.593387	227.1	19.4	-74.9	7.2
2026-01-05 08:35:01.721011	227.0	19.3	-75.0	7.1
2026-01-05 08:35:02.846022	226.9	19.1	-75.0	7.1
2026-01-05 08:35:03.971825	226.9	19.0	-74.5	6.2
2026-01-05 08:35:05.100061	226.8	18.9	-75.0	7.9
2026-01-05 08:35:06.226557	226.7	18.7	-74.7	6.2
2026-01-05 08:35:07.351492	226.6	18.6	-74.7	6.9
2026-01-05 08:35:08.476831	226.5	18.5	-75.0	7.7
2026-01-05 08:35:09.600757	226.4	18.3	-75.1	7.9
2026-01-05 08:35:10.727752	226.3	18.2	-74.7	5.1
2026-01-05 08:35:11.854647	226.2	18.1	-74.9	7.3
2026-01-05 08:35:12.981031	226.1	18.0	-74.8	7.1
2026-01-05 08:35:14.107155	226.0	17.8	-74.8	7.0
2026-01-05 08:35:15.233209	225.9	17.7	-75.0	7.0
2026-01-05 08:35:16.358124	225.8	17.6	-74.8	6.2
2026-01-05 08:35:17.486531	225.8	17.4	-74.7	5.6
2026-01-05 08:35:18.612931	225.7	17.3	-74.4	5.9
2026-01-05 08:35:19.739570	225.6	17.2	-74.9	6.7
2026-01-05 08:35:20.864879	225.5	17.1	-75.0	5.7
2026-01-05 08:35:21.991016	225.4	16.9	-75.1	5.6
2026-01-05 08:35:23.121186	225.3	16.8	-74.9	6.3
2026-01-05 08:35:24.248907	225.3	16.7	-74.9	5.4
2026-01-05 08:35:25.375055	225.2	16.6	-74.4	4.1
2026-01-05 08:35:26.500576	225.1	16.4	-75.3	6.1
2026-01-05 08:35:27.626630	225.0	16.3	-74.9	5.4
2026-01-05 08:35:28.751018	224.9	16.2	-74.4	4.2
2026-01-05 08:35:29.876680	224.9	16.1	-74.9	5.0
2026-01-05 08:35:31.002472	224.8	16.0	-74.8	5.4
2026-01-05 08:35:32.128425	224.7	15.8	-75.1	5.5
2026-01-05 08:35:33.254029	224.6	15.7	-75.2	5.3
2026-01-05 08:35:34.380743	224.5	15.6	-74.5	4.2
2026-01-05 08:35:35.508502	224.5	15.5	-74.9	4.1
2026-01-05 08:35:36.633917	224.4	15.4	-74.9	5.1
2026-01-05 08:35:37.760327	224.3	15.3	-75.0	5.3
2026-01-05 08:35:38.887373	224.2	15.1	-75.0	4.0
2026-01-05 08:35:40.015008	224.2	15.0	-74.9	4.1
2026-01-05 08:35:41.141576	224.1	14.9	-74.1	3.3
2026-01-05 08:35:42.267385	224.0	14.8	-74.3	2.7
2026-01-05 08:35:43.391686	224.0	14.7	-74.4	2.1
2026-01-05 08:35:44.517767	223.9	14.6	-74.8	4.1
2026-01-05 08:35:45.642437	223.8	14.4	-75.3	5.5
2026-01-05 08:35:46.766679	223.7	14.3	-74.1	3.9
2026-01-05 08:35:47.892338	223.7	14.2	-74.8	4.3
2026-01-05 08:35:49.020268	223.6	14.1	-74.4	2.9
2026-01-05 08:35:50.147209	223.5	14.0	-74.7	3.8
2026-01-05 08:35:51.276986	223.5	13.9	-75.0	3.5
2026-01-05 08:35:52.403268	223.4	13.8	-74.8	4.0
2026-01-05 08:35:53.529880	223.3	13.7	-74.7	3.5
2026-01-05 08:35:54.658390	223.3	13.6	-74.6	2.1
2026-01-05 08:35:55.783622	223.2	13.4	-74.3	1.9
2026-01-05 08:35:56.911633	223.1	13.3	-74.5	2.5
2026-01-05 08:35:58.036404	223.1	13.2	-74.7	2.9
2026-01-05 08:35:59.165260	223.0	13.1	-74.4	2.5
2026-01-05 08:36:00.291771	223.0	13.0	-74.8	1.8
2026-01-05 08:36:01.417672	222.9	12.9	-74.2	2.9
2026-01-05 08:36:02.543395	222.8	12.8	-74.8	4.4
2026-01-05 08:36:03.671273	222.8	12.7	-74.0	1.0
2026-01-05 08:36:04.798164	222.7	12.6	-74.3	1.4
2026-01-05 08:36:05.923577	222.6	12.5	-74.3	1.6
2026-01-05 08:36:07.050317	222.6	12.4	-74.1	0.0
2026-01-05 08:36:08.176020	222.5	12.3	-73.8	1.2
2026-01-05 08:36:09.305076	222.5	12.2	-74.2	1.8
2026-01-05 08:36:10.432744	222.4	12.1	-74.6	0.0
2026-01-05 08:36:11.559833	222.3	12.0	-74.6	0.5
2026-01-05 08:36:12.686001	222.3	11.9	-74.0	0.0
2026-01-05 08:36:13.813092	222.2	11.8	-74.5	1.3
2026-01-05 08:36:14.941356	222.2	11.7	-74.6	0.0
2026-01-05 08:36:16.066937	222.1	11.6	-74.3	1.8
2026-01-05 08:36:17.192825	222.1	11.5	-75.0	0.8
2026-01-05 08:36:18.319955	222.0	11.4	-74.4	1.0
2026-01-05 08:36:19.445963	221.9	11.3	-74.1	0.0
2026-01-05 08:36:20.571606	221.9	11.2	-74.7	0.0
2026-01-05 08:36:21.699659	221.8	11.1	-74.2	0.0
2026-01-05 08:36:22.827713	221.8	11.0	-74.3	0.0
2026-01-05 08:36:23.956223	221.7	10.9	-75.9	4.6
2026-01-05 08:36:25.081668	221.7	10.8	-76.9	3.9
2026-01-05 08:36:26.205356	221.6	10.7	-79.5	0.0
2026-01-05 08:36:27.333221	221.6	10.6	-79.8	0.0
2026-01-05 08:36:28.461613	221.5	10.5	-80.0	0.0
2026-01-05 08:36:29.588501	221.5	10.4	-80.1	0.0
2026-01-05 08:36:30.716335	221.4	10.3	-80.0	0.0
2026-01-05 08:36:31.840606	221.3	10.2	-79.7	0.0
2026-01-05 08:36:32.968217	221.3	10.1	-79.6	0.0
#Closed at: 2026-01-05 08:26:06.141435