passes_logs/2026/01/05/planumMaritime01/planumMaritime01__20260105_001345_METEOR-M2_4_rec.log

#Pass ID: 20260105_001345_METEOR-M2 4
#Satellite: METEOR-M2 4
#Configuration: METEOR-M2 4
#Start time: 2026-01-05 00:13:50.016432

#LorettStation: 1.0.0 05.05.2024
#Station: planumMaritime01
#Location: 37.49445 lon 55.92918 lat
#TLE: 1 59051U 24039A   26004.63706891  .00000062  00000+0  47407-4 0  9993
#TLE: 2 59051  98.6798 326.1906 0006032 286.5360  73.5155 14.22405675 96015

#Time	Az	El	Level	SNR
2026-01-05 00:13:52.193651	26.8	10.2	-80.2	0.0
2026-01-05 00:13:53.324425	26.9	10.3	-78.1	0.0
2026-01-05 00:13:54.457555	27.0	10.4	-77.5	0.0
2026-01-05 00:13:55.593472	27.0	10.4	-75.1	0.0
2026-01-05 00:13:56.726345	27.1	10.5	-77.0	0.0
2026-01-05 00:13:57.855780	27.2	10.6	-73.0	0.0
2026-01-05 00:13:58.989289	27.3	10.7	-70.4	0.0
2026-01-05 00:14:00.121801	27.4	10.8	-70.2	0.0
2026-01-05 00:14:01.251520	27.4	10.9	-68.6	0.0
2026-01-05 00:14:02.384528	27.5	11.0	-69.3	0.0
2026-01-05 00:14:03.518143	27.6	11.1	-68.9	0.0
2026-01-05 00:14:04.651446	27.7	11.2	-69.1	0.0
2026-01-05 00:14:05.786878	27.8	11.3	-68.5	0.0
2026-01-05 00:14:06.921637	27.9	11.4	-71.6	0.0
2026-01-05 00:14:08.052092	27.9	11.5	-68.5	0.0
2026-01-05 00:14:09.190169	28.0	11.6	-69.1	0.0
2026-01-05 00:14:10.321783	28.1	11.7	-67.7	0.0
2026-01-05 00:14:11.453504	28.2	11.8	-68.8	0.0
2026-01-05 00:14:12.585120	28.3	11.9	-68.9	0.0
2026-01-05 00:14:13.721523	28.4	12.0	-67.3	0.0
2026-01-05 00:14:14.854491	28.5	12.1	-68.0	0.0
2026-01-05 00:14:15.985241	28.6	12.2	-67.5	0.0
2026-01-05 00:14:17.117515	28.7	12.3	-69.7	0.0
2026-01-05 00:14:18.250441	28.7	12.4	-66.5	0.0
2026-01-05 00:14:19.384008	28.8	12.5	-69.3	0.0
2026-01-05 00:14:20.516108	28.9	12.6	-68.2	0.0
2026-01-05 00:14:21.649521	29.0	12.6	-67.3	0.0
2026-01-05 00:14:22.784900	29.1	12.7	-67.3	0.0
2026-01-05 00:14:23.917838	29.2	12.8	-69.5	0.0
2026-01-05 00:14:25.049821	29.3	12.9	-68.2	0.0
2026-01-05 00:14:26.184067	29.4	13.1	-67.9	0.0
2026-01-05 00:14:27.318323	29.5	13.2	-68.1	0.0
2026-01-05 00:14:28.451083	29.6	13.3	-67.6	0.0
2026-01-05 00:14:29.582798	29.7	13.4	-68.4	0.0
2026-01-05 00:14:30.717680	29.8	13.5	-67.7	0.0
2026-01-05 00:14:31.850633	29.9	13.6	-68.0	0.0
2026-01-05 00:14:32.983375	30.0	13.7	-67.7	0.0
2026-01-05 00:14:34.116603	30.1	13.8	-68.0	0.0
2026-01-05 00:14:35.249972	30.2	13.9	-67.4	0.0
2026-01-05 00:14:36.386270	30.3	14.0	-69.7	0.0
2026-01-05 00:14:37.519857	30.4	14.1	-69.1	0.0
2026-01-05 00:14:38.654677	30.5	14.2	-68.3	0.0
2026-01-05 00:14:39.791193	30.6	14.3	-68.9	0.0
2026-01-05 00:14:40.930507	30.7	14.4	-69.3	0.0
2026-01-05 00:14:42.069371	30.8	14.5	-68.3	0.0
2026-01-05 00:14:43.206181	30.9	14.6	-69.0	0.0
2026-01-05 00:14:44.344611	31.0	14.7	-70.3	0.0
2026-01-05 00:14:45.482376	31.1	14.8	-69.8	0.0
2026-01-05 00:14:46.619027	31.2	14.9	-69.2	0.0
2026-01-05 00:14:47.756663	31.3	15.0	-70.1	0.0
2026-01-05 00:14:48.892253	31.4	15.1	-66.6	0.0
2026-01-05 00:14:50.026625	31.6	15.3	-65.2	0.0
2026-01-05 00:14:51.157286	31.7	15.4	-66.4	0.0
2026-01-05 00:14:52.293073	31.8	15.5	-68.3	0.0
2026-01-05 00:14:53.426076	31.9	15.6	-66.6	0.0
2026-01-05 00:14:54.561040	32.0	15.7	-66.6	0.0
2026-01-05 00:14:55.698513	32.1	15.8	-67.3	0.0
2026-01-05 00:14:56.833693	32.2	15.9	-66.1	0.0
2026-01-05 00:14:57.964782	32.3	16.0	-66.9	0.0
2026-01-05 00:14:59.097730	32.5	16.1	-66.4	0.0
2026-01-05 00:15:00.229834	32.6	16.2	-68.2	0.0
2026-01-05 00:15:01.366862	32.7	16.4	-68.2	0.0
2026-01-05 00:15:02.502463	32.8	16.5	-70.3	0.0
2026-01-05 00:15:03.636435	32.9	16.6	-70.7	0.0
2026-01-05 00:15:04.768500	33.1	16.7	-72.4	0.0
2026-01-05 00:15:05.902375	33.2	16.8	-70.8	0.0
2026-01-05 00:15:07.034446	33.3	16.9	-71.9	0.0
2026-01-05 00:15:08.166953	33.4	17.0	-71.4	0.0
2026-01-05 00:15:09.301723	33.5	17.2	-68.6	0.0
2026-01-05 00:15:10.437045	33.7	17.3	-69.8	0.0
2026-01-05 00:15:11.574125	33.8	17.4	-70.5	0.0
2026-01-05 00:15:12.709500	33.9	17.5	-70.3	0.0
2026-01-05 00:15:13.842686	34.0	17.6	-68.8	0.0
2026-01-05 00:15:14.974707	34.2	17.7	-68.9	0.0
2026-01-05 00:15:16.107233	34.3	17.9	-68.7	0.0
2026-01-05 00:15:17.243951	34.4	18.0	-68.9	0.0
2026-01-05 00:15:18.379548	34.6	18.1	-69.4	0.0
2026-01-05 00:15:19.513585	34.7	18.2	-68.4	0.0
2026-01-05 00:15:20.646333	34.8	18.3	-67.0	0.0
2026-01-05 00:15:21.778970	35.0	18.5	-72.5	0.0
2026-01-05 00:15:22.912515	35.1	18.6	-71.3	0.0
2026-01-05 00:15:24.042289	35.2	18.7	-68.9	0.0
2026-01-05 00:15:25.176766	35.4	18.8	-69.9	0.0
2026-01-05 00:15:26.312964	35.5	19.0	-68.8	0.0
2026-01-05 00:15:27.445862	35.7	19.1	-69.6	0.0
2026-01-05 00:15:28.578542	35.8	19.2	-69.8	0.0
2026-01-05 00:15:29.711001	35.9	19.3	-69.9	0.0
2026-01-05 00:15:30.844018	36.1	19.4	-71.7	0.0
2026-01-05 00:15:31.976867	36.2	19.6	-72.8	0.0
2026-01-05 00:15:33.113145	36.4	19.7	-69.1	0.0
2026-01-05 00:15:34.247630	36.5	19.8	-69.7	0.0
2026-01-05 00:15:35.380520	36.7	19.9	-71.1	0.0
2026-01-05 00:15:36.517606	36.8	20.1	-69.9	0.0
2026-01-05 00:15:37.652279	37.0	20.2	-71.6	0.0
2026-01-05 00:15:38.786543	37.1	20.3	-71.4	0.0
2026-01-05 00:15:39.919857	37.3	20.5	-71.1	0.0
2026-01-05 00:15:41.054721	37.4	20.6	-72.7	0.0
2026-01-05 00:15:42.189395	37.6	20.7	-70.6	0.0
2026-01-05 00:15:43.327249	37.7	20.8	-70.6	0.0
2026-01-05 00:15:44.464663	37.9	21.0	-71.0	0.0
2026-01-05 00:15:45.606149	38.0	21.1	-70.5	0.0
2026-01-05 00:15:46.744271	38.2	21.2	-71.8	0.0
2026-01-05 00:15:47.880315	38.4	21.4	-71.0	0.0
2026-01-05 00:15:49.017927	38.5	21.5	-70.5	0.0
2026-01-05 00:15:50.153700	38.7	21.6	-71.6	0.0
2026-01-05 00:15:51.291809	38.9	21.8	-72.0	0.0
2026-01-05 00:15:52.428893	39.0	21.9	-71.8	0.0
2026-01-05 00:15:53.569435	39.2	22.0	-71.0	0.0
2026-01-05 00:15:54.706880	39.4	22.2	-71.8	0.0
2026-01-05 00:15:55.842557	39.5	22.3	-71.2	0.0
2026-01-05 00:15:56.978884	39.7	22.4	-72.7	0.0
2026-01-05 00:15:58.114467	39.9	22.6	-71.2	0.0
2026-01-05 00:15:59.251098	40.1	22.7	-71.7	0.0
2026-01-05 00:16:00.386610	40.2	22.8	-72.2	0.0
2026-01-05 00:16:01.520956	40.4	23.0	-73.4	0.0
2026-01-05 00:16:02.657484	40.6	23.1	-71.4	0.0
2026-01-05 00:16:03.794222	40.8	23.3	-71.6	0.0
2026-01-05 00:16:04.930374	41.0	23.4	-73.2	0.0
2026-01-05 00:16:06.066198	41.2	23.5	-69.9	0.0
2026-01-05 00:16:07.202896	41.3	23.7	-72.4	0.0
2026-01-05 00:16:08.338993	41.5	23.8	-72.2	0.0
2026-01-05 00:16:09.476544	41.7	23.9	-72.5	0.0
2026-01-05 00:16:10.613528	41.9	24.1	-73.2	0.0
2026-01-05 00:16:11.750186	42.1	24.2	-72.7	0.0
2026-01-05 00:16:12.889842	42.3	24.4	-74.0	0.0
2026-01-05 00:16:14.028031	42.5	24.5	-74.4	0.0
2026-01-05 00:16:15.164913	42.7	24.7	-74.8	0.0
2026-01-05 00:16:16.300797	42.9	24.8	-72.9	0.0
2026-01-05 00:16:17.440497	43.1	24.9	-73.8	0.0
2026-01-05 00:16:18.579108	43.3	25.1	-73.0	0.0
2026-01-05 00:16:19.714041	43.5	25.2	-73.6	0.0
2026-01-05 00:16:20.852406	43.7	25.4	-74.9	2.2
2026-01-05 00:16:21.990219	43.9	25.5	-73.7	0.0
2026-01-05 00:16:23.125318	44.1	25.7	-73.6	0.0
2026-01-05 00:16:24.263182	44.3	25.8	-74.0	0.6
2026-01-05 00:16:25.398529	44.6	26.0	-74.6	3.0
2026-01-05 00:16:26.535949	44.8	26.1	-72.4	0.0
2026-01-05 00:16:27.672191	45.0	26.2	-74.2	0.0
2026-01-05 00:16:28.813779	45.2	26.4	-73.7	1.2
2026-01-05 00:16:29.951233	45.4	26.5	-74.2	3.6
2026-01-05 00:16:31.090513	45.7	26.7	-74.9	1.6
2026-01-05 00:16:32.228596	45.9	26.8	-75.1	1.2
2026-01-05 00:16:33.368765	46.1	27.0	-74.5	2.4
2026-01-05 00:16:34.506756	46.4	27.1	-74.8	5.9
2026-01-05 00:16:35.642995	46.6	27.3	-74.6	0.7
2026-01-05 00:16:36.780522	46.8	27.4	-74.9	5.4
2026-01-05 00:16:37.917384	47.1	27.6	-75.2	3.1
2026-01-05 00:16:39.056079	47.3	27.7	-75.0	3.5
2026-01-05 00:16:40.194108	47.6	27.9	-74.5	2.7
2026-01-05 00:16:41.334797	47.8	28.0	-75.0	3.6
2026-01-05 00:16:42.471803	48.0	28.2	-75.8	6.3
2026-01-05 00:16:43.607839	48.3	28.3	-74.3	1.7
2026-01-05 00:16:44.746121	48.5	28.5	-75.1	6.4
2026-01-05 00:16:45.885476	48.8	28.6	-75.2	2.4
2026-01-05 00:16:47.024374	49.1	28.8	-74.9	5.0
2026-01-05 00:16:48.161004	49.3	28.9	-75.1	7.5
2026-01-05 00:16:49.300031	49.6	29.1	-74.9	4.0
2026-01-05 00:16:50.439713	49.8	29.3	-75.1	5.0
2026-01-05 00:16:51.573494	50.1	29.4	-75.5	7.4
2026-01-05 00:16:52.712053	50.4	29.6	-75.9	7.1
2026-01-05 00:16:53.849768	50.6	29.7	-75.5	6.4
2026-01-05 00:16:54.986415	50.9	29.9	-74.6	5.7
2026-01-05 00:16:56.122709	51.2	30.0	-75.2	3.7
2026-01-05 00:16:57.260717	51.5	30.2	-75.5	7.4
2026-01-05 00:16:58.400337	51.8	30.3	-75.2	6.0
2026-01-05 00:16:59.533652	52.0	30.5	-74.6	6.3
2026-01-05 00:17:00.673532	52.3	30.6	-76.0	7.6
2026-01-05 00:17:01.814199	52.6	30.8	-75.3	7.7
2026-01-05 00:17:02.951595	52.9	30.9	-75.8	4.5
2026-01-05 00:17:04.092167	53.2	31.1	-75.0	7.1
2026-01-05 00:17:05.229018	53.5	31.3	-75.1	5.7
2026-01-05 00:17:06.367422	53.8	31.4	-74.5	4.8
2026-01-05 00:17:07.504615	54.1	31.6	-75.1	7.6
2026-01-05 00:17:08.644480	54.4	31.7	-74.8	6.8
2026-01-05 00:17:09.782688	54.7	31.9	-75.1	7.7
2026-01-05 00:17:10.922177	55.0	32.0	-75.7	7.0
2026-01-05 00:17:12.053291	55.4	32.2	-75.6	6.2
2026-01-05 00:17:13.187456	55.7	32.3	-75.7	7.5
2026-01-05 00:17:14.320714	56.0	32.5	-76.4	10.1
2026-01-05 00:17:15.456797	56.3	32.6	-75.9	8.4
2026-01-05 00:17:16.590721	56.6	32.8	-75.6	8.4
2026-01-05 00:17:17.725125	57.0	32.9	-75.5	8.4
2026-01-05 00:17:18.856716	57.3	33.1	-75.5	6.5
2026-01-05 00:17:19.989555	57.6	33.2	-74.6	5.7
2026-01-05 00:17:21.122651	58.0	33.4	-75.2	8.4
2026-01-05 00:17:22.256685	58.3	33.5	-75.8	8.4
2026-01-05 00:17:23.394404	58.7	33.7	-75.7	7.5
2026-01-05 00:17:24.529409	59.0	33.8	-76.5	10.5
2026-01-05 00:17:25.663533	59.4	34.0	-75.6	8.9
2026-01-05 00:17:26.797405	59.7	34.1	-74.5	7.1
2026-01-05 00:17:27.932706	60.1	34.3	-75.5	9.8
2026-01-05 00:17:29.066729	60.4	34.4	-74.7	7.9
2026-01-05 00:17:30.197997	60.8	34.6	-75.4	7.3
2026-01-05 00:17:31.335450	61.2	34.7	-75.3	9.2
2026-01-05 00:17:32.468773	61.5	34.9	-75.4	8.3
2026-01-05 00:17:33.603215	61.9	35.0	-75.3	10.4
2026-01-05 00:17:34.737665	62.3	35.2	-75.3	10.5
2026-01-05 00:17:35.875157	62.7	35.3	-75.5	8.8
2026-01-05 00:17:37.009636	63.0	35.5	-75.3	9.5
2026-01-05 00:17:38.144163	63.4	35.6	-76.0	11.4
2026-01-05 00:17:39.277690	63.8	35.7	-76.2	10.4
2026-01-05 00:17:40.414825	64.2	35.9	-76.0	10.1
2026-01-05 00:17:41.548588	64.6	36.0	-75.7	9.4
2026-01-05 00:17:42.682923	65.0	36.2	-76.2	8.9
2026-01-05 00:17:43.817565	65.4	36.3	-76.0	9.7
2026-01-05 00:17:44.953966	65.8	36.4	-76.3	9.7
2026-01-05 00:17:46.088558	66.2	36.6	-75.6	8.8
2026-01-05 00:17:47.225527	66.7	36.7	-75.4	8.6
2026-01-05 00:17:48.362679	67.1	36.9	-75.7	10.7
2026-01-05 00:17:49.498939	67.5	37.0	-75.6	10.2
2026-01-05 00:17:50.637092	67.9	37.1	-75.6	9.8
2026-01-05 00:17:51.773783	68.4	37.3	-76.1	10.6
2026-01-05 00:17:52.908321	68.8	37.4	-76.2	9.2
2026-01-05 00:17:54.045301	69.2	37.5	-75.4	10.1
2026-01-05 00:17:55.184879	69.7	37.6	-75.4	10.0
2026-01-05 00:17:56.323093	70.1	37.8	-75.0	8.2
2026-01-05 00:17:57.458648	70.6	37.9	-75.8	10.9
2026-01-05 00:17:58.595900	71.0	38.0	-75.7	10.4
2026-01-05 00:17:59.733349	71.5	38.1	-76.0	10.5
2026-01-05 00:18:00.872569	71.9	38.3	-75.9	9.9
2026-01-05 00:18:02.013475	72.4	38.4	-76.5	10.7
2026-01-05 00:18:03.150460	72.8	38.5	-75.7	9.5
2026-01-05 00:18:04.289072	73.3	38.6	-76.7	10.7
2026-01-05 00:18:05.426338	73.8	38.7	-76.7	10.7
2026-01-05 00:18:06.562375	74.2	38.8	-76.3	9.9
2026-01-05 00:18:07.699339	74.7	38.9	-76.5	10.1
2026-01-05 00:18:08.839351	75.2	39.1	-76.5	10.0
2026-01-05 00:18:09.977936	75.7	39.2	-76.6	6.8
2026-01-05 00:18:11.115705	76.2	39.3	-76.6	9.1
2026-01-05 00:18:12.254504	76.7	39.4	-76.9	10.1
2026-01-05 00:18:13.394444	77.2	39.5	-76.8	9.4
2026-01-05 00:18:14.530750	77.7	39.6	-77.0	10.5
2026-01-05 00:18:15.670675	78.2	39.7	-76.2	10.9
2026-01-05 00:18:16.813286	78.7	39.8	-76.3	10.0
2026-01-05 00:18:17.951203	79.2	39.9	-76.3	10.0
2026-01-05 00:18:19.088627	79.7	39.9	-76.9	10.4
2026-01-05 00:18:20.227552	80.2	40.0	-75.7	7.2
2026-01-05 00:18:21.365062	80.7	40.1	-76.0	6.8
2026-01-05 00:18:22.503967	81.2	40.2	-75.3	6.0
2026-01-05 00:18:23.643232	81.7	40.3	-76.7	10.2
2026-01-05 00:18:24.780286	82.2	40.4	-76.8	10.5
2026-01-05 00:18:25.919206	82.8	40.4	-76.9	9.2
2026-01-05 00:18:27.059513	83.3	40.5	-76.8	8.6
2026-01-05 00:18:28.195162	83.8	40.6	-77.3	8.9
2026-01-05 00:18:29.331902	84.3	40.6	-77.2	9.0
2026-01-05 00:18:30.470724	84.9	40.7	-76.4	8.3
2026-01-05 00:18:31.609511	85.4	40.8	-77.2	9.8
2026-01-05 00:18:32.747929	85.9	40.8	-77.3	8.6
2026-01-05 00:18:33.886206	86.5	40.9	-75.9	4.6
2026-01-05 00:18:35.025171	87.0	40.9	-76.5	5.0
2026-01-05 00:18:36.161353	87.6	41.0	-76.9	6.7
2026-01-05 00:18:37.300634	88.1	41.0	-76.5	10.1
2026-01-05 00:18:38.434384	88.7	41.1	-77.3	9.9
2026-01-05 00:18:39.570414	89.2	41.1	-77.1	8.7
2026-01-05 00:18:40.704325	89.7	41.2	-77.0	8.3
2026-01-05 00:18:41.837948	90.3	41.2	-76.2	8.9
2026-01-05 00:18:42.971485	90.8	41.3	-77.2	8.9
2026-01-05 00:18:44.105505	91.4	41.3	-77.2	10.5
2026-01-05 00:18:45.240519	91.9	41.3	-76.5	8.8
2026-01-05 00:18:46.378734	92.5	41.3	-76.1	7.3
2026-01-05 00:18:47.511606	93.0	41.4	-77.3	10.4
2026-01-05 00:18:48.647331	93.6	41.4	-77.1	10.2
2026-01-05 00:18:49.781256	94.2	41.4	-76.7	5.6
2026-01-05 00:18:50.914886	94.7	41.4	-77.4	9.7
2026-01-05 00:18:52.050485	95.3	41.4	-77.0	8.8
2026-01-05 00:18:53.184395	95.8	41.4	-77.5	9.9
2026-01-05 00:18:54.317889	96.4	41.5	-77.2	9.5
2026-01-05 00:18:55.456037	96.9	41.5	-77.2	7.4
2026-01-05 00:18:56.593178	97.5	41.5	-77.1	9.4
2026-01-05 00:18:57.725573	98.1	41.5	-76.8	5.9
2026-01-05 00:18:58.861713	98.6	41.4	-77.5	9.0
2026-01-05 00:18:59.994240	99.2	41.4	-77.6	8.3
2026-01-05 00:19:01.129963	99.7	41.4	-77.0	6.7
2026-01-05 00:19:02.263884	100.3	41.4	-77.7	7.0
2026-01-05 00:19:03.396348	100.8	41.4	-77.8	8.9
2026-01-05 00:19:04.530727	101.4	41.4	-78.1	8.1
2026-01-05 00:19:05.667826	101.9	41.4	-78.1	8.9
2026-01-05 00:19:06.803146	102.5	41.3	-77.7	8.9
2026-01-05 00:19:07.934602	103.0	41.3	-77.6	7.9
2026-01-05 00:19:09.068497	103.6	41.3	-77.6	6.9
2026-01-05 00:19:10.202683	104.1	41.2	-78.4	8.2
2026-01-05 00:19:11.337823	104.7	41.2	-77.6	6.4
2026-01-05 00:19:12.471734	105.2	41.2	-77.7	7.9
2026-01-05 00:19:13.606200	105.8	41.1	-77.8	9.3
2026-01-05 00:19:14.739249	106.3	41.1	-77.8	8.4
2026-01-05 00:19:15.872226	106.9	41.0	-78.3	10.0
2026-01-05 00:19:17.007360	107.4	41.0	-78.4	8.9
2026-01-05 00:19:18.137760	107.9	40.9	-78.5	10.0
2026-01-05 00:19:19.270960	108.5	40.8	-78.1	8.3
2026-01-05 00:19:20.407427	109.0	40.8	-78.9	10.3
2026-01-05 00:19:21.544664	109.6	40.7	-78.7	9.3
2026-01-05 00:19:22.683002	110.1	40.7	-79.0	10.0
2026-01-05 00:19:23.823258	110.6	40.6	-78.3	9.1
2026-01-05 00:19:24.957640	111.2	40.5	-79.3	10.0
2026-01-05 00:19:26.092734	111.7	40.5	-79.1	10.0
2026-01-05 00:19:27.226203	112.2	40.4	-79.0	10.4
2026-01-05 00:19:28.360734	112.7	40.3	-78.8	6.6
2026-01-05 00:19:29.495763	113.2	40.2	-78.9	8.7
2026-01-05 00:19:30.631450	113.8	40.1	-79.1	8.5
2026-01-05 00:19:31.765671	114.3	40.1	-79.1	9.7
2026-01-05 00:19:32.900888	114.8	40.0	-78.9	7.2
2026-01-05 00:19:34.033932	115.3	39.9	-78.7	8.8
2026-01-05 00:19:35.171562	115.8	39.8	-78.8	9.2
2026-01-05 00:19:36.308001	116.3	39.7	-78.4	8.4
2026-01-05 00:19:37.442241	116.8	39.6	-78.6	10.7
2026-01-05 00:19:38.576484	117.3	39.5	-78.8	11.2
2026-01-05 00:19:39.710605	117.8	39.4	-78.5	10.9
2026-01-05 00:19:40.846609	118.3	39.3	-79.0	11.2
2026-01-05 00:19:41.980525	118.8	39.2	-78.3	10.8
2026-01-05 00:19:43.116679	119.2	39.1	-78.4	10.3
2026-01-05 00:19:44.252953	119.7	39.0	-78.7	11.3
2026-01-05 00:19:45.387813	120.2	38.9	-78.6	11.6
2026-01-05 00:19:46.523519	120.7	38.8	-78.3	11.0
2026-01-05 00:19:47.658226	121.1	38.6	-78.7	11.1
2026-01-05 00:19:48.792774	121.6	38.5	-78.6	12.2
2026-01-05 00:19:49.930442	122.1	38.4	-78.9	11.1
2026-01-05 00:19:51.070009	122.5	38.3	-78.4	11.4
2026-01-05 00:19:52.210882	123.0	38.2	-79.0	12.0
2026-01-05 00:19:53.348393	123.5	38.0	-78.8	11.4
2026-01-05 00:19:54.487543	123.9	37.9	-79.2	12.1
2026-01-05 00:19:55.622280	124.4	37.8	-79.0	12.3
2026-01-05 00:19:56.761754	124.8	37.7	-78.8	11.9
2026-01-05 00:19:57.900388	125.2	37.5	-78.8	11.1
2026-01-05 00:19:59.037218	125.7	37.4	-78.8	11.7
2026-01-05 00:20:00.174953	126.1	37.3	-79.0	11.9
2026-01-05 00:20:01.316262	126.6	37.1	-78.8	11.8
2026-01-05 00:20:02.455504	127.0	37.0	-78.6	12.6
2026-01-05 00:20:03.592925	127.4	36.9	-79.0	12.2
2026-01-05 00:20:04.729446	127.8	36.7	-78.9	12.4
2026-01-05 00:20:05.870837	128.3	36.6	-78.7	12.5
2026-01-05 00:20:07.008316	128.7	36.5	-78.6	12.5
2026-01-05 00:20:08.144372	129.1	36.3	-78.4	11.2
2026-01-05 00:20:09.284365	129.5	36.2	-78.3	12.6
2026-01-05 00:20:10.421537	129.9	36.1	-78.5	12.4
2026-01-05 00:20:11.559212	130.3	35.9	-78.6	12.1
2026-01-05 00:20:12.701333	130.7	35.8	-78.5	12.3
2026-01-05 00:20:13.837651	131.1	35.6	-78.6	12.0
2026-01-05 00:20:14.978727	131.5	35.5	-78.5	12.7
2026-01-05 00:20:16.115659	131.9	35.3	-78.2	11.9
2026-01-05 00:20:17.253099	132.2	35.2	-78.3	11.6
2026-01-05 00:20:18.388760	132.6	35.0	-78.6	11.8
2026-01-05 00:20:19.527342	133.0	34.9	-78.4	12.4
2026-01-05 00:20:20.664620	133.4	34.7	-78.5	12.9
2026-01-05 00:20:21.802146	133.7	34.6	-78.3	12.5
2026-01-05 00:20:22.939643	134.1	34.4	-78.4	12.8
2026-01-05 00:20:24.077021	134.5	34.3	-78.6	12.6
2026-01-05 00:20:25.217997	134.8	34.1	-78.4	12.9
2026-01-05 00:20:26.356152	135.2	34.0	-78.7	12.9
2026-01-05 00:20:27.494472	135.6	33.8	-78.4	12.3
2026-01-05 00:20:28.632373	135.9	33.7	-78.6	11.9
2026-01-05 00:20:29.769494	136.3	33.5	-78.6	12.7
2026-01-05 00:20:30.908874	136.6	33.4	-78.9	12.7
2026-01-05 00:20:32.047183	136.9	33.2	-78.7	12.5
2026-01-05 00:20:33.186394	137.3	33.1	-78.3	11.9
2026-01-05 00:20:34.323772	137.6	32.9	-78.7	13.3
2026-01-05 00:20:35.462745	137.9	32.8	-78.4	12.4
2026-01-05 00:20:36.599472	138.3	32.6	-78.5	12.3
2026-01-05 00:20:37.735129	138.6	32.5	-78.3	11.7
2026-01-05 00:20:38.869938	138.9	32.3	-78.7	12.3
2026-01-05 00:20:40.005325	139.2	32.2	-78.8	12.8
2026-01-05 00:20:41.140910	139.6	32.0	-78.6	13.5
2026-01-05 00:20:42.276558	139.9	31.9	-78.6	13.3
2026-01-05 00:20:43.411387	140.2	31.7	-78.6	13.6
2026-01-05 00:20:44.547622	140.5	31.5	-78.4	13.1
2026-01-05 00:20:45.683361	140.8	31.4	-78.6	13.2
2026-01-05 00:20:46.819495	141.1	31.2	-78.4	13.5
2026-01-05 00:20:47.952754	141.4	31.1	-78.0	8.9
2026-01-05 00:20:49.089204	141.7	30.9	-78.6	13.8
2026-01-05 00:20:50.230264	142.0	30.8	-78.1	12.8
2026-01-05 00:20:51.365390	142.3	30.6	-78.6	11.8
2026-01-05 00:20:52.500769	142.6	30.5	-78.3	11.8
2026-01-05 00:20:53.634006	142.8	30.3	-78.6	13.4
2026-01-05 00:20:54.767986	143.1	30.1	-79.0	13.4
2026-01-05 00:20:55.901733	143.4	30.0	-78.7	11.5
2026-01-05 00:20:57.037419	143.7	29.8	-78.8	13.4
2026-01-05 00:20:58.172991	144.0	29.7	-78.6	11.8
2026-01-05 00:20:59.309479	144.2	29.5	-78.5	12.3
2026-01-05 00:21:00.443342	144.5	29.4	-78.2	12.2
2026-01-05 00:21:01.578682	144.8	29.2	-78.2	12.6
2026-01-05 00:21:02.714777	145.0	29.1	-78.3	11.8
2026-01-05 00:21:03.849492	145.3	28.9	-78.0	12.3
2026-01-05 00:21:04.982674	145.6	28.8	-78.1	13.2
2026-01-05 00:21:06.115257	145.8	28.6	-78.6	12.6
2026-01-05 00:21:07.248497	146.1	28.5	-78.5	13.1
2026-01-05 00:21:08.382510	146.3	28.3	-78.4	12.8
2026-01-05 00:21:09.516105	146.6	28.2	-78.3	12.4
2026-01-05 00:21:10.650254	146.8	28.0	-78.5	13.0
2026-01-05 00:21:11.783678	147.1	27.8	-78.0	11.9
2026-01-05 00:21:12.915968	147.3	27.7	-78.6	11.3
2026-01-05 00:21:14.050971	147.5	27.5	-78.7	12.1
2026-01-05 00:21:15.184360	147.8	27.4	-78.7	12.5
2026-01-05 00:21:16.319154	148.0	27.2	-79.1	12.4
2026-01-05 00:21:17.452938	148.3	27.1	-78.9	12.3
2026-01-05 00:21:18.586161	148.5	26.9	-78.4	12.5
2026-01-05 00:21:19.720155	148.7	26.8	-78.9	12.7
2026-01-05 00:21:20.852111	148.9	26.6	-78.6	12.7
2026-01-05 00:21:21.986796	149.2	26.5	-78.9	12.8
2026-01-05 00:21:23.118897	149.4	26.4	-79.2	12.8
2026-01-05 00:21:24.251906	149.6	26.2	-78.9	12.8
2026-01-05 00:21:25.385260	149.8	26.1	-78.9	12.4
2026-01-05 00:21:26.518073	150.1	25.9	-79.1	11.0
2026-01-05 00:21:27.656544	150.3	25.8	-78.6	11.7
2026-01-05 00:21:28.790774	150.5	25.6	-79.4	12.8
2026-01-05 00:21:29.925757	150.7	25.5	-79.0	12.9
2026-01-05 00:21:31.061453	150.9	25.3	-79.1	12.6
2026-01-05 00:21:32.193409	151.1	25.2	-79.0	13.3
2026-01-05 00:21:33.325980	151.3	25.0	-78.9	12.8
2026-01-05 00:21:34.461046	151.5	24.9	-78.1	9.1
2026-01-05 00:21:35.593938	151.7	24.7	-78.8	13.0
2026-01-05 00:21:36.726976	151.9	24.6	-79.0	12.8
2026-01-05 00:21:37.858497	152.1	24.5	-78.8	10.8
2026-01-05 00:21:38.991799	152.3	24.3	-79.0	8.9
2026-01-05 00:21:40.125139	152.5	24.2	-78.1	9.9
2026-01-05 00:21:41.262449	152.7	24.0	-78.7	12.5
2026-01-05 00:21:42.400495	152.9	23.9	-78.8	12.9
2026-01-05 00:21:43.535865	153.1	23.7	-78.4	12.5
2026-01-05 00:21:44.675422	153.3	23.6	-78.7	12.1
2026-01-05 00:21:45.813163	153.5	23.5	-78.2	12.5
2026-01-05 00:21:46.952219	153.7	23.3	-78.4	12.4
2026-01-05 00:21:48.090439	153.8	23.2	-78.5	12.3
2026-01-05 00:21:49.229522	154.0	23.0	-78.6	9.4
2026-01-05 00:21:50.366603	154.2	22.9	-78.5	11.9
2026-01-05 00:21:51.505433	154.4	22.8	-78.4	12.3
2026-01-05 00:21:52.642040	154.6	22.6	-78.6	12.6
2026-01-05 00:21:53.780839	154.7	22.5	-78.5	12.7
2026-01-05 00:21:54.921027	154.9	22.4	-78.1	12.5
2026-01-05 00:21:56.057374	155.1	22.2	-78.7	12.5
2026-01-05 00:21:57.194373	155.3	22.1	-78.6	12.7
2026-01-05 00:21:58.328712	155.4	22.0	-78.5	12.8
2026-01-05 00:21:59.464140	155.6	21.8	-78.5	12.1
2026-01-05 00:22:00.602273	155.8	21.7	-78.4	10.5
2026-01-05 00:22:01.739888	155.9	21.5	-78.8	11.6
2026-01-05 00:22:02.879216	156.1	21.4	-78.6	11.6
2026-01-05 00:22:04.018908	156.3	21.3	-78.4	12.5
2026-01-05 00:22:05.156911	156.4	21.1	-78.6	11.8
2026-01-05 00:22:06.295391	156.6	21.0	-78.5	11.8
2026-01-05 00:22:07.432065	156.8	20.9	-78.2	12.2
2026-01-05 00:22:08.568904	156.9	20.8	-78.5	11.8
2026-01-05 00:22:09.705217	157.1	20.6	-78.5	11.9
2026-01-05 00:22:10.842964	157.2	20.5	-78.4	10.4
2026-01-05 00:22:11.980044	157.4	20.4	-78.7	11.5
2026-01-05 00:22:13.118349	157.5	20.2	-78.6	11.1
2026-01-05 00:22:14.256091	157.7	20.1	-78.6	11.7
2026-01-05 00:22:15.392830	157.8	20.0	-78.6	11.7
2026-01-05 00:22:16.531727	158.0	19.8	-78.6	10.9
2026-01-05 00:22:17.667444	158.1	19.7	-78.3	11.6
2026-01-05 00:22:18.803493	158.3	19.6	-78.5	11.6
2026-01-05 00:22:19.941300	158.4	19.5	-78.7	12.4
2026-01-05 00:22:21.078601	158.6	19.3	-78.4	11.0
2026-01-05 00:22:22.216911	158.7	19.2	-78.3	11.5
2026-01-05 00:22:23.355463	158.9	19.1	-78.3	10.7
2026-01-05 00:22:24.491239	159.0	19.0	-78.5	11.0
2026-01-05 00:22:25.629647	159.1	18.8	-79.0	10.3
2026-01-05 00:22:26.768229	159.3	18.7	-76.9	6.0
2026-01-05 00:22:27.906829	159.4	18.6	-79.0	11.2
2026-01-05 00:22:29.046773	159.6	18.5	-78.8	11.5
2026-01-05 00:22:30.183513	159.7	18.3	-78.8	10.6
2026-01-05 00:22:31.323548	159.8	18.2	-78.9	9.5
2026-01-05 00:22:32.461960	160.0	18.1	-78.7	11.0
2026-01-05 00:22:33.600311	160.1	18.0	-78.8	10.9
2026-01-05 00:22:34.735005	160.2	17.9	-79.0	11.0
2026-01-05 00:22:35.874414	160.4	17.7	-79.0	9.8
2026-01-05 00:22:37.014308	160.5	17.6	-79.1	9.8
2026-01-05 00:22:38.147193	160.6	17.5	-79.3	10.9
2026-01-05 00:22:39.282363	160.7	17.4	-79.3	10.8
2026-01-05 00:22:40.419355	160.9	17.3	-79.1	10.9
2026-01-05 00:22:41.550900	161.0	17.2	-79.2	10.5
2026-01-05 00:22:42.688308	161.1	17.0	-79.0	10.1
2026-01-05 00:22:43.823130	161.2	16.9	-79.5	10.0
2026-01-05 00:22:44.957581	161.4	16.8	-79.3	9.1
2026-01-05 00:22:46.097736	161.5	16.7	-79.5	10.2
2026-01-05 00:22:47.236838	161.6	16.6	-79.5	9.9
2026-01-05 00:22:48.375551	161.7	16.5	-79.5	8.7
2026-01-05 00:22:49.513615	161.8	16.3	-78.5	9.1
2026-01-05 00:22:50.653451	162.0	16.2	-79.1	9.3
2026-01-05 00:22:51.793033	162.1	16.1	-78.7	8.6
2026-01-05 00:22:52.929848	162.2	16.0	-78.8	8.7
2026-01-05 00:22:54.069382	162.3	15.9	-78.5	8.0
2026-01-05 00:22:55.207101	162.4	15.8	-79.2	9.4
2026-01-05 00:22:56.340750	162.5	15.7	-78.8	8.9
2026-01-05 00:22:57.472712	162.7	15.5	-79.1	8.0
2026-01-05 00:22:58.604382	162.8	15.4	-79.1	7.9
2026-01-05 00:22:59.744232	162.9	15.3	-78.9	8.5
2026-01-05 00:23:00.877793	163.0	15.2	-78.7	6.9
2026-01-05 00:23:02.014390	163.1	15.1	-78.7	8.6
2026-01-05 00:23:03.149047	163.2	15.0	-78.9	7.6
2026-01-05 00:23:04.289779	163.3	14.9	-78.8	8.2
2026-01-05 00:23:05.425749	163.4	14.8	-79.0	9.3
2026-01-05 00:23:06.563971	163.5	14.7	-79.0	8.4
2026-01-05 00:23:07.701724	163.6	14.6	-78.9	8.8
2026-01-05 00:23:08.837281	163.8	14.5	-78.9	8.4
2026-01-05 00:23:09.973915	163.9	14.3	-79.1	9.1
2026-01-05 00:23:11.110425	164.0	14.2	-78.7	8.4
2026-01-05 00:23:12.246186	164.1	14.1	-79.1	8.8
2026-01-05 00:23:13.384963	164.2	14.0	-79.0	8.0
2026-01-05 00:23:14.523255	164.3	13.9	-78.7	8.5
2026-01-05 00:23:15.661967	164.4	13.8	-79.1	8.7
2026-01-05 00:23:16.800830	164.5	13.7	-79.0	8.2
2026-01-05 00:23:17.935719	164.6	13.6	-79.3	7.7
2026-01-05 00:23:19.074679	164.7	13.5	-79.5	7.2
2026-01-05 00:23:20.212481	164.8	13.4	-79.4	8.2
2026-01-05 00:23:21.347747	164.9	13.3	-79.2	7.9
2026-01-05 00:23:22.483148	165.0	13.2	-79.0	8.7
2026-01-05 00:23:23.618761	165.1	13.1	-79.5	6.9
2026-01-05 00:23:24.753575	165.2	13.0	-78.8	8.3
2026-01-05 00:23:25.889035	165.3	12.9	-79.0	8.6
2026-01-05 00:23:27.023161	165.3	12.8	-79.0	8.0
2026-01-05 00:23:28.156812	165.4	12.7	-78.8	8.8
2026-01-05 00:23:29.292043	165.5	12.6	-79.0	8.5
2026-01-05 00:23:30.425693	165.6	12.5	-79.2	8.7
2026-01-05 00:23:31.559499	165.7	12.4	-79.0	8.5
2026-01-05 00:23:32.692972	165.8	12.3	-79.5	7.7
2026-01-05 00:23:33.825339	165.9	12.2	-79.2	7.5
2026-01-05 00:23:34.960809	166.0	12.1	-79.2	7.7
2026-01-05 00:23:36.094131	166.1	12.0	-78.9	8.6
2026-01-05 00:23:37.228495	166.2	11.9	-79.4	7.3
2026-01-05 00:23:38.361750	166.3	11.8	-79.3	7.9
2026-01-05 00:23:39.496737	166.3	11.7	-79.2	7.6
2026-01-05 00:23:40.631954	166.4	11.6	-79.4	6.5
2026-01-05 00:23:41.765147	166.5	11.5	-79.2	8.1
2026-01-05 00:23:42.900052	166.6	11.4	-79.5	7.0
2026-01-05 00:23:44.033252	166.7	11.3	-79.0	7.6
2026-01-05 00:23:45.166723	166.8	11.2	-79.7	6.3
2026-01-05 00:23:46.304455	166.9	11.1	-78.7	7.1
2026-01-05 00:23:47.435814	166.9	11.0	-78.9	7.1
2026-01-05 00:23:48.569918	167.0	10.9	-79.6	7.8
2026-01-05 00:23:49.704741	167.1	10.8	-79.4	7.9
2026-01-05 00:23:50.836754	167.2	10.7	-80.0	5.5
2026-01-05 00:23:51.969798	167.3	10.6	-82.1	0.0
2026-01-05 00:23:53.101717	167.4	10.5	-82.4	0.0
2026-01-05 00:23:54.235936	167.4	10.4	-83.1	0.0
2026-01-05 00:23:55.373399	167.5	10.4	-83.8	0.0
2026-01-05 00:23:56.509525	167.6	10.3	-84.4	0.0
2026-01-05 00:23:57.642133	167.7	10.2	-85.3	0.0
2026-01-05 00:23:58.776786	167.8	10.1	-86.2	0.0
2026-01-05 00:23:59.909432	167.8	10.0	-86.3	0.0
#Closed at: 2026-01-05 00:13:45.022728