passes_logs/2026/01/05/planumMaritime01/planumMaritime01__20260105_064604_METOP-C_rec.log

#Pass ID: 20260105_064604_METOP-C
#Satellite: METOP-C
#Configuration: METOP-C
#Start time: 2026-01-05 06:46:09.744213

#LorettStation: 1.0.0 05.05.2024
#Station: planumMaritime01
#Location: 37.49445 lon 55.92918 lat
#TLE: 1 43689U 18087A   26004.62757632  .00000231  00000+0  12556-3 0  9991
#TLE: 2 43689  98.6895  67.0425 0000107 306.6752  53.4416 14.21494733371594

#Time	Az	El	Level	SNR
2026-01-05 06:46:11.923902	29.6	10.2	-74.7	0.0
2026-01-05 06:46:13.048885	29.7	10.3	-71.0	0.0
2026-01-05 06:46:14.176406	29.8	10.3	-71.0	0.0
2026-01-05 06:46:15.302207	29.9	10.4	-70.7	0.0
2026-01-05 06:46:16.428577	30.0	10.5	-67.1	0.0
2026-01-05 06:46:17.554804	30.1	10.6	-67.4	0.0
2026-01-05 06:46:18.681507	30.2	10.7	-64.2	0.0
2026-01-05 06:46:19.807902	30.3	10.8	-59.6	0.0
2026-01-05 06:46:20.933178	30.4	10.9	-64.6	0.0
2026-01-05 06:46:22.059654	30.5	11.0	-62.4	0.0
2026-01-05 06:46:23.186567	30.6	11.0	-62.6	0.0
2026-01-05 06:46:24.312405	30.7	11.1	-61.6	0.0
2026-01-05 06:46:25.438583	30.8	11.2	-62.2	0.0
2026-01-05 06:46:26.566444	30.9	11.3	-58.9	0.0
2026-01-05 06:46:27.692215	31.0	11.4	-59.9	0.0
2026-01-05 06:46:28.820135	31.1	11.5	-60.9	0.0
2026-01-05 06:46:29.946572	31.2	11.6	-61.8	0.0
2026-01-05 06:46:31.074424	31.3	11.7	-61.3	0.0
2026-01-05 06:46:32.202391	31.4	11.8	-61.6	0.0
2026-01-05 06:46:33.327289	31.5	11.9	-54.7	0.0
2026-01-05 06:46:34.453299	31.6	12.0	-59.3	0.0
2026-01-05 06:46:35.580027	31.7	12.0	-59.0	0.0
2026-01-05 06:46:36.707965	31.8	12.1	-59.9	0.0
2026-01-05 06:46:37.835996	31.9	12.2	-58.8	0.0
2026-01-05 06:46:38.961397	32.0	12.3	-62.0	0.0
2026-01-05 06:46:40.088576	32.2	12.4	-59.4	0.0
2026-01-05 06:46:41.214281	32.3	12.5	-62.2	0.0
2026-01-05 06:46:42.340786	32.4	12.6	-61.4	0.0
2026-01-05 06:46:43.469331	32.5	12.7	-58.8	0.0
2026-01-05 06:46:44.596802	32.6	12.8	-60.7	0.0
2026-01-05 06:46:45.722718	32.7	12.9	-60.4	0.0
2026-01-05 06:46:46.850690	32.8	13.0	-60.6	0.0
2026-01-05 06:46:47.976048	32.9	13.1	-61.8	0.0
2026-01-05 06:46:49.102157	33.1	13.2	-60.4	0.0
2026-01-05 06:46:50.229568	33.2	13.3	-60.8	0.0
2026-01-05 06:46:51.356410	33.3	13.4	-60.7	0.0
2026-01-05 06:46:52.483919	33.4	13.5	-62.3	0.0
2026-01-05 06:46:53.609565	33.5	13.6	-62.2	0.0
2026-01-05 06:46:54.737337	33.7	13.7	-62.1	0.0
2026-01-05 06:46:55.863525	33.8	13.7	-60.9	0.0
2026-01-05 06:46:56.990237	33.9	13.8	-61.5	0.0
2026-01-05 06:46:58.119140	34.0	13.9	-61.6	0.0
2026-01-05 06:46:59.243213	34.1	14.0	-62.3	0.0
2026-01-05 06:47:00.370526	34.3	14.1	-62.4	0.0
2026-01-05 06:47:01.498611	34.4	14.2	-60.6	0.0
2026-01-05 06:47:02.622721	34.5	14.3	-61.2	0.0
2026-01-05 06:47:03.751309	34.6	14.4	-61.8	0.0
2026-01-05 06:47:04.877787	34.8	14.5	-61.8	0.0
2026-01-05 06:47:06.004548	34.9	14.6	-60.8	0.0
2026-01-05 06:47:07.129732	35.0	14.7	-60.2	0.0
2026-01-05 06:47:08.256234	35.1	14.8	-60.3	0.0
2026-01-05 06:47:09.383620	35.3	14.9	-59.9	0.0
2026-01-05 06:47:10.509498	35.4	15.0	-61.2	0.0
2026-01-05 06:47:11.635487	35.5	15.1	-61.5	0.0
2026-01-05 06:47:12.761853	35.7	15.2	-62.2	0.0
2026-01-05 06:47:13.889287	35.8	15.3	-60.7	0.0
2026-01-05 06:47:15.014400	35.9	15.4	-62.4	0.0
2026-01-05 06:47:16.139621	36.1	15.5	-62.4	0.0
2026-01-05 06:47:17.266622	36.2	15.6	-61.6	0.0
2026-01-05 06:47:18.393261	36.3	15.7	-62.5	0.0
2026-01-05 06:47:19.520943	36.5	15.9	-63.9	0.0
2026-01-05 06:47:20.649814	36.6	16.0	-63.6	0.0
2026-01-05 06:47:21.776755	36.8	16.1	-63.1	0.0
2026-01-05 06:47:22.903555	36.9	16.2	-62.5	0.0
2026-01-05 06:47:24.029948	37.0	16.3	-64.2	0.0
2026-01-05 06:47:25.158368	37.2	16.4	-63.8	0.0
2026-01-05 06:47:26.283724	37.3	16.5	-63.8	0.0
2026-01-05 06:47:27.410893	37.5	16.6	-63.7	0.0
2026-01-05 06:47:28.536421	37.6	16.7	-63.3	0.0
2026-01-05 06:47:29.662381	37.8	16.8	-63.3	0.0
2026-01-05 06:47:30.788251	37.9	16.9	-63.8	0.0
2026-01-05 06:47:31.915370	38.1	17.0	-63.4	0.0
2026-01-05 06:47:33.043233	38.2	17.1	-64.9	0.0
2026-01-05 06:47:34.171035	38.4	17.2	-64.5	0.0
2026-01-05 06:47:35.297967	38.5	17.3	-64.4	0.0
2026-01-05 06:47:36.423263	38.7	17.4	-64.6	0.0
2026-01-05 06:47:37.550399	38.8	17.5	-62.7	0.0
2026-01-05 06:47:38.677285	39.0	17.6	-62.5	0.0
2026-01-05 06:47:39.804130	39.1	17.8	-64.2	0.0
2026-01-05 06:47:40.932602	39.3	17.9	-64.8	0.0
2026-01-05 06:47:42.061428	39.4	18.0	-64.4	0.0
2026-01-05 06:47:43.186044	39.6	18.1	-65.4	0.0
2026-01-05 06:47:44.313626	39.8	18.2	-65.3	0.0
2026-01-05 06:47:45.439746	39.9	18.3	-64.2	0.0
2026-01-05 06:47:46.565593	40.1	18.4	-64.0	0.0
2026-01-05 06:47:47.691522	40.3	18.5	-64.5	0.0
2026-01-05 06:47:48.820268	40.4	18.6	-65.7	0.0
2026-01-05 06:47:49.946000	40.6	18.7	-63.7	0.0
2026-01-05 06:47:51.072624	40.7	18.8	-65.1	0.0
2026-01-05 06:47:52.198499	40.9	19.0	-65.3	0.0
2026-01-05 06:47:53.325607	41.1	19.1	-65.8	0.0
2026-01-05 06:47:54.453913	41.3	19.2	-67.1	0.0
2026-01-05 06:47:55.580758	41.4	19.3	-66.3	0.0
2026-01-05 06:47:56.707642	41.6	19.4	-65.7	0.0
2026-01-05 06:47:57.834616	41.8	19.5	-65.8	0.0
2026-01-05 06:47:58.960646	42.0	19.6	-67.4	0.0
2026-01-05 06:48:00.086568	42.1	19.7	-68.1	0.0
2026-01-05 06:48:01.213268	42.3	19.9	-66.3	0.0
2026-01-05 06:48:02.340228	42.5	20.0	-66.0	0.0
2026-01-05 06:48:03.468256	42.7	20.1	-65.0	0.0
2026-01-05 06:48:04.596510	42.8	20.2	-66.4	0.0
2026-01-05 06:48:05.723213	43.0	20.3	-65.7	0.0
2026-01-05 06:48:06.851680	43.2	20.4	-66.6	0.0
2026-01-05 06:48:07.978918	43.4	20.5	-66.0	0.0
2026-01-05 06:48:09.106453	43.6	20.7	-67.5	0.0
2026-01-05 06:48:10.233846	43.8	20.8	-65.4	0.0
2026-01-05 06:48:11.361637	44.0	20.9	-67.1	0.0
2026-01-05 06:48:12.491523	44.2	21.0	-67.7	0.0
2026-01-05 06:48:13.617029	44.4	21.1	-65.7	0.0
2026-01-05 06:48:14.743023	44.5	21.2	-65.7	0.0
2026-01-05 06:48:15.869741	44.7	21.4	-65.2	0.0
2026-01-05 06:48:16.994917	44.9	21.5	-66.6	0.0
2026-01-05 06:48:18.121037	45.1	21.6	-67.2	0.0
2026-01-05 06:48:19.246369	45.3	21.7	-66.7	0.0
2026-01-05 06:48:20.372988	45.5	21.8	-68.2	0.0
2026-01-05 06:48:21.500566	45.7	21.9	-67.9	0.0
2026-01-05 06:48:22.628603	46.0	22.1	-65.3	0.0
2026-01-05 06:48:23.756293	46.2	22.2	-67.5	0.0
2026-01-05 06:48:24.882119	46.4	22.3	-68.2	0.0
2026-01-05 06:48:26.008452	46.6	22.4	-67.3	0.0
2026-01-05 06:48:27.134880	46.8	22.5	-65.5	0.0
2026-01-05 06:48:28.261853	47.0	22.6	-66.5	0.0
2026-01-05 06:48:29.389236	47.2	22.8	-66.8	0.0
2026-01-05 06:48:30.517220	47.4	22.9	-66.9	0.0
2026-01-05 06:48:31.643314	47.6	23.0	-67.8	0.0
2026-01-05 06:48:32.766407	47.9	23.1	-66.7	0.0
2026-01-05 06:48:33.892080	48.1	23.2	-66.8	0.0
2026-01-05 06:48:35.019594	48.3	23.4	-66.8	0.0
2026-01-05 06:48:36.146436	48.5	23.5	-68.7	0.0
2026-01-05 06:48:37.271298	48.8	23.6	-67.4	0.0
2026-01-05 06:48:38.401259	49.0	23.7	-67.3	0.0
2026-01-05 06:48:39.528318	49.2	23.8	-69.9	0.0
2026-01-05 06:48:40.654645	49.4	24.0	-69.2	0.0
2026-01-05 06:48:41.781122	49.7	24.1	-67.9	0.0
2026-01-05 06:48:42.909211	49.9	24.2	-67.6	0.0
2026-01-05 06:48:44.039190	50.1	24.3	-68.2	0.0
2026-01-05 06:48:45.166665	50.4	24.4	-68.2	0.0
2026-01-05 06:48:46.292496	50.6	24.6	-68.4	0.0
2026-01-05 06:48:47.418215	50.9	24.7	-68.9	0.5
2026-01-05 06:48:48.544751	51.1	24.8	-68.2	0.0
2026-01-05 06:48:49.670839	51.3	24.9	-69.4	0.8
2026-01-05 06:48:50.797923	51.6	25.0	-68.6	0.0
2026-01-05 06:48:51.926552	51.8	25.2	-69.1	0.0
2026-01-05 06:48:53.052469	52.1	25.3	-68.2	0.0
2026-01-05 06:48:54.179599	52.3	25.4	-67.5	0.0
2026-01-05 06:48:55.306979	52.6	25.5	-67.5	0.0
2026-01-05 06:48:56.432118	52.9	25.6	-68.0	0.0
2026-01-05 06:48:57.559838	53.1	25.8	-67.0	0.0
2026-01-05 06:48:58.684950	53.4	25.9	-67.1	0.0
2026-01-05 06:48:59.811855	53.6	26.0	-66.7	0.0
2026-01-05 06:49:00.939187	53.9	26.1	-68.6	0.0
2026-01-05 06:49:02.064809	54.2	26.2	-66.9	0.0
2026-01-05 06:49:03.194880	54.4	26.4	-68.9	1.0
2026-01-05 06:49:04.320968	54.7	26.5	-67.9	0.2
2026-01-05 06:49:05.447598	55.0	26.6	-68.2	0.0
2026-01-05 06:49:06.573415	55.3	26.7	-68.7	0.0
2026-01-05 06:49:07.699481	55.5	26.8	-67.7	0.0
2026-01-05 06:49:08.825817	55.8	26.9	-68.5	0.0
2026-01-05 06:49:09.952551	56.1	27.1	-68.7	0.0
2026-01-05 06:49:11.078590	56.4	27.2	-69.2	0.0
2026-01-05 06:49:12.207143	56.6	27.3	-69.8	0.0
2026-01-05 06:49:13.334669	56.9	27.4	-70.3	0.3
2026-01-05 06:49:14.461733	57.2	27.5	-69.8	0.0
2026-01-05 06:49:15.586816	57.5	27.7	-70.3	0.0
2026-01-05 06:49:16.711191	57.8	27.8	-70.4	2.0
2026-01-05 06:49:17.838313	58.1	27.9	-70.1	0.0
2026-01-05 06:49:18.965191	58.4	28.0	-70.0	1.7
2026-01-05 06:49:20.090491	58.7	28.1	-70.8	0.0
2026-01-05 06:49:21.216323	59.0	28.2	-70.3	2.0
2026-01-05 06:49:22.342381	59.3	28.4	-70.3	0.3
2026-01-05 06:49:23.466386	59.6	28.5	-70.2	1.5
2026-01-05 06:49:24.592512	59.9	28.6	-69.8	2.7
2026-01-05 06:49:25.717720	60.2	28.7	-69.7	1.1
2026-01-05 06:49:26.844217	60.5	28.8	-68.6	1.7
2026-01-05 06:49:27.968763	60.8	28.9	-69.4	1.1
2026-01-05 06:49:29.094442	61.2	29.0	-69.6	1.4
2026-01-05 06:49:30.222408	61.5	29.2	-69.7	1.5
2026-01-05 06:49:31.349742	61.8	29.3	-70.4	3.2
2026-01-05 06:49:32.475185	62.1	29.4	-70.2	5.1
2026-01-05 06:49:33.599512	62.4	29.5	-70.8	5.8
2026-01-05 06:49:34.725303	62.8	29.6	-70.1	4.7
2026-01-05 06:49:35.851370	63.1	29.7	-70.8	5.7
2026-01-05 06:49:36.980189	63.4	29.8	-71.1	3.6
2026-01-05 06:49:38.107711	63.8	29.9	-71.2	4.2
2026-01-05 06:49:39.232755	64.1	30.0	-70.6	4.2
2026-01-05 06:49:40.357410	64.4	30.1	-70.4	0.0
2026-01-05 06:49:41.483219	64.8	30.3	-71.4	4.9
2026-01-05 06:49:42.608701	65.1	30.4	-71.4	6.9
2026-01-05 06:49:43.733666	65.5	30.5	-70.9	2.6
2026-01-05 06:49:44.859792	65.8	30.6	-71.0	4.1
2026-01-05 06:49:45.985550	66.2	30.7	-71.2	5.7
2026-01-05 06:49:47.114968	66.5	30.8	-71.9	6.8
2026-01-05 06:49:48.242239	66.9	30.9	-71.6	6.7
2026-01-05 06:49:49.368042	67.2	31.0	-70.6	1.9
2026-01-05 06:49:50.495340	67.6	31.1	-71.8	6.1
2026-01-05 06:49:51.621518	67.9	31.2	-72.3	6.5
2026-01-05 06:49:52.746828	68.3	31.3	-71.8	7.3
2026-01-05 06:49:53.873395	68.7	31.4	-71.7	2.5
2026-01-05 06:49:55.000809	69.0	31.5	-71.9	7.7
2026-01-05 06:49:56.125592	69.4	31.6	-72.3	7.7
2026-01-05 06:49:57.253687	69.8	31.7	-71.3	4.9
2026-01-05 06:49:58.380873	70.2	31.8	-71.4	6.5
2026-01-05 06:49:59.507028	70.5	31.9	-72.5	7.2
2026-01-05 06:50:00.632645	70.9	31.9	-71.2	5.6
2026-01-05 06:50:01.759001	71.3	32.0	-72.4	8.0
2026-01-05 06:50:02.884590	71.7	32.1	-72.4	8.5
2026-01-05 06:50:04.010420	72.1	32.2	-72.5	7.3
2026-01-05 06:50:05.137606	72.4	32.3	-72.1	6.8
2026-01-05 06:50:06.263781	72.8	32.4	-72.7	7.1
2026-01-05 06:50:07.390136	73.2	32.5	-72.1	7.9
2026-01-05 06:50:08.516350	73.6	32.6	-72.6	7.7
2026-01-05 06:50:09.642360	74.0	32.6	-72.1	7.7
2026-01-05 06:50:10.768273	74.4	32.7	-71.8	7.3
2026-01-05 06:50:11.894196	74.8	32.8	-72.4	8.8
2026-01-05 06:50:13.021330	75.2	32.9	-72.6	8.6
2026-01-05 06:50:14.146725	75.6	33.0	-72.3	8.8
2026-01-05 06:50:15.271895	76.0	33.0	-72.7	9.7
2026-01-05 06:50:16.396935	76.4	33.1	-72.8	6.8
2026-01-05 06:50:17.523630	76.8	33.2	-72.7	9.7
2026-01-05 06:50:18.648573	77.2	33.3	-72.0	8.9
2026-01-05 06:50:19.774156	77.6	33.3	-72.4	8.1
2026-01-05 06:50:20.902953	78.1	33.4	-71.9	7.6
2026-01-05 06:50:22.031039	78.5	33.5	-71.8	8.5
2026-01-05 06:50:23.156925	78.9	33.5	-72.2	10.0
2026-01-05 06:50:24.282978	79.3	33.6	-71.7	8.0
2026-01-05 06:50:25.409857	79.7	33.7	-71.7	8.2
2026-01-05 06:50:26.535801	80.1	33.7	-71.6	8.8
2026-01-05 06:50:27.663053	80.6	33.8	-72.3	9.4
2026-01-05 06:50:28.790112	81.0	33.8	-72.1	10.5
2026-01-05 06:50:29.915417	81.4	33.9	-71.9	9.3
2026-01-05 06:50:31.042424	81.8	34.0	-72.6	10.7
2026-01-05 06:50:32.168189	82.3	34.0	-72.3	6.8
2026-01-05 06:50:33.293380	82.7	34.1	-72.1	10.0
2026-01-05 06:50:34.418791	83.1	34.1	-72.5	9.2
2026-01-05 06:50:35.543366	83.6	34.2	-71.6	10.2
2026-01-05 06:50:36.669223	84.0	34.2	-72.6	11.1
2026-01-05 06:50:37.794788	84.4	34.3	-72.5	11.3
2026-01-05 06:50:38.920818	84.9	34.3	-72.5	9.4
2026-01-05 06:50:40.047412	85.3	34.3	-72.1	8.0
2026-01-05 06:50:41.173068	85.8	34.4	-71.9	9.7
2026-01-05 06:50:42.299662	86.2	34.4	-71.0	8.1
2026-01-05 06:50:43.426123	86.6	34.5	-72.0	6.3
2026-01-05 06:50:44.551163	87.1	34.5	-72.4	10.0
2026-01-05 06:50:45.680364	87.5	34.5	-72.2	9.8
2026-01-05 06:50:46.806058	88.0	34.5	-72.1	8.6
2026-01-05 06:50:47.933876	88.4	34.6	-72.6	10.1
2026-01-05 06:50:49.060872	88.9	34.6	-72.7	9.7
2026-01-05 06:50:50.188359	89.3	34.6	-72.2	8.8
2026-01-05 06:50:51.314314	89.8	34.7	-72.6	10.7
2026-01-05 06:50:52.439692	90.2	34.7	-72.6	10.6
2026-01-05 06:50:53.566507	90.6	34.7	-72.5	10.9
2026-01-05 06:50:54.692670	91.1	34.7	-72.1	10.8
2026-01-05 06:50:55.818738	91.5	34.7	-71.6	9.9
2026-01-05 06:50:56.947628	92.0	34.7	-72.2	9.4
2026-01-05 06:50:58.076887	92.4	34.8	-72.6	11.1
2026-01-05 06:50:59.204529	92.9	34.8	-72.3	9.3
2026-01-05 06:51:00.333092	93.3	34.8	-72.0	9.8
2026-01-05 06:51:01.461593	93.8	34.8	-72.1	10.9
2026-01-05 06:51:02.588393	94.3	34.8	-72.5	10.7
2026-01-05 06:51:03.718449	94.7	34.8	-72.2	10.6
2026-01-05 06:51:04.844782	95.2	34.8	-72.0	9.7
2026-01-05 06:51:05.971936	95.6	34.8	-71.9	10.8
2026-01-05 06:51:07.096245	96.1	34.8	-72.4	11.1
2026-01-05 06:51:08.221675	96.5	34.8	-72.5	10.7
2026-01-05 06:51:09.349064	97.0	34.8	-72.0	9.6
2026-01-05 06:51:10.473290	97.4	34.8	-71.4	8.4
2026-01-05 06:51:11.599622	97.9	34.7	-71.4	10.4
2026-01-05 06:51:12.725623	98.3	34.7	-71.2	10.4
2026-01-05 06:51:13.850858	98.8	34.7	-72.0	9.5
2026-01-05 06:51:14.978940	99.2	34.7	-71.4	10.4
2026-01-05 06:51:16.104065	99.7	34.7	-71.9	11.8
2026-01-05 06:51:17.232014	100.1	34.7	-71.3	9.7
2026-01-05 06:51:18.358085	100.5	34.6	-71.0	8.3
2026-01-05 06:51:19.484481	101.0	34.6	-72.1	11.0
2026-01-05 06:51:20.611037	101.4	34.6	-72.0	10.8
2026-01-05 06:51:21.737331	101.9	34.6	-72.2	11.5
2026-01-05 06:51:22.864171	102.3	34.5	-72.4	10.9
2026-01-05 06:51:23.991807	102.8	34.5	-72.4	11.0
2026-01-05 06:51:25.117288	103.2	34.5	-72.1	9.8
2026-01-05 06:51:26.244807	103.7	34.4	-72.2	10.7
2026-01-05 06:51:27.372765	104.1	34.4	-71.6	8.1
2026-01-05 06:51:28.499306	104.5	34.3	-72.0	10.6
2026-01-05 06:51:29.626991	105.0	34.3	-71.6	9.1
2026-01-05 06:51:30.754171	105.4	34.3	-72.1	9.1
2026-01-05 06:51:31.881043	105.9	34.2	-72.3	7.5
2026-01-05 06:51:33.008884	106.3	34.2	-72.2	9.4
2026-01-05 06:51:34.135127	106.7	34.1	-72.8	10.2
2026-01-05 06:51:35.262375	107.2	34.1	-72.2	8.7
2026-01-05 06:51:36.389858	107.6	34.0	-72.2	8.2
2026-01-05 06:51:37.514514	108.0	34.0	-72.1	7.7
2026-01-05 06:51:38.640077	108.5	33.9	-72.4	9.3
2026-01-05 06:51:39.767732	108.9	33.9	-72.1	7.5
2026-01-05 06:51:40.894162	109.3	33.8	-72.1	8.1
2026-01-05 06:51:42.019160	109.7	33.7	-72.1	10.5
2026-01-05 06:51:43.147618	110.2	33.7	-72.2	9.6
2026-01-05 06:51:44.274153	110.6	33.6	-72.3	8.8
2026-01-05 06:51:45.400081	111.0	33.5	-72.3	9.5
2026-01-05 06:51:46.525656	111.4	33.5	-72.0	7.8
2026-01-05 06:51:47.652708	111.8	33.4	-73.0	10.7
2026-01-05 06:51:48.778252	112.2	33.3	-72.9	9.7
2026-01-05 06:51:49.905780	112.7	33.3	-72.4	9.0
2026-01-05 06:51:51.030605	113.1	33.2	-73.1	11.2
2026-01-05 06:51:52.157035	113.5	33.1	-72.8	7.6
2026-01-05 06:51:53.283123	113.9	33.0	-73.2	9.2
2026-01-05 06:51:54.407183	114.3	33.0	-73.4	9.5
2026-01-05 06:51:55.533989	114.7	32.9	-73.2	8.5
2026-01-05 06:51:56.660656	115.1	32.8	-73.7	11.3
2026-01-05 06:51:57.787335	115.5	32.7	-73.3	11.4
2026-01-05 06:51:58.913366	115.9	32.7	-73.0	7.5
2026-01-05 06:52:00.036658	116.3	32.6	-73.3	8.4
2026-01-05 06:52:01.161259	116.7	32.5	-73.3	8.2
2026-01-05 06:52:02.286129	117.1	32.4	-73.4	8.4
2026-01-05 06:52:03.411830	117.5	32.3	-73.6	9.3
2026-01-05 06:52:04.537376	117.8	32.2	-73.9	11.0
2026-01-05 06:52:05.662140	118.2	32.1	-73.2	9.0
2026-01-05 06:52:06.789029	118.6	32.0	-73.7	10.7
2026-01-05 06:52:07.913778	119.0	32.0	-73.7	9.7
2026-01-05 06:52:09.039512	119.4	31.9	-73.7	8.0
2026-01-05 06:52:10.164386	119.8	31.8	-73.6	9.5
2026-01-05 06:52:11.292441	120.1	31.7	-73.7	8.7
2026-01-05 06:52:12.419555	120.5	31.6	-73.5	8.6
2026-01-05 06:52:13.546102	120.9	31.5	-73.5	10.6
2026-01-05 06:52:14.671704	121.2	31.4	-73.7	9.6
2026-01-05 06:52:15.797730	121.6	31.3	-73.6	9.7
2026-01-05 06:52:16.923429	122.0	31.2	-73.7	9.6
2026-01-05 06:52:18.049651	122.3	31.1	-73.7	9.4
2026-01-05 06:52:19.176449	122.7	31.0	-73.6	11.0
2026-01-05 06:52:20.303856	123.1	30.9	-74.0	9.6
2026-01-05 06:52:21.430737	123.4	30.8	-73.8	10.9
2026-01-05 06:52:22.558689	123.8	30.7	-73.7	10.9
2026-01-05 06:52:23.684473	124.1	30.6	-73.8	10.6
2026-01-05 06:52:24.810702	124.5	30.5	-73.7	10.6
2026-01-05 06:52:25.937333	124.8	30.4	-73.9	9.5
2026-01-05 06:52:27.062542	125.2	30.3	-74.1	10.8
2026-01-05 06:52:28.191496	125.5	30.1	-73.9	11.4
2026-01-05 06:52:29.319547	125.8	30.0	-73.7	11.2
2026-01-05 06:52:30.447871	126.2	29.9	-74.0	11.1
2026-01-05 06:52:31.573406	126.5	29.8	-73.7	11.6
2026-01-05 06:52:32.700417	126.8	29.7	-73.8	11.9
2026-01-05 06:52:33.826146	127.2	29.6	-73.5	10.5
2026-01-05 06:52:34.951575	127.5	29.5	-73.7	11.2
2026-01-05 06:52:36.076551	127.8	29.4	-73.7	10.8
2026-01-05 06:52:37.204473	128.2	29.3	-73.7	11.3
2026-01-05 06:52:38.331971	128.5	29.2	-73.6	10.8
2026-01-05 06:52:39.459909	128.8	29.0	-73.6	10.6
2026-01-05 06:52:40.585700	129.1	28.9	-73.6	10.8
2026-01-05 06:52:41.711530	129.4	28.8	-73.7	9.8
2026-01-05 06:52:42.838856	129.7	28.7	-73.5	9.7
2026-01-05 06:52:43.963811	130.1	28.6	-73.6	10.5
2026-01-05 06:52:45.092006	130.4	28.5	-73.4	10.1
2026-01-05 06:52:46.218964	130.7	28.3	-73.8	10.2
2026-01-05 06:52:47.343976	131.0	28.2	-73.6	11.5
2026-01-05 06:52:48.469213	131.3	28.1	-73.7	10.8
2026-01-05 06:52:49.597048	131.6	28.0	-73.6	11.0
2026-01-05 06:52:50.722218	131.9	27.9	-73.8	10.4
2026-01-05 06:52:51.848219	132.2	27.8	-73.8	10.8
2026-01-05 06:52:52.975928	132.5	27.6	-73.7	10.5
2026-01-05 06:52:54.105472	132.8	27.5	-73.6	11.0
2026-01-05 06:52:55.229360	133.0	27.4	-73.6	10.7
2026-01-05 06:52:56.356599	133.3	27.3	-73.4	9.8
2026-01-05 06:52:57.480737	133.6	27.2	-73.7	11.1
2026-01-05 06:52:58.608454	133.9	27.0	-73.8	11.5
2026-01-05 06:52:59.733194	134.2	26.9	-73.8	11.5
2026-01-05 06:53:00.859325	134.5	26.8	-73.6	10.2
2026-01-05 06:53:01.982831	134.7	26.7	-73.7	10.9
2026-01-05 06:53:03.108012	135.0	26.6	-73.9	10.5
2026-01-05 06:53:04.234796	135.3	26.5	-74.1	10.4
2026-01-05 06:53:05.361055	135.6	26.3	-73.8	10.0
2026-01-05 06:53:06.490362	135.8	26.2	-74.1	10.7
2026-01-05 06:53:07.619513	136.1	26.1	-74.2	10.9
2026-01-05 06:53:08.746999	136.4	26.0	-74.0	9.7
2026-01-05 06:53:09.871015	136.6	25.8	-74.1	9.9
2026-01-05 06:53:10.998448	136.9	25.7	-74.2	9.8
2026-01-05 06:53:12.123240	137.1	25.6	-74.4	9.1
2026-01-05 06:53:13.250563	137.4	25.5	-74.2	9.0
2026-01-05 06:53:14.378421	137.7	25.4	-74.3	9.8
2026-01-05 06:53:15.503458	137.9	25.2	-74.4	8.9
2026-01-05 06:53:16.630877	138.2	25.1	-74.3	9.8
2026-01-05 06:53:17.756503	138.4	25.0	-74.2	9.4
2026-01-05 06:53:18.881592	138.7	24.9	-73.9	9.8
2026-01-05 06:53:20.008326	138.9	24.8	-74.1	9.6
2026-01-05 06:53:21.136443	139.1	24.6	-74.4	10.1
2026-01-05 06:53:22.264076	139.4	24.5	-74.1	9.8
2026-01-05 06:53:23.391496	139.6	24.4	-74.5	9.7
2026-01-05 06:53:24.518203	139.9	24.3	-74.2	9.9
2026-01-05 06:53:25.644689	140.1	24.2	-74.4	9.9
2026-01-05 06:53:26.770166	140.3	24.0	-74.6	9.0
2026-01-05 06:53:27.897244	140.6	23.9	-74.6	9.0
2026-01-05 06:53:29.021455	140.8	23.8	-74.7	9.1
2026-01-05 06:53:30.148467	141.0	23.7	-74.7	8.8
2026-01-05 06:53:31.274994	141.3	23.6	-74.7	9.8
2026-01-05 06:53:32.404171	141.5	23.4	-74.8	9.0
2026-01-05 06:53:33.530129	141.7	23.3	-74.9	8.4
2026-01-05 06:53:34.657884	141.9	23.2	-74.7	7.6
2026-01-05 06:53:35.785048	142.2	23.1	-75.0	8.5
2026-01-05 06:53:36.912097	142.4	23.0	-74.9	8.7
2026-01-05 06:53:38.037140	142.6	22.8	-74.7	9.1
2026-01-05 06:53:39.164203	142.8	22.7	-74.7	8.7
2026-01-05 06:53:40.291023	143.0	22.6	-74.8	9.1
2026-01-05 06:53:41.417812	143.2	22.5	-74.5	9.2
2026-01-05 06:53:42.542593	143.4	22.4	-74.5	9.8
2026-01-05 06:53:43.669293	143.7	22.2	-74.8	8.4
2026-01-05 06:53:44.796887	143.9	22.1	-74.8	9.0
2026-01-05 06:53:45.923835	144.1	22.0	-74.9	8.9
2026-01-05 06:53:47.049985	144.3	21.9	-74.8	8.6
2026-01-05 06:53:48.178404	144.5	21.8	-74.7	7.9
2026-01-05 06:53:49.304592	144.7	21.6	-74.7	9.3
2026-01-05 06:53:50.433363	144.9	21.5	-74.9	8.1
2026-01-05 06:53:51.560566	145.1	21.4	-74.9	8.4
2026-01-05 06:53:52.684798	145.3	21.3	-75.5	8.9
2026-01-05 06:53:53.812759	145.5	21.2	-74.7	8.5
2026-01-05 06:53:54.938401	145.7	21.1	-74.9	9.6
2026-01-05 06:53:56.065798	145.9	20.9	-74.7	7.9
2026-01-05 06:53:57.192605	146.1	20.8	-74.6	7.9
2026-01-05 06:53:58.319980	146.3	20.7	-74.1	6.0
2026-01-05 06:53:59.447395	146.4	20.6	-75.0	7.5
2026-01-05 06:54:00.573232	146.6	20.5	-75.0	8.7
2026-01-05 06:54:01.700672	146.8	20.4	-74.8	7.7
2026-01-05 06:54:02.826342	147.0	20.2	-74.7	6.6
2026-01-05 06:54:03.951538	147.2	20.1	-74.8	8.4
2026-01-05 06:54:05.077167	147.4	20.0	-74.7	6.4
2026-01-05 06:54:06.203269	147.5	19.9	-74.6	8.0
2026-01-05 06:54:07.330287	147.7	19.8	-74.5	6.5
2026-01-05 06:54:08.457013	147.9	19.7	-74.6	7.5
2026-01-05 06:54:09.580978	148.1	19.6	-74.0	7.9
2026-01-05 06:54:10.708785	148.3	19.4	-74.4	8.3
2026-01-05 06:54:11.836120	148.4	19.3	-73.8	6.8
2026-01-05 06:54:12.962424	148.6	19.2	-74.9	8.6
2026-01-05 06:54:14.087457	148.8	19.1	-74.2	8.0
2026-01-05 06:54:15.214932	149.0	19.0	-74.5	8.4
2026-01-05 06:54:16.338983	149.1	18.9	-74.4	8.0
2026-01-05 06:54:17.468623	149.3	18.8	-74.4	6.8
2026-01-05 06:54:18.595034	149.5	18.7	-74.4	7.8
2026-01-05 06:54:19.721491	149.6	18.5	-74.5	7.7
2026-01-05 06:54:20.846299	149.8	18.4	-74.3	7.0
2026-01-05 06:54:21.972727	150.0	18.3	-74.4	8.5
2026-01-05 06:54:23.099989	150.1	18.2	-74.7	8.1
2026-01-05 06:54:24.226512	150.3	18.1	-73.2	6.1
2026-01-05 06:54:25.351320	150.4	18.0	-74.7	7.0
2026-01-05 06:54:26.478591	150.6	17.9	-74.5	7.7
2026-01-05 06:54:27.604296	150.8	17.8	-74.5	7.5
2026-01-05 06:54:28.730183	150.9	17.7	-74.8	5.9
2026-01-05 06:54:29.854858	151.1	17.6	-73.5	3.0
2026-01-05 06:54:30.980594	151.2	17.4	-74.6	4.5
2026-01-05 06:54:32.106311	151.4	17.3	-75.1	7.9
2026-01-05 06:54:33.231546	151.5	17.2	-75.0	7.1
2026-01-05 06:54:34.356452	151.7	17.1	-75.0	7.2
2026-01-05 06:54:35.481297	151.8	17.0	-75.3	6.1
2026-01-05 06:54:36.610055	152.0	16.9	-75.0	6.5
2026-01-05 06:54:37.734749	152.1	16.8	-75.0	7.2
2026-01-05 06:54:38.862722	152.3	16.7	-74.8	6.7
2026-01-05 06:54:39.990151	152.4	16.6	-74.9	6.8
2026-01-05 06:54:41.117738	152.6	16.5	-75.1	5.2
2026-01-05 06:54:42.244979	152.7	16.4	-74.7	5.0
2026-01-05 06:54:43.371855	152.9	16.3	-75.0	7.0
2026-01-05 06:54:44.496514	153.0	16.2	-74.8	6.3
2026-01-05 06:54:45.622814	153.1	16.1	-74.6	5.3
2026-01-05 06:54:46.748021	153.3	16.0	-74.9	5.8
2026-01-05 06:54:47.873936	153.4	15.8	-74.8	3.8
2026-01-05 06:54:48.999544	153.6	15.7	-74.7	5.4
2026-01-05 06:54:50.124149	153.7	15.6	-74.5	5.6
2026-01-05 06:54:51.250460	153.8	15.5	-75.2	5.3
2026-01-05 06:54:52.376706	154.0	15.4	-74.7	4.8
2026-01-05 06:54:53.504226	154.1	15.3	-74.7	3.7
2026-01-05 06:54:54.633802	154.2	15.2	-74.7	3.7
2026-01-05 06:54:55.760434	154.4	15.1	-74.8	6.2
2026-01-05 06:54:56.887411	154.5	15.0	-74.5	4.7
2026-01-05 06:54:58.014564	154.6	14.9	-74.3	3.9
2026-01-05 06:54:59.140324	154.8	14.8	-74.6	6.1
2026-01-05 06:55:00.266486	154.9	14.7	-74.8	4.4
2026-01-05 06:55:01.395497	155.0	14.6	-74.5	4.4
2026-01-05 06:55:02.520458	155.2	14.5	-74.9	5.1
2026-01-05 06:55:03.645009	155.3	14.4	-75.0	3.6
2026-01-05 06:55:04.769220	155.4	14.3	-74.7	4.9
2026-01-05 06:55:05.895398	155.5	14.2	-74.5	5.1
2026-01-05 06:55:07.023083	155.7	14.1	-74.3	4.5
2026-01-05 06:55:08.149317	155.8	14.0	-74.7	4.0
2026-01-05 06:55:09.274320	155.9	13.9	-73.9	0.5
2026-01-05 06:55:10.401313	156.0	13.8	-74.7	4.4
2026-01-05 06:55:11.528698	156.1	13.7	-74.9	3.9
2026-01-05 06:55:12.653487	156.3	13.6	-74.2	2.3
2026-01-05 06:55:13.783923	156.4	13.5	-74.5	3.5
2026-01-05 06:55:14.911804	156.5	13.4	-74.5	3.9
2026-01-05 06:55:16.037617	156.6	13.3	-74.8	4.4
2026-01-05 06:55:17.162185	156.7	13.2	-74.8	5.0
2026-01-05 06:55:18.288211	156.9	13.1	-74.7	3.0
2026-01-05 06:55:19.415247	157.0	13.0	-74.8	4.1
2026-01-05 06:55:20.540049	157.1	12.9	-74.6	3.1
2026-01-05 06:55:21.667555	157.2	12.9	-74.9	4.4
2026-01-05 06:55:22.793005	157.3	12.8	-74.9	3.2
2026-01-05 06:55:23.918305	157.4	12.7	-75.0	3.6
2026-01-05 06:55:25.044345	157.5	12.6	-75.1	3.6
2026-01-05 06:55:26.172704	157.7	12.5	-74.8	3.0
2026-01-05 06:55:27.297688	157.8	12.4	-75.2	3.2
2026-01-05 06:55:28.423216	157.9	12.3	-75.3	3.7
2026-01-05 06:55:29.548960	158.0	12.2	-75.2	3.2
2026-01-05 06:55:30.675742	158.1	12.1	-75.3	4.3
2026-01-05 06:55:31.803884	158.2	12.0	-75.6	2.2
2026-01-05 06:55:32.929968	158.3	11.9	-75.4	3.4
2026-01-05 06:55:34.053523	158.4	11.8	-75.5	4.0
2026-01-05 06:55:35.180348	158.5	11.7	-75.9	4.4
2026-01-05 06:55:36.307044	158.6	11.6	-75.7	3.8
2026-01-05 06:55:37.435076	158.7	11.5	-75.8	4.3
2026-01-05 06:55:38.559396	158.8	11.4	-76.1	3.4
2026-01-05 06:55:39.686546	158.9	11.4	-76.1	3.5
2026-01-05 06:55:40.814992	159.1	11.3	-75.9	4.5
2026-01-05 06:55:41.944190	159.2	11.2	-76.1	3.6
2026-01-05 06:55:43.071754	159.3	11.1	-75.9	4.2
2026-01-05 06:55:44.199758	159.4	11.0	-75.5	3.9
2026-01-05 06:55:45.325295	159.5	10.9	-74.6	0.3
2026-01-05 06:55:46.452588	159.6	10.8	-75.6	0.0
2026-01-05 06:55:47.578616	159.7	10.7	-76.5	0.0
2026-01-05 06:55:48.705328	159.8	10.6	-77.5	0.0
2026-01-05 06:55:49.832476	159.9	10.5	-77.4	0.0
2026-01-05 06:55:50.960682	160.0	10.5	-76.3	0.0
2026-01-05 06:55:52.085204	160.1	10.4	-81.1	0.0
2026-01-05 06:55:53.209963	160.2	10.3	-81.7	0.0
2026-01-05 06:55:54.336421	160.2	10.2	-81.1	0.0
2026-01-05 06:55:55.462653	160.3	10.1	-80.6	0.0
2026-01-05 06:55:56.588912	160.4	10.0	-80.0	0.0
#Closed at: 2026-01-05 06:46:04.750969