passes_logs/2026/01/05/planumMaritime01/planumMaritime01__20260105_191107_METEOR-M2_3_rec.log

#Pass ID: 20260105_191107_METEOR-M2 3
#Satellite: METEOR-M2 3
#Configuration: METEOR-M2 3
#Start time: 2026-01-05 19:11:12.749010

#LorettStation: 1.0.0 05.05.2024
#Station: planumMaritime01
#Location: 37.49445 lon 55.92918 lat
#TLE: 1 57166U 23091A   26004.66755860  .00000054  00000+0  42637-4 0  9999
#TLE: 2 57166  98.6343  62.8028 0002899 290.8792  69.2076 14.24029436131247

#Time	Az	El	Level	SNR
2026-01-05 19:11:14.911830	214.6	10.1	-83.1	0.0
2026-01-05 19:11:16.046909	214.7	10.2	-83.0	0.0
2026-01-05 19:11:17.183959	214.9	10.3	-82.7	0.0
2026-01-05 19:11:18.321747	215.0	10.4	-82.3	0.0
2026-01-05 19:11:19.458966	215.1	10.5	-81.9	0.0
2026-01-05 19:11:20.595711	215.3	10.5	-81.5	0.0
2026-01-05 19:11:21.731287	215.4	10.6	-81.4	0.0
2026-01-05 19:11:22.872290	215.5	10.7	-81.0	0.0
2026-01-05 19:11:24.008486	215.7	10.8	-80.2	2.1
2026-01-05 19:11:25.144765	215.8	10.9	-78.0	3.4
2026-01-05 19:11:26.282323	215.9	10.9	-76.4	1.9
2026-01-05 19:11:27.417251	216.1	11.0	-74.6	0.7
2026-01-05 19:11:28.552799	216.2	11.1	-74.5	0.0
2026-01-05 19:11:29.686625	216.3	11.2	-74.6	0.0
2026-01-05 19:11:30.818563	216.5	11.3	-74.3	0.0
2026-01-05 19:11:31.952214	216.6	11.3	-74.3	0.0
2026-01-05 19:11:33.085440	216.8	11.4	-74.3	0.0
2026-01-05 19:11:34.219093	216.9	11.5	-74.4	0.0
2026-01-05 19:11:35.353466	217.0	11.6	-74.3	0.0
2026-01-05 19:11:36.486533	217.2	11.7	-74.5	0.0
2026-01-05 19:11:37.620609	217.3	11.8	-74.3	0.0
2026-01-05 19:11:38.753846	217.5	11.8	-74.5	0.0
2026-01-05 19:11:39.892876	217.6	11.9	-74.7	0.0
2026-01-05 19:11:41.026083	217.8	12.0	-74.4	0.0
2026-01-05 19:11:42.160018	217.9	12.1	-74.3	0.0
2026-01-05 19:11:43.292390	218.1	12.2	-74.6	0.0
2026-01-05 19:11:44.428374	218.2	12.2	-74.5	0.0
2026-01-05 19:11:45.560715	218.4	12.3	-74.7	0.0
2026-01-05 19:11:46.694611	218.5	12.4	-74.6	0.1
2026-01-05 19:11:47.824644	218.7	12.5	-74.8	0.0
2026-01-05 19:11:48.954453	218.8	12.6	-74.6	0.6
2026-01-05 19:11:50.084031	219.0	12.7	-74.8	2.2
2026-01-05 19:11:51.210664	219.1	12.7	-74.5	0.0
2026-01-05 19:11:52.337538	219.3	12.8	-74.7	0.0
2026-01-05 19:11:53.466178	219.4	12.9	-74.8	0.0
2026-01-05 19:11:54.592119	219.6	13.0	-74.6	3.3
2026-01-05 19:11:55.722615	219.7	13.1	-74.8	0.3
2026-01-05 19:11:56.851448	219.9	13.1	-74.9	0.0
2026-01-05 19:11:57.976590	220.0	13.2	-75.1	0.0
2026-01-05 19:11:59.104284	220.2	13.3	-74.8	0.0
2026-01-05 19:12:00.233665	220.4	13.4	-74.9	1.3
2026-01-05 19:12:01.360104	220.5	13.5	-74.9	1.0
2026-01-05 19:12:02.489011	220.7	13.6	-75.0	0.0
2026-01-05 19:12:03.613658	220.8	13.6	-74.8	0.6
2026-01-05 19:12:04.740799	221.0	13.7	-75.0	1.1
2026-01-05 19:12:05.870881	221.2	13.8	-74.8	0.0
2026-01-05 19:12:06.996052	221.3	13.9	-74.9	0.0
2026-01-05 19:12:08.122694	221.5	14.0	-75.1	1.7
2026-01-05 19:12:09.251736	221.7	14.1	-75.1	2.7
2026-01-05 19:12:10.375537	221.8	14.1	-75.0	1.8
2026-01-05 19:12:11.499680	222.0	14.2	-75.2	0.6
2026-01-05 19:12:12.633605	222.2	14.3	-75.1	1.8
2026-01-05 19:12:13.766583	222.3	14.4	-75.3	0.6
2026-01-05 19:12:14.902365	222.5	14.5	-75.3	3.2
2026-01-05 19:12:16.037282	222.7	14.6	-75.3	1.4
2026-01-05 19:12:17.171846	222.9	14.6	-75.4	0.0
2026-01-05 19:12:18.304950	223.0	14.7	-75.4	0.5
2026-01-05 19:12:19.440725	223.2	14.8	-75.6	3.9
2026-01-05 19:12:20.572933	223.4	14.9	-75.5	4.3
2026-01-05 19:12:21.710340	223.6	15.0	-75.7	3.4
2026-01-05 19:12:22.844553	223.7	15.1	-75.7	1.3
2026-01-05 19:12:23.979765	223.9	15.1	-75.8	3.4
2026-01-05 19:12:25.115684	224.1	15.2	-75.6	3.6
2026-01-05 19:12:26.251210	224.3	15.3	-75.7	2.5
2026-01-05 19:12:27.385482	224.5	15.4	-75.8	5.5
2026-01-05 19:12:28.522627	224.6	15.5	-75.8	4.2
2026-01-05 19:12:29.657589	224.8	15.6	-76.1	3.3
2026-01-05 19:12:30.792838	225.0	15.7	-76.1	4.3
2026-01-05 19:12:31.926742	225.2	15.7	-76.1	4.0
2026-01-05 19:12:33.061974	225.4	15.8	-76.2	4.2
2026-01-05 19:12:34.197619	225.6	15.9	-76.1	3.3
2026-01-05 19:12:35.334356	225.8	16.0	-76.2	6.7
2026-01-05 19:12:36.470786	226.0	16.1	-76.1	4.6
2026-01-05 19:12:37.605874	226.1	16.2	-76.7	5.3
2026-01-05 19:12:38.740132	226.3	16.3	-76.6	3.1
2026-01-05 19:12:39.876231	226.5	16.3	-76.7	3.1
2026-01-05 19:12:41.014143	226.7	16.4	-76.7	4.6
2026-01-05 19:12:42.150894	226.9	16.5	-76.6	4.4
2026-01-05 19:12:43.288991	227.1	16.6	-76.8	4.2
2026-01-05 19:12:44.425916	227.3	16.7	-76.7	6.0
2026-01-05 19:12:45.562490	227.5	16.8	-76.5	5.2
2026-01-05 19:12:46.700089	227.7	16.8	-76.6	7.9
2026-01-05 19:12:47.837994	227.9	16.9	-76.7	7.8
2026-01-05 19:12:48.974829	228.1	17.0	-76.9	8.3
2026-01-05 19:12:50.109656	228.3	17.1	-77.0	8.0
2026-01-05 19:12:51.242931	228.5	17.2	-77.1	5.8
2026-01-05 19:12:52.377371	228.7	17.3	-77.1	6.2
2026-01-05 19:12:53.510796	228.9	17.4	-77.3	7.9
2026-01-05 19:12:54.647764	229.2	17.4	-77.3	6.7
2026-01-05 19:12:55.783543	229.4	17.5	-77.3	6.9
2026-01-05 19:12:56.920314	229.6	17.6	-77.3	6.6
2026-01-05 19:12:58.055151	229.8	17.7	-77.6	8.4
2026-01-05 19:12:59.190806	230.0	17.8	-77.3	7.3
2026-01-05 19:13:00.325041	230.2	17.9	-77.5	8.6
2026-01-05 19:13:01.460269	230.4	17.9	-77.4	8.7
2026-01-05 19:13:02.598193	230.6	18.0	-77.4	7.8
2026-01-05 19:13:03.734583	230.9	18.1	-77.3	8.0
2026-01-05 19:13:04.869419	231.1	18.2	-77.2	7.8
2026-01-05 19:13:06.007550	231.3	18.3	-77.3	8.3
2026-01-05 19:13:07.144533	231.5	18.4	-77.4	8.0
2026-01-05 19:13:08.282952	231.7	18.4	-77.3	9.2
2026-01-05 19:13:09.420733	232.0	18.5	-77.3	8.4
2026-01-05 19:13:10.556738	232.2	18.6	-77.5	9.0
2026-01-05 19:13:11.694249	232.4	18.7	-77.7	8.4
2026-01-05 19:13:12.834226	232.7	18.8	-77.3	7.6
2026-01-05 19:13:13.973629	232.9	18.9	-77.4	9.7
2026-01-05 19:13:15.112457	233.1	18.9	-77.3	9.9
2026-01-05 19:13:16.250009	233.3	19.0	-77.0	10.0
2026-01-05 19:13:17.389860	233.6	19.1	-77.2	9.0
2026-01-05 19:13:18.526140	233.8	19.2	-77.5	9.7
2026-01-05 19:13:19.665104	234.0	19.3	-77.4	9.7
2026-01-05 19:13:20.803240	234.3	19.3	-77.5	8.6
2026-01-05 19:13:21.945137	234.5	19.4	-77.7	9.8
2026-01-05 19:13:23.081394	234.8	19.5	-77.6	8.6
2026-01-05 19:13:24.218928	235.0	19.6	-77.8	9.2
2026-01-05 19:13:25.357867	235.2	19.7	-77.6	9.0
2026-01-05 19:13:26.495281	235.5	19.7	-77.7	9.2
2026-01-05 19:13:27.629585	235.7	19.8	-77.5	9.0
2026-01-05 19:13:28.768452	236.0	19.9	-77.5	9.5
2026-01-05 19:13:29.906633	236.2	20.0	-77.7	8.9
2026-01-05 19:13:31.044584	236.5	20.1	-77.4	8.1
2026-01-05 19:13:32.181878	236.7	20.1	-77.7	8.6
2026-01-05 19:13:33.317469	237.0	20.2	-77.7	7.9
2026-01-05 19:13:34.456188	237.2	20.3	-77.5	7.8
2026-01-05 19:13:35.594901	237.5	20.4	-77.6	8.0
2026-01-05 19:13:36.733785	237.7	20.5	-77.5	7.9
2026-01-05 19:13:37.870590	238.0	20.5	-77.6	8.0
2026-01-05 19:13:39.008517	238.2	20.6	-77.4	7.6
2026-01-05 19:13:40.148021	238.5	20.7	-77.4	8.1
2026-01-05 19:13:41.285763	238.7	20.8	-77.4	9.0
2026-01-05 19:13:42.423942	239.0	20.8	-77.5	9.0
2026-01-05 19:13:43.561191	239.3	20.9	-77.2	8.4
2026-01-05 19:13:44.699895	239.5	21.0	-77.1	8.9
2026-01-05 19:13:45.839726	239.8	21.1	-77.1	7.9
2026-01-05 19:13:46.975051	240.1	21.1	-77.4	8.1
2026-01-05 19:13:48.113193	240.3	21.2	-77.1	8.0
2026-01-05 19:13:49.251338	240.6	21.3	-77.0	8.3
2026-01-05 19:13:50.381133	240.9	21.4	-77.1	9.0
2026-01-05 19:13:51.510807	241.1	21.4	-77.2	8.9
2026-01-05 19:13:52.637855	241.4	21.5	-76.8	8.3
2026-01-05 19:13:53.767981	241.7	21.6	-76.9	8.4
2026-01-05 19:13:54.899501	241.9	21.7	-77.3	8.1
2026-01-05 19:13:56.027991	242.2	21.7	-77.0	7.8
2026-01-05 19:13:57.156850	242.5	21.8	-76.7	8.8
2026-01-05 19:13:58.285918	242.8	21.9	-76.9	8.5
2026-01-05 19:13:59.415513	243.0	21.9	-77.1	8.8
2026-01-05 19:14:00.544672	243.3	22.0	-77.0	8.5
2026-01-05 19:14:01.671667	243.6	22.1	-76.8	8.5
2026-01-05 19:14:02.802609	243.9	22.1	-76.8	8.3
2026-01-05 19:14:03.934000	244.1	22.2	-76.8	7.8
2026-01-05 19:14:05.063093	244.4	22.3	-76.9	8.1
2026-01-05 19:14:06.190005	244.7	22.3	-76.9	8.2
2026-01-05 19:14:07.317952	245.0	22.4	-76.6	7.0
2026-01-05 19:14:08.447003	245.3	22.5	-76.3	7.3
2026-01-05 19:14:09.574365	245.6	22.5	-76.7	8.3
2026-01-05 19:14:10.704223	245.9	22.6	-76.6	8.3
2026-01-05 19:14:11.833871	246.1	22.7	-76.6	7.7
2026-01-05 19:14:12.967048	246.4	22.7	-76.5	8.3
2026-01-05 19:14:14.100028	246.7	22.8	-76.5	7.7
2026-01-05 19:14:15.237546	247.0	22.8	-76.4	8.6
2026-01-05 19:14:16.370083	247.3	22.9	-76.5	8.8
2026-01-05 19:14:17.502388	247.6	23.0	-76.3	9.0
2026-01-05 19:14:18.634950	247.9	23.0	-76.3	8.7
2026-01-05 19:14:19.766444	248.2	23.1	-76.2	8.9
2026-01-05 19:14:20.901284	248.5	23.1	-76.3	8.6
2026-01-05 19:14:22.034855	248.8	23.2	-76.3	8.4
2026-01-05 19:14:23.168234	249.1	23.3	-76.3	7.6
2026-01-05 19:14:24.302878	249.4	23.3	-76.5	8.6
2026-01-05 19:14:25.438230	249.7	23.4	-76.3	8.6
2026-01-05 19:14:26.574304	250.0	23.4	-76.2	8.6
2026-01-05 19:14:27.709615	250.3	23.5	-75.6	6.7
2026-01-05 19:14:28.843854	250.6	23.5	-75.2	5.6
2026-01-05 19:14:29.979692	250.9	23.6	-75.3	6.4
2026-01-05 19:14:31.113527	251.3	23.6	-75.8	6.7
2026-01-05 19:14:32.250017	251.6	23.7	-76.3	8.6
2026-01-05 19:14:33.384863	251.9	23.7	-76.0	8.5
2026-01-05 19:14:34.519800	252.2	23.8	-75.8	7.6
2026-01-05 19:14:35.656888	252.5	23.8	-75.8	7.2
2026-01-05 19:14:36.794561	252.8	23.9	-75.9	8.5
2026-01-05 19:14:37.932941	253.1	23.9	-76.0	8.6
2026-01-05 19:14:39.069556	253.4	24.0	-76.1	8.5
2026-01-05 19:14:40.207853	253.8	24.0	-76.0	8.4
2026-01-05 19:14:41.347100	254.1	24.1	-76.2	8.4
2026-01-05 19:14:42.484064	254.4	24.1	-76.1	7.8
2026-01-05 19:14:43.621665	254.7	24.2	-76.0	8.8
2026-01-05 19:14:44.759891	255.0	24.2	-75.9	7.7
2026-01-05 19:14:45.895106	255.4	24.3	-76.0	8.3
2026-01-05 19:14:47.029348	255.7	24.3	-76.0	8.2
2026-01-05 19:14:48.169846	256.0	24.3	-76.1	8.7
2026-01-05 19:14:49.306673	256.3	24.4	-76.2	8.0
2026-01-05 19:14:50.445864	256.7	24.4	-76.1	8.4
2026-01-05 19:14:51.582100	257.0	24.5	-76.1	8.8
2026-01-05 19:14:52.720102	257.3	24.5	-76.1	7.0
2026-01-05 19:14:53.861782	257.6	24.5	-75.9	9.0
2026-01-05 19:14:54.997182	258.0	24.6	-76.3	7.6
2026-01-05 19:14:56.134868	258.3	24.6	-76.1	7.7
2026-01-05 19:14:57.270665	258.6	24.6	-76.3	7.7
2026-01-05 19:14:58.407221	259.0	24.7	-76.0	8.1
2026-01-05 19:14:59.543121	259.3	24.7	-76.5	8.7
2026-01-05 19:15:00.680658	259.6	24.7	-76.5	9.3
2026-01-05 19:15:01.813656	260.0	24.8	-76.2	7.8
2026-01-05 19:15:02.947906	260.3	24.8	-76.0	8.1
2026-01-05 19:15:04.083234	260.6	24.8	-76.1	8.0
2026-01-05 19:15:05.219256	261.0	24.8	-76.4	8.6
2026-01-05 19:15:06.354416	261.3	24.9	-76.2	8.6
2026-01-05 19:15:07.488752	261.6	24.9	-75.9	8.5
2026-01-05 19:15:08.626448	262.0	24.9	-76.4	9.2
2026-01-05 19:15:09.761101	262.3	24.9	-76.3	8.1
2026-01-05 19:15:10.894074	262.6	24.9	-76.1	8.6
2026-01-05 19:15:12.031544	263.0	25.0	-76.2	7.8
2026-01-05 19:15:13.165741	263.3	25.0	-76.4	9.1
2026-01-05 19:15:14.300683	263.6	25.0	-76.1	7.4
2026-01-05 19:15:15.434888	264.0	25.0	-76.6	9.2
2026-01-05 19:15:16.569254	264.3	25.0	-76.0	6.0
2026-01-05 19:15:17.705643	264.7	25.1	-76.2	6.8
2026-01-05 19:15:18.842762	265.0	25.1	-76.6	8.8
2026-01-05 19:15:19.977726	265.3	25.1	-76.8	8.0
2026-01-05 19:15:21.115652	265.7	25.1	-76.8	9.0
2026-01-05 19:15:22.253969	266.0	25.1	-76.7	8.2
2026-01-05 19:15:23.396070	266.3	25.1	-76.4	5.9
2026-01-05 19:15:24.534651	266.7	25.1	-76.6	8.2
2026-01-05 19:15:25.672578	267.0	25.1	-77.1	8.3
2026-01-05 19:15:26.812762	267.4	25.1	-76.8	7.8
2026-01-05 19:15:27.949847	267.7	25.1	-76.3	7.7
2026-01-05 19:15:29.087299	268.1	25.2	-76.6	7.6
2026-01-05 19:15:30.223530	268.4	25.2	-76.2	8.3
2026-01-05 19:15:31.362717	268.7	25.2	-76.9	8.2
2026-01-05 19:15:32.498682	269.1	25.2	-76.2	6.9
2026-01-05 19:15:33.636120	269.4	25.2	-77.3	8.7
2026-01-05 19:15:34.772956	269.8	25.2	-76.9	8.2
2026-01-05 19:15:35.906512	270.1	25.2	-77.4	9.1
2026-01-05 19:15:37.039452	270.4	25.2	-77.1	8.1
2026-01-05 19:15:38.171951	270.8	25.2	-76.6	7.7
2026-01-05 19:15:39.307318	271.1	25.1	-76.8	6.6
2026-01-05 19:15:40.440738	271.5	25.1	-76.6	7.5
2026-01-05 19:15:41.571158	271.8	25.1	-76.6	7.2
2026-01-05 19:15:42.705503	272.1	25.1	-76.5	6.9
2026-01-05 19:15:43.837849	272.5	25.1	-76.0	5.6
2026-01-05 19:15:44.971788	272.8	25.1	-76.2	8.0
2026-01-05 19:15:46.105720	273.1	25.1	-76.0	6.5
2026-01-05 19:15:47.241711	273.5	25.1	-76.7	7.9
2026-01-05 19:15:48.376348	273.8	25.1	-76.4	8.3
2026-01-05 19:15:49.512880	274.2	25.1	-76.1	7.2
2026-01-05 19:15:50.647806	274.5	25.0	-76.1	6.9
2026-01-05 19:15:51.783470	274.8	25.0	-76.5	7.2
2026-01-05 19:15:52.917937	275.2	25.0	-76.3	7.1
2026-01-05 19:15:54.052946	275.5	25.0	-76.7	7.3
2026-01-05 19:15:55.188495	275.8	25.0	-76.3	8.4
2026-01-05 19:15:56.325988	276.2	25.0	-76.5	7.9
2026-01-05 19:15:57.461538	276.5	24.9	-76.4	7.5
2026-01-05 19:15:58.595853	276.9	24.9	-75.7	6.7
2026-01-05 19:15:59.730267	277.2	24.9	-75.7	6.3
2026-01-05 19:16:00.867261	277.5	24.9	-76.1	6.8
2026-01-05 19:16:02.003764	277.9	24.8	-75.9	7.1
2026-01-05 19:16:03.137776	278.2	24.8	-75.2	4.8
2026-01-05 19:16:04.278137	278.5	24.8	-75.7	6.1
2026-01-05 19:16:05.411966	278.9	24.8	-75.9	7.1
2026-01-05 19:16:06.547450	279.2	24.7	-75.2	6.2
2026-01-05 19:16:07.684686	279.5	24.7	-74.4	4.1
2026-01-05 19:16:08.821191	279.8	24.7	-74.5	4.6
2026-01-05 19:16:09.955752	280.2	24.6	-75.0	6.0
2026-01-05 19:16:11.089779	280.5	24.6	-74.5	6.9
2026-01-05 19:16:12.228474	280.8	24.6	-75.3	5.8
2026-01-05 19:16:13.362832	281.2	24.5	-74.6	5.3
2026-01-05 19:16:14.499424	281.5	24.5	-73.4	4.1
2026-01-05 19:16:15.635183	281.8	24.5	-70.3	0.0
2026-01-05 19:16:16.771575	282.1	24.4	-73.9	0.9
2026-01-05 19:16:17.906304	282.5	24.4	-73.6	0.8
2026-01-05 19:16:19.043063	282.8	24.4	-75.3	6.5
2026-01-05 19:16:20.176569	283.1	24.3	-74.6	6.5
2026-01-05 19:16:21.314344	283.4	24.3	-75.9	6.5
2026-01-05 19:16:22.449061	283.7	24.2	-75.0	5.5
2026-01-05 19:16:23.582702	284.1	24.2	-74.6	4.7
2026-01-05 19:16:24.716985	284.4	24.2	-75.9	6.2
2026-01-05 19:16:25.850054	284.7	24.1	-75.0	5.7
2026-01-05 19:16:26.984707	285.0	24.1	-74.3	1.4
2026-01-05 19:16:28.120281	285.3	24.0	-74.8	2.4
2026-01-05 19:16:29.259586	285.7	24.0	-75.1	2.7
2026-01-05 19:16:30.396858	286.0	23.9	-75.6	6.8
2026-01-05 19:16:31.531246	286.3	23.9	-75.2	4.5
2026-01-05 19:16:32.667385	286.6	23.8	-75.1	4.7
2026-01-05 19:16:33.803328	286.9	23.8	-75.4	3.7
2026-01-05 19:16:34.943152	287.2	23.7	-75.4	3.9
2026-01-05 19:16:36.085443	287.5	23.7	-75.4	5.0
2026-01-05 19:16:37.224123	287.8	23.6	-74.9	1.6
2026-01-05 19:16:38.361688	288.2	23.6	-74.7	2.5
2026-01-05 19:16:39.499550	288.5	23.5	-74.7	2.6
2026-01-05 19:16:40.636846	288.8	23.5	-74.9	4.9
2026-01-05 19:16:41.776729	289.1	23.4	-75.2	5.8
2026-01-05 19:16:42.915263	289.4	23.4	-74.5	4.4
2026-01-05 19:16:44.050487	289.7	23.3	-75.0	3.7
2026-01-05 19:16:45.186988	290.0	23.2	-74.5	2.4
2026-01-05 19:16:46.323489	290.3	23.2	-74.9	3.5
2026-01-05 19:16:47.457712	290.6	23.1	-73.6	0.0
2026-01-05 19:16:48.593835	290.9	23.1	-74.0	2.8
2026-01-05 19:16:49.729925	291.2	23.0	-73.9	2.6
2026-01-05 19:16:50.860109	291.5	22.9	-73.6	1.7
2026-01-05 19:16:51.992279	291.8	22.9	-74.3	3.2
2026-01-05 19:16:53.124561	292.1	22.8	-74.1	2.8
2026-01-05 19:16:54.259018	292.3	22.8	-75.0	3.4
2026-01-05 19:16:55.391121	292.6	22.7	-75.4	4.9
2026-01-05 19:16:56.525721	292.9	22.6	-74.2	2.8
2026-01-05 19:16:57.658841	293.2	22.6	-75.5	3.8
2026-01-05 19:16:58.791188	293.5	22.5	-74.7	3.3
2026-01-05 19:16:59.923314	293.8	22.4	-74.2	0.9
2026-01-05 19:17:01.053789	294.1	22.4	-75.5	0.9
2026-01-05 19:17:02.187176	294.4	22.3	-75.5	1.5
2026-01-05 19:17:03.319687	294.6	22.2	-74.4	1.3
2026-01-05 19:17:04.453185	294.9	22.2	-74.1	0.5
2026-01-05 19:17:05.584973	295.2	22.1	-74.9	0.5
2026-01-05 19:17:06.719177	295.5	22.0	-75.5	3.0
2026-01-05 19:17:07.850001	295.8	22.0	-75.0	2.0
2026-01-05 19:17:08.984375	296.0	21.9	-76.1	3.7
2026-01-05 19:17:10.120684	296.3	21.8	-76.1	4.1
2026-01-05 19:17:11.257988	296.6	21.8	-75.3	1.5
2026-01-05 19:17:12.394735	296.9	21.7	-75.5	1.2
2026-01-05 19:17:13.530185	297.1	21.6	-75.4	2.3
2026-01-05 19:17:14.665420	297.4	21.6	-74.7	2.4
2026-01-05 19:17:15.802828	297.7	21.5	-75.6	3.1
2026-01-05 19:17:16.938871	297.9	21.4	-75.9	4.2
2026-01-05 19:17:18.074466	298.2	21.3	-75.8	0.0
2026-01-05 19:17:19.212556	298.5	21.3	-75.6	2.6
2026-01-05 19:17:20.348802	298.7	21.2	-75.7	2.9
2026-01-05 19:17:21.486577	299.0	21.1	-75.8	4.1
2026-01-05 19:17:22.624152	299.3	21.0	-75.7	2.5
2026-01-05 19:17:23.765590	299.5	21.0	-75.6	2.1
2026-01-05 19:17:24.904631	299.8	20.9	-76.0	0.7
2026-01-05 19:17:26.042986	300.0	20.8	-73.5	0.0
2026-01-05 19:17:27.179645	300.3	20.7	-75.7	5.0
2026-01-05 19:17:28.319137	300.6	20.7	-75.1	1.0
2026-01-05 19:17:29.457327	300.8	20.6	-74.8	2.6
2026-01-05 19:17:30.595748	301.1	20.5	-75.0	1.4
2026-01-05 19:17:31.733312	301.3	20.4	-75.7	0.0
2026-01-05 19:17:32.871151	301.6	20.4	-73.9	1.4
2026-01-05 19:17:34.010616	301.8	20.3	-75.3	1.7
2026-01-05 19:17:35.144790	302.1	20.2	-74.8	2.0
2026-01-05 19:17:36.281746	302.3	20.1	-74.0	1.1
2026-01-05 19:17:37.420683	302.6	20.1	-74.1	2.1
2026-01-05 19:17:38.558947	302.8	20.0	-73.2	0.0
2026-01-05 19:17:39.696642	303.1	19.9	-75.1	2.5
2026-01-05 19:17:40.833519	303.3	19.8	-75.1	2.5
2026-01-05 19:17:41.973268	303.5	19.7	-74.9	1.6
2026-01-05 19:17:43.108392	303.8	19.7	-75.1	2.2
2026-01-05 19:17:44.249019	304.0	19.6	-74.0	0.7
2026-01-05 19:17:45.389063	304.3	19.5	-74.0	2.0
2026-01-05 19:17:46.524489	304.5	19.4	-74.1	0.0
2026-01-05 19:17:47.661914	304.7	19.3	-75.3	2.9
2026-01-05 19:17:48.800552	305.0	19.3	-75.0	0.5
2026-01-05 19:17:49.939413	305.2	19.2	-75.1	3.9
2026-01-05 19:17:51.074571	305.4	19.1	-73.0	0.0
2026-01-05 19:17:52.213031	305.7	19.0	-74.9	4.1
2026-01-05 19:17:53.352344	305.9	18.9	-75.0	2.8
2026-01-05 19:17:54.489947	306.1	18.8	-74.8	1.1
2026-01-05 19:17:55.627754	306.3	18.8	-74.4	0.0
2026-01-05 19:17:56.765802	306.6	18.7	-75.3	0.0
2026-01-05 19:17:57.894500	306.8	18.6	-74.8	1.9
2026-01-05 19:17:59.021440	307.0	18.5	-73.4	0.0
2026-01-05 19:18:00.152608	307.2	18.4	-73.6	0.0
2026-01-05 19:18:01.281374	307.5	18.4	-74.0	0.0
2026-01-05 19:18:02.410542	307.7	18.3	-72.5	0.0
2026-01-05 19:18:03.540775	307.9	18.2	-75.2	0.0
2026-01-05 19:18:04.670806	308.1	18.1	-74.6	0.1
2026-01-05 19:18:05.798290	308.3	18.0	-73.5	0.0
2026-01-05 19:18:06.928121	308.5	17.9	-74.0	0.0
2026-01-05 19:18:08.058610	308.7	17.9	-73.2	0.0
2026-01-05 19:18:09.187743	309.0	17.8	-74.3	2.4
2026-01-05 19:18:10.315806	309.2	17.7	-73.9	0.0
2026-01-05 19:18:11.442930	309.4	17.6	-74.1	0.0
2026-01-05 19:18:12.572374	309.6	17.5	-74.2	0.0
2026-01-05 19:18:13.700086	309.8	17.4	-73.9	0.0
2026-01-05 19:18:14.829285	310.0	17.4	-73.2	0.0
2026-01-05 19:18:15.957755	310.2	17.3	-73.7	0.0
2026-01-05 19:18:17.090527	310.4	17.2	-73.6	0.0
2026-01-05 19:18:18.222390	310.6	17.1	-72.3	0.0
2026-01-05 19:18:19.352573	310.8	17.0	-71.7	0.0
2026-01-05 19:18:20.481609	311.0	17.0	-72.9	0.4
2026-01-05 19:18:21.616024	311.2	16.9	-73.6	0.0
2026-01-05 19:18:22.751049	311.4	16.8	-71.9	0.0
2026-01-05 19:18:23.885583	311.6	16.7	-74.2	0.0
2026-01-05 19:18:25.016164	311.8	16.6	-73.0	0.0
2026-01-05 19:18:26.146811	312.0	16.5	-72.7	0.0
2026-01-05 19:18:27.281044	312.2	16.4	-73.1	0.0
2026-01-05 19:18:28.417710	312.4	16.4	-74.4	0.4
2026-01-05 19:18:29.554400	312.6	16.3	-73.4	0.0
2026-01-05 19:18:30.693109	312.8	16.2	-73.6	0.0
2026-01-05 19:18:31.829741	313.0	16.1	-73.7	0.0
2026-01-05 19:18:32.966777	313.2	16.0	-72.3	0.0
2026-01-05 19:18:34.104212	313.3	15.9	-74.3	0.0
2026-01-05 19:18:35.240178	313.5	15.9	-73.9	0.0
2026-01-05 19:18:36.376799	313.7	15.8	-71.5	0.0
2026-01-05 19:18:37.514863	313.9	15.7	-74.6	1.0
2026-01-05 19:18:38.652742	314.1	15.6	-74.0	0.4
2026-01-05 19:18:39.792248	314.3	15.5	-73.5	0.1
2026-01-05 19:18:40.930460	314.5	15.4	-73.5	0.0
2026-01-05 19:18:42.068195	314.6	15.4	-73.9	0.0
2026-01-05 19:18:43.205646	314.8	15.3	-73.1	0.0
2026-01-05 19:18:44.344294	315.0	15.2	-74.4	0.0
2026-01-05 19:18:45.479808	315.2	15.1	-73.5	0.0
2026-01-05 19:18:46.615863	315.4	15.0	-72.4	0.0
2026-01-05 19:18:47.754118	315.5	14.9	-73.0	0.0
2026-01-05 19:18:48.894059	315.7	14.9	-74.1	0.0
2026-01-05 19:18:50.029837	315.9	14.8	-73.5	0.0
2026-01-05 19:18:51.166482	316.1	14.7	-73.2	0.0
2026-01-05 19:18:52.299630	316.2	14.6	-74.2	0.0
2026-01-05 19:18:53.435449	316.4	14.5	-72.4	0.0
2026-01-05 19:18:54.573905	316.6	14.4	-72.9	0.0
2026-01-05 19:18:55.711766	316.7	14.4	-74.2	0.0
2026-01-05 19:18:56.850522	316.9	14.3	-74.1	0.0
2026-01-05 19:18:57.985845	317.1	14.2	-75.1	0.0
2026-01-05 19:18:59.120605	317.2	14.1	-70.6	0.0
2026-01-05 19:19:00.260337	317.4	14.0	-73.6	0.0
2026-01-05 19:19:01.398018	317.6	13.9	-73.5	0.0
2026-01-05 19:19:02.534533	317.7	13.9	-74.1	0.0
2026-01-05 19:19:03.673978	317.9	13.8	-74.0	0.0
2026-01-05 19:19:04.810940	318.1	13.7	-74.4	0.0
2026-01-05 19:19:05.946584	318.2	13.6	-74.1	1.2
2026-01-05 19:19:07.084063	318.4	13.5	-74.5	0.0
2026-01-05 19:19:08.222261	318.5	13.4	-72.7	0.0
2026-01-05 19:19:09.360353	318.7	13.4	-75.2	0.0
2026-01-05 19:19:10.497307	318.9	13.3	-72.6	0.0
2026-01-05 19:19:11.634695	319.0	13.2	-73.4	0.0
2026-01-05 19:19:12.768076	319.2	13.1	-72.8	0.0
2026-01-05 19:19:13.905296	319.3	13.0	-73.0	0.0
2026-01-05 19:19:15.042353	319.5	12.9	-73.7	0.0
2026-01-05 19:19:16.180535	319.6	12.9	-73.7	0.0
2026-01-05 19:19:17.317090	319.8	12.8	-74.1	0.0
2026-01-05 19:19:18.453586	320.0	12.7	-73.3	0.0
2026-01-05 19:19:19.589068	320.1	12.6	-73.0	0.0
2026-01-05 19:19:20.726417	320.3	12.5	-74.4	0.0
2026-01-05 19:19:21.863206	320.4	12.5	-74.1	0.0
2026-01-05 19:19:23.000313	320.6	12.4	-74.2	0.0
2026-01-05 19:19:24.136326	320.7	12.3	-73.6	0.0
2026-01-05 19:19:25.269263	320.8	12.2	-73.4	0.0
2026-01-05 19:19:26.406164	321.0	12.1	-73.4	0.0
2026-01-05 19:19:27.543858	321.1	12.1	-73.3	0.0
2026-01-05 19:19:28.681903	321.3	12.0	-73.8	0.0
2026-01-05 19:19:29.819958	321.4	11.9	-74.0	0.0
2026-01-05 19:19:30.959671	321.6	11.8	-73.5	0.0
2026-01-05 19:19:32.096839	321.7	11.7	-73.5	0.0
2026-01-05 19:19:33.234839	321.9	11.7	-73.5	0.0
2026-01-05 19:19:34.373051	322.0	11.6	-72.9	0.0
2026-01-05 19:19:35.510768	322.1	11.5	-73.2	0.0
2026-01-05 19:19:36.649875	322.3	11.4	-74.4	0.0
2026-01-05 19:19:37.788438	322.4	11.3	-74.0	0.0
2026-01-05 19:19:38.923381	322.6	11.3	-73.6	0.0
2026-01-05 19:19:40.060589	322.7	11.2	-73.7	0.0
2026-01-05 19:19:41.199958	322.8	11.1	-73.4	0.0
2026-01-05 19:19:42.336193	323.0	11.0	-72.9	0.0
2026-01-05 19:19:43.473893	323.1	10.9	-71.1	0.0
2026-01-05 19:19:44.610688	323.2	10.9	-75.0	0.0
2026-01-05 19:19:45.749486	323.4	10.8	-75.7	0.0
2026-01-05 19:19:46.883995	323.5	10.7	-75.4	0.0
2026-01-05 19:19:48.020751	323.6	10.6	-75.9	0.0
2026-01-05 19:19:49.160874	323.8	10.5	-78.4	0.0
2026-01-05 19:19:50.298130	323.9	10.5	-78.6	0.0
2026-01-05 19:19:51.434983	324.0	10.4	-79.4	0.0
2026-01-05 19:19:52.573525	324.2	10.3	-80.9	0.0
2026-01-05 19:19:53.710266	324.3	10.2	-81.8	0.0
2026-01-05 19:19:54.847738	324.4	10.1	-81.0	0.0
2026-01-05 19:19:55.983609	324.6	10.1	-80.4	0.0
#Closed at: 2026-01-05 19:11:07.754753