passes_logs/2026/01/29/R3.2S-Naryan-Mar/R3.2S-Naryan-Mar__20260129_195813_NOAA_21_JPSS-2_rec.log

#Pass ID: 20260129_195813_NOAA 21 (JPSS-2)
#Satellite: NOAA 21 (JPSS-2)
#Configuration: NOAA-21
#almurnet v.1.7.20240730
#Start time: 2026-01-29 19:58:15

#Version: 2.2.20231116
#Station: R3.2S-Naryan-Mar
#Location: 53.008057 lon 67.646978 lat
#TLE: 1 54234U 22150A   26028.89828222  .00000145  00000+0  89569-4 0  9997
#TLE: 2 54234  98.7511 329.6308 0000927 198.8651 161.2491 14.19540676166783

#Time	Az	El	Level	Level2	SNR	BER	BlckErr	Temp	State	Recorded	gain1	gain2
2026-01-29 19:58:15.46	16.15	0.07	-58.6	-71.5	3.5	8.45e-01	0	43	0	0	60	147001
2026-01-29 19:58:16.46	16.24	0.11	-57.1	-73.7	3.6	1.51e+00	0	44	104	0	60	184858
2026-01-29 19:58:17.46	16.33	0.16	-58.1	-74.1	3.6	1.51e+00	0	45	104	0	60	193196
2026-01-29 19:58:18.47	16.42	0.20	-60.2	-75.4	3.5	1.52e+00	0	45	104	0	60	222751
2026-01-29 19:58:19.48	16.51	0.25	-59.7	-75.0	3.5	1.52e+00	0	45	104	0	60	214486
2026-01-29 19:58:20.48	16.59	0.29	-60.8	-75.6	3.5	1.52e+00	0	45	104	0	60	228722
2026-01-29 19:58:21.49	16.68	0.33	-58.7	-75.4	3.5	1.51e+00	0	45	104	0	60	223879
2026-01-29 19:58:22.50	16.78	0.38	-60.5	-75.5	3.5	1.51e+00	0	45	104	0	60	227364
2026-01-29 19:58:23.51	16.87	0.42	-60.2	-75.6	3.5	1.52e+00	0	45	104	0	60	230379
2026-01-29 19:58:24.51	16.96	0.46	-60.3	-75.0	3.5	1.51e+00	0	45	104	0	60	214529
2026-01-29 19:58:25.52	17.05	0.51	-59.8	-74.5	3.6	1.52e+00	0	45	104	0	60	202730
2026-01-29 19:58:26.53	17.14	0.55	-60.5	-74.7	3.5	1.52e+00	0	45	104	0	60	207726
2026-01-29 19:58:27.54	17.23	0.59	-59.1	-75.0	3.5	1.52e+00	0	45	104	0	60	214874
2026-01-29 19:58:28.55	17.32	0.64	-60.9	-75.3	3.5	1.51e+00	0	45	104	0	60	222295
2026-01-29 19:58:29.56	17.41	0.68	-61.0	-75.6	3.5	1.52e+00	0	45	104	0	60	228531
2026-01-29 19:58:30.56	17.51	0.72	-57.7	-73.3	3.7	1.52e+00	0	45	104	0	60	176321
2026-01-29 19:58:31.56	17.60	0.77	-57.1	-74.0	3.5	1.51e+00	0	45	104	0	60	191471
2026-01-29 19:58:32.57	17.69	0.81	-58.0	-73.0	3.6	1.51e+00	0	45	104	0	60	169496
2026-01-29 19:58:33.58	17.78	0.86	-54.2	-73.0	3.6	1.50e+00	0	45	104	0	60	169321
2026-01-29 19:58:34.58	17.88	0.90	-60.2	-74.9	3.5	1.51e+00	0	45	104	0	60	210412
2026-01-29 19:58:35.59	17.97	0.94	-52.8	-72.3	3.6	1.51e+00	0	45	104	0	60	156563
2026-01-29 19:58:36.59	18.06	0.99	-51.5	-70.1	4.1	1.50e+00	0	45	104	0	60	122207
2026-01-29 19:58:37.59	18.16	1.03	-55.2	-70.5	3.9	1.50e+00	0	45	104	0	60	126902
2026-01-29 19:58:38.60	18.25	1.07	-56.1	-73.1	3.6	1.51e+00	0	45	104	0	60	171698
2026-01-29 19:58:39.60	18.35	1.12	-56.3	-71.6	3.7	1.51e+00	0	45	104	0	60	144281
2026-01-29 19:58:40.61	18.44	1.16	-54.0	-71.6	3.9	1.51e+00	0	45	104	0	60	144791
2026-01-29 19:58:41.62	18.54	1.20	-56.8	-73.9	3.5	1.52e+00	0	45	104	0	60	188561
2026-01-29 19:58:42.63	18.63	1.25	-58.8	-74.0	3.5	1.51e+00	0	45	104	0	60	191048
2026-01-29 19:58:43.64	18.73	1.29	-58.7	-74.2	3.5	1.51e+00	0	45	104	0	60	195191
2026-01-29 19:58:44.64	18.82	1.34	-57.3	-73.8	3.5	1.51e+00	0	45	104	0	60	186320
2026-01-29 19:58:45.65	18.92	1.38	-59.1	-73.8	3.5	1.51e+00	0	45	104	0	60	186737
2026-01-29 19:58:46.66	19.02	1.42	-56.4	-72.2	3.6	1.52e+00	0	45	104	0	60	154454
2026-01-29 19:58:47.67	19.11	1.47	-57.0	-72.2	3.8	1.52e+00	0	45	104	0	60	154388
2026-01-29 19:58:48.68	19.21	1.51	-54.6	-71.1	3.8	1.51e+00	0	45	104	0	60	135995
2026-01-29 19:58:49.69	19.31	1.56	-54.8	-71.1	3.6	1.51e+00	0	45	104	0	60	136930
2026-01-29 19:58:50.70	19.40	1.60	-49.7	-67.2	4.2	1.50e+00	0	45	104	0	60	87366
2026-01-29 19:58:51.70	19.50	1.64	-49.6	-67.0	4.3	1.45e+00	0	45	104	0	60	85203
2026-01-29 19:58:52.71	19.60	1.69	-49.6	-68.8	4.2	1.50e+00	0	45	104	0	60	104489
2026-01-29 19:58:53.72	19.70	1.73	-49.5	-67.9	4.2	1.50e+00	0	45	104	0	60	94165
2026-01-29 19:58:54.72	19.80	1.77	-49.5	-67.8	4.2	1.50e+00	0	45	104	0	60	92963
2026-01-29 19:58:55.73	19.90	1.82	-49.5	-67.1	4.3	1.50e+00	0	45	104	0	60	85763
2026-01-29 19:58:56.74	19.99	1.86	-49.4	-68.7	4.2	1.50e+00	0	45	104	0	60	103836
2026-01-29 19:58:57.74	20.09	1.91	-49.4	-68.7	4.2	1.50e+00	0	45	104	0	60	103822
2026-01-29 19:58:58.74	20.19	1.95	-49.5	-68.8	4.2	1.50e+00	0	45	104	0	60	104244
2026-01-29 19:58:59.75	20.29	1.99	-49.4	-68.7	4.2	1.50e+00	0	46	104	0	60	103931
2026-01-29 19:59:00.75	20.39	2.04	-49.4	-68.5	4.2	1.50e+00	0	45	104	0	60	101739
2026-01-29 19:59:01.76	20.49	2.08	-49.4	-68.7	4.2	1.50e+00	0	45	104	0	60	103854
2026-01-29 19:59:02.77	20.59	2.12	-49.4	-67.7	4.3	1.50e+00	0	45	104	0	60	91832
2026-01-29 19:59:03.78	20.70	2.17	-49.5	-68.7	4.2	1.50e+00	0	45	104	0	60	103298
2026-01-29 19:59:04.78	20.80	2.21	-49.4	-68.7	4.2	1.50e+00	0	46	104	0	60	104073
2026-01-29 19:59:05.79	20.90	2.26	-49.7	-68.8	4.2	1.50e+00	0	46	104	0	60	105129
2026-01-29 19:59:06.80	21.00	2.30	-49.1	-68.4	4.3	1.50e+00	0	46	104	0	60	100222
2026-01-29 19:59:07.80	21.10	2.34	-49.2	-68.5	4.2	1.50e+00	0	46	104	0	60	100829
2026-01-29 19:59:08.81	21.20	2.39	-49.1	-68.5	4.2	1.50e+00	0	46	104	0	60	101724
2026-01-29 19:59:09.82	21.31	2.43	-49.2	-68.5	4.2	1.50e+00	0	46	104	0	60	101525
2026-01-29 19:59:10.83	21.41	2.47	-49.2	-67.5	4.3	1.50e+00	0	46	104	0	60	90677
2026-01-29 19:59:11.84	21.51	2.52	-49.2	-67.5	4.2	1.50e+00	0	46	104	0	60	90224
2026-01-29 19:59:12.84	21.62	2.56	-49.8	-69.0	4.1	1.50e+00	0	46	104	0	60	107522
2026-01-29 19:59:13.85	21.72	2.61	-50.0	-67.4	4.2	1.50e+00	0	46	104	0	60	88755
2026-01-29 19:59:14.86	21.83	2.65	-50.0	-69.1	4.1	1.50e+00	0	46	104	0	60	108099
2026-01-29 19:59:15.87	21.93	2.69	-50.0	-67.3	4.2	1.50e+00	0	46	104	0	60	87819
2026-01-29 19:59:16.87	22.04	2.74	-50.1	-69.1	4.0	1.50e+00	0	46	104	0	60	108558
2026-01-29 19:59:17.88	22.14	2.78	-50.1	-67.4	4.2	1.50e+00	0	45	104	0	60	89239
2026-01-29 19:59:18.89	22.25	2.82	-50.1	-67.4	4.1	1.50e+00	0	46	104	0	60	89373
2026-01-29 19:59:19.90	22.35	2.87	-50.1	-68.3	4.1	1.50e+00	0	46	104	0	60	98831
2026-01-29 19:59:20.91	22.46	2.91	-50.0	-69.2	4.1	1.50e+00	0	46	104	0	60	109236
2026-01-29 19:59:21.92	22.57	2.96	-50.1	-67.5	4.1	1.50e+00	0	46	104	0	60	89967
2026-01-29 19:59:22.92	22.67	3.00	-50.1	-67.3	4.2	1.50e+00	0	46	104	0	60	88523
2026-01-29 19:59:23.92	22.78	3.04	-50.0	-69.2	4.0	1.50e+00	0	46	104	0	60	109403
2026-01-29 19:59:24.93	22.88	3.09	-50.1	-67.4	4.1	1.50e+00	0	46	104	0	60	89429
2026-01-29 19:59:25.94	22.99	3.13	-50.2	-67.4	4.2	1.50e+00	0	46	104	0	60	88938
2026-01-29 19:59:26.94	23.10	3.17	-50.0	-69.2	4.1	1.50e+00	0	46	104	0	60	109736
2026-01-29 19:59:27.95	23.21	3.22	-50.1	-68.3	4.1	1.50e+00	0	46	104	0	60	98391
2026-01-29 19:59:28.95	23.32	3.26	-50.0	-68.1	4.2	1.50e+00	0	45	104	0	60	97147
2026-01-29 19:59:29.95	23.42	3.30	-49.8	-67.1	4.2	1.50e+00	0	46	104	0	60	86336
2026-01-29 19:59:30.95	23.53	3.35	-49.9	-67.2	4.1	1.50e+00	0	45	104	0	60	87046
2026-01-29 19:59:31.96	23.64	3.39	-50.0	-67.3	4.2	1.50e+00	0	46	104	0	60	88078
2026-01-29 19:59:32.96	23.75	3.43	-50.0	-69.1	4.1	1.50e+00	0	46	104	0	60	108665
2026-01-29 19:59:33.97	23.86	3.48	-49.9	-67.2	4.1	1.50e+00	0	46	104	0	60	87079
2026-01-29 19:59:34.98	23.97	3.52	-50.1	-69.2	4.0	1.50e+00	0	46	104	0	60	109709
2026-01-29 19:59:35.99	24.08	3.56	-50.0	-68.1	4.2	1.50e+00	0	46	104	0	60	96819
2026-01-29 19:59:37.00	24.19	3.61	-50.0	-68.1	4.0	1.50e+00	0	46	104	0	60	96580
2026-01-29 19:59:38.00	24.30	3.65	-50.0	-69.1	4.1	1.50e+00	0	46	104	0	60	108347
2026-01-29 19:59:39.01	24.42	3.70	-49.9	-68.9	4.1	1.50e+00	0	46	104	0	60	105495
2026-01-29 19:59:40.02	24.53	3.74	-49.9	-67.3	4.2	1.50e+00	0	46	104	0	60	87798
2026-01-29 19:59:41.02	24.64	3.78	-50.0	-69.0	4.1	1.50e+00	0	46	104	0	60	106889
2026-01-29 19:59:42.03	24.75	3.83	-50.0	-69.2	4.0	1.50e+00	0	46	104	0	60	109174
2026-01-29 19:59:43.03	24.86	3.87	-50.1	-67.3	4.2	1.50e+00	0	46	104	0	60	87972
2026-01-29 19:59:44.04	24.98	3.91	-50.2	-67.4	4.1	1.50e+00	0	46	104	0	60	89087
2026-01-29 19:59:45.05	25.09	3.96	-50.2	-69.2	4.1	1.50e+00	0	46	104	0	60	109356
2026-01-29 19:59:46.05	25.20	4.00	-50.2	-68.3	4.1	1.50e+00	0	46	104	0	60	98826
2026-01-29 19:59:47.06	25.32	4.04	-50.5	-67.6	4.1	1.50e+00	0	46	104	0	60	91519
2026-01-29 19:59:48.07	25.43	4.09	-50.5	-67.6	4.1	1.50e+00	0	46	104	0	60	91359
2026-01-29 19:59:49.07	25.55	4.13	-50.4	-67.6	4.2	1.50e+00	0	46	104	0	60	90983
2026-01-29 19:59:50.08	25.66	4.17	-50.5	-67.7	4.1	1.50e+00	0	46	104	0	60	92353
2026-01-29 19:59:51.09	25.78	4.22	-50.4	-67.6	4.1	1.50e+00	0	46	104	0	60	91091
2026-01-29 19:59:52.10	25.89	4.26	-50.5	-67.5	4.1	1.50e+00	0	46	104	0	60	90586
2026-01-29 19:59:53.11	26.01	4.30	-50.3	-68.3	4.1	1.50e+00	0	46	104	0	60	98461
2026-01-29 19:59:54.11	26.13	4.34	-50.2	-68.2	4.1	1.51e+00	0	46	104	0	60	97748
2026-01-29 19:59:55.12	26.24	4.39	-50.3	-69.2	4.0	1.50e+00	0	46	104	0	60	109760
2026-01-29 19:59:56.13	26.36	4.43	-50.3	-67.9	4.1	1.50e+00	0	46	104	0	60	93989
2026-01-29 19:59:57.14	26.48	4.47	-50.3	-67.8	4.1	1.50e+00	0	46	104	0	60	93321
2026-01-29 19:59:58.15	26.60	4.52	-50.4	-69.0	4.1	1.50e+00	0	46	104	0	60	106929
2026-01-29 19:59:59.16	26.71	4.56	-50.3	-69.3	4.0	1.51e+00	0	46	104	0	60	111294
2026-01-29 20:00:00.16	26.83	4.60	-50.4	-69.4	4.0	1.51e+00	0	46	104	0	60	112532
2026-01-29 20:00:01.17	26.95	4.65	-50.4	-67.6	4.1	1.50e+00	0	46	104	0	60	91289
2026-01-29 20:00:02.17	27.07	4.69	-50.5	-68.5	4.0	1.51e+00	0	46	104	0	60	101710
2026-01-29 20:00:03.17	27.19	4.73	-50.4	-67.9	4.1	1.50e+00	0	46	104	0	60	94166
2026-01-29 20:00:04.18	27.31	4.78	-50.5	-67.7	4.1	1.50e+00	0	46	104	0	60	92453
2026-01-29 20:00:05.19	27.43	4.82	-50.5	-69.4	4.0	1.51e+00	0	46	104	0	60	111667
2026-01-29 20:00:06.20	27.55	4.86	-50.4	-67.6	4.1	1.50e+00	0	46	104	0	60	91449
2026-01-29 20:00:07.21	27.67	4.90	-50.4	-67.8	4.1	1.50e+00	0	46	104	0	60	93059
2026-01-29 20:00:08.21	27.79	4.95	-50.4	-67.5	4.1	1.50e+00	0	46	104	0	60	90533
2026-01-29 20:00:09.22	27.91	4.99	-50.5	-69.3	4.0	1.50e+00	0	46	104	0	60	111354
2026-01-29 20:00:10.22	28.03	5.03	-50.5	-68.5	4.1	1.50e+00	0	46	104	0	60	101472
2026-01-29 20:00:11.23	28.15	5.07	-50.6	-67.7	4.1	1.50e+00	0	46	104	0	60	91976
2026-01-29 20:00:12.23	28.28	5.12	-50.6	-67.7	4.1	1.50e+00	0	46	104	0	60	91855
2026-01-29 20:00:13.24	28.40	5.16	-50.6	-68.1	4.1	1.50e+00	0	46	104	0	60	96139
2026-01-29 20:00:14.25	28.52	5.20	-50.6	-67.7	4.1	1.50e+00	0	46	104	0	60	92690
2026-01-29 20:00:15.25	28.65	5.24	-50.6	-68.2	4.1	1.50e+00	0	46	104	0	60	97729
2026-01-29 20:00:16.26	28.77	5.29	-50.6	-69.5	4.0	1.51e+00	0	46	104	0	60	113275
2026-01-29 20:00:17.27	28.89	5.33	-50.7	-69.5	4.0	1.51e+00	0	46	104	0	60	113192
2026-01-29 20:00:18.28	29.02	5.37	-50.6	-67.7	4.0	1.50e+00	0	46	104	0	60	92403
2026-01-29 20:00:19.28	29.14	5.41	-50.6	-68.6	4.1	1.50e+00	0	46	104	0	60	102485
2026-01-29 20:00:20.28	29.27	5.46	-50.7	-67.9	4.1	1.50e+00	0	46	104	0	60	94860
2026-01-29 20:00:21.29	29.39	5.50	-50.7	-67.7	4.0	1.50e+00	0	46	104	0	60	92757
2026-01-29 20:00:22.30	29.52	5.54	-50.7	-67.7	4.0	1.50e+00	0	46	104	0	60	91927
2026-01-29 20:00:23.31	29.65	5.58	-50.8	-68.0	4.0	1.50e+00	0	46	104	0	60	95183
2026-01-29 20:00:24.31	29.77	5.62	-50.7	-67.4	3.9	1.51e+00	0	46	104	0	60	89322
2026-01-29 20:00:25.32	29.90	5.67	-50.7	-67.3	3.9	1.51e+00	0	46	104	0	60	87855
2026-01-29 20:00:26.32	30.02	5.71	-50.8	-67.0	3.8	1.51e+00	0	46	104	0	60	85275
2026-01-29 20:00:27.33	30.15	5.75	-50.8	-66.3	3.7	1.51e+00	0	46	104	0	60	78187
2026-01-29 20:00:28.34	30.28	5.79	-50.6	-63.6	5.2	1.04e+00	0	46	104	0	60	57603
2026-01-29 20:00:29.35	30.41	5.83	-50.4	-60.0	7.4	1.47e-01	0	46	0	0	60	37968
2026-01-29 20:00:30.36	30.54	5.88	-50.2	-58.0	9.6	2.68e-02	0	46	0	3145728	60	30145
2026-01-29 20:00:31.36	30.67	5.92	-49.8	-56.4	11.3	1.60e-03	0	46	0	6291456	60	25032
2026-01-29 20:00:32.37	30.80	5.96	-49.5	-55.2	12.5	1.22e-04	0	46	0	10485760	60	21903
2026-01-29 20:00:33.38	30.93	6.00	-49.4	-54.9	12.9	1.75e-05	0	46	0	13631488	60	21064
2026-01-29 20:00:34.38	31.06	6.04	-49.4	-54.9	12.8	1.22e-05	0	46	0	16777216	60	21081
2026-01-29 20:00:35.39	31.19	6.08	-49.4	-55.0	13.0	2.89e-05	0	46	0	19922944	60	21392
2026-01-29 20:00:36.39	31.32	6.13	-50.9	-55.5	14.7	7.00e-07	0	46	0	23068672	60	22660
2026-01-29 20:00:37.40	31.45	6.17	-50.1	-57.8	10.0	1.13e-03	0	46	0	26214400	60	29470
2026-01-29 20:00:38.40	31.58	6.21	-53.0	-59.6	11.4	2.08e-02	0	46	0	29360128	60	36468
2026-01-29 20:00:39.41	31.71	6.25	-52.5	-55.3	15.7	0.00e+00	0	46	0	32505856	60	22132
2026-01-29 20:00:40.42	31.84	6.29	-51.6	-54.3	16.4	0.00e+00	0	46	0	35651584	60	19679
2026-01-29 20:00:41.43	31.98	6.33	-52.0	-54.3	16.9	0.00e+00	0	46	0	38797312	60	19833
2026-01-29 20:00:42.44	32.11	6.37	-52.2	-54.2	17.2	0.00e+00	0	46	0	41943040	60	19610
2026-01-29 20:00:43.44	32.24	6.42	-52.1	-54.2	16.7	0.00e+00	0	46	0	44040192	60	19516
2026-01-29 20:00:44.45	32.38	6.46	-51.1	-54.0	15.7	0.00e+00	0	46	0	47185920	60	19119
2026-01-29 20:00:45.46	32.51	6.50	-50.1	-54.1	14.6	0.00e+00	0	46	0	50331648	60	19320
2026-01-29 20:00:46.47	32.64	6.54	-49.9	-54.1	14.1	0.00e+00	0	46	0	53477376	60	19324
2026-01-29 20:00:47.48	32.78	6.58	-50.2	-54.2	14.0	7.00e-07	0	46	0	57671680	60	19411
2026-01-29 20:00:48.48	32.91	6.62	-50.8	-54.2	14.8	0.00e+00	0	46	0	60817408	60	19467
2026-01-29 20:00:49.48	33.05	6.66	-51.5	-54.2	16.1	0.00e+00	0	46	0	63963136	60	19547
2026-01-29 20:00:50.48	33.18	6.70	-51.8	-54.2	17.4	0.00e+00	0	46	0	67108864	60	19453
2026-01-29 20:00:51.49	33.32	6.74	-52.0	-54.2	18.1	0.00e+00	0	46	0	70254592	60	19515
2026-01-29 20:00:52.49	33.46	6.78	-52.0	-54.3	18.1	0.00e+00	0	46	0	73400320	60	19758
2026-01-29 20:00:53.50	33.59	6.82	-52.0	-54.3	17.9	0.00e+00	0	46	0	76546048	60	19751
2026-01-29 20:00:54.50	33.73	6.86	-52.4	-54.5	17.5	0.00e+00	0	46	0	79691776	60	20093
2026-01-29 20:00:55.51	33.87	6.90	-52.6	-54.5	17.5	0.00e+00	0	46	0	82837504	60	20217
2026-01-29 20:00:56.52	34.01	6.94	-52.5	-54.4	17.6	0.00e+00	0	46	0	85983232	60	20080
2026-01-29 20:00:57.52	34.14	6.98	-52.1	-54.4	17.8	0.00e+00	0	46	0	89128960	60	19872
2026-01-29 20:00:58.53	34.28	7.02	-51.7	-54.2	18.2	0.00e+00	0	46	0	91226112	60	19539
2026-01-29 20:00:59.54	34.42	7.06	-52.0	-54.3	18.1	0.00e+00	0	46	0	94371840	60	19745
2026-01-29 20:01:00.55	34.56	7.10	-51.8	-54.2	18.0	0.00e+00	0	46	0	97517568	60	19436
2026-01-29 20:01:01.55	34.70	7.14	-51.6	-54.1	17.8	0.00e+00	0	46	0	100663296	60	19251
2026-01-29 20:01:02.56	34.84	7.18	-51.2	-54.2	17.3	0.00e+00	0	46	0	103809024	60	19457
2026-01-29 20:01:03.56	34.98	7.22	-50.7	-54.2	16.7	0.00e+00	0	46	0	106954752	60	19493
2026-01-29 20:01:04.57	35.12	7.26	-50.7	-54.1	17.0	0.00e+00	0	46	0	110100480	60	19315
2026-01-29 20:01:05.57	35.26	7.30	-51.4	-54.0	17.8	0.00e+00	0	46	0	114294784	60	19000
2026-01-29 20:01:06.58	35.40	7.34	-52.1	-54.1	18.2	0.00e+00	0	46	0	117440512	60	19247
2026-01-29 20:01:07.58	35.55	7.38	-52.3	-54.1	18.3	0.00e+00	0	46	0	120586240	60	19263
2026-01-29 20:01:08.59	35.69	7.42	-52.3	-54.1	18.2	0.00e+00	0	46	0	123731968	60	19339
2026-01-29 20:01:09.59	35.83	7.46	-51.9	-54.1	17.5	0.00e+00	0	46	0	126877696	60	19306
2026-01-29 20:01:10.60	35.97	7.50	-51.1	-54.0	16.8	0.00e+00	0	46	0	130023424	60	19094
2026-01-29 20:01:11.60	36.12	7.54	-50.9	-54.0	16.7	0.00e+00	0	46	0	133169152	60	19157
2026-01-29 20:01:12.61	36.26	7.57	-51.0	-54.0	16.8	0.00e+00	0	46	0	136314880	60	18970
2026-01-29 20:01:13.62	36.41	7.61	-51.0	-53.9	16.7	0.00e+00	0	46	0	139460608	60	18932
2026-01-29 20:01:14.62	36.55	7.65	-50.7	-53.9	16.4	0.00e+00	0	46	0	141557760	60	18830
2026-01-29 20:01:15.63	36.69	7.69	-50.7	-54.0	16.3	0.00e+00	0	46	0	144703488	60	18991
2026-01-29 20:01:16.64	36.84	7.73	-50.9	-54.2	16.4	0.00e+00	0	46	0	147849216	60	19439
2026-01-29 20:01:17.65	36.99	7.77	-51.1	-54.2	16.9	0.00e+00	0	46	0	150994944	60	19588
2026-01-29 20:01:18.66	37.13	7.81	-51.1	-54.0	17.4	0.00e+00	0	46	0	154140672	60	19099
2026-01-29 20:01:19.66	37.28	7.84	-51.4	-54.0	17.8	0.00e+00	0	46	0	157286400	60	19071
2026-01-29 20:01:20.67	37.43	7.88	-51.9	-54.1	18.1	0.00e+00	0	46	0	161480704	60	19317
2026-01-29 20:01:21.68	37.57	7.92	-52.2	-54.2	18.1	0.00e+00	0	46	0	164626432	60	19488
2026-01-29 20:01:22.68	37.72	7.96	-52.5	-54.3	18.0	0.00e+00	0	46	0	167772160	60	19769
2026-01-29 20:01:23.69	37.87	8.00	-52.3	-54.0	18.4	0.00e+00	0	46	0	170917888	60	19086
2026-01-29 20:01:24.70	38.02	8.03	-52.1	-53.8	18.6	0.00e+00	0	46	0	174063616	60	18671
2026-01-29 20:01:25.70	38.17	8.07	-52.0	-53.9	18.4	0.00e+00	0	46	0	177209344	60	18752
2026-01-29 20:01:26.71	38.31	8.11	-52.1	-54.0	17.9	0.00e+00	0	46	0	180355072	60	19161
2026-01-29 20:01:27.71	38.46	8.15	-51.9	-54.0	17.0	0.00e+00	0	46	0	183500800	60	19155
2026-01-29 20:01:28.72	38.61	8.18	-51.4	-53.8	16.2	0.00e+00	0	46	0	186646528	60	18569
2026-01-29 20:01:29.72	38.76	8.22	-51.3	-53.6	16.5	0.00e+00	0	46	0	188743680	60	18183
2026-01-29 20:01:30.73	38.91	8.26	-51.6	-53.6	17.6	0.00e+00	0	46	0	191889408	60	18232
2026-01-29 20:01:31.74	39.07	8.29	-51.9	-53.6	18.6	0.00e+00	0	46	0	195035136	60	18133
2026-01-29 20:01:32.75	39.22	8.33	-51.9	-53.5	19.0	0.00e+00	0	46	0	198180864	60	17932
2026-01-29 20:01:33.75	39.37	8.37	-51.9	-53.6	19.1	0.00e+00	0	46	0	201326592	60	18123
2026-01-29 20:01:34.76	39.52	8.40	-51.7	-53.5	19.2	0.00e+00	0	46	0	204472320	60	17975
2026-01-29 20:01:35.77	39.67	8.44	-51.4	-53.5	18.9	0.00e+00	0	46	0	208666624	60	18048
2026-01-29 20:01:36.78	39.83	8.48	-51.3	-53.4	18.6	0.00e+00	0	46	0	211812352	60	17739
2026-01-29 20:01:37.78	39.98	8.51	-51.2	-53.4	18.0	0.00e+00	0	46	0	214958080	60	17719
2026-01-29 20:01:38.78	40.13	8.55	-51.1	-53.4	17.6	0.00e+00	0	46	0	218103808	60	17890
2026-01-29 20:01:39.79	40.29	8.58	-50.8	-53.5	17.6	0.00e+00	0	46	0	221249536	60	17960
2026-01-29 20:01:40.79	40.44	8.62	-50.9	-53.8	17.9	0.00e+00	0	46	0	224395264	60	18556
2026-01-29 20:01:41.80	40.59	8.66	-51.1	-53.6	18.3	0.00e+00	0	46	0	227540992	60	18116
2026-01-29 20:01:42.80	40.75	8.69	-51.3	-53.6	18.4	0.00e+00	0	46	0	230686720	60	18130
2026-01-29 20:01:43.81	40.90	8.73	-51.7	-53.8	18.3	0.00e+00	0	46	0	233832448	60	18619
2026-01-29 20:01:44.82	41.06	8.76	-51.8	-53.8	18.0	0.00e+00	0	46	0	235929600	60	18586
2026-01-29 20:01:45.82	41.21	8.80	-51.8	-53.8	18.1	0.00e+00	0	46	0	239075328	60	18560
2026-01-29 20:01:46.83	41.37	8.83	-51.9	-53.8	17.9	0.00e+00	0	46	0	242221056	60	18733
2026-01-29 20:01:47.85	41.53	8.87	-52.0	-53.9	18.1	0.00e+00	0	46	0	245366784	60	18903
2026-01-29 20:01:48.85	41.69	8.90	-52.3	-54.1	18.4	0.00e+00	0	46	0	248512512	60	19389
2026-01-29 20:01:49.85	41.84	8.94	-52.1	-53.8	19.0	0.00e+00	0	46	0	251658240	60	18564
2026-01-29 20:01:50.86	42.00	8.97	-51.5	-53.4	19.1	0.00e+00	0	46	0	254803968	60	17878
2026-01-29 20:01:51.87	42.16	9.01	-51.3	-53.3	19.2	0.00e+00	0	46	0	257949696	60	17549
2026-01-29 20:01:52.87	42.32	9.04	-51.4	-53.2	19.1	0.00e+00	0	46	0	262144000	60	17381
2026-01-29 20:01:53.88	42.48	9.07	-51.4	-53.1	18.9	0.00e+00	0	46	0	265289728	60	17227
2026-01-29 20:01:54.88	42.63	9.11	-51.4	-53.1	18.7	0.00e+00	0	46	0	268435456	60	17251
2026-01-29 20:01:55.89	42.80	9.14	-51.4	-53.2	18.5	0.00e+00	0	46	0	271581184	60	17487
2026-01-29 20:01:56.90	42.96	9.18	-51.5	-53.3	18.7	0.00e+00	0	46	0	274726912	60	17616
2026-01-29 20:01:57.91	43.12	9.21	-51.7	-53.5	18.9	0.00e+00	0	46	0	277872640	60	17983
2026-01-29 20:01:58.91	43.28	9.24	-51.9	-53.7	18.9	0.00e+00	0	46	0	281018368	60	18332
2026-01-29 20:01:59.92	43.44	9.28	-52.0	-53.6	19.0	0.00e+00	0	46	0	283115520	60	18249
2026-01-29 20:02:00.93	43.60	9.31	-52.1	-53.7	18.9	0.00e+00	0	46	0	286261248	60	18451
2026-01-29 20:02:01.94	43.76	9.34	-51.8	-53.5	19.0	0.00e+00	0	46	0	289406976	60	18044
2026-01-29 20:02:02.95	43.92	9.37	-51.7	-53.5	18.7	0.00e+00	0	46	0	292552704	60	17962
2026-01-29 20:02:03.96	44.09	9.41	-51.5	-53.5	18.4	0.00e+00	0	46	0	295698432	60	18036
2026-01-29 20:02:04.96	44.25	9.44	-51.2	-53.4	18.3	0.00e+00	0	46	0	298844160	60	17725
2026-01-29 20:02:05.97	44.41	9.47	-51.1	-53.3	18.4	0.00e+00	0	46	0	303038464	60	17605
2026-01-29 20:02:06.98	44.58	9.50	-51.2	-53.3	18.5	0.00e+00	0	46	0	306184192	60	17545
2026-01-29 20:02:07.99	44.74	9.54	-51.3	-53.3	18.5	0.00e+00	0	46	0	309329920	60	17615
2026-01-29 20:02:09.00	44.91	9.57	-51.5	-53.4	18.5	0.00e+00	0	46	0	312475648	60	17873
2026-01-29 20:02:10.00	45.07	9.60	-51.5	-53.5	18.2	0.00e+00	0	46	0	315621376	60	18042
2026-01-29 20:02:11.01	45.24	9.63	-51.4	-53.4	17.8	0.00e+00	0	46	0	318767104	60	17813
2026-01-29 20:02:12.02	45.40	9.66	-51.3	-53.4	17.4	0.00e+00	0	46	0	321912832	60	17877
2026-01-29 20:02:13.03	45.57	9.69	-51.3	-53.5	17.5	0.00e+00	0	46	0	325058560	60	18093
2026-01-29 20:02:14.03	45.73	9.72	-51.7	-53.7	17.9	0.00e+00	0	46	0	328204288	60	18490
2026-01-29 20:02:15.03	45.90	9.75	-51.9	-53.7	18.4	0.00e+00	0	46	0	330301440	60	18471
2026-01-29 20:02:16.04	46.07	9.79	-51.9	-53.7	18.7	0.00e+00	0	46	0	333447168	60	18351
2026-01-29 20:02:17.05	46.23	9.82	-52.1	-53.8	19.1	0.00e+00	0	46	0	336592896	60	18531
2026-01-29 20:02:18.05	46.40	9.85	-52.1	-53.7	19.0	0.00e+00	0	46	0	339738624	60	18504
2026-01-29 20:02:19.06	46.57	9.88	-52.0	-53.6	19.0	0.00e+00	0	46	0	342884352	60	18314
2026-01-29 20:02:20.06	46.73	9.91	-52.0	-53.7	18.8	0.00e+00	0	46	0	346030080	60	18315
2026-01-29 20:02:21.07	46.90	9.94	-52.1	-53.7	19.0	0.00e+00	0	46	0	350224384	60	18500
2026-01-29 20:02:22.08	47.07	9.97	-52.1	-53.7	19.0	0.00e+00	0	46	0	353370112	60	18460
2026-01-29 20:02:23.08	47.24	9.99	-52.1	-53.7	19.1	0.00e+00	0	46	0	356515840	60	18460
2026-01-29 20:02:24.09	47.41	10.02	-52.0	-53.6	19.3	0.00e+00	0	46	0	359661568	60	18109
2026-01-29 20:02:25.10	47.58	10.05	-51.7	-53.4	19.2	0.00e+00	0	46	0	362807296	60	17816
2026-01-29 20:02:26.10	47.75	10.08	-51.7	-53.4	19.2	0.00e+00	0	46	0	365953024	60	17862
2026-01-29 20:02:27.11	47.92	10.11	-51.6	-53.4	19.3	0.00e+00	0	46	0	369098752	60	17765
2026-01-29 20:02:28.11	48.09	10.14	-51.6	-53.4	19.3	0.00e+00	0	46	0	372244480	60	17814
2026-01-29 20:02:29.12	48.26	10.17	-51.5	-53.3	19.4	0.00e+00	0	46	0	375390208	60	17556
2026-01-29 20:02:30.13	48.43	10.20	-51.7	-53.4	19.3	0.00e+00	0	46	0	377487360	60	17874
2026-01-29 20:02:31.13	48.60	10.22	-51.7	-53.5	19.2	0.00e+00	0	46	0	380633088	60	18043
2026-01-29 20:02:32.13	48.77	10.25	-51.8	-53.6	18.9	0.00e+00	0	46	0	383778816	60	18248
2026-01-29 20:02:33.14	48.95	10.28	-51.8	-53.8	18.7	0.00e+00	0	46	0	386924544	60	18561
2026-01-29 20:02:34.14	49.12	10.31	-51.8	-53.9	18.2	0.00e+00	0	46	0	390070272	60	18795
2026-01-29 20:02:35.15	49.29	10.33	-51.7	-53.7	18.4	0.00e+00	0	46	0	393216000	60	18422
2026-01-29 20:02:36.16	49.47	10.36	-51.6	-53.5	18.6	0.00e+00	0	46	0	396361728	60	18052
2026-01-29 20:02:37.17	49.64	10.39	-51.6	-53.5	18.6	0.00e+00	0	46	0	399507456	60	18035
2026-01-29 20:02:38.17	49.81	10.41	-51.8	-53.5	19.1	0.00e+00	0	46	0	403701760	60	18045
2026-01-29 20:02:39.18	49.99	10.44	-51.9	-53.5	19.3	0.00e+00	0	46	0	406847488	60	18052
2026-01-29 20:02:40.18	50.16	10.47	-51.9	-53.6	19.3	0.00e+00	0	46	0	409993216	60	18119
2026-01-29 20:02:41.19	50.34	10.49	-51.9	-53.6	19.2	0.00e+00	0	46	0	413138944	60	18306
2026-01-29 20:02:42.19	50.51	10.52	-52.0	-53.7	19.0	0.00e+00	0	46	0	416284672	60	18480
2026-01-29 20:02:43.20	50.69	10.54	-52.2	-54.0	19.0	0.00e+00	0	46	0	419430400	60	19135
2026-01-29 20:02:44.20	50.86	10.57	-52.2	-53.8	19.3	0.00e+00	0	46	0	422576128	60	18577
2026-01-29 20:02:45.21	51.04	10.59	-51.9	-53.4	19.5	0.00e+00	0	46	0	424673280	60	17794
2026-01-29 20:02:46.22	51.21	10.62	-51.8	-53.3	19.5	0.00e+00	0	46	0	427819008	60	17648
2026-01-29 20:02:47.22	51.39	10.64	-51.8	-53.5	19.1	0.00e+00	0	46	0	430964736	60	18039
2026-01-29 20:02:48.23	51.57	10.67	-51.9	-53.6	19.1	0.00e+00	0	46	0	434110464	60	18180
2026-01-29 20:02:49.24	51.74	10.69	-51.8	-53.5	19.2	0.00e+00	0	46	0	437256192	60	17967
2026-01-29 20:02:50.24	51.92	10.71	-51.8	-53.6	19.2	0.00e+00	0	46	0	440401920	60	18159
2026-01-29 20:02:51.25	52.10	10.74	-51.8	-53.7	19.1	0.00e+00	0	46	0	443547648	60	18334
2026-01-29 20:02:52.25	52.27	10.76	-51.6	-53.5	19.2	0.00e+00	0	46	0	446693376	60	17957
2026-01-29 20:02:53.26	52.45	10.79	-51.5	-53.4	19.3	0.00e+00	0	46	0	449839104	60	17851
2026-01-29 20:02:54.27	52.63	10.81	-51.4	-53.3	19.4	0.00e+00	0	46	0	454033408	60	17573
2026-01-29 20:02:55.28	52.81	10.83	-51.6	-53.4	19.3	0.00e+00	0	46	0	457179136	60	17725
2026-01-29 20:02:56.28	52.99	10.85	-51.6	-53.3	19.3	0.00e+00	0	46	0	460324864	60	17505
2026-01-29 20:02:57.29	53.17	10.88	-51.5	-53.2	19.0	0.00e+00	0	46	0	463470592	60	17468
2026-01-29 20:02:58.30	53.35	10.90	-51.4	-53.3	18.5	0.00e+00	0	46	0	466616320	60	17505
2026-01-29 20:02:59.31	53.53	10.92	-51.5	-53.4	18.4	0.00e+00	0	46	0	469762048	60	17783
2026-01-29 20:03:00.31	53.71	10.94	-51.6	-53.5	18.9	0.00e+00	0	46	0	471859200	60	18037
2026-01-29 20:03:01.32	53.89	10.96	-51.9	-53.6	19.2	0.00e+00	0	46	0	475004928	60	18150
2026-01-29 20:03:02.33	54.07	10.99	-51.9	-53.6	19.2	0.00e+00	0	46	0	478150656	60	18157
2026-01-29 20:03:03.33	54.25	11.01	-51.9	-53.6	19.0	0.00e+00	0	46	0	481296384	60	18246
2026-01-29 20:03:04.34	54.43	11.03	-52.1	-53.7	19.3	0.00e+00	0	46	0	484442112	60	18466
2026-01-29 20:03:05.35	54.61	11.05	-52.0	-53.7	19.2	0.00e+00	0	46	0	487587840	60	18341
2026-01-29 20:03:06.36	54.80	11.07	-52.1	-53.8	19.2	0.00e+00	0	46	0	490733568	60	18683
2026-01-29 20:03:07.36	54.98	11.09	-51.8	-53.5	19.4	0.00e+00	0	46	0	493879296	60	17993
2026-01-29 20:03:08.37	55.16	11.11	-51.8	-53.5	19.3	0.00e+00	0	46	0	498073600	60	17973
2026-01-29 20:03:09.38	55.34	11.13	-51.9	-53.6	19.1	0.00e+00	0	46	0	501219328	60	18206
2026-01-29 20:03:10.38	55.52	11.15	-51.9	-53.8	18.6	0.00e+00	0	46	0	504365056	60	18638
2026-01-29 20:03:11.39	55.71	11.17	-51.8	-53.8	18.6	0.00e+00	0	46	0	507510784	60	18591
2026-01-29 20:03:12.40	55.89	11.19	-52.0	-53.8	18.9	0.00e+00	0	46	0	510656512	60	18672
2026-01-29 20:03:13.40	56.07	11.20	-52.3	-54.0	18.9	0.00e+00	0	46	0	513802240	60	19016
2026-01-29 20:03:14.41	56.26	11.22	-52.6	-54.3	18.8	0.00e+00	0	46	0	516947968	60	19736
2026-01-29 20:03:15.42	56.44	11.24	-52.7	-54.4	18.4	0.00e+00	0	46	0	519045120	60	20065
2026-01-29 20:03:16.42	56.62	11.26	-52.5	-54.4	17.8	0.00e+00	0	46	0	522190848	60	19965
2026-01-29 20:03:17.43	56.81	11.28	-52.1	-54.2	17.5	0.00e+00	0	46	0	525336576	60	19543
2026-01-29 20:03:18.43	56.99	11.29	-52.0	-54.3	17.1	0.00e+00	0	46	0	528482304	60	19811
2026-01-29 20:03:19.44	57.18	11.31	-51.9	-53.9	18.6	0.00e+00	0	46	0	531628032	60	18927
2026-01-29 20:03:20.44	57.36	11.33	-51.8	-53.4	19.5	0.00e+00	0	46	0	534773760	60	17764
2026-01-29 20:03:21.45	57.55	11.34	-51.3	-53.1	19.7	0.00e+00	0	46	0	537919488	60	17148
2026-01-29 20:03:22.45	57.73	11.36	-51.2	-53.2	19.3	0.00e+00	0	46	0	541065216	60	17296
2026-01-29 20:03:23.46	57.92	11.38	-49.6	-53.0	16.7	0.00e+00	0	46	0	544210944	60	17071
2026-01-29 20:03:24.46	58.10	11.39	-49.0	-53.2	15.6	0.00e+00	0	46	0	547356672	60	17378
2026-01-29 20:03:25.46	58.29	11.41	-49.5	-53.1	16.2	0.00e+00	0	46	0	550502400	60	17215
2026-01-29 20:03:26.47	58.47	11.42	-50.0	-53.2	16.6	0.00e+00	0	46	0	553648128	60	17450
2026-01-29 20:03:27.48	58.66	11.44	-51.1	-53.5	18.0	0.00e+00	0	46	0	557842432	60	17957
2026-01-29 20:03:28.48	58.84	11.45	-51.7	-53.7	18.7	0.00e+00	0	46	0	560988160	60	18519
2026-01-29 20:03:29.49	59.03	11.47	-51.7	-53.8	18.4	0.00e+00	0	46	0	564133888	60	18541
2026-01-29 20:03:30.50	59.22	11.48	-51.6	-53.7	18.0	0.00e+00	0	46	0	566231040	60	18416
2026-01-29 20:03:31.50	59.41	11.50	-51.8	-53.7	18.7	0.00e+00	0	46	0	569376768	60	18383
2026-01-29 20:03:32.51	59.59	11.51	-52.1	-53.7	19.1	0.00e+00	0	46	0	572522496	60	18376
2026-01-29 20:03:33.52	59.78	11.52	-51.9	-53.6	19.7	0.00e+00	0	46	0	575668224	60	18212
2026-01-29 20:03:34.53	59.97	11.54	-51.7	-53.7	19.3	0.00e+00	0	46	0	578813952	60	18434
2026-01-29 20:03:35.53	60.16	11.55	-52.0	-53.7	19.2	0.00e+00	0	46	0	581959680	60	18512
2026-01-29 20:03:36.54	60.34	11.56	-52.2	-53.9	19.4	0.00e+00	0	46	0	585105408	60	18862
2026-01-29 20:03:37.54	60.53	11.58	-52.6	-54.3	19.1	0.00e+00	0	46	0	588251136	60	19712
2026-01-29 20:03:38.55	60.72	11.59	-52.7	-54.3	19.3	0.00e+00	0	46	0	591396864	60	19802
2026-01-29 20:03:39.54	60.90	11.60	-52.1	-54.1	17.9	0.00e+00	0	46	0	594542592	60	19378
2026-01-29 20:03:40.55	61.09	11.61	-51.6	-54.2	17.6	0.00e+00	0	46	0	597688320	60	19619
2026-01-29 20:03:41.55	61.28	11.62	-51.5	-54.2	17.8	0.00e+00	0	46	0	600834048	60	19544
2026-01-29 20:03:42.56	61.47	11.63	-52.6	-54.4	19.0	0.00e+00	0	46	0	603979776	60	19922
2026-01-29 20:03:43.56	61.66	11.64	-52.9	-54.4	19.7	0.00e+00	0	46	0	607125504	60	19970
2026-01-29 20:03:44.57	61.85	11.66	-52.7	-54.4	19.6	0.00e+00	0	46	0	610271232	60	20025
2026-01-29 20:03:45.58	62.04	11.67	-52.5	-54.3	19.0	0.00e+00	0	46	0	613416960	60	19768
2026-01-29 20:03:46.58	62.22	11.68	-52.4	-54.3	18.4	0.00e+00	0	46	0	616562688	60	19846
2026-01-29 20:03:47.59	62.41	11.69	-52.0	-54.1	18.4	0.00e+00	0	46	0	619708416	60	19212
2026-01-29 20:03:48.59	62.60	11.69	-51.9	-54.1	18.2	0.00e+00	0	46	0	622854144	60	19322
2026-01-29 20:03:49.59	62.79	11.70	-51.3	-54.1	17.5	0.00e+00	0	46	0	625999872	60	19306
2026-01-29 20:03:50.60	62.98	11.71	-51.5	-54.2	17.3	0.00e+00	0	46	0	629145600	60	19572
2026-01-29 20:03:51.61	63.17	11.72	-51.7	-54.2	17.7	0.00e+00	0	46	0	632291328	60	19414
2026-01-29 20:03:52.61	63.36	11.73	-52.7	-54.3	19.1	0.00e+00	0	46	0	635437056	60	19772
2026-01-29 20:03:53.61	63.55	11.74	-52.4	-54.0	19.7	0.00e+00	0	46	0	638582784	60	19169
2026-01-29 20:03:54.62	63.74	11.75	-52.6	-54.1	19.9	0.00e+00	0	46	0	641728512	60	19339
2026-01-29 20:03:55.62	63.93	11.75	-52.7	-54.2	19.9	0.00e+00	0	46	0	644874240	60	19431
2026-01-29 20:03:56.63	64.12	11.76	-52.7	-54.3	19.7	0.00e+00	0	46	0	648019968	60	19672
2026-01-29 20:03:57.63	64.31	11.77	-52.9	-54.4	19.9	0.00e+00	0	46	0	651165696	60	19918
2026-01-29 20:03:58.63	64.50	11.77	-52.3	-54.2	18.8	0.00e+00	0	46	0	654311424	60	19564
2026-01-29 20:03:59.64	64.69	11.78	-51.6	-54.2	17.3	0.00e+00	0	46	0	657457152	60	19442
2026-01-29 20:04:00.64	64.88	11.79	-51.3	-54.2	17.0	0.00e+00	0	46	0	660602880	60	19441
2026-01-29 20:04:01.65	65.07	11.79	-51.8	-54.1	18.6	0.00e+00	0	46	0	663748608	60	19339
2026-01-29 20:04:02.66	65.26	11.80	-52.7	-54.2	19.7	0.00e+00	0	47	0	666894336	60	19609
2026-01-29 20:04:03.66	65.45	11.80	-52.7	-54.2	19.9	0.00e+00	0	46	0	670040064	60	19433
2026-01-29 20:04:04.67	65.64	11.81	-52.4	-54.1	19.3	0.00e+00	0	46	0	673185792	60	19262
2026-01-29 20:04:05.67	65.83	11.81	-52.9	-54.5	19.5	0.00e+00	0	46	0	676331520	60	20263
2026-01-29 20:04:06.68	66.03	11.82	-53.0	-54.7	19.2	0.00e+00	0	46	0	679477248	60	20650
2026-01-29 20:04:07.69	66.22	11.82	-53.0	-54.8	19.2	0.00e+00	0	46	0	682622976	60	20963
2026-01-29 20:04:08.70	66.41	11.83	-53.1	-54.8	19.7	0.00e+00	0	46	0	685768704	60	20803
2026-01-29 20:04:09.70	66.60	11.83	-53.2	-54.8	19.5	0.00e+00	0	46	0	688914432	60	20995
2026-01-29 20:04:10.71	66.79	11.83	-52.9	-54.6	19.3	0.00e+00	0	46	0	692060160	60	20415
2026-01-29 20:04:11.71	66.98	11.84	-52.7	-54.4	19.8	0.00e+00	0	46	0	695205888	60	19923
2026-01-29 20:04:12.71	67.17	11.84	-52.7	-54.4	19.7	0.00e+00	0	46	0	698351616	60	19925
2026-01-29 20:04:13.72	67.36	11.84	-52.9	-54.5	19.4	0.00e+00	0	46	0	701497344	60	20309
2026-01-29 20:04:14.72	67.55	11.84	-53.0	-54.5	19.8	0.00e+00	0	46	0	704643072	60	20283
2026-01-29 20:04:15.73	67.75	11.85	-52.9	-54.4	19.8	0.00e+00	0	46	0	707788800	60	20059
2026-01-29 20:04:16.73	67.94	11.85	-53.0	-54.6	19.8	0.00e+00	0	46	0	710934528	60	20318
2026-01-29 20:04:17.73	68.13	11.85	-53.1	-54.6	19.6	0.00e+00	0	46	0	714080256	60	20470
2026-01-29 20:04:18.74	68.32	11.85	-53.2	-54.7	19.4	0.00e+00	0	46	0	717225984	60	20624
2026-01-29 20:04:19.75	68.51	11.85	-52.9	-54.6	19.5	0.00e+00	0	46	0	720371712	60	20540
2026-01-29 20:04:20.75	68.70	11.85	-52.8	-54.6	19.3	0.00e+00	0	46	0	723517440	60	20384
2026-01-29 20:04:21.76	68.89	11.85	-52.6	-54.2	19.4	0.00e+00	0	46	0	726663168	60	19596
2026-01-29 20:04:22.76	69.08	11.85	-52.7	-54.2	19.8	0.00e+00	0	46	0	729808896	60	19401
2026-01-29 20:04:23.77	69.28	11.85	-52.7	-54.2	19.9	0.00e+00	0	46	0	732954624	60	19608
2026-01-29 20:04:24.77	69.47	11.85	-53.0	-54.5	19.8	0.00e+00	0	46	0	736100352	60	20161
2026-01-29 20:04:25.78	69.66	11.85	-52.6	-54.1	19.5	0.00e+00	0	46	0	739246080	60	19345
2026-01-29 20:04:26.78	69.85	11.85	-52.6	-54.2	19.8	0.00e+00	0	46	0	742391808	60	19445
2026-01-29 20:04:27.79	70.04	11.85	-52.3	-54.0	19.8	0.00e+00	0	46	0	745537536	60	19069
2026-01-29 20:04:28.80	70.23	11.84	-52.5	-54.3	19.4	0.00e+00	0	46	0	748683264	60	19686
2026-01-29 20:04:29.81	70.43	11.84	-52.6	-54.5	19.3	0.00e+00	0	46	0	751828992	60	20213
2026-01-29 20:04:30.82	70.62	11.84	-52.7	-54.6	19.5	0.00e+00	0	46	0	754974720	60	20452
2026-01-29 20:04:31.82	70.81	11.84	-52.6	-54.3	19.5	0.00e+00	0	46	0	758120448	60	19735
2026-01-29 20:04:32.82	71.00	11.83	-53.0	-54.5	19.7	0.00e+00	0	46	0	761266176	60	20301
2026-01-29 20:04:33.83	71.19	11.83	-52.8	-54.3	19.8	0.00e+00	0	46	0	764411904	60	19741
2026-01-29 20:04:34.84	71.38	11.83	-52.7	-54.2	19.7	0.00e+00	0	46	0	767557632	60	19499
2026-01-29 20:04:35.85	71.58	11.82	-52.6	-54.4	19.4	0.00e+00	0	46	0	770703360	60	19853
2026-01-29 20:04:36.86	71.77	11.82	-52.6	-54.5	18.9	0.00e+00	0	46	0	773849088	60	20114
2026-01-29 20:04:37.87	71.96	11.82	-52.7	-54.4	19.4	0.00e+00	0	46	0	776994816	60	19920
2026-01-29 20:04:38.87	72.15	11.81	-52.8	-54.3	19.6	0.00e+00	0	46	0	780140544	60	19793
2026-01-29 20:04:39.88	72.34	11.81	-52.9	-54.5	19.7	0.00e+00	0	46	0	783286272	60	20104
2026-01-29 20:04:40.88	72.53	11.80	-52.8	-54.3	19.6	0.00e+00	0	46	0	786432000	60	19805
2026-01-29 20:04:41.88	72.72	11.80	-52.8	-54.4	19.5	0.00e+00	0	46	0	789577728	60	20004
2026-01-29 20:04:42.89	72.91	11.79	-52.7	-54.2	19.4	0.00e+00	0	46	0	792723456	60	19597
2026-01-29 20:04:43.90	73.10	11.78	-52.7	-54.4	19.6	0.00e+00	0	46	0	795869184	60	19904
2026-01-29 20:04:44.90	73.29	11.78	-52.7	-54.3	19.6	0.00e+00	0	46	0	799014912	60	19783
2026-01-29 20:04:45.91	73.48	11.77	-53.0	-54.6	19.8	0.00e+00	0	46	0	802160640	60	20362
2026-01-29 20:04:46.92	73.68	11.76	-53.2	-54.8	19.6	0.00e+00	0	46	0	805306368	60	20844
2026-01-29 20:04:47.93	73.87	11.76	-52.9	-54.4	19.5	0.00e+00	0	46	0	808452096	60	20067
2026-01-29 20:04:48.94	74.06	11.75	-52.8	-54.3	19.8	0.00e+00	0	46	0	811597824	60	19841
2026-01-29 20:04:49.95	74.25	11.74	-52.9	-54.5	19.6	0.00e+00	0	46	0	814743552	60	20098
2026-01-29 20:04:50.95	74.44	11.73	-53.2	-54.7	19.8	0.00e+00	0	46	0	817889280	60	20586
2026-01-29 20:04:51.96	74.63	11.72	-53.1	-54.6	19.5	0.00e+00	0	46	0	821035008	60	20348
2026-01-29 20:04:52.97	74.82	11.72	-53.3	-54.8	19.5	0.00e+00	0	46	0	824180736	60	20933
2026-01-29 20:04:53.98	75.01	11.71	-53.0	-54.5	19.4	0.00e+00	0	46	0	827326464	60	20232
2026-01-29 20:04:54.98	75.20	11.70	-54.5	-56.2	19.0	0.00e+00	0	46	0	830472192	60	24511
2026-01-29 20:04:55.99	75.39	11.69	-54.4	-56.1	19.4	0.00e+00	0	46	0	833617920	60	24361
2026-01-29 20:04:57.00	75.58	11.68	-54.2	-55.9	19.4	0.00e+00	0	46	0	836763648	60	23711
2026-01-29 20:04:58.01	75.77	11.67	-54.0	-55.6	19.8	0.00e+00	0	46	0	839909376	60	22892
2026-01-29 20:04:59.02	75.96	11.66	-53.8	-55.5	19.7	0.00e+00	0	46	0	843055104	60	22784
2026-01-29 20:05:00.03	76.15	11.65	-53.9	-55.7	20.0	0.00e+00	0	46	0	846200832	60	23065
2026-01-29 20:05:01.03	76.34	11.64	-54.0	-55.6	19.7	0.00e+00	0	46	0	849346560	60	22894
2026-01-29 20:05:02.04	76.53	11.63	-54.0	-55.5	19.7	0.00e+00	0	46	0	852492288	60	22731
2026-01-29 20:05:03.04	76.71	11.61	-54.0	-55.5	19.4	0.00e+00	0	46	0	855638016	60	22784
2026-01-29 20:05:04.05	76.90	11.60	-54.0	-55.6	19.6	0.00e+00	0	46	0	858783744	60	23020
2026-01-29 20:05:05.05	77.09	11.59	-53.9	-55.5	19.8	0.00e+00	0	46	0	861929472	60	22688
2026-01-29 20:05:06.06	77.28	11.58	-53.9	-55.6	19.7	0.00e+00	0	46	0	865075200	60	22850
2026-01-29 20:05:07.07	77.47	11.57	-54.0	-55.7	19.4	0.00e+00	0	46	0	868220928	60	23309
2026-01-29 20:05:08.08	77.66	11.55	-54.1	-55.8	19.3	0.00e+00	0	46	0	871366656	60	23431
2026-01-29 20:05:09.08	77.84	11.54	-54.0	-55.6	19.6	0.00e+00	0	46	0	874512384	60	22809
2026-01-29 20:05:10.09	78.03	11.53	-53.9	-55.5	19.6	0.00e+00	0	46	0	877658112	60	22559
2026-01-29 20:05:11.09	78.22	11.51	-53.9	-55.5	19.4	0.00e+00	0	46	0	880803840	60	22552
2026-01-29 20:05:12.10	78.41	11.50	-54.2	-55.8	19.2	0.00e+00	0	46	0	883949568	60	23428
2026-01-29 20:05:13.11	78.60	11.49	-54.2	-55.8	19.2	0.00e+00	0	46	0	887095296	60	23573
2026-01-29 20:05:14.11	78.78	11.47	-54.2	-55.9	19.3	0.00e+00	0	46	0	890241024	60	23828
2026-01-29 20:05:15.12	78.97	11.46	-54.3	-56.1	18.9	0.00e+00	0	46	0	893386752	60	24294
2026-01-29 20:05:16.13	79.16	11.44	-53.9	-55.8	19.1	0.00e+00	0	46	0	896532480	60	23348
2026-01-29 20:05:17.14	79.34	11.43	-53.8	-55.6	19.4	0.00e+00	0	46	0	899678208	60	22940
2026-01-29 20:05:18.14	79.53	11.41	-53.9	-55.7	19.4	0.00e+00	0	46	0	902823936	60	23133
2026-01-29 20:05:19.15	79.72	11.40	-53.9	-55.7	19.4	0.00e+00	0	46	0	905969664	60	23072
2026-01-29 20:05:20.15	79.90	11.38	-53.8	-55.6	18.9	0.00e+00	0	46	0	909115392	60	22917
2026-01-29 20:05:21.16	80.09	11.36	-53.6	-55.5	18.9	0.00e+00	0	46	0	912261120	60	22569
2026-01-29 20:05:22.17	80.27	11.35	-53.6	-55.5	19.1	0.00e+00	0	46	0	915406848	60	22605
2026-01-29 20:05:23.17	80.46	11.33	-53.6	-55.5	19.2	0.00e+00	0	46	0	918552576	60	22554
2026-01-29 20:05:24.18	80.64	11.31	-53.6	-55.4	19.0	0.00e+00	0	46	0	921698304	60	22444
2026-01-29 20:05:25.19	80.83	11.30	-53.7	-55.4	19.0	0.00e+00	0	46	0	924844032	60	22494
2026-01-29 20:05:26.19	81.01	11.28	-53.7	-55.4	19.4	0.00e+00	0	46	0	927989760	60	22375
2026-01-29 20:05:27.20	81.20	11.26	-53.7	-55.3	19.6	0.00e+00	0	46	0	931135488	60	22219
2026-01-29 20:05:28.21	81.38	11.24	-53.6	-55.3	19.8	0.00e+00	0	46	0	934281216	60	22055
2026-01-29 20:05:29.22	81.57	11.23	-53.7	-55.4	19.5	0.00e+00	0	46	0	937426944	60	22370
2026-01-29 20:05:30.22	81.75	11.21	-53.8	-55.5	19.4	0.00e+00	0	46	0	940572672	60	22681
2026-01-29 20:05:31.23	81.94	11.19	-53.9	-55.5	19.2	0.00e+00	0	46	0	943718400	60	22722
2026-01-29 20:05:32.24	82.12	11.17	-54.0	-55.6	19.3	0.00e+00	0	46	0	946864128	60	23024
2026-01-29 20:05:33.25	82.30	11.15	-54.0	-55.6	19.2	0.00e+00	0	46	0	950009856	60	22810
2026-01-29 20:05:34.25	82.49	11.13	-54.0	-55.6	19.3	0.00e+00	0	46	0	953155584	60	22953
2026-01-29 20:05:35.26	82.67	11.11	-53.6	-55.3	19.2	0.00e+00	0	46	0	956301312	60	22124
2026-01-29 20:05:36.27	82.85	11.09	-53.5	-55.2	19.3	0.00e+00	0	46	0	959447040	60	21928
2026-01-29 20:05:37.28	83.04	11.07	-53.4	-55.2	19.3	0.00e+00	0	46	0	962592768	60	21801
2026-01-29 20:05:38.28	83.22	11.05	-53.5	-55.1	19.6	0.00e+00	0	46	0	965738496	60	21713
2026-01-29 20:05:39.29	83.40	11.03	-53.6	-55.2	19.6	0.00e+00	0	46	0	968884224	60	21879
2026-01-29 20:05:40.30	83.58	11.01	-53.5	-55.0	19.8	0.00e+00	0	46	0	972029952	60	21375
2026-01-29 20:05:41.31	83.76	10.99	-53.6	-55.1	19.6	0.00e+00	0	46	0	975175680	60	21717
2026-01-29 20:05:42.32	83.94	10.97	-53.6	-55.2	19.2	0.00e+00	0	46	0	978321408	60	21907
2026-01-29 20:05:43.32	84.12	10.95	-53.5	-55.1	19.2	0.00e+00	0	46	0	981467136	60	21718
2026-01-29 20:05:44.33	84.31	10.92	-53.4	-55.1	19.3	0.00e+00	0	46	0	984612864	60	21566
2026-01-29 20:05:45.34	84.49	10.90	-53.4	-55.0	19.3	0.00e+00	0	46	0	987758592	60	21409
2026-01-29 20:05:46.35	84.67	10.88	-53.4	-55.0	19.1	0.00e+00	0	46	0	990904320	60	21401
2026-01-29 20:05:47.35	84.85	10.86	-53.4	-55.1	19.0	0.00e+00	0	46	0	994050048	60	21600
2026-01-29 20:05:48.36	85.03	10.83	-53.5	-55.2	19.2	0.00e+00	0	46	0	997195776	60	21896
2026-01-29 20:05:49.37	85.21	10.81	-53.6	-55.3	19.4	0.00e+00	0	46	0	1000341504	60	22028
2026-01-29 20:05:50.37	85.38	10.79	-53.7	-55.4	19.6	0.00e+00	0	46	0	1003487232	60	22296
2026-01-29 20:05:51.38	85.56	10.76	-53.4	-55.1	19.5	0.00e+00	0	46	0	1006632960	60	21583
2026-01-29 20:05:52.38	85.74	10.74	-53.5	-55.1	19.5	0.00e+00	0	46	0	1009778688	60	21707
2026-01-29 20:05:53.39	85.92	10.72	-53.3	-55.0	19.5	0.00e+00	0	46	0	1012924416	60	21335
2026-01-29 20:05:54.40	86.10	10.69	-53.3	-55.0	19.6	0.00e+00	0	46	0	1016070144	60	21424
2026-01-29 20:05:55.41	86.28	10.67	-53.3	-55.0	19.7	0.00e+00	0	46	0	1019215872	60	21347
2026-01-29 20:05:56.42	86.45	10.64	-53.2	-55.0	19.6	0.00e+00	0	46	0	1022361600	60	21318
2026-01-29 20:05:57.43	86.63	10.62	-53.2	-55.0	19.5	0.00e+00	0	46	0	1025507328	60	21370
2026-01-29 20:05:58.44	86.81	10.59	-53.3	-55.2	19.4	0.00e+00	0	46	0	1028653056	60	21866
2026-01-29 20:05:59.44	86.98	10.57	-53.0	-55.0	19.6	0.00e+00	0	46	0	1031798784	60	21361
2026-01-29 20:06:00.45	87.16	10.54	-53.1	-55.2	19.3	0.00e+00	0	46	0	1034944512	60	22015
2026-01-29 20:06:01.46	87.34	10.52	-53.2	-55.3	19.2	0.00e+00	0	46	0	1038090240	60	22195
2026-01-29 20:06:02.46	87.51	10.49	-53.4	-55.5	19.1	0.00e+00	0	46	0	1041235968	60	22576
2026-01-29 20:06:03.47	87.69	10.47	-53.5	-55.5	18.8	0.00e+00	0	46	0	1044381696	60	22632
2026-01-29 20:06:04.47	87.86	10.44	-53.5	-55.3	19.3	0.00e+00	0	46	0	1047527424	60	22181
2026-01-29 20:06:05.48	88.04	10.41	-53.2	-55.1	19.6	0.00e+00	0	46	0	1050673152	60	21561
2026-01-29 20:06:06.49	88.21	10.39	-53.1	-55.0	19.6	0.00e+00	0	46	0	1053818880	60	21501
2026-01-29 20:06:07.50	88.39	10.36	-52.9	-54.8	19.8	0.00e+00	0	46	0	1056964608	60	21001
2026-01-29 20:06:08.50	88.56	10.33	-53.0	-54.8	19.6	0.00e+00	0	46	0	1060110336	60	20983
2026-01-29 20:06:09.51	88.73	10.31	-53.2	-54.9	19.6	0.00e+00	0	46	0	1063256064	60	21134
2026-01-29 20:06:10.52	88.91	10.28	-53.4	-55.2	19.4	0.00e+00	0	46	0	1066401792	60	21777
2026-01-29 20:06:11.52	89.08	10.25	-53.4	-55.1	19.4	0.00e+00	0	46	0	1069547520	60	21647
2026-01-29 20:06:12.53	89.25	10.22	-53.5	-55.2	19.0	0.00e+00	0	46	0	1072693248	60	21906
2026-01-29 20:06:13.54	89.43	10.20	-53.3	-55.3	18.6	0.00e+00	0	46	0	1075838976	60	22139
2026-01-29 20:06:14.55	89.60	10.17	-53.1	-55.3	18.3	0.00e+00	0	46	0	1078984704	60	22131
2026-01-29 20:06:15.56	89.77	10.14	-52.9	-55.2	17.8	0.00e+00	0	46	0	1082130432	60	22013
2026-01-29 20:06:16.56	89.94	10.11	-52.9	-55.4	17.6	0.00e+00	0	46	0	1085276160	60	22283
2026-01-29 20:06:17.57	90.11	10.08	-53.1	-55.5	17.9	0.00e+00	0	46	0	1088421888	60	22556
2026-01-29 20:06:18.58	90.28	10.05	-53.2	-55.4	18.4	0.00e+00	0	46	0	1091567616	60	22303
2026-01-29 20:06:19.58	90.45	10.02	-53.4	-55.4	18.9	0.00e+00	0	46	0	1094713344	60	22524
2026-01-29 20:06:20.59	90.62	9.99	-53.4	-55.4	19.1	0.00e+00	0	46	0	1097859072	60	22397
2026-01-29 20:06:21.60	90.79	9.96	-53.2	-55.2	19.2	0.00e+00	0	46	0	1101004800	60	21978
2026-01-29 20:06:22.61	90.96	9.93	-53.2	-55.2	19.2	0.00e+00	0	46	0	1104150528	60	21979
2026-01-29 20:06:23.61	91.13	9.90	-53.2	-55.2	18.9	0.00e+00	0	46	0	1107296256	60	21861
2026-01-29 20:06:24.62	91.30	9.87	-53.1	-55.1	18.7	0.00e+00	0	46	0	1110441984	60	21614
2026-01-29 20:06:25.63	91.47	9.84	-53.0	-55.0	18.8	0.00e+00	0	46	0	1113587712	60	21499
2026-01-29 20:06:26.63	91.64	9.81	-53.1	-55.1	18.9	0.00e+00	0	46	0	1116733440	60	21546
2026-01-29 20:06:27.64	91.80	9.78	-53.0	-55.1	18.9	0.00e+00	0	46	0	1119879168	60	21597
2026-01-29 20:06:28.65	91.97	9.75	-53.0	-55.1	18.7	0.00e+00	0	46	0	1123024896	60	21754
2026-01-29 20:06:29.66	92.14	9.72	-53.1	-55.3	18.8	0.00e+00	0	46	0	1126170624	60	22099
2026-01-29 20:06:30.67	92.31	9.69	-53.2	-55.3	19.0	0.00e+00	0	47	0	1129316352	60	22220
2026-01-29 20:06:31.68	92.47	9.66	-53.5	-55.5	19.2	0.00e+00	0	46	0	1133510656	60	22649
2026-01-29 20:06:32.68	92.64	9.63	-53.5	-55.4	19.1	0.00e+00	0	46	0	1135607808	60	22431
2026-01-29 20:06:33.69	92.80	9.60	-53.9	-55.7	18.9	0.00e+00	0	46	0	1138753536	60	23169
2026-01-29 20:06:34.70	92.97	9.56	-54.0	-55.7	18.8	0.00e+00	0	47	0	1141899264	60	23233
2026-01-29 20:06:35.71	93.14	9.53	-53.6	-55.3	19.1	0.00e+00	0	46	0	1145044992	60	22180
2026-01-29 20:06:36.71	93.30	9.50	-53.7	-55.5	18.6	0.00e+00	0	47	0	1148190720	60	22630
2026-01-29 20:06:37.72	93.46	9.47	-53.7	-55.5	18.1	0.00e+00	0	47	0	1151336448	60	22737
2026-01-29 20:06:38.72	93.63	9.43	-53.4	-55.4	17.5	0.00e+00	0	46	0	1154482176	60	22313
2026-01-29 20:06:39.73	93.79	9.40	-53.4	-55.5	17.0	0.00e+00	0	47	0	1157627904	60	22734
2026-01-29 20:06:40.73	93.95	9.37	-53.4	-55.5	17.0	0.00e+00	0	47	0	1160773632	60	22777
2026-01-29 20:06:41.74	94.12	9.34	-53.3	-55.4	17.1	0.00e+00	0	46	0	1163919360	60	22375
2026-01-29 20:06:42.75	94.28	9.30	-53.0	-55.3	16.8	0.00e+00	0	47	0	1167065088	60	22263
2026-01-29 20:06:43.75	94.44	9.27	-52.8	-55.3	16.9	0.00e+00	0	47	0	1170210816	60	22210
2026-01-29 20:06:44.76	94.60	9.24	-52.8	-55.2	17.6	0.00e+00	0	46	0	1173356544	60	21930
2026-01-29 20:06:45.77	94.77	9.20	-52.7	-55.1	18.2	0.00e+00	0	46	0	1176502272	60	21585
2026-01-29 20:06:46.78	94.93	9.17	-53.0	-55.2	18.6	0.00e+00	0	46	0	1180696576	60	21920
2026-01-29 20:06:47.78	95.09	9.14	-53.2	-55.2	18.7	0.00e+00	0	46	0	1182793728	60	21986
2026-01-29 20:06:48.80	95.25	9.10	-53.1	-55.2	18.5	0.00e+00	0	47	0	1185939456	60	21873
2026-01-29 20:06:49.80	95.41	9.07	-53.2	-55.3	18.4	0.00e+00	0	46	0	1189085184	60	22233
2026-01-29 20:06:50.81	95.57	9.03	-53.1	-55.2	18.4	0.00e+00	0	46	0	1192230912	60	21925
2026-01-29 20:06:51.82	95.73	9.00	-53.2	-55.3	18.2	0.00e+00	0	46	0	1195376640	60	22133
2026-01-29 20:06:52.83	95.89	8.96	-53.3	-55.3	17.8	0.00e+00	0	46	0	1198522368	60	22123
2026-01-29 20:06:53.83	96.04	8.93	-53.3	-55.5	17.8	0.00e+00	0	46	0	1201668096	60	22638
2026-01-29 20:06:54.83	96.20	8.89	-53.1	-55.4	18.1	0.00e+00	0	46	0	1204813824	60	22506
2026-01-29 20:06:55.84	96.36	8.86	-53.0	-55.3	18.4	0.00e+00	0	47	0	1207959552	60	22221
2026-01-29 20:06:56.84	96.52	8.82	-53.2	-55.6	18.0	0.00e+00	0	46	0	1211105280	60	22875
2026-01-29 20:06:57.85	96.67	8.79	-53.4	-55.6	17.6	0.00e+00	0	46	0	1214251008	60	22968
2026-01-29 20:06:58.86	96.83	8.75	-53.3	-55.6	17.7	0.00e+00	0	46	0	1217396736	60	22814
2026-01-29 20:06:59.87	96.99	8.72	-53.3	-55.8	17.6	0.00e+00	0	46	0	1220542464	60	23546
2026-01-29 20:07:00.88	97.14	8.68	-52.9	-55.9	16.9	0.00e+00	0	46	0	1224736768	60	23863
2026-01-29 20:07:01.88	97.30	8.65	-52.7	-55.9	16.6	0.00e+00	0	46	0	1227882496	60	23631
2026-01-29 20:07:02.89	97.46	8.61	-52.8	-55.6	16.9	0.00e+00	0	46	0	1229979648	60	23018
2026-01-29 20:07:03.90	97.61	8.57	-52.7	-55.3	17.2	0.00e+00	0	46	0	1233125376	60	22257
2026-01-29 20:07:04.91	97.77	8.54	-53.2	-55.3	17.8	0.00e+00	0	46	0	1236271104	60	22259
2026-01-29 20:07:05.91	97.92	8.50	-53.6	-55.4	18.3	0.00e+00	0	47	0	1239416832	60	22460
2026-01-29 20:07:06.92	98.07	8.46	-53.7	-55.5	18.8	0.00e+00	0	46	0	1242562560	60	22615
2026-01-29 20:07:07.92	98.23	8.43	-53.3	-55.5	18.8	0.00e+00	0	47	0	1245708288	60	22676
2026-01-29 20:07:08.93	98.38	8.39	-52.9	-55.4	18.3	0.00e+00	0	46	0	1248854016	60	22495
2026-01-29 20:07:09.93	98.53	8.36	-52.9	-55.7	17.5	0.00e+00	0	46	0	1251999744	60	23188
2026-01-29 20:07:10.94	98.68	8.32	-52.7	-55.6	16.9	0.00e+00	0	46	0	1255145472	60	22922
2026-01-29 20:07:11.94	98.83	8.28	-52.6	-55.5	16.4	0.00e+00	0	47	0	1258291200	60	22750
2026-01-29 20:07:12.95	98.99	8.24	-52.7	-55.6	16.2	0.00e+00	0	46	0	1261436928	60	23018
2026-01-29 20:07:13.95	99.14	8.21	-52.6	-55.6	16.7	0.00e+00	0	47	0	1264582656	60	23049
2026-01-29 20:07:14.96	99.29	8.17	-52.6	-55.8	17.0	0.00e+00	0	47	0	1267728384	60	23491
2026-01-29 20:07:15.97	99.44	8.13	-52.8	-55.9	17.1	0.00e+00	0	46	0	1270874112	60	23785
2026-01-29 20:07:16.98	99.59	8.09	-52.9	-55.9	17.0	0.00e+00	0	47	0	1275068416	60	23740
2026-01-29 20:07:17.99	99.74	8.06	-53.1	-56.0	16.9	0.00e+00	0	46	0	1278214144	60	24001
2026-01-29 20:07:18.99	99.89	8.02	-53.1	-55.9	16.9	0.00e+00	0	46	0	1280311296	60	23764
2026-01-29 20:07:20.00	100.04	7.98	-53.1	-55.8	17.0	0.00e+00	0	46	0	1283457024	60	23494
2026-01-29 20:07:21.01	100.19	7.94	-52.8	-55.8	16.6	0.00e+00	0	47	0	1286602752	60	23505
2026-01-29 20:07:22.02	100.33	7.90	-52.7	-55.9	16.2	0.00e+00	0	46	0	1289748480	60	23615
2026-01-29 20:07:23.03	100.48	7.87	-52.4	-55.7	15.8	0.00e+00	0	47	0	1292894208	60	23275
2026-01-29 20:07:24.03	100.63	7.83	-52.3	-55.7	15.7	0.00e+00	0	46	0	1296039936	60	23085
2026-01-29 20:07:25.03	100.78	7.79	-52.5	-55.8	15.8	0.00e+00	0	46	0	1299185664	60	23526
2026-01-29 20:07:26.04	100.92	7.75	-52.5	-55.9	16.2	0.00e+00	0	47	0	1302331392	60	23726
2026-01-29 20:07:27.04	101.07	7.71	-52.4	-55.8	16.7	0.00e+00	0	47	0	1305477120	60	23357
2026-01-29 20:07:28.05	101.21	7.67	-52.6	-55.9	16.7	0.00e+00	0	47	0	1308622848	60	23662
2026-01-29 20:07:29.05	101.36	7.63	-52.8	-55.8	16.5	0.00e+00	0	46	0	1311768576	60	23476
2026-01-29 20:07:30.06	101.51	7.60	-53.0	-55.8	15.9	0.00e+00	0	47	0	1314914304	60	23585
2026-01-29 20:07:31.06	101.65	7.56	-53.3	-56.0	15.9	0.00e+00	0	47	0	1318060032	60	24030
2026-01-29 20:07:32.07	101.79	7.52	-53.3	-56.1	16.1	0.00e+00	0	47	0	1322254336	60	24145
2026-01-29 20:07:33.08	101.94	7.48	-53.3	-56.0	16.2	0.00e+00	0	46	0	1325400064	60	24142
2026-01-29 20:07:34.08	102.08	7.44	-53.1	-55.9	16.4	0.00e+00	0	47	0	1327497216	60	23767
2026-01-29 20:07:35.09	102.23	7.40	-53.1	-55.8	16.3	0.00e+00	0	46	0	1330642944	60	23556
2026-01-29 20:07:36.10	102.37	7.36	-53.2	-55.9	16.5	0.00e+00	0	47	0	1333788672	60	23625
2026-01-29 20:07:37.11	102.51	7.32	-53.3	-56.0	16.8	0.00e+00	0	47	0	1336934400	60	23993
2026-01-29 20:07:38.11	102.65	7.28	-53.4	-56.1	17.2	0.00e+00	0	47	0	1340080128	60	24174
2026-01-29 20:07:39.12	102.80	7.24	-53.4	-56.2	16.9	0.00e+00	0	47	0	1343225856	60	24493
2026-01-29 20:07:40.12	102.94	7.20	-53.2	-56.1	16.4	0.00e+00	0	47	0	1346371584	60	24399
2026-01-29 20:07:41.13	103.08	7.16	-53.0	-56.1	16.3	0.00e+00	0	46	0	1349517312	60	24350
2026-01-29 20:07:42.14	103.22	7.12	-53.1	-56.1	16.8	0.00e+00	0	47	0	1352663040	60	24287
2026-01-29 20:07:43.15	103.36	7.08	-53.2	-56.0	17.6	0.00e+00	0	46	0	1355808768	60	23876
2026-01-29 20:07:44.15	103.50	7.04	-53.4	-56.0	18.0	0.00e+00	0	46	0	1358954496	60	23979
2026-01-29 20:07:45.16	103.64	7.00	-53.6	-55.9	18.1	0.00e+00	0	46	0	1362100224	60	23789
2026-01-29 20:07:46.17	103.78	6.96	-53.8	-56.0	17.8	0.00e+00	0	47	0	1365245952	60	23912
2026-01-29 20:07:47.17	103.92	6.92	-53.8	-55.9	17.6	0.00e+00	0	46	0	1369440256	60	23637
2026-01-29 20:07:48.18	104.06	6.88	-53.8	-56.0	17.6	0.00e+00	0	47	0	1372585984	60	23923
2026-01-29 20:07:49.19	104.19	6.84	-53.8	-56.1	17.8	0.00e+00	0	47	0	1374683136	60	24144
2026-01-29 20:07:50.20	104.33	6.80	-53.7	-56.1	17.8	0.00e+00	0	46	0	1377828864	60	24377
2026-01-29 20:07:51.20	104.47	6.76	-53.7	-56.2	17.5	0.00e+00	0	46	0	1380974592	60	24496
2026-01-29 20:07:52.21	104.61	6.72	-53.9	-56.3	17.0	0.00e+00	0	47	0	1384120320	60	24872
2026-01-29 20:07:53.21	104.74	6.67	-53.9	-56.4	16.8	0.00e+00	0	46	0	1387266048	60	25202
2026-01-29 20:07:54.22	104.88	6.63	-54.1	-56.6	16.8	0.00e+00	0	46	0	1390411776	60	25809
2026-01-29 20:07:55.23	105.02	6.59	-54.1	-56.8	17.1	0.00e+00	0	47	0	1393557504	60	26193
2026-01-29 20:07:56.24	105.15	6.55	-54.0	-56.8	17.2	0.00e+00	0	46	0	1396703232	60	26223
2026-01-29 20:07:57.24	105.29	6.51	-53.7	-56.6	17.1	0.00e+00	0	46	0	1399848960	60	25812
2026-01-29 20:07:58.25	105.42	6.47	-53.1	-56.2	16.6	0.00e+00	0	46	0	1402994688	60	24625
2026-01-29 20:07:59.26	105.56	6.43	-52.5	-56.1	15.7	0.00e+00	0	46	0	1406140416	60	24252
2026-01-29 20:08:00.26	105.69	6.39	-52.3	-56.1	15.5	0.00e+00	0	46	0	1409286144	60	24201
2026-01-29 20:08:01.26	105.82	6.35	-52.2	-56.1	15.2	0.00e+00	0	46	0	1412431872	60	24386
2026-01-29 20:08:02.27	105.96	6.30	-51.8	-56.1	15.3	0.00e+00	0	46	0	1416626176	60	24373
2026-01-29 20:08:03.28	106.09	6.26	-51.8	-56.2	15.5	0.00e+00	0	46	0	1419771904	60	24489
2026-01-29 20:08:04.27	106.22	6.22	-51.6	-56.1	15.9	0.00e+00	0	46	0	1421869056	60	24418
2026-01-29 20:08:05.28	106.35	6.18	-51.6	-56.1	16.4	0.00e+00	0	46	0	1425014784	60	24395
2026-01-29 20:08:06.28	106.48	6.14	-51.6	-56.2	16.5	0.00e+00	0	46	0	1428160512	60	24678
2026-01-29 20:08:07.29	106.62	6.10	-51.8	-56.4	16.3	0.00e+00	0	46	0	1431306240	60	25052
2026-01-29 20:08:08.30	106.75	6.05	-52.1	-56.5	16.0	0.00e+00	0	47	0	1434451968	60	25544
2026-01-29 20:08:09.29	106.88	6.01	-52.3	-56.4	15.9	0.00e+00	0	46	0	1437597696	60	25220
2026-01-29 20:08:10.30	107.01	5.97	-53.0	-71.2	3.9	6.30e-01	0	46	104	1439694848	60	137755
2026-01-29 20:08:11.31	107.14	5.93	-49.3	-69.4	4.2	1.51e+00	0	47	104	1439694848	60	112671
2026-01-29 20:08:12.32	107.27	5.89	-57.1	-73.5	3.6	1.51e+00	0	46	104	1439694848	60	180327
2026-01-29 20:08:13.32	107.40	5.84	-60.5	-75.1	3.5	1.51e+00	0	46	104	1439694848	60	216054
2026-01-29 20:08:14.33	107.53	5.80	-57.3	-73.2	3.7	1.51e+00	0	47	104	1439694848	60	172980
2026-01-29 20:08:15.34	107.66	5.76	-60.7	-75.5	3.6	1.51e+00	0	47	104	1439694848	60	227389
2026-01-29 20:08:16.35	107.78	5.72	-60.4	-75.5	3.5	1.52e+00	0	47	104	1439694848	60	227037
2026-01-29 20:08:17.36	107.91	5.67	-61.7	-76.1	3.5	1.52e+00	0	47	104	1439694848	60	244057
2026-01-29 20:08:18.36	108.04	5.63	-60.3	-75.9	3.5	1.52e+00	0	47	104	1439694848	60	237115
2026-01-29 20:08:19.37	108.17	5.59	-60.8	-75.6	3.5	1.51e+00	0	47	104	1439694848	60	229182
2026-01-29 20:08:20.37	108.29	5.55	-61.6	-76.2	3.5	1.51e+00	0	47	104	1439694848	60	246265
2026-01-29 20:08:21.38	108.42	5.51	-62.2	-76.5	3.5	1.52e+00	0	46	104	1439694848	60	255328
2026-01-29 20:08:22.39	108.55	5.46	-62.3	-76.5	3.5	1.52e+00	0	47	104	1439694848	60	255421
2026-01-29 20:08:23.40	108.67	5.42	-62.7	-76.8	3.5	1.52e+00	0	47	104	1439694848	60	263179
2026-01-29 20:08:24.40	108.80	5.38	-62.5	-76.7	3.5	1.51e+00	0	47	104	1439694848	60	258870
2026-01-29 20:08:25.41	108.92	5.33	-62.5	-76.7	3.5	1.52e+00	0	47	104	1439694848	60	261586
2026-01-29 20:08:26.42	109.05	5.29	-62.5	-76.7	3.5	1.52e+00	0	47	104	1439694848	60	261599
2026-01-29 20:08:27.43	109.17	5.25	-62.0	-76.5	3.5	1.52e+00	0	47	104	1439694848	60	255262
2026-01-29 20:08:28.44	109.30	5.21	-62.4	-76.8	3.5	1.52e+00	0	47	104	1439694848	60	261892
2026-01-29 20:08:29.44	109.42	5.16	-62.6	-76.8	3.5	1.52e+00	0	46	104	1439694848	60	263590
2026-01-29 20:08:30.45	109.54	5.12	-62.3	-76.7	3.5	1.52e+00	0	47	104	1439694848	60	261034
2026-01-29 20:08:31.46	109.67	5.08	-62.4	-76.8	3.5	1.52e+00	0	47	104	1439694848	60	262149
2026-01-29 20:08:32.47	109.79	5.03	-62.2	-77.0	3.5	1.52e+00	0	47	104	1439694848	60	268543
2026-01-29 20:08:33.48	109.91	4.99	-62.6	-77.3	3.5	1.52e+00	0	47	104	1439694848	60	279531
2026-01-29 20:08:34.48	110.04	4.95	-62.7	-77.3	3.5	1.51e+00	0	47	104	1439694848	60	278745
2026-01-29 20:08:35.49	110.16	4.90	-62.4	-77.3	3.5	1.52e+00	0	46	104	1439694848	60	277674
2026-01-29 20:08:36.50	110.28	4.86	-61.3	-77.0	3.6	1.52e+00	0	46	104	1439694848	60	269068
2026-01-29 20:08:37.51	110.40	4.82	-59.8	-76.6	3.6	1.51e+00	0	47	104	1439694848	60	257110
2026-01-29 20:08:38.51	110.52	4.77	-58.0	-75.6	3.7	1.51e+00	0	47	104	1439694848	60	228577
2026-01-29 20:08:39.52	110.64	4.73	-56.3	-74.8	3.8	1.51e+00	0	47	104	1439694848	60	209955
2026-01-29 20:08:40.52	110.76	4.69	-55.1	-72.8	4.1	1.51e+00	0	47	104	1439694848	60	166133
2026-01-29 20:08:41.53	110.88	4.65	-54.8	-72.5	4.0	1.50e+00	0	47	104	1439694848	60	159853
2026-01-29 20:08:42.54	111.00	4.60	-55.4	-72.9	4.0	1.50e+00	0	47	104	1439694848	60	167507
2026-01-29 20:08:43.55	111.12	4.56	-56.6	-74.2	3.8	1.51e+00	0	47	104	1439694848	60	195412
2026-01-29 20:08:44.55	111.24	4.51	-58.0	-75.4	3.7	1.51e+00	0	47	104	1439694848	60	224606
2026-01-29 20:08:45.57	111.36	4.47	-57.6	-74.7	3.8	1.51e+00	0	47	104	1439694848	60	206913
2026-01-29 20:08:46.57	111.47	4.43	-57.6	-74.6	3.8	1.51e+00	0	47	104	1439694848	60	204612
2026-01-29 20:08:47.58	111.59	4.38	-57.6	-74.6	3.8	1.51e+00	0	47	104	1439694848	60	203482
2026-01-29 20:08:48.58	111.71	4.34	-57.6	-74.7	3.8	1.51e+00	0	47	104	1439694848	60	206796
2026-01-29 20:08:49.59	111.83	4.30	-57.7	-74.5	3.8	1.51e+00	0	47	104	1439694848	60	202288
2026-01-29 20:08:50.60	111.94	4.25	-57.6	-74.5	3.8	1.51e+00	0	47	104	1439694848	60	202503
2026-01-29 20:08:51.60	112.06	4.21	-57.6	-74.6	3.7	1.51e+00	0	47	104	1439694848	60	203726
2026-01-29 20:08:52.61	112.18	4.17	-57.7	-75.0	3.8	1.51e+00	0	47	104	1439694848	60	212790
2026-01-29 20:08:53.62	112.29	4.12	-57.6	-75.1	3.7	1.51e+00	0	47	104	1439694848	60	216047
2026-01-29 20:08:54.63	112.41	4.08	-57.7	-74.6	3.8	1.51e+00	0	46	104	1439694848	60	203938
2026-01-29 20:08:55.64	112.52	4.03	-57.7	-74.7	3.8	1.51e+00	0	47	104	1439694848	60	206415
2026-01-29 20:08:56.64	112.64	3.99	-57.7	-74.8	3.7	1.51e+00	0	47	104	1439694848	60	208245
2026-01-29 20:08:57.65	112.75	3.95	-57.8	-74.8	3.7	1.51e+00	0	47	104	1439694848	60	209329
2026-01-29 20:08:58.65	112.86	3.90	-57.8	-74.6	3.8	1.51e+00	0	47	104	1439694848	60	205488
2026-01-29 20:08:59.66	112.98	3.86	-57.7	-74.7	3.8	1.51e+00	0	47	104	1439694848	60	206525
2026-01-29 20:09:00.67	113.09	3.82	-57.8	-74.6	3.8	1.51e+00	0	46	104	1439694848	60	204885
2026-01-29 20:09:01.68	113.21	3.77	-57.9	-75.2	3.7	1.51e+00	0	46	104	1439694848	60	219372
2026-01-29 20:09:02.68	113.32	3.73	-57.6	-74.5	3.7	1.51e+00	0	47	104	1439694848	60	200890
2026-01-29 20:09:03.69	113.43	3.68	-57.7	-74.6	3.7	1.51e+00	0	47	104	1439694848	60	203536
2026-01-29 20:09:04.69	113.54	3.64	-57.6	-74.5	3.8	1.51e+00	0	47	104	1439694848	60	201814
2026-01-29 20:09:05.70	113.65	3.60	-57.6	-74.8	3.7	1.51e+00	0	47	104	1439694848	60	209709
2026-01-29 20:09:06.71	113.77	3.55	-57.6	-74.5	3.8	1.51e+00	0	47	104	1439694848	60	201436
2026-01-29 20:09:07.72	113.88	3.51	-57.5	-74.6	3.8	1.51e+00	0	47	104	1439694848	60	204557
2026-01-29 20:09:08.73	113.99	3.46	-57.6	-74.9	3.7	1.51e+00	0	47	104	1439694848	60	211844
2026-01-29 20:09:09.73	114.10	3.42	-57.6	-75.0	3.7	1.51e+00	0	47	104	1439694848	60	214930
2026-01-29 20:09:10.74	114.21	3.38	-57.7	-74.8	3.7	1.51e+00	0	47	104	1439694848	60	209546
2026-01-29 20:09:11.75	114.32	3.33	-57.6	-74.6	3.7	1.51e+00	0	47	104	1439694848	60	203544
2026-01-29 20:09:12.75	114.43	3.29	-57.6	-74.7	3.7	1.51e+00	0	47	104	1439694848	60	207387
2026-01-29 20:09:13.76	114.54	3.25	-57.7	-74.6	3.8	1.51e+00	0	47	104	1439694848	60	203856
2026-01-29 20:09:14.76	114.65	3.20	-57.6	-74.8	3.7	1.51e+00	0	47	104	1439694848	60	209210
2026-01-29 20:09:15.77	114.75	3.16	-57.6	-74.7	3.7	1.51e+00	0	47	104	1439694848	60	207839
2026-01-29 20:09:16.78	114.86	3.11	-57.5	-74.6	3.7	1.51e+00	0	47	104	1439694848	60	204190
2026-01-29 20:09:17.79	114.97	3.07	-57.5	-74.7	3.7	1.51e+00	0	47	104	1439694848	60	206199
2026-01-29 20:09:18.79	115.08	3.03	-57.6	-75.1	3.8	1.51e+00	0	47	104	1439694848	60	216075
2026-01-29 20:09:19.80	115.19	2.98	-57.7	-74.7	3.8	1.51e+00	0	47	104	1439694848	60	207488
2026-01-29 20:09:20.81	115.29	2.94	-57.7	-74.5	3.7	1.51e+00	0	47	104	1439694848	60	202437
2026-01-29 20:09:21.82	115.40	2.89	-57.7	-74.6	3.8	1.51e+00	0	47	104	1439694848	60	205262
2026-01-29 20:09:22.82	115.51	2.85	-57.8	-74.6	3.7	1.51e+00	0	47	104	1439694848	60	204489
2026-01-29 20:09:23.83	115.61	2.80	-57.7	-74.5	3.7	1.51e+00	0	47	104	1439694848	60	202227
2026-01-29 20:09:24.84	115.72	2.76	-57.7	-75.0	3.7	1.51e+00	0	47	104	1439694848	60	213716
2026-01-29 20:09:25.85	115.82	2.72	-57.7	-74.6	3.7	1.51e+00	0	47	104	1439694848	60	204416
2026-01-29 20:09:26.86	115.93	2.67	-57.7	-75.1	3.7	1.51e+00	0	47	104	1439694848	60	215801
2026-01-29 20:09:27.86	116.03	2.63	-57.7	-75.1	3.8	1.51e+00	0	47	104	1439694848	60	216531
2026-01-29 20:09:28.87	116.14	2.58	-57.6	-74.5	3.7	1.51e+00	0	47	104	1439694848	60	203041
2026-01-29 20:09:29.87	116.24	2.54	-57.7	-74.6	3.7	1.51e+00	0	47	104	1439694848	60	203947
2026-01-29 20:09:30.88	116.35	2.50	-57.7	-74.5	3.7	1.51e+00	0	47	104	1439694848	60	202396
2026-01-29 20:09:31.89	116.45	2.45	-57.6	-74.6	3.7	1.51e+00	0	47	104	1439694848	60	203295
2026-01-29 20:09:32.89	116.55	2.41	-57.7	-74.6	3.7	1.51e+00	0	47	104	1439694848	60	204974
2026-01-29 20:09:33.90	116.66	2.36	-57.9	-74.8	3.7	1.51e+00	0	47	104	1439694848	60	208263
2026-01-29 20:09:34.91	116.76	2.32	-57.8	-75.2	3.7	1.51e+00	0	47	104	1439694848	60	218759
2026-01-29 20:09:35.91	116.86	2.27	-57.7	-75.1	3.7	1.51e+00	0	47	104	1439694848	60	217179
2026-01-29 20:09:36.92	116.97	2.23	-57.8	-74.6	3.7	1.51e+00	0	47	104	1439694848	60	204339
2026-01-29 20:09:37.93	117.07	2.19	-57.9	-74.6	3.7	1.51e+00	0	47	104	1439694848	60	203628
2026-01-29 20:09:38.94	117.17	2.14	-57.9	-74.8	3.7	1.51e+00	0	47	104	1439694848	60	208172
2026-01-29 20:09:39.94	117.27	2.10	-58.0	-74.8	3.7	1.51e+00	0	47	104	1439694848	60	209984
2026-01-29 20:09:40.94	117.37	2.05	-58.0	-74.9	3.7	1.51e+00	0	47	104	1439694848	60	210726
2026-01-29 20:09:41.95	117.47	2.01	-57.8	-74.7	3.7	1.51e+00	0	47	104	1439694848	60	206221
2026-01-29 20:09:42.96	117.57	1.96	-57.8	-74.8	3.7	1.51e+00	0	47	104	1439694848	60	210148
2026-01-29 20:09:43.96	117.67	1.92	-58.0	-74.8	3.7	1.51e+00	0	47	104	1439694848	60	208754
2026-01-29 20:09:44.97	117.77	1.88	-58.2	-74.9	3.7	1.51e+00	0	47	104	1439694848	60	212420
2026-01-29 20:09:45.98	117.87	1.83	-58.0	-75.0	3.7	1.51e+00	0	47	104	1439694848	60	213478
2026-01-29 20:09:46.99	117.97	1.79	-57.9	-74.7	3.7	1.51e+00	0	47	104	1439694848	60	206063
2026-01-29 20:09:47.99	118.07	1.74	-57.9	-74.8	3.7	1.51e+00	0	47	104	1439694848	60	208781
2026-01-29 20:09:49.00	118.17	1.70	-58.0	-74.8	3.7	1.51e+00	0	47	104	1439694848	60	208360
2026-01-29 20:09:50.01	118.27	1.66	-58.0	-74.7	3.7	1.51e+00	0	47	104	1439694848	60	205992
2026-01-29 20:09:51.02	118.37	1.61	-58.0	-74.9	3.7	1.51e+00	0	47	104	1439694848	60	210751
2026-01-29 20:09:52.03	118.47	1.57	-57.9	-75.2	3.7	1.51e+00	0	47	104	1439694848	60	218151
