passes_logs/2026/01/29/R3.2S-Naryan-Mar/R3.2S-Naryan-Mar__20260129_050601_SUOMI_NPP_rec.log

#Pass ID: 20260129_050601_SUOMI NPP
#Satellite: SUOMI NPP
#Configuration: NPP
#almurnet v.1.7.20240730
#Start time: 2026-01-29 05:06:02

#Version: 2.2.20231116
#Station: R3.2S-Naryan-Mar
#Location: 53.008057 lon 67.646978 lat
#TLE: 1 37849U 11061A   26027.93236865  .00000148  00000+0  91411-4 0  9991
#TLE: 2 37849  98.7823 329.8704 0002085  41.3231 318.8102 14.19530777738546

#Time	Az	El	Level	Level2	SNR	BER	BlckErr	Temp	State	Recorded	gain1	gain2
2026-01-29 05:06:02.86	81.78	0.05	-59.6	-73.6	3.5	8.45e-01	0	44	0	0	60	186865
2026-01-29 05:06:03.86	81.73	0.10	-60.5	-78.2	3.6	1.51e+00	0	44	104	0	60	320215
2026-01-29 05:06:04.87	81.67	0.16	-60.3	-78.2	3.6	1.51e+00	0	45	104	0	60	320048
2026-01-29 05:06:05.88	81.61	0.21	-61.5	-79.0	3.6	1.51e+00	0	45	104	0	60	349384
2026-01-29 05:06:06.88	81.56	0.27	-62.2	-79.3	3.6	1.51e+00	0	45	104	0	60	360963
2026-01-29 05:06:07.89	81.50	0.32	-62.3	-79.2	3.6	1.51e+00	0	45	104	0	60	355663
2026-01-29 05:06:08.89	81.44	0.38	-62.3	-79.3	3.6	1.51e+00	0	45	104	0	60	363482
2026-01-29 05:06:09.90	81.38	0.43	-61.9	-79.1	3.6	1.51e+00	0	45	104	0	60	354855
2026-01-29 05:06:10.91	81.32	0.49	-61.9	-79.0	3.6	1.51e+00	0	45	104	0	60	349215
2026-01-29 05:06:11.91	81.27	0.54	-60.8	-78.7	3.6	1.51e+00	0	45	104	0	60	338849
2026-01-29 05:06:12.92	81.21	0.60	-60.7	-78.5	3.6	1.51e+00	0	45	104	0	60	328903
2026-01-29 05:06:13.92	81.15	0.65	-61.8	-78.5	3.6	1.51e+00	0	45	104	0	60	330318
2026-01-29 05:06:14.93	81.09	0.71	-59.8	-78.1	3.6	1.51e+00	0	45	104	0	60	314769
2026-01-29 05:06:15.94	81.03	0.76	-60.2	-77.9	3.6	1.51e+00	0	45	104	0	60	309164
2026-01-29 05:06:16.94	80.97	0.82	-60.4	-77.6	3.6	1.51e+00	0	45	104	0	60	297357
2026-01-29 05:06:17.95	80.91	0.87	-60.9	-77.8	3.6	1.51e+00	0	45	104	0	60	302525
2026-01-29 05:06:18.96	80.85	0.93	-60.9	-77.6	3.6	1.51e+00	0	45	104	0	60	296463
2026-01-29 05:06:19.97	80.79	0.98	-59.5	-77.5	3.6	1.51e+00	0	45	104	0	60	292434
2026-01-29 05:06:20.97	80.73	1.04	-60.4	-77.5	3.6	1.51e+00	0	45	104	0	60	295388
2026-01-29 05:06:21.98	80.67	1.09	-60.7	-77.3	3.6	1.51e+00	0	45	104	0	60	285850
2026-01-29 05:06:22.99	80.61	1.15	-60.8	-77.4	3.6	1.51e+00	0	45	104	0	60	289377
2026-01-29 05:06:23.99	80.55	1.20	-60.6	-77.3	3.5	1.51e+00	0	45	104	0	60	286099
2026-01-29 05:06:25.00	80.49	1.26	-60.4	-76.9	3.6	1.51e+00	0	45	104	0	60	275068
2026-01-29 05:06:26.01	80.42	1.32	-60.2	-76.7	3.6	1.51e+00	0	45	104	0	60	269345
2026-01-29 05:06:27.01	80.36	1.37	-60.1	-76.7	3.6	1.51e+00	0	45	104	0	60	268540
2026-01-29 05:06:28.01	80.30	1.43	-60.1	-76.6	3.6	1.51e+00	0	45	104	0	60	266078
2026-01-29 05:06:29.02	80.24	1.48	-60.1	-76.6	3.6	1.51e+00	0	45	104	0	60	265627
2026-01-29 05:06:30.02	80.18	1.54	-60.1	-76.7	3.6	1.51e+00	0	45	104	0	60	266897
2026-01-29 05:06:31.03	80.11	1.60	-60.0	-76.6	3.6	1.51e+00	0	45	104	0	60	266333
2026-01-29 05:06:32.03	80.05	1.65	-60.1	-76.6	3.6	1.51e+00	0	45	104	0	60	265888
2026-01-29 05:06:33.04	79.99	1.71	-60.0	-76.6	3.6	1.51e+00	0	45	104	0	60	265908
2026-01-29 05:06:34.04	79.92	1.77	-60.0	-76.6	3.6	1.51e+00	0	45	104	0	60	264946
2026-01-29 05:06:35.05	79.86	1.82	-60.0	-76.6	3.6	1.51e+00	0	45	104	0	60	263852
2026-01-29 05:06:36.06	79.79	1.88	-60.0	-76.5	3.6	1.51e+00	0	45	104	0	60	262161
2026-01-29 05:06:37.06	79.73	1.94	-59.9	-76.5	3.6	1.51e+00	0	45	104	0	60	261992
2026-01-29 05:06:38.07	79.66	1.99	-59.9	-76.5	3.6	1.51e+00	0	45	104	0	60	263257
2026-01-29 05:06:39.07	79.60	2.05	-59.9	-76.5	3.6	1.51e+00	0	45	104	0	60	261867
2026-01-29 05:06:40.08	79.53	2.11	-59.9	-76.5	3.6	1.51e+00	0	45	104	0	60	261932
2026-01-29 05:06:41.09	79.47	2.16	-59.9	-76.5	3.6	1.51e+00	0	45	104	0	60	261013
2026-01-29 05:06:42.10	79.40	2.22	-59.9	-76.5	3.6	1.51e+00	0	45	104	0	60	261075
2026-01-29 05:06:43.10	79.34	2.28	-59.9	-76.5	3.6	1.51e+00	0	45	104	0	60	261340
2026-01-29 05:06:44.11	79.27	2.34	-59.9	-76.5	3.6	1.51e+00	0	45	104	0	60	261994
2026-01-29 05:06:45.12	79.20	2.39	-59.9	-76.5	3.6	1.51e+00	0	45	104	0	60	261460
2026-01-29 05:06:46.13	79.14	2.45	-59.9	-76.5	3.6	1.51e+00	0	45	104	0	60	260472
2026-01-29 05:06:47.13	79.07	2.51	-59.9	-76.4	3.6	1.51e+00	0	45	104	0	60	260000
2026-01-29 05:06:48.14	79.00	2.57	-59.9	-76.4	3.6	1.51e+00	0	45	104	0	60	259979
2026-01-29 05:06:49.14	78.94	2.62	-59.8	-76.4	3.5	1.51e+00	0	45	104	0	60	259257
2026-01-29 05:06:50.15	78.87	2.68	-59.8	-76.4	3.6	1.51e+00	0	45	104	0	60	258101
2026-01-29 05:06:51.16	78.80	2.74	-59.8	-76.4	3.6	1.51e+00	0	45	104	0	60	258660
2026-01-29 05:06:52.17	78.73	2.80	-59.8	-76.4	3.6	1.51e+00	0	45	104	0	60	259442
2026-01-29 05:06:53.17	78.66	2.85	-59.8	-76.4	3.6	1.51e+00	0	45	104	0	60	259370
2026-01-29 05:06:54.18	78.59	2.91	-59.8	-76.4	3.6	1.51e+00	0	45	104	0	60	258907
2026-01-29 05:06:55.19	78.52	2.97	-59.8	-76.3	3.6	1.51e+00	0	45	104	0	60	257255
2026-01-29 05:06:56.20	78.45	3.03	-59.8	-76.4	3.6	1.51e+00	0	45	104	0	60	258662
2026-01-29 05:06:57.20	78.38	3.09	-59.8	-76.4	3.6	1.51e+00	0	45	104	0	60	259997
2026-01-29 05:06:58.21	78.31	3.15	-59.8	-76.4	3.6	1.51e+00	0	45	104	0	60	258807
2026-01-29 05:06:59.22	78.24	3.21	-59.8	-76.4	3.6	1.51e+00	0	45	104	0	60	258372
2026-01-29 05:07:00.22	78.17	3.26	-59.8	-76.4	3.6	1.51e+00	0	45	104	0	60	258636
2026-01-29 05:07:01.22	78.10	3.32	-59.8	-76.4	3.6	1.51e+00	0	45	104	0	60	258542
2026-01-29 05:07:02.23	78.03	3.38	-59.8	-76.4	3.6	1.51e+00	0	45	104	0	60	258160
2026-01-29 05:07:03.24	77.96	3.44	-59.8	-76.4	3.6	1.51e+00	0	45	104	0	60	258097
2026-01-29 05:07:04.24	77.89	3.50	-59.8	-76.4	3.6	1.51e+00	0	45	104	0	60	258465
2026-01-29 05:07:05.25	77.81	3.56	-59.8	-76.4	3.6	1.51e+00	0	45	104	0	60	258641
2026-01-29 05:07:06.26	77.74	3.62	-59.8	-76.4	3.6	1.51e+00	0	45	104	0	60	259673
2026-01-29 05:07:07.27	77.67	3.68	-59.8	-76.4	3.6	1.51e+00	0	45	104	0	60	257900
2026-01-29 05:07:08.28	77.59	3.74	-59.8	-76.4	3.6	1.51e+00	0	46	104	0	60	259610
2026-01-29 05:07:09.28	77.52	3.79	-59.8	-76.3	3.5	1.51e+00	0	45	104	0	60	256911
2026-01-29 05:07:10.29	77.45	3.85	-59.8	-76.4	3.6	1.51e+00	0	45	104	0	60	258531
2026-01-29 05:07:11.30	77.37	3.91	-59.8	-76.4	3.6	1.51e+00	0	45	104	0	60	257834
2026-01-29 05:07:12.31	77.30	3.97	-59.8	-76.4	3.6	1.51e+00	0	46	104	0	60	257618
2026-01-29 05:07:13.32	77.22	4.03	-59.8	-76.3	3.6	1.51e+00	0	45	104	0	60	255164
2026-01-29 05:07:14.32	77.15	4.09	-59.8	-76.3	3.6	1.51e+00	0	45	104	0	60	256971
2026-01-29 05:07:15.33	77.07	4.15	-59.8	-76.3	3.6	1.51e+00	0	46	104	0	60	256699
2026-01-29 05:07:16.34	77.00	4.21	-59.8	-76.3	3.6	1.51e+00	0	46	104	0	60	255170
2026-01-29 05:07:17.34	76.92	4.27	-59.8	-76.3	3.6	1.51e+00	0	46	104	0	60	256847
2026-01-29 05:07:18.35	76.84	4.33	-59.8	-76.3	3.6	1.51e+00	0	46	104	0	60	255972
2026-01-29 05:07:19.35	76.77	4.39	-59.8	-76.3	3.6	1.51e+00	0	46	104	0	60	255879
2026-01-29 05:07:20.36	76.69	4.45	-59.8	-76.3	3.6	1.51e+00	0	46	104	0	60	255824
2026-01-29 05:07:21.37	76.61	4.51	-59.8	-76.3	3.6	1.51e+00	0	46	104	0	60	256621
2026-01-29 05:07:22.38	76.53	4.57	-59.8	-76.3	3.6	1.51e+00	0	46	104	0	60	256428
2026-01-29 05:07:23.38	76.46	4.63	-59.8	-76.3	3.6	1.51e+00	0	46	104	0	60	255896
2026-01-29 05:07:24.39	76.38	4.70	-59.7	-76.3	3.6	1.51e+00	0	46	104	0	60	256961
2026-01-29 05:07:25.40	76.30	4.76	-59.7	-76.3	3.6	1.51e+00	0	46	104	0	60	255169
2026-01-29 05:07:26.41	76.22	4.82	-59.7	-76.3	3.6	1.51e+00	0	46	104	0	60	255214
2026-01-29 05:07:27.42	76.14	4.88	-59.8	-76.3	3.6	1.51e+00	0	45	104	0	60	255554
2026-01-29 05:07:28.43	76.06	4.94	-59.7	-76.3	3.6	1.51e+00	0	46	104	0	60	255931
2026-01-29 05:07:29.43	75.98	5.00	-59.7	-76.3	3.6	1.51e+00	0	46	104	0	60	255853
2026-01-29 05:07:30.44	75.90	5.06	-59.7	-76.3	3.6	1.51e+00	0	45	104	0	60	256228
2026-01-29 05:07:31.45	75.82	5.12	-59.7	-76.3	3.6	1.51e+00	0	45	104	0	60	255365
2026-01-29 05:07:32.45	75.74	5.18	-59.7	-76.3	3.6	1.51e+00	0	45	104	0	60	256079
2026-01-29 05:07:33.46	75.66	5.25	-59.7	-76.2	3.6	1.51e+00	0	46	104	0	60	253585
2026-01-29 05:07:34.46	75.57	5.31	-59.7	-76.3	3.6	1.51e+00	0	46	104	0	60	256035
2026-01-29 05:07:35.46	75.49	5.37	-59.7	-76.3	3.6	1.51e+00	0	46	104	0	60	254791
2026-01-29 05:07:36.47	75.41	5.43	-59.7	-76.3	3.6	1.51e+00	0	46	104	0	60	254746
2026-01-29 05:07:37.48	75.33	5.49	-59.7	-76.3	3.6	1.51e+00	0	46	104	0	60	255781
2026-01-29 05:07:38.48	75.24	5.55	-59.7	-76.3	3.6	1.51e+00	0	46	104	0	60	255573
2026-01-29 05:07:39.49	75.16	5.62	-59.7	-76.3	3.6	1.51e+00	0	46	104	0	60	254827
2026-01-29 05:07:40.50	75.07	5.68	-59.7	-76.2	3.6	1.51e+00	0	46	104	0	60	254275
2026-01-29 05:07:41.51	74.99	5.74	-59.7	-76.2	3.6	1.51e+00	0	46	104	0	60	253829
2026-01-29 05:07:42.52	74.90	5.80	-59.7	-76.2	3.6	1.51e+00	0	46	104	0	60	253177
2026-01-29 05:07:43.53	74.82	5.86	-59.7	-76.2	3.6	1.51e+00	0	46	104	0	60	251857
2026-01-29 05:07:44.53	74.73	5.93	-59.7	-76.2	3.5	1.51e+00	0	46	104	0	60	252495
2026-01-29 05:07:45.54	74.65	5.99	-59.7	-76.1	3.6	1.51e+00	0	46	104	0	60	251108
2026-01-29 05:07:46.55	74.56	6.05	-59.8	-76.2	3.6	1.51e+00	0	46	104	0	60	253649
2026-01-29 05:07:47.55	74.48	6.11	-59.5	-76.4	3.6	1.51e+00	0	46	104	0	60	259136
2026-01-29 05:07:48.56	74.39	6.18	-59.9	-75.9	3.6	1.46e+00	0	46	104	0	60	245683
2026-01-29 05:07:49.56	74.30	6.24	-59.5	-76.4	3.6	1.51e+00	0	46	104	0	60	257400
2026-01-29 05:07:50.57	74.21	6.30	-59.9	-75.7	3.6	1.51e+00	0	46	104	0	60	238963
2026-01-29 05:07:51.58	74.12	6.37	-60.1	-75.5	3.5	1.51e+00	0	46	104	0	60	234244
2026-01-29 05:07:52.58	74.04	6.43	-60.2	-75.6	3.6	1.51e+00	0	46	104	0	60	235347
2026-01-29 05:07:53.59	73.95	6.49	-59.9	-75.4	3.6	1.51e+00	0	46	104	0	60	229721
2026-01-29 05:07:54.59	73.86	6.55	-59.9	-75.0	3.6	1.51e+00	0	46	104	0	60	220228
2026-01-29 05:07:55.60	73.77	6.62	-60.2	-76.5	3.6	1.50e+00	0	46	104	0	60	263326
2026-01-29 05:07:56.60	73.68	6.68	-60.0	-76.4	3.6	1.51e+00	0	46	104	0	60	258385
2026-01-29 05:07:57.61	73.59	6.75	-59.6	-75.1	3.6	1.51e+00	0	46	104	0	60	222266
2026-01-29 05:07:58.62	73.49	6.81	-59.6	-75.3	3.6	1.51e+00	0	46	104	0	60	227967
2026-01-29 05:07:59.63	73.40	6.87	-60.3	-75.5	3.6	1.51e+00	0	46	104	0	60	232395
2026-01-29 05:08:00.64	73.31	6.94	-59.7	-75.4	3.6	1.51e+00	0	46	104	0	60	229635
2026-01-29 05:08:01.65	73.22	7.00	-59.5	-75.2	3.6	1.51e+00	0	46	104	0	60	225047
2026-01-29 05:08:02.65	73.13	7.06	-59.5	-75.2	3.6	1.51e+00	0	46	104	0	60	226095
2026-01-29 05:08:03.66	73.03	7.13	-59.6	-75.2	3.6	1.51e+00	0	46	104	0	60	226317
2026-01-29 05:08:04.66	72.94	7.19	-59.7	-75.3	3.6	1.51e+00	0	46	104	0	60	228369
2026-01-29 05:08:05.67	72.84	7.26	-59.4	-76.5	3.6	1.51e+00	0	46	104	0	60	262292
2026-01-29 05:08:06.68	72.75	7.32	-60.1	-76.4	3.6	1.51e+00	0	46	104	0	60	258253
2026-01-29 05:08:07.69	72.65	7.39	-59.4	-76.2	3.6	1.51e+00	0	46	104	0	60	253927
2026-01-29 05:08:08.69	72.56	7.45	-59.6	-76.4	3.6	1.51e+00	0	46	104	0	60	259886
2026-01-29 05:08:09.70	72.46	7.51	-59.2	-76.4	3.6	1.51e+00	0	46	104	0	60	259359
2026-01-29 05:08:10.70	72.37	7.58	-60.5	-74.5	3.6	1.51e+00	0	46	104	0	60	208291
2026-01-29 05:08:11.71	72.27	7.64	-60.5	-74.9	3.7	1.50e+00	0	46	104	0	60	218262
2026-01-29 05:08:12.71	72.17	7.71	-60.4	-74.3	3.8	1.50e+00	0	46	104	0	60	202777
2026-01-29 05:08:13.72	72.08	7.77	-60.4	-73.9	3.6	1.49e+00	0	46	104	0	60	194163
2026-01-29 05:08:14.72	71.98	7.84	-60.4	-73.1	3.7	1.48e+00	0	46	0	0	60	177663
2026-01-29 05:08:15.72	71.88	7.90	-60.2	-71.1	4.1	1.33e+00	0	46	0	0	60	140776
2026-01-29 05:08:16.73	71.78	7.97	-59.9	-69.2	5.5	6.29e-01	0	46	0	1048576	60	112983
2026-01-29 05:08:17.74	71.68	8.03	-59.8	-67.4	7.7	2.43e-01	0	46	0	2097152	60	91327
2026-01-29 05:08:18.75	71.58	8.10	-59.5	-65.8	9.7	2.00e-03	0	46	0	4194304	60	76239
2026-01-29 05:08:19.75	71.48	8.16	-58.9	-63.9	11.9	2.23e-03	0	46	0	5242880	60	61721
2026-01-29 05:08:20.76	71.38	8.23	-58.4	-62.7	13.2	1.18e-04	0	46	0	7340032	60	53611
2026-01-29 05:08:21.77	71.28	8.30	-58.3	-62.6	13.4	1.60e-05	0	46	0	9437184	60	53134
2026-01-29 05:08:22.78	71.18	8.36	-57.8	-61.6	14.3	2.20e-06	0	46	0	11534336	60	47262
2026-01-29 05:08:23.79	71.08	8.43	-57.9	-61.5	14.3	0.00e+00	0	46	0	13631488	60	46585
2026-01-29 05:08:24.79	70.97	8.49	-57.8	-61.3	14.7	7.00e-07	0	46	0	15728640	60	45265
2026-01-29 05:08:25.79	70.87	8.56	-57.8	-61.2	14.9	0.00e+00	0	46	0	16777216	60	44859
2026-01-29 05:08:26.80	70.77	8.62	-57.5	-61.4	14.8	0.00e+00	0	46	0	18874368	60	46000
2026-01-29 05:08:27.81	70.66	8.69	-57.7	-61.4	14.6	0.00e+00	0	46	0	20971520	60	46177
2026-01-29 05:08:28.82	70.56	8.76	-57.6	-61.1	15.1	7.00e-07	0	46	0	23068672	60	44593
2026-01-29 05:08:29.82	70.45	8.82	-57.7	-61.0	15.0	0.00e+00	0	46	0	24117248	60	44045
2026-01-29 05:08:30.83	70.35	8.89	-57.9	-61.3	14.6	0.00e+00	0	46	0	26214400	60	45742
2026-01-29 05:08:31.84	70.24	8.96	-57.9	-61.3	14.9	7.00e-07	0	46	0	28311552	60	45549
2026-01-29 05:08:32.85	70.13	9.02	-57.4	-60.9	14.9	7.00e-07	0	46	0	30408704	60	43438
2026-01-29 05:08:33.86	70.03	9.09	-57.3	-60.9	15.3	0.00e+00	0	46	0	32505856	60	43615
2026-01-29 05:08:34.86	69.92	9.16	-57.4	-60.8	15.2	0.00e+00	0	46	0	33554432	60	43097
2026-01-29 05:08:35.87	69.81	9.22	-57.5	-60.6	15.7	0.00e+00	0	46	0	35651584	60	41992
2026-01-29 05:08:36.88	69.70	9.29	-57.3	-60.3	15.7	0.00e+00	0	46	0	37748736	60	40405
2026-01-29 05:08:37.89	69.59	9.36	-57.6	-60.8	15.5	0.00e+00	0	46	0	39845888	60	43154
2026-01-29 05:08:38.90	69.48	9.42	-57.3	-60.3	15.8	0.00e+00	0	46	0	41943040	60	40381
2026-01-29 05:08:39.90	69.37	9.49	-57.4	-60.5	15.7	0.00e+00	0	46	0	44040192	60	41691
2026-01-29 05:08:40.91	69.26	9.56	-57.4	-60.5	15.5	0.00e+00	0	46	0	45088768	60	41414
2026-01-29 05:08:41.92	69.15	9.62	-57.3	-60.4	15.8	7.00e-07	0	46	0	47185920	60	40830
2026-01-29 05:08:42.93	69.04	9.69	-57.1	-60.2	15.6	0.00e+00	0	46	0	49283072	60	39996
2026-01-29 05:08:43.93	68.93	9.76	-57.2	-60.3	15.6	0.00e+00	0	46	0	51380224	60	40745
2026-01-29 05:08:44.94	68.81	9.83	-57.3	-60.6	15.5	0.00e+00	0	46	0	52428800	60	41883
2026-01-29 05:08:45.95	68.70	9.89	-57.3	-60.4	15.8	0.00e+00	0	46	0	54525952	60	40938
2026-01-29 05:08:46.96	68.59	9.96	-56.8	-59.9	16.3	0.00e+00	0	46	0	56623104	60	38887
2026-01-29 05:08:47.97	68.47	10.03	-56.7	-59.8	16.2	0.00e+00	0	46	0	58720256	60	38286
2026-01-29 05:08:48.97	68.36	10.10	-57.0	-60.0	16.2	0.00e+00	0	46	0	60817408	60	39069
2026-01-29 05:08:49.98	68.24	10.17	-56.9	-59.6	16.7	0.00e+00	0	46	0	62914560	60	37324
2026-01-29 05:08:50.99	68.12	10.23	-57.1	-59.7	16.8	0.00e+00	0	46	0	63963136	60	38023
2026-01-29 05:08:52.00	68.01	10.30	-56.8	-59.4	17.1	0.00e+00	0	46	0	66060288	60	36383
2026-01-29 05:08:53.00	67.89	10.37	-56.6	-59.2	17.1	0.00e+00	0	46	0	68157440	60	35639
2026-01-29 05:08:54.01	67.77	10.44	-56.1	-58.5	17.8	0.00e+00	0	46	0	70254592	60	33115
2026-01-29 05:08:55.01	67.66	10.50	-55.8	-58.4	17.9	0.00e+00	0	46	0	72351744	60	32453
2026-01-29 05:08:56.02	67.54	10.57	-56.0	-58.7	17.7	0.00e+00	0	46	0	73400320	60	33658
2026-01-29 05:08:57.02	67.42	10.64	-56.2	-58.9	17.5	0.00e+00	0	46	0	75497472	60	34471
2026-01-29 05:08:58.02	67.30	10.71	-56.4	-58.7	17.7	0.00e+00	0	46	0	77594624	60	33656
2026-01-29 05:08:59.03	67.18	10.78	-56.5	-59.0	17.3	0.00e+00	0	46	0	79691776	60	34919
2026-01-29 05:09:00.03	67.06	10.85	-56.4	-58.8	17.5	0.00e+00	0	46	0	80740352	60	34238
2026-01-29 05:09:01.04	66.94	10.91	-56.1	-58.4	17.8	0.00e+00	0	46	0	82837504	60	32591
2026-01-29 05:09:02.05	66.81	10.98	-56.2	-58.6	17.7	0.00e+00	0	46	0	84934656	60	33263
2026-01-29 05:09:03.06	66.69	11.05	-56.0	-58.4	17.7	0.00e+00	0	46	0	87031808	60	32648
2026-01-29 05:09:04.07	66.57	11.12	-56.0	-58.4	18.0	0.00e+00	0	46	0	89128960	60	32646
2026-01-29 05:09:05.07	66.44	11.19	-56.1	-58.4	18.0	0.00e+00	0	46	0	91226112	60	32491
2026-01-29 05:09:06.08	66.32	11.26	-55.9	-58.1	18.0	0.00e+00	0	46	0	92274688	60	31652
2026-01-29 05:09:07.09	66.19	11.33	-55.8	-58.3	17.7	0.00e+00	0	46	0	94371840	60	32087
2026-01-29 05:09:08.10	66.07	11.40	-55.9	-58.3	17.8	0.00e+00	0	46	0	96468992	60	32269
2026-01-29 05:09:09.11	65.94	11.47	-56.1	-58.6	17.7	0.00e+00	0	46	0	98566144	60	33367
2026-01-29 05:09:10.11	65.81	11.53	-55.9	-58.5	18.0	0.00e+00	0	46	0	100663296	60	32830
2026-01-29 05:09:11.12	65.68	11.60	-55.7	-58.2	18.2	0.00e+00	0	46	0	101711872	60	32003
2026-01-29 05:09:12.13	65.56	11.67	-55.8	-58.0	18.4	0.00e+00	0	46	0	103809024	60	31249
2026-01-29 05:09:13.13	65.43	11.74	-55.9	-57.9	18.7	0.00e+00	0	46	0	105906176	60	30891
2026-01-29 05:09:14.14	65.30	11.81	-56.0	-58.0	18.5	0.00e+00	0	46	0	108003328	60	31206
2026-01-29 05:09:15.14	65.17	11.88	-55.8	-58.0	18.6	0.00e+00	0	46	0	110100480	60	31151
2026-01-29 05:09:16.15	65.04	11.95	-55.4	-58.2	17.9	0.00e+00	0	46	0	111149056	60	31676
2026-01-29 05:09:17.16	64.90	12.02	-54.6	-58.4	17.2	0.00e+00	0	46	0	113246208	60	32747
2026-01-29 05:09:18.17	64.77	12.09	-54.2	-58.4	17.0	0.00e+00	0	46	0	115343360	60	32570
2026-01-29 05:09:19.17	64.64	12.16	-54.2	-58.2	16.8	0.00e+00	0	46	0	117440512	60	31877
2026-01-29 05:09:20.18	64.51	12.23	-54.6	-58.3	16.7	0.00e+00	0	46	0	119537664	60	32393
2026-01-29 05:09:21.19	64.37	12.30	-55.0	-58.3	17.3	0.00e+00	0	46	0	120586240	60	32145
2026-01-29 05:09:22.20	64.24	12.37	-55.7	-58.6	17.6	0.00e+00	0	46	0	122683392	60	33513
2026-01-29 05:09:23.21	64.10	12.44	-56.4	-58.7	17.8	0.00e+00	0	46	0	124780544	60	33596
2026-01-29 05:09:24.21	63.97	12.51	-56.7	-59.1	17.4	0.00e+00	0	46	0	126877696	60	35267
2026-01-29 05:09:25.22	63.83	12.58	-56.7	-59.3	17.2	0.00e+00	0	46	0	128974848	60	36108
2026-01-29 05:09:26.22	63.69	12.65	-56.9	-59.6	17.1	0.00e+00	0	46	0	130023424	60	37288
2026-01-29 05:09:27.22	63.56	12.71	-57.0	-59.8	16.6	0.00e+00	0	46	0	132120576	60	38480
2026-01-29 05:09:28.23	63.42	12.78	-57.1	-60.1	16.2	0.00e+00	0	46	0	134217728	60	39499
2026-01-29 05:09:29.24	63.28	12.85	-57.6	-60.7	15.9	0.00e+00	0	46	0	136314880	60	42643
2026-01-29 05:09:30.24	63.14	12.92	-57.6	-60.6	16.1	0.00e+00	0	46	0	138412032	60	41940
2026-01-29 05:09:31.26	63.00	13.00	-57.8	-60.6	15.8	0.00e+00	0	46	0	139460608	60	42199
2026-01-29 05:09:32.26	62.86	13.06	-58.2	-61.4	15.2	0.00e+00	0	46	0	141557760	60	46110
2026-01-29 05:09:33.26	62.71	13.13	-58.4	-61.9	15.0	0.00e+00	0	46	0	143654912	60	48483
2026-01-29 05:09:34.27	62.57	13.20	-58.1	-61.6	14.9	0.00e+00	0	46	0	145752064	60	47281
2026-01-29 05:09:35.27	62.43	13.27	-58.3	-62.1	14.2	7.00e-07	0	46	0	147849216	60	49794
2026-01-29 05:09:36.28	62.28	13.34	-56.1	-62.0	13.4	2.20e-06	0	46	0	148897792	60	49528
2026-01-29 05:09:37.29	62.14	13.41	-54.7	-62.1	12.4	6.86e-05	0	46	0	150994944	60	49660
2026-01-29 05:09:38.30	61.99	13.48	-55.2	-62.3	12.4	2.22e-04	0	46	0	153092096	60	51038
2026-01-29 05:09:39.30	61.85	13.55	-56.3	-62.3	13.1	9.15e-05	0	46	0	155189248	60	50941
2026-01-29 05:09:40.31	61.70	13.62	-56.3	-62.8	12.6	3.28e-05	0	46	0	157286400	60	54216
2026-01-29 05:09:41.32	61.55	13.70	-56.0	-63.3	11.8	8.54e-05	0	46	0	158334976	60	57292
2026-01-29 05:09:42.33	61.40	13.77	-56.6	-63.6	11.9	4.26e-04	0	46	0	160432128	60	59162
2026-01-29 05:09:43.34	61.25	13.84	-57.6	-64.0	11.9	3.91e-04	0	46	0	162529280	60	62124
2026-01-29 05:09:44.35	61.10	13.91	-58.0	-63.8	12.1	3.91e-04	0	46	0	164626432	60	60717
2026-01-29 05:09:45.35	60.95	13.98	-58.4	-63.8	11.9	5.87e-04	0	46	0	166723584	60	60590
2026-01-29 05:09:46.36	60.80	14.05	-58.9	-64.2	11.9	6.76e-04	0	46	0	167772160	60	63217
2026-01-29 05:09:47.36	60.65	14.12	-59.3	-64.1	12.3	6.87e-04	0	46	0	169869312	60	63078
2026-01-29 05:09:48.37	60.50	14.19	-59.5	-64.2	12.2	2.71e-04	0	46	0	171966464	60	63674
2026-01-29 05:09:49.38	60.34	14.26	-59.4	-64.3	12.1	3.00e-04	0	46	0	174063616	60	64503
2026-01-29 05:09:50.38	60.19	14.33	-59.3	-65.5	10.8	1.00e-03	0	46	0	176160768	60	73945
2026-01-29 05:09:51.39	60.04	14.40	-59.2	-66.1	10.1	3.78e-03	0	46	0	177209344	60	78757
2026-01-29 05:09:52.40	59.88	14.47	-59.3	-66.1	10.2	7.50e-03	0	46	0	179306496	60	79309
2026-01-29 05:09:53.41	59.72	14.54	-60.1	-67.2	9.1	9.56e-03	0	46	0	181403648	60	89414
2026-01-29 05:09:54.41	59.57	14.61	-60.4	-66.6	9.7	1.81e-02	0	46	0	183500800	60	84040
2026-01-29 05:09:55.42	59.41	14.68	-60.2	-67.1	8.9	2.03e-02	0	46	0	185597952	60	88712
2026-01-29 05:09:56.43	59.25	14.75	-59.4	-67.2	8.5	2.92e-02	0	46	0	186646528	60	89817
2026-01-29 05:09:57.43	59.09	14.82	-58.4	-67.5	7.9	4.70e-02	0	46	0	188743680	60	93318
2026-01-29 05:09:58.44	58.93	14.89	-57.3	-67.5	7.5	9.02e-02	0	46	0	190840832	60	93163
2026-01-29 05:09:59.45	58.77	14.96	-56.8	-67.9	6.8	1.39e-01	0	46	0	192937984	60	97846
2026-01-29 05:10:00.46	58.61	15.03	-57.0	-68.3	6.5	1.95e-01	0	46	0	195035136	60	101485
2026-01-29 05:10:01.47	58.44	15.10	-57.3	-68.1	6.9	2.30e-01	0	46	0	196083712	60	99019
2026-01-29 05:10:02.48	58.28	15.17	-58.1	-68.5	6.6	1.29e-01	0	46	0	198180864	60	103736
2026-01-29 05:10:03.48	58.12	15.24	-58.4	-68.5	6.4	1.96e-01	0	46	0	200278016	60	103942
2026-01-29 05:10:04.49	57.95	15.31	-58.1	-68.2	6.7	2.74e-01	0	46	0	202375168	60	100972
2026-01-29 05:10:05.50	57.79	15.38	-58.1	-68.2	6.9	1.38e-01	0	46	0	204472320	60	101236
2026-01-29 05:10:06.50	57.62	15.45	-58.5	-69.0	6.6	1.56e-01	0	46	0	205520896	60	109895
2026-01-29 05:10:07.50	57.46	15.52	-59.1	-69.8	6.0	3.06e-01	0	46	0	207618048	60	121690
2026-01-29 05:10:08.51	57.29	15.59	-59.5	-70.0	5.6	3.67e-01	0	46	0	209715200	60	124168
2026-01-29 05:10:09.52	57.12	15.66	-59.7	-70.4	5.1	5.35e-01	0	46	0	211812352	60	129103
2026-01-29 05:10:10.52	56.95	15.72	-59.8	-71.2	4.6	6.43e-01	0	46	0	213909504	60	141998
2026-01-29 05:10:11.53	56.78	15.79	-59.8	-71.2	4.4	7.41e-01	0	46	0	214958080	60	142134
2026-01-29 05:10:12.54	56.61	15.86	-60.0	-71.0	4.6	7.44e-01	0	46	0	217055232	60	138629
2026-01-29 05:10:13.55	56.43	15.93	-60.1	-71.1	4.6	8.66e-01	0	46	0	219152384	60	140050
2026-01-29 05:10:14.56	56.26	16.00	-60.0	-71.5	4.4	9.17e-01	0	46	0	221249536	60	146813
2026-01-29 05:10:15.57	56.09	16.07	-59.9	-72.1	4.0	1.10e+00	0	46	0	222298112	60	158580
2026-01-29 05:10:16.57	55.91	16.14	-59.9	-72.6	3.8	1.34e+00	0	46	0	224395264	60	166926
2026-01-29 05:10:17.58	55.74	16.21	-60.1	-73.2	3.7	1.39e+00	0	46	0	225443840	60	179397
2026-01-29 05:10:18.59	55.56	16.28	-60.4	-74.9	3.9	1.46e+00	0	46	104	225443840	60	216793
2026-01-29 05:10:19.60	55.38	16.35	-60.6	-75.0	3.8	1.48e+00	0	46	104	225443840	60	219637
2026-01-29 05:10:20.60	55.21	16.42	-60.7	-75.1	3.8	1.52e+00	0	46	104	225443840	60	222251
2026-01-29 05:10:21.61	55.03	16.49	-60.8	-75.4	3.6	1.49e+00	0	46	104	225443840	60	229963
2026-01-29 05:10:22.62	54.85	16.56	-60.8	-75.2	3.6	1.50e+00	0	46	104	225443840	60	225797
2026-01-29 05:10:23.63	54.67	16.62	-60.4	-74.8	3.8	1.50e+00	0	46	104	225443840	60	214376
2026-01-29 05:10:24.63	54.49	16.69	-60.2	-74.7	3.8	1.46e+00	0	46	104	225443840	60	213428
2026-01-29 05:10:25.64	54.31	16.76	-60.3	-74.7	3.9	1.48e+00	0	46	104	225443840	60	211779
2026-01-29 05:10:26.65	54.12	16.83	-60.5	-74.9	3.6	1.48e+00	0	46	104	225443840	60	218778
2026-01-29 05:10:27.66	53.94	16.90	-60.6	-74.5	3.7	1.48e+00	0	46	0	225443840	60	207820
2026-01-29 05:10:28.67	53.75	16.97	-60.8	-74.5	4.0	1.45e+00	0	46	104	225443840	60	206965
2026-01-29 05:10:29.68	53.57	17.03	-61.2	-74.1	3.7	1.42e+00	0	46	104	225443840	60	199775
2026-01-29 05:10:30.69	53.38	17.10	-61.2	-73.6	3.9	1.38e+00	0	46	0	225443840	60	187985
2026-01-29 05:10:31.69	53.20	17.17	-61.2	-74.7	3.7	1.43e+00	0	46	104	225443840	60	211921
2026-01-29 05:10:32.70	53.01	17.24	-61.3	-73.7	4.0	1.42e+00	0	46	0	225443840	60	190043
2026-01-29 05:10:33.71	52.82	17.30	-61.2	-72.5	3.9	1.35e+00	0	46	0	225443840	60	164790
2026-01-29 05:10:34.72	52.63	17.37	-61.1	-72.9	3.7	1.40e+00	0	46	0	225443840	60	172378
2026-01-29 05:10:35.72	52.44	17.44	-60.6	-73.9	4.1	1.45e+00	0	46	104	225443840	60	195105
2026-01-29 05:10:36.73	52.25	17.50	-60.6	-74.3	3.7	1.40e+00	0	46	104	225443840	60	203090
2026-01-29 05:10:37.74	52.05	17.57	-60.2	-73.6	3.8	1.40e+00	0	46	0	225443840	60	187671
2026-01-29 05:10:38.75	51.86	17.64	-60.0	-74.4	3.9	1.47e+00	0	46	104	225443840	60	204811
2026-01-29 05:10:39.76	51.67	17.71	-59.7	-74.2	3.7	1.44e+00	0	46	104	225443840	60	200487
2026-01-29 05:10:40.77	51.47	17.77	-59.5	-74.4	3.7	1.45e+00	0	46	104	225443840	60	205969
2026-01-29 05:10:41.77	51.28	17.84	-59.5	-73.9	3.7	1.45e+00	0	46	0	225443840	60	195215
2026-01-29 05:10:42.78	51.08	17.90	-59.7	-74.6	3.7	1.46e+00	0	46	104	225443840	60	209554
2026-01-29 05:10:43.78	50.88	17.97	-59.8	-73.9	3.8	1.43e+00	0	46	0	225443840	60	194452
2026-01-29 05:10:44.78	50.69	18.03	-59.7	-74.4	3.9	1.46e+00	0	46	104	225443840	60	205663
2026-01-29 05:10:45.79	50.49	18.10	-59.1	-74.5	3.7	1.44e+00	0	46	104	225443840	60	207035
2026-01-29 05:10:46.80	50.29	18.17	-59.0	-73.6	3.7	1.45e+00	0	46	0	225443840	60	187483
2026-01-29 05:10:47.80	50.09	18.23	-58.1	-73.9	3.8	1.46e+00	0	46	104	225443840	60	194514
2026-01-29 05:10:48.81	49.89	18.29	-57.5	-73.6	3.8	1.50e+00	0	46	104	225443840	60	187395
2026-01-29 05:10:49.82	49.68	18.36	-56.8	-73.3	3.8	1.48e+00	0	46	104	225443840	60	181168
2026-01-29 05:10:50.83	49.48	18.42	-56.4	-73.1	3.7	1.48e+00	0	46	104	225443840	60	177092
2026-01-29 05:10:51.83	49.28	18.49	-56.1	-73.2	3.7	1.50e+00	0	46	104	225443840	60	178219
2026-01-29 05:10:52.83	49.07	18.55	-55.7	-73.2	3.7	1.50e+00	0	46	104	225443840	60	178159
2026-01-29 05:10:53.84	48.87	18.62	-55.6	-73.2	3.7	1.50e+00	0	46	104	225443840	60	178078
2026-01-29 05:10:54.85	48.66	18.68	-55.0	-72.8	3.8	1.50e+00	0	46	104	225443840	60	171984
2026-01-29 05:10:55.85	48.45	18.74	-55.0	-73.0	3.6	1.48e+00	0	46	104	225443840	60	174886
2026-01-29 05:10:56.86	48.24	18.81	-54.7	-72.7	3.8	1.51e+00	0	46	104	225443840	60	169537
2026-01-29 05:10:57.86	48.04	18.87	-54.7	-72.8	3.6	1.47e+00	0	46	104	225443840	60	171371
2026-01-29 05:10:58.86	47.83	18.93	-54.8	-73.0	3.6	1.48e+00	0	46	104	225443840	60	174629
2026-01-29 05:10:59.87	47.62	18.99	-54.8	-72.9	3.6	1.47e+00	0	46	104	225443840	60	172770
2026-01-29 05:11:00.88	47.40	19.06	-55.1	-72.3	3.7	1.46e+00	0	46	0	225443840	60	161951
2026-01-29 05:11:01.89	47.19	19.12	-55.1	-72.8	3.8	1.47e+00	0	46	104	225443840	60	171638
2026-01-29 05:11:02.89	46.98	19.18	-55.1	-72.7	3.8	1.50e+00	0	46	104	225443840	60	169971
2026-01-29 05:11:03.90	46.76	19.24	-55.1	-72.8	3.8	1.49e+00	0	46	104	225443840	60	171808
2026-01-29 05:11:04.90	46.55	19.30	-54.9	-72.9	3.6	1.49e+00	0	46	104	225443840	60	172504
2026-01-29 05:11:05.91	46.33	19.36	-54.8	-72.8	3.7	1.51e+00	0	46	104	225443840	60	171527
2026-01-29 05:11:06.91	46.12	19.42	-54.6	-72.9	3.7	1.49e+00	0	46	104	225443840	60	173158
2026-01-29 05:11:07.92	45.90	19.48	-54.3	-72.9	3.6	1.50e+00	0	46	104	225443840	60	173460
2026-01-29 05:11:08.92	45.68	19.54	-54.4	-73.0	3.6	1.50e+00	0	46	104	225443840	60	174012
2026-01-29 05:11:09.93	45.46	19.60	-55.0	-73.2	3.6	1.50e+00	0	46	104	225443840	60	179460
2026-01-29 05:11:10.93	45.24	19.66	-55.5	-73.4	3.6	1.49e+00	0	46	104	225443840	60	182988
2026-01-29 05:11:11.94	45.02	19.72	-55.7	-73.5	3.7	1.49e+00	0	46	104	225443840	60	185921
2026-01-29 05:11:12.94	44.80	19.78	-55.8	-73.3	3.6	1.51e+00	0	46	104	225443840	60	180584
2026-01-29 05:11:13.94	44.57	19.84	-56.1	-73.5	3.7	1.49e+00	0	46	104	225443840	60	185384
2026-01-29 05:11:14.94	44.35	19.89	-56.3	-73.3	3.6	1.49e+00	0	46	104	225443840	60	181232
2026-01-29 05:11:15.95	44.13	19.95	-56.3	-73.7	3.6	1.51e+00	0	46	104	225443840	60	190750
2026-01-29 05:11:16.95	43.90	20.01	-56.4	-74.0	3.6	1.51e+00	0	46	104	225443840	60	195790
2026-01-29 05:11:17.96	43.67	20.07	-56.7	-74.2	3.6	1.51e+00	0	46	104	225443840	60	201814
2026-01-29 05:11:18.97	43.45	20.12	-57.6	-76.0	3.6	1.51e+00	0	46	104	225443840	60	247007
2026-01-29 05:11:19.98	43.22	20.18	-59.2	-75.5	3.6	1.51e+00	0	46	104	225443840	60	233444
2026-01-29 05:11:20.99	42.99	20.24	-60.0	-76.2	3.6	1.51e+00	0	46	104	225443840	60	253883
2026-01-29 05:11:21.99	42.76	20.29	-60.2	-77.0	3.6	1.51e+00	0	46	104	225443840	60	276828
2026-01-29 05:11:23.00	42.53	20.35	-59.9	-76.8	3.6	1.51e+00	0	46	104	225443840	60	270138
2026-01-29 05:11:24.01	42.30	20.40	-59.8	-76.8	3.6	1.51e+00	0	46	104	225443840	60	272616
2026-01-29 05:11:25.01	42.06	20.46	-60.0	-77.1	3.6	1.51e+00	0	46	104	225443840	60	280089
2026-01-29 05:11:26.02	41.83	20.51	-60.1	-76.0	3.6	1.51e+00	0	46	104	225443840	60	247782
2026-01-29 05:11:27.02	41.60	20.56	-57.0	-76.6	3.6	1.51e+00	0	46	104	225443840	60	266096
2026-01-29 05:11:28.02	41.36	20.62	-60.1	-76.1	3.6	1.51e+00	0	46	104	225443840	60	249552
2026-01-29 05:11:29.02	41.13	20.67	-60.6	-76.2	3.6	1.51e+00	0	46	104	225443840	60	251954
2026-01-29 05:11:30.03	40.89	20.72	-59.6	-77.3	3.6	1.51e+00	0	46	104	225443840	60	285975
2026-01-29 05:11:31.04	40.65	20.77	-60.2	-77.2	3.6	1.51e+00	0	46	104	225443840	60	284680
2026-01-29 05:11:32.04	40.42	20.83	-60.6	-77.3	3.6	1.51e+00	0	46	104	225443840	60	287314
2026-01-29 05:11:33.04	40.18	20.88	-60.6	-77.2	3.6	1.51e+00	0	46	104	225443840	60	284422
2026-01-29 05:11:34.05	39.94	20.93	-58.9	-76.5	3.6	1.51e+00	0	46	104	225443840	60	262940
2026-01-29 05:11:35.06	39.70	20.98	-53.6	-73.7	3.6	1.51e+00	0	46	104	225443840	60	190326
2026-01-29 05:11:36.06	39.46	21.03	-59.5	-76.5	3.6	1.51e+00	0	46	104	225443840	60	262390
2026-01-29 05:11:37.07	39.22	21.08	-59.1	-77.3	3.5	1.51e+00	0	46	104	225443840	60	286372
2026-01-29 05:11:38.08	38.97	21.13	-53.3	-74.0	3.6	1.51e+00	0	46	104	225443840	60	196353
2026-01-29 05:11:39.09	38.73	21.18	-53.3	-75.4	3.6	1.51e+00	0	46	104	225443840	60	231309
2026-01-29 05:11:40.09	38.48	21.22	-54.1	-74.3	3.6	1.51e+00	0	46	104	225443840	60	203357
2026-01-29 05:11:41.10	38.24	21.27	-54.8	-75.0	3.6	1.51e+00	0	46	104	225443840	60	220039
2026-01-29 05:11:42.11	37.99	21.32	-59.3	-76.9	3.6	1.51e+00	0	46	104	225443840	60	273699
2026-01-29 05:11:43.12	37.74	21.37	-60.9	-77.5	3.6	1.51e+00	0	46	104	225443840	60	292774
2026-01-29 05:11:44.12	37.50	21.41	-60.2	-77.3	3.6	1.51e+00	0	46	104	225443840	60	287067
2026-01-29 05:11:45.13	37.25	21.46	-61.1	-77.4	3.6	1.51e+00	0	46	104	225443840	60	288916
2026-01-29 05:11:46.14	37.00	21.50	-58.7	-76.9	3.6	1.51e+00	0	46	104	225443840	60	275260
2026-01-29 05:11:47.14	36.75	21.55	-60.8	-77.5	3.6	1.51e+00	0	46	104	225443840	60	293215
2026-01-29 05:11:48.15	36.50	21.59	-61.2	-77.3	3.6	1.51e+00	0	46	104	225443840	60	285992
2026-01-29 05:11:49.15	36.25	21.64	-61.1	-77.2	3.6	1.51e+00	0	46	104	225443840	60	284891
2026-01-29 05:11:50.16	36.00	21.68	-59.0	-77.3	3.6	1.51e+00	0	46	104	225443840	60	288280
2026-01-29 05:11:51.16	35.75	21.72	-55.0	-75.3	3.6	1.51e+00	0	46	104	225443840	60	229100
2026-01-29 05:11:52.17	35.49	21.77	-59.4	-76.8	3.6	1.51e+00	0	46	104	225443840	60	270531
2026-01-29 05:11:53.18	35.24	21.81	-56.8	-76.7	3.6	1.51e+00	0	46	104	225443840	60	269126
2026-01-29 05:11:54.19	34.98	21.85	-55.4	-75.4	3.6	1.51e+00	0	46	104	225443840	60	230091
2026-01-29 05:11:55.20	34.73	21.89	-55.2	-75.2	3.6	1.51e+00	0	46	104	225443840	60	226367
2026-01-29 05:11:56.21	34.47	21.93	-55.3	-75.2	3.6	1.51e+00	0	46	104	225443840	60	224480
2026-01-29 05:11:57.20	34.22	21.97	-56.0	-75.7	3.6	1.51e+00	0	46	104	225443840	60	237849
2026-01-29 05:11:58.21	33.96	22.01	-58.2	-77.4	3.6	1.51e+00	0	46	104	225443840	60	289067
2026-01-29 05:11:59.22	33.70	22.05	-55.3	-76.1	3.5	1.51e+00	0	46	104	225443840	60	249803
2026-01-29 05:12:00.23	33.44	22.08	-58.7	-77.4	3.6	1.51e+00	0	46	104	225443840	60	290208
2026-01-29 05:12:01.23	33.18	22.12	-60.5	-77.2	3.6	1.51e+00	0	46	104	225443840	60	284326
2026-01-29 05:12:02.24	32.92	22.16	-60.5	-77.3	3.6	1.51e+00	0	46	104	225443840	60	285619
2026-01-29 05:12:03.24	32.66	22.19	-54.4	-76.5	3.6	1.51e+00	0	46	104	225443840	60	263160
2026-01-29 05:12:04.25	32.40	22.23	-53.3	-76.1	3.6	1.51e+00	0	46	104	225443840	60	251509
2026-01-29 05:12:05.25	32.14	22.26	-53.1	-76.1	3.6	1.51e+00	0	46	104	225443840	60	249247
2026-01-29 05:12:06.26	31.88	22.30	-55.8	-76.5	3.6	1.51e+00	0	46	104	225443840	60	261415
2026-01-29 05:12:07.27	31.61	22.33	-53.6	-75.9	3.6	1.51e+00	0	46	104	225443840	60	243814
2026-01-29 05:12:08.27	31.35	22.37	-56.8	-74.7	3.6	1.51e+00	0	46	104	225443840	60	212714
2026-01-29 05:12:09.28	31.09	22.40	-58.9	-77.5	3.6	1.51e+00	0	46	104	225443840	60	292940
2026-01-29 05:12:10.29	30.82	22.43	-53.6	-74.3	3.6	1.51e+00	0	46	104	225443840	60	204212
2026-01-29 05:12:11.29	30.56	22.46	-54.3	-75.6	3.6	1.51e+00	0	46	104	225443840	60	236474
2026-01-29 05:12:12.30	30.29	22.49	-54.7	-76.1	3.6	1.51e+00	0	46	104	225443840	60	250785
2026-01-29 05:12:13.31	30.03	22.52	-55.2	-76.0	3.5	1.51e+00	0	46	104	225443840	60	245904
2026-01-29 05:12:14.32	29.76	22.55	-57.6	-74.3	3.8	1.36e+00	0	46	104	225443840	60	203940
2026-01-29 05:12:15.32	29.49	22.58	-54.0	-75.2	3.6	1.51e+00	0	46	104	225443840	60	226454
2026-01-29 05:12:16.33	29.22	22.61	-59.3	-76.8	3.6	1.51e+00	0	46	104	225443840	60	270488
2026-01-29 05:12:17.33	28.96	22.64	-60.7	-78.0	3.6	1.51e+00	0	46	104	225443840	60	310119
2026-01-29 05:12:18.34	28.69	22.66	-56.9	-76.3	3.6	1.51e+00	0	46	104	225443840	60	256553
2026-01-29 05:12:19.35	28.42	22.69	-56.9	-75.9	3.6	1.51e+00	0	46	104	225443840	60	244252
2026-01-29 05:12:20.35	28.15	22.72	-57.1	-76.0	3.6	1.51e+00	0	46	104	225443840	60	248229
2026-01-29 05:12:21.36	27.88	22.74	-57.3	-76.2	3.6	1.51e+00	0	46	104	225443840	60	254046
2026-01-29 05:12:22.36	27.61	22.77	-58.1	-76.7	3.6	1.51e+00	0	46	104	225443840	60	267139
2026-01-29 05:12:23.37	27.34	22.79	-57.0	-76.7	3.6	1.51e+00	0	46	104	225443840	60	269319
2026-01-29 05:12:24.38	27.07	22.81	-60.0	-77.6	3.6	1.51e+00	0	46	104	225443840	60	297909
2026-01-29 05:12:25.38	26.80	22.83	-59.2	-77.9	3.6	1.51e+00	0	46	104	225443840	60	307751
2026-01-29 05:12:26.39	26.52	22.86	-59.7	-77.8	3.6	1.51e+00	0	46	104	225443840	60	305432
2026-01-29 05:12:27.39	26.25	22.88	-59.3	-78.0	3.6	1.51e+00	0	46	104	225443840	60	311704
2026-01-29 05:12:28.40	25.98	22.90	-58.7	-77.8	3.6	1.51e+00	0	46	104	225443840	60	304706
2026-01-29 05:12:29.41	25.71	22.92	-57.5	-77.2	3.6	1.51e+00	0	46	104	225443840	60	284245
2026-01-29 05:12:30.41	25.43	22.94	-57.7	-76.4	3.6	1.51e+00	0	46	104	225443840	60	258853
2026-01-29 05:12:31.42	25.16	22.95	-57.5	-76.1	3.6	1.51e+00	0	46	104	225443840	60	250733
2026-01-29 05:12:32.43	24.88	22.97	-57.9	-76.0	3.6	1.51e+00	0	46	104	225443840	60	247721
2026-01-29 05:12:33.43	24.61	22.99	-58.1	-76.9	3.6	1.51e+00	0	46	104	225443840	60	275113
2026-01-29 05:12:34.44	24.34	23.00	-57.0	-76.9	3.6	1.51e+00	0	46	104	225443840	60	273210
2026-01-29 05:12:35.44	24.06	23.02	-57.6	-76.2	3.6	1.51e+00	0	46	104	225443840	60	252580
2026-01-29 05:12:36.45	23.79	23.03	-58.3	-76.5	3.6	1.51e+00	0	46	104	225443840	60	261421
2026-01-29 05:12:37.45	23.51	23.05	-58.6	-76.9	3.6	1.51e+00	0	46	104	225443840	60	273098
2026-01-29 05:12:38.46	23.24	23.06	-57.7	-77.0	3.6	1.51e+00	0	46	104	225443840	60	278165
2026-01-29 05:12:39.47	22.96	23.07	-58.9	-77.1	3.6	1.51e+00	0	46	104	225443840	60	279152
2026-01-29 05:12:40.47	22.69	23.09	-57.3	-77.0	3.6	1.51e+00	0	46	104	225443840	60	277828
2026-01-29 05:12:41.48	22.41	23.10	-57.4	-76.4	3.6	1.51e+00	0	46	104	225443840	60	259953
2026-01-29 05:12:42.49	22.13	23.11	-57.6	-76.6	3.6	1.51e+00	0	46	104	225443840	60	265246
2026-01-29 05:12:43.50	21.85	23.12	-57.8	-76.1	3.6	1.51e+00	0	46	104	225443840	60	250213
2026-01-29 05:12:44.51	21.58	23.13	-57.9	-76.1	3.6	1.51e+00	0	46	104	225443840	60	249584
2026-01-29 05:12:45.51	21.30	23.13	-57.2	-75.9	3.6	1.51e+00	0	46	104	225443840	60	245551
2026-01-29 05:12:46.52	21.02	23.14	-58.5	-76.4	3.6	1.51e+00	0	46	104	225443840	60	257812
2026-01-29 05:12:47.53	20.74	23.15	-59.1	-77.0	3.6	1.51e+00	0	46	104	225443840	60	277074
2026-01-29 05:12:48.53	20.47	23.16	-60.0	-78.1	3.6	1.51e+00	0	46	104	225443840	60	315303
2026-01-29 05:12:49.54	20.19	23.16	-58.8	-77.5	3.6	1.51e+00	0	46	104	225443840	60	293632
2026-01-29 05:12:50.54	19.92	23.17	-57.4	-76.6	3.6	1.51e+00	0	46	104	225443840	60	264876
2026-01-29 05:12:51.55	19.64	23.17	-54.6	-75.4	3.6	1.51e+00	0	46	104	225443840	60	230373
2026-01-29 05:12:52.55	19.36	23.17	-54.3	-75.2	3.6	1.51e+00	0	46	104	225443840	60	224517
2026-01-29 05:12:53.56	19.08	23.17	-54.4	-75.4	3.6	1.51e+00	0	46	104	225443840	60	231976
2026-01-29 05:12:54.57	18.80	23.18	-56.2	-76.9	3.6	1.51e+00	0	46	104	225443840	60	275661
2026-01-29 05:12:55.57	18.53	23.18	-56.8	-76.4	3.6	1.51e+00	0	46	104	225443840	60	259071
2026-01-29 05:12:56.58	18.25	23.18	-55.7	-75.3	3.6	1.51e+00	0	46	104	225443840	60	228817
2026-01-29 05:12:57.59	17.97	23.18	-56.7	-75.8	3.6	1.51e+00	0	46	104	225443840	60	240918
2026-01-29 05:12:58.60	17.69	23.18	-54.0	-75.0	3.5	1.51e+00	0	46	104	225443840	60	221266
2026-01-29 05:12:59.61	17.41	23.17	-54.8	-75.5	3.6	1.51e+00	0	46	104	225443840	60	232255
2026-01-29 05:13:00.61	17.14	23.17	-55.2	-75.4	3.6	1.51e+00	0	46	104	225443840	60	231479
2026-01-29 05:13:01.62	16.86	23.17	-57.6	-76.2	3.6	1.51e+00	0	46	104	225443840	60	251841
2026-01-29 05:13:02.62	16.58	23.16	-61.2	-78.0	3.6	1.51e+00	0	46	104	225443840	60	310712
2026-01-29 05:13:03.63	16.30	23.16	-60.3	-77.9	3.6	1.51e+00	0	46	104	225443840	60	308961
2026-01-29 05:13:04.63	16.03	23.15	-61.4	-77.4	3.6	1.51e+00	0	46	104	225443840	60	291613
2026-01-29 05:13:05.64	15.75	23.15	-61.4	-77.5	3.6	1.51e+00	0	46	104	225443840	60	294090
2026-01-29 05:13:06.65	15.47	23.14	-59.8	-77.2	3.6	1.51e+00	0	46	104	225443840	60	283589
2026-01-29 05:13:07.65	15.20	23.13	-60.6	-77.7	3.6	1.51e+00	0	46	104	225443840	60	299922
2026-01-29 05:13:08.66	14.92	23.13	-60.6	-77.7	3.6	1.51e+00	0	46	104	225443840	60	301524
2026-01-29 05:13:09.66	14.64	23.12	-61.2	-77.5	3.6	1.51e+00	0	46	104	225443840	60	292862
2026-01-29 05:13:10.66	14.37	23.11	-60.9	-76.9	3.6	1.51e+00	0	46	104	225443840	60	274471
2026-01-29 05:13:11.67	14.09	23.10	-59.5	-77.7	3.6	1.51e+00	0	46	104	225443840	60	301432
2026-01-29 05:13:12.68	13.81	23.09	-60.0	-77.0	3.6	1.51e+00	0	46	104	225443840	60	277675
2026-01-29 05:13:13.68	13.54	23.07	-59.4	-77.5	3.6	1.51e+00	0	46	104	225443840	60	293481
2026-01-29 05:13:14.69	13.26	23.06	-60.3	-77.6	3.6	1.51e+00	0	46	104	225443840	60	298171
2026-01-29 05:13:15.70	12.99	23.05	-60.2	-77.5	3.6	1.51e+00	0	46	104	225443840	60	292308
2026-01-29 05:13:16.71	12.71	23.03	-60.6	-77.5	3.6	1.51e+00	0	46	104	225443840	60	292280
2026-01-29 05:13:17.71	12.44	23.02	-61.2	-77.8	3.6	1.51e+00	0	46	104	225443840	60	303366
2026-01-29 05:13:18.72	12.16	23.00	-61.3	-77.9	3.6	1.51e+00	0	46	104	225443840	60	308241
2026-01-29 05:13:19.72	11.89	22.99	-60.0	-77.0	3.6	1.51e+00	0	46	104	225443840	60	278427
2026-01-29 05:13:20.73	11.61	22.97	-60.9	-77.9	3.6	1.51e+00	0	46	104	225443840	60	306016
2026-01-29 05:13:21.74	11.34	22.95	-59.9	-77.3	3.6	1.51e+00	0	46	104	225443840	60	286459
2026-01-29 05:13:22.75	11.07	22.93	-61.4	-77.7	3.6	1.51e+00	0	46	104	225443840	60	300042
2026-01-29 05:13:23.75	10.79	22.92	-60.4	-77.3	3.6	1.51e+00	0	46	104	225443840	60	286015
2026-01-29 05:13:24.76	10.52	22.90	-60.2	-77.3	3.6	1.51e+00	0	46	104	225443840	60	285627
2026-01-29 05:13:25.76	10.25	22.88	-61.0	-77.8	3.6	1.51e+00	0	46	104	225443840	60	302692
2026-01-29 05:13:26.76	9.98	22.85	-59.8	-76.8	3.6	1.51e+00	0	46	104	225443840	60	270955
2026-01-29 05:13:27.77	9.71	22.83	-61.6	-78.1	3.6	1.51e+00	0	46	104	225443840	60	314660
2026-01-29 05:13:28.78	9.43	22.81	-58.0	-77.8	3.6	1.51e+00	0	46	104	225443840	60	305769
2026-01-29 05:13:29.79	9.16	22.79	-59.7	-77.3	3.6	1.51e+00	0	46	104	225443840	60	288441
2026-01-29 05:13:30.80	8.89	22.76	-60.9	-78.1	3.6	1.51e+00	0	46	104	225443840	60	315637
2026-01-29 05:13:31.81	8.62	22.74	-58.6	-77.6	3.6	1.51e+00	0	46	104	225443840	60	296116
2026-01-29 05:13:32.82	8.35	22.71	-58.7	-77.9	3.6	1.51e+00	0	46	104	225443840	60	307625
2026-01-29 05:13:33.82	8.08	22.69	-60.5	-78.0	3.6	1.51e+00	0	46	104	225443840	60	312412
2026-01-29 05:13:34.83	7.81	22.66	-60.9	-77.8	3.6	1.51e+00	0	46	104	225443840	60	305047
2026-01-29 05:13:35.84	7.54	22.64	-59.8	-77.6	3.6	1.51e+00	0	46	104	225443840	60	298600
2026-01-29 05:13:36.85	7.27	22.61	-61.6	-78.1	3.5	1.51e+00	0	46	104	225443840	60	314918
2026-01-29 05:13:37.85	7.01	22.58	-60.5	-77.8	3.6	1.51e+00	0	46	104	225443840	60	305811
2026-01-29 05:13:38.86	6.74	22.55	-59.5	-76.8	3.6	1.51e+00	0	46	104	225443840	60	270050
2026-01-29 05:13:39.87	6.47	22.52	-60.9	-78.0	3.6	1.51e+00	0	46	104	225443840	60	310952
2026-01-29 05:13:40.88	6.21	22.49	-59.4	-77.3	3.6	1.51e+00	0	46	104	225443840	60	286915
2026-01-29 05:13:41.88	5.94	22.46	-59.0	-76.9	3.6	1.51e+00	0	46	104	225443840	60	273718
2026-01-29 05:13:42.88	5.68	22.43	-59.5	-77.3	3.6	1.51e+00	0	46	104	225443840	60	287571
2026-01-29 05:13:43.89	5.41	22.40	-60.8	-77.6	3.6	1.51e+00	0	46	104	225443840	60	297244
2026-01-29 05:13:44.90	5.15	22.36	-61.3	-77.7	3.6	1.51e+00	0	46	104	225443840	60	302306
2026-01-29 05:13:45.90	4.89	22.33	-59.5	-77.5	3.6	1.51e+00	0	46	104	225443840	60	295114
2026-01-29 05:13:46.91	4.62	22.30	-61.2	-77.4	3.6	1.51e+00	0	46	104	225443840	60	292046
2026-01-29 05:13:47.90	4.37	22.26	-60.3	-77.8	3.6	1.51e+00	0	46	104	225443840	60	303040
2026-01-29 05:13:48.91	4.10	22.23	-61.7	-78.1	3.6	1.51e+00	0	46	104	225443840	60	313625
2026-01-29 05:13:49.91	3.85	22.19	-61.0	-77.7	3.6	1.51e+00	0	46	104	225443840	60	301957
2026-01-29 05:13:50.92	3.58	22.16	-60.5	-77.8	3.6	1.51e+00	0	46	104	225443840	60	304353
2026-01-29 05:13:51.92	3.33	22.12	-60.2	-77.7	3.6	1.51e+00	0	46	104	225443840	60	299982
2026-01-29 05:13:52.92	3.07	22.08	-60.6	-77.9	3.6	1.51e+00	0	46	104	225443840	60	307026
2026-01-29 05:13:53.93	2.81	22.04	-61.6	-77.9	3.6	1.51e+00	0	46	104	225443840	60	309325
2026-01-29 05:13:54.93	2.55	22.01	-59.3	-77.8	3.6	1.51e+00	0	46	104	225443840	60	304771
2026-01-29 05:13:55.94	2.30	21.97	-60.7	-77.9	3.6	1.51e+00	0	46	104	225443840	60	307865
2026-01-29 05:13:56.94	2.04	21.93	-61.6	-78.1	3.6	1.51e+00	0	46	104	225443840	60	313368
2026-01-29 05:13:57.93	1.79	21.89	-60.4	-77.9	3.6	1.51e+00	0	46	104	225443840	60	307851
2026-01-29 05:13:58.94	1.53	21.85	-59.7	-77.7	3.6	1.51e+00	0	46	104	225443840	60	299008
2026-01-29 05:13:59.95	1.28	21.81	-59.4	-77.7	3.5	1.51e+00	0	46	104	225443840	60	299492
2026-01-29 05:14:00.95	1.03	21.77	-60.7	-77.7	3.6	1.51e+00	0	46	104	225443840	60	300241
2026-01-29 05:14:01.95	0.78	21.72	-60.9	-77.9	3.6	1.51e+00	0	46	104	225443840	60	306717
2026-01-29 05:14:02.96	0.52	21.68	-59.5	-77.4	3.6	1.51e+00	0	46	104	225443840	60	290879
2026-01-29 05:14:03.96	0.27	21.64	-59.6	-77.6	3.6	1.51e+00	0	46	104	225443840	60	296467
2026-01-29 05:14:04.96	0.02	21.59	-60.8	-77.8	3.6	1.51e+00	0	46	104	225443840	60	303256
2026-01-29 05:14:05.98	359.77	21.55	-61.0	-77.9	3.6	1.51e+00	0	46	104	225443840	60	306570
2026-01-29 05:14:06.98	359.52	21.50	-59.9	-77.5	3.6	1.51e+00	0	46	104	225443840	60	293398
2026-01-29 05:14:07.99	359.27	21.46	-60.2	-77.4	3.6	1.51e+00	0	46	104	225443840	60	291916
2026-01-29 05:14:08.99	359.03	21.41	-60.4	-77.6	3.6	1.51e+00	0	46	104	225443840	60	298702
2026-01-29 05:14:10.00	358.78	21.37	-60.8	-77.2	3.6	1.51e+00	0	46	104	225443840	60	284287
2026-01-29 05:14:11.01	358.53	21.32	-59.6	-77.5	3.5	1.51e+00	0	46	104	225443840	60	292320
2026-01-29 05:14:12.01	358.29	21.27	-60.0	-77.4	3.6	1.51e+00	0	46	104	225443840	60	291178
2026-01-29 05:14:13.01	358.04	21.23	-61.1	-77.7	3.6	1.51e+00	0	46	104	225443840	60	301888
2026-01-29 05:14:14.02	357.80	21.18	-60.0	-77.5	3.6	1.51e+00	0	46	104	225443840	60	294966
2026-01-29 05:14:15.02	357.56	21.13	-61.0	-77.7	3.6	1.51e+00	0	46	104	225443840	60	299309
2026-01-29 05:14:16.02	357.32	21.08	-61.0	-77.8	3.5	1.51e+00	0	46	104	225443840	60	304959
2026-01-29 05:14:17.03	357.07	21.03	-61.2	-77.7	3.6	1.51e+00	0	46	104	225443840	60	302325
2026-01-29 05:14:18.03	356.83	20.98	-60.7	-77.7	3.6	1.51e+00	0	46	104	225443840	60	299653
2026-01-29 05:14:19.03	356.59	20.93	-61.2	-77.8	3.6	1.51e+00	0	46	104	225443840	60	305049
2026-01-29 05:14:20.04	356.35	20.88	-60.2	-77.7	3.6	1.51e+00	0	46	104	225443840	60	301244
2026-01-29 05:14:21.05	356.12	20.83	-61.2	-77.8	3.6	1.51e+00	0	46	104	225443840	60	302568
2026-01-29 05:14:22.05	355.88	20.78	-61.4	-77.9	3.6	1.51e+00	0	46	104	225443840	60	305951
2026-01-29 05:14:23.06	355.64	20.72	-60.2	-78.0	3.6	1.51e+00	0	46	104	225443840	60	312122
2026-01-29 05:14:24.07	355.40	20.67	-60.1	-77.7	3.6	1.51e+00	0	46	104	225443840	60	298951
2026-01-29 05:14:25.08	355.17	20.62	-61.5	-77.9	3.6	1.51e+00	0	46	104	225443840	60	306385
2026-01-29 05:14:26.08	354.93	20.57	-61.1	-77.6	3.6	1.51e+00	0	46	104	225443840	60	296869
2026-01-29 05:14:27.09	354.70	20.51	-59.3	-77.8	3.6	1.51e+00	0	46	104	225443840	60	303534
2026-01-29 05:14:28.10	354.47	20.46	-60.3	-77.4	3.6	1.51e+00	0	46	104	225443840	60	289337
2026-01-29 05:14:29.11	354.23	20.40	-60.7	-77.2	3.6	1.51e+00	0	46	104	225443840	60	284321
2026-01-29 05:14:30.12	354.00	20.35	-60.5	-77.3	3.6	1.51e+00	0	46	104	225443840	60	286810
2026-01-29 05:14:31.13	353.77	20.29	-60.5	-77.3	3.6	1.51e+00	0	46	104	225443840	60	286863
2026-01-29 05:14:32.13	353.54	20.24	-60.7	-77.4	3.6	1.51e+00	0	46	104	225443840	60	292002
2026-01-29 05:14:33.14	353.31	20.18	-60.6	-77.6	3.6	1.51e+00	0	46	104	225443840	60	295749
2026-01-29 05:14:34.14	353.09	20.13	-60.9	-77.3	3.6	1.51e+00	0	46	104	225443840	60	286556
2026-01-29 05:14:35.15	352.86	20.07	-61.5	-77.9	3.6	1.51e+00	0	46	104	225443840	60	306325
2026-01-29 05:14:36.15	352.63	20.01	-61.0	-77.9	3.6	1.51e+00	0	46	104	225443840	60	306581
2026-01-29 05:14:37.16	352.41	19.95	-60.7	-77.8	3.6	1.51e+00	0	46	104	225443840	60	304218
2026-01-29 05:14:38.16	352.18	19.90	-60.8	-77.6	3.6	1.51e+00	0	46	104	225443840	60	298312
2026-01-29 05:14:39.17	351.96	19.84	-60.7	-77.8	3.6	1.51e+00	0	46	104	225443840	60	305335
2026-01-29 05:14:40.18	351.74	19.78	-61.0	-77.8	3.6	1.51e+00	0	46	104	225443840	60	304494
2026-01-29 05:14:41.18	351.52	19.72	-60.4	-77.6	3.6	1.51e+00	0	46	104	225443840	60	298812
2026-01-29 05:14:42.19	351.29	19.66	-61.0	-77.6	3.6	1.51e+00	0	46	104	225443840	60	296137
2026-01-29 05:14:43.20	351.07	19.60	-61.3	-77.8	3.6	1.51e+00	0	46	104	225443840	60	304985
2026-01-29 05:14:44.21	350.85	19.54	-60.9	-77.8	3.6	1.51e+00	0	46	104	225443840	60	305790
2026-01-29 05:14:45.22	350.63	19.48	-60.4	-77.6	3.6	1.51e+00	0	46	104	225443840	60	298689
2026-01-29 05:14:46.22	350.42	19.42	-61.1	-77.7	3.6	1.51e+00	0	46	104	225443840	60	300277
2026-01-29 05:14:47.23	350.20	19.36	-61.4	-77.9	3.6	1.51e+00	0	46	104	225443840	60	306021
2026-01-29 05:14:48.23	349.99	19.30	-60.9	-77.8	3.6	1.51e+00	0	46	104	225443840	60	304318
2026-01-29 05:14:49.24	349.77	19.24	-60.9	-77.7	3.5	1.51e+00	0	46	104	225443840	60	300465
2026-01-29 05:14:50.25	349.56	19.18	-61.1	-77.7	3.6	1.51e+00	0	46	104	225443840	60	300904
2026-01-29 05:14:51.26	349.34	19.12	-60.9	-77.8	3.6	1.51e+00	0	46	104	225443840	60	304265
2026-01-29 05:14:52.26	349.13	19.06	-61.3	-77.8	3.6	1.51e+00	0	46	104	225443840	60	305695
2026-01-29 05:14:53.26	348.92	19.00	-61.3	-77.7	3.6	1.51e+00	0	46	104	225443840	60	302069
2026-01-29 05:14:54.27	348.71	18.93	-61.3	-77.7	3.6	1.51e+00	0	46	104	225443840	60	300666
2026-01-29 05:14:55.28	348.50	18.87	-60.9	-77.8	3.6	1.51e+00	0	46	104	225443840	60	303859
2026-01-29 05:14:56.29	348.29	18.81	-61.4	-77.9	3.6	1.51e+00	0	46	104	225443840	60	306420
2026-01-29 05:14:57.30	348.08	18.74	-61.3	-77.9	3.6	1.51e+00	0	46	104	225443840	60	308420
2026-01-29 05:14:58.31	347.87	18.68	-61.1	-77.7	3.6	1.51e+00	0	46	104	225443840	60	299026
2026-01-29 05:14:59.31	347.67	18.62	-60.9	-77.5	3.6	1.51e+00	0	46	104	225443840	60	295265
2026-01-29 05:15:00.32	347.46	18.55	-60.8	-77.8	3.6	1.51e+00	0	46	104	225443840	60	304096
2026-01-29 05:15:01.32	347.26	18.49	-60.8	-77.8	3.6	1.51e+00	0	46	104	225443840	60	302951
2026-01-29 05:15:02.33	347.05	18.43	-60.6	-77.5	3.6	1.51e+00	0	46	104	225443840	60	294549
2026-01-29 05:15:03.33	346.85	18.36	-61.3	-77.7	3.6	1.51e+00	0	46	104	225443840	60	299709
2026-01-29 05:15:04.34	346.65	18.30	-60.9	-77.7	3.6	1.51e+00	0	46	104	225443840	60	300554
2026-01-29 05:15:05.35	346.45	18.23	-59.7	-77.6	3.6	1.51e+00	0	46	104	225443840	60	298441
2026-01-29 05:15:06.36	346.25	18.17	-58.9	-77.1	3.6	1.51e+00	0	46	104	225443840	60	281828
2026-01-29 05:15:07.37	346.05	18.10	-61.0	-77.5	3.6	1.51e+00	0	46	104	225443840	60	295162
2026-01-29 05:15:08.37	345.85	18.04	-61.0	-77.6	3.6	1.51e+00	0	46	104	225443840	60	295552
2026-01-29 05:15:09.37	345.65	17.97	-60.6	-77.7	3.6	1.51e+00	0	46	104	225443840	60	302172
2026-01-29 05:15:10.38	345.46	17.91	-60.4	-77.5	3.6	1.51e+00	0	46	104	225443840	60	294482
2026-01-29 05:15:11.39	345.26	17.84	-60.4	-77.5	3.6	1.51e+00	0	46	104	225443840	60	293582
2026-01-29 05:15:12.40	345.07	17.77	-61.3	-77.6	3.6	1.51e+00	0	46	104	225443840	60	298890
2026-01-29 05:15:13.41	344.87	17.71	-61.1	-77.6	3.6	1.51e+00	0	46	104	225443840	60	298333
2026-01-29 05:15:14.41	344.68	17.64	-60.8	-77.5	3.6	1.51e+00	0	46	104	225443840	60	292822
2026-01-29 05:15:15.42	344.49	17.57	-60.7	-77.6	3.6	1.51e+00	0	46	104	225443840	60	295640
2026-01-29 05:15:16.42	344.30	17.51	-60.7	-77.5	3.6	1.51e+00	0	46	104	225443840	60	294426
2026-01-29 05:15:17.42	344.11	17.44	-61.0	-77.7	3.6	1.51e+00	0	46	104	225443840	60	300000
2026-01-29 05:15:18.43	343.92	17.37	-59.8	-77.4	3.6	1.51e+00	0	46	104	225443840	60	289284
2026-01-29 05:15:19.44	343.73	17.31	-60.5	-77.6	3.6	1.51e+00	0	46	104	225443840	60	295877
2026-01-29 05:15:20.45	343.54	17.24	-60.5	-77.6	3.6	1.51e+00	0	46	104	225443840	60	296973
2026-01-29 05:15:21.45	343.35	17.17	-61.2	-77.7	3.6	1.51e+00	0	46	104	225443840	60	299410
2026-01-29 05:15:22.46	343.16	17.11	-59.9	-77.3	3.6	1.51e+00	0	46	104	225443840	60	287469
2026-01-29 05:15:23.46	342.98	17.04	-59.4	-77.2	3.6	1.51e+00	0	46	104	225443840	60	283390
2026-01-29 05:15:24.47	342.79	16.97	-60.7	-77.5	3.6	1.51e+00	0	46	104	225443840	60	294355
2026-01-29 05:15:25.47	342.61	16.90	-60.3	-77.4	3.6	1.51e+00	0	46	104	225443840	60	290369
2026-01-29 05:15:26.48	342.43	16.83	-59.8	-77.0	3.6	1.51e+00	0	46	104	225443840	60	278733
2026-01-29 05:15:27.49	342.25	16.77	-59.5	-77.3	3.6	1.51e+00	0	46	104	225443840	60	286408
2026-01-29 05:15:28.49	342.07	16.70	-59.9	-77.3	3.6	1.51e+00	0	46	104	225443840	60	286943
2026-01-29 05:15:29.50	341.88	16.63	-60.2	-77.3	3.6	1.51e+00	0	46	104	225443840	60	286751
2026-01-29 05:15:30.51	341.70	16.56	-60.5	-77.2	3.6	1.51e+00	0	46	104	225443840	60	284006
2026-01-29 05:15:31.51	341.53	16.49	-60.5	-77.3	3.6	1.51e+00	0	46	104	225443840	60	287140
2026-01-29 05:15:32.52	341.35	16.42	-59.7	-77.2	3.6	1.51e+00	0	46	104	225443840	60	285263
2026-01-29 05:15:33.53	341.17	16.36	-60.3	-77.2	3.6	1.51e+00	0	46	104	225443840	60	282221
2026-01-29 05:15:34.54	340.99	16.29	-61.0	-77.3	3.6	1.51e+00	0	46	104	225443840	60	287622
2026-01-29 05:15:35.54	340.82	16.22	-60.6	-77.4	3.6	1.51e+00	0	46	104	225443840	60	289772
2026-01-29 05:15:36.55	340.64	16.15	-60.3	-77.3	3.6	1.51e+00	0	46	104	225443840	60	287073
2026-01-29 05:15:37.56	340.47	16.08	-60.3	-77.0	3.6	1.51e+00	0	46	104	225443840	60	278926
2026-01-29 05:15:38.57	340.29	16.01	-60.8	-77.3	3.6	1.51e+00	0	46	104	225443840	60	286237
2026-01-29 05:15:39.57	340.12	15.94	-60.8	-77.3	3.6	1.51e+00	0	46	104	225443840	60	287885
2026-01-29 05:15:40.58	339.95	15.87	-60.3	-77.3	3.6	1.51e+00	0	46	104	225443840	60	286803
2026-01-29 05:15:41.59	339.78	15.80	-60.9	-77.4	3.6	1.51e+00	0	46	104	225443840	60	291417
2026-01-29 05:15:42.59	339.61	15.73	-60.8	-77.1	3.6	1.51e+00	0	46	104	225443840	60	281718
2026-01-29 05:15:43.60	339.44	15.66	-60.6	-77.3	3.6	1.51e+00	0	46	104	225443840	60	285546
2026-01-29 05:15:44.60	339.27	15.60	-60.7	-77.3	3.6	1.51e+00	0	46	104	225443840	60	288728
2026-01-29 05:15:45.61	339.11	15.53	-60.4	-77.2	3.6	1.51e+00	0	46	104	225443840	60	284856
2026-01-29 05:15:46.62	338.94	15.46	-60.5	-77.0	3.6	1.51e+00	0	46	104	225443840	60	277606
2026-01-29 05:15:47.62	338.77	15.39	-60.6	-77.1	3.5	1.51e+00	0	46	104	225443840	60	280194
2026-01-29 05:15:48.63	338.61	15.32	-60.5	-77.2	3.6	1.51e+00	0	46	104	225443840	60	285101
2026-01-29 05:15:49.64	338.44	15.25	-60.4	-77.1	3.6	1.51e+00	0	46	104	225443840	60	280702
2026-01-29 05:15:50.65	338.28	15.18	-60.6	-77.0	3.6	1.51e+00	0	46	104	225443840	60	278673
2026-01-29 05:15:51.66	338.12	15.11	-60.7	-77.0	3.6	1.51e+00	0	46	104	225443840	60	278157
2026-01-29 05:15:52.67	337.95	15.04	-60.2	-77.3	3.6	1.51e+00	0	46	104	225443840	60	285865
2026-01-29 05:15:53.67	337.79	14.97	-60.7	-77.1	3.6	1.51e+00	0	46	104	225443840	60	281005
2026-01-29 05:15:54.68	337.63	14.90	-60.5	-77.1	3.6	1.51e+00	0	46	104	225443840	60	279957
2026-01-29 05:15:55.68	337.47	14.83	-60.8	-77.0	3.6	1.51e+00	0	46	104	225443840	60	276003
2026-01-29 05:15:56.69	337.31	14.76	-60.3	-77.2	3.6	1.51e+00	0	46	104	225443840	60	283147
2026-01-29 05:15:57.70	337.16	14.69	-60.6	-77.1	3.6	1.51e+00	0	46	104	225443840	60	281255
2026-01-29 05:15:58.70	337.00	14.62	-60.6	-77.1	3.6	1.51e+00	0	46	104	225443840	60	279912
2026-01-29 05:15:59.71	336.84	14.55	-60.7	-77.0	3.6	1.51e+00	0	46	104	225443840	60	278844
2026-01-29 05:16:00.72	336.69	14.48	-60.3	-77.3	3.6	1.51e+00	0	46	104	225443840	60	285993
2026-01-29 05:16:01.73	336.53	14.41	-60.6	-77.1	3.6	1.51e+00	0	46	104	225443840	60	279214
2026-01-29 05:16:02.73	336.38	14.34	-60.0	-76.7	3.6	1.51e+00	0	46	104	225443840	60	267995
2026-01-29 05:16:03.74	336.22	14.27	-60.7	-77.2	3.6	1.51e+00	0	46	104	225443840	60	282688
2026-01-29 05:16:04.75	336.07	14.20	-60.8	-77.2	3.6	1.51e+00	0	46	104	225443840	60	283957
2026-01-29 05:16:05.76	335.92	14.13	-60.6	-76.9	3.6	1.51e+00	0	46	104	225443840	60	274339
2026-01-29 05:16:06.77	335.76	14.06	-58.4	-76.0	3.6	1.51e+00	0	46	104	225443840	60	248539
2026-01-29 05:16:07.77	335.61	13.99	-58.3	-76.0	3.6	1.51e+00	0	46	104	225443840	60	247169
2026-01-29 05:16:08.78	335.46	13.92	-58.2	-75.8	3.6	1.51e+00	0	46	104	225443840	60	241080
2026-01-29 05:16:09.79	335.31	13.85	-58.3	-76.0	3.6	1.51e+00	0	46	104	225443840	60	247917
2026-01-29 05:16:10.80	335.17	13.78	-59.9	-76.2	3.6	1.51e+00	0	46	104	225443840	60	252530
2026-01-29 05:16:11.80	335.02	13.71	-60.5	-77.0	3.5	1.51e+00	0	46	104	225443840	60	276360
2026-01-29 05:16:12.80	334.87	13.64	-59.1	-77.1	3.6	1.51e+00	0	46	104	225443840	60	280759
2026-01-29 05:16:13.81	334.73	13.57	-60.0	-76.3	3.6	1.51e+00	0	46	104	225443840	60	256418
2026-01-29 05:16:14.82	334.58	13.50	-59.1	-76.4	3.6	1.51e+00	0	46	104	225443840	60	257753
2026-01-29 05:16:15.83	334.43	13.43	-59.6	-76.3	3.6	1.51e+00	0	46	104	225443840	60	256422
2026-01-29 05:16:16.84	334.29	13.36	-59.7	-76.4	3.6	1.51e+00	0	46	104	225443840	60	257725
2026-01-29 05:16:17.84	334.15	13.29	-59.1	-76.3	3.6	1.51e+00	0	46	104	225443840	60	255809
2026-01-29 05:16:18.85	334.00	13.22	-60.0	-76.4	3.6	1.51e+00	0	46	104	225443840	60	257733
2026-01-29 05:16:19.86	333.86	13.15	-60.1	-76.4	3.6	1.51e+00	0	46	104	225443840	60	259169
2026-01-29 05:16:20.87	333.72	13.08	-59.9	-77.1	3.6	1.51e+00	0	46	104	225443840	60	279382
2026-01-29 05:16:21.88	333.58	13.01	-59.7	-76.4	3.6	1.51e+00	0	46	104	225443840	60	257606
2026-01-29 05:16:22.89	333.44	12.94	-59.4	-76.3	3.6	1.51e+00	0	46	104	225443840	60	254904
2026-01-29 05:16:23.89	333.30	12.87	-59.3	-76.2	3.6	1.51e+00	0	46	104	225443840	60	253954
2026-01-29 05:16:24.90	333.16	12.80	-59.1	-76.2	3.6	1.51e+00	0	46	104	225443840	60	253894
2026-01-29 05:16:25.90	333.02	12.73	-59.4	-75.9	3.6	1.51e+00	0	46	104	225443840	60	245414
2026-01-29 05:16:26.90	332.88	12.66	-60.2	-76.6	3.6	1.51e+00	0	46	104	225443840	60	265076
2026-01-29 05:16:27.91	332.75	12.59	-59.1	-76.3	3.6	1.51e+00	0	46	104	225443840	60	256148
2026-01-29 05:16:28.91	332.61	12.52	-59.4	-76.4	3.6	1.51e+00	0	46	104	225443840	60	258630
2026-01-29 05:16:29.92	332.48	12.45	-60.3	-76.8	3.6	1.51e+00	0	46	104	225443840	60	270149
2026-01-29 05:16:30.92	332.34	12.38	-60.2	-76.8	3.6	1.51e+00	0	46	104	225443840	60	270388
2026-01-29 05:16:31.93	332.21	12.31	-59.3	-76.2	3.6	1.51e+00	0	46	104	225443840	60	252548
2026-01-29 05:16:32.93	332.07	12.24	-58.9	-76.0	3.6	1.51e+00	0	46	104	225443840	60	247590
2026-01-29 05:16:33.94	331.94	12.17	-59.4	-76.3	3.6	1.51e+00	0	46	104	225443840	60	257158
2026-01-29 05:16:34.95	331.81	12.10	-59.3	-76.3	3.6	1.51e+00	0	46	104	225443840	60	257223
2026-01-29 05:16:35.96	331.68	12.03	-59.1	-76.1	3.5	1.51e+00	0	46	104	225443840	60	250035
2026-01-29 05:16:36.97	331.54	11.97	-59.0	-76.1	3.6	1.51e+00	0	46	104	225443840	60	249234
2026-01-29 05:16:37.97	331.42	11.90	-58.1	-75.6	3.6	1.51e+00	0	46	104	225443840	60	236490
2026-01-29 05:16:38.98	331.28	11.83	-60.0	-77.0	3.6	1.51e+00	0	46	104	225443840	60	275983
2026-01-29 05:16:39.99	331.16	11.76	-58.6	-75.8	3.6	1.51e+00	0	46	104	225443840	60	241424
2026-01-29 05:16:41.00	331.03	11.69	-57.9	-75.6	3.6	1.51e+00	0	46	104	225443840	60	235719
2026-01-29 05:16:42.01	330.90	11.62	-59.0	-76.1	3.6	1.51e+00	0	46	104	225443840	60	248640
2026-01-29 05:16:43.01	330.77	11.55	-58.2	-75.7	3.6	1.51e+00	0	46	104	225443840	60	239660
2026-01-29 05:16:44.02	330.64	11.48	-57.9	-75.6	3.6	1.51e+00	0	46	104	225443840	60	236074
2026-01-29 05:16:45.03	330.52	11.41	-58.1	-75.5	3.6	1.51e+00	0	46	104	225443840	60	233483
2026-01-29 05:16:46.04	330.39	11.34	-57.2	-75.2	3.6	1.51e+00	0	46	104	225443840	60	225378
2026-01-29 05:16:47.04	330.27	11.28	-59.7	-76.6	3.6	1.51e+00	0	46	104	225443840	60	263976
2026-01-29 05:16:48.05	330.14	11.21	-57.8	-75.5	3.6	1.51e+00	0	46	104	225443840	60	232335
2026-01-29 05:16:49.06	330.02	11.14	-57.5	-75.2	3.6	1.51e+00	0	46	104	225443840	60	225657
2026-01-29 05:16:50.07	329.90	11.07	-58.0	-75.7	3.6	1.51e+00	0	46	104	225443840	60	238208
2026-01-29 05:16:51.08	329.77	11.00	-57.8	-75.4	3.6	1.51e+00	0	46	104	225443840	60	231322
2026-01-29 05:16:52.09	329.65	10.93	-57.7	-75.2	3.6	1.51e+00	0	46	104	225443840	60	225443
2026-01-29 05:16:53.09	329.53	10.86	-57.7	-75.1	3.6	1.51e+00	0	46	104	225443840	60	223792
2026-01-29 05:16:54.10	329.41	10.79	-57.6	-75.5	3.6	1.51e+00	0	46	104	225443840	60	232559
2026-01-29 05:16:55.11	329.29	10.73	-59.5	-76.2	3.6	1.51e+00	0	46	104	225443840	60	252241
2026-01-29 05:16:56.11	329.17	10.66	-59.0	-75.8	3.6	1.51e+00	0	46	104	225443840	60	241183
2026-01-29 05:16:57.12	329.05	10.59	-59.7	-76.6	3.6	1.51e+00	0	46	104	225443840	60	263411
2026-01-29 05:16:58.12	328.93	10.52	-56.8	-75.5	3.6	1.51e+00	0	46	104	225443840	60	232547
2026-01-29 05:16:59.13	328.81	10.45	-57.4	-75.4	3.6	1.51e+00	0	46	104	225443840	60	231756
2026-01-29 05:17:00.13	328.70	10.39	-56.8	-75.3	3.6	1.51e+00	0	46	104	225443840	60	226977
2026-01-29 05:17:01.14	328.58	10.32	-56.7	-75.2	3.6	1.51e+00	0	46	104	225443840	60	225055
2026-01-29 05:17:02.15	328.46	10.25	-59.6	-76.3	3.6	1.51e+00	0	46	104	225443840	60	255999
2026-01-29 05:17:03.15	328.35	10.18	-59.5	-76.6	3.6	1.51e+00	0	46	104	225443840	60	263834
2026-01-29 05:17:04.16	328.23	10.12	-55.3	-74.7	3.6	1.51e+00	0	46	104	225443840	60	213331
2026-01-29 05:17:05.17	328.12	10.05	-54.1	-74.3	3.6	1.51e+00	0	46	104	225443840	60	203447
2026-01-29 05:17:06.17	328.01	9.98	-57.1	-75.4	3.6	1.51e+00	0	46	104	225443840	60	229648
2026-01-29 05:17:07.18	327.89	9.91	-54.9	-74.6	3.6	1.51e+00	0	46	104	225443840	60	211047
2026-01-29 05:17:08.18	327.78	9.85	-54.5	-74.2	3.6	1.51e+00	0	46	104	225443840	60	200667
2026-01-29 05:17:09.19	327.67	9.78	-54.3	-74.2	3.6	1.51e+00	0	46	104	225443840	60	200081
2026-01-29 05:17:10.19	327.56	9.71	-57.9	-75.6	3.6	1.51e+00	0	46	104	225443840	60	237161
2026-01-29 05:17:11.20	327.44	9.64	-58.9	-76.2	3.6	1.51e+00	0	46	104	225443840	60	251699
2026-01-29 05:17:12.21	327.33	9.58	-53.8	-74.0	3.6	1.51e+00	0	46	104	225443840	60	195988
2026-01-29 05:17:13.22	327.22	9.51	-54.1	-73.9	3.6	1.51e+00	0	46	104	225443840	60	193480
2026-01-29 05:17:14.22	327.11	9.44	-54.4	-74.2	3.6	1.51e+00	0	46	104	225443840	60	200544
2026-01-29 05:17:15.23	327.00	9.38	-53.8	-74.2	3.6	1.51e+00	0	46	104	225443840	60	200565
2026-01-29 05:17:16.24	326.89	9.31	-53.7	-74.1	3.6	1.51e+00	0	46	104	225443840	60	199284
2026-01-29 05:17:17.24	326.79	9.24	-53.8	-73.8	3.6	1.51e+00	0	46	104	225443840	60	191645
2026-01-29 05:17:18.25	326.68	9.18	-55.6	-74.5	3.6	1.51e+00	0	46	104	225443840	60	209098
2026-01-29 05:17:19.26	326.57	9.11	-56.7	-75.8	3.6	1.51e+00	0	46	104	225443840	60	240740
2026-01-29 05:17:20.27	326.46	9.04	-54.6	-74.1	3.6	1.51e+00	0	46	104	225443840	60	198613
2026-01-29 05:17:21.28	326.36	8.98	-56.4	-74.8	3.6	1.51e+00	0	46	104	225443840	60	215103
2026-01-29 05:17:22.29	326.25	8.91	-53.8	-73.9	3.5	1.51e+00	0	46	104	225443840	60	194477
2026-01-29 05:17:23.29	326.15	8.84	-53.9	-74.1	3.6	1.51e+00	0	46	104	225443840	60	199554
2026-01-29 05:17:24.30	326.04	8.78	-54.1	-74.1	3.6	1.51e+00	0	46	104	225443840	60	198595
2026-01-29 05:17:25.30	325.94	8.71	-54.1	-74.3	3.6	1.51e+00	0	46	104	225443840	60	202932
2026-01-29 05:17:26.31	325.83	8.65	-56.7	-74.9	3.6	1.51e+00	0	46	104	225443840	60	216911
2026-01-29 05:17:27.32	325.73	8.58	-55.5	-75.4	3.6	1.51e+00	0	46	104	225443840	60	230676
2026-01-29 05:17:28.33	325.63	8.51	-57.0	-74.6	3.6	1.51e+00	0	46	104	225443840	60	211250
2026-01-29 05:17:29.33	325.53	8.45	-57.9	-75.1	3.6	1.51e+00	0	46	104	225443840	60	223001
2026-01-29 05:17:30.34	325.42	8.38	-54.9	-74.4	3.6	1.51e+00	0	46	104	225443840	60	204919
2026-01-29 05:17:31.34	325.32	8.32	-55.4	-74.2	3.6	1.51e+00	0	46	104	225443840	60	201561
