passes_logs/2026/01/29/R3.2S-Naryan-Mar/R3.2S-Naryan-Mar__20260129_204838_NOAA_20_JPSS-1_rec.log

#Pass ID: 20260129_204838_NOAA 20 (JPSS-1)
#Satellite: NOAA 20 (JPSS-1)
#Configuration: NOAA 20
#almurnet v.1.7.20240730
#Start time: 2026-01-29 20:48:38

#Version: 2.2.20231116
#Station: R3.2S-Naryan-Mar
#Location: 53.008057 lon 67.646978 lat
#TLE: 1 43013U 17073A   26028.86313978  .00000144  00000+0  89200-4 0  9993
#TLE: 2 43013  98.7648 329.6571 0000891  20.0014 340.1197 14.19541559424709

#Time	Az	El	Level	Level2	SNR	BER	BlckErr	Temp	State	Recorded	gain1	gain2
2026-01-29 20:48:38.67	16.81	0.01	-60.3	-78.7	3.5	1.51e+00	0	43	0	0	60	335696
2026-01-29 20:48:39.68	16.87	0.07	-60.2	-78.6	3.6	1.51e+00	0	45	104	0	60	334397
2026-01-29 20:48:40.68	16.94	0.12	-59.4	-78.1	3.6	1.51e+00	0	45	104	0	60	314266
2026-01-29 20:48:41.69	17.01	0.17	-60.6	-78.8	3.6	1.51e+00	0	45	104	0	60	340007
2026-01-29 20:48:42.70	17.08	0.22	-61.9	-79.4	3.6	1.51e+00	0	45	104	0	60	367274
2026-01-29 20:48:43.71	17.15	0.27	-61.3	-79.3	3.6	1.51e+00	0	45	104	0	60	359556
2026-01-29 20:48:44.72	17.22	0.32	-62.8	-79.4	3.6	1.51e+00	0	45	104	0	60	366120
2026-01-29 20:48:45.73	17.29	0.37	-60.9	-78.9	3.6	1.51e+00	0	45	104	0	60	345158
2026-01-29 20:48:46.73	17.36	0.42	-61.8	-78.9	3.6	1.51e+00	0	45	104	0	60	346916
2026-01-29 20:48:47.74	17.43	0.48	-61.4	-78.9	3.6	1.51e+00	0	45	104	0	60	346864
2026-01-29 20:48:48.75	17.50	0.53	-62.1	-79.1	3.6	1.51e+00	0	45	104	0	60	351745
2026-01-29 20:48:49.76	17.57	0.58	-60.8	-78.7	3.6	1.51e+00	0	45	104	0	60	336894
2026-01-29 20:48:50.76	17.64	0.63	-61.8	-78.9	3.6	1.51e+00	0	45	104	0	60	344325
2026-01-29 20:48:51.77	17.71	0.68	-61.5	-79.0	3.6	1.51e+00	0	45	104	0	60	350707
2026-01-29 20:48:52.77	17.78	0.73	-61.1	-78.9	3.6	1.51e+00	0	45	104	0	60	344418
2026-01-29 20:48:53.78	17.85	0.78	-62.5	-79.0	3.6	1.51e+00	0	45	104	0	60	350855
2026-01-29 20:48:54.78	17.92	0.84	-60.3	-78.4	3.6	1.51e+00	0	45	104	0	60	324758
2026-01-29 20:48:55.79	17.99	0.89	-59.4	-77.7	3.6	1.51e+00	0	45	104	0	60	302000
2026-01-29 20:48:56.80	18.06	0.94	-61.6	-78.4	3.6	1.51e+00	0	45	104	0	60	325369
2026-01-29 20:48:57.80	18.13	0.99	-61.1	-78.1	3.6	1.51e+00	0	45	104	0	60	316348
2026-01-29 20:48:58.81	18.21	1.04	-60.5	-78.3	3.6	1.51e+00	0	45	104	0	60	323005
2026-01-29 20:48:59.82	18.28	1.10	-59.0	-77.1	3.6	1.51e+00	0	45	104	0	60	279941
2026-01-29 20:49:00.83	18.35	1.15	-60.1	-78.0	3.6	1.51e+00	0	45	104	0	60	311682
2026-01-29 20:49:01.84	18.43	1.20	-51.7	-75.4	3.6	1.51e+00	0	45	104	0	60	229747
2026-01-29 20:49:02.84	18.50	1.25	-50.1	-73.2	3.6	1.51e+00	0	45	104	0	60	178586
2026-01-29 20:49:03.85	18.57	1.31	-59.3	-76.2	3.6	1.51e+00	0	45	104	0	60	254098
2026-01-29 20:49:04.86	18.65	1.36	-56.0	-76.8	3.6	1.51e+00	0	45	104	0	60	272287
2026-01-29 20:49:05.87	18.72	1.41	-51.1	-72.5	3.6	1.51e+00	0	45	104	0	60	165708
2026-01-29 20:49:06.87	18.79	1.46	-58.2	-75.2	3.6	1.51e+00	0	45	104	0	60	226128
2026-01-29 20:49:07.88	18.87	1.52	-54.9	-75.5	3.6	1.51e+00	0	45	104	0	60	234111
2026-01-29 20:49:08.89	18.94	1.57	-55.0	-75.5	3.6	1.51e+00	0	45	104	0	60	234313
2026-01-29 20:49:09.90	19.02	1.62	-60.5	-77.6	3.6	1.51e+00	0	45	104	0	60	297223
2026-01-29 20:49:10.90	19.09	1.67	-58.1	-76.9	3.6	1.51e+00	0	45	104	0	60	275181
2026-01-29 20:49:11.91	19.17	1.73	-60.6	-77.4	3.6	1.51e+00	0	45	104	0	60	291014
2026-01-29 20:49:12.91	19.24	1.78	-57.9	-76.1	3.6	1.51e+00	0	45	104	0	60	249648
2026-01-29 20:49:13.92	19.32	1.83	-55.6	-76.3	3.6	1.51e+00	0	45	104	0	60	257039
2026-01-29 20:49:14.93	19.40	1.89	-49.5	-73.4	3.6	1.51e+00	0	45	104	0	60	183395
2026-01-29 20:49:15.94	19.47	1.94	-51.1	-72.1	3.6	1.51e+00	0	45	104	0	60	157020
2026-01-29 20:49:16.94	19.55	1.99	-51.2	-73.7	3.6	1.51e+00	0	45	104	0	60	189716
2026-01-29 20:49:17.95	19.62	2.05	-51.1	-73.6	3.5	1.51e+00	0	45	104	0	60	187101
2026-01-29 20:49:18.96	19.70	2.10	-50.9	-72.5	3.6	1.51e+00	0	45	104	0	60	164806
2026-01-29 20:49:19.97	19.78	2.15	-50.9	-72.4	3.6	1.51e+00	0	45	104	0	60	163695
2026-01-29 20:49:20.98	19.86	2.21	-50.9	-71.5	3.6	1.51e+00	0	45	104	0	60	147703
2026-01-29 20:49:21.99	19.94	2.26	-50.7	-73.1	3.6	1.51e+00	0	45	104	0	60	177636
2026-01-29 20:49:22.99	20.01	2.31	-50.8	-73.4	3.6	1.51e+00	0	45	104	0	60	182395
2026-01-29 20:49:24.00	20.09	2.37	-50.7	-73.4	3.5	1.51e+00	0	45	104	0	60	182698
2026-01-29 20:49:25.00	20.17	2.42	-50.7	-73.1	3.6	1.51e+00	0	45	104	0	60	176733
2026-01-29 20:49:26.01	20.25	2.47	-50.7	-73.3	3.6	1.51e+00	0	45	104	0	60	181741
2026-01-29 20:49:27.01	20.33	2.53	-50.7	-72.3	3.6	1.51e+00	0	45	104	0	60	161048
2026-01-29 20:49:28.02	20.41	2.58	-50.6	-72.2	3.6	1.51e+00	0	45	104	0	60	160103
2026-01-29 20:49:29.03	20.49	2.63	-50.7	-73.3	3.6	1.51e+00	0	45	104	0	60	181786
2026-01-29 20:49:30.03	20.57	2.69	-50.6	-73.2	3.5	1.51e+00	0	45	104	0	60	178219
2026-01-29 20:49:31.04	20.65	2.74	-50.6	-73.3	3.6	1.51e+00	0	45	104	0	60	180304
2026-01-29 20:49:32.05	20.73	2.80	-50.6	-73.3	3.6	1.51e+00	0	45	104	0	60	181629
2026-01-29 20:49:33.05	20.81	2.85	-50.5	-73.1	3.6	1.51e+00	0	45	104	0	60	177392
2026-01-29 20:49:34.06	20.89	2.90	-50.6	-73.2	3.6	1.51e+00	0	45	104	0	60	179963
2026-01-29 20:49:35.07	20.97	2.96	-50.7	-73.3	3.6	1.51e+00	0	45	104	0	60	181200
2026-01-29 20:49:36.07	21.05	3.01	-50.6	-72.1	3.6	1.51e+00	0	45	104	0	60	158495
2026-01-29 20:49:37.08	21.14	3.07	-50.5	-71.2	3.6	1.51e+00	0	45	104	0	60	142892
2026-01-29 20:49:38.09	21.22	3.12	-50.5	-73.1	3.6	1.51e+00	0	45	104	0	60	176417
2026-01-29 20:49:39.10	21.30	3.18	-50.5	-73.1	3.5	1.51e+00	0	45	104	0	60	177382
2026-01-29 20:49:40.10	21.38	3.23	-50.5	-73.1	3.6	1.51e+00	0	45	104	0	60	176657
2026-01-29 20:49:41.10	21.47	3.28	-50.4	-73.1	3.6	1.51e+00	0	45	104	0	60	176430
2026-01-29 20:49:42.11	21.55	3.34	-50.4	-73.0	3.6	1.51e+00	0	45	104	0	60	174540
2026-01-29 20:49:43.12	21.63	3.39	-50.4	-73.1	3.6	1.51e+00	0	45	104	0	60	176758
2026-01-29 20:49:44.12	21.72	3.45	-50.4	-73.1	3.6	1.51e+00	0	45	104	0	60	177530
2026-01-29 20:49:45.13	21.80	3.50	-50.4	-72.0	3.6	1.51e+00	0	45	104	0	60	155327
2026-01-29 20:49:46.13	21.89	3.56	-50.3	-73.0	3.6	1.51e+00	0	45	104	0	60	174485
2026-01-29 20:49:47.14	21.97	3.61	-50.4	-73.0	3.6	1.51e+00	0	45	104	0	60	175926
2026-01-29 20:49:48.15	22.06	3.67	-50.4	-73.1	3.6	1.51e+00	0	45	104	0	60	176848
2026-01-29 20:49:49.16	22.14	3.72	-50.4	-71.0	3.5	1.51e+00	0	45	104	0	60	139517
2026-01-29 20:49:50.16	22.23	3.78	-50.4	-72.9	3.6	1.51e+00	0	45	104	0	60	173788
2026-01-29 20:49:51.17	22.31	3.83	-50.4	-73.0	3.6	1.51e+00	0	45	104	0	60	175377
2026-01-29 20:49:52.18	22.40	3.89	-50.4	-71.0	3.6	1.51e+00	0	45	104	0	60	139473
2026-01-29 20:49:53.19	22.49	3.95	-50.4	-72.0	3.6	1.51e+00	0	45	104	0	60	155475
2026-01-29 20:49:54.19	22.57	4.00	-50.4	-72.9	3.6	1.51e+00	0	45	104	0	60	173559
2026-01-29 20:49:55.19	22.66	4.06	-50.6	-73.2	3.6	1.51e+00	0	45	104	0	60	179987
2026-01-29 20:49:56.20	22.75	4.11	-50.4	-73.1	3.6	1.51e+00	0	46	104	0	60	177298
2026-01-29 20:49:57.20	22.83	4.17	-50.3	-72.9	3.6	1.51e+00	0	46	104	0	60	173796
2026-01-29 20:49:58.21	22.92	4.22	-50.3	-73.0	3.6	1.51e+00	0	46	104	0	60	174492
2026-01-29 20:49:59.22	23.01	4.28	-50.3	-73.1	3.6	1.51e+00	0	45	104	0	60	176760
2026-01-29 20:50:00.22	23.10	4.33	-50.3	-72.9	3.6	1.51e+00	0	45	104	0	60	173249
2026-01-29 20:50:01.23	23.19	4.39	-50.3	-71.9	3.6	1.51e+00	0	45	104	0	60	155007
2026-01-29 20:50:02.24	23.28	4.45	-50.3	-72.0	3.6	1.51e+00	0	46	104	0	60	156257
2026-01-29 20:50:03.24	23.37	4.50	-50.4	-72.5	3.6	1.51e+00	0	45	104	0	60	165249
2026-01-29 20:50:04.25	23.46	4.56	-50.3	-72.9	3.6	1.51e+00	0	46	104	0	60	172409
2026-01-29 20:50:05.26	23.55	4.61	-50.3	-72.8	3.6	1.51e+00	0	46	104	0	60	170785
2026-01-29 20:50:06.26	23.64	4.67	-50.3	-73.0	3.6	1.51e+00	0	46	104	0	60	174788
2026-01-29 20:50:07.27	23.73	4.73	-50.1	-72.9	3.6	1.51e+00	0	45	104	0	60	173036
2026-01-29 20:50:08.28	23.82	4.78	-50.2	-73.0	3.6	1.51e+00	0	46	104	0	60	174133
2026-01-29 20:50:09.29	23.92	4.84	-50.3	-72.8	3.6	1.51e+00	0	46	104	0	60	171866
2026-01-29 20:50:10.29	24.01	4.89	-50.1	-71.9	3.6	1.51e+00	0	45	104	0	60	153420
2026-01-29 20:50:11.30	24.10	4.95	-50.3	-72.9	3.6	1.51e+00	0	46	104	0	60	173969
2026-01-29 20:50:12.31	24.19	5.01	-50.4	-72.8	3.6	1.51e+00	0	46	104	0	60	171902
2026-01-29 20:50:13.32	24.29	5.06	-50.4	-71.2	3.6	1.51e+00	0	46	104	0	60	141529
2026-01-29 20:50:14.33	24.38	5.12	-50.5	-73.1	3.6	1.51e+00	0	46	104	0	60	177577
2026-01-29 20:50:15.34	24.47	5.18	-50.5	-71.3	3.6	1.51e+00	0	46	104	0	60	144081
2026-01-29 20:50:16.34	24.57	5.23	-50.4	-71.1	3.6	1.51e+00	0	46	104	0	60	141417
2026-01-29 20:50:17.35	24.66	5.29	-50.4	-71.0	3.6	1.51e+00	0	46	104	0	60	139161
2026-01-29 20:50:18.35	24.76	5.35	-50.4	-71.8	3.6	1.51e+00	0	46	104	0	60	152914
2026-01-29 20:50:19.36	24.85	5.41	-50.3	-71.7	3.6	1.51e+00	0	46	104	0	60	150346
2026-01-29 20:50:20.37	24.95	5.46	-50.4	-70.8	3.6	1.51e+00	0	46	104	0	60	135465
2026-01-29 20:50:21.38	25.05	5.52	-50.4	-70.5	3.6	1.51e+00	0	46	104	0	60	131817
2026-01-29 20:50:22.39	25.14	5.58	-50.3	-69.9	3.6	1.51e+00	0	46	104	0	60	121956
2026-01-29 20:50:23.40	25.24	5.63	-50.3	-68.6	4.0	1.50e+00	0	46	104	0	60	105843
2026-01-29 20:50:24.41	25.34	5.69	-50.2	-65.4	5.1	7.19e-01	0	46	0	1048576	60	72599
2026-01-29 20:50:25.41	25.43	5.75	-50.4	-63.6	6.8	2.74e-01	0	46	0	3145728	60	59231
2026-01-29 20:50:26.42	25.53	5.81	-49.7	-61.9	8.2	9.52e-02	0	46	0	5242880	60	48805
2026-01-29 20:50:27.43	25.63	5.86	-49.6	-60.5	9.7	2.61e-02	0	46	0	6291456	60	41561
2026-01-29 20:50:28.44	25.73	5.92	-49.5	-59.5	10.8	3.66e-03	0	46	0	8388608	60	36847
2026-01-29 20:50:29.45	25.83	5.98	-49.4	-58.9	11.5	9.80e-04	0	46	0	10485760	60	34607
2026-01-29 20:50:30.45	25.93	6.04	-49.3	-58.8	11.5	4.84e-04	0	46	0	12582912	60	33978
2026-01-29 20:50:31.46	26.03	6.09	-47.6	-58.6	10.5	7.97e-04	0	46	0	13631488	60	33482
2026-01-29 20:50:32.46	26.12	6.15	-49.2	-59.9	11.3	2.56e-03	0	46	0	15728640	60	38603
2026-01-29 20:50:33.47	26.23	6.21	-50.6	-60.9	10.0	2.21e-03	0	46	0	17825792	60	43448
2026-01-29 20:50:34.48	26.33	6.27	-49.4	-62.3	7.3	7.54e-02	0	46	0	19922944	60	51018
2026-01-29 20:50:35.48	26.43	6.32	-54.3	-59.7	15.7	0.00e+00	0	46	0	22020096	60	37701
2026-01-29 20:50:36.49	26.53	6.38	-53.3	-58.7	16.2	0.00e+00	0	46	0	24117248	60	33921
2026-01-29 20:50:37.50	26.63	6.44	-54.8	-58.8	16.4	0.00e+00	0	46	0	25165824	60	33975
2026-01-29 20:50:38.50	26.73	6.50	-55.5	-58.6	16.7	0.00e+00	0	46	0	27262976	60	33348
2026-01-29 20:50:39.50	26.83	6.56	-55.5	-58.4	17.0	0.00e+00	0	46	0	29360128	60	32406
2026-01-29 20:50:40.50	26.94	6.61	-55.6	-58.3	17.1	0.00e+00	0	46	0	31457280	60	32239
2026-01-29 20:50:41.50	27.04	6.67	-55.5	-58.3	16.9	0.00e+00	0	46	0	33554432	60	32226
2026-01-29 20:50:42.51	27.14	6.73	-55.3	-58.3	16.5	0.00e+00	0	46	0	34603008	60	32300
2026-01-29 20:50:43.51	27.25	6.79	-54.5	-58.1	15.6	0.00e+00	0	46	0	36700160	60	31454
2026-01-29 20:50:44.52	27.35	6.85	-53.9	-58.1	15.0	0.00e+00	0	46	0	38797312	60	31445
2026-01-29 20:50:45.53	27.46	6.91	-52.9	-57.9	14.3	0.00e+00	0	46	0	40894464	60	30905
2026-01-29 20:50:46.53	27.56	6.96	-52.9	-58.0	14.4	0.00e+00	0	46	0	41943040	60	30990
2026-01-29 20:50:47.54	27.67	7.02	-52.9	-58.0	14.8	7.00e-07	0	45	0	44040192	60	31099
2026-01-29 20:50:48.54	27.77	7.08	-53.0	-58.0	15.3	0.00e+00	0	46	0	46137344	60	31041
2026-01-29 20:50:49.54	27.88	7.14	-52.9	-58.0	15.5	0.00e+00	0	46	0	48234496	60	31000
2026-01-29 20:50:50.55	27.99	7.20	-52.5	-58.0	15.2	0.00e+00	0	46	0	50331648	60	31258
2026-01-29 20:50:51.55	28.09	7.26	-52.5	-58.1	14.7	0.00e+00	0	46	0	51380224	60	31483
2026-01-29 20:50:52.55	28.20	7.31	-52.6	-58.0	14.8	0.00e+00	0	46	0	53477376	60	31193
2026-01-29 20:50:53.56	28.31	7.37	-53.5	-58.1	15.4	0.00e+00	0	46	0	55574528	60	31513
2026-01-29 20:50:54.56	28.42	7.43	-54.2	-58.1	16.2	0.00e+00	0	46	0	57671680	60	31429
2026-01-29 20:50:55.57	28.53	7.49	-54.1	-58.1	16.6	0.00e+00	0	46	0	59768832	60	31498
2026-01-29 20:50:56.58	28.64	7.55	-52.7	-58.2	15.4	0.00e+00	0	45	0	60817408	60	31744
2026-01-29 20:50:57.58	28.75	7.61	-51.7	-58.0	14.5	0.00e+00	0	46	0	62914560	60	31277
2026-01-29 20:50:58.58	28.86	7.67	-51.0	-57.9	14.1	0.00e+00	0	46	0	65011712	60	30809
2026-01-29 20:50:59.59	28.97	7.73	-51.5	-57.9	14.3	0.00e+00	0	46	0	67108864	60	30735
2026-01-29 20:51:00.60	29.08	7.79	-52.2	-57.9	14.9	0.00e+00	0	46	0	69206016	60	30806
2026-01-29 20:51:01.60	29.19	7.85	-53.5	-57.9	15.8	0.00e+00	0	46	0	70254592	60	30788
2026-01-29 20:51:02.61	29.30	7.91	-54.9	-57.9	16.7	0.00e+00	0	46	0	72351744	60	30797
2026-01-29 20:51:03.62	29.41	7.96	-54.9	-57.9	16.9	0.00e+00	0	46	0	74448896	60	30778
2026-01-29 20:51:04.62	29.53	8.02	-54.4	-57.9	16.7	0.00e+00	0	46	0	76546048	60	30721
2026-01-29 20:51:05.63	29.64	8.08	-54.2	-57.9	16.7	0.00e+00	0	46	0	78643200	60	30755
2026-01-29 20:51:06.63	29.75	8.14	-54.5	-57.9	16.9	0.00e+00	0	46	0	79691776	60	30830
2026-01-29 20:51:07.63	29.87	8.20	-54.7	-57.9	17.3	0.00e+00	0	46	0	81788928	60	30767
2026-01-29 20:51:08.64	29.98	8.26	-54.7	-57.9	17.5	0.00e+00	0	46	0	83886080	60	30814
2026-01-29 20:51:09.65	30.10	8.32	-54.3	-57.9	17.3	0.00e+00	0	46	0	85983232	60	30916
2026-01-29 20:51:10.66	30.21	8.38	-54.2	-57.9	17.3	0.00e+00	0	46	0	88080384	60	30902
2026-01-29 20:51:11.66	30.33	8.44	-54.4	-58.0	17.1	0.00e+00	0	46	0	89128960	60	31050
2026-01-29 20:51:12.66	30.44	8.50	-54.6	-57.9	17.5	0.00e+00	0	46	0	91226112	60	30700
2026-01-29 20:51:13.67	30.56	8.56	-54.4	-57.7	17.9	0.00e+00	0	46	0	93323264	60	30101
2026-01-29 20:51:14.68	30.68	8.62	-53.9	-57.7	17.6	0.00e+00	0	46	0	95420416	60	29983
2026-01-29 20:51:15.69	30.80	8.68	-53.4	-57.5	17.1	0.00e+00	0	46	0	97517568	60	29523
2026-01-29 20:51:16.69	30.92	8.74	-53.6	-57.5	17.5	0.00e+00	0	46	0	98566144	60	29264
2026-01-29 20:51:17.70	31.04	8.80	-53.8	-57.3	17.8	0.00e+00	0	46	0	100663296	60	28768
2026-01-29 20:51:18.70	31.15	8.86	-54.1	-57.2	18.3	0.00e+00	0	46	0	102760448	60	28523
2026-01-29 20:51:19.71	31.27	8.92	-54.1	-57.2	18.2	0.00e+00	0	46	0	104857600	60	28505
2026-01-29 20:51:20.71	31.39	8.98	-53.6	-57.1	17.6	0.00e+00	0	46	0	106954752	60	27948
2026-01-29 20:51:21.72	31.51	9.04	-53.1	-57.1	16.6	0.00e+00	0	46	0	108003328	60	27994
2026-01-29 20:51:22.72	31.63	9.10	-52.9	-57.0	16.2	0.00e+00	0	46	0	110100480	60	27695
2026-01-29 20:51:23.73	31.76	9.16	-53.1	-57.0	16.4	0.00e+00	0	46	0	112197632	60	27852
2026-01-29 20:51:24.73	31.88	9.22	-53.6	-57.1	16.7	0.00e+00	0	46	0	114294784	60	28041
2026-01-29 20:51:25.74	32.00	9.28	-54.1	-57.2	17.2	0.00e+00	0	46	0	116391936	60	28302
2026-01-29 20:51:26.75	32.12	9.34	-54.2	-57.2	17.5	0.00e+00	0	46	0	117440512	60	28488
2026-01-29 20:51:27.75	32.25	9.40	-53.9	-57.3	17.2	0.00e+00	0	46	0	119537664	60	28784
2026-01-29 20:51:28.76	32.37	9.46	-53.6	-57.3	16.9	0.00e+00	0	46	0	121634816	60	28833
2026-01-29 20:51:29.77	32.50	9.52	-53.4	-57.2	16.7	0.00e+00	0	46	0	123731968	60	28453
2026-01-29 20:51:30.77	32.62	9.58	-53.5	-57.3	16.7	0.00e+00	0	46	0	125829120	60	28633
2026-01-29 20:51:31.78	32.75	9.64	-54.2	-57.1	17.5	0.00e+00	0	46	0	126877696	60	28090
2026-01-29 20:51:32.79	32.87	9.70	-54.8	-57.1	18.5	0.00e+00	0	46	0	128974848	60	28066
2026-01-29 20:51:33.80	33.00	9.76	-54.9	-57.1	18.7	0.00e+00	0	46	0	131072000	60	27961
2026-01-29 20:51:34.81	33.13	9.82	-55.0	-57.2	18.7	0.00e+00	0	46	0	133169152	60	28308
2026-01-29 20:51:35.82	33.26	9.89	-54.8	-57.0	18.7	0.00e+00	0	46	0	135266304	60	27862
2026-01-29 20:51:36.83	33.39	9.95	-54.8	-57.1	18.6	0.00e+00	0	46	0	136314880	60	28060
2026-01-29 20:51:37.83	33.51	10.01	-54.9	-57.2	18.5	0.00e+00	0	46	0	138412032	60	28513
2026-01-29 20:51:38.84	33.64	10.07	-54.7	-57.2	18.4	0.00e+00	0	46	0	140509184	60	28444
2026-01-29 20:51:39.85	33.77	10.13	-54.5	-57.3	18.2	0.00e+00	0	46	0	142606336	60	28839
2026-01-29 20:51:40.85	33.90	10.19	-54.4	-57.5	18.0	0.00e+00	0	46	0	144703488	60	29277
2026-01-29 20:51:41.86	34.03	10.25	-54.4	-57.6	17.8	0.00e+00	0	46	0	145752064	60	29860
2026-01-29 20:51:42.87	34.16	10.31	-54.8	-57.7	17.8	0.00e+00	0	46	0	147849216	60	30062
2026-01-29 20:51:43.87	34.30	10.37	-55.2	-57.7	17.9	0.00e+00	0	46	0	149946368	60	30197
2026-01-29 20:51:44.87	34.43	10.43	-55.4	-57.8	18.1	0.00e+00	0	46	0	152043520	60	30406
2026-01-29 20:51:45.88	34.56	10.49	-55.0	-57.5	18.1	0.00e+00	0	46	0	154140672	60	29490
2026-01-29 20:51:46.89	34.69	10.55	-54.9	-57.6	17.9	0.00e+00	0	46	0	155189248	60	29731
2026-01-29 20:51:47.90	34.83	10.61	-54.8	-57.6	18.0	0.00e+00	0	46	0	157286400	60	29639
2026-01-29 20:51:48.91	34.96	10.68	-54.6	-57.6	18.0	0.00e+00	0	46	0	159383552	60	29608
2026-01-29 20:51:49.92	35.10	10.74	-53.9	-57.6	17.9	0.00e+00	0	46	0	161480704	60	29729
2026-01-29 20:51:50.92	35.23	10.80	-53.5	-57.3	18.2	0.00e+00	0	46	0	163577856	60	28832
2026-01-29 20:51:51.93	35.37	10.86	-53.6	-57.2	18.4	0.00e+00	0	46	0	164626432	60	28498
2026-01-29 20:51:52.94	35.51	10.92	-54.0	-57.2	18.7	0.00e+00	0	46	0	166723584	60	28402
2026-01-29 20:51:53.94	35.64	10.98	-54.7	-57.1	18.8	0.00e+00	0	46	0	168820736	60	28059
2026-01-29 20:51:54.95	35.78	11.04	-54.5	-57.1	18.2	0.00e+00	0	46	0	170917888	60	28124
2026-01-29 20:51:55.96	35.92	11.10	-54.2	-57.2	17.8	0.00e+00	0	46	0	173015040	60	28266
2026-01-29 20:51:56.96	36.06	11.16	-53.7	-57.1	17.7	0.00e+00	0	46	0	174063616	60	28185
2026-01-29 20:51:57.97	36.20	11.22	-53.9	-57.2	18.1	0.00e+00	0	46	0	176160768	60	28513
2026-01-29 20:51:58.97	36.34	11.28	-54.2	-57.3	18.4	0.00e+00	0	46	0	178257920	60	28566
2026-01-29 20:51:59.98	36.48	11.35	-54.4	-57.2	18.3	0.00e+00	0	46	0	180355072	60	28531
2026-01-29 20:52:00.98	36.62	11.41	-54.5	-57.3	18.2	0.00e+00	0	46	0	182452224	60	28816
2026-01-29 20:52:01.99	36.76	11.47	-54.3	-57.2	18.4	0.00e+00	0	46	0	183500800	60	28254
2026-01-29 20:52:03.00	36.90	11.53	-54.2	-57.3	18.5	0.00e+00	0	46	0	185597952	60	28626
2026-01-29 20:52:04.01	37.05	11.59	-54.0	-57.1	18.6	0.00e+00	0	46	0	187695104	60	28178
2026-01-29 20:52:05.01	37.19	11.65	-54.2	-57.3	18.5	0.00e+00	0	46	0	189792256	60	28780
2026-01-29 20:52:06.02	37.33	11.71	-54.5	-57.3	18.5	0.00e+00	0	46	0	191889408	60	28864
2026-01-29 20:52:07.02	37.48	11.77	-54.8	-57.3	18.3	0.00e+00	0	46	0	192937984	60	28771
2026-01-29 20:52:08.03	37.62	11.83	-54.6	-57.3	18.0	0.00e+00	0	46	0	195035136	60	28793
2026-01-29 20:52:09.04	37.77	11.89	-54.4	-57.4	17.8	0.00e+00	0	46	0	197132288	60	29014
2026-01-29 20:52:10.05	37.91	11.96	-53.7	-57.2	17.9	0.00e+00	0	46	0	199229440	60	28252
2026-01-29 20:52:11.05	38.06	12.02	-53.5	-57.1	17.8	0.00e+00	0	46	0	201326592	60	28016
2026-01-29 20:52:12.06	38.21	12.08	-54.0	-57.3	17.5	0.00e+00	0	46	0	202375168	60	28864
2026-01-29 20:52:13.07	38.36	12.14	-53.9	-56.9	18.0	0.00e+00	0	46	0	204472320	60	27439
2026-01-29 20:52:14.07	38.50	12.20	-54.1	-56.9	18.2	0.00e+00	0	46	0	206569472	60	27302
2026-01-29 20:52:15.07	38.65	12.26	-54.2	-56.8	18.2	0.00e+00	0	46	0	208666624	60	27163
2026-01-29 20:52:16.08	38.80	12.32	-54.2	-56.7	18.6	0.00e+00	0	46	0	210763776	60	26723
2026-01-29 20:52:17.09	38.95	12.38	-54.3	-56.7	18.7	0.00e+00	0	46	0	211812352	60	26690
2026-01-29 20:52:18.10	39.10	12.44	-54.4	-56.7	18.5	0.00e+00	0	46	0	213909504	60	26917
2026-01-29 20:52:19.10	39.26	12.50	-54.4	-56.7	18.6	0.00e+00	0	46	0	216006656	60	26735
2026-01-29 20:52:20.11	39.41	12.56	-54.3	-56.5	18.6	0.00e+00	0	46	0	218103808	60	26261
2026-01-29 20:52:21.12	39.56	12.62	-54.2	-56.4	18.9	0.00e+00	0	46	0	220200960	60	25960
2026-01-29 20:52:22.12	39.71	12.68	-54.3	-56.4	18.9	0.00e+00	0	46	0	221249536	60	26023
2026-01-29 20:52:23.13	39.87	12.75	-54.5	-56.5	19.0	0.00e+00	0	46	0	223346688	60	26312
2026-01-29 20:52:24.14	40.02	12.81	-54.7	-56.6	19.3	0.00e+00	0	46	0	225443840	60	26416
2026-01-29 20:52:25.15	40.18	12.87	-54.7	-56.5	19.3	0.00e+00	0	46	0	227540992	60	26255
2026-01-29 20:52:26.15	40.33	12.93	-54.7	-56.6	19.2	0.00e+00	0	46	0	229638144	60	26416
2026-01-29 20:52:27.16	40.49	12.99	-54.7	-56.6	19.2	0.00e+00	0	46	0	230686720	60	26461
2026-01-29 20:52:28.17	40.65	13.05	-54.6	-56.6	19.2	0.00e+00	0	46	0	232783872	60	26384
2026-01-29 20:52:29.17	40.80	13.11	-54.4	-56.4	19.1	0.00e+00	0	46	0	234881024	60	25996
2026-01-29 20:52:30.18	40.96	13.17	-54.1	-56.3	19.0	0.00e+00	0	46	0	236978176	60	25668
2026-01-29 20:52:31.19	41.12	13.23	-54.0	-56.3	19.1	0.00e+00	0	46	0	239075328	60	25646
2026-01-29 20:52:32.19	41.28	13.29	-54.1	-56.3	19.6	0.00e+00	0	46	0	240123904	60	25590
2026-01-29 20:52:33.20	41.44	13.35	-54.2	-56.1	19.8	0.00e+00	0	46	0	242221056	60	25083
2026-01-29 20:52:34.21	41.60	13.41	-54.2	-56.0	19.9	0.00e+00	0	46	0	244318208	60	24735
2026-01-29 20:52:35.22	41.77	13.47	-54.2	-56.0	19.8	0.00e+00	0	46	0	246415360	60	24726
2026-01-29 20:52:36.23	41.93	13.53	-54.2	-55.9	19.8	0.00e+00	0	46	0	248512512	60	24568
2026-01-29 20:52:37.23	42.09	13.59	-54.2	-55.9	19.8	0.00e+00	0	46	0	249561088	60	24569
2026-01-29 20:52:38.24	42.25	13.65	-54.2	-56.0	19.9	0.00e+00	0	46	0	251658240	60	24645
2026-01-29 20:52:39.25	42.42	13.71	-54.1	-55.9	20.0	0.00e+00	0	46	0	253755392	60	24527
2026-01-29 20:52:40.25	42.58	13.77	-54.3	-56.1	19.9	0.00e+00	0	46	0	255852544	60	24944
2026-01-29 20:52:41.27	42.75	13.83	-54.4	-56.1	19.7	0.00e+00	0	46	0	257949696	60	25120
2026-01-29 20:52:42.27	42.91	13.89	-54.4	-56.1	19.9	0.00e+00	0	46	0	258998272	60	25048
2026-01-29 20:52:43.28	43.08	13.95	-54.3	-56.0	19.9	0.00e+00	0	46	0	261095424	60	24696
2026-01-29 20:52:44.28	43.25	14.01	-54.2	-55.9	19.9	0.00e+00	0	46	0	263192576	60	24441
2026-01-29 20:52:45.29	43.42	14.07	-54.0	-55.6	20.3	0.00e+00	0	46	0	265289728	60	23726
2026-01-29 20:52:46.30	43.59	14.13	-53.9	-55.6	20.4	0.00e+00	0	46	0	267386880	60	23544
2026-01-29 20:52:47.30	43.75	14.19	-53.9	-55.5	20.5	0.00e+00	0	46	0	268435456	60	23243
2026-01-29 20:52:48.31	43.92	14.25	-53.9	-55.4	20.6	0.00e+00	0	46	0	270532608	60	23202
2026-01-29 20:52:49.32	44.10	14.31	-53.9	-55.5	20.6	0.00e+00	0	46	0	272629760	60	23269
2026-01-29 20:52:50.32	44.27	14.36	-53.8	-55.5	20.5	0.00e+00	0	46	0	274726912	60	23218
2026-01-29 20:52:51.32	44.44	14.42	-53.9	-55.5	20.3	0.00e+00	0	46	0	276824064	60	23371
2026-01-29 20:52:52.32	44.61	14.48	-53.8	-55.6	20.0	0.00e+00	0	46	0	277872640	60	23574
2026-01-29 20:52:53.33	44.78	14.54	-53.6	-55.7	20.1	0.00e+00	0	46	0	279969792	60	23767
2026-01-29 20:52:54.34	44.96	14.60	-53.5	-55.6	20.1	0.00e+00	0	46	0	282066944	60	23476
2026-01-29 20:52:55.35	45.13	14.66	-53.4	-55.4	20.1	0.00e+00	0	46	0	284164096	60	23030
2026-01-29 20:52:56.36	45.31	14.72	-53.5	-55.4	20.1	0.00e+00	0	46	0	286261248	60	22987
2026-01-29 20:52:57.36	45.48	14.77	-53.4	-55.2	20.2	0.00e+00	0	46	0	287309824	60	22557
2026-01-29 20:52:58.37	45.66	14.83	-53.5	-55.3	20.3	0.00e+00	0	46	0	289406976	60	22928
2026-01-29 20:52:59.38	45.84	14.89	-53.5	-55.3	20.6	0.00e+00	0	46	0	291504128	60	22710
2026-01-29 20:53:00.38	46.01	14.95	-53.5	-55.3	20.6	0.00e+00	0	46	0	293601280	60	22847
2026-01-29 20:53:01.39	46.19	15.01	-53.7	-55.5	20.6	0.00e+00	0	46	0	295698432	60	23351
2026-01-29 20:53:02.39	46.37	15.06	-53.8	-55.5	20.4	0.00e+00	0	46	0	296747008	60	23392
2026-01-29 20:53:03.39	46.55	15.12	-53.9	-55.6	19.9	0.00e+00	0	46	0	298844160	60	23733
2026-01-29 20:53:04.40	46.73	15.18	-53.6	-55.7	19.5	0.00e+00	0	46	0	300941312	60	23787
2026-01-29 20:53:05.41	46.91	15.24	-53.3	-55.7	19.3	0.00e+00	0	46	0	303038464	60	23822
2026-01-29 20:53:06.42	47.09	15.29	-53.3	-55.6	19.7	0.00e+00	0	46	0	305135616	60	23706
2026-01-29 20:53:07.42	47.28	15.35	-53.6	-55.7	20.2	0.00e+00	0	46	0	306184192	60	23935
2026-01-29 20:53:08.42	47.46	15.41	-53.9	-55.6	20.4	0.00e+00	0	46	0	308281344	60	23717
2026-01-29 20:53:09.43	47.64	15.46	-53.9	-55.8	20.3	0.00e+00	0	46	0	310378496	60	24162
2026-01-29 20:53:10.44	47.83	15.52	-53.9	-56.0	20.1	0.00e+00	0	46	0	312475648	60	24675
2026-01-29 20:53:11.44	48.01	15.58	-53.7	-55.9	20.1	0.00e+00	0	46	0	314572800	60	24539
2026-01-29 20:53:12.45	48.20	15.63	-53.7	-55.9	20.2	0.00e+00	0	46	0	315621376	60	24522
2026-01-29 20:53:13.46	48.39	15.69	-54.0	-56.0	20.1	0.00e+00	0	46	0	317718528	60	24726
2026-01-29 20:53:14.46	48.57	15.75	-54.3	-56.0	20.1	0.00e+00	0	46	0	319815680	60	24735
2026-01-29 20:53:15.47	48.76	15.80	-54.5	-56.1	20.0	0.00e+00	0	46	0	321912832	60	25126
2026-01-29 20:53:16.48	48.95	15.86	-54.4	-56.2	19.6	0.00e+00	0	46	0	324009984	60	25393
2026-01-29 20:53:17.48	49.14	15.91	-54.0	-56.4	18.9	0.00e+00	0	46	0	325058560	60	25757
2026-01-29 20:53:18.49	49.33	15.97	-53.4	-56.1	18.9	0.00e+00	0	46	0	327155712	60	24964
2026-01-29 20:53:19.50	49.52	16.02	-53.3	-56.4	18.7	0.00e+00	0	46	0	329252864	60	25747
2026-01-29 20:53:20.50	49.71	16.08	-53.3	-56.5	18.4	0.00e+00	0	46	0	331350016	60	26088
2026-01-29 20:53:21.51	49.90	16.13	-53.5	-56.5	18.4	0.00e+00	0	46	0	333447168	60	26266
2026-01-29 20:53:22.51	50.09	16.19	-53.8	-56.5	18.6	0.00e+00	0	46	0	334495744	60	26121
2026-01-29 20:53:23.51	50.29	16.24	-54.1	-56.9	18.4	0.00e+00	0	46	0	336592896	60	27309
2026-01-29 20:53:24.52	50.48	16.30	-54.2	-56.8	18.5	0.00e+00	0	46	0	338690048	60	27079
2026-01-29 20:53:25.53	50.68	16.35	-54.4	-56.6	19.1	0.00e+00	0	46	0	340787200	60	26448
2026-01-29 20:53:26.53	50.87	16.41	-54.7	-56.7	19.2	0.00e+00	0	46	0	342884352	60	26915
2026-01-29 20:53:27.54	51.07	16.46	-54.8	-57.1	19.3	0.00e+00	0	46	0	343932928	60	28032
2026-01-29 20:53:28.55	51.27	16.51	-54.7	-57.2	18.9	0.00e+00	0	46	0	346030080	60	28312
2026-01-29 20:53:29.55	51.46	16.57	-54.8	-57.5	18.7	0.00e+00	0	46	0	348127232	60	29339
2026-01-29 20:53:30.56	51.66	16.62	-55.3	-57.9	18.8	0.00e+00	0	46	0	350224384	60	30602
2026-01-29 20:53:31.56	51.86	16.67	-55.3	-57.6	18.6	0.00e+00	0	46	0	352321536	60	29757
2026-01-29 20:53:32.57	52.06	16.73	-54.8	-57.6	18.5	0.00e+00	0	46	0	353370112	60	29697
2026-01-29 20:53:33.58	52.26	16.78	-53.1	-56.8	18.1	0.00e+00	0	46	0	355467264	60	27196
2026-01-29 20:53:34.59	52.46	16.83	-51.5	-56.5	16.6	0.00e+00	0	46	0	357564416	60	26140
2026-01-29 20:53:35.59	52.66	16.88	-50.2	-56.3	15.8	0.00e+00	0	46	0	359661568	60	25620
2026-01-29 20:53:36.60	52.87	16.93	-49.6	-56.6	15.7	0.00e+00	0	46	0	361758720	60	26398
2026-01-29 20:53:37.61	53.07	16.99	-50.1	-56.7	16.8	0.00e+00	0	46	0	362807296	60	26673
2026-01-29 20:53:38.61	53.27	17.04	-51.4	-56.9	17.5	0.00e+00	0	46	0	364904448	60	27503
2026-01-29 20:53:39.62	53.48	17.09	-52.7	-57.1	17.8	0.00e+00	0	46	0	367001600	60	27954
2026-01-29 20:53:40.63	53.68	17.14	-53.4	-57.1	17.7	0.00e+00	0	46	0	369098752	60	27983
2026-01-29 20:53:41.62	53.89	17.19	-54.4	-57.3	18.2	0.00e+00	0	46	0	371195904	60	28690
2026-01-29 20:53:42.62	54.09	17.24	-55.3	-57.4	18.6	0.00e+00	0	46	0	372244480	60	29055
2026-01-29 20:53:43.63	54.30	17.29	-55.5	-57.4	18.9	0.00e+00	0	46	0	374341632	60	29180
2026-01-29 20:53:44.64	54.51	17.34	-55.0	-57.4	19.0	0.00e+00	0	46	0	376438784	60	29145
2026-01-29 20:53:45.64	54.71	17.39	-54.5	-57.3	18.1	0.00e+00	0	46	0	378535936	60	28655
2026-01-29 20:53:46.65	54.92	17.44	-54.8	-57.6	18.2	0.00e+00	0	46	0	380633088	60	29553
2026-01-29 20:53:47.66	55.13	17.49	-55.3	-57.7	18.4	0.00e+00	0	46	0	381681664	60	29954
2026-01-29 20:53:48.66	55.34	17.54	-55.8	-57.8	18.6	0.00e+00	0	46	0	383778816	60	30433
2026-01-29 20:53:49.66	55.55	17.59	-55.6	-57.8	18.7	0.00e+00	0	46	0	385875968	60	30278
2026-01-29 20:53:50.67	55.77	17.63	-55.5	-57.8	18.2	0.00e+00	0	46	0	387973120	60	30278
2026-01-29 20:53:51.68	55.98	17.68	-55.6	-57.8	18.5	0.00e+00	0	46	0	389021696	60	30458
2026-01-29 20:53:52.68	56.19	17.73	-55.4	-57.8	18.6	0.00e+00	0	46	0	391118848	60	30444
2026-01-29 20:53:53.69	56.41	17.78	-55.2	-58.0	18.1	0.00e+00	0	46	0	393216000	60	31189
2026-01-29 20:53:54.69	56.62	17.83	-55.2	-58.1	18.8	0.00e+00	0	46	0	395313152	60	31351
2026-01-29 20:53:55.70	56.83	17.87	-54.0	-58.1	18.0	0.00e+00	0	46	0	397410304	60	31521
2026-01-29 20:53:56.70	57.05	17.92	-54.1	-58.1	17.5	0.00e+00	0	46	0	399507456	60	31322
2026-01-29 20:53:57.71	57.27	17.97	-55.1	-58.0	17.8	0.00e+00	0	46	0	400556032	60	31290
2026-01-29 20:53:58.72	57.48	18.01	-54.5	-58.1	17.5	0.00e+00	0	46	0	402653184	60	31522
2026-01-29 20:53:59.72	57.70	18.06	-54.0	-58.0	17.8	0.00e+00	0	46	0	404750336	60	31296
2026-01-29 20:54:00.73	57.92	18.10	-54.6	-58.0	18.5	0.00e+00	0	46	0	406847488	60	31236
2026-01-29 20:54:01.74	58.14	18.15	-55.4	-58.0	18.9	0.00e+00	0	46	0	408944640	60	31228
2026-01-29 20:54:02.75	58.36	18.19	-56.0	-58.2	19.0	0.00e+00	0	46	0	409993216	60	31694
2026-01-29 20:54:03.75	58.58	18.24	-56.0	-58.3	19.0	0.00e+00	0	46	0	412090368	60	32347
2026-01-29 20:54:04.75	58.80	18.28	-56.3	-58.3	18.8	0.00e+00	0	46	0	414187520	60	32133
2026-01-29 20:54:05.76	59.02	18.32	-56.3	-58.3	19.2	0.00e+00	0	46	0	416284672	60	32242
2026-01-29 20:54:06.76	59.24	18.37	-56.1	-58.1	19.2	0.00e+00	0	46	0	417333248	60	31348
2026-01-29 20:54:07.77	59.46	18.41	-56.3	-58.5	18.9	0.00e+00	0	46	0	419430400	60	32984
2026-01-29 20:54:08.77	59.69	18.45	-55.3	-58.2	18.2	0.00e+00	0	46	0	421527552	60	31800
2026-01-29 20:54:09.77	59.91	18.50	-54.7	-58.2	18.0	0.00e+00	0	46	0	423624704	60	31682
2026-01-29 20:54:10.78	60.13	18.54	-53.8	-58.1	17.4	0.00e+00	0	46	0	425721856	60	31568
2026-01-29 20:54:11.78	60.36	18.58	-53.5	-58.1	17.4	0.00e+00	0	46	0	426770432	60	31479
2026-01-29 20:54:12.78	60.58	18.62	-54.7	-58.3	17.7	0.00e+00	0	46	0	428867584	60	32036
2026-01-29 20:54:13.79	60.81	18.66	-54.1	-58.3	17.0	0.00e+00	0	46	0	430964736	60	32062
2026-01-29 20:54:14.79	61.04	18.70	-56.0	-58.6	18.8	0.00e+00	0	46	0	433061888	60	33161
2026-01-29 20:54:15.79	61.26	18.74	-56.5	-58.4	19.4	0.00e+00	0	46	0	435159040	60	32485
2026-01-29 20:54:16.80	61.49	18.78	-56.5	-58.5	19.3	0.00e+00	0	46	0	437256192	60	33101
2026-01-29 20:54:17.81	61.72	18.82	-56.5	-58.2	19.7	0.00e+00	0	46	0	438304768	60	31941
2026-01-29 20:54:18.81	61.95	18.86	-56.5	-58.2	19.6	0.00e+00	0	46	0	440401920	60	31989
2026-01-29 20:54:19.82	62.18	18.90	-56.5	-58.2	19.5	0.00e+00	0	46	0	442499072	60	31755
2026-01-29 20:54:20.83	62.41	18.94	-56.4	-58.2	19.5	0.00e+00	0	46	0	444596224	60	31945
2026-01-29 20:54:21.83	62.64	18.98	-56.5	-58.3	19.5	0.00e+00	0	46	0	445644800	60	32350
2026-01-29 20:54:22.83	62.87	19.01	-56.7	-58.6	19.3	0.00e+00	0	46	0	447741952	60	33264
2026-01-29 20:54:23.84	63.10	19.05	-56.5	-58.4	19.1	0.00e+00	0	46	0	449839104	60	32563
2026-01-29 20:54:24.85	63.34	19.09	-55.2	-58.4	17.6	0.00e+00	0	46	0	451936256	60	32496
2026-01-29 20:54:25.86	63.57	19.12	-53.7	-58.1	17.3	0.00e+00	0	46	0	454033408	60	31474
2026-01-29 20:54:26.87	63.80	19.16	-52.7	-57.9	17.4	0.00e+00	0	46	0	455081984	60	30896
2026-01-29 20:54:27.88	64.04	19.20	-53.0	-57.8	18.1	0.00e+00	0	46	0	457179136	60	30263
2026-01-29 20:54:28.88	64.27	19.23	-54.9	-57.7	19.2	0.00e+00	0	46	0	459276288	60	30076
2026-01-29 20:54:29.88	64.51	19.27	-56.4	-58.2	19.8	0.00e+00	0	46	0	461373440	60	31687
2026-01-29 20:54:30.89	64.74	19.30	-56.2	-57.9	20.0	0.00e+00	0	46	0	463470592	60	30874
2026-01-29 20:54:31.90	64.98	19.33	-55.6	-57.8	19.8	0.00e+00	0	46	0	465567744	60	30338
2026-01-29 20:54:32.91	65.22	19.37	-55.5	-57.8	19.8	0.00e+00	0	46	0	466616320	60	30265
2026-01-29 20:54:33.91	65.45	19.40	-55.7	-57.7	20.0	0.00e+00	0	46	0	468713472	60	29906
2026-01-29 20:54:34.92	65.69	19.43	-55.9	-57.7	19.9	0.00e+00	0	46	0	470810624	60	30218
2026-01-29 20:54:35.93	65.93	19.46	-55.7	-57.7	19.8	0.00e+00	0	46	0	472907776	60	30229
2026-01-29 20:54:36.94	66.17	19.50	-55.9	-57.8	19.7	0.00e+00	0	46	0	473956352	60	30300
2026-01-29 20:54:37.95	66.41	19.53	-56.2	-58.1	19.5	0.00e+00	0	46	0	476053504	60	31386
2026-01-29 20:54:38.96	66.65	19.56	-56.2	-58.1	19.7	0.00e+00	0	46	0	478150656	60	31485
2026-01-29 20:54:39.96	66.89	19.59	-56.0	-58.1	19.6	0.00e+00	0	46	0	480247808	60	31429
2026-01-29 20:54:40.97	67.13	19.62	-55.8	-58.0	19.4	0.00e+00	0	46	0	482344960	60	31146
2026-01-29 20:54:41.97	67.37	19.65	-56.0	-57.7	20.0	0.00e+00	0	46	0	483393536	60	30196
2026-01-29 20:54:42.98	67.62	19.68	-56.1	-57.8	20.0	0.00e+00	0	46	0	485490688	60	30272
2026-01-29 20:54:43.99	67.86	19.71	-55.9	-57.5	20.2	0.00e+00	0	46	0	487587840	60	29294
2026-01-29 20:54:44.99	68.10	19.73	-55.6	-57.4	20.5	0.00e+00	0	46	0	489684992	60	28966
2026-01-29 20:54:46.00	68.35	19.76	-55.5	-57.4	20.3	0.00e+00	0	46	0	491782144	60	29187
2026-01-29 20:54:47.00	68.59	19.79	-55.9	-57.6	20.2	0.00e+00	0	46	0	493879296	60	29636
2026-01-29 20:54:48.01	68.83	19.81	-55.7	-57.6	20.2	0.00e+00	0	46	0	494927872	60	29568
2026-01-29 20:54:49.02	69.08	19.84	-55.9	-57.6	20.1	0.00e+00	0	46	0	497025024	60	29667
2026-01-29 20:54:50.02	69.32	19.87	-56.2	-57.9	20.0	0.00e+00	0	46	0	499122176	60	30848
2026-01-29 20:54:51.03	69.57	19.89	-56.0	-57.7	19.9	0.00e+00	0	46	0	501219328	60	29901
2026-01-29 20:54:52.04	69.81	19.92	-56.1	-57.7	20.0	0.00e+00	0	46	0	502267904	60	30133
2026-01-29 20:54:53.05	70.06	19.94	-55.9	-57.6	20.0	0.00e+00	0	46	0	504365056	60	29584
2026-01-29 20:54:54.05	70.30	19.96	-55.9	-57.5	19.9	0.00e+00	0	46	0	506462208	60	29535
2026-01-29 20:54:55.06	70.55	19.99	-56.0	-57.6	20.2	0.00e+00	0	46	0	508559360	60	29828
2026-01-29 20:54:56.07	70.80	20.01	-56.1	-57.7	20.4	0.00e+00	0	46	0	510656512	60	30046
2026-01-29 20:54:57.08	71.05	20.03	-56.3	-57.9	20.3	0.00e+00	0	46	0	511705088	60	30777
2026-01-29 20:54:58.08	71.29	20.05	-56.2	-57.9	20.0	0.00e+00	0	46	0	513802240	60	30816
2026-01-29 20:54:59.09	71.54	20.07	-56.2	-58.2	19.6	0.00e+00	0	46	0	515899392	60	31990
2026-01-29 20:55:00.10	71.79	20.10	-56.3	-58.4	19.2	0.00e+00	0	46	0	517996544	60	32540
2026-01-29 20:55:01.10	72.04	20.12	-56.5	-58.6	18.8	0.00e+00	0	46	0	520093696	60	33426
2026-01-29 20:55:02.10	72.29	20.13	-56.8	-59.0	18.9	0.00e+00	0	46	0	522190848	60	34974
2026-01-29 20:55:03.11	72.54	20.15	-56.9	-59.0	18.9	0.00e+00	0	46	0	523239424	60	35082
2026-01-29 20:55:04.12	72.79	20.17	-57.0	-59.0	19.0	0.00e+00	0	46	0	525336576	60	34888
2026-01-29 20:55:05.12	73.04	20.19	-57.0	-58.9	19.3	0.00e+00	0	46	0	527433728	60	34545
2026-01-29 20:55:06.13	73.29	20.21	-56.6	-58.4	19.5	0.00e+00	0	46	0	529530880	60	32515
2026-01-29 20:55:07.14	73.54	20.22	-56.6	-58.4	19.4	0.00e+00	0	46	0	530579456	60	32473
2026-01-29 20:55:08.15	73.79	20.24	-56.3	-58.1	19.7	0.00e+00	0	46	0	532676608	60	31367
2026-01-29 20:55:09.16	74.04	20.26	-56.3	-58.0	19.8	0.00e+00	0	46	0	534773760	60	31255
2026-01-29 20:55:10.16	74.29	20.27	-56.3	-58.0	20.1	0.00e+00	0	46	0	536870912	60	31152
2026-01-29 20:55:11.17	74.55	20.29	-56.1	-57.8	20.0	0.00e+00	0	46	0	538968064	60	30527
2026-01-29 20:55:12.18	74.80	20.30	-56.3	-58.0	19.9	0.00e+00	0	46	0	540016640	60	31073
2026-01-29 20:55:13.19	75.05	20.32	-56.5	-58.3	19.8	0.00e+00	0	46	0	542113792	60	32070
2026-01-29 20:55:14.20	75.30	20.33	-56.5	-58.4	19.5	0.00e+00	0	46	0	544210944	60	32655
2026-01-29 20:55:15.20	75.56	20.34	-56.8	-58.7	19.4	0.00e+00	0	46	0	546308096	60	33586
2026-01-29 20:55:16.21	75.81	20.35	-56.8	-58.6	19.5	0.00e+00	0	46	0	548405248	60	33274
2026-01-29 20:55:17.22	76.06	20.36	-56.9	-58.8	19.4	0.00e+00	0	46	0	550502400	60	34180
2026-01-29 20:55:18.21	76.31	20.38	-56.9	-58.8	19.1	0.00e+00	0	46	0	551550976	60	34063
2026-01-29 20:55:19.22	76.57	20.39	-57.0	-58.8	19.3	0.00e+00	0	46	0	553648128	60	34208
2026-01-29 20:55:20.23	76.82	20.40	-57.2	-59.0	19.1	0.00e+00	0	46	0	555745280	60	35105
2026-01-29 20:55:21.23	77.07	20.41	-57.2	-59.1	19.0	0.00e+00	0	46	0	557842432	60	35443
2026-01-29 20:55:22.24	77.33	20.41	-57.2	-59.2	18.8	0.00e+00	0	46	0	558891008	60	35816
2026-01-29 20:55:23.25	77.58	20.42	-57.2	-59.4	18.6	0.00e+00	0	46	0	560988160	60	36441
2026-01-29 20:55:24.25	77.83	20.43	-57.0	-59.3	18.5	0.00e+00	0	46	0	563085312	60	36205
2026-01-29 20:55:25.26	78.09	20.44	-56.9	-59.2	18.7	0.00e+00	0	46	0	565182464	60	35905
2026-01-29 20:55:26.27	78.34	20.44	-57.1	-59.2	18.9	0.00e+00	0	46	0	567279616	60	35692
2026-01-29 20:55:27.28	78.60	20.45	-56.9	-58.8	19.2	0.00e+00	0	46	0	568328192	60	33969
2026-01-29 20:55:28.28	78.85	20.46	-56.8	-58.7	19.3	0.00e+00	0	46	0	570425344	60	33719
2026-01-29 20:55:29.29	79.11	20.46	-56.8	-58.8	19.2	0.00e+00	0	46	0	572522496	60	34108
2026-01-29 20:55:30.30	79.36	20.46	-56.8	-58.8	19.0	0.00e+00	0	46	0	574619648	60	34056
2026-01-29 20:55:31.31	79.62	20.47	-56.6	-58.7	19.1	0.00e+00	0	46	0	576716800	60	33567
2026-01-29 20:55:32.31	79.87	20.47	-57.8	-59.8	18.9	0.00e+00	0	46	0	578813952	60	38420
2026-01-29 20:55:33.32	80.13	20.47	-57.5	-59.6	19.2	0.00e+00	0	46	0	579862528	60	37480
2026-01-29 20:55:34.32	80.38	20.48	-57.2	-59.3	19.3	0.00e+00	0	46	0	581959680	60	36295
2026-01-29 20:55:35.33	80.64	20.48	-56.8	-59.3	18.6	0.00e+00	0	46	0	584056832	60	35939
2026-01-29 20:55:36.34	80.89	20.48	-56.6	-59.0	18.9	0.00e+00	0	46	0	586153984	60	34998
2026-01-29 20:55:37.35	81.15	20.48	-56.7	-59.1	19.5	0.00e+00	0	46	0	587202560	60	35174
2026-01-29 20:55:38.35	81.40	20.48	-56.5	-58.6	19.4	0.00e+00	0	46	0	589299712	60	33199
2026-01-29 20:55:39.36	81.66	20.48	-56.4	-58.4	19.7	0.00e+00	0	46	0	591396864	60	32587
2026-01-29 20:55:40.36	81.91	20.48	-56.5	-58.4	19.9	0.00e+00	0	46	0	593494016	60	32525
2026-01-29 20:55:41.37	82.17	20.48	-56.7	-58.6	19.9	0.00e+00	0	46	0	595591168	60	33174
2026-01-29 20:55:42.38	82.42	20.47	-56.6	-58.4	19.8	0.00e+00	0	46	0	596639744	60	32680
2026-01-29 20:55:43.39	82.68	20.47	-56.6	-58.5	19.5	0.00e+00	0	46	0	598736896	60	33145
2026-01-29 20:55:44.39	82.93	20.47	-56.6	-58.5	19.3	0.00e+00	0	46	0	600834048	60	33054
2026-01-29 20:55:45.40	83.19	20.46	-56.8	-58.8	19.4	0.00e+00	0	46	0	602931200	60	33933
2026-01-29 20:55:46.41	83.44	20.46	-57.0	-58.8	19.6	0.00e+00	0	46	0	605028352	60	34260
2026-01-29 20:55:47.42	83.70	20.45	-57.0	-58.9	19.6	0.00e+00	0	46	0	607125504	60	34524
2026-01-29 20:55:48.42	83.95	20.45	-57.2	-59.1	19.4	0.00e+00	0	46	0	608174080	60	35515
2026-01-29 20:55:49.43	84.21	20.44	-57.2	-59.1	19.5	0.00e+00	0	46	0	610271232	60	35254
2026-01-29 20:55:50.44	84.46	20.43	-57.3	-59.3	19.3	0.00e+00	0	46	0	612368384	60	35963
2026-01-29 20:55:51.44	84.72	20.43	-57.6	-59.5	19.0	0.00e+00	0	46	0	614465536	60	37009
2026-01-29 20:55:52.45	84.97	20.42	-57.6	-59.6	19.2	0.00e+00	0	46	0	615514112	60	37432
2026-01-29 20:55:53.45	85.22	20.41	-57.5	-59.5	19.1	0.00e+00	0	46	0	617611264	60	36874
2026-01-29 20:55:54.46	85.48	20.40	-57.7	-59.7	18.9	0.00e+00	0	46	0	619708416	60	37869
2026-01-29 20:55:55.47	85.73	20.39	-57.4	-59.5	19.3	0.00e+00	0	46	0	621805568	60	37047
2026-01-29 20:55:56.47	85.98	20.38	-57.3	-59.4	19.3	0.00e+00	0	46	0	623902720	60	36607
2026-01-29 20:55:57.48	86.24	20.37	-57.3	-59.4	18.9	0.00e+00	0	46	0	624951296	60	36676
2026-01-29 20:55:58.49	86.49	20.36	-57.4	-59.4	19.2	0.00e+00	0	46	0	627048448	60	36593
2026-01-29 20:55:59.50	86.75	20.35	-57.1	-59.1	19.5	0.00e+00	0	46	0	629145600	60	35172
2026-01-29 20:56:00.50	87.00	20.33	-57.0	-58.8	19.8	0.00e+00	0	46	0	631242752	60	34166
2026-01-29 20:56:01.51	87.25	20.32	-56.7	-58.5	20.1	0.00e+00	0	46	0	633339904	60	32858
2026-01-29 20:56:02.52	87.50	20.31	-56.5	-58.2	20.2	0.00e+00	0	46	0	635437056	60	31914
2026-01-29 20:56:03.53	87.76	20.29	-56.4	-58.1	20.4	0.00e+00	0	46	0	636485632	60	31469
2026-01-29 20:56:04.54	88.01	20.28	-56.4	-58.0	20.4	0.00e+00	0	46	0	638582784	60	31209
2026-01-29 20:56:05.54	88.26	20.26	-56.4	-58.0	20.3	0.00e+00	0	46	0	640679936	60	31130
2026-01-29 20:56:06.55	88.51	20.25	-56.7	-58.3	20.0	0.00e+00	0	46	0	642777088	60	32390
2026-01-29 20:56:07.56	88.76	20.23	-56.8	-58.5	19.9	0.00e+00	0	46	0	643825664	60	33032
2026-01-29 20:56:08.56	89.01	20.22	-56.8	-58.6	19.8	0.00e+00	0	46	0	645922816	60	33369
2026-01-29 20:56:09.57	89.27	20.20	-56.6	-58.4	19.8	0.00e+00	0	46	0	648019968	60	32775
2026-01-29 20:56:10.57	89.51	20.18	-56.6	-58.6	19.8	0.00e+00	0	46	0	650117120	60	33338
2026-01-29 20:56:11.58	89.77	20.16	-56.5	-58.4	19.8	0.00e+00	0	46	0	652214272	60	32634
2026-01-29 20:56:12.59	90.02	20.14	-56.2	-58.0	19.8	0.00e+00	0	46	0	654311424	60	31281
2026-01-29 20:56:13.60	90.27	20.12	-56.0	-57.8	20.0	0.00e+00	0	46	0	655360000	60	30480
2026-01-29 20:56:14.60	90.51	20.10	-56.0	-57.7	20.3	0.00e+00	0	46	0	657457152	60	30183
2026-01-29 20:56:15.61	90.76	20.08	-56.0	-57.7	20.4	0.00e+00	0	46	0	659554304	60	30133
2026-01-29 20:56:16.62	91.01	20.06	-56.0	-57.8	20.3	0.00e+00	0	46	0	661651456	60	30400
2026-01-29 20:56:17.63	91.26	20.04	-55.8	-57.5	20.2	0.00e+00	0	46	0	663748608	60	29478
2026-01-29 20:56:18.64	91.51	20.02	-55.6	-57.4	20.4	0.00e+00	0	46	0	664797184	60	29081
2026-01-29 20:56:19.64	91.76	20.00	-55.6	-57.4	20.2	0.00e+00	0	46	0	666894336	60	29125
2026-01-29 20:56:20.65	92.01	19.97	-55.5	-57.4	20.1	0.00e+00	0	46	0	668991488	60	28880
2026-01-29 20:56:21.66	92.25	19.95	-55.4	-57.3	20.2	0.00e+00	0	46	0	671088640	60	28801
2026-01-29 20:56:22.66	92.50	19.93	-55.5	-57.5	20.2	0.00e+00	0	46	0	672137216	60	29380
2026-01-29 20:56:23.66	92.74	19.90	-55.5	-57.7	20.2	0.00e+00	0	46	0	674234368	60	30040
2026-01-29 20:56:24.67	92.99	19.88	-55.7	-57.9	20.1	0.00e+00	0	46	0	676331520	60	30866
2026-01-29 20:56:25.67	93.23	19.85	-55.8	-58.0	19.9	0.00e+00	0	46	0	678428672	60	31073
2026-01-29 20:56:26.67	93.48	19.83	-55.7	-57.9	19.9	0.00e+00	0	46	0	680525824	60	30649
2026-01-29 20:56:27.68	93.72	19.80	-55.7	-57.6	20.0	0.00e+00	0	46	0	681574400	60	29802
2026-01-29 20:56:28.69	93.97	19.77	-55.7	-57.6	20.1	0.00e+00	0	46	0	683671552	60	29785
2026-01-29 20:56:29.70	94.21	19.75	-55.6	-57.4	20.3	0.00e+00	0	46	0	685768704	60	29186
2026-01-29 20:56:30.71	94.46	19.72	-55.4	-57.2	20.7	0.00e+00	0	46	0	687865856	60	28302
2026-01-29 20:56:31.72	94.70	19.69	-55.2	-57.0	20.7	0.00e+00	0	46	0	689963008	60	27753
2026-01-29 20:56:32.72	94.94	19.66	-55.1	-56.8	20.5	0.00e+00	0	46	0	692060160	60	27083
2026-01-29 20:56:33.73	95.18	19.63	-54.8	-56.5	20.8	0.00e+00	0	46	0	693108736	60	26120
2026-01-29 20:56:34.74	95.43	19.60	-54.7	-56.3	21.1	0.00e+00	0	46	0	695205888	60	25498
2026-01-29 20:56:35.75	95.67	19.57	-54.5	-55.9	21.5	0.00e+00	0	46	0	697303040	60	24520
2026-01-29 20:56:36.75	95.91	19.54	-54.4	-55.8	21.9	0.00e+00	0	46	0	699400192	60	24172
2026-01-29 20:56:37.75	96.15	19.51	-54.4	-55.8	21.9	0.00e+00	0	46	0	700448768	60	24199
2026-01-29 20:56:38.76	96.39	19.48	-54.5	-56.0	21.6	0.00e+00	0	46	0	702545920	60	24687
2026-01-29 20:56:39.77	96.63	19.45	-54.7	-56.1	21.6	0.00e+00	0	46	0	704643072	60	25109
2026-01-29 20:56:40.77	96.87	19.41	-54.8	-56.3	21.5	0.00e+00	0	46	0	706740224	60	25464
2026-01-29 20:56:41.77	97.10	19.38	-54.7	-56.3	21.2	0.00e+00	0	46	0	708837376	60	25453
2026-01-29 20:56:42.78	97.34	19.35	-54.8	-56.3	21.2	0.00e+00	0	46	0	709885952	60	25705
2026-01-29 20:56:43.79	97.58	19.31	-54.8	-56.3	21.3	0.00e+00	0	46	0	711983104	60	25470
2026-01-29 20:56:44.80	97.82	19.28	-54.9	-56.3	21.4	0.00e+00	0	46	0	714080256	60	25730
2026-01-29 20:56:45.80	98.05	19.25	-54.9	-56.3	21.5	0.00e+00	0	46	0	716177408	60	25641
2026-01-29 20:56:46.81	98.29	19.21	-55.0	-56.6	21.3	0.00e+00	0	46	0	718274560	60	26392
2026-01-29 20:56:47.82	98.52	19.17	-54.9	-56.3	21.2	0.00e+00	0	46	0	720371712	60	25696
2026-01-29 20:56:48.83	98.76	19.14	-54.9	-56.4	21.1	0.00e+00	0	46	0	721420288	60	25966
2026-01-29 20:56:49.83	98.99	19.10	-54.8	-56.3	21.2	0.00e+00	0	46	0	723517440	60	25548
2026-01-29 20:56:50.84	99.23	19.07	-54.9	-56.3	21.3	0.00e+00	0	46	0	725614592	60	25539
2026-01-29 20:56:51.84	99.46	19.03	-54.9	-56.2	21.5	0.00e+00	0	46	0	727711744	60	25409
2026-01-29 20:56:52.85	99.69	18.99	-54.7	-56.0	21.6	0.00e+00	0	46	0	728760320	60	24748
2026-01-29 20:56:53.86	99.92	18.95	-54.5	-55.9	21.8	0.00e+00	0	46	0	730857472	60	24313
2026-01-29 20:56:54.86	100.15	18.91	-54.3	-55.7	22.0	0.00e+00	0	46	0	732954624	60	23798
2026-01-29 20:56:55.87	100.39	18.88	-54.2	-55.6	21.8	0.00e+00	0	46	0	735051776	60	23605
2026-01-29 20:56:56.88	100.62	18.84	-54.0	-55.5	21.8	0.00e+00	0	46	0	737148928	60	23240
2026-01-29 20:56:57.88	100.84	18.80	-53.8	-55.3	21.6	0.00e+00	0	46	0	738197504	60	22760
2026-01-29 20:56:58.89	101.07	18.76	-54.0	-55.4	21.8	0.00e+00	0	46	0	740294656	60	23176
2026-01-29 20:56:59.89	101.30	18.72	-54.1	-55.5	21.7	0.00e+00	0	46	0	742391808	60	23400
2026-01-29 20:57:00.90	101.53	18.68	-54.2	-55.6	21.9	0.00e+00	0	46	0	744488960	60	23713
2026-01-29 20:57:01.91	101.76	18.64	-54.4	-55.8	21.7	0.00e+00	0	46	0	746586112	60	24167
2026-01-29 20:57:02.92	101.99	18.59	-54.5	-55.9	21.6	0.00e+00	0	46	0	748683264	60	24382
2026-01-29 20:57:03.93	102.21	18.55	-54.6	-56.0	21.6	0.00e+00	0	46	0	749731840	60	24683
2026-01-29 20:57:04.93	102.44	18.51	-54.8	-56.1	21.5	0.00e+00	0	46	0	751828992	60	25104
2026-01-29 20:57:05.94	102.66	18.47	-54.9	-56.4	21.4	0.00e+00	0	46	0	753926144	60	25887
2026-01-29 20:57:06.94	102.89	18.43	-55.0	-56.5	21.0	0.00e+00	0	46	0	756023296	60	26040
2026-01-29 20:57:07.95	103.11	18.38	-55.0	-56.5	21.0	0.00e+00	0	46	0	757071872	60	26078
2026-01-29 20:57:08.96	103.33	18.34	-55.0	-56.5	21.1	0.00e+00	0	46	0	759169024	60	26133
2026-01-29 20:57:09.96	103.55	18.29	-55.1	-56.5	21.0	0.00e+00	0	46	0	761266176	60	26305
2026-01-29 20:57:10.96	103.77	18.25	-55.1	-56.5	20.9	0.00e+00	0	46	0	763363328	60	26326
2026-01-29 20:57:11.97	104.00	18.21	-55.2	-56.6	21.2	0.00e+00	0	46	0	765460480	60	26637
2026-01-29 20:57:12.98	104.22	18.16	-55.2	-56.7	21.0	0.00e+00	0	46	0	766509056	60	26824
2026-01-29 20:57:13.98	104.44	18.12	-55.2	-56.8	20.9	0.00e+00	0	46	0	768606208	60	26968
2026-01-29 20:57:14.99	104.66	18.07	-55.3	-56.9	20.7	0.00e+00	0	46	0	770703360	60	27550
2026-01-29 20:57:16.00	104.88	18.02	-55.4	-57.0	20.9	0.00e+00	0	46	0	772800512	60	27753
2026-01-29 20:57:17.00	105.09	17.98	-55.3	-56.9	20.8	0.00e+00	0	46	0	774897664	60	27415
2026-01-29 20:57:18.01	105.31	17.93	-55.3	-56.8	20.7	0.00e+00	0	46	0	776994816	60	27196
2026-01-29 20:57:19.02	105.53	17.88	-55.4	-56.9	20.7	0.00e+00	0	46	0	778043392	60	27469
2026-01-29 20:57:20.02	105.74	17.84	-55.4	-56.9	20.5	0.00e+00	0	46	0	780140544	60	27294
2026-01-29 20:57:21.03	105.96	17.79	-55.6	-57.1	20.3	0.00e+00	0	46	0	782237696	60	28165
2026-01-29 20:57:22.03	106.17	17.74	-55.7	-57.3	20.2	0.00e+00	0	46	0	784334848	60	28867
2026-01-29 20:57:23.04	106.39	17.70	-55.7	-57.4	20.0	0.00e+00	0	46	0	785383424	60	29057
2026-01-29 20:57:24.05	106.60	17.65	-55.7	-57.5	19.9	0.00e+00	0	46	0	787480576	60	29230
2026-01-29 20:57:25.05	106.81	17.60	-55.7	-57.5	20.1	0.00e+00	0	46	0	789577728	60	29386
2026-01-29 20:57:26.05	107.02	17.55	-55.8	-57.7	20.0	0.00e+00	0	46	0	791674880	60	30006
2026-01-29 20:57:27.06	107.24	17.50	-55.8	-57.7	20.0	0.00e+00	0	46	0	793772032	60	30196
2026-01-29 20:57:28.07	107.45	17.45	-55.6	-57.6	19.9	0.00e+00	0	46	0	794820608	60	29731
2026-01-29 20:57:29.07	107.66	17.40	-55.7	-57.7	19.7	0.00e+00	0	46	0	796917760	60	30235
2026-01-29 20:57:30.08	107.87	17.35	-55.7	-57.9	19.7	0.00e+00	0	46	0	799014912	60	30647
2026-01-29 20:57:31.09	108.08	17.30	-55.7	-57.7	19.7	0.00e+00	0	46	0	801112064	60	30037
2026-01-29 20:57:32.10	108.28	17.25	-55.8	-57.8	19.8	0.00e+00	0	46	0	803209216	60	30568
2026-01-29 20:57:33.10	108.49	17.20	-56.0	-57.9	19.6	0.00e+00	0	46	0	805306368	60	30845
2026-01-29 20:57:34.11	108.70	17.15	-56.0	-57.9	19.5	0.00e+00	0	46	0	806354944	60	30826
2026-01-29 20:57:35.11	108.90	17.10	-55.8	-57.7	19.4	0.00e+00	0	46	0	808452096	60	30026
2026-01-29 20:57:36.12	109.11	17.05	-55.9	-57.7	19.6	0.00e+00	0	46	0	810549248	60	30211
2026-01-29 20:57:37.13	109.31	17.00	-55.9	-57.7	19.8	0.00e+00	0	46	0	812646400	60	30024
2026-01-29 20:57:38.14	109.52	16.94	-55.7	-57.5	20.2	0.00e+00	0	46	0	813694976	60	29214
2026-01-29 20:57:39.14	109.72	16.89	-55.9	-57.6	20.1	0.00e+00	0	46	0	815792128	60	29685
2026-01-29 20:57:40.15	109.93	16.84	-55.8	-57.6	20.0	0.00e+00	0	46	0	817889280	60	29606
2026-01-29 20:57:41.15	110.13	16.79	-55.9	-57.6	19.9	0.00e+00	0	46	0	819986432	60	29841
2026-01-29 20:57:42.16	110.33	16.73	-56.1	-57.9	19.6	0.00e+00	0	46	0	822083584	60	30670
2026-01-29 20:57:43.16	110.53	16.68	-56.1	-57.8	19.6	0.00e+00	0	46	0	823132160	60	30457
2026-01-29 20:57:44.17	110.73	16.63	-56.0	-57.8	19.8	0.00e+00	0	46	0	825229312	60	30397
2026-01-29 20:57:45.17	110.93	16.57	-56.1	-57.9	19.7	0.00e+00	0	46	0	827326464	60	30734
2026-01-29 20:57:46.18	111.13	16.52	-56.2	-58.1	19.6	0.00e+00	0	46	0	829423616	60	31466
2026-01-29 20:57:47.19	111.32	16.47	-56.0	-57.7	19.7	0.00e+00	0	46	0	831520768	60	30231
2026-01-29 20:57:48.19	111.52	16.41	-56.1	-57.8	19.6	0.00e+00	0	46	0	833617920	60	30554
2026-01-29 20:57:49.19	111.71	16.36	-55.9	-57.6	19.8	0.00e+00	0	46	0	834666496	60	29651
2026-01-29 20:57:50.20	111.91	16.30	-55.7	-57.4	20.1	0.00e+00	0	46	0	836763648	60	28910
2026-01-29 20:57:51.21	112.11	16.25	-55.7	-57.3	20.3	0.00e+00	0	46	0	838860800	60	28802
2026-01-29 20:57:52.21	112.30	16.19	-55.6	-57.2	20.4	0.00e+00	0	46	0	840957952	60	28386
2026-01-29 20:57:53.22	112.49	16.14	-55.4	-57.0	20.5	0.00e+00	0	46	0	842006528	60	27726
2026-01-29 20:57:54.23	112.69	16.08	-55.2	-56.8	20.6	0.00e+00	0	46	0	844103680	60	27069
2026-01-29 20:57:55.23	112.88	16.03	-55.2	-56.8	20.7	0.00e+00	0	46	0	846200832	60	27163
2026-01-29 20:57:56.24	113.07	15.97	-55.3	-56.9	20.6	0.00e+00	0	46	0	848297984	60	27387
2026-01-29 20:57:57.25	113.26	15.92	-55.3	-56.8	20.6	0.00e+00	0	46	0	850395136	60	27153
2026-01-29 20:57:58.25	113.45	15.86	-55.2	-56.8	20.6	0.00e+00	0	46	0	851443712	60	27108
2026-01-29 20:57:59.25	113.64	15.81	-55.0	-56.6	20.7	0.00e+00	0	46	0	853540864	60	26376
2026-01-29 20:58:00.26	113.83	15.75	-55.1	-56.7	20.5	0.00e+00	0	46	0	855638016	60	26753
2026-01-29 20:58:01.26	114.02	15.69	-55.3	-56.8	20.4	0.00e+00	0	46	0	857735168	60	27238
2026-01-29 20:58:02.27	114.21	15.64	-55.4	-56.9	20.4	0.00e+00	0	46	0	859832320	60	27563
2026-01-29 20:58:03.28	114.39	15.58	-55.6	-57.3	19.8	0.00e+00	0	46	0	860880896	60	28618
2026-01-29 20:58:04.28	114.58	15.52	-55.9	-57.7	19.6	0.00e+00	0	46	0	862978048	60	29911
2026-01-29 20:58:05.28	114.76	15.47	-56.1	-58.0	19.3	0.00e+00	0	46	0	865075200	60	31057
2026-01-29 20:58:06.28	114.95	15.41	-56.2	-58.1	19.2	0.00e+00	0	46	0	867172352	60	31350
2026-01-29 20:58:07.28	115.13	15.35	-56.1	-57.9	19.3	0.00e+00	0	46	0	869269504	60	30881
2026-01-29 20:58:08.28	115.31	15.30	-55.9	-57.7	19.4	0.00e+00	0	46	0	870318080	60	30093
2026-01-29 20:58:09.29	115.50	15.24	-55.6	-57.2	20.0	0.00e+00	0	46	0	872415232	60	28537
2026-01-29 20:58:10.29	115.68	15.18	-55.5	-57.1	20.2	0.00e+00	0	46	0	874512384	60	28023
2026-01-29 20:58:11.30	115.86	15.12	-55.2	-56.7	20.5	0.00e+00	0	46	0	876609536	60	26854
2026-01-29 20:58:12.31	116.04	15.06	-55.0	-56.5	20.5	0.00e+00	0	46	0	878706688	60	26316
2026-01-29 20:58:13.31	116.22	15.01	-55.2	-56.8	20.5	0.00e+00	0	46	0	879755264	60	27035
2026-01-29 20:58:14.32	116.40	14.95	-55.2	-56.7	20.3	0.00e+00	0	46	0	881852416	60	26912
2026-01-29 20:58:15.33	116.58	14.89	-55.4	-57.0	20.2	0.00e+00	0	46	0	883949568	60	27587
2026-01-29 20:58:16.34	116.76	14.83	-55.5	-57.1	20.0	0.00e+00	0	46	0	886046720	60	27986
2026-01-29 20:58:17.34	116.93	14.77	-55.4	-57.0	20.2	0.00e+00	0	46	0	888143872	60	27603
2026-01-29 20:58:18.35	117.11	14.71	-55.3	-56.8	20.3	0.00e+00	0	46	0	889192448	60	27200
2026-01-29 20:58:19.36	117.29	14.66	-55.2	-56.7	20.4	0.00e+00	0	46	0	891289600	60	26738
2026-01-29 20:58:20.37	117.46	14.60	-55.0	-56.5	20.6	0.00e+00	0	46	0	893386752	60	26159
2026-01-29 20:58:21.37	117.64	14.54	-54.9	-56.4	20.6	0.00e+00	0	46	0	895483904	60	25838
2026-01-29 20:58:22.38	117.81	14.48	-55.0	-56.4	20.7	0.00e+00	0	46	0	897581056	60	25944
2026-01-29 20:58:23.38	117.98	14.42	-55.1	-56.6	20.4	0.00e+00	0	46	0	898629632	60	26540
2026-01-29 20:58:24.39	118.16	14.36	-55.2	-56.7	20.3	0.00e+00	0	46	0	900726784	60	26921
2026-01-29 20:58:25.39	118.33	14.30	-55.4	-57.0	20.1	0.00e+00	0	46	0	902823936	60	27740
2026-01-29 20:58:26.40	118.50	14.24	-55.4	-57.0	20.0	0.00e+00	0	46	0	904921088	60	27766
2026-01-29 20:58:27.41	118.67	14.18	-55.3	-56.9	20.1	0.00e+00	0	46	0	907018240	60	27489
2026-01-29 20:58:28.41	118.84	14.12	-55.2	-56.8	20.2	0.00e+00	0	46	0	908066816	60	27032
2026-01-29 20:58:29.42	119.01	14.06	-55.0	-56.6	20.4	0.00e+00	0	46	0	910163968	60	26374
2026-01-29 20:58:30.42	119.18	14.00	-54.9	-56.4	20.7	0.00e+00	0	46	0	912261120	60	25798
2026-01-29 20:58:31.43	119.35	13.94	-54.9	-56.3	20.6	0.00e+00	0	46	0	914358272	60	25660
2026-01-29 20:58:32.44	119.51	13.88	-54.9	-56.4	20.6	0.00e+00	0	46	0	916455424	60	25790
2026-01-29 20:58:33.44	119.68	13.82	-55.0	-56.5	20.5	0.00e+00	0	46	0	917504000	60	26301
2026-01-29 20:58:34.45	119.85	13.76	-55.1	-56.6	20.3	0.00e+00	0	46	0	919601152	60	26515
2026-01-29 20:58:35.46	120.01	13.70	-55.3	-56.9	20.0	0.00e+00	0	46	0	921698304	60	27534
2026-01-29 20:58:36.47	120.18	13.64	-55.5	-57.1	19.9	0.00e+00	0	46	0	923795456	60	28203
2026-01-29 20:58:37.47	120.34	13.58	-55.5	-57.2	19.8	0.00e+00	0	46	0	925892608	60	28464
2026-01-29 20:58:38.48	120.51	13.52	-55.4	-57.0	20.0	0.00e+00	0	46	0	926941184	60	27771
2026-01-29 20:58:39.48	120.67	13.46	-55.2	-56.8	20.1	0.00e+00	0	46	0	929038336	60	27234
2026-01-29 20:58:40.48	120.83	13.40	-55.0	-56.5	20.4	0.00e+00	0	46	0	931135488	60	26229
2026-01-29 20:58:41.49	120.99	13.34	-54.7	-56.2	20.6	0.00e+00	0	46	0	933232640	60	25324
2026-01-29 20:58:42.49	121.15	13.28	-54.7	-56.2	20.6	0.00e+00	0	46	0	935329792	60	25215
2026-01-29 20:58:43.50	121.31	13.22	-54.8	-56.3	20.5	0.00e+00	0	46	0	936378368	60	25514
2026-01-29 20:58:44.51	121.47	13.16	-54.9	-56.4	20.5	0.00e+00	0	46	0	938475520	60	25971
2026-01-29 20:58:45.52	121.63	13.10	-55.0	-56.6	20.3	0.00e+00	0	46	0	940572672	60	26378
2026-01-29 20:58:46.52	121.79	13.04	-55.3	-56.9	20.1	0.00e+00	0	46	0	942669824	60	27513
2026-01-29 20:58:47.53	121.95	12.98	-55.4	-57.1	19.7	0.00e+00	0	46	0	944766976	60	28132
2026-01-29 20:58:48.54	122.10	12.91	-55.6	-57.3	19.6	0.00e+00	0	46	0	945815552	60	28700
2026-01-29 20:58:49.55	122.26	12.85	-55.8	-57.6	19.5	0.00e+00	0	46	0	947912704	60	29621
2026-01-29 20:58:50.55	122.42	12.79	-55.6	-57.4	19.6	0.00e+00	0	46	0	950009856	60	28901
2026-01-29 20:58:51.56	122.57	12.73	-55.4	-57.1	19.8	0.00e+00	0	46	0	952107008	60	28167
2026-01-29 20:58:52.56	122.73	12.67	-55.4	-57.1	19.9	0.00e+00	0	46	0	954204160	60	27951
2026-01-29 20:58:53.56	122.88	12.61	-55.3	-56.9	20.0	0.00e+00	0	46	0	955252736	60	27477
2026-01-29 20:58:54.57	123.03	12.55	-55.2	-56.8	20.0	0.00e+00	0	46	0	957349888	60	27184
2026-01-29 20:58:55.58	123.19	12.49	-55.3	-56.9	19.9	0.00e+00	0	46	0	959447040	60	27405
2026-01-29 20:58:56.58	123.34	12.43	-55.4	-57.1	19.8	0.00e+00	0	46	0	961544192	60	27923
2026-01-29 20:58:57.59	123.49	12.37	-55.6	-57.3	19.6	0.00e+00	0	46	0	963641344	60	28768
2026-01-29 20:58:58.60	123.64	12.30	-55.6	-57.3	19.5	0.00e+00	0	46	0	964689920	60	28827
2026-01-29 20:58:59.60	123.79	12.24	-55.6	-57.5	19.3	0.00e+00	0	46	0	966787072	60	29216
2026-01-29 20:59:00.61	123.94	12.18	-55.7	-57.5	19.4	0.00e+00	0	46	0	968884224	60	29270
2026-01-29 20:59:01.62	124.09	12.12	-55.6	-57.5	19.3	0.00e+00	0	46	0	970981376	60	29234
2026-01-29 20:59:02.63	124.24	12.06	-55.5	-57.2	19.5	0.00e+00	0	46	0	973078528	60	28413
2026-01-29 20:59:03.63	124.39	12.00	-55.3	-57.0	19.8	0.00e+00	0	46	0	974127104	60	27672
2026-01-29 20:59:04.64	124.53	11.94	-55.2	-56.8	19.9	0.00e+00	0	46	0	976224256	60	27251
2026-01-29 20:59:05.65	124.68	11.87	-55.1	-56.7	20.0	0.00e+00	0	46	0	978321408	60	26853
2026-01-29 20:59:06.65	124.83	11.81	-55.1	-56.7	19.8	0.00e+00	0	46	0	980418560	60	26892
2026-01-29 20:59:07.66	124.97	11.75	-55.1	-56.8	20.0	0.00e+00	0	46	0	982515712	60	26954
2026-01-29 20:59:08.67	125.12	11.69	-55.2	-56.8	19.9	0.00e+00	0	46	0	983564288	60	27232
2026-01-29 20:59:09.68	125.26	11.63	-55.4	-57.0	19.7	0.00e+00	0	46	0	985661440	60	27889
2026-01-29 20:59:10.68	125.41	11.57	-55.5	-57.3	19.4	0.00e+00	0	46	0	987758592	60	28574
2026-01-29 20:59:11.68	125.55	11.51	-55.7	-57.5	19.2	0.00e+00	0	46	0	989855744	60	29287
2026-01-29 20:59:12.69	125.69	11.44	-55.8	-57.7	19.1	0.00e+00	0	46	0	991952896	60	29987
2026-01-29 20:59:13.70	125.84	11.38	-55.8	-57.6	19.2	0.00e+00	0	46	0	993001472	60	29816
2026-01-29 20:59:14.70	125.98	11.32	-55.8	-57.6	19.1	0.00e+00	0	46	0	995098624	60	29741
2026-01-29 20:59:15.71	126.12	11.26	-55.6	-57.4	19.4	0.00e+00	0	46	0	997195776	60	29070
2026-01-29 20:59:16.72	126.26	11.20	-55.5	-57.2	19.5	0.00e+00	0	46	0	999292928	60	28467
2026-01-29 20:59:17.73	126.40	11.14	-55.5	-57.2	19.5	0.00e+00	0	46	0	1001390080	60	28341
2026-01-29 20:59:18.73	126.54	11.08	-55.4	-57.1	19.6	0.00e+00	0	46	0	1002438656	60	28116
2026-01-29 20:59:19.74	126.68	11.01	-55.4	-57.1	19.6	0.00e+00	0	46	0	1004535808	60	28157
2026-01-29 20:59:20.75	126.81	10.95	-55.4	-57.1	19.5	0.00e+00	0	46	0	1006632960	60	28198
2026-01-29 20:59:21.76	126.95	10.89	-55.4	-57.2	19.5	0.00e+00	0	46	0	1008730112	60	28309
2026-01-29 20:59:22.77	127.09	10.83	-55.5	-57.3	19.3	0.00e+00	0	46	0	1010827264	60	28752
2026-01-29 20:59:23.77	127.23	10.77	-55.5	-57.4	19.2	0.00e+00	0	46	0	1011875840	60	28969
2026-01-29 20:59:24.78	127.36	10.71	-55.6	-57.5	19.1	0.00e+00	0	46	0	1013972992	60	29365
2026-01-29 20:59:25.78	127.50	10.65	-55.6	-57.5	19.1	0.00e+00	0	46	0	1016070144	60	29530
2026-01-29 20:59:26.79	127.63	10.58	-55.6	-57.5	19.1	0.00e+00	0	46	0	1018167296	60	29524
2026-01-29 20:59:27.79	127.77	10.52	-55.6	-57.5	19.2	0.00e+00	0	46	0	1020264448	60	29438
2026-01-29 20:59:28.80	127.90	10.46	-55.5	-57.4	19.2	0.00e+00	0	46	0	1021313024	60	29208
2026-01-29 20:59:29.81	128.03	10.40	-55.6	-57.5	19.2	0.00e+00	0	46	0	1023410176	60	29460
2026-01-29 20:59:30.82	128.17	10.34	-55.5	-57.4	19.2	0.00e+00	0	46	0	1025507328	60	29176
2026-01-29 20:59:31.82	128.30	10.28	-55.6	-57.5	19.1	0.00e+00	0	46	0	1027604480	60	29527
2026-01-29 20:59:32.83	128.43	10.22	-55.7	-57.6	19.0	0.00e+00	0	46	0	1029701632	60	29824
2026-01-29 20:59:33.84	128.56	10.16	-55.7	-57.6	18.9	0.00e+00	0	46	0	1030750208	60	29768
2026-01-29 20:59:34.85	128.69	10.09	-55.8	-57.8	18.8	0.00e+00	0	46	0	1032847360	60	30354
2026-01-29 20:59:35.86	128.82	10.03	-56.0	-58.0	18.6	0.00e+00	0	46	0	1034944512	60	31218
2026-01-29 20:59:36.87	128.95	9.97	-56.2	-58.3	18.4	0.00e+00	0	46	0	1037041664	60	32270
2026-01-29 20:59:37.88	129.08	9.91	-56.4	-58.5	18.2	0.00e+00	0	46	0	1039138816	60	32890
2026-01-29 20:59:38.88	129.21	9.85	-56.4	-58.5	18.2	0.00e+00	0	46	0	1040187392	60	32932
2026-01-29 20:59:39.89	129.34	9.79	-56.4	-58.6	18.1	0.00e+00	0	46	0	1042284544	60	33243
2026-01-29 20:59:40.89	129.47	9.73	-56.3	-58.5	18.1	0.00e+00	0	46	0	1044381696	60	32862
2026-01-29 20:59:41.90	129.59	9.67	-56.3	-58.4	18.2	0.00e+00	0	46	0	1046478848	60	32547
2026-01-29 20:59:42.90	129.72	9.61	-56.2	-58.3	18.3	0.00e+00	0	46	0	1048576000	60	32348
2026-01-29 20:59:43.91	129.85	9.54	-56.2	-58.3	18.4	0.00e+00	0	46	0	1049624576	60	32240
2026-01-29 20:59:44.91	129.97	9.48	-56.1	-58.2	18.4	0.00e+00	0	46	0	1051721728	60	31716
2026-01-29 20:59:45.92	130.10	9.42	-56.0	-58.0	18.6	0.00e+00	0	46	0	1053818880	60	31056
2026-01-29 20:59:46.93	130.22	9.36	-55.6	-57.6	19.0	0.00e+00	0	46	0	1055916032	60	29648
2026-01-29 20:59:47.94	130.34	9.30	-55.6	-57.6	18.9	0.00e+00	0	46	0	1058013184	60	29630
2026-01-29 20:59:48.95	130.47	9.24	-55.5	-57.5	18.8	0.00e+00	0	46	0	1059061760	60	29498
2026-01-29 20:59:49.96	130.59	9.18	-55.6	-57.6	18.7	0.00e+00	0	46	0	1061158912	60	29795
2026-01-29 20:59:50.96	130.71	9.12	-55.7	-57.8	18.5	0.00e+00	0	46	0	1063256064	60	30478
2026-01-29 20:59:51.97	130.84	9.06	-55.8	-57.9	18.3	0.00e+00	0	46	0	1065353216	60	30907
2026-01-29 20:59:52.98	130.96	9.00	-55.8	-58.1	18.2	0.00e+00	0	46	0	1067450368	60	31304
2026-01-29 20:59:53.99	131.08	8.94	-55.9	-58.1	18.1	0.00e+00	0	46	0	1068498944	60	31546
2026-01-29 20:59:54.99	131.20	8.87	-55.9	-58.1	18.1	0.00e+00	0	46	0	1070596096	60	31568
2026-01-29 20:59:56.00	131.32	8.81	-56.0	-58.2	18.1	0.00e+00	0	46	0	1072693248	60	31671
2026-01-29 20:59:57.00	131.44	8.75	-55.9	-58.0	18.3	0.00e+00	0	46	0	1074790400	60	31200
2026-01-29 20:59:58.01	131.56	8.69	-55.9	-58.0	18.2	0.00e+00	0	46	0	1076887552	60	31285
2026-01-29 20:59:59.01	131.68	8.63	-55.9	-58.1	18.1	0.00e+00	0	46	0	1077936128	60	31336
2026-01-29 21:00:00.02	131.79	8.57	-55.9	-58.1	18.1	0.00e+00	0	46	0	1080033280	60	31431
2026-01-29 21:00:01.02	131.91	8.51	-56.0	-58.2	18.0	0.00e+00	0	46	0	1082130432	60	31800
2026-01-29 21:00:02.02	132.03	8.45	-56.0	-58.3	17.9	0.00e+00	0	46	0	1084227584	60	32086
2026-01-29 21:00:03.02	132.14	8.39	-56.0	-58.3	17.7	0.00e+00	0	46	0	1086324736	60	32375
2026-01-29 21:00:04.03	132.26	8.33	-56.1	-58.5	17.5	0.00e+00	0	46	0	1087373312	60	33142
2026-01-29 21:00:05.03	132.38	8.27	-56.1	-58.6	17.6	0.00e+00	0	46	0	1089470464	60	33157
2026-01-29 21:00:06.04	132.49	8.21	-56.2	-58.7	17.4	0.00e+00	0	46	0	1091567616	60	33754
2026-01-29 21:00:07.05	132.61	8.15	-56.3	-58.7	17.3	0.00e+00	0	46	0	1093664768	60	33924
2026-01-29 21:00:08.06	132.72	8.09	-56.2	-58.7	17.4	0.00e+00	0	46	0	1095761920	60	33651
2026-01-29 21:00:09.06	132.84	8.03	-56.2	-58.7	17.3	0.00e+00	0	46	0	1096810496	60	33789
2026-01-29 21:00:10.07	132.95	7.97	-56.1	-58.6	17.4	0.00e+00	0	46	0	1098907648	60	33269
2026-01-29 21:00:11.07	133.06	7.91	-55.9	-58.4	17.5	0.00e+00	0	46	0	1101004800	60	32627
2026-01-29 21:00:12.07	133.17	7.85	-56.0	-58.5	17.4	0.00e+00	0	46	0	1103101952	60	32874
2026-01-29 21:00:13.08	133.29	7.79	-55.8	-58.3	17.4	0.00e+00	0	46	0	1104150528	60	32111
