passes_logs/2026/01/29/R3.2S-Naryan-Mar/R3.2S-Naryan-Mar__20260129_024645_FENGYUN_3E_rec.log

#Pass ID: 20260129_024645_FENGYUN 3E
#Satellite: FENGYUN 3E
#Configuration: FENGYUN 3E
#almurnet v.1.7.20240730
#Start time: 2026-01-29 02:46:48

#Version: 2.2.20231116
#Station: R3.2S-Naryan-Mar
#Location: 53.008057 lon 67.646978 lat
#TLE: 1 49008U 21062A   26027.83084825  .00000170  00000+0  10081-3 0  9997
#TLE: 2 49008  98.7501  32.8098 0002509 114.2687 245.8752 14.19888158236667

#Time	Az	El	Level	Level2	SNR	BER	BlckErr	Temp	State	Recorded	gain1	gain2
2026-01-29 02:46:48.26	20.54	0.13	-57.0	-71.2	3.3	8.41e-01	0	45	0	0	60	142062
2026-01-29 02:46:49.26	20.56	0.19	-59.8	-73.6	3.6	8.45e-01	0	45	104	0	60	187603
2026-01-29 02:46:50.27	20.58	0.25	-59.8	-73.5	3.6	8.44e-01	0	45	104	0	60	186388
2026-01-29 02:46:51.28	20.61	0.31	-60.3	-74.1	3.6	8.45e-01	0	45	104	0	60	197499
2026-01-29 02:46:52.29	20.63	0.37	-60.1	-73.8	3.6	8.45e-01	0	45	104	0	60	191313
2026-01-29 02:46:53.30	20.65	0.43	-60.6	-74.0	3.6	8.44e-01	0	45	104	0	60	195524
2026-01-29 02:46:54.30	20.68	0.49	-59.7	-73.9	3.6	8.45e-01	0	45	104	0	60	194946
2026-01-29 02:46:55.31	20.70	0.55	-60.1	-74.1	3.5	8.46e-01	0	45	104	0	60	199767
2026-01-29 02:46:56.32	20.73	0.61	-56.6	-73.1	3.6	8.45e-01	0	45	104	0	60	177787
2026-01-29 02:46:57.33	20.75	0.67	-58.0	-73.3	3.6	8.45e-01	0	45	104	0	60	181370
2026-01-29 02:46:58.33	20.77	0.73	-54.8	-73.5	3.6	8.45e-01	0	45	104	0	60	185524
2026-01-29 02:46:59.34	20.80	0.79	-57.0	-73.4	3.6	8.46e-01	0	45	104	0	60	184027
2026-01-29 02:47:00.35	20.82	0.85	-58.7	-73.1	3.6	8.44e-01	0	45	104	0	60	177224
2026-01-29 02:47:01.35	20.85	0.92	-57.3	-72.0	3.6	8.44e-01	0	45	104	0	60	155951
2026-01-29 02:47:02.36	20.87	0.98	-54.2	-69.6	3.6	8.46e-01	0	45	104	0	60	117717
2026-01-29 02:47:03.36	20.89	1.04	-47.8	-64.0	3.6	8.45e-01	0	45	104	0	60	62206
2026-01-29 02:47:04.37	20.92	1.10	-49.2	-66.2	3.6	8.45e-01	0	45	104	0	60	80364
2026-01-29 02:47:05.37	20.94	1.16	-49.3	-66.4	3.6	8.45e-01	0	45	104	0	60	81867
2026-01-29 02:47:06.38	20.97	1.22	-49.2	-66.5	3.6	8.47e-01	0	45	104	0	60	82583
2026-01-29 02:47:07.38	20.99	1.28	-49.2	-66.5	3.6	8.46e-01	0	45	104	0	60	82548
2026-01-29 02:47:08.39	21.02	1.34	-49.3	-66.5	3.6	8.46e-01	0	45	104	0	60	82801
2026-01-29 02:47:09.40	21.04	1.41	-49.3	-66.8	3.6	8.46e-01	0	46	104	0	60	85721
2026-01-29 02:47:10.41	21.07	1.47	-49.4	-66.9	3.6	8.45e-01	0	46	104	0	60	86527
2026-01-29 02:47:11.41	21.09	1.53	-49.3	-66.8	3.6	8.44e-01	0	45	104	0	60	85547
2026-01-29 02:47:12.42	21.12	1.59	-49.3	-66.6	3.6	8.44e-01	0	46	104	0	60	83637
2026-01-29 02:47:13.43	21.14	1.65	-49.2	-66.4	3.6	8.45e-01	0	46	104	0	60	82216
2026-01-29 02:47:14.44	21.17	1.72	-49.3	-66.5	3.6	8.46e-01	0	46	104	0	60	83095
2026-01-29 02:47:15.44	21.19	1.78	-49.3	-66.5	3.6	8.46e-01	0	46	104	0	60	83228
2026-01-29 02:47:16.45	21.22	1.84	-49.3	-66.6	3.6	8.46e-01	0	46	104	0	60	83763
2026-01-29 02:47:17.46	21.25	1.90	-49.6	-66.8	3.6	8.44e-01	0	46	104	0	60	85425
2026-01-29 02:47:18.47	21.27	1.97	-49.5	-67.0	3.6	8.44e-01	0	46	104	0	60	87217
2026-01-29 02:47:19.47	21.30	2.03	-49.5	-66.6	3.6	8.45e-01	0	46	104	0	60	84201
2026-01-29 02:47:20.48	21.32	2.09	-49.4	-66.6	3.6	8.46e-01	0	46	104	0	60	84136
2026-01-29 02:47:21.49	21.35	2.16	-49.3	-66.7	3.6	8.46e-01	0	46	104	0	60	84559
2026-01-29 02:47:22.50	21.38	2.22	-49.3	-66.6	3.6	8.45e-01	0	46	104	0	60	83998
2026-01-29 02:47:23.51	21.40	2.28	-49.5	-66.6	3.6	8.45e-01	0	46	104	0	60	84160
2026-01-29 02:47:24.51	21.43	2.35	-49.0	-66.8	3.6	8.45e-01	0	46	104	0	60	85590
2026-01-29 02:47:25.51	21.45	2.41	-48.9	-66.7	3.6	8.46e-01	0	46	104	0	60	84926
2026-01-29 02:47:26.52	21.48	2.48	-49.0	-66.8	3.6	8.45e-01	0	46	104	0	60	86016
2026-01-29 02:47:27.53	21.51	2.54	-48.9	-67.0	3.6	8.44e-01	0	46	104	0	60	87429
2026-01-29 02:47:28.54	21.53	2.60	-49.0	-66.8	3.6	8.45e-01	0	46	104	0	60	85358
2026-01-29 02:47:29.55	21.56	2.67	-49.0	-66.7	3.6	8.45e-01	0	46	104	0	60	84691
2026-01-29 02:47:30.55	21.59	2.73	-49.4	-66.7	3.6	8.46e-01	0	46	104	0	60	84726
2026-01-29 02:47:31.56	21.61	2.80	-49.4	-66.6	3.6	8.46e-01	0	46	104	0	60	83918
2026-01-29 02:47:32.57	21.64	2.86	-49.4	-66.7	3.6	8.45e-01	0	46	104	0	60	84975
2026-01-29 02:47:33.57	21.67	2.93	-49.5	-66.6	3.6	8.45e-01	0	46	104	0	60	84225
2026-01-29 02:47:34.58	21.70	2.99	-49.5	-66.7	3.6	8.45e-01	0	46	104	0	60	85099
2026-01-29 02:47:35.58	21.72	3.06	-49.5	-66.8	3.6	8.46e-01	0	46	104	0	60	85710
2026-01-29 02:47:36.59	21.75	3.12	-49.4	-66.8	3.6	8.45e-01	0	46	104	0	60	85234
2026-01-29 02:47:37.59	21.78	3.19	-49.5	-66.8	3.6	8.45e-01	0	46	104	0	60	85343
2026-01-29 02:47:38.60	21.81	3.26	-49.3	-66.8	3.6	8.45e-01	0	46	104	0	60	85462
2026-01-29 02:47:39.61	21.83	3.32	-49.3	-66.6	3.6	8.45e-01	0	46	104	0	60	84174
2026-01-29 02:47:40.61	21.86	3.39	-49.2	-66.6	3.6	8.45e-01	0	46	104	0	60	83464
2026-01-29 02:47:41.62	21.89	3.45	-49.3	-66.7	3.6	8.45e-01	0	46	104	0	60	84283
2026-01-29 02:47:42.63	21.92	3.52	-49.2	-66.6	3.6	8.46e-01	0	46	104	0	60	83763
2026-01-29 02:47:43.64	21.95	3.59	-49.2	-66.7	3.6	8.44e-01	0	46	104	0	60	84745
2026-01-29 02:47:44.65	21.97	3.65	-49.2	-66.6	3.6	8.45e-01	0	46	104	0	60	83461
2026-01-29 02:47:45.65	22.00	3.72	-49.2	-66.6	3.6	8.44e-01	0	46	104	0	60	83571
2026-01-29 02:47:46.66	22.03	3.79	-49.2	-66.5	3.6	8.45e-01	0	46	104	0	60	83241
2026-01-29 02:47:47.67	22.06	3.86	-49.5	-66.6	3.6	8.46e-01	0	46	104	0	60	84170
2026-01-29 02:47:48.67	22.09	3.92	-49.0	-66.7	3.6	8.44e-01	0	46	104	0	60	84465
2026-01-29 02:47:49.68	22.12	3.99	-48.8	-66.7	3.6	8.45e-01	0	46	104	0	60	84378
2026-01-29 02:47:50.68	22.15	4.06	-49.2	-66.6	3.6	8.45e-01	0	46	104	0	60	83591
2026-01-29 02:47:51.69	22.17	4.13	-49.4	-66.6	3.6	8.45e-01	0	46	104	0	60	83623
2026-01-29 02:47:52.69	22.20	4.19	-49.3	-66.7	3.6	8.46e-01	0	46	104	0	60	84934
2026-01-29 02:47:53.70	22.23	4.26	-49.4	-66.5	3.6	8.46e-01	0	46	104	0	60	82737
2026-01-29 02:47:54.70	22.26	4.33	-49.5	-66.5	3.6	8.45e-01	0	46	104	0	60	83087
2026-01-29 02:47:55.71	22.29	4.40	-49.4	-66.5	3.6	8.46e-01	0	46	104	0	60	83199
2026-01-29 02:47:56.72	22.32	4.47	-49.5	-66.5	3.6	8.44e-01	0	46	104	0	60	82554
2026-01-29 02:47:57.72	22.35	4.54	-49.5	-66.6	3.6	8.46e-01	0	46	104	0	60	83925
2026-01-29 02:47:58.73	22.38	4.61	-49.4	-66.6	3.6	8.45e-01	0	46	104	0	60	83945
2026-01-29 02:47:59.74	22.41	4.67	-49.5	-66.5	3.6	8.45e-01	0	46	104	0	60	82660
2026-01-29 02:48:00.75	22.44	4.74	-49.4	-66.6	3.6	8.45e-01	0	46	104	0	60	84067
2026-01-29 02:48:01.76	22.47	4.81	-49.3	-66.6	3.6	8.46e-01	0	46	104	0	60	83872
2026-01-29 02:48:02.76	22.50	4.88	-49.3	-66.3	3.6	8.45e-01	0	46	104	0	60	81381
2026-01-29 02:48:03.77	22.53	4.95	-49.3	-66.5	3.5	8.45e-01	0	46	104	0	60	83024
2026-01-29 02:48:04.78	22.56	5.02	-49.3	-66.7	3.6	8.45e-01	0	46	104	0	60	84266
2026-01-29 02:48:05.79	22.59	5.09	-49.2	-66.5	3.6	8.45e-01	0	46	104	0	60	82927
2026-01-29 02:48:06.79	22.62	5.16	-49.1	-66.6	3.6	8.46e-01	0	46	104	0	60	83376
2026-01-29 02:48:07.79	22.65	5.23	-49.1	-66.4	3.6	8.45e-01	0	46	104	0	60	82026
2026-01-29 02:48:08.79	22.69	5.31	-49.1	-66.6	3.6	8.44e-01	0	46	104	0	60	83765
2026-01-29 02:48:09.79	22.72	5.38	-49.0	-66.6	3.6	8.45e-01	0	46	104	0	60	83510
2026-01-29 02:48:10.79	22.75	5.45	-49.0	-66.5	3.6	8.45e-01	0	46	104	0	60	82842
2026-01-29 02:48:11.80	22.78	5.52	-49.1	-66.5	3.6	8.45e-01	0	46	104	0	60	82748
2026-01-29 02:48:12.81	22.81	5.59	-49.1	-66.5	3.6	8.44e-01	0	46	104	0	60	82660
2026-01-29 02:48:13.82	22.84	5.66	-49.2	-66.5	3.6	8.46e-01	0	46	104	0	60	82389
2026-01-29 02:48:14.82	22.87	5.73	-49.0	-66.5	3.6	8.45e-01	0	46	104	0	60	82624
2026-01-29 02:48:15.83	22.91	5.81	-49.1	-66.5	3.6	8.45e-01	0	46	104	0	60	82704
2026-01-29 02:48:16.83	22.94	5.88	-49.0	-66.5	3.6	8.46e-01	0	46	104	0	60	82380
2026-01-29 02:48:17.84	22.97	5.95	-49.0	-66.5	3.6	8.44e-01	0	46	104	0	60	82519
2026-01-29 02:48:18.85	23.00	6.02	-48.9	-66.5	3.6	8.46e-01	0	46	104	0	60	83105
2026-01-29 02:48:19.85	23.04	6.10	-54.9	-66.8	3.6	8.46e-01	0	46	104	0	60	85900
2026-01-29 02:48:20.86	23.07	6.17	-53.7	-65.7	3.6	8.46e-01	0	46	104	0	60	75127
2026-01-29 02:48:21.86	23.10	6.24	-47.3	-63.8	3.5	8.46e-01	0	46	104	0	60	60453
2026-01-29 02:48:22.86	23.13	6.32	-50.9	-65.1	3.6	8.45e-01	0	46	104	0	60	70730
2026-01-29 02:48:23.87	23.17	6.39	-46.9	-64.6	3.6	8.45e-01	0	46	104	0	60	66549
2026-01-29 02:48:24.87	23.20	6.46	-49.0	-65.5	3.6	8.46e-01	0	46	104	0	60	73902
2026-01-29 02:48:25.88	23.23	6.54	-48.7	-65.0	3.6	8.47e-01	0	46	104	0	60	69901
2026-01-29 02:48:26.89	23.27	6.61	-48.9	-64.9	3.6	8.45e-01	0	46	104	0	60	68891
2026-01-29 02:48:27.90	23.30	6.69	-52.5	-64.7	3.6	8.46e-01	0	46	104	0	60	67140
2026-01-29 02:48:28.91	23.33	6.76	-48.1	-67.4	3.6	8.43e-01	0	46	104	0	60	91445
2026-01-29 02:48:29.91	23.37	6.84	-45.3	-62.3	3.6	8.45e-01	0	46	104	0	60	51211
2026-01-29 02:48:30.92	23.40	6.91	-52.2	-66.9	3.6	8.45e-01	0	46	104	0	60	87035
2026-01-29 02:48:31.92	23.44	6.99	-51.1	-64.3	3.6	8.46e-01	0	46	104	0	60	64175
2026-01-29 02:48:32.93	23.47	7.06	-50.5	-64.1	3.6	8.46e-01	0	46	104	0	60	62684
2026-01-29 02:48:33.94	23.51	7.14	-50.4	-63.8	3.6	8.45e-01	0	46	104	0	60	60893
2026-01-29 02:48:34.94	23.54	7.21	-50.9	-63.8	3.6	8.45e-01	0	46	104	0	60	60405
2026-01-29 02:48:35.95	23.58	7.29	-48.4	-66.5	3.6	8.45e-01	0	46	104	0	60	82607
2026-01-29 02:48:36.96	23.61	7.37	-56.6	-70.6	3.6	8.45e-01	0	46	104	0	60	132104
2026-01-29 02:48:37.96	23.65	7.44	-48.2	-62.5	3.6	8.45e-01	0	46	104	0	60	52497
2026-01-29 02:48:38.97	23.68	7.52	-52.2	-65.8	3.6	8.45e-01	0	46	104	0	60	76091
2026-01-29 02:48:39.98	23.72	7.60	-51.4	-65.8	3.6	8.45e-01	0	46	104	0	60	76641
2026-01-29 02:48:40.99	23.75	7.68	-50.1	-64.0	3.6	8.45e-01	0	46	104	0	60	62333
2026-01-29 02:48:41.99	23.79	7.75	-49.7	-64.3	3.6	8.45e-01	0	46	104	0	60	64007
2026-01-29 02:48:42.99	23.82	7.83	-49.6	-64.6	3.6	8.45e-01	0	46	104	0	60	66416
2026-01-29 02:48:44.00	23.86	7.91	-51.3	-69.3	3.6	8.45e-01	0	46	104	0	60	113739
2026-01-29 02:48:45.00	23.90	7.99	-55.4	-70.7	3.6	8.45e-01	0	46	104	0	60	134873
2026-01-29 02:48:46.00	23.93	8.07	-46.9	-65.1	3.6	8.45e-01	0	46	104	0	60	70756
2026-01-29 02:48:47.00	23.97	8.14	-53.1	-66.4	3.6	8.44e-01	0	46	104	0	60	81576
2026-01-29 02:48:48.01	24.01	8.22	-51.6	-69.0	3.6	8.44e-01	0	46	104	0	60	110597
2026-01-29 02:48:49.02	24.04	8.30	-48.6	-67.8	3.6	8.46e-01	0	46	104	0	60	96238
2026-01-29 02:48:50.03	24.08	8.38	-49.0	-68.0	3.6	8.46e-01	0	46	104	0	60	98734
2026-01-29 02:48:51.03	24.12	8.46	-51.1	-68.6	3.6	8.45e-01	0	46	104	0	60	105444
2026-01-29 02:48:52.03	24.16	8.54	-51.9	-68.9	3.6	8.44e-01	0	46	104	0	60	109114
2026-01-29 02:48:53.04	24.19	8.62	-54.5	-69.3	3.6	8.45e-01	0	46	104	0	60	113827
2026-01-29 02:48:54.04	24.23	8.70	-56.5	-70.3	3.6	8.45e-01	0	46	104	0	60	128373
2026-01-29 02:48:55.05	24.27	8.78	-55.5	-69.6	3.6	8.45e-01	0	46	104	0	60	118190
2026-01-29 02:48:56.05	24.31	8.86	-52.2	-67.5	3.5	8.44e-01	0	46	104	0	60	92457
2026-01-29 02:48:57.05	24.35	8.94	-53.3	-69.2	3.6	8.45e-01	0	46	104	0	60	112386
2026-01-29 02:48:58.06	24.38	9.03	-54.4	-69.3	3.6	8.45e-01	0	46	104	0	60	114257
2026-01-29 02:48:59.07	24.42	9.11	-53.3	-68.4	3.6	8.46e-01	0	46	104	0	60	103158
2026-01-29 02:49:00.07	24.46	9.19	-53.8	-69.0	3.6	8.45e-01	0	46	104	0	60	110775
2026-01-29 02:49:01.08	24.50	9.27	-53.4	-69.3	3.6	8.45e-01	0	46	104	0	60	113835
2026-01-29 02:49:02.08	24.54	9.36	-55.6	-71.4	3.6	8.44e-01	0	46	104	0	60	145987
2026-01-29 02:49:03.09	24.58	9.44	-55.1	-70.0	3.6	8.46e-01	0	46	104	0	60	124199
2026-01-29 02:49:04.09	24.62	9.52	-48.3	-64.9	3.5	8.46e-01	0	46	104	0	60	68553
2026-01-29 02:49:05.09	24.66	9.60	-55.0	-70.7	3.6	8.45e-01	0	46	104	0	60	134295
2026-01-29 02:49:06.10	24.70	9.69	-51.9	-67.3	3.6	8.46e-01	0	46	104	0	60	90326
2026-01-29 02:49:07.11	24.74	9.77	-51.0	-66.5	3.6	8.45e-01	0	46	104	0	60	82423
2026-01-29 02:49:08.12	24.78	9.86	-51.3	-66.8	3.6	8.45e-01	0	46	104	0	60	85256
2026-01-29 02:49:09.12	24.82	9.94	-49.3	-66.0	3.6	8.45e-01	0	47	104	0	60	77810
2026-01-29 02:49:10.13	24.86	10.03	-54.6	-71.6	3.6	8.47e-01	0	46	104	0	60	149760
2026-01-29 02:49:11.14	24.91	10.11	-53.4	-68.3	3.6	8.45e-01	0	46	104	0	60	102456
2026-01-29 02:49:12.15	24.95	10.20	-49.7	-65.7	3.6	8.46e-01	0	46	104	0	60	75915
2026-01-29 02:49:13.15	24.99	10.28	-56.0	-70.0	3.6	8.45e-01	0	46	104	0	60	123930
2026-01-29 02:49:14.15	25.03	10.37	-51.5	-67.5	3.6	8.45e-01	0	46	104	0	60	93141
2026-01-29 02:49:15.15	25.07	10.45	-49.8	-66.3	3.6	8.47e-01	0	46	104	0	60	80486
2026-01-29 02:49:16.16	25.12	10.54	-50.7	-66.9	3.6	8.45e-01	0	46	104	0	60	86555
2026-01-29 02:49:17.17	25.16	10.63	-53.8	-71.9	3.6	8.46e-01	0	46	104	0	60	153928
2026-01-29 02:49:18.17	25.20	10.71	-55.0	-71.6	3.6	8.46e-01	0	46	104	0	60	149816
2026-01-29 02:49:19.18	25.24	10.80	-54.7	-71.4	3.6	8.46e-01	0	47	104	0	60	145421
2026-01-29 02:49:20.19	25.29	10.89	-53.5	-71.6	3.6	8.45e-01	0	46	104	0	60	149138
2026-01-29 02:49:21.19	25.33	10.98	-55.8	-70.9	3.6	8.45e-01	0	46	104	0	60	137733
2026-01-29 02:49:22.19	25.38	11.06	-55.3	-71.4	3.6	8.45e-01	0	46	104	0	60	146020
2026-01-29 02:49:23.20	25.42	11.15	-56.4	-71.4	3.6	8.44e-01	0	46	104	0	60	145176
2026-01-29 02:49:24.21	25.46	11.24	-56.9	-71.2	3.6	8.45e-01	0	46	104	0	60	141978
2026-01-29 02:49:25.21	25.51	11.33	-53.8	-71.7	3.6	8.46e-01	0	46	104	0	60	151363
2026-01-29 02:49:26.22	25.55	11.42	-54.5	-71.4	3.6	8.46e-01	0	46	104	0	60	146283
2026-01-29 02:49:27.22	25.60	11.51	-56.4	-70.6	3.5	8.44e-01	0	46	104	0	60	132604
2026-01-29 02:49:28.23	25.64	11.60	-55.0	-72.2	3.6	8.46e-01	0	46	104	0	60	158711
2026-01-29 02:49:29.23	25.69	11.69	-54.7	-71.4	3.6	8.46e-01	0	46	104	0	60	146096
2026-01-29 02:49:30.24	25.73	11.78	-54.2	-70.8	3.6	8.45e-01	0	46	104	0	60	135621
2026-01-29 02:49:31.25	25.78	11.87	-53.6	-71.0	3.6	8.45e-01	0	46	104	0	60	138218
2026-01-29 02:49:32.25	25.83	11.96	-53.4	-71.0	3.6	8.46e-01	0	47	104	0	60	139457
2026-01-29 02:49:33.26	25.87	12.06	-58.3	-71.5	3.6	8.46e-01	0	46	104	0	60	148003
2026-01-29 02:49:34.26	25.92	12.15	-53.5	-71.9	3.6	8.45e-01	0	46	104	0	60	153365
2026-01-29 02:49:35.27	25.97	12.24	-54.4	-71.4	3.5	8.45e-01	0	47	104	0	60	146086
2026-01-29 02:49:36.27	26.01	12.33	-57.0	-71.1	3.6	8.44e-01	0	46	104	0	60	140804
2026-01-29 02:49:37.28	26.06	12.43	-55.4	-71.4	3.6	8.46e-01	0	46	104	0	60	145455
2026-01-29 02:49:38.29	26.11	12.52	-56.1	-70.7	3.6	8.44e-01	0	47	104	0	60	133558
2026-01-29 02:49:39.30	26.16	12.61	-56.1	-70.5	3.6	8.45e-01	0	46	104	0	60	131102
2026-01-29 02:49:40.31	26.21	12.71	-56.1	-70.6	3.6	8.46e-01	0	46	104	0	60	132579
2026-01-29 02:49:41.32	26.26	12.80	-52.9	-70.2	3.6	8.44e-01	0	46	104	0	60	127294
2026-01-29 02:49:42.33	26.31	12.90	-56.6	-70.1	3.6	8.44e-01	0	46	104	0	60	124799
2026-01-29 02:49:43.33	26.35	12.99	-52.8	-70.6	3.6	8.44e-01	0	47	104	0	60	133215
2026-01-29 02:49:44.34	26.40	13.09	-54.1	-71.6	3.6	8.44e-01	0	46	104	0	60	148974
2026-01-29 02:49:45.35	26.45	13.19	-56.0	-69.5	3.6	8.45e-01	0	46	104	0	60	116712
2026-01-29 02:49:46.36	26.50	13.28	-56.0	-69.7	3.6	8.45e-01	0	46	104	0	60	120089
2026-01-29 02:49:47.37	26.56	13.38	-55.3	-69.7	3.6	8.46e-01	0	46	104	0	60	120058
2026-01-29 02:49:48.38	26.61	13.48	-54.9	-69.7	3.6	8.44e-01	0	47	104	0	60	119059
2026-01-29 02:49:49.38	26.66	13.57	-51.1	-71.1	3.6	8.44e-01	0	46	104	0	60	140917
2026-01-29 02:49:50.39	26.71	13.67	-55.3	-71.1	3.6	8.46e-01	0	47	104	0	60	140339
2026-01-29 02:49:51.39	26.76	13.77	-55.3	-72.1	3.6	8.45e-01	0	46	104	0	60	157203
2026-01-29 02:49:52.40	26.81	13.87	-53.1	-72.1	3.6	8.45e-01	0	46	104	0	60	157018
2026-01-29 02:49:53.40	26.86	13.97	-55.7	-71.0	3.6	8.46e-01	0	46	104	0	60	138970
2026-01-29 02:49:54.40	26.92	14.07	-55.2	-71.2	3.6	8.46e-01	0	46	104	0	60	142334
2026-01-29 02:49:55.40	26.97	14.16	-56.3	-71.0	3.6	8.45e-01	0	46	104	0	60	139543
2026-01-29 02:49:56.41	27.02	14.27	-56.5	-70.8	3.6	8.44e-01	0	46	104	0	60	135108
2026-01-29 02:49:57.42	27.08	14.37	-53.1	-72.2	3.6	8.44e-01	0	46	104	0	60	159814
2026-01-29 02:49:58.43	27.13	14.47	-54.7	-72.0	3.6	8.45e-01	0	46	104	0	60	156090
2026-01-29 02:49:59.43	27.18	14.57	-53.3	-72.1	3.6	8.46e-01	0	46	104	0	60	158170
2026-01-29 02:50:00.44	27.24	14.67	-55.9	-71.8	3.6	8.45e-01	0	46	104	0	60	152067
2026-01-29 02:50:01.45	27.29	14.77	-52.6	-70.8	3.6	8.45e-01	0	46	104	0	60	136100
2026-01-29 02:50:02.46	27.35	14.88	-51.9	-71.4	3.6	8.44e-01	0	46	104	0	60	145419
2026-01-29 02:50:03.46	27.41	14.98	-52.9	-71.4	3.6	8.46e-01	0	46	104	0	60	146361
2026-01-29 02:50:04.47	27.46	15.08	-55.9	-70.9	3.6	8.46e-01	0	47	104	0	60	137702
2026-01-29 02:50:05.47	27.52	15.18	-54.2	-71.7	3.6	8.46e-01	0	46	104	0	60	150687
2026-01-29 02:50:06.47	27.57	15.29	-54.0	-72.0	3.6	8.45e-01	0	47	104	0	60	155484
2026-01-29 02:50:07.48	27.63	15.39	-55.6	-71.1	3.6	8.45e-01	0	47	104	0	60	141116
2026-01-29 02:50:08.49	27.69	15.50	-55.0	-71.4	3.6	8.47e-01	0	46	104	0	60	145727
2026-01-29 02:50:09.50	27.75	15.60	-51.3	-70.8	3.6	8.44e-01	0	46	104	0	60	136081
2026-01-29 02:50:10.51	27.81	15.71	-51.1	-70.7	3.6	8.44e-01	0	46	104	0	60	134954
2026-01-29 02:50:11.52	27.86	15.82	-50.4	-70.6	3.6	8.45e-01	0	47	104	0	60	132915
2026-01-29 02:50:12.53	27.92	15.92	-48.8	-70.9	3.6	8.45e-01	0	47	104	0	60	136783
2026-01-29 02:50:13.53	27.98	16.03	-50.9	-71.2	3.6	8.45e-01	0	46	104	0	60	141510
2026-01-29 02:50:14.54	28.04	16.14	-51.2	-71.3	3.6	8.44e-01	0	46	104	0	60	144301
2026-01-29 02:50:15.55	28.10	16.25	-54.2	-71.0	3.6	8.45e-01	0	46	104	0	60	138250
2026-01-29 02:50:16.56	28.16	16.36	-56.3	-71.2	3.6	8.46e-01	0	46	104	0	60	142018
2026-01-29 02:50:17.57	28.23	16.47	-48.8	-70.2	3.6	8.45e-01	0	46	104	0	60	126992
2026-01-29 02:50:18.57	28.29	16.58	-49.8	-70.0	3.6	8.44e-01	0	46	104	0	60	124080
2026-01-29 02:50:19.58	28.35	16.69	-49.7	-69.8	3.6	8.44e-01	0	46	104	0	60	120760
2026-01-29 02:50:20.59	28.41	16.80	-51.9	-69.8	3.6	8.45e-01	0	46	104	0	60	121357
2026-01-29 02:50:21.59	28.47	16.91	-51.3	-70.7	3.6	8.45e-01	0	46	104	0	60	133797
2026-01-29 02:50:22.59	28.54	17.02	-52.1	-71.3	3.6	8.46e-01	0	46	104	0	60	144191
2026-01-29 02:50:23.60	28.60	17.13	-49.2	-71.8	3.6	8.44e-01	0	47	104	0	60	152813
2026-01-29 02:50:24.59	28.66	17.24	-52.9	-71.2	3.6	8.46e-01	0	46	104	0	60	141569
2026-01-29 02:50:25.60	28.73	17.35	-52.2	-70.4	3.6	8.46e-01	0	46	104	0	60	129212
2026-01-29 02:50:26.60	28.79	17.47	-51.8	-70.4	3.6	8.45e-01	0	46	104	0	60	130280
2026-01-29 02:50:27.61	28.86	17.58	-52.7	-70.4	3.6	8.45e-01	0	46	104	0	60	129735
2026-01-29 02:50:28.62	28.92	17.70	-52.0	-71.0	3.6	8.46e-01	0	46	104	0	60	138650
2026-01-29 02:50:29.63	28.99	17.81	-46.5	-71.9	3.6	8.45e-01	0	46	104	0	60	153982
2026-01-29 02:50:30.64	29.06	17.93	-48.0	-71.7	3.6	8.45e-01	0	46	104	0	60	150251
2026-01-29 02:50:31.65	29.13	18.04	-53.0	-70.3	3.6	8.44e-01	0	46	104	0	60	127542
2026-01-29 02:50:32.65	29.19	18.16	-48.7	-71.0	3.6	8.45e-01	0	46	104	0	60	139117
2026-01-29 02:50:33.66	29.26	18.28	-57.2	-70.2	3.6	8.45e-01	0	46	104	0	60	126094
2026-01-29 02:50:34.66	29.33	18.39	-57.5	-70.2	3.6	8.45e-01	0	46	104	0	60	126321
2026-01-29 02:50:35.67	29.40	18.51	-57.6	-70.2	3.6	8.44e-01	0	46	104	0	60	126627
2026-01-29 02:50:36.68	29.47	18.63	-46.9	-71.0	3.6	8.44e-01	0	46	104	0	60	139534
2026-01-29 02:50:37.68	29.54	18.75	-49.3	-71.8	3.6	8.45e-01	0	47	104	0	60	152758
2026-01-29 02:50:38.69	29.61	18.87	-55.8	-71.4	3.6	8.46e-01	0	46	104	0	60	144831
2026-01-29 02:50:39.70	29.68	18.99	-47.5	-71.8	3.6	8.46e-01	0	46	104	0	60	152943
2026-01-29 02:50:40.70	29.75	19.11	-50.3	-71.3	3.6	8.46e-01	0	46	104	0	60	144526
2026-01-29 02:50:41.71	29.83	19.23	-56.5	-70.3	3.6	8.44e-01	0	46	104	0	60	128389
2026-01-29 02:50:42.72	29.90	19.35	-55.9	-70.1	3.6	8.45e-01	0	46	104	0	60	124658
2026-01-29 02:50:43.72	29.97	19.47	-55.2	-69.9	3.7	8.44e-01	0	46	104	0	60	123095
2026-01-29 02:50:44.73	30.05	19.60	-47.2	-71.1	3.6	8.44e-01	0	46	104	0	60	140453
2026-01-29 02:50:45.74	30.12	19.72	-53.0	-71.8	3.6	8.45e-01	0	46	104	0	60	152723
2026-01-29 02:50:46.75	30.20	19.85	-49.1	-71.5	3.6	8.46e-01	0	46	104	0	60	147644
2026-01-29 02:50:47.76	30.27	19.97	-49.7	-71.9	3.6	8.45e-01	0	47	104	0	60	154924
2026-01-29 02:50:48.77	30.35	20.10	-52.6	-70.7	3.6	8.45e-01	0	46	104	0	60	133659
2026-01-29 02:50:49.77	30.42	20.22	-51.5	-70.6	3.6	8.44e-01	0	46	104	0	60	133274
2026-01-29 02:50:50.78	30.50	20.35	-51.6	-70.9	3.6	8.44e-01	0	46	104	0	60	137092
2026-01-29 02:50:51.79	30.58	20.48	-52.0	-70.6	3.6	8.45e-01	0	47	104	0	60	132605
2026-01-29 02:50:52.79	30.66	20.60	-52.7	-71.2	3.6	8.45e-01	0	47	104	0	60	141683
2026-01-29 02:50:53.80	30.74	20.73	-51.7	-72.6	3.6	8.45e-01	0	46	104	0	60	167127
2026-01-29 02:50:54.79	30.82	20.86	-50.2	-70.8	3.6	8.45e-01	0	46	104	0	60	136614
2026-01-29 02:50:55.79	30.90	20.99	-53.4	-70.6	3.6	8.45e-01	0	46	104	0	60	133112
2026-01-29 02:50:56.80	30.98	21.12	-52.5	-70.2	3.6	8.45e-01	0	46	104	0	60	126612
2026-01-29 02:50:57.80	31.06	21.25	-53.9	-70.0	3.6	8.45e-01	0	46	104	0	60	123869
2026-01-29 02:50:58.81	31.14	21.38	-51.5	-70.4	3.6	8.45e-01	0	46	104	0	60	129202
2026-01-29 02:50:59.81	31.23	21.51	-49.6	-70.4	3.6	8.44e-01	0	46	104	0	60	129916
2026-01-29 02:51:00.82	31.31	21.64	-53.3	-71.9	3.6	8.44e-01	0	46	104	0	60	153324
2026-01-29 02:51:01.83	31.39	21.78	-55.5	-72.1	3.6	8.44e-01	0	46	104	0	60	157060
2026-01-29 02:51:02.83	31.48	21.91	-55.2	-71.6	3.6	8.45e-01	0	46	104	0	60	149053
2026-01-29 02:51:03.84	31.57	22.05	-53.0	-70.9	3.6	8.44e-01	0	46	104	0	60	137705
2026-01-29 02:51:04.85	31.65	22.18	-55.7	-71.2	3.6	8.45e-01	0	46	104	0	60	141759
2026-01-29 02:51:05.86	31.74	22.32	-57.0	-71.1	3.6	8.45e-01	0	47	104	0	60	140764
2026-01-29 02:51:06.87	31.83	22.46	-54.4	-71.4	3.6	8.45e-01	0	47	104	0	60	146314
2026-01-29 02:51:07.88	31.92	22.59	-53.9	-70.8	3.6	8.44e-01	0	47	104	0	60	135695
2026-01-29 02:51:08.89	32.01	22.73	-58.5	-71.7	3.6	8.46e-01	0	47	104	0	60	150658
2026-01-29 02:51:09.89	32.10	22.87	-57.8	-69.9	3.6	8.45e-01	0	47	104	0	60	121994
2026-01-29 02:51:10.90	32.19	23.01	-55.0	-70.4	3.6	8.45e-01	0	47	104	0	60	129918
2026-01-29 02:51:11.91	32.28	23.15	-55.6	-70.7	3.6	8.45e-01	0	47	104	0	60	134803
2026-01-29 02:51:12.91	32.37	23.29	-58.5	-71.7	3.6	8.46e-01	0	47	104	0	60	150227
2026-01-29 02:51:13.92	32.47	23.43	-56.3	-71.1	3.6	8.46e-01	0	47	104	0	60	139832
2026-01-29 02:51:14.93	32.56	23.57	-56.7	-71.2	3.6	8.45e-01	0	46	104	0	60	142080
2026-01-29 02:51:15.93	32.66	23.72	-57.5	-71.3	3.6	8.45e-01	0	47	104	0	60	144332
2026-01-29 02:51:16.93	32.75	23.86	-55.8	-71.8	3.6	8.45e-01	0	46	104	0	60	152633
2026-01-29 02:51:17.94	32.85	24.00	-54.9	-70.7	3.6	8.46e-01	0	47	104	0	60	133809
2026-01-29 02:51:18.95	32.95	24.15	-58.6	-71.7	3.6	8.45e-01	0	47	104	0	60	150487
2026-01-29 02:51:19.96	33.05	24.29	-58.1	-71.4	3.6	8.46e-01	0	47	104	0	60	146121
2026-01-29 02:51:20.97	33.15	24.44	-53.6	-70.2	3.6	8.46e-01	0	47	104	0	60	126777
2026-01-29 02:51:21.97	33.24	24.59	-54.2	-70.0	3.6	8.44e-01	0	46	104	0	60	123924
2026-01-29 02:51:22.98	33.35	24.74	-53.5	-70.2	3.6	8.44e-01	0	47	104	0	60	126857
2026-01-29 02:51:23.99	33.45	24.89	-53.2	-70.3	3.6	8.46e-01	0	47	104	0	60	128758
2026-01-29 02:51:25.00	33.55	25.04	-58.3	-71.4	3.6	8.44e-01	0	47	104	0	60	145153
2026-01-29 02:51:26.00	33.66	25.18	-57.3	-71.2	3.6	8.45e-01	0	47	104	0	60	142134
2026-01-29 02:51:27.01	33.76	25.34	-58.1	-70.0	3.6	8.46e-01	0	47	104	0	60	123856
2026-01-29 02:51:28.02	33.87	25.49	-53.8	-71.6	3.6	8.45e-01	0	47	104	0	60	149598
2026-01-29 02:51:29.03	33.97	25.64	-56.0	-70.3	3.6	8.45e-01	0	47	104	0	60	128028
2026-01-29 02:51:30.03	34.08	25.79	-56.0	-69.6	3.7	8.45e-01	0	47	104	0	60	117930
2026-01-29 02:51:31.03	34.19	25.95	-57.3	-69.5	3.6	8.45e-01	0	47	104	0	60	116650
2026-01-29 02:51:32.03	34.30	26.10	-58.1	-69.3	3.6	8.45e-01	0	47	104	0	60	114291
2026-01-29 02:51:33.04	34.41	26.26	-57.7	-71.9	3.6	8.45e-01	0	47	104	0	60	154473
2026-01-29 02:51:34.04	34.52	26.41	-53.4	-72.2	3.6	8.46e-01	0	47	104	0	60	160356
2026-01-29 02:51:35.05	34.63	26.57	-56.9	-70.1	3.6	8.46e-01	0	47	104	0	60	125653
2026-01-29 02:51:36.06	34.75	26.73	-58.0	-70.4	3.6	8.44e-01	0	47	104	0	60	130183
2026-01-29 02:51:37.07	34.86	26.89	-53.7	-69.7	3.6	8.45e-01	0	47	104	0	60	119500
2026-01-29 02:51:38.08	34.98	27.05	-53.9	-69.7	3.6	8.44e-01	0	47	104	0	60	120374
2026-01-29 02:51:39.09	35.10	27.21	-54.0	-70.1	3.6	8.43e-01	0	47	104	0	60	125428
2026-01-29 02:51:40.09	35.22	27.37	-55.1	-70.4	3.7	8.44e-01	0	47	104	0	60	129311
2026-01-29 02:51:41.10	35.34	27.53	-56.6	-70.4	3.6	8.42e-01	0	47	104	0	60	130044
2026-01-29 02:51:42.11	35.46	27.70	-57.9	-69.8	3.6	8.44e-01	0	47	104	0	60	120411
2026-01-29 02:51:43.11	35.58	27.86	-57.9	-70.5	3.6	8.43e-01	0	47	104	0	60	131406
2026-01-29 02:51:44.12	35.70	28.02	-57.8	-70.6	3.7	8.44e-01	0	47	104	0	60	132680
2026-01-29 02:51:45.13	35.83	28.19	-58.0	-70.6	3.7	8.42e-01	0	46	104	0	60	132405
2026-01-29 02:51:46.13	35.95	28.36	-58.9	-70.6	3.7	8.44e-01	0	47	104	0	60	132105
2026-01-29 02:51:47.14	36.08	28.52	-57.2	-70.3	3.6	8.44e-01	0	47	104	0	60	128018
2026-01-29 02:51:48.14	36.21	28.69	-55.5	-70.5	3.7	8.43e-01	0	47	104	0	60	130599
2026-01-29 02:51:49.14	36.34	28.86	-54.1	-70.1	3.6	8.44e-01	0	47	104	0	60	124899
2026-01-29 02:51:50.15	36.47	29.03	-53.6	-70.3	3.6	8.44e-01	0	47	104	0	60	128896
2026-01-29 02:51:51.15	36.60	29.20	-52.9	-70.0	3.6	8.46e-01	0	46	104	0	60	123760
2026-01-29 02:51:52.16	36.73	29.37	-52.0	-69.9	3.7	8.44e-01	0	47	104	0	60	122236
2026-01-29 02:51:53.17	36.87	29.54	-51.4	-69.9	3.7	8.44e-01	0	47	104	0	60	122669
2026-01-29 02:51:54.17	37.01	29.72	-51.6	-70.0	3.7	8.45e-01	0	47	104	0	60	123775
2026-01-29 02:51:55.18	37.14	29.89	-53.2	-69.6	3.6	8.45e-01	0	47	104	0	60	117711
2026-01-29 02:51:56.19	37.28	30.07	-55.3	-70.0	3.7	8.44e-01	0	47	104	0	60	123196
2026-01-29 02:51:57.20	37.43	30.24	-55.9	-70.0	3.6	8.44e-01	0	47	104	0	60	123692
2026-01-29 02:51:58.21	37.57	30.42	-55.0	-69.9	3.6	8.44e-01	0	47	104	0	60	122968
2026-01-29 02:51:59.21	37.71	30.60	-55.2	-70.0	3.7	8.45e-01	0	46	104	0	60	124394
2026-01-29 02:52:00.22	37.86	30.78	-56.6	-69.9	3.7	8.43e-01	0	47	104	0	60	122780
2026-01-29 02:52:01.23	38.00	30.96	-58.0	-70.1	3.7	8.43e-01	0	46	104	0	60	125308
2026-01-29 02:52:02.23	38.15	31.14	-58.9	-70.2	3.7	8.44e-01	0	47	104	0	60	126265
2026-01-29 02:52:03.23	38.30	31.32	-58.9	-70.2	3.7	8.44e-01	0	47	104	0	60	126601
2026-01-29 02:52:04.24	38.45	31.50	-58.6	-70.3	3.6	8.44e-01	0	47	104	0	60	128182
2026-01-29 02:52:05.24	38.61	31.68	-58.3	-70.1	3.6	8.43e-01	0	47	104	0	60	125897
2026-01-29 02:52:06.25	38.76	31.87	-58.4	-70.2	3.6	8.44e-01	0	47	104	0	60	127016
2026-01-29 02:52:07.26	38.92	32.06	-58.6	-70.2	3.6	8.43e-01	0	47	104	0	60	127288
2026-01-29 02:52:08.26	39.08	32.24	-58.2	-70.3	3.8	8.41e-01	0	47	104	0	60	127784
2026-01-29 02:52:09.26	39.24	32.43	-57.1	-70.2	3.8	8.43e-01	0	47	104	0	60	126353
2026-01-29 02:52:10.27	39.40	32.62	-57.2	-70.2	3.8	8.43e-01	0	47	104	0	60	126162
2026-01-29 02:52:11.28	39.57	32.81	-57.7	-69.9	3.7	8.43e-01	0	47	104	0	60	121797
2026-01-29 02:52:12.29	39.73	33.00	-55.8	-70.0	3.8	8.42e-01	0	47	104	0	60	123796
2026-01-29 02:52:13.29	39.90	33.19	-53.3	-70.0	3.8	8.43e-01	0	47	104	0	60	123768
2026-01-29 02:52:14.30	40.07	33.38	-52.9	-70.0	3.8	8.44e-01	0	47	104	0	60	123932
2026-01-29 02:52:15.30	40.24	33.57	-54.2	-70.1	3.6	8.42e-01	0	47	104	0	60	125010
2026-01-29 02:52:16.30	40.41	33.76	-54.4	-68.3	3.7	8.42e-01	0	47	0	0	60	102460
2026-01-29 02:52:17.31	40.59	33.96	-53.9	-69.8	3.8	8.42e-01	0	47	104	0	60	120988
2026-01-29 02:52:18.32	40.77	34.16	-53.6	-69.7	3.7	8.42e-01	0	47	104	0	60	119207
2026-01-29 02:52:19.32	40.95	34.35	-54.1	-69.7	3.6	8.43e-01	0	47	104	0	60	120076
2026-01-29 02:52:20.33	41.13	34.55	-54.1	-69.6	3.7	8.43e-01	0	47	104	0	60	118668
2026-01-29 02:52:21.33	41.31	34.75	-53.3	-69.7	3.7	8.44e-01	0	47	104	0	60	119406
2026-01-29 02:52:22.33	41.50	34.95	-53.6	-69.7	3.8	8.43e-01	0	47	104	0	60	120012
2026-01-29 02:52:23.34	41.69	35.15	-55.5	-69.9	3.7	8.42e-01	0	47	104	0	60	122364
2026-01-29 02:52:24.35	41.88	35.35	-58.3	-70.0	3.6	8.43e-01	0	47	104	0	60	124214
2026-01-29 02:52:25.36	42.07	35.55	-59.0	-69.8	3.6	8.42e-01	0	47	104	0	60	121185
2026-01-29 02:52:26.37	42.27	35.76	-58.1	-70.2	3.8	8.43e-01	0	47	104	0	60	126726
2026-01-29 02:52:27.37	42.47	35.96	-57.4	-70.3	3.8	8.43e-01	0	47	104	0	60	128935
2026-01-29 02:52:28.38	42.67	36.17	-57.2	-70.2	3.8	8.43e-01	0	47	104	0	60	126531
2026-01-29 02:52:29.39	42.87	36.37	-57.5	-70.1	3.7	8.44e-01	0	47	104	0	60	125186
2026-01-29 02:52:30.40	43.08	36.58	-57.9	-69.9	3.8	8.44e-01	0	47	104	0	60	122962
2026-01-29 02:52:31.40	43.29	36.79	-58.1	-70.0	3.7	8.41e-01	0	47	104	0	60	123500
2026-01-29 02:52:32.41	43.50	37.00	-58.0	-68.9	3.5	8.42e-01	0	47	0	0	60	109319
2026-01-29 02:52:33.42	43.71	37.21	-57.8	-70.0	3.7	8.43e-01	0	47	104	0	60	123664
2026-01-29 02:52:34.43	43.93	37.42	-57.9	-70.0	3.8	8.44e-01	0	47	104	0	60	124533
2026-01-29 02:52:35.43	44.15	37.63	-58.0	-70.2	3.7	8.44e-01	0	47	104	0	60	126131
2026-01-29 02:52:36.43	44.37	37.84	-57.6	-70.0	3.8	8.44e-01	0	47	104	0	60	124178
2026-01-29 02:52:37.44	44.59	38.06	-57.5	-69.9	3.8	8.44e-01	0	47	104	0	60	122290
2026-01-29 02:52:38.45	44.82	38.27	-58.3	-69.9	3.7	8.44e-01	0	47	104	0	60	122335
2026-01-29 02:52:39.45	45.05	38.49	-58.9	-70.0	3.7	8.44e-01	0	47	104	0	60	123271
2026-01-29 02:52:40.46	45.28	38.70	-59.0	-69.9	3.7	8.44e-01	0	47	104	0	60	122291
2026-01-29 02:52:41.47	45.52	38.92	-58.9	-69.8	3.7	8.44e-01	0	47	104	0	60	121463
2026-01-29 02:52:42.48	45.76	39.14	-58.9	-69.9	3.7	8.46e-01	0	47	104	0	60	122600
2026-01-29 02:52:43.49	46.01	39.36	-58.4	-69.9	3.6	8.45e-01	0	47	104	0	60	122455
2026-01-29 02:52:44.49	46.25	39.58	-58.5	-70.0	3.6	8.44e-01	0	47	104	0	60	123188
2026-01-29 02:52:45.50	46.50	39.80	-58.8	-69.9	3.7	8.44e-01	0	47	104	0	60	122822
2026-01-29 02:52:46.51	46.76	40.02	-59.0	-70.0	3.6	8.44e-01	0	47	104	0	60	124568
2026-01-29 02:52:47.52	47.01	40.24	-59.2	-70.1	3.6	8.44e-01	0	47	104	0	60	125735
2026-01-29 02:52:48.53	47.27	40.47	-59.2	-70.3	3.6	8.45e-01	0	47	104	0	60	128152
2026-01-29 02:52:49.53	47.54	40.69	-59.2	-70.1	3.6	8.43e-01	0	46	104	0	60	126008
2026-01-29 02:52:50.54	47.80	40.91	-59.3	-70.1	3.6	8.43e-01	0	47	104	0	60	125113
2026-01-29 02:52:51.54	48.07	41.14	-59.0	-69.7	3.6	8.43e-01	0	47	104	0	60	119488
2026-01-29 02:52:52.54	48.35	41.36	-58.6	-70.1	3.8	8.43e-01	0	47	104	0	60	125240
2026-01-29 02:52:53.55	48.62	41.59	-59.1	-69.9	3.7	8.43e-01	0	47	104	0	60	122579
2026-01-29 02:52:54.55	48.90	41.81	-59.1	-70.0	3.8	8.43e-01	0	47	104	0	60	123520
2026-01-29 02:52:55.56	49.19	42.04	-58.8	-70.0	3.8	8.43e-01	0	47	104	0	60	123308
2026-01-29 02:52:56.56	49.48	42.27	-59.0	-70.1	3.8	8.43e-01	0	47	104	0	60	124749
2026-01-29 02:52:57.57	49.77	42.50	-58.8	-69.9	3.8	8.42e-01	0	47	104	0	60	122312
2026-01-29 02:52:58.58	50.07	42.73	-58.4	-70.1	3.8	8.43e-01	0	47	104	0	60	125758
2026-01-29 02:52:59.59	50.38	42.96	-57.8	-70.0	3.8	8.41e-01	0	47	104	0	60	123313
2026-01-29 02:53:00.60	50.69	43.19	-58.1	-69.9	3.7	8.41e-01	0	47	104	0	60	122424
2026-01-29 02:53:01.61	51.00	43.42	-58.7	-69.9	3.7	8.40e-01	0	47	104	0	60	122816
2026-01-29 02:53:02.61	51.31	43.65	-58.7	-69.9	3.6	8.42e-01	0	47	104	0	60	122552
2026-01-29 02:53:03.61	51.63	43.89	-58.9	-70.1	3.7	8.43e-01	0	47	104	0	60	125621
2026-01-29 02:53:04.61	51.95	44.12	-59.3	-70.2	3.7	8.43e-01	0	47	104	0	60	127421
2026-01-29 02:53:05.62	52.28	44.35	-59.2	-70.2	3.7	8.44e-01	0	46	104	0	60	127348
2026-01-29 02:53:06.63	52.62	44.58	-59.1	-70.5	3.7	8.46e-01	0	46	104	0	60	130892
2026-01-29 02:53:07.64	52.96	44.82	-59.2	-70.4	3.6	8.44e-01	0	47	104	0	60	129528
2026-01-29 02:53:08.64	53.30	45.05	-59.3	-70.7	3.6	8.44e-01	0	47	104	0	60	134301
2026-01-29 02:53:09.65	53.65	45.29	-59.5	-70.7	3.6	8.44e-01	0	46	104	0	60	134708
2026-01-29 02:53:10.65	54.00	45.52	-59.5	-70.9	3.6	8.45e-01	0	47	104	0	60	137593
2026-01-29 02:53:11.66	54.36	45.75	-59.6	-70.9	3.6	8.44e-01	0	47	104	0	60	137976
2026-01-29 02:53:12.67	54.73	45.99	-59.7	-70.8	3.7	8.43e-01	0	46	104	0	60	135607
2026-01-29 02:53:13.68	55.10	46.23	-59.2	-70.6	3.8	8.44e-01	0	46	104	0	60	133128
2026-01-29 02:53:14.68	55.48	46.46	-58.6	-70.5	3.7	8.43e-01	0	46	104	0	60	131391
2026-01-29 02:53:15.69	55.86	46.69	-58.3	-70.4	3.8	8.45e-01	0	47	104	0	60	129472
2026-01-29 02:53:16.69	56.24	46.93	-58.4	-70.3	3.7	8.43e-01	0	47	104	0	60	128476
2026-01-29 02:53:17.70	56.64	47.16	-58.8	-70.5	3.6	8.44e-01	0	46	104	0	60	130903
2026-01-29 02:53:18.71	57.04	47.40	-59.2	-70.6	3.6	8.45e-01	0	47	104	0	60	133328
2026-01-29 02:53:19.72	57.44	47.63	-59.1	-70.6	3.7	8.43e-01	0	47	104	0	60	132277
2026-01-29 02:53:20.72	57.85	47.87	-59.1	-70.8	3.7	8.45e-01	0	47	104	0	60	135901
2026-01-29 02:53:21.73	58.27	48.10	-59.3	-70.8	3.7	8.44e-01	0	46	104	0	60	135582
2026-01-29 02:53:22.74	58.70	48.34	-59.5	-70.8	3.7	8.44e-01	0	47	104	0	60	135677
2026-01-29 02:53:23.74	59.12	48.57	-59.5	-71.0	3.7	8.45e-01	0	47	104	0	60	138218
2026-01-29 02:53:24.74	59.56	48.80	-59.3	-71.2	3.7	8.45e-01	0	46	104	0	60	141745
2026-01-29 02:53:25.75	60.00	49.03	-59.1	-71.2	3.6	8.43e-01	0	47	104	0	60	141674
2026-01-29 02:53:26.76	60.45	49.26	-59.3	-71.1	3.6	8.44e-01	0	46	104	0	60	140391
2026-01-29 02:53:27.76	60.90	49.49	-59.7	-71.1	3.6	8.45e-01	0	46	104	0	60	141307
2026-01-29 02:53:28.76	61.36	49.72	-59.6	-72.8	3.6	8.46e-01	0	47	104	0	60	170957
2026-01-29 02:53:29.77	61.84	49.95	-59.5	-73.0	3.6	8.46e-01	0	46	104	0	60	174951
2026-01-29 02:53:30.78	62.31	50.18	-59.7	-73.6	3.6	8.45e-01	0	46	104	0	60	187646
2026-01-29 02:53:31.78	62.80	50.41	-59.1	-72.4	3.6	8.46e-01	0	47	104	0	60	163486
2026-01-29 02:53:32.79	63.29	50.64	-59.4	-71.6	3.6	8.44e-01	0	47	104	0	60	148587
2026-01-29 02:53:33.80	63.79	50.86	-59.2	-71.8	3.6	8.45e-01	0	47	104	0	60	153206
2026-01-29 02:53:34.81	64.30	51.09	-59.5	-72.0	3.6	8.45e-01	0	47	104	0	60	155982
2026-01-29 02:53:35.81	64.81	51.31	-59.7	-72.2	3.6	8.45e-01	0	47	104	0	60	159490
2026-01-29 02:53:36.82	65.33	51.53	-59.4	-72.9	3.6	8.45e-01	0	47	104	0	60	172788
2026-01-29 02:53:37.83	65.86	51.75	-58.9	-72.9	3.6	8.46e-01	0	47	104	0	60	172770
2026-01-29 02:53:38.83	66.40	51.97	-58.9	-72.4	3.6	8.45e-01	0	47	104	0	60	163562
2026-01-29 02:53:39.84	66.94	52.19	-59.9	-73.3	3.6	8.45e-01	0	47	104	0	60	180190
2026-01-29 02:53:40.84	67.49	52.40	-59.0	-72.8	3.6	8.46e-01	0	47	104	0	60	170569
2026-01-29 02:53:41.85	68.06	52.62	-58.7	-72.2	3.6	8.45e-01	0	47	104	0	60	159525
2026-01-29 02:53:42.85	68.62	52.83	-59.6	-72.7	3.6	8.44e-01	0	46	104	0	60	168845
2026-01-29 02:53:43.85	69.19	53.03	-59.8	-72.8	3.6	8.46e-01	0	47	104	0	60	170935
2026-01-29 02:53:44.85	69.78	53.24	-60.5	-73.9	3.6	8.46e-01	0	46	104	0	60	195184
2026-01-29 02:53:45.86	70.37	53.45	-60.4	-73.4	3.6	8.44e-01	0	47	104	0	60	184246
2026-01-29 02:53:46.86	70.97	53.65	-59.2	-73.7	3.6	8.46e-01	0	46	104	0	60	190011
2026-01-29 02:53:47.86	71.58	53.85	-60.0	-73.4	3.6	8.45e-01	0	47	104	0	60	183889
2026-01-29 02:53:48.87	72.20	54.05	-60.0	-73.0	3.6	8.44e-01	0	47	104	0	60	175747
2026-01-29 02:53:49.87	72.82	54.24	-60.2	-72.3	3.6	8.45e-01	0	47	104	0	60	161430
2026-01-29 02:53:50.88	73.46	54.44	-59.8	-72.5	3.6	8.45e-01	0	47	104	0	60	165731
2026-01-29 02:53:51.88	74.10	54.63	-60.2	-72.4	3.6	8.45e-01	0	47	104	0	60	164098
2026-01-29 02:53:52.89	74.75	54.81	-59.7	-73.3	3.6	8.46e-01	0	47	104	0	60	182006
2026-01-29 02:53:53.89	75.41	55.00	-59.8	-73.4	3.6	8.45e-01	0	47	104	0	60	182865
2026-01-29 02:53:54.90	76.08	55.18	-60.2	-73.8	3.6	8.45e-01	0	47	104	0	60	192538
2026-01-29 02:53:55.91	76.76	55.36	-58.9	-74.0	3.6	8.45e-01	0	47	104	0	60	196775
2026-01-29 02:53:56.92	77.45	55.53	-60.0	-73.4	3.6	8.45e-01	0	47	104	0	60	184048
2026-01-29 02:53:57.92	78.14	55.70	-60.0	-72.8	3.6	8.44e-01	0	47	104	0	60	170096
2026-01-29 02:53:58.92	78.84	55.87	-60.0	-73.3	3.6	8.46e-01	0	47	104	0	60	181038
2026-01-29 02:53:59.93	79.56	56.04	-59.3	-73.4	3.6	8.46e-01	0	47	104	0	60	182231
2026-01-29 02:54:00.93	80.27	56.19	-58.8	-73.8	3.6	8.44e-01	0	47	104	0	60	191829
2026-01-29 02:54:01.94	81.01	56.35	-59.4	-73.7	3.6	8.46e-01	0	47	104	0	60	190462
2026-01-29 02:54:02.94	81.74	56.50	-59.1	-73.7	3.6	8.45e-01	0	47	104	0	60	190648
2026-01-29 02:54:03.95	82.48	56.65	-59.6	-73.9	3.6	8.46e-01	0	47	104	0	60	193792
2026-01-29 02:54:04.95	83.23	56.79	-59.2	-73.9	3.6	8.46e-01	0	47	104	0	60	194805
2026-01-29 02:54:05.96	84.00	56.93	-60.0	-73.9	3.6	8.45e-01	0	47	104	0	60	194661
2026-01-29 02:54:06.97	84.77	57.07	-59.1	-73.9	3.6	8.45e-01	0	46	104	0	60	193853
2026-01-29 02:54:07.98	85.54	57.20	-60.3	-74.1	3.6	8.46e-01	0	47	104	0	60	198058
2026-01-29 02:54:08.99	86.33	57.33	-60.1	-74.0	3.6	8.44e-01	0	47	104	0	60	195558
2026-01-29 02:54:10.00	87.12	57.45	-60.7	-74.0	3.6	8.46e-01	0	47	104	0	60	196792
2026-01-29 02:54:11.01	87.92	57.57	-60.6	-73.9	3.6	8.46e-01	0	47	104	0	60	194917
2026-01-29 02:54:12.01	88.72	57.68	-61.0	-74.4	3.6	8.44e-01	0	47	104	0	60	205703
2026-01-29 02:54:13.02	89.53	57.78	-60.5	-74.3	3.6	8.45e-01	0	47	104	0	60	203393
2026-01-29 02:54:14.03	90.35	57.88	-60.6	-73.3	3.6	8.45e-01	0	47	104	0	60	181140
2026-01-29 02:54:15.03	91.17	57.98	-60.9	-73.8	3.6	8.46e-01	0	47	104	0	60	192272
2026-01-29 02:54:16.03	91.99	58.07	-60.6	-73.6	3.6	8.45e-01	0	46	104	0	60	187115
2026-01-29 02:54:17.03	92.82	58.15	-60.4	-74.0	3.6	8.46e-01	0	47	104	0	60	196985
2026-01-29 02:54:18.04	93.66	58.23	-60.8	-74.3	3.6	8.45e-01	0	47	104	0	60	202426
2026-01-29 02:54:19.05	94.51	58.31	-60.4	-73.8	3.6	8.46e-01	0	47	104	0	60	192443
2026-01-29 02:54:20.06	95.36	58.38	-60.9	-74.4	3.6	8.45e-01	0	47	104	0	60	206639
2026-01-29 02:54:21.07	96.21	58.44	-60.1	-73.9	3.6	8.45e-01	0	47	104	0	60	194345
2026-01-29 02:54:22.07	97.06	58.49	-60.6	-73.3	3.6	8.44e-01	0	47	104	0	60	181439
2026-01-29 02:54:23.08	97.93	58.55	-60.8	-74.3	3.6	8.46e-01	0	47	104	0	60	202829
2026-01-29 02:54:24.09	98.79	58.59	-60.7	-74.4	3.6	8.46e-01	0	47	104	0	60	205114
2026-01-29 02:54:25.10	99.66	58.63	-60.0	-73.9	3.6	8.45e-01	0	47	104	0	60	193902
2026-01-29 02:54:26.10	100.52	58.66	-59.0	-74.2	3.5	8.45e-01	0	47	104	0	60	200007
2026-01-29 02:54:27.11	101.39	58.69	-60.0	-73.4	3.6	8.45e-01	0	47	104	0	60	183464
2026-01-29 02:54:28.12	102.27	58.71	-59.9	-73.2	3.6	8.45e-01	0	47	104	0	60	178720
2026-01-29 02:54:29.12	103.13	58.73	-60.0	-73.5	3.6	8.45e-01	0	47	104	0	60	185855
2026-01-29 02:54:30.13	104.01	58.73	-59.8	-73.4	3.6	8.44e-01	0	47	104	0	60	183291
2026-01-29 02:54:31.13	104.88	58.74	-59.8	-73.3	3.6	8.45e-01	0	47	104	0	60	181024
2026-01-29 02:54:32.14	105.75	58.73	-59.8	-73.1	3.6	8.46e-01	0	47	104	0	60	176537
2026-01-29 02:54:33.15	106.63	58.72	-60.3	-73.7	3.6	8.44e-01	0	47	104	0	60	189659
2026-01-29 02:54:34.15	107.50	58.71	-59.8	-73.9	3.6	8.46e-01	0	47	104	0	60	194588
2026-01-29 02:54:35.16	108.37	58.69	-59.4	-73.1	3.6	8.45e-01	0	47	104	0	60	177108
2026-01-29 02:54:36.17	109.24	58.66	-58.9	-73.5	3.6	8.45e-01	0	47	104	0	60	186430
2026-01-29 02:54:37.17	110.11	58.63	-60.4	-73.8	3.6	8.46e-01	0	47	104	0	60	192361
2026-01-29 02:54:38.18	110.97	58.59	-59.9	-73.6	3.6	8.46e-01	0	47	104	0	60	186837
2026-01-29 02:54:39.19	111.84	58.54	-59.8	-74.1	3.6	8.46e-01	0	47	104	0	60	197887
2026-01-29 02:54:40.20	112.70	58.49	-59.5	-74.2	3.6	8.46e-01	0	47	104	0	60	200355
2026-01-29 02:54:41.21	113.56	58.43	-59.1	-74.2	3.6	8.46e-01	0	47	104	0	60	199955
2026-01-29 02:54:42.21	114.41	58.37	-58.9	-74.1	3.6	8.45e-01	0	47	104	0	60	199247
2026-01-29 02:54:43.22	115.26	58.30	-59.3	-74.2	3.6	8.46e-01	0	47	104	0	60	201358
2026-01-29 02:54:44.23	116.10	58.23	-59.1	-74.3	3.6	8.45e-01	0	47	104	0	60	203637
2026-01-29 02:54:45.23	116.94	58.15	-59.3	-74.1	3.6	8.46e-01	0	47	104	0	60	199212
2026-01-29 02:54:46.24	117.77	58.06	-59.3	-74.4	3.6	8.45e-01	0	47	104	0	60	206437
2026-01-29 02:54:47.25	118.61	57.97	-59.1	-74.3	3.6	8.45e-01	0	47	104	0	60	203095
2026-01-29 02:54:48.25	119.42	57.88	-59.5	-74.5	3.6	8.45e-01	0	47	104	0	60	209194
2026-01-29 02:54:49.25	120.23	57.78	-59.2	-73.9	3.6	8.45e-01	0	47	104	0	60	193419
2026-01-29 02:54:50.26	121.05	57.67	-59.4	-73.7	3.6	8.44e-01	0	47	104	0	60	190456
2026-01-29 02:54:51.26	121.85	57.56	-59.5	-74.0	3.6	8.46e-01	0	47	104	0	60	195747
2026-01-29 02:54:52.26	122.64	57.44	-59.6	-73.8	3.6	8.46e-01	0	46	104	0	60	190930
2026-01-29 02:54:53.27	123.43	57.32	-60.5	-74.1	3.6	8.46e-01	0	47	104	0	60	198431
2026-01-29 02:54:54.27	124.21	57.19	-59.8	-74.1	3.6	8.45e-01	0	47	104	0	60	199542
2026-01-29 02:54:55.27	124.98	57.06	-60.5	-74.1	3.6	8.45e-01	0	47	104	0	60	199338
2026-01-29 02:54:56.28	125.75	56.93	-60.4	-74.4	3.6	8.45e-01	0	47	104	0	60	204577
2026-01-29 02:54:57.29	126.51	56.79	-60.6	-74.0	3.6	8.45e-01	0	47	104	0	60	196717
2026-01-29 02:54:58.30	127.27	56.64	-61.0	-74.3	3.6	8.46e-01	0	47	104	0	60	204299
2026-01-29 02:54:59.31	128.02	56.49	-60.6	-74.3	3.6	8.44e-01	0	47	104	0	60	203061
2026-01-29 02:55:00.31	128.75	56.34	-61.1	-74.5	3.6	8.46e-01	0	47	104	0	60	207399
2026-01-29 02:55:01.32	129.48	56.18	-61.2	-74.2	3.6	8.46e-01	0	47	104	0	60	200824
2026-01-29 02:55:02.33	130.21	56.02	-61.3	-74.4	3.6	8.46e-01	0	47	104	0	60	206778
2026-01-29 02:55:03.34	130.92	55.86	-61.1	-74.4	3.6	8.46e-01	0	47	104	0	60	206366
2026-01-29 02:55:04.34	131.62	55.69	-61.2	-74.4	3.6	8.46e-01	0	46	104	0	60	204573
2026-01-29 02:55:05.35	132.32	55.52	-61.1	-73.9	3.6	8.46e-01	0	47	104	0	60	193221
2026-01-29 02:55:06.35	133.00	55.34	-61.0	-74.0	3.6	8.45e-01	0	47	104	0	60	196164
2026-01-29 02:55:07.35	133.68	55.17	-61.2	-74.4	3.6	8.45e-01	0	47	104	0	60	206665
2026-01-29 02:55:08.36	134.35	54.98	-61.1	-74.1	3.6	8.47e-01	0	47	104	0	60	198778
2026-01-29 02:55:09.37	135.01	54.80	-60.9	-73.4	3.6	8.45e-01	0	47	104	0	60	182717
2026-01-29 02:55:10.38	135.67	54.61	-60.9	-73.4	3.6	8.45e-01	0	47	104	0	60	183183
2026-01-29 02:55:11.38	136.31	54.42	-60.9	-73.6	3.6	8.45e-01	0	47	104	0	60	188150
2026-01-29 02:55:12.39	136.95	54.22	-61.0	-73.6	3.6	8.46e-01	0	47	104	0	60	187399
2026-01-29 02:55:13.40	137.58	54.03	-61.0	-73.5	3.6	8.45e-01	0	47	104	0	60	186342
2026-01-29 02:55:14.41	138.20	53.83	-61.0	-73.8	3.6	8.45e-01	0	47	104	0	60	192846
2026-01-29 02:55:15.42	138.81	53.62	-61.1	-73.8	3.6	8.46e-01	0	47	104	0	60	191951
2026-01-29 02:55:16.43	139.42	53.42	-61.1	-74.0	3.6	8.46e-01	0	47	104	0	60	197475
2026-01-29 02:55:17.43	140.01	53.21	-61.1	-74.0	3.6	8.45e-01	0	47	104	0	60	195331
2026-01-29 02:55:18.44	140.59	53.01	-61.1	-74.0	3.6	8.46e-01	0	47	104	0	60	196038
2026-01-29 02:55:19.45	141.17	52.79	-61.3	-74.0	3.6	8.45e-01	0	47	104	0	60	196693
2026-01-29 02:55:20.46	141.74	52.58	-61.4	-74.3	3.6	8.44e-01	0	47	104	0	60	203447
2026-01-29 02:55:21.47	142.31	52.36	-61.1	-74.2	3.5	8.46e-01	0	47	104	0	60	200576
2026-01-29 02:55:22.46	142.85	52.15	-61.2	-74.1	3.6	8.45e-01	0	47	104	0	60	197807
2026-01-29 02:55:23.47	143.40	51.93	-61.4	-74.2	3.6	8.45e-01	0	47	104	0	60	201464
2026-01-29 02:55:24.47	143.93	51.72	-61.3	-74.1	3.6	8.44e-01	0	47	104	0	60	199235
2026-01-29 02:55:25.48	144.46	51.49	-61.2	-74.2	3.6	8.45e-01	0	47	104	0	60	201434
2026-01-29 02:55:26.48	144.98	51.27	-61.2	-74.1	3.6	8.46e-01	0	47	104	0	60	198514
2026-01-29 02:55:27.49	145.50	51.05	-61.3	-74.1	3.6	8.45e-01	0	47	104	0	60	198339
2026-01-29 02:55:28.49	146.00	50.82	-61.3	-74.2	3.6	8.47e-01	0	47	104	0	60	201684
2026-01-29 02:55:29.50	146.50	50.60	-61.3	-74.1	3.6	8.45e-01	0	47	104	0	60	199312
2026-01-29 02:55:30.51	146.99	50.37	-61.2	-74.1	3.6	8.46e-01	0	47	104	0	60	198251
2026-01-29 02:55:31.52	147.48	50.14	-61.3	-74.1	3.6	8.46e-01	0	47	104	0	60	198750
2026-01-29 02:55:32.52	147.95	49.91	-61.3	-74.3	3.6	8.46e-01	0	47	104	0	60	202891
2026-01-29 02:55:33.53	148.42	49.68	-61.3	-74.2	3.6	8.44e-01	0	47	104	0	60	200239
2026-01-29 02:55:34.54	148.89	49.45	-61.2	-74.1	3.6	8.46e-01	0	47	104	0	60	199352
2026-01-29 02:55:35.55	149.35	49.22	-61.2	-74.2	3.6	8.46e-01	0	47	104	0	60	199993
2026-01-29 02:55:36.55	149.79	48.99	-61.2	-74.2	3.6	8.45e-01	0	47	104	0	60	200593
2026-01-29 02:55:37.56	150.24	48.75	-61.2	-74.2	3.6	8.46e-01	0	47	104	0	60	201805
2026-01-29 02:55:38.56	150.67	48.52	-61.1	-74.1	3.6	8.44e-01	0	47	104	0	60	199584
2026-01-29 02:55:39.56	151.10	48.29	-61.1	-74.0	3.6	8.45e-01	0	47	104	0	60	196078
2026-01-29 02:55:40.57	151.52	48.05	-61.1	-74.0	3.6	8.44e-01	0	47	104	0	60	197389
2026-01-29 02:55:41.58	151.94	47.82	-61.0	-73.9	3.6	8.45e-01	0	47	104	0	60	194276
2026-01-29 02:55:42.59	152.35	47.58	-61.0	-74.0	3.6	8.46e-01	0	47	104	0	60	195414
2026-01-29 02:55:43.60	152.76	47.34	-60.8	-73.8	3.6	8.46e-01	0	47	104	0	60	191157
2026-01-29 02:55:44.60	153.16	47.11	-60.9	-73.9	3.6	8.45e-01	0	47	104	0	60	193772
2026-01-29 02:55:45.61	153.55	46.87	-60.9	-73.9	3.6	8.46e-01	0	47	104	0	60	194800
2026-01-29 02:55:46.62	153.94	46.64	-60.8	-73.9	3.6	8.44e-01	0	47	104	0	60	194264
2026-01-29 02:55:47.62	154.32	46.40	-60.8	-73.7	3.6	8.44e-01	0	47	104	0	60	190001
2026-01-29 02:55:48.63	154.69	46.17	-60.8	-73.8	3.6	8.45e-01	0	47	104	0	60	191902
2026-01-29 02:55:49.63	155.06	45.93	-60.8	-73.8	3.6	8.46e-01	0	47	104	0	60	191285
2026-01-29 02:55:50.64	155.43	45.70	-60.8	-73.8	3.6	8.46e-01	0	47	104	0	60	191257
2026-01-29 02:55:51.64	155.79	45.46	-60.6	-73.3	3.6	8.45e-01	0	47	104	0	60	182012
2026-01-29 02:55:52.65	156.14	45.23	-60.6	-73.5	3.6	8.45e-01	0	47	104	0	60	184504
2026-01-29 02:55:53.66	156.49	44.99	-60.6	-73.7	3.6	8.46e-01	0	47	104	0	60	189436
2026-01-29 02:55:54.66	156.83	44.76	-60.6	-73.5	3.6	8.45e-01	0	47	104	0	60	185528
2026-01-29 02:55:55.66	157.17	44.52	-60.7	-73.6	3.6	8.45e-01	0	47	104	0	60	187645
2026-01-29 02:55:56.67	157.51	44.29	-60.7	-73.5	3.6	8.45e-01	0	47	104	0	60	186331
2026-01-29 02:55:57.68	157.84	44.05	-60.4	-73.4	3.6	8.45e-01	0	47	104	0	60	183801
2026-01-29 02:55:58.68	158.16	43.82	-60.4	-73.5	3.6	8.45e-01	0	47	104	0	60	185073
2026-01-29 02:55:59.69	158.48	43.59	-60.4	-73.4	3.6	8.46e-01	0	47	104	0	60	183163
2026-01-29 02:56:00.69	158.79	43.36	-60.2	-73.4	3.6	8.43e-01	0	47	104	0	60	182864
2026-01-29 02:56:01.70	159.11	43.12	-60.3	-73.5	3.6	8.46e-01	0	47	104	0	60	185379
2026-01-29 02:56:02.71	159.41	42.89	-60.3	-73.6	3.6	8.46e-01	0	47	104	0	60	186924
2026-01-29 02:56:03.71	159.71	42.66	-60.4	-73.4	3.6	8.45e-01	0	47	104	0	60	183453
2026-01-29 02:56:04.72	160.01	42.43	-60.3	-73.6	3.6	8.45e-01	0	47	104	0	60	186984
2026-01-29 02:56:05.72	160.31	42.20	-60.3	-73.6	3.6	8.46e-01	0	47	104	0	60	188205
2026-01-29 02:56:06.73	160.60	41.97	-60.4	-73.4	3.6	8.46e-01	0	47	104	0	60	184106
2026-01-29 02:56:07.74	160.88	41.74	-60.4	-73.3	3.6	8.44e-01	0	47	104	0	60	181046
2026-01-29 02:56:08.74	161.16	41.52	-60.3	-73.5	3.6	8.45e-01	0	47	104	0	60	184692
2026-01-29 02:56:09.74	161.44	41.29	-60.2	-73.4	3.6	8.45e-01	0	47	104	0	60	184145
2026-01-29 02:56:10.75	161.72	41.06	-60.3	-73.5	3.6	8.46e-01	0	47	104	0	60	184806
2026-01-29 02:56:11.75	161.98	40.84	-60.3	-73.2	3.6	8.44e-01	0	47	104	0	60	178816
2026-01-29 02:56:12.76	162.25	40.61	-60.2	-73.4	3.6	8.46e-01	0	47	104	0	60	183977
2026-01-29 02:56:13.76	162.51	40.39	-60.1	-73.4	3.6	8.44e-01	0	47	104	0	60	183758
2026-01-29 02:56:14.77	162.77	40.17	-60.2	-73.4	3.6	8.46e-01	0	47	104	0	60	182238
2026-01-29 02:56:15.77	163.03	39.94	-60.3	-73.2	3.6	8.45e-01	0	47	104	0	60	178800
2026-01-29 02:56:16.78	163.28	39.72	-60.2	-73.4	3.6	8.44e-01	0	47	104	0	60	182225
2026-01-29 02:56:17.79	163.53	39.50	-60.1	-73.3	3.6	8.45e-01	0	47	104	0	60	181518
2026-01-29 02:56:18.80	163.78	39.28	-60.2	-73.1	3.6	8.45e-01	0	47	104	0	60	178052
2026-01-29 02:56:19.81	164.02	39.06	-60.1	-73.1	3.6	8.45e-01	0	47	104	0	60	177319
2026-01-29 02:56:20.82	164.26	38.84	-60.2	-73.3	3.6	8.46e-01	0	47	104	0	60	181552
2026-01-29 02:56:21.82	164.50	38.62	-60.1	-73.4	3.6	8.44e-01	0	47	104	0	60	182656
2026-01-29 02:56:22.82	164.73	38.41	-60.1	-73.3	3.6	8.45e-01	0	47	104	0	60	180751
2026-01-29 02:56:23.83	164.96	38.19	-60.1	-73.1	3.6	8.45e-01	0	47	104	0	60	177139
2026-01-29 02:56:24.83	165.19	37.98	-59.9	-73.2	3.6	8.45e-01	0	47	104	0	60	179413
2026-01-29 02:56:25.84	165.41	37.76	-60.0	-73.2	3.6	8.45e-01	0	47	104	0	60	179856
2026-01-29 02:56:26.85	165.64	37.55	-59.9	-73.1	3.6	8.45e-01	0	47	104	0	60	176543
2026-01-29 02:56:27.85	165.85	37.34	-59.9	-72.9	3.6	8.45e-01	0	47	104	0	60	173880
2026-01-29 02:56:28.86	166.07	37.12	-59.9	-73.1	3.6	8.46e-01	0	47	104	0	60	177323
2026-01-29 02:56:29.86	166.28	36.91	-59.8	-73.2	3.6	8.46e-01	0	47	104	0	60	178823
2026-01-29 02:56:30.87	166.49	36.70	-59.9	-73.0	3.6	8.46e-01	0	47	104	0	60	175361
2026-01-29 02:56:31.88	166.70	36.49	-59.8	-72.8	3.6	8.44e-01	0	47	104	0	60	171994
2026-01-29 02:56:32.89	166.91	36.28	-59.8	-72.9	3.5	8.46e-01	0	47	104	0	60	173935
2026-01-29 02:56:33.89	167.11	36.08	-59.6	-73.0	3.6	8.43e-01	0	47	104	0	60	174414
2026-01-29 02:56:34.90	167.31	35.87	-59.7	-72.8	3.6	8.46e-01	0	47	104	0	60	170231
2026-01-29 02:56:35.91	167.51	35.67	-59.6	-72.7	3.6	8.44e-01	0	47	104	0	60	169429
2026-01-29 02:56:36.92	167.71	35.46	-59.7	-72.9	3.6	8.45e-01	0	47	104	0	60	173938
2026-01-29 02:56:37.93	167.90	35.26	-59.6	-72.9	3.6	8.45e-01	0	47	104	0	60	172782
2026-01-29 02:56:38.93	168.09	35.06	-59.7	-72.7	3.6	8.45e-01	0	47	104	0	60	169596
2026-01-29 02:56:39.94	168.28	34.85	-59.5	-72.8	3.6	8.45e-01	0	47	104	0	60	170221
2026-01-29 02:56:40.95	168.47	34.65	-59.7	-72.8	3.6	8.45e-01	0	47	104	0	60	171906
2026-01-29 02:56:41.96	168.65	34.45	-59.4	-72.8	3.6	8.45e-01	0	47	104	0	60	171773
2026-01-29 02:56:42.96	168.83	34.26	-59.6	-72.7	3.6	8.44e-01	0	47	104	0	60	168315
2026-01-29 02:56:43.97	169.01	34.06	-59.5	-72.6	3.6	8.46e-01	0	47	104	0	60	167910
2026-01-29 02:56:44.97	169.19	33.86	-59.4	-72.8	3.6	8.45e-01	0	47	104	0	60	170855
2026-01-29 02:56:45.97	169.37	33.67	-59.5	-72.7	3.6	8.45e-01	0	47	104	0	60	168441
2026-01-29 02:56:46.98	169.54	33.47	-59.5	-72.3	3.6	8.45e-01	0	47	104	0	60	160552
2026-01-29 02:56:47.99	169.71	33.28	-59.4	-72.5	3.6	8.46e-01	0	47	104	0	60	164751
2026-01-29 02:56:49.00	169.88	33.08	-59.4	-72.6	3.6	8.45e-01	0	47	104	0	60	167437
2026-01-29 02:56:50.01	170.05	32.89	-59.3	-72.6	3.6	8.46e-01	0	47	104	0	60	166977
2026-01-29 02:56:51.02	170.22	32.70	-59.5	-72.2	3.6	8.45e-01	0	47	104	0	60	159847
2026-01-29 02:56:52.02	170.38	32.51	-59.3	-72.5	3.6	8.46e-01	0	47	104	0	60	164444
2026-01-29 02:56:53.03	170.54	32.32	-59.4	-72.6	3.6	8.45e-01	0	47	104	0	60	167045
2026-01-29 02:56:54.04	170.70	32.13	-59.3	-72.7	3.6	8.46e-01	0	47	104	0	60	168394
2026-01-29 02:56:55.05	170.86	31.95	-59.4	-72.2	3.6	8.46e-01	0	47	104	0	60	159204
2026-01-29 02:56:56.05	171.02	31.76	-59.3	-72.4	3.6	8.46e-01	0	47	104	0	60	162444
2026-01-29 02:56:57.06	171.17	31.58	-59.3	-72.5	3.6	8.44e-01	0	47	104	0	60	165397
2026-01-29 02:56:58.07	171.33	31.39	-59.3	-72.4	3.6	8.45e-01	0	47	104	0	60	164237
2026-01-29 02:56:59.07	171.48	31.21	-59.4	-72.1	3.6	8.45e-01	0	47	104	0	60	157017
2026-01-29 02:57:00.08	171.63	31.03	-59.1	-72.2	3.6	8.46e-01	0	47	104	0	60	160516
2026-01-29 02:57:01.08	171.78	30.85	-59.2	-72.4	3.6	8.45e-01	0	47	104	0	60	162587
2026-01-29 02:57:02.09	171.92	30.66	-59.2	-72.5	3.6	8.45e-01	0	47	104	0	60	164782
2026-01-29 02:57:03.09	172.07	30.49	-59.2	-71.9	3.6	8.46e-01	0	47	104	0	60	154169
2026-01-29 02:57:04.10	172.21	30.31	-59.1	-72.2	3.6	8.45e-01	0	47	104	0	60	160268
2026-01-29 02:57:05.11	172.35	30.13	-59.2	-72.3	3.6	8.46e-01	0	47	104	0	60	161510
2026-01-29 02:57:06.12	172.50	29.95	-59.1	-72.4	3.6	8.44e-01	0	47	104	0	60	162572
2026-01-29 02:57:07.13	172.63	29.77	-59.2	-71.7	3.6	8.45e-01	0	47	104	0	60	151411
2026-01-29 02:57:08.13	172.77	29.60	-58.9	-72.0	3.6	8.45e-01	0	47	104	0	60	156748
2026-01-29 02:57:09.14	172.91	29.43	-59.2	-72.6	3.6	8.45e-01	0	47	104	0	60	166729
2026-01-29 02:57:10.15	173.04	29.25	-59.2	-72.3	3.6	8.45e-01	0	47	104	0	60	162097
2026-01-29 02:57:11.16	173.18	29.08	-59.1	-72.2	3.6	8.45e-01	0	47	104	0	60	160279
2026-01-29 02:57:12.17	173.31	28.91	-59.0	-72.3	3.6	8.45e-01	0	47	104	0	60	161888
2026-01-29 02:57:13.17	173.44	28.74	-58.9	-72.0	3.6	8.45e-01	0	47	104	0	60	156782
2026-01-29 02:57:14.18	173.57	28.57	-58.8	-72.1	3.6	8.46e-01	0	47	104	0	60	157997
2026-01-29 02:57:15.18	173.70	28.40	-58.9	-72.3	3.6	8.45e-01	0	47	104	0	60	161369
2026-01-29 02:57:16.19	173.82	28.23	-58.9	-72.3	3.6	8.45e-01	0	47	104	0	60	161195
2026-01-29 02:57:17.19	173.95	28.07	-59.0	-71.7	3.6	8.46e-01	0	47	104	0	60	150732
2026-01-29 02:57:18.20	174.07	27.90	-58.8	-71.9	3.6	8.45e-01	0	47	104	0	60	153831
2026-01-29 02:57:19.21	174.20	27.73	-58.8	-71.9	3.6	8.46e-01	0	47	104	0	60	153801
2026-01-29 02:57:20.21	174.32	27.57	-58.8	-71.8	3.6	8.46e-01	0	47	104	0	60	153218
2026-01-29 02:57:21.21	174.44	27.41	-58.8	-71.8	3.6	8.45e-01	0	47	104	0	60	152634
2026-01-29 02:57:22.22	174.56	27.24	-58.9	-72.2	3.6	8.46e-01	0	47	104	0	60	160114
2026-01-29 02:57:23.23	174.68	27.08	-58.8	-71.5	3.6	8.46e-01	0	47	104	0	60	147508
2026-01-29 02:57:24.24	174.79	26.92	-58.8	-72.0	3.6	8.46e-01	0	47	104	0	60	156794
2026-01-29 02:57:25.24	174.91	26.76	-58.7	-72.1	3.6	8.44e-01	0	47	104	0	60	156914
2026-01-29 02:57:26.25	175.02	26.60	-58.8	-72.2	3.6	8.46e-01	0	47	104	0	60	160422
2026-01-29 02:57:27.26	175.14	26.44	-58.7	-71.3	3.6	8.45e-01	0	47	104	0	60	144102
2026-01-29 02:57:28.27	175.25	26.28	-58.7	-71.8	3.6	8.45e-01	0	47	104	0	60	153224
2026-01-29 02:57:29.28	175.36	26.13	-58.8	-72.1	3.6	8.46e-01	0	47	104	0	60	158366
2026-01-29 02:57:30.29	175.47	25.97	-58.7	-71.8	3.6	8.46e-01	0	47	104	0	60	152132
2026-01-29 02:57:31.29	175.58	25.82	-58.7	-71.8	3.6	8.45e-01	0	47	104	0	60	152433
2026-01-29 02:57:32.30	175.69	25.66	-58.7	-71.8	3.6	8.44e-01	0	47	104	0	60	151682
2026-01-29 02:57:33.31	175.80	25.51	-58.5	-71.7	3.6	8.46e-01	0	47	104	0	60	150615
2026-01-29 02:57:34.31	175.90	25.35	-58.5	-71.9	3.6	8.45e-01	0	47	104	0	60	154967
2026-01-29 02:57:35.31	176.01	25.20	-58.7	-72.0	3.6	8.47e-01	0	47	104	0	60	155371
2026-01-29 02:57:36.32	176.11	25.05	-58.6	-72.1	3.6	8.45e-01	0	47	104	0	60	158371
2026-01-29 02:57:37.32	176.22	24.90	-58.6	-71.3	3.6	8.45e-01	0	47	104	0	60	143345
2026-01-29 02:57:38.33	176.32	24.75	-58.5	-71.6	3.6	8.45e-01	0	47	104	0	60	149285
2026-01-29 02:57:39.33	176.42	24.60	-58.4	-71.5	3.6	8.45e-01	0	47	104	0	60	147075
2026-01-29 02:57:40.33	176.52	24.46	-58.4	-71.4	3.6	8.44e-01	0	47	104	0	60	145811
2026-01-29 02:57:41.34	176.62	24.31	-58.5	-71.4	3.6	8.46e-01	0	47	104	0	60	146347
2026-01-29 02:57:42.35	176.72	24.16	-58.6	-72.0	3.6	8.46e-01	0	47	104	0	60	155578
2026-01-29 02:57:43.35	176.82	24.02	-58.5	-71.2	3.6	8.46e-01	0	47	104	0	60	141492
2026-01-29 02:57:44.36	176.92	23.87	-58.5	-71.5	3.6	8.46e-01	0	47	104	0	60	147369
2026-01-29 02:57:45.37	177.01	23.72	-58.5	-72.0	3.6	8.45e-01	0	47	104	0	60	156680
2026-01-29 02:57:46.38	177.11	23.58	-58.5	-71.6	3.6	8.46e-01	0	47	104	0	60	149806
2026-01-29 02:57:47.39	177.20	23.44	-58.5	-71.7	3.6	8.45e-01	0	47	104	0	60	150837
2026-01-29 02:57:48.39	177.30	23.29	-58.5	-71.6	3.6	8.44e-01	0	47	104	0	60	148817
2026-01-29 02:57:49.40	177.39	23.15	-58.5	-71.5	3.6	8.45e-01	0	47	104	0	60	146912
2026-01-29 02:57:50.41	177.48	23.01	-58.6	-71.7	3.6	8.44e-01	0	47	104	0	60	150619
2026-01-29 02:57:51.41	177.57	22.87	-58.6	-71.7	3.6	8.45e-01	0	47	104	0	60	150652
2026-01-29 02:57:52.42	177.66	22.73	-58.6	-71.8	3.6	8.44e-01	0	47	104	0	60	153108
2026-01-29 02:57:53.42	177.75	22.59	-58.4	-71.0	3.6	8.45e-01	0	47	104	0	60	139274
2026-01-29 02:57:54.43	177.84	22.45	-58.4	-71.3	3.6	8.46e-01	0	47	104	0	60	143336
2026-01-29 02:57:55.43	177.93	22.32	-58.4	-71.2	3.6	8.46e-01	0	47	104	0	60	142196
2026-01-29 02:57:56.44	178.02	22.18	-58.4	-71.2	3.6	8.44e-01	0	47	104	0	60	142428
2026-01-29 02:57:57.45	178.11	22.04	-58.3	-71.2	3.6	8.45e-01	0	47	104	0	60	142948
2026-01-29 02:57:58.45	178.19	21.91	-58.5	-71.7	3.6	8.45e-01	0	47	104	0	60	149910
2026-01-29 02:57:59.46	178.28	21.77	-58.2	-71.6	3.6	8.46e-01	0	47	104	0	60	149105
2026-01-29 02:58:00.44	178.36	21.64	-58.3	-71.7	3.6	8.45e-01	0	47	104	0	60	150945
2026-01-29 02:58:01.43	178.44	21.51	-58.3	-70.9	3.6	8.45e-01	0	47	104	0	60	137763
2026-01-29 02:58:02.44	178.53	21.38	-58.3	-71.2	3.6	8.45e-01	0	47	104	0	60	141640
2026-01-29 02:58:03.45	178.61	21.24	-58.2	-71.2	3.6	8.46e-01	0	47	104	0	60	142773
2026-01-29 02:58:04.45	178.69	21.11	-58.2	-71.1	3.5	8.47e-01	0	47	104	0	60	140253
2026-01-29 02:58:05.46	178.77	20.98	-58.4	-71.3	3.6	8.45e-01	0	47	104	0	60	143549
2026-01-29 02:58:06.46	178.85	20.85	-58.2	-71.6	3.6	8.46e-01	0	47	104	0	60	148119
2026-01-29 02:58:07.46	178.93	20.72	-58.2	-71.6	3.6	8.45e-01	0	47	104	0	60	148808
2026-01-29 02:58:08.46	179.01	20.59	-58.0	-71.5	3.6	8.46e-01	0	47	104	0	60	146969
2026-01-29 02:58:09.47	179.09	20.47	-58.4	-70.9	3.6	8.46e-01	0	47	104	0	60	137846
2026-01-29 02:58:10.48	179.17	20.34	-58.4	-71.3	3.6	8.45e-01	0	47	104	0	60	143081
2026-01-29 02:58:11.48	179.25	20.21	-58.4	-70.9	3.6	8.44e-01	0	47	104	0	60	137023
2026-01-29 02:58:12.49	179.32	20.08	-58.3	-71.5	3.6	8.46e-01	0	47	104	0	60	147734
2026-01-29 02:58:13.49	179.40	19.96	-58.1	-71.5	3.6	8.46e-01	0	47	104	0	60	146696
2026-01-29 02:58:14.50	179.48	19.83	-58.0	-71.6	3.6	8.44e-01	0	47	104	0	60	148680
2026-01-29 02:58:15.50	179.55	19.71	-58.2	-71.2	3.6	8.45e-01	0	47	104	0	60	142983
2026-01-29 02:58:16.51	179.63	19.58	-58.1	-71.4	3.6	8.46e-01	0	47	104	0	60	145956
2026-01-29 02:58:17.52	179.70	19.46	-58.1	-71.4	3.5	8.45e-01	0	47	104	0	60	145201
2026-01-29 02:58:18.52	179.77	19.34	-58.1	-71.5	3.5	8.46e-01	0	47	104	0	60	146732
2026-01-29 02:58:19.53	179.85	19.21	-58.2	-70.8	3.6	8.46e-01	0	47	104	0	60	135553
2026-01-29 02:58:20.54	179.92	19.09	-58.1	-71.0	3.6	8.45e-01	0	47	104	0	60	139789
2026-01-29 02:58:21.54	179.99	18.97	-58.2	-71.5	3.6	8.45e-01	0	47	104	0	60	147449
2026-01-29 02:58:22.54	180.06	18.85	-58.1	-70.9	3.6	8.45e-01	0	47	104	0	60	137756
2026-01-29 02:58:23.55	180.13	18.73	-58.1	-70.9	3.6	8.45e-01	0	47	104	0	60	137978
2026-01-29 02:58:24.56	180.20	18.61	-58.0	-70.9	3.6	8.46e-01	0	47	104	0	60	137236
2026-01-29 02:58:25.56	180.27	18.49	-57.9	-71.1	3.6	8.45e-01	0	47	104	0	60	141255
2026-01-29 02:58:26.56	180.34	18.37	-58.0	-71.3	3.6	8.46e-01	0	47	104	0	60	144405
2026-01-29 02:58:27.57	180.41	18.25	-57.9	-70.8	3.6	8.46e-01	0	47	104	0	60	135768
2026-01-29 02:58:28.57	180.48	18.13	-57.8	-71.0	3.6	8.45e-01	0	47	104	0	60	139734
2026-01-29 02:58:29.58	180.55	18.02	-58.1	-71.4	3.6	8.45e-01	0	47	104	0	60	146287
2026-01-29 02:58:30.59	180.61	17.90	-57.9	-70.8	3.6	8.44e-01	0	47	104	0	60	136410
2026-01-29 02:58:31.59	180.68	17.78	-57.9	-70.9	3.6	8.44e-01	0	47	104	0	60	137336
2026-01-29 02:58:32.60	180.75	17.67	-57.8	-70.9	3.6	8.45e-01	0	47	104	0	60	138040
2026-01-29 02:58:33.61	180.81	17.55	-57.9	-71.3	3.6	8.45e-01	0	47	104	0	60	143219
2026-01-29 02:58:34.63	180.88	17.44	-57.9	-71.3	3.6	8.44e-01	0	47	104	0	60	144006
2026-01-29 02:58:35.63	180.94	17.32	-57.7	-70.7	3.6	8.45e-01	0	47	104	0	60	134064
2026-01-29 02:58:36.64	181.01	17.21	-57.7	-71.0	3.6	8.45e-01	0	47	104	0	60	138507
2026-01-29 02:58:37.64	181.07	17.10	-57.8	-71.3	3.6	8.45e-01	0	47	104	0	60	144194
2026-01-29 02:58:38.65	181.14	16.98	-57.7	-70.7	3.6	8.45e-01	0	47	104	0	60	133811
2026-01-29 02:58:39.66	181.20	16.87	-57.7	-70.6	3.6	8.45e-01	0	47	104	0	60	133031
2026-01-29 02:58:40.67	181.26	16.76	-57.7	-70.9	3.6	8.45e-01	0	47	104	0	60	137876
2026-01-29 02:58:41.68	181.32	16.65	-57.7	-71.2	3.6	8.46e-01	0	47	104	0	60	142891
2026-01-29 02:58:42.68	181.39	16.54	-57.6	-71.1	3.6	8.44e-01	0	47	104	0	60	140393
2026-01-29 02:58:43.69	181.45	16.42	-57.6	-71.1	3.6	8.45e-01	0	47	104	0	60	141389
2026-01-29 02:58:44.70	181.51	16.31	-57.7	-71.1	3.6	8.45e-01	0	47	104	0	60	140747
2026-01-29 02:58:45.71	181.57	16.20	-57.7	-71.1	3.6	8.44e-01	0	47	104	0	60	140999
2026-01-29 02:58:46.72	181.63	16.10	-57.6	-71.2	3.6	8.45e-01	0	47	104	0	60	142208
2026-01-29 02:58:47.73	181.69	15.99	-57.7	-71.1	3.6	8.45e-01	0	47	104	0	60	140462
2026-01-29 02:58:48.73	181.75	15.88	-57.6	-71.1	3.6	8.45e-01	0	47	104	0	60	140679
2026-01-29 02:58:49.74	181.81	15.77	-57.6	-71.1	3.6	8.45e-01	0	47	104	0	60	140460
2026-01-29 02:58:50.75	181.87	15.66	-57.6	-71.1	3.6	8.46e-01	0	47	104	0	60	140485
2026-01-29 02:58:51.75	181.92	15.56	-57.5	-71.0	3.6	8.44e-01	0	47	104	0	60	138980
2026-01-29 02:58:52.76	181.98	15.45	-57.6	-70.9	3.6	8.45e-01	0	47	104	0	60	138161
2026-01-29 02:58:53.76	182.04	15.35	-57.5	-71.0	3.6	8.46e-01	0	47	104	0	60	138585
2026-01-29 02:58:54.77	182.10	15.24	-57.6	-71.1	3.6	8.46e-01	0	47	104	0	60	140877
2026-01-29 02:58:55.77	182.15	15.14	-57.3	-71.1	3.6	8.45e-01	0	47	104	0	60	140016
2026-01-29 02:58:56.78	182.21	15.03	-57.6	-70.9	3.6	8.44e-01	0	47	104	0	60	138073
2026-01-29 02:58:57.79	182.26	14.93	-57.4	-71.0	3.6	8.45e-01	0	47	104	0	60	138805
2026-01-29 02:58:58.80	182.32	14.82	-57.6	-71.1	3.6	8.44e-01	0	47	104	0	60	140900
2026-01-29 02:58:59.80	182.38	14.72	-57.4	-70.9	3.6	8.46e-01	0	47	104	0	60	137621
2026-01-29 02:59:00.80	182.43	14.62	-57.5	-70.8	3.6	8.45e-01	0	47	104	0	60	136415
2026-01-29 02:59:01.81	182.48	14.52	-57.5	-70.5	3.6	8.45e-01	0	47	104	0	60	131875
2026-01-29 02:59:02.82	182.54	14.41	-57.6	-70.6	3.6	8.45e-01	0	47	104	0	60	133279
2026-01-29 02:59:03.83	182.59	14.31	-57.6	-70.7	3.6	8.46e-01	0	47	104	0	60	134773
2026-01-29 02:59:04.83	182.65	14.21	-57.5	-70.8	3.6	8.45e-01	0	47	104	0	60	136093
2026-01-29 02:59:05.84	182.70	14.11	-57.5	-71.0	3.6	8.45e-01	0	47	104	0	60	139199
