passes_logs/2026/01/29/R3.2S-Naryan-Mar/R3.2S-Naryan-Mar__20260129_020819_NOAA_20_JPSS-1_rec.log

#Pass ID: 20260129_020819_NOAA 20 (JPSS-1)
#Satellite: NOAA 20 (JPSS-1)
#Configuration: NOAA 20
#almurnet v.1.7.20240730
#Start time: 2026-01-29 02:08:21

#Version: 2.2.20231116
#Station: R3.2S-Naryan-Mar
#Location: 53.008057 lon 67.646978 lat
#TLE: 1 43013U 17073A   26027.80586608  .00000156  00000+0  94940-4 0  9998
#TLE: 2 43013  98.7647 328.6108 0000947  21.3465 338.7750 14.19541216424550

#Time	Az	El	Level	Level2	SNR	BER	BlckErr	Temp	State	Recorded	gain1	gain2
2026-01-29 02:08:21.22	40.95	0.12	-57.6	-75.3	3.3	1.54e+00	0	45	0	0	60	226962
2026-01-29 02:08:22.22	40.90	0.18	-60.6	-77.9	3.6	1.51e+00	0	45	104	0	60	309030
2026-01-29 02:08:23.23	40.85	0.23	-60.5	-78.2	3.6	1.51e+00	0	45	104	0	60	319825
2026-01-29 02:08:24.23	40.79	0.29	-61.2	-78.4	3.6	1.51e+00	0	45	104	0	60	326996
2026-01-29 02:08:25.23	40.74	0.34	-61.0	-78.0	3.6	1.51e+00	0	45	104	0	60	309746
2026-01-29 02:08:26.24	40.69	0.40	-61.0	-77.9	3.6	1.51e+00	0	45	104	0	60	308532
2026-01-29 02:08:27.24	40.64	0.45	-60.5	-77.7	3.6	1.51e+00	0	45	104	0	60	301690
2026-01-29 02:08:28.25	40.58	0.51	-60.3	-78.0	3.5	1.51e+00	0	45	104	0	60	310092
2026-01-29 02:08:29.25	40.53	0.56	-58.1	-78.0	3.6	1.51e+00	0	45	104	0	60	309852
2026-01-29 02:08:30.26	40.47	0.62	-59.3	-77.2	3.6	1.51e+00	0	45	104	0	60	284280
2026-01-29 02:08:31.26	40.42	0.68	-55.1	-75.8	3.6	1.51e+00	0	45	104	0	60	240215
2026-01-29 02:08:32.27	40.37	0.73	-56.8	-75.8	3.6	1.51e+00	0	45	104	0	60	240375
2026-01-29 02:08:33.28	40.31	0.79	-59.7	-77.4	3.6	1.51e+00	0	45	104	0	60	290421
2026-01-29 02:08:34.29	40.26	0.84	-57.0	-77.3	3.6	1.51e+00	0	45	104	0	60	286596
2026-01-29 02:08:35.30	40.20	0.90	-55.9	-75.3	3.6	1.51e+00	0	45	104	0	60	227721
2026-01-29 02:08:36.31	40.15	0.96	-55.7	-75.0	3.6	1.51e+00	0	45	104	0	60	220707
2026-01-29 02:08:37.31	40.09	1.01	-60.1	-76.7	3.6	1.51e+00	0	45	104	0	60	269266
2026-01-29 02:08:38.32	40.04	1.07	-55.1	-74.5	3.6	1.51e+00	0	45	104	0	60	208917
2026-01-29 02:08:39.33	39.98	1.13	-55.1	-74.5	3.6	1.51e+00	0	45	104	0	60	208631
2026-01-29 02:08:40.33	39.92	1.18	-55.0	-74.4	3.6	1.51e+00	0	45	104	0	60	205522
2026-01-29 02:08:41.33	39.87	1.24	-54.9	-74.3	3.6	1.51e+00	0	45	104	0	60	204411
2026-01-29 02:08:42.34	39.81	1.30	-54.9	-74.8	3.6	1.51e+00	0	45	104	0	60	215307
2026-01-29 02:08:43.35	39.75	1.35	-54.9	-74.8	3.6	1.51e+00	0	45	104	0	60	214199
2026-01-29 02:08:44.35	39.70	1.41	-55.1	-74.4	3.6	1.51e+00	0	45	104	0	60	206482
2026-01-29 02:08:45.36	39.64	1.47	-55.0	-74.6	3.6	1.51e+00	0	45	104	0	60	210630
2026-01-29 02:08:46.36	39.58	1.52	-55.0	-74.3	3.6	1.51e+00	0	45	104	0	60	204022
2026-01-29 02:08:47.37	39.52	1.58	-55.0	-74.3	3.5	1.51e+00	0	45	104	0	60	204050
2026-01-29 02:08:48.37	39.47	1.64	-55.1	-74.4	3.6	1.51e+00	0	45	104	0	60	205362
2026-01-29 02:08:49.38	39.41	1.70	-55.0	-74.4	3.6	1.51e+00	0	45	104	0	60	205463
2026-01-29 02:08:50.39	39.35	1.75	-54.8	-74.2	3.5	1.51e+00	0	45	104	0	60	200415
2026-01-29 02:08:51.39	39.29	1.81	-54.9	-74.7	3.6	1.51e+00	0	45	104	0	60	214056
2026-01-29 02:08:52.40	39.23	1.87	-54.8	-74.3	3.6	1.51e+00	0	45	104	0	60	203438
2026-01-29 02:08:53.40	39.17	1.93	-54.8	-74.5	3.6	1.51e+00	0	45	104	0	60	208103
2026-01-29 02:08:54.41	39.11	1.98	-54.9	-74.4	3.6	1.51e+00	0	45	104	0	60	204993
2026-01-29 02:08:55.41	39.05	2.04	-54.8	-74.3	3.6	1.51e+00	0	45	104	0	60	202784
2026-01-29 02:08:56.42	38.99	2.10	-55.0	-74.6	3.6	1.51e+00	0	45	104	0	60	209663
2026-01-29 02:08:57.43	38.93	2.16	-55.0	-74.4	3.6	1.51e+00	0	45	104	0	60	206435
2026-01-29 02:08:58.43	38.87	2.22	-55.0	-74.4	3.6	1.51e+00	0	45	104	0	60	204674
2026-01-29 02:08:59.44	38.81	2.27	-55.0	-74.6	3.6	1.51e+00	0	46	104	0	60	211359
2026-01-29 02:09:00.44	38.75	2.33	-55.1	-74.8	3.6	1.51e+00	0	46	104	0	60	214661
2026-01-29 02:09:01.45	38.69	2.39	-55.0	-74.7	3.6	1.51e+00	0	46	104	0	60	212716
2026-01-29 02:09:02.46	38.63	2.45	-54.8	-74.2	3.6	1.51e+00	0	46	104	0	60	200005
2026-01-29 02:09:03.46	38.57	2.51	-54.8	-74.3	3.6	1.51e+00	0	45	104	0	60	204411
2026-01-29 02:09:04.47	38.51	2.57	-54.8	-74.3	3.6	1.51e+00	0	45	104	0	60	203807
2026-01-29 02:09:05.48	38.44	2.63	-54.8	-74.3	3.6	1.51e+00	0	46	104	0	60	204320
2026-01-29 02:09:06.49	38.38	2.68	-54.9	-74.3	3.6	1.51e+00	0	46	104	0	60	202706
2026-01-29 02:09:07.49	38.32	2.74	-54.9	-74.2	3.6	1.51e+00	0	46	104	0	60	200509
2026-01-29 02:09:08.50	38.25	2.80	-54.8	-74.7	3.6	1.51e+00	0	46	104	0	60	212106
2026-01-29 02:09:09.51	38.19	2.86	-54.8	-74.6	3.6	1.51e+00	0	46	104	0	60	210947
2026-01-29 02:09:10.52	38.13	2.92	-54.8	-74.1	3.6	1.51e+00	0	46	104	0	60	199751
2026-01-29 02:09:11.52	38.06	2.98	-54.7	-74.3	3.6	1.51e+00	0	46	104	0	60	204411
2026-01-29 02:09:12.53	38.00	3.04	-54.8	-74.2	3.6	1.51e+00	0	46	104	0	60	201840
2026-01-29 02:09:13.54	37.93	3.10	-54.7	-74.4	3.6	1.51e+00	0	46	104	0	60	206689
2026-01-29 02:09:14.55	37.87	3.16	-54.9	-74.2	3.6	1.51e+00	0	46	104	0	60	201939
2026-01-29 02:09:15.55	37.80	3.22	-54.7	-74.0	3.6	1.51e+00	0	45	104	0	60	196787
2026-01-29 02:09:16.56	37.74	3.28	-54.6	-74.5	3.6	1.51e+00	0	46	104	0	60	208271
2026-01-29 02:09:17.57	37.67	3.34	-54.9	-74.5	3.6	1.51e+00	0	46	104	0	60	208901
2026-01-29 02:09:18.57	37.61	3.40	-55.0	-74.3	3.6	1.51e+00	0	46	104	0	60	203064
2026-01-29 02:09:19.58	37.54	3.46	-54.9	-74.2	3.6	1.51e+00	0	46	104	0	60	201923
2026-01-29 02:09:20.59	37.48	3.52	-55.0	-74.1	3.6	1.51e+00	0	46	104	0	60	199755
2026-01-29 02:09:21.60	37.41	3.58	-55.2	-74.3	3.6	1.51e+00	0	46	104	0	60	202723
2026-01-29 02:09:22.60	37.34	3.64	-55.1	-74.6	3.6	1.51e+00	0	46	104	0	60	209249
2026-01-29 02:09:23.61	37.27	3.70	-55.1	-74.2	3.6	1.51e+00	0	45	104	0	60	202070
2026-01-29 02:09:24.61	37.21	3.76	-55.1	-74.4	3.6	1.51e+00	0	46	104	0	60	205026
2026-01-29 02:09:25.62	37.14	3.82	-55.1	-74.5	3.6	1.51e+00	0	46	104	0	60	208279
2026-01-29 02:09:26.62	37.07	3.88	-55.0	-74.7	3.6	1.51e+00	0	46	104	0	60	212548
2026-01-29 02:09:27.63	37.00	3.94	-55.1	-74.5	3.6	1.51e+00	0	46	104	0	60	208732
2026-01-29 02:09:28.64	36.93	4.00	-55.1	-74.4	3.6	1.51e+00	0	46	104	0	60	205365
2026-01-29 02:09:29.65	36.86	4.06	-55.1	-74.3	3.6	1.51e+00	0	46	104	0	60	203222
2026-01-29 02:09:30.65	36.80	4.13	-55.1	-74.9	3.6	1.51e+00	0	46	104	0	60	217383
2026-01-29 02:09:31.66	36.73	4.19	-55.0	-74.6	3.6	1.51e+00	0	46	104	0	60	210080
2026-01-29 02:09:32.66	36.66	4.25	-55.0	-74.7	3.6	1.51e+00	0	46	104	0	60	212014
2026-01-29 02:09:33.67	36.59	4.31	-54.9	-74.6	3.6	1.51e+00	0	46	104	0	60	211352
2026-01-29 02:09:34.68	36.51	4.37	-55.0	-74.7	3.6	1.51e+00	0	46	104	0	60	212357
2026-01-29 02:09:35.68	36.44	4.43	-54.9	-74.4	3.6	1.51e+00	0	46	104	0	60	206128
2026-01-29 02:09:36.69	36.37	4.49	-55.0	-74.3	3.6	1.51e+00	0	46	104	0	60	204044
2026-01-29 02:09:37.69	36.30	4.56	-54.9	-74.2	3.6	1.51e+00	0	46	104	0	60	199894
2026-01-29 02:09:38.70	36.23	4.62	-54.9	-74.1	3.6	1.51e+00	0	46	104	0	60	199770
2026-01-29 02:09:39.71	36.16	4.68	-55.0	-74.3	3.6	1.51e+00	0	46	104	0	60	203276
2026-01-29 02:09:40.72	36.08	4.74	-54.9	-74.4	3.6	1.51e+00	0	46	104	0	60	205455
2026-01-29 02:09:41.73	36.01	4.80	-54.9	-74.2	3.6	1.51e+00	0	46	104	0	60	200419
2026-01-29 02:09:42.73	35.94	4.87	-54.9	-74.6	3.6	1.51e+00	0	46	104	0	60	211318
2026-01-29 02:09:43.74	35.87	4.93	-54.9	-74.1	3.6	1.51e+00	0	46	104	0	60	199580
2026-01-29 02:09:44.75	35.79	4.99	-55.1	-74.5	3.6	1.51e+00	0	46	104	0	60	208960
2026-01-29 02:09:45.75	35.72	5.05	-55.0	-74.6	3.6	1.51e+00	0	46	104	0	60	209813
2026-01-29 02:09:46.76	35.64	5.12	-55.0	-74.2	3.6	1.51e+00	0	46	104	0	60	201676
2026-01-29 02:09:47.77	35.57	5.18	-55.0	-74.2	3.6	1.51e+00	0	46	104	0	60	200699
2026-01-29 02:09:48.77	35.49	5.24	-55.0	-74.2	3.6	1.51e+00	0	46	104	0	60	201644
2026-01-29 02:09:49.78	35.42	5.31	-55.0	-74.6	3.6	1.51e+00	0	46	104	0	60	209266
2026-01-29 02:09:50.78	35.34	5.37	-54.9	-74.2	3.6	1.51e+00	0	46	104	0	60	201932
2026-01-29 02:09:51.79	35.27	5.43	-54.8	-74.5	3.6	1.51e+00	0	46	104	0	60	208998
2026-01-29 02:09:52.79	35.19	5.49	-54.8	-74.0	3.6	1.51e+00	0	46	104	0	60	197286
2026-01-29 02:09:53.80	35.11	5.56	-54.7	-74.0	3.6	1.51e+00	0	46	104	0	60	195901
2026-01-29 02:09:54.80	35.04	5.62	-54.8	-74.1	3.6	1.51e+00	0	46	104	0	60	198936
2026-01-29 02:09:55.82	34.96	5.69	-54.8	-73.9	3.6	1.51e+00	0	46	104	0	60	193105
2026-01-29 02:09:56.82	34.88	5.75	-54.7	-74.0	3.6	1.51e+00	0	46	104	0	60	197329
2026-01-29 02:09:57.83	34.80	5.81	-54.7	-73.9	3.6	1.51e+00	0	46	104	0	60	193240
2026-01-29 02:09:58.84	34.72	5.88	-55.1	-74.6	3.6	1.51e+00	0	46	104	0	60	209438
2026-01-29 02:09:59.84	34.64	5.94	-55.1	-74.5	3.6	1.51e+00	0	46	104	0	60	208318
2026-01-29 02:10:00.84	34.56	6.01	-55.2	-74.6	3.6	1.51e+00	0	46	104	0	60	210214
2026-01-29 02:10:01.85	34.48	6.07	-57.8	-76.0	3.6	1.51e+00	0	46	104	0	60	247334
2026-01-29 02:10:02.86	34.40	6.13	-59.9	-76.4	3.6	1.51e+00	0	46	104	0	60	258055
2026-01-29 02:10:03.87	34.32	6.20	-55.2	-75.1	3.6	1.51e+00	0	46	104	0	60	223255
2026-01-29 02:10:04.87	34.24	6.26	-55.2	-74.8	3.6	1.51e+00	0	46	104	0	60	214745
2026-01-29 02:10:05.87	34.16	6.33	-55.5	-75.9	3.6	1.51e+00	0	46	104	0	60	243370
2026-01-29 02:10:06.88	34.08	6.39	-58.6	-75.7	3.6	1.51e+00	0	46	104	0	60	239721
2026-01-29 02:10:07.88	34.00	6.46	-54.7	-75.3	3.6	1.51e+00	0	46	104	0	60	228427
2026-01-29 02:10:08.89	33.92	6.52	-55.4	-75.2	3.6	1.51e+00	0	46	104	0	60	224639
2026-01-29 02:10:09.90	33.83	6.59	-52.6	-72.1	3.6	1.51e+00	0	46	104	0	60	158384
2026-01-29 02:10:10.91	33.75	6.65	-52.6	-73.4	3.6	1.51e+00	0	46	104	0	60	183026
2026-01-29 02:10:11.92	33.67	6.72	-55.6	-75.3	3.6	1.51e+00	0	46	104	0	60	227752
2026-01-29 02:10:12.92	33.58	6.78	-57.5	-75.8	3.6	1.51e+00	0	46	104	0	60	240522
2026-01-29 02:10:13.93	33.50	6.85	-56.7	-75.5	3.6	1.51e+00	0	46	104	0	60	234041
2026-01-29 02:10:14.94	33.41	6.91	-58.1	-75.8	3.6	1.51e+00	0	46	104	0	60	242149
2026-01-29 02:10:15.94	33.33	6.98	-59.7	-76.4	3.6	1.51e+00	0	46	104	0	60	257406
2026-01-29 02:10:16.95	33.24	7.05	-59.4	-76.3	3.6	1.51e+00	0	46	104	0	60	255323
2026-01-29 02:10:17.96	33.16	7.11	-55.4	-75.2	3.6	1.51e+00	0	46	104	0	60	225124
2026-01-29 02:10:18.96	33.07	7.18	-53.7	-73.9	3.6	1.51e+00	0	46	104	0	60	193853
2026-01-29 02:10:19.97	32.98	7.24	-56.8	-75.6	3.6	1.51e+00	0	46	104	0	60	237128
2026-01-29 02:10:20.97	32.90	7.31	-58.6	-76.0	3.6	1.51e+00	0	46	104	0	60	246771
2026-01-29 02:10:21.98	32.81	7.38	-59.4	-76.2	3.6	1.51e+00	0	46	104	0	60	252855
2026-01-29 02:10:22.98	32.72	7.44	-57.6	-75.8	3.6	1.51e+00	0	46	104	0	60	241468
2026-01-29 02:10:23.98	32.63	7.51	-55.6	-74.6	3.6	1.51e+00	0	46	104	0	60	209508
2026-01-29 02:10:24.97	32.55	7.57	-56.2	-75.6	3.6	1.51e+00	0	46	104	0	60	235108
2026-01-29 02:10:25.98	32.46	7.64	-51.6	-72.3	3.6	1.51e+00	0	46	104	0	60	162097
2026-01-29 02:10:26.99	32.37	7.71	-58.2	-75.3	3.6	1.51e+00	0	46	104	0	60	227135
2026-01-29 02:10:28.00	32.28	7.78	-51.8	-72.8	3.6	1.51e+00	0	46	104	0	60	170397
2026-01-29 02:10:29.01	32.19	7.84	-57.4	-75.9	3.6	1.51e+00	0	46	104	0	60	244612
2026-01-29 02:10:30.02	32.09	7.91	-52.3	-72.5	3.6	1.51e+00	0	46	104	0	60	164457
2026-01-29 02:10:31.02	32.00	7.98	-55.1	-75.4	3.6	1.51e+00	0	46	104	0	60	231377
2026-01-29 02:10:32.03	31.91	8.04	-54.8	-75.4	3.6	1.51e+00	0	46	104	0	60	230074
2026-01-29 02:10:33.03	31.82	8.11	-55.1	-75.8	3.6	1.51e+00	0	46	104	0	60	241009
2026-01-29 02:10:34.04	31.73	8.18	-58.4	-75.8	3.6	1.51e+00	0	46	104	0	60	241838
2026-01-29 02:10:35.05	31.63	8.25	-56.7	-75.4	3.6	1.51e+00	0	46	104	0	60	231353
2026-01-29 02:10:36.05	31.54	8.32	-57.3	-75.6	3.6	1.51e+00	0	46	104	0	60	236178
2026-01-29 02:10:37.05	31.45	8.38	-55.7	-74.7	3.6	1.51e+00	0	46	104	0	60	213342
2026-01-29 02:10:38.06	31.35	8.45	-54.9	-74.6	3.6	1.51e+00	0	46	104	0	60	211463
2026-01-29 02:10:39.06	31.26	8.52	-56.7	-75.8	3.6	1.51e+00	0	46	104	0	60	240941
2026-01-29 02:10:40.06	31.16	8.59	-54.9	-74.5	3.6	1.51e+00	0	46	104	0	60	208439
2026-01-29 02:10:41.07	31.07	8.66	-54.1	-73.9	3.6	1.51e+00	0	46	104	0	60	194397
2026-01-29 02:10:42.08	30.97	8.72	-55.9	-74.0	3.6	1.51e+00	0	46	104	0	60	195705
2026-01-29 02:10:43.09	30.87	8.79	-53.6	-73.1	3.6	1.51e+00	0	46	104	0	60	177574
2026-01-29 02:10:44.09	30.78	8.86	-57.0	-75.7	3.6	1.51e+00	0	46	104	0	60	239203
2026-01-29 02:10:45.10	30.68	8.93	-59.6	-76.5	3.6	1.51e+00	0	46	104	0	60	260619
2026-01-29 02:10:46.11	30.58	9.00	-53.4	-73.7	3.6	1.51e+00	0	46	104	0	60	189051
2026-01-29 02:10:47.12	30.48	9.07	-53.9	-73.8	3.6	1.51e+00	0	46	104	0	60	190905
2026-01-29 02:10:48.12	30.38	9.14	-55.6	-74.6	3.6	1.51e+00	0	46	104	0	60	211025
2026-01-29 02:10:49.13	30.28	9.21	-56.6	-75.2	3.6	1.51e+00	0	46	104	0	60	224984
2026-01-29 02:10:50.14	30.18	9.28	-58.8	-76.2	3.6	1.51e+00	0	46	104	0	60	252309
2026-01-29 02:10:51.15	30.08	9.35	-54.6	-75.1	3.6	1.51e+00	0	46	104	0	60	222484
2026-01-29 02:10:52.15	29.98	9.42	-59.2	-76.0	3.6	1.51e+00	0	46	104	0	60	247589
2026-01-29 02:10:53.15	29.88	9.48	-57.1	-75.8	3.6	1.51e+00	0	46	104	0	60	241418
2026-01-29 02:10:54.16	29.78	9.55	-52.7	-73.7	3.6	1.51e+00	0	46	104	0	60	189191
2026-01-29 02:10:55.17	29.67	9.62	-52.5	-73.4	3.6	1.51e+00	0	46	104	0	60	183240
2026-01-29 02:10:56.17	29.57	9.69	-53.7	-74.1	3.6	1.51e+00	0	46	104	0	60	199022
2026-01-29 02:10:57.17	29.47	9.76	-55.0	-74.8	3.6	1.51e+00	0	46	104	0	60	215359
2026-01-29 02:10:58.18	29.36	9.83	-57.7	-75.4	3.6	1.51e+00	0	46	104	0	60	229908
2026-01-29 02:10:59.18	29.26	9.90	-59.6	-76.3	3.6	1.51e+00	0	46	104	0	60	256298
2026-01-29 02:11:00.18	29.15	9.97	-58.6	-76.4	3.6	1.51e+00	0	46	104	0	60	258164
2026-01-29 02:11:01.18	29.05	10.04	-58.4	-76.4	3.6	1.51e+00	0	46	104	0	60	258287
2026-01-29 02:11:02.19	28.94	10.11	-59.4	-76.1	3.6	1.51e+00	0	46	104	0	60	248689
2026-01-29 02:11:03.20	28.83	10.19	-58.4	-76.2	3.6	1.51e+00	0	46	104	0	60	253274
2026-01-29 02:11:04.21	28.73	10.26	-58.7	-76.2	3.6	1.51e+00	0	46	104	0	60	252090
2026-01-29 02:11:05.21	28.62	10.33	-59.5	-76.3	3.6	1.51e+00	0	46	104	0	60	257023
2026-01-29 02:11:06.22	28.51	10.40	-57.7	-75.6	3.6	1.51e+00	0	46	104	0	60	236238
2026-01-29 02:11:07.23	28.40	10.47	-55.8	-75.0	3.6	1.51e+00	0	46	104	0	60	219768
2026-01-29 02:11:08.24	28.29	10.54	-54.7	-75.7	3.6	1.51e+00	0	46	104	0	60	239781
2026-01-29 02:11:09.24	28.18	10.61	-59.3	-76.6	3.6	1.51e+00	0	46	104	0	60	265740
2026-01-29 02:11:10.24	28.07	10.68	-58.8	-76.0	3.6	1.51e+00	0	46	104	0	60	248197
2026-01-29 02:11:11.25	27.96	10.75	-59.3	-76.2	3.6	1.51e+00	0	46	104	0	60	252560
2026-01-29 02:11:12.26	27.85	10.83	-59.6	-76.0	3.6	1.51e+00	0	46	104	0	60	246491
2026-01-29 02:11:13.26	27.74	10.90	-59.4	-75.9	3.6	1.51e+00	0	46	104	0	60	245538
2026-01-29 02:11:14.27	27.62	10.97	-53.5	-73.7	3.6	1.51e+00	0	46	104	0	60	189628
2026-01-29 02:11:15.28	27.51	11.04	-56.5	-74.5	3.6	1.51e+00	0	46	104	0	60	208124
2026-01-29 02:11:16.28	27.40	11.11	-57.9	-75.7	3.6	1.51e+00	0	46	104	0	60	239274
2026-01-29 02:11:17.28	27.28	11.19	-57.8	-76.1	3.6	1.51e+00	0	46	104	0	60	251016
2026-01-29 02:11:18.28	27.17	11.26	-59.5	-76.1	3.6	1.51e+00	0	46	104	0	60	250587
2026-01-29 02:11:19.29	27.05	11.33	-58.5	-76.0	3.6	1.51e+00	0	46	104	0	60	247709
2026-01-29 02:11:20.30	26.93	11.40	-58.4	-75.8	3.6	1.51e+00	0	46	104	0	60	242793
2026-01-29 02:11:21.31	26.82	11.48	-58.1	-75.1	3.6	1.51e+00	0	46	104	0	60	223754
2026-01-29 02:11:22.31	26.70	11.55	-53.3	-73.8	3.6	1.51e+00	0	46	104	0	60	191236
2026-01-29 02:11:23.32	26.58	11.62	-54.6	-75.6	3.6	1.51e+00	0	46	104	0	60	236854
2026-01-29 02:11:24.32	26.46	11.69	-57.8	-76.1	3.6	1.51e+00	0	46	104	0	60	250590
2026-01-29 02:11:25.33	26.34	11.77	-54.3	-75.8	3.6	1.51e+00	0	46	104	0	60	241305
2026-01-29 02:11:26.34	26.22	11.84	-56.1	-75.1	3.6	1.51e+00	0	46	104	0	60	223230
2026-01-29 02:11:27.34	26.10	11.91	-56.1	-75.3	3.6	1.51e+00	0	46	104	0	60	227312
2026-01-29 02:11:28.35	25.98	11.98	-56.5	-75.4	3.6	1.51e+00	0	46	104	0	60	229709
2026-01-29 02:11:29.35	25.86	12.06	-57.3	-75.4	3.6	1.51e+00	0	46	104	0	60	231431
2026-01-29 02:11:30.36	25.74	12.13	-53.6	-74.4	3.6	1.51e+00	0	46	104	0	60	206700
2026-01-29 02:11:31.37	25.61	12.20	-55.8	-76.4	3.6	1.51e+00	0	46	104	0	60	257719
2026-01-29 02:11:32.37	25.49	12.28	-52.1	-74.8	3.6	1.51e+00	0	46	104	0	60	214714
2026-01-29 02:11:33.38	25.37	12.35	-58.7	-76.2	3.6	1.51e+00	0	46	104	0	60	252465
2026-01-29 02:11:34.39	25.24	12.43	-53.8	-74.7	3.6	1.51e+00	0	46	104	0	60	212267
2026-01-29 02:11:35.39	25.12	12.50	-55.2	-75.3	3.6	1.51e+00	0	46	104	0	60	226806
2026-01-29 02:11:36.40	24.99	12.57	-54.8	-75.6	3.6	1.51e+00	0	46	104	0	60	234812
2026-01-29 02:11:37.40	24.86	12.65	-54.4	-76.0	3.6	1.51e+00	0	46	104	0	60	245973
2026-01-29 02:11:38.41	24.74	12.72	-56.0	-74.6	3.6	1.51e+00	0	46	104	0	60	209291
2026-01-29 02:11:39.42	24.61	12.80	-54.3	-75.3	3.6	1.51e+00	0	46	104	0	60	228282
2026-01-29 02:11:40.42	24.48	12.87	-55.8	-76.5	3.6	1.51e+00	0	46	104	0	60	262275
2026-01-29 02:11:41.43	24.35	12.94	-52.1	-72.3	3.6	1.51e+00	0	46	104	0	60	160618
2026-01-29 02:11:42.43	24.22	13.02	-47.7	-72.5	3.6	1.51e+00	0	46	104	0	60	164597
2026-01-29 02:11:43.44	24.09	13.09	-45.3	-70.8	3.6	1.51e+00	0	46	104	0	60	136341
2026-01-29 02:11:44.45	23.96	13.17	-45.0	-70.7	3.6	1.51e+00	0	46	104	0	60	134983
2026-01-29 02:11:45.45	23.82	13.24	-44.8	-69.0	3.6	1.51e+00	0	46	104	0	60	110840
2026-01-29 02:11:46.45	23.69	13.31	-47.0	-72.1	3.6	1.51e+00	0	46	104	0	60	158392
2026-01-29 02:11:47.46	23.56	13.39	-46.6	-71.7	3.6	1.51e+00	0	46	104	0	60	149843
2026-01-29 02:11:48.47	23.42	13.46	-45.2	-70.5	3.6	1.51e+00	0	46	104	0	60	130607
2026-01-29 02:11:49.47	23.29	13.54	-50.2	-70.5	3.6	1.51e+00	0	46	104	0	60	130571
2026-01-29 02:11:50.48	23.15	13.61	-51.0	-73.1	3.6	1.51e+00	0	46	104	0	60	178030
2026-01-29 02:11:51.48	23.02	13.69	-52.3	-69.8	3.6	1.51e+00	0	46	104	0	60	120693
2026-01-29 02:11:52.49	22.88	13.76	-52.8	-71.9	3.6	1.51e+00	0	46	104	0	60	154407
2026-01-29 02:11:53.50	22.74	13.84	-58.2	-74.4	3.6	1.51e+00	0	46	104	0	60	206113
2026-01-29 02:11:54.51	22.60	13.92	-55.1	-73.0	3.6	1.51e+00	0	46	104	0	60	175283
2026-01-29 02:11:55.52	22.46	13.99	-46.2	-68.3	3.6	1.51e+00	0	46	104	0	60	101638
2026-01-29 02:11:56.52	22.32	14.07	-55.5	-72.1	3.6	1.51e+00	0	46	104	0	60	157494
2026-01-29 02:11:57.53	22.18	14.14	-54.3	-72.2	3.6	1.51e+00	0	46	104	0	60	159578
2026-01-29 02:11:58.54	22.04	14.22	-45.2	-68.0	3.6	1.51e+00	0	46	104	0	60	98110
2026-01-29 02:11:59.55	21.90	14.29	-45.8	-68.5	3.6	1.51e+00	0	46	104	0	60	103769
2026-01-29 02:12:00.56	21.75	14.37	-46.8	-69.7	3.6	1.51e+00	0	46	104	0	60	120047
2026-01-29 02:12:01.56	21.61	14.44	-48.4	-72.0	3.5	1.51e+00	0	46	104	0	60	156173
2026-01-29 02:12:02.57	21.47	14.52	-50.8	-74.3	3.6	1.51e+00	0	46	104	0	60	203175
2026-01-29 02:12:03.58	21.32	14.60	-51.3	-75.1	3.6	1.51e+00	0	46	104	0	60	222087
2026-01-29 02:12:04.58	21.17	14.67	-51.6	-75.9	3.6	1.51e+00	0	46	104	0	60	243619
2026-01-29 02:12:05.59	21.03	14.75	-52.5	-72.8	3.6	1.51e+00	0	46	104	0	60	171426
2026-01-29 02:12:06.60	20.88	14.82	-54.6	-73.3	3.6	1.51e+00	0	46	104	0	60	181670
2026-01-29 02:12:07.61	20.73	14.90	-56.4	-74.3	3.6	1.51e+00	0	46	104	0	60	202475
2026-01-29 02:12:08.61	20.58	14.97	-57.0	-74.5	3.6	1.51e+00	0	46	104	0	60	208578
2026-01-29 02:12:09.62	20.43	15.05	-55.7	-74.7	3.6	1.51e+00	0	46	104	0	60	213666
2026-01-29 02:12:10.63	20.28	15.13	-51.6	-71.9	3.6	1.51e+00	0	46	104	0	60	154567
2026-01-29 02:12:11.64	20.13	15.20	-55.7	-75.1	3.6	1.51e+00	0	46	104	0	60	222422
2026-01-29 02:12:12.65	19.98	15.28	-52.7	-75.6	3.6	1.51e+00	0	46	104	0	60	236147
2026-01-29 02:12:13.65	19.82	15.35	-55.3	-74.6	3.5	1.51e+00	0	46	104	0	60	211495
2026-01-29 02:12:14.66	19.67	15.43	-57.5	-74.9	3.6	1.51e+00	0	46	104	0	60	218010
2026-01-29 02:12:15.66	19.52	15.51	-56.7	-75.5	3.6	1.51e+00	0	46	104	0	60	234327
2026-01-29 02:12:16.67	19.36	15.58	-57.0	-75.4	3.6	1.51e+00	0	46	104	0	60	231848
2026-01-29 02:12:17.68	19.20	15.66	-54.5	-75.6	3.6	1.51e+00	0	46	104	0	60	236158
2026-01-29 02:12:18.68	19.05	15.73	-51.5	-74.4	3.6	1.51e+00	0	46	104	0	60	205392
2026-01-29 02:12:19.68	18.89	15.81	-51.6	-75.3	3.6	1.51e+00	0	46	104	0	60	228258
2026-01-29 02:12:20.69	18.73	15.89	-52.9	-74.5	3.6	1.51e+00	0	46	104	0	60	208753
2026-01-29 02:12:21.69	18.57	15.96	-52.0	-72.0	3.6	1.51e+00	0	46	104	0	60	156614
2026-01-29 02:12:22.69	18.41	16.04	-51.4	-73.1	3.6	1.51e+00	0	46	104	0	60	176442
2026-01-29 02:12:23.70	18.25	16.12	-49.6	-72.3	3.6	1.51e+00	0	46	104	0	60	160990
2026-01-29 02:12:24.71	18.09	16.19	-48.7	-71.9	3.6	1.51e+00	0	46	104	0	60	154393
2026-01-29 02:12:25.72	17.93	16.27	-54.1	-74.5	3.6	1.51e+00	0	46	104	0	60	207660
2026-01-29 02:12:26.73	17.76	16.34	-48.6	-72.4	3.6	1.50e+00	0	46	104	0	60	163665
2026-01-29 02:12:27.74	17.60	16.42	-49.1	-72.9	3.6	1.51e+00	0	46	104	0	60	172859
2026-01-29 02:12:28.74	17.43	16.50	-52.2	-72.2	3.6	1.51e+00	0	46	104	0	60	158936
2026-01-29 02:12:29.75	17.26	16.57	-49.8	-72.7	3.6	1.51e+00	0	46	104	0	60	169212
2026-01-29 02:12:30.76	17.10	16.65	-51.4	-73.7	3.6	1.51e+00	0	46	104	0	60	189896
2026-01-29 02:12:31.77	16.93	16.73	-48.6	-71.7	3.6	1.51e+00	0	46	104	0	60	150354
2026-01-29 02:12:32.77	16.76	16.80	-48.6	-73.0	3.6	1.51e+00	0	46	104	0	60	174834
2026-01-29 02:12:33.78	16.59	16.88	-55.8	-73.7	3.6	1.51e+00	0	46	104	0	60	189841
2026-01-29 02:12:34.79	16.42	16.95	-51.8	-71.0	3.6	1.51e+00	0	46	104	0	60	139568
2026-01-29 02:12:35.79	16.25	17.03	-54.3	-75.9	3.6	1.51e+00	0	46	104	0	60	243865
2026-01-29 02:12:36.79	16.08	17.11	-53.0	-75.5	3.6	1.51e+00	0	46	104	0	60	233204
2026-01-29 02:12:37.79	15.91	17.18	-53.4	-72.8	3.6	1.51e+00	0	46	104	0	60	171899
2026-01-29 02:12:38.80	15.73	17.26	-50.7	-71.2	3.6	1.51e+00	0	46	104	0	60	142414
2026-01-29 02:12:39.81	15.55	17.33	-54.8	-74.0	3.6	1.51e+00	0	46	104	0	60	196170
2026-01-29 02:12:40.82	15.38	17.41	-55.9	-75.0	3.6	1.51e+00	0	46	104	0	60	220112
2026-01-29 02:12:41.82	15.20	17.49	-51.7	-74.1	3.6	1.51e+00	0	46	104	0	60	197786
2026-01-29 02:12:42.83	15.02	17.56	-56.6	-75.4	3.6	1.51e+00	0	46	104	0	60	231920
2026-01-29 02:12:43.84	14.85	17.64	-53.9	-74.8	3.6	1.51e+00	0	46	104	0	60	215155
2026-01-29 02:12:44.85	14.66	17.71	-58.9	-76.7	3.6	1.51e+00	0	46	104	0	60	266895
2026-01-29 02:12:45.86	14.48	17.79	-54.2	-74.3	3.6	1.51e+00	0	46	104	0	60	204011
2026-01-29 02:12:46.87	14.30	17.87	-52.0	-73.9	3.6	1.51e+00	0	46	104	0	60	194863
2026-01-29 02:12:47.88	14.12	17.94	-54.4	-74.3	3.6	1.51e+00	0	46	104	0	60	203978
2026-01-29 02:12:48.88	13.94	18.02	-56.9	-75.3	3.6	1.51e+00	0	46	104	0	60	227410
2026-01-29 02:12:49.89	13.75	18.09	-58.6	-76.0	3.6	1.51e+00	0	46	104	0	60	248218
2026-01-29 02:12:50.90	13.57	18.17	-55.6	-75.9	3.6	1.51e+00	0	46	104	0	60	243175
2026-01-29 02:12:51.91	13.38	18.24	-58.6	-76.2	3.6	1.51e+00	0	46	104	0	60	254016
2026-01-29 02:12:52.91	13.19	18.32	-54.7	-75.5	3.6	1.51e+00	0	46	104	0	60	234494
2026-01-29 02:12:53.92	13.01	18.39	-58.6	-76.1	3.6	1.51e+00	0	46	104	0	60	249248
2026-01-29 02:12:54.92	12.82	18.47	-56.8	-76.6	3.6	1.51e+00	0	46	104	0	60	265310
2026-01-29 02:12:55.92	12.63	18.54	-53.4	-74.8	3.6	1.51e+00	0	46	104	0	60	215030
2026-01-29 02:12:56.93	12.44	18.62	-53.1	-75.2	3.6	1.51e+00	0	46	104	0	60	226045
2026-01-29 02:12:57.94	12.25	18.69	-59.0	-76.8	3.6	1.51e+00	0	46	104	0	60	272537
2026-01-29 02:12:58.95	12.05	18.77	-54.4	-74.3	3.6	1.51e+00	0	46	104	0	60	202386
2026-01-29 02:12:59.96	11.86	18.84	-55.0	-75.7	3.6	1.51e+00	0	46	104	0	60	238271
2026-01-29 02:13:00.97	11.66	18.91	-53.5	-75.8	3.6	1.51e+00	0	46	104	0	60	242125
2026-01-29 02:13:01.97	11.47	18.99	-55.5	-75.0	3.6	1.51e+00	0	46	104	0	60	219607
2026-01-29 02:13:02.98	11.27	19.06	-55.0	-74.3	3.6	1.51e+00	0	46	104	0	60	203324
2026-01-29 02:13:03.99	11.07	19.14	-53.1	-74.0	3.6	1.51e+00	0	46	104	0	60	196438
2026-01-29 02:13:05.00	10.87	19.21	-52.9	-75.0	3.6	1.51e+00	0	46	104	0	60	220047
2026-01-29 02:13:06.00	10.68	19.28	-54.3	-74.5	3.6	1.51e+00	0	46	104	0	60	207237
2026-01-29 02:13:07.00	10.48	19.36	-59.8	-76.8	3.6	1.51e+00	0	46	104	0	60	272553
2026-01-29 02:13:08.01	10.27	19.43	-53.8	-75.0	3.6	1.51e+00	0	46	104	0	60	220081
2026-01-29 02:13:09.02	10.07	19.50	-56.7	-75.3	3.6	1.51e+00	0	46	104	0	60	228440
2026-01-29 02:13:10.02	9.87	19.58	-53.2	-75.4	3.6	1.51e+00	0	46	104	0	60	229478
2026-01-29 02:13:11.02	9.67	19.65	-53.4	-75.0	3.6	1.51e+00	0	46	104	0	60	219079
2026-01-29 02:13:12.03	9.46	19.72	-54.1	-73.9	3.6	1.51e+00	0	46	104	0	60	195093
2026-01-29 02:13:13.04	9.25	19.79	-55.0	-74.3	3.6	1.51e+00	0	46	104	0	60	203485
2026-01-29 02:13:14.04	9.05	19.87	-57.5	-75.5	3.6	1.51e+00	0	46	104	0	60	234062
2026-01-29 02:13:15.05	8.84	19.94	-59.3	-76.8	3.6	1.51e+00	0	46	104	0	60	270930
2026-01-29 02:13:16.06	8.63	20.01	-59.1	-76.3	3.6	1.51e+00	0	46	104	0	60	256975
2026-01-29 02:13:17.07	8.42	20.08	-57.8	-75.9	3.6	1.51e+00	0	46	104	0	60	245237
2026-01-29 02:13:18.08	8.20	20.15	-58.6	-76.9	3.6	1.51e+00	0	46	104	0	60	275537
2026-01-29 02:13:19.09	7.99	20.23	-56.1	-76.5	3.6	1.51e+00	0	46	104	0	60	262103
2026-01-29 02:13:20.09	7.78	20.30	-54.6	-75.4	3.6	1.51e+00	0	46	104	0	60	230698
2026-01-29 02:13:21.10	7.56	20.37	-55.8	-75.4	3.6	1.51e+00	0	46	104	0	60	229569
2026-01-29 02:13:22.11	7.35	20.44	-59.1	-76.8	3.6	1.51e+00	0	46	104	0	60	269846
2026-01-29 02:13:23.11	7.13	20.51	-59.1	-76.6	3.6	1.51e+00	0	46	104	0	60	265218
2026-01-29 02:13:24.12	6.92	20.58	-56.4	-75.7	3.6	1.51e+00	0	46	104	0	60	238546
2026-01-29 02:13:25.13	6.70	20.65	-57.4	-75.6	3.6	1.51e+00	0	47	104	0	60	236550
2026-01-29 02:13:26.13	6.48	20.72	-56.0	-74.9	3.6	1.51e+00	0	46	104	0	60	217565
2026-01-29 02:13:27.14	6.26	20.79	-55.7	-74.9	3.6	1.51e+00	0	46	104	0	60	218076
2026-01-29 02:13:28.15	6.04	20.86	-54.3	-74.9	3.6	1.51e+00	0	46	104	0	60	217587
2026-01-29 02:13:29.15	5.81	20.92	-53.9	-75.3	3.6	1.51e+00	0	46	104	0	60	228395
2026-01-29 02:13:30.15	5.59	20.99	-52.5	-73.4	3.6	1.51e+00	0	46	104	0	60	183746
2026-01-29 02:13:31.16	5.37	21.06	-58.3	-76.3	3.6	1.51e+00	0	46	104	0	60	257317
2026-01-29 02:13:32.16	5.14	21.13	-57.6	-75.6	3.6	1.51e+00	0	46	104	0	60	235345
2026-01-29 02:13:33.17	4.92	21.20	-56.4	-74.2	3.6	1.51e+00	0	46	104	0	60	201813
2026-01-29 02:13:34.18	4.69	21.26	-57.6	-76.6	3.6	1.51e+00	0	46	104	0	60	264051
2026-01-29 02:13:35.18	4.46	21.33	-58.4	-75.6	3.6	1.51e+00	0	46	104	0	60	235717
2026-01-29 02:13:36.19	4.23	21.40	-58.8	-76.0	3.6	1.51e+00	0	46	104	0	60	246554
2026-01-29 02:13:37.20	4.00	21.46	-59.2	-76.8	3.6	1.51e+00	0	46	104	0	60	269775
2026-01-29 02:13:38.21	3.77	21.53	-59.9	-76.7	3.6	1.51e+00	0	46	104	0	60	267882
2026-01-29 02:13:39.21	3.54	21.60	-58.5	-76.5	3.6	1.51e+00	0	46	104	0	60	261204
2026-01-29 02:13:40.22	3.30	21.66	-60.2	-76.8	3.6	1.51e+00	0	46	104	0	60	269947
2026-01-29 02:13:41.23	3.07	21.73	-57.1	-76.3	3.6	1.51e+00	0	46	104	0	60	254971
2026-01-29 02:13:42.23	2.83	21.79	-58.3	-76.4	3.6	1.51e+00	0	46	104	0	60	259029
2026-01-29 02:13:43.23	2.60	21.86	-60.3	-76.7	3.6	1.51e+00	0	46	104	0	60	267901
2026-01-29 02:13:44.24	2.36	21.92	-57.2	-76.5	3.6	1.51e+00	0	46	104	0	60	261881
2026-01-29 02:13:45.25	2.12	21.98	-58.3	-76.1	3.6	1.51e+00	0	46	104	0	60	250650
2026-01-29 02:13:46.25	1.88	22.05	-57.9	-76.5	3.6	1.51e+00	0	46	104	0	60	262311
2026-01-29 02:13:47.25	1.65	22.11	-59.4	-76.2	3.5	1.51e+00	0	46	104	0	60	251686
2026-01-29 02:13:48.26	1.40	22.17	-56.8	-75.8	3.6	1.51e+00	0	46	104	0	60	241221
2026-01-29 02:13:49.26	1.16	22.23	-56.4	-75.0	3.6	1.51e+00	0	46	104	0	60	219450
2026-01-29 02:13:50.27	0.92	22.30	-56.6	-76.2	3.6	1.51e+00	0	46	104	0	60	252959
2026-01-29 02:13:51.28	0.67	22.36	-56.3	-74.6	3.6	1.51e+00	0	46	104	0	60	209785
2026-01-29 02:13:52.28	0.43	22.42	-56.6	-74.9	3.6	1.51e+00	0	46	104	0	60	218445
2026-01-29 02:13:53.29	0.18	22.48	-56.5	-74.7	3.6	1.51e+00	0	46	104	0	60	213964
2026-01-29 02:13:54.29	359.94	22.54	-59.3	-76.3	3.6	1.51e+00	0	46	104	0	60	254464
2026-01-29 02:13:55.29	359.69	22.60	-58.6	-76.9	3.6	1.51e+00	0	46	104	0	60	273625
2026-01-29 02:13:56.30	359.44	22.66	-56.6	-74.3	3.6	1.51e+00	0	46	104	0	60	202917
2026-01-29 02:13:57.30	359.19	22.71	-59.1	-76.1	3.6	1.51e+00	0	46	104	0	60	251375
2026-01-29 02:13:58.30	358.94	22.77	-56.5	-74.4	3.6	1.51e+00	0	46	104	0	60	205452
2026-01-29 02:13:59.30	358.69	22.83	-56.4	-74.5	3.6	1.51e+00	0	46	104	0	60	207213
2026-01-29 02:14:00.30	358.44	22.89	-56.8	-74.8	3.6	1.51e+00	0	46	104	0	60	215496
2026-01-29 02:14:01.31	358.19	22.94	-57.2	-75.2	3.6	1.51e+00	0	46	104	0	60	225455
2026-01-29 02:14:02.31	357.94	23.00	-59.8	-76.4	3.6	1.51e+00	0	46	104	0	60	258853
2026-01-29 02:14:03.32	357.68	23.06	-54.9	-74.8	3.6	1.51e+00	0	46	104	0	60	215172
2026-01-29 02:14:04.33	357.42	23.11	-59.7	-76.2	3.6	1.51e+00	0	46	104	0	60	254094
2026-01-29 02:14:05.33	357.17	23.17	-56.9	-75.0	3.6	1.51e+00	0	46	104	0	60	220097
2026-01-29 02:14:06.34	356.91	23.22	-55.6	-75.7	3.6	1.51e+00	0	46	104	0	60	239609
2026-01-29 02:14:07.35	356.65	23.28	-55.7	-75.2	3.6	1.51e+00	0	46	104	0	60	225034
2026-01-29 02:14:08.36	356.39	23.33	-56.5	-75.5	3.6	1.51e+00	0	46	104	0	60	233055
2026-01-29 02:14:09.36	356.13	23.38	-56.7	-75.4	3.6	1.51e+00	0	46	104	0	60	229931
2026-01-29 02:14:10.37	355.86	23.43	-60.1	-76.3	3.6	1.51e+00	0	46	104	0	60	256774
2026-01-29 02:14:11.38	355.60	23.49	-60.3	-76.5	3.6	1.51e+00	0	46	104	0	60	261037
2026-01-29 02:14:12.38	355.34	23.54	-58.6	-76.6	3.6	1.51e+00	0	46	104	0	60	263826
2026-01-29 02:14:13.38	355.07	23.59	-60.4	-76.6	3.6	1.51e+00	0	46	104	0	60	266087
2026-01-29 02:14:14.38	354.81	23.64	-59.3	-76.4	3.6	1.51e+00	0	46	104	0	60	257612
2026-01-29 02:14:15.39	354.54	23.69	-59.0	-76.5	3.6	1.51e+00	0	47	104	0	60	262038
2026-01-29 02:14:16.39	354.28	23.73	-60.3	-76.6	3.6	1.51e+00	0	47	104	0	60	264537
2026-01-29 02:14:17.40	354.01	23.78	-59.1	-76.5	3.6	1.51e+00	0	47	104	0	60	260843
2026-01-29 02:14:18.40	353.74	23.83	-59.2	-76.7	3.6	1.51e+00	0	46	104	0	60	267406
2026-01-29 02:14:19.41	353.47	23.88	-58.3	-76.3	3.6	1.51e+00	0	46	104	0	60	257236
2026-01-29 02:14:20.41	353.20	23.92	-58.2	-76.2	3.6	1.51e+00	0	46	104	0	60	253453
2026-01-29 02:14:21.42	352.93	23.97	-58.1	-76.2	3.6	1.51e+00	0	46	104	0	60	252383
2026-01-29 02:14:22.43	352.66	24.02	-60.2	-76.4	3.6	1.51e+00	0	46	104	0	60	260125
2026-01-29 02:14:23.44	352.38	24.06	-58.4	-76.3	3.6	1.51e+00	0	46	104	0	60	257177
2026-01-29 02:14:24.45	352.11	24.10	-60.1	-77.1	3.6	1.51e+00	0	46	104	0	60	280750
2026-01-29 02:14:25.45	351.84	24.15	-59.9	-76.7	3.6	1.51e+00	0	46	104	0	60	268831
2026-01-29 02:14:26.46	351.56	24.19	-58.2	-76.5	3.6	1.51e+00	0	46	104	0	60	261725
2026-01-29 02:14:27.47	351.28	24.23	-59.8	-76.9	3.6	1.51e+00	0	46	104	0	60	274561
2026-01-29 02:14:28.48	351.01	24.27	-60.0	-76.8	3.6	1.51e+00	0	46	104	0	60	271526
2026-01-29 02:14:29.48	350.73	24.32	-59.6	-76.8	3.6	1.51e+00	0	46	104	0	60	272331
2026-01-29 02:14:30.49	350.45	24.36	-59.6	-76.4	3.6	1.51e+00	0	46	104	0	60	260284
2026-01-29 02:14:31.50	350.17	24.39	-59.8	-76.9	3.6	1.51e+00	0	46	104	0	60	273009
2026-01-29 02:14:32.51	349.89	24.43	-59.9	-76.7	3.6	1.51e+00	0	46	104	0	60	266843
2026-01-29 02:14:33.51	349.61	24.47	-60.0	-77.0	3.6	1.51e+00	0	46	104	0	60	277442
2026-01-29 02:14:34.52	349.33	24.51	-58.8	-76.5	3.6	1.51e+00	0	47	104	0	60	263340
2026-01-29 02:14:35.52	349.05	24.55	-59.4	-76.6	3.6	1.51e+00	0	46	104	0	60	263391
2026-01-29 02:14:36.53	348.77	24.58	-60.0	-76.7	3.6	1.51e+00	0	46	104	0	60	268494
2026-01-29 02:14:37.54	348.49	24.62	-59.6	-76.1	3.6	1.51e+00	0	46	104	0	60	249481
2026-01-29 02:14:38.55	348.20	24.65	-59.9	-76.4	3.6	1.51e+00	0	46	104	0	60	259803
2026-01-29 02:14:39.55	347.92	24.69	-60.1	-76.9	3.6	1.51e+00	0	46	104	0	60	272808
2026-01-29 02:14:40.56	347.63	24.72	-60.3	-76.9	3.6	1.51e+00	0	46	104	0	60	275622
2026-01-29 02:14:41.57	347.35	24.75	-60.4	-76.9	3.6	1.51e+00	0	46	104	0	60	275711
2026-01-29 02:14:42.57	347.06	24.78	-59.6	-76.9	3.6	1.51e+00	0	46	104	0	60	275713
2026-01-29 02:14:43.58	346.78	24.81	-60.0	-76.8	3.6	1.51e+00	0	46	104	0	60	272513
2026-01-29 02:14:44.58	346.49	24.84	-59.9	-77.0	3.6	1.51e+00	0	47	104	0	60	277434
2026-01-29 02:14:45.59	346.20	24.87	-59.3	-76.1	3.6	1.51e+00	0	46	104	0	60	248771
2026-01-29 02:14:46.60	345.91	24.90	-59.1	-76.3	3.6	1.51e+00	0	46	104	0	60	257102
2026-01-29 02:14:47.60	345.63	24.93	-59.7	-76.3	3.6	1.51e+00	0	46	104	0	60	255079
2026-01-29 02:14:48.61	345.34	24.96	-60.0	-76.4	3.6	1.51e+00	0	46	104	0	60	260187
2026-01-29 02:14:49.61	345.05	24.98	-60.4	-76.7	3.6	1.51e+00	0	46	104	0	60	267223
2026-01-29 02:14:50.62	344.76	25.01	-59.3	-76.9	3.6	1.51e+00	0	46	104	0	60	274706
2026-01-29 02:14:51.62	344.47	25.03	-59.4	-77.2	3.6	1.51e+00	0	46	104	0	60	283177
2026-01-29 02:14:52.63	344.18	25.06	-60.7	-76.9	3.6	1.51e+00	0	46	104	0	60	275374
2026-01-29 02:14:53.63	343.89	25.08	-59.7	-77.2	3.6	1.51e+00	0	46	104	0	60	284445
2026-01-29 02:14:54.64	343.59	25.10	-60.7	-76.9	3.6	1.51e+00	0	46	104	0	60	275650
2026-01-29 02:14:55.64	343.30	25.12	-58.6	-76.9	3.6	1.51e+00	0	46	104	0	60	273027
2026-01-29 02:14:56.65	343.01	25.14	-56.8	-75.8	3.6	1.51e+00	0	46	104	0	60	241011
2026-01-29 02:14:57.66	342.72	25.16	-56.6	-76.0	3.5	1.51e+00	0	46	104	0	60	247476
2026-01-29 02:14:58.67	342.42	25.18	-56.5	-75.9	3.6	1.51e+00	0	46	104	0	60	243955
2026-01-29 02:14:59.68	342.13	25.20	-56.6	-75.8	3.6	1.51e+00	0	46	104	0	60	241120
2026-01-29 02:15:00.69	341.83	25.22	-56.8	-76.0	3.6	1.51e+00	0	46	104	0	60	246484
2026-01-29 02:15:01.69	341.54	25.24	-58.6	-76.3	3.6	1.51e+00	0	46	104	0	60	256349
2026-01-29 02:15:02.70	341.24	25.25	-58.7	-77.1	3.6	1.51e+00	0	46	104	0	60	280696
2026-01-29 02:15:03.71	340.95	25.27	-59.5	-77.3	3.6	1.51e+00	0	46	104	0	60	286156
2026-01-29 02:15:04.71	340.65	25.28	-58.8	-76.3	3.6	1.51e+00	0	46	104	0	60	256861
2026-01-29 02:15:05.72	340.36	25.29	-58.6	-76.2	3.6	1.51e+00	0	46	104	0	60	253420
2026-01-29 02:15:06.72	340.06	25.31	-58.1	-76.2	3.6	1.51e+00	0	46	104	0	60	252655
2026-01-29 02:15:07.72	339.77	25.32	-59.1	-76.2	3.6	1.51e+00	0	46	104	0	60	254046
2026-01-29 02:15:08.73	339.47	25.33	-59.2	-76.1	3.6	1.51e+00	0	46	104	0	60	249295
2026-01-29 02:15:09.73	339.18	25.34	-59.2	-76.9	3.6	1.51e+00	0	46	104	0	60	273279
2026-01-29 02:15:10.74	338.88	25.35	-59.6	-76.8	3.6	1.51e+00	0	46	104	0	60	271421
2026-01-29 02:15:11.74	338.58	25.36	-59.4	-76.9	3.6	1.51e+00	0	46	104	0	60	274065
2026-01-29 02:15:12.75	338.29	25.37	-59.4	-77.1	3.6	1.51e+00	0	46	104	0	60	281465
2026-01-29 02:15:13.75	337.99	25.37	-59.4	-76.9	3.6	1.51e+00	0	47	104	0	60	275051
2026-01-29 02:15:14.76	337.69	25.38	-60.2	-77.0	3.6	1.51e+00	0	46	104	0	60	278469
2026-01-29 02:15:15.77	337.39	25.38	-59.9	-77.0	3.6	1.51e+00	0	46	104	0	60	277215
2026-01-29 02:15:16.78	337.10	25.39	-60.2	-77.1	3.6	1.51e+00	0	46	104	0	60	280905
2026-01-29 02:15:17.79	336.80	25.39	-60.0	-77.1	3.6	1.51e+00	0	46	104	0	60	281381
2026-01-29 02:15:18.79	336.50	25.39	-58.4	-76.8	3.6	1.51e+00	0	46	104	0	60	270832
2026-01-29 02:15:19.80	336.20	25.39	-59.9	-77.2	3.6	1.51e+00	0	46	104	0	60	283254
2026-01-29 02:15:20.80	335.91	25.40	-60.1	-77.1	3.6	1.51e+00	0	46	104	0	60	279433
2026-01-29 02:15:21.81	335.61	25.40	-58.0	-76.8	3.6	1.51e+00	0	47	104	0	60	270213
2026-01-29 02:15:22.81	335.31	25.39	-59.7	-76.7	3.6	1.51e+00	0	46	104	0	60	269017
2026-01-29 02:15:23.81	335.02	25.39	-58.9	-77.0	3.6	1.51e+00	0	46	104	0	60	277573
2026-01-29 02:15:24.82	334.72	25.39	-59.7	-77.1	3.6	1.51e+00	0	46	104	0	60	280601
2026-01-29 02:15:25.82	334.42	25.39	-59.9	-77.0	3.6	1.51e+00	0	46	104	0	60	278288
2026-01-29 02:15:26.82	334.13	25.38	-59.9	-76.6	3.6	1.51e+00	0	46	104	0	60	263937
2026-01-29 02:15:27.83	333.83	25.38	-60.2	-76.9	3.6	1.51e+00	0	46	104	0	60	273442
2026-01-29 02:15:28.84	333.53	25.37	-60.4	-77.2	3.6	1.51e+00	0	46	104	0	60	283055
2026-01-29 02:15:29.85	333.23	25.36	-60.5	-77.0	3.6	1.51e+00	0	46	104	0	60	278710
2026-01-29 02:15:30.85	332.94	25.36	-60.2	-76.8	3.6	1.51e+00	0	46	104	0	60	272079
2026-01-29 02:15:31.86	332.64	25.35	-60.7	-77.0	3.6	1.51e+00	0	46	104	0	60	276468
2026-01-29 02:15:32.86	332.34	25.34	-60.6	-77.0	3.6	1.51e+00	0	46	104	0	60	278020
2026-01-29 02:15:33.87	332.05	25.33	-59.8	-77.1	3.6	1.51e+00	0	46	104	0	60	279511
2026-01-29 02:15:34.87	331.75	25.32	-59.8	-77.2	3.6	1.51e+00	0	46	104	0	60	284084
2026-01-29 02:15:35.88	331.45	25.31	-59.2	-76.8	3.6	1.51e+00	0	46	104	0	60	270947
2026-01-29 02:15:36.88	331.16	25.29	-60.3	-77.0	3.6	1.51e+00	0	46	104	0	60	276554
2026-01-29 02:15:37.89	330.86	25.28	-59.2	-76.6	3.6	1.51e+00	0	46	104	0	60	265136
2026-01-29 02:15:38.90	330.57	25.27	-59.2	-76.7	3.6	1.51e+00	0	46	104	0	60	266812
2026-01-29 02:15:39.90	330.27	25.25	-60.3	-76.9	3.6	1.51e+00	0	46	104	0	60	274092
2026-01-29 02:15:40.91	329.98	25.24	-60.3	-77.1	3.6	1.51e+00	0	46	104	0	60	280238
2026-01-29 02:15:41.91	329.69	25.22	-59.4	-76.9	3.6	1.51e+00	0	46	104	0	60	274465
2026-01-29 02:15:42.92	329.39	25.20	-60.4	-76.9	3.6	1.51e+00	0	46	104	0	60	274628
2026-01-29 02:15:43.93	329.10	25.18	-60.3	-76.9	3.6	1.51e+00	0	46	104	0	60	273001
2026-01-29 02:15:44.93	328.80	25.16	-60.7	-77.2	3.6	1.51e+00	0	46	104	0	60	284984
2026-01-29 02:15:45.94	328.51	25.14	-58.8	-76.9	3.6	1.51e+00	0	46	104	0	60	273477
2026-01-29 02:15:46.95	328.22	25.12	-60.6	-76.8	3.6	1.51e+00	0	46	104	0	60	270336
2026-01-29 02:15:47.96	327.92	25.10	-60.2	-77.0	3.6	1.51e+00	0	46	104	0	60	278674
2026-01-29 02:15:48.96	327.63	25.08	-60.8	-77.3	3.6	1.51e+00	0	46	104	0	60	285929
2026-01-29 02:15:49.97	327.34	25.06	-59.3	-76.8	3.6	1.51e+00	0	46	104	0	60	271029
2026-01-29 02:15:50.98	327.05	25.03	-60.6	-76.8	3.6	1.51e+00	0	46	104	0	60	269575
2026-01-29 02:15:51.98	326.76	25.01	-60.5	-77.1	3.6	1.51e+00	0	46	104	0	60	279477
2026-01-29 02:15:52.99	326.47	24.98	-59.9	-77.2	3.6	1.51e+00	0	46	104	0	60	283585
2026-01-29 02:15:53.99	326.18	24.95	-59.2	-76.8	3.6	1.51e+00	0	46	104	0	60	269652
2026-01-29 02:15:54.99	325.89	24.93	-59.6	-76.4	3.6	1.51e+00	0	46	104	0	60	260258
2026-01-29 02:15:56.00	325.60	24.90	-60.7	-77.0	3.6	1.51e+00	0	47	104	0	60	278457
2026-01-29 02:15:57.01	325.31	24.87	-59.6	-76.8	3.6	1.51e+00	0	46	104	0	60	270957
2026-01-29 02:15:58.01	325.03	24.84	-59.7	-76.4	3.6	1.51e+00	0	46	104	0	60	258196
2026-01-29 02:15:59.02	324.74	24.81	-60.1	-76.6	3.6	1.51e+00	0	46	104	0	60	264685
2026-01-29 02:16:00.03	324.45	24.78	-59.9	-76.7	3.6	1.51e+00	0	46	104	0	60	269217
2026-01-29 02:16:01.03	324.17	24.75	-59.7	-76.7	3.6	1.51e+00	0	46	104	0	60	267011
2026-01-29 02:16:02.04	323.88	24.72	-59.4	-76.8	3.6	1.51e+00	0	46	104	0	60	270000
2026-01-29 02:16:03.05	323.60	24.68	-59.2	-77.0	3.6	1.51e+00	0	46	104	0	60	277546
2026-01-29 02:16:04.06	323.31	24.65	-60.1	-76.7	3.6	1.51e+00	0	46	104	0	60	267518
2026-01-29 02:16:05.07	323.03	24.61	-57.9	-76.6	3.6	1.51e+00	0	47	104	0	60	264386
2026-01-29 02:16:06.08	322.74	24.58	-59.8	-76.9	3.6	1.51e+00	0	46	104	0	60	275577
2026-01-29 02:16:07.09	322.46	24.54	-59.0	-76.8	3.6	1.51e+00	0	47	104	0	60	272380
2026-01-29 02:16:08.09	322.18	24.51	-58.8	-76.7	3.5	1.51e+00	0	47	104	0	60	268061
2026-01-29 02:16:09.10	321.90	24.47	-58.5	-76.5	3.6	1.51e+00	0	47	104	0	60	260875
2026-01-29 02:16:10.11	321.61	24.43	-57.9	-77.0	3.6	1.51e+00	0	47	104	0	60	275982
2026-01-29 02:16:11.12	321.33	24.39	-59.9	-77.0	3.6	1.51e+00	0	46	104	0	60	275939
2026-01-29 02:16:12.12	321.06	24.35	-58.6	-76.7	3.6	1.51e+00	0	46	104	0	60	267864
2026-01-29 02:16:13.13	320.78	24.31	-58.7	-76.3	3.6	1.51e+00	0	46	104	0	60	255941
2026-01-29 02:16:14.13	320.50	24.27	-58.1	-76.9	3.6	1.51e+00	0	46	104	0	60	273884
2026-01-29 02:16:15.13	320.23	24.23	-60.3	-76.9	3.6	1.51e+00	0	46	104	0	60	274594
2026-01-29 02:16:16.14	319.95	24.19	-58.8	-76.4	3.6	1.51e+00	0	46	104	0	60	259141
2026-01-29 02:16:17.15	319.67	24.15	-59.8	-76.3	3.6	1.51e+00	0	46	104	0	60	255008
2026-01-29 02:16:18.16	319.40	24.10	-58.6	-76.6	3.6	1.51e+00	0	46	104	0	60	265023
2026-01-29 02:16:19.16	319.13	24.06	-59.9	-77.0	3.6	1.51e+00	0	46	104	0	60	276183
2026-01-29 02:16:20.17	318.85	24.01	-59.8	-76.4	3.6	1.51e+00	0	46	104	0	60	260258
2026-01-29 02:16:21.18	318.58	23.97	-59.5	-75.9	3.6	1.51e+00	0	46	104	0	60	245110
2026-01-29 02:16:22.18	318.31	23.92	-59.0	-76.4	3.6	1.51e+00	0	47	104	0	60	260142
2026-01-29 02:16:23.19	318.04	23.88	-59.5	-76.2	3.6	1.51e+00	0	46	104	0	60	252538
2026-01-29 02:16:24.19	317.77	23.83	-59.5	-76.1	3.6	1.51e+00	0	46	104	0	60	251269
2026-01-29 02:16:25.20	317.50	23.78	-59.5	-76.2	3.6	1.51e+00	0	46	104	0	60	254272
2026-01-29 02:16:26.20	317.23	23.73	-59.0	-76.7	3.6	1.51e+00	0	46	104	0	60	268756
2026-01-29 02:16:27.21	316.97	23.68	-59.4	-76.2	3.6	1.51e+00	0	46	104	0	60	252888
2026-01-29 02:16:28.21	316.70	23.63	-59.0	-76.6	3.6	1.51e+00	0	46	104	0	60	263376
2026-01-29 02:16:29.22	316.43	23.58	-58.8	-76.8	3.6	1.51e+00	0	46	104	0	60	271185
2026-01-29 02:16:30.23	316.17	23.53	-58.8	-76.1	3.6	1.51e+00	0	46	104	0	60	248726
2026-01-29 02:16:31.23	315.91	23.48	-58.9	-76.3	3.6	1.51e+00	0	46	104	0	60	257090
2026-01-29 02:16:32.23	315.64	23.43	-58.6	-76.3	3.6	1.51e+00	0	46	104	0	60	257026
2026-01-29 02:16:33.24	315.38	23.38	-58.6	-76.3	3.6	1.51e+00	0	46	104	0	60	255714
2026-01-29 02:16:34.25	315.12	23.32	-56.3	-75.2	3.6	1.51e+00	0	46	104	0	60	224346
2026-01-29 02:16:35.25	314.86	23.27	-58.9	-76.7	3.6	1.51e+00	0	46	104	0	60	269075
2026-01-29 02:16:36.26	314.60	23.22	-60.2	-76.6	3.6	1.51e+00	0	46	104	0	60	263932
2026-01-29 02:16:37.27	314.34	23.16	-59.9	-76.8	3.6	1.51e+00	0	47	104	0	60	271122
2026-01-29 02:16:38.28	314.08	23.11	-59.6	-76.5	3.6	1.51e+00	0	46	104	0	60	263249
2026-01-29 02:16:39.28	313.83	23.05	-59.5	-76.2	3.6	1.51e+00	0	46	104	0	60	252308
2026-01-29 02:16:40.28	313.57	23.00	-59.8	-76.8	3.6	1.51e+00	0	46	104	0	60	271135
2026-01-29 02:16:41.29	313.32	22.94	-59.3	-76.4	3.6	1.51e+00	0	46	104	0	60	259246
2026-01-29 02:16:42.29	313.07	22.88	-59.8	-76.4	3.6	1.51e+00	0	46	104	0	60	257987
2026-01-29 02:16:43.30	312.81	22.83	-58.9	-76.3	3.6	1.51e+00	0	46	104	0	60	256342
2026-01-29 02:16:44.31	312.56	22.77	-59.0	-76.3	3.6	1.51e+00	0	46	104	0	60	255846
2026-01-29 02:16:45.32	312.31	22.71	-59.0	-76.3	3.6	1.51e+00	0	46	104	0	60	254615
2026-01-29 02:16:46.33	312.06	22.65	-59.0	-76.1	3.6	1.51e+00	0	46	104	0	60	249278
2026-01-29 02:16:47.33	311.81	22.59	-59.0	-76.3	3.6	1.51e+00	0	46	104	0	60	255106
2026-01-29 02:16:48.34	311.56	22.53	-58.9	-76.3	3.6	1.51e+00	0	46	104	0	60	256616
2026-01-29 02:16:49.35	311.31	22.47	-58.8	-76.7	3.6	1.51e+00	0	46	104	0	60	267326
2026-01-29 02:16:50.36	311.06	22.41	-59.0	-76.4	3.6	1.51e+00	0	46	104	0	60	259436
2026-01-29 02:16:51.36	310.82	22.35	-58.8	-76.3	3.6	1.51e+00	0	46	104	0	60	256174
2026-01-29 02:16:52.37	310.57	22.29	-58.8	-76.6	3.6	1.51e+00	0	46	104	0	60	263787
2026-01-29 02:16:53.38	310.33	22.23	-58.4	-76.4	3.6	1.51e+00	0	46	104	0	60	258572
2026-01-29 02:16:54.38	310.09	22.16	-58.1	-76.2	3.6	1.51e+00	0	46	104	0	60	253429
2026-01-29 02:16:55.39	309.85	22.10	-59.3	-76.3	3.6	1.51e+00	0	46	104	0	60	254803
2026-01-29 02:16:56.40	309.60	22.04	-58.7	-76.4	3.6	1.51e+00	0	46	104	0	60	259398
2026-01-29 02:16:57.41	309.36	21.97	-59.1	-76.4	3.6	1.51e+00	0	46	104	0	60	259253
2026-01-29 02:16:58.41	309.13	21.91	-58.1	-76.1	3.6	1.51e+00	0	47	104	0	60	249308
2026-01-29 02:16:59.42	308.89	21.85	-59.6	-76.3	3.6	1.51e+00	0	46	104	0	60	255920
2026-01-29 02:17:00.42	308.65	21.78	-59.1	-76.4	3.6	1.51e+00	0	46	104	0	60	259400
2026-01-29 02:17:01.42	308.42	21.72	-59.8	-76.6	3.6	1.51e+00	0	47	104	0	60	264153
2026-01-29 02:17:02.43	308.18	21.65	-58.7	-76.1	3.6	1.51e+00	0	46	104	0	60	251036
2026-01-29 02:17:03.43	307.95	21.59	-59.0	-76.1	3.6	1.51e+00	0	46	104	0	60	249290
2026-01-29 02:17:04.44	307.72	21.52	-59.7	-76.4	3.6	1.51e+00	0	46	104	0	60	258187
2026-01-29 02:17:05.44	307.49	21.46	-58.8	-76.4	3.6	1.51e+00	0	46	104	0	60	259168
2026-01-29 02:17:06.45	307.26	21.39	-59.1	-76.2	3.6	1.51e+00	0	47	104	0	60	252156
2026-01-29 02:17:07.46	307.03	21.32	-58.3	-76.0	3.6	1.51e+00	0	46	104	0	60	246030
2026-01-29 02:17:08.47	306.80	21.25	-58.9	-76.2	3.6	1.51e+00	0	46	104	0	60	252329
2026-01-29 02:17:09.48	306.57	21.19	-57.9	-76.2	3.6	1.51e+00	0	46	104	0	60	253625
2026-01-29 02:17:10.49	306.34	21.12	-59.0	-76.1	3.6	1.51e+00	0	46	104	0	60	249896
2026-01-29 02:17:11.50	306.12	21.05	-58.1	-75.9	3.6	1.51e+00	0	46	104	0	60	245397
2026-01-29 02:17:12.51	305.89	20.98	-58.1	-76.0	3.6	1.51e+00	0	46	104	0	60	246310
2026-01-29 02:17:13.52	305.67	20.91	-57.9	-76.1	3.6	1.51e+00	0	46	104	0	60	250704
2026-01-29 02:17:14.52	305.45	20.84	-58.6	-75.9	3.6	1.51e+00	0	46	104	0	60	245024
2026-01-29 02:17:15.53	305.22	20.77	-58.2	-76.0	3.6	1.51e+00	0	46	104	0	60	246759
2026-01-29 02:17:16.54	305.00	20.70	-58.0	-76.0	3.6	1.51e+00	0	46	104	0	60	248237
2026-01-29 02:17:17.55	304.78	20.63	-58.2	-76.0	3.6	1.51e+00	0	46	104	0	60	247543
2026-01-29 02:17:18.56	304.56	20.56	-58.0	-75.6	3.5	1.51e+00	0	46	104	0	60	236647
2026-01-29 02:17:19.56	304.35	20.49	-58.1	-75.7	3.6	1.51e+00	0	46	104	0	60	240162
2026-01-29 02:17:20.57	304.13	20.42	-58.3	-75.9	3.5	1.51e+00	0	46	104	0	60	243144
2026-01-29 02:17:21.57	303.91	20.35	-58.0	-75.6	3.6	1.51e+00	0	46	104	0	60	236725
2026-01-29 02:17:22.58	303.70	20.28	-57.8	-75.4	3.6	1.51e+00	0	46	104	0	60	231067
2026-01-29 02:17:23.58	303.49	20.21	-58.1	-75.4	3.6	1.51e+00	0	46	104	0	60	230490
2026-01-29 02:17:24.58	303.28	20.14	-58.0	-75.4	3.6	1.51e+00	0	46	104	0	60	231410
2026-01-29 02:17:25.59	303.06	20.07	-58.2	-75.8	3.6	1.51e+00	0	46	104	0	60	241806
2026-01-29 02:17:26.59	302.85	20.00	-58.5	-76.1	3.6	1.51e+00	0	46	104	0	60	250398
2026-01-29 02:17:27.60	302.64	19.93	-58.2	-75.9	3.6	1.51e+00	0	46	104	0	60	243345
2026-01-29 02:17:28.61	302.44	19.85	-58.2	-74.8	3.6	1.51e+00	0	46	104	0	60	216374
2026-01-29 02:17:29.62	302.23	19.78	-58.3	-74.8	3.6	1.51e+00	0	46	104	0	60	214206
2026-01-29 02:17:30.62	302.02	19.71	-58.1	-75.3	3.6	1.51e+00	0	46	104	0	60	228110
2026-01-29 02:17:31.63	301.82	19.64	-58.0	-75.2	3.6	1.51e+00	0	46	104	0	60	225408
2026-01-29 02:17:32.64	301.61	19.56	-58.2	-75.0	3.6	1.51e+00	0	46	104	0	60	220922
2026-01-29 02:17:33.65	301.41	19.49	-58.8	-75.1	3.6	1.51e+00	0	46	104	0	60	221896
2026-01-29 02:17:34.65	301.20	19.42	-58.1	-75.5	3.6	1.51e+00	0	47	104	0	60	234294
2026-01-29 02:17:35.66	301.00	19.34	-58.0	-75.7	3.6	1.51e+00	0	47	104	0	60	238401
2026-01-29 02:17:36.67	300.80	19.27	-58.4	-76.1	3.6	1.51e+00	0	46	104	0	60	249746
2026-01-29 02:17:37.68	300.60	19.20	-58.0	-75.8	3.6	1.51e+00	0	46	104	0	60	240587
2026-01-29 02:17:38.69	300.40	19.12	-59.0	-75.4	3.6	1.51e+00	0	46	104	0	60	229435
2026-01-29 02:17:39.69	300.20	19.05	-58.9	-75.2	3.6	1.51e+00	0	46	104	0	60	225171
2026-01-29 02:17:40.70	300.01	18.97	-58.7	-75.3	3.6	1.51e+00	0	46	104	0	60	229055
2026-01-29 02:17:41.71	299.81	18.90	-59.6	-75.3	3.6	1.51e+00	0	46	104	0	60	228590
2026-01-29 02:17:42.72	299.62	18.82	-58.8	-75.6	3.6	1.51e+00	0	46	104	0	60	237186
2026-01-29 02:17:43.73	299.42	18.75	-57.6	-75.8	3.6	1.51e+00	0	47	104	0	60	241951
2026-01-29 02:17:44.73	299.23	18.68	-58.5	-76.4	3.6	1.51e+00	0	46	104	0	60	258919
2026-01-29 02:17:45.74	299.04	18.60	-57.5	-75.2	3.6	1.51e+00	0	46	104	0	60	226143
2026-01-29 02:17:46.75	298.84	18.53	-57.8	-74.9	3.5	1.51e+00	0	46	104	0	60	218928
2026-01-29 02:17:47.76	298.65	18.45	-57.9	-74.7	3.6	1.51e+00	0	46	104	0	60	212090
2026-01-29 02:17:48.76	298.47	18.38	-58.0	-75.0	3.6	1.51e+00	0	46	104	0	60	220246
2026-01-29 02:17:49.77	298.28	18.30	-57.3	-74.4	3.6	1.51e+00	0	46	104	0	60	205628
2026-01-29 02:17:50.77	298.09	18.23	-57.6	-75.4	3.6	1.54e+00	0	46	104	0	60	230623
2026-01-29 02:17:51.77	297.91	18.15	-57.5	-75.8	3.6	1.51e+00	0	46	104	0	60	240221
2026-01-29 02:17:52.78	297.72	18.07	-58.2	-76.3	3.6	1.51e+00	0	46	104	0	60	256468
2026-01-29 02:17:53.78	297.54	18.00	-57.6	-75.5	3.6	1.51e+00	0	46	104	0	60	232841
2026-01-29 02:17:54.79	297.35	17.92	-58.1	-75.4	3.6	1.51e+00	0	46	104	0	60	231302
2026-01-29 02:17:55.80	297.17	17.85	-58.2	-75.2	3.6	1.51e+00	0	47	104	0	60	225898
2026-01-29 02:17:56.80	296.99	17.77	-58.3	-75.4	3.6	1.51e+00	0	46	104	0	60	229684
2026-01-29 02:17:57.81	296.81	17.70	-57.4	-75.8	3.6	1.51e+00	0	47	104	0	60	242045
2026-01-29 02:17:58.82	296.63	17.62	-57.4	-76.3	3.6	1.51e+00	0	46	104	0	60	254669
2026-01-29 02:17:59.83	296.45	17.54	-58.5	-75.5	3.6	1.51e+00	0	46	104	0	60	232819
2026-01-29 02:18:00.84	296.27	17.47	-57.6	-75.0	3.6	1.51e+00	0	46	104	0	60	220859
2026-01-29 02:18:01.84	296.09	17.39	-58.2	-75.4	3.6	1.51e+00	0	46	104	0	60	231758
2026-01-29 02:18:02.85	295.92	17.32	-58.2	-75.5	3.6	1.51e+00	0	46	104	0	60	232738
2026-01-29 02:18:03.86	295.74	17.24	-57.8	-75.2	3.6	1.51e+00	0	46	104	0	60	224712
2026-01-29 02:18:04.87	295.57	17.16	-57.6	-75.1	3.6	1.51e+00	0	46	104	0	60	221955
2026-01-29 02:18:05.87	295.39	17.09	-57.2	-74.6	3.6	1.51e+00	0	46	104	0	60	209571
2026-01-29 02:18:06.88	295.22	17.01	-57.7	-75.9	3.6	1.51e+00	0	46	104	0	60	243631
2026-01-29 02:18:07.88	295.05	16.94	-57.1	-74.9	3.6	1.51e+00	0	46	104	0	60	217707
2026-01-29 02:18:08.88	294.88	16.86	-57.2	-74.9	3.6	1.51e+00	0	46	104	0	60	219003
2026-01-29 02:18:09.88	294.71	16.78	-57.2	-75.2	3.6	1.51e+00	0	46	104	0	60	224812
2026-01-29 02:18:10.89	294.54	16.71	-57.1	-75.3	3.6	1.51e+00	0	46	104	0	60	227725
2026-01-29 02:18:11.89	294.37	16.63	-57.1	-74.9	3.6	1.51e+00	0	46	104	0	60	216730
2026-01-29 02:18:12.90	294.21	16.56	-57.1	-74.9	3.6	1.51e+00	0	46	104	0	60	219035
2026-01-29 02:18:13.91	294.04	16.48	-57.9	-75.2	3.6	1.51e+00	0	46	104	0	60	224327
2026-01-29 02:18:14.91	293.87	16.40	-58.4	-75.9	3.5	1.51e+00	0	46	104	0	60	244374
2026-01-29 02:18:15.92	293.71	16.33	-57.9	-76.1	3.6	1.51e+00	0	46	104	0	60	248871
2026-01-29 02:18:16.93	293.54	16.25	-58.7	-76.1	3.6	1.51e+00	0	47	104	0	60	250945
2026-01-29 02:18:17.94	293.38	16.17	-57.9	-75.1	3.6	1.51e+00	0	46	104	0	60	222012
2026-01-29 02:18:18.95	293.22	16.10	-58.0	-74.9	3.6	1.51e+00	0	46	104	0	60	218818
2026-01-29 02:18:19.95	293.06	16.02	-58.2	-74.8	3.6	1.51e+00	0	47	104	0	60	214996
2026-01-29 02:18:20.96	292.90	15.94	-58.4	-74.8	3.6	1.51e+00	0	46	104	0	60	214347
2026-01-29 02:18:21.97	292.74	15.87	-59.3	-76.1	3.6	1.51e+00	0	46	104	0	60	249547
2026-01-29 02:18:22.97	292.58	15.79	-59.0	-76.2	3.6	1.51e+00	0	46	104	0	60	251652
2026-01-29 02:18:23.98	292.42	15.72	-58.9	-75.3	3.6	1.51e+00	0	47	104	0	60	227777
2026-01-29 02:18:24.98	292.26	15.64	-59.1	-75.1	3.6	1.51e+00	0	47	104	0	60	222653
2026-01-29 02:18:25.98	292.11	15.56	-58.5	-75.7	3.6	1.51e+00	0	47	104	0	60	240091
2026-01-29 02:18:26.98	291.95	15.49	-58.7	-75.7	3.6	1.51e+00	0	46	104	0	60	239613
2026-01-29 02:18:27.99	291.80	15.41	-59.0	-75.6	3.6	1.51e+00	0	46	104	0	60	237390
2026-01-29 02:18:29.00	291.64	15.34	-59.1	-75.6	3.6	1.51e+00	0	46	104	0	60	234769
2026-01-29 02:18:30.00	291.49	15.26	-58.7	-74.8	3.6	1.51e+00	0	46	104	0	60	214202
2026-01-29 02:18:31.01	291.34	15.18	-58.4	-75.9	3.6	1.51e+00	0	46	104	0	60	243864
2026-01-29 02:18:32.02	291.18	15.11	-59.1	-76.1	3.6	1.51e+00	0	47	104	0	60	250879
2026-01-29 02:18:33.03	291.03	15.03	-58.5	-76.0	3.6	1.51e+00	0	47	104	0	60	247208
2026-01-29 02:18:34.04	290.88	14.95	-58.6	-75.1	3.6	1.51e+00	0	47	104	0	60	221981
2026-01-29 02:18:35.05	290.73	14.88	-58.6	-74.8	3.6	1.51e+00	0	47	104	0	60	214539
2026-01-29 02:18:36.05	290.58	14.80	-58.4	-74.8	3.6	1.51e+00	0	47	104	0	60	215828
2026-01-29 02:18:37.06	290.44	14.73	-58.2	-74.8	3.6	1.51e+00	0	47	104	0	60	215611
2026-01-29 02:18:38.07	290.29	14.65	-57.9	-74.2	3.6	1.51e+00	0	46	104	0	60	199867
2026-01-29 02:18:39.08	290.14	14.57	-58.6	-75.9	3.6	1.51e+00	0	46	104	0	60	243209
2026-01-29 02:18:40.08	290.00	14.50	-57.7	-75.6	3.6	1.51e+00	0	47	104	0	60	237429
2026-01-29 02:18:41.09	289.85	14.42	-58.4	-75.9	3.6	1.51e+00	0	46	104	0	60	244970
2026-01-29 02:18:42.09	289.71	14.35	-57.9	-75.0	3.5	1.51e+00	0	46	104	0	60	220073
2026-01-29 02:18:43.10	289.57	14.27	-57.8	-74.7	3.6	1.51e+00	0	46	104	0	60	211751
2026-01-29 02:18:44.10	289.42	14.20	-57.6	-74.7	3.6	1.51e+00	0	46	104	0	60	212381
2026-01-29 02:18:45.11	289.28	14.12	-57.5	-74.6	3.6	1.51e+00	0	46	104	0	60	210860
2026-01-29 02:18:46.12	289.14	14.05	-57.4	-74.0	3.6	1.51e+00	0	46	104	0	60	197418
2026-01-29 02:18:47.12	289.00	13.97	-57.6	-75.3	3.6	1.51e+00	0	46	104	0	60	227697
2026-01-29 02:18:48.13	288.86	13.89	-57.9	-75.6	3.6	1.51e+00	0	46	104	0	60	236478
2026-01-29 02:18:49.14	288.72	13.82	-58.4	-75.9	3.6	1.51e+00	0	46	104	0	60	245497
2026-01-29 02:18:50.15	288.58	13.74	-57.5	-74.6	3.6	1.51e+00	0	46	104	0	60	210829
2026-01-29 02:18:51.16	288.44	13.67	-57.4	-74.6	3.6	1.51e+00	0	46	104	0	60	210092
2026-01-29 02:18:52.17	288.31	13.59	-57.4	-74.6	3.6	1.51e+00	0	46	104	0	60	211583
2026-01-29 02:18:53.17	288.17	13.52	-57.4	-74.6	3.6	1.51e+00	0	46	104	0	60	211476
2026-01-29 02:18:54.18	288.04	13.44	-57.5	-73.5	3.6	1.51e+00	0	46	104	0	60	185700
2026-01-29 02:18:55.19	287.90	13.37	-57.7	-74.6	3.6	1.51e+00	0	46	104	0	60	210010
2026-01-29 02:18:56.20	287.77	13.29	-57.6	-74.7	3.6	1.51e+00	0	46	104	0	60	213274
2026-01-29 02:18:57.20	287.63	13.22	-58.1	-75.4	3.6	1.51e+00	0	47	104	0	60	229806
2026-01-29 02:18:58.21	287.50	13.14	-57.7	-75.5	3.6	1.51e+00	0	46	104	0	60	233607
2026-01-29 02:18:59.22	287.37	13.07	-58.6	-75.8	3.6	1.51e+00	0	46	104	0	60	242579
2026-01-29 02:19:00.23	287.24	12.99	-57.8	-74.7	3.6	1.51e+00	0	47	104	0	60	213250
2026-01-29 02:19:01.23	287.11	12.92	-58.0	-73.9	3.6	1.51e+00	0	46	104	0	60	193966
2026-01-29 02:19:02.24	286.98	12.85	-57.5	-74.8	3.6	1.51e+00	0	46	104	0	60	215685
2026-01-29 02:19:03.25	286.85	12.77	-58.0	-74.1	3.6	1.51e+00	0	46	104	0	60	198713
2026-01-29 02:19:04.25	286.72	12.70	-58.0	-74.2	3.6	1.51e+00	0	46	104	0	60	200925
2026-01-29 02:19:05.26	286.59	12.62	-58.0	-74.3	3.6	1.51e+00	0	46	104	0	60	203053
2026-01-29 02:19:06.27	286.46	12.55	-58.4	-75.1	3.6	1.51e+00	0	47	104	0	60	223405
2026-01-29 02:19:07.27	286.34	12.48	-58.5	-75.6	3.6	1.51e+00	0	47	104	0	60	237273
2026-01-29 02:19:08.28	286.21	12.40	-58.1	-74.8	3.6	1.51e+00	0	46	104	0	60	214247
2026-01-29 02:19:09.29	286.08	12.33	-58.1	-73.8	3.6	1.51e+00	0	46	104	0	60	191479
2026-01-29 02:19:10.29	285.96	12.25	-58.0	-74.9	3.6	1.51e+00	0	46	104	0	60	217558
2026-01-29 02:19:11.30	285.84	12.18	-58.1	-74.2	3.6	1.51e+00	0	46	104	0	60	200911
2026-01-29 02:19:12.31	285.71	12.11	-58.1	-74.3	3.6	1.51e+00	0	47	104	0	60	203085
2026-01-29 02:19:13.32	285.59	12.03	-58.1	-74.3	3.6	1.51e+00	0	46	104	0	60	203702
2026-01-29 02:19:14.32	285.47	11.96	-58.1	-74.3	3.6	1.51e+00	0	46	104	0	60	203030
2026-01-29 02:19:15.33	285.35	11.89	-58.4	-75.3	3.6	1.51e+00	0	47	104	0	60	226966
2026-01-29 02:19:16.34	285.22	11.81	-58.5	-75.2	3.6	1.51e+00	0	46	104	0	60	224919
2026-01-29 02:19:17.35	285.10	11.74	-58.7	-75.6	3.6	1.51e+00	0	46	104	0	60	235093
2026-01-29 02:19:18.36	284.98	11.67	-58.2	-74.6	3.6	1.51e+00	0	46	104	0	60	210430
2026-01-29 02:19:19.37	284.86	11.59	-58.2	-75.0	3.6	1.51e+00	0	46	104	0	60	221094
2026-01-29 02:19:20.37	284.75	11.52	-58.1	-74.9	3.6	1.51e+00	0	46	104	0	60	217140
2026-01-29 02:19:21.38	284.63	11.45	-58.1	-75.0	3.6	1.51e+00	0	46	104	0	60	221117
2026-01-29 02:19:22.39	284.51	11.38	-58.7	-74.7	3.6	1.51e+00	0	46	104	0	60	212185
2026-01-29 02:19:23.40	284.39	11.30	-58.1	-74.8	3.6	1.51e+00	0	46	104	0	60	215606
2026-01-29 02:19:24.40	284.28	11.23	-58.6	-75.4	3.6	1.51e+00	0	46	104	0	60	231899
2026-01-29 02:19:25.41	284.16	11.16	-58.7	-75.4	3.6	1.51e+00	0	46	104	0	60	231721
2026-01-29 02:19:26.41	284.05	11.09	-58.0	-74.7	3.6	1.51e+00	0	47	104	0	60	212794
2026-01-29 02:19:27.42	283.93	11.01	-58.0	-74.8	3.6	1.51e+00	0	46	104	0	60	216020
2026-01-29 02:19:28.43	283.82	10.94	-58.1	-74.9	3.6	1.51e+00	0	46	104	0	60	216971
2026-01-29 02:19:29.44	283.71	10.87	-58.1	-75.3	3.6	1.51e+00	0	46	104	0	60	227403
2026-01-29 02:19:30.44	283.59	10.80	-58.7	-74.2	3.6	1.51e+00	0	46	104	0	60	201483
2026-01-29 02:19:31.45	283.48	10.73	-57.9	-74.5	3.6	1.51e+00	0	46	104	0	60	208639
2026-01-29 02:19:32.46	283.37	10.65	-58.4	-75.2	3.6	1.51e+00	0	47	104	0	60	225667
2026-01-29 02:19:33.47	283.26	10.58	-58.5	-75.2	3.6	1.51e+00	0	46	104	0	60	226625
2026-01-29 02:19:34.47	283.15	10.51	-57.9	-74.7	3.6	1.51e+00	0	47	104	0	60	211743
2026-01-29 02:19:35.48	283.04	10.44	-58.0	-75.0	3.6	1.51e+00	0	46	104	0	60	220107
2026-01-29 02:19:36.48	282.93	10.37	-58.1	-74.9	3.6	1.51e+00	0	47	104	0	60	217452
2026-01-29 02:19:37.49	282.82	10.30	-57.8	-74.8	3.6	1.51e+00	0	46	104	0	60	214379
2026-01-29 02:19:38.50	282.71	10.23	-58.2	-74.9	3.6	1.51e+00	0	47	104	0	60	218634
2026-01-29 02:19:39.50	282.60	10.16	-58.1	-74.8	3.6	1.51e+00	0	46	104	0	60	215955
2026-01-29 02:19:40.51	282.50	10.09	-58.1	-74.7	3.6	1.51e+00	0	46	104	0	60	212896
2026-01-29 02:19:41.52	282.39	10.01	-58.4	-74.8	3.6	1.51e+00	0	47	104	0	60	215665
2026-01-29 02:19:42.52	282.28	9.94	-58.2	-74.7	3.6	1.51e+00	0	46	104	0	60	213377
2026-01-29 02:19:43.53	282.18	9.87	-58.4	-73.5	3.6	1.51e+00	0	46	104	0	60	185938
2026-01-29 02:19:44.54	282.07	9.80	-58.3	-73.5	3.7	1.51e+00	0	46	104	0	60	186191
2026-01-29 02:19:45.55	281.97	9.73	-58.3	-74.2	3.6	1.50e+00	0	46	104	0	60	200052
2026-01-29 02:19:46.56	281.86	9.66	-58.0	-74.3	3.6	1.51e+00	0	46	104	0	60	203838
2026-01-29 02:19:47.56	281.76	9.59	-57.6	-74.6	3.6	1.51e+00	0	47	104	0	60	211031
2026-01-29 02:19:48.57	281.66	9.52	-57.5	-74.7	3.6	1.51e+00	0	47	104	0	60	211687
2026-01-29 02:19:49.58	281.55	9.45	-57.6	-74.9	3.6	1.51e+00	0	47	104	0	60	218183
2026-01-29 02:19:50.58	281.45	9.38	-58.2	-74.8	3.5	1.51e+00	0	47	104	0	60	214594
2026-01-29 02:19:51.58	281.35	9.31	-58.4	-75.2	3.6	1.51e+00	0	47	104	0	60	226228
2026-01-29 02:19:52.59	281.25	9.24	-58.4	-75.3	3.6	1.51e+00	0	46	104	0	60	227652
2026-01-29 02:19:53.59	281.15	9.18	-58.1	-74.6	3.6	1.51e+00	0	47	104	0	60	210545
2026-01-29 02:19:54.60	281.05	9.11	-57.6	-74.8	3.6	1.51e+00	0	47	104	0	60	215077
2026-01-29 02:19:55.61	280.95	9.04	-57.6	-74.8	3.6	1.51e+00	0	46	104	0	60	215889
2026-01-29 02:19:56.62	280.85	8.97	-58.2	-74.6	3.6	1.51e+00	0	46	104	0	60	210371
2026-01-29 02:19:57.63	280.75	8.90	-57.9	-74.6	3.6	1.51e+00	0	47	104	0	60	211254
2026-01-29 02:19:58.64	280.65	8.83	-57.6	-75.0	3.6	1.51e+00	0	47	104	0	60	219381
2026-01-29 02:19:59.64	280.56	8.76	-58.1	-74.7	3.6	1.51e+00	0	47	104	0	60	212708
2026-01-29 02:20:00.65	280.46	8.69	-58.3	-74.7	3.6	1.51e+00	0	47	104	0	60	211767
2026-01-29 02:20:01.66	280.36	8.62	-58.2	-74.9	3.5	1.51e+00	0	46	104	0	60	218140
2026-01-29 02:20:02.67	280.27	8.55	-57.8	-74.9	3.6	1.51e+00	0	46	104	0	60	217448
2026-01-29 02:20:03.68	280.17	8.49	-58.3	-74.6	3.6	1.51e+00	0	46	104	0	60	211105
2026-01-29 02:20:04.69	280.08	8.42	-58.5	-74.6	3.6	1.51e+00	0	47	104	0	60	211544
2026-01-29 02:20:05.69	279.98	8.35	-58.3	-74.8	3.6	1.51e+00	0	47	104	0	60	215644
2026-01-29 02:20:06.70	279.89	8.28	-57.9	-75.0	3.6	1.51e+00	0	47	104	0	60	219091
2026-01-29 02:20:07.70	279.79	8.21	-58.4	-74.7	3.6	1.51e+00	0	47	104	0	60	213880
2026-01-29 02:20:08.71	279.70	8.15	-58.6	-74.7	3.6	1.51e+00	0	47	104	0	60	213253
2026-01-29 02:20:09.71	279.61	8.08	-58.3	-75.0	3.6	1.51e+00	0	47	104	0	60	219101
2026-01-29 02:20:10.72	279.51	8.01	-58.0	-75.0	3.5	1.51e+00	0	46	104	0	60	219656
2026-01-29 02:20:11.73	279.42	7.94	-58.5	-74.8	3.6	1.51e+00	0	47	104	0	60	215194
2026-01-29 02:20:12.73	279.33	7.88	-58.5	-74.8	3.6	1.51e+00	0	46	104	0	60	214754
2026-01-29 02:20:13.74	279.24	7.81	-58.3	-75.2	3.6	1.51e+00	0	47	104	0	60	224193
2026-01-29 02:20:14.75	279.15	7.74	-58.0	-75.1	3.6	1.51e+00	0	47	104	0	60	221849
2026-01-29 02:20:15.76	279.06	7.67	-58.6	-74.9	3.6	1.51e+00	0	46	104	0	60	218059
2026-01-29 02:20:16.77	278.97	7.61	-58.6	-74.7	3.6	1.51e+00	0	47	104	0	60	213322
2026-01-29 02:20:17.77	278.88	7.54	-58.5	-75.0	3.6	1.51e+00	0	46	104	0	60	219435
2026-01-29 02:20:18.78	278.79	7.47	-58.1	-75.1	3.6	1.51e+00	0	47	104	0	60	223253
2026-01-29 02:20:19.79	278.70	7.41	-58.5	-74.7	3.6	1.51e+00	0	47	104	0	60	213581
2026-01-29 02:20:20.79	278.61	7.34	-58.6	-74.7	3.6	1.51e+00	0	47	104	0	60	211709
2026-01-29 02:20:21.80	278.52	7.27	-58.5	-75.0	3.6	1.51e+00	0	47	104	0	60	220247
2026-01-29 02:20:22.80	278.44	7.21	-58.5	-74.9	3.6	1.51e+00	0	46	104	0	60	217548
2026-01-29 02:20:23.81	278.35	7.14	-58.7	-74.8	3.6	1.51e+00	0	46	104	0	60	214630
2026-01-29 02:20:24.81	278.26	7.08	-58.7	-74.8	3.6	1.51e+00	0	46	104	0	60	214913
2026-01-29 02:20:25.82	278.18	7.01	-58.6	-74.5	3.6	1.51e+00	0	46	104	0	60	208470
2026-01-29 02:20:26.82	278.09	6.94	-58.6	-75.0	3.6	1.51e+00	0	46	104	0	60	220883
2026-01-29 02:20:27.83	278.01	6.88	-58.6	-75.2	3.6	1.51e+00	0	46	104	0	60	224397
2026-01-29 02:20:28.84	277.92	6.81	-58.7	-74.7	3.6	1.51e+00	0	46	104	0	60	211881
2026-01-29 02:20:29.84	277.84	6.75	-58.6	-75.2	3.6	1.51e+00	0	46	104	0	60	224363
2026-01-29 02:20:30.85	277.75	6.68	-58.8	-75.0	3.6	1.51e+00	0	46	104	0	60	221421
2026-01-29 02:20:31.86	277.67	6.62	-58.6	-74.8	3.6	1.51e+00	0	47	104	0	60	216403
2026-01-29 02:20:32.86	277.59	6.55	-58.5	-74.8	3.6	1.51e+00	0	46	104	0	60	216243
2026-01-29 02:20:33.87	277.50	6.49	-58.6	-74.8	3.6	1.51e+00	0	47	104	0	60	215301
2026-01-29 02:20:34.88	277.42	6.42	-58.6	-75.1	3.6	1.51e+00	0	47	104	0	60	222442
2026-01-29 02:20:35.89	277.34	6.35	-58.6	-75.2	3.6	1.51e+00	0	46	104	0	60	224980
2026-01-29 02:20:36.89	277.25	6.29	-58.5	-74.5	3.6	1.51e+00	0	46	104	0	60	207041
2026-01-29 02:20:37.90	277.17	6.23	-58.8	-75.2	3.6	1.51e+00	0	46	104	0	60	226003
