passes_logs/2026/01/29/R3.2S-Naryan-Mar/R3.2S-Naryan-Mar__20260129_160825_FENGYUN_3E_rec.log

#Pass ID: 20260129_160825_FENGYUN 3E
#Satellite: FENGYUN 3E
#Configuration: FENGYUN 3E
#almurnet v.1.7.20240730
#Start time: 2026-01-29 16:08:25

#Version: 2.2.20231116
#Station: R3.2S-Naryan-Mar
#Location: 53.008057 lon 67.646978 lat
#TLE: 1 49008U 21062A   26028.95833242 -.00000015  00000+0  13843-4 0  9995
#TLE: 2 49008  98.7500  33.9242 0002547 112.2873 247.8573 14.19887818236829

#Time	Az	El	Level	Level2	SNR	BER	BlckErr	Temp	State	Recorded	gain1	gain2
2026-01-29 16:08:25.81	245.15	0.02	-57.7	-72.9	3.4	8.45e-01	0	44	0	0	60	172169
2026-01-29 16:08:26.81	245.25	0.06	-58.6	-71.5	3.6	8.43e-01	0	45	104	0	60	147001
2026-01-29 16:08:27.82	245.34	0.10	-58.6	-71.5	3.6	8.45e-01	0	45	104	0	60	147001
2026-01-29 16:08:28.83	245.44	0.15	-58.6	-71.5	3.6	8.46e-01	0	45	104	0	60	147001
2026-01-29 16:08:29.83	245.53	0.19	-58.6	-71.5	3.6	8.45e-01	0	45	104	0	60	147001
2026-01-29 16:08:30.84	245.63	0.23	-58.6	-71.5	3.6	8.45e-01	0	45	104	0	60	147001
2026-01-29 16:08:31.84	245.72	0.27	-58.6	-71.5	3.6	8.45e-01	0	45	104	0	60	147001
2026-01-29 16:08:32.85	245.82	0.31	-58.6	-71.5	3.6	8.45e-01	0	45	104	0	60	147001
2026-01-29 16:08:33.86	245.91	0.35	-58.6	-71.5	3.6	8.45e-01	0	45	104	0	60	147001
2026-01-29 16:08:34.86	246.01	0.39	-58.6	-71.5	3.6	8.45e-01	0	45	104	0	60	147001
2026-01-29 16:08:35.87	246.11	0.44	-58.6	-71.5	3.6	8.45e-01	0	45	104	0	60	147001
2026-01-29 16:08:36.87	246.20	0.48	-58.6	-71.5	3.6	8.45e-01	0	45	104	0	60	147001
2026-01-29 16:08:37.88	246.30	0.52	-58.6	-71.5	3.6	8.45e-01	0	45	104	0	60	147001
2026-01-29 16:08:38.88	246.40	0.56	-58.6	-71.5	3.6	8.45e-01	0	45	104	0	60	147001
2026-01-29 16:08:39.89	246.49	0.60	-58.6	-71.5	3.6	8.46e-01	0	45	104	0	60	147001
2026-01-29 16:08:40.89	246.59	0.64	-58.6	-71.5	3.6	8.45e-01	0	46	104	0	60	147001
2026-01-29 16:08:41.90	246.69	0.68	-58.6	-71.5	3.6	8.45e-01	0	45	104	0	60	147001
2026-01-29 16:08:42.91	246.79	0.72	-58.6	-71.5	3.5	8.45e-01	0	45	104	0	60	147001
2026-01-29 16:08:43.91	246.89	0.77	-58.6	-71.5	3.6	8.46e-01	0	46	104	0	60	147001
2026-01-29 16:08:44.92	246.98	0.81	-58.6	-71.5	3.6	8.45e-01	0	45	104	0	60	147001
2026-01-29 16:08:45.93	247.08	0.85	-58.6	-71.5	3.6	8.44e-01	0	46	104	0	60	147001
2026-01-29 16:08:46.93	247.18	0.89	-58.6	-71.5	3.6	8.46e-01	0	45	104	0	60	147001
2026-01-29 16:08:47.94	247.28	0.93	-58.6	-71.5	3.6	8.46e-01	0	45	104	0	60	147001
2026-01-29 16:08:48.94	247.38	0.97	-58.6	-71.5	3.6	8.45e-01	0	45	104	0	60	147001
2026-01-29 16:08:49.95	247.48	1.01	-58.6	-71.5	3.6	8.46e-01	0	46	104	0	60	147001
2026-01-29 16:08:50.96	247.58	1.05	-58.6	-71.5	3.6	8.47e-01	0	45	104	0	60	147001
2026-01-29 16:08:51.97	247.68	1.10	-58.6	-71.5	3.6	8.45e-01	0	45	104	0	60	147001
2026-01-29 16:08:52.98	247.79	1.14	-58.6	-71.5	3.6	8.44e-01	0	46	104	0	60	147001
2026-01-29 16:08:53.98	247.89	1.18	-58.6	-71.5	3.6	8.45e-01	0	46	104	0	60	147001
2026-01-29 16:08:54.99	247.99	1.22	-58.6	-71.5	3.6	8.46e-01	0	45	104	0	60	147001
2026-01-29 16:08:56.00	248.09	1.26	-58.6	-71.5	3.6	8.45e-01	0	45	104	0	60	147001
2026-01-29 16:08:57.00	248.19	1.30	-58.6	-71.5	3.6	8.46e-01	0	46	104	0	60	147001
2026-01-29 16:08:58.01	248.29	1.34	-58.6	-71.5	3.6	8.47e-01	0	46	104	0	60	147001
2026-01-29 16:08:59.01	248.40	1.38	-58.6	-71.5	3.6	8.46e-01	0	46	104	0	60	147001
2026-01-29 16:09:00.02	248.50	1.42	-58.6	-71.5	3.6	8.44e-01	0	46	104	0	60	147001
2026-01-29 16:09:01.03	248.60	1.47	-58.6	-71.5	3.6	8.46e-01	0	46	104	0	60	147001
2026-01-29 16:09:02.04	248.71	1.51	-58.6	-71.5	3.6	8.46e-01	0	46	104	0	60	147001
2026-01-29 16:09:03.04	248.81	1.55	-58.6	-71.5	3.6	8.46e-01	0	46	104	0	60	147001
2026-01-29 16:09:04.05	248.91	1.59	-58.6	-71.5	3.6	8.45e-01	0	46	104	0	60	147001
2026-01-29 16:09:05.06	249.02	1.63	-58.6	-71.5	3.6	8.46e-01	0	46	104	0	60	147001
2026-01-29 16:09:06.06	249.12	1.67	-58.6	-71.5	3.6	8.44e-01	0	46	104	0	60	147001
2026-01-29 16:09:07.06	249.23	1.71	-58.6	-71.5	3.6	8.46e-01	0	46	104	0	60	147001
2026-01-29 16:09:08.07	249.33	1.75	-58.6	-71.5	3.6	8.45e-01	0	46	104	0	60	147001
2026-01-29 16:09:09.08	249.44	1.79	-58.6	-71.5	3.6	8.45e-01	0	46	104	0	60	147001
2026-01-29 16:09:10.08	249.54	1.83	-58.6	-71.5	3.6	8.44e-01	0	46	104	0	60	147001
2026-01-29 16:09:11.09	249.65	1.88	-58.6	-71.5	3.6	8.46e-01	0	46	104	0	60	147001
2026-01-29 16:09:12.10	249.76	1.92	-58.6	-71.5	3.6	8.46e-01	0	46	104	0	60	147001
2026-01-29 16:09:13.10	249.86	1.96	-58.6	-71.5	3.6	8.44e-01	0	45	104	0	60	147001
2026-01-29 16:09:14.11	249.97	2.00	-58.6	-71.5	3.6	8.46e-01	0	46	104	0	60	147001
2026-01-29 16:09:15.11	250.07	2.04	-58.6	-71.5	3.6	8.45e-01	0	46	104	0	60	147001
2026-01-29 16:09:16.12	250.18	2.08	-58.6	-71.5	3.6	8.46e-01	0	46	104	0	60	147001
2026-01-29 16:09:17.12	250.29	2.12	-58.6	-71.5	3.6	8.45e-01	0	46	104	0	60	147001
2026-01-29 16:09:18.13	250.40	2.16	-58.6	-71.5	3.6	8.45e-01	0	46	104	0	60	147001
2026-01-29 16:09:19.14	250.51	2.20	-58.6	-71.5	3.6	8.46e-01	0	46	104	0	60	147001
2026-01-29 16:09:20.15	250.61	2.24	-58.6	-71.5	3.6	8.45e-01	0	46	104	0	60	147001
2026-01-29 16:09:21.15	250.72	2.28	-58.6	-71.5	3.6	8.45e-01	0	46	104	0	60	147001
2026-01-29 16:09:22.15	250.83	2.32	-58.6	-71.5	3.5	8.44e-01	0	46	104	0	60	147001
2026-01-29 16:09:23.16	250.94	2.37	-58.6	-71.5	3.6	8.44e-01	0	46	104	0	60	147001
2026-01-29 16:09:24.16	251.05	2.41	-58.6	-71.5	3.6	8.45e-01	0	46	104	0	60	147001
2026-01-29 16:09:25.16	251.16	2.45	-58.6	-71.5	3.6	8.44e-01	0	46	104	0	60	147001
2026-01-29 16:09:26.17	251.27	2.49	-58.6	-71.5	3.6	8.45e-01	0	46	104	0	60	147001
2026-01-29 16:09:27.16	251.38	2.53	-58.6	-71.5	3.6	8.44e-01	0	46	104	0	60	147001
2026-01-29 16:09:28.17	251.49	2.57	-58.6	-71.5	3.6	8.45e-01	0	46	104	0	60	147001
2026-01-29 16:09:29.17	251.60	2.61	-58.6	-71.5	3.6	8.46e-01	0	46	104	0	60	147001
2026-01-29 16:09:30.17	251.71	2.65	-58.6	-71.5	3.6	8.45e-01	0	46	104	0	60	147001
2026-01-29 16:09:31.18	251.82	2.69	-58.6	-71.5	3.6	8.44e-01	0	46	104	0	60	147001
2026-01-29 16:09:32.19	251.93	2.73	-58.6	-71.5	3.6	8.46e-01	0	46	104	0	60	147001
2026-01-29 16:09:33.19	252.04	2.77	-58.6	-71.5	3.6	8.46e-01	0	46	104	0	60	147001
2026-01-29 16:09:34.20	252.16	2.81	-58.6	-71.5	3.6	8.46e-01	0	46	104	0	60	147001
2026-01-29 16:09:35.21	252.27	2.85	-58.6	-71.5	3.6	8.45e-01	0	46	104	0	60	147001
2026-01-29 16:09:36.21	252.38	2.89	-58.6	-71.5	3.6	8.43e-01	0	46	104	0	60	147001
2026-01-29 16:09:37.22	252.50	2.93	-58.6	-71.5	3.6	8.45e-01	0	46	104	0	60	147001
2026-01-29 16:09:38.23	252.61	2.97	-58.6	-71.5	3.6	8.45e-01	0	46	104	0	60	147001
2026-01-29 16:09:39.24	252.73	3.01	-58.6	-71.5	3.6	8.45e-01	0	46	104	0	60	147001
2026-01-29 16:09:40.24	252.84	3.05	-58.6	-71.5	3.6	8.46e-01	0	46	104	0	60	147001
2026-01-29 16:09:41.25	252.95	3.09	-58.6	-71.5	3.6	8.46e-01	0	46	104	0	60	147001
2026-01-29 16:09:42.26	253.07	3.13	-58.6	-71.5	3.6	8.44e-01	0	46	104	0	60	147001
2026-01-29 16:09:43.26	253.18	3.17	-58.6	-71.5	3.6	8.44e-01	0	46	104	0	60	147001
2026-01-29 16:09:44.26	253.30	3.21	-58.6	-71.5	3.6	8.45e-01	0	46	104	0	60	147001
2026-01-29 16:09:45.27	253.41	3.25	-58.6	-71.5	3.6	8.45e-01	0	46	104	0	60	147001
2026-01-29 16:09:46.28	253.53	3.29	-58.6	-71.5	3.6	8.46e-01	0	46	104	0	60	147001
2026-01-29 16:09:47.28	253.65	3.33	-58.6	-71.5	3.6	8.45e-01	0	46	104	0	60	147001
2026-01-29 16:09:48.29	253.76	3.37	-58.6	-71.5	3.6	8.46e-01	0	46	104	0	60	147001
2026-01-29 16:09:49.29	253.88	3.41	-58.6	-71.5	3.6	8.45e-01	0	46	104	0	60	147001
2026-01-29 16:09:50.30	254.00	3.45	-58.6	-71.5	3.6	8.46e-01	0	46	104	0	60	147001
2026-01-29 16:09:51.31	254.12	3.49	-58.6	-71.5	3.5	8.45e-01	0	46	104	0	60	147001
2026-01-29 16:09:52.32	254.23	3.53	-58.6	-71.5	3.6	8.46e-01	0	46	104	0	60	147001
2026-01-29 16:09:53.32	254.35	3.57	-58.6	-71.5	3.6	8.45e-01	0	46	104	0	60	147001
2026-01-29 16:09:54.33	254.47	3.61	-58.6	-71.5	3.6	8.46e-01	0	46	104	0	60	147001
2026-01-29 16:09:55.34	254.59	3.65	-58.6	-71.5	3.6	8.45e-01	0	46	104	0	60	147001
2026-01-29 16:09:56.35	254.71	3.69	-58.6	-71.5	3.6	8.45e-01	0	46	104	0	60	147001
2026-01-29 16:09:57.35	254.83	3.73	-58.6	-71.5	3.6	8.44e-01	0	46	104	0	60	147001
2026-01-29 16:09:58.36	254.95	3.77	-58.6	-71.5	3.6	8.45e-01	0	46	104	0	60	147001
2026-01-29 16:09:59.37	255.07	3.81	-58.6	-71.5	3.6	8.46e-01	0	46	104	0	60	147001
2026-01-29 16:10:00.38	255.19	3.85	-58.6	-71.5	3.6	8.45e-01	0	46	104	0	60	147001
2026-01-29 16:10:01.38	255.31	3.89	-58.6	-71.5	3.6	8.46e-01	0	46	104	0	60	147001
2026-01-29 16:10:02.38	255.43	3.93	-58.6	-71.5	3.6	8.46e-01	0	46	104	0	60	147001
2026-01-29 16:10:03.39	255.55	3.97	-58.6	-71.5	3.6	8.45e-01	0	46	104	0	60	147001
2026-01-29 16:10:04.39	255.67	4.01	-58.6	-71.5	3.6	8.46e-01	0	46	104	0	60	147001
2026-01-29 16:10:05.40	255.79	4.04	-58.6	-71.5	3.6	8.46e-01	0	46	104	0	60	147001
2026-01-29 16:10:06.40	255.91	4.08	-58.6	-71.5	3.6	8.47e-01	0	46	104	0	60	147001
2026-01-29 16:10:07.41	256.04	4.12	-58.6	-71.5	3.6	8.44e-01	0	46	104	0	60	147001
2026-01-29 16:10:08.42	256.16	4.16	-58.6	-71.5	3.5	8.46e-01	0	46	104	0	60	147001
2026-01-29 16:10:09.42	256.28	4.20	-58.6	-71.5	3.6	8.45e-01	0	46	104	0	60	147001
2026-01-29 16:10:10.43	256.41	4.24	-58.6	-71.5	3.6	8.45e-01	0	46	104	0	60	147001
2026-01-29 16:10:11.44	256.53	4.28	-58.6	-71.5	3.6	8.45e-01	0	46	104	0	60	147001
2026-01-29 16:10:12.44	256.65	4.32	-58.6	-71.5	3.6	8.46e-01	0	46	104	0	60	147001
2026-01-29 16:10:13.45	256.78	4.36	-58.6	-71.5	3.6	8.46e-01	0	46	104	0	60	147001
2026-01-29 16:10:14.46	256.90	4.40	-58.6	-71.5	3.6	8.46e-01	0	46	104	0	60	147001
2026-01-29 16:10:15.47	257.03	4.43	-58.6	-71.5	3.6	8.46e-01	0	46	104	0	60	147001
2026-01-29 16:10:16.47	257.15	4.47	-58.6	-71.5	3.6	8.45e-01	0	46	104	0	60	147001
2026-01-29 16:10:17.47	257.28	4.51	-58.6	-71.5	3.6	8.44e-01	0	46	104	0	60	147001
2026-01-29 16:10:18.48	257.41	4.55	-58.6	-71.5	3.6	8.44e-01	0	46	104	0	60	147001
2026-01-29 16:10:19.48	257.53	4.59	-58.6	-71.5	3.6	8.46e-01	0	46	104	0	60	147001
2026-01-29 16:10:20.49	257.66	4.63	-58.6	-71.5	3.6	8.46e-01	0	46	104	0	60	147001
2026-01-29 16:10:21.50	257.79	4.67	-58.6	-71.5	3.6	8.46e-01	0	46	104	0	60	147001
2026-01-29 16:10:22.50	257.91	4.70	-58.6	-71.5	3.6	8.46e-01	0	46	104	0	60	147001
2026-01-29 16:10:23.51	258.04	4.74	-58.6	-71.5	3.6	8.44e-01	0	46	104	0	60	147001
2026-01-29 16:10:24.52	258.17	4.78	-58.6	-71.5	3.6	8.46e-01	0	46	104	0	60	147001
2026-01-29 16:10:25.53	258.30	4.82	-58.6	-71.5	3.6	8.46e-01	0	46	104	0	60	147001
2026-01-29 16:10:26.54	258.43	4.86	-58.6	-71.5	3.6	8.46e-01	0	46	104	0	60	147001
2026-01-29 16:10:27.54	258.55	4.89	-58.6	-71.5	3.6	8.45e-01	0	46	104	0	60	147001
2026-01-29 16:10:28.55	258.68	4.93	-58.6	-71.5	3.6	8.45e-01	0	46	104	0	60	147001
2026-01-29 16:10:29.56	258.81	4.97	-58.6	-71.5	3.6	8.45e-01	0	46	104	0	60	147001
2026-01-29 16:10:30.57	258.94	5.01	-58.6	-71.5	3.6	8.45e-01	0	46	104	0	60	147001
2026-01-29 16:10:31.57	259.07	5.05	-58.6	-71.5	3.6	8.43e-01	0	46	104	0	60	147001
2026-01-29 16:10:32.58	259.20	5.08	-58.6	-71.5	3.6	8.45e-01	0	46	104	0	60	147001
2026-01-29 16:10:33.59	259.34	5.12	-58.6	-71.5	3.6	8.45e-01	0	46	104	0	60	147001
2026-01-29 16:10:34.59	259.47	5.16	-58.6	-71.5	3.6	8.45e-01	0	46	104	0	60	147001
2026-01-29 16:10:35.59	259.60	5.20	-58.6	-71.5	3.6	8.46e-01	0	46	104	0	60	147001
2026-01-29 16:10:36.60	259.73	5.23	-58.6	-71.5	3.6	8.45e-01	0	46	104	0	60	147001
2026-01-29 16:10:37.60	259.86	5.27	-58.6	-71.5	3.5	8.46e-01	0	46	104	0	60	147001
2026-01-29 16:10:38.61	259.99	5.31	-58.6	-71.5	3.6	8.45e-01	0	46	104	0	60	147001
2026-01-29 16:10:39.62	260.13	5.34	-58.6	-71.5	3.6	8.45e-01	0	46	104	0	60	147001
2026-01-29 16:10:40.63	260.26	5.38	-58.6	-71.5	3.6	8.46e-01	0	46	104	0	60	147001
2026-01-29 16:10:41.63	260.39	5.42	-58.6	-71.5	3.6	8.46e-01	0	46	104	0	60	147001
2026-01-29 16:10:42.64	260.53	5.46	-58.6	-71.5	3.6	8.46e-01	0	46	104	0	60	147001
2026-01-29 16:10:43.64	260.66	5.49	-58.6	-71.5	3.6	8.44e-01	0	46	104	0	60	147001
2026-01-29 16:10:44.65	260.79	5.53	-58.6	-71.5	3.6	8.45e-01	0	46	104	0	60	147001
2026-01-29 16:10:45.66	260.93	5.57	-58.6	-71.5	3.6	8.45e-01	0	46	104	0	60	147001
2026-01-29 16:10:46.67	261.06	5.60	-58.6	-71.5	3.6	8.45e-01	0	46	104	0	60	147001
2026-01-29 16:10:47.68	261.20	5.64	-58.6	-71.5	3.7	8.45e-01	0	46	104	0	60	147001
2026-01-29 16:10:48.68	261.34	5.68	-58.6	-71.5	3.8	8.43e-01	0	46	104	0	60	147001
2026-01-29 16:10:49.69	261.47	5.71	-58.6	-71.5	3.9	8.43e-01	0	46	104	0	60	147001
2026-01-29 16:10:50.69	261.61	5.75	-58.6	-71.5	4.2	8.37e-01	0	46	0	0	60	147001
2026-01-29 16:10:51.69	261.74	5.78	-58.6	-71.5	6.6	8.08e-01	0	46	0	0	60	147001
2026-01-29 16:10:52.70	261.88	5.82	-58.6	-71.5	9.9	7.17e-01	0	46	0	0	60	147001
2026-01-29 16:10:53.70	262.02	5.86	-58.6	-71.5	12.8	6.23e-01	0	46	0	0	60	147001
2026-01-29 16:10:54.71	262.16	5.89	-58.6	-71.5	14.6	5.76e-01	0	46	0	0	60	147001
2026-01-29 16:10:55.71	262.29	5.93	-58.6	-71.5	15.8	5.49e-01	0	46	0	0	60	147001
2026-01-29 16:10:56.72	262.43	5.96	-58.6	-71.5	16.1	5.45e-01	0	46	0	0	60	147001
2026-01-29 16:10:57.72	262.57	6.00	-58.6	-71.5	15.9	5.46e-01	0	46	0	0	60	147001
2026-01-29 16:10:58.73	262.71	6.04	-58.6	-71.5	14.1	5.47e-01	0	46	0	0	60	147001
2026-01-29 16:10:59.74	262.85	6.07	-58.6	-71.5	12.4	5.53e-01	0	46	0	0	60	147001
2026-01-29 16:11:00.75	262.99	6.11	-58.6	-71.5	11.8	5.66e-01	0	46	0	0	60	147001
2026-01-29 16:11:01.75	263.13	6.14	-58.6	-71.5	3.6	7.64e-01	0	46	104	0	60	147001
2026-01-29 16:11:02.76	263.27	6.18	-58.6	-71.5	8.5	8.44e-01	0	46	104	0	60	147001
2026-01-29 16:11:03.77	263.41	6.21	-58.6	-71.5	3.5	7.13e-01	0	46	0	0	60	147001
2026-01-29 16:11:04.78	263.55	6.25	-58.6	-71.5	3.6	7.91e-01	0	46	104	0	60	147001
2026-01-29 16:11:05.78	263.69	6.28	-58.6	-71.5	3.6	8.45e-01	0	46	104	0	60	147001
2026-01-29 16:11:06.79	263.83	6.32	-58.6	-71.5	3.6	8.45e-01	0	46	104	0	60	147001
2026-01-29 16:11:07.80	263.97	6.35	-58.6	-71.5	3.6	8.46e-01	0	46	104	0	60	147001
2026-01-29 16:11:08.81	264.12	6.39	-58.6	-71.5	3.6	8.46e-01	0	46	104	0	60	147001
2026-01-29 16:11:09.82	264.26	6.42	-58.6	-71.5	3.6	8.46e-01	0	46	104	0	60	147001
2026-01-29 16:11:10.83	264.40	6.46	-58.6	-71.5	3.6	8.45e-01	0	46	104	0	60	147001
2026-01-29 16:11:11.83	264.55	6.49	-58.6	-71.5	3.6	8.45e-01	0	46	104	0	60	147001
2026-01-29 16:11:12.84	264.69	6.52	-58.6	-71.5	3.6	8.45e-01	0	46	104	0	60	147001
2026-01-29 16:11:13.85	264.83	6.56	-58.6	-71.5	3.6	8.45e-01	0	46	104	0	60	147001
2026-01-29 16:11:14.86	264.98	6.59	-58.6	-71.5	3.6	8.45e-01	0	46	104	0	60	147001
2026-01-29 16:11:15.86	265.12	6.63	-58.6	-71.5	3.6	8.45e-01	0	46	104	0	60	147001
2026-01-29 16:11:16.87	265.27	6.66	-58.6	-71.5	3.6	8.46e-01	0	46	104	0	60	147001
2026-01-29 16:11:17.87	265.41	6.69	-58.6	-71.5	3.6	8.45e-01	0	46	104	0	60	147001
2026-01-29 16:11:18.88	265.56	6.73	-58.6	-71.5	3.6	8.46e-01	0	46	104	0	60	147001
2026-01-29 16:11:19.88	265.70	6.76	-58.6	-71.5	3.6	8.46e-01	0	46	104	0	60	147001
2026-01-29 16:11:20.89	265.85	6.79	-58.6	-71.5	3.6	8.44e-01	0	46	104	0	60	147001
2026-01-29 16:11:21.89	265.99	6.83	-58.6	-71.5	3.6	8.46e-01	0	46	104	0	60	147001
2026-01-29 16:11:22.90	266.14	6.86	-58.6	-71.5	3.6	8.45e-01	0	46	104	0	60	147001
2026-01-29 16:11:23.90	266.29	6.89	-58.6	-71.5	3.6	8.46e-01	0	46	104	0	60	147001
2026-01-29 16:11:24.91	266.44	6.93	-58.6	-71.5	3.6	8.46e-01	0	46	104	0	60	147001
2026-01-29 16:11:25.91	266.58	6.96	-58.6	-71.5	3.6	8.44e-01	0	46	104	0	60	147001
2026-01-29 16:11:26.92	266.73	6.99	-58.6	-71.5	3.6	8.45e-01	0	46	104	0	60	147001
2026-01-29 16:11:27.92	266.88	7.02	-58.6	-71.5	3.6	8.45e-01	0	46	104	0	60	147001
2026-01-29 16:11:28.92	267.03	7.06	-58.6	-71.5	3.6	8.47e-01	0	46	104	0	60	147001
2026-01-29 16:11:29.93	267.17	7.09	-58.6	-71.5	3.6	8.44e-01	0	46	104	0	60	147001
2026-01-29 16:11:30.94	267.32	7.12	-58.6	-71.5	3.6	8.45e-01	0	46	104	0	60	147001
2026-01-29 16:11:31.95	267.47	7.15	-58.6	-71.5	3.6	8.45e-01	0	46	104	0	60	147001
2026-01-29 16:11:32.96	267.63	7.18	-58.6	-71.5	3.6	8.47e-01	0	46	104	0	60	147001
2026-01-29 16:11:33.96	267.77	7.22	-58.6	-71.5	3.6	8.45e-01	0	46	104	0	60	147001
2026-01-29 16:11:34.97	267.93	7.25	-58.6	-71.5	3.6	8.46e-01	0	47	104	0	60	147001
2026-01-29 16:11:35.97	268.08	7.28	-58.6	-71.5	3.6	8.45e-01	0	46	104	0	60	147001
2026-01-29 16:11:36.97	268.23	7.31	-58.6	-71.5	3.6	8.45e-01	0	46	104	0	60	147001
2026-01-29 16:11:37.98	268.38	7.34	-58.6	-71.5	3.6	8.45e-01	0	46	104	0	60	147001
2026-01-29 16:11:38.98	268.53	7.37	-58.6	-71.5	3.6	8.44e-01	0	46	104	0	60	147001
2026-01-29 16:11:39.99	268.68	7.40	-58.6	-71.5	3.6	8.46e-01	0	46	104	0	60	147001
2026-01-29 16:11:41.00	268.83	7.44	-58.6	-71.5	3.6	8.45e-01	0	46	104	0	60	147001
2026-01-29 16:11:42.00	268.99	7.47	-58.6	-71.5	3.6	8.46e-01	0	46	104	0	60	147001
2026-01-29 16:11:43.01	269.14	7.50	-58.6	-71.5	3.6	8.45e-01	0	46	104	0	60	147001
2026-01-29 16:11:44.01	269.29	7.53	-58.6	-71.5	3.6	8.45e-01	0	46	104	0	60	147001
2026-01-29 16:11:45.02	269.45	7.56	-58.6	-71.5	3.6	8.46e-01	0	46	104	0	60	147001
2026-01-29 16:11:46.02	269.60	7.59	-58.6	-71.5	3.6	8.46e-01	0	46	104	0	60	147001
2026-01-29 16:11:47.03	269.75	7.62	-58.6	-71.5	3.6	8.44e-01	0	46	104	0	60	147001
2026-01-29 16:11:48.04	269.91	7.65	-58.6	-71.5	3.6	8.45e-01	0	46	104	0	60	147001
2026-01-29 16:11:49.04	270.06	7.68	-58.6	-71.5	3.6	8.45e-01	0	46	104	0	60	147001
2026-01-29 16:11:50.05	270.22	7.71	-58.6	-71.5	3.6	8.46e-01	0	46	104	0	60	147001
2026-01-29 16:11:51.06	270.37	7.74	-58.6	-71.5	3.6	8.46e-01	0	46	104	0	60	147001
2026-01-29 16:11:52.06	270.53	7.77	-58.6	-71.5	3.6	8.44e-01	0	46	104	0	60	147001
2026-01-29 16:11:53.07	270.68	7.80	-58.6	-71.5	3.6	8.46e-01	0	46	104	0	60	147001
2026-01-29 16:11:54.08	270.84	7.82	-58.6	-71.5	3.6	8.46e-01	0	46	104	0	60	147001
2026-01-29 16:11:55.08	271.00	7.85	-58.6	-71.5	3.6	8.45e-01	0	47	104	0	60	147001
2026-01-29 16:11:56.08	271.15	7.88	-58.6	-71.5	3.5	8.46e-01	0	46	104	0	60	147001
2026-01-29 16:11:57.09	271.31	7.91	-58.6	-71.5	3.6	8.44e-01	0	46	104	0	60	147001
2026-01-29 16:11:58.09	271.47	7.94	-58.6	-71.5	3.6	8.46e-01	0	46	104	0	60	147001
2026-01-29 16:11:59.10	271.63	7.97	-58.6	-71.5	3.6	8.46e-01	0	46	104	0	60	147001
2026-01-29 16:12:00.10	271.78	8.00	-58.6	-71.5	3.6	8.43e-01	0	46	104	0	60	147001
2026-01-29 16:12:01.11	271.94	8.02	-58.6	-71.5	3.6	8.44e-01	0	46	104	0	60	147001
2026-01-29 16:12:02.12	272.10	8.05	-58.6	-71.5	3.5	8.45e-01	0	46	104	0	60	147001
2026-01-29 16:12:03.12	272.26	8.08	-58.6	-71.5	3.6	8.47e-01	0	46	104	0	60	147001
2026-01-29 16:12:04.13	272.42	8.11	-58.6	-71.5	3.6	8.46e-01	0	46	104	0	60	147001
2026-01-29 16:12:05.14	272.58	8.13	-58.6	-71.5	3.6	8.46e-01	0	46	104	0	60	147001
2026-01-29 16:12:06.15	272.74	8.16	-58.6	-71.5	3.6	8.44e-01	0	46	104	0	60	147001
2026-01-29 16:12:07.15	272.90	8.19	-58.6	-71.5	3.6	8.44e-01	0	46	104	0	60	147001
2026-01-29 16:12:08.16	273.06	8.21	-58.6	-71.5	3.6	8.45e-01	0	46	104	0	60	147001
2026-01-29 16:12:09.17	273.22	8.24	-58.6	-71.5	3.6	8.45e-01	0	46	104	0	60	147001
2026-01-29 16:12:10.18	273.38	8.27	-58.6	-71.5	3.6	8.46e-01	0	46	104	0	60	147001
2026-01-29 16:12:11.18	273.54	8.29	-58.6	-71.5	3.6	8.45e-01	0	46	104	0	60	147001
2026-01-29 16:12:12.19	273.70	8.32	-58.6	-71.5	3.6	8.45e-01	0	46	104	0	60	147001
2026-01-29 16:12:13.20	273.87	8.35	-58.6	-71.5	3.6	8.46e-01	0	46	104	0	60	147001
2026-01-29 16:12:14.20	274.03	8.37	-58.6	-71.5	3.6	8.44e-01	0	46	104	0	60	147001
2026-01-29 16:12:15.21	274.19	8.40	-58.6	-71.5	3.6	8.45e-01	0	46	104	0	60	147001
2026-01-29 16:12:16.22	274.35	8.42	-58.6	-71.5	3.6	8.44e-01	0	46	104	0	60	147001
2026-01-29 16:12:17.22	274.52	8.45	-58.6	-71.5	3.6	8.45e-01	0	46	104	0	60	147001
2026-01-29 16:12:18.23	274.68	8.47	-58.6	-71.5	3.6	8.44e-01	0	46	104	0	60	147001
2026-01-29 16:12:19.24	274.84	8.50	-58.6	-71.5	3.6	8.46e-01	0	46	104	0	60	147001
2026-01-29 16:12:20.25	275.01	8.52	-58.6	-71.5	3.6	8.46e-01	0	46	104	0	60	147001
2026-01-29 16:12:21.26	275.17	8.55	-58.6	-71.5	3.6	8.45e-01	0	46	104	0	60	147001
2026-01-29 16:12:22.26	275.34	8.57	-58.6	-71.5	3.6	8.45e-01	0	47	104	0	60	147001
2026-01-29 16:12:23.27	275.50	8.60	-58.6	-71.5	3.6	8.46e-01	0	46	104	0	60	147001
2026-01-29 16:12:24.28	275.67	8.62	-58.6	-71.5	3.6	8.44e-01	0	46	104	0	60	147001
2026-01-29 16:12:25.28	275.83	8.65	-58.6	-71.5	3.6	8.46e-01	0	47	104	0	60	147001
2026-01-29 16:12:26.29	276.00	8.67	-58.6	-71.5	3.6	8.45e-01	0	46	104	0	60	147001
2026-01-29 16:12:27.30	276.16	8.69	-58.6	-71.5	3.6	8.45e-01	0	47	104	0	60	147001
2026-01-29 16:12:28.31	276.33	8.72	-58.6	-71.5	3.6	8.45e-01	0	46	104	0	60	147001
2026-01-29 16:12:29.32	276.50	8.74	-58.6	-71.5	3.6	8.45e-01	0	46	104	0	60	147001
2026-01-29 16:12:30.32	276.66	8.76	-58.6	-71.5	3.6	8.46e-01	0	46	104	0	60	147001
2026-01-29 16:12:31.33	276.83	8.79	-58.6	-71.5	3.6	8.45e-01	0	46	104	0	60	147001
2026-01-29 16:12:32.33	276.99	8.81	-58.6	-71.5	3.6	8.46e-01	0	46	104	0	60	147001
2026-01-29 16:12:33.34	277.16	8.83	-58.6	-71.5	3.6	8.45e-01	0	46	104	0	60	147001
2026-01-29 16:12:34.34	277.33	8.85	-58.6	-71.5	3.6	8.45e-01	0	46	104	0	60	147001
2026-01-29 16:12:35.34	277.49	8.88	-58.6	-71.5	3.6	8.46e-01	0	46	104	0	60	147001
2026-01-29 16:12:36.35	277.66	8.90	-58.6	-71.5	3.6	8.44e-01	0	46	104	0	60	147001
2026-01-29 16:12:37.35	277.83	8.92	-58.6	-71.5	3.6	8.46e-01	0	46	104	0	60	147001
2026-01-29 16:12:38.36	278.00	8.94	-58.6	-71.5	3.6	8.45e-01	0	46	104	0	60	147001
2026-01-29 16:12:39.37	278.17	8.96	-58.6	-71.5	3.6	8.45e-01	0	46	104	0	60	147001
2026-01-29 16:12:40.38	278.34	8.98	-58.6	-71.5	3.6	8.45e-01	0	46	104	0	60	147001
2026-01-29 16:12:41.39	278.51	9.00	-58.6	-71.5	3.6	8.46e-01	0	46	104	0	60	147001
2026-01-29 16:12:42.39	278.68	9.03	-58.6	-71.5	3.6	8.45e-01	0	46	104	0	60	147001
2026-01-29 16:12:43.40	278.85	9.05	-58.6	-71.5	3.6	8.46e-01	0	46	104	0	60	147001
2026-01-29 16:12:44.41	279.02	9.07	-58.6	-71.5	3.6	8.44e-01	0	46	104	0	60	147001
2026-01-29 16:12:45.42	279.19	9.09	-58.6	-71.5	3.6	8.45e-01	0	46	104	0	60	147001
2026-01-29 16:12:46.43	279.36	9.11	-58.6	-71.5	3.6	8.45e-01	0	47	104	0	60	147001
2026-01-29 16:12:47.43	279.53	9.13	-58.6	-71.5	3.6	8.45e-01	0	47	104	0	60	147001
2026-01-29 16:12:48.44	279.70	9.15	-58.6	-71.5	3.6	8.45e-01	0	47	104	0	60	147001
2026-01-29 16:12:49.44	279.87	9.16	-58.6	-71.5	3.6	8.46e-01	0	46	104	0	60	147001
2026-01-29 16:12:50.44	280.04	9.18	-58.6	-71.5	3.6	8.45e-01	0	46	104	0	60	147001
2026-01-29 16:12:51.45	280.21	9.20	-58.6	-71.5	3.6	8.45e-01	0	46	104	0	60	147001
2026-01-29 16:12:52.45	280.38	9.22	-58.6	-71.5	3.6	8.44e-01	0	46	104	0	60	147001
2026-01-29 16:12:53.46	280.55	9.24	-58.6	-71.5	3.6	8.47e-01	0	46	104	0	60	147001
2026-01-29 16:12:54.46	280.72	9.26	-58.6	-71.5	3.6	8.46e-01	0	47	104	0	60	147001
2026-01-29 16:12:55.46	280.89	9.28	-58.6	-71.5	3.6	8.45e-01	0	46	104	0	60	147001
2026-01-29 16:12:56.47	281.07	9.29	-58.6	-71.5	3.6	8.45e-01	0	47	104	0	60	147001
2026-01-29 16:12:57.48	281.24	9.31	-58.6	-71.5	3.6	8.46e-01	0	47	104	0	60	147001
2026-01-29 16:12:58.49	281.41	9.33	-58.6	-71.5	3.6	8.45e-01	0	46	104	0	60	147001
2026-01-29 16:12:59.50	281.59	9.35	-58.6	-71.5	3.6	8.45e-01	0	46	104	0	60	147001
2026-01-29 16:13:00.50	281.76	9.36	-58.6	-71.5	3.6	8.45e-01	0	46	104	0	60	147001
2026-01-29 16:13:01.51	281.93	9.38	-58.6	-71.5	3.6	8.45e-01	0	46	104	0	60	147001
2026-01-29 16:13:02.51	282.10	9.40	-58.6	-71.5	3.6	8.45e-01	0	46	104	0	60	147001
2026-01-29 16:13:03.51	282.28	9.41	-58.6	-71.5	3.6	8.45e-01	0	47	104	0	60	147001
2026-01-29 16:13:04.51	282.45	9.43	-58.6	-71.5	3.6	8.46e-01	0	46	104	0	60	147001
2026-01-29 16:13:05.52	282.62	9.44	-58.6	-71.5	3.6	8.45e-01	0	46	104	0	60	147001
2026-01-29 16:13:06.52	282.80	9.46	-58.6	-71.5	3.6	8.45e-01	0	46	104	0	60	147001
2026-01-29 16:13:07.53	282.97	9.48	-58.6	-71.5	3.6	8.45e-01	0	46	104	0	60	147001
2026-01-29 16:13:08.53	283.15	9.49	-58.6	-71.5	3.6	8.45e-01	0	46	104	0	60	147001
2026-01-29 16:13:09.54	283.32	9.51	-58.6	-71.5	3.5	8.46e-01	0	46	104	0	60	147001
2026-01-29 16:13:10.54	283.49	9.52	-58.6	-71.5	3.6	8.44e-01	0	46	104	0	60	147001
2026-01-29 16:13:11.55	283.67	9.54	-58.6	-71.5	3.6	8.46e-01	0	46	104	0	60	147001
2026-01-29 16:13:12.56	283.85	9.55	-58.6	-71.5	3.6	8.46e-01	0	46	104	0	60	147001
2026-01-29 16:13:13.57	284.02	9.56	-58.6	-71.5	3.6	8.44e-01	0	46	104	0	60	147001
2026-01-29 16:13:14.58	284.20	9.58	-58.6	-71.5	3.6	8.45e-01	0	46	104	0	60	147001
2026-01-29 16:13:15.59	284.37	9.59	-58.6	-71.5	3.6	8.45e-01	0	47	104	0	60	147001
2026-01-29 16:13:16.60	284.55	9.61	-58.6	-71.5	3.6	8.45e-01	0	46	104	0	60	147001
2026-01-29 16:13:17.60	284.73	9.62	-58.6	-71.5	3.6	8.45e-01	0	46	104	0	60	147001
2026-01-29 16:13:18.60	284.90	9.63	-58.6	-71.5	3.6	8.45e-01	0	46	104	0	60	147001
2026-01-29 16:13:19.61	285.08	9.64	-58.6	-71.5	3.6	8.45e-01	0	46	104	0	60	147001
2026-01-29 16:13:20.62	285.26	9.66	-58.6	-71.5	3.6	8.45e-01	0	46	104	0	60	147001
2026-01-29 16:13:21.62	285.43	9.67	-58.6	-71.5	3.6	8.45e-01	0	46	104	0	60	147001
2026-01-29 16:13:22.63	285.61	9.68	-58.6	-71.5	3.6	8.44e-01	0	46	104	0	60	147001
2026-01-29 16:13:23.64	285.79	9.69	-58.6	-71.5	3.6	8.46e-01	0	47	104	0	60	147001
2026-01-29 16:13:24.65	285.96	9.71	-58.6	-71.5	3.6	8.46e-01	0	47	104	0	60	147001
2026-01-29 16:13:25.66	286.14	9.72	-58.6	-71.5	3.6	8.46e-01	0	47	104	0	60	147001
2026-01-29 16:13:26.66	286.32	9.73	-58.6	-71.5	3.6	8.45e-01	0	46	104	0	60	147001
2026-01-29 16:13:27.67	286.50	9.74	-58.6	-71.5	3.6	8.46e-01	0	46	104	0	60	147001
2026-01-29 16:13:28.67	286.67	9.75	-58.6	-71.5	3.6	8.45e-01	0	46	104	0	60	147001
2026-01-29 16:13:29.68	286.85	9.76	-58.6	-71.5	3.6	8.46e-01	0	47	104	0	60	147001
2026-01-29 16:13:30.68	287.03	9.77	-58.6	-71.5	3.6	8.44e-01	0	47	104	0	60	147001
2026-01-29 16:13:31.69	287.21	9.78	-58.6	-71.5	3.6	8.45e-01	0	46	104	0	60	147001
2026-01-29 16:13:32.70	287.38	9.79	-58.6	-71.5	3.6	8.45e-01	0	46	104	0	60	147001
2026-01-29 16:13:33.70	287.56	9.80	-58.6	-71.5	3.6	8.45e-01	0	46	104	0	60	147001
2026-01-29 16:13:34.71	287.74	9.81	-58.6	-71.5	3.6	8.45e-01	0	46	104	0	60	147001
2026-01-29 16:13:35.72	287.92	9.82	-58.6	-71.5	3.6	8.45e-01	0	46	104	0	60	147001
2026-01-29 16:13:36.72	288.10	9.83	-58.6	-71.5	3.6	8.44e-01	0	46	104	0	60	147001
2026-01-29 16:13:37.72	288.27	9.83	-58.6	-71.5	3.6	8.45e-01	0	46	104	0	60	147001
2026-01-29 16:13:38.72	288.45	9.84	-58.6	-71.5	3.6	8.45e-01	0	46	104	0	60	147001
2026-01-29 16:13:39.72	288.63	9.85	-58.6	-71.5	3.6	8.46e-01	0	46	104	0	60	147001
2026-01-29 16:13:40.72	288.81	9.86	-58.6	-71.5	3.6	8.46e-01	0	46	104	0	60	147001
2026-01-29 16:13:41.72	288.98	9.87	-58.6	-71.5	3.6	8.46e-01	0	47	104	0	60	147001
2026-01-29 16:13:42.72	289.16	9.87	-58.6	-71.5	3.6	8.45e-01	0	46	104	0	60	147001
2026-01-29 16:13:43.72	289.34	9.88	-58.6	-71.5	3.6	8.44e-01	0	47	104	0	60	147001
2026-01-29 16:13:44.72	289.52	9.89	-58.6	-71.5	3.6	8.45e-01	0	46	104	0	60	147001
2026-01-29 16:13:45.73	289.70	9.89	-58.6	-71.5	3.6	8.44e-01	0	46	104	0	60	147001
2026-01-29 16:13:46.74	289.88	9.90	-58.6	-71.5	3.6	8.45e-01	0	46	104	0	60	147001
2026-01-29 16:13:47.74	290.06	9.91	-58.6	-71.5	3.6	8.44e-01	0	46	104	0	60	147001
2026-01-29 16:13:48.75	290.24	9.91	-58.6	-71.5	3.6	8.45e-01	0	46	104	0	60	147001
2026-01-29 16:13:49.75	290.41	9.92	-58.6	-71.5	3.6	8.45e-01	0	47	104	0	60	147001
2026-01-29 16:13:50.75	290.59	9.92	-58.6	-71.5	3.6	8.44e-01	0	47	104	0	60	147001
2026-01-29 16:13:51.76	290.77	9.93	-58.6	-71.5	3.6	8.45e-01	0	47	104	0	60	147001
2026-01-29 16:13:52.76	290.95	9.93	-58.6	-71.5	3.6	8.46e-01	0	47	104	0	60	147001
2026-01-29 16:13:53.77	291.13	9.94	-58.6	-71.5	3.6	8.45e-01	0	47	104	0	60	147001
2026-01-29 16:13:54.77	291.31	9.94	-58.6	-71.5	3.6	8.45e-01	0	47	104	0	60	147001
2026-01-29 16:13:55.77	291.49	9.95	-58.6	-71.5	3.6	8.46e-01	0	47	104	0	60	147001
2026-01-29 16:13:56.77	291.67	9.95	-58.6	-71.5	3.6	8.46e-01	0	47	104	0	60	147001
2026-01-29 16:13:57.78	291.85	9.95	-58.6	-71.5	3.6	8.45e-01	0	47	104	0	60	147001
2026-01-29 16:13:58.78	292.03	9.96	-58.6	-71.5	3.6	8.45e-01	0	47	104	0	60	147001
2026-01-29 16:13:59.79	292.21	9.96	-58.6	-71.5	3.6	8.45e-01	0	47	104	0	60	147001
2026-01-29 16:14:00.79	292.39	9.96	-58.6	-71.5	3.6	8.46e-01	0	47	104	0	60	147001
2026-01-29 16:14:01.80	292.57	9.97	-58.6	-71.5	3.6	8.44e-01	0	47	104	0	60	147001
2026-01-29 16:14:02.80	292.75	9.97	-58.6	-71.5	3.6	8.46e-01	0	47	104	0	60	147001
2026-01-29 16:14:03.81	292.93	9.97	-58.6	-71.5	3.6	8.45e-01	0	46	104	0	60	147001
2026-01-29 16:14:04.82	293.11	9.97	-58.6	-71.5	3.6	8.45e-01	0	46	104	0	60	147001
2026-01-29 16:14:05.82	293.29	9.98	-58.6	-71.5	3.6	8.45e-01	0	46	104	0	60	147001
2026-01-29 16:14:06.81	293.46	9.98	-58.6	-71.5	3.6	8.45e-01	0	46	104	0	60	147001
2026-01-29 16:14:07.82	293.64	9.98	-58.6	-71.5	3.6	8.46e-01	0	46	104	0	60	147001
2026-01-29 16:14:08.82	293.82	9.98	-58.6	-71.5	3.6	8.44e-01	0	46	104	0	60	147001
2026-01-29 16:14:09.83	294.00	9.98	-58.6	-71.5	3.6	8.45e-01	0	47	104	0	60	147001
2026-01-29 16:14:10.84	294.19	9.98	-58.6	-71.5	3.6	8.44e-01	0	46	104	0	60	147001
2026-01-29 16:14:11.84	294.36	9.98	-58.6	-71.5	3.6	8.45e-01	0	47	104	0	60	147001
2026-01-29 16:14:12.85	294.55	9.98	-58.6	-71.5	3.6	8.44e-01	0	46	104	0	60	147001
2026-01-29 16:14:13.85	294.72	9.98	-58.6	-71.5	3.6	8.44e-01	0	46	104	0	60	147001
2026-01-29 16:14:14.85	294.90	9.98	-58.6	-71.5	3.6	8.45e-01	0	46	104	0	60	147001
2026-01-29 16:14:15.86	295.08	9.98	-58.6	-71.5	3.6	8.46e-01	0	46	104	0	60	147001
2026-01-29 16:14:16.87	295.27	9.98	-58.6	-71.5	3.6	8.46e-01	0	46	104	0	60	147001
2026-01-29 16:14:17.87	295.44	9.98	-58.6	-71.5	3.6	8.45e-01	0	46	104	0	60	147001
2026-01-29 16:14:18.88	295.63	9.98	-58.6	-71.5	3.6	8.45e-01	0	47	104	0	60	147001
2026-01-29 16:14:19.89	295.81	9.97	-58.6	-71.5	3.6	8.45e-01	0	46	104	0	60	147001
2026-01-29 16:14:20.90	295.99	9.97	-58.6	-71.5	3.6	8.45e-01	0	46	104	0	60	147001
2026-01-29 16:14:21.91	296.17	9.97	-58.6	-71.5	3.6	8.45e-01	0	46	104	0	60	147001
2026-01-29 16:14:22.91	296.35	9.97	-58.6	-71.5	3.6	8.46e-01	0	46	104	0	60	147001
2026-01-29 16:14:23.92	296.53	9.97	-58.6	-71.5	3.6	8.46e-01	0	47	104	0	60	147001
2026-01-29 16:14:24.93	296.71	9.96	-58.6	-71.5	3.6	8.44e-01	0	46	104	0	60	147001
2026-01-29 16:14:25.93	296.89	9.96	-58.6	-71.5	3.6	8.45e-01	0	46	104	0	60	147001
2026-01-29 16:14:26.94	297.07	9.96	-58.6	-71.5	3.6	8.44e-01	0	47	104	0	60	147001
2026-01-29 16:14:27.95	297.25	9.95	-58.6	-71.5	3.6	8.46e-01	0	46	104	0	60	147001
2026-01-29 16:14:28.95	297.43	9.95	-58.6	-71.5	3.6	8.45e-01	0	47	104	0	60	147001
2026-01-29 16:14:29.96	297.61	9.94	-58.6	-71.5	3.6	8.45e-01	0	47	104	0	60	147001
2026-01-29 16:14:30.96	297.79	9.94	-58.6	-71.5	3.6	8.45e-01	0	46	104	0	60	147001
2026-01-29 16:14:31.97	297.97	9.93	-58.6	-71.5	3.6	8.45e-01	0	46	104	0	60	147001
2026-01-29 16:14:32.97	298.14	9.93	-58.6	-71.5	3.6	8.45e-01	0	47	104	0	60	147001
2026-01-29 16:14:33.97	298.32	9.92	-58.6	-71.5	3.6	8.46e-01	0	46	104	0	60	147001
2026-01-29 16:14:34.98	298.50	9.92	-58.6	-71.5	3.6	8.45e-01	0	46	104	0	60	147001
2026-01-29 16:14:35.99	298.68	9.91	-58.6	-71.5	3.6	8.46e-01	0	47	104	0	60	147001
2026-01-29 16:14:37.00	298.86	9.91	-58.6	-71.5	3.6	8.45e-01	0	47	104	0	60	147001
2026-01-29 16:14:38.00	299.04	9.90	-58.6	-71.5	3.6	8.45e-01	0	46	104	0	60	147001
2026-01-29 16:14:39.01	299.22	9.90	-58.6	-71.5	3.6	8.45e-01	0	46	104	0	60	147001
2026-01-29 16:14:40.02	299.40	9.89	-58.6	-71.5	3.6	8.44e-01	0	47	104	0	60	147001
2026-01-29 16:14:41.03	299.58	9.88	-58.6	-71.5	3.6	8.45e-01	0	46	104	0	60	147001
2026-01-29 16:14:42.03	299.76	9.87	-58.6	-71.5	3.6	8.44e-01	0	46	104	0	60	147001
2026-01-29 16:14:43.04	299.94	9.87	-58.6	-71.5	3.6	8.47e-01	0	46	104	0	60	147001
2026-01-29 16:14:44.05	300.12	9.86	-58.6	-71.5	3.6	8.45e-01	0	46	104	0	60	147001
2026-01-29 16:14:45.06	300.30	9.85	-58.6	-71.5	3.6	8.45e-01	0	46	104	0	60	147001
2026-01-29 16:14:46.07	300.48	9.84	-58.6	-71.5	3.6	8.46e-01	0	46	104	0	60	147001
2026-01-29 16:14:47.08	300.65	9.84	-58.6	-71.5	3.6	8.45e-01	0	46	104	0	60	147001
2026-01-29 16:14:48.08	300.83	9.83	-58.6	-71.5	3.6	8.46e-01	0	47	104	0	60	147001
2026-01-29 16:14:49.09	301.01	9.82	-58.6	-71.5	3.6	8.46e-01	0	47	104	0	60	147001
2026-01-29 16:14:50.10	301.19	9.81	-58.6	-71.5	3.6	8.45e-01	0	46	104	0	60	147001
2026-01-29 16:14:51.11	301.37	9.80	-58.6	-71.5	3.6	8.46e-01	0	46	104	0	60	147001
2026-01-29 16:14:52.11	301.54	9.79	-58.6	-71.5	3.6	8.44e-01	0	47	104	0	60	147001
2026-01-29 16:14:53.12	301.72	9.78	-58.6	-71.5	3.6	8.46e-01	0	47	104	0	60	147001
2026-01-29 16:14:54.13	301.90	9.77	-58.6	-71.5	3.6	8.46e-01	0	46	104	0	60	147001
2026-01-29 16:14:55.13	302.08	9.76	-58.6	-71.5	3.6	8.45e-01	0	47	104	0	60	147001
2026-01-29 16:14:56.14	302.26	9.75	-58.6	-71.5	3.6	8.45e-01	0	46	104	0	60	147001
2026-01-29 16:14:57.15	302.43	9.74	-58.6	-71.5	3.6	8.45e-01	0	46	104	0	60	147001
2026-01-29 16:14:58.16	302.61	9.73	-58.6	-71.5	3.6	8.45e-01	0	46	104	0	60	147001
2026-01-29 16:14:59.16	302.79	9.72	-58.6	-71.5	3.6	8.45e-01	0	46	104	0	60	147001
2026-01-29 16:15:00.17	302.97	9.71	-58.6	-71.5	3.6	8.45e-01	0	46	104	0	60	147001
2026-01-29 16:15:01.18	303.14	9.69	-58.6	-71.5	3.6	8.47e-01	0	46	104	0	60	147001
2026-01-29 16:15:02.18	303.32	9.68	-58.6	-71.5	3.6	8.46e-01	0	46	104	0	60	147001
2026-01-29 16:15:03.19	303.50	9.67	-58.6	-71.5	3.6	8.46e-01	0	46	104	0	60	147001
2026-01-29 16:15:04.20	303.67	9.66	-58.6	-71.5	3.6	8.46e-01	0	46	104	0	60	147001
2026-01-29 16:15:05.21	303.85	9.65	-58.6	-71.5	3.6	8.45e-01	0	46	104	0	60	147001
2026-01-29 16:15:06.22	304.03	9.63	-58.6	-71.5	3.6	8.46e-01	0	47	104	0	60	147001
2026-01-29 16:15:07.23	304.20	9.62	-58.6	-71.5	3.6	8.45e-01	0	46	104	0	60	147001
2026-01-29 16:15:08.24	304.38	9.61	-58.6	-71.5	3.6	8.45e-01	0	46	104	0	60	147001
2026-01-29 16:15:09.24	304.55	9.59	-58.6	-71.5	3.6	8.45e-01	0	47	104	0	60	147001
2026-01-29 16:15:10.25	304.73	9.58	-58.6	-71.5	3.6	8.46e-01	0	47	104	0	60	147001
2026-01-29 16:15:11.26	304.91	9.57	-58.6	-71.5	3.6	8.45e-01	0	47	104	0	60	147001
2026-01-29 16:15:12.27	305.08	9.55	-58.6	-71.5	3.6	8.46e-01	0	47	104	0	60	147001
2026-01-29 16:15:13.28	305.26	9.54	-58.6	-71.5	3.6	8.46e-01	0	47	104	0	60	147001
2026-01-29 16:15:14.28	305.43	9.52	-58.6	-71.5	3.6	8.46e-01	0	47	104	0	60	147001
2026-01-29 16:15:15.29	305.61	9.51	-58.6	-71.5	3.6	8.47e-01	0	46	104	0	60	147001
2026-01-29 16:15:16.30	305.78	9.49	-58.6	-71.5	3.6	8.45e-01	0	47	104	0	60	147001
2026-01-29 16:15:17.31	305.96	9.48	-58.6	-71.5	3.6	8.45e-01	0	47	104	0	60	147001
2026-01-29 16:15:18.32	306.13	9.46	-58.6	-71.5	3.6	8.46e-01	0	47	104	0	60	147001
2026-01-29 16:15:19.32	306.30	9.45	-58.6	-71.5	3.6	8.45e-01	0	47	104	0	60	147001
2026-01-29 16:15:20.32	306.48	9.43	-58.6	-71.5	3.6	8.46e-01	0	46	104	0	60	147001
2026-01-29 16:15:21.33	306.65	9.41	-58.6	-71.5	3.6	8.45e-01	0	47	104	0	60	147001
2026-01-29 16:15:22.33	306.82	9.40	-58.6	-71.5	3.6	8.45e-01	0	47	104	0	60	147001
2026-01-29 16:15:23.34	307.00	9.38	-58.6	-71.5	3.6	8.46e-01	0	47	104	0	60	147001
2026-01-29 16:15:24.35	307.17	9.36	-58.6	-71.5	3.6	8.46e-01	0	47	104	0	60	147001
2026-01-29 16:15:25.35	307.34	9.35	-58.6	-71.5	3.6	8.45e-01	0	47	104	0	60	147001
2026-01-29 16:15:26.36	307.51	9.33	-58.6	-71.5	3.6	8.45e-01	0	47	104	0	60	147001
2026-01-29 16:15:27.37	307.69	9.31	-58.6	-71.5	3.6	8.46e-01	0	47	104	0	60	147001
2026-01-29 16:15:28.38	307.86	9.30	-58.6	-71.5	3.6	8.45e-01	0	47	104	0	60	147001
2026-01-29 16:15:29.38	308.03	9.28	-58.6	-71.5	3.6	8.47e-01	0	47	104	0	60	147001
2026-01-29 16:15:30.39	308.20	9.26	-58.6	-71.5	3.6	8.44e-01	0	47	104	0	60	147001
2026-01-29 16:15:31.39	308.37	9.24	-58.6	-71.5	3.6	8.45e-01	0	47	104	0	60	147001
2026-01-29 16:15:32.40	308.54	9.22	-58.6	-71.5	3.6	8.45e-01	0	47	104	0	60	147001
2026-01-29 16:15:33.41	308.72	9.20	-58.6	-71.5	3.6	8.45e-01	0	47	104	0	60	147001
2026-01-29 16:15:34.41	308.89	9.19	-58.6	-71.5	3.6	8.45e-01	0	47	104	0	60	147001
2026-01-29 16:15:35.41	309.06	9.17	-58.6	-71.5	3.6	8.46e-01	0	47	104	0	60	147001
2026-01-29 16:15:36.42	309.23	9.15	-58.6	-71.5	3.6	8.45e-01	0	47	104	0	60	147001
2026-01-29 16:15:37.42	309.40	9.13	-58.6	-71.5	3.5	8.46e-01	0	47	104	0	60	147001
2026-01-29 16:15:38.43	309.57	9.11	-58.6	-71.5	3.6	8.45e-01	0	47	104	0	60	147001
2026-01-29 16:15:39.44	309.74	9.09	-58.6	-71.5	3.6	8.45e-01	0	47	104	0	60	147001
2026-01-29 16:15:40.44	309.91	9.07	-58.6	-71.5	3.6	8.47e-01	0	47	104	0	60	147001
2026-01-29 16:15:41.45	310.08	9.05	-58.6	-71.5	3.6	8.46e-01	0	47	104	0	60	147001
2026-01-29 16:15:42.46	310.25	9.03	-58.6	-71.5	3.6	8.45e-01	0	47	104	0	60	147001
2026-01-29 16:15:43.47	310.41	9.01	-58.6	-71.5	3.6	8.44e-01	0	47	104	0	60	147001
2026-01-29 16:15:44.48	310.58	8.99	-58.6	-71.5	3.6	8.45e-01	0	47	104	0	60	147001
2026-01-29 16:15:45.49	310.75	8.97	-58.6	-71.5	3.6	8.45e-01	0	47	104	0	60	147001
2026-01-29 16:15:46.50	310.92	8.94	-58.6	-71.5	3.6	8.46e-01	0	47	104	0	60	147001
2026-01-29 16:15:47.50	311.09	8.92	-58.6	-71.5	3.6	8.44e-01	0	47	104	0	60	147001
2026-01-29 16:15:48.51	311.26	8.90	-58.6	-71.5	3.6	8.46e-01	0	47	104	0	60	147001
2026-01-29 16:15:49.52	311.43	8.88	-58.6	-71.5	3.6	8.46e-01	0	47	104	0	60	147001
2026-01-29 16:15:50.53	311.59	8.86	-58.6	-71.5	3.6	8.46e-01	0	47	104	0	60	147001
2026-01-29 16:15:51.54	311.76	8.83	-58.6	-71.5	3.6	8.46e-01	0	47	104	0	60	147001
2026-01-29 16:15:52.54	311.93	8.81	-58.6	-71.5	3.6	8.45e-01	0	47	104	0	60	147001
2026-01-29 16:15:53.54	312.09	8.79	-58.6	-71.5	3.6	8.45e-01	0	47	104	0	60	147001
2026-01-29 16:15:54.55	312.26	8.77	-58.6	-71.5	3.6	8.45e-01	0	47	104	0	60	147001
2026-01-29 16:15:55.56	312.42	8.74	-58.6	-71.5	3.6	8.45e-01	0	47	104	0	60	147001
2026-01-29 16:15:56.57	312.59	8.72	-58.6	-71.5	3.6	8.46e-01	0	47	104	0	60	147001
2026-01-29 16:15:57.57	312.76	8.70	-58.6	-71.5	3.6	8.45e-01	0	47	104	0	60	147001
2026-01-29 16:15:58.58	312.92	8.67	-58.6	-71.5	3.6	8.44e-01	0	47	104	0	60	147001
2026-01-29 16:15:59.59	313.09	8.65	-58.6	-71.5	3.6	8.45e-01	0	47	104	0	60	147001
2026-01-29 16:16:00.60	313.25	8.63	-58.6	-71.5	3.6	8.45e-01	0	47	104	0	60	147001
2026-01-29 16:16:01.61	313.42	8.60	-58.6	-71.5	3.6	8.46e-01	0	46	104	0	60	147001
2026-01-29 16:16:02.62	313.58	8.58	-58.6	-71.5	3.6	8.46e-01	0	47	104	0	60	147001
2026-01-29 16:16:03.62	313.74	8.55	-58.6	-71.5	3.6	8.44e-01	0	47	104	0	60	147001
2026-01-29 16:16:04.63	313.91	8.53	-58.6	-71.5	3.6	8.45e-01	0	46	104	0	60	147001
2026-01-29 16:16:05.64	314.07	8.50	-58.6	-71.5	3.6	8.46e-01	0	47	104	0	60	147001
2026-01-29 16:16:06.65	314.24	8.48	-58.6	-71.5	3.6	8.45e-01	0	47	104	0	60	147001
2026-01-29 16:16:07.65	314.40	8.45	-58.6	-71.5	3.6	8.45e-01	0	47	104	0	60	147001
2026-01-29 16:16:08.66	314.56	8.43	-58.6	-71.5	3.6	8.45e-01	0	47	104	0	60	147001
2026-01-29 16:16:09.67	314.72	8.40	-58.6	-71.5	3.6	8.44e-01	0	47	104	0	60	147001
2026-01-29 16:16:10.68	314.89	8.38	-58.6	-71.5	3.6	8.45e-01	0	47	104	0	60	147001
2026-01-29 16:16:11.68	315.05	8.35	-58.6	-71.5	3.6	8.44e-01	0	47	104	0	60	147001
2026-01-29 16:16:12.69	315.21	8.33	-58.6	-71.5	3.6	8.46e-01	0	47	104	0	60	147001
2026-01-29 16:16:13.70	315.37	8.30	-58.6	-71.5	3.6	8.45e-01	0	46	104	0	60	147001
2026-01-29 16:16:14.71	315.53	8.27	-58.6	-71.5	3.6	8.45e-01	0	47	104	0	60	147001
2026-01-29 16:16:15.72	315.69	8.25	-58.6	-71.5	3.6	8.46e-01	0	47	104	0	60	147001
2026-01-29 16:16:16.73	315.85	8.22	-58.6	-71.5	3.6	8.45e-01	0	47	104	0	60	147001
2026-01-29 16:16:17.73	316.01	8.19	-58.6	-71.5	3.6	8.45e-01	0	47	104	0	60	147001
2026-01-29 16:16:18.74	316.17	8.17	-58.6	-71.5	3.6	8.45e-01	0	47	104	0	60	147001
2026-01-29 16:16:19.75	316.33	8.14	-58.6	-71.5	3.6	8.45e-01	0	47	104	0	60	147001
2026-01-29 16:16:20.76	316.49	8.11	-58.6	-71.5	3.6	8.46e-01	0	46	104	0	60	147001
2026-01-29 16:16:21.76	316.65	8.09	-58.6	-71.5	3.6	8.45e-01	0	47	104	0	60	147001
2026-01-29 16:16:22.77	316.81	8.06	-58.6	-71.5	3.6	8.47e-01	0	46	104	0	60	147001
2026-01-29 16:16:23.78	316.97	8.03	-58.6	-71.5	3.6	8.45e-01	0	47	104	0	60	147001
2026-01-29 16:16:24.78	317.13	8.00	-58.6	-71.5	3.6	8.45e-01	0	47	104	0	60	147001
2026-01-29 16:16:25.78	317.28	7.97	-58.6	-71.5	3.6	8.45e-01	0	47	104	0	60	147001
2026-01-29 16:16:26.79	317.44	7.95	-58.6	-71.5	3.6	8.46e-01	0	47	104	0	60	147001
2026-01-29 16:16:27.80	317.60	7.92	-58.6	-71.5	3.6	8.47e-01	0	47	104	0	60	147001
2026-01-29 16:16:28.81	317.75	7.89	-58.6	-71.5	3.6	8.44e-01	0	47	104	0	60	147001
2026-01-29 16:16:29.82	317.91	7.86	-58.6	-71.5	3.6	8.45e-01	0	47	104	0	60	147001
2026-01-29 16:16:30.82	318.07	7.83	-58.6	-71.5	3.6	8.45e-01	0	47	104	0	60	147001
2026-01-29 16:16:31.83	318.22	7.80	-58.6	-71.5	3.6	8.45e-01	0	47	104	0	60	147001
2026-01-29 16:16:32.84	318.38	7.77	-58.6	-71.5	3.6	8.46e-01	0	47	104	0	60	147001
2026-01-29 16:16:33.84	318.53	7.75	-58.6	-71.5	3.6	8.46e-01	0	47	104	0	60	147001
2026-01-29 16:16:34.85	318.69	7.72	-58.6	-71.5	3.6	8.44e-01	0	47	104	0	60	147001
2026-01-29 16:16:35.86	318.84	7.69	-58.6	-71.5	3.6	8.45e-01	0	47	104	0	60	147001
2026-01-29 16:16:36.87	319.00	7.66	-58.6	-71.5	3.6	8.46e-01	0	47	104	0	60	147001
2026-01-29 16:16:37.88	319.15	7.63	-58.6	-71.5	3.6	8.46e-01	0	47	104	0	60	147001
2026-01-29 16:16:38.88	319.31	7.60	-58.6	-71.5	3.6	8.45e-01	0	47	104	0	60	147001
2026-01-29 16:16:39.89	319.46	7.57	-58.6	-71.5	3.6	8.45e-01	0	47	104	0	60	147001
2026-01-29 16:16:40.90	319.61	7.54	-58.6	-71.5	3.6	8.45e-01	0	47	104	0	60	147001
2026-01-29 16:16:41.91	319.77	7.51	-58.6	-71.5	3.6	8.45e-01	0	47	104	0	60	147001
2026-01-29 16:16:42.91	319.92	7.48	-58.6	-71.5	3.6	8.46e-01	0	47	104	0	60	147001
2026-01-29 16:16:43.92	320.07	7.45	-58.6	-71.5	3.6	8.45e-01	0	47	104	0	60	147001
2026-01-29 16:16:44.92	320.22	7.41	-58.6	-71.5	3.6	8.46e-01	0	47	104	0	60	147001
2026-01-29 16:16:45.92	320.37	7.38	-58.6	-71.5	3.6	8.46e-01	0	47	104	0	60	147001
2026-01-29 16:16:46.93	320.53	7.35	-58.6	-71.5	3.6	8.45e-01	0	47	104	0	60	147001
2026-01-29 16:16:47.93	320.68	7.32	-58.6	-71.5	3.6	8.45e-01	0	47	104	0	60	147001
2026-01-29 16:16:48.94	320.83	7.29	-58.6	-71.5	3.6	8.45e-01	0	47	104	0	60	147001
2026-01-29 16:16:49.95	320.98	7.26	-58.6	-71.5	3.6	8.45e-01	0	47	104	0	60	147001
2026-01-29 16:16:50.96	321.13	7.23	-58.6	-71.5	3.6	8.46e-01	0	47	104	0	60	147001
2026-01-29 16:16:51.96	321.28	7.20	-58.6	-71.5	3.6	8.45e-01	0	47	104	0	60	147001
2026-01-29 16:16:52.97	321.43	7.16	-58.6	-71.5	3.6	8.44e-01	0	47	104	0	60	147001
2026-01-29 16:16:53.98	321.58	7.13	-58.6	-71.5	3.6	8.45e-01	0	47	104	0	60	147001
2026-01-29 16:16:54.98	321.72	7.10	-58.6	-71.5	3.6	8.45e-01	0	47	104	0	60	147001
2026-01-29 16:16:55.98	321.87	7.07	-58.6	-71.5	3.6	8.46e-01	0	47	104	0	60	147001
2026-01-29 16:16:56.99	322.02	7.04	-58.6	-71.5	3.6	8.45e-01	0	47	104	0	60	147001
2026-01-29 16:16:58.00	322.17	7.00	-58.6	-71.5	3.6	8.45e-01	0	47	104	0	60	147001
2026-01-29 16:16:59.00	322.32	6.97	-58.6	-71.5	3.6	8.45e-01	0	47	104	0	60	147001
2026-01-29 16:17:00.01	322.46	6.94	-58.6	-71.5	3.6	8.45e-01	0	47	104	0	60	147001
2026-01-29 16:17:01.01	322.61	6.91	-58.6	-71.5	3.6	8.45e-01	0	47	104	0	60	147001
2026-01-29 16:17:02.02	322.76	6.87	-58.6	-71.5	3.6	8.45e-01	0	47	104	0	60	147001
2026-01-29 16:17:03.02	322.90	6.84	-58.6	-71.5	3.6	8.46e-01	0	47	104	0	60	147001
2026-01-29 16:17:04.03	323.05	6.81	-58.6	-71.5	3.6	8.46e-01	0	47	104	0	60	147001
2026-01-29 16:17:05.04	323.19	6.78	-58.6	-71.5	3.6	8.45e-01	0	47	104	0	60	147001
2026-01-29 16:17:06.04	323.34	6.74	-58.6	-71.5	3.6	8.45e-01	0	47	104	0	60	147001
2026-01-29 16:17:07.05	323.48	6.71	-58.6	-71.5	3.6	8.45e-01	0	47	104	0	60	147001
2026-01-29 16:17:08.06	323.63	6.67	-58.6	-71.5	3.6	8.45e-01	0	47	104	0	60	147001
2026-01-29 16:17:09.07	323.77	6.64	-58.6	-71.5	3.6	8.46e-01	0	47	104	0	60	147001
2026-01-29 16:17:10.08	323.92	6.61	-58.6	-71.5	3.6	8.45e-01	0	47	104	0	60	147001
2026-01-29 16:17:11.08	324.06	6.57	-58.6	-71.5	3.6	8.46e-01	0	47	104	0	60	147001
2026-01-29 16:17:12.09	324.21	6.54	-58.6	-71.5	3.6	8.46e-01	0	47	104	0	60	147001
2026-01-29 16:17:13.10	324.35	6.51	-58.6	-71.5	3.6	8.46e-01	0	47	104	0	60	147001
2026-01-29 16:17:14.10	324.49	6.47	-58.6	-71.5	3.6	8.45e-01	0	47	104	0	60	147001
2026-01-29 16:17:15.11	324.63	6.44	-58.6	-71.5	3.6	8.45e-01	0	47	104	0	60	147001
2026-01-29 16:17:16.12	324.78	6.40	-58.6	-71.5	3.6	8.46e-01	0	47	104	0	60	147001
2026-01-29 16:17:17.13	324.92	6.37	-58.6	-71.5	3.6	8.46e-01	0	47	104	0	60	147001
2026-01-29 16:17:18.13	325.06	6.33	-58.6	-71.5	3.6	8.46e-01	0	47	104	0	60	147001
2026-01-29 16:17:19.14	325.20	6.30	-58.6	-71.5	3.6	8.44e-01	0	47	104	0	60	147001
2026-01-29 16:17:20.15	325.34	6.26	-58.6	-71.5	3.6	8.46e-01	0	47	104	0	60	147001
2026-01-29 16:17:21.16	325.48	6.23	-58.6	-71.5	3.5	8.45e-01	0	47	104	0	60	147001
2026-01-29 16:17:22.17	325.62	6.20	-58.6	-71.5	3.6	8.46e-01	0	47	104	0	60	147001
2026-01-29 16:17:23.18	325.76	6.16	-58.6	-71.5	3.6	8.45e-01	0	47	104	0	60	147001
2026-01-29 16:17:24.19	325.90	6.12	-58.6	-71.5	3.6	8.46e-01	0	47	104	0	60	147001
2026-01-29 16:17:25.19	326.04	6.09	-58.6	-71.5	3.6	8.46e-01	0	47	104	0	60	147001
2026-01-29 16:17:26.20	326.18	6.05	-58.6	-71.5	3.6	8.45e-01	0	47	104	0	60	147001
2026-01-29 16:17:27.21	326.32	6.02	-58.6	-71.5	3.6	8.46e-01	0	47	104	0	60	147001
2026-01-29 16:17:28.22	326.46	5.98	-58.6	-71.5	3.6	8.44e-01	0	47	104	0	60	147001
2026-01-29 16:17:29.22	326.60	5.95	-58.6	-71.5	3.6	8.45e-01	0	47	104	0	60	147001
2026-01-29 16:17:30.23	326.73	5.91	-58.6	-71.5	3.6	8.45e-01	0	47	104	0	60	147001
2026-01-29 16:17:31.24	326.87	5.88	-58.6	-71.5	3.6	8.45e-01	0	47	104	0	60	147001
2026-01-29 16:17:32.24	327.01	5.84	-58.6	-71.5	3.6	8.45e-01	0	47	104	0	60	147001
2026-01-29 16:17:33.25	327.14	5.81	-58.6	-71.5	3.6	8.46e-01	0	47	104	0	60	147001
2026-01-29 16:17:34.26	327.28	5.77	-58.6	-71.5	3.6	8.44e-01	0	47	104	0	60	147001
2026-01-29 16:17:35.26	327.42	5.73	-58.6	-71.5	3.6	8.45e-01	0	47	104	0	60	147001
2026-01-29 16:17:36.27	327.55	5.70	-58.6	-71.5	3.6	8.45e-01	0	47	104	0	60	147001
2026-01-29 16:17:37.27	327.69	5.66	-58.6	-71.5	3.6	8.45e-01	0	47	104	0	60	147001
2026-01-29 16:17:38.28	327.82	5.62	-58.6	-71.5	3.6	8.47e-01	0	47	104	0	60	147001
2026-01-29 16:17:39.29	327.96	5.59	-58.6	-71.5	3.5	8.46e-01	0	47	104	0	60	147001
2026-01-29 16:17:40.30	328.09	5.55	-58.6	-71.5	3.6	8.46e-01	0	47	104	0	60	147001
2026-01-29 16:17:41.30	328.22	5.52	-58.6	-71.5	3.6	8.46e-01	0	47	104	0	60	147001
2026-01-29 16:17:42.31	328.36	5.48	-58.6	-71.5	3.6	8.45e-01	0	47	104	0	60	147001
2026-01-29 16:17:43.32	328.49	5.44	-58.6	-71.5	3.6	8.46e-01	0	47	104	0	60	147001
2026-01-29 16:17:44.33	328.63	5.41	-58.6	-71.5	3.6	8.45e-01	0	47	104	0	60	147001
2026-01-29 16:17:45.34	328.76	5.37	-58.6	-71.5	3.6	8.45e-01	0	47	104	0	60	147001
2026-01-29 16:17:46.34	328.89	5.33	-58.6	-71.5	3.6	8.44e-01	0	47	104	0	60	147001
2026-01-29 16:17:47.35	329.02	5.29	-58.6	-71.5	3.6	8.44e-01	0	47	104	0	60	147001
2026-01-29 16:17:48.35	329.15	5.26	-58.6	-71.5	3.6	8.45e-01	0	47	104	0	60	147001
2026-01-29 16:17:49.36	329.29	5.22	-58.6	-71.5	3.6	8.44e-01	0	47	104	0	60	147001
2026-01-29 16:17:50.37	329.42	5.18	-58.6	-71.5	3.6	8.44e-01	0	47	104	0	60	147001
2026-01-29 16:17:51.37	329.55	5.15	-58.6	-71.5	3.6	8.45e-01	0	47	104	0	60	147001
2026-01-29 16:17:52.38	329.68	5.11	-58.6	-71.5	3.6	8.46e-01	0	47	104	0	60	147001
2026-01-29 16:17:53.39	329.81	5.07	-58.6	-71.5	3.6	8.45e-01	0	47	104	0	60	147001
2026-01-29 16:17:54.39	329.94	5.03	-58.6	-71.5	3.6	8.46e-01	0	47	104	0	60	147001
2026-01-29 16:17:55.40	330.07	5.00	-58.6	-71.5	3.6	8.46e-01	0	47	104	0	60	147001
2026-01-29 16:17:56.41	330.20	4.96	-58.6	-71.5	3.6	8.47e-01	0	47	104	0	60	147001
2026-01-29 16:17:57.42	330.33	4.92	-58.6	-71.5	3.6	8.45e-01	0	47	104	0	60	147001
2026-01-29 16:17:58.43	330.46	4.88	-58.6	-71.5	3.6	8.45e-01	0	47	104	0	60	147001
2026-01-29 16:17:59.43	330.58	4.85	-58.6	-71.5	3.6	8.46e-01	0	47	104	0	60	147001
2026-01-29 16:18:00.44	330.71	4.81	-58.6	-71.5	3.6	8.45e-01	0	47	104	0	60	147001
2026-01-29 16:18:01.45	330.84	4.77	-58.6	-71.5	3.6	8.45e-01	0	47	104	0	60	147001
2026-01-29 16:18:02.46	330.97	4.73	-58.6	-71.5	3.6	8.46e-01	0	47	104	0	60	147001
2026-01-29 16:18:03.46	331.09	4.69	-58.6	-71.5	3.5	8.45e-01	0	47	104	0	60	147001
2026-01-29 16:18:04.47	331.22	4.66	-58.6	-71.5	3.6	8.45e-01	0	47	104	0	60	147001
2026-01-29 16:18:05.47	331.35	4.62	-58.6	-71.5	3.6	8.45e-01	0	47	104	0	60	147001
2026-01-29 16:18:06.47	331.47	4.58	-58.6	-71.5	3.6	8.45e-01	0	47	104	0	60	147001
2026-01-29 16:18:07.47	331.60	4.54	-58.6	-71.5	3.6	8.45e-01	0	47	104	0	60	147001
2026-01-29 16:18:08.47	331.72	4.50	-58.6	-71.5	3.6	8.45e-01	0	47	104	0	60	147001
2026-01-29 16:18:09.47	331.84	4.47	-58.6	-71.5	3.6	8.45e-01	0	47	104	0	60	147001
2026-01-29 16:18:10.47	331.97	4.43	-58.6	-71.5	3.6	8.45e-01	0	47	104	0	60	147001
2026-01-29 16:18:11.48	332.09	4.39	-58.6	-71.5	3.6	8.46e-01	0	47	104	0	60	147001
2026-01-29 16:18:12.49	332.22	4.35	-58.6	-71.5	3.6	8.46e-01	0	47	104	0	60	147001
2026-01-29 16:18:13.50	332.34	4.31	-58.6	-71.5	3.6	8.45e-01	0	47	104	0	60	147001
2026-01-29 16:18:14.51	332.47	4.27	-58.6	-71.5	3.6	8.45e-01	0	47	104	0	60	147001
2026-01-29 16:18:15.52	332.59	4.23	-58.6	-71.5	3.6	8.45e-01	0	47	104	0	60	147001
2026-01-29 16:18:16.53	332.71	4.20	-58.6	-71.5	3.6	8.46e-01	0	47	104	0	60	147001
2026-01-29 16:18:17.53	332.83	4.16	-58.6	-71.5	3.6	8.44e-01	0	47	104	0	60	147001
2026-01-29 16:18:18.54	332.96	4.12	-58.6	-71.5	3.6	8.45e-01	0	47	104	0	60	147001
2026-01-29 16:18:19.54	333.08	4.08	-58.6	-71.5	3.6	8.45e-01	0	47	104	0	60	147001
2026-01-29 16:18:20.55	333.20	4.04	-58.6	-71.5	3.6	8.45e-01	0	47	104	0	60	147001
2026-01-29 16:18:21.56	333.32	4.00	-58.6	-71.5	3.6	8.45e-01	0	47	104	0	60	147001
2026-01-29 16:18:22.56	333.44	3.96	-58.6	-71.5	3.6	8.45e-01	0	47	104	0	60	147001
2026-01-29 16:18:23.56	333.56	3.92	-58.6	-71.5	3.6	8.45e-01	0	47	104	0	60	147001
2026-01-29 16:18:24.57	333.68	3.89	-58.6	-71.5	3.6	8.46e-01	0	47	104	0	60	147001
2026-01-29 16:18:25.58	333.80	3.85	-58.6	-71.5	3.5	8.45e-01	0	47	104	0	60	147001
2026-01-29 16:18:26.58	333.92	3.81	-58.6	-71.5	3.6	8.44e-01	0	47	104	0	60	147001
2026-01-29 16:18:27.59	334.04	3.77	-58.6	-71.5	3.6	8.46e-01	0	47	104	0	60	147001
2026-01-29 16:18:28.59	334.16	3.73	-58.6	-71.5	3.6	8.44e-01	0	47	104	0	60	147001
2026-01-29 16:18:29.60	334.28	3.69	-58.6	-71.5	3.6	8.46e-01	0	47	104	0	60	147001
2026-01-29 16:18:30.61	334.40	3.65	-58.6	-71.5	3.6	8.45e-01	0	47	104	0	60	147001
2026-01-29 16:18:31.61	334.52	3.61	-58.6	-71.5	3.6	8.44e-01	0	47	104	0	60	147001
2026-01-29 16:18:32.62	334.64	3.57	-58.6	-71.5	3.6	8.45e-01	0	47	104	0	60	147001
2026-01-29 16:18:33.63	334.75	3.53	-58.6	-71.5	3.6	8.45e-01	0	47	104	0	60	147001
2026-01-29 16:18:34.64	334.87	3.49	-58.6	-71.5	3.6	8.45e-01	0	47	104	0	60	147001
2026-01-29 16:18:35.64	334.99	3.45	-58.6	-71.5	3.6	8.45e-01	0	47	104	0	60	147001
2026-01-29 16:18:36.65	335.10	3.41	-58.6	-71.5	3.6	8.45e-01	0	47	104	0	60	147001
2026-01-29 16:18:37.66	335.22	3.37	-58.6	-71.5	3.6	8.45e-01	0	47	104	0	60	147001
2026-01-29 16:18:38.67	335.34	3.33	-58.6	-71.5	3.5	8.46e-01	0	47	104	0	60	147001
2026-01-29 16:18:39.67	335.45	3.29	-58.6	-71.5	3.6	8.46e-01	0	47	104	0	60	147001
2026-01-29 16:18:40.68	335.57	3.25	-58.6	-71.5	3.6	8.44e-01	0	47	104	0	60	147001
2026-01-29 16:18:41.68	335.68	3.21	-58.6	-71.5	3.6	8.44e-01	0	47	104	0	60	147001
2026-01-29 16:18:42.69	335.80	3.17	-58.6	-71.5	3.6	8.46e-01	0	47	104	0	60	147001
2026-01-29 16:18:43.70	335.91	3.13	-58.6	-71.5	3.6	8.45e-01	0	47	104	0	60	147001
2026-01-29 16:18:44.71	336.03	3.09	-58.6	-71.5	3.6	8.46e-01	0	47	104	0	60	147001
2026-01-29 16:18:45.72	336.14	3.05	-58.6	-71.5	3.6	8.45e-01	0	47	104	0	60	147001
2026-01-29 16:18:46.72	336.26	3.02	-58.6	-71.5	3.6	8.47e-01	0	47	104	0	60	147001
2026-01-29 16:18:47.73	336.37	2.98	-58.6	-71.5	3.6	8.45e-01	0	47	104	0	60	147001
2026-01-29 16:18:48.74	336.48	2.94	-58.6	-71.5	3.6	8.45e-01	0	47	104	0	60	147001
2026-01-29 16:18:49.75	336.60	2.89	-58.6	-71.5	3.6	8.45e-01	0	47	104	0	60	147001
2026-01-29 16:18:50.76	336.71	2.85	-58.6	-71.5	3.6	8.46e-01	0	47	104	0	60	147001
2026-01-29 16:18:51.76	336.82	2.81	-58.6	-71.5	3.6	8.46e-01	0	47	104	0	60	147001
2026-01-29 16:18:52.77	336.93	2.77	-58.6	-71.5	3.6	8.46e-01	0	47	104	0	60	147001
2026-01-29 16:18:53.78	337.05	2.73	-58.6	-71.5	3.6	8.45e-01	0	47	104	0	60	147001
2026-01-29 16:18:54.79	337.16	2.69	-58.6	-71.5	3.6	8.45e-01	0	47	104	0	60	147001
2026-01-29 16:18:55.79	337.27	2.65	-58.6	-71.5	3.6	8.45e-01	0	47	104	0	60	147001
2026-01-29 16:18:56.80	337.38	2.61	-58.6	-71.5	3.6	8.45e-01	0	47	104	0	60	147001
2026-01-29 16:18:57.81	337.49	2.57	-58.6	-71.5	3.6	8.45e-01	0	47	104	0	60	147001
2026-01-29 16:18:58.82	337.60	2.53	-58.6	-71.5	3.6	8.45e-01	0	47	104	0	60	147001
2026-01-29 16:18:59.83	337.71	2.49	-58.6	-71.5	3.6	8.45e-01	0	47	104	0	60	147001
2026-01-29 16:19:00.83	337.82	2.45	-58.6	-71.5	3.6	8.45e-01	0	47	104	0	60	147001
2026-01-29 16:19:01.84	337.93	2.41	-58.6	-71.5	3.6	8.45e-01	0	47	104	0	60	147001
2026-01-29 16:19:02.85	338.04	2.37	-58.6	-71.5	3.6	8.46e-01	0	47	104	0	60	147001
2026-01-29 16:19:03.86	338.15	2.33	-58.6	-71.5	3.6	8.45e-01	0	47	104	0	60	147001
2026-01-29 16:19:04.87	338.26	2.29	-58.6	-71.5	3.6	8.45e-01	0	47	104	0	60	147001
2026-01-29 16:19:05.88	338.37	2.25	-58.6	-71.5	3.6	8.45e-01	0	47	104	0	60	147001
2026-01-29 16:19:06.88	338.47	2.21	-58.6	-71.5	3.6	8.45e-01	0	47	104	0	60	147001
2026-01-29 16:19:07.89	338.58	2.17	-58.6	-71.5	3.6	8.45e-01	0	47	104	0	60	147001
2026-01-29 16:19:08.90	338.69	2.13	-58.6	-71.5	3.6	8.44e-01	0	47	104	0	60	147001
2026-01-29 16:19:09.90	338.80	2.09	-58.6	-71.5	3.6	8.46e-01	0	47	104	0	60	147001
2026-01-29 16:19:10.91	338.90	2.05	-58.6	-71.5	3.6	8.46e-01	0	47	104	0	60	147001
2026-01-29 16:19:11.92	339.01	2.01	-58.6	-71.5	3.6	8.46e-01	0	47	104	0	60	147001
2026-01-29 16:19:12.92	339.12	1.97	-58.6	-71.5	3.6	8.46e-01	0	47	104	0	60	147001
2026-01-29 16:19:13.93	339.22	1.93	-58.6	-71.5	3.5	8.45e-01	0	47	104	0	60	147001
2026-01-29 16:19:14.93	339.33	1.89	-58.6	-71.5	3.6	8.45e-01	0	47	104	0	60	147001
2026-01-29 16:19:15.94	339.43	1.85	-58.6	-71.5	3.6	8.44e-01	0	47	104	0	60	147001
2026-01-29 16:19:16.94	339.54	1.81	-58.6	-71.5	3.6	8.46e-01	0	47	104	0	60	147001
2026-01-29 16:19:17.95	339.64	1.76	-58.6	-71.5	3.6	8.44e-01	0	47	104	0	60	147001
2026-01-29 16:19:18.96	339.75	1.72	-58.6	-71.5	3.6	8.45e-01	0	47	104	0	60	147001
2026-01-29 16:19:19.97	339.85	1.68	-58.6	-71.5	3.6	8.46e-01	0	47	104	0	60	147001
2026-01-29 16:19:20.97	339.96	1.64	-58.6	-71.5	3.6	8.46e-01	0	47	104	0	60	147001
2026-01-29 16:19:21.98	340.06	1.60	-58.6	-71.5	3.6	8.44e-01	0	47	104	0	60	147001
2026-01-29 16:19:22.98	340.16	1.56	-58.6	-71.5	3.6	8.45e-01	0	47	104	0	60	147001
2026-01-29 16:19:23.99	340.27	1.52	-58.6	-71.5	3.6	8.46e-01	0	47	104	0	60	147001
2026-01-29 16:19:25.00	340.37	1.48	-58.6	-71.5	3.6	8.45e-01	0	47	104	0	60	147001
2026-01-29 16:19:26.00	340.47	1.44	-58.6	-71.5	3.6	8.45e-01	0	47	104	0	60	147001
2026-01-29 16:19:27.01	340.58	1.40	-58.6	-71.5	3.6	8.45e-01	0	47	104	0	60	147001
2026-01-29 16:19:28.01	340.68	1.36	-58.6	-71.5	3.6	8.44e-01	0	47	104	0	60	147001
2026-01-29 16:19:29.02	340.78	1.32	-58.6	-71.5	3.6	8.46e-01	0	47	104	0	60	147001
2026-01-29 16:19:30.02	340.88	1.28	-58.6	-71.5	3.6	8.44e-01	0	47	104	0	60	147001
2026-01-29 16:19:31.03	340.98	1.24	-58.6	-71.5	3.6	8.46e-01	0	47	104	0	60	147001
2026-01-29 16:19:32.04	341.08	1.19	-58.6	-71.5	3.6	8.45e-01	0	47	104	0	60	147001
2026-01-29 16:19:33.04	341.18	1.15	-58.6	-71.5	3.6	8.45e-01	0	47	104	0	60	147001
2026-01-29 16:19:34.05	341.29	1.11	-58.6	-71.5	3.6	8.45e-01	0	47	104	0	60	147001
2026-01-29 16:19:35.06	341.39	1.07	-58.6	-71.5	3.6	8.45e-01	0	47	104	0	60	147001
2026-01-29 16:19:36.07	341.49	1.03	-58.6	-71.5	3.6	8.46e-01	0	47	104	0	60	147001
2026-01-29 16:19:37.07	341.59	0.99	-58.6	-71.5	3.6	8.45e-01	0	47	104	0	60	147001
2026-01-29 16:19:38.07	341.68	0.95	-58.6	-71.5	3.6	8.45e-01	0	47	104	0	60	147001
2026-01-29 16:19:39.08	341.78	0.91	-58.6	-71.5	3.6	8.45e-01	0	47	104	0	60	147001
2026-01-29 16:19:40.09	341.88	0.87	-58.6	-71.5	3.6	8.45e-01	0	47	104	0	60	147001
2026-01-29 16:19:41.10	341.98	0.83	-58.6	-71.5	3.6	8.45e-01	0	47	104	0	60	147001
2026-01-29 16:19:42.10	342.08	0.79	-58.6	-71.5	3.6	8.44e-01	0	47	104	0	60	147001
2026-01-29 16:19:43.11	342.18	0.74	-58.6	-71.5	3.6	8.45e-01	0	47	104	0	60	147001
2026-01-29 16:19:44.12	342.28	0.70	-58.6	-71.5	3.6	8.44e-01	0	47	104	0	60	147001
2026-01-29 16:19:45.12	342.38	0.66	-58.6	-71.5	3.6	8.45e-01	0	47	104	0	60	147001
2026-01-29 16:19:46.13	342.47	0.62	-58.6	-71.5	3.6	8.45e-01	0	47	104	0	60	147001
2026-01-29 16:19:47.14	342.57	0.58	-58.6	-71.5	3.6	8.46e-01	0	47	104	0	60	147001
2026-01-29 16:19:48.14	342.67	0.54	-58.6	-71.5	3.6	8.46e-01	0	47	104	0	60	147001
2026-01-29 16:19:49.15	342.76	0.50	-58.6	-71.5	3.6	8.45e-01	0	47	104	0	60	147001
2026-01-29 16:19:50.15	342.86	0.46	-58.6	-71.5	3.6	8.45e-01	0	47	104	0	60	147001
2026-01-29 16:19:51.16	342.96	0.42	-58.6	-71.5	3.6	8.46e-01	0	47	104	0	60	147001
2026-01-29 16:19:52.17	343.05	0.38	-58.6	-71.5	3.6	8.44e-01	0	47	104	0	60	147001
2026-01-29 16:19:53.17	343.15	0.34	-58.6	-71.5	3.6	8.44e-01	0	47	104	0	60	147001
2026-01-29 16:19:54.18	343.25	0.29	-58.6	-71.5	3.6	8.45e-01	0	47	104	0	60	147001
2026-01-29 16:19:55.19	343.34	0.25	-58.6	-71.5	3.6	8.45e-01	0	47	104	0	60	147001
2026-01-29 16:19:56.19	343.44	0.21	-58.6	-71.5	3.6	8.45e-01	0	47	104	0	60	147001
2026-01-29 16:19:57.20	343.53	0.17	-58.6	-71.5	3.6	8.45e-01	0	47	104	0	60	147001
2026-01-29 16:19:58.21	343.63	0.13	-58.6	-71.5	3.6	8.45e-01	0	47	104	0	60	147001
2026-01-29 16:19:59.21	343.72	0.09	-58.6	-71.5	3.6	8.45e-01	0	47	104	0	60	147001
2026-01-29 16:20:00.22	343.81	0.05	-58.6	-71.5	3.6	8.45e-01	0	47	104	0	60	147001
2026-01-29 16:20:01.22	343.91	0.01	-58.6	-71.5	3.6	8.46e-01	0	47	104	0	60	147001
2026-01-29 16:20:02.22	344.00	-0.03	-58.6	-71.5	3.6	8.45e-01	0	47	104	0	60	147001
2026-01-29 16:20:03.23	344.09	-0.07	-58.6	-71.5	3.6	8.45e-01	0	47	104	0	60	147001

#Closed at: 2026-01-29 16:20:03
#Recorded file [0 MB]: D:/Data/35015_260129_191103.dat