passes_logs/2026/01/29/R3.2S-Naryan-Mar/R3.2S-Naryan-Mar__20260129_032719_SUOMI_NPP_rec.log

#Pass ID: 20260129_032719_SUOMI NPP
#Satellite: SUOMI NPP
#Configuration: NPP
#almurnet v.1.7.20240730
#Start time: 2026-01-29 03:27:22

#Version: 2.2.20231116
#Station: R3.2S-Naryan-Mar
#Location: 53.008057 lon 67.646978 lat
#TLE: 1 37849U 11061A   26027.86188320  .00000172  00000+0  10275-3 0  9990
#TLE: 2 37849  98.7823 329.8005 0002088  41.4184 318.7150 14.19530883738530

#Time	Az	El	Level	Level2	SNR	BER	BlckErr	Temp	State	Recorded	gain1	gain2
2026-01-29 03:27:22.66	55.01	0.17	-61.2	-77.0	3.3	1.54e+00	0	45	0	0	60	277850
2026-01-29 03:27:23.67	54.95	0.22	-60.0	-78.2	3.6	1.51e+00	0	45	104	0	60	317804
2026-01-29 03:27:24.67	54.88	0.28	-61.9	-78.6	3.6	1.51e+00	0	45	104	0	60	335033
2026-01-29 03:27:25.68	54.82	0.33	-62.0	-78.5	3.6	1.51e+00	0	45	104	0	60	330123
2026-01-29 03:27:26.69	54.76	0.38	-61.0	-78.4	3.6	1.51e+00	0	45	104	0	60	326867
2026-01-29 03:27:27.69	54.70	0.44	-61.7	-78.6	3.6	1.51e+00	0	45	104	0	60	333412
2026-01-29 03:27:28.70	54.63	0.49	-61.7	-78.3	3.6	1.51e+00	0	45	104	0	60	323382
2026-01-29 03:27:29.71	54.57	0.54	-61.1	-78.2	3.6	1.51e+00	0	45	104	0	60	320119
2026-01-29 03:27:30.72	54.51	0.60	-59.9	-77.4	3.6	1.51e+00	0	45	104	0	60	291620
2026-01-29 03:27:31.72	54.44	0.65	-59.6	-78.4	3.6	1.51e+00	0	45	104	0	60	324390
2026-01-29 03:27:32.73	54.38	0.70	-56.8	-77.3	3.6	1.51e+00	0	45	104	0	60	287923
2026-01-29 03:27:33.73	54.32	0.76	-57.5	-76.5	3.6	1.51e+00	0	45	104	0	60	260961
2026-01-29 03:27:34.73	54.25	0.81	-52.4	-73.8	3.6	1.51e+00	0	45	104	0	60	190935
2026-01-29 03:27:35.73	54.19	0.86	-58.4	-77.4	3.6	1.51e+00	0	45	104	0	60	290786
2026-01-29 03:27:36.74	54.12	0.92	-60.5	-77.4	3.6	1.51e+00	0	45	104	0	60	289350
2026-01-29 03:27:37.74	54.06	0.97	-60.9	-77.4	3.6	1.51e+00	0	45	104	0	60	289239
2026-01-29 03:27:38.75	53.99	1.03	-58.3	-76.3	3.6	1.51e+00	0	45	104	0	60	255737
2026-01-29 03:27:39.75	53.93	1.08	-60.4	-77.4	3.6	1.51e+00	0	45	104	0	60	290148
2026-01-29 03:27:40.76	53.86	1.14	-58.9	-76.5	3.5	1.51e+00	0	45	104	0	60	260427
2026-01-29 03:27:41.77	53.80	1.19	-60.0	-76.7	3.6	1.51e+00	0	45	104	0	60	266605
2026-01-29 03:27:42.78	53.73	1.24	-57.7	-75.1	3.6	1.51e+00	0	45	104	0	60	222611
2026-01-29 03:27:43.79	53.66	1.30	-57.6	-75.2	3.6	1.51e+00	0	45	104	0	60	226212
2026-01-29 03:27:44.79	53.60	1.35	-57.6	-75.2	3.6	1.51e+00	0	45	104	0	60	224234
2026-01-29 03:27:45.80	53.53	1.41	-57.6	-74.8	3.6	1.51e+00	0	45	104	0	60	214814
2026-01-29 03:27:46.81	53.46	1.46	-57.5	-74.7	3.6	1.51e+00	0	45	104	0	60	212868
2026-01-29 03:27:47.81	53.39	1.52	-57.5	-74.8	3.6	1.51e+00	0	45	104	0	60	214700
2026-01-29 03:27:48.82	53.32	1.57	-57.4	-74.9	3.6	1.51e+00	0	45	104	0	60	217695
2026-01-29 03:27:49.83	53.26	1.63	-57.4	-74.8	3.6	1.51e+00	0	45	104	0	60	215266
2026-01-29 03:27:50.84	53.19	1.68	-57.4	-74.8	3.6	1.51e+00	0	45	104	0	60	216029
2026-01-29 03:27:51.84	53.12	1.74	-57.4	-74.8	3.6	1.51e+00	0	45	104	0	60	215199
2026-01-29 03:27:52.85	53.05	1.79	-57.4	-75.0	3.6	1.51e+00	0	45	104	0	60	219665
2026-01-29 03:27:53.85	52.98	1.85	-57.3	-74.9	3.6	1.51e+00	0	45	104	0	60	218888
2026-01-29 03:27:54.86	52.91	1.90	-57.4	-74.7	3.6	1.51e+00	0	45	104	0	60	213207
2026-01-29 03:27:55.86	52.84	1.96	-57.4	-74.8	3.6	1.51e+00	0	45	104	0	60	214466
2026-01-29 03:27:56.87	52.77	2.01	-57.4	-74.8	3.6	1.51e+00	0	45	104	0	60	216045
2026-01-29 03:27:57.87	52.70	2.07	-57.3	-74.6	3.6	1.51e+00	0	45	104	0	60	211320
2026-01-29 03:27:58.88	52.63	2.12	-57.3	-74.6	3.6	1.51e+00	0	45	104	0	60	209734
2026-01-29 03:27:59.89	52.56	2.18	-57.4	-74.7	3.6	1.51e+00	0	45	104	0	60	213998
2026-01-29 03:28:00.90	52.49	2.24	-57.4	-74.9	3.6	1.51e+00	0	45	104	0	60	218523
2026-01-29 03:28:01.91	52.42	2.29	-57.4	-74.9	3.6	1.51e+00	0	46	104	0	60	218470
2026-01-29 03:28:02.92	52.34	2.35	-57.4	-74.8	3.6	1.51e+00	0	45	104	0	60	215657
2026-01-29 03:28:03.93	52.27	2.40	-57.3	-74.6	3.6	1.51e+00	0	45	104	0	60	209493
2026-01-29 03:28:04.93	52.20	2.46	-57.3	-74.6	3.6	1.51e+00	0	45	104	0	60	209894
2026-01-29 03:28:05.94	52.13	2.51	-57.3	-74.7	3.6	1.51e+00	0	45	104	0	60	213303
2026-01-29 03:28:06.95	52.05	2.57	-57.3	-74.7	3.6	1.51e+00	0	45	104	0	60	212342
2026-01-29 03:28:07.95	51.98	2.63	-57.3	-74.5	3.6	1.51e+00	0	45	104	0	60	208665
2026-01-29 03:28:08.95	51.91	2.68	-57.4	-74.9	3.6	1.51e+00	0	45	104	0	60	216859
2026-01-29 03:28:09.95	51.84	2.74	-57.3	-74.9	3.6	1.51e+00	0	45	104	0	60	216955
2026-01-29 03:28:10.95	51.76	2.79	-57.3	-74.9	3.6	1.51e+00	0	45	104	0	60	217267
2026-01-29 03:28:11.96	51.69	2.85	-57.3	-74.5	3.6	1.51e+00	0	45	104	0	60	207987
2026-01-29 03:28:12.96	51.61	2.91	-57.2	-74.5	3.6	1.51e+00	0	45	104	0	60	209083
2026-01-29 03:28:13.97	51.54	2.96	-57.2	-74.5	3.6	1.51e+00	0	45	104	0	60	207584
2026-01-29 03:28:14.97	51.46	3.02	-57.3	-74.7	3.6	1.51e+00	0	46	104	0	60	212497
2026-01-29 03:28:15.98	51.39	3.08	-57.2	-74.7	3.6	1.51e+00	0	45	104	0	60	212547
2026-01-29 03:28:16.99	51.31	3.13	-57.2	-74.5	3.6	1.51e+00	0	45	104	0	60	207580
2026-01-29 03:28:18.00	51.23	3.19	-57.2	-74.8	3.6	1.51e+00	0	45	104	0	60	215502
2026-01-29 03:28:19.01	51.16	3.25	-57.2	-74.7	3.6	1.51e+00	0	46	104	0	60	213518
2026-01-29 03:28:20.01	51.08	3.30	-57.3	-74.5	3.6	1.51e+00	0	46	104	0	60	208054
2026-01-29 03:28:21.02	51.00	3.36	-57.2	-74.6	3.6	1.51e+00	0	46	104	0	60	211028
2026-01-29 03:28:22.02	50.93	3.42	-57.3	-74.5	3.6	1.51e+00	0	46	104	0	60	207292
2026-01-29 03:28:23.03	50.85	3.47	-57.2	-74.4	3.6	1.51e+00	0	45	104	0	60	206568
2026-01-29 03:28:24.03	50.77	3.53	-57.2	-74.8	3.6	1.51e+00	0	45	104	0	60	214976
2026-01-29 03:28:25.04	50.69	3.59	-57.2	-74.5	3.6	1.51e+00	0	45	104	0	60	208066
2026-01-29 03:28:26.04	50.61	3.65	-57.2	-74.4	3.6	1.51e+00	0	45	104	0	60	206509
2026-01-29 03:28:27.05	50.53	3.70	-57.2	-74.5	3.6	1.51e+00	0	45	104	0	60	207847
2026-01-29 03:28:28.05	50.46	3.76	-57.2	-74.8	3.6	1.51e+00	0	45	104	0	60	214787
2026-01-29 03:28:29.05	50.38	3.82	-57.2	-74.5	3.6	1.51e+00	0	46	104	0	60	208957
2026-01-29 03:28:30.06	50.30	3.87	-57.1	-74.6	3.6	1.51e+00	0	45	104	0	60	210581
2026-01-29 03:28:31.07	50.22	3.93	-57.2	-74.4	3.6	1.51e+00	0	46	104	0	60	206028
2026-01-29 03:28:32.08	50.13	3.99	-57.3	-74.6	3.6	1.51e+00	0	45	104	0	60	209728
2026-01-29 03:28:33.09	50.05	4.05	-57.2	-74.4	3.6	1.51e+00	0	46	104	0	60	206576
2026-01-29 03:28:34.09	49.97	4.11	-57.2	-74.6	3.6	1.51e+00	0	45	104	0	60	209340
2026-01-29 03:28:35.10	49.89	4.16	-57.2	-74.7	3.6	1.51e+00	0	46	104	0	60	213100
2026-01-29 03:28:36.11	49.81	4.22	-57.2	-74.8	3.6	1.51e+00	0	46	104	0	60	214763
2026-01-29 03:28:37.12	49.73	4.28	-57.2	-74.5	3.6	1.51e+00	0	46	104	0	60	208610
2026-01-29 03:28:38.12	49.64	4.34	-57.3	-74.6	3.6	1.51e+00	0	46	104	0	60	209654
2026-01-29 03:28:39.13	49.56	4.40	-57.3	-74.6	3.6	1.51e+00	0	46	104	0	60	210172
2026-01-29 03:28:40.14	49.48	4.45	-57.2	-74.4	3.6	1.51e+00	0	46	104	0	60	205889
2026-01-29 03:28:41.15	49.39	4.51	-57.2	-74.3	3.6	1.51e+00	0	46	104	0	60	204320
2026-01-29 03:28:42.15	49.31	4.57	-57.2	-74.4	3.6	1.51e+00	0	46	104	0	60	204697
2026-01-29 03:28:43.15	49.23	4.63	-57.2	-74.6	3.6	1.51e+00	0	46	104	0	60	210159
2026-01-29 03:28:44.15	49.14	4.69	-57.1	-74.7	3.5	1.51e+00	0	46	104	0	60	212403
2026-01-29 03:28:45.16	49.06	4.75	-57.2	-74.7	3.6	1.51e+00	0	46	104	0	60	212868
2026-01-29 03:28:46.16	48.97	4.80	-57.2	-74.9	3.6	1.51e+00	0	46	104	0	60	217474
2026-01-29 03:28:47.17	48.88	4.86	-57.2	-74.5	3.6	1.51e+00	0	46	104	0	60	207759
2026-01-29 03:28:48.18	48.80	4.92	-57.2	-74.3	3.6	1.51e+00	0	46	104	0	60	203919
2026-01-29 03:28:49.19	48.71	4.98	-57.2	-74.4	3.6	1.51e+00	0	46	104	0	60	205899
2026-01-29 03:28:50.19	48.62	5.04	-57.2	-74.2	3.6	1.51e+00	0	46	104	0	60	201946
2026-01-29 03:28:51.20	48.54	5.10	-57.1	-74.3	3.6	1.51e+00	0	46	104	0	60	203244
2026-01-29 03:28:52.21	48.45	5.16	-57.1	-74.0	3.6	1.51e+00	0	46	104	0	60	196795
2026-01-29 03:28:53.22	48.36	5.22	-57.1	-74.2	3.6	1.51e+00	0	46	104	0	60	199796
2026-01-29 03:28:54.23	48.27	5.28	-57.1	-73.9	3.5	1.51e+00	0	46	104	0	60	193775
2026-01-29 03:28:55.23	48.18	5.34	-57.1	-73.9	3.6	1.51e+00	0	46	104	0	60	193832
2026-01-29 03:28:56.24	48.09	5.40	-57.1	-73.7	3.6	1.51e+00	0	46	104	0	60	188930
2026-01-29 03:28:57.24	48.01	5.45	-57.1	-73.5	3.6	1.51e+00	0	46	104	0	60	184377
2026-01-29 03:28:58.25	47.92	5.51	-57.2	-73.5	3.6	1.51e+00	0	46	104	0	60	184721
2026-01-29 03:28:59.25	47.83	5.57	-57.1	-73.7	3.6	1.51e+00	0	46	104	0	60	190440
2026-01-29 03:29:00.26	47.73	5.63	-57.1	-73.8	3.6	1.51e+00	0	46	104	0	60	191388
2026-01-29 03:29:01.26	47.64	5.69	-57.1	-74.1	3.6	1.51e+00	0	46	104	0	60	198794
2026-01-29 03:29:02.26	47.55	5.75	-57.2	-74.3	3.6	1.51e+00	0	46	104	0	60	204143
2026-01-29 03:29:03.27	47.46	5.81	-57.1	-74.3	3.6	1.51e+00	0	46	104	0	60	203680
2026-01-29 03:29:04.28	47.37	5.87	-57.1	-74.4	3.6	1.51e+00	0	46	104	0	60	204604
2026-01-29 03:29:05.28	47.28	5.93	-57.1	-74.3	3.6	1.51e+00	0	46	104	0	60	202982
2026-01-29 03:29:06.29	47.18	5.99	-57.1	-74.3	3.6	1.51e+00	0	46	104	0	60	204178
2026-01-29 03:29:07.30	47.09	6.05	-57.1	-74.2	3.6	1.51e+00	0	46	104	0	60	200706
2026-01-29 03:29:08.31	47.00	6.11	-59.4	-74.8	3.6	1.51e+00	0	46	104	0	60	216445
2026-01-29 03:29:09.32	46.90	6.17	-59.0	-75.7	3.6	1.51e+00	0	46	104	0	60	239020
2026-01-29 03:29:10.33	46.81	6.23	-57.5	-74.4	3.6	1.51e+00	0	46	104	0	60	206140
2026-01-29 03:29:11.33	46.71	6.29	-57.9	-72.5	3.6	1.51e+00	0	46	104	0	60	164501
2026-01-29 03:29:12.34	46.62	6.35	-55.6	-73.6	3.6	1.51e+00	0	46	104	0	60	186971
2026-01-29 03:29:13.35	46.52	6.41	-57.4	-71.7	3.6	1.51e+00	0	46	104	0	60	150472
2026-01-29 03:29:14.36	46.42	6.47	-57.9	-72.3	3.8	1.49e+00	0	46	104	0	60	162020
2026-01-29 03:29:15.37	46.33	6.54	-58.7	-72.2	3.9	1.46e+00	0	46	104	0	60	159247
2026-01-29 03:29:16.36	46.23	6.59	-58.8	-71.1	3.7	1.43e+00	0	46	0	0	60	140010
2026-01-29 03:29:17.37	46.13	6.66	-58.9	-70.6	3.9	1.37e+00	0	46	0	0	60	133021
2026-01-29 03:29:18.37	46.04	6.72	-58.9	-69.8	4.3	1.30e+00	0	46	0	2097152	60	120840
2026-01-29 03:29:19.38	45.94	6.78	-58.4	-69.6	4.6	8.88e-01	0	46	0	3145728	60	118070
2026-01-29 03:29:20.39	45.84	6.84	-57.6	-70.0	4.3	1.07e+00	0	46	0	5242880	60	123926
2026-01-29 03:29:21.40	45.74	6.90	-56.8	-70.1	4.1	1.27e+00	0	46	0	7340032	60	125047
2026-01-29 03:29:22.41	45.64	6.96	-56.4	-68.8	4.7	7.79e-01	0	46	0	9437184	60	108132
2026-01-29 03:29:23.41	45.54	7.02	-56.3	-67.5	5.9	4.47e-01	0	46	0	10485760	60	92429
2026-01-29 03:29:24.42	45.44	7.08	-56.5	-66.4	6.9	2.27e-01	0	46	0	12582912	60	82282
2026-01-29 03:29:25.42	45.34	7.14	-56.9	-66.8	6.7	2.20e-01	0	46	0	14680064	60	85822
2026-01-29 03:29:26.43	45.24	7.20	-57.1	-67.5	5.8	2.68e-01	0	46	0	16777216	60	93014
2026-01-29 03:29:27.44	45.13	7.27	-57.5	-67.8	5.8	2.94e-01	0	46	0	18874368	60	96060
2026-01-29 03:29:28.45	45.03	7.33	-57.5	-67.4	6.0	4.34e-01	0	46	0	19922944	60	91365
2026-01-29 03:29:29.45	44.93	7.39	-57.5	-67.3	6.1	3.34e-01	0	46	0	22020096	60	90531
2026-01-29 03:29:30.45	44.83	7.45	-58.0	-67.5	5.9	3.61e-01	0	46	0	24117248	60	93169
2026-01-29 03:29:31.46	44.72	7.51	-58.1	-67.2	6.1	3.09e-01	0	46	0	26214400	60	90136
2026-01-29 03:29:32.47	44.62	7.57	-57.8	-66.6	6.6	1.88e-01	0	46	0	28311552	60	83572
2026-01-29 03:29:33.47	44.51	7.63	-58.4	-66.8	6.8	2.45e-01	0	46	0	30408704	60	85566
2026-01-29 03:29:34.48	44.41	7.70	-58.2	-66.4	7.2	1.28e-01	0	46	0	31457280	60	82277
2026-01-29 03:29:35.48	44.30	7.76	-58.1	-65.3	8.5	4.96e-02	0	46	0	33554432	60	72504
2026-01-29 03:29:36.49	44.20	7.82	-58.5	-65.4	8.9	3.34e-02	0	46	0	35651584	60	73236
2026-01-29 03:29:37.50	44.09	7.88	-58.6	-65.6	9.1	3.29e-02	0	46	0	37748736	60	74229
2026-01-29 03:29:38.50	43.99	7.94	-58.4	-65.8	8.9	4.21e-02	0	46	0	38797312	60	76144
2026-01-29 03:29:39.51	43.88	8.01	-58.2	-65.3	9.3	2.46e-02	0	46	0	40894464	60	71985
2026-01-29 03:29:40.52	43.77	8.07	-58.2	-65.1	9.5	2.00e-02	0	46	0	42991616	60	70365
2026-01-29 03:29:41.52	43.66	8.13	-58.2	-65.4	9.2	1.82e-02	0	46	0	45088768	60	72983
2026-01-29 03:29:42.53	43.55	8.19	-57.9	-65.4	9.3	1.95e-02	0	46	0	47185920	60	73260
2026-01-29 03:29:43.54	43.44	8.25	-58.0	-64.2	10.6	6.89e-03	0	46	0	48234496	60	63636
2026-01-29 03:29:44.55	43.33	8.32	-57.7	-64.4	10.4	3.40e-03	0	46	0	50331648	60	64812
2026-01-29 03:29:45.55	43.22	8.38	-57.7	-63.7	11.1	2.52e-03	0	46	0	52428800	60	60032
2026-01-29 03:29:46.56	43.11	8.44	-57.9	-63.5	11.4	9.12e-04	0	46	0	54525952	60	58861
2026-01-29 03:29:47.56	43.00	8.50	-57.8	-63.4	11.5	8.93e-04	0	46	0	56623104	60	57930
2026-01-29 03:29:48.57	42.89	8.57	-57.8	-64.0	10.9	1.24e-03	0	46	0	58720256	60	62035
2026-01-29 03:29:49.58	42.78	8.63	-57.8	-64.7	9.7	7.46e-03	0	46	0	59768832	60	67327
2026-01-29 03:29:50.58	42.67	8.69	-57.8	-65.0	9.5	9.24e-03	0	46	0	61865984	60	70074
2026-01-29 03:29:51.59	42.55	8.75	-57.6	-64.8	9.8	7.72e-03	0	46	0	63963136	60	67915
2026-01-29 03:29:52.59	42.44	8.82	-57.6	-64.8	9.7	1.26e-02	0	46	0	66060288	60	68430
2026-01-29 03:29:53.60	42.33	8.88	-57.5	-64.6	9.6	1.21e-02	0	46	0	67108864	60	66191
2026-01-29 03:29:54.60	42.21	8.94	-57.5	-64.9	8.8	1.73e-02	0	46	0	69206016	60	68810
2026-01-29 03:29:55.60	42.10	9.00	-57.8	-65.6	8.2	4.01e-02	0	46	0	71303168	60	74476
2026-01-29 03:29:56.61	41.98	9.07	-57.8	-65.6	8.0	4.63e-02	0	46	0	73400320	60	74825
2026-01-29 03:29:57.62	41.86	9.13	-58.1	-65.5	8.5	7.05e-02	0	46	0	75497472	60	73958
2026-01-29 03:29:58.62	41.75	9.19	-58.3	-65.3	8.7	3.16e-02	0	46	0	76546048	60	71777
2026-01-29 03:29:59.63	41.63	9.26	-58.4	-64.8	9.5	1.17e-02	0	46	0	78643200	60	67982
2026-01-29 03:30:00.64	41.51	9.32	-58.6	-64.8	9.7	1.19e-02	0	46	0	80740352	60	68250
2026-01-29 03:30:01.64	41.40	9.38	-58.7	-65.1	9.7	8.41e-03	0	46	0	82837504	60	70883
2026-01-29 03:30:02.64	41.28	9.44	-58.7	-65.4	9.4	1.18e-02	0	46	0	84934656	60	73334
2026-01-29 03:30:03.65	41.16	9.51	-58.7	-65.9	8.8	2.72e-02	0	46	0	85983232	60	77117
2026-01-29 03:30:04.65	41.04	9.57	-58.6	-65.7	8.8	2.68e-02	0	46	0	88080384	60	75740
2026-01-29 03:30:05.66	40.92	9.63	-58.5	-65.2	9.3	3.59e-02	0	46	0	90177536	60	71184
2026-01-29 03:30:06.66	40.80	9.70	-58.4	-64.8	9.5	1.43e-02	0	46	0	92274688	60	68342
2026-01-29 03:30:07.66	40.68	9.76	-58.6	-65.3	9.1	1.30e-02	0	46	0	93323264	60	71765
2026-01-29 03:30:08.67	40.56	9.82	-58.5	-65.0	9.5	1.51e-02	0	46	0	95420416	60	69575
2026-01-29 03:30:09.67	40.43	9.89	-58.4	-65.4	8.9	1.63e-02	0	46	0	97517568	60	73268
2026-01-29 03:30:10.68	40.31	9.95	-58.1	-65.2	9.3	2.78e-02	0	46	0	99614720	60	71205
2026-01-29 03:30:11.68	40.19	10.01	-57.8	-65.2	9.4	3.00e-02	0	46	0	101711872	60	71680
2026-01-29 03:30:12.69	40.06	10.08	-57.6	-65.1	9.6	1.80e-02	0	46	0	103809024	60	70510
2026-01-29 03:30:13.69	39.94	10.14	-57.5	-65.4	9.1	2.75e-02	0	46	0	104857600	60	73202
2026-01-29 03:30:14.70	39.81	10.20	-57.6	-65.5	9.0	3.67e-02	0	46	0	106954752	60	74218
2026-01-29 03:30:15.71	39.69	10.27	-57.9	-65.8	8.7	4.38e-02	0	46	0	109051904	60	76752
2026-01-29 03:30:16.71	39.56	10.33	-58.2	-66.3	8.1	6.08e-02	0	46	0	111149056	60	80546
2026-01-29 03:30:17.72	39.43	10.39	-58.6	-66.3	7.9	1.02e-01	0	46	0	113246208	60	81216
2026-01-29 03:30:18.73	39.31	10.46	-58.9	-66.3	7.6	7.80e-02	0	46	0	114294784	60	80973
2026-01-29 03:30:19.74	39.18	10.52	-59.0	-66.3	7.7	9.07e-02	0	46	0	116391936	60	81149
2026-01-29 03:30:20.74	39.05	10.58	-58.8	-66.2	7.7	7.48e-02	0	46	0	118489088	60	79815
2026-01-29 03:30:21.75	38.92	10.65	-58.6	-66.2	7.8	9.79e-02	0	46	0	120586240	60	80080
2026-01-29 03:30:22.76	38.79	10.71	-58.7	-67.3	7.1	1.36e-01	0	46	0	121634816	60	91205
2026-01-29 03:30:23.76	38.66	10.77	-58.4	-66.9	7.0	1.37e-01	0	46	0	123731968	60	86819
2026-01-29 03:30:24.76	38.53	10.84	-58.7	-67.0	7.1	1.40e-01	0	46	0	125829120	60	87567
2026-01-29 03:30:25.75	38.40	10.90	-58.8	-67.1	7.5	1.04e-01	0	46	0	127926272	60	88570
2026-01-29 03:30:26.76	38.27	10.96	-58.9	-66.8	7.3	1.31e-01	0	46	0	130023424	60	85892
2026-01-29 03:30:27.77	38.14	11.03	-59.1	-67.5	6.8	1.32e-01	0	46	0	131072000	60	92729
2026-01-29 03:30:28.77	38.00	11.09	-59.1	-67.9	6.3	1.92e-01	0	46	0	133169152	60	96751
2026-01-29 03:30:29.78	37.87	11.16	-59.2	-67.9	6.5	2.08e-01	0	46	0	135266304	60	97123
2026-01-29 03:30:30.79	37.73	11.22	-59.3	-68.0	6.1	2.72e-01	0	46	0	137363456	60	98700
2026-01-29 03:30:31.80	37.60	11.28	-59.4	-68.6	5.7	2.58e-01	0	46	0	139460608	60	105382
2026-01-29 03:30:32.81	37.46	11.35	-59.3	-68.4	6.1	3.14e-01	0	46	0	141557760	60	103599
2026-01-29 03:30:33.81	37.33	11.41	-58.9	-67.8	6.2	2.10e-01	0	46	0	142606336	60	96028
2026-01-29 03:30:34.82	37.19	11.48	-58.5	-68.4	5.8	2.46e-01	0	46	0	144703488	60	102812
2026-01-29 03:30:35.83	37.05	11.54	-58.5	-68.3	5.7	3.65e-01	0	46	0	146800640	60	101375
2026-01-29 03:30:36.83	36.92	11.60	-58.5	-68.4	5.8	4.16e-01	0	46	0	148897792	60	103496
2026-01-29 03:30:37.83	36.78	11.67	-59.0	-68.5	5.8	3.68e-01	0	46	0	149946368	60	104081
2026-01-29 03:30:38.84	36.64	11.73	-59.6	-68.7	5.7	3.83e-01	0	46	0	152043520	60	106215
2026-01-29 03:30:39.85	36.50	11.79	-59.4	-68.7	5.8	3.04e-01	0	46	0	154140672	60	106652
2026-01-29 03:30:40.85	36.36	11.86	-58.4	-68.6	5.5	3.97e-01	0	46	0	156237824	60	105998
2026-01-29 03:30:41.86	36.22	11.92	-57.6	-68.8	5.1	4.66e-01	0	46	0	158334976	60	107810
2026-01-29 03:30:42.86	36.07	11.99	-56.7	-69.2	4.7	6.12e-01	0	46	0	159383552	60	112663
2026-01-29 03:30:43.86	35.93	12.05	-56.7	-69.2	4.8	7.00e-01	0	46	0	161480704	60	112889
2026-01-29 03:30:44.87	35.79	12.11	-57.1	-68.9	4.7	6.76e-01	0	46	0	163577856	60	108655
2026-01-29 03:30:45.88	35.65	12.18	-58.3	-69.6	4.5	7.58e-01	0	46	0	165675008	60	117921
2026-01-29 03:30:46.89	35.50	12.24	-59.3	-69.8	4.6	8.39e-01	0	46	0	167772160	60	120881
2026-01-29 03:30:47.89	35.36	12.30	-59.9	-70.1	4.4	9.19e-01	0	46	0	169869312	60	124779
2026-01-29 03:30:48.90	35.21	12.37	-59.6	-70.6	4.5	8.86e-01	0	46	0	170917888	60	132607
2026-01-29 03:30:49.91	35.06	12.43	-58.5	-70.3	4.2	8.11e-01	0	46	0	173015040	60	128196
2026-01-29 03:30:50.92	34.92	12.50	-58.2	-70.0	4.1	1.09e+00	0	46	0	175112192	60	124237
2026-01-29 03:30:51.92	34.77	12.56	-58.3	-70.5	4.0	1.00e+00	0	46	0	177209344	60	130528
2026-01-29 03:30:52.93	34.62	12.62	-58.9	-71.1	4.0	1.24e+00	0	46	0	178257920	60	140413
2026-01-29 03:30:53.93	34.47	12.69	-59.5	-71.1	3.9	1.35e+00	0	46	0	179306496	60	140705
2026-01-29 03:30:54.93	34.32	12.75	-59.9	-71.4	4.1	1.32e+00	0	46	0	181403648	60	145840
2026-01-29 03:30:55.94	34.17	12.81	-59.9	-72.7	3.8	1.33e+00	0	46	104	182452224	60	168237
2026-01-29 03:30:56.93	34.03	12.88	-59.7	-72.9	3.9	1.38e+00	0	46	104	182452224	60	173879
2026-01-29 03:30:57.94	33.87	12.94	-59.7	-73.6	3.9	1.49e+00	0	46	104	182452224	60	187107
2026-01-29 03:30:58.94	33.72	13.00	-59.7	-72.3	3.6	1.42e+00	0	46	0	182452224	60	161008
2026-01-29 03:30:59.95	33.57	13.07	-59.5	-73.5	3.9	1.44e+00	0	46	104	182452224	60	185111
2026-01-29 03:31:00.96	33.42	13.13	-59.1	-73.3	3.9	1.49e+00	0	46	104	182452224	60	182126
2026-01-29 03:31:01.97	33.26	13.19	-58.7	-73.1	3.8	1.46e+00	0	46	104	182452224	60	177570
2026-01-29 03:31:02.97	33.11	13.26	-58.3	-73.5	3.8	1.49e+00	0	46	104	182452224	60	184712
2026-01-29 03:31:03.98	32.95	13.32	-58.2	-73.3	3.6	1.48e+00	0	46	104	182452224	60	180971
2026-01-29 03:31:04.99	32.79	13.38	-58.6	-73.9	3.6	1.48e+00	0	46	104	182452224	60	193965
2026-01-29 03:31:05.99	32.64	13.45	-59.0	-73.9	3.6	1.48e+00	0	46	104	182452224	60	193872
2026-01-29 03:31:07.00	32.48	13.51	-59.3	-73.7	3.7	1.47e+00	0	46	104	182452224	60	188660
2026-01-29 03:31:08.00	32.32	13.57	-59.1	-73.8	3.8	1.49e+00	0	46	104	182452224	60	190818
2026-01-29 03:31:09.01	32.16	13.64	-58.4	-73.8	3.7	1.49e+00	0	46	104	182452224	60	191654
2026-01-29 03:31:10.01	32.00	13.70	-57.9	-74.0	3.7	1.50e+00	0	46	104	182452224	60	195423
2026-01-29 03:31:11.02	31.84	13.76	-58.0	-74.1	3.6	1.50e+00	0	46	104	182452224	60	197710
2026-01-29 03:31:12.02	31.68	13.82	-58.6	-74.3	3.7	1.50e+00	0	46	104	182452224	60	203477
2026-01-29 03:31:13.03	31.52	13.89	-59.6	-74.4	3.6	1.50e+00	0	46	104	182452224	60	204742
2026-01-29 03:31:14.03	31.36	13.95	-60.2	-74.5	3.7	1.49e+00	0	46	104	182452224	60	207650
2026-01-29 03:31:15.04	31.20	14.01	-60.1	-74.6	3.7	1.50e+00	0	46	104	182452224	60	210488
2026-01-29 03:31:16.04	31.03	14.07	-60.0	-74.6	3.7	1.50e+00	0	46	104	182452224	60	210379
2026-01-29 03:31:17.05	30.87	14.14	-60.0	-74.7	3.6	1.51e+00	0	46	104	182452224	60	211850
2026-01-29 03:31:18.06	30.70	14.20	-59.3	-74.4	3.7	1.50e+00	0	46	104	182452224	60	206366
2026-01-29 03:31:19.06	30.54	14.26	-57.7	-74.1	3.6	1.50e+00	0	46	104	182452224	60	199521
2026-01-29 03:31:20.07	30.37	14.32	-58.7	-76.3	3.6	1.51e+00	0	46	104	182452224	60	255225
2026-01-29 03:31:21.07	30.20	14.39	-60.2	-76.7	3.6	1.51e+00	0	46	104	182452224	60	267701
2026-01-29 03:31:22.08	30.04	14.45	-59.6	-76.5	3.6	1.51e+00	0	46	104	182452224	60	262131
2026-01-29 03:31:23.08	29.87	14.51	-58.5	-76.4	3.6	1.51e+00	0	46	104	182452224	60	259378
2026-01-29 03:31:24.09	29.70	14.57	-60.3	-77.0	3.6	1.51e+00	0	46	104	182452224	60	277263
2026-01-29 03:31:25.10	29.53	14.63	-59.7	-76.0	3.6	1.51e+00	0	46	104	182452224	60	247830
2026-01-29 03:31:26.10	29.36	14.69	-59.3	-75.9	3.6	1.51e+00	0	46	104	182452224	60	245123
2026-01-29 03:31:27.10	29.19	14.76	-59.9	-76.8	3.6	1.51e+00	0	47	104	182452224	60	271340
2026-01-29 03:31:28.11	29.01	14.82	-56.9	-76.1	3.6	1.51e+00	0	46	104	182452224	60	249653
2026-01-29 03:31:29.11	28.84	14.88	-55.2	-75.6	3.6	1.51e+00	0	46	104	182452224	60	236173
2026-01-29 03:31:30.12	28.67	14.94	-55.3	-75.8	3.6	1.51e+00	0	46	104	182452224	60	241114
2026-01-29 03:31:31.12	28.49	15.00	-59.2	-76.5	3.6	1.51e+00	0	46	104	182452224	60	260755
2026-01-29 03:31:32.13	28.32	15.06	-58.9	-76.6	3.6	1.51e+00	0	46	104	182452224	60	264858
2026-01-29 03:31:33.14	28.14	15.12	-59.1	-76.4	3.6	1.51e+00	0	46	104	182452224	60	259538
2026-01-29 03:31:34.15	27.96	15.18	-55.9	-76.5	3.5	1.51e+00	0	46	104	182452224	60	261980
2026-01-29 03:31:35.16	27.79	15.25	-58.6	-76.2	3.6	1.51e+00	0	46	104	182452224	60	253273
2026-01-29 03:31:36.17	27.61	15.31	-57.1	-75.6	3.6	1.51e+00	0	46	104	182452224	60	236576
2026-01-29 03:31:37.17	27.43	15.37	-60.4	-76.8	3.6	1.51e+00	0	46	104	182452224	60	269829
2026-01-29 03:31:38.18	27.25	15.43	-53.5	-74.5	3.6	1.51e+00	0	46	104	182452224	60	208813
2026-01-29 03:31:39.19	27.07	15.49	-58.6	-74.7	3.6	1.51e+00	0	46	104	182452224	60	213920
2026-01-29 03:31:40.20	26.89	15.55	-52.4	-75.2	3.6	1.51e+00	0	46	104	182452224	60	226750
2026-01-29 03:31:41.20	26.71	15.61	-53.1	-75.9	3.6	1.51e+00	0	46	104	182452224	60	243436
2026-01-29 03:31:42.21	26.52	15.67	-54.7	-76.3	3.6	1.51e+00	0	46	104	182452224	60	255046
2026-01-29 03:31:43.22	26.34	15.73	-52.6	-73.7	3.6	1.51e+00	0	46	104	182452224	60	190026
2026-01-29 03:31:44.22	26.16	15.78	-53.5	-75.1	3.6	1.51e+00	0	46	104	182452224	60	221788
2026-01-29 03:31:45.23	25.97	15.84	-53.8	-73.4	3.6	1.51e+00	0	46	104	182452224	60	183184
2026-01-29 03:31:46.23	25.79	15.90	-49.3	-71.6	3.6	1.51e+00	0	46	104	182452224	60	149466
2026-01-29 03:31:47.24	25.60	15.96	-55.4	-75.4	3.6	1.51e+00	0	46	104	182452224	60	230705
2026-01-29 03:31:48.25	25.41	16.02	-49.7	-72.7	3.6	1.51e+00	0	46	104	182452224	60	169105
2026-01-29 03:31:49.26	25.22	16.08	-51.9	-73.3	3.6	1.51e+00	0	46	104	182452224	60	180225
2026-01-29 03:31:50.27	25.03	16.14	-54.0	-74.1	3.6	1.51e+00	0	46	104	182452224	60	199042
2026-01-29 03:31:51.27	24.85	16.20	-56.7	-76.9	3.6	1.51e+00	0	46	104	182452224	60	275288
2026-01-29 03:31:52.28	24.66	16.25	-53.2	-74.8	3.6	1.51e+00	0	46	104	182452224	60	214193
2026-01-29 03:31:53.29	24.46	16.31	-51.4	-71.7	3.6	1.51e+00	0	46	104	182452224	60	151535
2026-01-29 03:31:54.30	24.27	16.37	-56.1	-76.9	3.6	1.51e+00	0	46	104	182452224	60	274230
2026-01-29 03:31:55.30	24.08	16.43	-49.3	-71.8	3.6	1.51e+00	0	46	104	182452224	60	152469
2026-01-29 03:31:56.31	23.89	16.48	-50.8	-72.6	3.6	1.51e+00	0	46	104	182452224	60	167958
2026-01-29 03:31:57.32	23.69	16.54	-52.4	-73.3	3.6	1.51e+00	0	46	104	182452224	60	180725
2026-01-29 03:31:58.32	23.50	16.60	-55.5	-73.3	3.6	1.51e+00	0	46	104	182452224	60	181329
2026-01-29 03:31:59.33	23.30	16.66	-57.3	-77.1	3.6	1.51e+00	0	46	104	182452224	60	279542
2026-01-29 03:32:00.33	23.11	16.71	-56.9	-75.6	3.6	1.51e+00	0	46	104	182452224	60	237414
2026-01-29 03:32:01.34	22.91	16.77	-58.3	-76.7	3.6	1.51e+00	0	46	104	182452224	60	267686
2026-01-29 03:32:02.35	22.71	16.82	-59.8	-75.9	3.6	1.51e+00	0	46	104	182452224	60	245037
2026-01-29 03:32:03.35	22.52	16.88	-55.5	-75.9	3.6	1.51e+00	0	46	104	182452224	60	243003
2026-01-29 03:32:04.35	22.32	16.93	-56.8	-75.2	3.6	1.51e+00	0	46	104	182452224	60	224840
2026-01-29 03:32:05.36	22.12	16.99	-59.9	-76.0	3.6	1.51e+00	0	46	104	182452224	60	247540
2026-01-29 03:32:06.36	21.92	17.04	-60.0	-76.7	3.6	1.51e+00	0	46	104	182452224	60	266772
2026-01-29 03:32:07.37	21.72	17.10	-59.4	-75.9	3.6	1.51e+00	0	46	104	182452224	60	243208
2026-01-29 03:32:08.38	21.52	17.15	-58.3	-76.0	3.6	1.51e+00	0	46	104	182452224	60	245804
2026-01-29 03:32:09.39	21.31	17.21	-59.6	-75.9	3.6	1.51e+00	0	46	104	182452224	60	244832
2026-01-29 03:32:10.40	21.11	17.26	-57.9	-76.8	3.6	1.51e+00	0	46	104	182452224	60	270555
2026-01-29 03:32:11.41	20.90	17.32	-60.2	-76.6	3.6	1.51e+00	0	46	104	182452224	60	263972
2026-01-29 03:32:12.41	20.70	17.37	-58.8	-76.1	3.6	1.51e+00	0	46	104	182452224	60	250642
2026-01-29 03:32:13.42	20.49	17.42	-57.9	-75.8	3.6	1.51e+00	0	46	104	182452224	60	240664
2026-01-29 03:32:14.43	20.29	17.48	-58.1	-76.4	3.6	1.51e+00	0	46	104	182452224	60	258712
2026-01-29 03:32:15.44	20.08	17.53	-60.1	-77.1	3.6	1.51e+00	0	46	104	182452224	60	280895
2026-01-29 03:32:16.45	19.87	17.58	-59.4	-76.7	3.6	1.51e+00	0	46	104	182452224	60	266966
2026-01-29 03:32:17.45	19.66	17.63	-57.8	-76.9	3.6	1.51e+00	0	46	104	182452224	60	274013
2026-01-29 03:32:18.46	19.45	17.69	-57.9	-76.2	3.6	1.51e+00	0	46	104	182452224	60	254124
2026-01-29 03:32:19.47	19.24	17.74	-57.0	-75.3	3.6	1.51e+00	0	46	104	182452224	60	229143
2026-01-29 03:32:20.48	19.03	17.79	-56.6	-75.1	3.6	1.51e+00	0	46	104	182452224	60	222900
2026-01-29 03:32:21.49	18.82	17.84	-58.1	-75.5	3.6	1.51e+00	0	46	104	182452224	60	233389
2026-01-29 03:32:22.49	18.61	17.89	-58.0	-75.2	3.6	1.51e+00	0	46	104	182452224	60	226256
2026-01-29 03:32:23.50	18.39	17.94	-54.1	-74.4	3.6	1.50e+00	0	46	104	182452224	60	206340
2026-01-29 03:32:24.51	18.18	17.99	-56.4	-76.3	3.6	1.51e+00	0	46	104	182452224	60	257266
2026-01-29 03:32:25.51	17.97	18.04	-56.8	-77.2	3.6	1.51e+00	0	46	104	182452224	60	283375
2026-01-29 03:32:26.52	17.75	18.09	-53.4	-76.0	3.6	1.51e+00	0	46	104	182452224	60	246386
2026-01-29 03:32:27.52	17.54	18.14	-54.0	-73.4	3.6	1.51e+00	0	46	104	182452224	60	183740
2026-01-29 03:32:28.53	17.32	18.19	-53.9	-73.8	3.6	1.51e+00	0	46	104	182452224	60	191250
2026-01-29 03:32:29.54	17.10	18.24	-53.9	-73.4	3.6	1.51e+00	0	46	104	182452224	60	182636
2026-01-29 03:32:30.54	16.88	18.29	-57.1	-74.6	3.6	1.51e+00	0	46	104	182452224	60	209592
2026-01-29 03:32:31.55	16.67	18.33	-56.8	-75.3	3.6	1.51e+00	0	46	104	182452224	60	227626
2026-01-29 03:32:32.56	16.45	18.38	-55.3	-75.8	3.6	1.51e+00	0	46	104	182452224	60	241499
2026-01-29 03:32:33.56	16.23	18.43	-58.8	-74.8	3.6	1.51e+00	0	46	104	182452224	60	214801
2026-01-29 03:32:34.56	16.01	18.48	-59.8	-75.3	3.6	1.51e+00	0	46	104	182452224	60	228255
2026-01-29 03:32:35.57	15.79	18.52	-53.8	-73.8	3.6	1.51e+00	0	46	104	182452224	60	191528
2026-01-29 03:32:36.58	15.56	18.57	-56.6	-74.6	3.6	1.51e+00	0	46	104	182452224	60	211415
2026-01-29 03:32:37.58	15.34	18.61	-58.6	-75.2	3.5	1.51e+00	0	47	104	182452224	60	225515
2026-01-29 03:32:38.59	15.12	18.66	-57.6	-76.0	3.6	1.51e+00	0	46	104	182452224	60	248390
2026-01-29 03:32:39.60	14.89	18.70	-59.4	-76.1	3.6	1.51e+00	0	46	104	182452224	60	250093
2026-01-29 03:32:40.60	14.67	18.75	-59.8	-76.8	3.6	1.51e+00	0	46	104	182452224	60	271496
2026-01-29 03:32:41.61	14.44	18.79	-57.5	-76.6	3.6	1.51e+00	0	46	104	182452224	60	263970
2026-01-29 03:32:42.61	14.22	18.84	-58.4	-76.3	3.6	1.51e+00	0	46	104	182452224	60	256817
2026-01-29 03:32:43.62	13.99	18.88	-56.5	-76.3	3.6	1.51e+00	0	46	104	182452224	60	257028
2026-01-29 03:32:44.63	13.76	18.92	-58.1	-76.6	3.6	1.51e+00	0	46	104	182452224	60	266139
2026-01-29 03:32:45.64	13.53	18.97	-59.5	-76.7	3.6	1.51e+00	0	46	104	182452224	60	266968
2026-01-29 03:32:46.64	13.31	19.01	-59.9	-76.5	3.6	1.51e+00	0	47	104	182452224	60	261808
2026-01-29 03:32:47.65	13.08	19.05	-58.6	-76.1	3.6	1.51e+00	0	46	104	182452224	60	250752
2026-01-29 03:32:48.64	12.85	19.09	-59.1	-77.1	3.6	1.51e+00	0	46	104	182452224	60	279809
2026-01-29 03:32:49.65	12.62	19.13	-59.3	-75.9	3.6	1.51e+00	0	46	104	182452224	60	243955
2026-01-29 03:32:50.66	12.39	19.17	-59.2	-75.7	3.6	1.51e+00	0	46	104	182452224	60	239631
2026-01-29 03:32:51.66	12.16	19.21	-59.7	-76.1	3.6	1.51e+00	0	46	104	182452224	60	250072
2026-01-29 03:32:52.67	11.92	19.25	-56.8	-75.2	3.6	1.51e+00	0	46	104	182452224	60	224987
2026-01-29 03:32:53.67	11.69	19.29	-56.5	-75.3	3.6	1.51e+00	0	46	104	182452224	60	227052
2026-01-29 03:32:54.68	11.46	19.33	-56.9	-75.9	3.6	1.51e+00	0	46	104	182452224	60	244641
2026-01-29 03:32:55.69	11.22	19.37	-59.1	-76.8	3.6	1.51e+00	0	46	104	182452224	60	270358
2026-01-29 03:32:56.69	10.99	19.41	-54.9	-75.6	3.6	1.51e+00	0	46	104	182452224	60	237442
2026-01-29 03:32:57.70	10.75	19.45	-56.5	-75.6	3.6	1.51e+00	0	46	104	182452224	60	235799
2026-01-29 03:32:58.71	10.52	19.48	-55.9	-76.0	3.6	1.51e+00	0	46	104	182452224	60	248438
2026-01-29 03:32:59.72	10.28	19.52	-56.1	-76.4	3.6	1.51e+00	0	46	104	182452224	60	258231
2026-01-29 03:33:00.73	10.04	19.56	-58.3	-75.5	3.6	1.51e+00	0	46	104	182452224	60	233830
2026-01-29 03:33:01.73	9.81	19.59	-58.5	-75.9	3.6	1.51e+00	0	46	104	182452224	60	243828
2026-01-29 03:33:02.74	9.57	19.63	-60.4	-77.1	3.6	1.51e+00	0	46	104	182452224	60	279533
2026-01-29 03:33:03.75	9.33	19.66	-60.5	-77.1	3.6	1.51e+00	0	46	104	182452224	60	281311
2026-01-29 03:33:04.75	9.09	19.70	-60.3	-77.3	3.6	1.51e+00	0	46	104	182452224	60	288742
2026-01-29 03:33:05.76	8.85	19.73	-59.7	-77.2	3.6	1.51e+00	0	46	104	182452224	60	283292
2026-01-29 03:33:06.77	8.61	19.76	-60.6	-77.1	3.5	1.51e+00	0	46	104	182452224	60	281531
2026-01-29 03:33:07.77	8.37	19.80	-57.3	-76.3	3.6	1.51e+00	0	46	104	182452224	60	256186
2026-01-29 03:33:08.77	8.13	19.83	-58.1	-76.3	3.6	1.51e+00	0	46	104	182452224	60	254695
2026-01-29 03:33:09.77	7.89	19.86	-58.8	-76.7	3.6	1.51e+00	0	46	104	182452224	60	267480
2026-01-29 03:33:10.78	7.65	19.89	-58.2	-76.6	3.6	1.51e+00	0	46	104	182452224	60	265353
2026-01-29 03:33:11.79	7.40	19.92	-60.4	-77.1	3.6	1.51e+00	0	46	104	182452224	60	279667
2026-01-29 03:33:12.80	7.16	19.95	-58.8	-76.4	3.6	1.51e+00	0	46	104	182452224	60	259206
2026-01-29 03:33:13.81	6.91	19.98	-58.9	-77.1	3.6	1.51e+00	0	46	104	182452224	60	279719
2026-01-29 03:33:14.81	6.67	20.01	-57.8	-76.5	3.6	1.51e+00	0	46	104	182452224	60	262689
2026-01-29 03:33:15.82	6.42	20.04	-57.0	-75.5	3.6	1.51e+00	0	46	104	182452224	60	232381
2026-01-29 03:33:16.83	6.18	20.07	-57.7	-76.0	3.6	1.51e+00	0	46	104	182452224	60	247826
2026-01-29 03:33:17.84	5.93	20.10	-57.2	-76.4	3.6	1.51e+00	0	46	104	182452224	60	257996
2026-01-29 03:33:18.85	5.68	20.12	-55.7	-75.8	3.6	1.51e+00	0	46	104	182452224	60	240300
2026-01-29 03:33:19.85	5.44	20.15	-57.5	-76.7	3.6	1.51e+00	0	46	104	182452224	60	269137
2026-01-29 03:33:20.86	5.19	20.18	-58.5	-77.1	3.6	1.51e+00	0	46	104	182452224	60	280299
2026-01-29 03:33:21.87	4.94	20.20	-60.6	-77.1	3.6	1.51e+00	0	46	104	182452224	60	280235
2026-01-29 03:33:22.88	4.69	20.23	-57.4	-76.9	3.6	1.51e+00	0	46	104	182452224	60	273670
2026-01-29 03:33:23.88	4.45	20.25	-57.7	-76.9	3.6	1.51e+00	0	46	104	182452224	60	275492
2026-01-29 03:33:24.88	4.20	20.28	-58.9	-77.1	3.6	1.51e+00	0	46	104	182452224	60	279813
2026-01-29 03:33:25.88	3.95	20.30	-57.9	-76.7	3.6	1.51e+00	0	46	104	182452224	60	268192
2026-01-29 03:33:26.89	3.70	20.32	-59.6	-76.4	3.5	1.51e+00	0	46	104	182452224	60	257498
2026-01-29 03:33:27.90	3.45	20.35	-59.2	-76.7	3.6	1.51e+00	0	46	104	182452224	60	268364
2026-01-29 03:33:28.91	3.20	20.37	-58.1	-76.6	3.6	1.51e+00	0	46	104	182452224	60	263631
2026-01-29 03:33:29.92	2.95	20.39	-60.7	-77.2	3.6	1.51e+00	0	46	104	182452224	60	284664
2026-01-29 03:33:30.93	2.70	20.41	-58.6	-76.5	3.6	1.51e+00	0	46	104	182452224	60	262816
2026-01-29 03:33:31.93	2.45	20.43	-58.5	-76.6	3.6	1.51e+00	0	46	104	182452224	60	266151
2026-01-29 03:33:32.94	2.20	20.45	-58.6	-76.5	3.6	1.51e+00	0	46	104	182452224	60	263298
2026-01-29 03:33:33.95	1.94	20.47	-58.5	-76.3	3.6	1.51e+00	0	46	104	182452224	60	256934
2026-01-29 03:33:34.96	1.69	20.49	-59.8	-76.6	3.6	1.51e+00	0	46	104	182452224	60	264302
2026-01-29 03:33:35.97	1.44	20.50	-60.5	-77.0	3.6	1.51e+00	0	46	104	182452224	60	278684
2026-01-29 03:33:36.97	1.19	20.52	-59.3	-76.5	3.6	1.51e+00	0	46	104	182452224	60	262872
2026-01-29 03:33:37.98	0.93	20.54	-58.6	-77.0	3.6	1.51e+00	0	47	104	182452224	60	276608
2026-01-29 03:33:38.99	0.68	20.56	-58.4	-76.2	3.6	1.51e+00	0	46	104	182452224	60	254274
2026-01-29 03:33:39.99	0.43	20.57	-58.4	-76.0	3.6	1.51e+00	0	46	104	182452224	60	246143
2026-01-29 03:33:41.00	0.17	20.59	-59.5	-76.4	3.6	1.51e+00	0	46	104	182452224	60	258731
2026-01-29 03:33:42.00	359.92	20.60	-59.4	-76.4	3.6	1.51e+00	0	46	104	182452224	60	258163
2026-01-29 03:33:43.01	359.66	20.61	-59.8	-76.8	3.5	1.51e+00	0	46	104	182452224	60	271281
2026-01-29 03:33:44.01	359.41	20.63	-59.7	-76.9	3.6	1.51e+00	0	46	104	182452224	60	273736
2026-01-29 03:33:45.01	359.16	20.64	-60.1	-77.0	3.6	1.51e+00	0	46	104	182452224	60	277177
2026-01-29 03:33:46.02	358.90	20.65	-58.9	-76.4	3.6	1.51e+00	0	46	104	182452224	60	258795
2026-01-29 03:33:47.02	358.65	20.66	-60.0	-76.9	3.6	1.51e+00	0	46	104	182452224	60	273070
2026-01-29 03:33:48.03	358.39	20.67	-59.9	-76.7	3.6	1.51e+00	0	46	104	182452224	60	269109
2026-01-29 03:33:49.04	358.13	20.68	-59.6	-76.8	3.6	1.51e+00	0	46	104	182452224	60	269515
2026-01-29 03:33:50.04	357.88	20.69	-59.6	-76.5	3.6	1.51e+00	0	46	104	182452224	60	263080
2026-01-29 03:33:51.05	357.62	20.70	-60.1	-76.9	3.6	1.51e+00	0	46	104	182452224	60	274267
2026-01-29 03:33:52.05	357.37	20.71	-60.1	-77.0	3.6	1.51e+00	0	46	104	182452224	60	276350
2026-01-29 03:33:53.06	357.11	20.72	-60.3	-76.8	3.6	1.51e+00	0	46	104	182452224	60	271915
2026-01-29 03:33:54.07	356.86	20.73	-60.1	-76.7	3.6	1.51e+00	0	46	104	182452224	60	266747
2026-01-29 03:33:55.07	356.60	20.73	-60.1	-76.8	3.6	1.51e+00	0	47	104	182452224	60	270973
2026-01-29 03:33:56.08	356.34	20.74	-60.3	-77.0	3.6	1.51e+00	0	46	104	182452224	60	277599
2026-01-29 03:33:57.07	356.09	20.74	-58.7	-76.5	3.6	1.51e+00	0	46	104	182452224	60	262965
2026-01-29 03:33:58.07	355.84	20.75	-59.7	-76.4	3.6	1.51e+00	0	46	104	182452224	60	258807
2026-01-29 03:33:59.07	355.58	20.75	-58.9	-76.4	3.6	1.51e+00	0	46	104	182452224	60	259461
2026-01-29 03:34:00.08	355.32	20.76	-59.0	-76.3	3.6	1.51e+00	0	47	104	182452224	60	255658
2026-01-29 03:34:01.08	355.07	20.76	-59.8	-76.4	3.6	1.51e+00	0	47	104	182452224	60	259333
2026-01-29 03:34:02.09	354.81	20.76	-59.8	-76.5	3.6	1.51e+00	0	46	104	182452224	60	262032
2026-01-29 03:34:03.09	354.55	20.76	-60.3	-76.7	3.6	1.51e+00	0	46	104	182452224	60	266491
2026-01-29 03:34:04.10	354.30	20.77	-59.1	-77.0	3.6	1.51e+00	0	46	104	182452224	60	277283
2026-01-29 03:34:05.11	354.04	20.77	-60.0	-76.7	3.6	1.51e+00	0	46	104	182452224	60	267034
2026-01-29 03:34:06.12	353.78	20.77	-60.4	-77.0	3.6	1.51e+00	0	46	104	182452224	60	277891
2026-01-29 03:34:07.13	353.52	20.77	-60.6	-77.1	3.6	1.51e+00	0	46	104	182452224	60	279100
2026-01-29 03:34:08.13	353.27	20.76	-60.3	-77.1	3.6	1.51e+00	0	47	104	182452224	60	279342
2026-01-29 03:34:09.14	353.01	20.76	-60.3	-77.0	3.6	1.51e+00	0	47	104	182452224	60	276009
2026-01-29 03:34:10.15	352.75	20.76	-60.3	-77.0	3.6	1.51e+00	0	46	104	182452224	60	276881
2026-01-29 03:34:11.16	352.49	20.76	-60.4	-77.2	3.6	1.51e+00	0	46	104	182452224	60	284092
2026-01-29 03:34:12.16	352.24	20.75	-59.8	-77.0	3.6	1.51e+00	0	47	104	182452224	60	277834
2026-01-29 03:34:13.16	351.98	20.75	-60.3	-77.0	3.6	1.51e+00	0	46	104	182452224	60	278592
2026-01-29 03:34:14.17	351.73	20.74	-59.7	-76.9	3.6	1.51e+00	0	46	104	182452224	60	273237
2026-01-29 03:34:15.17	351.47	20.74	-60.4	-77.1	3.6	1.51e+00	0	46	104	182452224	60	280832
2026-01-29 03:34:16.18	351.21	20.73	-60.5	-77.1	3.6	1.51e+00	0	46	104	182452224	60	280076
2026-01-29 03:34:17.18	350.96	20.73	-60.2	-76.9	3.6	1.51e+00	0	46	104	182452224	60	275712
2026-01-29 03:34:18.19	350.70	20.72	-59.7	-76.5	3.5	1.51e+00	0	46	104	182452224	60	261395
2026-01-29 03:34:19.20	350.45	20.71	-59.7	-76.9	3.6	1.51e+00	0	46	104	182452224	60	275761
2026-01-29 03:34:20.21	350.19	20.70	-60.3	-77.0	3.6	1.51e+00	0	46	104	182452224	60	276613
2026-01-29 03:34:21.22	349.93	20.69	-60.3	-76.9	3.6	1.51e+00	0	46	104	182452224	60	275473
2026-01-29 03:34:22.23	349.67	20.68	-59.7	-76.5	3.6	1.51e+00	0	46	104	182452224	60	262387
2026-01-29 03:34:23.23	349.42	20.67	-59.6	-76.7	3.6	1.51e+00	0	46	104	182452224	60	266906
2026-01-29 03:34:24.24	349.16	20.66	-60.3	-76.9	3.6	1.51e+00	0	46	104	182452224	60	274170
2026-01-29 03:34:25.24	348.91	20.65	-60.6	-76.9	3.6	1.51e+00	0	46	104	182452224	60	272952
2026-01-29 03:34:26.25	348.66	20.64	-59.7	-76.5	3.6	1.51e+00	0	46	104	182452224	60	261372
2026-01-29 03:34:27.26	348.40	20.62	-59.8	-76.6	3.6	1.51e+00	0	46	104	182452224	60	265333
2026-01-29 03:34:28.26	348.15	20.61	-59.9	-76.9	3.6	1.51e+00	0	46	104	182452224	60	273662
2026-01-29 03:34:29.27	347.89	20.60	-60.5	-76.9	3.6	1.51e+00	0	46	104	182452224	60	272650
2026-01-29 03:34:30.28	347.64	20.58	-60.5	-76.8	3.6	1.51e+00	0	46	104	182452224	60	270286
2026-01-29 03:34:31.29	347.38	20.57	-59.5	-76.7	3.5	1.51e+00	0	46	104	182452224	60	266881
2026-01-29 03:34:32.29	347.13	20.55	-60.5	-77.0	3.6	1.51e+00	0	47	104	182452224	60	278556
2026-01-29 03:34:33.30	346.88	20.54	-60.1	-76.8	3.6	1.51e+00	0	46	104	182452224	60	269783
2026-01-29 03:34:34.31	346.62	20.52	-60.5	-76.7	3.6	1.51e+00	0	46	104	182452224	60	267573
2026-01-29 03:34:35.32	346.37	20.50	-60.3	-76.8	3.6	1.51e+00	0	47	104	182452224	60	271730
2026-01-29 03:34:36.32	346.12	20.48	-60.4	-77.0	3.6	1.51e+00	0	47	104	182452224	60	277434
2026-01-29 03:34:37.33	345.86	20.46	-59.0	-76.7	3.6	1.51e+00	0	46	104	182452224	60	268274
2026-01-29 03:34:38.34	345.61	20.45	-60.5	-76.7	3.6	1.51e+00	0	46	104	182452224	60	269265
2026-01-29 03:34:39.35	345.36	20.43	-60.3	-76.9	3.6	1.51e+00	0	47	104	182452224	60	273820
2026-01-29 03:34:40.35	345.11	20.41	-60.5	-77.0	3.6	1.51e+00	0	46	104	182452224	60	276894
2026-01-29 03:34:41.36	344.86	20.38	-59.9	-76.7	3.6	1.51e+00	0	46	104	182452224	60	268718
2026-01-29 03:34:42.37	344.61	20.36	-60.6	-76.8	3.6	1.51e+00	0	46	104	182452224	60	271346
2026-01-29 03:34:43.37	344.36	20.34	-60.7	-77.0	3.6	1.51e+00	0	46	104	182452224	60	276638
2026-01-29 03:34:44.38	344.11	20.32	-60.5	-77.0	3.6	1.51e+00	0	46	104	182452224	60	276614
2026-01-29 03:34:45.39	343.86	20.30	-59.8	-76.7	3.6	1.51e+00	0	46	104	182452224	60	268484
2026-01-29 03:34:46.39	343.61	20.27	-60.5	-76.9	3.6	1.51e+00	0	46	104	182452224	60	272694
2026-01-29 03:34:47.40	343.36	20.25	-60.5	-76.9	3.6	1.51e+00	0	46	104	182452224	60	274860
2026-01-29 03:34:48.41	343.11	20.22	-60.3	-77.0	3.6	1.51e+00	0	46	104	182452224	60	278392
2026-01-29 03:34:49.42	342.86	20.20	-60.3	-76.7	3.6	1.51e+00	0	46	104	182452224	60	269382
2026-01-29 03:34:50.43	342.61	20.17	-60.4	-76.9	3.6	1.51e+00	0	46	104	182452224	60	272844
2026-01-29 03:34:51.43	342.37	20.15	-60.7	-77.0	3.6	1.51e+00	0	46	104	182452224	60	277648
2026-01-29 03:34:52.44	342.12	20.12	-60.6	-77.1	3.6	1.51e+00	0	46	104	182452224	60	281144
2026-01-29 03:34:53.44	341.88	20.09	-60.1	-76.8	3.6	1.51e+00	0	46	104	182452224	60	269637
2026-01-29 03:34:54.44	341.63	20.06	-60.5	-76.9	3.6	1.51e+00	0	46	104	182452224	60	274371
2026-01-29 03:34:55.45	341.39	20.04	-60.6	-77.0	3.6	1.51e+00	0	46	104	182452224	60	276664
2026-01-29 03:34:56.45	341.14	20.01	-60.5	-77.1	3.6	1.51e+00	0	46	104	182452224	60	281329
2026-01-29 03:34:57.46	340.90	19.98	-60.2	-76.8	3.6	1.51e+00	0	46	104	182452224	60	270513
2026-01-29 03:34:58.47	340.65	19.95	-60.3	-76.8	3.6	1.51e+00	0	46	104	182452224	60	272157
2026-01-29 03:34:59.48	340.41	19.92	-60.6	-77.0	3.6	1.51e+00	0	46	104	182452224	60	277285
2026-01-29 03:35:00.48	340.17	19.89	-60.2	-76.8	3.6	1.51e+00	0	46	104	182452224	60	272428
2026-01-29 03:35:01.49	339.93	19.85	-59.9	-76.8	3.6	1.51e+00	0	46	104	182452224	60	270941
2026-01-29 03:35:02.49	339.69	19.82	-60.2	-76.8	3.6	1.51e+00	0	46	104	182452224	60	271141
2026-01-29 03:35:03.50	339.44	19.79	-60.3	-76.9	3.6	1.51e+00	0	46	104	182452224	60	272881
2026-01-29 03:35:04.51	339.20	19.76	-60.3	-76.8	3.6	1.51e+00	0	46	104	182452224	60	272368
2026-01-29 03:35:05.51	338.96	19.72	-60.6	-76.9	3.6	1.51e+00	0	46	104	182452224	60	275176
2026-01-29 03:35:06.52	338.72	19.69	-60.4	-76.8	3.6	1.51e+00	0	46	104	182452224	60	269745
2026-01-29 03:35:07.53	338.48	19.65	-60.2	-76.8	3.6	1.51e+00	0	46	104	182452224	60	272141
2026-01-29 03:35:08.53	338.25	19.62	-60.4	-76.9	3.6	1.51e+00	0	46	104	182452224	60	272739
2026-01-29 03:35:09.53	338.01	19.59	-60.3	-77.0	3.6	1.51e+00	0	46	104	182452224	60	276432
2026-01-29 03:35:10.54	337.77	19.55	-60.5	-77.0	3.6	1.51e+00	0	46	104	182452224	60	277019
2026-01-29 03:35:11.55	337.53	19.51	-60.4	-76.8	3.6	1.51e+00	0	46	104	182452224	60	272509
2026-01-29 03:35:12.56	337.30	19.48	-60.4	-76.9	3.6	1.51e+00	0	46	104	182452224	60	275070
2026-01-29 03:35:13.57	337.06	19.44	-59.9	-76.9	3.6	1.51e+00	0	46	104	182452224	60	273199
2026-01-29 03:35:14.57	336.82	19.40	-60.3	-77.0	3.6	1.51e+00	0	46	104	182452224	60	276302
2026-01-29 03:35:15.58	336.59	19.36	-60.4	-76.9	3.6	1.51e+00	0	46	104	182452224	60	275279
2026-01-29 03:35:16.59	336.35	19.32	-60.4	-77.0	3.6	1.51e+00	0	46	104	182452224	60	276072
2026-01-29 03:35:17.60	336.12	19.29	-59.4	-76.8	3.6	1.51e+00	0	47	104	182452224	60	270775
2026-01-29 03:35:18.61	335.89	19.25	-60.3	-76.8	3.6	1.51e+00	0	46	104	182452224	60	270336
2026-01-29 03:35:19.61	335.66	19.21	-60.5	-77.0	3.6	1.51e+00	0	47	104	182452224	60	275909
2026-01-29 03:35:20.62	335.42	19.17	-60.2	-76.8	3.6	1.51e+00	0	47	104	182452224	60	270721
2026-01-29 03:35:21.63	335.19	19.12	-59.8	-76.8	3.6	1.51e+00	0	46	104	182452224	60	269705
2026-01-29 03:35:22.63	334.96	19.08	-60.0	-76.8	3.6	1.51e+00	0	47	104	182452224	60	270352
2026-01-29 03:35:23.63	334.73	19.04	-60.3	-76.9	3.6	1.51e+00	0	47	104	182452224	60	274322
2026-01-29 03:35:24.64	334.50	19.00	-60.2	-76.8	3.6	1.51e+00	0	46	104	182452224	60	270625
2026-01-29 03:35:25.64	334.28	18.96	-60.4	-77.0	3.6	1.51e+00	0	46	104	182452224	60	277449
2026-01-29 03:35:26.64	334.05	18.92	-60.4	-76.8	3.5	1.51e+00	0	46	104	182452224	60	271564
2026-01-29 03:35:27.65	333.82	18.87	-60.6	-77.0	3.6	1.51e+00	0	46	104	182452224	60	277278
2026-01-29 03:35:28.65	333.60	18.83	-60.5	-76.9	3.6	1.51e+00	0	46	104	182452224	60	272988
2026-01-29 03:35:29.66	333.37	18.79	-60.3	-76.9	3.6	1.51e+00	0	46	104	182452224	60	273615
2026-01-29 03:35:30.67	333.15	18.74	-60.3	-76.8	3.6	1.51e+00	0	46	104	182452224	60	270566
2026-01-29 03:35:31.67	332.92	18.70	-60.5	-76.9	3.6	1.51e+00	0	47	104	182452224	60	273512
2026-01-29 03:35:32.68	332.70	18.65	-60.2	-76.8	3.6	1.51e+00	0	46	104	182452224	60	271072
2026-01-29 03:35:33.69	332.47	18.61	-60.2	-76.9	3.6	1.51e+00	0	46	104	182452224	60	275321
2026-01-29 03:35:34.69	332.25	18.56	-60.0	-76.6	3.6	1.51e+00	0	46	104	182452224	60	265195
2026-01-29 03:35:35.70	332.03	18.51	-60.0	-76.6	3.6	1.51e+00	0	46	104	182452224	60	264395
2026-01-29 03:35:36.71	331.81	18.47	-60.1	-76.7	3.6	1.51e+00	0	46	104	182452224	60	269428
2026-01-29 03:35:37.71	331.59	18.42	-60.0	-76.9	3.6	1.51e+00	0	46	104	182452224	60	273471
2026-01-29 03:35:38.72	331.37	18.37	-60.1	-76.7	3.6	1.51e+00	0	47	104	182452224	60	268637
2026-01-29 03:35:39.72	331.15	18.33	-59.9	-76.5	3.6	1.51e+00	0	46	104	182452224	60	263160
2026-01-29 03:35:40.73	330.93	18.28	-60.1	-76.8	3.6	1.51e+00	0	46	104	182452224	60	270412
2026-01-29 03:35:41.74	330.71	18.23	-59.7	-76.8	3.6	1.51e+00	0	47	104	182452224	60	272589
2026-01-29 03:35:42.74	330.50	18.18	-60.2	-76.7	3.6	1.51e+00	0	46	104	182452224	60	267766
2026-01-29 03:35:43.74	330.28	18.13	-60.1	-76.7	3.6	1.51e+00	0	46	104	182452224	60	266834
2026-01-29 03:35:44.75	330.07	18.08	-59.7	-76.9	3.6	1.51e+00	0	46	104	182452224	60	272707
2026-01-29 03:35:45.76	329.85	18.03	-59.6	-76.9	3.6	1.51e+00	0	46	104	182452224	60	273256
2026-01-29 03:35:46.77	329.64	17.98	-60.0	-76.8	3.6	1.51e+00	0	46	104	182452224	60	271184
2026-01-29 03:35:47.77	329.42	17.93	-60.1	-76.8	3.6	1.51e+00	0	46	104	182452224	60	271886
2026-01-29 03:35:48.78	329.21	17.88	-59.7	-76.9	3.6	1.51e+00	0	47	104	182452224	60	273479
2026-01-29 03:35:49.79	329.00	17.83	-59.5	-76.7	3.6	1.51e+00	0	46	104	182452224	60	266965
2026-01-29 03:35:50.80	328.79	17.78	-60.0	-76.8	3.6	1.51e+00	0	46	104	182452224	60	271195
2026-01-29 03:35:51.80	328.58	17.73	-60.3	-76.8	3.6	1.51e+00	0	46	104	182452224	60	272506
2026-01-29 03:35:52.80	328.37	17.68	-59.7	-76.8	3.6	1.51e+00	0	47	104	182452224	60	271162
2026-01-29 03:35:53.81	328.16	17.63	-59.6	-76.8	3.6	1.51e+00	0	46	104	182452224	60	269836
2026-01-29 03:35:54.82	327.95	17.57	-59.5	-76.7	3.6	1.51e+00	0	46	104	182452224	60	267611
2026-01-29 03:35:55.81	327.74	17.52	-60.2	-76.8	3.6	1.51e+00	0	46	104	182452224	60	271541
2026-01-29 03:35:56.82	327.54	17.47	-60.0	-76.9	3.6	1.51e+00	0	47	104	182452224	60	273070
2026-01-29 03:35:57.82	327.33	17.42	-60.0	-76.8	3.6	1.51e+00	0	46	104	182452224	60	270758
2026-01-29 03:35:58.83	327.13	17.36	-59.5	-76.7	3.6	1.51e+00	0	46	104	182452224	60	268413
2026-01-29 03:35:59.84	326.92	17.31	-60.0	-76.8	3.6	1.51e+00	0	46	104	182452224	60	272206
2026-01-29 03:36:00.84	326.72	17.26	-60.2	-76.8	3.6	1.51e+00	0	47	104	182452224	60	269793
2026-01-29 03:36:01.84	326.52	17.20	-60.3	-76.8	3.6	1.51e+00	0	47	104	182452224	60	269537
2026-01-29 03:36:02.85	326.31	17.15	-59.9	-76.7	3.6	1.51e+00	0	46	104	182452224	60	268632
2026-01-29 03:36:03.86	326.11	17.09	-60.1	-76.8	3.6	1.51e+00	0	46	104	182452224	60	269595
2026-01-29 03:36:04.87	325.91	17.04	-60.4	-76.7	3.6	1.51e+00	0	46	104	182452224	60	269120
2026-01-29 03:36:05.87	325.71	16.98	-60.1	-76.6	3.6	1.51e+00	0	46	104	182452224	60	265976
2026-01-29 03:36:06.88	325.51	16.93	-60.1	-76.6	3.6	1.51e+00	0	47	104	182452224	60	265836
2026-01-29 03:36:07.89	325.31	16.87	-60.2	-76.7	3.6	1.51e+00	0	46	104	182452224	60	269125
2026-01-29 03:36:08.90	325.11	16.82	-60.3	-76.7	3.6	1.51e+00	0	47	104	182452224	60	266802
2026-01-29 03:36:09.90	324.91	16.76	-60.2	-76.7	3.6	1.51e+00	0	46	104	182452224	60	268371
2026-01-29 03:36:10.91	324.72	16.70	-60.0	-76.7	3.6	1.51e+00	0	47	104	182452224	60	267165
2026-01-29 03:36:11.92	324.52	16.65	-60.2	-76.8	3.6	1.51e+00	0	46	104	182452224	60	271722
2026-01-29 03:36:12.92	324.33	16.59	-60.3	-76.7	3.6	1.51e+00	0	47	104	182452224	60	267065
2026-01-29 03:36:13.93	324.13	16.53	-60.3	-76.7	3.6	1.51e+00	0	46	104	182452224	60	266821
2026-01-29 03:36:14.93	323.94	16.48	-60.1	-76.7	3.6	1.51e+00	0	47	104	182452224	60	267770
2026-01-29 03:36:15.94	323.75	16.42	-60.3	-76.8	3.6	1.51e+00	0	46	104	182452224	60	272067
2026-01-29 03:36:16.94	323.55	16.36	-60.4	-76.6	3.6	1.51e+00	0	47	104	182452224	60	264530
2026-01-29 03:36:17.95	323.36	16.30	-60.4	-76.6	3.6	1.51e+00	0	47	104	182452224	60	266120
2026-01-29 03:36:18.96	323.17	16.25	-60.3	-76.7	3.6	1.51e+00	0	46	104	182452224	60	266859
2026-01-29 03:36:19.96	322.98	16.19	-60.3	-76.8	3.6	1.51e+00	0	46	104	182452224	60	272428
2026-01-29 03:36:20.97	322.79	16.13	-60.3	-76.6	3.6	1.51e+00	0	46	104	182452224	60	265095
2026-01-29 03:36:21.98	322.60	16.07	-60.3	-76.8	3.6	1.51e+00	0	46	104	182452224	60	270003
2026-01-29 03:36:22.99	322.42	16.01	-60.3	-76.7	3.6	1.51e+00	0	46	104	182452224	60	266749
2026-01-29 03:36:23.99	322.23	15.95	-60.1	-76.8	3.6	1.51e+00	0	46	104	182452224	60	271407
2026-01-29 03:36:24.99	322.04	15.90	-60.2	-76.6	3.6	1.51e+00	0	46	104	182452224	60	264724
2026-01-29 03:36:26.00	321.86	15.84	-60.4	-76.8	3.6	1.51e+00	0	46	104	182452224	60	269864
2026-01-29 03:36:27.01	321.67	15.78	-60.4	-76.7	3.6	1.51e+00	0	46	104	182452224	60	269266
2026-01-29 03:36:28.01	321.49	15.72	-60.1	-76.8	3.6	1.51e+00	0	46	104	182452224	60	271091
2026-01-29 03:36:29.02	321.31	15.66	-60.3	-76.6	3.6	1.51e+00	0	46	104	182452224	60	264025
2026-01-29 03:36:30.02	321.12	15.60	-60.4	-76.8	3.6	1.51e+00	0	46	104	182452224	60	270154
2026-01-29 03:36:31.02	320.94	15.54	-60.4	-76.7	3.6	1.51e+00	0	46	104	182452224	60	269484
2026-01-29 03:36:32.03	320.76	15.48	-60.4	-76.8	3.6	1.51e+00	0	46	104	182452224	60	271799
2026-01-29 03:36:33.03	320.58	15.42	-60.2	-76.5	3.6	1.51e+00	0	46	104	182452224	60	262421
2026-01-29 03:36:34.04	320.40	15.36	-60.1	-76.8	3.6	1.51e+00	0	46	104	182452224	60	271048
2026-01-29 03:36:35.04	320.23	15.30	-60.4	-76.8	3.6	1.51e+00	0	47	104	182452224	60	269764
2026-01-29 03:36:36.05	320.05	15.24	-60.2	-76.8	3.6	1.51e+00	0	46	104	182452224	60	270066
2026-01-29 03:36:37.06	319.87	15.18	-60.2	-76.6	3.6	1.51e+00	0	46	104	182452224	60	264202
2026-01-29 03:36:38.07	319.69	15.12	-60.0	-76.7	3.6	1.51e+00	0	46	104	182452224	60	267702
2026-01-29 03:36:39.07	319.52	15.06	-60.3	-76.7	3.5	1.51e+00	0	46	104	182452224	60	269499
2026-01-29 03:36:40.07	319.34	15.00	-60.0	-76.6	3.6	1.51e+00	0	46	104	182452224	60	265679
2026-01-29 03:36:41.07	319.17	14.94	-60.1	-76.7	3.6	1.51e+00	0	46	104	182452224	60	266471
2026-01-29 03:36:42.08	319.00	14.87	-59.9	-76.7	3.6	1.51e+00	0	46	104	182452224	60	267199
2026-01-29 03:36:43.08	318.82	14.81	-60.1	-76.8	3.6	1.51e+00	0	46	104	182452224	60	270267
2026-01-29 03:36:44.08	318.65	14.75	-59.9	-76.6	3.6	1.51e+00	0	46	104	182452224	60	263970
2026-01-29 03:36:45.09	318.48	14.69	-60.2	-76.7	3.6	1.51e+00	0	47	104	182452224	60	267447
2026-01-29 03:36:46.09	318.31	14.63	-59.7	-76.5	3.6	1.51e+00	0	46	104	182452224	60	262731
2026-01-29 03:36:47.09	318.14	14.57	-60.0	-76.7	3.6	1.51e+00	0	46	104	182452224	60	269093
2026-01-29 03:36:48.10	317.97	14.51	-59.6	-76.4	3.6	1.51e+00	0	46	104	182452224	60	257777
2026-01-29 03:36:49.10	317.80	14.44	-60.1	-76.6	3.6	1.51e+00	0	46	104	182452224	60	266146
2026-01-29 03:36:50.11	317.64	14.38	-59.6	-76.5	3.6	1.51e+00	0	46	104	182452224	60	261233
2026-01-29 03:36:51.12	317.47	14.32	-60.0	-76.7	3.6	1.51e+00	0	46	104	182452224	60	266653
2026-01-29 03:36:52.13	317.30	14.26	-59.7	-76.4	3.6	1.51e+00	0	46	104	182452224	60	259249
2026-01-29 03:36:53.13	317.14	14.19	-59.7	-76.6	3.6	1.51e+00	0	47	104	182452224	60	265206
2026-01-29 03:36:54.13	316.97	14.13	-59.4	-76.5	3.6	1.51e+00	0	46	104	182452224	60	260884
2026-01-29 03:36:55.14	316.81	14.07	-59.7	-76.5	3.5	1.51e+00	0	47	104	182452224	60	262483
2026-01-29 03:36:56.14	316.64	14.01	-60.0	-76.6	3.6	1.51e+00	0	46	104	182452224	60	264715
2026-01-29 03:36:57.15	316.48	13.95	-59.3	-76.4	3.6	1.51e+00	0	46	104	182452224	60	259738
2026-01-29 03:36:58.16	316.32	13.88	-59.3	-76.3	3.6	1.51e+00	0	47	104	182452224	60	257119
2026-01-29 03:36:59.16	316.16	13.82	-59.5	-76.4	3.6	1.51e+00	0	46	104	182452224	60	258785
2026-01-29 03:37:00.17	316.00	13.76	-60.2	-76.7	3.6	1.51e+00	0	47	104	182452224	60	267106
2026-01-29 03:37:01.18	315.83	13.69	-59.0	-76.4	3.6	1.51e+00	0	46	104	182452224	60	258218
2026-01-29 03:37:02.18	315.68	13.63	-58.6	-75.9	3.5	1.51e+00	0	47	104	182452224	60	245079
2026-01-29 03:37:03.19	315.52	13.57	-59.3	-76.4	3.6	1.51e+00	0	47	104	182452224	60	259112
2026-01-29 03:37:04.19	315.36	13.51	-60.1	-76.7	3.6	1.51e+00	0	46	104	182452224	60	266739
2026-01-29 03:37:05.20	315.20	13.44	-59.2	-76.4	3.6	1.51e+00	0	46	104	182452224	60	258414
2026-01-29 03:37:06.21	315.04	13.38	-58.4	-75.9	3.6	1.51e+00	0	47	104	182452224	60	245189
2026-01-29 03:37:07.21	314.89	13.32	-58.8	-76.2	3.6	1.51e+00	0	46	104	182452224	60	253886
2026-01-29 03:37:08.22	314.73	13.25	-58.5	-76.2	3.6	1.51e+00	0	46	104	182452224	60	252442
2026-01-29 03:37:09.22	314.58	13.19	-58.6	-76.1	3.6	1.51e+00	0	46	104	182452224	60	250938
2026-01-29 03:37:10.23	314.42	13.13	-58.6	-76.0	3.6	1.51e+00	0	47	104	182452224	60	248319
2026-01-29 03:37:11.24	314.27	13.06	-57.8	-75.5	3.6	1.51e+00	0	46	104	182452224	60	233573
2026-01-29 03:37:12.24	314.12	13.00	-59.9	-76.6	3.6	1.51e+00	0	46	104	182452224	60	263522
2026-01-29 03:37:13.25	313.97	12.94	-59.8	-76.4	3.6	1.51e+00	0	47	104	182452224	60	257714
2026-01-29 03:37:14.25	313.82	12.87	-58.3	-75.9	3.6	1.51e+00	0	47	104	182452224	60	243902
2026-01-29 03:37:15.26	313.66	12.81	-58.0	-75.7	3.6	1.51e+00	0	47	104	182452224	60	238122
2026-01-29 03:37:16.26	313.51	12.75	-57.9	-75.7	3.5	1.51e+00	0	47	104	182452224	60	238802
2026-01-29 03:37:17.27	313.36	12.68	-58.0	-75.7	3.5	1.51e+00	0	47	104	182452224	60	239305
2026-01-29 03:37:18.28	313.22	12.62	-58.2	-75.7	3.6	1.51e+00	0	46	104	182452224	60	239978
2026-01-29 03:37:19.29	313.07	12.55	-59.3	-76.2	3.6	1.51e+00	0	47	104	182452224	60	253230
2026-01-29 03:37:20.30	312.92	12.49	-59.0	-76.2	3.6	1.51e+00	0	47	104	182452224	60	254082
2026-01-29 03:37:21.31	312.77	12.43	-58.0	-75.8	3.6	1.51e+00	0	47	104	182452224	60	242865
2026-01-29 03:37:22.31	312.63	12.36	-59.5	-76.4	3.6	1.51e+00	0	47	104	182452224	60	258998
2026-01-29 03:37:23.32	312.48	12.30	-59.7	-76.4	3.6	1.51e+00	0	47	104	182452224	60	257413
2026-01-29 03:37:24.33	312.33	12.23	-59.7	-76.3	3.6	1.51e+00	0	47	104	182452224	60	255288
2026-01-29 03:37:25.33	312.19	12.17	-58.3	-76.1	3.6	1.51e+00	0	46	104	182452224	60	249728
2026-01-29 03:37:26.34	312.05	12.11	-59.5	-76.5	3.6	1.51e+00	0	46	104	182452224	60	261174
2026-01-29 03:37:27.35	311.90	12.04	-59.8	-76.4	3.6	1.51e+00	0	46	104	182452224	60	257702
2026-01-29 03:37:28.36	311.76	11.98	-59.8	-76.3	3.6	1.51e+00	0	46	104	182452224	60	255662
2026-01-29 03:37:29.37	311.62	11.92	-58.8	-76.2	3.6	1.51e+00	0	47	104	182452224	60	252497
2026-01-29 03:37:30.37	311.48	11.85	-59.6	-76.5	3.6	1.51e+00	0	46	104	182452224	60	262193
2026-01-29 03:37:31.37	311.34	11.79	-59.8	-76.3	3.6	1.51e+00	0	46	104	182452224	60	254734
2026-01-29 03:37:32.38	311.20	11.72	-59.8	-76.3	3.6	1.51e+00	0	47	104	182452224	60	256704
2026-01-29 03:37:33.39	311.06	11.66	-59.5	-76.2	3.6	1.51e+00	0	46	104	182452224	60	253797
2026-01-29 03:37:34.39	310.92	11.60	-59.7	-76.3	3.6	1.51e+00	0	47	104	182452224	60	256272
2026-01-29 03:37:35.40	310.78	11.53	-59.5	-76.1	3.6	1.51e+00	0	47	104	182452224	60	249628
2026-01-29 03:37:36.40	310.65	11.47	-59.7	-76.3	3.6	1.51e+00	0	47	104	182452224	60	254807
2026-01-29 03:37:37.41	310.51	11.41	-59.7	-76.2	3.6	1.51e+00	0	47	104	182452224	60	253503
2026-01-29 03:37:38.41	310.37	11.34	-59.7	-76.2	3.6	1.51e+00	0	47	104	182452224	60	254395
2026-01-29 03:37:39.42	310.24	11.28	-59.5	-76.0	3.6	1.51e+00	0	47	104	182452224	60	246922
2026-01-29 03:37:40.43	310.10	11.21	-59.7	-76.3	3.6	1.51e+00	0	47	104	182452224	60	254981
2026-01-29 03:37:41.44	309.97	11.15	-59.7	-76.1	3.6	1.51e+00	0	47	104	182452224	60	248990
2026-01-29 03:37:42.45	309.83	11.09	-59.7	-76.2	3.6	1.51e+00	0	46	104	182452224	60	253451
2026-01-29 03:37:43.45	309.70	11.02	-59.5	-76.1	3.6	1.51e+00	0	47	104	182452224	60	249444
2026-01-29 03:37:44.46	309.57	10.96	-59.7	-76.3	3.6	1.51e+00	0	47	104	182452224	60	254795
2026-01-29 03:37:45.47	309.43	10.89	-59.7	-76.2	3.6	1.51e+00	0	47	104	182452224	60	252004
2026-01-29 03:37:46.48	309.30	10.83	-59.7	-76.2	3.6	1.51e+00	0	47	104	182452224	60	252973
2026-01-29 03:37:47.49	309.17	10.77	-59.6	-76.0	3.5	1.51e+00	0	47	104	182452224	60	248065
2026-01-29 03:37:48.49	309.04	10.70	-59.8	-76.2	3.6	1.51e+00	0	47	104	182452224	60	253184
2026-01-29 03:37:49.50	308.91	10.64	-59.7	-76.2	3.6	1.51e+00	0	47	104	182452224	60	252622
2026-01-29 03:37:50.51	308.78	10.58	-59.8	-76.2	3.6	1.51e+00	0	47	104	182452224	60	252576
2026-01-29 03:37:51.51	308.65	10.51	-59.6	-76.0	3.6	1.51e+00	0	46	104	182452224	60	247925
2026-01-29 03:37:52.51	308.53	10.45	-59.8	-76.2	3.6	1.51e+00	0	46	104	182452224	60	253057
2026-01-29 03:37:53.52	308.40	10.39	-59.8	-76.2	3.6	1.51e+00	0	47	104	182452224	60	251741
2026-01-29 03:37:54.52	308.27	10.32	-59.6	-76.2	3.6	1.51e+00	0	47	104	182452224	60	253774
2026-01-29 03:37:55.52	308.15	10.26	-59.6	-76.0	3.6	1.51e+00	0	47	104	182452224	60	248369
2026-01-29 03:37:56.53	308.02	10.20	-59.7	-76.1	3.6	1.51e+00	0	47	104	182452224	60	250727
2026-01-29 03:37:57.54	307.90	10.13	-59.8	-76.2	3.6	1.51e+00	0	47	104	182452224	60	251555
2026-01-29 03:37:58.55	307.77	10.07	-59.5	-76.1	3.6	1.51e+00	0	47	104	182452224	60	250262
2026-01-29 03:37:59.56	307.65	10.00	-59.6	-76.0	3.6	1.51e+00	0	47	104	182452224	60	245895
2026-01-29 03:38:00.56	307.52	9.94	-59.6	-76.1	3.6	1.51e+00	0	46	104	182452224	60	249835
2026-01-29 03:38:01.57	307.40	9.88	-59.7	-76.2	3.6	1.51e+00	0	46	104	182452224	60	252914
2026-01-29 03:38:02.58	307.28	9.81	-59.6	-76.1	3.6	1.51e+00	0	47	104	182452224	60	250054
2026-01-29 03:38:03.59	307.16	9.75	-59.5	-76.0	3.6	1.51e+00	0	47	104	182452224	60	247105
2026-01-29 03:38:04.60	307.03	9.69	-59.5	-76.0	3.6	1.51e+00	0	46	104	182452224	60	248193
2026-01-29 03:38:05.60	306.91	9.62	-59.6	-76.1	3.6	1.51e+00	0	46	104	182452224	60	249117
2026-01-29 03:38:06.60	306.79	9.56	-59.6	-76.1	3.6	1.51e+00	0	46	104	182452224	60	249410
2026-01-29 03:38:07.61	306.67	9.50	-59.5	-75.9	3.6	1.51e+00	0	47	104	182452224	60	245414
2026-01-29 03:38:08.62	306.55	9.44	-59.6	-76.1	3.6	1.51e+00	0	47	104	182452224	60	249110
2026-01-29 03:38:09.62	306.44	9.37	-59.6	-76.1	3.6	1.51e+00	0	47	104	182452224	60	249038
2026-01-29 03:38:10.63	306.32	9.31	-59.6	-76.0	3.6	1.51e+00	0	46	104	182452224	60	248408
2026-01-29 03:38:11.63	306.20	9.25	-59.6	-76.0	3.6	1.51e+00	0	47	104	182452224	60	246154
2026-01-29 03:38:12.64	306.08	9.18	-59.7	-76.1	3.6	1.51e+00	0	47	104	182452224	60	249339
2026-01-29 03:38:13.64	305.97	9.12	-59.6	-76.0	3.6	1.51e+00	0	46	104	182452224	60	247519
2026-01-29 03:38:14.65	305.85	9.06	-59.6	-76.0	3.6	1.51e+00	0	47	104	182452224	60	247845
2026-01-29 03:38:15.65	305.74	9.00	-59.5	-75.9	3.6	1.51e+00	0	47	104	182452224	60	243661
2026-01-29 03:38:16.66	305.62	8.93	-59.6	-76.0	3.6	1.51e+00	0	46	104	182452224	60	248182
2026-01-29 03:38:17.67	305.51	8.87	-59.6	-76.0	3.6	1.51e+00	0	46	104	182452224	60	248395
2026-01-29 03:38:18.68	305.39	8.81	-59.5	-75.9	3.6	1.51e+00	0	47	104	182452224	60	245243
2026-01-29 03:38:19.68	305.28	8.75	-59.3	-75.8	3.5	1.51e+00	0	46	104	182452224	60	242188
2026-01-29 03:38:20.69	305.17	8.68	-59.6	-76.0	3.6	1.51e+00	0	46	104	182452224	60	246349
2026-01-29 03:38:21.69	305.05	8.62	-59.4	-75.9	3.6	1.51e+00	0	47	104	182452224	60	245042
2026-01-29 03:38:22.70	304.94	8.56	-59.3	-75.9	3.6	1.51e+00	0	47	104	182452224	60	244883
2026-01-29 03:38:23.70	304.83	8.50	-59.2	-75.7	3.6	1.51e+00	0	47	104	182452224	60	239253
2026-01-29 03:38:24.71	304.72	8.43	-59.3	-75.9	3.6	1.51e+00	0	47	104	182452224	60	244310
2026-01-29 03:38:25.71	304.61	8.37	-59.3	-75.9	3.6	1.51e+00	0	46	104	182452224	60	243620
2026-01-29 03:38:26.72	304.50	8.31	-59.3	-75.8	3.6	1.51e+00	0	46	104	182452224	60	242879
2026-01-29 03:38:27.72	304.39	8.25	-59.2	-75.6	3.6	1.51e+00	0	46	104	182452224	60	235761
2026-01-29 03:38:28.73	304.28	8.18	-59.3	-75.9	3.6	1.51e+00	0	47	104	182452224	60	243900
2026-01-29 03:38:29.74	304.17	8.12	-59.2	-75.8	3.6	1.51e+00	0	46	104	182452224	60	242490
2026-01-29 03:38:30.74	304.06	8.06	-59.2	-75.6	3.6	1.51e+00	0	46	104	182452224	60	237254
2026-01-29 03:38:31.75	303.96	8.00	-59.2	-75.6	3.6	1.51e+00	0	47	104	182452224	60	236435
2026-01-29 03:38:32.76	303.85	7.94	-59.3	-75.8	3.6	1.51e+00	0	46	104	182452224	60	241144
2026-01-29 03:38:33.76	303.74	7.87	-59.1	-75.7	3.6	1.51e+00	0	46	104	182452224	60	239652
2026-01-29 03:38:34.77	303.64	7.81	-59.2	-75.7	3.6	1.51e+00	0	47	104	182452224	60	238201
2026-01-29 03:38:35.77	303.53	7.75	-59.2	-75.7	3.6	1.51e+00	0	47	104	182452224	60	239324
2026-01-29 03:38:36.78	303.42	7.69	-59.2	-75.8	3.6	1.51e+00	0	47	104	182452224	60	241021
2026-01-29 03:38:37.79	303.32	7.63	-59.3	-75.8	3.6	1.51e+00	0	47	104	182452224	60	242008
2026-01-29 03:38:38.80	303.21	7.57	-59.2	-75.6	3.6	1.51e+00	0	47	104	182452224	60	235757
2026-01-29 03:38:39.81	303.11	7.50	-59.2	-75.6	3.6	1.51e+00	0	47	104	182452224	60	236542
2026-01-29 03:38:40.81	303.01	7.44	-59.2	-75.8	3.6	1.51e+00	0	47	104	182452224	60	240940
2026-01-29 03:38:41.82	302.90	7.38	-59.4	-75.9	3.6	1.51e+00	0	46	104	182452224	60	243966
2026-01-29 03:38:42.83	302.80	7.32	-59.1	-75.6	3.6	1.51e+00	0	47	104	182452224	60	236854
2026-01-29 03:38:43.84	302.70	7.26	-59.1	-75.6	3.6	1.51e+00	0	46	104	182452224	60	237243
2026-01-29 03:38:44.84	302.60	7.20	-59.3	-75.7	3.6	1.51e+00	0	46	104	182452224	60	239524
2026-01-29 03:38:45.85	302.49	7.14	-59.4	-75.9	3.6	1.51e+00	0	47	104	182452224	60	243738
2026-01-29 03:38:46.86	302.39	7.07	-59.0	-75.6	3.6	1.51e+00	0	46	104	182452224	60	235139
2026-01-29 03:38:47.86	302.29	7.01	-58.9	-75.4	3.6	1.51e+00	0	47	104	182452224	60	230901
