passes_logs/2026/01/29/R3.2S-Naryan-Mar/R3.2S-Naryan-Mar__20260129_052606_NOAA_20_JPSS-1_rec.log

#Pass ID: 20260129_052606_NOAA 20 (JPSS-1)
#Satellite: NOAA 20 (JPSS-1)
#Configuration: NOAA 20
#almurnet v.1.7.20240730
#Start time: 2026-01-29 05:26:09

#Version: 2.2.20231116
#Station: R3.2S-Naryan-Mar
#Location: 53.008057 lon 67.646978 lat
#TLE: 1 43013U 17073A   26027.94683596  .00000137  00000+0  85741-4 0  9995
#TLE: 2 43013  98.7648 328.7503 0000940  21.3928 338.7287 14.19541154424576

#Time	Az	El	Level	Level2	SNR	BER	BlckErr	Temp	State	Recorded	gain1	gain2
2026-01-29 05:26:09.62	89.59	0.15	-61.0	-77.2	3.3	1.54e+00	0	45	0	0	60	282404
2026-01-29 05:26:10.62	89.54	0.20	-61.4	-78.9	3.6	1.51e+00	0	45	104	0	60	346844
2026-01-29 05:26:11.63	89.49	0.26	-62.1	-79.3	3.6	1.51e+00	0	45	104	0	60	363213
2026-01-29 05:26:12.63	89.44	0.31	-62.0	-79.3	3.6	1.51e+00	0	45	104	0	60	362433
2026-01-29 05:26:13.63	89.38	0.37	-61.9	-79.3	3.6	1.51e+00	0	45	104	0	60	360928
2026-01-29 05:26:14.64	89.33	0.42	-61.8	-79.1	3.6	1.51e+00	0	45	104	0	60	351819
2026-01-29 05:26:15.65	89.27	0.48	-62.1	-79.0	3.6	1.51e+00	0	45	104	0	60	348952
2026-01-29 05:26:16.65	89.22	0.53	-61.3	-78.8	3.6	1.51e+00	0	45	104	0	60	343135
2026-01-29 05:26:17.66	89.17	0.59	-61.1	-78.8	3.5	1.51e+00	0	45	104	0	60	339415
2026-01-29 05:26:18.67	89.11	0.65	-60.6	-77.7	3.6	1.51e+00	0	45	104	0	60	301756
2026-01-29 05:26:19.68	89.06	0.70	-60.2	-78.2	3.6	1.51e+00	0	45	104	0	60	316845
2026-01-29 05:26:20.68	89.00	0.76	-60.7	-78.2	3.6	1.51e+00	0	45	104	0	60	317116
2026-01-29 05:26:21.69	88.95	0.82	-61.2	-77.8	3.6	1.51e+00	0	45	104	0	60	305346
2026-01-29 05:26:22.70	88.89	0.87	-59.6	-77.5	3.6	1.51e+00	0	45	104	0	60	292857
2026-01-29 05:26:23.71	88.83	0.93	-59.5	-77.2	3.6	1.51e+00	0	45	104	0	60	284541
2026-01-29 05:26:24.71	88.78	0.98	-60.5	-77.4	3.6	1.51e+00	0	45	104	0	60	288871
2026-01-29 05:26:25.72	88.72	1.04	-60.4	-77.1	3.6	1.51e+00	0	45	104	0	60	281357
2026-01-29 05:26:26.72	88.67	1.10	-60.6	-77.1	3.6	1.51e+00	0	45	104	0	60	281034
2026-01-29 05:26:27.73	88.61	1.15	-60.3	-77.1	3.6	1.51e+00	0	45	104	0	60	279054
2026-01-29 05:26:28.74	88.55	1.21	-60.1	-76.9	3.6	1.51e+00	0	45	104	0	60	274047
2026-01-29 05:26:29.74	88.50	1.27	-60.1	-76.8	3.6	1.51e+00	0	45	104	0	60	272055
2026-01-29 05:26:30.75	88.44	1.32	-60.1	-76.9	3.6	1.51e+00	0	45	104	0	60	272862
2026-01-29 05:26:31.75	88.38	1.38	-60.1	-76.8	3.6	1.51e+00	0	45	104	0	60	271256
2026-01-29 05:26:32.76	88.32	1.44	-60.1	-76.9	3.6	1.51e+00	0	45	104	0	60	273575
2026-01-29 05:26:33.76	88.27	1.50	-60.1	-76.8	3.6	1.51e+00	0	45	104	0	60	270672
2026-01-29 05:26:34.77	88.21	1.55	-60.0	-76.9	3.6	1.51e+00	0	45	104	0	60	273409
2026-01-29 05:26:35.78	88.15	1.61	-60.0	-76.9	3.6	1.51e+00	0	45	104	0	60	273093
2026-01-29 05:26:36.79	88.09	1.67	-60.0	-76.8	3.6	1.51e+00	0	45	104	0	60	272100
2026-01-29 05:26:37.79	88.03	1.73	-60.0	-76.8	3.6	1.51e+00	0	45	104	0	60	270440
2026-01-29 05:26:38.80	87.97	1.78	-60.0	-76.8	3.6	1.51e+00	0	45	104	0	60	271293
2026-01-29 05:26:39.81	87.91	1.84	-60.0	-76.8	3.5	1.51e+00	0	45	104	0	60	269749
2026-01-29 05:26:40.81	87.85	1.90	-60.0	-76.7	3.6	1.51e+00	0	45	104	0	60	268935
2026-01-29 05:26:41.82	87.79	1.96	-60.0	-76.7	3.6	1.51e+00	0	45	104	0	60	268565
2026-01-29 05:26:42.82	87.73	2.01	-59.9	-76.8	3.6	1.51e+00	0	45	104	0	60	269873
2026-01-29 05:26:43.83	87.67	2.07	-59.9	-76.7	3.6	1.51e+00	0	45	104	0	60	267348
2026-01-29 05:26:44.84	87.61	2.13	-59.9	-76.7	3.6	1.51e+00	0	45	104	0	60	268431
2026-01-29 05:26:45.84	87.55	2.19	-59.9	-76.7	3.6	1.51e+00	0	45	104	0	60	269201
2026-01-29 05:26:46.85	87.49	2.25	-59.9	-76.7	3.6	1.51e+00	0	45	104	0	60	267763
2026-01-29 05:26:47.85	87.43	2.31	-59.9	-76.7	3.6	1.51e+00	0	46	104	0	60	267746
2026-01-29 05:26:48.86	87.37	2.36	-59.9	-76.7	3.6	1.51e+00	0	46	104	0	60	267487
2026-01-29 05:26:49.87	87.31	2.42	-59.9	-76.7	3.6	1.51e+00	0	46	104	0	60	268934
2026-01-29 05:26:50.87	87.24	2.48	-59.9	-76.7	3.6	1.51e+00	0	46	104	0	60	266810
2026-01-29 05:26:51.88	87.18	2.54	-59.9	-76.7	3.6	1.51e+00	0	46	104	0	60	267612
2026-01-29 05:26:52.89	87.12	2.60	-59.9	-76.6	3.6	1.51e+00	0	45	104	0	60	265744
2026-01-29 05:26:53.89	87.06	2.66	-59.9	-76.7	3.6	1.51e+00	0	45	104	0	60	267342
2026-01-29 05:26:54.90	86.99	2.72	-59.9	-76.6	3.6	1.51e+00	0	46	104	0	60	265474
2026-01-29 05:26:55.91	86.93	2.78	-59.8	-76.7	3.6	1.51e+00	0	46	104	0	60	267462
2026-01-29 05:26:56.91	86.87	2.84	-59.8	-76.7	3.6	1.51e+00	0	46	104	0	60	267246
2026-01-29 05:26:57.92	86.80	2.90	-59.9	-76.7	3.6	1.51e+00	0	45	104	0	60	266420
2026-01-29 05:26:58.92	86.74	2.95	-59.8	-76.7	3.6	1.51e+00	0	46	104	0	60	266912
2026-01-29 05:26:59.93	86.67	3.01	-59.8	-76.7	3.6	1.51e+00	0	45	104	0	60	266811
2026-01-29 05:27:00.93	86.61	3.07	-59.8	-76.7	3.6	1.51e+00	0	45	104	0	60	268337
2026-01-29 05:27:01.94	86.54	3.13	-59.8	-76.6	3.6	1.51e+00	0	46	104	0	60	265844
2026-01-29 05:27:02.94	86.48	3.19	-59.8	-76.6	3.6	1.51e+00	0	46	104	0	60	265803
2026-01-29 05:27:03.95	86.41	3.25	-59.8	-76.7	3.6	1.51e+00	0	46	104	0	60	266705
2026-01-29 05:27:04.95	86.35	3.31	-59.8	-76.6	3.6	1.51e+00	0	45	104	0	60	265194
2026-01-29 05:27:05.96	86.28	3.37	-59.8	-76.6	3.6	1.51e+00	0	46	104	0	60	265340
2026-01-29 05:27:06.97	86.21	3.43	-59.8	-76.6	3.6	1.51e+00	0	46	104	0	60	265016
2026-01-29 05:27:07.97	86.15	3.49	-59.8	-76.6	3.6	1.51e+00	0	46	104	0	60	264643
2026-01-29 05:27:08.98	86.08	3.55	-59.8	-76.6	3.6	1.51e+00	0	46	104	0	60	266139
2026-01-29 05:27:09.99	86.01	3.61	-59.8	-76.5	3.6	1.51e+00	0	46	104	0	60	263037
2026-01-29 05:27:11.00	85.94	3.67	-59.8	-76.6	3.6	1.51e+00	0	46	104	0	60	265125
2026-01-29 05:27:12.01	85.88	3.74	-59.8	-76.6	3.6	1.51e+00	0	46	104	0	60	264156
2026-01-29 05:27:13.01	85.81	3.80	-59.9	-76.7	3.6	1.51e+00	0	46	104	0	60	266445
2026-01-29 05:27:14.02	85.74	3.86	-59.9	-76.6	3.6	1.51e+00	0	46	104	0	60	264086
2026-01-29 05:27:15.03	85.67	3.92	-59.9	-76.6	3.6	1.51e+00	0	46	104	0	60	263815
2026-01-29 05:27:16.04	85.60	3.98	-59.9	-76.6	3.6	1.51e+00	0	46	104	0	60	265897
2026-01-29 05:27:17.04	85.53	4.04	-59.8	-76.6	3.6	1.51e+00	0	46	104	0	60	264646
2026-01-29 05:27:18.05	85.46	4.10	-59.8	-76.6	3.6	1.51e+00	0	46	104	0	60	264920
2026-01-29 05:27:19.06	85.39	4.16	-59.8	-76.6	3.6	1.51e+00	0	46	104	0	60	263866
2026-01-29 05:27:20.06	85.32	4.22	-59.8	-76.6	3.6	1.51e+00	0	46	104	0	60	264257
2026-01-29 05:27:21.08	85.25	4.29	-59.8	-76.6	3.6	1.51e+00	0	46	104	0	60	263598
2026-01-29 05:27:22.08	85.18	4.35	-59.8	-76.6	3.6	1.51e+00	0	46	104	0	60	263878
2026-01-29 05:27:23.09	85.11	4.41	-59.8	-76.5	3.6	1.51e+00	0	46	104	0	60	262607
2026-01-29 05:27:24.10	85.04	4.47	-59.8	-76.5	3.6	1.51e+00	0	46	104	0	60	262392
2026-01-29 05:27:25.11	84.96	4.53	-59.7	-76.5	3.6	1.51e+00	0	46	104	0	60	260849
2026-01-29 05:27:26.12	84.89	4.60	-59.8	-76.5	3.6	1.51e+00	0	46	104	0	60	261889
2026-01-29 05:27:27.12	84.82	4.66	-59.7	-76.5	3.6	1.51e+00	0	46	104	0	60	261718
2026-01-29 05:27:28.12	84.75	4.72	-59.7	-76.4	3.6	1.51e+00	0	46	104	0	60	257495
2026-01-29 05:27:29.13	84.67	4.78	-59.7	-76.4	3.6	1.51e+00	0	46	104	0	60	259608
2026-01-29 05:27:30.14	84.60	4.84	-59.7	-76.4	3.6	1.51e+00	0	46	104	0	60	260204
2026-01-29 05:27:31.15	84.53	4.91	-59.7	-76.4	3.6	1.51e+00	0	46	104	0	60	259845
2026-01-29 05:27:32.15	84.45	4.97	-59.7	-76.5	3.6	1.51e+00	0	46	104	0	60	261397
2026-01-29 05:27:33.16	84.38	5.03	-59.7	-76.4	3.6	1.51e+00	0	46	104	0	60	257773
2026-01-29 05:27:34.16	84.30	5.09	-59.7	-76.4	3.6	1.51e+00	0	46	104	0	60	258692
2026-01-29 05:27:35.17	84.23	5.16	-59.7	-76.4	3.6	1.51e+00	0	46	104	0	60	258144
2026-01-29 05:27:36.17	84.15	5.22	-59.7	-76.4	3.6	1.51e+00	0	46	104	0	60	260146
2026-01-29 05:27:37.17	84.08	5.28	-59.7	-76.4	3.6	1.51e+00	0	46	104	0	60	259550
2026-01-29 05:27:38.18	84.00	5.35	-59.7	-76.5	3.6	1.51e+00	0	46	104	0	60	261147
2026-01-29 05:27:39.19	83.92	5.41	-59.7	-76.5	3.6	1.51e+00	0	46	104	0	60	261508
2026-01-29 05:27:40.19	83.85	5.47	-59.7	-76.6	3.6	1.51e+00	0	46	104	0	60	264029
2026-01-29 05:27:41.20	83.77	5.54	-59.7	-76.5	3.6	1.51e+00	0	46	104	0	60	261541
2026-01-29 05:27:42.20	83.69	5.60	-59.7	-76.5	3.6	1.51e+00	0	46	104	0	60	262330
2026-01-29 05:27:43.21	83.61	5.66	-59.7	-76.5	3.6	1.51e+00	0	46	104	0	60	260887
2026-01-29 05:27:44.22	83.54	5.73	-59.7	-76.5	3.6	1.51e+00	0	46	104	0	60	262112
2026-01-29 05:27:45.23	83.46	5.79	-59.7	-76.5	3.6	1.51e+00	0	46	104	0	60	262871
2026-01-29 05:27:46.24	83.38	5.86	-59.7	-76.4	3.6	1.51e+00	0	46	104	0	60	259095
2026-01-29 05:27:47.24	83.30	5.92	-59.7	-76.4	3.6	1.51e+00	0	46	104	0	60	257857
2026-01-29 05:27:48.24	83.22	5.98	-59.7	-76.4	3.6	1.51e+00	0	46	104	0	60	258814
2026-01-29 05:27:49.25	83.14	6.05	-59.7	-76.4	3.6	1.51e+00	0	46	104	0	60	258046
2026-01-29 05:27:50.26	83.06	6.11	-59.5	-76.4	3.6	1.51e+00	0	46	104	0	60	258582
2026-01-29 05:27:51.26	82.98	6.18	-60.0	-76.5	3.6	1.51e+00	0	46	104	0	60	262272
2026-01-29 05:27:52.27	82.90	6.24	-59.8	-76.4	3.6	1.51e+00	0	46	104	0	60	257474
2026-01-29 05:27:53.27	82.81	6.31	-59.7	-76.3	3.6	1.51e+00	0	46	104	0	60	254551
2026-01-29 05:27:54.28	82.73	6.37	-59.4	-76.3	3.6	1.51e+00	0	46	104	0	60	255274
2026-01-29 05:27:55.28	82.65	6.44	-60.1	-76.4	3.6	1.51e+00	0	46	104	0	60	258491
2026-01-29 05:27:56.28	82.57	6.50	-59.6	-76.2	3.6	1.51e+00	0	46	104	0	60	252321
2026-01-29 05:27:57.29	82.49	6.57	-59.7	-76.4	3.6	1.51e+00	0	46	104	0	60	259512
2026-01-29 05:27:58.30	82.40	6.63	-59.4	-76.2	3.6	1.51e+00	0	46	104	0	60	252587
2026-01-29 05:27:59.31	82.32	6.70	-60.0	-76.4	3.6	1.51e+00	0	46	104	0	60	257910
2026-01-29 05:28:00.32	82.23	6.76	-59.9	-76.1	3.6	1.51e+00	0	46	104	0	60	249233
2026-01-29 05:28:01.33	82.15	6.83	-59.7	-76.5	3.6	1.51e+00	0	46	104	0	60	260414
2026-01-29 05:28:02.33	82.06	6.90	-59.4	-76.2	3.6	1.51e+00	0	46	104	0	60	252975
2026-01-29 05:28:03.34	81.98	6.96	-59.6	-76.4	3.6	1.51e+00	0	46	104	0	60	259251
2026-01-29 05:28:04.35	81.89	7.03	-59.8	-76.1	3.6	1.51e+00	0	46	104	0	60	251313
2026-01-29 05:28:05.35	81.81	7.09	-60.0	-76.4	3.6	1.51e+00	0	46	104	0	60	258878
2026-01-29 05:28:06.36	81.72	7.16	-59.3	-76.1	3.6	1.51e+00	0	46	104	0	60	250854
2026-01-29 05:28:07.36	81.63	7.23	-59.1	-76.3	3.6	1.51e+00	0	46	104	0	60	257108
2026-01-29 05:28:08.36	81.54	7.29	-59.8	-76.1	3.6	1.51e+00	0	46	104	0	60	250957
2026-01-29 05:28:09.37	81.46	7.36	-57.2	-75.8	3.6	1.51e+00	0	46	104	0	60	242372
2026-01-29 05:28:10.37	81.37	7.42	-58.2	-75.9	3.6	1.51e+00	0	46	104	0	60	245419
2026-01-29 05:28:11.37	81.28	7.49	-58.4	-76.2	3.6	1.51e+00	0	46	104	0	60	253855
2026-01-29 05:28:12.38	81.19	7.56	-59.5	-76.1	3.6	1.51e+00	0	46	104	0	60	250060
2026-01-29 05:28:13.38	81.10	7.62	-58.7	-76.4	3.6	1.51e+00	0	46	104	0	60	257575
2026-01-29 05:28:14.39	81.01	7.69	-57.9	-76.0	3.6	1.51e+00	0	46	104	0	60	247627
2026-01-29 05:28:15.40	80.92	7.76	-59.0	-76.4	3.6	1.51e+00	0	46	104	0	60	258088
2026-01-29 05:28:16.41	80.83	7.83	-57.6	-75.8	3.6	1.51e+00	0	46	104	0	60	240693
2026-01-29 05:28:17.41	80.74	7.89	-59.2	-76.2	3.6	1.51e+00	0	46	104	0	60	251713
2026-01-29 05:28:18.42	80.65	7.96	-58.7	-75.9	3.6	1.51e+00	0	46	104	0	60	245634
2026-01-29 05:28:19.43	80.55	8.03	-59.3	-76.0	3.6	1.51e+00	0	46	104	0	60	246270
2026-01-29 05:28:20.44	80.46	8.10	-59.6	-75.8	3.6	1.51e+00	0	46	104	0	60	242359
2026-01-29 05:28:21.44	80.37	8.16	-60.0	-75.4	3.6	1.51e+00	0	46	104	0	60	231928
2026-01-29 05:28:22.45	80.27	8.23	-60.0	-75.6	3.6	1.51e+00	0	46	104	0	60	237385
2026-01-29 05:28:23.45	80.18	8.30	-60.1	-76.6	3.6	1.51e+00	0	46	104	0	60	264909
2026-01-29 05:28:24.46	80.09	8.37	-60.1	-75.8	3.6	1.51e+00	0	46	104	0	60	241109
2026-01-29 05:28:25.47	79.99	8.44	-59.6	-76.2	3.6	1.51e+00	0	46	104	0	60	252915
2026-01-29 05:28:26.48	79.90	8.50	-60.2	-75.7	3.6	1.51e+00	0	46	104	0	60	239553
2026-01-29 05:28:27.48	79.80	8.57	-60.2	-76.1	3.6	1.51e+00	0	46	104	0	60	248897
2026-01-29 05:28:28.49	79.70	8.64	-60.2	-75.9	3.6	1.51e+00	0	46	104	0	60	243094
2026-01-29 05:28:29.50	79.61	8.71	-59.9	-75.2	3.6	1.51e+00	0	46	104	0	60	225607
2026-01-29 05:28:30.51	79.51	8.78	-59.5	-74.9	3.6	1.29e+00	0	46	104	0	60	216872
2026-01-29 05:28:31.52	79.41	8.85	-60.1	-76.5	3.6	1.51e+00	0	46	104	0	60	260743
2026-01-29 05:28:32.53	79.31	8.92	-59.9	-75.5	3.6	1.51e+00	0	46	104	0	60	233643
2026-01-29 05:28:33.53	79.21	8.99	-59.9	-75.8	3.6	1.51e+00	0	46	104	0	60	240506
2026-01-29 05:28:34.54	79.11	9.06	-59.7	-75.7	3.6	1.51e+00	0	46	104	0	60	239765
2026-01-29 05:28:35.55	79.01	9.13	-59.6	-75.9	3.6	1.51e+00	0	46	104	0	60	244908
2026-01-29 05:28:36.56	78.91	9.19	-59.8	-75.9	3.6	1.51e+00	0	46	104	0	60	245066
2026-01-29 05:28:37.56	78.81	9.26	-59.8	-75.5	3.6	1.51e+00	0	46	104	0	60	234469
2026-01-29 05:28:38.57	78.71	9.33	-60.0	-76.6	3.6	1.51e+00	0	46	104	0	60	264778
2026-01-29 05:28:39.58	78.61	9.40	-60.1	-76.6	3.6	1.51e+00	0	46	104	0	60	265354
2026-01-29 05:28:40.59	78.51	9.47	-60.0	-76.7	3.6	1.51e+00	0	46	104	0	60	269368
2026-01-29 05:28:41.59	78.41	9.54	-60.0	-76.7	3.6	1.51e+00	0	46	104	0	60	267645
2026-01-29 05:28:42.59	78.30	9.61	-60.1	-76.6	3.6	1.51e+00	0	46	104	0	60	265913
2026-01-29 05:28:43.59	78.20	9.68	-59.9	-75.3	3.6	1.51e+00	0	46	104	0	60	229079
2026-01-29 05:28:44.60	78.10	9.75	-60.0	-75.4	3.6	1.51e+00	0	46	104	0	60	229741
2026-01-29 05:28:45.61	77.99	9.82	-59.2	-71.2	5.0	1.51e+00	0	46	104	0	60	142985
2026-01-29 05:28:46.61	77.89	9.89	-59.2	-71.6	3.8	3.96e-01	0	46	104	0	60	149409
2026-01-29 05:28:47.62	77.78	9.96	-59.7	-76.7	3.6	1.51e+00	0	46	104	0	60	267740
2026-01-29 05:28:48.63	77.67	10.04	-58.7	-74.2	3.6	1.51e+00	0	46	104	0	60	201221
2026-01-29 05:28:49.64	77.57	10.11	-58.6	-74.5	3.6	1.50e+00	0	46	104	0	60	207818
2026-01-29 05:28:50.64	77.46	10.18	-59.7	-75.2	3.6	1.49e+00	0	46	104	0	60	224284
2026-01-29 05:28:51.65	77.35	10.25	-60.0	-76.1	3.6	1.51e+00	0	46	104	0	60	250843
2026-01-29 05:28:52.66	77.24	10.32	-59.7	-75.9	3.6	1.51e+00	0	46	104	0	60	245406
2026-01-29 05:28:53.67	77.13	10.39	-58.7	-74.7	3.6	1.51e+00	0	46	104	0	60	213740
2026-01-29 05:28:54.67	77.03	10.46	-60.2	-75.6	3.6	1.50e+00	0	46	104	0	60	236516
2026-01-29 05:28:55.68	76.92	10.53	-60.2	-76.5	3.6	1.51e+00	0	46	104	0	60	262614
2026-01-29 05:28:56.68	76.81	10.60	-60.2	-76.1	3.6	1.51e+00	0	46	104	0	60	250950
2026-01-29 05:28:57.69	76.69	10.68	-60.2	-76.6	3.6	1.50e+00	0	46	104	0	60	265069
2026-01-29 05:28:58.70	76.58	10.75	-60.1	-76.5	3.6	1.51e+00	0	46	104	0	60	262311
2026-01-29 05:28:59.70	76.47	10.82	-60.2	-74.5	3.7	1.50e+00	0	46	104	0	60	208645
2026-01-29 05:29:00.71	76.36	10.89	-60.1	-74.0	3.6	1.49e+00	0	46	104	0	60	197427
2026-01-29 05:29:01.72	76.24	10.96	-60.2	-72.6	3.8	1.47e+00	0	46	0	0	60	167673
2026-01-29 05:29:02.73	76.13	11.04	-60.3	-71.9	3.8	1.34e+00	0	46	0	0	60	154626
2026-01-29 05:29:03.73	76.02	11.11	-60.3	-71.2	4.1	1.22e+00	0	46	0	2097152	60	142821
2026-01-29 05:29:04.74	75.90	11.18	-60.1	-71.4	4.1	8.88e-01	0	46	0	3145728	60	145035
2026-01-29 05:29:05.75	75.78	11.25	-59.8	-69.9	5.2	6.52e-01	0	46	0	2097152	60	121835
2026-01-29 05:29:06.76	75.67	11.33	-59.6	-68.2	6.7	2.98e-01	0	46	0	3145728	60	101025
2026-01-29 05:29:07.77	75.55	11.40	-59.6	-66.8	8.5	9.92e-02	0	46	0	5242880	60	85688
2026-01-29 05:29:08.77	75.43	11.47	-59.2	-65.5	10.0	1.10e-02	0	46	0	7340032	60	73990
2026-01-29 05:29:09.78	75.31	11.54	-59.0	-64.4	11.3	2.84e-03	0	46	0	9437184	60	65011
2026-01-29 05:29:10.79	75.20	11.62	-58.6	-63.4	12.5	3.98e-04	0	46	0	10485760	60	58215
2026-01-29 05:29:11.80	75.08	11.69	-58.0	-62.5	13.4	6.63e-05	0	46	0	12582912	60	52484
2026-01-29 05:29:12.80	74.96	11.76	-57.6	-61.8	14.0	2.20e-06	0	46	0	14680064	60	48429
2026-01-29 05:29:13.81	74.84	11.84	-57.6	-61.3	14.5	7.00e-07	0	46	0	16777216	60	45560
2026-01-29 05:29:14.82	74.71	11.91	-57.5	-60.8	15.2	0.00e+00	0	46	0	18874368	60	42995
2026-01-29 05:29:15.82	74.59	11.98	-57.5	-60.9	15.4	0.00e+00	0	46	0	19922944	60	43253
2026-01-29 05:29:16.83	74.47	12.06	-57.5	-60.8	15.3	0.00e+00	0	46	0	22020096	60	43025
2026-01-29 05:29:17.83	74.35	12.13	-57.4	-60.8	14.8	0.00e+00	0	46	0	24117248	60	42977
2026-01-29 05:29:18.84	74.22	12.20	-57.2	-60.3	15.4	0.00e+00	0	46	0	26214400	60	40648
2026-01-29 05:29:19.85	74.10	12.28	-57.1	-60.3	15.6	0.00e+00	0	46	0	28311552	60	40545
2026-01-29 05:29:20.85	73.98	12.35	-57.1	-60.3	15.5	0.00e+00	0	46	0	30408704	60	40678
2026-01-29 05:29:21.86	73.85	12.43	-57.1	-60.4	15.7	0.00e+00	0	46	0	31457280	60	41108
2026-01-29 05:29:22.87	73.72	12.50	-56.8	-60.0	15.7	0.00e+00	0	46	0	33554432	60	39396
2026-01-29 05:29:23.88	73.60	12.57	-56.9	-60.0	16.0	0.00e+00	0	46	0	35651584	60	39179
2026-01-29 05:29:24.88	73.47	12.65	-56.8	-60.2	15.6	0.00e+00	0	46	0	37748736	60	39977
2026-01-29 05:29:25.89	73.34	12.72	-56.7	-59.5	16.3	0.00e+00	0	46	0	38797312	60	37150
2026-01-29 05:29:26.89	73.21	12.80	-56.4	-59.2	16.5	0.00e+00	0	46	0	40894464	60	35703
2026-01-29 05:29:27.89	73.08	12.87	-56.1	-59.0	16.9	0.00e+00	0	46	0	42991616	60	35012
2026-01-29 05:29:28.90	72.95	12.94	-56.0	-59.0	17.0	0.00e+00	0	46	0	45088768	60	34907
2026-01-29 05:29:29.91	72.82	13.02	-56.2	-59.1	16.7	0.00e+00	0	46	0	47185920	60	35374
2026-01-29 05:29:30.91	72.69	13.09	-56.3	-58.8	17.2	0.00e+00	0	46	0	48234496	60	34029
2026-01-29 05:29:31.92	72.56	13.17	-56.3	-58.8	17.2	0.00e+00	0	46	0	50331648	60	34100
2026-01-29 05:29:32.93	72.43	13.24	-56.2	-58.6	17.4	0.00e+00	0	46	0	52428800	60	33335
2026-01-29 05:29:33.94	72.29	13.32	-56.1	-58.6	17.4	0.00e+00	0	46	0	54525952	60	33198
2026-01-29 05:29:34.94	72.16	13.39	-56.2	-58.7	17.4	0.00e+00	0	46	0	56623104	60	33925
2026-01-29 05:29:35.95	72.02	13.47	-56.0	-58.6	17.5	0.00e+00	0	46	0	58720256	60	33508
2026-01-29 05:29:36.95	71.89	13.54	-55.7	-58.5	17.4	0.00e+00	0	46	0	59768832	60	32934
2026-01-29 05:29:37.96	71.75	13.62	-55.6	-58.4	17.7	0.00e+00	0	46	0	61865984	60	32645
2026-01-29 05:29:38.97	71.61	13.69	-55.7	-58.4	17.8	0.00e+00	0	46	0	63963136	60	32437
2026-01-29 05:29:39.98	71.48	13.77	-55.7	-58.1	17.8	0.00e+00	0	46	0	66060288	60	31403
2026-01-29 05:29:40.99	71.34	13.84	-55.9	-58.2	18.0	0.00e+00	0	46	0	67108864	60	31672
2026-01-29 05:29:41.99	71.20	13.92	-55.9	-58.2	18.0	0.00e+00	0	46	0	69206016	60	31746
2026-01-29 05:29:43.00	71.06	14.00	-55.8	-58.0	18.2	0.00e+00	0	46	0	71303168	60	31215
2026-01-29 05:29:44.01	70.92	14.07	-55.8	-58.0	18.4	0.00e+00	0	46	0	73400320	60	30975
2026-01-29 05:29:45.02	70.78	14.15	-55.5	-57.6	18.6	0.00e+00	0	46	0	75497472	60	29778
2026-01-29 05:29:46.03	70.63	14.22	-55.6	-57.7	18.5	0.00e+00	0	46	0	76546048	60	30218
2026-01-29 05:29:47.03	70.49	14.30	-55.3	-57.3	18.9	0.00e+00	0	46	0	78643200	60	28872
2026-01-29 05:29:48.04	70.35	14.37	-55.4	-57.4	18.8	0.00e+00	0	46	0	80740352	60	28878
2026-01-29 05:29:49.05	70.20	14.45	-55.4	-57.2	19.1	0.00e+00	0	46	0	82837504	60	28404
2026-01-29 05:29:50.05	70.06	14.53	-55.4	-57.2	19.2	0.00e+00	0	46	0	84934656	60	28491
2026-01-29 05:29:51.06	69.91	14.60	-55.4	-57.2	19.2	0.00e+00	0	46	0	87031808	60	28334
2026-01-29 05:29:52.07	69.76	14.68	-55.2	-57.1	19.3	0.00e+00	0	46	0	88080384	60	28044
2026-01-29 05:29:53.08	69.62	14.75	-55.1	-57.0	19.4	0.00e+00	0	46	0	90177536	60	27776
2026-01-29 05:29:54.09	69.47	14.83	-55.1	-56.9	19.5	0.00e+00	0	46	0	92274688	60	27364
2026-01-29 05:29:55.09	69.32	14.91	-55.2	-56.9	19.5	0.00e+00	0	46	0	94371840	60	27497
2026-01-29 05:29:56.10	69.17	14.98	-55.1	-56.9	19.5	0.00e+00	0	46	0	95420416	60	27551
2026-01-29 05:29:57.11	69.02	15.06	-55.1	-57.0	19.4	0.00e+00	0	46	0	97517568	60	27657
2026-01-29 05:29:58.12	68.87	15.13	-55.2	-57.1	19.3	0.00e+00	0	46	0	99614720	60	28024
2026-01-29 05:29:59.12	68.72	15.21	-55.1	-57.0	19.2	0.00e+00	0	46	0	101711872	60	27656
2026-01-29 05:30:00.13	68.56	15.29	-55.2	-57.0	19.2	0.00e+00	0	46	0	103809024	60	27749
2026-01-29 05:30:01.14	68.41	15.36	-55.3	-57.1	19.1	0.00e+00	0	46	0	105906176	60	28201
2026-01-29 05:30:02.15	68.25	15.44	-55.1	-57.3	18.9	0.00e+00	0	46	0	106954752	60	28614
2026-01-29 05:30:03.15	68.10	15.52	-55.2	-57.5	18.8	0.00e+00	0	46	0	109051904	60	29352
2026-01-29 05:30:04.16	67.94	15.59	-55.4	-57.8	18.6	0.00e+00	0	46	0	111149056	60	30403
2026-01-29 05:30:05.17	67.79	15.67	-55.5	-57.8	18.5	0.00e+00	0	46	0	113246208	60	30501
2026-01-29 05:30:06.17	67.63	15.75	-55.4	-57.8	18.6	0.00e+00	0	46	0	115343360	60	30468
2026-01-29 05:30:07.18	67.47	15.82	-55.5	-58.0	18.3	0.00e+00	0	46	0	116391936	60	31089
2026-01-29 05:30:08.18	67.31	15.90	-55.7	-57.9	18.3	0.00e+00	0	46	0	118489088	60	30804
2026-01-29 05:30:09.19	67.15	15.97	-56.0	-58.1	18.3	0.00e+00	0	46	0	120586240	60	31340
2026-01-29 05:30:10.20	66.99	16.05	-56.2	-58.3	18.4	0.00e+00	0	46	0	122683392	60	32060
2026-01-29 05:30:11.21	66.83	16.13	-56.2	-58.4	18.1	0.00e+00	0	46	0	123731968	60	32476
2026-01-29 05:30:12.21	66.67	16.20	-56.1	-58.3	18.2	0.00e+00	0	46	0	125829120	60	32386
2026-01-29 05:30:13.22	66.50	16.28	-56.3	-58.6	18.0	0.00e+00	0	46	0	127926272	60	33458
2026-01-29 05:30:14.23	66.34	16.36	-56.7	-59.1	17.6	0.00e+00	0	46	0	130023424	60	35173
2026-01-29 05:30:15.24	66.17	16.43	-56.8	-59.2	17.5	0.00e+00	0	46	0	132120576	60	35788
2026-01-29 05:30:16.24	66.01	16.51	-56.7	-59.3	17.4	0.00e+00	0	46	0	134217728	60	36069
2026-01-29 05:30:17.25	65.84	16.59	-56.6	-59.4	17.3	0.00e+00	0	46	0	135266304	60	36767
2026-01-29 05:30:18.26	65.67	16.66	-56.6	-59.6	17.0	0.00e+00	0	46	0	137363456	60	37363
2026-01-29 05:30:19.27	65.50	16.74	-56.7	-59.6	17.1	0.00e+00	0	46	0	139460608	60	37370
2026-01-29 05:30:20.28	65.33	16.82	-56.8	-59.9	16.7	0.00e+00	0	46	0	141557760	60	38514
2026-01-29 05:30:21.28	65.16	16.89	-56.8	-60.1	16.4	0.00e+00	0	46	0	143654912	60	39739
2026-01-29 05:30:22.29	64.99	16.97	-56.9	-60.2	16.1	0.00e+00	0	46	0	144703488	60	40038
2026-01-29 05:30:23.30	64.82	17.05	-57.1	-60.5	15.5	0.00e+00	0	46	0	146800640	60	41562
2026-01-29 05:30:24.30	64.65	17.12	-57.3	-60.6	15.3	0.00e+00	0	46	0	148897792	60	42205
2026-01-29 05:30:25.31	64.47	17.20	-57.7	-61.1	15.5	0.00e+00	0	46	0	150994944	60	44271
2026-01-29 05:30:26.31	64.30	17.27	-58.0	-61.3	15.4	0.00e+00	0	46	0	152043520	60	45436
2026-01-29 05:30:27.31	64.12	17.35	-58.2	-61.8	14.7	0.00e+00	0	46	0	154140672	60	48064
2026-01-29 05:30:28.31	63.95	17.43	-58.3	-62.0	14.2	1.50e-06	0	46	0	156237824	60	49573
2026-01-29 05:30:29.32	63.77	17.50	-57.4	-62.4	13.3	3.00e-06	0	46	0	158334976	60	51502
2026-01-29 05:30:30.33	63.59	17.58	-55.2	-62.3	12.3	5.11e-05	0	46	0	160432128	60	51074
2026-01-29 05:30:31.33	63.41	17.65	-54.0	-62.7	12.0	2.10e-04	0	46	0	162529280	60	53505
2026-01-29 05:30:32.34	63.23	17.73	-54.1	-63.0	11.6	2.77e-04	0	46	0	163577856	60	55531
2026-01-29 05:30:33.35	63.05	17.81	-54.9	-63.5	11.7	4.87e-04	0	46	0	165675008	60	58821
2026-01-29 05:30:34.36	62.87	17.88	-56.2	-63.7	11.0	1.16e-03	0	46	0	167772160	60	60146
2026-01-29 05:30:35.36	62.69	17.96	-57.6	-63.6	11.8	1.04e-03	0	46	0	169869312	60	58989
2026-01-29 05:30:36.37	62.50	18.03	-59.1	-64.0	12.1	3.13e-04	0	46	0	171966464	60	61986
2026-01-29 05:30:37.38	62.32	18.11	-59.8	-64.9	12.2	2.95e-04	0	46	0	173015040	60	68528
2026-01-29 05:30:38.38	62.13	18.18	-59.8	-65.0	11.6	3.19e-04	0	46	0	175112192	60	69781
2026-01-29 05:30:39.39	61.94	18.26	-59.6	-64.8	11.3	8.32e-04	0	46	0	177209344	60	68395
2026-01-29 05:30:40.40	61.76	18.33	-59.5	-65.1	11.5	1.41e-03	0	46	0	179306496	60	70138
2026-01-29 05:30:41.41	61.57	18.41	-59.7	-65.6	10.7	1.65e-03	0	46	0	180355072	60	74807
2026-01-29 05:30:42.41	61.38	18.48	-59.9	-65.4	11.0	3.25e-03	0	46	0	182452224	60	72833
2026-01-29 05:30:43.42	61.19	18.56	-60.0	-65.4	11.0	2.69e-03	0	46	0	184549376	60	72876
2026-01-29 05:30:44.43	61.00	18.64	-60.1	-65.9	10.6	3.01e-03	0	46	0	186646528	60	77434
2026-01-29 05:30:45.44	60.80	18.71	-60.2	-66.0	10.5	5.69e-03	0	46	0	188743680	60	78222
2026-01-29 05:30:46.45	60.61	18.79	-60.3	-66.6	9.8	6.47e-03	0	46	0	190840832	60	83512
2026-01-29 05:30:47.46	60.41	18.86	-60.3	-66.7	9.8	8.44e-03	0	46	0	191889408	60	84469
2026-01-29 05:30:48.46	60.22	18.93	-60.1	-66.8	9.2	1.75e-02	0	46	0	193986560	60	85382
2026-01-29 05:30:49.47	60.02	19.01	-60.4	-66.9	9.2	2.94e-02	0	46	0	196083712	60	87058
2026-01-29 05:30:50.47	59.83	19.08	-59.7	-67.4	8.4	2.97e-02	0	46	0	198180864	60	91483
2026-01-29 05:30:51.48	59.63	19.16	-58.1	-67.3	7.9	5.29e-02	0	46	0	200278016	60	91169
2026-01-29 05:30:52.49	59.43	19.23	-57.0	-67.4	7.2	1.08e-01	0	46	0	201326592	60	92312
2026-01-29 05:30:53.50	59.23	19.31	-57.2	-67.6	6.7	1.79e-01	0	46	0	203423744	60	94472
2026-01-29 05:30:54.50	59.03	19.38	-57.9	-67.9	6.8	1.63e-01	0	46	0	205520896	60	96946
2026-01-29 05:30:55.51	58.82	19.45	-57.3	-68.0	6.7	1.81e-01	0	46	0	207618048	60	98559
2026-01-29 05:30:56.51	58.62	19.52	-56.0	-67.9	6.1	2.40e-01	0	46	0	208666624	60	97418
2026-01-29 05:30:57.51	58.42	19.60	-55.9	-68.0	5.9	2.96e-01	0	46	0	210763776	60	98629
2026-01-29 05:30:58.51	58.22	19.67	-56.6	-68.2	6.2	3.08e-01	0	46	0	212860928	60	100829
2026-01-29 05:30:59.52	58.01	19.74	-57.6	-68.7	5.6	3.50e-01	0	46	0	214958080	60	107005
2026-01-29 05:31:00.53	57.80	19.82	-58.3	-68.9	5.9	4.72e-01	0	46	0	217055232	60	109426
2026-01-29 05:31:01.53	57.60	19.89	-58.6	-69.4	5.2	4.04e-01	0	46	0	219152384	60	116214
2026-01-29 05:31:02.54	57.39	19.96	-59.2	-69.8	5.4	4.73e-01	0	46	0	220200960	60	121143
2026-01-29 05:31:03.55	57.18	20.03	-59.9	-70.2	5.3	5.55e-01	0	46	0	222298112	60	126255
2026-01-29 05:31:04.55	56.97	20.10	-60.2	-70.0	5.4	5.05e-01	0	46	0	224395264	60	124396
2026-01-29 05:31:05.56	56.75	20.18	-59.7	-70.4	4.8	5.21e-01	0	46	0	226492416	60	129427
2026-01-29 05:31:06.56	56.54	20.25	-59.2	-70.5	5.0	6.30e-01	0	46	0	228589568	60	131210
2026-01-29 05:31:07.57	56.33	20.32	-59.2	-70.9	4.6	6.78e-01	0	46	0	229638144	60	137517
2026-01-29 05:31:08.58	56.11	20.39	-59.6	-70.6	4.8	6.75e-01	0	46	0	231735296	60	132543
2026-01-29 05:31:09.59	55.89	20.46	-59.9	-70.9	4.7	6.46e-01	0	46	0	233832448	60	136836
2026-01-29 05:31:10.59	55.68	20.53	-60.0	-71.1	4.9	6.20e-01	0	46	0	235929600	60	140203
2026-01-29 05:31:11.60	55.46	20.60	-59.6	-71.0	4.7	6.75e-01	0	46	0	236978176	60	139126
2026-01-29 05:31:12.61	55.24	20.67	-59.6	-71.5	4.5	7.28e-01	0	46	0	239075328	60	146726
2026-01-29 05:31:13.60	55.02	20.74	-60.0	-71.3	4.6	7.80e-01	0	46	0	241172480	60	143780
2026-01-29 05:31:14.61	54.80	20.81	-60.4	-71.2	4.5	7.61e-01	0	46	0	243269632	60	141973
2026-01-29 05:31:15.62	54.58	20.88	-59.4	-71.0	4.5	8.31e-01	0	46	0	245366784	60	139423
2026-01-29 05:31:16.62	54.36	20.95	-58.0	-70.7	4.4	8.24e-01	0	46	0	246415360	60	134226
2026-01-29 05:31:17.62	54.14	21.02	-58.0	-70.6	4.6	7.95e-01	0	46	0	248512512	60	133300
2026-01-29 05:31:18.63	53.91	21.08	-58.7	-70.7	4.6	7.29e-01	0	46	0	250609664	60	133702
2026-01-29 05:31:19.63	53.69	21.15	-59.0	-70.9	4.4	8.16e-01	0	46	0	252706816	60	137422
2026-01-29 05:31:20.64	53.46	21.22	-59.2	-70.9	4.4	8.11e-01	0	46	0	254803968	60	137237
2026-01-29 05:31:21.65	53.23	21.29	-58.8	-70.9	4.4	8.69e-01	0	46	0	256901120	60	137272
2026-01-29 05:31:22.66	53.00	21.36	-58.5	-71.0	4.3	8.74e-01	0	46	0	257949696	60	139391
2026-01-29 05:31:23.66	52.77	21.42	-58.1	-70.9	4.3	9.23e-01	0	46	0	260046848	60	138048
2026-01-29 05:31:24.67	52.54	21.49	-58.0	-70.9	4.2	9.61e-01	0	46	0	262144000	60	137516
2026-01-29 05:31:25.67	52.31	21.56	-57.8	-71.0	4.1	1.14e+00	0	46	0	264241152	60	139102
2026-01-29 05:31:26.67	52.08	21.62	-57.7	-71.1	4.0	1.20e+00	0	46	0	265289728	60	141235
2026-01-29 05:31:27.67	51.84	21.69	-57.3	-70.9	4.0	1.23e+00	0	46	0	267386880	60	137400
2026-01-29 05:31:28.67	51.61	21.75	-56.5	-71.0	3.9	1.33e+00	0	46	0	269484032	60	139595
2026-01-29 05:31:29.68	51.37	21.82	-55.9	-71.0	3.9	1.36e+00	0	46	0	269484032	60	139063
2026-01-29 05:31:30.68	51.14	21.88	-55.5	-71.0	3.8	1.39e+00	0	46	0	270532608	60	139359
2026-01-29 05:31:31.69	50.90	21.94	-55.2	-71.2	3.8	1.44e+00	0	46	0	270532608	60	141702
2026-01-29 05:31:32.70	50.66	22.01	-55.2	-72.5	4.0	1.43e+00	0	46	104	270532608	60	165278
2026-01-29 05:31:33.70	50.42	22.07	-55.2	-72.7	3.9	1.48e+00	0	46	104	270532608	60	168680
2026-01-29 05:31:34.71	50.18	22.13	-55.2	-71.5	3.6	1.44e+00	0	46	0	270532608	60	146676
2026-01-29 05:31:35.72	49.94	22.20	-55.5	-72.8	3.8	1.48e+00	0	46	104	270532608	60	170700
2026-01-29 05:31:36.72	49.70	22.26	-55.8	-72.8	3.7	1.47e+00	0	46	104	270532608	60	171481
2026-01-29 05:31:37.73	49.45	22.32	-56.5	-72.0	3.7	1.46e+00	0	46	0	270532608	60	156790
2026-01-29 05:31:38.74	49.20	22.38	-56.8	-73.0	3.9	1.43e+00	0	46	104	270532608	60	174272
2026-01-29 05:31:39.75	48.96	22.44	-57.3	-73.1	3.9	1.47e+00	0	46	104	270532608	60	176726
2026-01-29 05:31:40.75	48.71	22.50	-57.2	-73.3	3.9	1.44e+00	0	46	104	270532608	60	180762
2026-01-29 05:31:41.76	48.46	22.57	-57.3	-73.4	3.7	1.45e+00	0	46	104	270532608	60	183347
2026-01-29 05:31:42.77	48.21	22.63	-57.4	-73.1	3.8	1.45e+00	0	46	104	270532608	60	176624
2026-01-29 05:31:43.77	47.97	22.68	-57.2	-73.2	4.0	1.47e+00	0	46	104	270532608	60	178207
2026-01-29 05:31:44.77	47.72	22.74	-56.7	-73.1	3.7	1.43e+00	0	46	104	270532608	60	176053
2026-01-29 05:31:45.77	47.47	22.80	-57.0	-72.5	3.8	1.43e+00	0	46	0	270532608	60	165898
2026-01-29 05:31:46.77	47.22	22.86	-57.7	-72.1	3.8	1.41e+00	0	46	0	270532608	60	157460
2026-01-29 05:31:47.77	46.96	22.92	-58.0	-72.2	3.7	1.42e+00	0	46	0	270532608	60	159437
2026-01-29 05:31:48.78	46.71	22.97	-57.9	-73.4	4.0	1.44e+00	0	46	104	270532608	60	183715
2026-01-29 05:31:49.79	46.45	23.03	-58.4	-72.3	3.9	1.39e+00	0	46	0	270532608	60	161019
2026-01-29 05:31:50.79	46.20	23.08	-58.7	-72.3	3.8	1.38e+00	0	46	0	270532608	60	162140
2026-01-29 05:31:51.80	45.94	23.14	-58.8	-73.7	4.0	1.48e+00	0	46	104	270532608	60	189786
2026-01-29 05:31:52.81	45.68	23.20	-59.1	-72.5	3.7	1.43e+00	0	46	0	270532608	60	164352
2026-01-29 05:31:53.81	45.42	23.25	-59.3	-73.9	3.9	1.45e+00	0	46	104	270532608	60	193065
2026-01-29 05:31:54.82	45.16	23.30	-59.4	-73.7	3.9	1.49e+00	0	46	104	270532608	60	189367
2026-01-29 05:31:55.83	44.90	23.36	-59.4	-73.8	3.7	1.45e+00	0	46	104	270532608	60	191966
2026-01-29 05:31:56.83	44.64	23.41	-59.4	-73.3	3.6	1.46e+00	0	46	104	270532608	60	181972
2026-01-29 05:31:57.83	44.38	23.46	-59.5	-73.7	3.7	1.47e+00	0	46	0	270532608	60	190485
2026-01-29 05:31:58.84	44.12	23.51	-59.4	-73.9	3.9	1.47e+00	0	46	104	270532608	60	193939
2026-01-29 05:31:59.85	43.85	23.57	-59.2	-73.8	3.7	1.46e+00	0	46	104	270532608	60	192099
2026-01-29 05:32:00.85	43.59	23.62	-58.6	-73.2	3.7	1.45e+00	0	46	0	270532608	60	178252
2026-01-29 05:32:01.86	43.32	23.67	-58.7	-74.0	3.8	1.48e+00	0	46	104	270532608	60	195973
2026-01-29 05:32:02.87	43.05	23.72	-58.3	-73.8	3.8	1.49e+00	0	46	104	270532608	60	191562
2026-01-29 05:32:03.88	42.78	23.76	-57.8	-73.6	3.7	1.49e+00	0	46	104	270532608	60	188156
2026-01-29 05:32:04.88	42.52	23.81	-57.1	-73.5	3.7	1.49e+00	0	46	104	270532608	60	186127
2026-01-29 05:32:05.88	42.25	23.86	-56.6	-73.8	3.6	1.50e+00	0	46	104	270532608	60	190851
2026-01-29 05:32:06.89	41.98	23.91	-56.2	-73.5	3.6	1.51e+00	0	46	104	270532608	60	185130
2026-01-29 05:32:07.90	41.71	23.95	-55.6	-73.4	3.6	1.51e+00	0	46	104	270532608	60	183402
2026-01-29 05:32:08.91	41.43	24.00	-58.3	-75.5	3.6	1.51e+00	0	46	104	270532608	60	233775
2026-01-29 05:32:09.91	41.16	24.05	-55.8	-75.2	3.6	1.51e+00	0	46	104	270532608	60	225337
2026-01-29 05:32:10.92	40.89	24.09	-54.8	-74.9	3.6	1.51e+00	0	46	104	270532608	60	217056
2026-01-29 05:32:11.93	40.61	24.13	-54.8	-75.8	3.6	1.51e+00	0	46	104	270532608	60	241844
2026-01-29 05:32:12.94	40.34	24.18	-54.8	-75.5	3.6	1.51e+00	0	46	104	270532608	60	233293
2026-01-29 05:32:13.95	40.06	24.22	-55.0	-75.1	3.6	1.51e+00	0	46	104	270532608	60	223639
2026-01-29 05:32:14.96	39.78	24.26	-55.1	-75.1	3.6	1.51e+00	0	46	104	270532608	60	223723
2026-01-29 05:32:15.97	39.50	24.30	-56.7	-75.8	3.6	1.51e+00	0	46	104	270532608	60	242835
2026-01-29 05:32:16.97	39.23	24.35	-57.7	-75.7	3.6	1.51e+00	0	46	104	270532608	60	239281
2026-01-29 05:32:17.98	38.95	24.39	-55.0	-74.9	3.6	1.51e+00	0	46	104	270532608	60	218874
2026-01-29 05:32:18.99	38.67	24.43	-57.6	-76.7	3.6	1.51e+00	0	46	104	270532608	60	266763
2026-01-29 05:32:20.00	38.39	24.46	-55.6	-75.2	3.6	1.51e+00	0	46	104	270532608	60	225162
2026-01-29 05:32:21.00	38.11	24.50	-56.1	-76.0	3.6	1.51e+00	0	46	104	270532608	60	248449
2026-01-29 05:32:22.01	37.83	24.54	-54.8	-74.9	3.6	1.51e+00	0	46	104	270532608	60	217269
2026-01-29 05:32:23.02	37.54	24.58	-54.5	-75.0	3.6	1.51e+00	0	46	104	270532608	60	219873
2026-01-29 05:32:24.02	37.26	24.61	-56.6	-77.5	3.6	1.51e+00	0	46	104	270532608	60	294551
2026-01-29 05:32:25.03	36.98	24.65	-57.7	-76.3	3.6	1.51e+00	0	46	104	270532608	60	256463
2026-01-29 05:32:26.03	36.69	24.68	-52.4	-75.1	3.6	1.51e+00	0	46	104	270532608	60	221638
2026-01-29 05:32:27.04	36.41	24.72	-56.4	-75.5	3.6	1.51e+00	0	46	104	270532608	60	233361
2026-01-29 05:32:28.04	36.13	24.75	-52.1	-73.7	3.6	1.51e+00	0	46	104	270532608	60	190037
2026-01-29 05:32:29.05	35.84	24.78	-52.1	-73.8	3.6	1.51e+00	0	46	104	270532608	60	190884
2026-01-29 05:32:30.06	35.55	24.81	-52.9	-74.8	3.6	1.51e+00	0	46	104	270532608	60	215929
2026-01-29 05:32:31.07	35.26	24.84	-53.9	-74.9	3.6	1.51e+00	0	46	104	270532608	60	217683
2026-01-29 05:32:32.08	34.97	24.87	-57.3	-75.8	3.6	1.51e+00	0	46	104	270532608	60	242158
2026-01-29 05:32:33.08	34.69	24.90	-60.1	-77.4	3.6	1.51e+00	0	46	104	270532608	60	289061
2026-01-29 05:32:34.08	34.40	24.93	-57.8	-76.1	3.6	1.51e+00	0	46	104	270532608	60	250104
2026-01-29 05:32:35.09	34.11	24.96	-57.0	-76.0	3.6	1.51e+00	0	46	104	270532608	60	246443
2026-01-29 05:32:36.09	33.82	24.99	-56.2	-75.4	3.6	1.51e+00	0	46	104	270532608	60	230119
2026-01-29 05:32:37.10	33.53	25.01	-56.2	-75.2	3.6	1.51e+00	0	46	104	270532608	60	226263
2026-01-29 05:32:38.10	33.24	25.04	-55.9	-75.8	3.6	1.51e+00	0	46	104	270532608	60	241557
2026-01-29 05:32:39.11	32.95	25.06	-56.0	-76.1	3.6	1.51e+00	0	46	104	270532608	60	249046
2026-01-29 05:32:40.11	32.66	25.09	-58.9	-76.5	3.6	1.51e+00	0	46	104	270532608	60	263350
2026-01-29 05:32:41.12	32.37	25.11	-60.6	-76.6	3.6	1.51e+00	0	46	104	270532608	60	265958
2026-01-29 05:32:42.13	32.08	25.13	-60.9	-77.5	3.6	1.51e+00	0	46	104	270532608	60	293274
2026-01-29 05:32:43.14	31.78	25.15	-60.3	-77.2	3.6	1.51e+00	0	46	104	270532608	60	284391
2026-01-29 05:32:44.14	31.49	25.17	-58.9	-77.0	3.6	1.51e+00	0	46	104	270532608	60	276880
2026-01-29 05:32:45.15	31.20	25.19	-57.4	-76.6	3.6	1.51e+00	0	46	104	270532608	60	264187
2026-01-29 05:32:46.16	30.90	25.21	-56.6	-76.5	3.6	1.51e+00	0	46	104	270532608	60	261156
2026-01-29 05:32:47.16	30.61	25.23	-56.5	-76.4	3.6	1.51e+00	0	46	104	270532608	60	257970
2026-01-29 05:32:48.17	30.31	25.25	-57.9	-74.3	3.8	1.46e+00	0	46	104	270532608	60	202237
2026-01-29 05:32:49.18	30.02	25.26	-56.8	-76.3	3.6	1.51e+00	0	46	104	270532608	60	256633
2026-01-29 05:32:50.19	29.72	25.28	-60.1	-76.1	3.6	1.51e+00	0	46	104	270532608	60	250450
2026-01-29 05:32:51.20	29.42	25.30	-61.2	-77.7	3.6	1.51e+00	0	46	104	270532608	60	301339
2026-01-29 05:32:52.20	29.13	25.31	-56.4	-75.6	3.5	1.51e+00	0	46	104	270532608	60	236165
2026-01-29 05:32:53.21	28.83	25.32	-56.1	-75.4	3.6	1.51e+00	0	46	104	270532608	60	231001
2026-01-29 05:32:54.22	28.54	25.34	-57.3	-75.6	3.6	1.51e+00	0	46	104	270532608	60	237268
2026-01-29 05:32:55.22	28.24	25.35	-58.4	-75.9	3.6	1.51e+00	0	46	104	270532608	60	244066
2026-01-29 05:32:56.22	27.95	25.36	-58.4	-76.7	3.6	1.51e+00	0	46	104	270532608	60	268800
2026-01-29 05:32:57.22	27.65	25.37	-55.5	-75.8	3.5	1.51e+00	0	46	104	270532608	60	242833
2026-01-29 05:32:58.23	27.35	25.38	-60.2	-76.9	3.6	1.51e+00	0	46	104	270532608	60	272644
2026-01-29 05:32:59.23	27.06	25.38	-59.0	-77.0	3.6	1.51e+00	0	46	104	270532608	60	278910
2026-01-29 05:33:00.24	26.76	25.39	-59.7	-77.4	3.6	1.51e+00	0	46	104	270532608	60	291250
2026-01-29 05:33:01.25	26.46	25.40	-59.2	-77.1	3.6	1.51e+00	0	46	104	270532608	60	281363
2026-01-29 05:33:02.26	26.16	25.40	-58.6	-76.8	3.6	1.51e+00	0	46	104	270532608	60	271540
2026-01-29 05:33:03.26	25.87	25.41	-57.6	-76.9	3.6	1.51e+00	0	46	104	270532608	60	273144
2026-01-29 05:33:04.27	25.57	25.41	-55.8	-76.8	3.6	1.51e+00	0	46	104	270532608	60	272246
2026-01-29 05:33:05.28	25.27	25.42	-58.2	-76.6	3.6	1.51e+00	0	46	104	270532608	60	266188
2026-01-29 05:33:06.28	24.97	25.42	-56.1	-77.0	3.6	1.51e+00	0	46	104	270532608	60	275842
2026-01-29 05:33:07.29	24.67	25.42	-54.8	-75.3	3.6	1.51e+00	0	46	104	270532608	60	227477
2026-01-29 05:33:08.29	24.38	25.42	-55.6	-76.0	3.6	1.51e+00	0	46	104	270532608	60	246657
2026-01-29 05:33:09.30	24.08	25.42	-57.9	-76.0	3.6	1.51e+00	0	46	104	270532608	60	245948
2026-01-29 05:33:10.31	23.78	25.42	-59.6	-76.5	3.6	1.51e+00	0	46	104	270532608	60	260810
2026-01-29 05:33:11.32	23.48	25.42	-61.1	-76.6	3.6	1.51e+00	0	46	104	270532608	60	265211
2026-01-29 05:33:12.33	23.18	25.42	-58.8	-76.2	3.6	1.51e+00	0	46	104	270532608	60	253127
2026-01-29 05:33:13.33	22.89	25.41	-58.0	-76.8	3.6	1.51e+00	0	46	104	270532608	60	269985
2026-01-29 05:33:14.34	22.59	25.41	-60.8	-76.7	3.6	1.51e+00	0	46	104	270532608	60	268370
2026-01-29 05:33:15.35	22.29	25.40	-54.2	-74.6	3.6	1.51e+00	0	46	104	270532608	60	210412
2026-01-29 05:33:16.36	21.99	25.40	-55.2	-75.5	3.6	1.51e+00	0	46	104	270532608	60	233309
2026-01-29 05:33:17.37	21.69	25.39	-53.4	-74.4	3.6	1.51e+00	0	46	104	270532608	60	205300
2026-01-29 05:33:18.37	21.40	25.38	-52.9	-74.1	3.6	1.51e+00	0	46	104	270532608	60	197924
2026-01-29 05:33:19.38	21.10	25.37	-54.3	-75.4	3.6	1.51e+00	0	46	104	270532608	60	229931
2026-01-29 05:33:20.39	20.80	25.36	-58.0	-73.8	3.9	1.01e+00	0	46	104	270532608	60	192630
2026-01-29 05:33:21.39	20.51	25.35	-60.5	-76.6	3.6	1.51e+00	0	46	104	270532608	60	264164
2026-01-29 05:33:22.40	20.21	25.34	-53.6	-74.9	3.5	1.51e+00	0	46	104	270532608	60	217236
2026-01-29 05:33:23.41	19.91	25.33	-56.8	-75.3	3.6	1.51e+00	0	46	104	270532608	60	227326
2026-01-29 05:33:24.41	19.62	25.32	-53.0	-74.5	3.6	1.51e+00	0	46	104	270532608	60	207274
2026-01-29 05:33:25.42	19.32	25.30	-54.0	-74.8	3.6	1.51e+00	0	46	104	270532608	60	215461
2026-01-29 05:33:26.41	19.03	25.29	-55.2	-74.9	3.6	1.51e+00	0	46	104	270532608	60	218139
2026-01-29 05:33:27.41	18.74	25.27	-56.0	-75.5	3.6	1.51e+00	0	46	104	270532608	60	232637
2026-01-29 05:33:28.41	18.44	25.26	-60.4	-76.9	3.6	1.51e+00	0	46	104	270532608	60	273180
2026-01-29 05:33:29.42	18.15	25.24	-58.7	-76.7	3.5	1.51e+00	0	46	104	270532608	60	267544
2026-01-29 05:33:30.43	17.85	25.22	-59.3	-76.9	3.6	1.51e+00	0	46	104	270532608	60	275649
2026-01-29 05:33:31.44	17.56	25.20	-60.8	-77.4	3.6	1.51e+00	0	46	104	270532608	60	291782
2026-01-29 05:33:32.45	17.26	25.18	-60.3	-76.5	3.6	1.51e+00	0	46	104	270532608	60	261380
2026-01-29 05:33:33.45	16.97	25.16	-59.1	-76.2	3.6	1.51e+00	0	46	104	270532608	60	251985
2026-01-29 05:33:34.46	16.68	25.14	-58.8	-76.3	3.6	1.51e+00	0	46	104	270532608	60	256158
2026-01-29 05:33:35.47	16.38	25.12	-59.4	-76.0	3.6	1.51e+00	0	46	104	270532608	60	246916
2026-01-29 05:33:36.47	16.09	25.10	-58.6	-76.8	3.6	1.51e+00	0	46	104	270532608	60	271345
2026-01-29 05:33:37.48	15.80	25.08	-60.8	-76.9	3.6	1.51e+00	0	46	104	270532608	60	275062
2026-01-29 05:33:38.49	15.51	25.05	-59.8	-76.7	3.6	1.51e+00	0	46	104	270532608	60	269291
2026-01-29 05:33:39.49	15.22	25.03	-59.7	-76.7	3.6	1.51e+00	0	46	104	270532608	60	266640
2026-01-29 05:33:40.50	14.93	25.00	-60.9	-77.3	3.6	1.51e+00	0	46	104	270532608	60	288582
2026-01-29 05:33:41.51	14.64	24.97	-59.8	-77.0	3.6	1.51e+00	0	46	104	270532608	60	276430
2026-01-29 05:33:42.52	14.35	24.95	-60.1	-77.2	3.6	1.51e+00	0	46	104	270532608	60	283289
2026-01-29 05:33:43.52	14.06	24.92	-60.1	-76.9	3.6	1.51e+00	0	46	104	270532608	60	275350
2026-01-29 05:33:44.53	13.77	24.89	-60.3	-76.8	3.6	1.51e+00	0	46	104	270532608	60	272162
2026-01-29 05:33:45.54	13.48	24.86	-60.1	-77.4	3.6	1.51e+00	0	46	104	270532608	60	288839
2026-01-29 05:33:46.54	13.20	24.83	-60.2	-77.6	3.6	1.51e+00	0	46	104	270532608	60	297810
2026-01-29 05:33:47.55	12.91	24.80	-60.8	-77.4	3.6	1.51e+00	0	46	104	270532608	60	289018
2026-01-29 05:33:48.55	12.62	24.77	-59.9	-76.5	3.5	1.51e+00	0	46	104	270532608	60	261784
2026-01-29 05:33:49.56	12.34	24.73	-60.2	-76.9	3.6	1.51e+00	0	46	104	270532608	60	272922
2026-01-29 05:33:50.56	12.06	24.70	-60.1	-76.6	3.6	1.51e+00	0	46	104	270532608	60	263578
2026-01-29 05:33:51.57	11.77	24.67	-59.3	-75.5	3.6	1.51e+00	0	46	104	270532608	60	233707
2026-01-29 05:33:52.57	11.49	24.63	-58.5	-75.9	3.6	1.51e+00	0	46	104	270532608	60	244831
2026-01-29 05:33:53.58	11.20	24.60	-57.9	-76.6	3.5	1.51e+00	0	46	104	270532608	60	265027
2026-01-29 05:33:54.59	10.92	24.56	-57.9	-76.1	3.6	1.51e+00	0	46	104	270532608	60	249424
2026-01-29 05:33:55.59	10.64	24.52	-58.0	-76.4	3.6	1.51e+00	0	46	104	270532608	60	258364
2026-01-29 05:33:56.60	10.36	24.49	-59.4	-76.0	3.6	1.51e+00	0	46	104	270532608	60	246061
2026-01-29 05:33:57.59	10.08	24.45	-58.7	-76.0	3.6	1.51e+00	0	46	104	270532608	60	248028
2026-01-29 05:33:58.60	9.80	24.41	-57.9	-76.5	3.6	1.51e+00	0	46	104	270532608	60	263308
2026-01-29 05:33:59.60	9.53	24.37	-58.0	-76.9	3.6	1.51e+00	0	46	104	270532608	60	273862
2026-01-29 05:34:00.61	9.25	24.33	-55.9	-76.8	3.6	1.51e+00	0	46	104	270532608	60	269955
2026-01-29 05:34:01.61	8.97	24.29	-58.2	-77.0	3.5	1.51e+00	0	46	104	270532608	60	275843
2026-01-29 05:34:02.62	8.69	24.25	-57.9	-77.2	3.6	1.51e+00	0	46	104	270532608	60	282268
2026-01-29 05:34:03.63	8.42	24.20	-58.2	-77.2	3.6	1.51e+00	0	46	104	270532608	60	284087
2026-01-29 05:34:04.63	8.14	24.16	-57.6	-76.9	3.6	1.51e+00	0	46	104	270532608	60	272628
2026-01-29 05:34:05.64	7.87	24.12	-60.6	-76.6	3.6	1.51e+00	0	46	104	270532608	60	265147
2026-01-29 05:34:06.65	7.59	24.07	-60.1	-76.5	3.6	1.51e+00	0	46	104	270532608	60	261814
2026-01-29 05:34:07.65	7.32	24.03	-59.5	-76.2	3.6	1.51e+00	0	46	104	270532608	60	253493
2026-01-29 05:34:08.66	7.05	23.98	-57.2	-76.2	3.6	1.51e+00	0	46	104	270532608	60	253432
2026-01-29 05:34:09.66	6.78	23.94	-57.0	-76.1	3.6	1.51e+00	0	46	104	270532608	60	249838
2026-01-29 05:34:10.67	6.51	23.89	-59.1	-76.6	3.6	1.51e+00	0	46	104	270532608	60	265357
2026-01-29 05:34:11.68	6.24	23.84	-57.0	-76.2	3.6	1.51e+00	0	46	104	270532608	60	252978
2026-01-29 05:34:12.68	5.97	23.80	-56.7	-75.8	3.6	1.51e+00	0	46	104	270532608	60	241713
2026-01-29 05:34:13.68	5.71	23.75	-56.4	-75.9	3.6	1.51e+00	0	46	104	270532608	60	243858
2026-01-29 05:34:14.68	5.44	23.70	-57.3	-76.3	3.6	1.51e+00	0	46	104	270532608	60	254837
2026-01-29 05:34:15.69	5.17	23.65	-60.1	-77.1	3.6	1.51e+00	0	46	104	270532608	60	282093
2026-01-29 05:34:16.69	4.91	23.60	-60.5	-77.3	3.6	1.51e+00	0	46	104	270532608	60	287157
2026-01-29 05:34:17.70	4.64	23.55	-61.0	-77.4	3.6	1.51e+00	0	46	104	270532608	60	291389
2026-01-29 05:34:18.71	4.38	23.50	-60.6	-77.4	3.6	1.51e+00	0	46	104	270532608	60	288850
2026-01-29 05:34:19.72	4.12	23.44	-60.9	-77.3	3.6	1.51e+00	0	46	104	270532608	60	288344
2026-01-29 05:34:20.73	3.85	23.39	-60.3	-77.3	3.6	1.51e+00	0	46	104	270532608	60	288689
2026-01-29 05:34:21.73	3.59	23.34	-61.0	-77.4	3.6	1.51e+00	0	46	104	270532608	60	291626
2026-01-29 05:34:22.74	3.33	23.28	-61.0	-77.2	3.5	1.51e+00	0	46	104	270532608	60	282334
2026-01-29 05:34:23.75	3.07	23.23	-60.9	-77.4	3.6	1.51e+00	0	46	104	270532608	60	289777
2026-01-29 05:34:24.76	2.81	23.18	-60.6	-77.3	3.6	1.51e+00	0	46	104	270532608	60	287297
2026-01-29 05:34:25.77	2.56	23.12	-61.1	-77.5	3.6	1.51e+00	0	46	104	270532608	60	293291
2026-01-29 05:34:26.77	2.30	23.06	-60.6	-77.3	3.6	1.51e+00	0	46	104	270532608	60	285490
2026-01-29 05:34:27.78	2.04	23.01	-61.1	-77.5	3.6	1.51e+00	0	46	104	270532608	60	293348
2026-01-29 05:34:28.78	1.79	22.95	-60.6	-77.2	3.6	1.51e+00	0	46	104	270532608	60	284716
2026-01-29 05:34:29.79	1.54	22.89	-60.3	-77.4	3.6	1.51e+00	0	46	104	270532608	60	290419
2026-01-29 05:34:30.80	1.28	22.84	-59.9	-77.1	3.6	1.51e+00	0	46	104	270532608	60	279902
2026-01-29 05:34:31.81	1.03	22.78	-60.4	-77.4	3.6	1.51e+00	0	46	104	270532608	60	290945
2026-01-29 05:34:32.81	0.78	22.72	-60.6	-77.3	3.6	1.51e+00	0	46	104	270532608	60	286850
2026-01-29 05:34:33.82	0.53	22.66	-59.7	-77.1	3.6	1.51e+00	0	46	104	270532608	60	281892
2026-01-29 05:34:34.82	0.28	22.60	-59.5	-76.7	3.6	1.51e+00	0	46	104	270532608	60	269353
2026-01-29 05:34:35.83	0.03	22.54	-60.4	-77.4	3.6	1.51e+00	0	46	104	270532608	60	288937
2026-01-29 05:34:36.83	359.79	22.48	-61.0	-77.5	3.6	1.51e+00	0	46	104	270532608	60	294946
2026-01-29 05:34:37.84	359.54	22.42	-59.0	-76.6	3.6	1.51e+00	0	46	104	270532608	60	266155
2026-01-29 05:34:38.85	359.30	22.36	-59.3	-76.4	3.6	1.51e+00	0	46	104	270532608	60	260279
2026-01-29 05:34:39.85	359.05	22.30	-58.9	-76.6	3.6	1.51e+00	0	46	104	270532608	60	265639
2026-01-29 05:34:40.86	358.81	22.24	-59.0	-76.5	3.6	1.51e+00	0	46	104	270532608	60	260433
2026-01-29 05:34:41.87	358.57	22.17	-59.3	-76.9	3.6	1.51e+00	0	46	104	270532608	60	273118
2026-01-29 05:34:42.87	358.33	22.11	-59.3	-76.9	3.6	1.51e+00	0	46	104	270532608	60	274245
2026-01-29 05:34:43.88	358.09	22.05	-60.3	-76.4	3.6	1.51e+00	0	46	104	270532608	60	259294
2026-01-29 05:34:44.89	357.85	21.99	-60.9	-77.2	3.6	1.51e+00	0	46	104	270532608	60	285410
2026-01-29 05:34:45.90	357.61	21.92	-59.8	-76.8	3.6	1.51e+00	0	46	104	270532608	60	272179
2026-01-29 05:34:46.91	357.37	21.86	-60.6	-76.9	3.6	1.51e+00	0	46	104	270532608	60	274204
2026-01-29 05:34:47.91	357.14	21.79	-59.9	-76.9	3.6	1.51e+00	0	46	104	270532608	60	273490
2026-01-29 05:34:48.92	356.90	21.73	-60.1	-76.9	3.6	1.51e+00	0	46	104	270532608	60	273072
2026-01-29 05:34:49.93	356.66	21.66	-60.8	-77.2	3.6	1.51e+00	0	46	104	270532608	60	283529
2026-01-29 05:34:50.94	356.43	21.60	-60.5	-77.1	3.6	1.51e+00	0	46	104	270532608	60	279878
2026-01-29 05:34:51.95	356.20	21.53	-60.5	-76.4	3.6	1.51e+00	0	46	104	270532608	60	258158
2026-01-29 05:34:52.95	355.97	21.46	-60.0	-77.5	3.6	1.51e+00	0	46	104	270532608	60	293480
2026-01-29 05:34:53.96	355.74	21.40	-60.6	-77.3	3.6	1.51e+00	0	46	104	270532608	60	287495
2026-01-29 05:34:54.96	355.51	21.33	-59.4	-77.3	3.6	1.51e+00	0	46	104	270532608	60	287249
2026-01-29 05:34:55.97	355.28	21.26	-60.5	-77.0	3.5	1.51e+00	0	46	104	270532608	60	278950
2026-01-29 05:34:56.98	355.05	21.20	-60.3	-77.5	3.6	1.51e+00	0	46	104	270532608	60	294937
2026-01-29 05:34:57.99	354.83	21.13	-60.0	-77.4	3.6	1.51e+00	0	46	104	270532608	60	290690
2026-01-29 05:34:58.99	354.60	21.06	-59.2	-77.3	3.6	1.51e+00	0	46	104	270532608	60	286314
2026-01-29 05:35:00.00	354.38	20.99	-60.7	-77.1	3.6	1.51e+00	0	46	104	270532608	60	279056
2026-01-29 05:35:01.01	354.15	20.92	-60.4	-77.4	3.6	1.51e+00	0	46	104	270532608	60	291763
2026-01-29 05:35:02.02	353.93	20.85	-60.0	-77.4	3.6	1.51e+00	0	46	104	270532608	60	291930
2026-01-29 05:35:03.03	353.71	20.78	-60.3	-77.4	3.6	1.51e+00	0	46	104	270532608	60	288829
2026-01-29 05:35:04.04	353.49	20.71	-60.7	-77.1	3.6	1.51e+00	0	46	104	270532608	60	282033
2026-01-29 05:35:05.04	353.27	20.64	-60.7	-77.5	3.6	1.51e+00	0	47	104	270532608	60	292332
2026-01-29 05:35:06.05	353.05	20.57	-60.2	-77.4	3.6	1.51e+00	0	46	104	270532608	60	291688
2026-01-29 05:35:07.05	352.84	20.50	-60.1	-77.2	3.6	1.51e+00	0	46	104	270532608	60	284296
2026-01-29 05:35:08.06	352.62	20.43	-60.5	-77.2	3.6	1.51e+00	0	46	104	270532608	60	284765
2026-01-29 05:35:09.07	352.40	20.36	-60.1	-77.4	3.6	1.51e+00	0	46	104	270532608	60	288852
2026-01-29 05:35:10.07	352.19	20.29	-60.4	-77.4	3.6	1.51e+00	0	46	104	270532608	60	290414
2026-01-29 05:35:11.08	351.98	20.22	-60.0	-77.2	3.6	1.51e+00	0	46	104	270532608	60	285324
2026-01-29 05:35:12.09	351.76	20.15	-60.6	-77.2	3.6	1.51e+00	0	46	104	270532608	60	283804
2026-01-29 05:35:13.09	351.55	20.08	-59.9	-77.1	3.6	1.51e+00	0	46	104	270532608	60	281258
2026-01-29 05:35:14.10	351.34	20.01	-60.6	-77.4	3.6	1.51e+00	0	46	104	270532608	60	289601
2026-01-29 05:35:15.11	351.13	19.93	-60.0	-77.2	3.6	1.51e+00	0	46	104	270532608	60	283334
2026-01-29 05:35:16.12	350.93	19.86	-60.4	-77.1	3.6	1.51e+00	0	46	104	270532608	60	281941
2026-01-29 05:35:17.13	350.72	19.79	-60.7	-77.3	3.6	1.51e+00	0	46	104	270532608	60	285963
2026-01-29 05:35:18.13	350.51	19.72	-59.9	-77.3	3.6	1.51e+00	0	46	104	270532608	60	285566
2026-01-29 05:35:19.14	350.31	19.64	-60.0	-77.0	3.6	1.51e+00	0	46	104	270532608	60	277259
2026-01-29 05:35:20.15	350.10	19.57	-60.7	-77.1	3.6	1.51e+00	0	46	104	270532608	60	281827
2026-01-29 05:35:21.16	349.90	19.50	-60.8	-77.2	3.6	1.51e+00	0	46	104	270532608	60	285169
2026-01-29 05:35:22.16	349.70	19.42	-60.1	-77.2	3.6	1.51e+00	0	46	104	270532608	60	284379
2026-01-29 05:35:23.17	349.50	19.35	-60.4	-77.1	3.6	1.51e+00	0	46	104	270532608	60	279674
2026-01-29 05:35:24.17	349.30	19.28	-60.5	-77.0	3.6	1.51e+00	0	46	104	270532608	60	278890
2026-01-29 05:35:25.18	349.10	19.20	-60.3	-77.2	3.6	1.51e+00	0	46	104	270532608	60	284471
2026-01-29 05:35:26.19	348.90	19.13	-60.8	-77.2	3.6	1.51e+00	0	46	104	270532608	60	284380
2026-01-29 05:35:27.19	348.70	19.06	-60.7	-77.1	3.6	1.51e+00	0	46	104	270532608	60	280571
2026-01-29 05:35:28.20	348.51	18.98	-60.7	-77.1	3.6	1.51e+00	0	46	104	270532608	60	279917
2026-01-29 05:35:29.21	348.31	18.91	-60.3	-77.1	3.6	1.51e+00	0	46	104	270532608	60	280476
2026-01-29 05:35:30.22	348.11	18.83	-60.7	-77.2	3.6	1.51e+00	0	46	104	270532608	60	283971
2026-01-29 05:35:31.23	347.92	18.76	-60.7	-77.2	3.6	1.51e+00	0	46	104	270532608	60	282692
2026-01-29 05:35:32.24	347.73	18.68	-60.5	-77.1	3.6	1.51e+00	0	46	104	270532608	60	280239
2026-01-29 05:35:33.25	347.54	18.61	-60.4	-76.9	3.6	1.51e+00	0	46	104	270532608	60	272949
2026-01-29 05:35:34.25	347.35	18.53	-60.1	-77.2	3.6	1.51e+00	0	46	104	270532608	60	283968
2026-01-29 05:35:35.26	347.16	18.46	-60.1	-77.1	3.6	1.51e+00	0	46	104	270532608	60	281791
2026-01-29 05:35:36.27	346.97	18.38	-60.0	-76.9	3.6	1.51e+00	0	46	104	270532608	60	274456
2026-01-29 05:35:37.27	346.78	18.31	-60.8	-77.0	3.6	1.51e+00	0	46	104	270532608	60	277930
2026-01-29 05:35:38.28	346.59	18.23	-60.4	-77.2	3.6	1.51e+00	0	46	104	270532608	60	283895
2026-01-29 05:35:39.29	346.41	18.16	-59.1	-77.0	3.6	1.51e+00	0	46	104	270532608	60	278195
2026-01-29 05:35:40.30	346.22	18.08	-58.4	-76.7	3.6	1.51e+00	0	46	104	270532608	60	266712
2026-01-29 05:35:41.31	346.04	18.01	-58.5	-76.7	3.6	1.51e+00	0	46	104	270532608	60	266998
2026-01-29 05:35:42.31	345.85	17.93	-58.6	-76.8	3.6	1.51e+00	0	46	104	270532608	60	270929
2026-01-29 05:35:43.32	345.67	17.85	-59.1	-76.9	3.6	1.51e+00	0	46	104	270532608	60	274993
2026-01-29 05:35:44.33	345.49	17.78	-60.1	-76.5	3.6	1.51e+00	0	46	104	270532608	60	261035
2026-01-29 05:35:45.34	345.31	17.70	-59.5	-76.9	3.6	1.51e+00	0	46	104	270532608	60	274347
2026-01-29 05:35:46.35	345.13	17.63	-60.7	-77.1	3.6	1.51e+00	0	46	104	270532608	60	280105
2026-01-29 05:35:47.36	344.95	17.55	-60.7	-77.2	3.6	1.51e+00	0	46	104	270532608	60	282941
2026-01-29 05:35:48.36	344.77	17.48	-60.7	-77.1	3.6	1.51e+00	0	46	104	270532608	60	280933
2026-01-29 05:35:49.37	344.60	17.40	-59.8	-77.0	3.6	1.51e+00	0	46	104	270532608	60	278655
2026-01-29 05:35:50.38	344.42	17.32	-60.2	-77.0	3.6	1.51e+00	0	46	104	270532608	60	276089
2026-01-29 05:35:51.38	344.25	17.25	-60.7	-77.2	3.6	1.51e+00	0	46	104	270532608	60	283476
2026-01-29 05:35:52.39	344.07	17.17	-59.9	-76.9	3.6	1.51e+00	0	46	104	270532608	60	275320
2026-01-29 05:35:53.40	343.90	17.09	-59.9	-77.0	3.6	1.51e+00	0	46	104	270532608	60	277765
2026-01-29 05:35:54.40	343.73	17.02	-59.2	-77.0	3.6	1.51e+00	0	46	104	270532608	60	277261
2026-01-29 05:35:55.41	343.56	16.94	-60.8	-77.2	3.6	1.51e+00	0	46	104	270532608	60	283341
2026-01-29 05:35:56.41	343.39	16.87	-59.5	-76.9	3.6	1.51e+00	0	46	104	270532608	60	274731
2026-01-29 05:35:57.42	343.22	16.79	-58.8	-76.7	3.6	1.51e+00	0	46	104	270532608	60	269229
2026-01-29 05:35:58.42	343.05	16.71	-59.6	-77.2	3.6	1.51e+00	0	46	104	270532608	60	282566
2026-01-29 05:35:59.43	342.88	16.64	-59.7	-77.0	3.6	1.51e+00	0	46	104	270532608	60	277149
2026-01-29 05:36:00.44	342.71	16.56	-59.7	-76.9	3.6	1.51e+00	0	46	104	270532608	60	273735
2026-01-29 05:36:01.44	342.55	16.49	-59.0	-76.8	3.6	1.51e+00	0	46	104	270532608	60	271042
2026-01-29 05:36:02.45	342.38	16.41	-59.8	-77.0	3.6	1.51e+00	0	46	104	270532608	60	278906
2026-01-29 05:36:03.46	342.22	16.33	-59.1	-76.9	3.6	1.51e+00	0	46	104	270532608	60	274830
2026-01-29 05:36:04.47	342.06	16.26	-60.4	-76.8	3.6	1.51e+00	0	46	104	270532608	60	271770
2026-01-29 05:36:05.48	341.89	16.18	-60.3	-77.1	3.6	1.51e+00	0	46	104	270532608	60	279274
2026-01-29 05:36:06.49	341.73	16.10	-58.7	-76.8	3.6	1.51e+00	0	46	104	270532608	60	271277
2026-01-29 05:36:07.49	341.57	16.03	-59.0	-77.0	3.6	1.51e+00	0	46	104	270532608	60	277298
2026-01-29 05:36:08.50	341.41	15.95	-60.1	-76.9	3.6	1.51e+00	0	46	104	270532608	60	272685
2026-01-29 05:36:09.50	341.25	15.87	-59.3	-76.8	3.6	1.51e+00	0	46	104	270532608	60	272567
2026-01-29 05:36:10.51	341.09	15.80	-59.8	-76.9	3.6	1.51e+00	0	46	104	270532608	60	275525
2026-01-29 05:36:11.52	340.93	15.72	-60.3	-77.0	3.5	1.51e+00	0	46	104	270532608	60	276856
2026-01-29 05:36:12.52	340.78	15.65	-60.7	-76.9	3.5	1.51e+00	0	46	104	270532608	60	274303
2026-01-29 05:36:13.53	340.62	15.57	-60.4	-77.1	3.6	1.51e+00	0	46	104	270532608	60	279175
2026-01-29 05:36:14.53	340.47	15.49	-60.5	-77.1	3.6	1.51e+00	0	46	104	270532608	60	279768
2026-01-29 05:36:15.54	340.31	15.42	-60.5	-77.1	3.6	1.51e+00	0	46	104	270532608	60	281323
2026-01-29 05:36:16.55	340.16	15.34	-60.7	-76.9	3.6	1.51e+00	0	46	104	270532608	60	275277
2026-01-29 05:36:17.56	340.01	15.26	-60.5	-76.9	3.6	1.51e+00	0	46	104	270532608	60	273285
2026-01-29 05:36:18.57	339.85	15.19	-60.4	-77.1	3.6	1.51e+00	0	46	104	270532608	60	280150
2026-01-29 05:36:19.57	339.70	15.11	-60.4	-76.9	3.6	1.51e+00	0	47	104	270532608	60	274942
2026-01-29 05:36:20.58	339.55	15.04	-60.4	-76.8	3.6	1.51e+00	0	46	104	270532608	60	272040
2026-01-29 05:36:21.59	339.40	14.96	-60.3	-76.7	3.6	1.51e+00	0	46	104	270532608	60	267469
2026-01-29 05:36:22.60	339.25	14.88	-60.3	-76.9	3.6	1.51e+00	0	47	104	270532608	60	274014
2026-01-29 05:36:23.61	339.10	14.81	-60.3	-76.7	3.6	1.51e+00	0	46	104	270532608	60	267352
2026-01-29 05:36:24.61	338.96	14.73	-60.2	-76.9	3.6	1.51e+00	0	46	104	270532608	60	273137
2026-01-29 05:36:25.62	338.81	14.66	-60.2	-76.8	3.6	1.51e+00	0	46	104	270532608	60	270255
2026-01-29 05:36:26.62	338.67	14.58	-60.3	-76.7	3.6	1.51e+00	0	47	104	270532608	60	266812
2026-01-29 05:36:27.63	338.52	14.51	-60.2	-76.8	3.6	1.51e+00	0	46	104	270532608	60	270352
2026-01-29 05:36:28.64	338.38	14.43	-60.3	-76.8	3.6	1.51e+00	0	46	104	270532608	60	272435
2026-01-29 05:36:29.64	338.23	14.35	-60.3	-76.8	3.6	1.51e+00	0	46	104	270532608	60	272304
2026-01-29 05:36:30.65	338.09	14.28	-60.4	-76.8	3.6	1.51e+00	0	46	104	270532608	60	270205
2026-01-29 05:36:31.65	337.95	14.20	-60.3	-76.8	3.6	1.51e+00	0	46	104	270532608	60	270965
2026-01-29 05:36:32.66	337.81	14.13	-59.5	-76.5	3.6	1.51e+00	0	46	104	270532608	60	262264
2026-01-29 05:36:33.67	337.67	14.05	-60.3	-76.8	3.6	1.51e+00	0	46	104	270532608	60	271887
2026-01-29 05:36:34.68	337.53	13.98	-60.4	-76.8	3.6	1.51e+00	0	46	104	270532608	60	270854
2026-01-29 05:36:35.69	337.39	13.90	-59.9	-76.7	3.6	1.51e+00	0	46	104	270532608	60	267548
2026-01-29 05:36:36.70	337.25	13.83	-58.4	-76.3	3.6	1.51e+00	0	46	104	270532608	60	255495
2026-01-29 05:36:37.70	337.11	13.75	-58.2	-76.0	3.6	1.51e+00	0	46	104	270532608	60	246867
2026-01-29 05:36:38.71	336.97	13.68	-58.1	-76.0	3.6	1.51e+00	0	46	104	270532608	60	248557
2026-01-29 05:36:39.72	336.84	13.60	-59.4	-76.5	3.6	1.51e+00	0	46	104	270532608	60	262192
2026-01-29 05:36:40.72	336.70	13.53	-60.5	-76.8	3.6	1.51e+00	0	46	104	270532608	60	272290
2026-01-29 05:36:41.73	336.57	13.45	-59.5	-76.4	3.6	1.51e+00	0	46	104	270532608	60	259255
2026-01-29 05:36:42.73	336.43	13.38	-58.7	-76.0	3.6	1.51e+00	0	46	104	270532608	60	246197
2026-01-29 05:36:43.74	336.30	13.30	-58.2	-76.2	3.6	1.51e+00	0	46	104	270532608	60	252114
2026-01-29 05:36:44.75	336.17	13.23	-58.3	-76.1	3.6	1.51e+00	0	46	104	270532608	60	249595
2026-01-29 05:36:45.75	336.04	13.15	-58.6	-75.9	3.6	1.51e+00	0	46	104	270532608	60	243295
2026-01-29 05:36:46.75	335.91	13.08	-58.3	-75.8	3.6	1.51e+00	0	46	104	270532608	60	240408
2026-01-29 05:36:47.76	335.77	13.00	-58.0	-75.7	3.6	1.51e+00	0	46	104	270532608	60	239558
2026-01-29 05:36:48.77	335.64	12.93	-57.9	-75.7	3.6	1.51e+00	0	46	104	270532608	60	238683
2026-01-29 05:36:49.77	335.52	12.86	-58.2	-75.8	3.6	1.51e+00	0	46	104	270532608	60	241333
2026-01-29 05:36:50.77	335.39	12.78	-59.9	-76.2	3.6	1.51e+00	0	46	104	270532608	60	253912
2026-01-29 05:36:51.78	335.26	12.71	-58.3	-75.7	3.6	1.51e+00	0	47	104	270532608	60	240149
2026-01-29 05:36:52.79	335.13	12.63	-57.9	-75.9	3.6	1.51e+00	0	46	104	270532608	60	244350
2026-01-29 05:36:53.80	335.00	12.56	-58.1	-75.9	3.6	1.51e+00	0	46	104	270532608	60	245547
2026-01-29 05:36:54.81	334.88	12.48	-58.2	-76.0	3.6	1.51e+00	0	46	104	270532608	60	247441
2026-01-29 05:36:55.81	334.75	12.41	-59.1	-75.8	3.6	1.51e+00	0	46	104	270532608	60	241559
2026-01-29 05:36:56.82	334.63	12.34	-58.3	-76.0	3.6	1.51e+00	0	46	104	270532608	60	247636
2026-01-29 05:36:57.82	334.50	12.26	-59.4	-75.9	3.6	1.51e+00	0	46	104	270532608	60	244739
2026-01-29 05:36:58.82	334.38	12.19	-59.9	-76.2	3.6	1.51e+00	0	46	104	270532608	60	253775
2026-01-29 05:36:59.82	334.26	12.12	-58.7	-76.1	3.6	1.51e+00	0	46	104	270532608	60	248872
2026-01-29 05:37:00.83	334.14	12.04	-59.0	-76.0	3.6	1.51e+00	0	46	104	270532608	60	246852
2026-01-29 05:37:01.83	334.02	11.97	-59.3	-76.1	3.6	1.51e+00	0	46	104	270532608	60	249473
2026-01-29 05:37:02.84	333.89	11.90	-59.8	-76.3	3.6	1.51e+00	0	46	104	270532608	60	255427
2026-01-29 05:37:03.84	333.78	11.83	-58.9	-75.9	3.6	1.51e+00	0	46	104	270532608	60	244640
2026-01-29 05:37:04.85	333.65	11.75	-58.8	-76.1	3.6	1.51e+00	0	46	104	270532608	60	249491
2026-01-29 05:37:05.86	333.54	11.68	-59.2	-76.0	3.6	1.51e+00	0	46	104	270532608	60	246897
2026-01-29 05:37:06.87	333.42	11.61	-59.8	-76.3	3.6	1.51e+00	0	46	104	270532608	60	254832
2026-01-29 05:37:07.88	333.30	11.53	-59.0	-75.8	3.6	1.51e+00	0	46	104	270532608	60	242462
2026-01-29 05:37:08.89	333.18	11.46	-59.2	-75.7	3.6	1.51e+00	0	46	104	270532608	60	239721
2026-01-29 05:37:09.89	333.06	11.39	-59.2	-75.7	3.6	1.51e+00	0	46	104	270532608	60	238514
2026-01-29 05:37:10.90	332.95	11.32	-59.1	-75.6	3.6	1.51e+00	0	46	104	270532608	60	236971
2026-01-29 05:37:11.91	332.83	11.24	-58.1	-75.0	3.6	1.51e+00	0	46	104	270532608	60	220468
2026-01-29 05:37:12.92	332.72	11.17	-58.8	-75.9	3.6	1.51e+00	0	46	104	270532608	60	244854
2026-01-29 05:37:13.93	332.60	11.10	-59.1	-75.7	3.6	1.51e+00	0	46	104	270532608	60	238496
2026-01-29 05:37:14.93	332.49	11.03	-58.3	-75.5	3.6	1.51e+00	0	46	104	270532608	60	233848
2026-01-29 05:37:15.94	332.37	10.96	-58.8	-76.1	3.6	1.51e+00	0	46	104	270532608	60	248954
2026-01-29 05:37:16.94	332.26	10.88	-58.7	-75.7	3.6	1.51e+00	0	46	104	270532608	60	238721
2026-01-29 05:37:17.95	332.15	10.81	-57.9	-75.4	3.6	1.51e+00	0	46	104	270532608	60	231530
2026-01-29 05:37:18.96	332.04	10.74	-57.7	-75.4	3.6	1.51e+00	0	46	104	270532608	60	229715
2026-01-29 05:37:19.96	331.93	10.67	-57.6	-75.1	3.6	1.51e+00	0	46	104	270532608	60	222376
2026-01-29 05:37:20.96	331.82	10.60	-58.6	-75.8	3.6	1.51e+00	0	46	104	270532608	60	241526
2026-01-29 05:37:21.97	331.71	10.53	-58.6	-75.3	3.6	1.51e+00	0	46	104	270532608	60	228552
2026-01-29 05:37:22.97	331.60	10.46	-58.3	-75.4	3.6	1.51e+00	0	46	104	270532608	60	230116
2026-01-29 05:37:23.98	331.49	10.38	-58.7	-75.7	3.6	1.51e+00	0	46	104	270532608	60	238823
2026-01-29 05:37:24.99	331.38	10.31	-58.7	-75.7	3.6	1.51e+00	0	46	104	270532608	60	239254
2026-01-29 05:37:25.99	331.27	10.24	-58.7	-75.3	3.6	1.51e+00	0	46	104	270532608	60	228725
2026-01-29 05:37:27.00	331.17	10.17	-57.5	-75.2	3.6	1.51e+00	0	46	104	270532608	60	225578
2026-01-29 05:37:28.01	331.06	10.10	-57.9	-75.6	3.6	1.51e+00	0	46	104	270532608	60	236479
2026-01-29 05:37:29.01	330.95	10.03	-58.1	-75.4	3.6	1.51e+00	0	46	104	270532608	60	230760
2026-01-29 05:37:30.02	330.85	9.96	-56.9	-74.7	3.6	1.51e+00	0	46	104	270532608	60	212174
2026-01-29 05:37:31.03	330.74	9.89	-58.6	-75.4	3.6	1.51e+00	0	46	104	270532608	60	231907
2026-01-29 05:37:32.03	330.64	9.82	-56.3	-73.0	3.6	1.51e+00	0	46	104	270532608	60	174439
2026-01-29 05:37:33.04	330.54	9.75	-57.4	-75.2	3.6	1.51e+00	0	46	104	270532608	60	224417
2026-01-29 05:37:34.04	330.43	9.68	-56.1	-74.6	3.6	1.51e+00	0	46	104	270532608	60	211339
2026-01-29 05:37:35.05	330.33	9.61	-57.2	-74.5	3.6	1.51e+00	0	46	104	270532608	60	207246
2026-01-29 05:37:36.05	330.23	9.54	-56.5	-74.8	3.6	1.51e+00	0	46	104	270532608	60	215597
2026-01-29 05:37:37.06	330.13	9.47	-55.0	-74.6	3.6	1.51e+00	0	46	104	270532608	60	209590
2026-01-29 05:37:38.07	330.02	9.40	-57.8	-75.3	3.6	1.51e+00	0	46	104	270532608	60	228094
2026-01-29 05:37:39.08	329.92	9.33	-57.3	-74.8	3.6	1.51e+00	0	46	104	270532608	60	214427
2026-01-29 05:37:40.08	329.82	9.26	-56.3	-74.7	3.6	1.51e+00	0	46	104	270532608	60	213094
2026-01-29 05:37:41.09	329.72	9.19	-56.7	-74.7	3.6	1.51e+00	0	46	104	270532608	60	212610
2026-01-29 05:37:42.10	329.62	9.12	-56.4	-74.9	3.6	1.51e+00	0	46	104	270532608	60	217003
