passes_logs/2026/01/29/R3.2S-Naryan-Mar/R3.2S-Naryan-Mar__20260129_012643_AQUA_rec.log

#Pass ID: 20260129_012643_AQUA
#Satellite: AQUA
#Configuration: AQUA
#almurnet v.1.7.20240730
#Start time: 2026-01-29 01:26:45

#Version: 2.2.20231116
#Station: R3.2S-Naryan-Mar
#Location: 53.008057 lon 67.646978 lat
#TLE: 1 27424U 02022A   26027.88561574  .00001798  00000+0  36942-3 0  9997
#TLE: 2 27424  98.4102 354.5311 0001840  63.5604 322.5877 14.61868111262779

#Time	Az	El	Level	Level2	SNR	BER	BlckErr	Temp	State	Recorded	gain1	gain2
2026-01-29 01:26:45.10	23.83	0.08	-59.5	-74.1	3.5	8.45e-01	0	44	0	0	60	198592
2026-01-29 01:26:46.10	23.82	0.14	-53.9	-74.8	3.7	3.02e+01	0	45	104	0	60	208216
2026-01-29 01:26:47.10	23.80	0.20	-54.9	-74.8	3.6	3.02e+01	0	45	104	0	60	208842
2026-01-29 01:26:48.11	23.79	0.26	-55.9	-75.8	3.6	3.02e+01	0	45	104	0	60	234421
2026-01-29 01:26:49.12	23.78	0.32	-56.8	-76.5	3.5	3.02e+01	0	45	104	0	60	253611
2026-01-29 01:26:50.12	23.77	0.39	-57.6	-77.4	3.5	3.02e+01	0	45	104	0	60	281245
2026-01-29 01:26:51.13	23.76	0.45	-57.7	-77.7	3.5	3.02e+01	0	45	104	0	60	290910
2026-01-29 01:26:52.14	23.74	0.51	-57.6	-77.9	3.5	3.02e+01	0	45	104	0	60	300314
2026-01-29 01:26:53.15	23.73	0.57	-57.2	-77.6	3.5	3.02e+01	0	45	104	0	60	287995
2026-01-29 01:26:54.15	23.72	0.64	-57.1	-78.0	3.5	3.02e+01	0	45	104	0	60	303924
2026-01-29 01:26:55.16	23.71	0.70	-56.5	-77.7	3.5	3.02e+01	0	45	104	0	60	291318
2026-01-29 01:26:56.17	23.69	0.76	-57.6	-77.9	3.5	3.02e+01	0	45	104	0	60	299416
2026-01-29 01:26:57.18	23.68	0.83	-56.9	-77.8	3.5	3.02e+01	0	45	104	0	60	293722
2026-01-29 01:26:58.18	23.67	0.89	-56.1	-77.8	3.5	3.02e+01	0	45	104	0	60	293796
2026-01-29 01:26:59.19	23.66	0.95	-55.9	-77.5	3.5	3.02e+01	0	45	104	0	60	284060
2026-01-29 01:27:00.20	23.64	1.02	-54.5	-77.0	3.6	3.02e+01	0	45	104	0	60	270651
2026-01-29 01:27:01.21	23.63	1.08	-51.5	-76.6	3.5	3.02e+01	0	45	104	0	60	256654
2026-01-29 01:27:02.20	23.62	1.14	-51.3	-76.8	3.5	3.02e+01	0	45	104	0	60	264253
2026-01-29 01:27:03.21	23.61	1.21	-50.8	-76.6	3.5	3.02e+01	0	45	104	0	60	257857
2026-01-29 01:27:04.20	23.59	1.27	-50.8	-76.6	3.5	3.02e+01	0	45	104	0	60	256849
2026-01-29 01:27:05.21	23.58	1.34	-50.8	-76.7	3.6	3.02e+01	0	45	104	0	60	260184
2026-01-29 01:27:06.22	23.57	1.40	-50.8	-76.7	3.5	3.02e+01	0	45	104	0	60	261018
2026-01-29 01:27:07.23	23.55	1.47	-50.7	-76.7	3.5	3.02e+01	0	45	104	0	60	260550
2026-01-29 01:27:08.24	23.54	1.53	-50.7	-76.6	3.5	3.02e+01	0	45	104	0	60	257430
2026-01-29 01:27:09.24	23.53	1.60	-50.8	-76.6	3.5	3.02e+01	0	45	104	0	60	256715
2026-01-29 01:27:10.25	23.51	1.66	-50.8	-76.6	3.5	3.02e+01	0	45	104	0	60	256321
2026-01-29 01:27:11.26	23.50	1.73	-50.8	-76.7	3.5	3.02e+01	0	45	104	0	60	258854
2026-01-29 01:27:12.27	23.49	1.79	-50.9	-76.6	3.5	3.02e+01	0	45	104	0	60	257276
2026-01-29 01:27:13.28	23.47	1.86	-50.9	-76.6	3.5	3.02e+01	0	45	104	0	60	256508
2026-01-29 01:27:14.28	23.46	1.93	-50.9	-76.7	3.6	3.02e+01	0	46	104	0	60	259040
2026-01-29 01:27:15.29	23.44	1.99	-50.9	-76.7	3.5	3.02e+01	0	46	104	0	60	260042
2026-01-29 01:27:16.30	23.43	2.06	-50.9	-76.6	3.5	3.02e+01	0	46	104	0	60	257982
2026-01-29 01:27:17.30	23.42	2.12	-50.8	-76.7	3.5	3.02e+01	0	46	104	0	60	259341
2026-01-29 01:27:18.31	23.40	2.19	-50.8	-76.5	3.5	3.02e+01	0	45	104	0	60	255108
2026-01-29 01:27:19.32	23.39	2.26	-50.8	-76.5	3.5	3.02e+01	0	46	104	0	60	254298
2026-01-29 01:27:20.33	23.37	2.33	-50.8	-76.5	3.5	3.02e+01	0	46	104	0	60	255434
2026-01-29 01:27:21.33	23.36	2.39	-50.8	-76.5	3.5	3.02e+01	0	46	104	0	60	254572
2026-01-29 01:27:22.34	23.34	2.46	-50.7	-76.6	3.5	3.02e+01	0	46	104	0	60	257346
2026-01-29 01:27:23.35	23.33	2.53	-50.7	-76.6	3.6	3.02e+01	0	46	104	0	60	256426
2026-01-29 01:27:24.35	23.31	2.60	-50.8	-76.6	3.5	3.02e+01	0	46	104	0	60	257983
2026-01-29 01:27:25.36	23.30	2.66	-50.7	-76.5	3.5	3.02e+01	0	46	104	0	60	255288
2026-01-29 01:27:26.37	23.28	2.73	-50.7	-76.7	3.5	3.02e+01	0	46	104	0	60	258808
2026-01-29 01:27:27.37	23.27	2.80	-50.7	-76.5	3.5	3.02e+01	0	46	104	0	60	254600
2026-01-29 01:27:28.38	23.25	2.87	-50.7	-76.7	3.5	3.02e+01	0	46	104	0	60	259924
2026-01-29 01:27:29.39	23.24	2.94	-50.7	-76.6	3.5	3.02e+01	0	46	104	0	60	257227
2026-01-29 01:27:30.40	23.22	3.01	-50.7	-76.6	3.5	3.02e+01	0	46	104	0	60	256641
2026-01-29 01:27:31.40	23.21	3.07	-50.6	-76.5	3.5	3.02e+01	0	46	104	0	60	254633
2026-01-29 01:27:32.41	23.19	3.14	-50.6	-76.5	3.5	3.02e+01	0	46	104	0	60	254099
2026-01-29 01:27:33.42	23.18	3.21	-50.7	-76.5	3.5	3.02e+01	0	46	104	0	60	253561
2026-01-29 01:27:34.42	23.16	3.28	-50.6	-76.3	3.5	3.02e+01	0	46	104	0	60	249167
2026-01-29 01:27:35.43	23.14	3.35	-50.6	-76.6	3.5	3.02e+01	0	46	104	0	60	257633
2026-01-29 01:27:36.43	23.13	3.42	-50.7	-76.4	3.5	3.02e+01	0	46	104	0	60	250854
2026-01-29 01:27:37.44	23.11	3.49	-50.6	-76.6	3.5	3.02e+01	0	46	104	0	60	256497
2026-01-29 01:27:38.44	23.10	3.56	-50.6	-76.6	3.5	3.02e+01	0	46	104	0	60	255887
2026-01-29 01:27:39.45	23.08	3.63	-50.7	-76.3	3.5	3.02e+01	0	46	104	0	60	249134
2026-01-29 01:27:40.46	23.06	3.70	-50.6	-76.4	3.5	3.02e+01	0	46	104	0	60	252380
2026-01-29 01:27:41.46	23.05	3.77	-50.6	-76.5	3.6	3.02e+01	0	46	104	0	60	254267
2026-01-29 01:27:42.47	23.03	3.85	-50.7	-76.5	3.5	3.02e+01	0	46	104	0	60	254797
2026-01-29 01:27:43.48	23.01	3.92	-50.6	-76.5	3.5	3.02e+01	0	46	104	0	60	254498
2026-01-29 01:27:44.49	23.00	3.99	-50.5	-76.4	3.5	3.02e+01	0	46	104	0	60	250763
2026-01-29 01:27:45.50	22.98	4.06	-50.6	-76.3	3.5	3.02e+01	0	46	104	0	60	249824
2026-01-29 01:27:46.50	22.96	4.13	-50.6	-76.3	3.5	3.02e+01	0	46	104	0	60	249500
2026-01-29 01:27:47.51	22.95	4.21	-50.5	-76.3	3.6	3.02e+01	0	46	104	0	60	249174
2026-01-29 01:27:48.51	22.93	4.28	-50.6	-76.2	3.5	3.02e+01	0	46	104	0	60	246062
2026-01-29 01:27:49.52	22.91	4.35	-50.5	-76.4	3.5	3.02e+01	0	46	104	0	60	252575
2026-01-29 01:27:50.53	22.89	4.42	-50.5	-76.3	3.5	3.02e+01	0	46	104	0	60	247680
2026-01-29 01:27:51.53	22.88	4.50	-50.6	-76.3	3.5	3.02e+01	0	46	104	0	60	248935
2026-01-29 01:27:52.54	22.86	4.57	-50.5	-76.4	3.5	3.02e+01	0	46	104	0	60	250165
2026-01-29 01:27:53.54	22.84	4.64	-50.5	-76.3	3.5	3.02e+01	0	46	104	0	60	248388
2026-01-29 01:27:54.55	22.82	4.72	-50.6	-76.5	3.5	3.02e+01	0	46	104	0	60	253514
2026-01-29 01:27:55.56	22.80	4.79	-50.5	-76.2	3.6	3.02e+01	0	46	104	0	60	246902
2026-01-29 01:27:56.56	22.78	4.86	-50.5	-76.4	3.5	3.02e+01	0	46	104	0	60	252209
2026-01-29 01:27:57.57	22.77	4.94	-50.5	-76.5	3.5	3.02e+01	0	46	104	0	60	253602
2026-01-29 01:27:58.58	22.75	5.01	-50.5	-76.5	3.5	3.02e+01	0	46	104	0	60	253532
2026-01-29 01:27:59.59	22.73	5.09	-50.5	-76.5	3.5	3.02e+01	0	46	104	0	60	252838
2026-01-29 01:28:00.60	22.71	5.16	-50.5	-76.5	3.5	3.02e+01	0	46	104	0	60	253672
2026-01-29 01:28:01.60	22.69	5.24	-50.5	-76.4	3.5	3.02e+01	0	46	104	0	60	251215
2026-01-29 01:28:02.61	22.67	5.31	-50.5	-76.6	3.5	3.02e+01	0	46	104	0	60	255983
2026-01-29 01:28:03.61	22.65	5.39	-50.7	-76.3	3.5	3.02e+01	0	46	104	0	60	248465
2026-01-29 01:28:04.62	22.63	5.47	-50.7	-76.3	3.5	3.02e+01	0	46	104	0	60	249115
2026-01-29 01:28:05.62	22.61	5.54	-50.7	-76.3	3.5	3.02e+01	0	46	104	0	60	247657
2026-01-29 01:28:06.63	22.59	5.62	-50.7	-76.1	3.5	3.02e+01	0	46	104	0	60	243650
2026-01-29 01:28:07.63	22.57	5.70	-50.6	-76.0	3.5	3.02e+01	0	46	104	0	60	241300
2026-01-29 01:28:08.63	22.56	5.77	-50.6	-76.0	3.5	3.02e+01	0	46	104	0	60	239743
2026-01-29 01:28:09.63	22.54	5.85	-50.6	-75.8	3.5	3.02e+01	0	46	104	0	60	233527
2026-01-29 01:28:10.63	22.52	5.93	-50.5	-75.8	3.5	3.02e+01	0	46	104	0	60	234086
2026-01-29 01:28:11.63	22.49	6.00	-50.5	-75.9	3.5	3.02e+01	0	46	104	0	60	237122
2026-01-29 01:28:12.64	22.47	6.08	-50.2	-76.7	3.5	3.02e+01	0	46	104	0	60	259459
2026-01-29 01:28:13.65	22.45	6.16	-50.9	-76.2	3.5	3.02e+01	0	46	104	0	60	245515
2026-01-29 01:28:14.65	22.43	6.24	-51.2	-75.5	3.5	3.02e+01	0	46	104	0	60	226804
2026-01-29 01:28:15.66	22.41	6.32	-49.4	-76.4	3.5	3.02e+01	0	46	104	0	60	252419
2026-01-29 01:28:16.67	22.39	6.40	-49.4	-75.7	3.5	3.02e+01	0	46	104	0	60	231784
2026-01-29 01:28:17.68	22.37	6.48	-52.4	-76.0	3.5	3.02e+01	0	46	104	0	60	240708
2026-01-29 01:28:18.69	22.35	6.55	-52.7	-75.6	3.5	3.02e+01	0	46	104	0	60	230131
2026-01-29 01:28:19.69	22.33	6.63	-53.1	-75.9	3.5	3.02e+01	0	46	104	0	60	237145
2026-01-29 01:28:20.70	22.30	6.71	-49.4	-75.4	3.5	3.02e+01	0	46	104	0	60	224144
2026-01-29 01:28:21.70	22.28	6.79	-50.5	-76.6	3.5	3.02e+01	0	46	104	0	60	256946
2026-01-29 01:28:22.71	22.26	6.88	-50.9	-75.8	3.5	3.02e+01	0	46	104	0	60	234241
2026-01-29 01:28:23.72	22.24	6.96	-49.0	-75.9	3.5	3.02e+01	0	46	104	0	60	238466
2026-01-29 01:28:24.72	22.22	7.04	-49.9	-75.6	3.5	3.02e+01	0	46	104	0	60	228259
2026-01-29 01:28:25.72	22.19	7.12	-50.6	-76.0	3.5	3.02e+01	0	46	104	0	60	238936
2026-01-29 01:28:26.73	22.17	7.20	-49.8	-75.8	3.5	3.02e+01	0	46	104	0	60	235058
2026-01-29 01:28:27.73	22.15	7.28	-50.1	-75.7	3.5	3.02e+01	0	46	104	0	60	231651
2026-01-29 01:28:28.73	22.13	7.36	-51.0	-75.6	3.5	3.02e+01	0	46	104	0	60	230470
2026-01-29 01:28:29.73	22.10	7.45	-51.4	-76.6	3.5	3.02e+01	0	46	104	0	60	256965
2026-01-29 01:28:30.74	22.08	7.53	-50.7	-75.9	3.5	3.02e+01	0	46	104	0	60	237376
2026-01-29 01:28:31.74	22.06	7.61	-50.2	-76.0	3.5	3.02e+01	0	46	104	0	60	240814
2026-01-29 01:28:32.75	22.03	7.70	-50.7	-75.7	3.5	3.02e+01	0	46	104	0	60	231713
2026-01-29 01:28:33.76	22.01	7.78	-50.3	-76.2	3.5	3.02e+01	0	46	104	0	60	246163
2026-01-29 01:28:34.77	21.98	7.86	-50.6	-75.8	3.5	3.02e+01	0	46	104	0	60	235272
2026-01-29 01:28:35.77	21.96	7.95	-50.6	-75.8	3.5	3.02e+01	0	46	104	0	60	233490
2026-01-29 01:28:36.78	21.94	8.03	-50.5	-75.4	3.5	3.02e+01	0	46	104	0	60	225300
2026-01-29 01:28:37.79	21.91	8.12	-50.9	-76.1	3.5	3.02e+01	0	46	104	0	60	242472
2026-01-29 01:28:38.79	21.89	8.20	-51.7	-75.4	3.5	3.02e+01	0	46	104	0	60	224168
2026-01-29 01:28:39.80	21.86	8.29	-50.9	-76.5	3.5	3.02e+01	0	46	104	0	60	253431
2026-01-29 01:28:40.81	21.84	8.38	-50.6	-75.2	3.5	3.02e+01	0	46	104	0	60	219041
2026-01-29 01:28:41.81	21.81	8.46	-50.6	-75.7	3.5	3.02e+01	0	46	104	0	60	230590
2026-01-29 01:28:42.81	21.79	8.55	-50.5	-75.4	3.5	3.02e+01	0	46	104	0	60	224438
2026-01-29 01:28:43.82	21.76	8.63	-50.9	-75.3	3.5	3.02e+01	0	46	104	0	60	221869
2026-01-29 01:28:44.83	21.74	8.72	-50.5	-76.3	3.5	3.02e+01	0	46	104	0	60	248883
2026-01-29 01:28:45.84	21.71	8.81	-51.4	-74.9	3.5	3.02e+01	0	46	104	0	60	211965
2026-01-29 01:28:46.84	21.68	8.90	-51.2	-75.1	3.6	3.02e+01	0	46	104	0	60	217499
2026-01-29 01:28:47.85	21.66	8.99	-50.6	-75.8	3.5	3.02e+01	0	46	104	0	60	233413
2026-01-29 01:28:48.86	21.63	9.07	-50.5	-75.5	3.5	3.02e+01	0	46	104	0	60	225792
2026-01-29 01:28:49.87	21.60	9.16	-50.9	-75.3	3.5	3.02e+01	0	46	104	0	60	222391
2026-01-29 01:28:50.88	21.58	9.25	-51.5	-75.4	3.5	3.02e+01	0	46	104	0	60	224111
2026-01-29 01:28:51.88	21.55	9.34	-51.9	-75.4	3.5	3.02e+01	0	46	104	0	60	222993
2026-01-29 01:28:52.89	21.52	9.43	-51.0	-75.3	3.5	3.02e+01	0	46	104	0	60	221895
2026-01-29 01:28:53.90	21.49	9.52	-52.2	-76.4	3.5	3.02e+01	0	46	104	0	60	250810
2026-01-29 01:28:54.91	21.47	9.62	-49.5	-75.3	3.5	3.02e+01	0	46	104	0	60	220511
2026-01-29 01:28:55.91	21.44	9.71	-51.0	-75.6	3.5	3.02e+01	0	46	104	0	60	229306
2026-01-29 01:28:56.91	21.41	9.80	-50.3	-76.0	3.5	3.02e+01	0	46	104	0	60	239035
2026-01-29 01:28:57.92	21.38	9.89	-50.1	-75.7	3.5	3.02e+01	0	46	104	0	60	232604
2026-01-29 01:28:58.93	21.35	9.98	-50.1	-75.2	3.5	3.02e+01	0	46	104	0	60	217798
2026-01-29 01:28:59.93	21.32	10.07	-50.4	-75.3	3.5	3.02e+01	0	46	104	0	60	222204
2026-01-29 01:29:00.93	21.29	10.17	-50.2	-75.4	3.5	3.02e+01	0	46	104	0	60	224794
2026-01-29 01:29:01.93	21.26	10.26	-52.0	-76.1	3.5	3.02e+01	0	46	104	0	60	243979
2026-01-29 01:29:02.94	21.23	10.35	-48.6	-75.4	3.5	3.02e+01	0	46	104	0	60	222940
2026-01-29 01:29:03.95	21.20	10.45	-51.7	-76.4	3.5	3.02e+01	0	46	104	0	60	252203
2026-01-29 01:29:04.96	21.17	10.54	-51.9	-75.6	3.5	3.02e+01	0	46	104	0	60	228593
2026-01-29 01:29:05.97	21.14	10.64	-51.7	-75.8	3.5	3.02e+01	0	46	104	0	60	234289
2026-01-29 01:29:06.97	21.11	10.73	-51.1	-75.6	3.5	3.02e+01	0	46	104	0	60	229904
2026-01-29 01:29:07.98	21.08	10.83	-50.6	-75.5	3.5	3.02e+01	0	46	104	0	60	226939
2026-01-29 01:29:08.99	21.05	10.92	-52.5	-75.7	3.5	3.02e+01	0	46	104	0	60	231600
2026-01-29 01:29:10.00	21.02	11.02	-51.4	-76.0	3.6	3.02e+01	0	46	104	0	60	240422
2026-01-29 01:29:11.01	20.99	11.12	-50.0	-75.3	3.5	3.02e+01	0	46	104	0	60	220769
2026-01-29 01:29:12.01	20.96	11.22	-51.6	-76.1	3.6	3.02e+01	0	46	104	0	60	242505
2026-01-29 01:29:13.02	20.92	11.31	-48.0	-75.7	3.5	3.02e+01	0	46	104	0	60	233224
2026-01-29 01:29:14.03	20.89	11.41	-47.7	-75.8	3.5	3.02e+01	0	46	104	0	60	234306
2026-01-29 01:29:15.02	20.86	11.51	-48.7	-75.5	3.5	3.02e+01	0	46	104	0	60	227020
2026-01-29 01:29:16.03	20.83	11.61	-48.9	-75.4	3.5	3.02e+01	0	46	104	0	60	224415
2026-01-29 01:29:17.04	20.79	11.71	-48.7	-62.9	14.0	3.02e+01	0	46	104	0	60	52898
2026-01-29 01:29:18.05	20.76	11.81	-52.8	-75.1	3.5	3.02e+01	0	46	104	0	60	217612
2026-01-29 01:29:19.05	20.73	11.91	-50.8	-75.1	3.5	3.02e+01	0	46	104	0	60	216903
2026-01-29 01:29:20.05	20.69	12.01	-47.5	-75.9	3.5	3.02e+01	0	46	104	0	60	238424
2026-01-29 01:29:21.06	20.66	12.11	-51.9	-75.2	3.5	3.02e+01	0	46	104	0	60	218566
2026-01-29 01:29:22.07	20.62	12.21	-51.8	-74.8	3.5	3.02e+01	0	46	104	0	60	210210
2026-01-29 01:29:23.08	20.59	12.32	-52.0	-75.1	3.5	3.02e+01	0	46	104	0	60	216685
2026-01-29 01:29:24.09	20.55	12.42	-52.1	-74.9	3.5	3.02e+01	0	46	104	0	60	212192
2026-01-29 01:29:25.09	20.52	12.52	-53.9	-76.2	3.5	3.02e+01	0	46	104	0	60	246207
2026-01-29 01:29:26.10	20.48	12.63	-50.0	-76.6	3.5	3.02e+01	0	46	104	0	60	256418
2026-01-29 01:29:27.11	20.44	12.73	-52.3	-74.8	3.6	3.02e+01	0	46	104	0	60	209381
2026-01-29 01:29:28.12	20.41	12.84	-53.7	-76.3	3.5	3.02e+01	0	46	104	0	60	247834
2026-01-29 01:29:29.12	20.37	12.94	-51.3	-75.7	3.5	3.02e+01	0	46	104	0	60	230835
2026-01-29 01:29:30.13	20.33	13.05	-51.5	-75.4	3.6	3.02e+01	0	46	104	0	60	224095
2026-01-29 01:29:31.14	20.30	13.15	-51.8	-75.0	3.5	3.02e+01	0	46	104	0	60	214278
2026-01-29 01:29:32.14	20.26	13.26	-51.8	-74.8	3.6	3.02e+01	0	46	104	0	60	209657
2026-01-29 01:29:33.14	20.22	13.36	-49.8	-75.9	3.5	3.02e+01	0	46	104	0	60	238553
2026-01-29 01:29:34.15	20.18	13.47	-53.4	-76.7	3.5	3.02e+01	0	46	104	0	60	261525
2026-01-29 01:29:35.16	20.14	13.58	-54.2	-75.2	3.6	3.02e+01	0	46	104	0	60	218037
2026-01-29 01:29:36.16	20.11	13.69	-52.7	-76.6	3.5	3.02e+01	0	46	104	0	60	256173
2026-01-29 01:29:37.17	20.07	13.80	-52.5	-75.1	3.5	3.02e+01	0	46	104	0	60	217272
2026-01-29 01:29:38.18	20.03	13.91	-53.9	-74.5	3.5	3.02e+01	0	46	104	0	60	202338
2026-01-29 01:29:39.19	19.99	14.02	-54.1	-74.5	3.5	3.02e+01	0	46	104	0	60	202492
2026-01-29 01:29:40.19	19.95	14.13	-54.2	-74.7	3.7	3.02e+01	0	46	104	0	60	207494
2026-01-29 01:29:41.20	19.91	14.24	-53.6	-76.6	3.5	3.02e+01	0	46	104	0	60	257476
2026-01-29 01:29:42.21	19.86	14.35	-53.5	-76.5	3.5	3.02e+01	0	46	104	0	60	253669
2026-01-29 01:29:43.22	19.82	14.47	-54.7	-75.3	3.5	3.02e+01	0	46	104	0	60	221291
2026-01-29 01:29:44.22	19.78	14.58	-53.6	-75.3	3.6	3.02e+01	0	46	104	0	60	221172
2026-01-29 01:29:45.23	19.74	14.69	-53.4	-75.7	3.5	3.02e+01	0	46	104	0	60	230873
2026-01-29 01:29:46.23	19.70	14.81	-53.4	-75.1	3.5	3.02e+01	0	46	104	0	60	215180
2026-01-29 01:29:47.23	19.65	14.92	-52.9	-75.4	3.5	3.02e+01	0	46	104	0	60	224943
2026-01-29 01:29:48.24	19.61	15.04	-52.6	-75.1	3.5	3.02e+01	0	46	104	0	60	217059
2026-01-29 01:29:49.25	19.57	15.15	-52.7	-68.7	4.2	3.02e+01	0	46	104	0	60	104175
2026-01-29 01:29:50.25	19.52	15.27	-54.0	-75.2	3.6	3.02e+01	0	46	104	0	60	219598
2026-01-29 01:29:51.26	19.48	15.39	-54.1	-76.2	3.5	3.02e+01	0	46	104	0	60	245566
2026-01-29 01:29:52.27	19.43	15.50	-53.6	-76.3	3.5	3.02e+01	0	46	104	0	60	249147
2026-01-29 01:29:53.28	19.39	15.62	-54.1	-74.5	3.8	3.02e+01	0	46	104	0	60	201768
2026-01-29 01:29:54.29	19.34	15.74	-54.0	-74.6	3.8	3.02e+01	0	46	104	0	60	204850
2026-01-29 01:29:55.29	19.29	15.86	-54.1	-74.5	3.8	3.02e+01	0	46	104	0	60	201127
2026-01-29 01:29:56.30	19.25	15.98	-53.9	-74.6	3.7	3.02e+01	0	46	104	0	60	205256
2026-01-29 01:29:57.31	19.20	16.10	-51.9	-72.6	4.3	3.02e+01	0	46	104	0	60	162315
2026-01-29 01:29:58.32	19.15	16.23	-52.0	-76.1	3.5	3.02e+01	0	46	104	0	60	241986
2026-01-29 01:29:59.32	19.11	16.35	-51.9	-75.7	3.5	3.02e+01	0	46	104	0	60	230583
2026-01-29 01:30:00.33	19.06	16.47	-55.0	-76.3	3.5	3.02e+01	0	46	104	0	60	249820
2026-01-29 01:30:01.34	19.01	16.59	-53.9	-75.1	3.5	3.02e+01	0	47	104	0	60	216346
2026-01-29 01:30:02.34	18.96	16.72	-53.2	-74.7	3.6	3.02e+01	0	46	104	0	60	206748
2026-01-29 01:30:03.34	18.91	16.84	-52.6	-74.7	3.5	3.02e+01	0	46	104	0	60	207828
2026-01-29 01:30:04.35	18.86	16.97	-52.1	-74.6	3.7	3.02e+01	0	46	104	0	60	203634
2026-01-29 01:30:05.35	18.81	17.09	-54.5	-75.4	3.5	3.02e+01	0	46	104	0	60	223753
2026-01-29 01:30:06.36	18.76	17.22	-54.2	-76.6	3.5	3.02e+01	0	46	104	0	60	256728
2026-01-29 01:30:07.37	18.70	17.35	-53.5	-75.7	3.5	3.02e+01	0	46	104	0	60	231823
2026-01-29 01:30:08.37	18.65	17.48	-54.3	-76.7	3.6	3.02e+01	0	47	104	0	60	260378
2026-01-29 01:30:09.38	18.60	17.61	-51.9	-75.0	3.5	3.02e+01	0	46	104	0	60	212914
2026-01-29 01:30:10.39	18.55	17.74	-52.6	-74.8	3.6	3.02e+01	0	46	104	0	60	208120
2026-01-29 01:30:11.40	18.49	17.87	-53.3	-74.8	3.5	3.02e+01	0	46	104	0	60	209585
2026-01-29 01:30:12.41	18.44	18.00	-54.3	-74.8	3.7	3.02e+01	0	47	104	0	60	209720
2026-01-29 01:30:13.42	18.38	18.13	-54.9	-76.4	3.5	3.02e+01	0	46	104	0	60	250636
2026-01-29 01:30:14.42	18.33	18.26	-49.8	-76.9	3.5	3.02e+01	0	47	104	0	60	266886
2026-01-29 01:30:15.43	18.27	18.40	-52.1	-76.1	3.5	3.02e+01	0	46	104	0	60	243643
2026-01-29 01:30:16.44	18.21	18.53	-52.8	-75.2	3.5	3.02e+01	0	46	104	0	60	219433
2026-01-29 01:30:17.44	18.16	18.67	-50.0	-74.7	3.7	3.02e+01	0	46	104	0	60	206352
2026-01-29 01:30:18.45	18.10	18.80	-51.6	-74.6	3.8	3.02e+01	0	46	104	0	60	203615
2026-01-29 01:30:19.46	18.04	18.94	-51.9	-74.4	3.8	3.02e+01	0	46	104	0	60	200644
2026-01-29 01:30:20.47	17.98	19.08	-54.7	-74.5	3.9	3.02e+01	0	47	104	0	60	200933
2026-01-29 01:30:21.47	17.92	19.22	-54.7	-76.6	3.5	3.02e+01	0	47	104	0	60	257372
2026-01-29 01:30:22.48	17.86	19.35	-54.3	-76.8	3.6	3.02e+01	0	46	104	0	60	262426
2026-01-29 01:30:23.48	17.80	19.49	-53.0	-76.0	3.5	3.02e+01	0	46	104	0	60	238839
2026-01-29 01:30:24.49	17.74	19.63	-50.2	-75.5	3.5	3.02e+01	0	46	104	0	60	227540
2026-01-29 01:30:25.49	17.68	19.78	-50.6	-74.9	3.7	3.02e+01	0	46	104	0	60	210425
2026-01-29 01:30:26.49	17.62	19.92	-51.3	-74.6	3.8	3.02e+01	0	47	104	0	60	204711
2026-01-29 01:30:27.50	17.55	20.06	-52.1	-74.6	3.8	3.02e+01	0	46	104	0	60	205439
2026-01-29 01:30:28.50	17.49	20.20	-53.0	-75.2	3.6	3.02e+01	0	47	104	0	60	219206
2026-01-29 01:30:29.51	17.42	20.35	-53.5	-76.2	3.5	3.02e+01	0	46	104	0	60	246849
2026-01-29 01:30:30.52	17.36	20.50	-54.7	-76.8	3.5	3.02e+01	0	46	104	0	60	261883
2026-01-29 01:30:31.53	17.29	20.64	-55.1	-75.4	3.6	3.02e+01	0	47	104	0	60	224703
2026-01-29 01:30:32.53	17.23	20.79	-53.5	-76.1	3.5	3.02e+01	0	46	104	0	60	241503
2026-01-29 01:30:33.53	17.16	20.94	-54.4	-74.8	3.7	3.02e+01	0	47	104	0	60	208475
2026-01-29 01:30:34.54	17.09	21.09	-54.3	-74.7	3.5	3.02e+01	0	46	104	0	60	207740
2026-01-29 01:30:35.55	17.02	21.24	-54.4	-74.8	3.7	3.02e+01	0	46	104	0	60	207966
2026-01-29 01:30:36.55	16.95	21.39	-55.4	-74.5	3.7	3.02e+01	0	46	104	0	60	202402
2026-01-29 01:30:37.56	16.88	21.54	-54.1	-76.5	3.5	3.02e+01	0	47	104	0	60	253479
2026-01-29 01:30:38.57	16.81	21.70	-54.1	-76.7	3.5	3.02e+01	0	47	104	0	60	261042
2026-01-29 01:30:39.57	16.74	21.85	-56.0	-76.3	3.5	3.02e+01	0	47	104	0	60	248874
2026-01-29 01:30:40.58	16.67	22.01	-56.5	-76.7	3.5	3.02e+01	0	46	104	0	60	260825
2026-01-29 01:30:41.58	16.59	22.16	-55.2	-74.6	3.5	3.02e+01	0	46	104	0	60	203943
2026-01-29 01:30:42.59	16.52	22.32	-54.4	-74.7	3.6	3.02e+01	0	47	104	0	60	206959
2026-01-29 01:30:43.59	16.44	22.48	-54.5	-74.7	3.8	3.02e+01	0	46	104	0	60	207684
2026-01-29 01:30:44.60	16.37	22.64	-56.1	-75.0	3.7	3.02e+01	0	46	104	0	60	213267
2026-01-29 01:30:45.61	16.29	22.80	-55.1	-77.1	3.5	3.02e+01	0	47	104	0	60	273587
2026-01-29 01:30:46.62	16.21	22.96	-56.2	-77.0	3.5	3.02e+01	0	46	104	0	60	269264
2026-01-29 01:30:47.62	16.13	23.12	-56.4	-75.4	3.5	3.02e+01	0	46	104	0	60	225022
2026-01-29 01:30:48.63	16.05	23.28	-56.5	-76.4	3.5	3.02e+01	0	46	104	0	60	251277
2026-01-29 01:30:49.64	15.97	23.45	-56.1	-75.1	3.5	3.02e+01	0	46	104	0	60	215899
2026-01-29 01:30:50.65	15.89	23.62	-55.4	-75.3	3.7	3.02e+01	0	46	104	0	60	222706
2026-01-29 01:30:51.66	15.81	23.78	-54.9	-75.3	3.7	3.02e+01	0	46	104	0	60	220700
2026-01-29 01:30:52.66	15.73	23.95	-54.5	-75.6	3.5	3.02e+01	0	46	104	0	60	228938
2026-01-29 01:30:53.67	15.64	24.12	-55.4	-76.8	3.5	3.02e+01	0	46	104	0	60	263255
2026-01-29 01:30:54.67	15.56	24.29	-56.0	-76.8	3.5	3.02e+01	0	46	104	0	60	263617
2026-01-29 01:30:55.68	15.47	24.46	-56.0	-75.6	3.6	3.02e+01	0	46	104	0	60	229916
2026-01-29 01:30:56.68	15.38	24.63	-55.6	-76.4	3.5	3.02e+01	0	46	104	0	60	251310
2026-01-29 01:30:57.69	15.29	24.81	-54.7	-75.0	3.7	3.02e+01	0	47	104	0	60	213012
2026-01-29 01:30:58.70	15.20	24.98	-55.3	-75.2	3.5	3.02e+01	0	46	104	0	60	219793
2026-01-29 01:30:59.70	15.11	25.16	-55.8	-75.0	3.5	3.02e+01	0	46	104	0	60	215052
2026-01-29 01:31:00.70	15.02	25.33	-54.8	-75.5	3.6	3.02e+01	0	46	104	0	60	226029
2026-01-29 01:31:01.71	14.93	25.51	-54.8	-76.7	3.5	3.02e+01	0	47	104	0	60	261444
2026-01-29 01:31:02.72	14.83	25.69	-55.0	-76.2	3.5	3.02e+01	0	46	104	0	60	245573
2026-01-29 01:31:03.72	14.74	25.87	-55.8	-76.1	3.5	3.02e+01	0	46	104	0	60	242485
2026-01-29 01:31:04.73	14.64	26.05	-54.7	-76.2	3.5	3.02e+01	0	46	104	0	60	244438
2026-01-29 01:31:05.74	14.54	26.24	-54.8	-75.9	3.5	3.02e+01	0	47	104	0	60	236791
2026-01-29 01:31:06.75	14.45	26.42	-55.3	-76.1	3.5	3.02e+01	0	46	104	0	60	243347
2026-01-29 01:31:07.76	14.35	26.61	-55.7	-76.2	3.5	3.02e+01	0	47	104	0	60	244634
2026-01-29 01:31:08.76	14.24	26.79	-53.5	-76.8	3.5	3.02e+01	0	46	104	0	60	262104
2026-01-29 01:31:09.77	14.14	26.98	-55.7	-76.9	3.5	3.02e+01	0	47	104	0	60	267651
2026-01-29 01:31:10.77	14.04	27.17	-54.5	-76.8	3.5	3.02e+01	0	47	104	0	60	263634
2026-01-29 01:31:11.78	13.93	27.36	-56.3	-76.9	3.5	3.02e+01	0	47	104	0	60	267430
2026-01-29 01:31:12.79	13.83	27.56	-55.1	-75.1	3.5	3.02e+01	0	47	104	0	60	215448
2026-01-29 01:31:13.80	13.72	27.75	-54.2	-75.0	3.7	3.02e+01	0	47	104	0	60	213558
2026-01-29 01:31:14.80	13.61	27.94	-55.0	-75.1	3.8	3.02e+01	0	46	104	0	60	215426
2026-01-29 01:31:15.81	13.50	28.14	-55.1	-75.1	3.5	3.02e+01	0	47	104	0	60	217532
2026-01-29 01:31:16.81	13.39	28.34	-54.8	-76.1	3.5	3.02e+01	0	47	104	0	60	243701
2026-01-29 01:31:17.82	13.27	28.54	-55.3	-76.9	3.5	3.02e+01	0	47	104	0	60	265771
2026-01-29 01:31:18.83	13.15	28.74	-54.8	-76.2	3.5	3.02e+01	0	47	104	0	60	244626
2026-01-29 01:31:19.84	13.04	28.94	-55.0	-76.9	3.5	3.02e+01	0	46	104	0	60	265882
2026-01-29 01:31:20.85	12.92	29.15	-54.8	-75.5	3.6	3.02e+01	0	47	104	0	60	225679
2026-01-29 01:31:21.86	12.80	29.35	-54.9	-75.4	3.6	3.02e+01	0	47	104	0	60	224491
2026-01-29 01:31:22.86	12.68	29.56	-54.1	-75.6	3.5	3.02e+01	0	47	104	0	60	228554
2026-01-29 01:31:23.86	12.55	29.76	-53.9	-75.2	3.5	3.02e+01	0	47	104	0	60	220163
2026-01-29 01:31:24.87	12.43	29.97	-52.2	-76.8	3.5	3.02e+01	0	47	104	0	60	262421
2026-01-29 01:31:25.88	12.30	30.19	-54.4	-77.0	3.5	3.02e+01	0	46	104	0	60	268899
2026-01-29 01:31:26.89	12.17	30.40	-52.2	-76.4	3.5	3.02e+01	0	46	104	0	60	250380
2026-01-29 01:31:27.89	12.04	30.61	-56.4	-76.9	3.5	3.02e+01	0	47	104	0	60	266352
2026-01-29 01:31:28.90	11.91	30.83	-52.6	-75.5	3.5	3.02e+01	0	47	104	0	60	226491
2026-01-29 01:31:29.91	11.77	31.05	-52.7	-75.6	3.5	3.02e+01	0	47	104	0	60	229261
2026-01-29 01:31:30.92	11.64	31.27	-52.1	-75.6	3.5	3.02e+01	0	47	104	0	60	228346
2026-01-29 01:31:31.92	11.50	31.48	-53.3	-75.6	3.5	3.02e+01	0	47	104	0	60	228925
2026-01-29 01:31:32.93	11.36	31.71	-56.5	-77.0	3.5	3.02e+01	0	47	104	0	60	269920
2026-01-29 01:31:33.93	11.22	31.93	-56.5	-77.0	3.5	3.02e+01	0	47	104	0	60	268238
2026-01-29 01:31:34.94	11.07	32.15	-55.5	-76.6	3.5	3.02e+01	0	47	104	0	60	256754
2026-01-29 01:31:35.95	10.93	32.38	-55.7	-77.3	3.5	3.02e+01	0	47	104	0	60	277829
2026-01-29 01:31:36.96	10.78	32.61	-56.6	-76.4	3.5	3.02e+01	0	47	104	0	60	250887
2026-01-29 01:31:37.97	10.63	32.84	-56.5	-76.7	3.5	3.02e+01	0	47	104	0	60	259829
2026-01-29 01:31:38.97	10.47	33.07	-56.5	-76.6	3.5	3.02e+01	0	47	104	0	60	258624
2026-01-29 01:31:39.98	10.32	33.31	-56.4	-76.5	3.5	3.02e+01	0	46	104	0	60	253098
2026-01-29 01:31:40.99	10.16	33.54	-56.4	-77.3	3.5	3.02e+01	0	47	104	0	60	279969
2026-01-29 01:31:42.00	10.00	33.78	-56.0	-77.4	3.5	3.02e+01	0	46	104	0	60	281638
2026-01-29 01:31:43.00	9.84	34.02	-56.5	-76.7	3.5	3.02e+01	0	47	104	0	60	260411
2026-01-29 01:31:44.01	9.67	34.26	-56.7	-77.2	3.5	3.02e+01	0	46	104	0	60	274042
2026-01-29 01:31:45.01	9.50	34.50	-56.8	-76.5	3.5	3.02e+01	0	47	104	0	60	254889
2026-01-29 01:31:46.02	9.33	34.74	-56.7	-76.7	3.5	3.02e+01	0	46	104	0	60	258881
2026-01-29 01:31:47.02	9.16	34.98	-56.5	-76.6	3.5	3.02e+01	0	47	104	0	60	258052
2026-01-29 01:31:48.03	8.98	35.23	-56.7	-76.6	3.5	3.02e+01	0	47	104	0	60	257434
2026-01-29 01:31:49.03	8.81	35.48	-56.7	-77.5	3.5	3.02e+01	0	47	104	0	60	284430
2026-01-29 01:31:50.04	8.62	35.73	-57.1	-77.4	3.5	3.02e+01	0	47	104	0	60	281160
2026-01-29 01:31:51.05	8.44	35.98	-56.9	-76.5	3.5	3.02e+01	0	47	104	0	60	254000
2026-01-29 01:31:52.06	8.25	36.24	-57.0	-77.3	3.5	3.02e+01	0	47	104	0	60	280332
2026-01-29 01:31:53.06	8.06	36.49	-57.1	-77.1	3.6	3.02e+01	0	47	104	0	60	273399
2026-01-29 01:31:54.07	7.86	36.75	-56.7	-77.4	3.5	3.02e+01	0	47	104	0	60	281654
2026-01-29 01:31:55.08	7.67	37.01	-57.0	-76.7	3.5	3.02e+01	0	47	104	0	60	258751
2026-01-29 01:31:56.09	7.47	37.27	-56.7	-77.5	3.5	3.02e+01	0	47	104	0	60	286879
2026-01-29 01:31:57.10	7.26	37.54	-56.8	-77.1	3.5	3.02e+01	0	47	104	0	60	273555
2026-01-29 01:31:58.10	7.06	37.80	-56.5	-77.4	3.5	3.02e+01	0	47	104	0	60	282704
2026-01-29 01:31:59.11	6.84	38.07	-56.9	-76.7	3.5	3.02e+01	0	46	104	0	60	261147
2026-01-29 01:32:00.12	6.63	38.34	-56.8	-77.3	3.5	3.02e+01	0	46	104	0	60	277917
2026-01-29 01:32:01.12	6.41	38.60	-56.7	-77.0	3.5	3.02e+01	0	47	104	0	60	269582
2026-01-29 01:32:02.13	6.19	38.88	-56.5	-76.4	3.5	3.02e+01	0	47	104	0	60	251266
2026-01-29 01:32:03.14	5.96	39.15	-56.6	-77.1	3.5	3.02e+01	0	47	104	0	60	272288
2026-01-29 01:32:04.15	5.73	39.43	-56.6	-77.0	3.5	3.02e+01	0	46	104	0	60	269056
2026-01-29 01:32:05.15	5.50	39.70	-57.4	-77.4	3.5	3.02e+01	0	46	104	0	60	283141
2026-01-29 01:32:06.15	5.26	39.98	-57.3	-77.5	3.5	3.02e+01	0	47	104	0	60	286452
2026-01-29 01:32:07.16	5.02	40.26	-57.1	-77.3	3.5	3.02e+01	0	47	104	0	60	277339
2026-01-29 01:32:08.17	4.77	40.55	-57.1	-77.3	3.5	3.02e+01	0	47	104	0	60	277823
2026-01-29 01:32:09.17	4.52	40.83	-57.3	-76.8	3.6	3.02e+01	0	47	104	0	60	263902
2026-01-29 01:32:10.18	4.26	41.12	-57.2	-77.5	3.5	3.02e+01	0	47	104	0	60	283653
2026-01-29 01:32:11.19	4.00	41.40	-56.9	-77.1	3.5	3.02e+01	0	47	104	0	60	273859
2026-01-29 01:32:12.20	3.74	41.70	-57.1	-77.2	3.5	3.02e+01	0	47	104	0	60	274037
2026-01-29 01:32:13.21	3.46	41.99	-57.1	-76.9	3.5	3.02e+01	0	47	104	0	60	264988
2026-01-29 01:32:14.22	3.19	42.28	-57.3	-77.4	3.5	3.02e+01	0	46	104	0	60	281105
2026-01-29 01:32:15.23	2.91	42.58	-57.0	-77.1	3.5	3.02e+01	0	46	104	0	60	272737
2026-01-29 01:32:16.23	2.62	42.87	-56.7	-77.1	3.5	3.02e+01	0	47	104	0	60	271692
2026-01-29 01:32:17.24	2.33	43.17	-57.1	-76.7	3.5	3.02e+01	0	47	104	0	60	260670
2026-01-29 01:32:18.25	2.03	43.47	-56.9	-77.2	3.5	3.02e+01	0	46	104	0	60	274564
2026-01-29 01:32:19.26	1.73	43.77	-56.8	-76.9	3.5	3.02e+01	0	47	104	0	60	265658
2026-01-29 01:32:20.25	1.42	44.07	-56.5	-76.8	3.5	3.02e+01	0	47	104	0	60	262083
2026-01-29 01:32:21.26	1.11	44.38	-56.8	-76.7	3.5	3.02e+01	0	46	104	0	60	258963
2026-01-29 01:32:22.26	0.79	44.68	-56.4	-77.0	3.5	3.02e+01	0	47	104	0	60	269977
2026-01-29 01:32:23.27	0.46	44.99	-56.4	-76.6	3.6	3.02e+01	0	47	104	0	60	256585
2026-01-29 01:32:24.27	0.13	45.30	-55.7	-76.0	3.5	3.02e+01	0	47	104	0	60	240383
2026-01-29 01:32:25.28	359.78	45.61	-56.3	-76.0	3.5	3.02e+01	0	47	104	0	60	239137
2026-01-29 01:32:26.29	359.43	45.92	-55.3	-75.9	3.5	3.02e+01	0	47	104	0	60	236941
2026-01-29 01:32:27.29	359.08	46.23	-54.8	-75.5	3.6	3.02e+01	0	47	104	0	60	226268
2026-01-29 01:32:28.30	358.72	46.55	-54.8	-75.6	3.6	3.02e+01	0	47	104	0	60	230206
2026-01-29 01:32:29.31	358.34	46.86	-54.7	-75.7	3.6	3.02e+01	0	47	104	0	60	233044
2026-01-29 01:32:30.32	357.97	47.18	-55.0	-76.3	3.5	3.02e+01	0	47	104	0	60	247986
2026-01-29 01:32:31.33	357.58	47.50	-54.9	-76.0	3.6	3.02e+01	0	47	104	0	60	239627
2026-01-29 01:32:32.33	357.19	47.82	-55.1	-76.6	3.6	3.02e+01	0	46	104	0	60	256082
2026-01-29 01:32:33.34	356.78	48.14	-54.6	-75.7	3.6	3.02e+01	0	47	104	0	60	232653
2026-01-29 01:32:34.34	356.37	48.46	-54.8	-75.8	3.6	3.02e+01	0	47	104	0	60	235097
2026-01-29 01:32:35.35	355.95	48.78	-53.9	-75.7	3.5	3.02e+01	0	47	104	0	60	231037
2026-01-29 01:32:36.35	355.53	49.10	-54.1	-75.6	3.5	3.02e+01	0	46	104	0	60	229938
2026-01-29 01:32:37.36	355.09	49.42	-55.0	-76.0	3.6	3.02e+01	0	46	104	0	60	241227
2026-01-29 01:32:38.36	354.64	49.74	-54.9	-76.3	3.6	3.02e+01	0	47	104	0	60	248421
2026-01-29 01:32:39.37	354.18	50.07	-54.6	-75.9	3.5	3.02e+01	0	47	104	0	60	235959
2026-01-29 01:32:40.38	353.71	50.40	-55.0	-76.1	3.5	3.02e+01	0	47	104	0	60	243903
2026-01-29 01:32:41.39	353.24	50.72	-54.4	-75.2	3.5	3.02e+01	0	47	104	0	60	219691
2026-01-29 01:32:42.39	352.75	51.04	-55.1	-75.3	3.6	3.02e+01	0	46	104	0	60	220258
2026-01-29 01:32:43.40	352.25	51.37	-55.0	-75.5	3.5	3.02e+01	0	46	104	0	60	226667
2026-01-29 01:32:44.41	351.74	51.70	-54.8	-75.7	3.5	3.02e+01	0	47	104	0	60	231733
2026-01-29 01:32:45.41	351.22	52.02	-55.8	-76.9	3.5	3.02e+01	0	46	104	0	60	265222
2026-01-29 01:32:46.42	350.68	52.35	-56.0	-76.9	3.5	3.02e+01	0	47	104	0	60	266406
2026-01-29 01:32:47.43	350.13	52.67	-56.1	-76.8	3.5	3.02e+01	0	46	104	0	60	264178
2026-01-29 01:32:48.43	349.58	52.99	-56.1	-77.2	3.5	3.02e+01	0	47	104	0	60	274662
2026-01-29 01:32:49.44	349.01	53.32	-55.9	-76.4	3.6	3.02e+01	0	46	104	0	60	251388
2026-01-29 01:32:50.45	348.42	53.64	-56.3	-77.0	3.5	3.02e+01	0	47	104	0	60	268364
2026-01-29 01:32:51.45	347.83	53.96	-55.9	-76.7	3.5	3.02e+01	0	47	104	0	60	261396
2026-01-29 01:32:52.46	347.21	54.28	-56.1	-77.1	3.5	3.02e+01	0	46	104	0	60	271439
2026-01-29 01:32:53.46	346.59	54.60	-55.9	-77.4	3.5	3.02e+01	0	46	104	0	60	283144
2026-01-29 01:32:54.46	345.96	54.92	-56.0	-77.3	3.5	3.02e+01	0	46	104	0	60	277536
2026-01-29 01:32:55.47	345.30	55.23	-55.7	-77.4	3.5	3.02e+01	0	47	104	0	60	280962
2026-01-29 01:32:56.48	344.63	55.55	-56.0	-77.5	3.5	3.02e+01	0	47	104	0	60	283757
2026-01-29 01:32:57.49	343.95	55.86	-56.8	-77.3	3.5	3.02e+01	0	47	104	0	60	279121
2026-01-29 01:32:58.49	343.25	56.17	-56.7	-77.5	3.5	3.02e+01	0	47	104	0	60	283657
2026-01-29 01:32:59.50	342.53	56.48	-56.3	-77.4	3.5	3.02e+01	0	47	104	0	60	280785
2026-01-29 01:33:00.51	341.80	56.79	-56.6	-77.6	3.5	3.02e+01	0	47	104	0	60	287309
2026-01-29 01:33:01.52	341.05	57.09	-57.2	-77.3	3.5	3.02e+01	0	47	104	0	60	280105
2026-01-29 01:33:02.52	340.29	57.39	-57.3	-77.6	3.5	3.02e+01	0	47	104	0	60	287017
2026-01-29 01:33:03.53	339.50	57.68	-56.9	-77.6	3.5	3.02e+01	0	47	104	0	60	288656
2026-01-29 01:33:04.54	338.70	57.98	-57.5	-77.7	3.5	3.02e+01	0	47	104	0	60	292648
2026-01-29 01:33:05.55	337.88	58.27	-57.2	-77.3	3.5	3.02e+01	0	47	104	0	60	279487
2026-01-29 01:33:06.55	337.05	58.55	-57.1	-77.7	3.5	3.02e+01	0	46	104	0	60	290871
2026-01-29 01:33:07.56	336.19	58.83	-57.4	-77.7	3.5	3.02e+01	0	47	104	0	60	290783
2026-01-29 01:33:08.56	335.33	59.10	-56.7	-77.7	3.5	3.02e+01	0	47	104	0	60	292025
2026-01-29 01:33:09.57	334.43	59.37	-55.9	-77.2	3.5	3.02e+01	0	47	104	0	60	275950
2026-01-29 01:33:10.58	333.52	59.64	-56.3	-77.4	3.5	3.02e+01	0	47	104	0	60	281959
2026-01-29 01:33:11.59	332.59	59.90	-56.5	-77.5	3.5	3.02e+01	0	47	104	0	60	284857
2026-01-29 01:33:12.59	331.65	60.15	-56.2	-77.4	3.5	3.02e+01	0	47	104	0	60	282772
2026-01-29 01:33:13.60	330.68	60.40	-55.7	-76.6	3.5	3.02e+01	0	47	104	0	60	256788
2026-01-29 01:33:14.61	329.70	60.64	-55.8	-77.1	3.5	3.02e+01	0	46	104	0	60	273282
2026-01-29 01:33:15.62	328.69	60.88	-55.8	-77.0	3.5	3.02e+01	0	47	104	0	60	270341
2026-01-29 01:33:16.62	327.67	61.10	-55.4	-76.7	3.5	3.02e+01	0	47	104	0	60	259946
2026-01-29 01:33:17.63	326.63	61.32	-55.5	-76.5	3.5	3.02e+01	0	47	104	0	60	254891
2026-01-29 01:33:18.64	325.57	61.54	-55.5	-76.7	3.5	3.02e+01	0	47	104	0	60	259824
2026-01-29 01:33:19.64	324.50	61.74	-55.6	-76.8	3.5	3.02e+01	0	46	104	0	60	264559
2026-01-29 01:33:20.65	323.40	61.94	-56.3	-77.2	3.5	3.02e+01	0	47	104	0	60	274681
2026-01-29 01:33:21.66	322.28	62.12	-56.0	-77.0	3.5	3.02e+01	0	47	104	0	60	270328
2026-01-29 01:33:22.67	321.15	62.30	-56.3	-77.2	3.5	3.02e+01	0	47	104	0	60	276213
2026-01-29 01:33:23.67	320.01	62.47	-56.4	-77.3	3.5	3.02e+01	0	47	104	0	60	278004
2026-01-29 01:33:24.67	318.86	62.63	-56.2	-77.1	3.5	3.02e+01	0	47	104	0	60	270904
2026-01-29 01:33:25.68	317.68	62.78	-56.0	-76.8	3.5	3.02e+01	0	47	104	0	60	261771
2026-01-29 01:33:26.68	316.50	62.92	-56.2	-76.9	3.5	3.02e+01	0	47	104	0	60	265207
2026-01-29 01:33:27.69	315.29	63.05	-56.3	-77.1	3.5	3.02e+01	0	46	104	0	60	271557
2026-01-29 01:33:28.70	314.07	63.17	-56.1	-76.7	3.5	3.02e+01	0	47	104	0	60	260774
2026-01-29 01:33:29.71	312.83	63.28	-55.6	-76.4	3.5	3.02e+01	0	47	104	0	60	250537
2026-01-29 01:33:30.72	311.59	63.38	-55.7	-76.5	3.5	3.02e+01	0	47	104	0	60	254834
2026-01-29 01:33:31.72	310.34	63.47	-55.3	-76.7	3.5	3.02e+01	0	47	104	0	60	258853
2026-01-29 01:33:32.73	309.08	63.55	-55.3	-76.9	3.5	3.02e+01	0	47	104	0	60	266796
2026-01-29 01:33:33.74	307.81	63.61	-55.8	-77.4	3.5	3.02e+01	0	47	104	0	60	281795
2026-01-29 01:33:34.75	306.53	63.67	-55.1	-77.0	3.5	3.02e+01	0	46	104	0	60	268335
2026-01-29 01:33:35.76	305.25	63.71	-54.7	-76.9	3.5	3.02e+01	0	47	104	0	60	265651
2026-01-29 01:33:36.77	303.96	63.74	-56.0	-77.3	3.5	3.02e+01	0	47	104	0	60	280106
2026-01-29 01:33:37.77	302.68	63.76	-55.9	-76.9	3.5	3.02e+01	0	47	104	0	60	265883
2026-01-29 01:33:38.78	301.39	63.76	-55.4	-77.1	3.5	3.02e+01	0	47	104	0	60	271486
2026-01-29 01:33:39.78	300.11	63.76	-55.1	-76.9	3.5	3.02e+01	0	47	104	0	60	266911
2026-01-29 01:33:40.79	298.82	63.74	-54.7	-77.2	3.5	3.02e+01	0	47	104	0	60	274187
2026-01-29 01:33:41.80	297.54	63.71	-55.1	-77.4	3.5	3.02e+01	0	47	104	0	60	280983
2026-01-29 01:33:42.80	296.26	63.67	-54.7	-77.1	3.5	3.02e+01	0	47	104	0	60	271210
2026-01-29 01:33:43.80	295.00	63.62	-54.9	-77.3	3.5	3.02e+01	0	47	104	0	60	277694
2026-01-29 01:33:44.81	293.73	63.56	-55.6	-77.2	3.5	3.02e+01	0	47	104	0	60	276381
2026-01-29 01:33:45.82	292.46	63.48	-56.0	-76.7	3.5	3.02e+01	0	46	104	0	60	259407
2026-01-29 01:33:46.83	291.20	63.40	-55.9	-77.1	3.5	3.02e+01	0	47	104	0	60	273025
2026-01-29 01:33:47.83	289.97	63.30	-56.0	-77.0	3.5	3.02e+01	0	46	104	0	60	267858
2026-01-29 01:33:48.84	288.73	63.19	-55.5	-75.8	3.6	3.02e+01	0	47	104	0	60	234350
2026-01-29 01:33:49.84	287.52	63.07	-55.5	-75.7	3.6	3.02e+01	0	46	104	0	60	231108
2026-01-29 01:33:50.85	286.31	62.94	-55.3	-75.8	3.5	3.02e+01	0	47	104	0	60	234943
2026-01-29 01:33:51.86	285.11	62.81	-55.2	-76.2	3.5	3.02e+01	0	46	104	0	60	244305
2026-01-29 01:33:52.86	283.94	62.66	-55.1	-76.4	3.5	3.02e+01	0	46	104	0	60	251593
2026-01-29 01:33:53.86	282.78	62.50	-55.0	-76.0	3.5	3.02e+01	0	46	104	0	60	239024
2026-01-29 01:33:54.87	281.63	62.33	-55.2	-76.5	3.5	3.02e+01	0	46	104	0	60	252880
2026-01-29 01:33:55.88	280.49	62.15	-54.9	-76.6	3.5	3.02e+01	0	46	104	0	60	257982
2026-01-29 01:33:56.88	279.38	61.97	-55.0	-76.2	3.6	3.02e+01	0	47	104	0	60	245598
2026-01-29 01:33:57.88	278.29	61.77	-55.1	-76.6	3.5	3.02e+01	0	47	104	0	60	257027
2026-01-29 01:33:58.89	277.21	61.57	-54.9	-77.0	3.6	3.02e+01	0	47	104	0	60	269062
2026-01-29 01:33:59.89	276.15	61.36	-54.9	-77.1	3.5	3.02e+01	0	47	104	0	60	273717
2026-01-29 01:34:00.90	275.10	61.14	-55.5	-77.4	3.5	3.02e+01	0	47	104	0	60	280981
2026-01-29 01:34:01.89	274.10	60.92	-55.9	-77.2	3.5	3.02e+01	0	47	104	0	60	274761
2026-01-29 01:34:02.90	273.08	60.68	-55.2	-77.1	3.5	3.02e+01	0	47	104	0	60	273213
2026-01-29 01:34:03.90	272.10	60.44	-55.6	-77.4	3.5	3.02e+01	0	47	104	0	60	283420
2026-01-29 01:34:04.90	271.14	60.20	-55.2	-76.3	3.5	3.02e+01	0	47	104	0	60	247984
2026-01-29 01:34:05.91	270.18	59.95	-55.3	-75.9	3.5	3.02e+01	0	47	104	0	60	238160
2026-01-29 01:34:06.91	269.26	59.69	-56.1	-76.4	3.5	3.02e+01	0	47	104	0	60	251656
2026-01-29 01:34:07.92	268.34	59.42	-56.3	-76.5	3.5	3.02e+01	0	46	104	0	60	254028
2026-01-29 01:34:08.93	267.44	59.15	-56.8	-76.6	3.5	3.02e+01	0	47	104	0	60	256637
2026-01-29 01:34:09.94	266.56	58.88	-56.5	-76.5	3.5	3.02e+01	0	46	104	0	60	255310
2026-01-29 01:34:10.94	265.71	58.60	-56.9	-76.7	3.5	3.02e+01	0	46	104	0	60	259516
2026-01-29 01:34:11.95	264.87	58.32	-57.2	-77.0	3.5	3.02e+01	0	47	104	0	60	268123
2026-01-29 01:34:12.95	264.05	58.03	-56.9	-76.5	3.5	3.02e+01	0	47	104	0	60	252848
2026-01-29 01:34:13.96	263.25	57.74	-57.0	-76.9	3.6	3.02e+01	0	47	104	0	60	266301
2026-01-29 01:34:14.96	262.46	57.44	-57.3	-76.8	3.5	3.02e+01	0	47	104	0	60	262785
2026-01-29 01:34:15.96	261.70	57.15	-57.3	-76.8	3.5	3.02e+01	0	47	104	0	60	264437
2026-01-29 01:34:16.97	260.94	56.84	-57.4	-76.6	3.5	3.02e+01	0	47	104	0	60	257958
2026-01-29 01:34:17.98	260.21	56.54	-57.4	-76.0	3.5	3.02e+01	0	47	104	0	60	239046
2026-01-29 01:34:18.98	259.49	56.23	-57.2	-76.6	3.5	3.02e+01	0	47	104	0	60	255947
2026-01-29 01:34:19.99	258.78	55.92	-57.1	-76.5	3.5	3.02e+01	0	47	104	0	60	254338
2026-01-29 01:34:21.00	258.09	55.61	-56.3	-76.7	3.5	3.02e+01	0	47	104	0	60	259185
2026-01-29 01:34:22.00	257.42	55.29	-57.2	-77.2	3.5	3.02e+01	0	47	104	0	60	275895
2026-01-29 01:34:23.01	256.76	54.98	-55.3	-75.1	3.5	3.02e+01	0	47	104	0	60	215808
2026-01-29 01:34:24.02	256.12	54.66	-55.7	-75.5	3.5	3.02e+01	0	47	104	0	60	227350
2026-01-29 01:34:25.03	255.49	54.34	-55.3	-74.5	3.6	3.02e+01	0	47	104	0	60	201546
2026-01-29 01:34:26.04	254.87	54.01	-55.3	-74.0	3.7	3.02e+01	0	47	104	0	60	190651
2026-01-29 01:34:27.05	254.27	53.69	-55.4	-74.4	3.6	3.02e+01	0	47	104	0	60	198784
2026-01-29 01:34:28.06	253.68	53.37	-55.5	-74.1	3.7	3.02e+01	0	47	104	0	60	193022
2026-01-29 01:34:29.06	253.11	53.04	-55.3	-75.1	3.5	3.02e+01	0	47	104	0	60	216772
2026-01-29 01:34:30.06	252.55	52.72	-55.7	-76.0	3.6	3.02e+01	0	47	104	0	60	239719
2026-01-29 01:34:31.07	252.00	52.40	-55.9	-75.3	3.6	3.02e+01	0	47	104	0	60	222174
2026-01-29 01:34:32.08	251.46	52.07	-56.1	-76.1	3.5	3.02e+01	0	47	104	0	60	242503
2026-01-29 01:34:33.08	250.94	51.74	-55.7	-73.7	4.0	3.02e+01	0	47	104	0	60	184446
2026-01-29 01:34:34.08	250.43	51.42	-55.7	-73.4	4.1	3.02e+01	0	47	104	0	60	178663
2026-01-29 01:34:35.09	249.93	51.09	-56.0	-74.1	3.9	3.02e+01	0	47	104	0	60	193888
2026-01-29 01:34:36.10	249.43	50.77	-56.0	-73.9	3.9	3.02e+01	0	47	104	0	60	189322
2026-01-29 01:34:37.10	248.95	50.44	-55.9	-74.6	3.5	3.02e+01	0	46	104	0	60	205007
2026-01-29 01:34:38.11	248.48	50.12	-55.9	-75.8	3.5	3.02e+01	0	47	104	0	60	234296
2026-01-29 01:34:39.11	248.03	49.79	-56.0	-75.3	3.5	3.02e+01	0	47	104	0	60	222340
2026-01-29 01:34:40.12	247.57	49.47	-55.8	-76.3	3.5	3.02e+01	0	47	104	0	60	248609
2026-01-29 01:34:41.13	247.13	49.14	-55.8	-73.6	3.8	3.02e+01	0	47	104	0	60	181930
2026-01-29 01:34:42.13	246.70	48.82	-55.9	-73.7	3.8	3.02e+01	0	47	104	0	60	183153
2026-01-29 01:34:43.14	246.28	48.50	-56.0	-73.3	4.0	3.02e+01	0	47	104	0	60	175106
2026-01-29 01:34:44.14	245.87	48.18	-56.1	-73.6	3.9	3.02e+01	0	47	104	0	60	182830
2026-01-29 01:34:45.15	245.46	47.86	-56.2	-75.9	3.6	3.02e+01	0	47	104	0	60	236171
2026-01-29 01:34:46.16	245.06	47.54	-56.1	-75.9	3.5	3.02e+01	0	47	104	0	60	236194
2026-01-29 01:34:47.16	244.68	47.22	-55.8	-75.2	3.5	3.02e+01	0	46	104	0	60	219917
2026-01-29 01:34:48.17	244.30	46.90	-55.9	-75.1	3.5	3.02e+01	0	47	104	0	60	217597
2026-01-29 01:34:49.17	243.93	46.59	-56.3	-73.8	3.8	3.02e+01	0	47	104	0	60	186639
2026-01-29 01:34:50.17	243.56	46.27	-56.2	-74.0	3.8	3.02e+01	0	47	104	0	60	190276
2026-01-29 01:34:51.18	243.21	45.96	-56.3	-73.9	3.8	3.02e+01	0	47	104	0	60	189171
2026-01-29 01:34:52.18	242.86	45.65	-56.3	-74.0	3.8	3.02e+01	0	46	104	0	60	190727
2026-01-29 01:34:53.19	242.51	45.33	-57.0	-76.0	3.5	3.02e+01	0	47	104	0	60	239685
2026-01-29 01:34:54.20	242.18	45.02	-55.9	-75.7	3.5	3.02e+01	0	47	104	0	60	230693
2026-01-29 01:34:55.20	241.85	44.72	-57.3	-74.9	3.6	3.02e+01	0	47	104	0	60	211892
2026-01-29 01:34:56.21	241.52	44.41	-57.2	-76.1	3.5	3.02e+01	0	46	104	0	60	242778
2026-01-29 01:34:57.22	241.21	44.10	-57.3	-74.8	3.6	3.02e+01	0	47	104	0	60	209056
2026-01-29 01:34:58.22	240.90	43.80	-57.4	-75.0	3.5	3.02e+01	0	47	104	0	60	214402
2026-01-29 01:34:59.23	240.59	43.50	-57.4	-74.7	3.8	3.02e+01	0	47	104	0	60	206547
2026-01-29 01:35:00.24	240.29	43.19	-57.3	-74.6	3.8	3.02e+01	0	46	104	0	60	205280
2026-01-29 01:35:01.25	240.00	42.89	-56.7	-75.8	3.5	3.02e+01	0	47	104	0	60	235265
2026-01-29 01:35:02.25	239.71	42.60	-57.0	-76.0	3.5	3.02e+01	0	47	104	0	60	241419
2026-01-29 01:35:03.25	239.43	42.30	-56.5	-75.0	3.5	3.02e+01	0	47	104	0	60	213122
2026-01-29 01:35:04.26	239.15	42.01	-56.3	-76.1	3.5	3.02e+01	0	47	104	0	60	242153
2026-01-29 01:35:05.26	238.88	41.72	-56.6	-75.3	3.5	3.02e+01	0	47	104	0	60	222323
2026-01-29 01:35:06.26	238.61	41.43	-56.5	-74.9	3.6	3.02e+01	0	47	104	0	60	212092
2026-01-29 01:35:07.27	238.35	41.14	-56.5	-75.2	3.5	3.02e+01	0	47	104	0	60	218770
2026-01-29 01:35:08.27	238.10	40.85	-56.4	-75.1	3.5	3.02e+01	0	47	104	0	60	216886
2026-01-29 01:35:09.27	237.84	40.57	-56.4	-76.3	3.5	3.02e+01	0	47	104	0	60	247740
2026-01-29 01:35:10.28	237.60	40.28	-56.5	-76.4	3.5	3.02e+01	0	46	104	0	60	250908
2026-01-29 01:35:11.29	237.35	40.00	-56.4	-75.1	3.6	3.02e+01	0	47	104	0	60	215785
2026-01-29 01:35:12.29	237.11	39.72	-56.8	-74.5	3.6	3.02e+01	0	47	104	0	60	202139
2026-01-29 01:35:13.30	236.88	39.44	-56.4	-75.8	3.5	3.02e+01	0	47	104	0	60	233385
2026-01-29 01:35:14.31	236.64	39.17	-56.6	-75.3	3.5	3.02e+01	0	47	104	0	60	222096
2026-01-29 01:35:15.32	236.42	38.89	-56.7	-75.6	3.5	3.02e+01	0	47	104	0	60	228903
2026-01-29 01:35:16.32	236.19	38.62	-56.9	-75.5	3.5	3.02e+01	0	47	104	0	60	226275
2026-01-29 01:35:17.33	235.97	38.35	-57.0	-76.4	3.5	3.02e+01	0	47	104	0	60	251021
2026-01-29 01:35:18.34	235.76	38.08	-57.1	-76.9	3.5	3.02e+01	0	47	104	0	60	265615
2026-01-29 01:35:19.35	235.54	37.81	-56.4	-75.3	3.5	3.02e+01	0	47	104	0	60	221693
2026-01-29 01:35:20.36	235.34	37.54	-56.6	-74.9	3.6	3.02e+01	0	47	104	0	60	211634
2026-01-29 01:35:21.36	235.13	37.28	-57.1	-75.9	3.5	3.02e+01	0	46	104	0	60	238397
2026-01-29 01:35:22.37	234.93	37.02	-57.2	-74.9	3.5	3.02e+01	0	47	104	0	60	211534
2026-01-29 01:35:23.38	234.73	36.75	-57.1	-75.3	3.5	3.02e+01	0	47	104	0	60	220518
2026-01-29 01:35:24.38	234.54	36.50	-57.1	-75.3	3.5	3.02e+01	0	47	104	0	60	221569
2026-01-29 01:35:25.39	234.34	36.24	-57.2	-76.4	3.5	3.02e+01	0	47	104	0	60	251544
2026-01-29 01:35:26.39	234.16	35.99	-57.1	-76.8	3.5	3.02e+01	0	47	104	0	60	263120
2026-01-29 01:35:27.40	233.97	35.73	-57.0	-74.9	3.6	3.02e+01	0	47	104	0	60	212027
2026-01-29 01:35:28.41	233.79	35.48	-56.9	-74.9	3.6	3.02e+01	0	47	104	0	60	211550
2026-01-29 01:35:29.42	233.61	35.23	-57.2	-75.6	3.5	3.02e+01	0	47	104	0	60	230080
2026-01-29 01:35:30.43	233.43	34.98	-57.1	-75.7	3.5	3.02e+01	0	47	104	0	60	231029
2026-01-29 01:35:31.44	233.25	34.73	-57.2	-75.5	3.6	3.02e+01	0	47	104	0	60	226041
2026-01-29 01:35:32.45	233.08	34.49	-57.1	-75.2	3.5	3.02e+01	0	47	104	0	60	218342
2026-01-29 01:35:33.45	232.91	34.25	-57.1	-76.3	3.5	3.02e+01	0	47	104	0	60	248415
2026-01-29 01:35:34.46	232.75	34.01	-56.9	-76.0	3.5	3.02e+01	0	47	104	0	60	239834
2026-01-29 01:35:35.47	232.58	33.77	-56.8	-74.6	3.6	3.02e+01	0	47	104	0	60	205177
2026-01-29 01:35:36.47	232.42	33.53	-56.6	-74.9	3.7	3.02e+01	0	47	104	0	60	210361
2026-01-29 01:35:37.48	232.26	33.29	-57.1	-75.0	3.5	3.02e+01	0	47	104	0	60	214428
2026-01-29 01:35:38.49	232.11	33.06	-57.0	-75.6	3.5	3.02e+01	0	47	104	0	60	228626
2026-01-29 01:35:39.49	231.95	32.83	-57.0	-75.6	3.5	3.02e+01	0	47	104	0	60	229223
2026-01-29 01:35:40.49	231.80	32.60	-57.0	-74.8	3.7	3.02e+01	0	47	104	0	60	209613
2026-01-29 01:35:41.50	231.65	32.37	-57.0	-76.3	3.5	3.02e+01	0	47	104	0	60	248979
2026-01-29 01:35:42.51	231.50	32.14	-56.8	-74.8	3.5	3.02e+01	0	47	104	0	60	208130
2026-01-29 01:35:43.52	231.36	31.91	-56.8	-74.8	3.7	3.02e+01	0	47	104	0	60	209150
2026-01-29 01:35:44.53	231.21	31.69	-56.6	-74.0	4.0	3.02e+01	0	47	104	0	60	190054
2026-01-29 01:35:45.53	231.07	31.47	-56.9	-71.8	4.9	3.02e+01	0	47	104	0	60	147996
2026-01-29 01:35:46.54	230.93	31.24	-56.9	-72.4	4.8	3.02e+01	0	47	104	0	60	158325
2026-01-29 01:35:47.55	230.80	31.02	-56.9	-72.1	4.7	3.02e+01	0	47	104	0	60	153076
2026-01-29 01:35:48.56	230.66	30.80	-56.8	-71.6	4.9	3.02e+01	0	47	104	0	60	145466
2026-01-29 01:35:49.56	230.53	30.59	-56.8	-71.6	4.9	3.02e+01	0	47	104	0	60	144998
2026-01-29 01:35:50.57	230.40	30.37	-56.7	-70.9	5.6	3.02e+01	0	47	104	0	60	132708
2026-01-29 01:35:51.58	230.27	30.16	-56.6	-70.7	3.9	3.02e+01	0	47	104	0	60	130274
2026-01-29 01:35:52.59	230.14	29.95	-56.5	-70.1	5.6	3.02e+01	0	47	0	0	60	122183
2026-01-29 01:35:53.60	230.01	29.74	-56.4	-69.0	5.9	3.02e+01	0	47	0	1048576	60	106816
2026-01-29 01:35:54.60	229.89	29.53	-56.4	-70.4	3.9	3.02e+01	0	47	104	2621440	60	126191
2026-01-29 01:35:55.60	229.77	29.32	-56.3	-70.0	5.7	3.02e+01	0	47	0	2621440	60	120646
2026-01-29 01:35:56.61	229.64	29.12	-56.1	-70.8	5.4	3.02e+01	0	47	104	524288	60	131581
2026-01-29 01:35:57.61	229.53	28.91	-55.9	-69.3	5.9	3.02e+01	0	47	0	524288	60	110582
2026-01-29 01:35:58.62	229.41	28.71	-55.7	-67.2	7.3	3.02e+01	0	47	0	2097152	60	87358
2026-01-29 01:35:59.63	229.29	28.51	-55.6	-66.5	8.2	3.02e+01	0	46	0	4194304	60	80831
2026-01-29 01:36:00.64	229.18	28.31	-55.6	-66.1	8.6	3.02e+01	0	47	0	5767168	60	76598
2026-01-29 01:36:01.64	229.06	28.11	-55.6	-66.0	8.7	3.02e+01	0	47	0	7864320	60	75780
2026-01-29 01:36:02.65	228.95	27.91	-55.5	-66.0	8.6	3.02e+01	0	46	0	9961472	60	75593
2026-01-29 01:36:03.66	228.84	27.71	-55.6	-66.0	8.5	3.02e+01	0	46	0	11534336	60	75662
2026-01-29 01:36:04.67	228.73	27.52	-55.5	-65.9	8.5	3.02e+01	0	47	0	13631488	60	75280
2026-01-29 01:36:05.68	228.62	27.33	-55.6	-65.8	8.7	3.02e+01	0	47	0	15204352	60	74593
2026-01-29 01:36:06.69	228.52	27.13	-55.5	-65.6	8.9	3.02e+01	0	47	0	17301504	60	72447
2026-01-29 01:36:07.69	228.41	26.94	-55.5	-65.7	8.7	3.02e+01	0	47	0	19398656	60	73379
2026-01-29 01:36:08.70	228.31	26.75	-55.5	-65.7	8.8	3.02e+01	0	47	0	20971520	60	73338
2026-01-29 01:36:09.71	228.21	26.57	-55.6	-65.8	8.8	3.02e+01	0	47	0	23068672	60	74468
2026-01-29 01:36:10.71	228.11	26.38	-55.6	-65.6	9.0	3.02e+01	0	47	0	24641536	60	72675
2026-01-29 01:36:11.72	228.01	26.19	-55.5	-65.0	9.9	3.02e+01	0	47	0	26738688	60	67876
2026-01-29 01:36:12.72	227.91	26.01	-55.5	-65.1	9.8	3.02e+01	0	47	0	28835840	60	68343
2026-01-29 01:36:13.73	227.81	25.83	-55.4	-64.7	10.3	3.02e+01	0	46	0	30408704	60	65469
2026-01-29 01:36:14.73	227.72	25.65	-55.5	-64.4	10.7	3.02e+01	0	47	0	32505856	60	62904
2026-01-29 01:36:15.74	227.62	25.47	-55.5	-64.5	10.6	3.02e+01	0	47	0	34078720	60	64140
2026-01-29 01:36:16.75	227.53	25.29	-55.4	-64.0	11.2	3.02e+01	0	47	0	36175872	60	60060
2026-01-29 01:36:17.75	227.44	25.11	-55.3	-63.3	11.9	3.02e+01	0	47	0	38273024	60	55893
2026-01-29 01:36:18.75	227.35	24.94	-55.4	-63.8	11.7	3.02e+01	0	47	0	39845888	60	59247
2026-01-29 01:36:19.76	227.26	24.76	-55.4	-63.6	11.9	3.02e+01	0	47	0	41943040	60	57543
2026-01-29 01:36:20.77	227.17	24.58	-55.2	-63.1	11.6	3.02e+01	0	47	0	43515904	60	54492
2026-01-29 01:36:21.78	227.08	24.41	-55.3	-63.7	11.3	3.02e+01	0	47	0	45613056	60	58192
2026-01-29 01:36:22.79	226.99	24.24	-55.2	-63.6	11.7	3.02e+01	0	47	0	47710208	60	57535
2026-01-29 01:36:23.79	226.91	24.07	-55.0	-63.3	11.1	3.02e+01	0	47	0	49283072	60	55413
2026-01-29 01:36:24.80	226.82	23.90	-54.9	-63.7	10.7	3.02e+01	0	46	0	51380224	60	58232
2026-01-29 01:36:25.80	226.74	23.73	-54.8	-63.8	10.3	3.02e+01	0	47	0	52953088	60	58885
2026-01-29 01:36:26.81	226.65	23.56	-54.6	-64.1	9.9	3.02e+01	0	46	0	55050240	60	61282
2026-01-29 01:36:27.81	226.57	23.40	-54.2	-63.8	10.1	3.02e+01	0	46	0	57147392	60	58770
2026-01-29 01:36:28.82	226.49	23.23	-53.8	-62.0	11.9	3.02e+01	0	46	0	58720256	60	48140
2026-01-29 01:36:29.83	226.41	23.07	-53.6	-61.9	11.7	3.02e+01	0	46	0	60817408	60	47456
2026-01-29 01:36:30.83	226.33	22.91	-53.5	-62.2	11.9	3.02e+01	0	47	0	62390272	60	49245
2026-01-29 01:36:31.84	226.25	22.74	-53.3	-62.2	11.5	3.02e+01	0	46	0	64487424	60	49122
2026-01-29 01:36:32.85	226.17	22.58	-53.0	-62.6	11.0	3.02e+01	0	47	0	66584576	60	51333
2026-01-29 01:36:33.86	226.10	22.42	-52.8	-62.3	11.5	3.02e+01	0	47	0	68157440	60	49395
2026-01-29 01:36:34.87	226.02	22.26	-52.9	-62.3	11.0	3.02e+01	0	46	0	70254592	60	49591
2026-01-29 01:36:35.88	225.95	22.10	-53.0	-62.7	10.8	3.02e+01	0	46	0	71827456	60	52112
2026-01-29 01:36:36.89	225.87	21.95	-52.8	-62.0	11.8	3.02e+01	0	46	0	73924608	60	47885
2026-01-29 01:36:37.89	225.80	21.79	-53.0	-62.3	11.6	3.02e+01	0	47	0	76021760	60	49751
2026-01-29 01:36:38.90	225.73	21.64	-53.0	-61.8	12.5	3.02e+01	0	46	0	77594624	60	47029
2026-01-29 01:36:39.91	225.65	21.48	-53.0	-61.8	12.6	3.02e+01	0	46	0	79691776	60	46931
2026-01-29 01:36:40.92	225.58	21.33	-53.0	-61.2	13.2	3.02e+01	0	46	0	81788928	60	43902
2026-01-29 01:36:41.93	225.51	21.18	-53.0	-60.4	14.3	3.02e+01	0	46	0	83361792	60	39985
2026-01-29 01:36:42.93	225.44	21.03	-53.0	-60.0	14.8	3.02e+01	0	47	0	85458944	60	38184
2026-01-29 01:36:43.94	225.37	20.87	-53.0	-59.9	14.8	3.02e+01	0	47	0	87031808	60	37769
2026-01-29 01:36:44.95	225.31	20.72	-53.2	-61.1	13.6	3.02e+01	0	47	0	89128960	60	43036
2026-01-29 01:36:45.96	225.24	20.58	-53.1	-60.1	14.6	3.02e+01	0	47	0	91226112	60	38415
2026-01-29 01:36:46.97	225.17	20.43	-53.2	-60.1	13.9	3.02e+01	0	46	0	92798976	60	38668
2026-01-29 01:36:47.97	225.11	20.28	-53.2	-60.3	14.6	3.02e+01	0	47	0	94896128	60	39466
2026-01-29 01:36:48.98	225.04	20.14	-53.0	-59.8	14.4	3.02e+01	0	47	0	96468992	60	37206
2026-01-29 01:36:49.99	224.98	19.99	-53.0	-60.0	13.8	3.02e+01	0	47	0	98566144	60	37951
2026-01-29 01:36:51.00	224.91	19.85	-52.9	-60.1	13.6	3.02e+01	0	46	0	100139008	60	38615
2026-01-29 01:36:52.01	224.85	19.70	-52.8	-59.6	14.4	3.02e+01	0	47	0	102236160	60	36428
2026-01-29 01:36:53.01	224.79	19.56	-52.7	-59.7	13.6	3.02e+01	0	47	0	104333312	60	36786
2026-01-29 01:36:54.02	224.72	19.42	-52.6	-60.1	13.3	3.02e+01	0	47	0	105906176	60	38353
2026-01-29 01:36:55.03	224.66	19.28	-52.8	-61.3	12.3	3.02e+01	0	47	0	108003328	60	44307
2026-01-29 01:36:56.04	224.60	19.14	-52.8	-61.4	12.1	3.02e+01	0	47	0	110100480	60	44692
2026-01-29 01:36:57.04	224.54	19.00	-52.8	-61.7	11.9	3.02e+01	0	47	0	111673344	60	46337
2026-01-29 01:36:58.05	224.48	18.86	-53.0	-62.0	11.8	3.02e+01	0	47	0	113770496	60	47946
2026-01-29 01:36:59.06	224.42	18.73	-53.1	-62.0	11.9	3.02e+01	0	47	0	115343360	60	47822
2026-01-29 01:37:00.06	224.37	18.59	-53.3	-62.5	11.9	3.02e+01	0	46	0	117440512	60	50947
2026-01-29 01:37:01.07	224.31	18.45	-53.3	-61.9	12.6	3.02e+01	0	46	0	119013376	60	47113
2026-01-29 01:37:02.07	224.25	18.32	-53.5	-62.5	11.6	3.02e+01	0	46	0	121110528	60	50977
2026-01-29 01:37:03.07	224.19	18.19	-53.7	-63.1	11.3	3.02e+01	0	46	0	123207680	60	54336
2026-01-29 01:37:04.08	224.14	18.05	-53.9	-63.2	10.9	3.02e+01	0	46	0	124780544	60	55232
2026-01-29 01:37:05.08	224.08	17.92	-54.0	-62.6	11.7	3.02e+01	0	47	0	126877696	60	51053
2026-01-29 01:37:06.09	224.03	17.79	-53.9	-62.1	11.8	3.02e+01	0	46	0	128450560	60	48182
2026-01-29 01:37:07.10	223.97	17.66	-53.8	-61.4	12.5	3.02e+01	0	46	0	130547712	60	44858
2026-01-29 01:37:08.11	223.92	17.53	-53.9	-61.6	12.1	3.02e+01	0	46	0	132644864	60	45664
2026-01-29 01:37:09.11	223.87	17.40	-53.8	-61.6	11.8	3.02e+01	0	46	0	134217728	60	45951
2026-01-29 01:37:10.12	223.81	17.27	-53.6	-61.2	12.1	3.02e+01	0	46	0	136314880	60	43912
2026-01-29 01:37:11.13	223.76	17.14	-53.5	-61.4	11.7	3.02e+01	0	46	0	138412032	60	44926
2026-01-29 01:37:12.14	223.71	17.01	-53.4	-61.1	11.9	3.02e+01	0	46	0	139984896	60	43286
2026-01-29 01:37:13.15	223.66	16.89	-53.3	-60.7	12.6	3.02e+01	0	47	0	142082048	60	41360
2026-01-29 01:37:14.16	223.61	16.76	-53.4	-61.0	12.4	3.02e+01	0	47	0	143654912	60	42496
2026-01-29 01:37:15.16	223.56	16.64	-53.4	-60.5	13.1	3.02e+01	0	46	0	145752064	60	40354
2026-01-29 01:37:16.17	223.51	16.51	-53.4	-60.4	13.6	3.02e+01	0	46	0	147849216	60	39741
2026-01-29 01:37:17.18	223.46	16.39	-53.4	-60.4	13.5	3.02e+01	0	46	0	149422080	60	39762
2026-01-29 01:37:18.19	223.41	16.26	-53.4	-60.6	13.9	3.02e+01	0	46	0	151519232	60	40708
2026-01-29 01:37:19.20	223.36	16.14	-53.6	-61.3	12.9	3.02e+01	0	46	0	153092096	60	44010
2026-01-29 01:37:20.20	223.31	16.02	-53.7	-61.2	13.0	3.02e+01	0	47	0	155189248	60	43921
2026-01-29 01:37:21.21	223.26	15.90	-53.9	-61.4	12.9	3.02e+01	0	47	0	156762112	60	44492
2026-01-29 01:37:22.22	223.22	15.78	-54.0	-61.6	12.9	3.02e+01	0	46	0	158859264	60	45688
2026-01-29 01:37:23.23	223.17	15.66	-54.1	-61.9	12.4	3.02e+01	0	46	0	160956416	60	47187
2026-01-29 01:37:24.24	223.12	15.54	-54.0	-62.5	11.4	3.02e+01	0	46	0	162529280	60	50755
2026-01-29 01:37:25.24	223.08	15.42	-53.7	-62.9	11.0	3.02e+01	0	46	0	164626432	60	53021
2026-01-29 01:37:26.25	223.03	15.30	-53.5	-63.0	10.8	3.02e+01	0	47	0	166723584	60	53736
2026-01-29 01:37:27.26	222.99	15.18	-53.1	-62.9	11.1	3.02e+01	0	46	0	168296448	60	53130
2026-01-29 01:37:28.26	222.94	15.07	-52.6	-63.2	10.9	3.02e+01	0	47	0	170393600	60	54841
2026-01-29 01:37:29.27	222.90	14.95	-52.1	-63.3	10.2	3.02e+01	0	47	0	171966464	60	55520
2026-01-29 01:37:30.28	222.85	14.83	-51.8	-63.7	9.5	3.02e+01	0	47	0	174063616	60	58041
2026-01-29 01:37:31.28	222.81	14.72	-51.6	-63.4	9.6	3.02e+01	0	47	0	175636480	60	56584
2026-01-29 01:37:32.29	222.77	14.60	-51.6	-63.9	8.7	3.02e+01	0	47	0	177733632	60	59760
2026-01-29 01:37:33.29	222.72	14.49	-51.5	-64.4	8.5	3.02e+01	0	47	0	179830784	60	62831
2026-01-29 01:37:34.30	222.68	14.38	-51.4	-62.6	10.3	3.02e+01	0	47	0	181403648	60	51616
2026-01-29 01:37:35.30	222.64	14.27	-51.5	-62.8	9.8	3.02e+01	0	47	0	183500800	60	52812
2026-01-29 01:37:36.31	222.60	14.15	-51.7	-64.0	9.1	3.02e+01	0	47	0	185073664	60	60175
2026-01-29 01:37:37.31	222.56	14.04	-51.9	-63.2	9.5	3.02e+01	0	47	0	187170816	60	55106
2026-01-29 01:37:38.32	222.52	13.93	-51.5	-60.5	12.6	3.02e+01	0	47	0	189267968	60	40167
2026-01-29 01:37:39.33	222.47	13.82	-52.1	-61.1	12.0	3.02e+01	0	47	0	190840832	60	43412
2026-01-29 01:37:40.33	222.43	13.71	-52.4	-60.7	12.7	3.02e+01	0	47	0	192937984	60	41214
2026-01-29 01:37:41.34	222.39	13.60	-53.0	-62.1	11.8	3.02e+01	0	47	0	195035136	60	48326
2026-01-29 01:37:42.35	222.35	13.49	-53.1	-61.6	12.2	3.02e+01	0	47	0	196608000	60	45659
2026-01-29 01:37:43.36	222.32	13.38	-53.4	-61.8	12.2	3.02e+01	0	47	0	198705152	60	46644
2026-01-29 01:37:44.37	222.28	13.27	-53.3	-61.1	11.7	3.02e+01	0	47	0	200278016	60	43388
2026-01-29 01:37:45.37	222.24	13.17	-53.3	-61.4	12.1	3.02e+01	0	47	0	202375168	60	44511
2026-01-29 01:37:46.38	222.20	13.06	-53.3	-61.7	11.9	3.02e+01	0	47	0	204472320	60	46105
2026-01-29 01:37:47.39	222.16	12.95	-53.1	-61.4	11.9	3.02e+01	0	47	0	206045184	60	44843
2026-01-29 01:37:48.40	222.12	12.85	-52.7	-62.1	10.8	3.02e+01	0	46	0	208142336	60	48695
2026-01-29 01:37:49.40	222.09	12.74	-52.2	-62.8	9.7	3.02e+01	0	47	0	209715200	60	52545
2026-01-29 01:37:50.40	222.05	12.64	-51.7	-61.8	10.0	3.02e+01	0	47	0	211812352	60	46728
2026-01-29 01:37:51.41	222.01	12.53	-50.9	-62.4	9.1	3.02e+01	0	47	0	213385216	60	50020
2026-01-29 01:37:52.42	221.98	12.43	-50.2	-61.3	9.4	3.02e+01	0	46	0	215482368	60	44008
2026-01-29 01:37:53.41	221.94	12.33	-49.4	-61.8	8.2	3.02e+01	0	47	0	217579520	60	46597
2026-01-29 01:37:54.42	221.91	12.22	-48.6	-62.1	7.8	3.02e+01	0	47	0	219152384	60	48181
2026-01-29 01:37:55.43	221.87	12.12	-48.0	-61.4	7.9	3.02e+01	0	47	0	221249536	60	44473
2026-01-29 01:37:56.43	221.84	12.02	-47.3	-61.5	6.7	3.02e+01	0	47	0	223346688	60	45360
2026-01-29 01:37:57.44	221.80	11.92	-46.7	-63.6	3.9	3.02e+01	0	47	104	224395264	60	57686
2026-01-29 01:37:58.45	221.77	11.82	-46.7	-62.6	5.9	3.02e+01	0	46	0	224395264	60	51482
2026-01-29 01:37:59.46	221.73	11.71	-46.3	-61.4	5.8	3.02e+01	0	46	0	1572864	60	44669
2026-01-29 01:38:00.47	221.70	11.61	-45.7	-63.4	4.9	3.02e+01	0	47	104	2097152	60	56103
2026-01-29 01:38:01.47	221.66	11.51	-45.4	-62.7	3.9	3.02e+01	0	47	104	524288	60	51888
2026-01-29 01:38:02.48	221.63	11.41	-44.9	-62.7	4.8	3.02e+01	0	46	104	524288	60	51999
2026-01-29 01:38:03.49	221.60	11.32	-44.7	-62.1	4.9	3.02e+01	0	46	104	524288	60	48598
2026-01-29 01:38:04.50	221.56	11.22	-44.4	-62.5	4.7	3.02e+01	0	46	104	524288	60	50912
2026-01-29 01:38:05.50	221.53	11.12	-44.5	-62.4	3.9	3.02e+01	0	46	104	524288	60	49906
2026-01-29 01:38:06.51	221.50	11.02	-44.6	-63.0	3.8	3.02e+01	0	47	104	524288	60	53922
2026-01-29 01:38:07.51	221.47	10.92	-44.6	-62.5	3.8	3.02e+01	0	46	104	524288	60	50645
2026-01-29 01:38:08.51	221.43	10.83	-44.1	-63.0	4.3	3.02e+01	0	47	104	524288	60	53883
2026-01-29 01:38:09.52	221.40	10.73	-44.3	-62.8	4.3	3.02e+01	0	47	104	524288	60	52431
2026-01-29 01:38:10.53	221.37	10.64	-48.0	-68.0	3.7	3.02e+01	0	47	104	524288	60	96072
2026-01-29 01:38:11.52	221.34	10.54	-53.2	-72.3	3.5	3.02e+01	0	46	104	524288	60	156167
2026-01-29 01:38:12.53	221.31	10.45	-52.2	-71.4	3.7	3.02e+01	0	46	104	524288	60	141681
2026-01-29 01:38:13.53	221.28	10.35	-51.3	-70.2	3.6	3.02e+01	0	46	104	524288	60	122854
2026-01-29 01:38:14.53	221.25	10.26	-53.3	-71.7	3.5	3.02e+01	0	46	104	524288	60	146470
2026-01-29 01:38:15.54	221.22	10.16	-52.1	-70.7	3.6	3.02e+01	0	46	104	524288	60	130613
2026-01-29 01:38:16.55	221.19	10.07	-51.3	-70.4	3.6	3.02e+01	0	47	104	524288	60	126264
2026-01-29 01:38:17.56	221.16	9.98	-50.2	-69.5	3.6	3.02e+01	0	46	104	524288	60	113610
2026-01-29 01:38:18.57	221.13	9.88	-49.8	-69.5	3.6	3.02e+01	0	46	104	524288	60	113904
2026-01-29 01:38:19.57	221.10	9.79	-51.6	-70.5	3.6	3.02e+01	0	46	104	524288	60	127320
2026-01-29 01:38:20.58	221.07	9.70	-50.0	-69.9	3.6	3.02e+01	0	46	104	524288	60	118404
2026-01-29 01:38:21.59	221.04	9.61	-50.0	-69.9	3.6	3.02e+01	0	46	104	524288	60	118338
2026-01-29 01:38:22.60	221.01	9.51	-51.0	-69.6	3.6	3.02e+01	0	46	104	524288	60	114292
2026-01-29 01:38:23.60	220.98	9.42	-52.4	-69.6	4.2	3.02e+01	0	46	104	524288	60	115502
2026-01-29 01:38:24.60	220.95	9.33	-52.1	-69.3	3.6	3.02e+01	0	46	104	524288	60	110640
2026-01-29 01:38:25.61	220.93	9.24	-50.5	-69.9	3.6	3.02e+01	0	46	104	524288	60	119390
2026-01-29 01:38:26.61	220.90	9.15	-50.9	-70.8	3.5	3.02e+01	0	46	104	524288	60	131551
2026-01-29 01:38:27.61	220.87	9.07	-50.4	-70.8	3.6	3.02e+01	0	46	104	524288	60	132129
2026-01-29 01:38:28.62	220.84	8.98	-51.2	-72.7	3.5	3.02e+01	0	46	104	524288	60	164412
2026-01-29 01:38:29.63	220.82	8.89	-50.7	-71.3	3.6	3.02e+01	0	46	104	524288	60	139693
2026-01-29 01:38:30.64	220.79	8.80	-49.8	-69.1	3.6	3.02e+01	0	47	104	524288	60	108182
2026-01-29 01:38:31.65	220.76	8.71	-50.0	-67.4	3.9	3.02e+01	0	46	104	524288	60	88912
2026-01-29 01:38:32.65	220.74	8.62	-49.9	-67.5	3.6	3.02e+01	0	46	104	524288	60	90259
2026-01-29 01:38:33.66	220.71	8.53	-50.6	-71.2	3.5	3.02e+01	0	46	104	524288	60	137691
2026-01-29 01:38:34.67	220.68	8.45	-52.1	-72.5	3.5	3.02e+01	0	46	104	524288	60	160248
2026-01-29 01:38:35.68	220.66	8.36	-51.3	-72.2	3.5	3.02e+01	0	46	104	524288	60	155535
2026-01-29 01:38:36.68	220.63	8.27	-51.7	-73.0	3.5	3.02e+01	0	46	104	524288	60	169702
2026-01-29 01:38:37.69	220.61	8.19	-50.8	-72.6	3.5	3.02e+01	0	47	104	524288	60	161630
2026-01-29 01:38:38.69	220.58	8.10	-50.2	-71.0	3.6	3.02e+01	0	46	104	524288	60	134501
2026-01-29 01:38:39.70	220.55	8.02	-50.0	-68.6	4.0	3.02e+01	0	47	104	524288	60	102390
2026-01-29 01:38:40.71	220.53	7.93	-49.9	-68.2	4.2	3.02e+01	0	46	104	524288	60	97493
2026-01-29 01:38:41.71	220.50	7.85	-50.7	-72.5	3.5	3.02e+01	0	46	104	524288	60	160380
2026-01-29 01:38:42.72	220.48	7.76	-52.2	-72.6	3.5	3.02e+01	0	47	104	524288	60	162245
2026-01-29 01:38:43.72	220.45	7.68	-51.5	-72.3	3.5	3.02e+01	0	46	104	524288	60	156539
2026-01-29 01:38:44.73	220.43	7.59	-52.5	-73.1	3.5	3.02e+01	0	46	104	524288	60	172089
2026-01-29 01:38:45.73	220.41	7.51	-51.8	-72.9	3.5	3.02e+01	0	46	104	524288	60	167685
2026-01-29 01:38:46.73	220.38	7.43	-51.8	-72.9	3.5	3.02e+01	0	46	104	524288	60	167772
2026-01-29 01:38:47.74	220.36	7.34	-52.1	-73.0	3.5	3.02e+01	0	46	104	524288	60	169097
2026-01-29 01:38:48.75	220.33	7.26	-52.2	-72.9	3.5	3.02e+01	0	47	104	524288	60	168697
2026-01-29 01:38:49.76	220.31	7.18	-52.3	-72.6	3.5	3.02e+01	0	47	104	524288	60	162332
2026-01-29 01:38:50.77	220.29	7.10	-52.8	-72.8	3.5	3.02e+01	0	47	104	524288	60	165432
