passes_logs/2026/01/29/R3.2S-Naryan-Mar/R3.2S-Naryan-Mar__20260129_010430_FENGYUN_3D_rec.log

#Pass ID: 20260129_010430_FENGYUN 3D
#Satellite: FENGYUN 3D
#Configuration: FENGYUN 3D
#almurnet v.1.7.20240730
#Start time: 2026-01-29 01:04:32

#Version: 2.2.20231116
#Station: R3.2S-Naryan-Mar
#Location: 53.008057 lon 67.646978 lat
#TLE: 1 43010U 17072A   26027.90082829  .00000305  00000+0  16579-3 0  9998
#TLE: 2 43010  98.9960 359.9183 0002511  88.1058 272.0405 14.19701796425082

#Time	Az	El	Level	Level2	SNR	BER	BlckErr	Temp	State	Recorded	gain1	gain2
2026-01-29 01:04:32.07	22.62	0.09	-61.8	-77.9	3.5	1.51e+00	0	44	0	0	60	307815
2026-01-29 01:04:33.07	22.63	0.15	-56.2	-72.9	3.6	8.44e-01	0	44	104	0	60	172442
2026-01-29 01:04:34.08	22.64	0.21	-60.1	-74.5	3.6	8.46e-01	0	45	104	0	60	209176
2026-01-29 01:04:35.08	22.66	0.27	-59.4	-74.4	3.6	8.46e-01	0	45	104	0	60	204572
2026-01-29 01:04:36.09	22.67	0.33	-59.3	-74.4	3.6	8.45e-01	0	45	104	0	60	205450
2026-01-29 01:04:37.09	22.68	0.39	-59.7	-74.8	3.6	8.45e-01	0	45	104	0	60	215468
2026-01-29 01:04:38.10	22.69	0.45	-60.0	-74.9	3.6	8.46e-01	0	45	104	0	60	218599
2026-01-29 01:04:39.11	22.70	0.51	-60.5	-74.6	3.6	8.44e-01	0	45	104	0	60	211175
2026-01-29 01:04:40.12	22.71	0.57	-60.4	-74.2	3.6	8.46e-01	0	45	104	0	60	200812
2026-01-29 01:04:41.12	22.73	0.63	-58.2	-73.8	3.6	8.44e-01	0	45	104	0	60	191847
2026-01-29 01:04:42.13	22.74	0.69	-57.8	-73.1	3.6	8.44e-01	0	45	104	0	60	177776
2026-01-29 01:04:43.14	22.75	0.76	-58.9	-74.5	3.6	8.45e-01	0	45	104	0	60	208690
2026-01-29 01:04:44.15	22.76	0.82	-59.5	-73.7	3.6	8.45e-01	0	45	104	0	60	190144
2026-01-29 01:04:45.16	22.77	0.88	-57.2	-73.0	3.6	8.44e-01	0	45	104	0	60	174567
2026-01-29 01:04:46.16	22.79	0.94	-57.8	-73.3	3.6	8.44e-01	0	45	104	0	60	180811
2026-01-29 01:04:47.17	22.80	1.00	-59.1	-73.6	3.6	8.42e-01	0	45	104	0	60	187782
2026-01-29 01:04:48.18	22.81	1.06	-55.5	-72.6	3.6	8.44e-01	0	45	104	0	60	166908
2026-01-29 01:04:49.18	22.82	1.13	-58.4	-73.3	3.6	8.43e-01	0	45	104	0	60	181825
2026-01-29 01:04:50.19	22.83	1.19	-51.3	-70.7	3.6	8.43e-01	0	45	104	0	60	134293
2026-01-29 01:04:51.19	22.85	1.25	-51.3	-70.7	3.6	8.43e-01	0	45	104	0	60	133693
2026-01-29 01:04:52.20	22.86	1.31	-51.3	-70.4	3.6	8.44e-01	0	45	104	0	60	129159
2026-01-29 01:04:53.21	22.87	1.38	-51.3	-69.6	3.6	8.43e-01	0	45	104	0	60	118130
2026-01-29 01:04:54.21	22.88	1.44	-51.3	-69.6	3.6	8.42e-01	0	45	104	0	60	117701
2026-01-29 01:04:55.22	22.89	1.50	-51.4	-70.6	3.6	8.44e-01	0	45	104	0	60	132036
2026-01-29 01:04:56.23	22.91	1.56	-51.6	-70.7	3.6	8.42e-01	0	45	104	0	60	134908
2026-01-29 01:04:57.24	22.92	1.63	-51.5	-70.3	3.6	8.43e-01	0	45	104	0	60	128392
2026-01-29 01:04:58.25	22.93	1.69	-51.6	-70.6	3.6	8.43e-01	0	45	104	0	60	132063
2026-01-29 01:04:59.25	22.94	1.75	-51.6	-70.4	3.6	8.43e-01	0	45	104	0	60	129932
2026-01-29 01:05:00.26	22.96	1.82	-51.6	-70.6	3.6	8.43e-01	0	45	104	0	60	133202
2026-01-29 01:05:01.27	22.97	1.88	-51.4	-70.6	3.6	8.43e-01	0	45	104	0	60	132322
2026-01-29 01:05:02.27	22.98	1.94	-51.4	-69.6	3.6	8.43e-01	0	45	104	0	60	117840
2026-01-29 01:05:03.28	22.99	2.01	-51.4	-70.4	3.6	8.44e-01	0	45	104	0	60	130058
2026-01-29 01:05:04.29	23.01	2.07	-51.4	-70.6	3.6	8.42e-01	0	45	104	0	60	132242
2026-01-29 01:05:05.29	23.02	2.14	-51.4	-70.6	3.6	8.42e-01	0	45	104	0	60	133473
2026-01-29 01:05:06.30	23.03	2.20	-51.5	-70.7	3.6	8.44e-01	0	45	104	0	60	133685
2026-01-29 01:05:07.31	23.04	2.27	-51.3	-70.5	3.6	8.42e-01	0	45	104	0	60	131165
2026-01-29 01:05:08.32	23.06	2.33	-51.4	-70.5	3.6	8.43e-01	0	45	104	0	60	131345
2026-01-29 01:05:09.33	23.07	2.40	-51.4	-70.2	3.6	8.43e-01	0	45	104	0	60	126569
2026-01-29 01:05:10.33	23.08	2.46	-51.3	-69.6	3.6	8.43e-01	0	45	104	0	60	117819
2026-01-29 01:05:11.34	23.09	2.53	-51.3	-69.6	3.6	8.42e-01	0	45	104	0	60	117700
2026-01-29 01:05:12.35	23.11	2.59	-51.4	-70.5	3.6	8.43e-01	0	45	104	0	60	130631
2026-01-29 01:05:13.35	23.12	2.66	-51.4	-70.5	3.6	8.43e-01	0	45	104	0	60	131304
2026-01-29 01:05:14.36	23.13	2.72	-51.5	-70.5	3.6	8.43e-01	0	45	104	0	60	131930
2026-01-29 01:05:15.37	23.14	2.79	-51.5	-70.3	3.6	8.44e-01	0	45	104	0	60	128467
2026-01-29 01:05:16.38	23.16	2.85	-51.6	-68.9	3.6	8.44e-01	0	46	104	0	60	109691
2026-01-29 01:05:17.39	23.17	2.92	-51.6	-70.6	3.6	8.44e-01	0	45	104	0	60	132750
2026-01-29 01:05:18.39	23.18	2.99	-51.5	-69.7	3.6	8.43e-01	0	45	104	0	60	119769
2026-01-29 01:05:19.40	23.20	3.05	-51.5	-69.7	3.6	8.43e-01	0	45	104	0	60	119650
2026-01-29 01:05:20.41	23.21	3.12	-51.5	-70.6	3.6	8.43e-01	0	45	104	0	60	133057
2026-01-29 01:05:21.41	23.22	3.19	-51.5	-70.7	3.6	8.42e-01	0	45	104	0	60	133850
2026-01-29 01:05:22.42	23.24	3.25	-51.5	-70.4	3.6	8.42e-01	0	45	104	0	60	129328
2026-01-29 01:05:23.42	23.25	3.32	-51.5	-70.4	3.6	8.43e-01	0	45	104	0	60	130148
2026-01-29 01:05:24.43	23.26	3.39	-51.6	-70.3	3.6	8.42e-01	0	45	104	0	60	128191
2026-01-29 01:05:25.44	23.28	3.45	-51.7	-70.3	3.6	8.43e-01	0	46	104	0	60	128659
2026-01-29 01:05:26.45	23.29	3.52	-51.6	-70.7	3.6	8.43e-01	0	45	104	0	60	133625
2026-01-29 01:05:27.45	23.30	3.59	-51.6	-69.7	3.6	8.44e-01	0	46	104	0	60	120024
2026-01-29 01:05:28.46	23.32	3.66	-51.5	-70.4	3.5	8.44e-01	0	45	104	0	60	129345
2026-01-29 01:05:29.47	23.33	3.73	-51.6	-70.7	3.6	8.43e-01	0	45	104	0	60	134266
2026-01-29 01:05:30.48	23.34	3.79	-51.6	-70.6	3.6	8.43e-01	0	45	104	0	60	132179
2026-01-29 01:05:31.49	23.36	3.86	-51.5	-70.4	3.6	8.42e-01	0	45	104	0	60	130176
2026-01-29 01:05:32.49	23.37	3.93	-51.6	-70.7	3.6	8.43e-01	0	45	104	0	60	133981
2026-01-29 01:05:33.50	23.38	4.00	-51.6	-70.7	3.6	8.42e-01	0	45	104	0	60	134088
2026-01-29 01:05:34.51	23.40	4.07	-51.6	-70.5	3.5	8.44e-01	0	46	104	0	60	130520
2026-01-29 01:05:35.52	23.41	4.14	-51.6	-70.6	3.6	8.44e-01	0	46	104	0	60	132112
2026-01-29 01:05:36.52	23.42	4.21	-51.7	-69.8	3.6	8.44e-01	0	46	104	0	60	121393
2026-01-29 01:05:37.53	23.44	4.28	-51.8	-70.7	3.6	8.43e-01	0	46	104	0	60	133558
2026-01-29 01:05:38.54	23.45	4.35	-51.8	-70.3	3.6	8.43e-01	0	46	104	0	60	128631
2026-01-29 01:05:39.54	23.46	4.42	-51.8	-70.8	3.6	8.42e-01	0	46	104	0	60	135090
2026-01-29 01:05:40.54	23.48	4.48	-51.8	-70.7	3.6	8.44e-01	0	46	104	0	60	134094
2026-01-29 01:05:41.55	23.49	4.55	-51.8	-70.6	3.6	8.42e-01	0	46	104	0	60	132494
2026-01-29 01:05:42.56	23.51	4.63	-51.8	-70.6	3.6	8.43e-01	0	46	104	0	60	133320
2026-01-29 01:05:43.57	23.52	4.70	-51.6	-70.6	3.6	8.43e-01	0	46	104	0	60	132394
2026-01-29 01:05:44.57	23.53	4.77	-51.6	-69.7	3.6	8.44e-01	0	46	104	0	60	120382
2026-01-29 01:05:45.58	23.55	4.84	-51.7	-69.8	3.6	8.43e-01	0	45	104	0	60	120976
2026-01-29 01:05:46.59	23.56	4.91	-51.7	-70.7	3.6	8.43e-01	0	46	104	0	60	134637
2026-01-29 01:05:47.60	23.58	4.98	-51.8	-70.4	3.6	8.43e-01	0	46	104	0	60	129789
2026-01-29 01:05:48.61	23.59	5.05	-51.7	-70.5	3.6	8.43e-01	0	46	104	0	60	131023
2026-01-29 01:05:49.61	23.61	5.12	-51.7	-70.4	3.5	8.44e-01	0	46	104	0	60	130226
2026-01-29 01:05:50.62	23.62	5.19	-51.8	-70.7	3.6	8.43e-01	0	46	104	0	60	134101
2026-01-29 01:05:51.63	23.63	5.27	-51.7	-70.1	3.6	8.44e-01	0	46	104	0	60	125070
2026-01-29 01:05:52.63	23.65	5.34	-51.7	-69.7	3.6	8.43e-01	0	46	104	0	60	120324
2026-01-29 01:05:53.64	23.66	5.41	-51.8	-69.8	3.6	8.43e-01	0	46	104	0	60	121734
2026-01-29 01:05:54.65	23.68	5.48	-51.8	-70.8	3.6	8.43e-01	0	46	104	0	60	135151
2026-01-29 01:05:55.65	23.69	5.56	-51.8	-70.8	3.6	8.43e-01	0	46	104	0	60	135430
2026-01-29 01:05:56.66	23.71	5.63	-51.8	-70.5	3.6	8.44e-01	0	46	104	0	60	131187
2026-01-29 01:05:57.66	23.72	5.70	-51.8	-70.6	3.6	8.44e-01	0	46	104	0	60	132217
2026-01-29 01:05:58.67	23.74	5.78	-51.7	-70.7	3.6	8.44e-01	0	46	104	0	60	133864
2026-01-29 01:05:59.68	23.75	5.85	-51.7	-70.6	3.6	8.45e-01	0	46	104	0	60	132961
2026-01-29 01:06:00.69	23.77	5.92	-51.8	-70.5	3.6	8.42e-01	0	46	104	0	60	131433
2026-01-29 01:06:01.69	23.78	6.00	-51.7	-69.7	3.6	8.43e-01	0	46	104	0	60	119171
2026-01-29 01:06:02.69	23.80	6.07	-55.0	-71.6	3.6	8.45e-01	0	46	104	0	60	149708
2026-01-29 01:06:03.70	23.81	6.15	-56.7	-72.7	3.6	8.46e-01	0	46	104	0	60	169418
2026-01-29 01:06:04.71	23.83	6.22	-51.7	-69.2	3.6	8.44e-01	0	46	104	0	60	113429
2026-01-29 01:06:05.72	23.84	6.30	-51.1	-68.3	3.6	8.44e-01	0	46	104	0	60	102012
2026-01-29 01:06:06.72	23.86	6.37	-50.9	-70.8	3.6	8.43e-01	0	46	104	0	60	135702
2026-01-29 01:06:07.73	23.87	6.45	-53.5	-70.9	3.6	8.46e-01	0	46	104	0	60	136814
2026-01-29 01:06:08.74	23.89	6.52	-48.1	-68.7	3.6	8.41e-01	0	46	104	0	60	107247
2026-01-29 01:06:09.75	23.90	6.60	-48.2	-68.0	3.6	8.40e-01	0	46	104	0	60	97931
2026-01-29 01:06:10.75	23.92	6.67	-54.7	-72.2	3.6	8.41e-01	0	46	104	0	60	159966
2026-01-29 01:06:11.76	23.93	6.75	-53.3	-71.2	3.6	8.45e-01	0	46	104	0	60	142128
2026-01-29 01:06:12.76	23.95	6.82	-52.5	-70.4	3.6	8.44e-01	0	46	104	0	60	130423
2026-01-29 01:06:13.76	23.96	6.90	-51.8	-71.6	3.6	8.42e-01	0	46	104	0	60	149571
2026-01-29 01:06:14.77	23.98	6.98	-57.6	-71.7	3.6	8.45e-01	0	46	104	0	60	150701
2026-01-29 01:06:15.78	23.99	7.06	-57.8	-71.8	3.6	8.45e-01	0	46	104	0	60	151574
2026-01-29 01:06:16.78	24.01	7.13	-52.7	-69.8	3.6	8.44e-01	0	46	104	0	60	121699
2026-01-29 01:06:17.79	24.03	7.21	-52.0	-69.8	3.6	8.42e-01	0	46	104	0	60	120783
2026-01-29 01:06:18.79	24.04	7.29	-59.4	-72.9	3.6	8.45e-01	0	46	104	0	60	173791
2026-01-29 01:06:19.80	24.06	7.37	-55.8	-71.2	3.5	8.44e-01	0	46	104	0	60	141616
2026-01-29 01:06:20.81	24.07	7.44	-57.9	-72.5	3.6	8.44e-01	0	46	104	0	60	164523
2026-01-29 01:06:21.81	24.09	7.52	-53.0	-69.6	3.6	8.46e-01	0	46	104	0	60	118796
2026-01-29 01:06:22.82	24.11	7.60	-48.9	-70.0	3.5	8.43e-01	0	46	104	0	60	123862
2026-01-29 01:06:23.83	24.12	7.68	-52.6	-71.3	3.6	8.45e-01	0	46	104	0	60	143782
2026-01-29 01:06:24.84	24.14	7.76	-55.4	-71.5	3.6	8.45e-01	0	46	104	0	60	146906
2026-01-29 01:06:25.84	24.15	7.84	-56.0	-71.5	3.6	8.45e-01	0	46	104	0	60	147815
2026-01-29 01:06:26.85	24.17	7.92	-55.3	-71.8	3.6	8.46e-01	0	46	104	0	60	153044
2026-01-29 01:06:27.86	24.19	8.00	-57.6	-72.2	3.6	8.44e-01	0	46	104	0	60	159956
2026-01-29 01:06:28.86	24.20	8.08	-59.1	-72.8	3.6	8.46e-01	0	46	104	0	60	170460
2026-01-29 01:06:29.87	24.22	8.16	-56.3	-72.1	3.6	8.45e-01	0	46	104	0	60	157881
2026-01-29 01:06:30.88	24.24	8.24	-55.8	-72.0	3.6	8.45e-01	0	46	104	0	60	155088
2026-01-29 01:06:31.88	24.25	8.32	-57.7	-72.4	3.6	8.45e-01	0	46	104	0	60	164115
2026-01-29 01:06:32.89	24.27	8.40	-54.8	-71.6	3.6	8.44e-01	0	46	104	0	60	148694
2026-01-29 01:06:33.89	24.29	8.48	-54.1	-70.3	3.5	8.44e-01	0	46	104	0	60	128675
2026-01-29 01:06:34.90	24.30	8.57	-55.8	-71.5	3.6	8.45e-01	0	46	104	0	60	146754
2026-01-29 01:06:35.91	24.32	8.65	-58.0	-72.3	3.6	8.44e-01	0	46	104	0	60	161129
2026-01-29 01:06:36.92	24.34	8.73	-56.4	-73.0	3.6	8.46e-01	0	46	104	0	60	175697
2026-01-29 01:06:37.93	24.35	8.81	-58.2	-72.2	3.6	8.45e-01	0	46	104	0	60	158752
2026-01-29 01:06:38.93	24.37	8.90	-53.3	-71.3	3.6	8.44e-01	0	46	104	0	60	143916
2026-01-29 01:06:39.94	24.39	8.98	-53.2	-70.4	3.6	8.43e-01	0	46	104	0	60	130458
2026-01-29 01:06:40.95	24.41	9.06	-53.4	-69.9	3.6	8.44e-01	0	46	104	0	60	122327
2026-01-29 01:06:41.96	24.42	9.15	-53.2	-70.4	3.6	8.46e-01	0	46	104	0	60	130256
2026-01-29 01:06:42.97	24.44	9.23	-50.6	-70.4	3.6	8.45e-01	0	46	104	0	60	129840
2026-01-29 01:06:43.97	24.46	9.31	-54.7	-71.6	3.6	8.45e-01	0	46	104	0	60	149683
2026-01-29 01:06:44.97	24.48	9.40	-56.4	-71.2	3.6	8.45e-01	0	46	104	0	60	142724
2026-01-29 01:06:45.98	24.49	9.48	-58.2	-72.3	3.5	8.45e-01	0	46	104	0	60	161982
2026-01-29 01:06:46.98	24.51	9.57	-53.3	-69.6	3.6	8.44e-01	0	46	104	0	60	118315
2026-01-29 01:06:47.99	24.53	9.65	-53.3	-69.5	3.6	8.46e-01	0	46	104	0	60	117496
2026-01-29 01:06:49.00	24.55	9.74	-53.4	-70.5	3.6	8.46e-01	0	46	104	0	60	131477
2026-01-29 01:06:50.00	24.56	9.83	-53.3	-69.3	3.6	8.44e-01	0	46	104	0	60	114397
2026-01-29 01:06:51.01	24.58	9.91	-58.6	-71.2	3.6	8.44e-01	0	46	104	0	60	142594
2026-01-29 01:06:52.01	24.60	10.00	-55.7	-71.9	3.6	8.44e-01	0	46	104	0	60	154733
2026-01-29 01:06:53.01	24.62	10.08	-57.5	-72.0	3.6	8.45e-01	0	46	104	0	60	156148
2026-01-29 01:06:54.02	24.64	10.17	-56.9	-72.8	3.6	8.46e-01	0	46	104	0	60	170761
2026-01-29 01:06:55.03	24.66	10.26	-53.1	-68.6	3.6	8.44e-01	0	46	104	0	60	105716
2026-01-29 01:06:56.04	24.67	10.35	-53.4	-70.0	3.6	8.43e-01	0	46	104	0	60	123973
2026-01-29 01:06:57.04	24.69	10.44	-52.8	-70.2	3.6	8.44e-01	0	46	104	0	60	126970
2026-01-29 01:06:58.05	24.71	10.52	-52.3	-70.5	3.6	8.42e-01	0	46	104	0	60	131635
2026-01-29 01:06:59.06	24.73	10.61	-56.3	-72.8	3.6	8.45e-01	0	46	104	0	60	170248
2026-01-29 01:07:00.06	24.75	10.70	-58.1	-72.1	3.6	8.45e-01	0	46	104	0	60	158029
2026-01-29 01:07:01.07	24.77	10.79	-52.4	-71.7	3.6	8.44e-01	0	46	104	0	60	150196
2026-01-29 01:07:02.07	24.79	10.88	-58.9	-72.7	3.6	8.44e-01	0	46	104	0	60	170040
2026-01-29 01:07:03.08	24.81	10.97	-52.6	-70.0	3.6	8.44e-01	0	46	104	0	60	124473
2026-01-29 01:07:04.08	24.83	11.06	-54.9	-69.0	3.6	8.44e-01	0	46	104	0	60	110998
2026-01-29 01:07:05.09	24.84	11.15	-53.8	-68.5	3.5	8.45e-01	0	46	104	0	60	104120
2026-01-29 01:07:06.10	24.86	11.24	-53.2	-69.5	3.6	8.44e-01	0	46	104	0	60	116803
2026-01-29 01:07:07.10	24.88	11.33	-53.8	-63.5	4.6	8.39e-01	0	46	104	0	60	58939
2026-01-29 01:07:08.11	24.90	11.43	-55.7	-71.0	3.6	8.45e-01	0	46	104	0	60	139332
2026-01-29 01:07:09.12	24.92	11.52	-55.3	-71.6	3.6	8.45e-01	0	46	104	0	60	148827
2026-01-29 01:07:10.13	24.94	11.61	-54.3	-72.7	3.6	8.45e-01	0	46	104	0	60	168293
2026-01-29 01:07:11.13	24.96	11.70	-57.5	-72.4	3.6	8.45e-01	0	46	104	0	60	163856
2026-01-29 01:07:12.14	24.98	11.80	-54.0	-72.3	3.6	8.46e-01	0	46	104	0	60	161521
2026-01-29 01:07:13.15	25.00	11.89	-54.6	-72.5	3.6	8.46e-01	0	46	104	0	60	164533
2026-01-29 01:07:14.15	25.02	11.98	-55.7	-72.2	3.6	8.45e-01	0	46	104	0	60	158980
2026-01-29 01:07:15.16	25.04	12.08	-52.5	-70.2	3.6	8.44e-01	0	46	104	0	60	127317
2026-01-29 01:07:16.17	25.06	12.17	-58.4	-72.9	3.6	8.45e-01	0	46	104	0	60	172631
2026-01-29 01:07:17.18	25.08	12.27	-53.8	-71.1	3.6	8.44e-01	0	46	104	0	60	140494
2026-01-29 01:07:18.18	25.10	12.36	-54.4	-72.6	3.6	8.44e-01	0	46	104	0	60	167610
2026-01-29 01:07:19.19	25.12	12.46	-53.6	-71.0	3.6	8.45e-01	0	46	104	0	60	139159
2026-01-29 01:07:20.19	25.14	12.55	-53.7	-70.6	3.6	8.44e-01	0	46	104	0	60	132529
2026-01-29 01:07:21.20	25.17	12.65	-53.9	-70.1	3.6	8.45e-01	0	46	104	0	60	125734
2026-01-29 01:07:22.20	25.19	12.75	-54.3	-70.3	3.6	8.45e-01	0	46	104	0	60	127638
2026-01-29 01:07:23.20	25.21	12.84	-55.3	-72.9	3.6	8.46e-01	0	46	104	0	60	173124
2026-01-29 01:07:24.21	25.23	12.94	-57.9	-72.7	3.6	8.45e-01	0	46	104	0	60	169809
2026-01-29 01:07:25.22	25.25	13.04	-56.3	-72.8	3.6	8.45e-01	0	46	104	0	60	170961
2026-01-29 01:07:26.23	25.27	13.14	-54.8	-72.7	3.6	8.45e-01	0	46	104	0	60	170003
2026-01-29 01:07:27.24	25.29	13.24	-56.4	-71.8	3.6	8.45e-01	0	46	104	0	60	151855
2026-01-29 01:07:28.25	25.31	13.34	-53.8	-71.7	3.6	8.45e-01	0	46	104	0	60	150163
2026-01-29 01:07:29.25	25.34	13.44	-52.4	-70.0	3.6	8.44e-01	0	46	104	0	60	123915
2026-01-29 01:07:30.26	25.36	13.54	-52.0	-69.6	3.6	8.44e-01	0	46	104	0	60	118228
2026-01-29 01:07:31.27	25.38	13.64	-53.7	-72.3	3.6	8.45e-01	0	46	104	0	60	161539
2026-01-29 01:07:32.28	25.40	13.74	-53.8	-72.5	3.6	8.45e-01	0	46	104	0	60	164926
2026-01-29 01:07:33.28	25.42	13.84	-56.1	-71.3	3.6	8.44e-01	0	46	104	0	60	143697
2026-01-29 01:07:34.29	25.45	13.94	-54.4	-71.7	3.6	8.43e-01	0	46	104	0	60	151334
2026-01-29 01:07:35.29	25.47	14.04	-55.0	-71.4	3.6	8.44e-01	0	46	104	0	60	145546
2026-01-29 01:07:36.30	25.49	14.15	-53.7	-70.2	3.6	8.44e-01	0	46	104	0	60	126286
2026-01-29 01:07:37.30	25.51	14.25	-54.1	-70.6	3.6	8.45e-01	0	46	104	0	60	133393
2026-01-29 01:07:38.30	25.54	14.35	-54.9	-70.6	3.6	8.44e-01	0	46	104	0	60	132884
2026-01-29 01:07:39.31	25.56	14.45	-54.9	-71.1	3.6	8.44e-01	0	46	104	0	60	141318
2026-01-29 01:07:40.32	25.58	14.56	-51.8	-70.9	3.6	8.44e-01	0	46	104	0	60	138035
2026-01-29 01:07:41.32	25.61	14.66	-53.7	-70.4	3.5	8.45e-01	0	46	104	0	60	130158
2026-01-29 01:07:42.33	25.63	14.77	-54.1	-70.4	3.6	8.45e-01	0	46	104	0	60	129142
2026-01-29 01:07:43.34	25.65	14.87	-56.4	-71.5	3.6	8.44e-01	0	46	104	0	60	148056
2026-01-29 01:07:44.34	25.68	14.98	-54.7	-71.0	3.5	8.44e-01	0	46	104	0	60	139319
2026-01-29 01:07:45.35	25.70	15.09	-55.4	-70.8	3.6	8.45e-01	0	46	104	0	60	136237
2026-01-29 01:07:46.35	25.72	15.19	-56.3	-71.3	3.6	8.44e-01	0	46	104	0	60	143163
2026-01-29 01:07:47.36	25.75	15.30	-55.8	-70.6	3.6	8.45e-01	0	46	104	0	60	132135
2026-01-29 01:07:48.37	25.77	15.41	-48.6	-70.0	3.6	8.43e-01	0	46	104	0	60	123424
2026-01-29 01:07:49.37	25.80	15.52	-52.2	-70.0	3.6	8.43e-01	0	46	104	0	60	124259
2026-01-29 01:07:50.38	25.82	15.63	-50.4	-70.4	3.6	8.44e-01	0	46	104	0	60	129559
2026-01-29 01:07:51.38	25.85	15.74	-53.8	-70.1	3.6	8.43e-01	0	46	104	0	60	125224
2026-01-29 01:07:52.38	25.87	15.84	-53.8	-70.0	3.6	8.44e-01	0	46	104	0	60	124502
2026-01-29 01:07:53.39	25.90	15.96	-53.5	-69.7	3.6	8.43e-01	0	46	104	0	60	119120
2026-01-29 01:07:54.39	25.92	16.07	-52.1	-70.4	3.6	8.43e-01	0	46	104	0	60	129903
2026-01-29 01:07:55.40	25.95	16.18	-52.8	-70.9	3.6	8.45e-01	0	46	104	0	60	138181
2026-01-29 01:07:56.41	25.97	16.29	-45.8	-68.1	3.6	8.40e-01	0	46	104	0	60	99590
2026-01-29 01:07:57.40	26.00	16.40	-52.9	-70.8	3.6	8.44e-01	0	46	104	0	60	136021
2026-01-29 01:07:58.41	26.02	16.51	-48.3	-67.4	3.6	8.41e-01	0	46	104	0	60	91414
2026-01-29 01:07:59.41	26.05	16.63	-46.4	-68.7	3.6	8.43e-01	0	46	104	0	60	107052
2026-01-29 01:08:00.42	26.07	16.74	-46.1	-68.3	3.6	8.43e-01	0	46	104	0	60	101588
2026-01-29 01:08:01.43	26.10	16.86	-45.9	-66.5	3.6	8.43e-01	0	46	104	0	60	83186
2026-01-29 01:08:02.43	26.13	16.97	-45.7	-67.2	3.6	8.41e-01	0	46	104	0	60	89803
2026-01-29 01:08:03.43	26.15	17.08	-51.7	-69.5	3.6	8.42e-01	0	46	104	0	60	117114
2026-01-29 01:08:04.44	26.18	17.20	-49.0	-68.1	3.6	8.42e-01	0	46	104	0	60	99036
2026-01-29 01:08:05.44	26.21	17.32	-49.4	-69.1	3.6	8.42e-01	0	46	104	0	60	111340
2026-01-29 01:08:06.44	26.23	17.43	-53.0	-70.0	3.6	8.44e-01	0	46	104	0	60	123961
2026-01-29 01:08:07.45	26.26	17.55	-45.8	-66.5	3.6	8.40e-01	0	46	104	0	60	82484
2026-01-29 01:08:08.45	26.29	17.67	-45.8	-66.5	3.6	8.40e-01	0	46	104	0	60	82459
2026-01-29 01:08:09.45	26.31	17.79	-46.1	-65.1	3.6	8.40e-01	0	46	104	0	60	70538
2026-01-29 01:08:10.45	26.34	17.91	-46.3	-65.5	3.6	8.41e-01	0	46	104	0	60	73497
2026-01-29 01:08:11.46	26.37	18.03	-49.5	-68.5	3.6	8.42e-01	0	46	104	0	60	104366
2026-01-29 01:08:12.47	26.40	18.15	-52.1	-70.6	3.6	8.44e-01	0	46	104	0	60	132334
2026-01-29 01:08:13.47	26.43	18.27	-52.3	-70.6	3.6	8.45e-01	0	46	104	0	60	132996
2026-01-29 01:08:14.48	26.46	18.39	-54.7	-71.2	3.6	8.45e-01	0	46	104	0	60	141648
2026-01-29 01:08:15.49	26.48	18.51	-53.2	-70.2	3.6	8.44e-01	0	46	104	0	60	127244
2026-01-29 01:08:16.49	26.51	18.64	-51.7	-69.2	3.6	8.44e-01	0	46	104	0	60	113521
2026-01-29 01:08:17.51	26.54	18.76	-51.6	-69.5	3.6	8.44e-01	0	46	104	0	60	117585
2026-01-29 01:08:18.52	26.57	18.89	-58.9	-73.0	3.6	8.44e-01	0	46	104	0	60	174668
2026-01-29 01:08:19.53	26.60	19.01	-56.0	-71.7	3.5	8.45e-01	0	46	104	0	60	150456
2026-01-29 01:08:20.53	26.63	19.14	-53.4	-70.4	3.6	8.46e-01	0	46	104	0	60	129624
2026-01-29 01:08:21.54	26.66	19.26	-52.3	-69.3	3.6	8.43e-01	0	46	104	0	60	114477
2026-01-29 01:08:22.55	26.69	19.39	-51.1	-70.0	3.6	8.45e-01	0	46	104	0	60	124340
2026-01-29 01:08:23.55	26.72	19.52	-56.0	-70.2	3.6	8.45e-01	0	46	104	0	60	127301
2026-01-29 01:08:24.55	26.75	19.64	-57.7	-70.5	3.6	8.45e-01	0	46	104	0	60	130839
2026-01-29 01:08:25.56	26.78	19.77	-59.2	-70.8	3.6	8.45e-01	0	46	104	0	60	135927
2026-01-29 01:08:26.56	26.81	19.90	-59.6	-70.8	3.7	8.42e-01	0	46	104	0	60	135576
2026-01-29 01:08:27.57	26.84	20.03	-59.5	-70.9	3.7	8.42e-01	0	46	104	0	60	136887
2026-01-29 01:08:28.57	26.88	20.16	-57.8	-70.6	3.7	8.43e-01	0	46	104	0	60	132300
2026-01-29 01:08:29.58	26.91	20.29	-56.5	-70.2	3.6	8.45e-01	0	46	104	0	60	126150
2026-01-29 01:08:30.59	26.94	20.43	-56.3	-69.9	3.6	8.45e-01	0	46	104	0	60	122642
2026-01-29 01:08:31.60	26.97	20.56	-56.2	-69.9	3.7	8.44e-01	0	46	104	0	60	122825
2026-01-29 01:08:32.60	27.00	20.69	-54.5	-71.4	3.6	8.45e-01	0	46	104	0	60	144864
2026-01-29 01:08:33.61	27.04	20.83	-55.8	-71.6	3.6	8.43e-01	0	46	104	0	60	149168
2026-01-29 01:08:34.62	27.07	20.96	-56.8	-73.3	3.6	8.45e-01	0	46	104	0	60	181032
2026-01-29 01:08:35.63	27.10	21.10	-53.8	-70.4	3.6	8.45e-01	0	46	104	0	60	130445
2026-01-29 01:08:36.63	27.14	21.23	-53.2	-70.2	3.6	8.46e-01	0	46	104	0	60	126383
2026-01-29 01:08:37.64	27.17	21.37	-52.6	-69.4	3.6	8.44e-01	0	46	104	0	60	116057
2026-01-29 01:08:38.65	27.20	21.51	-52.4	-70.7	3.6	8.44e-01	0	46	104	0	60	133610
2026-01-29 01:08:39.65	27.24	21.65	-54.8	-71.7	3.6	8.45e-01	0	46	104	0	60	150353
2026-01-29 01:08:40.66	27.27	21.79	-56.8	-72.8	3.6	8.44e-01	0	46	104	0	60	172001
2026-01-29 01:08:41.67	27.31	21.93	-58.0	-72.9	3.6	8.46e-01	0	46	104	0	60	172029
2026-01-29 01:08:42.67	27.34	22.07	-57.4	-73.1	3.6	8.45e-01	0	46	104	0	60	176493
2026-01-29 01:08:43.67	27.38	22.21	-57.9	-72.0	3.6	8.45e-01	0	46	104	0	60	155435
2026-01-29 01:08:44.68	27.41	22.35	-52.2	-69.0	3.6	8.43e-01	0	46	104	0	60	109927
2026-01-29 01:08:45.69	27.45	22.50	-52.7	-70.6	3.6	8.45e-01	0	46	104	0	60	133288
2026-01-29 01:08:46.70	27.49	22.64	-54.1	-69.9	3.6	8.44e-01	0	46	104	0	60	122633
2026-01-29 01:08:47.71	27.52	22.79	-57.4	-72.9	3.6	8.45e-01	0	46	104	0	60	173937
2026-01-29 01:08:48.71	27.56	22.93	-54.8	-71.6	3.6	8.45e-01	0	46	104	0	60	149754
2026-01-29 01:08:49.72	27.60	23.08	-56.4	-71.8	3.6	8.44e-01	0	46	104	0	60	152046
2026-01-29 01:08:50.73	27.63	23.23	-58.1	-71.7	3.6	8.46e-01	0	46	104	0	60	151265
2026-01-29 01:08:51.74	27.67	23.37	-54.6	-70.6	3.6	8.45e-01	0	46	104	0	60	133081
2026-01-29 01:08:52.74	27.71	23.52	-55.0	-70.4	3.7	8.44e-01	0	46	104	0	60	130133
2026-01-29 01:08:53.75	27.75	23.67	-56.4	-70.8	3.8	8.42e-01	0	46	104	0	60	136429
2026-01-29 01:08:54.76	27.79	23.82	-56.7	-69.8	3.6	8.41e-01	0	46	104	0	60	120691
2026-01-29 01:08:55.77	27.83	23.98	-57.2	-70.7	3.8	8.43e-01	0	46	104	0	60	135046
2026-01-29 01:08:56.77	27.86	24.13	-57.4	-70.6	3.8	8.42e-01	0	46	104	0	60	132410
2026-01-29 01:08:57.78	27.90	24.28	-57.8	-70.6	3.8	8.42e-01	0	46	104	0	60	132710
2026-01-29 01:08:58.79	27.94	24.44	-58.3	-70.6	3.8	8.43e-01	0	46	104	0	60	132673
2026-01-29 01:08:59.80	27.98	24.59	-58.4	-70.7	3.8	8.44e-01	0	46	104	0	60	133766
2026-01-29 01:09:00.80	28.03	24.75	-58.3	-70.7	3.8	8.44e-01	0	46	104	0	60	133541
2026-01-29 01:09:01.81	28.07	24.91	-57.5	-70.5	3.9	8.44e-01	0	46	104	0	60	131765
2026-01-29 01:09:02.81	28.11	25.06	-56.2	-70.7	3.7	8.40e-01	0	46	104	0	60	133728
2026-01-29 01:09:03.82	28.15	25.22	-55.2	-70.3	3.7	8.41e-01	0	46	104	0	60	127524
2026-01-29 01:09:04.83	28.19	25.38	-54.7	-69.7	3.8	8.40e-01	0	46	104	0	60	119235
2026-01-29 01:09:05.84	28.23	25.54	-53.8	-69.8	3.8	8.42e-01	0	46	104	0	60	121579
2026-01-29 01:09:06.85	28.28	25.71	-53.0	-69.5	3.7	8.44e-01	0	46	104	0	60	117290
2026-01-29 01:09:07.85	28.32	25.87	-53.0	-69.4	3.7	8.43e-01	0	46	104	0	60	115087
2026-01-29 01:09:08.86	28.36	26.03	-53.3	-69.3	3.8	8.44e-01	0	46	104	0	60	113756
2026-01-29 01:09:09.87	28.41	26.20	-53.7	-69.3	3.8	8.43e-01	0	46	104	0	60	114522
2026-01-29 01:09:10.88	28.45	26.36	-55.1	-69.5	3.6	8.42e-01	0	46	104	0	60	116371
2026-01-29 01:09:11.88	28.50	26.53	-56.7	-69.9	3.6	8.41e-01	0	46	104	0	60	121949
2026-01-29 01:09:12.89	28.54	26.70	-57.6	-69.4	3.8	8.40e-01	0	46	104	0	60	115997
2026-01-29 01:09:13.89	28.59	26.87	-57.6	-69.8	3.9	8.41e-01	0	46	104	0	60	120891
2026-01-29 01:09:14.90	28.64	27.04	-56.8	-69.7	3.8	8.44e-01	0	46	104	0	60	119019
2026-01-29 01:09:15.90	28.68	27.21	-56.2	-69.4	3.6	8.40e-01	0	46	104	0	60	115499
2026-01-29 01:09:16.91	28.73	27.38	-55.8	-68.0	3.6	8.42e-01	0	46	0	0	60	98829
2026-01-29 01:09:17.92	28.78	27.55	-55.5	-69.0	3.9	8.41e-01	0	46	104	0	60	110900
2026-01-29 01:09:18.93	28.83	27.73	-55.6	-69.2	3.9	8.41e-01	0	46	104	0	60	113513
2026-01-29 01:09:19.94	28.88	27.90	-55.7	-69.2	3.7	8.39e-01	0	46	104	0	60	113480
2026-01-29 01:09:20.94	28.92	28.08	-56.5	-68.3	3.9	8.37e-01	0	46	0	0	60	102260
2026-01-29 01:09:21.95	28.97	28.26	-57.4	-67.9	4.0	8.27e-01	0	46	0	0	60	96823
2026-01-29 01:09:22.96	29.02	28.44	-57.9	-67.5	4.3	8.18e-01	0	46	0	0	60	93162
2026-01-29 01:09:23.97	29.08	28.62	-58.5	-67.2	4.5	7.95e-01	0	46	0	0	60	89700
2026-01-29 01:09:24.97	29.13	28.80	-58.9	-66.8	4.7	7.72e-01	0	46	0	0	60	85967
2026-01-29 01:09:25.98	29.18	28.98	-59.6	-66.9	4.7	7.68e-01	0	46	0	0	60	86676
2026-01-29 01:09:26.99	29.23	29.16	-59.6	-66.9	4.7	7.73e-01	0	46	0	0	60	86758
2026-01-29 01:09:27.99	29.28	29.35	-59.5	-67.1	4.5	7.81e-01	0	46	0	0	60	88851
2026-01-29 01:09:29.00	29.34	29.53	-59.5	-67.3	4.4	7.88e-01	0	46	0	0	60	91073
2026-01-29 01:09:30.01	29.39	29.72	-59.6	-67.4	4.3	8.05e-01	0	46	0	0	60	91561
2026-01-29 01:09:31.01	29.45	29.91	-59.6	-67.7	4.2	8.13e-01	0	46	0	0	60	95496
2026-01-29 01:09:32.02	29.50	30.10	-59.5	-67.8	4.2	8.17e-01	0	46	0	0	60	95856
2026-01-29 01:09:33.02	29.56	30.29	-59.0	-67.4	4.3	7.97e-01	0	46	0	0	60	91556
2026-01-29 01:09:34.03	29.61	30.48	-59.0	-67.3	4.3	8.07e-01	0	46	0	0	60	90679
2026-01-29 01:09:35.03	29.67	30.67	-58.9	-67.1	4.3	8.16e-01	0	46	0	0	60	89081
2026-01-29 01:09:36.04	29.73	30.87	-58.2	-67.2	4.2	8.09e-01	0	46	0	0	60	89246
2026-01-29 01:09:37.05	29.79	31.06	-56.5	-67.0	4.2	8.09e-01	0	46	0	0	60	88172
2026-01-29 01:09:38.05	29.84	31.26	-55.4	-66.7	4.3	8.08e-01	0	46	0	0	60	84367
2026-01-29 01:09:39.06	29.90	31.46	-54.5	-66.7	4.0	8.20e-01	0	46	0	0	60	84911
2026-01-29 01:09:40.07	29.97	31.66	-54.4	-66.5	4.0	8.22e-01	0	46	0	0	60	82892
2026-01-29 01:09:41.08	30.03	31.86	-55.3	-66.6	4.2	8.15e-01	0	46	0	0	60	83320
2026-01-29 01:09:42.09	30.09	32.06	-57.0	-66.8	4.4	8.06e-01	0	46	0	0	60	85828
2026-01-29 01:09:43.09	30.15	32.26	-58.8	-67.0	4.7	7.94e-01	0	46	0	0	60	87537
2026-01-29 01:09:44.10	30.21	32.47	-59.0	-67.0	4.5	7.82e-01	0	46	0	0	60	87957
2026-01-29 01:09:45.11	30.28	32.68	-58.4	-67.2	4.3	7.92e-01	0	46	0	0	60	89968
2026-01-29 01:09:46.11	30.34	32.88	-57.9	-67.0	4.4	8.07e-01	0	46	0	0	60	87560
2026-01-29 01:09:47.12	30.41	33.09	-57.4	-67.1	4.2	8.08e-01	0	46	0	0	60	89012
2026-01-29 01:09:48.13	30.47	33.31	-57.0	-67.0	4.2	8.17e-01	0	46	0	0	60	87849
2026-01-29 01:09:49.13	30.54	33.52	-56.9	-67.1	4.0	8.21e-01	0	46	0	0	60	88579
2026-01-29 01:09:50.14	30.61	33.73	-57.5	-66.9	4.1	8.18e-01	0	46	0	0	60	87112
2026-01-29 01:09:51.14	30.68	33.94	-58.4	-67.0	4.3	8.11e-01	0	46	0	0	60	88004
2026-01-29 01:09:52.15	30.75	34.16	-59.4	-67.2	4.5	8.05e-01	0	46	0	0	60	89544
2026-01-29 01:09:53.15	30.82	34.38	-59.4	-67.3	4.6	7.81e-01	0	46	0	0	60	91025
2026-01-29 01:09:54.16	30.89	34.60	-57.7	-66.8	4.5	7.85e-01	0	46	0	0	60	85704
2026-01-29 01:09:55.17	30.96	34.82	-56.3	-66.6	4.5	7.97e-01	0	46	0	0	60	84079
2026-01-29 01:09:56.17	31.03	35.04	-55.9	-66.8	4.3	8.02e-01	0	46	0	0	60	85282
2026-01-29 01:09:57.18	31.11	35.26	-56.3	-66.5	4.4	7.89e-01	0	46	0	0	60	83122
2026-01-29 01:09:58.19	31.18	35.49	-57.8	-66.9	4.5	7.96e-01	0	46	0	0	60	86230
2026-01-29 01:09:59.19	31.26	35.72	-58.8	-67.2	4.3	7.99e-01	0	46	0	0	60	90121
2026-01-29 01:10:00.20	31.34	35.95	-59.4	-67.5	4.4	8.06e-01	0	46	0	0	60	92703
2026-01-29 01:10:01.21	31.42	36.18	-59.1	-67.4	4.3	8.10e-01	0	46	0	0	60	91570
2026-01-29 01:10:02.22	31.49	36.41	-58.9	-67.4	4.3	8.11e-01	0	46	0	0	60	91687
2026-01-29 01:10:03.22	31.57	36.64	-58.7	-67.4	4.3	8.07e-01	0	46	0	0	60	91484
2026-01-29 01:10:04.22	31.66	36.88	-58.4	-67.4	4.2	8.11e-01	0	46	0	0	60	91902
2026-01-29 01:10:05.23	31.74	37.11	-58.2	-67.6	4.1	8.14e-01	0	46	0	0	60	94501
2026-01-29 01:10:06.24	31.82	37.35	-57.9	-67.7	4.0	8.19e-01	0	46	0	0	60	94656
2026-01-29 01:10:07.25	31.91	37.59	-57.4	-67.7	4.0	8.26e-01	0	46	0	0	60	94762
2026-01-29 01:10:08.25	31.99	37.83	-56.8	-67.8	3.9	8.27e-01	0	46	0	0	60	96045
2026-01-29 01:10:09.26	32.08	38.08	-57.1	-67.7	4.0	8.26e-01	0	46	0	0	60	95367
2026-01-29 01:10:10.27	32.17	38.32	-58.3	-67.9	4.1	8.28e-01	0	46	0	0	60	97440
2026-01-29 01:10:11.28	32.26	38.57	-59.8	-67.9	4.1	8.26e-01	0	46	0	0	60	97841
2026-01-29 01:10:12.28	32.35	38.82	-59.4	-68.3	4.0	8.24e-01	0	46	0	0	60	101315
2026-01-29 01:10:13.29	32.44	39.07	-58.4	-68.2	4.0	8.30e-01	0	46	0	0	60	101068
2026-01-29 01:10:14.30	32.54	39.32	-58.2	-68.2	3.9	8.29e-01	0	46	0	0	60	101131
2026-01-29 01:10:15.31	32.63	39.58	-58.9	-68.4	3.9	8.29e-01	0	46	0	0	60	102817
2026-01-29 01:10:16.32	32.73	39.83	-59.3	-68.5	3.9	8.31e-01	0	46	0	0	60	103878
2026-01-29 01:10:17.33	32.83	40.09	-59.2	-68.5	3.9	8.30e-01	0	46	0	0	60	103941
2026-01-29 01:10:18.33	32.93	40.35	-59.5	-68.5	4.0	8.30e-01	0	46	0	0	60	103756
2026-01-29 01:10:19.34	33.03	40.61	-59.8	-68.7	3.8	8.32e-01	0	46	0	0	60	106687
2026-01-29 01:10:20.35	33.13	40.88	-59.4	-70.0	4.0	8.34e-01	0	46	104	0	60	124510
2026-01-29 01:10:21.36	33.24	41.14	-58.8	-68.6	3.8	8.33e-01	0	46	0	0	60	105732
2026-01-29 01:10:22.36	33.34	41.41	-58.7	-68.7	3.8	8.34e-01	0	46	0	0	60	106749
2026-01-29 01:10:23.36	33.45	41.67	-59.0	-69.8	4.0	8.38e-01	0	46	104	0	60	120824
2026-01-29 01:10:24.37	33.56	41.95	-59.4	-70.1	3.7	8.36e-01	0	46	104	0	60	124899
2026-01-29 01:10:25.38	33.67	42.22	-59.5	-69.4	3.8	8.38e-01	0	46	0	0	60	115183
2026-01-29 01:10:26.39	33.78	42.49	-59.0	-70.3	3.9	8.40e-01	0	46	104	0	60	128072
2026-01-29 01:10:27.39	33.90	42.77	-58.7	-70.5	3.9	8.37e-01	0	46	104	0	60	130907
2026-01-29 01:10:28.40	34.02	43.05	-58.6	-68.9	3.7	8.39e-01	0	46	0	0	60	108741
2026-01-29 01:10:29.41	34.14	43.33	-59.2	-70.2	3.9	8.41e-01	0	46	104	0	60	126719
2026-01-29 01:10:30.41	34.26	43.61	-59.6	-70.3	3.9	8.41e-01	0	46	104	0	60	128855
2026-01-29 01:10:31.42	34.38	43.89	-59.9	-70.5	3.7	8.37e-01	0	46	104	0	60	131098
2026-01-29 01:10:32.43	34.51	44.18	-60.1	-69.5	3.7	8.40e-01	0	46	0	0	60	116599
2026-01-29 01:10:33.44	34.63	44.47	-60.2	-70.7	3.9	8.39e-01	0	46	104	0	60	133681
2026-01-29 01:10:34.44	34.76	44.76	-60.2	-70.6	3.9	8.42e-01	0	46	104	0	60	132783
2026-01-29 01:10:35.45	34.89	45.05	-60.3	-70.7	3.9	8.44e-01	0	46	104	0	60	134338
2026-01-29 01:10:36.46	35.03	45.35	-60.3	-70.8	3.6	8.40e-01	0	46	104	0	60	136525
2026-01-29 01:10:37.47	35.17	45.64	-60.0	-71.0	3.7	8.41e-01	0	46	104	0	60	138631
2026-01-29 01:10:38.47	35.30	45.94	-59.2	-70.5	3.7	8.41e-01	0	46	104	0	60	131190
2026-01-29 01:10:39.47	35.45	46.24	-58.9	-70.8	3.8	8.41e-01	0	46	104	0	60	135086
2026-01-29 01:10:40.48	35.59	46.54	-59.7	-70.8	3.9	8.42e-01	0	46	104	0	60	135314
2026-01-29 01:10:41.49	35.74	46.85	-60.3	-70.7	3.9	8.42e-01	0	46	104	0	60	134209
2026-01-29 01:10:42.49	35.89	47.15	-60.0	-70.8	3.9	8.41e-01	0	46	104	0	60	136333
2026-01-29 01:10:43.50	36.04	47.46	-59.8	-71.1	3.6	8.44e-01	0	46	104	0	60	140315
2026-01-29 01:10:44.51	36.20	47.77	-60.0	-71.2	3.6	8.42e-01	0	46	104	0	60	142994
2026-01-29 01:10:45.52	36.36	48.08	-60.1	-71.1	3.7	8.41e-01	0	46	104	0	60	141284
2026-01-29 01:10:46.52	36.52	48.40	-60.1	-71.0	3.7	8.41e-01	0	46	104	0	60	139172
2026-01-29 01:10:47.53	36.69	48.71	-59.9	-71.0	3.8	8.42e-01	0	46	104	0	60	138656
2026-01-29 01:10:48.54	36.85	49.03	-60.0	-71.1	3.8	8.41e-01	0	46	104	0	60	140875
2026-01-29 01:10:49.55	37.03	49.35	-60.0	-71.0	3.8	8.44e-01	0	46	104	0	60	138688
2026-01-29 01:10:50.56	37.20	49.68	-59.9	-70.9	3.8	8.42e-01	0	46	104	0	60	136877
2026-01-29 01:10:51.56	37.38	50.00	-59.9	-70.9	3.8	8.42e-01	0	46	104	0	60	137374
2026-01-29 01:10:52.56	37.56	50.32	-59.9	-71.1	3.6	8.43e-01	0	46	104	0	60	140752
2026-01-29 01:10:53.56	37.75	50.65	-59.8	-71.1	3.6	8.42e-01	0	46	104	0	60	141000
2026-01-29 01:10:54.57	37.94	50.98	-60.1	-71.0	3.7	8.41e-01	0	46	104	0	60	138833
2026-01-29 01:10:55.57	38.14	51.31	-60.3	-71.2	3.8	8.42e-01	0	46	104	0	60	141755
2026-01-29 01:10:56.57	38.34	51.65	-60.2	-71.2	3.8	8.43e-01	0	46	104	0	60	142808
2026-01-29 01:10:57.58	38.54	51.98	-59.7	-71.2	3.8	8.43e-01	0	46	104	0	60	142077
2026-01-29 01:10:58.58	38.75	52.32	-59.4	-71.1	3.8	8.42e-01	0	46	104	0	60	140997
2026-01-29 01:10:59.59	38.96	52.66	-59.6	-71.1	3.8	8.43e-01	0	46	104	0	60	140236
2026-01-29 01:11:00.60	39.18	53.01	-59.8	-71.2	3.6	8.42e-01	0	46	104	0	60	142290
2026-01-29 01:11:01.60	39.40	53.35	-59.6	-71.3	3.6	8.42e-01	0	46	104	0	60	143077
2026-01-29 01:11:02.61	39.63	53.70	-59.2	-70.7	3.7	8.43e-01	0	46	104	0	60	134503
2026-01-29 01:11:03.62	39.87	54.05	-58.9	-70.8	3.8	8.44e-01	0	46	104	0	60	135318
2026-01-29 01:11:04.63	40.11	54.40	-58.8	-70.7	3.8	8.44e-01	0	46	104	0	60	134504
2026-01-29 01:11:05.64	40.36	54.75	-59.0	-71.0	3.8	8.43e-01	0	46	104	0	60	139300
2026-01-29 01:11:06.65	40.61	55.11	-59.4	-71.2	3.6	8.42e-01	0	46	104	0	60	142082
2026-01-29 01:11:07.65	40.87	55.46	-59.4	-71.1	3.7	8.42e-01	0	46	104	0	60	141344
2026-01-29 01:11:08.66	41.13	55.82	-59.2	-70.6	3.7	8.41e-01	0	46	104	0	60	132335
2026-01-29 01:11:09.67	41.40	56.18	-59.1	-71.1	3.8	8.43e-01	0	46	104	0	60	139954
2026-01-29 01:11:10.68	41.68	56.54	-59.2	-70.9	3.8	8.41e-01	0	46	104	0	60	137669
2026-01-29 01:11:11.68	41.97	56.90	-59.5	-70.9	3.9	8.40e-01	0	46	104	0	60	137294
2026-01-29 01:11:12.69	42.26	57.27	-59.4	-71.0	3.9	8.42e-01	0	46	104	0	60	138245
2026-01-29 01:11:13.69	42.56	57.63	-59.4	-71.1	3.7	8.40e-01	0	46	104	0	60	140392
2026-01-29 01:11:14.70	42.87	58.00	-59.7	-70.1	3.6	8.41e-01	0	46	0	0	60	125021
2026-01-29 01:11:15.71	43.19	58.37	-60.1	-70.8	3.9	8.39e-01	0	46	104	0	60	135788
2026-01-29 01:11:16.71	43.52	58.74	-60.1	-70.6	4.0	8.40e-01	0	46	104	0	60	132467
2026-01-29 01:11:17.72	43.85	59.12	-59.9	-70.8	3.7	8.38e-01	0	46	104	0	60	135668
2026-01-29 01:11:18.73	44.20	59.49	-60.0	-69.6	3.8	8.37e-01	0	46	0	0	60	118786
2026-01-29 01:11:19.74	44.56	59.87	-60.3	-70.8	3.7	8.37e-01	0	46	104	0	60	135241
2026-01-29 01:11:20.74	44.92	60.24	-60.5	-69.6	3.8	8.36e-01	0	46	0	0	60	117840
2026-01-29 01:11:21.75	45.30	60.62	-60.4	-69.3	3.8	8.34e-01	0	46	0	0	60	114293
2026-01-29 01:11:22.76	45.69	61.00	-60.3	-69.3	3.8	8.34e-01	0	46	0	0	60	113737
2026-01-29 01:11:23.76	46.09	61.38	-60.3	-70.8	3.9	8.40e-01	0	46	104	0	60	135654
2026-01-29 01:11:24.77	46.50	61.76	-60.3	-70.4	4.1	8.42e-01	0	46	104	0	60	129547
2026-01-29 01:11:25.78	46.93	62.14	-60.2	-68.9	4.0	8.31e-01	0	46	0	0	60	109136
2026-01-29 01:11:26.78	47.36	62.52	-59.9	-68.9	3.9	8.29e-01	0	46	0	0	60	109115
2026-01-29 01:11:27.79	47.82	62.91	-59.7	-69.2	3.8	8.32e-01	0	46	0	0	60	112998
2026-01-29 01:11:28.79	48.28	63.29	-59.3	-70.6	3.7	8.33e-01	0	46	104	0	60	133066
2026-01-29 01:11:29.80	48.77	63.68	-59.4	-69.5	3.9	8.32e-01	0	46	0	0	60	116775
2026-01-29 01:11:30.80	49.26	64.06	-59.7	-69.2	3.8	8.32e-01	0	46	0	0	60	113620
2026-01-29 01:11:31.81	49.78	64.44	-59.7	-68.9	4.0	8.30e-01	0	46	0	0	60	109427
2026-01-29 01:11:32.82	50.31	64.83	-59.8	-68.6	4.1	8.20e-01	0	46	0	0	60	105100
2026-01-29 01:11:33.83	50.87	65.22	-60.0	-68.9	4.0	8.21e-01	0	46	0	0	60	108695
2026-01-29 01:11:34.84	51.44	65.60	-60.2	-69.3	3.8	8.31e-01	0	46	0	0	60	114507
2026-01-29 01:11:35.84	52.03	65.98	-60.1	-69.3	3.9	8.32e-01	0	46	0	0	60	114379
2026-01-29 01:11:36.86	52.65	66.37	-59.6	-69.1	3.9	8.31e-01	0	46	0	0	60	111639
2026-01-29 01:11:37.86	53.27	66.75	-58.8	-68.9	3.8	8.30e-01	0	46	0	0	60	109018
2026-01-29 01:11:38.87	53.93	67.14	-58.5	-70.4	4.0	8.37e-01	0	46	104	0	60	129162
2026-01-29 01:11:39.88	54.62	67.52	-58.5	-70.6	3.7	8.37e-01	0	46	104	0	60	132656
2026-01-29 01:11:40.89	55.33	67.90	-58.6	-70.3	3.7	8.38e-01	0	46	104	0	60	128330
2026-01-29 01:11:41.89	56.06	68.28	-58.8	-69.6	3.9	8.36e-01	0	46	104	0	60	118722
2026-01-29 01:11:42.90	56.82	68.66	-58.6	-68.9	3.9	8.32e-01	0	46	0	0	60	108671
2026-01-29 01:11:43.91	57.61	69.03	-58.1	-68.9	3.8	8.32e-01	0	46	0	0	60	108696
2026-01-29 01:11:44.91	58.43	69.40	-57.9	-68.9	3.8	8.33e-01	0	46	0	0	60	109598
2026-01-29 01:11:45.92	59.29	69.78	-57.7	-70.4	4.0	8.39e-01	0	46	104	0	60	129363
2026-01-29 01:11:46.92	60.17	70.14	-57.7	-70.7	3.7	8.36e-01	0	46	104	0	60	134900
2026-01-29 01:11:47.93	61.10	70.51	-57.9	-69.9	3.7	8.41e-01	0	46	104	0	60	122477
2026-01-29 01:11:48.93	62.05	70.86	-58.1	-70.7	3.9	8.42e-01	0	46	104	0	60	134542
2026-01-29 01:11:49.94	63.05	71.22	-58.5	-70.2	4.0	8.39e-01	0	46	104	0	60	126340
2026-01-29 01:11:50.95	64.10	71.57	-59.0	-69.0	3.7	8.32e-01	0	46	0	0	60	109811
2026-01-29 01:11:51.95	65.17	71.92	-59.4	-69.0	3.8	8.34e-01	0	46	0	0	60	110758
2026-01-29 01:11:52.95	66.29	72.26	-59.5	-70.1	4.1	8.33e-01	0	46	104	0	60	125002
2026-01-29 01:11:53.96	67.47	72.60	-59.6	-70.5	3.7	8.31e-01	0	46	104	0	60	131045
2026-01-29 01:11:54.97	68.69	72.93	-59.7	-69.5	3.8	8.37e-01	0	46	0	0	60	116646
2026-01-29 01:11:55.98	69.97	73.25	-59.6	-69.4	3.8	8.31e-01	0	46	0	0	60	115378
2026-01-29 01:11:56.99	71.30	73.57	-59.5	-70.5	4.0	8.37e-01	0	46	104	0	60	131878
2026-01-29 01:11:58.00	72.68	73.88	-59.3	-69.2	3.8	8.32e-01	0	46	0	0	60	113369
2026-01-29 01:11:59.01	74.12	74.18	-59.0	-71.0	3.9	8.42e-01	0	46	104	0	60	139235
2026-01-29 01:12:00.01	75.60	74.47	-58.4	-70.9	3.9	8.40e-01	0	46	104	0	60	137840
2026-01-29 01:12:01.02	77.15	74.75	-58.0	-70.9	3.7	8.39e-01	0	46	104	0	60	137408
2026-01-29 01:12:02.02	78.75	75.02	-57.4	-71.0	3.6	8.41e-01	0	46	104	0	60	138646
2026-01-29 01:12:03.03	80.42	75.28	-57.1	-70.6	3.7	8.42e-01	0	46	104	0	60	132630
2026-01-29 01:12:04.03	82.14	75.53	-56.9	-71.1	3.7	8.45e-01	0	46	104	0	60	140034
2026-01-29 01:12:05.04	83.93	75.77	-56.6	-71.0	3.7	8.44e-01	0	46	104	0	60	138406
2026-01-29 01:12:06.05	85.79	75.99	-56.6	-71.1	3.7	8.44e-01	0	46	104	0	60	140320
2026-01-29 01:12:07.05	87.68	76.19	-56.6	-71.0	3.6	8.45e-01	0	46	104	0	60	139674
2026-01-29 01:12:08.05	89.64	76.39	-56.3	-70.8	3.7	8.45e-01	0	46	104	0	60	136096
2026-01-29 01:12:09.06	91.66	76.56	-56.1	-71.1	3.6	8.45e-01	0	46	104	0	60	140529
2026-01-29 01:12:10.07	93.75	76.73	-56.0	-70.9	3.6	8.44e-01	0	46	104	0	60	137046
2026-01-29 01:12:11.08	95.88	76.87	-55.9	-71.0	3.6	8.44e-01	0	46	104	0	60	138596
2026-01-29 01:12:12.08	98.03	76.99	-56.0	-71.4	3.6	8.45e-01	0	46	104	0	60	145128
2026-01-29 01:12:13.09	100.25	77.10	-58.4	-72.6	3.6	8.45e-01	0	46	104	0	60	167380
2026-01-29 01:12:14.10	102.50	77.19	-57.3	-72.8	3.6	8.45e-01	0	46	104	0	60	170662
2026-01-29 01:12:15.11	104.78	77.26	-58.1	-73.4	3.6	8.45e-01	0	46	104	0	60	183633
2026-01-29 01:12:16.12	107.09	77.31	-58.7	-73.0	3.6	8.46e-01	0	46	104	0	60	175018
2026-01-29 01:12:17.12	109.38	77.34	-58.5	-72.5	3.6	8.44e-01	0	46	104	0	60	165294
2026-01-29 01:12:18.13	111.71	77.35	-58.3	-72.4	3.6	8.46e-01	0	46	104	0	60	163279
2026-01-29 01:12:19.13	114.01	77.34	-58.1	-72.3	3.6	8.45e-01	0	46	104	0	60	161725
2026-01-29 01:12:20.14	116.33	77.31	-57.8	-73.9	3.6	8.46e-01	0	46	104	0	60	194139
2026-01-29 01:12:21.15	118.63	77.26	-57.8	-73.6	3.6	8.45e-01	0	46	104	0	60	188256
2026-01-29 01:12:22.15	120.89	77.19	-58.1	-72.8	3.6	8.45e-01	0	46	104	0	60	170582
2026-01-29 01:12:23.16	123.15	77.10	-57.8	-72.6	3.6	8.46e-01	0	46	104	0	60	167368
2026-01-29 01:12:24.16	125.34	77.00	-58.0	-73.4	3.6	8.45e-01	0	46	104	0	60	182641
2026-01-29 01:12:25.17	127.52	76.87	-57.8	-73.0	3.6	8.45e-01	0	46	104	0	60	175224
2026-01-29 01:12:26.17	129.63	76.73	-57.7	-72.5	3.6	8.45e-01	0	46	104	0	60	165085
2026-01-29 01:12:27.18	131.71	76.57	-57.8	-72.4	3.6	8.45e-01	0	46	104	0	60	163827
2026-01-29 01:12:28.19	133.74	76.39	-58.6	-73.4	3.6	8.46e-01	0	46	104	0	60	182561
2026-01-29 01:12:29.19	135.70	76.20	-58.3	-73.8	3.6	8.46e-01	0	46	104	0	60	191934
2026-01-29 01:12:30.20	137.61	75.99	-58.3	-73.1	3.6	8.45e-01	0	46	104	0	60	177371
2026-01-29 01:12:31.21	139.47	75.76	-59.4	-73.2	3.6	8.45e-01	0	46	104	0	60	179085
2026-01-29 01:12:32.22	141.26	75.53	-58.5	-74.2	3.6	8.45e-01	0	46	104	0	60	200028
2026-01-29 01:12:33.22	142.98	75.28	-59.5	-73.0	3.6	8.45e-01	0	46	104	0	60	175006
2026-01-29 01:12:34.23	144.65	75.02	-59.7	-73.1	3.6	8.45e-01	0	46	104	0	60	176870
2026-01-29 01:12:35.23	146.25	74.75	-59.9	-73.1	3.6	8.45e-01	0	46	104	0	60	177022
2026-01-29 01:12:36.24	147.80	74.47	-60.4	-73.5	3.6	8.45e-01	0	46	104	0	60	186223
2026-01-29 01:12:37.25	149.30	74.18	-60.6	-73.8	3.6	8.45e-01	0	46	104	0	60	192271
2026-01-29 01:12:38.25	150.72	73.88	-60.3	-74.3	3.6	8.45e-01	0	46	104	0	60	202725
2026-01-29 01:12:39.26	152.11	73.57	-61.1	-74.4	3.6	8.45e-01	0	46	104	0	60	206307
2026-01-29 01:12:40.27	153.44	73.25	-60.8	-73.7	3.6	8.46e-01	0	46	104	0	60	189104
2026-01-29 01:12:41.27	154.70	72.93	-60.8	-73.4	3.6	8.44e-01	0	46	104	0	60	183170
2026-01-29 01:12:42.28	155.93	72.60	-61.1	-73.5	3.6	8.45e-01	0	46	104	0	60	184444
2026-01-29 01:12:43.29	157.10	72.26	-61.1	-73.4	3.6	8.45e-01	0	46	104	0	60	182612
2026-01-29 01:12:44.30	158.23	71.91	-61.3	-74.9	3.6	8.44e-01	0	46	104	0	60	219047
2026-01-29 01:12:45.31	159.32	71.56	-61.4	-75.0	3.6	8.47e-01	0	46	104	0	60	219234
2026-01-29 01:12:46.32	160.37	71.21	-61.1	-73.6	3.6	8.44e-01	0	46	104	0	60	187860
2026-01-29 01:12:47.32	161.36	70.86	-61.1	-73.6	3.6	8.44e-01	0	46	104	0	60	188307
2026-01-29 01:12:48.33	162.32	70.49	-61.1	-74.6	3.6	8.44e-01	0	46	104	0	60	210313
2026-01-29 01:12:49.34	163.25	70.13	-61.1	-73.4	3.6	8.46e-01	0	46	104	0	60	182218
2026-01-29 01:12:50.34	164.13	69.76	-61.2	-73.6	3.6	8.45e-01	0	46	104	0	60	186814
2026-01-29 01:12:51.35	164.99	69.39	-61.2	-73.5	3.6	8.45e-01	0	46	104	0	60	186414
2026-01-29 01:12:52.36	165.81	69.02	-61.3	-73.9	3.6	8.46e-01	0	46	104	0	60	194793
2026-01-29 01:12:53.36	166.60	68.64	-61.4	-74.6	3.6	8.44e-01	0	46	104	0	60	210785
2026-01-29 01:12:54.36	167.36	68.27	-61.3	-73.8	3.6	8.44e-01	0	46	104	0	60	192006
2026-01-29 01:12:55.37	168.09	67.89	-61.3	-73.7	3.6	8.45e-01	0	46	104	0	60	189183
2026-01-29 01:12:56.37	168.79	67.51	-61.3	-74.7	3.6	8.45e-01	0	46	104	0	60	212852
2026-01-29 01:12:57.38	169.48	67.12	-61.3	-73.8	3.6	8.45e-01	0	46	104	0	60	191264
2026-01-29 01:12:58.39	170.14	66.74	-61.4	-73.6	3.6	8.45e-01	0	46	104	0	60	187512
2026-01-29 01:12:59.40	170.77	66.35	-61.3	-73.3	3.6	8.45e-01	0	46	104	0	60	181276
2026-01-29 01:13:00.41	171.39	65.97	-61.3	-73.6	3.6	8.45e-01	0	46	104	0	60	186673
2026-01-29 01:13:01.41	171.97	65.59	-61.3	-74.6	3.6	8.45e-01	0	46	104	0	60	211472
2026-01-29 01:13:02.41	172.54	65.20	-61.3	-73.6	3.6	8.44e-01	0	46	104	0	60	186673
2026-01-29 01:13:03.42	173.09	64.82	-61.3	-73.1	3.6	8.45e-01	0	46	104	0	60	176652
2026-01-29 01:13:04.43	173.63	64.43	-61.4	-74.7	3.6	8.45e-01	0	46	104	0	60	211795
2026-01-29 01:13:05.44	174.15	64.04	-61.4	-73.8	3.6	8.45e-01	0	47	104	0	60	191271
2026-01-29 01:13:06.44	174.64	63.66	-61.3	-73.7	3.6	8.45e-01	0	47	104	0	60	190138
2026-01-29 01:13:07.45	175.13	63.27	-61.3	-73.3	3.6	8.44e-01	0	46	104	0	60	181447
2026-01-29 01:13:08.45	175.59	62.89	-61.4	-73.6	3.6	8.46e-01	0	46	104	0	60	187330
2026-01-29 01:13:09.46	176.04	62.50	-61.4	-74.5	3.6	8.45e-01	0	46	104	0	60	208752
2026-01-29 01:13:10.47	176.48	62.12	-61.4	-74.6	3.6	8.44e-01	0	46	104	0	60	209204
2026-01-29 01:13:11.48	176.91	61.74	-61.3	-74.5	3.6	8.45e-01	0	46	104	0	60	207275
2026-01-29 01:13:12.48	177.32	61.36	-61.4	-73.7	3.6	8.45e-01	0	46	104	0	60	189829
2026-01-29 01:13:13.49	177.72	60.97	-61.4	-73.8	3.6	8.45e-01	0	46	104	0	60	191680
2026-01-29 01:13:14.50	178.11	60.59	-61.4	-73.8	3.6	8.45e-01	0	46	104	0	60	192013
2026-01-29 01:13:15.51	178.49	60.21	-61.4	-74.1	3.6	8.45e-01	0	46	104	0	60	199362
2026-01-29 01:13:16.52	178.86	59.83	-61.5	-74.8	3.6	8.45e-01	0	46	104	0	60	215648
2026-01-29 01:13:17.53	179.21	59.46	-61.2	-74.2	3.6	8.45e-01	0	46	104	0	60	201801
2026-01-29 01:13:18.53	179.56	59.08	-61.2	-73.7	3.6	8.45e-01	0	46	104	0	60	189830
2026-01-29 01:13:19.54	179.90	58.71	-61.2	-73.6	3.6	8.45e-01	0	46	104	0	60	186524
2026-01-29 01:13:20.55	180.22	58.34	-61.3	-74.6	3.6	8.45e-01	0	46	104	0	60	209890
2026-01-29 01:13:21.56	180.54	57.97	-61.2	-73.7	3.6	8.44e-01	0	46	104	0	60	189316
2026-01-29 01:13:22.56	180.85	57.60	-61.2	-73.7	3.6	8.45e-01	0	46	104	0	60	189747
2026-01-29 01:13:23.57	181.15	57.23	-61.2	-73.6	3.6	8.45e-01	0	46	104	0	60	187189
2026-01-29 01:13:24.57	181.44	56.87	-61.1	-73.6	3.6	8.46e-01	0	46	104	0	60	187411
2026-01-29 01:13:25.58	181.73	56.50	-61.2	-74.5	3.6	8.45e-01	0	46	104	0	60	208728
2026-01-29 01:13:26.59	182.01	56.14	-61.1	-73.8	3.6	8.45e-01	0	46	104	0	60	191075
2026-01-29 01:13:27.59	182.28	55.78	-61.0	-73.7	3.6	8.45e-01	0	46	104	0	60	190519
2026-01-29 01:13:28.60	182.55	55.42	-61.1	-74.5	3.6	8.45e-01	0	47	104	0	60	207609
2026-01-29 01:13:29.60	182.80	55.07	-61.0	-73.7	3.6	8.45e-01	0	47	104	0	60	189645
2026-01-29 01:13:30.61	183.06	54.71	-61.0	-73.7	3.6	8.44e-01	0	46	104	0	60	189428
2026-01-29 01:13:31.62	183.30	54.36	-61.0	-73.6	3.6	8.44e-01	0	46	104	0	60	188569
2026-01-29 01:13:32.63	183.54	54.00	-61.1	-74.3	3.6	8.44e-01	0	46	104	0	60	204319
2026-01-29 01:13:33.64	183.78	53.65	-61.1	-74.3	3.6	8.45e-01	0	46	104	0	60	203037
2026-01-29 01:13:34.64	184.01	53.31	-61.1	-73.7	3.6	8.45e-01	0	47	104	0	60	190691
2026-01-29 01:13:35.65	184.23	52.96	-61.0	-73.9	3.6	8.44e-01	0	46	104	0	60	195147
2026-01-29 01:13:36.66	184.45	52.62	-61.1	-74.4	3.6	8.46e-01	0	47	104	0	60	206389
2026-01-29 01:13:37.67	184.66	52.27	-61.0	-73.7	3.6	8.46e-01	0	46	104	0	60	189794
2026-01-29 01:13:38.67	184.87	51.94	-61.1	-73.6	3.6	8.44e-01	0	47	104	0	60	188416
2026-01-29 01:13:39.68	185.08	51.60	-61.0	-73.6	3.6	8.47e-01	0	47	104	0	60	187721
2026-01-29 01:13:40.69	185.28	51.26	-61.0	-73.9	3.6	8.46e-01	0	46	104	0	60	194527
2026-01-29 01:13:41.69	185.47	50.93	-61.1	-73.8	3.6	8.46e-01	0	46	104	0	60	192555
2026-01-29 01:13:42.70	185.66	50.60	-61.1	-74.5	3.6	8.45e-01	0	46	104	0	60	208339
2026-01-29 01:13:43.70	185.85	50.27	-61.1	-73.6	3.6	8.45e-01	0	47	104	0	60	187523
2026-01-29 01:13:44.70	186.03	49.94	-61.2	-73.8	3.6	8.45e-01	0	47	104	0	60	191741
2026-01-29 01:13:45.71	186.21	49.62	-61.2	-73.7	3.6	8.45e-01	0	47	104	0	60	189992
2026-01-29 01:13:46.71	186.38	49.30	-61.2	-73.6	3.6	8.46e-01	0	47	104	0	60	188596
2026-01-29 01:13:47.72	186.56	48.97	-61.3	-74.4	3.6	8.45e-01	0	46	104	0	60	206354
2026-01-29 01:13:48.73	186.73	48.65	-61.2	-73.9	3.6	8.46e-01	0	46	104	0	60	195212
2026-01-29 01:13:49.74	186.89	48.33	-61.2	-73.6	3.6	8.45e-01	0	46	104	0	60	187802
2026-01-29 01:13:50.74	187.05	48.02	-61.3	-73.6	3.6	8.46e-01	0	47	104	0	60	187451
2026-01-29 01:13:51.75	187.21	47.71	-61.2	-74.3	3.6	8.44e-01	0	47	104	0	60	203956
2026-01-29 01:13:52.75	187.37	47.40	-61.3	-74.4	3.6	8.47e-01	0	46	104	0	60	205559
2026-01-29 01:13:53.75	187.52	47.09	-61.2	-73.4	3.6	8.44e-01	0	46	104	0	60	183646
2026-01-29 01:13:54.76	187.67	46.78	-61.2	-73.4	3.6	8.45e-01	0	47	104	0	60	182528
2026-01-29 01:13:55.77	187.82	46.48	-61.2	-73.9	3.5	8.45e-01	0	46	104	0	60	193811
2026-01-29 01:13:56.77	187.96	46.18	-61.1	-74.5	3.6	8.44e-01	0	46	104	0	60	207026
2026-01-29 01:13:57.77	188.10	45.88	-61.1	-73.8	3.6	8.45e-01	0	47	104	0	60	191994
2026-01-29 01:13:58.77	188.24	45.58	-61.2	-73.4	3.6	8.45e-01	0	46	104	0	60	182358
2026-01-29 01:13:59.78	188.38	45.28	-61.2	-74.4	3.6	8.44e-01	0	47	104	0	60	205896
2026-01-29 01:14:00.79	188.51	44.99	-61.2	-74.0	3.6	8.44e-01	0	46	104	0	60	196459
2026-01-29 01:14:01.79	188.64	44.70	-61.1	-73.3	3.6	8.45e-01	0	47	104	0	60	181416
2026-01-29 01:14:02.80	188.77	44.40	-61.1	-73.3	3.6	8.44e-01	0	47	104	0	60	182070
2026-01-29 01:14:03.80	188.90	44.12	-61.0	-73.7	3.6	8.44e-01	0	46	104	0	60	189882
2026-01-29 01:14:04.81	189.03	43.83	-61.0	-74.4	3.6	8.45e-01	0	46	104	0	60	205947
2026-01-29 01:14:05.82	189.15	43.54	-61.1	-73.6	3.6	8.44e-01	0	47	104	0	60	188292
2026-01-29 01:14:06.83	189.27	43.26	-61.1	-73.5	3.6	8.46e-01	0	47	104	0	60	186140
2026-01-29 01:14:07.84	189.39	42.98	-61.1	-74.2	3.6	8.43e-01	0	47	104	0	60	200610
2026-01-29 01:14:08.84	189.51	42.70	-61.2	-74.1	3.6	8.45e-01	0	47	104	0	60	198480
2026-01-29 01:14:09.85	189.62	42.42	-61.1	-74.2	3.6	8.45e-01	0	47	104	0	60	200380
2026-01-29 01:14:10.86	189.73	42.15	-61.0	-73.9	3.6	8.47e-01	0	47	104	0	60	195148
2026-01-29 01:14:11.86	189.84	41.88	-60.8	-73.1	3.6	8.44e-01	0	47	104	0	60	176206
2026-01-29 01:14:12.87	189.95	41.60	-60.8	-74.3	3.6	8.45e-01	0	47	104	0	60	202413
2026-01-29 01:14:13.87	190.06	41.34	-60.9	-73.3	3.6	8.45e-01	0	47	104	0	60	182198
2026-01-29 01:14:14.87	190.17	41.07	-60.8	-73.3	3.6	8.44e-01	0	47	104	0	60	181468
2026-01-29 01:14:15.87	190.27	40.81	-60.9	-73.9	3.6	8.45e-01	0	47	104	0	60	194014
2026-01-29 01:14:16.88	190.37	40.54	-60.9	-74.0	3.6	8.47e-01	0	46	104	0	60	196726
2026-01-29 01:14:17.89	190.47	40.28	-60.7	-73.3	3.6	8.44e-01	0	47	104	0	60	182030
2026-01-29 01:14:18.89	190.57	40.02	-60.7	-73.4	3.6	8.45e-01	0	47	104	0	60	182749
2026-01-29 01:14:19.90	190.67	39.76	-60.7	-73.1	3.6	8.46e-01	0	46	104	0	60	177965
2026-01-29 01:14:20.90	190.77	39.51	-60.7	-74.1	3.6	8.46e-01	0	46	104	0	60	198608
2026-01-29 01:14:21.91	190.86	39.25	-60.8	-73.4	3.6	8.45e-01	0	46	104	0	60	184245
2026-01-29 01:14:22.91	190.96	39.00	-60.6	-73.0	3.6	8.45e-01	0	46	104	0	60	174741
2026-01-29 01:14:23.92	191.05	38.75	-60.8	-73.6	3.6	8.45e-01	0	46	104	0	60	187237
2026-01-29 01:14:24.93	191.14	38.50	-60.6	-73.4	3.6	8.45e-01	0	46	104	0	60	183511
2026-01-29 01:14:25.93	191.23	38.25	-60.5	-72.9	3.6	8.44e-01	0	46	104	0	60	172708
2026-01-29 01:14:26.93	191.32	38.01	-60.4	-72.7	3.6	8.45e-01	0	46	104	0	60	169699
2026-01-29 01:14:27.94	191.40	37.76	-60.6	-73.2	3.6	8.45e-01	0	47	104	0	60	178571
2026-01-29 01:14:28.94	191.49	37.52	-60.6	-73.9	3.6	8.45e-01	0	46	104	0	60	193456
2026-01-29 01:14:29.94	191.57	37.28	-60.4	-72.8	3.6	8.44e-01	0	46	104	0	60	170616
2026-01-29 01:14:30.95	191.66	37.04	-60.4	-73.8	3.6	8.45e-01	0	47	104	0	60	191990
2026-01-29 01:14:31.96	191.74	36.80	-60.5	-73.2	3.6	8.45e-01	0	47	104	0	60	179039
2026-01-29 01:14:32.97	191.82	36.57	-60.4	-72.7	3.6	8.46e-01	0	46	104	0	60	168285
2026-01-29 01:14:33.97	191.90	36.33	-60.3	-72.7	3.6	8.45e-01	0	47	104	0	60	168225
2026-01-29 01:14:34.98	191.98	36.10	-60.3	-72.7	3.6	8.45e-01	0	46	104	0	60	168248
2026-01-29 01:14:35.99	192.06	35.87	-60.5	-73.8	3.6	8.46e-01	0	47	104	0	60	192578
2026-01-29 01:14:37.00	192.14	35.64	-60.5	-73.7	3.6	8.46e-01	0	47	104	0	60	189927
2026-01-29 01:14:38.00	192.21	35.41	-60.2	-72.7	3.6	8.45e-01	0	46	104	0	60	169661
2026-01-29 01:14:39.01	192.29	35.19	-60.3	-73.7	3.6	8.45e-01	0	47	104	0	60	189102
2026-01-29 01:14:40.02	192.36	34.96	-60.3	-73.1	3.6	8.46e-01	0	46	104	0	60	177640
2026-01-29 01:14:41.02	192.43	34.74	-60.2	-72.9	3.6	8.45e-01	0	46	104	0	60	172045
2026-01-29 01:14:42.03	192.51	34.52	-60.3	-72.8	3.6	8.45e-01	0	47	104	0	60	171165
2026-01-29 01:14:43.04	192.58	34.30	-60.3	-72.8	3.6	8.44e-01	0	46	104	0	60	170257
2026-01-29 01:14:44.04	192.65	34.08	-60.4	-73.5	3.6	8.45e-01	0	47	104	0	60	186268
2026-01-29 01:14:45.05	192.72	33.86	-60.2	-73.4	3.6	8.46e-01	0	46	104	0	60	183298
2026-01-29 01:14:46.06	192.78	33.64	-60.3	-72.6	3.6	8.45e-01	0	46	104	0	60	167649
2026-01-29 01:14:47.06	192.85	33.43	-60.3	-73.6	3.6	8.44e-01	0	46	104	0	60	187464
2026-01-29 01:14:48.07	192.92	33.22	-60.4	-73.1	3.6	8.45e-01	0	47	104	0	60	176087
2026-01-29 01:14:49.07	192.98	33.01	-60.3	-72.5	3.6	8.46e-01	0	47	104	0	60	165322
2026-01-29 01:14:50.08	193.05	32.80	-60.3	-72.5	3.6	8.45e-01	0	46	104	0	60	165258
2026-01-29 01:14:51.08	193.11	32.59	-60.2	-72.4	3.6	8.46e-01	0	46	104	0	60	162448
2026-01-29 01:14:52.09	193.18	32.38	-60.2	-73.3	3.6	8.45e-01	0	46	104	0	60	182164
2026-01-29 01:14:53.09	193.24	32.18	-60.2	-73.5	3.6	8.45e-01	0	46	104	0	60	185378
2026-01-29 01:14:54.09	193.30	31.98	-60.3	-73.2	3.6	8.45e-01	0	47	104	0	60	178469
2026-01-29 01:14:55.09	193.36	31.77	-60.1	-72.4	3.6	8.44e-01	0	47	104	0	60	162886
2026-01-29 01:14:56.10	193.42	31.57	-60.3	-73.2	3.6	8.45e-01	0	46	104	0	60	179222
2026-01-29 01:14:57.11	193.48	31.37	-60.1	-72.4	3.6	8.47e-01	0	46	104	0	60	163421
2026-01-29 01:14:58.12	193.54	31.17	-60.0	-72.3	3.6	8.46e-01	0	47	104	0	60	162006
2026-01-29 01:14:59.13	193.60	30.97	-60.0	-72.3	3.6	8.45e-01	0	47	104	0	60	161518
2026-01-29 01:15:00.13	193.66	30.78	-60.2	-73.0	3.6	8.44e-01	0	46	104	0	60	174498
2026-01-29 01:15:01.14	193.72	30.58	-60.2	-73.5	3.5	8.45e-01	0	46	104	0	60	185449
2026-01-29 01:15:02.15	193.78	30.39	-60.1	-73.1	3.6	8.46e-01	0	46	104	0	60	176891
2026-01-29 01:15:03.15	193.83	30.20	-60.2	-72.4	3.6	8.46e-01	0	47	104	0	60	163594
2026-01-29 01:15:04.16	193.89	30.01	-60.2	-73.1	3.6	8.46e-01	0	46	104	0	60	177588
2026-01-29 01:15:05.17	193.94	29.81	-60.1	-72.6	3.6	8.45e-01	0	46	104	0	60	166702
2026-01-29 01:15:06.17	194.00	29.63	-60.1	-72.4	3.6	8.45e-01	0	47	104	0	60	164113
2026-01-29 01:15:07.18	194.05	29.44	-60.1	-72.5	3.6	8.44e-01	0	46	104	0	60	164329
2026-01-29 01:15:08.19	194.10	29.25	-60.0	-72.6	3.6	8.45e-01	0	46	104	0	60	167099
2026-01-29 01:15:09.20	194.16	29.07	-60.1	-73.3	3.6	8.45e-01	0	47	104	0	60	180449
2026-01-29 01:15:10.20	194.21	28.88	-60.0	-72.3	3.6	8.45e-01	0	46	104	0	60	161184
2026-01-29 01:15:11.21	194.26	28.70	-60.0	-73.3	3.6	8.46e-01	0	47	104	0	60	181869
2026-01-29 01:15:12.21	194.31	28.52	-59.9	-72.6	3.6	8.46e-01	0	47	104	0	60	167387
2026-01-29 01:15:13.22	194.36	28.34	-59.9	-72.0	3.6	8.44e-01	0	47	104	0	60	156852
2026-01-29 01:15:14.23	194.41	28.16	-59.9	-72.1	3.6	8.44e-01	0	46	104	0	60	157058
2026-01-29 01:15:15.24	194.46	27.98	-59.9	-72.0	3.6	8.45e-01	0	47	104	0	60	155875
2026-01-29 01:15:16.24	194.51	27.81	-59.8	-72.6	3.6	8.45e-01	0	47	104	0	60	167961
2026-01-29 01:15:17.25	194.56	27.63	-59.9	-72.8	3.6	8.45e-01	0	47	104	0	60	170569
2026-01-29 01:15:18.25	194.60	27.46	-59.7	-72.1	3.6	8.46e-01	0	46	104	0	60	157927
2026-01-29 01:15:19.26	194.65	27.28	-59.9	-73.1	3.6	8.46e-01	0	47	104	0	60	177063
2026-01-29 01:15:20.27	194.70	27.11	-59.8	-72.5	3.6	8.46e-01	0	47	104	0	60	165255
2026-01-29 01:15:21.28	194.75	26.94	-59.7	-72.0	3.6	8.45e-01	0	47	104	0	60	155174
2026-01-29 01:15:22.28	194.79	26.77	-59.7	-71.8	3.6	8.46e-01	0	47	104	0	60	152242
2026-01-29 01:15:23.29	194.84	26.60	-59.7	-71.8	3.6	8.45e-01	0	47	104	0	60	153090
2026-01-29 01:15:24.29	194.88	26.43	-59.7	-72.4	3.6	8.46e-01	0	47	104	0	60	162963
2026-01-29 01:15:25.30	194.93	26.26	-59.7	-72.9	3.6	8.45e-01	0	47	104	0	60	172420
2026-01-29 01:15:26.31	194.97	26.09	-59.7	-72.6	3.6	8.47e-01	0	47	104	0	60	167582
2026-01-29 01:15:27.31	195.01	25.93	-59.6	-71.8	3.6	8.45e-01	0	47	104	0	60	152886
2026-01-29 01:15:28.32	195.06	25.77	-59.6	-72.8	3.6	8.46e-01	0	47	104	0	60	170815
2026-01-29 01:15:29.33	195.10	25.60	-59.5	-71.7	3.6	8.46e-01	0	47	104	0	60	151539
2026-01-29 01:15:30.33	195.14	25.44	-59.6	-71.7	3.6	8.45e-01	0	47	104	0	60	151086
2026-01-29 01:15:31.34	195.19	25.28	-59.5	-71.6	3.6	8.44e-01	0	46	104	0	60	149795
2026-01-29 01:15:32.35	195.23	25.12	-59.5	-72.5	3.6	8.46e-01	0	47	104	0	60	165510
2026-01-29 01:15:33.35	195.27	24.96	-59.4	-72.7	3.6	8.46e-01	0	47	104	0	60	168105
2026-01-29 01:15:34.36	195.31	24.80	-59.6	-72.4	3.6	8.45e-01	0	47	104	0	60	164135
2026-01-29 01:15:35.36	195.35	24.64	-59.3	-71.7	3.6	8.44e-01	0	47	104	0	60	151459
2026-01-29 01:15:36.37	195.39	24.49	-59.6	-72.4	3.6	8.46e-01	0	46	104	0	60	163343
2026-01-29 01:15:37.37	195.43	24.33	-59.3	-71.8	3.6	8.45e-01	0	46	104	0	60	151972
2026-01-29 01:15:38.38	195.47	24.18	-59.3	-71.7	3.6	8.46e-01	0	47	104	0	60	151250
2026-01-29 01:15:39.38	195.51	24.02	-59.4	-71.6	3.6	8.45e-01	0	46	104	0	60	148429
2026-01-29 01:15:40.39	195.55	23.87	-59.3	-71.7	3.6	8.46e-01	0	46	104	0	60	150770
2026-01-29 01:15:41.40	195.59	23.72	-59.3	-72.4	3.6	8.47e-01	0	46	104	0	60	163727
2026-01-29 01:15:42.41	195.63	23.57	-59.3	-71.9	3.6	8.45e-01	0	46	104	0	60	153315
2026-01-29 01:15:43.41	195.66	23.42	-59.3	-72.6	3.6	8.45e-01	0	47	104	0	60	166584
2026-01-29 01:15:44.42	195.70	23.27	-59.2	-71.9	3.6	8.44e-01	0	46	104	0	60	153843
2026-01-29 01:15:45.43	195.74	23.12	-59.2	-71.7	3.6	8.46e-01	0	46	104	0	60	150200
2026-01-29 01:15:46.44	195.78	22.97	-59.2	-71.6	3.6	8.44e-01	0	46	104	0	60	149456
2026-01-29 01:15:47.45	195.81	22.82	-59.2	-71.8	3.5	8.45e-01	0	47	104	0	60	152878
2026-01-29 01:15:48.45	195.85	22.68	-59.2	-71.8	3.6	8.45e-01	0	47	104	0	60	152612
2026-01-29 01:15:49.46	195.89	22.53	-59.2	-72.0	3.6	8.46e-01	0	47	104	0	60	156642
2026-01-29 01:15:50.47	195.92	22.39	-59.2	-72.0	3.6	8.45e-01	0	46	104	0	60	155756
2026-01-29 01:15:51.47	195.96	22.24	-59.1	-72.1	3.6	8.45e-01	0	46	104	0	60	158390
2026-01-29 01:15:52.48	195.99	22.10	-59.2	-72.0	3.6	8.45e-01	0	47	104	0	60	156106
2026-01-29 01:15:53.48	196.03	21.96	-59.1	-72.5	3.5	8.45e-01	0	47	104	0	60	164316
2026-01-29 01:15:54.48	196.06	21.82	-59.1	-71.6	3.6	8.46e-01	0	47	104	0	60	149620
2026-01-29 01:15:55.49	196.10	21.68	-59.1	-72.2	3.6	8.46e-01	0	47	104	0	60	159702
2026-01-29 01:15:56.49	196.13	21.54	-59.1	-71.9	3.6	8.43e-01	0	47	104	0	60	154700
2026-01-29 01:15:57.50	196.16	21.40	-59.0	-72.3	3.6	8.47e-01	0	47	104	0	60	161937
2026-01-29 01:15:58.50	196.20	21.26	-59.0	-71.5	3.6	8.44e-01	0	47	104	0	60	147933
2026-01-29 01:15:59.51	196.23	21.12	-59.0	-72.1	3.6	8.46e-01	0	46	104	0	60	158574
2026-01-29 01:16:00.52	196.26	20.98	-59.0	-72.0	3.6	8.45e-01	0	47	104	0	60	156574
2026-01-29 01:16:01.53	196.30	20.85	-58.8	-71.6	3.6	8.44e-01	0	46	104	0	60	149345
2026-01-29 01:16:02.54	196.33	20.71	-58.8	-71.6	3.6	8.45e-01	0	46	104	0	60	149035
2026-01-29 01:16:03.55	196.36	20.58	-58.7	-71.6	3.6	8.45e-01	0	46	104	0	60	148668
2026-01-29 01:16:04.55	196.39	20.44	-58.7	-71.4	3.6	8.45e-01	0	46	104	0	60	145723
2026-01-29 01:16:05.56	196.42	20.31	-58.8	-72.3	3.6	8.44e-01	0	46	104	0	60	161921
2026-01-29 01:16:06.57	196.46	20.18	-58.6	-71.7	3.6	8.45e-01	0	47	104	0	60	151310
2026-01-29 01:16:07.58	196.49	20.05	-58.5	-71.9	3.6	8.45e-01	0	46	104	0	60	154527
2026-01-29 01:16:08.58	196.52	19.92	-58.6	-71.3	3.6	8.45e-01	0	47	104	0	60	144717
2026-01-29 01:16:09.59	196.55	19.78	-58.5	-71.3	3.6	8.45e-01	0	47	104	0	60	144455
2026-01-29 01:16:10.60	196.58	19.65	-58.5	-71.2	3.6	8.45e-01	0	47	104	0	60	142973
2026-01-29 01:16:11.61	196.61	19.52	-58.4	-71.5	3.6	8.44e-01	0	47	104	0	60	147316
2026-01-29 01:16:12.62	196.64	19.40	-58.4	-71.1	3.6	8.45e-01	0	47	104	0	60	140236
2026-01-29 01:16:13.63	196.67	19.27	-58.5	-71.3	3.6	8.45e-01	0	47	104	0	60	144637
2026-01-29 01:16:14.63	196.70	19.14	-58.4	-71.2	3.6	8.45e-01	0	47	104	0	60	142914
2026-01-29 01:16:15.64	196.73	19.01	-58.5	-71.7	3.6	8.45e-01	0	46	104	0	60	150917
2026-01-29 01:16:16.65	196.76	18.89	-58.4	-71.8	3.6	8.45e-01	0	47	104	0	60	151993
2026-01-29 01:16:17.65	196.79	18.76	-58.4	-71.8	3.6	8.45e-01	0	47	104	0	60	151745
2026-01-29 01:16:18.66	196.82	18.64	-58.3	-71.4	3.6	8.46e-01	0	46	104	0	60	146233
2026-01-29 01:16:19.67	196.85	18.51	-58.4	-71.5	3.6	8.45e-01	0	47	104	0	60	147856
2026-01-29 01:16:20.68	196.87	18.39	-58.5	-69.7	3.8	8.44e-01	0	47	104	0	60	120260
2026-01-29 01:16:21.69	196.90	18.27	-58.5	-69.7	3.7	8.44e-01	0	47	104	0	60	120149
2026-01-29 01:16:22.69	196.93	18.15	-58.4	-69.6	3.7	8.43e-01	0	47	104	0	60	117946
2026-01-29 01:16:23.70	196.96	18.02	-58.4	-69.6	3.7	8.44e-01	0	46	104	0	60	118670
2026-01-29 01:16:24.71	196.99	17.90	-58.4	-69.6	3.7	8.44e-01	0	47	104	0	60	118759
2026-01-29 01:16:25.71	197.01	17.78	-58.3	-69.7	3.6	8.43e-01	0	47	104	0	60	120233
2026-01-29 01:16:26.72	197.04	17.66	-58.3	-69.7	3.6	8.45e-01	0	46	104	0	60	119784
2026-01-29 01:16:27.72	197.07	17.54	-58.2	-69.1	3.6	8.44e-01	0	46	104	0	60	111901
2026-01-29 01:16:28.72	197.09	17.43	-58.2	-69.6	3.8	8.44e-01	0	46	104	0	60	118247
2026-01-29 01:16:29.73	197.12	17.31	-58.2	-69.7	3.6	8.44e-01	0	47	104	0	60	119306
2026-01-29 01:16:30.74	197.15	17.19	-58.2	-69.8	3.7	8.44e-01	0	46	104	0	60	120787
2026-01-29 01:16:31.75	197.17	17.07	-58.2	-69.7	3.8	8.45e-01	0	47	104	0	60	119090
2026-01-29 01:16:32.76	197.20	16.96	-58.1	-69.7	3.7	8.44e-01	0	46	104	0	60	119095
2026-01-29 01:16:33.76	197.23	16.84	-58.1	-69.7	3.7	8.44e-01	0	46	104	0	60	120146
2026-01-29 01:16:34.77	197.25	16.73	-58.1	-69.7	3.7	8.46e-01	0	46	104	0	60	120275
2026-01-29 01:16:35.77	197.28	16.61	-58.0	-69.7	3.7	8.44e-01	0	46	104	0	60	120138
2026-01-29 01:16:36.78	197.30	16.50	-58.0	-69.7	3.7	8.45e-01	0	46	104	0	60	119231
2026-01-29 01:16:37.79	197.33	16.38	-58.0	-69.8	3.6	8.44e-01	0	46	104	0	60	120562
2026-01-29 01:16:38.79	197.35	16.27	-58.0	-69.8	3.6	8.45e-01	0	46	104	0	60	121233
2026-01-29 01:16:39.80	197.38	16.16	-58.1	-69.9	3.7	8.45e-01	0	46	104	0	60	121795
2026-01-29 01:16:40.81	197.40	16.04	-58.3	-71.6	3.6	8.44e-01	0	47	104	0	60	148806
2026-01-29 01:16:41.82	197.43	15.93	-58.2	-71.6	3.6	8.44e-01	0	46	104	0	60	148246
2026-01-29 01:16:42.82	197.45	15.82	-58.0	-71.1	3.6	8.45e-01	0	47	104	0	60	140154
2026-01-29 01:16:43.83	197.48	15.71	-58.1	-71.5	3.6	8.46e-01	0	47	104	0	60	146470
2026-01-29 01:16:44.83	197.50	15.60	-58.1	-71.6	3.6	8.46e-01	0	46	104	0	60	149285
2026-01-29 01:16:45.84	197.52	15.49	-58.0	-71.3	3.6	8.45e-01	0	47	104	0	60	144545
2026-01-29 01:16:46.84	197.55	15.38	-58.0	-70.9	3.6	8.44e-01	0	46	104	0	60	137905
2026-01-29 01:16:47.84	197.57	15.28	-58.1	-71.4	3.6	8.46e-01	0	47	104	0	60	145847
2026-01-29 01:16:48.85	197.60	15.17	-58.0	-71.6	3.6	8.46e-01	0	47	104	0	60	148324
2026-01-29 01:16:49.85	197.62	15.06	-57.8	-71.3	3.6	8.46e-01	0	47	104	0	60	143111
2026-01-29 01:16:50.86	197.64	14.95	-57.4	-70.9	3.6	8.45e-01	0	47	104	0	60	137837
2026-01-29 01:16:51.87	197.67	14.85	-57.9	-70.3	3.6	8.45e-01	0	47	104	0	60	128895
