passes_logs/2026/01/29/R3.2S-Naryan-Mar/R3.2S-Naryan-Mar__20260129_092901_AQUA_rec.log

#Pass ID: 20260129_092901_AQUA
#Satellite: AQUA
#Configuration: AQUA
#almurnet v.1.7.20240730
#Start time: 2026-01-29 09:29:03

#Version: 2.2.20231116
#Station: R3.2S-Naryan-Mar
#Location: 53.008057 lon 67.646978 lat
#TLE: 1 27424U 02022A   26027.96263068  .00001625  00000+0  33481-3 0  9997
#TLE: 2 27424  98.4102 354.6095 0001839  63.4368   7.7786 14.61867353262782

#Time	Az	El	Level	Level2	SNR	BER	BlckErr	Temp	State	Recorded	gain1	gain2
2026-01-29 09:29:03.63	139.10	0.11	-59.5	-77.0	3.5	1.51e+00	0	43	0	0	60	278166
2026-01-29 09:29:04.64	139.09	0.18	-54.6	-75.3	3.6	3.01e+01	0	44	104	0	60	220612
2026-01-29 09:29:05.65	139.07	0.24	-55.5	-75.7	3.6	3.01e+01	0	44	104	0	60	233198
2026-01-29 09:29:06.65	139.06	0.30	-56.8	-77.4	3.5	3.01e+01	0	44	104	0	60	283228
2026-01-29 09:29:07.66	139.04	0.36	-57.2	-78.0	3.5	3.01e+01	0	44	104	0	60	302917
2026-01-29 09:29:08.67	139.03	0.43	-58.3	-78.6	3.5	3.01e+01	0	44	104	0	60	323621
2026-01-29 09:29:09.68	139.01	0.49	-58.0	-78.6	3.5	3.01e+01	0	44	104	0	60	323387
2026-01-29 09:29:10.69	138.99	0.55	-58.1	-78.6	3.5	3.01e+01	0	44	104	0	60	322311
2026-01-29 09:29:11.69	138.98	0.62	-58.7	-78.7	3.5	3.01e+01	0	44	104	0	60	329443
2026-01-29 09:29:12.70	138.96	0.68	-58.6	-78.5	3.5	3.01e+01	0	44	104	0	60	318415
2026-01-29 09:29:13.71	138.95	0.74	-58.6	-78.6	3.5	3.01e+01	0	44	104	0	60	323193
2026-01-29 09:29:14.72	138.93	0.81	-58.7	-78.7	3.5	3.01e+01	0	44	104	0	60	327096
2026-01-29 09:29:15.73	138.91	0.87	-58.6	-78.5	3.5	3.01e+01	0	44	104	0	60	321617
2026-01-29 09:29:16.74	138.90	0.93	-58.5	-78.5	3.5	3.01e+01	0	44	104	0	60	320313
2026-01-29 09:29:17.74	138.88	1.00	-57.9	-78.1	3.5	3.01e+01	0	44	104	0	60	305269
2026-01-29 09:29:18.75	138.86	1.06	-57.6	-77.9	3.5	3.01e+01	0	44	104	0	60	297960
2026-01-29 09:29:19.76	138.85	1.13	-57.7	-77.6	3.5	3.01e+01	0	44	104	0	60	289543
2026-01-29 09:29:20.77	138.83	1.19	-56.8	-77.3	3.5	3.01e+01	0	44	104	0	60	278281
2026-01-29 09:29:21.77	138.81	1.26	-56.0	-76.6	3.5	3.01e+01	0	44	104	0	60	256890
2026-01-29 09:29:22.78	138.80	1.32	-55.6	-75.9	3.5	3.01e+01	0	44	104	0	60	236987
2026-01-29 09:29:23.79	138.78	1.39	-55.6	-75.8	3.5	3.01e+01	0	44	104	0	60	235587
2026-01-29 09:29:24.80	138.76	1.45	-55.6	-75.8	3.5	3.01e+01	0	44	104	0	60	233576
2026-01-29 09:29:25.80	138.74	1.52	-55.5	-75.7	3.5	3.01e+01	0	44	104	0	60	231012
2026-01-29 09:29:26.81	138.73	1.58	-55.5	-75.6	3.5	3.01e+01	0	44	104	0	60	229026
2026-01-29 09:29:27.82	138.71	1.65	-55.5	-75.6	3.5	3.01e+01	0	44	104	0	60	228900
2026-01-29 09:29:28.83	138.69	1.71	-55.5	-75.6	3.5	3.01e+01	0	44	104	0	60	229665
2026-01-29 09:29:29.83	138.67	1.78	-55.4	-75.6	3.5	3.01e+01	0	44	104	0	60	228688
2026-01-29 09:29:30.84	138.66	1.85	-55.4	-75.7	3.5	3.01e+01	0	45	104	0	60	231545
2026-01-29 09:29:31.85	138.64	1.91	-55.4	-75.8	3.5	3.01e+01	0	45	104	0	60	234543
2026-01-29 09:29:32.85	138.62	1.98	-55.4	-75.7	3.5	3.01e+01	0	45	104	0	60	232257
2026-01-29 09:29:33.86	138.60	2.04	-55.4	-75.8	3.5	3.01e+01	0	44	104	0	60	233996
2026-01-29 09:29:34.87	138.58	2.11	-55.4	-75.7	3.5	3.01e+01	0	44	104	0	60	232029
2026-01-29 09:29:35.88	138.56	2.18	-55.4	-75.8	3.5	3.01e+01	0	45	104	0	60	233459
2026-01-29 09:29:36.89	138.55	2.25	-55.4	-75.8	3.5	3.01e+01	0	45	104	0	60	234164
2026-01-29 09:29:37.89	138.53	2.31	-55.4	-75.7	3.5	3.01e+01	0	45	104	0	60	232678
2026-01-29 09:29:38.90	138.51	2.38	-55.3	-75.7	3.5	3.01e+01	0	45	104	0	60	231376
2026-01-29 09:29:39.91	138.49	2.45	-55.3	-75.7	3.5	3.01e+01	0	45	104	0	60	232339
2026-01-29 09:29:40.91	138.47	2.52	-55.3	-75.7	3.5	3.01e+01	0	45	104	0	60	231398
2026-01-29 09:29:41.92	138.45	2.58	-55.3	-75.7	3.5	3.01e+01	0	45	104	0	60	230781
2026-01-29 09:29:42.93	138.43	2.65	-55.3	-75.7	3.5	3.01e+01	0	45	104	0	60	230576
2026-01-29 09:29:43.94	138.41	2.72	-55.3	-75.5	3.5	3.01e+01	0	45	104	0	60	227873
2026-01-29 09:29:44.94	138.39	2.79	-55.3	-75.5	3.5	3.01e+01	0	45	104	0	60	226444
2026-01-29 09:29:45.95	138.37	2.86	-55.3	-75.4	3.5	3.01e+01	0	45	104	0	60	222969
2026-01-29 09:29:46.96	138.36	2.93	-55.2	-75.2	3.5	3.01e+01	0	45	104	0	60	218033
2026-01-29 09:29:47.97	138.34	3.00	-55.3	-75.1	3.5	3.01e+01	0	45	104	0	60	217239
2026-01-29 09:29:48.97	138.32	3.07	-55.3	-75.0	3.5	3.01e+01	0	45	104	0	60	213122
2026-01-29 09:29:49.98	138.30	3.14	-55.3	-75.0	3.5	3.01e+01	0	45	104	0	60	214450
2026-01-29 09:29:50.99	138.28	3.21	-55.3	-75.1	3.5	3.01e+01	0	45	104	0	60	216827
2026-01-29 09:29:52.00	138.26	3.28	-55.2	-75.3	3.5	3.01e+01	0	45	104	0	60	220696
2026-01-29 09:29:53.00	138.24	3.34	-55.2	-75.3	3.5	3.01e+01	0	45	104	0	60	222147
2026-01-29 09:29:54.01	138.21	3.42	-55.2	-75.6	3.5	3.01e+01	0	44	104	0	60	228218
2026-01-29 09:29:55.02	138.19	3.49	-55.2	-75.7	3.5	3.01e+01	0	45	104	0	60	231279
2026-01-29 09:29:56.03	138.17	3.56	-55.2	-75.7	3.5	3.01e+01	0	45	104	0	60	231880
2026-01-29 09:29:57.04	138.15	3.63	-55.2	-75.7	3.5	3.01e+01	0	45	104	0	60	230843
2026-01-29 09:29:58.04	138.13	3.70	-55.2	-75.7	3.5	3.01e+01	0	45	104	0	60	231252
2026-01-29 09:29:59.05	138.11	3.77	-55.2	-75.7	3.5	3.01e+01	0	45	104	0	60	231629
2026-01-29 09:30:00.06	138.09	3.84	-55.2	-75.6	3.5	3.01e+01	0	45	104	0	60	229129
2026-01-29 09:30:01.06	138.07	3.91	-55.2	-75.2	3.5	3.01e+01	0	45	104	0	60	219475
2026-01-29 09:30:02.07	138.05	3.98	-55.2	-75.0	3.5	3.01e+01	0	45	104	0	60	212819
2026-01-29 09:30:03.08	138.03	4.06	-55.2	-74.5	3.5	3.01e+01	0	45	104	0	60	202932
2026-01-29 09:30:04.08	138.00	4.13	-55.2	-74.1	3.5	3.01e+01	0	45	104	0	60	191925
2026-01-29 09:30:05.09	137.98	4.20	-55.2	-73.6	3.8	3.01e+01	0	45	104	0	60	181449
2026-01-29 09:30:06.10	137.96	4.27	-55.2	-73.1	3.9	3.01e+01	0	45	104	0	60	172661
2026-01-29 09:30:07.10	137.94	4.35	-55.1	-72.8	3.6	3.01e+01	0	45	104	0	60	166354
2026-01-29 09:30:08.11	137.92	4.42	-55.1	-72.7	3.8	3.01e+01	0	45	104	0	60	164755
2026-01-29 09:30:09.12	137.89	4.49	-55.1	-72.3	4.1	3.01e+01	0	45	104	0	60	157561
2026-01-29 09:30:10.12	137.87	4.57	-55.1	-71.4	4.6	3.01e+01	0	45	104	0	60	140763
2026-01-29 09:30:11.13	137.85	4.64	-55.0	-68.7	5.9	3.01e+01	0	45	0	0	60	103986
2026-01-29 09:30:12.14	137.82	4.72	-54.8	-66.1	8.3	3.01e+01	0	45	0	2097152	60	76962
2026-01-29 09:30:13.15	137.80	4.79	-54.5	-63.5	11.3	3.01e+01	0	45	0	4194304	60	57201
2026-01-29 09:30:14.16	137.78	4.86	-54.1	-61.5	13.7	3.01e+01	0	45	0	5767168	60	45092
2026-01-29 09:30:15.17	137.75	4.94	-53.6	-59.6	15.7	3.01e+01	0	45	0	7864320	60	36205
2026-01-29 09:30:16.17	137.73	5.01	-53.0	-57.9	17.3	3.01e+01	0	45	0	9961472	60	29802
2026-01-29 09:30:17.18	137.71	5.09	-52.3	-56.4	18.8	3.01e+01	0	45	0	11534336	60	25144
2026-01-29 09:30:18.19	137.68	5.16	-51.6	-55.2	20.1	3.01e+01	0	45	0	13631488	60	21770
2026-01-29 09:30:19.20	137.66	5.24	-51.1	-54.3	20.9	3.01e+01	0	44	0	15204352	60	19653
2026-01-29 09:30:20.21	137.64	5.32	-50.7	-53.7	21.5	3.01e+01	0	45	0	17301504	60	18388
2026-01-29 09:30:21.21	137.61	5.39	-50.4	-53.1	22.0	3.01e+01	0	45	0	18874368	60	17208
2026-01-29 09:30:22.22	137.59	5.47	-50.1	-52.8	22.3	3.01e+01	0	44	0	20971520	60	16520
2026-01-29 09:30:23.23	137.56	5.55	-50.1	-52.7	22.3	3.01e+01	0	45	0	23068672	60	16483
2026-01-29 09:30:24.24	137.54	5.62	-50.2	-52.9	22.2	3.01e+01	0	45	0	24641536	60	16754
2026-01-29 09:30:25.25	137.51	5.70	-50.4	-53.2	21.9	3.01e+01	0	45	0	26738688	60	17383
2026-01-29 09:30:26.25	137.49	5.78	-50.8	-53.8	21.4	3.01e+01	0	45	0	28835840	60	18606
2026-01-29 09:30:27.26	137.46	5.85	-51.3	-54.6	20.5	3.01e+01	0	45	0	30408704	60	20503
2026-01-29 09:30:28.27	137.44	5.93	-51.9	-55.6	19.5	3.01e+01	0	45	0	32505856	60	23044
2026-01-29 09:30:29.28	137.41	6.01	-52.5	-56.9	18.2	3.01e+01	0	45	0	34078720	60	26650
2026-01-29 09:30:30.29	137.39	6.09	-53.1	-58.5	16.7	3.01e+01	0	45	0	36175872	60	31848
2026-01-29 09:30:31.29	137.36	6.17	-52.0	-55.7	19.4	3.01e+01	0	45	0	38273024	60	23262
2026-01-29 09:30:32.30	137.34	6.25	-51.4	-54.8	21.4	3.01e+01	0	45	0	39845888	60	20852
2026-01-29 09:30:33.31	137.31	6.33	-54.8	-73.4	3.5	3.01e+01	0	45	104	40894464	60	177132
2026-01-29 09:30:34.32	137.28	6.41	-53.6	-60.4	14.8	3.01e+01	0	45	0	524288	60	39651
2026-01-29 09:30:35.33	137.26	6.49	-54.7	-69.3	3.9	3.01e+01	0	45	104	2097152	60	111207
2026-01-29 09:30:36.33	137.23	6.57	-53.8	-60.6	15.0	3.01e+01	0	45	104	2097152	60	40759
2026-01-29 09:30:37.34	137.20	6.65	-53.3	-58.8	16.6	3.01e+01	0	45	0	1572864	60	33280
2026-01-29 09:30:38.35	137.18	6.73	-52.8	-57.6	17.8	3.01e+01	0	45	0	3670016	60	28754
2026-01-29 09:30:39.36	137.15	6.81	-52.3	-56.5	18.8	3.01e+01	0	45	0	5767168	60	25572
2026-01-29 09:30:40.37	137.12	6.89	-51.9	-55.7	19.6	3.01e+01	0	45	0	7340032	60	23266
2026-01-29 09:30:41.37	137.09	6.97	-51.7	-55.3	20.0	3.01e+01	0	45	0	9437184	60	22218
2026-01-29 09:30:42.38	137.07	7.05	-51.3	-54.6	20.7	3.01e+01	0	45	0	11010048	60	20454
2026-01-29 09:30:43.39	137.04	7.13	-50.7	-53.5	21.8	3.01e+01	0	45	0	13107200	60	17961
2026-01-29 09:30:44.40	137.01	7.22	-50.0	-52.5	22.7	3.01e+01	0	45	0	15204352	60	16134
2026-01-29 09:30:45.40	136.98	7.30	-49.6	-52.0	23.2	3.01e+01	0	45	0	16777216	60	15135
2026-01-29 09:30:46.41	136.95	7.38	-49.4	-51.7	23.5	3.01e+01	0	45	0	18874368	60	14641
2026-01-29 09:30:47.42	136.92	7.46	-49.5	-51.7	23.5	3.01e+01	0	45	0	20447232	60	14715
2026-01-29 09:30:48.42	136.89	7.55	-49.6	-52.0	23.3	3.01e+01	0	45	0	22544384	60	15113
2026-01-29 09:30:49.43	136.87	7.63	-49.7	-52.0	23.1	3.01e+01	0	45	0	24117248	60	15123
2026-01-29 09:30:50.44	136.84	7.71	-49.7	-52.0	23.3	3.01e+01	0	45	0	26214400	60	15157
2026-01-29 09:30:51.44	136.81	7.80	-49.8	-52.2	23.2	3.01e+01	0	45	0	28311552	60	15442
2026-01-29 09:30:52.45	136.78	7.88	-50.0	-52.3	23.1	3.01e+01	0	45	0	30408704	60	15715
2026-01-29 09:30:53.45	136.75	7.97	-50.0	-52.3	23.0	3.01e+01	0	45	0	31981568	60	15766
2026-01-29 09:30:54.45	136.72	8.05	-50.0	-52.3	23.1	3.01e+01	0	45	0	34078720	60	15748
2026-01-29 09:30:55.46	136.69	8.14	-49.5	-51.7	23.6	3.01e+01	0	45	0	35651584	60	14662
2026-01-29 09:30:56.47	136.66	8.22	-49.3	-51.4	24.0	3.01e+01	0	45	0	37748736	60	14081
2026-01-29 09:30:57.47	136.62	8.31	-49.3	-51.4	24.0	3.01e+01	0	45	0	39321600	60	14077
2026-01-29 09:30:58.48	136.59	8.40	-49.2	-51.3	24.1	3.01e+01	0	45	0	41418752	60	13954
2026-01-29 09:30:59.49	136.56	8.48	-49.2	-51.3	24.1	3.01e+01	0	45	0	43515904	60	13946
2026-01-29 09:31:00.50	136.53	8.57	-49.2	-51.3	24.1	3.01e+01	0	45	0	45088768	60	13922
2026-01-29 09:31:01.50	136.50	8.66	-49.3	-51.4	24.1	3.01e+01	0	45	0	47185920	60	14056
2026-01-29 09:31:02.51	136.47	8.75	-49.2	-51.3	24.1	3.01e+01	0	45	0	48758784	60	13969
2026-01-29 09:31:03.51	136.43	8.83	-49.3	-51.4	24.1	3.01e+01	0	45	0	50855936	60	14090
2026-01-29 09:31:04.52	136.40	8.92	-49.3	-51.5	23.9	3.01e+01	0	45	0	52428800	60	14233
2026-01-29 09:31:05.53	136.37	9.01	-49.5	-51.6	23.9	3.01e+01	0	45	0	54525952	60	14532
2026-01-29 09:31:06.54	136.34	9.10	-49.6	-51.8	23.7	3.01e+01	0	45	0	56623104	60	14768
2026-01-29 09:31:07.54	136.30	9.19	-49.6	-51.8	23.7	3.01e+01	0	45	0	58195968	60	14776
2026-01-29 09:31:08.55	136.27	9.28	-49.8	-52.1	23.5	3.01e+01	0	45	0	60293120	60	15263
2026-01-29 09:31:09.56	136.24	9.37	-49.9	-52.2	23.1	3.01e+01	0	45	0	62390272	60	15528
2026-01-29 09:31:10.57	136.20	9.46	-50.0	-52.4	23.1	3.01e+01	0	45	0	63963136	60	15891
2026-01-29 09:31:11.58	136.17	9.55	-50.1	-52.5	23.0	3.01e+01	0	45	0	66060288	60	16021
2026-01-29 09:31:12.59	136.13	9.64	-50.1	-52.5	22.9	3.01e+01	0	45	0	67633152	60	16036
2026-01-29 09:31:13.59	136.10	9.73	-50.2	-52.6	22.8	3.01e+01	0	45	0	69730304	60	16199
2026-01-29 09:31:14.60	136.06	9.83	-50.6	-53.2	22.3	3.01e+01	0	45	0	71827456	60	17415
2026-01-29 09:31:15.61	136.03	9.92	-50.8	-53.4	22.1	3.01e+01	0	45	0	73400320	60	17759
2026-01-29 09:31:16.62	135.99	10.01	-50.9	-53.6	21.9	3.01e+01	0	45	0	75497472	60	18181
2026-01-29 09:31:17.63	135.96	10.10	-51.1	-53.8	21.7	3.01e+01	0	45	0	77070336	60	18658
2026-01-29 09:31:18.63	135.92	10.20	-51.2	-54.1	21.5	3.01e+01	0	45	0	79167488	60	19229
2026-01-29 09:31:19.64	135.89	10.29	-51.3	-54.2	21.3	3.01e+01	0	45	0	80740352	60	19485
2026-01-29 09:31:20.65	135.85	10.39	-51.7	-54.7	20.8	3.01e+01	0	45	0	82837504	60	20758
2026-01-29 09:31:21.66	135.81	10.48	-52.0	-55.3	20.4	3.01e+01	0	45	0	84934656	60	22147
2026-01-29 09:31:22.66	135.78	10.57	-52.2	-55.7	20.0	3.01e+01	0	45	0	87031808	60	23227
2026-01-29 09:31:23.67	135.74	10.67	-52.2	-55.8	19.9	3.01e+01	0	45	0	88604672	60	23434
2026-01-29 09:31:24.68	135.70	10.77	-52.4	-56.1	19.5	3.01e+01	0	45	0	90701824	60	24265
2026-01-29 09:31:25.69	135.66	10.86	-52.6	-56.6	19.1	3.01e+01	0	45	0	92274688	60	25664
2026-01-29 09:31:26.70	135.62	10.96	-52.7	-56.8	18.8	3.01e+01	0	45	0	94371840	60	26444
2026-01-29 09:31:27.71	135.59	11.06	-52.5	-56.5	19.2	3.01e+01	0	45	0	95944704	60	25526
2026-01-29 09:31:28.72	135.55	11.16	-52.2	-55.9	19.8	3.01e+01	0	45	0	98041856	60	23743
2026-01-29 09:31:29.72	135.51	11.25	-52.1	-55.7	19.8	3.01e+01	0	45	0	100139008	60	23291
2026-01-29 09:31:30.72	135.47	11.35	-52.3	-56.0	19.7	3.01e+01	0	45	0	101711872	60	24122
2026-01-29 09:31:31.73	135.43	11.45	-52.8	-56.9	18.9	3.01e+01	0	45	0	103809024	60	26694
2026-01-29 09:31:32.74	135.39	11.55	-52.9	-57.2	18.3	3.01e+01	0	45	0	105381888	60	27469
2026-01-29 09:31:33.75	135.35	11.65	-53.2	-57.8	17.7	3.01e+01	0	45	0	107479040	60	29687
2026-01-29 09:31:34.76	135.31	11.75	-53.4	-58.3	17.5	3.01e+01	0	45	0	109576192	60	31373
2026-01-29 09:31:35.77	135.27	11.85	-53.7	-59.1	16.6	3.01e+01	0	45	0	111149056	60	34402
2026-01-29 09:31:36.77	135.22	11.95	-54.0	-59.9	16.0	3.01e+01	0	45	0	113246208	60	37403
2026-01-29 09:31:37.78	135.18	12.05	-54.1	-60.3	15.2	3.01e+01	0	45	0	115343360	60	39570
2026-01-29 09:31:38.79	135.14	12.15	-54.4	-61.0	14.7	3.01e+01	0	45	0	116916224	60	42930
2026-01-29 09:31:39.79	135.10	12.25	-54.5	-61.3	14.2	3.01e+01	0	45	0	119013376	60	44247
2026-01-29 09:31:40.80	135.06	12.36	-54.8	-62.2	13.6	3.01e+01	0	45	0	120586240	60	48866
2026-01-29 09:31:41.81	135.01	12.46	-54.9	-62.7	13.3	3.01e+01	0	45	0	122683392	60	52030
2026-01-29 09:31:42.81	134.97	12.56	-55.0	-63.0	12.8	3.01e+01	0	45	0	124256256	60	53593
2026-01-29 09:31:43.82	134.93	12.67	-55.1	-63.2	12.5	3.01e+01	0	45	0	126353408	60	55235
2026-01-29 09:31:44.83	134.88	12.77	-55.2	-63.5	12.2	3.01e+01	0	45	0	128450560	60	57108
2026-01-29 09:31:45.84	134.84	12.88	-55.3	-63.9	11.8	3.01e+01	0	45	0	130023424	60	59400
2026-01-29 09:31:46.84	134.79	12.98	-55.4	-64.1	11.5	3.01e+01	0	45	0	132120576	60	60968
2026-01-29 09:31:47.85	134.75	13.09	-55.4	-64.4	11.1	3.01e+01	0	45	0	133693440	60	63021
2026-01-29 09:31:48.85	134.70	13.20	-55.5	-64.8	10.7	3.01e+01	0	45	0	135790592	60	65925
2026-01-29 09:31:49.86	134.66	13.30	-55.6	-65.0	10.3	3.01e+01	0	45	0	137887744	60	67914
2026-01-29 09:31:50.87	134.61	13.41	-55.7	-65.4	9.9	3.01e+01	0	45	0	139460608	60	70549
2026-01-29 09:31:51.88	134.56	13.52	-55.7	-65.6	9.6	3.01e+01	0	45	0	141557760	60	72863
2026-01-29 09:31:52.88	134.52	13.63	-55.8	-66.0	9.2	3.01e+01	0	45	0	143654912	60	75884
2026-01-29 09:31:53.89	134.47	13.74	-55.8	-66.2	8.9	3.01e+01	0	45	0	145227776	60	77944
2026-01-29 09:31:54.90	134.42	13.85	-55.8	-66.4	8.6	3.01e+01	0	45	0	147324928	60	79791
2026-01-29 09:31:55.91	134.37	13.96	-55.8	-66.6	8.4	3.01e+01	0	45	0	148897792	60	81433
2026-01-29 09:31:56.92	134.32	14.07	-55.9	-66.8	8.2	3.01e+01	0	45	0	150994944	60	82845
2026-01-29 09:31:57.93	134.27	14.18	-55.9	-66.8	8.1	3.01e+01	0	45	0	152567808	60	83399
2026-01-29 09:31:58.94	134.22	14.29	-55.9	-67.2	7.7	3.01e+01	0	45	0	154664960	60	87382
2026-01-29 09:31:59.94	134.17	14.40	-56.0	-67.3	7.5	3.01e+01	0	45	0	156762112	60	88472
2026-01-29 09:32:00.95	134.12	14.52	-56.0	-67.5	7.3	3.01e+01	0	45	0	158859264	60	90291
2026-01-29 09:32:01.96	134.07	14.63	-56.1	-67.5	7.3	3.01e+01	0	45	0	160432128	60	90244
2026-01-29 09:32:02.97	134.02	14.75	-56.1	-67.5	7.3	3.01e+01	0	45	0	162529280	60	90538
2026-01-29 09:32:03.98	133.97	14.86	-56.1	-67.5	7.4	3.01e+01	0	45	0	164102144	60	89724
2026-01-29 09:32:04.98	133.92	14.97	-56.3	-71.6	3.7	3.01e+01	0	45	104	165675008	60	145186
2026-01-29 09:32:05.99	133.86	15.09	-56.0	-66.9	8.6	3.01e+01	0	45	0	165675008	60	84532
2026-01-29 09:32:07.00	133.81	15.21	-52.0	-55.1	19.4	3.01e+01	0	45	0	2097152	60	21582
2026-01-29 09:32:08.00	133.76	15.32	-54.3	-59.7	15.5	3.01e+01	0	45	0	3670016	60	36795
2026-01-29 09:32:09.00	133.70	15.44	-56.1	-69.8	4.8	3.01e+01	0	45	0	5242880	60	117859
2026-01-29 09:32:10.01	133.65	15.56	-53.6	-58.4	18.1	3.01e+01	0	45	104	5242880	60	31622
2026-01-29 09:32:11.02	133.59	15.68	-52.1	-55.2	20.9	3.01e+01	0	45	0	1572864	60	21917
2026-01-29 09:32:12.03	133.54	15.80	-51.5	-54.3	21.7	3.01e+01	0	45	0	3145728	60	19672
2026-01-29 09:32:13.03	133.48	15.92	-51.2	-53.9	22.1	3.01e+01	0	45	0	5242880	60	18749
2026-01-29 09:32:14.04	133.43	16.04	-50.5	-52.7	23.2	3.01e+01	0	45	0	7340032	60	16483
2026-01-29 09:32:15.05	133.37	16.16	-49.7	-51.7	24.2	3.01e+01	0	45	0	8912896	60	14686
2026-01-29 09:32:16.06	133.31	16.28	-49.0	-50.9	24.9	3.01e+01	0	45	0	11010048	60	13360
2026-01-29 09:32:17.06	133.25	16.40	-48.6	-50.3	25.5	3.01e+01	0	45	0	13107200	60	12511
2026-01-29 09:32:18.07	133.19	16.53	-48.2	-49.9	25.8	3.01e+01	0	45	0	14680064	60	11932
2026-01-29 09:32:19.08	133.14	16.65	-48.2	-49.9	25.8	3.01e+01	0	45	0	16777216	60	11827
2026-01-29 09:32:20.09	133.08	16.78	-48.2	-49.9	25.8	3.01e+01	0	45	0	18350080	60	11914
2026-01-29 09:32:21.09	133.02	16.90	-48.2	-49.9	25.8	3.01e+01	0	45	0	20447232	60	11955
2026-01-29 09:32:22.10	132.95	17.03	-48.2	-50.0	25.8	3.01e+01	0	45	0	22544384	60	11974
2026-01-29 09:32:23.11	132.89	17.15	-48.1	-49.8	26.0	3.01e+01	0	45	0	24117248	60	11702
2026-01-29 09:32:24.12	132.83	17.28	-47.9	-49.6	26.0	3.01e+01	0	45	0	26214400	60	11513
2026-01-29 09:32:25.12	132.77	17.41	-47.9	-49.6	26.1	3.01e+01	0	45	0	27787264	60	11468
2026-01-29 09:32:26.13	132.71	17.54	-48.0	-49.6	26.0	3.01e+01	0	45	0	29884416	60	11546
2026-01-29 09:32:27.13	132.64	17.67	-48.0	-49.7	26.0	3.01e+01	0	45	0	31457280	60	11627
2026-01-29 09:32:28.14	132.58	17.80	-48.1	-49.8	25.9	3.01e+01	0	45	0	33554432	60	11765
2026-01-29 09:32:29.14	132.51	17.93	-48.2	-49.9	25.9	3.01e+01	0	45	0	35651584	60	11942
2026-01-29 09:32:30.15	132.45	18.06	-48.3	-50.0	25.8	3.01e+01	0	45	0	37224448	60	12024
2026-01-29 09:32:31.15	132.38	18.19	-48.3	-50.1	25.7	3.01e+01	0	45	0	39321600	60	12153
2026-01-29 09:32:32.15	132.31	18.32	-48.4	-50.1	25.6	3.01e+01	0	45	0	41418752	60	12240
2026-01-29 09:32:33.16	132.25	18.46	-48.6	-50.4	25.5	3.01e+01	0	45	0	42991616	60	12585
2026-01-29 09:32:34.16	132.18	18.59	-48.7	-50.6	25.2	3.01e+01	0	45	0	45088768	60	12863
2026-01-29 09:32:35.17	132.11	18.72	-48.8	-50.7	25.1	3.01e+01	0	45	0	46661632	60	13023
2026-01-29 09:32:36.18	132.04	18.86	-48.9	-50.8	25.0	3.01e+01	0	45	0	48758784	60	13182
2026-01-29 09:32:37.19	131.97	19.00	-49.3	-51.2	24.8	3.01e+01	0	45	0	50855936	60	13845
2026-01-29 09:32:38.20	131.90	19.14	-49.5	-51.5	24.4	3.01e+01	0	45	0	52428800	60	14274
2026-01-29 09:32:39.21	131.83	19.28	-49.6	-51.6	24.2	3.01e+01	0	45	0	54525952	60	14537
2026-01-29 09:32:40.21	131.75	19.41	-49.6	-51.6	24.1	3.01e+01	0	45	0	56098816	60	14477
2026-01-29 09:32:41.22	131.68	19.55	-49.7	-51.8	24.0	3.01e+01	0	45	0	58195968	60	14791
2026-01-29 09:32:42.23	131.61	19.70	-49.9	-51.9	23.9	3.01e+01	0	45	0	59768832	60	15048
2026-01-29 09:32:43.24	131.53	19.84	-50.0	-52.1	23.8	3.01e+01	0	45	0	61865984	60	15321
2026-01-29 09:32:44.25	131.46	19.98	-50.1	-52.3	23.6	3.01e+01	0	45	0	63963136	60	15710
2026-01-29 09:32:45.26	131.38	20.12	-50.5	-52.9	23.0	3.01e+01	0	45	0	65536000	60	16768
2026-01-29 09:32:46.26	131.30	20.27	-50.8	-53.2	22.7	3.01e+01	0	45	0	67633152	60	17440
2026-01-29 09:32:47.27	131.23	20.41	-51.0	-53.6	22.3	3.01e+01	0	45	0	69730304	60	18119
2026-01-29 09:32:48.27	131.15	20.56	-51.3	-54.0	21.9	3.01e+01	0	45	0	71303168	60	19079
2026-01-29 09:32:49.28	131.07	20.70	-51.7	-54.6	21.4	3.01e+01	0	45	0	73400320	60	20326
2026-01-29 09:32:50.29	130.99	20.85	-52.1	-55.2	20.9	3.01e+01	0	45	0	74973184	60	21820
2026-01-29 09:32:51.29	130.91	21.00	-52.4	-55.6	20.3	3.01e+01	0	45	0	77070336	60	23052
2026-01-29 09:32:52.30	130.82	21.15	-52.2	-55.3	20.8	3.01e+01	0	45	0	79167488	60	22226
2026-01-29 09:32:53.31	130.74	21.30	-52.0	-55.0	21.1	3.01e+01	0	45	0	80740352	60	21450
2026-01-29 09:32:54.32	130.66	21.45	-52.1	-55.1	21.0	3.01e+01	0	45	0	82837504	60	21540
2026-01-29 09:32:55.33	130.57	21.61	-52.1	-55.0	20.9	3.01e+01	0	45	0	84410368	60	21381
2026-01-29 09:32:56.34	130.49	21.76	-52.5	-55.7	20.6	3.01e+01	0	45	0	86507520	60	23285
2026-01-29 09:32:57.34	130.40	21.91	-52.8	-56.2	19.7	3.01e+01	0	45	0	88080384	60	24423
2026-01-29 09:32:58.35	130.31	22.07	-53.1	-56.7	19.2	3.01e+01	0	45	0	90177536	60	25882
2026-01-29 09:32:59.36	130.22	22.22	-53.4	-57.2	19.1	3.01e+01	0	45	0	92274688	60	27532
2026-01-29 09:33:00.36	130.14	22.38	-54.1	-58.6	17.8	3.01e+01	0	45	0	93847552	60	32380
2026-01-29 09:33:01.36	130.05	22.54	-54.3	-59.2	16.9	3.01e+01	0	45	0	95944704	60	34729
2026-01-29 09:33:02.37	129.95	22.70	-54.5	-59.8	16.4	3.01e+01	0	45	0	98041856	60	37132
2026-01-29 09:33:03.37	129.86	22.86	-55.0	-61.1	15.0	3.01e+01	0	45	0	99614720	60	43077
2026-01-29 09:33:04.38	129.77	23.02	-55.2	-61.7	14.3	3.01e+01	0	45	0	101711872	60	46365
2026-01-29 09:33:05.39	129.67	23.18	-55.3	-62.1	13.9	3.01e+01	0	45	0	103284736	60	48581
2026-01-29 09:33:06.40	129.58	23.34	-55.5	-62.9	13.3	3.01e+01	0	45	0	105381888	60	53321
2026-01-29 09:33:07.41	129.48	23.51	-55.7	-63.7	12.4	3.01e+01	0	45	0	107479040	60	58446
2026-01-29 09:33:08.41	129.39	23.67	-55.9	-64.3	11.7	3.01e+01	0	45	0	109051904	60	62340
2026-01-29 09:33:09.42	129.29	23.84	-56.0	-64.6	11.1	3.01e+01	0	45	0	111149056	60	64869
2026-01-29 09:33:10.43	129.19	24.01	-56.1	-65.0	10.6	3.01e+01	0	45	0	112721920	60	67920
2026-01-29 09:33:11.44	129.08	24.17	-56.2	-65.5	10.2	3.01e+01	0	45	0	114819072	60	71321
2026-01-29 09:33:12.45	128.98	24.34	-56.2	-65.7	9.9	3.01e+01	0	45	0	116391936	60	73556
2026-01-29 09:33:13.45	128.88	24.51	-56.3	-65.8	9.8	3.01e+01	0	45	0	118489088	60	74305
2026-01-29 09:33:14.46	128.77	24.69	-56.3	-66.1	9.5	3.01e+01	0	45	0	120586240	60	77021
2026-01-29 09:33:15.47	128.67	24.86	-56.4	-66.3	9.2	3.01e+01	0	45	0	122159104	60	78926
2026-01-29 09:33:16.47	128.56	25.03	-56.4	-66.4	9.1	3.01e+01	0	45	0	124256256	60	79790
2026-01-29 09:33:17.48	128.45	25.21	-56.2	-65.5	10.1	3.01e+01	0	45	0	126353408	60	71753
2026-01-29 09:33:18.49	128.34	25.38	-56.0	-64.0	11.9	3.01e+01	0	45	0	127926272	60	60167
2026-01-29 09:33:19.50	128.23	25.56	-55.5	-61.8	14.3	3.01e+01	0	45	0	130023424	60	47072
2026-01-29 09:33:20.51	128.12	25.74	-54.6	-59.5	16.7	3.01e+01	0	45	0	131596288	60	36079
2026-01-29 09:33:21.52	128.01	25.92	-53.6	-57.5	18.8	3.01e+01	0	45	0	133693440	60	28406
2026-01-29 09:33:22.52	127.89	26.10	-52.6	-55.7	20.6	3.01e+01	0	45	0	135790592	60	23102
2026-01-29 09:33:23.52	127.78	26.28	-51.6	-54.2	22.1	3.01e+01	0	45	0	137363456	60	19557
2026-01-29 09:33:24.53	127.66	26.46	-50.6	-52.8	23.4	3.01e+01	0	45	0	139460608	60	16622
2026-01-29 09:33:25.54	127.54	26.65	-49.8	-51.7	24.5	3.01e+01	0	45	0	141033472	60	14657
2026-01-29 09:33:26.54	127.42	26.83	-49.1	-50.9	25.2	3.01e+01	0	45	0	143130624	60	13344
2026-01-29 09:33:27.55	127.29	27.02	-48.6	-50.4	25.6	3.01e+01	0	45	0	145227776	60	12557
2026-01-29 09:33:28.55	127.17	27.21	-48.5	-50.2	25.7	3.01e+01	0	45	0	146800640	60	12361
2026-01-29 09:33:29.56	127.05	27.40	-48.6	-50.3	25.7	3.01e+01	0	45	0	148897792	60	12474
2026-01-29 09:33:30.56	126.92	27.59	-48.7	-50.5	25.5	3.01e+01	0	45	0	150470656	60	12747
2026-01-29 09:33:31.57	126.79	27.78	-48.9	-50.7	25.3	3.01e+01	0	45	0	152567808	60	13058
2026-01-29 09:33:32.58	126.66	27.97	-49.2	-51.1	25.2	3.01e+01	0	45	0	154664960	60	13616
2026-01-29 09:33:33.59	126.53	28.17	-49.3	-51.1	24.9	3.01e+01	0	45	0	156237824	60	13655
2026-01-29 09:33:34.59	126.39	28.36	-49.2	-51.1	25.0	3.01e+01	0	45	0	158334976	60	13608
2026-01-29 09:33:35.60	126.26	28.56	-49.5	-51.4	24.8	3.01e+01	0	45	0	159907840	60	14165
2026-01-29 09:33:36.61	126.12	28.76	-49.7	-51.6	24.4	3.01e+01	0	45	0	162004992	60	14533
2026-01-29 09:33:37.62	125.98	28.96	-49.9	-51.9	24.2	3.01e+01	0	45	0	164102144	60	14970
2026-01-29 09:33:38.63	125.84	29.16	-50.1	-52.1	24.0	3.01e+01	0	45	0	165675008	60	15247
2026-01-29 09:33:39.64	125.70	29.36	-50.7	-52.9	23.7	3.01e+01	0	45	0	167772160	60	16871
2026-01-29 09:33:40.64	125.55	29.57	-51.2	-53.5	22.8	3.01e+01	0	45	0	169345024	60	18017
2026-01-29 09:33:41.65	125.41	29.77	-51.4	-53.8	22.4	3.01e+01	0	45	0	171442176	60	18698
2026-01-29 09:33:42.66	125.26	29.98	-51.4	-53.9	22.3	3.01e+01	0	45	0	173539328	60	18812
2026-01-29 09:33:43.67	125.10	30.19	-51.7	-54.3	21.9	3.01e+01	0	45	0	175112192	60	19718
2026-01-29 09:33:44.67	124.95	30.39	-51.9	-54.6	21.7	3.01e+01	0	45	0	177209344	60	20509
2026-01-29 09:33:45.67	124.80	30.60	-52.1	-54.9	21.3	3.01e+01	0	45	0	179306496	60	21146
2026-01-29 09:33:46.68	124.64	30.82	-52.1	-55.3	19.3	3.01e+01	0	45	0	180879360	60	22047
2026-01-29 09:33:47.69	124.48	31.03	-52.6	-55.8	20.1	3.01e+01	0	45	0	182976512	60	23444
2026-01-29 09:33:48.69	124.32	31.24	-53.2	-56.7	19.8	3.01e+01	0	45	0	184549376	60	26151
2026-01-29 09:33:49.70	124.16	31.46	-52.8	-55.9	20.5	3.01e+01	0	45	0	186646528	60	23814
2026-01-29 09:33:50.71	123.99	31.68	-52.5	-55.4	21.0	3.01e+01	0	45	0	188219392	60	22418
2026-01-29 09:33:51.72	123.82	31.90	-52.3	-55.2	21.2	3.01e+01	0	45	0	190316544	60	21939
2026-01-29 09:33:52.72	123.65	32.12	-52.3	-55.2	21.2	3.01e+01	0	45	0	192413696	60	21858
2026-01-29 09:33:53.73	123.48	32.34	-52.5	-55.5	20.7	3.01e+01	0	45	0	193986560	60	22702
2026-01-29 09:33:54.74	123.30	32.57	-52.9	-56.1	20.3	3.01e+01	0	45	0	196083712	60	24368
2026-01-29 09:33:55.75	123.12	32.79	-53.3	-56.7	19.6	3.01e+01	0	45	0	198180864	60	25948
2026-01-29 09:33:56.76	122.94	33.02	-53.7	-57.5	18.8	3.01e+01	0	45	0	199753728	60	28420
2026-01-29 09:33:57.76	122.76	33.25	-53.9	-57.9	18.2	3.01e+01	0	45	0	201850880	60	30035
2026-01-29 09:33:58.77	122.57	33.48	-54.2	-58.5	17.7	3.01e+01	0	45	0	203423744	60	32101
2026-01-29 09:33:59.77	122.39	33.71	-54.6	-59.3	17.2	3.01e+01	0	45	0	205520896	60	34990
2026-01-29 09:34:00.78	122.19	33.94	-54.7	-59.7	16.6	3.01e+01	0	45	0	207618048	60	36678
2026-01-29 09:34:01.79	122.00	34.17	-54.9	-60.2	15.9	3.01e+01	0	45	0	209190912	60	39147
2026-01-29 09:34:02.79	121.80	34.41	-55.3	-61.3	15.0	3.01e+01	0	45	0	211288064	60	44408
2026-01-29 09:34:03.79	121.60	34.64	-55.5	-62.1	14.2	3.01e+01	0	45	0	212860928	60	48460
2026-01-29 09:34:04.79	121.40	34.88	-55.7	-62.7	13.2	3.01e+01	0	45	0	214958080	60	52190
2026-01-29 09:34:05.80	121.19	35.12	-55.8	-63.3	12.5	3.01e+01	0	46	0	216530944	60	55791
2026-01-29 09:34:06.81	120.98	35.36	-56.1	-64.5	11.5	3.01e+01	0	45	0	218628096	60	63571
2026-01-29 09:34:07.81	120.77	35.60	-56.3	-65.5	10.7	3.01e+01	0	45	0	220725248	60	71699
2026-01-29 09:34:08.82	120.55	35.85	-56.5	-66.4	9.6	3.01e+01	0	45	0	222298112	60	79597
2026-01-29 09:34:09.82	120.33	36.09	-56.6	-67.2	8.6	3.01e+01	0	45	0	224395264	60	87394
2026-01-29 09:34:10.83	120.11	36.34	-56.7	-67.9	7.9	3.01e+01	0	45	0	225968128	60	94062
2026-01-29 09:34:11.83	119.89	36.59	-56.8	-68.1	7.7	3.01e+01	0	45	0	228065280	60	96413
2026-01-29 09:34:12.84	119.65	36.84	-56.8	-68.2	7.4	3.01e+01	0	45	0	229638144	60	97277
2026-01-29 09:34:13.84	119.42	37.09	-56.8	-68.4	7.3	3.01e+01	0	45	0	231735296	60	100061
2026-01-29 09:34:14.84	119.18	37.34	-56.8	-68.3	7.3	3.01e+01	0	46	0	233832448	60	99023
2026-01-29 09:34:15.85	118.94	37.60	-56.8	-68.7	6.8	3.01e+01	0	46	0	235405312	60	103712
2026-01-29 09:34:16.86	118.70	37.86	-56.7	-67.0	8.8	3.01e+01	0	46	0	237502464	60	84981
2026-01-29 09:34:17.86	118.45	38.11	-55.8	-62.7	13.6	3.01e+01	0	45	0	239599616	60	51926
2026-01-29 09:34:18.87	118.19	38.38	-54.2	-58.0	18.6	3.01e+01	0	45	0	241172480	60	30147
2026-01-29 09:34:19.88	117.93	38.64	-56.6	-66.3	5.4	3.01e+01	0	46	0	243269632	60	78352
2026-01-29 09:34:20.88	117.67	38.90	-56.0	-63.6	16.2	3.01e+01	0	45	104	243269632	60	57553
2026-01-29 09:34:21.89	117.40	39.16	-53.6	-57.0	19.9	3.01e+01	0	45	0	1048576	60	27030
2026-01-29 09:34:22.90	117.13	39.43	-52.8	-55.9	20.9	3.01e+01	0	45	0	3145728	60	23639
2026-01-29 09:34:23.91	116.85	39.70	-52.3	-55.0	21.7	3.01e+01	0	45	0	5242880	60	21431
2026-01-29 09:34:24.92	116.57	39.97	-52.8	-55.9	21.0	3.01e+01	0	45	0	6815744	60	23597
2026-01-29 09:34:25.93	116.29	40.24	-53.0	-56.1	20.5	3.01e+01	0	45	0	8912896	60	24382
2026-01-29 09:34:26.93	116.00	40.51	-52.4	-55.3	21.4	3.01e+01	0	45	0	10485760	60	22052
2026-01-29 09:34:27.94	115.70	40.78	-52.3	-55.0	21.7	3.01e+01	0	45	0	12582912	60	21496
2026-01-29 09:34:28.94	115.40	41.05	-52.4	-55.2	21.4	3.01e+01	0	45	0	14155776	60	21785
2026-01-29 09:34:29.95	115.09	41.33	-52.3	-55.1	21.4	3.01e+01	0	45	0	16252928	60	21685
2026-01-29 09:34:30.94	114.79	41.60	-52.3	-55.1	21.3	3.01e+01	0	45	0	18350080	60	21582
2026-01-29 09:34:31.95	114.47	41.88	-52.8	-55.8	20.7	3.01e+01	0	45	0	19922944	60	23489
2026-01-29 09:34:32.95	114.15	42.15	-52.9	-56.0	20.5	3.01e+01	0	45	0	22020096	60	24094
2026-01-29 09:34:33.96	113.82	42.43	-53.2	-56.6	20.2	3.01e+01	0	45	0	24117248	60	25578
2026-01-29 09:34:34.96	113.49	42.71	-53.3	-56.6	20.0	3.01e+01	0	45	0	25690112	60	25793
2026-01-29 09:34:35.98	113.14	43.00	-53.3	-56.7	19.9	3.01e+01	0	45	0	27787264	60	25947
2026-01-29 09:34:36.98	112.80	43.28	-53.7	-57.3	19.4	3.01e+01	0	45	0	29360128	60	27852
2026-01-29 09:34:37.99	112.45	43.56	-54.1	-58.0	18.7	3.01e+01	0	45	0	31457280	60	30276
2026-01-29 09:34:39.00	112.08	43.85	-54.5	-58.9	18.0	3.01e+01	0	45	0	33554432	60	33679
2026-01-29 09:34:40.01	111.72	44.14	-54.7	-59.5	17.2	3.01e+01	0	45	0	35127296	60	35798
2026-01-29 09:34:41.01	111.35	44.42	-54.8	-67.9	3.5	3.01e+01	0	45	104	35651584	60	94682
2026-01-29 09:34:42.02	110.97	44.71	-54.8	-68.1	3.5	3.01e+01	0	45	104	35651584	60	97129
2026-01-29 09:34:43.03	110.58	45.00	-53.2	-65.2	3.5	3.01e+01	0	45	104	35651584	60	69150
2026-01-29 09:34:44.04	110.18	45.29	-56.3	-73.0	3.5	3.01e+01	0	45	104	35651584	60	169281
2026-01-29 09:34:45.04	109.78	45.58	-56.3	-73.4	3.5	3.01e+01	0	45	104	35651584	60	178261
2026-01-29 09:34:46.05	109.37	45.87	-54.4	-68.5	3.4	3.01e+01	0	45	104	35651584	60	101635
2026-01-29 09:34:47.06	108.96	46.16	-56.7	-75.9	3.5	3.01e+01	0	45	104	35651584	60	238472
2026-01-29 09:34:48.06	108.53	46.45	-52.9	-65.1	3.6	3.01e+01	0	45	104	35651584	60	68552
2026-01-29 09:34:49.07	108.10	46.74	-52.6	-64.6	3.5	3.01e+01	0	45	104	35651584	60	64715
2026-01-29 09:34:50.07	107.66	47.03	-52.9	-65.3	3.5	3.01e+01	0	45	104	35651584	60	69923
2026-01-29 09:34:51.08	107.21	47.33	-54.4	-68.6	3.5	3.01e+01	0	45	104	35651584	60	102634
2026-01-29 09:34:52.09	106.75	47.62	-55.8	-74.4	3.5	3.01e+01	0	45	104	35651584	60	199245
2026-01-29 09:34:53.10	106.28	47.91	-55.1	-71.0	3.5	3.01e+01	0	45	104	35651584	60	134333
2026-01-29 09:34:54.11	105.80	48.21	-55.5	-72.8	3.5	3.01e+01	0	46	104	35651584	60	166383
2026-01-29 09:34:55.11	105.32	48.50	-56.0	-76.7	3.5	3.01e+01	0	46	104	35651584	60	259942
2026-01-29 09:34:56.12	104.82	48.79	-55.1	-71.0	3.7	3.01e+01	0	45	104	35651584	60	135327
2026-01-29 09:34:57.13	104.32	49.08	-55.1	-70.5	3.5	3.01e+01	0	45	104	35651584	60	126893
2026-01-29 09:34:58.14	103.80	49.38	-55.3	-70.8	3.7	3.01e+01	0	45	104	35651584	60	132504
2026-01-29 09:34:59.14	103.28	49.66	-51.8	-63.2	3.9	3.01e+01	0	45	104	35651584	60	54774
2026-01-29 09:35:00.14	102.75	49.95	-56.1	-74.0	3.5	3.01e+01	0	45	104	35651584	60	191685
2026-01-29 09:35:01.15	102.20	50.24	-56.7	-73.9	3.5	3.01e+01	0	45	104	35651584	60	187764
2026-01-29 09:35:02.15	101.65	50.53	-55.1	-68.7	3.5	3.01e+01	0	45	104	35651584	60	103526
2026-01-29 09:35:03.15	101.09	50.82	-57.0	-76.4	3.5	3.01e+01	0	45	104	35651584	60	250824
2026-01-29 09:35:04.16	100.51	51.10	-52.6	-64.1	3.5	3.01e+01	0	45	104	35651584	60	60900
2026-01-29 09:35:05.17	99.92	51.39	-52.3	-63.7	3.5	3.01e+01	0	45	104	35651584	60	58267
2026-01-29 09:35:06.17	99.32	51.67	-51.6	-62.8	3.5	3.01e+01	0	45	104	35651584	60	52291
2026-01-29 09:35:07.18	98.71	51.95	-55.1	-68.2	3.5	3.01e+01	0	46	104	35651584	60	97581
2026-01-29 09:35:08.18	98.09	52.23	-57.1	-75.0	3.5	3.01e+01	0	46	104	35651584	60	212826
2026-01-29 09:35:09.19	97.45	52.51	-57.3	-74.6	3.5	3.01e+01	0	45	104	35651584	60	204018
2026-01-29 09:35:10.20	96.80	52.79	-57.1	-73.6	3.5	3.01e+01	0	45	104	35651584	60	183040
2026-01-29 09:35:11.21	96.14	53.06	-57.7	-77.7	3.5	3.01e+01	0	45	104	35651584	60	292675
2026-01-29 09:35:12.22	95.46	53.34	-53.9	-65.8	3.5	3.01e+01	0	46	104	35651584	60	73913
2026-01-29 09:35:13.23	94.77	53.61	-53.6	-65.3	3.5	3.01e+01	0	45	104	35651584	60	70332
2026-01-29 09:35:14.23	94.08	53.87	-52.9	-64.4	3.5	3.01e+01	0	45	104	35651584	60	62820
2026-01-29 09:35:15.24	93.37	54.14	-56.8	-72.0	3.5	3.01e+01	0	46	104	35651584	60	152218
2026-01-29 09:35:16.25	92.64	54.40	-57.6	-75.1	3.5	3.01e+01	0	46	104	35651584	60	216960
2026-01-29 09:35:17.26	91.90	54.65	-57.5	-75.2	3.5	3.01e+01	0	46	104	35651584	60	219934
2026-01-29 09:35:18.27	91.14	54.91	-56.7	-73.1	3.5	3.01e+01	0	46	104	35651584	60	172668
2026-01-29 09:35:19.27	90.38	55.16	-57.7	-76.5	3.5	3.01e+01	0	46	104	35651584	60	253927
2026-01-29 09:35:20.27	89.61	55.40	-56.8	-73.4	3.5	3.01e+01	0	46	104	35651584	60	178331
2026-01-29 09:35:21.28	88.81	55.64	-56.7	-73.6	3.5	3.01e+01	0	46	104	35651584	60	182250
2026-01-29 09:35:22.29	88.00	55.88	-56.7	-73.9	3.5	3.01e+01	0	46	104	35651584	60	188816
2026-01-29 09:35:23.30	87.18	56.11	-52.0	-63.0	3.5	3.01e+01	0	46	104	35651584	60	53606
2026-01-29 09:35:24.30	86.35	56.34	-57.2	-75.4	3.5	3.01e+01	0	46	104	35651584	60	224730
2026-01-29 09:35:25.31	85.50	56.56	-57.3	-75.9	3.5	3.01e+01	0	45	104	35651584	60	238292
2026-01-29 09:35:26.32	84.64	56.78	-56.9	-74.4	3.5	3.01e+01	0	46	104	35651584	60	199477
2026-01-29 09:35:27.33	83.76	56.99	-57.4	-77.8	3.5	3.01e+01	0	46	104	35651584	60	294112
2026-01-29 09:35:28.33	82.87	57.20	-56.2	-71.3	3.5	3.01e+01	0	46	104	35651584	60	139984
2026-01-29 09:35:29.34	81.97	57.40	-55.8	-69.9	3.5	3.01e+01	0	46	104	35651584	60	119402
2026-01-29 09:35:30.35	81.05	57.60	-55.3	-68.5	3.5	3.01e+01	0	46	104	35651584	60	101508
2026-01-29 09:35:31.35	80.13	57.78	-52.7	-64.0	3.5	3.01e+01	0	46	104	35651584	60	60126
2026-01-29 09:35:32.36	79.18	57.96	-57.4	-75.2	3.5	3.01e+01	0	46	104	35651584	60	218075
2026-01-29 09:35:33.36	78.23	58.14	-57.7	-75.6	3.5	3.01e+01	0	46	104	35651584	60	230455
2026-01-29 09:35:34.37	77.26	58.31	-56.6	-71.3	3.5	3.01e+01	0	46	104	35651584	60	139603
2026-01-29 09:35:35.38	76.28	58.47	-57.9	-76.8	3.5	3.01e+01	0	46	104	35651584	60	263282
2026-01-29 09:35:36.39	75.29	58.62	-55.7	-69.0	3.5	3.01e+01	0	46	104	35651584	60	107344
2026-01-29 09:35:37.39	74.29	58.76	-55.8	-69.1	3.5	3.01e+01	0	46	104	35651584	60	108437
2026-01-29 09:35:38.40	73.28	58.90	-56.1	-69.9	3.5	3.01e+01	0	46	104	35651584	60	118376
2026-01-29 09:35:39.41	72.25	59.03	-57.6	-76.2	3.5	3.01e+01	0	46	104	35651584	60	244714
2026-01-29 09:35:40.41	71.22	59.15	-57.3	-74.7	3.5	3.01e+01	0	46	104	35651584	60	206416
2026-01-29 09:35:41.42	70.18	59.26	-57.4	-76.1	3.5	3.01e+01	0	45	104	35651584	60	243193
2026-01-29 09:35:42.43	69.12	59.37	-55.1	-67.6	3.5	3.01e+01	0	45	104	35651584	60	91772
2026-01-29 09:35:43.44	68.06	59.46	-57.7	-77.4	3.5	3.01e+01	0	46	104	35651584	60	281817
2026-01-29 09:35:44.45	66.99	59.55	-52.9	-64.4	3.5	3.01e+01	0	46	104	35651584	60	62916
2026-01-29 09:35:45.45	65.92	59.63	-52.4	-63.4	3.5	3.01e+01	0	45	104	35651584	60	56375
2026-01-29 09:35:46.46	64.84	59.70	-51.7	-62.6	3.5	3.01e+01	0	45	104	35651584	60	51288
2026-01-29 09:35:47.47	63.75	59.76	-56.3	-70.8	3.5	3.01e+01	0	46	104	35651584	60	131214
2026-01-29 09:35:48.48	62.66	59.81	-57.3	-73.9	3.5	3.01e+01	0	46	104	35651584	60	188056
2026-01-29 09:35:49.48	61.57	59.85	-57.6	-76.2	3.5	3.01e+01	0	46	104	35651584	60	246702
2026-01-29 09:35:50.49	60.47	59.88	-56.6	-71.4	3.5	3.01e+01	0	46	104	35651584	60	141190
2026-01-29 09:35:51.50	59.37	59.90	-57.5	-76.8	3.5	3.01e+01	0	46	104	35651584	60	263096
2026-01-29 09:35:52.51	58.27	59.91	-56.9	-72.3	3.5	3.01e+01	0	46	104	35651584	60	156246
2026-01-29 09:35:53.51	57.17	59.92	-56.8	-71.7	3.5	3.01e+01	0	46	104	35651584	60	146830
2026-01-29 09:35:54.52	56.07	59.91	-57.0	-72.3	3.5	3.01e+01	0	45	104	35651584	60	156498
2026-01-29 09:35:55.53	54.97	59.90	-55.5	-68.3	3.5	3.01e+01	0	46	104	35651584	60	99401
2026-01-29 09:35:56.54	53.86	59.87	-57.1	-72.8	3.5	3.01e+01	0	46	104	35651584	60	165630
2026-01-29 09:35:57.54	52.78	59.83	-57.7	-75.8	3.5	3.01e+01	0	45	104	35651584	60	235410
2026-01-29 09:35:58.55	51.68	59.79	-55.8	-69.2	3.5	3.01e+01	0	45	104	35651584	60	109554
2026-01-29 09:35:59.56	50.59	59.74	-57.8	-77.3	3.5	3.01e+01	0	45	104	35651584	60	279549
2026-01-29 09:36:00.57	49.50	59.67	-56.5	-71.0	3.5	3.01e+01	0	46	104	35651584	60	135694
2026-01-29 09:36:01.57	48.43	59.60	-55.9	-69.5	3.5	3.01e+01	0	46	104	35651584	60	113644
2026-01-29 09:36:02.58	47.36	59.52	-54.8	-67.3	3.5	3.01e+01	0	46	104	35651584	60	88628
2026-01-29 09:36:03.59	46.29	59.43	-57.0	-73.2	3.5	3.01e+01	0	46	104	35651584	60	174260
2026-01-29 09:36:04.59	45.24	59.33	-54.0	-65.7	3.5	3.01e+01	0	46	104	35651584	60	73472
2026-01-29 09:36:05.60	44.19	59.22	-57.0	-72.9	3.5	3.01e+01	0	46	104	35651584	60	167802
2026-01-29 09:36:06.61	43.15	59.11	-52.6	-63.7	3.5	3.01e+01	0	46	104	35651584	60	58284
2026-01-29 09:36:07.62	42.12	58.98	-57.7	-76.0	3.5	3.01e+01	0	46	104	35651584	60	238960
2026-01-29 09:36:08.63	41.10	58.85	-54.2	-66.1	3.5	3.01e+01	0	46	104	35651584	60	77123
2026-01-29 09:36:09.63	40.10	58.71	-53.3	-64.7	3.5	3.01e+01	0	45	104	35651584	60	65057
2026-01-29 09:36:10.64	39.10	58.56	-52.4	-63.6	3.5	3.01e+01	0	46	104	35651584	60	57441
2026-01-29 09:36:11.65	38.11	58.41	-55.4	-68.5	3.5	3.01e+01	0	46	104	35651584	60	100875
2026-01-29 09:36:12.66	37.13	58.24	-51.1	-61.7	3.5	3.01e+01	0	46	104	35651584	60	46482
2026-01-29 09:36:13.67	36.17	58.07	-56.7	-72.8	3.5	3.01e+01	0	46	104	35651584	60	166306
2026-01-29 09:36:14.68	35.21	57.90	-52.3	-63.7	3.5	3.01e+01	0	46	104	35651584	60	58528
2026-01-29 09:36:15.68	34.28	57.71	-57.5	-75.5	3.5	3.01e+01	0	45	104	35651584	60	227566
2026-01-29 09:36:16.69	33.36	57.52	-54.2	-66.0	3.5	3.01e+01	0	46	104	35651584	60	75658
2026-01-29 09:36:17.70	32.45	57.33	-54.5	-66.8	3.5	3.01e+01	0	45	104	35651584	60	83710
2026-01-29 09:36:18.71	31.55	57.12	-52.6	-63.9	3.5	3.01e+01	0	46	104	35651584	60	59295
2026-01-29 09:36:19.72	30.66	56.92	-55.4	-68.6	3.5	3.01e+01	0	46	104	35651584	60	102793
2026-01-29 09:36:20.73	29.79	56.70	-51.7	-62.5	3.5	3.01e+01	0	46	104	35651584	60	51020
2026-01-29 09:36:21.74	28.93	56.48	-57.4	-74.0	3.5	3.01e+01	0	46	104	35651584	60	191127
2026-01-29 09:36:22.74	28.09	56.26	-54.1	-66.1	3.5	3.01e+01	0	46	104	35651584	60	76946
2026-01-29 09:36:23.75	27.26	56.03	-57.1	-73.0	3.5	3.01e+01	0	46	104	35651584	60	169888
2026-01-29 09:36:24.76	26.45	55.79	-54.9	-67.4	3.5	3.01e+01	0	45	104	35651584	60	89519
2026-01-29 09:36:25.77	25.64	55.55	-53.9	-66.0	3.5	3.01e+01	0	45	104	35651584	60	75769
2026-01-29 09:36:26.77	24.86	55.31	-51.1	-62.1	3.5	3.01e+01	0	46	104	35651584	60	48577
2026-01-29 09:36:27.78	24.09	55.07	-54.8	-67.9	3.5	3.01e+01	0	46	104	35651584	60	94885
2026-01-29 09:36:28.79	23.33	54.81	-49.9	-60.7	3.5	3.01e+01	0	46	104	35651584	60	41126
2026-01-29 09:36:29.80	22.58	54.56	-55.8	-71.2	3.5	3.01e+01	0	46	104	35651584	60	138836
2026-01-29 09:36:30.80	21.85	54.30	-51.8	-63.1	3.5	3.01e+01	0	46	104	35651584	60	54208
2026-01-29 09:36:31.81	21.13	54.04	-54.5	-67.9	3.5	3.01e+01	0	46	104	35651584	60	93990
2026-01-29 09:36:32.82	20.42	53.78	-52.1	-63.6	3.5	3.01e+01	0	46	104	35651584	60	57753
2026-01-29 09:36:33.83	19.73	53.51	-52.5	-63.9	3.6	3.01e+01	0	46	104	35651584	60	59388
2026-01-29 09:36:34.84	19.04	53.24	-49.6	-60.2	3.5	3.01e+01	0	46	104	35651584	60	39053
2026-01-29 09:36:35.85	18.37	52.97	-54.5	-67.6	3.5	3.01e+01	0	46	104	35651584	60	91137
2026-01-29 09:36:36.85	17.72	52.69	-52.2	-64.0	3.5	3.01e+01	0	46	104	35651584	60	60419
2026-01-29 09:36:37.86	17.08	52.42	-55.8	-71.6	3.5	3.01e+01	0	46	104	35651584	60	144659
2026-01-29 09:36:38.86	16.45	52.14	-53.3	-65.2	3.5	3.01e+01	0	46	104	35651584	60	68919
2026-01-29 09:36:39.87	15.83	51.86	-52.0	-63.5	3.5	3.01e+01	0	46	104	35651584	60	57234
2026-01-29 09:36:40.88	15.22	51.58	-50.2	-60.8	3.5	3.01e+01	0	46	104	35651584	60	41853
2026-01-29 09:36:41.89	14.63	51.29	-50.2	-61.2	3.5	3.01e+01	0	46	104	35651584	60	43546
2026-01-29 09:36:42.89	14.05	51.01	-50.8	-61.6	3.5	3.01e+01	0	46	104	35651584	60	45793
2026-01-29 09:36:43.90	13.47	50.72	-55.6	-70.3	3.5	3.01e+01	0	46	104	35651584	60	125029
2026-01-29 09:36:44.91	12.91	50.43	-51.3	-62.4	3.5	3.01e+01	0	46	104	35651584	60	50287
2026-01-29 09:36:45.92	12.36	50.14	-56.6	-74.9	3.5	3.01e+01	0	46	104	35651584	60	212257
2026-01-29 09:36:46.92	11.82	49.86	-54.1	-66.9	3.5	3.01e+01	0	46	104	35651584	60	84495
2026-01-29 09:36:47.93	11.29	49.57	-55.8	-71.9	3.5	3.01e+01	0	46	104	35651584	60	149342
2026-01-29 09:36:48.94	10.77	49.27	-55.3	-70.0	3.5	3.01e+01	0	46	104	35651584	60	120455
2026-01-29 09:36:49.95	10.26	48.98	-54.5	-68.0	3.5	3.01e+01	0	46	104	35651584	60	96048
2026-01-29 09:36:50.95	9.76	48.69	-50.7	-61.9	3.5	3.01e+01	0	46	104	35651584	60	47272
2026-01-29 09:36:51.96	9.27	48.40	-55.9	-73.3	3.5	3.01e+01	0	46	104	35651584	60	175417
2026-01-29 09:36:52.97	8.79	48.11	-54.5	-67.2	3.4	3.01e+01	0	46	104	35651584	60	86926
2026-01-29 09:36:53.98	8.31	47.82	-56.2	-74.3	3.5	3.01e+01	0	46	104	35651584	60	197880
2026-01-29 09:36:54.98	7.86	47.53	-56.2	-72.4	3.5	3.01e+01	0	46	104	35651584	60	157693
2026-01-29 09:36:55.99	7.40	47.23	-54.5	-67.7	3.6	3.01e+01	0	46	104	35651584	60	91848
2026-01-29 09:36:57.00	6.95	46.94	-53.0	-65.1	3.5	3.01e+01	0	46	104	35651584	60	68604
2026-01-29 09:36:58.01	6.51	46.65	-52.5	-64.2	3.5	3.01e+01	0	46	104	35651584	60	62056
2026-01-29 09:36:59.02	6.08	46.36	-55.6	-71.0	3.5	3.01e+01	0	45	104	35651584	60	135090
2026-01-29 09:37:00.02	5.67	46.07	-56.2	-74.7	3.5	3.01e+01	0	46	104	35651584	60	206397
2026-01-29 09:37:01.03	5.25	45.78	-54.8	-68.8	3.5	3.01e+01	0	46	104	35651584	60	104975
2026-01-29 09:37:02.03	4.85	45.49	-55.9	-73.0	3.5	3.01e+01	0	46	104	35651584	60	169480
2026-01-29 09:37:03.04	4.45	45.20	-54.6	-69.0	3.5	3.01e+01	0	46	104	35651584	60	107010
2026-01-29 09:37:04.04	4.06	44.92	-53.3	-66.2	3.5	3.01e+01	0	46	104	35651584	60	77637
2026-01-29 09:37:05.05	3.68	44.63	-53.1	-65.8	3.5	3.01e+01	0	46	104	35651584	60	74246
2026-01-29 09:37:06.06	3.30	44.34	-53.0	-65.8	3.5	3.01e+01	0	46	104	35651584	60	74429
2026-01-29 09:37:07.07	2.93	44.05	-49.2	-60.0	3.5	3.01e+01	0	46	104	35651584	60	37867
2026-01-29 09:37:08.07	2.57	43.77	-54.7	-73.6	3.5	3.01e+01	0	46	104	35651584	60	182585
2026-01-29 09:37:09.09	2.21	43.48	-55.0	-72.4	3.5	3.01e+01	0	46	104	35651584	60	158455
2026-01-29 09:37:10.09	1.86	43.20	-54.3	-73.9	3.5	3.01e+01	0	46	104	35651584	60	188579
2026-01-29 09:37:11.10	1.52	42.92	-54.8	-72.6	3.5	3.01e+01	0	46	104	35651584	60	162339
2026-01-29 09:37:12.11	1.18	42.64	-53.3	-67.5	3.5	3.01e+01	0	46	104	35651584	60	90523
2026-01-29 09:37:13.12	0.85	42.36	-53.3	-68.1	3.5	3.01e+01	0	46	104	35651584	60	96189
2026-01-29 09:37:14.12	0.52	42.08	-53.4	-69.3	3.5	3.01e+01	0	46	104	35651584	60	111481
2026-01-29 09:37:15.13	0.20	41.80	-49.9	-61.8	3.5	3.01e+01	0	46	104	35651584	60	46712
2026-01-29 09:37:16.13	359.89	41.53	-53.7	-73.5	3.5	3.01e+01	0	46	104	35651584	60	180320
2026-01-29 09:37:17.14	359.58	41.25	-52.8	-72.2	3.6	3.01e+01	0	46	104	35651584	60	155621
2026-01-29 09:37:18.15	359.28	40.98	-53.0	-74.1	3.6	3.01e+01	0	46	104	35651584	60	191786
2026-01-29 09:37:19.15	358.98	40.71	-52.7	-71.7	4.0	3.01e+01	0	46	104	35651584	60	146307
2026-01-29 09:37:20.16	358.69	40.44	-51.1	-66.1	3.5	3.01e+01	0	46	104	35651584	60	76392
2026-01-29 09:37:21.17	358.40	40.17	-51.6	-67.1	3.5	3.01e+01	0	46	104	35651584	60	85989
2026-01-29 09:37:22.17	358.12	39.90	-51.9	-68.1	3.5	3.01e+01	0	46	104	35651584	60	96698
2026-01-29 09:37:23.18	357.84	39.63	-52.5	-73.0	3.6	3.01e+01	0	46	104	35651584	60	169575
2026-01-29 09:37:24.19	357.56	39.37	-52.5	-73.3	3.7	3.01e+01	0	46	104	35651584	60	176405
2026-01-29 09:37:25.20	357.29	39.10	-52.6	-73.6	3.6	3.01e+01	0	46	104	35651584	60	182065
2026-01-29 09:37:26.21	357.03	38.84	-52.5	-73.6	3.6	3.01e+01	0	46	104	35651584	60	181157
2026-01-29 09:37:27.21	356.77	38.58	-52.8	-72.8	3.6	3.01e+01	0	46	104	35651584	60	166311
2026-01-29 09:37:28.22	356.51	38.32	-52.2	-69.5	3.6	3.01e+01	0	46	104	35651584	60	113130
2026-01-29 09:37:29.23	356.26	38.06	-52.0	-68.5	3.5	3.01e+01	0	46	104	35651584	60	100943
2026-01-29 09:37:30.24	356.01	37.80	-51.8	-67.5	3.5	3.01e+01	0	46	104	35651584	60	89746
2026-01-29 09:37:31.25	355.77	37.55	-50.3	-63.2	3.5	3.01e+01	0	46	104	35651584	60	55246
2026-01-29 09:37:32.25	355.53	37.29	-52.7	-72.7	3.6	3.01e+01	0	46	104	35651584	60	164318
2026-01-29 09:37:33.26	355.29	37.04	-53.5	-73.5	3.6	3.01e+01	0	46	104	35651584	60	180032
2026-01-29 09:37:34.27	355.06	36.79	-53.4	-72.5	3.5	3.01e+01	0	46	104	35651584	60	161328
2026-01-29 09:37:35.28	354.83	36.54	-53.3	-73.4	3.6	3.01e+01	0	46	104	35651584	60	178004
2026-01-29 09:37:36.29	354.60	36.29	-50.8	-63.4	3.6	3.01e+01	0	46	104	35651584	60	56398
2026-01-29 09:37:37.29	354.38	36.05	-50.5	-62.6	3.6	3.01e+01	0	46	104	35651584	60	51333
2026-01-29 09:37:38.30	354.17	35.80	-50.2	-62.1	3.5	3.01e+01	0	46	104	35651584	60	48210
2026-01-29 09:37:39.31	353.95	35.56	-53.0	-67.4	3.5	3.01e+01	0	46	104	35651584	60	88768
2026-01-29 09:37:40.32	353.74	35.32	-54.6	-74.5	3.5	3.01e+01	0	46	104	35651584	60	201600
2026-01-29 09:37:41.33	353.53	35.07	-53.9	-73.7	3.6	3.01e+01	0	46	104	35651584	60	184751
2026-01-29 09:37:42.33	353.33	34.84	-54.5	-74.7	3.6	3.01e+01	0	46	104	35651584	60	205972
2026-01-29 09:37:43.34	353.12	34.60	-53.4	-73.1	3.6	3.01e+01	0	46	104	35651584	60	172860
2026-01-29 09:37:44.35	352.92	34.36	-53.0	-68.5	3.5	3.01e+01	0	46	104	35651584	60	101790
2026-01-29 09:37:45.36	352.73	34.13	-52.6	-66.8	3.6	3.01e+01	0	46	104	35651584	60	83692
2026-01-29 09:37:46.37	352.53	33.89	-52.1	-65.5	3.6	3.01e+01	0	46	104	35651584	60	71567
2026-01-29 09:37:47.37	352.35	33.67	-49.8	-61.1	3.5	3.01e+01	0	46	104	35651584	60	43277
2026-01-29 09:37:48.38	352.16	33.43	-53.8	-71.4	3.5	3.01e+01	0	46	104	35651584	60	140569
2026-01-29 09:37:49.39	351.97	33.21	-55.4	-71.9	3.6	3.01e+01	0	46	104	35651584	60	148983
2026-01-29 09:37:50.39	351.79	32.98	-55.9	-74.0	3.5	3.01e+01	0	46	104	35651584	60	190188
2026-01-29 09:37:51.40	351.61	32.75	-55.5	-75.2	3.6	3.01e+01	0	46	104	35651584	60	219800
2026-01-29 09:37:52.41	351.44	32.53	-53.0	-65.7	3.5	3.01e+01	0	46	104	35651584	60	73278
2026-01-29 09:37:53.41	351.26	32.31	-53.4	-66.2	3.5	3.01e+01	0	46	104	35651584	60	77638
2026-01-29 09:37:54.42	351.09	32.09	-52.7	-64.9	3.5	3.01e+01	0	46	104	35651584	60	66642
2026-01-29 09:37:55.43	350.92	31.87	-51.5	-63.2	3.5	3.01e+01	0	46	104	35651584	60	54991
2026-01-29 09:37:56.44	350.75	31.65	-54.9	-69.7	3.5	3.01e+01	0	46	104	35651584	60	115831
2026-01-29 09:37:57.44	350.59	31.43	-55.3	-72.8	3.6	3.01e+01	0	46	104	35651584	60	166386
2026-01-29 09:37:58.45	350.43	31.22	-55.0	-69.6	3.5	3.01e+01	0	46	104	35651584	60	115282
2026-01-29 09:37:59.46	350.27	31.00	-54.9	-72.8	3.5	3.01e+01	0	46	104	35651584	60	166205
2026-01-29 09:38:00.47	350.11	30.79	-52.4	-64.6	3.5	3.01e+01	0	46	104	35651584	60	64907
2026-01-29 09:38:01.48	349.95	30.58	-52.1	-63.9	3.5	3.01e+01	0	46	104	35651584	60	59513
2026-01-29 09:38:02.49	349.80	30.37	-51.4	-62.9	3.5	3.01e+01	0	46	104	35651584	60	52897
2026-01-29 09:38:03.49	349.65	30.16	-49.5	-60.2	3.5	3.01e+01	0	46	104	35651584	60	38864
2026-01-29 09:38:04.50	349.50	29.96	-53.3	-65.6	3.6	3.01e+01	0	46	104	35651584	60	72616
2026-01-29 09:38:05.50	349.35	29.75	-56.1	-71.6	3.5	3.01e+01	0	46	104	35651584	60	144829
2026-01-29 09:38:06.50	349.21	29.55	-52.9	-64.8	3.5	3.01e+01	0	46	104	35651584	60	66443
2026-01-29 09:38:07.51	349.06	29.35	-57.0	-74.5	3.5	3.01e+01	0	46	104	35651584	60	202281
2026-01-29 09:38:08.52	348.92	29.15	-54.3	-66.9	3.5	3.01e+01	0	46	104	35651584	60	84449
2026-01-29 09:38:09.53	348.78	28.95	-53.3	-65.3	3.5	3.01e+01	0	46	104	35651584	60	70290
2026-01-29 09:38:10.53	348.65	28.75	-52.3	-63.8	3.5	3.01e+01	0	46	104	35651584	60	59096
2026-01-29 09:38:11.54	348.51	28.55	-51.6	-62.9	3.5	3.01e+01	0	46	104	35651584	60	52942
2026-01-29 09:38:12.55	348.37	28.35	-52.5	-64.0	3.5	3.01e+01	0	46	104	35651584	60	60579
2026-01-29 09:38:13.56	348.24	28.16	-54.6	-68.8	3.5	3.01e+01	0	46	104	35651584	60	104353
2026-01-29 09:38:14.57	348.11	27.97	-53.7	-67.0	3.5	3.01e+01	0	46	104	35651584	60	85648
2026-01-29 09:38:15.57	347.98	27.78	-56.5	-75.7	3.5	3.01e+01	0	45	104	35651584	60	230706
2026-01-29 09:38:16.58	347.85	27.58	-54.9	-69.3	3.5	3.01e+01	0	46	104	35651584	60	110896
2026-01-29 09:38:17.59	347.73	27.39	-54.3	-68.1	3.5	3.01e+01	0	46	104	35651584	60	96353
2026-01-29 09:38:18.60	347.60	27.21	-52.7	-64.9	3.5	3.01e+01	0	46	104	35651584	60	67130
2026-01-29 09:38:19.60	347.48	27.02	-50.8	-62.1	3.5	3.01e+01	0	45	104	35651584	60	48360
2026-01-29 09:38:20.61	347.36	26.83	-51.3	-62.8	3.5	3.01e+01	0	46	104	35651584	60	52424
2026-01-29 09:38:21.62	347.24	26.65	-54.8	-70.9	3.5	3.01e+01	0	46	104	35651584	60	133109
2026-01-29 09:38:22.63	347.12	26.46	-51.7	-63.6	3.6	3.01e+01	0	45	104	35651584	60	57698
2026-01-29 09:38:23.64	347.00	26.28	-54.5	-71.9	3.5	3.01e+01	0	46	104	35651584	60	149839
2026-01-29 09:38:24.65	346.89	26.10	-51.7	-63.9	3.5	3.01e+01	0	45	104	35651584	60	59368
2026-01-29 09:38:25.65	346.77	25.92	-51.4	-63.3	3.5	3.01e+01	0	45	104	35651584	60	55463
2026-01-29 09:38:26.66	346.66	25.74	-51.9	-64.0	3.5	3.01e+01	0	45	104	35651584	60	60549
2026-01-29 09:38:27.67	346.55	25.57	-55.0	-71.3	3.5	3.01e+01	0	45	104	35651584	60	140225
2026-01-29 09:38:28.68	346.44	25.39	-49.3	-60.3	3.6	3.01e+01	0	45	104	35651584	60	39486
2026-01-29 09:38:29.69	346.33	25.21	-54.6	-70.2	3.5	3.01e+01	0	46	104	35651584	60	122821
2026-01-29 09:38:30.69	346.22	25.04	-49.7	-60.7	3.6	3.01e+01	0	46	104	35651584	60	41110
2026-01-29 09:38:31.70	346.12	24.87	-52.8	-66.0	3.5	3.01e+01	0	45	104	35651584	60	76340
2026-01-29 09:38:32.71	346.01	24.70	-50.3	-61.5	3.5	3.01e+01	0	45	104	35651584	60	45474
2026-01-29 09:38:33.72	345.91	24.52	-50.2	-61.3	3.5	3.01e+01	0	46	104	35651584	60	43962
2026-01-29 09:38:34.72	345.81	24.36	-49.4	-60.2	3.5	3.01e+01	0	45	104	35651584	60	38782
2026-01-29 09:38:35.73	345.71	24.19	-50.5	-61.7	3.5	3.01e+01	0	45	104	35651584	60	46327
2026-01-29 09:38:36.74	345.61	24.02	-50.5	-61.7	3.6	3.01e+01	0	46	104	35651584	60	46397
2026-01-29 09:38:37.75	345.51	23.85	-54.6	-69.2	3.5	3.01e+01	0	45	104	35651584	60	110116
2026-01-29 09:38:38.76	345.41	23.69	-51.9	-63.7	3.5	3.01e+01	0	46	104	35651584	60	58499
2026-01-29 09:38:39.77	345.31	23.52	-55.6	-73.3	3.5	3.01e+01	0	46	104	35651584	60	176609
2026-01-29 09:38:40.77	345.22	23.36	-54.8	-69.9	3.5	3.01e+01	0	46	104	35651584	60	118807
2026-01-29 09:38:41.78	345.12	23.20	-54.8	-70.1	3.5	3.01e+01	0	46	104	35651584	60	121286
2026-01-29 09:38:42.79	345.03	23.04	-54.1	-68.0	3.5	3.01e+01	0	46	104	35651584	60	95969
2026-01-29 09:38:43.80	344.93	22.88	-54.5	-69.3	3.5	3.01e+01	0	46	104	35651584	60	110782
2026-01-29 09:38:44.81	344.84	22.72	-49.5	-60.4	3.5	3.01e+01	0	46	104	35651584	60	40042
2026-01-29 09:38:45.82	344.75	22.56	-54.4	-73.8	3.5	3.01e+01	0	45	104	35651584	60	186940
2026-01-29 09:38:46.83	344.66	22.40	-51.5	-63.6	3.5	3.01e+01	0	46	104	35651584	60	57878
2026-01-29 09:38:47.84	344.57	22.24	-53.9	-68.7	3.5	3.01e+01	0	46	104	35651584	60	104056
2026-01-29 09:38:48.84	344.49	22.09	-53.0	-66.6	3.5	3.01e+01	0	46	104	35651584	60	81633
2026-01-29 09:38:49.85	344.40	21.94	-53.1	-67.1	3.5	3.01e+01	0	46	104	35651584	60	85744
2026-01-29 09:38:50.85	344.32	21.78	-53.9	-70.7	3.5	3.01e+01	0	46	104	35651584	60	130399
2026-01-29 09:38:51.86	344.23	21.63	-53.9	-72.8	3.5	3.01e+01	0	45	104	35651584	60	166262
2026-01-29 09:38:52.87	344.15	21.48	-50.4	-62.4	3.5	3.01e+01	0	46	104	35651584	60	50397
2026-01-29 09:38:53.88	344.06	21.33	-53.4	-71.6	3.6	3.01e+01	0	45	104	35651584	60	143843
2026-01-29 09:38:54.88	343.98	21.18	-53.0	-67.7	3.5	3.01e+01	0	46	104	35651584	60	92197
2026-01-29 09:38:55.89	343.90	21.03	-52.3	-66.2	3.5	3.01e+01	0	46	104	35651584	60	77391
2026-01-29 09:38:56.90	343.82	20.88	-51.5	-64.6	3.5	3.01e+01	0	45	104	35651584	60	64288
2026-01-29 09:38:57.91	343.74	20.73	-51.3	-64.3	3.5	3.01e+01	0	45	104	35651584	60	62470
2026-01-29 09:38:58.92	343.66	20.59	-51.6	-65.2	3.5	3.01e+01	0	46	104	35651584	60	69038
2026-01-29 09:38:59.92	343.58	20.44	-52.7	-67.9	3.5	3.01e+01	0	46	104	35651584	60	94310
2026-01-29 09:39:00.93	343.51	20.30	-51.2	-64.8	3.5	3.01e+01	0	46	104	35651584	60	66446
2026-01-29 09:39:01.93	343.43	20.16	-53.4	-72.8	3.6	3.01e+01	0	46	104	35651584	60	166765
2026-01-29 09:39:02.94	343.36	20.01	-50.7	-63.7	3.5	3.01e+01	0	45	104	35651584	60	58007
2026-01-29 09:39:03.95	343.28	19.87	-51.2	-64.8	3.5	3.01e+01	0	46	104	35651584	60	66356
2026-01-29 09:39:04.96	343.21	19.73	-50.7	-63.7	3.5	3.01e+01	0	46	104	35651584	60	58017
2026-01-29 09:39:05.97	343.13	19.59	-50.5	-63.2	3.5	3.01e+01	0	46	104	35651584	60	54776
2026-01-29 09:39:06.98	343.06	19.45	-48.7	-60.1	3.6	3.01e+01	0	45	104	35651584	60	38575
2026-01-29 09:39:07.98	342.99	19.31	-52.3	-67.6	3.5	3.01e+01	0	45	104	35651584	60	91630
2026-01-29 09:39:08.99	342.92	19.18	-53.2	-69.0	3.5	3.01e+01	0	45	104	35651584	60	107072
2026-01-29 09:39:10.00	342.85	19.04	-54.0	-71.0	3.5	3.01e+01	0	46	104	35651584	60	134792
2026-01-29 09:39:11.00	342.78	18.90	-54.0	-72.6	3.6	3.01e+01	0	46	104	35651584	60	162478
2026-01-29 09:39:12.01	342.71	18.77	-53.9	-70.8	3.5	3.01e+01	0	46	104	35651584	60	131682
2026-01-29 09:39:13.02	342.64	18.63	-53.4	-68.6	3.5	3.01e+01	0	46	104	35651584	60	102054
2026-01-29 09:39:14.03	342.58	18.50	-53.2	-67.6	3.6	3.01e+01	0	46	104	35651584	60	91427
2026-01-29 09:39:15.03	342.51	18.37	-54.7	-72.9	3.6	3.01e+01	0	45	104	35651584	60	167418
2026-01-29 09:39:16.04	342.44	18.23	-55.1	-73.7	3.6	3.01e+01	0	46	104	35651584	60	183925
2026-01-29 09:39:17.04	342.38	18.10	-51.8	-64.8	3.5	3.01e+01	0	45	104	35651584	60	66452
2026-01-29 09:39:18.05	342.31	17.97	-54.3	-72.4	3.6	3.01e+01	0	46	104	35651584	60	158611
2026-01-29 09:39:19.06	342.25	17.84	-53.4	-68.8	3.5	3.01e+01	0	46	104	35651584	60	105312
2026-01-29 09:39:20.06	342.18	17.71	-52.3	-65.7	3.5	3.01e+01	0	45	104	35651584	60	73165
2026-01-29 09:39:21.07	342.12	17.58	-52.4	-65.8	3.5	3.01e+01	0	45	104	35651584	60	74319
2026-01-29 09:39:22.08	342.06	17.46	-52.4	-65.7	3.5	3.01e+01	0	45	104	35651584	60	73257
2026-01-29 09:39:23.08	342.00	17.33	-50.0	-61.2	3.5	3.01e+01	0	45	104	35651584	60	43771
2026-01-29 09:39:24.09	341.94	17.20	-53.9	-70.2	3.5	3.01e+01	0	45	104	35651584	60	122946
2026-01-29 09:39:25.09	341.88	17.08	-56.0	-75.1	3.5	3.01e+01	0	45	104	35651584	60	215722
2026-01-29 09:39:26.10	341.82	16.95	-54.4	-69.3	3.5	3.01e+01	0	45	104	35651584	60	111554
2026-01-29 09:39:27.11	341.76	16.83	-55.6	-73.0	3.5	3.01e+01	0	46	104	35651584	60	169099
2026-01-29 09:39:28.11	341.70	16.70	-52.3	-64.2	3.6	3.01e+01	0	46	104	35651584	60	61829
2026-01-29 09:39:29.12	341.64	16.58	-51.5	-63.0	3.5	3.01e+01	0	45	104	35651584	60	53685
2026-01-29 09:39:30.13	341.58	16.46	-51.0	-62.3	3.5	3.01e+01	0	45	104	35651584	60	49337
2026-01-29 09:39:31.13	341.52	16.34	-53.6	-66.9	3.5	3.01e+01	0	45	104	35651584	60	84159
2026-01-29 09:39:32.14	341.47	16.21	-55.5	-75.3	3.5	3.01e+01	0	45	104	35651584	60	220279
2026-01-29 09:39:33.15	341.41	16.09	-53.8	-67.3	3.5	3.01e+01	0	45	104	35651584	60	88040
2026-01-29 09:39:34.15	341.35	15.97	-55.2	-73.1	3.6	3.01e+01	0	45	104	35651584	60	171900
2026-01-29 09:39:35.16	341.30	15.85	-55.3	-71.5	3.5	3.01e+01	0	45	104	35651584	60	142769
2026-01-29 09:39:36.17	341.24	15.73	-53.9	-67.3	3.5	3.01e+01	0	45	104	35651584	60	88279
2026-01-29 09:39:37.18	341.19	15.62	-53.8	-67.3	3.5	3.01e+01	0	45	104	35651584	60	88228
2026-01-29 09:39:38.19	341.14	15.50	-54.1	-67.9	3.5	3.01e+01	0	45	104	35651584	60	94530
2026-01-29 09:39:39.20	341.08	15.38	-51.2	-62.8	3.5	3.01e+01	0	45	104	35651584	60	52462
2026-01-29 09:39:40.21	341.03	15.26	-55.1	-70.7	3.5	3.01e+01	0	45	104	35651584	60	129908
2026-01-29 09:39:41.21	340.98	15.15	-54.5	-72.2	3.5	3.01e+01	0	46	104	35651584	60	154862
2026-01-29 09:39:42.22	340.92	15.03	-54.6	-71.5	3.5	3.01e+01	0	45	104	35651584	60	143471
2026-01-29 09:39:43.23	340.87	14.92	-55.0	-73.8	3.5	3.01e+01	0	45	104	35651584	60	186693
2026-01-29 09:39:44.24	340.82	14.80	-53.1	-67.0	3.5	3.01e+01	0	45	104	35651584	60	85053
2026-01-29 09:39:45.25	340.77	14.69	-52.8	-66.3	3.5	3.01e+01	0	45	104	35651584	60	78511
2026-01-29 09:39:46.25	340.72	14.58	-52.6	-65.9	3.5	3.01e+01	0	45	104	35651584	60	74911
2026-01-29 09:39:47.26	340.67	14.47	-54.4	-70.1	3.5	3.01e+01	0	46	104	35651584	60	121801
2026-01-29 09:39:48.27	340.62	14.35	-54.7	-71.2	3.5	3.01e+01	0	46	104	35651584	60	138730
2026-01-29 09:39:49.28	340.57	14.24	-54.4	-70.3	3.5	3.01e+01	0	46	104	35651584	60	123836
2026-01-29 09:39:50.29	340.52	14.13	-54.9	-73.0	3.5	3.01e+01	0	46	104	35651584	60	169854
2026-01-29 09:39:51.30	340.48	14.02	-54.9	-73.7	3.5	3.01e+01	0	46	104	35651584	60	183995
2026-01-29 09:39:52.31	340.43	13.91	-52.7	-66.2	3.5	3.01e+01	0	45	104	35651584	60	77744
2026-01-29 09:39:53.32	340.38	13.80	-52.8	-66.4	3.5	3.01e+01	0	46	104	35651584	60	79707
2026-01-29 09:39:54.33	340.33	13.69	-53.0	-66.8	3.5	3.01e+01	0	46	104	35651584	60	83006
2026-01-29 09:39:55.33	340.29	13.58	-55.0	-73.8	3.5	3.01e+01	0	46	104	35651584	60	185609
2026-01-29 09:39:56.34	340.24	13.48	-54.0	-69.6	3.5	3.01e+01	0	46	104	35651584	60	115510
2026-01-29 09:39:57.35	340.20	13.37	-53.9	-69.4	3.5	3.01e+01	0	46	104	35651584	60	112782
2026-01-29 09:39:58.36	340.15	13.26	-54.5	-69.9	3.5	3.01e+01	0	46	104	35651584	60	119088
2026-01-29 09:39:59.37	340.11	13.16	-54.8	-72.3	3.5	3.01e+01	0	46	104	35651584	60	156878
2026-01-29 09:40:00.37	340.06	13.05	-53.1	-66.7	3.5	3.01e+01	0	46	104	35651584	60	81858
2026-01-29 09:40:01.38	340.02	12.95	-53.1	-66.7	3.5	3.01e+01	0	46	104	35651584	60	82535
2026-01-29 09:40:02.39	339.97	12.84	-53.2	-67.0	3.5	3.01e+01	0	46	104	35651584	60	85558
2026-01-29 09:40:03.40	339.93	12.74	-54.6	-71.5	3.5	3.01e+01	0	46	104	35651584	60	143457
2026-01-29 09:40:04.41	339.89	12.63	-54.8	-72.7	3.5	3.01e+01	0	46	104	35651584	60	164722
2026-01-29 09:40:05.41	339.84	12.53	-54.7	-72.0	3.5	3.01e+01	0	46	104	35651584	60	151576
2026-01-29 09:40:06.42	339.80	12.43	-53.9	-71.7	3.6	3.01e+01	0	46	104	35651584	60	145908
2026-01-29 09:40:07.43	339.76	12.32	-54.9	-71.3	3.5	3.01e+01	0	46	104	35651584	60	140009
2026-01-29 09:40:08.44	339.72	12.22	-54.4	-69.9	3.5	3.01e+01	0	46	104	35651584	60	119571
2026-01-29 09:40:09.45	339.68	12.12	-54.4	-70.0	3.5	3.01e+01	0	46	104	35651584	60	120548
2026-01-29 09:40:10.46	339.64	12.02	-54.4	-70.4	3.5	3.01e+01	0	45	104	35651584	60	126591
2026-01-29 09:40:11.46	339.60	11.92	-54.0	-69.1	3.5	3.01e+01	0	46	104	35651584	60	108567
2026-01-29 09:40:12.47	339.56	11.82	-53.9	-69.2	3.5	3.01e+01	0	46	104	35651584	60	109557
2026-01-29 09:40:13.47	339.52	11.72	-53.5	-71.1	3.5	3.01e+01	0	46	104	35651584	60	136504
2026-01-29 09:40:14.48	339.48	11.62	-53.7	-71.6	3.5	3.01e+01	0	46	104	35651584	60	144573
2026-01-29 09:40:15.48	339.44	11.52	-54.5	-73.4	3.5	3.01e+01	0	46	104	35651584	60	178009
2026-01-29 09:40:16.49	339.40	11.42	-54.1	-71.6	3.5	3.01e+01	0	46	104	35651584	60	145414
2026-01-29 09:40:17.50	339.36	11.33	-54.0	-71.8	3.5	3.01e+01	0	46	104	35651584	60	147589
2026-01-29 09:40:18.51	339.32	11.23	-54.0	-72.0	3.5	3.01e+01	0	45	104	35651584	60	151339
2026-01-29 09:40:19.51	339.28	11.13	-54.4	-73.7	3.5	3.01e+01	0	46	104	35651584	60	185126
2026-01-29 09:40:20.52	339.24	11.03	-54.2	-72.7	3.5	3.01e+01	0	46	104	35651584	60	164089
2026-01-29 09:40:21.53	339.21	10.94	-53.6	-73.1	3.5	3.01e+01	0	46	104	35651584	60	171118
2026-01-29 09:40:22.53	339.17	10.84	-52.9	-72.4	3.5	3.01e+01	0	46	104	35651584	60	157942
2026-01-29 09:40:23.54	339.13	10.75	-53.9	-71.4	3.5	3.01e+01	0	46	104	35651584	60	141316
2026-01-29 09:40:24.55	339.10	10.65	-53.8	-71.3	3.5	3.01e+01	0	46	104	35651584	60	139768
2026-01-29 09:40:25.56	339.06	10.56	-53.7	-71.4	3.5	3.01e+01	0	46	104	35651584	60	141802
2026-01-29 09:40:26.57	339.02	10.46	-53.7	-71.5	3.5	3.01e+01	0	46	104	35651584	60	143733
2026-01-29 09:40:27.57	338.99	10.37	-53.8	-71.8	3.5	3.01e+01	0	46	104	35651584	60	148210
2026-01-29 09:40:28.58	338.95	10.28	-53.2	-72.1	3.5	3.01e+01	0	46	104	35651584	60	152350
2026-01-29 09:40:29.59	338.92	10.18	-52.8	-73.8	3.5	3.01e+01	0	46	104	35651584	60	185309
2026-01-29 09:40:30.60	338.88	10.09	-53.0	-73.0	3.5	3.01e+01	0	46	104	35651584	60	169481
2026-01-29 09:40:31.61	338.85	10.00	-53.8	-74.6	3.5	3.01e+01	0	46	104	35651584	60	203410
