passes_logs/2026/01/29/R3.2S-Naryan-Mar/R3.2S-Naryan-Mar__20260129_075435_NOAA_21_JPSS-2_rec.log

#Pass ID: 20260129_075435_NOAA 21 (JPSS-2)
#Satellite: NOAA 21 (JPSS-2)
#Configuration: NOAA-21
#almurnet v.1.7.20240730
#Start time: 2026-01-29 07:54:37

#Version: 2.2.20231116
#Station: R3.2S-Naryan-Mar
#Location: 53.008057 lon 67.646978 lat
#TLE: 1 54234U 22150A   26027.91149249  .00000141  00000+0  87546-4 0  9993
#TLE: 2 54234  98.7510 328.6558 0000880 202.8718 157.2419 14.19540177166642

#Time	Az	El	Level	Level2	SNR	BER	BlckErr	Temp	State	Recorded	gain1	gain2
2026-01-29 07:54:37.66	143.99	0.15	-60.7	-74.2	3.3	1.54e+00	0	44	0	0	60	196224
2026-01-29 07:54:38.67	143.98	0.21	-58.1	-74.6	3.7	1.51e+00	0	44	104	0	60	203867
2026-01-29 07:54:39.68	143.98	0.27	-59.6	-75.6	3.6	1.51e+00	0	44	104	0	60	229180
2026-01-29 07:54:40.68	143.97	0.33	-61.5	-76.5	3.5	1.52e+00	0	44	104	0	60	253195
2026-01-29 07:54:41.69	143.96	0.39	-62.5	-76.9	3.5	1.52e+00	0	44	104	0	60	266098
2026-01-29 07:54:42.69	143.96	0.45	-62.7	-76.9	3.5	1.52e+00	0	44	104	0	60	266341
2026-01-29 07:54:43.70	143.95	0.51	-62.8	-76.8	3.5	1.52e+00	0	44	104	0	60	264608
2026-01-29 07:54:44.71	143.94	0.57	-62.9	-76.9	3.5	1.52e+00	0	45	104	0	60	267659
2026-01-29 07:54:45.72	143.94	0.64	-62.7	-76.8	3.5	1.52e+00	0	45	104	0	60	263122
2026-01-29 07:54:46.73	143.93	0.70	-62.4	-76.4	3.5	1.52e+00	0	44	104	0	60	251234
2026-01-29 07:54:47.74	143.92	0.76	-61.9	-75.9	3.5	1.52e+00	0	44	104	0	60	237352
2026-01-29 07:54:48.74	143.91	0.82	-61.8	-75.9	3.5	1.52e+00	0	45	104	0	60	237131
2026-01-29 07:54:49.75	143.91	0.88	-61.5	-75.6	3.5	1.52e+00	0	45	104	0	60	228537
2026-01-29 07:54:50.76	143.90	0.95	-61.1	-75.3	3.5	1.51e+00	0	44	104	0	60	220222
2026-01-29 07:54:51.76	143.89	1.01	-60.6	-74.8	3.5	1.51e+00	0	44	104	0	60	210120
2026-01-29 07:54:52.77	143.89	1.07	-58.7	-73.9	3.6	1.52e+00	0	44	104	0	60	188513
2026-01-29 07:54:53.78	143.88	1.13	-58.8	-73.7	3.5	1.52e+00	0	45	104	0	60	184983
2026-01-29 07:54:54.79	143.87	1.20	-58.7	-73.6	3.5	1.51e+00	0	44	104	0	60	182828
2026-01-29 07:54:55.80	143.86	1.26	-58.7	-73.6	3.5	1.52e+00	0	45	104	0	60	182263
2026-01-29 07:54:56.81	143.86	1.32	-58.7	-73.6	3.5	1.51e+00	0	45	104	0	60	182715
2026-01-29 07:54:57.82	143.85	1.39	-58.7	-73.5	3.5	1.51e+00	0	45	104	0	60	180385
2026-01-29 07:54:58.83	143.84	1.45	-58.7	-73.6	3.5	1.51e+00	0	45	104	0	60	181868
2026-01-29 07:54:59.83	143.83	1.51	-58.7	-73.5	3.5	1.52e+00	0	45	104	0	60	180697
2026-01-29 07:55:00.84	143.83	1.58	-58.7	-73.5	3.5	1.52e+00	0	45	104	0	60	179776
2026-01-29 07:55:01.85	143.82	1.64	-58.7	-73.5	3.5	1.51e+00	0	45	104	0	60	179362
2026-01-29 07:55:02.85	143.81	1.70	-58.7	-73.5	3.5	1.52e+00	0	45	104	0	60	179241
2026-01-29 07:55:03.86	143.80	1.77	-58.7	-73.5	3.5	1.52e+00	0	45	104	0	60	180837
2026-01-29 07:55:04.87	143.80	1.83	-58.7	-73.5	3.5	1.52e+00	0	45	104	0	60	179260
2026-01-29 07:55:05.88	143.79	1.90	-58.7	-73.6	3.5	1.51e+00	0	45	104	0	60	181624
2026-01-29 07:55:06.89	143.78	1.96	-58.7	-73.5	3.5	1.52e+00	0	45	104	0	60	180978
2026-01-29 07:55:07.89	143.77	2.03	-58.7	-73.4	3.5	1.52e+00	0	45	104	0	60	178798
2026-01-29 07:55:08.90	143.77	2.09	-58.7	-73.6	3.5	1.51e+00	0	45	104	0	60	181398
2026-01-29 07:55:09.91	143.76	2.16	-58.6	-73.5	3.5	1.52e+00	0	45	104	0	60	180816
2026-01-29 07:55:10.91	143.75	2.22	-58.7	-73.5	3.5	1.52e+00	0	45	104	0	60	180250
2026-01-29 07:55:11.92	143.74	2.29	-58.7	-73.4	3.5	1.52e+00	0	45	104	0	60	178841
2026-01-29 07:55:12.93	143.73	2.35	-58.6	-73.4	3.5	1.52e+00	0	45	104	0	60	177997
2026-01-29 07:55:13.93	143.72	2.42	-58.6	-73.4	3.5	1.52e+00	0	45	104	0	60	178396
2026-01-29 07:55:14.94	143.72	2.48	-58.6	-73.5	3.5	1.52e+00	0	45	104	0	60	179365
2026-01-29 07:55:15.95	143.71	2.55	-58.6	-73.4	3.5	1.52e+00	0	45	104	0	60	177596
2026-01-29 07:55:16.96	143.70	2.61	-58.6	-73.4	3.5	1.52e+00	0	45	104	0	60	177731
2026-01-29 07:55:17.97	143.69	2.68	-58.6	-73.4	3.5	1.52e+00	0	45	104	0	60	177176
2026-01-29 07:55:18.97	143.68	2.75	-58.6	-73.4	3.5	1.52e+00	0	45	104	0	60	177624
2026-01-29 07:55:19.98	143.67	2.81	-58.6	-73.4	3.5	1.52e+00	0	45	104	0	60	177746
2026-01-29 07:55:20.99	143.67	2.88	-58.6	-73.4	3.5	1.52e+00	0	45	104	0	60	178058
2026-01-29 07:55:22.00	143.66	2.95	-58.6	-73.4	3.5	1.51e+00	0	45	104	0	60	178008
2026-01-29 07:55:23.00	143.65	3.01	-58.6	-73.4	3.5	1.52e+00	0	45	104	0	60	177499
2026-01-29 07:55:24.01	143.64	3.08	-58.6	-73.4	3.5	1.52e+00	0	45	104	0	60	178027
2026-01-29 07:55:25.01	143.63	3.15	-58.6	-73.4	3.5	1.52e+00	0	45	104	0	60	177718
2026-01-29 07:55:26.01	143.62	3.21	-58.6	-73.4	3.5	1.52e+00	0	45	104	0	60	177333
2026-01-29 07:55:27.02	143.61	3.28	-58.6	-73.3	3.5	1.52e+00	0	45	104	0	60	175432
2026-01-29 07:55:28.02	143.61	3.35	-58.6	-73.3	3.5	1.52e+00	0	45	104	0	60	175096
2026-01-29 07:55:29.02	143.60	3.41	-58.6	-73.2	3.5	1.52e+00	0	45	104	0	60	174604
2026-01-29 07:55:30.03	143.59	3.48	-58.6	-73.2	3.5	1.51e+00	0	45	104	0	60	174702
2026-01-29 07:55:31.03	143.58	3.55	-58.5	-73.2	3.5	1.52e+00	0	45	104	0	60	173221
2026-01-29 07:55:32.04	143.57	3.62	-58.5	-73.3	3.5	1.51e+00	0	45	104	0	60	175328
2026-01-29 07:55:33.05	143.56	3.69	-58.5	-73.2	3.5	1.52e+00	0	45	104	0	60	174581
2026-01-29 07:55:34.06	143.55	3.76	-58.5	-73.2	3.5	1.52e+00	0	45	104	0	60	174854
2026-01-29 07:55:35.07	143.54	3.83	-58.5	-73.1	3.5	1.52e+00	0	45	104	0	60	172780
2026-01-29 07:55:36.08	143.53	3.89	-58.5	-73.1	3.5	1.52e+00	0	45	104	0	60	170964
2026-01-29 07:55:37.08	143.52	3.96	-58.5	-73.0	3.5	1.52e+00	0	45	104	0	60	169164
2026-01-29 07:55:38.09	143.51	4.03	-58.5	-72.7	3.5	1.51e+00	0	45	104	0	60	164671
2026-01-29 07:55:39.10	143.50	4.10	-58.5	-72.6	3.5	1.52e+00	0	45	104	0	60	161547
2026-01-29 07:55:40.11	143.49	4.17	-58.5	-72.4	3.5	1.51e+00	0	45	104	0	60	158822
2026-01-29 07:55:41.11	143.48	4.24	-58.5	-72.4	3.5	1.52e+00	0	45	104	0	60	158007
2026-01-29 07:55:42.12	143.47	4.31	-58.5	-72.4	3.5	1.51e+00	0	45	104	0	60	158274
2026-01-29 07:55:43.13	143.46	4.38	-58.5	-72.6	3.5	1.51e+00	0	45	104	0	60	161507
2026-01-29 07:55:44.14	143.45	4.45	-58.5	-72.4	3.5	1.51e+00	0	45	104	0	60	159202
2026-01-29 07:55:45.14	143.45	4.52	-58.4	-71.9	3.6	1.51e+00	0	45	104	0	60	149286
2026-01-29 07:55:46.15	143.44	4.59	-58.3	-70.6	3.9	1.45e+00	0	45	104	0	60	128739
2026-01-29 07:55:47.16	143.43	4.67	-58.2	-68.9	4.6	1.26e+00	0	45	104	0	60	105884
2026-01-29 07:55:48.17	143.41	4.74	-58.0	-67.0	5.9	6.49e-01	0	45	104	0	60	84764
2026-01-29 07:55:49.17	143.40	4.81	-57.6	-64.1	7.8	1.22e-01	0	45	0	2097152	60	61087
2026-01-29 07:55:50.18	143.39	4.88	-57.0	-62.3	10.0	1.61e-02	0	45	0	5242880	60	49313
2026-01-29 07:55:51.19	143.38	4.95	-56.5	-61.0	11.5	1.71e-03	0	45	0	8388608	60	42599
2026-01-29 07:55:52.20	143.37	5.02	-55.8	-59.7	12.9	1.18e-04	0	45	0	11534336	60	36668
2026-01-29 07:55:53.21	143.36	5.10	-55.3	-58.6	14.0	6.10e-06	0	45	0	14680064	60	32465
2026-01-29 07:55:54.22	143.35	5.17	-54.7	-57.7	14.9	7.00e-07	0	45	0	17825792	60	29027
2026-01-29 07:55:55.22	143.34	5.24	-54.3	-56.9	15.6	0.00e+00	0	45	0	20971520	60	26778
2026-01-29 07:55:56.23	143.33	5.31	-53.9	-56.4	16.2	0.00e+00	0	45	0	24117248	60	25019
2026-01-29 07:55:57.24	143.32	5.39	-53.5	-55.9	16.7	0.00e+00	0	45	0	27262976	60	23612
2026-01-29 07:55:58.24	143.31	5.46	-53.3	-55.6	17.0	0.00e+00	0	45	0	30408704	60	22810
2026-01-29 07:55:59.25	143.30	5.53	-53.3	-55.5	17.0	0.00e+00	0	45	0	33554432	60	22655
2026-01-29 07:56:00.26	143.29	5.61	-53.3	-55.5	17.0	0.00e+00	0	45	0	36700160	60	22749
2026-01-29 07:56:01.27	143.28	5.68	-53.4	-55.7	16.8	0.00e+00	0	45	0	39845888	60	23242
2026-01-29 07:56:02.28	143.27	5.75	-53.7	-56.2	16.4	0.00e+00	0	45	0	42991616	60	24473
2026-01-29 07:56:03.28	143.26	5.83	-54.1	-56.8	15.8	0.00e+00	0	45	0	46137344	60	26219
2026-01-29 07:56:04.29	143.24	5.90	-54.6	-57.5	15.0	0.00e+00	0	45	0	49283072	60	28517
2026-01-29 07:56:05.30	143.23	5.98	-55.1	-58.3	14.2	7.00e-07	0	45	0	52428800	60	31335
2026-01-29 07:56:06.31	143.22	6.05	-55.6	-59.3	13.2	9.10e-06	0	45	0	55574528	60	35048
2026-01-29 07:56:07.32	143.21	6.13	-55.6	-59.0	14.4	1.22e-05	0	45	0	58720256	60	34101
2026-01-29 07:56:08.33	143.20	6.20	-55.3	-58.5	15.8	7.00e-07	0	45	0	61865984	60	32002
2026-01-29 07:56:09.33	143.19	6.28	-57.8	-72.9	3.5	1.52e+00	0	45	104	62914560	60	168495
2026-01-29 07:56:10.33	143.18	6.35	-58.1	-66.1	7.6	9.36e-01	0	45	104	62914560	60	76608
2026-01-29 07:56:11.34	143.16	6.43	-57.7	-65.1	6.6	1.56e-01	0	45	0	1048576	60	68554
2026-01-29 07:56:12.34	143.15	6.50	-55.5	-58.7	13.8	3.05e-05	0	45	0	4194304	60	32861
2026-01-29 07:56:13.35	143.14	6.58	-55.2	-58.2	14.3	4.50e-06	0	45	0	7340032	60	30939
2026-01-29 07:56:14.35	143.13	6.66	-54.4	-56.9	15.6	0.00e+00	0	45	0	10485760	60	26756
2026-01-29 07:56:15.36	143.12	6.73	-53.5	-55.8	16.6	0.00e+00	0	45	0	13631488	60	23516
2026-01-29 07:56:16.36	143.10	6.81	-53.0	-55.1	17.1	0.00e+00	0	45	0	16777216	60	21659
2026-01-29 07:56:17.36	143.09	6.89	-52.6	-54.7	17.3	0.00e+00	0	45	0	19922944	60	20647
2026-01-29 07:56:18.37	143.08	6.96	-52.6	-54.8	17.2	0.00e+00	0	45	0	23068672	60	20987
2026-01-29 07:56:19.37	143.07	7.04	-52.6	-54.9	17.1	0.00e+00	0	45	0	26214400	60	21086
2026-01-29 07:56:20.38	143.05	7.12	-52.5	-54.8	17.2	0.00e+00	0	45	0	29360128	60	20924
2026-01-29 07:56:21.38	143.04	7.20	-52.3	-54.5	17.5	0.00e+00	0	45	0	32505856	60	20297
2026-01-29 07:56:22.39	143.03	7.28	-52.1	-54.3	17.7	0.00e+00	0	45	0	35651584	60	19837
2026-01-29 07:56:23.40	143.02	7.35	-52.1	-54.4	17.7	0.00e+00	0	45	0	38797312	60	19879
2026-01-29 07:56:24.41	143.00	7.43	-52.1	-54.3	17.8	0.00e+00	0	45	0	41943040	60	19839
2026-01-29 07:56:25.41	142.99	7.51	-52.0	-54.3	17.9	0.00e+00	0	45	0	45088768	60	19677
2026-01-29 07:56:26.41	142.98	7.59	-52.0	-54.2	18.0	0.00e+00	0	45	0	48234496	60	19611
2026-01-29 07:56:27.42	142.97	7.67	-52.0	-54.2	18.1	0.00e+00	0	45	0	51380224	60	19534
2026-01-29 07:56:28.43	142.95	7.75	-52.0	-54.2	18.1	0.00e+00	0	45	0	54525952	60	19449
2026-01-29 07:56:29.43	142.94	7.83	-52.0	-54.2	18.2	0.00e+00	0	45	0	57671680	60	19486
2026-01-29 07:56:30.44	142.93	7.91	-51.9	-54.1	18.2	0.00e+00	0	45	0	60817408	60	19303
2026-01-29 07:56:31.45	142.91	7.99	-51.9	-54.1	18.3	0.00e+00	0	45	0	63963136	60	19210
2026-01-29 07:56:32.45	142.90	8.07	-51.8	-54.0	18.4	0.00e+00	0	45	0	67108864	60	19097
2026-01-29 07:56:33.45	142.89	8.15	-51.8	-54.0	18.4	0.00e+00	0	45	0	70254592	60	18996
2026-01-29 07:56:34.46	142.87	8.23	-51.7	-53.8	18.5	0.00e+00	0	46	0	73400320	60	18731
2026-01-29 07:56:35.47	142.86	8.32	-51.8	-54.0	18.3	0.00e+00	0	45	0	76546048	60	19044
2026-01-29 07:56:36.47	142.84	8.40	-51.8	-54.0	18.4	0.00e+00	0	45	0	79691776	60	18966
2026-01-29 07:56:37.48	142.83	8.48	-51.8	-53.9	18.5	0.00e+00	0	45	0	82837504	60	18832
2026-01-29 07:56:38.48	142.82	8.56	-51.8	-53.9	18.5	0.00e+00	0	45	0	85983232	60	18831
2026-01-29 07:56:39.48	142.80	8.64	-51.8	-53.8	18.5	0.00e+00	0	46	0	89128960	60	18609
2026-01-29 07:56:40.49	142.79	8.73	-51.7	-53.7	18.7	0.00e+00	0	45	0	92274688	60	18428
2026-01-29 07:56:41.50	142.77	8.81	-51.7	-53.7	18.7	0.00e+00	0	45	0	95420416	60	18374
2026-01-29 07:56:42.51	142.76	8.89	-51.7	-53.6	18.8	0.00e+00	0	45	0	98566144	60	18197
2026-01-29 07:56:43.51	142.74	8.98	-51.7	-53.6	18.9	0.00e+00	0	45	0	101711872	60	18189
2026-01-29 07:56:44.52	142.73	9.06	-51.7	-53.4	19.1	0.00e+00	0	45	0	104857600	60	17878
2026-01-29 07:56:45.53	142.71	9.15	-51.7	-53.4	19.1	0.00e+00	0	45	0	108003328	60	17810
2026-01-29 07:56:46.53	142.70	9.23	-51.7	-53.4	19.1	0.00e+00	0	45	0	111149056	60	17887
2026-01-29 07:56:47.54	142.68	9.32	-51.8	-53.5	19.2	0.00e+00	0	45	0	114294784	60	17982
2026-01-29 07:56:48.54	142.67	9.40	-51.8	-53.4	19.3	0.00e+00	0	45	0	117440512	60	17811
2026-01-29 07:56:49.55	142.65	9.49	-51.7	-53.3	19.5	0.00e+00	0	45	0	120586240	60	17549
2026-01-29 07:56:50.56	142.64	9.57	-51.6	-53.2	19.6	0.00e+00	0	45	0	123731968	60	17355
2026-01-29 07:56:51.57	142.62	9.66	-51.7	-53.2	19.6	0.00e+00	0	46	0	126877696	60	17451
2026-01-29 07:56:52.58	142.61	9.74	-51.6	-53.1	19.6	0.00e+00	0	46	0	130023424	60	17236
2026-01-29 07:56:53.58	142.59	9.83	-51.6	-53.1	19.6	0.00e+00	0	46	0	133169152	60	17172
2026-01-29 07:56:54.58	142.58	9.92	-51.5	-53.1	19.7	0.00e+00	0	46	0	136314880	60	17107
2026-01-29 07:56:55.59	142.56	10.00	-51.5	-53.1	19.6	0.00e+00	0	46	0	139460608	60	17135
2026-01-29 07:56:56.59	142.55	10.09	-51.5	-53.0	19.6	0.00e+00	0	46	0	142606336	60	16981
2026-01-29 07:56:57.59	142.53	10.18	-51.4	-52.9	19.7	0.00e+00	0	46	0	145752064	60	16786
2026-01-29 07:56:58.60	142.51	10.27	-51.3	-52.8	19.7	0.00e+00	0	46	0	148897792	60	16688
2026-01-29 07:56:59.60	142.50	10.36	-51.3	-52.8	19.7	0.00e+00	0	46	0	152043520	60	16649
2026-01-29 07:57:00.61	142.48	10.44	-51.3	-52.8	19.7	0.00e+00	0	46	0	155189248	60	16659
2026-01-29 07:57:01.62	142.46	10.53	-51.2	-52.8	19.7	0.00e+00	0	45	0	158334976	60	16605
2026-01-29 07:57:02.63	142.45	10.62	-51.2	-52.7	19.7	0.00e+00	0	46	0	161480704	60	16511
2026-01-29 07:57:03.63	142.43	10.71	-51.3	-52.8	19.7	0.00e+00	0	46	0	164626432	60	16645
2026-01-29 07:57:04.64	142.41	10.80	-51.3	-52.8	19.7	0.00e+00	0	46	0	167772160	60	16676
2026-01-29 07:57:05.65	142.40	10.89	-51.3	-52.9	19.7	0.00e+00	0	45	0	170917888	60	16707
2026-01-29 07:57:06.65	142.38	10.98	-51.2	-52.7	19.8	0.00e+00	0	46	0	174063616	60	16467
2026-01-29 07:57:07.66	142.36	11.07	-51.2	-52.8	19.8	0.00e+00	0	46	0	177209344	60	16600
2026-01-29 07:57:08.67	142.34	11.17	-51.2	-52.8	19.9	0.00e+00	0	46	0	180355072	60	16567
2026-01-29 07:57:09.68	142.33	11.26	-51.3	-52.8	19.9	0.00e+00	0	46	0	183500800	60	16644
2026-01-29 07:57:10.69	142.31	11.35	-51.2	-52.7	19.9	0.00e+00	0	46	0	186646528	60	16408
2026-01-29 07:57:11.70	142.29	11.44	-51.2	-52.7	20.0	0.00e+00	0	46	0	189792256	60	16487
2026-01-29 07:57:12.71	142.27	11.54	-51.2	-52.7	20.0	0.00e+00	0	46	0	192937984	60	16345
2026-01-29 07:57:13.71	142.25	11.63	-51.1	-52.5	20.2	0.00e+00	0	46	0	196083712	60	16116
2026-01-29 07:57:14.72	142.24	11.72	-51.1	-52.5	20.2	0.00e+00	0	46	0	199229440	60	16091
2026-01-29 07:57:15.73	142.22	11.82	-51.1	-52.6	20.1	0.00e+00	0	45	0	202375168	60	16211
2026-01-29 07:57:16.73	142.20	11.91	-51.1	-52.5	20.2	0.00e+00	0	45	0	205520896	60	16117
2026-01-29 07:57:17.74	142.18	12.01	-51.1	-52.6	20.2	0.00e+00	0	46	0	208666624	60	16158
2026-01-29 07:57:18.75	142.16	12.10	-51.1	-52.5	20.2	0.00e+00	0	46	0	211812352	60	16025
2026-01-29 07:57:19.76	142.14	12.20	-51.0	-52.4	20.3	0.00e+00	0	46	0	214958080	60	15910
2026-01-29 07:57:20.77	142.12	12.29	-51.0	-52.4	20.3	0.00e+00	0	46	0	218103808	60	15834
2026-01-29 07:57:21.77	142.10	12.39	-50.9	-52.3	20.4	0.00e+00	0	46	0	221249536	60	15591
2026-01-29 07:57:22.78	142.09	12.48	-50.9	-52.3	20.4	0.00e+00	0	46	0	224395264	60	15655
2026-01-29 07:57:23.79	142.07	12.58	-50.8	-52.2	20.4	0.00e+00	0	46	0	227540992	60	15572
2026-01-29 07:57:24.80	142.05	12.68	-50.8	-52.2	20.5	0.00e+00	0	46	0	230686720	60	15454
2026-01-29 07:57:25.80	142.03	12.78	-50.8	-52.2	20.5	0.00e+00	0	46	0	233832448	60	15540
2026-01-29 07:57:26.81	142.01	12.87	-50.8	-52.2	20.4	0.00e+00	0	46	0	236978176	60	15457
2026-01-29 07:57:27.82	141.99	12.97	-50.7	-52.2	20.5	0.00e+00	0	46	0	240123904	60	15447
2026-01-29 07:57:28.83	141.97	13.07	-50.7	-52.1	20.6	0.00e+00	0	46	0	243269632	60	15348
2026-01-29 07:57:29.84	141.94	13.17	-50.7	-52.1	20.6	0.00e+00	0	46	0	246415360	60	15326
2026-01-29 07:57:30.85	141.92	13.27	-50.7	-52.1	20.5	0.00e+00	0	46	0	249561088	60	15300
2026-01-29 07:57:31.86	141.90	13.37	-50.7	-52.1	20.5	0.00e+00	0	46	0	252706816	60	15341
2026-01-29 07:57:32.86	141.88	13.47	-50.7	-52.1	20.5	0.00e+00	0	45	0	255852544	60	15256
2026-01-29 07:57:33.87	141.86	13.57	-50.7	-52.1	20.6	0.00e+00	0	46	0	258998272	60	15265
2026-01-29 07:57:34.88	141.84	13.67	-50.7	-52.0	20.6	0.00e+00	0	46	0	262144000	60	15227
2026-01-29 07:57:35.89	141.82	13.78	-50.7	-52.1	20.6	0.00e+00	0	45	0	265289728	60	15365
2026-01-29 07:57:36.90	141.80	13.88	-50.7	-52.0	20.6	0.00e+00	0	46	0	268435456	60	15223
2026-01-29 07:57:37.91	141.77	13.98	-50.7	-52.1	20.5	0.00e+00	0	45	0	271581184	60	15303
2026-01-29 07:57:38.92	141.75	14.08	-50.7	-52.0	20.6	0.00e+00	0	46	0	274726912	60	15225
2026-01-29 07:57:39.92	141.73	14.19	-50.7	-52.1	20.6	0.00e+00	0	45	0	277872640	60	15343
2026-01-29 07:57:40.93	141.71	14.29	-50.7	-52.1	20.6	0.00e+00	0	46	0	281018368	60	15283
2026-01-29 07:57:41.94	141.69	14.39	-50.7	-52.1	20.6	0.00e+00	0	46	0	284164096	60	15240
2026-01-29 07:57:42.95	141.66	14.50	-50.7	-52.1	20.6	0.00e+00	0	46	0	287309824	60	15318
2026-01-29 07:57:43.96	141.64	14.61	-50.7	-52.1	20.6	0.00e+00	0	46	0	290455552	60	15335
2026-01-29 07:57:44.96	141.62	14.71	-50.7	-52.1	20.6	0.00e+00	0	46	0	293601280	60	15365
2026-01-29 07:57:45.97	141.59	14.82	-50.7	-52.1	20.6	0.00e+00	0	46	0	296747008	60	15302
2026-01-29 07:57:46.98	141.57	14.92	-50.6	-52.1	20.7	0.00e+00	0	46	0	299892736	60	15258
2026-01-29 07:57:47.99	141.55	15.03	-50.7	-52.1	20.6	0.00e+00	0	46	0	303038464	60	15303
2026-01-29 07:57:48.99	141.52	15.14	-50.6	-52.1	20.7	0.00e+00	0	46	0	306184192	60	15255
2026-01-29 07:57:50.00	141.50	15.24	-50.6	-52.0	20.7	0.00e+00	0	46	0	309329920	60	15208
2026-01-29 07:57:51.01	141.47	15.35	-50.6	-52.0	20.7	0.00e+00	0	46	0	312475648	60	15163
2026-01-29 07:57:52.02	141.45	15.46	-50.6	-52.0	20.8	0.00e+00	0	46	0	315621376	60	15074
2026-01-29 07:57:53.02	141.43	15.57	-50.6	-52.0	20.8	0.00e+00	0	46	0	318767104	60	15120
2026-01-29 07:57:54.03	141.40	15.68	-50.6	-52.0	20.8	0.00e+00	0	46	0	321912832	60	15065
2026-01-29 07:57:55.03	141.38	15.79	-50.5	-51.9	20.8	0.00e+00	0	46	0	325058560	60	14997
2026-01-29 07:57:56.04	141.35	15.90	-50.6	-51.9	20.7	0.00e+00	0	46	0	328204288	60	15053
2026-01-29 07:57:57.05	141.33	16.01	-50.5	-51.9	20.8	0.00e+00	0	46	0	331350016	60	14902
2026-01-29 07:57:58.06	141.30	16.13	-50.5	-51.9	20.8	0.00e+00	0	46	0	334495744	60	14950
2026-01-29 07:57:59.07	141.27	16.24	-50.5	-51.9	20.8	0.00e+00	0	46	0	337641472	60	14906
2026-01-29 07:58:00.07	141.25	16.35	-50.5	-51.9	20.8	0.00e+00	0	46	0	340787200	60	14966
2026-01-29 07:58:01.08	141.22	16.46	-50.5	-51.9	20.9	0.00e+00	0	46	0	343932928	60	14949
2026-01-29 07:58:02.08	141.19	16.58	-50.5	-51.9	20.8	0.00e+00	0	46	0	347078656	60	14953
2026-01-29 07:58:03.09	141.17	16.69	-50.6	-51.9	20.8	0.00e+00	0	45	0	350224384	60	14978
2026-01-29 07:58:04.10	141.14	16.81	-50.6	-51.9	20.8	0.00e+00	0	46	0	353370112	60	14949
2026-01-29 07:58:05.11	141.11	16.92	-50.5	-51.9	20.8	0.00e+00	0	46	0	356515840	60	14951
2026-01-29 07:58:06.11	141.09	17.04	-50.5	-51.9	20.9	0.00e+00	0	46	0	359661568	60	14951
2026-01-29 07:58:07.12	141.06	17.15	-50.6	-52.0	20.8	0.00e+00	0	46	0	362807296	60	15128
2026-01-29 07:58:08.12	141.03	17.27	-50.6	-51.9	20.8	0.00e+00	0	46	0	365953024	60	15025
2026-01-29 07:58:09.12	141.00	17.39	-50.6	-51.9	20.8	0.00e+00	0	45	0	369098752	60	15021
2026-01-29 07:58:10.13	140.97	17.51	-50.7	-52.1	20.7	0.00e+00	0	46	0	372244480	60	15243
2026-01-29 07:58:11.14	140.95	17.62	-50.7	-52.1	20.8	0.00e+00	0	46	0	375390208	60	15259
2026-01-29 07:58:12.14	140.92	17.74	-50.7	-52.0	20.8	0.00e+00	0	46	0	378535936	60	15197
2026-01-29 07:58:13.15	140.89	17.86	-50.7	-52.0	20.8	0.00e+00	0	46	0	381681664	60	15231
2026-01-29 07:58:14.16	140.86	17.98	-50.6	-52.0	20.8	0.00e+00	0	46	0	384827392	60	15101
2026-01-29 07:58:15.16	140.83	18.10	-50.6	-51.9	20.8	0.00e+00	0	46	0	387973120	60	15043
2026-01-29 07:58:16.17	140.80	18.23	-50.7	-52.1	20.7	0.00e+00	0	46	0	391118848	60	15268
2026-01-29 07:58:17.18	140.77	18.35	-50.6	-52.0	20.8	0.00e+00	0	46	0	394264576	60	15111
2026-01-29 07:58:18.19	140.74	18.47	-50.6	-52.0	20.8	0.00e+00	0	46	0	397410304	60	15069
2026-01-29 07:58:19.19	140.71	18.59	-50.6	-52.0	20.8	0.00e+00	0	46	0	400556032	60	15128
2026-01-29 07:58:20.20	140.68	18.72	-50.6	-52.0	20.8	0.00e+00	0	46	0	403701760	60	15100
2026-01-29 07:58:21.21	140.64	18.84	-50.5	-51.9	20.8	0.00e+00	0	46	0	406847488	60	14958
2026-01-29 07:58:22.22	140.61	18.97	-50.5	-51.9	20.8	0.00e+00	0	46	0	409993216	60	14935
2026-01-29 07:58:23.23	140.58	19.09	-50.5	-51.9	20.8	0.00e+00	0	46	0	413138944	60	14991
2026-01-29 07:58:24.23	140.55	19.22	-50.5	-51.9	20.7	0.00e+00	0	46	0	416284672	60	14966
2026-01-29 07:58:25.24	140.52	19.35	-50.5	-51.9	20.6	0.00e+00	0	46	0	419430400	60	14967
2026-01-29 07:58:26.25	140.48	19.48	-50.5	-51.9	20.6	0.00e+00	0	46	0	422576128	60	15018
2026-01-29 07:58:27.26	140.45	19.60	-50.5	-51.9	20.6	0.00e+00	0	46	0	425721856	60	14889
2026-01-29 07:58:28.27	140.42	19.73	-50.5	-51.9	20.6	0.00e+00	0	46	0	428867584	60	14931
2026-01-29 07:58:29.27	140.38	19.86	-50.4	-51.8	20.7	0.00e+00	0	46	0	432013312	60	14868
2026-01-29 07:58:30.28	140.35	19.99	-50.5	-51.8	20.7	0.00e+00	0	46	0	435159040	60	14856
2026-01-29 07:58:31.29	140.31	20.12	-50.5	-51.9	20.8	0.00e+00	0	46	0	438304768	60	14903
2026-01-29 07:58:32.30	140.28	20.26	-50.4	-51.8	20.9	0.00e+00	0	46	0	441450496	60	14785
2026-01-29 07:58:33.31	140.24	20.39	-50.3	-51.6	21.0	0.00e+00	0	46	0	444596224	60	14466
2026-01-29 07:58:34.32	140.21	20.52	-50.4	-51.7	21.0	0.00e+00	0	46	0	447741952	60	14665
2026-01-29 07:58:35.32	140.17	20.66	-50.2	-51.5	21.0	0.00e+00	0	46	0	450887680	60	14379
2026-01-29 07:58:36.33	140.14	20.79	-50.2	-51.6	21.1	0.00e+00	0	46	0	454033408	60	14453
2026-01-29 07:58:37.34	140.10	20.93	-50.1	-51.4	21.2	0.00e+00	0	46	0	457179136	60	14127
2026-01-29 07:58:38.35	140.06	21.06	-50.0	-51.3	21.3	0.00e+00	0	46	0	460324864	60	13998
2026-01-29 07:58:39.36	140.03	21.20	-50.0	-51.3	21.3	0.00e+00	0	46	0	463470592	60	13958
2026-01-29 07:58:40.37	139.99	21.34	-50.0	-51.2	21.4	0.00e+00	0	46	0	466616320	60	13884
2026-01-29 07:58:41.38	139.95	21.48	-49.9	-51.2	21.5	0.00e+00	0	46	0	469762048	60	13734
2026-01-29 07:58:42.38	139.91	21.61	-49.9	-51.2	21.5	0.00e+00	0	46	0	472907776	60	13810
2026-01-29 07:58:43.39	139.87	21.75	-49.7	-51.0	21.6	0.00e+00	0	46	0	476053504	60	13519
2026-01-29 07:58:44.40	139.84	21.90	-49.7	-51.0	21.6	0.00e+00	0	46	0	479199232	60	13492
2026-01-29 07:58:45.41	139.80	22.04	-49.6	-50.9	21.6	0.00e+00	0	46	0	482344960	60	13309
2026-01-29 07:58:46.41	139.76	22.18	-49.7	-50.9	21.7	0.00e+00	0	46	0	485490688	60	13395
2026-01-29 07:58:47.41	139.72	22.32	-49.5	-50.8	21.8	0.00e+00	0	46	0	488636416	60	13159
2026-01-29 07:58:48.42	139.68	22.46	-49.5	-50.7	21.9	0.00e+00	0	46	0	491782144	60	13101
2026-01-29 07:58:49.43	139.63	22.61	-49.5	-50.7	22.0	0.00e+00	0	46	0	494927872	60	12999
2026-01-29 07:58:50.44	139.59	22.75	-49.5	-50.7	21.9	0.00e+00	0	46	0	498073600	60	13113
2026-01-29 07:58:51.45	139.55	22.90	-49.3	-50.6	22.1	0.00e+00	0	46	0	501219328	60	12853
2026-01-29 07:58:52.45	139.51	23.05	-49.3	-50.6	22.1	0.00e+00	0	46	0	504365056	60	12827
2026-01-29 07:58:53.46	139.47	23.19	-49.3	-50.5	22.1	0.00e+00	0	46	0	507510784	60	12744
2026-01-29 07:58:54.47	139.42	23.34	-49.3	-50.5	22.2	0.00e+00	0	46	0	510656512	60	12737
2026-01-29 07:58:55.48	139.38	23.49	-49.2	-50.5	22.2	0.00e+00	0	46	0	513802240	60	12702
2026-01-29 07:58:56.49	139.34	23.64	-49.3	-50.5	22.2	0.00e+00	0	46	0	516947968	60	12722
2026-01-29 07:58:57.49	139.29	23.79	-49.2	-50.4	22.3	0.00e+00	0	46	0	520093696	60	12579
2026-01-29 07:58:58.50	139.25	23.94	-49.2	-50.4	22.2	0.00e+00	0	46	0	523239424	60	12624
2026-01-29 07:58:59.51	139.20	24.10	-49.2	-50.4	22.2	0.00e+00	0	46	0	526385152	60	12647
2026-01-29 07:59:00.51	139.16	24.25	-49.3	-50.5	22.2	0.00e+00	0	46	0	529530880	60	12793
2026-01-29 07:59:01.52	139.11	24.40	-49.3	-50.5	22.2	0.00e+00	0	46	0	532676608	60	12747
2026-01-29 07:59:02.53	139.06	24.56	-49.3	-50.5	22.2	0.00e+00	0	46	0	535822336	60	12772
2026-01-29 07:59:03.54	139.02	24.72	-49.3	-50.5	22.2	0.00e+00	0	46	0	538968064	60	12799
2026-01-29 07:59:04.55	138.97	24.87	-49.4	-50.6	22.1	0.00e+00	0	46	0	542113792	60	12954
2026-01-29 07:59:05.55	138.92	25.03	-49.5	-50.7	22.1	0.00e+00	0	46	0	545259520	60	13054
2026-01-29 07:59:06.56	138.87	25.19	-49.6	-50.8	22.0	0.00e+00	0	46	0	548405248	60	13236
2026-01-29 07:59:07.57	138.82	25.35	-49.7	-50.9	21.9	0.00e+00	0	46	0	551550976	60	13367
2026-01-29 07:59:08.57	138.77	25.51	-49.8	-51.0	21.8	0.00e+00	0	46	0	554696704	60	13544
2026-01-29 07:59:09.57	138.72	25.67	-49.8	-51.1	21.8	0.00e+00	0	46	0	557842432	60	13620
2026-01-29 07:59:10.58	138.67	25.83	-49.9	-51.2	21.7	0.00e+00	0	46	0	560988160	60	13755
2026-01-29 07:59:11.59	138.62	26.00	-50.0	-51.2	21.7	0.00e+00	0	46	0	564133888	60	13877
2026-01-29 07:59:12.59	138.57	26.16	-50.1	-51.3	21.6	0.00e+00	0	46	0	567279616	60	13997
2026-01-29 07:59:13.60	138.51	26.33	-50.1	-51.4	21.6	0.00e+00	0	46	0	570425344	60	14109
2026-01-29 07:59:14.61	138.46	26.49	-50.2	-51.5	21.5	0.00e+00	0	46	0	573571072	60	14335
2026-01-29 07:59:15.62	138.41	26.66	-50.3	-51.6	21.4	0.00e+00	0	46	0	576716800	60	14394
2026-01-29 07:59:16.63	138.35	26.83	-50.3	-51.6	21.4	0.00e+00	0	46	0	579862528	60	14480
2026-01-29 07:59:17.64	138.30	27.00	-50.4	-51.6	21.4	0.00e+00	0	46	0	583008256	60	14533
2026-01-29 07:59:18.64	138.24	27.17	-50.4	-51.6	21.4	0.00e+00	0	46	0	586153984	60	14530
2026-01-29 07:59:19.65	138.19	27.34	-50.4	-51.7	21.4	0.00e+00	0	46	0	589299712	60	14630
2026-01-29 07:59:20.65	138.13	27.51	-50.5	-51.7	21.4	0.00e+00	0	46	0	592445440	60	14712
2026-01-29 07:59:21.66	138.07	27.69	-50.5	-51.8	21.4	0.00e+00	0	46	0	595591168	60	14730
2026-01-29 07:59:22.67	138.01	27.86	-50.5	-51.8	21.3	0.00e+00	0	46	0	598736896	60	14799
2026-01-29 07:59:23.67	137.95	28.04	-50.5	-51.8	21.3	0.00e+00	0	46	0	601882624	60	14755
2026-01-29 07:59:24.68	137.89	28.22	-50.5	-51.8	21.3	0.00e+00	0	46	0	605028352	60	14783
2026-01-29 07:59:25.69	137.83	28.39	-50.4	-51.7	21.4	0.00e+00	0	46	0	608174080	60	14553
2026-01-29 07:59:26.70	137.77	28.57	-50.3	-51.6	21.5	0.00e+00	0	46	0	611319808	60	14419
2026-01-29 07:59:27.71	137.71	28.76	-50.3	-51.6	21.5	0.00e+00	0	46	0	614465536	60	14419
2026-01-29 07:59:28.71	137.65	28.94	-50.2	-51.5	21.5	0.00e+00	0	46	0	617611264	60	14263
2026-01-29 07:59:29.72	137.58	29.12	-50.2	-51.5	21.5	0.00e+00	0	46	0	620756992	60	14346
2026-01-29 07:59:30.73	137.52	29.30	-50.2	-51.5	21.5	0.00e+00	0	46	0	623902720	60	14225
2026-01-29 07:59:31.73	137.46	29.49	-50.2	-51.5	21.5	0.00e+00	0	46	0	627048448	60	14278
2026-01-29 07:59:32.74	137.39	29.67	-50.2	-51.5	21.5	0.00e+00	0	46	0	630194176	60	14252
2026-01-29 07:59:33.74	137.32	29.86	-50.1	-51.4	21.5	0.00e+00	0	46	0	633339904	60	14125
2026-01-29 07:59:34.75	137.26	30.05	-50.2	-51.4	21.5	0.00e+00	0	46	0	636485632	60	14213
2026-01-29 07:59:35.76	137.19	30.24	-50.2	-51.5	21.5	0.00e+00	0	46	0	639631360	60	14251
2026-01-29 07:59:36.77	137.12	30.43	-50.1	-51.4	21.5	0.00e+00	0	46	0	642777088	60	14144
2026-01-29 07:59:37.77	137.05	30.62	-50.1	-51.4	21.6	0.00e+00	0	46	0	645922816	60	14118
2026-01-29 07:59:38.78	136.98	30.81	-50.1	-51.4	21.5	0.00e+00	0	46	0	649068544	60	14079
2026-01-29 07:59:39.79	136.91	31.01	-50.0	-51.3	21.6	0.00e+00	0	46	0	652214272	60	13903
2026-01-29 07:59:40.80	136.84	31.21	-49.9	-51.2	21.6	0.00e+00	0	46	0	655360000	60	13752
2026-01-29 07:59:41.80	136.76	31.40	-49.9	-51.1	21.7	0.00e+00	0	46	0	658505728	60	13703
2026-01-29 07:59:42.81	136.69	31.60	-49.8	-51.1	21.8	0.00e+00	0	46	0	661651456	60	13624
2026-01-29 07:59:43.82	136.61	31.80	-49.8	-51.1	21.8	0.00e+00	0	46	0	664797184	60	13636
2026-01-29 07:59:44.82	136.54	32.00	-49.8	-51.1	21.8	0.00e+00	0	46	0	667942912	60	13579
2026-01-29 07:59:45.83	136.46	32.20	-49.9	-51.2	21.7	0.00e+00	0	46	0	671088640	60	13770
2026-01-29 07:59:46.84	136.38	32.41	-50.1	-51.3	21.6	0.00e+00	0	46	0	674234368	60	14034
2026-01-29 07:59:47.85	136.30	32.61	-50.2	-51.5	21.4	0.00e+00	0	46	0	677380096	60	14305
2026-01-29 07:59:48.86	136.22	32.82	-50.4	-51.6	21.3	0.00e+00	0	46	0	680525824	60	14536
2026-01-29 07:59:49.87	136.14	33.03	-50.3	-51.6	21.3	0.00e+00	0	46	0	683671552	60	14531
2026-01-29 07:59:50.88	136.06	33.24	-50.5	-51.8	21.0	0.00e+00	0	46	0	687865856	60	14859
2026-01-29 07:59:51.89	135.97	33.45	-50.6	-51.9	21.0	0.00e+00	0	46	0	691011584	60	15049
2026-01-29 07:59:52.89	135.89	33.66	-50.7	-52.1	20.9	0.00e+00	0	46	0	694157312	60	15260
2026-01-29 07:59:53.90	135.80	33.87	-50.8	-52.2	20.9	0.00e+00	0	46	0	696254464	60	15459
2026-01-29 07:59:54.91	135.72	34.09	-50.9	-52.3	20.8	0.00e+00	0	46	0	699400192	60	15673
2026-01-29 07:59:55.92	135.63	34.30	-51.0	-52.4	20.8	0.00e+00	0	46	0	702545920	60	15797
2026-01-29 07:59:56.92	135.54	34.52	-51.1	-52.5	20.7	0.00e+00	0	46	0	705691648	60	16003
2026-01-29 07:59:57.93	135.45	34.74	-51.2	-52.5	20.7	0.00e+00	0	46	0	708837376	60	16131
2026-01-29 07:59:58.94	135.35	34.96	-51.2	-52.6	20.7	0.00e+00	0	46	0	711983104	60	16185
2026-01-29 07:59:59.95	135.26	35.18	-51.5	-52.9	20.5	0.00e+00	0	46	0	715128832	60	16719
2026-01-29 08:00:00.96	135.17	35.40	-51.5	-52.9	20.4	0.00e+00	0	46	0	718274560	60	16767
2026-01-29 08:00:01.97	135.07	35.63	-51.7	-53.1	20.2	0.00e+00	0	46	0	721420288	60	17242
2026-01-29 08:00:02.97	134.97	35.85	-51.9	-53.4	19.9	0.00e+00	0	46	0	724566016	60	17818
2026-01-29 08:00:03.98	134.87	36.08	-52.1	-53.6	19.7	0.00e+00	0	46	0	728760320	60	18279
2026-01-29 08:00:04.98	134.77	36.31	-52.2	-53.7	19.7	0.00e+00	0	46	0	731906048	60	18497
2026-01-29 08:00:05.99	134.67	36.54	-52.2	-53.7	19.7	0.00e+00	0	46	0	735051776	60	18480
2026-01-29 08:00:07.00	134.57	36.77	-52.2	-53.7	19.8	0.00e+00	0	46	0	738197504	60	18404
2026-01-29 08:00:08.01	134.46	37.01	-52.2	-53.7	19.7	0.00e+00	0	46	0	741343232	60	18481
2026-01-29 08:00:09.01	134.36	37.24	-52.2	-53.7	19.8	0.00e+00	0	46	0	743440384	60	18423
2026-01-29 08:00:10.02	134.25	37.48	-52.1	-53.6	19.8	0.00e+00	0	46	0	746586112	60	18281
2026-01-29 08:00:11.02	134.14	37.72	-52.4	-53.9	19.6	0.00e+00	0	46	0	749731840	60	18825
2026-01-29 08:00:12.03	134.03	37.96	-52.4	-53.9	19.6	0.00e+00	0	46	0	752877568	60	18940
2026-01-29 08:00:13.03	133.92	38.20	-52.6	-54.1	19.4	0.00e+00	0	46	0	756023296	60	19399
2026-01-29 08:00:14.04	133.80	38.44	-52.6	-54.2	19.3	0.00e+00	0	46	0	759169024	60	19576
2026-01-29 08:00:15.05	133.69	38.69	-52.7	-54.3	19.1	0.00e+00	0	46	0	762314752	60	19777
2026-01-29 08:00:16.06	133.57	38.93	-52.8	-54.5	19.0	0.00e+00	0	46	0	765460480	60	20086
2026-01-29 08:00:17.06	133.45	39.18	-52.9	-54.5	18.8	0.00e+00	0	46	0	768606208	60	20288
2026-01-29 08:00:18.07	133.33	39.43	-52.8	-54.5	19.0	0.00e+00	0	46	0	771751936	60	20168
2026-01-29 08:00:19.08	133.20	39.68	-52.9	-54.6	18.9	0.00e+00	0	46	0	775946240	60	20410
2026-01-29 08:00:20.09	133.08	39.93	-52.8	-54.5	19.1	0.00e+00	0	46	0	779091968	60	20170
2026-01-29 08:00:21.09	132.95	40.19	-52.9	-54.5	19.0	0.00e+00	0	46	0	782237696	60	20278
2026-01-29 08:00:22.10	132.82	40.44	-53.0	-54.6	19.0	0.00e+00	0	46	0	785383424	60	20465
2026-01-29 08:00:23.11	132.69	40.70	-53.0	-54.6	19.0	0.00e+00	0	46	0	788529152	60	20388
2026-01-29 08:00:24.12	132.55	40.96	-53.1	-54.7	18.9	0.00e+00	0	46	0	790626304	60	20694
2026-01-29 08:00:25.13	132.41	41.23	-53.2	-54.9	18.8	0.00e+00	0	46	0	793772032	60	21147
2026-01-29 08:00:26.13	132.28	41.49	-53.4	-55.1	18.7	0.00e+00	0	46	0	796917760	60	21560
2026-01-29 08:00:27.14	132.14	41.75	-53.6	-55.3	18.4	0.00e+00	0	46	0	800063488	60	22126
2026-01-29 08:00:28.15	131.99	42.02	-53.5	-55.3	18.6	0.00e+00	0	46	0	803209216	60	22068
2026-01-29 08:00:29.15	131.85	42.29	-53.7	-55.5	18.2	0.00e+00	0	46	0	806354944	60	22732
2026-01-29 08:00:30.16	131.70	42.56	-53.9	-55.8	17.9	0.00e+00	0	46	0	809500672	60	23404
2026-01-29 08:00:31.17	131.55	42.83	-54.1	-56.0	17.6	0.00e+00	0	46	0	812646400	60	24040
2026-01-29 08:00:32.17	131.39	43.10	-54.2	-56.1	17.6	0.00e+00	0	46	0	815792128	60	24310
2026-01-29 08:00:33.17	131.24	43.37	-54.2	-56.0	17.7	0.00e+00	0	46	0	818937856	60	24140
2026-01-29 08:00:34.18	131.08	43.65	-54.2	-56.1	17.7	0.00e+00	0	46	0	823132160	60	24215
2026-01-29 08:00:35.18	130.92	43.93	-54.5	-56.4	17.6	0.00e+00	0	46	0	826277888	60	25152
2026-01-29 08:00:36.19	130.75	44.21	-54.5	-56.3	17.6	0.00e+00	0	46	0	829423616	60	24955
2026-01-29 08:00:37.20	130.58	44.49	-54.9	-56.9	17.1	0.00e+00	0	46	0	832569344	60	26690
2026-01-29 08:00:38.21	130.41	44.78	-55.1	-57.2	16.9	0.00e+00	0	46	0	835715072	60	27408
2026-01-29 08:00:39.21	130.24	45.06	-55.2	-57.3	16.7	0.00e+00	0	46	0	837812224	60	27818
2026-01-29 08:00:40.22	130.06	45.35	-54.6	-56.5	17.5	0.00e+00	0	46	0	840957952	60	25536
2026-01-29 08:00:41.23	129.88	45.64	-53.9	-55.6	18.3	0.00e+00	0	46	0	844103680	60	22900
2026-01-29 08:00:42.24	129.70	45.93	-53.3	-54.9	18.7	0.00e+00	0	46	0	847249408	60	21266
2026-01-29 08:00:43.25	129.51	46.22	-53.2	-54.8	18.7	0.00e+00	0	46	0	850395136	60	20987
2026-01-29 08:00:44.25	129.32	46.52	-52.7	-54.2	19.4	0.00e+00	0	46	0	853540864	60	19493
2026-01-29 08:00:45.26	129.12	46.81	-52.4	-53.9	19.6	0.00e+00	0	46	0	856686592	60	18957
2026-01-29 08:00:46.27	128.92	47.11	-52.4	-53.9	19.8	0.00e+00	0	46	0	859832320	60	18914
2026-01-29 08:00:47.27	128.72	47.41	-52.4	-53.9	19.9	0.00e+00	0	46	0	862978048	60	18785
2026-01-29 08:00:48.28	128.52	47.71	-52.5	-54.0	19.8	0.00e+00	0	46	0	867172352	60	19083
2026-01-29 08:00:49.29	128.30	48.01	-52.6	-54.1	19.7	0.00e+00	0	46	0	870318080	60	19388
2026-01-29 08:00:50.30	128.09	48.32	-52.6	-54.2	19.7	0.00e+00	0	46	0	873463808	60	19423
2026-01-29 08:00:51.31	127.87	48.63	-52.6	-54.1	19.8	0.00e+00	0	46	0	876609536	60	19274
2026-01-29 08:00:52.32	127.65	48.93	-52.5	-54.1	19.7	0.00e+00	0	46	0	879755264	60	19276
2026-01-29 08:00:53.32	127.42	49.24	-52.7	-54.3	19.5	0.00e+00	0	46	0	882900992	60	19739
2026-01-29 08:00:54.33	127.18	49.55	-52.8	-54.5	19.4	0.00e+00	0	46	0	884998144	60	20117
2026-01-29 08:00:55.34	126.95	49.87	-53.0	-54.6	19.4	0.00e+00	0	46	0	888143872	60	20503
2026-01-29 08:00:56.34	126.70	50.18	-52.9	-54.5	19.3	0.00e+00	0	46	0	891289600	60	20263
2026-01-29 08:00:57.34	126.46	50.49	-52.8	-54.4	19.5	0.00e+00	0	46	0	894435328	60	20019
2026-01-29 08:00:58.35	126.20	50.81	-52.5	-54.1	19.6	0.00e+00	0	46	0	897581056	60	19299
2026-01-29 08:00:59.36	125.94	51.13	-52.2	-53.7	20.0	0.00e+00	0	46	0	900726784	60	18507
2026-01-29 08:01:00.37	125.68	51.45	-52.0	-53.6	20.0	0.00e+00	0	46	0	903872512	60	18244
2026-01-29 08:01:01.37	125.41	51.77	-52.1	-53.7	19.9	0.00e+00	0	46	0	907018240	60	18507
2026-01-29 08:01:02.38	125.13	52.10	-52.1	-53.8	19.9	0.00e+00	0	46	0	911212544	60	18606
2026-01-29 08:01:03.39	124.85	52.43	-51.9	-53.5	20.1	0.00e+00	0	46	0	914358272	60	18011
2026-01-29 08:01:04.39	124.56	52.75	-51.6	-53.3	20.3	0.00e+00	0	46	0	917504000	60	17496
2026-01-29 08:01:05.41	124.26	53.08	-51.5	-53.1	20.3	0.00e+00	0	46	0	920649728	60	17092
2026-01-29 08:01:06.41	123.96	53.41	-51.1	-52.6	20.5	0.00e+00	0	46	0	923795456	60	16245
2026-01-29 08:01:07.42	123.65	53.74	-51.0	-52.6	20.3	0.00e+00	0	46	0	926941184	60	16156
2026-01-29 08:01:08.43	123.34	54.07	-51.0	-52.6	20.1	0.00e+00	0	46	0	930086912	60	16154
2026-01-29 08:01:09.43	123.02	54.40	-51.2	-52.8	19.8	0.00e+00	0	46	0	933232640	60	16673
2026-01-29 08:01:10.44	122.68	54.74	-51.0	-52.6	20.0	0.00e+00	0	46	0	935329792	60	16263
2026-01-29 08:01:11.45	122.34	55.08	-50.9	-52.6	20.3	0.00e+00	0	46	0	938475520	60	16137
2026-01-29 08:01:12.46	121.99	55.41	-50.8	-52.4	20.3	0.00e+00	0	46	0	941621248	60	15784
2026-01-29 08:01:13.47	121.64	55.75	-50.8	-52.3	20.6	0.00e+00	0	46	0	944766976	60	15741
2026-01-29 08:01:14.48	121.27	56.09	-50.6	-52.1	20.5	0.00e+00	0	46	0	948961280	60	15330
2026-01-29 08:01:15.49	120.89	56.43	-50.7	-52.2	20.4	0.00e+00	0	46	0	952107008	60	15446
2026-01-29 08:01:16.49	120.51	56.77	-50.9	-52.5	20.4	0.00e+00	0	46	0	955252736	60	16025
2026-01-29 08:01:17.50	120.12	57.11	-51.1	-52.6	20.6	0.00e+00	0	46	0	958398464	60	16308
2026-01-29 08:01:18.51	119.71	57.45	-50.9	-52.4	20.8	0.00e+00	0	46	0	961544192	60	15795
2026-01-29 08:01:19.52	119.30	57.80	-51.0	-52.6	20.6	0.00e+00	0	46	0	964689920	60	16298
2026-01-29 08:01:20.53	118.87	58.14	-50.9	-52.6	20.7	0.00e+00	0	46	0	967835648	60	16136
2026-01-29 08:01:21.54	118.44	58.49	-50.4	-51.9	21.5	0.00e+00	0	46	0	970981376	60	14895
2026-01-29 08:01:22.55	117.99	58.83	-50.1	-51.6	21.8	0.00e+00	0	46	0	974127104	60	14427
2026-01-29 08:01:23.56	117.53	59.18	-50.2	-51.6	21.8	0.00e+00	0	46	0	977272832	60	14483
2026-01-29 08:01:24.56	117.06	59.52	-50.1	-51.6	21.7	0.00e+00	0	46	0	980418560	60	14432
2026-01-29 08:01:25.57	116.57	59.86	-50.2	-51.7	21.5	0.00e+00	0	46	0	982515712	60	14699
2026-01-29 08:01:26.58	116.07	60.21	-50.5	-52.0	21.3	0.00e+00	0	46	0	986710016	60	15149
2026-01-29 08:01:27.58	115.57	60.55	-50.3	-51.8	21.6	0.00e+00	0	46	0	989855744	60	14885
2026-01-29 08:01:28.59	115.04	60.89	-50.3	-51.7	21.7	0.00e+00	0	46	0	993001472	60	14644
2026-01-29 08:01:29.60	114.50	61.24	-50.0	-51.4	21.9	0.00e+00	0	46	0	996147200	60	14210
2026-01-29 08:01:30.60	113.95	61.58	-49.8	-51.1	21.8	0.00e+00	0	46	0	999292928	60	13703
2026-01-29 08:01:31.61	113.38	61.92	-49.8	-51.2	21.8	0.00e+00	0	46	0	1002438656	60	13814
2026-01-29 08:01:32.62	112.79	62.27	-49.9	-51.3	21.9	0.00e+00	0	46	0	1005584384	60	13928
2026-01-29 08:01:33.63	112.18	62.61	-50.0	-51.3	22.0	0.00e+00	0	46	0	1008730112	60	14039
2026-01-29 08:01:34.64	111.56	62.95	-49.9	-51.2	21.9	0.00e+00	0	46	0	1011875840	60	13883
2026-01-29 08:01:35.65	110.92	63.29	-49.6	-50.8	22.4	0.00e+00	0	46	0	1015021568	60	13262
2026-01-29 08:01:36.65	110.27	63.62	-49.4	-50.7	22.1	0.00e+00	0	46	0	1018167296	60	13048
2026-01-29 08:01:37.66	109.59	63.96	-49.7	-51.0	22.2	0.00e+00	0	46	0	1021313024	60	13533
2026-01-29 08:01:38.67	108.89	64.29	-49.6	-50.9	22.2	0.00e+00	0	46	0	1024458752	60	13364
2026-01-29 08:01:39.68	108.17	64.62	-49.5	-50.9	22.1	0.00e+00	0	46	0	1027604480	60	13290
2026-01-29 08:01:40.69	107.43	64.95	-49.6	-51.0	22.0	0.00e+00	0	46	0	1030750208	60	13561
2026-01-29 08:01:41.69	106.68	65.28	-49.6	-51.0	22.0	0.00e+00	0	46	0	1033895936	60	13537
2026-01-29 08:01:42.70	105.89	65.60	-49.7	-51.2	21.6	0.00e+00	0	46	0	1037041664	60	13853
2026-01-29 08:01:43.71	105.08	65.92	-49.8	-51.3	21.4	0.00e+00	0	46	0	1040187392	60	13949
2026-01-29 08:01:44.71	104.26	66.24	-50.0	-51.6	21.2	0.00e+00	0	46	0	1043333120	60	14381
2026-01-29 08:01:45.72	103.40	66.55	-49.9	-51.5	21.3	0.00e+00	0	46	0	1046478848	60	14239
2026-01-29 08:01:46.73	102.52	66.86	-50.0	-51.6	20.9	0.00e+00	0	46	0	1049624576	60	14409
2026-01-29 08:01:47.73	101.62	67.17	-50.0	-51.6	20.9	0.00e+00	0	46	0	1052770304	60	14435
2026-01-29 08:01:48.74	100.68	67.47	-49.7	-51.2	21.0	0.00e+00	0	46	0	1055916032	60	13867
2026-01-29 08:01:49.75	99.72	67.77	-49.7	-51.2	21.3	0.00e+00	0	46	0	1059061760	60	13863
2026-01-29 08:01:50.76	98.73	68.06	-50.0	-51.6	21.3	0.00e+00	0	46	0	1062207488	60	14386
2026-01-29 08:01:51.76	97.72	68.35	-49.8	-51.3	21.6	0.00e+00	0	46	0	1065353216	60	14029
2026-01-29 08:01:52.76	96.68	68.63	-49.7	-51.1	21.6	0.00e+00	0	46	0	1068498944	60	13673
2026-01-29 08:01:53.77	95.60	68.90	-49.8	-51.3	21.4	0.00e+00	0	46	0	1071644672	60	13974
2026-01-29 08:01:54.77	94.50	69.17	-50.0	-51.5	21.3	0.00e+00	0	46	0	1074790400	60	14279
2026-01-29 08:01:55.78	93.36	69.44	-50.2	-51.7	20.9	0.00e+00	0	46	0	1077936128	60	14703
2026-01-29 08:01:56.79	92.19	69.69	-50.5	-52.1	20.7	0.00e+00	0	46	0	1081081856	60	15289
2026-01-29 08:01:57.80	90.98	69.94	-50.7	-52.4	20.2	0.00e+00	0	46	0	1084227584	60	15859
2026-01-29 08:01:58.80	89.76	70.18	-50.8	-52.6	20.0	0.00e+00	0	46	0	1087373312	60	16273
2026-01-29 08:01:59.80	88.50	70.41	-51.1	-52.9	20.0	0.00e+00	0	46	0	1090519040	60	16773
2026-01-29 08:02:00.80	87.21	70.63	-50.6	-52.3	21.0	0.00e+00	0	46	0	1093664768	60	15681
2026-01-29 08:02:01.81	85.88	70.85	-50.2	-51.7	21.3	0.00e+00	0	46	0	1096810496	60	14699
2026-01-29 08:02:02.81	84.53	71.05	-50.0	-51.4	21.9	0.00e+00	0	46	0	1099956224	60	14188
2026-01-29 08:02:03.82	83.14	71.24	-49.7	-51.0	22.3	0.00e+00	0	46	0	1103101952	60	13517
2026-01-29 08:02:04.83	81.72	71.43	-49.9	-51.3	22.1	0.00e+00	0	46	0	1106247680	60	13893
2026-01-29 08:02:05.84	80.26	71.60	-50.5	-51.9	21.7	0.00e+00	0	46	0	1109393408	60	14887
2026-01-29 08:02:06.85	78.78	71.77	-50.3	-51.7	21.8	0.00e+00	0	46	0	1112539136	60	14566
2026-01-29 08:02:07.85	77.29	71.92	-49.9	-51.2	22.3	0.00e+00	0	46	0	1115684864	60	13838
2026-01-29 08:02:08.86	75.75	72.06	-49.8	-51.1	22.5	0.00e+00	0	46	0	1118830592	60	13617
2026-01-29 08:02:09.87	74.19	72.18	-49.8	-51.0	22.3	0.00e+00	0	46	0	1121976320	60	13540
2026-01-29 08:02:10.87	72.63	72.30	-49.8	-51.1	22.4	0.00e+00	0	46	0	1124073472	60	13598
2026-01-29 08:02:11.88	71.02	72.40	-49.8	-51.1	22.5	0.00e+00	0	46	0	1128267776	60	13622
2026-01-29 08:02:12.89	69.40	72.49	-50.0	-51.4	21.8	0.00e+00	0	46	0	1131413504	60	14068
2026-01-29 08:02:13.90	67.77	72.56	-49.7	-50.9	22.0	0.00e+00	0	46	0	1134559232	60	13415
2026-01-29 08:02:14.91	66.12	72.62	-49.7	-51.0	22.0	0.00e+00	0	46	0	1137704960	60	13432
2026-01-29 08:02:15.91	64.47	72.67	-50.2	-51.6	22.0	0.00e+00	0	46	0	1140850688	60	14430
2026-01-29 08:02:16.92	62.80	72.71	-50.5	-52.0	21.3	0.00e+00	0	46	0	1143996416	60	15074
2026-01-29 08:02:17.93	61.13	72.73	-50.4	-52.0	21.1	0.00e+00	0	46	0	1147142144	60	15122
2026-01-29 08:02:18.93	59.47	72.73	-49.9	-51.3	21.7	0.00e+00	0	46	0	1150287872	60	14038
2026-01-29 08:02:19.94	57.79	72.72	-50.0	-51.5	21.7	0.00e+00	0	46	0	1153433600	60	14238
2026-01-29 08:02:20.95	56.11	72.70	-49.7	-51.2	22.1	0.00e+00	0	46	0	1156579328	60	13738
2026-01-29 08:02:21.96	54.45	72.66	-49.7	-51.2	21.8	0.00e+00	0	46	0	1159725056	60	13765
2026-01-29 08:02:22.97	52.79	72.61	-49.9	-51.4	21.7	0.00e+00	0	46	0	1162870784	60	14203
2026-01-29 08:02:23.98	51.14	72.55	-50.2	-51.7	21.6	0.00e+00	0	46	0	1166016512	60	14578
2026-01-29 08:02:24.99	49.51	72.47	-49.8	-51.2	22.0	0.00e+00	0	46	0	1169162240	60	13857
2026-01-29 08:02:26.00	47.89	72.38	-49.5	-50.9	22.2	0.00e+00	0	46	0	1172307968	60	13309
2026-01-29 08:02:27.01	46.29	72.28	-49.7	-51.1	22.0	0.00e+00	0	46	0	1175453696	60	13635
2026-01-29 08:02:28.01	44.73	72.16	-49.8	-51.2	21.9	0.00e+00	0	46	0	1178599424	60	13741
2026-01-29 08:02:29.02	43.17	72.03	-49.8	-51.2	21.8	0.00e+00	0	46	0	1181745152	60	13789
2026-01-29 08:02:30.03	41.64	71.89	-49.9	-51.2	22.2	0.00e+00	0	46	0	1184890880	60	13868
2026-01-29 08:02:31.03	40.15	71.74	-49.8	-51.0	22.3	0.00e+00	0	46	0	1188036608	60	13534
2026-01-29 08:02:32.04	38.68	71.57	-49.8	-51.0	22.2	0.00e+00	0	46	0	1191182336	60	13498
2026-01-29 08:02:33.05	37.23	71.40	-50.0	-51.2	22.3	0.00e+00	0	46	0	1194328064	60	13766
2026-01-29 08:02:34.06	35.81	71.21	-50.4	-51.7	22.1	0.00e+00	0	46	0	1197473792	60	14583
2026-01-29 08:02:35.07	34.42	71.02	-50.6	-51.9	21.9	0.00e+00	0	46	0	1200619520	60	14897
2026-01-29 08:02:36.07	33.08	70.81	-50.4	-51.6	22.1	0.00e+00	0	46	0	1203765248	60	14517
2026-01-29 08:02:37.08	31.76	70.59	-49.9	-51.2	22.4	0.00e+00	0	46	0	1206910976	60	13740
2026-01-29 08:02:38.09	30.46	70.37	-49.6	-50.9	22.5	0.00e+00	0	46	0	1210056704	60	13327
2026-01-29 08:02:39.10	29.20	70.14	-49.5	-50.7	22.8	0.00e+00	0	46	0	1213202432	60	13068
2026-01-29 08:02:40.11	27.97	69.89	-49.5	-50.8	22.7	0.00e+00	0	46	0	1216348160	60	13214
2026-01-29 08:02:41.11	26.79	69.65	-49.7	-51.1	22.6	0.00e+00	0	46	0	1219493888	60	13581
2026-01-29 08:02:42.12	25.62	69.39	-49.7	-51.1	22.2	0.00e+00	0	46	0	1222639616	60	13724
2026-01-29 08:02:43.13	24.48	69.12	-49.3	-50.6	22.4	0.00e+00	0	46	0	1225785344	60	12956
2026-01-29 08:02:44.14	23.38	68.85	-49.1	-50.5	22.2	0.00e+00	0	46	0	1228931072	60	12755
2026-01-29 08:02:45.14	22.32	68.58	-49.6	-51.1	22.2	0.00e+00	0	46	0	1232076800	60	13610
2026-01-29 08:02:46.15	21.27	68.30	-50.4	-51.8	21.8	0.00e+00	0	46	0	1235222528	60	14854
2026-01-29 08:02:47.15	20.27	68.01	-50.6	-52.0	21.8	0.00e+00	0	46	0	1238368256	60	15099
2026-01-29 08:02:48.16	19.29	67.72	-50.2	-51.6	22.0	0.00e+00	0	46	0	1241513984	60	14426
2026-01-29 08:02:49.17	18.33	67.42	-50.1	-51.4	22.3	0.00e+00	0	46	0	1244659712	60	14061
2026-01-29 08:02:50.18	17.40	67.11	-50.1	-51.3	22.5	0.00e+00	0	46	0	1247805440	60	13954
2026-01-29 08:02:51.18	16.51	66.81	-50.3	-51.5	22.6	0.00e+00	0	46	0	1250951168	60	14307
2026-01-29 08:02:52.19	15.63	66.50	-50.8	-52.0	22.4	0.00e+00	0	46	0	1254096896	60	15103
2026-01-29 08:02:53.20	14.78	66.18	-51.4	-52.7	21.4	0.00e+00	0	46	0	1257242624	60	16420
2026-01-29 08:02:54.21	13.95	65.86	-51.4	-52.7	21.2	0.00e+00	0	46	0	1260388352	60	16389
2026-01-29 08:02:55.21	13.16	65.55	-51.1	-52.4	21.2	0.00e+00	0	46	0	1263534080	60	15914
2026-01-29 08:02:56.21	12.38	65.22	-50.4	-51.6	22.2	0.00e+00	0	46	0	1266679808	60	14420
2026-01-29 08:02:57.22	11.63	64.90	-50.0	-51.2	22.8	0.00e+00	0	46	0	1269825536	60	13805
2026-01-29 08:02:58.22	10.90	64.57	-50.7	-51.9	22.4	0.00e+00	0	46	0	1272971264	60	15011
2026-01-29 08:02:59.23	10.18	64.24	-51.5	-52.8	21.7	0.00e+00	0	46	0	1276116992	60	16656
2026-01-29 08:03:00.24	9.49	63.90	-51.7	-53.0	21.4	0.00e+00	0	46	0	1279262720	60	17064
2026-01-29 08:03:01.24	8.82	63.57	-51.5	-52.9	21.4	0.00e+00	0	46	0	1282408448	60	16722
2026-01-29 08:03:02.25	8.17	63.23	-50.5	-51.8	22.1	0.00e+00	0	46	0	1285554176	60	14822
2026-01-29 08:03:03.26	7.53	62.90	-49.9	-51.1	22.6	0.00e+00	0	46	0	1288699904	60	13683
2026-01-29 08:03:04.27	6.91	62.56	-50.0	-51.2	22.9	0.00e+00	0	46	0	1291845632	60	13845
2026-01-29 08:03:05.27	6.32	62.22	-50.4	-51.6	22.4	0.00e+00	0	46	0	1294991360	60	14485
2026-01-29 08:03:06.28	5.73	61.88	-51.3	-52.7	21.6	0.00e+00	0	46	0	1298137088	60	16412
2026-01-29 08:03:07.28	5.17	61.54	-51.6	-53.0	21.1	0.00e+00	0	46	0	1301282816	60	16975
2026-01-29 08:03:08.29	4.61	61.19	-51.0	-52.4	21.1	0.00e+00	0	46	0	1304428544	60	15904
2026-01-29 08:03:09.30	4.08	60.85	-50.8	-52.1	21.3	0.00e+00	0	46	0	1307574272	60	15408
2026-01-29 08:03:10.31	3.55	60.51	-50.6	-51.9	21.5	0.00e+00	0	46	0	1310720000	60	15047
2026-01-29 08:03:11.32	3.04	60.16	-50.4	-51.7	22.0	0.00e+00	0	46	0	1313865728	60	14600
2026-01-29 08:03:12.32	2.55	59.82	-50.2	-51.5	22.4	0.00e+00	0	46	0	1317011456	60	14265
2026-01-29 08:03:13.33	2.07	59.47	-50.4	-51.7	22.1	0.00e+00	0	46	0	1320157184	60	14665
2026-01-29 08:03:14.33	1.60	59.13	-51.1	-52.5	21.5	0.00e+00	0	46	0	1323302912	60	16007
2026-01-29 08:03:15.34	1.15	58.79	-51.7	-53.2	20.5	0.00e+00	0	46	0	1326448640	60	17301
2026-01-29 08:03:16.35	0.70	58.45	-51.9	-53.3	20.3	0.00e+00	0	46	0	1329594368	60	17647
2026-01-29 08:03:17.36	0.27	58.10	-51.4	-52.7	21.1	0.00e+00	0	46	0	1332740096	60	16401
2026-01-29 08:03:18.37	359.84	57.76	-51.2	-52.4	21.6	0.00e+00	0	46	0	1335885824	60	15918
2026-01-29 08:03:19.37	359.43	57.42	-51.0	-52.3	21.7	0.00e+00	0	46	0	1339031552	60	15641
2026-01-29 08:03:20.37	359.04	57.08	-51.2	-52.4	21.6	0.00e+00	0	46	0	1342177280	60	15879
2026-01-29 08:03:21.38	358.64	56.74	-51.7	-53.0	21.0	0.00e+00	0	46	0	1345323008	60	17073
2026-01-29 08:03:22.39	358.26	56.40	-52.3	-53.8	20.4	0.00e+00	0	46	0	1348468736	60	18551
2026-01-29 08:03:23.40	357.89	56.06	-52.9	-54.4	20.1	0.00e+00	0	46	0	1351614464	60	19857
2026-01-29 08:03:24.41	357.52	55.72	-53.1	-54.6	19.8	0.00e+00	0	46	0	1354760192	60	20433
2026-01-29 08:03:25.41	357.17	55.39	-52.8	-54.3	19.8	0.00e+00	0	46	0	1357905920	60	19721
2026-01-29 08:03:26.42	356.82	55.05	-52.5	-54.0	19.7	0.00e+00	0	46	0	1361051648	60	19146
2026-01-29 08:03:27.43	356.48	54.72	-52.1	-53.5	20.6	0.00e+00	0	46	0	1364197376	60	17964
2026-01-29 08:03:28.43	356.16	54.38	-51.5	-52.7	21.6	0.00e+00	0	46	0	1367343104	60	16510
2026-01-29 08:03:29.43	355.84	54.06	-51.7	-53.0	21.4	0.00e+00	0	46	0	1370488832	60	16991
2026-01-29 08:03:30.44	355.52	53.72	-52.2	-53.6	21.0	0.00e+00	0	46	0	1373634560	60	18248
2026-01-29 08:03:31.45	355.21	53.39	-52.5	-53.9	20.8	0.00e+00	0	46	0	1376780288	60	18834
2026-01-29 08:03:32.45	354.91	53.07	-52.7	-54.2	20.2	0.00e+00	0	46	0	1379926016	60	19496
2026-01-29 08:03:33.46	354.62	52.74	-53.1	-54.6	19.9	0.00e+00	0	46	0	1383071744	60	20504
2026-01-29 08:03:34.47	354.33	52.41	-53.3	-54.9	19.8	0.00e+00	0	46	0	1386217472	60	21114
2026-01-29 08:03:35.47	354.05	52.09	-53.0	-54.5	20.0	0.00e+00	0	46	0	1389363200	60	20298
2026-01-29 08:03:36.48	353.77	51.77	-52.6	-54.1	20.1	0.00e+00	0	46	0	1392508928	60	19389
2026-01-29 08:03:37.49	353.50	51.44	-52.4	-53.8	20.4	0.00e+00	0	46	0	1395654656	60	18653
2026-01-29 08:03:38.50	353.24	51.12	-52.1	-53.5	20.7	0.00e+00	0	46	0	1398800384	60	17965
2026-01-29 08:03:39.51	352.98	50.81	-52.0	-53.4	20.7	0.00e+00	0	46	0	1401946112	60	17786
2026-01-29 08:03:40.52	352.73	50.49	-53.0	-54.5	19.9	0.00e+00	0	46	0	1405091840	60	20226
2026-01-29 08:03:41.52	352.48	50.17	-53.9	-55.5	19.2	0.00e+00	0	46	0	1408237568	60	22707
2026-01-29 08:03:42.53	352.24	49.86	-54.4	-56.1	18.7	0.00e+00	0	46	0	1411383296	60	24353
2026-01-29 08:03:43.54	352.00	49.55	-54.6	-56.4	18.3	0.00e+00	0	46	0	1414529024	60	25138
2026-01-29 08:03:44.55	351.77	49.24	-54.6	-56.4	18.1	0.00e+00	0	46	0	1417674752	60	25165
2026-01-29 08:03:45.56	351.54	48.93	-54.3	-56.0	18.4	0.00e+00	0	46	0	1420820480	60	24058
2026-01-29 08:03:46.57	351.32	48.62	-54.1	-55.8	18.8	0.00e+00	0	46	0	1423966208	60	23394
2026-01-29 08:03:47.57	351.10	48.32	-53.7	-55.2	19.4	0.00e+00	0	46	0	1427111936	60	21972
2026-01-29 08:03:48.57	350.89	48.01	-53.6	-55.1	19.6	0.00e+00	0	46	0	1430257664	60	21625
2026-01-29 08:03:49.58	350.68	47.71	-53.5	-55.0	19.7	0.00e+00	0	46	0	1433403392	60	21302
2026-01-29 08:03:50.59	350.47	47.41	-53.1	-54.6	20.1	0.00e+00	0	46	0	1436549120	60	20386
2026-01-29 08:03:51.59	350.27	47.11	-52.5	-53.9	20.8	0.00e+00	0	46	0	1439694848	60	18797
2026-01-29 08:03:52.60	350.07	46.82	-52.4	-53.7	20.9	0.00e+00	0	46	0	1442840576	60	18461
2026-01-29 08:03:53.61	349.88	46.52	-52.6	-54.0	20.7	0.00e+00	0	46	0	1445986304	60	18970
2026-01-29 08:03:54.61	349.69	46.23	-53.2	-54.7	20.1	0.00e+00	0	46	0	1449132032	60	20665
2026-01-29 08:03:55.62	349.50	45.94	-53.9	-55.5	19.2	0.00e+00	0	46	0	1452277760	60	22772
2026-01-29 08:03:56.62	349.32	45.65	-54.6	-56.3	18.4	0.00e+00	0	46	0	1455423488	60	24906
2026-01-29 08:03:57.63	349.14	45.36	-54.7	-56.5	18.1	0.00e+00	0	46	0	1458569216	60	25374
2026-01-29 08:03:58.64	348.96	45.07	-54.5	-56.3	17.8	0.00e+00	0	46	0	1461714944	60	24838
2026-01-29 08:03:59.64	348.79	44.79	-53.8	-55.5	18.2	0.00e+00	0	46	0	1464860672	60	22743
2026-01-29 08:04:00.64	348.62	44.51	-53.5	-55.1	18.7	0.00e+00	0	46	0	1468006400	60	21702
2026-01-29 08:04:01.65	348.46	44.23	-53.4	-54.9	19.2	0.00e+00	0	46	0	1471152128	60	21229
2026-01-29 08:04:02.65	348.29	43.95	-53.5	-55.1	19.4	0.00e+00	0	46	0	1474297856	60	21540
2026-01-29 08:04:03.66	348.13	43.67	-53.8	-55.4	19.1	0.00e+00	0	46	0	1477443584	60	22482
2026-01-29 08:04:04.66	347.97	43.40	-53.8	-55.4	19.4	0.00e+00	0	46	0	1480589312	60	22433
2026-01-29 08:04:05.67	347.82	43.12	-53.8	-55.3	19.5	0.00e+00	0	46	0	1483735040	60	22202
2026-01-29 08:04:06.68	347.66	42.85	-53.7	-55.2	19.6	0.00e+00	0	46	0	1486880768	60	21822
2026-01-29 08:04:07.68	347.51	42.58	-53.8	-55.3	19.5	0.00e+00	0	46	0	1490026496	60	22173
2026-01-29 08:04:08.68	347.37	42.32	-53.7	-55.2	19.6	0.00e+00	0	46	0	1493172224	60	21952
2026-01-29 08:04:09.69	347.22	42.05	-53.7	-55.2	19.6	0.00e+00	0	46	0	1496317952	60	21982
2026-01-29 08:04:10.70	347.08	41.78	-53.7	-55.2	19.5	0.00e+00	0	46	0	1499463680	60	21950
2026-01-29 08:04:11.71	346.94	41.52	-53.7	-55.3	19.3	0.00e+00	0	46	0	1502609408	60	22268
2026-01-29 08:04:12.71	346.80	41.26	-54.0	-55.7	19.0	0.00e+00	0	46	0	1505755136	60	23168
2026-01-29 08:04:13.71	346.66	41.00	-54.1	-55.9	18.8	0.00e+00	0	46	0	1508900864	60	23750
2026-01-29 08:04:14.72	346.53	40.74	-54.1	-55.8	18.9	0.00e+00	0	46	0	1512046592	60	23478
2026-01-29 08:04:15.73	346.40	40.48	-54.0	-55.7	18.7	0.00e+00	0	46	0	1515192320	60	23202
2026-01-29 08:04:16.73	346.27	40.23	-53.8	-55.5	18.7	0.00e+00	0	46	0	1518338048	60	22745
2026-01-29 08:04:17.74	346.14	39.97	-53.6	-55.3	18.8	0.00e+00	0	46	0	1521483776	60	22045
2026-01-29 08:04:18.75	346.02	39.72	-53.4	-55.0	18.9	0.00e+00	0	46	0	1524629504	60	21511
2026-01-29 08:04:19.76	345.89	39.47	-53.3	-54.9	19.0	0.00e+00	0	46	0	1527775232	60	21139
2026-01-29 08:04:20.77	345.77	39.22	-53.1	-54.7	19.2	0.00e+00	0	46	0	1530920960	60	20562
2026-01-29 08:04:21.77	345.65	38.97	-53.2	-54.9	19.1	0.00e+00	0	46	0	1534066688	60	21035
2026-01-29 08:04:22.78	345.53	38.73	-53.5	-55.2	19.0	0.00e+00	0	46	0	1537212416	60	21832
2026-01-29 08:04:23.79	345.42	38.48	-53.6	-55.4	19.0	0.00e+00	0	46	0	1540358144	60	22284
2026-01-29 08:04:24.80	345.30	38.24	-53.7	-55.4	18.9	0.00e+00	0	46	0	1543503872	60	22455
2026-01-29 08:04:25.81	345.19	38.00	-53.6	-55.2	19.2	0.00e+00	0	46	0	1546649600	60	21971
2026-01-29 08:04:26.82	345.08	37.76	-53.6	-55.2	19.3	0.00e+00	0	46	0	1549795328	60	21862
2026-01-29 08:04:27.83	344.97	37.52	-53.7	-55.2	19.4	0.00e+00	0	46	0	1552941056	60	21928
2026-01-29 08:04:28.84	344.86	37.28	-53.0	-54.4	20.2	0.00e+00	0	46	0	1556086784	60	20046
2026-01-29 08:04:29.84	344.76	37.05	-52.5	-53.9	20.6	0.00e+00	0	46	0	1559232512	60	18823
2026-01-29 08:04:30.85	344.65	36.82	-52.4	-53.7	20.8	0.00e+00	0	46	0	1562378240	60	18481
2026-01-29 08:04:31.86	344.55	36.58	-52.1	-53.4	21.1	0.00e+00	0	46	0	1565523968	60	17840
2026-01-29 08:04:32.86	344.45	36.36	-52.0	-53.4	21.0	0.00e+00	0	46	0	1568669696	60	17736
2026-01-29 08:04:33.87	344.35	36.13	-52.2	-53.6	20.6	0.00e+00	0	46	0	1571815424	60	18300
2026-01-29 08:04:34.88	344.25	35.90	-52.4	-53.9	20.4	0.00e+00	0	46	0	1574961152	60	18846
2026-01-29 08:04:35.89	344.15	35.67	-52.5	-54.0	20.2	0.00e+00	0	46	0	1578106880	60	19144
2026-01-29 08:04:36.90	344.06	35.45	-52.7	-54.2	20.1	0.00e+00	0	46	0	1581252608	60	19508
2026-01-29 08:04:37.90	343.97	35.23	-52.8	-54.3	20.0	0.00e+00	0	46	0	1584398336	60	19772
2026-01-29 08:04:38.91	343.87	35.01	-52.7	-54.1	20.2	0.00e+00	0	46	0	1587544064	60	19346
2026-01-29 08:04:39.92	343.78	34.79	-52.5	-53.9	20.4	7.00e-07	0	46	0	1590689792	60	18930
2026-01-29 08:04:40.93	343.69	34.57	-52.5	-54.0	20.5	0.00e+00	0	46	0	1593835520	60	18982
2026-01-29 08:04:41.94	343.60	34.35	-52.5	-53.9	20.5	0.00e+00	0	46	0	1596981248	60	18944
2026-01-29 08:04:42.94	343.51	34.14	-52.5	-53.9	20.6	0.00e+00	0	46	0	1600126976	60	18771
2026-01-29 08:04:43.95	343.43	33.92	-52.4	-53.8	20.6	0.00e+00	0	46	0	1603272704	60	18561
2026-01-29 08:04:44.95	343.34	33.71	-52.3	-53.7	20.5	0.00e+00	0	46	0	1606418432	60	18435
2026-01-29 08:04:45.96	343.26	33.50	-52.5	-53.9	20.3	0.00e+00	0	46	0	1609564160	60	18868
2026-01-29 08:04:46.97	343.17	33.29	-52.6	-54.1	20.1	0.00e+00	0	46	0	1612709888	60	19276
2026-01-29 08:04:47.98	343.09	33.08	-52.6	-54.1	20.1	0.00e+00	0	46	0	1615855616	60	19216
2026-01-29 08:04:48.98	343.01	32.88	-52.5	-54.0	20.0	0.00e+00	0	46	0	1619001344	60	19078
2026-01-29 08:04:49.99	342.93	32.67	-52.5	-54.0	19.8	0.00e+00	0	46	0	1622147072	60	19021
2026-01-29 08:04:51.00	342.85	32.47	-52.4	-54.0	19.5	0.00e+00	0	46	0	1625292800	60	19018
2026-01-29 08:04:52.01	342.77	32.26	-52.2	-53.9	19.2	0.00e+00	0	46	0	1628438528	60	18859
2026-01-29 08:04:53.01	342.70	32.06	-52.3	-54.1	18.7	0.00e+00	0	46	0	1631584256	60	19191
2026-01-29 08:04:54.02	342.62	31.86	-52.2	-54.0	18.6	0.00e+00	0	46	0	1634729984	60	19090
2026-01-29 08:04:55.03	342.55	31.66	-52.1	-54.0	18.6	0.00e+00	0	46	0	1637875712	60	18982
2026-01-29 08:04:56.04	342.47	31.46	-51.7	-53.5	19.3	0.00e+00	0	46	0	1641021440	60	17949
2026-01-29 08:04:57.04	342.40	31.27	-51.6	-53.3	19.6	0.00e+00	0	46	0	1644167168	60	17596
2026-01-29 08:04:58.05	342.33	31.07	-51.7	-53.3	19.7	0.00e+00	0	46	0	1647312896	60	17624
2026-01-29 08:04:59.05	342.26	30.88	-51.5	-53.1	20.2	0.00e+00	0	46	0	1650458624	60	17221
2026-01-29 08:05:00.06	342.19	30.69	-51.2	-52.7	20.8	0.00e+00	0	46	0	1653604352	60	16447
2026-01-29 08:05:01.07	342.12	30.50	-51.0	-52.5	21.1	0.00e+00	0	46	0	1656750080	60	16087
2026-01-29 08:05:02.08	342.05	30.30	-50.9	-52.3	21.5	0.00e+00	0	46	0	1659895808	60	15639
2026-01-29 08:05:03.09	341.98	30.11	-50.7	-52.1	21.7	0.00e+00	0	46	0	1663041536	60	15270
2026-01-29 08:05:04.10	341.91	29.93	-50.6	-51.9	22.0	0.00e+00	0	46	0	1666187264	60	15038
2026-01-29 08:05:05.11	341.85	29.74	-50.4	-51.6	22.2	0.00e+00	0	46	0	1669332992	60	14535
2026-01-29 08:05:06.11	341.78	29.56	-50.3	-51.6	22.1	0.00e+00	0	46	0	1672478720	60	14465
2026-01-29 08:05:07.12	341.72	29.37	-50.3	-51.6	21.9	0.00e+00	0	46	0	1675624448	60	14421
2026-01-29 08:05:08.13	341.66	29.19	-50.3	-51.6	21.8	0.00e+00	0	46	0	1678770176	60	14475
2026-01-29 08:05:09.14	341.59	29.00	-50.3	-51.5	21.7	0.00e+00	0	46	0	1681915904	60	14380
2026-01-29 08:05:10.15	341.53	28.82	-50.4	-51.7	21.5	0.00e+00	0	46	0	1685061632	60	14619
2026-01-29 08:05:11.15	341.47	28.64	-50.5	-51.8	21.4	0.00e+00	0	46	0	1688207360	60	14834
2026-01-29 08:05:12.16	341.41	28.46	-50.7	-52.0	21.4	0.00e+00	0	46	0	1691353088	60	15170
2026-01-29 08:05:13.17	341.35	28.29	-50.9	-52.1	21.5	0.00e+00	0	46	0	1694498816	60	15386
2026-01-29 08:05:14.18	341.29	28.11	-51.0	-52.2	21.6	0.00e+00	0	46	0	1697644544	60	15576
2026-01-29 08:05:15.19	341.23	27.93	-51.2	-52.4	21.6	0.00e+00	0	46	0	1700790272	60	15862
2026-01-29 08:05:16.19	341.17	27.76	-51.2	-52.4	21.8	0.00e+00	0	46	0	1703936000	60	15919
2026-01-29 08:05:17.20	341.12	27.59	-51.3	-52.5	21.7	0.00e+00	0	46	0	1707081728	60	16117
2026-01-29 08:05:18.21	341.06	27.41	-51.2	-52.5	21.7	0.00e+00	0	46	0	1710227456	60	15979
2026-01-29 08:05:19.21	341.00	27.24	-51.2	-52.4	21.7	0.00e+00	0	46	0	1713373184	60	15911
2026-01-29 08:05:20.22	340.95	27.07	-51.1	-52.3	21.6	0.00e+00	0	46	0	1716518912	60	15749
2026-01-29 08:05:21.23	340.89	26.90	-51.1	-52.4	21.5	0.00e+00	0	46	0	1719664640	60	15802
2026-01-29 08:05:22.24	340.84	26.74	-51.0	-52.2	21.5	0.00e+00	0	46	0	1722810368	60	15539
2026-01-29 08:05:23.25	340.79	26.57	-50.9	-52.2	21.5	0.00e+00	0	46	0	1725956096	60	15484
2026-01-29 08:05:24.25	340.73	26.40	-50.9	-52.2	21.4	0.00e+00	0	46	0	1729101824	60	15436
2026-01-29 08:05:25.26	340.68	26.24	-50.9	-52.1	21.5	0.00e+00	0	46	0	1732247552	60	15406
2026-01-29 08:05:26.27	340.63	26.07	-50.9	-52.1	21.5	0.00e+00	0	46	0	1735393280	60	15407
2026-01-29 08:05:27.28	340.58	25.91	-50.9	-52.2	21.4	0.00e+00	0	46	0	1738539008	60	15447
2026-01-29 08:05:28.29	340.53	25.75	-50.9	-52.2	21.5	0.00e+00	0	46	0	1741684736	60	15527
2026-01-29 08:05:29.29	340.48	25.59	-50.9	-52.2	21.5	0.00e+00	0	46	0	1744830464	60	15498
2026-01-29 08:05:30.30	340.43	25.43	-51.1	-52.3	21.4	0.00e+00	0	46	0	1747976192	60	15766
2026-01-29 08:05:31.31	340.38	25.27	-51.1	-52.3	21.5	0.00e+00	0	46	0	1751121920	60	15759
2026-01-29 08:05:32.32	340.33	25.11	-51.1	-52.4	21.4	0.00e+00	0	46	0	1754267648	60	15862
2026-01-29 08:05:33.33	340.28	24.95	-51.2	-52.5	21.3	0.00e+00	0	46	0	1757413376	60	16033
2026-01-29 08:05:34.33	340.24	24.79	-51.2	-52.5	21.2	0.00e+00	0	46	0	1760559104	60	16109
2026-01-29 08:05:35.34	340.19	24.64	-51.2	-52.5	21.1	0.00e+00	0	46	0	1763704832	60	16093
2026-01-29 08:05:36.35	340.14	24.48	-51.3	-52.6	20.9	0.00e+00	0	46	0	1766850560	60	16283
2026-01-29 08:05:37.36	340.10	24.33	-51.3	-52.7	20.7	0.00e+00	0	46	0	1769996288	60	16353
2026-01-29 08:05:38.37	340.05	24.18	-51.3	-52.7	20.6	0.00e+00	0	46	0	1773142016	60	16448
2026-01-29 08:05:39.37	340.01	24.02	-51.3	-52.7	20.4	0.00e+00	0	46	0	1776287744	60	16489
2026-01-29 08:05:40.38	339.96	23.87	-51.4	-52.8	20.4	0.00e+00	0	46	0	1779433472	60	16585
2026-01-29 08:05:41.39	339.92	23.72	-51.3	-52.7	20.5	0.00e+00	0	46	0	1782579200	60	16398
2026-01-29 08:05:42.40	339.87	23.57	-51.2	-52.6	20.6	0.00e+00	0	46	0	1785724928	60	16313
2026-01-29 08:05:43.40	339.83	23.42	-51.3	-52.7	20.7	0.00e+00	0	46	0	1788870656	60	16369
2026-01-29 08:05:44.41	339.79	23.28	-51.2	-52.6	20.7	0.00e+00	0	46	0	1792016384	60	16286
2026-01-29 08:05:45.42	339.75	23.13	-51.1	-52.5	20.9	0.00e+00	0	46	0	1795162112	60	16045
2026-01-29 08:05:46.42	339.71	22.98	-51.0	-52.4	21.0	0.00e+00	0	46	0	1798307840	60	15940
2026-01-29 08:05:47.43	339.66	22.84	-50.9	-52.4	21.1	0.00e+00	0	46	0	1801453568	60	15852
2026-01-29 08:05:48.44	339.62	22.69	-50.7	-52.2	21.2	0.00e+00	0	46	0	1804599296	60	15539
2026-01-29 08:05:49.45	339.58	22.55	-50.6	-52.1	21.2	0.00e+00	0	46	0	1807745024	60	15401
2026-01-29 08:05:50.45	339.54	22.41	-50.4	-52.0	21.2	0.00e+00	0	46	0	1810890752	60	15162
2026-01-29 08:05:51.46	339.50	22.26	-50.4	-51.9	21.2	0.00e+00	0	46	0	1814036480	60	15050
2026-01-29 08:05:52.47	339.46	22.12	-50.4	-51.9	21.4	0.00e+00	0	46	0	1817182208	60	14943
2026-01-29 08:05:53.47	339.42	21.98	-50.3	-51.8	21.5	0.00e+00	0	46	0	1820327936	60	14849
2026-01-29 08:05:54.48	339.39	21.84	-50.3	-51.7	21.6	0.00e+00	0	46	0	1823473664	60	14623
2026-01-29 08:05:55.48	339.35	21.70	-50.4	-51.7	21.6	0.00e+00	0	46	0	1826619392	60	14687
2026-01-29 08:05:56.49	339.31	21.56	-50.3	-51.6	21.7	0.00e+00	0	46	0	1829765120	60	14445
2026-01-29 08:05:57.50	339.27	21.43	-50.3	-51.5	21.7	0.00e+00	0	46	0	1832910848	60	14361
2026-01-29 08:05:58.51	339.24	21.29	-50.3	-51.5	21.6	0.00e+00	0	46	0	1836056576	60	14374
2026-01-29 08:05:59.51	339.20	21.15	-50.3	-51.5	21.7	0.00e+00	0	46	0	1839202304	60	14300
2026-01-29 08:06:00.52	339.16	21.02	-50.3	-51.5	21.7	0.00e+00	0	46	0	1842348032	60	14284
2026-01-29 08:06:01.52	339.13	20.88	-50.3	-51.5	21.6	0.00e+00	0	46	0	1845493760	60	14367
2026-01-29 08:06:02.53	339.09	20.75	-50.2	-51.5	21.7	0.00e+00	0	46	0	1848639488	60	14271
