passes_logs/2026/01/29/R3.2S-Naryan-Mar/R3.2S-Naryan-Mar__20260129_114902_SUOMI_NPP_rec.log

#Pass ID: 20260129_114902_SUOMI NPP
#Satellite: SUOMI NPP
#Configuration: NPP
#almurnet v.1.7.20240730
#Start time: 2026-01-29 11:49:05

#Version: 2.2.20231116
#Station: R3.2S-Naryan-Mar
#Location: 53.008057 lon 67.646978 lat
#TLE: 1 37849U 11061A   26027.93236865  .00000148  00000+0  91411-4 0  9991
#TLE: 2 37849  98.7823 329.8704 0002085  41.3231 318.8102 14.19530777738546

#Time	Az	El	Level	Level2	SNR	BER	BlckErr	Temp	State	Recorded	gain1	gain2
2026-01-29 11:49:05.59	241.95	0.14	-56.7	-59.7	3.3	0.00e+00	0	43	0	0	60	113763
2026-01-29 11:49:06.60	242.04	0.18	-59.0	-78.4	3.6	1.51e+00	0	45	104	0	60	325080
2026-01-29 11:49:07.60	242.14	0.22	-59.7	-78.4	3.6	1.51e+00	0	44	104	0	60	327691
2026-01-29 11:49:08.61	242.23	0.27	-60.0	-78.4	3.6	1.51e+00	0	45	104	0	60	324436
2026-01-29 11:49:09.62	242.32	0.31	-59.0	-78.0	3.6	1.51e+00	0	45	104	0	60	312890
2026-01-29 11:49:10.63	242.42	0.35	-59.2	-78.0	3.6	1.51e+00	0	45	104	0	60	310209
2026-01-29 11:49:11.63	242.51	0.39	-59.2	-77.6	3.6	1.51e+00	0	45	104	0	60	296811
2026-01-29 11:49:12.64	242.60	0.44	-59.2	-77.4	3.6	1.51e+00	0	45	104	0	60	292109
2026-01-29 11:49:13.65	242.70	0.48	-60.3	-77.6	3.6	1.51e+00	0	45	104	0	60	297314
2026-01-29 11:49:14.66	242.79	0.52	-60.7	-77.6	3.6	1.51e+00	0	45	104	0	60	296035
2026-01-29 11:49:15.66	242.89	0.56	-60.9	-77.4	3.6	1.51e+00	0	45	104	0	60	291566
2026-01-29 11:49:16.68	242.98	0.61	-60.4	-77.3	3.6	1.51e+00	0	45	104	0	60	288139
2026-01-29 11:49:17.68	243.08	0.65	-60.4	-77.0	3.6	1.51e+00	0	45	104	0	60	278789
2026-01-29 11:49:18.68	243.17	0.69	-60.2	-76.9	3.6	1.51e+00	0	45	104	0	60	273332
2026-01-29 11:49:19.69	243.27	0.74	-60.4	-76.9	3.6	1.51e+00	0	45	104	0	60	272812
2026-01-29 11:49:20.70	243.37	0.78	-60.2	-76.7	3.6	1.51e+00	0	45	104	0	60	268137
2026-01-29 11:49:21.70	243.46	0.82	-60.2	-76.6	3.6	1.51e+00	0	45	104	0	60	263670
2026-01-29 11:49:22.71	243.56	0.86	-60.1	-76.4	3.6	1.51e+00	0	45	104	0	60	259800
2026-01-29 11:49:23.71	243.65	0.91	-59.5	-75.9	3.6	1.51e+00	0	45	104	0	60	245296
2026-01-29 11:49:24.72	243.75	0.95	-59.7	-76.0	3.6	1.51e+00	0	45	104	0	60	247058
2026-01-29 11:49:25.73	243.85	0.99	-59.6	-76.0	3.6	1.51e+00	0	45	104	0	60	246556
2026-01-29 11:49:26.74	243.95	1.03	-59.6	-76.0	3.6	1.51e+00	0	45	104	0	60	246069
2026-01-29 11:49:27.75	244.04	1.08	-59.6	-75.9	3.6	1.51e+00	0	45	104	0	60	245254
2026-01-29 11:49:28.76	244.14	1.12	-59.6	-75.9	3.6	1.51e+00	0	45	104	0	60	245086
2026-01-29 11:49:29.76	244.24	1.16	-59.6	-75.9	3.6	1.51e+00	0	45	104	0	60	245180
2026-01-29 11:49:30.77	244.34	1.21	-59.6	-75.9	3.6	1.51e+00	0	45	104	0	60	244010
2026-01-29 11:49:31.78	244.44	1.25	-59.5	-75.9	3.6	1.51e+00	0	45	104	0	60	243294
2026-01-29 11:49:32.78	244.54	1.29	-59.5	-75.9	3.6	1.51e+00	0	45	104	0	60	243485
2026-01-29 11:49:33.79	244.64	1.33	-59.5	-75.9	3.6	1.51e+00	0	45	104	0	60	245032
2026-01-29 11:49:34.80	244.74	1.38	-59.5	-75.9	3.6	1.51e+00	0	45	104	0	60	243871
2026-01-29 11:49:35.80	244.84	1.42	-59.5	-75.8	3.6	1.51e+00	0	45	104	0	60	242773
2026-01-29 11:49:36.81	244.94	1.46	-59.5	-75.9	3.6	1.51e+00	0	45	104	0	60	243556
2026-01-29 11:49:37.82	245.04	1.50	-59.5	-75.8	3.6	1.51e+00	0	45	104	0	60	241988
2026-01-29 11:49:38.83	245.14	1.55	-59.5	-75.8	3.6	1.51e+00	0	45	104	0	60	241336
2026-01-29 11:49:39.83	245.24	1.59	-59.5	-75.8	3.6	1.51e+00	0	45	104	0	60	242338
2026-01-29 11:49:40.83	245.34	1.63	-59.5	-75.8	3.6	1.51e+00	0	45	104	0	60	241949
2026-01-29 11:49:41.84	245.44	1.67	-59.5	-75.8	3.6	1.51e+00	0	45	104	0	60	242339
2026-01-29 11:49:42.84	245.54	1.72	-59.5	-75.8	3.6	1.51e+00	0	45	104	0	60	241706
2026-01-29 11:49:43.84	245.64	1.76	-59.5	-75.8	3.6	1.51e+00	0	45	104	0	60	241390
2026-01-29 11:49:44.84	245.75	1.80	-59.4	-75.8	3.6	1.51e+00	0	45	104	0	60	240947
2026-01-29 11:49:45.84	245.85	1.84	-59.4	-75.7	3.6	1.51e+00	0	45	104	0	60	239862
2026-01-29 11:49:46.84	245.95	1.89	-59.4	-75.8	3.6	1.51e+00	0	45	104	0	60	241259
2026-01-29 11:49:47.84	246.05	1.93	-59.4	-75.8	3.6	1.51e+00	0	45	104	0	60	240638
2026-01-29 11:49:48.84	246.16	1.97	-59.4	-75.8	3.6	1.51e+00	0	45	104	0	60	241427
2026-01-29 11:49:49.84	246.26	2.01	-59.4	-75.7	3.6	1.51e+00	0	45	104	0	60	239572
2026-01-29 11:49:50.84	246.36	2.06	-59.4	-75.8	3.6	1.51e+00	0	45	104	0	60	241324
2026-01-29 11:49:51.85	246.47	2.10	-59.4	-75.7	3.5	1.51e+00	0	45	104	0	60	240031
2026-01-29 11:49:52.86	246.57	2.14	-59.4	-75.8	3.6	1.51e+00	0	45	104	0	60	240970
2026-01-29 11:49:53.86	246.68	2.18	-59.4	-75.8	3.6	1.51e+00	0	45	104	0	60	240516
2026-01-29 11:49:54.86	246.78	2.23	-59.4	-75.7	3.6	1.51e+00	0	45	104	0	60	239634
2026-01-29 11:49:55.87	246.89	2.27	-59.4	-75.7	3.6	1.51e+00	0	45	104	0	60	240035
2026-01-29 11:49:56.87	246.99	2.31	-59.4	-75.8	3.6	1.51e+00	0	45	104	0	60	240554
2026-01-29 11:49:57.87	247.10	2.35	-59.4	-75.8	3.6	1.51e+00	0	45	104	0	60	241487
2026-01-29 11:49:58.88	247.20	2.39	-59.4	-75.7	3.6	1.51e+00	0	45	104	0	60	239431
2026-01-29 11:49:59.89	247.31	2.44	-59.4	-75.8	3.6	1.51e+00	0	45	104	0	60	240309
2026-01-29 11:50:00.90	247.42	2.48	-59.4	-75.7	3.6	1.51e+00	0	45	104	0	60	239808
2026-01-29 11:50:01.90	247.53	2.52	-59.4	-75.7	3.6	1.51e+00	0	45	104	0	60	240121
2026-01-29 11:50:02.90	247.63	2.56	-59.4	-75.7	3.6	1.51e+00	0	45	104	0	60	238962
2026-01-29 11:50:03.91	247.74	2.61	-59.3	-75.7	3.6	1.51e+00	0	45	104	0	60	238892
2026-01-29 11:50:04.91	247.85	2.65	-59.3	-75.7	3.6	1.51e+00	0	45	104	0	60	238453
2026-01-29 11:50:05.92	247.96	2.69	-59.3	-75.8	3.6	1.51e+00	0	45	104	0	60	240533
2026-01-29 11:50:06.93	248.07	2.73	-59.3	-75.7	3.6	1.51e+00	0	46	104	0	60	238855
2026-01-29 11:50:07.93	248.17	2.78	-59.3	-75.7	3.6	1.51e+00	0	45	104	0	60	239235
2026-01-29 11:50:08.94	248.28	2.82	-59.3	-75.6	3.6	1.51e+00	0	46	104	0	60	237086
2026-01-29 11:50:09.94	248.39	2.86	-59.3	-75.7	3.6	1.51e+00	0	45	104	0	60	238619
2026-01-29 11:50:10.95	248.50	2.90	-59.3	-75.7	3.6	1.51e+00	0	45	104	0	60	239370
2026-01-29 11:50:11.96	248.61	2.94	-59.3	-75.7	3.6	1.51e+00	0	46	104	0	60	238458
2026-01-29 11:50:12.96	248.72	2.99	-59.3	-75.7	3.6	1.51e+00	0	46	104	0	60	238156
2026-01-29 11:50:13.97	248.84	3.03	-59.3	-75.7	3.6	1.51e+00	0	46	104	0	60	238774
2026-01-29 11:50:14.98	248.95	3.07	-59.3	-75.7	3.6	1.51e+00	0	45	104	0	60	238316
2026-01-29 11:50:15.98	249.06	3.11	-59.3	-75.7	3.6	1.51e+00	0	45	104	0	60	237520
2026-01-29 11:50:16.99	249.17	3.16	-59.3	-75.7	3.6	1.51e+00	0	45	104	0	60	238663
2026-01-29 11:50:18.00	249.28	3.20	-59.3	-75.7	3.6	1.51e+00	0	45	104	0	60	238511
2026-01-29 11:50:19.01	249.40	3.24	-59.3	-75.7	3.6	1.51e+00	0	45	104	0	60	238628
2026-01-29 11:50:20.02	249.51	3.28	-59.3	-75.7	3.6	1.51e+00	0	45	104	0	60	239054
2026-01-29 11:50:21.02	249.62	3.32	-59.3	-75.7	3.6	1.51e+00	0	45	104	0	60	237759
2026-01-29 11:50:22.03	249.73	3.37	-59.3	-75.7	3.6	1.51e+00	0	46	104	0	60	238307
2026-01-29 11:50:23.04	249.85	3.41	-59.3	-75.6	3.6	1.51e+00	0	46	104	0	60	236790
2026-01-29 11:50:24.04	249.96	3.45	-59.3	-75.7	3.6	1.51e+00	0	46	104	0	60	238189
2026-01-29 11:50:25.05	250.08	3.49	-59.3	-75.7	3.6	1.51e+00	0	45	104	0	60	237944
2026-01-29 11:50:26.05	250.19	3.53	-59.3	-75.7	3.6	1.51e+00	0	46	104	0	60	237961
2026-01-29 11:50:27.06	250.31	3.58	-59.3	-75.7	3.6	1.51e+00	0	46	104	0	60	239243
2026-01-29 11:50:28.06	250.42	3.62	-59.3	-75.7	3.6	1.51e+00	0	46	104	0	60	238532
2026-01-29 11:50:29.07	250.54	3.66	-59.3	-75.6	3.6	1.51e+00	0	45	104	0	60	237100
2026-01-29 11:50:30.07	250.65	3.70	-59.3	-75.6	3.6	1.51e+00	0	45	104	0	60	237255
2026-01-29 11:50:31.08	250.77	3.74	-59.3	-75.6	3.6	1.51e+00	0	46	104	0	60	236875
2026-01-29 11:50:32.08	250.88	3.78	-59.3	-75.6	3.6	1.51e+00	0	46	104	0	60	237034
2026-01-29 11:50:33.08	251.00	3.82	-59.3	-75.6	3.5	1.51e+00	0	46	104	0	60	237422
2026-01-29 11:50:34.09	251.12	3.87	-59.3	-75.6	3.6	1.51e+00	0	46	104	0	60	236467
2026-01-29 11:50:35.10	251.23	3.91	-59.3	-75.6	3.6	1.51e+00	0	46	104	0	60	236937
2026-01-29 11:50:36.10	251.35	3.95	-59.3	-75.6	3.6	1.51e+00	0	46	104	0	60	236546
2026-01-29 11:50:37.11	251.47	3.99	-59.3	-75.6	3.6	1.51e+00	0	46	104	0	60	235597
2026-01-29 11:50:38.12	251.59	4.03	-59.3	-75.6	3.6	1.51e+00	0	46	104	0	60	235151
2026-01-29 11:50:39.12	251.71	4.07	-59.3	-75.6	3.6	1.51e+00	0	46	104	0	60	235013
2026-01-29 11:50:40.13	251.83	4.12	-59.3	-75.5	3.6	1.51e+00	0	46	104	0	60	234555
2026-01-29 11:50:41.14	251.95	4.16	-59.3	-75.5	3.6	1.51e+00	0	46	104	0	60	233702
2026-01-29 11:50:42.15	252.07	4.20	-59.3	-75.5	3.6	1.51e+00	0	45	104	0	60	233432
2026-01-29 11:50:43.15	252.19	4.24	-59.3	-75.4	3.6	1.51e+00	0	46	104	0	60	231625
2026-01-29 11:50:44.16	252.31	4.28	-59.3	-75.4	3.6	1.51e+00	0	46	104	0	60	231350
2026-01-29 11:50:45.17	252.43	4.32	-59.2	-75.4	3.6	1.51e+00	0	46	104	0	60	231039
2026-01-29 11:50:46.18	252.55	4.36	-59.3	-75.4	3.6	1.51e+00	0	46	104	0	60	230498
2026-01-29 11:50:47.19	252.67	4.41	-59.3	-75.4	3.6	1.51e+00	0	46	104	0	60	231906
2026-01-29 11:50:48.19	252.79	4.45	-59.2	-75.5	3.6	1.51e+00	0	46	104	0	60	233602
2026-01-29 11:50:49.19	252.91	4.49	-59.3	-75.6	3.6	1.51e+00	0	46	104	0	60	236154
2026-01-29 11:50:50.20	253.04	4.53	-59.2	-75.6	3.6	1.51e+00	0	46	104	0	60	236259
2026-01-29 11:50:51.20	253.16	4.57	-59.2	-75.5	3.6	1.51e+00	0	46	104	0	60	234636
2026-01-29 11:50:52.21	253.28	4.61	-59.2	-75.5	3.6	1.51e+00	0	46	104	0	60	232842
2026-01-29 11:50:53.21	253.40	4.65	-59.2	-75.4	3.6	1.51e+00	0	46	104	0	60	231697
2026-01-29 11:50:54.22	253.53	4.69	-59.2	-75.5	3.6	1.51e+00	0	46	104	0	60	233625
2026-01-29 11:50:55.22	253.65	4.73	-59.2	-75.4	3.6	1.51e+00	0	46	104	0	60	231709
2026-01-29 11:50:56.23	253.77	4.77	-59.2	-75.5	3.6	1.51e+00	0	46	104	0	60	232211
2026-01-29 11:50:57.23	253.90	4.81	-59.2	-75.5	3.6	1.51e+00	0	46	104	0	60	232553
2026-01-29 11:50:58.24	254.02	4.85	-59.2	-75.5	3.6	1.51e+00	0	46	104	0	60	232597
2026-01-29 11:50:59.24	254.15	4.89	-59.2	-75.5	3.6	1.51e+00	0	46	104	0	60	234333
2026-01-29 11:51:00.25	254.27	4.93	-59.2	-75.6	3.6	1.51e+00	0	46	104	0	60	235224
2026-01-29 11:51:01.26	254.40	4.98	-59.2	-75.6	3.6	1.51e+00	0	46	104	0	60	236395
2026-01-29 11:51:02.27	254.53	5.02	-59.2	-75.6	3.6	1.51e+00	0	46	104	0	60	236954
2026-01-29 11:51:03.27	254.65	5.06	-59.2	-75.6	3.6	1.51e+00	0	46	104	0	60	235934
2026-01-29 11:51:04.28	254.78	5.10	-59.2	-75.5	3.6	1.51e+00	0	46	104	0	60	233472
2026-01-29 11:51:05.28	254.91	5.14	-59.2	-75.5	3.6	1.51e+00	0	46	104	0	60	233948
2026-01-29 11:51:06.29	255.03	5.18	-59.2	-75.6	3.6	1.51e+00	0	46	104	0	60	234850
2026-01-29 11:51:07.30	255.16	5.22	-59.2	-75.6	3.6	1.51e+00	0	46	104	0	60	235653
2026-01-29 11:51:08.31	255.29	5.26	-59.2	-75.6	3.6	1.51e+00	0	46	104	0	60	236763
2026-01-29 11:51:09.31	255.42	5.30	-59.2	-75.6	3.6	1.51e+00	0	46	104	0	60	236258
2026-01-29 11:51:10.32	255.55	5.34	-59.2	-75.6	3.6	1.51e+00	0	46	104	0	60	236287
2026-01-29 11:51:11.33	255.68	5.38	-59.2	-75.5	3.6	1.51e+00	0	46	104	0	60	233984
2026-01-29 11:51:12.34	255.81	5.42	-59.2	-75.5	3.6	1.51e+00	0	46	104	0	60	234273
2026-01-29 11:51:13.35	255.94	5.46	-59.2	-75.5	3.6	1.51e+00	0	46	104	0	60	234693
2026-01-29 11:51:14.35	256.07	5.50	-59.2	-75.5	3.6	1.51e+00	0	46	104	0	60	234338
2026-01-29 11:51:15.36	256.20	5.54	-59.2	-75.3	3.6	1.51e+00	0	46	104	0	60	226888
2026-01-29 11:51:16.37	256.33	5.58	-59.2	-74.6	3.6	1.51e+00	0	46	104	0	60	210396
2026-01-29 11:51:17.38	256.46	5.62	-59.2	-74.0	3.6	1.51e+00	0	46	104	0	60	195454
2026-01-29 11:51:18.38	256.59	5.66	-59.2	-73.7	3.6	1.51e+00	0	46	104	0	60	190027
2026-01-29 11:51:19.39	256.73	5.70	-59.2	-73.8	3.6	1.51e+00	0	46	104	0	60	190915
2026-01-29 11:51:20.40	256.86	5.74	-59.1	-72.8	3.8	1.51e+00	0	46	104	0	60	171427
2026-01-29 11:51:21.40	256.99	5.77	-58.9	-69.0	4.8	9.08e-01	0	46	0	0	60	110340
2026-01-29 11:51:22.41	257.12	5.81	-58.5	-66.0	7.7	2.47e-01	0	46	0	2097152	60	77807
2026-01-29 11:51:23.42	257.26	5.85	-58.0	-64.0	10.2	2.84e-02	0	46	0	4194304	60	61945
2026-01-29 11:51:24.42	257.39	5.89	-57.4	-62.1	12.2	2.35e-03	0	46	0	6291456	60	50112
2026-01-29 11:51:25.43	257.53	5.93	-56.9	-61.1	13.4	3.50e-05	0	46	0	8388608	60	44226
2026-01-29 11:51:26.43	257.66	5.97	-56.7	-60.6	13.9	9.90e-06	0	46	0	9437184	60	41780
2026-01-29 11:51:27.44	257.79	6.01	-56.8	-60.8	13.7	3.00e-06	0	46	0	11534336	60	42757
2026-01-29 11:51:28.45	257.93	6.05	-56.6	-60.5	13.9	3.80e-06	0	46	0	13631488	60	41340
2026-01-29 11:51:29.46	258.07	6.09	-58.5	-66.2	7.5	2.06e-01	0	46	0	15728640	60	79977
2026-01-29 11:51:30.46	258.20	6.12	-56.6	-60.3	14.1	2.72e-02	0	46	0	17825792	60	40453
2026-01-29 11:51:31.47	258.34	6.16	-59.1	-73.5	3.6	1.48e+00	0	46	104	18874368	60	184435
2026-01-29 11:51:32.48	258.47	6.20	-59.1	-74.3	6.2	1.51e+00	0	46	104	18874368	60	203989
2026-01-29 11:51:33.48	258.61	6.24	-58.2	-64.8	8.2	8.82e-02	0	46	0	18874368	60	68286
2026-01-29 11:51:34.49	258.75	6.28	-59.1	-73.6	3.7	1.34e+00	0	46	104	1048576	60	186600
2026-01-29 11:51:35.49	258.88	6.32	-59.1	-73.5	3.7	1.54e+00	0	46	104	1048576	60	186143
2026-01-29 11:51:36.49	259.02	6.35	-59.1	-73.5	3.6	1.50e+00	0	46	104	1048576	60	184797
2026-01-29 11:51:37.50	259.16	6.39	-59.0	-71.7	4.6	1.51e+00	0	46	104	1048576	60	151481
2026-01-29 11:51:38.51	259.30	6.43	-59.1	-74.1	3.6	5.43e-01	0	46	104	1048576	60	198662
2026-01-29 11:51:39.52	259.44	6.47	-58.7	-75.1	3.6	1.51e+00	0	46	104	1048576	60	222877
2026-01-29 11:51:40.52	259.58	6.51	-58.6	-75.0	3.6	1.51e+00	0	46	104	1048576	60	221313
2026-01-29 11:51:41.52	259.72	6.54	-58.9	-75.0	3.6	1.51e+00	0	46	104	1048576	60	219782
2026-01-29 11:51:42.53	259.86	6.58	-58.5	-74.8	3.6	1.51e+00	0	46	104	1048576	60	216404
2026-01-29 11:51:43.54	260.00	6.62	-58.4	-74.7	3.6	1.51e+00	0	46	104	1048576	60	212072
2026-01-29 11:51:44.54	260.14	6.66	-58.5	-75.0	3.6	1.51e+00	0	46	104	1048576	60	221155
2026-01-29 11:51:45.55	260.28	6.69	-58.6	-75.2	3.6	1.51e+00	0	46	104	1048576	60	224515
2026-01-29 11:51:46.56	260.42	6.73	-58.8	-75.2	3.6	1.51e+00	0	46	104	1048576	60	224496
2026-01-29 11:51:47.56	260.56	6.77	-57.7	-74.4	3.6	1.51e+00	0	46	104	1048576	60	205286
2026-01-29 11:51:48.56	260.70	6.81	-57.8	-74.5	3.6	1.51e+00	0	46	104	1048576	60	208255
2026-01-29 11:51:49.57	260.84	6.84	-57.9	-74.6	3.6	1.51e+00	0	46	104	1048576	60	209574
2026-01-29 11:51:50.57	260.99	6.88	-57.6	-74.2	3.6	1.51e+00	0	46	104	1048576	60	200939
2026-01-29 11:51:51.58	261.13	6.92	-57.8	-74.3	3.6	1.51e+00	0	46	104	1048576	60	202166
2026-01-29 11:51:52.59	261.27	6.95	-57.8	-74.4	3.5	1.51e+00	0	46	104	1048576	60	205190
2026-01-29 11:51:53.60	261.42	6.99	-58.2	-74.6	3.6	1.51e+00	0	46	104	1048576	60	210077
2026-01-29 11:51:54.60	261.56	7.03	-58.0	-74.6	3.6	1.51e+00	0	46	104	1048576	60	211003
2026-01-29 11:51:55.61	261.71	7.06	-58.3	-74.7	3.6	1.51e+00	0	46	104	1048576	60	211925
2026-01-29 11:51:56.61	261.85	7.10	-57.9	-74.5	3.6	1.51e+00	0	46	104	1048576	60	208492
2026-01-29 11:51:57.61	261.99	7.14	-57.7	-74.3	3.6	1.51e+00	0	46	104	1048576	60	203742
2026-01-29 11:51:58.62	262.14	7.17	-58.2	-74.7	3.6	1.51e+00	0	46	104	1048576	60	212268
2026-01-29 11:51:59.63	262.29	7.21	-57.9	-74.7	3.6	1.51e+00	0	46	104	1048576	60	213175
2026-01-29 11:52:00.64	262.43	7.24	-57.7	-74.3	3.6	1.51e+00	0	46	104	1048576	60	204083
2026-01-29 11:52:01.64	262.58	7.28	-57.7	-74.3	3.6	1.51e+00	0	46	104	1048576	60	204149
2026-01-29 11:52:02.64	262.72	7.32	-57.9	-74.6	3.6	1.51e+00	0	46	104	1048576	60	210331
2026-01-29 11:52:03.64	262.87	7.35	-58.2	-74.8	3.6	1.51e+00	0	46	104	1048576	60	216320
2026-01-29 11:52:04.65	263.02	7.39	-58.0	-74.6	3.6	1.51e+00	0	46	104	1048576	60	209774
2026-01-29 11:52:05.66	263.17	7.42	-57.5	-74.1	3.6	1.51e+00	0	46	104	1048576	60	198968
2026-01-29 11:52:06.66	263.31	7.46	-57.7	-74.4	3.6	1.51e+00	0	46	104	1048576	60	204545
2026-01-29 11:52:07.67	263.46	7.49	-57.9	-74.4	3.6	1.51e+00	0	46	104	1048576	60	205752
2026-01-29 11:52:08.68	263.61	7.53	-57.8	-74.5	3.6	1.51e+00	0	46	104	1048576	60	207264
2026-01-29 11:52:09.68	263.76	7.56	-58.1	-74.4	3.6	1.51e+00	0	46	104	1048576	60	206673
2026-01-29 11:52:10.69	263.91	7.60	-58.1	-74.7	3.6	1.51e+00	0	46	104	1048576	60	211773
2026-01-29 11:52:11.70	264.06	7.63	-58.2	-74.7	3.6	1.51e+00	0	46	104	1048576	60	212857
2026-01-29 11:52:12.70	264.21	7.67	-57.8	-74.2	3.6	1.51e+00	0	46	104	1048576	60	201632
2026-01-29 11:52:13.70	264.36	7.70	-58.2	-74.7	3.6	1.51e+00	0	46	104	1048576	60	213497
2026-01-29 11:52:14.71	264.51	7.73	-58.0	-74.5	3.6	1.51e+00	0	46	104	1048576	60	209005
2026-01-29 11:52:15.72	264.66	7.77	-57.9	-74.5	3.6	1.51e+00	0	46	104	1048576	60	207816
2026-01-29 11:52:16.72	264.82	7.80	-55.0	-72.9	3.6	1.51e+00	0	46	104	1048576	60	172630
2026-01-29 11:52:17.73	264.97	7.84	-56.9	-74.1	3.6	1.51e+00	0	46	104	1048576	60	197822
2026-01-29 11:52:18.74	265.12	7.87	-58.7	-75.2	3.6	1.51e+00	0	46	104	1048576	60	225276
2026-01-29 11:52:19.74	265.27	7.90	-58.5	-74.9	3.6	1.51e+00	0	46	104	1048576	60	217034
2026-01-29 11:52:20.75	265.43	7.94	-57.9	-74.4	3.6	1.51e+00	0	46	104	1048576	60	206427
2026-01-29 11:52:21.76	265.58	7.97	-57.9	-74.5	3.6	1.51e+00	0	46	104	1048576	60	207450
2026-01-29 11:52:22.76	265.73	8.00	-57.9	-74.4	3.6	1.51e+00	0	46	104	1048576	60	206407
2026-01-29 11:52:23.77	265.89	8.04	-57.9	-74.4	3.6	1.51e+00	0	46	104	1048576	60	205266
2026-01-29 11:52:24.78	266.04	8.07	-57.9	-74.3	3.6	1.51e+00	0	46	104	1048576	60	204171
2026-01-29 11:52:25.78	266.20	8.10	-58.0	-74.4	3.6	1.51e+00	0	46	104	1048576	60	205700
2026-01-29 11:52:26.78	266.35	8.14	-58.9	-75.2	3.6	1.51e+00	0	46	104	1048576	60	225941
2026-01-29 11:52:27.78	266.50	8.17	-58.7	-75.1	3.6	1.51e+00	0	46	104	1048576	60	224152
2026-01-29 11:52:28.79	266.66	8.20	-58.5	-74.9	3.6	1.51e+00	0	46	104	1048576	60	217581
2026-01-29 11:52:29.80	266.82	8.23	-58.5	-74.9	3.6	1.51e+00	0	46	104	1048576	60	216823
2026-01-29 11:52:30.80	266.97	8.27	-58.5	-74.8	3.6	1.51e+00	0	46	104	1048576	60	215593
2026-01-29 11:52:31.81	267.13	8.30	-58.5	-74.9	3.6	1.51e+00	0	46	104	1048576	60	217925
2026-01-29 11:52:32.81	267.29	8.33	-58.4	-74.8	3.6	1.51e+00	0	46	104	1048576	60	214777
2026-01-29 11:52:33.82	267.44	8.36	-58.1	-74.5	3.6	1.51e+00	0	46	104	1048576	60	208086
2026-01-29 11:52:34.82	267.60	8.39	-58.8	-75.3	3.6	1.51e+00	0	46	104	1048576	60	227710
2026-01-29 11:52:35.82	267.76	8.42	-58.6	-75.0	3.6	1.51e+00	0	46	104	1048576	60	219620
2026-01-29 11:52:36.83	267.92	8.46	-58.5	-74.9	3.6	1.51e+00	0	46	104	1048576	60	216931
2026-01-29 11:52:37.83	268.07	8.49	-58.4	-74.8	3.6	1.51e+00	0	46	104	1048576	60	216193
2026-01-29 11:52:38.84	268.23	8.52	-58.4	-74.8	3.6	1.51e+00	0	46	104	1048576	60	215781
2026-01-29 11:52:39.84	268.39	8.55	-58.3	-74.8	3.6	1.51e+00	0	46	104	1048576	60	215131
2026-01-29 11:52:40.85	268.55	8.58	-58.2	-74.7	3.6	1.51e+00	0	46	104	1048576	60	213039
2026-01-29 11:52:41.86	268.71	8.61	-57.7	-74.4	3.6	1.51e+00	0	46	104	1048576	60	205989
2026-01-29 11:52:42.86	268.87	8.64	-58.9	-75.4	3.6	1.51e+00	0	46	104	1048576	60	229667
2026-01-29 11:52:43.87	269.03	8.67	-58.3	-74.7	3.6	1.51e+00	0	46	104	1048576	60	212625
2026-01-29 11:52:44.87	269.19	8.70	-57.8	-74.4	3.6	1.51e+00	0	46	104	1048576	60	206544
2026-01-29 11:52:45.87	269.35	8.73	-57.9	-74.5	3.6	1.51e+00	0	46	104	1048576	60	206933
2026-01-29 11:52:46.87	269.51	8.76	-58.0	-74.4	3.6	1.51e+00	0	46	104	1048576	60	206625
2026-01-29 11:52:47.88	269.68	8.79	-58.0	-74.4	3.6	1.51e+00	0	46	104	1048576	60	205567
2026-01-29 11:52:48.89	269.84	8.82	-57.9	-74.4	3.6	1.51e+00	0	46	104	1048576	60	204877
2026-01-29 11:52:49.90	270.00	8.85	-57.9	-74.3	3.6	1.51e+00	0	46	104	1048576	60	204253
2026-01-29 11:52:50.91	270.17	8.88	-58.8	-75.2	3.6	1.51e+00	0	46	104	1048576	60	226626
2026-01-29 11:52:51.91	270.33	8.91	-57.9	-74.5	3.6	1.51e+00	0	46	104	1048576	60	207184
2026-01-29 11:52:52.92	270.49	8.94	-58.0	-74.4	3.6	1.51e+00	0	46	104	1048576	60	206573
2026-01-29 11:52:53.93	270.66	8.97	-57.9	-74.4	3.6	1.51e+00	0	46	104	1048576	60	206024
2026-01-29 11:52:54.94	270.82	8.99	-57.9	-74.4	3.6	1.51e+00	0	46	104	1048576	60	204931
2026-01-29 11:52:55.95	270.99	9.02	-57.8	-74.3	3.6	1.51e+00	0	46	104	1048576	60	203834
2026-01-29 11:52:56.96	271.15	9.05	-55.7	-73.9	3.6	1.51e+00	0	46	104	1048576	60	193844
2026-01-29 11:52:57.96	271.32	9.08	-57.6	-74.2	3.6	1.51e+00	0	46	104	1048576	60	201731
2026-01-29 11:52:58.97	271.48	9.11	-58.6	-75.1	3.6	1.51e+00	0	46	104	1048576	60	222816
2026-01-29 11:52:59.98	271.65	9.13	-53.8	-73.8	3.6	1.51e+00	0	46	104	1048576	60	191058
2026-01-29 11:53:00.99	271.81	9.16	-57.7	-74.5	3.6	1.51e+00	0	46	104	1048576	60	207039
2026-01-29 11:53:01.99	271.98	9.19	-53.5	-73.6	3.6	1.51e+00	0	46	104	1048576	60	187876
2026-01-29 11:53:03.00	272.15	9.22	-54.4	-73.6	3.6	1.51e+00	0	46	104	1048576	60	186646
2026-01-29 11:53:04.01	272.31	9.24	-55.3	-73.6	3.6	1.51e+00	0	46	104	1048576	60	188114
2026-01-29 11:53:05.02	272.48	9.27	-56.5	-73.6	3.6	1.51e+00	0	46	104	1048576	60	186539
2026-01-29 11:53:06.02	272.65	9.30	-55.4	-73.5	3.6	1.51e+00	0	46	104	1048576	60	184419
2026-01-29 11:53:07.03	272.82	9.32	-55.4	-74.8	3.6	1.51e+00	0	46	104	1048576	60	215238
2026-01-29 11:53:08.04	272.98	9.35	-57.3	-74.0	3.6	1.51e+00	0	46	104	1048576	60	196597
2026-01-29 11:53:09.05	273.15	9.38	-52.2	-73.9	3.6	1.51e+00	0	46	104	1048576	60	193248
2026-01-29 11:53:10.05	273.32	9.40	-56.2	-74.2	3.6	1.51e+00	0	46	104	1048576	60	201097
2026-01-29 11:53:11.05	273.49	9.43	-56.8	-74.1	3.6	1.51e+00	0	46	104	1048576	60	197940
2026-01-29 11:53:12.06	273.66	9.45	-57.2	-74.1	3.6	1.51e+00	0	46	104	1048576	60	198278
2026-01-29 11:53:13.07	273.83	9.48	-56.5	-74.1	3.6	1.51e+00	0	46	104	1048576	60	198467
2026-01-29 11:53:14.07	274.00	9.50	-56.4	-74.0	3.6	1.51e+00	0	46	104	1048576	60	197372
2026-01-29 11:53:15.08	274.17	9.53	-58.6	-75.1	3.6	1.51e+00	0	46	104	1048576	60	222963
2026-01-29 11:53:16.09	274.34	9.55	-59.4	-76.0	3.6	1.51e+00	0	46	104	1048576	60	248183
2026-01-29 11:53:17.10	274.51	9.58	-60.0	-76.5	3.6	1.51e+00	0	46	104	1048576	60	260801
2026-01-29 11:53:18.11	274.68	9.60	-60.3	-76.9	3.6	1.51e+00	0	46	104	1048576	60	274115
2026-01-29 11:53:19.12	274.85	9.62	-60.6	-77.2	3.6	1.51e+00	0	46	104	1048576	60	282681
2026-01-29 11:53:20.13	275.02	9.65	-60.4	-77.2	3.6	1.51e+00	0	46	104	1048576	60	285426
2026-01-29 11:53:21.13	275.19	9.67	-60.6	-77.7	3.6	1.51e+00	0	46	104	1048576	60	299083
2026-01-29 11:53:22.14	275.37	9.70	-61.4	-77.9	3.6	1.51e+00	0	46	104	1048576	60	308115
2026-01-29 11:53:23.15	275.54	9.72	-60.8	-78.0	3.6	1.51e+00	0	46	104	1048576	60	309676
2026-01-29 11:53:24.16	275.71	9.74	-61.7	-78.2	3.6	1.51e+00	0	46	104	1048576	60	317944
2026-01-29 11:53:25.16	275.88	9.77	-61.0	-78.1	3.6	1.51e+00	0	46	104	1048576	60	315585
2026-01-29 11:53:26.17	276.06	9.79	-61.1	-78.1	3.6	1.51e+00	0	46	104	1048576	60	316456
2026-01-29 11:53:27.18	276.23	9.81	-61.1	-78.2	3.6	1.51e+00	0	46	104	1048576	60	316987
2026-01-29 11:53:28.19	276.41	9.83	-61.1	-78.3	3.6	1.51e+00	0	46	104	1048576	60	323192
2026-01-29 11:53:29.19	276.58	9.85	-61.5	-78.5	3.6	1.51e+00	0	46	104	1048576	60	331084
2026-01-29 11:53:30.20	276.75	9.88	-60.2	-78.4	3.6	1.51e+00	0	46	104	1048576	60	325875
2026-01-29 11:53:31.21	276.93	9.90	-61.4	-78.6	3.6	1.51e+00	0	46	104	1048576	60	335200
2026-01-29 11:53:32.22	277.10	9.92	-62.1	-78.7	3.6	1.51e+00	0	46	104	1048576	60	337940
2026-01-29 11:53:33.22	277.28	9.94	-62.0	-78.6	3.6	1.51e+00	0	46	104	1048576	60	333969
2026-01-29 11:53:34.23	277.45	9.96	-62.0	-78.6	3.6	1.51e+00	0	46	104	1048576	60	333328
2026-01-29 11:53:35.24	277.63	9.98	-61.9	-78.6	3.6	1.51e+00	0	46	104	1048576	60	332962
2026-01-29 11:53:36.24	277.80	10.00	-62.0	-78.6	3.6	1.51e+00	0	46	104	1048576	60	332643
2026-01-29 11:53:37.25	277.98	10.02	-62.1	-78.7	3.6	1.51e+00	0	46	104	1048576	60	335802
2026-01-29 11:53:38.26	278.15	10.04	-59.9	-78.4	3.6	1.51e+00	0	46	104	1048576	60	326082
2026-01-29 11:53:39.26	278.33	10.06	-59.6	-78.1	3.6	1.51e+00	0	46	104	1048576	60	315033
2026-01-29 11:53:40.27	278.51	10.08	-60.8	-78.6	3.6	1.51e+00	0	46	104	1048576	60	334431
2026-01-29 11:53:41.27	278.68	10.10	-60.9	-78.7	3.6	1.51e+00	0	46	104	1048576	60	338246
2026-01-29 11:53:42.28	278.86	10.12	-61.0	-78.7	3.6	1.51e+00	0	46	104	1048576	60	337916
2026-01-29 11:53:43.29	279.04	10.14	-60.9	-78.6	3.6	1.51e+00	0	46	104	1048576	60	332539
2026-01-29 11:53:44.30	279.21	10.16	-60.9	-78.6	3.6	1.51e+00	0	46	104	1048576	60	333363
2026-01-29 11:53:45.30	279.39	10.18	-60.9	-78.7	3.6	1.51e+00	0	46	104	1048576	60	336421
2026-01-29 11:53:46.31	279.57	10.20	-61.0	-78.5	3.6	1.51e+00	0	46	104	1048576	60	330119
2026-01-29 11:53:47.31	279.74	10.21	-60.9	-78.7	3.6	1.51e+00	0	46	104	1048576	60	336450
2026-01-29 11:53:48.31	279.92	10.23	-60.9	-78.7	3.6	1.51e+00	0	46	104	1048576	60	336094
2026-01-29 11:53:49.31	280.10	10.25	-60.9	-78.5	3.6	1.51e+00	0	46	104	1048576	60	331074
2026-01-29 11:53:50.31	280.28	10.27	-60.9	-78.6	3.6	1.51e+00	0	46	104	1048576	60	333389
2026-01-29 11:53:51.32	280.45	10.28	-60.9	-78.5	3.6	1.51e+00	0	46	104	1048576	60	330897
2026-01-29 11:53:52.32	280.63	10.30	-60.8	-78.6	3.5	1.51e+00	0	46	104	1048576	60	332053
2026-01-29 11:53:53.33	280.81	10.32	-60.9	-78.6	3.6	1.51e+00	0	46	104	1048576	60	332157
2026-01-29 11:53:54.34	280.99	10.33	-60.8	-78.5	3.6	1.51e+00	0	46	104	1048576	60	330463
2026-01-29 11:53:55.35	281.17	10.35	-60.2	-78.5	3.6	1.51e+00	0	46	104	1048576	60	329036
2026-01-29 11:53:56.35	281.35	10.37	-59.2	-78.4	3.6	1.51e+00	0	46	104	1048576	60	327741
2026-01-29 11:53:57.36	281.53	10.38	-59.2	-78.4	3.6	1.51e+00	0	46	104	1048576	60	327374
2026-01-29 11:53:58.36	281.71	10.40	-59.8	-78.8	3.6	1.51e+00	0	46	104	1048576	60	341648
2026-01-29 11:53:59.37	281.89	10.41	-60.1	-78.9	3.6	1.51e+00	0	46	104	1048576	60	345291
2026-01-29 11:54:00.38	282.07	10.43	-60.3	-78.7	3.6	1.51e+00	0	46	104	1048576	60	338708
2026-01-29 11:54:01.39	282.25	10.44	-59.5	-78.5	3.6	1.51e+00	0	46	104	1048576	60	329819
2026-01-29 11:54:02.39	282.43	10.46	-59.6	-78.3	3.6	1.51e+00	0	46	104	1048576	60	320469
2026-01-29 11:54:03.39	282.61	10.47	-60.0	-78.3	3.6	1.51e+00	0	46	104	1048576	60	322057
2026-01-29 11:54:04.40	282.79	10.49	-59.8	-78.1	3.6	1.51e+00	0	46	104	1048576	60	313489
2026-01-29 11:54:05.40	282.97	10.50	-60.7	-78.2	3.6	1.51e+00	0	46	104	1048576	60	317759
2026-01-29 11:54:06.41	283.16	10.51	-61.0	-78.1	3.6	1.51e+00	0	46	104	1048576	60	314493
2026-01-29 11:54:07.41	283.34	10.53	-60.7	-77.6	3.5	1.51e+00	0	46	104	1048576	60	297058
2026-01-29 11:54:08.42	283.52	10.54	-60.8	-77.6	3.6	1.51e+00	0	46	104	1048576	60	295849
2026-01-29 11:54:09.42	283.70	10.55	-60.8	-77.3	3.6	1.51e+00	0	46	104	1048576	60	286946
2026-01-29 11:54:10.42	283.88	10.56	-59.9	-67.8	5.6	1.51e+00	0	46	104	1048576	60	96286
2026-01-29 11:54:11.43	284.06	10.58	-57.8	-61.4	14.1	0.00e+00	0	46	104	1048576	60	46171
2026-01-29 11:54:12.43	284.24	10.59	-57.9	-61.5	14.4	1.50e-06	0	46	0	1048576	60	46723
2026-01-29 11:54:13.43	284.42	10.60	-59.5	-67.3	6.9	1.44e-05	0	46	0	3145728	60	90553
2026-01-29 11:54:14.43	284.61	10.61	-59.8	-70.8	4.9	1.51e+00	0	46	104	3145728	60	135796
2026-01-29 11:54:15.44	284.79	10.62	-58.7	-63.7	11.8	2.89e-02	0	46	104	3145728	60	60065
2026-01-29 11:54:16.45	284.97	10.63	-58.2	-62.1	13.9	7.41e-02	0	46	0	1048576	60	50007
2026-01-29 11:54:17.46	285.16	10.65	-59.8	-66.9	8.4	9.29e-02	0	46	0	3145728	60	87161
2026-01-29 11:54:18.46	285.34	10.66	-58.4	-62.7	13.0	8.20e-04	0	46	0	5242880	60	53446
2026-01-29 11:54:19.47	285.52	10.67	-58.4	-62.7	12.9	3.43e-05	0	46	0	6291456	60	53756
2026-01-29 11:54:20.47	285.70	10.68	-58.6	-63.3	12.5	1.06e-04	0	46	0	8388608	60	57033
2026-01-29 11:54:21.47	285.89	10.69	-58.4	-62.8	13.0	5.03e-05	0	46	0	10485760	60	54364
2026-01-29 11:54:22.48	286.07	10.70	-58.1	-62.0	13.8	4.19e-05	0	46	0	12582912	60	49595
2026-01-29 11:54:23.49	286.25	10.70	-58.0	-61.8	14.0	3.80e-06	0	46	0	13631488	60	48271
2026-01-29 11:54:24.49	286.44	10.71	-57.6	-61.1	14.9	0.00e+00	0	46	0	15728640	60	44336
2026-01-29 11:54:25.49	286.62	10.72	-57.1	-60.2	15.6	0.00e+00	0	46	0	17825792	60	40250
2026-01-29 11:54:26.50	286.80	10.73	-57.1	-60.1	15.6	0.00e+00	0	46	0	19922944	60	39836
2026-01-29 11:54:27.50	286.99	10.74	-57.0	-60.2	15.7	0.00e+00	0	46	0	22020096	60	39890
2026-01-29 11:54:28.50	287.17	10.75	-57.0	-60.0	15.7	0.00e+00	0	46	0	23068672	60	39288
2026-01-29 11:54:29.50	287.35	10.76	-57.3	-60.7	15.3	0.00e+00	0	46	0	25165824	60	42330
2026-01-29 11:54:30.51	287.54	10.76	-57.4	-60.9	14.9	0.00e+00	0	46	0	27262976	60	43522
2026-01-29 11:54:31.50	287.72	10.77	-57.4	-61.0	14.8	0.00e+00	0	46	0	29360128	60	43850
2026-01-29 11:54:32.51	287.90	10.78	-57.6	-61.6	14.7	0.00e+00	0	46	0	31457280	60	46882
2026-01-29 11:54:33.51	288.09	10.78	-57.4	-61.2	14.7	0.00e+00	0	46	0	33554432	60	44763
2026-01-29 11:54:34.52	288.27	10.79	-57.3	-60.9	14.9	0.00e+00	0	46	0	34603008	60	43594
2026-01-29 11:54:35.52	288.46	10.80	-57.2	-60.8	14.9	0.00e+00	0	46	0	36700160	60	43167
2026-01-29 11:54:36.52	288.64	10.80	-57.4	-61.4	14.3	0.00e+00	0	46	0	38797312	60	46028
2026-01-29 11:54:37.53	288.83	10.81	-57.4	-61.3	14.6	0.00e+00	0	46	0	40894464	60	45634
2026-01-29 11:54:38.54	289.01	10.81	-56.8	-60.1	15.8	0.00e+00	0	46	0	41943040	60	39569
2026-01-29 11:54:39.54	289.20	10.82	-56.3	-59.4	16.4	0.00e+00	0	46	0	44040192	60	36382
2026-01-29 11:54:40.55	289.38	10.82	-56.1	-59.0	16.7	0.00e+00	0	46	0	46137344	60	34951
2026-01-29 11:54:41.56	289.57	10.83	-56.1	-59.0	16.7	0.00e+00	0	46	0	48234496	60	34975
2026-01-29 11:54:42.57	289.75	10.83	-55.9	-58.6	17.1	0.00e+00	0	46	0	50331648	60	33379
2026-01-29 11:54:43.58	289.94	10.84	-55.8	-58.5	17.2	0.00e+00	0	46	0	51380224	60	32814
2026-01-29 11:54:44.58	290.12	10.84	-55.6	-58.1	17.5	0.00e+00	0	46	0	53477376	60	31538
2026-01-29 11:54:45.59	290.31	10.84	-55.5	-58.0	17.6	0.00e+00	0	46	0	55574528	60	31267
2026-01-29 11:54:46.59	290.49	10.85	-55.6	-58.0	17.7	0.00e+00	0	46	0	57671680	60	31103
2026-01-29 11:54:47.60	290.68	10.85	-55.7	-58.2	17.6	0.00e+00	0	46	0	59768832	60	31770
2026-01-29 11:54:48.60	290.86	10.85	-55.7	-58.2	17.5	0.00e+00	0	46	0	60817408	60	31926
2026-01-29 11:54:49.60	291.05	10.86	-55.8	-58.2	17.5	0.00e+00	0	46	0	62914560	60	31939
2026-01-29 11:54:50.61	291.23	10.86	-55.8	-58.3	17.4	0.00e+00	0	46	0	65011712	60	32162
2026-01-29 11:54:51.62	291.42	10.86	-55.8	-58.2	17.6	0.00e+00	0	46	0	67108864	60	31684
2026-01-29 11:54:52.62	291.60	10.86	-55.7	-58.0	17.8	0.00e+00	0	46	0	69206016	60	30966
2026-01-29 11:54:53.63	291.79	10.86	-55.5	-57.8	18.1	0.00e+00	0	46	0	70254592	60	30249
2026-01-29 11:54:54.64	291.98	10.86	-55.4	-57.6	18.3	0.00e+00	0	46	0	72351744	60	29555
2026-01-29 11:54:55.64	292.16	10.87	-55.4	-57.5	18.4	0.00e+00	0	46	0	74448896	60	29524
2026-01-29 11:54:56.64	292.34	10.87	-55.5	-57.7	18.2	0.00e+00	0	46	0	76546048	60	30072
2026-01-29 11:54:57.65	292.53	10.87	-55.6	-57.8	18.0	0.00e+00	0	46	0	78643200	60	30523
2026-01-29 11:54:58.66	292.72	10.87	-55.5	-57.7	18.2	0.00e+00	0	46	0	79691776	60	29958
2026-01-29 11:54:59.67	292.90	10.87	-55.6	-57.8	18.1	0.00e+00	0	46	0	81788928	60	30322
2026-01-29 11:55:00.67	293.09	10.87	-55.6	-57.9	18.1	0.00e+00	0	46	0	83886080	60	30680
2026-01-29 11:55:01.68	293.27	10.87	-55.5	-57.7	18.2	0.00e+00	0	46	0	85983232	60	30172
2026-01-29 11:55:02.69	293.46	10.86	-55.4	-57.5	18.3	0.00e+00	0	46	0	88080384	60	29515
2026-01-29 11:55:03.69	293.64	10.86	-55.1	-57.2	18.7	0.00e+00	0	46	0	89128960	60	28454
2026-01-29 11:55:04.69	293.83	10.86	-55.1	-57.2	18.6	0.00e+00	0	46	0	91226112	60	28271
2026-01-29 11:55:05.70	294.01	10.86	-54.8	-56.9	18.8	0.00e+00	0	46	0	93323264	60	27383
2026-01-29 11:55:06.71	294.20	10.86	-54.9	-57.0	18.8	0.00e+00	0	46	0	95420416	60	27597
2026-01-29 11:55:07.71	294.38	10.86	-54.9	-57.0	18.5	0.00e+00	0	46	0	97517568	60	27772
2026-01-29 11:55:08.72	294.57	10.85	-54.8	-57.0	18.7	0.00e+00	0	46	0	98566144	60	27685
2026-01-29 11:55:09.72	294.75	10.85	-54.8	-56.9	18.7	0.00e+00	0	46	0	100663296	60	27455
2026-01-29 11:55:10.73	294.94	10.85	-54.8	-56.9	18.7	0.00e+00	0	46	0	102760448	60	27518
2026-01-29 11:55:11.73	295.12	10.84	-54.7	-56.7	18.9	0.00e+00	0	46	0	104857600	60	26899
2026-01-29 11:55:12.74	295.31	10.84	-54.7	-56.7	18.9	0.00e+00	0	46	0	106954752	60	26784
2026-01-29 11:55:13.74	295.49	10.84	-54.6	-56.5	19.1	0.00e+00	0	46	0	108003328	60	26288
2026-01-29 11:55:14.75	295.68	10.83	-54.6	-56.6	19.0	0.00e+00	0	46	0	110100480	60	26385
2026-01-29 11:55:15.76	295.87	10.83	-54.7	-56.7	18.9	0.00e+00	0	46	0	112197632	60	26755
2026-01-29 11:55:16.76	296.05	10.82	-54.7	-56.7	18.9	0.00e+00	0	46	0	114294784	60	26849
2026-01-29 11:55:17.77	296.24	10.82	-54.9	-56.9	18.8	0.00e+00	0	46	0	116391936	60	27408
2026-01-29 11:55:18.78	296.42	10.81	-55.1	-57.1	18.5	0.00e+00	0	46	0	117440512	60	28108
2026-01-29 11:55:19.78	296.60	10.81	-55.2	-57.2	18.6	0.00e+00	0	46	0	119537664	60	28382
2026-01-29 11:55:20.79	296.79	10.80	-55.3	-57.3	18.5	0.00e+00	0	46	0	121634816	60	28869
2026-01-29 11:55:21.79	296.97	10.80	-55.3	-57.3	18.5	0.00e+00	0	46	0	123731968	60	28559
2026-01-29 11:55:22.80	297.16	10.79	-55.1	-57.1	18.6	0.00e+00	0	46	0	125829120	60	28013
2026-01-29 11:55:23.80	297.34	10.79	-55.1	-57.0	18.7	0.00e+00	0	46	0	126877696	60	27844
2026-01-29 11:55:24.80	297.52	10.78	-55.0	-56.9	18.8	0.00e+00	0	46	0	128974848	60	27570
2026-01-29 11:55:25.80	297.71	10.77	-54.9	-56.8	18.8	0.00e+00	0	46	0	131072000	60	26957
2026-01-29 11:55:26.81	297.89	10.76	-54.9	-56.8	18.8	0.00e+00	0	46	0	133169152	60	27125
2026-01-29 11:55:27.82	298.08	10.76	-54.9	-56.8	18.7	0.00e+00	0	46	0	135266304	60	27170
2026-01-29 11:55:28.82	298.26	10.75	-54.9	-57.0	18.7	0.00e+00	0	46	0	136314880	60	27634
2026-01-29 11:55:29.83	298.45	10.74	-54.8	-56.8	18.8	0.00e+00	0	46	0	138412032	60	27201
2026-01-29 11:55:30.84	298.63	10.73	-54.8	-56.9	18.7	0.00e+00	0	46	0	140509184	60	27399
2026-01-29 11:55:31.84	298.81	10.72	-54.8	-56.9	18.8	0.00e+00	0	46	0	142606336	60	27327
2026-01-29 11:55:32.84	298.99	10.72	-54.7	-56.7	18.9	0.00e+00	0	46	0	144703488	60	26705
2026-01-29 11:55:33.84	299.18	10.71	-54.5	-56.5	19.2	0.00e+00	0	46	0	145752064	60	26038
2026-01-29 11:55:34.85	299.36	10.70	-54.4	-56.3	19.1	0.00e+00	0	46	0	147849216	60	25726
2026-01-29 11:55:35.86	299.55	10.69	-54.5	-56.5	19.1	0.00e+00	0	46	0	149946368	60	26109
2026-01-29 11:55:36.86	299.73	10.68	-54.4	-56.3	19.2	0.00e+00	0	46	0	152043520	60	25578
2026-01-29 11:55:37.87	299.91	10.67	-54.5	-56.3	19.2	0.00e+00	0	46	0	154140672	60	25670
2026-01-29 11:55:38.88	300.09	10.66	-54.6	-56.4	19.1	0.00e+00	0	46	0	155189248	60	26029
2026-01-29 11:55:39.88	300.28	10.65	-54.7	-56.6	19.1	0.00e+00	0	46	0	157286400	60	26397
2026-01-29 11:55:40.89	300.46	10.64	-54.7	-56.6	19.0	0.00e+00	0	46	0	159383552	60	26531
2026-01-29 11:55:41.89	300.64	10.63	-54.7	-56.5	19.1	0.00e+00	0	46	0	161480704	60	26264
2026-01-29 11:55:42.90	300.82	10.61	-54.8	-56.6	19.0	0.00e+00	0	46	0	162529280	60	26588
2026-01-29 11:55:43.91	301.01	10.60	-54.5	-56.2	19.4	0.00e+00	0	46	0	164626432	60	25391
2026-01-29 11:55:44.92	301.19	10.59	-54.3	-56.0	19.5	0.00e+00	0	46	0	166723584	60	24801
2026-01-29 11:55:45.92	301.37	10.58	-54.1	-55.8	19.8	0.00e+00	0	46	0	168820736	60	24038
2026-01-29 11:55:46.93	301.55	10.57	-54.0	-55.6	19.9	0.00e+00	0	46	0	170917888	60	23714
2026-01-29 11:55:47.93	301.73	10.55	-54.0	-55.7	19.8	0.00e+00	0	46	0	173015040	60	23869
2026-01-29 11:55:48.93	301.91	10.54	-53.9	-55.6	19.9	0.00e+00	0	46	0	174063616	60	23485
2026-01-29 11:55:49.94	302.10	10.53	-54.1	-55.8	19.8	0.00e+00	0	46	0	176160768	60	24216
2026-01-29 11:55:50.94	302.28	10.52	-54.2	-55.9	19.6	0.00e+00	0	46	0	178257920	60	24341
2026-01-29 11:55:51.95	302.46	10.50	-54.4	-56.2	19.3	0.00e+00	0	46	0	180355072	60	25198
2026-01-29 11:55:52.95	302.64	10.49	-54.5	-56.3	19.3	0.00e+00	0	46	0	182452224	60	25498
2026-01-29 11:55:53.95	302.82	10.47	-54.5	-56.3	19.3	0.00e+00	0	46	0	183500800	60	25622
2026-01-29 11:55:54.96	303.00	10.46	-54.5	-56.3	19.3	0.00e+00	0	46	0	185597952	60	25716
2026-01-29 11:55:55.96	303.18	10.45	-54.5	-56.3	19.4	0.00e+00	0	46	0	187695104	60	25572
2026-01-29 11:55:56.97	303.36	10.43	-54.5	-56.3	19.4	0.00e+00	0	46	0	189792256	60	25566
2026-01-29 11:55:57.98	303.54	10.42	-54.4	-56.1	19.5	0.00e+00	0	46	0	190840832	60	24946
2026-01-29 11:55:58.98	303.72	10.40	-54.5	-56.2	19.5	0.00e+00	0	46	0	192937984	60	25353
2026-01-29 11:55:59.99	303.90	10.39	-54.5	-56.2	19.3	0.00e+00	0	46	0	195035136	60	25403
2026-01-29 11:56:01.00	304.08	10.37	-54.5	-56.3	19.3	0.00e+00	0	46	0	197132288	60	25505
2026-01-29 11:56:02.01	304.26	10.35	-54.7	-56.5	19.1	0.00e+00	0	46	0	199229440	60	26213
2026-01-29 11:56:03.01	304.43	10.34	-54.6	-56.5	19.1	0.00e+00	0	46	0	201326592	60	26073
2026-01-29 11:56:04.02	304.61	10.32	-54.7	-56.6	19.1	0.00e+00	0	46	0	202375168	60	26487
2026-01-29 11:56:05.03	304.79	10.30	-54.7	-56.6	18.9	0.00e+00	0	46	0	204472320	60	26496
2026-01-29 11:56:06.04	304.97	10.29	-54.8	-56.7	18.8	0.00e+00	0	46	0	206569472	60	26849
2026-01-29 11:56:07.05	305.15	10.27	-54.8	-56.7	18.8	0.00e+00	0	46	0	208666624	60	26922
2026-01-29 11:56:08.06	305.33	10.25	-54.7	-56.6	18.9	0.00e+00	0	46	0	210763776	60	26561
2026-01-29 11:56:09.07	305.51	10.24	-54.8	-56.6	19.0	0.00e+00	0	46	0	211812352	60	26604
2026-01-29 11:56:10.08	305.69	10.22	-54.8	-56.8	18.8	0.00e+00	0	46	0	213909504	60	27003
2026-01-29 11:56:11.08	305.86	10.20	-54.9	-56.9	18.7	0.00e+00	0	46	0	216006656	60	27299
2026-01-29 11:56:12.09	306.04	10.18	-55.0	-57.0	18.5	0.00e+00	0	46	0	218103808	60	27874
2026-01-29 11:56:13.10	306.22	10.16	-55.1	-57.1	18.4	0.00e+00	0	46	0	219152384	60	28078
2026-01-29 11:56:14.11	306.40	10.14	-55.3	-57.5	18.0	0.00e+00	0	46	0	221249536	60	29424
2026-01-29 11:56:15.12	306.57	10.13	-55.4	-57.7	17.7	0.00e+00	0	46	0	223346688	60	29971
2026-01-29 11:56:16.12	306.75	10.11	-55.5	-57.8	17.5	0.00e+00	0	46	0	225443840	60	30586
2026-01-29 11:56:17.13	306.92	10.09	-55.6	-58.0	17.4	0.00e+00	0	46	0	227540992	60	31234
2026-01-29 11:56:18.14	307.10	10.07	-55.5	-58.1	17.2	0.00e+00	0	46	0	229638144	60	31352
2026-01-29 11:56:19.15	307.28	10.05	-55.5	-58.0	17.3	0.00e+00	0	46	0	230686720	60	31147
2026-01-29 11:56:20.16	307.45	10.03	-55.3	-57.8	17.4	0.00e+00	0	46	0	232783872	60	30432
2026-01-29 11:56:21.16	307.63	10.01	-55.3	-57.7	17.5	0.00e+00	0	46	0	234881024	60	30166
2026-01-29 11:56:22.17	307.80	9.99	-55.3	-57.7	17.5	0.00e+00	0	46	0	236978176	60	30095
2026-01-29 11:56:23.18	307.98	9.97	-55.1	-57.5	17.6	0.00e+00	0	46	0	239075328	60	29421
2026-01-29 11:56:24.19	308.15	9.95	-55.1	-57.5	17.4	0.00e+00	0	46	0	240123904	60	29427
2026-01-29 11:56:25.19	308.33	9.93	-54.9	-57.2	17.7	0.00e+00	0	46	0	242221056	60	28455
2026-01-29 11:56:26.20	308.50	9.90	-54.9	-57.3	17.6	0.00e+00	0	46	0	244318208	60	28798
2026-01-29 11:56:27.21	308.68	9.88	-54.8	-57.2	17.7	0.00e+00	0	46	0	246415360	60	28390
2026-01-29 11:56:28.22	308.85	9.86	-54.8	-57.2	17.7	0.00e+00	0	46	0	248512512	60	28398
2026-01-29 11:56:29.23	309.02	9.84	-54.7	-57.1	17.8	0.00e+00	0	46	0	249561088	60	28057
2026-01-29 11:56:30.24	309.20	9.82	-54.7	-57.1	17.8	0.00e+00	0	46	0	251658240	60	28132
2026-01-29 11:56:31.24	309.37	9.79	-54.6	-56.9	18.1	0.00e+00	0	46	0	253755392	60	27290
2026-01-29 11:56:32.24	309.54	9.77	-54.6	-56.9	18.0	0.00e+00	0	46	0	255852544	60	27405
2026-01-29 11:56:33.25	309.71	9.75	-54.6	-56.9	18.0	0.00e+00	0	46	0	257949696	60	27330
2026-01-29 11:56:34.25	309.88	9.73	-54.6	-57.0	17.8	0.00e+00	0	46	0	258998272	60	27639
2026-01-29 11:56:35.27	310.06	9.70	-54.9	-57.3	17.4	0.00e+00	0	46	0	261095424	60	28808
2026-01-29 11:56:36.27	310.23	9.68	-55.1	-57.6	17.2	0.00e+00	0	46	0	263192576	60	29773
2026-01-29 11:56:37.28	310.40	9.66	-55.1	-57.7	17.0	0.00e+00	0	46	0	265289728	60	30167
2026-01-29 11:56:38.29	310.57	9.63	-55.3	-58.0	16.7	0.00e+00	0	46	0	267386880	60	31218
2026-01-29 11:56:39.30	310.74	9.61	-55.5	-58.2	16.5	0.00e+00	0	46	0	268435456	60	31793
2026-01-29 11:56:40.31	310.91	9.58	-55.6	-58.3	16.3	0.00e+00	0	46	0	270532608	60	32291
2026-01-29 11:56:41.32	311.08	9.56	-55.6	-58.4	16.2	0.00e+00	0	46	0	272629760	60	32752
2026-01-29 11:56:42.33	311.25	9.54	-55.6	-58.5	16.1	0.00e+00	0	46	0	274726912	60	32859
2026-01-29 11:56:43.33	311.42	9.51	-55.7	-58.7	15.9	0.00e+00	0	46	0	276824064	60	33690
2026-01-29 11:56:44.34	311.59	9.49	-55.7	-58.8	15.8	0.00e+00	0	46	0	277872640	60	34000
2026-01-29 11:56:45.34	311.76	9.46	-55.7	-58.8	15.7	0.00e+00	0	46	0	279969792	60	34118
2026-01-29 11:56:46.35	311.93	9.44	-55.8	-58.9	15.6	0.00e+00	0	46	0	282066944	60	34402
2026-01-29 11:56:47.35	312.10	9.41	-55.8	-59.0	15.4	0.00e+00	0	46	0	284164096	60	34955
2026-01-29 11:56:48.36	312.26	9.38	-55.9	-59.2	15.2	0.00e+00	0	46	0	286261248	60	35880
2026-01-29 11:56:49.37	312.43	9.36	-55.9	-59.2	15.1	0.00e+00	0	46	0	287309824	60	35835
2026-01-29 11:56:50.38	312.60	9.33	-56.1	-59.5	14.8	0.00e+00	0	46	0	289406976	60	37122
2026-01-29 11:56:51.39	312.77	9.31	-56.3	-59.9	14.5	7.00e-07	0	46	0	291504128	60	38577
2026-01-29 11:56:52.39	312.93	9.28	-56.4	-60.1	14.2	1.50e-06	0	46	0	293601280	60	39806
2026-01-29 11:56:53.40	313.10	9.25	-56.5	-60.4	14.0	3.00e-06	0	46	0	295698432	60	40959
2026-01-29 11:56:54.41	313.27	9.23	-56.5	-60.2	14.1	3.00e-06	0	46	0	297795584	60	40067
2026-01-29 11:56:55.41	313.43	9.20	-56.5	-60.3	14.1	2.20e-06	0	46	0	298844160	60	40463
2026-01-29 11:56:56.42	313.60	9.17	-56.4	-60.1	14.1	0.00e+00	0	46	0	300941312	60	39743
2026-01-29 11:56:57.43	313.77	9.15	-56.4	-60.2	14.1	1.50e-06	0	46	0	303038464	60	39946
2026-01-29 11:56:58.43	313.93	9.12	-56.5	-60.3	13.9	3.80e-06	0	46	0	305135616	60	40559
2026-01-29 11:56:59.45	314.10	9.09	-56.5	-60.3	13.9	7.00e-07	0	46	0	306184192	60	40781
2026-01-29 11:57:00.45	314.26	9.06	-56.5	-60.4	13.6	4.50e-06	0	46	0	308281344	60	41261
2026-01-29 11:57:01.46	314.42	9.03	-56.7	-60.8	13.4	8.30e-06	0	46	0	310378496	60	42719
2026-01-29 11:57:02.47	314.59	9.01	-56.8	-61.1	13.0	1.90e-05	0	46	0	312475648	60	44244
2026-01-29 11:57:03.47	314.75	8.98	-57.0	-61.4	12.6	7.85e-05	0	46	0	314572800	60	46047
2026-01-29 11:57:04.48	314.92	8.95	-57.1	-61.8	12.3	1.27e-04	0	46	0	315621376	60	48114
2026-01-29 11:57:05.48	315.08	8.92	-57.2	-62.0	12.0	2.49e-04	0	46	0	317718528	60	49336
2026-01-29 11:57:06.48	315.24	8.89	-57.1	-62.1	11.9	4.10e-04	0	46	0	319815680	60	49749
2026-01-29 11:57:07.49	315.40	8.86	-57.2	-62.3	11.6	5.39e-04	0	46	0	321912832	60	51304
2026-01-29 11:57:08.49	315.56	8.83	-57.2	-62.5	11.4	7.13e-04	0	46	0	324009984	60	51994
2026-01-29 11:57:09.50	315.72	8.81	-57.2	-62.6	11.3	9.85e-04	0	46	0	325058560	60	52699
2026-01-29 11:57:10.51	315.89	8.78	-57.3	-62.8	11.0	1.34e-03	0	46	0	327155712	60	54124
2026-01-29 11:57:11.52	316.05	8.75	-57.3	-62.8	11.0	1.80e-03	0	46	0	329252864	60	54032
2026-01-29 11:57:12.52	316.21	8.72	-57.4	-63.2	10.5	3.16e-03	0	46	0	331350016	60	56709
2026-01-29 11:57:13.53	316.37	8.69	-57.4	-63.4	10.2	4.39e-03	0	46	0	333447168	60	58262
2026-01-29 11:57:14.53	316.53	8.66	-57.4	-63.8	9.7	7.23e-03	0	46	0	334495744	60	60620
2026-01-29 11:57:15.54	316.69	8.63	-57.5	-64.2	9.3	1.13e-02	0	46	0	336592896	60	63529
2026-01-29 11:57:16.54	316.85	8.60	-57.5	-64.5	8.8	2.26e-02	0	46	0	338690048	60	66036
2026-01-29 11:57:17.55	317.01	8.57	-57.5	-65.0	8.4	3.12e-02	0	46	0	340787200	60	69537
2026-01-29 11:57:18.55	317.16	8.53	-57.6	-65.2	8.1	5.95e-02	0	46	0	342884352	60	71109
2026-01-29 11:57:19.56	317.32	8.50	-57.6	-65.6	7.6	7.31e-02	0	46	0	343932928	60	74534
2026-01-29 11:57:20.57	317.48	8.47	-57.6	-65.8	7.3	1.09e-01	0	46	0	346030080	60	76065
2026-01-29 11:57:21.58	317.64	8.44	-57.6	-66.0	7.1	1.20e-01	0	46	0	348127232	60	77962
2026-01-29 11:57:22.58	317.80	8.41	-57.6	-66.1	6.9	1.58e-01	0	46	0	350224384	60	79000
2026-01-29 11:57:23.59	317.95	8.38	-57.7	-66.3	6.7	1.76e-01	0	46	0	352321536	60	81142
2026-01-29 11:57:24.60	318.11	8.35	-57.7	-66.5	6.4	2.01e-01	0	46	0	353370112	60	82917
2026-01-29 11:57:25.60	318.27	8.32	-57.6	-66.9	5.8	2.50e-01	0	46	0	355467264	60	87134
2026-01-29 11:57:26.61	318.42	8.28	-58.0	-68.0	4.6	4.42e-01	0	46	0	357564416	60	98480
2026-01-29 11:57:27.62	318.58	8.25	-58.2	-71.0	4.2	1.50e+00	0	46	104	357564416	60	138738
2026-01-29 11:57:28.63	318.74	8.22	-58.0	-69.2	4.9	1.39e+00	0	46	104	357564416	60	112866
2026-01-29 11:57:29.64	318.89	8.19	-58.2	-72.1	3.7	1.50e+00	0	46	104	357564416	60	156926
2026-01-29 11:57:30.65	319.05	8.15	-58.1	-70.9	4.2	1.48e+00	0	46	104	357564416	60	137819
2026-01-29 11:57:31.65	319.20	8.12	-58.1	-69.5	4.0	1.23e+00	0	46	0	1048576	60	116590
2026-01-29 11:57:32.65	319.35	8.09	-58.2	-69.6	4.0	1.30e+00	0	46	0	2097152	60	118005
2026-01-29 11:57:33.66	319.51	8.06	-58.3	-69.4	4.1	1.22e+00	0	46	0	4194304	60	115770
2026-01-29 11:57:34.67	319.66	8.02	-58.3	-69.6	4.0	1.14e+00	0	46	0	6291456	60	118099
2026-01-29 11:57:35.67	319.81	7.99	-58.4	-69.7	4.0	1.16e+00	0	46	0	8388608	60	119074
2026-01-29 11:57:36.68	319.97	7.96	-58.4	-72.7	3.6	1.40e+00	0	46	104	8388608	60	168788
2026-01-29 11:57:37.69	320.12	7.92	-58.4	-71.5	3.7	1.51e+00	0	46	104	8388608	60	147439
2026-01-29 11:57:38.69	320.27	7.89	-58.3	-73.5	3.6	1.50e+00	0	46	104	8388608	60	185591
2026-01-29 11:57:39.70	320.42	7.86	-58.3	-71.8	3.9	1.51e+00	0	46	104	8388608	60	151859
2026-01-29 11:57:40.71	320.58	7.82	-58.5	-72.1	3.6	1.47e+00	0	46	104	8388608	60	158163
2026-01-29 11:57:41.72	320.73	7.79	-58.4	-71.8	3.7	1.46e+00	0	46	0	8388608	60	151711
2026-01-29 11:57:42.72	320.88	7.76	-58.4	-72.1	3.9	1.48e+00	0	46	104	8388608	60	157309
2026-01-29 11:57:43.73	321.03	7.72	-58.4	-72.3	3.8	1.49e+00	0	46	104	8388608	60	160610
2026-01-29 11:57:44.74	321.18	7.69	-58.4	-72.6	3.7	1.48e+00	0	46	104	8388608	60	167285
2026-01-29 11:57:45.75	321.33	7.65	-58.4	-72.8	3.6	1.50e+00	0	46	104	8388608	60	170536
2026-01-29 11:57:46.75	321.48	7.62	-58.4	-72.6	3.7	1.51e+00	0	46	104	8388608	60	166521
2026-01-29 11:57:47.76	321.63	7.58	-58.2	-74.0	3.6	1.48e+00	0	46	104	8388608	60	196937
2026-01-29 11:57:48.77	321.78	7.55	-58.1	-74.3	3.6	1.51e+00	0	46	104	8388608	60	203245
2026-01-29 11:57:49.78	321.93	7.51	-58.2	-73.8	3.6	1.51e+00	0	46	104	8388608	60	192113
2026-01-29 11:57:50.79	322.07	7.48	-58.2	-74.3	3.6	1.51e+00	0	46	104	8388608	60	204090
2026-01-29 11:57:51.80	322.22	7.44	-58.2	-74.4	3.6	1.51e+00	0	46	104	8388608	60	206805
2026-01-29 11:57:52.80	322.37	7.41	-58.2	-74.5	3.6	1.51e+00	0	46	104	8388608	60	209131
2026-01-29 11:57:53.81	322.52	7.37	-58.1	-74.4	3.6	1.51e+00	0	46	104	8388608	60	206264
2026-01-29 11:57:54.82	322.66	7.34	-58.1	-74.6	3.6	1.51e+00	0	46	104	8388608	60	210374
2026-01-29 11:57:55.83	322.81	7.30	-58.4	-74.6	3.6	1.51e+00	0	46	104	8388608	60	210747
2026-01-29 11:57:56.84	322.96	7.27	-58.1	-74.6	3.6	1.51e+00	0	46	104	8388608	60	211401
2026-01-29 11:57:57.85	323.10	7.23	-58.4	-74.3	3.6	1.51e+00	0	46	104	8388608	60	203199
2026-01-29 11:57:58.86	323.25	7.20	-58.4	-74.7	3.6	1.51e+00	0	46	104	8388608	60	212121
2026-01-29 11:57:59.86	323.39	7.16	-58.3	-74.7	3.6	1.51e+00	0	46	104	8388608	60	213349
2026-01-29 11:58:00.87	323.54	7.12	-58.0	-74.7	3.6	1.51e+00	0	46	104	8388608	60	212672
2026-01-29 11:58:01.88	323.68	7.09	-58.5	-74.5	3.6	1.51e+00	0	46	104	8388608	60	207009
2026-01-29 11:58:02.89	323.83	7.05	-58.4	-74.8	3.6	1.51e+00	0	46	104	8388608	60	214748
2026-01-29 11:58:03.90	323.97	7.02	-58.3	-74.7	3.5	1.51e+00	0	46	104	8388608	60	212141
2026-01-29 11:58:04.91	324.12	6.98	-58.1	-74.6	3.6	1.51e+00	0	46	104	8388608	60	209938
2026-01-29 11:58:05.91	324.26	6.94	-58.4	-74.5	3.6	1.51e+00	0	46	104	8388608	60	208630
2026-01-29 11:58:06.92	324.40	6.91	-58.3	-74.7	3.6	1.51e+00	0	46	104	8388608	60	213325
2026-01-29 11:58:07.93	324.54	6.87	-58.3	-74.7	3.6	1.51e+00	0	46	104	8388608	60	212780
2026-01-29 11:58:08.93	324.68	6.83	-58.0	-74.5	3.6	1.51e+00	0	46	104	8388608	60	209008
2026-01-29 11:58:09.94	324.83	6.80	-58.6	-74.8	3.6	1.51e+00	0	46	104	8388608	60	214086
2026-01-29 11:58:10.95	324.97	6.76	-58.2	-74.8	3.6	1.51e+00	0	46	104	8388608	60	215073
2026-01-29 11:58:11.96	325.11	6.72	-58.4	-74.8	3.6	1.51e+00	0	46	104	8388608	60	216010
2026-01-29 11:58:12.96	325.25	6.69	-58.1	-74.6	3.6	1.51e+00	0	46	104	8388608	60	209860
2026-01-29 11:58:13.97	325.39	6.65	-58.5	-74.9	3.6	1.51e+00	0	46	104	8388608	60	218239
2026-01-29 11:58:14.98	325.53	6.61	-58.3	-74.9	3.6	1.51e+00	0	46	104	8388608	60	216847
2026-01-29 11:58:15.98	325.67	6.57	-58.3	-74.8	3.6	1.51e+00	0	46	104	8388608	60	215467
2026-01-29 11:58:16.99	325.81	6.54	-58.1	-74.6	3.6	1.51e+00	0	46	104	8388608	60	209865
2026-01-29 11:58:18.00	325.95	6.50	-58.5	-74.9	3.6	1.51e+00	0	46	104	8388608	60	218563
2026-01-29 11:58:19.01	326.09	6.46	-58.3	-74.7	3.6	1.51e+00	0	46	104	8388608	60	213717
2026-01-29 11:58:20.01	326.22	6.42	-58.2	-74.8	3.6	1.51e+00	0	46	104	8388608	60	216447
2026-01-29 11:58:21.02	326.36	6.38	-58.0	-74.5	3.6	1.51e+00	0	46	104	8388608	60	207535
2026-01-29 11:58:22.03	326.50	6.35	-58.6	-75.0	3.6	1.51e+00	0	46	104	8388608	60	220075
2026-01-29 11:58:23.04	326.64	6.31	-58.1	-74.6	3.6	1.51e+00	0	46	104	8388608	60	211002
2026-01-29 11:58:24.05	326.77	6.27	-58.1	-74.6	3.6	1.51e+00	0	46	104	8388608	60	209486
2026-01-29 11:58:25.05	326.91	6.23	-58.1	-74.6	3.6	1.51e+00	0	46	104	8388608	60	209355
2026-01-29 11:58:26.06	327.05	6.19	-57.7	-74.1	3.6	1.51e+00	0	46	104	8388608	60	198694
2026-01-29 11:58:27.07	327.18	6.16	-57.8	-74.2	3.6	1.51e+00	0	46	104	8388608	60	201580
2026-01-29 11:58:28.08	327.32	6.12	-58.5	-74.9	3.6	1.51e+00	0	46	104	8388608	60	217382
2026-01-29 11:58:29.09	327.45	6.08	-57.8	-74.3	3.6	1.51e+00	0	46	104	8388608	60	203236
2026-01-29 11:58:30.09	327.59	6.04	-57.9	-74.3	3.6	1.51e+00	0	46	104	8388608	60	204193
2026-01-29 11:58:31.10	327.72	6.00	-57.8	-74.3	3.6	1.51e+00	0	46	104	8388608	60	203508
2026-01-29 11:58:32.11	327.86	5.96	-58.8	-75.2	3.6	1.51e+00	0	46	104	8388608	60	226588
2026-01-29 11:58:33.11	327.99	5.93	-57.9	-75.0	3.6	1.51e+00	0	46	104	8388608	60	220136
2026-01-29 11:58:34.12	328.12	5.89	-60.4	-76.8	3.6	1.51e+00	0	46	104	8388608	60	271569
2026-01-29 11:58:35.13	328.26	5.85	-60.7	-77.5	3.6	1.51e+00	0	46	104	8388608	60	295256
2026-01-29 11:58:36.13	328.39	5.81	-61.2	-77.6	3.6	1.51e+00	0	46	104	8388608	60	297165
2026-01-29 11:58:37.14	328.52	5.77	-61.3	-77.8	3.6	1.51e+00	0	46	104	8388608	60	303137
2026-01-29 11:58:38.15	328.65	5.73	-59.9	-77.3	3.6	1.51e+00	0	46	104	8388608	60	287205
2026-01-29 11:58:39.16	328.78	5.69	-61.3	-78.0	3.6	1.51e+00	0	46	104	8388608	60	309917
2026-01-29 11:58:40.17	328.92	5.65	-60.9	-77.7	3.6	1.51e+00	0	46	104	8388608	60	301232
2026-01-29 11:58:41.18	329.05	5.61	-61.9	-78.2	3.6	1.51e+00	0	46	104	8388608	60	317300
2026-01-29 11:58:42.18	329.18	5.57	-61.7	-78.3	3.6	1.51e+00	0	46	104	8388608	60	321273
2026-01-29 11:58:43.19	329.31	5.53	-62.1	-78.4	3.6	1.51e+00	0	46	104	8388608	60	327186
2026-01-29 11:58:44.20	329.44	5.49	-61.0	-78.2	3.6	1.51e+00	0	46	104	8388608	60	318633
2026-01-29 11:58:45.21	329.57	5.46	-61.9	-78.6	3.6	1.51e+00	0	46	104	8388608	60	333670
2026-01-29 11:58:46.21	329.70	5.42	-61.8	-78.7	3.6	1.51e+00	0	46	104	8388608	60	336896
2026-01-29 11:58:47.22	329.83	5.38	-61.8	-78.5	3.5	1.51e+00	0	46	104	8388608	60	329067
2026-01-29 11:58:48.23	329.95	5.34	-60.5	-78.3	3.6	1.51e+00	0	46	104	8388608	60	323116
2026-01-29 11:58:49.24	330.08	5.30	-59.9	-78.0	3.6	1.51e+00	0	46	104	8388608	60	312290
2026-01-29 11:58:50.25	330.21	5.26	-60.7	-78.5	3.6	1.51e+00	0	46	104	8388608	60	328629
2026-01-29 11:58:51.25	330.34	5.22	-60.9	-78.6	3.6	1.51e+00	0	46	104	8388608	60	332915
2026-01-29 11:58:52.26	330.47	5.18	-60.9	-78.4	3.6	1.51e+00	0	46	104	8388608	60	326374
2026-01-29 11:58:53.27	330.59	5.14	-61.0	-78.4	3.6	1.51e+00	0	46	104	8388608	60	327117
2026-01-29 11:58:54.28	330.72	5.10	-60.9	-78.5	3.6	1.51e+00	0	46	104	8388608	60	327850
2026-01-29 11:58:55.29	330.85	5.06	-60.9	-78.5	3.6	1.51e+00	0	46	104	8388608	60	329877
2026-01-29 11:58:56.30	330.97	5.02	-60.9	-78.5	3.6	1.51e+00	0	46	104	8388608	60	330018
2026-01-29 11:58:57.31	331.10	4.98	-60.9	-78.4	3.6	1.51e+00	0	46	104	8388608	60	326342
2026-01-29 11:58:58.31	331.22	4.94	-60.9	-78.5	3.6	1.51e+00	0	46	104	8388608	60	329175
2026-01-29 11:58:59.31	331.35	4.90	-60.9	-78.4	3.6	1.51e+00	0	46	104	8388608	60	324621
2026-01-29 11:59:00.32	331.47	4.86	-60.9	-78.4	3.6	1.51e+00	0	46	104	8388608	60	324458
2026-01-29 11:59:01.33	331.60	4.82	-60.9	-78.4	3.6	1.51e+00	0	46	104	8388608	60	325636
2026-01-29 11:59:02.34	331.72	4.78	-60.8	-78.4	3.6	1.51e+00	0	46	104	8388608	60	326238
2026-01-29 11:59:03.34	331.84	4.73	-60.9	-78.4	3.6	1.51e+00	0	46	104	8388608	60	327239
2026-01-29 11:59:04.35	331.97	4.69	-60.9	-78.4	3.6	1.51e+00	0	46	104	8388608	60	324176
2026-01-29 11:59:05.36	332.09	4.65	-60.8	-78.3	3.6	1.51e+00	0	46	104	8388608	60	322242
2026-01-29 11:59:06.36	332.21	4.61	-60.8	-78.3	3.6	1.51e+00	0	46	104	8388608	60	321302
2026-01-29 11:59:07.37	332.33	4.57	-60.8	-78.4	3.6	1.51e+00	0	46	104	8388608	60	325206
2026-01-29 11:59:08.38	332.46	4.53	-60.8	-78.4	3.6	1.51e+00	0	46	104	8388608	60	326234
2026-01-29 11:59:09.39	332.58	4.49	-60.8	-78.5	3.6	1.51e+00	0	46	104	8388608	60	328271
2026-01-29 11:59:10.39	332.70	4.45	-60.8	-78.3	3.6	1.51e+00	0	46	104	8388608	60	322452
2026-01-29 11:59:11.40	332.82	4.41	-60.7	-78.3	3.6	1.51e+00	0	46	104	8388608	60	321365
2026-01-29 11:59:12.41	332.94	4.37	-60.8	-78.4	3.6	1.51e+00	0	46	104	8388608	60	324563
2026-01-29 11:59:13.42	333.06	4.33	-60.8	-78.3	3.6	1.51e+00	0	46	104	8388608	60	320948
2026-01-29 11:59:14.43	333.18	4.29	-60.7	-78.3	3.6	1.51e+00	0	46	104	8388608	60	322805
2026-01-29 11:59:15.43	333.30	4.25	-60.7	-78.3	3.6	1.51e+00	0	46	104	8388608	60	323839
2026-01-29 11:59:16.44	333.42	4.21	-60.7	-78.2	3.6	1.51e+00	0	46	104	8388608	60	318377
2026-01-29 11:59:17.45	333.54	4.16	-60.7	-78.2	3.6	1.51e+00	0	46	104	8388608	60	319429
2026-01-29 11:59:18.46	333.66	4.12	-60.7	-78.1	3.6	1.51e+00	0	46	104	8388608	60	316485
2026-01-29 11:59:19.46	333.78	4.08	-60.7	-78.4	3.6	1.51e+00	0	46	104	8388608	60	327727
2026-01-29 11:59:20.46	333.89	4.04	-60.6	-78.3	3.6	1.51e+00	0	46	104	8388608	60	321563
2026-01-29 11:59:21.47	334.01	4.00	-60.6	-78.3	3.6	1.51e+00	0	46	104	8388608	60	323052
2026-01-29 11:59:22.48	334.13	3.96	-60.6	-78.3	3.6	1.51e+00	0	46	104	8388608	60	322605
2026-01-29 11:59:23.49	334.25	3.92	-60.6	-78.3	3.6	1.51e+00	0	46	104	8388608	60	320965
2026-01-29 11:59:24.50	334.37	3.88	-60.6	-78.3	3.6	1.51e+00	0	46	104	8388608	60	323144
2026-01-29 11:59:25.50	334.48	3.83	-60.7	-78.4	3.6	1.51e+00	0	46	104	8388608	60	324706
2026-01-29 11:59:26.51	334.60	3.79	-60.7	-78.2	3.6	1.51e+00	0	46	104	8388608	60	319664
2026-01-29 11:59:27.51	334.71	3.75	-60.6	-78.3	3.6	1.51e+00	0	46	104	8388608	60	323953
2026-01-29 11:59:28.52	334.83	3.71	-60.7	-78.3	3.6	1.51e+00	0	46	104	8388608	60	322776
2026-01-29 11:59:29.53	334.94	3.67	-60.7	-78.3	3.5	1.51e+00	0	46	104	8388608	60	322947
2026-01-29 11:59:30.54	335.06	3.63	-60.7	-78.3	3.6	1.51e+00	0	46	104	8388608	60	321988
2026-01-29 11:59:31.55	335.17	3.59	-60.7	-78.2	3.6	1.51e+00	0	46	104	8388608	60	320135
2026-01-29 11:59:32.55	335.29	3.55	-60.7	-78.3	3.6	1.51e+00	0	46	104	8388608	60	322633
2026-01-29 11:59:33.55	335.40	3.50	-60.6	-78.2	3.6	1.51e+00	0	46	104	8388608	60	318245
2026-01-29 11:59:34.56	335.52	3.46	-60.6	-78.3	3.6	1.51e+00	0	46	104	8388608	60	321028
2026-01-29 11:59:35.57	335.63	3.42	-60.6	-78.2	3.6	1.51e+00	0	46	104	8388608	60	317368
2026-01-29 11:59:36.58	335.74	3.38	-60.6	-78.1	3.6	1.51e+00	0	46	104	8388608	60	315250
2026-01-29 11:59:37.58	335.86	3.34	-60.6	-78.1	3.6	1.51e+00	0	46	104	8388608	60	315907
2026-01-29 11:59:38.59	335.97	3.30	-60.6	-78.3	3.6	1.51e+00	0	46	104	8388608	60	322321
2026-01-29 11:59:39.60	336.08	3.25	-60.6	-78.3	3.6	1.51e+00	0	46	104	8388608	60	320328
2026-01-29 11:59:40.60	336.19	3.21	-60.7	-78.4	3.6	1.51e+00	0	46	104	8388608	60	324727
2026-01-29 11:59:41.61	336.30	3.17	-60.6	-78.2	3.6	1.51e+00	0	46	104	8388608	60	319954
2026-01-29 11:59:42.62	336.42	3.13	-60.6	-78.3	3.6	1.51e+00	0	46	104	8388608	60	321345
2026-01-29 11:59:43.63	336.53	3.09	-60.6	-78.1	3.6	1.51e+00	0	46	104	8388608	60	316614
2026-01-29 11:59:44.64	336.64	3.05	-60.6	-78.1	3.6	1.51e+00	0	46	104	8388608	60	315976
2026-01-29 11:59:45.64	336.75	3.00	-60.6	-78.3	3.6	1.51e+00	0	46	104	8388608	60	322136
2026-01-29 11:59:46.65	336.86	2.96	-60.6	-78.3	3.6	1.51e+00	0	46	104	8388608	60	322043
2026-01-29 11:59:47.66	336.97	2.92	-60.5	-78.1	3.6	1.51e+00	0	46	104	8388608	60	316124
2026-01-29 11:59:48.67	337.08	2.88	-60.5	-78.2	3.6	1.51e+00	0	46	104	8388608	60	317229
2026-01-29 11:59:49.67	337.19	2.84	-60.6	-78.2	3.6	1.51e+00	0	46	104	8388608	60	319712
2026-01-29 11:59:50.68	337.30	2.79	-60.5	-78.2	3.6	1.51e+00	0	46	104	8388608	60	317593
2026-01-29 11:59:51.69	337.40	2.75	-60.5	-78.0	3.6	1.51e+00	0	46	104	8388608	60	312330
2026-01-29 11:59:52.70	337.51	2.71	-60.5	-78.2	3.6	1.51e+00	0	46	104	8388608	60	316839
2026-01-29 11:59:53.71	337.62	2.67	-60.5	-78.2	3.6	1.51e+00	0	46	104	8388608	60	317540
2026-01-29 11:59:54.72	337.73	2.63	-60.5	-78.2	3.6	1.51e+00	0	46	104	8388608	60	318347
2026-01-29 11:59:55.73	337.84	2.58	-60.5	-78.1	3.6	1.51e+00	0	46	104	8388608	60	316510
2026-01-29 11:59:56.74	337.94	2.54	-60.5	-78.1	3.6	1.51e+00	0	46	104	8388608	60	316638
2026-01-29 11:59:57.75	338.05	2.50	-60.5	-78.2	3.6	1.51e+00	0	46	104	8388608	60	317523
2026-01-29 11:59:58.75	338.16	2.46	-60.5	-78.1	3.6	1.51e+00	0	46	104	8388608	60	313997
2026-01-29 11:59:59.76	338.26	2.42	-60.5	-78.1	3.6	1.51e+00	0	46	104	8388608	60	316378
2026-01-29 12:00:00.77	338.37	2.37	-60.5	-78.0	3.6	1.51e+00	0	46	104	8388608	60	311586
2026-01-29 12:00:01.78	338.48	2.33	-60.5	-78.1	3.6	1.51e+00	0	46	104	8388608	60	315109
2026-01-29 12:00:02.79	338.58	2.29	-60.5	-78.2	3.6	1.51e+00	0	46	104	8388608	60	316931
2026-01-29 12:00:03.79	338.69	2.25	-60.5	-78.2	3.6	1.51e+00	0	46	104	8388608	60	317848
2026-01-29 12:00:04.80	338.79	2.21	-60.5	-78.1	3.6	1.51e+00	0	46	104	8388608	60	314093
2026-01-29 12:00:05.81	338.90	2.16	-60.5	-78.2	3.6	1.51e+00	0	46	104	8388608	60	318888
2026-01-29 12:00:06.82	339.00	2.12	-60.6	-78.2	3.6	1.51e+00	0	46	104	8388608	60	318511
2026-01-29 12:00:07.83	339.11	2.08	-60.6	-78.0	3.6	1.51e+00	0	46	104	8388608	60	312221
2026-01-29 12:00:08.84	339.21	2.04	-60.6	-78.2	3.6	1.51e+00	0	46	104	8388608	60	319481
2026-01-29 12:00:09.85	339.31	1.99	-60.5	-78.0	3.6	1.51e+00	0	46	104	8388608	60	311521
2026-01-29 12:00:10.85	339.42	1.95	-60.5	-78.1	3.6	1.51e+00	0	46	104	8388608	60	314643
2026-01-29 12:00:11.86	339.52	1.91	-60.5	-78.1	3.6	1.51e+00	0	46	104	8388608	60	315623
2026-01-29 12:00:12.87	339.62	1.87	-60.5	-78.1	3.6	1.51e+00	0	46	104	8388608	60	313016
2026-01-29 12:00:13.88	339.72	1.83	-60.5	-78.1	3.6	1.51e+00	0	46	104	8388608	60	316510
2026-01-29 12:00:14.89	339.83	1.78	-60.5	-78.1	3.6	1.51e+00	0	46	104	8388608	60	313868
2026-01-29 12:00:15.89	339.93	1.74	-60.5	-78.1	3.6	1.51e+00	0	46	104	8388608	60	315631
2026-01-29 12:00:16.90	340.03	1.70	-60.5	-78.2	3.6	1.51e+00	0	46	104	8388608	60	316803
2026-01-29 12:00:17.91	340.13	1.66	-60.5	-78.1	3.5	1.51e+00	0	46	104	8388608	60	316533
2026-01-29 12:00:18.91	340.23	1.61	-60.5	-78.1	3.6	1.51e+00	0	46	104	8388608	60	315571
2026-01-29 12:00:19.92	340.33	1.57	-60.5	-78.1	3.6	1.51e+00	0	46	104	8388608	60	315119
2026-01-29 12:00:20.93	340.43	1.53	-60.4	-78.1	3.6	1.51e+00	0	46	104	8388608	60	314590
2026-01-29 12:00:21.94	340.53	1.49	-60.5	-78.2	3.6	1.51e+00	0	46	104	8388608	60	317336
2026-01-29 12:00:22.95	340.63	1.45	-60.5	-78.1	3.6	1.51e+00	0	46	104	8388608	60	314294
2026-01-29 12:00:23.96	340.73	1.40	-60.4	-78.1	3.6	1.51e+00	0	46	104	8388608	60	316196
2026-01-29 12:00:24.96	340.83	1.36	-60.5	-78.1	3.6	1.51e+00	0	46	104	8388608	60	313258
2026-01-29 12:00:25.97	340.93	1.32	-60.5	-78.1	3.6	1.51e+00	0	46	104	8388608	60	315872
2026-01-29 12:00:26.98	341.03	1.28	-60.5	-78.1	3.6	1.51e+00	0	46	104	8388608	60	314422
2026-01-29 12:00:27.99	341.13	1.23	-60.5	-78.1	3.6	1.51e+00	0	46	104	8388608	60	315895
2026-01-29 12:00:29.00	341.23	1.19	-60.5	-78.1	3.6	1.51e+00	0	46	104	8388608	60	314880
2026-01-29 12:00:30.00	341.33	1.15	-60.5	-78.2	3.6	1.51e+00	0	46	104	8388608	60	317399
2026-01-29 12:00:31.01	341.42	1.11	-60.5	-78.1	3.6	1.51e+00	0	46	104	8388608	60	313336
2026-01-29 12:00:32.02	341.52	1.06	-60.5	-78.2	3.6	1.51e+00	0	46	104	8388608	60	318473
2026-01-29 12:00:33.02	341.62	1.02	-60.5	-78.0	3.6	1.51e+00	0	46	104	8388608	60	311730
2026-01-29 12:00:34.02	341.71	0.98	-60.5	-78.2	3.6	1.51e+00	0	46	104	8388608	60	317776
2026-01-29 12:00:35.03	341.81	0.94	-60.5	-78.1	3.6	1.51e+00	0	46	104	8388608	60	315154
2026-01-29 12:00:36.03	341.91	0.90	-60.5	-78.0	3.6	1.51e+00	0	46	104	8388608	60	311572
2026-01-29 12:00:37.04	342.00	0.85	-60.5	-78.1	3.6	1.51e+00	0	46	104	8388608	60	315260
2026-01-29 12:00:38.05	342.10	0.81	-60.5	-78.0	3.6	1.51e+00	0	46	104	8388608	60	312442
2026-01-29 12:00:39.05	342.20	0.77	-60.5	-78.1	3.6	1.51e+00	0	46	104	8388608	60	314912
2026-01-29 12:00:40.06	342.29	0.73	-60.5	-78.1	3.6	1.51e+00	0	46	104	8388608	60	315953
2026-01-29 12:00:41.07	342.39	0.68	-60.5	-78.0	3.6	1.51e+00	0	46	104	8388608	60	310000
2026-01-29 12:00:42.07	342.48	0.64	-60.5	-78.0	3.6	1.51e+00	0	46	104	8388608	60	312158
