passes_logs/2026/01/29/R3.2S-Naryan-Mar/R3.2S-Naryan-Mar__20260129_042709_FENGYUN_3E_rec.log

#Pass ID: 20260129_042709_FENGYUN 3E
#Satellite: FENGYUN 3E
#Configuration: FENGYUN 3E
#almurnet v.1.7.20240730
#Start time: 2026-01-29 04:27:11

#Version: 2.2.20231116
#Station: R3.2S-Naryan-Mar
#Location: 53.008057 lon 67.646978 lat
#TLE: 1 49008U 21062A   26027.83084825  .00000170  00000+0  10081-3 0  9997
#TLE: 2 49008  98.7501  32.8098 0002509 114.2687 245.8752 14.19888158236667

#Time	Az	El	Level	Level2	SNR	BER	BlckErr	Temp	State	Recorded	gain1	gain2
2026-01-29 04:27:11.60	27.10	0.12	-60.1	-77.9	3.5	1.51e+00	0	43	0	0	60	307579
2026-01-29 04:27:12.61	27.08	0.18	-58.5	-74.0	3.6	8.46e-01	0	44	104	0	60	195674
2026-01-29 04:27:13.61	27.06	0.24	-60.3	-74.0	3.6	8.44e-01	0	45	104	0	60	196931
2026-01-29 04:27:14.62	27.04	0.30	-60.1	-73.7	3.6	8.46e-01	0	45	104	0	60	190247
2026-01-29 04:27:15.62	27.03	0.36	-59.7	-74.5	3.6	8.45e-01	0	45	104	0	60	208124
2026-01-29 04:27:16.63	27.01	0.42	-61.4	-74.9	3.6	8.46e-01	0	45	104	0	60	216643
2026-01-29 04:27:17.64	26.99	0.48	-61.5	-74.6	3.6	8.45e-01	0	45	104	0	60	211151
2026-01-29 04:27:18.65	26.97	0.54	-60.4	-74.6	3.6	8.46e-01	0	45	104	0	60	211148
2026-01-29 04:27:19.65	26.95	0.60	-61.2	-75.0	3.6	8.44e-01	0	45	104	0	60	219084
2026-01-29 04:27:20.66	26.93	0.66	-61.7	-74.9	3.6	8.45e-01	0	45	104	0	60	216695
2026-01-29 04:27:21.67	26.91	0.72	-61.3	-74.9	3.6	8.45e-01	0	45	104	0	60	217259
2026-01-29 04:27:22.68	26.89	0.78	-57.7	-74.9	3.6	8.46e-01	0	45	104	0	60	216889
2026-01-29 04:27:23.68	26.87	0.85	-59.0	-74.2	3.5	8.46e-01	0	45	104	0	60	201292
2026-01-29 04:27:24.69	26.85	0.91	-54.0	-73.7	3.6	8.45e-01	0	45	104	0	60	188680
2026-01-29 04:27:25.70	26.84	0.97	-56.8	-74.6	3.6	8.47e-01	0	45	104	0	60	211534
2026-01-29 04:27:26.71	26.82	1.03	-54.2	-72.4	3.6	8.44e-01	0	45	104	0	60	163923
2026-01-29 04:27:27.72	26.80	1.09	-58.2	-74.1	3.6	8.46e-01	0	45	104	0	60	198064
2026-01-29 04:27:28.73	26.78	1.15	-58.1	-70.7	3.6	8.47e-01	0	45	104	0	60	134936
2026-01-29 04:27:29.73	26.76	1.21	-59.2	-72.3	3.6	8.45e-01	0	45	104	0	60	161539
2026-01-29 04:27:30.74	26.74	1.28	-59.2	-72.2	3.6	8.46e-01	0	45	104	0	60	159325
2026-01-29 04:27:31.75	26.72	1.34	-59.1	-72.2	3.6	8.46e-01	0	45	104	0	60	159231
2026-01-29 04:27:32.76	26.70	1.40	-59.1	-72.2	3.6	8.46e-01	0	45	104	0	60	159408
2026-01-29 04:27:33.77	26.68	1.46	-59.1	-72.2	3.6	8.45e-01	0	45	104	0	60	159486
2026-01-29 04:27:34.77	26.66	1.53	-59.1	-72.1	3.6	8.46e-01	0	45	104	0	60	158323
2026-01-29 04:27:35.78	26.63	1.59	-59.0	-72.0	3.6	8.46e-01	0	45	104	0	60	155946
2026-01-29 04:27:36.78	26.61	1.65	-59.0	-72.1	3.6	8.44e-01	0	45	104	0	60	158692
2026-01-29 04:27:37.79	26.59	1.71	-59.0	-72.0	3.6	8.44e-01	0	45	104	0	60	156790
2026-01-29 04:27:38.79	26.57	1.78	-59.0	-72.1	3.6	8.45e-01	0	45	104	0	60	156904
2026-01-29 04:27:39.80	26.55	1.84	-59.0	-72.0	3.6	8.46e-01	0	45	104	0	60	155718
2026-01-29 04:27:40.81	26.53	1.90	-59.0	-72.0	3.6	8.46e-01	0	46	104	0	60	155973
2026-01-29 04:27:41.81	26.51	1.97	-59.0	-72.0	3.6	8.45e-01	0	45	104	0	60	156230
2026-01-29 04:27:42.82	26.49	2.03	-59.0	-71.9	3.6	8.45e-01	0	45	104	0	60	154997
2026-01-29 04:27:43.83	26.47	2.09	-58.9	-72.0	3.6	8.45e-01	0	45	104	0	60	156062
2026-01-29 04:27:44.84	26.45	2.16	-58.9	-72.0	3.6	8.44e-01	0	46	104	0	60	155248
2026-01-29 04:27:45.84	26.42	2.22	-58.9	-71.9	3.6	8.46e-01	0	45	104	0	60	154843
2026-01-29 04:27:46.85	26.40	2.29	-58.9	-71.9	3.6	8.44e-01	0	45	104	0	60	154527
2026-01-29 04:27:47.86	26.38	2.35	-58.9	-71.9	3.6	8.46e-01	0	45	104	0	60	154390
2026-01-29 04:27:48.87	26.36	2.41	-58.8	-71.9	3.6	8.46e-01	0	45	104	0	60	154770
2026-01-29 04:27:49.88	26.34	2.48	-58.8	-72.0	3.6	8.46e-01	0	45	104	0	60	155908
2026-01-29 04:27:50.88	26.31	2.54	-58.8	-71.9	3.6	8.44e-01	0	45	104	0	60	154765
2026-01-29 04:27:51.89	26.29	2.61	-58.8	-71.8	3.6	8.46e-01	0	45	104	0	60	153279
2026-01-29 04:27:52.90	26.27	2.67	-58.8	-71.8	3.6	8.45e-01	0	45	104	0	60	152515
2026-01-29 04:27:53.90	26.25	2.74	-58.8	-71.9	3.6	8.46e-01	0	45	104	0	60	154617
2026-01-29 04:27:54.91	26.22	2.80	-58.7	-71.8	3.6	8.45e-01	0	46	104	0	60	152377
2026-01-29 04:27:55.91	26.20	2.87	-58.7	-71.8	3.6	8.46e-01	0	45	104	0	60	151561
2026-01-29 04:27:56.92	26.18	2.93	-58.7	-71.8	3.6	8.45e-01	0	46	104	0	60	152497
2026-01-29 04:27:57.93	26.16	3.00	-58.7	-71.8	3.6	8.46e-01	0	45	104	0	60	152766
2026-01-29 04:27:58.94	26.13	3.07	-58.7	-71.9	3.6	8.46e-01	0	45	104	0	60	153666
2026-01-29 04:27:59.95	26.11	3.13	-58.7	-71.9	3.6	8.44e-01	0	46	104	0	60	153380
2026-01-29 04:28:00.96	26.09	3.20	-58.6	-71.8	3.6	8.45e-01	0	46	104	0	60	152709
2026-01-29 04:28:01.96	26.06	3.26	-58.7	-71.8	3.6	8.44e-01	0	46	104	0	60	152037
2026-01-29 04:28:02.97	26.04	3.33	-58.7	-71.8	3.6	8.45e-01	0	46	104	0	60	151869
2026-01-29 04:28:03.98	26.01	3.40	-58.6	-71.7	3.5	8.45e-01	0	46	104	0	60	150286
2026-01-29 04:28:04.98	25.99	3.46	-58.6	-71.7	3.6	8.46e-01	0	46	104	0	60	150576
2026-01-29 04:28:05.99	25.97	3.53	-58.6	-71.7	3.6	8.46e-01	0	46	104	0	60	150294
2026-01-29 04:28:07.00	25.94	3.60	-58.6	-71.7	3.6	8.44e-01	0	46	104	0	60	151517
2026-01-29 04:28:08.00	25.92	3.66	-58.6	-71.8	3.6	8.46e-01	0	46	104	0	60	152312
2026-01-29 04:28:09.01	25.89	3.73	-58.6	-71.7	3.6	8.44e-01	0	46	104	0	60	151223
2026-01-29 04:28:10.01	25.87	3.80	-58.6	-71.6	3.6	8.46e-01	0	46	104	0	60	149454
2026-01-29 04:28:11.02	25.85	3.87	-58.6	-71.6	3.6	8.44e-01	0	46	104	0	60	148984
2026-01-29 04:28:12.02	25.82	3.93	-58.5	-71.5	3.6	8.45e-01	0	46	104	0	60	147181
2026-01-29 04:28:13.03	25.80	4.00	-58.5	-71.6	3.6	8.45e-01	0	46	104	0	60	148441
2026-01-29 04:28:14.04	25.77	4.07	-58.5	-71.6	3.6	8.46e-01	0	46	104	0	60	148358
2026-01-29 04:28:15.05	25.75	4.14	-58.5	-71.4	3.6	8.46e-01	0	46	104	0	60	144860
2026-01-29 04:28:16.05	25.72	4.21	-58.4	-71.4	3.6	8.46e-01	0	46	104	0	60	146178
2026-01-29 04:28:17.06	25.69	4.28	-58.4	-71.4	3.6	8.46e-01	0	46	104	0	60	145003
2026-01-29 04:28:18.06	25.67	4.34	-58.5	-71.5	3.6	8.45e-01	0	46	104	0	60	146702
2026-01-29 04:28:19.07	25.64	4.41	-58.5	-71.5	3.6	8.45e-01	0	46	104	0	60	147657
2026-01-29 04:28:20.08	25.62	4.48	-58.5	-71.6	3.6	8.45e-01	0	46	104	0	60	148263
2026-01-29 04:28:21.09	25.59	4.55	-58.5	-71.5	3.6	8.45e-01	0	46	104	0	60	147935
2026-01-29 04:28:22.09	25.56	4.62	-58.4	-71.5	3.6	8.45e-01	0	46	104	0	60	147472
2026-01-29 04:28:23.10	25.54	4.69	-58.5	-71.5	3.6	8.45e-01	0	46	104	0	60	147683
2026-01-29 04:28:24.11	25.51	4.76	-58.5	-71.6	3.6	8.46e-01	0	46	104	0	60	148706
2026-01-29 04:28:25.11	25.49	4.83	-58.5	-71.5	3.6	8.46e-01	0	46	104	0	60	147536
2026-01-29 04:28:26.11	25.46	4.90	-58.5	-71.6	3.6	8.44e-01	0	46	104	0	60	148158
2026-01-29 04:28:27.12	25.43	4.97	-58.4	-71.6	3.6	8.45e-01	0	46	104	0	60	148283
2026-01-29 04:28:28.12	25.41	5.04	-58.5	-71.5	3.6	8.46e-01	0	46	104	0	60	147098
2026-01-29 04:28:29.13	25.38	5.11	-58.4	-71.4	3.6	8.46e-01	0	46	104	0	60	146052
2026-01-29 04:28:30.14	25.35	5.18	-58.4	-71.4	3.6	8.45e-01	0	46	104	0	60	146386
2026-01-29 04:28:31.15	25.32	5.25	-58.4	-71.5	3.6	8.45e-01	0	46	104	0	60	146518
2026-01-29 04:28:32.16	25.29	5.33	-58.4	-71.4	3.6	8.44e-01	0	46	104	0	60	145986
2026-01-29 04:28:33.16	25.27	5.40	-58.4	-71.5	3.6	8.46e-01	0	46	104	0	60	146812
2026-01-29 04:28:34.17	25.24	5.47	-58.4	-71.3	3.6	8.45e-01	0	46	104	0	60	144648
2026-01-29 04:28:35.18	25.21	5.54	-58.4	-71.4	3.6	8.45e-01	0	46	104	0	60	145790
2026-01-29 04:28:36.19	25.18	5.61	-58.4	-71.4	3.6	8.45e-01	0	46	104	0	60	145376
2026-01-29 04:28:37.19	25.15	5.68	-58.4	-71.5	3.6	8.45e-01	0	46	104	0	60	147501
2026-01-29 04:28:38.20	25.13	5.76	-58.3	-71.3	3.6	8.45e-01	0	46	104	0	60	144348
2026-01-29 04:28:39.21	25.10	5.83	-58.4	-71.3	3.6	8.46e-01	0	46	104	0	60	144425
2026-01-29 04:28:40.22	25.07	5.90	-58.3	-71.3	3.6	8.46e-01	0	46	104	0	60	143796
2026-01-29 04:28:41.22	25.04	5.98	-58.3	-71.3	3.6	8.45e-01	0	46	104	0	60	143423
2026-01-29 04:28:42.23	25.01	6.05	-58.3	-71.2	3.6	8.46e-01	0	46	104	0	60	142022
2026-01-29 04:28:43.23	24.98	6.12	-55.6	-69.7	3.6	8.45e-01	0	46	104	0	60	119700
2026-01-29 04:28:44.24	24.95	6.20	-53.5	-68.9	3.6	8.46e-01	0	46	104	0	60	108955
2026-01-29 04:28:45.25	24.92	6.27	-57.2	-69.3	3.6	8.45e-01	0	46	104	0	60	114290
2026-01-29 04:28:46.26	24.89	6.34	-54.5	-69.2	3.6	8.45e-01	0	46	104	0	60	113545
2026-01-29 04:28:47.26	24.86	6.42	-56.4	-68.0	3.6	8.45e-01	0	46	104	0	60	98876
2026-01-29 04:28:48.27	24.83	6.49	-56.3	-68.0	3.6	8.45e-01	0	46	104	0	60	98326
2026-01-29 04:28:49.28	24.80	6.57	-56.1	-67.7	3.6	8.45e-01	0	46	104	0	60	95051
2026-01-29 04:28:50.29	24.77	6.64	-56.0	-67.7	3.6	8.45e-01	0	46	104	0	60	95084
2026-01-29 04:28:51.30	24.74	6.72	-52.9	-67.2	3.6	8.45e-01	0	46	104	0	60	90038
2026-01-29 04:28:52.31	24.71	6.79	-58.2	-70.9	3.6	8.46e-01	0	46	104	0	60	137181
2026-01-29 04:28:53.31	24.68	6.87	-53.3	-69.0	3.6	8.45e-01	0	46	104	0	60	110317
2026-01-29 04:28:54.32	24.64	6.94	-57.9	-71.3	3.6	8.45e-01	0	46	104	0	60	143110
2026-01-29 04:28:55.33	24.61	7.02	-55.9	-67.3	3.6	8.45e-01	0	46	104	0	60	90926
2026-01-29 04:28:56.33	24.58	7.10	-55.8	-67.3	3.6	8.45e-01	0	46	104	0	60	91273
2026-01-29 04:28:57.34	24.55	7.17	-55.4	-67.4	3.6	8.44e-01	0	46	104	0	60	91961
2026-01-29 04:28:58.34	24.52	7.25	-53.7	-67.5	3.6	8.45e-01	0	46	104	0	60	92958
2026-01-29 04:28:59.35	24.48	7.32	-54.2	-70.7	3.6	8.44e-01	0	46	104	0	60	134019
2026-01-29 04:29:00.35	24.45	7.40	-54.9	-68.5	3.6	8.44e-01	0	46	104	0	60	103901
2026-01-29 04:29:01.36	24.42	7.48	-58.1	-71.9	3.6	8.46e-01	0	46	104	0	60	154494
2026-01-29 04:29:02.37	24.39	7.56	-56.7	-69.7	3.6	8.44e-01	0	46	104	0	60	119876
2026-01-29 04:29:03.37	24.35	7.63	-56.3	-68.0	3.6	8.47e-01	0	46	104	0	60	98325
2026-01-29 04:29:04.38	24.32	7.71	-56.1	-67.8	3.6	8.46e-01	0	46	104	0	60	96181
2026-01-29 04:29:05.39	24.29	7.79	-56.0	-67.7	3.6	8.46e-01	0	46	104	0	60	94800
2026-01-29 04:29:06.40	24.25	7.87	-55.9	-67.4	3.6	8.45e-01	0	46	104	0	60	92271
2026-01-29 04:29:07.40	24.22	7.95	-51.1	-69.1	3.6	8.46e-01	0	46	104	0	60	112245
2026-01-29 04:29:08.41	24.18	8.03	-58.2	-72.4	3.6	8.45e-01	0	46	104	0	60	163577
2026-01-29 04:29:09.42	24.15	8.10	-51.7	-67.8	3.6	8.45e-01	0	46	104	0	60	95628
2026-01-29 04:29:10.43	24.11	8.18	-54.3	-70.4	3.6	8.44e-01	0	46	104	0	60	130195
2026-01-29 04:29:11.43	24.08	8.26	-56.2	-67.8	3.5	8.45e-01	0	46	104	0	60	96140
2026-01-29 04:29:12.44	24.04	8.34	-56.0	-67.6	3.6	8.44e-01	0	46	104	0	60	93808
2026-01-29 04:29:13.44	24.01	8.42	-55.8	-67.5	3.6	8.46e-01	0	46	104	0	60	92724
2026-01-29 04:29:14.45	23.97	8.50	-54.0	-67.8	3.6	8.45e-01	0	46	104	0	60	95844
2026-01-29 04:29:15.45	23.94	8.58	-59.3	-72.3	3.6	8.46e-01	0	46	104	0	60	162304
2026-01-29 04:29:16.46	23.90	8.66	-58.5	-71.8	3.6	8.46e-01	0	46	104	0	60	152752
2026-01-29 04:29:17.47	23.87	8.74	-53.6	-70.2	3.6	8.45e-01	0	46	104	0	60	126626
2026-01-29 04:29:18.48	23.83	8.83	-55.8	-70.6	3.6	8.45e-01	0	46	104	0	60	133431
2026-01-29 04:29:19.48	23.79	8.91	-53.0	-68.0	3.6	8.45e-01	0	46	104	0	60	98487
2026-01-29 04:29:20.49	23.76	8.99	-51.9	-68.1	3.6	8.45e-01	0	46	104	0	60	99873
2026-01-29 04:29:21.50	23.72	9.07	-51.6	-68.3	3.6	8.45e-01	0	46	104	0	60	102325
2026-01-29 04:29:22.51	23.68	9.15	-51.3	-68.9	3.6	8.45e-01	0	46	104	0	60	108780
2026-01-29 04:29:23.52	23.64	9.24	-56.6	-69.8	3.6	8.46e-01	0	46	104	0	60	121629
2026-01-29 04:29:24.52	23.61	9.32	-55.4	-70.0	3.6	8.45e-01	0	46	104	0	60	123896
2026-01-29 04:29:25.53	23.57	9.40	-57.7	-71.8	3.6	8.45e-01	0	46	104	0	60	151682
2026-01-29 04:29:26.53	23.53	9.48	-55.8	-70.6	3.6	8.46e-01	0	46	104	0	60	132964
2026-01-29 04:29:27.54	23.49	9.57	-56.1	-70.5	3.6	8.46e-01	0	46	104	0	60	130515
2026-01-29 04:29:28.54	23.45	9.65	-56.5	-69.9	3.6	8.45e-01	0	46	104	0	60	122767
2026-01-29 04:29:29.55	23.42	9.74	-56.8	-69.8	3.6	8.46e-01	0	46	104	0	60	120819
2026-01-29 04:29:30.56	23.38	9.82	-54.4	-69.3	3.6	8.45e-01	0	46	104	0	60	114700
2026-01-29 04:29:31.57	23.34	9.91	-56.2	-71.3	3.6	8.45e-01	0	46	104	0	60	143899
2026-01-29 04:29:32.57	23.30	9.99	-56.4	-70.6	3.6	8.45e-01	0	46	104	0	60	133066
2026-01-29 04:29:33.58	23.26	10.08	-53.2	-68.9	3.6	8.45e-01	0	46	104	0	60	109690
2026-01-29 04:29:34.58	23.22	10.16	-53.0	-69.2	3.6	8.45e-01	0	46	104	0	60	113312
2026-01-29 04:29:35.59	23.18	10.25	-56.2	-70.6	3.6	8.45e-01	0	46	104	0	60	132222
2026-01-29 04:29:36.59	23.14	10.33	-53.3	-69.3	3.6	8.44e-01	0	46	104	0	60	113663
2026-01-29 04:29:37.60	23.09	10.42	-52.9	-69.3	3.6	8.46e-01	0	46	104	0	60	114296
2026-01-29 04:29:38.61	23.05	10.51	-53.8	-69.4	3.6	8.45e-01	0	46	104	0	60	115147
2026-01-29 04:29:39.61	23.01	10.59	-56.4	-69.9	3.6	8.46e-01	0	46	104	0	60	122908
2026-01-29 04:29:40.62	22.97	10.68	-53.9	-70.1	3.6	8.46e-01	0	46	104	0	60	125082
2026-01-29 04:29:41.63	22.93	10.77	-56.3	-71.9	3.6	8.44e-01	0	46	104	0	60	154756
2026-01-29 04:29:42.64	22.89	10.85	-54.3	-71.6	3.6	8.45e-01	0	46	104	0	60	148944
2026-01-29 04:29:43.64	22.84	10.94	-55.1	-70.2	3.6	8.45e-01	0	46	104	0	60	127323
2026-01-29 04:29:44.64	22.80	11.03	-54.5	-70.5	3.6	8.45e-01	0	46	104	0	60	130612
2026-01-29 04:29:45.65	22.76	11.12	-53.5	-70.6	3.6	8.45e-01	0	46	104	0	60	133463
2026-01-29 04:29:46.65	22.71	11.21	-54.3	-71.2	3.6	8.46e-01	0	46	104	0	60	142433
2026-01-29 04:29:47.66	22.67	11.30	-49.2	-71.2	3.6	8.44e-01	0	46	104	0	60	141949
2026-01-29 04:29:48.66	22.63	11.39	-52.5	-71.5	3.6	8.45e-01	0	46	104	0	60	147092
2026-01-29 04:29:49.66	22.58	11.47	-53.7	-70.2	3.6	8.45e-01	0	46	104	0	60	127007
2026-01-29 04:29:50.67	22.54	11.57	-55.1	-69.8	3.6	8.44e-01	0	46	104	0	60	121763
2026-01-29 04:29:51.67	22.49	11.66	-53.4	-69.7	3.6	8.43e-01	0	46	104	0	60	119930
2026-01-29 04:29:52.68	22.45	11.75	-54.5	-69.9	3.6	8.45e-01	0	46	104	0	60	122257
2026-01-29 04:29:53.68	22.40	11.84	-55.3	-69.9	3.6	8.44e-01	0	46	104	0	60	122143
2026-01-29 04:29:54.69	22.36	11.93	-54.4	-70.1	3.6	8.45e-01	0	46	104	0	60	124756
2026-01-29 04:29:55.70	22.31	12.02	-51.0	-72.0	3.6	8.46e-01	0	46	104	0	60	156319
2026-01-29 04:29:56.70	22.26	12.11	-49.1	-71.3	3.6	8.45e-01	0	46	104	0	60	144686
2026-01-29 04:29:57.71	22.22	12.20	-53.0	-71.6	3.6	8.46e-01	0	46	104	0	60	149091
2026-01-29 04:29:58.71	22.17	12.30	-50.9	-71.1	3.6	8.44e-01	0	46	104	0	60	141061
2026-01-29 04:29:59.72	22.12	12.39	-54.7	-70.3	3.6	8.46e-01	0	46	104	0	60	127874
2026-01-29 04:30:00.73	22.07	12.48	-53.7	-70.4	3.6	8.46e-01	0	46	104	0	60	130454
2026-01-29 04:30:01.74	22.03	12.58	-52.6	-70.5	3.6	8.45e-01	0	46	104	0	60	131956
2026-01-29 04:30:02.74	21.98	12.67	-50.1	-71.3	3.6	8.45e-01	0	46	104	0	60	144711
2026-01-29 04:30:03.75	21.93	12.77	-46.5	-73.3	3.5	8.46e-01	0	46	104	0	60	180796
2026-01-29 04:30:04.76	21.88	12.86	-48.0	-72.1	3.6	8.47e-01	0	46	104	0	60	157404
2026-01-29 04:30:05.76	21.83	12.96	-49.8	-71.7	3.5	8.46e-01	0	46	104	0	60	150618
2026-01-29 04:30:06.77	21.78	13.05	-50.4	-71.5	3.6	8.46e-01	0	46	104	0	60	147491
2026-01-29 04:30:07.77	21.73	13.15	-53.1	-71.0	3.6	8.46e-01	0	46	104	0	60	138547
2026-01-29 04:30:08.78	21.68	13.24	-53.9	-71.2	3.6	8.45e-01	0	46	104	0	60	142303
2026-01-29 04:30:09.79	21.63	13.34	-54.2	-71.6	3.6	8.45e-01	0	46	104	0	60	148511
2026-01-29 04:30:10.79	21.58	13.44	-50.0	-71.5	3.6	8.45e-01	0	46	104	0	60	146795
2026-01-29 04:30:11.80	21.53	13.53	-50.5	-71.8	3.6	8.45e-01	0	46	104	0	60	152299
2026-01-29 04:30:12.81	21.47	13.63	-49.8	-72.1	3.6	8.46e-01	0	46	104	0	60	157047
2026-01-29 04:30:13.82	21.42	13.73	-55.0	-71.0	3.6	8.45e-01	0	46	104	0	60	138448
2026-01-29 04:30:14.83	21.37	13.83	-49.8	-71.9	3.6	8.46e-01	0	46	104	0	60	154574
2026-01-29 04:30:15.83	21.32	13.93	-51.0	-71.1	3.6	8.44e-01	0	46	104	0	60	141191
2026-01-29 04:30:16.84	21.26	14.03	-55.8	-70.5	3.6	8.45e-01	0	46	104	0	60	131066
2026-01-29 04:30:17.85	21.21	14.13	-56.2	-70.2	3.6	8.45e-01	0	46	104	0	60	126776
2026-01-29 04:30:18.85	21.15	14.23	-57.3	-71.1	3.5	8.45e-01	0	46	104	0	60	141049
2026-01-29 04:30:19.86	21.10	14.33	-51.9	-70.7	3.6	8.45e-01	0	46	104	0	60	134485
2026-01-29 04:30:20.87	21.04	14.43	-52.6	-71.3	3.6	8.45e-01	0	46	104	0	60	143652
2026-01-29 04:30:21.87	20.99	14.53	-53.4	-71.4	3.6	8.44e-01	0	46	104	0	60	145719
2026-01-29 04:30:22.88	20.93	14.63	-55.6	-70.2	3.6	8.45e-01	0	46	104	0	60	127150
2026-01-29 04:30:23.88	20.88	14.73	-56.7	-69.7	3.6	8.45e-01	0	46	104	0	60	119088
2026-01-29 04:30:24.88	20.82	14.83	-56.3	-69.9	3.6	8.44e-01	0	46	104	0	60	121922
2026-01-29 04:30:25.89	20.76	14.94	-56.7	-69.9	3.6	8.45e-01	0	46	104	0	60	121892
2026-01-29 04:30:26.89	20.71	15.04	-56.4	-72.3	3.6	8.46e-01	0	46	104	0	60	160647
2026-01-29 04:30:27.89	20.65	15.14	-54.9	-70.7	3.6	8.44e-01	0	46	104	0	60	133828
2026-01-29 04:30:28.90	20.59	15.24	-56.4	-72.7	3.6	8.45e-01	0	46	104	0	60	168753
2026-01-29 04:30:29.91	20.53	15.35	-53.2	-70.9	3.6	8.46e-01	0	46	104	0	60	138014
2026-01-29 04:30:30.92	20.47	15.45	-56.4	-70.5	3.6	8.46e-01	0	46	104	0	60	131428
2026-01-29 04:30:31.92	20.41	15.56	-56.3	-70.5	3.6	8.45e-01	0	46	104	0	60	131599
2026-01-29 04:30:32.93	20.35	15.66	-56.4	-70.5	3.6	8.45e-01	0	46	104	0	60	131237
2026-01-29 04:30:33.93	20.29	15.77	-56.4	-70.3	3.6	8.45e-01	0	46	104	0	60	128491
2026-01-29 04:30:34.93	20.23	15.88	-52.3	-71.2	3.6	8.45e-01	0	46	104	0	60	141631
2026-01-29 04:30:35.94	20.17	15.98	-58.1	-73.6	3.6	8.45e-01	0	46	104	0	60	186949
2026-01-29 04:30:36.94	20.11	16.09	-57.0	-70.9	3.6	8.45e-01	0	46	104	0	60	136663
2026-01-29 04:30:37.94	20.05	16.20	-52.9	-72.4	3.6	8.45e-01	0	47	104	0	60	163046
2026-01-29 04:30:38.94	19.98	16.30	-57.4	-70.5	3.6	8.45e-01	0	46	104	0	60	131993
2026-01-29 04:30:39.95	19.92	16.41	-57.2	-70.9	3.6	8.45e-01	0	47	104	0	60	136840
2026-01-29 04:30:40.96	19.86	16.52	-57.4	-70.9	3.6	8.45e-01	0	46	104	0	60	138200
2026-01-29 04:30:41.96	19.79	16.63	-57.6	-71.1	3.6	8.46e-01	0	46	104	0	60	140175
2026-01-29 04:30:42.97	19.73	16.74	-52.9	-71.5	3.6	8.45e-01	0	46	104	0	60	146525
2026-01-29 04:30:43.98	19.66	16.85	-57.9	-73.1	3.6	8.45e-01	0	46	104	0	60	176317
2026-01-29 04:30:44.99	19.60	16.96	-52.9	-71.3	3.6	8.45e-01	0	46	104	0	60	143114
2026-01-29 04:30:45.99	19.53	17.07	-55.7	-71.9	3.6	8.45e-01	0	47	104	0	60	154566
2026-01-29 04:30:47.00	19.46	17.19	-55.7	-72.1	3.6	8.45e-01	0	46	104	0	60	158095
2026-01-29 04:30:48.01	19.39	17.30	-53.5	-71.7	3.6	8.47e-01	0	47	104	0	60	151126
2026-01-29 04:30:49.01	19.33	17.41	-53.7	-71.1	3.6	8.45e-01	0	46	104	0	60	140832
2026-01-29 04:30:50.02	19.26	17.52	-54.9	-70.8	3.6	8.45e-01	0	46	104	0	60	135872
2026-01-29 04:30:51.02	19.19	17.64	-51.6	-72.9	3.6	8.45e-01	0	46	104	0	60	173056
2026-01-29 04:30:52.02	19.12	17.75	-53.8	-73.1	3.6	8.44e-01	0	46	104	0	60	177542
2026-01-29 04:30:53.03	19.05	17.86	-58.5	-72.5	3.6	8.45e-01	0	46	104	0	60	164888
2026-01-29 04:30:54.03	18.98	17.98	-58.5	-72.1	3.6	8.47e-01	0	47	104	0	60	157250
2026-01-29 04:30:55.03	18.91	18.09	-54.3	-71.6	3.6	8.45e-01	0	47	104	0	60	149280
2026-01-29 04:30:56.03	18.84	18.21	-54.9	-71.6	3.6	8.45e-01	0	46	104	0	60	148932
2026-01-29 04:30:57.03	18.77	18.32	-55.6	-71.3	3.6	8.45e-01	0	46	104	0	60	143637
2026-01-29 04:30:58.03	18.69	18.44	-55.7	-71.0	3.6	8.45e-01	0	47	104	0	60	139703
2026-01-29 04:30:59.03	18.62	18.56	-55.7	-71.3	3.6	8.46e-01	0	46	104	0	60	143157
2026-01-29 04:31:00.04	18.55	18.68	-56.0	-73.1	3.6	8.45e-01	0	46	104	0	60	177882
2026-01-29 04:31:01.04	18.47	18.79	-56.2	-73.4	3.6	8.44e-01	0	47	104	0	60	182451
2026-01-29 04:31:02.05	18.40	18.91	-56.6	-71.7	3.6	8.44e-01	0	47	104	0	60	150317
2026-01-29 04:31:03.05	18.32	19.03	-52.8	-72.6	3.6	8.45e-01	0	47	104	0	60	166246
2026-01-29 04:31:04.06	18.24	19.15	-51.5	-71.9	3.6	8.45e-01	0	47	104	0	60	154630
2026-01-29 04:31:05.06	18.17	19.27	-51.2	-72.1	3.5	8.45e-01	0	47	104	0	60	158043
2026-01-29 04:31:06.07	18.09	19.39	-52.6	-72.0	3.6	8.45e-01	0	46	104	0	60	155879
2026-01-29 04:31:07.08	18.01	19.52	-55.1	-72.1	3.6	8.44e-01	0	47	104	0	60	158294
2026-01-29 04:31:08.08	17.93	19.64	-54.9	-71.5	3.6	8.45e-01	0	47	104	0	60	146897
2026-01-29 04:31:09.09	17.85	19.76	-57.6	-72.3	3.6	8.45e-01	0	47	104	0	60	162033
2026-01-29 04:31:10.10	17.77	19.89	-53.9	-71.3	3.6	8.45e-01	0	46	104	0	60	143554
2026-01-29 04:31:11.11	17.69	20.01	-57.1	-71.7	3.6	8.45e-01	0	47	104	0	60	149848
2026-01-29 04:31:12.12	17.60	20.14	-54.2	-72.8	3.6	8.45e-01	0	46	104	0	60	171105
2026-01-29 04:31:13.12	17.52	20.26	-53.4	-71.4	3.6	8.45e-01	0	46	104	0	60	146260
2026-01-29 04:31:14.13	17.44	20.39	-57.1	-71.2	3.6	8.45e-01	0	46	104	0	60	142255
2026-01-29 04:31:15.14	17.35	20.51	-58.0	-71.1	3.6	8.45e-01	0	47	104	0	60	139834
2026-01-29 04:31:16.15	17.27	20.64	-59.0	-72.1	3.6	8.46e-01	0	47	104	0	60	157240
2026-01-29 04:31:17.16	17.18	20.77	-56.4	-72.6	3.5	8.44e-01	0	46	104	0	60	167313
2026-01-29 04:31:18.16	17.10	20.89	-58.5	-71.8	3.6	8.46e-01	0	47	104	0	60	151983
2026-01-29 04:31:19.16	17.01	21.02	-56.6	-71.8	3.6	8.45e-01	0	47	104	0	60	152551
2026-01-29 04:31:20.17	16.92	21.15	-57.5	-70.8	3.6	8.45e-01	0	47	104	0	60	135149
2026-01-29 04:31:21.18	16.83	21.28	-57.3	-70.7	3.6	8.44e-01	0	46	104	0	60	134617
2026-01-29 04:31:22.19	16.74	21.41	-58.6	-70.6	3.6	8.45e-01	0	46	104	0	60	132140
2026-01-29 04:31:23.19	16.65	21.54	-59.1	-70.8	3.6	8.45e-01	0	47	104	0	60	135999
2026-01-29 04:31:24.20	16.56	21.67	-57.2	-73.1	3.6	8.46e-01	0	46	104	0	60	177346
2026-01-29 04:31:25.21	16.47	21.81	-59.5	-73.3	3.6	8.44e-01	0	47	104	0	60	181796
2026-01-29 04:31:26.21	16.38	21.94	-58.9	-71.4	3.6	8.45e-01	0	46	104	0	60	146252
2026-01-29 04:31:27.21	16.29	22.07	-55.3	-72.1	3.6	8.45e-01	0	46	104	0	60	157717
2026-01-29 04:31:28.22	16.19	22.21	-59.0	-71.4	3.6	8.45e-01	0	46	104	0	60	145334
2026-01-29 04:31:29.23	16.10	22.34	-58.0	-71.3	3.6	8.44e-01	0	47	104	0	60	144602
2026-01-29 04:31:30.23	16.00	22.47	-57.7	-71.5	3.6	8.45e-01	0	46	104	0	60	146853
2026-01-29 04:31:31.24	15.90	22.61	-57.4	-71.5	3.6	8.45e-01	0	46	104	0	60	147562
2026-01-29 04:31:32.25	15.80	22.75	-56.1	-72.4	3.6	8.45e-01	0	47	104	0	60	162937
2026-01-29 04:31:33.26	15.71	22.89	-58.2	-73.6	3.6	8.45e-01	0	47	104	0	60	188011
2026-01-29 04:31:34.26	15.61	23.02	-57.9	-73.0	3.6	8.46e-01	0	46	104	0	60	175772
2026-01-29 04:31:35.27	15.51	23.16	-59.8	-73.3	3.6	8.45e-01	0	47	104	0	60	180318
2026-01-29 04:31:36.28	15.40	23.30	-59.4	-71.8	3.6	8.44e-01	0	46	104	0	60	152671
2026-01-29 04:31:37.28	15.30	23.44	-59.5	-72.1	3.6	8.44e-01	0	47	104	0	60	157909
2026-01-29 04:31:38.29	15.20	23.58	-59.3	-71.9	3.6	8.45e-01	0	46	104	0	60	154799
2026-01-29 04:31:39.30	15.09	23.72	-58.9	-71.9	3.6	8.44e-01	0	46	104	0	60	154678
2026-01-29 04:31:40.30	14.99	23.86	-57.4	-73.2	3.6	8.45e-01	0	47	104	0	60	178957
2026-01-29 04:31:41.31	14.88	24.00	-59.4	-72.5	3.6	8.47e-01	0	46	104	0	60	165912
2026-01-29 04:31:42.32	14.77	24.15	-58.7	-71.5	3.6	8.45e-01	0	46	104	0	60	147418
2026-01-29 04:31:43.33	14.67	24.29	-57.9	-71.7	3.6	8.45e-01	0	46	104	0	60	150523
2026-01-29 04:31:44.33	14.56	24.44	-57.2	-72.0	3.6	8.44e-01	0	46	104	0	60	155448
2026-01-29 04:31:45.34	14.45	24.58	-58.5	-71.2	3.6	8.45e-01	0	46	104	0	60	142403
2026-01-29 04:31:46.34	14.34	24.73	-58.1	-71.0	3.6	8.45e-01	0	46	104	0	60	138365
2026-01-29 04:31:47.34	14.22	24.87	-57.9	-71.0	3.6	8.45e-01	0	47	104	0	60	138255
2026-01-29 04:31:48.35	14.11	25.02	-59.3	-72.0	3.6	8.45e-01	0	46	104	0	60	156726
2026-01-29 04:31:49.36	13.99	25.17	-58.4	-71.7	3.6	8.44e-01	0	46	104	0	60	149832
2026-01-29 04:31:50.37	13.88	25.32	-58.4	-70.8	3.6	8.45e-01	0	47	104	0	60	136572
2026-01-29 04:31:51.37	13.76	25.46	-58.6	-72.1	3.6	8.44e-01	0	47	104	0	60	158387
2026-01-29 04:31:52.38	13.64	25.61	-58.1	-71.3	3.6	8.45e-01	0	46	104	0	60	143450
2026-01-29 04:31:53.39	13.52	25.77	-57.8	-70.9	3.6	8.46e-01	0	46	104	0	60	138183
2026-01-29 04:31:54.39	13.40	25.92	-58.2	-70.8	3.6	8.44e-01	0	47	104	0	60	135919
2026-01-29 04:31:55.40	13.28	26.07	-58.6	-70.9	3.6	8.44e-01	0	47	104	0	60	137626
2026-01-29 04:31:56.41	13.16	26.22	-59.1	-72.6	3.6	8.45e-01	0	46	104	0	60	166323
2026-01-29 04:31:57.41	13.04	26.37	-58.9	-73.5	3.6	8.45e-01	0	47	104	0	60	185521
2026-01-29 04:31:58.42	12.91	26.53	-58.2	-71.6	3.6	8.46e-01	0	46	104	0	60	149147
2026-01-29 04:31:59.42	12.78	26.68	-56.8	-72.3	3.6	8.46e-01	0	47	104	0	60	160578
2026-01-29 04:32:00.43	12.66	26.84	-58.7	-71.2	3.6	8.46e-01	0	46	104	0	60	142507
2026-01-29 04:32:01.44	12.53	27.00	-58.3	-71.5	3.6	8.46e-01	0	46	104	0	60	146577
2026-01-29 04:32:02.44	12.40	27.15	-58.7	-71.6	3.6	8.46e-01	0	47	104	0	60	148967
2026-01-29 04:32:03.45	12.26	27.31	-59.9	-71.8	3.6	8.45e-01	0	47	104	0	60	152619
2026-01-29 04:32:04.46	12.13	27.47	-59.6	-73.5	3.6	8.45e-01	0	47	104	0	60	186274
2026-01-29 04:32:05.47	12.00	27.63	-58.4	-73.4	3.6	8.46e-01	0	47	104	0	60	183424
2026-01-29 04:32:06.47	11.86	27.79	-55.7	-72.3	3.6	8.45e-01	0	47	104	0	60	160754
2026-01-29 04:32:07.48	11.72	27.95	-57.2	-73.0	3.6	8.45e-01	0	47	104	0	60	175300
2026-01-29 04:32:08.49	11.58	28.11	-58.3	-72.7	3.6	8.46e-01	0	47	104	0	60	168604
2026-01-29 04:32:09.49	11.44	28.27	-57.4	-72.3	3.6	8.45e-01	0	47	104	0	60	161175
2026-01-29 04:32:10.50	11.30	28.44	-56.9	-72.4	3.6	8.45e-01	0	47	104	0	60	162836
2026-01-29 04:32:11.51	11.16	28.60	-55.0	-72.3	3.6	8.44e-01	0	47	104	0	60	161940
2026-01-29 04:32:12.52	11.01	28.77	-57.3	-73.0	3.6	8.44e-01	0	47	104	0	60	175489
2026-01-29 04:32:13.52	10.87	28.93	-55.2	-73.4	3.6	8.45e-01	0	47	104	0	60	184013
2026-01-29 04:32:14.53	10.72	29.10	-54.9	-72.2	3.6	8.45e-01	0	47	104	0	60	160254
2026-01-29 04:32:15.53	10.57	29.26	-56.4	-72.3	3.6	8.45e-01	0	47	104	0	60	162278
2026-01-29 04:32:16.54	10.42	29.43	-59.8	-72.3	3.6	8.46e-01	0	47	104	0	60	161026
2026-01-29 04:32:17.55	10.27	29.60	-59.4	-72.5	3.6	8.45e-01	0	47	104	0	60	165606
2026-01-29 04:32:18.56	10.11	29.77	-57.4	-72.3	3.6	8.45e-01	0	47	104	0	60	161784
2026-01-29 04:32:19.56	9.96	29.94	-55.3	-73.0	3.6	8.45e-01	0	47	104	0	60	174957
2026-01-29 04:32:20.57	9.80	30.11	-59.1	-73.3	3.6	8.46e-01	0	46	104	0	60	180317
2026-01-29 04:32:21.58	9.64	30.28	-59.0	-73.4	3.6	8.45e-01	0	47	104	0	60	183036
2026-01-29 04:32:22.59	9.48	30.46	-54.5	-72.2	3.6	8.45e-01	0	47	104	0	60	159295
2026-01-29 04:32:23.60	9.32	30.63	-57.0	-71.9	3.6	8.46e-01	0	47	104	0	60	154810
2026-01-29 04:32:24.60	9.15	30.80	-55.4	-71.9	3.6	8.45e-01	0	46	104	0	60	153727
2026-01-29 04:32:25.61	8.98	30.98	-57.7	-72.2	3.6	8.45e-01	0	46	104	0	60	159136
2026-01-29 04:32:26.61	8.82	31.15	-59.3	-72.4	3.6	8.46e-01	0	47	104	0	60	163178
2026-01-29 04:32:27.61	8.65	31.33	-59.6	-72.0	3.6	8.45e-01	0	46	104	0	60	155377
2026-01-29 04:32:28.62	8.48	31.50	-59.7	-71.1	3.6	8.44e-01	0	47	104	0	60	141058
2026-01-29 04:32:29.63	8.30	31.68	-60.1	-73.3	3.5	8.45e-01	0	47	104	0	60	181312
2026-01-29 04:32:30.64	8.12	31.86	-60.2	-72.9	3.6	8.45e-01	0	47	104	0	60	173881
2026-01-29 04:32:31.64	7.95	32.04	-59.9	-72.4	3.6	8.45e-01	0	47	104	0	60	163034
2026-01-29 04:32:32.65	7.77	32.22	-59.9	-73.1	3.6	8.46e-01	0	47	104	0	60	177426
2026-01-29 04:32:33.66	7.59	32.40	-60.0	-73.2	3.6	8.46e-01	0	47	104	0	60	178735
2026-01-29 04:32:34.67	7.40	32.58	-59.9	-73.1	3.6	8.45e-01	0	47	104	0	60	176831
2026-01-29 04:32:35.68	7.21	32.77	-59.5	-73.0	3.6	8.46e-01	0	47	104	0	60	174300
2026-01-29 04:32:36.68	7.03	32.95	-58.9	-72.8	3.6	8.44e-01	0	47	104	0	60	171642
2026-01-29 04:32:37.69	6.84	33.13	-59.2	-72.9	3.6	8.45e-01	0	47	104	0	60	173918
2026-01-29 04:32:38.70	6.64	33.32	-59.7	-73.2	3.6	8.46e-01	0	47	104	0	60	179166
2026-01-29 04:32:39.71	6.45	33.51	-59.2	-72.9	3.6	8.45e-01	0	47	104	0	60	173906
2026-01-29 04:32:40.71	6.25	33.69	-59.5	-71.6	3.6	8.44e-01	0	47	104	0	60	149648
2026-01-29 04:32:41.72	6.05	33.88	-59.2	-71.8	3.6	8.45e-01	0	47	104	0	60	153082
2026-01-29 04:32:42.73	5.85	34.07	-58.9	-71.8	3.5	8.45e-01	0	47	104	0	60	152557
2026-01-29 04:32:43.73	5.64	34.25	-59.8	-73.5	3.6	8.45e-01	0	47	104	0	60	184357
2026-01-29 04:32:44.74	5.44	34.44	-59.4	-73.4	3.6	8.46e-01	0	47	104	0	60	183110
2026-01-29 04:32:45.75	5.23	34.63	-59.6	-73.4	3.6	8.46e-01	0	47	104	0	60	182874
2026-01-29 04:32:46.76	5.01	34.82	-60.1	-73.1	3.6	8.45e-01	0	47	104	0	60	177332
2026-01-29 04:32:47.76	4.80	35.01	-59.7	-73.4	3.6	8.45e-01	0	47	104	0	60	183693
2026-01-29 04:32:48.77	4.58	35.21	-59.7	-73.5	3.6	8.45e-01	0	47	104	0	60	185680
2026-01-29 04:32:49.78	4.36	35.40	-59.8	-72.6	3.6	8.45e-01	0	47	104	0	60	167910
2026-01-29 04:32:50.78	4.14	35.59	-59.5	-72.5	3.6	8.45e-01	0	47	104	0	60	164332
2026-01-29 04:32:51.79	3.92	35.79	-59.3	-72.0	3.6	8.44e-01	0	47	104	0	60	156436
2026-01-29 04:32:52.79	3.69	35.98	-59.4	-72.8	3.6	8.45e-01	0	47	104	0	60	171450
2026-01-29 04:32:53.80	3.46	36.18	-60.0	-73.0	3.6	8.45e-01	0	47	104	0	60	174730
2026-01-29 04:32:54.81	3.23	36.37	-59.9	-73.2	3.6	8.45e-01	0	47	104	0	60	178900
2026-01-29 04:32:55.81	2.99	36.57	-60.0	-72.4	3.6	8.44e-01	0	47	104	0	60	163560
2026-01-29 04:32:56.82	2.75	36.77	-59.7	-71.7	3.6	8.46e-01	0	47	104	0	60	150746
2026-01-29 04:32:57.83	2.51	36.96	-59.7	-71.9	3.6	8.45e-01	0	47	104	0	60	154331
2026-01-29 04:32:58.84	2.26	37.16	-59.6	-71.8	3.6	8.46e-01	0	47	104	0	60	152236
2026-01-29 04:32:59.84	2.02	37.36	-60.4	-72.9	3.6	8.45e-01	0	47	104	0	60	172962
2026-01-29 04:33:00.85	1.77	37.56	-60.4	-73.5	3.6	8.45e-01	0	47	104	0	60	185803
2026-01-29 04:33:01.86	1.51	37.76	-60.1	-72.4	3.6	8.45e-01	0	47	104	0	60	163641
2026-01-29 04:33:02.87	1.25	37.96	-60.1	-72.8	3.6	8.45e-01	0	47	104	0	60	171198
2026-01-29 04:33:03.87	0.99	38.16	-59.9	-72.3	3.6	8.45e-01	0	47	104	0	60	160871
2026-01-29 04:33:04.88	0.73	38.37	-59.6	-71.6	3.6	8.46e-01	0	47	104	0	60	149742
2026-01-29 04:33:05.88	0.46	38.57	-60.0	-72.2	3.6	8.45e-01	0	47	104	0	60	159000
2026-01-29 04:33:06.89	0.19	38.77	-60.2	-72.6	3.6	8.45e-01	0	47	104	0	60	166259
2026-01-29 04:33:07.90	359.92	38.97	-59.7	-72.1	3.6	8.47e-01	0	47	104	0	60	158395
2026-01-29 04:33:08.91	359.64	39.18	-59.5	-72.0	3.6	8.45e-01	0	47	104	0	60	156015
2026-01-29 04:33:09.91	359.36	39.38	-59.3	-72.5	3.6	8.44e-01	0	47	104	0	60	165446
2026-01-29 04:33:10.92	359.07	39.59	-59.8	-72.6	3.6	8.45e-01	0	47	104	0	60	167622
2026-01-29 04:33:11.93	358.79	39.79	-59.4	-71.7	3.6	8.46e-01	0	47	104	0	60	151044
2026-01-29 04:33:12.93	358.49	39.99	-59.4	-71.7	3.6	8.46e-01	0	47	104	0	60	151119
2026-01-29 04:33:13.94	358.20	40.20	-59.6	-72.0	3.6	8.46e-01	0	47	104	0	60	156564
2026-01-29 04:33:14.94	357.90	40.41	-59.4	-72.0	3.6	8.45e-01	0	46	104	0	60	155948
2026-01-29 04:33:15.95	357.60	40.61	-59.7	-72.0	3.6	8.45e-01	0	46	104	0	60	156790
2026-01-29 04:33:16.96	357.29	40.82	-59.7	-72.2	3.6	8.46e-01	0	47	104	0	60	159607
2026-01-29 04:33:17.96	356.98	41.02	-59.4	-71.8	3.6	8.45e-01	0	47	104	0	60	152930
2026-01-29 04:33:18.97	356.66	41.23	-60.0	-72.2	3.6	8.45e-01	0	47	104	0	60	160298
2026-01-29 04:33:19.98	356.34	41.44	-59.6	-71.8	3.6	8.45e-01	0	47	104	0	60	153179
2026-01-29 04:33:20.99	356.02	41.65	-59.6	-71.7	3.6	8.44e-01	0	47	104	0	60	150016
2026-01-29 04:33:21.99	355.69	41.85	-59.7	-71.6	3.6	8.45e-01	0	47	104	0	60	148933
2026-01-29 04:33:23.00	355.36	42.06	-59.8	-71.7	3.6	8.45e-01	0	47	104	0	60	151307
2026-01-29 04:33:24.01	355.02	42.27	-59.9	-72.2	3.6	8.46e-01	0	47	104	0	60	158904
2026-01-29 04:33:25.01	354.68	42.48	-60.2	-72.8	3.6	8.45e-01	0	47	104	0	60	170530
2026-01-29 04:33:26.01	354.34	42.68	-59.7	-72.0	3.6	8.45e-01	0	47	104	0	60	156709
2026-01-29 04:33:27.02	353.99	42.89	-59.7	-72.2	3.6	8.44e-01	0	47	104	0	60	159148
2026-01-29 04:33:28.03	353.63	43.10	-59.7	-72.1	3.6	8.45e-01	0	47	104	0	60	158407
2026-01-29 04:33:29.03	353.27	43.30	-59.8	-71.9	3.6	8.44e-01	0	47	104	0	60	154011
2026-01-29 04:33:30.04	352.91	43.51	-60.2	-72.6	3.6	8.45e-01	0	47	104	0	60	166573
2026-01-29 04:33:31.05	352.54	43.72	-60.3	-72.5	3.6	8.45e-01	0	47	104	0	60	164348
2026-01-29 04:33:32.06	352.16	43.93	-60.3	-72.8	3.5	8.45e-01	0	47	104	0	60	170269
2026-01-29 04:33:33.07	351.78	44.13	-59.5	-72.8	3.6	8.46e-01	0	47	104	0	60	171229
2026-01-29 04:33:34.08	351.40	44.34	-60.3	-72.6	3.6	8.46e-01	0	47	104	0	60	167244
2026-01-29 04:33:35.09	351.01	44.55	-59.4	-72.6	3.6	8.46e-01	0	47	104	0	60	166893
2026-01-29 04:33:36.09	350.62	44.75	-60.6	-73.2	3.6	8.45e-01	0	47	104	0	60	178719
2026-01-29 04:33:37.10	350.22	44.95	-60.4	-72.4	3.6	8.45e-01	0	47	104	0	60	163589
2026-01-29 04:33:38.11	349.81	45.16	-59.7	-72.3	3.6	8.45e-01	0	47	104	0	60	161891
2026-01-29 04:33:39.11	349.41	45.36	-59.5	-72.1	3.6	8.45e-01	0	47	104	0	60	156977
2026-01-29 04:33:40.12	348.99	45.57	-60.3	-73.1	3.6	8.45e-01	0	47	104	0	60	177172
2026-01-29 04:33:41.13	348.57	45.77	-60.8	-73.8	3.6	8.44e-01	0	47	104	0	60	190975
2026-01-29 04:33:42.13	348.15	45.97	-61.1	-73.5	3.6	8.46e-01	0	47	104	0	60	185640
2026-01-29 04:33:43.13	347.72	46.17	-60.5	-73.6	3.6	8.45e-01	0	47	104	0	60	187042
2026-01-29 04:33:44.12	347.29	46.36	-60.8	-73.5	3.6	8.46e-01	0	47	104	0	60	184461
2026-01-29 04:33:45.13	346.85	46.56	-60.4	-73.3	3.6	8.45e-01	0	47	104	0	60	182148
2026-01-29 04:33:46.13	346.40	46.76	-60.4	-73.5	3.6	8.45e-01	0	47	104	0	60	185039
2026-01-29 04:33:47.14	345.95	46.96	-59.6	-73.6	3.6	8.44e-01	0	47	104	0	60	188441
2026-01-29 04:33:48.14	345.49	47.15	-60.6	-73.5	3.6	8.46e-01	0	47	104	0	60	184753
2026-01-29 04:33:49.14	345.03	47.35	-59.9	-73.8	3.6	8.45e-01	0	47	104	0	60	191642
2026-01-29 04:33:50.16	344.55	47.54	-59.8	-73.6	3.6	8.45e-01	0	47	104	0	60	186672
2026-01-29 04:33:51.16	344.08	47.73	-60.8	-73.9	3.6	8.45e-01	0	47	104	0	60	195091
2026-01-29 04:33:52.17	343.59	47.93	-59.6	-73.4	3.6	8.45e-01	0	47	104	0	60	183483
2026-01-29 04:33:53.18	343.10	48.12	-60.5	-73.9	3.6	8.45e-01	0	47	104	0	60	194570
2026-01-29 04:33:54.19	342.61	48.31	-60.5	-73.6	3.6	8.45e-01	0	47	104	0	60	187897
2026-01-29 04:33:55.19	342.11	48.49	-60.5	-73.1	3.6	8.46e-01	0	47	104	0	60	177400
2026-01-29 04:33:56.20	341.60	48.68	-60.5	-73.7	3.6	8.46e-01	0	47	104	0	60	189142
2026-01-29 04:33:57.21	341.08	48.86	-60.5	-73.2	3.6	8.45e-01	0	47	104	0	60	178362
2026-01-29 04:33:58.21	340.57	49.04	-60.6	-73.5	3.6	8.45e-01	0	47	104	0	60	184974
2026-01-29 04:33:59.20	340.05	49.22	-60.8	-73.9	3.6	8.46e-01	0	47	104	0	60	193013
2026-01-29 04:34:00.20	339.52	49.39	-60.2	-73.5	3.6	8.44e-01	0	47	104	0	60	184733
2026-01-29 04:34:01.21	338.98	49.57	-61.1	-73.8	3.6	8.46e-01	0	47	104	0	60	192226
2026-01-29 04:34:02.21	338.44	49.74	-60.6	-74.2	3.6	8.44e-01	0	47	104	0	60	201012
2026-01-29 04:34:03.22	337.89	49.92	-60.0	-73.3	3.6	8.46e-01	0	47	104	0	60	180427
2026-01-29 04:34:04.22	337.34	50.08	-60.8	-73.9	3.6	8.45e-01	0	47	104	0	60	193599
2026-01-29 04:34:05.23	336.77	50.25	-60.0	-73.5	3.6	8.45e-01	0	47	104	0	60	185546
2026-01-29 04:34:06.23	336.21	50.42	-60.1	-73.7	3.6	8.46e-01	0	47	104	0	60	189736
2026-01-29 04:34:07.24	335.63	50.58	-60.2	-73.8	3.6	8.46e-01	0	47	104	0	60	191378
2026-01-29 04:34:08.24	335.05	50.74	-60.2	-73.7	3.6	8.45e-01	0	47	104	0	60	189252
2026-01-29 04:34:09.25	334.46	50.90	-60.0	-73.5	3.6	8.45e-01	0	47	104	0	60	185958
2026-01-29 04:34:10.26	333.87	51.05	-60.2	-73.8	3.6	8.46e-01	0	47	104	0	60	191952
2026-01-29 04:34:11.27	333.26	51.20	-60.3	-73.9	3.6	8.46e-01	0	47	104	0	60	195040
2026-01-29 04:34:12.27	332.66	51.35	-60.1	-73.6	3.6	8.46e-01	0	47	104	0	60	186584
2026-01-29 04:34:13.27	332.05	51.50	-60.5	-73.8	3.6	8.45e-01	0	47	104	0	60	192348
2026-01-29 04:34:14.27	331.44	51.64	-60.2	-73.6	3.6	8.47e-01	0	47	104	0	60	188206
2026-01-29 04:34:15.28	330.81	51.78	-60.7	-73.8	3.6	8.45e-01	0	47	104	0	60	192907
2026-01-29 04:34:16.28	330.19	51.92	-60.7	-73.7	3.6	8.44e-01	0	47	104	0	60	189421
2026-01-29 04:34:17.28	329.56	52.05	-60.3	-73.8	3.6	8.45e-01	0	47	104	0	60	192506
2026-01-29 04:34:18.29	328.91	52.18	-60.4	-73.7	3.6	8.46e-01	0	47	104	0	60	189001
2026-01-29 04:34:19.29	328.27	52.30	-59.9	-73.9	3.6	8.45e-01	0	47	104	0	60	193781
2026-01-29 04:34:20.30	327.62	52.43	-60.2	-73.4	3.6	8.45e-01	0	47	104	0	60	183891
2026-01-29 04:34:21.31	326.96	52.55	-59.3	-73.7	3.6	8.45e-01	0	47	104	0	60	188931
2026-01-29 04:34:22.32	326.29	52.66	-60.2	-73.6	3.6	8.46e-01	0	47	104	0	60	188481
2026-01-29 04:34:23.33	325.62	52.78	-59.4	-73.8	3.6	8.44e-01	0	47	104	0	60	192445
2026-01-29 04:34:24.33	324.95	52.88	-58.8	-73.4	3.6	8.45e-01	0	47	104	0	60	183468
2026-01-29 04:34:25.34	324.27	52.99	-59.9	-73.6	3.6	8.45e-01	0	47	104	0	60	188568
2026-01-29 04:34:26.34	323.59	53.09	-59.2	-73.6	3.6	8.45e-01	0	47	104	0	60	186944
2026-01-29 04:34:27.35	322.90	53.19	-60.2	-73.7	3.6	8.45e-01	0	47	104	0	60	189200
2026-01-29 04:34:28.36	322.20	53.28	-59.4	-73.5	3.5	8.45e-01	0	47	104	0	60	184979
2026-01-29 04:34:29.37	321.51	53.37	-60.2	-73.6	3.6	8.45e-01	0	47	104	0	60	188110
2026-01-29 04:34:30.37	320.81	53.45	-60.1	-73.5	3.6	8.44e-01	0	47	104	0	60	186438
2026-01-29 04:34:31.38	320.10	53.53	-60.0	-73.7	3.6	8.45e-01	0	47	104	0	60	189348
2026-01-29 04:34:32.39	319.39	53.61	-60.1	-73.2	3.6	8.45e-01	0	47	104	0	60	179180
2026-01-29 04:34:33.39	318.68	53.68	-59.6	-73.3	3.6	8.45e-01	0	47	104	0	60	180281
2026-01-29 04:34:34.40	317.96	53.75	-60.1	-73.5	3.6	8.45e-01	0	47	104	0	60	185836
2026-01-29 04:34:35.41	317.24	53.81	-59.0	-73.3	3.6	8.46e-01	0	47	104	0	60	180782
2026-01-29 04:34:36.41	316.52	53.87	-59.8	-72.7	3.6	8.44e-01	0	47	104	0	60	169896
2026-01-29 04:34:37.42	315.80	53.92	-58.5	-73.1	3.5	8.46e-01	0	47	104	0	60	176408
2026-01-29 04:34:38.43	315.07	53.97	-59.0	-73.0	3.6	8.45e-01	0	47	104	0	60	175181
2026-01-29 04:34:39.44	314.33	54.01	-57.9	-72.9	3.6	8.44e-01	0	47	104	0	60	172930
2026-01-29 04:34:40.45	313.60	54.05	-58.9	-72.6	3.6	8.45e-01	0	47	104	0	60	166860
2026-01-29 04:34:41.45	312.87	54.09	-59.0	-72.8	3.6	8.45e-01	0	47	104	0	60	170466
2026-01-29 04:34:42.46	312.13	54.12	-59.0	-72.7	3.6	8.46e-01	0	47	104	0	60	168817
2026-01-29 04:34:43.46	311.40	54.14	-58.8	-72.8	3.5	8.45e-01	0	47	104	0	60	171650
2026-01-29 04:34:44.47	310.66	54.16	-58.3	-72.9	3.6	8.46e-01	0	47	104	0	60	173854
2026-01-29 04:34:45.48	309.92	54.18	-58.3	-73.0	3.6	8.45e-01	0	47	104	0	60	174011
2026-01-29 04:34:46.49	309.18	54.19	-58.0	-72.6	3.6	8.45e-01	0	47	104	0	60	166341
2026-01-29 04:34:47.50	308.43	54.19	-58.4	-72.8	3.6	8.45e-01	0	47	104	0	60	170957
2026-01-29 04:34:48.50	307.70	54.19	-58.0	-72.7	3.6	8.46e-01	0	47	104	0	60	169547
2026-01-29 04:34:49.51	306.95	54.19	-58.8	-72.5	3.6	8.45e-01	0	47	104	0	60	165869
2026-01-29 04:34:50.52	306.21	54.18	-59.1	-72.2	3.6	8.45e-01	0	47	104	0	60	160273
2026-01-29 04:34:51.53	305.47	54.17	-59.5	-72.1	3.6	8.45e-01	0	47	104	0	60	158645
2026-01-29 04:34:52.53	304.73	54.15	-58.8	-72.3	3.6	8.45e-01	0	47	104	0	60	161689
2026-01-29 04:34:53.54	303.99	54.13	-58.8	-72.4	3.6	8.46e-01	0	47	104	0	60	164236
2026-01-29 04:34:54.55	303.26	54.10	-58.5	-72.6	3.6	8.45e-01	0	47	104	0	60	166693
2026-01-29 04:34:55.56	302.52	54.06	-58.2	-72.6	3.6	8.45e-01	0	47	104	0	60	166421
2026-01-29 04:34:56.56	301.79	54.03	-58.5	-72.4	3.6	8.46e-01	0	47	104	0	60	163291
2026-01-29 04:34:57.57	301.06	53.99	-58.0	-72.3	3.6	8.45e-01	0	47	104	0	60	162265
2026-01-29 04:34:58.58	300.33	53.94	-58.2	-72.2	3.6	8.46e-01	0	47	104	0	60	159567
2026-01-29 04:34:59.59	299.60	53.89	-58.3	-72.5	3.6	8.46e-01	0	47	104	0	60	165150
2026-01-29 04:35:00.59	298.88	53.83	-58.1	-72.5	3.6	8.45e-01	0	47	104	0	60	165687
2026-01-29 04:35:01.60	298.15	53.77	-58.0	-72.3	3.6	8.46e-01	0	47	104	0	60	162044
2026-01-29 04:35:02.61	297.43	53.70	-57.7	-72.3	3.6	8.45e-01	0	47	104	0	60	161127
2026-01-29 04:35:03.61	296.72	53.64	-57.3	-72.3	3.6	8.46e-01	0	47	104	0	60	161317
2026-01-29 04:35:04.61	296.02	53.56	-56.7	-72.6	3.6	8.46e-01	0	47	104	0	60	166421
2026-01-29 04:35:05.62	295.31	53.48	-56.6	-72.7	3.6	8.46e-01	0	47	104	0	60	169147
2026-01-29 04:35:06.63	294.60	53.40	-56.6	-72.5	3.6	8.46e-01	0	47	104	0	60	164969
2026-01-29 04:35:07.64	293.90	53.31	-56.5	-72.2	3.6	8.45e-01	0	47	104	0	60	158978
2026-01-29 04:35:08.64	293.21	53.22	-56.6	-72.6	3.6	8.45e-01	0	47	104	0	60	167571
2026-01-29 04:35:09.65	292.52	53.13	-56.6	-72.4	3.6	8.46e-01	0	47	104	0	60	163336
2026-01-29 04:35:10.66	291.83	53.03	-57.0	-72.2	3.6	8.45e-01	0	47	104	0	60	159393
2026-01-29 04:35:11.67	291.15	52.92	-57.7	-71.9	3.6	8.45e-01	0	47	104	0	60	154792
2026-01-29 04:35:12.68	290.47	52.82	-58.8	-73.3	3.6	8.44e-01	0	47	104	0	60	180795
2026-01-29 04:35:13.69	289.80	52.71	-58.8	-73.2	3.6	8.45e-01	0	47	104	0	60	178258
2026-01-29 04:35:14.69	289.13	52.59	-59.3	-72.3	3.6	8.45e-01	0	47	104	0	60	162383
2026-01-29 04:35:15.70	288.47	52.47	-59.1	-71.9	3.6	8.46e-01	0	47	104	0	60	154199
2026-01-29 04:35:16.71	287.81	52.35	-58.5	-71.8	3.6	8.45e-01	0	47	104	0	60	152035
2026-01-29 04:35:17.71	287.17	52.23	-59.1	-72.1	3.6	8.44e-01	0	47	104	0	60	157573
2026-01-29 04:35:18.72	286.52	52.10	-59.1	-72.1	3.6	8.45e-01	0	47	104	0	60	157570
2026-01-29 04:35:19.72	285.89	51.96	-59.1	-72.3	3.6	8.46e-01	0	47	104	0	60	161749
2026-01-29 04:35:20.73	285.25	51.83	-57.9	-72.9	3.6	8.46e-01	0	47	104	0	60	172753
2026-01-29 04:35:21.73	284.63	51.69	-57.9	-72.9	3.6	8.45e-01	0	47	104	0	60	173840
2026-01-29 04:35:22.74	284.01	51.55	-57.9	-72.9	3.6	8.45e-01	0	47	104	0	60	173148
2026-01-29 04:35:23.74	283.40	51.40	-57.9	-72.1	3.6	8.44e-01	0	47	104	0	60	157297
2026-01-29 04:35:24.74	282.79	51.26	-58.1	-71.4	3.6	8.44e-01	0	47	104	0	60	145233
2026-01-29 04:35:25.75	282.18	51.10	-57.9	-71.6	3.7	8.43e-01	0	47	104	0	60	148436
2026-01-29 04:35:26.75	281.59	50.95	-57.7	-71.1	3.6	8.44e-01	0	47	104	0	60	141063
2026-01-29 04:35:27.76	281.00	50.79	-56.7	-72.6	3.6	8.45e-01	0	47	104	0	60	167682
2026-01-29 04:35:28.77	280.41	50.64	-56.3	-73.0	3.6	8.45e-01	0	47	104	0	60	175221
2026-01-29 04:35:29.78	279.83	50.47	-56.5	-73.0	3.6	8.44e-01	0	47	104	0	60	174605
2026-01-29 04:35:30.78	279.26	50.31	-56.3	-73.0	3.6	8.44e-01	0	47	104	0	60	174298
2026-01-29 04:35:31.79	278.70	50.14	-56.5	-72.3	3.6	8.45e-01	0	47	104	0	60	160687
2026-01-29 04:35:32.80	278.13	49.97	-56.6	-70.8	3.6	8.45e-01	0	47	104	0	60	135493
2026-01-29 04:35:33.81	277.58	49.80	-56.3	-70.9	3.6	8.41e-01	0	47	104	0	60	137384
2026-01-29 04:35:34.81	277.03	49.63	-56.3	-70.9	3.6	8.43e-01	0	47	104	0	60	137474
2026-01-29 04:35:35.82	276.49	49.45	-56.3	-70.7	3.8	8.43e-01	0	47	104	0	60	134377
2026-01-29 04:35:36.83	275.96	49.27	-56.3	-70.6	3.6	8.41e-01	0	47	104	0	60	132718
2026-01-29 04:35:37.84	275.43	49.09	-56.5	-69.9	3.7	8.42e-01	0	47	104	0	60	122838
2026-01-29 04:35:38.84	274.91	48.91	-56.6	-70.0	3.9	8.40e-01	0	47	104	0	60	123724
2026-01-29 04:35:39.84	274.39	48.73	-56.5	-69.9	3.9	8.44e-01	0	47	104	0	60	123042
2026-01-29 04:35:40.84	273.89	48.55	-56.7	-68.2	3.8	8.35e-01	0	47	0	0	60	101070
2026-01-29 04:35:41.85	273.38	48.36	-57.1	-69.9	3.7	8.42e-01	0	47	104	0	60	122767
2026-01-29 04:35:42.86	272.88	48.17	-57.4	-68.6	3.7	8.38e-01	0	47	0	0	60	105875
2026-01-29 04:35:43.86	272.39	47.98	-57.5	-70.0	3.9	8.40e-01	0	47	104	0	60	124063
2026-01-29 04:35:44.87	271.91	47.79	-57.6	-69.9	3.9	8.43e-01	0	47	104	0	60	122808
2026-01-29 04:35:45.88	271.42	47.60	-57.7	-69.8	3.7	8.37e-01	0	47	104	0	60	121613
2026-01-29 04:35:46.89	270.95	47.40	-58.0	-69.0	3.9	8.38e-01	0	47	104	0	60	109997
2026-01-29 04:35:47.89	270.48	47.21	-58.1	-69.5	4.0	8.36e-01	0	47	104	0	60	117374
2026-01-29 04:35:48.90	270.02	47.01	-58.2	-68.4	3.7	8.36e-01	0	47	104	0	60	102877
2026-01-29 04:35:49.91	269.56	46.82	-58.2	-69.5	3.9	8.37e-01	0	47	104	0	60	116561
2026-01-29 04:35:50.91	269.12	46.62	-58.2	-68.0	3.8	8.33e-01	0	47	0	0	60	98510
2026-01-29 04:35:51.92	268.67	46.42	-58.4	-68.1	3.8	8.34e-01	0	47	0	0	60	99011
2026-01-29 04:35:52.92	268.23	46.22	-58.6	-69.7	3.7	8.34e-01	0	47	104	0	60	119257
2026-01-29 04:35:53.92	267.80	46.02	-58.6	-69.0	3.7	8.40e-01	0	47	0	0	60	109936
2026-01-29 04:35:54.93	267.37	45.82	-58.5	-70.0	3.8	8.40e-01	0	47	104	0	60	123715
2026-01-29 04:35:55.93	266.95	45.62	-58.6	-69.7	3.9	8.38e-01	0	47	104	0	60	119137
2026-01-29 04:35:56.93	266.54	45.41	-58.7	-67.9	3.8	8.35e-01	0	47	0	0	60	97796
2026-01-29 04:35:57.94	266.13	45.21	-58.8	-67.7	3.9	8.30e-01	0	47	0	0	60	95515
2026-01-29 04:35:58.95	265.72	45.00	-58.8	-67.8	3.9	8.32e-01	0	47	0	0	60	96138
2026-01-29 04:35:59.96	265.32	44.80	-58.8	-67.8	3.8	8.33e-01	0	47	0	0	60	96694
2026-01-29 04:36:00.97	264.92	44.59	-58.8	-69.3	3.7	8.41e-01	0	47	104	0	60	114457
2026-01-29 04:36:01.97	264.53	44.39	-59.0	-68.2	3.8	8.37e-01	0	47	0	0	60	100541
2026-01-29 04:36:02.98	264.14	44.18	-59.0	-67.9	3.9	8.32e-01	0	47	0	0	60	97044
2026-01-29 04:36:03.99	263.76	43.97	-58.9	-67.7	3.9	8.32e-01	0	47	0	0	60	95399
2026-01-29 04:36:05.00	263.38	43.77	-58.9	-67.6	3.9	8.31e-01	0	47	0	0	60	94452
2026-01-29 04:36:06.01	263.01	43.56	-58.9	-67.5	3.9	8.28e-01	0	47	0	0	60	93006
2026-01-29 04:36:07.01	262.65	43.35	-58.9	-67.5	3.9	8.29e-01	0	47	0	0	60	92875
2026-01-29 04:36:08.02	262.28	43.14	-59.0	-67.6	3.9	8.30e-01	0	47	0	0	60	93784
2026-01-29 04:36:09.03	261.93	42.93	-59.0	-67.7	3.8	8.31e-01	0	47	0	0	60	94812
2026-01-29 04:36:10.04	261.57	42.73	-58.9	-67.7	3.8	8.33e-01	0	47	0	0	60	94872
2026-01-29 04:36:11.04	261.23	42.52	-58.9	-69.1	3.7	8.37e-01	0	47	104	0	60	112174
2026-01-29 04:36:12.04	260.89	42.31	-58.8	-67.6	3.9	8.33e-01	0	46	0	0	60	93707
2026-01-29 04:36:13.05	260.55	42.10	-58.9	-67.2	4.0	8.29e-01	0	47	0	0	60	90208
2026-01-29 04:36:14.05	260.21	41.90	-58.9	-67.3	4.0	8.28e-01	0	47	0	0	60	90299
2026-01-29 04:36:15.06	259.88	41.69	-58.9	-67.2	4.0	8.27e-01	0	47	0	0	60	90073
2026-01-29 04:36:16.06	259.56	41.48	-58.9	-67.4	3.9	8.29e-01	0	47	0	0	60	91791
2026-01-29 04:36:17.07	259.24	41.27	-58.9	-67.5	3.9	8.31e-01	0	47	0	0	60	92769
2026-01-29 04:36:18.07	258.92	41.07	-58.9	-67.2	4.0	8.30e-01	0	47	0	0	60	89839
2026-01-29 04:36:19.08	258.61	40.86	-58.9	-67.2	4.0	8.27e-01	0	47	0	0	60	89466
2026-01-29 04:36:20.09	258.30	40.65	-58.9	-67.1	4.0	8.26e-01	0	47	0	0	60	88457
2026-01-29 04:36:21.10	257.99	40.44	-58.9	-66.9	4.1	8.23e-01	0	47	0	0	60	86566
2026-01-29 04:36:22.11	257.69	40.24	-58.9	-66.9	4.1	8.24e-01	0	47	0	0	60	86770
2026-01-29 04:36:23.11	257.39	40.03	-58.9	-67.0	4.0	8.25e-01	0	47	0	0	60	88094
2026-01-29 04:36:24.12	257.10	39.83	-59.0	-67.0	4.0	8.26e-01	0	47	0	0	60	88115
2026-01-29 04:36:25.13	256.81	39.62	-59.0	-67.2	4.0	8.28e-01	0	47	0	0	60	89494
2026-01-29 04:36:26.13	256.52	39.42	-59.0	-67.2	3.9	8.28e-01	0	47	0	0	60	89942
2026-01-29 04:36:27.13	256.24	39.21	-59.0	-67.3	3.9	8.30e-01	0	47	0	0	60	91009
2026-01-29 04:36:28.14	255.96	39.01	-59.1	-67.4	3.9	8.30e-01	0	47	0	0	60	91983
2026-01-29 04:36:29.14	255.69	38.81	-59.1	-67.4	3.9	8.29e-01	0	47	0	0	60	91734
2026-01-29 04:36:30.15	255.41	38.60	-59.1	-67.2	4.0	8.28e-01	0	47	0	0	60	90054
2026-01-29 04:36:31.15	255.15	38.40	-59.1	-67.2	4.0	8.27e-01	0	47	0	0	60	89896
2026-01-29 04:36:32.16	254.88	38.20	-59.1	-67.1	4.0	8.26e-01	0	47	0	0	60	88511
2026-01-29 04:36:33.17	254.62	37.99	-59.1	-67.1	4.0	8.23e-01	0	47	0	0	60	88569
2026-01-29 04:36:34.17	254.36	37.79	-59.0	-67.1	4.0	8.26e-01	0	47	0	0	60	89009
2026-01-29 04:36:35.18	254.10	37.59	-59.0	-67.3	3.9	8.28e-01	0	47	0	0	60	91057
2026-01-29 04:36:36.19	253.85	37.39	-59.1	-67.3	3.9	8.30e-01	0	47	0	0	60	90521
2026-01-29 04:36:37.20	253.60	37.19	-59.1	-67.3	3.9	8.28e-01	0	47	0	0	60	91044
2026-01-29 04:36:38.21	253.35	36.99	-59.1	-67.3	3.9	8.30e-01	0	47	0	0	60	90327
2026-01-29 04:36:39.21	253.11	36.79	-59.1	-67.5	3.8	8.30e-01	0	47	0	0	60	92565
2026-01-29 04:36:40.22	252.87	36.59	-59.0	-67.2	4.0	8.29e-01	0	47	0	0	60	89313
2026-01-29 04:36:41.23	252.63	36.40	-59.0	-67.2	3.9	8.30e-01	0	47	0	0	60	90167
2026-01-29 04:36:42.23	252.40	36.20	-59.0	-67.2	3.9	8.29e-01	0	47	0	0	60	89680
2026-01-29 04:36:43.24	252.16	36.00	-59.0	-67.2	3.9	8.30e-01	0	47	0	0	60	89928
2026-01-29 04:36:44.25	251.93	35.81	-59.0	-67.0	4.0	8.27e-01	0	47	0	0	60	88141
2026-01-29 04:36:45.25	251.71	35.61	-59.0	-67.1	4.0	8.27e-01	0	47	0	0	60	88439
2026-01-29 04:36:46.25	251.49	35.42	-59.0	-67.2	4.0	8.29e-01	0	47	0	0	60	89705
2026-01-29 04:36:47.26	251.27	35.23	-58.9	-66.9	4.0	7.50e-01	0	47	0	0	60	87036
2026-01-29 04:36:48.27	251.05	35.03	-59.0	-66.9	4.1	8.25e-01	0	47	0	0	60	86612
2026-01-29 04:36:49.28	250.83	34.84	-59.0	-66.9	4.1	8.24e-01	0	47	0	0	60	86995
2026-01-29 04:36:50.29	250.62	34.65	-59.0	-67.0	4.0	8.25e-01	0	47	0	0	60	87227
2026-01-29 04:36:51.29	250.41	34.46	-59.0	-67.0	4.0	8.27e-01	0	47	0	0	60	87310
2026-01-29 04:36:52.30	250.20	34.27	-58.9	-67.0	4.0	8.28e-01	0	47	0	0	60	87924
2026-01-29 04:36:53.31	249.99	34.08	-58.9	-67.0	3.9	8.28e-01	0	47	0	0	60	87664
2026-01-29 04:36:54.32	249.79	33.89	-58.9	-67.1	3.9	8.29e-01	0	47	0	0	60	88592
2026-01-29 04:36:55.32	249.59	33.70	-58.9	-66.9	4.1	8.26e-01	0	47	0	0	60	86693
2026-01-29 04:36:56.33	249.39	33.52	-58.9	-67.0	3.9	8.28e-01	0	47	0	0	60	87705
2026-01-29 04:36:57.34	249.19	33.33	-58.9	-66.9	4.0	8.27e-01	0	47	0	0	60	87147
2026-01-29 04:36:58.35	249.00	33.14	-58.9	-67.0	3.9	8.27e-01	0	47	0	0	60	87535
2026-01-29 04:36:59.36	248.81	32.96	-58.9	-66.9	4.0	8.28e-01	0	47	0	0	60	86667
2026-01-29 04:37:00.36	248.62	32.78	-58.9	-66.9	4.0	8.28e-01	0	47	0	0	60	87038
2026-01-29 04:37:01.37	248.43	32.59	-58.9	-67.0	4.0	8.27e-01	0	47	0	0	60	87317
2026-01-29 04:37:02.38	248.24	32.41	-58.8	-66.9	4.0	8.26e-01	0	47	0	0	60	86456
2026-01-29 04:37:03.38	248.06	32.23	-58.8	-67.0	3.9	8.28e-01	0	47	0	0	60	87521
2026-01-29 04:37:04.39	247.88	32.05	-58.8	-67.0	4.0	8.29e-01	0	47	0	0	60	87456
2026-01-29 04:37:05.39	247.70	31.87	-58.8	-67.0	4.0	8.28e-01	0	47	0	0	60	87348
2026-01-29 04:37:06.40	247.52	31.69	-58.8	-67.1	3.9	8.31e-01	0	47	0	0	60	88329
2026-01-29 04:37:07.40	247.35	31.51	-58.8	-67.1	3.9	8.30e-01	0	47	0	0	60	88222
2026-01-29 04:37:08.42	247.17	31.33	-58.9	-67.2	3.9	8.31e-01	0	47	0	0	60	89271
2026-01-29 04:37:09.42	247.00	31.16	-58.9	-67.2	3.9	8.33e-01	0	47	0	0	60	90259
2026-01-29 04:37:10.43	246.83	30.98	-58.8	-67.2	3.9	8.32e-01	0	47	0	0	60	89254
2026-01-29 04:37:11.43	246.67	30.80	-58.8	-67.1	3.9	8.30e-01	0	47	0	0	60	88296
2026-01-29 04:37:12.44	246.50	30.63	-58.8	-67.1	3.9	8.30e-01	0	47	0	0	60	88863
2026-01-29 04:37:13.44	246.34	30.46	-58.8	-67.1	3.9	8.30e-01	0	47	0	0	60	88385
2026-01-29 04:37:14.45	246.18	30.28	-58.8	-66.9	3.9	8.28e-01	0	47	0	0	60	87110
2026-01-29 04:37:15.45	246.02	30.11	-58.7	-67.0	3.9	8.30e-01	0	47	0	0	60	87760
2026-01-29 04:37:16.46	245.86	29.94	-58.7	-67.0	3.9	8.29e-01	0	47	0	0	60	88102
2026-01-29 04:37:17.46	245.70	29.77	-58.7	-67.0	3.9	8.30e-01	0	47	0	0	60	87979
2026-01-29 04:37:18.47	245.55	29.60	-58.7	-67.1	3.8	8.32e-01	0	47	0	0	60	88896
2026-01-29 04:37:19.47	245.39	29.43	-58.7	-67.2	3.9	8.33e-01	0	47	0	0	60	89254
2026-01-29 04:37:20.47	245.24	29.26	-58.7	-67.2	3.8	8.33e-01	0	47	0	0	60	90223
2026-01-29 04:37:21.48	245.09	29.09	-58.7	-68.5	4.0	8.42e-01	0	47	104	0	60	103911
2026-01-29 04:37:22.49	244.94	28.93	-58.7	-67.2	3.8	8.36e-01	0	47	0	0	60	90228
2026-01-29 04:37:23.50	244.80	28.76	-58.7	-68.7	3.9	8.38e-01	0	47	104	0	60	106811
2026-01-29 04:37:24.50	244.65	28.60	-58.7	-68.6	4.0	8.39e-01	0	47	104	0	60	105202
2026-01-29 04:37:25.50	244.51	28.43	-58.8	-67.3	3.7	8.37e-01	0	47	0	0	60	91071
2026-01-29 04:37:26.51	244.36	28.27	-58.8	-67.2	3.8	8.32e-01	0	47	0	0	60	89419
2026-01-29 04:37:27.52	244.22	28.10	-58.8	-68.5	4.1	8.36e-01	0	47	104	0	60	103908
2026-01-29 04:37:28.52	244.08	27.94	-58.8	-68.7	3.7	8.34e-01	0	47	104	0	60	106541
2026-01-29 04:37:29.53	243.94	27.78	-58.8	-67.5	3.8	8.38e-01	0	47	0	0	60	92699
2026-01-29 04:37:30.54	243.81	27.62	-58.7	-67.2	3.8	8.33e-01	0	47	0	0	60	89832
2026-01-29 04:37:31.54	243.67	27.46	-58.8	-68.6	4.0	8.37e-01	0	47	104	0	60	106063
2026-01-29 04:37:32.55	243.54	27.30	-58.8	-67.5	3.7	8.36e-01	0	47	0	0	60	92458
2026-01-29 04:37:33.56	243.40	27.14	-58.7	-68.7	4.0	8.39e-01	0	47	104	0	60	106791
2026-01-29 04:37:34.56	243.27	26.99	-58.7	-67.3	3.7	8.34e-01	0	47	0	0	60	91166
2026-01-29 04:37:35.56	243.15	26.83	-58.7	-68.8	3.7	8.35e-01	0	47	104	0	60	107807
2026-01-29 04:37:36.56	243.02	26.67	-58.7	-67.9	3.7	8.40e-01	0	47	0	0	60	97269
2026-01-29 04:37:37.56	242.89	26.52	-58.7	-68.9	3.9	8.39e-01	0	47	104	0	60	108557
2026-01-29 04:37:38.57	242.76	26.36	-58.7	-67.3	3.7	8.35e-01	0	47	0	0	60	91301
2026-01-29 04:37:39.58	242.64	26.21	-58.7	-68.7	3.9	8.38e-01	0	47	104	0	60	106630
2026-01-29 04:37:40.58	242.52	26.06	-58.7	-68.8	3.9	8.43e-01	0	47	104	0	60	108191
2026-01-29 04:37:41.59	242.39	25.90	-58.7	-69.1	3.7	8.38e-01	0	47	104	0	60	111871
2026-01-29 04:37:42.60	242.27	25.75	-58.7	-68.1	3.7	8.41e-01	0	47	104	0	60	99667
2026-01-29 04:37:43.60	242.15	25.60	-58.7	-69.1	3.8	8.40e-01	0	47	104	0	60	112145
2026-01-29 04:37:44.61	242.03	25.45	-58.7	-69.2	3.9	8.41e-01	0	47	104	0	60	112544
2026-01-29 04:37:45.61	241.91	25.30	-58.7	-69.1	3.9	8.42e-01	0	47	104	0	60	111410
2026-01-29 04:37:46.62	241.80	25.15	-58.7	-69.1	3.9	8.42e-01	0	47	104	0	60	112248
2026-01-29 04:37:47.62	241.68	25.00	-58.6	-69.4	3.9	8.42e-01	0	47	104	0	60	115795
2026-01-29 04:37:48.63	241.57	24.86	-58.6	-69.1	3.7	8.43e-01	0	47	104	0	60	111587
2026-01-29 04:37:49.64	241.45	24.71	-58.7	-69.3	3.7	8.41e-01	0	47	104	0	60	114231
2026-01-29 04:37:50.64	241.34	24.56	-58.7	-69.1	3.7	8.42e-01	0	47	104	0	60	112047
2026-01-29 04:37:51.65	241.23	24.42	-58.7	-69.4	3.8	8.43e-01	0	47	104	0	60	115976
2026-01-29 04:37:52.66	241.12	24.27	-58.7	-69.4	3.8	8.43e-01	0	47	104	0	60	115144
2026-01-29 04:37:53.67	241.01	24.13	-58.7	-69.5	3.8	8.42e-01	0	47	104	0	60	116878
2026-01-29 04:37:54.67	240.90	23.98	-58.7	-69.6	3.7	8.43e-01	0	47	104	0	60	117772
2026-01-29 04:37:55.67	240.80	23.84	-58.7	-69.7	3.6	8.45e-01	0	47	104	0	60	119638
2026-01-29 04:37:56.67	240.69	23.70	-58.6	-69.3	3.8	8.43e-01	0	47	104	0	60	114644
2026-01-29 04:37:57.69	240.58	23.56	-58.6	-69.3	3.8	8.42e-01	0	47	104	0	60	114594
2026-01-29 04:37:58.69	240.48	23.42	-58.5	-69.2	3.8	8.43e-01	0	47	104	0	60	112973
2026-01-29 04:37:59.70	240.38	23.28	-58.5	-69.0	3.7	8.39e-01	0	47	104	0	60	110376
2026-01-29 04:38:00.71	240.27	23.14	-58.5	-68.0	3.7	8.41e-01	0	47	0	0	60	98418
2026-01-29 04:38:01.72	240.17	23.00	-58.4	-68.3	3.8	8.41e-01	0	47	104	0	60	101739
2026-01-29 04:38:02.73	240.07	22.86	-58.5	-68.9	3.9	8.40e-01	0	47	104	0	60	108625
2026-01-29 04:38:03.73	239.97	22.72	-58.5	-68.9	3.9	8.44e-01	0	47	104	0	60	109136
2026-01-29 04:38:04.74	239.87	22.58	-58.4	-68.8	3.7	8.40e-01	0	47	104	0	60	107324
2026-01-29 04:38:05.75	239.78	22.45	-58.4	-67.9	3.7	8.40e-01	0	47	0	0	60	96861
2026-01-29 04:38:06.75	239.68	22.31	-58.3	-69.0	3.8	8.42e-01	0	47	104	0	60	109824
2026-01-29 04:38:07.74	239.59	22.18	-58.3	-68.9	3.8	8.43e-01	0	47	104	0	60	108729
2026-01-29 04:38:08.75	239.49	22.04	-58.3	-68.8	3.7	8.41e-01	0	47	104	0	60	107756
2026-01-29 04:38:09.75	239.40	21.91	-58.3	-67.9	3.7	8.42e-01	0	47	0	0	60	97308
2026-01-29 04:38:10.75	239.30	21.78	-58.3	-69.0	3.8	8.41e-01	0	47	104	0	60	111055
2026-01-29 04:38:11.75	239.21	21.65	-58.3	-69.0	3.8	8.42e-01	0	47	104	0	60	109980
2026-01-29 04:38:12.75	239.12	21.51	-58.4	-69.0	3.8	8.41e-01	0	47	104	0	60	110749
2026-01-29 04:38:13.76	239.03	21.38	-58.4	-68.9	3.9	8.43e-01	0	47	104	0	60	109730
2026-01-29 04:38:14.77	238.94	21.25	-58.4	-68.9	3.8	8.44e-01	0	47	104	0	60	109278
2026-01-29 04:38:15.77	238.85	21.12	-58.4	-69.1	3.6	8.42e-01	0	47	104	0	60	111979
2026-01-29 04:38:16.78	238.76	20.99	-58.3	-67.8	3.6	8.40e-01	0	47	0	0	60	95779
2026-01-29 04:38:17.79	238.67	20.86	-58.3	-68.9	3.8	8.41e-01	0	47	104	0	60	108965
2026-01-29 04:38:18.79	238.59	20.73	-58.3	-68.9	3.8	8.44e-01	0	47	104	0	60	109333
2026-01-29 04:38:19.80	238.50	20.61	-58.2	-68.8	3.8	8.43e-01	0	47	104	0	60	108284
2026-01-29 04:38:20.81	238.41	20.48	-58.2	-68.9	3.8	8.43e-01	0	47	104	0	60	109373
2026-01-29 04:38:21.82	238.33	20.35	-58.2	-69.0	3.8	8.43e-01	0	47	104	0	60	110713
2026-01-29 04:38:22.82	238.24	20.23	-58.2	-69.0	3.8	8.43e-01	0	47	104	0	60	110907
2026-01-29 04:38:23.83	238.16	20.10	-58.1	-69.0	3.8	8.43e-01	0	47	104	0	60	110133
2026-01-29 04:38:24.83	238.08	19.98	-58.2	-69.1	3.6	8.42e-01	0	47	104	0	60	111076
2026-01-29 04:38:25.83	238.00	19.85	-58.2	-69.1	3.7	8.43e-01	0	47	104	0	60	111352
2026-01-29 04:38:26.84	237.91	19.73	-58.2	-69.1	3.6	8.43e-01	0	47	104	0	60	111826
2026-01-29 04:38:27.85	237.83	19.60	-58.2	-69.1	3.6	8.43e-01	0	47	104	0	60	111433
2026-01-29 04:38:28.85	237.75	19.48	-58.2	-69.2	3.7	8.43e-01	0	47	104	0	60	112576
2026-01-29 04:38:29.86	237.67	19.36	-58.1	-69.3	3.6	8.44e-01	0	47	104	0	60	114249
2026-01-29 04:38:30.87	237.60	19.24	-58.1	-69.2	3.8	8.44e-01	0	47	104	0	60	112943
2026-01-29 04:38:31.88	237.52	19.11	-58.1	-69.2	3.7	8.44e-01	0	47	104	0	60	112622
2026-01-29 04:38:32.89	237.44	18.99	-58.2	-69.4	3.7	8.43e-01	0	47	104	0	60	115016
2026-01-29 04:38:33.89	237.36	18.87	-58.2	-69.2	3.6	8.43e-01	0	47	104	0	60	112959
2026-01-29 04:38:34.90	237.29	18.75	-58.1	-69.3	3.7	8.44e-01	0	47	104	0	60	114513
2026-01-29 04:38:35.91	237.21	18.63	-58.1	-69.3	3.7	8.44e-01	0	47	104	0	60	114058
2026-01-29 04:38:36.91	237.14	18.52	-58.1	-69.3	3.7	8.44e-01	0	47	104	0	60	114625
2026-01-29 04:38:37.92	237.06	18.40	-58.1	-69.2	3.7	8.44e-01	0	47	104	0	60	112794
2026-01-29 04:38:38.92	236.99	18.28	-58.0	-69.0	3.7	8.44e-01	0	47	104	0	60	110620
2026-01-29 04:38:39.93	236.91	18.16	-57.9	-69.2	3.7	8.43e-01	0	47	104	0	60	112557
2026-01-29 04:38:40.93	236.84	18.05	-57.9	-69.1	3.7	8.44e-01	0	47	104	0	60	111972
2026-01-29 04:38:41.93	236.77	17.93	-58.1	-69.1	3.7	8.43e-01	0	47	104	0	60	111339
2026-01-29 04:38:42.94	236.70	17.82	-58.1	-69.1	3.6	8.41e-01	0	47	104	0	60	111181
2026-01-29 04:38:43.95	236.63	17.70	-58.2	-68.4	3.6	8.44e-01	0	47	104	0	60	102953
2026-01-29 04:38:44.95	236.56	17.59	-58.2	-69.0	3.6	8.43e-01	0	47	104	0	60	110547
2026-01-29 04:38:45.96	236.49	17.47	-58.2	-69.1	3.7	8.43e-01	0	47	104	0	60	111332
2026-01-29 04:38:46.97	236.42	17.36	-58.1	-69.2	3.7	8.44e-01	0	47	104	0	60	112578
2026-01-29 04:38:47.98	236.35	17.25	-58.0	-69.0	3.7	8.44e-01	0	47	104	0	60	110809
2026-01-29 04:38:48.99	236.28	17.13	-58.0	-69.0	3.7	8.44e-01	0	47	104	0	60	110617
2026-01-29 04:38:50.00	236.21	17.02	-58.0	-69.0	3.7	8.43e-01	0	47	104	0	60	110659
2026-01-29 04:38:51.01	236.15	16.91	-57.9	-69.0	3.7	8.45e-01	0	47	104	0	60	110933
2026-01-29 04:38:52.01	236.08	16.80	-57.8	-69.1	3.6	8.44e-01	0	47	104	0	60	111838
2026-01-29 04:38:53.02	236.01	16.69	-57.9	-69.1	3.8	8.44e-01	0	47	104	0	60	112048
2026-01-29 04:38:54.03	235.95	16.58	-57.9	-69.0	3.7	8.43e-01	0	47	104	0	60	110872
2026-01-29 04:38:55.04	235.88	16.47	-57.9	-69.0	3.7	8.42e-01	0	47	104	0	60	111004
2026-01-29 04:38:56.04	235.82	16.36	-57.9	-69.1	3.7	8.44e-01	0	47	104	0	60	111179
2026-01-29 04:38:57.05	235.75	16.25	-58.0	-69.1	3.7	8.45e-01	0	47	104	0	60	112028
2026-01-29 04:38:58.05	235.69	16.14	-58.0	-69.2	3.6	8.45e-01	0	47	104	0	60	112800
2026-01-29 04:38:59.05	235.63	16.03	-58.0	-69.0	3.7	8.43e-01	0	47	104	0	60	110772
2026-01-29 04:39:00.06	235.57	15.92	-57.8	-69.0	3.6	8.45e-01	0	47	104	0	60	109853
2026-01-29 04:39:01.07	235.50	15.82	-57.8	-68.9	3.7	8.43e-01	0	47	104	0	60	108976
2026-01-29 04:39:02.07	235.44	15.71	-57.8	-68.9	3.7	8.44e-01	0	47	104	0	60	109292
2026-01-29 04:39:03.08	235.38	15.60	-57.8	-68.9	3.7	8.44e-01	0	47	104	0	60	109570
2026-01-29 04:39:04.09	235.32	15.50	-57.8	-68.9	3.6	8.44e-01	0	47	104	0	60	109741
2026-01-29 04:39:05.09	235.26	15.39	-57.8	-69.0	3.7	8.43e-01	0	47	104	0	60	109958
2026-01-29 04:39:06.10	235.20	15.29	-57.8	-69.1	3.6	8.44e-01	0	47	104	0	60	111098
2026-01-29 04:39:07.11	235.14	15.18	-57.8	-69.0	3.6	8.45e-01	0	47	104	0	60	110330
2026-01-29 04:39:08.12	235.08	15.08	-57.8	-69.1	3.6	8.46e-01	0	47	104	0	60	111519
2026-01-29 04:39:09.12	235.02	14.98	-57.7	-69.1	3.7	8.45e-01	0	47	104	0	60	111747
2026-01-29 04:39:10.13	234.96	14.87	-57.7	-69.0	3.7	8.45e-01	0	47	104	0	60	111038
2026-01-29 04:39:11.14	234.91	14.77	-57.6	-69.0	3.6	8.44e-01	0	47	104	0	60	109935
2026-01-29 04:39:12.15	234.85	14.67	-57.6	-69.1	3.6	8.45e-01	0	47	104	0	60	111077
2026-01-29 04:39:13.16	234.79	14.56	-57.5	-69.0	3.6	8.45e-01	0	47	104	0	60	110112
2026-01-29 04:39:14.17	234.73	14.46	-57.5	-69.1	3.7	8.44e-01	0	47	104	0	60	111580
2026-01-29 04:39:15.17	234.68	14.36	-57.4	-66.7	4.4	8.23e-01	0	47	104	0	60	84626
2026-01-29 04:39:16.18	234.62	14.26	-57.9	-70.8	3.6	8.45e-01	0	47	104	0	60	136202
2026-01-29 04:39:17.19	234.57	14.16	-57.6	-69.4	3.6	8.45e-01	0	47	104	0	60	115342
2026-01-29 04:39:18.20	234.51	14.06	-57.8	-70.2	3.6	8.46e-01	0	47	104	0	60	127225
2026-01-29 04:39:19.20	234.46	13.96	-57.6	-67.9	3.7	8.43e-01	0	47	104	0	60	97453
2026-01-29 04:39:20.21	234.40	13.86	-57.6	-67.3	3.9	8.36e-01	0	47	104	0	60	91313
2026-01-29 04:39:21.22	234.35	13.76	-57.5	-67.3	4.1	8.36e-01	0	47	104	0	60	90651
2026-01-29 04:39:22.23	234.30	13.66	-57.5	-65.8	4.0	8.34e-01	0	47	0	0	60	76542
2026-01-29 04:39:23.23	234.24	13.56	-57.4	-65.2	4.2	8.20e-01	0	47	0	0	60	71170
2026-01-29 04:39:24.24	234.19	13.46	-57.3	-64.7	4.4	8.02e-01	0	47	0	0	60	67305
2026-01-29 04:39:25.25	234.14	13.37	-57.2	-64.5	4.6	7.92e-01	0	47	0	0	60	65581
2026-01-29 04:39:26.25	234.09	13.27	-57.2	-64.5	4.5	7.91e-01	0	47	0	0	60	65858
2026-01-29 04:39:27.25	234.04	13.17	-57.2	-64.6	4.4	7.95e-01	0	47	0	0	60	66215
2026-01-29 04:39:28.25	233.99	13.08	-57.2	-64.6	4.4	8.00e-01	0	47	0	0	60	66571
2026-01-29 04:39:29.26	233.93	12.98	-57.2	-64.7	4.4	8.00e-01	0	47	0	0	60	66977
2026-01-29 04:39:30.26	233.88	12.89	-57.2	-64.7	4.3	8.06e-01	0	47	0	0	60	67448
2026-01-29 04:39:31.27	233.83	12.79	-57.1	-64.6	4.4	8.03e-01	0	47	0	0	60	66828
2026-01-29 04:39:32.27	233.78	12.70	-57.1	-64.6	4.4	7.99e-01	0	47	0	0	60	66199
