passes_logs/2026/01/29/R3.2S-Naryan-Mar/R3.2S-Naryan-Mar__20260129_112030_TY-42_rec.log

#Pass ID: 20260129_112030_TY-42
#Satellite: TY-42
#Configuration: TY-42
#almurnet v.1.7.20240730
#Start time: 2026-01-29 11:20:33

#Version: 2.2.20231116
#Station: R3.2S-Naryan-Mar
#Location: 53.008057 lon 67.646978 lat
#TLE: 1 64048U 25103A   26028.87012731  .00008010  00000-0  38191-3 0 09994
#TLE: 2 64048 097.4122 104.0273 0001827 094.4790 293.3217 15.19170538 38926

#Time	Az	El	Level	Level2	SNR	BER	BlckErr	Temp	State	Recorded	gain1	gain2
2026-01-29 11:20:33.00	31.60	0.15	-61.1	-74.8	3.5	8.45e-01	0	44	0	0	60	216459
2026-01-29 11:20:34.01	31.50	0.20	-57.8	-61.4	3.6	0.00e+00	0	45	104	0	60	138795
2026-01-29 11:20:35.01	31.40	0.25	-57.9	-61.5	3.6	0.00e+00	0	45	104	0	60	140322
2026-01-29 11:20:36.02	31.30	0.30	-58.1	-61.8	3.6	0.00e+00	0	45	104	0	60	146040
2026-01-29 11:20:37.03	31.19	0.36	-57.8	-61.3	3.6	0.00e+00	0	45	104	0	60	137627
2026-01-29 11:20:38.04	31.09	0.41	-57.7	-61.3	3.6	0.00e+00	0	45	104	0	60	137052
2026-01-29 11:20:39.04	30.99	0.46	-57.4	-60.9	3.6	0.00e+00	0	45	104	0	60	131661
2026-01-29 11:20:40.05	30.88	0.51	-56.9	-60.8	3.6	0.00e+00	0	45	104	0	60	129386
2026-01-29 11:20:41.06	30.78	0.57	-56.8	-60.2	3.6	0.00e+00	0	45	104	0	60	121555
2026-01-29 11:20:42.07	30.67	0.62	-55.3	-59.6	3.6	0.00e+00	0	46	104	0	60	113109
2026-01-29 11:20:43.07	30.57	0.67	-56.1	-59.8	3.6	0.00e+00	0	45	104	0	60	115851
2026-01-29 11:20:44.08	30.46	0.72	-55.9	-59.4	3.6	0.00e+00	0	46	104	0	60	110909
2026-01-29 11:20:45.09	30.35	0.77	-53.3	-56.5	3.6	0.00e+00	0	46	104	0	60	78692
2026-01-29 11:20:46.10	30.25	0.83	-53.9	-56.4	3.6	0.00e+00	0	46	104	0	60	78490
2026-01-29 11:20:47.10	30.14	0.88	-53.9	-58.0	3.6	0.00e+00	0	46	104	0	60	93489
2026-01-29 11:20:48.11	30.03	0.93	-51.8	-56.4	3.6	0.00e+00	0	46	104	0	60	78138
2026-01-29 11:20:49.12	29.92	0.98	-51.9	-56.3	3.6	0.00e+00	0	46	104	0	60	77015
2026-01-29 11:20:50.13	29.81	1.04	-51.8	-56.4	3.6	0.00e+00	0	46	104	0	60	77747
2026-01-29 11:20:51.13	29.70	1.09	-52.0	-56.3	3.6	0.00e+00	0	46	104	0	60	77666
2026-01-29 11:20:52.13	29.59	1.14	-51.9	-56.2	3.6	0.00e+00	0	46	104	0	60	76817
2026-01-29 11:20:53.13	29.48	1.19	-51.8	-56.2	3.6	0.00e+00	0	46	104	0	60	76774
2026-01-29 11:20:54.13	29.37	1.25	-51.8	-56.2	3.6	0.00e+00	0	46	104	0	60	76823
2026-01-29 11:20:55.13	29.26	1.30	-51.8	-56.2	3.6	0.00e+00	0	46	104	0	60	76691
2026-01-29 11:20:56.13	29.15	1.35	-51.7	-56.2	3.6	0.00e+00	0	46	104	0	60	75970
2026-01-29 11:20:57.14	29.04	1.40	-51.8	-56.2	3.6	0.00e+00	0	46	104	0	60	76494
2026-01-29 11:20:58.15	28.92	1.46	-51.8	-56.2	3.6	0.00e+00	0	46	104	0	60	76610
2026-01-29 11:20:59.16	28.81	1.51	-51.7	-56.1	3.6	0.00e+00	0	46	104	0	60	75681
2026-01-29 11:21:00.16	28.70	1.56	-51.7	-56.2	3.6	0.00e+00	0	46	104	0	60	76727
2026-01-29 11:21:01.17	28.58	1.61	-51.7	-56.1	3.6	0.00e+00	0	46	104	0	60	75649
2026-01-29 11:21:02.18	28.47	1.67	-51.7	-56.1	3.6	0.00e+00	0	46	104	0	60	75871
2026-01-29 11:21:03.18	28.35	1.72	-51.9	-56.2	3.6	0.00e+00	0	46	104	0	60	76707
2026-01-29 11:21:04.19	28.23	1.77	-51.7	-56.1	3.6	0.00e+00	0	46	104	0	60	75738
2026-01-29 11:21:05.19	28.12	1.83	-51.6	-56.1	3.6	0.00e+00	0	46	104	0	60	75315
2026-01-29 11:21:06.20	28.00	1.88	-51.6	-56.1	3.6	0.00e+00	0	46	104	0	60	75189
2026-01-29 11:21:07.21	27.88	1.93	-51.7	-56.1	3.6	0.00e+00	0	46	104	0	60	75438
2026-01-29 11:21:08.22	27.76	1.99	-51.6	-56.0	3.6	0.00e+00	0	46	104	0	60	75083
2026-01-29 11:21:09.22	27.64	2.04	-51.6	-56.1	3.6	0.00e+00	0	46	104	0	60	75143
2026-01-29 11:21:10.22	27.52	2.09	-51.6	-56.0	3.6	0.00e+00	0	46	104	0	60	75023
2026-01-29 11:21:11.23	27.40	2.14	-51.6	-56.1	3.6	0.00e+00	0	46	104	0	60	75183
2026-01-29 11:21:12.24	27.28	2.20	-51.6	-56.1	3.6	0.00e+00	0	46	104	0	60	75248
2026-01-29 11:21:13.25	27.16	2.25	-51.6	-56.2	3.6	0.00e+00	0	46	104	0	60	75971
2026-01-29 11:21:14.25	27.04	2.30	-51.6	-56.1	3.6	0.00e+00	0	46	104	0	60	75330
2026-01-29 11:21:15.26	26.91	2.36	-51.6	-56.1	3.6	0.00e+00	0	46	104	0	60	75190
2026-01-29 11:21:16.27	26.79	2.41	-51.6	-56.1	3.6	0.00e+00	0	46	104	0	60	75812
2026-01-29 11:21:17.27	26.67	2.46	-51.6	-56.0	3.6	0.00e+00	0	46	104	0	60	74637
2026-01-29 11:21:18.28	26.54	2.52	-51.5	-56.0	3.6	0.00e+00	0	46	104	0	60	74606
2026-01-29 11:21:19.29	26.42	2.57	-51.5	-56.1	3.6	0.00e+00	0	46	104	0	60	75215
2026-01-29 11:21:20.30	26.29	2.63	-51.6	-56.0	3.6	0.00e+00	0	46	104	0	60	74803
2026-01-29 11:21:21.30	26.17	2.68	-51.6	-56.1	3.6	0.00e+00	0	46	104	0	60	75374
2026-01-29 11:21:22.31	26.04	2.73	-51.6	-56.1	3.6	0.00e+00	0	46	104	0	60	75421
2026-01-29 11:21:23.32	25.91	2.79	-51.5	-56.1	3.6	0.00e+00	0	46	104	0	60	75493
2026-01-29 11:21:24.33	25.78	2.84	-51.6	-56.1	3.6	0.00e+00	0	46	104	0	60	75291
2026-01-29 11:21:25.33	25.65	2.89	-51.6	-56.1	3.6	0.00e+00	0	47	104	0	60	75190
2026-01-29 11:21:26.34	25.52	2.95	-51.5	-56.1	3.6	0.00e+00	0	47	104	0	60	75466
2026-01-29 11:21:27.35	25.39	3.00	-51.6	-56.1	3.6	0.00e+00	0	47	104	0	60	75156
2026-01-29 11:21:28.36	25.26	3.05	-51.6	-56.0	3.5	0.00e+00	0	47	104	0	60	74508
2026-01-29 11:21:29.37	25.13	3.11	-51.5	-56.0	3.6	0.00e+00	0	46	104	0	60	74853
2026-01-29 11:21:30.37	25.00	3.16	-51.6	-56.0	3.6	0.00e+00	0	46	104	0	60	74996
2026-01-29 11:21:31.38	24.87	3.22	-51.6	-56.0	3.6	0.00e+00	0	47	104	0	60	74917
2026-01-29 11:21:32.39	24.73	3.27	-51.5	-56.0	3.6	0.00e+00	0	47	104	0	60	75025
2026-01-29 11:21:33.39	24.60	3.32	-51.5	-56.0	3.6	0.00e+00	0	47	104	0	60	74642
2026-01-29 11:21:34.40	24.47	3.38	-51.6	-56.1	3.6	0.00e+00	0	47	104	0	60	75143
2026-01-29 11:21:35.41	24.33	3.43	-51.5	-55.9	3.6	0.00e+00	0	47	104	0	60	74206
2026-01-29 11:21:36.41	24.20	3.48	-51.6	-56.0	3.6	0.00e+00	0	47	104	0	60	74841
2026-01-29 11:21:37.42	24.06	3.54	-51.5	-56.0	3.6	0.00e+00	0	47	104	0	60	74335
2026-01-29 11:21:38.43	23.92	3.59	-51.5	-56.0	3.6	0.00e+00	0	47	104	0	60	74555
2026-01-29 11:21:39.44	23.78	3.65	-51.5	-56.0	3.6	0.00e+00	0	47	104	0	60	74821
2026-01-29 11:21:40.45	23.65	3.70	-51.6	-56.1	3.5	0.00e+00	0	47	104	0	60	75337
2026-01-29 11:21:41.45	23.51	3.75	-51.5	-55.9	3.6	0.00e+00	0	47	104	0	60	74103
2026-01-29 11:21:42.46	23.37	3.81	-51.5	-56.0	3.6	0.00e+00	0	47	104	0	60	75032
2026-01-29 11:21:43.47	23.23	3.86	-51.6	-56.0	3.6	0.00e+00	0	47	104	0	60	74864
2026-01-29 11:21:44.48	23.08	3.92	-51.5	-56.0	3.6	0.00e+00	0	47	104	0	60	74762
2026-01-29 11:21:45.49	22.94	3.97	-51.5	-56.0	3.6	0.00e+00	0	47	104	0	60	74678
2026-01-29 11:21:46.49	22.80	4.02	-51.6	-56.1	3.6	0.00e+00	0	47	104	0	60	75151
2026-01-29 11:21:47.50	22.66	4.08	-51.5	-56.0	3.6	0.00e+00	0	47	104	0	60	74920
2026-01-29 11:21:48.51	22.51	4.13	-51.5	-56.0	3.6	0.00e+00	0	47	104	0	60	74811
2026-01-29 11:21:49.52	22.37	4.19	-51.6	-56.1	3.6	0.00e+00	0	47	104	0	60	75349
2026-01-29 11:21:50.53	22.22	4.24	-51.5	-56.0	3.5	0.00e+00	0	47	104	0	60	74785
2026-01-29 11:21:51.54	22.08	4.30	-51.6	-56.0	3.6	0.00e+00	0	47	104	0	60	74957
2026-01-29 11:21:52.54	21.93	4.35	-51.7	-56.1	3.6	0.00e+00	0	47	104	0	60	75706
2026-01-29 11:21:53.55	21.78	4.40	-51.7	-56.1	3.6	0.00e+00	0	47	104	0	60	75402
2026-01-29 11:21:54.56	21.64	4.46	-51.7	-56.1	3.6	0.00e+00	0	47	104	0	60	75624
2026-01-29 11:21:55.57	21.49	4.51	-51.7	-56.1	3.6	0.00e+00	0	47	104	0	60	75323
2026-01-29 11:21:56.57	21.34	4.56	-51.7	-56.1	3.6	0.00e+00	0	47	104	0	60	75514
2026-01-29 11:21:57.58	21.19	4.62	-51.8	-56.1	3.6	0.00e+00	0	47	104	0	60	75538
2026-01-29 11:21:58.59	21.04	4.67	-51.7	-56.1	3.6	0.00e+00	0	47	104	0	60	75761
2026-01-29 11:21:59.60	20.89	4.73	-51.7	-56.1	3.5	0.00e+00	0	47	104	0	60	75622
2026-01-29 11:22:00.61	20.73	4.78	-51.8	-56.1	3.6	0.00e+00	0	47	104	0	60	75807
2026-01-29 11:22:01.61	20.58	4.83	-51.7	-56.1	3.6	0.00e+00	0	47	104	0	60	75797
2026-01-29 11:22:02.61	20.43	4.89	-51.7	-56.1	3.5	0.00e+00	0	47	104	0	60	75606
2026-01-29 11:22:03.61	20.28	4.94	-51.7	-56.0	3.6	0.00e+00	0	47	104	0	60	75058
2026-01-29 11:22:04.62	20.12	5.00	-51.7	-56.1	3.6	0.00e+00	0	47	104	0	60	75285
2026-01-29 11:22:05.63	19.96	5.05	-51.6	-56.1	3.6	0.00e+00	0	47	104	0	60	75491
2026-01-29 11:22:06.63	19.81	5.10	-51.7	-56.1	3.6	0.00e+00	0	47	104	0	60	75735
2026-01-29 11:22:07.64	19.65	5.16	-51.7	-56.1	3.6	0.00e+00	0	47	104	0	60	75266
2026-01-29 11:22:08.65	19.49	5.21	-51.7	-56.0	3.6	0.00e+00	0	47	104	0	60	74887
2026-01-29 11:22:09.65	19.33	5.26	-51.7	-56.1	3.6	0.00e+00	0	47	104	0	60	75399
2026-01-29 11:22:10.66	19.17	5.32	-51.7	-56.1	3.5	0.00e+00	0	47	104	0	60	75461
2026-01-29 11:22:11.67	19.01	5.37	-51.6	-56.0	3.5	0.00e+00	0	47	104	0	60	74968
2026-01-29 11:22:12.67	18.85	5.42	-51.7	-56.1	3.6	0.00e+00	0	47	104	0	60	75292
2026-01-29 11:22:13.68	18.69	5.48	-51.7	-56.1	3.6	0.00e+00	0	47	104	0	60	75198
2026-01-29 11:22:14.69	18.53	5.53	-51.6	-56.0	3.6	0.00e+00	0	47	104	0	60	74644
2026-01-29 11:22:15.70	18.36	5.59	-51.6	-56.1	3.6	0.00e+00	0	47	104	0	60	75413
2026-01-29 11:22:16.70	18.20	5.64	-51.7	-56.1	3.6	0.00e+00	0	47	104	0	60	75195
2026-01-29 11:22:17.71	18.04	5.69	-51.7	-56.1	3.6	0.00e+00	0	47	104	0	60	75224
2026-01-29 11:22:18.72	17.87	5.75	-51.6	-56.0	3.6	0.00e+00	0	47	104	0	60	74620
2026-01-29 11:22:19.72	17.70	5.80	-51.6	-56.1	3.6	0.00e+00	0	47	104	0	60	75320
2026-01-29 11:22:20.73	17.54	5.85	-51.6	-56.0	3.6	0.00e+00	0	47	104	0	60	74859
2026-01-29 11:22:21.73	17.37	5.91	-51.6	-56.0	3.6	0.00e+00	0	47	104	0	60	74900
2026-01-29 11:22:22.73	17.20	5.96	-51.7	-56.1	3.6	0.00e+00	0	47	104	0	60	75487
2026-01-29 11:22:23.74	17.03	6.01	-51.6	-56.0	3.6	0.00e+00	0	47	104	0	60	74890
2026-01-29 11:22:24.75	16.86	6.06	-54.3	-57.7	3.6	0.00e+00	0	47	104	0	60	90811
2026-01-29 11:22:25.75	16.69	6.12	-52.7	-56.9	3.6	0.00e+00	0	47	104	0	60	83254
2026-01-29 11:22:26.75	16.52	6.17	-54.1	-57.9	3.6	0.00e+00	0	47	104	0	60	93194
2026-01-29 11:22:27.76	16.35	6.22	-53.9	-58.1	3.6	0.00e+00	0	47	104	0	60	95000
2026-01-29 11:22:28.76	16.18	6.28	-52.5	-57.0	3.6	0.00e+00	0	47	104	0	60	83833
2026-01-29 11:22:29.77	16.00	6.33	-52.2	-56.3	3.6	0.00e+00	0	47	104	0	60	77627
2026-01-29 11:22:30.77	15.83	6.38	-52.1	-56.6	3.6	0.00e+00	0	47	104	0	60	79970
2026-01-29 11:22:31.78	15.65	6.43	-52.3	-56.9	3.6	0.00e+00	0	47	104	0	60	82644
2026-01-29 11:22:32.78	15.47	6.49	-52.7	-56.9	3.6	0.00e+00	0	47	104	0	60	83278
2026-01-29 11:22:33.78	15.30	6.54	-53.6	-57.6	3.6	0.00e+00	0	47	104	0	60	89916
2026-01-29 11:22:34.79	15.12	6.59	-54.7	-58.1	3.6	0.00e+00	0	47	104	0	60	94726
2026-01-29 11:22:35.79	14.94	6.64	-52.4	-55.4	3.6	0.00e+00	0	47	104	0	60	69406
2026-01-29 11:22:36.80	14.76	6.69	-52.9	-56.1	3.6	0.00e+00	0	47	104	0	60	75131
2026-01-29 11:22:37.80	14.58	6.75	-53.2	-56.5	3.6	0.00e+00	0	47	104	0	60	79296
2026-01-29 11:22:38.81	14.40	6.80	-53.2	-55.7	3.6	0.00e+00	0	47	104	0	60	71775
2026-01-29 11:22:39.81	14.22	6.85	-53.4	-56.1	3.6	0.00e+00	0	47	104	0	60	75125
2026-01-29 11:22:40.82	14.03	6.90	-54.0	-56.7	3.6	0.00e+00	0	47	104	0	60	81339
2026-01-29 11:22:41.82	13.85	6.95	-54.2	-57.1	3.6	0.00e+00	0	47	104	0	60	84770
2026-01-29 11:22:42.82	13.67	7.00	-52.6	-55.3	3.5	0.00e+00	0	47	104	0	60	68551
2026-01-29 11:22:43.82	13.48	7.06	-53.0	-55.5	3.6	0.00e+00	0	47	104	0	60	70402
2026-01-29 11:22:44.83	13.30	7.11	-53.6	-56.7	3.6	0.00e+00	0	47	104	0	60	80564
2026-01-29 11:22:45.83	13.11	7.16	-54.0	-56.8	3.6	0.00e+00	0	47	104	0	60	81774
2026-01-29 11:22:46.83	12.92	7.21	-53.8	-56.5	3.6	0.00e+00	0	47	104	0	60	78792
2026-01-29 11:22:47.84	12.73	7.26	-53.7	-56.2	3.6	0.00e+00	0	47	104	0	60	76252
2026-01-29 11:22:48.85	12.54	7.31	-54.1	-57.7	3.6	0.00e+00	0	47	104	0	60	91257
2026-01-29 11:22:49.85	12.35	7.36	-54.4	-57.8	3.6	0.00e+00	0	47	104	0	60	92323
2026-01-29 11:22:50.86	12.16	7.41	-53.3	-56.8	3.6	0.00e+00	0	47	104	0	60	81853
2026-01-29 11:22:51.86	11.97	7.46	-55.5	-59.0	3.6	0.00e+00	0	47	104	0	60	105138
2026-01-29 11:22:52.87	11.78	7.52	-54.1	-58.0	3.6	0.00e+00	0	47	104	0	60	94029
2026-01-29 11:22:53.87	11.58	7.57	-54.2	-58.2	3.6	0.00e+00	0	47	104	0	60	96096
2026-01-29 11:22:54.88	11.39	7.62	-54.5	-57.8	3.6	0.00e+00	0	47	104	0	60	92338
2026-01-29 11:22:55.89	11.19	7.67	-54.8	-57.9	3.6	0.00e+00	0	47	104	0	60	93341
2026-01-29 11:22:56.89	11.00	7.72	-54.3	-56.9	3.6	0.00e+00	0	47	104	0	60	82563
2026-01-29 11:22:57.90	10.80	7.77	-55.0	-58.6	3.6	0.00e+00	0	47	104	0	60	100242
2026-01-29 11:22:58.91	10.60	7.82	-54.3	-57.2	3.6	0.00e+00	0	47	104	0	60	85557
2026-01-29 11:22:59.91	10.40	7.87	-54.9	-58.7	3.6	0.00e+00	0	47	104	0	60	101634
2026-01-29 11:23:00.91	10.20	7.91	-54.6	-58.3	3.6	0.00e+00	0	47	104	0	60	96894
2026-01-29 11:23:01.91	10.00	7.96	-54.8	-58.7	3.6	0.00e+00	0	47	104	0	60	101575
2026-01-29 11:23:02.92	9.80	8.01	-54.6	-58.4	3.6	0.00e+00	0	47	104	0	60	98241
2026-01-29 11:23:03.92	9.60	8.06	-54.7	-58.3	3.6	0.00e+00	0	47	104	0	60	97050
2026-01-29 11:23:04.92	9.40	8.11	-54.9	-58.1	3.6	0.00e+00	0	47	104	0	60	95432
2026-01-29 11:23:05.93	9.19	8.16	-55.6	-59.0	3.6	0.00e+00	0	47	104	0	60	104906
2026-01-29 11:23:06.94	8.99	8.21	-54.9	-58.3	3.6	0.00e+00	0	47	104	0	60	97603
2026-01-29 11:23:07.94	8.78	8.26	-54.8	-58.5	3.6	0.00e+00	0	47	104	0	60	99363
2026-01-29 11:23:08.94	8.58	8.30	-55.2	-58.6	3.6	0.00e+00	0	47	104	0	60	100818
2026-01-29 11:23:09.95	8.37	8.35	-54.8	-58.4	3.6	0.00e+00	0	47	104	0	60	98975
2026-01-29 11:23:10.95	8.16	8.40	-54.6	-58.4	3.6	0.00e+00	0	47	104	0	60	97854
2026-01-29 11:23:11.95	7.95	8.45	-54.6	-58.3	3.6	0.00e+00	0	47	104	0	60	96802
2026-01-29 11:23:12.96	7.74	8.49	-54.8	-58.6	3.6	0.00e+00	0	47	104	0	60	100458
2026-01-29 11:23:13.96	7.53	8.54	-55.1	-58.6	3.6	0.00e+00	0	47	104	0	60	101157
2026-01-29 11:23:14.96	7.32	8.59	-55.3	-58.7	3.5	0.00e+00	0	47	104	0	60	102171
2026-01-29 11:23:15.97	7.11	8.63	-55.1	-59.0	3.6	0.00e+00	0	48	104	0	60	105663
2026-01-29 11:23:16.97	6.90	8.68	-55.5	-58.9	3.6	0.00e+00	0	47	104	0	60	104089
2026-01-29 11:23:17.97	6.68	8.73	-55.3	-58.7	3.6	0.00e+00	0	47	104	0	60	102248
2026-01-29 11:23:18.98	6.47	8.77	-55.1	-58.6	3.6	0.00e+00	0	47	104	0	60	101118
2026-01-29 11:23:19.98	6.25	8.82	-55.1	-58.7	3.6	0.00e+00	0	47	104	0	60	102171
2026-01-29 11:23:20.99	6.03	8.86	-54.9	-58.4	3.5	0.00e+00	0	47	104	0	60	98389
2026-01-29 11:23:22.00	5.82	8.91	-55.5	-59.0	3.6	0.00e+00	0	47	104	0	60	105593
2026-01-29 11:23:23.00	5.60	8.96	-54.1	-58.0	3.6	0.00e+00	0	47	104	0	60	93789
2026-01-29 11:23:24.00	5.38	9.00	-55.9	-59.5	3.6	0.00e+00	0	47	104	0	60	111506
2026-01-29 11:23:25.01	5.16	9.04	-54.6	-58.0	3.6	0.00e+00	0	47	104	0	60	94495
2026-01-29 11:23:26.01	4.94	9.09	-54.6	-58.0	3.6	0.00e+00	0	47	104	0	60	93504
2026-01-29 11:23:27.01	4.72	9.13	-54.4	-57.9	3.6	0.00e+00	0	47	104	0	60	92617
2026-01-29 11:23:28.01	4.50	9.18	-54.3	-57.8	3.5	0.00e+00	0	47	104	0	60	91884
2026-01-29 11:23:29.02	4.27	9.22	-54.2	-57.6	3.6	0.00e+00	0	47	104	0	60	90173
2026-01-29 11:23:30.03	4.05	9.26	-54.3	-57.5	3.6	0.00e+00	0	47	104	0	60	88369
2026-01-29 11:23:31.04	3.82	9.31	-55.5	-59.0	3.6	0.00e+00	0	47	104	0	60	105419
2026-01-29 11:23:32.04	3.60	9.35	-54.9	-58.2	3.6	0.00e+00	0	47	104	0	60	95722
2026-01-29 11:23:33.04	3.37	9.39	-54.2	-58.0	3.6	0.00e+00	0	47	104	0	60	93614
2026-01-29 11:23:34.05	3.14	9.44	-54.4	-57.6	3.6	0.00e+00	0	47	104	0	60	90201
2026-01-29 11:23:35.06	2.91	9.48	-54.5	-57.7	3.6	0.00e+00	0	47	104	0	60	90501
2026-01-29 11:23:36.06	2.68	9.52	-54.4	-57.5	3.6	0.00e+00	0	47	104	0	60	88694
2026-01-29 11:23:37.07	2.45	9.56	-54.8	-58.1	3.6	0.00e+00	0	47	104	0	60	95366
2026-01-29 11:23:38.07	2.22	9.60	-54.1	-57.9	3.6	0.00e+00	0	47	104	0	60	92556
2026-01-29 11:23:39.07	1.99	9.64	-55.3	-58.9	3.6	0.00e+00	0	47	104	0	60	104764
2026-01-29 11:23:40.08	1.76	9.69	-54.6	-58.2	3.6	0.00e+00	0	47	104	0	60	95951
2026-01-29 11:23:41.09	1.52	9.73	-55.1	-58.5	3.6	0.00e+00	0	47	104	0	60	99449
2026-01-29 11:23:42.09	1.29	9.77	-54.2	-57.6	3.6	0.00e+00	0	48	104	0	60	89309
2026-01-29 11:23:43.09	1.06	9.81	-54.1	-57.5	3.6	0.00e+00	0	47	104	0	60	88511
2026-01-29 11:23:44.10	0.82	9.85	-54.2	-57.6	3.6	0.00e+00	0	47	104	0	60	89631
2026-01-29 11:23:45.11	0.58	9.89	-54.1	-57.9	3.6	0.00e+00	0	47	104	0	60	92989
2026-01-29 11:23:46.11	0.35	9.92	-54.5	-57.8	3.6	0.00e+00	0	48	104	0	60	92130
2026-01-29 11:23:47.12	0.11	9.96	-55.4	-59.0	3.6	0.00e+00	0	47	104	0	60	105358
2026-01-29 11:23:48.12	359.87	10.00	-54.5	-57.9	3.6	0.00e+00	0	47	104	0	60	92624
2026-01-29 11:23:49.12	359.63	10.04	-54.8	-58.5	3.5	0.00e+00	0	48	104	0	60	99064
2026-01-29 11:23:50.12	359.39	10.08	-54.0	-57.2	3.6	0.00e+00	0	48	104	0	60	85238
2026-01-29 11:23:51.12	359.15	10.11	-53.9	-57.1	3.6	0.00e+00	0	48	104	0	60	84283
2026-01-29 11:23:52.13	358.91	10.15	-53.8	-56.9	3.6	0.00e+00	0	48	104	0	60	83136
2026-01-29 11:23:53.13	358.67	10.19	-54.4	-58.0	3.6	0.00e+00	0	47	104	0	60	94299
2026-01-29 11:23:54.14	358.42	10.22	-54.8	-58.4	3.6	0.00e+00	0	47	104	0	60	98183
2026-01-29 11:23:55.15	358.18	10.26	-54.4	-57.8	3.6	0.00e+00	0	47	104	0	60	91543
2026-01-29 11:23:56.16	357.93	10.30	-54.6	-58.3	3.6	0.00e+00	0	47	104	0	60	97297
2026-01-29 11:23:57.16	357.69	10.33	-54.2	-57.8	3.6	0.00e+00	0	47	104	0	60	91643
2026-01-29 11:23:58.16	357.44	10.36	-54.4	-58.0	3.6	0.00e+00	0	47	104	0	60	94309
2026-01-29 11:23:59.17	357.19	10.40	-54.5	-58.2	3.6	0.00e+00	0	47	104	0	60	95687
2026-01-29 11:24:00.18	356.94	10.43	-54.5	-58.2	3.6	0.00e+00	0	48	104	0	60	95811
2026-01-29 11:24:01.18	356.70	10.47	-54.5	-58.2	3.6	0.00e+00	0	48	104	0	60	95863
2026-01-29 11:24:02.19	356.45	10.50	-54.6	-58.3	3.6	0.00e+00	0	48	104	0	60	97015
2026-01-29 11:24:03.19	356.20	10.53	-54.6	-58.4	3.6	0.00e+00	0	48	104	0	60	98007
2026-01-29 11:24:04.20	355.95	10.57	-54.2	-58.0	3.6	0.00e+00	0	47	104	0	60	94365
2026-01-29 11:24:05.20	355.70	10.60	-54.4	-58.2	3.6	0.00e+00	0	48	104	0	60	95907
2026-01-29 11:24:06.21	355.44	10.63	-54.6	-58.3	3.6	0.00e+00	0	48	104	0	60	97745
2026-01-29 11:24:07.20	355.19	10.66	-54.6	-58.3	3.6	0.00e+00	0	47	104	0	60	96832
2026-01-29 11:24:08.21	354.94	10.69	-54.0	-58.0	3.6	0.00e+00	0	48	104	0	60	93459
2026-01-29 11:24:09.21	354.69	10.72	-54.4	-58.2	3.6	0.00e+00	0	47	104	0	60	96429
2026-01-29 11:24:10.22	354.43	10.75	-54.6	-58.4	3.5	0.00e+00	0	47	104	0	60	98682
2026-01-29 11:24:11.22	354.18	10.78	-54.5	-58.3	3.6	0.00e+00	0	48	104	0	60	97125
2026-01-29 11:24:12.23	353.92	10.81	-54.0	-58.0	3.6	0.00e+00	0	48	104	0	60	93730
2026-01-29 11:24:13.23	353.66	10.84	-54.4	-58.2	3.6	0.00e+00	0	48	104	0	60	95876
2026-01-29 11:24:14.23	353.41	10.87	-54.5	-58.3	3.6	0.00e+00	0	48	104	0	60	97504
2026-01-29 11:24:15.23	353.15	10.90	-54.7	-58.4	3.6	0.00e+00	0	48	104	0	60	98943
2026-01-29 11:24:16.24	352.89	10.92	-54.2	-58.0	3.6	0.00e+00	0	48	104	0	60	93856
2026-01-29 11:24:17.25	352.63	10.95	-54.6	-58.4	3.5	0.00e+00	0	48	104	0	60	98367
2026-01-29 11:24:18.25	352.37	10.98	-54.7	-58.3	3.6	0.00e+00	0	48	104	0	60	97783
2026-01-29 11:24:19.25	352.12	11.00	-54.5	-58.4	3.6	0.00e+00	0	48	104	0	60	98035
2026-01-29 11:24:20.26	351.85	11.03	-54.1	-57.9	3.6	0.00e+00	0	48	104	0	60	92925
2026-01-29 11:24:21.26	351.59	11.05	-54.2	-58.3	3.6	0.00e+00	0	48	104	0	60	97019
2026-01-29 11:24:22.27	351.33	11.08	-54.9	-58.5	3.6	0.00e+00	0	47	104	0	60	99116
2026-01-29 11:24:23.27	351.07	11.10	-54.8	-58.4	3.6	0.00e+00	0	48	104	0	60	98115
2026-01-29 11:24:24.28	350.81	11.13	-54.5	-58.3	3.5	0.00e+00	0	48	104	0	60	97167
2026-01-29 11:24:25.28	350.54	11.15	-54.2	-58.3	3.6	0.00e+00	0	48	104	0	60	96860
2026-01-29 11:24:26.29	350.28	11.17	-55.0	-58.7	3.6	0.00e+00	0	48	104	0	60	101700
2026-01-29 11:24:27.29	350.02	11.20	-54.9	-58.5	3.6	0.00e+00	0	48	104	0	60	99519
2026-01-29 11:24:28.29	349.75	11.22	-55.2	-58.8	3.6	0.00e+00	0	48	104	0	60	103409
2026-01-29 11:24:29.29	349.49	11.24	-54.5	-58.2	3.6	0.00e+00	0	48	104	0	60	96601
2026-01-29 11:24:30.30	349.22	11.26	-54.7	-58.3	3.6	0.00e+00	0	48	104	0	60	97204
2026-01-29 11:24:31.30	348.96	11.28	-54.7	-58.3	3.6	0.00e+00	0	47	104	0	60	97776
2026-01-29 11:24:32.31	348.69	11.30	-54.7	-58.3	3.6	0.00e+00	0	48	104	0	60	97546
2026-01-29 11:24:33.32	348.42	11.32	-54.6	-58.2	3.6	0.00e+00	0	48	104	0	60	96207
2026-01-29 11:24:34.33	348.15	11.34	-54.6	-58.2	3.6	0.00e+00	0	48	104	0	60	95961
2026-01-29 11:24:35.33	347.88	11.36	-55.2	-58.7	3.6	0.00e+00	0	48	104	0	60	101542
2026-01-29 11:24:36.34	347.61	11.38	-54.4	-58.3	3.6	0.00e+00	0	48	104	0	60	97386
2026-01-29 11:24:37.35	347.34	11.39	-54.6	-58.4	3.6	0.00e+00	0	48	104	0	60	98576
2026-01-29 11:24:38.35	347.08	11.41	-54.9	-58.4	3.6	0.00e+00	0	48	104	0	60	98740
2026-01-29 11:24:39.35	346.81	11.43	-54.6	-58.2	3.6	0.00e+00	0	48	104	0	60	96694
2026-01-29 11:24:40.36	346.54	11.44	-54.3	-58.2	3.6	0.00e+00	0	48	104	0	60	96391
2026-01-29 11:24:41.37	346.26	11.46	-54.4	-58.3	3.6	0.00e+00	0	48	104	0	60	97345
2026-01-29 11:24:42.37	346.00	11.47	-54.2	-57.9	3.6	0.00e+00	0	48	104	0	60	92509
2026-01-29 11:24:43.38	345.72	11.49	-54.1	-57.9	3.6	0.00e+00	0	48	104	0	60	92933
2026-01-29 11:24:44.38	345.45	11.50	-54.1	-57.9	3.6	0.00e+00	0	48	104	0	60	92794
2026-01-29 11:24:45.39	345.18	11.52	-54.7	-58.3	3.6	0.00e+00	0	48	104	0	60	97120
2026-01-29 11:24:46.40	344.91	11.53	-54.6	-58.3	3.6	0.00e+00	0	48	104	0	60	96775
2026-01-29 11:24:47.41	344.63	11.54	-55.0	-58.5	3.6	0.00e+00	0	48	104	0	60	100013
2026-01-29 11:24:48.41	344.36	11.55	-54.9	-58.3	3.6	0.00e+00	0	48	104	0	60	97799
2026-01-29 11:24:49.42	344.09	11.56	-55.0	-58.6	3.6	0.00e+00	0	48	104	0	60	100517
2026-01-29 11:24:50.43	343.81	11.57	-54.4	-57.7	3.6	0.00e+00	0	48	104	0	60	90656
2026-01-29 11:24:51.43	343.54	11.58	-54.5	-57.7	3.6	0.00e+00	0	48	104	0	60	90703
2026-01-29 11:24:52.44	343.27	11.59	-54.5	-57.6	3.5	0.00e+00	0	48	104	0	60	89709
2026-01-29 11:24:53.44	342.99	11.60	-54.6	-57.7	3.6	0.00e+00	0	48	104	0	60	91139
2026-01-29 11:24:54.45	342.72	11.61	-54.8	-58.1	3.6	0.00e+00	0	48	104	0	60	94872
2026-01-29 11:24:55.46	342.44	11.62	-54.5	-58.1	3.6	0.00e+00	0	48	104	0	60	95341
2026-01-29 11:24:56.47	342.17	11.63	-54.6	-58.0	3.6	0.00e+00	0	48	104	0	60	94232
2026-01-29 11:24:57.47	341.90	11.63	-54.7	-58.3	3.6	0.00e+00	0	48	104	0	60	97594
2026-01-29 11:24:58.48	341.62	11.64	-54.4	-57.8	3.6	0.00e+00	0	48	104	0	60	91576
2026-01-29 11:24:59.48	341.35	11.65	-54.4	-57.8	3.6	0.00e+00	0	48	104	0	60	91444
2026-01-29 11:25:00.49	341.07	11.65	-54.4	-57.8	3.6	0.00e+00	0	48	104	0	60	91577
2026-01-29 11:25:01.50	340.79	11.66	-54.4	-57.8	3.6	0.00e+00	0	47	104	0	60	91701
2026-01-29 11:25:02.51	340.52	11.66	-54.5	-58.0	3.7	0.00e+00	0	48	104	0	60	94083
2026-01-29 11:25:03.51	340.24	11.66	-54.6	-58.0	3.6	0.00e+00	0	48	104	0	60	93802
2026-01-29 11:25:04.52	339.97	11.67	-54.3	-57.8	3.6	0.00e+00	0	48	104	0	60	92089
2026-01-29 11:25:05.52	339.69	11.67	-54.7	-58.2	3.6	0.00e+00	0	48	104	0	60	96364
2026-01-29 11:25:06.53	339.42	11.67	-54.0	-57.4	3.6	0.00e+00	0	48	104	0	60	87312
2026-01-29 11:25:07.53	339.14	11.67	-54.0	-57.3	3.6	0.00e+00	0	48	104	0	60	86566
2026-01-29 11:25:08.53	338.87	11.67	-53.9	-57.1	3.6	0.00e+00	0	48	104	0	60	85164
2026-01-29 11:25:09.54	338.59	11.67	-54.1	-57.5	3.6	0.00e+00	0	48	104	0	60	88895
2026-01-29 11:25:10.54	338.32	11.67	-53.9	-57.1	3.6	0.00e+00	0	48	104	0	60	85142
2026-01-29 11:25:11.55	338.04	11.67	-53.9	-57.6	3.6	0.00e+00	0	48	104	0	60	89613
2026-01-29 11:25:12.56	337.76	11.67	-54.1	-57.5	3.6	0.00e+00	0	48	104	0	60	89238
2026-01-29 11:25:13.56	337.49	11.67	-54.2	-57.8	3.6	0.00e+00	0	48	104	0	60	91713
2026-01-29 11:25:14.57	337.21	11.67	-54.0	-57.3	3.5	0.00e+00	0	48	104	0	60	86953
2026-01-29 11:25:15.57	336.94	11.66	-54.1	-57.4	3.6	0.00e+00	0	48	104	0	60	87739
2026-01-29 11:25:16.58	336.66	11.66	-53.8	-57.2	3.6	0.00e+00	0	48	104	0	60	85771
2026-01-29 11:25:17.59	336.39	11.66	-53.9	-57.3	3.6	0.00e+00	0	48	104	0	60	87156
2026-01-29 11:25:18.59	336.11	11.65	-54.2	-57.7	3.6	0.00e+00	0	48	104	0	60	90913
2026-01-29 11:25:19.60	335.84	11.65	-53.8	-57.6	3.6	0.00e+00	0	48	104	0	60	89547
2026-01-29 11:25:20.61	335.56	11.64	-53.9	-57.4	3.6	0.00e+00	0	48	104	0	60	87655
2026-01-29 11:25:21.61	335.29	11.64	-53.8	-57.7	3.6	0.00e+00	0	48	104	0	60	91251
2026-01-29 11:25:22.61	335.01	11.63	-53.4	-57.3	3.6	0.00e+00	0	48	104	0	60	86342
2026-01-29 11:25:23.62	334.74	11.62	-53.3	-57.1	3.6	0.00e+00	0	48	104	0	60	84802
2026-01-29 11:25:24.62	334.46	11.61	-53.2	-57.2	3.6	0.00e+00	0	48	104	0	60	85526
2026-01-29 11:25:25.63	334.19	11.60	-53.4	-57.4	3.6	0.00e+00	0	48	104	0	60	88086
2026-01-29 11:25:26.64	333.91	11.60	-53.2	-57.1	3.6	0.00e+00	0	48	104	0	60	84590
2026-01-29 11:25:27.65	333.64	11.59	-53.8	-57.1	3.6	0.00e+00	0	48	104	0	60	84967
2026-01-29 11:25:28.65	333.37	11.58	-53.4	-56.9	3.6	0.00e+00	0	48	104	0	60	83063
2026-01-29 11:25:29.65	333.10	11.57	-53.7	-57.5	3.6	0.00e+00	0	48	104	0	60	89152
2026-01-29 11:25:30.66	332.82	11.55	-53.5	-57.2	3.6	0.00e+00	0	48	104	0	60	85327
2026-01-29 11:25:31.66	332.55	11.54	-53.6	-57.1	3.6	0.00e+00	0	48	104	0	60	84384
2026-01-29 11:25:32.66	332.28	11.53	-53.4	-56.9	3.6	0.00e+00	0	48	104	0	60	82512
2026-01-29 11:25:33.66	332.01	11.52	-53.6	-57.2	3.6	0.00e+00	0	48	104	0	60	85890
2026-01-29 11:25:34.66	331.74	11.50	-52.9	-56.5	3.6	0.00e+00	0	48	104	0	60	78626
2026-01-29 11:25:35.67	331.46	11.49	-53.6	-57.5	3.6	0.00e+00	0	48	104	0	60	88722
2026-01-29 11:25:36.68	331.19	11.48	-53.2	-56.8	3.6	0.00e+00	0	48	104	0	60	82215
2026-01-29 11:25:37.68	330.92	11.46	-53.2	-57.3	3.6	0.00e+00	0	48	104	0	60	86675
2026-01-29 11:25:38.69	330.65	11.45	-53.1	-56.9	3.6	0.00e+00	0	48	104	0	60	82535
2026-01-29 11:25:39.70	330.38	11.43	-53.3	-56.9	3.6	0.00e+00	0	48	104	0	60	82798
2026-01-29 11:25:40.70	330.11	11.41	-53.4	-56.8	3.6	0.00e+00	0	48	104	0	60	82319
2026-01-29 11:25:41.70	329.84	11.40	-53.4	-56.6	3.6	0.00e+00	0	48	104	0	60	79721
2026-01-29 11:25:42.71	329.57	11.38	-53.3	-56.3	3.6	0.00e+00	0	48	104	0	60	77137
2026-01-29 11:25:43.71	329.31	11.36	-53.3	-57.0	3.6	0.00e+00	0	48	104	0	60	84044
2026-01-29 11:25:44.72	329.04	11.34	-53.4	-56.3	3.6	0.00e+00	0	48	104	0	60	77083
2026-01-29 11:25:45.72	328.77	11.32	-53.7	-56.7	3.6	0.00e+00	0	48	104	0	60	80555
2026-01-29 11:25:46.73	328.50	11.30	-52.9	-55.8	3.6	0.00e+00	0	48	104	0	60	72988
2026-01-29 11:25:47.73	328.23	11.28	-52.8	-55.6	3.6	0.00e+00	0	48	104	0	60	71630
2026-01-29 11:25:48.74	327.97	11.26	-52.8	-55.9	3.6	0.00e+00	0	48	104	0	60	73743
2026-01-29 11:25:49.75	327.70	11.24	-53.3	-56.7	3.6	0.00e+00	0	48	104	0	60	80468
2026-01-29 11:25:50.75	327.43	11.22	-52.8	-55.5	3.6	0.00e+00	0	48	104	0	60	70447
2026-01-29 11:25:51.76	327.17	11.20	-53.6	-57.3	3.6	0.00e+00	0	48	104	0	60	86736
2026-01-29 11:25:52.77	326.90	11.18	-53.2	-56.2	3.6	0.00e+00	0	48	104	0	60	76447
2026-01-29 11:25:53.77	326.64	11.15	-53.7	-57.0	3.6	0.00e+00	0	48	104	0	60	83478
2026-01-29 11:25:54.78	326.37	11.13	-53.4	-56.5	3.6	0.00e+00	0	48	104	0	60	79069
2026-01-29 11:25:55.78	326.11	11.11	-53.2	-56.2	3.6	0.00e+00	0	48	104	0	60	76291
2026-01-29 11:25:56.79	325.85	11.08	-52.7	-55.4	3.6	0.00e+00	0	48	104	0	60	69707
2026-01-29 11:25:57.80	325.59	11.06	-52.8	-55.4	3.6	0.00e+00	0	48	104	0	60	69778
2026-01-29 11:25:58.80	325.33	11.03	-52.2	-54.5	3.7	0.00e+00	0	48	104	0	60	62657
2026-01-29 11:25:59.81	325.06	11.01	-53.0	-55.7	3.6	0.00e+00	0	48	104	0	60	71912
2026-01-29 11:26:00.82	324.80	10.98	-52.6	-55.1	3.6	0.00e+00	0	48	104	0	60	67516
2026-01-29 11:26:01.82	324.54	10.95	-53.2	-56.1	3.6	0.00e+00	0	48	104	0	60	75666
2026-01-29 11:26:02.82	324.28	10.93	-52.6	-55.1	3.6	0.00e+00	0	48	104	0	60	67230
2026-01-29 11:26:03.83	324.02	10.90	-52.7	-55.4	3.6	0.00e+00	0	48	104	0	60	69624
2026-01-29 11:26:04.84	323.77	10.87	-52.2	-54.6	3.7	0.00e+00	0	48	104	0	60	63563
2026-01-29 11:26:05.84	323.51	10.84	-52.7	-55.4	3.6	0.00e+00	0	48	104	0	60	70068
2026-01-29 11:26:06.85	323.25	10.81	-52.4	-55.0	3.6	0.00e+00	0	48	104	0	60	66290
2026-01-29 11:26:07.86	322.99	10.79	-53.5	-56.7	3.6	0.00e+00	0	48	104	0	60	81122
2026-01-29 11:26:08.86	322.74	10.76	-52.3	-54.7	3.6	0.00e+00	0	48	104	0	60	64005
2026-01-29 11:26:09.86	322.49	10.73	-52.5	-55.0	3.6	0.00e+00	0	48	104	0	60	66754
2026-01-29 11:26:10.87	322.23	10.70	-52.2	-54.6	3.7	0.00e+00	0	48	104	0	60	63640
2026-01-29 11:26:11.88	321.97	10.66	-52.2	-54.6	3.7	0.00e+00	0	48	104	0	60	63480
2026-01-29 11:26:12.88	321.72	10.63	-51.8	-54.0	3.7	0.00e+00	0	48	104	0	60	59291
2026-01-29 11:26:13.89	321.47	10.60	-52.7	-55.4	3.6	0.00e+00	0	48	104	0	60	69575
2026-01-29 11:26:14.90	321.22	10.57	-52.6	-55.3	3.6	0.00e+00	0	48	104	0	60	68874
2026-01-29 11:26:15.91	320.96	10.54	-53.0	-56.0	3.6	0.00e+00	0	48	104	0	60	74262
2026-01-29 11:26:16.91	320.71	10.50	-52.9	-55.8	3.6	0.00e+00	0	48	104	0	60	73359
2026-01-29 11:26:17.92	320.46	10.47	-52.4	-55.1	3.6	0.00e+00	0	48	104	0	60	67498
2026-01-29 11:26:18.92	320.22	10.44	-52.2	-54.9	3.6	0.00e+00	0	48	104	0	60	65435
2026-01-29 11:26:19.92	319.97	10.40	-52.4	-55.3	3.6	0.00e+00	0	48	104	0	60	68978
2026-01-29 11:26:20.93	319.72	10.37	-52.2	-55.2	3.6	0.00e+00	0	48	104	0	60	68108
2026-01-29 11:26:21.94	319.47	10.33	-53.2	-56.7	3.6	0.00e+00	0	48	104	0	60	80913
2026-01-29 11:26:22.95	319.22	10.30	-52.3	-55.3	3.6	0.00e+00	0	48	104	0	60	69148
2026-01-29 11:26:23.96	318.98	10.26	-53.0	-56.6	3.6	0.00e+00	0	48	104	0	60	80143
2026-01-29 11:26:24.97	318.73	10.23	-53.0	-56.4	3.6	0.00e+00	0	48	104	0	60	78353
2026-01-29 11:26:25.97	318.49	10.19	-53.0	-56.2	3.6	0.00e+00	0	48	104	0	60	76674
2026-01-29 11:26:26.98	318.25	10.15	-53.1	-56.4	3.5	0.00e+00	0	48	104	0	60	77966
2026-01-29 11:26:27.99	318.00	10.12	-53.1	-56.3	3.6	0.00e+00	0	48	104	0	60	76854
2026-01-29 11:26:29.00	317.76	10.08	-53.4	-56.7	3.6	0.00e+00	0	48	104	0	60	80935
2026-01-29 11:26:30.00	317.52	10.04	-53.4	-56.7	3.6	0.00e+00	0	48	104	0	60	80921
2026-01-29 11:26:31.01	317.28	10.00	-53.3	-56.6	3.6	0.00e+00	0	48	104	0	60	79555
2026-01-29 11:26:32.01	317.04	9.96	-53.6	-56.9	3.6	0.00e+00	0	48	104	0	60	82821
2026-01-29 11:26:33.02	316.80	9.93	-53.3	-56.8	3.6	0.00e+00	0	48	104	0	60	82266
2026-01-29 11:26:34.02	316.56	9.89	-53.2	-56.5	3.6	0.00e+00	0	48	104	0	60	78815
2026-01-29 11:26:35.03	316.33	9.85	-53.0	-56.2	3.6	0.00e+00	0	48	104	0	60	76622
2026-01-29 11:26:36.04	316.09	9.81	-53.0	-56.4	3.6	0.00e+00	0	48	104	0	60	78416
2026-01-29 11:26:37.05	315.85	9.77	-52.9	-56.6	3.6	0.00e+00	0	48	104	0	60	80033
2026-01-29 11:26:38.05	315.62	9.73	-53.0	-56.8	3.6	0.00e+00	0	48	104	0	60	81877
2026-01-29 11:26:39.06	315.38	9.69	-53.3	-56.8	3.6	0.00e+00	0	48	104	0	60	81693
2026-01-29 11:26:40.06	315.15	9.65	-53.7	-57.3	3.6	0.00e+00	0	48	104	0	60	86425
2026-01-29 11:26:41.07	314.92	9.60	-52.8	-56.6	3.6	0.00e+00	0	48	104	0	60	79668
2026-01-29 11:26:42.08	314.69	9.56	-52.6	-56.2	3.6	0.00e+00	0	48	104	0	60	76050
2026-01-29 11:26:43.08	314.46	9.52	-52.5	-56.2	3.6	0.00e+00	0	48	104	0	60	76734
2026-01-29 11:26:44.09	314.22	9.48	-52.4	-56.0	3.6	0.00e+00	0	48	104	0	60	75062
2026-01-29 11:26:45.09	314.00	9.44	-52.0	-55.5	3.5	0.00e+00	0	48	104	0	60	70144
2026-01-29 11:26:46.10	313.77	9.39	-52.4	-56.2	3.6	0.00e+00	0	48	104	0	60	76567
2026-01-29 11:26:47.11	313.54	9.35	-53.1	-56.7	3.6	0.00e+00	0	48	104	0	60	80992
2026-01-29 11:26:48.11	313.31	9.31	-53.0	-56.8	3.6	0.00e+00	0	48	104	0	60	81820
2026-01-29 11:26:49.12	313.09	9.27	-53.0	-56.7	3.6	0.00e+00	0	48	104	0	60	81235
2026-01-29 11:26:50.13	312.86	9.22	-52.9	-56.4	3.6	0.00e+00	0	48	104	0	60	78141
2026-01-29 11:26:51.14	312.64	9.18	-52.9	-56.4	3.6	0.00e+00	0	48	104	0	60	77985
2026-01-29 11:26:52.15	312.41	9.13	-52.7	-56.3	3.6	0.00e+00	0	48	104	0	60	76972
2026-01-29 11:26:53.15	312.19	9.09	-53.3	-57.0	3.6	0.00e+00	0	48	104	0	60	84030
2026-01-29 11:26:54.15	311.97	9.04	-53.1	-56.9	3.6	0.00e+00	0	48	104	0	60	82987
2026-01-29 11:26:55.16	311.75	9.00	-53.0	-56.7	3.6	0.00e+00	0	48	104	0	60	81089
2026-01-29 11:26:56.16	311.53	8.95	-53.4	-57.2	3.6	0.00e+00	0	48	104	0	60	85824
2026-01-29 11:26:57.16	311.31	8.91	-52.7	-56.6	3.6	0.00e+00	0	48	104	0	60	79999
2026-01-29 11:26:58.17	311.09	8.86	-52.7	-56.3	3.6	0.00e+00	0	48	104	0	60	77634
2026-01-29 11:26:59.17	310.88	8.82	-52.8	-56.5	3.6	0.00e+00	0	48	104	0	60	78806
2026-01-29 11:27:00.18	310.66	8.77	-52.7	-56.3	3.6	0.00e+00	0	48	104	0	60	77232
2026-01-29 11:27:01.19	310.44	8.73	-52.2	-56.2	3.6	0.00e+00	0	48	104	0	60	76420
2026-01-29 11:27:02.19	310.23	8.68	-52.9	-56.7	3.6	0.00e+00	0	48	104	0	60	80539
2026-01-29 11:27:03.20	310.01	8.63	-52.2	-56.2	3.6	0.00e+00	0	48	104	0	60	76065
2026-01-29 11:27:04.20	309.80	8.59	-52.9	-56.6	3.6	0.00e+00	0	48	104	0	60	80193
2026-01-29 11:27:05.21	309.59	8.54	-51.9	-55.8	3.6	0.00e+00	0	48	104	0	60	73246
2026-01-29 11:27:06.22	309.38	8.49	-51.5	-55.1	3.5	0.00e+00	0	48	104	0	60	67347
2026-01-29 11:27:07.23	309.16	8.44	-51.6	-55.1	3.5	0.00e+00	0	48	104	0	60	67062
2026-01-29 11:27:08.23	308.96	8.40	-51.3	-54.5	3.6	0.00e+00	0	48	104	0	60	63006
2026-01-29 11:27:09.24	308.75	8.35	-52.3	-56.1	3.6	0.00e+00	0	48	104	0	60	75229
2026-01-29 11:27:10.25	308.54	8.30	-52.3	-56.2	3.6	0.00e+00	0	48	104	0	60	76419
2026-01-29 11:27:11.25	308.33	8.25	-52.9	-56.1	3.6	0.00e+00	0	48	104	0	60	75155
2026-01-29 11:27:12.26	308.12	8.20	-53.0	-56.8	3.6	0.00e+00	0	48	104	0	60	81486
2026-01-29 11:27:13.27	307.92	8.15	-52.6	-56.3	3.6	0.00e+00	0	48	104	0	60	76964
2026-01-29 11:27:14.27	307.71	8.11	-51.3	-53.4	3.8	0.00e+00	0	48	104	0	60	55252
2026-01-29 11:27:15.27	307.51	8.06	-50.6	-52.5	3.9	0.00e+00	0	48	104	0	60	49809
2026-01-29 11:27:16.28	307.31	8.01	-50.9	-52.9	3.8	0.00e+00	0	48	104	0	60	52427
2026-01-29 11:27:17.29	307.11	7.96	-51.7	-54.1	3.7	0.00e+00	0	48	104	0	60	60239
2026-01-29 11:27:18.29	306.91	7.91	-52.3	-55.0	3.7	0.00e+00	0	48	104	0	60	66185
2026-01-29 11:27:19.30	306.70	7.86	-52.4	-56.0	3.6	0.00e+00	0	48	104	0	60	74568
2026-01-29 11:27:20.31	306.50	7.81	-53.2	-56.8	3.6	0.00e+00	0	48	104	0	60	81706
2026-01-29 11:27:21.32	306.30	7.76	-52.2	-55.4	3.6	0.00e+00	0	48	104	0	60	69813
2026-01-29 11:27:22.32	306.11	7.71	-51.3	-53.6	3.7	0.00e+00	0	48	104	0	60	56786
2026-01-29 11:27:23.33	305.91	7.66	-51.0	-53.2	3.8	0.00e+00	0	48	104	0	60	53807
2026-01-29 11:27:24.34	305.71	7.61	-51.1	-53.4	3.7	0.00e+00	0	48	104	0	60	55077
2026-01-29 11:27:25.34	305.52	7.56	-50.2	-51.9	4.0	0.00e+00	0	48	104	0	60	46469
2026-01-29 11:27:26.35	305.32	7.51	-52.2	-55.0	3.7	0.00e+00	0	48	104	0	60	66261
2026-01-29 11:27:27.36	305.13	7.46	-53.1	-56.3	3.6	0.00e+00	0	48	104	0	60	77498
2026-01-29 11:27:28.36	304.94	7.41	-51.5	-53.4	4.0	0.00e+00	0	48	104	0	60	55161
2026-01-29 11:27:29.37	304.74	7.36	-52.5	-56.0	3.6	0.00e+00	0	48	104	0	60	74873
2026-01-29 11:27:30.37	304.56	7.31	-49.9	-51.4	4.0	0.00e+00	0	48	104	0	60	44125
2026-01-29 11:27:31.38	304.36	7.25	-49.1	-50.4	4.3	0.00e+00	0	48	104	0	60	39373
2026-01-29 11:27:32.39	304.17	7.20	-48.8	-50.2	4.2	0.00e+00	0	48	104	0	60	38195
2026-01-29 11:27:33.39	303.99	7.15	-49.8	-52.9	3.6	0.00e+00	0	48	104	0	60	52485
2026-01-29 11:27:34.39	303.80	7.10	-50.3	-53.7	3.6	0.00e+00	0	48	104	0	60	57340
2026-01-29 11:27:35.40	303.61	7.05	-51.8	-54.4	3.6	0.00e+00	0	48	104	0	60	61887
2026-01-29 11:27:36.41	303.43	7.00	-50.8	-52.6	3.9	0.00e+00	0	48	104	0	60	50230
2026-01-29 11:27:37.41	303.24	6.95	-48.1	-52.2	3.6	0.00e+00	0	48	104	0	60	48345
2026-01-29 11:27:38.42	303.06	6.89	-48.2	-50.0	3.9	0.00e+00	0	48	104	0	60	37536
2026-01-29 11:27:39.42	302.87	6.84	-51.1	-55.2	3.6	0.00e+00	0	48	104	0	60	67768
2026-01-29 11:27:40.43	302.69	6.79	-50.6	-55.0	3.6	0.00e+00	0	48	104	0	60	66161
2026-01-29 11:27:41.44	302.51	6.74	-49.9	-54.4	3.6	0.00e+00	0	48	104	0	60	61742
2026-01-29 11:27:42.44	302.33	6.69	-51.0	-55.3	3.6	0.00e+00	0	48	104	0	60	68806
2026-01-29 11:27:43.45	302.15	6.63	-52.9	-56.8	3.6	0.00e+00	0	48	104	0	60	81598
2026-01-29 11:27:44.46	301.97	6.58	-53.3	-57.2	3.6	0.00e+00	0	48	104	0	60	86211
2026-01-29 11:27:45.47	301.79	6.53	-50.9	-54.8	3.6	0.00e+00	0	48	104	0	60	65022
2026-01-29 11:27:46.48	301.61	6.48	-51.5	-55.2	3.5	0.00e+00	0	48	104	0	60	68445
2026-01-29 11:27:47.48	301.43	6.42	-51.9	-55.7	3.6	0.00e+00	0	48	104	0	60	71950
2026-01-29 11:27:48.49	301.26	6.37	-52.1	-55.8	3.6	0.00e+00	0	48	104	0	60	73346
2026-01-29 11:27:49.50	301.08	6.32	-52.1	-55.8	3.6	0.00e+00	0	48	104	0	60	72724
2026-01-29 11:27:50.51	300.90	6.26	-52.4	-56.2	3.6	0.00e+00	0	48	104	0	60	76347
2026-01-29 11:27:51.52	300.73	6.21	-53.4	-57.2	3.6	0.00e+00	0	48	104	0	60	85697
2026-01-29 11:27:52.52	300.56	6.16	-51.6	-55.3	3.6	0.00e+00	0	48	104	0	60	69114
2026-01-29 11:27:53.53	300.39	6.11	-52.3	-56.1	3.6	0.00e+00	0	48	104	0	60	75482
2026-01-29 11:27:54.53	300.21	6.05	-51.0	-54.7	3.6	0.00e+00	0	48	104	0	60	64482
2026-01-29 11:27:55.54	300.04	6.00	-51.0	-54.8	3.6	0.00e+00	0	48	104	0	60	64953
2026-01-29 11:27:56.54	299.87	5.95	-53.9	-57.9	3.6	0.00e+00	0	48	104	0	60	93267
2026-01-29 11:27:57.55	299.71	5.89	-55.7	-59.6	3.6	0.00e+00	0	48	104	0	60	112447
2026-01-29 11:27:58.56	299.54	5.84	-56.0	-59.6	3.6	0.00e+00	0	48	104	0	60	112448
2026-01-29 11:27:59.57	299.37	5.79	-56.0	-59.5	3.6	0.00e+00	0	48	104	0	60	111574
2026-01-29 11:28:00.58	299.20	5.73	-55.1	-59.0	3.6	0.00e+00	0	48	104	0	60	105519
2026-01-29 11:28:01.58	299.04	5.68	-55.8	-58.9	3.6	0.00e+00	0	48	104	0	60	104703
2026-01-29 11:28:02.59	298.87	5.63	-56.3	-60.2	3.6	0.00e+00	0	48	104	0	60	121189
2026-01-29 11:28:03.60	298.70	5.57	-56.7	-60.3	3.6	0.00e+00	0	48	104	0	60	122378
2026-01-29 11:28:04.61	298.54	5.52	-57.1	-60.8	3.6	0.00e+00	0	48	104	0	60	129998
2026-01-29 11:28:05.61	298.38	5.46	-56.4	-60.2	3.5	0.00e+00	0	48	104	0	60	121011
2026-01-29 11:28:06.61	298.22	5.41	-56.1	-60.1	3.6	0.00e+00	0	48	104	0	60	119322
2026-01-29 11:28:07.62	298.06	5.36	-56.1	-59.9	3.6	0.00e+00	0	48	104	0	60	117612
2026-01-29 11:28:08.63	297.89	5.30	-56.6	-60.1	3.6	0.00e+00	0	48	104	0	60	119845
2026-01-29 11:28:09.63	297.74	5.25	-57.0	-60.5	3.6	0.00e+00	0	48	104	0	60	124896
2026-01-29 11:28:10.63	297.58	5.20	-57.4	-61.1	3.6	0.00e+00	0	48	104	0	60	133962
2026-01-29 11:28:11.64	297.42	5.14	-58.1	-61.8	3.6	0.00e+00	0	48	104	0	60	144866
2026-01-29 11:28:12.65	297.26	5.09	-57.4	-61.2	3.6	0.00e+00	0	48	104	0	60	135702
2026-01-29 11:28:13.66	297.10	5.03	-57.1	-61.0	3.6	0.00e+00	0	48	104	0	60	133464
2026-01-29 11:28:14.66	296.95	4.98	-57.2	-61.1	3.6	0.00e+00	0	48	104	0	60	133913
2026-01-29 11:28:15.67	296.79	4.93	-57.3	-61.2	3.6	0.00e+00	0	48	104	0	60	135437
2026-01-29 11:28:16.67	296.64	4.87	-57.3	-61.2	3.6	0.00e+00	0	48	104	0	60	135402
2026-01-29 11:28:17.68	296.48	4.82	-57.3	-61.2	3.6	0.00e+00	0	48	104	0	60	136226
2026-01-29 11:28:18.69	296.33	4.77	-57.3	-61.1	3.6	0.00e+00	0	48	104	0	60	134956
2026-01-29 11:28:19.69	296.18	4.71	-57.2	-61.2	3.6	0.00e+00	0	48	104	0	60	135133
2026-01-29 11:28:20.70	296.03	4.66	-57.2	-61.1	3.6	0.00e+00	0	48	104	0	60	134429
2026-01-29 11:28:21.71	295.87	4.60	-57.2	-61.1	3.6	0.00e+00	0	48	104	0	60	133767
2026-01-29 11:28:22.72	295.72	4.55	-57.2	-61.1	3.6	0.00e+00	0	48	104	0	60	134921
2026-01-29 11:28:23.72	295.58	4.50	-57.2	-61.0	3.6	0.00e+00	0	48	104	0	60	133412
2026-01-29 11:28:24.73	295.43	4.44	-57.2	-61.1	3.6	0.00e+00	0	48	104	0	60	133607
2026-01-29 11:28:25.73	295.28	4.39	-57.1	-61.1	3.6	0.00e+00	0	48	104	0	60	133585
2026-01-29 11:28:26.73	295.13	4.33	-57.1	-61.0	3.6	0.00e+00	0	48	104	0	60	133068
2026-01-29 11:28:27.74	294.98	4.28	-57.1	-61.0	3.6	0.00e+00	0	48	104	0	60	133414
2026-01-29 11:28:28.75	294.84	4.23	-57.1	-61.0	3.6	0.00e+00	0	48	104	0	60	132837
2026-01-29 11:28:29.76	294.69	4.17	-57.1	-61.0	3.6	0.00e+00	0	48	104	0	60	132772
2026-01-29 11:28:30.76	294.55	4.12	-57.1	-61.0	3.6	0.00e+00	0	48	104	0	60	133344
2026-01-29 11:28:31.77	294.40	4.06	-57.0	-60.9	3.5	0.00e+00	0	48	104	0	60	131111
2026-01-29 11:28:32.78	294.26	4.01	-57.0	-60.9	3.6	0.00e+00	0	48	104	0	60	131201
2026-01-29 11:28:33.79	294.12	3.96	-57.0	-60.9	3.6	0.00e+00	0	48	104	0	60	131461
2026-01-29 11:28:34.79	293.98	3.90	-56.9	-60.9	3.6	0.00e+00	0	48	104	0	60	130986
2026-01-29 11:28:35.80	293.83	3.85	-56.9	-60.9	3.6	0.00e+00	0	48	104	0	60	130593
2026-01-29 11:28:36.81	293.69	3.79	-56.9	-60.9	3.6	0.00e+00	0	48	104	0	60	130670
2026-01-29 11:28:37.82	293.55	3.74	-56.9	-60.8	3.6	0.00e+00	0	48	104	0	60	130075
2026-01-29 11:28:38.82	293.41	3.69	-56.9	-60.9	3.5	0.00e+00	0	48	104	0	60	130784
2026-01-29 11:28:39.83	293.27	3.63	-56.9	-60.8	3.6	0.00e+00	0	48	104	0	60	130309
2026-01-29 11:28:40.84	293.14	3.58	-56.9	-60.9	3.6	0.00e+00	0	48	104	0	60	131081
2026-01-29 11:28:41.85	293.00	3.52	-56.9	-60.9	3.6	0.00e+00	0	48	104	0	60	130769
2026-01-29 11:28:42.86	292.86	3.47	-56.9	-60.9	3.6	0.00e+00	0	48	104	0	60	130741
2026-01-29 11:28:43.86	292.73	3.42	-57.0	-60.9	3.6	0.00e+00	0	48	104	0	60	131501
2026-01-29 11:28:44.87	292.59	3.36	-57.0	-60.9	3.6	0.00e+00	0	48	104	0	60	130839
2026-01-29 11:28:45.88	292.45	3.31	-57.0	-60.9	3.6	0.00e+00	0	48	104	0	60	131488
2026-01-29 11:28:46.88	292.32	3.25	-57.0	-60.9	3.6	0.00e+00	0	48	104	0	60	131392
2026-01-29 11:28:47.89	292.19	3.20	-57.0	-60.9	3.6	0.00e+00	0	48	104	0	60	131699
2026-01-29 11:28:48.90	292.05	3.15	-57.0	-61.0	3.6	0.00e+00	0	48	104	0	60	132037
2026-01-29 11:28:49.91	291.92	3.09	-57.0	-60.9	3.6	0.00e+00	0	48	104	0	60	131419
2026-01-29 11:28:50.92	291.79	3.04	-57.1	-61.0	3.6	0.00e+00	0	48	104	0	60	133105
2026-01-29 11:28:51.92	291.66	2.98	-57.0	-60.9	3.6	0.00e+00	0	48	104	0	60	131675
2026-01-29 11:28:52.93	291.53	2.93	-57.0	-60.9	3.6	0.00e+00	0	48	104	0	60	131706
2026-01-29 11:28:53.94	291.40	2.88	-57.0	-61.0	3.6	0.00e+00	0	48	104	0	60	132129
2026-01-29 11:28:54.94	291.27	2.82	-57.0	-61.0	3.6	0.00e+00	0	48	104	0	60	132253
2026-01-29 11:28:55.95	291.14	2.77	-57.0	-60.9	3.6	0.00e+00	0	48	104	0	60	131847
2026-01-29 11:28:56.96	291.01	2.72	-57.0	-61.0	3.6	0.00e+00	0	48	104	0	60	132320
2026-01-29 11:28:57.96	290.89	2.66	-57.1	-61.0	3.6	0.00e+00	0	48	104	0	60	132819
2026-01-29 11:28:58.97	290.76	2.61	-57.0	-61.0	3.6	0.00e+00	0	48	104	0	60	132321
2026-01-29 11:28:59.98	290.63	2.55	-57.0	-60.9	3.6	0.00e+00	0	48	104	0	60	131859
2026-01-29 11:29:00.99	290.51	2.50	-57.1	-60.9	3.6	0.00e+00	0	48	104	0	60	131569
2026-01-29 11:29:01.99	290.38	2.45	-57.0	-60.9	3.6	0.00e+00	0	48	104	0	60	131134
2026-01-29 11:29:03.00	290.26	2.39	-57.0	-60.9	3.6	0.00e+00	0	48	104	0	60	131875
2026-01-29 11:29:04.00	290.13	2.34	-57.0	-60.9	3.6	0.00e+00	0	48	104	0	60	131560
2026-01-29 11:29:05.01	290.01	2.29	-57.0	-60.9	3.6	0.00e+00	0	48	104	0	60	131368
2026-01-29 11:29:06.02	289.89	2.23	-57.0	-60.9	3.6	0.00e+00	0	48	104	0	60	131105
2026-01-29 11:29:07.03	289.77	2.18	-57.0	-60.9	3.6	0.00e+00	0	48	104	0	60	130593
2026-01-29 11:29:08.04	289.64	2.13	-56.9	-60.9	3.6	0.00e+00	0	48	104	0	60	130648
2026-01-29 11:29:09.04	289.52	2.07	-56.9	-60.9	3.6	0.00e+00	0	48	104	0	60	130571
2026-01-29 11:29:10.05	289.40	2.02	-56.9	-60.9	3.6	0.00e+00	0	48	104	0	60	130763
2026-01-29 11:29:10.89	289.30	1.98	-56.8	-60.8	3.6	0.00e+00	0	48	104	0	60	129887
2026-01-29 11:29:12.05	289.17	1.91	-56.9	-60.8	3.6	0.00e+00	0	48	104	0	60	129349
2026-01-29 11:29:12.91	289.06	1.87	-56.8	-60.8	3.6	0.00e+00	0	48	104	0	60	129837
2026-01-29 11:29:14.06	288.93	1.81	-56.8	-60.7	3.6	0.00e+00	0	48	104	0	60	128702
2026-01-29 11:29:14.92	288.83	1.76	-56.7	-60.7	3.6	0.00e+00	0	48	104	0	60	128371
2026-01-29 11:29:16.08	288.69	1.70	-56.8	-60.7	3.6	0.00e+00	0	48	104	0	60	128863
2026-01-29 11:29:16.94	288.59	1.66	-56.7	-60.7	3.6	0.00e+00	0	48	104	0	60	128371
2026-01-29 11:29:18.09	288.46	1.60	-56.8	-60.7	3.6	0.00e+00	0	48	104	0	60	128510
2026-01-29 11:29:18.95	288.36	1.55	-56.8	-60.7	3.6	0.00e+00	0	48	104	0	60	128243
2026-01-29 11:29:20.09	288.23	1.49	-56.8	-60.7	3.6	0.00e+00	0	48	104	0	60	128623
2026-01-29 11:29:20.96	288.13	1.44	-56.7	-60.7	3.6	0.00e+00	0	48	104	0	60	128517
2026-01-29 11:29:22.11	288.00	1.38	-56.7	-60.7	3.6	0.00e+00	0	48	104	0	60	128307
2026-01-29 11:29:22.97	287.91	1.34	-56.7	-60.7	3.6	0.00e+00	0	48	104	0	60	128475
2026-01-29 11:29:24.12	287.78	1.28	-56.7	-60.7	3.6	0.00e+00	0	48	104	0	60	128824
2026-01-29 11:29:24.98	287.68	1.23	-56.7	-60.7	3.6	0.00e+00	0	48	104	0	60	128099
2026-01-29 11:29:26.13	287.56	1.17	-56.8	-60.7	3.6	0.00e+00	0	48	104	0	60	128465
2026-01-29 11:29:27.00	287.46	1.13	-56.8	-60.7	3.6	0.00e+00	0	48	104	0	60	128321
2026-01-29 11:29:28.14	287.33	1.07	-56.8	-60.7	3.6	0.00e+00	0	48	104	0	60	128451
2026-01-29 11:29:29.00	287.24	1.02	-56.8	-60.7	3.5	0.00e+00	0	48	104	0	60	128746
2026-01-29 11:29:30.15	287.11	0.96	-56.8	-60.8	3.6	0.00e+00	0	48	104	0	60	129309
2026-01-29 11:29:31.02	287.02	0.92	-56.8	-60.8	3.6	0.00e+00	0	48	104	0	60	129461
2026-01-29 11:29:32.16	286.90	0.86	-56.8	-60.7	3.6	0.00e+00	0	48	104	0	60	128555
2026-01-29 11:29:33.02	286.80	0.81	-56.8	-60.7	3.6	0.00e+00	0	48	104	0	60	128733
2026-01-29 11:29:34.18	286.68	0.75	-56.8	-60.8	3.6	0.00e+00	0	48	104	0	60	128994
2026-01-29 11:29:35.04	286.59	0.71	-56.7	-60.6	3.6	0.00e+00	0	48	104	0	60	127152
2026-01-29 11:29:36.19	286.47	0.65	-56.8	-60.7	3.6	0.00e+00	0	48	104	0	60	128594
2026-01-29 11:29:37.05	286.38	0.60	-56.8	-60.8	3.6	0.00e+00	0	48	104	0	60	129006
2026-01-29 11:29:38.20	286.26	0.54	-56.8	-60.7	3.6	0.00e+00	0	48	104	0	60	128832
2026-01-29 11:29:39.07	286.17	0.50	-56.8	-60.7	3.6	0.00e+00	0	48	104	0	60	128612
2026-01-29 11:29:40.22	286.05	0.44	-56.8	-60.7	3.6	0.00e+00	0	48	104	0	60	128819
2026-01-29 11:29:41.08	285.96	0.40	-56.7	-60.7	3.6	0.00e+00	0	48	104	0	60	128188
2026-01-29 11:29:42.22	285.84	0.34	-56.8	-60.7	3.6	0.00e+00	0	48	104	0	60	127556
2026-01-29 11:29:43.09	285.75	0.29	-56.8	-60.7	3.6	0.00e+00	0	48	104	0	60	127929
2026-01-29 11:29:44.24	285.63	0.23	-56.7	-60.7	3.6	0.00e+00	0	48	104	0	60	127771
2026-01-29 11:29:45.10	285.54	0.19	-56.7	-60.6	3.6	0.00e+00	0	48	104	0	60	127355
2026-01-29 11:29:46.25	285.43	0.13	-56.6	-60.7	3.6	0.00e+00	0	48	104	0	60	128147
2026-01-29 11:29:47.12	285.34	0.08	-56.7	-60.6	3.6	0.00e+00	0	48	104	0	60	127303
2026-01-29 11:29:48.27	285.23	0.03	-56.7	-60.7	3.6	0.00e+00	0	48	104	0	60	127701
2026-01-29 11:29:49.13	285.14	-0.02	-56.7	-60.7	3.6	0.00e+00	0	48	104	0	60	128313

#Closed at: 2026-01-29 11:29:49
#Recorded file [0 MB]: D:/Data/35015_260129_142032.dat