passes_logs/2026/01/29/R3.2S-Naryan-Mar/R3.2S-Naryan-Mar__20260129_061517_NOAA_21_JPSS-2_rec.log

#Pass ID: 20260129_061517_NOAA 21 (JPSS-2)
#Satellite: NOAA 21 (JPSS-2)
#Configuration: NOAA-21
#almurnet v.1.7.20240730
#Start time: 2026-01-29 06:15:20

#Version: 2.2.20231116
#Station: R3.2S-Naryan-Mar
#Location: 53.008057 lon 67.646978 lat
#TLE: 1 54234U 22150A   26027.91149249  .00000141  00000+0  87546-4 0  9993
#TLE: 2 54234  98.7510 328.6558 0000880 202.8718 157.2419 14.19540177166642

#Time	Az	El	Level	Level2	SNR	BER	BlckErr	Temp	State	Recorded	gain1	gain2
2026-01-29 06:15:20.42	106.65	0.15	-60.6	-74.1	3.3	1.54e+00	0	44	0	0	60	193091
2026-01-29 06:15:21.42	106.61	0.20	-61.1	-76.0	3.5	1.51e+00	0	44	104	0	60	239046
2026-01-29 06:15:22.43	106.57	0.26	-61.4	-76.7	3.5	1.52e+00	0	45	104	0	60	260001
2026-01-29 06:15:23.43	106.53	0.32	-62.0	-76.6	3.5	1.51e+00	0	45	104	0	60	257067
2026-01-29 06:15:24.44	106.49	0.38	-62.0	-77.0	3.5	1.52e+00	0	45	104	0	60	268093
2026-01-29 06:15:25.44	106.44	0.43	-61.9	-76.4	3.5	1.52e+00	0	45	104	0	60	251594
2026-01-29 06:15:26.45	106.40	0.49	-62.0	-76.7	3.5	1.51e+00	0	45	104	0	60	261360
2026-01-29 06:15:27.46	106.36	0.55	-61.4	-76.4	3.5	1.52e+00	0	45	104	0	60	252762
2026-01-29 06:15:28.47	106.32	0.61	-61.1	-76.2	3.5	1.52e+00	0	45	104	0	60	246774
2026-01-29 06:15:29.47	106.27	0.67	-61.2	-76.0	3.5	1.52e+00	0	45	104	0	60	239187
2026-01-29 06:15:30.48	106.23	0.72	-60.7	-75.8	3.5	1.52e+00	0	45	104	0	60	234841
2026-01-29 06:15:31.49	106.19	0.78	-61.1	-75.6	3.5	1.52e+00	0	45	104	0	60	230109
2026-01-29 06:15:32.50	106.15	0.84	-61.3	-75.5	3.5	1.52e+00	0	45	104	0	60	227363
2026-01-29 06:15:33.51	106.10	0.90	-58.7	-74.2	3.5	1.51e+00	0	45	104	0	60	195983
2026-01-29 06:15:34.51	106.06	0.96	-58.7	-74.4	3.5	1.52e+00	0	45	104	0	60	200737
2026-01-29 06:15:35.52	106.01	1.02	-59.3	-73.9	3.5	1.52e+00	0	45	104	0	60	187779
2026-01-29 06:15:36.53	105.97	1.08	-59.1	-73.6	3.5	1.52e+00	0	45	104	0	60	182451
2026-01-29 06:15:37.54	105.93	1.14	-59.0	-73.5	3.5	1.51e+00	0	45	104	0	60	180817
2026-01-29 06:15:38.55	105.88	1.20	-58.9	-73.5	3.5	1.52e+00	0	45	104	0	60	179272
2026-01-29 06:15:39.55	105.84	1.25	-58.9	-73.5	3.5	1.52e+00	0	45	104	0	60	179356
2026-01-29 06:15:40.56	105.79	1.31	-58.9	-73.5	3.5	1.52e+00	0	45	104	0	60	179415
2026-01-29 06:15:41.57	105.75	1.37	-58.9	-73.4	3.5	1.51e+00	0	45	104	0	60	178773
2026-01-29 06:15:42.57	105.70	1.43	-58.9	-73.4	3.5	1.52e+00	0	45	104	0	60	177801
2026-01-29 06:15:43.58	105.66	1.49	-58.9	-73.4	3.6	1.52e+00	0	45	104	0	60	177170
2026-01-29 06:15:44.59	105.61	1.55	-58.9	-73.4	3.5	1.52e+00	0	45	104	0	60	177219
2026-01-29 06:15:45.60	105.57	1.61	-58.9	-73.4	3.5	1.51e+00	0	45	104	0	60	177673
2026-01-29 06:15:46.61	105.52	1.67	-58.9	-73.4	3.5	1.51e+00	0	45	104	0	60	177791
2026-01-29 06:15:47.62	105.48	1.73	-58.9	-73.3	3.5	1.52e+00	0	45	104	0	60	176787
2026-01-29 06:15:48.62	105.43	1.79	-58.9	-73.3	3.5	1.52e+00	0	45	104	0	60	176492
2026-01-29 06:15:49.62	105.38	1.85	-58.9	-73.3	3.5	1.52e+00	0	45	104	0	60	176507
2026-01-29 06:15:50.63	105.34	1.91	-58.9	-73.4	3.5	1.51e+00	0	45	104	0	60	178304
2026-01-29 06:15:51.64	105.29	1.98	-59.0	-73.4	3.5	1.52e+00	0	45	104	0	60	177636
2026-01-29 06:15:52.65	105.24	2.04	-59.0	-73.4	3.5	1.52e+00	0	45	104	0	60	178670
2026-01-29 06:15:53.65	105.20	2.10	-59.0	-73.4	3.5	1.52e+00	0	45	104	0	60	177609
2026-01-29 06:15:54.66	105.15	2.16	-59.0	-73.4	3.5	1.52e+00	0	45	104	0	60	177661
2026-01-29 06:15:55.66	105.10	2.22	-59.0	-73.3	3.5	1.52e+00	0	45	104	0	60	175633
2026-01-29 06:15:56.67	105.05	2.28	-59.0	-73.4	3.5	1.52e+00	0	45	104	0	60	177708
2026-01-29 06:15:57.68	105.00	2.34	-58.9	-73.4	3.5	1.52e+00	0	45	104	0	60	177084
2026-01-29 06:15:58.68	104.96	2.40	-58.9	-73.3	3.5	1.52e+00	0	45	104	0	60	176333
2026-01-29 06:15:59.69	104.91	2.46	-58.9	-73.3	3.5	1.52e+00	0	45	104	0	60	175112
2026-01-29 06:16:00.70	104.86	2.53	-58.9	-73.3	3.5	1.52e+00	0	45	104	0	60	175914
2026-01-29 06:16:01.70	104.81	2.59	-58.9	-73.2	3.5	1.52e+00	0	45	104	0	60	174247
2026-01-29 06:16:02.71	104.76	2.65	-58.9	-73.3	3.5	1.52e+00	0	45	104	0	60	175892
2026-01-29 06:16:03.72	104.71	2.71	-58.9	-73.3	3.5	1.52e+00	0	45	104	0	60	175953
2026-01-29 06:16:04.73	104.66	2.77	-58.9	-73.3	3.5	1.52e+00	0	45	104	0	60	175152
2026-01-29 06:16:05.73	104.61	2.83	-58.9	-73.3	3.5	1.52e+00	0	45	104	0	60	175406
2026-01-29 06:16:06.74	104.56	2.90	-58.8	-73.3	3.5	1.52e+00	0	45	104	0	60	175858
2026-01-29 06:16:07.74	104.51	2.96	-58.9	-73.3	3.5	1.52e+00	0	45	104	0	60	175777
2026-01-29 06:16:08.75	104.46	3.02	-58.9	-73.3	3.5	1.52e+00	0	45	104	0	60	176090
2026-01-29 06:16:09.76	104.41	3.08	-58.9	-73.3	3.5	1.52e+00	0	45	104	0	60	175272
2026-01-29 06:16:10.77	104.36	3.15	-58.9	-73.3	3.5	1.52e+00	0	45	104	0	60	176725
2026-01-29 06:16:11.78	104.31	3.21	-58.8	-73.4	3.5	1.52e+00	0	45	104	0	60	177355
2026-01-29 06:16:12.78	104.26	3.27	-58.8	-73.4	3.5	1.51e+00	0	45	104	0	60	177132
2026-01-29 06:16:13.78	104.21	3.34	-58.8	-73.3	3.5	1.52e+00	0	45	104	0	60	175198
2026-01-29 06:16:14.78	104.16	3.40	-58.8	-73.3	3.5	1.52e+00	0	45	104	0	60	176410
2026-01-29 06:16:15.79	104.10	3.46	-58.9	-73.3	3.5	1.52e+00	0	45	104	0	60	176852
2026-01-29 06:16:16.80	104.05	3.53	-58.8	-73.3	3.5	1.52e+00	0	45	104	0	60	176273
2026-01-29 06:16:17.80	104.00	3.59	-58.9	-73.3	3.5	1.52e+00	0	45	104	0	60	175372
2026-01-29 06:16:18.81	103.95	3.65	-58.8	-73.3	3.5	1.51e+00	0	45	104	0	60	175180
2026-01-29 06:16:19.82	103.89	3.72	-58.8	-73.3	3.5	1.52e+00	0	45	104	0	60	175669
2026-01-29 06:16:20.82	103.84	3.78	-58.8	-73.2	3.5	1.52e+00	0	45	104	0	60	173707
2026-01-29 06:16:21.83	103.79	3.84	-58.8	-73.3	3.5	1.52e+00	0	45	104	0	60	175693
2026-01-29 06:16:22.84	103.73	3.91	-58.8	-73.3	3.5	1.52e+00	0	45	104	0	60	175680
2026-01-29 06:16:23.85	103.68	3.97	-58.9	-73.3	3.5	1.52e+00	0	45	104	0	60	175311
2026-01-29 06:16:24.85	103.62	4.04	-58.8	-73.3	3.5	1.51e+00	0	45	104	0	60	175406
2026-01-29 06:16:25.86	103.57	4.10	-58.8	-73.3	3.5	1.52e+00	0	45	104	0	60	176770
2026-01-29 06:16:26.86	103.51	4.17	-58.8	-73.3	3.5	1.52e+00	0	45	104	0	60	175965
2026-01-29 06:16:27.87	103.46	4.23	-58.8	-73.3	3.5	1.52e+00	0	45	104	0	60	175677
2026-01-29 06:16:28.87	103.40	4.30	-58.8	-73.3	3.5	1.52e+00	0	45	104	0	60	175874
2026-01-29 06:16:29.87	103.35	4.36	-58.8	-73.3	3.5	1.51e+00	0	45	104	0	60	175159
2026-01-29 06:16:30.88	103.29	4.43	-58.8	-73.3	3.5	1.52e+00	0	45	104	0	60	175243
2026-01-29 06:16:31.88	103.24	4.49	-58.8	-73.2	3.5	1.52e+00	0	45	104	0	60	173493
2026-01-29 06:16:32.89	103.18	4.56	-58.8	-73.2	3.5	1.52e+00	0	45	104	0	60	174569
2026-01-29 06:16:33.90	103.12	4.62	-58.9	-73.2	3.5	1.52e+00	0	45	104	0	60	174381
2026-01-29 06:16:34.91	103.07	4.69	-58.9	-73.2	3.5	1.52e+00	0	46	104	0	60	174887
2026-01-29 06:16:35.92	103.01	4.76	-58.9	-73.3	3.5	1.52e+00	0	46	104	0	60	175568
2026-01-29 06:16:36.92	102.95	4.82	-58.9	-73.2	3.5	1.52e+00	0	45	104	0	60	174773
2026-01-29 06:16:37.93	102.90	4.89	-58.9	-73.3	3.5	1.52e+00	0	45	104	0	60	176223
2026-01-29 06:16:38.93	102.84	4.95	-58.9	-73.3	3.5	1.51e+00	0	45	104	0	60	176013
2026-01-29 06:16:39.94	102.78	5.02	-58.9	-73.3	3.5	1.52e+00	0	45	104	0	60	175468
2026-01-29 06:16:40.94	102.72	5.09	-58.8	-73.2	3.5	1.52e+00	0	45	104	0	60	173995
2026-01-29 06:16:41.95	102.66	5.15	-58.8	-73.2	3.5	1.51e+00	0	45	104	0	60	173995
2026-01-29 06:16:42.95	102.60	5.22	-58.8	-73.2	3.5	1.52e+00	0	46	104	0	60	173306
2026-01-29 06:16:43.96	102.54	5.29	-58.8	-73.2	3.5	1.52e+00	0	45	104	0	60	172917
2026-01-29 06:16:44.96	102.48	5.35	-58.8	-73.1	3.5	1.52e+00	0	45	104	0	60	172860
2026-01-29 06:16:45.97	102.42	5.42	-58.8	-73.1	3.5	1.52e+00	0	45	104	0	60	171578
2026-01-29 06:16:46.97	102.36	5.49	-58.8	-73.1	3.5	1.51e+00	0	45	104	0	60	172173
2026-01-29 06:16:47.98	102.30	5.56	-58.9	-73.1	3.5	1.52e+00	0	46	104	0	60	171410
2026-01-29 06:16:48.99	102.24	5.62	-58.9	-73.1	3.5	1.51e+00	0	46	104	0	60	172443
2026-01-29 06:16:50.00	102.18	5.69	-58.9	-73.2	3.5	1.52e+00	0	46	104	0	60	173946
2026-01-29 06:16:51.01	102.12	5.76	-58.9	-73.2	3.5	1.52e+00	0	46	104	0	60	173850
2026-01-29 06:16:52.01	102.06	5.83	-58.9	-73.2	3.5	1.52e+00	0	46	104	0	60	173269
2026-01-29 06:16:53.02	102.00	5.90	-58.9	-73.1	3.5	1.51e+00	0	46	104	0	60	172643
2026-01-29 06:16:54.03	101.93	5.97	-58.9	-73.0	3.5	1.52e+00	0	46	104	0	60	170673
2026-01-29 06:16:55.04	101.87	6.03	-58.9	-73.1	3.5	1.52e+00	0	46	104	0	60	172186
2026-01-29 06:16:56.04	101.81	6.10	-59.1	-73.1	3.5	1.52e+00	0	45	104	0	60	171145
2026-01-29 06:16:57.05	101.75	6.17	-59.5	-73.4	3.5	1.52e+00	0	46	104	0	60	177968
2026-01-29 06:16:58.06	101.68	6.24	-58.0	-72.8	3.5	1.51e+00	0	46	104	0	60	166949
2026-01-29 06:16:59.06	101.62	6.31	-58.4	-72.2	3.5	1.52e+00	0	46	104	0	60	155175
2026-01-29 06:17:00.06	101.55	6.38	-55.4	-71.5	3.5	1.51e+00	0	46	104	0	60	143144
2026-01-29 06:17:01.07	101.49	6.45	-55.4	-71.5	3.6	1.51e+00	0	46	104	0	60	143546
2026-01-29 06:17:02.08	101.42	6.52	-55.7	-72.2	3.5	1.52e+00	0	46	104	0	60	154316
2026-01-29 06:17:03.08	101.36	6.59	-56.5	-72.0	3.5	1.52e+00	0	46	104	0	60	151197
2026-01-29 06:17:04.08	101.29	6.66	-55.6	-70.1	3.7	1.51e+00	0	46	104	0	60	121448
2026-01-29 06:17:05.09	101.23	6.73	-57.3	-72.0	3.5	1.51e+00	0	46	104	0	60	151569
2026-01-29 06:17:06.10	101.16	6.80	-58.8	-73.0	3.5	1.52e+00	0	46	104	0	60	169738
2026-01-29 06:17:07.11	101.10	6.87	-59.3	-73.3	3.5	1.52e+00	0	46	104	0	60	176328
2026-01-29 06:17:08.11	101.03	6.94	-58.9	-73.2	3.5	1.52e+00	0	46	104	0	60	173474
2026-01-29 06:17:09.12	100.96	7.01	-59.4	-73.4	3.5	1.52e+00	0	46	104	0	60	178393
2026-01-29 06:17:10.13	100.89	7.08	-59.4	-73.3	3.5	1.52e+00	0	46	104	0	60	175898
2026-01-29 06:17:11.13	100.83	7.15	-59.3	-73.3	3.5	1.52e+00	0	46	104	0	60	175395
2026-01-29 06:17:12.14	100.76	7.22	-59.5	-73.8	3.5	1.51e+00	0	46	104	0	60	185859
2026-01-29 06:17:13.15	100.69	7.29	-59.5	-73.4	3.5	1.52e+00	0	46	104	0	60	178001
2026-01-29 06:17:14.15	100.62	7.36	-59.3	-73.4	3.5	1.51e+00	0	46	104	0	60	178492
2026-01-29 06:17:15.16	100.55	7.44	-59.5	-73.2	3.5	1.52e+00	0	46	104	0	60	174692
2026-01-29 06:17:16.17	100.48	7.51	-58.7	-73.1	3.5	1.52e+00	0	46	104	0	60	172876
2026-01-29 06:17:17.18	100.41	7.58	-59.4	-73.7	3.5	1.51e+00	0	46	104	0	60	183756
2026-01-29 06:17:18.18	100.34	7.65	-59.4	-73.3	3.5	1.52e+00	0	46	104	0	60	176507
2026-01-29 06:17:19.18	100.27	7.72	-59.2	-73.2	3.5	1.52e+00	0	46	104	0	60	174563
2026-01-29 06:17:20.19	100.20	7.80	-59.3	-73.4	3.5	1.52e+00	0	46	104	0	60	178284
2026-01-29 06:17:21.20	100.13	7.87	-59.4	-73.8	3.5	1.52e+00	0	46	104	0	60	185293
2026-01-29 06:17:22.20	100.06	7.94	-58.9	-73.4	3.5	1.52e+00	0	46	104	0	60	177383
2026-01-29 06:17:23.21	99.98	8.02	-58.5	-73.4	3.5	1.52e+00	0	46	104	0	60	177931
2026-01-29 06:17:24.22	99.91	8.09	-59.7	-73.6	3.5	1.52e+00	0	46	104	0	60	181875
2026-01-29 06:17:25.23	99.84	8.16	-59.8	-73.8	3.5	1.52e+00	0	46	104	0	60	186839
2026-01-29 06:17:26.24	99.77	8.24	-59.0	-73.7	3.5	1.52e+00	0	46	104	0	60	183485
2026-01-29 06:17:27.24	99.69	8.31	-59.1	-73.4	3.5	1.52e+00	0	46	104	0	60	178026
2026-01-29 06:17:28.25	99.62	8.38	-59.4	-73.8	3.5	1.52e+00	0	46	104	0	60	185668
2026-01-29 06:17:29.25	99.54	8.46	-59.4	-73.2	3.5	1.51e+00	0	46	104	0	60	173702
2026-01-29 06:17:30.26	99.47	8.53	-59.7	-73.3	3.5	1.52e+00	0	46	104	0	60	175201
2026-01-29 06:17:31.27	99.39	8.61	-59.8	-73.2	3.5	1.52e+00	0	46	104	0	60	173286
2026-01-29 06:17:32.27	99.32	8.68	-59.2	-73.9	3.5	1.52e+00	0	46	104	0	60	189091
2026-01-29 06:17:33.28	99.24	8.75	-59.5	-73.8	3.5	1.52e+00	0	46	104	0	60	186016
2026-01-29 06:17:34.29	99.16	8.83	-59.3	-74.0	3.5	1.52e+00	0	46	104	0	60	191666
2026-01-29 06:17:35.29	99.09	8.90	-59.6	-73.1	3.5	1.52e+00	0	46	104	0	60	171730
2026-01-29 06:17:36.29	99.01	8.98	-59.1	-73.8	3.5	1.52e+00	0	46	104	0	60	186877
2026-01-29 06:17:37.30	98.93	9.05	-59.4	-73.2	3.5	1.52e+00	0	46	104	0	60	173697
2026-01-29 06:17:38.31	98.85	9.13	-59.4	-73.1	3.5	1.52e+00	0	46	104	0	60	172153
2026-01-29 06:17:39.31	98.78	9.21	-59.4	-73.0	3.5	1.52e+00	0	46	104	0	60	170785
2026-01-29 06:17:40.32	98.70	9.28	-58.7	-73.5	3.5	1.51e+00	0	46	104	0	60	180846
2026-01-29 06:17:41.33	98.62	9.36	-58.9	-73.5	3.5	1.51e+00	0	46	104	0	60	179977
2026-01-29 06:17:42.34	98.54	9.43	-59.8	-73.8	3.5	1.51e+00	0	46	104	0	60	185619
2026-01-29 06:17:43.35	98.46	9.51	-59.1	-73.7	3.5	1.51e+00	0	46	104	0	60	184018
2026-01-29 06:17:44.35	98.38	9.59	-59.9	-74.2	3.5	1.52e+00	0	46	104	0	60	194801
2026-01-29 06:17:45.36	98.30	9.66	-59.2	-73.6	3.5	1.51e+00	0	46	104	0	60	182629
2026-01-29 06:17:46.36	98.21	9.74	-59.2	-73.6	3.5	1.52e+00	0	46	104	0	60	182789
2026-01-29 06:17:47.37	98.13	9.82	-59.1	-73.8	3.5	1.52e+00	0	46	104	0	60	185756
2026-01-29 06:17:48.37	98.05	9.89	-59.4	-74.0	3.5	1.52e+00	0	46	104	0	60	190489
2026-01-29 06:17:49.38	97.97	9.97	-59.4	-74.0	3.5	1.52e+00	0	46	104	0	60	190626
2026-01-29 06:17:50.38	97.88	10.05	-59.3	-73.9	3.5	1.52e+00	0	46	104	0	60	187796
2026-01-29 06:17:51.38	97.80	10.13	-59.5	-73.3	3.5	1.51e+00	0	46	104	0	60	176011
2026-01-29 06:17:52.38	97.72	10.20	-59.5	-73.8	3.5	1.51e+00	0	46	104	0	60	187161
2026-01-29 06:17:53.39	97.63	10.28	-59.0	-74.0	3.5	1.51e+00	0	46	104	0	60	191066
2026-01-29 06:17:54.40	97.55	10.36	-59.0	-73.8	3.5	1.52e+00	0	46	104	0	60	185408
2026-01-29 06:17:55.41	97.46	10.44	-59.1	-73.8	3.5	1.52e+00	0	46	104	0	60	186900
2026-01-29 06:17:56.41	97.37	10.52	-60.5	-74.5	3.5	1.52e+00	0	46	104	0	60	201741
2026-01-29 06:17:57.41	97.29	10.60	-58.7	-73.9	3.5	1.51e+00	0	46	104	0	60	188473
2026-01-29 06:17:58.43	97.20	10.68	-60.4	-74.3	3.5	1.52e+00	0	46	104	0	60	196580
2026-01-29 06:17:59.43	97.11	10.76	-59.2	-73.1	3.5	1.52e+00	0	46	104	0	60	172552
2026-01-29 06:18:00.44	97.02	10.84	-59.0	-73.5	3.6	1.51e+00	0	46	104	0	60	179367
2026-01-29 06:18:01.45	96.94	10.92	-59.8	-73.8	3.5	1.52e+00	0	46	104	0	60	186792
2026-01-29 06:18:02.45	96.85	10.99	-59.9	-73.7	3.5	1.52e+00	0	46	104	0	60	184492
2026-01-29 06:18:03.46	96.76	11.08	-60.3	-73.6	3.5	1.52e+00	0	46	104	0	60	182388
2026-01-29 06:18:04.47	96.67	11.16	-60.4	-74.5	3.5	1.52e+00	0	46	104	0	60	202535
2026-01-29 06:18:05.47	96.58	11.24	-60.1	-74.1	3.5	1.52e+00	0	46	104	0	60	192028
2026-01-29 06:18:06.47	96.49	11.32	-60.3	-74.3	3.5	1.51e+00	0	46	104	0	60	197343
2026-01-29 06:18:07.48	96.39	11.40	-59.8	-74.0	3.5	1.51e+00	0	46	104	0	60	190238
2026-01-29 06:18:08.48	96.30	11.48	-59.8	-74.0	3.5	1.52e+00	0	46	104	0	60	189956
2026-01-29 06:18:09.49	96.21	11.56	-60.3	-73.9	3.5	1.52e+00	0	46	104	0	60	189557
2026-01-29 06:18:10.49	96.12	11.64	-60.2	-74.0	3.5	1.52e+00	0	46	104	0	60	190309
2026-01-29 06:18:11.49	96.02	11.72	-59.8	-74.1	3.5	1.51e+00	0	46	104	0	60	192527
2026-01-29 06:18:12.50	95.93	11.80	-59.3	-74.1	3.5	1.52e+00	0	46	104	0	60	192236
2026-01-29 06:18:13.50	95.83	11.88	-60.0	-73.6	3.5	1.51e+00	0	46	104	0	60	181642
2026-01-29 06:18:14.51	95.74	11.97	-60.1	-74.2	3.5	1.51e+00	0	46	104	0	60	194571
2026-01-29 06:18:15.52	95.64	12.05	-59.8	-73.8	3.5	1.52e+00	0	46	104	0	60	185837
2026-01-29 06:18:16.53	95.55	12.13	-60.2	-74.2	3.5	1.52e+00	0	46	104	0	60	195881
2026-01-29 06:18:17.54	95.45	12.22	-59.9	-73.6	3.5	1.52e+00	0	46	104	0	60	182266
2026-01-29 06:18:18.54	95.35	12.30	-59.7	-73.6	3.5	1.51e+00	0	46	104	0	60	183134
2026-01-29 06:18:19.55	95.25	12.38	-59.2	-73.3	3.5	1.52e+00	0	46	104	0	60	175548
2026-01-29 06:18:20.55	95.15	12.46	-59.4	-73.8	3.5	1.52e+00	0	46	104	0	60	186861
2026-01-29 06:18:21.56	95.05	12.55	-60.0	-73.9	3.5	1.52e+00	0	46	104	0	60	188995
2026-01-29 06:18:22.57	94.95	12.63	-59.8	-74.2	3.5	1.52e+00	0	46	104	0	60	195994
2026-01-29 06:18:23.57	94.85	12.72	-60.1	-74.3	3.5	1.52e+00	0	46	104	0	60	197137
2026-01-29 06:18:24.58	94.75	12.80	-59.7	-73.7	3.5	1.52e+00	0	46	104	0	60	185222
2026-01-29 06:18:25.57	94.65	12.88	-59.2	-73.6	3.5	1.51e+00	0	46	104	0	60	181692
2026-01-29 06:18:26.58	94.55	12.97	-59.1	-73.6	3.5	1.52e+00	0	46	104	0	60	181479
2026-01-29 06:18:27.59	94.45	13.05	-59.4	-73.5	3.5	1.52e+00	0	46	104	0	60	179166
2026-01-29 06:18:28.60	94.34	13.14	-59.8	-74.0	3.5	1.52e+00	0	46	104	0	60	190576
2026-01-29 06:18:29.60	94.24	13.22	-60.5	-74.0	3.5	1.52e+00	0	46	104	0	60	191673
2026-01-29 06:18:30.61	94.13	13.31	-60.1	-74.2	3.5	1.51e+00	0	46	104	0	60	194853
2026-01-29 06:18:31.62	94.03	13.39	-60.2	-73.9	3.5	1.51e+00	0	46	104	0	60	188426
2026-01-29 06:18:32.63	93.92	13.48	-60.4	-74.4	3.5	1.51e+00	0	46	104	0	60	199599
2026-01-29 06:18:33.63	93.82	13.57	-60.0	-73.7	3.5	1.52e+00	0	46	104	0	60	184583
2026-01-29 06:18:34.64	93.71	13.65	-60.0	-73.8	3.6	1.52e+00	0	46	104	0	60	185895
2026-01-29 06:18:35.65	93.60	13.74	-58.7	-74.1	3.5	1.51e+00	0	46	104	0	60	192655
2026-01-29 06:18:36.65	93.49	13.82	-58.5	-74.4	3.5	1.52e+00	0	46	104	0	60	199273
2026-01-29 06:18:37.66	93.38	13.91	-60.4	-74.4	3.5	1.51e+00	0	46	104	0	60	199842
2026-01-29 06:18:38.66	93.27	14.00	-59.2	-73.5	3.5	1.52e+00	0	46	104	0	60	179582
2026-01-29 06:18:39.66	93.16	14.08	-59.8	-73.9	3.5	1.51e+00	0	46	104	0	60	188585
2026-01-29 06:18:40.67	93.05	14.17	-58.9	-73.7	3.5	1.52e+00	0	46	104	0	60	185186
2026-01-29 06:18:41.68	92.94	14.26	-59.6	-74.2	3.5	1.52e+00	0	46	104	0	60	194162
2026-01-29 06:18:42.68	92.83	14.35	-59.8	-74.1	3.5	1.52e+00	0	46	104	0	60	192876
2026-01-29 06:18:43.69	92.71	14.44	-59.9	-74.4	3.5	1.52e+00	0	46	104	0	60	200640
2026-01-29 06:18:44.69	92.60	14.52	-59.4	-74.2	3.5	1.52e+00	0	46	104	0	60	196146
2026-01-29 06:18:45.70	92.49	14.61	-59.6	-73.7	3.6	1.52e+00	0	46	104	0	60	184629
2026-01-29 06:18:46.70	92.37	14.70	-59.2	-73.9	3.5	1.51e+00	0	46	104	0	60	189042
2026-01-29 06:18:47.71	92.26	14.79	-59.8	-73.9	3.5	1.51e+00	0	46	104	0	60	189067
2026-01-29 06:18:48.72	92.14	14.88	-60.0	-74.0	3.5	1.52e+00	0	46	104	0	60	189728
2026-01-29 06:18:49.72	92.02	14.97	-59.2	-74.1	3.5	1.52e+00	0	46	104	0	60	193431
2026-01-29 06:18:50.73	91.90	15.06	-59.6	-73.6	3.5	1.52e+00	0	46	104	0	60	182057
2026-01-29 06:18:51.74	91.78	15.15	-59.3	-73.9	3.5	1.51e+00	0	46	104	0	60	188974
2026-01-29 06:18:52.74	91.66	15.24	-59.6	-74.1	3.5	1.51e+00	0	46	104	0	60	192468
2026-01-29 06:18:53.75	91.54	15.33	-59.3	-73.4	3.5	1.51e+00	0	46	104	0	60	178602
2026-01-29 06:18:54.75	91.42	15.42	-59.5	-73.9	3.5	1.52e+00	0	46	104	0	60	188482
2026-01-29 06:18:55.76	91.30	15.51	-60.1	-74.1	3.5	1.52e+00	0	46	104	0	60	193543
2026-01-29 06:18:56.76	91.18	15.60	-59.4	-74.0	3.5	1.52e+00	0	46	104	0	60	189896
2026-01-29 06:18:57.77	91.06	15.69	-59.5	-73.7	3.5	1.52e+00	0	46	104	0	60	183804
2026-01-29 06:18:58.77	90.93	15.78	-60.4	-74.6	3.5	1.52e+00	0	46	104	0	60	203865
2026-01-29 06:18:59.78	90.81	15.87	-60.0	-73.7	3.5	1.52e+00	0	46	104	0	60	184019
2026-01-29 06:19:00.78	90.68	15.96	-59.6	-73.8	3.5	1.52e+00	0	46	104	0	60	185498
2026-01-29 06:19:01.79	90.55	16.05	-59.7	-73.7	3.5	1.51e+00	0	46	104	0	60	184642
2026-01-29 06:19:02.80	90.43	16.15	-59.9	-73.9	3.5	1.51e+00	0	46	104	0	60	189053
2026-01-29 06:19:03.80	90.30	16.24	-60.3	-73.9	3.5	1.51e+00	0	46	104	0	60	189013
2026-01-29 06:19:04.81	90.17	16.33	-60.4	-74.2	3.5	1.52e+00	0	46	104	0	60	194158
2026-01-29 06:19:05.82	90.04	16.42	-60.2	-73.9	3.5	1.52e+00	0	46	104	0	60	188240
2026-01-29 06:19:06.82	89.91	16.51	-60.9	-74.5	3.5	1.51e+00	0	46	104	0	60	202088
2026-01-29 06:19:07.83	89.78	16.61	-60.1	-74.6	3.5	1.52e+00	0	46	104	0	60	205096
2026-01-29 06:19:08.84	89.65	16.70	-60.1	-74.5	3.5	1.52e+00	0	46	104	0	60	201600
2026-01-29 06:19:09.84	89.51	16.79	-60.5	-74.2	3.5	1.51e+00	0	46	104	0	60	195206
2026-01-29 06:19:10.84	89.38	16.89	-60.7	-74.1	3.5	1.52e+00	0	46	104	0	60	192938
2026-01-29 06:19:11.85	89.25	16.98	-60.2	-74.6	3.5	1.52e+00	0	46	104	0	60	205073
2026-01-29 06:19:12.85	89.11	17.07	-60.9	-74.3	3.5	1.52e+00	0	46	104	0	60	198273
2026-01-29 06:19:13.86	88.97	17.17	-60.2	-74.3	3.5	1.51e+00	0	46	104	0	60	197334
2026-01-29 06:19:14.86	88.84	17.26	-59.1	-73.9	3.5	1.52e+00	0	46	104	0	60	188975
2026-01-29 06:19:15.87	88.70	17.36	-60.5	-74.4	3.5	1.52e+00	0	46	104	0	60	199795
2026-01-29 06:19:16.87	88.56	17.45	-60.4	-74.5	3.5	1.52e+00	0	46	104	0	60	201003
2026-01-29 06:19:17.87	88.42	17.54	-59.7	-73.7	3.5	1.52e+00	0	46	104	0	60	184017
2026-01-29 06:19:18.88	88.28	17.64	-59.5	-73.6	3.5	1.52e+00	0	46	104	0	60	182666
2026-01-29 06:19:19.89	88.14	17.73	-60.3	-74.6	3.5	1.52e+00	0	46	104	0	60	204636
2026-01-29 06:19:20.89	88.00	17.83	-60.1	-74.4	3.5	1.52e+00	0	46	104	0	60	200211
2026-01-29 06:19:21.89	87.85	17.92	-59.7	-73.9	3.5	1.52e+00	0	46	104	0	60	189146
2026-01-29 06:19:22.90	87.71	18.02	-60.1	-74.5	3.5	1.52e+00	0	46	104	0	60	201568
2026-01-29 06:19:23.91	87.56	18.12	-60.3	-74.8	3.5	1.52e+00	0	46	104	0	60	209955
2026-01-29 06:19:24.92	87.42	18.21	-59.8	-74.3	3.5	1.52e+00	0	46	104	0	60	196435
2026-01-29 06:19:25.92	87.27	18.31	-60.6	-74.0	3.5	1.51e+00	0	46	104	0	60	190099
2026-01-29 06:19:26.93	87.12	18.40	-60.8	-73.2	3.5	1.51e+00	0	46	104	0	60	172994
2026-01-29 06:19:27.93	86.97	18.50	-55.6	-58.1	15.6	7.01e-05	0	46	104	0	60	30636
2026-01-29 06:19:28.94	86.82	18.60	-59.9	-74.3	3.5	1.49e+00	0	46	104	0	60	196323
2026-01-29 06:19:29.94	86.67	18.69	-60.6	-74.5	3.5	1.52e+00	0	46	104	0	60	201388
2026-01-29 06:19:30.95	86.52	18.79	-60.3	-74.5	3.5	1.52e+00	0	46	104	0	60	201876
2026-01-29 06:19:31.95	86.37	18.89	-59.9	-74.6	3.5	1.52e+00	0	46	104	0	60	204561
2026-01-29 06:19:32.96	86.21	18.99	-59.8	-74.5	3.5	1.51e+00	0	46	104	0	60	201514
2026-01-29 06:19:33.97	86.06	19.08	-59.5	-74.0	3.5	1.52e+00	0	46	104	0	60	191688
2026-01-29 06:19:34.97	85.90	19.18	-59.6	-73.9	3.5	1.52e+00	0	46	104	0	60	188994
2026-01-29 06:19:35.98	85.74	19.28	-60.5	-74.6	3.5	1.52e+00	0	46	104	0	60	205297
2026-01-29 06:19:36.98	85.59	19.38	-60.4	-74.0	3.5	1.52e+00	0	46	104	0	60	190806
2026-01-29 06:19:37.99	85.43	19.47	-59.9	-73.9	3.5	1.52e+00	0	46	104	0	60	189163
2026-01-29 06:19:38.99	85.27	19.57	-60.5	-74.6	3.5	1.52e+00	0	46	104	0	60	203832
2026-01-29 06:19:40.00	85.11	19.67	-60.3	-74.3	3.5	1.52e+00	0	46	104	0	60	198057
2026-01-29 06:19:41.01	84.94	19.77	-60.4	-74.6	3.5	1.52e+00	0	46	104	0	60	203540
2026-01-29 06:19:42.02	84.78	19.87	-60.4	-74.4	3.5	1.52e+00	0	46	104	0	60	200728
2026-01-29 06:19:43.02	84.62	19.97	-60.4	-74.3	3.5	1.52e+00	0	46	104	0	60	196951
2026-01-29 06:19:44.03	84.45	20.07	-60.3	-74.2	3.5	1.51e+00	0	46	104	0	60	194449
2026-01-29 06:19:45.04	84.28	20.17	-60.4	-74.0	3.5	1.52e+00	0	46	104	0	60	190291
2026-01-29 06:19:46.05	84.11	20.27	-59.8	-74.3	3.5	1.52e+00	0	46	104	0	60	197804
2026-01-29 06:19:47.05	83.95	20.36	-59.9	-74.4	3.5	1.52e+00	0	46	104	0	60	198768
2026-01-29 06:19:48.06	83.78	20.46	-59.9	-73.2	3.5	1.51e+00	0	46	104	0	60	173732
2026-01-29 06:19:49.07	83.60	20.56	-60.2	-73.8	3.5	1.51e+00	0	46	104	0	60	185424
2026-01-29 06:19:50.08	83.43	20.66	-59.8	-73.6	3.5	1.52e+00	0	46	104	0	60	181968
2026-01-29 06:19:51.08	83.26	20.76	-59.7	-73.6	3.5	1.51e+00	0	46	104	0	60	181418
2026-01-29 06:19:52.09	83.08	20.86	-59.6	-73.5	3.5	1.51e+00	0	46	104	0	60	180110
2026-01-29 06:19:53.09	82.91	20.96	-59.4	-74.2	3.5	1.52e+00	0	46	104	0	60	195194
2026-01-29 06:19:54.10	82.73	21.06	-60.0	-74.2	3.5	1.52e+00	0	46	104	0	60	195697
2026-01-29 06:19:55.11	82.55	21.17	-59.5	-73.2	3.5	1.51e+00	0	46	104	0	60	174549
2026-01-29 06:19:56.12	82.37	21.27	-60.0	-74.2	3.5	1.52e+00	0	46	104	0	60	195484
2026-01-29 06:19:57.12	82.19	21.37	-60.1	-74.2	3.5	1.52e+00	0	46	104	0	60	195371
2026-01-29 06:19:58.13	82.01	21.47	-59.8	-73.7	3.5	1.51e+00	0	46	104	0	60	184925
2026-01-29 06:19:59.14	81.83	21.57	-59.2	-73.3	3.5	1.52e+00	0	46	104	0	60	175103
2026-01-29 06:20:00.14	81.65	21.67	-60.2	-73.9	3.5	1.51e+00	0	46	104	0	60	188500
2026-01-29 06:20:01.15	81.46	21.77	-59.2	-73.8	3.5	1.51e+00	0	46	104	0	60	186822
2026-01-29 06:20:02.15	81.27	21.87	-59.8	-73.6	3.5	1.52e+00	0	46	104	0	60	181776
2026-01-29 06:20:03.16	81.09	21.97	-60.6	-74.9	3.5	1.51e+00	0	46	104	0	60	210572
2026-01-29 06:20:04.16	80.90	22.07	-60.1	-74.3	3.6	1.52e+00	0	46	104	0	60	198382
2026-01-29 06:20:05.16	80.71	22.17	-60.1	-74.6	3.5	1.52e+00	0	46	104	0	60	204292
2026-01-29 06:20:06.16	80.52	22.27	-60.7	-74.7	3.5	1.52e+00	0	46	104	0	60	206028
2026-01-29 06:20:07.17	80.33	22.37	-60.8	-74.6	3.5	1.52e+00	0	46	104	0	60	205224
2026-01-29 06:20:08.17	80.13	22.48	-59.5	-74.0	3.5	1.52e+00	0	46	104	0	60	190912
2026-01-29 06:20:09.18	79.94	22.58	-60.5	-74.6	3.5	1.52e+00	0	46	104	0	60	204214
2026-01-29 06:20:10.19	79.74	22.68	-59.2	-74.3	3.5	1.52e+00	0	46	104	0	60	198299
2026-01-29 06:20:11.19	79.54	22.78	-60.7	-74.0	3.5	1.52e+00	0	46	104	0	60	191073
2026-01-29 06:20:12.20	79.34	22.88	-59.4	-73.3	3.5	1.51e+00	0	46	104	0	60	176162
2026-01-29 06:20:13.21	79.14	22.98	-59.6	-74.0	3.5	1.51e+00	0	46	104	0	60	189807
2026-01-29 06:20:14.22	78.94	23.09	-59.4	-73.6	3.5	1.51e+00	0	46	104	0	60	182199
2026-01-29 06:20:15.23	78.74	23.19	-59.3	-73.8	3.5	1.52e+00	0	46	104	0	60	185703
2026-01-29 06:20:16.23	78.53	23.29	-60.8	-74.5	3.5	1.51e+00	0	46	104	0	60	201231
2026-01-29 06:20:17.24	78.33	23.39	-60.9	-74.7	3.5	1.52e+00	0	46	104	0	60	205502
2026-01-29 06:20:18.25	78.12	23.49	-60.5	-74.6	3.5	1.51e+00	0	46	104	0	60	205468
2026-01-29 06:20:19.25	77.91	23.59	-60.1	-74.6	3.5	1.52e+00	0	46	104	0	60	203658
2026-01-29 06:20:20.26	77.70	23.69	-61.0	-74.8	3.5	1.52e+00	0	46	104	0	60	209027
2026-01-29 06:20:21.27	77.49	23.80	-60.3	-73.9	3.5	1.51e+00	0	46	104	0	60	188920
2026-01-29 06:20:22.27	77.28	23.90	-60.5	-74.6	3.5	1.52e+00	0	46	104	0	60	203343
2026-01-29 06:20:23.28	77.06	24.00	-60.6	-75.2	3.5	1.52e+00	0	46	104	0	60	218195
2026-01-29 06:20:24.28	76.85	24.10	-60.8	-74.7	3.5	1.52e+00	0	46	104	0	60	206888
2026-01-29 06:20:25.28	76.63	24.20	-60.0	-74.5	3.5	1.52e+00	0	46	104	0	60	201135
2026-01-29 06:20:26.28	76.42	24.30	-60.2	-74.6	3.5	1.52e+00	0	46	104	0	60	203900
2026-01-29 06:20:27.29	76.20	24.40	-60.4	-74.5	3.5	1.52e+00	0	46	104	0	60	200855
2026-01-29 06:20:28.29	75.98	24.50	-60.8	-74.8	3.5	1.52e+00	0	46	104	0	60	208359
2026-01-29 06:20:29.30	75.75	24.60	-59.9	-74.5	3.5	1.51e+00	0	46	104	0	60	201468
2026-01-29 06:20:30.31	75.53	24.71	-61.0	-74.8	3.5	1.52e+00	0	46	104	0	60	208725
2026-01-29 06:20:31.32	75.30	24.81	-59.9	-74.0	3.5	1.51e+00	0	46	104	0	60	190993
2026-01-29 06:20:32.33	75.08	24.91	-60.4	-74.7	3.5	1.51e+00	0	46	104	0	60	207839
2026-01-29 06:20:33.33	74.85	25.01	-58.9	-73.7	3.5	1.51e+00	0	46	104	0	60	183999
2026-01-29 06:20:34.34	74.62	25.11	-59.1	-73.9	3.5	1.51e+00	0	46	104	0	60	188829
2026-01-29 06:20:35.35	74.39	25.21	-59.9	-73.7	3.5	1.52e+00	0	46	104	0	60	184692
2026-01-29 06:20:36.36	74.15	25.31	-60.3	-73.9	3.5	1.51e+00	0	46	104	0	60	187609
2026-01-29 06:20:37.36	73.92	25.41	-59.4	-74.8	3.5	1.52e+00	0	46	104	0	60	209265
2026-01-29 06:20:38.37	73.68	25.51	-60.7	-74.3	3.5	1.52e+00	0	46	104	0	60	197627
2026-01-29 06:20:39.37	73.45	25.61	-61.0	-74.3	3.5	1.52e+00	0	46	104	0	60	197134
2026-01-29 06:20:40.38	73.21	25.71	-60.5	-74.9	3.5	1.52e+00	0	46	104	0	60	210289
2026-01-29 06:20:41.39	72.97	25.81	-60.5	-74.9	3.5	1.52e+00	0	46	104	0	60	212457
2026-01-29 06:20:42.39	72.73	25.91	-60.6	-74.8	3.5	1.52e+00	0	46	104	0	60	208636
2026-01-29 06:20:43.40	72.48	26.01	-60.6	-74.8	3.5	1.52e+00	0	46	104	0	60	209306
2026-01-29 06:20:44.41	72.24	26.11	-60.7	-75.2	3.5	1.52e+00	0	46	104	0	60	218981
2026-01-29 06:20:45.42	71.99	26.20	-60.7	-74.4	3.5	1.51e+00	0	46	104	0	60	200751
2026-01-29 06:20:46.43	71.74	26.30	-60.3	-75.0	3.5	1.52e+00	0	46	104	0	60	215028
2026-01-29 06:20:47.43	71.49	26.40	-61.2	-75.2	3.5	1.52e+00	0	46	104	0	60	218155
2026-01-29 06:20:48.44	71.24	26.50	-60.1	-74.4	3.5	1.52e+00	0	46	104	0	60	199397
2026-01-29 06:20:49.45	70.99	26.60	-60.2	-74.7	3.5	1.52e+00	0	46	104	0	60	205901
2026-01-29 06:20:50.46	70.73	26.69	-61.3	-74.6	3.5	1.52e+00	0	46	104	0	60	204813
2026-01-29 06:20:51.46	70.48	26.79	-61.1	-74.3	3.5	1.52e+00	0	46	104	0	60	198478
2026-01-29 06:20:52.46	70.22	26.89	-61.0	-74.5	3.5	1.51e+00	0	46	104	0	60	201422
2026-01-29 06:20:53.46	69.97	26.98	-60.9	-74.8	3.5	1.52e+00	0	46	104	0	60	209067
2026-01-29 06:20:54.47	69.71	27.08	-61.0	-74.9	3.5	1.52e+00	0	46	104	0	60	212159
2026-01-29 06:20:55.48	69.44	27.18	-61.0	-74.2	3.5	1.52e+00	0	46	104	0	60	195295
2026-01-29 06:20:56.48	69.18	27.27	-61.0	-74.8	3.5	1.52e+00	0	46	104	0	60	208158
2026-01-29 06:20:57.48	68.92	27.36	-61.1	-74.1	3.5	1.52e+00	0	46	104	0	60	193961
2026-01-29 06:20:58.49	68.65	27.46	-61.5	-74.4	3.5	1.51e+00	0	46	104	0	60	200039
2026-01-29 06:20:59.49	68.38	27.55	-61.4	-74.3	3.5	1.51e+00	0	46	104	0	60	198078
2026-01-29 06:21:00.50	68.11	27.65	-61.2	-74.1	3.5	1.52e+00	0	46	104	0	60	192595
2026-01-29 06:21:01.51	67.84	27.74	-61.3	-74.9	3.5	1.51e+00	0	46	104	0	60	210691
2026-01-29 06:21:02.52	67.57	27.84	-61.1	-75.1	3.5	1.52e+00	0	46	104	0	60	215279
2026-01-29 06:21:03.52	67.29	27.93	-61.5	-74.3	3.5	1.51e+00	0	46	104	0	60	196380
2026-01-29 06:21:04.53	67.02	28.02	-61.2	-74.8	3.5	1.52e+00	0	46	104	0	60	210158
2026-01-29 06:21:05.53	66.74	28.11	-61.5	-74.4	3.5	1.51e+00	0	46	104	0	60	198994
2026-01-29 06:21:06.54	66.46	28.20	-61.3	-74.3	3.5	1.51e+00	0	46	104	0	60	198082
2026-01-29 06:21:07.55	66.18	28.29	-61.2	-74.5	3.5	1.51e+00	0	46	104	0	60	202916
2026-01-29 06:21:08.55	65.90	28.38	-61.5	-74.5	3.5	1.51e+00	0	46	104	0	60	200906
2026-01-29 06:21:09.56	65.61	28.48	-61.7	-74.7	3.5	1.52e+00	0	46	104	0	60	207690
2026-01-29 06:21:10.57	65.32	28.57	-61.7	-74.6	3.5	1.51e+00	0	46	104	0	60	204952
2026-01-29 06:21:11.57	65.04	28.65	-61.0	-75.0	3.5	1.52e+00	0	46	104	0	60	215113
2026-01-29 06:21:12.58	64.75	28.74	-61.7	-75.6	3.5	1.52e+00	0	46	104	0	60	230138
2026-01-29 06:21:13.58	64.46	28.83	-61.1	-75.2	3.5	1.52e+00	0	46	104	0	60	218592
2026-01-29 06:21:14.59	64.16	28.92	-60.8	-75.1	3.5	1.51e+00	0	46	104	0	60	217138
2026-01-29 06:21:15.60	63.87	29.00	-61.5	-74.8	3.5	1.51e+00	0	46	104	0	60	209122
2026-01-29 06:21:16.60	63.58	29.09	-61.4	-75.1	3.5	1.52e+00	0	46	104	0	60	216055
2026-01-29 06:21:17.61	63.28	29.18	-61.5	-75.0	3.5	1.52e+00	0	46	104	0	60	213389
2026-01-29 06:21:18.62	62.98	29.26	-61.7	-75.5	3.5	1.52e+00	0	46	104	0	60	225874
2026-01-29 06:21:19.63	62.68	29.35	-61.5	-74.8	3.5	1.51e+00	0	46	104	0	60	209764
2026-01-29 06:21:20.64	62.37	29.43	-61.5	-75.0	3.5	1.52e+00	0	46	104	0	60	213347
2026-01-29 06:21:21.64	62.07	29.51	-61.4	-75.0	3.5	1.52e+00	0	46	104	0	60	214177
2026-01-29 06:21:22.65	61.77	29.60	-61.4	-74.8	3.5	1.51e+00	0	46	104	0	60	208188
2026-01-29 06:21:23.66	61.46	29.68	-61.3	-74.3	3.6	1.51e+00	0	46	104	0	60	196807
2026-01-29 06:21:24.66	61.15	29.76	-61.5	-74.5	3.5	1.51e+00	0	46	104	0	60	201811
2026-01-29 06:21:25.67	60.84	29.84	-61.7	-75.0	3.5	1.52e+00	0	46	104	0	60	214355
2026-01-29 06:21:26.67	60.53	29.92	-61.8	-75.6	3.5	1.52e+00	0	46	104	0	60	229548
2026-01-29 06:21:27.68	60.22	30.00	-61.8	-75.3	3.5	1.51e+00	0	46	104	0	60	221568
2026-01-29 06:21:28.68	59.91	30.07	-61.8	-75.5	3.5	1.51e+00	0	46	104	0	60	227171
2026-01-29 06:21:29.69	59.59	30.15	-61.6	-75.2	3.5	1.52e+00	0	46	104	0	60	218641
2026-01-29 06:21:30.70	59.27	30.23	-61.7	-75.1	3.5	1.52e+00	0	46	104	0	60	216250
2026-01-29 06:21:31.71	58.95	30.30	-61.6	-75.0	3.5	1.51e+00	0	46	104	0	60	213824
2026-01-29 06:21:32.72	58.63	30.38	-61.6	-75.1	3.5	1.51e+00	0	46	104	0	60	216567
2026-01-29 06:21:33.72	58.31	30.45	-61.4	-74.7	3.5	1.52e+00	0	46	104	0	60	207757
2026-01-29 06:21:34.73	57.98	30.53	-61.2	-74.6	3.5	1.51e+00	0	46	104	0	60	204205
2026-01-29 06:21:35.74	57.66	30.60	-61.2	-74.7	3.5	1.51e+00	0	46	104	0	60	205799
2026-01-29 06:21:36.75	57.33	30.67	-61.3	-74.5	3.5	1.52e+00	0	46	104	0	60	202087
2026-01-29 06:21:37.75	57.00	30.74	-60.8	-74.3	3.5	1.51e+00	0	46	104	0	60	196859
2026-01-29 06:21:38.76	56.67	30.81	-60.6	-73.9	3.5	1.51e+00	0	46	104	0	60	188390
2026-01-29 06:21:39.76	56.35	30.88	-61.2	-72.9	3.6	1.51e+00	0	46	104	0	60	167985
2026-01-29 06:21:40.77	56.01	30.95	-61.4	-74.8	3.5	1.50e+00	0	46	104	0	60	209384
2026-01-29 06:21:41.78	55.68	31.02	-61.4	-75.1	3.5	1.51e+00	0	46	104	0	60	216936
2026-01-29 06:21:42.79	55.34	31.08	-61.4	-74.7	3.5	1.52e+00	0	46	104	0	60	206425
2026-01-29 06:21:43.80	55.00	31.15	-60.5	-74.7	3.6	1.51e+00	0	46	104	0	60	207275
2026-01-29 06:21:44.80	54.67	31.21	-58.2	-74.5	3.6	1.51e+00	0	46	104	0	60	201669
2026-01-29 06:21:45.80	54.33	31.27	-58.0	-73.8	3.6	1.51e+00	0	46	104	0	60	185539
2026-01-29 06:21:46.81	53.99	31.34	-57.7	-73.8	3.6	1.51e+00	0	46	104	0	60	187279
2026-01-29 06:21:47.82	53.65	31.40	-57.8	-73.6	3.6	1.51e+00	0	46	104	0	60	182632
2026-01-29 06:21:48.83	53.30	31.46	-61.0	-74.2	3.5	1.51e+00	0	46	104	0	60	195523
2026-01-29 06:21:49.84	52.96	31.52	-57.9	-74.3	3.6	1.51e+00	0	46	104	0	60	197007
2026-01-29 06:21:50.85	52.61	31.58	-58.2	-74.0	3.6	1.51e+00	0	46	104	0	60	190393
2026-01-29 06:21:51.85	52.27	31.63	-59.2	-74.7	3.6	1.51e+00	0	46	104	0	60	207570
2026-01-29 06:21:52.86	51.92	31.69	-58.4	-74.4	3.6	1.52e+00	0	46	104	0	60	199583
2026-01-29 06:21:53.87	51.57	31.74	-58.2	-73.6	3.6	1.51e+00	0	46	104	0	60	181370
2026-01-29 06:21:54.88	51.22	31.80	-57.8	-74.0	3.6	1.51e+00	0	46	104	0	60	191588
2026-01-29 06:21:55.89	50.87	31.85	-56.5	-73.0	3.8	1.51e+00	0	46	104	0	60	169480
2026-01-29 06:21:56.89	50.52	31.90	-57.6	-74.2	3.6	1.51e+00	0	46	104	0	60	195583
2026-01-29 06:21:57.90	50.16	31.95	-56.5	-72.6	3.7	1.51e+00	0	46	104	0	60	162269
2026-01-29 06:21:58.91	49.80	32.00	-57.1	-74.0	3.5	1.51e+00	0	46	104	0	60	191565
2026-01-29 06:21:59.92	49.45	32.05	-61.3	-75.4	3.5	1.51e+00	0	46	104	0	60	224993
2026-01-29 06:22:00.92	49.09	32.10	-60.9	-74.8	3.5	1.52e+00	0	46	104	0	60	209059
2026-01-29 06:22:01.92	48.74	32.14	-58.9	-74.1	3.6	1.51e+00	0	46	104	0	60	192105
2026-01-29 06:22:02.93	48.38	32.19	-60.1	-74.4	3.5	1.52e+00	0	46	104	0	60	200525
2026-01-29 06:22:03.93	48.02	32.23	-60.0	-72.8	3.6	1.51e+00	0	46	104	0	60	165310
2026-01-29 06:22:04.93	47.66	32.27	-61.7	-75.6	3.5	1.52e+00	0	46	104	0	60	227944
2026-01-29 06:22:05.94	47.30	32.31	-57.2	-73.6	3.6	1.51e+00	0	46	104	0	60	182090
2026-01-29 06:22:06.95	46.94	32.35	-56.8	-72.9	3.7	1.51e+00	0	46	104	0	60	168955
2026-01-29 06:22:07.96	46.57	32.39	-57.8	-73.6	3.6	1.51e+00	0	46	104	0	60	181107
2026-01-29 06:22:08.96	46.21	32.42	-56.9	-73.5	3.7	1.51e+00	0	46	104	0	60	179251
2026-01-29 06:22:09.97	45.84	32.46	-56.7	-73.3	3.6	1.51e+00	0	46	104	0	60	176135
2026-01-29 06:22:10.98	45.48	32.50	-57.8	-73.4	3.6	1.51e+00	0	46	104	0	60	178619
2026-01-29 06:22:11.98	45.11	32.53	-59.3	-74.7	3.6	1.52e+00	0	46	104	0	60	206751
2026-01-29 06:22:12.99	44.74	32.56	-59.0	-75.1	3.5	1.52e+00	0	46	104	0	60	216774
2026-01-29 06:22:13.99	44.38	32.59	-60.9	-74.8	3.5	1.52e+00	0	46	104	0	60	208133
2026-01-29 06:22:15.00	44.01	32.62	-58.2	-74.4	3.6	1.51e+00	0	46	104	0	60	198710
2026-01-29 06:22:16.01	43.64	32.65	-61.3	-75.4	3.5	1.51e+00	0	46	104	0	60	224395
2026-01-29 06:22:17.01	43.27	32.67	-61.2	-74.6	3.5	1.52e+00	0	46	104	0	60	204697
2026-01-29 06:22:18.01	42.90	32.70	-59.5	-74.2	3.5	1.51e+00	0	46	104	0	60	194941
2026-01-29 06:22:19.02	42.53	32.72	-60.2	-74.4	3.5	1.51e+00	0	46	104	0	60	198517
2026-01-29 06:22:20.02	42.16	32.75	-58.2	-73.9	3.5	1.51e+00	0	46	104	0	60	187412
2026-01-29 06:22:21.03	41.79	32.77	-61.3	-75.7	3.5	1.51e+00	0	46	104	0	60	231487
2026-01-29 06:22:22.04	41.41	32.79	-61.3	-75.0	3.5	1.51e+00	0	46	104	0	60	214517
2026-01-29 06:22:23.05	41.04	32.80	-57.7	-74.2	3.6	1.51e+00	0	46	104	0	60	195549
2026-01-29 06:22:24.05	40.67	32.82	-61.7	-75.7	3.5	1.52e+00	0	46	104	0	60	231292
2026-01-29 06:22:25.06	40.29	32.84	-61.4	-74.8	3.5	1.52e+00	0	46	104	0	60	210164
2026-01-29 06:22:26.07	39.92	32.85	-61.4	-74.6	3.5	1.51e+00	0	46	104	0	60	204102
2026-01-29 06:22:27.08	39.54	32.86	-61.2	-74.4	3.5	1.51e+00	0	46	104	0	60	200538
2026-01-29 06:22:28.08	39.17	32.88	-60.7	-72.6	3.8	1.51e+00	0	46	104	0	60	161589
2026-01-29 06:22:29.09	38.79	32.89	-61.0	-75.2	3.5	1.52e+00	0	46	104	0	60	219913
2026-01-29 06:22:30.10	38.42	32.89	-60.7	-74.3	3.5	1.51e+00	0	46	104	0	60	196693
2026-01-29 06:22:31.10	38.04	32.90	-56.1	-73.0	3.7	1.51e+00	0	46	104	0	60	169471
2026-01-29 06:22:32.10	37.67	32.91	-61.7	-75.5	3.5	1.52e+00	0	46	104	0	60	226083
2026-01-29 06:22:33.11	37.29	32.91	-60.7	-74.5	3.6	1.51e+00	0	46	104	0	60	202299
2026-01-29 06:22:34.11	36.92	32.92	-59.1	-74.0	3.6	1.51e+00	0	46	104	0	60	190038
2026-01-29 06:22:35.12	36.54	32.92	-59.6	-74.2	3.5	1.52e+00	0	46	104	0	60	195349
2026-01-29 06:22:36.12	36.17	32.92	-60.1	-73.3	3.5	1.51e+00	0	46	104	0	60	175882
2026-01-29 06:22:37.13	35.79	32.92	-60.7	-75.0	3.5	1.52e+00	0	46	104	0	60	215011
2026-01-29 06:22:38.14	35.42	32.91	-55.5	-72.6	3.8	1.51e+00	0	46	104	0	60	161514
2026-01-29 06:22:39.14	35.04	32.91	-55.8	-72.1	3.8	1.51e+00	0	46	104	0	60	152937
2026-01-29 06:22:40.15	34.67	32.91	-55.1	-72.6	3.8	1.51e+00	0	46	104	0	60	161619
2026-01-29 06:22:41.16	34.29	32.90	-54.8	-71.7	3.9	1.51e+00	0	46	104	0	60	146701
2026-01-29 06:22:42.17	33.91	32.89	-55.8	-72.0	3.9	1.51e+00	0	46	104	0	60	151344
2026-01-29 06:22:43.17	33.54	32.88	-56.0	-72.8	3.8	1.51e+00	0	46	104	0	60	165636
2026-01-29 06:22:44.18	33.17	32.87	-55.9	-72.8	3.7	1.51e+00	0	46	104	0	60	165304
2026-01-29 06:22:45.19	32.79	32.86	-61.5	-75.5	3.5	1.51e+00	0	47	104	0	60	225492
2026-01-29 06:22:46.19	32.42	32.84	-58.3	-73.5	3.6	1.51e+00	0	46	104	0	60	180422
2026-01-29 06:22:47.21	32.04	32.83	-57.6	-73.2	3.7	1.51e+00	0	46	104	0	60	173105
2026-01-29 06:22:48.21	31.67	32.81	-56.1	-72.3	3.8	1.51e+00	0	46	104	0	60	156596
2026-01-29 06:22:49.22	31.29	32.80	-56.1	-72.7	3.8	1.51e+00	0	46	104	0	60	163390
2026-01-29 06:22:50.23	30.92	32.78	-56.1	-72.3	3.8	1.51e+00	0	46	104	0	60	156424
2026-01-29 06:22:51.23	30.55	32.76	-56.2	-72.2	3.8	1.51e+00	0	46	104	0	60	155819
2026-01-29 06:22:52.24	30.18	32.73	-58.6	-74.4	3.6	1.51e+00	0	46	104	0	60	199271
2026-01-29 06:22:53.24	29.81	32.71	-58.6	-73.9	3.6	1.51e+00	0	46	104	0	60	189306
2026-01-29 06:22:54.25	29.44	32.69	-61.6	-75.6	3.5	1.52e+00	0	46	104	0	60	228734
2026-01-29 06:22:55.26	29.07	32.66	-60.3	-74.5	3.5	1.51e+00	0	46	104	0	60	202352
2026-01-29 06:22:56.27	28.70	32.63	-57.4	-73.4	3.6	1.51e+00	0	46	104	0	60	177291
2026-01-29 06:22:57.28	28.33	32.61	-58.7	-74.1	3.5	1.51e+00	0	46	104	0	60	192884
2026-01-29 06:22:58.29	27.96	32.58	-59.2	-74.1	3.5	1.51e+00	0	46	104	0	60	193296
2026-01-29 06:22:59.29	27.59	32.54	-59.9	-74.5	3.5	1.51e+00	0	46	104	0	60	202731
2026-01-29 06:23:00.30	27.22	32.51	-60.7	-75.1	3.5	1.52e+00	0	46	104	0	60	217619
2026-01-29 06:23:01.31	26.86	32.48	-60.4	-74.2	3.5	1.51e+00	0	47	104	0	60	195003
2026-01-29 06:23:02.31	26.49	32.44	-59.8	-74.9	3.5	1.52e+00	0	46	104	0	60	211490
2026-01-29 06:23:03.32	26.13	32.41	-61.0	-75.3	3.5	1.52e+00	0	46	104	0	60	221155
2026-01-29 06:23:04.33	25.76	32.37	-58.6	-74.6	3.5	1.52e+00	0	46	104	0	60	204876
2026-01-29 06:23:05.33	25.40	32.33	-60.2	-74.8	3.5	1.51e+00	0	46	104	0	60	209568
2026-01-29 06:23:06.33	25.04	32.29	-60.2	-74.5	3.5	1.52e+00	0	46	104	0	60	201377
2026-01-29 06:23:07.34	24.68	32.25	-59.2	-74.2	3.5	1.51e+00	0	46	104	0	60	195657
2026-01-29 06:23:08.35	24.32	32.21	-57.5	-74.2	3.6	1.52e+00	0	46	104	0	60	195526
2026-01-29 06:23:09.36	23.96	32.16	-60.5	-75.1	3.5	1.51e+00	0	46	104	0	60	216830
2026-01-29 06:23:10.36	23.60	32.12	-60.7	-74.9	3.5	1.52e+00	0	46	104	0	60	211348
2026-01-29 06:23:11.37	23.25	32.07	-60.0	-75.0	3.5	1.52e+00	0	46	104	0	60	214722
2026-01-29 06:23:12.38	22.89	32.02	-57.0	-73.4	3.6	1.51e+00	0	46	104	0	60	177740
2026-01-29 06:23:13.39	22.53	31.98	-58.4	-73.7	3.5	1.51e+00	0	46	104	0	60	183387
2026-01-29 06:23:14.40	22.18	31.93	-59.6	-73.9	3.6	1.51e+00	0	46	104	0	60	189271
2026-01-29 06:23:15.41	21.82	31.88	-60.4	-74.4	3.5	1.52e+00	0	46	104	0	60	199395
2026-01-29 06:23:16.41	21.47	31.82	-59.8	-75.2	3.5	1.51e+00	0	46	104	0	60	219610
2026-01-29 06:23:17.42	21.12	31.77	-60.3	-74.6	3.5	1.51e+00	0	46	104	0	60	204408
2026-01-29 06:23:18.42	20.78	31.72	-59.3	-74.0	3.5	1.51e+00	0	46	104	0	60	190423
2026-01-29 06:23:19.43	20.43	31.66	-60.6	-75.1	3.5	1.52e+00	0	46	104	0	60	216681
2026-01-29 06:23:20.44	20.08	31.60	-58.6	-73.8	3.5	1.51e+00	0	46	104	0	60	187081
2026-01-29 06:23:21.45	19.73	31.55	-60.4	-74.4	3.5	1.51e+00	0	47	104	0	60	199248
2026-01-29 06:23:22.46	19.39	31.49	-60.6	-74.5	3.5	1.52e+00	0	46	104	0	60	202673
2026-01-29 06:23:23.46	19.05	31.43	-61.2	-74.9	3.5	1.52e+00	0	46	104	0	60	212268
2026-01-29 06:23:24.47	18.70	31.37	-59.8	-74.7	3.5	1.51e+00	0	46	104	0	60	207535
2026-01-29 06:23:25.47	18.36	31.31	-60.9	-75.0	3.5	1.52e+00	0	46	104	0	60	213749
2026-01-29 06:23:26.48	18.02	31.24	-60.7	-75.1	3.5	1.52e+00	0	46	104	0	60	216695
2026-01-29 06:23:27.48	17.69	31.18	-59.8	-74.6	3.5	1.52e+00	0	46	104	0	60	204319
2026-01-29 06:23:28.49	17.35	31.12	-61.2	-75.4	3.5	1.52e+00	0	46	104	0	60	224620
2026-01-29 06:23:29.49	17.02	31.05	-59.5	-74.7	3.5	1.52e+00	0	46	104	0	60	205914
2026-01-29 06:23:30.49	16.69	30.99	-60.3	-74.8	3.5	1.51e+00	0	46	104	0	60	210117
2026-01-29 06:23:31.50	16.35	30.92	-59.9	-74.5	3.5	1.52e+00	0	46	104	0	60	202994
2026-01-29 06:23:32.51	16.02	30.85	-57.0	-72.9	3.6	1.51e+00	0	46	104	0	60	168302
2026-01-29 06:23:33.52	15.69	30.78	-59.8	-75.3	3.5	1.52e+00	0	46	104	0	60	220628
2026-01-29 06:23:34.52	15.36	30.71	-55.6	-72.7	3.7	1.51e+00	0	46	104	0	60	163996
2026-01-29 06:23:35.52	15.04	30.64	-58.9	-74.1	3.6	1.51e+00	0	46	104	0	60	193543
2026-01-29 06:23:36.53	14.71	30.57	-55.1	-71.9	3.9	1.51e+00	0	46	104	0	60	149801
2026-01-29 06:23:37.54	14.39	30.49	-54.6	-71.7	3.7	1.51e+00	0	46	104	0	60	147133
2026-01-29 06:23:38.54	14.07	30.42	-56.1	-72.3	3.7	1.51e+00	0	46	104	0	60	155931
2026-01-29 06:23:39.55	13.75	30.35	-58.9	-74.0	3.6	1.51e+00	0	46	104	0	60	191132
2026-01-29 06:23:40.56	13.43	30.27	-59.7	-74.3	3.5	1.51e+00	0	46	104	0	60	197144
2026-01-29 06:23:41.56	13.11	30.20	-59.5	-74.8	3.5	1.52e+00	0	46	104	0	60	208993
2026-01-29 06:23:42.56	12.80	30.12	-57.0	-73.5	3.6	1.51e+00	0	46	104	0	60	180711
2026-01-29 06:23:43.56	12.48	30.04	-55.9	-72.6	3.7	1.51e+00	0	46	104	0	60	162449
2026-01-29 06:23:44.57	12.17	29.96	-57.5	-73.7	3.6	1.51e+00	0	46	104	0	60	184248
2026-01-29 06:23:45.58	11.86	29.88	-55.6	-72.1	3.8	1.51e+00	0	46	104	0	60	152468
2026-01-29 06:23:46.58	11.55	29.80	-57.2	-72.8	3.7	1.51e+00	0	46	104	0	60	166954
2026-01-29 06:23:47.58	11.24	29.72	-59.9	-74.4	3.5	1.51e+00	0	46	104	0	60	200082
2026-01-29 06:23:48.59	10.93	29.64	-56.1	-73.0	3.7	1.51e+00	0	46	104	0	60	169434
2026-01-29 06:23:49.59	10.63	29.56	-55.3	-72.2	3.9	1.51e+00	0	46	104	0	60	154723
2026-01-29 06:23:50.60	10.33	29.48	-60.1	-74.4	3.6	1.52e+00	0	46	104	0	60	198978
2026-01-29 06:23:51.61	10.02	29.40	-57.1	-73.8	3.6	1.51e+00	0	47	104	0	60	187360
2026-01-29 06:23:52.61	9.72	29.31	-55.1	-71.8	3.9	1.51e+00	0	47	104	0	60	147360
2026-01-29 06:23:53.61	9.43	29.23	-56.1	-72.7	3.8	1.51e+00	0	46	104	0	60	164946
2026-01-29 06:23:54.62	9.13	29.14	-56.7	-73.4	3.7	1.51e+00	0	47	104	0	60	178002
2026-01-29 06:23:55.63	8.83	29.06	-57.9	-73.9	3.6	1.51e+00	0	46	104	0	60	189315
2026-01-29 06:23:56.63	8.54	28.97	-59.7	-74.7	3.5	1.52e+00	0	46	104	0	60	206100
2026-01-29 06:23:57.64	8.24	28.88	-59.6	-74.5	3.6	1.52e+00	0	46	104	0	60	202078
2026-01-29 06:23:58.63	7.96	28.80	-59.5	-74.4	3.5	1.51e+00	0	46	104	0	60	200132
2026-01-29 06:23:59.63	7.67	28.71	-59.4	-74.7	3.6	1.51e+00	0	46	104	0	60	206893
2026-01-29 06:24:00.63	7.38	28.62	-55.4	-72.5	3.8	1.51e+00	0	46	104	0	60	159888
2026-01-29 06:24:01.64	7.10	28.53	-56.7	-72.4	3.8	1.51e+00	0	46	104	0	60	158537
2026-01-29 06:24:02.64	6.81	28.44	-56.9	-72.8	3.6	1.51e+00	0	46	104	0	60	165400
2026-01-29 06:24:03.65	6.53	28.35	-60.5	-74.7	3.5	1.52e+00	0	46	104	0	60	206612
2026-01-29 06:24:04.65	6.25	28.26	-60.1	-74.6	3.5	1.52e+00	0	46	104	0	60	204075
2026-01-29 06:24:05.65	5.97	28.17	-59.2	-74.2	3.6	1.51e+00	0	46	104	0	60	195868
2026-01-29 06:24:06.66	5.69	28.08	-59.0	-73.6	3.6	1.52e+00	0	46	104	0	60	182425
2026-01-29 06:24:07.67	5.41	27.99	-59.9	-74.1	3.5	1.51e+00	0	46	104	0	60	191880
2026-01-29 06:24:08.67	5.14	27.90	-59.8	-74.5	3.5	1.51e+00	0	46	104	0	60	200856
2026-01-29 06:24:09.68	4.87	27.80	-60.9	-74.9	3.5	1.52e+00	0	46	104	0	60	211686
2026-01-29 06:24:10.69	4.59	27.71	-61.1	-75.0	3.5	1.52e+00	0	46	104	0	60	214664
2026-01-29 06:24:11.70	4.32	27.62	-61.3	-75.3	3.5	1.52e+00	0	46	104	0	60	220414
2026-01-29 06:24:12.70	4.06	27.52	-61.0	-75.0	3.5	1.51e+00	0	46	104	0	60	214721
2026-01-29 06:24:13.71	3.79	27.43	-61.0	-75.0	3.5	1.52e+00	0	46	104	0	60	213457
2026-01-29 06:24:14.71	3.52	27.33	-61.3	-75.2	3.5	1.52e+00	0	46	104	0	60	219608
2026-01-29 06:24:15.71	3.26	27.24	-61.0	-75.1	3.5	1.52e+00	0	47	104	0	60	216483
2026-01-29 06:24:16.72	3.00	27.14	-60.8	-75.0	3.5	1.52e+00	0	46	104	0	60	213431
2026-01-29 06:24:17.73	2.74	27.05	-61.3	-75.3	3.5	1.52e+00	0	47	104	0	60	221958
2026-01-29 06:24:18.73	2.48	26.95	-60.8	-75.0	3.5	1.52e+00	0	46	104	0	60	213530
2026-01-29 06:24:19.74	2.22	26.86	-61.3	-75.3	3.5	1.51e+00	0	47	104	0	60	221277
2026-01-29 06:24:20.75	1.96	26.76	-60.5	-75.2	3.5	1.52e+00	0	47	104	0	60	219407
2026-01-29 06:24:21.76	1.71	26.66	-60.5	-75.0	3.5	1.52e+00	0	46	104	0	60	213956
2026-01-29 06:24:22.77	1.45	26.56	-60.5	-74.8	3.5	1.52e+00	0	47	104	0	60	208959
2026-01-29 06:24:23.78	1.20	26.47	-61.1	-75.2	3.5	1.52e+00	0	47	104	0	60	218757
2026-01-29 06:24:24.78	0.95	26.37	-60.9	-75.2	3.5	1.52e+00	0	47	104	0	60	219460
2026-01-29 06:24:25.79	0.70	26.27	-60.7	-74.9	3.5	1.52e+00	0	47	104	0	60	210707
2026-01-29 06:24:26.79	0.46	26.17	-59.4	-74.7	3.5	1.52e+00	0	46	104	0	60	205606
2026-01-29 06:24:27.80	0.21	26.07	-60.8	-75.1	3.5	1.52e+00	0	47	104	0	60	216049
2026-01-29 06:24:28.80	359.97	25.98	-61.0	-75.3	3.5	1.52e+00	0	46	104	0	60	221296
2026-01-29 06:24:29.81	359.73	25.88	-59.2	-74.7	3.5	1.52e+00	0	46	104	0	60	205973
2026-01-29 06:24:30.81	359.49	25.78	-58.9	-74.7	3.5	1.52e+00	0	46	104	0	60	205574
2026-01-29 06:24:31.82	359.25	25.68	-59.1	-74.4	3.5	1.51e+00	0	46	104	0	60	199581
2026-01-29 06:24:32.83	359.01	25.58	-58.8	-74.6	3.6	1.52e+00	0	46	104	0	60	204399
2026-01-29 06:24:33.83	358.78	25.48	-58.1	-73.8	3.6	1.51e+00	0	46	104	0	60	187218
2026-01-29 06:24:34.84	358.54	25.38	-57.9	-73.7	3.6	1.51e+00	0	46	104	0	60	184522
2026-01-29 06:24:35.84	358.31	25.28	-59.4	-73.6	3.5	1.51e+00	0	46	104	0	60	181911
2026-01-29 06:24:36.85	358.08	25.18	-58.9	-74.5	3.5	1.51e+00	0	46	104	0	60	202031
2026-01-29 06:24:37.86	357.85	25.08	-58.0	-73.5	3.6	1.51e+00	0	46	104	0	60	179593
2026-01-29 06:24:38.87	357.62	24.98	-60.8	-74.4	3.5	1.51e+00	0	46	104	0	60	199899
2026-01-29 06:24:39.87	357.39	24.88	-59.4	-74.4	3.5	1.51e+00	0	46	104	0	60	199804
2026-01-29 06:24:40.88	357.16	24.78	-59.5	-74.5	3.5	1.52e+00	0	46	104	0	60	201828
2026-01-29 06:24:41.89	356.94	24.68	-59.8	-74.4	3.5	1.51e+00	0	46	104	0	60	200289
2026-01-29 06:24:42.90	356.72	24.58	-60.0	-74.8	3.5	1.52e+00	0	46	104	0	60	208714
2026-01-29 06:24:43.90	356.50	24.48	-60.4	-73.7	3.6	1.52e+00	0	46	104	0	60	185115
2026-01-29 06:24:44.91	356.28	24.38	-59.0	-74.5	3.6	1.51e+00	0	46	104	0	60	202108
2026-01-29 06:24:45.92	356.06	24.27	-60.6	-75.0	3.5	1.51e+00	0	46	104	0	60	213024
2026-01-29 06:24:46.93	355.84	24.17	-61.2	-75.0	3.5	1.52e+00	0	46	104	0	60	213956
2026-01-29 06:24:47.93	355.62	24.07	-59.8	-74.5	3.5	1.51e+00	0	46	104	0	60	202529
2026-01-29 06:24:48.94	355.41	23.97	-59.7	-74.5	3.5	1.52e+00	0	46	104	0	60	201910
2026-01-29 06:24:49.94	355.20	23.87	-60.0	-74.5	3.5	1.52e+00	0	46	104	0	60	202633
2026-01-29 06:24:50.95	354.99	23.77	-59.9	-74.5	3.5	1.52e+00	0	46	104	0	60	200977
2026-01-29 06:24:51.95	354.78	23.67	-58.7	-74.3	3.5	1.52e+00	0	46	104	0	60	196416
2026-01-29 06:24:52.96	354.57	23.57	-61.1	-75.0	3.5	1.51e+00	0	46	104	0	60	213438
2026-01-29 06:24:53.96	354.36	23.47	-60.9	-74.9	3.5	1.52e+00	0	46	104	0	60	211348
2026-01-29 06:24:54.97	354.16	23.36	-60.1	-75.0	3.5	1.52e+00	0	46	104	0	60	213572
2026-01-29 06:24:55.98	353.95	23.26	-60.3	-74.8	3.5	1.52e+00	0	46	104	0	60	208591
2026-01-29 06:24:56.99	353.75	23.16	-61.2	-75.1	3.5	1.52e+00	0	46	104	0	60	216262
2026-01-29 06:24:58.00	353.54	23.06	-61.2	-75.1	3.5	1.52e+00	0	46	104	0	60	215839
2026-01-29 06:24:59.01	353.34	22.96	-60.1	-75.0	3.5	1.52e+00	0	46	104	0	60	212993
2026-01-29 06:25:00.01	353.14	22.86	-60.6	-74.9	3.5	1.52e+00	0	46	104	0	60	210883
2026-01-29 06:25:01.02	352.95	22.76	-61.2	-75.2	3.5	1.52e+00	0	47	104	0	60	219599
2026-01-29 06:25:02.02	352.75	22.65	-61.1	-75.1	3.5	1.52e+00	0	46	104	0	60	215225
2026-01-29 06:25:03.03	352.55	22.55	-60.6	-75.1	3.5	1.52e+00	0	46	104	0	60	215425
2026-01-29 06:25:04.03	352.36	22.45	-60.1	-74.8	3.5	1.52e+00	0	46	104	0	60	208696
2026-01-29 06:25:05.04	352.17	22.35	-61.0	-75.2	3.5	1.52e+00	0	46	104	0	60	217910
2026-01-29 06:25:06.04	351.98	22.25	-61.2	-75.2	3.5	1.52e+00	0	46	104	0	60	217749
2026-01-29 06:25:07.05	351.79	22.15	-61.1	-75.2	3.5	1.52e+00	0	46	104	0	60	219199
2026-01-29 06:25:08.06	351.60	22.05	-60.0	-74.7	3.5	1.52e+00	0	46	104	0	60	206844
2026-01-29 06:25:09.06	351.41	21.95	-60.0	-74.5	3.5	1.52e+00	0	46	104	0	60	201843
2026-01-29 06:25:10.07	351.22	21.85	-60.2	-74.6	3.5	1.52e+00	0	46	104	0	60	203148
2026-01-29 06:25:11.08	351.04	21.75	-60.1	-74.6	3.5	1.52e+00	0	46	104	0	60	203599
2026-01-29 06:25:12.08	350.85	21.65	-60.7	-74.5	3.5	1.52e+00	0	46	104	0	60	201408
2026-01-29 06:25:13.09	350.67	21.55	-60.8	-75.1	3.5	1.52e+00	0	46	104	0	60	215909
2026-01-29 06:25:14.10	350.49	21.44	-59.7	-74.4	3.5	1.52e+00	0	46	104	0	60	200772
2026-01-29 06:25:15.10	350.31	21.34	-60.5	-74.4	3.5	1.51e+00	0	46	104	0	60	199031
2026-01-29 06:25:16.11	350.13	21.24	-60.1	-74.5	3.5	1.51e+00	0	46	104	0	60	201150
2026-01-29 06:25:17.12	349.95	21.14	-59.7	-74.4	3.5	1.52e+00	0	46	104	0	60	198707
2026-01-29 06:25:18.13	349.77	21.04	-60.2	-74.6	3.5	1.52e+00	0	46	104	0	60	203980
2026-01-29 06:25:19.13	349.60	20.94	-60.3	-74.4	3.5	1.52e+00	0	46	104	0	60	200289
2026-01-29 06:25:20.14	349.42	20.84	-60.9	-74.4	3.5	1.52e+00	0	46	104	0	60	199037
2026-01-29 06:25:21.15	349.25	20.74	-60.6	-74.6	3.5	1.52e+00	0	46	104	0	60	204432
2026-01-29 06:25:22.15	349.08	20.64	-60.4	-74.6	3.5	1.52e+00	0	46	104	0	60	204754
2026-01-29 06:25:23.15	348.91	20.55	-60.4	-74.8	3.6	1.52e+00	0	46	104	0	60	208232
2026-01-29 06:25:24.16	348.74	20.45	-61.0	-74.8	3.5	1.52e+00	0	46	104	0	60	209835
2026-01-29 06:25:25.16	348.57	20.35	-61.0	-74.9	3.5	1.52e+00	0	46	104	0	60	212224
2026-01-29 06:25:26.16	348.40	20.25	-60.2	-74.5	3.5	1.52e+00	0	46	104	0	60	201610
2026-01-29 06:25:27.17	348.23	20.15	-60.5	-74.7	3.5	1.51e+00	0	46	104	0	60	206148
2026-01-29 06:25:28.17	348.07	20.05	-60.9	-74.5	3.5	1.52e+00	0	46	104	0	60	201798
2026-01-29 06:25:29.18	347.90	19.95	-60.4	-74.5	3.5	1.52e+00	0	46	104	0	60	201332
2026-01-29 06:25:30.18	347.74	19.85	-60.6	-74.8	3.5	1.52e+00	0	46	104	0	60	208175
2026-01-29 06:25:31.19	347.58	19.76	-60.7	-74.7	3.5	1.52e+00	0	46	104	0	60	207646
2026-01-29 06:25:32.19	347.42	19.66	-60.1	-74.9	3.5	1.52e+00	0	46	104	0	60	210480
2026-01-29 06:25:33.20	347.26	19.56	-60.5	-74.6	3.5	1.52e+00	0	46	104	0	60	203986
2026-01-29 06:25:34.20	347.10	19.46	-60.6	-74.7	3.5	1.52e+00	0	46	104	0	60	205843
2026-01-29 06:25:35.21	346.94	19.36	-59.4	-74.7	3.5	1.51e+00	0	46	104	0	60	207694
2026-01-29 06:25:36.22	346.78	19.27	-60.9	-74.9	3.5	1.52e+00	0	46	104	0	60	211471
2026-01-29 06:25:37.23	346.63	19.17	-60.3	-74.7	3.5	1.52e+00	0	46	104	0	60	206743
2026-01-29 06:25:38.23	346.47	19.07	-60.6	-74.4	3.5	1.52e+00	0	46	104	0	60	199271
2026-01-29 06:25:39.24	346.32	18.97	-60.3	-74.9	3.5	1.52e+00	0	46	104	0	60	211776
2026-01-29 06:25:40.24	346.16	18.88	-60.3	-74.9	3.5	1.52e+00	0	46	104	0	60	210446
2026-01-29 06:25:41.25	346.01	18.78	-59.4	-74.7	3.5	1.51e+00	0	46	104	0	60	206735
2026-01-29 06:25:42.26	345.86	18.68	-59.9	-74.4	3.5	1.52e+00	0	46	104	0	60	198944
2026-01-29 06:25:43.26	345.71	18.59	-60.8	-74.8	3.5	1.52e+00	0	46	104	0	60	209747
2026-01-29 06:25:44.27	345.56	18.49	-59.3	-74.6	3.5	1.52e+00	0	46	104	0	60	204015
2026-01-29 06:25:45.28	345.41	18.39	-59.8	-74.7	3.5	1.52e+00	0	47	104	0	60	206696
2026-01-29 06:25:46.28	345.27	18.30	-59.6	-74.3	3.5	1.52e+00	0	46	104	0	60	198190
2026-01-29 06:25:47.29	345.12	18.20	-59.3	-74.1	3.5	1.52e+00	0	46	104	0	60	193185
2026-01-29 06:25:48.30	344.97	18.11	-60.2	-74.5	3.5	1.52e+00	0	47	104	0	60	200820
2026-01-29 06:25:49.30	344.83	18.01	-59.5	-74.2	3.5	1.52e+00	0	46	104	0	60	194889
2026-01-29 06:25:50.31	344.69	17.91	-59.4	-74.1	3.5	1.52e+00	0	46	104	0	60	192927
2026-01-29 06:25:51.32	344.54	17.82	-59.4	-74.2	3.5	1.52e+00	0	46	104	0	60	195037
2026-01-29 06:25:52.32	344.40	17.72	-59.3	-74.1	3.5	1.52e+00	0	46	104	0	60	191941
2026-01-29 06:25:53.33	344.26	17.63	-60.0	-74.6	3.5	1.52e+00	0	46	104	0	60	204282
2026-01-29 06:25:54.33	344.12	17.54	-59.9	-74.4	3.5	1.52e+00	0	46	104	0	60	200649
2026-01-29 06:25:55.34	343.98	17.44	-60.1	-74.7	3.5	1.52e+00	0	46	104	0	60	207867
2026-01-29 06:25:56.35	343.84	17.35	-60.6	-74.9	3.5	1.52e+00	0	46	104	0	60	210631
2026-01-29 06:25:57.35	343.71	17.25	-60.7	-74.9	3.5	1.52e+00	0	47	104	0	60	210396
2026-01-29 06:25:58.36	343.57	17.16	-59.3	-74.4	3.5	1.51e+00	0	46	104	0	60	199237
2026-01-29 06:25:59.37	343.43	17.06	-59.2	-74.4	3.5	1.52e+00	0	46	104	0	60	199497
2026-01-29 06:26:00.38	343.30	16.97	-60.3	-74.9	3.5	1.52e+00	0	46	104	0	60	210627
2026-01-29 06:26:01.39	343.16	16.88	-60.7	-74.8	3.5	1.52e+00	0	47	104	0	60	209098
2026-01-29 06:26:02.40	343.03	16.78	-59.5	-74.4	3.5	1.51e+00	0	46	104	0	60	199014
2026-01-29 06:26:03.41	342.90	16.69	-59.0	-74.0	3.6	1.52e+00	0	47	104	0	60	191378
2026-01-29 06:26:04.41	342.77	16.60	-60.1	-74.9	3.5	1.52e+00	0	46	104	0	60	210802
2026-01-29 06:26:05.42	342.64	16.51	-59.0	-74.4	3.5	1.52e+00	0	46	104	0	60	199003
2026-01-29 06:26:06.42	342.51	16.41	-58.9	-74.2	3.5	1.52e+00	0	46	104	0	60	194679
2026-01-29 06:26:07.43	342.38	16.32	-58.9	-74.0	3.5	1.51e+00	0	46	104	0	60	190906
2026-01-29 06:26:08.44	342.25	16.23	-60.5	-74.8	3.5	1.51e+00	0	46	104	0	60	208063
2026-01-29 06:26:09.44	342.12	16.14	-59.1	-74.3	3.5	1.52e+00	0	46	104	0	60	197394
2026-01-29 06:26:10.45	342.00	16.05	-60.8	-74.8	3.5	1.52e+00	0	46	104	0	60	209429
2026-01-29 06:26:11.46	341.87	15.95	-60.1	-74.6	3.5	1.52e+00	0	46	104	0	60	204424
2026-01-29 06:26:12.46	341.75	15.86	-60.7	-74.5	3.5	1.52e+00	0	47	104	0	60	202613
2026-01-29 06:26:13.47	341.62	15.77	-60.8	-74.8	3.5	1.52e+00	0	46	104	0	60	208902
2026-01-29 06:26:14.48	341.50	15.68	-60.8	-74.7	3.5	1.52e+00	0	46	104	0	60	207755
2026-01-29 06:26:15.49	341.37	15.59	-60.8	-74.8	3.5	1.52e+00	0	47	104	0	60	208905
2026-01-29 06:26:16.49	341.25	15.50	-60.8	-74.4	3.5	1.52e+00	0	47	104	0	60	200696
2026-01-29 06:26:17.50	341.13	15.41	-60.3	-74.6	3.5	1.52e+00	0	46	104	0	60	204674
2026-01-29 06:26:18.51	341.01	15.32	-60.6	-74.7	3.5	1.52e+00	0	46	104	0	60	206374
2026-01-29 06:26:19.52	340.89	15.23	-60.5	-74.7	3.5	1.52e+00	0	46	104	0	60	207187
2026-01-29 06:26:20.53	340.77	15.14	-60.6	-74.6	3.5	1.52e+00	0	46	104	0	60	203201
2026-01-29 06:26:21.53	340.65	15.05	-60.6	-74.7	3.5	1.52e+00	0	46	104	0	60	206768
2026-01-29 06:26:22.54	340.54	14.96	-60.8	-74.8	3.5	1.52e+00	0	46	104	0	60	209109
2026-01-29 06:26:23.55	340.42	14.87	-60.5	-74.7	3.5	1.52e+00	0	46	104	0	60	207632
2026-01-29 06:26:24.55	340.30	14.78	-60.5	-74.6	3.5	1.52e+00	0	46	104	0	60	203622
2026-01-29 06:26:25.56	340.19	14.70	-60.6	-74.6	3.5	1.52e+00	0	46	104	0	60	204309
2026-01-29 06:26:26.57	340.07	14.61	-60.6	-74.8	3.5	1.52e+00	0	46	104	0	60	209115
2026-01-29 06:26:27.57	339.96	14.52	-60.6	-74.5	3.5	1.51e+00	0	46	104	0	60	201258
2026-01-29 06:26:28.58	339.85	14.43	-60.4	-74.5	3.5	1.51e+00	0	46	104	0	60	202796
2026-01-29 06:26:29.58	339.74	14.34	-60.3	-74.5	3.5	1.52e+00	0	46	104	0	60	201583
2026-01-29 06:26:30.59	339.62	14.26	-60.5	-74.7	3.5	1.52e+00	0	46	104	0	60	206238
2026-01-29 06:26:31.60	339.51	14.17	-60.3	-74.3	3.5	1.52e+00	0	46	104	0	60	196677
2026-01-29 06:26:32.60	339.40	14.08	-60.2	-74.5	3.5	1.52e+00	0	46	104	0	60	201266
2026-01-29 06:26:33.61	339.29	14.00	-60.3	-74.5	3.5	1.52e+00	0	46	104	0	60	202878
2026-01-29 06:26:34.61	339.18	13.91	-60.4	-74.5	3.5	1.52e+00	0	46	104	0	60	201153
2026-01-29 06:26:35.62	339.08	13.82	-60.0	-74.4	3.5	1.52e+00	0	46	104	0	60	199565
2026-01-29 06:26:36.63	338.97	13.74	-59.9	-74.3	3.5	1.52e+00	0	46	104	0	60	198336
2026-01-29 06:26:37.64	338.86	13.65	-60.3	-74.6	3.5	1.52e+00	0	46	104	0	60	203924
2026-01-29 06:26:38.64	338.75	13.56	-60.0	-74.3	3.5	1.51e+00	0	46	104	0	60	198137
2026-01-29 06:26:39.65	338.65	13.48	-60.2	-74.5	3.5	1.52e+00	0	46	104	0	60	201425
2026-01-29 06:26:40.66	338.54	13.39	-59.6	-74.1	3.5	1.52e+00	0	46	104	0	60	193758
2026-01-29 06:26:41.66	338.44	13.31	-60.0	-74.4	3.5	1.52e+00	0	46	104	0	60	200802
2026-01-29 06:26:42.66	338.33	13.22	-60.3	-74.5	3.5	1.52e+00	0	46	104	0	60	201062
2026-01-29 06:26:43.67	338.23	13.14	-58.9	-73.3	3.5	1.52e+00	0	46	104	0	60	176580
2026-01-29 06:26:44.68	338.13	13.05	-60.1	-73.7	3.5	1.52e+00	0	46	104	0	60	184929
2026-01-29 06:26:45.69	338.03	12.97	-59.6	-73.4	3.5	1.52e+00	0	46	104	0	60	178742
2026-01-29 06:26:46.69	337.92	12.88	-59.5	-73.4	3.5	1.51e+00	0	46	104	0	60	177115
2026-01-29 06:26:47.70	337.82	12.80	-59.6	-73.2	3.5	1.52e+00	0	47	104	0	60	173984
2026-01-29 06:26:48.70	337.72	12.72	-59.8	-73.7	3.5	1.51e+00	0	46	104	0	60	183859
2026-01-29 06:26:49.71	337.62	12.63	-58.7	-74.0	3.5	1.52e+00	0	46	104	0	60	190671
2026-01-29 06:26:50.71	337.52	12.55	-58.4	-73.0	3.5	1.52e+00	0	46	104	0	60	170700
2026-01-29 06:26:51.72	337.43	12.47	-58.7	-73.1	3.5	1.52e+00	0	46	104	0	60	171052
2026-01-29 06:26:52.73	337.33	12.38	-59.3	-73.4	3.5	1.52e+00	0	46	104	0	60	177531
2026-01-29 06:26:53.74	337.23	12.30	-59.1	-73.2	3.5	1.51e+00	0	46	104	0	60	174597
2026-01-29 06:26:54.75	337.13	12.22	-59.2	-73.3	3.5	1.52e+00	0	46	104	0	60	175380
2026-01-29 06:26:55.76	337.04	12.13	-59.1	-72.7	3.5	1.52e+00	0	46	104	0	60	164039
2026-01-29 06:26:56.76	336.94	12.05	-59.2	-73.5	3.5	1.51e+00	0	46	104	0	60	180639
2026-01-29 06:26:57.77	336.84	11.97	-59.2	-73.4	3.5	1.52e+00	0	46	104	0	60	178819
2026-01-29 06:26:58.78	336.75	11.89	-58.7	-73.6	3.5	1.52e+00	0	46	104	0	60	181247
2026-01-29 06:26:59.79	336.66	11.80	-59.2	-73.5	3.5	1.52e+00	0	46	104	0	60	179591
2026-01-29 06:27:00.80	336.56	11.72	-58.5	-72.8	3.5	1.52e+00	0	46	104	0	60	165346
2026-01-29 06:27:01.81	336.47	11.64	-58.6	-72.8	3.5	1.52e+00	0	46	104	0	60	166246
2026-01-29 06:27:02.81	336.38	11.56	-58.2	-72.5	3.5	1.51e+00	0	46	104	0	60	160255
2026-01-29 06:27:03.82	336.28	11.48	-58.6	-72.6	3.5	1.52e+00	0	46	104	0	60	162834
2026-01-29 06:27:04.82	336.19	11.40	-58.7	-72.7	3.5	1.52e+00	0	46	104	0	60	164672
2026-01-29 06:27:05.83	336.10	11.32	-59.2	-73.5	3.5	1.52e+00	0	46	104	0	60	180750
2026-01-29 06:27:06.83	336.01	11.24	-58.5	-73.5	3.5	1.52e+00	0	46	104	0	60	179294
2026-01-29 06:27:07.84	335.92	11.16	-58.6	-72.7	3.6	1.52e+00	0	46	104	0	60	164184
2026-01-29 06:27:08.85	335.83	11.08	-58.2	-72.6	3.5	1.52e+00	0	46	104	0	60	162096
2026-01-29 06:27:09.86	335.74	11.00	-58.3	-72.6	3.5	1.52e+00	0	46	104	0	60	162880
2026-01-29 06:27:10.87	335.65	10.92	-58.3	-72.5	3.6	1.52e+00	0	46	104	0	60	160750
2026-01-29 06:27:11.88	335.57	10.84	-58.7	-73.4	3.5	1.51e+00	0	46	104	0	60	178259
2026-01-29 06:27:12.88	335.48	10.76	-57.9	-73.3	3.5	1.52e+00	0	46	104	0	60	176822
2026-01-29 06:27:13.89	335.39	10.68	-58.5	-72.7	3.5	1.51e+00	0	46	104	0	60	164188
2026-01-29 06:27:14.90	335.31	10.60	-57.7	-72.2	3.5	1.51e+00	0	46	104	0	60	154856
2026-01-29 06:27:15.91	335.22	10.52	-58.4	-72.7	3.5	1.52e+00	0	46	104	0	60	164182
2026-01-29 06:27:16.92	335.13	10.44	-58.5	-72.7	3.5	1.52e+00	0	46	104	0	60	164768
2026-01-29 06:27:17.93	335.05	10.36	-58.3	-72.7	3.5	1.52e+00	0	46	104	0	60	163760
2026-01-29 06:27:18.93	334.96	10.29	-58.1	-72.6	3.5	1.52e+00	0	46	104	0	60	161669
2026-01-29 06:27:19.94	334.88	10.21	-58.8	-72.7	3.5	1.51e+00	0	46	104	0	60	163875
2026-01-29 06:27:20.95	334.80	10.13	-58.9	-73.4	3.5	1.52e+00	0	46	104	0	60	176937
2026-01-29 06:27:21.95	334.71	10.05	-57.7	-72.3	3.5	1.52e+00	0	46	104	0	60	157117
2026-01-29 06:27:22.96	334.63	9.98	-57.6	-72.2	3.5	1.52e+00	0	46	104	0	60	155138
2026-01-29 06:27:23.97	334.55	9.90	-58.2	-72.7	3.5	1.52e+00	0	46	104	0	60	164260
2026-01-29 06:27:24.98	334.47	9.82	-57.6	-72.3	3.5	1.52e+00	0	46	104	0	60	156678
2026-01-29 06:27:25.99	334.38	9.74	-57.5	-72.1	3.5	1.52e+00	0	46	104	0	60	152501
2026-01-29 06:27:26.99	334.30	9.67	-57.5	-72.1	3.5	1.52e+00	0	46	104	0	60	153157
2026-01-29 06:27:27.99	334.22	9.59	-58.1	-72.4	3.5	1.52e+00	0	46	104	0	60	158613
2026-01-29 06:27:29.00	334.14	9.52	-59.0	-73.0	3.5	1.52e+00	0	46	104	0	60	169112
2026-01-29 06:27:30.01	334.06	9.44	-57.5	-72.1	3.5	1.52e+00	0	46	104	0	60	153929
2026-01-29 06:27:31.01	333.99	9.36	-57.3	-72.0	3.5	1.52e+00	0	46	104	0	60	150986
2026-01-29 06:27:32.02	333.91	9.29	-57.5	-72.2	3.5	1.52e+00	0	46	104	0	60	154215
2026-01-29 06:27:33.02	333.83	9.21	-57.2	-72.1	3.5	1.51e+00	0	46	104	0	60	153319
2026-01-29 06:27:34.03	333.75	9.14	-57.1	-72.0	3.5	1.51e+00	0	46	104	0	60	150908
2026-01-29 06:27:35.03	333.67	9.06	-57.2	-71.9	3.5	1.51e+00	0	46	104	0	60	149049
2026-01-29 06:27:36.04	333.60	8.99	-55.3	-70.7	3.7	1.51e+00	0	46	104	0	60	130536
2026-01-29 06:27:37.04	333.52	8.91	-57.9	-72.5	3.5	1.51e+00	0	46	104	0	60	159611
