passes_logs/2026/01/29/R3.2S-Naryan-Mar/R3.2S-Naryan-Mar__20260129_220838_SUOMI_NPP_rec.log

#Pass ID: 20260129_220838_SUOMI NPP
#Satellite: SUOMI NPP
#Configuration: NPP
#almurnet v.1.7.20240730
#Start time: 2026-01-29 22:08:39

#Version: 2.2.20231116
#Station: R3.2S-Naryan-Mar
#Location: 53.008057 lon 67.646978 lat
#TLE: 1 37849U 11061A   26028.91916408  .00000155  00000+0  94467-4 0  9990
#TLE: 2 37849  98.7824 330.8488 0002045  39.4457 320.6868 14.19531289738686

#Time	Az	El	Level	Level2	SNR	BER	BlckErr	Temp	State	Recorded	gain1	gain2
2026-01-29 22:08:39.94	19.38	0.08	-62.5	-76.8	3.5	1.52e+00	0	43	0	0	60	263361
2026-01-29 22:08:40.94	19.42	0.14	-59.7	-78.3	3.6	1.51e+00	0	44	104	0	60	323064
2026-01-29 22:08:41.95	19.45	0.20	-61.2	-78.7	3.6	1.51e+00	0	44	104	0	60	337712
2026-01-29 22:08:42.96	19.49	0.26	-62.3	-79.1	3.6	1.51e+00	0	45	104	0	60	354680
2026-01-29 22:08:43.96	19.52	0.32	-61.8	-79.2	3.6	1.51e+00	0	45	104	0	60	355536
2026-01-29 22:08:44.97	19.56	0.37	-61.6	-79.2	3.6	1.51e+00	0	45	104	0	60	357296
2026-01-29 22:08:45.98	19.59	0.43	-61.5	-79.2	3.6	1.51e+00	0	45	104	0	60	358170
2026-01-29 22:08:46.99	19.63	0.49	-61.7	-79.3	3.6	1.51e+00	0	45	104	0	60	361402
2026-01-29 22:08:47.99	19.66	0.55	-61.3	-79.2	3.6	1.51e+00	0	45	104	0	60	357565
2026-01-29 22:08:49.00	19.70	0.61	-62.2	-78.9	3.6	1.51e+00	0	45	104	0	60	346861
2026-01-29 22:08:50.01	19.74	0.67	-60.7	-78.6	3.6	1.51e+00	0	45	104	0	60	334656
2026-01-29 22:08:51.02	19.77	0.73	-61.7	-78.9	3.6	1.51e+00	0	45	104	0	60	344129
2026-01-29 22:08:52.02	19.81	0.79	-61.8	-79.1	3.6	1.51e+00	0	45	104	0	60	353940
2026-01-29 22:08:53.03	19.85	0.84	-62.4	-78.8	3.6	1.51e+00	0	45	104	0	60	342902
2026-01-29 22:08:54.03	19.88	0.90	-61.3	-78.5	3.6	1.51e+00	0	45	104	0	60	331510
2026-01-29 22:08:55.04	19.92	0.96	-61.6	-78.6	3.6	1.51e+00	0	45	104	0	60	334305
2026-01-29 22:08:56.04	19.96	1.02	-59.2	-77.7	3.6	1.51e+00	0	45	104	0	60	300091
2026-01-29 22:08:57.05	19.99	1.08	-61.6	-78.4	3.6	1.51e+00	0	45	104	0	60	327248
2026-01-29 22:08:58.06	20.03	1.14	-55.7	-76.3	3.6	1.51e+00	0	45	104	0	60	255299
2026-01-29 22:08:59.06	20.07	1.20	-61.7	-78.5	3.6	1.51e+00	0	45	104	0	60	328340
2026-01-29 22:09:00.07	20.10	1.26	-58.8	-78.0	3.6	1.51e+00	0	45	104	0	60	310037
2026-01-29 22:09:01.07	20.14	1.32	-58.8	-78.0	3.6	1.51e+00	0	45	104	0	60	310118
2026-01-29 22:09:02.08	20.18	1.38	-56.1	-77.0	3.6	1.51e+00	0	45	104	0	60	278424
2026-01-29 22:09:03.09	20.22	1.44	-59.2	-77.7	3.6	1.51e+00	0	45	104	0	60	301065
2026-01-29 22:09:04.09	20.25	1.50	-59.6	-78.1	3.6	1.51e+00	0	45	104	0	60	314383
2026-01-29 22:09:05.10	20.29	1.56	-55.3	-76.5	3.6	1.51e+00	0	45	104	0	60	260522
2026-01-29 22:09:06.10	20.33	1.62	-49.1	-70.1	3.6	1.51e+00	0	45	104	0	60	125481
2026-01-29 22:09:07.11	20.37	1.69	-56.4	-77.7	3.6	1.51e+00	0	45	104	0	60	299871
2026-01-29 22:09:08.12	20.41	1.75	-51.4	-72.9	3.6	1.51e+00	0	45	104	0	60	173798
2026-01-29 22:09:09.12	20.45	1.81	-52.9	-74.9	3.6	1.51e+00	0	45	104	0	60	218578
2026-01-29 22:09:10.13	20.48	1.87	-56.7	-77.3	3.6	1.51e+00	0	45	104	0	60	285519
2026-01-29 22:09:11.13	20.52	1.93	-53.2	-75.6	3.6	1.51e+00	0	45	104	0	60	234807
2026-01-29 22:09:12.13	20.56	1.99	-53.7	-76.2	3.6	1.51e+00	0	45	104	0	60	253621
2026-01-29 22:09:13.14	20.60	2.05	-55.9	-75.8	3.6	1.51e+00	0	45	104	0	60	241649
2026-01-29 22:09:14.15	20.64	2.11	-54.3	-75.5	3.6	1.51e+00	0	45	104	0	60	232231
2026-01-29 22:09:15.16	20.68	2.18	-53.7	-75.2	3.6	1.51e+00	0	45	104	0	60	224308
2026-01-29 22:09:16.16	20.72	2.24	-56.9	-74.9	3.6	1.51e+00	0	45	104	0	60	217658
2026-01-29 22:09:17.17	20.76	2.30	-57.0	-74.7	3.6	1.51e+00	0	45	104	0	60	213435
2026-01-29 22:09:18.18	20.80	2.36	-56.9	-75.0	3.6	1.51e+00	0	45	104	0	60	221069
2026-01-29 22:09:19.18	20.84	2.43	-56.8	-75.0	3.6	1.51e+00	0	45	104	0	60	220265
2026-01-29 22:09:20.19	20.88	2.49	-56.9	-74.8	3.6	1.51e+00	0	45	104	0	60	215194
2026-01-29 22:09:21.20	20.92	2.55	-56.7	-74.5	3.6	1.51e+00	0	45	104	0	60	207735
2026-01-29 22:09:22.20	20.96	2.61	-56.7	-74.5	3.6	1.51e+00	0	45	104	0	60	207525
2026-01-29 22:09:23.21	21.00	2.68	-56.6	-74.4	3.6	1.51e+00	0	45	104	0	60	206518
2026-01-29 22:09:24.22	21.04	2.74	-56.6	-74.3	3.6	1.51e+00	0	45	104	0	60	203819
2026-01-29 22:09:25.23	21.08	2.80	-56.6	-74.4	3.6	1.51e+00	0	45	104	0	60	204759
2026-01-29 22:09:26.23	21.12	2.87	-56.6	-74.4	3.6	1.51e+00	0	45	104	0	60	205304
2026-01-29 22:09:27.23	21.16	2.93	-56.6	-74.9	3.6	1.51e+00	0	45	104	0	60	217809
2026-01-29 22:09:28.24	21.20	2.99	-56.4	-74.9	3.6	1.51e+00	0	45	104	0	60	217305
2026-01-29 22:09:29.24	21.25	3.06	-56.5	-74.5	3.6	1.51e+00	0	45	104	0	60	206931
2026-01-29 22:09:30.25	21.29	3.12	-56.4	-74.3	3.6	1.51e+00	0	45	104	0	60	202263
2026-01-29 22:09:31.26	21.33	3.18	-56.5	-74.4	3.6	1.51e+00	0	45	104	0	60	204677
2026-01-29 22:09:32.27	21.37	3.25	-56.4	-74.3	3.6	1.51e+00	0	45	104	0	60	204189
2026-01-29 22:09:33.27	21.41	3.31	-56.4	-74.3	3.6	1.51e+00	0	45	104	0	60	203266
2026-01-29 22:09:34.28	21.46	3.38	-56.3	-74.5	3.6	1.51e+00	0	45	104	0	60	207549
2026-01-29 22:09:35.28	21.50	3.44	-56.3	-74.8	3.6	1.51e+00	0	45	104	0	60	214209
2026-01-29 22:09:36.29	21.54	3.51	-56.3	-74.7	3.5	1.51e+00	0	45	104	0	60	213759
2026-01-29 22:09:37.30	21.58	3.57	-56.2	-74.2	3.6	1.51e+00	0	45	104	0	60	200929
2026-01-29 22:09:38.31	21.63	3.64	-56.3	-74.4	3.6	1.51e+00	0	45	104	0	60	205056
2026-01-29 22:09:39.32	21.67	3.70	-56.3	-74.2	3.6	1.51e+00	0	45	104	0	60	201005
2026-01-29 22:09:40.32	21.71	3.77	-56.2	-74.5	3.6	1.51e+00	0	45	104	0	60	207136
2026-01-29 22:09:41.33	21.76	3.83	-56.3	-74.3	3.6	1.51e+00	0	45	104	0	60	202481
2026-01-29 22:09:42.34	21.80	3.90	-56.3	-74.5	3.6	1.51e+00	0	45	104	0	60	208411
2026-01-29 22:09:43.35	21.84	3.96	-56.1	-74.3	3.6	1.51e+00	0	45	104	0	60	202773
2026-01-29 22:09:44.35	21.89	4.03	-56.4	-74.7	3.6	1.51e+00	0	45	104	0	60	213811
2026-01-29 22:09:45.36	21.93	4.09	-56.1	-74.6	3.6	1.51e+00	0	46	104	0	60	211024
2026-01-29 22:09:46.37	21.98	4.16	-56.2	-74.2	3.6	1.51e+00	0	45	104	0	60	200122
2026-01-29 22:09:47.37	22.02	4.23	-56.1	-74.1	3.6	1.51e+00	0	45	104	0	60	198450
2026-01-29 22:09:48.38	22.07	4.29	-56.1	-74.2	3.6	1.51e+00	0	45	104	0	60	200191
2026-01-29 22:09:49.38	22.11	4.36	-56.1	-74.3	3.6	1.51e+00	0	45	104	0	60	202393
2026-01-29 22:09:50.38	22.16	4.43	-56.1	-74.3	3.6	1.51e+00	0	45	104	0	60	204269
2026-01-29 22:09:51.39	22.20	4.49	-56.1	-74.1	3.6	1.51e+00	0	45	104	0	60	199785
2026-01-29 22:09:52.40	22.25	4.56	-56.0	-74.5	3.6	1.51e+00	0	45	104	0	60	207572
2026-01-29 22:09:53.40	22.29	4.63	-56.0	-74.3	3.6	1.51e+00	0	45	104	0	60	202397
2026-01-29 22:09:54.41	22.34	4.69	-56.0	-74.1	3.6	1.51e+00	0	45	104	0	60	198049
2026-01-29 22:09:55.42	22.38	4.76	-56.0	-73.7	3.6	1.51e+00	0	45	104	0	60	190223
2026-01-29 22:09:56.43	22.43	4.83	-56.1	-73.8	3.6	1.51e+00	0	45	104	0	60	190852
2026-01-29 22:09:57.44	22.48	4.90	-56.0	-73.7	3.6	1.51e+00	0	45	104	0	60	189593
2026-01-29 22:09:58.44	22.52	4.96	-55.9	-73.5	3.6	1.51e+00	0	45	104	0	60	184492
2026-01-29 22:09:59.45	22.57	5.03	-56.0	-73.5	3.6	1.51e+00	0	46	104	0	60	184811
2026-01-29 22:10:00.45	22.62	5.10	-55.8	-73.2	3.6	1.51e+00	0	45	104	0	60	179740
2026-01-29 22:10:01.46	22.66	5.17	-55.8	-72.1	3.8	1.51e+00	0	45	104	0	60	156967
2026-01-29 22:10:02.47	22.71	5.24	-55.8	-69.4	4.1	1.35e+00	0	46	0	0	60	115987
2026-01-29 22:10:03.48	22.76	5.31	-55.7	-67.2	5.3	6.51e-01	0	45	0	2097152	60	89396
2026-01-29 22:10:04.48	22.81	5.38	-55.5	-65.9	6.6	3.36e-01	0	45	0	3145728	60	77706
2026-01-29 22:10:05.49	22.85	5.45	-55.3	-64.5	8.2	1.17e-01	0	45	0	5242880	60	66041
2026-01-29 22:10:06.50	22.90	5.51	-55.2	-63.2	9.7	1.59e-02	0	45	0	7340032	60	56455
2026-01-29 22:10:07.51	22.95	5.58	-54.8	-62.1	11.0	3.82e-03	0	46	0	9437184	60	49856
2026-01-29 22:10:08.52	23.00	5.65	-54.9	-61.1	12.3	6.74e-04	0	45	0	11534336	60	44242
2026-01-29 22:10:09.52	23.05	5.72	-54.4	-60.3	13.0	5.72e-05	0	46	0	12582912	60	40628
2026-01-29 22:10:10.53	23.10	5.79	-54.3	-59.9	13.5	1.90e-05	0	45	0	14680064	60	38807
2026-01-29 22:10:11.54	23.15	5.86	-54.3	-59.6	13.6	8.30e-06	0	46	0	16777216	60	37630
2026-01-29 22:10:12.54	23.20	5.93	-54.3	-59.6	13.8	3.00e-06	0	45	0	18874368	60	37341
2026-01-29 22:10:13.55	23.25	6.00	-54.3	-59.5	13.7	2.20e-06	0	45	0	20971520	60	37141
2026-01-29 22:10:14.56	23.30	6.08	-54.6	-59.9	13.5	6.10e-06	0	46	0	22020096	60	38945
2026-01-29 22:10:15.56	23.35	6.15	-54.8	-60.8	11.9	4.57e-05	0	46	0	24117248	60	43141
2026-01-29 22:10:16.57	23.40	6.22	-55.3	-61.4	13.8	5.42e-02	0	46	0	26214400	60	46283
2026-01-29 22:10:17.57	23.45	6.29	-50.5	-60.4	12.9	2.05e-05	0	46	0	28311552	60	41097
2026-01-29 22:10:18.58	23.50	6.36	-52.8	-60.3	14.1	5.41e-05	0	46	0	30408704	60	40520
2026-01-29 22:10:19.59	23.55	6.43	-54.7	-62.6	12.4	1.46e-04	0	45	0	31457280	60	52699
2026-01-29 22:10:20.59	23.60	6.50	-50.8	-60.8	12.3	1.36e-04	0	45	0	33554432	60	42989
2026-01-29 22:10:21.59	23.65	6.57	-50.8	-60.9	12.1	1.43e-04	0	45	0	35651584	60	43650
2026-01-29 22:10:22.60	23.70	6.65	-51.4	-61.0	12.9	1.78e-04	0	45	0	37748736	60	43912
2026-01-29 22:10:23.61	23.75	6.72	-52.8	-61.5	13.3	1.67e-05	0	46	0	39845888	60	46420
2026-01-29 22:10:24.62	23.81	6.79	-54.8	-61.8	13.5	1.60e-05	0	45	0	40894464	60	48120
2026-01-29 22:10:25.62	23.86	6.86	-56.2	-61.6	12.8	1.98e-05	0	46	0	42991616	60	47228
2026-01-29 22:10:26.63	23.91	6.94	-55.0	-61.7	11.6	1.02e-04	0	46	0	45088768	60	47760
2026-01-29 22:10:27.64	23.96	7.01	-53.5	-61.9	10.9	1.50e-03	0	46	0	47185920	60	48878
2026-01-29 22:10:28.65	24.02	7.08	-52.9	-62.0	11.2	1.86e-03	0	46	0	48234496	60	49359
2026-01-29 22:10:29.65	24.07	7.16	-53.3	-62.0	11.7	8.35e-04	0	45	0	50331648	60	49301
2026-01-29 22:10:30.66	24.12	7.23	-53.6	-62.6	11.8	4.15e-04	0	45	0	52428800	60	52923
2026-01-29 22:10:31.67	24.18	7.30	-53.9	-63.0	11.7	3.32e-04	0	46	0	54525952	60	55482
2026-01-29 22:10:32.67	24.23	7.38	-53.5	-63.0	11.2	1.09e-03	0	46	0	56623104	60	55137
2026-01-29 22:10:33.67	24.29	7.45	-52.6	-61.9	11.6	8.06e-04	0	46	0	58720256	60	48603
2026-01-29 22:10:34.68	24.34	7.53	-51.8	-61.1	11.7	5.09e-04	0	46	0	59768832	60	44406
2026-01-29 22:10:35.69	24.40	7.60	-51.1	-60.4	11.9	4.33e-04	0	46	0	61865984	60	40855
2026-01-29 22:10:36.70	24.45	7.68	-50.6	-60.0	12.2	1.72e-04	0	46	0	63963136	60	38980
2026-01-29 22:10:37.70	24.51	7.75	-50.7	-60.1	12.2	1.65e-04	0	46	0	66060288	60	39808
2026-01-29 22:10:38.71	24.56	7.83	-52.4	-60.0	13.5	9.46e-05	0	46	0	68157440	60	39318
2026-01-29 22:10:39.72	24.62	7.90	-53.8	-60.4	13.7	7.60e-06	0	46	0	69206016	60	41140
2026-01-29 22:10:40.72	24.67	7.98	-55.2	-60.5	14.2	2.20e-06	0	46	0	71303168	60	41449
2026-01-29 22:10:41.72	24.73	8.05	-54.1	-60.0	13.7	1.50e-06	0	46	0	73400320	60	38992
2026-01-29 22:10:42.73	24.79	8.13	-51.4	-59.4	13.1	2.13e-05	0	46	0	75497472	60	36551
2026-01-29 22:10:43.74	24.84	8.20	-51.1	-59.1	13.9	3.00e-06	0	46	0	76546048	60	35231
2026-01-29 22:10:44.74	24.90	8.28	-51.8	-59.3	14.9	1.50e-06	0	46	0	78643200	60	36068
2026-01-29 22:10:45.75	24.96	8.36	-52.5	-59.2	15.4	0.00e+00	0	46	0	80740352	60	35530
2026-01-29 22:10:46.76	25.02	8.43	-52.4	-59.3	14.3	0.00e+00	0	46	0	82837504	60	36104
2026-01-29 22:10:47.76	25.07	8.51	-51.3	-59.2	12.5	1.29e-05	0	46	0	84934656	60	35870
2026-01-29 22:10:48.77	25.13	8.59	-50.4	-59.0	12.2	8.69e-05	0	46	0	87031808	60	34835
2026-01-29 22:10:49.77	25.19	8.67	-49.5	-58.7	11.7	2.96e-04	0	46	0	88080384	60	33643
2026-01-29 22:10:50.77	25.25	8.74	-49.5	-58.6	11.7	2.78e-04	0	46	0	90177536	60	33495
2026-01-29 22:10:51.78	25.31	8.82	-50.1	-58.9	12.3	2.65e-04	0	46	0	92274688	60	34504
2026-01-29 22:10:52.78	25.37	8.90	-51.6	-59.0	13.8	5.18e-05	0	46	0	94371840	60	35047
2026-01-29 22:10:53.79	25.43	8.98	-53.3	-58.7	15.7	0.00e+00	0	46	0	96468992	60	33625
2026-01-29 22:10:54.79	25.49	9.06	-55.4	-58.6	17.3	0.00e+00	0	46	0	97517568	60	33306
2026-01-29 22:10:55.80	25.55	9.13	-56.1	-58.7	17.2	0.00e+00	0	46	0	99614720	60	33919
2026-01-29 22:10:56.80	25.61	9.21	-55.8	-58.5	17.2	0.00e+00	0	46	0	101711872	60	32873
2026-01-29 22:10:57.81	25.67	9.29	-55.7	-58.5	17.1	0.00e+00	0	46	0	103809024	60	32831
2026-01-29 22:10:58.82	25.73	9.37	-55.4	-58.0	17.5	0.00e+00	0	46	0	104857600	60	31149
2026-01-29 22:10:59.83	25.79	9.45	-55.4	-58.1	17.5	0.00e+00	0	46	0	106954752	60	31594
2026-01-29 22:11:00.84	25.85	9.53	-54.8	-57.9	17.6	0.00e+00	0	46	0	109051904	60	30704
2026-01-29 22:11:01.84	25.92	9.61	-53.3	-57.8	16.6	0.00e+00	0	46	0	111149056	60	30344
2026-01-29 22:11:02.85	25.98	9.69	-52.4	-57.7	16.2	0.00e+00	0	46	0	113246208	60	29966
2026-01-29 22:11:03.86	26.04	9.77	-51.5	-57.4	15.9	0.00e+00	0	46	0	115343360	60	29085
2026-01-29 22:11:04.87	26.11	9.85	-51.6	-57.4	16.0	0.00e+00	0	46	0	116391936	60	29087
2026-01-29 22:11:05.88	26.17	9.94	-52.3	-57.5	16.5	0.00e+00	0	46	0	118489088	60	29279
2026-01-29 22:11:06.88	26.23	10.02	-53.1	-57.3	17.4	0.00e+00	0	46	0	120586240	60	28652
2026-01-29 22:11:07.89	26.30	10.10	-54.2	-57.4	18.1	0.00e+00	0	46	0	122683392	60	28967
2026-01-29 22:11:08.90	26.36	10.18	-54.7	-57.4	18.4	0.00e+00	0	46	0	124780544	60	29207
2026-01-29 22:11:09.91	26.43	10.26	-55.1	-57.3	18.5	0.00e+00	0	46	0	125829120	60	28869
2026-01-29 22:11:10.91	26.49	10.34	-55.0	-57.2	18.6	0.00e+00	0	46	0	127926272	60	28257
2026-01-29 22:11:11.91	26.56	10.43	-54.9	-57.1	18.6	0.00e+00	0	46	0	130023424	60	27921
2026-01-29 22:11:12.92	26.62	10.51	-55.0	-57.1	18.7	0.00e+00	0	46	0	132120576	60	28069
2026-01-29 22:11:13.93	26.69	10.59	-55.1	-57.1	18.9	0.00e+00	0	46	0	133169152	60	28066
2026-01-29 22:11:14.94	26.76	10.68	-55.1	-57.1	18.9	0.00e+00	0	46	0	135266304	60	28118
2026-01-29 22:11:15.94	26.82	10.76	-54.9	-57.1	18.7	0.00e+00	0	46	0	137363456	60	27899
2026-01-29 22:11:16.95	26.89	10.84	-54.8	-57.0	18.6	0.00e+00	0	46	0	139460608	60	27838
2026-01-29 22:11:17.96	26.96	10.93	-54.7	-56.9	18.7	0.00e+00	0	46	0	141557760	60	27557
2026-01-29 22:11:18.97	27.03	11.01	-54.6	-57.0	18.7	0.00e+00	0	46	0	143654912	60	27819
2026-01-29 22:11:19.97	27.09	11.10	-54.4	-57.0	18.8	0.00e+00	0	46	0	144703488	60	27772
2026-01-29 22:11:20.98	27.16	11.18	-54.1	-56.9	18.9	0.00e+00	0	46	0	146800640	60	27470
2026-01-29 22:11:21.99	27.23	11.27	-53.9	-57.0	18.7	0.00e+00	0	46	0	148897792	60	27873
2026-01-29 22:11:23.00	27.30	11.35	-53.6	-57.0	18.6	0.00e+00	0	46	0	150994944	60	27858
2026-01-29 22:11:24.00	27.37	11.44	-53.2	-57.0	18.6	0.00e+00	0	46	0	153092096	60	27772
2026-01-29 22:11:25.01	27.44	11.52	-53.3	-56.6	19.1	0.00e+00	0	46	0	154140672	60	26495
2026-01-29 22:11:26.01	27.51	11.61	-54.0	-56.2	19.7	0.00e+00	0	46	0	156237824	60	25364
2026-01-29 22:11:27.01	27.58	11.70	-54.3	-56.3	19.4	0.00e+00	0	46	0	158334976	60	25734
2026-01-29 22:11:28.02	27.65	11.78	-54.1	-56.4	19.2	0.00e+00	0	46	0	160432128	60	25768
2026-01-29 22:11:29.03	27.73	11.87	-53.4	-56.2	18.8	0.00e+00	0	46	0	161480704	60	25152
2026-01-29 22:11:30.03	27.80	11.96	-53.4	-56.2	18.8	0.00e+00	0	46	0	163577856	60	25230
2026-01-29 22:11:31.04	27.87	12.04	-53.1	-55.9	19.0	0.00e+00	0	46	0	165675008	60	24372
2026-01-29 22:11:32.05	27.94	12.13	-53.2	-55.6	19.5	0.00e+00	0	46	0	167772160	60	23638
2026-01-29 22:11:33.06	28.02	12.22	-53.5	-55.6	19.5	0.00e+00	0	46	0	169869312	60	23741
2026-01-29 22:11:34.06	28.09	12.31	-53.6	-55.6	19.6	0.00e+00	0	46	0	171966464	60	23684
2026-01-29 22:11:35.07	28.16	12.40	-53.2	-55.6	19.6	0.00e+00	0	46	0	173015040	60	23520
2026-01-29 22:11:36.07	28.24	12.49	-53.1	-55.4	19.6	0.00e+00	0	46	0	175112192	60	23000
2026-01-29 22:11:37.08	28.31	12.58	-53.3	-55.6	19.8	0.00e+00	0	46	0	177209344	60	23609
2026-01-29 22:11:38.09	28.39	12.67	-53.3	-55.5	19.9	0.00e+00	0	46	0	179306496	60	23390
2026-01-29 22:11:39.10	28.47	12.76	-53.2	-55.4	19.9	0.00e+00	0	46	0	181403648	60	23092
2026-01-29 22:11:40.10	28.54	12.85	-53.1	-55.5	19.6	0.00e+00	0	46	0	182452224	60	23413
2026-01-29 22:11:41.11	28.62	12.94	-52.8	-55.4	19.6	0.00e+00	0	46	0	184549376	60	22993
2026-01-29 22:11:42.12	28.70	13.03	-52.8	-55.5	19.4	0.00e+00	0	46	0	186646528	60	23411
2026-01-29 22:11:43.12	28.77	13.12	-53.0	-55.6	19.6	0.00e+00	0	46	0	188743680	60	23536
2026-01-29 22:11:44.13	28.85	13.21	-53.2	-55.5	19.7	0.00e+00	0	46	0	189792256	60	23410
2026-01-29 22:11:45.13	28.93	13.30	-53.7	-55.8	19.4	0.00e+00	0	46	0	191889408	60	24058
2026-01-29 22:11:46.14	29.01	13.39	-53.5	-55.8	18.3	0.00e+00	0	46	0	193986560	60	24053
2026-01-29 22:11:47.14	29.09	13.48	-53.1	-55.8	17.5	0.00e+00	0	46	0	196083712	60	24239
2026-01-29 22:11:48.15	29.17	13.58	-52.9	-56.0	17.0	0.00e+00	0	46	0	198180864	60	24749
2026-01-29 22:11:49.16	29.25	13.67	-52.7	-55.7	17.4	0.00e+00	0	46	0	200278016	60	23777
2026-01-29 22:11:50.16	29.33	13.76	-53.0	-55.8	17.6	0.00e+00	0	46	0	201326592	60	24166
2026-01-29 22:11:51.16	29.41	13.85	-53.2	-55.7	18.2	0.00e+00	0	46	0	203423744	60	23944
2026-01-29 22:11:52.17	29.49	13.95	-53.4	-55.7	18.7	0.00e+00	0	46	0	205520896	60	23767
2026-01-29 22:11:53.18	29.58	14.04	-53.7	-55.7	19.3	0.00e+00	0	46	0	207618048	60	23842
2026-01-29 22:11:54.19	29.66	14.14	-53.8	-55.7	19.8	0.00e+00	0	46	0	209715200	60	23767
2026-01-29 22:11:55.20	29.74	14.23	-53.9	-55.8	19.5	0.00e+00	0	46	0	210763776	60	24295
2026-01-29 22:11:56.20	29.83	14.33	-53.6	-55.8	19.3	0.00e+00	0	46	0	212860928	60	24144
2026-01-29 22:11:57.21	29.91	14.42	-53.1	-55.7	18.6	0.00e+00	0	46	0	214958080	60	23988
2026-01-29 22:11:58.22	30.00	14.52	-52.7	-55.8	18.0	0.00e+00	0	46	0	217055232	60	24132
2026-01-29 22:11:59.22	30.08	14.61	-52.4	-55.8	17.5	0.00e+00	0	46	0	218103808	60	24113
2026-01-29 22:12:00.23	30.17	14.71	-52.3	-55.9	17.3	0.00e+00	0	46	0	220200960	60	24453
2026-01-29 22:12:01.23	30.25	14.81	-52.3	-56.1	17.2	0.00e+00	0	46	0	222298112	60	25044
2026-01-29 22:12:02.24	30.34	14.90	-52.3	-56.0	17.5	0.00e+00	0	46	0	224395264	60	24822
2026-01-29 22:12:03.25	30.43	15.00	-52.5	-56.1	17.7	0.00e+00	0	46	0	226492416	60	25015
2026-01-29 22:12:04.26	30.52	15.10	-52.7	-56.3	18.1	0.00e+00	0	46	0	228589568	60	25534
2026-01-29 22:12:05.27	30.60	15.20	-53.1	-56.5	18.3	0.00e+00	0	46	0	229638144	60	26164
2026-01-29 22:12:06.28	30.69	15.30	-53.2	-56.6	18.3	0.00e+00	0	46	0	231735296	60	26452
2026-01-29 22:12:07.28	30.78	15.39	-53.1	-56.5	18.5	0.00e+00	0	46	0	233832448	60	26272
2026-01-29 22:12:08.29	30.87	15.49	-53.0	-56.6	18.4	0.00e+00	0	46	0	235929600	60	26577
2026-01-29 22:12:09.30	30.96	15.59	-52.7	-56.6	18.2	0.00e+00	0	46	0	238026752	60	26508
2026-01-29 22:12:10.31	31.06	15.69	-52.6	-56.7	18.4	0.00e+00	0	46	0	239075328	60	26742
2026-01-29 22:12:11.31	31.15	15.79	-52.9	-56.6	18.9	0.00e+00	0	46	0	241172480	60	26470
2026-01-29 22:12:12.31	31.24	15.89	-53.8	-56.6	19.2	0.00e+00	0	46	0	243269632	60	26417
2026-01-29 22:12:13.32	31.33	15.99	-54.0	-56.4	19.5	0.00e+00	0	46	0	245366784	60	25848
2026-01-29 22:12:14.32	31.43	16.09	-54.6	-56.4	19.5	0.00e+00	0	46	0	246415360	60	25889
2026-01-29 22:12:15.33	31.52	16.19	-54.7	-56.6	19.4	0.00e+00	0	46	0	248512512	60	26337
2026-01-29 22:12:16.34	31.62	16.30	-54.6	-56.4	19.7	0.00e+00	0	46	0	250609664	60	25962
2026-01-29 22:12:17.34	31.71	16.40	-54.6	-56.5	19.7	0.00e+00	0	46	0	252706816	60	26157
2026-01-29 22:12:18.34	31.81	16.50	-54.8	-56.7	19.4	0.00e+00	0	46	0	254803968	60	26899
2026-01-29 22:12:19.35	31.90	16.60	-54.7	-56.6	19.6	0.00e+00	0	46	0	256901120	60	26507
2026-01-29 22:12:20.35	32.00	16.70	-54.8	-56.6	19.5	0.00e+00	0	46	0	257949696	60	26555
2026-01-29 22:12:21.36	32.10	16.81	-54.9	-56.7	19.1	0.00e+00	0	46	0	260046848	60	26920
2026-01-29 22:12:22.37	32.20	16.91	-54.6	-56.5	19.1	0.00e+00	0	46	0	262144000	60	26189
2026-01-29 22:12:23.37	32.30	17.02	-54.5	-56.5	19.4	0.00e+00	0	46	0	264241152	60	26055
2026-01-29 22:12:24.38	32.40	17.12	-54.6	-56.6	19.5	0.00e+00	0	46	0	266338304	60	26380
2026-01-29 22:12:25.38	32.50	17.23	-54.5	-56.4	19.7	0.00e+00	0	46	0	267386880	60	25891
2026-01-29 22:12:26.39	32.60	17.33	-54.7	-56.6	19.5	0.00e+00	0	46	0	269484032	60	26590
2026-01-29 22:12:27.39	32.70	17.44	-54.5	-56.5	19.4	0.00e+00	0	46	0	271581184	60	26309
2026-01-29 22:12:28.40	32.80	17.54	-54.4	-56.6	19.3	0.00e+00	0	46	0	273678336	60	26362
2026-01-29 22:12:29.41	32.91	17.65	-54.4	-56.7	19.2	0.00e+00	0	46	0	274726912	60	26712
2026-01-29 22:12:30.41	33.01	17.76	-54.2	-56.5	19.5	0.00e+00	0	46	0	276824064	60	26185
2026-01-29 22:12:31.42	33.12	17.86	-54.2	-56.4	19.7	0.00e+00	0	46	0	278921216	60	25972
2026-01-29 22:12:32.43	33.22	17.97	-54.2	-56.2	20.2	0.00e+00	0	46	0	281018368	60	25337
2026-01-29 22:12:33.43	33.33	18.08	-54.4	-56.4	19.9	0.00e+00	0	46	0	283115520	60	25817
2026-01-29 22:12:34.44	33.44	18.19	-54.2	-56.2	19.6	0.00e+00	0	46	0	284164096	60	25168
2026-01-29 22:12:35.44	33.54	18.29	-54.0	-56.0	19.6	0.00e+00	0	46	0	286261248	60	24749
2026-01-29 22:12:36.45	33.65	18.40	-54.2	-56.4	19.6	0.00e+00	0	46	0	288358400	60	25853
2026-01-29 22:12:37.46	33.76	18.51	-54.0	-56.1	19.9	0.00e+00	0	46	0	290455552	60	24895
2026-01-29 22:12:38.47	33.87	18.62	-54.2	-56.2	19.8	0.00e+00	0	46	0	292552704	60	25315
2026-01-29 22:12:39.48	33.98	18.74	-54.4	-56.3	19.7	0.00e+00	0	46	0	294649856	60	25568
2026-01-29 22:12:40.48	34.09	18.85	-54.5	-56.4	19.4	0.00e+00	0	46	0	295698432	60	25875
2026-01-29 22:12:41.49	34.21	18.96	-54.4	-56.2	19.4	0.00e+00	0	46	0	297795584	60	25297
2026-01-29 22:12:42.50	34.32	19.07	-54.3	-56.1	19.5	0.00e+00	0	46	0	299892736	60	25068
2026-01-29 22:12:43.51	34.43	19.18	-54.4	-56.2	19.5	0.00e+00	0	46	0	301989888	60	25334
2026-01-29 22:12:44.51	34.55	19.29	-54.4	-56.4	19.8	0.00e+00	0	46	0	303038464	60	25877
2026-01-29 22:12:45.52	34.66	19.41	-54.3	-56.4	19.7	0.00e+00	0	46	0	305135616	60	25839
2026-01-29 22:12:46.53	34.78	19.52	-54.1	-56.3	19.5	0.00e+00	0	46	0	307232768	60	25689
2026-01-29 22:12:47.53	34.90	19.63	-54.0	-56.4	18.8	0.00e+00	0	46	0	309329920	60	25982
2026-01-29 22:12:48.54	35.01	19.75	-54.0	-56.3	18.6	0.00e+00	0	46	0	311427072	60	25660
2026-01-29 22:12:49.55	35.13	19.86	-54.2	-56.5	18.5	0.00e+00	0	46	0	312475648	60	26233
2026-01-29 22:12:50.55	35.25	19.97	-54.3	-56.5	18.8	0.00e+00	0	46	0	314572800	60	26265
2026-01-29 22:12:51.56	35.37	20.09	-54.4	-56.5	18.8	0.00e+00	0	46	0	316669952	60	26190
2026-01-29 22:12:52.57	35.50	20.21	-54.5	-56.6	18.8	0.00e+00	0	46	0	318767104	60	26608
2026-01-29 22:12:53.58	35.62	20.32	-54.1	-56.6	18.6	0.00e+00	0	46	0	320864256	60	26571
2026-01-29 22:12:54.59	35.74	20.44	-53.1	-56.9	17.7	0.00e+00	0	46	0	322961408	60	27364
2026-01-29 22:12:55.60	35.87	20.56	-52.3	-56.8	17.2	0.00e+00	0	46	0	324009984	60	27173
2026-01-29 22:12:56.60	35.99	20.67	-51.0	-56.7	16.1	0.00e+00	0	46	0	326107136	60	26876
2026-01-29 22:12:57.61	36.12	20.79	-50.6	-57.0	15.0	0.00e+00	0	46	0	328204288	60	27830
2026-01-29 22:12:58.62	36.24	20.91	-50.3	-57.2	14.4	7.00e-07	0	46	0	330301440	60	28462
2026-01-29 22:12:59.63	36.37	21.03	-50.2	-56.9	14.6	0.00e+00	0	46	0	331350016	60	27503
2026-01-29 22:13:00.63	36.50	21.15	-50.5	-57.1	15.0	0.00e+00	0	46	0	333447168	60	27899
2026-01-29 22:13:01.64	36.63	21.27	-50.9	-57.3	15.4	0.00e+00	0	46	0	335544320	60	28742
2026-01-29 22:13:02.64	36.76	21.39	-51.3	-57.4	16.4	0.00e+00	0	46	0	337641472	60	29018
2026-01-29 22:13:03.65	36.89	21.51	-51.8	-57.3	17.0	0.00e+00	0	46	0	339738624	60	28869
2026-01-29 22:13:04.66	37.03	21.63	-52.3	-57.9	17.3	0.00e+00	0	46	0	341835776	60	30748
2026-01-29 22:13:05.66	37.16	21.75	-52.6	-57.5	18.1	0.00e+00	0	46	0	342884352	60	29318
2026-01-29 22:13:06.67	37.29	21.87	-53.0	-57.5	18.1	0.00e+00	0	46	0	344981504	60	29533
2026-01-29 22:13:07.67	37.43	21.99	-53.4	-58.0	17.9	0.00e+00	0	46	0	347078656	60	31147
2026-01-29 22:13:08.68	37.57	22.11	-53.6	-57.7	17.9	0.00e+00	0	46	0	349175808	60	30205
2026-01-29 22:13:09.68	37.70	22.24	-54.0	-57.9	17.7	0.00e+00	0	46	0	351272960	60	30841
2026-01-29 22:13:10.69	37.84	22.36	-54.2	-57.3	18.5	0.00e+00	0	46	0	352321536	60	28664
2026-01-29 22:13:11.69	37.98	22.48	-54.3	-57.2	18.8	0.00e+00	0	46	0	354418688	60	28242
2026-01-29 22:13:12.70	38.12	22.61	-54.3	-57.2	18.8	0.00e+00	0	46	0	356515840	60	28378
2026-01-29 22:13:13.71	38.26	22.73	-54.3	-57.5	18.5	0.00e+00	0	46	0	358612992	60	29372
2026-01-29 22:13:14.71	38.41	22.86	-54.1	-57.3	18.3	0.00e+00	0	46	0	359661568	60	28795
2026-01-29 22:13:15.72	38.55	22.98	-54.0	-57.4	18.1	0.00e+00	0	46	0	361758720	60	29088
2026-01-29 22:13:16.73	38.70	23.11	-53.9	-57.5	17.8	0.00e+00	0	46	0	363855872	60	29550
2026-01-29 22:13:17.73	38.84	23.23	-53.1	-57.0	17.8	0.00e+00	0	46	0	365953024	60	27763
2026-01-29 22:13:18.74	38.99	23.36	-52.7	-57.3	17.0	0.00e+00	0	46	0	368050176	60	28691
2026-01-29 22:13:19.75	39.14	23.49	-52.4	-57.3	16.5	0.00e+00	0	46	0	369098752	60	28797
2026-01-29 22:13:20.75	39.29	23.61	-52.4	-57.4	16.2	0.00e+00	0	46	0	371195904	60	28924
2026-01-29 22:13:21.75	39.44	23.74	-53.3	-56.9	16.9	0.00e+00	0	46	0	373293056	60	27552
2026-01-29 22:13:22.76	39.59	23.87	-54.4	-56.9	18.0	0.00e+00	0	46	0	375390208	60	27285
2026-01-29 22:13:23.77	39.75	24.00	-54.8	-57.1	18.9	0.00e+00	0	46	0	377487360	60	27928
2026-01-29 22:13:24.77	39.90	24.13	-53.7	-57.0	19.5	0.00e+00	0	46	0	379584512	60	27870
2026-01-29 22:13:25.78	40.06	24.26	-52.2	-57.0	19.1	0.00e+00	0	46	0	380633088	60	27673
2026-01-29 22:13:26.79	40.22	24.39	-51.1	-57.0	17.9	0.00e+00	0	46	0	382730240	60	27707
2026-01-29 22:13:27.80	40.37	24.52	-50.3	-56.6	16.7	0.00e+00	0	46	0	384827392	60	26619
2026-01-29 22:13:28.80	40.53	24.65	-50.1	-56.4	15.8	0.00e+00	0	46	0	386924544	60	26019
2026-01-29 22:13:29.81	40.70	24.78	-50.7	-56.6	15.6	0.00e+00	0	46	0	387973120	60	26337
2026-01-29 22:13:30.82	40.86	24.91	-51.6	-56.8	16.2	0.00e+00	0	46	0	390070272	60	27082
2026-01-29 22:13:31.82	41.02	25.05	-52.9	-56.5	17.7	0.00e+00	0	46	0	392167424	60	26218
2026-01-29 22:13:32.82	41.19	25.18	-54.3	-56.6	19.0	0.00e+00	0	46	0	394264576	60	26605
2026-01-29 22:13:33.83	41.35	25.31	-54.4	-56.4	19.6	0.00e+00	0	46	0	396361728	60	26034
2026-01-29 22:13:34.83	41.52	25.44	-53.7	-56.7	19.4	0.00e+00	0	46	0	397410304	60	26655
2026-01-29 22:13:35.84	41.69	25.58	-53.4	-57.1	18.9	0.00e+00	0	46	0	399507456	60	28007
2026-01-29 22:13:36.85	41.86	25.71	-53.0	-57.3	18.1	0.00e+00	0	46	0	401604608	60	28810
2026-01-29 22:13:37.86	42.03	25.85	-53.0	-57.5	17.6	0.00e+00	0	46	0	403701760	60	29508
2026-01-29 22:13:38.86	42.21	25.98	-53.4	-57.6	17.5	0.00e+00	0	46	0	405798912	60	29601
2026-01-29 22:13:39.87	42.38	26.12	-54.3	-57.9	17.5	0.00e+00	0	46	0	407896064	60	30735
2026-01-29 22:13:40.87	42.56	26.25	-55.1	-57.9	18.0	0.00e+00	0	46	0	408944640	60	30752
2026-01-29 22:13:41.87	42.73	26.39	-55.7	-58.0	18.3	0.00e+00	0	46	0	411041792	60	31044
2026-01-29 22:13:42.88	42.91	26.53	-55.7	-57.5	19.2	0.00e+00	0	46	0	413138944	60	29461
2026-01-29 22:13:43.88	43.09	26.66	-55.5	-57.3	19.6	0.00e+00	0	46	0	415236096	60	28616
2026-01-29 22:13:44.89	43.28	26.80	-55.2	-56.8	19.9	0.00e+00	0	46	0	416284672	60	27224
2026-01-29 22:13:45.90	43.46	26.94	-55.0	-56.6	20.1	0.00e+00	0	46	0	418381824	60	26428
2026-01-29 22:13:46.90	43.64	27.08	-54.9	-56.5	20.1	0.00e+00	0	46	0	420478976	60	26221
2026-01-29 22:13:47.91	43.83	27.22	-54.8	-56.6	20.1	0.00e+00	0	46	0	422576128	60	26411
2026-01-29 22:13:48.91	44.02	27.36	-54.8	-56.8	20.0	0.00e+00	0	46	0	424673280	60	27011
2026-01-29 22:13:49.92	44.21	27.50	-54.0	-56.8	19.6	0.00e+00	0	46	0	425721856	60	26976
2026-01-29 22:13:50.92	44.40	27.63	-53.9	-57.1	18.9	0.00e+00	0	46	0	427819008	60	28213
2026-01-29 22:13:51.93	44.60	27.78	-54.2	-57.4	18.8	0.00e+00	0	46	0	429916160	60	28967
2026-01-29 22:13:52.94	44.79	27.92	-54.7	-57.4	18.9	0.00e+00	0	46	0	432013312	60	29003
2026-01-29 22:13:53.94	44.99	28.06	-55.2	-57.6	18.5	0.00e+00	0	46	0	434110464	60	29735
2026-01-29 22:13:54.95	45.19	28.20	-55.3	-58.0	17.9	0.00e+00	0	46	0	436207616	60	31144
2026-01-29 22:13:55.95	45.39	28.34	-55.5	-57.9	18.3	0.00e+00	0	46	0	437256192	60	30712
2026-01-29 22:13:56.96	45.59	28.48	-56.0	-58.2	18.6	0.00e+00	0	46	0	439353344	60	31780
2026-01-29 22:13:57.96	45.79	28.63	-56.2	-58.7	18.1	0.00e+00	0	46	0	441450496	60	33812
2026-01-29 22:13:58.97	46.00	28.77	-55.6	-57.9	18.8	0.00e+00	0	46	0	443547648	60	30632
2026-01-29 22:13:59.98	46.21	28.91	-55.2	-57.4	19.4	0.00e+00	0	46	0	444596224	60	28944
2026-01-29 22:14:00.99	46.42	29.06	-55.1	-57.5	19.0	0.00e+00	0	45	0	446693376	60	29347
2026-01-29 22:14:01.99	46.63	29.20	-54.6	-57.5	18.4	0.00e+00	0	46	0	448790528	60	29270
2026-01-29 22:14:03.00	46.84	29.34	-54.3	-57.8	17.9	0.00e+00	0	46	0	450887680	60	30346
2026-01-29 22:14:04.00	47.05	29.49	-54.4	-58.2	17.3	0.00e+00	0	46	0	452984832	60	31834
2026-01-29 22:14:05.00	47.27	29.63	-54.6	-58.5	17.1	0.00e+00	0	46	0	454033408	60	32883
2026-01-29 22:14:06.01	47.49	29.78	-55.5	-59.2	17.1	0.00e+00	0	46	0	456130560	60	35567
2026-01-29 22:14:07.01	47.71	29.92	-56.8	-59.5	17.4	0.00e+00	0	46	0	458227712	60	36924
2026-01-29 22:14:08.02	47.93	30.07	-57.1	-59.9	16.9	0.00e+00	0	46	0	460324864	60	38722
2026-01-29 22:14:09.02	48.15	30.21	-56.7	-59.9	17.0	0.00e+00	0	46	0	462422016	60	38780
2026-01-29 22:14:10.03	48.38	30.36	-56.4	-59.4	17.5	0.00e+00	0	46	0	463470592	60	36364
2026-01-29 22:14:11.04	48.61	30.51	-56.8	-59.4	17.5	0.00e+00	0	46	0	465567744	60	36732
2026-01-29 22:14:12.03	48.84	30.65	-56.6	-58.9	18.0	0.00e+00	0	46	0	467664896	60	34526
2026-01-29 22:14:13.04	49.07	30.80	-56.5	-58.6	18.3	0.00e+00	0	46	0	469762048	60	33341
2026-01-29 22:14:14.04	49.30	30.95	-56.3	-58.2	18.7	0.00e+00	0	46	0	471859200	60	31902
2026-01-29 22:14:15.05	49.54	31.10	-56.1	-58.0	18.9	0.00e+00	0	46	0	472907776	60	31281
2026-01-29 22:14:16.05	49.78	31.24	-56.2	-58.3	18.6	0.00e+00	0	46	0	475004928	60	32273
2026-01-29 22:14:17.06	50.02	31.39	-56.6	-58.6	18.4	0.00e+00	0	46	0	477102080	60	33243
2026-01-29 22:14:18.06	50.26	31.54	-56.3	-58.3	18.6	0.00e+00	0	46	0	479199232	60	32359
2026-01-29 22:14:19.07	50.51	31.69	-55.6	-57.7	19.2	0.00e+00	0	46	0	481296384	60	30194
2026-01-29 22:14:20.07	50.75	31.84	-55.5	-57.6	19.2	0.00e+00	0	46	0	482344960	60	29790
2026-01-29 22:14:21.08	51.01	31.99	-55.8	-57.6	19.4	0.00e+00	0	46	0	484442112	60	29656
2026-01-29 22:14:22.08	51.26	32.13	-55.4	-57.4	19.4	0.00e+00	0	46	0	486539264	60	29166
2026-01-29 22:14:23.09	51.51	32.28	-54.9	-57.6	18.7	0.00e+00	0	46	0	488636416	60	29736
2026-01-29 22:14:24.10	51.77	32.43	-54.5	-57.8	18.2	0.00e+00	0	46	0	490733568	60	30320
2026-01-29 22:14:25.10	52.03	32.58	-54.7	-58.0	18.1	0.00e+00	0	46	0	491782144	60	31188
2026-01-29 22:14:26.11	52.29	32.73	-54.8	-58.2	18.1	0.00e+00	0	46	0	493879296	60	31763
2026-01-29 22:14:27.12	52.55	32.88	-55.0	-58.5	18.5	0.00e+00	0	46	0	495976448	60	32830
2026-01-29 22:14:28.12	52.82	33.03	-55.0	-58.1	18.5	0.00e+00	0	46	0	498073600	60	31313
2026-01-29 22:14:29.13	53.09	33.18	-55.3	-57.6	19.3	0.00e+00	0	46	0	500170752	60	29614
2026-01-29 22:14:30.14	53.36	33.33	-55.7	-57.6	19.7	0.00e+00	0	46	0	501219328	60	29726
2026-01-29 22:14:31.15	53.63	33.48	-55.8	-57.6	19.6	0.00e+00	0	46	0	503316480	60	29884
2026-01-29 22:14:32.16	53.91	33.63	-56.1	-58.0	19.2	0.00e+00	0	46	0	505413632	60	31099
2026-01-29 22:14:33.17	54.19	33.78	-56.6	-58.5	18.9	0.00e+00	0	46	0	507510784	60	32818
2026-01-29 22:14:34.17	54.47	33.93	-56.9	-58.8	18.8	0.00e+00	0	46	0	509607936	60	34136
2026-01-29 22:14:35.18	54.75	34.08	-57.1	-59.3	18.1	0.00e+00	0	46	0	510656512	60	36329
2026-01-29 22:14:36.19	55.04	34.23	-56.4	-58.7	18.3	0.00e+00	0	46	0	512753664	60	33693
2026-01-29 22:14:37.20	55.33	34.38	-56.2	-58.3	19.0	0.00e+00	0	46	0	514850816	60	32350
2026-01-29 22:14:38.20	55.62	34.53	-56.0	-57.7	19.6	0.00e+00	0	46	0	516947968	60	30233
2026-01-29 22:14:39.20	55.91	34.68	-56.1	-57.8	19.6	0.00e+00	0	46	0	519045120	60	30287
2026-01-29 22:14:40.21	56.21	34.83	-56.3	-58.1	19.4	0.00e+00	0	46	0	520093696	60	31504
2026-01-29 22:14:41.22	56.51	34.98	-56.3	-58.2	19.2	0.00e+00	0	46	0	522190848	60	31896
2026-01-29 22:14:42.22	56.81	35.13	-57.2	-59.3	18.7	0.00e+00	0	46	0	524288000	60	36137
2026-01-29 22:14:43.23	57.12	35.28	-57.5	-59.5	18.4	0.00e+00	0	46	0	526385152	60	37111
2026-01-29 22:14:44.23	57.42	35.43	-57.2	-59.1	19.0	0.00e+00	0	46	0	528482304	60	35212
2026-01-29 22:14:45.23	57.73	35.58	-57.2	-59.1	19.0	0.00e+00	0	46	0	529530880	60	35122
2026-01-29 22:14:46.24	58.05	35.72	-57.7	-59.7	18.3	0.00e+00	0	46	0	531628032	60	37761
2026-01-29 22:14:47.25	58.36	35.87	-57.7	-59.7	18.3	0.00e+00	0	46	0	533725184	60	38068
2026-01-29 22:14:48.26	58.68	36.02	-57.8	-60.1	17.9	0.00e+00	0	46	0	535822336	60	39774
2026-01-29 22:14:49.27	59.01	36.17	-57.2	-59.2	18.6	0.00e+00	0	46	0	537919488	60	35906
2026-01-29 22:14:50.28	59.33	36.32	-56.8	-58.6	19.4	0.00e+00	0	46	0	538968064	60	33336
2026-01-29 22:14:51.28	59.66	36.46	-56.2	-57.8	20.0	0.00e+00	0	46	0	541065216	60	30545
2026-01-29 22:14:52.29	59.99	36.61	-56.3	-57.9	20.0	0.00e+00	0	46	0	543162368	60	30778
2026-01-29 22:14:53.29	60.32	36.76	-56.7	-58.4	19.4	0.00e+00	0	46	0	545259520	60	32707
2026-01-29 22:14:54.30	60.66	36.90	-57.1	-58.9	19.0	0.00e+00	0	46	0	547356672	60	34604
2026-01-29 22:14:55.31	61.00	37.05	-57.5	-59.8	18.3	0.00e+00	0	46	0	548405248	60	38079
2026-01-29 22:14:56.32	61.34	37.19	-57.7	-60.3	17.7	0.00e+00	0	46	0	550502400	60	40484
2026-01-29 22:14:57.32	61.68	37.34	-58.1	-60.6	17.5	0.00e+00	0	46	0	552599552	60	42022
2026-01-29 22:14:58.33	62.03	37.48	-58.0	-60.3	17.8	0.00e+00	0	46	0	554696704	60	40372
2026-01-29 22:14:59.33	62.38	37.63	-57.7	-59.8	18.1	0.00e+00	0	46	0	556793856	60	38201
2026-01-29 22:15:00.34	62.74	37.77	-57.6	-59.7	18.5	0.00e+00	0	46	0	557842432	60	37997
2026-01-29 22:15:01.35	63.10	37.91	-58.0	-60.2	17.8	0.00e+00	0	46	0	559939584	60	40163
2026-01-29 22:15:02.36	63.46	38.05	-58.0	-60.1	18.0	0.00e+00	0	46	0	562036736	60	39793
2026-01-29 22:15:03.37	63.83	38.19	-58.1	-60.2	18.2	0.00e+00	0	46	0	564133888	60	40199
2026-01-29 22:15:04.38	64.19	38.34	-58.1	-60.2	18.1	0.00e+00	0	46	0	566231040	60	40130
2026-01-29 22:15:05.38	64.56	38.47	-58.2	-60.4	18.0	0.00e+00	0	46	0	567279616	60	40818
2026-01-29 22:15:06.39	64.94	38.61	-58.2	-60.3	18.1	0.00e+00	0	46	0	569376768	60	40665
2026-01-29 22:15:07.40	65.31	38.75	-57.6	-59.7	18.7	0.00e+00	0	46	0	571473920	60	37727
2026-01-29 22:15:08.41	65.69	38.89	-57.5	-59.7	18.6	0.00e+00	0	46	0	573571072	60	37675
2026-01-29 22:15:09.41	66.07	39.03	-57.3	-59.2	19.1	0.00e+00	0	46	0	575668224	60	35846
2026-01-29 22:15:10.42	66.46	39.16	-57.0	-58.7	19.5	0.00e+00	0	46	0	576716800	60	33845
2026-01-29 22:15:11.42	66.85	39.30	-57.3	-59.0	19.4	0.00e+00	0	46	0	578813952	60	34768
2026-01-29 22:15:12.42	67.24	39.43	-57.3	-59.1	19.3	0.00e+00	0	46	0	580911104	60	35426
2026-01-29 22:15:13.43	67.63	39.56	-57.2	-59.0	19.4	0.00e+00	0	46	0	583008256	60	34721
2026-01-29 22:15:14.44	68.03	39.69	-57.4	-59.3	19.1	0.00e+00	0	46	0	585105408	60	36300
2026-01-29 22:15:15.45	68.44	39.82	-57.6	-59.5	18.7	0.00e+00	0	46	0	586153984	60	37005
2026-01-29 22:15:16.45	68.84	39.95	-57.7	-59.7	18.8	0.00e+00	0	46	0	588251136	60	37748
2026-01-29 22:15:17.46	69.25	40.08	-57.6	-59.7	18.7	0.00e+00	0	46	0	590348288	60	37792
2026-01-29 22:15:18.47	69.66	40.21	-57.6	-59.7	18.8	0.00e+00	0	46	0	592445440	60	37800
2026-01-29 22:15:19.48	70.08	40.34	-57.4	-59.3	19.1	0.00e+00	0	46	0	594542592	60	36184
2026-01-29 22:15:20.48	70.49	40.46	-57.2	-59.2	19.0	0.00e+00	0	46	0	595591168	60	35868
2026-01-29 22:15:21.48	70.91	40.58	-57.1	-58.9	19.3	0.00e+00	0	46	0	597688320	60	34680
2026-01-29 22:15:22.49	71.34	40.71	-57.2	-59.1	19.5	0.00e+00	0	46	0	599785472	60	35183
2026-01-29 22:15:23.50	71.77	40.83	-56.6	-58.3	19.9	0.00e+00	0	46	0	601882624	60	32270
2026-01-29 22:15:24.50	72.19	40.95	-56.6	-58.2	20.1	0.00e+00	0	46	0	603979776	60	31821
2026-01-29 22:15:25.51	72.63	41.07	-56.3	-57.8	20.3	0.00e+00	0	46	0	605028352	60	30272
2026-01-29 22:15:26.52	73.07	41.18	-56.1	-57.6	20.8	0.00e+00	0	46	0	607125504	60	29744
2026-01-29 22:15:27.52	73.50	41.30	-56.1	-57.6	20.5	0.00e+00	0	46	0	609222656	60	29863
2026-01-29 22:15:28.53	73.95	41.41	-56.5	-58.2	19.4	0.00e+00	0	46	0	611319808	60	31821
2026-01-29 22:15:29.54	74.40	41.53	-57.0	-58.7	19.7	0.00e+00	0	46	0	613416960	60	33856
2026-01-29 22:15:30.55	74.85	41.64	-57.2	-58.9	19.5	0.00e+00	0	46	0	614465536	60	34474
2026-01-29 22:15:31.55	75.30	41.75	-57.2	-59.0	19.5	0.00e+00	0	46	0	616562688	60	34776
2026-01-29 22:15:32.56	75.75	41.85	-57.1	-58.9	19.4	0.00e+00	0	46	0	618659840	60	34492
2026-01-29 22:15:33.56	76.21	41.96	-57.1	-59.0	19.4	0.00e+00	0	46	0	620756992	60	34776
2026-01-29 22:15:34.57	76.67	42.06	-57.3	-59.2	19.4	0.00e+00	0	46	0	622854144	60	35699
2026-01-29 22:15:35.57	77.13	42.16	-56.8	-58.7	19.6	0.00e+00	0	46	0	623902720	60	33894
2026-01-29 22:15:36.58	77.60	42.27	-56.7	-58.6	19.7	0.00e+00	0	46	0	625999872	60	33503
2026-01-29 22:15:37.59	78.07	42.37	-56.6	-58.6	19.7	0.00e+00	0	46	0	628097024	60	33460
2026-01-29 22:15:38.59	78.54	42.46	-56.7	-58.8	19.3	0.00e+00	0	46	0	630194176	60	34019
2026-01-29 22:15:39.60	79.02	42.56	-57.0	-59.0	19.2	0.00e+00	0	46	0	632291328	60	35010
2026-01-29 22:15:40.61	79.50	42.65	-57.2	-59.1	19.2	0.00e+00	0	46	0	633339904	60	35144
2026-01-29 22:15:41.62	79.98	42.74	-57.7	-59.7	18.6	0.00e+00	0	46	0	635437056	60	37923
2026-01-29 22:15:42.63	80.47	42.83	-57.8	-60.0	18.4	0.00e+00	0	46	0	637534208	60	39031
2026-01-29 22:15:43.63	80.95	42.92	-58.0	-60.3	18.0	0.00e+00	0	46	0	639631360	60	40714
2026-01-29 22:15:44.64	81.44	43.00	-57.8	-60.1	18.2	0.00e+00	0	46	0	641728512	60	39423
2026-01-29 22:15:45.64	81.93	43.09	-57.1	-58.9	19.4	0.00e+00	0	46	0	642777088	60	34553
2026-01-29 22:15:46.65	82.42	43.17	-56.8	-58.5	19.8	0.00e+00	0	46	0	644874240	60	32963
2026-01-29 22:15:47.66	82.92	43.25	-56.2	-57.6	20.6	0.00e+00	0	46	0	646971392	60	29813
2026-01-29 22:15:48.67	83.42	43.32	-56.1	-57.5	20.7	0.00e+00	0	46	0	649068544	60	29377
2026-01-29 22:15:49.68	83.93	43.40	-56.5	-58.0	20.3	0.00e+00	0	46	0	651165696	60	31294
2026-01-29 22:15:50.68	84.43	43.47	-56.8	-58.5	19.9	0.00e+00	0	46	0	652214272	60	32861
2026-01-29 22:15:51.69	84.93	43.54	-57.2	-59.0	19.3	0.00e+00	0	46	0	654311424	60	35090
2026-01-29 22:15:52.70	85.44	43.61	-57.4	-59.3	19.0	0.00e+00	0	46	0	656408576	60	35978
2026-01-29 22:15:53.70	85.95	43.67	-57.4	-59.2	19.4	0.00e+00	0	46	0	658505728	60	35546
2026-01-29 22:15:54.71	86.46	43.74	-58.0	-59.5	20.2	0.00e+00	0	46	0	660602880	60	37196
2026-01-29 22:15:55.72	86.98	43.80	-57.6	-59.2	19.8	0.00e+00	0	46	0	661651456	60	35755
2026-01-29 22:15:56.72	87.49	43.85	-58.2	-60.1	18.8	0.00e+00	0	46	0	663748608	60	39685
2026-01-29 22:15:57.73	88.01	43.91	-58.1	-60.1	18.7	0.00e+00	0	46	0	665845760	60	39722
2026-01-29 22:15:58.73	88.53	43.96	-58.0	-60.0	18.7	0.00e+00	0	46	0	667942912	60	39128
2026-01-29 22:15:59.73	89.05	44.01	-57.7	-59.6	19.1	0.00e+00	0	46	0	670040064	60	37472
2026-01-29 22:16:00.74	89.57	44.06	-57.7	-59.9	18.8	0.00e+00	0	46	0	671088640	60	38525
2026-01-29 22:16:01.74	90.09	44.10	-57.3	-59.3	19.2	0.00e+00	0	46	0	673185792	60	36305
2026-01-29 22:16:02.75	90.62	44.15	-57.0	-58.8	19.7	0.00e+00	0	46	0	675282944	60	34110
2026-01-29 22:16:03.76	91.15	44.19	-56.7	-58.2	20.4	0.00e+00	0	46	0	677380096	60	31903
2026-01-29 22:16:04.76	91.67	44.23	-56.8	-58.4	20.5	0.00e+00	0	46	0	679477248	60	32457
2026-01-29 22:16:05.77	92.20	44.26	-57.2	-58.9	19.9	0.00e+00	0	46	0	680525824	60	34555
2026-01-29 22:16:06.78	92.74	44.29	-57.7	-59.6	19.4	0.00e+00	0	46	0	682622976	60	37390
2026-01-29 22:16:07.78	93.26	44.32	-58.1	-60.1	18.6	0.00e+00	0	46	0	684720128	60	39550
2026-01-29 22:16:08.78	93.79	44.35	-58.1	-59.9	18.9	0.00e+00	0	46	0	686817280	60	38878
2026-01-29 22:16:09.79	94.33	44.38	-56.9	-58.3	20.5	0.00e+00	0	46	0	688914432	60	32312
2026-01-29 22:16:10.80	94.86	44.40	-55.7	-56.9	21.7	0.00e+00	0	46	0	689963008	60	27423
2026-01-29 22:16:11.80	95.40	44.42	-55.4	-56.7	21.8	0.00e+00	0	46	0	692060160	60	26699
2026-01-29 22:16:12.81	95.93	44.43	-55.4	-56.5	22.0	0.00e+00	0	46	0	694157312	60	26283
2026-01-29 22:16:13.82	96.47	44.45	-55.1	-56.2	22.2	0.00e+00	0	46	0	696254464	60	25433
2026-01-29 22:16:14.83	97.01	44.46	-55.5	-56.6	21.9	0.00e+00	0	46	0	698351616	60	26620
2026-01-29 22:16:15.84	97.55	44.47	-55.7	-56.9	21.5	0.00e+00	0	46	0	699400192	60	27512
2026-01-29 22:16:16.85	98.09	44.47	-56.3	-57.7	20.8	0.00e+00	0	46	0	701497344	60	30223
2026-01-29 22:16:17.86	98.63	44.47	-56.5	-58.1	20.3	0.00e+00	0	46	0	703594496	60	31388
2026-01-29 22:16:18.86	99.16	44.47	-56.3	-57.8	20.6	0.00e+00	0	46	0	705691648	60	30570
2026-01-29 22:16:19.87	99.70	44.47	-56.0	-57.5	20.9	0.00e+00	0	46	0	707788800	60	29462
2026-01-29 22:16:20.88	100.24	44.47	-55.9	-57.5	20.9	0.00e+00	0	46	0	708837376	60	29227
2026-01-29 22:16:21.88	100.77	44.46	-55.9	-57.6	20.8	0.00e+00	0	46	0	710934528	60	29658
2026-01-29 22:16:22.89	101.31	44.45	-56.4	-58.4	19.6	0.00e+00	0	46	0	713031680	60	32608
2026-01-29 22:16:23.90	101.85	44.43	-56.2	-58.2	19.8	0.00e+00	0	46	0	715128832	60	31934
2026-01-29 22:16:24.90	102.38	44.42	-55.4	-57.1	20.9	0.00e+00	0	46	0	717225984	60	28190
2026-01-29 22:16:25.90	102.91	44.40	-54.9	-56.5	21.2	0.00e+00	0	46	0	718274560	60	26284
2026-01-29 22:16:26.91	103.45	44.38	-54.9	-56.6	20.9	0.00e+00	0	46	0	720371712	60	26509
2026-01-29 22:16:27.92	103.99	44.35	-55.5	-57.3	20.6	0.00e+00	0	46	0	722468864	60	28829
2026-01-29 22:16:28.92	104.51	44.32	-56.0	-58.0	20.0	0.00e+00	0	46	0	724566016	60	31130
2026-01-29 22:16:29.93	105.05	44.29	-55.6	-57.4	20.8	0.00e+00	0	46	0	726663168	60	28935
2026-01-29 22:16:30.94	105.58	44.26	-55.7	-57.5	20.6	0.00e+00	0	46	0	727711744	60	29334
2026-01-29 22:16:31.95	106.11	44.23	-56.7	-58.9	19.4	0.00e+00	0	46	0	729808896	60	34440
2026-01-29 22:16:32.95	106.64	44.19	-57.5	-59.9	18.4	0.00e+00	0	46	0	731906048	60	38615
2026-01-29 22:16:33.96	107.17	44.15	-58.0	-60.5	17.9	0.00e+00	0	46	0	734003200	60	41467
2026-01-29 22:16:34.96	107.69	44.11	-57.7	-59.8	18.7	0.00e+00	0	46	0	736100352	60	38496
2026-01-29 22:16:35.97	108.22	44.06	-57.3	-59.3	19.1	0.00e+00	0	46	0	737148928	60	36112
2026-01-29 22:16:36.98	108.74	44.01	-57.7	-59.8	18.9	0.00e+00	0	46	0	739246080	60	38308
2026-01-29 22:16:37.99	109.26	43.96	-58.6	-61.1	17.6	0.00e+00	0	46	0	741343232	60	44646
2026-01-29 22:16:38.99	109.78	43.91	-58.8	-61.4	17.4	0.00e+00	0	46	0	743440384	60	46004
2026-01-29 22:16:40.00	110.30	43.85	-58.2	-60.4	18.4	0.00e+00	0	46	0	745537536	60	41127
2026-01-29 22:16:41.01	110.82	43.80	-58.0	-60.1	18.9	0.00e+00	0	46	0	746586112	60	39412
2026-01-29 22:16:42.01	111.33	43.74	-58.6	-61.0	18.1	0.00e+00	0	46	0	748683264	60	43833
2026-01-29 22:16:43.00	111.83	43.67	-59.0	-61.7	17.3	0.00e+00	0	46	0	750780416	60	47533
2026-01-29 22:16:44.01	112.35	43.61	-58.4	-60.7	18.2	0.00e+00	0	46	0	752877568	60	42583
2026-01-29 22:16:45.02	112.86	43.54	-57.5	-59.4	19.2	0.00e+00	0	46	0	754974720	60	36512
2026-01-29 22:16:46.03	113.37	43.47	-57.3	-59.1	19.8	0.00e+00	0	46	0	756023296	60	35282
2026-01-29 22:16:47.03	113.87	43.40	-58.2	-60.4	18.4	0.00e+00	0	46	0	758120448	60	40944
2026-01-29 22:16:48.03	114.36	43.32	-59.2	-62.1	16.3	0.00e+00	0	46	0	760217600	60	49940
2026-01-29 22:16:49.04	114.87	43.25	-59.6	-62.7	15.8	0.00e+00	0	46	0	762314752	60	53355
2026-01-29 22:16:50.05	115.36	43.17	-58.9	-61.5	17.0	0.00e+00	0	46	0	763363328	60	46787
2026-01-29 22:16:51.05	115.86	43.09	-58.7	-61.2	17.4	0.00e+00	0	46	0	765460480	60	45105
2026-01-29 22:16:52.05	116.35	43.01	-58.7	-61.4	16.9	0.00e+00	0	46	0	767557632	60	46277
2026-01-29 22:16:53.06	116.84	42.92	-58.8	-61.7	16.9	0.00e+00	0	46	0	769654784	60	47721
2026-01-29 22:16:54.06	117.32	42.83	-58.8	-61.6	17.2	0.00e+00	0	46	0	771751936	60	47168
2026-01-29 22:16:55.07	117.81	42.74	-57.8	-60.0	18.4	0.00e+00	0	46	0	773849088	60	39378
2026-01-29 22:16:56.08	118.29	42.65	-57.4	-59.4	19.0	0.00e+00	0	46	0	774897664	60	36720
2026-01-29 22:16:57.08	118.77	42.56	-57.9	-60.2	18.4	0.00e+00	0	46	0	776994816	60	40054
2026-01-29 22:16:58.08	119.24	42.46	-57.9	-60.2	18.4	0.00e+00	0	46	0	779091968	60	39984
2026-01-29 22:16:59.09	119.71	42.37	-57.4	-59.5	18.6	0.00e+00	0	46	0	781189120	60	36905
2026-01-29 22:17:00.10	120.19	42.27	-56.8	-58.7	19.7	0.00e+00	0	46	0	783286272	60	33567
2026-01-29 22:17:01.11	120.66	42.17	-56.3	-58.0	20.3	0.00e+00	0	46	0	784334848	60	31123
2026-01-29 22:17:02.12	121.12	42.06	-56.1	-57.7	20.5	0.00e+00	0	46	0	786432000	60	29989
2026-01-29 22:17:03.12	121.58	41.96	-56.2	-57.8	20.6	0.00e+00	0	46	0	788529152	60	30397
2026-01-29 22:17:04.13	122.04	41.85	-55.9	-57.4	20.9	0.00e+00	0	46	0	790626304	60	28964
2026-01-29 22:17:05.14	122.50	41.75	-55.9	-57.4	20.8	0.00e+00	0	46	0	791674880	60	29115
2026-01-29 22:17:06.15	122.96	41.64	-55.7	-57.2	21.0	0.00e+00	0	46	0	793772032	60	28437
2026-01-29 22:17:07.16	123.41	41.52	-55.5	-57.0	21.2	0.00e+00	0	46	0	795869184	60	27657
2026-01-29 22:17:08.16	123.85	41.41	-56.1	-57.7	20.7	0.00e+00	0	46	0	797966336	60	29983
2026-01-29 22:17:09.17	124.30	41.30	-56.7	-58.5	19.7	0.00e+00	0	46	0	800063488	60	32809
2026-01-29 22:17:10.18	124.74	41.18	-57.2	-59.0	19.3	0.00e+00	0	46	0	802160640	60	35052
2026-01-29 22:17:11.18	125.17	41.06	-56.5	-58.1	20.0	0.00e+00	0	46	0	803209216	60	31641
2026-01-29 22:17:12.18	125.60	40.95	-56.3	-57.8	20.4	0.00e+00	0	46	0	805306368	60	30439
2026-01-29 22:17:13.19	126.04	40.83	-56.5	-58.1	20.1	0.00e+00	0	46	0	807403520	60	31498
2026-01-29 22:17:14.19	126.46	40.71	-57.2	-58.9	19.4	0.00e+00	0	46	0	809500672	60	34649
2026-01-29 22:17:15.20	126.89	40.58	-58.1	-60.3	18.2	0.00e+00	0	46	0	811597824	60	40522
2026-01-29 22:17:16.21	127.31	40.46	-58.0	-60.0	18.5	0.00e+00	0	46	0	812646400	60	39126
2026-01-29 22:17:17.21	127.73	40.33	-57.3	-59.1	19.4	0.00e+00	0	46	0	814743552	60	35350
2026-01-29 22:17:18.22	128.15	40.21	-56.5	-58.1	20.2	0.00e+00	0	46	0	816840704	60	31617
2026-01-29 22:17:19.23	128.56	40.08	-56.6	-58.2	20.1	0.00e+00	0	46	0	818937856	60	31869
2026-01-29 22:17:20.24	128.97	39.95	-57.3	-59.0	19.5	0.00e+00	0	46	0	819986432	60	34948
2026-01-29 22:17:21.25	129.38	39.82	-57.7	-59.6	18.9	0.00e+00	0	46	0	822083584	60	37574
2026-01-29 22:17:22.25	129.78	39.69	-57.3	-59.0	19.4	0.00e+00	0	46	0	824180736	60	35016
2026-01-29 22:17:23.26	130.18	39.56	-56.9	-58.5	19.8	0.00e+00	0	46	0	826277888	60	32941
2026-01-29 22:17:24.27	130.58	39.42	-56.7	-58.2	20.1	0.00e+00	0	46	0	828375040	60	32023
2026-01-29 22:17:25.27	130.97	39.29	-57.2	-58.9	19.2	0.00e+00	0	46	0	830472192	60	34588
2026-01-29 22:17:26.28	131.36	39.15	-58.1	-60.2	18.2	0.00e+00	0	46	0	831520768	60	40311
2026-01-29 22:17:27.28	131.74	39.02	-58.2	-60.4	18.2	0.00e+00	0	46	0	833617920	60	40925
2026-01-29 22:17:28.29	132.13	38.88	-57.7	-59.7	18.8	0.00e+00	0	46	0	835715072	60	37738
2026-01-29 22:17:29.30	132.51	38.74	-56.6	-58.2	20.2	0.00e+00	0	46	0	837812224	60	31713
2026-01-29 22:17:30.30	132.88	38.60	-56.3	-57.9	20.3	0.00e+00	0	46	0	839909376	60	30631
2026-01-29 22:17:31.31	133.26	38.46	-56.1	-57.6	20.4	0.00e+00	0	46	0	840957952	60	29733
2026-01-29 22:17:32.32	133.63	38.32	-56.1	-57.6	20.6	0.00e+00	0	46	0	843055104	60	29753
2026-01-29 22:17:33.33	134.00	38.18	-55.6	-56.9	21.1	0.00e+00	0	46	0	845152256	60	27390
2026-01-29 22:17:34.34	134.36	38.04	-55.1	-56.4	21.4	0.00e+00	0	46	0	847249408	60	25838
2026-01-29 22:17:35.34	134.72	37.90	-56.0	-57.4	20.6	0.00e+00	0	46	0	848297984	60	29171
2026-01-29 22:17:36.35	135.08	37.76	-56.4	-58.0	20.0	0.00e+00	0	46	0	850395136	60	31165
2026-01-29 22:17:37.36	135.44	37.61	-56.3	-57.9	20.3	0.00e+00	0	46	0	852492288	60	30603
2026-01-29 22:17:38.36	135.79	37.47	-55.6	-57.0	20.8	0.00e+00	0	46	0	854589440	60	27624
2026-01-29 22:17:39.37	136.14	37.32	-55.1	-56.4	21.3	0.00e+00	0	46	0	856686592	60	25896
2026-01-29 22:17:40.38	136.49	37.18	-54.8	-56.0	21.6	0.00e+00	0	46	0	858783744	60	24803
2026-01-29 22:17:41.38	136.83	37.03	-55.0	-56.3	21.4	0.00e+00	0	46	0	859832320	60	25543
2026-01-29 22:17:42.39	137.17	36.89	-56.0	-57.5	20.3	0.00e+00	0	46	0	861929472	60	29408
2026-01-29 22:17:43.39	137.50	36.74	-57.1	-59.0	19.1	0.00e+00	0	46	0	864026624	60	34873
2026-01-29 22:17:44.40	137.84	36.60	-56.4	-58.1	19.8	0.00e+00	0	46	0	866123776	60	31383
2026-01-29 22:17:45.40	138.17	36.45	-55.1	-56.4	21.5	0.00e+00	0	46	0	868220928	60	25757
2026-01-29 22:17:46.41	138.50	36.30	-54.2	-55.3	22.2	0.00e+00	0	46	0	869269504	60	22795
2026-01-29 22:17:47.42	138.83	36.15	-54.0	-55.1	22.3	0.00e+00	0	46	0	871366656	60	22353
2026-01-29 22:17:48.42	139.15	36.00	-55.2	-56.5	20.9	0.00e+00	0	46	0	873463808	60	26060
2026-01-29 22:17:49.43	139.47	35.86	-56.4	-58.1	19.8	0.00e+00	0	46	0	875560960	60	31318
2026-01-29 22:17:50.43	139.78	35.71	-56.4	-58.1	19.7	0.00e+00	0	46	0	876609536	60	31379
2026-01-29 22:17:51.44	140.10	35.56	-55.8	-57.3	20.3	0.00e+00	0	46	0	878706688	60	28809
2026-01-29 22:17:52.45	140.41	35.41	-55.1	-56.5	21.0	0.00e+00	0	46	0	880803840	60	26153
2026-01-29 22:17:53.45	140.71	35.26	-55.5	-56.9	20.8	0.00e+00	0	46	0	882900992	60	27489
2026-01-29 22:17:54.46	141.02	35.11	-55.8	-57.3	20.2	0.00e+00	0	46	0	884998144	60	28570
2026-01-29 22:17:55.47	141.33	34.96	-56.9	-58.7	19.0	0.00e+00	0	46	0	887095296	60	33811
2026-01-29 22:17:56.47	141.62	34.81	-57.6	-59.8	17.9	0.00e+00	0	46	0	888143872	60	38092
2026-01-29 22:17:57.47	141.92	34.66	-58.1	-60.4	17.7	0.00e+00	0	46	0	890241024	60	41251
2026-01-29 22:17:58.48	142.21	34.51	-56.5	-58.2	19.6	0.00e+00	0	46	0	892338176	60	31866
2026-01-29 22:17:59.49	142.51	34.36	-55.1	-56.4	21.1	0.00e+00	0	46	0	894435328	60	25884
2026-01-29 22:18:00.50	142.80	34.21	-54.7	-55.9	21.5	0.00e+00	0	46	0	896532480	60	24448
2026-01-29 22:18:01.50	143.08	34.06	-55.0	-56.3	21.1	0.00e+00	0	46	0	897581056	60	25651
2026-01-29 22:18:02.51	143.37	33.91	-56.3	-57.9	19.7	0.00e+00	0	46	0	899678208	60	30839
2026-01-29 22:18:03.51	143.65	33.76	-58.1	-60.5	17.2	0.00e+00	0	46	0	901775360	60	41635
2026-01-29 22:18:04.51	143.93	33.61	-58.9	-61.9	16.1	0.00e+00	0	46	0	903872512	60	48614
2026-01-29 22:18:05.52	144.20	33.46	-57.9	-60.2	17.7	0.00e+00	0	46	0	904921088	60	40314
2026-01-29 22:18:06.52	144.48	33.31	-56.9	-58.7	18.9	0.00e+00	0	46	0	907018240	60	33851
2026-01-29 22:18:07.53	144.75	33.15	-56.3	-57.9	19.8	0.00e+00	0	46	0	909115392	60	30660
2026-01-29 22:18:08.53	145.02	33.01	-55.7	-57.1	20.5	0.00e+00	0	46	0	911212544	60	28010
2026-01-29 22:18:09.54	145.28	32.85	-56.3	-57.9	19.7	0.00e+00	0	46	0	913309696	60	30851
2026-01-29 22:18:10.55	145.55	32.70	-57.9	-60.1	17.7	0.00e+00	0	46	0	914358272	60	39809
2026-01-29 22:18:11.55	145.81	32.55	-58.6	-61.3	16.6	0.00e+00	0	46	0	916455424	60	45467
2026-01-29 22:18:12.56	146.07	32.40	-58.9	-61.8	16.0	0.00e+00	0	46	0	918552576	60	48364
2026-01-29 22:18:13.56	146.33	32.25	-57.8	-60.2	17.8	0.00e+00	0	46	0	920649728	60	40077
2026-01-29 22:18:14.57	146.58	32.10	-56.1	-57.7	20.0	0.00e+00	0	46	0	922746880	60	30181
2026-01-29 22:18:15.57	146.83	31.96	-55.5	-57.0	20.7	0.00e+00	0	46	0	924844032	60	27590
2026-01-29 22:18:16.58	147.08	31.81	-55.5	-56.9	20.5	0.00e+00	0	46	0	925892608	60	27468
2026-01-29 22:18:17.59	147.33	31.66	-55.8	-57.3	20.3	0.00e+00	0	46	0	927989760	60	28680
2026-01-29 22:18:18.60	147.58	31.51	-56.7	-58.5	19.1	0.00e+00	0	46	0	930086912	60	33076
2026-01-29 22:18:19.60	147.82	31.36	-57.5	-59.6	18.2	0.00e+00	0	46	0	932184064	60	37608
2026-01-29 22:18:20.61	148.06	31.21	-57.3	-59.3	18.3	0.00e+00	0	46	0	933232640	60	36295
2026-01-29 22:18:21.61	148.30	31.06	-56.6	-58.4	19.5	0.00e+00	0	46	0	935329792	60	32717
2026-01-29 22:18:22.62	148.54	30.91	-55.7	-57.2	20.4	0.00e+00	0	46	0	937426944	60	28369
2026-01-29 22:18:23.62	148.77	30.76	-55.5	-57.0	20.6	0.00e+00	0	46	0	939524096	60	27702
2026-01-29 22:18:24.63	149.01	30.62	-55.4	-56.8	20.6	0.00e+00	0	46	0	941621248	60	27143
2026-01-29 22:18:25.64	149.24	30.47	-56.2	-57.9	19.6	0.00e+00	0	46	0	942669824	60	30764
2026-01-29 22:18:26.64	149.47	30.32	-57.5	-59.6	17.8	0.00e+00	0	46	0	944766976	60	37538
2026-01-29 22:18:27.65	149.69	30.17	-58.7	-61.4	16.3	0.00e+00	0	46	0	946864128	60	46240
2026-01-29 22:18:28.66	149.92	30.03	-59.3	-62.6	15.1	0.00e+00	0	46	0	948961280	60	53139
2026-01-29 22:18:29.67	150.14	29.88	-58.9	-62.0	15.4	0.00e+00	0	46	0	951058432	60	49426
2026-01-29 22:18:30.68	150.37	29.73	-58.3	-61.0	16.7	0.00e+00	0	46	0	953155584	60	43719
2026-01-29 22:18:31.68	150.58	29.59	-58.0	-60.3	17.4	0.00e+00	0	46	0	954204160	60	40637
2026-01-29 22:18:32.69	150.80	29.44	-57.6	-59.7	17.9	0.00e+00	0	46	0	956301312	60	38060
2026-01-29 22:18:33.70	151.02	29.29	-56.6	-58.4	19.1	0.00e+00	0	46	0	958398464	60	32448
2026-01-29 22:18:34.71	151.23	29.15	-56.5	-58.3	19.3	0.00e+00	0	46	0	960495616	60	32239
2026-01-29 22:18:35.71	151.44	29.01	-56.7	-58.6	18.6	0.00e+00	0	46	0	961544192	60	33196
2026-01-29 22:18:36.72	151.65	28.86	-57.6	-59.8	17.7	0.00e+00	0	46	0	963641344	60	38128
2026-01-29 22:18:37.73	151.86	28.72	-58.5	-61.3	16.3	0.00e+00	0	46	0	965738496	60	45272
2026-01-29 22:18:38.73	152.06	28.57	-58.9	-61.9	15.6	0.00e+00	0	46	0	967835648	60	48633
2026-01-29 22:18:39.74	152.27	28.43	-58.5	-61.3	16.2	0.00e+00	0	46	0	969932800	60	45468
2026-01-29 22:18:40.74	152.47	28.29	-57.9	-60.4	17.1	0.00e+00	0	46	0	970981376	60	40884
2026-01-29 22:18:41.74	152.67	28.15	-57.1	-59.1	18.3	0.00e+00	0	46	0	973078528	60	35509
2026-01-29 22:18:42.74	152.87	28.00	-56.2	-58.0	19.4	0.00e+00	0	46	0	975175680	60	31029
2026-01-29 22:18:43.75	153.06	27.86	-55.6	-57.2	20.1	0.00e+00	0	46	0	977272832	60	28484
2026-01-29 22:18:44.76	153.26	27.72	-55.1	-56.6	20.5	0.00e+00	0	46	0	979369984	60	26381
2026-01-29 22:18:45.76	153.45	27.58	-55.2	-56.6	20.5	0.00e+00	0	46	0	981467136	60	26561
2026-01-29 22:18:46.76	153.64	27.44	-55.3	-56.9	20.3	0.00e+00	0	46	0	982515712	60	27276
2026-01-29 22:18:47.77	153.84	27.30	-55.8	-57.4	20.0	0.00e+00	0	46	0	984612864	60	29025
2026-01-29 22:18:48.78	154.03	27.16	-55.8	-57.4	19.5	0.00e+00	0	46	0	986710016	60	29190
2026-01-29 22:18:49.78	154.21	27.02	-56.0	-57.6	19.6	0.00e+00	0	46	0	988807168	60	29874
2026-01-29 22:18:50.78	154.40	26.88	-56.1	-57.8	19.4	0.00e+00	0	46	0	989855744	60	30422
2026-01-29 22:18:51.79	154.58	26.74	-56.2	-57.9	19.4	0.00e+00	0	46	0	991952896	60	30845
2026-01-29 22:18:52.79	154.76	26.61	-56.0	-57.6	19.6	0.00e+00	0	46	0	994050048	60	29820
2026-01-29 22:18:53.80	154.94	26.47	-55.5	-57.0	20.1	0.00e+00	0	46	0	996147200	60	27768
2026-01-29 22:18:54.80	155.12	26.33	-55.2	-56.6	20.5	0.00e+00	0	46	0	998244352	60	26516
2026-01-29 22:18:55.80	155.30	26.19	-54.7	-56.0	21.1	0.00e+00	0	46	0	999292928	60	24801
2026-01-29 22:18:56.81	155.48	26.06	-53.8	-54.9	22.0	0.00e+00	0	46	0	1001390080	60	21848
2026-01-29 22:18:57.81	155.65	25.92	-53.7	-54.9	21.9	0.00e+00	0	46	0	1003487232	60	21757
2026-01-29 22:18:58.82	155.82	25.78	-53.7	-54.9	22.0	0.00e+00	0	46	0	1005584384	60	21679
2026-01-29 22:18:59.82	156.00	25.65	-54.0	-55.3	21.5	0.00e+00	0	46	0	1007681536	60	22707
2026-01-29 22:19:00.83	156.17	25.51	-54.7	-56.1	20.9	0.00e+00	0	46	0	1008730112	60	25066
2026-01-29 22:19:01.84	156.34	25.38	-55.0	-56.5	20.5	0.00e+00	0	46	0	1010827264	60	26185
2026-01-29 22:19:02.84	156.50	25.25	-55.8	-57.5	19.6	0.00e+00	0	46	0	1012924416	60	29258
2026-01-29 22:19:03.85	156.67	25.11	-56.3	-58.1	19.1	0.00e+00	0	46	0	1015021568	60	31610
2026-01-29 22:19:04.86	156.84	24.98	-56.5	-58.5	18.8	0.00e+00	0	46	0	1017118720	60	32789
2026-01-29 22:19:05.86	157.00	24.85	-56.5	-58.5	18.4	0.00e+00	0	46	0	1018167296	60	33109
2026-01-29 22:19:06.87	157.16	24.71	-56.7	-58.7	18.5	0.00e+00	0	46	0	1020264448	60	33658
2026-01-29 22:19:07.87	157.32	24.58	-56.4	-58.4	18.8	0.00e+00	0	46	0	1022361600	60	32468
2026-01-29 22:19:08.88	157.48	24.45	-56.2	-58.1	19.0	0.00e+00	0	46	0	1024458752	60	31543
2026-01-29 22:19:09.88	157.64	24.32	-55.7	-57.4	19.6	0.00e+00	0	46	0	1026555904	60	29071
2026-01-29 22:19:10.89	157.80	24.19	-55.6	-57.3	19.5	0.00e+00	0	46	0	1027604480	60	28718
2026-01-29 22:19:11.89	157.95	24.06	-55.5	-57.2	19.6	0.00e+00	0	46	0	1029701632	60	28308
2026-01-29 22:19:12.88	158.11	23.93	-55.4	-56.9	20.0	0.00e+00	0	46	0	1031798784	60	27539
2026-01-29 22:19:13.88	158.26	23.80	-55.6	-57.2	19.7	0.00e+00	0	46	0	1033895936	60	28468
2026-01-29 22:19:14.89	158.41	23.67	-55.7	-57.4	19.3	0.00e+00	0	46	0	1035993088	60	28983
2026-01-29 22:19:15.90	158.56	23.54	-56.0	-57.9	19.0	0.00e+00	0	46	0	1037041664	60	30678
2026-01-29 22:19:16.91	158.71	23.42	-56.5	-58.6	18.0	0.00e+00	0	46	0	1039138816	60	33256
2026-01-29 22:19:17.91	158.86	23.29	-57.3	-59.8	17.4	0.00e+00	0	46	0	1041235968	60	38225
2026-01-29 22:19:18.92	159.01	23.16	-57.6	-60.3	16.6	0.00e+00	0	46	0	1043333120	60	40675
2026-01-29 22:19:19.92	159.16	23.04	-58.2	-61.3	15.7	0.00e+00	0	46	0	1045430272	60	45421
2026-01-29 22:19:20.93	159.30	22.91	-58.2	-61.3	15.6	0.00e+00	0	46	0	1046478848	60	45281
2026-01-29 22:19:21.94	159.45	22.78	-58.0	-61.0	16.0	0.00e+00	0	46	0	1048576000	60	43766
2026-01-29 22:19:22.94	159.59	22.66	-58.0	-61.0	16.0	0.00e+00	0	46	0	1050673152	60	44111
2026-01-29 22:19:23.95	159.73	22.53	-57.8	-60.6	16.3	0.00e+00	0	46	0	1052770304	60	42001
2026-01-29 22:19:24.95	159.87	22.41	-57.6	-60.2	16.7	0.00e+00	0	46	0	1054867456	60	40243
2026-01-29 22:19:25.96	160.01	22.28	-57.4	-59.9	17.0	0.00e+00	0	46	0	1055916032	60	38826
2026-01-29 22:19:26.96	160.15	22.16	-57.0	-59.4	17.4	0.00e+00	0	46	0	1058013184	60	36512
2026-01-29 22:19:27.96	160.29	22.04	-57.4	-60.0	16.6	0.00e+00	0	46	0	1060110336	60	39023
2026-01-29 22:19:28.97	160.42	21.91	-57.3	-59.8	16.9	0.00e+00	0	46	0	1062207488	60	38499
2026-01-29 22:19:29.98	160.56	21.79	-57.1	-59.4	17.3	0.00e+00	0	46	0	1064304640	60	36714
2026-01-29 22:19:30.99	160.70	21.67	-57.2	-59.6	17.2	0.00e+00	0	46	0	1065353216	60	37437
2026-01-29 22:19:31.99	160.83	21.55	-57.0	-59.4	17.5	0.00e+00	0	46	0	1067450368	60	36447
2026-01-29 22:19:33.00	160.96	21.43	-56.8	-59.0	17.9	0.00e+00	0	46	0	1069547520	60	34720
2026-01-29 22:19:34.01	161.09	21.31	-56.2	-58.1	18.6	0.00e+00	0	46	0	1071644672	60	31594
2026-01-29 22:19:35.02	161.22	21.18	-55.0	-56.6	20.0	0.00e+00	0	46	0	1073741824	60	26365
2026-01-29 22:19:36.02	161.35	21.07	-54.5	-55.9	20.6	0.00e+00	0	46	0	1074790400	60	24563
2026-01-29 22:19:37.02	161.48	20.95	-53.9	-55.3	21.2	0.00e+00	0	46	0	1076887552	60	22724
2026-01-29 22:19:38.03	161.61	20.83	-53.5	-54.7	21.6	0.00e+00	0	46	0	1078984704	60	21285
2026-01-29 22:19:39.03	161.73	20.71	-53.5	-54.8	21.5	0.00e+00	0	46	0	1081081856	60	21417
2026-01-29 22:19:40.04	161.86	20.59	-53.3	-54.6	21.7	0.00e+00	0	46	0	1082130432	60	20924
2026-01-29 22:19:41.05	161.99	20.47	-53.3	-54.6	21.6	0.00e+00	0	46	0	1084227584	60	20946
2026-01-29 22:19:42.05	162.11	20.36	-53.9	-55.2	21.2	0.00e+00	0	46	0	1086324736	60	22619
2026-01-29 22:19:43.06	162.23	20.24	-53.9	-55.2	21.1	0.00e+00	0	46	0	1088421888	60	22608
2026-01-29 22:19:44.07	162.36	20.12	-54.3	-55.7	20.6	0.00e+00	0	46	0	1090519040	60	23874
2026-01-29 22:19:45.07	162.48	20.01	-54.7	-56.2	20.2	0.00e+00	0	46	0	1092616192	60	25343
2026-01-29 22:19:46.08	162.60	19.89	-55.1	-56.8	19.6	0.00e+00	0	46	0	1093664768	60	27164
2026-01-29 22:19:47.09	162.72	19.77	-55.9	-57.8	18.8	0.00e+00	0	46	0	1095761920	60	30546
2026-01-29 22:19:48.10	162.84	19.66	-56.1	-58.1	18.5	0.00e+00	0	46	0	1097859072	60	31550
2026-01-29 22:19:49.10	162.95	19.55	-56.3	-58.5	18.2	0.00e+00	0	46	0	1099956224	60	32812
2026-01-29 22:19:50.11	163.07	19.43	-56.6	-58.9	17.7	0.00e+00	0	46	0	1102053376	60	34450
2026-01-29 22:19:51.12	163.19	19.32	-56.2	-58.3	18.2	0.00e+00	0	46	0	1103101952	60	32153
2026-01-29 22:19:52.13	163.30	19.20	-56.4	-58.6	18.1	0.00e+00	0	46	0	1105199104	60	33311
2026-01-29 22:19:53.14	163.42	19.09	-56.1	-58.3	18.3	0.00e+00	0	46	0	1107296256	60	32129
2026-01-29 22:19:54.15	163.53	18.98	-55.8	-57.8	18.5	0.00e+00	0	46	0	1109393408	60	30325
2026-01-29 22:19:55.15	163.64	18.87	-55.7	-57.7	18.8	0.00e+00	0	46	0	1110441984	60	30132
2026-01-29 22:19:56.15	163.76	18.76	-55.4	-57.3	19.0	0.00e+00	0	46	0	1112539136	60	28755
2026-01-29 22:19:57.16	163.87	18.64	-55.1	-56.9	19.3	0.00e+00	0	46	0	1114636288	60	27438
2026-01-29 22:19:58.16	163.98	18.53	-55.2	-57.1	19.3	0.00e+00	0	46	0	1116733440	60	27949
2026-01-29 22:19:59.17	164.09	18.42	-54.9	-56.6	19.7	0.00e+00	0	46	0	1118830592	60	26426
2026-01-29 22:20:00.18	164.20	18.31	-54.6	-56.2	20.0	0.00e+00	0	46	0	1120927744	60	25439
2026-01-29 22:20:01.18	164.30	18.20	-54.5	-56.1	20.2	0.00e+00	0	46	0	1121976320	60	24938
2026-01-29 22:20:02.19	164.41	18.09	-54.5	-56.0	20.1	0.00e+00	0	46	0	1124073472	60	24783
2026-01-29 22:20:03.20	164.52	17.99	-54.6	-56.3	19.9	0.00e+00	0	46	0	1126170624	60	25466
2026-01-29 22:20:04.20	164.62	17.88	-54.5	-56.1	20.0	0.00e+00	0	46	0	1128267776	60	25083
2026-01-29 22:20:05.21	164.73	17.77	-54.6	-56.3	19.8	0.00e+00	0	46	0	1130364928	60	25449
2026-01-29 22:20:06.22	164.84	17.66	-54.7	-56.4	19.7	0.00e+00	0	46	0	1131413504	60	25859
2026-01-29 22:20:07.22	164.94	17.55	-54.8	-56.6	19.6	0.00e+00	0	46	0	1133510656	60	26409
2026-01-29 22:20:08.23	165.04	17.45	-55.0	-56.7	19.3	0.00e+00	0	46	0	1135607808	60	26916
2026-01-29 22:20:09.24	165.14	17.34	-55.2	-57.0	19.1	0.00e+00	0	46	0	1137704960	60	27774
2026-01-29 22:20:10.24	165.25	17.23	-55.4	-57.4	18.6	0.00e+00	0	46	0	1138753536	60	28942
2026-01-29 22:20:11.25	165.35	17.13	-55.7	-57.8	18.4	0.00e+00	0	46	0	1140850688	60	30283
2026-01-29 22:20:12.26	165.45	17.02	-55.7	-57.8	18.3	0.00e+00	0	46	0	1142947840	60	30568
