passes_logs/2026/01/29/R3.2S-Naryan-Mar/R3.2S-Naryan-Mar__20260129_034729_NOAA_20_JPSS-1_rec.log

#Pass ID: 20260129_034729_NOAA 20 (JPSS-1)
#Satellite: NOAA 20 (JPSS-1)
#Configuration: NOAA 20
#almurnet v.1.7.20240730
#Start time: 2026-01-29 03:47:32

#Version: 2.2.20231116
#Station: R3.2S-Naryan-Mar
#Location: 53.008057 lon 67.646978 lat
#TLE: 1 43013U 17073A   26027.80586608  .00000156  00000+0  94940-4 0  9998
#TLE: 2 43013  98.7647 328.6108 0000947  21.3465 338.7750 14.19541216424550

#Time	Az	El	Level	Level2	SNR	BER	BlckErr	Temp	State	Recorded	gain1	gain2
2026-01-29 03:47:32.28	60.86	0.12	-61.8	-77.1	3.3	1.54e+00	0	45	0	0	60	279997
2026-01-29 03:47:33.29	60.80	0.18	-62.0	-78.8	3.6	1.51e+00	0	45	104	0	60	342362
2026-01-29 03:47:34.29	60.73	0.23	-62.3	-78.9	3.6	1.51e+00	0	45	104	0	60	346072
2026-01-29 03:47:35.29	60.67	0.28	-62.2	-78.8	3.6	1.51e+00	0	45	104	0	60	340015
2026-01-29 03:47:36.30	60.61	0.34	-62.5	-79.0	3.6	1.51e+00	0	45	104	0	60	350211
2026-01-29 03:47:37.30	60.55	0.39	-60.8	-78.6	3.6	1.51e+00	0	45	104	0	60	331841
2026-01-29 03:47:38.31	60.48	0.44	-61.9	-78.5	3.6	1.51e+00	0	45	104	0	60	328426
2026-01-29 03:47:39.32	60.42	0.50	-56.3	-76.3	3.6	1.51e+00	0	45	104	0	60	256625
2026-01-29 03:47:40.33	60.35	0.55	-59.5	-77.4	3.6	1.51e+00	0	45	104	0	60	290198
2026-01-29 03:47:41.34	60.29	0.60	-57.6	-77.5	3.6	1.51e+00	0	45	104	0	60	295151
2026-01-29 03:47:42.35	60.23	0.66	-59.9	-76.9	3.6	1.51e+00	0	45	104	0	60	275286
2026-01-29 03:47:43.36	60.16	0.71	-58.6	-77.4	3.6	1.51e+00	0	46	104	0	60	289992
2026-01-29 03:47:44.37	60.10	0.76	-57.8	-75.8	3.6	1.51e+00	0	45	104	0	60	242673
2026-01-29 03:47:45.37	60.03	0.82	-56.5	-76.8	3.6	1.51e+00	0	45	104	0	60	270350
2026-01-29 03:47:46.38	59.97	0.87	-58.5	-77.2	3.6	1.51e+00	0	45	104	0	60	284600
2026-01-29 03:47:47.39	59.90	0.93	-61.0	-77.8	3.6	1.51e+00	0	45	104	0	60	302402
2026-01-29 03:47:48.39	59.83	0.98	-60.3	-77.3	3.6	1.51e+00	0	45	104	0	60	287766
2026-01-29 03:47:49.40	59.77	1.03	-60.4	-77.2	3.6	1.51e+00	0	45	104	0	60	283250
2026-01-29 03:47:50.40	59.70	1.09	-59.7	-77.0	3.6	1.51e+00	0	45	104	0	60	276996
2026-01-29 03:47:51.41	59.63	1.14	-60.6	-76.8	3.5	1.51e+00	0	45	104	0	60	271183
2026-01-29 03:47:52.41	59.57	1.20	-59.7	-76.7	3.6	1.51e+00	0	45	104	0	60	266621
2026-01-29 03:47:53.42	59.50	1.25	-59.9	-76.5	3.6	1.51e+00	0	45	104	0	60	260970
2026-01-29 03:47:54.43	59.43	1.30	-59.9	-76.4	3.6	1.51e+00	0	45	104	0	60	258921
2026-01-29 03:47:55.43	59.37	1.36	-59.8	-76.4	3.6	1.51e+00	0	45	104	0	60	258567
2026-01-29 03:47:56.43	59.30	1.41	-59.8	-76.4	3.6	1.51e+00	0	46	104	0	60	258987
2026-01-29 03:47:57.44	59.23	1.47	-59.8	-76.3	3.6	1.51e+00	0	45	104	0	60	256767
2026-01-29 03:47:58.45	59.16	1.52	-59.8	-76.3	3.6	1.51e+00	0	46	104	0	60	256745
2026-01-29 03:47:59.46	59.09	1.58	-59.7	-76.2	3.6	1.51e+00	0	46	104	0	60	253452
2026-01-29 03:48:00.46	59.02	1.63	-59.7	-76.1	3.6	1.51e+00	0	46	104	0	60	250800
2026-01-29 03:48:01.47	58.95	1.69	-59.6	-76.1	3.6	1.51e+00	0	46	104	0	60	250460
2026-01-29 03:48:02.48	58.88	1.74	-59.6	-76.0	3.6	1.51e+00	0	46	104	0	60	246745
2026-01-29 03:48:03.49	58.81	1.80	-59.6	-76.1	3.6	1.51e+00	0	46	104	0	60	249602
2026-01-29 03:48:04.49	58.75	1.85	-59.6	-76.1	3.6	1.51e+00	0	46	104	0	60	248669
2026-01-29 03:48:05.50	58.67	1.91	-59.6	-76.0	3.6	1.51e+00	0	46	104	0	60	248471
2026-01-29 03:48:06.50	58.60	1.96	-59.6	-76.1	3.6	1.51e+00	0	46	104	0	60	250408
2026-01-29 03:48:07.50	58.53	2.01	-59.6	-76.1	3.6	1.51e+00	0	46	104	0	60	249132
2026-01-29 03:48:08.51	58.46	2.07	-59.6	-76.0	3.6	1.51e+00	0	46	104	0	60	245918
2026-01-29 03:48:09.52	58.39	2.13	-59.6	-75.9	3.6	1.51e+00	0	46	104	0	60	244001
2026-01-29 03:48:10.52	58.32	2.18	-59.5	-75.8	3.6	1.51e+00	0	46	104	0	60	242951
2026-01-29 03:48:11.53	58.25	2.24	-59.5	-75.8	3.6	1.51e+00	0	46	104	0	60	242626
2026-01-29 03:48:12.54	58.17	2.29	-59.5	-75.8	3.6	1.51e+00	0	46	104	0	60	240770
2026-01-29 03:48:13.55	58.10	2.35	-59.5	-75.8	3.6	1.51e+00	0	46	104	0	60	242316
2026-01-29 03:48:14.55	58.03	2.40	-59.5	-75.8	3.6	1.51e+00	0	46	104	0	60	242395
2026-01-29 03:48:15.56	57.96	2.46	-59.5	-75.8	3.6	1.51e+00	0	46	104	0	60	240939
2026-01-29 03:48:16.57	57.88	2.51	-59.6	-76.0	3.6	1.51e+00	0	46	104	0	60	247107
2026-01-29 03:48:17.58	57.81	2.57	-59.6	-76.1	3.6	1.51e+00	0	46	104	0	60	249602
2026-01-29 03:48:18.59	57.73	2.63	-59.6	-76.2	3.6	1.51e+00	0	46	104	0	60	251573
2026-01-29 03:48:19.59	57.66	2.68	-59.6	-76.1	3.6	1.51e+00	0	46	104	0	60	251486
2026-01-29 03:48:20.60	57.59	2.74	-59.5	-75.9	3.6	1.51e+00	0	46	104	0	60	243938
2026-01-29 03:48:21.61	57.51	2.79	-59.5	-75.6	3.6	1.51e+00	0	46	104	0	60	236674
2026-01-29 03:48:22.62	57.43	2.85	-59.4	-75.3	3.6	1.51e+00	0	46	104	0	60	229049
2026-01-29 03:48:23.62	57.36	2.91	-59.4	-75.2	3.6	1.51e+00	0	46	104	0	60	224891
2026-01-29 03:48:24.63	57.28	2.96	-59.4	-75.2	3.6	1.51e+00	0	46	104	0	60	224711
2026-01-29 03:48:25.64	57.21	3.02	-59.4	-75.2	3.6	1.51e+00	0	46	104	0	60	226435
2026-01-29 03:48:26.64	57.13	3.07	-59.4	-75.4	3.6	1.51e+00	0	46	104	0	60	230013
2026-01-29 03:48:27.65	57.05	3.13	-59.4	-75.4	3.6	1.51e+00	0	46	104	0	60	231779
2026-01-29 03:48:28.65	56.98	3.19	-59.4	-75.5	3.6	1.51e+00	0	46	104	0	60	234071
2026-01-29 03:48:29.66	56.90	3.24	-59.4	-75.6	3.6	1.51e+00	0	46	104	0	60	236015
2026-01-29 03:48:30.67	56.82	3.30	-59.4	-75.8	3.6	1.51e+00	0	46	104	0	60	240218
2026-01-29 03:48:31.68	56.74	3.36	-59.5	-76.0	3.6	1.51e+00	0	46	104	0	60	245896
2026-01-29 03:48:32.69	56.67	3.42	-59.4	-76.0	3.6	1.51e+00	0	46	104	0	60	247567
2026-01-29 03:48:33.70	56.59	3.47	-59.5	-76.1	3.6	1.51e+00	0	46	104	0	60	249281
2026-01-29 03:48:34.70	56.51	3.53	-59.4	-76.0	3.6	1.51e+00	0	46	104	0	60	246710
2026-01-29 03:48:35.71	56.43	3.59	-59.4	-75.9	3.6	1.51e+00	0	46	104	0	60	243065
2026-01-29 03:48:36.72	56.35	3.64	-59.5	-75.9	3.6	1.51e+00	0	46	104	0	60	243006
2026-01-29 03:48:37.73	56.27	3.70	-59.4	-75.9	3.6	1.51e+00	0	46	104	0	60	243323
2026-01-29 03:48:38.73	56.19	3.76	-59.5	-75.9	3.6	1.51e+00	0	46	104	0	60	245044
2026-01-29 03:48:39.74	56.11	3.81	-59.4	-75.9	3.6	1.51e+00	0	46	104	0	60	244302
2026-01-29 03:48:40.75	56.03	3.87	-59.4	-75.9	3.6	1.51e+00	0	46	104	0	60	244675
2026-01-29 03:48:41.76	55.95	3.93	-59.4	-75.9	3.6	1.51e+00	0	46	104	0	60	245090
2026-01-29 03:48:42.76	55.86	3.99	-59.4	-75.8	3.6	1.51e+00	0	46	104	0	60	240502
2026-01-29 03:48:43.77	55.78	4.04	-59.4	-75.7	3.6	1.51e+00	0	46	104	0	60	238741
2026-01-29 03:48:44.78	55.70	4.10	-59.4	-75.8	3.6	1.51e+00	0	46	104	0	60	242433
2026-01-29 03:48:45.79	55.62	4.16	-59.4	-76.0	3.6	1.51e+00	0	46	104	0	60	245898
2026-01-29 03:48:46.79	55.54	4.22	-59.4	-76.1	3.6	1.51e+00	0	46	104	0	60	249676
2026-01-29 03:48:47.80	55.45	4.27	-59.4	-76.1	3.6	1.51e+00	0	46	104	0	60	249220
2026-01-29 03:48:48.81	55.37	4.33	-59.4	-75.9	3.6	1.51e+00	0	46	104	0	60	243873
2026-01-29 03:48:49.82	55.28	4.39	-59.4	-75.8	3.6	1.51e+00	0	46	104	0	60	241180
2026-01-29 03:48:50.83	55.20	4.45	-59.4	-75.7	3.6	1.51e+00	0	46	104	0	60	239374
2026-01-29 03:48:51.84	55.11	4.51	-59.4	-75.7	3.6	1.51e+00	0	46	104	0	60	238576
2026-01-29 03:48:52.84	55.03	4.56	-59.4	-75.5	3.6	1.51e+00	0	46	104	0	60	233463
2026-01-29 03:48:53.85	54.94	4.62	-59.4	-75.2	3.6	1.51e+00	0	46	104	0	60	226121
2026-01-29 03:48:54.86	54.86	4.68	-59.4	-75.0	3.6	1.51e+00	0	46	104	0	60	220654
2026-01-29 03:48:55.86	54.77	4.74	-59.3	-74.5	3.6	1.51e+00	0	46	104	0	60	208791
2026-01-29 03:48:56.86	54.69	4.80	-59.3	-73.8	3.6	1.51e+00	0	46	104	0	60	191784
2026-01-29 03:48:57.87	54.60	4.86	-59.3	-72.7	3.9	1.47e+00	0	46	104	0	60	169167
2026-01-29 03:48:58.87	54.51	4.91	-59.2	-70.0	4.3	1.23e+00	0	46	0	0	60	123736
2026-01-29 03:48:59.87	54.43	4.97	-59.1	-68.8	5.0	7.76e-01	0	46	0	2097152	60	108012
2026-01-29 03:49:00.88	54.34	5.03	-59.0	-68.2	5.7	4.10e-01	0	46	0	4194304	60	100280
2026-01-29 03:49:01.89	54.25	5.09	-58.9	-67.4	6.4	2.59e-01	0	46	0	6291456	60	91422
2026-01-29 03:49:02.89	54.16	5.15	-58.8	-66.9	6.8	1.85e-01	0	46	0	8388608	60	87139
2026-01-29 03:49:03.90	54.07	5.21	-58.8	-66.8	7.0	1.38e-01	0	46	0	10485760	60	85521
2026-01-29 03:49:04.91	53.98	5.27	-58.8	-67.0	6.8	1.45e-01	0	46	0	11534336	60	88117
2026-01-29 03:49:05.91	53.89	5.32	-58.9	-67.4	6.5	1.73e-01	0	46	0	13631488	60	91903
2026-01-29 03:49:06.93	53.80	5.38	-59.0	-68.2	5.6	3.28e-01	0	46	0	15728640	60	100760
2026-01-29 03:49:07.93	53.71	5.44	-59.1	-69.1	4.8	5.33e-01	0	46	0	17825792	60	111431
2026-01-29 03:49:08.94	53.62	5.50	-59.2	-70.1	4.2	8.24e-01	0	46	0	18874368	60	125502
2026-01-29 03:49:09.95	53.53	5.56	-59.2	-71.5	3.6	1.35e+00	0	46	0	19922944	60	146827
2026-01-29 03:49:10.96	53.44	5.62	-59.3	-73.7	3.7	1.50e+00	0	46	104	19922944	60	190463
2026-01-29 03:49:11.96	53.35	5.68	-59.3	-74.4	3.6	1.51e+00	0	46	104	19922944	60	204876
2026-01-29 03:49:12.97	53.25	5.74	-59.3	-74.8	3.6	1.51e+00	0	46	104	19922944	60	215232
2026-01-29 03:49:13.98	53.16	5.80	-59.4	-75.0	3.6	1.51e+00	0	46	104	19922944	60	221006
2026-01-29 03:49:14.99	53.07	5.86	-59.4	-75.4	3.6	1.51e+00	0	46	104	19922944	60	230591
2026-01-29 03:49:16.00	52.97	5.92	-59.4	-75.7	3.6	1.51e+00	0	46	104	19922944	60	239153
2026-01-29 03:49:17.00	52.88	5.98	-59.4	-75.9	3.5	1.51e+00	0	46	104	19922944	60	243548
2026-01-29 03:49:18.00	52.79	6.04	-59.4	-76.0	3.6	1.51e+00	0	46	104	19922944	60	246336
2026-01-29 03:49:19.01	52.69	6.10	-59.7	-74.0	3.6	1.51e+00	0	46	104	19922944	60	197419
2026-01-29 03:49:20.01	52.60	6.16	-58.7	-75.8	3.6	1.51e+00	0	46	104	19922944	60	241601
2026-01-29 03:49:21.02	52.50	6.22	-59.2	-75.9	3.6	1.51e+00	0	46	104	19922944	60	243491
2026-01-29 03:49:22.02	52.41	6.28	-59.8	-74.4	3.6	1.51e+00	0	46	104	19922944	60	205311
2026-01-29 03:49:23.03	52.31	6.34	-59.5	-75.9	3.6	1.51e+00	0	46	104	19922944	60	245685
2026-01-29 03:49:24.04	52.21	6.40	-59.8	-75.4	3.6	1.51e+00	0	46	104	19922944	60	230917
2026-01-29 03:49:25.04	52.12	6.46	-59.6	-74.7	3.6	1.51e+00	0	46	104	19922944	60	214018
2026-01-29 03:49:26.05	52.02	6.52	-59.5	-74.7	3.6	1.51e+00	0	46	104	19922944	60	212877
2026-01-29 03:49:27.06	51.92	6.58	-58.4	-67.3	7.6	4.75e-01	0	46	104	19922944	60	90332
2026-01-29 03:49:28.06	51.82	6.64	-59.6	-76.1	3.5	1.51e+00	0	46	104	19922944	60	249341
2026-01-29 03:49:29.07	51.72	6.70	-59.9	-76.1	3.6	1.51e+00	0	46	104	19922944	60	251128
2026-01-29 03:49:30.08	51.62	6.76	-59.2	-74.8	3.6	1.51e+00	0	46	104	19922944	60	214624
2026-01-29 03:49:31.08	51.52	6.82	-59.6	-76.1	3.6	1.51e+00	0	46	104	19922944	60	249662
2026-01-29 03:49:32.08	51.43	6.88	-59.3	-75.8	3.6	1.51e+00	0	46	104	19922944	60	242566
2026-01-29 03:49:33.09	51.32	6.94	-59.0	-75.1	3.6	1.51e+00	0	46	104	19922944	60	222024
2026-01-29 03:49:34.09	51.22	7.00	-59.1	-75.1	3.6	1.51e+00	0	46	104	19922944	60	222038
2026-01-29 03:49:35.10	51.12	7.06	-59.7	-75.0	3.6	1.51e+00	0	46	104	19922944	60	219528
2026-01-29 03:49:36.10	51.02	7.12	-58.5	-76.2	3.6	1.51e+00	0	46	104	19922944	60	253081
2026-01-29 03:49:37.11	50.92	7.18	-59.3	-76.1	3.6	1.51e+00	0	46	104	19922944	60	249900
2026-01-29 03:49:38.12	50.82	7.24	-59.3	-74.9	3.6	1.51e+00	0	46	104	19922944	60	218845
2026-01-29 03:49:39.12	50.71	7.30	-59.5	-76.1	3.6	1.51e+00	0	46	104	19922944	60	251039
2026-01-29 03:49:40.13	50.61	7.36	-59.2	-75.2	3.6	1.51e+00	0	46	104	19922944	60	225317
2026-01-29 03:49:41.14	50.50	7.43	-59.6	-75.0	3.6	1.51e+00	0	46	104	19922944	60	219125
2026-01-29 03:49:42.15	50.40	7.49	-59.6	-75.1	3.6	1.51e+00	0	46	104	19922944	60	222937
2026-01-29 03:49:43.15	50.30	7.55	-59.2	-72.3	3.9	1.50e+00	0	46	0	19922944	60	161690
2026-01-29 03:49:44.16	50.19	7.61	-58.6	-75.5	3.6	1.51e+00	0	46	104	19922944	60	234413
2026-01-29 03:49:45.17	50.08	7.67	-59.7	-76.1	3.6	1.51e+00	0	46	104	19922944	60	248666
2026-01-29 03:49:46.18	49.98	7.73	-58.4	-73.8	3.6	1.51e+00	0	46	104	19922944	60	191869
2026-01-29 03:49:47.18	49.87	7.79	-58.0	-75.7	3.6	1.51e+00	0	46	104	19922944	60	237898
2026-01-29 03:49:48.19	49.76	7.85	-57.8	-74.7	3.6	1.51e+00	0	46	104	19922944	60	212199
2026-01-29 03:49:49.19	49.66	7.91	-57.6	-73.8	3.6	1.51e+00	0	46	104	19922944	60	190944
2026-01-29 03:49:50.20	49.55	7.98	-57.5	-73.8	3.6	1.45e+00	0	46	104	19922944	60	191075
2026-01-29 03:49:51.20	49.44	8.04	-57.6	-73.9	3.6	1.51e+00	0	46	104	19922944	60	193504
2026-01-29 03:49:52.21	49.33	8.10	-57.6	-74.1	3.6	1.50e+00	0	46	104	19922944	60	197778
2026-01-29 03:49:53.21	49.22	8.16	-57.7	-74.2	3.6	1.51e+00	0	46	104	19922944	60	202046
2026-01-29 03:49:54.22	49.11	8.22	-57.8	-73.9	3.7	1.51e+00	0	46	104	19922944	60	194360
2026-01-29 03:49:55.23	49.00	8.28	-57.8	-73.7	3.7	1.49e+00	0	46	104	19922944	60	188931
2026-01-29 03:49:56.24	48.89	8.35	-58.0	-73.4	3.8	1.49e+00	0	46	104	19922944	60	183223
2026-01-29 03:49:57.24	48.78	8.41	-58.3	-71.7	3.8	1.49e+00	0	46	0	19922944	60	150631
2026-01-29 03:49:58.25	48.67	8.47	-58.6	-70.2	4.4	1.09e+00	0	46	0	1048576	60	127016
2026-01-29 03:49:59.25	48.55	8.53	-58.8	-68.8	5.3	6.38e-01	0	46	0	3145728	60	108371
2026-01-29 03:50:00.25	48.44	8.59	-58.6	-68.8	5.8	4.37e-01	0	46	0	4194304	60	108161
2026-01-29 03:50:01.26	48.33	8.66	-58.5	-68.1	6.0	2.28e-01	0	46	0	6291456	60	99417
2026-01-29 03:50:02.27	48.21	8.72	-58.1	-67.2	7.0	2.28e-01	0	46	0	8388608	60	89762
2026-01-29 03:50:03.27	48.10	8.78	-57.7	-67.1	7.2	1.72e-01	0	46	0	10485760	60	88639
2026-01-29 03:50:04.28	47.98	8.84	-57.2	-66.0	8.2	9.28e-02	0	46	0	11534336	60	77752
2026-01-29 03:50:05.28	47.87	8.90	-56.9	-66.0	8.0	4.48e-02	0	46	0	13631488	60	78167
2026-01-29 03:50:06.29	47.75	8.97	-56.7	-65.6	7.9	6.30e-02	0	46	0	15728640	60	74456
2026-01-29 03:50:07.29	47.64	9.03	-56.6	-65.7	8.0	6.66e-02	0	46	0	17825792	60	75747
2026-01-29 03:50:08.30	47.52	9.09	-56.7	-65.4	8.2	5.34e-02	0	46	0	19922944	60	72746
2026-01-29 03:50:09.31	47.40	9.15	-56.8	-65.3	8.6	6.01e-02	0	46	0	22020096	60	71916
2026-01-29 03:50:10.31	47.28	9.21	-57.0	-65.5	8.2	4.16e-02	0	46	0	23068672	60	73468
2026-01-29 03:50:11.32	47.17	9.28	-57.4	-65.8	8.3	6.33e-02	0	46	0	25165824	60	76419
2026-01-29 03:50:12.33	47.05	9.34	-57.7	-66.1	7.9	5.53e-02	0	46	0	27262976	60	78728
2026-01-29 03:50:13.33	46.93	9.40	-57.9	-66.1	8.4	4.88e-02	0	46	0	29360128	60	78855
2026-01-29 03:50:14.34	46.81	9.46	-57.9	-65.7	8.8	4.05e-02	0	46	0	31457280	60	75336
2026-01-29 03:50:15.34	46.69	9.53	-58.1	-65.9	8.7	2.57e-02	0	46	0	32505856	60	77360
2026-01-29 03:50:16.35	46.57	9.59	-58.1	-65.7	8.8	2.06e-02	0	46	0	34603008	60	75386
2026-01-29 03:50:17.36	46.44	9.65	-58.2	-65.4	9.3	2.22e-02	0	46	0	36700160	60	73022
2026-01-29 03:50:18.37	46.32	9.72	-58.4	-65.7	8.8	2.37e-02	0	46	0	38797312	60	75683
2026-01-29 03:50:19.37	46.20	9.78	-58.5	-65.9	8.8	2.60e-02	0	46	0	39845888	60	77188
2026-01-29 03:50:20.37	46.08	9.84	-58.7	-65.8	9.0	3.07e-02	0	46	0	41943040	60	76792
2026-01-29 03:50:21.37	45.95	9.90	-58.6	-65.6	9.6	2.03e-02	0	46	0	44040192	60	74784
2026-01-29 03:50:22.38	45.83	9.97	-58.5	-65.3	9.8	1.89e-02	0	46	0	46137344	60	72234
2026-01-29 03:50:23.38	45.70	10.03	-58.3	-65.4	9.9	1.20e-02	0	46	0	48234496	60	72539
2026-01-29 03:50:24.39	45.58	10.09	-58.1	-65.5	9.6	1.45e-02	0	46	0	49283072	60	74064
2026-01-29 03:50:25.38	45.45	10.15	-58.2	-65.9	9.1	1.69e-02	0	46	0	51380224	60	77246
2026-01-29 03:50:26.39	45.33	10.22	-58.0	-65.8	9.0	2.38e-02	0	46	0	53477376	60	76464
2026-01-29 03:50:27.39	45.20	10.28	-58.0	-66.2	9.0	2.53e-02	0	46	0	55574528	60	79632
2026-01-29 03:50:28.41	45.07	10.34	-57.8	-65.7	9.0	3.03e-02	0	46	0	57671680	60	75545
2026-01-29 03:50:29.41	44.94	10.40	-58.3	-66.3	9.0	2.88e-02	0	46	0	59768832	60	80969
2026-01-29 03:50:30.41	44.82	10.47	-58.7	-66.1	8.9	2.93e-02	0	46	0	60817408	60	78953
2026-01-29 03:50:31.41	44.69	10.53	-59.1	-66.1	8.7	3.48e-02	0	46	0	62914560	60	79504
2026-01-29 03:50:32.42	44.56	10.59	-59.4	-66.8	8.0	4.48e-02	0	46	0	65011712	60	86108
2026-01-29 03:50:33.43	44.43	10.66	-59.5	-66.8	8.0	4.35e-02	0	46	0	67108864	60	85978
2026-01-29 03:50:34.44	44.29	10.72	-59.2	-66.7	8.1	4.91e-02	0	46	0	68157440	60	84618
2026-01-29 03:50:35.45	44.16	10.78	-58.8	-66.5	8.2	4.52e-02	0	46	0	70254592	60	82613
2026-01-29 03:50:36.45	44.03	10.84	-58.4	-66.4	8.1	5.25e-02	0	46	0	72351744	60	81453
2026-01-29 03:50:37.46	43.90	10.91	-58.2	-66.4	8.3	6.91e-02	0	46	0	74448896	60	81437
2026-01-29 03:50:38.46	43.76	10.97	-58.2	-66.2	8.3	5.98e-02	0	46	0	76546048	60	80408
2026-01-29 03:50:39.47	43.63	11.03	-58.2	-66.6	7.8	5.97e-02	0	46	0	77594624	60	83952
2026-01-29 03:50:40.46	43.50	11.10	-58.1	-66.1	8.2	5.92e-02	0	46	0	79691776	60	78918
2026-01-29 03:50:41.47	43.36	11.16	-58.3	-65.9	8.4	4.40e-02	0	46	0	81788928	60	77275
2026-01-29 03:50:42.48	43.23	11.22	-58.6	-66.0	8.7	3.63e-02	0	46	0	83886080	60	78002
2026-01-29 03:50:43.49	43.09	11.29	-58.9	-66.4	8.3	3.04e-02	0	46	0	85983232	60	81892
2026-01-29 03:50:44.49	42.95	11.35	-59.2	-66.6	8.2	9.21e-02	0	46	0	87031808	60	83904
2026-01-29 03:50:45.50	42.81	11.41	-59.1	-66.7	8.1	5.66e-02	0	46	0	89128960	60	84492
2026-01-29 03:50:46.51	42.68	11.48	-58.7	-66.1	8.7	4.73e-02	0	46	0	91226112	60	79383
2026-01-29 03:50:47.52	42.54	11.54	-58.2	-66.1	8.5	4.15e-02	0	46	0	93323264	60	79415
2026-01-29 03:50:48.53	42.40	11.60	-57.7	-65.9	8.7	3.06e-02	0	46	0	95420416	60	77614
2026-01-29 03:50:49.53	42.26	11.66	-57.3	-66.2	8.1	4.35e-02	0	46	0	97517568	60	79778
2026-01-29 03:50:50.54	42.12	11.73	-57.1	-66.7	7.4	7.63e-02	0	46	0	98566144	60	84654
2026-01-29 03:50:51.55	41.97	11.79	-56.8	-66.8	7.0	9.87e-02	0	46	0	100663296	60	86007
2026-01-29 03:50:52.55	41.83	11.85	-56.5	-66.3	7.5	1.03e-01	0	46	0	102760448	60	80890
2026-01-29 03:50:53.56	41.69	11.92	-56.7	-65.9	8.0	8.38e-02	0	46	0	104857600	60	77710
2026-01-29 03:50:54.56	41.55	11.98	-57.2	-65.9	8.2	6.27e-02	0	46	0	105906176	60	77072
2026-01-29 03:50:55.56	41.41	12.04	-57.7	-66.5	8.2	5.14e-02	0	46	0	108003328	60	83039
2026-01-29 03:50:56.57	41.26	12.10	-58.6	-67.0	7.8	7.49e-02	0	46	0	110100480	60	87964
2026-01-29 03:50:57.57	41.12	12.17	-59.0	-67.4	7.4	9.23e-02	0	46	0	112197632	60	92094
2026-01-29 03:50:58.58	40.97	12.23	-59.2	-66.9	8.0	8.25e-02	0	46	0	114294784	60	86606
2026-01-29 03:50:59.58	40.82	12.29	-59.3	-66.9	8.1	4.90e-02	0	46	0	115343360	60	86799
2026-01-29 03:51:00.58	40.68	12.36	-59.3	-66.5	8.3	4.64e-02	0	46	0	117440512	60	82470
2026-01-29 03:51:01.59	40.53	12.42	-59.2	-66.9	7.2	8.56e-02	0	46	0	119537664	60	86890
2026-01-29 03:51:02.60	40.38	12.48	-59.1	-67.5	7.2	1.25e-01	0	46	0	121634816	60	92733
2026-01-29 03:51:03.61	40.23	12.54	-59.0	-67.3	7.2	1.13e-01	0	46	0	123731968	60	90799
2026-01-29 03:51:04.61	40.08	12.61	-59.0	-67.3	7.3	9.70e-02	0	46	0	125829120	60	90347
2026-01-29 03:51:05.62	39.93	12.67	-59.3	-66.9	7.7	8.64e-02	0	46	0	126877696	60	86963
2026-01-29 03:51:06.63	39.78	12.73	-59.4	-67.0	7.6	8.05e-02	0	47	0	128974848	60	87655
2026-01-29 03:51:07.64	39.63	12.80	-59.6	-67.4	7.3	1.03e-01	0	46	0	131072000	60	91577
2026-01-29 03:51:08.65	39.48	12.86	-59.7	-67.8	7.1	1.29e-01	0	46	0	133169152	60	96237
2026-01-29 03:51:09.66	39.32	12.92	-59.5	-67.6	7.1	1.70e-01	0	46	0	134217728	60	94054
2026-01-29 03:51:10.66	39.17	12.98	-59.3	-67.8	7.0	1.49e-01	0	46	0	136314880	60	96310
2026-01-29 03:51:11.67	39.02	13.05	-59.3	-67.5	7.3	1.49e-01	0	46	0	138412032	60	92825
2026-01-29 03:51:12.67	38.86	13.11	-59.4	-68.0	6.9	1.41e-01	0	46	0	140509184	60	98516
2026-01-29 03:51:13.68	38.71	13.17	-59.5	-68.4	6.5	1.93e-01	0	46	0	142606336	60	102659
2026-01-29 03:51:14.68	38.55	13.23	-59.5	-68.6	6.2	2.80e-01	0	46	0	143654912	60	104972
2026-01-29 03:51:15.69	38.39	13.30	-59.2	-68.5	5.9	3.38e-01	0	46	0	145752064	60	104848
2026-01-29 03:51:16.70	38.24	13.36	-58.5	-69.0	5.3	4.07e-01	0	46	0	147849216	60	110862
2026-01-29 03:51:17.71	38.08	13.42	-57.9	-68.4	5.4	4.64e-01	0	46	0	149946368	60	102677
2026-01-29 03:51:18.72	37.92	13.48	-57.6	-68.7	5.0	5.18e-01	0	46	0	152043520	60	106299
2026-01-29 03:51:19.72	37.76	13.54	-57.5	-68.9	4.9	5.43e-01	0	46	0	154140672	60	108563
2026-01-29 03:51:20.73	37.60	13.61	-57.5	-69.2	4.7	6.01e-01	0	46	0	155189248	60	112350
2026-01-29 03:51:21.74	37.44	13.67	-57.8	-69.1	5.0	5.49e-01	0	46	0	157286400	60	111612
2026-01-29 03:51:22.75	37.28	13.73	-58.8	-69.0	5.4	4.90e-01	0	46	0	159383552	60	110730
2026-01-29 03:51:23.75	37.11	13.79	-59.4	-69.3	5.1	4.61e-01	0	46	0	161480704	60	114530
2026-01-29 03:51:24.76	36.95	13.85	-59.6	-69.9	4.8	5.31e-01	0	46	0	162529280	60	122819
2026-01-29 03:51:25.77	36.79	13.92	-59.9	-70.1	4.5	6.66e-01	0	46	0	164626432	60	124979
2026-01-29 03:51:26.77	36.62	13.98	-59.8	-69.6	4.8	7.17e-01	0	46	0	166723584	60	118482
2026-01-29 03:51:27.78	36.46	14.04	-59.6	-69.6	4.8	6.95e-01	0	46	0	168820736	60	118274
2026-01-29 03:51:28.78	36.29	14.10	-59.6	-69.7	4.5	6.34e-01	0	46	0	170917888	60	119958
2026-01-29 03:51:29.79	36.13	14.16	-59.2	-70.1	4.2	7.74e-01	0	46	0	171966464	60	125573
2026-01-29 03:51:30.79	35.96	14.22	-58.7	-70.6	4.0	1.06e+00	0	46	0	174063616	60	133213
2026-01-29 03:51:31.79	35.79	14.28	-57.7	-70.5	4.2	1.03e+00	0	46	0	176160768	60	130585
2026-01-29 03:51:32.80	35.62	14.34	-57.1	-70.2	4.3	9.45e-01	0	46	0	178257920	60	127017
2026-01-29 03:51:33.81	35.45	14.40	-56.7	-70.5	4.2	1.10e+00	0	46	0	180355072	60	130579
2026-01-29 03:51:34.81	35.29	14.47	-56.5	-70.9	4.2	1.14e+00	0	46	0	181403648	60	137783
2026-01-29 03:51:35.82	35.11	14.53	-57.1	-71.2	4.1	1.23e+00	0	46	0	183500800	60	141605
2026-01-29 03:51:36.83	34.94	14.59	-57.9	-71.4	3.9	1.30e+00	0	46	0	185597952	60	145933
2026-01-29 03:51:37.84	34.77	14.65	-58.4	-72.7	4.1	1.45e+00	0	46	104	185597952	60	169506
2026-01-29 03:51:38.84	34.60	14.71	-58.6	-71.6	3.8	1.31e+00	0	46	0	185597952	60	148841
2026-01-29 03:51:39.85	34.42	14.77	-58.6	-73.0	3.9	1.47e+00	0	46	104	185597952	60	174995
2026-01-29 03:51:40.86	34.25	14.83	-58.3	-71.4	3.9	1.38e+00	0	46	0	185597952	60	145286
2026-01-29 03:51:41.87	34.07	14.89	-58.2	-72.7	4.1	1.41e+00	0	46	104	185597952	60	169291
2026-01-29 03:51:42.88	33.90	14.95	-58.4	-73.1	3.8	1.37e+00	0	46	104	185597952	60	176201
2026-01-29 03:51:43.88	33.72	15.01	-58.4	-72.8	4.1	1.42e+00	0	46	104	185597952	60	171769
2026-01-29 03:51:44.89	33.54	15.07	-58.4	-73.4	4.0	1.46e+00	0	46	104	185597952	60	182586
2026-01-29 03:51:45.90	33.37	15.13	-58.3	-72.4	3.7	1.43e+00	0	46	0	185597952	60	162627
2026-01-29 03:51:46.91	33.19	15.19	-57.8	-73.5	3.9	1.42e+00	0	46	104	185597952	60	184571
2026-01-29 03:51:47.91	33.01	15.25	-56.8	-73.0	3.9	1.46e+00	0	46	104	185597952	60	175102
2026-01-29 03:51:48.92	32.83	15.31	-56.3	-72.0	3.6	1.44e+00	0	46	0	185597952	60	155647
2026-01-29 03:51:49.93	32.65	15.36	-55.8	-73.1	3.8	1.48e+00	0	46	104	185597952	60	176553
2026-01-29 03:51:50.94	32.47	15.42	-55.8	-73.3	3.8	1.50e+00	0	46	104	185597952	60	182016
2026-01-29 03:51:51.95	32.28	15.48	-56.4	-73.2	3.8	1.49e+00	0	46	104	185597952	60	179954
2026-01-29 03:51:52.96	32.10	15.54	-57.3	-73.6	3.8	1.48e+00	0	46	104	185597952	60	187419
2026-01-29 03:51:53.97	31.92	15.60	-57.7	-73.8	3.6	1.46e+00	0	46	104	185597952	60	192065
2026-01-29 03:51:54.97	31.73	15.66	-57.6	-73.0	3.7	1.46e+00	0	46	0	185597952	60	174767
2026-01-29 03:51:55.98	31.55	15.72	-57.3	-73.8	3.8	1.48e+00	0	46	104	185597952	60	191801
2026-01-29 03:51:56.99	31.36	15.77	-57.7	-73.7	3.8	1.48e+00	0	46	104	185597952	60	189391
2026-01-29 03:51:58.00	31.17	15.83	-58.7	-73.7	3.8	1.49e+00	0	46	104	185597952	60	189931
2026-01-29 03:51:59.01	30.99	15.89	-59.4	-73.9	3.7	1.46e+00	0	46	104	185597952	60	193152
2026-01-29 03:52:00.01	30.80	15.95	-59.7	-73.1	3.8	1.45e+00	0	46	0	185597952	60	176413
2026-01-29 03:52:01.02	30.61	16.00	-59.1	-73.7	3.9	1.44e+00	0	46	104	185597952	60	189524
2026-01-29 03:52:02.02	30.42	16.06	-59.0	-73.7	3.9	1.49e+00	0	46	104	185597952	60	190195
2026-01-29 03:52:03.03	30.23	16.12	-59.4	-73.6	3.9	1.47e+00	0	46	104	185597952	60	188007
2026-01-29 03:52:04.03	30.04	16.17	-59.9	-73.8	3.7	1.45e+00	0	46	104	185597952	60	190837
2026-01-29 03:52:05.04	29.85	16.23	-60.3	-73.2	3.8	1.44e+00	0	46	0	185597952	60	179124
2026-01-29 03:52:06.05	29.66	16.29	-60.2	-73.8	3.9	1.47e+00	0	46	104	185597952	60	191011
2026-01-29 03:52:07.05	29.46	16.34	-59.8	-73.7	3.9	1.49e+00	0	46	104	185597952	60	190786
2026-01-29 03:52:08.06	29.27	16.40	-59.4	-72.6	3.7	1.44e+00	0	46	0	185597952	60	166776
2026-01-29 03:52:09.07	29.07	16.45	-58.9	-73.5	3.9	1.48e+00	0	46	104	185597952	60	185906
2026-01-29 03:52:10.07	28.88	16.51	-58.6	-73.6	3.6	1.43e+00	0	46	104	185597952	60	186945
2026-01-29 03:52:11.08	28.68	16.56	-58.1	-72.9	3.8	1.42e+00	0	46	0	185597952	60	172247
2026-01-29 03:52:12.09	28.49	16.62	-58.2	-73.5	4.0	1.47e+00	0	46	104	185597952	60	185147
2026-01-29 03:52:13.09	28.29	16.67	-57.5	-73.2	3.6	1.45e+00	0	46	104	185597952	60	178847
2026-01-29 03:52:14.10	28.09	16.73	-55.1	-72.6	3.6	1.49e+00	0	46	104	185597952	60	167887
2026-01-29 03:52:15.11	27.89	16.78	-53.4	-72.4	3.6	1.49e+00	0	46	104	185597952	60	163174
2026-01-29 03:52:16.11	27.69	16.84	-52.4	-72.5	3.6	1.50e+00	0	46	104	185597952	60	164937
2026-01-29 03:52:17.12	27.49	16.89	-51.9	-72.5	3.8	1.50e+00	0	46	104	185597952	60	165831
2026-01-29 03:52:18.12	27.29	16.94	-52.5	-73.2	3.8	1.47e+00	0	46	104	185597952	60	179532
2026-01-29 03:52:19.13	27.09	17.00	-54.0	-73.1	3.8	1.49e+00	0	46	104	185597952	60	177226
2026-01-29 03:52:20.13	26.89	17.05	-54.8	-72.9	3.8	1.46e+00	0	46	104	185597952	60	172787
2026-01-29 03:52:21.14	26.69	17.10	-53.2	-72.4	3.6	1.49e+00	0	46	104	185597952	60	163296
2026-01-29 03:52:22.15	26.48	17.15	-50.9	-72.1	3.6	1.49e+00	0	46	104	185597952	60	157582
2026-01-29 03:52:23.16	26.28	17.21	-49.4	-71.6	3.6	1.51e+00	0	46	104	185597952	60	148837
2026-01-29 03:52:24.16	26.07	17.26	-48.4	-72.2	3.7	1.50e+00	0	46	104	185597952	60	158850
2026-01-29 03:52:25.17	25.86	17.31	-48.2	-71.8	3.6	1.50e+00	0	46	104	185597952	60	152113
2026-01-29 03:52:26.17	25.66	17.36	-48.1	-71.4	3.6	1.51e+00	0	46	104	185597952	60	145608
2026-01-29 03:52:27.18	25.45	17.41	-48.0	-71.0	3.6	1.51e+00	0	46	104	185597952	60	139183
2026-01-29 03:52:28.18	25.24	17.46	-48.5	-71.2	3.6	1.51e+00	0	46	104	185597952	60	141439
2026-01-29 03:52:29.19	25.03	17.51	-49.6	-73.1	3.6	1.51e+00	0	46	104	185597952	60	176119
2026-01-29 03:52:30.20	24.82	17.56	-55.8	-76.5	3.6	1.51e+00	0	46	104	185597952	60	263138
2026-01-29 03:52:31.21	24.61	17.61	-58.3	-76.1	3.6	1.51e+00	0	46	104	185597952	60	250287
2026-01-29 03:52:32.21	24.40	17.66	-53.2	-71.9	3.6	1.51e+00	0	46	104	185597952	60	154011
2026-01-29 03:52:33.22	24.19	17.71	-52.1	-73.3	3.6	1.51e+00	0	46	104	185597952	60	180408
2026-01-29 03:52:34.23	23.98	17.76	-56.5	-74.7	3.6	1.51e+00	0	46	104	185597952	60	213512
2026-01-29 03:52:35.24	23.76	17.81	-58.6	-76.0	3.5	1.51e+00	0	46	104	185597952	60	246448
2026-01-29 03:52:36.24	23.55	17.86	-59.6	-77.0	3.6	1.51e+00	0	46	104	185597952	60	276233
2026-01-29 03:52:37.25	23.34	17.91	-55.4	-76.6	3.6	1.51e+00	0	46	104	185597952	60	266061
2026-01-29 03:52:38.26	23.12	17.96	-56.1	-75.8	3.6	1.51e+00	0	46	104	185597952	60	242370
2026-01-29 03:52:39.26	22.91	18.00	-59.8	-75.8	3.6	1.51e+00	0	46	104	185597952	60	242606
2026-01-29 03:52:40.26	22.69	18.05	-58.5	-76.2	3.6	1.51e+00	0	46	104	185597952	60	251938
2026-01-29 03:52:41.27	22.47	18.10	-57.3	-76.1	3.6	1.51e+00	0	46	104	185597952	60	249694
2026-01-29 03:52:42.28	22.25	18.14	-58.1	-76.2	3.6	1.51e+00	0	46	104	185597952	60	253709
2026-01-29 03:52:43.29	22.04	18.19	-58.4	-76.5	3.6	1.51e+00	0	46	104	185597952	60	261434
2026-01-29 03:52:44.30	21.82	18.24	-56.8	-75.1	3.6	1.51e+00	0	46	104	185597952	60	222018
2026-01-29 03:52:45.31	21.59	18.28	-56.7	-77.0	3.6	1.51e+00	0	46	104	185597952	60	278411
2026-01-29 03:52:46.31	21.38	18.33	-56.7	-75.2	3.6	1.51e+00	0	46	104	185597952	60	224248
2026-01-29 03:52:47.32	21.15	18.37	-56.5	-75.9	3.6	1.51e+00	0	46	104	185597952	60	245192
2026-01-29 03:52:48.32	20.93	18.41	-59.1	-75.8	3.6	1.51e+00	0	46	104	185597952	60	242737
2026-01-29 03:52:49.33	20.71	18.46	-56.8	-75.0	3.6	1.51e+00	0	46	104	185597952	60	221536
2026-01-29 03:52:50.34	20.49	18.50	-57.0	-76.0	3.5	1.51e+00	0	46	104	185597952	60	247951
2026-01-29 03:52:51.34	20.26	18.55	-56.8	-76.2	3.6	1.51e+00	0	46	104	185597952	60	253348
2026-01-29 03:52:52.34	20.04	18.59	-60.3	-75.7	3.6	1.51e+00	0	46	104	185597952	60	239676
2026-01-29 03:52:53.35	19.81	18.63	-55.5	-75.1	3.6	1.51e+00	0	46	104	185597952	60	222528
2026-01-29 03:52:54.35	19.59	18.67	-57.6	-76.8	3.6	1.51e+00	0	46	104	185597952	60	270535
2026-01-29 03:52:55.36	19.36	18.71	-56.1	-75.5	3.6	1.51e+00	0	46	104	185597952	60	233507
2026-01-29 03:52:56.36	19.14	18.75	-52.5	-72.7	3.6	1.51e+00	0	46	104	185597952	60	168401
2026-01-29 03:52:57.37	18.91	18.80	-51.2	-71.8	3.6	1.51e+00	0	46	104	185597952	60	151750
2026-01-29 03:52:58.38	18.68	18.84	-52.0	-71.7	3.6	1.51e+00	0	46	104	185597952	60	150440
2026-01-29 03:52:59.38	18.45	18.88	-52.6	-71.7	3.6	1.51e+00	0	46	104	185597952	60	150377
2026-01-29 03:53:00.39	18.22	18.92	-59.3	-73.6	3.6	1.50e+00	0	46	104	185597952	60	188013
2026-01-29 03:53:01.40	17.99	18.96	-59.1	-75.2	3.6	1.51e+00	0	46	104	185597952	60	224510
2026-01-29 03:53:02.41	17.76	18.99	-53.8	-72.9	3.6	1.51e+00	0	46	104	185597952	60	172811
2026-01-29 03:53:03.41	17.53	19.03	-55.8	-74.8	3.6	1.51e+00	0	46	104	185597952	60	215939
2026-01-29 03:53:04.42	17.30	19.07	-51.4	-71.9	3.6	1.51e+00	0	46	104	185597952	60	154987
2026-01-29 03:53:05.43	17.07	19.11	-53.4	-72.3	3.6	1.51e+00	0	46	104	185597952	60	160928
2026-01-29 03:53:06.44	16.83	19.15	-54.9	-73.4	3.6	1.51e+00	0	46	104	185597952	60	183783
2026-01-29 03:53:07.44	16.60	19.18	-56.6	-75.0	3.6	1.51e+00	0	46	104	185597952	60	221136
2026-01-29 03:53:08.45	16.36	19.22	-53.9	-75.3	3.6	1.51e+00	0	46	104	185597952	60	227180
2026-01-29 03:53:09.46	16.13	19.25	-60.0	-77.0	3.6	1.51e+00	0	46	104	185597952	60	277034
2026-01-29 03:53:10.47	15.89	19.29	-57.1	-75.6	3.6	1.51e+00	0	46	104	185597952	60	236003
2026-01-29 03:53:11.48	15.66	19.32	-57.8	-77.0	3.6	1.51e+00	0	46	104	185597952	60	278536
2026-01-29 03:53:12.49	15.42	19.36	-54.1	-75.1	3.6	1.51e+00	0	46	104	185597952	60	222971
2026-01-29 03:53:13.49	15.18	19.39	-53.5	-75.0	3.6	1.51e+00	0	46	104	185597952	60	221385
2026-01-29 03:53:14.50	14.95	19.43	-53.2	-75.1	3.5	1.51e+00	0	46	104	185597952	60	221694
2026-01-29 03:53:15.51	14.71	19.46	-53.6	-74.8	3.6	1.51e+00	0	46	104	185597952	60	216255
2026-01-29 03:53:16.52	14.47	19.49	-57.7	-75.9	3.6	1.51e+00	0	46	104	185597952	60	243254
2026-01-29 03:53:17.53	14.23	19.52	-59.6	-76.8	3.6	1.51e+00	0	46	104	185597952	60	271684
2026-01-29 03:53:18.54	13.99	19.55	-58.8	-75.4	3.6	1.51e+00	0	46	104	185597952	60	231515
2026-01-29 03:53:19.54	13.75	19.59	-59.1	-75.4	3.6	1.51e+00	0	46	104	185597952	60	230475
2026-01-29 03:53:20.55	13.51	19.62	-59.3	-76.4	3.6	1.51e+00	0	46	104	185597952	60	257924
2026-01-29 03:53:21.56	13.27	19.65	-58.4	-75.4	3.6	1.51e+00	0	46	104	185597952	60	231960
2026-01-29 03:53:22.56	13.03	19.68	-59.2	-76.1	3.6	1.51e+00	0	46	104	185597952	60	248862
2026-01-29 03:53:23.56	12.79	19.70	-59.7	-76.5	3.6	1.51e+00	0	46	104	185597952	60	261299
2026-01-29 03:53:24.57	12.54	19.73	-55.2	-76.1	3.6	1.51e+00	0	46	104	185597952	60	249469
2026-01-29 03:53:25.58	12.30	19.76	-59.3	-76.9	3.6	1.51e+00	0	46	104	185597952	60	275742
2026-01-29 03:53:26.59	12.06	19.79	-55.7	-76.4	3.6	1.51e+00	0	46	104	185597952	60	257544
2026-01-29 03:53:27.59	11.81	19.82	-53.4	-75.6	3.6	1.51e+00	0	46	104	185597952	60	237054
2026-01-29 03:53:28.60	11.57	19.84	-54.6	-76.4	3.6	1.51e+00	0	46	104	185597952	60	259640
2026-01-29 03:53:29.61	11.32	19.87	-53.9	-74.4	3.6	1.51e+00	0	46	104	185597952	60	205497
2026-01-29 03:53:30.62	11.08	19.89	-54.2	-74.8	3.6	1.51e+00	0	46	104	185597952	60	214087
2026-01-29 03:53:31.62	10.84	19.92	-57.3	-75.9	3.6	1.51e+00	0	46	104	185597952	60	243317
2026-01-29 03:53:32.63	10.59	19.94	-57.6	-76.5	3.6	1.51e+00	0	46	104	185597952	60	261189
2026-01-29 03:53:33.64	10.34	19.97	-59.8	-76.9	3.6	1.51e+00	0	46	104	185597952	60	273640
2026-01-29 03:53:34.64	10.10	19.99	-60.3	-77.1	3.5	1.51e+00	0	46	104	185597952	60	280215
2026-01-29 03:53:35.65	9.85	20.01	-60.2	-77.2	3.6	1.51e+00	0	46	104	185597952	60	282571
2026-01-29 03:53:36.66	9.60	20.04	-56.7	-75.8	3.6	1.51e+00	0	46	104	185597952	60	241874
2026-01-29 03:53:37.66	9.36	20.06	-58.1	-76.0	3.6	1.51e+00	0	46	104	185597952	60	245870
2026-01-29 03:53:38.67	9.11	20.08	-58.4	-76.3	3.6	1.51e+00	0	46	104	185597952	60	256478
2026-01-29 03:53:39.68	8.86	20.10	-60.0	-77.3	3.6	1.51e+00	0	46	104	185597952	60	286036
2026-01-29 03:53:40.68	8.61	20.12	-60.0	-77.1	3.6	1.51e+00	0	46	104	185597952	60	281567
2026-01-29 03:53:41.68	8.36	20.14	-58.5	-77.1	3.6	1.51e+00	0	46	104	185597952	60	279694
2026-01-29 03:53:42.68	8.12	20.16	-58.0	-76.2	3.6	1.51e+00	0	46	104	185597952	60	252917
2026-01-29 03:53:43.68	7.87	20.18	-56.7	-76.2	3.6	1.51e+00	0	46	104	185597952	60	251651
2026-01-29 03:53:44.69	7.62	20.19	-57.7	-76.9	3.6	1.51e+00	0	46	104	185597952	60	272798
2026-01-29 03:53:45.69	7.37	20.21	-58.3	-76.2	3.6	1.51e+00	0	46	104	185597952	60	253407
2026-01-29 03:53:46.70	7.12	20.23	-58.9	-76.6	3.6	1.51e+00	0	46	104	185597952	60	263535
2026-01-29 03:53:47.71	6.87	20.24	-56.5	-76.5	3.6	1.51e+00	0	46	104	185597952	60	261726
2026-01-29 03:53:48.71	6.62	20.26	-56.8	-76.5	3.6	1.51e+00	0	46	104	185597952	60	262515
2026-01-29 03:53:49.71	6.37	20.27	-56.3	-76.2	3.6	1.51e+00	0	46	104	185597952	60	254413
2026-01-29 03:53:50.72	6.12	20.29	-56.8	-76.9	3.6	1.51e+00	0	46	104	185597952	60	274529
2026-01-29 03:53:51.73	5.86	20.30	-56.5	-76.4	3.6	1.51e+00	0	46	104	185597952	60	259660
2026-01-29 03:53:52.73	5.61	20.32	-56.9	-75.8	3.6	1.51e+00	0	46	104	185597952	60	242502
2026-01-29 03:53:53.74	5.36	20.33	-56.3	-75.9	3.6	1.51e+00	0	46	104	185597952	60	244879
2026-01-29 03:53:54.75	5.11	20.34	-56.4	-76.5	3.6	1.51e+00	0	46	104	185597952	60	262586
2026-01-29 03:53:55.75	4.86	20.35	-57.1	-77.1	3.6	1.51e+00	0	46	104	185597952	60	280425
2026-01-29 03:53:56.76	4.60	20.36	-55.8	-76.3	3.6	1.51e+00	0	46	104	185597952	60	255208
2026-01-29 03:53:57.75	4.35	20.37	-57.1	-76.2	3.6	1.51e+00	0	46	104	185597952	60	253818
2026-01-29 03:53:58.76	4.10	20.38	-59.6	-77.0	3.6	1.51e+00	0	46	104	185597952	60	275895
2026-01-29 03:53:59.76	3.85	20.39	-56.0	-76.0	3.6	1.51e+00	0	46	104	185597952	60	247957
2026-01-29 03:54:00.75	3.60	20.40	-55.0	-75.9	3.6	1.51e+00	0	46	104	185597952	60	243580
2026-01-29 03:54:01.75	3.35	20.41	-54.9	-75.9	3.6	1.51e+00	0	46	104	185597952	60	243587
2026-01-29 03:54:02.75	3.10	20.42	-56.0	-75.8	3.6	1.51e+00	0	46	104	185597952	60	242657
2026-01-29 03:54:03.76	2.84	20.42	-59.2	-76.4	3.6	1.51e+00	0	46	104	185597952	60	260205
2026-01-29 03:54:04.76	2.59	20.43	-57.8	-76.2	3.6	1.51e+00	0	46	104	185597952	60	253702
2026-01-29 03:54:05.77	2.33	20.43	-57.7	-76.3	3.6	1.51e+00	0	46	104	185597952	60	254588
2026-01-29 03:54:06.78	2.08	20.44	-58.3	-76.1	3.6	1.51e+00	0	46	104	185597952	60	250903
2026-01-29 03:54:07.79	1.83	20.44	-58.6	-76.5	3.6	1.51e+00	0	46	104	185597952	60	260905
2026-01-29 03:54:08.79	1.57	20.45	-58.4	-76.1	3.6	1.51e+00	0	46	104	185597952	60	250379
2026-01-29 03:54:09.80	1.32	20.45	-58.2	-76.3	3.6	1.51e+00	0	46	104	185597952	60	254762
2026-01-29 03:54:10.81	1.06	20.45	-58.8	-76.5	3.6	1.51e+00	0	46	104	185597952	60	262283
2026-01-29 03:54:11.81	0.81	20.46	-60.6	-77.1	3.6	1.51e+00	0	46	104	185597952	60	279963
2026-01-29 03:54:12.82	0.56	20.46	-58.4	-76.7	3.6	1.51e+00	0	46	104	185597952	60	267043
2026-01-29 03:54:13.83	0.30	20.46	-60.3	-77.0	3.6	1.51e+00	0	46	104	185597952	60	277828
2026-01-29 03:54:14.83	0.05	20.46	-59.2	-76.6	3.6	1.51e+00	0	46	104	185597952	60	264885
2026-01-29 03:54:15.83	359.79	20.46	-58.1	-76.4	3.6	1.51e+00	0	46	104	185597952	60	259015
2026-01-29 03:54:16.84	359.54	20.46	-58.1	-76.3	3.6	1.51e+00	0	46	104	185597952	60	255367
2026-01-29 03:54:17.84	359.29	20.46	-58.7	-76.1	3.6	1.51e+00	0	46	104	185597952	60	249515
2026-01-29 03:54:18.85	359.03	20.45	-58.6	-76.1	3.6	1.51e+00	0	46	104	185597952	60	250083
2026-01-29 03:54:19.86	358.78	20.45	-58.8	-76.3	3.6	1.51e+00	0	46	104	185597952	60	255577
2026-01-29 03:54:20.86	358.52	20.45	-59.4	-76.8	3.6	1.51e+00	0	46	104	185597952	60	269527
2026-01-29 03:54:21.87	358.27	20.44	-59.3	-76.8	3.6	1.51e+00	0	46	104	185597952	60	272238
2026-01-29 03:54:22.88	358.01	20.44	-59.2	-76.5	3.6	1.51e+00	0	46	104	185597952	60	261337
2026-01-29 03:54:23.89	357.76	20.44	-59.6	-77.1	3.6	1.51e+00	0	46	104	185597952	60	281378
2026-01-29 03:54:24.89	357.51	20.43	-59.7	-76.9	3.6	1.51e+00	0	46	104	185597952	60	274749
2026-01-29 03:54:25.90	357.25	20.42	-60.1	-76.8	3.6	1.51e+00	0	46	104	185597952	60	272164
2026-01-29 03:54:26.91	357.00	20.42	-60.4	-76.9	3.6	1.51e+00	0	46	104	185597952	60	273787
2026-01-29 03:54:27.91	356.75	20.41	-58.3	-76.7	3.6	1.51e+00	0	46	104	185597952	60	268973
2026-01-29 03:54:28.92	356.49	20.40	-59.2	-77.0	3.6	1.51e+00	0	46	104	185597952	60	276004
2026-01-29 03:54:29.93	356.24	20.39	-59.9	-77.0	3.6	1.51e+00	0	46	104	185597952	60	277405
2026-01-29 03:54:30.93	355.99	20.38	-60.0	-76.6	3.6	1.51e+00	0	46	104	185597952	60	263923
2026-01-29 03:54:31.93	355.74	20.37	-59.7	-76.4	3.6	1.51e+00	0	46	104	185597952	60	259184
2026-01-29 03:54:32.94	355.48	20.36	-59.8	-76.5	3.6	1.51e+00	0	46	104	185597952	60	261901
2026-01-29 03:54:33.95	355.23	20.35	-60.0	-76.6	3.6	1.51e+00	0	46	104	185597952	60	266303
2026-01-29 03:54:34.95	354.98	20.34	-60.1	-76.7	3.6	1.51e+00	0	46	104	185597952	60	269371
2026-01-29 03:54:35.96	354.72	20.33	-60.5	-76.9	3.6	1.51e+00	0	46	104	185597952	60	274366
2026-01-29 03:54:36.97	354.47	20.32	-58.3	-76.1	3.6	1.51e+00	0	46	104	185597952	60	249044
2026-01-29 03:54:37.97	354.22	20.30	-58.6	-77.1	3.6	1.51e+00	0	46	104	185597952	60	281609
2026-01-29 03:54:38.98	353.97	20.29	-59.6	-76.6	3.6	1.51e+00	0	46	104	185597952	60	265165
2026-01-29 03:54:39.99	353.72	20.28	-58.5	-75.9	3.6	1.51e+00	0	46	104	185597952	60	243420
2026-01-29 03:54:41.00	353.46	20.26	-58.5	-75.9	3.6	1.51e+00	0	46	104	185597952	60	243062
2026-01-29 03:54:42.01	353.21	20.24	-58.6	-75.9	3.6	1.51e+00	0	46	104	185597952	60	245019
2026-01-29 03:54:43.01	352.96	20.23	-58.9	-76.0	3.6	1.51e+00	0	46	104	185597952	60	245824
2026-01-29 03:54:44.02	352.71	20.21	-59.8	-76.7	3.6	1.51e+00	0	46	104	185597952	60	268121
2026-01-29 03:54:45.03	352.46	20.19	-59.7	-76.9	3.6	1.51e+00	0	46	104	185597952	60	275690
2026-01-29 03:54:46.03	352.21	20.18	-60.1	-76.9	3.5	1.51e+00	0	46	104	185597952	60	275763
2026-01-29 03:54:47.04	351.96	20.16	-59.3	-76.9	3.6	1.51e+00	0	46	104	185597952	60	273313
2026-01-29 03:54:48.04	351.72	20.14	-59.9	-76.7	3.6	1.51e+00	0	46	104	185597952	60	267742
2026-01-29 03:54:49.04	351.47	20.12	-58.6	-76.4	3.6	1.51e+00	0	46	104	185597952	60	259737
2026-01-29 03:54:50.05	351.22	20.10	-60.0	-76.9	3.6	1.51e+00	0	46	104	185597952	60	275511
2026-01-29 03:54:51.05	350.97	20.08	-59.5	-76.9	3.6	1.51e+00	0	46	104	185597952	60	272969
2026-01-29 03:54:52.06	350.72	20.06	-60.0	-76.7	3.6	1.51e+00	0	46	104	185597952	60	266514
2026-01-29 03:54:53.06	350.48	20.04	-59.7	-76.5	3.6	1.51e+00	0	46	104	185597952	60	261539
2026-01-29 03:54:54.07	350.23	20.02	-58.7	-76.6	3.6	1.51e+00	0	46	104	185597952	60	264415
2026-01-29 03:54:55.07	349.98	19.99	-59.1	-76.1	3.6	1.51e+00	0	46	104	185597952	60	249904
2026-01-29 03:54:56.08	349.74	19.97	-60.1	-76.6	3.6	1.51e+00	0	46	104	185597952	60	264580
2026-01-29 03:54:57.09	349.49	19.95	-59.3	-76.4	3.6	1.51e+00	0	46	104	185597952	60	259780
2026-01-29 03:54:58.09	349.25	19.92	-59.4	-76.4	3.6	1.51e+00	0	46	104	185597952	60	258083
2026-01-29 03:54:59.10	349.00	19.90	-59.4	-76.4	3.6	1.51e+00	0	46	104	185597952	60	260009
2026-01-29 03:55:00.11	348.75	19.87	-60.1	-76.6	3.6	1.51e+00	0	46	104	185597952	60	266233
2026-01-29 03:55:01.12	348.51	19.84	-60.4	-76.6	3.6	1.51e+00	0	46	104	185597952	60	266223
2026-01-29 03:55:02.13	348.26	19.82	-60.3	-76.8	3.6	1.51e+00	0	46	104	185597952	60	272017
2026-01-29 03:55:03.13	348.02	19.79	-58.6	-76.1	3.6	1.51e+00	0	46	104	185597952	60	249164
2026-01-29 03:55:04.14	347.78	19.76	-60.1	-76.7	3.6	1.51e+00	0	46	104	185597952	60	269226
2026-01-29 03:55:05.15	347.53	19.74	-59.4	-76.5	3.6	1.51e+00	0	46	104	185597952	60	262619
2026-01-29 03:55:06.15	347.29	19.71	-60.3	-76.9	3.6	1.51e+00	0	46	104	185597952	60	273033
2026-01-29 03:55:07.16	347.05	19.68	-60.4	-76.9	3.6	1.51e+00	0	46	104	185597952	60	272772
2026-01-29 03:55:08.17	346.81	19.65	-58.8	-76.4	3.6	1.51e+00	0	46	104	185597952	60	258312
2026-01-29 03:55:09.18	346.57	19.62	-59.1	-76.3	3.6	1.51e+00	0	46	104	185597952	60	256671
2026-01-29 03:55:10.19	346.33	19.59	-59.8	-76.7	3.6	1.51e+00	0	46	104	185597952	60	266941
2026-01-29 03:55:11.19	346.09	19.56	-60.0	-76.6	3.6	1.51e+00	0	46	104	185597952	60	263849
2026-01-29 03:55:12.20	345.85	19.53	-59.3	-76.3	3.6	1.51e+00	0	46	104	185597952	60	255376
2026-01-29 03:55:13.21	345.61	19.49	-59.1	-76.8	3.6	1.51e+00	0	46	104	185597952	60	271217
2026-01-29 03:55:14.22	345.37	19.46	-59.9	-76.8	3.6	1.51e+00	0	46	104	185597952	60	271884
2026-01-29 03:55:15.23	345.13	19.43	-60.2	-76.8	3.6	1.51e+00	0	46	104	185597952	60	269892
2026-01-29 03:55:16.24	344.89	19.39	-59.9	-76.3	3.6	1.51e+00	0	46	104	185597952	60	255918
2026-01-29 03:55:17.24	344.66	19.36	-58.5	-76.7	3.6	1.51e+00	0	46	104	185597952	60	267379
2026-01-29 03:55:18.25	344.42	19.33	-59.2	-76.7	3.6	1.51e+00	0	46	104	185597952	60	267080
2026-01-29 03:55:19.26	344.18	19.29	-60.2	-76.8	3.6	1.51e+00	0	46	104	185597952	60	272135
2026-01-29 03:55:20.27	343.95	19.26	-60.1	-76.8	3.6	1.51e+00	0	46	104	185597952	60	269803
2026-01-29 03:55:21.28	343.71	19.22	-60.0	-76.6	3.6	1.51e+00	0	46	104	185597952	60	263899
2026-01-29 03:55:22.28	343.48	19.19	-59.1	-76.7	3.6	1.51e+00	0	46	104	185597952	60	267438
2026-01-29 03:55:23.29	343.25	19.15	-60.4	-76.9	3.5	1.51e+00	0	46	104	185597952	60	272672
2026-01-29 03:55:24.29	343.01	19.11	-60.2	-76.9	3.6	1.51e+00	0	46	104	185597952	60	274531
2026-01-29 03:55:25.30	342.78	19.07	-59.5	-76.4	3.6	1.51e+00	0	46	104	185597952	60	259116
2026-01-29 03:55:26.31	342.55	19.04	-59.8	-76.9	3.6	1.51e+00	0	46	104	185597952	60	275606
2026-01-29 03:55:27.31	342.32	19.00	-60.0	-76.9	3.6	1.51e+00	0	46	104	185597952	60	273226
2026-01-29 03:55:28.32	342.09	18.96	-60.6	-77.0	3.6	1.51e+00	0	46	104	185597952	60	276191
2026-01-29 03:55:29.33	341.86	18.92	-59.9	-76.5	3.6	1.51e+00	0	46	104	185597952	60	263367
2026-01-29 03:55:30.34	341.63	18.88	-59.8	-76.7	3.6	1.51e+00	0	46	104	185597952	60	268042
2026-01-29 03:55:31.35	341.40	18.84	-60.3	-76.8	3.6	1.51e+00	0	46	104	185597952	60	271911
2026-01-29 03:55:32.36	341.17	18.80	-60.5	-76.9	3.6	1.51e+00	0	46	104	185597952	60	273006
2026-01-29 03:55:33.36	340.94	18.76	-59.0	-76.5	3.6	1.51e+00	0	46	104	185597952	60	260939
2026-01-29 03:55:34.37	340.71	18.72	-59.7	-76.7	3.5	1.51e+00	0	46	104	185597952	60	266650
2026-01-29 03:55:35.38	340.49	18.68	-60.0	-76.6	3.5	1.51e+00	0	46	104	185597952	60	263820
2026-01-29 03:55:36.38	340.26	18.63	-60.1	-76.8	3.6	1.51e+00	0	46	104	185597952	60	270921
2026-01-29 03:55:37.39	340.04	18.59	-60.3	-76.8	3.6	1.51e+00	0	46	104	185597952	60	270264
2026-01-29 03:55:38.40	339.81	18.55	-59.2	-76.5	3.6	1.51e+00	0	46	104	185597952	60	261023
2026-01-29 03:55:39.40	339.59	18.51	-60.1	-76.8	3.6	1.51e+00	0	46	104	185597952	60	271125
2026-01-29 03:55:40.41	339.36	18.46	-59.9	-76.6	3.6	1.51e+00	0	46	104	185597952	60	264149
2026-01-29 03:55:41.41	339.14	18.42	-59.7	-76.8	3.6	1.51e+00	0	46	104	185597952	60	269947
2026-01-29 03:55:42.42	338.92	18.37	-59.5	-76.7	3.6	1.51e+00	0	46	104	185597952	60	267742
2026-01-29 03:55:43.43	338.70	18.33	-60.1	-76.7	3.6	1.51e+00	0	46	104	185597952	60	267908
2026-01-29 03:55:44.43	338.48	18.28	-59.6	-76.4	3.6	1.51e+00	0	46	104	185597952	60	259464
2026-01-29 03:55:45.43	338.26	18.24	-59.3	-76.7	3.6	1.51e+00	0	46	104	185597952	60	269266
2026-01-29 03:55:46.44	338.04	18.19	-60.2	-76.8	3.6	1.51e+00	0	46	104	185597952	60	270151
2026-01-29 03:55:47.45	337.82	18.15	-60.2	-76.8	3.6	1.51e+00	0	46	104	185597952	60	271902
2026-01-29 03:55:48.46	337.60	18.10	-60.0	-76.4	3.6	1.51e+00	0	46	104	185597952	60	260350
2026-01-29 03:55:49.46	337.39	18.05	-59.3	-76.6	3.6	1.51e+00	0	46	104	185597952	60	266042
2026-01-29 03:55:50.47	337.17	18.01	-59.3	-76.8	3.6	1.51e+00	0	46	104	185597952	60	270896
2026-01-29 03:55:51.48	336.95	17.96	-59.2	-76.7	3.6	1.51e+00	0	46	104	185597952	60	266598
2026-01-29 03:55:52.49	336.74	17.91	-60.2	-76.6	3.6	1.51e+00	0	46	104	185597952	60	264843
2026-01-29 03:55:53.49	336.52	17.86	-58.9	-76.6	3.6	1.51e+00	0	46	104	185597952	60	265578
2026-01-29 03:55:54.50	336.31	17.82	-59.0	-76.6	3.6	1.51e+00	0	46	104	185597952	60	264158
2026-01-29 03:55:55.50	336.10	17.77	-58.5	-76.5	3.6	1.51e+00	0	46	104	185597952	60	261736
2026-01-29 03:55:56.50	335.89	17.72	-60.1	-76.6	3.6	1.51e+00	0	46	104	185597952	60	266147
2026-01-29 03:55:57.51	335.67	17.67	-59.4	-76.7	3.6	1.51e+00	0	46	104	185597952	60	268144
2026-01-29 03:55:58.52	335.46	17.62	-58.5	-76.7	3.6	1.51e+00	0	46	104	185597952	60	266431
2026-01-29 03:55:59.53	335.25	17.57	-59.4	-76.6	3.6	1.51e+00	0	46	104	185597952	60	265077
2026-01-29 03:56:00.53	335.04	17.52	-59.4	-76.3	3.6	1.51e+00	0	46	104	185597952	60	255024
2026-01-29 03:56:01.54	334.83	17.47	-60.3	-76.8	3.6	1.51e+00	0	46	104	185597952	60	269952
2026-01-29 03:56:02.55	334.63	17.42	-59.5	-76.7	3.6	1.51e+00	0	46	104	185597952	60	268428
2026-01-29 03:56:03.56	334.42	17.37	-60.2	-76.7	3.6	1.51e+00	0	46	104	185597952	60	269394
2026-01-29 03:56:04.57	334.21	17.31	-58.2	-75.9	3.6	1.51e+00	0	46	104	185597952	60	245143
2026-01-29 03:56:05.57	334.00	17.26	-58.7	-76.0	3.6	1.51e+00	0	46	104	185597952	60	245816
2026-01-29 03:56:06.58	333.80	17.21	-58.7	-75.8	3.5	1.51e+00	0	46	104	185597952	60	242802
2026-01-29 03:56:07.59	333.59	17.16	-58.9	-76.0	3.6	1.51e+00	0	46	104	185597952	60	247277
2026-01-29 03:56:08.60	333.39	17.11	-59.0	-76.2	3.6	1.51e+00	0	46	104	185597952	60	252677
2026-01-29 03:56:09.60	333.19	17.05	-60.1	-76.5	3.6	1.51e+00	0	46	104	185597952	60	262549
2026-01-29 03:56:10.61	332.98	17.00	-59.4	-76.6	3.6	1.51e+00	0	46	104	185597952	60	264210
2026-01-29 03:56:11.62	332.78	16.95	-59.7	-76.7	3.6	1.51e+00	0	46	104	185597952	60	266693
2026-01-29 03:56:12.63	332.58	16.89	-59.5	-76.3	3.6	1.51e+00	0	46	104	185597952	60	256960
2026-01-29 03:56:13.64	332.38	16.84	-59.8	-76.6	3.6	1.51e+00	0	46	104	185597952	60	265236
2026-01-29 03:56:14.64	332.18	16.79	-59.4	-76.6	3.6	1.51e+00	0	46	104	185597952	60	264998
2026-01-29 03:56:15.64	331.98	16.73	-59.8	-76.7	3.6	1.51e+00	0	46	104	185597952	60	267020
2026-01-29 03:56:16.65	331.78	16.68	-59.8	-76.4	3.5	1.51e+00	0	46	104	185597952	60	258063
2026-01-29 03:56:17.66	331.59	16.62	-60.0	-76.6	3.5	1.51e+00	0	46	104	185597952	60	263797
2026-01-29 03:56:18.67	331.39	16.57	-59.7	-76.8	3.6	1.51e+00	0	46	104	185597952	60	269511
2026-01-29 03:56:19.67	331.19	16.51	-60.0	-76.6	3.6	1.51e+00	0	46	104	185597952	60	264127
2026-01-29 03:56:20.68	331.00	16.46	-59.7	-76.4	3.6	1.51e+00	0	46	104	185597952	60	258622
2026-01-29 03:56:21.69	330.80	16.40	-59.7	-76.5	3.6	1.51e+00	0	46	104	185597952	60	262719
2026-01-29 03:56:22.70	330.61	16.35	-59.7	-76.7	3.6	1.51e+00	0	46	104	185597952	60	268628
2026-01-29 03:56:23.70	330.42	16.29	-59.5	-76.3	3.6	1.51e+00	0	46	104	185597952	60	256410
2026-01-29 03:56:24.71	330.22	16.23	-59.5	-76.6	3.6	1.51e+00	0	46	104	185597952	60	265768
2026-01-29 03:56:25.71	330.03	16.18	-59.5	-76.4	3.6	1.51e+00	0	46	104	185597952	60	257570
2026-01-29 03:56:26.71	329.84	16.12	-59.5	-76.7	3.6	1.51e+00	0	46	104	185597952	60	268648
2026-01-29 03:56:27.72	329.65	16.06	-59.6	-76.7	3.6	1.51e+00	0	46	104	185597952	60	266972
2026-01-29 03:56:28.73	329.46	16.01	-59.7	-76.7	3.6	1.51e+00	0	46	104	185597952	60	266563
2026-01-29 03:56:29.74	329.27	15.95	-59.3	-76.5	3.6	1.51e+00	0	46	104	185597952	60	261353
2026-01-29 03:56:30.73	329.09	15.89	-59.6	-76.7	3.6	1.51e+00	0	46	104	185597952	60	266834
2026-01-29 03:56:31.74	328.90	15.84	-59.8	-76.6	3.6	1.51e+00	0	46	104	185597952	60	265207
2026-01-29 03:56:32.74	328.72	15.78	-59.2	-76.6	3.6	1.51e+00	0	47	104	185597952	60	265290
2026-01-29 03:56:33.74	328.53	15.72	-59.3	-76.5	3.6	1.51e+00	0	46	104	185597952	60	260876
2026-01-29 03:56:34.75	328.35	15.66	-59.3	-76.5	3.6	1.51e+00	0	46	104	185597952	60	260889
2026-01-29 03:56:35.75	328.16	15.61	-59.4	-76.6	3.6	1.51e+00	0	46	104	185597952	60	265564
2026-01-29 03:56:36.76	327.98	15.55	-59.4	-76.6	3.6	1.51e+00	0	46	104	185597952	60	265225
2026-01-29 03:56:37.76	327.80	15.49	-58.8	-76.5	3.6	1.51e+00	0	46	104	185597952	60	262588
2026-01-29 03:56:38.76	327.62	15.43	-58.9	-76.5	3.6	1.51e+00	0	46	104	185597952	60	261839
2026-01-29 03:56:39.76	327.44	15.37	-59.3	-76.6	3.6	1.51e+00	0	46	104	185597952	60	264107
2026-01-29 03:56:40.77	327.25	15.31	-59.7	-76.5	3.6	1.51e+00	0	46	104	185597952	60	261840
2026-01-29 03:56:41.78	327.07	15.25	-59.5	-76.5	3.6	1.51e+00	0	46	104	185597952	60	261235
2026-01-29 03:56:42.79	326.89	15.19	-59.7	-76.5	3.6	1.51e+00	0	46	104	185597952	60	261995
2026-01-29 03:56:43.79	326.72	15.14	-59.8	-76.4	3.6	1.51e+00	0	46	104	185597952	60	258716
2026-01-29 03:56:44.79	326.54	15.08	-59.1	-76.1	3.6	1.51e+00	0	46	104	185597952	60	250037
2026-01-29 03:56:45.80	326.36	15.02	-59.8	-76.4	3.6	1.51e+00	0	46	104	185597952	60	258714
2026-01-29 03:56:46.79	326.19	14.96	-60.1	-76.5	3.6	1.51e+00	0	46	104	185597952	60	260394
2026-01-29 03:56:47.80	326.01	14.90	-59.0	-76.2	3.6	1.51e+00	0	46	104	185597952	60	253788
2026-01-29 03:56:48.81	325.84	14.84	-59.5	-76.3	3.6	1.51e+00	0	46	104	185597952	60	256890
2026-01-29 03:56:49.81	325.66	14.78	-59.6	-76.2	3.6	1.51e+00	0	46	104	185597952	60	253592
2026-01-29 03:56:50.82	325.49	14.72	-60.0	-76.4	3.6	1.51e+00	0	46	104	185597952	60	258974
2026-01-29 03:56:51.83	325.32	14.66	-59.6	-76.4	3.6	1.51e+00	0	46	104	185597952	60	258608
2026-01-29 03:56:52.84	325.14	14.60	-60.0	-76.4	3.6	1.51e+00	0	46	104	185597952	60	259429
2026-01-29 03:56:53.85	324.97	14.54	-59.7	-76.3	3.6	1.51e+00	0	46	104	185597952	60	257010
2026-01-29 03:56:54.86	324.80	14.48	-60.0	-76.6	3.6	1.51e+00	0	46	104	185597952	60	263695
2026-01-29 03:56:55.85	324.63	14.42	-59.7	-76.3	3.6	1.51e+00	0	46	104	185597952	60	256766
2026-01-29 03:56:56.86	324.46	14.35	-60.0	-76.4	3.6	1.51e+00	0	46	104	185597952	60	259301
2026-01-29 03:56:57.86	324.30	14.29	-60.0	-76.4	3.6	1.51e+00	0	46	104	185597952	60	260120
2026-01-29 03:56:58.87	324.13	14.23	-60.0	-76.5	3.6	1.51e+00	0	46	104	185597952	60	261159
2026-01-29 03:56:59.88	323.96	14.17	-59.5	-76.2	3.6	1.51e+00	0	46	104	185597952	60	251935
2026-01-29 03:57:00.89	323.79	14.11	-59.2	-75.9	3.6	1.51e+00	0	46	104	185597952	60	244854
2026-01-29 03:57:01.89	323.63	14.05	-59.1	-75.9	3.6	1.51e+00	0	46	104	185597952	60	244912
2026-01-29 03:57:02.88	323.47	13.99	-59.0	-76.1	3.6	1.51e+00	0	46	104	185597952	60	249553
2026-01-29 03:57:03.88	323.30	13.93	-58.6	-75.9	3.6	1.51e+00	0	46	104	185597952	60	244691
2026-01-29 03:57:04.89	323.14	13.87	-59.8	-76.4	3.6	1.51e+00	0	46	104	185597952	60	257604
2026-01-29 03:57:05.89	322.98	13.80	-59.2	-76.2	3.6	1.51e+00	0	46	104	185597952	60	252249
2026-01-29 03:57:06.90	322.81	13.74	-59.8	-76.4	3.6	1.51e+00	0	46	104	185597952	60	258446
2026-01-29 03:57:07.90	322.65	13.68	-59.9	-76.4	3.6	1.51e+00	0	46	104	185597952	60	258071
2026-01-29 03:57:08.91	322.49	13.62	-59.8	-76.3	3.6	1.51e+00	0	46	104	185597952	60	254796
2026-01-29 03:57:09.92	322.33	13.56	-59.2	-76.1	3.6	1.51e+00	0	46	104	185597952	60	251341
2026-01-29 03:57:10.93	322.17	13.49	-59.6	-76.3	3.6	1.51e+00	0	46	104	185597952	60	256104
2026-01-29 03:57:11.93	322.01	13.43	-59.8	-76.4	3.6	1.51e+00	0	47	104	185597952	60	257430
2026-01-29 03:57:12.94	321.85	13.37	-59.9	-76.4	3.6	1.51e+00	0	46	104	185597952	60	258284
2026-01-29 03:57:13.94	321.70	13.31	-59.6	-76.2	3.6	1.51e+00	0	46	104	185597952	60	253509
2026-01-29 03:57:14.95	321.54	13.25	-59.1	-76.2	3.6	1.51e+00	0	46	104	185597952	60	252025
2026-01-29 03:57:15.95	321.38	13.18	-59.9	-76.3	3.6	1.51e+00	0	46	104	185597952	60	256248
2026-01-29 03:57:16.96	321.23	13.12	-59.9	-76.3	3.6	1.51e+00	0	46	104	185597952	60	255271
2026-01-29 03:57:17.97	321.07	13.06	-59.7	-76.1	3.6	1.51e+00	0	46	104	185597952	60	250856
2026-01-29 03:57:18.97	320.92	13.00	-58.8	-76.0	3.6	1.51e+00	0	46	104	185597952	60	245984
2026-01-29 03:57:19.97	320.77	12.93	-59.5	-76.2	3.6	1.51e+00	0	46	104	185597952	60	252917
2026-01-29 03:57:20.98	320.61	12.87	-59.8	-76.2	3.6	1.51e+00	0	46	104	185597952	60	254047
2026-01-29 03:57:21.99	320.46	12.81	-59.4	-76.2	3.6	1.51e+00	0	46	104	185597952	60	253716
2026-01-29 03:57:23.00	320.31	12.75	-58.3	-75.8	3.6	1.51e+00	0	46	104	185597952	60	242389
2026-01-29 03:57:24.00	320.16	12.68	-59.0	-76.0	3.6	1.51e+00	0	46	104	185597952	60	246175
2026-01-29 03:57:25.01	320.01	12.62	-59.8	-76.3	3.6	1.51e+00	0	46	104	185597952	60	255503
2026-01-29 03:57:26.01	319.86	12.56	-57.9	-75.9	3.5	1.51e+00	0	46	104	185597952	60	243259
2026-01-29 03:57:27.02	319.71	12.50	-57.1	-75.7	3.6	1.51e+00	0	46	104	185597952	60	237782
2026-01-29 03:57:28.03	319.56	12.43	-59.0	-76.1	3.6	1.51e+00	0	46	104	185597952	60	249267
2026-01-29 03:57:29.04	319.41	12.37	-58.1	-76.0	3.6	1.51e+00	0	46	104	185597952	60	246677
2026-01-29 03:57:30.04	319.27	12.31	-57.5	-75.8	3.6	1.51e+00	0	46	104	185597952	60	241251
2026-01-29 03:57:31.05	319.12	12.24	-57.4	-75.8	3.6	1.51e+00	0	46	104	185597952	60	240449
2026-01-29 03:57:32.05	318.98	12.18	-57.3	-75.2	3.6	1.51e+00	0	46	104	185597952	60	225764
2026-01-29 03:57:33.06	318.83	12.12	-59.7	-76.2	3.6	1.51e+00	0	46	104	185597952	60	254343
2026-01-29 03:57:34.07	318.68	12.06	-57.1	-75.8	3.6	1.51e+00	0	46	104	185597952	60	241109
2026-01-29 03:57:35.07	318.54	11.99	-57.0	-75.6	3.6	1.51e+00	0	46	104	185597952	60	236581
2026-01-29 03:57:36.07	318.40	11.93	-57.2	-75.9	3.6	1.51e+00	0	46	104	185597952	60	243575
2026-01-29 03:57:37.08	318.26	11.87	-56.8	-75.8	3.6	1.51e+00	0	46	104	185597952	60	242320
2026-01-29 03:57:38.09	318.11	11.80	-56.8	-75.8	3.6	1.51e+00	0	46	104	185597952	60	241474
2026-01-29 03:57:39.10	317.97	11.74	-56.8	-75.8	3.6	1.51e+00	0	46	104	185597952	60	241945
2026-01-29 03:57:40.11	317.83	11.68	-58.5	-75.8	3.6	1.51e+00	0	46	104	185597952	60	240928
2026-01-29 03:57:41.11	317.69	11.61	-58.2	-76.1	3.6	1.51e+00	0	46	104	185597952	60	251140
2026-01-29 03:57:42.12	317.55	11.55	-58.4	-75.9	3.6	1.51e+00	0	46	104	185597952	60	245181
2026-01-29 03:57:43.13	317.41	11.49	-58.8	-75.9	3.6	1.51e+00	0	46	104	185597952	60	243116
2026-01-29 03:57:44.14	317.27	11.43	-56.8	-75.6	3.6	1.51e+00	0	47	104	185597952	60	237335
2026-01-29 03:57:45.15	317.14	11.36	-57.7	-75.9	3.6	1.51e+00	0	46	104	185597952	60	244465
2026-01-29 03:57:46.16	317.00	11.30	-58.2	-76.0	3.6	1.51e+00	0	46	104	185597952	60	246905
2026-01-29 03:57:47.16	316.86	11.24	-58.2	-75.8	3.6	1.51e+00	0	46	104	185597952	60	242138
2026-01-29 03:57:48.17	316.73	11.17	-59.3	-75.9	3.6	1.51e+00	0	47	104	185597952	60	245087
2026-01-29 03:57:49.17	316.59	11.11	-58.3	-75.9	3.6	1.51e+00	0	46	104	185597952	60	244973
2026-01-29 03:57:50.17	316.46	11.05	-56.6	-75.1	3.6	1.51e+00	0	47	104	185597952	60	222420
2026-01-29 03:57:51.18	316.32	10.98	-57.4	-75.7	3.6	1.51e+00	0	46	104	185597952	60	239475
2026-01-29 03:57:52.19	316.19	10.92	-59.1	-76.0	3.6	1.51e+00	0	46	104	185597952	60	247118
2026-01-29 03:57:53.19	316.06	10.86	-57.0	-75.8	3.6	1.51e+00	0	46	104	185597952	60	240286
2026-01-29 03:57:54.20	315.92	10.80	-57.3	-75.7	3.6	1.51e+00	0	46	104	185597952	60	238788
2026-01-29 03:57:55.20	315.79	10.73	-57.4	-75.8	3.6	1.51e+00	0	46	104	185597952	60	241297
2026-01-29 03:57:56.21	315.66	10.67	-59.4	-75.9	3.6	1.51e+00	0	46	104	185597952	60	245315
2026-01-29 03:57:57.21	315.53	10.61	-59.1	-75.9	3.6	1.51e+00	0	46	104	185597952	60	245728
2026-01-29 03:57:58.22	315.40	10.54	-57.7	-75.8	3.6	1.51e+00	0	46	104	185597952	60	240501
2026-01-29 03:57:59.23	315.27	10.48	-58.6	-75.8	3.6	1.51e+00	0	46	104	185597952	60	241631
2026-01-29 03:58:00.24	315.14	10.42	-58.3	-76.0	3.6	1.51e+00	0	46	104	185597952	60	248391
2026-01-29 03:58:01.25	315.01	10.35	-58.2	-75.9	3.6	1.51e+00	0	46	104	185597952	60	244888
2026-01-29 03:58:02.25	314.89	10.29	-58.8	-75.8	3.6	1.51e+00	0	46	104	185597952	60	240206
2026-01-29 03:58:03.26	314.76	10.23	-58.7	-75.8	3.6	1.51e+00	0	46	104	185597952	60	240405
2026-01-29 03:58:04.27	314.63	10.17	-58.4	-76.0	3.6	1.51e+00	0	46	104	185597952	60	246114
2026-01-29 03:58:05.28	314.50	10.10	-59.0	-76.1	3.6	1.51e+00	0	46	104	185597952	60	249244
2026-01-29 03:58:06.29	314.38	10.04	-58.6	-75.6	3.6	1.51e+00	0	46	104	185597952	60	236136
2026-01-29 03:58:07.29	314.25	9.98	-58.9	-75.7	3.6	1.51e+00	0	46	104	185597952	60	239967
2026-01-29 03:58:08.30	314.13	9.91	-58.7	-75.9	3.6	1.51e+00	0	46	104	185597952	60	244857
2026-01-29 03:58:09.30	314.01	9.85	-59.3	-76.0	3.6	1.51e+00	0	46	104	185597952	60	246288
2026-01-29 03:58:10.30	313.88	9.79	-58.7	-75.5	3.6	1.51e+00	0	46	104	185597952	60	233390
2026-01-29 03:58:11.31	313.76	9.73	-59.1	-75.7	3.6	1.51e+00	0	46	104	185597952	60	239999
2026-01-29 03:58:12.32	313.64	9.66	-58.7	-75.9	3.6	1.51e+00	0	46	104	185597952	60	244242
2026-01-29 03:58:13.33	313.52	9.60	-59.5	-75.9	3.6	1.51e+00	0	46	104	185597952	60	245727
2026-01-29 03:58:14.33	313.40	9.54	-59.0	-75.5	3.6	1.51e+00	0	46	104	185597952	60	233833
2026-01-29 03:58:15.34	313.27	9.48	-59.1	-75.6	3.6	1.51e+00	0	46	104	185597952	60	237339
2026-01-29 03:58:16.35	313.15	9.41	-58.8	-75.8	3.6	1.51e+00	0	46	104	185597952	60	242329
2026-01-29 03:58:17.36	313.03	9.35	-59.5	-76.0	3.6	1.51e+00	0	46	104	185597952	60	247520
2026-01-29 03:58:18.37	312.91	9.29	-58.9	-75.4	3.6	1.51e+00	0	46	104	185597952	60	231210
2026-01-29 03:58:19.37	312.80	9.23	-59.1	-75.6	3.6	1.51e+00	0	46	104	185597952	60	236735
2026-01-29 03:58:20.38	312.68	9.16	-59.0	-75.8	3.6	1.51e+00	0	46	104	185597952	60	242396
2026-01-29 03:58:21.39	312.56	9.10	-59.5	-76.0	3.6	1.51e+00	0	46	104	185597952	60	246971
2026-01-29 03:58:22.39	312.44	9.04	-58.8	-75.3	3.6	1.51e+00	0	46	104	185597952	60	227510
2026-01-29 03:58:23.40	312.33	8.98	-58.8	-75.3	3.6	1.51e+00	0	46	104	185597952	60	227383
2026-01-29 03:58:24.41	312.21	8.91	-58.9	-75.5	3.6	1.51e+00	0	46	104	185597952	60	232198
2026-01-29 03:58:25.41	312.10	8.85	-58.8	-75.3	3.6	1.51e+00	0	46	104	185597952	60	228836
2026-01-29 03:58:26.42	311.98	8.79	-58.8	-75.3	3.6	1.51e+00	0	46	104	185597952	60	226959
2026-01-29 03:58:27.43	311.87	8.73	-58.7	-75.2	3.6	1.51e+00	0	46	104	185597952	60	225148
2026-01-29 03:58:28.43	311.75	8.67	-58.8	-75.3	3.6	1.51e+00	0	46	104	185597952	60	226912
2026-01-29 03:58:29.43	311.64	8.60	-59.1	-75.8	3.6	1.51e+00	0	46	104	185597952	60	240249
2026-01-29 03:58:30.44	311.53	8.54	-58.7	-75.2	3.6	1.51e+00	0	46	104	185597952	60	224246
2026-01-29 03:58:31.44	311.41	8.48	-58.6	-75.1	3.6	1.51e+00	0	46	104	185597952	60	223434
2026-01-29 03:58:32.45	311.30	8.42	-58.8	-75.3	3.6	1.51e+00	0	46	104	185597952	60	228113
2026-01-29 03:58:33.46	311.19	8.36	-58.7	-75.2	3.6	1.51e+00	0	46	104	185597952	60	226163
2026-01-29 03:58:34.47	311.08	8.30	-58.7	-75.2	3.6	1.51e+00	0	46	104	185597952	60	224824
2026-01-29 03:58:35.47	310.97	8.23	-58.6	-75.1	3.6	1.51e+00	0	46	104	185597952	60	223213
2026-01-29 03:58:36.48	310.86	8.17	-58.5	-75.0	3.6	1.51e+00	0	46	104	185597952	60	221271
2026-01-29 03:58:37.49	310.75	8.11	-59.0	-75.7	3.6	1.51e+00	0	46	104	185597952	60	239382
2026-01-29 03:58:38.50	310.64	8.05	-58.6	-75.1	3.6	1.51e+00	0	46	104	185597952	60	222419
2026-01-29 03:58:39.50	310.53	7.99	-58.6	-75.1	3.6	1.51e+00	0	46	104	185597952	60	222780
2026-01-29 03:58:40.51	310.42	7.93	-58.7	-75.2	3.6	1.51e+00	0	46	104	185597952	60	224862
2026-01-29 03:58:41.52	310.31	7.86	-58.6	-75.1	3.6	1.51e+00	0	46	104	185597952	60	222834
2026-01-29 03:58:42.53	310.21	7.80	-58.6	-75.0	3.6	1.51e+00	0	46	104	185597952	60	221542
2026-01-29 03:58:43.53	310.10	7.74	-58.5	-75.0	3.6	1.51e+00	0	46	104	185597952	60	221232
2026-01-29 03:58:44.54	309.99	7.68	-58.3	-75.1	3.6	1.51e+00	0	46	104	185597952	60	223632
2026-01-29 03:58:45.54	309.89	7.62	-58.7	-75.5	3.6	1.51e+00	0	46	104	185597952	60	232356
2026-01-29 03:58:46.55	309.78	7.56	-58.5	-75.4	3.6	1.51e+00	0	46	104	185597952	60	230879
2026-01-29 03:58:47.56	309.68	7.50	-58.6	-75.6	3.6	1.51e+00	0	46	104	185597952	60	235879
2026-01-29 03:58:48.57	309.57	7.44	-58.3	-74.9	3.6	1.51e+00	0	46	104	185597952	60	218596
2026-01-29 03:58:49.57	309.47	7.37	-58.2	-75.0	3.6	1.51e+00	0	46	104	185597952	60	220339
2026-01-29 03:58:50.58	309.37	7.31	-58.2	-74.9	3.6	1.51e+00	0	46	104	185597952	60	218801
2026-01-29 03:58:51.59	309.26	7.25	-58.0	-74.8	3.6	1.51e+00	0	46	104	185597952	60	215584
2026-01-29 03:58:52.60	309.16	7.19	-58.0	-75.0	3.6	1.51e+00	0	46	104	185597952	60	220304
2026-01-29 03:58:53.60	309.06	7.13	-58.0	-75.1	3.6	1.51e+00	0	46	104	185597952	60	221938
2026-01-29 03:58:54.61	308.95	7.07	-57.8	-75.0	3.6	1.51e+00	0	46	104	185597952	60	220623
2026-01-29 03:58:55.62	308.85	7.01	-58.2	-75.3	3.6	1.51e+00	0	46	104	185597952	60	227138
2026-01-29 03:58:56.63	308.75	6.95	-58.7	-75.6	3.6	1.51e+00	0	46	104	185597952	60	237254
