passes_logs/2026/01/29/R3.2S-Naryan-Mar/R3.2S-Naryan-Mar__20260129_102637_NOAA_20_JPSS-1_rec.log

#Pass ID: 20260129_102637_NOAA 20 (JPSS-1)
#Satellite: NOAA 20 (JPSS-1)
#Configuration: NOAA 20
#almurnet v.1.7.20240730
#Start time: 2026-01-29 10:26:40

#Version: 2.2.20231116
#Station: R3.2S-Naryan-Mar
#Location: 53.008057 lon 67.646978 lat
#TLE: 1 43013U 17073A   26027.94683596  .00000137  00000+0  85741-4 0  9995
#TLE: 2 43013  98.7648 328.7503 0000940  21.3928 338.7287 14.19541154424576

#Time	Az	El	Level	Level2	SNR	BER	BlckErr	Temp	State	Recorded	gain1	gain2
2026-01-29 10:26:40.91	206.34	0.16	-60.7	-76.7	3.3	1.54e+00	0	44	0	0	60	267908
2026-01-29 10:26:41.91	206.40	0.21	-62.0	-78.5	3.6	1.51e+00	0	44	104	0	60	328302
2026-01-29 10:26:42.92	206.46	0.27	-62.0	-78.4	3.6	1.51e+00	0	44	104	0	60	327230
2026-01-29 10:26:43.93	206.52	0.32	-61.9	-78.4	3.6	1.51e+00	0	44	104	0	60	325406
2026-01-29 10:26:44.93	206.58	0.37	-62.3	-78.7	3.6	1.51e+00	0	44	104	0	60	339110
2026-01-29 10:26:45.94	206.64	0.43	-62.2	-78.6	3.6	1.51e+00	0	44	104	0	60	332408
2026-01-29 10:26:46.95	206.70	0.48	-61.8	-78.2	3.6	1.51e+00	0	44	104	0	60	319274
2026-01-29 10:26:47.96	206.77	0.54	-61.5	-77.9	3.6	1.51e+00	0	44	104	0	60	308712
2026-01-29 10:26:48.97	206.83	0.59	-61.2	-77.8	3.6	1.51e+00	0	44	104	0	60	302561
2026-01-29 10:26:49.98	206.89	0.65	-60.9	-77.3	3.6	1.51e+00	0	44	104	0	60	287544
2026-01-29 10:26:50.99	206.95	0.70	-60.6	-77.1	3.6	1.51e+00	0	44	104	0	60	280844
2026-01-29 10:26:51.99	207.02	0.76	-59.6	-76.7	3.6	1.51e+00	0	45	104	0	60	268626
2026-01-29 10:26:53.00	207.08	0.81	-59.7	-76.2	3.6	1.51e+00	0	44	104	0	60	254289
2026-01-29 10:26:54.00	207.14	0.86	-59.2	-75.7	3.6	1.51e+00	0	45	104	0	60	240084
2026-01-29 10:26:55.01	207.20	0.92	-58.6	-75.3	3.6	1.51e+00	0	45	104	0	60	227345
2026-01-29 10:26:56.02	207.27	0.97	-58.3	-75.1	3.6	1.51e+00	0	45	104	0	60	223259
2026-01-29 10:26:57.03	207.33	1.03	-58.2	-75.0	3.6	1.51e+00	0	45	104	0	60	221153
2026-01-29 10:26:58.04	207.39	1.08	-58.2	-75.0	3.6	1.51e+00	0	44	104	0	60	220112
2026-01-29 10:26:59.05	207.46	1.14	-58.1	-75.0	3.6	1.51e+00	0	45	104	0	60	219350
2026-01-29 10:27:00.05	207.52	1.20	-58.1	-74.9	3.6	1.51e+00	0	45	104	0	60	218415
2026-01-29 10:27:01.06	207.59	1.25	-58.0	-74.9	3.6	1.51e+00	0	45	104	0	60	217700
2026-01-29 10:27:02.07	207.65	1.31	-58.1	-74.9	3.6	1.51e+00	0	45	104	0	60	218176
2026-01-29 10:27:03.08	207.72	1.36	-58.1	-74.9	3.6	1.51e+00	0	45	104	0	60	217395
2026-01-29 10:27:04.09	207.78	1.42	-58.0	-74.8	3.6	1.51e+00	0	44	104	0	60	216087
2026-01-29 10:27:05.10	207.85	1.47	-58.0	-74.9	3.5	1.51e+00	0	45	104	0	60	217071
2026-01-29 10:27:06.10	207.91	1.53	-58.0	-74.8	3.6	1.51e+00	0	45	104	0	60	215036
2026-01-29 10:27:07.11	207.98	1.58	-58.0	-74.8	3.6	1.51e+00	0	45	104	0	60	216246
2026-01-29 10:27:08.12	208.05	1.64	-58.0	-74.8	3.6	1.51e+00	0	44	104	0	60	215856
2026-01-29 10:27:09.13	208.11	1.70	-58.0	-74.8	3.6	1.51e+00	0	44	104	0	60	215574
2026-01-29 10:27:10.13	208.18	1.75	-58.0	-74.8	3.6	1.51e+00	0	45	104	0	60	215625
2026-01-29 10:27:11.14	208.24	1.81	-58.0	-74.8	3.6	1.51e+00	0	44	104	0	60	216433
2026-01-29 10:27:12.15	208.31	1.87	-58.0	-74.8	3.6	1.51e+00	0	45	104	0	60	215455
2026-01-29 10:27:13.16	208.38	1.92	-58.0	-74.8	3.5	1.51e+00	0	45	104	0	60	214207
2026-01-29 10:27:14.17	208.45	1.98	-58.0	-74.8	3.6	1.51e+00	0	45	104	0	60	214530
2026-01-29 10:27:15.18	208.51	2.03	-58.0	-74.8	3.6	1.51e+00	0	45	104	0	60	214624
2026-01-29 10:27:16.18	208.58	2.09	-58.0	-74.8	3.6	1.51e+00	0	45	104	0	60	215003
2026-01-29 10:27:17.19	208.65	2.15	-57.9	-74.8	3.6	1.51e+00	0	45	104	0	60	214677
2026-01-29 10:27:18.20	208.72	2.20	-57.9	-74.8	3.5	1.51e+00	0	45	104	0	60	214565
2026-01-29 10:27:19.21	208.79	2.26	-57.9	-74.7	3.6	1.51e+00	0	45	104	0	60	213978
2026-01-29 10:27:20.21	208.86	2.32	-57.9	-74.8	3.6	1.51e+00	0	45	104	0	60	214608
2026-01-29 10:27:21.22	208.93	2.38	-57.9	-74.8	3.6	1.51e+00	0	45	104	0	60	214212
2026-01-29 10:27:22.23	209.00	2.43	-57.9	-74.8	3.6	1.51e+00	0	45	104	0	60	214464
2026-01-29 10:27:23.24	209.07	2.49	-57.9	-74.7	3.6	1.51e+00	0	45	104	0	60	213442
2026-01-29 10:27:24.25	209.14	2.55	-57.9	-74.7	3.6	1.51e+00	0	45	104	0	60	213292
2026-01-29 10:27:25.25	209.21	2.60	-57.9	-74.7	3.6	1.51e+00	0	45	104	0	60	213180
2026-01-29 10:27:26.26	209.28	2.66	-57.9	-74.7	3.6	1.51e+00	0	45	104	0	60	213701
2026-01-29 10:27:27.27	209.35	2.72	-57.9	-74.7	3.6	1.51e+00	0	45	104	0	60	212893
2026-01-29 10:27:28.28	209.42	2.78	-57.9	-74.7	3.6	1.51e+00	0	45	104	0	60	212629
2026-01-29 10:27:29.29	209.49	2.83	-57.9	-74.8	3.6	1.51e+00	0	45	104	0	60	214184
2026-01-29 10:27:30.29	209.56	2.89	-57.9	-74.7	3.6	1.51e+00	0	45	104	0	60	212904
2026-01-29 10:27:31.30	209.63	2.95	-57.9	-74.7	3.6	1.51e+00	0	45	104	0	60	213354
2026-01-29 10:27:32.30	209.70	3.01	-57.9	-74.7	3.6	1.51e+00	0	45	104	0	60	213206
2026-01-29 10:27:33.31	209.78	3.07	-57.9	-74.8	3.6	1.51e+00	0	45	104	0	60	214307
2026-01-29 10:27:34.32	209.85	3.12	-57.9	-74.7	3.6	1.51e+00	0	45	104	0	60	212209
2026-01-29 10:27:35.33	209.92	3.18	-57.9	-74.7	3.6	1.51e+00	0	45	104	0	60	212700
2026-01-29 10:27:36.33	209.99	3.24	-57.9	-74.7	3.6	1.51e+00	0	45	104	0	60	213092
2026-01-29 10:27:37.34	210.07	3.30	-57.9	-74.6	3.6	1.51e+00	0	45	104	0	60	211209
2026-01-29 10:27:38.35	210.14	3.36	-57.9	-74.7	3.6	1.51e+00	0	45	104	0	60	211959
2026-01-29 10:27:39.35	210.22	3.41	-57.8	-74.6	3.6	1.51e+00	0	45	104	0	60	211590
2026-01-29 10:27:40.36	210.29	3.47	-57.8	-74.7	3.6	1.51e+00	0	45	104	0	60	212673
2026-01-29 10:27:41.37	210.36	3.53	-57.8	-74.7	3.6	1.51e+00	0	45	104	0	60	212343
2026-01-29 10:27:42.38	210.44	3.59	-57.8	-74.7	3.6	1.51e+00	0	45	104	0	60	211884
2026-01-29 10:27:43.38	210.51	3.65	-57.8	-74.6	3.6	1.51e+00	0	45	104	0	60	211020
2026-01-29 10:27:44.39	210.59	3.71	-57.8	-74.6	3.6	1.51e+00	0	45	104	0	60	210949
2026-01-29 10:27:45.40	210.67	3.77	-57.8	-74.6	3.6	1.51e+00	0	45	104	0	60	211314
2026-01-29 10:27:46.41	210.74	3.83	-57.8	-74.6	3.6	1.51e+00	0	45	104	0	60	211253
2026-01-29 10:27:47.41	210.82	3.89	-57.8	-74.7	3.6	1.51e+00	0	45	104	0	60	213105
2026-01-29 10:27:48.42	210.89	3.95	-57.8	-74.6	3.6	1.51e+00	0	45	104	0	60	211072
2026-01-29 10:27:49.43	210.97	4.00	-57.8	-74.6	3.6	1.51e+00	0	45	104	0	60	211334
2026-01-29 10:27:50.43	211.05	4.06	-57.8	-74.6	3.6	1.51e+00	0	45	104	0	60	211012
2026-01-29 10:27:51.44	211.13	4.12	-57.8	-74.6	3.6	1.51e+00	0	45	104	0	60	211106
2026-01-29 10:27:52.45	211.20	4.18	-57.8	-74.6	3.6	1.51e+00	0	45	104	0	60	210264
2026-01-29 10:27:53.45	211.28	4.24	-57.8	-74.6	3.6	1.51e+00	0	45	104	0	60	211096
2026-01-29 10:27:54.46	211.36	4.30	-57.8	-74.6	3.6	1.51e+00	0	45	104	0	60	209823
2026-01-29 10:27:55.47	211.44	4.36	-57.8	-74.5	3.6	1.51e+00	0	45	104	0	60	208517
2026-01-29 10:27:56.48	211.52	4.42	-57.8	-74.5	3.5	1.51e+00	0	45	104	0	60	208396
2026-01-29 10:27:57.48	211.60	4.48	-57.8	-74.5	3.6	1.51e+00	0	45	104	0	60	208278
2026-01-29 10:27:58.49	211.68	4.54	-57.8	-74.5	3.6	1.51e+00	0	45	104	0	60	209150
2026-01-29 10:27:59.50	211.76	4.60	-57.8	-74.6	3.6	1.51e+00	0	45	104	0	60	209684
2026-01-29 10:28:00.51	211.84	4.66	-57.8	-74.6	3.6	1.51e+00	0	45	104	0	60	209838
2026-01-29 10:28:01.51	211.92	4.72	-57.8	-74.5	3.6	1.51e+00	0	45	104	0	60	208585
2026-01-29 10:28:02.52	212.00	4.78	-57.8	-74.5	3.6	1.51e+00	0	45	104	0	60	208027
2026-01-29 10:28:03.53	212.08	4.85	-57.8	-74.4	3.6	1.51e+00	0	45	104	0	60	205156
2026-01-29 10:28:04.53	212.16	4.91	-57.8	-74.4	3.6	1.51e+00	0	45	104	0	60	206120
2026-01-29 10:28:05.54	212.24	4.97	-57.8	-74.5	3.6	1.51e+00	0	45	104	0	60	207506
2026-01-29 10:28:06.55	212.32	5.03	-57.8	-74.5	3.6	1.51e+00	0	45	104	0	60	209133
2026-01-29 10:28:07.55	212.41	5.09	-57.7	-74.5	3.6	1.51e+00	0	45	104	0	60	207236
2026-01-29 10:28:08.55	212.49	5.15	-57.7	-74.3	3.6	1.51e+00	0	45	104	0	60	202957
2026-01-29 10:28:09.56	212.57	5.21	-57.7	-74.1	3.6	1.51e+00	0	45	104	0	60	198965
2026-01-29 10:28:10.56	212.65	5.27	-57.7	-73.9	3.6	1.51e+00	0	45	104	0	60	194837
2026-01-29 10:28:11.57	212.74	5.33	-57.7	-73.7	3.6	1.51e+00	0	45	104	0	60	190706
2026-01-29 10:28:12.57	212.82	5.39	-57.7	-73.2	3.6	1.51e+00	0	45	104	0	60	179298
2026-01-29 10:28:13.58	212.91	5.46	-57.7	-71.7	3.9	1.49e+00	0	45	104	0	60	150213
2026-01-29 10:28:14.59	212.99	5.52	-57.5	-68.4	4.6	1.23e+00	0	45	0	0	60	102855
2026-01-29 10:28:15.60	213.08	5.58	-57.3	-66.0	6.6	4.81e-01	0	45	0	2097152	60	78581
2026-01-29 10:28:16.61	213.16	5.64	-56.9	-64.0	9.0	2.13e-02	0	45	0	4194304	60	62076
2026-01-29 10:28:17.61	213.25	5.70	-56.5	-62.3	11.0	6.07e-03	0	45	0	6291456	60	50942
2026-01-29 10:28:18.62	213.33	5.77	-56.0	-60.8	12.7	5.00e-04	0	45	0	8388608	60	42769
2026-01-29 10:28:19.63	213.42	5.83	-55.5	-59.6	13.9	4.80e-05	0	45	0	10485760	60	37591
2026-01-29 10:28:20.64	213.51	5.89	-55.2	-58.9	14.7	1.50e-06	0	45	0	11534336	60	34484
2026-01-29 10:28:21.65	213.59	5.95	-55.0	-58.6	15.0	0.00e+00	0	45	0	13631488	60	33255
2026-01-29 10:28:22.65	213.68	6.01	-55.0	-58.7	14.9	0.00e+00	0	45	0	15728640	60	33672
2026-01-29 10:28:23.66	213.77	6.08	-55.2	-59.0	14.2	7.00e-07	0	45	0	17825792	60	34767
2026-01-29 10:28:24.67	213.86	6.14	-57.4	-65.3	6.3	4.23e-02	0	45	0	18874368	60	72381
2026-01-29 10:28:25.67	213.95	6.20	-56.7	-63.6	5.7	1.51e+00	0	45	104	19922944	60	59213
2026-01-29 10:28:26.67	214.03	6.26	-56.8	-63.0	9.8	7.76e-02	0	45	104	19922944	60	55211
2026-01-29 10:28:27.67	214.12	6.33	-55.6	-59.5	14.8	1.41e+00	0	45	104	19922944	60	36835
2026-01-29 10:28:28.68	214.21	6.39	-56.3	-60.9	13.2	5.32e-03	0	45	0	19922944	60	43218
2026-01-29 10:28:29.68	214.30	6.45	-54.9	-58.1	15.6	0.00e+00	0	45	0	2097152	60	31607
2026-01-29 10:28:30.69	214.39	6.52	-54.7	-57.8	16.0	0.00e+00	0	45	0	4194304	60	30587
2026-01-29 10:28:31.69	214.48	6.58	-54.8	-57.9	15.9	0.00e+00	0	45	0	6291456	60	30896
2026-01-29 10:28:32.70	214.58	6.64	-54.8	-58.0	15.8	0.00e+00	0	45	0	7340032	60	31148
2026-01-29 10:28:33.70	214.67	6.71	-54.3	-57.0	16.8	0.00e+00	0	45	0	9437184	60	27806
2026-01-29 10:28:34.71	214.76	6.77	-54.1	-56.6	17.1	0.00e+00	0	45	0	11534336	60	26609
2026-01-29 10:28:35.71	214.85	6.83	-53.9	-56.3	17.5	0.00e+00	0	45	0	13631488	60	25662
2026-01-29 10:28:36.71	214.94	6.90	-53.9	-56.4	17.4	0.00e+00	0	45	0	15728640	60	25811
2026-01-29 10:28:37.72	215.04	6.96	-53.9	-56.3	17.4	0.00e+00	0	45	0	17825792	60	25639
2026-01-29 10:28:38.72	215.13	7.02	-53.9	-56.3	17.5	0.00e+00	0	45	0	18874368	60	25571
2026-01-29 10:28:39.74	215.22	7.09	-54.0	-56.3	17.4	0.00e+00	0	45	0	20971520	60	25642
2026-01-29 10:28:40.74	215.32	7.15	-53.9	-56.2	17.6	0.00e+00	0	45	0	23068672	60	25382
2026-01-29 10:28:41.75	215.41	7.22	-53.9	-56.1	17.7	0.00e+00	0	45	0	25165824	60	25151
2026-01-29 10:28:42.76	215.51	7.28	-53.9	-56.2	17.7	0.00e+00	0	45	0	26214400	60	25187
2026-01-29 10:28:43.76	215.60	7.34	-53.9	-56.2	17.8	0.00e+00	0	45	0	28311552	60	25213
2026-01-29 10:28:44.77	215.70	7.41	-53.8	-56.0	18.0	0.00e+00	0	45	0	30408704	60	24671
2026-01-29 10:28:45.78	215.79	7.47	-53.8	-56.0	18.0	0.00e+00	0	45	0	32505856	60	24683
2026-01-29 10:28:46.78	215.89	7.54	-53.8	-56.0	18.1	0.00e+00	0	45	0	34603008	60	24799
2026-01-29 10:28:47.79	215.99	7.60	-53.8	-56.0	18.1	0.00e+00	0	45	0	35651584	60	24687
2026-01-29 10:28:48.80	216.09	7.67	-53.8	-56.0	18.1	0.00e+00	0	45	0	37748736	60	24853
2026-01-29 10:28:49.81	216.18	7.73	-53.7	-55.9	18.2	0.00e+00	0	45	0	39845888	60	24392
2026-01-29 10:28:50.81	216.28	7.80	-53.7	-55.8	18.2	0.00e+00	0	45	0	41943040	60	24194
2026-01-29 10:28:51.82	216.38	7.86	-53.7	-55.8	18.3	0.00e+00	0	45	0	44040192	60	24065
2026-01-29 10:28:52.82	216.48	7.93	-53.7	-55.8	18.3	0.00e+00	0	45	0	46137344	60	24194
2026-01-29 10:28:53.83	216.58	7.99	-53.8	-55.9	18.3	0.00e+00	0	45	0	47185920	60	24352
2026-01-29 10:28:54.84	216.68	8.06	-53.7	-55.8	18.3	0.00e+00	0	45	0	49283072	60	24265
2026-01-29 10:28:55.84	216.78	8.13	-53.9	-56.0	18.2	0.00e+00	0	45	0	51380224	60	24706
2026-01-29 10:28:56.84	216.88	8.19	-54.0	-56.3	17.9	0.00e+00	0	45	0	53477376	60	25503
2026-01-29 10:28:57.85	216.98	8.26	-53.9	-56.0	18.1	0.00e+00	0	45	0	54525952	60	24814
2026-01-29 10:28:58.86	217.08	8.32	-53.8	-55.9	18.3	0.00e+00	0	45	0	56623104	60	24397
2026-01-29 10:28:59.86	217.18	8.39	-53.7	-55.7	18.5	0.00e+00	0	45	0	58720256	60	23959
2026-01-29 10:29:00.87	217.29	8.45	-53.6	-55.6	18.6	0.00e+00	0	45	0	60817408	60	23697
2026-01-29 10:29:01.88	217.39	8.52	-53.6	-55.6	18.6	0.00e+00	0	45	0	62914560	60	23702
2026-01-29 10:29:02.88	217.49	8.59	-53.6	-55.7	18.6	0.00e+00	0	45	0	63963136	60	23786
2026-01-29 10:29:03.88	217.60	8.65	-53.7	-55.7	18.6	0.00e+00	0	45	0	66060288	60	23909
2026-01-29 10:29:04.89	217.70	8.72	-53.7	-55.7	18.6	0.00e+00	0	45	0	68157440	60	23877
2026-01-29 10:29:05.88	217.81	8.78	-53.7	-55.8	18.5	0.00e+00	0	45	0	70254592	60	24107
2026-01-29 10:29:06.89	217.91	8.85	-53.8	-55.8	18.5	0.00e+00	0	45	0	72351744	60	24215
2026-01-29 10:29:07.89	218.02	8.92	-53.8	-55.9	18.4	0.00e+00	0	45	0	73400320	60	24450
2026-01-29 10:29:08.90	218.12	8.98	-53.8	-55.9	18.5	0.00e+00	0	45	0	75497472	60	24370
2026-01-29 10:29:09.90	218.23	9.05	-53.8	-55.9	18.5	0.00e+00	0	45	0	77594624	60	24378
2026-01-29 10:29:10.91	218.34	9.12	-53.8	-55.8	18.5	0.00e+00	0	45	0	79691776	60	24222
2026-01-29 10:29:11.91	218.44	9.18	-53.8	-55.8	18.6	0.00e+00	0	45	0	81788928	60	24110
2026-01-29 10:29:12.92	218.55	9.25	-53.8	-55.7	18.6	0.00e+00	0	45	0	82837504	60	24016
2026-01-29 10:29:13.93	218.66	9.32	-53.6	-55.6	18.8	0.00e+00	0	45	0	84934656	60	23548
2026-01-29 10:29:14.93	218.77	9.39	-53.7	-55.6	18.8	0.00e+00	0	45	0	87031808	60	23589
2026-01-29 10:29:15.94	218.88	9.45	-53.5	-55.4	19.0	0.00e+00	0	45	0	89128960	60	23134
2026-01-29 10:29:16.94	218.99	9.52	-53.5	-55.4	19.0	0.00e+00	0	45	0	91226112	60	23054
2026-01-29 10:29:17.95	219.10	9.59	-53.5	-55.3	19.1	0.00e+00	0	45	0	92274688	60	22927
2026-01-29 10:29:18.95	219.21	9.66	-53.4	-55.3	19.0	0.00e+00	0	45	0	94371840	60	22767
2026-01-29 10:29:19.96	219.32	9.72	-53.4	-55.3	19.3	0.00e+00	0	45	0	96468992	60	22693
2026-01-29 10:29:20.96	219.43	9.79	-53.5	-55.3	19.3	0.00e+00	0	45	0	98566144	60	22719
2026-01-29 10:29:21.97	219.55	9.86	-53.4	-55.2	19.4	0.00e+00	0	45	0	100663296	60	22522
2026-01-29 10:29:22.98	219.66	9.93	-53.5	-55.2	19.5	0.00e+00	0	45	0	101711872	60	22608
2026-01-29 10:29:23.98	219.77	10.00	-53.4	-55.2	19.5	0.00e+00	0	45	0	103809024	60	22467
2026-01-29 10:29:24.98	219.88	10.06	-53.5	-55.2	19.4	0.00e+00	0	45	0	105906176	60	22591
2026-01-29 10:29:25.98	220.00	10.13	-53.5	-55.3	19.3	0.00e+00	0	45	0	108003328	60	22818
2026-01-29 10:29:26.99	220.11	10.20	-53.5	-55.3	19.3	0.00e+00	0	45	0	110100480	60	22843
2026-01-29 10:29:28.00	220.23	10.27	-53.5	-55.2	19.3	0.00e+00	0	45	0	111149056	60	22675
2026-01-29 10:29:29.00	220.35	10.34	-53.5	-55.3	19.4	0.00e+00	0	45	0	113246208	60	22681
2026-01-29 10:29:30.00	220.46	10.41	-53.4	-55.2	19.4	0.00e+00	0	45	0	115343360	60	22570
2026-01-29 10:29:31.01	220.58	10.48	-53.5	-55.2	19.4	0.00e+00	0	45	0	117440512	60	22653
2026-01-29 10:29:32.00	220.69	10.54	-53.5	-55.2	19.4	0.00e+00	0	45	0	118489088	60	22594
2026-01-29 10:29:33.01	220.81	10.61	-53.4	-55.1	19.5	0.00e+00	0	45	0	120586240	60	22364
2026-01-29 10:29:34.01	220.93	10.68	-53.4	-55.1	19.5	0.00e+00	0	45	0	122683392	60	22351
2026-01-29 10:29:35.02	221.05	10.75	-53.3	-55.0	19.6	0.00e+00	0	45	0	124780544	60	22042
2026-01-29 10:29:36.03	221.17	10.82	-53.4	-55.1	19.5	0.00e+00	0	45	0	126877696	60	22389
2026-01-29 10:29:37.04	221.29	10.89	-53.4	-55.1	19.5	0.00e+00	0	45	0	128974848	60	22385
2026-01-29 10:29:38.04	221.41	10.96	-53.5	-55.2	19.5	0.00e+00	0	45	0	130023424	60	22551
2026-01-29 10:29:39.05	221.53	11.03	-53.6	-55.3	19.3	0.00e+00	0	45	0	132120576	60	22923
2026-01-29 10:29:40.05	221.66	11.10	-53.6	-55.3	19.4	0.00e+00	0	45	0	134217728	60	22928
2026-01-29 10:29:41.06	221.78	11.17	-53.6	-55.4	19.3	0.00e+00	0	45	0	136314880	60	23078
2026-01-29 10:29:42.06	221.90	11.24	-53.7	-55.5	19.4	0.00e+00	0	45	0	138412032	60	23365
2026-01-29 10:29:43.06	222.02	11.31	-53.7	-55.5	19.2	0.00e+00	0	45	0	139460608	60	23460
2026-01-29 10:29:44.07	222.15	11.38	-53.8	-55.7	19.2	0.00e+00	0	45	0	141557760	60	23745
2026-01-29 10:29:45.08	222.27	11.45	-53.9	-55.7	19.1	0.00e+00	0	45	0	143654912	60	23983
2026-01-29 10:29:46.08	222.40	11.52	-53.9	-55.7	19.1	0.00e+00	0	45	0	145752064	60	23915
2026-01-29 10:29:47.09	222.52	11.59	-53.9	-55.7	19.1	0.00e+00	0	45	0	146800640	60	23869
2026-01-29 10:29:48.10	222.65	11.66	-54.0	-55.9	19.0	0.00e+00	0	45	0	148897792	60	24426
2026-01-29 10:29:49.11	222.78	11.73	-53.9	-55.8	19.2	0.00e+00	0	45	0	150994944	60	24082
2026-01-29 10:29:50.12	222.91	11.80	-53.7	-55.4	19.5	0.00e+00	0	45	0	153092096	60	23195
2026-01-29 10:29:51.13	223.04	11.87	-53.5	-55.2	19.2	0.00e+00	0	45	0	155189248	60	22530
2026-01-29 10:29:52.13	223.16	11.94	-53.5	-55.2	19.7	0.00e+00	0	45	0	157286400	60	22445
2026-01-29 10:29:53.14	223.29	12.01	-53.4	-55.1	19.7	0.00e+00	0	45	0	158334976	60	22219
2026-01-29 10:29:54.14	223.42	12.08	-53.4	-55.0	19.8	0.00e+00	0	45	0	160432128	60	22143
2026-01-29 10:29:55.15	223.55	12.15	-53.4	-55.1	19.8	0.00e+00	0	45	0	162529280	60	22316
2026-01-29 10:29:56.16	223.69	12.22	-53.4	-55.0	19.8	0.00e+00	0	45	0	164626432	60	22118
2026-01-29 10:29:57.17	223.82	12.29	-53.5	-55.1	19.8	0.00e+00	0	45	0	166723584	60	22398
2026-01-29 10:29:58.17	223.95	12.36	-53.5	-55.2	19.8	0.00e+00	0	45	0	167772160	60	22491
2026-01-29 10:29:59.18	224.08	12.44	-53.5	-55.2	19.7	0.00e+00	0	45	0	169869312	60	22619
2026-01-29 10:30:00.18	224.22	12.51	-53.5	-55.1	19.9	0.00e+00	0	45	0	171966464	60	22347
2026-01-29 10:30:01.19	224.35	12.58	-53.4	-55.1	19.9	0.00e+00	0	45	0	174063616	60	22272
2026-01-29 10:30:02.19	224.49	12.65	-53.4	-55.1	20.0	0.00e+00	0	45	0	175112192	60	22232
2026-01-29 10:30:03.19	224.62	12.72	-53.4	-55.0	20.2	0.00e+00	0	45	0	177209344	60	21907
2026-01-29 10:30:04.20	224.76	12.79	-53.4	-55.0	20.1	0.00e+00	0	45	0	179306496	60	21956
2026-01-29 10:30:05.21	224.90	12.86	-53.3	-54.9	20.2	0.00e+00	0	45	0	181403648	60	21838
2026-01-29 10:30:06.21	225.03	12.93	-53.3	-54.9	20.1	0.00e+00	0	45	0	183500800	60	21776
2026-01-29 10:30:07.22	225.17	13.01	-53.4	-55.0	20.1	0.00e+00	0	45	0	185597952	60	22016
2026-01-29 10:30:08.23	225.31	13.08	-53.3	-54.9	20.1	0.00e+00	0	45	0	186646528	60	21881
2026-01-29 10:30:09.24	225.45	13.15	-53.4	-55.0	20.0	0.00e+00	0	45	0	188743680	60	21963
2026-01-29 10:30:10.25	225.59	13.22	-53.5	-55.1	20.0	0.00e+00	0	45	0	190840832	60	22312
2026-01-29 10:30:11.25	225.73	13.29	-53.6	-55.2	19.9	0.00e+00	0	45	0	192937984	60	22644
2026-01-29 10:30:12.26	225.87	13.37	-53.6	-55.3	19.9	0.00e+00	0	45	0	195035136	60	22698
2026-01-29 10:30:13.27	226.02	13.44	-53.7	-55.3	19.9	0.00e+00	0	45	0	196083712	60	22866
2026-01-29 10:30:14.28	226.16	13.51	-53.7	-55.3	19.9	0.00e+00	0	45	0	198180864	60	22822
2026-01-29 10:30:15.28	226.30	13.58	-53.6	-55.3	19.9	0.00e+00	0	45	0	200278016	60	22822
2026-01-29 10:30:16.28	226.44	13.65	-53.6	-55.3	19.9	0.00e+00	0	45	0	202375168	60	22770
2026-01-29 10:30:17.29	226.59	13.73	-53.7	-55.4	19.8	0.00e+00	0	45	0	203423744	60	23033
2026-01-29 10:30:18.29	226.73	13.80	-53.6	-55.3	19.9	0.00e+00	0	45	0	205520896	60	22756
2026-01-29 10:30:19.30	226.88	13.87	-53.6	-55.3	19.9	0.00e+00	0	45	0	207618048	60	22782
2026-01-29 10:30:20.31	227.03	13.94	-53.6	-55.3	19.9	0.00e+00	0	45	0	209715200	60	22733
2026-01-29 10:30:21.31	227.18	14.01	-53.6	-55.3	20.0	0.00e+00	0	45	0	211812352	60	22727
2026-01-29 10:30:22.32	227.32	14.09	-53.6	-55.2	20.0	0.00e+00	0	45	0	213909504	60	22567
2026-01-29 10:30:23.33	227.47	14.16	-53.7	-55.3	19.9	0.00e+00	0	45	0	214958080	60	22914
2026-01-29 10:30:24.33	227.62	14.23	-53.6	-55.2	20.1	0.00e+00	0	45	0	217055232	60	22515
2026-01-29 10:30:25.34	227.77	14.30	-53.6	-55.2	20.1	0.00e+00	0	45	0	219152384	60	22510
2026-01-29 10:30:26.34	227.92	14.38	-53.6	-55.2	20.0	0.00e+00	0	45	0	221249536	60	22597
2026-01-29 10:30:27.35	228.08	14.45	-53.6	-55.3	20.0	0.00e+00	0	45	0	223346688	60	22718
2026-01-29 10:30:28.36	228.23	14.52	-53.7	-55.3	19.9	0.00e+00	0	45	0	224395264	60	22905
2026-01-29 10:30:29.37	228.38	14.59	-53.7	-55.3	19.9	0.00e+00	0	45	0	226492416	60	22832
2026-01-29 10:30:30.37	228.54	14.67	-53.6	-55.2	20.0	0.00e+00	0	45	0	228589568	60	22645
2026-01-29 10:30:31.38	228.69	14.74	-53.4	-55.0	20.2	0.00e+00	0	45	0	230686720	60	22027
2026-01-29 10:30:32.38	228.85	14.81	-53.3	-54.9	20.4	0.00e+00	0	45	0	231735296	60	21771
2026-01-29 10:30:33.39	229.00	14.89	-53.4	-54.9	20.4	0.00e+00	0	45	0	233832448	60	21802
2026-01-29 10:30:34.39	229.16	14.96	-53.4	-55.0	20.3	0.00e+00	0	45	0	235929600	60	22082
2026-01-29 10:30:35.40	229.32	15.03	-53.4	-55.0	20.3	0.00e+00	0	45	0	238026752	60	22063
2026-01-29 10:30:36.40	229.47	15.10	-53.4	-55.0	20.3	0.00e+00	0	45	0	240123904	60	21980
2026-01-29 10:30:37.41	229.63	15.18	-53.5	-55.1	20.3	0.00e+00	0	45	0	241172480	60	22168
2026-01-29 10:30:38.42	229.79	15.25	-53.5	-55.0	20.3	0.00e+00	0	45	0	243269632	60	22130
2026-01-29 10:30:39.42	229.95	15.32	-53.6	-55.2	20.3	0.00e+00	0	45	0	245366784	60	22474
2026-01-29 10:30:40.43	230.12	15.39	-53.4	-55.0	20.4	0.00e+00	0	45	0	247463936	60	21918
2026-01-29 10:30:41.43	230.28	15.47	-53.4	-54.9	20.5	0.00e+00	0	45	0	249561088	60	21741
2026-01-29 10:30:42.43	230.44	15.54	-53.4	-54.9	20.5	0.00e+00	0	45	0	251658240	60	21712
2026-01-29 10:30:43.44	230.60	15.61	-53.2	-54.7	20.7	0.00e+00	0	45	0	252706816	60	21248
2026-01-29 10:30:44.45	230.77	15.69	-53.2	-54.7	20.7	0.00e+00	0	45	0	254803968	60	21313
2026-01-29 10:30:45.45	230.93	15.76	-53.2	-54.6	20.7	0.00e+00	0	45	0	256901120	60	21102
2026-01-29 10:30:46.45	231.10	15.83	-53.2	-54.6	20.7	0.00e+00	0	45	0	258998272	60	21104
2026-01-29 10:30:47.46	231.27	15.90	-53.2	-54.6	20.8	0.00e+00	0	45	0	260046848	60	21096
2026-01-29 10:30:48.46	231.43	15.98	-53.1	-54.6	20.8	0.00e+00	0	45	0	262144000	60	20969
2026-01-29 10:30:49.47	231.60	16.05	-53.1	-54.6	20.8	0.00e+00	0	45	0	264241152	60	20925
2026-01-29 10:30:50.47	231.77	16.12	-53.1	-54.5	20.8	0.00e+00	0	45	0	266338304	60	20874
2026-01-29 10:30:51.47	231.94	16.19	-53.0	-54.5	20.8	0.00e+00	0	45	0	268435456	60	20814
2026-01-29 10:30:52.48	232.11	16.27	-53.0	-54.4	20.8	0.00e+00	0	45	0	269484032	60	20611
2026-01-29 10:30:53.49	232.28	16.34	-53.0	-54.5	20.8	0.00e+00	0	45	0	271581184	60	20687
2026-01-29 10:30:54.48	232.45	16.41	-53.0	-54.5	20.7	0.00e+00	0	45	0	273678336	60	20892
2026-01-29 10:30:55.49	232.63	16.48	-53.1	-54.6	20.7	0.00e+00	0	45	0	275775488	60	20931
2026-01-29 10:30:56.50	232.80	16.56	-53.2	-54.7	20.5	0.00e+00	0	45	0	277872640	60	21201
2026-01-29 10:30:57.50	232.97	16.63	-53.3	-54.8	20.4	0.00e+00	0	45	0	278921216	60	21575
2026-01-29 10:30:58.51	233.15	16.70	-53.4	-54.9	20.5	0.00e+00	0	45	0	281018368	60	21849
2026-01-29 10:30:59.51	233.33	16.77	-53.4	-54.9	20.4	0.00e+00	0	45	0	283115520	60	21880
2026-01-29 10:31:00.51	233.50	16.84	-53.4	-55.0	20.3	0.00e+00	0	45	0	285212672	60	22099
2026-01-29 10:31:01.52	233.68	16.92	-53.4	-55.0	20.4	0.00e+00	0	45	0	286261248	60	22128
2026-01-29 10:31:02.53	233.86	16.99	-53.5	-55.0	20.4	0.00e+00	0	45	0	288358400	60	22096
2026-01-29 10:31:03.53	234.04	17.06	-53.5	-55.0	20.3	0.00e+00	0	45	0	290455552	60	22157
2026-01-29 10:31:04.54	234.22	17.13	-53.4	-55.0	20.3	0.00e+00	0	45	0	292552704	60	22061
2026-01-29 10:31:05.55	234.40	17.21	-53.4	-55.0	20.3	0.00e+00	0	45	0	294649856	60	21947
2026-01-29 10:31:06.55	234.58	17.28	-53.4	-55.0	20.3	0.00e+00	0	45	0	296747008	60	22061
2026-01-29 10:31:07.55	234.76	17.35	-53.4	-54.9	20.3	0.00e+00	0	45	0	297795584	60	21854
2026-01-29 10:31:08.55	234.95	17.42	-53.4	-54.9	20.4	0.00e+00	0	45	0	299892736	60	21860
2026-01-29 10:31:09.56	235.13	17.49	-53.3	-54.8	20.3	0.00e+00	0	45	0	301989888	60	21629
2026-01-29 10:31:10.57	235.32	17.57	-53.1	-54.7	20.5	0.00e+00	0	45	0	304087040	60	21221
2026-01-29 10:31:11.58	235.51	17.64	-53.1	-54.6	20.6	0.00e+00	0	45	0	306184192	60	20949
2026-01-29 10:31:12.58	235.69	17.71	-53.0	-54.4	20.7	0.00e+00	0	45	0	307232768	60	20654
2026-01-29 10:31:13.59	235.88	17.78	-52.8	-54.2	20.8	0.00e+00	0	45	0	309329920	60	20115
2026-01-29 10:31:14.59	236.07	17.85	-52.7	-54.2	20.9	0.00e+00	0	45	0	311427072	60	20010
2026-01-29 10:31:15.60	236.26	17.92	-52.7	-54.1	20.9	0.00e+00	0	45	0	313524224	60	19912
2026-01-29 10:31:16.60	236.45	17.99	-52.7	-54.1	20.9	0.00e+00	0	45	0	315621376	60	19918
2026-01-29 10:31:17.61	236.64	18.07	-52.6	-54.1	20.8	0.00e+00	0	45	0	316669952	60	19834
2026-01-29 10:31:18.61	236.83	18.14	-52.7	-54.1	20.9	0.00e+00	0	45	0	318767104	60	19886
2026-01-29 10:31:19.62	237.03	18.21	-52.7	-54.1	20.9	0.00e+00	0	45	0	320864256	60	19841
2026-01-29 10:31:20.63	237.22	18.28	-52.5	-53.9	21.1	0.00e+00	0	45	0	322961408	60	19473
2026-01-29 10:31:21.63	237.42	18.35	-52.4	-53.8	21.1	0.00e+00	0	45	0	325058560	60	19105
2026-01-29 10:31:22.64	237.61	18.42	-52.3	-53.6	21.2	0.00e+00	0	45	0	326107136	60	18855
2026-01-29 10:31:23.64	237.81	18.49	-52.2	-53.5	21.5	0.00e+00	0	45	0	328204288	60	18528
2026-01-29 10:31:24.65	238.01	18.56	-52.1	-53.4	21.5	0.00e+00	0	45	0	330301440	60	18408
2026-01-29 10:31:25.65	238.21	18.63	-52.1	-53.5	21.5	0.00e+00	0	45	0	332398592	60	18456
2026-01-29 10:31:26.65	238.40	18.70	-52.2	-53.5	21.6	0.00e+00	0	45	0	334495744	60	18607
2026-01-29 10:31:27.66	238.61	18.77	-52.3	-53.6	21.5	0.00e+00	0	45	0	335544320	60	18742
2026-01-29 10:31:28.66	238.81	18.84	-52.2	-53.5	21.5	0.00e+00	0	45	0	337641472	60	18589
2026-01-29 10:31:29.67	239.01	18.91	-52.3	-53.7	21.4	0.00e+00	0	45	0	339738624	60	18886
2026-01-29 10:31:30.67	239.21	18.98	-52.2	-53.5	21.4	0.00e+00	0	45	0	341835776	60	18593
2026-01-29 10:31:31.67	239.41	19.05	-52.2	-53.5	21.4	0.00e+00	0	45	0	343932928	60	18609
2026-01-29 10:31:32.68	239.62	19.12	-52.1	-53.4	21.5	0.00e+00	0	45	0	344981504	60	18354
2026-01-29 10:31:33.68	239.82	19.19	-52.0	-53.3	21.6	0.00e+00	0	45	0	347078656	60	18177
2026-01-29 10:31:34.69	240.03	19.26	-51.9	-53.2	21.6	0.00e+00	0	45	0	349175808	60	17967
2026-01-29 10:31:35.70	240.24	19.32	-51.8	-53.1	21.8	0.00e+00	0	45	0	351272960	60	17756
2026-01-29 10:31:36.70	240.45	19.39	-51.9	-53.2	21.8	0.00e+00	0	45	0	352321536	60	17823
2026-01-29 10:31:37.71	240.66	19.46	-51.9	-53.2	21.7	0.00e+00	0	45	0	354418688	60	17935
2026-01-29 10:31:38.72	240.87	19.53	-52.0	-53.3	21.6	0.00e+00	0	45	0	356515840	60	18038
2026-01-29 10:31:39.72	241.08	19.60	-52.1	-53.4	21.5	0.00e+00	0	45	0	358612992	60	18398
2026-01-29 10:31:40.73	241.29	19.67	-52.1	-53.4	21.5	0.00e+00	0	45	0	360710144	60	18417
2026-01-29 10:31:41.73	241.50	19.73	-52.2	-53.6	21.4	0.00e+00	0	45	0	362807296	60	18653
2026-01-29 10:31:42.73	241.72	19.80	-52.1	-53.5	21.5	0.00e+00	0	45	0	363855872	60	18446
2026-01-29 10:31:43.74	241.93	19.87	-52.1	-53.5	21.5	0.00e+00	0	45	0	365953024	60	18455
2026-01-29 10:31:44.75	242.15	19.93	-52.0	-53.3	21.5	0.00e+00	0	45	0	368050176	60	18156
2026-01-29 10:31:45.75	242.37	20.00	-52.0	-53.2	21.7	0.00e+00	0	45	0	370147328	60	17987
2026-01-29 10:31:46.76	242.58	20.07	-52.0	-53.3	21.6	0.00e+00	0	45	0	372244480	60	18052
2026-01-29 10:31:47.76	242.80	20.13	-52.0	-53.3	21.6	0.00e+00	0	45	0	373293056	60	18138
2026-01-29 10:31:48.77	243.02	20.20	-52.1	-53.4	21.5	0.00e+00	0	45	0	375390208	60	18390
2026-01-29 10:31:49.77	243.24	20.27	-52.2	-53.5	21.4	0.00e+00	0	45	0	377487360	60	18607
2026-01-29 10:31:50.78	243.46	20.33	-52.2	-53.5	21.3	0.00e+00	0	45	0	379584512	60	18627
2026-01-29 10:31:51.79	243.69	20.40	-52.3	-53.6	21.3	0.00e+00	0	45	0	380633088	60	18736
2026-01-29 10:31:52.80	243.91	20.46	-52.2	-53.5	21.4	0.00e+00	0	45	0	382730240	60	18625
2026-01-29 10:31:53.80	244.13	20.53	-52.2	-53.5	21.5	0.00e+00	0	45	0	384827392	60	18496
2026-01-29 10:31:54.81	244.36	20.59	-52.2	-53.5	21.5	0.00e+00	0	45	0	386924544	60	18484
2026-01-29 10:31:55.81	244.58	20.65	-52.2	-53.5	21.5	0.00e+00	0	45	0	389021696	60	18599
2026-01-29 10:31:56.82	244.81	20.72	-52.3	-53.6	21.4	0.00e+00	0	45	0	391118848	60	18751
2026-01-29 10:31:57.83	245.04	20.78	-52.4	-53.7	21.3	0.00e+00	0	45	0	392167424	60	19030
2026-01-29 10:31:58.84	245.27	20.85	-52.4	-53.8	21.3	0.00e+00	0	45	0	394264576	60	19082
2026-01-29 10:31:59.84	245.50	20.91	-52.6	-53.9	21.0	0.00e+00	0	45	0	396361728	60	19489
2026-01-29 10:32:00.84	245.73	20.97	-52.7	-54.1	20.9	0.00e+00	0	45	0	398458880	60	19932
2026-01-29 10:32:01.84	245.96	21.03	-52.9	-54.3	20.7	0.00e+00	0	45	0	400556032	60	20322
2026-01-29 10:32:02.84	246.19	21.10	-52.9	-54.4	20.6	0.00e+00	0	45	0	401604608	60	20459
2026-01-29 10:32:03.84	246.42	21.16	-53.0	-54.5	20.6	0.00e+00	0	45	0	403701760	60	20699
2026-01-29 10:32:04.84	246.65	21.22	-53.0	-54.5	20.6	0.00e+00	0	45	0	405798912	60	20812
2026-01-29 10:32:05.85	246.89	21.28	-53.0	-54.5	20.6	0.00e+00	0	45	0	407896064	60	20728
2026-01-29 10:32:06.86	247.13	21.34	-53.0	-54.5	20.5	0.00e+00	0	45	0	408944640	60	20752
2026-01-29 10:32:07.87	247.36	21.40	-52.9	-54.4	20.5	0.00e+00	0	45	0	411041792	60	20592
2026-01-29 10:32:08.88	247.60	21.46	-53.0	-54.5	20.4	0.00e+00	0	45	0	413138944	60	20863
2026-01-29 10:32:09.88	247.84	21.52	-53.2	-54.8	20.2	0.00e+00	0	45	0	415236096	60	21454
2026-01-29 10:32:10.89	248.08	21.58	-53.3	-54.9	20.0	0.00e+00	0	45	0	417333248	60	21790
2026-01-29 10:32:11.89	248.32	21.64	-53.4	-55.0	20.0	0.00e+00	0	45	0	418381824	60	22003
2026-01-29 10:32:12.90	248.56	21.70	-53.5	-55.1	19.8	0.00e+00	0	45	0	420478976	60	22376
2026-01-29 10:32:13.91	248.81	21.76	-53.5	-55.1	19.9	0.00e+00	0	45	0	422576128	60	22261
2026-01-29 10:32:14.91	249.05	21.81	-53.5	-55.1	20.0	0.00e+00	0	45	0	424673280	60	22347
2026-01-29 10:32:15.92	249.29	21.87	-53.4	-55.0	20.1	0.00e+00	0	45	0	426770432	60	21966
2026-01-29 10:32:16.93	249.54	21.93	-53.1	-54.7	20.2	0.00e+00	0	45	0	428867584	60	21267
2026-01-29 10:32:17.93	249.78	21.99	-52.9	-54.4	20.6	0.00e+00	0	45	0	429916160	60	20475
2026-01-29 10:32:18.94	250.03	22.04	-52.8	-54.3	20.7	0.00e+00	0	45	0	432013312	60	20279
2026-01-29 10:32:19.94	250.28	22.10	-52.8	-54.2	20.8	0.00e+00	0	45	0	434110464	60	20084
2026-01-29 10:32:20.95	250.53	22.15	-52.7	-54.1	20.8	0.00e+00	0	45	0	436207616	60	19935
2026-01-29 10:32:21.95	250.77	22.21	-52.7	-54.1	20.8	0.00e+00	0	45	0	437256192	60	19976
2026-01-29 10:32:22.95	251.02	22.26	-52.8	-54.3	20.5	0.00e+00	0	45	0	439353344	60	20335
2026-01-29 10:32:23.96	251.27	22.32	-53.0	-54.4	20.5	0.00e+00	0	45	0	441450496	60	20646
2026-01-29 10:32:24.96	251.52	22.37	-53.0	-54.5	20.5	0.00e+00	0	45	0	443547648	60	20690
2026-01-29 10:32:25.97	251.78	22.42	-53.0	-54.5	20.4	0.00e+00	0	45	0	445644800	60	20858
2026-01-29 10:32:26.98	252.03	22.48	-53.1	-54.5	20.5	0.00e+00	0	45	0	446693376	60	20901
2026-01-29 10:32:27.98	252.29	22.53	-53.2	-54.7	20.4	0.00e+00	0	45	0	448790528	60	21226
2026-01-29 10:32:28.99	252.54	22.58	-53.2	-54.7	20.4	0.00e+00	0	45	0	450887680	60	21273
2026-01-29 10:32:30.00	252.80	22.63	-53.2	-54.7	20.3	0.00e+00	0	45	0	452984832	60	21275
2026-01-29 10:32:31.00	253.05	22.68	-53.2	-54.7	20.3	0.00e+00	0	45	0	455081984	60	21284
2026-01-29 10:32:32.00	253.31	22.73	-53.2	-54.7	20.3	0.00e+00	0	45	0	456130560	60	21263
2026-01-29 10:32:33.01	253.57	22.78	-53.1	-54.6	20.4	0.00e+00	0	45	0	458227712	60	21147
2026-01-29 10:32:34.01	253.83	22.83	-53.2	-54.7	20.3	0.00e+00	0	45	0	460324864	60	21237
2026-01-29 10:32:35.01	254.09	22.88	-53.2	-54.8	20.2	0.00e+00	0	45	0	462422016	60	21515
2026-01-29 10:32:36.02	254.35	22.93	-53.4	-55.0	19.9	0.00e+00	0	45	0	464519168	60	22146
2026-01-29 10:32:37.03	254.61	22.98	-53.6	-55.2	19.8	0.00e+00	0	45	0	465567744	60	22635
2026-01-29 10:32:38.03	254.87	23.03	-53.8	-55.4	19.6	0.00e+00	0	45	0	467664896	60	23151
2026-01-29 10:32:39.04	255.13	23.07	-53.9	-55.6	19.5	0.00e+00	0	45	0	469762048	60	23620
2026-01-29 10:32:40.05	255.40	23.12	-54.0	-55.7	19.5	0.00e+00	0	45	0	471859200	60	23882
2026-01-29 10:32:41.06	255.67	23.17	-54.0	-55.8	19.4	0.00e+00	0	45	0	473956352	60	24053
2026-01-29 10:32:42.07	255.93	23.21	-53.9	-55.6	19.5	0.00e+00	0	45	0	475004928	60	23701
2026-01-29 10:32:43.07	256.20	23.26	-53.9	-55.7	19.4	0.00e+00	0	45	0	477102080	60	23781
2026-01-29 10:32:44.07	256.46	23.30	-53.7	-55.3	19.7	0.00e+00	0	45	0	479199232	60	22908
2026-01-29 10:32:45.08	256.73	23.34	-53.5	-55.1	19.9	0.00e+00	0	45	0	481296384	60	22409
2026-01-29 10:32:46.08	257.00	23.39	-53.4	-55.0	20.0	0.00e+00	0	45	0	483393536	60	22069
2026-01-29 10:32:47.09	257.27	23.43	-53.2	-54.8	20.2	0.00e+00	0	45	0	484442112	60	21448
2026-01-29 10:32:48.10	257.54	23.47	-53.2	-54.8	20.2	0.00e+00	0	45	0	486539264	60	21533
2026-01-29 10:32:49.11	257.81	23.51	-53.3	-54.9	20.0	0.00e+00	0	45	0	488636416	60	21729
2026-01-29 10:32:50.11	258.08	23.55	-53.5	-55.2	19.9	0.00e+00	0	45	0	490733568	60	22497
2026-01-29 10:32:51.12	258.35	23.59	-53.7	-55.4	19.7	0.00e+00	0	45	0	491782144	60	22950
2026-01-29 10:32:52.12	258.62	23.63	-53.8	-55.5	19.5	0.00e+00	0	45	0	493879296	60	23390
2026-01-29 10:32:53.13	258.90	23.67	-53.8	-55.6	19.5	0.00e+00	0	45	0	495976448	60	23564
2026-01-29 10:32:54.14	259.17	23.71	-53.9	-55.6	19.5	0.00e+00	0	45	0	498073600	60	23707
2026-01-29 10:32:55.14	259.45	23.75	-53.8	-55.5	19.7	0.00e+00	0	45	0	500170752	60	23221
2026-01-29 10:32:56.15	259.72	23.79	-53.7	-55.4	19.7	0.00e+00	0	45	0	502267904	60	23121
2026-01-29 10:32:57.16	260.00	23.82	-53.6	-55.3	19.8	0.00e+00	0	45	0	503316480	60	22798
2026-01-29 10:32:58.16	260.27	23.86	-53.7	-55.4	19.8	0.00e+00	0	45	0	505413632	60	23019
2026-01-29 10:32:59.16	260.55	23.89	-53.7	-55.4	19.7	0.00e+00	0	45	0	507510784	60	23114
2026-01-29 10:33:00.17	260.83	23.93	-54.0	-55.8	19.3	0.00e+00	0	45	0	509607936	60	24165
2026-01-29 10:33:01.18	261.11	23.96	-54.2	-56.0	19.2	0.00e+00	0	45	0	511705088	60	24824
2026-01-29 10:33:02.18	261.38	24.00	-54.3	-56.1	19.1	0.00e+00	0	45	0	512753664	60	25029
2026-01-29 10:33:03.18	261.66	24.03	-54.3	-56.2	18.9	0.00e+00	0	45	0	514850816	60	25331
2026-01-29 10:33:04.19	261.94	24.06	-54.5	-56.4	18.7	0.00e+00	0	45	0	516947968	60	25993
2026-01-29 10:33:05.19	262.22	24.09	-54.5	-56.5	18.8	0.00e+00	0	45	0	519045120	60	26081
2026-01-29 10:33:06.19	262.50	24.12	-54.4	-56.3	18.9	0.00e+00	0	45	0	520093696	60	25591
2026-01-29 10:33:07.20	262.78	24.15	-54.2	-56.1	19.1	0.00e+00	0	45	0	522190848	60	24962
2026-01-29 10:33:08.21	263.07	24.18	-54.3	-56.2	19.0	0.00e+00	0	45	0	524288000	60	25209
2026-01-29 10:33:09.21	263.35	24.21	-54.2	-56.0	19.1	0.00e+00	0	45	0	526385152	60	24852
2026-01-29 10:33:10.22	263.63	24.24	-54.1	-55.9	19.3	0.00e+00	0	45	0	528482304	60	24456
2026-01-29 10:33:11.23	263.92	24.27	-54.2	-56.0	19.3	0.00e+00	0	45	0	530579456	60	24719
2026-01-29 10:33:12.24	264.20	24.29	-54.3	-56.1	19.1	0.00e+00	0	45	0	531628032	60	25008
2026-01-29 10:33:13.24	264.48	24.32	-54.4	-56.2	19.0	0.00e+00	0	45	0	533725184	60	25358
2026-01-29 10:33:14.25	264.77	24.34	-54.4	-56.2	19.0	0.00e+00	0	45	0	535822336	60	25367
2026-01-29 10:33:15.25	265.05	24.37	-54.3	-56.2	19.1	0.00e+00	0	45	0	537919488	60	25345
2026-01-29 10:33:16.26	265.34	24.39	-54.3	-56.2	18.9	0.00e+00	0	45	0	540016640	60	25251
2026-01-29 10:33:17.27	265.63	24.41	-54.3	-56.1	19.2	0.00e+00	0	45	0	541065216	60	24997
2026-01-29 10:33:18.27	265.91	24.44	-54.0	-55.8	19.5	0.00e+00	0	45	0	543162368	60	24116
2026-01-29 10:33:19.28	266.20	24.46	-53.9	-55.6	19.7	0.00e+00	0	45	0	545259520	60	23637
2026-01-29 10:33:20.28	266.49	24.48	-53.8	-55.5	19.9	0.00e+00	0	45	0	547356672	60	23205
2026-01-29 10:33:21.29	266.77	24.50	-53.5	-55.1	20.2	0.00e+00	0	45	0	548405248	60	22236
2026-01-29 10:33:22.30	267.06	24.52	-53.3	-54.8	20.6	0.00e+00	0	45	0	550502400	60	21480
2026-01-29 10:33:23.31	267.35	24.54	-53.2	-54.6	20.7	0.00e+00	0	45	0	552599552	60	21136
2026-01-29 10:33:24.32	267.64	24.56	-53.2	-54.6	20.6	0.00e+00	0	45	0	554696704	60	21161
2026-01-29 10:33:25.33	267.93	24.57	-53.2	-54.7	20.6	0.00e+00	0	45	0	556793856	60	21184
2026-01-29 10:33:26.33	268.22	24.59	-53.2	-54.7	20.4	0.00e+00	0	45	0	558891008	60	21304
2026-01-29 10:33:27.34	268.51	24.61	-53.3	-54.8	20.5	0.00e+00	0	45	0	559939584	60	21500
2026-01-29 10:33:28.35	268.80	24.62	-53.3	-54.9	20.4	0.00e+00	0	45	0	562036736	60	21701
2026-01-29 10:33:29.35	269.09	24.63	-53.2	-54.7	20.6	0.00e+00	0	45	0	564133888	60	21255
2026-01-29 10:33:30.36	269.38	24.65	-53.1	-54.6	20.6	0.00e+00	0	45	0	566231040	60	21068
2026-01-29 10:33:31.36	269.67	24.66	-53.1	-54.6	20.6	0.00e+00	0	45	0	568328192	60	21006
2026-01-29 10:33:32.37	269.96	24.67	-53.1	-54.6	20.7	0.00e+00	0	45	0	569376768	60	21029
2026-01-29 10:33:33.38	270.25	24.68	-53.1	-54.6	20.7	0.00e+00	0	45	0	571473920	60	20968
2026-01-29 10:33:34.38	270.54	24.69	-53.2	-54.7	20.5	0.00e+00	0	45	0	573571072	60	21367
2026-01-29 10:33:35.39	270.84	24.70	-53.5	-55.0	20.3	0.00e+00	0	45	0	575668224	60	22109
2026-01-29 10:33:36.39	271.13	24.71	-53.7	-55.4	19.9	0.00e+00	0	45	0	576716800	60	23043
2026-01-29 10:33:37.40	271.42	24.72	-53.9	-55.7	19.6	0.00e+00	0	45	0	578813952	60	23763
2026-01-29 10:33:38.40	271.71	24.73	-54.1	-55.9	19.4	0.00e+00	0	45	0	580911104	60	24454
2026-01-29 10:33:39.41	272.00	24.74	-54.1	-55.9	19.4	0.00e+00	0	45	0	583008256	60	24377
2026-01-29 10:33:40.42	272.30	24.74	-53.9	-55.7	19.6	0.00e+00	0	45	0	585105408	60	23769
2026-01-29 10:33:41.42	272.59	24.75	-53.7	-55.4	19.9	0.00e+00	0	45	0	587202560	60	23096
2026-01-29 10:33:42.42	272.88	24.75	-53.5	-55.2	20.1	0.00e+00	0	45	0	588251136	60	22443
2026-01-29 10:33:43.42	273.17	24.75	-53.4	-54.9	20.4	0.00e+00	0	45	0	590348288	60	21838
2026-01-29 10:33:44.42	273.46	24.76	-53.3	-54.9	20.4	0.00e+00	0	45	0	592445440	60	21679
2026-01-29 10:33:45.43	273.75	24.76	-53.3	-54.8	20.4	0.00e+00	0	45	0	594542592	60	21638
2026-01-29 10:33:46.44	274.04	24.76	-53.3	-54.9	20.3	0.00e+00	0	45	0	596639744	60	21724
2026-01-29 10:33:47.45	274.34	24.76	-53.4	-55.0	20.2	0.00e+00	0	45	0	597688320	60	22121
2026-01-29 10:33:48.45	274.63	24.76	-53.5	-55.1	20.1	0.00e+00	0	45	0	599785472	60	22276
2026-01-29 10:33:49.46	274.92	24.76	-53.6	-55.3	19.9	0.00e+00	0	45	0	601882624	60	22696
2026-01-29 10:33:50.46	275.21	24.76	-53.5	-55.2	20.0	0.00e+00	0	45	0	603979776	60	22502
2026-01-29 10:33:51.46	275.50	24.76	-53.4	-55.1	20.1	0.00e+00	0	45	0	605028352	60	22299
2026-01-29 10:33:52.47	275.80	24.75	-53.3	-55.0	20.2	0.00e+00	0	45	0	607125504	60	21968
2026-01-29 10:33:53.47	276.09	24.75	-53.4	-55.1	20.1	0.00e+00	0	45	0	609222656	60	22278
2026-01-29 10:33:54.47	276.38	24.74	-53.3	-54.9	20.2	0.00e+00	0	45	0	611319808	60	21782
2026-01-29 10:33:55.47	276.67	24.74	-53.2	-54.8	20.3	0.00e+00	0	45	0	613416960	60	21593
2026-01-29 10:33:56.47	276.96	24.73	-53.2	-54.9	20.2	0.00e+00	0	45	0	614465536	60	21719
2026-01-29 10:33:57.48	277.25	24.72	-53.3	-55.0	20.0	0.00e+00	0	45	0	616562688	60	22041
2026-01-29 10:33:58.48	277.54	24.72	-53.2	-54.9	20.1	0.00e+00	0	45	0	618659840	60	21854
2026-01-29 10:33:59.49	277.83	24.71	-53.3	-55.1	19.9	0.00e+00	0	45	0	620756992	60	22200
2026-01-29 10:34:00.50	278.12	24.70	-53.3	-55.2	19.8	0.00e+00	0	46	0	622854144	60	22478
2026-01-29 10:34:01.49	278.41	24.69	-53.2	-55.2	19.7	0.00e+00	0	45	0	623902720	60	22459
2026-01-29 10:34:02.50	278.70	24.68	-53.2	-55.2	19.7	0.00e+00	0	45	0	625999872	60	22467
2026-01-29 10:34:03.51	278.99	24.66	-53.2	-55.1	19.7	0.00e+00	0	45	0	628097024	60	22403
2026-01-29 10:34:04.52	279.29	24.65	-53.0	-55.0	19.9	0.00e+00	0	45	0	630194176	60	21949
2026-01-29 10:34:05.52	279.57	24.64	-52.9	-54.8	19.9	0.00e+00	0	45	0	632291328	60	21482
2026-01-29 10:34:06.53	279.87	24.63	-52.4	-54.2	20.6	0.00e+00	0	45	0	633339904	60	20100
2026-01-29 10:34:07.52	280.15	24.61	-52.4	-54.1	20.6	0.00e+00	0	45	0	635437056	60	19903
2026-01-29 10:34:08.53	280.44	24.60	-52.4	-54.1	20.6	0.00e+00	0	45	0	637534208	60	19898
2026-01-29 10:34:09.53	280.73	24.58	-52.6	-54.4	20.4	0.00e+00	0	46	0	639631360	60	20674
2026-01-29 10:34:10.54	281.02	24.56	-52.8	-54.7	20.1	0.00e+00	0	45	0	641728512	60	21335
2026-01-29 10:34:11.54	281.31	24.54	-53.2	-55.2	19.7	0.00e+00	0	45	0	642777088	60	22448
2026-01-29 10:34:12.55	281.59	24.53	-53.3	-55.4	19.4	0.00e+00	0	45	0	644874240	60	23049
2026-01-29 10:34:13.55	281.88	24.51	-53.4	-55.4	19.4	0.00e+00	0	45	0	646971392	60	23201
2026-01-29 10:34:14.56	282.17	24.49	-53.5	-55.6	19.3	0.00e+00	0	45	0	649068544	60	23483
2026-01-29 10:34:15.57	282.46	24.47	-53.5	-55.5	19.4	0.00e+00	0	45	0	651165696	60	23271
2026-01-29 10:34:16.57	282.74	24.45	-53.5	-55.4	19.4	0.00e+00	0	45	0	652214272	60	23193
2026-01-29 10:34:17.58	283.03	24.42	-53.5	-55.4	19.4	0.00e+00	0	45	0	654311424	60	23158
2026-01-29 10:34:18.59	283.32	24.40	-53.5	-55.3	19.6	0.00e+00	0	45	0	656408576	60	22899
2026-01-29 10:34:19.60	283.60	24.38	-53.4	-55.2	19.7	0.00e+00	0	45	0	658505728	60	22476
2026-01-29 10:34:20.60	283.89	24.35	-53.3	-55.1	19.8	0.00e+00	0	45	0	660602880	60	22185
2026-01-29 10:34:21.61	284.17	24.33	-53.2	-54.9	20.0	0.00e+00	0	45	0	661651456	60	21720
2026-01-29 10:34:22.62	284.46	24.30	-53.2	-54.8	20.1	0.00e+00	0	45	0	663748608	60	21547
2026-01-29 10:34:23.63	284.74	24.28	-53.2	-54.8	20.0	0.00e+00	0	45	0	665845760	60	21561
2026-01-29 10:34:24.64	285.03	24.25	-53.4	-55.1	19.8	0.00e+00	0	45	0	667942912	60	22286
2026-01-29 10:34:25.64	285.31	24.22	-53.4	-55.1	19.8	0.00e+00	0	45	0	670040064	60	22346
2026-01-29 10:34:26.65	285.59	24.19	-53.6	-55.4	19.4	0.00e+00	0	45	0	671088640	60	23025
2026-01-29 10:34:27.65	285.87	24.16	-53.5	-55.3	19.6	0.00e+00	0	45	0	673185792	60	22715
2026-01-29 10:34:28.66	286.15	24.13	-53.3	-55.0	19.8	0.00e+00	0	45	0	675282944	60	22064
2026-01-29 10:34:29.66	286.43	24.10	-53.0	-54.7	20.2	0.00e+00	0	45	0	677380096	60	21291
2026-01-29 10:34:30.67	286.71	24.07	-52.8	-54.5	20.3	0.00e+00	0	45	0	679477248	60	20688
2026-01-29 10:34:31.67	286.99	24.04	-52.8	-54.5	20.4	0.00e+00	0	45	0	680525824	60	20753
2026-01-29 10:34:32.67	287.27	24.01	-52.8	-54.6	20.3	0.00e+00	0	45	0	682622976	60	20929
2026-01-29 10:34:33.67	287.55	23.98	-52.8	-54.6	20.2	0.00e+00	0	45	0	684720128	60	20956
2026-01-29 10:34:34.68	287.82	23.94	-52.8	-54.6	20.1	0.00e+00	0	45	0	686817280	60	21084
2026-01-29 10:34:35.69	288.10	23.91	-52.8	-54.6	20.2	0.00e+00	0	45	0	688914432	60	21037
2026-01-29 10:34:36.69	288.38	23.87	-52.7	-54.5	20.4	0.00e+00	0	45	0	689963008	60	20755
2026-01-29 10:34:37.70	288.66	23.84	-52.6	-54.3	20.6	0.00e+00	0	45	0	692060160	60	20319
2026-01-29 10:34:38.71	288.93	23.80	-52.4	-54.0	20.9	0.00e+00	0	45	0	694157312	60	19645
2026-01-29 10:34:39.72	289.21	23.76	-52.3	-53.9	20.9	0.00e+00	0	45	0	696254464	60	19433
2026-01-29 10:34:40.73	289.48	23.73	-52.2	-53.8	21.0	0.00e+00	0	45	0	698351616	60	19243
2026-01-29 10:34:41.73	289.75	23.69	-52.2	-53.8	20.9	0.00e+00	0	45	0	699400192	60	19225
2026-01-29 10:34:42.73	290.03	23.65	-52.3	-53.8	20.7	0.00e+00	0	45	0	701497344	60	19269
2026-01-29 10:34:43.75	290.30	23.61	-52.2	-53.8	20.8	0.00e+00	0	45	0	703594496	60	19201
2026-01-29 10:34:44.75	290.57	23.57	-52.3	-53.8	20.9	0.00e+00	0	45	0	705691648	60	19176
2026-01-29 10:34:45.76	290.84	23.53	-52.3	-53.8	21.0	0.00e+00	0	45	0	707788800	60	19261
2026-01-29 10:34:46.77	291.11	23.49	-52.2	-53.7	21.1	0.00e+00	0	45	0	708837376	60	18992
2026-01-29 10:34:47.78	291.38	23.45	-52.3	-53.7	21.1	0.00e+00	0	45	0	710934528	60	19060
2026-01-29 10:34:48.79	291.65	23.41	-52.2	-53.7	21.1	0.00e+00	0	45	0	713031680	60	18892
2026-01-29 10:34:49.80	291.92	23.36	-52.2	-53.6	21.1	0.00e+00	0	45	0	715128832	60	18770
2026-01-29 10:34:50.80	292.19	23.32	-52.2	-53.5	21.1	0.00e+00	0	45	0	717225984	60	18589
2026-01-29 10:34:51.81	292.46	23.28	-52.1	-53.5	21.1	0.00e+00	0	45	0	718274560	60	18475
2026-01-29 10:34:52.82	292.72	23.23	-52.1	-53.5	21.3	0.00e+00	0	45	0	720371712	60	18491
2026-01-29 10:34:53.83	292.99	23.19	-52.1	-53.5	21.5	0.00e+00	0	45	0	722468864	60	18500
2026-01-29 10:34:54.83	293.25	23.14	-52.2	-53.5	21.5	0.00e+00	0	45	0	724566016	60	18632
2026-01-29 10:34:55.84	293.52	23.09	-52.1	-53.4	21.6	0.00e+00	0	45	0	726663168	60	18385
2026-01-29 10:34:56.84	293.78	23.05	-52.1	-53.4	21.6	0.00e+00	0	45	0	727711744	60	18331
2026-01-29 10:34:57.85	294.04	23.00	-51.9	-53.2	21.9	0.00e+00	0	45	0	729808896	60	17826
2026-01-29 10:34:58.85	294.30	22.95	-51.7	-53.0	22.0	0.00e+00	0	45	0	731906048	60	17505
2026-01-29 10:34:59.86	294.56	22.90	-51.6	-52.9	22.1	0.00e+00	0	45	0	734003200	60	17214
2026-01-29 10:35:00.87	294.82	22.86	-51.4	-52.6	22.2	0.00e+00	0	45	0	736100352	60	16795
2026-01-29 10:35:01.87	295.08	22.81	-51.5	-52.7	22.3	0.00e+00	0	45	0	737148928	60	16844
2026-01-29 10:35:02.87	295.34	22.76	-51.5	-52.7	22.3	0.00e+00	0	45	0	739246080	60	16925
2026-01-29 10:35:03.88	295.59	22.71	-51.6	-52.9	22.2	0.00e+00	0	45	0	741343232	60	17209
2026-01-29 10:35:04.89	295.85	22.66	-51.6	-52.9	22.2	0.00e+00	0	45	0	743440384	60	17265
2026-01-29 10:35:05.89	296.11	22.61	-51.6	-52.8	22.2	0.00e+00	0	45	0	745537536	60	17196
2026-01-29 10:35:06.90	296.36	22.55	-51.5	-52.8	22.0	0.00e+00	0	45	0	746586112	60	17006
2026-01-29 10:35:07.91	296.62	22.50	-51.5	-52.7	22.4	0.00e+00	0	45	0	748683264	60	16923
2026-01-29 10:35:08.92	296.87	22.45	-51.5	-52.7	22.4	0.00e+00	0	45	0	750780416	60	16866
2026-01-29 10:35:09.92	297.12	22.40	-51.5	-52.7	22.3	0.00e+00	0	45	0	752877568	60	16960
2026-01-29 10:35:10.93	297.37	22.34	-51.6	-52.9	22.2	0.00e+00	0	45	0	754974720	60	17297
2026-01-29 10:35:11.94	297.62	22.29	-51.9	-53.2	21.9	0.00e+00	0	45	0	756023296	60	17918
2026-01-29 10:35:12.95	297.87	22.23	-52.1	-53.5	21.7	0.00e+00	0	45	0	758120448	60	18584
2026-01-29 10:35:13.95	298.12	22.18	-52.3	-53.7	21.5	0.00e+00	0	45	0	760217600	60	19012
2026-01-29 10:35:14.96	298.37	22.13	-52.3	-53.7	21.4	0.00e+00	0	45	0	762314752	60	19041
2026-01-29 10:35:15.97	298.62	22.07	-52.2	-53.7	21.5	0.00e+00	0	45	0	764411904	60	18918
2026-01-29 10:35:16.97	298.86	22.01	-52.1	-53.5	21.6	0.00e+00	0	45	0	765460480	60	18500
2026-01-29 10:35:17.98	299.11	21.96	-51.9	-53.2	21.8	0.00e+00	0	45	0	767557632	60	17984
2026-01-29 10:35:18.99	299.36	21.90	-51.7	-53.1	21.9	0.00e+00	0	45	0	769654784	60	17645
2026-01-29 10:35:19.99	299.60	21.84	-51.7	-53.0	21.9	0.00e+00	0	45	0	771751936	60	17484
2026-01-29 10:35:21.00	299.84	21.79	-51.8	-53.1	21.8	0.00e+00	0	45	0	773849088	60	17655
2026-01-29 10:35:22.01	300.08	21.73	-51.9	-53.2	21.8	0.00e+00	0	45	0	774897664	60	17889
2026-01-29 10:35:23.01	300.32	21.67	-52.0	-53.3	21.8	0.00e+00	0	45	0	776994816	60	18143
2026-01-29 10:35:24.01	300.56	21.61	-52.0	-53.3	21.7	0.00e+00	0	45	0	779091968	60	18106
2026-01-29 10:35:25.01	300.80	21.55	-52.1	-53.4	21.8	0.00e+00	0	45	0	781189120	60	18276
2026-01-29 10:35:26.02	301.04	21.49	-52.2	-53.4	21.7	0.00e+00	0	45	0	782237696	60	18376
2026-01-29 10:35:27.02	301.27	21.43	-52.5	-53.8	21.4	0.00e+00	0	45	0	784334848	60	19198
2026-01-29 10:35:28.03	301.51	21.37	-52.8	-54.2	21.1	0.00e+00	0	45	0	786432000	60	20038
2026-01-29 10:35:29.04	301.75	21.31	-53.0	-54.5	20.8	0.00e+00	0	45	0	788529152	60	20735
2026-01-29 10:35:30.04	301.98	21.25	-53.2	-54.8	20.5	0.00e+00	0	45	0	790626304	60	21552
2026-01-29 10:35:31.05	302.22	21.19	-53.3	-54.9	20.4	0.00e+00	0	45	0	792723456	60	21785
2026-01-29 10:35:32.04	302.44	21.13	-53.3	-55.1	20.1	0.00e+00	0	45	0	793772032	60	22178
2026-01-29 10:35:33.05	302.68	21.07	-53.3	-55.2	20.0	0.00e+00	0	45	0	795869184	60	22453
2026-01-29 10:35:34.06	302.91	21.01	-53.4	-55.2	19.9	0.00e+00	0	45	0	797966336	60	22620
2026-01-29 10:35:35.07	303.14	20.94	-53.3	-55.2	20.0	0.00e+00	0	45	0	800063488	60	22470
2026-01-29 10:35:36.07	303.37	20.88	-53.3	-55.1	20.0	0.00e+00	0	45	0	802160640	60	22411
2026-01-29 10:35:37.08	303.60	20.82	-53.2	-55.1	20.2	0.00e+00	0	45	0	803209216	60	22178
2026-01-29 10:35:38.08	303.82	20.76	-53.0	-54.8	20.4	0.00e+00	0	45	0	805306368	60	21527
2026-01-29 10:35:39.08	304.05	20.69	-52.8	-54.4	20.8	0.00e+00	0	45	0	807403520	60	20557
2026-01-29 10:35:40.09	304.27	20.63	-52.6	-54.2	21.1	0.00e+00	0	45	0	809500672	60	20051
2026-01-29 10:35:41.10	304.50	20.57	-52.6	-54.1	21.2	0.00e+00	0	45	0	810549248	60	19801
2026-01-29 10:35:42.11	304.73	20.50	-52.5	-54.0	21.3	0.00e+00	0	45	0	812646400	60	19575
2026-01-29 10:35:43.11	304.95	20.44	-52.7	-54.1	21.1	0.00e+00	0	45	0	814743552	60	19842
2026-01-29 10:35:44.11	305.17	20.37	-52.7	-54.1	21.1	0.00e+00	0	45	0	816840704	60	19956
2026-01-29 10:35:45.12	305.39	20.31	-52.9	-54.3	20.9	0.00e+00	0	45	0	818937856	60	20411
2026-01-29 10:35:46.12	305.61	20.24	-53.0	-54.5	20.7	0.00e+00	0	45	0	821035008	60	20836
2026-01-29 10:35:47.12	305.83	20.18	-53.1	-54.6	20.6	0.00e+00	0	45	0	822083584	60	21121
2026-01-29 10:35:48.13	306.04	20.11	-53.2	-54.7	20.5	0.00e+00	0	45	0	824180736	60	21359
2026-01-29 10:35:49.14	306.26	20.04	-53.3	-54.8	20.5	0.00e+00	0	46	0	826277888	60	21465
2026-01-29 10:35:50.14	306.48	19.98	-53.3	-54.8	20.4	0.00e+00	0	45	0	828375040	60	21641
2026-01-29 10:35:51.15	306.69	19.91	-53.4	-55.0	20.3	0.00e+00	0	45	0	830472192	60	22062
2026-01-29 10:35:52.15	306.91	19.85	-53.4	-55.1	20.2	0.00e+00	0	45	0	831520768	60	22210
2026-01-29 10:35:53.15	307.12	19.78	-53.4	-55.1	20.3	0.00e+00	0	45	0	833617920	60	22285
2026-01-29 10:35:54.16	307.33	19.71	-53.4	-55.1	20.2	0.00e+00	0	45	0	835715072	60	22289
2026-01-29 10:35:55.17	307.55	19.64	-53.3	-55.0	20.4	0.00e+00	0	45	0	837812224	60	22142
2026-01-29 10:35:56.17	307.76	19.58	-53.1	-54.8	20.6	0.00e+00	0	45	0	838860800	60	21410
2026-01-29 10:35:57.18	307.97	19.51	-52.8	-54.5	20.8	0.00e+00	0	45	0	840957952	60	20719
2026-01-29 10:35:58.18	308.17	19.44	-52.7	-54.3	21.1	0.00e+00	0	45	0	843055104	60	20377
2026-01-29 10:35:59.18	308.38	19.38	-52.6	-54.2	21.1	0.00e+00	0	45	0	845152256	60	20099
2026-01-29 10:36:00.19	308.59	19.31	-52.6	-54.3	21.0	0.00e+00	0	45	0	847249408	60	20265
2026-01-29 10:36:01.19	308.79	19.24	-52.7	-54.4	20.7	0.00e+00	0	45	0	848297984	60	20508
2026-01-29 10:36:02.19	309.00	19.17	-52.9	-54.5	20.6	0.00e+00	0	45	0	850395136	60	20881
2026-01-29 10:36:03.20	309.20	19.10	-53.1	-54.7	20.5	0.00e+00	0	45	0	852492288	60	21407
2026-01-29 10:36:04.20	309.41	19.03	-53.1	-54.7	20.5	0.00e+00	0	45	0	854589440	60	21252
2026-01-29 10:36:05.20	309.61	18.96	-53.2	-54.7	20.5	0.00e+00	0	45	0	856686592	60	21264
2026-01-29 10:36:06.20	309.81	18.90	-53.0	-54.5	20.7	0.00e+00	0	45	0	857735168	60	20799
2026-01-29 10:36:07.21	310.01	18.83	-53.0	-54.5	20.8	0.00e+00	0	45	0	859832320	60	20823
2026-01-29 10:36:08.21	310.21	18.76	-53.0	-54.5	20.8	0.00e+00	0	45	0	861929472	60	20781
2026-01-29 10:36:09.22	310.41	18.69	-53.0	-54.6	20.8	0.00e+00	0	45	0	864026624	60	20943
2026-01-29 10:36:10.23	310.61	18.62	-53.1	-54.7	20.7	0.00e+00	0	45	0	866123776	60	21245
2026-01-29 10:36:11.24	310.81	18.55	-53.1	-54.8	20.6	0.00e+00	0	45	0	867172352	60	21428
2026-01-29 10:36:12.24	311.00	18.48	-53.2	-54.8	20.5	0.00e+00	0	45	0	869269504	60	21588
2026-01-29 10:36:13.24	311.20	18.41	-53.2	-54.8	20.4	0.00e+00	0	45	0	871366656	60	21620
2026-01-29 10:36:14.24	311.39	18.34	-53.2	-54.9	20.4	0.00e+00	0	45	0	873463808	60	21717
2026-01-29 10:36:15.25	311.58	18.27	-53.3	-54.9	20.2	0.00e+00	0	45	0	875560960	60	21877
2026-01-29 10:36:16.26	311.78	18.20	-53.3	-55.0	20.0	0.00e+00	0	45	0	876609536	60	22092
2026-01-29 10:36:17.26	311.97	18.13	-53.5	-55.3	19.7	0.00e+00	0	45	0	878706688	60	22880
2026-01-29 10:36:18.27	312.16	18.06	-53.7	-55.6	19.4	0.00e+00	0	45	0	880803840	60	23683
2026-01-29 10:36:19.28	312.35	17.98	-53.8	-55.8	19.2	0.00e+00	0	45	0	882900992	60	24126
2026-01-29 10:36:20.28	312.54	17.91	-53.8	-55.9	19.2	0.00e+00	0	45	0	884998144	60	24459
2026-01-29 10:36:21.29	312.73	17.84	-53.7	-55.7	19.4	0.00e+00	0	45	0	886046720	60	23943
2026-01-29 10:36:22.29	312.92	17.77	-53.5	-55.5	19.6	0.00e+00	0	45	0	888143872	60	23387
2026-01-29 10:36:23.30	313.11	17.70	-53.2	-55.0	20.0	0.00e+00	0	45	0	890241024	60	22133
2026-01-29 10:36:24.30	313.29	17.63	-53.0	-54.7	20.4	0.00e+00	0	45	0	892338176	60	21399
2026-01-29 10:36:25.31	313.48	17.56	-53.0	-54.6	20.6	0.00e+00	0	45	0	894435328	60	21056
2026-01-29 10:36:26.32	313.66	17.49	-53.0	-54.7	20.5	0.00e+00	0	45	0	895483904	60	21164
2026-01-29 10:36:27.32	313.84	17.42	-53.3	-55.0	20.2	0.00e+00	0	45	0	897581056	60	21935
2026-01-29 10:36:28.33	314.03	17.34	-53.7	-55.5	19.8	0.00e+00	0	45	0	899678208	60	23238
2026-01-29 10:36:29.34	314.21	17.27	-54.0	-55.8	19.4	0.00e+00	0	45	0	901775360	60	24274
2026-01-29 10:36:30.34	314.39	17.20	-54.2	-56.2	19.0	0.00e+00	0	45	0	903872512	60	25201
2026-01-29 10:36:31.35	314.57	17.13	-53.8	-55.8	19.3	0.00e+00	0	45	0	904921088	60	24178
2026-01-29 10:36:32.35	314.75	17.06	-53.5	-55.7	19.2	0.00e+00	0	45	0	907018240	60	23920
2026-01-29 10:36:33.35	314.93	16.99	-53.2	-55.3	19.5	0.00e+00	0	45	0	909115392	60	22756
2026-01-29 10:36:34.36	315.11	16.91	-53.1	-55.1	19.5	0.00e+00	0	45	0	911212544	60	22373
2026-01-29 10:36:35.36	315.28	16.84	-52.9	-54.9	19.7	0.00e+00	0	45	0	913309696	60	21886
2026-01-29 10:36:36.37	315.46	16.77	-52.9	-54.9	19.8	0.00e+00	0	46	0	914358272	60	21893
2026-01-29 10:36:37.38	315.63	16.70	-53.0	-55.1	19.6	0.00e+00	0	46	0	916455424	60	22237
2026-01-29 10:36:38.38	315.81	16.63	-53.1	-55.2	19.6	0.00e+00	0	46	0	918552576	60	22567
2026-01-29 10:36:39.39	315.98	16.56	-53.4	-55.4	19.5	0.00e+00	0	46	0	920649728	60	23172
2026-01-29 10:36:40.39	316.15	16.48	-53.5	-55.5	19.5	0.00e+00	0	45	0	922746880	60	23382
2026-01-29 10:36:41.40	316.33	16.41	-53.5	-55.4	19.8	0.00e+00	0	45	0	923795456	60	23035
2026-01-29 10:36:42.40	316.50	16.34	-53.4	-55.3	19.8	0.00e+00	0	45	0	925892608	60	22788
2026-01-29 10:36:43.41	316.67	16.27	-53.2	-55.0	20.2	0.00e+00	0	45	0	927989760	60	22092
2026-01-29 10:36:44.42	316.84	16.19	-53.1	-54.9	20.1	0.00e+00	0	45	0	930086912	60	21898
2026-01-29 10:36:45.42	317.01	16.12	-53.1	-55.0	20.0	0.00e+00	0	45	0	931135488	60	22065
2026-01-29 10:36:46.41	317.17	16.05	-53.1	-55.1	19.9	0.00e+00	0	45	0	933232640	60	22263
2026-01-29 10:36:47.41	317.34	15.98	-53.2	-55.3	19.5	0.00e+00	0	45	0	935329792	60	22790
2026-01-29 10:36:48.42	317.51	15.91	-53.3	-55.6	19.3	0.00e+00	0	45	0	937426944	60	23541
2026-01-29 10:36:49.42	317.67	15.84	-53.4	-55.8	19.1	0.00e+00	0	45	0	939524096	60	24042
2026-01-29 10:36:50.43	317.84	15.76	-53.5	-56.0	18.8	0.00e+00	0	45	0	941621248	60	24667
2026-01-29 10:36:51.44	318.00	15.69	-53.5	-56.1	18.8	0.00e+00	0	45	0	942669824	60	24870
2026-01-29 10:36:52.44	318.16	15.62	-53.4	-55.8	18.6	0.00e+00	0	45	0	944766976	60	24131
2026-01-29 10:36:53.45	318.33	15.55	-53.1	-55.4	19.4	0.00e+00	0	45	0	946864128	60	22950
2026-01-29 10:36:54.46	318.49	15.47	-52.8	-55.0	19.6	0.00e+00	0	45	0	948961280	60	21958
2026-01-29 10:36:55.47	318.65	15.40	-52.7	-54.8	19.7	0.00e+00	0	45	0	951058432	60	21539
2026-01-29 10:36:56.47	318.81	15.33	-52.7	-54.8	19.7	0.00e+00	0	45	0	952107008	60	21595
2026-01-29 10:36:57.47	318.97	15.26	-52.8	-54.9	19.6	0.00e+00	0	45	0	954204160	60	21835
2026-01-29 10:36:58.47	319.13	15.19	-52.9	-55.1	19.5	0.00e+00	0	45	0	956301312	60	22388
2026-01-29 10:36:59.48	319.29	15.11	-53.1	-55.5	19.2	0.00e+00	0	45	0	958398464	60	23312
2026-01-29 10:37:00.48	319.44	15.04	-53.4	-55.9	19.0	0.00e+00	0	45	0	959447040	60	24349
2026-01-29 10:37:01.48	319.60	14.97	-53.6	-56.1	18.8	0.00e+00	0	45	0	961544192	60	25032
2026-01-29 10:37:02.48	319.75	14.90	-53.8	-56.3	18.7	0.00e+00	0	46	0	963641344	60	25582
2026-01-29 10:37:03.48	319.91	14.83	-53.8	-56.3	18.6	0.00e+00	0	45	0	965738496	60	25706
2026-01-29 10:37:04.49	320.06	14.75	-53.5	-55.9	19.0	0.00e+00	0	45	0	967835648	60	24444
2026-01-29 10:37:05.49	320.22	14.68	-53.1	-55.5	19.0	0.00e+00	0	45	0	968884224	60	23285
2026-01-29 10:37:06.50	320.37	14.61	-52.9	-55.3	19.1	0.00e+00	0	45	0	970981376	60	22835
2026-01-29 10:37:07.50	320.52	14.54	-52.8	-55.4	18.7	0.00e+00	0	45	0	973078528	60	22946
2026-01-29 10:37:08.51	320.67	14.47	-52.7	-55.4	18.6	0.00e+00	0	46	0	975175680	60	23138
2026-01-29 10:37:09.52	320.83	14.39	-52.7	-55.5	18.5	0.00e+00	0	46	0	977272832	60	23463
2026-01-29 10:37:10.53	320.98	14.32	-52.8	-55.9	18.2	0.00e+00	0	45	0	979369984	60	24399
2026-01-29 10:37:11.53	321.12	14.25	-53.0	-56.2	17.8	0.00e+00	0	45	0	980418560	60	25299
2026-01-29 10:37:12.54	321.27	14.18	-53.2	-56.6	17.5	0.00e+00	0	45	0	982515712	60	26466
2026-01-29 10:37:13.55	321.42	14.11	-53.5	-56.8	17.3	0.00e+00	0	45	0	984612864	60	27166
2026-01-29 10:37:14.55	321.57	14.04	-53.6	-56.9	17.3	0.00e+00	0	46	0	986710016	60	27470
2026-01-29 10:37:15.56	321.72	13.96	-53.7	-56.9	17.3	0.00e+00	0	46	0	987758592	60	27458
2026-01-29 10:37:16.57	321.86	13.89	-53.7	-56.7	17.6	0.00e+00	0	45	0	989855744	60	26864
2026-01-29 10:37:17.58	322.01	13.82	-53.6	-56.5	17.7	0.00e+00	0	45	0	991952896	60	26249
2026-01-29 10:37:18.59	322.15	13.75	-53.7	-56.5	17.9	0.00e+00	0	45	0	994050048	60	26183
2026-01-29 10:37:19.59	322.30	13.68	-53.7	-56.3	18.0	0.00e+00	0	45	0	996147200	60	25678
2026-01-29 10:37:20.59	322.44	13.61	-53.9	-56.5	17.8	0.00e+00	0	45	0	997195776	60	26275
2026-01-29 10:37:21.60	322.58	13.53	-54.0	-56.7	17.6	0.00e+00	0	45	0	999292928	60	26652
2026-01-29 10:37:22.60	322.73	13.46	-54.3	-57.0	17.3	0.00e+00	0	45	0	1001390080	60	27796
2026-01-29 10:37:23.61	322.87	13.39	-54.4	-57.3	16.9	0.00e+00	0	45	0	1003487232	60	28663
2026-01-29 10:37:24.62	323.01	13.32	-54.5	-57.6	16.5	0.00e+00	0	45	0	1005584384	60	29861
2026-01-29 10:37:25.63	323.15	13.25	-54.6	-58.0	16.0	0.00e+00	0	45	0	1007681536	60	30998
2026-01-29 10:37:26.64	323.29	13.18	-54.5	-58.1	15.7	0.00e+00	0	45	0	1008730112	60	31576
2026-01-29 10:37:27.64	323.43	13.11	-54.4	-58.2	15.6	0.00e+00	0	45	0	1010827264	60	31868
2026-01-29 10:37:28.65	323.57	13.04	-54.4	-58.3	15.4	0.00e+00	0	45	0	1012924416	60	32104
2026-01-29 10:37:29.65	323.70	12.96	-54.2	-58.2	15.4	0.00e+00	0	45	0	1015021568	60	31774
2026-01-29 10:37:30.66	323.84	12.89	-54.2	-58.2	15.2	0.00e+00	0	45	0	1016070144	60	31833
2026-01-29 10:37:31.67	323.98	12.82	-54.2	-58.3	15.2	0.00e+00	0	45	0	1018167296	60	32178
2026-01-29 10:37:32.68	324.11	12.75	-54.1	-58.4	15.1	0.00e+00	0	45	0	1020264448	60	32588
2026-01-29 10:37:33.69	324.25	12.68	-54.3	-58.6	14.9	0.00e+00	0	45	0	1022361600	60	33376
2026-01-29 10:37:34.68	324.38	12.61	-54.4	-58.8	14.8	0.00e+00	0	45	0	1024458752	60	34201
2026-01-29 10:37:35.69	324.51	12.54	-54.5	-59.1	14.4	0.00e+00	0	46	0	1025507328	60	35405
2026-01-29 10:37:36.69	324.65	12.47	-54.8	-59.5	14.1	7.00e-07	0	45	0	1027604480	60	36976
2026-01-29 10:37:37.69	324.78	12.40	-55.2	-59.8	13.9	7.00e-07	0	45	0	1029701632	60	38142
2026-01-29 10:37:38.70	324.91	12.33	-55.4	-60.1	13.5	1.14e-05	0	46	0	1031798784	60	39526
2026-01-29 10:37:39.71	325.04	12.26	-55.7	-60.3	13.4	7.60e-06	0	46	0	1033895936	60	40425
2026-01-29 10:37:40.72	325.17	12.19	-55.8	-60.4	13.2	1.67e-05	0	46	0	1034944512	60	40834
2026-01-29 10:37:41.73	325.31	12.12	-56.1	-60.7	13.0	3.28e-05	0	46	0	1037041664	60	42711
2026-01-29 10:37:42.73	325.43	12.05	-56.2	-60.7	12.8	5.56e-05	0	46	0	1039138816	60	42648
2026-01-29 10:37:43.74	325.56	11.98	-56.3	-60.9	12.6	7.24e-05	0	46	0	1041235968	60	43658
2026-01-29 10:37:44.75	325.69	11.91	-56.2	-60.8	12.6	8.62e-05	0	46	0	1043333120	60	43104
2026-01-29 10:37:45.75	325.82	11.84	-56.1	-60.8	12.5	1.21e-04	0	45	0	1044381696	60	43082
2026-01-29 10:37:46.76	325.95	11.77	-56.0	-60.9	12.2	1.77e-04	0	45	0	1046478848	60	43587
2026-01-29 10:37:47.77	326.07	11.70	-55.8	-61.1	12.0	2.23e-04	0	46	0	1048576000	60	44512
2026-01-29 10:37:48.78	326.20	11.63	-55.8	-61.4	11.7	4.97e-04	0	45	0	1050673152	60	45789
2026-01-29 10:37:49.78	326.33	11.56	-55.7	-61.6	11.3	8.16e-04	0	45	0	1052770304	60	47086
2026-01-29 10:37:50.79	326.45	11.49	-55.7	-61.8	11.1	1.40e-03	0	45	0	1053818880	60	48353
2026-01-29 10:37:51.79	326.57	11.42	-55.8	-62.2	10.6	2.78e-03	0	45	0	1055916032	60	50430
2026-01-29 10:37:52.79	326.70	11.35	-56.0	-62.5	10.3	4.12e-03	0	45	0	1058013184	60	52374
2026-01-29 10:37:53.80	326.82	11.28	-56.1	-62.8	9.9	6.70e-03	0	46	0	1060110336	60	54375
2026-01-29 10:37:54.80	326.94	11.21	-56.3	-63.1	9.6	9.32e-03	0	45	0	1062207488	60	56206
2026-01-29 10:37:55.81	327.07	11.14	-56.4	-63.3	9.4	1.27e-02	0	45	0	1063256064	60	57423
2026-01-29 10:37:56.81	327.19	11.07	-56.6	-63.6	9.0	2.07e-02	0	46	0	1065353216	60	59315
2026-01-29 10:37:57.81	327.31	11.01	-56.6	-63.8	8.8	2.77e-02	0	45	0	1067450368	60	60576
2026-01-29 10:37:58.82	327.43	10.94	-56.7	-64.0	8.5	3.80e-02	0	46	0	1069547520	60	62329
2026-01-29 10:37:59.82	327.55	10.87	-56.7	-64.4	8.1	4.87e-02	0	46	0	1070596096	60	64829
2026-01-29 10:38:00.82	327.67	10.80	-56.8	-64.7	7.8	6.20e-02	0	46	0	1072693248	60	67037
2026-01-29 10:38:01.82	327.78	10.73	-56.8	-64.9	7.4	9.20e-02	0	45	0	1074790400	60	69248
2026-01-29 10:38:02.83	327.90	10.66	-56.9	-65.2	7.2	1.15e-01	0	45	0	1076887552	60	71319
2026-01-29 10:38:03.84	328.02	10.60	-57.0	-65.5	6.9	1.47e-01	0	45	0	1078984704	60	73475
2026-01-29 10:38:04.84	328.14	10.53	-57.1	-65.8	6.5	2.09e-01	0	46	0	1081081856	60	76783
2026-01-29 10:38:05.85	328.25	10.46	-57.2	-66.2	6.1	2.56e-01	0	45	0	1082130432	60	79736
2026-01-29 10:38:06.85	328.37	10.39	-57.2	-67.9	4.6	3.02e-01	0	45	0	1084227584	60	97324
2026-01-29 10:38:07.86	328.49	10.32	-57.6	-68.4	4.2	1.12e+00	0	45	0	1086324736	60	102912
2026-01-29 10:38:08.86	328.60	10.26	-57.6	-70.9	3.7	1.53e+00	0	46	104	1086324736	60	136693
