passes_logs/2026/01/29/R3.2S-Naryan-Mar/R3.2S-Naryan-Mar__20260129_213847_NOAA_21_JPSS-2_rec.log

#Pass ID: 20260129_213847_NOAA 21 (JPSS-2)
#Satellite: NOAA 21 (JPSS-2)
#Configuration: NOAA-21
#almurnet v.1.7.20240730
#Start time: 2026-01-29 21:38:49

#Version: 2.2.20231116
#Station: R3.2S-Naryan-Mar
#Location: 53.008057 lon 67.646978 lat
#TLE: 1 54234U 22150A   26028.89828222  .00000145  00000+0  89569-4 0  9997
#TLE: 2 54234  98.7511 329.6308 0000927 198.8651 161.2491 14.19540676166783

#Time	Az	El	Level	Level2	SNR	BER	BlckErr	Temp	State	Recorded	gain1	gain2
2026-01-29 21:38:49.66	18.34	0.11	-63.1	-79.3	3.5	1.51e+00	0	43	0	0	60	361835
2026-01-29 21:38:50.66	18.39	0.16	-62.7	-76.8	3.5	1.51e+00	0	44	104	0	60	262715
2026-01-29 21:38:51.67	18.43	0.22	-62.7	-76.8	3.5	1.52e+00	0	45	104	0	60	263088
2026-01-29 21:38:52.68	18.48	0.28	-62.7	-76.8	3.5	1.52e+00	0	45	104	0	60	262643
2026-01-29 21:38:53.68	18.53	0.33	-62.8	-76.8	3.5	1.52e+00	0	45	104	0	60	264193
2026-01-29 21:38:54.69	18.57	0.39	-62.8	-76.9	3.5	1.52e+00	0	45	104	0	60	265710
2026-01-29 21:38:55.70	18.62	0.45	-62.9	-76.9	3.5	1.52e+00	0	45	104	0	60	267650
2026-01-29 21:38:56.71	18.67	0.50	-62.9	-77.0	3.5	1.52e+00	0	45	104	0	60	268193
2026-01-29 21:38:57.71	18.71	0.56	-62.9	-76.9	3.5	1.52e+00	0	45	104	0	60	265904
2026-01-29 21:38:58.72	18.76	0.62	-62.9	-76.9	3.5	1.52e+00	0	45	104	0	60	266166
2026-01-29 21:38:59.72	18.81	0.67	-62.9	-76.9	3.5	1.52e+00	0	45	104	0	60	266139
2026-01-29 21:39:00.73	18.86	0.73	-63.1	-77.1	3.5	1.52e+00	0	45	104	0	60	271085
2026-01-29 21:39:01.73	18.90	0.79	-63.0	-77.0	3.5	1.52e+00	0	45	104	0	60	268225
2026-01-29 21:39:02.74	18.95	0.84	-62.9	-76.9	3.5	1.52e+00	0	45	104	0	60	266543
2026-01-29 21:39:03.75	19.00	0.90	-62.9	-76.9	3.5	1.52e+00	0	45	104	0	60	265736
2026-01-29 21:39:04.76	19.05	0.96	-62.9	-76.8	3.5	1.52e+00	0	45	104	0	60	263834
2026-01-29 21:39:05.76	19.10	1.02	-62.8	-76.8	3.5	1.52e+00	0	45	104	0	60	262195
2026-01-29 21:39:06.77	19.14	1.07	-62.6	-76.6	3.5	1.52e+00	0	45	104	0	60	256079
2026-01-29 21:39:07.77	19.19	1.13	-62.4	-76.4	3.4	1.52e+00	0	45	104	0	60	250568
2026-01-29 21:39:08.78	19.24	1.19	-62.1	-76.2	3.5	1.52e+00	0	45	104	0	60	245157
2026-01-29 21:39:09.78	19.29	1.25	-62.1	-76.1	3.5	1.52e+00	0	45	104	0	60	242149
2026-01-29 21:39:10.79	19.34	1.31	-62.1	-76.0	3.5	1.52e+00	0	45	104	0	60	240318
2026-01-29 21:39:11.79	19.39	1.36	-62.0	-76.0	3.5	1.51e+00	0	45	104	0	60	239491
2026-01-29 21:39:12.79	19.44	1.42	-61.8	-75.9	3.5	1.52e+00	0	45	104	0	60	237163
2026-01-29 21:39:13.80	19.49	1.48	-62.0	-75.9	3.5	1.52e+00	0	45	104	0	60	236619
2026-01-29 21:39:14.81	19.54	1.54	-61.9	-75.9	3.5	1.52e+00	0	45	104	0	60	236540
2026-01-29 21:39:15.82	19.59	1.60	-61.8	-75.8	3.5	1.52e+00	0	45	104	0	60	235244
2026-01-29 21:39:16.82	19.64	1.66	-61.4	-75.7	3.5	1.52e+00	0	45	104	0	60	232208
2026-01-29 21:39:17.83	19.69	1.72	-61.7	-75.6	3.5	1.52e+00	0	45	104	0	60	229561
2026-01-29 21:39:18.83	19.74	1.77	-61.2	-75.4	3.5	1.52e+00	0	45	104	0	60	223629
2026-01-29 21:39:19.84	19.79	1.83	-61.4	-75.5	3.5	1.52e+00	0	45	104	0	60	226905
2026-01-29 21:39:20.85	19.84	1.89	-61.2	-75.4	3.5	1.52e+00	0	45	104	0	60	224110
2026-01-29 21:39:21.86	19.89	1.95	-60.8	-75.2	3.5	1.52e+00	0	45	104	0	60	218816
2026-01-29 21:39:22.87	19.95	2.01	-61.2	-75.3	3.5	1.52e+00	0	45	104	0	60	221477
2026-01-29 21:39:23.88	20.00	2.07	-60.8	-75.1	3.5	1.52e+00	0	45	104	0	60	215743
2026-01-29 21:39:24.88	20.05	2.13	-60.0	-74.8	3.5	1.52e+00	0	45	104	0	60	208217
2026-01-29 21:39:25.88	20.10	2.19	-60.2	-74.6	3.5	1.52e+00	0	45	104	0	60	205366
2026-01-29 21:39:26.89	20.15	2.25	-60.1	-74.6	3.5	1.52e+00	0	45	104	0	60	203166
2026-01-29 21:39:27.90	20.21	2.31	-60.1	-74.5	3.5	1.51e+00	0	45	104	0	60	202781
2026-01-29 21:39:28.90	20.26	2.37	-60.1	-74.5	3.5	1.52e+00	0	45	104	0	60	202199
2026-01-29 21:39:29.91	20.31	2.43	-60.1	-74.5	3.5	1.52e+00	0	45	104	0	60	202339
2026-01-29 21:39:30.91	20.36	2.49	-60.1	-74.4	3.5	1.52e+00	0	45	104	0	60	200780
2026-01-29 21:39:31.92	20.42	2.55	-60.1	-74.5	3.5	1.51e+00	0	45	104	0	60	200889
2026-01-29 21:39:32.92	20.47	2.61	-60.0	-74.4	3.5	1.52e+00	0	45	104	0	60	199782
2026-01-29 21:39:33.93	20.52	2.67	-60.0	-74.4	3.5	1.51e+00	0	45	104	0	60	198526
2026-01-29 21:39:34.94	20.58	2.73	-60.0	-74.3	3.5	1.52e+00	0	45	104	0	60	198210
2026-01-29 21:39:35.95	20.63	2.79	-60.0	-74.3	3.5	1.52e+00	0	45	104	0	60	198457
2026-01-29 21:39:36.96	20.69	2.86	-60.0	-74.4	3.5	1.52e+00	0	46	104	0	60	199546
2026-01-29 21:39:37.96	20.74	2.92	-59.9	-74.4	3.5	1.52e+00	0	45	104	0	60	199479
2026-01-29 21:39:38.97	20.79	2.98	-60.0	-74.4	3.5	1.52e+00	0	46	104	0	60	200650
2026-01-29 21:39:39.98	20.85	3.04	-60.0	-74.4	3.5	1.52e+00	0	45	104	0	60	200639
2026-01-29 21:39:40.98	20.90	3.10	-60.0	-74.5	3.5	1.52e+00	0	45	104	0	60	201593
2026-01-29 21:39:41.99	20.96	3.16	-60.0	-74.5	3.5	1.52e+00	0	45	104	0	60	201104
2026-01-29 21:39:43.00	21.02	3.22	-60.0	-74.5	3.5	1.51e+00	0	45	104	0	60	201466
2026-01-29 21:39:44.01	21.07	3.29	-60.0	-74.4	3.5	1.52e+00	0	46	104	0	60	199493
2026-01-29 21:39:45.01	21.13	3.35	-60.0	-74.4	3.5	1.52e+00	0	45	104	0	60	200785
2026-01-29 21:39:46.01	21.18	3.41	-60.0	-74.4	3.5	1.52e+00	0	45	104	0	60	199435
2026-01-29 21:39:47.02	21.24	3.47	-60.0	-74.4	3.5	1.52e+00	0	45	104	0	60	199690
2026-01-29 21:39:48.03	21.30	3.53	-59.9	-74.4	3.5	1.52e+00	0	45	104	0	60	199321
2026-01-29 21:39:49.03	21.35	3.60	-60.0	-74.3	3.5	1.52e+00	0	45	104	0	60	198274
2026-01-29 21:39:50.05	21.41	3.66	-60.0	-74.4	3.5	1.52e+00	0	46	104	0	60	198989
2026-01-29 21:39:51.05	21.47	3.72	-60.0	-74.3	3.5	1.52e+00	0	46	104	0	60	197592
2026-01-29 21:39:52.06	21.52	3.78	-60.0	-74.2	3.5	1.52e+00	0	46	104	0	60	195722
2026-01-29 21:39:53.07	21.58	3.85	-60.0	-74.2	3.5	1.52e+00	0	46	104	0	60	194406
2026-01-29 21:39:54.08	21.64	3.91	-59.9	-74.0	3.5	1.52e+00	0	46	104	0	60	189987
2026-01-29 21:39:55.08	21.70	3.97	-59.9	-74.0	3.5	1.52e+00	0	46	104	0	60	190350
2026-01-29 21:39:56.09	21.76	4.04	-59.9	-74.1	3.5	1.52e+00	0	46	104	0	60	193509
2026-01-29 21:39:57.10	21.81	4.10	-59.9	-74.0	3.5	1.52e+00	0	46	104	0	60	191762
2026-01-29 21:39:58.10	21.87	4.16	-59.9	-74.3	3.5	1.52e+00	0	46	104	0	60	197078
2026-01-29 21:39:59.11	21.93	4.23	-59.9	-74.2	3.5	1.52e+00	0	46	104	0	60	194944
2026-01-29 21:40:00.12	21.99	4.29	-59.9	-74.2	3.5	1.52e+00	0	46	104	0	60	194576
2026-01-29 21:40:01.12	22.05	4.35	-59.9	-74.2	3.5	1.52e+00	0	46	104	0	60	194876
2026-01-29 21:40:02.13	22.11	4.42	-59.9	-74.3	3.5	1.52e+00	0	46	104	0	60	197123
2026-01-29 21:40:03.14	22.17	4.48	-59.8	-74.3	3.5	1.52e+00	0	46	104	0	60	198246
2026-01-29 21:40:04.14	22.23	4.55	-59.8	-74.3	3.5	1.52e+00	0	46	104	0	60	198112
2026-01-29 21:40:05.15	22.29	4.61	-59.8	-74.3	3.5	1.52e+00	0	46	104	0	60	196966
2026-01-29 21:40:06.16	22.35	4.68	-59.8	-74.4	3.5	1.51e+00	0	46	104	0	60	199040
2026-01-29 21:40:07.17	22.41	4.74	-59.8	-74.3	3.5	1.52e+00	0	46	104	0	60	198248
2026-01-29 21:40:08.18	22.47	4.81	-59.8	-74.1	3.5	1.52e+00	0	46	104	0	60	193319
2026-01-29 21:40:09.18	22.54	4.87	-59.7	-73.8	3.5	1.52e+00	0	46	104	0	60	185367
2026-01-29 21:40:10.19	22.60	4.94	-59.6	-73.6	3.5	1.51e+00	0	46	104	0	60	181601
2026-01-29 21:40:11.20	22.66	5.00	-59.6	-73.1	3.5	1.51e+00	0	46	104	0	60	172388
2026-01-29 21:40:12.20	22.72	5.07	-59.7	-73.0	3.5	1.52e+00	0	46	104	0	60	169048
2026-01-29 21:40:13.21	22.78	5.13	-59.7	-72.8	3.5	1.51e+00	0	46	104	0	60	166750
2026-01-29 21:40:14.22	22.85	5.20	-59.7	-72.2	3.7	1.50e+00	0	46	104	0	60	155164
2026-01-29 21:40:15.22	22.91	5.26	-59.5	-70.7	4.2	1.46e+00	0	46	104	0	60	130548
2026-01-29 21:40:16.23	22.97	5.33	-59.4	-68.7	5.3	7.12e-01	0	46	104	0	60	103944
2026-01-29 21:40:17.24	23.04	5.40	-58.9	-65.5	7.3	2.02e-01	0	46	0	2097152	60	71895
2026-01-29 21:40:18.24	23.10	5.46	-58.3	-63.6	9.6	2.53e-02	0	46	0	5242880	60	57426
2026-01-29 21:40:19.25	23.16	5.53	-57.6	-61.9	11.7	1.22e-03	0	46	0	8388608	60	47494
2026-01-29 21:40:20.26	23.23	5.59	-56.9	-60.4	13.3	6.71e-05	0	46	0	11534336	60	39955
2026-01-29 21:40:21.26	23.29	5.66	-56.0	-58.9	14.8	1.50e-06	0	46	0	14680064	60	33700
2026-01-29 21:40:22.27	23.36	5.73	-55.2	-57.8	15.9	0.00e+00	0	46	0	17825792	60	29502
2026-01-29 21:40:23.27	23.42	5.79	-54.6	-56.9	16.8	0.00e+00	0	46	0	20971520	60	26554
2026-01-29 21:40:24.28	23.49	5.86	-54.2	-56.3	17.2	0.00e+00	0	46	0	24117248	60	24961
2026-01-29 21:40:25.29	23.55	5.93	-54.0	-56.1	17.4	0.00e+00	0	46	0	27262976	60	24163
2026-01-29 21:40:26.30	23.62	6.00	-54.0	-56.0	17.5	0.00e+00	0	46	0	30408704	60	24025
2026-01-29 21:40:27.30	23.69	6.06	-54.1	-56.3	17.2	0.00e+00	0	46	0	33554432	60	24754
2026-01-29 21:40:28.31	23.75	6.13	-54.1	-56.1	17.5	0.00e+00	0	46	0	36700160	60	24400
2026-01-29 21:40:29.31	23.82	6.20	-54.6	-56.7	17.1	0.00e+00	0	46	0	39845888	60	25918
2026-01-29 21:40:30.32	23.89	6.27	-57.2	-60.9	12.4	9.90e-06	0	46	0	42991616	60	42173
2026-01-29 21:40:31.32	23.95	6.33	-58.4	-63.4	10.6	6.85e-03	0	46	0	46137344	60	56290
2026-01-29 21:40:32.33	24.02	6.40	-54.8	-56.9	16.8	0.00e+00	0	46	0	49283072	60	26760
2026-01-29 21:40:33.33	24.09	6.47	-54.5	-56.5	17.2	0.00e+00	0	46	0	52428800	60	25555
2026-01-29 21:40:34.34	24.16	6.54	-54.2	-56.2	17.5	0.00e+00	0	46	0	55574528	60	24440
2026-01-29 21:40:35.34	24.22	6.61	-54.1	-56.0	17.6	0.00e+00	0	46	0	58720256	60	24044
2026-01-29 21:40:36.35	24.29	6.68	-54.1	-56.0	17.7	0.00e+00	0	46	0	61865984	60	24059
2026-01-29 21:40:37.35	24.36	6.74	-53.9	-55.6	18.2	0.00e+00	0	46	0	65011712	60	23038
2026-01-29 21:40:38.36	24.43	6.81	-53.8	-55.6	18.3	0.00e+00	0	46	0	68157440	60	22801
2026-01-29 21:40:39.37	24.50	6.88	-53.8	-55.7	18.2	0.00e+00	0	46	0	71303168	60	23142
2026-01-29 21:40:40.37	24.57	6.95	-53.7	-55.5	18.2	0.00e+00	0	46	0	74448896	60	22642
2026-01-29 21:40:41.38	24.64	7.02	-53.7	-55.6	18.1	0.00e+00	0	46	0	77594624	60	22868
2026-01-29 21:40:42.38	24.71	7.09	-53.7	-55.6	18.1	0.00e+00	0	46	0	80740352	60	22846
2026-01-29 21:40:43.39	24.78	7.16	-53.8	-55.6	18.2	0.00e+00	0	46	0	83886080	60	22895
2026-01-29 21:40:44.39	24.85	7.23	-53.8	-55.5	18.3	0.00e+00	0	46	0	87031808	60	22770
2026-01-29 21:40:45.40	24.93	7.30	-53.8	-55.5	18.4	0.00e+00	0	46	0	90177536	60	22675
2026-01-29 21:40:46.41	25.00	7.37	-53.8	-55.5	18.4	0.00e+00	0	46	0	93323264	60	22792
2026-01-29 21:40:47.41	25.07	7.44	-53.8	-55.6	18.4	0.00e+00	0	46	0	96468992	60	22798
2026-01-29 21:40:48.42	25.14	7.51	-53.8	-55.6	18.3	0.00e+00	0	46	0	99614720	60	22880
2026-01-29 21:40:49.43	25.22	7.58	-53.8	-55.6	18.2	0.00e+00	0	46	0	102760448	60	23000
2026-01-29 21:40:50.43	25.29	7.65	-53.8	-55.7	18.2	0.00e+00	0	46	0	105906176	60	23116
2026-01-29 21:40:51.43	25.36	7.72	-53.8	-55.6	18.2	0.00e+00	0	46	0	109051904	60	22839
2026-01-29 21:40:52.44	25.44	7.80	-53.7	-55.4	18.5	0.00e+00	0	46	0	112197632	60	22339
2026-01-29 21:40:53.44	25.51	7.87	-53.6	-55.2	18.5	0.00e+00	0	46	0	115343360	60	22010
2026-01-29 21:40:54.45	25.59	7.94	-53.6	-55.3	18.6	0.00e+00	0	46	0	118489088	60	22107
2026-01-29 21:40:55.44	25.66	8.01	-53.5	-55.2	18.7	0.00e+00	0	46	0	121634816	60	21853
2026-01-29 21:40:56.45	25.73	8.08	-53.4	-55.2	18.6	0.00e+00	0	46	0	124780544	60	21810
2026-01-29 21:40:57.46	25.81	8.15	-53.4	-55.1	18.7	0.00e+00	0	46	0	127926272	60	21633
2026-01-29 21:40:58.47	25.89	8.23	-53.3	-55.0	18.8	0.00e+00	0	46	0	131072000	60	21354
2026-01-29 21:40:59.47	25.96	8.30	-53.3	-55.0	18.9	0.00e+00	0	46	0	134217728	60	21381
2026-01-29 21:41:00.48	26.04	8.37	-53.3	-54.9	18.9	0.00e+00	0	46	0	137363456	60	21222
2026-01-29 21:41:01.49	26.12	8.44	-53.4	-55.0	18.9	0.00e+00	0	46	0	140509184	60	21328
2026-01-29 21:41:02.50	26.19	8.52	-53.4	-55.0	18.8	0.00e+00	0	46	0	143654912	60	21446
2026-01-29 21:41:03.51	26.27	8.59	-53.4	-55.0	18.9	0.00e+00	0	46	0	146800640	60	21475
2026-01-29 21:41:04.52	26.35	8.66	-53.5	-55.1	18.9	0.00e+00	0	46	0	149946368	60	21691
2026-01-29 21:41:05.52	26.43	8.74	-53.4	-55.0	19.0	0.00e+00	0	46	0	153092096	60	21487
2026-01-29 21:41:06.53	26.51	8.81	-53.1	-54.6	19.3	0.00e+00	0	46	0	156237824	60	20542
2026-01-29 21:41:07.53	26.59	8.88	-53.1	-54.6	19.3	0.00e+00	0	46	0	159383552	60	20534
2026-01-29 21:41:08.54	26.67	8.96	-53.0	-54.6	19.3	0.00e+00	0	46	0	162529280	60	20332
2026-01-29 21:41:09.55	26.75	9.03	-53.0	-54.7	19.3	0.00e+00	0	46	0	165675008	60	20554
2026-01-29 21:41:10.56	26.83	9.11	-53.1	-54.7	19.2	0.00e+00	0	46	0	168820736	60	20680
2026-01-29 21:41:11.56	26.91	9.18	-53.1	-54.7	19.2	0.00e+00	0	46	0	171966464	60	20665
2026-01-29 21:41:12.57	26.99	9.26	-53.1	-54.7	19.3	0.00e+00	0	46	0	175112192	60	20611
2026-01-29 21:41:13.57	27.07	9.33	-53.0	-54.6	19.4	0.00e+00	0	46	0	178257920	60	20424
2026-01-29 21:41:14.58	27.15	9.41	-53.0	-54.5	19.4	0.00e+00	0	46	0	181403648	60	20274
2026-01-29 21:41:15.59	27.24	9.48	-53.0	-54.6	19.4	0.00e+00	0	46	0	184549376	60	20414
2026-01-29 21:41:16.60	27.32	9.56	-53.0	-54.6	19.4	0.00e+00	0	46	0	187695104	60	20352
2026-01-29 21:41:17.60	27.40	9.63	-53.1	-54.6	19.4	0.00e+00	0	46	0	190840832	60	20508
2026-01-29 21:41:18.61	27.49	9.71	-53.0	-54.6	19.4	0.00e+00	0	46	0	193986560	60	20431
2026-01-29 21:41:19.61	27.57	9.78	-53.0	-54.6	19.5	0.00e+00	0	46	0	197132288	60	20422
2026-01-29 21:41:20.62	27.65	9.86	-52.9	-54.4	19.5	0.00e+00	0	46	0	200278016	60	20053
2026-01-29 21:41:21.63	27.74	9.94	-52.9	-54.5	19.5	0.00e+00	0	46	0	203423744	60	20174
2026-01-29 21:41:22.64	27.82	10.01	-52.9	-54.5	19.6	0.00e+00	0	46	0	206569472	60	20170
2026-01-29 21:41:23.64	27.91	10.09	-52.9	-54.5	19.6	0.00e+00	0	46	0	209715200	60	20205
2026-01-29 21:41:24.65	28.00	10.17	-52.9	-54.5	19.5	0.00e+00	0	46	0	212860928	60	20176
2026-01-29 21:41:25.65	28.08	10.24	-53.0	-54.6	19.6	0.00e+00	0	46	0	216006656	60	20393
2026-01-29 21:41:26.67	28.17	10.32	-53.1	-54.7	19.5	0.00e+00	0	46	0	219152384	60	20564
2026-01-29 21:41:27.67	28.26	10.40	-53.2	-54.7	19.5	0.00e+00	0	46	0	222298112	60	20679
2026-01-29 21:41:28.68	28.35	10.48	-52.7	-54.2	19.9	0.00e+00	0	46	0	225443840	60	19435
2026-01-29 21:41:29.69	28.43	10.55	-52.5	-53.9	20.1	0.00e+00	0	46	0	228589568	60	18915
2026-01-29 21:41:30.70	28.52	10.63	-52.4	-53.9	20.1	0.00e+00	0	46	0	231735296	60	18860
2026-01-29 21:41:31.71	28.61	10.71	-52.4	-53.9	20.1	0.00e+00	0	46	0	234881024	60	18875
2026-01-29 21:41:32.72	28.70	10.79	-52.5	-54.0	20.1	0.00e+00	0	46	0	238026752	60	19041
2026-01-29 21:41:33.73	28.79	10.87	-52.5	-54.0	19.9	0.00e+00	0	46	0	241172480	60	19052
2026-01-29 21:41:34.73	28.88	10.95	-52.5	-54.0	19.9	0.00e+00	0	46	0	244318208	60	19118
2026-01-29 21:41:35.74	28.97	11.03	-52.4	-53.9	19.9	0.00e+00	0	46	0	247463936	60	18911
2026-01-29 21:41:36.74	29.06	11.10	-52.4	-53.9	20.0	0.00e+00	0	46	0	250609664	60	18847
2026-01-29 21:41:37.75	29.16	11.18	-52.4	-53.9	20.1	0.00e+00	0	46	0	253755392	60	18762
2026-01-29 21:41:38.76	29.25	11.26	-52.5	-53.9	20.1	0.00e+00	0	46	0	256901120	60	18872
2026-01-29 21:41:39.77	29.34	11.34	-52.4	-53.9	20.0	0.00e+00	0	46	0	260046848	60	18797
2026-01-29 21:41:40.78	29.44	11.42	-52.4	-53.9	20.0	0.00e+00	0	46	0	263192576	60	18796
2026-01-29 21:41:41.77	29.53	11.50	-52.3	-53.7	20.0	0.00e+00	0	46	0	266338304	60	18467
2026-01-29 21:41:42.78	29.62	11.58	-52.3	-53.7	20.1	0.00e+00	0	46	0	269484032	60	18449
2026-01-29 21:41:43.79	29.72	11.66	-52.3	-53.7	20.2	0.00e+00	0	46	0	272629760	60	18465
2026-01-29 21:41:44.80	29.81	11.75	-52.3	-53.8	20.2	0.00e+00	0	46	0	275775488	60	18544
2026-01-29 21:41:45.80	29.91	11.83	-52.3	-53.7	20.1	0.00e+00	0	46	0	278921216	60	18494
2026-01-29 21:41:46.81	30.01	11.91	-52.2	-53.6	20.2	0.00e+00	0	46	0	282066944	60	18182
2026-01-29 21:41:47.82	30.10	11.99	-52.2	-53.6	20.2	0.00e+00	0	46	0	285212672	60	18169
2026-01-29 21:41:48.83	30.20	12.07	-52.3	-53.7	20.3	0.00e+00	0	46	0	288358400	60	18431
2026-01-29 21:41:49.84	30.30	12.15	-52.3	-53.7	20.1	0.00e+00	0	46	0	291504128	60	18392
2026-01-29 21:41:50.84	30.40	12.23	-52.3	-53.7	20.3	0.00e+00	0	46	0	294649856	60	18409
2026-01-29 21:41:51.85	30.50	12.32	-52.3	-53.7	20.1	0.00e+00	0	46	0	297795584	60	18440
2026-01-29 21:41:52.86	30.60	12.40	-52.3	-53.7	20.3	0.00e+00	0	46	0	300941312	60	18358
2026-01-29 21:41:53.86	30.70	12.48	-52.2	-53.6	20.1	0.00e+00	0	46	0	304087040	60	18236
2026-01-29 21:41:54.87	30.80	12.56	-52.4	-53.8	20.1	0.00e+00	0	46	0	307232768	60	18706
2026-01-29 21:41:55.88	30.90	12.65	-52.4	-53.9	20.0	0.00e+00	0	46	0	310378496	60	18810
2026-01-29 21:41:56.89	31.00	12.73	-52.4	-53.9	20.1	0.00e+00	0	46	0	313524224	60	18828
2026-01-29 21:41:57.89	31.10	12.81	-52.6	-54.0	19.9	0.00e+00	0	46	0	316669952	60	19169
2026-01-29 21:41:58.90	31.20	12.90	-52.7	-54.1	19.9	0.00e+00	0	46	0	319815680	60	19378
2026-01-29 21:41:59.90	31.31	12.98	-52.8	-54.3	19.7	0.00e+00	0	46	0	322961408	60	19766
2026-01-29 21:42:00.91	31.41	13.07	-53.0	-54.5	19.5	0.00e+00	0	46	0	326107136	60	20165
2026-01-29 21:42:01.92	31.52	13.15	-53.0	-54.5	19.5	0.00e+00	0	46	0	329252864	60	20124
2026-01-29 21:42:02.92	31.62	13.23	-53.2	-54.7	19.4	0.00e+00	0	46	0	332398592	60	20695
2026-01-29 21:42:03.93	31.73	13.32	-53.0	-54.5	19.5	0.00e+00	0	46	0	335544320	60	20231
2026-01-29 21:42:04.94	31.83	13.40	-53.1	-54.6	19.5	0.00e+00	0	46	0	338690048	60	20451
2026-01-29 21:42:05.95	31.94	13.49	-53.1	-54.7	19.3	0.00e+00	0	46	0	341835776	60	20605
2026-01-29 21:42:06.96	32.05	13.57	-53.4	-55.0	19.2	0.00e+00	0	46	0	344981504	60	21415
2026-01-29 21:42:07.96	32.15	13.66	-53.5	-55.1	19.0	0.00e+00	0	46	0	348127232	60	21596
2026-01-29 21:42:08.97	32.26	13.75	-53.8	-55.4	18.7	0.00e+00	0	46	0	351272960	60	22479
2026-01-29 21:42:09.98	32.37	13.83	-53.9	-55.5	18.6	0.00e+00	0	46	0	354418688	60	22740
2026-01-29 21:42:10.99	32.48	13.92	-54.0	-55.6	18.5	0.00e+00	0	46	0	357564416	60	23021
2026-01-29 21:42:11.99	32.59	14.00	-54.1	-55.8	18.4	0.00e+00	0	46	0	360710144	60	23409
2026-01-29 21:42:13.00	32.70	14.09	-54.3	-56.1	18.2	0.00e+00	0	46	0	363855872	60	24297
2026-01-29 21:42:14.01	32.81	14.18	-54.2	-56.0	18.2	0.00e+00	0	46	0	367001600	60	23949
2026-01-29 21:42:15.02	32.93	14.26	-54.5	-56.3	17.9	0.00e+00	0	46	0	370147328	60	24805
2026-01-29 21:42:16.02	33.04	14.35	-54.6	-56.4	17.9	0.00e+00	0	46	0	373293056	60	25222
2026-01-29 21:42:17.03	33.15	14.44	-54.4	-56.2	17.9	0.00e+00	0	46	0	376438784	60	24463
2026-01-29 21:42:18.04	33.27	14.53	-54.5	-56.3	18.0	0.00e+00	0	46	0	379584512	60	24899
2026-01-29 21:42:19.05	33.38	14.61	-54.5	-56.4	17.8	0.00e+00	0	46	0	382730240	60	25000
2026-01-29 21:42:20.05	33.50	14.70	-54.7	-56.6	17.8	0.00e+00	0	46	0	385875968	60	25606
2026-01-29 21:42:21.06	33.61	14.79	-54.9	-56.8	17.3	0.00e+00	0	46	0	389021696	60	26270
2026-01-29 21:42:22.07	33.73	14.88	-55.1	-57.1	17.0	0.00e+00	0	46	0	392167424	60	27378
2026-01-29 21:42:23.08	33.85	14.97	-55.3	-57.4	16.9	0.00e+00	0	46	0	395313152	60	28177
2026-01-29 21:42:24.08	33.96	15.06	-55.4	-57.5	16.6	0.00e+00	0	46	0	398458880	60	28451
2026-01-29 21:42:25.09	34.08	15.15	-55.7	-57.9	16.4	0.00e+00	0	46	0	401604608	60	29705
2026-01-29 21:42:26.09	34.20	15.23	-55.8	-58.0	16.0	0.00e+00	0	46	0	404750336	60	30389
2026-01-29 21:42:27.10	34.32	15.32	-55.9	-58.2	15.8	0.00e+00	0	46	0	407896064	60	30898
2026-01-29 21:42:28.11	34.44	15.41	-56.1	-58.5	15.7	0.00e+00	0	46	0	411041792	60	32167
2026-01-29 21:42:29.12	34.57	15.51	-56.1	-58.6	15.5	0.00e+00	0	46	0	414187520	60	32567
2026-01-29 21:42:30.12	34.69	15.59	-56.1	-58.6	15.6	0.00e+00	0	46	0	417333248	60	32465
2026-01-29 21:42:31.13	34.81	15.69	-56.3	-58.9	15.4	0.00e+00	0	46	0	420478976	60	33373
2026-01-29 21:42:32.13	34.93	15.78	-56.3	-58.9	15.2	0.00e+00	0	46	0	423624704	60	33628
2026-01-29 21:42:33.14	35.06	15.87	-56.4	-58.9	15.3	0.00e+00	0	46	0	426770432	60	33649
2026-01-29 21:42:34.15	35.18	15.96	-56.6	-59.2	15.2	0.00e+00	0	46	0	429916160	60	34585
2026-01-29 21:42:35.15	35.31	16.05	-55.9	-58.2	16.0	0.00e+00	0	46	0	433061888	60	30831
2026-01-29 21:42:36.16	35.43	16.14	-55.3	-57.4	16.9	0.00e+00	0	46	0	436207616	60	28177
2026-01-29 21:42:37.16	35.56	16.23	-55.0	-56.9	17.4	0.00e+00	0	46	0	439353344	60	26610
2026-01-29 21:42:38.17	35.69	16.32	-54.2	-55.9	18.3	0.00e+00	0	46	0	442499072	60	23802
2026-01-29 21:42:39.18	35.82	16.42	-53.7	-55.4	18.7	0.00e+00	0	46	0	445644800	60	22358
2026-01-29 21:42:40.19	35.95	16.51	-53.2	-54.7	19.2	0.00e+00	0	46	0	448790528	60	20781
2026-01-29 21:42:41.19	36.08	16.60	-53.1	-54.7	19.3	0.00e+00	0	46	0	451936256	60	20622
2026-01-29 21:42:42.20	36.21	16.69	-53.1	-54.6	19.3	0.00e+00	0	46	0	455081984	60	20528
2026-01-29 21:42:43.20	36.34	16.79	-52.6	-54.0	19.9	0.00e+00	0	46	0	458227712	60	19144
2026-01-29 21:42:44.21	36.47	16.88	-51.9	-53.3	20.5	0.00e+00	0	46	0	461373440	60	17572
2026-01-29 21:42:45.21	36.61	16.97	-51.7	-53.1	20.8	0.00e+00	0	46	0	464519168	60	17197
2026-01-29 21:42:46.21	36.74	17.07	-51.7	-53.0	20.7	0.00e+00	0	46	0	467664896	60	17088
2026-01-29 21:42:47.22	36.87	17.16	-51.9	-53.2	20.8	0.00e+00	0	46	0	470810624	60	17423
2026-01-29 21:42:48.23	37.01	17.25	-52.1	-53.4	20.5	0.00e+00	0	46	0	473956352	60	17811
2026-01-29 21:42:49.24	37.15	17.35	-52.1	-53.5	20.6	0.00e+00	0	46	0	477102080	60	18033
2026-01-29 21:42:50.24	37.28	17.44	-52.1	-53.5	20.4	0.00e+00	0	46	0	480247808	60	18062
2026-01-29 21:42:51.25	37.42	17.54	-52.2	-53.7	20.3	0.00e+00	0	46	0	483393536	60	18328
2026-01-29 21:42:52.26	37.56	17.63	-52.2	-53.6	20.3	0.00e+00	0	46	0	486539264	60	18236
2026-01-29 21:42:53.27	37.70	17.73	-52.1	-53.5	20.3	0.00e+00	0	46	0	489684992	60	18001
2026-01-29 21:42:54.28	37.84	17.82	-52.2	-53.6	20.4	0.00e+00	0	46	0	492830720	60	18234
2026-01-29 21:42:55.28	37.99	17.92	-52.0	-53.5	20.2	0.00e+00	0	46	0	495976448	60	17925
2026-01-29 21:42:56.29	38.13	18.02	-52.0	-53.5	20.2	0.00e+00	0	46	0	499122176	60	18026
2026-01-29 21:42:57.30	38.27	18.11	-52.1	-53.6	20.4	0.00e+00	0	46	0	502267904	60	18230
2026-01-29 21:42:58.30	38.42	18.21	-52.0	-53.5	20.3	0.00e+00	0	46	0	505413632	60	18029
2026-01-29 21:42:59.31	38.56	18.30	-52.1	-53.6	20.5	0.00e+00	0	46	0	508559360	60	18108
2026-01-29 21:43:00.31	38.71	18.40	-52.1	-53.5	20.4	0.00e+00	0	46	0	511705088	60	18082
2026-01-29 21:43:01.32	38.85	18.50	-52.1	-53.6	20.7	0.00e+00	0	46	0	514850816	60	18255
2026-01-29 21:43:02.33	39.00	18.59	-52.0	-53.5	20.4	0.00e+00	0	46	0	517996544	60	18012
2026-01-29 21:43:03.34	39.15	18.69	-52.2	-53.7	20.2	0.00e+00	0	46	0	521142272	60	18506
2026-01-29 21:43:04.34	39.30	18.79	-52.3	-53.8	20.2	0.00e+00	0	46	0	524288000	60	18637
2026-01-29 21:43:05.34	39.45	18.89	-52.5	-54.0	20.1	0.00e+00	0	46	0	527433728	60	19059
2026-01-29 21:43:06.34	39.60	18.98	-52.5	-54.0	20.1	0.00e+00	0	46	0	530579456	60	19135
2026-01-29 21:43:07.35	39.75	19.08	-52.5	-54.0	20.0	0.00e+00	0	46	0	533725184	60	19037
2026-01-29 21:43:08.36	39.91	19.18	-52.3	-53.8	20.3	0.00e+00	0	46	0	536870912	60	18557
2026-01-29 21:43:09.36	40.06	19.28	-52.3	-53.8	20.2	0.00e+00	0	46	0	540016640	60	18554
2026-01-29 21:43:10.37	40.22	19.38	-52.4	-53.9	20.2	0.00e+00	0	46	0	543162368	60	18741
2026-01-29 21:43:11.38	40.37	19.48	-52.5	-53.9	20.3	0.00e+00	0	46	0	546308096	60	18827
2026-01-29 21:43:12.39	40.53	19.57	-52.5	-53.9	20.1	0.00e+00	0	46	0	549453824	60	18850
2026-01-29 21:43:13.39	40.69	19.67	-52.8	-54.3	19.9	0.00e+00	0	46	0	552599552	60	19691
2026-01-29 21:43:14.40	40.85	19.77	-52.8	-54.3	19.9	0.00e+00	0	46	0	555745280	60	19698
2026-01-29 21:43:15.40	41.01	19.87	-52.8	-54.4	19.7	0.00e+00	0	46	0	558891008	60	19894
2026-01-29 21:43:16.41	41.17	19.97	-52.4	-53.9	19.8	0.00e+00	0	46	0	562036736	60	18784
2026-01-29 21:43:17.41	41.33	20.07	-52.5	-54.1	19.7	0.00e+00	0	46	0	565182464	60	19235
2026-01-29 21:43:18.42	41.50	20.17	-52.4	-54.0	19.7	0.00e+00	0	46	0	568328192	60	19018
2026-01-29 21:43:19.42	41.66	20.27	-52.1	-53.8	19.6	0.00e+00	0	46	0	571473920	60	18546
2026-01-29 21:43:20.43	41.83	20.37	-52.1	-54.0	19.3	0.00e+00	0	46	0	574619648	60	18966
2026-01-29 21:43:21.43	41.99	20.47	-51.8	-53.6	19.2	0.00e+00	0	46	0	577765376	60	18263
2026-01-29 21:43:22.44	42.16	20.57	-51.8	-53.6	19.3	0.00e+00	0	46	0	580911104	60	18224
2026-01-29 21:43:23.45	42.33	20.67	-51.7	-53.5	19.5	0.00e+00	0	46	0	584056832	60	17911
2026-01-29 21:43:24.45	42.50	20.77	-51.8	-53.6	19.7	0.00e+00	0	46	0	587202560	60	18128
2026-01-29 21:43:25.46	42.67	20.88	-51.6	-53.2	20.3	0.00e+00	0	46	0	590348288	60	17340
2026-01-29 21:43:26.47	42.84	20.98	-51.2	-52.7	20.8	0.00e+00	0	46	0	593494016	60	16387
2026-01-29 21:43:27.48	43.01	21.08	-51.0	-52.5	21.2	0.00e+00	0	46	0	596639744	60	16028
2026-01-29 21:43:28.48	43.19	21.18	-51.2	-52.6	21.0	0.00e+00	0	46	0	599785472	60	16300
2026-01-29 21:43:29.49	43.36	21.28	-51.3	-52.8	21.1	0.00e+00	0	46	0	602931200	60	16516
2026-01-29 21:43:30.50	43.54	21.39	-51.4	-52.8	21.1	0.00e+00	0	46	0	606076928	60	16610
2026-01-29 21:43:31.51	43.72	21.49	-51.4	-52.7	21.3	0.00e+00	0	46	0	609222656	60	16358
2026-01-29 21:43:32.52	43.90	21.59	-51.5	-52.8	21.3	0.00e+00	0	46	0	612368384	60	16560
2026-01-29 21:43:33.52	44.08	21.69	-51.4	-52.7	21.4	0.00e+00	0	46	0	615514112	60	16485
2026-01-29 21:43:34.53	44.26	21.80	-51.3	-52.6	21.6	0.00e+00	0	46	0	618659840	60	16222
2026-01-29 21:43:35.54	44.44	21.90	-51.0	-52.3	21.8	0.00e+00	0	46	0	621805568	60	15630
2026-01-29 21:43:36.55	44.63	22.00	-51.0	-52.2	21.9	0.00e+00	0	46	0	624951296	60	15500
2026-01-29 21:43:37.55	44.81	22.10	-51.1	-52.3	21.7	0.00e+00	0	46	0	628097024	60	15698
2026-01-29 21:43:38.55	44.99	22.21	-51.0	-52.3	21.9	0.00e+00	0	46	0	631242752	60	15620
2026-01-29 21:43:39.56	45.18	22.31	-51.1	-52.4	21.8	0.00e+00	0	46	0	634388480	60	15774
2026-01-29 21:43:40.56	45.37	22.41	-51.3	-52.5	21.6	0.00e+00	0	46	0	637534208	60	16073
2026-01-29 21:43:41.57	45.56	22.52	-51.4	-52.7	21.4	0.00e+00	0	46	0	640679936	60	16489
2026-01-29 21:43:42.58	45.75	22.62	-51.4	-52.7	21.4	0.00e+00	0	46	0	643825664	60	16440
2026-01-29 21:43:43.58	45.94	22.72	-51.3	-52.6	21.6	0.00e+00	0	46	0	646971392	60	16197
2026-01-29 21:43:44.59	46.13	22.83	-51.0	-52.2	21.9	0.00e+00	0	46	0	650117120	60	15512
2026-01-29 21:43:45.59	46.33	22.93	-50.9	-52.2	21.8	0.00e+00	0	46	0	653262848	60	15460
2026-01-29 21:43:46.60	46.52	23.03	-50.8	-52.0	21.7	0.00e+00	0	46	0	656408576	60	15229
2026-01-29 21:43:47.60	46.72	23.14	-50.7	-52.0	21.8	0.00e+00	0	46	0	659554304	60	15060
2026-01-29 21:43:48.61	46.92	23.24	-50.7	-52.0	22.0	0.00e+00	0	46	0	662700032	60	15094
2026-01-29 21:43:49.61	47.12	23.35	-50.6	-51.9	22.1	0.00e+00	0	46	0	665845760	60	14959
2026-01-29 21:43:50.61	47.31	23.45	-50.5	-51.8	21.8	0.00e+00	0	46	0	668991488	60	14845
2026-01-29 21:43:51.62	47.52	23.55	-50.6	-52.0	21.7	0.00e+00	0	46	0	672137216	60	15169
2026-01-29 21:43:52.63	47.72	23.66	-50.7	-52.1	21.4	0.00e+00	0	46	0	675282944	60	15357
2026-01-29 21:43:53.63	47.92	23.76	-51.0	-52.4	21.4	0.00e+00	0	46	0	678428672	60	15844
2026-01-29 21:43:54.64	48.13	23.87	-51.1	-52.4	21.6	0.00e+00	0	46	0	681574400	60	15926
2026-01-29 21:43:55.64	48.34	23.97	-51.2	-52.5	21.6	0.00e+00	0	46	0	684720128	60	16015
2026-01-29 21:43:56.65	48.55	24.08	-51.0	-52.3	21.7	0.00e+00	0	46	0	687865856	60	15681
2026-01-29 21:43:57.65	48.76	24.18	-50.9	-52.2	21.7	0.00e+00	0	46	0	691011584	60	15507
2026-01-29 21:43:58.65	48.97	24.28	-50.9	-52.2	21.8	0.00e+00	0	46	0	694157312	60	15506
2026-01-29 21:43:59.66	49.18	24.39	-50.7	-52.0	22.1	0.00e+00	0	46	0	697303040	60	15071
2026-01-29 21:44:00.67	49.39	24.49	-50.8	-52.0	22.0	0.00e+00	0	46	0	700448768	60	15222
2026-01-29 21:44:01.68	49.61	24.60	-50.9	-52.2	22.0	0.00e+00	0	46	0	703594496	60	15478
2026-01-29 21:44:02.68	49.83	24.70	-51.0	-52.2	22.0	0.00e+00	0	46	0	706740224	60	15461
2026-01-29 21:44:03.69	50.05	24.81	-51.1	-52.3	21.9	0.00e+00	0	46	0	709885952	60	15745
2026-01-29 21:44:04.70	50.27	24.91	-51.2	-52.4	21.7	0.00e+00	0	46	0	713031680	60	15941
2026-01-29 21:44:05.70	50.49	25.02	-51.4	-52.7	21.6	0.00e+00	0	46	0	716177408	60	16360
2026-01-29 21:44:06.70	50.71	25.12	-51.5	-52.8	21.6	0.00e+00	0	46	0	719323136	60	16530
2026-01-29 21:44:07.71	50.93	25.22	-51.6	-52.9	21.5	0.00e+00	0	46	0	722468864	60	16792
2026-01-29 21:44:08.72	51.16	25.33	-51.6	-52.9	21.4	0.00e+00	0	46	0	725614592	60	16718
2026-01-29 21:44:09.73	51.39	25.43	-51.7	-53.1	21.2	0.00e+00	0	46	0	728760320	60	17114
2026-01-29 21:44:10.73	51.61	25.54	-51.8	-53.2	21.2	0.00e+00	0	46	0	731906048	60	17360
2026-01-29 21:44:11.73	51.84	25.64	-51.9	-53.3	21.2	0.00e+00	0	46	0	735051776	60	17544
2026-01-29 21:44:12.73	52.07	25.75	-51.9	-53.3	21.1	0.00e+00	0	46	0	738197504	60	17551
2026-01-29 21:44:13.73	52.30	25.85	-52.0	-53.4	20.9	0.00e+00	0	46	0	741343232	60	17814
2026-01-29 21:44:14.74	52.54	25.95	-51.9	-53.3	20.9	0.00e+00	0	46	0	744488960	60	17682
2026-01-29 21:44:15.74	52.77	26.06	-51.5	-52.8	21.4	0.00e+00	0	46	0	747634688	60	16669
2026-01-29 21:44:16.75	53.01	26.16	-51.4	-52.6	21.8	0.00e+00	0	46	0	750780416	60	16275
2026-01-29 21:44:17.75	53.25	26.26	-51.4	-52.7	21.6	0.00e+00	0	46	0	753926144	60	16388
2026-01-29 21:44:18.77	53.49	26.37	-51.4	-52.7	21.6	0.00e+00	0	46	0	757071872	60	16445
2026-01-29 21:44:19.77	53.73	26.47	-51.5	-52.8	21.8	0.00e+00	0	46	0	760217600	60	16535
2026-01-29 21:44:20.77	53.98	26.57	-51.5	-52.7	21.8	0.00e+00	0	46	0	763363328	60	16488
2026-01-29 21:44:21.78	54.22	26.68	-51.6	-52.8	21.7	0.00e+00	0	46	0	766509056	60	16626
2026-01-29 21:44:22.78	54.47	26.78	-51.7	-52.9	21.8	0.00e+00	0	46	0	769654784	60	16811
2026-01-29 21:44:23.79	54.72	26.88	-51.8	-53.1	21.7	0.00e+00	0	46	0	772800512	60	17161
2026-01-29 21:44:24.80	54.97	26.99	-52.0	-53.3	21.6	0.00e+00	0	46	0	775946240	60	17538
2026-01-29 21:44:25.81	55.22	27.09	-52.1	-53.4	21.5	0.00e+00	0	46	0	779091968	60	17760
2026-01-29 21:44:26.81	55.47	27.19	-52.3	-53.6	21.5	0.00e+00	0	46	0	782237696	60	18106
2026-01-29 21:44:27.82	55.73	27.29	-52.1	-53.4	21.7	0.00e+00	0	46	0	785383424	60	17789
2026-01-29 21:44:28.82	55.98	27.40	-52.0	-53.3	21.7	0.00e+00	0	46	0	788529152	60	17499
2026-01-29 21:44:29.82	56.24	27.50	-51.9	-53.1	21.7	0.00e+00	0	46	0	791674880	60	17205
2026-01-29 21:44:30.83	56.50	27.60	-51.8	-53.0	21.7	0.00e+00	0	46	0	794820608	60	17035
2026-01-29 21:44:31.84	56.76	27.70	-51.8	-53.0	21.8	0.00e+00	0	46	0	797966336	60	17058
2026-01-29 21:44:32.85	57.02	27.80	-51.8	-53.0	21.8	0.00e+00	0	46	0	801112064	60	16979
2026-01-29 21:44:33.86	57.29	27.90	-52.0	-53.2	21.6	0.00e+00	0	46	0	804257792	60	17454
2026-01-29 21:44:34.87	57.56	28.00	-52.4	-53.8	21.4	0.00e+00	0	46	0	807403520	60	18536
2026-01-29 21:44:35.87	57.82	28.10	-52.5	-53.9	21.3	0.00e+00	0	46	0	810549248	60	18881
2026-01-29 21:44:36.88	58.09	28.20	-52.5	-53.9	21.1	0.00e+00	0	46	0	813694976	60	18900
2026-01-29 21:44:37.89	58.36	28.30	-52.6	-54.1	21.0	0.00e+00	0	46	0	816840704	60	19220
2026-01-29 21:44:38.90	58.64	28.40	-52.7	-54.1	20.9	0.00e+00	0	46	0	819986432	60	19371
2026-01-29 21:44:39.91	58.91	28.50	-53.0	-54.4	21.1	0.00e+00	0	46	0	823132160	60	19855
2026-01-29 21:44:40.91	59.19	28.60	-53.0	-54.3	21.2	0.00e+00	0	46	0	826277888	60	19830
2026-01-29 21:44:41.92	59.47	28.70	-53.0	-54.3	21.3	0.00e+00	0	46	0	829423616	60	19695
2026-01-29 21:44:42.92	59.74	28.80	-53.0	-54.3	21.3	0.00e+00	0	46	0	832569344	60	19683
2026-01-29 21:44:43.92	60.02	28.89	-53.1	-54.3	21.4	0.00e+00	0	46	0	835715072	60	19823
2026-01-29 21:44:44.93	60.31	28.99	-52.9	-54.3	21.3	0.00e+00	0	46	0	838860800	60	19653
2026-01-29 21:44:45.93	60.59	29.09	-52.9	-54.1	21.4	0.00e+00	0	46	0	842006528	60	19380
2026-01-29 21:44:46.94	60.88	29.18	-53.0	-54.2	21.4	0.00e+00	0	46	0	845152256	60	19578
2026-01-29 21:44:47.95	61.17	29.28	-53.1	-54.3	21.5	0.00e+00	0	46	0	848297984	60	19793
2026-01-29 21:44:48.95	61.45	29.37	-53.0	-54.3	21.4	0.00e+00	0	46	0	851443712	60	19751
2026-01-29 21:44:49.96	61.74	29.47	-53.1	-54.4	21.5	0.00e+00	0	46	0	854589440	60	19903
2026-01-29 21:44:50.97	62.04	29.56	-53.0	-54.3	21.6	0.00e+00	0	46	0	857735168	60	19756
2026-01-29 21:44:51.98	62.33	29.66	-53.4	-54.6	21.6	0.00e+00	0	46	0	860880896	60	20492
2026-01-29 21:44:52.99	62.63	29.75	-53.1	-54.3	21.9	0.00e+00	0	46	0	864026624	60	19841
2026-01-29 21:44:53.99	62.93	29.85	-53.0	-54.2	21.9	0.00e+00	0	46	0	867172352	60	19544
2026-01-29 21:44:55.00	63.23	29.94	-52.7	-53.9	21.9	0.00e+00	0	46	0	870318080	60	18945
2026-01-29 21:44:56.00	63.53	30.03	-52.6	-53.8	21.8	0.00e+00	0	46	0	873463808	60	18543
2026-01-29 21:44:57.01	63.83	30.12	-52.8	-54.0	21.9	0.00e+00	0	46	0	876609536	60	19015
2026-01-29 21:44:58.02	64.14	30.21	-52.8	-54.1	21.9	0.00e+00	0	46	0	879755264	60	19190
2026-01-29 21:44:59.03	64.44	30.30	-52.8	-54.0	21.8	0.00e+00	0	46	0	882900992	60	19118
2026-01-29 21:45:00.03	64.75	30.39	-52.7	-53.9	21.9	0.00e+00	0	46	0	886046720	60	18907
2026-01-29 21:45:01.03	65.06	30.48	-52.7	-53.9	21.8	0.00e+00	0	46	0	889192448	60	18865
2026-01-29 21:45:02.04	65.37	30.57	-52.7	-54.0	21.9	0.00e+00	0	46	0	892338176	60	19028
2026-01-29 21:45:03.05	65.69	30.66	-52.6	-53.9	21.7	0.00e+00	0	46	0	895483904	60	18759
2026-01-29 21:45:04.06	66.00	30.74	-52.7	-53.9	21.6	0.00e+00	0	46	0	898629632	60	18851
2026-01-29 21:45:05.06	66.32	30.83	-52.8	-54.0	21.5	0.00e+00	0	46	0	901775360	60	19098
2026-01-29 21:45:06.07	66.63	30.92	-52.9	-54.2	21.5	0.00e+00	0	46	0	904921088	60	19433
2026-01-29 21:45:07.08	66.96	31.00	-52.8	-54.1	21.5	0.00e+00	0	46	0	908066816	60	19291
2026-01-29 21:45:08.08	67.28	31.08	-52.9	-54.1	21.4	0.00e+00	0	46	0	911212544	60	19342
2026-01-29 21:45:09.09	67.60	31.17	-52.9	-54.1	21.5	0.00e+00	0	46	0	914358272	60	19377
2026-01-29 21:45:10.10	67.93	31.25	-53.2	-54.5	21.5	0.00e+00	0	46	0	917504000	60	20137
2026-01-29 21:45:11.10	68.25	31.33	-53.5	-54.8	21.1	0.00e+00	0	46	0	920649728	60	20865
2026-01-29 21:45:12.11	68.58	31.41	-53.9	-55.2	20.7	0.00e+00	0	46	0	923795456	60	21962
2026-01-29 21:45:13.11	68.91	31.49	-54.2	-55.6	20.3	0.00e+00	0	46	0	926941184	60	22939
2026-01-29 21:45:14.12	69.24	31.57	-54.5	-55.9	20.0	0.00e+00	0	46	0	930086912	60	23807
2026-01-29 21:45:15.12	69.57	31.65	-54.5	-55.9	19.8	0.00e+00	0	46	0	933232640	60	23739
2026-01-29 21:45:16.12	69.90	31.73	-54.2	-55.6	20.4	0.00e+00	0	46	0	936378368	60	22797
2026-01-29 21:45:17.13	70.24	31.81	-53.4	-54.7	21.0	0.00e+00	0	46	0	939524096	60	20725
2026-01-29 21:45:18.14	70.58	31.88	-53.2	-54.5	21.3	0.00e+00	0	46	0	942669824	60	20212
2026-01-29 21:45:19.14	70.91	31.96	-53.1	-54.3	21.4	0.00e+00	0	46	0	945815552	60	19817
2026-01-29 21:45:20.15	71.26	32.03	-53.1	-54.4	21.3	0.00e+00	0	46	0	948961280	60	19924
2026-01-29 21:45:21.16	71.60	32.11	-53.4	-54.7	20.9	0.00e+00	0	46	0	952107008	60	20751
2026-01-29 21:45:22.16	71.94	32.18	-53.8	-55.2	20.8	0.00e+00	0	46	0	955252736	60	21895
2026-01-29 21:45:23.17	72.29	32.25	-54.0	-55.4	20.7	0.00e+00	0	46	0	958398464	60	22337
2026-01-29 21:45:24.18	72.64	32.32	-54.0	-55.3	20.7	0.00e+00	0	46	0	961544192	60	22235
2026-01-29 21:45:25.19	72.98	32.39	-53.9	-55.2	20.8	0.00e+00	0	46	0	964689920	60	21998
2026-01-29 21:45:26.20	73.34	32.46	-53.7	-55.1	20.7	0.00e+00	0	46	0	967835648	60	21647
2026-01-29 21:45:27.20	73.68	32.53	-53.6	-55.0	20.7	0.00e+00	0	46	0	970981376	60	21346
2026-01-29 21:45:28.21	74.04	32.59	-53.7	-55.1	20.6	0.00e+00	0	46	0	974127104	60	21550
2026-01-29 21:45:29.21	74.39	32.66	-53.7	-55.0	20.8	0.00e+00	0	46	0	977272832	60	21401
2026-01-29 21:45:30.22	74.75	32.73	-53.5	-54.8	21.0	0.00e+00	0	46	0	980418560	60	20951
2026-01-29 21:45:31.23	75.10	32.79	-53.3	-54.6	21.3	0.00e+00	0	46	0	983564288	60	20337
2026-01-29 21:45:32.24	75.46	32.85	-53.2	-54.4	21.4	0.00e+00	0	46	0	986710016	60	20031
2026-01-29 21:45:33.25	75.83	32.91	-53.2	-54.5	21.5	0.00e+00	0	46	0	989855744	60	20178
2026-01-29 21:45:34.25	76.18	32.97	-53.4	-54.7	21.3	0.00e+00	0	46	0	993001472	60	20746
2026-01-29 21:45:35.25	76.54	33.03	-53.7	-55.0	21.2	0.00e+00	0	46	0	996147200	60	21516
2026-01-29 21:45:36.26	76.91	33.09	-53.8	-55.2	21.0	0.00e+00	0	46	0	999292928	60	21794
2026-01-29 21:45:37.27	77.27	33.15	-53.8	-55.1	21.1	0.00e+00	0	46	0	1002438656	60	21579
2026-01-29 21:45:38.27	77.64	33.20	-53.6	-54.9	21.1	0.00e+00	0	46	0	1005584384	60	21119
2026-01-29 21:45:39.28	78.01	33.26	-53.5	-54.8	21.3	0.00e+00	0	46	0	1008730112	60	20837
2026-01-29 21:45:40.29	78.38	33.31	-53.4	-54.7	21.2	0.00e+00	0	46	0	1011875840	60	20722
2026-01-29 21:45:41.30	78.75	33.36	-53.6	-54.9	21.1	0.00e+00	0	46	0	1015021568	60	21167
2026-01-29 21:45:42.30	79.12	33.41	-53.6	-54.9	21.1	0.00e+00	0	46	0	1018167296	60	21199
2026-01-29 21:45:43.31	79.49	33.46	-53.7	-55.0	21.2	0.00e+00	0	46	0	1021313024	60	21500
2026-01-29 21:45:44.32	79.86	33.51	-53.6	-54.9	21.3	0.00e+00	0	46	0	1024458752	60	21088
2026-01-29 21:45:45.33	80.24	33.56	-53.7	-55.0	21.2	0.00e+00	0	46	0	1027604480	60	21303
2026-01-29 21:45:46.33	80.61	33.60	-53.8	-55.1	21.1	0.00e+00	0	46	0	1030750208	60	21602
2026-01-29 21:45:47.34	80.99	33.65	-53.9	-55.3	20.9	0.00e+00	0	46	0	1033895936	60	22122
2026-01-29 21:45:48.35	81.37	33.69	-54.1	-55.5	20.8	0.00e+00	0	46	0	1037041664	60	22632
2026-01-29 21:45:49.36	81.75	33.74	-54.1	-55.4	20.9	0.00e+00	0	46	0	1040187392	60	22497
2026-01-29 21:45:50.37	82.13	33.78	-54.0	-55.4	21.0	0.00e+00	0	46	0	1043333120	60	22384
2026-01-29 21:45:51.37	82.51	33.82	-53.9	-55.2	21.2	0.00e+00	0	46	0	1046478848	60	21938
2026-01-29 21:45:52.38	82.89	33.85	-53.8	-55.1	21.2	0.00e+00	0	46	0	1049624576	60	21711
2026-01-29 21:45:53.39	83.27	33.89	-53.8	-55.1	21.1	0.00e+00	0	46	0	1052770304	60	21573
2026-01-29 21:45:54.39	83.65	33.93	-53.8	-55.2	21.1	0.00e+00	0	46	0	1055916032	60	21802
2026-01-29 21:45:55.40	84.04	33.96	-53.8	-55.1	21.2	0.00e+00	0	46	0	1059061760	60	21587
2026-01-29 21:45:56.40	84.42	33.99	-54.6	-55.8	21.3	0.00e+00	0	46	0	1062207488	60	23519
2026-01-29 21:45:57.41	84.81	34.02	-54.6	-55.9	21.2	0.00e+00	0	46	0	1065353216	60	23749
2026-01-29 21:45:58.42	85.19	34.05	-54.7	-56.0	21.2	0.00e+00	0	46	0	1068498944	60	23875
2026-01-29 21:45:59.43	85.58	34.08	-54.8	-56.1	21.0	0.00e+00	0	46	0	1071644672	60	24238
2026-01-29 21:46:00.44	85.97	34.11	-54.8	-56.1	20.9	0.00e+00	0	46	0	1074790400	60	24415
2026-01-29 21:46:01.44	86.35	34.14	-54.9	-56.2	20.8	0.00e+00	0	46	0	1077936128	60	24582
2026-01-29 21:46:02.45	86.74	34.16	-54.8	-56.1	20.7	0.00e+00	0	46	0	1081081856	60	24266
2026-01-29 21:46:03.46	87.13	34.18	-54.9	-56.2	20.7	0.00e+00	0	46	0	1084227584	60	24597
2026-01-29 21:46:04.47	87.53	34.20	-55.0	-56.4	20.4	0.00e+00	0	46	0	1087373312	60	25216
2026-01-29 21:46:05.48	87.92	34.22	-55.0	-56.4	20.6	0.00e+00	0	46	0	1090519040	60	25164
2026-01-29 21:46:06.48	88.30	34.24	-54.8	-56.1	20.8	0.00e+00	0	46	0	1093664768	60	24357
2026-01-29 21:46:07.48	88.69	34.26	-54.5	-55.8	21.0	0.00e+00	0	46	0	1096810496	60	23579
2026-01-29 21:46:08.49	89.09	34.28	-54.4	-55.7	21.1	0.00e+00	0	46	0	1099956224	60	23285
2026-01-29 21:46:09.49	89.48	34.29	-54.5	-55.8	20.9	0.00e+00	0	46	0	1103101952	60	23338
2026-01-29 21:46:10.50	89.87	34.30	-54.5	-55.8	21.0	0.00e+00	0	46	0	1106247680	60	23478
2026-01-29 21:46:11.51	90.26	34.31	-54.4	-55.7	21.1	0.00e+00	0	46	0	1109393408	60	23135
2026-01-29 21:46:12.52	90.66	34.32	-54.3	-55.6	21.1	0.00e+00	0	46	0	1112539136	60	22933
2026-01-29 21:46:13.52	91.05	34.33	-54.3	-55.6	21.1	0.00e+00	0	46	0	1115684864	60	22801
2026-01-29 21:46:14.53	91.44	34.34	-54.3	-55.6	20.9	0.00e+00	0	46	0	1118830592	60	22990
2026-01-29 21:46:15.54	91.84	34.34	-54.7	-56.1	20.6	0.00e+00	0	46	0	1121976320	60	24242
2026-01-29 21:46:16.54	92.23	34.35	-55.0	-56.4	20.4	0.00e+00	0	46	0	1125122048	60	25014
2026-01-29 21:46:17.55	92.62	34.35	-55.0	-56.5	20.3	0.00e+00	0	46	0	1128267776	60	25348
2026-01-29 21:46:18.56	93.02	34.35	-55.0	-56.5	20.4	0.00e+00	0	46	0	1131413504	60	25282
2026-01-29 21:46:19.56	93.41	34.35	-55.0	-56.4	20.4	0.00e+00	0	46	0	1134559232	60	25268
2026-01-29 21:46:20.57	93.80	34.35	-55.0	-56.4	20.3	0.00e+00	0	46	0	1137704960	60	25106
2026-01-29 21:46:21.58	94.20	34.35	-54.9	-56.3	20.4	0.00e+00	0	46	0	1140850688	60	24899
2026-01-29 21:46:22.58	94.59	34.34	-54.5	-55.9	20.9	0.00e+00	0	46	0	1143996416	60	23609
2026-01-29 21:46:23.59	94.98	34.33	-54.4	-55.7	21.0	0.00e+00	0	46	0	1147142144	60	23066
2026-01-29 21:46:24.60	95.38	34.33	-54.4	-55.7	21.0	0.00e+00	0	46	0	1150287872	60	23154
2026-01-29 21:46:25.60	95.77	34.32	-54.4	-55.7	21.1	0.00e+00	0	46	0	1153433600	60	23204
2026-01-29 21:46:26.61	96.16	34.31	-54.4	-55.7	21.1	0.00e+00	0	46	0	1156579328	60	23111
2026-01-29 21:46:27.61	96.55	34.29	-54.4	-55.7	21.1	0.00e+00	0	46	0	1159725056	60	23144
2026-01-29 21:46:28.62	96.94	34.28	-54.5	-55.8	21.1	0.00e+00	0	46	0	1162870784	60	23392
2026-01-29 21:46:29.63	97.34	34.26	-54.5	-55.8	20.9	0.00e+00	0	46	0	1166016512	60	23482
2026-01-29 21:46:30.64	97.73	34.25	-54.4	-55.7	20.8	0.00e+00	0	46	0	1169162240	60	23311
2026-01-29 21:46:31.64	98.12	34.23	-54.3	-55.7	20.8	0.00e+00	0	46	0	1172307968	60	23087
2026-01-29 21:46:32.65	98.51	34.21	-54.2	-55.5	21.0	0.00e+00	0	46	0	1175453696	60	22759
2026-01-29 21:46:33.66	98.90	34.19	-54.4	-55.7	20.9	0.00e+00	0	46	0	1178599424	60	23181
2026-01-29 21:46:34.67	99.29	34.17	-54.6	-55.9	20.8	0.00e+00	0	46	0	1181745152	60	23761
2026-01-29 21:46:35.68	99.68	34.14	-54.4	-55.7	20.7	0.00e+00	0	46	0	1184890880	60	23307
2026-01-29 21:46:36.68	100.07	34.12	-54.4	-55.8	20.7	0.00e+00	0	46	0	1188036608	60	23362
2026-01-29 21:46:37.69	100.46	34.09	-54.0	-55.3	21.2	0.00e+00	0	46	0	1191182336	60	22150
2026-01-29 21:46:38.70	100.84	34.06	-54.0	-55.3	21.1	0.00e+00	0	46	0	1194328064	60	22154
2026-01-29 21:46:39.71	101.23	34.03	-54.2	-55.6	20.8	0.00e+00	0	46	0	1197473792	60	22840
2026-01-29 21:46:40.72	101.62	34.00	-54.4	-55.8	20.6	0.00e+00	0	46	0	1200619520	60	23366
2026-01-29 21:46:41.72	102.00	33.97	-54.3	-55.6	20.8	0.00e+00	0	46	0	1203765248	60	22915
2026-01-29 21:46:42.73	102.39	33.94	-54.2	-55.6	20.9	0.00e+00	0	46	0	1206910976	60	22811
2026-01-29 21:46:43.74	102.77	33.90	-54.1	-55.5	20.8	0.00e+00	0	46	0	1210056704	60	22570
2026-01-29 21:46:44.74	103.15	33.86	-54.2	-55.5	20.9	0.00e+00	0	46	0	1213202432	60	22687
2026-01-29 21:46:45.74	103.53	33.83	-54.0	-55.3	21.0	0.00e+00	0	46	0	1216348160	60	22209
2026-01-29 21:46:46.75	103.91	33.79	-54.1	-55.4	20.9	0.00e+00	0	46	0	1219493888	60	22512
2026-01-29 21:46:47.76	104.30	33.75	-54.2	-55.6	20.8	0.00e+00	0	46	0	1222639616	60	22824
2026-01-29 21:46:48.76	104.67	33.71	-54.2	-55.5	20.8	0.00e+00	0	46	0	1225785344	60	22702
2026-01-29 21:46:49.76	105.05	33.66	-53.9	-55.2	20.9	0.00e+00	0	46	0	1228931072	60	21934
2026-01-29 21:46:50.77	105.43	33.62	-53.8	-55.1	21.1	0.00e+00	0	46	0	1232076800	60	21685
2026-01-29 21:46:51.78	105.80	33.57	-53.7	-55.0	21.4	0.00e+00	0	46	0	1235222528	60	21277
2026-01-29 21:46:52.79	106.18	33.53	-53.7	-54.9	21.4	0.00e+00	0	46	0	1238368256	60	21190
2026-01-29 21:46:53.79	106.55	33.48	-53.8	-55.0	21.3	0.00e+00	0	46	0	1241513984	60	21498
2026-01-29 21:46:54.80	106.93	33.43	-53.8	-55.1	21.2	0.00e+00	0	46	0	1244659712	60	21658
2026-01-29 21:46:55.80	107.30	33.38	-53.8	-55.1	21.1	0.00e+00	0	46	0	1247805440	60	21610
2026-01-29 21:46:56.81	107.67	33.33	-53.9	-55.3	21.1	0.00e+00	0	46	0	1250951168	60	22041
2026-01-29 21:46:57.82	108.04	33.27	-54.0	-55.3	21.0	0.00e+00	0	46	0	1254096896	60	22219
2026-01-29 21:46:58.82	108.40	33.22	-54.0	-55.3	21.1	0.00e+00	0	46	0	1257242624	60	22053
2026-01-29 21:46:59.83	108.77	33.16	-53.9	-55.2	21.2	0.00e+00	0	46	0	1260388352	60	21774
2026-01-29 21:47:00.84	109.14	33.11	-53.6	-54.9	21.3	0.00e+00	0	46	0	1263534080	60	21181
2026-01-29 21:47:01.84	109.50	33.05	-53.6	-54.8	21.3	0.00e+00	0	46	0	1266679808	60	20955
2026-01-29 21:47:02.85	109.87	32.99	-53.5	-54.8	21.2	0.00e+00	0	46	0	1269825536	60	20968
2026-01-29 21:47:03.86	110.23	32.93	-53.8	-55.1	21.1	0.00e+00	0	46	0	1272971264	60	21623
2026-01-29 21:47:04.87	110.59	32.87	-53.9	-55.2	21.0	0.00e+00	0	46	0	1276116992	60	21873
2026-01-29 21:47:05.87	110.95	32.81	-53.9	-55.3	20.9	0.00e+00	0	46	0	1279262720	60	22039
2026-01-29 21:47:06.88	111.31	32.74	-54.1	-55.5	20.8	0.00e+00	0	46	0	1282408448	60	22686
2026-01-29 21:47:07.89	111.67	32.68	-54.1	-55.4	20.9	0.00e+00	0	46	0	1285554176	60	22478
2026-01-29 21:47:08.89	112.02	32.61	-54.0	-55.3	21.1	0.00e+00	0	46	0	1288699904	60	22178
2026-01-29 21:47:09.90	112.37	32.54	-54.0	-55.3	20.9	0.00e+00	0	46	0	1291845632	60	22096
2026-01-29 21:47:10.91	112.73	32.48	-54.1	-55.5	20.6	0.00e+00	0	46	0	1294991360	60	22619
2026-01-29 21:47:11.91	113.08	32.41	-54.2	-55.7	20.5	0.00e+00	0	46	0	1298137088	60	23073
2026-01-29 21:47:12.92	113.43	32.34	-54.3	-55.7	20.5	0.00e+00	0	46	0	1301282816	60	23197
2026-01-29 21:47:13.92	113.77	32.27	-54.5	-55.9	20.5	0.00e+00	0	46	0	1304428544	60	23658
2026-01-29 21:47:14.93	114.12	32.20	-54.4	-55.8	20.5	0.00e+00	0	47	0	1307574272	60	23441
2026-01-29 21:47:15.94	114.47	32.12	-54.3	-55.7	20.5	0.00e+00	0	46	0	1310720000	60	23289
2026-01-29 21:47:16.94	114.81	32.05	-54.1	-55.5	20.7	0.00e+00	0	46	0	1313865728	60	22545
2026-01-29 21:47:17.95	115.15	31.98	-54.0	-55.3	20.9	0.00e+00	0	46	0	1317011456	60	22111
2026-01-29 21:47:18.96	115.49	31.90	-53.9	-55.2	21.1	0.00e+00	0	46	0	1320157184	60	21951
2026-01-29 21:47:19.96	115.83	31.82	-53.8	-55.1	21.1	0.00e+00	0	46	0	1323302912	60	21637
2026-01-29 21:47:20.97	116.17	31.75	-53.7	-55.0	21.2	0.00e+00	0	46	0	1326448640	60	21441
2026-01-29 21:47:21.98	116.51	31.67	-53.5	-54.8	21.2	0.00e+00	0	46	0	1329594368	60	20880
2026-01-29 21:47:22.99	116.84	31.59	-53.5	-54.8	21.2	0.00e+00	0	46	0	1332740096	60	20929
2026-01-29 21:47:24.00	117.17	31.51	-53.4	-54.7	21.4	0.00e+00	0	46	0	1335885824	60	20716
2026-01-29 21:47:25.00	117.50	31.43	-53.3	-54.6	21.5	0.00e+00	0	47	0	1339031552	60	20409
2026-01-29 21:47:26.01	117.83	31.35	-53.2	-54.5	21.5	0.00e+00	0	46	0	1342177280	60	20175
2026-01-29 21:47:27.01	118.16	31.27	-53.1	-54.3	21.7	0.00e+00	0	46	0	1345323008	60	19715
2026-01-29 21:47:28.02	118.49	31.18	-53.0	-54.2	21.6	0.00e+00	0	46	0	1348468736	60	19551
2026-01-29 21:47:29.02	118.81	31.10	-52.9	-54.2	21.8	0.00e+00	0	46	0	1351614464	60	19481
2026-01-29 21:47:30.02	119.13	31.02	-52.6	-53.8	22.1	0.00e+00	0	46	0	1354760192	60	18648
2026-01-29 21:47:31.03	119.45	30.93	-52.6	-53.8	22.0	0.00e+00	0	46	0	1357905920	60	18576
2026-01-29 21:47:32.04	119.77	30.84	-52.7	-53.9	22.0	0.00e+00	0	46	0	1361051648	60	18936
2026-01-29 21:47:33.05	120.09	30.76	-53.0	-54.2	21.8	0.00e+00	0	46	0	1364197376	60	19604
2026-01-29 21:47:34.05	120.41	30.67	-53.0	-54.2	21.7	0.00e+00	0	46	0	1367343104	60	19516
2026-01-29 21:47:35.06	120.72	30.58	-53.1	-54.3	21.7	0.00e+00	0	46	0	1370488832	60	19821
2026-01-29 21:47:36.06	121.03	30.50	-53.1	-54.3	21.6	0.00e+00	0	46	0	1373634560	60	19777
2026-01-29 21:47:37.06	121.34	30.41	-53.0	-54.2	21.7	0.00e+00	0	46	0	1376780288	60	19571
2026-01-29 21:47:38.07	121.65	30.32	-52.7	-53.9	22.1	0.00e+00	0	46	0	1379926016	60	18786
2026-01-29 21:47:39.08	121.96	30.23	-52.4	-53.6	22.1	0.00e+00	0	46	0	1383071744	60	18255
2026-01-29 21:47:40.09	122.27	30.13	-52.3	-53.5	22.2	0.00e+00	0	46	0	1386217472	60	17999
2026-01-29 21:47:41.09	122.57	30.04	-52.2	-53.4	21.9	0.00e+00	0	46	0	1389363200	60	17831
2026-01-29 21:47:42.10	122.87	29.95	-52.4	-53.6	22.0	0.00e+00	0	46	0	1392508928	60	18174
2026-01-29 21:47:43.10	123.17	29.86	-52.5	-53.7	21.9	0.00e+00	0	46	0	1395654656	60	18525
2026-01-29 21:47:44.11	123.47	29.77	-52.5	-53.8	22.0	0.00e+00	0	46	0	1398800384	60	18566
2026-01-29 21:47:45.12	123.77	29.67	-52.5	-53.7	21.9	0.00e+00	0	46	0	1401946112	60	18411
2026-01-29 21:47:46.13	124.07	29.58	-52.4	-53.6	22.0	0.00e+00	0	46	0	1405091840	60	18108
2026-01-29 21:47:47.13	124.36	29.48	-52.4	-53.6	21.9	0.00e+00	0	46	0	1408237568	60	18256
2026-01-29 21:47:48.14	124.66	29.39	-52.5	-53.7	21.8	0.00e+00	0	46	0	1411383296	60	18494
2026-01-29 21:47:49.14	124.94	29.29	-52.5	-53.7	21.7	0.00e+00	0	46	0	1414529024	60	18436
2026-01-29 21:47:50.15	125.23	29.19	-52.5	-53.7	21.9	0.00e+00	0	46	0	1417674752	60	18350
2026-01-29 21:47:51.15	125.52	29.10	-52.4	-53.6	22.0	0.00e+00	0	46	0	1420820480	60	18242
2026-01-29 21:47:52.16	125.81	29.00	-52.5	-53.7	21.8	0.00e+00	0	46	0	1423966208	60	18454
2026-01-29 21:47:53.17	126.09	28.90	-52.6	-53.9	21.6	0.00e+00	0	46	0	1427111936	60	18818
2026-01-29 21:47:54.18	126.38	28.81	-52.8	-54.1	21.4	0.00e+00	0	46	0	1430257664	60	19275
2026-01-29 21:47:55.18	126.65	28.71	-52.5	-53.8	21.7	0.00e+00	0	46	0	1433403392	60	18641
2026-01-29 21:47:56.19	126.93	28.61	-52.4	-53.6	21.9	0.00e+00	0	46	0	1436549120	60	18262
2026-01-29 21:47:57.20	127.21	28.51	-52.3	-53.5	21.9	0.00e+00	0	46	0	1439694848	60	17916
2026-01-29 21:47:58.20	127.49	28.41	-52.3	-53.5	22.0	0.00e+00	0	46	0	1442840576	60	17909
2026-01-29 21:47:59.21	127.76	28.31	-52.3	-53.6	21.9	0.00e+00	0	46	0	1445986304	60	18135
2026-01-29 21:48:00.22	128.04	28.21	-52.2	-53.4	21.9	0.00e+00	0	46	0	1449132032	60	17818
2026-01-29 21:48:01.22	128.30	28.11	-52.2	-53.4	21.9	0.00e+00	0	46	0	1452277760	60	17756
2026-01-29 21:48:02.23	128.57	28.01	-52.1	-53.4	22.0	0.00e+00	0	46	0	1455423488	60	17694
2026-01-29 21:48:03.24	128.84	27.91	-52.0	-53.2	22.1	0.00e+00	0	46	0	1458569216	60	17487
2026-01-29 21:48:04.24	129.11	27.81	-51.9	-53.1	22.2	0.00e+00	0	46	0	1461714944	60	17236
2026-01-29 21:48:05.24	129.37	27.71	-51.9	-53.1	22.2	0.00e+00	0	46	0	1464860672	60	17202
2026-01-29 21:48:06.24	129.63	27.61	-51.9	-53.1	22.2	0.00e+00	0	46	0	1468006400	60	17169
2026-01-29 21:48:07.25	129.89	27.50	-51.9	-53.1	22.2	0.00e+00	0	46	0	1471152128	60	17123
2026-01-29 21:48:08.26	130.15	27.40	-51.8	-53.0	22.1	0.00e+00	0	46	0	1474297856	60	17007
2026-01-29 21:48:09.26	130.41	27.30	-52.0	-53.2	21.8	0.00e+00	0	46	0	1477443584	60	17457
2026-01-29 21:48:10.27	130.66	27.19	-52.2	-53.4	21.6	0.00e+00	0	46	0	1480589312	60	17828
2026-01-29 21:48:11.28	130.92	27.09	-52.2	-53.5	21.6	0.00e+00	0	46	0	1483735040	60	18005
2026-01-29 21:48:12.28	131.17	26.99	-52.3	-53.5	21.6	0.00e+00	0	46	0	1486880768	60	18065
2026-01-29 21:48:13.29	131.42	26.89	-52.2	-53.4	21.7	0.00e+00	0	47	0	1490026496	60	17818
2026-01-29 21:48:14.29	131.67	26.78	-52.3	-53.5	21.8	0.00e+00	0	47	0	1493172224	60	18006
2026-01-29 21:48:15.30	131.92	26.68	-52.2	-53.5	21.7	0.00e+00	0	46	0	1496317952	60	17997
2026-01-29 21:48:16.31	132.17	26.57	-52.1	-53.4	21.8	0.00e+00	0	46	0	1499463680	60	17784
2026-01-29 21:48:17.31	132.41	26.47	-52.3	-53.5	21.7	0.00e+00	0	46	0	1502609408	60	18032
2026-01-29 21:48:18.32	132.66	26.37	-52.3	-53.5	21.7	0.00e+00	0	46	0	1505755136	60	18093
2026-01-29 21:48:19.32	132.90	26.26	-52.0	-53.3	21.8	0.00e+00	0	46	0	1508900864	60	17523
2026-01-29 21:48:20.33	133.14	26.16	-52.0	-53.3	21.8	0.00e+00	0	46	0	1512046592	60	17516
2026-01-29 21:48:21.34	133.38	26.05	-52.1	-53.3	21.8	0.00e+00	0	46	0	1515192320	60	17615
2026-01-29 21:48:22.34	133.61	25.95	-52.1	-53.3	21.8	0.00e+00	0	46	0	1518338048	60	17665
2026-01-29 21:48:23.35	133.85	25.84	-52.2	-53.4	21.7	0.00e+00	0	46	0	1521483776	60	17833
2026-01-29 21:48:24.35	134.08	25.74	-52.3	-53.5	21.7	0.00e+00	0	46	0	1524629504	60	18019
2026-01-29 21:48:25.35	134.31	25.64	-52.1	-53.4	21.7	0.00e+00	0	46	0	1527775232	60	17757
2026-01-29 21:48:26.37	134.55	25.53	-52.2	-53.4	21.6	0.00e+00	0	47	0	1530920960	60	17864
2026-01-29 21:48:27.37	134.77	25.42	-52.4	-53.6	21.4	0.00e+00	0	47	0	1534066688	60	18250
2026-01-29 21:48:28.38	135.00	25.32	-52.3	-53.6	21.4	0.00e+00	0	47	0	1537212416	60	18235
2026-01-29 21:48:29.39	135.23	25.21	-52.2	-53.5	21.4	0.00e+00	0	46	0	1540358144	60	17998
2026-01-29 21:48:30.40	135.46	25.11	-52.2	-53.4	21.4	0.00e+00	0	46	0	1543503872	60	17867
2026-01-29 21:48:31.40	135.68	25.00	-52.5	-53.8	21.2	0.00e+00	0	46	0	1546649600	60	18644
2026-01-29 21:48:32.41	135.90	24.90	-52.6	-53.9	21.1	0.00e+00	0	46	0	1549795328	60	18815
2026-01-29 21:48:33.42	136.12	24.79	-52.6	-53.9	21.1	0.00e+00	0	46	0	1552941056	60	18748
2026-01-29 21:48:34.43	136.34	24.69	-52.6	-53.9	21.2	0.00e+00	0	46	0	1556086784	60	18898
2026-01-29 21:48:35.44	136.56	24.58	-52.5	-53.8	21.0	0.00e+00	0	46	0	1559232512	60	18600
2026-01-29 21:48:36.44	136.78	24.48	-52.7	-54.0	21.0	0.00e+00	0	46	0	1562378240	60	19176
2026-01-29 21:48:37.45	136.99	24.37	-52.7	-54.0	21.0	0.00e+00	0	46	0	1565523968	60	19151
2026-01-29 21:48:38.45	137.21	24.27	-52.7	-54.1	20.9	0.00e+00	0	46	0	1568669696	60	19206
2026-01-29 21:48:39.45	137.42	24.16	-52.5	-53.9	21.2	0.00e+00	0	46	0	1571815424	60	18747
2026-01-29 21:48:40.46	137.63	24.06	-52.1	-53.4	21.5	0.00e+00	0	46	0	1574961152	60	17778
2026-01-29 21:48:41.47	137.84	23.95	-51.8	-53.1	21.7	0.00e+00	0	46	0	1578106880	60	17145
2026-01-29 21:48:42.47	138.05	23.85	-51.8	-53.1	21.9	0.00e+00	0	46	0	1581252608	60	17128
2026-01-29 21:48:43.48	138.25	23.74	-51.7	-52.9	21.9	0.00e+00	0	46	0	1584398336	60	16892
2026-01-29 21:48:44.49	138.46	23.64	-51.8	-53.0	21.8	0.00e+00	0	46	0	1587544064	60	17010
2026-01-29 21:48:45.50	138.67	23.53	-51.7	-53.0	21.9	0.00e+00	0	46	0	1590689792	60	16936
2026-01-29 21:48:46.51	138.87	23.42	-51.7	-53.0	21.8	0.00e+00	0	46	0	1593835520	60	16911
2026-01-29 21:48:47.51	139.07	23.32	-51.7	-52.9	21.9	0.00e+00	0	46	0	1596981248	60	16853
2026-01-29 21:48:48.51	139.27	23.22	-51.8	-53.0	21.8	0.00e+00	0	46	0	1600126976	60	17064
2026-01-29 21:48:49.52	139.47	23.11	-51.9	-53.1	21.7	0.00e+00	0	46	0	1603272704	60	17186
2026-01-29 21:48:50.52	139.66	23.01	-51.9	-53.1	21.6	0.00e+00	0	46	0	1606418432	60	17202
2026-01-29 21:48:51.53	139.86	22.90	-51.9	-53.1	21.7	0.00e+00	0	46	0	1609564160	60	17187
2026-01-29 21:48:52.54	140.06	22.80	-51.9	-53.2	21.5	0.00e+00	0	46	0	1612709888	60	17328
2026-01-29 21:48:53.55	140.25	22.69	-51.9	-53.2	21.6	0.00e+00	0	46	0	1615855616	60	17298
2026-01-29 21:48:54.55	140.44	22.59	-52.0	-53.2	21.5	0.00e+00	0	46	0	1619001344	60	17483
2026-01-29 21:48:55.56	140.64	22.48	-51.9	-53.1	21.5	0.00e+00	0	46	0	1622147072	60	17266
2026-01-29 21:48:56.56	140.82	22.38	-52.0	-53.2	21.5	0.00e+00	0	46	0	1625292800	60	17444
2026-01-29 21:48:57.56	141.01	22.28	-52.0	-53.3	21.5	0.00e+00	0	46	0	1628438528	60	17619
2026-01-29 21:48:58.57	141.20	22.17	-52.1	-53.4	21.4	0.00e+00	0	46	0	1631584256	60	17714
2026-01-29 21:48:59.58	141.39	22.07	-52.0	-53.3	21.5	0.00e+00	0	46	0	1634729984	60	17578
2026-01-29 21:49:00.59	141.57	21.96	-52.1	-53.4	21.3	0.00e+00	0	46	0	1637875712	60	17797
2026-01-29 21:49:01.60	141.76	21.86	-52.3	-53.6	21.2	0.00e+00	0	46	0	1641021440	60	18291
2026-01-29 21:49:02.60	141.94	21.76	-52.2	-53.5	21.1	0.00e+00	0	46	0	1644167168	60	17997
2026-01-29 21:49:03.61	142.12	21.65	-52.3	-53.6	21.2	0.00e+00	0	46	0	1647312896	60	18253
2026-01-29 21:49:04.62	142.30	21.55	-52.4	-53.7	21.2	0.00e+00	0	46	0	1650458624	60	18344
2026-01-29 21:49:05.62	142.48	21.45	-52.3	-53.6	21.1	0.00e+00	0	46	0	1653604352	60	18206
2026-01-29 21:49:06.63	142.66	21.35	-52.5	-53.8	20.9	0.00e+00	0	46	0	1656750080	60	18622
2026-01-29 21:49:07.64	142.84	21.24	-52.6	-53.9	20.9	0.00e+00	0	46	0	1659895808	60	18916
2026-01-29 21:49:08.65	143.02	21.14	-52.7	-54.1	20.8	0.00e+00	0	46	0	1663041536	60	19186
2026-01-29 21:49:09.66	143.19	21.04	-52.9	-54.3	20.5	0.00e+00	0	46	0	1666187264	60	19769
2026-01-29 21:49:10.66	143.36	20.93	-53.0	-54.4	20.4	0.00e+00	0	46	0	1669332992	60	20009
2026-01-29 21:49:11.66	143.53	20.83	-52.8	-54.2	20.6	0.00e+00	0	46	0	1672478720	60	19487
2026-01-29 21:49:12.67	143.71	20.73	-52.7	-54.1	20.7	0.00e+00	0	46	0	1675624448	60	19280
2026-01-29 21:49:13.68	143.88	20.63	-52.1	-53.4	21.2	0.00e+00	0	46	0	1678770176	60	17840
2026-01-29 21:49:14.68	144.05	20.53	-52.1	-53.4	21.2	0.00e+00	0	46	0	1681915904	60	17773
2026-01-29 21:49:15.69	144.21	20.43	-52.1	-53.4	21.3	0.00e+00	0	46	0	1685061632	60	17729
2026-01-29 21:49:16.70	144.38	20.32	-52.0	-53.3	21.2	0.00e+00	0	46	0	1688207360	60	17567
2026-01-29 21:49:17.71	144.55	20.22	-52.0	-53.3	21.3	0.00e+00	0	46	0	1691353088	60	17552
2026-01-29 21:49:18.71	144.71	20.12	-51.9	-53.2	21.3	0.00e+00	0	46	0	1694498816	60	17380
2026-01-29 21:49:19.72	144.88	20.02	-51.9	-53.2	21.3	0.00e+00	0	46	0	1697644544	60	17328
2026-01-29 21:49:20.72	145.04	19.92	-51.9	-53.2	21.3	0.00e+00	0	46	0	1700790272	60	17320
2026-01-29 21:49:21.73	145.20	19.82	-52.1	-53.4	21.2	0.00e+00	0	46	0	1703936000	60	17874
2026-01-29 21:49:22.74	145.36	19.72	-52.3	-53.6	21.0	0.00e+00	0	46	0	1707081728	60	18115
2026-01-29 21:49:23.74	145.52	19.62	-52.0	-53.3	21.2	0.00e+00	0	46	0	1710227456	60	17643
2026-01-29 21:49:24.75	145.68	19.52	-51.6	-52.8	21.6	0.00e+00	0	46	0	1713373184	60	16678
2026-01-29 21:49:25.76	145.84	19.42	-51.4	-52.6	21.8	0.00e+00	0	46	0	1716518912	60	16229
2026-01-29 21:49:26.76	146.00	19.32	-51.4	-52.7	21.7	0.00e+00	0	46	0	1719664640	60	16357
2026-01-29 21:49:27.77	146.15	19.22	-51.4	-52.7	21.6	0.00e+00	0	46	0	1722810368	60	16368
2026-01-29 21:49:28.78	146.31	19.12	-51.6	-52.9	21.5	0.00e+00	0	46	0	1725956096	60	16716
2026-01-29 21:49:29.78	146.46	19.03	-51.7	-53.0	21.3	0.00e+00	0	46	0	1729101824	60	16934
2026-01-29 21:49:30.79	146.61	18.93	-51.7	-53.0	21.3	0.00e+00	0	46	0	1732247552	60	17009
2026-01-29 21:49:31.80	146.77	18.83	-51.7	-53.0	21.3	0.00e+00	0	46	0	1735393280	60	16955
2026-01-29 21:49:32.80	146.92	18.73	-51.7	-53.0	21.5	0.00e+00	0	46	0	1738539008	60	16948
2026-01-29 21:49:33.81	147.07	18.63	-51.7	-53.0	21.5	0.00e+00	0	46	0	1741684736	60	16950
2026-01-29 21:49:34.82	147.22	18.53	-51.6	-52.8	21.6	0.00e+00	0	46	0	1744830464	60	16636
2026-01-29 21:49:35.83	147.37	18.43	-51.5	-52.8	21.6	0.00e+00	0	46	0	1747976192	60	16562
2026-01-29 21:49:36.84	147.51	18.34	-51.5	-52.7	21.6	0.00e+00	0	46	0	1751121920	60	16472
2026-01-29 21:49:37.84	147.66	18.24	-51.5	-52.8	21.6	0.00e+00	0	46	0	1754267648	60	16561
2026-01-29 21:49:38.85	147.80	18.14	-51.5	-52.7	21.5	0.00e+00	0	46	0	1757413376	60	16496
2026-01-29 21:49:39.86	147.95	18.05	-51.6	-52.8	21.6	0.00e+00	0	46	0	1760559104	60	16611
2026-01-29 21:49:40.87	148.09	17.95	-51.5	-52.7	21.6	0.00e+00	0	46	0	1763704832	60	16482
2026-01-29 21:49:41.87	148.24	17.85	-51.5	-52.8	21.6	0.00e+00	0	46	0	1766850560	60	16592
2026-01-29 21:49:42.88	148.38	17.76	-51.6	-52.8	21.6	0.00e+00	0	46	0	1769996288	60	16604
2026-01-29 21:49:43.88	148.52	17.66	-51.5	-52.7	21.7	0.00e+00	0	46	0	1773142016	60	16504
2026-01-29 21:49:44.89	148.66	17.56	-51.6	-52.8	21.6	0.00e+00	0	46	0	1776287744	60	16617
2026-01-29 21:49:45.90	148.80	17.47	-51.6	-52.9	21.6	0.00e+00	0	46	0	1779433472	60	16718
2026-01-29 21:49:46.91	148.94	17.37	-51.7	-52.9	21.5	0.00e+00	0	46	0	1782579200	60	16889
2026-01-29 21:49:47.92	149.08	17.28	-51.8	-53.0	21.4	0.00e+00	0	46	0	1785724928	60	17050
2026-01-29 21:49:48.92	149.21	17.18	-51.8	-53.1	21.3	0.00e+00	0	46	0	1788870656	60	17249
2026-01-29 21:49:49.93	149.35	17.09	-51.9	-53.1	21.4	0.00e+00	0	46	0	1792016384	60	17225
2026-01-29 21:49:50.94	149.48	16.99	-51.9	-53.2	21.3	0.00e+00	0	46	0	1795162112	60	17451
2026-01-29 21:49:51.95	149.62	16.90	-52.1	-53.4	21.2	0.00e+00	0	46	0	1798307840	60	17695
2026-01-29 21:49:52.96	149.75	16.80	-52.0	-53.3	21.2	0.00e+00	0	46	0	1801453568	60	17654
2026-01-29 21:49:53.96	149.89	16.71	-52.1	-53.4	21.2	0.00e+00	0	46	0	1804599296	60	17813
2026-01-29 21:49:54.97	150.02	16.62	-52.2	-53.5	21.0	0.00e+00	0	46	0	1807745024	60	18040
2026-01-29 21:49:55.97	150.15	16.52	-52.1	-53.4	21.1	0.00e+00	0	46	0	1810890752	60	17861
2026-01-29 21:49:56.98	150.28	16.43	-52.1	-53.4	21.0	0.00e+00	0	46	0	1814036480	60	17830
2026-01-29 21:49:57.99	150.41	16.34	-52.2	-53.5	21.0	0.00e+00	0	46	0	1817182208	60	17932
2026-01-29 21:49:58.99	150.54	16.25	-52.2	-53.5	20.9	0.00e+00	0	46	0	1820327936	60	18073
2026-01-29 21:50:00.00	150.67	16.15	-52.2	-53.5	20.9	0.00e+00	0	46	0	1823473664	60	17944
2026-01-29 21:50:01.01	150.79	16.06	-52.2	-53.5	20.9	0.00e+00	0	46	0	1826619392	60	18031
2026-01-29 21:50:02.01	150.92	15.97	-52.2	-53.5	20.7	0.00e+00	0	46	0	1829765120	60	18036
2026-01-29 21:50:03.01	151.04	15.88	-52.3	-53.6	20.6	0.00e+00	0	46	0	1832910848	60	18268
2026-01-29 21:50:04.02	151.17	15.78	-52.4	-53.7	20.7	0.00e+00	0	46	0	1836056576	60	18439
2026-01-29 21:50:05.03	151.30	15.69	-52.4	-53.8	20.5	0.00e+00	0	46	0	1839202304	60	18536
2026-01-29 21:50:06.04	151.42	15.60	-52.4	-53.7	20.5	0.00e+00	0	46	0	1842348032	60	18507
2026-01-29 21:50:07.04	151.54	15.51	-52.4	-53.8	20.6	0.00e+00	0	46	0	1845493760	60	18651
2026-01-29 21:50:08.05	151.66	15.42	-52.4	-53.7	20.6	0.00e+00	0	46	0	1848639488	60	18461
2026-01-29 21:50:09.06	151.79	15.33	-52.3	-53.6	20.7	0.00e+00	0	46	0	1851785216	60	18238
2026-01-29 21:50:10.07	151.91	15.24	-52.4	-53.7	20.7	0.00e+00	0	46	0	1854930944	60	18478
2026-01-29 21:50:11.07	152.03	15.15	-52.3	-53.7	20.6	0.00e+00	0	46	0	1858076672	60	18397
2026-01-29 21:50:12.08	152.15	15.06	-52.2	-53.6	20.7	0.00e+00	0	46	0	1861222400	60	18109
2026-01-29 21:50:13.09	152.27	14.97	-52.4	-53.7	20.6	0.00e+00	0	46	0	1864368128	60	18481
2026-01-29 21:50:14.10	152.38	14.88	-52.2	-53.6	20.8	0.00e+00	0	46	0	1867513856	60	18111
2026-01-29 21:50:15.11	152.50	14.79	-52.1	-53.5	20.8	0.00e+00	0	46	0	1870659584	60	17955
2026-01-29 21:50:16.11	152.62	14.70	-52.2	-53.5	20.7	0.00e+00	0	46	0	1873805312	60	18010
2026-01-29 21:50:17.12	152.73	14.61	-52.2	-53.6	20.7	0.00e+00	0	46	0	1876951040	60	18154
2026-01-29 21:50:18.12	152.85	14.52	-52.3	-53.6	20.6	0.00e+00	0	46	0	1880096768	60	18311
2026-01-29 21:50:19.13	152.96	14.43	-52.4	-53.7	20.5	0.00e+00	0	46	0	1883242496	60	18500
