passes_logs/2026/01/29/R3.2S-Naryan-Mar/R3.2S-Naryan-Mar__20260129_124326_FENGYUN_3E_rec.log

#Pass ID: 20260129_124326_FENGYUN 3E
#Satellite: FENGYUN 3E
#Configuration: FENGYUN 3E
#almurnet v.1.7.20240730
#Start time: 2026-01-29 12:43:29

#Version: 2.2.20231116
#Station: R3.2S-Naryan-Mar
#Location: 53.008057 lon 67.646978 lat
#TLE: 1 49008U 21062A   26028.95833242 -.00000015  00000+0  13843-4 0  9995
#TLE: 2 49008  98.7500  33.9242 0002547 112.2873 247.8573 14.19887818236829

#Time	Az	El	Level	Level2	SNR	BER	BlckErr	Temp	State	Recorded	gain1	gain2
2026-01-29 12:43:29.29	156.57	0.18	-55.1	-71.6	3.3	8.40e-01	0	45	0	0	60	148685
2026-01-29 12:43:30.30	156.58	0.24	-57.7	-73.0	3.6	8.45e-01	0	45	104	0	60	175187
2026-01-29 12:43:31.31	156.58	0.30	-59.8	-73.6	3.6	8.45e-01	0	45	104	0	60	186509
2026-01-29 12:43:32.32	156.59	0.36	-60.2	-73.9	3.6	8.46e-01	0	45	104	0	60	194212
2026-01-29 12:43:33.32	156.60	0.42	-60.8	-73.9	3.6	8.44e-01	0	45	104	0	60	194865
2026-01-29 12:43:34.33	156.60	0.48	-61.2	-74.3	3.6	8.45e-01	0	45	104	0	60	203537
2026-01-29 12:43:35.34	156.61	0.54	-61.2	-74.5	3.6	8.44e-01	0	45	104	0	60	208245
2026-01-29 12:43:36.35	156.62	0.60	-61.4	-74.8	3.5	8.45e-01	0	45	104	0	60	214764
2026-01-29 12:43:37.35	156.63	0.67	-61.7	-74.9	3.6	8.45e-01	0	45	104	0	60	218621
2026-01-29 12:43:38.36	156.63	0.73	-61.6	-74.9	3.6	8.46e-01	0	45	104	0	60	217773
2026-01-29 12:43:39.37	156.64	0.79	-61.4	-74.7	3.6	8.45e-01	0	45	104	0	60	211942
2026-01-29 12:43:40.37	156.65	0.85	-60.9	-74.1	3.6	8.45e-01	0	45	104	0	60	199313
2026-01-29 12:43:41.37	156.65	0.91	-60.4	-73.8	3.6	8.45e-01	0	45	104	0	60	192326
2026-01-29 12:43:42.38	156.66	0.98	-60.0	-73.4	3.5	8.46e-01	0	45	104	0	60	183947
2026-01-29 12:43:43.38	156.67	1.04	-59.7	-73.1	3.6	8.45e-01	0	45	104	0	60	176371
2026-01-29 12:43:44.39	156.67	1.10	-59.3	-72.5	3.6	8.45e-01	0	45	104	0	60	164914
2026-01-29 12:43:45.40	156.68	1.16	-58.0	-71.9	3.6	8.45e-01	0	45	104	0	60	153993
2026-01-29 12:43:46.40	156.69	1.23	-57.8	-71.2	3.6	8.46e-01	0	45	104	0	60	141785
2026-01-29 12:43:47.41	156.69	1.29	-57.7	-71.2	3.6	8.45e-01	0	45	104	0	60	141817
2026-01-29 12:43:48.41	156.70	1.35	-57.7	-71.0	3.6	8.45e-01	0	45	104	0	60	139327
2026-01-29 12:43:49.42	156.71	1.42	-57.6	-71.1	3.6	8.45e-01	0	45	104	0	60	139851
2026-01-29 12:43:50.42	156.72	1.48	-57.6	-71.0	3.6	8.45e-01	0	45	104	0	60	139580
2026-01-29 12:43:51.43	156.72	1.54	-57.6	-70.9	3.6	8.45e-01	0	45	104	0	60	138161
2026-01-29 12:43:52.43	156.73	1.60	-57.5	-71.0	3.6	8.45e-01	0	45	104	0	60	138617
2026-01-29 12:43:53.44	156.74	1.67	-57.5	-70.9	3.6	8.45e-01	0	45	104	0	60	138099
2026-01-29 12:43:54.45	156.74	1.73	-57.5	-71.0	3.6	8.46e-01	0	45	104	0	60	139568
2026-01-29 12:43:55.45	156.75	1.80	-57.5	-71.0	3.6	8.46e-01	0	45	104	0	60	138926
2026-01-29 12:43:56.46	156.76	1.86	-57.5	-71.0	3.6	8.45e-01	0	45	104	0	60	138907
2026-01-29 12:43:57.47	156.77	1.93	-57.5	-71.0	3.6	8.46e-01	0	45	104	0	60	138886
2026-01-29 12:43:58.47	156.77	1.99	-57.4	-70.9	3.6	8.44e-01	0	45	104	0	60	137476
2026-01-29 12:43:59.47	156.78	2.05	-57.4	-71.0	3.6	8.45e-01	0	45	104	0	60	138736
2026-01-29 12:44:00.48	156.79	2.12	-57.4	-70.9	3.6	8.44e-01	0	45	104	0	60	137854
2026-01-29 12:44:01.48	156.79	2.18	-57.4	-70.9	3.6	8.45e-01	0	45	104	0	60	137977
2026-01-29 12:44:02.49	156.80	2.25	-57.4	-70.9	3.6	8.45e-01	0	45	104	0	60	137411
2026-01-29 12:44:03.49	156.81	2.31	-57.3	-70.8	3.6	8.45e-01	0	45	104	0	60	136600
2026-01-29 12:44:04.50	156.82	2.38	-57.3	-70.8	3.6	8.45e-01	0	45	104	0	60	136200
2026-01-29 12:44:05.51	156.82	2.44	-57.3	-70.9	3.6	8.45e-01	0	45	104	0	60	136701
2026-01-29 12:44:06.51	156.83	2.51	-57.3	-70.8	3.6	8.45e-01	0	45	104	0	60	136200
2026-01-29 12:44:07.52	156.84	2.58	-57.3	-70.8	3.6	8.44e-01	0	45	104	0	60	136133
2026-01-29 12:44:08.52	156.85	2.64	-57.2	-70.8	3.6	8.45e-01	0	45	104	0	60	136135
2026-01-29 12:44:09.52	156.85	2.71	-57.3	-70.8	3.6	8.45e-01	0	45	104	0	60	136606
2026-01-29 12:44:10.52	156.86	2.77	-57.3	-70.8	3.6	8.46e-01	0	45	104	0	60	135533
2026-01-29 12:44:11.52	156.87	2.84	-57.2	-70.8	3.6	8.45e-01	0	45	104	0	60	135772
2026-01-29 12:44:12.53	156.88	2.91	-57.2	-70.7	3.6	8.46e-01	0	46	104	0	60	134889
2026-01-29 12:44:13.53	156.88	2.97	-57.2	-70.6	3.6	8.45e-01	0	46	104	0	60	133129
2026-01-29 12:44:14.54	156.89	3.04	-57.2	-70.5	3.6	8.45e-01	0	45	104	0	60	131318
2026-01-29 12:44:15.54	156.90	3.11	-57.1	-70.3	3.6	8.45e-01	0	45	104	0	60	128788
2026-01-29 12:44:16.55	156.91	3.17	-57.1	-70.2	3.6	8.45e-01	0	46	104	0	60	126500
2026-01-29 12:44:17.56	156.91	3.24	-57.1	-70.0	3.6	8.44e-01	0	45	104	0	60	123946
2026-01-29 12:44:18.56	156.92	3.31	-57.1	-69.8	3.6	8.45e-01	0	46	104	0	60	121753
2026-01-29 12:44:19.57	156.93	3.38	-57.0	-69.5	3.6	8.45e-01	0	45	104	0	60	117262
2026-01-29 12:44:20.57	156.94	3.44	-57.0	-69.5	3.6	8.45e-01	0	46	104	0	60	117497
2026-01-29 12:44:21.58	156.94	3.51	-57.0	-69.5	3.6	8.45e-01	0	46	104	0	60	117524
2026-01-29 12:44:22.58	156.95	3.58	-57.0	-69.6	3.6	8.45e-01	0	45	104	0	60	117979
2026-01-29 12:44:23.59	156.96	3.65	-57.0	-69.6	3.6	8.44e-01	0	45	104	0	60	118897
2026-01-29 12:44:24.60	156.97	3.72	-57.0	-69.9	3.6	8.44e-01	0	45	104	0	60	121810
2026-01-29 12:44:25.60	156.97	3.79	-57.0	-69.9	3.6	8.45e-01	0	45	104	0	60	121952
2026-01-29 12:44:26.61	156.98	3.86	-57.0	-69.8	3.6	8.45e-01	0	45	104	0	60	121359
2026-01-29 12:44:27.61	156.99	3.92	-57.0	-69.6	3.6	8.45e-01	0	45	104	0	60	118580
2026-01-29 12:44:28.61	157.00	3.99	-57.0	-69.2	3.6	8.46e-01	0	45	104	0	60	113617
2026-01-29 12:44:29.61	157.01	4.06	-56.9	-68.9	3.6	8.45e-01	0	45	104	0	60	109419
2026-01-29 12:44:30.61	157.01	4.13	-56.9	-68.6	3.6	8.45e-01	0	45	104	0	60	105806
2026-01-29 12:44:31.62	157.02	4.20	-56.9	-68.4	3.7	8.44e-01	0	46	104	0	60	102868
2026-01-29 12:44:32.62	157.03	4.27	-56.9	-68.5	3.6	8.44e-01	0	45	104	0	60	104507
2026-01-29 12:44:33.63	157.04	4.34	-56.9	-68.7	3.6	8.45e-01	0	46	104	0	60	106980
2026-01-29 12:44:34.64	157.05	4.41	-56.9	-68.9	3.6	8.44e-01	0	46	104	0	60	109704
2026-01-29 12:44:35.64	157.05	4.48	-56.8	-68.5	3.6	8.45e-01	0	46	104	0	60	104079
2026-01-29 12:44:36.65	157.06	4.55	-56.7	-65.9	3.8	8.39e-01	0	46	0	0	60	77085
2026-01-29 12:44:37.66	157.07	4.62	-56.4	-63.6	5.0	7.92e-01	0	46	0	0	60	59171
2026-01-29 12:44:38.67	157.08	4.70	-55.9	-61.6	6.9	2.45e-01	0	46	0	4194304	60	47233
2026-01-29 12:44:39.67	157.09	4.77	-55.0	-59.6	9.1	4.06e-02	0	46	0	11534336	60	37338
2026-01-29 12:44:40.68	157.09	4.84	-54.2	-57.9	10.9	3.35e-03	0	46	0	18874368	60	30800
2026-01-29 12:44:41.69	157.10	4.91	-53.2	-56.2	12.7	1.80e-04	0	46	0	26214400	60	25209
2026-01-29 12:44:42.69	157.11	4.98	-52.1	-54.6	14.0	4.50e-06	0	46	0	33554432	60	21059
2026-01-29 12:44:43.70	157.12	5.05	-51.1	-53.3	15.1	0.00e+00	0	46	0	40894464	60	18048
2026-01-29 12:44:44.70	157.13	5.13	-50.2	-52.2	15.9	0.00e+00	0	46	0	48234496	60	15931
2026-01-29 12:44:45.70	157.13	5.20	-49.6	-51.4	16.4	0.00e+00	0	46	0	55574528	60	14634
2026-01-29 12:44:46.71	157.14	5.27	-49.0	-50.8	16.9	0.00e+00	0	46	0	62914560	60	13527
2026-01-29 12:44:47.72	157.15	5.34	-48.6	-50.3	17.0	0.00e+00	0	46	0	70254592	60	12879
2026-01-29 12:44:48.73	157.16	5.42	-48.2	-49.9	17.3	0.00e+00	0	46	0	77594624	60	12246
2026-01-29 12:44:49.74	157.17	5.49	-48.1	-49.7	17.4	0.00e+00	0	46	0	84934656	60	11954
2026-01-29 12:44:50.74	157.18	5.56	-48.3	-49.9	17.3	0.00e+00	0	46	0	92274688	60	12277
2026-01-29 12:44:51.75	157.18	5.64	-48.3	-49.9	17.3	0.00e+00	0	46	0	99614720	60	12306
2026-01-29 12:44:52.76	157.19	5.71	-48.7	-50.4	17.0	0.00e+00	0	46	0	105906176	60	12968
2026-01-29 12:44:53.77	157.20	5.79	-49.2	-50.9	16.6	0.00e+00	0	46	0	113246208	60	13810
2026-01-29 12:44:54.78	157.21	5.86	-49.8	-51.7	16.1	0.00e+00	0	46	0	120586240	60	15113
2026-01-29 12:44:55.79	157.22	5.94	-50.6	-52.6	15.5	0.00e+00	0	46	0	127926272	60	16745
2026-01-29 12:44:56.79	157.23	6.01	-51.4	-53.7	14.6	0.00e+00	0	46	0	135266304	60	19058
2026-01-29 12:44:57.80	157.23	6.09	-52.9	-55.8	11.7	5.70e-06	0	46	0	142606336	60	24102
2026-01-29 12:44:58.81	157.24	6.16	-50.2	-52.2	15.6	0.00e+00	0	46	0	149946368	60	15870
2026-01-29 12:44:59.81	157.25	6.24	-56.5	-66.5	3.5	6.47e-03	0	46	0	156237824	60	83038
2026-01-29 12:45:00.82	157.26	6.31	-56.4	-65.5	4.0	8.44e-01	0	46	104	156237824	60	74078
2026-01-29 12:45:01.83	157.27	6.39	-51.1	-53.5	14.3	3.40e-06	0	46	104	156237824	60	18606
2026-01-29 12:45:02.84	157.28	6.46	-52.5	-55.3	14.0	1.48e-05	0	46	0	7340032	60	22817
2026-01-29 12:45:03.84	157.29	6.54	-51.4	-53.8	14.9	1.10e-06	0	46	0	13631488	60	19226
2026-01-29 12:45:04.84	157.29	6.62	-51.1	-53.4	15.1	0.00e+00	0	46	0	20971520	60	18284
2026-01-29 12:45:05.85	157.30	6.69	-51.1	-53.4	15.0	0.00e+00	0	46	0	28311552	60	18273
2026-01-29 12:45:06.86	157.31	6.77	-51.2	-53.5	14.9	1.10e-06	0	46	0	35651584	60	18592
2026-01-29 12:45:07.87	157.32	6.85	-51.4	-53.8	14.7	0.00e+00	0	46	0	42991616	60	19200
2026-01-29 12:45:08.88	157.33	6.93	-50.4	-52.5	15.7	0.00e+00	0	46	0	50331648	60	16502
2026-01-29 12:45:09.88	157.34	7.00	-49.4	-51.3	16.6	0.00e+00	0	46	0	57671680	60	14408
2026-01-29 12:45:10.89	157.35	7.08	-48.8	-50.7	17.0	0.00e+00	0	46	0	65011712	60	13398
2026-01-29 12:45:11.90	157.36	7.16	-48.5	-50.3	17.3	0.00e+00	0	46	0	72351744	60	12793
2026-01-29 12:45:12.91	157.36	7.24	-48.4	-50.2	17.3	0.00e+00	0	46	0	79691776	60	12628
2026-01-29 12:45:13.92	157.37	7.32	-48.2	-50.0	17.5	0.00e+00	0	46	0	87031808	60	12352
2026-01-29 12:45:14.92	157.38	7.40	-47.9	-49.7	17.6	0.00e+00	0	46	0	94371840	60	11911
2026-01-29 12:45:15.93	157.39	7.47	-47.7	-49.5	17.7	0.00e+00	0	46	0	101711872	60	11678
2026-01-29 12:45:16.93	157.40	7.55	-47.6	-49.3	17.9	0.00e+00	0	46	0	109051904	60	11429
2026-01-29 12:45:17.94	157.41	7.63	-47.7	-49.4	17.8	0.00e+00	0	46	0	116391936	60	11592
2026-01-29 12:45:18.95	157.42	7.71	-47.6	-49.3	17.9	0.00e+00	0	46	0	122683392	60	11471
2026-01-29 12:45:19.95	157.43	7.79	-47.3	-49.0	18.0	0.00e+00	0	46	0	130023424	60	11015
2026-01-29 12:45:20.95	157.44	7.87	-47.4	-49.1	17.9	0.00e+00	0	46	0	137363456	60	11144
2026-01-29 12:45:21.96	157.45	7.95	-47.3	-49.0	18.1	0.00e+00	0	46	0	144703488	60	11056
2026-01-29 12:45:22.97	157.46	8.04	-47.4	-49.1	17.9	0.00e+00	0	46	0	152043520	60	11141
2026-01-29 12:45:23.98	157.46	8.12	-47.4	-49.1	18.1	0.00e+00	0	46	0	159383552	60	11111
2026-01-29 12:45:24.99	157.47	8.20	-47.3	-49.0	18.1	0.00e+00	0	46	0	166723584	60	11013
2026-01-29 12:45:26.00	157.48	8.28	-47.3	-49.0	18.1	0.00e+00	0	46	0	174063616	60	11074
2026-01-29 12:45:27.00	157.49	8.36	-47.4	-49.0	18.1	0.00e+00	0	46	0	180355072	60	11073
2026-01-29 12:45:28.01	157.50	8.44	-47.2	-48.8	18.1	0.00e+00	0	46	0	188743680	60	10846
2026-01-29 12:45:29.02	157.51	8.53	-47.1	-48.8	18.2	0.00e+00	0	46	0	196083712	60	10758
2026-01-29 12:45:30.03	157.52	8.61	-47.1	-48.7	18.2	0.00e+00	0	46	0	203423744	60	10688
2026-01-29 12:45:31.03	157.53	8.69	-47.2	-48.9	18.1	0.00e+00	0	46	0	210763776	60	10860
2026-01-29 12:45:32.03	157.54	8.78	-47.2	-48.8	18.2	0.00e+00	0	46	0	218103808	60	10770
2026-01-29 12:45:33.04	157.55	8.86	-47.2	-48.8	18.2	0.00e+00	0	46	0	224395264	60	10814
2026-01-29 12:45:34.05	157.56	8.94	-47.0	-48.7	18.2	0.00e+00	0	46	0	231735296	60	10628
2026-01-29 12:45:35.05	157.57	9.03	-47.1	-48.7	18.2	0.00e+00	0	46	0	239075328	60	10704
2026-01-29 12:45:36.05	157.58	9.11	-47.0	-48.6	18.3	0.00e+00	0	46	0	246415360	60	10549
2026-01-29 12:45:37.05	157.59	9.20	-47.1	-48.7	18.2	0.00e+00	0	46	0	253755392	60	10632
2026-01-29 12:45:38.06	157.60	9.28	-47.0	-48.6	18.3	0.00e+00	0	46	0	261095424	60	10600
2026-01-29 12:45:39.07	157.61	9.37	-47.0	-48.6	18.3	0.00e+00	0	46	0	268435456	60	10575
2026-01-29 12:45:40.08	157.62	9.45	-47.0	-48.6	18.3	0.00e+00	0	46	0	275775488	60	10495
2026-01-29 12:45:41.08	157.63	9.54	-46.9	-48.5	18.2	0.00e+00	0	46	0	283115520	60	10382
2026-01-29 12:45:42.09	157.64	9.62	-46.9	-48.5	18.3	0.00e+00	0	46	0	289406976	60	10426
2026-01-29 12:45:43.10	157.65	9.71	-46.9	-48.5	21.5	0.00e+00	0	46	0	296747008	60	10411
2026-01-29 12:45:44.11	157.66	9.80	-47.7	-48.7	21.3	0.00e+00	0	46	0	305135616	60	10668
2026-01-29 12:45:45.12	157.67	9.89	-47.6	-48.6	21.4	0.00e+00	0	46	0	312475648	60	10497
2026-01-29 12:45:46.12	157.68	9.97	-47.4	-48.4	21.5	0.00e+00	0	46	0	319815680	60	10321
2026-01-29 12:45:47.13	157.69	10.06	-47.3	-48.3	21.7	0.00e+00	0	46	0	327155712	60	10137
2026-01-29 12:45:48.13	157.70	10.15	-47.4	-48.4	21.5	0.00e+00	0	46	0	333447168	60	10352
2026-01-29 12:45:49.14	157.71	10.24	-47.4	-48.4	21.5	0.00e+00	0	46	0	340787200	60	10362
2026-01-29 12:45:50.15	157.72	10.33	-47.4	-48.4	21.5	0.00e+00	0	46	0	348127232	60	10303
2026-01-29 12:45:51.15	157.73	10.41	-47.4	-48.4	21.6	0.00e+00	0	46	0	355467264	60	10356
2026-01-29 12:45:52.16	157.74	10.50	-47.2	-48.2	21.8	0.00e+00	0	46	0	362807296	60	10071
2026-01-29 12:45:53.16	157.75	10.59	-47.3	-48.3	21.7	0.00e+00	0	46	0	370147328	60	10163
2026-01-29 12:45:54.17	157.76	10.68	-47.4	-48.4	21.7	0.00e+00	0	46	0	377487360	60	10278
2026-01-29 12:45:55.17	157.77	10.77	-47.2	-48.2	21.9	0.00e+00	0	46	0	384827392	60	10062
2026-01-29 12:45:56.18	157.78	10.86	-47.3	-48.2	21.8	0.00e+00	0	46	0	392167424	60	10115
2026-01-29 12:45:57.19	157.79	10.95	-47.3	-48.3	21.9	0.00e+00	0	46	0	398458880	60	10195
2026-01-29 12:45:58.19	157.80	11.05	-47.2	-48.2	21.9	0.00e+00	0	46	0	405798912	60	10078
2026-01-29 12:45:59.20	157.81	11.14	-47.4	-48.4	21.8	0.00e+00	0	46	0	413138944	60	10272
2026-01-29 12:46:00.21	157.82	11.23	-47.2	-48.2	22.0	0.00e+00	0	46	0	421527552	60	10043
2026-01-29 12:46:01.22	157.83	11.32	-47.2	-48.2	21.9	0.00e+00	0	46	0	428867584	60	10022
2026-01-29 12:46:02.23	157.84	11.42	-47.1	-48.0	22.0	0.00e+00	0	46	0	436207616	60	9878
2026-01-29 12:46:03.23	157.85	11.51	-47.2	-48.2	22.0	0.00e+00	0	46	0	442499072	60	10019
2026-01-29 12:46:04.24	157.87	11.60	-47.2	-48.1	22.1	0.00e+00	0	46	0	449839104	60	9943
2026-01-29 12:46:05.24	157.88	11.69	-47.2	-48.1	22.0	0.00e+00	0	46	0	457179136	60	9947
2026-01-29 12:46:06.25	157.89	11.79	-47.2	-48.2	21.9	0.00e+00	0	46	0	464519168	60	10048
2026-01-29 12:46:07.26	157.90	11.88	-47.3	-48.2	21.9	0.00e+00	0	46	0	471859200	60	10108
2026-01-29 12:46:08.27	157.91	11.98	-47.2	-48.1	22.0	0.00e+00	0	46	0	479199232	60	9964
2026-01-29 12:46:09.28	157.92	12.07	-46.9	-47.8	22.4	0.00e+00	0	46	0	486539264	60	9632
2026-01-29 12:46:10.28	157.93	12.17	-46.9	-47.8	22.3	0.00e+00	0	46	0	493879296	60	9609
2026-01-29 12:46:11.28	157.94	12.26	-47.0	-47.9	22.2	0.00e+00	0	46	0	500170752	60	9724
2026-01-29 12:46:12.29	157.95	12.36	-47.0	-47.9	22.3	0.00e+00	0	46	0	507510784	60	9689
2026-01-29 12:46:13.30	157.97	12.46	-47.0	-47.9	22.2	0.00e+00	0	46	0	514850816	60	9775
2026-01-29 12:46:14.31	157.98	12.56	-46.8	-47.6	22.5	0.00e+00	0	46	0	523239424	60	9429
2026-01-29 12:46:15.32	157.99	12.65	-47.0	-47.9	22.3	0.00e+00	0	46	0	530579456	60	9701
2026-01-29 12:46:16.32	158.00	12.75	-46.9	-47.8	22.3	0.00e+00	0	46	0	537919488	60	9623
2026-01-29 12:46:17.33	158.01	12.85	-46.8	-47.7	22.4	0.00e+00	0	46	0	544210944	60	9494
2026-01-29 12:46:18.34	158.02	12.95	-46.7	-47.5	22.7	0.00e+00	0	46	0	551550976	60	9276
2026-01-29 12:46:19.34	158.03	13.05	-46.6	-47.5	22.7	0.00e+00	0	46	0	558891008	60	9279
2026-01-29 12:46:20.35	158.05	13.15	-46.7	-47.5	22.6	0.00e+00	0	46	0	566231040	60	9325
2026-01-29 12:46:21.36	158.06	13.25	-46.6	-47.4	22.8	0.00e+00	0	46	0	573571072	60	9205
2026-01-29 12:46:22.36	158.07	13.35	-46.5	-47.3	22.8	0.00e+00	0	46	0	580911104	60	9125
2026-01-29 12:46:23.37	158.08	13.45	-46.6	-47.5	22.8	0.00e+00	0	46	0	588251136	60	9286
2026-01-29 12:46:24.38	158.09	13.55	-46.5	-47.4	22.7	0.00e+00	0	46	0	595591168	60	9173
2026-01-29 12:46:25.38	158.10	13.65	-46.6	-47.4	22.8	0.00e+00	0	46	0	602931200	60	9206
2026-01-29 12:46:26.39	158.12	13.75	-46.6	-47.4	22.8	0.00e+00	0	46	0	609222656	60	9196
2026-01-29 12:46:27.40	158.13	13.86	-46.7	-47.5	22.7	0.00e+00	0	46	0	616562688	60	9310
2026-01-29 12:46:28.40	158.14	13.96	-46.4	-47.2	23.0	0.00e+00	0	46	0	623902720	60	8955
2026-01-29 12:46:29.41	158.15	14.06	-46.4	-47.3	23.1	0.00e+00	0	46	0	632291328	60	9030
2026-01-29 12:46:30.42	158.17	14.17	-46.4	-47.2	23.0	0.00e+00	0	46	0	639631360	60	9024
2026-01-29 12:46:31.42	158.18	14.27	-46.3	-47.2	23.1	0.00e+00	0	46	0	646971392	60	8936
2026-01-29 12:46:32.42	158.19	14.37	-46.3	-47.1	23.0	0.00e+00	0	46	0	653262848	60	8918
2026-01-29 12:46:33.43	158.20	14.48	-46.3	-47.2	23.1	0.00e+00	0	46	0	660602880	60	8927
2026-01-29 12:46:34.44	158.21	14.58	-46.3	-47.1	23.1	0.00e+00	0	46	0	667942912	60	8917
2026-01-29 12:46:35.44	158.23	14.69	-46.3	-47.2	23.1	0.00e+00	0	46	0	675282944	60	8931
2026-01-29 12:46:36.45	158.24	14.80	-46.1	-47.0	23.3	0.00e+00	0	46	0	682622976	60	8721
2026-01-29 12:46:37.46	158.25	14.90	-46.2	-47.0	23.1	0.00e+00	0	46	0	689963008	60	8803
2026-01-29 12:46:38.47	158.27	15.01	-46.2	-47.0	23.2	0.00e+00	0	46	0	697303040	60	8732
2026-01-29 12:46:39.47	158.28	15.12	-46.2	-47.1	23.1	0.00e+00	0	46	0	704643072	60	8824
2026-01-29 12:46:40.47	158.29	15.23	-46.3	-47.1	23.1	0.00e+00	0	46	0	710934528	60	8924
2026-01-29 12:46:41.48	158.30	15.34	-46.2	-47.0	23.2	0.00e+00	0	46	0	718274560	60	8743
2026-01-29 12:46:42.49	158.32	15.45	-46.2	-47.0	23.1	0.00e+00	0	46	0	725614592	60	8812
2026-01-29 12:46:43.50	158.33	15.56	-46.3	-47.2	23.0	0.00e+00	0	46	0	732954624	60	8927
2026-01-29 12:46:44.50	158.34	15.67	-46.3	-47.1	23.2	0.00e+00	0	46	0	740294656	60	8871
2026-01-29 12:46:45.51	158.36	15.78	-46.4	-47.3	23.0	0.00e+00	0	46	0	748683264	60	9048
2026-01-29 12:46:46.52	158.37	15.89	-46.2	-47.0	23.2	0.00e+00	0	46	0	754974720	60	8777
2026-01-29 12:46:47.53	158.38	16.00	-46.3	-47.1	23.1	0.00e+00	0	46	0	762314752	60	8920
2026-01-29 12:46:48.54	158.40	16.11	-46.1	-46.9	23.4	0.00e+00	0	46	0	769654784	60	8648
2026-01-29 12:46:49.55	158.41	16.23	-46.0	-46.8	23.4	0.00e+00	0	46	0	776994816	60	8541
2026-01-29 12:46:50.55	158.42	16.34	-45.9	-46.7	23.5	0.00e+00	0	46	0	784334848	60	8431
2026-01-29 12:46:51.56	158.44	16.45	-46.0	-46.8	23.5	0.00e+00	0	46	0	791674880	60	8551
2026-01-29 12:46:52.57	158.45	16.57	-45.9	-46.7	23.5	0.00e+00	0	46	0	799014912	60	8505
2026-01-29 12:46:53.58	158.46	16.68	-45.9	-46.7	23.5	0.00e+00	0	46	0	806354944	60	8502
2026-01-29 12:46:54.58	158.48	16.80	-45.8	-46.6	23.6	0.00e+00	0	46	0	813694976	60	8333
2026-01-29 12:46:55.58	158.49	16.91	-45.8	-46.6	23.6	0.00e+00	0	46	0	819986432	60	8341
2026-01-29 12:46:56.59	158.51	17.03	-45.7	-46.5	23.7	0.00e+00	0	46	0	827326464	60	8274
2026-01-29 12:46:57.60	158.52	17.15	-45.7	-46.5	23.8	0.00e+00	0	46	0	834666496	60	8241
2026-01-29 12:46:58.60	158.53	17.27	-45.9	-46.7	23.6	0.00e+00	0	46	0	842006528	60	8428
2026-01-29 12:46:59.61	158.55	17.39	-45.7	-46.5	23.8	0.00e+00	0	46	0	850395136	60	8268
2026-01-29 12:47:00.62	158.56	17.50	-45.8	-46.6	23.7	0.00e+00	0	46	0	857735168	60	8375
2026-01-29 12:47:01.62	158.58	17.62	-45.9	-46.6	23.5	0.00e+00	0	46	0	864026624	60	8419
2026-01-29 12:47:02.62	158.59	17.74	-45.8	-46.6	23.7	0.00e+00	0	46	0	871366656	60	8354
2026-01-29 12:47:03.62	158.61	17.86	-45.7	-46.5	23.9	0.00e+00	0	46	0	878706688	60	8267
2026-01-29 12:47:04.63	158.62	17.98	-45.8	-46.6	23.8	0.00e+00	0	46	0	886046720	60	8373
2026-01-29 12:47:05.64	158.64	18.11	-45.7	-46.5	23.8	0.00e+00	0	46	0	893386752	60	8258
2026-01-29 12:47:06.65	158.65	18.23	-45.6	-46.4	23.9	0.00e+00	0	46	0	900726784	60	8174
2026-01-29 12:47:07.65	158.67	18.35	-45.7	-46.5	23.7	0.00e+00	0	46	0	908066816	60	8291
2026-01-29 12:47:08.66	158.68	18.48	-45.7	-46.5	23.8	0.00e+00	0	46	0	915406848	60	8261
2026-01-29 12:47:09.67	158.70	18.60	-45.7	-46.4	23.9	0.00e+00	0	46	0	922746880	60	8224
2026-01-29 12:47:10.68	158.71	18.73	-45.8	-46.5	23.9	0.00e+00	0	46	0	929038336	60	8325
2026-01-29 12:47:11.69	158.73	18.85	-45.5	-46.3	24.0	0.00e+00	0	46	0	936378368	60	8115
2026-01-29 12:47:12.70	158.74	18.98	-45.6	-46.3	24.0	0.00e+00	0	46	0	943718400	60	8120
2026-01-29 12:47:13.71	158.76	19.11	-45.6	-46.4	24.0	0.00e+00	0	46	0	952107008	60	8155
2026-01-29 12:47:14.71	158.77	19.23	-45.6	-46.3	24.1	0.00e+00	0	46	0	959447040	60	8134
2026-01-29 12:47:15.72	158.79	19.36	-45.5	-46.3	24.1	0.00e+00	0	46	0	966787072	60	8095
2026-01-29 12:47:16.72	158.81	19.49	-45.5	-46.2	24.2	0.00e+00	0	46	0	973078528	60	8030
2026-01-29 12:47:17.73	158.82	19.62	-45.4	-46.2	24.3	0.00e+00	0	46	0	980418560	60	7958
2026-01-29 12:47:18.74	158.84	19.75	-45.4	-46.2	24.3	0.00e+00	0	46	0	987758592	60	7964
2026-01-29 12:47:19.74	158.85	19.88	-45.4	-46.1	24.3	0.00e+00	0	46	0	995098624	60	7939
2026-01-29 12:47:20.75	158.87	20.01	-45.3	-46.1	24.2	0.00e+00	0	46	0	1002438656	60	7876
2026-01-29 12:47:21.75	158.89	20.14	-45.3	-46.1	24.3	0.00e+00	0	46	0	1009778688	60	7879
2026-01-29 12:47:22.76	158.90	20.28	-45.4	-46.1	24.5	0.00e+00	0	46	0	1017118720	60	7933
2026-01-29 12:47:23.77	158.92	20.41	-45.2	-45.9	24.5	0.00e+00	0	46	0	1024458752	60	7742
2026-01-29 12:47:24.77	158.94	20.55	-45.2	-45.9	24.6	0.00e+00	0	46	0	1030750208	60	7728
2026-01-29 12:47:25.77	158.95	20.68	-45.1	-45.8	24.7	0.00e+00	0	46	0	1038090240	60	7678
2026-01-29 12:47:26.78	158.97	20.82	-45.0	-45.7	24.8	0.00e+00	0	46	0	1045430272	60	7532
2026-01-29 12:47:27.79	158.99	20.95	-45.2	-45.9	24.7	0.00e+00	0	46	0	1052770304	60	7729
2026-01-29 12:47:28.79	159.01	21.09	-45.0	-45.7	24.7	0.00e+00	0	46	0	1060110336	60	7570
2026-01-29 12:47:29.80	159.02	21.23	-45.0	-45.7	24.7	0.00e+00	0	46	0	1067450368	60	7536
2026-01-29 12:47:30.81	159.04	21.37	-45.0	-45.7	24.7	0.00e+00	0	46	0	1074790400	60	7583
2026-01-29 12:47:31.81	159.06	21.51	-45.2	-45.9	24.6	0.00e+00	0	46	0	1082130432	60	7727
2026-01-29 12:47:32.82	159.08	21.65	-45.1	-45.8	24.7	0.00e+00	0	46	0	1089470464	60	7658
2026-01-29 12:47:33.81	159.09	21.79	-45.1	-45.9	24.6	0.00e+00	0	46	0	1096810496	60	7684
2026-01-29 12:47:34.81	159.11	21.93	-45.2	-46.0	24.5	0.00e+00	0	46	0	1104150528	60	7783
2026-01-29 12:47:35.81	159.13	22.07	-45.4	-46.1	24.5	0.00e+00	0	46	0	1111490560	60	7932
2026-01-29 12:47:36.82	159.15	22.21	-45.1	-45.8	24.7	0.00e+00	0	46	0	1118830592	60	7619
2026-01-29 12:47:37.82	159.17	22.36	-45.1	-45.9	24.6	0.00e+00	0	46	0	1126170624	60	7702
2026-01-29 12:47:38.82	159.18	22.50	-44.9	-45.6	24.8	0.00e+00	0	46	0	1133510656	60	7504
2026-01-29 12:47:39.83	159.20	22.65	-45.1	-45.8	24.7	0.00e+00	0	46	0	1139802112	60	7645
2026-01-29 12:47:40.84	159.22	22.80	-45.1	-45.9	24.7	0.00e+00	0	46	0	1147142144	60	7686
2026-01-29 12:47:41.84	159.24	22.94	-44.9	-45.6	24.9	0.00e+00	0	46	0	1154482176	60	7503
2026-01-29 12:47:42.85	159.26	23.09	-45.1	-45.8	24.9	0.00e+00	0	46	0	1161822208	60	7634
2026-01-29 12:47:43.86	159.28	23.24	-45.1	-45.8	24.8	0.00e+00	0	46	0	1169162240	60	7651
2026-01-29 12:47:44.86	159.30	23.39	-45.1	-45.8	24.9	0.00e+00	0	46	0	1176502272	60	7627
2026-01-29 12:47:45.86	159.32	23.54	-45.1	-45.8	24.9	0.00e+00	0	46	0	1183842304	60	7634
2026-01-29 12:47:46.87	159.34	23.69	-45.0	-45.7	25.0	0.00e+00	0	46	0	1191182336	60	7577
2026-01-29 12:47:47.87	159.36	23.85	-45.1	-45.8	25.0	0.00e+00	0	46	0	1198522368	60	7650
2026-01-29 12:47:48.88	159.38	24.00	-45.2	-45.9	24.8	0.00e+00	0	46	0	1204813824	60	7756
2026-01-29 12:47:49.88	159.40	24.15	-45.1	-45.8	24.9	0.00e+00	0	46	0	1212153856	60	7678
2026-01-29 12:47:50.88	159.42	24.31	-45.3	-46.1	24.9	0.00e+00	0	46	0	1219493888	60	7866
2026-01-29 12:47:51.88	159.44	24.46	-45.1	-45.8	25.0	0.00e+00	0	46	0	1226833920	60	7598
2026-01-29 12:47:52.89	159.46	24.62	-45.1	-45.8	25.0	0.00e+00	0	46	0	1234173952	60	7647
2026-01-29 12:47:53.90	159.48	24.78	-45.2	-45.9	25.0	0.00e+00	0	46	0	1241513984	60	7695
2026-01-29 12:47:54.90	159.50	24.94	-45.3	-46.0	24.9	0.00e+00	0	46	0	1248854016	60	7831
2026-01-29 12:47:55.90	159.52	25.10	-45.2	-45.9	24.9	0.00e+00	0	46	0	1256194048	60	7727
2026-01-29 12:47:56.91	159.54	25.26	-45.3	-46.0	24.9	0.00e+00	0	46	0	1263534080	60	7826
2026-01-29 12:47:57.92	159.56	25.42	-45.4	-46.1	24.8	0.00e+00	0	46	0	1270874112	60	7941
2026-01-29 12:47:58.93	159.59	25.59	-45.4	-46.2	24.8	0.00e+00	0	46	0	1278214144	60	7978
2026-01-29 12:47:59.94	159.61	25.75	-45.4	-46.2	24.8	0.00e+00	0	46	0	1285554176	60	7974
2026-01-29 12:48:00.95	159.63	25.92	-45.3	-46.0	25.0	0.00e+00	0	46	0	1292894208	60	7810
2026-01-29 12:48:01.95	159.65	26.09	-45.1	-45.8	25.1	0.00e+00	0	46	0	1300234240	60	7673
2026-01-29 12:48:02.96	159.68	26.25	-45.0	-45.7	25.1	0.00e+00	0	46	0	1306525696	60	7513
2026-01-29 12:48:03.96	159.70	26.42	-45.0	-45.7	25.2	0.00e+00	0	46	0	1313865728	60	7559
2026-01-29 12:48:04.97	159.72	26.59	-45.1	-45.8	25.3	0.00e+00	0	46	0	1321205760	60	7610
2026-01-29 12:48:05.97	159.74	26.76	-44.9	-45.5	25.5	0.00e+00	0	46	0	1328545792	60	7422
2026-01-29 12:48:06.97	159.77	26.93	-44.9	-45.6	25.4	0.00e+00	0	46	0	1335885824	60	7482
2026-01-29 12:48:07.98	159.79	27.10	-44.9	-45.6	25.4	0.00e+00	0	46	0	1343225856	60	7468
2026-01-29 12:48:08.98	159.81	27.28	-44.9	-45.5	25.4	0.00e+00	0	46	0	1350565888	60	7417
2026-01-29 12:48:09.98	159.84	27.45	-45.1	-45.8	25.2	0.00e+00	0	46	0	1357905920	60	7621
2026-01-29 12:48:10.99	159.86	27.63	-44.9	-45.6	25.4	0.00e+00	0	46	0	1365245952	60	7491
2026-01-29 12:48:12.00	159.89	27.81	-44.9	-45.6	25.5	0.00e+00	0	46	0	1371537408	60	7462
2026-01-29 12:48:13.01	159.91	27.98	-44.9	-45.6	25.4	0.00e+00	0	46	0	1379926016	60	7481
2026-01-29 12:48:14.01	159.94	28.16	-45.0	-45.7	25.4	0.00e+00	0	46	0	1387266048	60	7532
2026-01-29 12:48:15.02	159.96	28.34	-44.7	-45.4	25.6	0.00e+00	0	46	0	1394606080	60	7316
2026-01-29 12:48:16.03	159.99	28.53	-44.9	-45.6	25.4	0.00e+00	0	46	0	1401946112	60	7481
2026-01-29 12:48:17.04	160.01	28.71	-45.0	-45.7	25.5	0.00e+00	0	46	0	1409286144	60	7529
2026-01-29 12:48:18.04	160.04	28.89	-45.0	-45.7	25.5	0.00e+00	0	46	0	1415577600	60	7561
2026-01-29 12:48:19.05	160.06	29.08	-45.1	-45.8	25.4	0.00e+00	0	46	0	1422917632	60	7614
2026-01-29 12:48:20.06	160.09	29.27	-45.2	-45.9	25.4	0.00e+00	0	46	0	1430257664	60	7684
2026-01-29 12:48:21.06	160.12	29.45	-45.3	-45.9	25.4	0.00e+00	0	46	0	1437597696	60	7771
2026-01-29 12:48:22.07	160.14	29.64	-45.3	-46.0	25.4	0.00e+00	0	46	0	1444937728	60	7821
2026-01-29 12:48:23.08	160.17	29.84	-45.2	-45.9	25.4	0.00e+00	0	46	0	1452277760	60	7772
2026-01-29 12:48:24.08	160.20	30.03	-45.3	-46.0	25.5	0.00e+00	0	46	0	1459617792	60	7828
2026-01-29 12:48:25.08	160.23	30.22	-45.3	-46.0	25.5	0.00e+00	0	46	0	1466957824	60	7843
2026-01-29 12:48:26.08	160.25	30.41	-45.5	-46.2	25.5	0.00e+00	0	46	0	1473249280	60	7979
2026-01-29 12:48:27.08	160.28	30.61	-45.3	-46.0	25.7	0.00e+00	0	46	0	1480589312	60	7819
2026-01-29 12:48:28.09	160.31	30.80	-45.4	-46.1	25.6	0.00e+00	0	46	0	1487929344	60	7938
2026-01-29 12:48:29.10	160.34	31.00	-45.4	-46.1	25.5	0.00e+00	0	46	0	1495269376	60	7905
2026-01-29 12:48:30.10	160.37	31.20	-45.4	-46.1	25.6	0.00e+00	0	46	0	1502609408	60	7867
2026-01-29 12:48:31.11	160.40	31.40	-45.4	-46.1	25.6	0.00e+00	0	46	0	1510998016	60	7868
2026-01-29 12:48:32.12	160.43	31.61	-45.4	-46.0	25.7	0.00e+00	0	46	0	1517289472	60	7844
2026-01-29 12:48:33.12	160.46	31.81	-45.1	-45.8	25.8	0.00e+00	0	46	0	1524629504	60	7596
2026-01-29 12:48:34.13	160.49	32.01	-45.1	-45.7	25.9	0.00e+00	0	46	0	1531969536	60	7584
2026-01-29 12:48:35.14	160.52	32.22	-45.2	-45.8	25.7	0.00e+00	0	46	0	1539309568	60	7669
2026-01-29 12:48:36.15	160.55	32.43	-45.3	-45.9	25.7	0.00e+00	0	46	0	1546649600	60	7743
2026-01-29 12:48:37.15	160.58	32.64	-45.1	-45.8	25.7	0.00e+00	0	46	0	1553989632	60	7616
2026-01-29 12:48:38.16	160.62	32.85	-45.3	-45.9	25.8	0.00e+00	0	46	0	1561329664	60	7758
2026-01-29 12:48:39.17	160.65	33.06	-45.1	-45.8	25.7	0.00e+00	0	46	0	1568669696	60	7646
2026-01-29 12:48:40.18	160.68	33.28	-45.1	-45.8	25.7	0.00e+00	0	46	0	1576009728	60	7606
2026-01-29 12:48:41.18	160.71	33.49	-45.2	-45.9	25.7	0.00e+00	0	46	0	1582301184	60	7748
2026-01-29 12:48:42.19	160.75	33.71	-45.4	-46.1	25.6	0.00e+00	0	46	0	1589641216	60	7908
2026-01-29 12:48:43.19	160.78	33.93	-45.3	-46.0	25.6	0.00e+00	0	46	0	1596981248	60	7827
2026-01-29 12:48:44.20	160.82	34.15	-45.5	-46.2	25.6	0.00e+00	0	46	0	1604321280	60	8008
2026-01-29 12:48:45.21	160.85	34.37	-45.4	-46.1	25.5	0.00e+00	0	46	0	1612709888	60	7910
2026-01-29 12:48:46.22	160.89	34.60	-45.3	-46.0	25.4	0.00e+00	0	46	0	1620049920	60	7819
2026-01-29 12:48:47.23	160.92	34.82	-45.6	-46.3	25.3	0.00e+00	0	46	0	1626341376	60	8061
2026-01-29 12:48:48.23	160.96	35.05	-45.6	-46.3	25.4	0.00e+00	0	46	0	1633681408	60	8080
2026-01-29 12:48:49.24	160.99	35.28	-45.9	-46.6	25.3	0.00e+00	0	46	0	1641021440	60	8332
2026-01-29 12:48:50.24	161.03	35.50	-45.8	-46.4	25.4	0.00e+00	0	46	0	1648361472	60	8229
2026-01-29 12:48:51.25	161.07	35.74	-45.6	-46.3	25.6	0.00e+00	0	46	0	1655701504	60	8052
2026-01-29 12:48:52.26	161.11	35.97	-45.6	-46.3	25.6	0.00e+00	0	46	0	1663041536	60	8051
2026-01-29 12:48:53.27	161.14	36.21	-45.6	-46.3	25.5	0.00e+00	0	46	0	1670381568	60	8117
2026-01-29 12:48:54.27	161.18	36.44	-45.6	-46.3	25.6	0.00e+00	0	46	0	1677721600	60	8105
2026-01-29 12:48:55.28	161.22	36.68	-45.6	-46.2	25.7	0.00e+00	0	46	0	1685061632	60	8016
2026-01-29 12:48:56.29	161.26	36.92	-45.4	-46.1	25.7	0.00e+00	0	46	0	1691353088	60	7923
2026-01-29 12:48:57.29	161.30	37.16	-45.5	-46.2	25.6	0.00e+00	0	46	0	1698693120	60	7979
2026-01-29 12:48:58.30	161.34	37.41	-45.8	-46.5	25.4	0.00e+00	0	46	0	1706033152	60	8287
2026-01-29 12:48:59.31	161.39	37.65	-45.8	-46.5	25.4	0.00e+00	0	46	0	1714421760	60	8278
2026-01-29 12:49:00.32	161.43	37.90	-45.9	-46.6	25.3	0.00e+00	0	46	0	1721761792	60	8392
2026-01-29 12:49:01.32	161.47	38.15	-46.0	-46.7	25.3	0.00e+00	0	46	0	1729101824	60	8510
2026-01-29 12:49:02.32	161.51	38.40	-46.1	-46.9	25.2	0.00e+00	0	46	0	1735393280	60	8646
2026-01-29 12:49:03.33	161.56	38.65	-46.2	-46.9	25.1	0.00e+00	0	46	0	1742733312	60	8652
2026-01-29 12:49:04.33	161.60	38.90	-46.0	-46.7	25.4	0.00e+00	0	46	0	1750073344	60	8429
2026-01-29 12:49:05.34	161.65	39.16	-46.0	-46.7	25.4	0.00e+00	0	46	0	1757413376	60	8435
2026-01-29 12:49:06.35	161.69	39.42	-45.8	-46.5	25.5	0.00e+00	0	46	0	1764753408	60	8270
2026-01-29 12:49:07.36	161.74	39.68	-45.9	-46.6	25.4	0.00e+00	0	46	0	1772093440	60	8342
2026-01-29 12:49:08.37	161.79	39.94	-46.1	-46.8	25.3	0.00e+00	0	46	0	1779433472	60	8585
2026-01-29 12:49:09.38	161.84	40.21	-46.1	-46.8	25.4	0.00e+00	0	46	0	1786773504	60	8580
2026-01-29 12:49:10.38	161.88	40.47	-46.2	-46.9	25.4	0.00e+00	0	46	0	1793064960	60	8623
2026-01-29 12:49:11.39	161.93	40.74	-46.2	-46.9	25.3	0.00e+00	0	46	0	1800404992	60	8663
2026-01-29 12:49:12.39	161.98	41.01	-46.1	-46.8	25.3	0.00e+00	0	46	0	1807745024	60	8582
2026-01-29 12:49:13.40	162.04	41.28	-46.1	-46.8	25.4	0.00e+00	0	46	0	1815085056	60	8554
2026-01-29 12:49:14.40	162.09	41.56	-46.1	-46.8	25.3	0.00e+00	0	46	0	1822425088	60	8597
2026-01-29 12:49:15.41	162.14	41.83	-46.3	-47.0	25.3	0.00e+00	0	46	0	1830813696	60	8774
2026-01-29 12:49:16.42	162.19	42.11	-46.3	-47.0	25.3	0.00e+00	0	46	0	1837105152	60	8741
2026-01-29 12:49:17.43	162.25	42.39	-46.3	-47.0	25.4	0.00e+00	0	46	0	1844445184	60	8741
2026-01-29 12:49:18.44	162.30	42.68	-46.4	-47.1	25.2	0.00e+00	0	46	0	1851785216	60	8868
2026-01-29 12:49:19.45	162.36	42.96	-46.5	-47.2	25.1	0.00e+00	0	46	0	1859125248	60	8956
2026-01-29 12:49:20.45	162.42	43.25	-46.6	-47.3	25.2	0.00e+00	0	46	0	1866465280	60	9058
2026-01-29 12:49:21.46	162.47	43.54	-46.5	-47.2	25.3	0.00e+00	0	46	0	1873805312	60	8969
2026-01-29 12:49:22.47	162.53	43.83	-46.3	-47.0	25.3	0.00e+00	0	46	0	1881145344	60	8799
2026-01-29 12:49:23.48	162.59	44.12	-46.3	-47.0	25.5	0.00e+00	0	46	0	1888485376	60	8738
2026-01-29 12:49:24.48	162.65	44.42	-46.3	-47.0	25.4	0.00e+00	0	46	0	1895825408	60	8743
2026-01-29 12:49:25.48	162.72	44.71	-46.4	-47.1	25.3	0.00e+00	0	46	0	1902116864	60	8849
2026-01-29 12:49:26.49	162.78	45.01	-46.7	-47.4	25.1	0.00e+00	0	46	0	1909456896	60	9201
2026-01-29 12:49:27.49	162.84	45.31	-47.1	-47.8	24.8	0.00e+00	0	46	0	1916796928	60	9632
2026-01-29 12:49:28.50	162.91	45.62	-47.1	-47.8	24.8	0.00e+00	0	46	0	1924136960	60	9606
2026-01-29 12:49:29.51	162.98	45.93	-47.4	-48.1	24.6	0.00e+00	0	46	0	1932525568	60	9968
2026-01-29 12:49:30.52	163.05	46.24	-47.6	-48.4	24.4	0.00e+00	0	46	0	1939865600	60	10257
2026-01-29 12:49:31.52	163.11	46.55	-47.7	-48.4	24.4	0.00e+00	0	46	0	1946157056	60	10284
2026-01-29 12:49:32.53	163.18	46.86	-47.9	-48.6	24.2	0.00e+00	0	46	0	1953497088	60	10597
2026-01-29 12:49:33.54	163.26	47.18	-47.8	-48.5	24.2	0.00e+00	0	46	0	1960837120	60	10429
2026-01-29 12:49:34.54	163.33	47.49	-47.7	-48.5	24.3	0.00e+00	0	46	0	1968177152	60	10406
2026-01-29 12:49:35.55	163.41	47.81	-47.6	-48.3	24.4	0.00e+00	0	46	0	1975517184	60	10192
2026-01-29 12:49:36.56	163.48	48.14	-47.4	-48.1	24.6	0.00e+00	0	46	0	1982857216	60	9939
2026-01-29 12:49:37.57	163.56	48.46	-47.6	-48.3	24.4	0.00e+00	0	46	0	1990197248	60	10233
2026-01-29 12:49:38.57	163.64	48.79	-47.6	-48.3	24.4	0.00e+00	0	46	0	1997537280	60	10236
2026-01-29 12:49:39.58	163.72	49.12	-47.7	-48.4	24.3	0.00e+00	0	46	0	2003828736	60	10330
2026-01-29 12:49:40.59	163.80	49.45	-47.9	-48.7	24.0	0.00e+00	0	46	0	2011168768	60	10653
2026-01-29 12:49:41.59	163.89	49.79	-48.3	-49.1	23.9	0.00e+00	0	46	0	2018508800	60	11119
2026-01-29 12:49:42.60	163.97	50.13	-48.1	-48.9	24.0	0.00e+00	0	46	0	2025848832	60	10868
2026-01-29 12:49:43.61	164.06	50.47	-48.3	-49.1	24.1	0.00e+00	0	46	0	2034237440	60	11141
2026-01-29 12:49:44.61	164.15	50.81	-47.8	-48.6	24.3	0.00e+00	0	46	0	2041577472	60	10500
2026-01-29 12:49:45.62	164.24	51.15	-47.9	-48.7	24.1	0.00e+00	0	46	0	2047868928	60	10666
2026-01-29 12:49:46.62	164.34	51.50	-47.8	-48.6	24.1	0.00e+00	0	46	0	2055208960	60	10508
2026-01-29 12:49:47.63	164.43	51.85	-47.9	-48.7	24.1	0.00e+00	0	46	0	2062548992	60	10643
2026-01-29 12:49:48.63	164.53	52.20	-47.6	-48.4	24.0	0.00e+00	0	46	0	2069889024	60	10264
2026-01-29 12:49:49.63	164.63	52.55	-47.8	-48.5	24.0	0.00e+00	0	46	0	2077229056	60	10463
2026-01-29 12:49:50.64	164.73	52.91	-47.9	-48.7	24.2	0.00e+00	0	46	0	2084569088	60	10644
2026-01-29 12:49:51.65	164.84	53.27	-48.0	-48.7	24.1	0.00e+00	0	46	0	2091909120	60	10674
2026-01-29 12:49:52.66	164.95	53.63	-48.1	-48.9	23.9	0.00e+00	0	46	0	2099249152	60	10889
2026-01-29 12:49:53.66	165.06	53.99	-48.0	-48.8	23.7	0.00e+00	0	46	0	2106589184	60	10790
2026-01-29 12:49:54.67	165.17	54.36	-48.0	-48.8	23.8	0.00e+00	0	46	0	2112880640	60	10734
2026-01-29 12:49:55.68	165.29	54.73	-48.1	-48.9	24.0	0.00e+00	0	46	0	2120220672	60	10878
2026-01-29 12:49:56.69	165.41	55.11	-48.1	-48.9	23.9	0.00e+00	0	46	0	2127560704	60	10921
2026-01-29 12:49:57.69	165.53	55.48	-48.2	-49.0	23.8	0.00e+00	0	46	0	2134900736	60	11015
2026-01-29 12:49:58.70	165.66	55.86	-48.4	-49.2	23.6	0.00e+00	0	46	0	2142240768	60	11248
2026-01-29 12:49:59.71	165.79	56.24	-48.6	-49.5	22.8	0.00e+00	0	46	0	2150629376	60	11643
2026-01-29 12:50:00.72	165.92	56.62	-48.6	-49.4	23.5	0.00e+00	0	46	0	2156920832	60	11617
2026-01-29 12:50:01.73	166.05	57.01	-48.5	-49.3	23.7	0.00e+00	0	46	0	2164260864	60	11367
2026-01-29 12:50:02.73	166.19	57.39	-48.3	-49.1	23.7	0.00e+00	0	46	0	2171600896	60	11210
2026-01-29 12:50:03.73	166.34	57.78	-48.1	-48.9	24.1	0.00e+00	0	46	0	2178940928	60	10871
2026-01-29 12:50:04.73	166.48	58.17	-48.2	-49.0	23.9	0.00e+00	0	46	0	2186280960	60	10987
2026-01-29 12:50:05.73	166.63	58.56	-47.9	-48.6	24.3	0.00e+00	0	46	0	2193620992	60	10599
2026-01-29 12:50:06.74	166.79	58.96	-48.1	-48.9	24.1	0.00e+00	0	46	0	2200961024	60	10874
2026-01-29 12:50:07.75	166.95	59.36	-48.4	-49.2	23.8	0.00e+00	0	46	0	2208301056	60	11325
2026-01-29 12:50:08.75	167.12	59.76	-48.6	-49.4	23.7	0.00e+00	0	46	0	2215641088	60	11512
2026-01-29 12:50:09.76	167.29	60.16	-48.7	-49.5	23.5	0.00e+00	0	46	0	2221932544	60	11673
2026-01-29 12:50:10.76	167.46	60.56	-48.2	-49.0	24.0	0.00e+00	0	46	0	2229272576	60	11013
2026-01-29 12:50:11.77	167.65	60.97	-47.9	-48.6	24.4	0.00e+00	0	46	0	2236612608	60	10549
2026-01-29 12:50:12.77	167.83	61.38	-47.7	-48.4	24.5	0.00e+00	0	46	0	2243952640	60	10283
2026-01-29 12:50:13.78	168.03	61.80	-47.8	-48.5	24.4	0.00e+00	0	46	0	2251292672	60	10434
2026-01-29 12:50:14.79	168.23	62.21	-48.1	-48.9	23.9	0.00e+00	0	46	0	2258632704	60	10881
2026-01-29 12:50:15.79	168.44	62.63	-47.6	-48.3	23.9	0.00e+00	0	46	0	2265972736	60	10200
2026-01-29 12:50:16.79	168.65	63.05	-47.4	-48.1	24.7	0.00e+00	0	46	0	2273312768	60	9928
2026-01-29 12:50:17.80	168.87	63.47	-47.4	-48.2	24.6	0.00e+00	0	46	0	2279604224	60	10021
2026-01-29 12:50:18.80	169.10	63.89	-47.2	-48.0	24.9	0.00e+00	0	46	0	2286944256	60	9790
2026-01-29 12:50:19.80	169.34	64.31	-47.0	-47.7	24.9	0.00e+00	0	46	0	2294284288	60	9533
2026-01-29 12:50:20.81	169.59	64.74	-46.7	-47.5	25.0	0.00e+00	0	46	0	2302672896	60	9262
2026-01-29 12:50:21.81	169.84	65.17	-46.7	-47.5	25.1	0.00e+00	0	46	0	2310012928	60	9264
2026-01-29 12:50:22.82	170.11	65.61	-46.9	-47.7	25.1	0.00e+00	0	46	0	2317352960	60	9457
2026-01-29 12:50:23.82	170.38	66.04	-47.1	-47.9	24.7	0.00e+00	0	46	0	2323644416	60	9689
2026-01-29 12:50:24.83	170.67	66.47	-46.9	-47.6	24.8	0.00e+00	0	46	0	2330984448	60	9396
2026-01-29 12:50:25.83	170.97	66.91	-46.7	-47.4	25.5	0.00e+00	0	46	0	2338324480	60	9147
2026-01-29 12:50:26.84	171.29	67.35	-46.7	-47.4	25.2	0.00e+00	0	46	0	2345664512	60	9219
2026-01-29 12:50:27.85	171.61	67.79	-46.7	-47.4	25.3	0.00e+00	0	46	0	2353004544	60	9152
2026-01-29 12:50:28.85	171.95	68.23	-46.6	-47.3	25.4	0.00e+00	0	46	0	2360344576	60	9095
2026-01-29 12:50:29.86	172.31	68.68	-46.6	-47.3	25.2	0.00e+00	0	46	0	2367684608	60	9106
2026-01-29 12:50:30.86	172.68	69.12	-46.5	-47.3	24.9	0.00e+00	0	46	0	2375024640	60	9046
2026-01-29 12:50:31.87	173.07	69.57	-46.2	-46.9	25.3	0.00e+00	0	46	0	2382364672	60	8655
2026-01-29 12:50:32.88	173.48	70.02	-46.4	-47.1	25.3	0.00e+00	0	46	0	2388656128	60	8870
2026-01-29 12:50:33.88	173.90	70.47	-46.6	-47.3	25.1	0.00e+00	0	46	0	2395996160	60	9046
2026-01-29 12:50:34.89	174.35	70.92	-46.9	-47.6	24.7	0.00e+00	0	46	0	2403336192	60	9445
2026-01-29 12:50:35.89	174.82	71.37	-47.2	-47.9	24.4	0.00e+00	0	46	0	2410676224	60	9769
2026-01-29 12:50:36.90	175.32	71.82	-47.3	-48.1	24.5	0.00e+00	0	46	0	2418016256	60	9945
2026-01-29 12:50:37.90	175.84	72.27	-47.3	-48.1	24.4	0.00e+00	0	46	0	2425356288	60	9992
2026-01-29 12:50:38.91	176.39	72.72	-47.6	-48.4	24.3	0.00e+00	0	46	0	2432696320	60	10301
2026-01-29 12:50:39.91	176.97	73.17	-47.2	-48.0	24.7	0.00e+00	0	46	0	2440036352	60	9878
2026-01-29 12:50:40.91	177.58	73.62	-47.2	-48.0	24.7	0.00e+00	0	46	0	2447376384	60	9795
2026-01-29 12:50:41.92	178.24	74.08	-46.8	-47.6	24.9	0.00e+00	0	46	0	2454716416	60	9369
2026-01-29 12:50:42.93	178.93	74.53	-46.9	-47.7	24.8	0.00e+00	0	46	0	2462056448	60	9535
2026-01-29 12:50:43.94	179.67	74.99	-46.9	-47.7	24.7	0.00e+00	0	46	0	2469396480	60	9508
2026-01-29 12:50:44.95	180.46	75.44	-46.6	-47.4	24.9	0.00e+00	0	46	0	2476736512	60	9146
2026-01-29 12:50:45.96	181.29	75.89	-46.4	-47.3	25.1	0.00e+00	0	46	0	2484076544	60	9052
2026-01-29 12:50:46.96	182.18	76.34	-46.2	-47.0	25.1	0.00e+00	0	46	0	2490368000	60	8794
2026-01-29 12:50:47.97	183.13	76.78	-45.7	-46.6	25.0	0.00e+00	0	46	0	2497708032	60	8344
2026-01-29 12:50:48.98	184.16	77.23	-45.6	-46.4	25.4	0.00e+00	0	46	0	2505048064	60	8212
2026-01-29 12:50:49.98	185.25	77.67	-45.6	-46.5	25.6	0.00e+00	0	46	0	2512388096	60	8239
2026-01-29 12:50:50.99	186.43	78.10	-45.5	-46.4	25.7	0.00e+00	0	46	0	2519728128	60	8161
2026-01-29 12:50:51.99	187.69	78.53	-45.3	-46.2	25.7	0.00e+00	0	46	0	2527068160	60	7962
2026-01-29 12:50:53.00	189.07	78.96	-45.4	-46.3	25.5	0.00e+00	0	46	0	2534408192	60	8128
2026-01-29 12:50:54.00	190.54	79.38	-45.6	-46.6	25.5	0.00e+00	0	46	0	2541748224	60	8362
2026-01-29 12:50:55.00	192.14	79.80	-45.8	-46.8	25.3	0.00e+00	0	46	0	2549088256	60	8585
2026-01-29 12:50:56.00	193.87	80.20	-45.4	-46.4	25.6	0.00e+00	0	46	0	2555379712	60	8154
2026-01-29 12:50:57.01	195.77	80.60	-45.1	-46.1	25.6	0.00e+00	0	46	0	2563768320	60	7916
2026-01-29 12:50:58.01	197.82	80.99	-45.1	-46.2	25.4	0.00e+00	0	46	0	2571108352	60	7962
2026-01-29 12:50:59.02	200.07	81.37	-45.1	-46.3	25.3	0.00e+00	0	46	0	2578448384	60	8059
2026-01-29 12:51:00.03	202.54	81.74	-44.9	-46.0	25.5	0.00e+00	0	46	0	2585788416	60	7811
2026-01-29 12:51:01.04	205.22	82.08	-45.0	-46.0	25.5	0.00e+00	0	46	0	2593128448	60	7839
2026-01-29 12:51:02.04	208.12	82.41	-44.9	-46.0	25.6	0.00e+00	0	46	0	2599419904	60	7792
2026-01-29 12:51:03.05	211.31	82.72	-44.9	-46.0	25.5	0.00e+00	0	46	0	2606759936	60	7804
2026-01-29 12:51:04.05	214.73	83.01	-45.1	-46.3	25.4	0.00e+00	0	46	0	2614099968	60	8065
2026-01-29 12:51:05.05	218.43	83.26	-45.2	-46.4	25.2	0.00e+00	0	46	0	2621440000	60	8210
2026-01-29 12:51:06.05	222.41	83.49	-45.2	-46.3	25.4	0.00e+00	0	46	0	2628780032	60	8066
2026-01-29 12:51:07.06	226.71	83.69	-45.1	-46.3	25.2	0.00e+00	0	46	0	2636120064	60	8048
2026-01-29 12:51:08.07	231.25	83.85	-45.1	-46.2	25.3	0.00e+00	0	46	0	2643460096	60	7994
2026-01-29 12:51:09.07	235.95	83.96	-45.1	-46.2	25.4	0.00e+00	0	46	0	2650800128	60	7979
2026-01-29 12:51:10.07	240.81	84.04	-45.3	-46.4	25.4	0.00e+00	0	46	0	2658140160	60	8182
2026-01-29 12:51:11.08	245.81	84.07	-45.6	-46.6	25.1	0.00e+00	0	46	0	2664431616	60	8373
2026-01-29 12:51:12.08	250.77	84.06	-45.2	-46.2	25.3	0.00e+00	0	46	0	2671771648	60	8017
2026-01-29 12:51:13.08	255.68	84.00	-45.1	-46.0	25.4	0.00e+00	0	46	0	2679111680	60	7857
2026-01-29 12:51:14.09	260.51	83.90	-45.0	-45.8	25.8	0.00e+00	0	46	0	2686451712	60	7673
2026-01-29 12:51:15.09	265.11	83.76	-45.0	-45.9	25.7	0.00e+00	0	46	0	2693791744	60	7727
2026-01-29 12:51:16.10	269.51	83.59	-45.3	-46.1	25.5	0.00e+00	0	46	0	2701131776	60	7940
2026-01-29 12:51:17.11	273.66	83.37	-45.5	-46.4	25.4	0.00e+00	0	46	0	2708471808	60	8195
2026-01-29 12:51:18.12	277.52	83.12	-45.5	-46.3	25.4	0.00e+00	0	46	0	2715811840	60	8103
2026-01-29 12:51:19.13	281.11	82.85	-45.4	-46.2	25.6	0.00e+00	0	46	0	2723151872	60	7999
2026-01-29 12:51:20.13	284.38	82.55	-45.2	-46.0	25.9	0.00e+00	0	46	0	2730491904	60	7822
2026-01-29 12:51:21.14	287.41	82.23	-45.0	-45.9	26.0	0.00e+00	0	46	0	2737831936	60	7704
2026-01-29 12:51:22.15	290.20	81.89	-45.0	-45.9	25.9	0.00e+00	0	46	0	2745171968	60	7733
2026-01-29 12:51:23.16	292.75	81.53	-45.0	-45.9	25.8	0.00e+00	0	46	0	2752512000	60	7760
2026-01-29 12:51:24.16	295.07	81.16	-44.8	-45.8	25.9	0.00e+00	0	46	0	2759852032	60	7641
2026-01-29 12:51:25.17	297.22	80.77	-44.8	-45.8	25.9	0.00e+00	0	46	0	2766143488	60	7666
2026-01-29 12:51:26.17	299.17	80.38	-44.5	-45.5	26.1	0.00e+00	0	46	0	2773483520	60	7415
2026-01-29 12:51:27.18	300.98	79.98	-44.4	-45.4	26.4	0.00e+00	0	46	0	2780823552	60	7318
2026-01-29 12:51:28.19	302.65	79.56	-44.5	-45.5	26.3	0.00e+00	0	46	0	2788163584	60	7355
2026-01-29 12:51:29.20	304.19	79.14	-44.4	-45.5	26.3	0.00e+00	0	46	0	2795503616	60	7360
2026-01-29 12:51:30.20	305.59	78.72	-44.7	-45.7	25.9	0.00e+00	0	46	0	2802843648	60	7573
2026-01-29 12:51:31.21	306.91	78.29	-44.6	-45.6	26.1	0.00e+00	0	46	0	2810183680	60	7478
2026-01-29 12:51:32.22	308.13	77.85	-44.6	-45.5	26.0	0.00e+00	0	46	0	2817523712	60	7388
2026-01-29 12:51:33.22	309.25	77.41	-44.9	-45.8	25.8	0.00e+00	0	46	0	2824863744	60	7606
2026-01-29 12:51:34.23	310.30	76.97	-45.2	-46.1	25.3	0.00e+00	0	46	0	2832203776	60	7909
2026-01-29 12:51:35.24	311.29	76.52	-45.5	-46.4	25.3	0.00e+00	0	46	0	2839543808	60	8167
2026-01-29 12:51:36.24	312.20	76.08	-45.5	-46.3	25.3	0.00e+00	0	46	0	2846883840	60	8126
2026-01-29 12:51:37.25	313.06	75.63	-45.8	-46.7	24.8	0.00e+00	0	46	0	2854223872	60	8440
2026-01-29 12:51:38.26	313.86	75.18	-46.0	-46.9	24.7	0.00e+00	0	46	0	2861563904	60	8672
2026-01-29 12:51:39.27	314.62	74.72	-45.7	-46.7	25.0	0.00e+00	0	46	0	2868903936	60	8433
2026-01-29 12:51:40.28	315.33	74.27	-45.6	-46.5	25.1	0.00e+00	0	46	0	2875195392	60	8272
2026-01-29 12:51:41.28	316.00	73.82	-45.8	-46.7	25.1	0.00e+00	0	46	0	2882535424	60	8432
2026-01-29 12:51:42.28	316.62	73.37	-46.4	-47.3	24.6	0.00e+00	0	46	0	2889875456	60	9046
2026-01-29 12:51:43.29	317.22	72.92	-46.8	-47.7	24.3	0.00e+00	0	46	0	2897215488	60	9509
2026-01-29 12:51:44.29	317.78	72.47	-46.9	-47.7	24.4	0.00e+00	0	46	0	2904555520	60	9519
2026-01-29 12:51:45.30	318.32	72.02	-46.8	-47.5	24.6	0.00e+00	0	46	0	2911895552	60	9316
2026-01-29 12:51:46.30	318.82	71.57	-47.0	-47.8	24.5	0.00e+00	0	46	0	2919235584	60	9570
2026-01-29 12:51:47.31	319.30	71.11	-47.1	-47.9	24.4	0.00e+00	0	46	0	2926575616	60	9735
2026-01-29 12:51:48.32	319.76	70.66	-47.2	-48.1	24.2	0.00e+00	0	46	0	2933915648	60	9902
2026-01-29 12:51:49.33	320.20	70.21	-47.1	-48.0	24.2	0.00e+00	0	46	0	2941255680	60	9802
2026-01-29 12:51:50.34	320.62	69.76	-47.0	-47.8	24.6	0.00e+00	0	46	0	2948595712	60	9616
2026-01-29 12:51:51.35	321.02	69.31	-46.6	-47.4	24.9	0.00e+00	0	46	0	2955935744	60	9158
2026-01-29 12:51:52.36	321.40	68.87	-46.5	-47.2	25.0	0.00e+00	0	46	0	2963275776	60	9026
2026-01-29 12:51:53.36	321.76	68.43	-46.4	-47.1	25.3	0.00e+00	0	46	0	2970615808	60	8902
2026-01-29 12:51:54.37	322.10	67.98	-46.3	-47.1	25.4	0.00e+00	0	46	0	2976907264	60	8854
2026-01-29 12:51:55.38	322.44	67.54	-46.2	-47.0	25.5	0.00e+00	0	46	0	2984247296	60	8808
2026-01-29 12:51:56.39	322.75	67.10	-46.1	-46.9	25.6	0.00e+00	0	46	0	2991587328	60	8677
2026-01-29 12:51:57.40	323.06	66.66	-45.9	-46.7	25.7	0.00e+00	0	46	0	2998927360	60	8433
2026-01-29 12:51:58.40	323.35	66.23	-45.9	-46.7	25.6	0.00e+00	0	46	0	3006267392	60	8469
2026-01-29 12:51:59.40	323.63	65.79	-46.1	-47.0	25.3	0.00e+00	0	46	0	3013607424	60	8757
2026-01-29 12:52:00.41	323.90	65.36	-46.2	-47.2	25.2	0.00e+00	0	46	0	3020947456	60	8936
2026-01-29 12:52:01.41	324.16	64.93	-46.3	-47.2	25.3	0.00e+00	0	46	0	3028287488	60	9020
2026-01-29 12:52:02.42	324.41	64.50	-46.4	-47.3	25.2	0.00e+00	0	46	0	3035627520	60	9077
2026-01-29 12:52:03.43	324.66	64.08	-46.5	-47.3	25.0	0.00e+00	0	46	0	3042967552	60	9123
2026-01-29 12:52:04.43	324.89	63.65	-46.5	-47.3	25.1	0.00e+00	0	46	0	3050307584	60	9114
2026-01-29 12:52:05.43	325.11	63.23	-46.6	-47.3	25.0	0.00e+00	0	46	0	3057647616	60	9120
2026-01-29 12:52:06.44	325.33	62.81	-46.8	-47.6	24.8	0.00e+00	0	46	0	3064987648	60	9372
2026-01-29 12:52:07.45	325.54	62.39	-47.0	-47.8	24.2	0.00e+00	0	46	0	3072327680	60	9673
2026-01-29 12:52:08.46	325.75	61.98	-47.1	-47.9	24.4	0.00e+00	0	46	0	3079667712	60	9756
2026-01-29 12:52:09.46	325.94	61.57	-47.3	-48.2	24.1	0.00e+00	0	46	0	3085959168	60	10040
2026-01-29 12:52:10.47	326.13	61.15	-47.5	-48.4	24.0	0.00e+00	0	46	0	3093299200	60	10333
2026-01-29 12:52:11.48	326.32	60.74	-47.6	-48.5	23.8	0.00e+00	0	46	0	3100639232	60	10380
2026-01-29 12:52:12.49	326.50	60.34	-48.0	-48.9	23.5	0.00e+00	0	46	0	3107979264	60	10874
2026-01-29 12:52:13.50	326.67	59.93	-48.1	-49.1	23.3	0.00e+00	0	46	0	3115319296	60	11125
2026-01-29 12:52:14.50	326.84	59.53	-48.0	-48.9	23.4	0.00e+00	0	46	0	3122659328	60	10898
2026-01-29 12:52:15.49	327.00	59.14	-47.9	-48.8	23.7	0.00e+00	0	46	0	3129999360	60	10810
2026-01-29 12:52:16.50	327.16	58.74	-47.7	-48.7	23.7	0.00e+00	0	46	0	3137339392	60	10623
2026-01-29 12:52:17.50	327.31	58.35	-47.6	-48.6	24.1	0.00e+00	0	46	0	3144679424	60	10519
2026-01-29 12:52:18.51	327.46	57.96	-47.7	-48.6	24.0	0.00e+00	0	46	0	3152019456	60	10540
2026-01-29 12:52:19.52	327.60	57.57	-47.7	-48.6	24.0	0.00e+00	0	46	0	3159359488	60	10582
2026-01-29 12:52:20.52	327.74	57.18	-47.8	-48.7	23.9	0.00e+00	0	46	0	3166699520	60	10710
2026-01-29 12:52:21.53	327.88	56.80	-47.8	-48.7	23.9	0.00e+00	0	46	0	3174039552	60	10721
2026-01-29 12:52:22.54	328.02	56.41	-47.6	-48.5	24.2	0.00e+00	0	46	0	3181379584	60	10403
2026-01-29 12:52:23.55	328.15	56.03	-47.4	-48.2	24.2	0.00e+00	0	46	0	3188719616	60	10070
2026-01-29 12:52:24.55	328.27	55.66	-47.5	-48.4	24.0	0.00e+00	0	46	0	3195011072	60	10260
2026-01-29 12:52:25.56	328.40	55.28	-47.5	-48.3	24.2	0.00e+00	0	46	0	3202351104	60	10194
2026-01-29 12:52:26.57	328.52	54.91	-47.4	-48.3	23.9	0.00e+00	0	46	0	3209691136	60	10159
2026-01-29 12:52:27.58	328.64	54.54	-47.1	-47.9	24.3	0.00e+00	0	46	0	3217031168	60	9781
2026-01-29 12:52:28.59	328.75	54.17	-47.4	-48.2	24.2	0.00e+00	0	46	0	3224371200	60	10016
2026-01-29 12:52:29.59	328.86	53.81	-47.5	-48.3	24.1	0.00e+00	0	46	0	3231711232	60	10160
2026-01-29 12:52:30.60	328.97	53.44	-47.5	-48.2	24.2	0.00e+00	0	46	0	3239051264	60	10056
2026-01-29 12:52:31.61	329.08	53.08	-47.6	-48.4	23.9	0.00e+00	0	46	0	3246391296	60	10255
2026-01-29 12:52:32.62	329.18	52.72	-47.6	-48.4	24.1	0.00e+00	0	46	0	3253731328	60	10273
2026-01-29 12:52:33.62	329.28	52.37	-47.6	-48.4	24.0	0.00e+00	0	46	0	3261071360	60	10265
2026-01-29 12:52:34.63	329.38	52.02	-47.6	-48.4	24.3	0.00e+00	0	46	0	3268411392	60	10289
2026-01-29 12:52:35.63	329.48	51.67	-47.5	-48.3	24.3	0.00e+00	0	46	0	3275751424	60	10212
2026-01-29 12:52:36.64	329.58	51.32	-47.4	-48.1	24.2	0.00e+00	0	46	0	3283091456	60	10001
2026-01-29 12:52:37.65	329.67	50.98	-47.5	-48.3	24.4	0.00e+00	0	46	0	3290431488	60	10158
2026-01-29 12:52:38.65	329.76	50.64	-47.6	-48.4	24.2	0.00e+00	0	46	0	3296722944	60	10268
2026-01-29 12:52:39.66	329.85	50.30	-47.6	-48.4	24.2	0.00e+00	0	46	0	3304062976	60	10284
2026-01-29 12:52:40.66	329.93	49.96	-47.5	-48.3	24.2	0.00e+00	0	46	0	3311403008	60	10182
2026-01-29 12:52:41.67	330.02	49.63	-47.3	-48.1	23.9	0.00e+00	0	46	0	3318743040	60	9990
2026-01-29 12:52:42.68	330.10	49.29	-47.3	-48.1	24.0	0.00e+00	0	46	0	3326083072	60	9954
2026-01-29 12:52:43.69	330.19	48.96	-47.3	-48.2	24.2	0.00e+00	0	46	0	3333423104	60	10024
2026-01-29 12:52:44.70	330.27	48.63	-47.1	-47.9	24.4	0.00e+00	0	46	0	3340763136	60	9771
2026-01-29 12:52:45.70	330.34	48.31	-47.0	-47.9	24.3	0.00e+00	0	46	0	3348103168	60	9680
2026-01-29 12:52:46.71	330.42	47.99	-47.0	-47.9	24.5	0.00e+00	0	46	0	3355443200	60	9676
2026-01-29 12:52:47.72	330.50	47.66	-47.1	-47.9	24.3	0.00e+00	0	46	0	3362783232	60	9747
2026-01-29 12:52:48.73	330.57	47.34	-46.9	-47.7	24.5	0.00e+00	0	46	0	3370123264	60	9487
2026-01-29 12:52:49.73	330.64	47.03	-46.9	-47.6	24.5	0.00e+00	0	46	0	3377463296	60	9421
2026-01-29 12:52:50.74	330.72	46.72	-46.9	-47.6	24.5	0.00e+00	0	46	0	3384803328	60	9421
2026-01-29 12:52:51.74	330.79	46.41	-46.9	-47.6	24.5	0.00e+00	0	46	0	3392143360	60	9432
2026-01-29 12:52:52.74	330.85	46.10	-46.9	-47.7	23.5	0.00e+00	0	46	0	3399483392	60	9453
2026-01-29 12:52:53.75	330.92	45.79	-46.7	-47.4	24.6	0.00e+00	0	46	0	3405774848	60	9146
2026-01-29 12:52:54.76	330.99	45.49	-46.7	-47.4	24.5	0.00e+00	0	46	0	3413114880	60	9217
2026-01-29 12:52:55.76	331.05	45.19	-46.4	-47.1	24.7	0.00e+00	0	46	0	3420454912	60	8907
2026-01-29 12:52:56.77	331.12	44.89	-46.2	-46.9	24.7	0.00e+00	0	46	0	3427794944	60	8657
2026-01-29 12:52:57.78	331.18	44.59	-46.2	-46.9	24.8	0.00e+00	0	46	0	3435134976	60	8718
2026-01-29 12:52:58.79	331.24	44.29	-46.3	-47.1	24.7	0.00e+00	0	46	0	3442475008	60	8825
2026-01-29 12:52:59.80	331.30	44.00	-46.1	-46.9	24.6	0.00e+00	0	46	0	3449815040	60	8682
2026-01-29 12:53:00.80	331.36	43.71	-46.2	-47.0	24.3	0.00e+00	0	46	0	3457155072	60	8791
2026-01-29 12:53:01.80	331.42	43.42	-46.1	-46.9	24.7	0.00e+00	0	46	0	3463446528	60	8712
2026-01-29 12:53:02.81	331.48	43.13	-46.0	-46.8	24.6	0.00e+00	0	46	0	3471835136	60	8572
2026-01-29 12:53:03.81	331.53	42.85	-46.0	-46.8	24.3	0.00e+00	0	46	0	3479175168	60	8538
2026-01-29 12:53:04.82	331.59	42.57	-46.1	-46.9	24.6	0.00e+00	0	46	0	3486515200	60	8681
2026-01-29 12:53:05.82	331.64	42.29	-46.1	-46.9	24.5	0.00e+00	0	46	0	3493855232	60	8652
2026-01-29 12:53:06.83	331.70	42.01	-46.2	-47.0	24.6	0.00e+00	0	46	0	3501195264	60	8742
2026-01-29 12:53:07.82	331.75	41.74	-46.3	-47.1	24.6	0.00e+00	0	46	0	3507486720	60	8849
2026-01-29 12:53:08.83	331.80	41.46	-46.1	-46.9	24.9	0.00e+00	0	46	0	3514826752	60	8652
2026-01-29 12:53:09.84	331.85	41.19	-46.2	-47.0	24.8	0.00e+00	0	46	0	3522166784	60	8749
2026-01-29 12:53:10.84	331.91	40.92	-46.2	-46.9	25.0	0.00e+00	0	46	0	3529506816	60	8707
2026-01-29 12:53:11.85	331.96	40.65	-46.1	-46.9	25.0	0.00e+00	0	46	0	3536846848	60	8630
2026-01-29 12:53:12.86	332.00	40.38	-46.2	-47.0	24.9	0.00e+00	0	46	0	3544186880	60	8747
2026-01-29 12:53:13.87	332.05	40.12	-46.3	-47.1	24.9	0.00e+00	0	46	0	3551526912	60	8837
2026-01-29 12:53:14.87	332.10	39.86	-46.5	-47.2	24.8	0.00e+00	0	46	0	3558866944	60	8984
2026-01-29 12:53:15.88	332.15	39.60	-46.5	-47.2	24.9	0.00e+00	0	46	0	3566206976	60	8980
2026-01-29 12:53:16.89	332.19	39.34	-46.5	-47.2	24.8	0.00e+00	0	46	0	3572498432	60	8963
2026-01-29 12:53:17.90	332.24	39.08	-46.5	-47.2	24.8	0.00e+00	0	46	0	3579838464	60	8984
2026-01-29 12:53:18.90	332.29	38.83	-46.3	-47.0	24.8	0.00e+00	0	46	0	3587178496	60	8808
2026-01-29 12:53:19.91	332.33	38.57	-46.1	-46.9	25.1	0.00e+00	0	46	0	3595567104	60	8645
2026-01-29 12:53:20.92	332.37	38.32	-46.1	-46.9	25.0	0.00e+00	0	46	0	3602907136	60	8711
2026-01-29 12:53:21.92	332.42	38.07	-45.9	-46.8	25.0	0.00e+00	0	46	0	3610247168	60	8574
2026-01-29 12:53:22.92	332.46	37.83	-45.7	-46.5	25.2	0.00e+00	0	46	0	3616538624	60	8319
2026-01-29 12:53:23.93	332.50	37.58	-45.7	-46.6	25.2	0.00e+00	0	46	0	3623878656	60	8376
2026-01-29 12:53:24.93	332.54	37.34	-45.8	-46.7	24.8	0.00e+00	0	46	0	3631218688	60	8480
2026-01-29 12:53:25.94	332.58	37.10	-45.7	-46.5	25.1	0.00e+00	0	46	0	3638558720	60	8324
2026-01-29 12:53:26.94	332.62	36.86	-45.6	-46.4	25.3	0.00e+00	0	46	0	3645898752	60	8215
2026-01-29 12:53:27.95	332.66	36.62	-45.7	-46.4	25.2	0.00e+00	0	46	0	3653238784	60	8231
2026-01-29 12:53:28.95	332.70	36.38	-45.7	-46.5	25.2	0.00e+00	0	46	0	3660578816	60	8238
2026-01-29 12:53:29.96	332.74	36.15	-45.7	-46.5	25.2	0.00e+00	0	46	0	3667918848	60	8276
2026-01-29 12:53:30.97	332.78	35.91	-45.8	-46.6	25.2	0.00e+00	0	46	0	3674210304	60	8331
2026-01-29 12:53:31.98	332.82	35.68	-46.0	-46.7	25.0	0.00e+00	0	46	0	3681550336	60	8510
2026-01-29 12:53:32.98	332.86	35.45	-45.7	-46.5	25.3	0.00e+00	0	46	0	3688890368	60	8264
2026-01-29 12:53:33.99	332.89	35.22	-45.4	-46.2	24.7	0.00e+00	0	46	0	3696230400	60	8016
2026-01-29 12:53:34.99	332.93	35.00	-45.3	-46.2	25.3	0.00e+00	0	46	0	3703570432	60	7983
2026-01-29 12:53:36.00	332.97	34.77	-45.3	-46.1	25.4	0.00e+00	0	46	0	3710910464	60	7944
2026-01-29 12:53:37.00	333.00	34.55	-45.2	-46.1	25.4	0.00e+00	0	46	0	3718250496	60	7908
2026-01-29 12:53:38.01	333.04	34.33	-45.4	-46.2	25.3	0.00e+00	0	46	0	3725590528	60	7990
2026-01-29 12:53:39.01	333.07	34.11	-45.4	-46.2	25.3	0.00e+00	0	46	0	3732930560	60	8001
2026-01-29 12:53:40.00	333.10	33.89	-45.4	-46.2	25.3	0.00e+00	0	46	0	3739222016	60	7982
2026-01-29 12:53:41.01	333.14	33.68	-45.3	-46.1	25.4	0.00e+00	0	46	0	3747610624	60	7880
2026-01-29 12:53:42.01	333.17	33.46	-45.2	-46.0	25.4	0.00e+00	0	46	0	3754950656	60	7785
2026-01-29 12:53:43.02	333.21	33.25	-45.2	-46.0	25.4	0.00e+00	0	46	0	3762290688	60	7781
2026-01-29 12:53:44.02	333.24	33.04	-45.3	-46.0	25.4	0.00e+00	0	46	0	3769630720	60	7815
2026-01-29 12:53:45.02	333.27	32.83	-45.4	-46.1	25.2	0.00e+00	0	46	0	3776970752	60	7931
2026-01-29 12:53:46.03	333.30	32.62	-45.5	-46.2	25.3	0.00e+00	0	46	0	3783262208	60	7966
2026-01-29 12:53:47.03	333.33	32.41	-45.4	-46.1	25.3	0.00e+00	0	46	0	3790602240	60	7923
2026-01-29 12:53:48.04	333.37	32.20	-45.3	-46.0	25.4	0.00e+00	0	46	0	3797942272	60	7856
2026-01-29 12:53:49.05	333.40	32.00	-45.3	-46.1	25.3	0.00e+00	0	46	0	3805282304	60	7867
2026-01-29 12:53:50.05	333.43	31.79	-45.6	-46.3	25.1	0.00e+00	0	46	0	3812622336	60	8085
2026-01-29 12:53:51.05	333.46	31.59	-45.6	-46.4	25.2	0.00e+00	0	46	0	3819962368	60	8153
2026-01-29 12:53:52.06	333.49	31.39	-45.4	-46.2	25.2	0.00e+00	0	46	0	3827302400	60	7982
2026-01-29 12:53:53.07	333.52	31.19	-45.5	-46.3	25.0	0.00e+00	0	46	0	3834642432	60	8075
2026-01-29 12:53:54.07	333.55	30.99	-45.7	-46.4	25.1	0.00e+00	0	46	0	3841982464	60	8210
2026-01-29 12:53:55.08	333.58	30.79	-45.6	-46.4	25.1	0.00e+00	0	46	0	3848273920	60	8147
2026-01-29 12:53:56.08	333.60	30.60	-45.7	-46.5	24.8	0.00e+00	0	46	0	3855613952	60	8269
2026-01-29 12:53:57.08	333.63	30.41	-45.8	-46.6	25.0	0.00e+00	0	46	0	3862953984	60	8340
2026-01-29 12:53:58.09	333.66	30.21	-45.8	-46.6	24.8	0.00e+00	0	46	0	3870294016	60	8340
2026-01-29 12:53:59.09	333.69	30.02	-45.9	-46.6	24.9	0.00e+00	0	46	0	3877634048	60	8359
2026-01-29 12:54:00.09	333.72	29.83	-46.0	-46.7	24.8	0.00e+00	0	46	0	3884974080	60	8489
2026-01-29 12:54:01.10	333.74	29.64	-46.0	-46.7	24.7	0.00e+00	0	46	0	3892314112	60	8493
2026-01-29 12:54:02.11	333.77	29.45	-46.0	-46.7	24.7	0.00e+00	0	46	0	3899654144	60	8475
2026-01-29 12:54:03.12	333.80	29.26	-46.0	-46.8	24.6	0.00e+00	0	46	0	3906994176	60	8533
2026-01-29 12:54:04.12	333.82	29.08	-46.0	-46.7	24.7	0.00e+00	0	46	0	3914334208	60	8513
2026-01-29 12:54:05.13	333.85	28.90	-46.0	-46.8	24.7	0.00e+00	0	46	0	3921674240	60	8523
2026-01-29 12:54:06.13	333.88	28.71	-46.0	-46.7	24.6	0.00e+00	0	46	0	3929014272	60	8516
2026-01-29 12:54:07.13	333.90	28.53	-46.1	-46.8	24.6	0.00e+00	0	46	0	3936354304	60	8575
2026-01-29 12:54:08.14	333.93	28.35	-46.0	-46.7	24.7	0.00e+00	0	46	0	3943694336	60	8484
2026-01-29 12:54:09.15	333.95	28.17	-46.1	-46.8	24.5	0.00e+00	0	46	0	3949985792	60	8569
2026-01-29 12:54:10.16	333.98	27.99	-46.0	-46.7	24.6	0.00e+00	0	46	0	3957325824	60	8518
2026-01-29 12:54:11.16	334.00	27.81	-46.0	-46.7	24.6	0.00e+00	0	46	0	3964665856	60	8515
2026-01-29 12:54:12.17	334.03	27.64	-45.9	-46.7	24.6	0.00e+00	0	46	0	3972005888	60	8451
2026-01-29 12:54:13.17	334.05	27.46	-46.0	-46.7	24.5	0.00e+00	0	46	0	3979345920	60	8518
2026-01-29 12:54:14.17	334.08	27.29	-45.9	-46.6	24.7	0.00e+00	0	46	0	3986685952	60	8415
2026-01-29 12:54:15.17	334.10	27.12	-45.8	-46.6	24.6	0.00e+00	0	46	0	3994025984	60	8394
2026-01-29 12:54:16.18	334.12	26.95	-45.8	-46.6	24.6	0.00e+00	0	46	0	4001366016	60	8406
2026-01-29 12:54:17.18	334.15	26.78	-45.9	-46.7	24.6	0.00e+00	0	46	0	4008706048	60	8455
2026-01-29 12:54:18.19	334.17	26.61	-45.9	-46.7	24.7	0.00e+00	0	46	0	4014997504	60	8447
2026-01-29 12:54:19.20	334.19	26.44	-45.8	-46.6	24.6	0.00e+00	0	46	0	4022337536	60	8382
2026-01-29 12:54:20.21	334.22	26.27	-45.9	-46.6	24.7	0.00e+00	0	46	0	4030726144	60	8401
2026-01-29 12:54:21.21	334.24	26.10	-45.8	-46.5	24.8	0.00e+00	0	46	0	4038066176	60	8313
2026-01-29 12:54:22.22	334.26	25.94	-45.8	-46.5	24.8	0.00e+00	0	46	0	4045406208	60	8308
2026-01-29 12:54:23.23	334.29	25.77	-45.8	-46.5	24.8	0.00e+00	0	46	0	4052746240	60	8306
2026-01-29 12:54:24.24	334.31	25.61	-45.9	-46.6	24.8	0.00e+00	0	46	0	4059037696	60	8380
2026-01-29 12:54:25.24	334.33	25.45	-45.8	-46.6	24.8	0.00e+00	0	46	0	4066377728	60	8330
2026-01-29 12:54:26.25	334.35	25.28	-45.8	-46.5	24.7	0.00e+00	0	46	0	4073717760	60	8325
2026-01-29 12:54:27.26	334.37	25.12	-45.8	-46.5	24.7	0.00e+00	0	46	0	4081057792	60	8308
2026-01-29 12:54:28.26	334.39	24.96	-45.8	-46.6	24.8	0.00e+00	0	46	0	4088397824	60	8358
2026-01-29 12:54:29.27	334.42	24.81	-45.8	-46.5	24.8	0.00e+00	0	46	0	4095737856	60	8294
2026-01-29 12:54:30.28	334.44	24.65	-45.8	-46.6	24.8	0.00e+00	0	46	0	4103077888	60	8357
2026-01-29 12:54:31.29	334.46	24.49	-45.8	-46.6	24.7	0.00e+00	0	46	0	4110417920	60	8348
2026-01-29 12:54:32.30	334.48	24.33	-45.8	-46.6	24.8	0.00e+00	0	46	0	4116709376	60	8376
2026-01-29 12:54:33.30	334.50	24.18	-45.9	-46.7	24.7	0.00e+00	0	46	0	4124049408	60	8462
2026-01-29 12:54:34.30	334.52	24.03	-46.0	-46.8	24.6	0.00e+00	0	46	0	4131389440	60	8570
2026-01-29 12:54:35.31	334.54	23.87	-45.9	-46.7	24.7	0.00e+00	0	46	0	4139778048	60	8488
2026-01-29 12:54:36.32	334.56	23.72	-46.0	-46.7	24.6	0.00e+00	0	46	0	4147118080	60	8503
2026-01-29 12:54:37.33	334.58	23.57	-45.9	-46.7	24.6	0.00e+00	0	46	0	4154458112	60	8436
2026-01-29 12:54:38.34	334.60	23.42	-46.0	-46.7	24.5	0.00e+00	0	46	0	4160749568	60	8491
2026-01-29 12:54:39.34	334.62	23.27	-46.0	-46.8	24.5	0.00e+00	0	46	0	4168089600	60	8549
2026-01-29 12:54:40.35	334.64	23.12	-45.9	-46.6	24.6	0.00e+00	0	46	0	4175429632	60	8375
2026-01-29 12:54:41.35	334.66	22.97	-45.9	-46.7	24.5	0.00e+00	0	46	0	4182769664	60	8470
2026-01-29 12:54:42.35	334.68	22.83	-46.0	-46.7	24.4	0.00e+00	0	46	0	4190109696	60	8482
2026-01-29 12:54:43.35	334.70	22.68	-46.0	-46.7	24.4	0.00e+00	0	46	0	4197449728	60	8491
2026-01-29 12:54:44.36	334.72	22.54	-45.9	-46.7	24.5	0.00e+00	0	46	0	4204789760	60	8449
2026-01-29 12:54:45.37	334.74	22.39	-46.0	-46.8	24.4	0.00e+00	0	46	0	4212129792	60	8547
2026-01-29 12:54:46.38	334.75	22.25	-46.0	-46.8	24.4	0.00e+00	0	46	0	4219469824	60	8569
2026-01-29 12:54:47.38	334.77	22.11	-46.2	-46.9	24.2	0.00e+00	0	46	0	4225761280	60	8720
2026-01-29 12:54:48.38	334.79	21.96	-46.3	-47.1	24.0	0.00e+00	0	46	0	4233101312	60	8872
2026-01-29 12:54:49.39	334.81	21.82	-46.4	-47.1	24.1	0.00e+00	0	46	0	4240441344	60	8918
2026-01-29 12:54:50.40	334.83	21.68	-46.5	-47.3	23.8	0.00e+00	0	46	0	4247781376	60	9073
2026-01-29 12:54:51.41	334.85	21.54	-46.7	-47.4	23.7	0.00e+00	0	46	0	4256169984	60	9230
2026-01-29 12:54:52.41	334.86	21.40	-46.6	-47.4	23.7	0.00e+00	0	46	0	4263510016	60	9184
2026-01-29 12:54:53.42	334.88	21.26	-46.7	-47.5	23.6	0.00e+00	0	46	0	4269801472	60	9307
2026-01-29 12:54:54.43	334.90	21.13	-46.4	-47.1	23.9	0.00e+00	0	46	0	4277141504	60	8918
2026-01-29 12:54:55.43	334.92	20.99	-46.3	-47.0	23.9	0.00e+00	0	46	0	4284481536	60	8776
