passes_logs/2026/01/29/R3.2S-Naryan-Mar/R3.2S-Naryan-Mar__20260129_014757_SUOMI_NPP_rec.log

#Pass ID: 20260129_014757_SUOMI NPP
#Satellite: SUOMI NPP
#Configuration: NPP
#almurnet v.1.7.20240730
#Start time: 2026-01-29 01:47:58

#Version: 2.2.20231116
#Station: R3.2S-Naryan-Mar
#Location: 53.008057 lon 67.646978 lat
#TLE: 1 37849U 11061A   26027.86188320  .00000172  00000+0  10275-3 0  9990
#TLE: 2 37849  98.7823 329.8005 0002088  41.4184 318.7150 14.19530883738530

#Time	Az	El	Level	Level2	SNR	BER	BlckErr	Temp	State	Recorded	gain1	gain2
2026-01-29 01:47:58.19	37.37	0.06	-53.5	-75.1	3.6	3.02e+01	0	44	0	0	60	216865
2026-01-29 01:47:59.19	37.32	0.11	-58.0	-77.1	3.6	1.51e+00	0	45	104	0	60	280946
2026-01-29 01:48:00.20	37.27	0.17	-58.6	-77.0	3.6	1.51e+00	0	45	104	0	60	277217
2026-01-29 01:48:01.20	37.23	0.22	-60.6	-77.4	3.6	1.51e+00	0	45	104	0	60	289894
2026-01-29 01:48:02.21	37.18	0.28	-60.9	-77.9	3.6	1.51e+00	0	45	104	0	60	308386
2026-01-29 01:48:03.22	37.13	0.34	-60.8	-78.0	3.6	1.51e+00	0	45	104	0	60	310699
2026-01-29 01:48:04.22	37.09	0.39	-61.1	-78.1	3.6	1.51e+00	0	45	104	0	60	314121
2026-01-29 01:48:05.23	37.04	0.45	-61.1	-78.0	3.6	1.51e+00	0	45	104	0	60	310519
2026-01-29 01:48:06.23	36.99	0.51	-61.2	-77.9	3.6	1.51e+00	0	45	104	0	60	308428
2026-01-29 01:48:07.24	36.94	0.56	-60.9	-77.7	3.6	1.51e+00	0	45	104	0	60	300812
2026-01-29 01:48:08.24	36.89	0.62	-60.4	-77.9	3.6	1.51e+00	0	45	104	0	60	306050
2026-01-29 01:48:09.25	36.85	0.68	-59.0	-77.9	3.6	1.51e+00	0	45	104	0	60	306477
2026-01-29 01:48:10.25	36.80	0.74	-60.1	-77.4	3.6	1.51e+00	0	45	104	0	60	289244
2026-01-29 01:48:11.25	36.75	0.79	-57.3	-76.6	3.6	1.51e+00	0	45	104	0	60	263399
2026-01-29 01:48:12.25	36.70	0.85	-58.1	-76.1	3.6	1.51e+00	0	45	104	0	60	249973
2026-01-29 01:48:13.26	36.65	0.91	-59.3	-77.2	3.6	1.51e+00	0	45	104	0	60	284359
2026-01-29 01:48:14.26	36.60	0.96	-59.3	-77.5	3.6	1.51e+00	0	45	104	0	60	292774
2026-01-29 01:48:15.27	36.55	1.02	-56.5	-75.6	3.6	1.51e+00	0	45	104	0	60	235395
2026-01-29 01:48:16.27	36.50	1.08	-58.6	-76.5	3.6	1.51e+00	0	45	104	0	60	263068
2026-01-29 01:48:17.28	36.45	1.14	-55.0	-73.1	3.6	1.51e+00	0	45	104	0	60	177390
2026-01-29 01:48:18.29	36.40	1.19	-54.9	-73.0	3.6	1.51e+00	0	45	104	0	60	174439
2026-01-29 01:48:19.29	36.35	1.25	-54.8	-73.0	3.6	1.51e+00	0	45	104	0	60	174675
2026-01-29 01:48:20.30	36.30	1.31	-54.7	-73.5	3.6	1.51e+00	0	45	104	0	60	185185
2026-01-29 01:48:21.30	36.25	1.37	-54.7	-72.9	3.6	1.51e+00	0	45	104	0	60	172868
2026-01-29 01:48:22.31	36.20	1.43	-54.7	-72.8	3.6	1.51e+00	0	45	104	0	60	170372
2026-01-29 01:48:23.31	36.15	1.48	-54.7	-72.9	3.6	1.51e+00	0	45	104	0	60	172030
2026-01-29 01:48:24.31	36.09	1.54	-54.7	-73.0	3.6	1.51e+00	0	45	104	0	60	175707
2026-01-29 01:48:25.32	36.04	1.60	-54.7	-72.7	3.6	1.51e+00	0	45	104	0	60	169771
2026-01-29 01:48:26.32	35.99	1.66	-54.5	-72.8	3.6	1.51e+00	0	46	104	0	60	171272
2026-01-29 01:48:27.32	35.94	1.72	-54.7	-72.7	3.6	1.51e+00	0	45	104	0	60	169612
2026-01-29 01:48:28.33	35.89	1.78	-54.6	-73.4	3.6	1.51e+00	0	46	104	0	60	182532
2026-01-29 01:48:29.33	35.83	1.84	-54.6	-72.8	3.6	1.51e+00	0	45	104	0	60	171046
2026-01-29 01:48:30.33	35.78	1.89	-54.7	-73.1	3.6	1.51e+00	0	45	104	0	60	176952
2026-01-29 01:48:31.34	35.73	1.95	-54.7	-72.8	3.6	1.51e+00	0	45	104	0	60	170672
2026-01-29 01:48:32.35	35.67	2.01	-54.7	-73.3	3.6	1.51e+00	0	46	104	0	60	182179
2026-01-29 01:48:33.36	35.62	2.07	-54.7	-72.9	3.5	1.51e+00	0	46	104	0	60	173121
2026-01-29 01:48:34.36	35.57	2.13	-54.7	-72.8	3.6	1.51e+00	0	46	104	0	60	170134
2026-01-29 01:48:35.37	35.51	2.19	-54.8	-72.8	3.6	1.51e+00	0	46	104	0	60	170771
2026-01-29 01:48:36.37	35.46	2.25	-54.9	-73.0	3.6	1.51e+00	0	46	104	0	60	175023
2026-01-29 01:48:37.38	35.40	2.31	-54.9	-73.6	3.6	1.51e+00	0	46	104	0	60	186812
2026-01-29 01:48:38.38	35.35	2.37	-54.9	-73.6	3.6	1.51e+00	0	46	104	0	60	187712
2026-01-29 01:48:39.39	35.29	2.43	-55.0	-73.2	3.6	1.51e+00	0	45	104	0	60	179572
2026-01-29 01:48:40.39	35.24	2.49	-54.9	-73.0	3.6	1.51e+00	0	46	104	0	60	174792
2026-01-29 01:48:41.39	35.18	2.55	-54.7	-72.9	3.6	1.51e+00	0	46	104	0	60	173053
2026-01-29 01:48:42.40	35.13	2.61	-54.7	-72.8	3.5	1.51e+00	0	46	104	0	60	171265
2026-01-29 01:48:43.40	35.07	2.67	-54.7	-72.8	3.6	1.51e+00	0	46	104	0	60	171038
2026-01-29 01:48:44.41	35.02	2.73	-54.7	-72.8	3.6	1.51e+00	0	46	104	0	60	171671
2026-01-29 01:48:45.41	34.96	2.79	-54.7	-73.5	3.6	1.51e+00	0	46	104	0	60	184846
2026-01-29 01:48:46.41	34.90	2.85	-54.7	-73.4	3.6	1.51e+00	0	46	104	0	60	184043
2026-01-29 01:48:47.42	34.85	2.91	-54.6	-72.8	3.6	1.51e+00	0	46	104	0	60	170088
2026-01-29 01:48:48.43	34.79	2.97	-54.7	-72.8	3.6	1.51e+00	0	46	104	0	60	171193
2026-01-29 01:48:49.44	34.73	3.03	-54.7	-72.8	3.6	1.51e+00	0	46	104	0	60	171624
2026-01-29 01:48:50.45	34.67	3.09	-54.7	-72.8	3.6	1.51e+00	0	46	104	0	60	170246
2026-01-29 01:48:51.44	34.62	3.15	-54.7	-72.9	3.5	1.51e+00	0	46	104	0	60	173510
2026-01-29 01:48:52.45	34.56	3.22	-54.7	-72.9	3.6	1.51e+00	0	46	104	0	60	173087
2026-01-29 01:48:53.45	34.50	3.28	-54.6	-72.9	3.6	1.51e+00	0	46	104	0	60	173579
2026-01-29 01:48:54.46	34.44	3.34	-54.7	-73.5	3.6	1.51e+00	0	46	104	0	60	184624
2026-01-29 01:48:55.46	34.38	3.40	-54.7	-73.0	3.6	1.51e+00	0	46	104	0	60	174325
2026-01-29 01:48:56.47	34.32	3.46	-54.7	-73.5	3.6	1.51e+00	0	46	104	0	60	184545
2026-01-29 01:48:57.47	34.26	3.52	-54.7	-73.5	3.6	1.51e+00	0	46	104	0	60	184862
2026-01-29 01:48:58.48	34.20	3.58	-54.7	-73.5	3.6	1.51e+00	0	46	104	0	60	186372
2026-01-29 01:48:59.48	34.14	3.65	-54.7	-73.1	3.6	1.51e+00	0	46	104	0	60	176141
2026-01-29 01:49:00.49	34.08	3.71	-54.9	-73.2	3.6	1.51e+00	0	46	104	0	60	178121
2026-01-29 01:49:01.49	34.02	3.77	-54.9	-72.9	3.6	1.51e+00	0	46	104	0	60	173431
2026-01-29 01:49:02.50	33.96	3.83	-54.9	-73.1	3.6	1.51e+00	0	46	104	0	60	177272
2026-01-29 01:49:03.51	33.90	3.90	-54.9	-72.9	3.6	1.51e+00	0	46	104	0	60	173647
2026-01-29 01:49:04.52	33.84	3.96	-54.9	-73.1	3.6	1.51e+00	0	46	104	0	60	176761
2026-01-29 01:49:05.53	33.77	4.02	-55.1	-73.6	3.6	1.51e+00	0	46	104	0	60	188490
2026-01-29 01:49:06.53	33.71	4.08	-54.7	-73.4	3.6	1.51e+00	0	46	104	0	60	183030
2026-01-29 01:49:07.54	33.65	4.15	-54.7	-72.8	3.6	1.51e+00	0	46	104	0	60	170541
2026-01-29 01:49:08.55	33.59	4.21	-54.7	-72.8	3.6	1.51e+00	0	46	104	0	60	170462
2026-01-29 01:49:09.56	33.52	4.27	-54.7	-72.9	3.6	1.51e+00	0	46	104	0	60	172935
2026-01-29 01:49:10.56	33.46	4.34	-54.7	-73.7	3.6	1.51e+00	0	46	104	0	60	189306
2026-01-29 01:49:11.57	33.40	4.40	-54.7	-73.2	3.6	1.51e+00	0	46	104	0	60	178623
2026-01-29 01:49:12.58	33.33	4.46	-54.7	-72.9	3.6	1.51e+00	0	46	104	0	60	172514
2026-01-29 01:49:13.58	33.27	4.53	-54.7	-72.9	3.6	1.51e+00	0	46	104	0	60	172161
2026-01-29 01:49:14.59	33.21	4.59	-54.7	-73.4	3.6	1.51e+00	0	46	104	0	60	183772
2026-01-29 01:49:15.59	33.14	4.65	-54.7	-73.4	3.6	1.51e+00	0	46	104	0	60	183197
2026-01-29 01:49:16.60	33.08	4.72	-54.8	-72.9	3.6	1.51e+00	0	46	104	0	60	172951
2026-01-29 01:49:17.60	33.01	4.78	-54.6	-72.8	3.6	1.51e+00	0	46	104	0	60	171593
2026-01-29 01:49:18.61	32.95	4.84	-54.6	-73.1	3.6	1.51e+00	0	46	104	0	60	177730
2026-01-29 01:49:19.62	32.88	4.91	-54.6	-72.8	3.6	1.51e+00	0	46	104	0	60	170122
2026-01-29 01:49:20.63	32.81	4.97	-54.6	-73.1	3.6	1.51e+00	0	46	104	0	60	176083
2026-01-29 01:49:21.63	32.75	5.04	-54.6	-72.9	3.6	1.51e+00	0	46	104	0	60	172272
2026-01-29 01:49:22.63	32.68	5.10	-54.6	-73.3	3.6	1.51e+00	0	46	104	0	60	181224
2026-01-29 01:49:23.64	32.61	5.17	-54.6	-72.8	3.6	1.51e+00	0	46	104	0	60	171117
2026-01-29 01:49:24.65	32.55	5.23	-54.6	-72.8	3.6	1.51e+00	0	46	104	0	60	170544
2026-01-29 01:49:25.65	32.48	5.30	-54.6	-72.7	3.6	1.51e+00	0	46	104	0	60	169608
2026-01-29 01:49:26.66	32.41	5.36	-54.5	-72.7	3.6	1.51e+00	0	46	104	0	60	168338
2026-01-29 01:49:27.67	32.34	5.43	-54.6	-72.8	3.6	1.51e+00	0	46	104	0	60	170954
2026-01-29 01:49:28.67	32.27	5.49	-54.7	-72.8	3.6	1.51e+00	0	46	104	0	60	170943
2026-01-29 01:49:29.68	32.20	5.56	-54.6	-72.8	3.6	1.51e+00	0	46	104	0	60	170428
2026-01-29 01:49:30.69	32.13	5.62	-54.4	-72.7	3.6	1.51e+00	0	46	104	0	60	169347
2026-01-29 01:49:31.69	32.06	5.69	-54.5	-72.5	3.6	1.51e+00	0	46	104	0	60	164368
2026-01-29 01:49:32.69	31.99	5.75	-54.5	-73.0	3.6	1.51e+00	0	46	104	0	60	175812
2026-01-29 01:49:33.70	31.92	5.82	-54.5	-72.7	3.6	1.51e+00	0	46	104	0	60	169779
2026-01-29 01:49:34.71	31.85	5.89	-54.5	-72.6	3.6	1.51e+00	0	46	104	0	60	167640
2026-01-29 01:49:35.72	31.78	5.95	-54.7	-72.7	3.6	1.51e+00	0	46	104	0	60	169009
2026-01-29 01:49:36.73	31.71	6.02	-54.7	-72.8	3.6	1.51e+00	0	46	104	0	60	170278
2026-01-29 01:49:37.73	31.64	6.09	-59.2	-76.3	3.6	1.51e+00	0	46	104	0	60	256933
2026-01-29 01:49:38.74	31.57	6.15	-54.2	-74.8	3.6	1.51e+00	0	46	104	0	60	215534
2026-01-29 01:49:39.75	31.49	6.22	-54.4	-73.1	3.6	1.51e+00	0	46	104	0	60	177049
2026-01-29 01:49:40.76	31.42	6.29	-54.8	-74.6	3.6	1.51e+00	0	46	104	0	60	211004
2026-01-29 01:49:41.77	31.35	6.35	-54.5	-73.0	3.6	1.51e+00	0	46	104	0	60	174649
2026-01-29 01:49:42.77	31.27	6.42	-56.6	-75.1	3.6	1.51e+00	0	46	104	0	60	222887
2026-01-29 01:49:43.78	31.20	6.49	-57.5	-75.5	3.6	1.51e+00	0	46	104	0	60	234012
2026-01-29 01:49:44.78	31.13	6.55	-58.8	-75.9	3.6	1.51e+00	0	46	104	0	60	243623
2026-01-29 01:49:45.79	31.05	6.62	-56.2	-74.7	3.6	1.51e+00	0	46	104	0	60	212445
2026-01-29 01:49:46.80	30.98	6.69	-56.4	-75.1	3.6	1.51e+00	0	46	104	0	60	223692
2026-01-29 01:49:47.81	30.90	6.76	-56.2	-74.5	3.6	1.51e+00	0	46	104	0	60	208893
2026-01-29 01:49:48.81	30.83	6.82	-59.6	-76.2	3.6	1.51e+00	0	46	104	0	60	253189
2026-01-29 01:49:49.82	30.75	6.89	-56.3	-75.1	3.6	1.51e+00	0	46	104	0	60	222275
2026-01-29 01:49:50.83	30.67	6.96	-55.9	-74.7	3.6	1.51e+00	0	46	104	0	60	213284
2026-01-29 01:49:51.83	30.60	7.03	-57.4	-75.4	3.6	1.51e+00	0	46	104	0	60	229966
2026-01-29 01:49:52.84	30.52	7.10	-58.1	-75.5	3.5	1.51e+00	0	46	104	0	60	233717
2026-01-29 01:49:53.84	30.44	7.17	-57.1	-75.8	3.6	1.51e+00	0	46	104	0	60	241576
2026-01-29 01:49:54.85	30.36	7.23	-54.5	-74.0	3.6	1.51e+00	0	46	104	0	60	195732
2026-01-29 01:49:55.85	30.29	7.30	-58.8	-75.8	3.6	1.51e+00	0	46	104	0	60	241313
2026-01-29 01:49:56.86	30.21	7.37	-56.9	-75.5	3.6	1.51e+00	0	46	104	0	60	232962
2026-01-29 01:49:57.87	30.13	7.44	-56.1	-73.9	3.6	1.51e+00	0	46	104	0	60	194262
2026-01-29 01:49:58.88	30.05	7.51	-53.8	-73.5	3.6	1.51e+00	0	46	104	0	60	186360
2026-01-29 01:49:59.89	29.97	7.58	-54.6	-74.4	3.6	1.51e+00	0	46	104	0	60	205579
2026-01-29 01:50:00.89	29.89	7.65	-55.5	-74.0	3.6	1.51e+00	0	46	104	0	60	195872
2026-01-29 01:50:01.90	29.81	7.72	-58.0	-72.3	3.7	1.51e+00	0	46	104	0	60	160856
2026-01-29 01:50:02.91	29.72	7.79	-56.0	-73.9	3.6	1.51e+00	0	46	104	0	60	193831
2026-01-29 01:50:03.92	29.64	7.86	-58.4	-75.4	3.6	1.51e+00	0	46	104	0	60	230602
2026-01-29 01:50:04.93	29.56	7.93	-57.9	-76.0	3.6	1.51e+00	0	46	104	0	60	246029
2026-01-29 01:50:05.93	29.48	8.00	-56.6	-75.0	3.6	1.51e+00	0	46	104	0	60	220776
2026-01-29 01:50:06.94	29.40	8.07	-56.3	-75.1	3.6	1.51e+00	0	46	104	0	60	221683
2026-01-29 01:50:07.95	29.31	8.14	-57.2	-75.3	3.6	1.51e+00	0	46	104	0	60	227274
2026-01-29 01:50:08.95	29.23	8.21	-57.5	-75.4	3.6	1.51e+00	0	46	104	0	60	231304
2026-01-29 01:50:09.96	29.15	8.28	-57.2	-75.8	3.6	1.51e+00	0	46	104	0	60	240772
2026-01-29 01:50:10.97	29.06	8.35	-56.5	-75.8	3.6	1.51e+00	0	46	104	0	60	240448
2026-01-29 01:50:11.98	28.98	8.42	-55.1	-75.1	3.6	1.51e+00	0	46	104	0	60	221893
2026-01-29 01:50:12.99	28.89	8.49	-59.1	-75.8	3.6	1.51e+00	0	46	104	0	60	240979
2026-01-29 01:50:14.00	28.80	8.56	-57.5	-75.8	3.6	1.51e+00	0	46	104	0	60	240509
2026-01-29 01:50:15.01	28.72	8.64	-55.5	-75.5	3.6	1.51e+00	0	46	104	0	60	233726
2026-01-29 01:50:16.01	28.63	8.71	-54.8	-75.3	3.6	1.51e+00	0	46	104	0	60	228698
2026-01-29 01:50:17.02	28.54	8.78	-54.9	-75.5	3.6	1.51e+00	0	46	104	0	60	234075
2026-01-29 01:50:18.03	28.46	8.85	-57.3	-75.6	3.6	1.51e+00	0	46	104	0	60	237434
2026-01-29 01:50:19.04	28.37	8.92	-58.6	-75.6	3.6	1.51e+00	0	46	104	0	60	234869
2026-01-29 01:50:20.04	28.28	8.99	-57.6	-75.8	3.6	1.51e+00	0	46	104	0	60	240373
2026-01-29 01:50:21.04	28.19	9.07	-59.7	-76.1	3.6	1.51e+00	0	46	104	0	60	251151
2026-01-29 01:50:22.05	28.10	9.14	-56.2	-75.0	3.6	1.51e+00	0	46	104	0	60	219499
2026-01-29 01:50:23.06	28.01	9.21	-57.7	-74.5	3.6	1.51e+00	0	46	104	0	60	208333
2026-01-29 01:50:24.07	27.92	9.28	-58.6	-75.7	3.6	1.51e+00	0	46	104	0	60	238251
2026-01-29 01:50:25.07	27.83	9.36	-57.8	-76.0	3.6	1.51e+00	0	46	104	0	60	246407
2026-01-29 01:50:26.08	27.74	9.43	-58.5	-76.3	3.5	1.51e+00	0	46	104	0	60	256691
2026-01-29 01:50:27.08	27.65	9.50	-56.8	-74.3	3.6	1.51e+00	0	46	104	0	60	203272
2026-01-29 01:50:28.09	27.56	9.57	-58.3	-76.1	3.6	1.51e+00	0	46	104	0	60	249935
2026-01-29 01:50:29.09	27.46	9.65	-59.6	-75.9	3.6	1.51e+00	0	46	104	0	60	245721
2026-01-29 01:50:30.10	27.37	9.72	-58.6	-75.5	3.6	1.51e+00	0	46	104	0	60	234525
2026-01-29 01:50:31.11	27.28	9.79	-55.1	-73.6	3.6	1.51e+00	0	46	104	0	60	188356
2026-01-29 01:50:32.12	27.18	9.87	-56.0	-74.7	3.6	1.51e+00	0	46	104	0	60	213040
2026-01-29 01:50:33.12	27.09	9.94	-57.2	-75.2	3.6	1.51e+00	0	46	104	0	60	226556
2026-01-29 01:50:34.13	26.99	10.02	-58.1	-76.2	3.6	1.51e+00	0	46	104	0	60	251927
2026-01-29 01:50:35.14	26.90	10.09	-56.9	-75.1	3.6	1.51e+00	0	46	104	0	60	221861
2026-01-29 01:50:36.14	26.80	10.16	-57.4	-74.6	3.6	1.51e+00	0	46	104	0	60	210842
2026-01-29 01:50:37.15	26.70	10.24	-57.9	-75.7	3.6	1.51e+00	0	46	104	0	60	239464
2026-01-29 01:50:38.16	26.61	10.31	-57.0	-75.0	3.6	1.51e+00	0	46	104	0	60	220781
2026-01-29 01:50:39.17	26.51	10.39	-54.1	-74.1	3.6	1.51e+00	0	46	104	0	60	198023
2026-01-29 01:50:40.17	26.41	10.46	-54.9	-74.4	3.6	1.51e+00	0	46	104	0	60	206325
2026-01-29 01:50:41.18	26.31	10.54	-56.0	-75.1	3.6	1.51e+00	0	46	104	0	60	224157
2026-01-29 01:50:42.18	26.21	10.61	-58.8	-74.3	3.6	1.51e+00	0	46	104	0	60	202442
2026-01-29 01:50:43.19	26.11	10.69	-58.7	-75.6	3.6	1.51e+00	0	46	104	0	60	237356
2026-01-29 01:50:44.19	26.01	10.76	-57.6	-76.0	3.6	1.51e+00	0	46	104	0	60	246007
2026-01-29 01:50:45.20	25.91	10.84	-56.5	-75.7	3.6	1.51e+00	0	46	104	0	60	238060
2026-01-29 01:50:46.21	25.81	10.91	-58.2	-75.5	3.6	1.51e+00	0	46	104	0	60	232164
2026-01-29 01:50:47.22	25.71	10.99	-57.6	-75.7	3.6	1.51e+00	0	46	104	0	60	238576
2026-01-29 01:50:48.23	25.61	11.07	-57.0	-75.7	3.6	1.51e+00	0	46	104	0	60	238998
2026-01-29 01:50:49.24	25.50	11.14	-56.3	-75.6	3.6	1.51e+00	0	46	104	0	60	234937
2026-01-29 01:50:50.24	25.40	11.22	-56.8	-75.7	3.6	1.51e+00	0	46	104	0	60	238091
2026-01-29 01:50:51.25	25.30	11.30	-54.5	-75.5	3.6	1.51e+00	0	46	104	0	60	233492
2026-01-29 01:50:52.26	25.19	11.37	-56.7	-75.5	3.6	1.51e+00	0	46	104	0	60	232356
2026-01-29 01:50:53.26	25.09	11.45	-58.9	-76.3	3.6	1.51e+00	0	46	104	0	60	255039
2026-01-29 01:50:54.26	24.98	11.52	-58.0	-75.8	3.6	1.51e+00	0	46	104	0	60	240205
2026-01-29 01:50:55.27	24.87	11.60	-55.0	-75.7	3.6	1.51e+00	0	46	104	0	60	238335
2026-01-29 01:50:56.28	24.77	11.68	-54.2	-75.7	3.6	1.51e+00	0	46	104	0	60	238891
2026-01-29 01:50:57.28	24.66	11.76	-54.1	-75.6	3.6	1.51e+00	0	46	104	0	60	235589
2026-01-29 01:50:58.28	24.55	11.83	-59.3	-76.0	3.6	1.51e+00	0	46	104	0	60	247391
2026-01-29 01:50:59.29	24.44	11.91	-59.2	-76.2	3.6	1.51e+00	0	46	104	0	60	253611
2026-01-29 01:51:00.29	24.34	11.99	-53.9	-75.9	3.6	1.51e+00	0	46	104	0	60	245124
2026-01-29 01:51:01.30	24.23	12.07	-57.7	-76.0	3.6	1.51e+00	0	46	104	0	60	248349
2026-01-29 01:51:02.31	24.11	12.14	-56.4	-74.9	3.6	1.51e+00	0	46	104	0	60	217614
2026-01-29 01:51:03.32	24.00	12.22	-55.4	-74.7	3.6	1.51e+00	0	46	104	0	60	213519
2026-01-29 01:51:04.33	23.89	12.30	-54.7	-74.3	3.6	1.51e+00	0	46	104	0	60	203148
2026-01-29 01:51:05.33	23.78	12.38	-54.1	-74.2	3.5	1.51e+00	0	46	104	0	60	201897
2026-01-29 01:51:06.34	23.67	12.46	-59.2	-76.0	3.6	1.51e+00	0	46	104	0	60	248377
2026-01-29 01:51:07.35	23.55	12.54	-46.0	-70.1	3.6	1.51e+00	0	46	104	0	60	124954
2026-01-29 01:51:08.36	23.44	12.62	-59.2	-76.0	3.6	1.51e+00	0	46	104	0	60	247819
2026-01-29 01:51:09.36	23.32	12.69	-48.3	-69.9	3.6	1.51e+00	0	46	104	0	60	122800
2026-01-29 01:51:10.37	23.21	12.77	-45.4	-70.7	3.6	1.51e+00	0	46	104	0	60	133901
2026-01-29 01:51:11.38	23.09	12.85	-45.7	-69.1	3.6	1.51e+00	0	46	104	0	60	112111
2026-01-29 01:51:12.38	22.98	12.93	-45.9	-68.8	3.6	1.51e+00	0	46	104	0	60	107917
2026-01-29 01:51:13.39	22.86	13.01	-46.8	-69.5	3.6	1.51e+00	0	46	104	0	60	117252
2026-01-29 01:51:14.39	22.74	13.09	-46.3	-70.1	3.6	1.51e+00	0	46	104	0	60	126043
2026-01-29 01:51:15.40	22.62	13.17	-47.1	-71.6	3.6	1.51e+00	0	46	104	0	60	148512
2026-01-29 01:51:16.40	22.50	13.25	-49.8	-70.6	3.6	1.51e+00	0	46	104	0	60	133205
2026-01-29 01:51:17.41	22.38	13.33	-53.4	-73.3	3.6	1.51e+00	0	46	104	0	60	180990
2026-01-29 01:51:18.42	22.26	13.41	-47.5	-71.5	3.6	1.51e+00	0	46	104	0	60	147182
2026-01-29 01:51:19.43	22.14	13.49	-47.5	-69.4	3.6	1.51e+00	0	46	104	0	60	115801
2026-01-29 01:51:20.44	22.02	13.57	-48.4	-69.8	3.6	1.51e+00	0	46	104	0	60	121445
2026-01-29 01:51:21.43	21.90	13.65	-51.1	-71.8	3.6	1.51e+00	0	46	104	0	60	151553
2026-01-29 01:51:22.44	21.77	13.73	-57.3	-75.4	3.6	1.51e+00	0	46	104	0	60	229420
2026-01-29 01:51:23.45	21.65	13.81	-56.1	-75.6	3.6	1.51e+00	0	46	104	0	60	235176
2026-01-29 01:51:24.45	21.52	13.89	-46.5	-67.5	3.6	1.51e+00	0	46	104	0	60	92815
2026-01-29 01:51:25.46	21.40	13.97	-55.0	-73.9	3.6	1.51e+00	0	46	104	0	60	194303
2026-01-29 01:51:26.47	21.27	14.06	-45.9	-68.9	3.6	1.51e+00	0	46	104	0	60	109580
2026-01-29 01:51:27.48	21.14	14.14	-46.2	-69.6	3.6	1.51e+00	0	46	104	0	60	118398
2026-01-29 01:51:28.49	21.02	14.22	-46.9	-70.3	3.6	1.51e+00	0	46	104	0	60	127724
2026-01-29 01:51:29.49	20.89	14.30	-47.7	-71.2	3.6	1.51e+00	0	46	104	0	60	142503
2026-01-29 01:51:30.50	20.76	14.38	-52.6	-75.0	3.6	1.51e+00	0	46	104	0	60	220878
2026-01-29 01:51:31.51	20.63	14.46	-58.9	-75.3	3.6	1.51e+00	0	46	104	0	60	226788
2026-01-29 01:51:32.51	20.50	14.55	-58.0	-76.3	3.6	1.51e+00	0	46	104	0	60	256558
2026-01-29 01:51:33.52	20.37	14.63	-54.2	-75.2	3.6	1.51e+00	0	46	104	0	60	225974
2026-01-29 01:51:34.53	20.24	14.71	-53.0	-73.6	3.6	1.51e+00	0	46	104	0	60	188418
2026-01-29 01:51:35.53	20.10	14.79	-54.7	-75.1	3.6	1.51e+00	0	46	104	0	60	221611
2026-01-29 01:51:36.54	19.97	14.88	-56.9	-75.7	3.6	1.51e+00	0	46	104	0	60	240150
2026-01-29 01:51:37.55	19.83	14.96	-56.8	-74.8	3.6	1.51e+00	0	46	104	0	60	215672
2026-01-29 01:51:38.56	19.70	15.04	-56.0	-75.2	3.6	1.51e+00	0	46	104	0	60	225548
2026-01-29 01:51:39.56	19.56	15.12	-55.5	-75.4	3.6	1.51e+00	0	46	104	0	60	229930
2026-01-29 01:51:40.57	19.43	15.21	-57.8	-75.6	3.6	1.51e+00	0	46	104	0	60	235255
2026-01-29 01:51:41.58	19.29	15.29	-57.9	-75.3	3.6	1.51e+00	0	46	104	0	60	227206
2026-01-29 01:51:42.59	19.15	15.37	-55.6	-74.1	3.6	1.51e+00	0	46	104	0	60	198728
2026-01-29 01:51:43.59	19.01	15.46	-54.5	-73.8	3.6	1.51e+00	0	46	104	0	60	192807
2026-01-29 01:51:44.60	18.87	15.54	-55.4	-74.5	3.6	1.51e+00	0	46	104	0	60	207765
2026-01-29 01:51:45.61	18.73	15.62	-58.7	-75.4	3.6	1.51e+00	0	46	104	0	60	231384
2026-01-29 01:51:46.61	18.59	15.71	-54.3	-74.8	3.6	1.51e+00	0	46	104	0	60	215241
2026-01-29 01:51:47.62	18.45	15.79	-57.4	-75.7	3.6	1.51e+00	0	46	104	0	60	240140
2026-01-29 01:51:48.63	18.30	15.87	-52.1	-72.7	3.6	1.51e+00	0	46	104	0	60	168672
2026-01-29 01:51:49.64	18.16	15.96	-54.5	-74.5	3.6	1.51e+00	0	46	104	0	60	206939
2026-01-29 01:51:50.65	18.02	16.04	-53.7	-75.3	3.6	1.51e+00	0	46	104	0	60	228818
2026-01-29 01:51:51.65	17.87	16.13	-54.4	-74.7	3.6	1.51e+00	0	46	104	0	60	212641
2026-01-29 01:51:52.66	17.72	16.21	-54.7	-74.8	3.6	1.51e+00	0	46	104	0	60	214486
2026-01-29 01:51:53.67	17.58	16.30	-52.6	-73.2	3.6	1.51e+00	0	46	104	0	60	178211
2026-01-29 01:51:54.67	17.43	16.38	-57.1	-75.9	3.6	1.51e+00	0	46	104	0	60	243519
2026-01-29 01:51:55.68	17.28	16.46	-56.7	-75.7	3.6	1.51e+00	0	46	104	0	60	237891
2026-01-29 01:51:56.69	17.13	16.55	-52.1	-74.0	3.6	1.51e+00	0	46	104	0	60	196788
2026-01-29 01:51:57.70	16.98	16.63	-51.6	-72.7	3.6	1.51e+00	0	46	104	0	60	169125
2026-01-29 01:51:58.70	16.83	16.72	-50.9	-71.6	3.6	1.51e+00	0	46	104	0	60	148577
2026-01-29 01:51:59.71	16.68	16.80	-50.6	-73.0	3.6	1.51e+00	0	46	104	0	60	174849
2026-01-29 01:52:00.71	16.52	16.89	-51.5	-71.9	3.6	1.51e+00	0	46	104	0	60	153762
2026-01-29 01:52:01.71	16.37	16.97	-53.7	-75.7	3.6	1.51e+00	0	46	104	0	60	237790
2026-01-29 01:52:02.72	16.21	17.06	-53.6	-75.6	3.6	1.51e+00	0	46	104	0	60	235737
2026-01-29 01:52:03.72	16.06	17.14	-51.7	-72.2	3.6	1.51e+00	0	46	104	0	60	159275
2026-01-29 01:52:04.72	15.90	17.23	-53.3	-73.2	3.6	1.51e+00	0	46	104	0	60	179760
2026-01-29 01:52:05.73	15.75	17.31	-53.6	-74.1	3.6	1.51e+00	0	46	104	0	60	199305
2026-01-29 01:52:06.73	15.59	17.40	-53.7	-73.9	3.6	1.51e+00	0	46	104	0	60	193377
2026-01-29 01:52:07.74	15.43	17.48	-57.5	-75.4	3.6	1.51e+00	0	46	104	0	60	229390
2026-01-29 01:52:08.75	15.27	17.57	-58.1	-75.9	3.6	1.51e+00	0	46	104	0	60	243573
2026-01-29 01:52:09.75	15.11	17.65	-58.4	-74.9	3.6	1.51e+00	0	46	104	0	60	217534
2026-01-29 01:52:10.76	14.94	17.74	-53.4	-75.3	3.6	1.51e+00	0	46	104	0	60	228686
2026-01-29 01:52:11.77	14.78	17.83	-56.4	-76.0	3.6	1.51e+00	0	46	104	0	60	245891
2026-01-29 01:52:12.77	14.62	17.91	-58.3	-75.7	3.6	1.51e+00	0	46	104	0	60	239756
2026-01-29 01:52:13.78	14.45	18.00	-55.1	-75.2	3.6	1.51e+00	0	46	104	0	60	225492
2026-01-29 01:52:14.79	14.29	18.08	-52.4	-74.3	3.6	1.51e+00	0	46	104	0	60	204093
2026-01-29 01:52:15.80	14.12	18.17	-55.3	-75.5	3.6	1.51e+00	0	46	104	0	60	233722
2026-01-29 01:52:16.81	13.95	18.26	-56.8	-75.9	3.6	1.51e+00	0	46	104	0	60	245235
2026-01-29 01:52:17.81	13.78	18.34	-58.5	-76.5	3.6	1.51e+00	0	46	104	0	60	262516
2026-01-29 01:52:18.82	13.61	18.43	-57.7	-76.5	3.6	1.51e+00	0	46	104	0	60	260999
2026-01-29 01:52:19.83	13.44	18.51	-57.6	-75.2	3.6	1.51e+00	0	46	104	0	60	224322
2026-01-29 01:52:20.83	13.27	18.60	-57.7	-76.5	3.6	1.51e+00	0	46	104	0	60	260504
2026-01-29 01:52:21.84	13.10	18.69	-56.9	-75.3	3.5	1.51e+00	0	46	104	0	60	228697
2026-01-29 01:52:22.85	12.92	18.77	-56.5	-75.1	3.6	1.51e+00	0	46	104	0	60	223742
2026-01-29 01:52:23.86	12.75	18.86	-57.8	-75.8	3.6	1.51e+00	0	46	104	0	60	242791
2026-01-29 01:52:24.87	12.57	18.95	-58.5	-76.0	3.6	1.51e+00	0	46	104	0	60	247667
2026-01-29 01:52:25.87	12.39	19.03	-57.0	-75.6	3.6	1.51e+00	0	46	104	0	60	235189
2026-01-29 01:52:26.88	12.21	19.12	-52.0	-74.7	3.6	1.51e+00	0	46	104	0	60	212405
2026-01-29 01:52:27.89	12.03	19.20	-55.2	-75.5	3.6	1.51e+00	0	46	104	0	60	234421
2026-01-29 01:52:28.90	11.85	19.29	-59.0	-76.6	3.6	1.51e+00	0	46	104	0	60	264773
2026-01-29 01:52:29.91	11.67	19.38	-52.7	-74.6	3.6	1.51e+00	0	46	104	0	60	210114
2026-01-29 01:52:30.92	11.49	19.46	-52.5	-74.7	3.6	1.51e+00	0	46	104	0	60	211816
2026-01-29 01:52:31.93	11.31	19.55	-53.5	-75.1	3.6	1.51e+00	0	46	104	0	60	221957
2026-01-29 01:52:32.93	11.12	19.64	-55.0	-74.9	3.6	1.51e+00	0	46	104	0	60	218605
2026-01-29 01:52:33.94	10.94	19.72	-58.5	-76.2	3.6	1.51e+00	0	47	104	0	60	253116
2026-01-29 01:52:34.94	10.75	19.81	-59.0	-75.8	3.6	1.51e+00	0	46	104	0	60	241134
2026-01-29 01:52:35.95	10.56	19.89	-54.3	-75.2	3.6	1.51e+00	0	47	104	0	60	226315
2026-01-29 01:52:36.96	10.37	19.98	-59.5	-76.5	3.6	1.51e+00	0	46	104	0	60	262139
2026-01-29 01:52:37.96	10.19	20.07	-52.6	-74.6	3.6	1.51e+00	0	46	104	0	60	210915
2026-01-29 01:52:38.97	10.00	20.15	-52.7	-74.2	3.6	1.51e+00	0	46	104	0	60	202055
2026-01-29 01:52:39.98	9.80	20.24	-54.1	-75.1	3.5	1.51e+00	0	46	104	0	60	222030
2026-01-29 01:52:40.99	9.61	20.32	-55.1	-75.3	3.6	1.51e+00	0	46	104	0	60	229331
2026-01-29 01:52:41.99	9.42	20.41	-59.0	-76.5	3.6	1.51e+00	0	46	104	0	60	261492
2026-01-29 01:52:43.00	9.22	20.50	-56.9	-75.8	3.6	1.51e+00	0	46	104	0	60	240554
2026-01-29 01:52:44.01	9.02	20.58	-58.5	-76.5	3.6	1.51e+00	0	46	104	0	60	261683
2026-01-29 01:52:45.02	8.83	20.67	-57.2	-75.8	3.6	1.51e+00	0	46	104	0	60	242694
2026-01-29 01:52:46.03	8.63	20.75	-57.7	-75.9	3.6	1.51e+00	0	46	104	0	60	243081
2026-01-29 01:52:47.04	8.43	20.84	-56.0	-75.5	3.6	1.51e+00	0	46	104	0	60	232379
2026-01-29 01:52:48.05	8.23	20.93	-56.4	-75.7	3.6	1.51e+00	0	46	104	0	60	238782
2026-01-29 01:52:49.05	8.03	21.01	-57.2	-76.0	3.6	1.51e+00	0	46	104	0	60	247309
2026-01-29 01:52:50.06	7.82	21.10	-58.4	-76.4	3.6	1.51e+00	0	46	104	0	60	259872
2026-01-29 01:52:51.06	7.62	21.18	-58.6	-76.3	3.6	1.51e+00	0	46	104	0	60	256950
2026-01-29 01:52:52.07	7.41	21.27	-57.8	-76.4	3.6	1.51e+00	0	46	104	0	60	259347
2026-01-29 01:52:53.08	7.21	21.35	-59.0	-76.6	3.6	1.51e+00	0	46	104	0	60	265939
2026-01-29 01:52:54.08	7.00	21.44	-56.5	-76.0	3.6	1.51e+00	0	46	104	0	60	248352
2026-01-29 01:52:55.09	6.79	21.52	-56.3	-76.0	3.6	1.51e+00	0	46	104	0	60	247999
2026-01-29 01:52:56.09	6.58	21.60	-58.9	-76.6	3.6	1.51e+00	0	46	104	0	60	263539
2026-01-29 01:52:57.10	6.37	21.69	-59.3	-76.3	3.6	1.51e+00	0	46	104	0	60	256356
2026-01-29 01:52:58.10	6.16	21.77	-57.1	-74.8	3.6	1.51e+00	0	46	104	0	60	216014
2026-01-29 01:52:59.11	5.95	21.86	-57.6	-75.1	3.6	1.51e+00	0	46	104	0	60	223524
2026-01-29 01:53:00.11	5.73	21.94	-59.2	-75.8	3.6	1.51e+00	0	46	104	0	60	241100
2026-01-29 01:53:01.12	5.52	22.03	-58.3	-76.3	3.6	1.51e+00	0	46	104	0	60	256794
2026-01-29 01:53:02.13	5.30	22.11	-55.8	-74.4	3.5	1.51e+00	0	46	104	0	60	204826
2026-01-29 01:53:03.13	5.08	22.19	-56.3	-74.2	3.6	1.51e+00	0	46	104	0	60	200690
2026-01-29 01:53:04.14	4.86	22.28	-58.3	-75.1	3.6	1.51e+00	0	46	104	0	60	222222
2026-01-29 01:53:05.15	4.64	22.36	-59.1	-76.0	3.6	1.51e+00	0	46	104	0	60	247924
2026-01-29 01:53:06.16	4.42	22.44	-58.6	-76.4	3.6	1.51e+00	0	46	104	0	60	257386
2026-01-29 01:53:07.16	4.20	22.53	-59.6	-76.5	3.6	1.51e+00	0	46	104	0	60	262438
2026-01-29 01:53:08.17	3.97	22.61	-58.6	-76.1	3.6	1.51e+00	0	46	104	0	60	249588
2026-01-29 01:53:09.18	3.75	22.69	-60.1	-76.4	3.6	1.51e+00	0	46	104	0	60	257739
2026-01-29 01:53:10.19	3.52	22.77	-59.0	-76.5	3.6	1.51e+00	0	46	104	0	60	263351
2026-01-29 01:53:11.19	3.29	22.85	-59.6	-76.2	3.6	1.51e+00	0	46	104	0	60	252749
2026-01-29 01:53:12.20	3.06	22.94	-58.7	-76.4	3.6	1.51e+00	0	46	104	0	60	258455
2026-01-29 01:53:13.20	2.84	23.02	-59.7	-76.0	3.6	1.51e+00	0	46	104	0	60	248408
2026-01-29 01:53:14.21	2.60	23.10	-60.3	-76.6	3.6	1.51e+00	0	46	104	0	60	264538
2026-01-29 01:53:15.22	2.37	23.18	-59.7	-76.1	3.6	1.51e+00	0	46	104	0	60	251338
2026-01-29 01:53:16.23	2.14	23.26	-59.9	-76.3	3.6	1.51e+00	0	46	104	0	60	255155
2026-01-29 01:53:17.23	1.90	23.34	-59.9	-76.6	3.6	1.51e+00	0	46	104	0	60	264289
2026-01-29 01:53:18.24	1.67	23.42	-59.3	-76.8	3.6	1.51e+00	0	46	104	0	60	270451
2026-01-29 01:53:19.25	1.43	23.50	-58.9	-76.9	3.6	1.51e+00	0	46	104	0	60	274475
2026-01-29 01:53:20.26	1.19	23.58	-59.0	-76.0	3.5	1.51e+00	0	46	104	0	60	247823
2026-01-29 01:53:21.26	0.95	23.66	-60.4	-76.8	3.6	1.51e+00	0	46	104	0	60	269607
2026-01-29 01:53:22.27	0.71	23.74	-59.1	-76.4	3.6	1.51e+00	0	46	104	0	60	258892
2026-01-29 01:53:23.28	0.47	23.82	-59.0	-76.2	3.6	1.51e+00	0	46	104	0	60	251539
2026-01-29 01:53:24.28	0.22	23.90	-59.2	-76.2	3.6	1.51e+00	0	46	104	0	60	252968
2026-01-29 01:53:25.28	359.98	23.97	-60.0	-76.5	3.6	1.51e+00	0	46	104	0	60	262097
2026-01-29 01:53:26.29	359.73	24.05	-60.1	-76.8	3.6	1.51e+00	0	46	104	0	60	272461
2026-01-29 01:53:27.30	359.49	24.13	-57.5	-76.2	3.6	1.51e+00	0	46	104	0	60	253110
2026-01-29 01:53:28.30	359.24	24.21	-59.6	-76.8	3.6	1.51e+00	0	46	104	0	60	270094
2026-01-29 01:53:29.31	358.99	24.28	-59.6	-76.2	3.6	1.51e+00	0	46	104	0	60	253462
2026-01-29 01:53:30.32	358.74	24.36	-57.5	-76.4	3.6	1.51e+00	0	46	104	0	60	258861
2026-01-29 01:53:31.33	358.48	24.44	-58.1	-76.4	3.6	1.51e+00	0	46	104	0	60	260112
2026-01-29 01:53:32.33	358.23	24.51	-59.3	-76.6	3.6	1.51e+00	0	46	104	0	60	263634
2026-01-29 01:53:33.33	357.98	24.59	-59.4	-76.5	3.6	1.51e+00	0	46	104	0	60	262228
2026-01-29 01:53:34.34	357.72	24.66	-58.8	-76.3	3.6	1.51e+00	0	46	104	0	60	255568
2026-01-29 01:53:35.35	357.46	24.73	-57.1	-75.6	3.6	1.51e+00	0	46	104	0	60	237430
2026-01-29 01:53:36.36	357.20	24.81	-58.0	-76.6	3.6	1.51e+00	0	46	104	0	60	263632
2026-01-29 01:53:37.36	356.95	24.88	-59.9	-76.4	3.6	1.51e+00	0	46	104	0	60	259246
2026-01-29 01:53:38.37	356.69	24.95	-56.8	-75.4	3.5	1.51e+00	0	46	104	0	60	229897
2026-01-29 01:53:39.38	356.42	25.03	-57.8	-75.8	3.6	1.51e+00	0	46	104	0	60	241301
2026-01-29 01:53:40.39	356.16	25.10	-58.8	-75.8	3.6	1.51e+00	0	47	104	0	60	240428
2026-01-29 01:53:41.39	355.90	25.17	-59.8	-76.2	3.6	1.51e+00	0	46	104	0	60	252366
2026-01-29 01:53:42.39	355.63	25.24	-59.9	-77.0	3.6	1.51e+00	0	46	104	0	60	277038
2026-01-29 01:53:43.39	355.37	25.31	-58.4	-76.1	3.6	1.51e+00	0	46	104	0	60	251484
2026-01-29 01:53:44.40	355.10	25.38	-59.5	-76.9	3.6	1.51e+00	0	46	104	0	60	274957
2026-01-29 01:53:45.41	354.83	25.45	-59.1	-76.1	3.6	1.51e+00	0	46	104	0	60	250797
2026-01-29 01:53:46.42	354.56	25.52	-59.9	-76.9	3.6	1.51e+00	0	46	104	0	60	272659
2026-01-29 01:53:47.41	354.29	25.59	-59.8	-76.4	3.6	1.51e+00	0	46	104	0	60	260318
2026-01-29 01:53:48.42	354.02	25.66	-60.0	-76.6	3.6	1.51e+00	0	46	104	0	60	263720
2026-01-29 01:53:49.43	353.74	25.72	-59.9	-76.3	3.6	1.51e+00	0	46	104	0	60	255200
2026-01-29 01:53:50.43	353.47	25.79	-59.0	-76.9	3.6	1.51e+00	0	46	104	0	60	273172
2026-01-29 01:53:51.44	353.19	25.86	-59.3	-76.5	3.6	1.51e+00	0	46	104	0	60	263055
2026-01-29 01:53:52.44	352.92	25.92	-60.0	-76.4	3.6	1.51e+00	0	46	104	0	60	259432
2026-01-29 01:53:53.44	352.64	25.99	-59.9	-76.8	3.5	1.51e+00	0	46	104	0	60	271401
2026-01-29 01:53:54.45	352.36	26.05	-59.9	-76.4	3.6	1.51e+00	0	46	104	0	60	259739
2026-01-29 01:53:55.45	352.08	26.12	-60.1	-76.5	3.6	1.51e+00	0	46	104	0	60	260954
2026-01-29 01:53:56.46	351.80	26.18	-59.8	-76.5	3.6	1.51e+00	0	46	104	0	60	261145
2026-01-29 01:53:57.46	351.51	26.24	-60.1	-76.6	3.6	1.51e+00	0	46	104	0	60	264732
2026-01-29 01:53:58.47	351.23	26.30	-57.7	-77.1	3.6	1.51e+00	0	46	104	0	60	280071
2026-01-29 01:53:59.47	350.95	26.37	-57.4	-76.9	3.6	1.51e+00	0	46	104	0	60	275649
2026-01-29 01:54:00.48	350.66	26.43	-60.4	-76.9	3.6	1.51e+00	0	46	104	0	60	275646
2026-01-29 01:54:01.48	350.37	26.49	-56.9	-76.4	3.6	1.51e+00	0	46	104	0	60	260115
2026-01-29 01:54:02.49	350.08	26.55	-58.6	-76.9	3.6	1.51e+00	0	46	104	0	60	272986
2026-01-29 01:54:03.49	349.80	26.60	-56.6	-75.6	3.6	1.51e+00	0	46	104	0	60	237165
2026-01-29 01:54:04.49	349.51	26.66	-56.7	-75.5	3.5	1.51e+00	0	46	104	0	60	232921
2026-01-29 01:54:05.50	349.21	26.72	-56.8	-75.3	3.6	1.51e+00	0	46	104	0	60	228470
2026-01-29 01:54:06.50	348.92	26.78	-58.1	-75.7	3.6	1.51e+00	0	46	104	0	60	238412
2026-01-29 01:54:07.51	348.63	26.83	-57.2	-75.9	3.6	1.51e+00	0	46	104	0	60	245059
2026-01-29 01:54:08.52	348.33	26.89	-58.4	-75.8	3.6	1.51e+00	0	46	104	0	60	241047
2026-01-29 01:54:09.53	348.03	26.94	-58.3	-75.5	3.5	1.51e+00	0	46	104	0	60	233232
2026-01-29 01:54:10.53	347.74	27.00	-55.9	-74.7	3.6	1.51e+00	0	46	104	0	60	212539
2026-01-29 01:54:11.54	347.44	27.05	-57.0	-74.8	3.6	1.51e+00	0	46	104	0	60	215910
2026-01-29 01:54:12.54	347.14	27.10	-57.7	-75.4	3.6	1.51e+00	0	46	104	0	60	230834
2026-01-29 01:54:13.55	346.84	27.15	-59.4	-76.3	3.6	1.51e+00	0	46	104	0	60	255034
2026-01-29 01:54:14.54	346.55	27.20	-60.4	-76.7	3.6	1.51e+00	0	46	104	0	60	268725
2026-01-29 01:54:15.54	346.25	27.25	-60.2	-76.5	3.6	1.51e+00	0	46	104	0	60	261954
2026-01-29 01:54:16.54	345.94	27.30	-60.1	-76.8	3.6	1.51e+00	0	46	104	0	60	272587
2026-01-29 01:54:17.54	345.64	27.35	-59.8	-76.2	3.6	1.51e+00	0	46	104	0	60	252352
2026-01-29 01:54:18.55	345.34	27.40	-60.0	-76.3	3.6	1.51e+00	0	46	104	0	60	254957
2026-01-29 01:54:19.56	345.03	27.45	-59.5	-76.3	3.6	1.51e+00	0	46	104	0	60	256902
2026-01-29 01:54:20.56	344.72	27.49	-59.6	-76.5	3.6	1.51e+00	0	46	104	0	60	262173
2026-01-29 01:54:21.57	344.42	27.54	-59.5	-76.8	3.6	1.51e+00	0	46	104	0	60	270391
2026-01-29 01:54:22.58	344.11	27.58	-58.7	-76.6	3.6	1.51e+00	0	46	104	0	60	263740
2026-01-29 01:54:23.58	343.80	27.62	-58.0	-76.4	3.6	1.51e+00	0	46	104	0	60	257422
2026-01-29 01:54:24.59	343.49	27.67	-59.0	-76.2	3.6	1.51e+00	0	46	104	0	60	252762
2026-01-29 01:54:25.60	343.18	27.71	-58.6	-76.5	3.6	1.51e+00	0	46	104	0	60	260430
2026-01-29 01:54:26.61	342.86	27.75	-58.3	-76.1	3.6	1.51e+00	0	46	104	0	60	249125
2026-01-29 01:54:27.61	342.55	27.79	-58.7	-76.0	3.5	1.51e+00	0	46	104	0	60	246125
2026-01-29 01:54:28.62	342.24	27.83	-58.9	-76.3	3.6	1.51e+00	0	46	104	0	60	256030
2026-01-29 01:54:29.63	341.92	27.87	-58.3	-75.7	3.6	1.51e+00	0	46	104	0	60	238976
2026-01-29 01:54:30.63	341.61	27.90	-57.6	-75.8	3.5	1.51e+00	0	46	104	0	60	240618
2026-01-29 01:54:31.64	341.29	27.94	-58.2	-75.7	3.6	1.51e+00	0	46	104	0	60	239088
2026-01-29 01:54:32.65	340.98	27.98	-58.5	-75.6	3.6	1.51e+00	0	47	104	0	60	236580
2026-01-29 01:54:33.65	340.66	28.01	-59.5	-76.1	3.6	1.51e+00	0	46	104	0	60	251064
2026-01-29 01:54:34.66	340.34	28.04	-60.0	-76.4	3.6	1.51e+00	0	46	104	0	60	257420
2026-01-29 01:54:35.67	340.02	28.08	-59.4	-76.1	3.6	1.51e+00	0	46	104	0	60	249820
2026-01-29 01:54:36.68	339.70	28.11	-59.1	-76.5	3.6	1.51e+00	0	46	104	0	60	261366
2026-01-29 01:54:37.68	339.39	28.14	-58.9	-76.1	3.6	1.51e+00	0	46	104	0	60	251110
2026-01-29 01:54:38.69	339.07	28.17	-59.7	-76.5	3.6	1.51e+00	0	47	104	0	60	262392
2026-01-29 01:54:39.70	338.74	28.20	-59.4	-76.4	3.6	1.51e+00	0	46	104	0	60	258504
2026-01-29 01:54:40.71	338.42	28.22	-57.7	-76.0	3.6	1.51e+00	0	46	104	0	60	246707
2026-01-29 01:54:41.72	338.10	28.25	-59.9	-76.7	3.6	1.51e+00	0	46	104	0	60	267744
2026-01-29 01:54:42.73	337.77	28.28	-59.8	-76.7	3.6	1.51e+00	0	46	104	0	60	267809
2026-01-29 01:54:43.73	337.45	28.30	-58.5	-76.3	3.5	1.51e+00	0	46	104	0	60	256252
2026-01-29 01:54:44.74	337.13	28.33	-58.8	-76.1	3.6	1.51e+00	0	46	104	0	60	251478
2026-01-29 01:54:45.74	336.81	28.35	-59.1	-76.2	3.6	1.51e+00	0	46	104	0	60	251707
2026-01-29 01:54:46.75	336.48	28.37	-58.8	-75.8	3.6	1.51e+00	0	47	104	0	60	240912
2026-01-29 01:54:47.76	336.16	28.39	-59.7	-76.6	3.6	1.51e+00	0	46	104	0	60	266192
2026-01-29 01:54:48.76	335.83	28.41	-58.5	-76.1	3.6	1.51e+00	0	47	104	0	60	248804
2026-01-29 01:54:49.77	335.51	28.43	-60.1	-76.8	3.6	1.51e+00	0	46	104	0	60	270100
2026-01-29 01:54:50.77	335.18	28.45	-60.0	-76.6	3.6	1.51e+00	0	46	104	0	60	265190
2026-01-29 01:54:51.77	334.86	28.46	-59.3	-76.2	3.6	1.51e+00	0	46	104	0	60	252595
2026-01-29 01:54:52.78	334.53	28.48	-59.6	-76.2	3.6	1.51e+00	0	46	104	0	60	252327
2026-01-29 01:54:53.78	334.20	28.49	-59.5	-76.7	3.6	1.51e+00	0	46	104	0	60	267527
2026-01-29 01:54:54.78	333.88	28.51	-59.6	-76.2	3.6	1.51e+00	0	46	104	0	60	253541
2026-01-29 01:54:55.79	333.55	28.52	-59.8	-76.4	3.6	1.51e+00	0	46	104	0	60	259638
2026-01-29 01:54:56.79	333.22	28.53	-59.3	-76.6	3.6	1.51e+00	0	46	104	0	60	265619
2026-01-29 01:54:57.80	332.90	28.54	-59.7	-76.6	3.6	1.51e+00	0	46	104	0	60	266310
2026-01-29 01:54:58.81	332.57	28.55	-60.1	-76.8	3.6	1.51e+00	0	46	104	0	60	270025
2026-01-29 01:54:59.81	332.24	28.56	-59.9	-76.6	3.6	1.51e+00	0	46	104	0	60	264631
2026-01-29 01:55:00.82	331.91	28.57	-59.0	-76.7	3.6	1.51e+00	0	46	104	0	60	267055
2026-01-29 01:55:01.82	331.58	28.57	-60.4	-76.8	3.6	1.51e+00	0	46	104	0	60	269575
2026-01-29 01:55:02.83	331.25	28.58	-59.9	-76.6	3.6	1.51e+00	0	46	104	0	60	265998
2026-01-29 01:55:03.83	330.93	28.58	-60.0	-76.9	3.6	1.51e+00	0	46	104	0	60	273121
2026-01-29 01:55:04.84	330.60	28.59	-59.8	-76.6	3.6	1.51e+00	0	46	104	0	60	263383
2026-01-29 01:55:05.84	330.27	28.59	-60.1	-76.9	3.6	1.51e+00	0	46	104	0	60	272803
2026-01-29 01:55:06.85	329.94	28.59	-60.4	-76.5	3.6	1.51e+00	0	46	104	0	60	261107
2026-01-29 01:55:07.86	329.61	28.59	-59.9	-76.7	3.6	1.51e+00	0	47	104	0	60	268121
2026-01-29 01:55:08.85	329.29	28.59	-60.2	-76.6	3.6	1.51e+00	0	46	104	0	60	264473
2026-01-29 01:55:09.86	328.95	28.59	-60.2	-76.7	3.6	1.51e+00	0	46	104	0	60	267610
2026-01-29 01:55:10.86	328.63	28.58	-60.0	-76.6	3.5	1.51e+00	0	46	104	0	60	264161
2026-01-29 01:55:11.87	328.30	28.58	-60.3	-76.6	3.6	1.51e+00	0	46	104	0	60	265703
2026-01-29 01:55:12.88	327.97	28.57	-59.2	-76.8	3.6	1.51e+00	0	46	104	0	60	271530
2026-01-29 01:55:13.89	327.64	28.57	-60.2	-76.7	3.6	1.51e+00	0	46	104	0	60	269175
2026-01-29 01:55:14.89	327.31	28.56	-58.9	-76.6	3.6	1.51e+00	0	46	104	0	60	265159
2026-01-29 01:55:15.90	326.98	28.55	-59.7	-76.7	3.6	1.51e+00	0	46	104	0	60	269234
2026-01-29 01:55:16.91	326.65	28.54	-59.0	-76.8	3.6	1.51e+00	0	46	104	0	60	270850
2026-01-29 01:55:17.91	326.33	28.53	-59.5	-76.7	3.6	1.51e+00	0	46	104	0	60	266707
2026-01-29 01:55:18.92	326.00	28.52	-59.0	-76.5	3.6	1.51e+00	0	46	104	0	60	260745
2026-01-29 01:55:19.93	325.67	28.51	-58.8	-76.8	3.6	1.51e+00	0	47	104	0	60	269559
2026-01-29 01:55:20.93	325.34	28.49	-59.4	-76.6	3.6	1.51e+00	0	46	104	0	60	265656
2026-01-29 01:55:21.94	325.01	28.48	-60.1	-76.7	3.6	1.51e+00	0	46	104	0	60	269039
2026-01-29 01:55:22.94	324.69	28.46	-58.4	-76.1	3.6	1.51e+00	0	46	104	0	60	248884
2026-01-29 01:55:23.94	324.37	28.45	-59.1	-76.7	3.6	1.51e+00	0	46	104	0	60	268138
2026-01-29 01:55:24.94	324.04	28.43	-59.4	-76.3	3.6	1.51e+00	0	46	104	0	60	256493
2026-01-29 01:55:25.95	323.72	28.41	-59.8	-76.7	3.6	1.51e+00	0	46	104	0	60	269408
2026-01-29 01:55:26.95	323.39	28.39	-58.9	-76.2	3.6	1.51e+00	0	46	104	0	60	254065
2026-01-29 01:55:27.95	323.07	28.37	-59.5	-76.1	3.6	1.51e+00	0	46	104	0	60	249982
2026-01-29 01:55:28.96	322.74	28.35	-59.6	-76.1	3.6	1.51e+00	0	46	104	0	60	248940
2026-01-29 01:55:29.97	322.42	28.33	-60.2	-76.6	3.6	1.51e+00	0	46	104	0	60	264019
2026-01-29 01:55:30.97	322.10	28.30	-58.9	-76.0	3.6	1.51e+00	0	46	104	0	60	248337
2026-01-29 01:55:31.98	321.77	28.28	-59.5	-76.1	3.6	1.51e+00	0	46	104	0	60	251057
2026-01-29 01:55:32.99	321.45	28.25	-58.9	-76.6	3.6	1.51e+00	0	47	104	0	60	265820
2026-01-29 01:55:33.99	321.13	28.22	-59.8	-76.5	3.6	1.51e+00	0	46	104	0	60	262114
2026-01-29 01:55:34.99	320.81	28.20	-59.2	-76.3	3.6	1.51e+00	0	46	104	0	60	255162
2026-01-29 01:55:36.00	320.49	28.17	-59.6	-76.2	3.5	1.51e+00	0	46	104	0	60	251917
2026-01-29 01:55:37.00	320.17	28.14	-58.4	-76.6	3.6	1.51e+00	0	46	104	0	60	265752
2026-01-29 01:55:38.01	319.85	28.11	-59.4	-76.5	3.6	1.51e+00	0	46	104	0	60	261845
2026-01-29 01:55:39.02	319.53	28.08	-59.4	-76.3	3.6	1.51e+00	0	46	104	0	60	255817
2026-01-29 01:55:40.03	319.21	28.04	-59.4	-76.4	3.6	1.51e+00	0	46	104	0	60	259627
2026-01-29 01:55:41.03	318.89	28.01	-59.2	-76.7	3.6	1.51e+00	0	46	104	0	60	266677
2026-01-29 01:55:42.04	318.57	27.98	-59.0	-76.4	3.6	1.51e+00	0	46	104	0	60	258006
2026-01-29 01:55:43.05	318.26	27.94	-60.1	-76.2	3.5	1.51e+00	0	46	104	0	60	253421
2026-01-29 01:55:44.05	317.94	27.90	-59.1	-76.5	3.5	1.51e+00	0	46	104	0	60	261124
2026-01-29 01:55:45.06	317.63	27.87	-60.1	-76.5	3.6	1.51e+00	0	46	104	0	60	262660
2026-01-29 01:55:46.07	317.31	27.83	-59.7	-76.3	3.6	1.51e+00	0	46	104	0	60	255395
2026-01-29 01:55:47.08	317.00	27.79	-59.8	-76.3	3.6	1.51e+00	0	46	104	0	60	255072
2026-01-29 01:55:48.09	316.68	27.75	-59.9	-76.5	3.5	1.51e+00	0	46	104	0	60	260636
2026-01-29 01:55:49.09	316.37	27.71	-59.7	-76.5	3.6	1.51e+00	0	46	104	0	60	261987
2026-01-29 01:55:50.10	316.06	27.67	-59.9	-76.1	3.6	1.51e+00	0	46	104	0	60	251078
2026-01-29 01:55:51.11	315.75	27.62	-58.3	-76.2	3.6	1.51e+00	0	47	104	0	60	254077
2026-01-29 01:55:52.12	315.44	27.58	-59.9	-76.4	3.6	1.51e+00	0	46	104	0	60	260060
2026-01-29 01:55:53.13	315.13	27.54	-58.1	-76.0	3.6	1.51e+00	0	46	104	0	60	247929
2026-01-29 01:55:54.13	314.82	27.49	-59.4	-76.1	3.6	1.51e+00	0	46	104	0	60	250757
2026-01-29 01:55:55.13	314.52	27.45	-57.2	-75.8	3.6	1.51e+00	0	46	104	0	60	242320
2026-01-29 01:55:56.14	314.21	27.40	-59.0	-76.4	3.6	1.51e+00	0	46	104	0	60	258316
2026-01-29 01:55:57.15	313.91	27.35	-57.8	-75.7	3.6	1.51e+00	0	46	104	0	60	239446
2026-01-29 01:55:58.15	313.60	27.30	-57.8	-76.1	3.6	1.51e+00	0	46	104	0	60	250090
2026-01-29 01:55:59.15	313.30	27.25	-57.9	-75.9	3.6	1.51e+00	0	46	104	0	60	244897
2026-01-29 01:56:00.16	313.00	27.20	-58.8	-75.9	3.6	1.51e+00	0	46	104	0	60	245610
2026-01-29 01:56:01.17	312.70	27.15	-59.1	-75.9	3.6	1.51e+00	0	46	104	0	60	243627
2026-01-29 01:56:02.17	312.40	27.10	-58.7	-76.2	3.6	1.51e+00	0	46	104	0	60	251738
2026-01-29 01:56:03.18	312.10	27.05	-57.5	-76.0	3.6	1.51e+00	0	46	104	0	60	246118
2026-01-29 01:56:04.19	311.80	26.99	-59.4	-76.1	3.6	1.51e+00	0	46	104	0	60	250580
2026-01-29 01:56:05.20	311.50	26.94	-59.0	-76.1	3.6	1.51e+00	0	46	104	0	60	250424
2026-01-29 01:56:06.20	311.21	26.89	-58.8	-75.8	3.6	1.51e+00	0	46	104	0	60	242406
2026-01-29 01:56:07.21	310.91	26.83	-59.3	-76.0	3.6	1.51e+00	0	46	104	0	60	246467
2026-01-29 01:56:08.22	310.61	26.77	-59.2	-76.1	3.6	1.51e+00	0	46	104	0	60	251502
2026-01-29 01:56:09.23	310.32	26.72	-58.8	-76.2	3.6	1.51e+00	0	46	104	0	60	252240
2026-01-29 01:56:10.23	310.03	26.66	-59.2	-75.8	3.6	1.51e+00	0	46	104	0	60	242149
2026-01-29 01:56:11.24	309.74	26.60	-58.6	-75.9	3.6	1.51e+00	0	46	104	0	60	244350
2026-01-29 01:56:12.24	309.45	26.54	-59.5	-76.2	3.6	1.51e+00	0	46	104	0	60	252580
2026-01-29 01:56:13.25	309.16	26.48	-58.7	-76.0	3.6	1.51e+00	0	46	104	0	60	247279
2026-01-29 01:56:14.25	308.87	26.42	-59.3	-76.0	3.6	1.51e+00	0	47	104	0	60	246331
2026-01-29 01:56:15.26	308.59	26.36	-58.4	-75.8	3.6	1.51e+00	0	46	104	0	60	240923
2026-01-29 01:56:16.27	308.30	26.30	-58.8	-76.0	3.6	1.51e+00	0	46	104	0	60	247807
2026-01-29 01:56:17.28	308.01	26.24	-58.7	-75.9	3.6	1.51e+00	0	46	104	0	60	244505
2026-01-29 01:56:18.28	307.73	26.18	-59.3	-76.1	3.6	1.51e+00	0	46	104	0	60	249105
2026-01-29 01:56:19.29	307.45	26.11	-58.6	-75.7	3.6	1.51e+00	0	46	104	0	60	238132
2026-01-29 01:56:20.30	307.17	26.05	-58.4	-75.8	3.6	1.51e+00	0	46	104	0	60	241181
2026-01-29 01:56:21.31	306.89	25.98	-59.0	-75.8	3.6	1.51e+00	0	46	104	0	60	241116
2026-01-29 01:56:22.32	306.61	25.92	-59.0	-75.9	3.6	1.51e+00	0	47	104	0	60	244003
2026-01-29 01:56:23.32	306.33	25.85	-59.0	-75.7	3.6	1.51e+00	0	46	104	0	60	238864
2026-01-29 01:56:24.33	306.05	25.78	-58.5	-75.8	3.6	1.51e+00	0	46	104	0	60	240983
2026-01-29 01:56:25.33	305.78	25.72	-59.5	-76.0	3.6	1.51e+00	0	46	104	0	60	247422
2026-01-29 01:56:26.34	305.50	25.65	-58.9	-75.7	3.6	1.51e+00	0	46	104	0	60	239390
2026-01-29 01:56:27.35	305.23	25.58	-59.5	-75.8	3.6	1.51e+00	0	46	104	0	60	242848
2026-01-29 01:56:28.35	304.96	25.51	-58.9	-75.7	3.6	1.51e+00	0	47	104	0	60	237468
2026-01-29 01:56:29.36	304.69	25.44	-59.5	-76.2	3.6	1.51e+00	0	46	104	0	60	251580
2026-01-29 01:56:30.36	304.42	25.38	-58.8	-75.5	3.6	1.51e+00	0	46	104	0	60	234715
2026-01-29 01:56:31.37	304.15	25.30	-58.8	-75.5	3.6	1.51e+00	0	46	104	0	60	233345
2026-01-29 01:56:32.37	303.89	25.23	-58.8	-75.5	3.6	1.51e+00	0	46	104	0	60	232221
2026-01-29 01:56:33.37	303.62	25.16	-58.9	-75.4	3.6	1.51e+00	0	46	104	0	60	230533
2026-01-29 01:56:34.38	303.36	25.09	-58.6	-75.4	3.6	1.51e+00	0	46	104	0	60	230885
2026-01-29 01:56:35.39	303.09	25.02	-59.4	-76.1	3.6	1.51e+00	0	46	104	0	60	249110
2026-01-29 01:56:36.40	302.83	24.95	-59.2	-75.6	3.6	1.51e+00	0	46	104	0	60	236283
2026-01-29 01:56:37.41	302.57	24.87	-59.6	-76.0	3.6	1.51e+00	0	46	104	0	60	247555
2026-01-29 01:56:38.41	302.31	24.80	-59.1	-75.9	3.6	1.51e+00	0	46	104	0	60	245286
2026-01-29 01:56:39.42	302.05	24.73	-59.6	-75.9	3.6	1.51e+00	0	46	104	0	60	244981
2026-01-29 01:56:40.43	301.79	24.65	-59.6	-76.0	3.6	1.51e+00	0	46	104	0	60	247488
2026-01-29 01:56:41.44	301.53	24.58	-59.7	-75.8	3.6	1.51e+00	0	47	104	0	60	242786
2026-01-29 01:56:42.45	301.28	24.50	-59.5	-76.0	3.6	1.51e+00	0	46	104	0	60	248379
2026-01-29 01:56:43.45	301.03	24.43	-59.4	-76.1	3.6	1.51e+00	0	47	104	0	60	249279
2026-01-29 01:56:44.46	300.77	24.35	-59.5	-75.9	3.6	1.51e+00	0	46	104	0	60	242989
2026-01-29 01:56:45.46	300.52	24.27	-59.2	-75.9	3.6	1.51e+00	0	46	104	0	60	245042
2026-01-29 01:56:46.47	300.27	24.20	-59.4	-76.0	3.6	1.51e+00	0	47	104	0	60	248150
2026-01-29 01:56:47.47	300.03	24.12	-59.2	-76.0	3.6	1.51e+00	0	46	104	0	60	248532
2026-01-29 01:56:48.48	299.78	24.04	-59.3	-75.7	3.6	1.51e+00	0	46	104	0	60	239400
2026-01-29 01:56:49.49	299.53	23.96	-59.3	-76.1	3.6	1.51e+00	0	46	104	0	60	250031
2026-01-29 01:56:50.49	299.29	23.89	-59.3	-76.0	3.6	1.51e+00	0	46	104	0	60	246485
2026-01-29 01:56:51.50	299.04	23.81	-59.2	-76.1	3.6	1.51e+00	0	47	104	0	60	249914
2026-01-29 01:56:52.50	298.80	23.73	-59.1	-75.8	3.6	1.51e+00	0	46	104	0	60	242260
2026-01-29 01:56:53.51	298.56	23.65	-59.3	-76.0	3.6	1.51e+00	0	46	104	0	60	248607
2026-01-29 01:56:54.52	298.32	23.57	-59.3	-76.0	3.6	1.51e+00	0	46	104	0	60	247111
2026-01-29 01:56:55.53	298.08	23.49	-59.2	-76.1	3.6	1.51e+00	0	47	104	0	60	250904
2026-01-29 01:56:56.54	297.84	23.41	-58.6	-75.4	3.6	1.51e+00	0	46	104	0	60	230295
2026-01-29 01:56:57.55	297.60	23.33	-58.5	-75.3	3.6	1.51e+00	0	46	104	0	60	228019
2026-01-29 01:56:58.56	297.37	23.25	-58.7	-75.9	3.6	1.51e+00	0	47	104	0	60	244964
2026-01-29 01:56:59.56	297.14	23.17	-58.5	-75.3	3.6	1.51e+00	0	46	104	0	60	226960
2026-01-29 01:57:00.55	296.91	23.09	-58.5	-75.4	3.6	1.51e+00	0	46	104	0	60	230293
2026-01-29 01:57:01.55	296.68	23.01	-58.2	-75.0	3.6	1.51e+00	0	46	104	0	60	219855
2026-01-29 01:57:02.56	296.45	22.93	-58.9	-76.0	3.6	1.51e+00	0	46	104	0	60	247430
2026-01-29 01:57:03.56	296.22	22.84	-59.0	-76.1	3.6	1.51e+00	0	46	104	0	60	249141
2026-01-29 01:57:04.57	295.99	22.76	-58.2	-74.7	3.6	1.51e+00	0	47	104	0	60	211956
2026-01-29 01:57:05.58	295.76	22.68	-58.3	-75.0	3.6	1.51e+00	0	46	104	0	60	220664
2026-01-29 01:57:06.59	295.54	22.60	-58.3	-75.7	3.6	1.51e+00	0	46	104	0	60	239045
2026-01-29 01:57:07.59	295.31	22.51	-58.4	-75.4	3.6	1.51e+00	0	46	104	0	60	229890
2026-01-29 01:57:08.60	295.09	22.43	-58.3	-75.2	3.6	1.51e+00	0	46	104	0	60	224797
2026-01-29 01:57:09.61	294.87	22.35	-58.4	-74.8	3.6	1.51e+00	0	46	104	0	60	214160
2026-01-29 01:57:10.62	294.64	22.26	-59.2	-75.8	3.6	1.51e+00	0	46	104	0	60	241979
2026-01-29 01:57:11.63	294.42	22.18	-59.3	-76.0	3.6	1.51e+00	0	47	104	0	60	246758
2026-01-29 01:57:12.64	294.21	22.10	-59.4	-76.0	3.6	1.51e+00	0	46	104	0	60	246170
2026-01-29 01:57:13.64	293.99	22.01	-59.4	-76.1	3.6	1.51e+00	0	46	104	0	60	248973
2026-01-29 01:57:14.65	293.77	21.93	-58.9	-75.1	3.5	1.51e+00	0	46	104	0	60	222045
2026-01-29 01:57:15.65	293.56	21.84	-58.9	-74.7	3.6	1.51e+00	0	46	104	0	60	211980
2026-01-29 01:57:16.66	293.35	21.76	-59.1	-74.8	3.6	1.51e+00	0	46	104	0	60	215049
2026-01-29 01:57:17.66	293.13	21.68	-58.9	-75.2	3.6	1.51e+00	0	46	104	0	60	224430
2026-01-29 01:57:18.67	292.92	21.59	-59.2	-74.9	3.6	1.50e+00	0	46	104	0	60	217200
2026-01-29 01:57:19.67	292.71	21.51	-59.3	-75.5	3.6	1.51e+00	0	46	104	0	60	232887
2026-01-29 01:57:20.68	292.50	21.42	-59.3	-75.2	3.6	1.51e+00	0	46	104	0	60	226382
2026-01-29 01:57:21.69	292.30	21.34	-59.3	-75.0	3.6	1.51e+00	0	47	104	0	60	220363
2026-01-29 01:57:22.69	292.09	21.25	-59.3	-75.6	3.6	1.51e+00	0	47	104	0	60	235262
2026-01-29 01:57:23.70	291.88	21.17	-59.2	-74.8	3.6	1.51e+00	0	46	104	0	60	216309
2026-01-29 01:57:24.70	291.68	21.08	-59.2	-74.8	3.6	1.51e+00	0	46	104	0	60	214666
2026-01-29 01:57:25.71	291.48	21.00	-58.7	-74.9	3.6	1.51e+00	0	46	104	0	60	217938
2026-01-29 01:57:26.72	291.27	20.91	-57.9	-75.9	3.6	1.51e+00	0	46	104	0	60	243242
2026-01-29 01:57:27.73	291.07	20.82	-58.7	-75.3	3.6	1.51e+00	0	46	104	0	60	229086
2026-01-29 01:57:28.73	290.87	20.74	-58.3	-75.0	3.6	1.51e+00	0	46	104	0	60	220869
2026-01-29 01:57:29.74	290.67	20.65	-58.9	-75.0	3.6	1.51e+00	0	47	104	0	60	221080
2026-01-29 01:57:30.74	290.48	20.57	-58.8	-74.9	3.6	1.51e+00	0	46	104	0	60	218729
2026-01-29 01:57:31.74	290.28	20.48	-58.4	-74.1	3.6	1.51e+00	0	47	104	0	60	198872
2026-01-29 01:57:32.75	290.09	20.40	-58.3	-74.0	3.6	1.51e+00	0	46	104	0	60	195296
2026-01-29 01:57:33.76	289.89	20.31	-58.0	-73.5	3.6	1.51e+00	0	46	104	0	60	185350
2026-01-29 01:57:34.77	289.70	20.22	-57.8	-75.6	3.6	1.50e+00	0	46	104	0	60	237315
2026-01-29 01:57:35.77	289.51	20.14	-58.0	-74.8	3.6	1.51e+00	0	46	104	0	60	215432
2026-01-29 01:57:36.78	289.32	20.05	-57.8	-73.9	3.6	1.51e+00	0	46	104	0	60	194681
2026-01-29 01:57:37.79	289.13	19.97	-57.9	-74.1	3.6	1.51e+00	0	46	104	0	60	197800
2026-01-29 01:57:38.80	288.94	19.88	-58.0	-74.7	3.6	1.51e+00	0	47	104	0	60	212562
2026-01-29 01:57:39.80	288.75	19.79	-57.9	-74.1	3.6	1.51e+00	0	46	104	0	60	199256
2026-01-29 01:57:40.81	288.56	19.71	-57.8	-74.1	3.6	1.51e+00	0	47	104	0	60	197822
2026-01-29 01:57:41.82	288.38	19.62	-57.8	-74.0	3.6	1.51e+00	0	47	104	0	60	195713
2026-01-29 01:57:42.83	288.19	19.53	-57.7	-75.9	3.6	1.51e+00	0	46	104	0	60	243754
2026-01-29 01:57:43.84	288.01	19.45	-57.7	-74.1	3.6	1.51e+00	0	47	104	0	60	198504
2026-01-29 01:57:44.85	287.82	19.36	-58.0	-74.0	3.6	1.51e+00	0	46	104	0	60	195669
2026-01-29 01:57:45.85	287.64	19.27	-57.7	-74.3	3.6	1.51e+00	0	47	104	0	60	202271
2026-01-29 01:57:46.86	287.46	19.19	-57.7	-74.1	3.5	1.51e+00	0	47	104	0	60	198103
2026-01-29 01:57:47.87	287.28	19.10	-57.7	-73.8	3.6	1.51e+00	0	46	104	0	60	192868
2026-01-29 01:57:48.87	287.11	19.02	-57.7	-74.0	3.6	1.51e+00	0	46	104	0	60	196901
2026-01-29 01:57:49.88	286.93	18.93	-58.3	-74.6	3.6	1.51e+00	0	46	104	0	60	209725
2026-01-29 01:57:50.89	286.75	18.84	-57.7	-75.6	3.6	1.51e+00	0	46	104	0	60	235061
2026-01-29 01:57:51.89	286.58	18.76	-58.3	-74.7	3.6	1.51e+00	0	47	104	0	60	212639
2026-01-29 01:57:52.90	286.40	18.67	-58.4	-74.2	3.6	1.51e+00	0	47	104	0	60	200744
2026-01-29 01:57:53.90	286.23	18.58	-58.1	-74.5	3.6	1.51e+00	0	46	104	0	60	206992
2026-01-29 01:57:54.90	286.06	18.50	-58.3	-74.2	3.6	1.51e+00	0	47	104	0	60	201421
2026-01-29 01:57:55.91	285.89	18.41	-58.3	-74.2	3.5	1.51e+00	0	46	104	0	60	200213
2026-01-29 01:57:56.91	285.72	18.33	-58.4	-74.3	3.6	1.51e+00	0	46	104	0	60	202986
2026-01-29 01:57:57.92	285.55	18.24	-58.8	-75.1	3.6	1.51e+00	0	47	104	0	60	223093
2026-01-29 01:57:58.93	285.38	18.15	-57.5	-75.3	3.6	1.51e+00	0	47	104	0	60	228331
2026-01-29 01:57:59.94	285.21	18.07	-58.6	-74.2	3.6	1.51e+00	0	47	104	0	60	201135
2026-01-29 01:58:00.94	285.05	17.98	-58.6	-73.5	3.7	1.51e+00	0	47	104	0	60	185221
2026-01-29 01:58:01.95	284.88	17.90	-58.4	-74.0	3.6	1.50e+00	0	47	104	0	60	195749
2026-01-29 01:58:02.96	284.71	17.81	-58.6	-74.4	3.6	1.51e+00	0	47	104	0	60	204746
2026-01-29 01:58:03.96	284.55	17.72	-58.6	-74.0	3.6	1.50e+00	0	47	104	0	60	195360
2026-01-29 01:58:04.96	284.39	17.64	-58.6	-74.1	3.6	1.51e+00	0	46	104	0	60	197819
2026-01-29 01:58:05.97	284.23	17.55	-58.6	-75.0	3.6	1.51e+00	0	46	104	0	60	220399
2026-01-29 01:58:06.98	284.07	17.47	-57.6	-75.1	3.6	1.51e+00	0	46	104	0	60	223251
2026-01-29 01:58:07.98	283.91	17.38	-58.6	-74.6	3.6	1.51e+00	0	46	104	0	60	211313
2026-01-29 01:58:08.98	283.75	17.30	-58.6	-74.2	3.6	1.51e+00	0	46	104	0	60	200519
2026-01-29 01:58:09.99	283.59	17.21	-58.6	-74.8	3.6	1.51e+00	0	46	104	0	60	214817
2026-01-29 01:58:10.99	283.44	17.13	-58.6	-75.0	3.6	1.51e+00	0	47	104	0	60	221428
2026-01-29 01:58:11.99	283.28	17.04	-58.6	-74.2	3.6	1.51e+00	0	46	104	0	60	199895
2026-01-29 01:58:12.99	283.13	16.96	-58.5	-73.9	3.6	1.51e+00	0	47	104	0	60	193548
2026-01-29 01:58:14.00	282.97	16.87	-58.5	-73.7	3.7	1.50e+00	0	47	104	0	60	190255
2026-01-29 01:58:15.00	282.82	16.79	-58.4	-73.3	3.7	1.50e+00	0	47	104	0	60	181670
2026-01-29 01:58:16.01	282.67	16.70	-58.4	-72.9	3.8	1.48e+00	0	46	104	0	60	172797
2026-01-29 01:58:17.02	282.51	16.62	-58.3	-73.0	3.7	1.50e+00	0	46	104	0	60	174117
2026-01-29 01:58:18.03	282.36	16.53	-58.4	-72.9	3.8	1.48e+00	0	47	104	0	60	173356
2026-01-29 01:58:19.03	282.21	16.45	-58.4	-72.9	3.7	1.48e+00	0	47	104	0	60	173364
2026-01-29 01:58:20.04	282.06	16.36	-58.4	-72.8	3.7	1.49e+00	0	46	104	0	60	170720
2026-01-29 01:58:21.05	281.91	16.28	-58.5	-73.1	3.8	1.49e+00	0	46	104	0	60	177014
2026-01-29 01:58:22.06	281.77	16.19	-58.5	-73.2	3.7	1.50e+00	0	47	104	0	60	178815
2026-01-29 01:58:23.06	281.62	16.11	-58.5	-73.0	3.8	1.49e+00	0	46	104	0	60	175127
2026-01-29 01:58:24.07	281.47	16.02	-58.5	-72.8	3.8	1.48e+00	0	46	104	0	60	171314
2026-01-29 01:58:25.07	281.33	15.94	-58.5	-72.9	3.8	1.49e+00	0	46	104	0	60	173501
2026-01-29 01:58:26.07	281.19	15.86	-58.5	-72.9	3.7	1.48e+00	0	46	104	0	60	173666
2026-01-29 01:58:27.08	281.04	15.77	-58.5	-71.5	3.8	1.45e+00	0	46	0	0	60	147757
2026-01-29 01:58:28.09	280.90	15.69	-58.5	-70.6	3.8	1.42e+00	0	46	0	0	60	133434
2026-01-29 01:58:29.09	280.76	15.61	-58.4	-70.5	3.8	1.40e+00	0	46	0	0	60	130715
2026-01-29 01:58:30.10	280.62	15.52	-58.4	-70.5	3.8	1.38e+00	0	46	0	0	60	131438
2026-01-29 01:58:31.11	280.48	15.44	-58.4	-70.3	3.9	1.37e+00	0	46	0	0	60	128656
2026-01-29 01:58:32.11	280.34	15.36	-58.3	-70.2	3.9	1.37e+00	0	47	0	1048576	60	127478
2026-01-29 01:58:33.12	280.20	15.27	-58.3	-70.5	3.7	1.40e+00	0	46	104	1048576	60	131012
2026-01-29 01:58:34.12	280.06	15.19	-58.3	-71.9	3.9	1.39e+00	0	46	104	1048576	60	154070
2026-01-29 01:58:35.13	279.92	15.11	-58.3	-72.2	3.9	1.48e+00	0	46	104	1048576	60	159027
2026-01-29 01:58:36.14	279.79	15.02	-58.2	-72.3	3.9	1.44e+00	0	46	104	1048576	60	161383
2026-01-29 01:58:37.15	279.65	14.94	-58.2	-71.2	3.7	1.45e+00	0	46	0	1048576	60	141533
2026-01-29 01:58:38.15	279.52	14.86	-58.2	-72.3	3.9	1.48e+00	0	47	104	1048576	60	161880
2026-01-29 01:58:39.16	279.38	14.77	-58.2	-72.2	3.9	1.45e+00	0	46	104	1048576	60	159344
2026-01-29 01:58:40.16	279.25	14.69	-58.2	-71.0	3.7	1.44e+00	0	47	0	1048576	60	138502
2026-01-29 01:58:41.17	279.12	14.61	-58.2	-71.7	4.1	1.43e+00	0	46	104	1048576	60	151416
2026-01-29 01:58:42.18	278.99	14.53	-58.2	-69.9	4.0	1.34e+00	0	47	0	1048576	60	122907
2026-01-29 01:58:43.19	278.86	14.45	-58.2	-69.1	4.5	8.77e-01	0	47	0	2097152	60	112149
2026-01-29 01:58:44.19	278.73	14.36	-58.1	-67.9	5.4	5.82e-01	0	46	0	4194304	60	97692
2026-01-29 01:58:45.20	278.60	14.28	-57.9	-66.4	6.9	2.76e-01	0	46	0	6291456	60	81996
2026-01-29 01:58:46.20	278.47	14.20	-57.7	-65.1	8.7	8.59e-02	0	47	0	8388608	60	70202
2026-01-29 01:58:47.21	278.34	14.12	-57.4	-63.9	9.9	1.68e-02	0	47	0	9437184	60	61452
2026-01-29 01:58:48.22	278.21	14.04	-57.5	-64.2	9.8	9.56e-03	0	46	0	11534336	60	63231
2026-01-29 01:58:49.23	278.08	13.96	-57.4	-64.1	10.0	6.37e-03	0	46	0	13631488	60	62536
2026-01-29 01:58:50.24	277.96	13.87	-57.2	-63.1	11.0	6.74e-03	0	46	0	15728640	60	55855
2026-01-29 01:58:51.25	277.83	13.79	-57.1	-62.9	11.1	1.27e-03	0	46	0	17825792	60	54827
2026-01-29 01:58:52.26	277.71	13.71	-56.9	-62.3	11.9	9.57e-04	0	46	0	18874368	60	50951
2026-01-29 01:58:53.26	277.59	13.63	-57.1	-62.9	11.2	5.51e-04	0	47	0	20971520	60	54404
2026-01-29 01:58:54.26	277.46	13.55	-57.0	-62.7	11.3	9.18e-04	0	46	0	23068672	60	53470
2026-01-29 01:58:55.27	277.34	13.47	-56.7	-61.7	12.3	1.29e-03	0	46	0	25165824	60	47889
2026-01-29 01:58:56.28	277.22	13.39	-56.7	-61.7	12.4	6.68e-04	0	47	0	27262976	60	47657
2026-01-29 01:58:57.28	277.10	13.31	-56.3	-60.7	13.4	3.43e-05	0	47	0	28311552	60	42659
2026-01-29 01:58:58.29	276.98	13.23	-56.1	-60.2	13.5	6.80e-06	0	47	0	30408704	60	40166
2026-01-29 01:58:59.30	276.86	13.15	-56.1	-60.3	13.7	1.67e-05	0	46	0	32505856	60	40400
2026-01-29 01:59:00.30	276.74	13.07	-56.1	-60.1	13.5	6.10e-06	0	46	0	34603008	60	39554
2026-01-29 01:59:01.30	276.62	12.99	-56.0	-60.1	13.8	2.20e-06	0	46	0	36700160	60	39415
2026-01-29 01:59:02.30	276.50	12.91	-55.8	-59.4	14.5	1.50e-06	0	46	0	37748736	60	36744
2026-01-29 01:59:03.31	276.39	12.83	-55.6	-59.1	15.0	7.00e-07	0	46	0	39845888	60	35501
2026-01-29 01:59:04.31	276.27	12.75	-55.3	-58.5	15.5	0.00e+00	0	46	0	41943040	60	33143
2026-01-29 01:59:05.32	276.15	12.67	-55.5	-58.9	15.0	0.00e+00	0	46	0	44040192	60	34477
2026-01-29 01:59:06.32	276.04	12.60	-55.2	-58.3	15.7	0.00e+00	0	46	0	46137344	60	32149
2026-01-29 01:59:07.33	275.92	12.52	-55.4	-58.6	15.9	0.00e+00	0	46	0	47185920	60	33481
2026-01-29 01:59:08.34	275.81	12.44	-55.3	-58.4	15.6	0.00e+00	0	46	0	49283072	60	32758
2026-01-29 01:59:09.34	275.70	12.36	-55.1	-58.2	15.9	0.00e+00	0	46	0	51380224	60	31753
2026-01-29 01:59:10.35	275.58	12.28	-55.3	-58.4	15.6	0.00e+00	0	47	0	53477376	60	32717
2026-01-29 01:59:11.36	275.47	12.20	-55.4	-58.6	15.9	0.00e+00	0	46	0	55574528	60	33222
2026-01-29 01:59:12.36	275.36	12.12	-55.4	-58.5	15.7	0.00e+00	0	46	0	56623104	60	32911
2026-01-29 01:59:13.37	275.25	12.05	-55.3	-58.4	15.7	0.00e+00	0	46	0	58720256	60	32767
2026-01-29 01:59:14.38	275.14	11.97	-55.3	-58.3	16.1	0.00e+00	0	46	0	60817408	60	32396
2026-01-29 01:59:15.39	275.03	11.89	-55.3	-58.4	15.7	0.00e+00	0	46	0	62914560	60	32694
2026-01-29 01:59:16.39	274.92	11.81	-55.1	-58.1	16.2	0.00e+00	0	46	0	65011712	60	31528
2026-01-29 01:59:17.40	274.81	11.73	-54.9	-57.8	16.3	0.00e+00	0	46	0	66060288	60	30554
2026-01-29 01:59:18.40	274.71	11.66	-54.5	-57.2	17.0	0.00e+00	0	46	0	68157440	60	28296
2026-01-29 01:59:19.41	274.60	11.58	-54.5	-57.1	17.0	0.00e+00	0	46	0	70254592	60	28045
2026-01-29 01:59:20.42	274.49	11.50	-54.1	-56.4	17.5	0.00e+00	0	47	0	72351744	60	25981
2026-01-29 01:59:21.43	274.38	11.43	-54.0	-56.2	17.9	0.00e+00	0	47	0	74448896	60	25391
2026-01-29 01:59:22.43	274.28	11.35	-53.6	-55.7	18.5	0.00e+00	0	46	0	75497472	60	23895
2026-01-29 01:59:23.44	274.17	11.27	-53.6	-55.8	18.4	0.00e+00	0	46	0	77594624	60	24032
2026-01-29 01:59:24.44	274.07	11.20	-53.4	-55.5	18.7	0.00e+00	0	46	0	79691776	60	23276
2026-01-29 01:59:25.44	273.97	11.12	-53.3	-55.3	18.8	0.00e+00	0	46	0	81788928	60	22793
2026-01-29 01:59:26.45	273.86	11.04	-53.2	-55.1	18.8	0.00e+00	0	46	0	83886080	60	22286
2026-01-29 01:59:27.45	273.76	10.97	-53.5	-55.6	18.7	0.00e+00	0	46	0	84934656	60	23477
2026-01-29 01:59:28.46	273.66	10.89	-53.6	-55.6	18.5	0.00e+00	0	46	0	87031808	60	23733
2026-01-29 01:59:29.46	273.56	10.82	-53.6	-55.7	18.2	0.00e+00	0	46	0	89128960	60	23833
2026-01-29 01:59:30.46	273.46	10.74	-53.6	-55.8	18.2	0.00e+00	0	46	0	91226112	60	24059
2026-01-29 01:59:31.46	273.36	10.67	-53.8	-56.0	18.2	0.00e+00	0	46	0	93323264	60	24601
2026-01-29 01:59:32.46	273.26	10.59	-53.9	-56.2	17.8	0.00e+00	0	46	0	94371840	60	25323
2026-01-29 01:59:33.47	273.16	10.52	-54.3	-56.8	17.1	0.00e+00	0	46	0	96468992	60	27118
2026-01-29 01:59:34.46	273.06	10.44	-54.3	-56.8	17.3	0.00e+00	0	46	0	98566144	60	27087
2026-01-29 01:59:35.47	272.96	10.37	-54.4	-56.9	17.3	0.00e+00	0	46	0	100663296	60	27532
2026-01-29 01:59:36.47	272.86	10.29	-54.5	-57.0	17.0	0.00e+00	0	46	0	101711872	60	27772
2026-01-29 01:59:37.48	272.76	10.22	-54.7	-57.4	16.6	0.00e+00	0	46	0	103809024	60	29165
2026-01-29 01:59:38.49	272.67	10.14	-54.8	-57.5	16.7	0.00e+00	0	46	0	105906176	60	29512
2026-01-29 01:59:39.50	272.57	10.07	-54.7	-57.5	16.7	0.00e+00	0	47	0	108003328	60	29228
2026-01-29 01:59:40.50	272.48	10.00	-54.9	-57.7	16.4	0.00e+00	0	47	0	110100480	60	30091
2026-01-29 01:59:41.50	272.38	9.92	-54.8	-57.5	16.8	0.00e+00	0	46	0	112197632	60	29320
2026-01-29 01:59:42.50	272.29	9.85	-54.6	-57.2	16.9	0.00e+00	0	46	0	113246208	60	28463
2026-01-29 01:59:43.51	272.19	9.78	-54.6	-57.2	16.7	0.00e+00	0	46	0	115343360	60	28425
2026-01-29 01:59:44.52	272.10	9.70	-54.7	-57.3	16.9	0.00e+00	0	46	0	117440512	60	28617
2026-01-29 01:59:45.52	272.00	9.63	-54.6	-57.1	17.0	0.00e+00	0	46	0	119537664	60	28097
2026-01-29 01:59:46.52	271.91	9.56	-54.6	-57.2	17.0	0.00e+00	0	46	0	121634816	60	28303
2026-01-29 01:59:47.53	271.82	9.48	-54.6	-57.1	17.0	0.00e+00	0	46	0	122683392	60	28146
2026-01-29 01:59:48.53	271.73	9.41	-54.4	-56.9	17.1	0.00e+00	0	46	0	124780544	60	27382
2026-01-29 01:59:49.53	271.64	9.34	-54.5	-57.1	16.9	0.00e+00	0	46	0	126877696	60	27912
2026-01-29 01:59:50.53	271.55	9.26	-54.3	-56.7	17.2	0.00e+00	0	46	0	128974848	60	26786
2026-01-29 01:59:51.53	271.46	9.19	-54.3	-56.7	17.2	0.00e+00	0	46	0	130023424	60	26834
2026-01-29 01:59:52.53	271.37	9.12	-54.4	-56.9	17.1	0.00e+00	0	46	0	132120576	60	27333
2026-01-29 01:59:53.54	271.28	9.05	-54.5	-57.1	16.8	0.00e+00	0	47	0	134217728	60	28192
2026-01-29 01:59:54.54	271.19	8.98	-54.5	-57.1	16.9	0.00e+00	0	46	0	136314880	60	28066
2026-01-29 01:59:55.55	271.10	8.90	-54.7	-57.5	16.4	0.00e+00	0	46	0	138412032	60	29265
2026-01-29 01:59:56.55	271.01	8.83	-54.7	-57.4	16.6	0.00e+00	0	46	0	139460608	60	29063
2026-01-29 01:59:57.55	270.92	8.76	-54.8	-57.6	16.4	0.00e+00	0	46	0	141557760	60	29642
2026-01-29 01:59:58.56	270.83	8.69	-54.8	-57.6	16.3	0.00e+00	0	46	0	143654912	60	29848
2026-01-29 01:59:59.56	270.75	8.62	-55.0	-57.9	16.2	0.00e+00	0	46	0	145752064	60	30597
2026-01-29 02:00:00.56	270.66	8.55	-54.9	-57.8	16.2	0.00e+00	0	46	0	147849216	60	30411
2026-01-29 02:00:01.56	270.58	8.48	-55.2	-58.2	15.7	0.00e+00	0	46	0	148897792	60	31852
2026-01-29 02:00:02.55	270.49	8.41	-55.1	-58.1	15.7	0.00e+00	0	46	0	150994944	60	31453
2026-01-29 02:00:03.55	270.41	8.34	-55.0	-58.0	15.9	0.00e+00	0	46	0	153092096	60	31047
2026-01-29 02:00:04.56	270.32	8.26	-55.1	-58.0	16.0	0.00e+00	0	46	0	155189248	60	31176
2026-01-29 02:00:05.56	270.24	8.19	-55.0	-57.9	16.0	0.00e+00	0	46	0	157286400	60	30835
2026-01-29 02:00:06.57	270.15	8.12	-54.9	-57.7	16.3	0.00e+00	0	46	0	158334976	60	30219
2026-01-29 02:00:07.57	270.07	8.05	-54.7	-57.4	16.3	0.00e+00	0	47	0	160432128	60	29118
