passes_logs/2026/01/29/R3.2S-Naryan-Mar/R3.2S-Naryan-Mar__20260129_202803_SUOMI_NPP_rec.log

#Pass ID: 20260129_202803_SUOMI NPP
#Satellite: SUOMI NPP
#Configuration: NPP
#almurnet v.1.7.20240730
#Start time: 2026-01-29 20:28:04

#Version: 2.2.20231116
#Station: R3.2S-Naryan-Mar
#Location: 53.008057 lon 67.646978 lat
#TLE: 1 37849U 11061A   26028.91916408  .00000155  00000+0  94467-4 0  9990
#TLE: 2 37849  98.7824 330.8488 0002045  39.4457 320.6868 14.19531289738686

#Time	Az	El	Level	Level2	SNR	BER	BlckErr	Temp	State	Recorded	gain1	gain2
2026-01-29 20:28:04.73	16.46	0.05	-58.4	-75.1	3.6	1.51e+00	0	43	0	0	60	216698
2026-01-29 20:28:05.72	16.53	0.10	-59.8	-78.3	3.6	1.51e+00	0	44	104	0	60	323510
2026-01-29 20:28:06.73	16.61	0.14	-58.9	-77.6	3.6	1.51e+00	0	44	104	0	60	297965
2026-01-29 20:28:07.73	16.69	0.19	-60.3	-78.5	3.6	1.51e+00	0	45	104	0	60	329250
2026-01-29 20:28:08.74	16.77	0.24	-61.6	-79.1	3.6	1.51e+00	0	45	104	0	60	354238
2026-01-29 20:28:09.75	16.85	0.29	-61.0	-79.0	3.6	1.51e+00	0	45	104	0	60	350934
2026-01-29 20:28:10.75	16.93	0.33	-62.2	-79.0	3.6	1.51e+00	0	45	104	0	60	350153
2026-01-29 20:28:11.76	17.01	0.38	-60.6	-78.7	3.6	1.51e+00	0	45	104	0	60	337748
2026-01-29 20:28:12.76	17.09	0.43	-61.6	-78.9	3.6	1.51e+00	0	45	104	0	60	345997
2026-01-29 20:28:13.77	17.17	0.48	-61.3	-78.9	3.6	1.51e+00	0	45	104	0	60	343914
2026-01-29 20:28:14.78	17.25	0.52	-62.4	-79.2	3.6	1.51e+00	0	45	104	0	60	357231
2026-01-29 20:28:15.78	17.33	0.57	-60.6	-78.6	3.6	1.51e+00	0	45	104	0	60	332738
2026-01-29 20:28:16.78	17.42	0.62	-61.6	-78.9	3.6	1.51e+00	0	45	104	0	60	346647
2026-01-29 20:28:17.79	17.50	0.67	-61.6	-79.0	3.6	1.51e+00	0	45	104	0	60	348956
2026-01-29 20:28:18.80	17.58	0.72	-61.2	-78.8	3.6	1.51e+00	0	45	104	0	60	340303
2026-01-29 20:28:19.80	17.66	0.76	-62.2	-78.7	3.6	1.51e+00	0	45	104	0	60	336090
2026-01-29 20:28:20.80	17.74	0.81	-60.5	-78.0	3.6	1.51e+00	0	45	104	0	60	312808
2026-01-29 20:28:21.81	17.83	0.86	-60.3	-77.9	3.6	1.51e+00	0	45	104	0	60	308019
2026-01-29 20:28:22.81	17.91	0.91	-61.6	-78.6	3.6	1.51e+00	0	45	104	0	60	333647
2026-01-29 20:28:23.82	17.99	0.96	-60.7	-78.5	3.6	1.51e+00	0	45	104	0	60	329455
2026-01-29 20:28:24.83	18.07	1.00	-59.3	-77.8	3.6	1.51e+00	0	45	104	0	60	305145
2026-01-29 20:28:25.83	18.16	1.05	-57.9	-75.8	3.6	1.51e+00	0	45	104	0	60	242446
2026-01-29 20:28:26.83	18.24	1.10	-55.2	-77.7	3.6	1.51e+00	0	45	104	0	60	300839
2026-01-29 20:28:27.84	18.33	1.15	-57.3	-75.2	3.6	1.51e+00	0	45	104	0	60	226488
2026-01-29 20:28:28.85	18.41	1.20	-54.5	-74.9	3.6	1.51e+00	0	45	104	0	60	216569
2026-01-29 20:28:29.85	18.49	1.24	-56.2	-76.1	3.6	1.51e+00	0	45	104	0	60	250708
2026-01-29 20:28:30.86	18.58	1.29	-56.0	-75.7	3.6	1.51e+00	0	45	104	0	60	238402
2026-01-29 20:28:31.87	18.66	1.34	-60.6	-77.6	3.6	1.51e+00	0	45	104	0	60	298425
2026-01-29 20:28:32.87	18.75	1.39	-60.6	-77.4	3.6	1.51e+00	0	45	104	0	60	290773
2026-01-29 20:28:33.88	18.84	1.44	-57.0	-75.6	3.6	1.51e+00	0	45	104	0	60	237074
2026-01-29 20:28:34.88	18.92	1.49	-55.3	-75.8	3.6	1.51e+00	0	45	104	0	60	240207
2026-01-29 20:28:35.89	19.01	1.54	-59.4	-77.2	3.6	1.51e+00	0	45	104	0	60	284599
2026-01-29 20:28:36.89	19.09	1.58	-58.4	-76.1	3.6	1.51e+00	0	45	104	0	60	250654
2026-01-29 20:28:37.90	19.18	1.63	-56.4	-76.6	3.6	1.51e+00	0	45	104	0	60	263814
2026-01-29 20:28:38.90	19.27	1.68	-55.2	-75.5	3.6	1.51e+00	0	45	104	0	60	233786
2026-01-29 20:28:39.90	19.35	1.73	-57.0	-75.6	3.6	1.51e+00	0	45	104	0	60	234856
2026-01-29 20:28:40.91	19.44	1.78	-57.5	-76.6	3.6	1.51e+00	0	45	104	0	60	263701
2026-01-29 20:28:41.91	19.53	1.83	-57.6	-76.5	3.6	1.51e+00	0	45	104	0	60	262362
2026-01-29 20:28:42.91	19.62	1.87	-57.5	-76.6	3.6	1.51e+00	0	45	104	0	60	264030
2026-01-29 20:28:43.92	19.70	1.92	-57.5	-76.5	3.6	1.51e+00	0	45	104	0	60	262692
2026-01-29 20:28:44.93	19.79	1.97	-57.6	-76.6	3.6	1.51e+00	0	45	104	0	60	264006
2026-01-29 20:28:45.94	19.88	2.02	-57.5	-76.6	3.6	1.51e+00	0	45	104	0	60	264842
2026-01-29 20:28:46.95	19.97	2.07	-57.5	-76.5	3.6	1.51e+00	0	45	104	0	60	262175
2026-01-29 20:28:47.96	20.06	2.12	-57.6	-76.7	3.6	1.51e+00	0	45	104	0	60	266816
2026-01-29 20:28:48.96	20.15	2.17	-57.5	-76.6	3.6	1.51e+00	0	45	104	0	60	263812
2026-01-29 20:28:49.97	20.24	2.22	-57.5	-76.4	3.6	1.51e+00	0	45	104	0	60	258840
2026-01-29 20:28:50.98	20.33	2.27	-57.6	-76.4	3.6	1.51e+00	0	45	104	0	60	260254
2026-01-29 20:28:51.99	20.42	2.32	-57.4	-76.5	3.6	1.51e+00	0	45	104	0	60	262994
2026-01-29 20:28:53.00	20.51	2.37	-57.6	-76.5	3.6	1.51e+00	0	45	104	0	60	262801
2026-01-29 20:28:54.00	20.60	2.41	-57.6	-76.4	3.6	1.51e+00	0	45	104	0	60	257648
2026-01-29 20:28:55.01	20.70	2.46	-57.6	-76.5	3.6	1.51e+00	0	45	104	0	60	262077
2026-01-29 20:28:56.01	20.79	2.51	-57.6	-76.5	3.6	1.51e+00	0	45	104	0	60	263126
2026-01-29 20:28:57.02	20.88	2.56	-57.7	-76.4	3.6	1.51e+00	0	45	104	0	60	259502
2026-01-29 20:28:58.02	20.97	2.61	-57.7	-76.5	3.6	1.51e+00	0	45	104	0	60	261103
2026-01-29 20:28:59.03	21.06	2.66	-57.8	-76.5	3.6	1.51e+00	0	45	104	0	60	262676
2026-01-29 20:29:00.04	21.16	2.71	-57.8	-76.4	3.6	1.51e+00	0	45	104	0	60	259317
2026-01-29 20:29:01.05	21.25	2.76	-57.8	-76.5	3.6	1.51e+00	0	45	104	0	60	262513
2026-01-29 20:29:02.06	21.34	2.81	-57.8	-76.5	3.6	1.51e+00	0	45	104	0	60	261896
2026-01-29 20:29:03.07	21.44	2.86	-57.8	-76.5	3.6	1.51e+00	0	45	104	0	60	261383
2026-01-29 20:29:04.07	21.53	2.91	-57.9	-76.4	3.6	1.51e+00	0	45	104	0	60	259391
2026-01-29 20:29:05.08	21.63	2.96	-57.9	-76.6	3.6	1.51e+00	0	45	104	0	60	263948
2026-01-29 20:29:06.08	21.72	3.01	-57.9	-76.6	3.6	1.51e+00	0	45	104	0	60	264152
2026-01-29 20:29:07.09	21.82	3.05	-57.8	-76.6	3.6	1.51e+00	0	46	104	0	60	264942
2026-01-29 20:29:08.10	21.91	3.10	-57.8	-76.4	3.6	1.51e+00	0	45	104	0	60	259783
2026-01-29 20:29:09.11	22.01	3.15	-57.9	-76.5	3.6	1.51e+00	0	46	104	0	60	262638
2026-01-29 20:29:10.11	22.10	3.20	-57.7	-76.5	3.6	1.51e+00	0	45	104	0	60	261671
2026-01-29 20:29:11.11	22.20	3.25	-57.7	-76.4	3.6	1.51e+00	0	45	104	0	60	259828
2026-01-29 20:29:12.12	22.30	3.30	-57.7	-76.5	3.6	1.51e+00	0	45	104	0	60	261653
2026-01-29 20:29:13.12	22.39	3.35	-57.8	-76.5	3.6	1.51e+00	0	45	104	0	60	261764
2026-01-29 20:29:14.13	22.49	3.40	-57.7	-76.5	3.6	1.51e+00	0	45	104	0	60	261062
2026-01-29 20:29:15.13	22.59	3.45	-57.8	-76.4	3.6	1.51e+00	0	45	104	0	60	259160
2026-01-29 20:29:16.14	22.68	3.50	-57.8	-76.4	3.6	1.51e+00	0	45	104	0	60	258656
2026-01-29 20:29:17.15	22.78	3.55	-57.8	-76.4	3.6	1.51e+00	0	46	104	0	60	259087
2026-01-29 20:29:18.16	22.88	3.60	-57.8	-76.4	3.6	1.51e+00	0	45	104	0	60	259431
2026-01-29 20:29:19.16	22.98	3.65	-57.7	-76.4	3.6	1.51e+00	0	45	104	0	60	258563
2026-01-29 20:29:20.17	23.08	3.70	-57.8	-76.2	3.6	1.51e+00	0	45	104	0	60	254205
2026-01-29 20:29:21.18	23.18	3.75	-57.8	-76.3	3.6	1.51e+00	0	46	104	0	60	256637
2026-01-29 20:29:22.18	23.28	3.80	-57.9	-76.3	3.6	1.51e+00	0	46	104	0	60	254772
2026-01-29 20:29:23.19	23.38	3.85	-57.9	-76.4	3.6	1.51e+00	0	46	104	0	60	258639
2026-01-29 20:29:24.20	23.48	3.90	-57.9	-76.3	3.5	1.51e+00	0	46	104	0	60	257061
2026-01-29 20:29:25.20	23.58	3.95	-57.9	-76.5	3.6	1.51e+00	0	46	104	0	60	262860
2026-01-29 20:29:26.20	23.68	4.00	-57.9	-76.5	3.6	1.51e+00	0	45	104	0	60	260657
2026-01-29 20:29:27.20	23.78	4.05	-57.9	-76.4	3.6	1.51e+00	0	45	104	0	60	260011
2026-01-29 20:29:28.20	23.88	4.10	-57.8	-76.4	3.6	1.51e+00	0	45	104	0	60	259487
2026-01-29 20:29:29.20	23.98	4.15	-57.8	-76.4	3.6	1.51e+00	0	45	104	0	60	257501
2026-01-29 20:29:30.21	24.08	4.20	-57.8	-76.4	3.6	1.51e+00	0	45	104	0	60	257456
2026-01-29 20:29:31.22	24.19	4.25	-57.8	-76.6	3.6	1.51e+00	0	45	104	0	60	263369
2026-01-29 20:29:32.22	24.29	4.30	-57.8	-76.5	3.6	1.51e+00	0	46	104	0	60	261502
2026-01-29 20:29:33.23	24.39	4.35	-57.8	-76.6	3.6	1.51e+00	0	46	104	0	60	264175
2026-01-29 20:29:34.24	24.50	4.40	-57.7	-76.4	3.6	1.51e+00	0	46	104	0	60	259167
2026-01-29 20:29:35.25	24.60	4.45	-57.8	-76.4	3.6	1.51e+00	0	46	104	0	60	259821
2026-01-29 20:29:36.25	24.70	4.50	-57.7	-76.3	3.6	1.51e+00	0	46	104	0	60	255269
2026-01-29 20:29:37.26	24.81	4.55	-57.7	-76.4	3.5	1.51e+00	0	45	104	0	60	259249
2026-01-29 20:29:38.26	24.91	4.60	-57.7	-76.3	3.6	1.51e+00	0	46	104	0	60	256155
2026-01-29 20:29:39.27	25.02	4.65	-57.8	-76.4	3.6	1.51e+00	0	46	104	0	60	260211
2026-01-29 20:29:40.27	25.12	4.70	-57.7	-76.3	3.6	1.51e+00	0	46	104	0	60	255659
2026-01-29 20:29:41.27	25.23	4.75	-57.6	-76.4	3.6	1.51e+00	0	46	104	0	60	258196
2026-01-29 20:29:42.28	25.33	4.80	-57.6	-76.2	3.6	1.51e+00	0	46	104	0	60	252441
2026-01-29 20:29:43.29	25.44	4.85	-57.7	-76.3	3.6	1.51e+00	0	46	104	0	60	255223
2026-01-29 20:29:44.30	25.55	4.90	-57.7	-76.4	3.6	1.51e+00	0	46	104	0	60	259017
2026-01-29 20:29:45.31	25.66	4.95	-57.7	-76.3	3.6	1.51e+00	0	46	104	0	60	257064
2026-01-29 20:29:46.31	25.76	5.00	-57.6	-76.3	3.6	1.51e+00	0	46	104	0	60	255811
2026-01-29 20:29:47.32	25.87	5.05	-57.5	-76.3	3.6	1.51e+00	0	46	104	0	60	255585
2026-01-29 20:29:48.32	25.98	5.10	-57.6	-76.4	3.5	1.51e+00	0	46	104	0	60	257920
2026-01-29 20:29:49.33	26.09	5.15	-57.6	-76.3	3.6	1.51e+00	0	46	104	0	60	254621
2026-01-29 20:29:50.33	26.20	5.20	-57.6	-76.3	3.6	1.51e+00	0	46	104	0	60	256288
2026-01-29 20:29:51.34	26.31	5.25	-57.6	-76.3	3.6	1.51e+00	0	46	104	0	60	254925
2026-01-29 20:29:52.35	26.42	5.30	-57.5	-76.3	3.6	1.51e+00	0	46	104	0	60	255839
2026-01-29 20:29:53.36	26.53	5.35	-57.5	-76.4	3.6	1.51e+00	0	46	104	0	60	260242
2026-01-29 20:29:54.36	26.64	5.40	-57.5	-76.3	3.6	1.51e+00	0	46	104	0	60	256008
2026-01-29 20:29:55.37	26.75	5.45	-57.5	-76.1	3.6	1.51e+00	0	46	104	0	60	249702
2026-01-29 20:29:56.38	26.86	5.50	-57.5	-75.4	3.6	1.51e+00	0	46	104	0	60	230124
2026-01-29 20:29:57.39	26.97	5.56	-57.6	-74.8	3.6	1.51e+00	0	46	104	0	60	214156
2026-01-29 20:29:58.39	27.08	5.61	-57.5	-73.5	3.7	1.50e+00	0	46	104	0	60	185230
2026-01-29 20:29:59.40	27.20	5.66	-57.4	-70.7	4.8	9.77e-01	0	46	104	0	60	133717
2026-01-29 20:30:00.40	27.31	5.71	-57.2	-66.9	7.5	3.08e-01	0	46	0	1048576	60	86953
2026-01-29 20:30:01.41	27.42	5.76	-56.8	-64.4	10.5	3.86e-02	0	46	0	3145728	60	65164
2026-01-29 20:30:02.41	27.53	5.81	-56.3	-62.3	13.1	2.24e-04	0	46	0	5242880	60	51033
2026-01-29 20:30:03.42	27.65	5.86	-55.7	-60.6	15.0	7.00e-07	0	46	0	7340032	60	42016
2026-01-29 20:30:04.43	27.76	5.91	-55.1	-59.0	16.4	0.00e+00	0	46	0	8388608	60	35022
2026-01-29 20:30:05.44	27.88	5.96	-54.7	-58.2	17.1	0.00e+00	0	46	0	10485760	60	31885
2026-01-29 20:30:06.45	27.99	6.01	-54.5	-57.9	17.4	0.00e+00	0	46	0	12582912	60	30765
2026-01-29 20:30:07.46	28.11	6.06	-54.5	-57.9	17.4	0.00e+00	0	46	0	14680064	60	30760
2026-01-29 20:30:08.46	28.22	6.11	-54.6	-57.5	17.4	0.00e+00	0	46	0	16777216	60	29301
2026-01-29 20:30:09.47	28.34	6.16	-55.3	-58.3	16.6	0.00e+00	0	46	0	18874368	60	32401
2026-01-29 20:30:10.47	28.46	6.21	-56.3	-61.6	13.5	7.00e-07	0	46	0	19922944	60	47054
2026-01-29 20:30:11.47	28.57	6.26	-57.3	-63.3	12.5	1.01e-02	0	46	0	22020096	60	57392
2026-01-29 20:30:12.48	28.69	6.31	-54.2	-58.6	15.5	0.00e+00	0	46	0	24117248	60	33189
2026-01-29 20:30:13.49	28.81	6.36	-54.6	-58.2	16.5	0.00e+00	0	46	0	26214400	60	31915
2026-01-29 20:30:14.50	28.93	6.41	-54.9	-58.2	16.7	0.00e+00	0	46	0	28311552	60	31911
2026-01-29 20:30:15.50	29.05	6.46	-55.3	-58.5	16.7	0.00e+00	0	46	0	29360128	60	32871
2026-01-29 20:30:16.51	29.16	6.51	-55.1	-58.6	16.3	0.00e+00	0	46	0	31457280	60	33323
2026-01-29 20:30:17.51	29.28	6.56	-54.3	-58.7	15.5	0.00e+00	0	46	0	33554432	60	33903
2026-01-29 20:30:18.52	29.40	6.61	-53.5	-58.9	14.6	0.00e+00	0	46	0	35651584	60	34407
2026-01-29 20:30:19.52	29.52	6.67	-52.5	-59.0	14.0	7.00e-07	0	46	0	36700160	60	34787
2026-01-29 20:30:20.53	29.64	6.72	-52.3	-59.1	13.8	2.20e-06	0	46	0	38797312	60	35352
2026-01-29 20:30:21.53	29.76	6.77	-52.7	-59.4	14.0	7.00e-07	0	46	0	40894464	60	36526
2026-01-29 20:30:22.54	29.89	6.82	-54.1	-59.2	15.7	0.00e+00	0	46	0	42991616	60	35698
2026-01-29 20:30:23.55	30.01	6.87	-55.2	-58.8	16.3	0.00e+00	0	46	0	45088768	60	33970
2026-01-29 20:30:24.56	30.13	6.92	-54.6	-58.5	15.7	0.00e+00	0	46	0	47185920	60	33154
2026-01-29 20:30:25.56	30.25	6.97	-54.0	-58.8	15.0	0.00e+00	0	46	0	48234496	60	33952
2026-01-29 20:30:26.56	30.37	7.02	-53.5	-58.7	15.0	0.00e+00	0	46	0	50331648	60	33654
2026-01-29 20:30:27.56	30.50	7.07	-53.5	-58.8	15.4	0.00e+00	0	46	0	52428800	60	33965
2026-01-29 20:30:28.57	30.62	7.12	-54.3	-58.4	16.6	0.00e+00	0	46	0	54525952	60	32682
2026-01-29 20:30:29.57	30.74	7.17	-55.0	-58.2	17.3	0.00e+00	0	46	0	56623104	60	31738
2026-01-29 20:30:30.57	30.87	7.22	-55.3	-58.2	17.2	0.00e+00	0	46	0	57671680	60	31874
2026-01-29 20:30:31.58	30.99	7.27	-55.3	-58.4	16.6	0.00e+00	0	46	0	59768832	60	32742
2026-01-29 20:30:32.58	31.12	7.32	-54.8	-58.6	16.1	0.00e+00	0	46	0	61865984	60	33344
2026-01-29 20:30:33.59	31.24	7.37	-54.4	-58.5	16.4	0.00e+00	0	46	0	63963136	60	32977
2026-01-29 20:30:34.60	31.37	7.42	-54.2	-57.9	16.9	0.00e+00	0	46	0	65011712	60	30873
2026-01-29 20:30:35.61	31.50	7.47	-54.6	-58.1	17.2	0.00e+00	0	46	0	67108864	60	31323
2026-01-29 20:30:36.61	31.62	7.52	-54.8	-57.7	17.3	0.00e+00	0	46	0	69206016	60	30184
2026-01-29 20:30:37.61	31.75	7.57	-54.8	-57.7	16.9	0.00e+00	0	46	0	71303168	60	30179
2026-01-29 20:30:38.62	31.88	7.62	-54.5	-57.7	17.0	0.00e+00	0	46	0	73400320	60	30142
2026-01-29 20:30:39.62	32.01	7.67	-54.3	-57.8	17.1	0.00e+00	0	46	0	74448896	60	30447
2026-01-29 20:30:40.63	32.13	7.72	-54.6	-57.9	17.2	0.00e+00	0	46	0	76546048	60	30613
2026-01-29 20:30:41.63	32.26	7.77	-55.1	-58.0	17.7	0.00e+00	0	46	0	78643200	60	31292
2026-01-29 20:30:42.64	32.39	7.82	-55.5	-58.0	17.6	0.00e+00	0	46	0	80740352	60	30958
2026-01-29 20:30:43.64	32.52	7.87	-55.2	-57.6	17.7	0.00e+00	0	46	0	82837504	60	29688
2026-01-29 20:30:44.65	32.65	7.92	-54.3	-57.3	17.4	0.00e+00	0	46	0	84934656	60	28572
2026-01-29 20:30:45.66	32.78	7.97	-53.9	-57.2	17.7	0.00e+00	0	46	0	85983232	60	28285
2026-01-29 20:30:46.66	32.91	8.02	-54.1	-57.2	17.9	0.00e+00	0	46	0	88080384	60	28489
2026-01-29 20:30:47.66	33.05	8.07	-53.8	-57.0	17.8	0.00e+00	0	46	0	90177536	60	27693
2026-01-29 20:30:48.67	33.18	8.12	-54.2	-57.2	17.4	0.00e+00	0	46	0	92274688	60	28324
2026-01-29 20:30:49.67	33.31	8.17	-54.2	-57.2	17.2	0.00e+00	0	46	0	93323264	60	28222
2026-01-29 20:30:50.67	33.44	8.22	-54.0	-57.1	17.1	0.00e+00	0	46	0	95420416	60	28011
2026-01-29 20:30:51.67	33.57	8.27	-54.0	-57.2	16.9	0.00e+00	0	46	0	97517568	60	28446
2026-01-29 20:30:52.68	33.71	8.32	-54.0	-56.7	18.4	0.00e+00	0	46	0	99614720	60	26941
2026-01-29 20:30:53.68	33.84	8.37	-54.1	-56.8	18.6	0.00e+00	0	46	0	101711872	60	27096
2026-01-29 20:30:54.68	33.98	8.42	-53.9	-56.7	18.4	0.00e+00	0	46	0	102760448	60	26911
2026-01-29 20:30:55.68	34.11	8.47	-53.4	-56.9	17.5	0.00e+00	0	46	0	104857600	60	27320
2026-01-29 20:30:56.69	34.25	8.52	-52.7	-56.5	17.2	0.00e+00	0	46	0	106954752	60	26063
2026-01-29 20:30:57.70	34.38	8.57	-52.6	-56.5	17.2	0.00e+00	0	46	0	109051904	60	26208
2026-01-29 20:30:58.70	34.52	8.62	-52.9	-56.4	17.6	0.00e+00	0	46	0	111149056	60	25865
2026-01-29 20:30:59.71	34.66	8.67	-53.7	-55.9	19.3	0.00e+00	0	46	0	112197632	60	24417
2026-01-29 20:31:00.71	34.79	8.72	-54.1	-55.7	19.8	0.00e+00	0	46	0	114294784	60	23789
2026-01-29 20:31:01.72	34.93	8.77	-53.8	-55.7	19.8	0.00e+00	0	46	0	116391936	60	23832
2026-01-29 20:31:02.72	35.07	8.82	-53.7	-55.7	19.9	0.00e+00	0	46	0	118489088	60	23800
2026-01-29 20:31:03.73	35.21	8.87	-53.8	-55.6	19.7	0.00e+00	0	46	0	120586240	60	23681
2026-01-29 20:31:04.73	35.35	8.92	-53.9	-55.9	19.4	0.00e+00	0	46	0	121634816	60	24385
2026-01-29 20:31:05.73	35.49	8.97	-53.5	-56.0	18.8	0.00e+00	0	46	0	123731968	60	24791
2026-01-29 20:31:06.74	35.63	9.02	-53.3	-56.3	18.7	0.00e+00	0	46	0	125829120	60	25617
2026-01-29 20:31:07.75	35.77	9.06	-53.5	-56.4	18.6	0.00e+00	0	46	0	127926272	60	25864
2026-01-29 20:31:08.76	35.91	9.11	-54.1	-56.3	18.6	0.00e+00	0	46	0	130023424	60	25633
2026-01-29 20:31:09.76	36.05	9.16	-54.3	-56.3	18.3	0.00e+00	0	46	0	131072000	60	25729
2026-01-29 20:31:10.77	36.19	9.21	-53.9	-56.0	18.5	0.00e+00	0	46	0	133169152	60	24846
2026-01-29 20:31:11.77	36.33	9.26	-53.4	-55.9	18.3	0.00e+00	0	46	0	135266304	60	24349
2026-01-29 20:31:12.78	36.48	9.31	-53.2	-56.0	18.3	0.00e+00	0	46	0	137363456	60	24833
2026-01-29 20:31:13.79	36.62	9.36	-53.0	-55.9	18.3	0.00e+00	0	46	0	139460608	60	24531
2026-01-29 20:31:14.80	36.76	9.41	-53.3	-56.0	18.7	0.00e+00	0	46	0	140509184	60	24616
2026-01-29 20:31:15.80	36.91	9.46	-54.1	-56.2	18.9	0.00e+00	0	46	0	142606336	60	25171
2026-01-29 20:31:16.81	37.05	9.51	-54.3	-56.2	19.1	0.00e+00	0	46	0	144703488	60	25349
2026-01-29 20:31:17.82	37.20	9.56	-54.4	-56.3	19.3	0.00e+00	0	46	0	146800640	60	25548
2026-01-29 20:31:18.83	37.35	9.60	-54.3	-56.1	19.5	0.00e+00	0	46	0	148897792	60	25088
2026-01-29 20:31:19.84	37.49	9.65	-54.4	-56.2	19.5	0.00e+00	0	46	0	149946368	60	25397
2026-01-29 20:31:20.84	37.64	9.70	-54.3	-56.2	19.3	0.00e+00	0	46	0	152043520	60	25330
2026-01-29 20:31:21.85	37.79	9.75	-54.1	-56.5	18.8	0.00e+00	0	46	0	154140672	60	26059
2026-01-29 20:31:22.86	37.93	9.80	-54.0	-56.5	18.6	0.00e+00	0	46	0	156237824	60	26237
2026-01-29 20:31:23.87	38.08	9.85	-54.0	-56.5	18.6	0.00e+00	0	46	0	158334976	60	26221
2026-01-29 20:31:24.87	38.23	9.89	-54.2	-56.5	18.7	0.00e+00	0	46	0	159383552	60	26093
2026-01-29 20:31:25.87	38.38	9.94	-54.3	-56.4	19.1	0.00e+00	0	46	0	161480704	60	25797
2026-01-29 20:31:26.88	38.53	9.99	-54.2	-56.1	19.4	0.00e+00	0	46	0	163577856	60	25079
2026-01-29 20:31:27.89	38.68	10.04	-54.4	-56.3	19.2	0.00e+00	0	46	0	165675008	60	25544
2026-01-29 20:31:28.90	38.83	10.09	-54.1	-56.0	19.3	0.00e+00	0	46	0	167772160	60	24616
2026-01-29 20:31:29.91	38.98	10.14	-54.3	-56.2	19.1	0.00e+00	0	46	0	168820736	60	25210
2026-01-29 20:31:30.92	39.13	10.18	-54.2	-56.1	19.1	0.00e+00	0	46	0	170917888	60	25052
2026-01-29 20:31:31.93	39.29	10.23	-54.4	-56.3	19.3	0.00e+00	0	46	0	173015040	60	25522
2026-01-29 20:31:32.93	39.44	10.28	-53.9	-55.9	19.5	0.00e+00	0	46	0	175112192	60	24558
2026-01-29 20:31:33.94	39.59	10.33	-53.7	-56.1	19.3	0.00e+00	0	46	0	177209344	60	24907
2026-01-29 20:31:34.95	39.74	10.37	-53.8	-56.1	19.2	0.00e+00	0	45	0	178257920	60	25016
2026-01-29 20:31:35.96	39.90	10.42	-54.1	-56.2	19.3	0.00e+00	0	46	0	180355072	60	25273
2026-01-29 20:31:36.96	40.05	10.47	-54.3	-56.1	19.5	0.00e+00	0	46	0	182452224	60	24950
2026-01-29 20:31:37.97	40.21	10.52	-54.1	-55.8	19.5	0.00e+00	0	46	0	184549376	60	24079
2026-01-29 20:31:38.98	40.36	10.56	-54.0	-55.9	19.5	0.00e+00	0	46	0	186646528	60	24460
2026-01-29 20:31:39.98	40.52	10.61	-53.8	-55.8	19.6	0.00e+00	0	46	0	187695104	60	24065
2026-01-29 20:31:40.99	40.67	10.66	-53.9	-55.8	19.7	0.00e+00	0	46	0	189792256	60	24041
2026-01-29 20:31:41.99	40.83	10.70	-54.1	-55.9	19.4	0.00e+00	0	46	0	191889408	60	24549
2026-01-29 20:31:43.00	40.99	10.75	-54.2	-56.0	19.5	0.00e+00	0	46	0	193986560	60	24639
2026-01-29 20:31:44.00	41.14	10.80	-54.3	-56.1	19.3	0.00e+00	0	46	0	196083712	60	24875
2026-01-29 20:31:45.01	41.30	10.84	-54.6	-56.5	19.0	0.00e+00	0	46	0	197132288	60	26068
2026-01-29 20:31:46.02	41.46	10.89	-54.4	-56.4	18.9	0.00e+00	0	46	0	199229440	60	25889
2026-01-29 20:31:47.03	41.62	10.94	-54.0	-56.4	18.6	0.00e+00	0	46	0	201326592	60	25954
2026-01-29 20:31:48.04	41.78	10.98	-53.8	-56.5	18.6	0.00e+00	0	46	0	203423744	60	26123
2026-01-29 20:31:49.04	41.94	11.03	-53.6	-56.3	18.8	0.00e+00	0	46	0	205520896	60	25648
2026-01-29 20:31:50.05	42.10	11.08	-53.7	-56.2	19.0	0.00e+00	0	46	0	206569472	60	25405
2026-01-29 20:31:51.06	42.26	11.12	-54.1	-56.3	19.0	0.00e+00	0	46	0	208666624	60	25588
2026-01-29 20:31:52.07	42.43	11.17	-54.3	-56.2	19.3	0.00e+00	0	46	0	210763776	60	25249
2026-01-29 20:31:53.07	42.59	11.21	-54.3	-56.1	19.5	0.00e+00	0	46	0	212860928	60	24915
2026-01-29 20:31:54.08	42.75	11.26	-54.5	-56.3	19.4	0.00e+00	0	46	0	214958080	60	25458
2026-01-29 20:31:55.08	42.91	11.30	-54.4	-56.2	19.3	0.00e+00	0	46	0	216006656	60	25321
2026-01-29 20:31:56.09	43.08	11.35	-54.6	-56.5	19.1	0.00e+00	0	46	0	218103808	60	26127
2026-01-29 20:31:57.10	43.24	11.39	-54.5	-56.6	18.9	0.00e+00	0	46	0	220200960	60	26370
2026-01-29 20:31:58.10	43.40	11.44	-54.6	-56.8	18.8	0.00e+00	0	46	0	222298112	60	26979
2026-01-29 20:31:59.11	43.57	11.48	-54.8	-56.9	18.7	0.00e+00	0	46	0	224395264	60	27267
2026-01-29 20:32:00.12	43.74	11.53	-54.9	-56.8	18.9	0.00e+00	0	46	0	225443840	60	27122
2026-01-29 20:32:01.12	43.90	11.57	-54.8	-56.7	19.0	0.00e+00	0	46	0	227540992	60	26807
2026-01-29 20:32:02.13	44.07	11.62	-54.9	-56.8	18.9	0.00e+00	0	46	0	229638144	60	27174
2026-01-29 20:32:03.14	44.24	11.66	-54.7	-56.6	19.1	0.00e+00	0	46	0	231735296	60	26624
2026-01-29 20:32:04.14	44.40	11.71	-54.6	-56.4	19.2	0.00e+00	0	46	0	233832448	60	26029
2026-01-29 20:32:05.14	44.57	11.75	-54.7	-56.5	19.1	0.00e+00	0	46	0	235929600	60	26292
2026-01-29 20:32:06.15	44.74	11.80	-54.5	-56.4	19.0	0.00e+00	0	46	0	236978176	60	25928
2026-01-29 20:32:07.16	44.91	11.84	-54.6	-56.6	18.8	0.00e+00	0	46	0	239075328	60	26422
2026-01-29 20:32:08.16	45.08	11.88	-54.8	-56.8	18.7	0.00e+00	0	46	0	241172480	60	27103
2026-01-29 20:32:09.17	45.25	11.93	-54.7	-56.7	18.7	0.00e+00	0	46	0	243269632	60	26679
2026-01-29 20:32:10.18	45.42	11.97	-54.9	-56.9	18.7	0.00e+00	0	46	0	244318208	60	27358
2026-01-29 20:32:11.18	45.59	12.01	-55.1	-57.1	18.5	0.00e+00	0	46	0	246415360	60	28192
2026-01-29 20:32:12.18	45.76	12.06	-55.1	-57.2	18.5	0.00e+00	0	46	0	248512512	60	28293
2026-01-29 20:32:13.19	45.93	12.10	-54.9	-57.0	18.6	0.00e+00	0	46	0	250609664	60	27702
2026-01-29 20:32:14.20	46.10	12.14	-55.1	-57.3	18.1	0.00e+00	0	46	0	252706816	60	28697
2026-01-29 20:32:15.20	46.28	12.19	-55.1	-57.2	18.3	0.00e+00	0	46	0	253755392	60	28263
2026-01-29 20:32:16.21	46.45	12.23	-55.2	-57.2	18.3	0.00e+00	0	46	0	255852544	60	28417
2026-01-29 20:32:17.20	46.62	12.27	-55.4	-57.4	18.3	0.00e+00	0	46	0	257949696	60	29066
2026-01-29 20:32:18.21	46.79	12.31	-55.3	-57.3	18.4	0.00e+00	0	46	0	260046848	60	28779
2026-01-29 20:32:19.22	46.97	12.35	-55.2	-57.3	18.1	0.00e+00	0	46	0	262144000	60	28831
2026-01-29 20:32:20.23	47.15	12.40	-55.0	-57.2	18.4	0.00e+00	0	46	0	263192576	60	28494
2026-01-29 20:32:21.24	47.32	12.44	-55.1	-57.2	18.4	0.00e+00	0	46	0	265289728	60	28481
2026-01-29 20:32:22.24	47.50	12.48	-55.4	-57.4	18.3	0.00e+00	0	46	0	267386880	60	29130
2026-01-29 20:32:23.25	47.68	12.52	-55.4	-57.4	18.5	0.00e+00	0	46	0	269484032	60	29060
2026-01-29 20:32:24.26	47.85	12.56	-55.3	-57.5	18.2	0.00e+00	0	46	0	271581184	60	29489
2026-01-29 20:32:25.27	48.03	12.60	-55.5	-57.9	17.8	0.00e+00	0	46	0	272629760	60	30805
2026-01-29 20:32:26.28	48.21	12.64	-55.7	-58.0	17.6	0.00e+00	0	46	0	274726912	60	31264
2026-01-29 20:32:27.28	48.39	12.68	-55.7	-58.1	17.7	0.00e+00	0	46	0	276824064	60	31426
2026-01-29 20:32:28.28	48.57	12.72	-55.7	-58.3	17.5	0.00e+00	0	46	0	278921216	60	32242
2026-01-29 20:32:29.29	48.75	12.77	-55.6	-58.2	17.6	0.00e+00	0	46	0	281018368	60	31770
2026-01-29 20:32:30.30	48.93	12.81	-55.8	-58.3	17.7	0.00e+00	0	46	0	282066944	60	32214
2026-01-29 20:32:31.31	49.11	12.85	-55.9	-58.3	17.6	0.00e+00	0	46	0	284164096	60	32034
2026-01-29 20:32:32.32	49.29	12.89	-55.9	-58.3	17.6	0.00e+00	0	46	0	286261248	60	32363
2026-01-29 20:32:33.32	49.47	12.92	-55.9	-58.5	17.2	0.00e+00	0	46	0	288358400	60	32793
2026-01-29 20:32:34.33	49.65	12.96	-55.8	-58.6	16.9	0.00e+00	0	46	0	290455552	60	33290
2026-01-29 20:32:35.34	49.84	13.00	-55.9	-58.8	16.9	0.00e+00	0	46	0	291504128	60	34192
2026-01-29 20:32:36.35	50.02	13.04	-55.9	-58.8	16.9	0.00e+00	0	46	0	293601280	60	34017
2026-01-29 20:32:37.36	50.20	13.08	-56.2	-58.8	17.1	0.00e+00	0	46	0	295698432	60	33946
2026-01-29 20:32:38.36	50.39	13.12	-56.3	-58.5	17.5	0.00e+00	0	46	0	297795584	60	33087
2026-01-29 20:32:39.37	50.57	13.16	-56.0	-58.6	17.2	0.00e+00	0	46	0	299892736	60	33475
2026-01-29 20:32:40.38	50.76	13.20	-55.6	-58.1	17.6	0.00e+00	0	46	0	300941312	60	31447
2026-01-29 20:32:41.39	50.94	13.23	-55.6	-58.1	17.9	0.00e+00	0	46	0	303038464	60	31579
2026-01-29 20:32:42.39	51.13	13.27	-56.0	-58.3	17.8	0.00e+00	0	46	0	305135616	60	32155
2026-01-29 20:32:43.40	51.31	13.31	-56.0	-58.4	17.5	0.00e+00	0	46	0	307232768	60	32488
2026-01-29 20:32:44.40	51.50	13.35	-55.8	-58.4	17.6	0.00e+00	0	46	0	309329920	60	32753
2026-01-29 20:32:45.41	51.69	13.38	-55.6	-58.5	17.5	0.00e+00	0	46	0	310378496	60	33065
2026-01-29 20:32:46.41	51.87	13.42	-55.9	-58.8	17.3	0.00e+00	0	46	0	312475648	60	34046
2026-01-29 20:32:47.42	52.06	13.46	-56.0	-58.5	17.5	0.00e+00	0	46	0	314572800	60	33135
2026-01-29 20:32:48.42	52.25	13.49	-56.4	-58.9	17.2	0.00e+00	0	46	0	316669952	60	34402
2026-01-29 20:32:49.43	52.44	13.53	-56.0	-58.5	17.4	0.00e+00	0	46	0	318767104	60	32991
2026-01-29 20:32:50.43	52.63	13.57	-56.0	-58.6	17.6	0.00e+00	0	46	0	319815680	60	33296
2026-01-29 20:32:51.44	52.82	13.60	-55.6	-58.2	17.7	0.00e+00	0	46	0	321912832	60	31995
2026-01-29 20:32:52.44	53.01	13.64	-55.3	-58.0	17.9	0.00e+00	0	46	0	324009984	60	31217
2026-01-29 20:32:53.45	53.20	13.67	-55.4	-58.1	18.0	0.00e+00	0	46	0	326107136	60	31359
2026-01-29 20:32:54.46	53.39	13.71	-55.7	-58.1	17.9	0.00e+00	0	46	0	328204288	60	31618
2026-01-29 20:32:55.47	53.58	13.74	-55.6	-57.9	17.8	0.00e+00	0	46	0	329252864	60	30912
2026-01-29 20:32:56.47	53.77	13.78	-55.7	-58.1	17.8	0.00e+00	0	46	0	331350016	60	31611
2026-01-29 20:32:57.48	53.97	13.81	-55.7	-58.0	17.9	0.00e+00	0	46	0	333447168	60	31200
2026-01-29 20:32:58.49	54.16	13.84	-55.7	-57.9	17.9	0.00e+00	0	46	0	335544320	60	30834
2026-01-29 20:32:59.49	54.35	13.88	-55.8	-57.8	18.4	0.00e+00	0	46	0	337641472	60	30458
2026-01-29 20:33:00.50	54.55	13.91	-55.5	-57.4	18.9	0.00e+00	0	46	0	338690048	60	28982
2026-01-29 20:33:01.50	54.74	13.94	-54.8	-56.5	19.4	0.00e+00	0	46	0	340787200	60	26314
2026-01-29 20:33:02.51	54.93	13.98	-54.2	-56.2	19.3	0.00e+00	0	45	0	342884352	60	25360
2026-01-29 20:33:03.52	55.13	14.01	-53.9	-56.2	19.5	0.00e+00	0	46	0	344981504	60	25244
2026-01-29 20:33:04.52	55.32	14.04	-53.6	-56.0	19.6	0.00e+00	0	46	0	347078656	60	24701
2026-01-29 20:33:05.53	55.52	14.07	-53.3	-56.0	19.3	0.00e+00	0	46	0	348127232	60	24833
2026-01-29 20:33:06.54	55.72	14.11	-52.7	-55.9	18.5	0.00e+00	0	46	0	350224384	60	24303
2026-01-29 20:33:07.55	55.91	14.14	-52.8	-55.9	18.7	0.00e+00	0	46	0	352321536	60	24561
2026-01-29 20:33:08.55	56.11	14.17	-53.5	-56.0	19.3	0.00e+00	0	46	0	354418688	60	24807
2026-01-29 20:33:09.56	56.31	14.20	-53.6	-56.1	19.5	0.00e+00	0	46	0	356515840	60	25008
2026-01-29 20:33:10.57	56.51	14.23	-53.0	-56.0	18.6	0.00e+00	0	46	0	357564416	60	24605
2026-01-29 20:33:11.58	56.71	14.26	-53.0	-56.2	18.4	0.00e+00	0	46	0	359661568	60	25180
2026-01-29 20:33:12.59	56.91	14.29	-54.0	-56.2	18.9	0.00e+00	0	46	0	361758720	60	25278
2026-01-29 20:33:13.60	57.11	14.32	-54.7	-56.4	19.6	0.00e+00	0	46	0	363855872	60	25875
2026-01-29 20:33:14.60	57.30	14.35	-54.5	-56.1	19.9	0.00e+00	0	46	0	365953024	60	24891
2026-01-29 20:33:15.61	57.50	14.38	-54.2	-56.3	19.2	0.00e+00	0	46	0	367001600	60	25563
2026-01-29 20:33:16.62	57.71	14.41	-54.0	-56.3	18.7	0.00e+00	0	46	0	369098752	60	25570
2026-01-29 20:33:17.62	57.90	14.44	-54.2	-56.2	19.0	0.00e+00	0	46	0	371195904	60	25238
2026-01-29 20:33:18.63	58.11	14.47	-54.3	-56.0	20.0	0.00e+00	0	46	0	373293056	60	24658
2026-01-29 20:33:19.64	58.31	14.50	-54.0	-56.0	19.9	0.00e+00	0	46	0	375390208	60	24598
2026-01-29 20:33:20.64	58.51	14.53	-54.5	-56.4	19.7	0.00e+00	0	46	0	377487360	60	25962
2026-01-29 20:33:21.65	58.71	14.55	-54.9	-56.8	19.5	0.00e+00	0	46	0	378535936	60	26978
2026-01-29 20:33:22.66	58.92	14.58	-54.8	-56.9	19.5	0.00e+00	0	46	0	380633088	60	27355
2026-01-29 20:33:23.67	59.12	14.61	-54.3	-56.9	19.0	0.00e+00	0	46	0	382730240	60	27483
2026-01-29 20:33:24.67	59.32	14.63	-54.2	-56.9	18.5	0.00e+00	0	46	0	384827392	60	27272
2026-01-29 20:33:25.67	59.52	14.66	-53.3	-56.8	18.1	0.00e+00	0	46	0	385875968	60	27098
2026-01-29 20:33:26.68	59.73	14.69	-52.9	-56.7	18.6	0.00e+00	0	46	0	387973120	60	26791
2026-01-29 20:33:27.69	59.93	14.71	-54.0	-56.7	19.1	0.00e+00	0	46	0	390070272	60	26832
2026-01-29 20:33:28.70	60.14	14.74	-55.0	-56.7	19.9	0.00e+00	0	46	0	392167424	60	26922
2026-01-29 20:33:29.71	60.34	14.76	-55.2	-56.9	19.8	0.00e+00	0	46	0	394264576	60	27521
2026-01-29 20:33:30.71	60.55	14.79	-55.8	-57.9	19.3	0.00e+00	0	46	0	395313152	60	30762
2026-01-29 20:33:31.71	60.75	14.81	-56.4	-58.3	19.1	0.00e+00	0	46	0	397410304	60	32207
2026-01-29 20:33:32.72	60.96	14.84	-56.5	-58.6	18.7	0.00e+00	0	46	0	399507456	60	33264
2026-01-29 20:33:33.72	61.16	14.86	-56.0	-58.6	17.9	0.00e+00	0	46	0	401604608	60	33226
2026-01-29 20:33:34.73	61.37	14.89	-55.6	-58.3	18.3	0.00e+00	0	46	0	403701760	60	32273
2026-01-29 20:33:35.73	61.58	14.91	-55.3	-58.3	18.1	0.00e+00	0	46	0	404750336	60	32391
2026-01-29 20:33:36.74	61.79	14.93	-54.9	-58.4	18.1	0.00e+00	0	46	0	406847488	60	32510
2026-01-29 20:33:37.75	61.99	14.95	-54.8	-58.7	16.9	0.00e+00	0	46	0	408944640	60	33871
2026-01-29 20:33:38.75	62.20	14.98	-55.0	-59.3	16.7	0.00e+00	0	46	0	411041792	60	36243
2026-01-29 20:33:39.75	62.41	15.00	-57.7	-59.9	17.6	0.00e+00	0	46	0	413138944	60	38868
2026-01-29 20:33:40.76	62.62	15.02	-57.6	-60.1	17.6	0.00e+00	0	46	0	414187520	60	39408
2026-01-29 20:33:41.75	62.82	15.04	-58.0	-60.4	17.2	0.00e+00	0	46	0	416284672	60	41059
2026-01-29 20:33:42.76	63.03	15.06	-57.5	-59.8	18.0	0.00e+00	0	46	0	418381824	60	38221
2026-01-29 20:33:43.76	63.24	15.08	-57.0	-59.0	18.8	0.00e+00	0	46	0	420478976	60	34894
2026-01-29 20:33:44.77	63.45	15.10	-56.4	-58.2	19.3	0.00e+00	0	46	0	422576128	60	31966
2026-01-29 20:33:45.77	63.66	15.12	-55.9	-57.7	19.8	0.00e+00	0	46	0	423624704	60	29910
2026-01-29 20:33:46.78	63.87	15.14	-55.8	-57.4	20.1	0.00e+00	0	46	0	425721856	60	28884
2026-01-29 20:33:47.78	64.08	15.16	-55.2	-57.5	18.9	0.00e+00	0	46	0	427819008	60	29511
2026-01-29 20:33:48.78	64.29	15.18	-54.0	-57.9	17.6	0.00e+00	0	46	0	429916160	60	30875
2026-01-29 20:33:49.79	64.50	15.20	-53.2	-58.2	17.0	0.00e+00	0	46	0	432013312	60	31854
2026-01-29 20:33:50.80	64.71	15.22	-54.3	-58.4	17.9	0.00e+00	0	46	0	433061888	60	32538
2026-01-29 20:33:51.80	64.92	15.24	-56.4	-58.5	19.2	0.00e+00	0	46	0	435159040	60	32972
2026-01-29 20:33:52.81	65.13	15.25	-56.8	-58.6	19.4	0.00e+00	0	46	0	437256192	60	33377
2026-01-29 20:33:53.82	65.35	15.27	-56.3	-58.3	19.5	0.00e+00	0	46	0	439353344	60	32079
2026-01-29 20:33:54.82	65.56	15.29	-56.1	-58.1	19.7	0.00e+00	0	46	0	440401920	60	31377
2026-01-29 20:33:55.82	65.77	15.30	-56.1	-57.8	20.0	0.00e+00	0	46	0	442499072	60	30556
2026-01-29 20:33:56.83	65.98	15.32	-56.2	-58.1	19.8	0.00e+00	0	46	0	444596224	60	31495
2026-01-29 20:33:57.84	66.20	15.34	-56.4	-58.4	19.3	0.00e+00	0	46	0	446693376	60	32664
2026-01-29 20:33:58.85	66.41	15.35	-56.9	-58.7	19.3	0.00e+00	0	46	0	448790528	60	33796
2026-01-29 20:33:59.86	66.62	15.37	-56.8	-58.7	19.2	0.00e+00	0	46	0	450887680	60	33547
2026-01-29 20:34:00.86	66.84	15.38	-56.8	-58.7	19.2	0.00e+00	0	46	0	451936256	60	33552
2026-01-29 20:34:01.87	67.05	15.40	-56.4	-58.0	19.7	0.00e+00	0	46	0	454033408	60	31280
2026-01-29 20:34:02.88	67.27	15.41	-56.2	-57.7	20.1	0.00e+00	0	46	0	456130560	60	30130
2026-01-29 20:34:03.88	67.48	15.42	-56.0	-57.6	20.1	0.00e+00	0	46	0	458227712	60	29815
2026-01-29 20:34:04.88	67.69	15.44	-56.0	-57.8	19.9	0.00e+00	0	46	0	460324864	60	30284
2026-01-29 20:34:05.88	67.91	15.45	-56.3	-58.1	19.5	0.00e+00	0	46	0	461373440	60	31631
2026-01-29 20:34:06.88	68.12	15.46	-56.5	-58.4	19.1	0.00e+00	0	46	0	463470592	60	32586
2026-01-29 20:34:07.89	68.33	15.48	-56.5	-58.7	19.1	0.00e+00	0	46	0	465567744	60	33664
2026-01-29 20:34:08.90	68.55	15.49	-56.6	-58.6	18.9	0.00e+00	0	46	0	467664896	60	33309
2026-01-29 20:34:09.90	68.76	15.50	-56.8	-58.5	19.4	0.00e+00	0	46	0	468713472	60	33089
2026-01-29 20:34:10.90	68.98	15.51	-56.7	-58.4	19.4	0.00e+00	0	46	0	470810624	60	32723
2026-01-29 20:34:11.91	69.19	15.52	-56.6	-58.2	19.7	0.00e+00	0	46	0	472907776	60	31972
2026-01-29 20:34:12.92	69.41	15.53	-56.6	-58.3	19.7	0.00e+00	0	46	0	475004928	60	32145
2026-01-29 20:34:13.92	69.63	15.54	-56.7	-58.5	19.6	0.00e+00	0	46	0	477102080	60	32796
2026-01-29 20:34:14.93	69.84	15.55	-56.9	-58.7	19.3	0.00e+00	0	46	0	478150656	60	33785
2026-01-29 20:34:15.94	70.06	15.56	-57.2	-59.1	19.0	0.00e+00	0	46	0	480247808	60	35179
2026-01-29 20:34:16.94	70.27	15.57	-57.2	-59.2	18.7	0.00e+00	0	46	0	482344960	60	35617
2026-01-29 20:34:17.95	70.49	15.58	-57.2	-59.2	18.6	0.00e+00	0	46	0	484442112	60	35855
2026-01-29 20:34:18.96	70.71	15.58	-57.1	-59.1	18.7	0.00e+00	0	46	0	486539264	60	35267
2026-01-29 20:34:19.96	70.92	15.59	-56.8	-58.7	19.0	0.00e+00	0	46	0	488636416	60	33570
2026-01-29 20:34:20.97	71.14	15.60	-56.9	-58.8	19.2	0.00e+00	0	46	0	489684992	60	34024
2026-01-29 20:34:21.98	71.36	15.61	-56.8	-58.8	19.0	0.00e+00	0	46	0	491782144	60	34319
2026-01-29 20:34:22.99	71.58	15.61	-56.9	-59.0	19.0	0.00e+00	0	46	0	493879296	60	34797
2026-01-29 20:34:24.00	71.80	15.62	-56.9	-58.9	18.8	0.00e+00	0	46	0	495976448	60	34351
2026-01-29 20:34:25.00	72.01	15.63	-56.8	-58.8	19.0	0.00e+00	0	46	0	497025024	60	34259
2026-01-29 20:34:26.01	72.23	15.63	-56.5	-58.6	19.0	0.00e+00	0	46	0	499122176	60	33487
2026-01-29 20:34:27.01	72.44	15.64	-56.2	-58.5	19.0	0.00e+00	0	46	0	501219328	60	33037
2026-01-29 20:34:28.02	72.66	15.64	-56.3	-58.7	19.1	0.00e+00	0	46	0	503316480	60	33697
2026-01-29 20:34:29.02	72.88	15.64	-56.6	-58.8	19.0	0.00e+00	0	46	0	505413632	60	34255
2026-01-29 20:34:30.03	73.10	15.65	-57.0	-59.1	18.9	0.00e+00	0	46	0	506462208	60	35489
2026-01-29 20:34:31.04	73.32	15.65	-57.4	-59.5	18.5	0.00e+00	0	46	0	508559360	60	37004
2026-01-29 20:34:32.05	73.53	15.65	-57.3	-59.5	18.4	0.00e+00	0	46	0	510656512	60	36846
2026-01-29 20:34:33.06	73.75	15.66	-57.0	-59.1	18.9	0.00e+00	0	46	0	512753664	60	35249
2026-01-29 20:34:34.06	73.97	15.66	-56.4	-58.4	19.5	0.00e+00	0	46	0	514850816	60	32462
2026-01-29 20:34:35.07	74.19	15.66	-55.8	-57.9	19.3	0.00e+00	0	46	0	516947968	60	30766
2026-01-29 20:34:36.08	74.41	15.66	-55.7	-57.8	19.4	0.00e+00	0	46	0	517996544	60	30568
2026-01-29 20:34:37.08	74.62	15.66	-55.8	-57.7	20.2	0.00e+00	0	46	0	520093696	60	29955
2026-01-29 20:34:38.09	74.84	15.67	-56.0	-57.9	19.8	0.00e+00	0	46	0	522190848	60	30796
2026-01-29 20:34:39.09	75.06	15.67	-56.0	-58.0	19.3	0.00e+00	0	46	0	524288000	60	31104
2026-01-29 20:34:40.10	75.28	15.67	-56.1	-58.1	19.6	0.00e+00	0	46	0	525336576	60	31604
2026-01-29 20:34:41.10	75.49	15.66	-56.2	-58.3	19.4	0.00e+00	0	46	0	527433728	60	32142
2026-01-29 20:34:42.11	75.71	15.66	-56.0	-58.0	19.7	0.00e+00	0	46	0	529530880	60	31022
2026-01-29 20:34:43.11	75.93	15.66	-55.9	-57.9	19.6	0.00e+00	0	46	0	531628032	60	30643
2026-01-29 20:34:44.12	76.15	15.66	-55.8	-57.8	19.9	0.00e+00	0	46	0	533725184	60	30369
2026-01-29 20:34:45.12	76.36	15.66	-55.7	-57.7	19.7	0.00e+00	0	46	0	534773760	60	30110
2026-01-29 20:34:46.13	76.58	15.66	-55.6	-57.5	20.0	0.00e+00	0	46	0	536870912	60	29359
2026-01-29 20:34:47.14	76.80	15.65	-56.0	-57.7	19.9	0.00e+00	0	46	0	538968064	60	30149
2026-01-29 20:34:48.15	77.02	15.65	-56.0	-57.8	19.3	0.00e+00	0	46	0	541065216	60	30448
2026-01-29 20:34:49.15	77.23	15.65	-57.3	-59.2	19.5	0.00e+00	0	46	0	543162368	60	35803
2026-01-29 20:34:50.16	77.45	15.64	-57.1	-59.1	19.3	0.00e+00	0	46	0	545259520	60	35131
2026-01-29 20:34:51.17	77.67	15.64	-57.0	-59.0	19.6	0.00e+00	0	46	0	546308096	60	34962
2026-01-29 20:34:52.18	77.89	15.63	-56.7	-58.4	20.2	0.00e+00	0	46	0	548405248	60	32645
2026-01-29 20:34:53.19	78.11	15.63	-56.6	-58.2	20.3	0.00e+00	0	46	0	550502400	60	31751
2026-01-29 20:34:54.20	78.33	15.62	-56.4	-58.0	20.4	0.00e+00	0	46	0	552599552	60	30996
2026-01-29 20:34:55.20	78.54	15.62	-56.4	-58.1	20.3	0.00e+00	0	46	0	553648128	60	31331
2026-01-29 20:34:56.21	78.76	15.61	-56.5	-58.1	20.2	0.00e+00	0	46	0	555745280	60	31564
2026-01-29 20:34:57.22	78.98	15.61	-56.7	-58.3	20.1	0.00e+00	0	46	0	557842432	60	32161
2026-01-29 20:34:58.23	79.19	15.60	-56.9	-58.5	19.8	0.00e+00	0	46	0	559939584	60	33039
2026-01-29 20:34:59.23	79.41	15.59	-57.0	-58.8	19.4	0.00e+00	0	46	0	562036736	60	34120
2026-01-29 20:35:00.24	79.63	15.58	-57.2	-59.1	19.2	0.00e+00	0	46	0	563085312	60	35350
2026-01-29 20:35:01.24	79.84	15.58	-57.2	-59.2	18.7	0.00e+00	0	46	0	565182464	60	35665
2026-01-29 20:35:02.25	80.06	15.57	-57.1	-59.1	19.0	0.00e+00	0	46	0	567279616	60	35146
2026-01-29 20:35:03.26	80.28	15.56	-56.9	-58.8	19.5	0.00e+00	0	46	0	569376768	60	33965
2026-01-29 20:35:04.26	80.49	15.55	-56.5	-58.2	20.0	0.00e+00	0	46	0	571473920	60	31851
2026-01-29 20:35:05.27	80.71	15.54	-56.4	-58.0	20.3	0.00e+00	0	46	0	573571072	60	31148
2026-01-29 20:35:06.28	80.93	15.53	-56.3	-57.9	20.0	0.00e+00	0	46	0	574619648	60	30666
2026-01-29 20:35:07.28	81.14	15.52	-56.2	-58.0	19.6	0.00e+00	0	46	0	576716800	60	31142
2026-01-29 20:35:08.29	81.36	15.51	-56.1	-57.9	19.7	0.00e+00	0	46	0	578813952	60	30653
2026-01-29 20:35:09.30	81.57	15.50	-56.2	-58.1	19.8	0.00e+00	0	46	0	580911104	60	31492
2026-01-29 20:35:10.30	81.79	15.49	-56.1	-58.1	19.8	0.00e+00	0	46	0	581959680	60	31433
2026-01-29 20:35:11.31	82.00	15.47	-56.0	-58.4	19.1	0.00e+00	0	46	0	584056832	60	32488
2026-01-29 20:35:12.31	82.22	15.46	-55.8	-58.3	18.9	0.00e+00	0	46	0	586153984	60	32381
2026-01-29 20:35:13.32	82.43	15.45	-55.8	-58.2	19.2	0.00e+00	0	46	0	588251136	60	31882
2026-01-29 20:35:14.33	82.65	15.44	-55.9	-58.2	19.4	0.00e+00	0	46	0	590348288	60	31978
2026-01-29 20:35:15.34	82.86	15.42	-56.0	-58.3	19.4	0.00e+00	0	46	0	591396864	60	32155
2026-01-29 20:35:16.34	83.08	15.41	-56.0	-58.2	19.2	0.00e+00	0	46	0	593494016	60	31806
2026-01-29 20:35:17.35	83.29	15.39	-56.1	-58.1	19.8	0.00e+00	0	46	0	595591168	60	31462
2026-01-29 20:35:18.35	83.51	15.38	-56.1	-57.9	20.0	0.00e+00	0	46	0	597688320	60	30889
2026-01-29 20:35:19.36	83.72	15.36	-56.3	-58.1	20.0	0.00e+00	0	46	0	599785472	60	31322
2026-01-29 20:35:20.37	83.93	15.35	-56.3	-58.1	19.9	0.00e+00	0	46	0	601882624	60	31411
2026-01-29 20:35:21.38	84.15	15.33	-56.2	-57.9	20.0	0.00e+00	0	46	0	602931200	60	30801
2026-01-29 20:35:22.38	84.36	15.32	-55.8	-57.5	20.4	0.00e+00	0	46	0	605028352	60	29372
2026-01-29 20:35:23.39	84.57	15.30	-55.8	-57.4	20.1	0.00e+00	0	46	0	607125504	60	29061
2026-01-29 20:35:24.40	84.79	15.29	-55.5	-57.2	20.3	0.00e+00	0	46	0	609222656	60	28285
2026-01-29 20:35:25.40	85.00	15.27	-55.4	-57.1	20.6	0.00e+00	0	46	0	610271232	60	27910
2026-01-29 20:35:26.41	85.21	15.25	-55.0	-56.6	20.7	0.00e+00	0	46	0	612368384	60	26573
2026-01-29 20:35:27.42	85.42	15.23	-54.9	-56.5	21.0	0.00e+00	0	46	0	614465536	60	26129
2026-01-29 20:35:28.43	85.64	15.21	-55.0	-56.6	20.7	0.00e+00	0	46	0	616562688	60	26381
2026-01-29 20:35:29.44	85.85	15.20	-55.0	-56.5	20.8	0.00e+00	0	46	0	618659840	60	26292
2026-01-29 20:35:30.44	86.06	15.18	-55.0	-56.6	20.9	0.00e+00	0	46	0	620756992	60	26441
2026-01-29 20:35:31.45	86.27	15.16	-55.1	-56.7	21.0	0.00e+00	0	46	0	621805568	60	26675
2026-01-29 20:35:32.46	86.48	15.14	-55.0	-56.5	21.2	0.00e+00	0	46	0	623902720	60	26144
2026-01-29 20:35:33.47	86.69	15.12	-54.9	-56.5	21.0	0.00e+00	0	46	0	625999872	60	26077
2026-01-29 20:35:34.47	86.90	15.10	-54.9	-56.6	20.8	0.00e+00	0	46	0	628097024	60	26411
2026-01-29 20:35:35.48	87.11	15.08	-55.1	-56.9	20.3	0.00e+00	0	46	0	630194176	60	27339
2026-01-29 20:35:36.48	87.32	15.06	-55.1	-56.9	20.2	0.00e+00	0	46	0	631242752	60	27286
2026-01-29 20:35:37.49	87.53	15.04	-55.3	-57.3	19.8	0.00e+00	0	46	0	633339904	60	28627
2026-01-29 20:35:38.49	87.74	15.02	-55.5	-57.5	19.8	0.00e+00	0	46	0	635437056	60	29486
2026-01-29 20:35:39.50	87.95	14.99	-55.3	-57.3	19.9	0.00e+00	0	46	0	637534208	60	28852
2026-01-29 20:35:40.51	88.16	14.97	-55.1	-57.2	20.1	0.00e+00	0	46	0	638582784	60	28424
2026-01-29 20:35:41.52	88.37	14.95	-55.1	-57.2	20.0	0.00e+00	0	46	0	640679936	60	28242
2026-01-29 20:35:42.53	88.58	14.93	-55.1	-57.2	19.7	0.00e+00	0	46	0	642777088	60	28398
2026-01-29 20:35:43.53	88.78	14.90	-55.0	-56.9	19.8	0.00e+00	0	46	0	644874240	60	27465
2026-01-29 20:35:44.54	88.99	14.88	-55.1	-57.0	19.8	0.00e+00	0	46	0	646971392	60	27640
2026-01-29 20:35:45.54	89.20	14.86	-55.2	-57.0	20.0	0.00e+00	0	46	0	649068544	60	27872
2026-01-29 20:35:46.55	89.40	14.83	-55.2	-57.0	20.1	0.00e+00	0	46	0	650117120	60	27859
2026-01-29 20:35:47.55	89.61	14.81	-55.1	-56.9	20.0	0.00e+00	0	46	0	652214272	60	27321
2026-01-29 20:35:48.56	89.82	14.78	-55.2	-56.9	19.9	0.00e+00	0	46	0	654311424	60	27394
2026-01-29 20:35:49.56	90.02	14.76	-55.0	-56.7	20.4	0.00e+00	0	46	0	656408576	60	26672
2026-01-29 20:35:50.56	90.22	14.73	-54.7	-56.3	20.8	0.00e+00	0	46	0	658505728	60	25460
2026-01-29 20:35:51.56	90.43	14.71	-54.7	-56.3	20.7	0.00e+00	0	46	0	659554304	60	25488
2026-01-29 20:35:52.57	90.63	14.68	-54.5	-56.1	20.9	0.00e+00	0	46	0	661651456	60	24864
2026-01-29 20:35:53.57	90.84	14.65	-54.3	-55.7	21.1	0.00e+00	0	46	0	663748608	60	23747
2026-01-29 20:35:54.58	91.04	14.63	-54.4	-55.7	21.4	0.00e+00	0	46	0	665845760	60	23979
2026-01-29 20:35:55.58	91.24	14.60	-54.3	-55.7	21.5	0.00e+00	0	46	0	666894336	60	23851
2026-01-29 20:35:56.59	91.45	14.57	-54.2	-55.5	21.5	0.00e+00	0	46	0	668991488	60	23388
2026-01-29 20:35:57.60	91.65	14.55	-54.4	-55.8	21.2	0.00e+00	0	46	0	671088640	60	24095
2026-01-29 20:35:58.61	91.85	14.52	-54.3	-55.7	21.2	0.00e+00	0	46	0	673185792	60	23937
2026-01-29 20:35:59.61	92.06	14.49	-54.5	-56.0	21.0	0.00e+00	0	46	0	675282944	60	24760
2026-01-29 20:36:00.62	92.26	14.46	-54.4	-56.0	21.0	0.00e+00	0	46	0	676331520	60	24739
2026-01-29 20:36:01.63	92.46	14.43	-54.5	-56.1	21.0	0.00e+00	0	46	0	678428672	60	24974
2026-01-29 20:36:02.64	92.66	14.40	-54.3	-55.9	21.0	0.00e+00	0	46	0	680525824	60	24406
2026-01-29 20:36:03.64	92.86	14.37	-54.4	-56.0	20.8	0.00e+00	0	46	0	682622976	60	24823
2026-01-29 20:36:04.65	93.06	14.34	-54.4	-56.0	20.9	0.00e+00	0	46	0	684720128	60	24839
2026-01-29 20:36:05.66	93.26	14.31	-54.4	-56.1	20.8	0.00e+00	0	46	0	686817280	60	25058
2026-01-29 20:36:06.67	93.46	14.28	-54.5	-56.3	20.7	0.00e+00	0	46	0	687865856	60	25464
2026-01-29 20:36:07.68	93.66	14.25	-54.6	-56.4	20.4	0.00e+00	0	46	0	689963008	60	25758
2026-01-29 20:36:08.68	93.86	14.22	-54.7	-56.5	20.3	0.00e+00	0	46	0	692060160	60	26069
2026-01-29 20:36:09.69	94.06	14.19	-54.8	-56.6	20.2	0.00e+00	0	46	0	694157312	60	26456
2026-01-29 20:36:10.69	94.26	14.16	-54.7	-56.3	20.6	0.00e+00	0	46	0	695205888	60	25691
2026-01-29 20:36:11.69	94.45	14.13	-54.8	-56.4	20.8	0.00e+00	0	46	0	697303040	60	25931
2026-01-29 20:36:12.70	94.65	14.10	-54.7	-56.2	20.9	0.00e+00	0	46	0	699400192	60	25319
2026-01-29 20:36:13.71	94.85	14.06	-54.8	-56.4	20.7	0.00e+00	0	46	0	701497344	60	25831
2026-01-29 20:36:14.71	95.04	14.03	-54.6	-56.2	20.7	0.00e+00	0	46	0	703594496	60	25363
2026-01-29 20:36:15.72	95.24	14.00	-54.5	-56.4	20.5	0.00e+00	0	46	0	704643072	60	25900
2026-01-29 20:36:16.73	95.43	13.97	-54.3	-56.4	20.1	0.00e+00	0	46	0	706740224	60	25827
2026-01-29 20:36:17.74	95.63	13.93	-54.4	-56.7	19.5	0.00e+00	0	46	0	708837376	60	26656
2026-01-29 20:36:18.74	95.82	13.90	-54.4	-56.6	19.7	0.00e+00	0	46	0	710934528	60	26611
2026-01-29 20:36:19.75	96.02	13.87	-54.3	-56.5	19.9	0.00e+00	0	46	0	713031680	60	26046
2026-01-29 20:36:20.76	96.21	13.83	-54.5	-56.7	20.0	0.00e+00	0	46	0	715128832	60	26652
2026-01-29 20:36:21.77	96.41	13.80	-54.6	-56.6	20.1	0.00e+00	0	46	0	716177408	60	26583
2026-01-29 20:36:22.78	96.60	13.76	-55.0	-56.9	20.2	0.00e+00	0	46	0	718274560	60	27496
2026-01-29 20:36:23.78	96.79	13.73	-55.2	-57.2	20.0	0.00e+00	0	46	0	720371712	60	28392
2026-01-29 20:36:24.79	96.98	13.69	-55.5	-57.5	19.7	0.00e+00	0	46	0	722468864	60	29398
2026-01-29 20:36:25.80	97.18	13.66	-55.3	-57.1	20.1	0.00e+00	0	46	0	723517440	60	27946
2026-01-29 20:36:26.80	97.37	13.62	-55.1	-56.8	20.3	0.00e+00	0	46	0	725614592	60	27032
2026-01-29 20:36:27.81	97.56	13.59	-55.2	-56.9	20.3	0.00e+00	0	46	0	727711744	60	27270
2026-01-29 20:36:28.81	97.75	13.55	-55.2	-56.9	20.2	0.00e+00	0	46	0	729808896	60	27301
2026-01-29 20:36:29.82	97.94	13.52	-55.4	-57.1	20.0	0.00e+00	0	46	0	731906048	60	28059
2026-01-29 20:36:30.83	98.13	13.48	-55.6	-57.4	19.8	0.00e+00	0	46	0	732954624	60	29199
2026-01-29 20:36:31.84	98.32	13.44	-55.7	-57.5	19.5	0.00e+00	0	46	0	735051776	60	29520
2026-01-29 20:36:32.84	98.50	13.41	-55.9	-57.7	19.4	0.00e+00	0	46	0	737148928	60	30202
2026-01-29 20:36:33.85	98.69	13.37	-55.9	-57.7	19.3	0.00e+00	0	46	0	739246080	60	30179
2026-01-29 20:36:34.86	98.88	13.33	-56.2	-58.1	19.1	0.00e+00	0	46	0	741343232	60	31536
2026-01-29 20:36:35.87	99.07	13.29	-56.2	-58.0	19.1	0.00e+00	0	46	0	743440384	60	31273
2026-01-29 20:36:36.88	99.26	13.26	-56.3	-58.2	19.0	0.00e+00	0	46	0	744488960	60	31830
2026-01-29 20:36:37.88	99.44	13.22	-56.2	-58.1	19.1	0.00e+00	0	46	0	746586112	60	31630
2026-01-29 20:36:38.89	99.63	13.18	-56.0	-58.0	19.2	0.00e+00	0	46	0	748683264	60	31000
2026-01-29 20:36:39.90	99.81	13.14	-55.8	-57.8	19.2	0.00e+00	0	46	0	750780416	60	30539
2026-01-29 20:36:40.91	100.00	13.10	-56.1	-58.2	18.9	0.00e+00	0	46	0	751828992	60	31774
2026-01-29 20:36:41.91	100.18	13.06	-56.1	-58.2	18.8	0.00e+00	0	46	0	753926144	60	31983
2026-01-29 20:36:42.92	100.37	13.02	-56.1	-58.3	18.7	0.00e+00	0	46	0	756023296	60	32357
2026-01-29 20:36:43.93	100.55	12.98	-56.2	-58.5	18.5	0.00e+00	0	46	0	758120448	60	32836
2026-01-29 20:36:44.93	100.73	12.95	-56.4	-58.8	18.3	0.00e+00	0	46	0	760217600	60	33992
2026-01-29 20:36:45.94	100.92	12.91	-56.3	-58.9	18.3	0.00e+00	0	46	0	761266176	60	34525
2026-01-29 20:36:46.95	101.10	12.87	-56.4	-59.2	17.9	0.00e+00	0	46	0	763363328	60	35736
2026-01-29 20:36:47.96	101.28	12.83	-56.4	-59.2	17.7	0.00e+00	0	46	0	765460480	60	35840
2026-01-29 20:36:48.96	101.46	12.79	-56.5	-59.3	17.6	0.00e+00	0	46	0	767557632	60	36274
2026-01-29 20:36:49.97	101.64	12.75	-56.1	-58.6	18.2	0.00e+00	0	46	0	769654784	60	33457
2026-01-29 20:36:50.98	101.82	12.70	-55.9	-58.4	18.4	0.00e+00	0	46	0	771751936	60	32439
2026-01-29 20:36:51.98	102.00	12.66	-56.1	-58.5	18.2	0.00e+00	0	46	0	772800512	60	33110
2026-01-29 20:36:52.98	102.18	12.62	-56.0	-58.5	18.0	0.00e+00	0	46	0	774897664	60	32872
2026-01-29 20:36:53.99	102.36	12.58	-55.9	-58.5	17.9	0.00e+00	0	46	0	776994816	60	33052
2026-01-29 20:36:55.00	102.54	12.54	-56.0	-58.7	17.4	0.00e+00	0	46	0	779091968	60	33920
2026-01-29 20:36:56.01	102.71	12.50	-56.3	-59.3	17.0	0.00e+00	0	46	0	780140544	60	35968
2026-01-29 20:36:57.01	102.89	12.46	-56.6	-59.7	16.9	0.00e+00	0	46	0	782237696	60	37884
2026-01-29 20:36:58.02	103.07	12.42	-56.9	-60.1	16.9	0.00e+00	0	46	0	784334848	60	39836
2026-01-29 20:36:59.03	103.24	12.37	-57.2	-60.4	16.9	0.00e+00	0	46	0	786432000	60	40964
2026-01-29 20:37:00.03	103.42	12.33	-57.4	-60.2	17.0	0.00e+00	0	46	0	788529152	60	39909
2026-01-29 20:37:01.04	103.60	12.29	-57.6	-60.4	16.7	0.00e+00	0	46	0	789577728	60	40941
2026-01-29 20:37:02.05	103.77	12.25	-58.0	-60.9	16.2	0.00e+00	0	46	0	791674880	60	43639
2026-01-29 20:37:03.05	103.94	12.20	-57.8	-60.7	16.2	0.00e+00	0	46	0	793772032	60	42569
2026-01-29 20:37:04.06	104.12	12.16	-57.9	-61.1	15.9	0.00e+00	0	46	0	795869184	60	44242
2026-01-29 20:37:05.07	104.29	12.12	-57.3	-60.5	16.4	0.00e+00	0	46	0	797966336	60	41424
2026-01-29 20:37:06.08	104.47	12.07	-56.7	-60.0	16.7	0.00e+00	0	46	0	800063488	60	39095
2026-01-29 20:37:07.08	104.64	12.03	-56.8	-60.2	16.4	0.00e+00	0	46	0	801112064	60	40188
2026-01-29 20:37:08.09	104.81	11.99	-56.4	-59.5	17.3	0.00e+00	0	46	0	803209216	60	37128
2026-01-29 20:37:09.10	104.98	11.94	-55.9	-58.7	18.1	0.00e+00	0	46	0	805306368	60	33598
2026-01-29 20:37:10.10	105.15	11.90	-55.8	-58.5	18.2	0.00e+00	0	46	0	807403520	60	32983
2026-01-29 20:37:11.10	105.32	11.86	-55.6	-58.0	18.8	0.00e+00	0	46	0	808452096	60	31269
2026-01-29 20:37:12.11	105.49	11.81	-55.6	-58.0	18.9	0.00e+00	0	46	0	810549248	60	31265
2026-01-29 20:37:13.11	105.66	11.77	-55.4	-57.9	19.0	0.00e+00	0	46	0	812646400	60	30788
2026-01-29 20:37:14.12	105.83	11.72	-55.3	-58.1	18.3	0.00e+00	0	46	0	814743552	60	31478
2026-01-29 20:37:15.12	106.00	11.68	-55.1	-58.2	17.6	0.00e+00	0	46	0	816840704	60	31767
2026-01-29 20:37:16.13	106.16	11.64	-55.0	-58.3	17.1	0.00e+00	0	46	0	817889280	60	32329
2026-01-29 20:37:17.13	106.33	11.59	-54.9	-58.5	17.0	0.00e+00	0	46	0	819986432	60	32995
2026-01-29 20:37:18.14	106.50	11.55	-54.7	-58.3	17.5	0.00e+00	0	46	0	822083584	60	32176
2026-01-29 20:37:19.14	106.66	11.50	-54.9	-58.3	17.9	0.00e+00	0	46	0	824180736	60	32347
2026-01-29 20:37:20.15	106.83	11.46	-55.1	-58.1	18.4	0.00e+00	0	46	0	826277888	60	31619
2026-01-29 20:37:21.16	107.00	11.41	-55.2	-58.2	18.5	0.00e+00	0	46	0	828375040	60	31672
2026-01-29 20:37:22.17	107.16	11.36	-55.0	-58.3	18.3	0.00e+00	0	46	0	829423616	60	32142
2026-01-29 20:37:23.18	107.33	11.32	-54.9	-58.4	18.3	0.00e+00	0	46	0	831520768	60	32482
2026-01-29 20:37:24.19	107.49	11.27	-54.9	-58.5	17.8	0.00e+00	0	46	0	833617920	60	33123
2026-01-29 20:37:25.20	107.65	11.23	-54.7	-58.6	17.2	0.00e+00	0	46	0	835715072	60	33362
2026-01-29 20:37:26.20	107.82	11.18	-54.6	-58.7	16.6	0.00e+00	0	46	0	836763648	60	33645
2026-01-29 20:37:27.21	107.98	11.14	-54.6	-58.9	16.3	0.00e+00	0	46	0	838860800	60	34350
2026-01-29 20:37:28.22	108.14	11.09	-54.5	-58.7	16.5	0.00e+00	0	46	0	840957952	60	33738
2026-01-29 20:37:29.22	108.30	11.04	-54.7	-58.9	16.9	0.00e+00	0	46	0	843055104	60	34420
2026-01-29 20:37:30.22	108.46	11.00	-54.7	-58.7	17.5	0.00e+00	0	46	0	845152256	60	33799
2026-01-29 20:37:31.23	108.62	10.95	-54.8	-58.8	17.7	0.00e+00	0	46	0	846200832	60	33991
2026-01-29 20:37:32.23	108.78	10.90	-55.0	-58.8	17.2	0.00e+00	0	46	0	848297984	60	34016
2026-01-29 20:37:33.24	108.94	10.86	-54.8	-58.3	17.1	0.00e+00	0	46	0	850395136	60	32335
2026-01-29 20:37:34.25	109.10	10.81	-54.8	-58.5	16.4	0.00e+00	0	46	0	852492288	60	32848
2026-01-29 20:37:35.25	109.26	10.76	-54.6	-57.9	16.4	0.00e+00	0	46	0	854589440	60	30886
2026-01-29 20:37:36.25	109.42	10.72	-54.6	-57.9	16.4	0.00e+00	0	46	0	856686592	60	30872
2026-01-29 20:37:37.25	109.57	10.67	-54.4	-57.8	16.9	0.00e+00	0	46	0	857735168	60	30326
2026-01-29 20:37:38.26	109.73	10.62	-54.1	-57.6	17.5	0.00e+00	0	46	0	859832320	60	29854
2026-01-29 20:37:39.27	109.89	10.58	-53.7	-57.7	17.6	0.00e+00	0	46	0	861929472	60	29988
2026-01-29 20:37:40.27	110.04	10.53	-53.2	-57.6	17.8	0.00e+00	0	46	0	864026624	60	29758
2026-01-29 20:37:41.28	110.20	10.48	-52.3	-57.3	17.3	0.00e+00	0	46	0	865075200	60	28820
2026-01-29 20:37:42.29	110.35	10.43	-51.8	-57.5	16.5	0.00e+00	0	46	0	867172352	60	29458
2026-01-29 20:37:43.29	110.51	10.39	-51.6	-57.6	15.9	0.00e+00	0	46	0	869269504	60	29574
2026-01-29 20:37:44.30	110.66	10.34	-51.3	-57.2	15.6	0.00e+00	0	46	0	871366656	60	28457
2026-01-29 20:37:45.31	110.82	10.29	-51.4	-57.2	15.5	0.00e+00	0	46	0	873463808	60	28397
2026-01-29 20:37:46.31	110.97	10.24	-51.6	-57.1	15.8	0.00e+00	0	46	0	874512384	60	28217
2026-01-29 20:37:47.31	111.12	10.19	-52.0	-57.3	16.5	0.00e+00	0	46	0	876609536	60	28657
2026-01-29 20:37:48.32	111.27	10.15	-52.4	-57.3	16.8	0.00e+00	0	46	0	878706688	60	28755
2026-01-29 20:37:49.32	111.42	10.10	-52.8	-57.4	17.8	0.00e+00	0	46	0	880803840	60	28983
2026-01-29 20:37:50.32	111.58	10.05	-53.3	-57.3	18.6	0.00e+00	0	46	0	882900992	60	28707
2026-01-29 20:37:51.33	111.73	10.00	-53.6	-57.2	18.6	0.00e+00	0	46	0	883949568	60	28479
2026-01-29 20:37:52.33	111.88	9.95	-53.8	-57.2	18.4	0.00e+00	0	46	0	886046720	60	28438
2026-01-29 20:37:53.34	112.03	9.90	-53.7	-57.0	18.3	0.00e+00	0	46	0	888143872	60	27732
2026-01-29 20:37:54.34	112.17	9.86	-53.6	-56.9	18.3	0.00e+00	0	46	0	890241024	60	27499
2026-01-29 20:37:55.35	112.32	9.81	-53.5	-56.9	18.1	0.00e+00	0	46	0	892338176	60	27275
2026-01-29 20:37:56.36	112.47	9.76	-53.5	-57.1	17.9	0.00e+00	0	46	0	893386752	60	27971
2026-01-29 20:37:57.37	112.62	9.71	-53.6	-57.4	17.9	0.00e+00	0	46	0	895483904	60	28957
2026-01-29 20:37:58.38	112.77	9.66	-53.7	-57.5	17.9	0.00e+00	0	46	0	897581056	60	29429
2026-01-29 20:37:59.38	112.92	9.61	-54.0	-57.9	17.7	0.00e+00	0	46	0	899678208	60	30616
2026-01-29 20:38:00.39	113.06	9.56	-54.2	-57.5	18.2	0.00e+00	0	46	0	901775360	60	29266
2026-01-29 20:38:01.40	113.21	9.51	-54.1	-57.3	18.2	0.00e+00	0	46	0	902823936	60	28654
2026-01-29 20:38:02.40	113.35	9.46	-54.3	-57.3	18.2	0.00e+00	0	46	0	904921088	60	28714
2026-01-29 20:38:03.41	113.50	9.42	-54.4	-57.1	18.5	0.00e+00	0	46	0	907018240	60	28032
2026-01-29 20:38:04.41	113.64	9.37	-54.5	-57.0	18.7	0.00e+00	0	46	0	909115392	60	27812
2026-01-29 20:38:05.41	113.79	9.32	-54.5	-56.7	19.1	0.00e+00	0	46	0	911212544	60	26870
2026-01-29 20:38:06.42	113.93	9.27	-54.2	-56.4	19.4	0.00e+00	0	46	0	912261120	60	25959
2026-01-29 20:38:07.42	114.07	9.22	-54.4	-56.6	19.4	0.00e+00	0	46	0	914358272	60	26562
2026-01-29 20:38:08.43	114.22	9.17	-54.1	-56.3	19.4	0.00e+00	0	46	0	916455424	60	25699
2026-01-29 20:38:09.43	114.36	9.12	-54.2	-56.5	19.2	0.00e+00	0	46	0	918552576	60	26301
2026-01-29 20:38:10.43	114.50	9.07	-54.3	-56.7	19.1	0.00e+00	0	46	0	920649728	60	26864
2026-01-29 20:38:11.44	114.64	9.02	-54.2	-56.6	19.2	0.00e+00	0	46	0	921698304	60	26591
2026-01-29 20:38:12.45	114.78	8.97	-54.5	-57.0	19.1	0.00e+00	0	46	0	923795456	60	27834
2026-01-29 20:38:13.46	114.92	8.92	-54.4	-57.0	19.2	0.00e+00	0	46	0	925892608	60	27605
2026-01-29 20:38:14.46	115.06	8.87	-54.3	-57.1	18.8	0.00e+00	0	46	0	927989760	60	28219
2026-01-29 20:38:15.47	115.20	8.82	-54.3	-57.3	18.4	0.00e+00	0	46	0	930086912	60	28741
2026-01-29 20:38:16.48	115.34	8.77	-54.2	-57.4	18.0	0.00e+00	0	46	0	931135488	60	29193
2026-01-29 20:38:17.48	115.48	8.72	-54.2	-57.6	17.8	0.00e+00	0	46	0	933232640	60	29726
2026-01-29 20:38:18.49	115.62	8.67	-54.2	-57.7	17.7	0.00e+00	0	46	0	935329792	60	30045
2026-01-29 20:38:19.50	115.76	8.62	-54.1	-57.4	18.1	0.00e+00	0	46	0	937426944	60	28983
2026-01-29 20:38:20.50	115.89	8.57	-54.2	-57.5	18.2	0.00e+00	0	46	0	939524096	60	29282
2026-01-29 20:38:21.51	116.03	8.52	-54.2	-57.4	18.4	0.00e+00	0	46	0	940572672	60	29042
2026-01-29 20:38:22.52	116.17	8.47	-54.1	-57.2	18.6	0.00e+00	0	46	0	942669824	60	28419
2026-01-29 20:38:23.52	116.30	8.42	-54.2	-57.3	18.6	0.00e+00	0	46	0	944766976	60	28695
2026-01-29 20:38:24.53	116.44	8.37	-54.3	-57.4	18.5	0.00e+00	0	46	0	946864128	60	29121
2026-01-29 20:38:25.54	116.57	8.32	-54.4	-57.4	18.5	0.00e+00	0	46	0	948961280	60	29151
2026-01-29 20:38:26.55	116.71	8.27	-54.5	-57.5	18.4	0.00e+00	0	46	0	950009856	60	29275
2026-01-29 20:38:27.55	116.84	8.22	-54.5	-57.4	18.4	0.00e+00	0	46	0	952107008	60	29133
2026-01-29 20:38:28.56	116.97	8.17	-54.2	-57.1	18.6	0.00e+00	0	46	0	954204160	60	28151
2026-01-29 20:38:29.57	117.11	8.12	-54.1	-57.0	18.5	0.00e+00	0	46	0	956301312	60	27749
2026-01-29 20:38:30.58	117.24	8.07	-54.1	-56.9	18.3	0.00e+00	0	46	0	958398464	60	27529
2026-01-29 20:38:31.59	117.37	8.02	-54.1	-56.9	18.2	0.00e+00	0	46	0	959447040	60	27377
2026-01-29 20:38:32.59	117.50	7.97	-54.0	-56.7	18.4	0.00e+00	0	46	0	961544192	60	26657
2026-01-29 20:38:33.60	117.64	7.92	-54.3	-56.8	18.2	0.00e+00	0	46	0	963641344	60	27111
2026-01-29 20:38:34.60	117.77	7.87	-54.4	-56.9	18.1	0.00e+00	0	46	0	965738496	60	27304
2026-01-29 20:38:35.61	117.90	7.82	-54.7	-57.1	18.0	0.00e+00	0	46	0	967835648	60	28007
2026-01-29 20:38:36.62	118.03	7.76	-54.8	-57.2	18.0	0.00e+00	0	46	0	968884224	60	28368
2026-01-29 20:38:37.62	118.16	7.71	-55.0	-57.5	17.9	0.00e+00	0	46	0	970981376	60	29213
2026-01-29 20:38:38.63	118.29	7.66	-55.0	-57.7	17.9	0.00e+00	0	46	0	973078528	60	29987
2026-01-29 20:38:39.64	118.42	7.61	-54.9	-57.8	17.7	0.00e+00	0	46	0	975175680	60	30545
2026-01-29 20:38:40.64	118.54	7.56	-54.7	-58.0	17.4	0.00e+00	0	46	0	977272832	60	30980
2026-01-29 20:38:41.64	118.67	7.51	-54.7	-57.9	17.6	0.00e+00	0	46	0	978321408	60	30870
2026-01-29 20:38:42.65	118.80	7.46	-54.7	-57.7	17.8	0.00e+00	0	46	0	980418560	60	30058
2026-01-29 20:38:43.66	118.93	7.41	-54.8	-57.6	17.7	0.00e+00	0	46	0	982515712	60	29857
2026-01-29 20:38:44.67	119.05	7.36	-54.9	-57.7	17.7	0.00e+00	0	46	0	984612864	60	29906
2026-01-29 20:38:45.68	119.18	7.31	-55.1	-57.8	17.6	0.00e+00	0	46	0	986710016	60	30391
2026-01-29 20:38:46.68	119.31	7.26	-55.2	-57.7	17.5	0.00e+00	0	46	0	987758592	60	30137
2026-01-29 20:38:47.69	119.43	7.21	-55.2	-57.7	17.6	0.00e+00	0	46	0	989855744	60	30074
2026-01-29 20:38:48.70	119.56	7.16	-55.2	-57.6	17.7	0.00e+00	0	46	0	991952896	60	29790
2026-01-29 20:38:49.70	119.68	7.11	-55.4	-57.9	17.6	0.00e+00	0	46	0	994050048	60	30925
2026-01-29 20:38:50.71	119.80	7.05	-55.5	-58.1	17.5	0.00e+00	0	46	0	996147200	60	31572
2026-01-29 20:38:51.71	119.93	7.00	-55.5	-58.1	17.5	0.00e+00	0	46	0	997195776	60	31654
2026-01-29 20:38:52.72	120.05	6.95	-55.7	-58.5	17.2	0.00e+00	0	46	0	999292928	60	33130
2026-01-29 20:38:53.73	120.17	6.90	-55.7	-58.7	17.2	0.00e+00	0	46	0	1001390080	60	33878
2026-01-29 20:38:54.73	120.30	6.85	-55.6	-58.8	17.0	0.00e+00	0	46	0	1003487232	60	33969
2026-01-29 20:38:55.74	120.42	6.80	-55.6	-58.8	16.8	0.00e+00	0	46	0	1005584384	60	34252
2026-01-29 20:38:56.74	120.54	6.75	-55.6	-58.5	16.9	0.00e+00	0	46	0	1006632960	60	33087
2026-01-29 20:38:57.75	120.66	6.70	-55.7	-58.6	16.8	0.00e+00	0	46	0	1008730112	60	33170
2026-01-29 20:38:58.76	120.78	6.65	-55.8	-58.5	16.7	0.00e+00	0	46	0	1010827264	60	32985
2026-01-29 20:38:59.76	120.90	6.60	-55.9	-58.6	16.9	0.00e+00	0	46	0	1012924416	60	33175
2026-01-29 20:39:00.77	121.02	6.55	-56.1	-58.8	16.8	0.00e+00	0	46	0	1015021568	60	33960
2026-01-29 20:39:01.78	121.14	6.50	-56.1	-58.9	16.9	0.00e+00	0	46	0	1016070144	60	34324
2026-01-29 20:39:02.79	121.26	6.44	-56.1	-58.9	17.0	0.00e+00	0	46	0	1018167296	60	34435
2026-01-29 20:39:03.79	121.38	6.39	-56.0	-58.9	17.0	0.00e+00	0	46	0	1020264448	60	34401
2026-01-29 20:39:04.80	121.50	6.34	-56.0	-59.1	16.7	0.00e+00	0	46	0	1022361600	60	35483
2026-01-29 20:39:05.81	121.62	6.29	-56.0	-59.3	16.5	0.00e+00	0	46	0	1024458752	60	36296
2026-01-29 20:39:06.82	121.74	6.24	-56.0	-59.3	16.4	0.00e+00	0	46	0	1025507328	60	36137
2026-01-29 20:39:07.83	121.85	6.19	-56.0	-59.6	15.9	0.00e+00	0	46	0	1027604480	60	37506
2026-01-29 20:39:08.84	121.97	6.14	-56.0	-59.6	15.8	0.00e+00	0	46	0	1029701632	60	37570
2026-01-29 20:39:09.84	122.09	6.09	-55.9	-59.6	15.9	0.00e+00	0	46	0	1031798784	60	37368
2026-01-29 20:39:10.85	122.20	6.04	-56.0	-59.7	16.0	0.00e+00	0	46	0	1033895936	60	38006
2026-01-29 20:39:11.85	122.32	5.99	-57.5	-62.5	9.8	0.00e+00	0	46	0	1034944512	60	51961
2026-01-29 20:39:12.86	122.43	5.93	-59.9	-77.2	3.6	1.51e+00	0	46	104	1035993088	60	284066
2026-01-29 20:39:13.86	122.55	5.88	-59.3	-77.5	3.6	1.51e+00	0	46	104	1035993088	60	295247
2026-01-29 20:39:14.87	122.66	5.83	-61.3	-77.9	3.6	1.51e+00	0	46	104	1035993088	60	308178
2026-01-29 20:39:15.87	122.78	5.78	-60.7	-77.6	3.6	1.51e+00	0	46	104	1035993088	60	297152
2026-01-29 20:39:16.88	122.89	5.73	-61.2	-78.2	3.6	1.51e+00	0	46	104	1035993088	60	319100
2026-01-29 20:39:17.89	123.01	5.68	-61.2	-78.2	3.6	1.51e+00	0	46	104	1035993088	60	318941
2026-01-29 20:39:18.90	123.12	5.63	-62.0	-78.4	3.6	1.51e+00	0	46	104	1035993088	60	326352
2026-01-29 20:39:19.90	123.23	5.58	-62.1	-78.6	3.6	1.51e+00	0	46	104	1035993088	60	332673
2026-01-29 20:39:20.91	123.34	5.53	-62.1	-78.6	3.6	1.51e+00	0	46	104	1035993088	60	333395
2026-01-29 20:39:21.91	123.45	5.48	-62.2	-78.7	3.6	1.51e+00	0	46	104	1035993088	60	336932
2026-01-29 20:39:22.92	123.57	5.43	-62.4	-78.8	3.6	1.51e+00	0	46	104	1035993088	60	342919
2026-01-29 20:39:23.93	123.68	5.38	-62.5	-79.0	3.6	1.51e+00	0	46	104	1035993088	60	350078
2026-01-29 20:39:24.94	123.79	5.32	-62.8	-79.1	3.6	1.51e+00	0	46	104	1035993088	60	352428
2026-01-29 20:39:25.94	123.90	5.27	-62.7	-79.2	3.6	1.51e+00	0	46	104	1035993088	60	358627
2026-01-29 20:39:26.94	124.01	5.22	-63.1	-79.5	3.6	1.51e+00	0	46	104	1035993088	60	369422
2026-01-29 20:39:27.95	124.12	5.17	-63.2	-79.7	3.6	1.51e+00	0	46	104	1035993088	60	376536
2026-01-29 20:39:28.96	124.23	5.12	-63.2	-79.6	3.6	1.51e+00	0	46	104	1035993088	60	375227
2026-01-29 20:39:29.96	124.34	5.07	-63.2	-79.6	3.6	1.51e+00	0	46	104	1035993088	60	374157
2026-01-29 20:39:30.96	124.44	5.02	-63.2	-79.7	3.6	1.51e+00	0	46	104	1035993088	60	377382
2026-01-29 20:39:31.97	124.55	4.97	-63.3	-79.7	3.5	1.51e+00	0	46	104	1035993088	60	378575
2026-01-29 20:39:32.97	124.66	4.92	-63.2	-79.6	3.6	1.51e+00	0	46	104	1035993088	60	374748
2026-01-29 20:39:33.98	124.77	4.87	-63.1	-79.6	3.6	1.51e+00	0	46	104	1035993088	60	375664
2026-01-29 20:39:34.98	124.87	4.82	-63.0	-79.7	3.6	1.51e+00	0	46	104	1035993088	60	380386
2026-01-29 20:39:35.99	124.98	4.77	-63.1	-79.7	3.6	1.51e+00	0	46	104	1035993088	60	379888
2026-01-29 20:39:37.00	125.09	4.72	-63.2	-79.7	3.6	1.51e+00	0	46	104	1035993088	60	379581
2026-01-29 20:39:38.01	125.20	4.67	-63.0	-79.8	3.6	1.51e+00	0	46	104	1035993088	60	382640
2026-01-29 20:39:39.01	125.30	4.62	-62.6	-79.7	3.6	1.51e+00	0	46	104	1035993088	60	379285
2026-01-29 20:39:40.02	125.41	4.56	-62.0	-79.7	3.6	1.51e+00	0	46	104	1035993088	60	379942
2026-01-29 20:39:41.03	125.51	4.51	-61.2	-79.8	3.6	1.51e+00	0	46	104	1035993088	60	380864
