passes_logs/2026/01/29/R3.2S-Naryan-Mar/R3.2S-Naryan-Mar__20260129_000754_SUOMI_NPP_rec.log

#Pass ID: 20260129_000754_SUOMI NPP
#Satellite: SUOMI NPP
#Configuration: NPP
#almurnet v.1.7.20240730
#Start time: 2026-01-29 00:07:55

#Version: 2.2.20231116
#Station: R3.2S-Naryan-Mar
#Location: 53.008057 lon 67.646978 lat
#TLE: 1 37849U 11061A   26027.86188320  .00000172  00000+0  10275-3 0  9990
#TLE: 2 37849  98.7823 329.8005 0002088  41.4184 318.7150 14.19530883738530

#Time	Az	El	Level	Level2	SNR	BER	BlckErr	Temp	State	Recorded	gain1	gain2
2026-01-29 00:07:55.38	26.61	0.03	-61.0	-75.5	3.4	1.52e+00	0	44	0	0	60	226581
2026-01-29 00:07:56.38	26.60	0.09	-61.2	-77.9	3.6	1.51e+00	0	44	104	0	60	309047
2026-01-29 00:07:57.39	26.58	0.15	-61.5	-78.1	3.6	1.51e+00	0	45	104	0	60	314609
2026-01-29 00:07:58.40	26.56	0.21	-61.5	-78.1	3.6	1.51e+00	0	45	104	0	60	313197
2026-01-29 00:07:59.41	26.55	0.27	-61.5	-78.1	3.6	1.51e+00	0	45	104	0	60	314206
2026-01-29 00:08:00.41	26.53	0.33	-61.6	-78.0	3.6	1.51e+00	0	45	104	0	60	310867
2026-01-29 00:08:01.42	26.52	0.39	-61.6	-78.0	3.6	1.51e+00	0	45	104	0	60	311601
2026-01-29 00:08:02.43	26.50	0.45	-61.4	-77.9	3.6	1.51e+00	0	45	104	0	60	308063
2026-01-29 00:08:03.44	26.49	0.51	-61.4	-77.8	3.6	1.51e+00	0	45	104	0	60	303511
2026-01-29 00:08:04.44	26.47	0.57	-61.0	-77.7	3.6	1.51e+00	0	45	104	0	60	302230
2026-01-29 00:08:05.45	26.45	0.63	-61.2	-77.7	3.6	1.51e+00	0	45	104	0	60	300474
2026-01-29 00:08:06.46	26.44	0.69	-58.7	-76.7	3.6	1.51e+00	0	45	104	0	60	268990
2026-01-29 00:08:07.46	26.42	0.75	-60.3	-77.6	3.6	1.51e+00	0	45	104	0	60	297065
2026-01-29 00:08:08.46	26.41	0.81	-61.2	-77.6	3.6	1.51e+00	0	45	104	0	60	297672
2026-01-29 00:08:09.46	26.39	0.87	-59.8	-77.5	3.6	1.51e+00	0	45	104	0	60	293286
2026-01-29 00:08:10.47	26.37	0.94	-60.5	-77.2	3.6	1.51e+00	0	45	104	0	60	284351
2026-01-29 00:08:11.47	26.36	1.00	-59.8	-77.0	3.6	1.51e+00	0	45	104	0	60	276330
2026-01-29 00:08:12.47	26.34	1.06	-60.3	-76.8	3.6	1.51e+00	0	45	104	0	60	271910
2026-01-29 00:08:13.48	26.32	1.12	-59.7	-76.6	3.6	1.51e+00	0	45	104	0	60	264167
2026-01-29 00:08:14.47	26.31	1.18	-59.7	-76.5	3.6	1.51e+00	0	45	104	0	60	262654
2026-01-29 00:08:15.48	26.29	1.24	-59.6	-76.5	3.6	1.51e+00	0	45	104	0	60	262540
2026-01-29 00:08:16.48	26.27	1.30	-59.6	-76.5	3.6	1.51e+00	0	45	104	0	60	260996
2026-01-29 00:08:17.49	26.26	1.37	-59.6	-76.5	3.6	1.51e+00	0	45	104	0	60	260731
2026-01-29 00:08:18.50	26.24	1.43	-59.6	-76.5	3.6	1.51e+00	0	45	104	0	60	260530
2026-01-29 00:08:19.51	26.22	1.49	-59.6	-76.4	3.6	1.51e+00	0	45	104	0	60	259900
2026-01-29 00:08:20.51	26.20	1.55	-59.6	-76.5	3.6	1.51e+00	0	45	104	0	60	261893
2026-01-29 00:08:21.52	26.19	1.62	-59.5	-76.4	3.6	1.51e+00	0	45	104	0	60	259948
2026-01-29 00:08:22.53	26.17	1.68	-59.5	-76.4	3.6	1.51e+00	0	46	104	0	60	259514
2026-01-29 00:08:23.53	26.15	1.74	-59.5	-76.4	3.6	1.51e+00	0	45	104	0	60	259171
2026-01-29 00:08:24.54	26.13	1.81	-59.5	-76.3	3.6	1.51e+00	0	45	104	0	60	257211
2026-01-29 00:08:25.54	26.12	1.87	-59.5	-76.4	3.6	1.51e+00	0	45	104	0	60	258572
2026-01-29 00:08:26.55	26.10	1.93	-59.5	-76.4	3.6	1.51e+00	0	45	104	0	60	258154
2026-01-29 00:08:27.55	26.08	2.00	-59.5	-76.4	3.6	1.51e+00	0	45	104	0	60	257401
2026-01-29 00:08:28.56	26.06	2.06	-59.5	-76.4	3.6	1.51e+00	0	45	104	0	60	257441
2026-01-29 00:08:29.57	26.04	2.12	-59.5	-76.3	3.6	1.51e+00	0	45	104	0	60	255906
2026-01-29 00:08:30.57	26.03	2.19	-59.4	-76.4	3.6	1.51e+00	0	45	104	0	60	257547
2026-01-29 00:08:31.58	26.01	2.25	-59.4	-76.3	3.6	1.51e+00	0	45	104	0	60	256276
2026-01-29 00:08:32.59	25.99	2.32	-59.4	-76.3	3.6	1.51e+00	0	45	104	0	60	256233
2026-01-29 00:08:33.60	25.97	2.38	-59.4	-76.3	3.6	1.51e+00	0	45	104	0	60	255316
2026-01-29 00:08:34.60	25.95	2.45	-59.4	-76.3	3.6	1.51e+00	0	45	104	0	60	254523
2026-01-29 00:08:35.61	25.93	2.51	-59.4	-76.3	3.6	1.51e+00	0	45	104	0	60	255242
2026-01-29 00:08:36.61	25.91	2.58	-59.3	-76.2	3.6	1.51e+00	0	45	104	0	60	253619
2026-01-29 00:08:37.62	25.90	2.64	-59.4	-76.2	3.6	1.51e+00	0	45	104	0	60	254243
2026-01-29 00:08:38.62	25.88	2.71	-59.3	-76.2	3.6	1.51e+00	0	45	104	0	60	253383
2026-01-29 00:08:39.63	25.86	2.77	-59.3	-76.2	3.5	1.51e+00	0	45	104	0	60	253028
2026-01-29 00:08:40.64	25.84	2.84	-59.3	-76.2	3.6	1.51e+00	0	45	104	0	60	253934
2026-01-29 00:08:41.64	25.82	2.90	-59.4	-76.2	3.6	1.51e+00	0	46	104	0	60	252975
2026-01-29 00:08:42.65	25.80	2.97	-59.3	-76.2	3.6	1.51e+00	0	45	104	0	60	252634
2026-01-29 00:08:43.66	25.78	3.03	-59.4	-76.2	3.6	1.51e+00	0	45	104	0	60	253237
2026-01-29 00:08:44.67	25.76	3.10	-59.3	-76.1	3.6	1.51e+00	0	46	104	0	60	250942
2026-01-29 00:08:45.67	25.74	3.17	-59.3	-76.1	3.6	1.51e+00	0	45	104	0	60	250566
2026-01-29 00:08:46.68	25.72	3.23	-59.3	-76.1	3.6	1.51e+00	0	46	104	0	60	250475
2026-01-29 00:08:47.69	25.70	3.30	-59.4	-76.2	3.6	1.51e+00	0	45	104	0	60	251731
2026-01-29 00:08:48.70	25.68	3.37	-59.4	-76.1	3.6	1.51e+00	0	46	104	0	60	251510
2026-01-29 00:08:49.70	25.66	3.43	-59.4	-76.2	3.6	1.51e+00	0	46	104	0	60	251919
2026-01-29 00:08:50.71	25.64	3.50	-59.4	-76.2	3.6	1.51e+00	0	46	104	0	60	252294
2026-01-29 00:08:51.72	25.62	3.57	-59.4	-76.2	3.6	1.51e+00	0	46	104	0	60	252789
2026-01-29 00:08:52.73	25.60	3.64	-59.4	-76.1	3.6	1.51e+00	0	46	104	0	60	251476
2026-01-29 00:08:53.73	25.58	3.70	-59.4	-76.1	3.6	1.51e+00	0	45	104	0	60	249934
2026-01-29 00:08:54.74	25.56	3.77	-59.4	-76.1	3.6	1.51e+00	0	46	104	0	60	250960
2026-01-29 00:08:55.74	25.54	3.84	-59.4	-76.1	3.6	1.51e+00	0	46	104	0	60	249576
2026-01-29 00:08:56.75	25.51	3.91	-59.4	-76.1	3.6	1.51e+00	0	46	104	0	60	250918
2026-01-29 00:08:57.76	25.49	3.97	-59.4	-76.1	3.6	1.51e+00	0	46	104	0	60	250208
2026-01-29 00:08:58.77	25.47	4.04	-59.4	-76.1	3.6	1.51e+00	0	45	104	0	60	250659
2026-01-29 00:08:59.77	25.45	4.11	-59.4	-76.1	3.6	1.51e+00	0	46	104	0	60	250981
2026-01-29 00:09:00.78	25.43	4.18	-59.3	-76.1	3.6	1.51e+00	0	46	104	0	60	250256
2026-01-29 00:09:01.78	25.41	4.25	-59.3	-76.1	3.6	1.51e+00	0	46	104	0	60	250871
2026-01-29 00:09:02.78	25.39	4.32	-59.3	-76.1	3.6	1.51e+00	0	46	104	0	60	250554
2026-01-29 00:09:03.79	25.36	4.39	-59.4	-76.1	3.6	1.51e+00	0	46	104	0	60	249887
2026-01-29 00:09:04.80	25.34	4.46	-59.3	-76.1	3.6	1.51e+00	0	46	104	0	60	250977
2026-01-29 00:09:05.81	25.32	4.53	-59.3	-76.0	3.6	1.51e+00	0	46	104	0	60	247893
2026-01-29 00:09:06.81	25.30	4.59	-59.3	-76.1	3.6	1.51e+00	0	46	104	0	60	249397
2026-01-29 00:09:07.82	25.27	4.66	-59.3	-76.1	3.6	1.51e+00	0	46	104	0	60	250169
2026-01-29 00:09:08.83	25.25	4.73	-59.3	-76.1	3.6	1.51e+00	0	46	104	0	60	251278
2026-01-29 00:09:09.84	25.23	4.81	-59.3	-76.2	3.6	1.51e+00	0	46	104	0	60	251832
2026-01-29 00:09:10.85	25.21	4.88	-59.3	-76.2	3.6	1.51e+00	0	46	104	0	60	252160
2026-01-29 00:09:11.85	25.18	4.95	-59.3	-76.1	3.6	1.51e+00	0	46	104	0	60	251359
2026-01-29 00:09:12.86	25.16	5.02	-59.3	-76.1	3.6	1.51e+00	0	46	104	0	60	251125
2026-01-29 00:09:13.86	25.14	5.09	-59.3	-76.2	3.6	1.51e+00	0	46	104	0	60	253279
2026-01-29 00:09:14.87	25.11	5.16	-59.3	-76.1	3.6	1.51e+00	0	46	104	0	60	250942
2026-01-29 00:09:15.88	25.09	5.23	-59.3	-76.2	3.6	1.51e+00	0	46	104	0	60	252073
2026-01-29 00:09:16.88	25.07	5.30	-59.3	-76.1	3.6	1.51e+00	0	46	104	0	60	251443
2026-01-29 00:09:17.89	25.04	5.37	-59.3	-76.1	3.6	1.51e+00	0	46	104	0	60	249792
2026-01-29 00:09:18.89	25.02	5.44	-59.3	-76.1	3.6	1.51e+00	0	46	104	0	60	249152
2026-01-29 00:09:19.90	25.00	5.52	-59.3	-76.1	3.6	1.51e+00	0	46	104	0	60	249560
2026-01-29 00:09:20.90	24.97	5.59	-59.3	-76.0	3.6	1.51e+00	0	46	104	0	60	248124
2026-01-29 00:09:21.91	24.95	5.66	-59.3	-76.0	3.6	1.51e+00	0	46	104	0	60	246056
2026-01-29 00:09:22.92	24.92	5.73	-59.3	-76.0	3.6	1.51e+00	0	46	104	0	60	246248
2026-01-29 00:09:23.92	24.90	5.81	-59.3	-76.0	3.6	1.51e+00	0	46	104	0	60	246913
2026-01-29 00:09:24.93	24.87	5.88	-59.3	-75.9	3.6	1.51e+00	0	46	104	0	60	243858
2026-01-29 00:09:25.93	24.85	5.95	-59.3	-75.9	3.6	1.51e+00	0	46	104	0	60	243130
2026-01-29 00:09:26.94	24.82	6.03	-59.3	-75.8	3.6	1.51e+00	0	46	104	0	60	241827
2026-01-29 00:09:27.95	24.80	6.10	-58.5	-75.9	3.6	1.51e+00	0	46	104	0	60	243001
2026-01-29 00:09:28.95	24.77	6.17	-58.0	-75.7	3.6	1.51e+00	0	46	104	0	60	238267
2026-01-29 00:09:29.96	24.75	6.25	-58.6	-75.0	3.6	1.51e+00	0	46	104	0	60	219151
2026-01-29 00:09:30.97	24.72	6.32	-59.6	-76.1	3.6	1.51e+00	0	46	104	0	60	249997
2026-01-29 00:09:31.97	24.70	6.40	-58.2	-75.6	3.6	1.51e+00	0	46	104	0	60	235382
2026-01-29 00:09:32.98	24.67	6.47	-58.3	-75.5	3.6	1.51e+00	0	46	104	0	60	233968
2026-01-29 00:09:33.98	24.64	6.55	-58.5	-75.3	3.6	1.51e+00	0	46	104	0	60	228600
2026-01-29 00:09:34.98	24.62	6.62	-58.6	-75.3	3.6	1.51e+00	0	46	104	0	60	227998
2026-01-29 00:09:35.99	24.59	6.70	-59.7	-76.0	3.6	1.51e+00	0	46	104	0	60	248554
2026-01-29 00:09:37.00	24.57	6.77	-58.6	-75.9	3.6	1.51e+00	0	46	104	0	60	244387
2026-01-29 00:09:38.00	24.54	6.85	-58.9	-75.3	3.6	1.51e+00	0	46	104	0	60	227324
2026-01-29 00:09:39.01	24.51	6.92	-59.0	-76.3	3.6	1.51e+00	0	46	104	0	60	255286
2026-01-29 00:09:40.02	24.48	7.00	-59.2	-75.5	3.6	1.51e+00	0	46	104	0	60	232665
2026-01-29 00:09:41.03	24.46	7.08	-59.3	-75.5	3.6	1.51e+00	0	46	104	0	60	233421
2026-01-29 00:09:42.04	24.43	7.15	-59.0	-75.4	3.6	1.51e+00	0	46	104	0	60	229946
2026-01-29 00:09:43.04	24.40	7.23	-59.1	-75.4	3.6	1.51e+00	0	46	104	0	60	230997
2026-01-29 00:09:44.05	24.38	7.31	-58.8	-76.0	3.6	1.51e+00	0	46	104	0	60	247936
2026-01-29 00:09:45.06	24.35	7.38	-59.8	-76.3	3.6	1.51e+00	0	46	104	0	60	255047
2026-01-29 00:09:46.07	24.32	7.46	-58.7	-75.1	3.6	1.51e+00	0	46	104	0	60	222475
2026-01-29 00:09:47.07	24.29	7.54	-58.1	-75.7	3.6	1.51e+00	0	46	104	0	60	237864
2026-01-29 00:09:48.08	24.26	7.62	-58.4	-75.4	3.6	1.51e+00	0	46	104	0	60	230000
2026-01-29 00:09:49.08	24.23	7.70	-59.5	-75.7	3.6	1.51e+00	0	46	104	0	60	239901
2026-01-29 00:09:50.09	24.21	7.77	-59.7	-75.8	3.6	1.51e+00	0	46	104	0	60	240834
2026-01-29 00:09:51.10	24.18	7.85	-59.7	-75.7	3.6	1.51e+00	0	46	104	0	60	239690
2026-01-29 00:09:52.11	24.15	7.93	-59.6	-76.0	3.6	1.51e+00	0	46	104	0	60	248321
2026-01-29 00:09:53.11	24.12	8.01	-55.9	-74.7	3.6	1.51e+00	0	46	104	0	60	211854
2026-01-29 00:09:54.12	24.09	8.09	-57.7	-74.9	3.6	1.51e+00	0	46	104	0	60	217265
2026-01-29 00:09:55.12	24.06	8.17	-59.9	-76.3	3.6	1.51e+00	0	46	104	0	60	255756
2026-01-29 00:09:56.13	24.03	8.25	-56.2	-74.7	3.6	1.51e+00	0	46	104	0	60	213088
2026-01-29 00:09:57.14	24.00	8.33	-56.0	-74.4	3.6	1.51e+00	0	46	104	0	60	206504
2026-01-29 00:09:58.15	23.97	8.41	-56.5	-74.7	3.6	1.51e+00	0	46	104	0	60	213088
2026-01-29 00:09:59.16	23.94	8.49	-56.8	-75.0	3.6	1.51e+00	0	46	104	0	60	220328
2026-01-29 00:10:00.17	23.91	8.57	-59.1	-75.9	3.6	1.51e+00	0	46	104	0	60	243219
2026-01-29 00:10:01.17	23.88	8.65	-58.5	-75.9	3.6	1.51e+00	0	46	104	0	60	243796
2026-01-29 00:10:02.18	23.85	8.73	-59.2	-75.4	3.6	1.51e+00	0	46	104	0	60	230736
2026-01-29 00:10:03.19	23.81	8.82	-59.9	-76.1	3.6	1.51e+00	0	46	104	0	60	249864
2026-01-29 00:10:04.19	23.78	8.90	-56.9	-75.1	3.6	1.51e+00	0	46	104	0	60	222986
2026-01-29 00:10:05.20	23.75	8.98	-56.1	-74.9	3.6	1.51e+00	0	46	104	0	60	218837
2026-01-29 00:10:06.21	23.72	9.06	-56.1	-74.8	3.6	1.51e+00	0	46	104	0	60	215381
2026-01-29 00:10:07.21	23.69	9.14	-56.2	-75.3	3.6	1.51e+00	0	46	104	0	60	228704
2026-01-29 00:10:08.22	23.66	9.23	-59.8	-75.9	3.6	1.51e+00	0	46	104	0	60	244914
2026-01-29 00:10:09.23	23.62	9.31	-59.5	-76.3	3.6	1.51e+00	0	46	104	0	60	256736
2026-01-29 00:10:10.24	23.59	9.40	-59.3	-75.3	3.6	1.51e+00	0	46	104	0	60	227390
2026-01-29 00:10:11.24	23.56	9.48	-57.2	-75.8	3.6	1.51e+00	0	46	104	0	60	241838
2026-01-29 00:10:12.25	23.52	9.56	-58.3	-76.1	3.6	1.51e+00	0	46	104	0	60	248753
2026-01-29 00:10:13.26	23.49	9.65	-58.7	-75.8	3.6	1.51e+00	0	46	104	0	60	241291
2026-01-29 00:10:14.27	23.46	9.73	-58.7	-75.8	3.6	1.51e+00	0	46	104	0	60	240750
2026-01-29 00:10:15.28	23.42	9.82	-58.5	-75.6	3.6	1.51e+00	0	46	104	0	60	234855
2026-01-29 00:10:16.29	23.39	9.90	-57.9	-75.7	3.6	1.51e+00	0	46	104	0	60	240101
2026-01-29 00:10:17.29	23.36	9.99	-59.4	-76.3	3.6	1.51e+00	0	46	104	0	60	255411
2026-01-29 00:10:18.30	23.32	10.07	-59.0	-75.3	3.6	1.51e+00	0	46	104	0	60	228942
2026-01-29 00:10:19.31	23.29	10.16	-59.3	-76.1	3.6	1.51e+00	0	46	104	0	60	249381
2026-01-29 00:10:20.32	23.25	10.25	-59.3	-76.1	3.6	1.51e+00	0	46	104	0	60	249885
2026-01-29 00:10:21.32	23.22	10.33	-59.5	-75.4	3.6	1.51e+00	0	46	104	0	60	230244
2026-01-29 00:10:22.33	23.18	10.42	-59.3	-75.5	3.6	1.51e+00	0	46	104	0	60	232574
2026-01-29 00:10:23.33	23.15	10.51	-58.7	-75.3	3.6	1.51e+00	0	46	104	0	60	227312
2026-01-29 00:10:24.34	23.11	10.59	-59.5	-76.0	3.6	1.51e+00	0	46	104	0	60	247317
2026-01-29 00:10:25.34	23.08	10.68	-57.7	-76.1	3.6	1.51e+00	0	46	104	0	60	250489
2026-01-29 00:10:26.34	23.04	10.77	-59.3	-75.0	3.6	1.51e+00	0	46	104	0	60	221013
2026-01-29 00:10:27.34	23.00	10.86	-56.9	-76.3	3.6	1.51e+00	0	46	104	0	60	255305
2026-01-29 00:10:28.35	22.97	10.94	-57.5	-76.0	3.6	1.51e+00	0	46	104	0	60	247061
2026-01-29 00:10:29.36	22.93	11.03	-57.1	-75.6	3.6	1.51e+00	0	46	104	0	60	237157
2026-01-29 00:10:30.37	22.89	11.12	-57.3	-75.7	3.6	1.51e+00	0	46	104	0	60	239276
2026-01-29 00:10:31.37	22.85	11.21	-58.7	-75.4	3.6	1.51e+00	0	46	104	0	60	231099
2026-01-29 00:10:32.38	22.82	11.30	-55.0	-75.8	3.6	1.51e+00	0	46	104	0	60	241932
2026-01-29 00:10:33.39	22.78	11.39	-54.3	-75.7	3.6	1.51e+00	0	46	104	0	60	239389
2026-01-29 00:10:34.40	22.74	11.48	-59.4	-75.4	3.5	1.51e+00	0	46	104	0	60	231000
2026-01-29 00:10:35.41	22.70	11.57	-58.0	-76.0	3.6	1.51e+00	0	46	104	0	60	245839
2026-01-29 00:10:36.41	22.66	11.67	-59.6	-76.0	3.6	1.51e+00	0	46	104	0	60	247188
2026-01-29 00:10:37.42	22.62	11.76	-59.6	-75.7	3.6	1.51e+00	0	46	104	0	60	238138
2026-01-29 00:10:38.43	22.58	11.85	-59.5	-75.8	3.6	1.51e+00	0	46	104	0	60	240421
2026-01-29 00:10:39.44	22.55	11.94	-59.3	-75.3	3.6	1.51e+00	0	46	104	0	60	227359
2026-01-29 00:10:40.45	22.51	12.03	-57.8	-76.2	3.6	1.51e+00	0	46	104	0	60	253700
2026-01-29 00:10:41.45	22.47	12.13	-52.8	-73.7	3.6	1.51e+00	0	46	104	0	60	188962
2026-01-29 00:10:42.46	22.43	12.22	-56.1	-75.7	3.6	1.51e+00	0	46	104	0	60	238517
2026-01-29 00:10:43.47	22.38	12.31	-52.4	-73.0	3.6	1.51e+00	0	46	104	0	60	175943
2026-01-29 00:10:44.48	22.34	12.41	-54.3	-74.2	3.6	1.51e+00	0	46	104	0	60	201828
2026-01-29 00:10:45.48	22.30	12.50	-54.0	-73.6	3.6	1.51e+00	0	46	104	0	60	186738
2026-01-29 00:10:46.49	22.26	12.60	-54.4	-73.5	3.6	1.51e+00	0	46	104	0	60	185368
2026-01-29 00:10:47.50	22.22	12.69	-55.7	-74.7	3.6	1.51e+00	0	46	104	0	60	213878
2026-01-29 00:10:48.51	22.18	12.79	-54.3	-73.3	3.6	1.51e+00	0	46	104	0	60	180724
2026-01-29 00:10:49.52	22.13	12.88	-53.3	-72.8	3.6	1.51e+00	0	46	104	0	60	170570
2026-01-29 00:10:50.53	22.09	12.98	-55.2	-73.9	3.6	1.51e+00	0	46	104	0	60	194464
2026-01-29 00:10:51.53	22.05	13.07	-55.5	-74.3	3.6	1.51e+00	0	46	104	0	60	203013
2026-01-29 00:10:52.54	22.00	13.17	-56.9	-75.8	3.6	1.51e+00	0	46	104	0	60	241897
2026-01-29 00:10:53.54	21.96	13.27	-54.3	-73.8	3.6	1.51e+00	0	46	104	0	60	191606
2026-01-29 00:10:54.54	21.92	13.36	-54.0	-73.3	3.6	1.51e+00	0	46	104	0	60	182017
2026-01-29 00:10:55.55	21.87	13.46	-55.1	-73.2	3.6	1.51e+00	0	46	104	0	60	179391
2026-01-29 00:10:56.56	21.83	13.56	-58.1	-76.1	3.6	1.51e+00	0	46	104	0	60	250612
2026-01-29 00:10:57.57	21.78	13.66	-56.3	-75.7	3.6	1.51e+00	0	46	104	0	60	238370
2026-01-29 00:10:58.57	21.74	13.76	-52.7	-72.6	3.6	1.51e+00	0	46	104	0	60	167887
2026-01-29 00:10:59.57	21.69	13.86	-53.5	-72.7	3.6	1.51e+00	0	46	104	0	60	169717
2026-01-29 00:11:00.58	21.65	13.96	-54.7	-73.6	3.6	1.51e+00	0	46	104	0	60	187596
2026-01-29 00:11:01.58	21.60	14.06	-54.5	-73.5	3.6	1.51e+00	0	46	104	0	60	185734
2026-01-29 00:11:02.59	21.55	14.16	-55.1	-73.9	3.5	1.51e+00	0	46	104	0	60	194531
2026-01-29 00:11:03.59	21.51	14.26	-56.2	-74.4	3.6	1.51e+00	0	46	104	0	60	205905
2026-01-29 00:11:04.60	21.46	14.36	-56.8	-75.8	3.6	1.51e+00	0	46	104	0	60	240602
2026-01-29 00:11:05.61	21.41	14.46	-59.6	-76.5	3.6	1.51e+00	0	46	104	0	60	262357
2026-01-29 00:11:06.62	21.36	14.56	-57.5	-76.0	3.6	1.51e+00	0	46	104	0	60	248196
2026-01-29 00:11:07.62	21.32	14.67	-55.1	-74.8	3.6	1.51e+00	0	46	104	0	60	216263
2026-01-29 00:11:08.63	21.27	14.77	-55.4	-74.6	3.6	1.51e+00	0	46	104	0	60	211466
2026-01-29 00:11:09.64	21.22	14.87	-55.7	-74.7	3.6	1.51e+00	0	46	104	0	60	211805
2026-01-29 00:11:10.64	21.17	14.98	-56.5	-74.8	3.6	1.51e+00	0	46	104	0	60	215683
2026-01-29 00:11:11.65	21.12	15.08	-57.9	-74.9	3.6	1.51e+00	0	46	104	0	60	218770
2026-01-29 00:11:12.66	21.07	15.18	-58.7	-76.0	3.6	1.51e+00	0	46	104	0	60	246297
2026-01-29 00:11:13.66	21.02	15.29	-57.5	-75.5	3.6	1.51e+00	0	46	104	0	60	233272
2026-01-29 00:11:14.67	20.97	15.39	-59.6	-76.5	3.6	1.51e+00	0	46	104	0	60	263206
2026-01-29 00:11:15.68	20.92	15.50	-58.3	-74.8	3.6	1.51e+00	0	46	104	0	60	215661
2026-01-29 00:11:16.68	20.86	15.61	-58.6	-75.6	3.6	1.51e+00	0	46	104	0	60	237371
2026-01-29 00:11:17.69	20.81	15.71	-58.3	-75.1	3.6	1.51e+00	0	46	104	0	60	224080
2026-01-29 00:11:18.70	20.76	15.82	-58.1	-75.1	3.6	1.51e+00	0	46	104	0	60	223584
2026-01-29 00:11:19.70	20.71	15.93	-57.9	-75.8	3.6	1.51e+00	0	46	104	0	60	241316
2026-01-29 00:11:20.71	20.65	16.04	-59.5	-76.8	3.6	1.51e+00	0	46	104	0	60	272283
2026-01-29 00:11:21.72	20.60	16.15	-59.1	-76.5	3.6	1.51e+00	0	46	104	0	60	260645
2026-01-29 00:11:22.72	20.55	16.25	-59.7	-76.3	3.6	1.51e+00	0	46	104	0	60	256878
2026-01-29 00:11:23.73	20.49	16.36	-58.9	-75.1	3.6	1.51e+00	0	46	104	0	60	223170
2026-01-29 00:11:24.74	20.44	16.47	-58.9	-75.9	3.6	1.51e+00	0	46	104	0	60	243817
2026-01-29 00:11:25.74	20.38	16.58	-59.2	-75.9	3.6	1.51e+00	0	46	104	0	60	245227
2026-01-29 00:11:26.74	20.33	16.69	-59.4	-75.9	3.6	1.51e+00	0	46	104	0	60	243818
2026-01-29 00:11:27.75	20.27	16.80	-57.8	-75.5	3.6	1.51e+00	0	46	104	0	60	232695
2026-01-29 00:11:28.76	20.21	16.92	-59.4	-76.8	3.6	1.51e+00	0	46	104	0	60	269974
2026-01-29 00:11:29.76	20.15	17.03	-60.0	-76.5	3.6	1.51e+00	0	46	104	0	60	261510
2026-01-29 00:11:30.76	20.10	17.14	-58.8	-76.6	3.6	1.51e+00	0	46	104	0	60	264978
2026-01-29 00:11:31.76	20.04	17.25	-57.6	-75.2	3.6	1.51e+00	0	46	104	0	60	226427
2026-01-29 00:11:32.77	19.98	17.37	-57.9	-76.1	3.6	1.51e+00	0	46	104	0	60	248734
2026-01-29 00:11:33.78	19.92	17.48	-57.5	-75.9	3.6	1.51e+00	0	46	104	0	60	243616
2026-01-29 00:11:34.78	19.86	17.60	-57.6	-75.8	3.6	1.51e+00	0	46	104	0	60	240977
2026-01-29 00:11:35.79	19.80	17.71	-58.5	-76.1	3.6	1.51e+00	0	46	104	0	60	249900
2026-01-29 00:11:36.79	19.74	17.83	-58.3	-76.2	3.6	1.51e+00	0	46	104	0	60	252630
2026-01-29 00:11:37.80	19.68	17.94	-60.4	-76.8	3.6	1.51e+00	0	46	104	0	60	270212
2026-01-29 00:11:38.81	19.62	18.06	-59.8	-76.6	3.6	1.51e+00	0	46	104	0	60	265105
2026-01-29 00:11:39.82	19.56	18.18	-58.0	-75.9	3.6	1.51e+00	0	46	104	0	60	244938
2026-01-29 00:11:40.82	19.49	18.29	-58.3	-75.9	3.6	1.51e+00	0	46	104	0	60	244945
2026-01-29 00:11:41.83	19.43	18.41	-58.4	-76.4	3.6	1.51e+00	0	46	104	0	60	259619
2026-01-29 00:11:42.84	19.37	18.53	-58.2	-76.5	3.6	1.51e+00	0	46	104	0	60	260670
2026-01-29 00:11:43.84	19.30	18.65	-59.5	-76.2	3.6	1.51e+00	0	46	104	0	60	254293
2026-01-29 00:11:44.85	19.24	18.77	-58.2	-75.7	3.6	1.51e+00	0	46	104	0	60	237710
2026-01-29 00:11:45.86	19.17	18.89	-57.4	-75.3	3.6	1.51e+00	0	46	104	0	60	229138
2026-01-29 00:11:46.86	19.11	19.01	-60.1	-76.8	3.6	1.51e+00	0	46	104	0	60	271075
2026-01-29 00:11:47.87	19.04	19.13	-57.8	-75.6	3.6	1.51e+00	0	46	104	0	60	236445
2026-01-29 00:11:48.88	18.97	19.26	-57.8	-75.4	3.6	1.51e+00	0	46	104	0	60	230206
2026-01-29 00:11:49.89	18.91	19.38	-59.6	-76.3	3.6	1.51e+00	0	46	104	0	60	254482
2026-01-29 00:11:50.89	18.84	19.50	-60.2	-76.8	3.6	1.51e+00	0	46	104	0	60	269662
2026-01-29 00:11:51.89	18.77	19.63	-59.8	-76.4	3.6	1.51e+00	0	46	104	0	60	258382
2026-01-29 00:11:52.90	18.70	19.75	-60.2	-76.7	3.6	1.51e+00	0	46	104	0	60	269456
2026-01-29 00:11:53.91	18.63	19.88	-56.9	-74.5	3.6	1.51e+00	0	46	104	0	60	209041
2026-01-29 00:11:54.92	18.56	20.00	-58.8	-76.5	3.6	1.51e+00	0	46	104	0	60	261956
2026-01-29 00:11:55.93	18.49	20.13	-56.6	-74.9	3.6	1.51e+00	0	46	104	0	60	218385
2026-01-29 00:11:56.93	18.42	20.25	-56.2	-74.9	3.6	1.51e+00	0	46	104	0	60	217114
2026-01-29 00:11:57.94	18.35	20.38	-55.5	-74.0	3.6	1.51e+00	0	46	104	0	60	196775
2026-01-29 00:11:58.95	18.27	20.51	-56.1	-74.0	3.5	1.51e+00	0	46	104	0	60	196256
2026-01-29 00:11:59.95	18.20	20.64	-59.4	-76.4	3.6	1.51e+00	0	46	104	0	60	257964
2026-01-29 00:12:00.96	18.12	20.77	-59.4	-76.7	3.6	1.51e+00	0	46	104	0	60	268924
2026-01-29 00:12:01.97	18.05	20.90	-59.0	-75.9	3.6	1.51e+00	0	46	104	0	60	243767
2026-01-29 00:12:02.98	17.97	21.03	-59.2	-76.7	3.6	1.51e+00	0	46	104	0	60	268218
2026-01-29 00:12:03.97	17.90	21.16	-60.0	-75.9	3.6	1.51e+00	0	46	104	0	60	244945
2026-01-29 00:12:04.98	17.82	21.29	-59.6	-76.0	3.6	1.51e+00	0	46	104	0	60	245961
2026-01-29 00:12:05.99	17.74	21.42	-58.8	-75.7	3.6	1.51e+00	0	46	104	0	60	239250
2026-01-29 00:12:06.99	17.67	21.55	-58.8	-75.7	3.6	1.51e+00	0	46	104	0	60	237494
2026-01-29 00:12:08.00	17.59	21.69	-59.3	-75.8	3.6	1.51e+00	0	46	104	0	60	240558
2026-01-29 00:12:09.01	17.51	21.82	-59.9	-75.8	3.6	1.51e+00	0	46	104	0	60	240655
2026-01-29 00:12:10.01	17.43	21.96	-58.1	-76.1	3.6	1.51e+00	0	46	104	0	60	251257
2026-01-29 00:12:11.02	17.35	22.09	-58.9	-75.8	3.6	1.51e+00	0	46	104	0	60	240698
2026-01-29 00:12:12.03	17.26	22.23	-60.1	-76.9	3.6	1.51e+00	0	46	104	0	60	274220
2026-01-29 00:12:13.04	17.18	22.37	-60.5	-76.2	3.6	1.51e+00	0	46	104	0	60	252385
2026-01-29 00:12:14.04	17.10	22.50	-59.7	-75.9	3.6	1.51e+00	0	46	104	0	60	244709
2026-01-29 00:12:15.05	17.01	22.64	-59.0	-75.6	3.6	1.51e+00	0	46	104	0	60	237431
2026-01-29 00:12:16.05	16.93	22.78	-58.9	-75.5	3.6	1.51e+00	0	46	104	0	60	234424
2026-01-29 00:12:17.06	16.84	22.92	-59.9	-76.7	3.6	1.51e+00	0	46	104	0	60	267355
2026-01-29 00:12:18.07	16.76	23.06	-60.3	-76.7	3.6	1.51e+00	0	46	104	0	60	266904
2026-01-29 00:12:19.08	16.67	23.20	-59.4	-76.7	3.5	1.51e+00	0	46	104	0	60	269158
2026-01-29 00:12:20.08	16.58	23.34	-60.4	-77.0	3.6	1.51e+00	0	46	104	0	60	276472
2026-01-29 00:12:21.09	16.49	23.48	-59.5	-76.4	3.6	1.51e+00	0	46	104	0	60	257494
2026-01-29 00:12:22.09	16.40	23.63	-60.3	-76.6	3.6	1.51e+00	0	46	104	0	60	265547
2026-01-29 00:12:23.10	16.31	23.77	-60.3	-76.8	3.6	1.51e+00	0	46	104	0	60	270651
2026-01-29 00:12:24.11	16.22	23.92	-60.2	-76.9	3.6	1.51e+00	0	46	104	0	60	275563
2026-01-29 00:12:25.11	16.13	24.06	-59.0	-75.8	3.6	1.51e+00	0	46	104	0	60	242266
2026-01-29 00:12:26.12	16.03	24.21	-59.2	-75.9	3.6	1.51e+00	0	46	104	0	60	245255
2026-01-29 00:12:27.13	15.94	24.35	-59.5	-76.1	3.6	1.51e+00	0	46	104	0	60	249765
2026-01-29 00:12:28.14	15.84	24.50	-59.8	-76.2	3.6	1.51e+00	0	46	104	0	60	251883
2026-01-29 00:12:29.14	15.75	24.65	-60.1	-76.8	3.6	1.51e+00	0	46	104	0	60	269840
2026-01-29 00:12:30.15	15.65	24.80	-60.2	-76.8	3.6	1.51e+00	0	46	104	0	60	270260
2026-01-29 00:12:31.16	15.55	24.95	-60.3	-76.8	3.6	1.51e+00	0	46	104	0	60	270315
2026-01-29 00:12:32.16	15.45	25.10	-60.5	-76.9	3.6	1.51e+00	0	46	104	0	60	274190
2026-01-29 00:12:33.17	15.35	25.25	-60.1	-76.3	3.6	1.51e+00	0	46	104	0	60	254684
2026-01-29 00:12:34.18	15.25	25.40	-60.0	-76.2	3.5	1.51e+00	0	46	104	0	60	253575
2026-01-29 00:12:35.18	15.15	25.55	-60.1	-76.3	3.6	1.51e+00	0	46	104	0	60	256690
2026-01-29 00:12:36.18	15.05	25.71	-60.3	-76.4	3.6	1.51e+00	0	46	104	0	60	259717
2026-01-29 00:12:37.19	14.94	25.86	-59.0	-76.4	3.6	1.51e+00	0	46	104	0	60	259823
2026-01-29 00:12:38.20	14.84	26.02	-59.5	-76.8	3.6	1.51e+00	0	46	104	0	60	269589
2026-01-29 00:12:39.21	14.73	26.17	-60.1	-76.5	3.6	1.51e+00	0	46	104	0	60	261865
2026-01-29 00:12:40.21	14.62	26.33	-59.1	-76.2	3.6	1.51e+00	0	46	104	0	60	254053
2026-01-29 00:12:41.22	14.52	26.48	-60.2	-76.8	3.6	1.51e+00	0	46	104	0	60	271326
2026-01-29 00:12:42.23	14.41	26.64	-58.9	-76.4	3.6	1.51e+00	0	46	104	0	60	260282
2026-01-29 00:12:43.23	14.30	26.80	-58.9	-76.2	3.6	1.51e+00	0	46	104	0	60	251531
2026-01-29 00:12:44.24	14.18	26.96	-59.2	-76.4	3.6	1.51e+00	0	46	104	0	60	257913
2026-01-29 00:12:45.25	14.07	27.12	-60.3	-76.7	3.6	1.51e+00	0	46	104	0	60	267481
2026-01-29 00:12:46.25	13.96	27.28	-59.6	-76.7	3.6	1.51e+00	0	46	104	0	60	267720
2026-01-29 00:12:47.26	13.84	27.45	-60.3	-76.7	3.6	1.51e+00	0	46	104	0	60	267873
2026-01-29 00:12:48.26	13.72	27.61	-59.1	-76.9	3.6	1.51e+00	0	46	104	0	60	275101
2026-01-29 00:12:49.27	13.61	27.77	-60.5	-76.6	3.6	1.51e+00	0	46	104	0	60	264643
2026-01-29 00:12:50.27	13.49	27.94	-60.4	-76.9	3.6	1.51e+00	0	46	104	0	60	273806
2026-01-29 00:12:51.28	13.37	28.10	-59.3	-76.5	3.6	1.51e+00	0	46	104	0	60	260957
2026-01-29 00:12:52.28	13.25	28.27	-59.7	-76.8	3.6	1.51e+00	0	46	104	0	60	270792
2026-01-29 00:12:53.29	13.12	28.44	-59.2	-76.8	3.6	1.51e+00	0	46	104	0	60	271480
2026-01-29 00:12:54.30	13.00	28.60	-60.2	-76.9	3.6	1.51e+00	0	46	104	0	60	275018
2026-01-29 00:12:55.30	12.87	28.77	-60.4	-76.7	3.6	1.51e+00	0	46	104	0	60	268037
2026-01-29 00:12:56.31	12.75	28.94	-60.2	-77.0	3.6	1.51e+00	0	46	104	0	60	276488
2026-01-29 00:12:57.32	12.62	29.11	-58.3	-76.4	3.6	1.51e+00	0	46	104	0	60	258095
2026-01-29 00:12:58.33	12.49	29.29	-58.8	-76.6	3.6	1.51e+00	0	46	104	0	60	263553
2026-01-29 00:12:59.33	12.36	29.46	-59.4	-76.5	3.6	1.51e+00	0	46	104	0	60	260834
2026-01-29 00:13:00.34	12.22	29.63	-59.2	-76.6	3.6	1.51e+00	0	46	104	0	60	265538
2026-01-29 00:13:01.35	12.09	29.81	-58.0	-76.2	3.6	1.51e+00	0	46	104	0	60	253546
2026-01-29 00:13:02.36	11.95	29.98	-59.7	-76.8	3.6	1.51e+00	0	46	104	0	60	270813
2026-01-29 00:13:03.37	11.81	30.16	-57.6	-76.2	3.6	1.51e+00	0	46	104	0	60	253377
2026-01-29 00:13:04.37	11.68	30.33	-60.2	-76.8	3.6	1.51e+00	0	46	104	0	60	271728
2026-01-29 00:13:05.38	11.54	30.51	-59.3	-76.6	3.6	1.51e+00	0	46	104	0	60	265815
2026-01-29 00:13:06.39	11.39	30.69	-57.7	-76.3	3.6	1.51e+00	0	46	104	0	60	254489
2026-01-29 00:13:07.39	11.25	30.87	-57.7	-76.0	3.6	1.51e+00	0	46	104	0	60	248205
2026-01-29 00:13:08.39	11.11	31.05	-59.9	-76.5	3.6	1.51e+00	0	46	104	0	60	260371
2026-01-29 00:13:09.40	10.96	31.23	-60.6	-77.0	3.6	1.51e+00	0	46	104	0	60	278740
2026-01-29 00:13:10.41	10.81	31.42	-60.4	-76.9	3.6	1.51e+00	0	46	104	0	60	274200
2026-01-29 00:13:11.41	10.66	31.60	-58.4	-76.1	3.6	1.51e+00	0	46	104	0	60	251283
2026-01-29 00:13:12.42	10.51	31.78	-59.5	-76.6	3.6	1.51e+00	0	46	104	0	60	265422
2026-01-29 00:13:13.43	10.35	31.97	-60.3	-76.9	3.6	1.51e+00	0	46	104	0	60	275276
2026-01-29 00:13:14.44	10.20	32.15	-60.6	-77.0	3.6	1.51e+00	0	46	104	0	60	275981
2026-01-29 00:13:15.44	10.04	32.34	-60.5	-76.9	3.6	1.51e+00	0	46	104	0	60	275483
2026-01-29 00:13:16.45	9.88	32.53	-60.4	-76.9	3.6	1.51e+00	0	46	104	0	60	275142
2026-01-29 00:13:17.46	9.72	32.72	-60.5	-77.2	3.6	1.51e+00	0	46	104	0	60	282643
2026-01-29 00:13:18.47	9.56	32.91	-60.6	-77.0	3.6	1.51e+00	0	46	104	0	60	277897
2026-01-29 00:13:19.48	9.39	33.10	-60.5	-77.1	3.6	1.51e+00	0	46	104	0	60	280545
2026-01-29 00:13:20.49	9.22	33.29	-60.5	-77.1	3.6	1.51e+00	0	46	104	0	60	281220
2026-01-29 00:13:21.50	9.05	33.49	-60.4	-77.2	3.6	1.51e+00	0	46	104	0	60	285140
2026-01-29 00:13:22.51	8.88	33.68	-60.7	-77.1	3.6	1.51e+00	0	46	104	0	60	280219
2026-01-29 00:13:23.51	8.71	33.87	-60.5	-77.1	3.6	1.51e+00	0	46	104	0	60	281042
2026-01-29 00:13:24.52	8.53	34.07	-60.8	-77.2	3.6	1.51e+00	0	46	104	0	60	285349
2026-01-29 00:13:25.52	8.36	34.26	-60.6	-77.2	3.6	1.51e+00	0	46	104	0	60	282824
2026-01-29 00:13:26.53	8.17	34.46	-60.6	-77.1	3.6	1.51e+00	0	46	104	0	60	280430
2026-01-29 00:13:27.53	7.99	34.66	-60.9	-77.3	3.6	1.51e+00	0	46	104	0	60	286210
2026-01-29 00:13:28.53	7.81	34.86	-60.5	-77.1	3.6	1.51e+00	0	46	104	0	60	281891
2026-01-29 00:13:29.54	7.62	35.06	-60.8	-77.3	3.6	1.51e+00	0	46	104	0	60	286117
2026-01-29 00:13:30.54	7.44	35.26	-60.9	-77.2	3.6	1.51e+00	0	46	104	0	60	283456
2026-01-29 00:13:31.55	7.24	35.46	-60.5	-77.2	3.6	1.51e+00	0	46	104	0	60	284508
2026-01-29 00:13:32.55	7.05	35.66	-60.8	-77.3	3.6	1.51e+00	0	46	104	0	60	287230
2026-01-29 00:13:33.56	6.85	35.86	-60.5	-77.2	3.6	1.51e+00	0	46	104	0	60	283876
2026-01-29 00:13:34.57	6.65	36.07	-60.5	-77.3	3.6	1.51e+00	0	46	104	0	60	285964
2026-01-29 00:13:35.57	6.45	36.27	-60.8	-77.3	3.6	1.51e+00	0	46	104	0	60	285631
2026-01-29 00:13:36.58	6.25	36.48	-60.6	-77.3	3.6	1.51e+00	0	46	104	0	60	285912
2026-01-29 00:13:37.58	6.04	36.69	-60.9	-77.3	3.6	1.51e+00	0	46	104	0	60	286215
2026-01-29 00:13:38.58	5.84	36.89	-60.6	-77.2	3.6	1.51e+00	0	46	104	0	60	283491
2026-01-29 00:13:39.59	5.62	37.10	-60.4	-77.2	3.6	1.51e+00	0	46	104	0	60	283879
2026-01-29 00:13:40.60	5.41	37.31	-60.5	-77.2	3.6	1.51e+00	0	46	104	0	60	282975
2026-01-29 00:13:41.60	5.19	37.52	-60.9	-77.2	3.6	1.51e+00	0	46	104	0	60	285383
2026-01-29 00:13:42.61	4.97	37.73	-60.9	-77.2	3.6	1.51e+00	0	46	104	0	60	283599
2026-01-29 00:13:43.61	4.75	37.95	-60.6	-77.0	3.6	1.51e+00	0	46	104	0	60	278300
2026-01-29 00:13:44.61	4.52	38.16	-60.8	-77.2	3.6	1.51e+00	0	46	104	0	60	283078
2026-01-29 00:13:45.61	4.30	38.37	-60.9	-77.2	3.6	1.51e+00	0	46	104	0	60	282919
2026-01-29 00:13:46.61	4.06	38.58	-60.8	-77.2	3.6	1.51e+00	0	46	104	0	60	283783
2026-01-29 00:13:47.62	3.83	38.80	-60.8	-77.3	3.6	1.51e+00	0	46	104	0	60	285598
2026-01-29 00:13:48.62	3.59	39.01	-60.9	-77.2	3.6	1.51e+00	0	46	104	0	60	283783
2026-01-29 00:13:49.63	3.35	39.23	-60.9	-77.1	3.6	1.51e+00	0	46	104	0	60	280208
2026-01-29 00:13:50.63	3.10	39.45	-60.9	-77.2	3.6	1.51e+00	0	46	104	0	60	285209
2026-01-29 00:13:51.64	2.86	39.67	-60.9	-77.2	3.6	1.51e+00	0	46	104	0	60	285323
2026-01-29 00:13:52.64	2.60	39.89	-60.9	-77.3	3.6	1.51e+00	0	46	104	0	60	286723
2026-01-29 00:13:53.65	2.35	40.11	-60.8	-77.1	3.6	1.51e+00	0	46	104	0	60	281530
2026-01-29 00:13:54.65	2.09	40.33	-60.9	-77.3	3.6	1.51e+00	0	46	104	0	60	288155
2026-01-29 00:13:55.66	1.83	40.55	-61.1	-77.3	3.6	1.51e+00	0	46	104	0	60	288488
2026-01-29 00:13:56.66	1.56	40.77	-60.8	-77.3	3.6	1.51e+00	0	46	104	0	60	287673
2026-01-29 00:13:57.67	1.29	40.99	-61.0	-77.2	3.6	1.51e+00	0	46	104	0	60	285344
2026-01-29 00:13:58.67	1.02	41.22	-60.9	-77.3	3.6	1.51e+00	0	46	104	0	60	287930
2026-01-29 00:13:59.67	0.74	41.44	-61.0	-77.4	3.6	1.51e+00	0	46	104	0	60	289864
2026-01-29 00:14:00.67	0.46	41.66	-61.0	-77.3	3.6	1.51e+00	0	46	104	0	60	287202
2026-01-29 00:14:01.68	0.18	41.89	-61.0	-77.2	3.6	1.51e+00	0	46	104	0	60	284462
2026-01-29 00:14:02.68	359.89	42.11	-61.0	-77.3	3.6	1.51e+00	0	46	104	0	60	288385
2026-01-29 00:14:03.69	359.59	42.34	-61.1	-77.4	3.6	1.51e+00	0	46	104	0	60	289820
2026-01-29 00:14:04.70	359.29	42.57	-60.9	-77.3	3.6	1.51e+00	0	46	104	0	60	287708
2026-01-29 00:14:05.71	358.99	42.80	-60.8	-77.1	3.6	1.51e+00	0	46	104	0	60	279874
2026-01-29 00:14:06.71	358.69	43.02	-60.9	-77.3	3.6	1.51e+00	0	46	104	0	60	286656
2026-01-29 00:14:07.72	358.37	43.25	-60.9	-77.3	3.6	1.51e+00	0	46	104	0	60	288493
2026-01-29 00:14:08.73	358.06	43.48	-60.8	-77.2	3.6	1.51e+00	0	46	104	0	60	283531
2026-01-29 00:14:09.74	357.74	43.71	-60.9	-77.1	3.6	1.51e+00	0	46	104	0	60	279716
2026-01-29 00:14:10.75	357.41	43.94	-60.8	-77.2	3.6	1.51e+00	0	46	104	0	60	284610
2026-01-29 00:14:11.76	357.08	44.17	-60.8	-77.3	3.6	1.51e+00	0	46	104	0	60	286129
2026-01-29 00:14:12.77	356.74	44.40	-60.9	-77.2	3.6	1.51e+00	0	46	104	0	60	285191
2026-01-29 00:14:13.77	356.40	44.63	-60.8	-77.1	3.6	1.51e+00	0	46	104	0	60	281199
2026-01-29 00:14:14.78	356.06	44.86	-60.9	-77.2	3.6	1.51e+00	0	46	104	0	60	284638
2026-01-29 00:14:15.79	355.71	45.09	-60.8	-77.3	3.6	1.51e+00	0	46	104	0	60	285502
2026-01-29 00:14:16.79	355.36	45.32	-60.7	-77.3	3.6	1.51e+00	0	46	104	0	60	285806
2026-01-29 00:14:17.79	355.00	45.55	-60.7	-77.1	3.6	1.51e+00	0	46	104	0	60	279484
2026-01-29 00:14:18.80	354.63	45.78	-60.7	-77.3	3.6	1.51e+00	0	46	104	0	60	286289
2026-01-29 00:14:19.80	354.26	46.01	-60.8	-77.3	3.6	1.51e+00	0	46	104	0	60	287065
2026-01-29 00:14:20.81	353.88	46.25	-60.7	-77.2	3.6	1.51e+00	0	46	104	0	60	284900
2026-01-29 00:14:21.82	353.50	46.48	-61.0	-77.1	3.6	1.51e+00	0	46	104	0	60	279018
2026-01-29 00:14:22.83	353.11	46.71	-60.7	-77.3	3.6	1.51e+00	0	46	104	0	60	286071
2026-01-29 00:14:23.84	352.72	46.94	-61.0	-77.3	3.6	1.51e+00	0	46	104	0	60	287105
2026-01-29 00:14:24.85	352.32	47.17	-60.9	-77.3	3.6	1.51e+00	0	46	104	0	60	286515
2026-01-29 00:14:25.85	351.91	47.40	-61.0	-77.1	3.6	1.51e+00	0	46	104	0	60	280033
2026-01-29 00:14:26.86	351.50	47.63	-61.0	-77.3	3.6	1.51e+00	0	46	104	0	60	287263
2026-01-29 00:14:27.87	351.08	47.86	-61.0	-77.4	3.6	1.51e+00	0	46	104	0	60	288869
2026-01-29 00:14:28.87	350.66	48.09	-61.0	-77.2	3.6	1.51e+00	0	46	104	0	60	285279
2026-01-29 00:14:29.87	350.23	48.31	-60.7	-77.0	3.6	1.51e+00	0	46	104	0	60	277874
2026-01-29 00:14:30.88	349.79	48.54	-61.0	-77.3	3.6	1.51e+00	0	46	104	0	60	286038
2026-01-29 00:14:31.89	349.35	48.77	-60.7	-77.4	3.6	1.51e+00	0	46	104	0	60	289189
2026-01-29 00:14:32.90	348.90	49.00	-60.8	-77.3	3.6	1.51e+00	0	46	104	0	60	287817
2026-01-29 00:14:33.90	348.44	49.22	-61.0	-77.1	3.6	1.51e+00	0	46	104	0	60	279068
2026-01-29 00:14:34.91	347.98	49.45	-60.7	-77.2	3.6	1.51e+00	0	46	104	0	60	284988
2026-01-29 00:14:35.91	347.51	49.67	-60.9	-77.3	3.6	1.51e+00	0	46	104	0	60	287335
2026-01-29 00:14:36.92	347.03	49.89	-60.8	-77.2	3.6	1.51e+00	0	46	104	0	60	284408
2026-01-29 00:14:37.93	346.55	50.11	-60.9	-76.9	3.6	1.51e+00	0	46	104	0	60	273108
2026-01-29 00:14:38.93	346.06	50.33	-60.9	-77.2	3.6	1.51e+00	0	46	104	0	60	283449
2026-01-29 00:14:39.94	345.56	50.55	-60.9	-77.2	3.6	1.51e+00	0	46	104	0	60	285102
2026-01-29 00:14:40.95	345.05	50.77	-60.9	-77.1	3.6	1.51e+00	0	46	104	0	60	281521
2026-01-29 00:14:41.96	344.53	50.99	-60.8	-76.9	3.6	1.51e+00	0	46	104	0	60	273961
2026-01-29 00:14:42.97	344.01	51.20	-60.9	-77.1	3.6	1.51e+00	0	46	104	0	60	282028
2026-01-29 00:14:43.97	343.49	51.42	-60.7	-77.2	3.6	1.51e+00	0	46	104	0	60	283035
2026-01-29 00:14:44.98	342.95	51.63	-60.9	-77.2	3.5	1.51e+00	0	46	104	0	60	282572
2026-01-29 00:14:45.99	342.40	51.84	-60.8	-76.8	3.6	1.51e+00	0	46	104	0	60	269798
2026-01-29 00:14:47.00	341.85	52.05	-60.8	-77.2	3.6	1.51e+00	0	46	104	0	60	283070
2026-01-29 00:14:48.00	341.29	52.25	-60.8	-77.2	3.6	1.51e+00	0	46	104	0	60	283587
2026-01-29 00:14:49.01	340.72	52.46	-60.8	-77.2	3.6	1.51e+00	0	46	104	0	60	282921
2026-01-29 00:14:50.01	340.15	52.66	-60.9	-76.8	3.6	1.51e+00	0	46	104	0	60	270314
2026-01-29 00:14:51.02	339.57	52.86	-60.8	-77.2	3.6	1.51e+00	0	46	104	0	60	282478
2026-01-29 00:14:52.02	338.98	53.06	-60.9	-77.2	3.6	1.51e+00	0	46	104	0	60	283098
2026-01-29 00:14:53.02	338.38	53.25	-60.9	-77.2	3.6	1.51e+00	0	46	104	0	60	285253
2026-01-29 00:14:54.02	337.78	53.44	-60.9	-76.9	3.6	1.51e+00	0	46	104	0	60	275237
2026-01-29 00:14:55.03	337.16	53.63	-60.9	-77.2	3.6	1.51e+00	0	46	104	0	60	284121
2026-01-29 00:14:56.04	336.54	53.82	-60.9	-77.3	3.6	1.51e+00	0	46	104	0	60	286346
2026-01-29 00:14:57.05	335.90	54.01	-60.9	-77.3	3.6	1.51e+00	0	46	104	0	60	286156
2026-01-29 00:14:58.06	335.26	54.19	-60.9	-77.0	3.6	1.51e+00	0	46	104	0	60	277498
2026-01-29 00:14:59.07	334.61	54.37	-61.0	-77.2	3.6	1.51e+00	0	46	104	0	60	284289
2026-01-29 00:15:00.07	333.96	54.54	-60.8	-77.1	3.6	1.51e+00	0	46	104	0	60	281933
2026-01-29 00:15:01.08	333.29	54.71	-61.0	-77.3	3.6	1.51e+00	0	46	104	0	60	285888
2026-01-29 00:15:02.09	332.62	54.88	-60.8	-76.8	3.6	1.51e+00	0	46	104	0	60	272263
2026-01-29 00:15:03.09	331.94	55.05	-60.9	-77.3	3.6	1.51e+00	0	46	104	0	60	285920
2026-01-29 00:15:04.10	331.25	55.21	-60.7	-77.2	3.6	1.51e+00	0	46	104	0	60	284722
2026-01-29 00:15:05.11	330.55	55.37	-60.7	-77.2	3.6	1.51e+00	0	46	104	0	60	283760
2026-01-29 00:15:06.11	329.85	55.52	-60.6	-76.9	3.6	1.51e+00	0	46	104	0	60	272893
2026-01-29 00:15:07.11	329.15	55.67	-60.8	-77.2	3.6	1.51e+00	0	46	104	0	60	283463
2026-01-29 00:15:08.12	328.43	55.82	-60.7	-77.2	3.6	1.51e+00	0	46	104	0	60	283956
2026-01-29 00:15:09.12	327.70	55.96	-60.6	-77.3	3.6	1.51e+00	0	46	104	0	60	286171
2026-01-29 00:15:10.12	326.97	56.10	-60.9	-77.2	3.6	1.51e+00	0	46	104	0	60	284057
2026-01-29 00:15:11.13	326.23	56.23	-60.7	-77.3	3.6	1.51e+00	0	46	104	0	60	287310
2026-01-29 00:15:12.14	325.48	56.36	-60.9	-77.3	3.6	1.51e+00	0	46	104	0	60	288686
2026-01-29 00:15:13.15	324.72	56.49	-60.9	-77.3	3.6	1.51e+00	0	46	104	0	60	286880
2026-01-29 00:15:14.15	323.96	56.61	-60.9	-77.0	3.6	1.51e+00	0	46	104	0	60	276503
2026-01-29 00:15:15.16	323.19	56.72	-60.9	-77.3	3.6	1.51e+00	0	46	104	0	60	286210
2026-01-29 00:15:16.17	322.42	56.84	-60.8	-77.3	3.6	1.51e+00	0	46	104	0	60	286770
2026-01-29 00:15:17.18	321.63	56.94	-60.9	-77.3	3.6	1.51e+00	0	46	104	0	60	288013
2026-01-29 00:15:18.18	320.85	57.04	-60.5	-77.0	3.6	1.51e+00	0	46	104	0	60	277718
2026-01-29 00:15:19.19	320.05	57.14	-60.9	-77.3	3.6	1.51e+00	0	46	104	0	60	285772
2026-01-29 00:15:20.20	319.25	57.23	-60.6	-77.3	3.6	1.51e+00	0	46	104	0	60	286356
2026-01-29 00:15:21.21	318.45	57.32	-60.3	-77.3	3.6	1.51e+00	0	46	104	0	60	288464
2026-01-29 00:15:22.21	317.64	57.40	-60.8	-76.9	3.6	1.51e+00	0	46	104	0	60	273001
2026-01-29 00:15:23.21	316.83	57.47	-60.5	-77.1	3.6	1.51e+00	0	46	104	0	60	281205
2026-01-29 00:15:24.21	316.02	57.54	-60.9	-77.3	3.6	1.51e+00	0	46	104	0	60	288510
2026-01-29 00:15:25.21	315.21	57.60	-60.5	-77.3	3.6	1.51e+00	0	46	104	0	60	286076
2026-01-29 00:15:26.22	314.38	57.66	-60.7	-77.1	3.6	1.51e+00	0	46	104	0	60	279121
2026-01-29 00:15:27.22	313.55	57.72	-60.8	-77.3	3.6	1.51e+00	0	46	104	0	60	285509
2026-01-29 00:15:28.22	312.73	57.76	-60.7	-77.2	3.6	1.51e+00	0	46	104	0	60	284945
2026-01-29 00:15:29.23	311.89	57.80	-60.5	-77.2	3.6	1.51e+00	0	46	104	0	60	284140
2026-01-29 00:15:30.23	311.06	57.84	-60.9	-76.6	3.6	1.51e+00	0	46	104	0	60	264011
2026-01-29 00:15:31.24	310.21	57.87	-60.6	-77.1	3.6	1.51e+00	0	46	104	0	60	281902
2026-01-29 00:15:32.24	309.38	57.89	-60.7	-77.2	3.6	1.51e+00	0	46	104	0	60	284596
2026-01-29 00:15:33.25	308.53	57.91	-60.7	-77.1	3.6	1.51e+00	0	46	104	0	60	280236
2026-01-29 00:15:34.26	307.69	57.93	-60.6	-77.1	3.6	1.51e+00	0	46	104	0	60	279396
2026-01-29 00:15:35.27	306.84	57.93	-60.4	-76.8	3.6	1.51e+00	0	46	104	0	60	272312
2026-01-29 00:15:36.28	305.99	57.93	-60.2	-76.6	3.6	1.51e+00	0	46	104	0	60	266355
2026-01-29 00:15:37.28	305.16	57.93	-60.3	-76.9	3.6	1.51e+00	0	46	104	0	60	273894
2026-01-29 00:15:38.29	304.31	57.92	-60.3	-77.0	3.6	1.51e+00	0	46	104	0	60	276661
2026-01-29 00:15:39.30	303.46	57.90	-60.2	-76.9	3.6	1.51e+00	0	47	104	0	60	275464
2026-01-29 00:15:40.31	302.62	57.88	-60.3	-77.0	3.6	1.51e+00	0	46	104	0	60	278022
2026-01-29 00:15:41.31	301.78	57.85	-59.9	-76.9	3.6	1.51e+00	0	46	104	0	60	275239
2026-01-29 00:15:42.32	300.94	57.82	-59.9	-76.4	3.6	1.51e+00	0	46	104	0	60	259672
2026-01-29 00:15:43.33	300.10	57.78	-60.2	-77.0	3.6	1.51e+00	0	46	104	0	60	276046
2026-01-29 00:15:44.33	299.28	57.73	-59.7	-77.1	3.6	1.51e+00	0	46	104	0	60	279856
2026-01-29 00:15:45.33	298.45	57.68	-59.5	-76.8	3.6	1.51e+00	0	46	104	0	60	270869
2026-01-29 00:15:46.34	297.62	57.62	-59.4	-76.7	3.6	1.51e+00	0	46	104	0	60	269418
2026-01-29 00:15:47.35	296.80	57.56	-59.3	-76.7	3.6	1.51e+00	0	47	104	0	60	268197
2026-01-29 00:15:48.36	295.97	57.49	-59.2	-76.7	3.6	1.51e+00	0	46	104	0	60	267473
2026-01-29 00:15:49.37	295.16	57.42	-59.4	-76.3	3.6	1.51e+00	0	46	104	0	60	254656
2026-01-29 00:15:50.37	294.35	57.34	-59.4	-76.9	3.6	1.51e+00	0	46	104	0	60	274501
2026-01-29 00:15:51.38	293.54	57.26	-59.2	-76.8	3.6	1.51e+00	0	46	104	0	60	269687
2026-01-29 00:15:52.39	292.74	57.17	-59.7	-76.1	3.6	1.51e+00	0	46	104	0	60	250596
2026-01-29 00:15:53.39	291.95	57.07	-59.2	-76.9	3.6	1.51e+00	0	46	104	0	60	273677
2026-01-29 00:15:54.39	291.17	56.97	-59.8	-76.7	3.6	1.51e+00	0	46	104	0	60	267954
2026-01-29 00:15:55.40	290.38	56.87	-59.8	-76.7	3.6	1.51e+00	0	46	104	0	60	268526
2026-01-29 00:15:56.40	289.61	56.76	-59.8	-76.4	3.6	1.51e+00	0	46	104	0	60	258276
2026-01-29 00:15:57.41	288.83	56.64	-59.7	-76.3	3.6	1.51e+00	0	46	104	0	60	254875
2026-01-29 00:15:58.42	288.07	56.52	-59.8	-76.9	3.6	1.51e+00	0	46	104	0	60	272652
2026-01-29 00:15:59.42	287.31	56.40	-59.5	-76.3	3.6	1.51e+00	0	46	104	0	60	255240
2026-01-29 00:16:00.43	286.56	56.27	-59.2	-76.0	3.6	1.51e+00	0	46	104	0	60	247825
2026-01-29 00:16:01.44	285.81	56.14	-59.2	-76.6	3.6	1.51e+00	0	46	104	0	60	263454
2026-01-29 00:16:02.45	285.07	56.00	-59.2	-76.0	3.6	1.51e+00	0	46	104	0	60	247853
2026-01-29 00:16:03.45	284.35	55.86	-59.1	-76.1	3.6	1.51e+00	0	46	104	0	60	250221
2026-01-29 00:16:04.46	283.62	55.71	-58.9	-76.0	3.6	1.51e+00	0	46	104	0	60	246633
2026-01-29 00:16:05.47	282.91	55.56	-59.0	-76.1	3.6	1.51e+00	0	46	104	0	60	250112
2026-01-29 00:16:06.48	282.20	55.41	-59.1	-76.5	3.6	1.51e+00	0	46	104	0	60	261103
2026-01-29 00:16:07.49	281.50	55.25	-58.9	-76.0	3.6	1.51e+00	0	46	104	0	60	247398
2026-01-29 00:16:08.49	280.81	55.09	-59.0	-76.4	3.6	1.51e+00	0	46	104	0	60	258542
2026-01-29 00:16:09.50	280.12	54.93	-58.8	-76.6	3.6	1.51e+00	0	46	104	0	60	264291
2026-01-29 00:16:10.50	279.45	54.76	-58.9	-76.3	3.6	1.51e+00	0	46	104	0	60	256671
2026-01-29 00:16:11.51	278.78	54.59	-59.0	-76.3	3.6	1.51e+00	0	46	104	0	60	255980
2026-01-29 00:16:12.52	278.12	54.41	-59.3	-76.3	3.6	1.51e+00	0	46	104	0	60	257140
2026-01-29 00:16:13.53	277.47	54.23	-59.3	-76.4	3.6	1.51e+00	0	46	104	0	60	257547
2026-01-29 00:16:14.53	276.83	54.05	-59.1	-76.5	3.6	1.51e+00	0	46	104	0	60	261571
2026-01-29 00:16:15.53	276.20	53.87	-59.3	-76.7	3.6	1.51e+00	0	46	104	0	60	266621
2026-01-29 00:16:16.54	275.57	53.68	-59.2	-76.5	3.6	1.51e+00	0	46	104	0	60	262579
2026-01-29 00:16:17.55	274.95	53.49	-59.2	-76.6	3.6	1.51e+00	0	46	104	0	60	264364
2026-01-29 00:16:18.55	274.35	53.30	-59.5	-76.3	3.6	1.51e+00	0	46	104	0	60	255775
2026-01-29 00:16:19.56	273.74	53.10	-59.5	-76.3	3.6	1.51e+00	0	46	104	0	60	256356
2026-01-29 00:16:20.57	273.14	52.91	-59.7	-76.4	3.6	1.51e+00	0	46	104	0	60	259083
2026-01-29 00:16:21.58	272.56	52.71	-59.7	-76.5	3.6	1.51e+00	0	46	104	0	60	261679
2026-01-29 00:16:22.59	271.98	52.50	-59.7	-76.7	3.6	1.51e+00	0	46	104	0	60	267431
2026-01-29 00:16:23.59	271.41	52.30	-59.9	-76.7	3.6	1.51e+00	0	46	104	0	60	267587
2026-01-29 00:16:24.60	270.85	52.09	-59.8	-76.7	3.6	1.51e+00	0	46	104	0	60	268609
2026-01-29 00:16:25.61	270.29	51.89	-59.8	-75.6	3.6	1.51e+00	0	46	104	0	60	237211
2026-01-29 00:16:26.61	269.75	51.68	-59.8	-76.0	3.6	1.51e+00	0	46	104	0	60	247854
2026-01-29 00:16:27.62	269.21	51.46	-59.9	-76.1	3.6	1.51e+00	0	46	104	0	60	249316
2026-01-29 00:16:28.63	268.67	51.25	-60.1	-76.8	3.6	1.51e+00	0	46	104	0	60	272393
2026-01-29 00:16:29.63	268.15	51.04	-60.2	-76.8	3.6	1.51e+00	0	46	104	0	60	270035
2026-01-29 00:16:30.64	267.63	50.82	-60.1	-76.8	3.6	1.51e+00	0	46	104	0	60	271056
2026-01-29 00:16:31.64	267.13	50.60	-60.2	-76.7	3.6	1.51e+00	0	46	104	0	60	269336
2026-01-29 00:16:32.65	266.63	50.38	-60.2	-76.7	3.6	1.51e+00	0	46	104	0	60	268524
2026-01-29 00:16:33.65	266.13	50.16	-60.2	-76.8	3.6	1.51e+00	0	46	104	0	60	270573
2026-01-29 00:16:34.66	265.65	49.94	-60.2	-76.7	3.6	1.51e+00	0	46	104	0	60	268912
2026-01-29 00:16:35.67	265.16	49.72	-60.2	-76.7	3.6	1.51e+00	0	46	104	0	60	267242
2026-01-29 00:16:36.67	264.69	49.50	-60.2	-76.8	3.6	1.51e+00	0	46	104	0	60	270866
2026-01-29 00:16:37.68	264.23	49.27	-60.2	-76.7	3.6	1.51e+00	0	46	104	0	60	269381
2026-01-29 00:16:38.69	263.77	49.04	-60.3	-76.8	3.6	1.51e+00	0	46	104	0	60	270636
2026-01-29 00:16:39.69	263.32	48.82	-60.2	-76.7	3.6	1.51e+00	0	46	104	0	60	266442
2026-01-29 00:16:40.70	262.87	48.59	-60.2	-76.7	3.6	1.51e+00	0	46	104	0	60	267250
2026-01-29 00:16:41.71	262.43	48.36	-60.2	-76.6	3.6	1.51e+00	0	46	104	0	60	265188
2026-01-29 00:16:42.72	261.99	48.13	-60.3	-76.6	3.6	1.51e+00	0	46	104	0	60	264884
2026-01-29 00:16:43.72	261.57	47.91	-60.3	-76.8	3.6	1.51e+00	0	46	104	0	60	271100
2026-01-29 00:16:44.73	261.15	47.68	-60.4	-76.7	3.6	1.51e+00	0	46	104	0	60	268050
2026-01-29 00:16:45.74	260.73	47.44	-60.3	-76.7	3.6	1.51e+00	0	46	104	0	60	269491
2026-01-29 00:16:46.75	260.33	47.21	-60.4	-76.6	3.6	1.51e+00	0	46	104	0	60	265592
2026-01-29 00:16:47.75	259.93	46.98	-60.4	-76.8	3.6	1.51e+00	0	46	104	0	60	270034
2026-01-29 00:16:48.75	259.53	46.75	-60.4	-76.7	3.6	1.51e+00	0	46	104	0	60	266451
2026-01-29 00:16:49.76	259.14	46.52	-60.4	-76.8	3.6	1.51e+00	0	46	104	0	60	272054
2026-01-29 00:16:50.76	258.76	46.29	-60.4	-76.4	3.6	1.51e+00	0	46	104	0	60	259569
2026-01-29 00:16:51.77	258.38	46.06	-60.5	-76.8	3.6	1.51e+00	0	46	104	0	60	272617
2026-01-29 00:16:52.78	258.01	45.83	-60.4	-76.7	3.6	1.51e+00	0	46	104	0	60	266817
2026-01-29 00:16:53.79	257.64	45.60	-60.5	-76.9	3.6	1.51e+00	0	46	104	0	60	273524
2026-01-29 00:16:54.79	257.28	45.37	-60.5	-76.8	3.6	1.51e+00	0	46	104	0	60	270078
2026-01-29 00:16:55.80	256.92	45.13	-60.4	-76.8	3.6	1.51e+00	0	46	104	0	60	272094
2026-01-29 00:16:56.81	256.57	44.90	-60.4	-76.7	3.6	1.51e+00	0	46	104	0	60	266695
2026-01-29 00:16:57.82	256.22	44.67	-60.4	-76.8	3.6	1.51e+00	0	46	104	0	60	270760
2026-01-29 00:16:58.83	255.88	44.44	-60.4	-76.5	3.6	1.51e+00	0	46	104	0	60	260665
2026-01-29 00:16:59.83	255.54	44.21	-60.4	-76.8	3.6	1.51e+00	0	46	104	0	60	271027
2026-01-29 00:17:00.84	255.21	43.98	-60.4	-76.5	3.6	1.51e+00	0	46	104	0	60	262008
2026-01-29 00:17:01.85	254.88	43.75	-60.4	-76.8	3.6	1.51e+00	0	46	104	0	60	270194
2026-01-29 00:17:02.85	254.56	43.52	-60.4	-76.3	3.6	1.51e+00	0	46	104	0	60	255972
2026-01-29 00:17:03.86	254.24	43.29	-60.4	-76.7	3.6	1.51e+00	0	46	104	0	60	267343
2026-01-29 00:17:04.86	253.93	43.06	-60.3	-76.3	3.6	1.51e+00	0	46	104	0	60	257253
2026-01-29 00:17:05.87	253.62	42.83	-60.3	-76.2	3.6	1.51e+00	0	46	104	0	60	252577
2026-01-29 00:17:06.88	253.32	42.60	-60.3	-76.4	3.6	1.51e+00	0	46	104	0	60	259581
2026-01-29 00:17:07.89	253.02	42.37	-60.3	-76.5	3.6	1.51e+00	0	46	104	0	60	261549
2026-01-29 00:17:08.89	252.72	42.15	-60.3	-76.6	3.6	1.51e+00	0	47	104	0	60	263677
2026-01-29 00:17:09.90	252.43	41.92	-60.4	-76.7	3.6	1.51e+00	0	47	104	0	60	267801
2026-01-29 00:17:10.91	252.14	41.69	-60.3	-76.5	3.6	1.51e+00	0	46	104	0	60	260976
2026-01-29 00:17:11.92	251.86	41.47	-60.4	-76.7	3.6	1.51e+00	0	46	104	0	60	266852
2026-01-29 00:17:12.92	251.58	41.24	-60.3	-76.4	3.6	1.51e+00	0	46	104	0	60	257590
2026-01-29 00:17:13.93	251.30	41.02	-60.3	-76.6	3.6	1.51e+00	0	46	104	0	60	264714
2026-01-29 00:17:14.94	251.03	40.80	-60.4	-76.4	3.6	1.51e+00	0	46	104	0	60	257718
2026-01-29 00:17:15.95	250.76	40.57	-60.4	-76.7	3.6	1.51e+00	0	46	104	0	60	267505
2026-01-29 00:17:16.95	250.50	40.35	-60.4	-76.4	3.6	1.51e+00	0	46	104	0	60	259346
2026-01-29 00:17:17.96	250.24	40.13	-60.4	-76.7	3.6	1.51e+00	0	46	104	0	60	266445
2026-01-29 00:17:18.97	249.98	39.91	-60.4	-76.4	3.6	1.51e+00	0	46	104	0	60	257635
2026-01-29 00:17:19.97	249.73	39.69	-60.4	-76.7	3.6	1.51e+00	0	46	104	0	60	268786
2026-01-29 00:17:20.97	249.48	39.47	-60.3	-76.2	3.6	1.51e+00	0	46	104	0	60	251653
2026-01-29 00:17:21.98	249.23	39.25	-60.4	-76.7	3.6	1.51e+00	0	46	104	0	60	267054
2026-01-29 00:17:22.98	248.99	39.03	-60.4	-76.3	3.6	1.51e+00	0	46	104	0	60	255919
2026-01-29 00:17:23.99	248.75	38.82	-60.5	-76.8	3.6	1.51e+00	0	46	104	0	60	270871
2026-01-29 00:17:25.00	248.51	38.60	-60.4	-76.0	3.6	1.51e+00	0	46	104	0	60	246494
2026-01-29 00:17:26.01	248.28	38.38	-60.4	-75.9	3.6	1.51e+00	0	46	104	0	60	245626
2026-01-29 00:17:27.01	248.05	38.17	-60.4	-76.1	3.6	1.51e+00	0	46	104	0	60	250355
2026-01-29 00:17:28.02	247.82	37.95	-60.4	-75.9	3.6	1.51e+00	0	46	104	0	60	243434
2026-01-29 00:17:29.03	247.60	37.74	-60.4	-76.7	3.6	1.51e+00	0	46	104	0	60	267642
2026-01-29 00:17:30.04	247.37	37.53	-60.4	-76.7	3.6	1.51e+00	0	46	104	0	60	268678
2026-01-29 00:17:31.05	247.15	37.32	-60.4	-75.8	3.6	1.51e+00	0	47	104	0	60	242589
2026-01-29 00:17:32.05	246.94	37.11	-60.5	-76.6	3.6	1.51e+00	0	46	104	0	60	263502
2026-01-29 00:17:33.06	246.73	36.90	-60.4	-76.1	3.6	1.51e+00	0	46	104	0	60	250635
2026-01-29 00:17:34.06	246.52	36.69	-60.4	-76.6	3.6	1.51e+00	0	46	104	0	60	264253
2026-01-29 00:17:35.07	246.31	36.48	-60.4	-76.1	3.6	1.51e+00	0	47	104	0	60	250176
2026-01-29 00:17:36.08	246.10	36.27	-60.4	-76.6	3.6	1.51e+00	0	46	104	0	60	263761
2026-01-29 00:17:37.08	245.90	36.07	-60.4	-76.6	3.6	1.51e+00	0	46	104	0	60	264278
2026-01-29 00:17:38.09	245.70	35.86	-60.4	-76.6	3.6	1.51e+00	0	46	104	0	60	265894
2026-01-29 00:17:39.09	245.50	35.66	-60.4	-76.7	3.6	1.51e+00	0	46	104	0	60	268276
2026-01-29 00:17:40.09	245.31	35.46	-60.4	-75.6	3.6	1.51e+00	0	46	104	0	60	236606
2026-01-29 00:17:41.10	245.12	35.25	-60.4	-76.7	3.6	1.51e+00	0	46	104	0	60	266697
2026-01-29 00:17:42.11	244.93	35.05	-60.4	-76.3	3.6	1.51e+00	0	46	104	0	60	256974
2026-01-29 00:17:43.12	244.74	34.85	-60.4	-76.3	3.6	1.51e+00	0	46	104	0	60	256791
2026-01-29 00:17:44.12	244.56	34.65	-60.4	-76.1	3.6	1.51e+00	0	46	104	0	60	251007
2026-01-29 00:17:45.13	244.37	34.45	-60.4	-75.9	3.6	1.51e+00	0	46	104	0	60	244820
2026-01-29 00:17:46.14	244.19	34.25	-60.3	-75.9	3.6	1.51e+00	0	46	104	0	60	244412
2026-01-29 00:17:47.15	244.01	34.06	-60.5	-76.8	3.6	1.51e+00	0	46	104	0	60	270003
2026-01-29 00:17:48.16	243.83	33.86	-60.3	-75.5	3.6	1.51e+00	0	46	104	0	60	232933
2026-01-29 00:17:49.17	243.66	33.66	-60.4	-76.7	3.6	1.51e+00	0	46	104	0	60	267002
2026-01-29 00:17:50.17	243.49	33.47	-60.4	-76.3	3.6	1.51e+00	0	46	104	0	60	255248
2026-01-29 00:17:51.18	243.32	33.28	-60.3	-75.9	3.6	1.51e+00	0	46	104	0	60	245591
2026-01-29 00:17:52.18	243.15	33.09	-60.2	-75.6	3.6	1.51e+00	0	46	104	0	60	235650
2026-01-29 00:17:53.19	242.98	32.90	-60.2	-75.5	3.6	1.51e+00	0	46	104	0	60	232327
2026-01-29 00:17:54.19	242.82	32.71	-60.2	-75.7	3.6	1.51e+00	0	47	104	0	60	238051
2026-01-29 00:17:55.20	242.66	32.52	-60.3	-76.6	3.6	1.51e+00	0	46	104	0	60	265489
2026-01-29 00:17:56.20	242.50	32.33	-60.2	-75.6	3.6	1.51e+00	0	46	104	0	60	235811
2026-01-29 00:17:57.21	242.34	32.14	-60.2	-76.5	3.6	1.51e+00	0	47	104	0	60	260707
2026-01-29 00:17:58.22	242.18	31.95	-60.1	-75.3	3.6	1.51e+00	0	47	104	0	60	227008
2026-01-29 00:17:59.23	242.03	31.77	-60.1	-74.7	3.6	1.51e+00	0	46	104	0	60	211636
2026-01-29 00:18:00.24	241.88	31.58	-60.0	-74.1	3.6	1.50e+00	0	46	104	0	60	197578
2026-01-29 00:18:01.25	241.72	31.40	-60.1	-74.1	3.7	1.50e+00	0	46	104	0	60	199700
2026-01-29 00:18:02.25	241.58	31.22	-60.1	-74.4	3.6	1.45e+00	0	46	104	0	60	205155
2026-01-29 00:18:03.26	241.43	31.03	-60.1	-74.8	3.6	1.50e+00	0	46	104	0	60	214753
2026-01-29 00:18:04.27	241.28	30.85	-60.1	-74.9	3.6	1.51e+00	0	46	104	0	60	218147
2026-01-29 00:18:05.28	241.14	30.67	-60.0	-74.2	3.6	1.51e+00	0	46	104	0	60	201817
2026-01-29 00:18:06.29	240.99	30.49	-60.0	-73.5	3.8	1.47e+00	0	46	104	0	60	185836
2026-01-29 00:18:07.29	240.85	30.31	-60.0	-73.2	3.9	1.47e+00	0	46	104	0	60	179021
2026-01-29 00:18:08.30	240.71	30.13	-60.0	-71.5	3.8	1.43e+00	0	46	0	0	60	147098
2026-01-29 00:18:09.30	240.58	29.96	-59.9	-71.1	3.9	1.36e+00	0	46	0	0	60	141330
2026-01-29 00:18:10.30	240.44	29.78	-59.9	-71.4	3.8	1.34e+00	0	46	0	1048576	60	145731
2026-01-29 00:18:11.31	240.31	29.61	-59.9	-71.5	3.8	1.41e+00	0	46	0	1048576	60	146420
2026-01-29 00:18:12.32	240.17	29.43	-59.9	-72.8	4.0	1.37e+00	0	46	104	1048576	60	170880
2026-01-29 00:18:13.32	240.04	29.26	-59.9	-71.3	3.9	1.41e+00	0	46	0	1048576	60	144518
2026-01-29 00:18:14.33	239.91	29.09	-59.9	-70.1	4.5	1.12e+00	0	46	0	1048576	60	125738
2026-01-29 00:18:15.33	239.78	28.92	-59.7	-68.3	6.0	6.17e-01	0	46	0	3145728	60	101921
2026-01-29 00:18:16.34	239.65	28.75	-59.6	-68.2	6.2	1.99e-01	0	46	0	4194304	60	100937
2026-01-29 00:18:17.34	239.53	28.58	-59.7	-68.6	5.8	2.07e-01	0	47	0	6291456	60	105179
2026-01-29 00:18:18.35	239.40	28.41	-59.5	-67.4	7.0	2.29e-01	0	46	0	8388608	60	91760
2026-01-29 00:18:19.36	239.28	28.24	-59.5	-67.7	6.4	2.44e-01	0	46	0	10485760	60	95474
2026-01-29 00:18:20.37	239.16	28.07	-59.6	-68.2	6.1	2.73e-01	0	46	0	12582912	60	100259
2026-01-29 00:18:21.37	239.04	27.91	-59.4	-67.4	7.0	2.42e-01	0	46	0	13631488	60	91986
2026-01-29 00:18:22.38	238.91	27.74	-59.5	-67.7	6.5	2.30e-01	0	46	0	15728640	60	95359
2026-01-29 00:18:23.38	238.80	27.58	-59.5	-67.9	6.4	1.85e-01	0	46	0	17825792	60	97817
2026-01-29 00:18:24.39	238.68	27.42	-59.4	-67.6	6.7	2.37e-01	0	46	0	19922944	60	93804
2026-01-29 00:18:25.39	238.56	27.25	-59.4	-67.5	7.2	1.75e-01	0	46	0	22020096	60	93304
2026-01-29 00:18:26.40	238.45	27.09	-59.4	-67.6	6.7	1.83e-01	0	46	0	24117248	60	93915
2026-01-29 00:18:27.40	238.34	26.93	-59.4	-68.0	6.6	1.58e-01	0	46	0	25165824	60	98765
2026-01-29 00:18:28.41	238.22	26.77	-59.4	-67.6	7.0	1.52e-01	0	46	0	27262976	60	93593
2026-01-29 00:18:29.41	238.11	26.61	-59.3	-67.3	7.3	1.81e-01	0	46	0	29360128	60	90707
2026-01-29 00:18:30.41	238.00	26.46	-59.2	-66.9	7.7	1.36e-01	0	46	0	31457280	60	86871
2026-01-29 00:18:31.42	237.89	26.30	-59.1	-66.1	8.4	1.03e-01	0	47	0	32505856	60	79241
2026-01-29 00:18:32.42	237.79	26.14	-58.9	-65.6	9.0	2.88e-02	0	47	0	34603008	60	74548
2026-01-29 00:18:33.43	237.68	25.98	-58.9	-65.7	8.9	3.35e-02	0	46	0	36700160	60	75780
2026-01-29 00:18:34.44	237.57	25.83	-58.9	-65.7	8.6	4.56e-02	0	47	0	38797312	60	75266
2026-01-29 00:18:35.45	237.47	25.67	-58.7	-64.7	9.5	4.65e-02	0	47	0	40894464	60	67303
2026-01-29 00:18:36.45	237.36	25.52	-58.9	-65.4	8.9	2.36e-02	0	47	0	41943040	60	73281
2026-01-29 00:18:37.46	237.26	25.37	-59.1	-66.4	7.7	4.65e-02	0	46	0	44040192	60	81774
2026-01-29 00:18:38.47	237.16	25.21	-59.2	-67.0	6.9	1.15e-01	0	46	0	46137344	60	87677
2026-01-29 00:18:39.48	237.06	25.06	-59.2	-67.4	6.5	1.65e-01	0	47	0	48234496	60	92337
2026-01-29 00:18:40.48	236.96	24.91	-59.4	-68.7	5.5	3.20e-01	0	47	0	50331648	60	107180
2026-01-29 00:18:41.49	236.86	24.76	-59.4	-68.8	5.3	4.13e-01	0	47	0	52428800	60	108166
2026-01-29 00:18:42.50	236.76	24.61	-59.4	-68.2	6.0	3.49e-01	0	47	0	53477376	60	100739
2026-01-29 00:18:43.50	236.67	24.46	-59.4	-68.6	5.6	3.09e-01	0	47	0	55574528	60	105464
2026-01-29 00:18:44.51	236.57	24.32	-59.3	-68.3	5.8	2.55e-01	0	47	0	57671680	60	101303
2026-01-29 00:18:45.51	236.48	24.17	-59.2	-67.6	6.5	2.79e-01	0	46	0	59768832	60	93702
2026-01-29 00:18:46.52	236.38	24.02	-59.3	-68.2	6.0	2.92e-01	0	47	0	60817408	60	100742
2026-01-29 00:18:47.52	236.29	23.88	-59.2	-67.8	6.5	2.50e-01	0	46	0	62914560	60	96466
2026-01-29 00:18:48.53	236.20	23.73	-59.2	-67.6	6.6	1.82e-01	0	46	0	65011712	60	93607
2026-01-29 00:18:49.54	236.10	23.59	-59.0	-66.6	7.6	1.64e-01	0	46	0	67108864	60	83344
2026-01-29 00:18:50.55	236.01	23.44	-59.1	-66.7	7.6	9.29e-02	0	47	0	69206016	60	84954
2026-01-29 00:18:51.55	235.92	23.30	-59.0	-66.6	7.6	6.90e-02	0	46	0	70254592	60	84082
2026-01-29 00:18:52.55	235.84	23.16	-58.9	-65.9	8.6	4.26e-02	0	46	0	72351744	60	76909
2026-01-29 00:18:53.56	235.75	23.02	-58.9	-66.1	8.2	3.78e-02	0	46	0	74448896	60	79249
2026-01-29 00:18:54.57	235.66	22.88	-58.7	-65.2	8.7	2.51e-02	0	46	0	76546048	60	71092
2026-01-29 00:18:55.58	235.57	22.74	-58.8	-65.4	9.5	1.95e-02	0	47	0	78643200	60	72619
2026-01-29 00:18:56.58	235.49	22.60	-58.6	-64.7	10.0	1.12e-02	0	47	0	79691776	60	67543
2026-01-29 00:18:57.59	235.40	22.46	-58.2	-63.4	10.8	1.31e-03	0	47	0	81788928	60	57645
2026-01-29 00:18:58.60	235.32	22.32	-57.7	-62.1	13.0	1.49e-04	0	46	0	83886080	60	49713
2026-01-29 00:18:59.61	235.24	22.18	-57.4	-61.3	13.8	1.06e-05	0	46	0	85983232	60	45488
2026-01-29 00:19:00.61	235.15	22.05	-57.6	-61.8	13.3	1.06e-05	0	46	0	88080384	60	48147
2026-01-29 00:19:01.61	235.07	21.91	-57.6	-61.9	12.9	2.13e-05	0	46	0	89128960	60	48508
2026-01-29 00:19:02.63	234.99	21.78	-57.6	-61.9	13.2	3.50e-05	0	47	0	91226112	60	48769
2026-01-29 00:19:03.63	234.91	21.64	-57.7	-62.1	12.9	1.52e-05	0	46	0	93323264	60	49775
2026-01-29 00:19:04.63	234.83	21.51	-57.1	-60.8	14.1	8.30e-06	0	46	0	95420416	60	43088
2026-01-29 00:19:05.64	234.75	21.38	-56.7	-60.0	15.4	2.20e-06	0	46	0	97517568	60	39212
2026-01-29 00:19:06.64	234.68	21.24	-56.2	-59.1	16.0	0.00e+00	0	46	0	98566144	60	35462
2026-01-29 00:19:07.66	234.60	21.11	-56.0	-58.9	16.3	0.00e+00	0	46	0	100663296	60	34336
2026-01-29 00:19:08.66	234.52	20.98	-55.5	-58.0	17.0	0.00e+00	0	46	0	102760448	60	31185
2026-01-29 00:19:09.67	234.44	20.85	-55.3	-57.7	17.2	0.00e+00	0	46	0	104857600	60	30037
2026-01-29 00:19:10.68	234.37	20.72	-55.5	-58.0	17.1	0.00e+00	0	46	0	106954752	60	30997
2026-01-29 00:19:11.69	234.29	20.59	-55.3	-57.7	17.2	0.00e+00	0	46	0	108003328	60	30212
2026-01-29 00:19:12.69	234.22	20.46	-55.5	-58.0	17.0	0.00e+00	0	46	0	110100480	60	31076
2026-01-29 00:19:13.70	234.15	20.33	-55.7	-58.4	16.7	0.00e+00	0	46	0	112197632	60	32423
2026-01-29 00:19:14.71	234.07	20.20	-55.4	-57.9	17.1	0.00e+00	0	46	0	114294784	60	30806
2026-01-29 00:19:15.72	234.00	20.08	-55.7	-58.5	16.3	0.00e+00	0	46	0	116391936	60	32924
2026-01-29 00:19:16.72	233.93	19.95	-55.8	-58.6	16.5	0.00e+00	0	46	0	117440512	60	33179
2026-01-29 00:19:17.73	233.86	19.82	-56.0	-59.0	15.9	0.00e+00	0	46	0	119537664	60	34898
2026-01-29 00:19:18.74	233.79	19.70	-56.4	-59.6	15.4	0.00e+00	0	46	0	121634816	60	37360
2026-01-29 00:19:19.74	233.72	19.57	-56.5	-59.9	15.1	0.00e+00	0	46	0	123731968	60	38612
2026-01-29 00:19:20.74	233.65	19.45	-56.7	-60.2	14.7	7.00e-07	0	46	0	125829120	60	40181
2026-01-29 00:19:21.75	233.58	19.33	-56.9	-60.6	14.2	1.50e-06	0	46	0	126877696	60	42164
2026-01-29 00:19:22.76	233.51	19.20	-56.6	-59.9	14.9	7.00e-07	0	46	0	128974848	60	38852
2026-01-29 00:19:23.77	233.44	19.08	-56.4	-59.8	15.2	0.00e+00	0	46	0	131072000	60	38136
2026-01-29 00:19:24.78	233.38	18.96	-56.3	-59.5	15.2	0.00e+00	0	46	0	133169152	60	37188
2026-01-29 00:19:25.78	233.31	18.84	-55.9	-58.9	15.7	0.00e+00	0	46	0	135266304	60	34412
2026-01-29 00:19:26.79	233.25	18.72	-55.7	-58.4	16.4	0.00e+00	0	46	0	137363456	60	32643
2026-01-29 00:19:27.80	233.18	18.60	-55.5	-58.1	16.7	0.00e+00	0	46	0	138412032	60	31594
2026-01-29 00:19:28.80	233.12	18.48	-55.4	-58.0	16.8	0.00e+00	0	46	0	140509184	60	31143
2026-01-29 00:19:29.81	233.05	18.36	-55.1	-57.6	17.0	0.00e+00	0	46	0	142606336	60	29561
2026-01-29 00:19:30.81	232.99	18.24	-55.4	-57.9	16.8	0.00e+00	0	46	0	144703488	60	30896
2026-01-29 00:19:31.82	232.92	18.12	-55.3	-57.9	16.6	0.00e+00	0	46	0	145752064	60	30806
2026-01-29 00:19:32.83	232.86	18.00	-55.2	-57.8	16.4	0.00e+00	0	46	0	147849216	60	30290
2026-01-29 00:19:33.83	232.80	17.89	-55.4	-58.1	16.6	0.00e+00	0	46	0	149946368	60	31475
2026-01-29 00:19:34.84	232.74	17.77	-55.2	-57.8	16.7	0.00e+00	0	46	0	152043520	60	30367
2026-01-29 00:19:35.84	232.68	17.65	-55.1	-57.7	16.9	0.00e+00	0	46	0	154140672	60	30037
2026-01-29 00:19:36.85	232.62	17.54	-54.5	-56.9	17.5	0.00e+00	0	47	0	155189248	60	27402
2026-01-29 00:19:37.86	232.56	17.42	-53.9	-55.9	18.4	0.00e+00	0	46	0	157286400	60	24496
2026-01-29 00:19:38.87	232.50	17.31	-54.0	-56.1	18.0	0.00e+00	0	46	0	159383552	60	25130
2026-01-29 00:19:39.88	232.44	17.19	-54.3	-56.5	18.0	0.00e+00	0	46	0	161480704	60	26152
2026-01-29 00:19:40.89	232.38	17.08	-54.5	-56.8	17.7	0.00e+00	0	46	0	163577856	60	26996
2026-01-29 00:19:41.89	232.32	16.97	-54.3	-56.6	17.8	0.00e+00	0	46	0	165675008	60	26403
2026-01-29 00:19:42.90	232.26	16.85	-54.7	-57.2	17.2	0.00e+00	0	46	0	166723584	60	28347
2026-01-29 00:19:43.91	232.20	16.74	-54.4	-56.6	17.8	0.00e+00	0	46	0	168820736	60	26495
2026-01-29 00:19:44.92	232.15	16.63	-54.7	-57.1	17.2	0.00e+00	0	46	0	170917888	60	28173
2026-01-29 00:19:45.93	232.09	16.52	-54.6	-56.9	17.2	0.00e+00	0	46	0	173015040	60	27551
2026-01-29 00:19:46.93	232.04	16.41	-54.5	-56.8	17.4	0.00e+00	0	46	0	174063616	60	27125
2026-01-29 00:19:47.94	231.98	16.30	-54.5	-56.9	17.5	0.00e+00	0	46	0	176160768	60	27278
2026-01-29 00:19:48.95	231.92	16.19	-54.7	-57.1	17.3	0.00e+00	0	46	0	178257920	60	28008
2026-01-29 00:19:49.95	231.87	16.08	-54.5	-56.9	17.5	0.00e+00	0	46	0	180355072	60	27274
2026-01-29 00:19:50.96	231.81	15.97	-54.5	-56.8	17.8	0.00e+00	0	46	0	182452224	60	27011
2026-01-29 00:19:51.96	231.76	15.86	-54.4	-56.7	17.7	0.00e+00	0	46	0	183500800	60	26706
2026-01-29 00:19:52.97	231.71	15.75	-54.4	-56.6	17.6	0.00e+00	0	46	0	185597952	60	26624
2026-01-29 00:19:53.97	231.65	15.65	-54.2	-56.4	18.0	0.00e+00	0	46	0	187695104	60	25979
2026-01-29 00:19:54.98	231.60	15.54	-54.3	-56.5	17.7	0.00e+00	0	46	0	189792256	60	26105
2026-01-29 00:19:55.99	231.55	15.43	-54.0	-56.2	17.8	0.00e+00	0	46	0	191889408	60	25281
2026-01-29 00:19:57.00	231.50	15.33	-54.0	-56.2	18.1	0.00e+00	0	46	0	193986560	60	25249
2026-01-29 00:19:58.01	231.45	15.22	-54.0	-56.2	18.0	0.00e+00	0	46	0	195035136	60	25238
2026-01-29 00:19:59.01	231.39	15.12	-53.9	-56.0	18.2	0.00e+00	0	46	0	197132288	60	24699
2026-01-29 00:20:00.02	231.34	15.01	-54.0	-56.1	18.0	0.00e+00	0	46	0	199229440	60	25128
2026-01-29 00:20:01.03	231.29	14.91	-53.8	-55.9	18.3	0.00e+00	0	46	0	201326592	60	24483
2026-01-29 00:20:02.03	231.24	14.80	-53.8	-55.9	18.2	0.00e+00	0	46	0	202375168	60	24393
2026-01-29 00:20:03.04	231.19	14.70	-54.0	-56.2	17.8	0.00e+00	0	46	0	204472320	60	25415
2026-01-29 00:20:04.04	231.15	14.60	-53.7	-55.8	18.2	0.00e+00	0	46	0	206569472	60	24204
