passes_logs/2026/01/29/R3.2S-Naryan-Mar/R3.2S-Naryan-Mar__20260129_084453_NOAA_20_JPSS-1_rec.log

#Pass ID: 20260129_084453_NOAA 20 (JPSS-1)
#Satellite: NOAA 20 (JPSS-1)
#Configuration: NOAA 20
#almurnet v.1.7.20240730
#Start time: 2026-01-29 08:44:55

#Version: 2.2.20231116
#Station: R3.2S-Naryan-Mar
#Location: 53.008057 lon 67.646978 lat
#TLE: 1 43013U 17073A   26027.94683596  .00000137  00000+0  85741-4 0  9995
#TLE: 2 43013  98.7648 328.7503 0000940  21.3928 338.7287 14.19541154424576

#Time	Az	El	Level	Level2	SNR	BER	BlckErr	Temp	State	Recorded	gain1	gain2
2026-01-29 08:44:55.93	163.85	0.14	-58.8	-75.7	3.3	1.54e+00	0	44	0	0	60	238454
2026-01-29 08:44:56.94	163.86	0.20	-58.9	-77.1	3.6	1.51e+00	0	44	104	0	60	279964
2026-01-29 08:44:57.95	163.88	0.26	-58.9	-77.1	3.6	1.51e+00	0	44	104	0	60	279857
2026-01-29 08:44:58.96	163.89	0.32	-58.9	-77.1	3.6	1.51e+00	0	44	104	0	60	279508
2026-01-29 08:44:59.96	163.91	0.38	-58.9	-77.0	3.6	1.51e+00	0	44	104	0	60	276166
2026-01-29 08:45:00.97	163.92	0.45	-58.9	-77.2	3.6	1.51e+00	0	45	104	0	60	283160
2026-01-29 08:45:01.98	163.94	0.51	-58.9	-77.2	3.6	1.51e+00	0	45	104	0	60	283097
2026-01-29 08:45:02.98	163.95	0.57	-59.0	-77.2	3.6	1.51e+00	0	45	104	0	60	283157
2026-01-29 08:45:03.99	163.97	0.63	-59.0	-77.2	3.6	1.51e+00	0	45	104	0	60	283615
2026-01-29 08:45:05.00	163.98	0.69	-58.9	-77.1	3.6	1.51e+00	0	45	104	0	60	280531
2026-01-29 08:45:06.01	164.00	0.75	-59.0	-77.2	3.6	1.51e+00	0	45	104	0	60	283816
2026-01-29 08:45:07.01	164.01	0.81	-58.9	-77.1	3.6	1.51e+00	0	45	104	0	60	279339
2026-01-29 08:45:08.02	164.03	0.88	-58.9	-77.1	3.6	1.51e+00	0	45	104	0	60	280881
2026-01-29 08:45:09.03	164.05	0.94	-59.0	-77.2	3.6	1.51e+00	0	45	104	0	60	282260
2026-01-29 08:45:10.04	164.06	1.00	-59.0	-77.0	3.6	1.51e+00	0	45	104	0	60	276499
2026-01-29 08:45:11.05	164.08	1.06	-58.9	-77.2	3.6	1.51e+00	0	45	104	0	60	282339
2026-01-29 08:45:12.05	164.09	1.12	-59.0	-77.2	3.6	1.51e+00	0	45	104	0	60	283555
2026-01-29 08:45:13.06	164.11	1.19	-58.9	-77.1	3.6	1.51e+00	0	45	104	0	60	280711
2026-01-29 08:45:14.07	164.12	1.25	-58.8	-77.1	3.6	1.51e+00	0	45	104	0	60	279560
2026-01-29 08:45:15.08	164.14	1.31	-58.8	-77.0	3.6	1.51e+00	0	45	104	0	60	277668
2026-01-29 08:45:16.08	164.15	1.37	-58.9	-77.1	3.6	1.51e+00	0	45	104	0	60	279463
2026-01-29 08:45:17.09	164.17	1.44	-58.9	-77.1	3.6	1.51e+00	0	45	104	0	60	279139
2026-01-29 08:45:18.09	164.19	1.50	-58.9	-77.2	3.6	1.51e+00	0	45	104	0	60	283328
2026-01-29 08:45:19.10	164.20	1.56	-58.8	-77.2	3.6	1.51e+00	0	45	104	0	60	282717
2026-01-29 08:45:20.11	164.22	1.63	-58.8	-77.2	3.6	1.51e+00	0	45	104	0	60	282236
2026-01-29 08:45:21.12	164.23	1.69	-58.8	-76.9	3.6	1.51e+00	0	45	104	0	60	274634
2026-01-29 08:45:22.13	164.25	1.75	-58.8	-77.0	3.6	1.51e+00	0	45	104	0	60	277501
2026-01-29 08:45:23.13	164.27	1.82	-58.8	-76.9	3.6	1.51e+00	0	45	104	0	60	274706
2026-01-29 08:45:24.14	164.28	1.88	-58.8	-77.0	3.6	1.51e+00	0	45	104	0	60	278542
2026-01-29 08:45:25.15	164.30	1.95	-58.9	-77.0	3.6	1.51e+00	0	45	104	0	60	278126
2026-01-29 08:45:26.16	164.31	2.01	-59.0	-77.1	3.6	1.51e+00	0	45	104	0	60	279068
2026-01-29 08:45:27.17	164.33	2.08	-58.9	-77.2	3.6	1.51e+00	0	45	104	0	60	285417
2026-01-29 08:45:28.17	164.35	2.14	-58.9	-77.1	3.6	1.51e+00	0	45	104	0	60	282110
2026-01-29 08:45:29.18	164.36	2.20	-58.9	-77.2	3.6	1.51e+00	0	45	104	0	60	282701
2026-01-29 08:45:30.19	164.38	2.27	-58.9	-77.1	3.6	1.51e+00	0	45	104	0	60	281394
2026-01-29 08:45:31.20	164.40	2.33	-58.9	-77.1	3.6	1.51e+00	0	45	104	0	60	281228
2026-01-29 08:45:32.21	164.41	2.40	-58.9	-77.1	3.6	1.51e+00	0	45	104	0	60	279261
2026-01-29 08:45:33.21	164.43	2.46	-58.9	-77.0	3.6	1.51e+00	0	45	104	0	60	275999
2026-01-29 08:45:34.22	164.45	2.53	-58.9	-77.1	3.6	1.51e+00	0	45	104	0	60	280732
2026-01-29 08:45:35.23	164.46	2.60	-58.8	-77.0	3.6	1.51e+00	0	45	104	0	60	278362
2026-01-29 08:45:36.24	164.48	2.66	-58.9	-77.2	3.6	1.51e+00	0	45	104	0	60	285127
2026-01-29 08:45:37.24	164.50	2.73	-58.9	-77.1	3.6	1.51e+00	0	45	104	0	60	281970
2026-01-29 08:45:38.25	164.51	2.79	-59.0	-77.1	3.6	1.51e+00	0	45	104	0	60	281678
2026-01-29 08:45:39.25	164.53	2.86	-59.0	-77.1	3.6	1.51e+00	0	45	104	0	60	281284
2026-01-29 08:45:40.26	164.55	2.93	-59.0	-77.0	3.6	1.51e+00	0	45	104	0	60	278789
2026-01-29 08:45:41.27	164.56	2.99	-59.0	-77.0	3.6	1.51e+00	0	45	104	0	60	278885
2026-01-29 08:45:42.27	164.58	3.06	-59.0	-77.0	3.6	1.51e+00	0	45	104	0	60	278757
2026-01-29 08:45:43.28	164.60	3.13	-58.9	-77.0	3.6	1.51e+00	0	45	104	0	60	275820
2026-01-29 08:45:44.28	164.62	3.19	-58.9	-77.1	3.6	1.51e+00	0	45	104	0	60	282084
2026-01-29 08:45:45.29	164.63	3.26	-58.9	-77.1	3.6	1.51e+00	0	45	104	0	60	281535
2026-01-29 08:45:46.30	164.65	3.33	-58.9	-76.9	3.6	1.51e+00	0	45	104	0	60	275038
2026-01-29 08:45:47.31	164.67	3.39	-58.9	-77.0	3.6	1.51e+00	0	45	104	0	60	278008
2026-01-29 08:45:48.32	164.69	3.46	-58.9	-77.1	3.6	1.51e+00	0	45	104	0	60	280267
2026-01-29 08:45:49.32	164.70	3.53	-58.8	-77.1	3.6	1.51e+00	0	45	104	0	60	280370
2026-01-29 08:45:50.33	164.72	3.60	-58.8	-77.0	3.6	1.51e+00	0	45	104	0	60	276726
2026-01-29 08:45:51.34	164.74	3.67	-58.9	-77.2	3.6	1.51e+00	0	45	104	0	60	283009
2026-01-29 08:45:52.35	164.76	3.73	-58.9	-77.1	3.6	1.51e+00	0	45	104	0	60	281272
2026-01-29 08:45:53.36	164.77	3.80	-58.9	-77.0	3.6	1.51e+00	0	45	104	0	60	277482
2026-01-29 08:45:54.36	164.79	3.87	-58.9	-77.2	3.6	1.51e+00	0	45	104	0	60	283281
2026-01-29 08:45:55.37	164.81	3.94	-58.9	-76.9	3.6	1.51e+00	0	45	104	0	60	274938
2026-01-29 08:45:56.38	164.83	4.01	-58.9	-77.3	3.6	1.51e+00	0	45	104	0	60	286575
2026-01-29 08:45:57.39	164.85	4.08	-58.9	-77.2	3.6	1.51e+00	0	45	104	0	60	283821
2026-01-29 08:45:58.39	164.87	4.15	-58.8	-77.1	3.6	1.51e+00	0	45	104	0	60	279653
2026-01-29 08:45:59.40	164.88	4.22	-58.8	-77.0	3.6	1.51e+00	0	45	104	0	60	277646
2026-01-29 08:46:00.41	164.90	4.29	-58.8	-77.0	3.6	1.51e+00	0	45	104	0	60	278339
2026-01-29 08:46:01.41	164.92	4.36	-58.8	-77.0	3.6	1.51e+00	0	45	104	0	60	275972
2026-01-29 08:46:02.42	164.94	4.43	-58.8	-77.1	3.6	1.51e+00	0	45	104	0	60	281806
2026-01-29 08:46:03.43	164.96	4.50	-58.8	-77.0	3.6	1.51e+00	0	45	104	0	60	277244
2026-01-29 08:46:04.44	164.98	4.57	-58.8	-77.1	3.6	1.51e+00	0	45	104	0	60	279370
2026-01-29 08:46:05.44	164.99	4.64	-58.8	-77.2	3.5	1.51e+00	0	45	104	0	60	283150
2026-01-29 08:46:06.44	165.01	4.71	-58.8	-77.1	3.6	1.51e+00	0	45	104	0	60	281586
2026-01-29 08:46:07.45	165.03	4.78	-58.8	-77.1	3.6	1.51e+00	0	45	104	0	60	280303
2026-01-29 08:46:08.46	165.05	4.85	-58.8	-77.0	3.6	1.51e+00	0	45	104	0	60	277245
2026-01-29 08:46:09.47	165.07	4.92	-58.8	-77.1	3.6	1.51e+00	0	45	104	0	60	281779
2026-01-29 08:46:10.48	165.09	4.99	-58.8	-77.2	3.6	1.51e+00	0	45	104	0	60	282452
2026-01-29 08:46:11.48	165.11	5.07	-58.8	-76.9	3.6	1.51e+00	0	45	104	0	60	274813
2026-01-29 08:46:12.49	165.13	5.14	-58.8	-76.9	3.6	1.51e+00	0	45	104	0	60	275692
2026-01-29 08:46:13.49	165.15	5.21	-58.8	-77.2	3.6	1.51e+00	0	45	104	0	60	282363
2026-01-29 08:46:14.50	165.17	5.28	-59.0	-77.2	3.6	1.51e+00	0	45	104	0	60	284604
2026-01-29 08:46:15.51	165.19	5.35	-57.2	-76.4	3.6	1.51e+00	0	45	104	0	60	258423
2026-01-29 08:46:16.51	165.21	5.43	-58.8	-77.4	3.6	1.51e+00	0	45	104	0	60	290928
2026-01-29 08:46:17.51	165.23	5.50	-60.8	-77.8	3.6	1.51e+00	0	45	104	0	60	304454
2026-01-29 08:46:18.52	165.25	5.57	-61.0	-77.7	3.6	1.51e+00	0	45	104	0	60	300223
2026-01-29 08:46:19.52	165.27	5.64	-61.3	-77.8	3.6	1.51e+00	0	45	104	0	60	304723
2026-01-29 08:46:20.53	165.29	5.72	-61.4	-78.0	3.6	1.51e+00	0	45	104	0	60	310264
2026-01-29 08:46:21.54	165.31	5.79	-61.6	-78.1	3.6	1.51e+00	0	45	104	0	60	313342
2026-01-29 08:46:22.55	165.33	5.87	-62.0	-78.4	3.6	1.51e+00	0	45	104	0	60	326135
2026-01-29 08:46:23.55	165.35	5.94	-61.9	-78.3	3.6	1.51e+00	0	45	104	0	60	322292
2026-01-29 08:46:24.55	165.37	6.01	-61.8	-78.2	3.6	1.51e+00	0	45	104	0	60	319989
2026-01-29 08:46:25.55	165.39	6.09	-61.4	-77.9	3.6	1.51e+00	0	45	104	0	60	307410
2026-01-29 08:46:26.55	165.41	6.16	-61.3	-77.9	3.6	1.51e+00	0	45	104	0	60	306807
2026-01-29 08:46:27.56	165.43	6.24	-61.1	-77.7	3.6	1.51e+00	0	45	104	0	60	299503
2026-01-29 08:46:28.56	165.45	6.31	-60.8	-77.4	3.6	1.51e+00	0	45	104	0	60	289808
2026-01-29 08:46:29.57	165.47	6.39	-60.3	-76.9	3.6	1.51e+00	0	45	104	0	60	275425
2026-01-29 08:46:30.58	165.49	6.46	-59.9	-76.6	3.6	1.51e+00	0	45	104	0	60	264124
2026-01-29 08:46:31.58	165.51	6.54	-59.6	-76.1	3.6	1.51e+00	0	45	104	0	60	251123
2026-01-29 08:46:32.59	165.53	6.62	-58.2	-73.9	3.6	1.51e+00	0	45	104	0	60	194757
2026-01-29 08:46:33.60	165.55	6.69	-55.9	-61.6	11.9	5.89e-01	0	45	104	0	60	46969
2026-01-29 08:46:34.60	165.57	6.77	-56.2	-62.2	11.2	1.49e-03	0	45	0	1048576	60	50575
2026-01-29 08:46:35.61	165.59	6.84	-56.9	-66.0	5.9	3.23e-03	0	45	0	3145728	60	78333
2026-01-29 08:46:36.62	165.62	6.92	-57.1	-68.7	4.9	1.51e+00	0	46	104	3145728	60	106260
2026-01-29 08:46:37.63	165.64	7.00	-55.7	-59.8	14.4	8.23e-05	0	45	104	3145728	60	38303
2026-01-29 08:46:38.63	165.66	7.08	-54.7	-57.7	16.0	2.26e-03	0	45	0	1048576	60	30072
2026-01-29 08:46:39.64	165.68	7.15	-57.4	-72.1	3.7	1.50e+00	0	45	104	2097152	60	158508
2026-01-29 08:46:40.64	165.70	7.23	-55.8	-60.1	13.7	1.43e+00	0	45	104	2097152	60	39653
2026-01-29 08:46:41.65	165.72	7.31	-55.9	-60.2	13.8	3.00e-06	0	45	0	1048576	60	39926
2026-01-29 08:46:42.65	165.75	7.39	-55.9	-60.3	13.6	5.30e-06	0	45	0	3145728	60	40702
2026-01-29 08:46:43.66	165.77	7.47	-55.9	-60.3	13.5	2.13e-05	0	45	0	4194304	60	40655
2026-01-29 08:46:44.67	165.79	7.55	-56.1	-60.7	13.1	3.43e-05	0	45	0	6291456	60	42582
2026-01-29 08:46:45.68	165.81	7.62	-56.1	-61.0	12.9	3.20e-05	0	45	0	8388608	60	43824
2026-01-29 08:46:46.69	165.83	7.70	-56.2	-61.1	12.8	5.18e-05	0	45	0	10485760	60	44341
2026-01-29 08:46:47.69	165.86	7.78	-56.1	-61.1	12.7	8.77e-05	0	45	0	12582912	60	44443
2026-01-29 08:46:48.69	165.88	7.86	-56.2	-61.2	12.5	1.34e-04	0	46	0	13631488	60	45086
2026-01-29 08:46:49.70	165.90	7.94	-56.3	-61.5	12.2	1.59e-04	0	45	0	15728640	60	46818
2026-01-29 08:46:50.71	165.92	8.02	-56.4	-62.0	11.7	2.66e-04	0	45	0	17825792	60	49136
2026-01-29 08:46:51.71	165.95	8.10	-56.5	-62.3	11.4	6.26e-04	0	45	0	19922944	60	51083
2026-01-29 08:46:52.72	165.97	8.18	-56.5	-62.4	11.2	1.14e-03	0	45	0	20971520	60	51451
2026-01-29 08:46:53.72	165.99	8.26	-56.7	-62.7	10.9	1.55e-03	0	45	0	23068672	60	53686
2026-01-29 08:46:54.73	166.02	8.35	-56.7	-62.9	10.7	2.40e-03	0	45	0	25165824	60	54538
2026-01-29 08:46:55.73	166.04	8.43	-56.8	-63.4	10.2	4.07e-03	0	45	0	27262976	60	57650
2026-01-29 08:46:56.74	166.06	8.51	-57.0	-64.2	8.8	4.35e-03	0	45	0	29360128	60	63591
2026-01-29 08:46:57.75	166.09	8.59	-56.9	-63.0	11.2	7.83e-02	0	45	0	31457280	60	55508
2026-01-29 08:46:58.75	166.11	8.67	-56.8	-62.4	7.8	4.95e-05	0	45	0	32505856	60	51911
2026-01-29 08:46:59.76	166.13	8.76	-56.2	-60.6	6.0	1.51e+00	0	45	104	33554432	60	42030
2026-01-29 08:47:00.76	166.16	8.84	-57.2	-64.1	4.6	3.48e-02	0	45	104	33554432	60	62928
2026-01-29 08:47:01.77	166.18	8.92	-57.9	-69.5	4.9	1.50e+00	0	45	104	33554432	60	116557
2026-01-29 08:47:02.77	166.21	9.00	-55.9	-59.9	14.6	6.51e-02	0	45	104	33554432	60	38943
2026-01-29 08:47:03.78	166.23	9.09	-56.0	-60.0	14.1	7.00e-07	0	45	0	1048576	60	39090
2026-01-29 08:47:04.78	166.25	9.17	-56.1	-60.2	14.1	2.20e-06	0	45	0	3145728	60	40070
2026-01-29 08:47:05.79	166.28	9.26	-56.2	-60.5	13.6	6.80e-06	0	45	0	5242880	60	41315
2026-01-29 08:47:06.79	166.30	9.34	-56.4	-60.9	13.2	9.90e-06	0	45	0	7340032	60	43345
2026-01-29 08:47:07.80	166.33	9.43	-56.3	-60.6	13.3	1.22e-05	0	45	0	8388608	60	42172
2026-01-29 08:47:08.80	166.35	9.51	-56.6	-61.2	13.0	2.13e-05	0	45	0	10485760	60	44773
2026-01-29 08:47:09.80	166.38	9.60	-56.6	-61.1	13.2	4.73e-05	0	45	0	12582912	60	44316
2026-01-29 08:47:10.81	166.40	9.68	-56.5	-61.1	13.1	6.79e-05	0	45	0	14680064	60	44260
2026-01-29 08:47:11.82	166.43	9.77	-56.2	-60.3	13.8	5.30e-06	0	45	0	16777216	60	40528
2026-01-29 08:47:12.81	166.45	9.85	-56.0	-59.8	14.4	2.20e-06	0	45	0	17825792	60	38131
2026-01-29 08:47:13.82	166.48	9.94	-55.9	-59.7	14.5	0.00e+00	0	45	0	19922944	60	37922
2026-01-29 08:47:14.82	166.50	10.03	-56.0	-59.8	14.4	1.50e-06	0	45	0	22020096	60	38161
2026-01-29 08:47:15.83	166.53	10.11	-56.0	-59.9	14.3	3.00e-06	0	45	0	24117248	60	38914
2026-01-29 08:47:16.83	166.55	10.20	-56.2	-60.4	13.7	5.30e-06	0	45	0	26214400	60	41082
2026-01-29 08:47:17.84	166.58	10.29	-56.2	-60.5	13.7	1.37e-05	0	45	0	27262976	60	41311
2026-01-29 08:47:18.84	166.61	10.38	-56.4	-60.7	13.4	3.20e-05	0	45	0	29360128	60	42691
2026-01-29 08:47:19.84	166.63	10.46	-56.6	-61.4	12.6	8.16e-05	0	45	0	31457280	60	46141
2026-01-29 08:47:20.85	166.66	10.55	-56.6	-61.4	12.0	1.13e-04	0	45	0	33554432	60	45948
2026-01-29 08:47:21.86	166.69	10.64	-56.7	-61.8	12.3	2.58e-04	0	45	0	35651584	60	48127
2026-01-29 08:47:22.86	166.71	10.73	-56.8	-61.9	12.2	1.78e-04	0	45	0	36700160	60	48521
2026-01-29 08:47:23.86	166.74	10.82	-56.8	-62.1	11.9	2.91e-04	0	45	0	38797312	60	49614
2026-01-29 08:47:24.87	166.77	10.91	-56.9	-62.1	12.0	3.54e-04	0	45	0	40894464	60	49958
2026-01-29 08:47:25.87	166.79	11.00	-56.9	-62.1	12.0	3.27e-04	0	45	0	42991616	60	49990
2026-01-29 08:47:26.87	166.82	11.09	-56.8	-62.0	12.0	3.80e-04	0	45	0	45088768	60	49608
2026-01-29 08:47:27.87	166.85	11.18	-56.8	-62.1	12.0	3.29e-04	0	45	0	46137344	60	49722
2026-01-29 08:47:28.87	166.87	11.27	-56.8	-62.2	11.8	2.18e-04	0	46	0	48234496	60	50591
2026-01-29 08:47:29.87	166.90	11.36	-56.9	-62.6	11.1	6.48e-04	0	45	0	50331648	60	53139
2026-01-29 08:47:30.88	166.93	11.45	-57.0	-62.9	10.8	8.86e-04	0	46	0	52428800	60	55014
2026-01-29 08:47:31.88	166.96	11.55	-57.2	-63.5	10.4	4.36e-03	0	45	0	54525952	60	58539
2026-01-29 08:47:32.89	166.99	11.64	-57.3	-63.8	10.2	5.32e-03	0	46	0	55574528	60	60503
2026-01-29 08:47:33.89	167.01	11.73	-57.4	-64.4	9.2	1.16e-02	0	45	0	57671680	60	65098
2026-01-29 08:47:34.89	167.04	11.82	-57.5	-64.4	9.2	1.90e-02	0	45	0	59768832	60	65159
2026-01-29 08:47:35.90	167.07	11.92	-57.6	-64.8	8.7	3.47e-02	0	46	0	61865984	60	67738
2026-01-29 08:47:36.91	167.10	12.01	-57.7	-65.4	8.0	4.82e-02	0	45	0	63963136	60	72957
2026-01-29 08:47:37.91	167.13	12.11	-58.0	-66.8	7.2	6.93e-02	0	46	0	65011712	60	85997
2026-01-29 08:47:38.92	167.16	12.20	-58.1	-67.5	6.1	2.77e-01	0	46	0	67108864	60	93273
2026-01-29 08:47:39.92	167.19	12.30	-58.2	-67.4	5.7	3.50e-01	0	46	0	69206016	60	91477
2026-01-29 08:47:40.92	167.22	12.39	-58.4	-69.1	4.9	5.64e-01	0	46	0	71303168	60	111779
2026-01-29 08:47:41.93	167.24	12.49	-58.5	-69.8	4.3	8.18e-01	0	46	0	72351744	60	120950
2026-01-29 08:47:42.93	167.27	12.58	-58.6	-70.4	3.8	1.03e+00	0	45	0	74448896	60	129835
2026-01-29 08:47:43.93	167.30	12.68	-57.3	-62.4	11.7	1.19e+00	0	45	0	75497472	60	51598
2026-01-29 08:47:44.93	167.33	12.78	-58.1	-67.5	5.7	2.41e-02	0	46	0	77594624	60	93299
2026-01-29 08:47:45.94	167.36	12.87	-54.2	-56.5	17.1	5.38e-01	0	45	104	77594624	60	26055
2026-01-29 08:47:46.94	167.39	12.97	-58.5	-70.3	4.2	0.00e+00	0	45	0	1048576	60	127997
2026-01-29 08:47:47.95	167.43	13.07	-54.9	-57.5	16.5	3.90e-01	0	46	104	1048576	60	29404
2026-01-29 08:47:48.95	167.46	13.17	-53.4	-55.3	19.2	0.00e+00	0	45	0	1048576	60	22708
2026-01-29 08:47:49.95	167.49	13.26	-52.5	-54.1	20.3	0.00e+00	0	45	0	3145728	60	19839
2026-01-29 08:47:50.96	167.52	13.36	-52.7	-54.4	19.9	0.00e+00	0	45	0	5242880	60	20509
2026-01-29 08:47:51.97	167.55	13.46	-52.8	-54.6	19.7	0.00e+00	0	45	0	6291456	60	20997
2026-01-29 08:47:52.97	167.58	13.56	-53.0	-54.8	19.5	0.00e+00	0	46	0	8388608	60	21574
2026-01-29 08:47:53.97	167.61	13.66	-53.8	-55.9	18.6	0.00e+00	0	45	0	10485760	60	24499
2026-01-29 08:47:54.98	167.64	13.77	-54.1	-56.5	17.7	0.00e+00	0	45	0	12582912	60	26178
2026-01-29 08:47:55.98	167.68	13.87	-54.6	-57.3	17.5	0.00e+00	0	45	0	14680064	60	28570
2026-01-29 08:47:56.98	167.71	13.97	-54.7	-57.4	17.2	0.00e+00	0	45	0	15728640	60	28975
2026-01-29 08:47:57.98	167.74	14.07	-54.2	-56.4	18.2	0.00e+00	0	45	0	17825792	60	26018
2026-01-29 08:47:58.99	167.77	14.17	-53.8	-55.9	18.6	0.00e+00	0	46	0	19922944	60	24334
2026-01-29 08:47:59.99	167.81	14.27	-53.5	-55.4	19.1	0.00e+00	0	45	0	22020096	60	23078
2026-01-29 08:48:00.99	167.84	14.38	-53.3	-55.1	19.2	0.00e+00	0	45	0	23068672	60	22344
2026-01-29 08:48:02.00	167.87	14.48	-53.2	-55.0	19.4	0.00e+00	0	45	0	25165824	60	22093
2026-01-29 08:48:03.00	167.91	14.58	-53.1	-54.9	19.6	0.00e+00	0	46	0	27262976	60	21805
2026-01-29 08:48:04.00	167.94	14.69	-53.1	-54.8	19.7	0.00e+00	0	45	0	29360128	60	21649
2026-01-29 08:48:05.00	167.97	14.79	-53.1	-54.9	19.6	0.00e+00	0	45	0	31457280	60	21689
2026-01-29 08:48:06.00	168.01	14.90	-53.1	-54.9	19.6	0.00e+00	0	45	0	32505856	60	21804
2026-01-29 08:48:07.01	168.04	15.01	-53.0	-54.7	19.9	0.00e+00	0	46	0	34603008	60	21384
2026-01-29 08:48:08.01	168.08	15.11	-52.7	-54.3	20.2	0.00e+00	0	45	0	36700160	60	20408
2026-01-29 08:48:09.02	168.11	15.22	-52.6	-54.2	20.2	0.00e+00	0	45	0	38797312	60	20136
2026-01-29 08:48:10.02	168.14	15.33	-52.6	-54.2	20.3	0.00e+00	0	45	0	40894464	60	20041
2026-01-29 08:48:11.03	168.18	15.43	-52.6	-54.2	20.3	0.00e+00	0	45	0	41943040	60	20153
2026-01-29 08:48:12.03	168.22	15.54	-52.6	-54.2	20.3	0.00e+00	0	45	0	44040192	60	20150
2026-01-29 08:48:13.04	168.25	15.65	-52.6	-54.2	20.2	0.00e+00	0	46	0	46137344	60	20168
2026-01-29 08:48:14.04	168.29	15.76	-52.6	-54.2	20.3	0.00e+00	0	46	0	48234496	60	20107
2026-01-29 08:48:15.05	168.32	15.87	-52.6	-54.1	20.4	0.00e+00	0	46	0	50331648	60	19975
2026-01-29 08:48:16.05	168.36	15.98	-52.6	-54.2	20.4	0.00e+00	0	46	0	51380224	60	20012
2026-01-29 08:48:17.06	168.40	16.09	-52.7	-54.3	20.2	0.00e+00	0	45	0	53477376	60	20352
2026-01-29 08:48:18.07	168.43	16.20	-52.9	-54.5	20.0	0.00e+00	0	45	0	55574528	60	20741
2026-01-29 08:48:19.07	168.47	16.31	-53.2	-54.9	19.7	0.00e+00	0	45	0	57671680	60	21768
2026-01-29 08:48:20.08	168.51	16.43	-53.5	-55.3	19.5	0.00e+00	0	45	0	59768832	60	22821
2026-01-29 08:48:21.09	168.55	16.54	-53.5	-55.2	19.5	0.00e+00	0	46	0	60817408	60	22651
2026-01-29 08:48:22.09	168.58	16.65	-53.5	-55.3	19.4	0.00e+00	0	45	0	62914560	60	22727
2026-01-29 08:48:23.10	168.62	16.77	-53.3	-55.0	19.8	0.00e+00	0	45	0	65011712	60	22045
2026-01-29 08:48:24.11	168.66	16.88	-53.1	-54.8	19.9	0.00e+00	0	46	0	67108864	60	21495
2026-01-29 08:48:25.11	168.70	17.00	-53.1	-54.8	20.0	0.00e+00	0	46	0	69206016	60	21423
2026-01-29 08:48:26.11	168.74	17.11	-53.1	-54.7	20.0	0.00e+00	0	46	0	70254592	60	21295
2026-01-29 08:48:27.12	168.78	17.23	-53.1	-54.7	20.0	0.00e+00	0	45	0	72351744	60	21341
2026-01-29 08:48:28.12	168.82	17.34	-53.1	-54.8	20.0	0.00e+00	0	46	0	74448896	60	21471
2026-01-29 08:48:29.13	168.86	17.46	-53.2	-54.9	19.9	0.00e+00	0	46	0	76546048	60	21769
2026-01-29 08:48:30.13	168.90	17.58	-53.3	-55.0	19.8	0.00e+00	0	45	0	77594624	60	21951
2026-01-29 08:48:31.13	168.94	17.70	-53.8	-55.6	19.5	0.00e+00	0	45	0	79691776	60	23575
2026-01-29 08:48:32.14	168.98	17.81	-54.2	-56.2	18.6	0.00e+00	0	45	0	81788928	60	25169
2026-01-29 08:48:33.15	169.02	17.93	-54.9	-57.1	17.8	0.00e+00	0	45	0	83886080	60	28194
2026-01-29 08:48:34.15	169.06	18.05	-55.2	-57.6	17.5	0.00e+00	0	45	0	85983232	60	29709
2026-01-29 08:48:35.16	169.10	18.17	-55.4	-57.9	17.2	0.00e+00	0	45	0	88080384	60	30715
2026-01-29 08:48:36.16	169.14	18.29	-55.5	-58.0	17.0	0.00e+00	0	45	0	89128960	60	31150
2026-01-29 08:48:37.17	169.18	18.42	-55.5	-58.1	16.9	0.00e+00	0	45	0	91226112	60	31604
2026-01-29 08:48:38.18	169.23	18.54	-55.6	-58.2	16.9	0.00e+00	0	45	0	93323264	60	31858
2026-01-29 08:48:39.19	169.27	18.66	-55.6	-58.3	16.9	0.00e+00	0	46	0	95420416	60	32061
2026-01-29 08:48:40.19	169.31	18.79	-55.7	-58.4	16.7	0.00e+00	0	45	0	97517568	60	32683
2026-01-29 08:48:41.20	169.36	18.91	-56.2	-59.2	15.9	0.00e+00	0	46	0	98566144	60	35732
2026-01-29 08:48:42.20	169.40	19.03	-56.0	-58.9	16.1	0.00e+00	0	45	0	100663296	60	34614
2026-01-29 08:48:43.21	169.44	19.16	-55.7	-58.3	16.9	0.00e+00	0	45	0	102760448	60	32394
2026-01-29 08:48:44.21	169.49	19.28	-55.6	-58.1	17.1	0.00e+00	0	45	0	104857600	60	31501
2026-01-29 08:48:45.22	169.53	19.41	-55.6	-58.2	17.0	0.00e+00	0	45	0	105906176	60	31729
2026-01-29 08:48:46.23	169.58	19.54	-55.1	-57.4	17.8	0.00e+00	0	45	0	108003328	60	29068
2026-01-29 08:48:47.24	169.62	19.67	-55.0	-57.1	18.3	0.00e+00	0	45	0	110100480	60	28152
2026-01-29 08:48:48.24	169.67	19.80	-54.5	-56.5	18.8	0.00e+00	0	46	0	112197632	60	26214
2026-01-29 08:48:49.25	169.71	19.92	-54.3	-56.2	19.0	0.00e+00	0	45	0	114294784	60	25266
2026-01-29 08:48:50.26	169.76	20.05	-54.3	-56.1	19.1	0.00e+00	0	45	0	116391936	60	25057
2026-01-29 08:48:51.26	169.81	20.18	-54.2	-56.1	19.2	0.00e+00	0	45	0	117440512	60	24948
2026-01-29 08:48:52.26	169.85	20.31	-54.2	-56.1	19.1	0.00e+00	0	45	0	119537664	60	25083
2026-01-29 08:48:53.27	169.90	20.45	-54.3	-56.2	19.1	0.00e+00	0	46	0	121634816	60	25372
2026-01-29 08:48:54.27	169.95	20.58	-54.3	-56.2	19.0	0.00e+00	0	46	0	123731968	60	25437
2026-01-29 08:48:55.27	170.00	20.71	-54.4	-56.3	19.0	0.00e+00	0	45	0	125829120	60	25652
2026-01-29 08:48:56.28	170.05	20.85	-54.5	-56.4	18.9	0.00e+00	0	46	0	126877696	60	25965
2026-01-29 08:48:57.28	170.10	20.98	-54.6	-56.5	18.9	0.00e+00	0	45	0	128974848	60	26283
2026-01-29 08:48:58.29	170.14	21.11	-54.6	-56.5	18.9	0.00e+00	0	45	0	131072000	60	26205
2026-01-29 08:48:59.29	170.19	21.25	-54.5	-56.5	19.0	0.00e+00	0	45	0	133169152	60	26036
2026-01-29 08:49:00.29	170.24	21.39	-54.6	-56.5	19.0	0.00e+00	0	45	0	134217728	60	26245
2026-01-29 08:49:01.29	170.29	21.52	-54.6	-56.5	19.0	0.00e+00	0	46	0	136314880	60	26150
2026-01-29 08:49:02.30	170.35	21.66	-54.6	-56.6	19.0	0.00e+00	0	45	0	138412032	60	26381
2026-01-29 08:49:03.31	170.40	21.80	-54.6	-56.5	19.1	0.00e+00	0	45	0	140509184	60	26243
2026-01-29 08:49:04.31	170.45	21.94	-54.6	-56.6	19.0	0.00e+00	0	45	0	142606336	60	26375
2026-01-29 08:49:05.32	170.50	22.08	-54.6	-56.5	19.1	0.00e+00	0	45	0	143654912	60	26069
2026-01-29 08:49:06.33	170.55	22.22	-54.5	-56.4	19.1	0.00e+00	0	45	0	145752064	60	25867
2026-01-29 08:49:07.34	170.61	22.36	-54.4	-56.3	19.3	0.00e+00	0	45	0	147849216	60	25470
2026-01-29 08:49:08.35	170.66	22.51	-54.4	-56.3	19.2	0.00e+00	0	46	0	149946368	60	25538
2026-01-29 08:49:09.35	170.72	22.65	-54.4	-56.2	19.3	0.00e+00	0	46	0	152043520	60	25413
2026-01-29 08:49:10.36	170.77	22.79	-54.3	-56.2	19.4	0.00e+00	0	46	0	154140672	60	25283
2026-01-29 08:49:11.37	170.83	22.94	-54.3	-56.2	19.4	0.00e+00	0	45	0	155189248	60	25198
2026-01-29 08:49:12.38	170.88	23.09	-54.3	-56.2	19.3	0.00e+00	0	45	0	157286400	60	25182
2026-01-29 08:49:13.39	170.94	23.23	-54.2	-56.1	19.4	0.00e+00	0	45	0	159383552	60	24864
2026-01-29 08:49:14.39	170.99	23.38	-54.2	-56.0	19.3	0.00e+00	0	46	0	161480704	60	24734
2026-01-29 08:49:15.40	171.05	23.53	-54.0	-55.9	19.6	0.00e+00	0	46	0	162529280	60	24317
2026-01-29 08:49:16.41	171.11	23.68	-54.1	-55.9	19.6	0.00e+00	0	46	0	164626432	60	24460
2026-01-29 08:49:17.41	171.17	23.83	-54.1	-55.9	19.6	0.00e+00	0	45	0	166723584	60	24324
2026-01-29 08:49:18.42	171.23	23.98	-54.0	-55.8	19.7	0.00e+00	0	46	0	168820736	60	24147
2026-01-29 08:49:19.43	171.29	24.13	-54.1	-55.9	19.6	0.00e+00	0	46	0	170917888	60	24316
2026-01-29 08:49:20.43	171.35	24.28	-54.1	-55.8	19.6	0.00e+00	0	45	0	171966464	60	24268
2026-01-29 08:49:21.44	171.41	24.43	-54.1	-55.9	19.6	0.00e+00	0	45	0	174063616	60	24383
2026-01-29 08:49:22.45	171.47	24.59	-54.1	-55.9	19.6	0.00e+00	0	45	0	176160768	60	24501
2026-01-29 08:49:23.45	171.53	24.74	-54.1	-55.9	19.6	0.00e+00	0	45	0	178257920	60	24408
2026-01-29 08:49:24.46	171.59	24.90	-54.2	-56.0	19.6	0.00e+00	0	45	0	180355072	60	24681
2026-01-29 08:49:25.47	171.65	25.06	-54.3	-56.0	19.6	0.00e+00	0	46	0	182452224	60	24833
2026-01-29 08:49:26.48	171.72	25.22	-54.3	-56.1	19.5	0.00e+00	0	46	0	183500800	60	25080
2026-01-29 08:49:27.48	171.78	25.37	-54.3	-56.1	19.5	0.00e+00	0	46	0	185597952	60	24935
2026-01-29 08:49:28.49	171.84	25.53	-54.3	-56.1	19.6	0.00e+00	0	46	0	187695104	60	24895
2026-01-29 08:49:29.50	171.91	25.69	-54.4	-56.2	19.5	0.00e+00	0	46	0	189792256	60	25325
2026-01-29 08:49:30.50	171.97	25.85	-54.5	-56.3	19.4	0.00e+00	0	46	0	190840832	60	25693
2026-01-29 08:49:31.51	172.04	26.02	-54.7	-56.5	19.3	0.00e+00	0	46	0	192937984	60	26089
2026-01-29 08:49:32.51	172.11	26.18	-54.7	-56.5	19.3	0.00e+00	0	46	0	195035136	60	26071
2026-01-29 08:49:33.52	172.17	26.34	-54.7	-56.5	19.3	0.00e+00	0	46	0	197132288	60	26233
2026-01-29 08:49:34.53	172.24	26.51	-54.9	-56.7	19.1	0.00e+00	0	46	0	199229440	60	26889
2026-01-29 08:49:35.54	172.31	26.68	-54.8	-56.7	19.2	0.00e+00	0	45	0	200278016	60	26802
2026-01-29 08:49:36.55	172.38	26.85	-55.0	-56.9	19.1	0.00e+00	0	46	0	202375168	60	27272
2026-01-29 08:49:37.55	172.45	27.01	-55.0	-57.0	19.0	0.00e+00	0	45	0	204472320	60	27620
2026-01-29 08:49:38.56	172.52	27.18	-55.1	-57.1	18.9	0.00e+00	0	45	0	206569472	60	28014
2026-01-29 08:49:39.56	172.59	27.35	-55.2	-57.2	18.7	0.00e+00	0	45	0	208666624	60	28528
2026-01-29 08:49:40.57	172.67	27.52	-55.2	-57.2	18.7	0.00e+00	0	46	0	210763776	60	28523
2026-01-29 08:49:41.58	172.74	27.70	-55.3	-57.3	18.6	0.00e+00	0	46	0	211812352	60	28872
2026-01-29 08:49:42.59	172.81	27.87	-55.4	-57.4	18.6	0.00e+00	0	45	0	213909504	60	29108
2026-01-29 08:49:43.60	172.89	28.04	-55.4	-57.5	18.7	0.00e+00	0	45	0	216006656	60	29263
2026-01-29 08:49:44.61	172.96	28.22	-55.5	-57.5	18.5	0.00e+00	0	45	0	218103808	60	29430
2026-01-29 08:49:45.61	173.04	28.40	-55.5	-57.6	18.5	0.00e+00	0	45	0	219152384	60	29705
2026-01-29 08:49:46.62	173.12	28.57	-55.6	-57.7	18.4	0.00e+00	0	46	0	221249536	60	30027
2026-01-29 08:49:47.63	173.19	28.75	-55.6	-57.6	18.4	0.00e+00	0	45	0	223346688	60	29891
2026-01-29 08:49:48.64	173.27	28.93	-55.7	-57.8	18.3	0.00e+00	0	46	0	225443840	60	30537
2026-01-29 08:49:49.64	173.35	29.11	-55.8	-57.9	18.3	0.00e+00	0	45	0	227540992	60	30731
2026-01-29 08:49:50.65	173.43	29.30	-55.8	-58.0	18.1	0.00e+00	0	45	0	229638144	60	31116
2026-01-29 08:49:51.66	173.51	29.48	-55.9	-58.1	18.0	0.00e+00	0	46	0	230686720	60	31449
2026-01-29 08:49:52.67	173.60	29.66	-55.9	-58.1	17.9	0.00e+00	0	45	0	232783872	60	31598
2026-01-29 08:49:53.68	173.68	29.85	-56.1	-58.4	17.7	0.00e+00	0	45	0	234881024	60	32532
2026-01-29 08:49:54.69	173.76	30.04	-56.1	-58.4	17.6	0.00e+00	0	45	0	236978176	60	32775
2026-01-29 08:49:55.69	173.85	30.22	-56.3	-58.7	17.5	0.00e+00	0	46	0	239075328	60	33551
2026-01-29 08:49:56.70	173.93	30.41	-56.2	-58.6	17.5	0.00e+00	0	45	0	240123904	60	33411
2026-01-29 08:49:57.71	174.02	30.60	-56.3	-58.7	17.4	0.00e+00	0	46	0	242221056	60	33558
2026-01-29 08:49:58.72	174.11	30.80	-56.3	-58.7	17.4	0.00e+00	0	46	0	244318208	60	33905
2026-01-29 08:49:59.73	174.20	30.99	-56.3	-58.7	17.4	0.00e+00	0	45	0	246415360	60	33674
2026-01-29 08:50:00.74	174.29	31.18	-56.2	-58.6	17.5	0.00e+00	0	46	0	247463936	60	33383
2026-01-29 08:50:01.74	174.38	31.38	-56.3	-58.8	17.3	0.00e+00	0	45	0	249561088	60	34072
2026-01-29 08:50:02.75	174.47	31.57	-56.3	-58.8	17.4	0.00e+00	0	45	0	251658240	60	34023
2026-01-29 08:50:03.76	174.56	31.77	-56.4	-58.9	17.2	0.00e+00	0	45	0	253755392	60	34573
2026-01-29 08:50:04.77	174.66	31.97	-56.3	-58.8	17.3	0.00e+00	0	45	0	255852544	60	34272
2026-01-29 08:50:05.77	174.75	32.17	-56.4	-58.9	17.3	0.00e+00	0	45	0	257949696	60	34476
2026-01-29 08:50:06.78	174.85	32.37	-56.5	-59.0	17.1	0.00e+00	0	45	0	258998272	60	35031
2026-01-29 08:50:07.79	174.95	32.57	-56.5	-59.0	17.2	0.00e+00	0	45	0	261095424	60	34768
2026-01-29 08:50:08.80	175.04	32.78	-56.5	-58.9	17.4	0.00e+00	0	45	0	263192576	60	34455
2026-01-29 08:50:09.81	175.14	32.98	-56.4	-58.8	17.5	0.00e+00	0	45	0	265289728	60	34176
2026-01-29 08:50:10.82	175.25	33.19	-56.4	-58.7	17.6	0.00e+00	0	45	0	267386880	60	33602
2026-01-29 08:50:11.82	175.35	33.40	-56.3	-58.6	17.7	0.00e+00	0	45	0	268435456	60	33415
2026-01-29 08:50:12.83	175.45	33.61	-56.1	-58.3	18.0	0.00e+00	0	45	0	270532608	60	32215
2026-01-29 08:50:13.84	175.56	33.82	-56.0	-58.2	18.1	0.00e+00	0	45	0	272629760	60	31791
2026-01-29 08:50:14.84	175.66	34.03	-56.0	-58.2	18.1	0.00e+00	0	45	0	274726912	60	31892
2026-01-29 08:50:15.85	175.77	34.24	-56.0	-58.1	18.1	0.00e+00	0	45	0	276824064	60	31640
2026-01-29 08:50:16.85	175.88	34.46	-55.9	-58.0	18.2	0.00e+00	0	45	0	277872640	60	31151
2026-01-29 08:50:17.86	175.99	34.67	-56.0	-58.2	18.0	0.00e+00	0	45	0	279969792	60	31798
2026-01-29 08:50:18.87	176.10	34.89	-56.1	-58.3	17.9	0.00e+00	0	45	0	282066944	60	32201
2026-01-29 08:50:19.88	176.21	35.11	-56.0	-58.3	17.8	0.00e+00	0	45	0	284164096	60	32240
2026-01-29 08:50:20.89	176.33	35.33	-56.0	-58.2	17.9	0.00e+00	0	46	0	286261248	60	31778
2026-01-29 08:50:21.89	176.44	35.55	-55.9	-58.0	18.1	0.00e+00	0	45	0	287309824	60	31298
2026-01-29 08:50:22.90	176.56	35.77	-55.9	-58.1	18.1	0.00e+00	0	45	0	289406976	60	31447
2026-01-29 08:50:23.91	176.68	36.00	-55.8	-57.9	18.3	0.00e+00	0	45	0	291504128	60	30865
2026-01-29 08:50:24.92	176.80	36.22	-55.8	-57.9	18.4	0.00e+00	0	45	0	293601280	60	30619
2026-01-29 08:50:25.93	176.92	36.45	-55.8	-57.8	18.4	0.00e+00	0	45	0	295698432	60	30431
2026-01-29 08:50:26.93	177.05	36.68	-55.8	-57.8	18.2	0.00e+00	0	46	0	296747008	60	30444
2026-01-29 08:50:27.94	177.17	36.91	-56.0	-58.1	18.1	0.00e+00	0	46	0	298844160	60	31616
2026-01-29 08:50:28.95	177.30	37.14	-55.9	-58.1	18.1	0.00e+00	0	45	0	300941312	60	31413
2026-01-29 08:50:29.95	177.43	37.37	-55.9	-58.1	18.0	0.00e+00	0	45	0	303038464	60	31467
2026-01-29 08:50:30.95	177.56	37.61	-56.1	-58.3	17.9	0.00e+00	0	45	0	305135616	60	32385
2026-01-29 08:50:31.95	177.69	37.84	-56.1	-58.4	17.7	0.00e+00	0	45	0	306184192	60	32614
2026-01-29 08:50:32.96	177.82	38.08	-56.2	-58.5	17.8	0.00e+00	0	46	0	308281344	60	32838
2026-01-29 08:50:33.96	177.96	38.32	-56.3	-58.7	17.6	0.00e+00	0	45	0	310378496	60	33548
2026-01-29 08:50:34.97	178.10	38.56	-56.4	-58.8	17.4	0.00e+00	0	45	0	312475648	60	34254
2026-01-29 08:50:35.97	178.24	38.80	-56.6	-59.1	17.2	0.00e+00	0	45	0	314572800	60	35126
2026-01-29 08:50:36.98	178.38	39.04	-56.7	-59.2	17.0	0.00e+00	0	45	0	315621376	60	35714
2026-01-29 08:50:37.98	178.53	39.29	-56.8	-59.4	16.8	0.00e+00	0	45	0	317718528	60	36607
2026-01-29 08:50:38.98	178.67	39.53	-57.0	-59.7	16.5	0.00e+00	0	45	0	319815680	60	37905
2026-01-29 08:50:39.99	178.82	39.78	-57.1	-59.9	16.1	0.00e+00	0	45	0	321912832	60	38818
2026-01-29 08:50:40.99	178.97	40.03	-57.4	-60.5	15.6	0.00e+00	0	45	0	324009984	60	41303
2026-01-29 08:50:41.99	179.12	40.28	-57.5	-60.6	15.6	0.00e+00	0	45	0	325058560	60	41795
2026-01-29 08:50:43.00	179.28	40.53	-57.2	-60.1	16.4	0.00e+00	0	45	0	327155712	60	39450
2026-01-29 08:50:44.00	179.44	40.78	-57.2	-60.2	15.8	0.00e+00	0	45	0	329252864	60	39899
2026-01-29 08:50:45.00	179.60	41.04	-58.6	-62.8	12.7	7.00e-07	0	46	0	331350016	60	54210
2026-01-29 08:50:46.01	179.76	41.30	-60.6	-74.4	3.6	2.23e-01	0	46	104	332398592	60	204562
2026-01-29 08:50:47.02	179.92	41.56	-61.2	-77.7	3.6	1.51e+00	0	46	104	332398592	60	300793
2026-01-29 08:50:48.03	180.09	41.82	-61.3	-77.9	3.6	1.51e+00	0	46	104	332398592	60	306013
2026-01-29 08:50:49.03	180.26	42.08	-61.6	-78.1	3.6	1.51e+00	0	46	104	332398592	60	313534
2026-01-29 08:50:50.04	180.44	42.34	-61.7	-78.3	3.6	1.51e+00	0	46	104	332398592	60	322028
2026-01-29 08:50:51.05	180.61	42.61	-61.4	-78.2	3.6	1.51e+00	0	46	104	332398592	60	316840
2026-01-29 08:50:52.05	180.79	42.87	-60.5	-78.3	3.6	1.51e+00	0	45	104	332398592	60	321989
2026-01-29 08:50:53.06	180.97	43.14	-58.6	-77.9	3.6	1.51e+00	0	46	104	332398592	60	308772
2026-01-29 08:50:54.06	181.16	43.41	-58.2	-77.4	3.6	1.51e+00	0	45	104	332398592	60	290294
2026-01-29 08:50:55.07	181.35	43.68	-59.3	-77.6	3.6	1.51e+00	0	46	104	332398592	60	298856
2026-01-29 08:50:56.07	181.54	43.96	-59.9	-78.1	3.6	1.51e+00	0	46	104	332398592	60	315790
2026-01-29 08:50:57.08	181.73	44.23	-59.9	-78.1	3.6	1.51e+00	0	45	104	332398592	60	313273
2026-01-29 08:50:58.09	181.93	44.51	-59.9	-77.9	3.6	1.51e+00	0	46	104	332398592	60	309239
2026-01-29 08:50:59.10	182.13	44.79	-59.9	-77.9	3.6	1.51e+00	0	46	104	332398592	60	309151
2026-01-29 08:51:00.10	182.34	45.07	-59.8	-77.9	3.6	1.51e+00	0	46	104	332398592	60	308159
2026-01-29 08:51:01.11	182.55	45.35	-59.8	-78.0	3.6	1.51e+00	0	46	104	332398592	60	312222
2026-01-29 08:51:02.11	182.76	45.63	-59.7	-77.7	3.6	1.51e+00	0	46	104	332398592	60	301261
2026-01-29 08:51:03.12	182.97	45.92	-59.7	-77.8	3.6	1.51e+00	0	46	104	332398592	60	305354
2026-01-29 08:51:04.12	183.19	46.20	-59.7	-77.7	3.6	1.51e+00	0	46	104	332398592	60	301536
2026-01-29 08:51:05.13	183.42	46.49	-59.6	-77.8	3.6	1.51e+00	0	46	104	332398592	60	303745
2026-01-29 08:51:06.13	183.64	46.77	-59.6	-77.9	3.6	1.51e+00	0	46	104	332398592	60	307004
2026-01-29 08:51:07.13	183.87	47.06	-59.7	-77.8	3.6	1.51e+00	0	45	104	332398592	60	302895
2026-01-29 08:51:08.13	184.11	47.35	-59.6	-77.7	3.6	1.51e+00	0	46	104	332398592	60	302380
2026-01-29 08:51:09.14	184.35	47.65	-59.6	-77.9	3.6	1.51e+00	0	46	104	332398592	60	306072
2026-01-29 08:51:10.14	184.59	47.94	-59.7	-77.7	3.6	1.51e+00	0	46	104	332398592	60	299385
2026-01-29 08:51:11.15	184.84	48.24	-59.7	-77.9	3.6	1.51e+00	0	46	104	332398592	60	306268
2026-01-29 08:51:12.16	185.10	48.54	-59.6	-77.8	3.6	1.51e+00	0	46	104	332398592	60	305381
2026-01-29 08:51:13.17	185.36	48.84	-59.6	-77.7	3.6	1.51e+00	0	46	104	332398592	60	302075
2026-01-29 08:51:14.17	185.62	49.14	-58.7	-77.7	3.6	1.51e+00	0	46	104	332398592	60	300760
2026-01-29 08:51:15.18	185.89	49.44	-58.5	-77.8	3.6	1.51e+00	0	46	104	332398592	60	304539
2026-01-29 08:51:16.19	186.17	49.75	-61.0	-78.3	3.6	1.51e+00	0	46	104	332398592	60	324002
2026-01-29 08:51:17.19	186.44	50.05	-61.8	-78.5	3.6	1.51e+00	0	46	104	332398592	60	327924
2026-01-29 08:51:18.20	186.73	50.36	-62.0	-78.6	3.6	1.51e+00	0	46	104	332398592	60	332289
2026-01-29 08:51:19.21	187.02	50.66	-61.5	-78.2	3.6	1.51e+00	0	46	104	332398592	60	316907
2026-01-29 08:51:20.22	187.32	50.97	-61.7	-78.2	3.6	1.51e+00	0	46	104	332398592	60	319650
2026-01-29 08:51:21.23	187.63	51.29	-56.6	-58.5	6.1	1.50e+00	0	46	104	332398592	60	33052
2026-01-29 08:51:22.24	187.94	51.60	-55.5	-57.1	20.2	0.00e+00	0	45	0	332398592	60	27960
2026-01-29 08:51:23.25	188.25	51.91	-57.1	-59.3	17.9	0.00e+00	0	45	0	2097152	60	36159
2026-01-29 08:51:24.25	188.58	52.22	-61.6	-75.5	3.7	1.02e-01	0	45	104	3145728	60	234335
2026-01-29 08:51:25.25	188.90	52.54	-59.4	-63.5	13.7	4.50e-06	0	45	0	3145728	60	58794
2026-01-29 08:51:26.25	189.24	52.85	-61.0	-69.0	9.5	5.93e-02	0	45	0	2097152	60	109903
2026-01-29 08:51:27.26	189.58	53.17	-61.5	-72.4	4.5	5.64e-05	0	45	0	3145728	60	164114
2026-01-29 08:51:28.27	189.94	53.49	-56.0	-57.8	19.4	3.36e-02	0	46	0	5242880	60	30414
2026-01-29 08:51:29.28	190.30	53.81	-55.3	-56.9	20.1	0.00e+00	0	45	0	7340032	60	27517
2026-01-29 08:51:30.27	190.66	54.12	-54.5	-55.9	20.8	0.00e+00	0	46	0	9437184	60	24546
2026-01-29 08:51:31.28	191.03	54.44	-54.4	-55.8	20.8	0.00e+00	0	46	0	10485760	60	24126
2026-01-29 08:51:32.28	191.41	54.76	-53.7	-55.0	21.7	0.00e+00	0	45	0	12582912	60	22059
2026-01-29 08:51:33.28	191.80	55.08	-52.7	-53.8	22.7	0.00e+00	0	46	0	14680064	60	19298
2026-01-29 08:51:34.28	192.20	55.40	-52.9	-54.1	22.5	0.00e+00	0	46	0	16777216	60	19762
2026-01-29 08:51:35.29	192.61	55.72	-53.3	-54.5	22.0	0.00e+00	0	46	0	18874368	60	20911
2026-01-29 08:51:36.29	193.03	56.05	-54.0	-55.3	21.5	0.00e+00	0	45	0	19922944	60	22811
2026-01-29 08:51:37.30	193.46	56.37	-54.1	-55.4	21.4	0.00e+00	0	45	0	22020096	60	23125
2026-01-29 08:51:38.30	193.90	56.69	-54.4	-55.8	20.9	0.00e+00	0	45	0	24117248	60	24116
2026-01-29 08:51:39.31	194.35	57.02	-54.7	-56.2	20.6	0.00e+00	0	45	0	26214400	60	25339
2026-01-29 08:51:40.31	194.81	57.34	-54.8	-56.3	20.5	0.00e+00	0	45	0	28311552	60	25643
2026-01-29 08:51:41.31	195.27	57.66	-54.9	-56.4	20.3	0.00e+00	0	45	0	29360128	60	25946
2026-01-29 08:51:42.32	195.76	57.99	-54.9	-56.4	20.4	0.00e+00	0	45	0	31457280	60	25907
2026-01-29 08:51:43.33	196.25	58.31	-55.0	-56.5	20.2	0.00e+00	0	45	0	33554432	60	26291
2026-01-29 08:51:44.33	196.76	58.64	-55.4	-57.1	19.8	0.00e+00	0	45	0	35651584	60	27948
2026-01-29 08:51:45.34	197.28	58.96	-55.6	-57.4	19.5	0.00e+00	0	45	0	36700160	60	28895
2026-01-29 08:51:46.34	197.81	59.28	-55.7	-57.6	19.3	0.00e+00	0	45	0	38797312	60	29567
2026-01-29 08:51:47.34	198.35	59.60	-55.3	-57.0	19.7	0.00e+00	0	45	0	40894464	60	27886
2026-01-29 08:51:48.35	198.91	59.93	-54.8	-56.4	20.4	0.00e+00	0	45	0	42991616	60	25895
2026-01-29 08:51:49.35	199.48	60.25	-54.7	-56.3	20.4	0.00e+00	0	46	0	45088768	60	25606
2026-01-29 08:51:50.35	200.06	60.56	-54.0	-55.3	21.3	0.00e+00	0	45	0	47185920	60	22873
2026-01-29 08:51:51.35	200.65	60.88	-53.0	-54.2	22.3	0.00e+00	0	45	0	48234496	60	20188
2026-01-29 08:51:52.36	201.27	61.20	-52.6	-53.8	22.7	0.00e+00	0	45	0	50331648	60	19153
2026-01-29 08:51:53.37	201.91	61.52	-52.7	-53.8	22.6	0.00e+00	0	45	0	52428800	60	19209
2026-01-29 08:51:54.37	202.55	61.83	-52.7	-53.8	22.5	0.00e+00	0	45	0	54525952	60	19275
2026-01-29 08:51:55.37	203.21	62.14	-52.6	-53.7	22.6	0.00e+00	0	45	0	56623104	60	19047
2026-01-29 08:51:56.38	203.90	62.46	-52.7	-53.8	22.5	0.00e+00	0	45	0	57671680	60	19207
2026-01-29 08:51:57.39	204.60	62.77	-52.8	-53.9	22.5	0.00e+00	0	45	0	59768832	60	19503
2026-01-29 08:51:58.39	205.31	63.07	-53.0	-54.3	22.2	0.00e+00	0	45	0	61865984	60	20257
2026-01-29 08:51:59.39	206.04	63.37	-53.1	-54.3	22.0	0.00e+00	0	45	0	63963136	60	20352
2026-01-29 08:52:00.40	206.80	63.68	-53.5	-54.8	21.7	0.00e+00	0	45	0	65011712	60	21464
2026-01-29 08:52:01.39	207.56	63.97	-53.7	-55.1	21.4	0.00e+00	0	45	0	67108864	60	22260
2026-01-29 08:52:02.40	208.36	64.27	-54.0	-55.4	21.1	0.00e+00	0	46	0	69206016	60	23100
2026-01-29 08:52:03.40	209.17	64.56	-54.1	-55.5	20.9	0.00e+00	0	45	0	71303168	60	23406
2026-01-29 08:52:04.41	210.01	64.85	-54.5	-56.1	20.4	0.00e+00	0	46	0	73400320	60	25009
2026-01-29 08:52:05.41	210.86	65.13	-54.6	-56.2	20.4	0.00e+00	0	46	0	74448896	60	25274
2026-01-29 08:52:06.41	211.73	65.41	-54.3	-55.9	20.8	0.00e+00	0	45	0	76546048	60	24367
2026-01-29 08:52:07.42	212.64	65.69	-53.9	-55.4	21.2	0.00e+00	0	46	0	78643200	60	23063
2026-01-29 08:52:08.43	213.56	65.97	-54.1	-55.6	20.8	0.00e+00	0	46	0	80740352	60	23728
2026-01-29 08:52:09.43	214.50	66.23	-54.8	-56.4	20.1	0.00e+00	0	45	0	82837504	60	25984
2026-01-29 08:52:10.43	215.47	66.49	-54.7	-56.3	20.3	0.00e+00	0	45	0	83886080	60	25617
2026-01-29 08:52:11.44	216.46	66.75	-54.6	-56.2	20.3	0.00e+00	0	45	0	85983232	60	25224
2026-01-29 08:52:12.44	217.48	67.00	-54.7	-56.3	20.3	0.00e+00	0	45	0	88080384	60	25677
2026-01-29 08:52:13.45	218.52	67.25	-54.8	-56.4	20.1	0.00e+00	0	45	0	90177536	60	26022
2026-01-29 08:52:14.45	219.58	67.49	-55.0	-56.7	19.8	0.00e+00	0	46	0	92274688	60	26942
2026-01-29 08:52:15.46	220.68	67.72	-55.1	-56.8	19.8	0.00e+00	0	45	0	93323264	60	27179
2026-01-29 08:52:16.46	221.78	67.94	-55.2	-57.0	19.4	0.00e+00	0	45	0	95420416	60	27815
2026-01-29 08:52:17.47	222.93	68.16	-55.1	-57.0	19.4	0.00e+00	0	45	0	97517568	60	27730
2026-01-29 08:52:18.47	224.08	68.37	-55.6	-57.6	19.0	0.00e+00	0	45	0	99614720	60	29695
2026-01-29 08:52:19.47	225.26	68.57	-55.8	-57.9	18.7	0.00e+00	0	45	0	101711872	60	30771
2026-01-29 08:52:20.47	226.47	68.77	-55.6	-57.7	18.8	0.00e+00	0	45	0	102760448	60	29973
2026-01-29 08:52:21.48	227.71	68.96	-55.5	-57.5	18.9	0.00e+00	0	45	0	104857600	60	29473
2026-01-29 08:52:22.48	228.96	69.13	-55.2	-57.2	19.1	0.00e+00	0	45	0	106954752	60	28294
2026-01-29 08:52:23.48	230.23	69.30	-55.3	-57.3	18.9	0.00e+00	0	46	0	109051904	60	28678
2026-01-29 08:52:24.49	231.54	69.46	-55.8	-58.0	18.3	0.00e+00	0	45	0	111149056	60	31045
2026-01-29 08:52:25.49	232.86	69.61	-55.8	-58.3	18.0	0.00e+00	0	46	0	112197632	60	32079
2026-01-29 08:52:26.49	234.19	69.75	-55.4	-57.7	18.5	0.00e+00	0	46	0	114294784	60	30087
2026-01-29 08:52:27.49	235.55	69.88	-54.9	-56.9	19.5	0.00e+00	0	45	0	116391936	60	27392
2026-01-29 08:52:28.49	236.92	69.99	-54.9	-56.8	19.5	0.00e+00	0	45	0	118489088	60	27262
2026-01-29 08:52:29.49	238.31	70.10	-55.3	-57.5	18.7	0.00e+00	0	45	0	120586240	60	29404
2026-01-29 08:52:30.49	239.71	70.20	-55.4	-57.8	18.4	0.00e+00	0	45	0	121634816	60	30472
2026-01-29 08:52:31.50	241.15	70.29	-54.9	-57.0	19.2	0.00e+00	0	46	0	123731968	60	27814
2026-01-29 08:52:32.51	242.59	70.36	-54.6	-56.5	19.8	0.00e+00	0	45	0	125829120	60	26136
2026-01-29 08:52:33.52	244.05	70.42	-54.2	-56.0	20.2	0.00e+00	0	45	0	127926272	60	24673
2026-01-29 08:52:34.52	245.50	70.47	-53.6	-55.3	20.8	0.00e+00	0	45	0	128974848	60	22722
2026-01-29 08:52:35.52	246.96	70.51	-53.4	-55.1	21.0	0.00e+00	0	46	0	131072000	60	22339
2026-01-29 08:52:36.52	248.42	70.54	-53.1	-54.8	21.1	0.00e+00	0	46	0	133169152	60	21571
2026-01-29 08:52:37.52	249.88	70.56	-53.0	-54.7	21.3	0.00e+00	0	45	0	135266304	60	21265
2026-01-29 08:52:38.52	251.35	70.56	-53.2	-55.0	21.0	0.00e+00	0	45	0	137363456	60	22120
2026-01-29 08:52:39.52	252.82	70.55	-53.2	-55.1	20.9	0.00e+00	0	46	0	138412032	60	22279
2026-01-29 08:52:40.53	254.30	70.53	-52.3	-54.0	21.8	0.00e+00	0	46	0	140509184	60	19713
2026-01-29 08:52:41.54	255.77	70.50	-52.0	-53.8	21.7	0.00e+00	0	45	0	142606336	60	19233
2026-01-29 08:52:42.54	257.23	70.46	-52.4	-54.5	21.1	0.00e+00	0	45	0	144703488	60	20713
2026-01-29 08:52:43.55	258.69	70.40	-53.1	-55.5	20.3	0.00e+00	0	45	0	146800640	60	23318
2026-01-29 08:52:44.55	260.13	70.33	-53.1	-55.6	19.9	0.00e+00	0	45	0	148897792	60	23632
2026-01-29 08:52:45.56	261.57	70.25	-52.7	-55.3	20.2	0.00e+00	0	45	0	149946368	60	22826
2026-01-29 08:52:46.57	262.99	70.16	-52.5	-55.2	20.0	0.00e+00	0	45	0	152043520	60	22506
2026-01-29 08:52:47.57	264.39	70.06	-53.1	-56.2	18.9	0.00e+00	0	45	0	154140672	60	25220
2026-01-29 08:52:48.58	265.79	69.95	-53.5	-57.0	18.1	0.00e+00	0	45	0	156237824	60	27777
2026-01-29 08:52:49.59	267.17	69.83	-53.3	-56.8	18.2	0.00e+00	0	45	0	157286400	60	27103
2026-01-29 08:52:50.59	268.51	69.69	-53.4	-56.9	18.0	0.00e+00	0	46	0	159383552	60	27521
2026-01-29 08:52:51.59	269.84	69.55	-54.1	-58.7	16.3	0.00e+00	0	46	0	161480704	60	33626
2026-01-29 08:52:52.60	271.16	69.40	-54.5	-59.4	15.8	0.00e+00	0	46	0	163577856	60	36538
2026-01-29 08:52:53.60	272.44	69.23	-54.5	-59.0	16.1	0.00e+00	0	46	0	165675008	60	34822
2026-01-29 08:52:54.61	273.72	69.06	-54.2	-57.9	17.4	0.00e+00	0	46	0	166723584	60	30739
2026-01-29 08:52:55.61	274.96	68.88	-54.0	-57.1	18.2	0.00e+00	0	46	0	168820736	60	28142
2026-01-29 08:52:56.62	276.19	68.69	-54.6	-57.9	17.7	0.00e+00	0	46	0	170917888	60	30676
2026-01-29 08:52:57.62	277.38	68.49	-55.4	-59.0	16.8	0.00e+00	0	46	0	173015040	60	34780
2026-01-29 08:52:58.63	278.57	68.29	-55.1	-58.1	17.7	0.00e+00	0	46	0	175112192	60	31450
2026-01-29 08:52:59.64	279.72	68.07	-55.0	-57.8	18.2	0.00e+00	0	45	0	176160768	60	30357
2026-01-29 08:53:00.64	280.84	67.85	-55.5	-58.4	17.7	0.00e+00	0	45	0	178257920	60	32558
2026-01-29 08:53:01.65	281.95	67.62	-55.1	-57.7	18.4	0.00e+00	0	45	0	180355072	60	30049
2026-01-29 08:53:02.65	283.02	67.39	-54.0	-56.0	20.2	0.00e+00	0	45	0	182452224	60	24765
2026-01-29 08:53:03.66	284.08	67.15	-53.7	-55.5	20.7	0.00e+00	0	45	0	184549376	60	23378
2026-01-29 08:53:04.67	285.12	66.90	-53.6	-55.4	20.8	0.00e+00	0	45	0	185597952	60	23034
2026-01-29 08:53:05.67	286.12	66.64	-54.1	-56.1	20.0	0.00e+00	0	45	0	187695104	60	24950
2026-01-29 08:53:06.68	287.10	66.38	-55.2	-57.7	18.7	0.00e+00	0	45	0	189792256	60	29971
2026-01-29 08:53:07.69	288.06	66.12	-54.9	-57.4	19.1	0.00e+00	0	45	0	191889408	60	29200
2026-01-29 08:53:08.69	288.99	65.85	-54.2	-56.6	19.6	0.00e+00	0	46	0	193986560	60	26408
2026-01-29 08:53:09.70	289.91	65.58	-53.9	-56.2	20.0	0.00e+00	0	45	0	195035136	60	25226
2026-01-29 08:53:10.70	290.79	65.30	-54.4	-57.2	18.9	0.00e+00	0	45	0	197132288	60	28494
2026-01-29 08:53:11.71	291.66	65.02	-54.1	-57.2	19.1	0.00e+00	0	46	0	199229440	60	28229
2026-01-29 08:53:12.71	292.51	64.73	-53.7	-56.7	19.1	0.00e+00	0	46	0	201326592	60	26948
2026-01-29 08:53:13.72	293.33	64.44	-53.5	-56.8	19.0	0.00e+00	0	45	0	203423744	60	27111
2026-01-29 08:53:14.73	294.14	64.14	-53.6	-56.9	18.8	0.00e+00	0	46	0	204472320	60	27527
2026-01-29 08:53:15.74	294.93	63.85	-53.8	-57.0	19.1	0.00e+00	0	46	0	206569472	60	27701
2026-01-29 08:53:16.74	295.69	63.55	-53.4	-56.2	19.9	0.00e+00	0	46	0	208666624	60	25307
2026-01-29 08:53:17.75	296.44	63.24	-52.9	-55.1	21.0	0.00e+00	0	46	0	210763776	60	22360
2026-01-29 08:53:18.75	297.16	62.94	-52.5	-54.4	21.6	0.00e+00	0	46	0	212860928	60	20577
2026-01-29 08:53:19.76	297.87	62.63	-52.8	-54.6	21.3	0.00e+00	0	45	0	213909504	60	21134
2026-01-29 08:53:20.77	298.56	62.32	-52.9	-54.8	21.2	0.00e+00	0	45	0	216006656	60	21522
2026-01-29 08:53:21.77	299.23	62.01	-51.8	-53.3	22.6	0.00e+00	0	45	0	218103808	60	18118
2026-01-29 08:53:22.77	299.88	61.70	-50.6	-51.9	23.8	0.00e+00	0	46	0	220200960	60	15450
2026-01-29 08:53:23.78	300.53	61.38	-50.6	-51.9	23.6	0.00e+00	0	45	0	222298112	60	15436
2026-01-29 08:53:24.79	301.15	61.07	-51.1	-52.5	23.3	0.00e+00	0	45	0	223346688	60	16569
2026-01-29 08:53:25.79	301.76	60.75	-51.3	-52.8	23.0	0.00e+00	0	45	0	225443840	60	17089
2026-01-29 08:53:26.80	302.35	60.43	-50.9	-52.2	23.6	0.00e+00	0	45	0	227540992	60	16015
2026-01-29 08:53:27.81	302.93	60.11	-50.7	-51.9	24.0	0.00e+00	0	45	0	229638144	60	15367
2026-01-29 08:53:28.81	303.49	59.79	-50.4	-51.5	24.3	0.00e+00	0	45	0	231735296	60	14657
2026-01-29 08:53:29.82	304.05	59.47	-51.3	-52.5	23.5	0.00e+00	0	45	0	232783872	60	16454
2026-01-29 08:53:30.82	304.58	59.15	-52.4	-53.7	22.4	0.00e+00	0	45	0	234881024	60	18958
2026-01-29 08:53:31.83	305.11	58.82	-52.5	-53.8	22.5	0.00e+00	0	45	0	236978176	60	19189
2026-01-29 08:53:32.83	305.62	58.50	-52.0	-53.2	23.0	0.00e+00	0	45	0	239075328	60	17824
2026-01-29 08:53:33.84	306.12	58.18	-52.2	-53.5	22.7	0.00e+00	0	45	0	241172480	60	18453
2026-01-29 08:53:34.85	306.61	57.85	-53.0	-54.4	21.6	0.00e+00	0	45	0	242221056	60	20652
2026-01-29 08:53:35.85	307.08	57.53	-54.1	-56.1	19.9	0.00e+00	0	46	0	244318208	60	24989
2026-01-29 08:53:36.86	307.55	57.21	-54.8	-57.5	18.6	0.00e+00	0	45	0	246415360	60	29446
2026-01-29 08:53:37.87	308.00	56.88	-54.3	-56.8	19.5	0.00e+00	0	45	0	248512512	60	27215
2026-01-29 08:53:38.87	308.44	56.56	-52.6	-54.5	21.5	0.00e+00	0	45	0	250609664	60	20818
2026-01-29 08:53:39.87	308.88	56.24	-52.1	-53.7	22.2	0.00e+00	0	45	0	251658240	60	18948
2026-01-29 08:53:40.88	309.30	55.92	-52.8	-54.5	21.3	0.00e+00	0	45	0	253755392	60	20759
2026-01-29 08:53:41.88	309.71	55.60	-53.9	-55.8	20.1	0.00e+00	0	45	0	255852544	60	24273
2026-01-29 08:53:42.88	310.12	55.28	-54.1	-56.2	19.9	0.00e+00	0	46	0	257949696	60	25246
2026-01-29 08:53:43.89	310.51	54.96	-52.6	-54.3	21.4	0.00e+00	0	45	0	260046848	60	20432
2026-01-29 08:53:44.89	310.90	54.64	-51.2	-52.6	23.0	0.00e+00	0	46	0	261095424	60	16797
2026-01-29 08:53:45.89	311.28	54.32	-50.8	-52.1	23.5	0.00e+00	0	45	0	263192576	60	15777
2026-01-29 08:53:46.90	311.65	54.00	-50.6	-51.8	23.8	0.00e+00	0	46	0	265289728	60	15194
2026-01-29 08:53:47.90	312.01	53.68	-51.1	-52.3	23.5	0.00e+00	0	46	0	267386880	60	16062
2026-01-29 08:53:48.90	312.36	53.37	-51.5	-52.6	23.0	0.00e+00	0	46	0	269484032	60	16795
2026-01-29 08:53:49.90	312.71	53.05	-51.7	-52.9	22.9	0.00e+00	0	45	0	270532608	60	17241
2026-01-29 08:53:50.91	313.05	52.74	-51.5	-52.7	23.1	0.00e+00	0	46	0	272629760	60	16811
2026-01-29 08:53:51.91	313.38	52.43	-50.8	-51.9	23.9	0.00e+00	0	45	0	274726912	60	15362
2026-01-29 08:53:52.92	313.71	52.11	-50.6	-51.6	24.1	0.00e+00	0	45	0	276824064	60	14930
2026-01-29 08:53:53.92	314.02	51.80	-51.3	-52.3	23.4	0.00e+00	0	45	0	277872640	60	16173
2026-01-29 08:53:54.93	314.34	51.49	-52.3	-53.4	22.5	0.00e+00	0	45	0	279969792	60	18412
2026-01-29 08:53:55.93	314.64	51.18	-53.8	-55.4	20.7	0.00e+00	0	46	0	282066944	60	23069
2026-01-29 08:53:56.94	314.94	50.87	-54.0	-55.7	20.3	0.00e+00	0	46	0	284164096	60	23874
2026-01-29 08:53:57.94	315.24	50.57	-53.1	-54.7	21.0	0.00e+00	0	45	0	286261248	60	21257
2026-01-29 08:53:58.94	315.52	50.26	-52.5	-54.1	21.6	0.00e+00	0	45	0	287309824	60	19790
2026-01-29 08:53:59.95	315.81	49.96	-52.4	-53.8	22.0	0.00e+00	0	45	0	289406976	60	19222
2026-01-29 08:54:00.95	316.08	49.66	-53.1	-54.7	21.2	0.00e+00	0	45	0	291504128	60	21354
2026-01-29 08:54:01.95	316.35	49.36	-54.5	-56.5	19.5	0.00e+00	0	45	0	293601280	60	26234
2026-01-29 08:54:02.95	316.62	49.06	-55.9	-58.6	17.2	0.00e+00	0	45	0	295698432	60	33297
2026-01-29 08:54:03.96	316.88	48.76	-57.3	-61.3	14.4	0.00e+00	0	46	0	297795584	60	45755
2026-01-29 08:54:04.97	317.14	48.46	-57.0	-61.0	14.7	2.20e-06	0	46	0	298844160	60	44117
2026-01-29 08:54:05.97	317.39	48.16	-55.9	-59.1	16.7	0.00e+00	0	45	0	300941312	60	35491
2026-01-29 08:54:06.98	317.64	47.87	-55.0	-57.7	18.1	0.00e+00	0	45	0	303038464	60	30199
2026-01-29 08:54:07.98	317.88	47.58	-54.7	-57.3	18.5	0.00e+00	0	46	0	305135616	60	28781
2026-01-29 08:54:08.99	318.12	47.28	-55.0	-57.7	18.2	0.00e+00	0	45	0	306184192	60	30226
2026-01-29 08:54:10.00	318.35	46.99	-55.9	-59.1	17.0	0.00e+00	0	46	0	308281344	60	35174
2026-01-29 08:54:11.00	318.58	46.70	-56.8	-60.3	16.0	0.00e+00	0	46	0	310378496	60	40608
2026-01-29 08:54:12.00	318.81	46.42	-57.2	-60.5	15.6	0.00e+00	0	46	0	312475648	60	41484
2026-01-29 08:54:13.01	319.03	46.13	-57.0	-60.0	16.6	0.00e+00	0	45	0	314572800	60	39115
2026-01-29 08:54:14.01	319.25	45.85	-55.9	-58.2	18.2	0.00e+00	0	46	0	315621376	60	31947
2026-01-29 08:54:15.02	319.46	45.57	-54.8	-56.8	19.5	0.00e+00	0	45	0	317718528	60	27127
2026-01-29 08:54:16.02	319.67	45.29	-53.9	-55.6	20.7	0.00e+00	0	46	0	319815680	60	23659
2026-01-29 08:54:17.03	319.88	45.01	-53.3	-54.8	21.3	0.00e+00	0	45	0	321912832	60	21602
2026-01-29 08:54:18.04	320.08	44.73	-53.2	-54.7	21.5	0.00e+00	0	45	0	324009984	60	21187
2026-01-29 08:54:19.05	320.28	44.45	-53.6	-55.2	21.0	0.00e+00	0	45	0	325058560	60	22547
2026-01-29 08:54:20.05	320.48	44.18	-54.5	-56.5	19.6	0.00e+00	0	45	0	327155712	60	26171
2026-01-29 08:54:21.05	320.67	43.91	-55.7	-58.4	17.5	0.00e+00	0	45	0	329252864	60	32693
2026-01-29 08:54:22.06	320.86	43.63	-55.9	-58.8	17.2	0.00e+00	0	46	0	331350016	60	34320
2026-01-29 08:54:23.07	321.05	43.36	-54.9	-57.3	18.6	0.00e+00	0	45	0	333447168	60	28783
2026-01-29 08:54:24.08	321.23	43.09	-53.5	-55.3	20.6	0.00e+00	0	45	0	334495744	60	22761
2026-01-29 08:54:25.09	321.41	42.82	-52.8	-54.3	21.6	0.00e+00	0	45	0	336592896	60	20331
2026-01-29 08:54:26.09	321.59	42.56	-52.3	-53.6	22.3	0.00e+00	0	45	0	338690048	60	18845
2026-01-29 08:54:27.10	321.77	42.30	-52.1	-53.3	22.7	0.00e+00	0	45	0	340787200	60	18216
2026-01-29 08:54:28.11	321.94	42.03	-52.7	-54.0	22.1	0.00e+00	0	45	0	342884352	60	19716
2026-01-29 08:54:29.11	322.11	41.77	-53.5	-54.9	21.3	0.00e+00	0	45	0	343932928	60	21734
2026-01-29 08:54:30.12	322.27	41.51	-54.5	-56.1	20.0	0.00e+00	0	45	0	346030080	60	25073
2026-01-29 08:54:31.12	322.44	41.26	-55.2	-57.1	19.1	0.00e+00	0	45	0	348127232	60	27998
2026-01-29 08:54:32.13	322.60	41.00	-55.7	-57.8	18.5	0.00e+00	0	45	0	350224384	60	30386
2026-01-29 08:54:33.14	322.76	40.75	-55.4	-57.5	18.9	0.00e+00	0	45	0	352321536	60	29290
2026-01-29 08:54:34.15	322.92	40.49	-54.2	-55.9	20.2	0.00e+00	0	45	0	354418688	60	24410
2026-01-29 08:54:35.16	323.07	40.24	-53.1	-54.5	21.6	0.00e+00	0	45	0	355467264	60	20886
2026-01-29 08:54:36.17	323.23	39.99	-52.5	-53.9	22.1	0.00e+00	0	45	0	357564416	60	19378
2026-01-29 08:54:37.17	323.37	39.74	-52.4	-53.6	22.5	0.00e+00	0	45	0	359661568	60	18818
2026-01-29 08:54:38.18	323.52	39.50	-52.5	-53.7	22.4	0.00e+00	0	45	0	361758720	60	18905
2026-01-29 08:54:39.18	323.67	39.25	-52.5	-53.7	22.4	0.00e+00	0	45	0	362807296	60	18872
2026-01-29 08:54:40.19	323.81	39.01	-53.2	-54.5	21.5	0.00e+00	0	45	0	364904448	60	20833
2026-01-29 08:54:41.20	323.95	38.77	-54.2	-55.8	20.2	0.00e+00	0	45	0	367001600	60	24263
2026-01-29 08:54:42.21	324.09	38.53	-55.0	-57.0	18.9	0.00e+00	0	45	0	369098752	60	27896
2026-01-29 08:54:43.21	324.23	38.29	-55.3	-57.6	18.2	0.00e+00	0	45	0	371195904	60	29866
2026-01-29 08:54:44.22	324.37	38.05	-55.0	-57.4	18.3	0.00e+00	0	46	0	372244480	60	29073
2026-01-29 08:54:45.22	324.50	37.82	-54.4	-56.8	18.8	0.00e+00	0	46	0	374341632	60	27129
2026-01-29 08:54:46.23	324.63	37.58	-53.6	-55.7	20.0	0.00e+00	0	46	0	376438784	60	23897
2026-01-29 08:54:47.24	324.76	37.35	-52.7	-54.5	21.1	0.00e+00	0	46	0	378535936	60	20797
2026-01-29 08:54:48.25	324.89	37.11	-52.4	-54.1	21.6	0.00e+00	0	46	0	380633088	60	19800
2026-01-29 08:54:49.26	325.02	36.88	-52.4	-54.0	21.8	0.00e+00	0	46	0	382730240	60	19622
2026-01-29 08:54:50.26	325.14	36.66	-52.8	-54.4	21.6	0.00e+00	0	46	0	383778816	60	20472
2026-01-29 08:54:51.27	325.27	36.43	-53.1	-54.6	21.5	0.00e+00	0	46	0	385875968	60	21055
2026-01-29 08:54:52.28	325.39	36.20	-53.4	-55.0	21.2	0.00e+00	0	46	0	387973120	60	21929
2026-01-29 08:54:53.29	325.51	35.98	-53.6	-55.1	21.1	0.00e+00	0	46	0	390070272	60	22337
2026-01-29 08:54:54.29	325.63	35.76	-53.6	-55.1	21.0	0.00e+00	0	46	0	391118848	60	22360
2026-01-29 08:54:55.30	325.74	35.54	-53.7	-55.2	20.9	0.00e+00	0	45	0	393216000	60	22560
2026-01-29 08:54:56.31	325.86	35.31	-53.7	-55.3	20.7	0.00e+00	0	46	0	395313152	60	22821
2026-01-29 08:54:57.32	325.97	35.10	-53.9	-55.5	20.5	0.00e+00	0	46	0	397410304	60	23385
2026-01-29 08:54:58.32	326.09	34.88	-54.0	-55.6	20.4	0.00e+00	0	45	0	399507456	60	23608
2026-01-29 08:54:59.33	326.20	34.66	-54.3	-56.0	20.0	0.00e+00	0	46	0	400556032	60	24691
2026-01-29 08:55:00.34	326.31	34.45	-54.3	-56.0	20.1	0.00e+00	0	46	0	402653184	60	24727
2026-01-29 08:55:01.35	326.42	34.23	-54.3	-56.0	20.2	0.00e+00	0	46	0	404750336	60	24839
2026-01-29 08:55:02.36	326.52	34.02	-54.3	-56.1	20.1	0.00e+00	0	46	0	406847488	60	25051
2026-01-29 08:55:03.37	326.63	33.81	-54.2	-55.9	20.3	0.00e+00	0	45	0	408944640	60	24510
2026-01-29 08:55:04.38	326.73	33.60	-54.1	-55.9	20.3	0.00e+00	0	45	0	411041792	60	24419
2026-01-29 08:55:05.39	326.84	33.39	-54.1	-55.9	20.3	0.00e+00	0	45	0	412090368	60	24412
2026-01-29 08:55:06.40	326.94	33.19	-54.1	-56.0	20.3	0.00e+00	0	45	0	414187520	60	24677
2026-01-29 08:55:07.40	327.04	32.98	-54.1	-55.9	20.2	0.00e+00	0	46	0	416284672	60	24539
2026-01-29 08:55:08.40	327.14	32.78	-54.3	-56.2	20.0	0.00e+00	0	45	0	418381824	60	25277
2026-01-29 08:55:09.41	327.24	32.58	-54.5	-56.4	19.8	0.00e+00	0	46	0	419430400	60	25902
2026-01-29 08:55:10.42	327.33	32.38	-54.7	-56.6	19.8	0.00e+00	0	46	0	421527552	60	26410
2026-01-29 08:55:11.42	327.43	32.18	-54.9	-56.8	19.5	0.00e+00	0	46	0	423624704	60	27148
2026-01-29 08:55:12.43	327.52	31.98	-55.1	-57.1	19.2	0.00e+00	0	46	0	425721856	60	27985
2026-01-29 08:55:13.43	327.62	31.78	-55.3	-57.3	19.0	0.00e+00	0	46	0	427819008	60	28867
2026-01-29 08:55:14.44	327.71	31.59	-55.5	-57.6	18.4	0.00e+00	0	46	0	428867584	60	29742
2026-01-29 08:55:15.44	327.80	31.39	-55.9	-58.1	17.9	0.00e+00	0	46	0	430964736	60	31634
2026-01-29 08:55:16.44	327.89	31.20	-56.1	-58.5	17.6	0.00e+00	0	46	0	433061888	60	33008
2026-01-29 08:55:17.45	327.98	31.01	-56.1	-58.4	17.8	0.00e+00	0	46	0	435159040	60	32588
2026-01-29 08:55:18.45	328.07	30.82	-55.9	-58.1	18.1	0.00e+00	0	46	0	437256192	60	31661
2026-01-29 08:55:19.46	328.15	30.63	-55.8	-58.0	18.1	0.00e+00	0	46	0	439353344	60	31176
2026-01-29 08:55:20.46	328.24	30.44	-55.7	-57.8	18.3	0.00e+00	0	46	0	440401920	60	30386
2026-01-29 08:55:21.47	328.33	30.25	-55.5	-57.5	18.7	0.00e+00	0	46	0	442499072	60	29229
2026-01-29 08:55:22.47	328.41	30.06	-55.3	-57.3	18.8	0.00e+00	0	46	0	444596224	60	28589
2026-01-29 08:55:23.48	328.49	29.88	-55.1	-57.0	19.1	0.00e+00	0	46	0	446693376	60	27648
2026-01-29 08:55:24.49	328.58	29.69	-54.6	-56.3	19.7	0.00e+00	0	46	0	447741952	60	25730
2026-01-29 08:55:25.49	328.66	29.51	-54.3	-55.9	20.0	0.00e+00	0	46	0	449839104	60	24569
2026-01-29 08:55:26.50	328.74	29.33	-54.2	-55.8	20.2	0.00e+00	0	46	0	451936256	60	24132
2026-01-29 08:55:27.51	328.82	29.15	-53.8	-55.3	20.6	0.00e+00	0	46	0	454033408	60	22887
2026-01-29 08:55:28.52	328.90	28.97	-53.7	-55.2	20.7	0.00e+00	0	46	0	456130560	60	22563
2026-01-29 08:55:29.53	328.98	28.79	-53.7	-55.2	20.7	0.00e+00	0	46	0	457179136	60	22652
2026-01-29 08:55:30.53	329.06	28.61	-53.7	-55.3	20.6	0.00e+00	0	46	0	459276288	60	22729
2026-01-29 08:55:31.54	329.13	28.43	-53.7	-55.3	20.5	0.00e+00	0	45	0	461373440	60	22873
2026-01-29 08:55:32.55	329.21	28.26	-53.7	-55.5	20.4	0.00e+00	0	46	0	463470592	60	23268
2026-01-29 08:55:33.56	329.29	28.08	-53.7	-55.6	20.2	0.00e+00	0	45	0	465567744	60	23485
2026-01-29 08:55:34.57	329.36	27.91	-53.8	-55.7	20.1	0.00e+00	0	46	0	467664896	60	24009
2026-01-29 08:55:35.58	329.43	27.74	-53.9	-55.9	19.9	0.00e+00	0	46	0	468713472	60	24379
2026-01-29 08:55:36.58	329.51	27.57	-54.0	-55.9	19.9	0.00e+00	0	46	0	470810624	60	24429
2026-01-29 08:55:37.59	329.58	27.40	-54.0	-55.9	19.8	0.00e+00	0	45	0	472907776	60	24410
2026-01-29 08:55:38.59	329.65	27.23	-54.0	-55.8	20.0	0.00e+00	0	45	0	475004928	60	24209
2026-01-29 08:55:39.60	329.72	27.06	-54.0	-55.7	20.1	0.00e+00	0	46	0	476053504	60	23979
2026-01-29 08:55:40.60	329.79	26.89	-53.9	-55.5	20.4	0.00e+00	0	46	0	478150656	60	23360
2026-01-29 08:55:41.61	329.86	26.73	-53.7	-55.2	20.6	0.00e+00	0	46	0	480247808	60	22588
2026-01-29 08:55:42.61	329.93	26.56	-53.3	-54.8	21.0	0.00e+00	0	46	0	482344960	60	21451
2026-01-29 08:55:43.61	330.00	26.40	-53.1	-54.5	21.3	0.00e+00	0	46	0	484442112	60	20756
2026-01-29 08:55:44.62	330.06	26.23	-53.0	-54.4	21.3	0.00e+00	0	46	0	485490688	60	20461
2026-01-29 08:55:45.63	330.13	26.07	-52.7	-54.1	21.4	0.00e+00	0	46	0	487587840	60	19781
2026-01-29 08:55:46.64	330.20	25.91	-52.6	-53.9	21.8	0.00e+00	0	46	0	489684992	60	19347
2026-01-29 08:55:47.65	330.26	25.75	-52.5	-53.8	21.8	0.00e+00	0	45	0	491782144	60	19145
2026-01-29 08:55:48.64	330.33	25.59	-52.4	-53.6	21.9	0.00e+00	0	45	0	493879296	60	18843
2026-01-29 08:55:49.65	330.39	25.43	-52.3	-53.6	21.9	0.00e+00	0	46	0	495976448	60	18719
2026-01-29 08:55:50.65	330.46	25.28	-52.4	-53.6	21.9	0.00e+00	0	45	0	497025024	60	18821
2026-01-29 08:55:51.66	330.52	25.12	-52.2	-53.5	22.0	0.00e+00	0	46	0	499122176	60	18497
2026-01-29 08:55:52.67	330.58	24.96	-52.3	-53.6	21.9	0.00e+00	0	46	0	501219328	60	18697
2026-01-29 08:55:53.68	330.64	24.81	-52.4	-53.6	21.6	0.00e+00	0	45	0	503316480	60	18763
2026-01-29 08:55:54.68	330.71	24.65	-52.4	-53.7	21.9	0.00e+00	0	46	0	504365056	60	18887
2026-01-29 08:55:55.69	330.77	24.50	-52.4	-53.7	21.8	0.00e+00	0	45	0	506462208	60	18954
2026-01-29 08:55:56.70	330.83	24.35	-52.6	-53.9	21.6	0.00e+00	0	45	0	508559360	60	19449
2026-01-29 08:55:57.71	330.89	24.19	-52.6	-54.0	21.5	0.00e+00	0	46	0	510656512	60	19529
2026-01-29 08:55:58.71	330.95	24.04	-52.8	-54.1	21.5	0.00e+00	0	46	0	512753664	60	19855
2026-01-29 08:55:59.71	331.00	23.90	-52.8	-54.1	21.4	0.00e+00	0	45	0	513802240	60	19974
2026-01-29 08:56:00.72	331.06	23.75	-52.8	-54.1	21.2	0.00e+00	0	45	0	515899392	60	19960
2026-01-29 08:56:01.73	331.12	23.60	-52.6	-54.0	21.4	0.00e+00	0	46	0	517996544	60	19581
2026-01-29 08:56:02.73	331.18	23.45	-52.6	-53.9	21.4	0.00e+00	0	46	0	520093696	60	19513
2026-01-29 08:56:03.74	331.24	23.30	-52.5	-53.8	21.5	0.00e+00	0	46	0	522190848	60	19267
2026-01-29 08:56:04.75	331.29	23.16	-52.4	-53.8	21.5	0.00e+00	0	46	0	524288000	60	19148
2026-01-29 08:56:05.75	331.35	23.01	-52.3	-53.6	21.6	0.00e+00	0	46	0	525336576	60	18844
2026-01-29 08:56:06.76	331.40	22.87	-52.2	-53.5	21.8	0.00e+00	0	45	0	527433728	60	18577
2026-01-29 08:56:07.77	331.46	22.72	-52.2	-53.6	21.8	0.00e+00	0	46	0	529530880	60	18669
2026-01-29 08:56:08.77	331.51	22.58	-52.2	-53.5	21.8	0.00e+00	0	45	0	531628032	60	18541
2026-01-29 08:56:09.78	331.57	22.44	-52.2	-53.5	21.9	0.00e+00	0	46	0	532676608	60	18562
2026-01-29 08:56:10.78	331.62	22.30	-52.2	-53.6	21.8	0.00e+00	0	46	0	534773760	60	18746
2026-01-29 08:56:11.79	331.67	22.16	-52.2	-53.6	21.8	0.00e+00	0	46	0	536870912	60	18769
2026-01-29 08:56:12.80	331.73	22.02	-52.2	-53.6	21.8	0.00e+00	0	46	0	538968064	60	18779
2026-01-29 08:56:13.80	331.78	21.88	-52.2	-53.6	21.9	0.00e+00	0	46	0	541065216	60	18751
2026-01-29 08:56:14.81	331.83	21.74	-52.1	-53.6	21.8	0.00e+00	0	46	0	542113792	60	18705
2026-01-29 08:56:15.82	331.88	21.61	-52.1	-53.6	21.9	0.00e+00	0	46	0	544210944	60	18661
2026-01-29 08:56:16.83	331.93	21.47	-52.2	-53.6	21.8	0.00e+00	0	46	0	546308096	60	18807
2026-01-29 08:56:17.83	331.98	21.33	-52.2	-53.6	22.0	0.00e+00	0	46	0	548405248	60	18687
2026-01-29 08:56:18.83	332.03	21.20	-52.2	-53.5	22.1	0.00e+00	0	46	0	550502400	60	18500
2026-01-29 08:56:19.84	332.08	21.06	-52.2	-53.5	22.0	0.00e+00	0	46	0	551550976	60	18623
2026-01-29 08:56:20.85	332.13	20.93	-52.3	-53.6	21.9	0.00e+00	0	45	0	553648128	60	18740
2026-01-29 08:56:21.85	332.18	20.80	-52.3	-53.6	21.9	0.00e+00	0	46	0	555745280	60	18830
2026-01-29 08:56:22.86	332.23	20.66	-52.3	-53.6	21.8	0.00e+00	0	46	0	557842432	60	18758
2026-01-29 08:56:23.86	332.28	20.53	-52.3	-53.6	21.8	0.00e+00	0	46	0	559939584	60	18800
2026-01-29 08:56:24.87	332.32	20.40	-52.4	-53.7	21.7	0.00e+00	0	46	0	560988160	60	18987
