passes_logs/2026/01/29/R3.2S-Naryan-Mar/R3.2S-Naryan-Mar__20260129_082419_SUOMI_NPP_rec.log

#Pass ID: 20260129_082419_SUOMI NPP
#Satellite: SUOMI NPP
#Configuration: NPP
#almurnet v.1.7.20240730
#Start time: 2026-01-29 08:24:19

#Version: 2.2.20231116
#Station: R3.2S-Naryan-Mar
#Location: 53.008057 lon 67.646978 lat
#TLE: 1 37849U 11061A   26027.93236865  .00000148  00000+0  91411-4 0  9991
#TLE: 2 37849  98.7823 329.8704 0002085  41.3231 318.8102 14.19530777738546

#Time	Az	El	Level	Level2	SNR	BER	BlckErr	Temp	State	Recorded	gain1	gain2
2026-01-29 08:24:19.32	153.83	0.02	-59.0	-74.6	3.5	1.51e+00	0	43	0	0	60	205307
2026-01-29 08:24:20.33	153.84	0.08	-57.9	-77.0	3.6	1.51e+00	0	44	104	0	60	278515
2026-01-29 08:24:21.33	153.84	0.14	-56.4	-76.3	3.6	1.51e+00	0	44	104	0	60	255009
2026-01-29 08:24:22.34	153.84	0.20	-57.6	-77.2	3.6	1.51e+00	0	44	104	0	60	282523
2026-01-29 08:24:23.35	153.85	0.26	-59.7	-77.7	3.6	1.51e+00	0	44	104	0	60	301125
2026-01-29 08:24:24.36	153.85	0.32	-61.1	-78.0	3.6	1.51e+00	0	44	104	0	60	310955
2026-01-29 08:24:25.37	153.86	0.38	-61.7	-78.3	3.6	1.51e+00	0	44	104	0	60	320864
2026-01-29 08:24:26.37	153.86	0.44	-62.2	-78.7	3.6	1.51e+00	0	44	104	0	60	337898
2026-01-29 08:24:27.38	153.86	0.50	-62.4	-78.9	3.6	1.51e+00	0	44	104	0	60	345965
2026-01-29 08:24:28.39	153.87	0.57	-62.6	-79.0	3.6	1.51e+00	0	44	104	0	60	349503
2026-01-29 08:24:29.40	153.87	0.63	-62.2	-78.7	3.6	1.51e+00	0	44	104	0	60	335824
2026-01-29 08:24:30.41	153.88	0.69	-61.9	-78.4	3.6	1.51e+00	0	44	104	0	60	324258
2026-01-29 08:24:31.41	153.88	0.75	-61.8	-78.3	3.6	1.51e+00	0	44	104	0	60	321175
2026-01-29 08:24:32.42	153.88	0.81	-61.5	-78.0	3.6	1.51e+00	0	44	104	0	60	312700
2026-01-29 08:24:33.43	153.89	0.88	-61.2	-77.7	3.6	1.51e+00	0	44	104	0	60	301867
2026-01-29 08:24:34.43	153.89	0.94	-61.1	-77.7	3.6	1.51e+00	0	44	104	0	60	299018
2026-01-29 08:24:35.44	153.90	1.00	-60.9	-77.4	3.6	1.51e+00	0	44	104	0	60	289449
2026-01-29 08:24:36.45	153.90	1.06	-60.6	-77.1	3.6	1.51e+00	0	44	104	0	60	280945
2026-01-29 08:24:37.46	153.90	1.13	-59.4	-76.3	3.6	1.51e+00	0	44	104	0	60	256327
2026-01-29 08:24:38.47	153.91	1.19	-59.1	-75.7	3.6	1.51e+00	0	44	104	0	60	237478
2026-01-29 08:24:39.48	153.91	1.25	-59.0	-75.6	3.6	1.51e+00	0	44	104	0	60	236161
2026-01-29 08:24:40.48	153.92	1.31	-59.0	-75.6	3.6	1.51e+00	0	44	104	0	60	236539
2026-01-29 08:24:41.49	153.92	1.38	-58.9	-75.6	3.6	1.51e+00	0	44	104	0	60	234984
2026-01-29 08:24:42.50	153.92	1.44	-58.9	-75.5	3.6	1.51e+00	0	44	104	0	60	233350
2026-01-29 08:24:43.51	153.93	1.51	-58.8	-75.5	3.6	1.51e+00	0	44	104	0	60	234154
2026-01-29 08:24:44.52	153.93	1.57	-58.8	-75.5	3.6	1.51e+00	0	44	104	0	60	232581
2026-01-29 08:24:45.53	153.94	1.63	-58.8	-75.4	3.6	1.51e+00	0	44	104	0	60	230302
2026-01-29 08:24:46.53	153.94	1.70	-58.8	-75.4	3.6	1.51e+00	0	44	104	0	60	229557
2026-01-29 08:24:47.54	153.94	1.76	-58.7	-75.4	3.6	1.51e+00	0	44	104	0	60	231695
2026-01-29 08:24:48.54	153.95	1.82	-58.7	-75.4	3.6	1.51e+00	0	44	104	0	60	230660
2026-01-29 08:24:49.55	153.95	1.89	-58.7	-75.4	3.6	1.51e+00	0	44	104	0	60	230089
2026-01-29 08:24:50.56	153.96	1.95	-58.7	-75.3	3.6	1.51e+00	0	44	104	0	60	228532
2026-01-29 08:24:51.56	153.96	2.02	-58.7	-75.3	3.6	1.51e+00	0	44	104	0	60	229053
2026-01-29 08:24:52.57	153.96	2.08	-58.7	-75.3	3.6	1.51e+00	0	44	104	0	60	228204
2026-01-29 08:24:53.58	153.97	2.15	-58.7	-75.3	3.6	1.51e+00	0	44	104	0	60	227730
2026-01-29 08:24:54.59	153.97	2.21	-58.6	-75.3	3.6	1.51e+00	0	44	104	0	60	227704
2026-01-29 08:24:55.60	153.98	2.28	-58.6	-75.3	3.6	1.51e+00	0	44	104	0	60	228172
2026-01-29 08:24:56.60	153.98	2.34	-58.6	-75.3	3.6	1.51e+00	0	44	104	0	60	227357
2026-01-29 08:24:57.61	153.98	2.41	-58.6	-75.2	3.6	1.51e+00	0	44	104	0	60	226721
2026-01-29 08:24:58.62	153.99	2.48	-58.6	-75.2	3.6	1.51e+00	0	44	104	0	60	226648
2026-01-29 08:24:59.62	153.99	2.54	-58.6	-75.2	3.6	1.51e+00	0	44	104	0	60	226076
2026-01-29 08:25:00.63	154.00	2.61	-58.6	-75.3	3.6	1.51e+00	0	44	104	0	60	226845
2026-01-29 08:25:01.64	154.00	2.67	-58.5	-75.2	3.6	1.51e+00	0	44	104	0	60	225423
2026-01-29 08:25:02.65	154.00	2.74	-58.5	-75.1	3.5	1.51e+00	0	44	104	0	60	224004
2026-01-29 08:25:03.65	154.01	2.81	-58.5	-75.2	3.5	1.51e+00	0	44	104	0	60	225941
2026-01-29 08:25:04.66	154.01	2.87	-58.5	-75.1	3.6	1.51e+00	0	44	104	0	60	223293
2026-01-29 08:25:05.67	154.02	2.94	-58.5	-75.2	3.6	1.51e+00	0	44	104	0	60	224236
2026-01-29 08:25:06.68	154.02	3.01	-58.5	-75.2	3.6	1.51e+00	0	45	104	0	60	224364
2026-01-29 08:25:07.69	154.02	3.08	-58.5	-75.1	3.6	1.51e+00	0	45	104	0	60	222248
2026-01-29 08:25:08.69	154.03	3.14	-58.5	-75.1	3.6	1.51e+00	0	45	104	0	60	221765
2026-01-29 08:25:09.69	154.03	3.21	-58.5	-75.0	3.6	1.51e+00	0	45	104	0	60	220255
2026-01-29 08:25:10.70	154.04	3.28	-58.5	-74.9	3.6	1.51e+00	0	45	104	0	60	217951
2026-01-29 08:25:11.71	154.04	3.34	-58.5	-74.9	3.6	1.51e+00	0	45	104	0	60	216587
2026-01-29 08:25:12.72	154.04	3.41	-58.5	-74.7	3.6	1.51e+00	0	45	104	0	60	214018
2026-01-29 08:25:13.73	154.05	3.48	-58.5	-74.8	3.6	1.51e+00	0	45	104	0	60	214936
2026-01-29 08:25:14.73	154.05	3.55	-58.5	-74.9	3.6	1.51e+00	0	45	104	0	60	217111
2026-01-29 08:25:15.74	154.06	3.62	-58.5	-74.8	3.6	1.51e+00	0	45	104	0	60	214975
2026-01-29 08:25:16.75	154.06	3.69	-58.5	-75.0	3.6	1.51e+00	0	45	104	0	60	219191
2026-01-29 08:25:17.76	154.07	3.76	-58.5	-74.8	3.6	1.51e+00	0	45	104	0	60	214469
2026-01-29 08:25:18.76	154.07	3.82	-58.5	-74.7	3.6	1.51e+00	0	45	104	0	60	213703
2026-01-29 08:25:19.77	154.07	3.89	-58.5	-74.8	3.6	1.51e+00	0	45	104	0	60	214305
2026-01-29 08:25:20.78	154.08	3.96	-58.4	-74.7	3.6	1.51e+00	0	45	104	0	60	212462
2026-01-29 08:25:21.79	154.08	4.03	-58.4	-74.6	3.6	1.51e+00	0	45	104	0	60	210616
2026-01-29 08:25:22.80	154.09	4.10	-58.4	-74.6	3.6	1.51e+00	0	45	104	0	60	210272
2026-01-29 08:25:23.80	154.09	4.17	-58.4	-74.6	3.6	1.51e+00	0	45	104	0	60	211032
2026-01-29 08:25:24.82	154.09	4.24	-58.5	-74.7	3.6	1.51e+00	0	45	104	0	60	212881
2026-01-29 08:25:25.82	154.10	4.31	-58.4	-74.7	3.6	1.51e+00	0	45	104	0	60	211738
2026-01-29 08:25:26.83	154.10	4.38	-58.4	-74.5	3.6	1.51e+00	0	45	104	0	60	207198
2026-01-29 08:25:27.84	154.11	4.45	-58.4	-73.5	3.6	1.51e+00	0	45	104	0	60	186315
2026-01-29 08:25:28.84	154.11	4.52	-58.3	-72.2	3.9	1.49e+00	0	45	104	0	60	160430
2026-01-29 08:25:29.85	154.11	4.60	-58.2	-69.1	4.3	1.35e+00	0	45	0	0	60	111938
2026-01-29 08:25:30.86	154.12	4.67	-58.1	-67.3	5.7	6.89e-01	0	45	0	2097152	60	90452
2026-01-29 08:25:31.87	154.12	4.74	-58.0	-66.3	6.9	2.15e-01	0	45	0	4194304	60	80813
2026-01-29 08:25:32.87	154.13	4.81	-57.7	-64.9	8.4	7.65e-02	0	45	0	6291456	60	69174
2026-01-29 08:25:33.88	154.13	4.88	-57.4	-63.7	9.9	1.93e-02	0	45	0	7340032	60	60039
2026-01-29 08:25:34.89	154.14	4.95	-57.1	-62.6	11.2	5.42e-03	0	45	0	9437184	60	53031
2026-01-29 08:25:35.90	154.14	5.03	-56.8	-61.7	12.3	4.44e-04	0	45	0	11534336	60	47441
2026-01-29 08:25:36.91	154.14	5.10	-56.4	-60.9	13.0	7.55e-05	0	45	0	13631488	60	43381
2026-01-29 08:25:37.92	154.15	5.17	-56.2	-60.3	13.7	1.75e-05	0	45	0	15728640	60	40693
2026-01-29 08:25:38.93	154.15	5.24	-56.0	-59.8	14.2	1.50e-06	0	45	0	16777216	60	38247
2026-01-29 08:25:39.93	154.16	5.32	-56.0	-59.8	14.1	7.00e-07	0	45	0	18874368	60	38225
2026-01-29 08:25:40.94	154.16	5.39	-55.8	-59.6	14.4	1.50e-06	0	45	0	20971520	60	37225
2026-01-29 08:25:41.95	154.17	5.46	-55.9	-59.6	14.4	7.00e-07	0	45	0	23068672	60	37493
2026-01-29 08:25:42.96	154.17	5.54	-56.1	-60.1	13.8	2.20e-06	0	45	0	25165824	60	39629
2026-01-29 08:25:43.97	154.17	5.61	-56.1	-60.2	13.7	7.60e-06	0	45	0	26214400	60	40235
2026-01-29 08:25:44.97	154.18	5.69	-56.4	-61.0	12.9	2.36e-05	0	45	0	28311552	60	43807
2026-01-29 08:25:45.98	154.18	5.76	-56.7	-61.7	12.2	1.23e-04	0	45	0	30408704	60	47474
2026-01-29 08:25:46.99	154.19	5.83	-57.0	-62.4	11.4	4.79e-04	0	45	0	32505856	60	51604
2026-01-29 08:25:48.00	154.19	5.91	-57.2	-63.4	10.2	2.14e-03	0	45	0	34603008	60	57675
2026-01-29 08:25:49.00	154.19	5.98	-57.5	-64.5	8.9	1.60e-02	0	45	0	35651584	60	65585
2026-01-29 08:25:50.01	154.20	6.06	-57.8	-65.6	7.6	4.34e-02	0	45	0	37748736	60	74469
2026-01-29 08:25:51.02	154.20	6.13	-58.0	-66.6	6.5	1.29e-01	0	45	0	39845888	60	83414
2026-01-29 08:25:52.03	154.21	6.21	-58.3	-72.5	3.6	9.66e-01	0	45	104	40894464	60	165849
2026-01-29 08:25:53.03	154.21	6.29	-58.0	-68.8	4.9	1.49e+00	0	45	104	40894464	60	107418
2026-01-29 08:25:54.04	154.22	6.36	-57.5	-64.0	9.5	2.85e-02	0	45	0	40894464	60	62050
2026-01-29 08:25:55.05	154.22	6.44	-58.2	-74.1	3.6	8.32e-01	0	45	104	1048576	60	199575
2026-01-29 08:25:56.05	154.22	6.51	-57.9	-68.6	6.3	1.51e+00	0	45	104	1048576	60	105762
2026-01-29 08:25:57.06	154.23	6.59	-57.6	-65.9	7.5	1.68e-01	0	45	0	1048576	60	77510
2026-01-29 08:25:58.07	154.23	6.67	-57.5	-65.1	8.3	5.99e-02	0	45	0	2097152	60	70109
2026-01-29 08:25:59.07	154.24	6.74	-57.4	-64.5	9.2	3.35e-02	0	45	0	4194304	60	65532
2026-01-29 08:26:00.07	154.24	6.82	-57.4	-64.5	9.3	2.43e-02	0	45	0	5242880	60	65515
2026-01-29 08:26:01.08	154.25	6.90	-57.4	-64.6	9.0	2.56e-02	0	45	0	7340032	60	66246
2026-01-29 08:26:02.09	154.25	6.98	-57.6	-65.2	8.8	2.95e-02	0	45	0	9437184	60	71348
2026-01-29 08:26:03.09	154.25	7.05	-57.5	-64.8	8.6	3.55e-02	0	45	0	11534336	60	68452
2026-01-29 08:26:04.10	154.26	7.13	-57.7	-65.7	7.8	4.86e-02	0	45	0	13631488	60	75578
2026-01-29 08:26:05.11	154.26	7.21	-57.8	-66.0	7.4	5.46e-02	0	45	0	14680064	60	78546
2026-01-29 08:26:06.11	154.27	7.29	-57.8	-66.0	7.6	6.77e-02	0	45	0	16777216	60	78146
2026-01-29 08:26:07.12	154.27	7.37	-57.9	-65.7	7.6	8.68e-02	0	45	0	18874368	60	75799
2026-01-29 08:26:08.13	154.28	7.45	-57.9	-66.0	7.6	9.20e-02	0	45	0	20971520	60	78461
2026-01-29 08:26:09.13	154.28	7.53	-58.0	-66.1	7.2	1.07e-01	0	45	0	23068672	60	79497
2026-01-29 08:26:10.13	154.29	7.61	-58.0	-66.1	7.3	1.27e-01	0	45	0	25165824	60	79379
2026-01-29 08:26:11.14	154.29	7.69	-58.1	-66.5	6.8	1.36e-01	0	45	0	26214400	60	83043
2026-01-29 08:26:12.14	154.29	7.77	-58.1	-66.4	7.0	1.58e-01	0	45	0	28311552	60	81813
2026-01-29 08:26:13.14	154.30	7.85	-58.0	-65.9	7.5	1.39e-01	0	45	0	30408704	60	77509
2026-01-29 08:26:14.15	154.30	7.93	-58.4	-74.7	3.6	1.53e+00	0	45	104	30408704	60	213593
2026-01-29 08:26:15.15	154.31	8.01	-56.3	-60.6	13.3	7.59e-01	0	45	104	30408704	60	42046
2026-01-29 08:26:16.15	154.31	8.09	-58.1	-66.9	6.2	4.89e-03	0	45	0	1048576	60	86504
2026-01-29 08:26:17.16	154.32	8.17	-57.4	-63.6	9.4	2.68e-03	0	45	0	2097152	60	59292
2026-01-29 08:26:18.16	154.32	8.25	-56.1	-59.9	14.5	2.51e-05	0	45	0	4194304	60	38772
2026-01-29 08:26:19.17	154.32	8.33	-56.2	-60.2	14.2	0.00e+00	0	45	0	6291456	60	39981
2026-01-29 08:26:20.17	154.33	8.41	-56.2	-60.2	14.0	3.00e-06	0	45	0	8388608	60	40259
2026-01-29 08:26:21.17	154.33	8.50	-56.2	-60.4	13.8	3.00e-06	0	45	0	10485760	60	40874
2026-01-29 08:26:22.18	154.34	8.58	-56.3	-60.6	13.6	2.20e-06	0	45	0	11534336	60	41967
2026-01-29 08:26:23.17	154.34	8.66	-56.5	-60.9	13.4	1.60e-05	0	45	0	13631488	60	43595
2026-01-29 08:26:24.18	154.35	8.75	-56.4	-60.8	13.5	1.29e-05	0	45	0	15728640	60	42718
2026-01-29 08:26:25.18	154.35	8.83	-56.8	-61.7	12.6	5.41e-05	0	45	0	17825792	60	47636
2026-01-29 08:26:26.18	154.36	8.91	-56.9	-62.0	12.2	1.65e-04	0	45	0	19922944	60	49577
2026-01-29 08:26:27.18	154.36	9.00	-57.0	-62.5	12.0	1.60e-04	0	45	0	20971520	60	52078
2026-01-29 08:26:28.19	154.36	9.08	-57.1	-62.6	11.2	4.87e-04	0	45	0	23068672	60	53112
2026-01-29 08:26:29.20	154.37	9.16	-57.3	-63.6	10.6	1.92e-03	0	45	0	25165824	60	59090
2026-01-29 08:26:30.20	154.37	9.25	-57.3	-63.6	10.2	4.60e-03	0	45	0	27262976	60	59211
2026-01-29 08:26:31.21	154.38	9.34	-57.4	-64.4	9.6	1.04e-02	0	45	0	28311552	60	64686
2026-01-29 08:26:32.21	154.38	9.42	-57.4	-64.5	9.2	1.52e-02	0	45	0	30408704	60	65733
2026-01-29 08:26:33.21	154.39	9.51	-57.5	-65.0	8.7	2.57e-02	0	45	0	32505856	60	69377
2026-01-29 08:26:34.21	154.39	9.59	-57.5	-65.3	8.4	3.61e-02	0	45	0	34603008	60	72156
2026-01-29 08:26:35.22	154.40	9.68	-57.5	-65.6	8.1	9.81e-02	0	45	0	36700160	60	74649
2026-01-29 08:26:36.23	154.40	9.77	-57.5	-65.7	8.0	7.34e-02	0	45	0	37748736	60	75514
2026-01-29 08:26:37.23	154.40	9.85	-57.5	-66.0	7.7	8.71e-02	0	45	0	39845888	60	78475
2026-01-29 08:26:38.24	154.41	9.94	-57.7	-66.9	6.7	1.48e-01	0	45	0	41943040	60	87030
2026-01-29 08:26:39.24	154.41	10.03	-57.7	-67.2	6.5	1.92e-01	0	45	0	44040192	60	89246
2026-01-29 08:26:40.25	154.42	10.11	-57.6	-67.0	6.6	1.79e-01	0	45	0	46137344	60	87217
2026-01-29 08:26:41.26	154.42	10.20	-57.7	-67.6	6.0	2.87e-01	0	45	0	48234496	60	93549
2026-01-29 08:26:42.26	154.43	10.29	-57.8	-68.1	5.5	3.85e-01	0	45	0	49283072	60	99653
2026-01-29 08:26:43.27	154.43	10.38	-58.1	-72.4	3.7	1.22e+00	0	45	104	50331648	60	162870
2026-01-29 08:26:44.27	154.44	10.47	-57.8	-67.6	6.2	4.27e-01	0	45	0	50331648	60	94414
2026-01-29 08:26:45.28	154.44	10.56	-58.2	-71.7	3.7	8.37e-01	0	45	104	1048576	60	150444
2026-01-29 08:26:46.27	154.45	10.65	-57.3	-63.8	11.7	4.10e-03	0	45	104	1048576	60	60694
2026-01-29 08:26:47.27	154.45	10.74	-58.4	-75.2	3.6	8.96e-01	0	45	104	1048576	60	224198
2026-01-29 08:26:48.27	154.45	10.83	-57.4	-66.0	8.2	7.98e-01	0	45	104	1048576	60	78121
2026-01-29 08:26:49.28	154.46	10.92	-57.2	-64.2	10.0	1.67e-02	0	45	0	1048576	60	63701
2026-01-29 08:26:50.29	154.46	11.01	-56.9	-62.8	11.6	2.53e-03	0	45	0	2097152	60	53986
2026-01-29 08:26:51.29	154.47	11.10	-56.6	-61.7	12.7	2.37e-04	0	45	0	4194304	60	47733
2026-01-29 08:26:52.30	154.47	11.19	-56.4	-60.9	13.5	9.90e-06	0	45	0	6291456	60	43570
2026-01-29 08:26:53.31	154.48	11.29	-56.2	-60.3	14.3	1.50e-06	0	45	0	8388608	60	40496
2026-01-29 08:26:54.31	154.48	11.38	-56.3	-60.2	14.1	0.00e+00	0	45	0	9437184	60	40159
2026-01-29 08:26:55.32	154.49	11.47	-56.3	-60.3	14.2	7.00e-07	0	45	0	11534336	60	40419
2026-01-29 08:26:56.32	154.49	11.57	-56.3	-60.2	14.3	0.00e+00	0	45	0	13631488	60	40142
2026-01-29 08:26:57.33	154.50	11.66	-56.4	-60.3	14.3	1.50e-06	0	45	0	15728640	60	40535
2026-01-29 08:26:58.33	154.50	11.75	-56.0	-59.4	15.4	0.00e+00	0	45	0	17825792	60	36419
2026-01-29 08:26:59.33	154.51	11.85	-55.5	-58.5	16.2	7.00e-07	0	45	0	18874368	60	32904
2026-01-29 08:27:00.34	154.51	11.94	-55.0	-57.5	17.2	0.00e+00	0	45	0	20971520	60	29361
2026-01-29 08:27:01.34	154.52	12.04	-54.5	-56.7	18.0	0.00e+00	0	45	0	23068672	60	26765
2026-01-29 08:27:02.35	154.52	12.13	-54.3	-56.5	18.1	0.00e+00	0	45	0	25165824	60	26161
2026-01-29 08:27:03.36	154.52	12.23	-54.1	-56.2	18.3	0.00e+00	0	45	0	27262976	60	25417
2026-01-29 08:27:04.36	154.53	12.32	-54.1	-56.2	18.4	0.00e+00	0	45	0	28311552	60	25308
2026-01-29 08:27:05.36	154.53	12.42	-54.3	-56.4	18.2	0.00e+00	0	45	0	30408704	60	25975
2026-01-29 08:27:06.37	154.54	12.52	-54.2	-56.3	18.4	0.00e+00	0	45	0	32505856	60	25514
2026-01-29 08:27:07.37	154.54	12.61	-54.2	-56.3	18.3	0.00e+00	0	45	0	34603008	60	25676
2026-01-29 08:27:08.38	154.55	12.71	-54.4	-56.5	18.2	0.00e+00	0	45	0	36700160	60	26306
2026-01-29 08:27:09.38	154.55	12.81	-54.2	-56.2	18.5	0.00e+00	0	45	0	37748736	60	25394
2026-01-29 08:27:10.39	154.56	12.91	-54.3	-56.4	18.3	0.00e+00	0	45	0	39845888	60	25804
2026-01-29 08:27:11.39	154.56	13.01	-54.2	-56.2	18.5	0.00e+00	0	45	0	41943040	60	25393
2026-01-29 08:27:12.40	154.57	13.11	-54.1	-56.1	18.6	0.00e+00	0	45	0	44040192	60	24920
2026-01-29 08:27:13.40	154.57	13.21	-54.1	-56.1	18.6	0.00e+00	0	45	0	46137344	60	24896
2026-01-29 08:27:14.41	154.58	13.31	-54.0	-55.9	18.7	0.00e+00	0	45	0	47185920	60	24461
2026-01-29 08:27:15.41	154.58	13.41	-54.1	-56.1	18.5	0.00e+00	0	45	0	49283072	60	25084
2026-01-29 08:27:16.41	154.59	13.51	-54.1	-56.0	18.6	0.00e+00	0	45	0	51380224	60	24804
2026-01-29 08:27:17.42	154.59	13.61	-54.0	-55.9	18.8	0.00e+00	0	45	0	53477376	60	24509
2026-01-29 08:27:18.42	154.60	13.71	-53.9	-55.8	18.8	0.00e+00	0	45	0	54525952	60	24106
2026-01-29 08:27:19.42	154.60	13.81	-54.0	-55.9	18.8	0.00e+00	0	45	0	56623104	60	24563
2026-01-29 08:27:20.42	154.61	13.92	-53.7	-55.6	19.1	0.00e+00	0	45	0	58720256	60	23562
2026-01-29 08:27:21.42	154.61	14.02	-53.6	-55.4	19.3	0.00e+00	0	45	0	60817408	60	23144
2026-01-29 08:27:22.42	154.62	14.12	-53.5	-55.3	19.2	0.00e+00	0	45	0	62914560	60	22812
2026-01-29 08:27:23.42	154.62	14.22	-53.6	-55.4	19.4	0.00e+00	0	45	0	63963136	60	23048
2026-01-29 08:27:24.43	154.63	14.33	-53.6	-55.3	19.4	0.00e+00	0	45	0	66060288	60	22928
2026-01-29 08:27:25.43	154.63	14.43	-53.4	-55.1	19.7	0.00e+00	0	45	0	68157440	60	22235
2026-01-29 08:27:26.44	154.64	14.54	-53.5	-55.2	19.7	0.00e+00	0	45	0	70254592	60	22446
2026-01-29 08:27:27.45	154.64	14.65	-53.4	-55.1	19.6	0.00e+00	0	45	0	72351744	60	22249
2026-01-29 08:27:28.46	154.65	14.75	-53.4	-55.1	19.7	0.00e+00	0	45	0	74448896	60	22232
2026-01-29 08:27:29.46	154.65	14.86	-53.3	-54.9	19.8	0.00e+00	0	45	0	75497472	60	21859
2026-01-29 08:27:30.47	154.66	14.97	-53.3	-54.9	19.8	0.00e+00	0	45	0	77594624	60	21861
2026-01-29 08:27:31.48	154.66	15.08	-53.3	-55.0	20.0	0.00e+00	0	45	0	79691776	60	21950
2026-01-29 08:27:32.49	154.67	15.18	-53.5	-55.1	19.8	0.00e+00	0	45	0	81788928	60	22413
2026-01-29 08:27:33.49	154.67	15.29	-53.4	-55.1	19.7	0.00e+00	0	45	0	82837504	60	22262
2026-01-29 08:27:34.50	154.68	15.40	-53.4	-55.0	19.8	0.00e+00	0	45	0	84934656	60	22151
2026-01-29 08:27:35.50	154.68	15.51	-53.3	-54.9	19.9	0.00e+00	0	45	0	87031808	60	21895
2026-01-29 08:27:36.50	154.69	15.62	-53.2	-54.8	20.1	0.00e+00	0	45	0	89128960	60	21435
2026-01-29 08:27:37.51	154.69	15.73	-53.2	-54.8	20.1	0.00e+00	0	45	0	91226112	60	21431
2026-01-29 08:27:38.51	154.70	15.84	-53.2	-54.8	20.1	0.00e+00	0	45	0	92274688	60	21499
2026-01-29 08:27:39.51	154.70	15.95	-53.1	-54.7	20.2	0.00e+00	0	45	0	94371840	60	21248
2026-01-29 08:27:40.51	154.71	16.07	-53.2	-54.8	20.2	0.00e+00	0	45	0	96468992	60	21412
2026-01-29 08:27:41.52	154.71	16.18	-53.2	-54.8	20.2	0.00e+00	0	45	0	98566144	60	21493
2026-01-29 08:27:42.51	154.72	16.29	-53.2	-54.8	20.2	0.00e+00	0	45	0	100663296	60	21420
2026-01-29 08:27:43.51	154.72	16.40	-53.2	-54.7	20.1	0.00e+00	0	45	0	101711872	60	21358
2026-01-29 08:27:44.52	154.73	16.52	-53.3	-54.9	20.0	0.00e+00	0	45	0	103809024	60	21659
2026-01-29 08:27:45.53	154.73	16.63	-53.1	-54.6	20.1	0.00e+00	0	45	0	105906176	60	21069
2026-01-29 08:27:46.53	154.74	16.75	-53.3	-54.9	20.0	0.00e+00	0	45	0	108003328	60	21775
2026-01-29 08:27:47.54	154.74	16.86	-53.3	-54.9	20.0	0.00e+00	0	45	0	110100480	60	21886
2026-01-29 08:27:48.54	154.75	16.98	-53.3	-54.9	19.9	0.00e+00	0	45	0	111149056	60	21800
2026-01-29 08:27:49.55	154.75	17.10	-53.5	-55.1	19.9	0.00e+00	0	45	0	113246208	60	22264
2026-01-29 08:27:50.55	154.76	17.22	-53.4	-55.0	20.0	0.00e+00	0	45	0	115343360	60	22028
2026-01-29 08:27:51.55	154.76	17.33	-53.5	-55.1	19.7	0.00e+00	0	45	0	117440512	60	22354
2026-01-29 08:27:52.56	154.77	17.45	-53.6	-55.3	19.8	0.00e+00	0	45	0	119537664	60	22712
2026-01-29 08:27:53.56	154.77	17.57	-53.8	-55.5	19.6	0.00e+00	0	45	0	120586240	60	23413
2026-01-29 08:27:54.56	154.78	17.69	-53.9	-55.6	19.4	0.00e+00	0	45	0	122683392	60	23722
2026-01-29 08:27:55.56	154.78	17.81	-54.1	-55.9	19.3	0.00e+00	0	45	0	124780544	60	24507
2026-01-29 08:27:56.57	154.79	17.93	-53.9	-55.6	19.6	0.00e+00	0	45	0	126877696	60	23668
2026-01-29 08:27:57.58	154.79	18.05	-53.5	-55.1	20.0	0.00e+00	0	45	0	128974848	60	22354
2026-01-29 08:27:58.59	154.80	18.18	-53.2	-54.8	20.3	0.00e+00	0	45	0	130023424	60	21458
2026-01-29 08:27:59.60	154.80	18.30	-53.3	-54.9	20.1	0.00e+00	0	45	0	132120576	60	21728
2026-01-29 08:28:00.60	154.81	18.42	-53.4	-55.0	20.1	0.00e+00	0	45	0	134217728	60	21914
2026-01-29 08:28:01.61	154.82	18.55	-53.5	-55.1	20.1	0.00e+00	0	45	0	136314880	60	22182
2026-01-29 08:28:02.62	154.82	18.67	-53.6	-55.3	19.8	0.00e+00	0	45	0	138412032	60	22708
2026-01-29 08:28:03.63	154.83	18.80	-53.6	-55.2	19.9	0.00e+00	0	45	0	139460608	60	22503
2026-01-29 08:28:04.64	154.83	18.93	-53.6	-55.2	19.9	0.00e+00	0	45	0	141557760	60	22581
2026-01-29 08:28:05.64	154.84	19.05	-53.8	-55.4	19.8	0.00e+00	0	45	0	143654912	60	23116
2026-01-29 08:28:06.65	154.84	19.18	-53.6	-55.2	19.9	0.00e+00	0	45	0	145752064	60	22513
2026-01-29 08:28:07.65	154.85	19.31	-53.7	-55.4	19.8	0.00e+00	0	45	0	147849216	60	22968
2026-01-29 08:28:08.65	154.85	19.44	-53.6	-55.2	20.0	0.00e+00	0	45	0	148897792	60	22539
2026-01-29 08:28:09.66	154.86	19.57	-53.7	-55.4	19.8	0.00e+00	0	45	0	150994944	60	22976
2026-01-29 08:28:10.66	154.86	19.69	-53.9	-55.6	19.6	0.00e+00	0	45	0	153092096	60	23501
2026-01-29 08:28:11.67	154.87	19.83	-53.9	-55.7	19.6	0.00e+00	0	45	0	155189248	60	23778
2026-01-29 08:28:12.68	154.88	19.96	-53.9	-55.5	19.6	0.00e+00	0	45	0	157286400	60	23456
2026-01-29 08:28:13.68	154.88	20.09	-54.1	-55.9	19.5	0.00e+00	0	45	0	158334976	60	24385
2026-01-29 08:28:14.69	154.89	20.22	-54.1	-55.8	19.5	0.00e+00	0	45	0	160432128	60	24175
2026-01-29 08:28:15.69	154.89	20.36	-54.1	-55.9	19.5	0.00e+00	0	45	0	162529280	60	24373
2026-01-29 08:28:16.70	154.90	20.49	-53.7	-55.3	19.9	0.00e+00	0	45	0	164626432	60	22877
2026-01-29 08:28:17.70	154.90	20.62	-53.3	-54.8	20.4	0.00e+00	0	45	0	166723584	60	21453
2026-01-29 08:28:18.71	154.91	20.76	-53.0	-54.5	20.7	0.00e+00	0	45	0	167772160	60	20726
2026-01-29 08:28:19.71	154.92	20.90	-52.8	-54.2	20.9	0.00e+00	0	45	0	169869312	60	20131
2026-01-29 08:28:20.72	154.92	21.03	-52.8	-54.2	20.9	0.00e+00	0	45	0	171966464	60	20132
2026-01-29 08:28:21.73	154.93	21.17	-52.9	-54.3	20.7	0.00e+00	0	45	0	174063616	60	20411
2026-01-29 08:28:22.73	154.93	21.31	-52.9	-54.3	20.9	0.00e+00	0	45	0	176160768	60	20284
2026-01-29 08:28:23.74	154.94	21.45	-52.9	-54.3	20.7	0.00e+00	0	45	0	177209344	60	20415
2026-01-29 08:28:24.74	154.94	21.59	-52.9	-54.3	20.7	0.00e+00	0	45	0	179306496	60	20386
2026-01-29 08:28:25.74	154.95	21.73	-53.0	-54.4	20.7	0.00e+00	0	45	0	181403648	60	20613
2026-01-29 08:28:26.75	154.96	21.87	-53.2	-54.7	20.4	0.00e+00	0	45	0	183500800	60	21226
2026-01-29 08:28:27.76	154.96	22.02	-53.3	-54.9	20.3	0.00e+00	0	45	0	185597952	60	21663
2026-01-29 08:28:28.76	154.97	22.16	-53.7	-55.3	19.9	0.00e+00	0	45	0	186646528	60	22927
2026-01-29 08:28:29.76	154.97	22.30	-53.8	-55.5	19.8	0.00e+00	0	45	0	188743680	60	23206
2026-01-29 08:28:30.77	154.98	22.45	-53.3	-54.9	20.3	0.00e+00	0	45	0	190840832	60	21752
2026-01-29 08:28:31.77	154.98	22.59	-53.3	-54.8	20.3	0.00e+00	0	45	0	192937984	60	21575
2026-01-29 08:28:32.78	154.99	22.74	-53.5	-55.0	20.1	0.00e+00	0	45	0	195035136	60	22126
2026-01-29 08:28:33.79	155.00	22.89	-53.4	-55.0	20.2	0.00e+00	0	45	0	196083712	60	22065
2026-01-29 08:28:34.80	155.00	23.04	-53.6	-55.3	20.0	0.00e+00	0	45	0	198180864	60	22785
2026-01-29 08:28:35.80	155.01	23.19	-53.6	-55.3	19.9	0.00e+00	0	45	0	200278016	60	22774
2026-01-29 08:28:36.80	155.01	23.34	-53.7	-55.4	19.9	0.00e+00	0	45	0	202375168	60	22986
2026-01-29 08:28:37.81	155.02	23.49	-53.8	-55.5	19.7	0.00e+00	0	45	0	203423744	60	23379
2026-01-29 08:28:38.81	155.03	23.64	-53.8	-55.5	19.8	0.00e+00	0	45	0	205520896	60	23419
2026-01-29 08:28:39.82	155.03	23.79	-53.5	-55.2	19.9	0.00e+00	0	45	0	207618048	60	22480
2026-01-29 08:28:40.82	155.04	23.94	-53.6	-55.2	19.9	0.00e+00	0	45	0	209715200	60	22662
2026-01-29 08:28:41.83	155.05	24.10	-53.7	-55.4	19.8	0.00e+00	0	45	0	211812352	60	23164
2026-01-29 08:28:42.84	155.05	24.26	-53.9	-55.6	19.8	0.00e+00	0	45	0	213909504	60	23606
2026-01-29 08:28:43.84	155.06	24.41	-54.0	-55.7	19.8	0.00e+00	0	45	0	214958080	60	23904
2026-01-29 08:28:44.85	155.06	24.57	-54.0	-55.8	19.6	0.00e+00	0	45	0	217055232	60	24099
2026-01-29 08:28:45.86	155.07	24.73	-54.1	-55.9	19.5	0.00e+00	0	45	0	219152384	60	24453
2026-01-29 08:28:46.87	155.08	24.89	-54.0	-55.7	19.6	0.00e+00	0	45	0	221249536	60	23937
2026-01-29 08:28:47.87	155.08	25.05	-53.8	-55.5	19.7	0.00e+00	0	45	0	223346688	60	23446
2026-01-29 08:28:48.88	155.09	25.21	-53.8	-55.4	19.8	0.00e+00	0	45	0	224395264	60	23158
2026-01-29 08:28:49.88	155.10	25.37	-53.8	-55.5	19.9	0.00e+00	0	45	0	226492416	60	23222
2026-01-29 08:28:50.89	155.10	25.54	-53.7	-55.3	19.9	0.00e+00	0	45	0	228589568	60	22771
2026-01-29 08:28:51.89	155.11	25.70	-53.8	-55.5	19.9	0.00e+00	0	45	0	230686720	60	23278
2026-01-29 08:28:52.90	155.11	25.86	-53.8	-55.4	20.0	0.00e+00	0	45	0	231735296	60	23102
2026-01-29 08:28:53.91	155.12	26.03	-54.0	-55.7	19.7	0.00e+00	0	45	0	233832448	60	23928
2026-01-29 08:28:54.91	155.13	26.20	-54.2	-56.0	19.5	0.00e+00	0	45	0	235929600	60	24580
2026-01-29 08:28:55.92	155.13	26.37	-54.2	-55.9	19.5	0.00e+00	0	45	0	238026752	60	24449
2026-01-29 08:28:56.93	155.14	26.54	-54.3	-56.1	19.4	0.00e+00	0	45	0	240123904	60	24920
2026-01-29 08:28:57.93	155.15	26.71	-54.5	-56.3	19.2	0.00e+00	0	45	0	242221056	60	25735
2026-01-29 08:28:58.94	155.15	26.88	-54.3	-56.2	19.2	0.00e+00	0	45	0	243269632	60	25189
2026-01-29 08:28:59.93	155.16	27.05	-54.6	-56.5	19.0	0.00e+00	0	45	0	245366784	60	26268
2026-01-29 08:29:00.93	155.17	27.22	-54.6	-56.6	18.9	0.00e+00	0	45	0	247463936	60	26459
2026-01-29 08:29:01.94	155.17	27.40	-54.5	-56.4	19.1	0.00e+00	0	45	0	249561088	60	25883
2026-01-29 08:29:02.94	155.18	27.57	-54.3	-56.1	19.4	0.00e+00	0	45	0	251658240	60	24992
2026-01-29 08:29:03.95	155.19	27.75	-54.0	-55.6	19.8	0.00e+00	0	45	0	252706816	60	23739
2026-01-29 08:29:04.96	155.19	27.93	-54.3	-56.0	19.4	0.00e+00	0	45	0	254803968	60	24831
2026-01-29 08:29:05.97	155.20	28.11	-54.0	-55.7	19.8	0.00e+00	0	45	0	256901120	60	23921
2026-01-29 08:29:06.97	155.21	28.29	-53.7	-55.3	20.0	0.00e+00	0	45	0	258998272	60	22875
2026-01-29 08:29:07.98	155.22	28.47	-53.9	-55.6	19.7	0.00e+00	0	45	0	260046848	60	23665
2026-01-29 08:29:08.98	155.22	28.65	-54.2	-55.9	19.5	0.00e+00	0	45	0	262144000	60	24432
2026-01-29 08:29:09.99	155.23	28.84	-54.4	-56.1	19.5	0.00e+00	0	45	0	264241152	60	25044
2026-01-29 08:29:11.00	155.24	29.03	-54.5	-56.3	19.4	0.00e+00	0	45	0	266338304	60	25573
2026-01-29 08:29:12.01	155.24	29.21	-54.7	-56.5	19.2	0.00e+00	0	45	0	268435456	60	26114
2026-01-29 08:29:13.01	155.25	29.40	-55.0	-56.9	19.0	0.00e+00	0	45	0	269484032	60	27341
2026-01-29 08:29:14.02	155.26	29.59	-55.1	-57.0	18.6	0.00e+00	0	45	0	271581184	60	27720
2026-01-29 08:29:15.02	155.27	29.78	-54.7	-56.5	19.2	0.00e+00	0	45	0	273678336	60	26109
2026-01-29 08:29:16.03	155.27	29.97	-54.7	-56.4	19.5	0.00e+00	0	45	0	275775488	60	25983
2026-01-29 08:29:17.03	155.28	30.16	-54.8	-56.7	19.3	0.00e+00	0	45	0	277872640	60	26717
2026-01-29 08:29:18.04	155.29	30.36	-54.7	-56.4	19.3	0.00e+00	0	45	0	279969792	60	25973
2026-01-29 08:29:19.05	155.29	30.56	-54.2	-55.9	19.9	0.00e+00	0	45	0	281018368	60	24339
2026-01-29 08:29:20.05	155.30	30.75	-54.3	-56.0	19.7	0.00e+00	0	45	0	283115520	60	24601
2026-01-29 08:29:21.06	155.31	30.95	-54.3	-55.9	19.7	0.00e+00	0	45	0	285212672	60	24516
2026-01-29 08:29:22.07	155.32	31.15	-54.4	-56.2	19.6	0.00e+00	0	45	0	287309824	60	25170
2026-01-29 08:29:23.08	155.32	31.35	-54.7	-56.5	19.4	0.00e+00	0	45	0	288358400	60	26146
2026-01-29 08:29:24.08	155.33	31.56	-54.6	-56.3	19.4	0.00e+00	0	45	0	290455552	60	25686
2026-01-29 08:29:25.09	155.34	31.76	-54.9	-56.8	19.1	0.00e+00	0	45	0	292552704	60	27087
2026-01-29 08:29:26.09	155.35	31.96	-55.1	-57.0	18.8	0.00e+00	0	45	0	294649856	60	27672
2026-01-29 08:29:27.10	155.36	32.17	-54.8	-56.6	19.2	0.00e+00	0	45	0	296747008	60	26381
2026-01-29 08:29:28.10	155.36	32.38	-55.3	-57.3	18.5	0.00e+00	0	45	0	297795584	60	28708
2026-01-29 08:29:29.10	155.37	32.59	-55.0	-56.8	18.9	0.00e+00	0	45	0	299892736	60	27113
2026-01-29 08:29:30.10	155.38	32.80	-55.0	-56.8	19.1	0.00e+00	0	45	0	301989888	60	27180
2026-01-29 08:29:31.11	155.39	33.01	-55.5	-57.6	18.5	0.00e+00	0	45	0	304087040	60	29587
2026-01-29 08:29:32.12	155.40	33.23	-55.7	-57.8	18.1	0.00e+00	0	45	0	306184192	60	30446
2026-01-29 08:29:33.12	155.40	33.44	-55.7	-57.9	18.0	0.00e+00	0	45	0	307232768	60	30869
2026-01-29 08:29:34.13	155.41	33.66	-55.9	-58.2	17.7	0.00e+00	0	45	0	309329920	60	32007
2026-01-29 08:29:35.14	155.42	33.88	-55.9	-58.2	17.6	0.00e+00	0	45	0	311427072	60	31990
2026-01-29 08:29:36.14	155.43	34.10	-55.6	-57.8	17.9	0.00e+00	0	45	0	313524224	60	30493
2026-01-29 08:29:37.15	155.44	34.32	-55.4	-57.5	18.5	0.00e+00	0	45	0	315621376	60	29327
2026-01-29 08:29:38.14	155.45	34.54	-55.0	-56.8	19.1	0.00e+00	0	45	0	316669952	60	27235
2026-01-29 08:29:39.15	155.45	34.77	-55.0	-56.8	19.2	0.00e+00	0	45	0	318767104	60	27087
2026-01-29 08:29:40.14	155.46	34.99	-54.8	-56.5	19.3	0.00e+00	0	45	0	320864256	60	26297
2026-01-29 08:29:41.14	155.47	35.22	-54.9	-56.7	19.3	0.00e+00	0	45	0	322961408	60	26721
2026-01-29 08:29:42.15	155.48	35.45	-54.3	-55.9	19.9	0.00e+00	0	45	0	325058560	60	24464
2026-01-29 08:29:43.16	155.49	35.68	-54.4	-56.1	19.7	0.00e+00	0	45	0	326107136	60	25004
2026-01-29 08:29:44.16	155.50	35.91	-54.2	-55.8	19.9	0.00e+00	0	45	0	328204288	60	24255
2026-01-29 08:29:45.17	155.51	36.15	-53.7	-55.2	20.5	0.00e+00	0	45	0	330301440	60	22515
2026-01-29 08:29:46.17	155.52	36.38	-53.3	-54.8	21.0	0.00e+00	0	45	0	332398592	60	21419
2026-01-29 08:29:47.18	155.52	36.62	-53.2	-54.7	21.1	0.00e+00	0	45	0	334495744	60	21216
2026-01-29 08:29:48.18	155.53	36.86	-53.1	-54.5	21.1	0.00e+00	0	45	0	335544320	60	20908
2026-01-29 08:29:49.19	155.54	37.10	-53.0	-54.4	21.3	0.00e+00	0	45	0	337641472	60	20589
2026-01-29 08:29:50.20	155.55	37.35	-52.9	-54.3	21.5	0.00e+00	0	45	0	339738624	60	20323
2026-01-29 08:29:51.20	155.56	37.59	-53.2	-54.6	21.3	0.00e+00	0	45	0	341835776	60	20957
2026-01-29 08:29:52.21	155.57	37.84	-53.0	-54.4	21.4	0.00e+00	0	45	0	342884352	60	20455
2026-01-29 08:29:53.21	155.58	38.09	-53.1	-54.5	21.3	0.00e+00	0	45	0	344981504	60	20777
2026-01-29 08:29:54.22	155.59	38.34	-53.1	-54.5	21.3	0.00e+00	0	45	0	347078656	60	20771
2026-01-29 08:29:55.23	155.60	38.60	-52.9	-54.2	21.4	0.00e+00	0	45	0	349175808	60	20051
2026-01-29 08:29:56.24	155.61	38.85	-52.7	-53.9	21.6	0.00e+00	0	45	0	351272960	60	19498
2026-01-29 08:29:57.24	155.62	39.11	-52.4	-53.6	21.3	0.00e+00	0	45	0	353370112	60	18790
2026-01-29 08:29:58.24	155.63	39.36	-52.5	-53.8	21.9	0.00e+00	0	45	0	354418688	60	19102
2026-01-29 08:29:59.24	155.64	39.62	-52.6	-53.9	21.8	0.00e+00	0	45	0	356515840	60	19362
2026-01-29 08:30:00.25	155.65	39.89	-52.7	-54.0	21.7	0.00e+00	0	45	0	358612992	60	19549
2026-01-29 08:30:01.25	155.66	40.15	-52.8	-54.1	21.6	0.00e+00	0	45	0	360710144	60	19911
2026-01-29 08:30:02.26	155.67	40.42	-52.8	-54.2	21.5	0.00e+00	0	45	0	362807296	60	19986
2026-01-29 08:30:03.27	155.68	40.69	-52.6	-53.8	21.7	0.00e+00	0	45	0	363855872	60	19290
2026-01-29 08:30:04.28	155.69	40.96	-52.5	-53.8	21.9	0.00e+00	0	45	0	365953024	60	19185
2026-01-29 08:30:05.29	155.70	41.23	-52.8	-54.1	21.6	0.00e+00	0	45	0	368050176	60	19863
2026-01-29 08:30:06.30	155.71	41.51	-52.8	-54.1	21.6	0.00e+00	0	45	0	370147328	60	19914
2026-01-29 08:30:07.30	155.73	41.78	-52.9	-54.3	21.4	0.00e+00	0	45	0	372244480	60	20361
2026-01-29 08:30:08.30	155.74	42.06	-53.5	-55.0	20.9	0.00e+00	0	45	0	373293056	60	22042
2026-01-29 08:30:09.31	155.75	42.34	-53.2	-54.7	21.1	0.00e+00	0	45	0	375390208	60	21276
2026-01-29 08:30:10.32	155.76	42.63	-53.5	-55.0	21.0	0.00e+00	0	45	0	377487360	60	22060
2026-01-29 08:30:11.32	155.77	42.91	-53.8	-55.3	20.7	0.00e+00	0	45	0	379584512	60	22823
2026-01-29 08:30:12.33	155.78	43.20	-53.8	-55.3	20.7	0.00e+00	0	45	0	380633088	60	22799
2026-01-29 08:30:13.34	155.80	43.49	-54.0	-55.6	20.5	0.00e+00	0	45	0	382730240	60	23484
2026-01-29 08:30:14.35	155.81	43.78	-54.0	-55.5	20.4	0.00e+00	0	45	0	384827392	60	23376
2026-01-29 08:30:15.34	155.82	44.07	-54.3	-55.9	20.4	0.00e+00	0	45	0	386924544	60	24452
2026-01-29 08:30:16.35	155.83	44.37	-54.3	-55.8	20.1	0.00e+00	0	45	0	389021696	60	24245
2026-01-29 08:30:17.35	155.84	44.67	-54.5	-56.2	19.9	0.00e+00	0	45	0	391118848	60	25294
2026-01-29 08:30:18.36	155.86	44.97	-54.8	-56.5	19.7	0.00e+00	0	45	0	392167424	60	26202
2026-01-29 08:30:19.36	155.87	45.27	-55.6	-57.6	18.8	0.00e+00	0	45	0	394264576	60	29606
2026-01-29 08:30:20.37	155.88	45.58	-55.9	-58.0	18.3	0.00e+00	0	45	0	396361728	60	31222
2026-01-29 08:30:21.37	155.90	45.89	-55.9	-58.0	18.2	0.00e+00	0	45	0	398458880	60	31219
2026-01-29 08:30:22.38	155.91	46.20	-56.1	-58.3	18.0	0.00e+00	0	45	0	400556032	60	32277
2026-01-29 08:30:23.39	155.92	46.51	-56.0	-58.2	18.1	0.00e+00	0	45	0	401604608	60	31914
2026-01-29 08:30:24.39	155.94	46.82	-56.3	-58.6	18.0	0.00e+00	0	45	0	403701760	60	33267
2026-01-29 08:30:25.40	155.95	47.14	-56.2	-58.5	18.0	0.00e+00	0	45	0	405798912	60	32901
2026-01-29 08:30:26.40	155.97	47.46	-56.3	-58.5	17.6	0.00e+00	0	45	0	407896064	60	33015
2026-01-29 08:30:27.41	155.98	47.78	-56.6	-59.0	17.5	0.00e+00	0	45	0	408944640	60	35002
2026-01-29 08:30:28.41	155.99	48.11	-57.3	-60.0	16.5	0.00e+00	0	45	0	411041792	60	39242
2026-01-29 08:30:29.42	156.01	48.43	-57.6	-60.7	15.8	0.00e+00	0	45	0	413138944	60	42411
2026-01-29 08:30:30.42	156.02	48.76	-57.3	-60.1	16.5	0.00e+00	0	45	0	415236096	60	39478
2026-01-29 08:30:31.43	156.04	49.10	-56.8	-59.4	17.0	0.00e+00	0	45	0	417333248	60	36663
2026-01-29 08:30:32.43	156.06	49.43	-57.2	-60.0	16.5	0.00e+00	0	45	0	419430400	60	39036
2026-01-29 08:30:33.44	156.07	49.77	-57.2	-60.0	16.8	0.00e+00	0	45	0	420478976	60	39008
2026-01-29 08:30:34.45	156.09	50.11	-57.0	-59.7	16.8	0.00e+00	0	45	0	422576128	60	37704
2026-01-29 08:30:35.46	156.10	50.45	-57.0	-59.6	16.7	0.00e+00	0	45	0	424673280	60	37493
2026-01-29 08:30:36.47	156.12	50.80	-57.1	-59.8	16.9	0.00e+00	0	45	0	426770432	60	38171
2026-01-29 08:30:37.47	156.14	51.14	-56.9	-59.5	17.3	0.00e+00	0	45	0	428867584	60	36783
2026-01-29 08:30:38.48	156.16	51.49	-56.7	-59.1	17.2	0.00e+00	0	45	0	429916160	60	35397
2026-01-29 08:30:39.49	156.17	51.85	-57.0	-59.5	17.0	0.00e+00	0	45	0	432013312	60	36981
2026-01-29 08:30:40.49	156.19	52.20	-57.3	-60.0	16.8	0.00e+00	0	45	0	434110464	60	39098
2026-01-29 08:30:41.50	156.21	52.56	-57.6	-60.6	16.2	0.00e+00	0	45	0	436207616	60	42013
2026-01-29 08:30:42.51	156.23	52.92	-57.6	-60.5	15.9	0.00e+00	0	45	0	437256192	60	41614
2026-01-29 08:30:43.51	156.25	53.28	-57.3	-60.0	16.5	0.00e+00	0	45	0	439353344	60	39317
2026-01-29 08:30:44.50	156.27	53.64	-56.8	-59.1	17.5	0.00e+00	0	45	0	441450496	60	35402
2026-01-29 08:30:45.51	156.29	54.01	-56.7	-59.1	17.5	0.00e+00	0	45	0	443547648	60	35318
2026-01-29 08:30:46.52	156.31	54.38	-57.2	-60.0	16.6	0.00e+00	0	45	0	445644800	60	38958
2026-01-29 08:30:47.52	156.33	54.75	-57.6	-60.7	15.8	0.00e+00	0	45	0	446693376	60	42329
2026-01-29 08:30:48.53	156.35	55.13	-57.8	-61.1	15.4	0.00e+00	0	45	0	448790528	60	44279
2026-01-29 08:30:49.53	156.37	55.51	-58.2	-61.8	14.7	0.00e+00	0	45	0	450887680	60	47975
2026-01-29 08:30:50.54	156.39	55.89	-57.9	-61.2	15.5	0.00e+00	0	45	0	452984832	60	44742
2026-01-29 08:30:51.54	156.42	56.27	-57.8	-61.0	15.5	0.00e+00	0	45	0	455081984	60	43766
2026-01-29 08:30:52.55	156.44	56.66	-58.1	-61.4	15.2	0.00e+00	0	45	0	457179136	60	46048
2026-01-29 08:30:53.55	156.46	57.05	-58.6	-62.4	14.2	7.00e-07	0	45	0	458227712	60	51895
2026-01-29 08:30:54.55	156.49	57.44	-58.9	-63.0	13.5	9.10e-06	0	45	0	460324864	60	55496
2026-01-29 08:30:55.56	156.51	57.83	-59.2	-63.8	12.4	7.93e-05	0	45	0	462422016	60	60696
2026-01-29 08:30:56.57	156.54	58.23	-59.3	-64.2	11.9	2.36e-04	0	45	0	464519168	60	63857
2026-01-29 08:30:57.58	156.56	58.63	-59.5	-64.8	11.3	5.95e-04	0	45	0	465567744	60	68081
2026-01-29 08:30:58.58	156.59	59.03	-59.7	-65.5	10.5	2.15e-03	0	45	0	467664896	60	73968
2026-01-29 08:30:59.58	156.62	59.44	-59.7	-65.7	10.3	4.93e-03	0	45	0	469762048	60	75747
2026-01-29 08:31:00.58	156.65	59.84	-59.7	-65.6	10.4	4.56e-03	0	45	0	471859200	60	74324
2026-01-29 08:31:01.58	156.68	60.25	-59.6	-65.1	10.7	5.55e-03	0	45	0	473956352	60	70371
2026-01-29 08:31:02.59	156.71	60.66	-60.0	-66.5	9.1	1.52e-02	0	45	0	475004928	60	82508
2026-01-29 08:31:03.60	156.74	61.08	-60.0	-66.8	8.9	2.43e-02	0	45	0	477102080	60	85653
2026-01-29 08:31:04.60	156.77	61.50	-60.0	-66.5	9.3	2.07e-02	0	45	0	479199232	60	82418
2026-01-29 08:31:05.61	156.80	61.92	-60.0	-66.7	9.2	2.17e-02	0	45	0	481296384	60	84342
2026-01-29 08:31:06.61	156.84	62.34	-59.9	-66.4	9.4	2.11e-02	0	45	0	483393536	60	82316
2026-01-29 08:31:07.62	156.87	62.77	-60.1	-67.4	8.5	4.26e-02	0	45	0	484442112	60	91472
2026-01-29 08:31:08.62	156.91	63.20	-60.2	-67.6	8.0	5.60e-02	0	45	0	486539264	60	94408
2026-01-29 08:31:09.63	156.94	63.63	-60.3	-68.2	7.4	8.43e-02	0	45	0	488636416	60	100737
2026-01-29 08:31:10.63	156.98	64.06	-60.4	-68.8	6.4	1.86e-01	0	45	0	490733568	60	108526
2026-01-29 08:31:11.64	157.02	64.50	-60.5	-69.7	5.6	3.35e-01	0	45	0	492830720	60	119121
2026-01-29 08:31:12.64	157.06	64.94	-60.5	-70.1	5.0	4.79e-01	0	45	0	493879296	60	125785
2026-01-29 08:31:13.65	157.11	65.38	-60.5	-70.1	4.9	6.32e-01	0	46	0	495976448	60	125647
2026-01-29 08:31:14.66	157.15	65.83	-60.5	-70.6	4.8	6.28e-01	0	46	0	498073600	60	132790
2026-01-29 08:31:15.66	157.20	66.27	-60.5	-71.0	4.5	4.41e-01	0	46	0	500170752	60	139082
2026-01-29 08:31:16.67	157.24	66.72	-56.9	-59.5	17.2	5.74e-01	0	45	104	500170752	60	37192
2026-01-29 08:31:17.67	157.29	67.17	-58.6	-62.9	13.0	1.58e-01	0	45	0	1048576	60	54815
2026-01-29 08:31:18.67	157.34	67.62	-56.3	-58.7	16.0	4.22e-03	0	45	0	2097152	60	33685
2026-01-29 08:31:19.67	157.40	68.08	-60.3	-69.3	7.7	1.06e+00	0	45	0	4194304	60	114845
2026-01-29 08:31:20.68	157.45	68.54	-56.6	-59.2	17.0	0.00e+00	0	45	0	6291456	60	35936
2026-01-29 08:31:21.69	157.51	69.00	-57.4	-60.6	15.7	0.00e+00	0	45	0	8388608	60	42222
2026-01-29 08:31:22.69	157.57	69.46	-57.9	-62.0	14.5	0.00e+00	0	45	0	9437184	60	49196
2026-01-29 08:31:23.69	157.64	69.93	-58.2	-62.8	13.3	5.30e-06	0	45	0	11534336	60	54216
2026-01-29 08:31:24.70	157.71	70.40	-58.3	-63.0	13.3	1.83e-05	0	45	0	13631488	60	55614
2026-01-29 08:31:25.71	157.78	70.87	-58.1	-62.6	13.5	6.10e-06	0	45	0	15728640	60	52583
2026-01-29 08:31:26.71	157.85	71.34	-58.7	-64.7	11.3	8.23e-05	0	45	0	16777216	60	67048
2026-01-29 08:31:27.72	157.93	71.82	-59.0	-66.4	9.1	5.22e-03	0	46	0	18874368	60	81439
2026-01-29 08:31:28.72	158.01	72.29	-58.8	-66.2	9.6	1.32e-02	0	46	0	20971520	60	79709
2026-01-29 08:31:29.72	158.10	72.77	-58.2	-64.1	12.0	5.20e-03	0	45	0	23068672	60	63111
2026-01-29 08:31:30.72	158.19	73.24	-57.4	-62.1	14.1	9.10e-06	0	45	0	25165824	60	49807
2026-01-29 08:31:31.72	158.28	73.72	-56.8	-60.8	15.4	7.00e-07	0	45	0	26214400	60	43155
2026-01-29 08:31:32.73	158.39	74.21	-55.4	-58.3	17.7	0.00e+00	0	45	0	28311552	60	32271
2026-01-29 08:31:33.73	158.50	74.69	-53.7	-55.8	20.1	0.00e+00	0	45	0	30408704	60	24205
2026-01-29 08:31:34.73	158.61	75.18	-53.3	-55.3	20.4	0.00e+00	0	45	0	32505856	60	22740
2026-01-29 08:31:35.73	158.74	75.67	-54.3	-57.0	18.5	0.00e+00	0	46	0	34603008	60	27737
2026-01-29 08:31:36.74	158.87	76.16	-54.6	-57.5	18.3	0.00e+00	0	45	0	36700160	60	29299
2026-01-29 08:31:37.75	159.01	76.65	-54.8	-58.0	17.5	0.00e+00	0	45	0	37748736	60	31288
2026-01-29 08:31:38.75	159.17	77.15	-55.7	-60.4	15.5	0.00e+00	0	45	0	39845888	60	40846
2026-01-29 08:31:39.75	159.33	77.64	-54.8	-58.5	17.4	0.00e+00	0	45	0	41943040	60	32993
2026-01-29 08:31:40.76	159.52	78.14	-54.0	-57.4	17.9	0.00e+00	0	45	0	44040192	60	29096
2026-01-29 08:31:41.76	159.71	78.64	-54.0	-57.7	17.8	0.00e+00	0	45	0	45088768	60	30176
2026-01-29 08:31:42.76	159.93	79.13	-54.3	-58.4	17.0	0.00e+00	0	45	0	47185920	60	32532
2026-01-29 08:31:43.76	160.16	79.63	-54.2	-58.1	17.2	0.00e+00	0	45	0	49283072	60	31474
2026-01-29 08:31:44.77	160.42	80.14	-54.5	-58.4	16.8	0.00e+00	0	45	0	51380224	60	32713
2026-01-29 08:31:45.77	160.71	80.64	-54.4	-58.3	17.0	0.00e+00	0	45	0	53477376	60	32340
2026-01-29 08:31:46.78	161.03	81.14	-54.5	-58.7	16.3	0.00e+00	0	45	0	54525952	60	33596
2026-01-29 08:31:47.78	161.39	81.65	-54.9	-59.6	15.8	0.00e+00	0	45	0	56623104	60	37379
2026-01-29 08:31:48.79	161.80	82.16	-54.0	-57.4	18.1	0.00e+00	0	45	0	58720256	60	29064
2026-01-29 08:31:49.80	162.26	82.66	-53.3	-56.1	19.0	0.00e+00	0	45	0	60817408	60	24884
2026-01-29 08:31:50.81	162.79	83.17	-53.5	-56.4	18.7	0.00e+00	0	45	0	62914560	60	26018
2026-01-29 08:31:51.82	163.41	83.68	-53.7	-56.7	18.7	0.00e+00	0	45	0	63963136	60	26821
2026-01-29 08:31:52.82	164.13	84.19	-53.5	-56.3	18.9	0.00e+00	0	46	0	66060288	60	25666
2026-01-29 08:31:53.83	165.00	84.70	-53.1	-55.5	19.8	0.00e+00	0	45	0	68157440	60	23344
2026-01-29 08:31:54.84	166.05	85.21	-53.8	-56.4	19.0	0.00e+00	0	45	0	70254592	60	25797
2026-01-29 08:31:55.84	167.34	85.71	-54.0	-56.7	19.0	0.00e+00	0	46	0	72351744	60	26781
2026-01-29 08:31:56.84	168.97	86.21	-54.6	-57.6	18.0	0.00e+00	0	45	0	73400320	60	29614
2026-01-29 08:31:57.85	171.11	86.71	-54.6	-57.5	18.1	0.00e+00	0	45	0	75497472	60	29535
2026-01-29 08:31:58.85	173.98	87.20	-55.1	-58.2	17.3	0.00e+00	0	45	0	77594624	60	31934
2026-01-29 08:31:59.86	178.11	87.69	-56.0	-59.8	16.2	0.00e+00	0	45	0	79691776	60	38501
2026-01-29 08:32:00.86	184.30	88.15	-56.7	-61.2	14.7	7.00e-07	0	45	0	81788928	60	45139
2026-01-29 08:32:01.86	194.40	88.58	-57.1	-62.7	12.7	2.13e-05	0	45	0	82837504	60	53638
2026-01-29 08:32:02.86	211.99	88.93	-57.1	-62.7	13.8	3.26e-04	0	45	0	84934656	60	53739
2026-01-29 08:32:03.87	240.85	89.10	-55.2	-58.1	17.6	0.00e+00	0	45	0	87031808	60	31609
2026-01-29 08:32:04.87	271.67	89.00	-55.3	-58.5	17.0	0.00e+00	0	45	0	89128960	60	32834
2026-01-29 08:32:05.87	292.23	88.69	-56.0	-60.5	15.1	0.00e+00	0	45	0	91226112	60	41391
2026-01-29 08:32:06.88	304.08	88.27	-55.1	-58.8	16.9	0.00e+00	0	45	0	92274688	60	34102
2026-01-29 08:32:07.89	311.15	87.81	-55.1	-59.2	16.4	0.00e+00	0	45	0	94371840	60	35766
2026-01-29 08:32:08.89	315.69	87.33	-55.7	-61.2	14.0	0.00e+00	0	45	0	96468992	60	45049
2026-01-29 08:32:09.90	318.86	86.84	-55.5	-60.7	14.6	3.80e-06	0	45	0	98566144	60	42373
2026-01-29 08:32:10.91	321.17	86.34	-54.6	-58.4	17.3	0.00e+00	0	46	0	99614720	60	32730
2026-01-29 08:32:11.92	322.92	85.84	-54.2	-57.7	17.4	0.00e+00	0	45	0	101711872	60	29958
2026-01-29 08:32:12.92	324.28	85.33	-54.5	-58.3	17.0	0.00e+00	0	45	0	103809024	60	32384
2026-01-29 08:32:13.93	325.39	84.83	-54.6	-58.5	16.7	0.00e+00	0	45	0	105906176	60	33006
2026-01-29 08:32:14.94	326.30	84.32	-54.8	-58.7	16.3	0.00e+00	0	45	0	108003328	60	33928
2026-01-29 08:32:15.94	327.05	83.81	-54.9	-59.0	16.6	0.00e+00	0	45	0	110100480	60	34728
2026-01-29 08:32:16.95	327.69	83.30	-55.3	-59.7	15.5	0.00e+00	0	45	0	111149056	60	37890
2026-01-29 08:32:17.95	328.24	82.80	-55.8	-60.7	14.9	0.00e+00	0	45	0	113246208	60	42473
2026-01-29 08:32:18.96	328.72	82.29	-56.0	-60.9	14.8	0.00e+00	0	45	0	115343360	60	43229
2026-01-29 08:32:19.96	329.14	81.79	-56.7	-63.4	12.0	3.00e-06	0	45	0	117440512	60	58191
2026-01-29 08:32:20.96	329.51	81.29	-57.0	-64.0	11.4	3.22e-04	0	45	0	119537664	60	61930
2026-01-29 08:32:21.97	329.84	80.78	-56.5	-61.5	14.4	9.38e-05	0	45	0	120586240	60	46451
2026-01-29 08:32:22.97	330.14	80.28	-55.4	-58.8	17.2	0.00e+00	0	45	0	122683392	60	34061
2026-01-29 08:32:23.97	330.40	79.78	-55.6	-58.7	17.3	0.00e+00	0	45	0	124780544	60	33691
2026-01-29 08:32:24.98	330.65	79.27	-56.3	-59.7	16.5	0.00e+00	0	45	0	126877696	60	37770
2026-01-29 08:32:25.99	330.87	78.77	-57.0	-60.6	15.5	0.00e+00	0	45	0	127926272	60	42221
2026-01-29 08:32:26.99	331.07	78.28	-57.5	-61.3	15.1	0.00e+00	0	45	0	130023424	60	45275
2026-01-29 08:32:28.00	331.25	77.78	-57.6	-61.0	15.2	0.00e+00	0	45	0	132120576	60	44124
2026-01-29 08:32:29.00	331.42	77.28	-58.2	-62.0	14.3	0.00e+00	0	45	0	134217728	60	49595
2026-01-29 08:32:30.01	331.58	76.79	-58.2	-62.2	14.3	3.80e-06	0	45	0	136314880	60	50412
2026-01-29 08:32:31.01	331.73	76.30	-57.8	-61.7	14.9	1.50e-06	0	45	0	137363456	60	47807
2026-01-29 08:32:32.02	331.86	75.80	-56.8	-60.0	16.2	0.00e+00	0	45	0	139460608	60	39324
2026-01-29 08:32:33.03	331.99	75.31	-57.1	-60.9	14.9	0.00e+00	0	45	0	141557760	60	43445
2026-01-29 08:32:34.03	332.11	74.83	-57.7	-62.3	13.7	0.00e+00	0	45	0	143654912	60	50919
2026-01-29 08:32:35.04	332.22	74.34	-57.8	-62.1	14.4	4.11e-05	0	45	0	145752064	60	49950
2026-01-29 08:32:36.04	332.33	73.86	-57.9	-62.5	12.9	9.10e-06	0	45	0	147849216	60	52278
2026-01-29 08:32:37.04	332.42	73.38	-58.3	-63.3	12.9	5.56e-05	0	45	0	148897792	60	57126
2026-01-29 08:32:38.04	332.52	72.90	-57.9	-62.3	13.8	8.30e-06	0	45	0	150994944	60	51137
2026-01-29 08:32:39.05	332.61	72.42	-58.3	-63.4	12.3	3.89e-05	0	46	0	153092096	60	58173
2026-01-29 08:32:40.06	332.69	71.94	-58.5	-64.5	11.2	3.88e-04	0	45	0	155189248	60	65797
2026-01-29 08:32:41.06	332.77	71.47	-57.7	-62.2	14.1	3.20e-05	0	45	0	156237824	60	50647
2026-01-29 08:32:42.07	332.84	71.00	-57.9	-62.8	12.7	1.50e-06	0	45	0	158334976	60	53948
2026-01-29 08:32:43.08	332.91	70.52	-58.9	-65.3	11.0	3.47e-03	0	45	0	160432128	60	72182
2026-01-29 08:32:44.08	332.98	70.06	-58.5	-63.7	12.6	5.32e-04	0	45	0	162529280	60	59924
2026-01-29 08:32:45.09	333.05	69.59	-58.9	-64.1	11.7	1.35e-04	0	46	0	164626432	60	62798
2026-01-29 08:32:46.09	333.11	69.13	-59.4	-65.6	10.7	1.38e-03	0	45	0	165675008	60	74341
2026-01-29 08:32:47.09	333.17	68.67	-59.7	-66.1	9.8	6.71e-03	0	45	0	167772160	60	79290
2026-01-29 08:32:48.10	333.22	68.21	-59.8	-67.0	8.9	3.05e-02	0	45	0	169869312	60	87472
2026-01-29 08:32:49.10	333.28	67.76	-59.5	-66.0	9.9	1.24e-02	0	46	0	171966464	60	78187
2026-01-29 08:32:50.10	333.33	67.31	-59.2	-64.9	11.4	9.17e-03	0	46	0	174063616	60	68763
2026-01-29 08:32:51.11	333.38	66.85	-58.1	-62.1	14.0	2.22e-04	0	46	0	175112192	60	50072
2026-01-29 08:32:52.11	333.43	66.41	-57.6	-61.1	15.1	0.00e+00	0	45	0	177209344	60	44276
2026-01-29 08:32:53.12	333.48	65.96	-57.2	-60.3	15.9	0.00e+00	0	45	0	179306496	60	40475
2026-01-29 08:32:54.12	333.52	65.52	-56.5	-59.0	17.3	0.00e+00	0	45	0	181403648	60	34750
2026-01-29 08:32:55.13	333.56	65.07	-55.9	-58.2	18.1	0.00e+00	0	45	0	183500800	60	31746
2026-01-29 08:32:56.13	333.61	64.64	-56.6	-59.1	17.3	0.00e+00	0	45	0	184549376	60	35134
2026-01-29 08:32:57.14	333.65	64.20	-56.5	-59.0	17.5	0.00e+00	0	45	0	186646528	60	35037
2026-01-29 08:32:58.15	333.68	63.76	-55.7	-58.0	18.2	0.00e+00	0	45	0	188743680	60	31098
2026-01-29 08:32:59.15	333.72	63.33	-55.5	-57.9	18.3	0.00e+00	0	45	0	190840832	60	30600
2026-01-29 08:33:00.15	333.76	62.91	-55.3	-57.8	17.9	0.00e+00	0	45	0	192937984	60	30392
2026-01-29 08:33:01.16	333.79	62.48	-55.6	-58.4	17.4	0.00e+00	0	45	0	193986560	60	32595
2026-01-29 08:33:02.17	333.83	62.05	-55.6	-58.5	17.3	0.00e+00	0	45	0	196083712	60	32985
2026-01-29 08:33:03.17	333.86	61.64	-54.5	-56.7	18.8	0.00e+00	0	45	0	198180864	60	26928
2026-01-29 08:33:04.18	333.89	61.22	-54.1	-56.2	19.6	0.00e+00	0	45	0	200278016	60	25407
2026-01-29 08:33:05.19	333.92	60.80	-54.0	-56.1	19.6	0.00e+00	0	45	0	202375168	60	24967
2026-01-29 08:33:06.19	333.95	60.39	-53.3	-55.0	20.5	0.00e+00	0	45	0	203423744	60	22045
2026-01-29 08:33:07.19	333.98	59.98	-53.3	-55.0	20.5	0.00e+00	0	45	0	205520896	60	21974
2026-01-29 08:33:08.20	334.01	59.57	-53.5	-55.1	20.5	0.00e+00	0	45	0	207618048	60	22181
2026-01-29 08:33:09.20	334.04	59.17	-53.9	-55.5	20.2	0.00e+00	0	45	0	209715200	60	23430
2026-01-29 08:33:10.20	334.07	58.77	-53.8	-55.4	20.3	0.00e+00	0	45	0	211812352	60	23170
2026-01-29 08:33:11.20	334.09	58.37	-53.8	-55.3	20.6	0.00e+00	0	45	0	212860928	60	22725
2026-01-29 08:33:12.21	334.12	57.97	-53.5	-54.9	21.0	0.00e+00	0	45	0	214958080	60	21749
2026-01-29 08:33:13.21	334.15	57.58	-54.5	-56.3	19.7	0.00e+00	0	45	0	217055232	60	25529
2026-01-29 08:33:14.22	334.17	57.19	-55.7	-57.9	18.1	0.00e+00	0	46	0	219152384	60	30908
2026-01-29 08:33:15.22	334.19	56.80	-54.6	-56.4	19.7	0.00e+00	0	45	0	220200960	60	25799
2026-01-29 08:33:16.23	334.22	56.41	-52.8	-54.2	21.5	0.00e+00	0	45	0	222298112	60	19994
2026-01-29 08:33:17.24	334.24	56.03	-52.7	-54.1	21.6	0.00e+00	0	45	0	224395264	60	19778
2026-01-29 08:33:18.24	334.26	55.65	-53.7	-55.4	20.4	0.00e+00	0	45	0	226492416	60	23037
2026-01-29 08:33:19.25	334.29	55.27	-53.7	-55.4	20.4	0.00e+00	0	46	0	228589568	60	23116
2026-01-29 08:33:20.26	334.31	54.89	-53.4	-55.0	20.7	0.00e+00	0	45	0	230686720	60	22083
2026-01-29 08:33:21.26	334.33	54.52	-54.1	-55.9	19.9	0.00e+00	0	46	0	231735296	60	24564
2026-01-29 08:33:22.27	334.35	54.15	-55.3	-57.8	18.5	0.00e+00	0	46	0	233832448	60	30277
2026-01-29 08:33:23.27	334.37	53.78	-55.6	-58.3	17.9	0.00e+00	0	45	0	235929600	60	32042
2026-01-29 08:33:24.27	334.39	53.42	-54.5	-56.6	19.6	0.00e+00	0	45	0	238026752	60	26392
2026-01-29 08:33:25.27	334.41	53.06	-53.7	-55.4	20.6	0.00e+00	0	45	0	240123904	60	23035
2026-01-29 08:33:26.26	334.43	52.71	-53.5	-55.1	20.5	0.00e+00	0	46	0	241172480	60	22384
2026-01-29 08:33:27.27	334.44	52.35	-54.7	-56.8	19.0	0.00e+00	0	45	0	243269632	60	27044
2026-01-29 08:33:28.27	334.46	52.00	-55.7	-58.2	17.1	0.00e+00	0	46	0	245366784	60	31886
2026-01-29 08:33:29.27	334.48	51.65	-56.0	-58.7	17.2	0.00e+00	0	45	0	247463936	60	33909
2026-01-29 08:33:30.27	334.50	51.30	-55.2	-57.4	18.8	0.00e+00	0	45	0	248512512	60	28893
2026-01-29 08:33:31.27	334.52	50.95	-54.5	-56.4	19.5	0.00e+00	0	45	0	250609664	60	25750
2026-01-29 08:33:32.27	334.53	50.61	-53.8	-55.4	20.5	0.00e+00	0	45	0	252706816	60	23128
2026-01-29 08:33:33.28	334.55	50.27	-54.0	-55.6	20.2	0.00e+00	0	45	0	254803968	60	23483
2026-01-29 08:33:34.28	334.57	49.93	-53.6	-55.1	20.6	0.00e+00	0	45	0	256901120	60	22245
2026-01-29 08:33:35.28	334.58	49.60	-53.8	-55.4	20.4	0.00e+00	0	45	0	257949696	60	23041
2026-01-29 08:33:36.29	334.60	49.26	-54.8	-56.7	19.2	0.00e+00	0	46	0	260046848	60	26730
2026-01-29 08:33:37.30	334.61	48.93	-56.5	-59.4	16.6	0.00e+00	0	46	0	262144000	60	36486
2026-01-29 08:33:38.30	334.63	48.60	-58.1	-62.5	13.3	0.00e+00	0	46	0	264241152	60	52535
2026-01-29 08:33:39.30	334.64	48.28	-57.5	-61.3	14.9	0.00e+00	0	46	0	266338304	60	45576
2026-01-29 08:33:40.31	334.66	47.95	-56.0	-58.6	17.4	0.00e+00	0	46	0	267386880	60	33495
2026-01-29 08:33:41.31	334.67	47.63	-54.9	-56.9	18.9	0.00e+00	0	45	0	269484032	60	27307
2026-01-29 08:33:42.31	334.69	47.31	-54.3	-56.0	19.9	0.00e+00	0	46	0	271581184	60	24651
2026-01-29 08:33:43.31	334.70	47.00	-53.9	-55.5	20.1	0.00e+00	0	46	0	273678336	60	23363
2026-01-29 08:33:44.31	334.72	46.68	-55.0	-57.0	18.9	0.00e+00	0	46	0	274726912	60	27737
2026-01-29 08:33:45.31	334.73	46.37	-55.4	-57.7	18.1	0.00e+00	0	45	0	276824064	60	29902
2026-01-29 08:33:46.31	334.74	46.07	-56.0	-58.6	17.3	0.00e+00	0	46	0	278921216	60	33325
2026-01-29 08:33:47.32	334.76	45.76	-55.9	-58.6	17.4	0.00e+00	0	46	0	281018368	60	33320
2026-01-29 08:33:48.32	334.77	45.45	-56.5	-59.8	16.1	0.00e+00	0	46	0	283115520	60	38440
2026-01-29 08:33:49.32	334.78	45.15	-56.4	-59.8	15.8	0.00e+00	0	46	0	284164096	60	38459
2026-01-29 08:33:50.33	334.80	44.85	-56.2	-59.5	16.1	0.00e+00	0	46	0	286261248	60	37014
2026-01-29 08:33:51.33	334.81	44.55	-54.7	-57.1	18.4	0.00e+00	0	46	0	288358400	60	27960
2026-01-29 08:33:52.33	334.82	44.26	-53.6	-55.5	19.9	0.00e+00	0	45	0	290455552	60	23344
2026-01-29 08:33:53.34	334.83	43.96	-52.0	-53.3	21.9	0.00e+00	0	45	0	292552704	60	18164
2026-01-29 08:33:54.34	334.85	43.67	-51.0	-52.2	22.6	0.00e+00	0	45	0	294649856	60	15991
2026-01-29 08:33:55.34	334.86	43.39	-51.2	-52.3	22.7	0.00e+00	0	45	0	295698432	60	16236
2026-01-29 08:33:56.34	334.87	43.10	-51.7	-52.9	22.2	0.00e+00	0	46	0	297795584	60	17368
2026-01-29 08:33:57.35	334.88	42.81	-52.6	-54.0	21.4	0.00e+00	0	45	0	299892736	60	19635
2026-01-29 08:33:58.35	334.89	42.53	-53.6	-55.3	20.3	0.00e+00	0	45	0	301989888	60	22919
2026-01-29 08:33:59.35	334.91	42.25	-55.2	-57.5	18.3	0.00e+00	0	45	0	303038464	60	29330
2026-01-29 08:34:00.36	334.92	41.97	-55.5	-58.0	17.8	0.00e+00	0	45	0	305135616	60	31056
2026-01-29 08:34:01.36	334.93	41.70	-56.0	-58.8	17.1	0.00e+00	0	45	0	307232768	60	34043
2026-01-29 08:34:02.36	334.94	41.42	-55.7	-58.4	17.5	0.00e+00	0	45	0	309329920	60	32480
2026-01-29 08:34:03.37	334.95	41.15	-54.9	-57.0	18.8	0.00e+00	0	46	0	311427072	60	27849
2026-01-29 08:34:04.36	334.96	40.88	-53.6	-55.3	20.4	0.00e+00	0	45	0	312475648	60	22689
2026-01-29 08:34:05.36	334.97	40.62	-53.4	-54.9	20.6	0.00e+00	0	46	0	314572800	60	21745
2026-01-29 08:34:06.36	334.98	40.35	-53.3	-54.8	20.6	0.00e+00	0	45	0	316669952	60	21588
2026-01-29 08:34:07.37	334.99	40.09	-53.7	-55.4	20.0	0.00e+00	0	45	0	318767104	60	23037
2026-01-29 08:34:08.37	335.01	39.82	-55.0	-57.2	18.5	0.00e+00	0	45	0	320864256	60	28355
2026-01-29 08:34:09.37	335.02	39.57	-55.7	-58.4	17.1	0.00e+00	0	45	0	321912832	60	32488
2026-01-29 08:34:10.38	335.03	39.31	-56.3	-59.9	15.9	0.00e+00	0	45	0	324009984	60	38530
2026-01-29 08:34:11.38	335.04	39.05	-56.9	-61.5	13.9	0.00e+00	0	45	0	326107136	60	46769
2026-01-29 08:34:12.39	335.05	38.79	-57.8	-65.2	10.2	2.11e-03	0	45	0	328204288	60	71079
2026-01-29 08:34:13.39	335.06	38.54	-57.9	-66.0	9.0	8.20e-03	0	45	0	330301440	60	78420
2026-01-29 08:34:14.39	335.07	38.29	-58.3	-66.7	8.5	3.08e-02	0	46	0	331350016	60	85128
2026-01-29 08:34:15.39	335.08	38.04	-58.6	-66.1	9.2	6.59e-02	0	45	0	333447168	60	79480
2026-01-29 08:34:16.40	335.09	37.80	-57.9	-62.9	12.8	1.19e-02	0	46	0	335544320	60	54873
2026-01-29 08:34:17.40	335.10	37.55	-57.2	-60.9	15.0	6.10e-06	0	45	0	337641472	60	43507
2026-01-29 08:34:18.40	335.11	37.31	-56.1	-58.9	16.9	0.00e+00	0	45	0	338690048	60	34504
2026-01-29 08:34:19.41	335.12	37.07	-55.4	-57.7	18.2	0.00e+00	0	45	0	340787200	60	30006
2026-01-29 08:34:20.41	335.12	36.83	-54.7	-56.6	19.1	0.00e+00	0	45	0	342884352	60	26435
2026-01-29 08:34:21.42	335.13	36.59	-55.0	-57.1	18.7	0.00e+00	0	45	0	344981504	60	28051
2026-01-29 08:34:22.43	335.14	36.35	-54.9	-57.0	18.6	0.00e+00	0	46	0	347078656	60	27636
2026-01-29 08:34:23.43	335.15	36.12	-55.2	-57.5	18.1	0.00e+00	0	45	0	348127232	60	29233
2026-01-29 08:34:24.43	335.16	35.88	-56.0	-58.8	16.5	0.00e+00	0	45	0	350224384	60	34023
2026-01-29 08:34:25.43	335.17	35.65	-56.7	-60.2	15.2	0.00e+00	0	45	0	352321536	60	39931
2026-01-29 08:34:26.44	335.18	35.42	-57.1	-61.2	14.5	2.20e-06	0	46	0	354418688	60	44791
2026-01-29 08:34:27.45	335.19	35.19	-57.6	-62.9	12.7	2.36e-05	0	45	0	356515840	60	54966
2026-01-29 08:34:28.45	335.20	34.97	-57.4	-63.1	12.0	3.77e-04	0	45	0	358612992	60	56080
2026-01-29 08:34:29.46	335.21	34.74	-57.4	-63.7	11.6	4.89e-04	0	45	0	359661568	60	60071
2026-01-29 08:34:30.46	335.22	34.52	-57.8	-64.8	10.4	2.63e-03	0	45	0	361758720	60	68219
2026-01-29 08:34:31.46	335.22	34.30	-58.0	-65.0	10.4	6.64e-03	0	45	0	363855872	60	69989
2026-01-29 08:34:32.46	335.23	34.08	-58.2	-64.9	10.4	6.84e-03	0	46	0	365953024	60	68741
2026-01-29 08:34:33.47	335.24	33.86	-58.3	-65.0	10.0	3.70e-03	0	46	0	367001600	60	69491
2026-01-29 08:34:34.47	335.25	33.64	-58.1	-63.9	11.5	9.02e-04	0	46	0	369098752	60	61425
2026-01-29 08:34:35.48	335.26	33.43	-57.6	-62.7	12.8	1.70e-04	0	46	0	371195904	60	53293
2026-01-29 08:34:36.48	335.27	33.22	-57.2	-61.5	13.9	7.60e-06	0	45	0	373293056	60	46442
2026-01-29 08:34:37.49	335.28	33.00	-57.4	-61.6	13.8	6.10e-06	0	45	0	375390208	60	47307
2026-01-29 08:34:38.49	335.28	32.79	-57.0	-60.6	15.0	0.00e+00	0	45	0	376438784	60	41962
2026-01-29 08:34:39.50	335.29	32.58	-56.6	-59.9	15.9	0.00e+00	0	45	0	378535936	60	38549
2026-01-29 08:34:40.50	335.30	32.37	-56.5	-59.7	16.1	0.00e+00	0	45	0	380633088	60	37745
2026-01-29 08:34:41.51	335.31	32.17	-55.9	-59.0	16.6	0.00e+00	0	45	0	382730240	60	34963
2026-01-29 08:34:42.51	335.32	31.96	-55.6	-58.4	17.4	0.00e+00	0	45	0	384827392	60	32693
2026-01-29 08:34:43.52	335.32	31.76	-55.3	-58.0	17.7	0.00e+00	0	45	0	385875968	60	31015
2026-01-29 08:34:44.52	335.33	31.56	-55.0	-57.5	18.2	0.00e+00	0	45	0	387973120	60	29512
2026-01-29 08:34:45.52	335.34	31.36	-54.6	-56.8	19.0	0.00e+00	0	45	0	390070272	60	27056
2026-01-29 08:34:46.52	335.35	31.16	-54.6	-56.8	19.0	0.00e+00	0	45	0	392167424	60	27145
2026-01-29 08:34:47.53	335.36	30.96	-54.8	-56.9	18.9	0.00e+00	0	45	0	393216000	60	27288
2026-01-29 08:34:48.52	335.36	30.76	-54.6	-56.6	19.2	0.00e+00	0	45	0	395313152	60	26433
2026-01-29 08:34:49.52	335.37	30.57	-54.9	-56.9	18.8	0.00e+00	0	45	0	397410304	60	27300
2026-01-29 08:34:50.53	335.38	30.37	-55.3	-57.5	18.1	0.00e+00	0	45	0	399507456	60	29474
2026-01-29 08:34:51.53	335.39	30.18	-56.1	-58.7	17.0	0.00e+00	0	45	0	401604608	60	33631
2026-01-29 08:34:52.54	335.39	29.99	-56.6	-59.7	15.8	0.00e+00	0	45	0	403701760	60	37661
2026-01-29 08:34:53.53	335.40	29.80	-58.6	-63.7	8.6	6.10e-06	0	45	0	404750336	60	60037
2026-01-29 08:34:54.53	335.41	29.61	-59.5	-77.2	3.6	1.51e+00	0	46	104	405798912	60	282517
2026-01-29 08:34:55.53	335.42	29.43	-59.5	-77.0	3.6	1.51e+00	0	46	104	405798912	60	275987
2026-01-29 08:34:56.54	335.42	29.24	-59.7	-77.0	3.6	1.51e+00	0	46	104	405798912	60	276597
2026-01-29 08:34:57.55	335.43	29.05	-60.9	-77.3	3.6	1.51e+00	0	46	104	405798912	60	288555
2026-01-29 08:34:58.55	335.44	28.87	-60.8	-77.5	3.6	1.51e+00	0	45	104	405798912	60	294292
2026-01-29 08:34:59.55	335.45	28.69	-61.3	-77.7	3.6	1.51e+00	0	46	104	405798912	60	301096
2026-01-29 08:35:00.56	335.45	28.50	-59.8	-77.5	3.6	1.51e+00	0	45	104	405798912	60	293307
2026-01-29 08:35:01.56	335.46	28.33	-61.3	-78.1	3.6	1.51e+00	0	46	104	405798912	60	314851
2026-01-29 08:35:02.56	335.47	28.15	-60.4	-77.8	3.6	1.51e+00	0	45	104	405798912	60	303767
2026-01-29 08:35:03.56	335.48	27.97	-60.6	-78.0	3.6	1.51e+00	0	46	104	405798912	60	311834
2026-01-29 08:35:04.57	335.48	27.79	-60.0	-78.0	3.6	1.51e+00	0	46	104	405798912	60	311054
2026-01-29 08:35:05.57	335.49	27.62	-58.2	-77.0	3.6	1.51e+00	0	46	104	405798912	60	278878
2026-01-29 08:35:06.57	335.50	27.44	-58.6	-77.5	3.6	1.51e+00	0	46	104	405798912	60	293912
2026-01-29 08:35:07.58	335.50	27.27	-59.4	-77.8	3.6	1.51e+00	0	46	104	405798912	60	304691
2026-01-29 08:35:08.58	335.51	27.10	-59.3	-77.7	3.6	1.51e+00	0	46	104	405798912	60	299778
2026-01-29 08:35:09.59	335.52	26.92	-59.4	-77.9	3.6	1.51e+00	0	46	104	405798912	60	306583
2026-01-29 08:35:10.59	335.53	26.75	-59.4	-77.6	3.6	1.51e+00	0	46	104	405798912	60	298361
2026-01-29 08:35:11.60	335.53	26.58	-59.4	-77.6	3.6	1.51e+00	0	45	104	405798912	60	296923
2026-01-29 08:35:12.61	335.54	26.41	-59.3	-77.6	3.6	1.51e+00	0	45	104	405798912	60	297570
2026-01-29 08:35:13.60	335.55	26.25	-59.4	-77.6	3.6	1.51e+00	0	46	104	405798912	60	298660
2026-01-29 08:35:14.61	335.55	26.08	-59.4	-77.5	3.6	1.51e+00	0	46	104	405798912	60	294722
2026-01-29 08:35:15.61	335.56	25.92	-59.4	-77.5	3.6	1.51e+00	0	46	104	405798912	60	295228
2026-01-29 08:35:16.62	335.57	25.75	-59.4	-77.7	3.6	1.51e+00	0	46	104	405798912	60	300785
2026-01-29 08:35:17.63	335.57	25.59	-59.5	-77.7	3.6	1.51e+00	0	46	104	405798912	60	300527
2026-01-29 08:35:18.63	335.58	25.43	-59.2	-77.6	3.6	1.51e+00	0	46	104	405798912	60	297728
2026-01-29 08:35:19.63	335.59	25.27	-58.5	-77.6	3.6	1.51e+00	0	46	104	405798912	60	297189
2026-01-29 08:35:20.64	335.59	25.10	-60.8	-78.2	3.6	1.51e+00	0	46	104	405798912	60	318720
2026-01-29 08:35:21.65	335.60	24.94	-60.5	-78.0	3.5	1.51e+00	0	46	104	405798912	60	311506
2026-01-29 08:35:22.65	335.61	24.79	-60.9	-78.1	3.6	1.51e+00	0	46	104	405798912	60	316106
2026-01-29 08:35:23.66	335.61	24.63	-61.9	-78.5	3.6	1.51e+00	0	46	104	405798912	60	331238
2026-01-29 08:35:24.67	335.62	24.47	-61.0	-78.3	3.6	1.51e+00	0	46	104	405798912	60	320544
2026-01-29 08:35:25.68	335.63	24.32	-61.8	-78.2	3.6	1.51e+00	0	46	104	405798912	60	318693
2026-01-29 08:35:26.68	335.63	24.16	-61.0	-78.2	3.6	1.51e+00	0	46	104	405798912	60	317875
2026-01-29 08:35:27.69	335.64	24.01	-61.7	-78.1	3.6	1.51e+00	0	46	104	405798912	60	316102
2026-01-29 08:35:28.70	335.65	23.85	-60.9	-77.9	3.6	1.51e+00	0	45	104	405798912	60	307761
2026-01-29 08:35:29.69	335.65	23.70	-61.2	-77.9	3.6	1.51e+00	0	46	104	405798912	60	307638
2026-01-29 08:35:30.70	335.66	23.55	-60.0	-77.6	3.6	1.51e+00	0	46	104	405798912	60	298433
2026-01-29 08:35:31.71	335.67	23.40	-61.1	-77.6	3.6	1.51e+00	0	46	104	405798912	60	297561
2026-01-29 08:35:32.72	335.67	23.25	-61.0	-77.5	3.6	1.51e+00	0	46	104	405798912	60	292607
2026-01-29 08:35:33.73	335.68	23.10	-52.8	-54.1	6.1	1.49e+00	0	46	104	405798912	60	19892
2026-01-29 08:35:34.73	335.69	22.96	-54.2	-56.1	18.5	0.00e+00	0	46	0	405798912	60	25010
2026-01-29 08:35:35.74	335.69	22.81	-57.7	-61.2	14.4	8.29e-02	0	46	0	2097152	60	45083
2026-01-29 08:35:36.74	335.70	22.66	-52.8	-54.3	20.7	1.22e-05	0	46	0	4194304	60	20343
2026-01-29 08:35:37.75	335.70	22.52	-59.6	-67.8	7.1	1.78e-04	0	46	0	5242880	60	96408
2026-01-29 08:35:38.75	335.71	22.37	-54.7	-56.9	18.1	4.74e-01	0	46	0	7340032	60	27265
2026-01-29 08:35:39.76	335.72	22.23	-56.2	-59.1	16.9	3.33e-01	0	46	0	9437184	60	35218
2026-01-29 08:35:40.76	335.72	22.09	-54.2	-56.0	19.6	0.00e+00	0	46	0	11534336	60	24777
2026-01-29 08:35:41.76	335.73	21.95	-54.0	-55.8	19.8	0.00e+00	0	46	0	13631488	60	24180
2026-01-29 08:35:42.77	335.74	21.80	-54.0	-55.7	20.1	0.00e+00	0	46	0	14680064	60	23845
2026-01-29 08:35:43.78	335.74	21.66	-54.3	-55.9	19.8	0.00e+00	0	46	0	16777216	60	24538
2026-01-29 08:35:44.78	335.75	21.52	-54.4	-56.1	19.7	0.00e+00	0	46	0	18874368	60	24981
2026-01-29 08:35:45.79	335.75	21.39	-54.5	-56.2	19.6	0.00e+00	0	46	0	20971520	60	25430
2026-01-29 08:35:46.80	335.76	21.25	-54.4	-56.2	19.4	0.00e+00	0	46	0	23068672	60	25312
