passes_logs/2026/01/29/R3.2S-Naryan-Mar/R3.2S-Naryan-Mar__20260129_222913_NOAA_20_JPSS-1_rec.log

#Pass ID: 20260129_222913_NOAA 20 (JPSS-1)
#Satellite: NOAA 20 (JPSS-1)
#Configuration: NOAA 20
#almurnet v.1.7.20240730
#Start time: 2026-01-29 22:29:13

#Version: 2.2.20231116
#Station: R3.2S-Naryan-Mar
#Location: 53.008057 lon 67.646978 lat
#TLE: 1 43013U 17073A   26028.86313978  .00000144  00000+0  89200-4 0  9993
#TLE: 2 43013  98.7648 329.6571 0000891  20.0014 340.1197 14.19541559424709

#Time	Az	El	Level	Level2	SNR	BER	BlckErr	Temp	State	Recorded	gain1	gain2
2026-01-29 22:29:13.61	20.47	0.02	-60.1	-78.3	3.5	1.51e+00	0	44	0	0	60	323271
2026-01-29 22:29:14.61	20.49	0.08	-58.9	-77.8	3.6	1.51e+00	0	45	104	0	60	302526
2026-01-29 22:29:15.62	20.51	0.14	-60.1	-78.6	3.6	1.51e+00	0	45	104	0	60	332106
2026-01-29 22:29:16.62	20.54	0.20	-61.7	-79.3	3.6	1.51e+00	0	45	104	0	60	360899
2026-01-29 22:29:17.63	20.56	0.26	-61.8	-79.3	3.6	1.51e+00	0	45	104	0	60	362233
2026-01-29 22:29:18.64	20.58	0.32	-61.8	-79.3	3.6	1.51e+00	0	45	104	0	60	360541
2026-01-29 22:29:19.65	20.61	0.38	-61.8	-79.3	3.6	1.51e+00	0	45	104	0	60	362597
2026-01-29 22:29:20.65	20.63	0.44	-61.8	-79.2	3.6	1.51e+00	0	45	104	0	60	358628
2026-01-29 22:29:21.66	20.66	0.50	-61.8	-79.2	3.6	1.51e+00	0	45	104	0	60	355782
2026-01-29 22:29:22.66	20.68	0.56	-61.8	-79.2	3.6	1.51e+00	0	45	104	0	60	356263
2026-01-29 22:29:23.67	20.71	0.62	-61.8	-79.2	3.6	1.51e+00	0	45	104	0	60	358263
2026-01-29 22:29:24.68	20.73	0.68	-61.8	-79.1	3.6	1.51e+00	0	45	104	0	60	355133
2026-01-29 22:29:25.68	20.75	0.74	-61.9	-79.2	3.6	1.51e+00	0	45	104	0	60	357463
2026-01-29 22:29:26.69	20.78	0.80	-61.9	-79.2	3.6	1.51e+00	0	45	104	0	60	358530
2026-01-29 22:29:27.70	20.80	0.86	-62.0	-79.1	3.6	1.51e+00	0	45	104	0	60	354166
2026-01-29 22:29:28.70	20.83	0.92	-62.0	-79.1	3.6	1.51e+00	0	45	104	0	60	354934
2026-01-29 22:29:29.70	20.85	0.98	-62.1	-79.1	3.6	1.51e+00	0	45	104	0	60	353789
2026-01-29 22:29:30.71	20.88	1.04	-62.1	-79.1	3.6	1.51e+00	0	45	104	0	60	353790
2026-01-29 22:29:31.72	20.90	1.10	-62.1	-79.1	3.6	1.51e+00	0	45	104	0	60	352285
2026-01-29 22:29:32.72	20.93	1.16	-62.2	-79.1	3.6	1.51e+00	0	45	104	0	60	353008
2026-01-29 22:29:33.73	20.95	1.22	-62.2	-79.1	3.6	1.51e+00	0	45	104	0	60	352255
2026-01-29 22:29:34.74	20.98	1.29	-62.2	-79.0	3.6	1.51e+00	0	45	104	0	60	349586
2026-01-29 22:29:35.75	21.00	1.35	-62.2	-79.0	3.6	1.51e+00	0	45	104	0	60	348390
2026-01-29 22:29:36.75	21.03	1.41	-62.2	-79.0	3.6	1.51e+00	0	45	104	0	60	348911
2026-01-29 22:29:37.76	21.05	1.47	-62.2	-78.9	3.6	1.51e+00	0	45	104	0	60	346597
2026-01-29 22:29:38.77	21.08	1.53	-62.1	-78.9	3.6	1.51e+00	0	45	104	0	60	344763
2026-01-29 22:29:39.78	21.10	1.60	-62.2	-78.9	3.6	1.51e+00	0	45	104	0	60	344090
2026-01-29 22:29:40.78	21.13	1.66	-62.1	-78.8	3.6	1.51e+00	0	45	104	0	60	342750
2026-01-29 22:29:41.79	21.16	1.72	-62.1	-78.9	3.6	1.51e+00	0	45	104	0	60	344776
2026-01-29 22:29:42.80	21.18	1.78	-62.1	-78.8	3.6	1.51e+00	0	45	104	0	60	342035
2026-01-29 22:29:43.80	21.21	1.85	-62.1	-78.8	3.6	1.51e+00	0	45	104	0	60	342221
2026-01-29 22:29:44.81	21.23	1.91	-62.1	-78.8	3.6	1.51e+00	0	45	104	0	60	342843
2026-01-29 22:29:45.81	21.26	1.97	-62.1	-78.7	3.6	1.51e+00	0	45	104	0	60	338740
2026-01-29 22:29:46.82	21.29	2.03	-62.0	-78.8	3.5	1.51e+00	0	45	104	0	60	341886
2026-01-29 22:29:47.83	21.31	2.10	-62.0	-78.9	3.6	1.51e+00	0	45	104	0	60	345012
2026-01-29 22:29:48.84	21.34	2.16	-62.0	-78.7	3.6	1.51e+00	0	45	104	0	60	338264
2026-01-29 22:29:49.84	21.37	2.22	-62.0	-78.8	3.6	1.51e+00	0	46	104	0	60	342321
2026-01-29 22:29:50.85	21.39	2.29	-61.9	-78.7	3.6	1.51e+00	0	45	104	0	60	336902
2026-01-29 22:29:51.86	21.42	2.35	-61.9	-78.8	3.6	1.51e+00	0	45	104	0	60	341852
2026-01-29 22:29:52.87	21.45	2.42	-61.9	-78.8	3.6	1.51e+00	0	45	104	0	60	340038
2026-01-29 22:29:53.87	21.47	2.48	-61.8	-78.8	3.6	1.51e+00	0	45	104	0	60	340890
2026-01-29 22:29:54.88	21.50	2.54	-61.8	-78.8	3.6	1.51e+00	0	45	104	0	60	339566
2026-01-29 22:29:55.89	21.53	2.61	-61.7	-78.7	3.6	1.51e+00	0	45	104	0	60	336926
2026-01-29 22:29:56.90	21.55	2.67	-61.7	-78.6	3.6	1.51e+00	0	45	104	0	60	334651
2026-01-29 22:29:57.90	21.58	2.74	-61.6	-78.5	3.6	1.51e+00	0	46	104	0	60	331053
2026-01-29 22:29:58.91	21.61	2.80	-61.5	-78.6	3.6	1.51e+00	0	46	104	0	60	333075
2026-01-29 22:29:59.92	21.64	2.87	-61.5	-78.6	3.6	1.51e+00	0	46	104	0	60	334384
2026-01-29 22:30:00.92	21.66	2.93	-61.4	-78.6	3.6	1.51e+00	0	45	104	0	60	333213
2026-01-29 22:30:01.93	21.69	3.00	-61.4	-78.6	3.6	1.51e+00	0	46	104	0	60	334235
2026-01-29 22:30:02.94	21.72	3.06	-61.4	-78.5	3.5	1.51e+00	0	46	104	0	60	330099
2026-01-29 22:30:03.94	21.75	3.13	-61.3	-78.5	3.6	1.51e+00	0	46	104	0	60	328414
2026-01-29 22:30:04.95	21.78	3.19	-61.2	-78.5	3.6	1.51e+00	0	46	104	0	60	331553
2026-01-29 22:30:05.96	21.80	3.26	-61.2	-78.5	3.6	1.51e+00	0	46	104	0	60	331342
2026-01-29 22:30:06.96	21.83	3.32	-61.1	-78.5	3.6	1.51e+00	0	45	104	0	60	329603
2026-01-29 22:30:07.97	21.86	3.39	-61.0	-78.5	3.6	1.51e+00	0	46	104	0	60	328811
2026-01-29 22:30:08.98	21.89	3.46	-61.0	-78.5	3.6	1.51e+00	0	46	104	0	60	328823
2026-01-29 22:30:09.99	21.92	3.52	-61.0	-78.6	3.6	1.51e+00	0	46	104	0	60	332388
2026-01-29 22:30:10.99	21.95	3.59	-61.0	-78.6	3.6	1.51e+00	0	45	104	0	60	332019
2026-01-29 22:30:11.99	21.97	3.66	-61.0	-78.6	3.6	1.51e+00	0	46	104	0	60	333456
2026-01-29 22:30:13.00	22.00	3.72	-60.9	-78.7	3.6	1.51e+00	0	46	104	0	60	336207
2026-01-29 22:30:14.00	22.03	3.79	-60.9	-78.6	3.6	1.51e+00	0	45	104	0	60	332607
2026-01-29 22:30:15.01	22.06	3.86	-60.8	-78.5	3.6	1.51e+00	0	45	104	0	60	329802
2026-01-29 22:30:16.02	22.09	3.92	-60.8	-78.6	3.6	1.51e+00	0	46	104	0	60	331971
2026-01-29 22:30:17.03	22.12	3.99	-60.7	-78.6	3.6	1.51e+00	0	46	104	0	60	334285
2026-01-29 22:30:18.03	22.15	4.06	-60.7	-78.7	3.6	1.51e+00	0	46	104	0	60	337264
2026-01-29 22:30:19.04	22.18	4.13	-60.7	-78.7	3.6	1.51e+00	0	46	104	0	60	335786
2026-01-29 22:30:20.04	22.21	4.19	-60.6	-78.7	3.6	1.51e+00	0	46	104	0	60	338025
2026-01-29 22:30:21.05	22.24	4.26	-60.6	-78.6	3.6	1.51e+00	0	46	104	0	60	332581
2026-01-29 22:30:22.06	22.27	4.33	-60.5	-78.8	3.6	1.51e+00	0	46	104	0	60	340999
2026-01-29 22:30:23.07	22.30	4.40	-60.5	-78.7	3.6	1.51e+00	0	45	104	0	60	336707
2026-01-29 22:30:24.08	22.33	4.47	-60.5	-78.6	3.6	1.51e+00	0	46	104	0	60	332976
2026-01-29 22:30:25.08	22.36	4.54	-60.5	-78.6	3.6	1.51e+00	0	46	104	0	60	333912
2026-01-29 22:30:26.09	22.39	4.61	-60.5	-78.6	3.6	1.51e+00	0	46	104	0	60	335391
2026-01-29 22:30:27.10	22.42	4.68	-60.5	-78.6	3.6	1.51e+00	0	46	104	0	60	333782
2026-01-29 22:30:28.11	22.45	4.75	-60.5	-78.6	3.6	1.51e+00	0	46	104	0	60	332446
2026-01-29 22:30:29.12	22.48	4.82	-60.5	-78.6	3.6	1.51e+00	0	46	104	0	60	331992
2026-01-29 22:30:30.12	22.51	4.88	-60.5	-78.5	3.6	1.51e+00	0	46	104	0	60	329553
2026-01-29 22:30:31.13	22.54	4.95	-60.5	-78.5	3.6	1.51e+00	0	46	104	0	60	328454
2026-01-29 22:30:32.14	22.57	5.02	-60.5	-78.4	3.6	1.51e+00	0	46	104	0	60	327040
2026-01-29 22:30:33.14	22.60	5.09	-60.5	-78.7	3.6	1.51e+00	0	46	104	0	60	336443
2026-01-29 22:30:34.15	22.64	5.17	-60.5	-78.6	3.6	1.51e+00	0	46	104	0	60	331853
2026-01-29 22:30:35.16	22.67	5.24	-60.5	-78.5	3.6	1.51e+00	0	46	104	0	60	330528
2026-01-29 22:30:36.16	22.70	5.31	-60.6	-78.4	3.6	1.51e+00	0	46	104	0	60	325566
2026-01-29 22:30:37.17	22.73	5.38	-60.6	-78.6	3.6	1.51e+00	0	46	104	0	60	334815
2026-01-29 22:30:38.17	22.76	5.45	-60.6	-78.4	3.6	1.51e+00	0	46	104	0	60	327353
2026-01-29 22:30:39.18	22.79	5.52	-60.7	-78.6	3.6	1.51e+00	0	46	104	0	60	333990
2026-01-29 22:30:40.19	22.83	5.59	-60.7	-78.7	3.6	1.51e+00	0	46	104	0	60	335607
2026-01-29 22:30:41.19	22.86	5.66	-60.8	-78.8	3.6	1.51e+00	0	46	104	0	60	342005
2026-01-29 22:30:42.20	22.89	5.73	-60.9	-78.7	3.6	1.51e+00	0	46	104	0	60	338509
2026-01-29 22:30:43.21	22.92	5.81	-60.9	-78.7	3.6	1.51e+00	0	46	104	0	60	337360
2026-01-29 22:30:44.21	22.96	5.88	-60.9	-78.8	3.6	1.51e+00	0	46	104	0	60	341791
2026-01-29 22:30:45.22	22.99	5.95	-61.0	-78.8	3.6	1.51e+00	0	45	104	0	60	343201
2026-01-29 22:30:46.23	23.02	6.02	-61.0	-78.8	3.6	1.51e+00	0	46	104	0	60	340246
2026-01-29 22:30:47.23	23.05	6.10	-61.0	-78.7	3.6	1.51e+00	0	46	104	0	60	339284
2026-01-29 22:30:48.24	23.09	6.17	-61.0	-78.8	3.6	1.51e+00	0	46	104	0	60	342464
2026-01-29 22:30:49.25	23.12	6.24	-61.1	-78.8	3.6	1.51e+00	0	45	104	0	60	341730
2026-01-29 22:30:50.25	23.15	6.32	-61.1	-78.9	3.6	1.51e+00	0	46	104	0	60	344661
2026-01-29 22:30:51.24	23.19	6.39	-61.1	-78.8	3.6	1.51e+00	0	46	104	0	60	342412
2026-01-29 22:30:52.25	23.22	6.46	-61.1	-78.8	3.6	1.51e+00	0	46	104	0	60	340793
2026-01-29 22:30:53.25	23.26	6.54	-61.2	-78.7	3.6	1.51e+00	0	46	104	0	60	338023
2026-01-29 22:30:54.26	23.29	6.61	-61.2	-78.8	3.6	1.51e+00	0	46	104	0	60	339683
2026-01-29 22:30:55.26	23.32	6.69	-61.2	-78.8	3.6	1.51e+00	0	46	104	0	60	342581
2026-01-29 22:30:56.27	23.36	6.76	-61.2	-78.8	3.6	1.51e+00	0	46	104	0	60	339443
2026-01-29 22:30:57.27	23.39	6.83	-61.2	-78.8	3.6	1.51e+00	0	46	104	0	60	341089
2026-01-29 22:30:58.28	23.43	6.91	-61.2	-78.6	3.6	1.51e+00	0	46	104	0	60	335087
2026-01-29 22:30:59.29	23.46	6.99	-61.2	-78.7	3.6	1.51e+00	0	46	104	0	60	336001
2026-01-29 22:31:00.30	23.50	7.06	-61.1	-78.7	3.6	1.51e+00	0	46	104	0	60	335432
2026-01-29 22:31:01.30	23.53	7.14	-61.1	-78.6	3.6	1.51e+00	0	46	104	0	60	333099
2026-01-29 22:31:02.31	23.57	7.21	-61.1	-78.5	3.6	1.51e+00	0	46	104	0	60	330236
2026-01-29 22:31:03.31	23.60	7.29	-61.0	-78.6	3.6	1.51e+00	0	46	104	0	60	334801
2026-01-29 22:31:04.32	23.64	7.37	-60.9	-78.6	3.6	1.51e+00	0	46	104	0	60	334589
2026-01-29 22:31:05.33	23.68	7.44	-60.9	-78.6	3.6	1.51e+00	0	46	104	0	60	334459
2026-01-29 22:31:06.33	23.71	7.52	-61.0	-78.6	3.6	1.51e+00	0	46	104	0	60	334041
2026-01-29 22:31:07.34	23.75	7.60	-60.9	-78.5	3.6	1.51e+00	0	46	104	0	60	328501
2026-01-29 22:31:08.35	23.78	7.67	-60.9	-78.7	3.6	1.51e+00	0	46	104	0	60	336724
2026-01-29 22:31:09.35	23.82	7.75	-60.8	-78.6	3.6	1.51e+00	0	46	104	0	60	334989
2026-01-29 22:31:10.36	23.86	7.83	-60.8	-78.6	3.6	1.51e+00	0	46	104	0	60	334536
2026-01-29 22:31:11.36	23.89	7.91	-60.8	-78.7	3.6	1.51e+00	0	46	104	0	60	336806
2026-01-29 22:31:12.37	23.93	7.98	-60.8	-78.6	3.6	1.51e+00	0	46	104	0	60	332327
2026-01-29 22:31:13.37	23.97	8.06	-60.7	-78.8	3.6	1.51e+00	0	46	104	0	60	340330
2026-01-29 22:31:14.38	24.00	8.14	-60.7	-78.7	3.6	1.51e+00	0	46	104	0	60	337121
2026-01-29 22:31:15.39	24.04	8.22	-60.6	-78.6	3.6	1.51e+00	0	46	104	0	60	331716
2026-01-29 22:31:16.40	24.08	8.30	-60.6	-78.7	3.6	1.51e+00	0	46	104	0	60	336441
2026-01-29 22:31:17.40	24.12	8.38	-60.6	-78.7	3.6	1.51e+00	0	46	104	0	60	337027
2026-01-29 22:31:18.41	24.16	8.46	-60.6	-78.7	3.6	1.51e+00	0	46	104	0	60	335996
2026-01-29 22:31:19.42	24.19	8.54	-60.6	-78.6	3.6	1.51e+00	0	46	104	0	60	333247
2026-01-29 22:31:20.43	24.23	8.62	-60.6	-78.6	3.6	1.51e+00	0	46	104	0	60	332047
2026-01-29 22:31:21.43	24.27	8.70	-60.6	-78.7	3.6	1.51e+00	0	46	104	0	60	336500
2026-01-29 22:31:22.44	24.31	8.78	-60.6	-78.6	3.6	1.51e+00	0	46	104	0	60	332098
2026-01-29 22:31:23.45	24.35	8.86	-60.6	-78.6	3.6	1.51e+00	0	46	104	0	60	333630
2026-01-29 22:31:24.46	24.39	8.94	-60.7	-78.7	3.6	1.51e+00	0	46	104	0	60	335471
2026-01-29 22:31:25.47	24.43	9.02	-60.6	-78.6	3.6	1.51e+00	0	46	104	0	60	333207
2026-01-29 22:31:26.47	24.47	9.11	-60.6	-78.6	3.6	1.51e+00	0	46	104	0	60	332480
2026-01-29 22:31:27.48	24.51	9.19	-60.6	-78.6	3.6	1.51e+00	0	46	104	0	60	332792
2026-01-29 22:31:28.49	24.55	9.27	-60.7	-78.7	3.6	1.51e+00	0	46	104	0	60	335491
2026-01-29 22:31:29.50	24.59	9.35	-60.7	-78.5	3.6	1.51e+00	0	46	104	0	60	329656
2026-01-29 22:31:30.50	24.63	9.43	-60.8	-78.7	3.6	1.51e+00	0	46	104	0	60	336556
2026-01-29 22:31:31.51	24.67	9.52	-60.9	-78.6	3.6	1.51e+00	0	46	104	0	60	331832
2026-01-29 22:31:32.52	24.71	9.60	-60.9	-78.8	3.6	1.51e+00	0	46	104	0	60	340540
2026-01-29 22:31:33.53	24.75	9.69	-61.0	-78.7	3.6	1.51e+00	0	46	104	0	60	338231
2026-01-29 22:31:34.54	24.79	9.77	-61.0	-78.7	3.6	1.51e+00	0	46	104	0	60	337813
2026-01-29 22:31:35.54	24.83	9.85	-61.0	-78.9	3.6	1.51e+00	0	46	104	0	60	343746
2026-01-29 22:31:36.55	24.88	9.94	-61.2	-78.9	3.6	1.51e+00	0	46	104	0	60	346155
2026-01-29 22:31:37.56	24.92	10.02	-61.1	-78.9	3.6	1.51e+00	0	46	104	0	60	344189
2026-01-29 22:31:38.56	24.96	10.11	-61.2	-78.8	3.6	1.51e+00	0	46	104	0	60	340905
2026-01-29 22:31:39.57	25.00	10.19	-61.2	-78.8	3.6	1.51e+00	0	46	104	0	60	341817
2026-01-29 22:31:40.58	25.04	10.28	-61.2	-78.9	3.6	1.51e+00	0	46	104	0	60	345345
2026-01-29 22:31:41.58	25.09	10.36	-61.3	-78.9	3.6	1.51e+00	0	46	104	0	60	343374
2026-01-29 22:31:42.58	25.13	10.45	-61.2	-78.9	3.6	1.51e+00	0	46	104	0	60	343438
2026-01-29 22:31:43.58	25.17	10.53	-61.2	-78.9	3.6	1.51e+00	0	46	104	0	60	343969
2026-01-29 22:31:44.59	25.22	10.62	-61.2	-78.8	3.6	1.51e+00	0	46	104	0	60	340604
2026-01-29 22:31:45.60	25.26	10.71	-61.3	-78.8	3.6	1.51e+00	0	46	104	0	60	341009
2026-01-29 22:31:46.61	25.30	10.80	-61.3	-78.8	3.6	1.51e+00	0	46	104	0	60	342155
2026-01-29 22:31:47.62	25.35	10.88	-61.3	-78.8	3.6	1.51e+00	0	46	104	0	60	340531
2026-01-29 22:31:48.63	25.39	10.97	-61.4	-78.8	3.6	1.51e+00	0	46	104	0	60	339309
2026-01-29 22:31:49.64	25.44	11.06	-61.4	-78.8	3.6	1.51e+00	0	46	104	0	60	339766
2026-01-29 22:31:50.64	25.48	11.15	-61.4	-78.7	3.6	1.51e+00	0	46	104	0	60	339265
2026-01-29 22:31:51.65	25.53	11.24	-61.4	-78.7	3.6	1.51e+00	0	46	104	0	60	338688
2026-01-29 22:31:52.66	25.57	11.33	-61.4	-78.7	3.6	1.51e+00	0	46	104	0	60	338283
2026-01-29 22:31:53.66	25.62	11.42	-61.4	-78.7	3.6	1.51e+00	0	46	104	0	60	336086
2026-01-29 22:31:54.67	25.66	11.51	-61.5	-78.7	3.6	1.51e+00	0	46	104	0	60	337443
2026-01-29 22:31:55.67	25.71	11.59	-61.3	-78.8	3.6	1.51e+00	0	46	104	0	60	339652
2026-01-29 22:31:56.68	25.76	11.69	-61.3	-78.8	3.6	1.51e+00	0	46	104	0	60	339945
2026-01-29 22:31:57.68	25.80	11.78	-61.3	-78.8	3.6	1.51e+00	0	46	104	0	60	339613
2026-01-29 22:31:58.69	25.85	11.87	-61.3	-78.8	3.6	1.51e+00	0	46	104	0	60	342133
2026-01-29 22:31:59.69	25.90	11.96	-61.2	-78.8	3.6	1.51e+00	0	46	104	0	60	341848
2026-01-29 22:32:00.70	25.94	12.05	-61.2	-78.7	3.6	1.51e+00	0	46	104	0	60	338942
2026-01-29 22:32:01.71	25.99	12.14	-61.2	-78.8	3.6	1.51e+00	0	46	104	0	60	339838
2026-01-29 22:32:02.71	26.04	12.23	-61.2	-78.8	3.6	1.51e+00	0	46	104	0	60	341790
2026-01-29 22:32:03.72	26.09	12.33	-61.2	-78.8	3.6	1.51e+00	0	46	104	0	60	339495
2026-01-29 22:32:04.73	26.13	12.42	-61.1	-78.8	3.6	1.51e+00	0	46	104	0	60	339816
2026-01-29 22:32:05.74	26.18	12.51	-61.1	-78.8	3.6	1.51e+00	0	46	104	0	60	339608
2026-01-29 22:32:06.75	26.23	12.61	-61.1	-78.7	3.6	1.51e+00	0	46	104	0	60	335678
2026-01-29 22:32:07.75	26.28	12.70	-61.0	-78.7	3.6	1.51e+00	0	46	104	0	60	338758
2026-01-29 22:32:08.76	26.33	12.79	-61.0	-78.7	3.6	1.51e+00	0	46	104	0	60	337097
2026-01-29 22:32:09.76	26.38	12.89	-60.9	-78.6	3.6	1.51e+00	0	46	104	0	60	332762
2026-01-29 22:32:10.77	26.43	12.98	-60.8	-78.6	3.6	1.51e+00	0	46	104	0	60	334178
2026-01-29 22:32:11.77	26.48	13.08	-60.8	-78.5	3.6	1.51e+00	0	46	104	0	60	328766
2026-01-29 22:32:12.78	26.53	13.17	-60.7	-78.6	3.6	1.51e+00	0	46	104	0	60	331703
2026-01-29 22:32:13.78	26.58	13.27	-60.7	-78.5	3.6	1.51e+00	0	46	104	0	60	331112
2026-01-29 22:32:14.78	26.63	13.37	-60.6	-78.4	3.6	1.51e+00	0	46	104	0	60	327579
2026-01-29 22:32:15.78	26.69	13.46	-60.6	-78.4	3.6	1.51e+00	0	46	104	0	60	325052
2026-01-29 22:32:16.79	26.74	13.56	-60.6	-78.4	3.6	1.51e+00	0	46	104	0	60	324706
2026-01-29 22:32:17.79	26.79	13.66	-60.5	-78.4	3.6	1.51e+00	0	46	104	0	60	324572
2026-01-29 22:32:18.80	26.84	13.75	-60.5	-78.4	3.6	1.51e+00	0	46	104	0	60	325562
2026-01-29 22:32:19.80	26.89	13.85	-60.4	-78.4	3.6	1.51e+00	0	46	104	0	60	325586
2026-01-29 22:32:20.81	26.95	13.95	-60.4	-78.3	3.6	1.51e+00	0	46	104	0	60	321933
2026-01-29 22:32:21.82	27.00	14.05	-60.4	-78.4	3.6	1.51e+00	0	46	104	0	60	324545
2026-01-29 22:32:22.82	27.06	14.15	-60.4	-78.4	3.6	1.51e+00	0	46	104	0	60	326433
2026-01-29 22:32:23.83	27.11	14.25	-60.3	-78.3	3.6	1.51e+00	0	46	104	0	60	323842
2026-01-29 22:32:24.84	27.16	14.35	-60.3	-78.4	3.6	1.51e+00	0	46	104	0	60	324850
2026-01-29 22:32:25.84	27.22	14.45	-60.2	-78.4	3.6	1.51e+00	0	46	104	0	60	327225
2026-01-29 22:32:26.85	27.27	14.55	-60.2	-78.4	3.6	1.51e+00	0	46	104	0	60	327000
2026-01-29 22:32:27.85	27.33	14.65	-60.2	-78.5	3.6	1.51e+00	0	46	104	0	60	329199
2026-01-29 22:32:28.86	27.39	14.75	-60.1	-78.5	3.6	1.51e+00	0	46	104	0	60	329803
2026-01-29 22:32:29.87	27.44	14.86	-60.1	-78.5	3.6	1.51e+00	0	46	104	0	60	329093
2026-01-29 22:32:30.86	27.50	14.96	-60.0	-78.5	3.6	1.51e+00	0	46	104	0	60	330113
2026-01-29 22:32:31.86	27.55	15.06	-60.0	-78.4	3.6	1.51e+00	0	46	104	0	60	325304
2026-01-29 22:32:32.87	27.61	15.16	-59.9	-78.3	3.6	1.51e+00	0	46	104	0	60	323458
2026-01-29 22:32:33.88	27.67	15.27	-59.8	-78.4	3.6	1.51e+00	0	46	104	0	60	325782
2026-01-29 22:32:34.88	27.73	15.37	-59.9	-78.4	3.6	1.51e+00	0	46	104	0	60	324512
2026-01-29 22:32:35.89	27.79	15.48	-59.8	-78.3	3.5	1.51e+00	0	46	104	0	60	323584
2026-01-29 22:32:36.90	27.84	15.58	-59.7	-78.3	3.6	1.51e+00	0	46	104	0	60	323626
2026-01-29 22:32:37.91	27.90	15.69	-59.7	-78.3	3.6	1.51e+00	0	46	104	0	60	322492
2026-01-29 22:32:38.92	27.96	15.79	-59.6	-78.2	3.6	1.51e+00	0	46	104	0	60	318244
2026-01-29 22:32:39.92	28.02	15.90	-59.6	-78.3	3.6	1.51e+00	0	46	104	0	60	320570
2026-01-29 22:32:40.93	28.08	16.01	-59.7	-78.2	3.6	1.51e+00	0	46	104	0	60	319352
2026-01-29 22:32:41.93	28.14	16.11	-59.5	-78.1	3.6	1.51e+00	0	46	104	0	60	316012
2026-01-29 22:32:42.93	28.21	16.22	-59.5	-78.2	3.6	1.51e+00	0	46	104	0	60	317688
2026-01-29 22:32:43.93	28.27	16.33	-59.5	-78.2	3.6	1.51e+00	0	46	104	0	60	318357
2026-01-29 22:32:44.93	28.33	16.44	-59.4	-78.2	3.6	1.51e+00	0	46	104	0	60	319018
2026-01-29 22:32:45.92	28.39	16.54	-59.4	-78.1	3.6	1.51e+00	0	46	104	0	60	315941
2026-01-29 22:32:46.93	28.45	16.65	-59.4	-78.2	3.6	1.51e+00	0	46	104	0	60	317813
2026-01-29 22:32:47.93	28.52	16.76	-59.3	-78.2	3.6	1.51e+00	0	46	104	0	60	318399
2026-01-29 22:32:48.92	28.58	16.87	-59.4	-78.1	3.6	1.51e+00	0	46	104	0	60	314565
2026-01-29 22:32:49.92	28.64	16.98	-59.3	-78.4	3.6	1.51e+00	0	46	104	0	60	324776
2026-01-29 22:32:50.92	28.71	17.09	-59.3	-78.2	3.6	1.51e+00	0	46	104	0	60	319287
2026-01-29 22:32:51.92	28.77	17.20	-59.3	-78.2	3.6	1.51e+00	0	46	104	0	60	319614
2026-01-29 22:32:52.92	28.83	17.31	-59.3	-78.3	3.6	1.51e+00	0	46	104	0	60	322494
2026-01-29 22:32:53.92	28.90	17.43	-59.3	-78.3	3.6	1.51e+00	0	46	104	0	60	320562
2026-01-29 22:32:54.93	28.97	17.54	-59.3	-78.1	3.5	1.51e+00	0	46	104	0	60	315695
2026-01-29 22:32:55.93	29.03	17.65	-59.2	-78.3	3.6	1.51e+00	0	46	104	0	60	321107
2026-01-29 22:32:56.93	29.10	17.77	-59.3	-78.2	3.6	1.51e+00	0	46	104	0	60	317091
2026-01-29 22:32:57.93	29.17	17.88	-59.3	-78.2	3.6	1.51e+00	0	46	104	0	60	316711
2026-01-29 22:32:58.93	29.24	18.00	-59.3	-78.2	3.6	1.51e+00	0	46	104	0	60	317466
2026-01-29 22:32:59.94	29.30	18.11	-59.3	-78.3	3.6	1.51e+00	0	46	104	0	60	322196
2026-01-29 22:33:00.94	29.37	18.23	-59.3	-78.4	3.6	1.51e+00	0	46	104	0	60	324720
2026-01-29 22:33:01.95	29.44	18.34	-59.3	-78.3	3.6	1.51e+00	0	46	104	0	60	320613
2026-01-29 22:33:02.96	29.51	18.46	-59.4	-78.2	3.6	1.51e+00	0	46	104	0	60	319813
2026-01-29 22:33:03.96	29.58	18.58	-59.4	-78.3	3.6	1.51e+00	0	46	104	0	60	321054
2026-01-29 22:33:04.96	29.65	18.70	-59.5	-78.1	3.6	1.51e+00	0	46	104	0	60	316484
2026-01-29 22:33:05.97	29.73	18.82	-59.4	-78.2	3.6	1.51e+00	0	46	104	0	60	317325
2026-01-29 22:33:06.98	29.80	18.94	-59.4	-78.2	3.6	1.51e+00	0	46	104	0	60	317268
2026-01-29 22:33:07.99	29.87	19.06	-59.5	-78.2	3.6	1.51e+00	0	46	104	0	60	319205
2026-01-29 22:33:08.99	29.94	19.18	-59.5	-78.1	3.6	1.51e+00	0	46	104	0	60	316540
2026-01-29 22:33:10.00	30.02	19.30	-59.5	-78.2	3.6	1.51e+00	0	46	104	0	60	319443
2026-01-29 22:33:11.00	30.09	19.42	-59.6	-78.2	3.6	1.51e+00	0	46	104	0	60	319102
2026-01-29 22:33:12.00	30.17	19.54	-60.0	-78.3	3.6	1.51e+00	0	46	104	0	60	321335
2026-01-29 22:33:13.01	30.24	19.66	-60.0	-78.2	3.6	1.51e+00	0	46	104	0	60	319921
2026-01-29 22:33:14.01	30.32	19.79	-60.1	-78.2	3.6	1.51e+00	0	46	104	0	60	319525
2026-01-29 22:33:15.01	30.39	19.91	-60.2	-78.3	3.6	1.51e+00	0	46	104	0	60	322156
2026-01-29 22:33:16.02	30.47	20.03	-60.2	-78.3	3.6	1.51e+00	0	46	104	0	60	321254
2026-01-29 22:33:17.02	30.55	20.16	-60.3	-78.3	3.6	1.51e+00	0	46	104	0	60	323414
2026-01-29 22:33:18.02	30.63	20.28	-60.4	-78.4	3.6	1.51e+00	0	46	104	0	60	324275
2026-01-29 22:33:19.02	30.71	20.41	-60.5	-78.4	3.6	1.51e+00	0	46	104	0	60	325436
2026-01-29 22:33:20.02	30.79	20.53	-60.5	-78.4	3.6	1.51e+00	0	46	104	0	60	324899
2026-01-29 22:33:21.03	30.87	20.66	-60.6	-78.4	3.6	1.51e+00	0	46	104	0	60	327206
2026-01-29 22:33:22.03	30.95	20.79	-60.6	-78.4	3.6	1.51e+00	0	46	104	0	60	325423
2026-01-29 22:33:23.03	31.03	20.92	-60.7	-78.4	3.6	1.51e+00	0	46	104	0	60	327700
2026-01-29 22:33:24.03	31.11	21.05	-60.7	-78.4	3.6	1.51e+00	0	46	104	0	60	326701
2026-01-29 22:33:25.03	31.19	21.17	-60.8	-78.4	3.6	1.51e+00	0	46	104	0	60	326156
2026-01-29 22:33:26.03	31.27	21.30	-60.8	-78.4	3.6	1.51e+00	0	46	104	0	60	325395
2026-01-29 22:33:27.04	31.36	21.44	-60.9	-78.4	3.6	1.51e+00	0	46	104	0	60	326036
2026-01-29 22:33:28.04	31.44	21.57	-60.9	-78.4	3.6	1.51e+00	0	46	104	0	60	324055
2026-01-29 22:33:29.05	31.53	21.70	-60.9	-78.4	3.6	1.51e+00	0	46	104	0	60	324576
2026-01-29 22:33:30.05	31.61	21.83	-60.9	-78.3	3.6	1.51e+00	0	46	104	0	60	321959
2026-01-29 22:33:31.06	31.70	21.97	-61.0	-78.3	3.6	1.51e+00	0	46	104	0	60	321166
2026-01-29 22:33:32.06	31.79	22.10	-61.0	-78.2	3.6	1.51e+00	0	46	104	0	60	320092
2026-01-29 22:33:33.07	31.88	22.23	-61.0	-78.3	3.6	1.51e+00	0	46	104	0	60	322018
2026-01-29 22:33:34.07	31.97	22.37	-61.1	-78.3	3.6	1.51e+00	0	46	104	0	60	321508
2026-01-29 22:33:35.07	32.06	22.50	-61.1	-78.4	3.6	1.51e+00	0	46	104	0	60	324547
2026-01-29 22:33:36.07	32.15	22.64	-61.1	-78.2	3.6	1.51e+00	0	46	104	0	60	320202
2026-01-29 22:33:37.07	32.24	22.78	-61.1	-78.2	3.6	1.51e+00	0	46	104	0	60	319510
2026-01-29 22:33:38.07	32.33	22.91	-61.1	-78.3	3.6	1.51e+00	0	46	104	0	60	322131
2026-01-29 22:33:39.07	32.42	23.05	-61.2	-78.3	3.6	1.51e+00	0	46	104	0	60	321094
2026-01-29 22:33:40.06	32.51	23.19	-61.2	-78.4	3.6	1.51e+00	0	46	104	0	60	324219
2026-01-29 22:33:41.06	32.61	23.33	-61.2	-78.4	3.6	1.51e+00	0	46	104	0	60	324064
2026-01-29 22:33:42.06	32.70	23.47	-61.2	-78.4	3.6	1.51e+00	0	46	104	0	60	326209
2026-01-29 22:33:43.07	32.80	23.61	-61.2	-78.3	3.6	1.51e+00	0	46	104	0	60	323473
2026-01-29 22:33:44.07	32.89	23.75	-61.3	-78.4	3.6	1.51e+00	0	46	104	0	60	324191
2026-01-29 22:33:45.07	32.99	23.89	-61.3	-78.4	3.6	1.51e+00	0	46	104	0	60	325340
2026-01-29 22:33:46.07	33.09	24.04	-61.3	-78.5	3.6	1.51e+00	0	46	104	0	60	327986
2026-01-29 22:33:47.08	33.19	24.18	-61.3	-78.5	3.6	1.51e+00	0	46	104	0	60	327848
2026-01-29 22:33:48.08	33.29	24.33	-61.4	-78.4	3.6	1.51e+00	0	46	104	0	60	327301
2026-01-29 22:33:49.08	33.39	24.47	-61.4	-78.4	3.6	1.51e+00	0	46	104	0	60	326151
2026-01-29 22:33:50.08	33.49	24.62	-61.4	-78.4	3.6	1.51e+00	0	46	104	0	60	326806
2026-01-29 22:33:51.08	33.59	24.76	-61.5	-78.5	3.6	1.51e+00	0	46	104	0	60	328771
2026-01-29 22:33:52.08	33.70	24.91	-61.4	-78.4	3.6	1.51e+00	0	46	104	0	60	325822
2026-01-29 22:33:53.08	33.80	25.06	-61.5	-78.4	3.6	1.51e+00	0	46	104	0	60	325301
2026-01-29 22:33:54.08	33.91	25.21	-61.5	-78.4	3.6	1.51e+00	0	46	104	0	60	326909
2026-01-29 22:33:55.08	34.01	25.36	-61.5	-78.4	3.6	1.51e+00	0	46	104	0	60	327324
2026-01-29 22:33:56.08	34.12	25.51	-61.5	-78.4	3.6	1.51e+00	0	46	104	0	60	327521
2026-01-29 22:33:57.08	34.23	25.66	-61.5	-78.5	3.6	1.51e+00	0	46	104	0	60	328052
2026-01-29 22:33:58.09	34.34	25.81	-61.5	-78.4	3.6	1.51e+00	0	46	104	0	60	324945
2026-01-29 22:33:59.10	34.45	25.96	-61.5	-78.4	3.6	1.51e+00	0	46	104	0	60	324938
2026-01-29 22:34:00.11	34.56	26.12	-61.6	-78.4	3.6	1.51e+00	0	46	104	0	60	327382
2026-01-29 22:34:01.11	34.67	26.27	-61.6	-78.4	3.6	1.51e+00	0	46	104	0	60	325250
2026-01-29 22:34:02.11	34.79	26.43	-61.6	-78.4	3.6	1.51e+00	0	46	104	0	60	326835
2026-01-29 22:34:03.11	34.90	26.58	-61.6	-78.4	3.6	1.51e+00	0	46	104	0	60	327468
2026-01-29 22:34:04.11	35.01	26.74	-61.6	-78.4	3.6	1.51e+00	0	46	104	0	60	326712
2026-01-29 22:34:05.12	35.13	26.90	-61.6	-78.4	3.6	1.51e+00	0	46	104	0	60	327122
2026-01-29 22:34:06.12	35.25	27.05	-61.7	-78.5	3.6	1.51e+00	0	46	104	0	60	328665
2026-01-29 22:34:07.13	35.37	27.21	-61.7	-78.5	3.6	1.51e+00	0	46	104	0	60	328337
2026-01-29 22:34:08.14	35.49	27.38	-61.7	-78.5	3.6	1.51e+00	0	46	104	0	60	330940
2026-01-29 22:34:09.14	35.61	27.54	-61.7	-78.5	3.6	1.51e+00	0	46	104	0	60	329671
2026-01-29 22:34:10.14	35.73	27.70	-61.8	-78.5	3.6	1.51e+00	0	46	104	0	60	329607
2026-01-29 22:34:11.14	35.86	27.86	-61.8	-78.5	3.6	1.51e+00	0	46	104	0	60	329660
2026-01-29 22:34:12.13	35.98	28.02	-61.8	-78.5	3.6	1.51e+00	0	46	104	0	60	330496
2026-01-29 22:34:13.14	36.11	28.18	-61.8	-78.6	3.6	1.51e+00	0	46	104	0	60	331888
2026-01-29 22:34:14.15	36.24	28.35	-61.8	-78.5	3.5	1.51e+00	0	46	104	0	60	329449
2026-01-29 22:34:15.16	36.37	28.52	-61.8	-78.5	3.6	1.51e+00	0	46	104	0	60	329917
2026-01-29 22:34:16.16	36.50	28.68	-61.8	-78.5	3.6	1.51e+00	0	46	104	0	60	328150
2026-01-29 22:34:17.17	36.63	28.85	-61.8	-78.4	3.6	1.51e+00	0	46	104	0	60	327699
2026-01-29 22:34:18.17	36.76	29.02	-61.8	-78.5	3.6	1.51e+00	0	46	104	0	60	329732
2026-01-29 22:34:19.18	36.89	29.19	-61.9	-78.4	3.6	1.51e+00	0	46	104	0	60	326344
2026-01-29 22:34:20.18	37.03	29.36	-61.8	-78.4	3.6	1.51e+00	0	46	104	0	60	327265
2026-01-29 22:34:21.19	37.17	29.53	-61.8	-78.4	3.6	1.51e+00	0	46	104	0	60	326181
2026-01-29 22:34:22.19	37.31	29.70	-61.9	-78.4	3.6	1.51e+00	0	46	104	0	60	325449
2026-01-29 22:34:23.19	37.44	29.87	-61.8	-78.4	3.6	1.51e+00	0	46	104	0	60	325283
2026-01-29 22:34:24.20	37.59	30.05	-61.8	-78.3	3.6	1.51e+00	0	46	104	0	60	323407
2026-01-29 22:34:25.19	37.73	30.22	-61.8	-78.4	3.6	1.51e+00	0	46	104	0	60	324596
2026-01-29 22:34:26.20	37.87	30.40	-61.8	-78.3	3.6	1.51e+00	0	46	104	0	60	322269
2026-01-29 22:34:27.20	38.02	30.57	-61.8	-78.4	3.6	1.51e+00	0	46	104	0	60	324208
2026-01-29 22:34:28.21	38.17	30.75	-61.8	-78.2	3.6	1.51e+00	0	46	104	0	60	319911
2026-01-29 22:34:29.22	38.32	30.93	-61.8	-78.3	3.6	1.51e+00	0	46	104	0	60	323413
2026-01-29 22:34:30.23	38.47	31.11	-61.8	-78.3	3.6	1.51e+00	0	46	104	0	60	323108
2026-01-29 22:34:31.23	38.62	31.29	-61.8	-78.3	3.6	1.51e+00	0	46	104	0	60	322078
2026-01-29 22:34:32.23	38.77	31.47	-61.8	-78.4	3.6	1.51e+00	0	46	104	0	60	324018
2026-01-29 22:34:33.24	38.93	31.65	-61.8	-78.3	3.5	1.51e+00	0	46	104	0	60	323291
2026-01-29 22:34:34.24	39.08	31.83	-61.8	-78.3	3.6	1.51e+00	0	46	104	0	60	323495
2026-01-29 22:34:35.25	39.24	32.02	-61.8	-78.4	3.6	1.51e+00	0	46	104	0	60	326981
2026-01-29 22:34:36.26	39.41	32.20	-61.8	-78.4	3.6	1.51e+00	0	46	104	0	60	324600
2026-01-29 22:34:37.26	39.57	32.39	-61.8	-78.4	3.6	1.51e+00	0	46	104	0	60	326584
2026-01-29 22:34:38.27	39.73	32.58	-61.7	-78.4	3.6	1.51e+00	0	46	104	0	60	325421
2026-01-29 22:34:39.28	39.90	32.76	-61.7	-78.4	3.6	1.51e+00	0	46	104	0	60	325882
2026-01-29 22:34:40.28	40.07	32.95	-61.7	-78.4	3.6	1.51e+00	0	46	104	0	60	326573
2026-01-29 22:34:41.29	40.24	33.14	-61.6	-78.4	3.6	1.51e+00	0	46	104	0	60	325282
2026-01-29 22:34:42.28	40.41	33.33	-61.6	-78.4	3.6	1.51e+00	0	46	104	0	60	325735
2026-01-29 22:34:43.28	40.58	33.52	-61.6	-78.4	3.6	1.51e+00	0	46	104	0	60	326426
2026-01-29 22:34:44.28	40.76	33.71	-61.6	-78.4	3.6	1.51e+00	0	46	104	0	60	325400
2026-01-29 22:34:45.29	40.93	33.90	-61.6	-78.4	3.6	1.51e+00	0	46	104	0	60	326481
2026-01-29 22:34:46.30	41.12	34.10	-61.5	-78.4	3.6	1.51e+00	0	46	104	0	60	325542
2026-01-29 22:34:47.31	41.30	34.29	-61.5	-78.4	3.6	1.51e+00	0	46	104	0	60	325532
2026-01-29 22:34:48.31	41.48	34.49	-61.5	-78.4	3.6	1.51e+00	0	46	104	0	60	325865
2026-01-29 22:34:49.32	41.67	34.69	-61.5	-78.4	3.6	1.51e+00	0	46	104	0	60	324707
2026-01-29 22:34:50.33	41.86	34.88	-61.4	-78.4	3.6	1.51e+00	0	46	104	0	60	325160
2026-01-29 22:34:51.34	42.05	35.08	-61.4	-78.3	3.6	1.51e+00	0	46	104	0	60	323914
2026-01-29 22:34:52.35	42.24	35.28	-61.3	-78.3	3.6	1.51e+00	0	46	104	0	60	321897
2026-01-29 22:34:53.35	42.44	35.48	-61.3	-78.3	3.6	1.51e+00	0	46	104	0	60	322249
2026-01-29 22:34:54.36	42.64	35.68	-61.3	-78.3	3.6	1.51e+00	0	46	104	0	60	321397
2026-01-29 22:34:55.36	42.84	35.89	-61.2	-78.3	3.6	1.51e+00	0	46	104	0	60	321324
2026-01-29 22:34:56.36	43.04	36.09	-61.2	-78.2	3.6	1.51e+00	0	46	104	0	60	318327
2026-01-29 22:34:57.37	43.25	36.29	-61.2	-78.2	3.6	1.51e+00	0	46	104	0	60	318648
2026-01-29 22:34:58.37	43.45	36.50	-61.2	-78.2	3.6	1.51e+00	0	46	104	0	60	317392
2026-01-29 22:34:59.37	43.66	36.70	-61.1	-78.2	3.6	1.51e+00	0	46	104	0	60	318257
2026-01-29 22:35:00.38	43.88	36.91	-61.1	-78.2	3.6	1.51e+00	0	46	104	0	60	319126
2026-01-29 22:35:01.38	44.09	37.11	-61.1	-78.2	3.6	1.51e+00	0	46	104	0	60	319752
2026-01-29 22:35:02.39	44.31	37.32	-61.1	-78.2	3.6	1.51e+00	0	46	104	0	60	316960
2026-01-29 22:35:03.39	44.53	37.53	-61.1	-78.2	3.6	1.51e+00	0	46	104	0	60	319464
2026-01-29 22:35:04.40	44.75	37.74	-61.0	-78.2	3.6	1.51e+00	0	46	104	0	60	317985
2026-01-29 22:35:05.40	44.98	37.95	-61.0	-78.2	3.6	1.51e+00	0	46	104	0	60	319252
2026-01-29 22:35:06.41	45.21	38.16	-61.0	-78.2	3.6	1.51e+00	0	46	104	0	60	317536
2026-01-29 22:35:07.41	45.44	38.38	-61.0	-78.1	3.6	1.51e+00	0	46	104	0	60	315255
2026-01-29 22:35:08.42	45.68	38.59	-60.9	-78.3	3.6	1.51e+00	0	46	104	0	60	323223
2026-01-29 22:35:09.42	45.92	38.80	-60.9	-78.2	3.6	1.51e+00	0	46	104	0	60	318357
2026-01-29 22:35:10.43	46.16	39.02	-60.9	-78.3	3.6	1.51e+00	0	46	104	0	60	322252
2026-01-29 22:35:11.43	46.40	39.23	-60.9	-78.2	3.6	1.51e+00	0	46	104	0	60	319535
2026-01-29 22:35:12.43	46.65	39.45	-60.9	-78.3	3.6	1.51e+00	0	46	104	0	60	320896
2026-01-29 22:35:13.44	46.90	39.67	-60.9	-78.3	3.6	1.51e+00	0	46	104	0	60	323178
2026-01-29 22:35:14.45	47.16	39.89	-60.9	-78.3	3.6	1.51e+00	0	46	104	0	60	323363
2026-01-29 22:35:15.45	47.42	40.10	-60.9	-78.4	3.5	1.51e+00	0	46	104	0	60	326352
2026-01-29 22:35:16.46	47.68	40.32	-61.0	-78.4	3.6	1.51e+00	0	46	104	0	60	325472
2026-01-29 22:35:17.46	47.94	40.54	-61.0	-78.4	3.6	1.51e+00	0	46	104	0	60	325088
2026-01-29 22:35:18.46	48.21	40.76	-61.0	-78.4	3.6	1.51e+00	0	46	104	0	60	324500
2026-01-29 22:35:19.47	48.48	40.98	-61.0	-78.4	3.6	1.51e+00	0	46	104	0	60	324605
2026-01-29 22:35:20.46	48.75	41.20	-61.1	-78.4	3.6	1.51e+00	0	46	104	0	60	325963
2026-01-29 22:35:21.47	49.04	41.43	-61.0	-78.4	3.6	1.51e+00	0	46	104	0	60	324080
2026-01-29 22:35:22.47	49.32	41.65	-61.0	-78.4	3.6	1.51e+00	0	46	104	0	60	325475
2026-01-29 22:35:23.48	49.61	41.87	-61.0	-78.4	3.6	1.51e+00	0	46	104	0	60	325257
2026-01-29 22:35:24.49	49.90	42.10	-61.1	-78.4	3.6	1.51e+00	0	46	104	0	60	324263
2026-01-29 22:35:25.49	50.19	42.32	-61.1	-78.4	3.6	1.51e+00	0	46	104	0	60	325795
2026-01-29 22:35:26.50	50.49	42.55	-61.2	-78.4	3.6	1.51e+00	0	46	104	0	60	324596
2026-01-29 22:35:27.50	50.80	42.78	-61.2	-78.4	3.6	1.51e+00	0	46	104	0	60	324118
2026-01-29 22:35:28.51	51.11	43.00	-61.2	-78.3	3.6	1.51e+00	0	46	104	0	60	323033
2026-01-29 22:35:29.50	51.41	43.23	-61.3	-78.3	3.6	1.51e+00	0	46	104	0	60	322958
2026-01-29 22:35:30.51	51.73	43.46	-61.3	-78.3	3.6	1.51e+00	0	46	104	0	60	322494
2026-01-29 22:35:31.51	52.05	43.68	-61.3	-78.3	3.6	1.51e+00	0	46	104	0	60	323294
2026-01-29 22:35:32.52	52.38	43.91	-61.3	-78.3	3.5	1.51e+00	0	46	104	0	60	322079
2026-01-29 22:35:33.52	52.71	44.14	-61.4	-78.3	3.6	1.51e+00	0	46	104	0	60	322661
2026-01-29 22:35:34.52	53.04	44.37	-61.4	-78.3	3.6	1.51e+00	0	46	104	0	60	323894
2026-01-29 22:35:35.53	53.38	44.60	-61.5	-78.3	3.6	1.51e+00	0	46	104	0	60	323631
2026-01-29 22:35:36.53	53.72	44.83	-61.5	-78.4	3.6	1.51e+00	0	46	104	0	60	324212
2026-01-29 22:35:37.54	54.07	45.06	-61.5	-78.4	3.6	1.51e+00	0	46	104	0	60	324530
2026-01-29 22:35:38.54	54.43	45.29	-61.6	-78.4	3.5	1.51e+00	0	46	104	0	60	326817
2026-01-29 22:35:39.54	54.78	45.51	-61.6	-78.4	3.6	1.51e+00	0	46	104	0	60	324318
2026-01-29 22:35:40.55	55.15	45.75	-61.6	-78.4	3.6	1.51e+00	0	46	104	0	60	325695
2026-01-29 22:35:41.56	55.52	45.98	-61.6	-78.4	3.6	1.51e+00	0	46	104	0	60	326508
2026-01-29 22:35:42.56	55.90	46.21	-61.6	-78.5	3.6	1.51e+00	0	46	104	0	60	328715
2026-01-29 22:35:43.56	56.28	46.44	-61.7	-78.4	3.6	1.51e+00	0	46	104	0	60	326687
2026-01-29 22:35:44.56	56.66	46.66	-61.7	-78.4	3.6	1.51e+00	0	46	104	0	60	325139
2026-01-29 22:35:45.56	57.05	46.89	-61.7	-78.4	3.6	1.51e+00	0	46	104	0	60	327113
2026-01-29 22:35:46.56	57.45	47.12	-61.7	-78.4	3.6	1.51e+00	0	46	104	0	60	326057
2026-01-29 22:35:47.56	57.85	47.35	-61.8	-78.4	3.6	1.51e+00	0	46	104	0	60	326924
2026-01-29 22:35:48.57	58.26	47.58	-61.8	-78.4	3.6	1.51e+00	0	46	104	0	60	324048
2026-01-29 22:35:49.57	58.67	47.81	-61.8	-78.4	3.6	1.51e+00	0	46	104	0	60	325034
2026-01-29 22:35:50.58	59.10	48.04	-61.8	-78.3	3.6	1.51e+00	0	46	104	0	60	323991
2026-01-29 22:35:51.58	59.52	48.26	-61.8	-78.4	3.6	1.51e+00	0	46	104	0	60	324595
2026-01-29 22:35:52.58	59.95	48.49	-61.8	-78.3	3.6	1.51e+00	0	46	104	0	60	323288
2026-01-29 22:35:53.58	60.39	48.72	-61.8	-78.3	3.6	1.51e+00	0	46	104	0	60	322528
2026-01-29 22:35:54.59	60.84	48.94	-61.8	-78.3	3.6	1.51e+00	0	46	104	0	60	320826
2026-01-29 22:35:55.59	61.29	49.17	-61.8	-78.3	3.6	1.51e+00	0	46	104	0	60	323239
2026-01-29 22:35:56.60	61.75	49.39	-61.7	-78.2	3.6	1.51e+00	0	46	104	0	60	320228
2026-01-29 22:35:57.60	62.22	49.62	-61.7	-78.3	3.6	1.51e+00	0	46	104	0	60	321008
2026-01-29 22:35:58.61	62.70	49.84	-61.7	-78.3	3.6	1.51e+00	0	46	104	0	60	321299
2026-01-29 22:35:59.60	63.17	50.06	-61.7	-78.3	3.6	1.51e+00	0	46	104	0	60	320987
2026-01-29 22:36:00.61	63.66	50.28	-61.7	-78.2	3.6	1.51e+00	0	46	104	0	60	318740
2026-01-29 22:36:01.61	64.15	50.50	-61.7	-78.2	3.6	1.51e+00	0	46	104	0	60	318935
2026-01-29 22:36:02.61	64.65	50.72	-61.7	-78.3	3.6	1.51e+00	0	46	104	0	60	321734
2026-01-29 22:36:03.61	65.16	50.94	-61.7	-78.2	3.6	1.51e+00	0	46	104	0	60	319680
2026-01-29 22:36:04.61	65.67	51.15	-61.8	-78.2	3.6	1.51e+00	0	46	104	0	60	318880
2026-01-29 22:36:05.61	66.19	51.37	-61.8	-78.3	3.6	1.51e+00	0	46	104	0	60	321392
2026-01-29 22:36:06.61	66.72	51.58	-61.8	-78.3	3.6	1.51e+00	0	46	104	0	60	322359
2026-01-29 22:36:07.62	67.26	51.79	-61.8	-78.3	3.6	1.51e+00	0	46	104	0	60	322359
2026-01-29 22:36:08.62	67.80	52.00	-61.8	-78.3	3.6	1.51e+00	0	46	104	0	60	322630
2026-01-29 22:36:09.63	68.36	52.21	-61.8	-78.3	3.6	1.51e+00	0	46	104	0	60	322260
2026-01-29 22:36:10.63	68.92	52.41	-61.8	-78.3	3.6	1.51e+00	0	46	104	0	60	322555
2026-01-29 22:36:11.63	69.49	52.62	-61.8	-78.3	3.6	1.51e+00	0	46	104	0	60	322299
2026-01-29 22:36:12.64	70.07	52.82	-61.8	-78.3	3.6	1.51e+00	0	46	104	0	60	323865
2026-01-29 22:36:13.64	70.65	53.02	-61.8	-78.3	3.6	1.51e+00	0	46	104	0	60	321099
2026-01-29 22:36:14.64	71.24	53.22	-61.8	-78.3	3.5	1.51e+00	0	46	104	0	60	322158
2026-01-29 22:36:15.65	71.84	53.42	-61.8	-78.3	3.6	1.51e+00	0	46	104	0	60	322726
2026-01-29 22:36:16.65	72.45	53.61	-61.8	-78.3	3.6	1.51e+00	0	46	104	0	60	320310
2026-01-29 22:36:17.66	73.07	53.80	-61.8	-78.3	3.6	1.51e+00	0	46	104	0	60	320428
2026-01-29 22:36:18.67	73.70	53.99	-61.8	-78.2	3.6	1.51e+00	0	46	104	0	60	320286
2026-01-29 22:36:19.67	74.33	54.17	-61.7	-78.3	3.6	1.51e+00	0	46	104	0	60	322258
2026-01-29 22:36:20.67	74.97	54.35	-61.8	-78.2	3.6	1.51e+00	0	46	104	0	60	318604
2026-01-29 22:36:21.67	75.62	54.53	-61.7	-78.2	3.6	1.51e+00	0	46	104	0	60	319883
2026-01-29 22:36:22.67	76.27	54.71	-61.7	-78.2	3.6	1.51e+00	0	46	104	0	60	319832
2026-01-29 22:36:23.67	76.93	54.88	-61.7	-78.2	3.6	1.51e+00	0	46	104	0	60	319189
2026-01-29 22:36:24.67	77.60	55.05	-61.7	-78.2	3.6	1.51e+00	0	46	104	0	60	317644
2026-01-29 22:36:25.68	78.29	55.22	-61.7	-78.2	3.6	1.51e+00	0	46	104	0	60	319714
2026-01-29 22:36:26.68	78.98	55.38	-61.7	-78.2	3.6	1.51e+00	0	46	104	0	60	319779
2026-01-29 22:36:27.69	79.68	55.54	-61.7	-78.2	3.6	1.51e+00	0	46	104	0	60	319765
2026-01-29 22:36:28.70	80.39	55.70	-61.7	-78.2	3.6	1.51e+00	0	46	104	0	60	318789
2026-01-29 22:36:29.71	81.10	55.85	-61.7	-78.3	3.6	1.51e+00	0	46	104	0	60	320568
2026-01-29 22:36:30.71	81.82	56.00	-61.7	-78.2	3.6	1.51e+00	0	46	104	0	60	318630
2026-01-29 22:36:31.71	82.55	56.14	-61.7	-78.2	3.6	1.51e+00	0	46	104	0	60	317954
2026-01-29 22:36:32.72	83.29	56.29	-61.7	-78.2	3.6	1.51e+00	0	46	104	0	60	318859
2026-01-29 22:36:33.73	84.03	56.42	-61.7	-78.2	3.6	1.51e+00	0	46	104	0	60	317551
2026-01-29 22:36:34.73	84.78	56.55	-61.7	-78.2	3.6	1.51e+00	0	46	104	0	60	318145
2026-01-29 22:36:35.74	85.54	56.68	-61.7	-78.3	3.6	1.51e+00	0	46	104	0	60	320855
2026-01-29 22:36:36.75	86.31	56.81	-61.7	-78.2	3.6	1.51e+00	0	46	104	0	60	317242
2026-01-29 22:36:37.75	87.08	56.92	-61.7	-78.1	3.6	1.51e+00	0	46	104	0	60	316432
2026-01-29 22:36:38.75	87.85	57.04	-61.7	-78.2	3.6	1.51e+00	0	46	104	0	60	319340
2026-01-29 22:36:39.77	88.65	57.15	-61.7	-78.2	3.6	1.51e+00	0	46	104	0	60	319668
2026-01-29 22:36:40.77	89.44	57.25	-61.7	-78.2	3.6	1.51e+00	0	46	104	0	60	320150
2026-01-29 22:36:41.77	90.23	57.35	-61.7	-78.2	3.6	1.51e+00	0	46	104	0	60	319695
2026-01-29 22:36:42.78	91.03	57.44	-61.7	-78.3	3.6	1.51e+00	0	46	104	0	60	321603
2026-01-29 22:36:43.79	91.85	57.53	-61.7	-78.3	3.6	1.51e+00	0	46	104	0	60	320789
2026-01-29 22:36:44.79	92.65	57.61	-61.7	-78.3	3.6	1.51e+00	0	46	104	0	60	320891
2026-01-29 22:36:45.80	93.48	57.69	-61.8	-78.3	3.6	1.51e+00	0	46	104	0	60	321137
2026-01-29 22:36:46.80	94.29	57.77	-61.8	-78.3	3.6	1.51e+00	0	46	104	0	60	320802
2026-01-29 22:36:47.81	95.12	57.83	-61.8	-78.3	3.6	1.51e+00	0	46	104	0	60	320852
2026-01-29 22:36:48.82	95.96	57.90	-61.8	-78.3	3.6	1.51e+00	0	46	104	0	60	321932
2026-01-29 22:36:49.83	96.80	57.95	-61.8	-78.3	3.6	1.51e+00	0	46	104	0	60	320907
2026-01-29 22:36:50.84	97.64	58.00	-61.8	-78.3	3.6	1.51e+00	0	46	104	0	60	321263
2026-01-29 22:36:51.84	98.47	58.05	-61.8	-78.3	3.6	1.51e+00	0	46	104	0	60	321992
2026-01-29 22:36:52.85	99.32	58.09	-61.8	-78.2	3.6	1.51e+00	0	46	104	0	60	319520
2026-01-29 22:36:53.86	100.17	58.12	-61.8	-78.3	3.6	1.51e+00	0	46	104	0	60	322823
2026-01-29 22:36:54.86	101.01	58.15	-61.8	-78.3	3.6	1.51e+00	0	46	104	0	60	321221
2026-01-29 22:36:55.87	101.87	58.17	-61.8	-78.2	3.6	1.51e+00	0	46	104	0	60	320219
2026-01-29 22:36:56.88	102.72	58.19	-61.8	-78.2	3.6	1.51e+00	0	46	104	0	60	320038
2026-01-29 22:36:57.88	103.57	58.20	-61.7	-78.3	3.6	1.51e+00	0	46	104	0	60	321296
2026-01-29 22:36:58.88	104.42	58.20	-61.7	-78.3	3.6	1.51e+00	0	46	104	0	60	320515
2026-01-29 22:36:59.89	105.27	58.20	-61.7	-78.3	3.6	1.51e+00	0	46	104	0	60	323196
2026-01-29 22:37:00.89	106.12	58.19	-61.7	-78.3	3.6	1.51e+00	0	46	104	0	60	320694
2026-01-29 22:37:01.89	106.96	58.18	-61.7	-78.3	3.6	1.51e+00	0	46	104	0	60	320792
2026-01-29 22:37:02.90	107.82	58.16	-61.6	-78.2	3.6	1.51e+00	0	46	104	0	60	320223
2026-01-29 22:37:03.90	108.66	58.14	-61.6	-78.3	3.6	1.51e+00	0	46	104	0	60	322811
2026-01-29 22:37:04.91	109.51	58.11	-61.6	-78.3	3.6	1.51e+00	0	46	104	0	60	322075
2026-01-29 22:37:05.92	110.36	58.07	-61.6	-78.3	3.6	1.51e+00	0	46	104	0	60	323052
2026-01-29 22:37:06.93	111.21	58.03	-61.6	-78.3	3.6	1.51e+00	0	46	104	0	60	321262
2026-01-29 22:37:07.93	112.04	57.98	-61.5	-78.3	3.6	1.51e+00	0	46	104	0	60	323215
2026-01-29 22:37:08.94	112.88	57.93	-61.5	-78.3	3.6	1.51e+00	0	46	104	0	60	323727
2026-01-29 22:37:09.94	113.71	57.87	-61.5	-78.3	3.6	1.51e+00	0	46	104	0	60	323247
2026-01-29 22:37:10.95	114.55	57.81	-61.5	-78.3	3.6	1.51e+00	0	46	104	0	60	322270
2026-01-29 22:37:11.95	115.37	57.74	-61.4	-78.3	3.6	1.51e+00	0	46	104	0	60	323142
2026-01-29 22:37:12.96	116.19	57.66	-61.4	-78.3	3.6	1.51e+00	0	46	104	0	60	321805
2026-01-29 22:37:13.96	117.00	57.58	-61.4	-78.3	3.6	1.51e+00	0	46	104	0	60	323772
2026-01-29 22:37:14.97	117.82	57.50	-61.4	-78.4	3.6	1.51e+00	0	46	104	0	60	325252
2026-01-29 22:37:15.97	118.62	57.41	-61.4	-78.4	3.6	1.51e+00	0	46	104	0	60	324887
2026-01-29 22:37:16.98	119.43	57.31	-61.4	-78.4	3.6	1.51e+00	0	46	104	0	60	324442
2026-01-29 22:37:17.99	120.22	57.21	-61.3	-78.3	3.6	1.51e+00	0	46	104	0	60	323537
2026-01-29 22:37:19.00	121.02	57.10	-61.3	-78.3	3.6	1.51e+00	0	46	104	0	60	323739
2026-01-29 22:37:20.01	121.80	56.99	-61.3	-78.3	3.6	1.51e+00	0	46	104	0	60	323907
2026-01-29 22:37:21.01	122.58	56.87	-61.3	-78.4	3.6	1.51e+00	0	46	104	0	60	324152
2026-01-29 22:37:22.02	123.35	56.75	-61.3	-78.3	3.6	1.51e+00	0	46	104	0	60	323653
2026-01-29 22:37:23.03	124.12	56.63	-61.3	-78.3	3.6	1.51e+00	0	46	104	0	60	322892
2026-01-29 22:37:24.03	124.87	56.50	-61.3	-78.3	3.6	1.51e+00	0	46	104	0	60	322720
2026-01-29 22:37:25.03	125.61	56.37	-61.3	-78.3	3.6	1.51e+00	0	46	104	0	60	322690
2026-01-29 22:37:26.04	126.36	56.23	-61.3	-78.3	3.6	1.51e+00	0	46	104	0	60	323286
2026-01-29 22:37:27.05	127.10	56.08	-61.3	-78.3	3.6	1.51e+00	0	46	104	0	60	322365
2026-01-29 22:37:28.05	127.82	55.94	-61.4	-78.3	3.6	1.51e+00	0	46	104	0	60	321888
2026-01-29 22:37:29.06	128.54	55.79	-61.4	-78.4	3.6	1.51e+00	0	46	104	0	60	324382
2026-01-29 22:37:30.07	129.26	55.63	-61.4	-78.3	3.6	1.51e+00	0	46	104	0	60	321722
2026-01-29 22:37:31.08	129.96	55.47	-61.4	-78.3	3.6	1.51e+00	0	46	104	0	60	321262
2026-01-29 22:37:32.08	130.65	55.31	-61.4	-78.2	3.6	1.51e+00	0	46	104	0	60	319508
2026-01-29 22:37:33.09	131.35	55.15	-61.5	-78.3	3.6	1.51e+00	0	46	104	0	60	320738
2026-01-29 22:37:34.10	132.03	54.98	-61.5	-78.3	3.6	1.51e+00	0	46	104	0	60	322036
2026-01-29 22:37:35.11	132.70	54.80	-61.5	-78.3	3.6	1.51e+00	0	46	104	0	60	321832
2026-01-29 22:37:36.12	133.37	54.63	-61.5	-78.3	3.6	1.51e+00	0	46	104	0	60	323421
2026-01-29 22:37:37.12	134.02	54.45	-61.6	-78.3	3.6	1.51e+00	0	46	104	0	60	321434
2026-01-29 22:37:38.13	134.67	54.27	-61.6	-78.4	3.6	1.51e+00	0	46	104	0	60	324120
2026-01-29 22:37:39.14	135.31	54.08	-61.6	-78.3	3.6	1.51e+00	0	46	104	0	60	323168
2026-01-29 22:37:40.14	135.94	53.90	-61.6	-78.4	3.6	1.51e+00	0	46	104	0	60	324642
2026-01-29 22:37:41.15	136.57	53.71	-61.6	-78.4	3.6	1.51e+00	0	46	104	0	60	324278
2026-01-29 22:37:42.15	137.18	53.51	-61.6	-78.3	3.6	1.51e+00	0	46	104	0	60	322919
2026-01-29 22:37:43.16	137.79	53.32	-61.6	-78.3	3.6	1.51e+00	0	46	104	0	60	323981
2026-01-29 22:37:44.16	138.38	53.12	-61.6	-78.3	3.6	1.51e+00	0	46	104	0	60	323013
2026-01-29 22:37:45.16	138.97	52.92	-61.6	-78.4	3.6	1.51e+00	0	46	104	0	60	324055
2026-01-29 22:37:46.17	139.56	52.72	-61.5	-78.3	3.6	1.51e+00	0	46	104	0	60	323358
2026-01-29 22:37:47.18	140.14	52.52	-61.5	-78.3	3.6	1.51e+00	0	46	104	0	60	321756
2026-01-29 22:37:48.19	140.71	52.31	-61.5	-78.3	3.6	1.51e+00	0	46	104	0	60	322495
2026-01-29 22:37:49.20	141.27	52.10	-61.4	-78.3	3.6	1.51e+00	0	46	104	0	60	321109
2026-01-29 22:37:50.20	141.82	51.89	-61.4	-78.2	3.6	1.51e+00	0	46	104	0	60	318449
2026-01-29 22:37:51.20	142.36	51.68	-61.4	-78.2	3.6	1.51e+00	0	46	104	0	60	320290
2026-01-29 22:37:52.21	142.89	51.47	-61.4	-78.2	3.6	1.51e+00	0	46	104	0	60	319424
2026-01-29 22:37:53.22	143.43	51.25	-61.3	-78.2	3.6	1.51e+00	0	46	104	0	60	317896
2026-01-29 22:37:54.22	143.94	51.03	-61.2	-78.1	3.6	1.51e+00	0	46	104	0	60	314043
2026-01-29 22:37:55.23	144.46	50.82	-61.2	-78.0	3.6	1.51e+00	0	46	104	0	60	312070
2026-01-29 22:37:56.24	144.97	50.60	-61.1	-78.0	3.6	1.51e+00	0	46	104	0	60	310985
2026-01-29 22:37:57.24	145.46	50.38	-61.1	-78.0	3.6	1.51e+00	0	46	104	0	60	311787
2026-01-29 22:37:58.25	145.96	50.15	-61.1	-77.9	3.6	1.51e+00	0	46	104	0	60	309007
2026-01-29 22:37:59.26	146.45	49.93	-61.1	-77.9	3.6	1.51e+00	0	46	104	0	60	309157
2026-01-29 22:38:00.26	146.92	49.71	-61.1	-78.0	3.6	1.51e+00	0	46	104	0	60	310679
2026-01-29 22:38:01.27	147.39	49.48	-61.0	-77.9	3.6	1.51e+00	0	46	104	0	60	306263
2026-01-29 22:38:02.28	147.86	49.26	-61.0	-77.7	3.6	1.51e+00	0	46	104	0	60	299923
2026-01-29 22:38:03.28	148.32	49.03	-61.0	-77.8	3.6	1.51e+00	0	46	104	0	60	303430
2026-01-29 22:38:04.29	148.77	48.80	-61.0	-77.8	3.6	1.51e+00	0	46	104	0	60	303679
2026-01-29 22:38:05.30	149.21	48.58	-60.9	-77.9	3.6	1.51e+00	0	46	104	0	60	305967
2026-01-29 22:38:06.30	149.65	48.35	-60.9	-77.8	3.6	1.51e+00	0	46	104	0	60	304469
2026-01-29 22:38:07.30	150.08	48.12	-61.0	-77.9	3.6	1.51e+00	0	46	104	0	60	306835
2026-01-29 22:38:08.31	150.51	47.89	-60.9	-77.8	3.6	1.51e+00	0	46	104	0	60	303965
2026-01-29 22:38:09.32	150.93	47.66	-60.9	-77.9	3.6	1.51e+00	0	46	104	0	60	307342
2026-01-29 22:38:10.32	151.34	47.43	-60.9	-77.9	3.6	1.51e+00	0	46	104	0	60	308350
2026-01-29 22:38:11.32	151.74	47.20	-60.9	-77.9	3.6	1.51e+00	0	46	104	0	60	308303
2026-01-29 22:38:12.33	152.15	46.97	-60.9	-77.9	3.6	1.51e+00	0	46	104	0	60	306359
2026-01-29 22:38:13.33	152.54	46.74	-60.9	-77.9	3.6	1.51e+00	0	46	104	0	60	307454
2026-01-29 22:38:14.34	152.93	46.51	-60.8	-77.9	3.6	1.51e+00	0	46	104	0	60	307686
2026-01-29 22:38:15.35	153.32	46.28	-60.8	-77.9	3.5	1.51e+00	0	46	104	0	60	307490
2026-01-29 22:38:16.35	153.69	46.05	-60.8	-77.9	3.6	1.51e+00	0	46	104	0	60	305894
2026-01-29 22:38:17.36	154.07	45.82	-60.7	-77.8	3.6	1.51e+00	0	46	104	0	60	303504
2026-01-29 22:38:18.36	154.43	45.59	-60.7	-77.9	3.6	1.51e+00	0	46	104	0	60	306585
2026-01-29 22:38:19.37	154.80	45.35	-60.5	-77.8	3.6	1.51e+00	0	46	104	0	60	303533
2026-01-29 22:38:20.37	155.15	45.12	-60.5	-77.7	3.6	1.51e+00	0	46	104	0	60	300455
2026-01-29 22:38:21.38	155.51	44.89	-60.4	-77.7	3.6	1.51e+00	0	46	104	0	60	300951
2026-01-29 22:38:22.39	155.86	44.66	-60.4	-77.6	3.6	1.51e+00	0	46	104	0	60	297439
2026-01-29 22:38:23.39	156.20	44.43	-60.4	-77.7	3.6	1.51e+00	0	46	104	0	60	300102
2026-01-29 22:38:24.40	156.53	44.20	-60.4	-77.8	3.6	1.51e+00	0	46	104	0	60	304118
2026-01-29 22:38:25.40	156.87	43.97	-60.3	-77.6	3.6	1.51e+00	0	46	104	0	60	295997
2026-01-29 22:38:26.41	157.19	43.74	-60.4	-77.6	3.6	1.51e+00	0	46	104	0	60	297785
2026-01-29 22:38:27.42	157.52	43.51	-60.4	-77.6	3.6	1.51e+00	0	46	104	0	60	297673
2026-01-29 22:38:28.43	157.84	43.28	-60.4	-77.7	3.6	1.51e+00	0	46	104	0	60	300072
2026-01-29 22:38:29.43	158.15	43.06	-60.4	-77.7	3.6	1.51e+00	0	46	104	0	60	302330
2026-01-29 22:38:30.44	158.46	42.83	-60.4	-77.7	3.6	1.51e+00	0	46	104	0	60	300492
2026-01-29 22:38:31.44	158.77	42.60	-60.4	-77.7	3.6	1.51e+00	0	46	104	0	60	300359
2026-01-29 22:38:32.45	159.07	42.37	-60.4	-77.5	3.6	1.51e+00	0	46	104	0	60	294853
2026-01-29 22:38:33.46	159.37	42.15	-60.4	-77.6	3.6	1.51e+00	0	46	104	0	60	297639
2026-01-29 22:38:34.47	159.66	41.92	-60.3	-77.5	3.6	1.51e+00	0	46	104	0	60	294248
2026-01-29 22:38:35.47	159.95	41.69	-60.3	-77.6	3.6	1.51e+00	0	46	104	0	60	297510
2026-01-29 22:38:36.48	160.24	41.47	-60.3	-77.6	3.6	1.51e+00	0	46	104	0	60	295742
2026-01-29 22:38:37.48	160.52	41.25	-60.3	-77.5	3.5	1.51e+00	0	46	104	0	60	293840
2026-01-29 22:38:38.49	160.80	41.02	-60.3	-77.5	3.6	1.51e+00	0	46	104	0	60	293981
2026-01-29 22:38:39.50	161.07	40.80	-60.3	-77.7	3.6	1.51e+00	0	46	104	0	60	299992
2026-01-29 22:38:40.50	161.34	40.58	-60.2	-77.7	3.6	1.51e+00	0	46	104	0	60	299049
2026-01-29 22:38:41.50	161.61	40.36	-60.2	-77.5	3.6	1.51e+00	0	46	104	0	60	293433
2026-01-29 22:38:42.50	161.87	40.14	-60.2	-77.6	3.6	1.51e+00	0	46	104	0	60	296076
2026-01-29 22:38:43.51	162.13	39.92	-60.2	-77.6	3.6	1.51e+00	0	46	104	0	60	297866
2026-01-29 22:38:44.52	162.39	39.70	-60.2	-77.8	3.6	1.51e+00	0	46	104	0	60	303323
2026-01-29 22:38:45.53	162.64	39.48	-60.3	-77.8	3.6	1.51e+00	0	46	104	0	60	303069
2026-01-29 22:38:46.54	162.89	39.26	-60.3	-77.8	3.6	1.51e+00	0	46	104	0	60	304699
2026-01-29 22:38:47.55	163.14	39.04	-60.3	-77.7	3.6	1.51e+00	0	46	104	0	60	299412
2026-01-29 22:38:48.55	163.38	38.83	-60.3	-77.9	3.6	1.51e+00	0	46	104	0	60	308540
2026-01-29 22:38:49.56	163.62	38.61	-60.4	-77.9	3.6	1.51e+00	0	46	104	0	60	308584
2026-01-29 22:38:50.57	163.86	38.40	-60.3	-77.9	3.6	1.51e+00	0	46	104	0	60	307959
2026-01-29 22:38:51.58	164.10	38.18	-60.4	-77.9	3.6	1.51e+00	0	46	104	0	60	308383
2026-01-29 22:38:52.58	164.32	37.97	-60.5	-77.9	3.6	1.51e+00	0	46	104	0	60	308065
2026-01-29 22:38:53.59	164.55	37.76	-60.5	-78.0	3.6	1.51e+00	0	46	104	0	60	311665
2026-01-29 22:38:54.59	164.78	37.55	-60.5	-78.0	3.6	1.51e+00	0	46	104	0	60	311108
2026-01-29 22:38:55.60	165.00	37.34	-60.6	-78.0	3.6	1.51e+00	0	46	104	0	60	311442
2026-01-29 22:38:56.60	165.22	37.13	-60.6	-78.0	3.6	1.51e+00	0	46	104	0	60	312974
2026-01-29 22:38:57.61	165.44	36.92	-60.6	-78.0	3.6	1.51e+00	0	46	104	0	60	312929
2026-01-29 22:38:58.62	165.65	36.71	-60.7	-78.0	3.6	1.51e+00	0	46	104	0	60	311903
2026-01-29 22:38:59.62	165.86	36.50	-60.5	-78.0	3.6	1.51e+00	0	46	104	0	60	312123
2026-01-29 22:39:00.63	166.07	36.30	-60.6	-78.0	3.6	1.51e+00	0	46	104	0	60	311944
2026-01-29 22:39:01.64	166.28	36.09	-60.8	-78.0	3.6	1.51e+00	0	46	104	0	60	312255
2026-01-29 22:39:02.65	166.48	35.89	-60.8	-78.0	3.6	1.51e+00	0	46	104	0	60	312047
2026-01-29 22:39:03.66	166.69	35.68	-60.8	-78.0	3.6	1.51e+00	0	46	104	0	60	311865
2026-01-29 22:39:04.67	166.89	35.48	-60.9	-78.1	3.6	1.51e+00	0	46	104	0	60	313176
2026-01-29 22:39:05.67	167.08	35.28	-60.9	-78.0	3.6	1.51e+00	0	46	104	0	60	312155
2026-01-29 22:39:06.68	167.28	35.08	-60.9	-78.0	3.6	1.51e+00	0	46	104	0	60	312588
2026-01-29 22:39:07.68	167.47	34.88	-61.0	-78.0	3.6	1.51e+00	0	46	104	0	60	311846
2026-01-29 22:39:08.69	167.66	34.68	-61.0	-78.1	3.6	1.51e+00	0	46	104	0	60	313803
2026-01-29 22:39:09.69	167.84	34.48	-61.0	-78.0	3.6	1.51e+00	0	46	104	0	60	312120
2026-01-29 22:39:10.70	168.03	34.29	-61.0	-78.0	3.6	1.51e+00	0	46	104	0	60	311844
2026-01-29 22:39:11.71	168.21	34.09	-61.0	-78.0	3.6	1.51e+00	0	46	104	0	60	312159
2026-01-29 22:39:12.71	168.39	33.90	-61.0	-78.0	3.6	1.51e+00	0	46	104	0	60	311953
2026-01-29 22:39:13.71	168.57	33.70	-61.1	-78.0	3.6	1.51e+00	0	46	104	0	60	312227
2026-01-29 22:39:14.72	168.75	33.51	-61.0	-78.0	3.6	1.51e+00	0	46	104	0	60	312356
2026-01-29 22:39:15.73	168.92	33.32	-61.1	-78.0	3.6	1.51e+00	0	46	104	0	60	312814
2026-01-29 22:39:16.74	169.10	33.12	-61.2	-78.0	3.6	1.51e+00	0	46	104	0	60	311649
2026-01-29 22:39:17.75	169.27	32.93	-61.2	-78.0	3.6	1.51e+00	0	46	104	0	60	312556
2026-01-29 22:39:18.76	169.44	32.74	-61.2	-78.1	3.6	1.51e+00	0	46	104	0	60	315569
2026-01-29 22:39:19.76	169.60	32.56	-61.2	-78.1	3.6	1.51e+00	0	46	104	0	60	314027
2026-01-29 22:39:20.76	169.77	32.37	-61.3	-78.1	3.6	1.51e+00	0	46	104	0	60	313939
2026-01-29 22:39:21.77	169.93	32.18	-61.3	-78.1	3.6	1.51e+00	0	46	104	0	60	313754
2026-01-29 22:39:22.78	170.09	31.99	-61.3	-78.1	3.6	1.51e+00	0	46	104	0	60	313726
2026-01-29 22:39:23.79	170.25	31.81	-61.3	-78.1	3.6	1.51e+00	0	46	104	0	60	313093
2026-01-29 22:39:24.79	170.41	31.63	-61.3	-78.0	3.6	1.51e+00	0	46	104	0	60	311320
2026-01-29 22:39:25.79	170.57	31.44	-61.3	-78.0	3.6	1.51e+00	0	46	104	0	60	312659
2026-01-29 22:39:26.80	170.72	31.26	-61.3	-78.0	3.6	1.51e+00	0	46	104	0	60	312423
2026-01-29 22:39:27.80	170.87	31.08	-61.3	-78.0	3.6	1.51e+00	0	46	104	0	60	310435
2026-01-29 22:39:28.81	171.03	30.90	-61.3	-78.0	3.6	1.51e+00	0	46	104	0	60	311157
2026-01-29 22:39:29.81	171.17	30.72	-61.3	-78.0	3.6	1.51e+00	0	46	104	0	60	310485
2026-01-29 22:39:30.81	171.32	30.55	-61.3	-77.9	3.6	1.51e+00	0	46	104	0	60	308731
2026-01-29 22:39:31.82	171.47	30.37	-61.3	-78.0	3.6	1.51e+00	0	46	104	0	60	309622
2026-01-29 22:39:32.83	171.61	30.19	-61.3	-78.0	3.6	1.51e+00	0	46	104	0	60	309924
2026-01-29 22:39:33.83	171.76	30.01	-61.3	-77.9	3.6	1.51e+00	0	46	104	0	60	308342
2026-01-29 22:39:34.84	171.90	29.84	-61.3	-77.9	3.6	1.51e+00	0	46	104	0	60	307325
2026-01-29 22:39:35.85	172.04	29.66	-61.3	-77.9	3.6	1.51e+00	0	46	104	0	60	306538
2026-01-29 22:39:36.86	172.18	29.49	-61.4	-77.9	3.6	1.51e+00	0	46	104	0	60	307502
2026-01-29 22:39:37.87	172.32	29.32	-61.4	-77.9	3.6	1.51e+00	0	46	104	0	60	306537
2026-01-29 22:39:38.88	172.45	29.15	-61.4	-77.9	3.6	1.51e+00	0	46	104	0	60	307759
2026-01-29 22:39:39.88	172.59	28.98	-61.4	-77.9	3.6	1.51e+00	0	46	104	0	60	309390
2026-01-29 22:39:40.88	172.72	28.81	-61.4	-77.9	3.6	1.51e+00	0	46	104	0	60	307633
2026-01-29 22:39:41.89	172.85	28.64	-61.4	-78.0	3.6	1.51e+00	0	46	104	0	60	310007
2026-01-29 22:39:42.90	172.98	28.47	-61.4	-77.9	3.6	1.51e+00	0	46	104	0	60	307942
2026-01-29 22:39:43.90	173.11	28.30	-61.4	-77.9	3.6	1.51e+00	0	46	104	0	60	308799
2026-01-29 22:39:44.91	173.24	28.14	-61.4	-78.0	3.6	1.51e+00	0	46	104	0	60	309739
2026-01-29 22:39:45.91	173.37	27.97	-61.4	-78.0	3.6	1.51e+00	0	46	104	0	60	309572
2026-01-29 22:39:46.92	173.49	27.81	-61.5	-77.9	3.6	1.51e+00	0	46	104	0	60	307808
2026-01-29 22:39:47.93	173.62	27.64	-61.4	-78.0	3.6	1.51e+00	0	46	104	0	60	309852
2026-01-29 22:39:48.93	173.74	27.48	-61.4	-78.0	3.6	1.51e+00	0	46	104	0	60	310531
2026-01-29 22:39:49.94	173.86	27.32	-61.4	-78.0	3.6	1.51e+00	0	46	104	0	60	311150
2026-01-29 22:39:50.95	173.98	27.16	-61.4	-78.0	3.6	1.51e+00	0	46	104	0	60	311847
2026-01-29 22:39:51.96	174.10	27.00	-61.3	-77.9	3.6	1.51e+00	0	46	104	0	60	306450
2026-01-29 22:39:52.96	174.22	26.84	-61.3	-77.9	3.5	1.51e+00	0	46	104	0	60	308941
2026-01-29 22:39:53.97	174.34	26.68	-61.3	-78.0	3.6	1.51e+00	0	46	104	0	60	309941
2026-01-29 22:39:54.98	174.45	26.52	-61.2	-77.9	3.6	1.51e+00	0	46	104	0	60	307328
2026-01-29 22:39:55.98	174.57	26.36	-61.1	-77.9	3.6	1.51e+00	0	46	104	0	60	307225
2026-01-29 22:39:56.99	174.68	26.21	-61.1	-77.9	3.6	1.51e+00	0	46	104	0	60	308259
2026-01-29 22:39:58.00	174.80	26.05	-61.0	-77.8	3.6	1.51e+00	0	46	104	0	60	302868
2026-01-29 22:39:59.00	174.91	25.90	-60.9	-77.9	3.6	1.51e+00	0	46	104	0	60	307633
2026-01-29 22:40:00.01	175.02	25.74	-60.9	-77.9	3.6	1.51e+00	0	46	104	0	60	306487
2026-01-29 22:40:01.01	175.13	25.59	-60.8	-77.8	3.6	1.51e+00	0	46	104	0	60	304917
2026-01-29 22:40:02.02	175.24	25.44	-60.7	-77.9	3.6	1.51e+00	0	46	104	0	60	306474
2026-01-29 22:40:03.03	175.34	25.28	-60.6	-77.8	3.6	1.51e+00	0	46	104	0	60	303923
2026-01-29 22:40:04.04	175.45	25.13	-60.6	-77.8	3.6	1.51e+00	0	46	104	0	60	304897
2026-01-29 22:40:05.04	175.56	24.98	-60.5	-77.8	3.6	1.51e+00	0	46	104	0	60	303592
2026-01-29 22:40:06.05	175.66	24.83	-60.4	-77.8	3.6	1.51e+00	0	46	104	0	60	303430
2026-01-29 22:40:07.06	175.77	24.68	-60.4	-77.8	3.6	1.51e+00	0	46	104	0	60	303366
2026-01-29 22:40:08.07	175.87	24.54	-60.3	-77.8	3.6	1.51e+00	0	46	104	0	60	302537
2026-01-29 22:40:09.07	175.97	24.39	-60.3	-77.7	3.5	1.51e+00	0	46	104	0	60	301678
2026-01-29 22:40:10.08	176.07	24.24	-60.2	-77.7	3.6	1.51e+00	0	46	104	0	60	301301
2026-01-29 22:40:11.09	176.17	24.10	-60.2	-77.8	3.6	1.51e+00	0	46	104	0	60	302437
2026-01-29 22:40:12.09	176.27	23.95	-60.2	-77.7	3.6	1.51e+00	0	46	104	0	60	300859
2026-01-29 22:40:13.10	176.37	23.81	-60.1	-77.7	3.6	1.51e+00	0	46	104	0	60	299184
2026-01-29 22:40:14.11	176.47	23.66	-60.1	-77.6	3.6	1.51e+00	0	46	104	0	60	296332
2026-01-29 22:40:15.11	176.56	23.52	-60.1	-77.6	3.6	1.51e+00	0	46	104	0	60	298106
2026-01-29 22:40:16.12	176.66	23.38	-60.1	-77.6	3.6	1.51e+00	0	46	104	0	60	297718
2026-01-29 22:40:17.12	176.75	23.24	-60.1	-77.5	3.6	1.51e+00	0	46	104	0	60	294400
2026-01-29 22:40:18.13	176.85	23.10	-60.1	-77.5	3.6	1.51e+00	0	46	104	0	60	293382
2026-01-29 22:40:19.14	176.94	22.96	-60.2	-77.6	3.6	1.51e+00	0	46	104	0	60	296143
2026-01-29 22:40:20.15	177.04	22.82	-60.2	-77.4	3.6	1.51e+00	0	46	104	0	60	291742
2026-01-29 22:40:21.16	177.13	22.68	-60.3	-77.6	3.6	1.51e+00	0	46	104	0	60	297360
2026-01-29 22:40:22.16	177.22	22.54	-60.3	-77.6	3.6	1.51e+00	0	46	104	0	60	296970
2026-01-29 22:40:23.17	177.31	22.40	-60.4	-77.6	3.6	1.51e+00	0	46	104	0	60	296287
2026-01-29 22:40:24.18	177.40	22.27	-60.5	-77.7	3.6	1.51e+00	0	46	104	0	60	301435
2026-01-29 22:40:25.19	177.49	22.13	-60.6	-77.5	3.6	1.51e+00	0	46	104	0	60	295057
2026-01-29 22:40:26.19	177.58	21.99	-60.7	-77.7	3.6	1.51e+00	0	46	104	0	60	300989
2026-01-29 22:40:27.19	177.66	21.86	-60.7	-77.7	3.6	1.51e+00	0	46	104	0	60	300636
2026-01-29 22:40:28.20	177.75	21.73	-60.8	-77.7	3.6	1.51e+00	0	46	104	0	60	301443
2026-01-29 22:40:29.21	177.84	21.59	-60.9	-77.8	3.6	1.51e+00	0	46	104	0	60	303627
2026-01-29 22:40:30.22	177.92	21.46	-61.0	-77.8	3.6	1.51e+00	0	46	104	0	60	303630
2026-01-29 22:40:31.23	178.01	21.33	-61.1	-77.8	3.6	1.51e+00	0	46	104	0	60	305667
2026-01-29 22:40:32.23	178.09	21.20	-61.1	-77.9	3.6	1.51e+00	0	46	104	0	60	307540
2026-01-29 22:40:33.24	178.17	21.06	-61.2	-77.9	3.6	1.51e+00	0	46	104	0	60	306661
2026-01-29 22:40:34.25	178.26	20.93	-61.1	-77.9	3.6	1.51e+00	0	46	104	0	60	307826
2026-01-29 22:40:35.25	178.34	20.80	-61.2	-77.9	3.6	1.51e+00	0	46	104	0	60	307352
2026-01-29 22:40:36.26	178.42	20.67	-61.2	-77.9	3.6	1.51e+00	0	46	104	0	60	309007
2026-01-29 22:40:37.27	178.50	20.55	-61.2	-77.9	3.6	1.51e+00	0	46	104	0	60	308516
2026-01-29 22:40:38.28	178.58	20.42	-61.2	-77.9	3.6	1.51e+00	0	46	104	0	60	308203
2026-01-29 22:40:39.29	178.66	20.29	-61.2	-77.9	3.6	1.51e+00	0	46	104	0	60	308498
2026-01-29 22:40:40.30	178.74	20.16	-61.1	-77.9	3.6	1.51e+00	0	46	104	0	60	308070
2026-01-29 22:40:41.31	178.82	20.04	-61.1	-77.9	3.6	1.51e+00	0	46	104	0	60	307780
2026-01-29 22:40:42.31	178.89	19.91	-61.1	-77.9	3.6	1.51e+00	0	46	104	0	60	307232
2026-01-29 22:40:43.32	178.97	19.79	-61.1	-77.9	3.6	1.51e+00	0	46	104	0	60	306953
2026-01-29 22:40:44.33	179.05	19.66	-61.1	-77.9	3.6	1.51e+00	0	46	104	0	60	306751
2026-01-29 22:40:45.34	179.12	19.54	-61.1	-77.9	3.6	1.51e+00	0	46	104	0	60	305991
2026-01-29 22:40:46.35	179.20	19.41	-61.1	-77.8	3.6	1.51e+00	0	46	104	0	60	305770
2026-01-29 22:40:47.35	179.27	19.29	-61.1	-77.8	3.6	1.51e+00	0	46	104	0	60	305313
2026-01-29 22:40:48.36	179.35	19.17	-61.1	-77.8	3.6	1.51e+00	0	46	104	0	60	305062
2026-01-29 22:40:49.37	179.42	19.05	-61.0	-77.8	3.6	1.51e+00	0	46	104	0	60	303495
2026-01-29 22:40:50.37	179.49	18.93	-61.1	-77.8	3.6	1.51e+00	0	46	104	0	60	304211
2026-01-29 22:40:51.38	179.57	18.81	-61.0	-77.8	3.6	1.51e+00	0	46	104	0	60	304611
2026-01-29 22:40:52.38	179.64	18.69	-61.0	-77.7	3.6	1.51e+00	0	46	104	0	60	301784
2026-01-29 22:40:53.39	179.71	18.57	-61.0	-77.8	3.6	1.51e+00	0	46	104	0	60	303013
2026-01-29 22:40:54.38	179.78	18.45	-61.0	-77.8	3.6	1.51e+00	0	46	104	0	60	303118
2026-01-29 22:40:55.39	179.85	18.33	-61.1	-77.8	3.6	1.51e+00	0	46	104	0	60	303586
2026-01-29 22:40:56.40	179.92	18.21	-61.1	-77.7	3.6	1.51e+00	0	46	104	0	60	301818
2026-01-29 22:40:57.40	179.99	18.10	-61.1	-77.7	3.6	1.51e+00	0	46	104	0	60	301160
2026-01-29 22:40:58.41	180.06	17.98	-61.1	-77.7	3.6	1.51e+00	0	46	104	0	60	300642
2026-01-29 22:40:59.42	180.13	17.86	-61.1	-77.6	3.6	1.51e+00	0	46	104	0	60	298376
2026-01-29 22:41:00.43	180.19	17.75	-61.1	-77.6	3.6	1.51e+00	0	46	104	0	60	297221
2026-01-29 22:41:01.44	180.26	17.63	-61.1	-77.6	3.6	1.51e+00	0	46	104	0	60	297520
2026-01-29 22:41:02.44	180.33	17.52	-61.1	-77.6	3.6	1.51e+00	0	46	104	0	60	298865
2026-01-29 22:41:03.45	180.39	17.40	-61.1	-77.6	3.6	1.51e+00	0	46	104	0	60	298255
2026-01-29 22:41:04.45	180.46	17.29	-61.1	-77.7	3.6	1.51e+00	0	46	104	0	60	299128
2026-01-29 22:41:05.46	180.52	17.18	-61.1	-77.6	3.6	1.51e+00	0	46	104	0	60	298857
2026-01-29 22:41:06.47	180.59	17.06	-61.1	-77.5	3.6	1.51e+00	0	46	104	0	60	294801
2026-01-29 22:41:07.47	180.65	16.95	-61.1	-77.7	3.6	1.51e+00	0	46	104	0	60	299173
2026-01-29 22:41:08.48	180.72	16.84	-61.2	-77.8	3.6	1.51e+00	0	46	104	0	60	302886
2026-01-29 22:41:09.48	180.78	16.73	-61.1	-77.7	3.6	1.51e+00	0	46	104	0	60	299244
2026-01-29 22:41:10.49	180.84	16.62	-61.1	-77.7	3.6	1.51e+00	0	46	104	0	60	300013
2026-01-29 22:41:11.49	180.91	16.51	-61.1	-77.5	3.6	1.51e+00	0	46	104	0	60	294969
2026-01-29 22:41:12.50	180.97	16.40	-61.1	-77.5	3.6	1.51e+00	0	46	104	0	60	293712
2026-01-29 22:41:13.51	181.03	16.29	-61.1	-77.6	3.6	1.51e+00	0	46	104	0	60	298339
2026-01-29 22:41:14.51	181.09	16.18	-61.1	-77.6	3.6	1.51e+00	0	46	104	0	60	296896
2026-01-29 22:41:15.52	181.15	16.07	-61.1	-77.7	3.6	1.51e+00	0	46	104	0	60	299334
2026-01-29 22:41:16.52	181.21	15.97	-61.0	-77.7	3.6	1.51e+00	0	46	104	0	60	299705
2026-01-29 22:41:17.53	181.27	15.86	-61.0	-77.7	3.6	1.51e+00	0	46	104	0	60	300001
2026-01-29 22:41:18.54	181.33	15.75	-61.1	-77.7	3.6	1.51e+00	0	46	104	0	60	300263
2026-01-29 22:41:19.55	181.39	15.64	-61.0	-77.7	3.6	1.51e+00	0	46	104	0	60	301755
2026-01-29 22:41:20.55	181.45	15.54	-61.0	-77.8	3.6	1.51e+00	0	46	104	0	60	303223
2026-01-29 22:41:21.55	181.51	15.43	-61.0	-77.8	3.6	1.51e+00	0	46	104	0	60	305533
2026-01-29 22:41:22.56	181.57	15.33	-61.0	-77.7	3.6	1.51e+00	0	46	104	0	60	302231
2026-01-29 22:41:23.57	181.63	15.22	-61.0	-77.7	3.6	1.51e+00	0	46	104	0	60	302309
2026-01-29 22:41:24.58	181.68	15.12	-60.9	-77.7	3.6	1.51e+00	0	46	104	0	60	301793
2026-01-29 22:41:25.58	181.74	15.01	-60.9	-77.7	3.6	1.51e+00	0	46	104	0	60	301322
2026-01-29 22:41:26.58	181.80	14.91	-60.8	-77.7	3.6	1.51e+00	0	46	104	0	60	301066
2026-01-29 22:41:27.59	181.85	14.81	-60.8	-77.8	3.6	1.51e+00	0	46	104	0	60	304944
2026-01-29 22:41:28.60	181.91	14.70	-60.7	-77.9	3.6	1.51e+00	0	46	104	0	60	306768
2026-01-29 22:41:29.60	181.97	14.60	-60.7	-77.8	3.6	1.51e+00	0	46	104	0	60	305021
