passes_logs/2026/01/29/R3.2S-Naryan-Mar/R3.2S-Naryan-Mar__20260129_002825_NOAA_20_JPSS-1_rec.log

#Pass ID: 20260129_002825_NOAA 20 (JPSS-1)
#Satellite: NOAA 20 (JPSS-1)
#Configuration: NOAA 20
#almurnet v.1.7.20240730
#Start time: 2026-01-29 00:28:25

#Version: 2.2.20231116
#Station: R3.2S-Naryan-Mar
#Location: 53.008057 lon 67.646978 lat
#TLE: 1 43013U 17073A   26027.80586608  .00000156  00000+0  94940-4 0  9998
#TLE: 2 43013  98.7647 328.6108 0000947  21.3465 338.7750 14.19541216424550

#Time	Az	El	Level	Level2	SNR	BER	BlckErr	Temp	State	Recorded	gain1	gain2
2026-01-29 00:28:25.94	28.77	0.03	-61.5	-77.9	3.5	1.51e+00	0	44	0	0	60	309226
2026-01-29 00:28:26.95	28.75	0.09	-61.4	-78.1	3.6	1.51e+00	0	45	104	0	60	313484
2026-01-29 00:28:27.95	28.72	0.15	-61.6	-78.2	3.6	1.51e+00	0	45	104	0	60	317995
2026-01-29 00:28:28.95	28.70	0.21	-61.5	-78.0	3.6	1.51e+00	0	45	104	0	60	311701
2026-01-29 00:28:29.96	28.68	0.27	-61.5	-78.1	3.6	1.51e+00	0	45	104	0	60	316185
2026-01-29 00:28:30.97	28.65	0.33	-61.3	-78.0	3.5	1.51e+00	0	45	104	0	60	311727
2026-01-29 00:28:31.98	28.63	0.39	-61.8	-78.2	3.6	1.51e+00	0	45	104	0	60	320142
2026-01-29 00:28:32.98	28.60	0.45	-61.7	-78.2	3.6	1.51e+00	0	45	104	0	60	317432
2026-01-29 00:28:33.99	28.57	0.51	-61.9	-78.3	3.6	1.51e+00	0	45	104	0	60	320568
2026-01-29 00:28:35.00	28.55	0.57	-61.5	-78.3	3.6	1.51e+00	0	45	104	0	60	322170
2026-01-29 00:28:36.01	28.52	0.63	-61.7	-78.2	3.6	1.51e+00	0	45	104	0	60	319297
2026-01-29 00:28:37.01	28.50	0.69	-61.2	-78.1	3.6	1.51e+00	0	45	104	0	60	313482
2026-01-29 00:28:38.02	28.47	0.75	-60.4	-77.6	3.6	1.51e+00	0	45	104	0	60	298061
2026-01-29 00:28:39.03	28.45	0.81	-60.6	-77.4	3.6	1.51e+00	0	45	104	0	60	290230
2026-01-29 00:28:40.04	28.42	0.87	-60.8	-77.4	3.6	1.51e+00	0	45	104	0	60	290497
2026-01-29 00:28:41.05	28.39	0.93	-60.5	-77.1	3.6	1.51e+00	0	45	104	0	60	281207
2026-01-29 00:28:42.05	28.37	0.99	-58.9	-76.7	3.6	1.51e+00	0	45	104	0	60	269034
2026-01-29 00:28:43.05	28.34	1.05	-59.2	-76.6	3.6	1.51e+00	0	45	104	0	60	264749
2026-01-29 00:28:44.06	28.32	1.11	-59.1	-76.2	3.6	1.51e+00	0	45	104	0	60	252863
2026-01-29 00:28:45.06	28.29	1.17	-59.0	-76.3	3.6	1.51e+00	0	45	104	0	60	254604
2026-01-29 00:28:46.07	28.26	1.23	-59.1	-76.4	3.6	1.51e+00	0	45	104	0	60	259071
2026-01-29 00:28:47.07	28.24	1.30	-59.1	-76.3	3.6	1.51e+00	0	45	104	0	60	257134
2026-01-29 00:28:48.08	28.21	1.36	-59.1	-76.3	3.6	1.51e+00	0	45	104	0	60	256705
2026-01-29 00:28:49.09	28.18	1.42	-59.1	-76.3	3.6	1.51e+00	0	45	104	0	60	254776
2026-01-29 00:28:50.10	28.15	1.48	-59.1	-76.3	3.6	1.51e+00	0	45	104	0	60	254909
2026-01-29 00:28:51.11	28.13	1.54	-59.1	-76.2	3.6	1.51e+00	0	45	104	0	60	251684
2026-01-29 00:28:52.11	28.10	1.60	-59.1	-76.2	3.6	1.51e+00	0	45	104	0	60	253402
2026-01-29 00:28:53.12	28.07	1.67	-59.1	-76.1	3.6	1.51e+00	0	45	104	0	60	250040
2026-01-29 00:28:54.12	28.04	1.73	-59.1	-76.2	3.6	1.51e+00	0	45	104	0	60	251885
2026-01-29 00:28:55.13	28.02	1.79	-59.0	-76.2	3.6	1.51e+00	0	45	104	0	60	252935
2026-01-29 00:28:56.13	27.99	1.85	-59.1	-76.3	3.6	1.51e+00	0	45	104	0	60	254925
2026-01-29 00:28:57.14	27.96	1.92	-59.1	-76.2	3.6	1.51e+00	0	45	104	0	60	251765
2026-01-29 00:28:58.15	27.93	1.98	-59.1	-76.2	3.6	1.51e+00	0	45	104	0	60	251985
2026-01-29 00:28:59.16	27.90	2.04	-59.1	-76.3	3.6	1.51e+00	0	46	104	0	60	257325
2026-01-29 00:29:00.16	27.88	2.11	-59.1	-76.3	3.6	1.51e+00	0	45	104	0	60	255432
2026-01-29 00:29:01.17	27.85	2.17	-59.1	-76.3	3.6	1.51e+00	0	45	104	0	60	256629
2026-01-29 00:29:02.18	27.82	2.23	-59.1	-76.2	3.6	1.51e+00	0	46	104	0	60	254137
2026-01-29 00:29:03.18	27.79	2.29	-59.1	-76.1	3.6	1.51e+00	0	46	104	0	60	251105
2026-01-29 00:29:04.19	27.76	2.36	-59.1	-76.2	3.6	1.51e+00	0	46	104	0	60	254352
2026-01-29 00:29:05.19	27.73	2.42	-59.1	-76.3	3.6	1.51e+00	0	46	104	0	60	254922
2026-01-29 00:29:06.20	27.70	2.49	-59.2	-76.3	3.6	1.51e+00	0	46	104	0	60	254917
2026-01-29 00:29:07.21	27.67	2.55	-59.1	-76.2	3.6	1.51e+00	0	46	104	0	60	252028
2026-01-29 00:29:08.22	27.64	2.61	-59.1	-76.3	3.6	1.51e+00	0	46	104	0	60	254484
2026-01-29 00:29:09.23	27.61	2.68	-59.2	-76.3	3.6	1.51e+00	0	46	104	0	60	254491
2026-01-29 00:29:10.23	27.58	2.74	-59.1	-76.3	3.6	1.51e+00	0	45	104	0	60	257273
2026-01-29 00:29:11.24	27.55	2.81	-59.1	-76.2	3.6	1.51e+00	0	46	104	0	60	253240
2026-01-29 00:29:12.25	27.52	2.87	-59.1	-76.2	3.6	1.51e+00	0	46	104	0	60	253704
2026-01-29 00:29:13.26	27.49	2.94	-59.1	-76.2	3.6	1.51e+00	0	46	104	0	60	254234
2026-01-29 00:29:14.26	27.46	3.00	-59.1	-76.1	3.6	1.51e+00	0	46	104	0	60	250940
2026-01-29 00:29:15.27	27.43	3.07	-59.1	-76.2	3.6	1.51e+00	0	46	104	0	60	254149
2026-01-29 00:29:16.28	27.40	3.13	-59.1	-76.3	3.6	1.51e+00	0	46	104	0	60	254736
2026-01-29 00:29:17.28	27.37	3.20	-59.1	-76.1	3.6	1.51e+00	0	46	104	0	60	249289
2026-01-29 00:29:18.28	27.34	3.26	-59.1	-76.3	3.6	1.51e+00	0	46	104	0	60	254852
2026-01-29 00:29:19.29	27.30	3.33	-59.1	-76.2	3.6	1.51e+00	0	46	104	0	60	252421
2026-01-29 00:29:20.30	27.27	3.39	-59.1	-76.3	3.6	1.51e+00	0	46	104	0	60	255085
2026-01-29 00:29:21.31	27.24	3.46	-59.1	-76.2	3.6	1.51e+00	0	46	104	0	60	252669
2026-01-29 00:29:22.31	27.21	3.53	-59.1	-76.1	3.6	1.51e+00	0	46	104	0	60	251368
2026-01-29 00:29:23.32	27.18	3.59	-59.1	-76.2	3.6	1.51e+00	0	46	104	0	60	253657
2026-01-29 00:29:24.33	27.14	3.66	-59.1	-76.1	3.6	1.51e+00	0	46	104	0	60	248775
2026-01-29 00:29:25.33	27.11	3.72	-59.2	-76.2	3.6	1.51e+00	0	46	104	0	60	254015
2026-01-29 00:29:26.34	27.08	3.79	-59.2	-76.2	3.6	1.51e+00	0	46	104	0	60	254194
2026-01-29 00:29:27.34	27.05	3.86	-59.2	-76.2	3.6	1.51e+00	0	46	104	0	60	253171
2026-01-29 00:29:28.35	27.01	3.93	-59.2	-76.1	3.6	1.51e+00	0	46	104	0	60	249294
2026-01-29 00:29:29.35	26.98	3.99	-59.3	-76.2	3.6	1.51e+00	0	46	104	0	60	252516
2026-01-29 00:29:30.36	26.95	4.06	-59.2	-76.3	3.6	1.51e+00	0	46	104	0	60	255996
2026-01-29 00:29:31.36	26.92	4.13	-59.2	-76.2	3.6	1.51e+00	0	46	104	0	60	253665
2026-01-29 00:29:32.37	26.88	4.19	-59.2	-76.4	3.6	1.51e+00	0	46	104	0	60	257574
2026-01-29 00:29:33.37	26.85	4.26	-59.2	-76.2	3.6	1.51e+00	0	46	104	0	60	252494
2026-01-29 00:29:34.38	26.81	4.33	-59.3	-76.2	3.6	1.51e+00	0	46	104	0	60	253085
2026-01-29 00:29:35.39	26.78	4.40	-59.3	-76.3	3.6	1.51e+00	0	46	104	0	60	255177
2026-01-29 00:29:36.40	26.75	4.47	-59.3	-76.3	3.6	1.51e+00	0	46	104	0	60	255392
2026-01-29 00:29:37.41	26.71	4.54	-59.3	-76.3	3.6	1.51e+00	0	46	104	0	60	255740
2026-01-29 00:29:38.41	26.68	4.60	-59.3	-76.2	3.6	1.51e+00	0	46	104	0	60	253803
2026-01-29 00:29:39.42	26.64	4.67	-59.3	-76.2	3.6	1.51e+00	0	46	104	0	60	253540
2026-01-29 00:29:40.43	26.61	4.74	-59.3	-76.2	3.6	1.51e+00	0	46	104	0	60	253914
2026-01-29 00:29:41.43	26.57	4.81	-59.3	-76.3	3.6	1.51e+00	0	46	104	0	60	255261
2026-01-29 00:29:42.44	26.54	4.88	-59.3	-76.4	3.6	1.51e+00	0	46	104	0	60	258177
2026-01-29 00:29:43.45	26.50	4.95	-59.3	-76.3	3.6	1.51e+00	0	46	104	0	60	256623
2026-01-29 00:29:44.46	26.46	5.02	-59.3	-76.2	3.6	1.51e+00	0	46	104	0	60	254101
2026-01-29 00:29:45.46	26.43	5.09	-59.3	-76.3	3.6	1.51e+00	0	46	104	0	60	256972
2026-01-29 00:29:46.47	26.39	5.16	-59.3	-76.3	3.6	1.51e+00	0	46	104	0	60	255048
2026-01-29 00:29:47.48	26.36	5.23	-59.3	-76.3	3.6	1.51e+00	0	46	104	0	60	255566
2026-01-29 00:29:48.49	26.32	5.30	-59.3	-76.3	3.6	1.51e+00	0	46	104	0	60	256026
2026-01-29 00:29:49.49	26.28	5.37	-59.3	-76.1	3.6	1.51e+00	0	46	104	0	60	251249
2026-01-29 00:29:50.49	26.25	5.44	-59.3	-76.2	3.6	1.51e+00	0	46	104	0	60	253161
2026-01-29 00:29:51.50	26.21	5.51	-59.3	-76.1	3.6	1.51e+00	0	46	104	0	60	250567
2026-01-29 00:29:52.50	26.17	5.58	-59.3	-76.1	3.6	1.51e+00	0	46	104	0	60	249709
2026-01-29 00:29:53.50	26.13	5.65	-59.3	-76.1	3.6	1.51e+00	0	46	104	0	60	249545
2026-01-29 00:29:54.51	26.10	5.72	-59.3	-76.2	3.6	1.51e+00	0	46	104	0	60	252558
2026-01-29 00:29:55.52	26.06	5.79	-59.3	-75.9	3.6	1.51e+00	0	46	104	0	60	245346
2026-01-29 00:29:56.53	26.02	5.87	-59.3	-76.0	3.6	1.51e+00	0	46	104	0	60	247730
2026-01-29 00:29:57.54	25.98	5.94	-59.3	-76.0	3.6	1.51e+00	0	46	104	0	60	246844
2026-01-29 00:29:58.54	25.94	6.01	-59.3	-76.0	3.6	1.51e+00	0	46	104	0	60	246870
2026-01-29 00:29:59.55	25.90	6.08	-59.5	-76.2	3.6	1.51e+00	0	46	104	0	60	253608
2026-01-29 00:30:00.56	25.87	6.16	-58.6	-76.1	3.6	1.51e+00	0	46	104	0	60	249358
2026-01-29 00:30:01.56	25.83	6.23	-59.3	-75.9	3.6	1.51e+00	0	46	104	0	60	245562
2026-01-29 00:30:02.57	25.79	6.30	-59.0	-75.9	3.6	1.51e+00	0	46	104	0	60	244990
2026-01-29 00:30:03.58	25.75	6.37	-59.4	-75.7	3.6	1.51e+00	0	46	104	0	60	240147
2026-01-29 00:30:04.59	25.71	6.45	-59.9	-76.1	3.6	1.51e+00	0	46	104	0	60	250572
2026-01-29 00:30:05.60	25.67	6.52	-59.5	-75.8	3.6	1.51e+00	0	46	104	0	60	240271
2026-01-29 00:30:06.60	25.63	6.59	-59.1	-75.6	3.6	1.51e+00	0	46	104	0	60	235576
2026-01-29 00:30:07.61	25.59	6.67	-59.9	-76.3	3.6	1.51e+00	0	46	104	0	60	256721
2026-01-29 00:30:08.62	25.55	6.74	-59.7	-75.7	3.6	1.51e+00	0	46	104	0	60	239328
2026-01-29 00:30:09.63	25.50	6.82	-59.8	-75.8	3.6	1.51e+00	0	46	104	0	60	240371
2026-01-29 00:30:10.63	25.46	6.89	-59.7	-76.3	3.6	1.51e+00	0	46	104	0	60	256791
2026-01-29 00:30:11.64	25.42	6.97	-58.8	-76.0	3.6	1.51e+00	0	46	104	0	60	247980
2026-01-29 00:30:12.65	25.38	7.04	-59.5	-75.6	3.6	1.51e+00	0	46	104	0	60	236338
2026-01-29 00:30:13.66	25.34	7.12	-58.5	-75.3	3.6	1.51e+00	0	46	104	0	60	227502
2026-01-29 00:30:14.67	25.30	7.19	-58.0	-75.2	3.6	1.51e+00	0	46	104	0	60	224286
2026-01-29 00:30:15.68	25.25	7.27	-59.5	-74.4	3.6	1.51e+00	0	46	104	0	60	205223
2026-01-29 00:30:16.69	25.21	7.34	-58.4	-75.7	3.6	1.51e+00	0	46	104	0	60	239176
2026-01-29 00:30:17.69	25.17	7.42	-57.5	-74.9	3.6	1.51e+00	0	46	104	0	60	218817
2026-01-29 00:30:18.70	25.12	7.49	-59.1	-76.2	3.6	1.51e+00	0	46	104	0	60	252129
2026-01-29 00:30:19.71	25.08	7.57	-58.0	-75.5	3.6	1.51e+00	0	46	104	0	60	233725
2026-01-29 00:30:20.72	25.04	7.65	-58.4	-75.8	3.6	1.51e+00	0	46	104	0	60	240348
2026-01-29 00:30:21.72	24.99	7.72	-57.3	-75.1	3.6	1.51e+00	0	46	104	0	60	221734
2026-01-29 00:30:22.73	24.95	7.80	-57.2	-75.0	3.6	1.51e+00	0	46	104	0	60	220775
2026-01-29 00:30:23.73	24.91	7.88	-60.0	-76.4	3.6	1.51e+00	0	46	104	0	60	258311
2026-01-29 00:30:24.74	24.86	7.95	-60.2	-76.5	3.6	1.51e+00	0	46	104	0	60	263342
2026-01-29 00:30:25.75	24.82	8.03	-60.1	-76.1	3.6	1.51e+00	0	46	104	0	60	249013
2026-01-29 00:30:26.76	24.77	8.11	-59.4	-76.3	3.6	1.51e+00	0	46	104	0	60	254676
2026-01-29 00:30:27.77	24.73	8.19	-57.2	-75.4	3.6	1.51e+00	0	46	104	0	60	231594
2026-01-29 00:30:28.77	24.68	8.27	-58.4	-75.6	3.6	1.51e+00	0	46	104	0	60	237135
2026-01-29 00:30:29.78	24.63	8.34	-57.8	-75.6	3.6	1.51e+00	0	46	104	0	60	236540
2026-01-29 00:30:30.79	24.59	8.42	-57.4	-75.2	3.6	1.51e+00	0	46	104	0	60	225574
2026-01-29 00:30:31.80	24.54	8.50	-59.5	-75.6	3.6	1.51e+00	0	46	104	0	60	235208
2026-01-29 00:30:32.81	24.49	8.58	-59.7	-76.3	3.6	1.51e+00	0	46	104	0	60	254831
2026-01-29 00:30:33.81	24.45	8.66	-59.8	-75.6	3.6	1.51e+00	0	46	104	0	60	237309
2026-01-29 00:30:34.82	24.40	8.74	-58.6	-76.4	3.5	1.51e+00	0	46	104	0	60	257558
2026-01-29 00:30:35.83	24.35	8.82	-58.9	-76.1	3.6	1.51e+00	0	46	104	0	60	250342
2026-01-29 00:30:36.83	24.30	8.90	-58.1	-75.6	3.6	1.51e+00	0	46	104	0	60	235715
2026-01-29 00:30:37.84	24.26	8.98	-58.7	-76.0	3.6	1.51e+00	0	46	104	0	60	247428
2026-01-29 00:30:38.85	24.21	9.06	-59.0	-76.1	3.6	1.51e+00	0	46	104	0	60	249876
2026-01-29 00:30:39.85	24.16	9.14	-58.7	-75.7	3.6	1.51e+00	0	46	104	0	60	238999
2026-01-29 00:30:40.86	24.11	9.22	-59.2	-76.4	3.6	1.51e+00	0	46	104	0	60	259059
2026-01-29 00:30:41.87	24.06	9.30	-59.9	-75.8	3.6	1.51e+00	0	46	104	0	60	242929
2026-01-29 00:30:42.88	24.01	9.38	-59.2	-76.1	3.6	1.51e+00	0	46	104	0	60	249958
2026-01-29 00:30:43.88	23.96	9.47	-59.4	-76.3	3.6	1.51e+00	0	46	104	0	60	255762
2026-01-29 00:30:44.88	23.91	9.55	-60.0	-75.8	3.6	1.51e+00	0	46	104	0	60	241650
2026-01-29 00:30:45.89	23.86	9.63	-59.6	-75.8	3.6	1.51e+00	0	46	104	0	60	242005
2026-01-29 00:30:46.90	23.81	9.71	-59.4	-75.7	3.6	1.51e+00	0	46	104	0	60	237751
2026-01-29 00:30:47.91	23.76	9.80	-59.3	-76.1	3.6	1.51e+00	0	46	104	0	60	249789
2026-01-29 00:30:48.91	23.71	9.88	-59.2	-76.0	3.6	1.51e+00	0	46	104	0	60	248069
2026-01-29 00:30:49.92	23.65	9.96	-59.1	-75.7	3.6	1.51e+00	0	46	104	0	60	238931
2026-01-29 00:30:50.93	23.60	10.04	-59.4	-76.3	3.6	1.51e+00	0	46	104	0	60	255554
2026-01-29 00:30:51.94	23.55	10.13	-58.9	-76.2	3.6	1.51e+00	0	46	104	0	60	254019
2026-01-29 00:30:52.94	23.50	10.21	-58.9	-76.1	3.6	1.51e+00	0	46	104	0	60	249759
2026-01-29 00:30:53.95	23.44	10.30	-59.3	-75.8	3.6	1.51e+00	0	46	104	0	60	242032
2026-01-29 00:30:54.95	23.39	10.38	-59.4	-75.8	3.6	1.51e+00	0	46	104	0	60	242286
2026-01-29 00:30:55.96	23.34	10.47	-59.6	-76.2	3.6	1.51e+00	0	46	104	0	60	253557
2026-01-29 00:30:56.96	23.28	10.55	-56.4	-76.1	3.6	1.51e+00	0	46	104	0	60	250307
2026-01-29 00:30:57.97	23.23	10.64	-59.1	-75.9	3.6	1.51e+00	0	46	104	0	60	243571
2026-01-29 00:30:58.97	23.17	10.72	-57.7	-76.5	3.6	1.51e+00	0	46	104	0	60	262643
2026-01-29 00:30:59.98	23.12	10.81	-58.4	-75.4	3.5	1.51e+00	0	46	104	0	60	231626
2026-01-29 00:31:00.99	23.06	10.89	-58.5	-75.4	3.6	1.51e+00	0	46	104	0	60	229596
2026-01-29 00:31:02.00	23.01	10.98	-59.4	-75.5	3.6	1.51e+00	0	46	104	0	60	232828
2026-01-29 00:31:03.00	22.95	11.07	-59.6	-75.5	3.6	1.51e+00	0	46	104	0	60	232160
2026-01-29 00:31:04.01	22.90	11.15	-58.5	-76.4	3.6	1.51e+00	0	46	104	0	60	257703
2026-01-29 00:31:05.02	22.84	11.24	-57.7	-76.2	3.6	1.51e+00	0	46	104	0	60	253175
2026-01-29 00:31:06.02	22.78	11.33	-59.4	-75.9	3.6	1.51e+00	0	46	104	0	60	245511
2026-01-29 00:31:07.03	22.72	11.41	-59.1	-76.5	3.6	1.51e+00	0	46	104	0	60	261718
2026-01-29 00:31:08.03	22.67	11.50	-58.2	-75.7	3.6	1.51e+00	0	46	104	0	60	239256
2026-01-29 00:31:09.04	22.61	11.59	-58.3	-75.7	3.6	1.51e+00	0	46	104	0	60	240122
2026-01-29 00:31:10.04	22.55	11.68	-57.1	-75.6	3.6	1.51e+00	0	46	104	0	60	236549
2026-01-29 00:31:11.05	22.49	11.77	-56.5	-75.5	3.6	1.51e+00	0	46	104	0	60	233822
2026-01-29 00:31:12.06	22.43	11.86	-53.4	-74.1	3.6	1.51e+00	0	46	104	0	60	197599
2026-01-29 00:31:13.06	22.37	11.95	-51.9	-73.7	3.6	1.51e+00	0	46	104	0	60	189795
2026-01-29 00:31:14.07	22.31	12.04	-57.4	-75.9	3.6	1.51e+00	0	46	104	0	60	244069
2026-01-29 00:31:15.07	22.25	12.13	-51.9	-72.7	3.6	1.51e+00	0	46	104	0	60	169656
2026-01-29 00:31:16.08	22.19	12.22	-56.1	-75.0	3.6	1.51e+00	0	46	104	0	60	219353
2026-01-29 00:31:17.09	22.13	12.31	-53.6	-72.7	3.6	1.51e+00	0	46	104	0	60	169661
2026-01-29 00:31:18.09	22.07	12.40	-55.1	-73.8	3.6	1.51e+00	0	46	104	0	60	191105
2026-01-29 00:31:19.10	22.00	12.49	-55.4	-74.4	3.6	1.51e+00	0	46	104	0	60	205499
2026-01-29 00:31:20.11	21.94	12.58	-57.7	-76.0	3.6	1.51e+00	0	46	104	0	60	248573
2026-01-29 00:31:21.12	21.88	12.67	-53.8	-75.8	3.6	1.51e+00	0	46	104	0	60	240491
2026-01-29 00:31:22.12	21.81	12.76	-54.4	-74.7	3.6	1.51e+00	0	46	104	0	60	213057
2026-01-29 00:31:23.13	21.75	12.86	-56.6	-75.7	3.6	1.51e+00	0	46	104	0	60	239611
2026-01-29 00:31:24.14	21.69	12.95	-55.7	-74.9	3.6	1.51e+00	0	46	104	0	60	217732
2026-01-29 00:31:25.15	21.62	13.04	-55.1	-74.7	3.6	1.51e+00	0	46	104	0	60	211922
2026-01-29 00:31:26.15	21.56	13.14	-55.1	-75.0	3.6	1.51e+00	0	46	104	0	60	220025
2026-01-29 00:31:27.16	21.49	13.23	-55.2	-74.9	3.6	1.51e+00	0	46	104	0	60	217517
2026-01-29 00:31:28.16	21.42	13.32	-58.3	-76.2	3.6	1.51e+00	0	46	104	0	60	252296
2026-01-29 00:31:29.17	21.36	13.42	-56.6	-76.1	3.6	1.51e+00	0	46	104	0	60	249730
2026-01-29 00:31:30.18	21.29	13.51	-56.2	-75.2	3.6	1.51e+00	0	46	104	0	60	226537
2026-01-29 00:31:31.18	21.22	13.61	-59.9	-76.6	3.6	1.51e+00	0	46	104	0	60	264394
2026-01-29 00:31:32.19	21.16	13.70	-54.4	-73.3	3.6	1.51e+00	0	46	104	0	60	181188
2026-01-29 00:31:33.20	21.09	13.80	-54.8	-73.8	3.6	1.51e+00	0	46	104	0	60	192327
2026-01-29 00:31:34.21	21.02	13.90	-54.9	-73.9	3.6	1.51e+00	0	46	104	0	60	194818
2026-01-29 00:31:35.22	20.95	13.99	-54.9	-74.2	3.6	1.51e+00	0	46	104	0	60	199830
2026-01-29 00:31:36.23	20.88	14.09	-54.7	-73.1	3.6	1.51e+00	0	46	104	0	60	178033
2026-01-29 00:31:37.23	20.81	14.19	-56.4	-75.7	3.6	1.51e+00	0	46	104	0	60	239716
2026-01-29 00:31:38.24	20.74	14.28	-54.1	-74.7	3.6	1.51e+00	0	46	104	0	60	212834
2026-01-29 00:31:39.25	20.67	14.38	-59.0	-75.9	3.6	1.51e+00	0	46	104	0	60	245271
2026-01-29 00:31:40.25	20.59	14.48	-57.7	-76.1	3.6	1.51e+00	0	46	104	0	60	250522
2026-01-29 00:31:41.26	20.52	14.58	-57.0	-75.3	3.6	1.51e+00	0	46	104	0	60	228868
2026-01-29 00:31:42.27	20.45	14.68	-57.8	-75.6	3.6	1.51e+00	0	46	104	0	60	235010
2026-01-29 00:31:43.28	20.38	14.78	-59.0	-75.8	3.6	1.51e+00	0	46	104	0	60	242451
2026-01-29 00:31:44.29	20.30	14.88	-59.1	-76.4	3.6	1.51e+00	0	46	104	0	60	258885
2026-01-29 00:31:45.29	20.23	14.98	-59.0	-76.8	3.6	1.51e+00	0	46	104	0	60	270484
2026-01-29 00:31:46.30	20.15	15.08	-58.0	-76.1	3.6	1.51e+00	0	46	104	0	60	250062
2026-01-29 00:31:47.31	20.08	15.18	-58.5	-75.9	3.6	1.51e+00	0	46	104	0	60	244065
2026-01-29 00:31:48.31	20.00	15.28	-59.6	-75.8	3.6	1.51e+00	0	46	104	0	60	241386
2026-01-29 00:31:49.32	19.93	15.38	-59.2	-75.5	3.6	1.51e+00	0	46	104	0	60	233212
2026-01-29 00:31:50.33	19.85	15.48	-59.0	-75.5	3.5	1.51e+00	0	46	104	0	60	234443
2026-01-29 00:31:51.33	19.77	15.58	-58.9	-75.5	3.6	1.51e+00	0	46	104	0	60	234718
2026-01-29 00:31:52.34	19.69	15.68	-58.4	-76.7	3.6	1.51e+00	0	46	104	0	60	267786
2026-01-29 00:31:53.35	19.61	15.79	-57.4	-76.4	3.6	1.51e+00	0	46	104	0	60	259637
2026-01-29 00:31:54.36	19.53	15.89	-59.6	-76.5	3.6	1.51e+00	0	46	104	0	60	262587
2026-01-29 00:31:55.37	19.45	16.00	-59.6	-76.7	3.6	1.51e+00	0	46	104	0	60	269251
2026-01-29 00:31:56.37	19.37	16.10	-59.6	-75.8	3.6	1.51e+00	0	46	104	0	60	242275
2026-01-29 00:31:57.38	19.29	16.20	-59.5	-75.8	3.6	1.51e+00	0	46	104	0	60	242968
2026-01-29 00:31:58.39	19.21	16.31	-58.9	-76.0	3.6	1.51e+00	0	46	104	0	60	246734
2026-01-29 00:31:59.40	19.13	16.41	-58.1	-75.9	3.6	1.51e+00	0	46	104	0	60	245769
2026-01-29 00:32:00.41	19.05	16.52	-58.4	-76.4	3.6	1.51e+00	0	46	104	0	60	260011
2026-01-29 00:32:01.41	18.96	16.62	-57.2	-76.5	3.6	1.51e+00	0	46	104	0	60	260569
2026-01-29 00:32:02.42	18.88	16.73	-56.8	-75.8	3.6	1.51e+00	0	46	104	0	60	242828
2026-01-29 00:32:03.43	18.79	16.84	-57.3	-75.8	3.5	1.51e+00	0	46	104	0	60	241832
2026-01-29 00:32:04.43	18.71	16.94	-59.5	-76.7	3.6	1.51e+00	0	46	104	0	60	267568
2026-01-29 00:32:05.43	18.62	17.05	-56.7	-75.3	3.6	1.51e+00	0	46	104	0	60	227840
2026-01-29 00:32:06.44	18.54	17.16	-57.1	-75.3	3.6	1.51e+00	0	46	104	0	60	227896
2026-01-29 00:32:07.45	18.45	17.27	-59.7	-76.3	3.6	1.51e+00	0	46	104	0	60	255890
2026-01-29 00:32:08.45	18.36	17.38	-56.5	-75.9	3.6	1.51e+00	0	46	104	0	60	244353
2026-01-29 00:32:09.46	18.27	17.49	-57.0	-75.6	3.6	1.51e+00	0	46	104	0	60	236768
2026-01-29 00:32:10.47	18.18	17.60	-57.6	-76.4	3.6	1.51e+00	0	46	104	0	60	259024
2026-01-29 00:32:11.48	18.09	17.71	-59.3	-76.2	3.6	1.51e+00	0	46	104	0	60	253725
2026-01-29 00:32:12.49	18.00	17.82	-57.3	-75.2	3.6	1.51e+00	0	46	104	0	60	225685
2026-01-29 00:32:13.50	17.91	17.93	-57.4	-75.4	3.6	1.51e+00	0	46	104	0	60	231336
2026-01-29 00:32:14.51	17.82	18.04	-58.0	-75.8	3.5	1.51e+00	0	46	104	0	60	241076
2026-01-29 00:32:15.51	17.73	18.15	-59.2	-76.7	3.6	1.51e+00	0	46	104	0	60	269175
2026-01-29 00:32:16.52	17.63	18.26	-58.6	-76.1	3.6	1.51e+00	0	46	104	0	60	249335
2026-01-29 00:32:17.53	17.54	18.38	-56.1	-75.6	3.6	1.51e+00	0	46	104	0	60	237021
2026-01-29 00:32:18.54	17.45	18.49	-58.3	-76.6	3.6	1.51e+00	0	46	104	0	60	265819
2026-01-29 00:32:19.55	17.35	18.60	-59.0	-76.2	3.6	1.51e+00	0	46	104	0	60	253461
2026-01-29 00:32:20.55	17.25	18.71	-57.6	-76.3	3.6	1.51e+00	0	46	104	0	60	257067
2026-01-29 00:32:21.56	17.16	18.83	-55.9	-74.8	3.6	1.51e+00	0	46	104	0	60	215780
2026-01-29 00:32:22.56	17.06	18.94	-56.1	-75.0	3.6	1.51e+00	0	46	104	0	60	219691
2026-01-29 00:32:23.56	16.96	19.06	-59.8	-76.3	3.6	1.51e+00	0	46	104	0	60	256666
2026-01-29 00:32:24.57	16.86	19.17	-59.9	-76.6	3.6	1.51e+00	0	46	104	0	60	265076
2026-01-29 00:32:25.58	16.76	19.29	-60.2	-76.9	3.6	1.51e+00	0	46	104	0	60	274849
2026-01-29 00:32:26.58	16.66	19.41	-57.3	-75.3	3.6	1.51e+00	0	46	104	0	60	227942
2026-01-29 00:32:27.59	16.56	19.52	-58.4	-76.2	3.6	1.51e+00	0	46	104	0	60	252739
2026-01-29 00:32:28.60	16.46	19.64	-58.2	-76.3	3.6	1.51e+00	0	46	104	0	60	254639
2026-01-29 00:32:29.61	16.35	19.76	-59.8	-76.7	3.6	1.51e+00	0	46	104	0	60	266441
2026-01-29 00:32:30.61	16.25	19.88	-60.1	-76.8	3.6	1.51e+00	0	46	104	0	60	272193
2026-01-29 00:32:31.62	16.14	20.00	-59.9	-76.8	3.6	1.51e+00	0	46	104	0	60	270431
2026-01-29 00:32:32.63	16.04	20.11	-60.4	-77.0	3.6	1.51e+00	0	46	104	0	60	275854
2026-01-29 00:32:33.63	15.93	20.23	-60.3	-77.0	3.6	1.51e+00	0	46	104	0	60	277226
2026-01-29 00:32:34.64	15.82	20.35	-60.4	-76.9	3.6	1.51e+00	0	46	104	0	60	273003
2026-01-29 00:32:35.64	15.72	20.47	-60.2	-76.3	3.6	1.51e+00	0	46	104	0	60	255836
2026-01-29 00:32:36.65	15.61	20.60	-60.3	-76.4	3.6	1.51e+00	0	46	104	0	60	257886
2026-01-29 00:32:37.66	15.50	20.72	-60.2	-76.3	3.5	1.51e+00	0	46	104	0	60	254473
2026-01-29 00:32:38.66	15.39	20.84	-60.2	-76.4	3.6	1.51e+00	0	46	104	0	60	258909
2026-01-29 00:32:39.66	15.28	20.96	-60.3	-76.7	3.6	1.51e+00	0	46	104	0	60	267672
2026-01-29 00:32:40.67	15.16	21.08	-60.5	-76.8	3.6	1.51e+00	0	46	104	0	60	270910
2026-01-29 00:32:41.67	15.05	21.21	-60.4	-76.9	3.6	1.51e+00	0	46	104	0	60	274470
2026-01-29 00:32:42.68	14.93	21.33	-60.4	-76.9	3.6	1.51e+00	0	46	104	0	60	273703
2026-01-29 00:32:43.69	14.82	21.45	-60.3	-76.8	3.6	1.51e+00	0	46	104	0	60	272597
2026-01-29 00:32:44.70	14.70	21.58	-60.4	-76.4	3.6	1.51e+00	0	46	104	0	60	258943
2026-01-29 00:32:45.71	14.58	21.71	-60.4	-76.6	3.6	1.51e+00	0	46	104	0	60	264921
2026-01-29 00:32:46.72	14.46	21.83	-60.5	-76.5	3.6	1.51e+00	0	46	104	0	60	262018
2026-01-29 00:32:47.73	14.34	21.96	-60.6	-76.9	3.6	1.51e+00	0	46	104	0	60	275484
2026-01-29 00:32:48.74	14.22	22.09	-60.0	-76.6	3.6	1.51e+00	0	46	104	0	60	265449
2026-01-29 00:32:49.74	14.10	22.21	-60.5	-76.9	3.6	1.51e+00	0	46	104	0	60	274536
2026-01-29 00:32:50.74	13.98	22.34	-59.7	-76.9	3.6	1.51e+00	0	47	104	0	60	273613
2026-01-29 00:32:51.75	13.86	22.47	-60.2	-76.9	3.6	1.51e+00	0	46	104	0	60	273325
2026-01-29 00:32:52.76	13.73	22.60	-59.8	-76.8	3.6	1.51e+00	0	46	104	0	60	270734
2026-01-29 00:32:53.76	13.61	22.73	-60.1	-76.8	3.6	1.51e+00	0	46	104	0	60	271137
2026-01-29 00:32:54.77	13.48	22.86	-60.2	-76.8	3.6	1.51e+00	0	46	104	0	60	271624
2026-01-29 00:32:55.78	13.35	22.99	-59.9	-76.8	3.6	1.51e+00	0	46	104	0	60	272413
2026-01-29 00:32:56.78	13.22	23.12	-60.2	-76.6	3.6	1.51e+00	0	46	104	0	60	263978
2026-01-29 00:32:57.79	13.09	23.25	-59.7	-76.7	3.6	1.51e+00	0	46	104	0	60	268230
2026-01-29 00:32:58.79	12.96	23.38	-59.8	-76.5	3.6	1.51e+00	0	46	104	0	60	263006
2026-01-29 00:32:59.80	12.83	23.51	-59.8	-76.5	3.6	1.51e+00	0	47	104	0	60	261676
2026-01-29 00:33:00.81	12.69	23.64	-59.5	-76.0	3.6	1.51e+00	0	47	104	0	60	248250
2026-01-29 00:33:01.82	12.56	23.78	-59.4	-76.0	3.6	1.51e+00	0	46	104	0	60	247030
2026-01-29 00:33:02.82	12.42	23.91	-59.5	-76.0	3.6	1.51e+00	0	46	104	0	60	247009
2026-01-29 00:33:03.83	12.28	24.05	-60.4	-76.8	3.6	1.51e+00	0	46	104	0	60	270024
2026-01-29 00:33:04.83	12.15	24.18	-60.4	-76.7	3.6	1.51e+00	0	46	104	0	60	269153
2026-01-29 00:33:05.84	12.01	24.32	-60.2	-76.7	3.6	1.51e+00	0	46	104	0	60	269173
2026-01-29 00:33:06.84	11.87	24.45	-60.1	-76.8	3.6	1.51e+00	0	46	104	0	60	270179
2026-01-29 00:33:07.85	11.72	24.59	-59.8	-76.5	3.6	1.51e+00	0	46	104	0	60	263156
2026-01-29 00:33:08.86	11.58	24.72	-60.5	-76.7	3.6	1.51e+00	0	46	104	0	60	267364
2026-01-29 00:33:09.87	11.44	24.86	-60.3	-76.7	3.6	1.51e+00	0	46	104	0	60	269303
2026-01-29 00:33:10.87	11.29	25.00	-59.9	-76.8	3.6	1.51e+00	0	46	104	0	60	272451
2026-01-29 00:33:11.88	11.14	25.14	-58.7	-76.2	3.6	1.51e+00	0	46	104	0	60	253047
2026-01-29 00:33:12.89	10.99	25.28	-58.5	-76.1	3.6	1.51e+00	0	46	104	0	60	250301
2026-01-29 00:33:13.89	10.84	25.42	-58.0	-76.0	3.6	1.51e+00	0	46	104	0	60	247858
2026-01-29 00:33:14.90	10.69	25.56	-58.1	-75.9	3.6	1.51e+00	0	46	104	0	60	243447
2026-01-29 00:33:15.91	10.54	25.70	-60.2	-76.5	3.6	1.51e+00	0	46	104	0	60	262521
2026-01-29 00:33:16.91	10.39	25.84	-59.2	-76.3	3.6	1.51e+00	0	46	104	0	60	256926
2026-01-29 00:33:17.92	10.23	25.98	-60.0	-76.4	3.6	1.51e+00	0	46	104	0	60	260297
2026-01-29 00:33:18.93	10.07	26.12	-59.9	-76.5	3.6	1.51e+00	0	46	104	0	60	262671
2026-01-29 00:33:19.93	9.92	26.26	-60.2	-76.8	3.6	1.51e+00	0	46	104	0	60	270460
2026-01-29 00:33:20.94	9.76	26.41	-59.9	-76.6	3.6	1.51e+00	0	46	104	0	60	264817
2026-01-29 00:33:21.95	9.59	26.55	-60.2	-76.6	3.6	1.51e+00	0	46	104	0	60	263567
2026-01-29 00:33:22.95	9.43	26.69	-58.0	-76.0	3.6	1.51e+00	0	46	104	0	60	247752
2026-01-29 00:33:23.96	9.27	26.84	-60.1	-76.6	3.6	1.51e+00	0	46	104	0	60	265033
2026-01-29 00:33:24.96	9.10	26.98	-57.9	-76.1	3.6	1.51e+00	0	46	104	0	60	250499
2026-01-29 00:33:25.96	8.94	27.13	-59.6	-76.5	3.6	1.51e+00	0	46	104	0	60	261929
2026-01-29 00:33:26.97	8.77	27.27	-60.2	-76.7	3.6	1.51e+00	0	46	104	0	60	267763
2026-01-29 00:33:27.97	8.60	27.42	-60.1	-76.7	3.6	1.51e+00	0	46	104	0	60	268400
2026-01-29 00:33:28.97	8.43	27.57	-59.2	-76.4	3.6	1.51e+00	0	46	104	0	60	259402
2026-01-29 00:33:29.98	8.25	27.71	-60.0	-76.6	3.6	1.51e+00	0	46	104	0	60	263857
2026-01-29 00:33:30.98	8.08	27.86	-59.9	-76.6	3.6	1.51e+00	0	46	104	0	60	264174
2026-01-29 00:33:31.99	7.90	28.01	-57.9	-76.1	3.6	1.51e+00	0	46	104	0	60	251050
2026-01-29 00:33:32.99	7.72	28.16	-57.9	-76.2	3.6	1.51e+00	0	46	104	0	60	253353
2026-01-29 00:33:34.00	7.54	28.31	-59.1	-76.6	3.6	1.51e+00	0	46	104	0	60	264984
2026-01-29 00:33:35.01	7.36	28.46	-60.0	-76.7	3.5	1.51e+00	0	46	104	0	60	267414
2026-01-29 00:33:36.01	7.18	28.61	-60.2	-76.7	3.6	1.51e+00	0	46	104	0	60	268026
2026-01-29 00:33:37.02	6.99	28.76	-60.6	-76.7	3.6	1.51e+00	0	46	104	0	60	268549
2026-01-29 00:33:38.03	6.80	28.91	-60.3	-76.9	3.6	1.51e+00	0	46	104	0	60	273973
2026-01-29 00:33:39.03	6.61	29.06	-60.3	-76.9	3.6	1.51e+00	0	46	104	0	60	273749
2026-01-29 00:33:40.03	6.42	29.21	-60.0	-76.5	3.6	1.51e+00	0	46	104	0	60	261594
2026-01-29 00:33:41.04	6.23	29.37	-60.5	-76.8	3.6	1.51e+00	0	46	104	0	60	270051
2026-01-29 00:33:42.05	6.03	29.52	-60.1	-76.7	3.6	1.51e+00	0	46	104	0	60	267973
2026-01-29 00:33:43.05	5.84	29.67	-60.6	-76.9	3.6	1.51e+00	0	47	104	0	60	274248
2026-01-29 00:33:44.05	5.64	29.83	-60.5	-76.7	3.6	1.51e+00	0	46	104	0	60	269349
2026-01-29 00:33:45.05	5.44	29.98	-59.9	-76.7	3.6	1.51e+00	0	46	104	0	60	268899
2026-01-29 00:33:46.05	5.24	30.13	-60.5	-76.8	3.6	1.51e+00	0	46	104	0	60	271965
2026-01-29 00:33:47.06	5.04	30.29	-60.1	-76.8	3.6	1.51e+00	0	46	104	0	60	272001
2026-01-29 00:33:48.07	4.83	30.45	-60.5	-76.8	3.6	1.51e+00	0	46	104	0	60	269588
2026-01-29 00:33:49.07	4.62	30.60	-60.6	-76.8	3.6	1.51e+00	0	46	104	0	60	269777
2026-01-29 00:33:50.07	4.41	30.76	-60.4	-77.0	3.6	1.51e+00	0	46	104	0	60	275880
2026-01-29 00:33:51.08	4.20	30.91	-60.4	-76.8	3.6	1.51e+00	0	46	104	0	60	272193
2026-01-29 00:33:52.08	3.98	31.07	-60.5	-76.8	3.6	1.51e+00	0	46	104	0	60	272370
2026-01-29 00:33:53.09	3.77	31.23	-60.5	-76.7	3.6	1.51e+00	0	46	104	0	60	269368
2026-01-29 00:33:54.09	3.55	31.39	-60.2	-76.9	3.5	1.51e+00	0	46	104	0	60	274688
2026-01-29 00:33:55.09	3.33	31.54	-60.7	-77.1	3.6	1.51e+00	0	46	104	0	60	279542
2026-01-29 00:33:56.10	3.11	31.70	-60.3	-76.8	3.6	1.51e+00	0	46	104	0	60	271462
2026-01-29 00:33:57.09	2.88	31.86	-60.4	-76.9	3.5	1.51e+00	0	46	104	0	60	272814
2026-01-29 00:33:58.10	2.65	32.02	-60.8	-77.0	3.6	1.51e+00	0	46	104	0	60	276836
2026-01-29 00:33:59.10	2.43	32.18	-60.1	-77.0	3.6	1.51e+00	0	46	104	0	60	277245
2026-01-29 00:34:00.10	2.19	32.34	-60.2	-76.8	3.6	1.51e+00	0	46	104	0	60	270769
2026-01-29 00:34:01.11	1.96	32.50	-60.6	-76.9	3.6	1.51e+00	0	46	104	0	60	275332
2026-01-29 00:34:02.11	1.72	32.66	-60.6	-77.0	3.6	1.51e+00	0	46	104	0	60	277405
2026-01-29 00:34:03.12	1.48	32.82	-60.6	-77.2	3.6	1.51e+00	0	46	104	0	60	282343
2026-01-29 00:34:04.12	1.24	32.98	-60.3	-76.8	3.6	1.51e+00	0	46	104	0	60	271786
2026-01-29 00:34:05.12	1.00	33.14	-60.3	-76.8	3.6	1.51e+00	0	47	104	0	60	272333
2026-01-29 00:34:06.12	0.75	33.30	-60.3	-77.0	3.6	1.51e+00	0	46	104	0	60	277514
2026-01-29 00:34:07.13	0.50	33.47	-60.6	-77.1	3.6	1.51e+00	0	46	104	0	60	279570
2026-01-29 00:34:08.14	0.25	33.63	-60.3	-76.9	3.6	1.51e+00	0	46	104	0	60	273975
2026-01-29 00:34:09.14	360.00	33.79	-60.7	-76.9	3.6	1.51e+00	0	46	104	0	60	274497
2026-01-29 00:34:10.15	359.74	33.95	-60.6	-77.1	3.6	1.51e+00	0	47	104	0	60	279311
2026-01-29 00:34:11.15	359.48	34.12	-60.7	-77.0	3.6	1.51e+00	0	47	104	0	60	278918
2026-01-29 00:34:12.16	359.22	34.28	-60.6	-77.0	3.6	1.51e+00	0	46	104	0	60	276853
2026-01-29 00:34:13.16	358.96	34.44	-60.7	-76.9	3.6	1.51e+00	0	46	104	0	60	274679
2026-01-29 00:34:14.16	358.69	34.61	-60.4	-77.0	3.6	1.51e+00	0	46	104	0	60	277973
2026-01-29 00:34:15.17	358.42	34.77	-60.7	-77.1	3.6	1.51e+00	0	46	104	0	60	279024
2026-01-29 00:34:16.17	358.15	34.93	-60.7	-77.0	3.6	1.51e+00	0	46	104	0	60	276224
2026-01-29 00:34:17.17	357.87	35.10	-60.8	-76.9	3.6	1.51e+00	0	46	104	0	60	272736
2026-01-29 00:34:18.18	357.59	35.26	-60.8	-77.0	3.6	1.51e+00	0	46	104	0	60	278690
2026-01-29 00:34:19.18	357.31	35.42	-60.7	-77.0	3.6	1.51e+00	0	46	104	0	60	278902
2026-01-29 00:34:20.17	357.03	35.58	-60.8	-76.9	3.6	1.51e+00	0	47	104	0	60	275517
2026-01-29 00:34:21.17	356.75	35.75	-60.8	-76.9	3.6	1.51e+00	0	47	104	0	60	273550
2026-01-29 00:34:22.18	356.46	35.91	-60.6	-77.1	3.6	1.51e+00	0	47	104	0	60	279164
2026-01-29 00:34:23.18	356.17	36.08	-60.8	-77.0	3.6	1.51e+00	0	47	104	0	60	277843
2026-01-29 00:34:24.19	355.87	36.24	-60.8	-77.0	3.6	1.51e+00	0	47	104	0	60	276992
2026-01-29 00:34:25.20	355.57	36.41	-60.7	-76.8	3.6	1.51e+00	0	47	104	0	60	271384
2026-01-29 00:34:26.20	355.27	36.57	-60.8	-77.0	3.6	1.51e+00	0	46	104	0	60	277241
2026-01-29 00:34:27.21	354.96	36.73	-60.7	-77.1	3.6	1.51e+00	0	46	104	0	60	279717
2026-01-29 00:34:28.22	354.65	36.90	-60.8	-77.0	3.6	1.51e+00	0	46	104	0	60	276401
2026-01-29 00:34:29.23	354.34	37.06	-60.7	-76.8	3.6	1.51e+00	0	46	104	0	60	271611
2026-01-29 00:34:30.24	354.02	37.23	-60.8	-77.1	3.6	1.51e+00	0	47	104	0	60	279989
2026-01-29 00:34:31.24	353.71	37.39	-60.7	-77.1	3.6	1.51e+00	0	47	104	0	60	281607
2026-01-29 00:34:32.25	353.38	37.55	-60.8	-77.1	3.5	1.51e+00	0	47	104	0	60	279962
2026-01-29 00:34:33.25	353.06	37.71	-60.7	-76.9	3.6	1.51e+00	0	47	104	0	60	272825
2026-01-29 00:34:34.26	352.73	37.88	-60.8	-77.1	3.6	1.51e+00	0	47	104	0	60	279588
2026-01-29 00:34:35.26	352.40	38.04	-60.8	-77.1	3.6	1.51e+00	0	46	104	0	60	280984
2026-01-29 00:34:36.27	352.07	38.20	-60.7	-77.1	3.6	1.51e+00	0	46	104	0	60	280676
2026-01-29 00:34:37.27	351.73	38.36	-60.8	-77.0	3.6	1.51e+00	0	46	104	0	60	275787
2026-01-29 00:34:38.28	351.39	38.52	-60.8	-77.1	3.6	1.51e+00	0	46	104	0	60	279903
2026-01-29 00:34:39.29	351.04	38.68	-60.7	-77.1	3.6	1.51e+00	0	46	104	0	60	282164
2026-01-29 00:34:40.30	350.69	38.84	-60.8	-77.2	3.6	1.51e+00	0	46	104	0	60	283281
2026-01-29 00:34:41.31	350.34	39.00	-60.7	-76.8	3.6	1.51e+00	0	46	104	0	60	271842
2026-01-29 00:34:42.31	349.99	39.16	-60.8	-77.1	3.6	1.51e+00	0	46	104	0	60	279006
2026-01-29 00:34:43.31	349.63	39.32	-60.6	-77.0	3.6	1.51e+00	0	46	104	0	60	278520
2026-01-29 00:34:44.32	349.27	39.48	-60.6	-77.0	3.6	1.51e+00	0	46	104	0	60	277592
2026-01-29 00:34:45.33	348.90	39.64	-60.7	-76.8	3.5	1.51e+00	0	46	104	0	60	270129
2026-01-29 00:34:46.34	348.53	39.80	-60.6	-77.0	3.6	1.51e+00	0	46	104	0	60	277119
2026-01-29 00:34:47.35	348.16	39.95	-60.7	-77.0	3.6	1.51e+00	0	46	104	0	60	278783
2026-01-29 00:34:48.35	347.78	40.11	-60.8	-77.1	3.6	1.51e+00	0	46	104	0	60	279274
2026-01-29 00:34:49.36	347.40	40.26	-60.8	-76.9	3.5	1.51e+00	0	47	104	0	60	275171
2026-01-29 00:34:50.37	347.01	40.42	-60.7	-77.0	3.6	1.51e+00	0	47	104	0	60	277230
2026-01-29 00:34:51.37	346.63	40.57	-60.8	-77.1	3.6	1.51e+00	0	46	104	0	60	279159
2026-01-29 00:34:52.38	346.24	40.72	-60.8	-77.0	3.6	1.51e+00	0	46	104	0	60	278677
2026-01-29 00:34:53.38	345.84	40.87	-60.8	-76.9	3.6	1.51e+00	0	46	104	0	60	274990
2026-01-29 00:34:54.39	345.44	41.02	-60.8	-77.0	3.6	1.51e+00	0	47	104	0	60	277707
2026-01-29 00:34:55.40	345.04	41.17	-60.8	-77.1	3.6	1.51e+00	0	46	104	0	60	280638
2026-01-29 00:34:56.40	344.64	41.32	-60.7	-77.1	3.6	1.51e+00	0	46	104	0	60	279515
2026-01-29 00:34:57.41	344.22	41.47	-60.7	-76.9	3.6	1.51e+00	0	46	104	0	60	275482
2026-01-29 00:34:58.41	343.81	41.62	-60.8	-77.1	3.6	1.51e+00	0	47	104	0	60	279053
2026-01-29 00:34:59.42	343.39	41.76	-60.8	-77.2	3.6	1.51e+00	0	46	104	0	60	282380
2026-01-29 00:35:00.43	342.97	41.91	-60.6	-77.0	3.6	1.51e+00	0	46	104	0	60	277062
2026-01-29 00:35:01.44	342.54	42.05	-60.8	-76.9	3.6	1.51e+00	0	46	104	0	60	273851
2026-01-29 00:35:02.44	342.12	42.19	-60.8	-77.1	3.6	1.51e+00	0	46	104	0	60	279164
2026-01-29 00:35:03.44	341.69	42.33	-60.9	-77.2	3.6	1.51e+00	0	46	104	0	60	283998
2026-01-29 00:35:04.45	341.25	42.47	-60.9	-77.0	3.6	1.51e+00	0	46	104	0	60	278829
2026-01-29 00:35:05.46	340.81	42.61	-60.9	-77.0	3.6	1.51e+00	0	46	104	0	60	278760
2026-01-29 00:35:06.47	340.36	42.74	-60.9	-77.2	3.6	1.51e+00	0	47	104	0	60	283149
2026-01-29 00:35:07.47	339.92	42.88	-60.8	-77.2	3.6	1.51e+00	0	47	104	0	60	283226
2026-01-29 00:35:08.48	339.46	43.01	-60.8	-77.1	3.6	1.51e+00	0	46	104	0	60	280200
2026-01-29 00:35:09.48	339.01	43.14	-60.8	-76.9	3.6	1.51e+00	0	46	104	0	60	273745
2026-01-29 00:35:10.49	338.55	43.27	-60.8	-77.0	3.6	1.51e+00	0	47	104	0	60	278894
2026-01-29 00:35:11.50	338.08	43.40	-60.8	-77.1	3.6	1.51e+00	0	47	104	0	60	280579
2026-01-29 00:35:12.51	337.62	43.53	-60.8	-77.0	3.6	1.51e+00	0	46	104	0	60	277097
2026-01-29 00:35:13.51	337.15	43.65	-60.7	-76.8	3.6	1.51e+00	0	46	104	0	60	271543
2026-01-29 00:35:14.52	336.67	43.78	-60.8	-77.0	3.6	1.51e+00	0	46	104	0	60	278924
2026-01-29 00:35:15.53	336.19	43.90	-60.7	-77.1	3.6	1.51e+00	0	46	104	0	60	281302
2026-01-29 00:35:16.54	335.71	44.02	-60.7	-77.0	3.6	1.51e+00	0	46	104	0	60	277702
2026-01-29 00:35:17.55	335.22	44.14	-60.8	-76.9	3.6	1.51e+00	0	46	104	0	60	274542
2026-01-29 00:35:18.55	334.74	44.25	-60.8	-77.0	3.6	1.51e+00	0	47	104	0	60	278854
2026-01-29 00:35:19.56	334.24	44.37	-60.9	-77.1	3.6	1.51e+00	0	46	104	0	60	279796
2026-01-29 00:35:20.57	333.75	44.48	-60.9	-77.0	3.6	1.51e+00	0	46	104	0	60	276172
2026-01-29 00:35:21.57	333.25	44.59	-60.9	-77.1	3.6	1.51e+00	0	47	104	0	60	279845
2026-01-29 00:35:22.57	332.75	44.69	-60.9	-77.1	3.6	1.51e+00	0	46	104	0	60	281122
2026-01-29 00:35:23.58	332.24	44.80	-60.9	-77.1	3.6	1.51e+00	0	46	104	0	60	282047
2026-01-29 00:35:24.59	331.73	44.90	-60.8	-77.0	3.6	1.51e+00	0	46	104	0	60	277492
2026-01-29 00:35:25.59	331.22	45.00	-60.8	-77.1	3.6	1.51e+00	0	47	104	0	60	280847
2026-01-29 00:35:26.60	330.70	45.10	-60.8	-77.1	3.6	1.51e+00	0	46	104	0	60	281409
2026-01-29 00:35:27.61	330.18	45.20	-60.8	-77.1	3.6	1.51e+00	0	46	104	0	60	280297
2026-01-29 00:35:28.62	329.66	45.29	-60.8	-77.0	3.6	1.51e+00	0	47	104	0	60	278415
2026-01-29 00:35:29.63	329.13	45.38	-60.8	-77.1	3.6	1.51e+00	0	46	104	0	60	282149
2026-01-29 00:35:30.63	328.60	45.47	-60.8	-77.2	3.6	1.51e+00	0	46	104	0	60	284467
2026-01-29 00:35:31.64	328.07	45.56	-60.9	-77.2	3.6	1.51e+00	0	46	104	0	60	282411
2026-01-29 00:35:32.65	327.54	45.64	-60.8	-77.0	3.6	1.51e+00	0	46	104	0	60	277520
2026-01-29 00:35:33.66	327.00	45.72	-60.9	-77.2	3.6	1.51e+00	0	46	104	0	60	283458
2026-01-29 00:35:34.66	326.46	45.80	-60.9	-77.2	3.6	1.51e+00	0	46	104	0	60	284560
2026-01-29 00:35:35.67	325.92	45.87	-60.9	-77.2	3.6	1.51e+00	0	46	104	0	60	283233
2026-01-29 00:35:36.68	325.37	45.95	-60.9	-77.1	3.6	1.51e+00	0	46	104	0	60	278988
2026-01-29 00:35:37.68	324.82	46.02	-60.9	-77.2	3.6	1.51e+00	0	46	104	0	60	283294
2026-01-29 00:35:38.69	324.27	46.08	-61.0	-77.2	3.6	1.51e+00	0	47	104	0	60	284460
2026-01-29 00:35:39.70	323.72	46.15	-60.9	-77.2	3.6	1.51e+00	0	47	104	0	60	283185
2026-01-29 00:35:40.70	323.17	46.21	-61.0	-77.2	3.6	1.51e+00	0	46	104	0	60	283580
2026-01-29 00:35:41.71	322.61	46.27	-61.0	-77.3	3.6	1.51e+00	0	46	104	0	60	285959
2026-01-29 00:35:42.71	322.05	46.32	-61.0	-77.3	3.6	1.51e+00	0	46	104	0	60	288084
2026-01-29 00:35:43.72	321.49	46.38	-61.0	-77.3	3.6	1.51e+00	0	46	104	0	60	287214
2026-01-29 00:35:44.73	320.93	46.43	-60.8	-77.1	3.6	1.51e+00	0	46	104	0	60	281026
2026-01-29 00:35:45.74	320.36	46.47	-60.9	-77.3	3.6	1.51e+00	0	46	104	0	60	286100
2026-01-29 00:35:46.75	319.79	46.52	-60.8	-77.3	3.6	1.51e+00	0	46	104	0	60	286553
2026-01-29 00:35:47.76	319.22	46.56	-60.7	-77.3	3.6	1.51e+00	0	46	104	0	60	286283
2026-01-29 00:35:48.77	318.65	46.60	-60.7	-77.1	3.6	1.51e+00	0	46	104	0	60	279184
2026-01-29 00:35:49.77	318.08	46.63	-60.7	-77.2	3.6	1.51e+00	0	46	104	0	60	282614
2026-01-29 00:35:50.78	317.51	46.66	-60.8	-77.2	3.6	1.51e+00	0	46	104	0	60	282739
2026-01-29 00:35:51.79	316.94	46.69	-60.7	-77.2	3.6	1.51e+00	0	46	104	0	60	285355
2026-01-29 00:35:52.80	316.36	46.72	-60.8	-77.1	3.6	1.51e+00	0	46	104	0	60	279345
2026-01-29 00:35:53.80	315.79	46.74	-60.8	-77.2	3.6	1.51e+00	0	46	104	0	60	283057
2026-01-29 00:35:54.81	315.21	46.76	-60.9	-77.3	3.6	1.51e+00	0	46	104	0	60	286781
2026-01-29 00:35:55.82	314.63	46.77	-60.8	-77.2	3.6	1.51e+00	0	46	104	0	60	285387
2026-01-29 00:35:56.82	314.06	46.78	-60.8	-77.1	3.6	1.51e+00	0	46	104	0	60	281804
2026-01-29 00:35:57.83	313.48	46.79	-60.9	-77.2	3.6	1.51e+00	0	46	104	0	60	283934
2026-01-29 00:35:58.83	312.91	46.80	-60.6	-77.2	3.6	1.51e+00	0	46	104	0	60	282988
2026-01-29 00:35:59.84	312.33	46.80	-60.8	-77.3	3.6	1.51e+00	0	46	104	0	60	285539
2026-01-29 00:36:00.84	311.76	46.80	-60.4	-76.9	3.6	1.51e+00	0	46	104	0	60	273441
2026-01-29 00:36:01.85	311.18	46.80	-60.5	-77.0	3.6	1.51e+00	0	46	104	0	60	278727
2026-01-29 00:36:02.86	310.60	46.79	-60.5	-77.1	3.6	1.51e+00	0	46	104	0	60	280686
2026-01-29 00:36:03.87	310.02	46.78	-60.3	-77.0	3.6	1.51e+00	0	47	104	0	60	278353
2026-01-29 00:36:04.87	309.45	46.77	-60.5	-76.8	3.6	1.51e+00	0	47	104	0	60	272434
2026-01-29 00:36:05.88	308.87	46.75	-60.4	-76.9	3.6	1.51e+00	0	46	104	0	60	273576
2026-01-29 00:36:06.89	308.29	46.73	-60.3	-77.1	3.6	1.51e+00	0	47	104	0	60	279003
2026-01-29 00:36:07.90	307.71	46.71	-60.3	-76.9	3.6	1.51e+00	0	46	104	0	60	275399
2026-01-29 00:36:08.91	307.14	46.68	-60.2	-76.9	3.6	1.51e+00	0	46	104	0	60	274634
2026-01-29 00:36:09.91	306.57	46.66	-60.3	-77.0	3.6	1.51e+00	0	46	104	0	60	276111
2026-01-29 00:36:10.92	306.00	46.62	-60.1	-77.0	3.6	1.51e+00	0	46	104	0	60	276460
2026-01-29 00:36:11.92	305.43	46.59	-60.2	-77.0	3.6	1.51e+00	0	46	104	0	60	276493
2026-01-29 00:36:12.93	304.86	46.55	-60.5	-76.9	3.6	1.51e+00	0	46	104	0	60	274398
2026-01-29 00:36:13.93	304.30	46.51	-60.1	-76.9	3.5	1.51e+00	0	47	104	0	60	273172
2026-01-29 00:36:14.94	303.73	46.46	-60.5	-76.9	3.6	1.51e+00	0	46	104	0	60	275093
2026-01-29 00:36:15.95	303.16	46.42	-60.5	-77.0	3.6	1.51e+00	0	46	104	0	60	276544
2026-01-29 00:36:16.95	302.60	46.37	-60.3	-76.8	3.6	1.51e+00	0	46	104	0	60	271644
2026-01-29 00:36:17.96	302.04	46.31	-60.5	-76.9	3.6	1.51e+00	0	46	104	0	60	274847
2026-01-29 00:36:18.97	301.48	46.26	-60.3	-76.9	3.6	1.51e+00	0	46	104	0	60	273482
2026-01-29 00:36:19.97	300.93	46.20	-60.4	-76.9	3.6	1.51e+00	0	46	104	0	60	275125
2026-01-29 00:36:20.98	300.37	46.14	-60.1	-76.8	3.6	1.51e+00	0	46	104	0	60	270847
2026-01-29 00:36:21.99	299.81	46.07	-60.4	-77.0	3.6	1.51e+00	0	46	104	0	60	275819
2026-01-29 00:36:22.99	299.27	46.00	-60.1	-76.9	3.6	1.51e+00	0	46	104	0	60	275050
2026-01-29 00:36:24.00	298.72	45.93	-60.2	-76.9	3.6	1.51e+00	0	46	104	0	60	272780
2026-01-29 00:36:25.00	298.18	45.86	-60.2	-76.9	3.6	1.51e+00	0	46	104	0	60	273235
2026-01-29 00:36:26.01	297.63	45.78	-60.2	-77.0	3.6	1.51e+00	0	46	104	0	60	277481
2026-01-29 00:36:27.01	297.10	45.71	-60.1	-77.0	3.6	1.51e+00	0	46	104	0	60	277752
2026-01-29 00:36:28.02	296.56	45.62	-60.3	-77.0	3.6	1.51e+00	0	46	104	0	60	275951
2026-01-29 00:36:29.03	296.02	45.54	-60.0	-76.9	3.6	1.51e+00	0	47	104	0	60	275336
2026-01-29 00:36:30.03	295.49	45.45	-60.3	-77.1	3.6	1.51e+00	0	46	104	0	60	280131
2026-01-29 00:36:31.04	294.96	45.36	-59.8	-77.0	3.6	1.51e+00	0	46	104	0	60	276702
2026-01-29 00:36:32.04	294.44	45.27	-60.1	-77.0	3.5	1.51e+00	0	46	104	0	60	276401
2026-01-29 00:36:33.05	293.92	45.18	-59.9	-76.9	3.6	1.51e+00	0	46	104	0	60	274165
2026-01-29 00:36:34.05	293.40	45.08	-60.1	-77.1	3.6	1.51e+00	0	46	104	0	60	279351
2026-01-29 00:36:35.06	292.88	44.98	-59.9	-77.0	3.6	1.51e+00	0	46	104	0	60	278601
2026-01-29 00:36:36.07	292.37	44.88	-60.0	-76.8	3.6	1.51e+00	0	46	104	0	60	272475
2026-01-29 00:36:37.07	291.86	44.78	-60.3	-76.8	3.6	1.51e+00	0	47	104	0	60	272255
2026-01-29 00:36:38.08	291.35	44.67	-59.8	-76.8	3.6	1.51e+00	0	47	104	0	60	271058
2026-01-29 00:36:39.09	290.85	44.57	-60.3	-77.0	3.6	1.51e+00	0	46	104	0	60	275866
2026-01-29 00:36:40.09	290.35	44.46	-60.1	-76.6	3.6	1.51e+00	0	46	104	0	60	265034
2026-01-29 00:36:41.10	289.85	44.34	-60.4	-76.7	3.6	1.51e+00	0	46	104	0	60	268998
2026-01-29 00:36:42.11	289.36	44.23	-60.0	-76.8	3.6	1.51e+00	0	46	104	0	60	271872
2026-01-29 00:36:43.11	288.87	44.11	-60.4	-76.9	3.6	1.51e+00	0	46	104	0	60	274415
2026-01-29 00:36:44.12	288.39	44.00	-60.3	-76.5	3.6	1.51e+00	0	46	104	0	60	261146
2026-01-29 00:36:45.12	287.91	43.88	-60.4	-76.7	3.6	1.51e+00	0	46	104	0	60	268209
2026-01-29 00:36:46.13	287.43	43.75	-60.4	-76.9	3.6	1.51e+00	0	46	104	0	60	273875
2026-01-29 00:36:47.14	286.95	43.63	-60.4	-76.9	3.6	1.51e+00	0	46	104	0	60	274623
2026-01-29 00:36:48.15	286.48	43.50	-60.4	-76.4	3.6	1.51e+00	0	47	104	0	60	260161
2026-01-29 00:36:49.15	286.02	43.38	-60.2	-76.6	3.6	1.51e+00	0	46	104	0	60	265693
2026-01-29 00:36:50.16	285.55	43.25	-60.4	-76.8	3.6	1.51e+00	0	47	104	0	60	270393
2026-01-29 00:36:51.16	285.10	43.12	-60.2	-76.8	3.6	1.51e+00	0	46	104	0	60	271078
2026-01-29 00:36:52.17	284.64	42.99	-60.2	-76.2	3.6	1.51e+00	0	46	104	0	60	253038
2026-01-29 00:36:53.18	284.18	42.85	-60.1	-76.2	3.6	1.51e+00	0	46	104	0	60	252213
2026-01-29 00:36:54.19	283.74	42.72	-60.0	-76.0	3.6	1.51e+00	0	46	104	0	60	246831
2026-01-29 00:36:55.19	283.29	42.58	-60.0	-75.8	3.6	1.51e+00	0	46	104	0	60	242637
2026-01-29 00:36:56.20	282.85	42.44	-59.9	-74.1	3.8	1.50e+00	0	46	104	0	60	199099
2026-01-29 00:36:57.21	282.41	42.30	-60.0	-76.5	3.6	1.51e+00	0	46	104	0	60	262310
2026-01-29 00:36:58.22	281.98	42.16	-59.8	-76.0	3.6	1.51e+00	0	46	104	0	60	247770
2026-01-29 00:36:59.22	281.55	42.02	-59.8	-76.6	3.6	1.51e+00	0	47	104	0	60	264680
2026-01-29 00:37:00.23	281.13	41.88	-59.9	-76.2	3.6	1.51e+00	0	46	104	0	60	251542
2026-01-29 00:37:01.24	280.70	41.73	-59.8	-75.7	3.6	1.51e+00	0	46	104	0	60	239065
2026-01-29 00:37:02.24	280.29	41.58	-59.7	-75.8	3.6	1.51e+00	0	46	104	0	60	240843
2026-01-29 00:37:03.25	279.87	41.44	-59.7	-75.8	3.6	1.51e+00	0	47	104	0	60	240752
2026-01-29 00:37:04.25	279.46	41.29	-59.7	-76.4	3.6	1.51e+00	0	47	104	0	60	259192
2026-01-29 00:37:05.25	279.06	41.14	-59.7	-76.3	3.6	1.51e+00	0	46	104	0	60	257035
2026-01-29 00:37:06.26	278.66	40.99	-59.7	-76.3	3.6	1.51e+00	0	47	104	0	60	256811
2026-01-29 00:37:07.27	278.26	40.84	-59.7	-76.6	3.6	1.51e+00	0	47	104	0	60	264075
2026-01-29 00:37:08.28	277.86	40.69	-59.8	-75.6	3.6	1.51e+00	0	47	104	0	60	237226
2026-01-29 00:37:09.29	277.47	40.53	-59.8	-75.8	3.6	1.51e+00	0	47	104	0	60	240408
2026-01-29 00:37:10.29	277.08	40.38	-59.9	-75.7	3.5	1.51e+00	0	47	104	0	60	237646
2026-01-29 00:37:11.30	276.70	40.23	-59.8	-75.3	3.6	1.51e+00	0	46	104	0	60	227359
2026-01-29 00:37:12.31	276.31	40.07	-60.0	-76.6	3.6	1.51e+00	0	47	104	0	60	264187
2026-01-29 00:37:13.32	275.94	39.91	-60.0	-76.6	3.6	1.51e+00	0	46	104	0	60	265578
2026-01-29 00:37:14.33	275.56	39.76	-59.9	-76.4	3.6	1.51e+00	0	46	104	0	60	257969
2026-01-29 00:37:15.33	275.19	39.60	-60.0	-76.7	3.5	1.51e+00	0	46	104	0	60	268349
2026-01-29 00:37:16.34	274.83	39.44	-60.0	-75.7	3.6	1.51e+00	0	46	104	0	60	237706
2026-01-29 00:37:17.35	274.46	39.28	-60.0	-75.5	3.6	1.51e+00	0	46	104	0	60	232717
2026-01-29 00:37:18.35	274.11	39.12	-60.0	-75.5	3.6	1.51e+00	0	46	104	0	60	233216
2026-01-29 00:37:19.35	273.75	38.96	-60.0	-75.5	3.6	1.51e+00	0	46	104	0	60	233832
2026-01-29 00:37:20.36	273.40	38.80	-60.0	-73.4	3.6	1.49e+00	0	47	0	0	60	184312
2026-01-29 00:37:21.37	273.05	38.64	-60.1	-75.8	3.5	1.51e+00	0	47	104	0	60	241792
2026-01-29 00:37:22.37	272.71	38.48	-60.1	-76.0	3.6	1.51e+00	0	46	104	0	60	247613
2026-01-29 00:37:23.37	272.37	38.32	-60.2	-76.5	3.6	1.51e+00	0	46	104	0	60	261824
2026-01-29 00:37:24.38	272.03	38.16	-60.1	-75.7	3.6	1.51e+00	0	46	104	0	60	238951
2026-01-29 00:37:25.39	271.70	38.00	-60.1	-75.6	3.6	1.51e+00	0	46	104	0	60	235831
2026-01-29 00:37:26.39	271.37	37.83	-60.1	-75.3	3.6	1.51e+00	0	46	104	0	60	228587
2026-01-29 00:37:27.40	271.04	37.67	-60.1	-75.2	3.6	1.51e+00	0	46	104	0	60	225811
2026-01-29 00:37:28.40	270.71	37.51	-60.1	-76.2	3.6	1.51e+00	0	46	104	0	60	252165
2026-01-29 00:37:29.41	270.39	37.34	-60.1	-76.3	3.6	1.51e+00	0	46	104	0	60	255561
2026-01-29 00:37:30.42	270.07	37.18	-60.1	-76.3	3.6	1.51e+00	0	46	104	0	60	256635
2026-01-29 00:37:31.43	269.76	37.02	-60.1	-76.5	3.6	1.51e+00	0	46	104	0	60	262485
2026-01-29 00:37:32.44	269.44	36.85	-60.0	-75.2	3.6	1.51e+00	0	46	104	0	60	225481
2026-01-29 00:37:33.44	269.14	36.69	-60.0	-75.3	3.6	1.51e+00	0	46	104	0	60	227298
2026-01-29 00:37:34.45	268.83	36.52	-60.0	-75.4	3.6	1.51e+00	0	46	104	0	60	230626
2026-01-29 00:37:35.45	268.53	36.36	-60.0	-75.4	3.6	1.51e+00	0	46	104	0	60	230557
2026-01-29 00:37:36.46	268.23	36.19	-60.0	-74.1	3.6	1.26e+00	0	46	104	0	60	198348
2026-01-29 00:37:37.47	267.93	36.03	-60.0	-75.8	3.6	1.51e+00	0	46	104	0	60	242078
2026-01-29 00:37:38.47	267.64	35.87	-60.1	-76.4	3.6	1.51e+00	0	46	104	0	60	257875
2026-01-29 00:37:39.48	267.35	35.70	-60.1	-76.4	3.6	1.51e+00	0	46	104	0	60	258381
2026-01-29 00:37:40.48	267.06	35.54	-60.0	-75.5	3.6	1.51e+00	0	46	104	0	60	232858
2026-01-29 00:37:41.49	266.78	35.37	-60.0	-75.5	3.6	1.51e+00	0	46	104	0	60	232189
2026-01-29 00:37:42.50	266.49	35.21	-60.0	-75.5	3.6	1.51e+00	0	46	104	0	60	233891
2026-01-29 00:37:43.51	266.21	35.04	-60.0	-75.6	3.6	1.51e+00	0	46	104	0	60	235307
2026-01-29 00:37:44.52	265.94	34.88	-60.0	-75.6	3.6	1.51e+00	0	46	104	0	60	237057
2026-01-29 00:37:45.52	265.67	34.71	-59.9	-75.5	3.6	1.51e+00	0	46	104	0	60	233806
2026-01-29 00:37:46.53	265.39	34.55	-60.0	-75.7	3.6	1.51e+00	0	47	104	0	60	238721
2026-01-29 00:37:47.54	265.13	34.38	-59.9	-76.1	3.6	1.51e+00	0	46	104	0	60	250788
2026-01-29 00:37:48.55	264.86	34.22	-60.0	-76.2	3.6	1.51e+00	0	46	104	0	60	253646
2026-01-29 00:37:49.55	264.60	34.06	-59.9	-76.1	3.6	1.51e+00	0	46	104	0	60	250953
2026-01-29 00:37:50.56	264.34	33.89	-60.0	-76.2	3.6	1.51e+00	0	46	104	0	60	253662
2026-01-29 00:37:51.57	264.08	33.73	-59.9	-76.1	3.6	1.51e+00	0	46	104	0	60	250168
2026-01-29 00:37:52.57	263.83	33.57	-60.0	-76.3	3.6	1.51e+00	0	46	104	0	60	254883
2026-01-29 00:37:53.58	263.57	33.40	-59.9	-76.0	3.6	1.51e+00	0	46	104	0	60	248010
2026-01-29 00:37:54.59	263.32	33.24	-59.8	-76.2	3.6	1.51e+00	0	46	104	0	60	251646
2026-01-29 00:37:55.60	263.08	33.08	-59.8	-75.9	3.6	1.51e+00	0	47	104	0	60	244658
2026-01-29 00:37:56.61	262.83	32.91	-59.8	-76.1	3.6	1.51e+00	0	46	104	0	60	250281
2026-01-29 00:37:57.61	262.59	32.75	-59.8	-75.9	3.6	1.51e+00	0	46	104	0	60	243156
2026-01-29 00:37:58.62	262.35	32.59	-59.8	-76.0	3.6	1.51e+00	0	46	104	0	60	248629
2026-01-29 00:37:59.62	262.11	32.43	-59.8	-75.9	3.6	1.51e+00	0	47	104	0	60	245587
2026-01-29 00:38:00.63	261.88	32.27	-59.8	-76.1	3.6	1.51e+00	0	47	104	0	60	250259
2026-01-29 00:38:01.64	261.65	32.11	-59.8	-75.9	3.6	1.51e+00	0	47	104	0	60	245011
2026-01-29 00:38:02.65	261.41	31.95	-59.8	-75.9	3.6	1.51e+00	0	46	104	0	60	245692
2026-01-29 00:38:03.65	261.19	31.79	-59.7	-75.8	3.6	1.51e+00	0	47	104	0	60	241407
2026-01-29 00:38:04.66	260.96	31.63	-59.8	-76.0	3.6	1.51e+00	0	47	104	0	60	245850
2026-01-29 00:38:05.66	260.74	31.47	-59.7	-75.6	3.6	1.51e+00	0	46	104	0	60	236405
2026-01-29 00:38:06.67	260.52	31.31	-59.6	-75.0	3.6	1.51e+00	0	46	104	0	60	219306
2026-01-29 00:38:07.67	260.30	31.15	-59.6	-74.8	3.6	1.51e+00	0	46	104	0	60	214297
2026-01-29 00:38:08.68	260.08	30.99	-59.6	-74.6	3.6	1.51e+00	0	47	104	0	60	209700
2026-01-29 00:38:09.68	259.87	30.84	-59.6	-75.8	3.6	1.51e+00	0	47	104	0	60	241382
2026-01-29 00:38:10.69	259.66	30.68	-59.6	-75.9	3.6	1.51e+00	0	46	104	0	60	244199
2026-01-29 00:38:11.70	259.44	30.52	-59.6	-75.3	3.6	1.51e+00	0	46	104	0	60	228504
2026-01-29 00:38:12.71	259.24	30.37	-59.7	-75.9	3.6	1.51e+00	0	46	104	0	60	245365
2026-01-29 00:38:13.71	259.03	30.21	-59.6	-75.3	3.6	1.51e+00	0	46	104	0	60	228883
2026-01-29 00:38:14.71	258.83	30.06	-59.6	-75.8	3.6	1.51e+00	0	46	104	0	60	241011
2026-01-29 00:38:15.72	258.62	29.90	-59.6	-75.7	3.6	1.51e+00	0	47	104	0	60	239688
2026-01-29 00:38:16.72	258.42	29.75	-59.6	-75.7	3.6	1.51e+00	0	47	104	0	60	239759
2026-01-29 00:38:17.73	258.23	29.59	-59.6	-75.3	3.6	1.51e+00	0	46	104	0	60	226905
2026-01-29 00:38:18.74	258.03	29.44	-59.6	-75.9	3.6	1.51e+00	0	47	104	0	60	243509
2026-01-29 00:38:19.75	257.83	29.28	-59.5	-75.1	3.6	1.51e+00	0	47	104	0	60	223066
2026-01-29 00:38:20.75	257.64	29.13	-59.6	-75.8	3.6	1.51e+00	0	47	104	0	60	242946
2026-01-29 00:38:21.76	257.45	28.98	-59.6	-75.6	3.6	1.51e+00	0	47	104	0	60	235260
2026-01-29 00:38:22.77	257.26	28.82	-59.6	-75.7	3.6	1.51e+00	0	46	104	0	60	238738
2026-01-29 00:38:23.77	257.07	28.67	-59.6	-75.6	3.6	1.51e+00	0	47	104	0	60	235559
2026-01-29 00:38:24.78	256.89	28.52	-59.6	-75.6	3.6	1.51e+00	0	47	104	0	60	237336
2026-01-29 00:38:25.78	256.70	28.37	-59.6	-75.5	3.6	1.51e+00	0	47	104	0	60	232680
2026-01-29 00:38:26.79	256.52	28.22	-59.6	-75.7	3.6	1.51e+00	0	46	104	0	60	239419
2026-01-29 00:38:27.79	256.34	28.07	-59.6	-75.0	3.6	1.51e+00	0	47	104	0	60	221080
2026-01-29 00:38:28.79	256.16	27.92	-59.5	-75.2	3.6	1.51e+00	0	47	104	0	60	224687
2026-01-29 00:38:29.80	255.99	27.78	-59.4	-73.5	3.6	1.51e+00	0	46	104	0	60	185453
2026-01-29 00:38:30.81	255.81	27.63	-59.5	-74.9	3.5	1.51e+00	0	47	104	0	60	218536
2026-01-29 00:38:31.82	255.64	27.48	-59.4	-73.3	3.6	1.50e+00	0	47	104	0	60	180563
2026-01-29 00:38:32.83	255.46	27.33	-59.4	-73.3	3.8	1.49e+00	0	47	104	0	60	180999
2026-01-29 00:38:33.83	255.29	27.18	-59.4	-72.0	3.6	1.47e+00	0	46	0	0	60	156129
2026-01-29 00:38:34.84	255.12	27.04	-59.4	-73.0	3.8	1.48e+00	0	46	104	0	60	175649
2026-01-29 00:38:35.84	254.96	26.89	-59.4	-72.9	3.8	1.50e+00	0	47	104	0	60	173692
2026-01-29 00:38:36.85	254.79	26.75	-59.3	-73.0	3.8	1.48e+00	0	47	104	0	60	175987
2026-01-29 00:38:37.85	254.63	26.60	-59.3	-73.0	3.8	1.49e+00	0	47	104	0	60	174790
2026-01-29 00:38:38.86	254.46	26.46	-59.3	-72.9	3.6	1.49e+00	0	47	104	0	60	173053
2026-01-29 00:38:39.87	254.30	26.31	-59.3	-72.1	3.7	1.47e+00	0	46	0	0	60	157504
2026-01-29 00:38:40.87	254.14	26.17	-59.3	-72.6	3.8	1.47e+00	0	46	104	0	60	166694
2026-01-29 00:38:41.88	253.98	26.03	-59.2	-72.4	3.9	1.49e+00	0	47	104	0	60	162507
2026-01-29 00:38:42.89	253.83	25.89	-59.2	-70.9	3.7	1.42e+00	0	47	0	0	60	137886
2026-01-29 00:38:43.90	253.67	25.74	-59.3	-70.8	3.8	1.40e+00	0	47	0	0	60	135366
2026-01-29 00:38:44.90	253.52	25.60	-59.3	-70.9	3.8	1.40e+00	0	47	0	0	60	137553
2026-01-29 00:38:45.91	253.36	25.46	-59.2	-70.6	3.9	1.38e+00	0	46	0	0	60	132657
2026-01-29 00:38:46.91	253.21	25.32	-59.2	-70.5	3.9	1.35e+00	0	47	0	0	60	131386
2026-01-29 00:38:47.92	253.06	25.18	-59.2	-70.6	3.9	1.36e+00	0	46	0	1048576	60	132308
2026-01-29 00:38:48.93	252.91	25.04	-59.2	-72.0	4.1	1.40e+00	0	47	104	1048576	60	155666
2026-01-29 00:38:49.93	252.77	24.91	-59.2	-70.6	4.0	1.31e+00	0	47	0	1048576	60	132856
2026-01-29 00:38:50.94	252.62	24.77	-59.1	-68.9	4.8	9.18e-01	0	46	0	2097152	60	109208
2026-01-29 00:38:51.95	252.48	24.63	-58.8	-67.0	6.5	4.06e-01	0	47	0	4194304	60	87802
2026-01-29 00:38:52.96	252.33	24.49	-58.3	-64.7	9.4	4.35e-02	0	46	0	6291456	60	67353
2026-01-29 00:38:53.97	252.19	24.36	-57.7	-62.8	11.5	1.45e-03	0	46	0	7340032	60	54190
2026-01-29 00:38:54.97	252.05	24.22	-57.7	-62.7	11.7	1.12e-03	0	46	0	9437184	60	53302
2026-01-29 00:38:55.98	251.91	24.08	-57.6	-62.5	11.5	4.90e-04	0	46	0	11534336	60	52398
2026-01-29 00:38:56.99	251.77	23.95	-57.6	-62.6	11.8	5.74e-04	0	46	0	13631488	60	52813
2026-01-29 00:38:58.00	251.63	23.81	-57.7	-62.9	11.1	1.69e-03	0	46	0	14680064	60	54518
2026-01-29 00:38:59.00	251.50	23.68	-57.7	-62.9	11.3	2.14e-03	0	46	0	16777216	60	54959
2026-01-29 00:39:00.01	251.36	23.55	-57.5	-62.1	12.1	3.17e-04	0	46	0	18874368	60	50096
2026-01-29 00:39:01.01	251.23	23.41	-57.5	-62.3	11.6	1.59e-04	0	46	0	20971520	60	51218
2026-01-29 00:39:02.02	251.10	23.28	-57.4	-62.1	12.5	2.06e-04	0	46	0	23068672	60	49752
2026-01-29 00:39:03.02	250.97	23.15	-57.6	-62.5	12.2	2.68e-04	0	46	0	24117248	60	52159
2026-01-29 00:39:04.03	250.83	23.02	-57.6	-62.7	11.6	5.48e-04	0	46	0	26214400	60	53478
2026-01-29 00:39:05.04	250.71	22.89	-57.6	-62.6	11.9	5.12e-04	0	46	0	28311552	60	52859
2026-01-29 00:39:06.04	250.58	22.76	-57.4	-62.1	12.3	8.84e-04	0	46	0	30408704	60	49775
2026-01-29 00:39:07.05	250.45	22.63	-57.1	-61.3	12.9	1.75e-04	0	46	0	32505856	60	45694
2026-01-29 00:39:08.06	250.32	22.50	-57.1	-61.2	13.1	4.57e-05	0	46	0	34603008	60	45137
2026-01-29 00:39:09.07	250.20	22.37	-56.9	-60.8	13.8	1.52e-05	0	46	0	35651584	60	42995
2026-01-29 00:39:10.08	250.07	22.24	-56.6	-60.1	14.3	1.50e-06	0	46	0	37748736	60	39834
2026-01-29 00:39:11.09	249.95	22.11	-56.3	-59.7	14.6	0.00e+00	0	46	0	39845888	60	37925
2026-01-29 00:39:12.09	249.83	21.98	-56.2	-59.5	15.0	1.50e-06	0	46	0	41943040	60	36903
2026-01-29 00:39:13.10	249.71	21.86	-56.1	-59.3	15.4	0.00e+00	0	46	0	42991616	60	36038
2026-01-29 00:39:14.11	249.59	21.73	-56.0	-59.2	15.5	0.00e+00	0	46	0	45088768	60	35698
2026-01-29 00:39:15.11	249.47	21.61	-56.3	-59.7	14.5	0.00e+00	0	46	0	47185920	60	37789
2026-01-29 00:39:16.11	249.35	21.48	-56.2	-59.6	15.0	7.00e-07	0	46	0	49283072	60	37558
2026-01-29 00:39:17.12	249.24	21.36	-56.3	-59.8	14.3	1.50e-06	0	46	0	51380224	60	38426
2026-01-29 00:39:18.13	249.12	21.23	-56.0	-59.2	15.4	0.00e+00	0	46	0	52428800	60	35692
2026-01-29 00:39:19.13	249.01	21.11	-55.8	-58.7	15.7	0.00e+00	0	46	0	54525952	60	33924
2026-01-29 00:39:20.14	248.89	20.98	-55.9	-59.0	15.6	0.00e+00	0	46	0	56623104	60	34949
2026-01-29 00:39:21.14	248.78	20.86	-55.8	-58.8	15.7	0.00e+00	0	46	0	58720256	60	34062
2026-01-29 00:39:22.15	248.67	20.74	-55.3	-58.0	16.5	0.00e+00	0	46	0	60817408	60	31120
2026-01-29 00:39:23.16	248.56	20.62	-54.8	-57.1	17.4	0.00e+00	0	46	0	62914560	60	28145
2026-01-29 00:39:24.17	248.44	20.49	-54.6	-56.9	17.7	0.00e+00	0	46	0	63963136	60	27269
2026-01-29 00:39:25.18	248.33	20.37	-54.8	-57.2	17.0	0.00e+00	0	46	0	66060288	60	28361
2026-01-29 00:39:26.19	248.23	20.25	-54.7	-57.1	17.4	0.00e+00	0	46	0	68157440	60	27905
2026-01-29 00:39:27.19	248.12	20.13	-54.7	-57.1	17.7	0.00e+00	0	47	0	70254592	60	27901
2026-01-29 00:39:28.20	248.01	20.01	-54.7	-57.0	17.2	0.00e+00	0	46	0	71303168	60	27755
2026-01-29 00:39:29.21	247.91	19.89	-54.5	-56.7	17.8	0.00e+00	0	46	0	73400320	60	26912
2026-01-29 00:39:30.21	247.80	19.77	-54.6	-56.9	17.9	0.00e+00	0	46	0	75497472	60	27279
2026-01-29 00:39:31.21	247.70	19.66	-54.6	-56.8	17.8	0.00e+00	0	46	0	77594624	60	27172
2026-01-29 00:39:32.21	247.59	19.54	-54.6	-56.8	17.8	0.00e+00	0	46	0	79691776	60	27259
2026-01-29 00:39:33.22	247.49	19.42	-54.6	-56.9	17.7	0.00e+00	0	46	0	80740352	60	27286
2026-01-29 00:39:34.22	247.39	19.30	-54.3	-56.5	17.8	0.00e+00	0	46	0	82837504	60	26158
2026-01-29 00:39:35.23	247.29	19.19	-54.4	-56.6	17.9	0.00e+00	0	46	0	84934656	60	26452
2026-01-29 00:39:36.24	247.19	19.07	-54.2	-56.4	17.9	0.00e+00	0	46	0	87031808	60	25956
2026-01-29 00:39:37.25	247.09	18.96	-54.1	-56.3	18.0	0.00e+00	0	46	0	89128960	60	25487
2026-01-29 00:39:38.25	246.99	18.84	-54.2	-56.4	18.2	0.00e+00	0	47	0	90177536	60	25761
2026-01-29 00:39:39.26	246.89	18.73	-54.1	-56.1	18.3	0.00e+00	0	46	0	92274688	60	25148
2026-01-29 00:39:40.27	246.79	18.61	-53.9	-55.9	18.4	0.00e+00	0	46	0	94371840	60	24403
2026-01-29 00:39:41.28	246.70	18.50	-53.9	-55.9	18.3	0.00e+00	0	46	0	96468992	60	24409
2026-01-29 00:39:42.28	246.60	18.38	-53.9	-55.9	18.5	0.00e+00	0	46	0	98566144	60	24354
2026-01-29 00:39:43.29	246.51	18.27	-53.7	-55.6	18.7	0.00e+00	0	46	0	99614720	60	23604
2026-01-29 00:39:44.30	246.41	18.16	-53.9	-55.9	18.5	0.00e+00	0	46	0	101711872	60	24448
2026-01-29 00:39:45.30	246.32	18.05	-53.8	-55.8	18.5	0.00e+00	0	46	0	103809024	60	24190
2026-01-29 00:39:46.31	246.23	17.93	-53.7	-55.6	18.7	0.00e+00	0	46	0	105906176	60	23725
2026-01-29 00:39:47.32	246.13	17.82	-53.8	-55.8	18.5	0.00e+00	0	46	0	108003328	60	24132
2026-01-29 00:39:48.33	246.04	17.71	-53.8	-55.8	18.5	0.00e+00	0	46	0	109051904	60	24233
2026-01-29 00:39:49.32	245.95	17.60	-53.8	-55.8	18.5	0.00e+00	0	46	0	111149056	60	24106
2026-01-29 00:39:50.33	245.86	17.49	-53.8	-55.8	18.6	0.00e+00	0	46	0	113246208	60	24052
2026-01-29 00:39:51.33	245.77	17.38	-53.8	-55.8	18.5	0.00e+00	0	46	0	115343360	60	24040
2026-01-29 00:39:52.33	245.69	17.28	-53.7	-55.7	18.5	0.00e+00	0	46	0	117440512	60	23838
2026-01-29 00:39:53.34	245.60	17.17	-53.7	-55.6	18.7	0.00e+00	0	46	0	118489088	60	23705
2026-01-29 00:39:54.35	245.51	17.06	-53.7	-55.6	18.7	0.00e+00	0	46	0	120586240	60	23723
2026-01-29 00:39:55.35	245.42	16.95	-53.6	-55.5	18.7	0.00e+00	0	46	0	122683392	60	23365
2026-01-29 00:39:56.37	245.34	16.84	-53.5	-55.4	18.8	0.00e+00	0	46	0	124780544	60	23102
2026-01-29 00:39:57.38	245.25	16.73	-53.6	-55.5	18.8	0.00e+00	0	46	0	126877696	60	23270
2026-01-29 00:39:58.38	245.17	16.63	-53.5	-55.4	18.8	0.00e+00	0	46	0	127926272	60	23145
2026-01-29 00:39:59.39	245.08	16.52	-53.6	-55.5	18.7	0.00e+00	0	46	0	130023424	60	23456
2026-01-29 00:40:00.40	245.00	16.41	-53.7	-55.7	18.6	0.00e+00	0	46	0	132120576	60	23961
2026-01-29 00:40:01.41	244.91	16.31	-53.7	-55.7	18.5	0.00e+00	0	46	0	134217728	60	23795
2026-01-29 00:40:02.41	244.83	16.20	-53.7	-55.6	18.5	0.00e+00	0	46	0	136314880	60	23622
2026-01-29 00:40:03.42	244.75	16.10	-53.7	-55.7	18.5	0.00e+00	0	46	0	137363456	60	23913
2026-01-29 00:40:04.43	244.67	15.99	-53.7	-55.7	18.5	0.00e+00	0	46	0	139460608	60	23840
2026-01-29 00:40:05.43	244.59	15.89	-53.8	-55.8	18.4	0.00e+00	0	46	0	141557760	60	24241
2026-01-29 00:40:06.44	244.51	15.79	-53.8	-55.9	18.2	0.00e+00	0	46	0	143654912	60	24502
2026-01-29 00:40:07.44	244.43	15.68	-53.8	-55.9	18.3	0.00e+00	0	46	0	145752064	60	24361
2026-01-29 00:40:08.44	244.35	15.58	-53.9	-56.0	18.2	0.00e+00	0	46	0	146800640	60	24672
2026-01-29 00:40:09.45	244.27	15.48	-53.8	-55.9	18.3	0.00e+00	0	46	0	148897792	60	24499
2026-01-29 00:40:10.45	244.19	15.38	-53.8	-55.8	18.3	0.00e+00	0	46	0	150994944	60	24121
2026-01-29 00:40:11.46	244.12	15.28	-53.7	-55.8	18.4	0.00e+00	0	46	0	153092096	60	24071
2026-01-29 00:40:12.47	244.04	15.17	-53.7	-55.7	18.4	0.00e+00	0	46	0	155189248	60	23950
2026-01-29 00:40:13.48	243.96	15.07	-53.7	-55.8	18.3	0.00e+00	0	46	0	156237824	60	24073
2026-01-29 00:40:14.49	243.89	14.97	-53.6	-55.6	18.5	0.00e+00	0	46	0	158334976	60	23596
2026-01-29 00:40:15.49	243.81	14.87	-53.7	-55.7	18.5	0.00e+00	0	46	0	160432128	60	23799
2026-01-29 00:40:16.50	243.74	14.77	-53.6	-55.6	18.5	0.00e+00	0	46	0	162529280	60	23687
2026-01-29 00:40:17.50	243.66	14.67	-53.6	-55.7	18.5	0.00e+00	0	46	0	164626432	60	23761
2026-01-29 00:40:18.51	243.59	14.57	-53.6	-55.6	18.5	0.00e+00	0	46	0	165675008	60	23558
2026-01-29 00:40:19.51	243.52	14.48	-53.6	-55.5	18.6	0.00e+00	0	46	0	167772160	60	23392
2026-01-29 00:40:20.51	243.45	14.38	-53.6	-55.6	18.5	0.00e+00	0	46	0	169869312	60	23663
2026-01-29 00:40:21.52	243.37	14.28	-53.7	-55.7	18.5	0.00e+00	0	46	0	171966464	60	23815
2026-01-29 00:40:22.53	243.30	14.18	-53.7	-55.6	18.4	0.00e+00	0	46	0	174063616	60	23719
2026-01-29 00:40:23.53	243.23	14.08	-53.8	-55.8	18.4	0.00e+00	0	46	0	175112192	60	24157
2026-01-29 00:40:24.54	243.16	13.99	-53.7	-55.8	18.4	0.00e+00	0	46	0	177209344	60	24030
2026-01-29 00:40:25.55	243.09	13.89	-53.7	-55.7	18.5	0.00e+00	0	46	0	179306496	60	23751
2026-01-29 00:40:26.56	243.02	13.79	-53.7	-55.7	18.4	0.00e+00	0	46	0	181403648	60	23828
2026-01-29 00:40:27.57	242.95	13.70	-53.7	-55.7	18.4	0.00e+00	0	46	0	183500800	60	23984
2026-01-29 00:40:28.57	242.88	13.60	-53.6	-55.6	18.4	0.00e+00	0	46	0	184549376	60	23593
2026-01-29 00:40:29.58	242.81	13.51	-53.6	-55.7	18.3	0.00e+00	0	46	0	186646528	60	23848
2026-01-29 00:40:30.59	242.75	13.41	-53.7	-55.8	18.4	0.00e+00	0	46	0	188743680	60	24034
2026-01-29 00:40:31.60	242.68	13.31	-53.7	-55.7	18.3	0.00e+00	0	46	0	190840832	60	23991
2026-01-29 00:40:32.60	242.61	13.22	-53.7	-55.9	18.2	0.00e+00	0	46	0	192937984	60	24322
2026-01-29 00:40:33.60	242.55	13.13	-53.6	-55.7	18.3	0.00e+00	0	46	0	193986560	60	23886
2026-01-29 00:40:34.61	242.48	13.03	-53.6	-55.7	18.2	0.00e+00	0	46	0	196083712	60	23851
