passes_logs/2026/01/29/R3.2S-Naryan-Mar/R3.2S-Naryan-Mar__20260129_110118_FENGYUN_3D_rec.log

#Pass ID: 20260129_110118_FENGYUN 3D
#Satellite: FENGYUN 3D
#Configuration: FENGYUN 3D
#almurnet v.1.7.20240730
#Start time: 2026-01-29 11:01:20

#Version: 2.2.20231116
#Station: R3.2S-Naryan-Mar
#Location: 53.008057 lon 67.646978 lat
#TLE: 1 43010U 17072A   26027.97130493  .00000326  00000+0  17586-3 0  9998
#TLE: 2 43010  98.9960 359.9900 0002514  87.8428 272.3036 14.19701925425097

#Time	Az	El	Level	Level2	SNR	BER	BlckErr	Temp	State	Recorded	gain1	gain2
2026-01-29 11:01:20.12	168.77	0.09	-60.3	-77.6	3.5	1.51e+00	0	43	0	0	60	297642
2026-01-29 11:01:21.12	168.79	0.15	-59.6	-74.3	3.6	8.47e-01	0	44	104	0	60	203335
2026-01-29 11:01:22.13	168.81	0.21	-59.3	-74.4	3.6	8.45e-01	0	44	104	0	60	205399
2026-01-29 11:01:23.13	168.83	0.27	-61.2	-74.9	3.6	8.46e-01	0	44	104	0	60	218093
2026-01-29 11:01:24.13	168.85	0.33	-61.6	-75.0	3.6	8.45e-01	0	44	104	0	60	221096
2026-01-29 11:01:25.14	168.87	0.39	-62.0	-75.3	3.6	8.45e-01	0	44	104	0	60	227758
2026-01-29 11:01:26.15	168.89	0.45	-61.7	-75.0	3.6	8.45e-01	0	44	104	0	60	220522
2026-01-29 11:01:27.16	168.91	0.51	-61.9	-75.1	3.6	8.45e-01	0	44	104	0	60	223604
2026-01-29 11:01:28.16	168.93	0.57	-61.9	-75.1	3.6	8.45e-01	0	44	104	0	60	221738
2026-01-29 11:01:29.17	168.95	0.63	-61.9	-75.2	3.6	8.45e-01	0	44	104	0	60	225046
2026-01-29 11:01:30.18	168.98	0.69	-61.9	-75.2	3.6	8.45e-01	0	45	104	0	60	224659
2026-01-29 11:01:31.19	169.00	0.75	-61.6	-74.8	3.6	8.45e-01	0	44	104	0	60	214659
2026-01-29 11:01:32.20	169.02	0.81	-60.9	-74.1	3.6	8.45e-01	0	45	104	0	60	199091
2026-01-29 11:01:33.21	169.04	0.87	-60.8	-74.1	3.6	8.45e-01	0	44	104	0	60	198447
2026-01-29 11:01:34.21	169.06	0.94	-60.6	-73.9	3.6	8.45e-01	0	45	104	0	60	194253
2026-01-29 11:01:35.22	169.08	1.00	-60.2	-73.5	3.6	8.45e-01	0	45	104	0	60	185904
2026-01-29 11:01:36.23	169.11	1.06	-59.8	-73.1	3.5	8.45e-01	0	45	104	0	60	176737
2026-01-29 11:01:37.24	169.13	1.12	-59.1	-72.5	3.6	8.45e-01	0	45	104	0	60	165834
2026-01-29 11:01:38.25	169.15	1.18	-58.4	-72.0	3.6	8.45e-01	0	45	104	0	60	156686
2026-01-29 11:01:39.25	169.17	1.25	-57.7	-71.5	3.6	8.45e-01	0	45	104	0	60	146522
2026-01-29 11:01:40.26	169.19	1.31	-57.5	-71.3	3.6	8.45e-01	0	45	104	0	60	144179
2026-01-29 11:01:41.27	169.22	1.37	-57.4	-71.3	3.6	8.46e-01	0	45	104	0	60	143492
2026-01-29 11:01:42.28	169.24	1.43	-57.4	-71.1	3.6	8.45e-01	0	45	104	0	60	141403
2026-01-29 11:01:43.29	169.26	1.50	-57.4	-71.1	3.6	8.45e-01	0	45	104	0	60	140664
2026-01-29 11:01:44.30	169.28	1.56	-57.3	-71.0	3.6	8.45e-01	0	45	104	0	60	138485
2026-01-29 11:01:45.30	169.31	1.62	-57.3	-71.1	3.6	8.46e-01	0	45	104	0	60	140538
2026-01-29 11:01:46.31	169.33	1.68	-57.3	-71.0	3.6	8.44e-01	0	45	104	0	60	139240
2026-01-29 11:01:47.32	169.35	1.75	-57.2	-71.0	3.6	8.45e-01	0	45	104	0	60	139417
2026-01-29 11:01:48.33	169.38	1.81	-57.2	-70.9	3.6	8.46e-01	0	45	104	0	60	137911
2026-01-29 11:01:49.33	169.40	1.87	-57.2	-71.0	3.6	8.46e-01	0	45	104	0	60	138853
2026-01-29 11:01:50.34	169.42	1.94	-57.2	-71.1	3.6	8.44e-01	0	45	104	0	60	139982
2026-01-29 11:01:51.35	169.44	2.00	-57.2	-71.0	3.6	8.44e-01	0	45	104	0	60	139249
2026-01-29 11:01:52.36	169.47	2.07	-57.1	-71.0	3.6	8.45e-01	0	45	104	0	60	139481
2026-01-29 11:01:53.36	169.49	2.13	-57.1	-70.9	3.6	8.46e-01	0	45	104	0	60	137191
2026-01-29 11:01:54.37	169.51	2.19	-57.1	-70.9	3.6	8.44e-01	0	45	104	0	60	137332
2026-01-29 11:01:55.38	169.54	2.26	-57.1	-70.9	3.6	8.46e-01	0	45	104	0	60	138068
2026-01-29 11:01:56.39	169.56	2.32	-57.1	-70.8	3.6	8.45e-01	0	45	104	0	60	136574
2026-01-29 11:01:57.40	169.59	2.39	-57.1	-70.9	3.6	8.46e-01	0	45	104	0	60	136647
2026-01-29 11:01:58.41	169.61	2.45	-57.1	-70.9	3.5	8.46e-01	0	45	104	0	60	136839
2026-01-29 11:01:59.41	169.63	2.52	-57.1	-70.8	3.6	8.45e-01	0	45	104	0	60	136391
2026-01-29 11:02:00.42	169.66	2.58	-57.1	-70.8	3.6	8.45e-01	0	45	104	0	60	135843
2026-01-29 11:02:01.43	169.68	2.65	-57.1	-70.8	3.6	8.45e-01	0	45	104	0	60	135558
2026-01-29 11:02:02.44	169.70	2.71	-57.0	-70.8	3.6	8.46e-01	0	45	104	0	60	135818
2026-01-29 11:02:03.45	169.73	2.78	-57.0	-70.8	3.6	8.45e-01	0	45	104	0	60	135656
2026-01-29 11:02:04.46	169.75	2.85	-57.0	-70.7	3.6	8.45e-01	0	45	104	0	60	135068
2026-01-29 11:02:05.46	169.78	2.91	-57.0	-70.9	3.6	8.47e-01	0	45	104	0	60	136820
2026-01-29 11:02:06.47	169.80	2.98	-57.0	-70.8	3.6	8.46e-01	0	45	104	0	60	135692
2026-01-29 11:02:07.48	169.83	3.04	-57.0	-70.8	3.6	8.45e-01	0	45	104	0	60	136250
2026-01-29 11:02:08.49	169.85	3.11	-57.0	-70.6	3.6	8.44e-01	0	45	104	0	60	133245
2026-01-29 11:02:09.49	169.88	3.18	-57.0	-70.7	3.6	8.45e-01	0	45	104	0	60	134418
2026-01-29 11:02:10.50	169.90	3.24	-57.0	-70.8	3.6	8.45e-01	0	45	104	0	60	135222
2026-01-29 11:02:11.51	169.93	3.31	-57.0	-70.9	3.6	8.45e-01	0	45	104	0	60	137048
2026-01-29 11:02:12.52	169.95	3.38	-57.0	-70.8	3.6	8.44e-01	0	45	104	0	60	135841
2026-01-29 11:02:13.53	169.98	3.44	-57.0	-70.7	3.6	8.45e-01	0	45	104	0	60	134197
2026-01-29 11:02:14.53	170.00	3.51	-57.0	-70.7	3.6	8.45e-01	0	45	104	0	60	134425
2026-01-29 11:02:15.54	170.03	3.58	-56.9	-70.6	3.6	8.44e-01	0	45	104	0	60	132982
2026-01-29 11:02:16.55	170.05	3.65	-56.9	-70.5	3.6	8.46e-01	0	45	104	0	60	131205
2026-01-29 11:02:17.56	170.08	3.71	-56.9	-70.4	3.6	8.46e-01	0	45	104	0	60	129801
2026-01-29 11:02:18.57	170.10	3.78	-56.9	-70.4	3.6	8.46e-01	0	45	104	0	60	129380
2026-01-29 11:02:19.58	170.13	3.85	-56.9	-70.3	3.6	8.45e-01	0	45	104	0	60	128524
2026-01-29 11:02:20.58	170.16	3.92	-56.9	-70.5	3.5	8.45e-01	0	45	104	0	60	130729
2026-01-29 11:02:21.59	170.18	3.99	-56.9	-70.5	3.6	8.44e-01	0	45	104	0	60	131564
2026-01-29 11:02:22.60	170.21	4.06	-56.9	-70.7	3.6	8.45e-01	0	45	104	0	60	134053
2026-01-29 11:02:23.61	170.23	4.12	-56.9	-70.5	3.6	8.45e-01	0	45	104	0	60	131780
2026-01-29 11:02:24.61	170.26	4.19	-56.9	-70.4	3.6	8.44e-01	0	45	104	0	60	130230
2026-01-29 11:02:25.62	170.29	4.26	-56.9	-70.4	3.6	8.45e-01	0	45	104	0	60	129290
2026-01-29 11:02:26.63	170.31	4.33	-56.9	-70.1	3.6	8.46e-01	0	45	104	0	60	125718
2026-01-29 11:02:27.63	170.34	4.40	-56.9	-70.1	3.6	8.45e-01	0	45	104	0	60	125750
2026-01-29 11:02:28.63	170.37	4.47	-56.9	-70.1	3.6	8.45e-01	0	46	104	0	60	125490
2026-01-29 11:02:29.63	170.39	4.54	-56.9	-69.8	3.6	8.45e-01	0	45	104	0	60	120927
2026-01-29 11:02:30.64	170.42	4.61	-56.8	-69.1	3.6	8.44e-01	0	45	104	0	60	112118
2026-01-29 11:02:31.64	170.45	4.68	-56.7	-67.9	3.7	8.45e-01	0	45	104	0	60	97201
2026-01-29 11:02:32.64	170.47	4.75	-56.5	-64.9	4.4	8.16e-01	0	45	0	0	60	69182
2026-01-29 11:02:33.65	170.50	4.82	-56.2	-62.7	5.9	6.06e-01	0	45	0	1048576	60	53715
2026-01-29 11:02:34.66	170.53	4.89	-55.7	-61.0	7.9	1.65e-01	0	45	0	6291456	60	43985
2026-01-29 11:02:35.66	170.56	4.96	-55.1	-59.5	9.8	2.03e-02	0	45	0	12582912	60	36870
2026-01-29 11:02:36.67	170.58	5.03	-54.3	-57.8	11.7	2.41e-03	0	45	0	17825792	60	30331
2026-01-29 11:02:37.68	170.61	5.10	-53.5	-56.4	13.2	2.35e-04	0	45	0	23068672	60	25783
2026-01-29 11:02:38.68	170.64	5.17	-52.8	-55.3	14.4	2.20e-06	0	45	0	29360128	60	22744
2026-01-29 11:02:39.69	170.67	5.25	-52.0	-54.0	15.6	0.00e+00	0	45	0	34603008	60	19747
2026-01-29 11:02:40.69	170.69	5.32	-51.4	-53.2	16.5	0.00e+00	0	45	0	40894464	60	17988
2026-01-29 11:02:41.70	170.72	5.39	-50.9	-52.5	17.2	0.00e+00	0	45	0	46137344	60	16552
2026-01-29 11:02:42.70	170.75	5.46	-50.6	-52.2	17.4	0.00e+00	0	45	0	51380224	60	15969
2026-01-29 11:02:43.70	170.78	5.53	-50.3	-51.8	17.8	0.00e+00	0	45	0	57671680	60	15197
2026-01-29 11:02:44.71	170.81	5.61	-50.2	-51.7	18.0	0.00e+00	0	45	0	62914560	60	15042
2026-01-29 11:02:45.71	170.84	5.68	-50.3	-51.8	17.9	0.00e+00	0	45	0	68157440	60	15211
2026-01-29 11:02:46.71	170.87	5.75	-50.4	-51.9	17.8	0.00e+00	0	45	0	74448896	60	15412
2026-01-29 11:02:47.72	170.89	5.82	-50.8	-52.4	17.2	0.00e+00	0	45	0	79691776	60	16315
2026-01-29 11:02:48.73	170.92	5.90	-51.2	-52.9	16.6	0.00e+00	0	45	0	84934656	60	17374
2026-01-29 11:02:49.73	170.95	5.97	-51.8	-53.7	15.8	0.00e+00	0	45	0	91226112	60	19075
2026-01-29 11:02:50.73	170.98	6.04	-52.7	-55.1	14.4	0.00e+00	0	45	0	97517568	60	22254
2026-01-29 11:02:51.74	171.01	6.12	-52.6	-54.8	14.4	3.40e-06	0	45	0	102760448	60	21554
2026-01-29 11:02:52.75	171.04	6.19	-52.4	-54.6	15.4	4.80e-05	0	45	0	108003328	60	21016
2026-01-29 11:02:53.76	171.07	6.27	-52.7	-55.1	7.5	0.00e+00	0	45	0	114294784	60	22301
2026-01-29 11:02:54.77	171.10	6.34	-56.3	-69.1	3.6	8.41e-01	0	45	104	114294784	60	112191
2026-01-29 11:02:55.77	171.13	6.42	-52.7	-55.0	6.1	8.11e-01	0	45	104	114294784	60	22014
2026-01-29 11:02:56.77	171.16	6.49	-51.5	-53.3	16.5	0.00e+00	0	45	104	114294784	60	18197
2026-01-29 11:02:57.78	171.19	6.57	-51.3	-53.1	16.6	0.00e+00	0	45	0	5242880	60	17626
2026-01-29 11:02:58.78	171.22	6.64	-51.6	-53.4	16.4	0.00e+00	0	45	0	10485760	60	18395
2026-01-29 11:02:59.79	171.25	6.72	-51.7	-53.6	16.2	0.00e+00	0	45	0	16777216	60	18676
2026-01-29 11:03:00.80	171.28	6.79	-51.8	-53.7	16.1	0.00e+00	0	45	0	22020096	60	18867
2026-01-29 11:03:01.80	171.31	6.87	-51.9	-53.8	15.9	0.00e+00	0	45	0	27262976	60	19131
2026-01-29 11:03:02.80	171.34	6.94	-52.2	-54.3	15.8	0.00e+00	0	45	0	33554432	60	20212
2026-01-29 11:03:03.81	171.38	7.02	-51.9	-53.8	16.1	0.00e+00	0	45	0	38797312	60	19192
2026-01-29 11:03:04.82	171.41	7.10	-51.4	-53.2	16.7	0.00e+00	0	45	0	45088768	60	17886
2026-01-29 11:03:05.83	171.44	7.18	-51.2	-52.8	17.1	0.00e+00	0	45	0	50331648	60	17026
2026-01-29 11:03:06.83	171.47	7.25	-51.2	-52.8	17.0	0.00e+00	0	45	0	55574528	60	17137
2026-01-29 11:03:07.84	171.50	7.33	-51.4	-53.0	16.8	0.00e+00	0	45	0	61865984	60	17577
2026-01-29 11:03:08.84	171.53	7.41	-51.4	-53.0	16.8	0.00e+00	0	45	0	68157440	60	17564
2026-01-29 11:03:09.84	171.56	7.48	-51.5	-53.2	16.7	0.00e+00	0	45	0	73400320	60	18007
2026-01-29 11:03:10.85	171.60	7.56	-51.6	-53.4	16.6	0.00e+00	0	45	0	78643200	60	18276
2026-01-29 11:03:11.85	171.63	7.64	-51.7	-53.5	16.4	0.00e+00	0	45	0	84934656	60	18471
2026-01-29 11:03:12.86	171.66	7.72	-51.9	-53.8	16.3	0.00e+00	0	45	0	90177536	60	19084
2026-01-29 11:03:13.87	171.69	7.80	-51.8	-53.6	16.3	0.00e+00	0	45	0	95420416	60	18693
2026-01-29 11:03:14.87	171.73	7.88	-51.9	-53.7	16.2	0.00e+00	0	45	0	101711872	60	19042
2026-01-29 11:03:15.88	171.76	7.96	-52.0	-53.8	16.2	0.00e+00	0	45	0	106954752	60	19106
2026-01-29 11:03:16.89	171.79	8.04	-52.3	-54.2	15.8	0.00e+00	0	45	0	112197632	60	20166
2026-01-29 11:03:17.90	171.83	8.12	-52.4	-54.3	15.8	0.00e+00	0	45	0	118489088	60	20294
2026-01-29 11:03:18.90	171.86	8.20	-52.5	-54.4	15.5	0.00e+00	0	45	0	123731968	60	20596
2026-01-29 11:03:19.91	171.89	8.28	-51.9	-53.6	16.5	0.00e+00	0	45	0	130023424	60	18769
2026-01-29 11:03:20.91	171.93	8.36	-50.8	-52.3	17.9	0.00e+00	0	45	0	135266304	60	16081
2026-01-29 11:03:21.92	171.96	8.44	-49.9	-51.1	19.0	0.00e+00	0	45	0	140509184	60	14127
2026-01-29 11:03:22.93	172.00	8.52	-49.2	-50.3	19.8	0.00e+00	0	45	0	146800640	60	12830
2026-01-29 11:03:23.93	172.03	8.60	-48.5	-49.6	20.4	0.00e+00	0	45	0	153092096	60	11831
2026-01-29 11:03:24.94	172.06	8.68	-48.2	-49.2	20.8	0.00e+00	0	45	0	158334976	60	11292
2026-01-29 11:03:25.95	172.10	8.76	-47.9	-48.9	21.1	0.00e+00	0	45	0	163577856	60	10874
2026-01-29 11:03:26.95	172.13	8.84	-47.8	-48.8	21.2	0.00e+00	0	45	0	169869312	60	10770
2026-01-29 11:03:27.95	172.17	8.93	-47.8	-48.8	21.2	0.00e+00	0	45	0	175112192	60	10745
2026-01-29 11:03:28.96	172.20	9.01	-47.7	-48.7	21.2	0.00e+00	0	45	0	180355072	60	10627
2026-01-29 11:03:29.97	172.24	9.09	-47.8	-48.8	21.1	0.00e+00	0	45	0	186646528	60	10825
2026-01-29 11:03:30.98	172.28	9.18	-47.9	-48.9	21.0	0.00e+00	0	45	0	191889408	60	10902
2026-01-29 11:03:31.99	172.31	9.26	-48.0	-49.0	21.0	0.00e+00	0	45	0	197132288	60	11015
2026-01-29 11:03:32.99	172.35	9.34	-48.2	-49.2	20.8	0.00e+00	0	45	0	203423744	60	11285
2026-01-29 11:03:33.99	172.38	9.43	-48.2	-49.2	20.8	0.00e+00	0	45	0	208666624	60	11268
2026-01-29 11:03:35.00	172.42	9.51	-48.4	-49.4	20.6	0.00e+00	0	45	0	214958080	60	11599
2026-01-29 11:03:36.00	172.46	9.59	-48.4	-49.4	20.6	0.00e+00	0	45	0	220200960	60	11607
2026-01-29 11:03:37.01	172.49	9.68	-48.5	-49.5	20.5	0.00e+00	0	45	0	225443840	60	11749
2026-01-29 11:03:38.01	172.53	9.76	-48.8	-49.9	20.3	0.00e+00	0	45	0	231735296	60	12221
2026-01-29 11:03:39.02	172.57	9.85	-49.0	-50.1	19.8	0.00e+00	0	45	0	236978176	60	12555
2026-01-29 11:03:40.03	172.60	9.94	-49.2	-50.3	19.8	0.00e+00	0	45	0	242221056	60	12883
2026-01-29 11:03:41.03	172.64	10.02	-48.7	-49.7	20.3	0.00e+00	0	45	0	248512512	60	12014
2026-01-29 11:03:42.04	172.68	10.11	-48.6	-49.6	20.5	0.00e+00	0	45	0	254803968	60	11851
2026-01-29 11:03:43.04	172.72	10.19	-48.8	-49.9	20.3	0.00e+00	0	45	0	260046848	60	12239
2026-01-29 11:03:44.04	172.75	10.28	-49.2	-50.3	19.8	0.00e+00	0	45	0	265289728	60	12803
2026-01-29 11:03:45.05	172.79	10.37	-49.4	-50.6	19.6	0.00e+00	0	45	0	271581184	60	13201
2026-01-29 11:03:46.04	172.83	10.45	-49.5	-50.6	19.7	0.00e+00	0	45	0	276824064	60	13305
2026-01-29 11:03:47.05	172.87	10.54	-49.2	-50.3	19.9	0.00e+00	0	45	0	282066944	60	12863
2026-01-29 11:03:48.06	172.91	10.63	-49.1	-50.3	19.8	0.00e+00	0	45	0	288358400	60	12775
2026-01-29 11:03:49.07	172.95	10.72	-49.3	-50.4	19.7	0.00e+00	0	45	0	293601280	60	12991
2026-01-29 11:03:50.07	172.99	10.81	-49.5	-50.7	19.4	0.00e+00	0	45	0	299892736	60	13444
2026-01-29 11:03:51.07	173.02	10.89	-49.7	-50.9	19.2	0.00e+00	0	45	0	305135616	60	13739
2026-01-29 11:03:52.08	173.06	10.98	-50.1	-51.4	19.0	0.00e+00	0	45	0	310378496	60	14635
2026-01-29 11:03:53.09	173.10	11.07	-50.3	-51.6	18.5	0.00e+00	0	45	0	316669952	60	14939
2026-01-29 11:03:54.09	173.14	11.16	-50.9	-52.4	18.2	0.00e+00	0	45	0	321912832	60	16322
2026-01-29 11:03:55.10	173.19	11.25	-51.1	-52.6	17.8	0.00e+00	0	45	0	327155712	60	16651
2026-01-29 11:03:56.11	173.23	11.34	-51.0	-52.4	17.8	0.00e+00	0	45	0	333447168	60	16352
2026-01-29 11:03:57.12	173.27	11.43	-51.3	-52.8	17.5	0.00e+00	0	45	0	338690048	60	17080
2026-01-29 11:03:58.12	173.31	11.53	-51.9	-53.6	16.6	0.00e+00	0	45	0	344981504	60	18657
2026-01-29 11:03:59.13	173.35	11.62	-52.1	-53.8	16.3	0.00e+00	0	45	0	350224384	60	19143
2026-01-29 11:04:00.14	173.39	11.71	-52.5	-54.3	15.8	0.00e+00	0	45	0	356515840	60	20347
2026-01-29 11:04:01.14	173.43	11.80	-52.9	-54.9	15.3	0.00e+00	0	45	0	361758720	60	21799
2026-01-29 11:04:02.15	173.47	11.89	-53.1	-55.2	14.9	0.00e+00	0	45	0	367001600	60	22557
2026-01-29 11:04:03.15	173.52	11.99	-53.1	-55.2	15.2	0.00e+00	0	45	0	373293056	60	22427
2026-01-29 11:04:04.16	173.56	12.08	-53.0	-55.0	15.3	0.00e+00	0	45	0	378535936	60	21933
2026-01-29 11:04:05.16	173.60	12.17	-53.3	-55.5	14.7	0.00e+00	0	45	0	384827392	60	23426
2026-01-29 11:04:06.17	173.64	12.27	-53.4	-55.7	14.5	0.00e+00	0	45	0	390070272	60	23798
2026-01-29 11:04:07.17	173.69	12.36	-53.6	-55.9	14.3	1.10e-06	0	46	0	395313152	60	24381
2026-01-29 11:04:08.18	173.73	12.46	-53.9	-56.4	13.5	4.50e-06	0	45	0	401604608	60	25952
2026-01-29 11:04:09.18	173.77	12.55	-54.0	-56.5	13.6	6.80e-06	0	45	0	406847488	60	26128
2026-01-29 11:04:10.19	173.82	12.64	-54.6	-57.4	12.9	8.00e-06	0	45	0	412090368	60	29101
2026-01-29 11:04:11.19	173.86	12.74	-54.7	-57.6	12.6	4.92e-05	0	45	0	418381824	60	29747
2026-01-29 11:04:12.20	173.91	12.84	-54.8	-57.7	12.4	7.78e-05	0	46	0	423624704	60	30087
2026-01-29 11:04:13.20	173.95	12.93	-54.9	-57.9	12.2	2.30e-04	0	45	0	429916160	60	30927
2026-01-29 11:04:14.21	174.00	13.03	-55.3	-58.6	11.6	8.50e-04	0	45	0	435159040	60	33410
2026-01-29 11:04:15.21	174.04	13.13	-55.8	-59.7	9.9	1.82e-03	0	46	0	440401920	60	37920
2026-01-29 11:04:16.21	174.09	13.22	-56.0	-60.0	9.5	7.97e-03	0	46	0	446693376	60	39264
2026-01-29 11:04:17.22	174.13	13.32	-56.3	-60.7	9.2	1.46e-02	0	45	0	451936256	60	42490
2026-01-29 11:04:18.23	174.18	13.42	-56.5	-61.3	8.2	2.94e-02	0	46	0	457179136	60	45584
2026-01-29 11:04:19.23	174.23	13.52	-56.8	-61.9	7.3	7.11e-02	0	46	0	463470592	60	48791
2026-01-29 11:04:20.24	174.27	13.62	-57.0	-62.5	6.9	1.75e-01	0	46	0	469762048	60	51961
2026-01-29 11:04:21.25	174.32	13.72	-57.2	-63.2	5.8	1.91e-01	0	46	0	475004928	60	56859
2026-01-29 11:04:22.25	174.37	13.82	-57.2	-63.3	5.8	3.10e-01	0	46	0	480247808	60	57244
2026-01-29 11:04:23.26	174.42	13.92	-57.3	-63.8	5.6	5.34e-01	0	46	0	485490688	60	60653
2026-01-29 11:04:24.27	174.46	14.02	-57.4	-64.2	5.1	5.79e-01	0	46	0	489684992	60	63328
2026-01-29 11:04:25.27	174.51	14.12	-56.4	-61.0	9.0	8.34e-02	0	46	0	494927872	60	44045
2026-01-29 11:04:26.28	174.56	14.22	-51.3	-52.7	18.0	0.00e+00	0	46	0	501219328	60	16949
2026-01-29 11:04:27.28	174.61	14.32	-57.7	-68.8	3.6	6.68e-01	0	46	104	504365056	60	108225
2026-01-29 11:04:28.29	174.66	14.42	-51.9	-53.5	17.7	0.00e+00	0	46	104	504365056	60	18504
2026-01-29 11:04:29.30	174.71	14.53	-57.8	-66.2	4.0	7.74e-01	0	46	0	3145728	60	79947
2026-01-29 11:04:30.31	174.76	14.63	-49.8	-51.0	19.4	1.14e-05	0	46	0	6291456	60	13862
2026-01-29 11:04:31.32	174.81	14.73	-48.9	-49.9	20.5	0.00e+00	0	46	0	12582912	60	12249
2026-01-29 11:04:32.32	174.86	14.84	-48.1	-49.0	21.3	0.00e+00	0	46	0	17825792	60	11097
2026-01-29 11:04:33.33	174.91	14.94	-47.6	-48.6	21.8	0.00e+00	0	46	0	24117248	60	10489
2026-01-29 11:04:34.34	174.96	15.05	-47.6	-48.5	21.9	0.00e+00	0	45	0	29360128	60	10369
2026-01-29 11:04:35.35	175.01	15.15	-47.5	-48.4	21.9	0.00e+00	0	46	0	35651584	60	10313
2026-01-29 11:04:36.36	175.06	15.26	-47.7	-48.6	21.6	0.00e+00	0	45	0	40894464	60	10551
2026-01-29 11:04:37.36	175.12	15.36	-47.7	-48.6	21.7	0.00e+00	0	46	0	46137344	60	10538
2026-01-29 11:04:38.37	175.17	15.47	-47.8	-48.8	21.6	0.00e+00	0	45	0	52428800	60	10741
2026-01-29 11:04:39.38	175.22	15.58	-47.9	-48.8	21.6	0.00e+00	0	45	0	57671680	60	10750
2026-01-29 11:04:40.39	175.27	15.68	-48.0	-49.0	21.4	0.00e+00	0	46	0	62914560	60	11001
2026-01-29 11:04:41.40	175.33	15.79	-48.2	-49.1	21.3	0.00e+00	0	45	0	69206016	60	11198
2026-01-29 11:04:42.40	175.38	15.90	-48.5	-49.5	21.0	0.00e+00	0	45	0	74448896	60	11669
2026-01-29 11:04:43.41	175.44	16.01	-48.2	-49.1	21.4	0.00e+00	0	45	0	80740352	60	11176
2026-01-29 11:04:44.42	175.49	16.12	-47.8	-48.7	21.8	0.00e+00	0	45	0	85983232	60	10638
2026-01-29 11:04:45.43	175.55	16.23	-47.5	-48.4	22.0	0.00e+00	0	46	0	91226112	60	10275
2026-01-29 11:04:46.44	175.60	16.34	-47.7	-48.6	21.8	0.00e+00	0	46	0	97517568	60	10520
2026-01-29 11:04:47.44	175.66	16.45	-47.9	-48.8	21.5	0.00e+00	0	45	0	103809024	60	10748
2026-01-29 11:04:48.44	175.71	16.56	-48.1	-49.0	21.4	0.00e+00	0	46	0	109051904	60	11061
2026-01-29 11:04:49.45	175.77	16.67	-48.2	-49.2	21.3	0.00e+00	0	46	0	114294784	60	11252
2026-01-29 11:04:50.46	175.83	16.78	-48.6	-49.5	21.0	0.00e+00	0	46	0	120586240	60	11733
2026-01-29 11:04:51.47	175.88	16.90	-48.7	-49.7	20.9	0.00e+00	0	46	0	125829120	60	11926
2026-01-29 11:04:52.47	175.94	17.01	-48.9	-49.8	20.8	0.00e+00	0	46	0	131072000	60	12177
2026-01-29 11:04:53.48	176.00	17.12	-49.1	-50.1	20.6	0.00e+00	0	46	0	137363456	60	12514
2026-01-29 11:04:54.49	176.06	17.24	-48.9	-49.9	20.6	0.00e+00	0	45	0	142606336	60	12276
2026-01-29 11:04:55.50	176.12	17.35	-49.3	-50.4	20.2	0.00e+00	0	45	0	148897792	60	12931
2026-01-29 11:04:56.51	176.18	17.47	-49.2	-50.2	20.2	0.00e+00	0	45	0	154140672	60	12705
2026-01-29 11:04:57.52	176.24	17.59	-49.7	-50.8	20.0	0.00e+00	0	46	0	159383552	60	13556
2026-01-29 11:04:58.52	176.30	17.70	-49.7	-50.8	19.8	0.00e+00	0	46	0	165675008	60	13563
2026-01-29 11:04:59.53	176.36	17.82	-50.0	-51.1	19.7	0.00e+00	0	46	0	170917888	60	14053
2026-01-29 11:05:00.52	176.42	17.93	-50.6	-51.8	19.1	0.00e+00	0	46	0	176160768	60	15280
2026-01-29 11:05:01.53	176.48	18.05	-50.8	-52.0	18.9	0.00e+00	0	46	0	182452224	60	15588
2026-01-29 11:05:02.53	176.54	18.17	-50.5	-51.6	19.0	0.00e+00	0	46	0	188743680	60	14954
2026-01-29 11:05:03.54	176.60	18.29	-51.2	-52.5	18.3	0.00e+00	0	45	0	193986560	60	16577
2026-01-29 11:05:04.55	176.67	18.41	-51.4	-52.8	17.9	0.00e+00	0	46	0	199229440	60	17062
2026-01-29 11:05:05.56	176.73	18.53	-51.6	-53.0	17.8	0.00e+00	0	45	0	205520896	60	17449
2026-01-29 11:05:06.56	176.79	18.65	-52.2	-53.7	17.2	0.00e+00	0	46	0	210763776	60	18957
2026-01-29 11:05:07.57	176.86	18.77	-52.4	-54.0	16.8	0.00e+00	0	46	0	216006656	60	19606
2026-01-29 11:05:08.58	176.92	18.89	-52.6	-54.2	16.6	0.00e+00	0	46	0	222298112	60	20177
2026-01-29 11:05:09.59	176.99	19.01	-53.2	-55.0	15.9	0.00e+00	0	46	0	227540992	60	22119
2026-01-29 11:05:10.59	177.05	19.14	-53.6	-55.5	15.3	0.00e+00	0	46	0	233832448	60	23423
2026-01-29 11:05:11.60	177.12	19.26	-53.7	-55.7	14.7	0.00e+00	0	46	0	239075328	60	23944
2026-01-29 11:05:12.60	177.19	19.38	-54.4	-56.7	14.5	0.00e+00	0	46	0	244318208	60	26652
2026-01-29 11:05:13.61	177.26	19.51	-55.0	-57.6	13.3	2.05e-05	0	46	0	250609664	60	29761
2026-01-29 11:05:14.62	177.32	19.63	-55.4	-58.2	12.7	4.34e-05	0	46	0	255852544	60	31787
2026-01-29 11:05:15.63	177.39	19.76	-55.7	-58.9	11.9	3.03e-04	0	46	0	261095424	60	34366
2026-01-29 11:05:16.64	177.46	19.89	-56.2	-59.8	10.9	1.57e-03	0	46	0	267386880	60	38080
2026-01-29 11:05:17.65	177.53	20.01	-56.4	-60.1	10.6	3.86e-03	0	46	0	273678336	60	39606
2026-01-29 11:05:18.65	177.60	20.14	-56.7	-60.8	9.5	1.19e-02	0	46	0	278921216	60	42966
2026-01-29 11:05:19.66	177.67	20.27	-57.0	-61.4	8.9	2.48e-02	0	46	0	284164096	60	45796
2026-01-29 11:05:20.67	177.74	20.40	-57.1	-61.5	9.2	3.87e-02	0	46	0	290455552	60	46444
2026-01-29 11:05:21.67	177.81	20.53	-57.4	-62.4	7.9	6.76e-02	0	46	0	295698432	60	51804
2026-01-29 11:05:22.68	177.89	20.66	-57.5	-62.5	7.6	8.16e-02	0	46	0	300941312	60	52524
2026-01-29 11:05:23.69	177.96	20.79	-57.6	-62.8	7.7	1.06e-01	0	46	0	307232768	60	53928
2026-01-29 11:05:24.70	178.03	20.92	-57.7	-63.1	7.2	1.16e-01	0	46	0	312475648	60	56138
2026-01-29 11:05:25.70	178.11	21.05	-57.8	-63.5	6.8	1.54e-01	0	46	0	318767104	60	58338
2026-01-29 11:05:26.71	178.18	21.18	-57.9	-63.4	6.9	1.95e-01	0	46	0	324009984	60	57845
2026-01-29 11:05:27.71	178.26	21.32	-57.9	-63.6	6.7	1.77e-01	0	45	0	329252864	60	59214
2026-01-29 11:05:28.71	178.33	21.45	-58.3	-64.6	5.4	2.99e-01	0	46	0	335544320	60	66178
2026-01-29 11:05:29.72	178.41	21.59	-58.2	-65.1	8.0	8.11e-01	0	45	104	335544320	60	70488
2026-01-29 11:05:30.73	178.48	21.72	-47.7	-48.6	21.6	0.00e+00	0	46	0	3145728	60	10521
2026-01-29 11:05:31.74	178.56	21.86	-52.2	-53.4	18.8	5.86e-01	0	46	0	6291456	60	18333
2026-01-29 11:05:32.74	178.64	21.99	-50.9	-52.3	16.9	0.00e+00	0	45	0	12582912	60	16091
2026-01-29 11:05:33.75	178.72	22.13	-54.3	-55.9	16.4	6.81e-01	0	46	0	14680064	60	24395
2026-01-29 11:05:34.76	178.80	22.27	-48.2	-49.0	22.0	0.00e+00	0	46	0	20971520	60	11105
2026-01-29 11:05:35.76	178.88	22.41	-48.2	-49.1	22.0	0.00e+00	0	46	0	26214400	60	11137
2026-01-29 11:05:36.76	178.96	22.55	-48.1	-49.0	22.0	0.00e+00	0	46	0	32505856	60	11050
2026-01-29 11:05:37.77	179.04	22.69	-48.7	-49.7	21.5	0.00e+00	0	45	0	37748736	60	11905
2026-01-29 11:05:38.78	179.12	22.83	-49.0	-49.9	21.3	0.00e+00	0	46	0	42991616	60	12263
2026-01-29 11:05:39.79	179.21	22.97	-49.3	-50.3	20.8	0.00e+00	0	46	0	49283072	60	12812
2026-01-29 11:05:40.80	179.29	23.11	-49.4	-50.3	20.5	0.00e+00	0	45	0	54525952	60	12899
2026-01-29 11:05:41.81	179.38	23.26	-49.7	-50.7	20.2	0.00e+00	0	45	0	59768832	60	13480
2026-01-29 11:05:42.81	179.46	23.40	-50.0	-51.0	20.0	0.00e+00	0	46	0	66060288	60	13951
2026-01-29 11:05:43.82	179.55	23.54	-50.3	-51.4	19.7	0.00e+00	0	46	0	71303168	60	14510
2026-01-29 11:05:44.83	179.64	23.69	-50.9	-52.1	19.4	0.00e+00	0	45	0	77594624	60	15748
2026-01-29 11:05:45.84	179.72	23.84	-51.3	-52.5	19.1	0.00e+00	0	45	0	82837504	60	16448
2026-01-29 11:05:46.85	179.81	23.98	-51.5	-52.7	18.7	0.00e+00	0	45	0	89128960	60	16871
2026-01-29 11:05:47.86	179.90	24.13	-52.4	-53.8	18.1	0.00e+00	0	45	0	94371840	60	19149
2026-01-29 11:05:48.86	179.99	24.28	-52.9	-54.4	17.4	0.00e+00	0	45	0	99614720	60	20619
2026-01-29 11:05:49.87	180.08	24.43	-53.0	-54.5	17.1	0.00e+00	0	45	0	105906176	60	20733
2026-01-29 11:05:50.88	180.17	24.58	-53.9	-55.6	16.5	0.00e+00	0	46	0	111149056	60	23675
2026-01-29 11:05:51.89	180.27	24.73	-54.2	-56.0	15.9	0.00e+00	0	45	0	117440512	60	24818
2026-01-29 11:05:52.89	180.36	24.88	-54.3	-56.1	15.7	0.00e+00	0	45	0	122683392	60	25135
2026-01-29 11:05:53.90	180.45	25.03	-55.4	-57.6	14.8	0.00e+00	0	46	0	127926272	60	29635
2026-01-29 11:05:54.91	180.55	25.19	-55.9	-58.3	13.8	3.40e-06	0	45	0	134217728	60	32051
2026-01-29 11:05:55.91	180.65	25.34	-56.0	-58.5	13.5	4.92e-05	0	46	0	139460608	60	32784
2026-01-29 11:05:56.92	180.74	25.49	-56.9	-60.0	12.2	1.40e-04	0	46	0	144703488	60	39314
2026-01-29 11:05:57.93	180.84	25.65	-57.4	-60.8	11.1	9.14e-04	0	46	0	150994944	60	43073
2026-01-29 11:05:58.94	180.94	25.81	-57.7	-61.6	10.1	3.85e-03	0	46	0	157286400	60	46946
2026-01-29 11:05:59.94	181.04	25.96	-57.9	-61.8	10.0	1.64e-02	0	46	0	162529280	60	48194
2026-01-29 11:06:00.95	181.14	26.12	-58.4	-63.1	8.6	2.14e-02	0	46	0	167772160	60	56301
2026-01-29 11:06:01.96	181.24	26.28	-58.5	-63.4	8.1	4.57e-02	0	46	0	174063616	60	58146
2026-01-29 11:06:02.97	181.34	26.44	-58.6	-63.4	8.0	9.28e-02	0	46	0	179306496	60	58225
2026-01-29 11:06:03.98	181.45	26.60	-58.9	-64.5	6.9	1.22e-01	0	46	0	184549376	60	65464
2026-01-29 11:06:04.99	181.55	26.76	-59.0	-64.7	6.5	1.67e-01	0	46	0	190840832	60	67577
2026-01-29 11:06:06.00	181.66	26.93	-59.1	-65.1	6.1	2.39e-01	0	46	0	196083712	60	70728
2026-01-29 11:06:07.01	181.77	27.09	-59.2	-65.4	5.8	3.69e-01	0	46	0	202375168	60	72711
2026-01-29 11:06:08.01	181.87	27.25	-59.3	-65.6	5.6	4.19e-01	0	46	0	207618048	60	74759
2026-01-29 11:06:09.02	181.98	27.42	-59.6	-67.0	4.4	7.70e-01	0	46	0	209715200	60	87373
2026-01-29 11:06:10.03	182.09	27.59	-46.8	-47.6	23.2	1.76e-02	0	46	0	212860928	60	9372
2026-01-29 11:06:11.03	182.20	27.75	-56.5	-59.1	11.8	0.00e+00	0	45	0	219152384	60	35211
2026-01-29 11:06:12.04	182.32	27.92	-58.9	-64.1	6.3	4.99e-02	0	46	0	224395264	60	62714
2026-01-29 11:06:13.05	182.43	28.09	-57.8	-61.0	11.7	7.09e-02	0	46	0	229638144	60	44132
2026-01-29 11:06:14.06	182.54	28.26	-57.7	-61.1	10.9	9.61e-04	0	46	0	235929600	60	44357
2026-01-29 11:06:15.07	182.66	28.43	-58.1	-61.9	10.3	3.44e-03	0	46	0	241172480	60	48716
2026-01-29 11:06:16.08	182.78	28.60	-57.5	-60.8	11.7	3.23e-03	0	46	0	246415360	60	42778
2026-01-29 11:06:17.09	182.90	28.77	-56.2	-58.5	14.4	4.46e-05	0	45	0	252706816	60	32895
2026-01-29 11:06:18.09	183.01	28.95	-54.7	-56.4	16.4	0.00e+00	0	46	0	257949696	60	25793
2026-01-29 11:06:19.10	183.13	29.12	-53.3	-54.6	18.2	0.00e+00	0	46	0	264241152	60	21057
2026-01-29 11:06:20.11	183.26	29.30	-52.2	-53.3	19.4	0.00e+00	0	46	0	269484032	60	18197
2026-01-29 11:06:21.12	183.38	29.47	-51.4	-52.5	20.2	0.00e+00	0	46	0	274726912	60	16441
2026-01-29 11:06:22.13	183.50	29.65	-51.0	-52.0	20.7	0.00e+00	0	46	0	281018368	60	15537
2026-01-29 11:06:23.13	183.63	29.83	-50.2	-51.2	21.6	0.00e+00	0	46	0	287309824	60	14159
2026-01-29 11:06:24.14	183.76	30.01	-49.1	-49.9	22.7	0.00e+00	0	46	0	292552704	60	12276
2026-01-29 11:06:25.14	183.88	30.19	-48.0	-48.7	23.7	0.00e+00	0	46	0	297795584	60	10695
2026-01-29 11:06:26.15	184.01	30.37	-47.0	-47.7	24.3	0.00e+00	0	46	0	304087040	60	9540
2026-01-29 11:06:27.16	184.15	30.55	-46.5	-47.2	24.7	0.00e+00	0	46	0	309329920	60	8951
2026-01-29 11:06:28.16	184.28	30.73	-46.5	-47.1	24.8	0.00e+00	0	46	0	314572800	60	8902
2026-01-29 11:06:29.17	184.41	30.92	-46.7	-47.4	24.6	0.00e+00	0	46	0	320864256	60	9213
2026-01-29 11:06:30.18	184.55	31.10	-46.8	-47.5	24.5	0.00e+00	0	46	0	326107136	60	9308
2026-01-29 11:06:31.19	184.69	31.29	-46.8	-47.5	24.5	0.00e+00	0	45	0	331350016	60	9278
2026-01-29 11:06:32.19	184.82	31.47	-46.8	-47.5	24.4	0.00e+00	0	46	0	337641472	60	9332
2026-01-29 11:06:33.20	184.96	31.66	-46.9	-47.6	24.5	0.00e+00	0	46	0	342884352	60	9376
2026-01-29 11:06:34.21	185.11	31.85	-46.8	-47.5	24.5	0.00e+00	0	46	0	349175808	60	9333
2026-01-29 11:06:35.21	185.25	32.04	-47.0	-47.7	24.5	0.00e+00	0	46	0	354418688	60	9546
2026-01-29 11:06:36.22	185.39	32.23	-47.1	-47.8	24.4	0.00e+00	0	46	0	359661568	60	9605
2026-01-29 11:06:37.23	185.54	32.43	-47.2	-47.9	24.3	0.00e+00	0	46	0	365953024	60	9758
2026-01-29 11:06:38.24	185.69	32.62	-47.6	-48.3	24.0	0.00e+00	0	46	0	372244480	60	10243
2026-01-29 11:06:39.25	185.84	32.81	-47.9	-48.7	23.7	0.00e+00	0	46	0	377487360	60	10641
2026-01-29 11:06:40.25	185.99	33.01	-48.2	-49.0	23.5	0.00e+00	0	46	0	382730240	60	10995
2026-01-29 11:06:41.26	186.15	33.21	-48.4	-49.2	23.5	0.00e+00	0	46	0	389021696	60	11236
2026-01-29 11:06:42.27	186.30	33.40	-48.5	-49.2	23.4	0.00e+00	0	46	0	394264576	60	11363
2026-01-29 11:06:43.28	186.46	33.60	-48.8	-49.6	23.4	0.00e+00	0	46	0	399507456	60	11791
2026-01-29 11:06:44.29	186.62	33.80	-48.9	-49.7	23.4	0.00e+00	0	46	0	405798912	60	11968
2026-01-29 11:06:45.29	186.78	34.00	-49.1	-49.9	22.9	0.00e+00	0	46	0	411041792	60	12273
2026-01-29 11:06:46.30	186.94	34.20	-49.3	-50.1	23.0	0.00e+00	0	46	0	416284672	60	12508
2026-01-29 11:06:47.31	187.11	34.41	-49.7	-50.5	22.4	0.00e+00	0	46	0	422576128	60	13143
2026-01-29 11:06:48.31	187.28	34.61	-49.9	-50.8	22.1	0.00e+00	0	46	0	427819008	60	13548
2026-01-29 11:06:49.32	187.45	34.82	-50.2	-51.1	22.1	0.00e+00	0	46	0	434110464	60	14024
2026-01-29 11:06:50.32	187.62	35.02	-50.9	-51.8	21.4	0.00e+00	0	46	0	439353344	60	15189
2026-01-29 11:06:51.33	187.79	35.23	-51.2	-52.2	21.0	0.00e+00	0	46	0	444596224	60	15928
2026-01-29 11:06:52.34	187.97	35.44	-51.6	-52.6	20.6	0.00e+00	0	45	0	450887680	60	16660
2026-01-29 11:06:53.35	188.14	35.65	-52.4	-53.5	19.9	0.00e+00	0	46	0	457179136	60	18566
2026-01-29 11:06:54.35	188.32	35.86	-52.7	-53.8	19.5	0.00e+00	0	46	0	462422016	60	19245
2026-01-29 11:06:55.36	188.51	36.07	-52.8	-53.9	19.3	0.00e+00	0	46	0	467664896	60	19397
2026-01-29 11:06:56.37	188.69	36.28	-53.6	-54.9	18.6	0.00e+00	0	46	0	473956352	60	21735
2026-01-29 11:06:57.37	188.88	36.49	-54.0	-55.3	18.1	0.00e+00	0	46	0	479199232	60	22752
2026-01-29 11:06:58.38	189.07	36.71	-54.2	-55.6	17.8	0.00e+00	0	46	0	484442112	60	23613
2026-01-29 11:06:59.39	189.26	36.92	-55.1	-56.7	16.9	0.00e+00	0	46	0	490733568	60	26703
2026-01-29 11:07:00.39	189.45	37.14	-55.6	-57.3	16.1	0.00e+00	0	46	0	495976448	60	28822
2026-01-29 11:07:01.40	189.65	37.36	-56.1	-58.0	15.4	0.00e+00	0	46	0	501219328	60	31213
2026-01-29 11:07:02.40	189.85	37.57	-56.5	-58.5	15.0	0.00e+00	0	46	0	507510784	60	32933
2026-01-29 11:07:03.41	190.05	37.79	-56.9	-59.1	14.3	6.80e-06	0	46	0	512753664	60	35368
2026-01-29 11:07:04.42	190.26	38.02	-57.8	-60.6	12.7	1.71e-05	0	46	0	519045120	60	42085
2026-01-29 11:07:05.43	190.46	38.24	-57.9	-60.7	12.2	2.31e-04	0	46	0	524288000	60	42571
2026-01-29 11:07:06.43	190.67	38.46	-58.5	-61.8	11.9	1.13e-03	0	46	0	530579456	60	48175
2026-01-29 11:07:07.44	190.89	38.69	-58.7	-62.2	10.6	2.69e-03	0	46	0	535822336	60	50739
2026-01-29 11:07:08.45	191.10	38.91	-58.8	-62.4	10.4	5.43e-03	0	46	0	542113792	60	51896
2026-01-29 11:07:09.45	191.32	39.14	-59.0	-63.0	10.5	7.03e-03	0	46	0	547356672	60	55072
2026-01-29 11:07:10.46	191.54	39.36	-59.1	-63.1	10.0	1.53e-02	0	46	0	552599552	60	56038
2026-01-29 11:07:11.47	191.77	39.59	-59.3	-63.7	8.7	1.80e-02	0	46	0	558891008	60	60284
2026-01-29 11:07:12.48	192.00	39.82	-59.5	-64.1	8.4	4.10e-02	0	46	0	564133888	60	62860
2026-01-29 11:07:13.48	192.23	40.05	-59.7	-64.6	7.7	9.20e-02	0	46	0	569376768	60	66231
2026-01-29 11:07:14.49	192.46	40.28	-59.9	-65.2	7.6	1.37e-01	0	46	0	575668224	60	70980
2026-01-29 11:07:15.50	192.70	40.52	-60.0	-65.5	6.7	1.47e-01	0	46	0	580911104	60	74168
2026-01-29 11:07:16.50	192.94	40.75	-60.2	-66.0	6.3	2.96e-01	0	46	0	586153984	60	77869
2026-01-29 11:07:17.51	193.19	40.98	-60.3	-66.3	6.0	2.90e-01	0	46	0	592445440	60	81283
2026-01-29 11:07:18.52	193.44	41.22	-60.4	-66.6	5.7	3.91e-01	0	46	0	597688320	60	83463
2026-01-29 11:07:19.53	193.69	41.46	-60.6	-67.5	5.0	6.89e-01	0	46	0	601882624	60	92652
2026-01-29 11:07:20.54	193.94	41.69	-58.0	-60.2	16.8	3.93e-01	0	46	0	602931200	60	40280
2026-01-29 11:07:21.54	194.20	41.93	-52.9	-54.1	19.5	0.00e+00	0	46	0	608174080	60	19754
2026-01-29 11:07:22.55	194.47	42.17	-51.1	-51.9	22.6	2.40e-04	0	46	0	614465536	60	15393
2026-01-29 11:07:23.56	194.73	42.41	-60.3	-65.6	7.8	2.90e-01	0	46	0	619708416	60	74874
2026-01-29 11:07:24.57	195.01	42.65	-52.9	-54.0	19.8	0.00e+00	0	46	0	624951296	60	19622
2026-01-29 11:07:25.57	195.28	42.89	-51.5	-52.4	21.2	0.00e+00	0	46	0	631242752	60	16380
2026-01-29 11:07:26.58	195.56	43.13	-50.6	-51.5	22.0	0.00e+00	0	46	0	636485632	60	14657
2026-01-29 11:07:27.58	195.84	43.37	-50.0	-50.8	22.6	0.00e+00	0	46	0	642777088	60	13655
2026-01-29 11:07:28.59	196.13	43.62	-49.8	-50.6	22.7	0.00e+00	0	46	0	648019968	60	13280
2026-01-29 11:07:29.60	196.42	43.86	-49.8	-50.7	22.7	0.00e+00	0	45	0	653262848	60	13355
2026-01-29 11:07:30.60	196.71	44.11	-49.9	-50.7	22.6	0.00e+00	0	46	0	659554304	60	13408
2026-01-29 11:07:31.61	197.02	44.36	-50.2	-51.1	22.2	0.00e+00	0	46	0	664797184	60	14051
2026-01-29 11:07:32.62	197.32	44.60	-50.5	-51.4	21.9	0.00e+00	0	46	0	670040064	60	14495
2026-01-29 11:07:33.63	197.63	44.85	-50.7	-51.5	21.8	0.00e+00	0	46	0	676331520	60	14810
2026-01-29 11:07:34.64	197.95	45.10	-50.8	-51.7	21.7	0.00e+00	0	46	0	682622976	60	15113
2026-01-29 11:07:35.65	198.27	45.35	-50.8	-51.7	21.7	0.00e+00	0	46	0	687865856	60	14995
2026-01-29 11:07:36.65	198.59	45.60	-51.6	-52.6	20.9	0.00e+00	0	46	0	693108736	60	16726
2026-01-29 11:07:37.66	198.92	45.85	-52.2	-53.2	20.2	0.00e+00	0	46	0	699400192	60	17897
2026-01-29 11:07:38.67	199.26	46.10	-52.6	-53.6	19.5	0.00e+00	0	46	0	704643072	60	18844
2026-01-29 11:07:39.68	199.60	46.35	-53.4	-54.6	19.1	0.00e+00	0	46	0	709885952	60	20986
2026-01-29 11:07:40.69	199.95	46.60	-53.9	-55.2	17.9	0.00e+00	0	46	0	716177408	60	22623
2026-01-29 11:07:41.69	200.29	46.85	-54.5	-56.0	17.5	0.00e+00	0	46	0	721420288	60	24636
2026-01-29 11:07:42.70	200.65	47.10	-55.0	-56.6	16.6	0.00e+00	0	46	0	727711744	60	26439
2026-01-29 11:07:43.71	201.02	47.36	-56.0	-57.9	15.8	0.00e+00	0	46	0	732954624	60	30701
2026-01-29 11:07:44.72	201.39	47.61	-56.8	-59.0	14.4	0.00e+00	0	46	0	738197504	60	35001
2026-01-29 11:07:45.73	201.76	47.86	-57.1	-59.5	14.1	4.50e-06	0	46	0	744488960	60	36805
2026-01-29 11:07:46.73	202.14	48.11	-56.9	-59.1	14.5	3.40e-06	0	46	0	750780416	60	35250
2026-01-29 11:07:47.74	202.53	48.37	-54.8	-56.3	17.4	0.00e+00	0	46	0	756023296	60	25616
2026-01-29 11:07:48.75	202.92	48.62	-52.5	-53.6	20.1	0.00e+00	0	46	0	761266176	60	18683
2026-01-29 11:07:49.76	203.32	48.88	-50.8	-51.7	21.8	0.00e+00	0	46	0	767557632	60	14999
2026-01-29 11:07:50.77	203.73	49.13	-49.6	-50.4	22.9	0.00e+00	0	46	0	772800512	60	12948
2026-01-29 11:07:51.77	204.14	49.38	-48.7	-49.5	23.7	0.00e+00	0	46	0	778043392	60	11675
2026-01-29 11:07:52.78	204.56	49.64	-48.0	-48.7	24.4	0.00e+00	0	46	0	784334848	60	10652
2026-01-29 11:07:53.79	204.99	49.89	-47.4	-48.1	24.9	0.00e+00	0	46	0	789577728	60	9902
2026-01-29 11:07:54.79	205.42	50.14	-47.1	-47.8	25.1	0.00e+00	0	46	0	794820608	60	9663
2026-01-29 11:07:55.79	205.85	50.39	-47.0	-47.7	25.1	0.00e+00	0	46	0	801112064	60	9502
2026-01-29 11:07:56.80	206.30	50.64	-47.0	-47.6	25.1	0.00e+00	0	46	0	806354944	60	9438
2026-01-29 11:07:57.80	206.75	50.89	-47.1	-47.8	25.2	0.00e+00	0	46	0	812646400	60	9573
2026-01-29 11:07:58.81	207.22	51.14	-47.5	-48.2	24.7	0.00e+00	0	46	0	817889280	60	10058
2026-01-29 11:07:59.82	207.69	51.39	-47.8	-48.5	24.6	0.00e+00	0	46	0	823132160	60	10390
2026-01-29 11:08:00.83	208.17	51.64	-48.0	-48.7	24.3	0.00e+00	0	46	0	829423616	60	10698
2026-01-29 11:08:01.83	208.65	51.89	-48.1	-48.8	24.2	0.00e+00	0	46	0	835715072	60	10787
2026-01-29 11:08:02.84	209.15	52.14	-47.9	-48.6	24.4	0.00e+00	0	46	0	840957952	60	10565
2026-01-29 11:08:03.85	209.65	52.39	-47.8	-48.5	24.5	0.00e+00	0	46	0	846200832	60	10409
2026-01-29 11:08:04.85	210.16	52.63	-48.0	-48.7	24.6	0.00e+00	0	46	0	852492288	60	10637
2026-01-29 11:08:05.86	210.68	52.88	-47.8	-48.5	24.5	0.00e+00	0	46	0	857735168	60	10377
2026-01-29 11:08:06.86	211.21	53.12	-48.0	-48.7	24.5	0.00e+00	0	46	0	862978048	60	10640
2026-01-29 11:08:07.87	211.74	53.36	-48.2	-48.9	24.1	0.00e+00	0	46	0	869269504	60	10970
2026-01-29 11:08:08.88	212.29	53.60	-48.5	-49.3	23.8	0.00e+00	0	46	0	874512384	60	11434
2026-01-29 11:08:09.88	212.84	53.84	-48.7	-49.4	23.7	0.00e+00	0	46	0	879755264	60	11603
2026-01-29 11:08:10.88	213.40	54.08	-47.8	-48.5	24.6	0.00e+00	0	46	0	886046720	60	10481
2026-01-29 11:08:11.89	213.98	54.31	-47.2	-47.8	25.1	0.00e+00	0	46	0	891289600	60	9662
2026-01-29 11:08:12.89	214.56	54.54	-47.1	-47.7	25.1	0.00e+00	0	46	0	897581056	60	9540
2026-01-29 11:08:13.90	215.15	54.78	-47.3	-48.0	24.8	0.00e+00	0	46	0	902823936	60	9867
2026-01-29 11:08:14.91	215.75	55.01	-47.6	-48.3	24.5	0.00e+00	0	46	0	908066816	60	10221
2026-01-29 11:08:15.91	216.36	55.24	-47.7	-48.4	24.5	0.00e+00	0	46	0	914358272	60	10332
2026-01-29 11:08:16.92	216.98	55.46	-47.3	-48.0	24.9	0.00e+00	0	46	0	919601152	60	9832
2026-01-29 11:08:17.93	217.62	55.69	-46.8	-47.4	25.3	0.00e+00	0	46	0	924844032	60	9225
2026-01-29 11:08:18.93	218.25	55.91	-47.0	-47.7	25.1	0.00e+00	0	46	0	931135488	60	9475
2026-01-29 11:08:19.94	218.91	56.12	-47.3	-48.0	24.9	0.00e+00	0	46	0	937426944	60	9789
2026-01-29 11:08:20.94	219.56	56.34	-47.3	-48.0	24.8	0.00e+00	0	46	0	942669824	60	9841
2026-01-29 11:08:21.94	220.23	56.55	-47.5	-48.3	24.5	0.00e+00	0	46	0	947912704	60	10163
2026-01-29 11:08:22.95	220.91	56.76	-47.8	-48.6	24.3	0.00e+00	0	46	0	954204160	60	10517
2026-01-29 11:08:23.96	221.61	56.97	-47.1	-47.7	24.9	0.00e+00	0	46	0	959447040	60	9554
2026-01-29 11:08:24.96	222.30	57.17	-46.7	-47.3	25.3	0.00e+00	0	46	0	964689920	60	9123
2026-01-29 11:08:25.96	223.01	57.37	-47.1	-47.8	24.9	0.00e+00	0	46	0	970981376	60	9577
2026-01-29 11:08:26.96	223.73	57.56	-47.3	-48.0	24.7	0.00e+00	0	46	0	976224256	60	9831
2026-01-29 11:08:27.96	224.46	57.76	-46.9	-47.6	25.0	0.00e+00	0	46	0	982515712	60	9427
2026-01-29 11:08:28.97	225.20	57.94	-47.4	-48.2	24.6	0.00e+00	0	46	0	987758592	60	10044
2026-01-29 11:08:29.97	225.95	58.13	-53.5	-54.8	18.3	0.00e+00	0	46	0	993001472	60	21602
2026-01-29 11:08:30.98	226.72	58.31	-55.1	-56.5	20.1	8.14e-03	0	46	0	999292928	60	26232
2026-01-29 11:08:31.97	227.48	58.48	-61.1	-73.6	3.6	8.45e-01	0	46	104	1000341504	60	187242
2026-01-29 11:08:32.98	228.26	58.66	-61.1	-74.5	3.6	8.47e-01	0	46	104	1000341504	60	207962
2026-01-29 11:08:33.98	229.05	58.83	-60.8	-74.5	3.6	8.45e-01	0	46	104	1000341504	60	208146
2026-01-29 11:08:34.99	229.86	58.99	-60.3	-74.5	3.6	8.45e-01	0	46	104	1000341504	60	209098
2026-01-29 11:08:36.00	230.68	59.15	-59.4	-74.5	3.6	8.45e-01	0	46	104	1000341504	60	207055
2026-01-29 11:08:37.00	231.49	59.30	-59.0	-74.1	3.6	8.45e-01	0	46	104	1000341504	60	199570
2026-01-29 11:08:38.01	232.33	59.45	-59.6	-74.6	3.6	8.46e-01	0	46	104	1000341504	60	209482
2026-01-29 11:08:39.01	233.17	59.59	-60.3	-74.8	3.6	8.45e-01	0	46	104	1000341504	60	214251
2026-01-29 11:08:40.01	234.01	59.73	-60.6	-75.0	3.6	8.46e-01	0	46	104	1000341504	60	219523
2026-01-29 11:08:41.02	234.88	59.86	-60.6	-74.7	3.6	8.46e-01	0	46	104	1000341504	60	211963
2026-01-29 11:08:42.02	235.74	59.99	-60.6	-74.5	3.6	8.45e-01	0	46	104	1000341504	60	208814
2026-01-29 11:08:43.03	236.62	60.11	-60.6	-74.8	3.6	8.45e-01	0	46	104	1000341504	60	215019
2026-01-29 11:08:44.03	237.50	60.23	-60.7	-74.8	3.6	8.45e-01	0	46	104	1000341504	60	216004
2026-01-29 11:08:45.04	238.40	60.34	-60.6	-75.0	3.6	8.45e-01	0	46	104	1000341504	60	219278
2026-01-29 11:08:46.05	239.30	60.44	-60.6	-74.8	3.6	8.46e-01	0	46	104	1000341504	60	215968
2026-01-29 11:08:47.05	240.20	60.54	-60.6	-74.8	3.6	8.45e-01	0	46	104	1000341504	60	216484
2026-01-29 11:08:48.06	241.12	60.63	-60.6	-74.9	3.6	8.45e-01	0	46	104	1000341504	60	216586
2026-01-29 11:08:49.06	242.03	60.72	-60.6	-74.7	3.6	8.46e-01	0	46	104	1000341504	60	212070
2026-01-29 11:08:50.06	242.95	60.80	-60.5	-74.7	3.6	8.44e-01	0	46	104	1000341504	60	213845
2026-01-29 11:08:51.06	243.88	60.87	-60.5	-74.7	3.6	8.45e-01	0	46	104	1000341504	60	212451
2026-01-29 11:08:52.07	244.82	60.94	-60.5	-74.8	3.6	8.44e-01	0	46	104	1000341504	60	216189
2026-01-29 11:08:53.07	245.76	61.00	-60.5	-74.9	3.6	8.46e-01	0	46	104	1000341504	60	217986
2026-01-29 11:08:54.07	246.70	61.05	-60.5	-74.8	3.6	8.46e-01	0	46	104	1000341504	60	214705
2026-01-29 11:08:55.07	247.64	61.10	-60.6	-74.8	3.6	8.45e-01	0	46	104	1000341504	60	216203
2026-01-29 11:08:56.08	248.60	61.13	-60.6	-74.8	3.6	8.45e-01	0	46	104	1000341504	60	216550
2026-01-29 11:08:57.08	249.55	61.17	-60.5	-74.8	3.6	8.46e-01	0	46	104	1000341504	60	214578
2026-01-29 11:08:58.08	250.50	61.19	-60.6	-74.7	3.6	8.45e-01	0	46	104	1000341504	60	213471
2026-01-29 11:08:59.09	251.46	61.21	-60.5	-74.8	3.6	8.45e-01	0	46	104	1000341504	60	215318
2026-01-29 11:09:00.09	252.42	61.22	-60.5	-75.0	3.6	8.45e-01	0	46	104	1000341504	60	219100
2026-01-29 11:09:01.09	253.37	61.23	-60.5	-74.6	3.6	8.45e-01	0	46	104	1000341504	60	211207
2026-01-29 11:09:02.10	254.34	61.23	-60.5	-74.7	3.6	8.45e-01	0	46	104	1000341504	60	213832
2026-01-29 11:09:03.10	255.29	61.22	-60.5	-74.6	3.6	8.46e-01	0	46	104	1000341504	60	209673
2026-01-29 11:09:04.11	256.26	61.20	-60.5	-74.7	3.6	8.45e-01	0	46	104	1000341504	60	212386
2026-01-29 11:09:05.11	257.21	61.18	-60.5	-74.8	3.6	8.46e-01	0	46	104	1000341504	60	215299
2026-01-29 11:09:06.12	258.17	61.15	-60.5	-74.7	3.6	8.47e-01	0	46	104	1000341504	60	213168
2026-01-29 11:09:07.12	259.12	61.11	-60.5	-74.8	3.6	8.44e-01	0	46	104	1000341504	60	214958
2026-01-29 11:09:08.13	260.07	61.07	-59.4	-74.3	3.6	8.45e-01	0	46	104	1000341504	60	203864
2026-01-29 11:09:09.13	261.01	61.02	-61.3	-74.9	3.6	8.45e-01	0	46	104	1000341504	60	217326
2026-01-29 11:09:10.14	261.96	60.96	-61.0	-75.0	3.6	8.45e-01	0	46	104	1000341504	60	219319
2026-01-29 11:09:11.15	262.90	60.90	-61.3	-75.1	3.6	8.46e-01	0	46	104	1000341504	60	223089
2026-01-29 11:09:12.15	263.83	60.83	-60.8	-75.1	3.6	8.47e-01	0	46	104	1000341504	60	222492
2026-01-29 11:09:13.15	264.75	60.75	-61.2	-75.0	3.6	8.46e-01	0	46	104	1000341504	60	221065
2026-01-29 11:09:14.16	265.68	60.67	-61.8	-75.1	3.6	8.46e-01	0	46	104	1000341504	60	221865
2026-01-29 11:09:15.17	266.60	60.58	-61.6	-75.1	3.6	8.45e-01	0	46	104	1000341504	60	221957
2026-01-29 11:09:16.17	267.50	60.49	-61.6	-75.1	3.6	8.44e-01	0	46	104	1000341504	60	223076
2026-01-29 11:09:17.18	268.41	60.39	-61.6	-75.1	3.6	8.45e-01	0	46	104	1000341504	60	222925
2026-01-29 11:09:18.18	269.30	60.28	-61.6	-75.0	3.6	8.46e-01	0	46	104	1000341504	60	220060
2026-01-29 11:09:19.18	270.18	60.17	-61.5	-75.0	3.6	8.44e-01	0	46	104	1000341504	60	220627
2026-01-29 11:09:20.19	271.07	60.05	-61.7	-74.9	3.6	8.45e-01	0	46	104	1000341504	60	218336
2026-01-29 11:09:21.20	271.94	59.92	-61.2	-74.9	3.7	8.45e-01	0	46	104	1000341504	60	219026
2026-01-29 11:09:22.21	272.81	59.79	-61.1	-75.3	3.6	8.45e-01	0	46	104	1000341504	60	226990
2026-01-29 11:09:23.21	273.66	59.65	-61.8	-75.3	3.6	8.46e-01	0	46	104	1000341504	60	229291
2026-01-29 11:09:24.21	274.50	59.51	-61.5	-75.2	3.6	8.46e-01	0	46	104	1000341504	60	226126
2026-01-29 11:09:25.22	275.33	59.37	-61.4	-75.1	3.6	8.45e-01	0	46	104	1000341504	60	222371
2026-01-29 11:09:26.23	276.16	59.21	-61.3	-75.1	3.6	8.46e-01	0	46	104	1000341504	60	223097
2026-01-29 11:09:27.23	276.98	59.06	-61.4	-75.0	3.6	8.45e-01	0	46	104	1000341504	60	221375
2026-01-29 11:09:28.24	277.79	58.90	-61.4	-75.1	3.6	8.46e-01	0	46	104	1000341504	60	222455
2026-01-29 11:09:29.24	278.58	58.73	-61.9	-75.1	3.6	8.45e-01	0	46	104	1000341504	60	221928
2026-01-29 11:09:30.25	279.37	58.56	-61.9	-75.1	3.6	8.46e-01	0	46	104	1000341504	60	222426
2026-01-29 11:09:31.26	280.15	58.39	-61.9	-75.0	3.6	8.44e-01	0	46	104	1000341504	60	221388
2026-01-29 11:09:32.26	280.91	58.21	-61.8	-75.0	3.6	8.45e-01	0	46	104	1000341504	60	219599
2026-01-29 11:09:33.26	281.66	58.03	-61.3	-75.1	3.6	8.46e-01	0	46	104	1000341504	60	221633
2026-01-29 11:09:34.27	282.41	57.84	-61.6	-75.3	3.6	8.46e-01	0	46	104	1000341504	60	227139
2026-01-29 11:09:35.27	283.14	57.65	-62.1	-75.4	3.6	8.45e-01	0	46	104	1000341504	60	231162
2026-01-29 11:09:36.28	283.87	57.45	-60.6	-75.4	3.6	8.46e-01	0	46	104	1000341504	60	229888
2026-01-29 11:09:37.28	284.58	57.26	-60.4	-75.5	3.6	8.46e-01	0	46	104	1000341504	60	232739
2026-01-29 11:09:38.29	285.29	57.05	-61.6	-75.9	3.6	8.45e-01	0	46	104	1000341504	60	243965
2026-01-29 11:09:39.29	285.98	56.85	-61.6	-75.9	3.6	8.45e-01	0	46	104	1000341504	60	245419
2026-01-29 11:09:40.30	286.67	56.64	-61.6	-75.9	3.6	8.45e-01	0	46	104	1000341504	60	244030
2026-01-29 11:09:41.31	287.34	56.43	-61.5	-75.8	3.6	8.44e-01	0	46	104	1000341504	60	242044
2026-01-29 11:09:42.32	288.01	56.22	-61.6	-76.0	3.6	8.46e-01	0	46	104	1000341504	60	245878
2026-01-29 11:09:43.33	288.66	56.00	-61.5	-75.8	3.6	8.44e-01	0	46	104	1000341504	60	240263
2026-01-29 11:09:44.33	289.30	55.78	-61.5	-75.8	3.6	8.46e-01	0	46	104	1000341504	60	242053
2026-01-29 11:09:45.33	289.93	55.56	-61.5	-75.7	3.6	8.45e-01	0	46	104	1000341504	60	238866
2026-01-29 11:09:46.33	290.55	55.34	-61.5	-75.8	3.6	8.45e-01	0	46	104	1000341504	60	240910
2026-01-29 11:09:47.34	291.17	55.11	-61.5	-75.8	3.6	8.45e-01	0	46	104	1000341504	60	242082
2026-01-29 11:09:48.35	291.78	54.88	-61.4	-75.7	3.6	8.47e-01	0	46	104	1000341504	60	239766
2026-01-29 11:09:49.35	292.37	54.65	-61.4	-75.7	3.6	8.45e-01	0	46	104	1000341504	60	239305
2026-01-29 11:09:50.36	292.95	54.42	-61.4	-75.7	3.6	8.45e-01	0	46	104	1000341504	60	239619
2026-01-29 11:09:51.37	293.53	54.18	-61.4	-75.7	3.6	8.45e-01	0	46	104	1000341504	60	238730
2026-01-29 11:09:52.38	294.10	53.94	-61.4	-75.8	3.6	8.44e-01	0	46	104	1000341504	60	242571
2026-01-29 11:09:53.37	294.65	53.71	-60.9	-75.6	3.6	8.46e-01	0	46	104	1000341504	60	235735
2026-01-29 11:09:54.38	295.20	53.47	-60.0	-75.2	3.6	8.44e-01	0	46	104	1000341504	60	225261
2026-01-29 11:09:55.39	295.74	53.23	-59.6	-75.1	3.6	8.46e-01	0	46	104	1000341504	60	223250
2026-01-29 11:09:56.40	296.27	52.99	-60.0	-75.3	3.6	8.46e-01	0	46	104	1000341504	60	227854
2026-01-29 11:09:57.40	296.79	52.74	-59.7	-74.9	3.6	8.45e-01	0	46	104	1000341504	60	218908
2026-01-29 11:09:58.41	297.31	52.50	-59.9	-74.8	3.6	8.44e-01	0	46	104	1000341504	60	215484
2026-01-29 11:09:59.42	297.81	52.25	-59.9	-69.7	5.1	8.45e-01	0	46	104	1000341504	60	119844
2026-01-29 11:10:00.42	298.31	52.01	-48.4	-49.1	20.4	0.00e+00	0	46	104	1000341504	60	11167
2026-01-29 11:10:01.43	298.80	51.76	-50.5	-51.4	22.1	0.00e+00	0	46	0	3145728	60	14605
2026-01-29 11:10:02.43	299.27	51.51	-50.0	-50.9	21.7	0.00e+00	0	46	0	9437184	60	13722
2026-01-29 11:10:03.44	299.75	51.26	-59.5	-65.2	12.3	5.25e-01	0	46	0	13631488	60	71009
2026-01-29 11:10:04.45	300.22	51.01	-56.0	-57.9	16.7	0.00e+00	0	46	0	18874368	60	30917
2026-01-29 11:10:05.46	300.67	50.76	-59.7	-63.9	13.3	1.93e-01	0	46	0	24117248	60	61578
2026-01-29 11:10:06.45	301.12	50.52	-60.4	-68.0	5.0	7.28e-01	0	46	0	28311552	60	98893
2026-01-29 11:10:07.46	301.56	50.26	-56.5	-58.6	14.9	0.00e+00	0	46	0	33554432	60	33262
2026-01-29 11:10:08.46	301.99	50.01	-55.2	-56.7	17.0	0.00e+00	0	46	0	39845888	60	26861
2026-01-29 11:10:09.47	302.42	49.76	-53.7	-54.9	18.9	0.00e+00	0	46	0	45088768	60	21906
2026-01-29 11:10:10.47	302.84	49.51	-52.5	-53.6	20.2	0.00e+00	0	46	0	51380224	60	18663
2026-01-29 11:10:11.48	303.26	49.26	-51.7	-52.7	21.1	0.00e+00	0	46	0	56623104	60	16910
2026-01-29 11:10:12.48	303.66	49.01	-51.2	-52.2	21.5	0.00e+00	0	46	0	61865984	60	15885
2026-01-29 11:10:13.49	304.07	48.75	-51.2	-52.1	21.5	0.00e+00	0	46	0	68157440	60	15784
2026-01-29 11:10:14.49	304.46	48.50	-50.9	-51.8	21.6	0.00e+00	0	46	0	73400320	60	15309
2026-01-29 11:10:15.50	304.85	48.25	-51.2	-52.2	21.3	0.00e+00	0	46	0	78643200	60	15951
2026-01-29 11:10:16.51	305.23	48.00	-51.1	-52.2	21.1	0.00e+00	0	46	0	84934656	60	15992
2026-01-29 11:10:17.51	305.61	47.75	-51.1	-52.3	20.9	0.00e+00	0	46	0	90177536	60	16082
2026-01-29 11:10:18.52	305.98	47.50	-51.6	-52.8	20.7	0.00e+00	0	46	0	95420416	60	17092
2026-01-29 11:10:19.52	306.34	47.25	-51.9	-53.1	20.4	0.00e+00	0	46	0	101711872	60	17768
2026-01-29 11:10:20.53	306.70	46.99	-51.6	-52.8	20.5	0.00e+00	0	46	0	106954752	60	17143
2026-01-29 11:10:21.53	307.05	46.74	-50.3	-51.4	21.9	0.00e+00	0	46	0	113246208	60	14592
2026-01-29 11:10:22.53	307.39	46.50	-49.2	-50.0	23.1	0.00e+00	0	46	0	118489088	60	12426
2026-01-29 11:10:23.54	307.74	46.25	-48.1	-48.8	24.0	0.00e+00	0	46	0	124780544	60	10822
2026-01-29 11:10:24.55	308.08	45.99	-47.3	-48.0	24.7	0.00e+00	0	46	0	130023424	60	9826
2026-01-29 11:10:25.55	308.41	45.75	-47.1	-47.9	24.8	0.00e+00	0	46	0	136314880	60	9708
2026-01-29 11:10:26.56	308.73	45.50	-47.4	-48.1	24.7	0.00e+00	0	46	0	141557760	60	9943
2026-01-29 11:10:27.57	309.06	45.25	-47.5	-48.3	24.7	0.00e+00	0	46	0	146800640	60	10241
2026-01-29 11:10:28.57	309.37	45.00	-47.7	-48.4	24.6	0.00e+00	0	46	0	153092096	60	10320
2026-01-29 11:10:29.58	309.68	44.76	-48.2	-49.0	24.2	0.00e+00	0	46	0	158334976	60	11025
2026-01-29 11:10:30.59	309.99	44.51	-48.2	-48.9	24.1	0.00e+00	0	46	0	163577856	60	10899
2026-01-29 11:10:31.59	310.29	44.27	-48.6	-49.5	23.7	0.00e+00	0	46	0	169869312	60	11641
2026-01-29 11:10:32.59	310.59	44.02	-48.7	-49.5	23.5	0.00e+00	0	46	0	175112192	60	11653
2026-01-29 11:10:33.60	310.88	43.78	-49.0	-49.8	23.3	0.00e+00	0	46	0	180355072	60	12064
2026-01-29 11:10:34.61	311.17	43.53	-49.8	-50.7	22.7	0.00e+00	0	46	0	186646528	60	13481
2026-01-29 11:10:35.61	311.45	43.29	-50.0	-51.0	22.2	0.00e+00	0	46	0	191889408	60	13932
2026-01-29 11:10:36.62	311.74	43.05	-49.9	-50.8	22.4	0.00e+00	0	46	0	198180864	60	13641
2026-01-29 11:10:37.62	312.01	42.81	-49.9	-50.8	22.4	0.00e+00	0	46	0	203423744	60	13607
2026-01-29 11:10:38.63	312.28	42.57	-50.0	-50.9	22.2	0.00e+00	0	46	0	209715200	60	13734
2026-01-29 11:10:39.63	312.55	42.33	-49.2	-49.9	23.2	0.00e+00	0	46	0	214958080	60	12276
2026-01-29 11:10:40.64	312.82	42.09	-48.1	-48.8	24.0	0.00e+00	0	46	0	221249536	60	10810
2026-01-29 11:10:41.65	313.08	41.86	-47.5	-48.2	24.6	0.00e+00	0	46	0	226492416	60	10112
2026-01-29 11:10:42.65	313.33	41.62	-46.9	-47.6	25.0	0.00e+00	0	46	0	231735296	60	9363
2026-01-29 11:10:43.66	313.59	41.38	-46.5	-47.3	25.3	0.00e+00	0	46	0	238026752	60	9050
2026-01-29 11:10:44.67	313.84	41.15	-46.4	-47.1	25.4	0.00e+00	0	46	0	243269632	60	8889
2026-01-29 11:10:45.67	314.08	40.92	-46.4	-47.1	25.5	0.00e+00	0	46	0	248512512	60	8921
2026-01-29 11:10:46.68	314.33	40.68	-46.4	-47.1	25.7	0.00e+00	0	46	0	254803968	60	8871
2026-01-29 11:10:47.68	314.56	40.45	-46.1	-46.9	25.8	0.00e+00	0	46	0	260046848	60	8663
2026-01-29 11:10:48.69	314.80	40.22	-46.1	-46.7	25.8	0.00e+00	0	46	0	265289728	60	8479
2026-01-29 11:10:49.69	315.03	39.99	-46.3	-46.9	25.6	0.00e+00	0	46	0	271581184	60	8671
2026-01-29 11:10:50.69	315.26	39.77	-46.1	-46.7	26.0	0.00e+00	0	46	0	276824064	60	8497
2026-01-29 11:10:51.70	315.49	39.54	-46.1	-46.7	25.7	0.00e+00	0	46	0	283115520	60	8498
2026-01-29 11:10:52.71	315.71	39.31	-46.1	-46.9	25.8	0.00e+00	0	46	0	288358400	60	8625
2026-01-29 11:10:53.71	315.93	39.08	-46.1	-46.7	25.8	0.00e+00	0	46	0	293601280	60	8487
2026-01-29 11:10:54.72	316.15	38.86	-46.1	-46.8	25.8	0.00e+00	0	46	0	299892736	60	8599
2026-01-29 11:10:55.72	316.36	38.64	-46.0	-46.8	26.0	0.00e+00	0	46	0	305135616	60	8528
2026-01-29 11:10:56.73	316.57	38.41	-46.0	-46.6	25.9	0.00e+00	0	46	0	311427072	60	8418
2026-01-29 11:10:57.74	316.78	38.19	-45.8	-46.6	26.1	0.00e+00	0	46	0	316669952	60	8359
2026-01-29 11:10:58.74	316.99	37.97	-45.8	-46.4	25.9	0.00e+00	0	46	0	322961408	60	8218
2026-01-29 11:10:59.75	317.19	37.75	-45.9	-46.6	26.0	0.00e+00	0	46	0	328204288	60	8362
2026-01-29 11:11:00.76	317.39	37.53	-45.8	-46.4	26.0	0.00e+00	0	46	0	333447168	60	8157
2026-01-29 11:11:01.76	317.59	37.32	-45.7	-46.3	26.0	0.00e+00	0	46	0	339738624	60	8130
2026-01-29 11:11:02.77	317.79	37.10	-45.8	-46.4	25.9	0.00e+00	0	46	0	344981504	60	8159
2026-01-29 11:11:03.77	317.98	36.89	-45.8	-46.6	25.9	0.00e+00	0	46	0	350224384	60	8355
2026-01-29 11:11:04.78	318.17	36.67	-46.0	-46.6	25.8	0.00e+00	0	46	0	356515840	60	8419
2026-01-29 11:11:05.79	318.36	36.46	-46.1	-46.8	25.7	0.00e+00	0	46	0	361758720	60	8594
2026-01-29 11:11:06.79	318.54	36.25	-46.2	-47.0	25.6	0.00e+00	0	46	0	368050176	60	8741
2026-01-29 11:11:07.80	318.73	36.03	-46.3	-47.0	25.6	0.00e+00	0	46	0	373293056	60	8816
2026-01-29 11:11:08.81	318.91	35.82	-46.2	-46.9	25.7	0.00e+00	0	46	0	378535936	60	8649
2026-01-29 11:11:09.81	319.09	35.62	-46.2	-47.0	25.5	0.00e+00	0	46	0	384827392	60	8788
2026-01-29 11:11:10.82	319.26	35.41	-46.2	-46.9	25.6	0.00e+00	0	46	0	390070272	60	8701
2026-01-29 11:11:11.82	319.44	35.20	-46.3	-46.9	25.6	0.00e+00	0	46	0	395313152	60	8677
2026-01-29 11:11:12.83	319.61	35.00	-46.3	-47.1	25.6	0.00e+00	0	46	0	401604608	60	8828
2026-01-29 11:11:13.83	319.78	34.79	-46.2	-46.8	25.7	0.00e+00	0	46	0	406847488	60	8577
2026-01-29 11:11:14.84	319.95	34.59	-46.1	-46.7	25.6	0.00e+00	0	46	0	413138944	60	8488
2026-01-29 11:11:15.84	320.11	34.39	-46.2	-46.8	25.6	0.00e+00	0	46	0	418381824	60	8558
2026-01-29 11:11:16.85	320.28	34.19	-46.1	-46.7	25.7	0.00e+00	0	46	0	424673280	60	8512
2026-01-29 11:11:17.85	320.44	33.99	-46.0	-46.7	25.8	0.00e+00	0	46	0	429916160	60	8492
2026-01-29 11:11:18.86	320.60	33.79	-46.0	-46.6	25.7	0.00e+00	0	46	0	435159040	60	8418
2026-01-29 11:11:19.87	320.76	33.59	-46.0	-46.7	25.8	0.00e+00	0	46	0	441450496	60	8505
2026-01-29 11:11:20.88	320.92	33.39	-46.1	-46.8	25.8	0.00e+00	0	46	0	446693376	60	8591
2026-01-29 11:11:21.89	321.07	33.19	-45.9	-46.5	25.9	0.00e+00	0	46	0	452984832	60	8286
2026-01-29 11:11:22.89	321.22	33.00	-45.9	-46.6	25.9	0.00e+00	0	46	0	458227712	60	8404
2026-01-29 11:11:23.89	321.37	32.81	-45.8	-46.4	25.9	0.00e+00	0	46	0	463470592	60	8176
2026-01-29 11:11:24.90	321.52	32.61	-45.8	-46.6	25.8	0.00e+00	0	46	0	469762048	60	8332
2026-01-29 11:11:25.89	321.67	32.42	-45.9	-46.7	25.7	0.00e+00	0	46	0	475004928	60	8458
2026-01-29 11:11:26.90	321.81	32.23	-45.9	-46.7	25.7	0.00e+00	0	46	0	480247808	60	8444
2026-01-29 11:11:27.90	321.96	32.04	-46.0	-46.7	25.8	0.00e+00	0	46	0	486539264	60	8518
2026-01-29 11:11:28.91	322.10	31.85	-46.1	-46.8	25.8	0.00e+00	0	46	0	491782144	60	8548
2026-01-29 11:11:29.91	322.24	31.67	-46.2	-46.8	25.6	0.00e+00	0	46	0	497025024	60	8620
2026-01-29 11:11:30.92	322.38	31.48	-46.3	-47.0	25.6	0.00e+00	0	46	0	503316480	60	8800
2026-01-29 11:11:31.93	322.52	31.29	-46.4	-47.0	25.4	0.00e+00	0	46	0	508559360	60	8795
2026-01-29 11:11:32.93	322.66	31.11	-46.4	-47.0	25.5	0.00e+00	0	46	0	514850816	60	8768
2026-01-29 11:11:33.94	322.79	30.93	-46.3	-47.0	25.6	0.00e+00	0	46	0	520093696	60	8793
2026-01-29 11:11:34.94	322.92	30.74	-46.2	-46.9	25.6	0.00e+00	0	46	0	526385152	60	8664
2026-01-29 11:11:35.95	323.06	30.56	-46.3	-47.0	25.6	0.00e+00	0	46	0	531628032	60	8807
2026-01-29 11:11:36.94	323.19	30.38	-46.2	-46.8	25.5	0.00e+00	0	46	0	537919488	60	8605
2026-01-29 11:11:37.95	323.31	30.20	-46.2	-46.9	25.6	0.00e+00	0	46	0	543162368	60	8627
2026-01-29 11:11:38.95	323.44	30.03	-46.3	-46.9	25.5	0.00e+00	0	46	0	548405248	60	8681
2026-01-29 11:11:39.96	323.57	29.85	-46.4	-47.0	25.4	0.00e+00	0	46	0	554696704	60	8769
2026-01-29 11:11:40.96	323.69	29.67	-46.7	-47.4	25.2	0.00e+00	0	46	0	559939584	60	9219
2026-01-29 11:11:41.97	323.82	29.49	-46.6	-47.3	25.2	0.00e+00	0	46	0	565182464	60	9122
2026-01-29 11:11:42.98	323.94	29.32	-46.8	-47.6	25.1	0.00e+00	0	46	0	571473920	60	9347
2026-01-29 11:11:43.99	324.06	29.14	-46.5	-47.2	25.3	0.00e+00	0	46	0	576716800	60	8929
2026-01-29 11:11:45.00	324.18	28.97	-46.3	-47.0	25.5	0.00e+00	0	46	0	581959680	60	8781
2026-01-29 11:11:46.00	324.30	28.80	-46.2	-46.8	25.6	0.00e+00	0	46	0	588251136	60	8540
2026-01-29 11:11:47.00	324.42	28.63	-46.2	-46.9	25.6	0.00e+00	0	46	0	593494016	60	8676
2026-01-29 11:11:48.01	324.54	28.46	-46.3	-46.9	25.4	0.00e+00	0	46	0	599785472	60	8659
2026-01-29 11:11:49.02	324.65	28.29	-46.3	-46.9	25.4	0.00e+00	0	46	0	605028352	60	8670
2026-01-29 11:11:50.02	324.76	28.12	-46.3	-47.1	25.4	0.00e+00	0	46	0	610271232	60	8850
2026-01-29 11:11:51.03	324.88	27.95	-46.5	-47.2	25.2	0.00e+00	0	46	0	616562688	60	8939
2026-01-29 11:11:52.03	324.99	27.79	-46.7	-47.3	25.1	0.00e+00	0	46	0	622854144	60	9033
2026-01-29 11:11:53.04	325.10	27.62	-46.7	-47.5	25.1	0.00e+00	0	46	0	628097024	60	9264
2026-01-29 11:11:54.04	325.21	27.46	-46.6	-47.3	25.1	0.00e+00	0	46	0	633339904	60	9128
2026-01-29 11:11:55.05	325.32	27.29	-46.9	-47.6	25.0	0.00e+00	0	46	0	639631360	60	9435
2026-01-29 11:11:56.06	325.43	27.13	-46.7	-47.3	25.1	0.00e+00	0	46	0	644874240	60	9051
2026-01-29 11:11:57.06	325.53	26.97	-46.5	-47.3	25.2	0.00e+00	0	46	0	650117120	60	9056
2026-01-29 11:11:58.07	325.64	26.81	-46.5	-47.3	25.2	0.00e+00	0	46	0	656408576	60	9040
2026-01-29 11:11:59.07	325.74	26.65	-46.6	-47.2	25.1	0.00e+00	0	46	0	661651456	60	8974
2026-01-29 11:12:00.08	325.85	26.49	-46.7	-47.3	25.1	0.00e+00	0	46	0	666894336	60	9071
2026-01-29 11:12:01.09	325.95	26.33	-46.5	-47.1	25.3	0.00e+00	0	46	0	673185792	60	8908
2026-01-29 11:12:02.09	326.05	26.17	-46.5	-47.1	25.3	0.00e+00	0	46	0	678428672	60	8879
2026-01-29 11:12:03.09	326.15	26.01	-46.6	-47.4	25.2	0.00e+00	0	46	0	684720128	60	9144
2026-01-29 11:12:04.10	326.25	25.86	-46.5	-47.1	25.2	0.00e+00	0	46	0	689963008	60	8834
2026-01-29 11:12:05.10	326.35	25.70	-46.5	-47.1	25.1	0.00e+00	0	46	0	695205888	60	8903
2026-01-29 11:12:06.11	326.44	25.55	-46.5	-47.2	25.1	0.00e+00	0	46	0	701497344	60	8986
2026-01-29 11:12:07.11	326.54	25.39	-46.7	-47.5	25.0	0.00e+00	0	46	0	706740224	60	9249
2026-01-29 11:12:08.11	326.64	25.24	-46.9	-47.5	24.8	0.00e+00	0	46	0	711983104	60	9270
2026-01-29 11:12:09.11	326.73	25.09	-46.8	-47.6	24.9	0.00e+00	0	46	0	718274560	60	9419
2026-01-29 11:12:10.12	326.83	24.94	-47.0	-47.7	24.6	0.00e+00	0	46	0	723517440	60	9485
2026-01-29 11:12:11.13	326.92	24.79	-47.3	-47.9	24.5	0.00e+00	0	46	0	728760320	60	9783
2026-01-29 11:12:12.13	327.01	24.64	-47.0	-47.6	24.8	0.00e+00	0	46	0	735051776	60	9450
2026-01-29 11:12:13.13	327.10	24.49	-46.8	-47.4	24.9	0.00e+00	0	46	0	740294656	60	9231
2026-01-29 11:12:14.13	327.19	24.34	-46.7	-47.3	24.9	0.00e+00	0	46	0	746586112	60	9118
2026-01-29 11:12:15.14	327.28	24.20	-46.6	-47.3	25.0	0.00e+00	0	46	0	751828992	60	9061
2026-01-29 11:12:16.14	327.37	24.05	-46.7	-47.3	25.0	0.00e+00	0	46	0	758120448	60	9063
2026-01-29 11:12:17.15	327.46	23.90	-46.7	-47.5	25.0	0.00e+00	0	46	0	763363328	60	9258
2026-01-29 11:12:18.16	327.55	23.76	-46.7	-47.5	24.9	0.00e+00	0	46	0	769654784	60	9279
2026-01-29 11:12:19.16	327.63	23.61	-46.7	-47.5	24.9	0.00e+00	0	46	0	774897664	60	9299
2026-01-29 11:12:20.17	327.72	23.47	-46.8	-47.6	24.8	0.00e+00	0	46	0	780140544	60	9379
2026-01-29 11:12:21.17	327.81	23.33	-46.8	-47.6	24.6	0.00e+00	0	46	0	786432000	60	9426
2026-01-29 11:12:22.17	327.89	23.19	-46.9	-47.7	24.7	0.00e+00	0	46	0	791674880	60	9473
2026-01-29 11:12:23.18	327.97	23.04	-47.1	-47.8	24.5	0.00e+00	0	46	0	796917760	60	9613
2026-01-29 11:12:24.19	328.06	22.90	-46.9	-47.7	24.6	0.00e+00	0	46	0	803209216	60	9500
2026-01-29 11:12:25.19	328.14	22.76	-47.1	-47.8	24.6	0.00e+00	0	46	0	808452096	60	9653
2026-01-29 11:12:26.19	328.22	22.62	-47.0	-47.8	24.6	0.00e+00	0	46	0	813694976	60	9644
2026-01-29 11:12:27.20	328.30	22.49	-46.9	-47.7	24.7	0.00e+00	0	46	0	819986432	60	9537
2026-01-29 11:12:28.20	328.38	22.35	-46.9	-47.6	24.6	0.00e+00	0	46	0	825229312	60	9392
2026-01-29 11:12:29.21	328.46	22.21	-47.0	-47.7	24.6	0.00e+00	0	46	0	831520768	60	9456
2026-01-29 11:12:30.22	328.54	22.07	-47.1	-47.8	24.5	0.00e+00	0	46	0	836763648	60	9655
2026-01-29 11:12:31.23	328.62	21.94	-47.2	-48.0	24.4	0.00e+00	0	46	0	842006528	60	9856
2026-01-29 11:12:32.23	328.70	21.80	-47.3	-47.9	24.4	0.00e+00	0	46	0	848297984	60	9767
2026-01-29 11:12:33.24	328.78	21.67	-47.3	-48.0	24.3	0.00e+00	0	46	0	854589440	60	9800
2026-01-29 11:12:34.25	328.85	21.53	-47.5	-48.3	24.1	0.00e+00	0	46	0	859832320	60	10178
2026-01-29 11:12:35.26	328.93	21.40	-47.5	-48.4	24.1	0.00e+00	0	46	0	865075200	60	10255
2026-01-29 11:12:36.27	329.00	21.27	-47.5	-48.3	24.2	0.00e+00	0	46	0	871366656	60	10176
2026-01-29 11:12:37.27	329.08	21.13	-47.5	-48.1	24.2	0.00e+00	0	46	0	876609536	60	10000
2026-01-29 11:12:38.28	329.15	21.00	-47.3	-48.1	24.4	0.00e+00	0	46	0	881852416	60	9983
2026-01-29 11:12:39.29	329.23	20.87	-47.3	-47.9	24.4	0.00e+00	0	46	0	888143872	60	9765
2026-01-29 11:12:40.29	329.30	20.74	-47.3	-48.2	24.2	0.00e+00	0	46	0	893386752	60	10016
2026-01-29 11:12:41.29	329.37	20.61	-47.4	-48.1	24.2	0.00e+00	0	46	0	898629632	60	9913
2026-01-29 11:12:42.29	329.44	20.49	-47.5	-48.1	24.2	0.00e+00	0	46	0	904921088	60	10008
2026-01-29 11:12:43.30	329.52	20.36	-47.6	-48.5	24.0	0.00e+00	0	46	0	910163968	60	10370
2026-01-29 11:12:44.30	329.59	20.23	-47.6	-48.3	24.1	0.00e+00	0	46	0	916455424	60	10138
2026-01-29 11:12:45.31	329.66	20.10	-47.4	-48.3	24.2	0.00e+00	0	46	0	921698304	60	10151
2026-01-29 11:12:46.32	329.73	19.98	-47.5	-48.3	24.0	0.00e+00	0	46	0	926941184	60	10210
