passes_logs/2026/01/29/R3.2S-Naryan-Mar/R3.2S-Naryan-Mar__20260129_030405_AQUA_rec.log

#Pass ID: 20260129_030405_AQUA
#Satellite: AQUA
#Configuration: AQUA
#almurnet v.1.7.20240730
#Start time: 2026-01-29 03:04:06

#Version: 2.2.20231116
#Station: R3.2S-Naryan-Mar
#Location: 53.008057 lon 67.646978 lat
#TLE: 1 27424U 02022A   26027.88561574  .00001798  00000+0  36942-3 0  9997
#TLE: 2 27424  98.4102 354.5311 0001840  63.5604 322.5877 14.61868111262779

#Time	Az	El	Level	Level2	SNR	BER	BlckErr	Temp	State	Recorded	gain1	gain2
2026-01-29 03:04:06.66	31.65	0.09	-59.2	-73.7	3.5	8.45e-01	0	44	0	0	60	189848
2026-01-29 03:04:07.66	31.60	0.15	-56.3	-76.6	3.6	3.03e+01	0	45	104	0	60	255772
2026-01-29 03:04:08.67	31.55	0.20	-56.7	-76.9	3.6	3.03e+01	0	45	104	0	60	265341
2026-01-29 03:04:09.68	31.50	0.26	-57.5	-78.0	3.6	3.03e+01	0	45	104	0	60	301332
2026-01-29 03:04:10.68	31.45	0.32	-58.5	-78.1	3.5	3.03e+01	0	45	104	0	60	306401
2026-01-29 03:04:11.69	31.39	0.38	-58.6	-78.6	3.5	3.03e+01	0	45	104	0	60	324528
2026-01-29 03:04:12.69	31.34	0.44	-58.0	-78.6	3.6	3.03e+01	0	45	104	0	60	325509
2026-01-29 03:04:13.69	31.29	0.50	-57.8	-78.3	3.5	3.03e+01	0	45	104	0	60	312091
2026-01-29 03:04:14.70	31.23	0.55	-57.7	-78.4	3.5	3.03e+01	0	45	104	0	60	316219
2026-01-29 03:04:15.70	31.18	0.61	-58.2	-78.6	3.5	3.03e+01	0	46	104	0	60	325582
2026-01-29 03:04:16.70	31.13	0.67	-57.1	-78.4	3.5	3.03e+01	0	45	104	0	60	316701
2026-01-29 03:04:17.71	31.07	0.73	-57.1	-78.4	3.5	3.03e+01	0	45	104	0	60	317447
2026-01-29 03:04:18.72	31.02	0.79	-54.9	-78.3	3.5	3.03e+01	0	45	104	0	60	313100
2026-01-29 03:04:19.73	30.96	0.85	-55.7	-78.0	3.5	3.03e+01	0	46	104	0	60	301638
2026-01-29 03:04:20.73	30.91	0.91	-51.4	-77.8	3.5	3.03e+01	0	45	104	0	60	294774
2026-01-29 03:04:21.73	30.86	0.97	-55.2	-77.4	3.5	3.03e+01	0	46	104	0	60	280495
2026-01-29 03:04:22.74	30.80	1.03	-54.7	-77.1	3.5	3.03e+01	0	46	104	0	60	273383
2026-01-29 03:04:23.75	30.74	1.09	-54.2	-76.6	3.5	3.03e+01	0	46	104	0	60	257782
2026-01-29 03:04:24.76	30.69	1.15	-54.1	-76.8	3.5	3.03e+01	0	46	104	0	60	262135
2026-01-29 03:04:25.77	30.63	1.21	-54.1	-76.6	3.5	3.03e+01	0	46	104	0	60	256392
2026-01-29 03:04:26.77	30.57	1.26	-54.1	-76.6	3.5	3.03e+01	0	46	104	0	60	257909
2026-01-29 03:04:27.78	30.52	1.32	-54.1	-76.8	3.5	3.03e+01	0	45	104	0	60	262512
2026-01-29 03:04:28.79	30.46	1.39	-54.1	-76.7	3.5	3.03e+01	0	45	104	0	60	259638
2026-01-29 03:04:29.80	30.40	1.45	-54.1	-76.6	3.5	3.03e+01	0	46	104	0	60	256328
2026-01-29 03:04:30.80	30.35	1.51	-54.0	-76.6	3.5	3.03e+01	0	46	104	0	60	258286
2026-01-29 03:04:31.81	30.29	1.57	-54.1	-76.7	3.5	3.03e+01	0	46	104	0	60	261606
2026-01-29 03:04:32.82	30.23	1.63	-54.0	-76.7	3.5	3.03e+01	0	46	104	0	60	258797
2026-01-29 03:04:33.82	30.17	1.69	-54.0	-76.5	3.5	3.03e+01	0	46	104	0	60	254644
2026-01-29 03:04:34.82	30.11	1.75	-54.1	-76.5	3.5	3.03e+01	0	46	104	0	60	253509
2026-01-29 03:04:35.83	30.05	1.81	-54.0	-76.7	3.6	3.03e+01	0	46	104	0	60	260159
2026-01-29 03:04:36.83	30.00	1.87	-54.0	-76.7	3.5	3.03e+01	0	46	104	0	60	259933
2026-01-29 03:04:37.84	29.94	1.93	-54.0	-76.7	3.5	3.03e+01	0	46	104	0	60	261085
2026-01-29 03:04:38.85	29.88	1.99	-54.0	-76.5	3.5	3.03e+01	0	45	104	0	60	252911
2026-01-29 03:04:39.86	29.82	2.05	-54.0	-76.5	3.6	3.03e+01	0	46	104	0	60	253172
2026-01-29 03:04:40.87	29.75	2.11	-54.0	-76.5	3.5	3.03e+01	0	46	104	0	60	253446
2026-01-29 03:04:41.88	29.69	2.18	-54.0	-76.4	3.5	3.03e+01	0	46	104	0	60	252612
2026-01-29 03:04:42.89	29.63	2.24	-54.0	-76.4	3.5	3.03e+01	0	46	104	0	60	252348
2026-01-29 03:04:43.89	29.57	2.30	-54.0	-76.7	3.5	3.03e+01	0	46	104	0	60	259136
2026-01-29 03:04:44.90	29.51	2.36	-53.9	-76.5	3.5	3.03e+01	0	46	104	0	60	254930
2026-01-29 03:04:45.91	29.45	2.42	-54.0	-76.6	3.5	3.03e+01	0	46	104	0	60	256918
2026-01-29 03:04:46.92	29.39	2.49	-53.9	-76.6	3.5	3.03e+01	0	46	104	0	60	257387
2026-01-29 03:04:47.92	29.32	2.55	-53.9	-76.6	3.5	3.03e+01	0	46	104	0	60	257578
2026-01-29 03:04:48.92	29.26	2.61	-53.9	-76.4	3.5	3.03e+01	0	46	104	0	60	252304
2026-01-29 03:04:49.93	29.20	2.67	-53.9	-76.4	3.5	3.03e+01	0	46	104	0	60	252206
2026-01-29 03:04:50.93	29.13	2.74	-53.9	-76.5	3.5	3.03e+01	0	46	104	0	60	253976
2026-01-29 03:04:51.94	29.07	2.80	-53.9	-76.4	3.5	3.03e+01	0	46	104	0	60	250368
2026-01-29 03:04:52.95	29.01	2.86	-53.9	-76.4	3.5	3.03e+01	0	46	104	0	60	251368
2026-01-29 03:04:53.95	28.94	2.92	-53.9	-76.6	3.5	3.03e+01	0	46	104	0	60	256201
2026-01-29 03:04:54.95	28.88	2.99	-53.9	-76.5	3.5	3.03e+01	0	46	104	0	60	254473
2026-01-29 03:04:55.96	28.81	3.05	-53.9	-76.5	3.5	3.03e+01	0	46	104	0	60	253851
2026-01-29 03:04:56.97	28.75	3.11	-53.9	-76.5	3.5	3.03e+01	0	46	104	0	60	253663
2026-01-29 03:04:57.98	28.68	3.18	-53.9	-76.3	3.5	3.03e+01	0	46	104	0	60	249151
2026-01-29 03:04:58.99	28.62	3.24	-53.9	-76.6	3.5	3.03e+01	0	46	104	0	60	256767
2026-01-29 03:04:59.99	28.55	3.31	-54.0	-76.4	3.5	3.03e+01	0	46	104	0	60	252510
2026-01-29 03:05:01.00	28.48	3.37	-53.9	-76.3	3.5	3.03e+01	0	46	104	0	60	249658
2026-01-29 03:05:02.01	28.42	3.43	-53.9	-76.5	3.5	3.03e+01	0	46	104	0	60	254075
2026-01-29 03:05:03.01	28.35	3.50	-53.9	-76.5	3.5	3.03e+01	0	46	104	0	60	253137
2026-01-29 03:05:04.02	28.28	3.56	-53.9	-76.4	3.6	3.03e+01	0	46	104	0	60	250004
2026-01-29 03:05:05.03	28.21	3.63	-53.8	-76.4	3.5	3.03e+01	0	46	104	0	60	250250
2026-01-29 03:05:06.04	28.14	3.69	-53.8	-76.4	3.5	3.03e+01	0	46	104	0	60	251891
2026-01-29 03:05:07.04	28.08	3.76	-53.9	-76.4	3.5	3.03e+01	0	46	104	0	60	252512
2026-01-29 03:05:08.05	28.01	3.82	-53.9	-76.5	3.5	3.03e+01	0	46	104	0	60	254937
2026-01-29 03:05:09.05	27.94	3.89	-54.0	-76.3	3.5	3.03e+01	0	46	104	0	60	248750
2026-01-29 03:05:10.06	27.87	3.95	-53.9	-76.4	3.5	3.03e+01	0	46	104	0	60	252374
2026-01-29 03:05:11.07	27.80	4.02	-53.9	-76.4	3.5	3.03e+01	0	46	104	0	60	250971
2026-01-29 03:05:12.08	27.73	4.08	-53.8	-76.3	3.5	3.03e+01	0	46	104	0	60	247922
2026-01-29 03:05:13.09	27.65	4.15	-53.9	-76.5	3.5	3.03e+01	0	46	104	0	60	253001
2026-01-29 03:05:14.09	27.58	4.21	-53.9	-76.3	3.5	3.03e+01	0	46	104	0	60	247468
2026-01-29 03:05:15.10	27.51	4.28	-53.8	-76.3	3.5	3.03e+01	0	46	104	0	60	249702
2026-01-29 03:05:16.11	27.44	4.34	-53.8	-76.5	3.5	3.03e+01	0	46	104	0	60	255319
2026-01-29 03:05:17.12	27.37	4.41	-53.8	-76.3	3.5	3.03e+01	0	46	104	0	60	247831
2026-01-29 03:05:18.13	27.29	4.48	-53.8	-76.4	3.5	3.03e+01	0	46	104	0	60	250754
2026-01-29 03:05:19.13	27.22	4.54	-53.8	-76.5	3.5	3.03e+01	0	46	104	0	60	252846
2026-01-29 03:05:20.14	27.15	4.61	-53.8	-76.5	3.5	3.03e+01	0	46	104	0	60	253043
2026-01-29 03:05:21.15	27.07	4.68	-53.8	-76.5	3.5	3.03e+01	0	46	104	0	60	253413
2026-01-29 03:05:22.15	27.00	4.74	-53.8	-76.4	3.5	3.03e+01	0	46	104	0	60	250710
2026-01-29 03:05:23.16	26.92	4.81	-53.8	-76.3	3.5	3.03e+01	0	46	104	0	60	249280
2026-01-29 03:05:24.17	26.85	4.88	-53.8	-76.4	3.5	3.03e+01	0	46	104	0	60	250396
2026-01-29 03:05:25.17	26.77	4.94	-53.8	-76.5	3.5	3.03e+01	0	46	104	0	60	255190
2026-01-29 03:05:26.17	26.70	5.01	-53.8	-76.4	3.5	3.03e+01	0	46	104	0	60	251008
2026-01-29 03:05:27.18	26.62	5.08	-53.8	-76.4	3.5	3.03e+01	0	46	104	0	60	252315
2026-01-29 03:05:28.19	26.55	5.15	-53.8	-76.4	3.5	3.03e+01	0	46	104	0	60	251638
2026-01-29 03:05:29.20	26.47	5.21	-53.8	-76.4	3.5	3.03e+01	0	46	104	0	60	251178
2026-01-29 03:05:30.20	26.39	5.28	-53.8	-76.3	3.5	3.03e+01	0	46	104	0	60	249273
2026-01-29 03:05:31.21	26.31	5.35	-53.8	-76.3	3.5	3.03e+01	0	46	104	0	60	247181
2026-01-29 03:05:32.22	26.23	5.42	-53.8	-76.4	3.5	3.03e+01	0	46	104	0	60	250974
2026-01-29 03:05:33.23	26.16	5.49	-53.8	-76.2	3.5	3.03e+01	0	46	104	0	60	245282
2026-01-29 03:05:34.24	26.08	5.56	-53.8	-76.2	3.5	3.03e+01	0	46	104	0	60	246678
2026-01-29 03:05:35.25	26.00	5.62	-53.8	-76.3	3.5	3.03e+01	0	46	104	0	60	248580
2026-01-29 03:05:36.25	25.92	5.69	-53.8	-76.2	3.5	3.03e+01	0	46	104	0	60	244566
2026-01-29 03:05:37.26	25.84	5.76	-53.8	-76.3	3.5	3.03e+01	0	46	104	0	60	248638
2026-01-29 03:05:38.27	25.75	5.83	-53.8	-76.1	3.5	3.03e+01	0	46	104	0	60	243646
2026-01-29 03:05:39.27	25.67	5.90	-53.8	-76.1	3.5	3.03e+01	0	46	104	0	60	243088
2026-01-29 03:05:40.27	25.59	5.97	-53.8	-76.2	3.5	3.03e+01	0	46	104	0	60	245705
2026-01-29 03:05:41.28	25.51	6.04	-53.9	-76.2	3.5	3.03e+01	0	46	104	0	60	244859
2026-01-29 03:05:42.29	25.43	6.11	-52.0	-76.6	3.5	3.03e+01	0	46	104	0	60	256507
2026-01-29 03:05:43.30	25.34	6.18	-53.7	-76.5	3.5	3.03e+01	0	46	104	0	60	254978
2026-01-29 03:05:44.31	25.26	6.25	-52.8	-76.4	3.5	3.03e+01	0	46	104	0	60	251453
2026-01-29 03:05:45.31	25.18	6.32	-52.7	-76.6	3.5	3.03e+01	0	46	104	0	60	257551
2026-01-29 03:05:46.32	25.09	6.39	-53.2	-76.5	3.5	3.03e+01	0	46	104	0	60	255259
2026-01-29 03:05:47.33	25.01	6.46	-53.3	-76.7	3.5	3.03e+01	0	46	104	0	60	260130
2026-01-29 03:05:48.34	24.92	6.53	-54.0	-76.3	3.5	3.03e+01	0	46	104	0	60	249867
2026-01-29 03:05:49.34	24.83	6.60	-52.6	-76.7	3.5	3.03e+01	0	46	104	0	60	260122
2026-01-29 03:05:50.35	24.75	6.67	-54.4	-76.3	3.5	3.03e+01	0	46	104	0	60	248979
2026-01-29 03:05:51.36	24.66	6.74	-53.1	-76.9	3.5	3.03e+01	0	46	104	0	60	266003
2026-01-29 03:05:52.36	24.57	6.81	-54.1	-76.4	3.5	3.03e+01	0	46	104	0	60	251279
2026-01-29 03:05:53.37	24.49	6.89	-53.5	-76.6	3.5	3.03e+01	0	46	104	0	60	257526
2026-01-29 03:05:54.37	24.40	6.96	-53.2	-76.4	3.5	3.03e+01	0	46	104	0	60	252468
2026-01-29 03:05:55.38	24.31	7.03	-54.0	-76.6	3.5	3.03e+01	0	46	104	0	60	257384
2026-01-29 03:05:56.38	24.22	7.10	-54.0	-76.5	3.5	3.03e+01	0	46	104	0	60	254422
2026-01-29 03:05:57.39	24.13	7.17	-53.5	-76.5	3.5	3.03e+01	0	46	104	0	60	254418
2026-01-29 03:05:58.40	24.04	7.25	-50.8	-76.9	3.5	3.03e+01	0	46	104	0	60	266632
2026-01-29 03:05:59.40	23.95	7.32	-53.5	-77.0	3.5	3.03e+01	0	46	104	0	60	270847
2026-01-29 03:06:00.41	23.86	7.39	-52.0	-76.7	3.5	3.03e+01	0	46	104	0	60	259380
2026-01-29 03:06:01.41	23.77	7.46	-49.5	-76.9	3.5	3.03e+01	0	46	104	0	60	265354
2026-01-29 03:06:02.42	23.67	7.54	-51.8	-76.8	3.5	3.03e+01	0	46	104	0	60	263247
2026-01-29 03:06:03.43	23.58	7.61	-54.1	-76.9	3.5	3.03e+01	0	46	104	0	60	266759
2026-01-29 03:06:04.44	23.49	7.68	-51.0	-76.6	3.5	3.03e+01	0	46	104	0	60	258694
2026-01-29 03:06:05.44	23.39	7.76	-51.4	-76.8	3.5	3.03e+01	0	46	104	0	60	264404
2026-01-29 03:06:06.45	23.30	7.83	-51.2	-76.8	3.5	3.03e+01	0	46	104	0	60	261700
2026-01-29 03:06:07.46	23.20	7.90	-53.9	-76.7	3.5	3.03e+01	0	46	104	0	60	259243
2026-01-29 03:06:08.47	23.11	7.98	-51.0	-76.7	3.5	3.03e+01	0	46	104	0	60	259748
2026-01-29 03:06:09.48	23.01	8.05	-52.2	-76.9	3.5	3.03e+01	0	46	104	0	60	265961
2026-01-29 03:06:10.48	22.91	8.12	-50.0	-76.9	3.5	3.03e+01	0	46	104	0	60	265115
2026-01-29 03:06:11.48	22.82	8.20	-53.6	-76.6	3.5	3.03e+01	0	46	104	0	60	256388
2026-01-29 03:06:12.49	22.72	8.27	-51.8	-76.7	3.5	3.03e+01	0	46	104	0	60	260846
2026-01-29 03:06:13.50	22.62	8.35	-52.0	-76.7	3.5	3.03e+01	0	46	104	0	60	260133
2026-01-29 03:06:14.50	22.52	8.42	-51.7	-76.8	3.5	3.03e+01	0	46	104	0	60	263782
2026-01-29 03:06:15.51	22.42	8.50	-53.8	-76.6	3.5	3.03e+01	0	46	104	0	60	257831
2026-01-29 03:06:16.52	22.32	8.57	-51.7	-76.8	3.5	3.03e+01	0	46	104	0	60	262165
2026-01-29 03:06:17.52	22.22	8.65	-51.0	-76.6	3.5	3.03e+01	0	46	104	0	60	257407
2026-01-29 03:06:18.53	22.12	8.72	-53.5	-76.7	3.5	3.03e+01	0	46	104	0	60	261283
2026-01-29 03:06:19.54	22.02	8.80	-52.0	-76.8	3.5	3.03e+01	0	46	104	0	60	262007
2026-01-29 03:06:20.55	21.92	8.88	-51.4	-76.6	3.5	3.03e+01	0	46	104	0	60	257811
2026-01-29 03:06:21.56	21.81	8.95	-50.3	-76.8	3.5	3.03e+01	0	46	104	0	60	261874
2026-01-29 03:06:22.57	21.71	9.03	-52.7	-76.9	3.5	3.03e+01	0	46	104	0	60	265322
2026-01-29 03:06:23.57	21.60	9.11	-50.3	-76.8	3.5	3.03e+01	0	46	104	0	60	261837
2026-01-29 03:06:24.58	21.50	9.18	-51.2	-76.7	3.5	3.03e+01	0	46	104	0	60	259898
2026-01-29 03:06:25.58	21.39	9.26	-50.6	-76.8	3.5	3.03e+01	0	46	104	0	60	262541
2026-01-29 03:06:26.59	21.29	9.34	-50.5	-76.8	3.5	3.03e+01	0	46	104	0	60	263201
2026-01-29 03:06:27.59	21.18	9.41	-51.7	-76.9	3.5	3.03e+01	0	46	104	0	60	265634
2026-01-29 03:06:28.60	21.07	9.49	-52.3	-76.8	3.5	3.03e+01	0	46	104	0	60	261829
2026-01-29 03:06:29.61	20.97	9.57	-52.5	-76.8	3.5	3.03e+01	0	46	104	0	60	263795
2026-01-29 03:06:30.61	20.86	9.64	-52.0	-76.7	3.5	3.03e+01	0	46	104	0	60	260819
2026-01-29 03:06:31.61	20.75	9.72	-52.1	-76.7	3.5	3.03e+01	0	46	104	0	60	258814
2026-01-29 03:06:32.62	20.64	9.80	-50.2	-76.5	3.5	3.03e+01	0	46	104	0	60	254267
2026-01-29 03:06:33.62	20.53	9.88	-49.4	-76.7	3.5	3.03e+01	0	46	104	0	60	259668
2026-01-29 03:06:34.63	20.42	9.96	-52.5	-76.8	3.5	3.03e+01	0	46	104	0	60	262439
2026-01-29 03:06:35.63	20.31	10.03	-49.1	-76.7	3.5	3.03e+01	0	46	104	0	60	260427
2026-01-29 03:06:36.64	20.19	10.11	-48.7	-76.7	3.5	3.03e+01	0	46	104	0	60	259333
2026-01-29 03:06:37.65	20.08	10.19	-48.8	-76.8	3.6	3.03e+01	0	46	104	0	60	262869
2026-01-29 03:06:38.65	19.97	10.27	-50.0	-76.5	3.5	3.03e+01	0	46	104	0	60	255702
2026-01-29 03:06:39.66	19.85	10.35	-50.3	-76.9	3.5	3.03e+01	0	46	104	0	60	265376
2026-01-29 03:06:40.67	19.73	10.43	-53.4	-76.8	3.5	3.03e+01	0	46	104	0	60	262473
2026-01-29 03:06:41.68	19.62	10.51	-50.7	-76.7	3.5	3.03e+01	0	46	104	0	60	261681
2026-01-29 03:06:42.68	19.50	10.59	-53.0	-76.7	3.5	3.03e+01	0	46	104	0	60	259422
2026-01-29 03:06:43.69	19.38	10.67	-53.6	-76.8	3.5	3.03e+01	0	46	104	0	60	261761
2026-01-29 03:06:44.70	19.27	10.75	-53.9	-76.8	3.5	3.03e+01	0	46	104	0	60	262692
2026-01-29 03:06:45.71	19.15	10.83	-53.8	-76.8	3.5	3.03e+01	0	46	104	0	60	262654
2026-01-29 03:06:46.72	19.03	10.91	-53.4	-76.8	3.5	3.03e+01	0	46	104	0	60	262965
2026-01-29 03:06:47.72	18.91	10.99	-53.8	-76.7	3.6	3.03e+01	0	46	104	0	60	261170
2026-01-29 03:06:48.73	18.79	11.07	-54.5	-76.9	3.5	3.03e+01	0	46	104	0	60	267101
2026-01-29 03:06:49.73	18.66	11.15	-53.9	-76.8	3.6	3.03e+01	0	46	104	0	60	261750
2026-01-29 03:06:50.73	18.54	11.23	-55.3	-76.6	3.6	3.03e+01	0	46	104	0	60	257923
2026-01-29 03:06:51.74	18.42	11.31	-54.4	-76.8	3.6	3.03e+01	0	46	104	0	60	262291
2026-01-29 03:06:52.75	18.29	11.40	-52.8	-76.9	3.5	3.03e+01	0	46	104	0	60	265471
2026-01-29 03:06:53.76	18.17	11.48	-54.8	-76.9	3.5	3.03e+01	0	46	104	0	60	264766
2026-01-29 03:06:54.77	18.04	11.56	-54.8	-76.7	3.5	3.03e+01	0	46	104	0	60	260889
2026-01-29 03:06:55.77	17.92	11.64	-52.3	-76.7	3.5	3.03e+01	0	46	104	0	60	260547
2026-01-29 03:06:56.78	17.79	11.72	-53.2	-76.9	3.5	3.03e+01	0	46	104	0	60	265783
2026-01-29 03:06:57.79	17.66	11.81	-54.4	-76.8	3.5	3.03e+01	0	46	104	0	60	262941
2026-01-29 03:06:58.80	17.53	11.89	-52.5	-76.6	3.5	3.03e+01	0	46	104	0	60	257116
2026-01-29 03:06:59.81	17.40	11.97	-52.0	-76.6	3.5	3.03e+01	0	46	104	0	60	258205
2026-01-29 03:07:00.81	17.27	12.05	-51.8	-76.9	3.5	3.03e+01	0	46	104	0	60	267586
2026-01-29 03:07:01.82	17.14	12.14	-53.4	-76.8	3.5	3.03e+01	0	46	104	0	60	262339
2026-01-29 03:07:02.83	17.01	12.22	-52.0	-76.6	3.5	3.03e+01	0	46	104	0	60	256768
2026-01-29 03:07:03.83	16.88	12.30	-51.8	-76.8	3.5	3.03e+01	0	46	104	0	60	264133
2026-01-29 03:07:04.83	16.74	12.39	-53.1	-77.0	3.5	3.03e+01	0	46	104	0	60	269807
2026-01-29 03:07:05.84	16.61	12.47	-52.0	-76.9	3.5	3.03e+01	0	46	104	0	60	265571
2026-01-29 03:07:06.84	16.47	12.55	-53.4	-76.9	3.5	3.03e+01	0	46	104	0	60	265928
2026-01-29 03:07:07.85	16.34	12.64	-52.4	-76.9	3.5	3.03e+01	0	46	104	0	60	265410
2026-01-29 03:07:08.86	16.20	12.72	-50.6	-77.1	3.5	3.03e+01	0	46	104	0	60	271392
2026-01-29 03:07:09.87	16.06	12.81	-52.8	-77.0	3.5	3.03e+01	0	46	104	0	60	269602
2026-01-29 03:07:10.88	15.92	12.89	-53.6	-76.9	3.5	3.03e+01	0	46	104	0	60	267161
2026-01-29 03:07:11.89	15.78	12.98	-51.1	-76.8	3.5	3.03e+01	0	46	104	0	60	264279
2026-01-29 03:07:12.89	15.64	13.06	-53.3	-77.0	3.5	3.03e+01	0	46	104	0	60	270055
2026-01-29 03:07:13.90	15.50	13.15	-52.4	-76.9	3.5	3.03e+01	0	46	104	0	60	267145
2026-01-29 03:07:14.91	15.36	13.23	-54.7	-77.0	3.5	3.03e+01	0	46	104	0	60	268015
2026-01-29 03:07:15.91	15.21	13.32	-51.3	-76.8	3.5	3.03e+01	0	46	104	0	60	263966
2026-01-29 03:07:16.92	15.07	13.40	-53.4	-77.2	3.5	3.03e+01	0	46	104	0	60	275011
2026-01-29 03:07:17.92	14.92	13.49	-51.4	-77.0	3.5	3.03e+01	0	46	104	0	60	270405
2026-01-29 03:07:18.93	14.78	13.57	-54.9	-77.2	3.5	3.03e+01	0	46	104	0	60	274640
2026-01-29 03:07:19.93	14.63	13.66	-51.7	-76.8	3.5	3.03e+01	0	46	104	0	60	262763
2026-01-29 03:07:20.94	14.48	13.75	-54.4	-77.0	3.5	3.03e+01	0	46	104	0	60	269868
2026-01-29 03:07:21.95	14.33	13.83	-53.4	-76.8	3.5	3.03e+01	0	46	104	0	60	264530
2026-01-29 03:07:22.96	14.18	13.92	-54.1	-77.0	3.5	3.03e+01	0	46	104	0	60	268101
2026-01-29 03:07:23.96	14.03	14.01	-52.1	-76.7	3.5	3.03e+01	0	46	104	0	60	260407
2026-01-29 03:07:24.96	13.88	14.09	-54.0	-77.2	3.5	3.03e+01	0	46	104	0	60	275421
2026-01-29 03:07:25.97	13.73	14.18	-53.5	-77.0	3.5	3.03e+01	0	46	104	0	60	268193
2026-01-29 03:07:26.97	13.58	14.27	-53.8	-77.0	3.5	3.03e+01	0	46	104	0	60	270229
2026-01-29 03:07:27.98	13.42	14.35	-54.2	-76.8	3.5	3.03e+01	0	46	104	0	60	262604
2026-01-29 03:07:28.99	13.27	14.44	-53.9	-77.3	3.5	3.03e+01	0	46	104	0	60	277425
2026-01-29 03:07:30.00	13.11	14.53	-54.3	-76.8	3.5	3.03e+01	0	46	104	0	60	263687
2026-01-29 03:07:31.01	12.95	14.62	-53.9	-77.1	3.5	3.03e+01	0	46	104	0	60	273567
2026-01-29 03:07:32.01	12.79	14.70	-53.8	-76.9	3.5	3.03e+01	0	46	104	0	60	266562
2026-01-29 03:07:33.01	12.63	14.79	-53.3	-77.3	3.5	3.03e+01	0	46	104	0	60	277237
2026-01-29 03:07:34.02	12.47	14.88	-54.0	-77.0	3.5	3.03e+01	0	46	104	0	60	269719
2026-01-29 03:07:35.03	12.31	14.97	-53.8	-77.2	3.5	3.03e+01	0	46	104	0	60	275795
2026-01-29 03:07:36.04	12.15	15.06	-54.1	-76.9	3.5	3.03e+01	0	46	104	0	60	267509
2026-01-29 03:07:37.04	11.98	15.14	-52.8	-77.3	3.5	3.03e+01	0	46	104	0	60	278451
2026-01-29 03:07:38.05	11.82	15.23	-53.9	-77.0	3.5	3.03e+01	0	46	104	0	60	268750
2026-01-29 03:07:39.06	11.65	15.32	-53.8	-77.2	3.5	3.03e+01	0	46	104	0	60	275990
2026-01-29 03:07:40.07	11.48	15.41	-53.1	-77.0	3.5	3.03e+01	0	46	104	0	60	267974
2026-01-29 03:07:41.07	11.32	15.50	-54.0	-77.2	3.5	3.03e+01	0	46	104	0	60	276601
2026-01-29 03:07:42.08	11.15	15.59	-53.4	-76.9	3.5	3.03e+01	0	46	104	0	60	267680
2026-01-29 03:07:43.09	10.98	15.68	-55.0	-77.3	3.5	3.03e+01	0	46	104	0	60	279415
2026-01-29 03:07:44.10	10.80	15.77	-53.6	-76.9	3.5	3.03e+01	0	46	104	0	60	267475
2026-01-29 03:07:45.11	10.63	15.86	-55.4	-77.2	3.5	3.03e+01	0	46	104	0	60	274511
2026-01-29 03:07:46.12	10.46	15.95	-52.8	-77.0	3.5	3.03e+01	0	46	104	0	60	268404
2026-01-29 03:07:47.12	10.28	16.04	-55.4	-77.2	3.5	3.03e+01	0	46	104	0	60	275469
2026-01-29 03:07:48.13	10.11	16.13	-54.8	-76.8	3.5	3.03e+01	0	46	104	0	60	264098
2026-01-29 03:07:49.14	9.93	16.22	-55.6	-77.1	3.5	3.03e+01	0	46	104	0	60	273450
2026-01-29 03:07:50.15	9.75	16.31	-53.8	-77.0	3.5	3.03e+01	0	46	104	0	60	267991
2026-01-29 03:07:51.16	9.57	16.40	-55.9	-77.3	3.5	3.03e+01	0	46	104	0	60	278152
2026-01-29 03:07:52.17	9.39	16.49	-55.2	-76.9	3.5	3.03e+01	0	46	104	0	60	266679
2026-01-29 03:07:53.16	9.21	16.58	-55.2	-77.2	3.5	3.03e+01	0	46	104	0	60	275557
2026-01-29 03:07:54.17	9.02	16.67	-55.2	-77.0	3.5	3.03e+01	0	46	104	0	60	267805
2026-01-29 03:07:55.17	8.84	16.76	-54.5	-77.3	3.5	3.03e+01	0	46	104	0	60	278503
2026-01-29 03:07:56.17	8.66	16.85	-55.3	-76.9	3.5	3.03e+01	0	46	104	0	60	267067
2026-01-29 03:07:57.17	8.47	16.94	-55.1	-77.1	3.5	3.03e+01	0	46	104	0	60	273319
2026-01-29 03:07:58.18	8.28	17.03	-55.4	-76.8	3.5	3.03e+01	0	46	104	0	60	262202
2026-01-29 03:07:59.19	8.09	17.12	-52.9	-77.2	3.5	3.03e+01	0	46	104	0	60	276465
2026-01-29 03:08:00.20	7.90	17.21	-54.5	-76.8	3.5	3.03e+01	0	46	104	0	60	264477
2026-01-29 03:08:01.21	7.71	17.30	-55.0	-77.0	3.5	3.03e+01	0	46	104	0	60	270234
2026-01-29 03:08:02.21	7.52	17.39	-54.8	-76.8	3.5	3.03e+01	0	46	104	0	60	262007
2026-01-29 03:08:03.22	7.32	17.48	-54.8	-77.0	3.5	3.03e+01	0	46	104	0	60	269666
2026-01-29 03:08:04.23	7.13	17.57	-54.9	-76.6	3.5	3.03e+01	0	46	104	0	60	258256
2026-01-29 03:08:05.24	6.93	17.66	-54.9	-77.0	3.5	3.03e+01	0	46	104	0	60	270031
2026-01-29 03:08:06.24	6.73	17.75	-55.0	-76.8	3.5	3.03e+01	0	46	104	0	60	262033
2026-01-29 03:08:07.25	6.54	17.84	-54.6	-77.1	3.5	3.03e+01	0	46	104	0	60	271203
2026-01-29 03:08:08.25	6.34	17.94	-56.6	-76.7	3.5	3.03e+01	0	46	104	0	60	260853
2026-01-29 03:08:09.25	6.14	18.03	-53.4	-77.0	3.5	3.03e+01	0	46	104	0	60	270724
2026-01-29 03:08:10.26	5.93	18.12	-55.5	-76.8	3.5	3.03e+01	0	46	104	0	60	264441
2026-01-29 03:08:11.26	5.73	18.21	-54.4	-77.2	3.5	3.03e+01	0	46	104	0	60	275581
2026-01-29 03:08:12.26	5.52	18.30	-54.6	-76.7	3.5	3.03e+01	0	46	104	0	60	261594
2026-01-29 03:08:13.27	5.32	18.39	-56.2	-77.0	3.5	3.03e+01	0	46	104	0	60	268361
2026-01-29 03:08:14.28	5.11	18.48	-54.5	-76.9	3.5	3.03e+01	0	46	104	0	60	266133
2026-01-29 03:08:15.29	4.90	18.57	-55.5	-76.9	3.5	3.03e+01	0	46	104	0	60	267481
2026-01-29 03:08:16.30	4.69	18.66	-55.4	-76.7	3.5	3.03e+01	0	46	104	0	60	259924
2026-01-29 03:08:17.31	4.47	18.75	-55.1	-76.9	3.5	3.03e+01	0	46	104	0	60	266953
2026-01-29 03:08:18.31	4.26	18.84	-54.4	-76.8	3.5	3.03e+01	0	46	104	0	60	261902
2026-01-29 03:08:19.32	4.04	18.94	-54.4	-76.9	3.5	3.03e+01	0	46	104	0	60	265193
2026-01-29 03:08:20.33	3.83	19.03	-55.0	-76.6	3.5	3.03e+01	0	46	104	0	60	258082
2026-01-29 03:08:21.34	3.61	19.12	-55.4	-76.9	3.5	3.03e+01	0	46	104	0	60	264774
2026-01-29 03:08:22.35	3.39	19.21	-55.9	-76.8	3.5	3.03e+01	0	46	104	0	60	263490
2026-01-29 03:08:23.35	3.17	19.30	-55.3	-76.8	3.5	3.03e+01	0	46	104	0	60	264157
2026-01-29 03:08:24.36	2.95	19.39	-56.1	-76.6	3.5	3.03e+01	0	46	104	0	60	258084
2026-01-29 03:08:25.35	2.73	19.48	-55.1	-76.8	3.5	3.03e+01	0	46	104	0	60	263460
2026-01-29 03:08:26.36	2.50	19.57	-54.9	-76.7	3.5	3.03e+01	0	46	104	0	60	258871
2026-01-29 03:08:27.36	2.28	19.66	-55.6	-76.8	3.5	3.03e+01	0	46	104	0	60	263260
2026-01-29 03:08:28.37	2.05	19.75	-55.7	-76.6	3.5	3.03e+01	0	46	104	0	60	257031
2026-01-29 03:08:29.37	1.82	19.84	-55.6	-76.5	3.5	3.03e+01	0	46	104	0	60	254775
2026-01-29 03:08:30.38	1.59	19.93	-55.5	-76.6	3.5	3.03e+01	0	46	104	0	60	258267
2026-01-29 03:08:31.39	1.36	20.02	-55.8	-76.6	3.5	3.03e+01	0	46	104	0	60	256230
2026-01-29 03:08:32.40	1.12	20.11	-55.2	-76.3	3.5	3.03e+01	0	46	104	0	60	249299
2026-01-29 03:08:33.41	0.89	20.20	-55.6	-76.4	3.5	3.03e+01	0	46	104	0	60	252747
2026-01-29 03:08:34.41	0.65	20.29	-55.2	-76.6	3.5	3.03e+01	0	46	104	0	60	258063
2026-01-29 03:08:35.42	0.41	20.38	-55.3	-76.7	3.6	3.03e+01	0	46	104	0	60	259308
2026-01-29 03:08:36.43	0.17	20.47	-55.5	-76.3	3.5	3.03e+01	0	46	104	0	60	247665
2026-01-29 03:08:37.44	359.93	20.56	-55.0	-76.3	3.5	3.03e+01	0	46	104	0	60	248161
2026-01-29 03:08:38.44	359.69	20.65	-55.6	-76.6	3.5	3.03e+01	0	46	104	0	60	256358
2026-01-29 03:08:39.44	359.45	20.74	-54.9	-76.3	3.5	3.03e+01	0	46	104	0	60	249204
2026-01-29 03:08:40.45	359.20	20.82	-55.1	-76.2	3.5	3.03e+01	0	46	104	0	60	245906
2026-01-29 03:08:41.44	358.96	20.91	-55.2	-76.1	3.6	3.03e+01	0	46	104	0	60	243254
2026-01-29 03:08:42.45	358.71	21.00	-55.1	-76.4	3.5	3.03e+01	0	46	104	0	60	250381
2026-01-29 03:08:43.45	358.46	21.09	-55.1	-76.4	3.5	3.03e+01	0	46	104	0	60	251624
2026-01-29 03:08:44.46	358.21	21.18	-55.2	-76.1	3.5	3.03e+01	0	46	104	0	60	241833
2026-01-29 03:08:45.46	357.96	21.26	-55.3	-76.1	3.6	3.03e+01	0	46	104	0	60	242243
2026-01-29 03:08:46.47	357.70	21.35	-55.1	-76.3	3.5	3.03e+01	0	46	104	0	60	248388
2026-01-29 03:08:47.48	357.44	21.44	-55.2	-76.0	3.5	3.03e+01	0	46	104	0	60	239156
2026-01-29 03:08:48.49	357.19	21.52	-55.2	-75.9	3.5	3.03e+01	0	46	104	0	60	237658
2026-01-29 03:08:49.50	356.93	21.61	-55.1	-75.9	3.5	3.03e+01	0	46	104	0	60	236725
2026-01-29 03:08:50.51	356.66	21.70	-55.2	-76.1	3.5	3.03e+01	0	46	104	0	60	241705
2026-01-29 03:08:51.51	356.40	21.78	-55.2	-75.9	3.6	3.03e+01	0	46	104	0	60	238379
2026-01-29 03:08:52.51	356.14	21.87	-55.1	-75.7	3.6	3.03e+01	0	46	104	0	60	232771
2026-01-29 03:08:53.52	355.88	21.95	-54.8	-75.7	3.5	3.03e+01	0	46	104	0	60	232368
2026-01-29 03:08:54.53	355.61	22.04	-55.2	-75.7	3.5	3.03e+01	0	46	104	0	60	232766
2026-01-29 03:08:55.54	355.34	22.12	-54.9	-75.8	3.6	3.03e+01	0	46	104	0	60	234256
2026-01-29 03:08:56.54	355.07	22.21	-54.5	-75.7	3.5	3.03e+01	0	46	104	0	60	230707
2026-01-29 03:08:57.55	354.80	22.29	-54.9	-75.6	3.6	3.03e+01	0	46	104	0	60	228418
2026-01-29 03:08:58.56	354.52	22.37	-54.7	-75.7	3.5	3.03e+01	0	46	104	0	60	232615
2026-01-29 03:08:59.57	354.25	22.46	-55.1	-75.8	3.6	3.03e+01	0	46	104	0	60	234712
2026-01-29 03:09:00.57	353.97	22.54	-55.0	-75.8	3.5	3.03e+01	0	46	104	0	60	233737
2026-01-29 03:09:01.58	353.70	22.62	-55.1	-75.7	3.6	3.03e+01	0	46	104	0	60	231759
2026-01-29 03:09:02.58	353.42	22.70	-55.1	-75.8	3.6	3.03e+01	0	46	104	0	60	235852
2026-01-29 03:09:03.58	353.14	22.79	-55.2	-75.6	3.6	3.03e+01	0	46	104	0	60	229000
2026-01-29 03:09:04.59	352.86	22.87	-55.0	-75.7	3.6	3.03e+01	0	46	104	0	60	232065
2026-01-29 03:09:05.60	352.57	22.95	-55.1	-75.7	3.6	3.03e+01	0	46	104	0	60	232971
2026-01-29 03:09:06.61	352.28	23.03	-55.0	-75.7	3.6	3.03e+01	0	46	104	0	60	231404
2026-01-29 03:09:07.61	352.00	23.11	-55.4	-75.8	3.5	3.03e+01	0	46	104	0	60	233303
2026-01-29 03:09:08.62	351.71	23.19	-55.6	-76.1	3.6	3.03e+01	0	46	104	0	60	241814
2026-01-29 03:09:09.63	351.42	23.27	-55.8	-76.3	3.5	3.03e+01	0	46	104	0	60	248464
2026-01-29 03:09:10.63	351.13	23.34	-56.0	-76.7	3.5	3.03e+01	0	46	104	0	60	258801
2026-01-29 03:09:11.64	350.83	23.42	-55.9	-76.6	3.5	3.03e+01	0	46	104	0	60	256973
2026-01-29 03:09:12.64	350.54	23.50	-56.0	-76.7	3.5	3.03e+01	0	46	104	0	60	260279
2026-01-29 03:09:13.65	350.24	23.57	-56.1	-76.8	3.5	3.03e+01	0	46	104	0	60	262775
2026-01-29 03:09:14.65	349.95	23.65	-56.2	-76.8	3.5	3.03e+01	0	46	104	0	60	263948
2026-01-29 03:09:15.65	349.65	23.73	-56.3	-77.0	3.5	3.03e+01	0	46	104	0	60	268107
2026-01-29 03:09:16.65	349.35	23.80	-56.5	-77.1	3.5	3.03e+01	0	46	104	0	60	271323
2026-01-29 03:09:17.66	349.05	23.87	-56.6	-76.9	3.5	3.03e+01	0	46	104	0	60	267715
2026-01-29 03:09:18.67	348.74	23.95	-56.7	-77.0	3.5	3.03e+01	0	46	104	0	60	270243
2026-01-29 03:09:19.67	348.44	24.02	-56.8	-76.9	3.5	3.03e+01	0	46	104	0	60	265900
2026-01-29 03:09:20.68	348.13	24.09	-57.0	-77.0	3.5	3.03e+01	0	46	104	0	60	268410
2026-01-29 03:09:21.69	347.82	24.17	-57.1	-77.0	3.5	3.03e+01	0	46	104	0	60	269858
2026-01-29 03:09:22.69	347.52	24.24	-57.2	-77.1	3.5	3.03e+01	0	46	104	0	60	271150
2026-01-29 03:09:23.70	347.20	24.31	-57.1	-77.0	3.5	3.03e+01	0	46	104	0	60	270481
2026-01-29 03:09:24.71	346.89	24.38	-56.8	-77.0	3.5	3.03e+01	0	46	104	0	60	268694
2026-01-29 03:09:25.70	346.58	24.44	-57.1	-76.9	3.5	3.03e+01	0	46	104	0	60	266338
2026-01-29 03:09:26.71	346.26	24.51	-57.2	-77.0	3.5	3.03e+01	0	46	104	0	60	270600
2026-01-29 03:09:27.72	345.95	24.58	-56.8	-76.7	3.6	3.03e+01	0	46	104	0	60	261527
2026-01-29 03:09:28.72	345.63	24.65	-56.7	-76.8	3.5	3.03e+01	0	46	104	0	60	263174
2026-01-29 03:09:29.73	345.31	24.71	-56.9	-76.9	3.5	3.03e+01	0	46	104	0	60	265899
2026-01-29 03:09:30.73	344.99	24.78	-57.0	-77.0	3.5	3.03e+01	0	46	104	0	60	270553
2026-01-29 03:09:31.74	344.67	24.84	-56.8	-76.9	3.5	3.03e+01	0	46	104	0	60	265554
2026-01-29 03:09:32.75	344.34	24.91	-56.2	-77.0	3.5	3.03e+01	0	46	104	0	60	269094
2026-01-29 03:09:33.75	344.02	24.97	-56.7	-77.0	3.5	3.03e+01	0	46	104	0	60	268412
2026-01-29 03:09:34.76	343.69	25.03	-57.2	-77.1	3.5	3.03e+01	0	46	104	0	60	271446
2026-01-29 03:09:35.76	343.36	25.09	-56.3	-77.0	3.5	3.03e+01	0	46	104	0	60	268519
2026-01-29 03:09:36.77	343.03	25.15	-56.2	-76.9	3.5	3.03e+01	0	46	104	0	60	267268
2026-01-29 03:09:37.77	342.70	25.21	-56.7	-77.0	3.5	3.03e+01	0	46	104	0	60	267972
2026-01-29 03:09:38.78	342.37	25.27	-57.0	-76.8	3.5	3.03e+01	0	46	104	0	60	263345
2026-01-29 03:09:39.78	342.04	25.33	-56.0	-76.8	3.5	3.03e+01	0	46	104	0	60	263836
2026-01-29 03:09:40.79	341.70	25.39	-56.6	-76.6	3.5	3.03e+01	0	46	104	0	60	258258
2026-01-29 03:09:41.80	341.37	25.44	-56.9	-76.8	3.5	3.03e+01	0	46	104	0	60	261733
2026-01-29 03:09:42.80	341.03	25.50	-56.4	-76.7	3.5	3.03e+01	0	46	104	0	60	261229
2026-01-29 03:09:43.81	340.69	25.55	-56.4	-76.7	3.5	3.03e+01	0	46	104	0	60	261546
2026-01-29 03:09:44.81	340.35	25.61	-56.1	-76.4	3.5	3.03e+01	0	46	104	0	60	252490
2026-01-29 03:09:45.82	340.01	25.66	-56.4	-76.7	3.5	3.03e+01	0	46	104	0	60	259549
2026-01-29 03:09:46.82	339.67	25.71	-55.4	-76.4	3.5	3.03e+01	0	46	104	0	60	252113
2026-01-29 03:09:47.83	339.33	25.76	-56.1	-76.6	3.5	3.03e+01	0	46	104	0	60	256374
2026-01-29 03:09:48.83	338.99	25.81	-56.1	-76.6	3.5	3.03e+01	0	46	104	0	60	257059
2026-01-29 03:09:49.83	338.64	25.86	-56.0	-76.3	3.5	3.03e+01	0	46	104	0	60	249506
2026-01-29 03:09:50.83	338.30	25.90	-55.8	-76.5	3.5	3.03e+01	0	46	104	0	60	255388
2026-01-29 03:09:51.83	337.95	25.95	-56.1	-76.7	3.5	3.03e+01	0	46	104	0	60	260409
2026-01-29 03:09:52.84	337.60	26.00	-55.9	-76.6	3.5	3.03e+01	0	46	104	0	60	256790
2026-01-29 03:09:53.84	337.26	26.04	-56.1	-76.6	3.5	3.03e+01	0	46	104	0	60	258376
2026-01-29 03:09:54.85	336.90	26.08	-56.5	-76.9	3.5	3.03e+01	0	46	104	0	60	266905
2026-01-29 03:09:55.85	336.55	26.12	-55.7	-76.3	3.6	3.03e+01	0	46	104	0	60	249229
2026-01-29 03:09:56.86	336.20	26.17	-55.3	-76.1	3.5	3.03e+01	0	46	104	0	60	241446
2026-01-29 03:09:57.87	335.85	26.21	-55.5	-76.0	3.5	3.03e+01	0	46	104	0	60	238728
2026-01-29 03:09:58.88	335.49	26.25	-55.3	-76.2	3.5	3.03e+01	0	46	104	0	60	244780
2026-01-29 03:09:59.89	335.13	26.28	-55.4	-76.2	3.5	3.03e+01	0	46	104	0	60	246384
2026-01-29 03:10:00.89	334.78	26.32	-55.7	-76.3	3.6	3.03e+01	0	46	104	0	60	249040
2026-01-29 03:10:01.90	334.42	26.35	-56.0	-76.6	3.5	3.03e+01	0	46	104	0	60	257530
2026-01-29 03:10:02.91	334.06	26.39	-56.4	-76.7	3.5	3.03e+01	0	46	104	0	60	258919
2026-01-29 03:10:03.91	333.71	26.42	-56.1	-76.6	3.5	3.03e+01	0	46	104	0	60	258154
2026-01-29 03:10:04.92	333.34	26.45	-56.4	-77.0	3.5	3.03e+01	0	46	104	0	60	269877
2026-01-29 03:10:05.92	332.99	26.49	-56.0	-76.5	3.5	3.03e+01	0	46	104	0	60	253940
2026-01-29 03:10:06.92	332.63	26.51	-55.9	-76.5	3.5	3.03e+01	0	46	104	0	60	254293
2026-01-29 03:10:07.93	332.26	26.54	-55.8	-76.3	3.6	3.03e+01	0	46	104	0	60	249379
2026-01-29 03:10:08.94	331.90	26.57	-55.6	-76.3	3.5	3.03e+01	0	46	104	0	60	248249
2026-01-29 03:10:09.95	331.54	26.60	-55.7	-75.9	3.5	3.03e+01	0	46	104	0	60	238414
2026-01-29 03:10:10.95	331.18	26.62	-55.9	-76.3	3.5	3.03e+01	0	46	104	0	60	248792
2026-01-29 03:10:11.96	330.81	26.65	-56.3	-76.4	3.5	3.03e+01	0	46	104	0	60	252005
2026-01-29 03:10:12.96	330.45	26.67	-56.7	-77.0	3.5	3.03e+01	0	46	104	0	60	269416
2026-01-29 03:10:13.97	330.08	26.69	-56.2	-76.4	3.5	3.03e+01	0	46	104	0	60	251588
2026-01-29 03:10:14.98	329.71	26.71	-56.2	-76.5	3.5	3.03e+01	0	46	104	0	60	254338
2026-01-29 03:10:15.98	329.35	26.73	-56.5	-76.6	3.6	3.03e+01	0	46	104	0	60	257219
2026-01-29 03:10:16.99	328.98	26.75	-56.6	-77.0	3.5	3.03e+01	0	46	104	0	60	268904
2026-01-29 03:10:18.00	328.61	26.76	-56.5	-77.0	3.5	3.03e+01	0	46	104	0	60	269038
2026-01-29 03:10:19.01	328.24	26.78	-56.8	-76.9	3.5	3.03e+01	0	46	104	0	60	267709
2026-01-29 03:10:20.02	327.88	26.79	-56.6	-77.1	3.5	3.03e+01	0	46	104	0	60	273539
2026-01-29 03:10:21.02	327.51	26.80	-56.8	-77.1	3.5	3.03e+01	0	46	104	0	60	271814
2026-01-29 03:10:22.03	327.14	26.82	-56.7	-76.9	3.5	3.03e+01	0	46	104	0	60	266108
2026-01-29 03:10:23.03	326.77	26.83	-56.9	-77.1	3.5	3.03e+01	0	46	104	0	60	270915
2026-01-29 03:10:24.04	326.40	26.83	-56.8	-77.1	3.5	3.03e+01	0	46	104	0	60	271139
2026-01-29 03:10:25.04	326.04	26.84	-57.1	-77.1	3.5	3.03e+01	0	46	104	0	60	273219
2026-01-29 03:10:26.05	325.67	26.85	-56.9	-76.9	3.5	3.03e+01	0	46	104	0	60	267656
2026-01-29 03:10:27.05	325.30	26.85	-56.8	-77.1	3.5	3.03e+01	0	46	104	0	60	273065
2026-01-29 03:10:28.06	324.93	26.86	-56.8	-77.1	3.5	3.03e+01	0	46	104	0	60	271444
2026-01-29 03:10:29.07	324.56	26.86	-56.8	-77.2	3.5	3.03e+01	0	46	104	0	60	274420
2026-01-29 03:10:30.08	324.19	26.86	-56.7	-77.0	3.5	3.03e+01	0	46	104	0	60	269207
2026-01-29 03:10:31.09	323.81	26.86	-56.1	-76.9	3.5	3.03e+01	0	46	104	0	60	265200
2026-01-29 03:10:32.09	323.45	26.86	-56.8	-77.2	3.5	3.03e+01	0	46	104	0	60	275303
2026-01-29 03:10:33.10	323.08	26.86	-55.9	-76.9	3.5	3.03e+01	0	46	104	0	60	266460
2026-01-29 03:10:34.11	322.70	26.85	-55.7	-76.8	3.5	3.03e+01	0	46	104	0	60	263305
2026-01-29 03:10:35.12	322.33	26.85	-56.0	-76.9	3.5	3.03e+01	0	46	104	0	60	267520
2026-01-29 03:10:36.12	321.97	26.84	-56.1	-76.9	3.5	3.03e+01	0	46	104	0	60	264760
2026-01-29 03:10:37.13	321.60	26.83	-56.3	-77.2	3.5	3.03e+01	0	46	104	0	60	274901
2026-01-29 03:10:38.13	321.23	26.82	-55.5	-76.4	3.5	3.03e+01	0	46	104	0	60	250585
2026-01-29 03:10:39.14	320.86	26.81	-55.5	-76.5	3.5	3.03e+01	0	46	104	0	60	253550
2026-01-29 03:10:40.15	320.49	26.80	-55.8	-76.4	3.5	3.03e+01	0	46	104	0	60	250319
2026-01-29 03:10:41.15	320.12	26.79	-56.0	-76.3	3.5	3.03e+01	0	46	104	0	60	249468
2026-01-29 03:10:42.16	319.75	26.77	-56.1	-76.8	3.5	3.03e+01	0	46	104	0	60	264313
2026-01-29 03:10:43.16	319.39	26.76	-56.0	-76.6	3.5	3.03e+01	0	46	104	0	60	257850
2026-01-29 03:10:44.17	319.02	26.74	-55.7	-76.7	3.5	3.03e+01	0	46	104	0	60	258828
2026-01-29 03:10:45.17	318.66	26.72	-56.1	-76.7	3.5	3.03e+01	0	46	104	0	60	261171
2026-01-29 03:10:46.18	318.29	26.71	-55.7	-76.2	3.5	3.03e+01	0	46	104	0	60	245425
2026-01-29 03:10:47.19	317.92	26.69	-55.6	-76.2	3.5	3.03e+01	0	46	104	0	60	244786
2026-01-29 03:10:48.20	317.56	26.66	-55.3	-76.4	3.5	3.03e+01	0	46	104	0	60	250938
2026-01-29 03:10:49.21	317.19	26.64	-55.3	-76.3	3.5	3.03e+01	0	46	104	0	60	247397
2026-01-29 03:10:50.21	316.83	26.62	-55.5	-76.7	3.5	3.03e+01	0	46	104	0	60	259783
2026-01-29 03:10:51.22	316.46	26.59	-55.7	-76.8	3.5	3.03e+01	0	46	104	0	60	262223
2026-01-29 03:10:52.23	316.10	26.57	-55.1	-76.4	3.5	3.03e+01	0	46	104	0	60	251427
2026-01-29 03:10:53.23	315.74	26.54	-54.9	-76.3	3.5	3.03e+01	0	46	104	0	60	248225
2026-01-29 03:10:54.23	315.38	26.51	-55.4	-76.7	3.5	3.03e+01	0	46	104	0	60	259483
2026-01-29 03:10:55.24	315.02	26.48	-55.2	-76.6	3.5	3.03e+01	0	46	104	0	60	258283
2026-01-29 03:10:56.24	314.66	26.45	-54.7	-75.8	3.5	3.03e+01	0	46	104	0	60	235643
2026-01-29 03:10:57.24	314.30	26.42	-55.2	-76.2	3.5	3.03e+01	0	46	104	0	60	245256
2026-01-29 03:10:58.24	313.94	26.38	-54.7	-76.0	3.5	3.03e+01	0	46	104	0	60	239856
2026-01-29 03:10:59.24	313.59	26.35	-55.1	-76.0	3.5	3.03e+01	0	46	104	0	60	240983
2026-01-29 03:11:00.25	313.23	26.31	-55.1	-76.2	3.5	3.03e+01	0	46	104	0	60	245820
2026-01-29 03:11:01.26	312.87	26.28	-55.1	-76.3	3.5	3.03e+01	0	46	104	0	60	247259
2026-01-29 03:11:02.26	312.52	26.24	-54.2	-75.6	3.5	3.03e+01	0	46	104	0	60	230343
2026-01-29 03:11:03.27	312.16	26.20	-54.4	-75.8	3.5	3.03e+01	0	46	104	0	60	234015
2026-01-29 03:11:04.28	311.81	26.16	-55.1	-76.6	3.5	3.03e+01	0	46	104	0	60	257792
2026-01-29 03:11:05.28	311.46	26.12	-54.8	-75.8	3.6	3.03e+01	0	46	104	0	60	234812
2026-01-29 03:11:06.29	311.10	26.07	-54.7	-75.9	3.5	3.03e+01	0	46	104	0	60	237262
2026-01-29 03:11:07.30	310.75	26.03	-54.9	-75.9	3.5	3.03e+01	0	47	104	0	60	236879
2026-01-29 03:11:08.31	310.40	25.99	-55.3	-76.3	3.5	3.03e+01	0	46	104	0	60	248032
2026-01-29 03:11:09.31	310.05	25.94	-55.5	-76.3	3.5	3.03e+01	0	47	104	0	60	248045
2026-01-29 03:11:10.32	309.70	25.89	-55.9	-76.5	3.5	3.03e+01	0	47	104	0	60	255721
2026-01-29 03:11:11.33	309.36	25.85	-55.1	-76.4	3.5	3.03e+01	0	46	104	0	60	249961
2026-01-29 03:11:12.33	309.01	25.80	-54.6	-75.0	3.6	3.03e+01	0	46	104	0	60	214492
2026-01-29 03:11:13.34	308.67	25.75	-54.2	-74.3	3.6	3.03e+01	0	46	104	0	60	197724
2026-01-29 03:11:14.34	308.33	25.70	-54.8	-75.5	3.5	3.03e+01	0	46	104	0	60	225895
2026-01-29 03:11:15.35	307.98	25.65	-54.2	-74.4	3.6	3.03e+01	0	46	104	0	60	200759
2026-01-29 03:11:16.35	307.64	25.59	-54.2	-74.3	3.6	3.03e+01	0	47	104	0	60	198374
2026-01-29 03:11:17.35	307.31	25.54	-53.9	-74.2	3.6	3.03e+01	0	46	104	0	60	194295
2026-01-29 03:11:18.36	306.97	25.49	-54.0	-74.6	3.6	3.03e+01	0	47	104	0	60	205290
2026-01-29 03:11:19.37	306.63	25.43	-55.0	-75.8	3.5	3.03e+01	0	47	104	0	60	233472
2026-01-29 03:11:20.37	306.29	25.37	-54.1	-74.8	3.6	3.03e+01	0	46	104	0	60	207971
2026-01-29 03:11:21.38	305.96	25.32	-55.1	-75.4	3.5	3.03e+01	0	46	104	0	60	224281
2026-01-29 03:11:22.39	305.62	25.26	-54.3	-75.3	3.6	3.03e+01	0	46	104	0	60	220699
2026-01-29 03:11:23.40	305.29	25.20	-54.8	-75.4	3.6	3.03e+01	0	46	104	0	60	224778
2026-01-29 03:11:24.40	304.96	25.14	-54.6	-75.3	3.5	3.03e+01	0	46	104	0	60	222167
2026-01-29 03:11:25.40	304.63	25.08	-54.3	-75.3	3.5	3.03e+01	0	46	104	0	60	221799
2026-01-29 03:11:26.40	304.31	25.02	-53.3	-73.1	3.6	3.03e+01	0	46	104	0	60	172413
2026-01-29 03:11:27.41	303.98	24.96	-54.9	-75.2	3.5	3.03e+01	0	46	104	0	60	218857
2026-01-29 03:11:28.41	303.66	24.89	-54.4	-75.4	3.5	3.03e+01	0	46	104	0	60	224743
2026-01-29 03:11:29.42	303.33	24.83	-55.0	-75.6	3.5	3.03e+01	0	47	104	0	60	228782
2026-01-29 03:11:30.43	303.01	24.76	-54.1	-74.7	3.5	3.03e+01	0	46	104	0	60	206778
2026-01-29 03:11:31.43	302.69	24.70	-54.6	-75.1	3.5	3.03e+01	0	46	104	0	60	216854
2026-01-29 03:11:32.44	302.37	24.63	-54.7	-75.0	3.5	3.03e+01	0	46	104	0	60	213090
2026-01-29 03:11:33.44	302.05	24.57	-54.6	-74.7	3.5	3.03e+01	0	46	104	0	60	206098
2026-01-29 03:11:34.44	301.73	24.50	-55.0	-75.8	3.5	3.03e+01	0	46	104	0	60	233538
2026-01-29 03:11:35.45	301.42	24.43	-55.3	-75.9	3.5	3.03e+01	0	46	104	0	60	237985
2026-01-29 03:11:36.46	301.10	24.36	-53.6	-74.1	3.6	3.03e+01	0	46	104	0	60	193993
2026-01-29 03:11:37.47	300.79	24.29	-54.6	-74.6	3.6	3.03e+01	0	46	104	0	60	204605
2026-01-29 03:11:38.48	300.47	24.22	-53.7	-72.7	3.6	3.03e+01	0	46	104	0	60	164972
2026-01-29 03:11:39.48	300.17	24.15	-53.5	-72.8	3.6	3.03e+01	0	46	104	0	60	166016
2026-01-29 03:11:40.49	299.86	24.08	-53.3	-72.9	3.5	3.03e+01	0	46	104	0	60	168531
2026-01-29 03:11:41.50	299.55	24.00	-52.2	-72.5	3.6	3.03e+01	0	46	104	0	60	159529
2026-01-29 03:11:42.51	299.24	23.93	-52.1	-73.0	3.6	3.03e+01	0	46	104	0	60	170451
2026-01-29 03:11:43.51	298.94	23.86	-54.4	-74.5	3.6	3.03e+01	0	46	104	0	60	200899
2026-01-29 03:11:44.52	298.64	23.78	-55.2	-75.0	3.6	3.03e+01	0	47	104	0	60	214894
2026-01-29 03:11:45.52	298.34	23.71	-54.9	-74.6	3.5	3.03e+01	0	47	104	0	60	204336
2026-01-29 03:11:46.52	298.04	23.63	-53.0	-73.6	3.6	3.03e+01	0	46	104	0	60	182306
2026-01-29 03:11:47.53	297.74	23.55	-52.6	-73.4	3.6	3.03e+01	0	46	104	0	60	178341
2026-01-29 03:11:48.54	297.44	23.48	-52.5	-73.3	3.6	3.03e+01	0	46	104	0	60	175460
2026-01-29 03:11:49.54	297.15	23.40	-53.0	-74.4	3.6	3.03e+01	0	47	104	0	60	200801
2026-01-29 03:11:50.55	296.86	23.32	-55.0	-75.6	3.5	3.03e+01	0	46	104	0	60	228568
2026-01-29 03:11:51.55	296.57	23.24	-54.8	-75.7	3.5	3.03e+01	0	46	104	0	60	230687
2026-01-29 03:11:52.56	296.28	23.16	-54.9	-75.5	3.5	3.03e+01	0	46	104	0	60	225631
2026-01-29 03:11:53.57	295.99	23.08	-55.3	-75.7	3.5	3.03e+01	0	46	104	0	60	232646
2026-01-29 03:11:54.57	295.70	23.01	-53.0	-73.9	3.6	3.03e+01	0	46	104	0	60	189258
2026-01-29 03:11:55.58	295.41	22.92	-53.1	-73.7	3.6	3.03e+01	0	46	104	0	60	183524
2026-01-29 03:11:56.59	295.13	22.84	-53.0	-73.2	3.6	3.03e+01	0	46	104	0	60	173239
2026-01-29 03:11:57.60	294.84	22.76	-54.1	-74.4	3.6	3.03e+01	0	46	104	0	60	199456
2026-01-29 03:11:58.61	294.56	22.68	-56.3	-76.0	3.5	3.03e+01	0	46	104	0	60	238851
2026-01-29 03:11:59.61	294.28	22.60	-54.4	-74.8	3.6	3.03e+01	0	47	104	0	60	209649
2026-01-29 03:12:00.62	294.01	22.52	-54.3	-73.0	3.7	3.03e+01	0	46	104	0	60	169761
2026-01-29 03:12:01.63	293.73	22.43	-54.3	-73.2	3.6	3.03e+01	0	47	104	0	60	174699
2026-01-29 03:12:02.63	293.46	22.35	-52.9	-72.5	3.6	3.03e+01	0	46	104	0	60	159805
2026-01-29 03:12:03.64	293.18	22.27	-53.7	-73.6	3.6	3.03e+01	0	46	104	0	60	182023
2026-01-29 03:12:04.64	292.91	22.18	-54.1	-74.2	3.5	3.03e+01	0	46	104	0	60	195889
2026-01-29 03:12:05.65	292.64	22.10	-54.0	-74.6	3.6	3.03e+01	0	46	104	0	60	204893
2026-01-29 03:12:06.65	292.37	22.01	-54.3	-75.0	3.5	3.03e+01	0	46	104	0	60	213753
2026-01-29 03:12:07.66	292.11	21.93	-54.2	-74.8	3.6	3.03e+01	0	46	104	0	60	209584
2026-01-29 03:12:08.67	291.84	21.84	-52.7	-72.2	3.6	3.03e+01	0	46	104	0	60	155467
2026-01-29 03:12:09.68	291.57	21.75	-52.5	-72.2	3.6	3.03e+01	0	46	104	0	60	155753
2026-01-29 03:12:10.69	291.31	21.67	-52.5	-73.1	3.6	3.03e+01	0	46	104	0	60	170972
2026-01-29 03:12:11.69	291.05	21.58	-52.6	-72.6	3.6	3.03e+01	0	46	104	0	60	162703
2026-01-29 03:12:12.70	290.79	21.50	-52.9	-73.1	3.6	3.03e+01	0	46	104	0	60	171279
2026-01-29 03:12:13.71	290.53	21.41	-53.5	-72.6	3.6	3.03e+01	0	46	104	0	60	161963
2026-01-29 03:12:14.72	290.28	21.32	-54.3	-73.9	3.5	3.03e+01	0	46	104	0	60	189034
2026-01-29 03:12:15.73	290.02	21.23	-54.6	-74.8	3.5	3.03e+01	0	46	104	0	60	208004
2026-01-29 03:12:16.73	289.77	21.15	-55.2	-75.7	3.5	3.03e+01	0	46	104	0	60	231936
2026-01-29 03:12:17.74	289.52	21.06	-54.5	-74.9	3.5	3.03e+01	0	46	104	0	60	212586
2026-01-29 03:12:18.74	289.27	20.97	-54.2	-73.6	3.5	3.03e+01	0	46	104	0	60	182090
2026-01-29 03:12:19.75	289.02	20.88	-54.2	-73.4	3.5	3.03e+01	0	46	104	0	60	177084
2026-01-29 03:12:20.75	288.77	20.79	-53.9	-73.6	3.5	3.03e+01	0	46	104	0	60	181765
2026-01-29 03:12:21.76	288.53	20.70	-54.9	-75.0	3.5	3.03e+01	0	47	104	0	60	213072
2026-01-29 03:12:22.77	288.28	20.61	-55.8	-76.1	3.5	3.03e+01	0	47	104	0	60	243938
2026-01-29 03:12:23.77	288.04	20.53	-53.8	-73.6	3.6	3.03e+01	0	47	104	0	60	182053
2026-01-29 03:12:24.78	287.80	20.44	-55.2	-73.3	3.6	3.03e+01	0	46	104	0	60	175626
2026-01-29 03:12:25.78	287.56	20.35	-53.5	-73.1	3.6	3.03e+01	0	47	104	0	60	171281
2026-01-29 03:12:26.79	287.32	20.26	-53.2	-73.6	3.6	3.03e+01	0	46	104	0	60	181426
2026-01-29 03:12:27.80	287.08	20.17	-53.8	-73.5	3.6	3.03e+01	0	46	104	0	60	180304
2026-01-29 03:12:28.80	286.85	20.08	-54.3	-73.7	3.6	3.03e+01	0	46	104	0	60	183464
2026-01-29 03:12:29.81	286.62	19.99	-56.0	-74.1	3.6	3.03e+01	0	46	104	0	60	191995
2026-01-29 03:12:30.82	286.38	19.90	-54.8	-74.7	3.5	3.03e+01	0	46	104	0	60	207699
2026-01-29 03:12:31.83	286.15	19.81	-55.8	-75.7	3.5	3.03e+01	0	46	104	0	60	231016
2026-01-29 03:12:32.83	285.92	19.72	-56.1	-76.2	3.5	3.03e+01	0	46	104	0	60	244405
2026-01-29 03:12:33.84	285.69	19.63	-56.1	-75.5	3.5	3.03e+01	0	46	104	0	60	226215
2026-01-29 03:12:34.85	285.47	19.53	-55.9	-75.7	3.5	3.03e+01	0	47	104	0	60	232418
2026-01-29 03:12:35.85	285.24	19.44	-55.0	-75.6	3.5	3.03e+01	0	46	104	0	60	230219
2026-01-29 03:12:36.86	285.02	19.35	-54.1	-75.1	3.5	3.03e+01	0	47	104	0	60	216327
2026-01-29 03:12:37.87	284.80	19.26	-54.6	-75.6	3.5	3.03e+01	0	46	104	0	60	228947
2026-01-29 03:12:38.88	284.57	19.17	-55.1	-74.4	3.5	3.03e+01	0	47	104	0	60	198698
2026-01-29 03:12:39.89	284.35	19.08	-54.5	-75.4	3.5	3.03e+01	0	46	104	0	60	223697
2026-01-29 03:12:40.89	284.14	18.99	-53.3	-73.4	3.6	3.03e+01	0	46	104	0	60	178935
2026-01-29 03:12:41.90	283.92	18.90	-54.5	-73.4	3.6	3.03e+01	0	46	104	0	60	177679
2026-01-29 03:12:42.90	283.71	18.81	-54.6	-73.8	3.7	3.03e+01	0	46	104	0	60	185673
2026-01-29 03:12:43.91	283.49	18.72	-54.9	-73.7	3.7	3.03e+01	0	47	104	0	60	183502
2026-01-29 03:12:44.92	283.28	18.62	-55.4	-73.6	3.9	3.03e+01	0	46	104	0	60	181172
2026-01-29 03:12:45.93	283.07	18.53	-51.8	-62.8	10.9	3.03e+01	0	46	104	0	60	52246
2026-01-29 03:12:46.93	282.86	18.44	-55.2	-74.4	3.5	3.03e+01	0	46	104	0	60	200686
2026-01-29 03:12:47.94	282.65	18.35	-53.7	-73.8	3.5	3.03e+01	0	46	104	0	60	185991
2026-01-29 03:12:48.94	282.44	18.26	-50.6	-72.1	3.8	3.03e+01	0	47	104	0	60	152771
2026-01-29 03:12:49.95	282.23	18.17	-54.5	-73.0	3.5	3.03e+01	0	46	104	0	60	170034
2026-01-29 03:12:50.96	282.03	18.08	-51.2	-73.5	3.6	3.03e+01	0	46	104	0	60	179299
2026-01-29 03:12:51.97	281.83	17.99	-50.6	-72.6	3.7	3.03e+01	0	47	104	0	60	162579
2026-01-29 03:12:52.97	281.62	17.89	-50.8	-73.2	3.7	3.03e+01	0	46	104	0	60	173489
2026-01-29 03:12:53.98	281.42	17.80	-50.2	-72.6	3.7	3.03e+01	0	46	104	0	60	162199
2026-01-29 03:12:54.99	281.22	17.71	-51.8	-73.2	3.6	3.03e+01	0	46	104	0	60	174122
2026-01-29 03:12:55.99	281.03	17.62	-52.3	-70.9	3.6	3.03e+01	0	46	104	0	60	133857
2026-01-29 03:12:56.99	280.83	17.53	-53.1	-73.6	3.6	3.03e+01	0	46	104	0	60	182112
2026-01-29 03:12:58.00	280.64	17.44	-49.1	-68.4	3.7	3.03e+01	0	46	104	0	60	100195
2026-01-29 03:12:59.01	280.44	17.35	-48.8	-68.5	3.7	3.03e+01	0	47	104	0	60	101271
2026-01-29 03:13:00.02	280.25	17.26	-48.7	-68.1	3.6	3.03e+01	0	46	104	0	60	96681
2026-01-29 03:13:01.03	280.05	17.17	-48.8	-68.3	3.8	3.03e+01	0	47	104	0	60	99057
2026-01-29 03:13:02.03	279.86	17.08	-46.9	-51.6	17.7	3.03e+01	0	47	0	0	60	14511
2026-01-29 03:13:03.04	279.67	16.98	-48.8	-68.9	3.7	3.03e+01	0	46	104	524288	60	106221
2026-01-29 03:13:04.04	279.49	16.89	-48.8	-69.7	3.8	3.03e+01	0	46	104	524288	60	116052
2026-01-29 03:13:05.04	279.30	16.80	-50.6	-71.0	3.7	3.03e+01	0	46	104	524288	60	135620
2026-01-29 03:13:06.05	279.12	16.71	-52.7	-72.1	3.6	3.03e+01	0	46	104	524288	60	153426
2026-01-29 03:13:07.05	278.93	16.62	-51.1	-70.6	3.7	3.03e+01	0	46	104	524288	60	129009
2026-01-29 03:13:08.06	278.75	16.53	-50.6	-70.2	3.7	3.03e+01	0	46	104	524288	60	123418
2026-01-29 03:13:09.06	278.57	16.44	-50.6	-70.9	3.8	3.03e+01	0	46	104	524288	60	133969
2026-01-29 03:13:10.06	278.39	16.35	-53.6	-73.0	3.7	3.03e+01	0	47	104	524288	60	170548
2026-01-29 03:13:11.07	278.21	16.26	-50.9	-70.2	3.7	3.03e+01	0	46	104	524288	60	122504
2026-01-29 03:13:12.08	278.03	16.17	-52.3	-72.1	3.6	3.03e+01	0	47	104	524288	60	152722
2026-01-29 03:13:13.08	277.85	16.08	-52.2	-71.5	3.6	3.03e+01	0	47	104	524288	60	143798
2026-01-29 03:13:14.08	277.68	15.99	-50.1	-69.7	3.7	3.03e+01	0	46	104	524288	60	115639
2026-01-29 03:13:15.09	277.50	15.90	-50.2	-69.7	3.8	3.03e+01	0	46	104	524288	60	116855
2026-01-29 03:13:16.10	277.33	15.81	-50.6	-69.9	3.7	3.03e+01	0	46	104	524288	60	118591
2026-01-29 03:13:17.10	277.15	15.72	-50.8	-70.1	3.8	3.03e+01	0	46	104	524288	60	121348
2026-01-29 03:13:18.11	276.98	15.63	-51.1	-71.9	3.7	3.03e+01	0	46	104	524288	60	149122
2026-01-29 03:13:19.12	276.81	15.54	-52.6	-72.6	3.6	3.03e+01	0	46	104	524288	60	161788
2026-01-29 03:13:20.12	276.64	15.46	-51.5	-71.5	3.7	3.03e+01	0	47	104	524288	60	142651
2026-01-29 03:13:21.13	276.47	15.37	-50.5	-67.8	4.3	3.03e+01	0	46	104	524288	60	93794
2026-01-29 03:13:22.13	276.31	15.28	-50.3	-71.0	3.7	3.03e+01	0	46	104	524288	60	134509
2026-01-29 03:13:23.14	276.14	15.19	-50.2	-70.3	3.7	3.03e+01	0	46	104	524288	60	124908
2026-01-29 03:13:24.14	275.98	15.10	-50.6	-69.7	3.6	3.03e+01	0	46	104	524288	60	116265
2026-01-29 03:13:25.14	275.81	15.01	-51.3	-70.0	3.5	3.03e+01	0	46	104	524288	60	120251
2026-01-29 03:13:26.14	275.65	14.92	-50.3	-67.1	3.7	3.03e+01	0	46	104	524288	60	86545
2026-01-29 03:13:27.15	275.49	14.84	-53.2	-73.1	3.6	3.03e+01	0	46	104	524288	60	171668
2026-01-29 03:13:28.16	275.33	14.75	-51.7	-70.4	3.6	3.03e+01	0	46	104	524288	60	126591
2026-01-29 03:13:29.17	275.17	14.66	-49.8	-70.7	3.7	3.03e+01	0	46	104	524288	60	130759
2026-01-29 03:13:30.18	275.01	14.57	-51.8	-71.0	3.6	3.03e+01	0	46	104	524288	60	134839
2026-01-29 03:13:31.19	274.85	14.48	-50.5	-71.2	3.7	3.03e+01	0	46	104	524288	60	137582
2026-01-29 03:13:32.20	274.69	14.39	-51.0	-71.3	3.7	3.03e+01	0	46	104	524288	60	139659
2026-01-29 03:13:33.20	274.53	14.31	-51.1	-71.4	3.7	3.03e+01	0	46	104	524288	60	141341
2026-01-29 03:13:34.21	274.38	14.22	-51.1	-70.9	3.8	3.03e+01	0	46	104	524288	60	132872
2026-01-29 03:13:35.22	274.22	14.13	-51.8	-72.4	3.6	3.03e+01	0	46	104	524288	60	157742
2026-01-29 03:13:36.23	274.07	14.05	-54.0	-72.0	3.6	3.03e+01	0	46	104	524288	60	152027
2026-01-29 03:13:37.23	273.92	13.96	-51.3	-71.5	3.6	3.03e+01	0	47	104	524288	60	143118
2026-01-29 03:13:38.24	273.77	13.87	-55.2	-73.0	3.5	3.03e+01	0	47	104	524288	60	170867
2026-01-29 03:13:39.25	273.62	13.79	-54.3	-74.1	3.5	3.03e+01	0	46	104	524288	60	193441
2026-01-29 03:13:40.25	273.47	13.70	-55.3	-74.8	3.5	3.03e+01	0	47	104	524288	60	208407
2026-01-29 03:13:41.26	273.32	13.61	-56.1	-75.0	3.5	3.03e+01	0	47	104	524288	60	214685
2026-01-29 03:13:42.26	273.17	13.53	-55.4	-75.3	3.5	3.03e+01	0	46	104	524288	60	220941
2026-01-29 03:13:43.26	273.03	13.44	-56.1	-75.2	3.5	3.03e+01	0	46	104	524288	60	217815
2026-01-29 03:13:44.26	272.88	13.36	-56.1	-75.6	3.5	3.03e+01	0	47	104	524288	60	230350
2026-01-29 03:13:45.27	272.74	13.27	-54.0	-71.6	3.8	3.03e+01	0	46	104	524288	60	145075
2026-01-29 03:13:46.27	272.60	13.19	-51.5	-71.6	3.7	3.03e+01	0	47	104	524288	60	145011
2026-01-29 03:13:47.28	272.45	13.10	-51.7	-67.4	4.4	3.03e+01	0	46	104	524288	60	89100
2026-01-29 03:13:48.28	272.31	13.02	-51.8	-67.9	4.3	3.03e+01	0	46	104	524288	60	94631
2026-01-29 03:13:49.29	272.17	12.93	-52.6	-68.1	5.3	3.03e+01	0	46	104	524288	60	96521
2026-01-29 03:13:50.29	272.03	12.85	-53.2	-58.9	14.1	3.03e+01	0	46	0	1572864	60	33638
2026-01-29 03:13:51.30	271.89	12.76	-53.4	-72.6	3.6	3.03e+01	0	46	104	2097152	60	161729
2026-01-29 03:13:52.30	271.75	12.68	-51.9	-70.8	3.6	3.03e+01	0	46	104	2097152	60	132298
2026-01-29 03:13:53.31	271.62	12.59	-55.4	-65.7	8.0	3.03e+01	0	47	104	2097152	60	73198
2026-01-29 03:13:54.31	271.48	12.51	-52.0	-71.7	3.6	3.03e+01	0	46	104	2097152	60	146040
2026-01-29 03:13:55.32	271.34	12.42	-54.5	-63.4	9.3	3.03e+01	0	46	104	2097152	60	56536
2026-01-29 03:13:56.32	271.21	12.34	-54.3	-63.3	10.3	3.03e+01	0	46	0	1048576	60	55938
2026-01-29 03:13:57.33	271.08	12.26	-53.1	-60.4	13.1	3.03e+01	0	46	0	3145728	60	39927
2026-01-29 03:13:58.34	270.94	12.17	-52.2	-58.3	15.6	3.03e+01	0	47	0	5242880	60	31135
2026-01-29 03:13:59.34	270.81	12.09	-51.5	-56.5	17.6	3.03e+01	0	47	0	6815744	60	25404
2026-01-29 03:14:00.35	270.68	12.01	-51.0	-55.2	19.0	3.03e+01	0	46	0	8912896	60	21907
2026-01-29 03:14:01.35	270.55	11.92	-50.5	-54.1	20.0	3.03e+01	0	46	0	10485760	60	19370
2026-01-29 03:14:02.36	270.42	11.84	-50.2	-53.3	20.7	3.03e+01	0	46	0	12582912	60	17690
2026-01-29 03:14:03.37	270.29	11.76	-49.8	-52.3	21.9	3.03e+01	0	46	0	14155776	60	15670
2026-01-29 03:14:04.37	270.16	11.68	-49.4	-51.6	22.8	3.03e+01	0	46	0	16252928	60	14432
2026-01-29 03:14:05.37	270.03	11.59	-48.7	-50.9	23.7	3.03e+01	0	46	0	18350080	60	13277
2026-01-29 03:14:06.37	269.91	11.51	-48.3	-50.6	24.2	3.03e+01	0	46	0	20447232	60	12822
2026-01-29 03:14:07.38	269.78	11.43	-48.3	-50.6	24.1	3.03e+01	0	46	0	22020096	60	12893
2026-01-29 03:14:08.39	269.66	11.35	-48.0	-50.6	23.2	3.03e+01	0	46	0	24117248	60	12865
2026-01-29 03:14:09.40	269.53	11.27	-47.7	-50.7	22.0	3.03e+01	0	46	0	25690112	60	13034
2026-01-29 03:14:10.41	269.41	11.18	-47.2	-50.7	20.8	3.03e+01	0	46	0	27787264	60	13071
2026-01-29 03:14:11.41	269.28	11.10	-46.8	-50.7	20.0	3.03e+01	0	46	0	29360128	60	13019
2026-01-29 03:14:12.41	269.16	11.02	-46.8	-50.5	20.0	3.03e+01	0	47	0	31457280	60	12701
2026-01-29 03:14:13.41	269.04	10.94	-47.2	-50.7	20.4	3.03e+01	0	46	0	33554432	60	13106
2026-01-29 03:14:14.42	268.92	10.86	-47.7	-50.6	21.5	3.03e+01	0	46	0	35127296	60	12920
2026-01-29 03:14:15.42	268.80	10.78	-48.0	-50.8	21.6	3.03e+01	0	46	0	37224448	60	13241
2026-01-29 03:14:16.42	268.68	10.70	-47.9	-50.8	21.3	3.03e+01	0	46	0	38797312	60	13195
2026-01-29 03:14:17.43	268.56	10.62	-47.8	-50.9	20.6	3.03e+01	0	46	0	40894464	60	13283
2026-01-29 03:14:18.43	268.45	10.54	-47.6	-50.9	19.9	3.03e+01	0	46	0	42467328	60	13364
2026-01-29 03:14:19.44	268.33	10.46	-47.6	-50.9	20.0	3.03e+01	0	47	0	44564480	60	13413
2026-01-29 03:14:20.45	268.21	10.38	-47.6	-50.8	20.6	3.03e+01	0	46	0	46661632	60	13264
2026-01-29 03:14:21.45	268.10	10.30	-47.5	-50.8	21.0	3.03e+01	0	46	0	48234496	60	13160
2026-01-29 03:14:22.46	267.98	10.22	-47.5	-50.8	21.1	3.03e+01	0	46	0	50331648	60	13265
2026-01-29 03:14:23.47	267.87	10.14	-47.5	-50.8	21.0	3.03e+01	0	46	0	51904512	60	13160
2026-01-29 03:14:24.47	267.75	10.07	-47.7	-50.9	20.9	3.03e+01	0	46	0	54001664	60	13288
2026-01-29 03:14:25.47	267.64	9.99	-48.0	-50.9	20.8	3.03e+01	0	46	0	56098816	60	13387
2026-01-29 03:14:26.48	267.53	9.91	-48.3	-51.0	21.1	3.03e+01	0	46	0	57671680	60	13542
2026-01-29 03:14:27.49	267.42	9.83	-48.5	-50.9	21.6	3.03e+01	0	47	0	59768832	60	13399
2026-01-29 03:14:28.49	267.31	9.75	-48.5	-51.0	21.3	3.03e+01	0	46	0	61865984	60	13475
2026-01-29 03:14:29.50	267.20	9.67	-48.5	-51.1	21.0	3.03e+01	0	46	0	63438848	60	13713
2026-01-29 03:14:30.50	267.09	9.60	-48.3	-51.0	21.2	3.03e+01	0	46	0	65536000	60	13444
2026-01-29 03:14:31.51	266.98	9.52	-48.5	-51.0	21.5	3.03e+01	0	46	0	67108864	60	13463
2026-01-29 03:14:32.52	266.87	9.44	-48.7	-50.9	22.4	3.03e+01	0	46	0	69206016	60	13344
2026-01-29 03:14:33.52	266.76	9.36	-48.9	-51.0	23.0	3.03e+01	0	46	0	70778880	60	13521
2026-01-29 03:14:34.53	266.65	9.29	-48.9	-50.9	23.7	3.03e+01	0	46	0	72876032	60	13396
2026-01-29 03:14:35.54	266.55	9.21	-48.9	-51.1	23.6	3.03e+01	0	46	0	74973184	60	13668
2026-01-29 03:14:36.55	266.44	9.13	-49.0	-51.2	23.4	3.03e+01	0	46	0	76546048	60	13877
2026-01-29 03:14:37.56	266.33	9.05	-48.9	-51.2	23.0	3.03e+01	0	46	0	78643200	60	13818
2026-01-29 03:14:38.57	266.23	8.98	-48.7	-51.3	22.2	3.03e+01	0	46	0	80216064	60	13940
2026-01-29 03:14:39.57	266.13	8.90	-48.2	-51.2	21.1	3.03e+01	0	46	0	82313216	60	13864
2026-01-29 03:14:40.58	266.02	8.83	-47.8	-51.1	20.1	3.03e+01	0	47	0	84410368	60	13653
2026-01-29 03:14:41.59	265.92	8.75	-47.6	-51.0	19.8	3.03e+01	0	46	0	85983232	60	13564
2026-01-29 03:14:42.60	265.82	8.67	-47.7	-51.1	19.8	3.03e+01	0	46	0	88080384	60	13616
2026-01-29 03:14:43.61	265.71	8.60	-48.1	-51.4	20.0	3.03e+01	0	46	0	90177536	60	14075
2026-01-29 03:14:44.62	265.61	8.52	-48.5	-51.4	20.6	3.03e+01	0	46	0	91750400	60	14160
2026-01-29 03:14:45.62	265.51	8.45	-48.7	-51.2	21.5	3.03e+01	0	46	0	93847552	60	13861
2026-01-29 03:14:46.63	265.41	8.37	-48.5	-51.3	21.1	3.03e+01	0	46	0	95420416	60	14000
2026-01-29 03:14:47.64	265.31	8.30	-48.4	-51.5	20.4	3.03e+01	0	46	0	97517568	60	14332
2026-01-29 03:14:48.65	265.21	8.22	-48.0	-51.4	20.0	3.03e+01	0	46	0	99090432	60	14136
2026-01-29 03:14:49.65	265.12	8.15	-48.0	-51.6	19.8	3.03e+01	0	46	0	101187584	60	14468
2026-01-29 03:14:50.65	265.02	8.07	-48.1	-51.6	20.0	3.03e+01	0	46	0	103284736	60	14410
2026-01-29 03:14:51.66	264.92	8.00	-48.4	-51.7	20.4	3.03e+01	0	46	0	104857600	60	14710
2026-01-29 03:14:52.67	264.82	7.92	-48.4	-51.6	20.7	3.03e+01	0	46	0	106954752	60	14522
2026-01-29 03:14:53.67	264.73	7.85	-48.4	-51.6	20.5	3.03e+01	0	46	0	109051904	60	14479
2026-01-29 03:14:54.68	264.63	7.78	-47.9	-51.4	19.7	3.03e+01	0	47	0	110624768	60	14172
2026-01-29 03:14:55.69	264.54	7.70	-47.6	-51.3	19.4	3.03e+01	0	46	0	112721920	60	14048
2026-01-29 03:14:56.69	264.44	7.63	-47.6	-51.4	19.6	3.03e+01	0	46	0	114294784	60	14063
2026-01-29 03:14:57.69	264.35	7.56	-47.7	-51.5	19.7	3.03e+01	0	46	0	116391936	60	14298
2026-01-29 03:14:58.70	264.26	7.48	-48.0	-51.3	21.5	3.03e+01	0	46	0	118489088	60	14046
2026-01-29 03:14:59.71	264.16	7.41	-48.4	-51.6	22.0	3.03e+01	0	46	0	120061952	60	14446
2026-01-29 03:15:00.72	264.07	7.34	-48.9	-51.8	22.4	3.03e+01	0	46	0	122159104	60	14757
2026-01-29 03:15:01.73	263.98	7.26	-49.2	-51.8	21.9	3.03e+01	0	46	0	123731968	60	14871
2026-01-29 03:15:02.73	263.89	7.19	-49.1	-52.0	20.7	3.03e+01	0	46	0	125829120	60	15129
2026-01-29 03:15:03.74	263.80	7.12	-48.8	-52.2	19.8	3.03e+01	0	46	0	127401984	60	15481
2026-01-29 03:15:04.75	263.71	7.05	-48.1	-52.2	19.5	3.03e+01	0	46	0	129499136	60	15417
2026-01-29 03:15:05.76	263.62	6.98	-47.7	-51.9	19.5	3.03e+01	0	47	0	131596288	60	14887
2026-01-29 03:15:06.76	263.53	6.90	-47.6	-52.0	19.2	3.03e+01	0	46	0	133169152	60	15104
2026-01-29 03:15:07.77	263.44	6.83	-47.7	-52.0	19.5	3.03e+01	0	47	0	135266304	60	15107
2026-01-29 03:15:08.77	263.35	6.76	-48.1	-52.1	20.0	3.03e+01	0	46	0	137363456	60	15306
2026-01-29 03:15:09.78	263.26	6.69	-48.6	-52.1	20.3	3.03e+01	0	46	0	138936320	60	15403
2026-01-29 03:15:10.79	263.18	6.62	-48.9	-52.0	20.8	3.03e+01	0	46	0	141033472	60	15181
2026-01-29 03:15:11.79	263.09	6.55	-49.2	-52.1	20.9	3.03e+01	0	46	0	142606336	60	15326
2026-01-29 03:15:12.80	263.00	6.48	-49.0	-52.2	19.8	3.03e+01	0	46	0	144703488	60	15542
2026-01-29 03:15:13.81	262.92	6.41	-49.1	-52.3	19.0	3.03e+01	0	47	0	146800640	60	15597
2026-01-29 03:15:14.82	262.83	6.33	-48.4	-52.4	18.0	3.03e+01	0	46	0	148373504	60	15784
2026-01-29 03:15:15.83	262.75	6.26	-47.6	-52.3	17.9	3.03e+01	0	46	0	150470656	60	15631
2026-01-29 03:15:16.83	262.66	6.19	-47.5	-52.5	17.5	3.03e+01	0	47	0	152043520	60	16012
2026-01-29 03:15:17.84	262.58	6.12	-47.1	-52.7	17.6	3.03e+01	0	46	0	154140672	60	16446
2026-01-29 03:15:18.85	262.49	6.05	-47.6	-52.7	18.5	3.03e+01	0	47	0	156237824	60	16354
2026-01-29 03:15:19.85	262.41	5.98	-53.3	-69.4	3.7	3.03e+01	0	46	0	157810688	60	112137
2026-01-29 03:15:20.86	262.33	5.91	-52.9	-71.5	3.5	3.03e+01	0	46	104	157810688	60	142621
2026-01-29 03:15:21.87	262.25	5.84	-49.5	-70.0	3.7	3.03e+01	0	46	104	157810688	60	120233
2026-01-29 03:15:22.87	262.16	5.78	-55.1	-74.6	3.5	3.03e+01	0	46	104	157810688	60	203460
2026-01-29 03:15:23.88	262.08	5.71	-54.7	-75.0	3.6	3.03e+01	0	46	104	157810688	60	213341
2026-01-29 03:15:24.88	262.00	5.64	-54.1	-75.2	3.6	3.03e+01	0	46	104	157810688	60	220041
2026-01-29 03:15:25.89	261.92	5.57	-53.0	-74.5	3.6	3.03e+01	0	46	104	157810688	60	201437
2026-01-29 03:15:26.89	261.84	5.50	-55.9	-75.8	3.5	3.03e+01	0	47	104	157810688	60	234196
2026-01-29 03:15:27.89	261.76	5.43	-56.2	-76.0	3.5	3.03e+01	0	47	104	157810688	60	241258
2026-01-29 03:15:28.90	261.68	5.36	-56.5	-77.0	3.5	3.03e+01	0	46	104	157810688	60	269329
2026-01-29 03:15:29.91	261.60	5.30	-56.5	-76.6	3.6	3.03e+01	0	47	104	157810688	60	257252
2026-01-29 03:15:30.91	261.53	5.23	-55.3	-76.6	3.6	3.03e+01	0	47	104	157810688	60	255756
2026-01-29 03:15:31.92	261.45	5.16	-56.3	-77.7	3.5	3.03e+01	0	47	104	157810688	60	290672
2026-01-29 03:15:32.93	261.37	5.09	-57.3	-77.6	3.5	3.03e+01	0	47	104	157810688	60	289974
2026-01-29 03:15:33.93	261.29	5.02	-57.0	-78.1	3.5	3.03e+01	0	47	104	157810688	60	304305
2026-01-29 03:15:34.94	261.22	4.96	-58.0	-78.2	3.5	3.03e+01	0	47	104	157810688	60	308576
2026-01-29 03:15:35.95	261.14	4.89	-57.7	-78.1	3.5	3.03e+01	0	47	104	157810688	60	306602
2026-01-29 03:15:36.96	261.06	4.82	-56.8	-77.7	3.5	3.03e+01	0	46	104	157810688	60	291741
2026-01-29 03:15:37.96	260.99	4.75	-56.1	-77.3	3.6	3.03e+01	0	47	104	157810688	60	280164
2026-01-29 03:15:38.97	260.91	4.69	-56.0	-77.6	3.5	3.03e+01	0	47	104	157810688	60	288575
2026-01-29 03:15:39.97	260.84	4.62	-55.8	-77.8	3.5	3.03e+01	0	47	104	157810688	60	296182
2026-01-29 03:15:40.98	260.76	4.55	-56.2	-78.1	3.5	3.03e+01	0	46	104	157810688	60	304001
2026-01-29 03:15:41.99	260.69	4.49	-56.4	-77.8	3.5	3.03e+01	0	47	104	157810688	60	295527
2026-01-29 03:15:42.99	260.62	4.42	-56.6	-78.0	3.5	3.03e+01	0	46	104	157810688	60	301332
2026-01-29 03:15:44.00	260.54	4.35	-56.5	-77.7	3.5	3.03e+01	0	47	104	157810688	60	290666
2026-01-29 03:15:45.01	260.47	4.29	-56.5	-77.7	3.5	3.03e+01	0	47	104	157810688	60	290997
2026-01-29 03:15:46.02	260.40	4.22	-56.5	-77.7	3.5	3.03e+01	0	47	104	157810688	60	291250
2026-01-29 03:15:47.02	260.33	4.16	-56.5	-77.9	3.5	3.03e+01	0	47	104	157810688	60	297218
2026-01-29 03:15:48.03	260.25	4.09	-56.4	-77.8	3.5	3.03e+01	0	46	104	157810688	60	294934
2026-01-29 03:15:49.04	260.18	4.02	-56.4	-77.8	3.5	3.03e+01	0	47	104	157810688	60	294399
2026-01-29 03:15:50.05	260.11	3.96	-56.4	-77.9	3.6	3.03e+01	0	46	104	157810688	60	298526
2026-01-29 03:15:51.06	260.04	3.89	-56.4	-77.7	3.5	3.03e+01	0	46	104	157810688	60	290385
2026-01-29 03:15:52.06	259.97	3.83	-56.4	-77.6	3.5	3.03e+01	0	46	104	157810688	60	288879
2026-01-29 03:15:53.07	259.90	3.76	-56.4	-77.7	3.5	3.03e+01	0	46	104	157810688	60	291960
2026-01-29 03:15:54.08	259.83	3.70	-56.4	-77.7	3.5	3.03e+01	0	46	104	157810688	60	291348
2026-01-29 03:15:55.08	259.76	3.63	-56.4	-77.6	3.6	3.03e+01	0	47	104	157810688	60	288511
2026-01-29 03:15:56.09	259.69	3.57	-56.3	-77.7	3.5	3.03e+01	0	46	104	157810688	60	292039
2026-01-29 03:15:57.09	259.62	3.51	-56.4	-77.7	3.5	3.03e+01	0	46	104	157810688	60	290875
2026-01-29 03:15:58.10	259.56	3.44	-56.3	-77.5	3.5	3.03e+01	0	46	104	157810688	60	284692
2026-01-29 03:15:59.11	259.49	3.38	-56.3	-77.4	3.5	3.03e+01	0	46	104	157810688	60	283286
2026-01-29 03:16:00.11	259.42	3.31	-56.3	-77.7	3.5	3.03e+01	0	46	104	157810688	60	290450
2026-01-29 03:16:01.12	259.35	3.25	-56.3	-77.5	3.5	3.03e+01	0	46	104	157810688	60	285508
2026-01-29 03:16:02.12	259.29	3.18	-56.3	-77.5	3.5	3.03e+01	0	47	104	157810688	60	284644
2026-01-29 03:16:03.13	259.22	3.12	-56.3	-77.4	3.5	3.03e+01	0	47	104	157810688	60	282552
2026-01-29 03:16:04.14	259.15	3.06	-56.3	-77.5	3.5	3.03e+01	0	46	104	157810688	60	286490
2026-01-29 03:16:05.14	259.09	2.99	-56.3	-77.5	3.6	3.03e+01	0	47	104	157810688	60	286374
2026-01-29 03:16:06.15	259.02	2.93	-56.3	-77.6	3.6	3.03e+01	0	46	104	157810688	60	288610
2026-01-29 03:16:07.15	258.96	2.87	-56.3	-77.4	3.5	3.03e+01	0	46	104	157810688	60	281530
2026-01-29 03:16:08.16	258.89	2.80	-56.3	-77.5	3.6	3.03e+01	0	46	104	157810688	60	284581
2026-01-29 03:16:09.17	258.83	2.74	-56.3	-77.7	3.6	3.03e+01	0	46	104	157810688	60	293591
