passes_logs/2026/01/29/R3.2S-Naryan-Mar/R3.2S-Naryan-Mar__20260129_142447_FENGYUN_3E_rec.log

#Pass ID: 20260129_142447_FENGYUN 3E
#Satellite: FENGYUN 3E
#Configuration: FENGYUN 3E
#almurnet v.1.7.20240730
#Start time: 2026-01-29 14:24:48

#Version: 2.2.20231116
#Station: R3.2S-Naryan-Mar
#Location: 53.008057 lon 67.646978 lat
#TLE: 1 49008U 21062A   26028.95833242 -.00000015  00000+0  13843-4 0  9995
#TLE: 2 49008  98.7500  33.9242 0002547 112.2873 247.8573 14.19887818236829

#Time	Az	El	Level	Level2	SNR	BER	BlckErr	Temp	State	Recorded	gain1	gain2
2026-01-29 14:24:48.17	198.22	0.05	-57.0	-73.5	3.5	8.45e-01	0	44	0	0	60	185086
2026-01-29 14:24:49.17	198.28	0.11	-56.7	-73.7	3.6	8.46e-01	0	45	104	0	60	189839
2026-01-29 14:24:50.18	198.33	0.16	-55.1	-73.6	3.6	8.45e-01	0	45	104	0	60	187031
2026-01-29 14:24:51.19	198.38	0.22	-55.7	-73.6	3.6	8.44e-01	0	45	104	0	60	188245
2026-01-29 14:24:52.19	198.43	0.27	-59.5	-74.3	3.5	8.45e-01	0	45	104	0	60	202123
2026-01-29 14:24:53.20	198.48	0.33	-60.8	-74.6	3.6	8.45e-01	0	45	104	0	60	210973
2026-01-29 14:24:54.21	198.54	0.39	-60.9	-74.7	3.6	8.45e-01	0	45	104	0	60	214020
2026-01-29 14:24:55.22	198.59	0.44	-60.8	-74.6	3.6	8.45e-01	0	45	104	0	60	209233
2026-01-29 14:24:56.22	198.64	0.50	-61.2	-74.7	3.6	8.45e-01	0	45	104	0	60	212446
2026-01-29 14:24:57.23	198.70	0.55	-61.5	-75.0	3.6	8.45e-01	0	45	104	0	60	219703
2026-01-29 14:24:58.24	198.75	0.61	-61.6	-74.9	3.6	8.46e-01	0	45	104	0	60	219023
2026-01-29 14:24:59.25	198.80	0.67	-61.2	-74.8	3.6	8.44e-01	0	45	104	0	60	216259
2026-01-29 14:25:00.25	198.86	0.72	-61.2	-74.6	3.6	8.45e-01	0	45	104	0	60	209521
2026-01-29 14:25:01.26	198.91	0.78	-60.5	-74.2	3.6	8.46e-01	0	45	104	0	60	200533
2026-01-29 14:25:02.27	198.97	0.84	-59.9	-73.7	3.6	8.46e-01	0	45	104	0	60	190248
2026-01-29 14:25:03.27	199.02	0.89	-59.5	-73.6	3.6	8.45e-01	0	45	104	0	60	186743
2026-01-29 14:25:04.28	199.07	0.95	-59.5	-73.2	3.6	8.45e-01	0	45	104	0	60	178197
2026-01-29 14:25:05.28	199.13	1.01	-59.4	-73.0	3.6	8.46e-01	0	45	104	0	60	175470
2026-01-29 14:25:06.28	199.18	1.06	-58.9	-72.5	3.6	8.45e-01	0	45	104	0	60	164494
2026-01-29 14:25:07.29	199.24	1.12	-57.5	-71.9	3.6	8.46e-01	0	45	104	0	60	154651
2026-01-29 14:25:08.30	199.29	1.18	-57.2	-71.7	3.6	8.45e-01	0	45	104	0	60	151113
2026-01-29 14:25:09.31	199.35	1.24	-57.2	-71.6	3.6	8.46e-01	0	45	104	0	60	149518
2026-01-29 14:25:10.32	199.41	1.29	-57.0	-71.5	3.6	8.45e-01	0	45	104	0	60	147035
2026-01-29 14:25:11.32	199.46	1.35	-56.9	-71.4	3.6	8.45e-01	0	45	104	0	60	145388
2026-01-29 14:25:12.33	199.52	1.41	-56.9	-71.3	3.6	8.44e-01	0	45	104	0	60	143515
2026-01-29 14:25:13.34	199.57	1.47	-56.9	-71.3	3.6	8.44e-01	0	45	104	0	60	143154
2026-01-29 14:25:14.34	199.63	1.52	-56.8	-71.3	3.6	8.45e-01	0	45	104	0	60	143402
2026-01-29 14:25:15.35	199.69	1.58	-56.8	-71.2	3.6	8.45e-01	0	45	104	0	60	142149
2026-01-29 14:25:16.36	199.74	1.64	-56.9	-71.2	3.6	8.46e-01	0	46	104	0	60	142797
2026-01-29 14:25:17.37	199.80	1.70	-56.9	-71.1	3.6	8.46e-01	0	46	104	0	60	140911
2026-01-29 14:25:18.37	199.86	1.76	-56.9	-71.1	3.6	8.44e-01	0	45	104	0	60	140091
2026-01-29 14:25:19.38	199.92	1.82	-56.8	-71.1	3.6	8.44e-01	0	45	104	0	60	140190
2026-01-29 14:25:20.39	199.97	1.87	-56.8	-71.0	3.6	8.44e-01	0	45	104	0	60	138922
2026-01-29 14:25:21.40	200.03	1.93	-56.8	-71.1	3.6	8.46e-01	0	46	104	0	60	140270
2026-01-29 14:25:22.41	200.09	1.99	-56.7	-71.0	3.6	8.46e-01	0	45	104	0	60	138345
2026-01-29 14:25:23.42	200.15	2.05	-56.7	-71.1	3.6	8.46e-01	0	46	104	0	60	140203
2026-01-29 14:25:24.43	200.21	2.11	-56.7	-70.9	3.6	8.45e-01	0	46	104	0	60	137798
2026-01-29 14:25:25.43	200.27	2.17	-56.7	-71.0	3.6	8.46e-01	0	46	104	0	60	139074
2026-01-29 14:25:26.44	200.33	2.23	-56.7	-71.0	3.6	8.45e-01	0	46	104	0	60	138445
2026-01-29 14:25:27.45	200.39	2.29	-56.7	-71.0	3.6	8.45e-01	0	46	104	0	60	138339
2026-01-29 14:25:28.45	200.45	2.34	-56.7	-70.9	3.6	8.46e-01	0	46	104	0	60	137398
2026-01-29 14:25:29.45	200.51	2.40	-56.7	-71.0	3.6	8.46e-01	0	46	104	0	60	138599
2026-01-29 14:25:30.46	200.57	2.46	-56.7	-71.0	3.6	8.45e-01	0	46	104	0	60	138937
2026-01-29 14:25:31.46	200.63	2.52	-56.6	-70.9	3.6	8.46e-01	0	46	104	0	60	137145
2026-01-29 14:25:32.47	200.69	2.58	-56.6	-70.9	3.6	8.45e-01	0	46	104	0	60	138156
2026-01-29 14:25:33.47	200.75	2.64	-56.6	-70.9	3.6	8.46e-01	0	46	104	0	60	138073
2026-01-29 14:25:34.48	200.81	2.70	-56.6	-70.9	3.6	8.46e-01	0	46	104	0	60	138088
2026-01-29 14:25:35.48	200.87	2.76	-56.6	-70.9	3.6	8.46e-01	0	46	104	0	60	137001
2026-01-29 14:25:36.47	200.93	2.82	-56.5	-70.9	3.6	8.45e-01	0	46	104	0	60	137710
2026-01-29 14:25:37.47	200.99	2.88	-56.6	-70.9	3.6	8.47e-01	0	46	104	0	60	137943
2026-01-29 14:25:38.47	201.05	2.94	-56.6	-71.0	3.6	8.45e-01	0	46	104	0	60	138349
2026-01-29 14:25:39.47	201.11	3.00	-56.5	-70.8	3.6	8.46e-01	0	46	104	0	60	136280
2026-01-29 14:25:40.48	201.18	3.06	-56.5	-70.8	3.6	8.44e-01	0	46	104	0	60	136090
2026-01-29 14:25:41.48	201.24	3.12	-56.5	-70.9	3.6	8.47e-01	0	46	104	0	60	136846
2026-01-29 14:25:42.49	201.30	3.18	-56.5	-70.8	3.6	8.44e-01	0	46	104	0	60	136558
2026-01-29 14:25:43.49	201.36	3.24	-56.5	-70.9	3.6	8.44e-01	0	46	104	0	60	137078
2026-01-29 14:25:44.50	201.43	3.30	-56.5	-70.8	3.6	8.45e-01	0	46	104	0	60	136604
2026-01-29 14:25:45.50	201.49	3.36	-56.5	-70.8	3.6	8.46e-01	0	46	104	0	60	136293
2026-01-29 14:25:46.51	201.55	3.42	-56.5	-70.8	3.6	8.45e-01	0	46	104	0	60	136413
2026-01-29 14:25:47.51	201.62	3.48	-56.5	-70.9	3.6	8.45e-01	0	46	104	0	60	137376
2026-01-29 14:25:48.51	201.68	3.55	-56.5	-70.8	3.6	8.47e-01	0	46	104	0	60	135399
2026-01-29 14:25:49.51	201.75	3.61	-56.5	-70.8	3.6	8.45e-01	0	46	104	0	60	136490
2026-01-29 14:25:50.51	201.81	3.67	-56.5	-70.8	3.6	8.46e-01	0	46	104	0	60	136149
2026-01-29 14:25:51.51	201.87	3.73	-56.5	-70.8	3.6	8.44e-01	0	46	104	0	60	135690
2026-01-29 14:25:52.52	201.94	3.79	-56.5	-70.7	3.6	8.45e-01	0	46	104	0	60	134984
2026-01-29 14:25:53.52	202.01	3.85	-56.5	-70.8	3.6	8.46e-01	0	46	104	0	60	135839
2026-01-29 14:25:54.52	202.07	3.91	-56.5	-70.7	3.6	8.46e-01	0	46	104	0	60	134835
2026-01-29 14:25:55.52	202.14	3.98	-56.5	-70.7	3.6	8.46e-01	0	46	104	0	60	134296
2026-01-29 14:25:56.52	202.20	4.04	-56.5	-70.5	3.6	8.44e-01	0	46	104	0	60	131469
2026-01-29 14:25:57.53	202.27	4.10	-56.5	-70.5	3.6	8.45e-01	0	46	104	0	60	130575
2026-01-29 14:25:58.54	202.34	4.16	-56.5	-70.7	3.6	8.45e-01	0	46	104	0	60	133932
2026-01-29 14:25:59.55	202.40	4.22	-56.5	-70.7	3.6	8.46e-01	0	46	104	0	60	134137
2026-01-29 14:26:00.56	202.47	4.29	-56.5	-70.7	3.6	8.46e-01	0	46	104	0	60	134428
2026-01-29 14:26:01.56	202.54	4.35	-56.5	-70.8	3.6	8.45e-01	0	46	104	0	60	135888
2026-01-29 14:26:02.57	202.61	4.41	-56.5	-70.8	3.6	8.46e-01	0	46	104	0	60	135759
2026-01-29 14:26:03.57	202.67	4.48	-56.5	-70.7	3.6	8.46e-01	0	46	104	0	60	133672
2026-01-29 14:26:04.58	202.74	4.54	-56.5	-70.6	3.5	8.45e-01	0	46	104	0	60	132163
2026-01-29 14:26:05.58	202.81	4.60	-56.5	-70.5	3.6	8.44e-01	0	46	104	0	60	130496
2026-01-29 14:26:06.59	202.88	4.67	-56.5	-70.4	3.6	8.44e-01	0	46	104	0	60	129954
2026-01-29 14:26:07.60	202.95	4.73	-56.4	-70.5	3.6	8.45e-01	0	46	104	0	60	131331
2026-01-29 14:26:08.60	203.02	4.79	-56.4	-70.5	3.6	8.44e-01	0	46	104	0	60	131885
2026-01-29 14:26:09.61	203.09	4.86	-56.4	-70.5	3.6	8.45e-01	0	46	104	0	60	131896
2026-01-29 14:26:10.61	203.16	4.92	-56.4	-70.2	3.6	8.46e-01	0	46	104	0	60	126866
2026-01-29 14:26:11.62	203.23	4.98	-56.4	-69.8	3.6	8.46e-01	0	46	104	0	60	121427
2026-01-29 14:26:12.62	203.30	5.05	-56.3	-69.5	3.6	8.45e-01	0	46	104	0	60	117000
2026-01-29 14:26:13.62	203.37	5.11	-56.3	-69.4	3.6	8.46e-01	0	46	104	0	60	115129
2026-01-29 14:26:14.63	203.44	5.18	-56.3	-69.1	3.6	8.44e-01	0	46	104	0	60	112277
2026-01-29 14:26:15.64	203.52	5.24	-56.3	-68.4	3.6	8.45e-01	0	46	104	0	60	102678
2026-01-29 14:26:16.64	203.59	5.30	-56.1	-66.7	4.3	8.37e-01	0	46	104	0	60	84398
2026-01-29 14:26:17.65	203.66	5.37	-55.8	-63.1	5.7	7.18e-01	0	46	0	0	60	56044
2026-01-29 14:26:18.66	203.73	5.43	-55.2	-61.0	8.1	9.66e-02	0	46	0	7340032	60	44181
2026-01-29 14:26:19.67	203.81	5.50	-54.4	-58.9	10.3	1.05e-02	0	46	0	14680064	60	34662
2026-01-29 14:26:20.68	203.88	5.56	-53.5	-57.1	12.3	4.02e-04	0	46	0	22020096	60	27996
2026-01-29 14:26:21.68	203.95	5.63	-52.5	-55.5	13.8	1.14e-05	0	46	0	29360128	60	23441
2026-01-29 14:26:22.69	204.03	5.69	-51.7	-54.3	14.8	4.50e-06	0	46	0	36700160	60	20385
2026-01-29 14:26:23.70	204.10	5.76	-51.2	-53.6	15.2	0.00e+00	0	46	0	44040192	60	18772
2026-01-29 14:26:24.70	204.18	5.82	-50.9	-53.2	15.8	0.00e+00	0	46	0	51380224	60	17897
2026-01-29 14:26:25.71	204.25	5.89	-50.7	-53.0	15.8	0.00e+00	0	46	0	58720256	60	17404
2026-01-29 14:26:26.71	204.32	5.96	-50.8	-53.1	15.6	0.00e+00	0	46	0	66060288	60	17733
2026-01-29 14:26:27.72	204.40	6.02	-51.2	-53.6	15.2	0.00e+00	0	46	0	73400320	60	18850
2026-01-29 14:26:28.73	204.48	6.09	-52.8	-56.0	12.6	0.00e+00	0	46	0	80740352	60	24855
2026-01-29 14:26:29.74	204.55	6.15	-55.9	-66.7	3.4	7.29e-01	0	46	0	85983232	60	84870
2026-01-29 14:26:30.74	204.63	6.22	-49.0	-50.8	6.0	8.12e-01	0	46	104	85983232	60	13515
2026-01-29 14:26:31.75	204.71	6.29	-53.5	-56.9	11.4	0.00e+00	0	46	104	85983232	60	27535
2026-01-29 14:26:32.76	204.78	6.35	-49.9	-51.7	16.1	5.86e-03	0	46	0	7340032	60	15097
2026-01-29 14:26:33.77	204.86	6.42	-51.5	-53.6	15.7	2.97e-03	0	46	0	13631488	60	18845
2026-01-29 14:26:34.77	204.94	6.49	-50.0	-51.8	16.6	0.00e+00	0	46	0	20971520	60	15327
2026-01-29 14:26:35.78	205.02	6.55	-49.9	-51.8	16.8	0.00e+00	0	46	0	28311552	60	15233
2026-01-29 14:26:36.79	205.10	6.62	-49.7	-51.5	17.0	0.00e+00	0	46	0	36700160	60	14741
2026-01-29 14:26:37.80	205.17	6.69	-49.4	-51.1	17.3	0.00e+00	0	46	0	44040192	60	14118
2026-01-29 14:26:38.80	205.25	6.76	-49.3	-51.0	17.4	0.00e+00	0	46	0	51380224	60	13847
2026-01-29 14:26:39.81	205.33	6.82	-49.2	-50.8	17.6	0.00e+00	0	46	0	57671680	60	13538
2026-01-29 14:26:40.82	205.41	6.89	-49.1	-50.7	17.5	0.00e+00	0	46	0	65011712	60	13488
2026-01-29 14:26:41.83	205.49	6.96	-48.9	-50.5	17.7	0.00e+00	0	46	0	72351744	60	13199
2026-01-29 14:26:42.83	205.57	7.03	-48.7	-50.3	17.9	0.00e+00	0	46	0	79691776	60	12770
2026-01-29 14:26:43.84	205.65	7.09	-48.4	-50.0	18.1	0.00e+00	0	46	0	87031808	60	12324
2026-01-29 14:26:44.84	205.74	7.16	-48.5	-50.1	17.9	0.00e+00	0	46	0	94371840	60	12464
2026-01-29 14:26:45.85	205.82	7.23	-48.6	-50.1	18.0	0.00e+00	0	46	0	101711872	60	12579
2026-01-29 14:26:46.86	205.90	7.30	-48.4	-49.9	18.1	0.00e+00	0	46	0	109051904	60	12255
2026-01-29 14:26:47.86	205.98	7.37	-48.4	-49.9	18.2	0.00e+00	0	46	0	116391936	60	12302
2026-01-29 14:26:48.87	206.06	7.44	-48.2	-49.7	18.4	0.00e+00	0	46	0	122683392	60	11947
2026-01-29 14:26:49.88	206.15	7.50	-48.3	-49.8	18.3	0.00e+00	0	46	0	131072000	60	12068
2026-01-29 14:26:50.89	206.23	7.57	-48.2	-49.7	18.4	0.00e+00	0	46	0	138412032	60	11985
2026-01-29 14:26:51.90	206.32	7.64	-48.1	-49.6	18.5	0.00e+00	0	46	0	145752064	60	11807
2026-01-29 14:26:52.90	206.40	7.71	-48.3	-49.9	18.4	0.00e+00	0	46	0	153092096	60	12197
2026-01-29 14:26:53.91	206.48	7.78	-48.3	-49.8	18.5	0.00e+00	0	46	0	160432128	60	12120
2026-01-29 14:26:54.92	206.57	7.85	-48.2	-49.7	18.6	0.00e+00	0	46	0	166723584	60	11915
2026-01-29 14:26:55.92	206.65	7.92	-48.1	-49.6	18.5	0.00e+00	0	46	0	174063616	60	11803
2026-01-29 14:26:56.93	206.74	7.99	-48.1	-49.6	18.5	0.00e+00	0	46	0	181403648	60	11779
2026-01-29 14:26:57.94	206.83	8.06	-48.2	-49.6	18.4	0.00e+00	0	46	0	188743680	60	11895
2026-01-29 14:26:58.95	206.91	8.13	-48.2	-49.7	18.4	0.00e+00	0	46	0	196083712	60	11978
2026-01-29 14:26:59.96	207.00	8.20	-48.3	-49.7	18.4	0.00e+00	0	46	0	203423744	60	12029
2026-01-29 14:27:00.96	207.09	8.27	-48.3	-49.8	18.3	0.00e+00	0	46	0	210763776	60	12078
2026-01-29 14:27:01.97	207.18	8.34	-48.4	-49.9	18.3	0.00e+00	0	46	0	218103808	60	12274
2026-01-29 14:27:02.98	207.26	8.41	-48.3	-49.8	18.3	0.00e+00	0	46	0	224395264	60	12114
2026-01-29 14:27:03.99	207.35	8.48	-48.1	-49.5	18.4	0.00e+00	0	46	0	232783872	60	11741
2026-01-29 14:27:04.99	207.44	8.55	-48.1	-49.5	18.4	0.00e+00	0	46	0	240123904	60	11727
2026-01-29 14:27:06.00	207.53	8.63	-48.0	-49.5	18.4	0.00e+00	0	46	0	247463936	60	11673
2026-01-29 14:27:07.00	207.62	8.70	-48.0	-49.5	18.4	0.00e+00	0	46	0	254803968	60	11639
2026-01-29 14:27:08.01	207.71	8.77	-47.8	-49.2	18.5	0.00e+00	0	46	0	262144000	60	11355
2026-01-29 14:27:09.02	207.80	8.84	-47.7	-49.2	18.5	0.00e+00	0	46	0	268435456	60	11255
2026-01-29 14:27:10.03	207.89	8.91	-47.7	-49.2	18.5	0.00e+00	0	46	0	275775488	60	11264
2026-01-29 14:27:11.03	207.98	8.98	-47.6	-49.0	18.7	0.00e+00	0	46	0	283115520	60	11038
2026-01-29 14:27:12.04	208.08	9.05	-47.7	-49.1	18.5	0.00e+00	0	46	0	290455552	60	11230
2026-01-29 14:27:13.05	208.17	9.13	-47.6	-49.0	18.5	0.00e+00	0	46	0	297795584	60	11030
2026-01-29 14:27:14.05	208.26	9.20	-47.5	-48.9	18.6	0.00e+00	0	46	0	305135616	60	10929
2026-01-29 14:27:15.05	208.35	9.27	-47.6	-49.0	18.6	0.00e+00	0	46	0	312475648	60	11064
2026-01-29 14:27:16.06	208.45	9.34	-47.3	-48.7	18.6	0.00e+00	0	46	0	319815680	60	10724
2026-01-29 14:27:17.07	208.54	9.42	-47.4	-48.8	18.7	0.00e+00	0	46	0	327155712	60	10760
2026-01-29 14:27:18.08	208.64	9.49	-47.4	-48.8	18.6	0.00e+00	0	46	0	333447168	60	10812
2026-01-29 14:27:19.08	208.73	9.56	-47.4	-48.8	18.7	0.00e+00	0	46	0	341835776	60	10735
2026-01-29 14:27:20.09	208.83	9.63	-47.3	-48.7	18.7	0.00e+00	0	46	0	349175808	60	10655
2026-01-29 14:27:21.09	208.92	9.71	-48.0	-48.8	21.4	0.00e+00	0	46	0	356515840	60	10831
2026-01-29 14:27:22.10	209.02	9.78	-48.0	-48.9	21.5	0.00e+00	0	46	0	363855872	60	10877
2026-01-29 14:27:23.11	209.12	9.85	-47.9	-48.7	21.5	0.00e+00	0	46	0	371195904	60	10710
2026-01-29 14:27:24.11	209.21	9.93	-48.0	-48.9	21.6	0.00e+00	0	46	0	377487360	60	10968
2026-01-29 14:27:25.12	209.31	10.00	-47.9	-48.8	21.6	0.00e+00	0	46	0	384827392	60	10764
2026-01-29 14:27:26.13	209.41	10.08	-48.0	-48.9	21.4	0.00e+00	0	46	0	392167424	60	10926
2026-01-29 14:27:27.14	209.51	10.15	-48.0	-48.8	21.6	0.00e+00	0	46	0	399507456	60	10846
2026-01-29 14:27:28.15	209.61	10.22	-48.1	-48.9	21.6	0.00e+00	0	46	0	406847488	60	10949
2026-01-29 14:27:29.15	209.71	10.30	-48.1	-48.9	21.6	0.00e+00	0	46	0	414187520	60	10913
2026-01-29 14:27:30.16	209.81	10.37	-48.1	-49.0	21.6	0.00e+00	0	46	0	421527552	60	11010
2026-01-29 14:27:31.16	209.91	10.45	-48.2	-49.1	21.5	0.00e+00	0	46	0	428867584	60	11125
2026-01-29 14:27:32.17	210.01	10.52	-48.1	-49.0	21.5	0.00e+00	0	46	0	436207616	60	11026
2026-01-29 14:27:33.18	210.11	10.60	-48.2	-49.1	21.5	0.00e+00	0	46	0	442499072	60	11178
2026-01-29 14:27:34.18	210.22	10.67	-48.2	-49.1	21.6	0.00e+00	0	46	0	450887680	60	11118
2026-01-29 14:27:35.19	210.32	10.75	-48.2	-49.1	21.5	0.00e+00	0	46	0	458227712	60	11231
2026-01-29 14:27:36.19	210.42	10.82	-48.1	-49.0	21.6	0.00e+00	0	46	0	465567744	60	11023
2026-01-29 14:27:37.20	210.53	10.90	-48.1	-49.0	21.7	0.00e+00	0	46	0	472907776	60	10997
2026-01-29 14:27:38.21	210.63	10.98	-48.0	-48.8	21.8	0.00e+00	0	46	0	480247808	60	10819
2026-01-29 14:27:39.22	210.73	11.05	-48.0	-48.9	21.7	0.00e+00	0	46	0	486539264	60	10890
2026-01-29 14:27:40.23	210.84	11.13	-47.9	-48.8	21.9	0.00e+00	0	46	0	493879296	60	10760
2026-01-29 14:27:41.24	210.95	11.20	-48.1	-48.9	21.8	0.00e+00	0	46	0	501219328	60	10901
2026-01-29 14:27:42.24	211.05	11.28	-47.9	-48.7	21.8	0.00e+00	0	46	0	508559360	60	10722
2026-01-29 14:27:43.25	211.16	11.36	-47.9	-48.7	21.9	0.00e+00	0	46	0	515899392	60	10634
2026-01-29 14:27:44.26	211.27	11.43	-47.8	-48.6	21.9	0.00e+00	0	46	0	523239424	60	10551
2026-01-29 14:27:45.26	211.37	11.51	-47.9	-48.7	21.9	0.00e+00	0	46	0	530579456	60	10653
2026-01-29 14:27:46.27	211.48	11.59	-48.0	-48.8	21.9	0.00e+00	0	46	0	537919488	60	10759
2026-01-29 14:27:47.28	211.59	11.66	-47.9	-48.6	21.9	0.00e+00	0	46	0	544210944	60	10606
2026-01-29 14:27:48.28	211.70	11.74	-47.9	-48.7	21.9	0.00e+00	0	46	0	552599552	60	10669
2026-01-29 14:27:49.28	211.81	11.82	-47.9	-48.7	21.9	0.00e+00	0	46	0	558891008	60	10655
2026-01-29 14:27:50.28	211.92	11.90	-47.9	-48.7	21.9	0.00e+00	0	46	0	566231040	60	10695
2026-01-29 14:27:51.29	212.03	11.97	-47.8	-48.6	22.0	0.00e+00	0	46	0	574619648	60	10542
2026-01-29 14:27:52.29	212.14	12.05	-47.8	-48.6	22.0	0.00e+00	0	46	0	581959680	60	10541
2026-01-29 14:27:53.30	212.26	12.13	-47.8	-48.6	22.1	0.00e+00	0	46	0	588251136	60	10601
2026-01-29 14:27:54.30	212.37	12.21	-47.9	-48.7	22.0	0.00e+00	0	46	0	595591168	60	10668
2026-01-29 14:27:55.31	212.48	12.29	-47.8	-48.6	22.1	0.00e+00	0	46	0	602931200	60	10557
2026-01-29 14:27:56.31	212.60	12.36	-48.0	-48.7	22.0	0.00e+00	0	46	0	610271232	60	10711
2026-01-29 14:27:57.32	212.71	12.44	-47.9	-48.6	22.2	0.00e+00	0	46	0	617611264	60	10577
2026-01-29 14:27:58.33	212.83	12.52	-48.0	-48.8	22.2	0.00e+00	0	46	0	624951296	60	10764
2026-01-29 14:27:59.33	212.94	12.60	-48.1	-49.0	22.1	0.00e+00	0	46	0	632291328	60	10983
2026-01-29 14:28:00.34	213.06	12.68	-48.0	-48.8	22.1	0.00e+00	0	46	0	639631360	60	10835
2026-01-29 14:28:01.34	213.18	12.76	-48.1	-48.9	22.1	0.00e+00	0	46	0	646971392	60	10903
2026-01-29 14:28:02.35	213.29	12.84	-48.0	-48.8	22.2	0.00e+00	0	46	0	653262848	60	10805
2026-01-29 14:28:03.36	213.41	12.92	-48.2	-49.0	22.2	0.00e+00	0	46	0	660602880	60	10991
2026-01-29 14:28:04.36	213.53	13.00	-48.2	-49.0	22.1	0.00e+00	0	46	0	667942912	60	10989
2026-01-29 14:28:05.36	213.65	13.08	-48.1	-48.9	22.2	0.00e+00	0	46	0	675282944	60	10867
2026-01-29 14:28:06.37	213.77	13.16	-48.2	-49.0	22.1	0.00e+00	0	46	0	682622976	60	11007
2026-01-29 14:28:07.37	213.89	13.24	-48.1	-48.9	22.2	0.00e+00	0	46	0	689963008	60	10950
2026-01-29 14:28:08.38	214.01	13.32	-48.1	-48.9	22.1	0.00e+00	0	46	0	697303040	60	10970
2026-01-29 14:28:09.38	214.13	13.40	-48.1	-48.9	22.2	0.00e+00	0	46	0	704643072	60	10908
2026-01-29 14:28:10.39	214.26	13.48	-48.1	-48.8	22.3	0.00e+00	0	46	0	711983104	60	10852
2026-01-29 14:28:11.40	214.38	13.56	-48.1	-48.9	22.3	0.00e+00	0	46	0	719323136	60	10886
2026-01-29 14:28:12.40	214.50	13.64	-48.1	-48.8	22.4	0.00e+00	0	46	0	726663168	60	10844
2026-01-29 14:28:13.41	214.63	13.72	-47.9	-48.7	22.5	0.00e+00	0	46	0	734003200	60	10638
2026-01-29 14:28:14.41	214.75	13.80	-47.9	-48.6	22.6	0.00e+00	0	46	0	741343232	60	10588
2026-01-29 14:28:15.42	214.88	13.88	-47.8	-48.6	22.5	0.00e+00	0	46	0	748683264	60	10551
2026-01-29 14:28:16.43	215.01	13.96	-48.0	-48.8	22.4	0.00e+00	0	46	0	754974720	60	10756
2026-01-29 14:28:17.43	215.13	14.05	-47.8	-48.6	22.5	0.00e+00	0	46	0	762314752	60	10554
2026-01-29 14:28:18.44	215.26	14.13	-47.9	-48.7	22.5	0.00e+00	0	46	0	769654784	60	10617
2026-01-29 14:28:19.45	215.39	14.21	-47.8	-48.6	22.6	0.00e+00	0	46	0	776994816	60	10564
2026-01-29 14:28:20.46	215.52	14.29	-47.9	-48.7	22.5	0.00e+00	0	46	0	784334848	60	10667
2026-01-29 14:28:21.46	215.65	14.37	-47.8	-48.6	22.6	0.00e+00	0	46	0	791674880	60	10536
2026-01-29 14:28:22.47	215.78	14.46	-47.8	-48.5	22.6	0.00e+00	0	46	0	799014912	60	10484
2026-01-29 14:28:23.47	215.91	14.54	-47.6	-48.4	22.7	0.00e+00	0	46	0	806354944	60	10281
2026-01-29 14:28:24.48	216.05	14.62	-47.5	-48.3	22.8	0.00e+00	0	46	0	813694976	60	10132
2026-01-29 14:28:25.48	216.18	14.70	-47.5	-48.2	22.9	0.00e+00	0	46	0	819986432	60	10122
2026-01-29 14:28:26.49	216.31	14.79	-47.5	-48.2	22.9	0.00e+00	0	46	0	828375040	60	10120
2026-01-29 14:28:27.49	216.44	14.87	-47.5	-48.2	22.9	0.00e+00	0	46	0	835715072	60	10092
2026-01-29 14:28:28.50	216.58	14.95	-47.4	-48.1	23.0	0.00e+00	0	46	0	843055104	60	9986
2026-01-29 14:28:29.51	216.72	15.04	-47.5	-48.2	23.0	0.00e+00	0	46	0	850395136	60	10064
2026-01-29 14:28:30.52	216.85	15.12	-47.6	-48.3	23.0	0.00e+00	0	46	0	857735168	60	10149
2026-01-29 14:28:31.53	216.99	15.20	-47.7	-48.5	22.8	0.00e+00	0	46	0	864026624	60	10388
2026-01-29 14:28:32.54	217.13	15.29	-47.6	-48.4	22.9	0.00e+00	0	46	0	871366656	60	10265
2026-01-29 14:28:33.55	217.27	15.37	-47.6	-48.3	23.0	0.00e+00	0	46	0	878706688	60	10182
2026-01-29 14:28:34.55	217.41	15.46	-47.6	-48.3	23.1	0.00e+00	0	46	0	886046720	60	10215
2026-01-29 14:28:35.55	217.55	15.54	-47.7	-48.5	22.9	0.00e+00	0	46	0	893386752	60	10372
2026-01-29 14:28:36.56	217.69	15.63	-47.8	-48.6	22.9	0.00e+00	0	46	0	900726784	60	10507
2026-01-29 14:28:37.57	217.83	15.71	-47.8	-48.5	23.1	0.00e+00	0	46	0	908066816	60	10427
2026-01-29 14:28:38.58	217.97	15.79	-47.8	-48.5	23.0	0.00e+00	0	46	0	915406848	60	10411
2026-01-29 14:28:39.59	218.12	15.88	-47.8	-48.5	23.1	0.00e+00	0	46	0	922746880	60	10434
2026-01-29 14:28:40.59	218.26	15.96	-47.7	-48.4	23.2	0.00e+00	0	46	0	930086912	60	10346
2026-01-29 14:28:41.60	218.41	16.05	-47.6	-48.3	23.2	0.00e+00	0	46	0	937426944	60	10212
2026-01-29 14:28:42.61	218.55	16.13	-47.6	-48.3	23.3	0.00e+00	0	46	0	944766976	60	10178
2026-01-29 14:28:43.62	218.70	16.22	-47.5	-48.2	23.3	0.00e+00	0	46	0	952107008	60	10060
2026-01-29 14:28:44.63	218.85	16.31	-47.6	-48.3	23.2	0.00e+00	0	46	0	959447040	60	10186
2026-01-29 14:28:45.64	219.00	16.39	-47.6	-48.3	23.3	0.00e+00	0	46	0	966787072	60	10217
2026-01-29 14:28:46.65	219.15	16.48	-47.7	-48.4	23.2	0.00e+00	0	46	0	973078528	60	10306
2026-01-29 14:28:47.65	219.30	16.56	-47.9	-48.6	23.3	0.00e+00	0	46	0	980418560	60	10555
2026-01-29 14:28:48.66	219.45	16.65	-47.5	-48.1	23.5	0.00e+00	0	46	0	987758592	60	9992
2026-01-29 14:28:49.67	219.60	16.74	-47.4	-48.1	23.5	0.00e+00	0	46	0	995098624	60	9914
2026-01-29 14:28:50.67	219.75	16.82	-47.3	-48.0	23.5	0.00e+00	0	46	0	1002438656	60	9805
2026-01-29 14:28:51.68	219.90	16.91	-47.1	-47.8	23.7	0.00e+00	0	46	0	1009778688	60	9631
2026-01-29 14:28:52.69	220.06	16.99	-47.2	-47.9	23.7	0.00e+00	0	46	0	1017118720	60	9731
2026-01-29 14:28:53.69	220.21	17.08	-47.2	-47.9	23.7	0.00e+00	0	46	0	1024458752	60	9721
2026-01-29 14:28:54.70	220.37	17.17	-47.3	-47.9	23.5	0.00e+00	0	46	0	1031798784	60	9777
2026-01-29 14:28:55.70	220.52	17.25	-47.5	-48.2	23.5	0.00e+00	0	46	0	1039138816	60	10045
2026-01-29 14:28:56.70	220.68	17.34	-47.6	-48.3	23.3	0.00e+00	0	46	0	1046478848	60	10132
2026-01-29 14:28:57.71	220.84	17.43	-47.7	-48.4	23.2	0.00e+00	0	46	0	1053818880	60	10267
2026-01-29 14:28:58.71	221.00	17.51	-47.9	-48.6	23.1	0.00e+00	0	46	0	1061158912	60	10554
2026-01-29 14:28:59.72	221.16	17.60	-48.2	-48.9	22.8	0.00e+00	0	46	0	1068498944	60	10918
2026-01-29 14:29:00.72	221.32	17.69	-48.4	-49.2	22.5	0.00e+00	0	46	0	1074790400	60	11311
2026-01-29 14:29:01.73	221.48	17.77	-48.6	-49.3	22.3	0.00e+00	0	46	0	1082130432	60	11480
2026-01-29 14:29:02.74	221.65	17.86	-48.7	-49.5	22.2	0.00e+00	0	46	0	1089470464	60	11702
2026-01-29 14:29:03.75	221.81	17.95	-48.5	-49.2	22.5	0.00e+00	0	46	0	1096810496	60	11322
2026-01-29 14:29:04.75	221.97	18.04	-48.4	-49.2	22.4	0.00e+00	0	46	0	1104150528	60	11292
2026-01-29 14:29:05.76	222.14	18.12	-48.2	-49.0	22.7	0.00e+00	0	46	0	1111490560	60	11030
2026-01-29 14:29:06.76	222.30	18.21	-48.2	-48.9	22.6	0.00e+00	0	46	0	1118830592	60	10960
2026-01-29 14:29:07.77	222.47	18.30	-47.9	-48.7	22.7	0.00e+00	0	46	0	1126170624	60	10625
2026-01-29 14:29:08.77	222.64	18.39	-48.1	-48.9	22.8	0.00e+00	0	46	0	1133510656	60	10857
2026-01-29 14:29:09.78	222.81	18.47	-48.1	-48.8	22.8	0.00e+00	0	46	0	1139802112	60	10828
2026-01-29 14:29:10.78	222.98	18.56	-48.4	-49.2	22.7	0.00e+00	0	46	0	1148190720	60	11269
2026-01-29 14:29:11.79	223.15	18.65	-48.3	-49.1	22.6	0.00e+00	0	46	0	1155530752	60	11122
2026-01-29 14:29:12.80	223.32	18.74	-48.4	-49.1	22.6	0.00e+00	0	46	0	1162870784	60	11213
2026-01-29 14:29:13.80	223.50	18.83	-48.6	-49.4	22.6	0.00e+00	0	46	0	1170210816	60	11524
2026-01-29 14:29:14.80	223.67	18.91	-48.3	-49.0	22.6	0.00e+00	0	46	0	1177550848	60	11098
2026-01-29 14:29:15.81	223.85	19.00	-48.5	-49.2	22.9	0.00e+00	0	46	0	1183842304	60	11300
2026-01-29 14:29:16.82	224.02	19.09	-48.1	-48.9	22.9	0.00e+00	0	46	0	1191182336	60	10879
2026-01-29 14:29:17.83	224.20	19.18	-48.1	-48.8	22.8	0.00e+00	0	46	0	1198522368	60	10823
2026-01-29 14:29:18.84	224.38	19.27	-48.3	-49.0	22.9	0.00e+00	0	46	0	1205862400	60	11024
2026-01-29 14:29:19.84	224.56	19.36	-47.9	-48.6	23.1	0.00e+00	0	46	0	1213202432	60	10584
2026-01-29 14:29:20.85	224.74	19.44	-47.4	-48.1	23.4	0.00e+00	0	46	0	1220542464	60	9966
2026-01-29 14:29:21.86	224.92	19.53	-47.2	-47.9	23.5	0.00e+00	0	46	0	1227882496	60	9733
2026-01-29 14:29:22.86	225.10	19.62	-47.3	-47.9	23.6	0.00e+00	0	46	0	1235222528	60	9781
2026-01-29 14:29:23.86	225.28	19.71	-47.1	-47.8	23.8	0.00e+00	0	46	0	1241513984	60	9666
2026-01-29 14:29:24.87	225.47	19.80	-47.2	-47.9	23.7	0.00e+00	0	46	0	1248854016	60	9710
2026-01-29 14:29:25.88	225.65	19.89	-47.1	-47.8	23.8	0.00e+00	0	46	0	1256194048	60	9602
2026-01-29 14:29:26.88	225.84	19.98	-46.7	-47.4	24.1	0.00e+00	0	46	0	1264582656	60	9134
2026-01-29 14:29:27.89	226.03	20.06	-46.8	-47.5	24.1	0.00e+00	0	46	0	1271922688	60	9242
2026-01-29 14:29:28.89	226.21	20.15	-46.7	-47.3	24.3	0.00e+00	0	46	0	1279262720	60	9100
2026-01-29 14:29:29.89	226.40	20.24	-46.8	-47.5	24.2	0.00e+00	0	46	0	1285554176	60	9250
2026-01-29 14:29:30.90	226.59	20.33	-46.7	-47.3	24.4	0.00e+00	0	46	0	1292894208	60	9074
2026-01-29 14:29:31.91	226.79	20.42	-46.6	-47.2	24.3	0.00e+00	0	46	0	1300234240	60	9012
2026-01-29 14:29:32.91	226.98	20.51	-46.5	-47.1	24.3	0.00e+00	0	46	0	1307574272	60	8899
2026-01-29 14:29:33.92	227.17	20.60	-46.5	-47.2	24.3	0.00e+00	0	46	0	1314914304	60	8945
2026-01-29 14:29:34.93	227.37	20.68	-46.4	-47.0	24.4	0.00e+00	0	46	0	1322254336	60	8813
2026-01-29 14:29:35.93	227.56	20.77	-46.4	-47.1	24.5	0.00e+00	0	46	0	1329594368	60	8826
2026-01-29 14:29:36.94	227.76	20.86	-46.4	-47.1	24.3	0.00e+00	0	46	0	1336934400	60	8831
2026-01-29 14:29:37.94	227.96	20.95	-46.4	-47.1	24.5	0.00e+00	0	46	0	1344274432	60	8840
2026-01-29 14:29:38.95	228.16	21.04	-46.5	-47.2	24.4	0.00e+00	0	46	0	1350565888	60	8950
2026-01-29 14:29:39.96	228.36	21.13	-46.6	-47.2	24.3	0.00e+00	0	46	0	1357905920	60	9023
2026-01-29 14:29:40.96	228.56	21.22	-46.5	-47.2	24.3	0.00e+00	0	46	0	1365245952	60	8932
2026-01-29 14:29:41.97	228.76	21.30	-46.6	-47.3	24.2	0.00e+00	0	46	0	1372585984	60	9046
2026-01-29 14:29:42.98	228.97	21.39	-46.8	-47.4	24.1	0.00e+00	0	46	0	1379926016	60	9216
2026-01-29 14:29:43.99	229.17	21.48	-46.7	-47.4	24.1	0.00e+00	0	46	0	1388314624	60	9135
2026-01-29 14:29:44.99	229.38	21.57	-46.6	-47.2	24.2	0.00e+00	0	46	0	1394606080	60	8980
2026-01-29 14:29:46.00	229.58	21.66	-46.7	-47.3	24.1	0.00e+00	0	46	0	1401946112	60	9111
2026-01-29 14:29:47.00	229.79	21.75	-46.7	-47.4	24.0	0.00e+00	0	46	0	1409286144	60	9166
2026-01-29 14:29:48.01	230.00	21.83	-46.5	-47.1	24.2	0.00e+00	0	46	0	1416626176	60	8876
2026-01-29 14:29:49.02	230.21	21.92	-46.1	-46.8	24.5	0.00e+00	0	46	0	1423966208	60	8537
2026-01-29 14:29:50.03	230.43	22.01	-46.2	-46.8	24.4	0.00e+00	0	46	0	1431306240	60	8618
2026-01-29 14:29:51.04	230.64	22.10	-46.0	-46.6	24.6	0.00e+00	0	46	0	1438646272	60	8412
2026-01-29 14:29:52.04	230.85	22.19	-46.0	-46.6	24.6	0.00e+00	0	46	0	1445986304	60	8350
2026-01-29 14:29:53.05	231.07	22.27	-46.0	-46.6	24.8	0.00e+00	0	46	0	1453326336	60	8385
2026-01-29 14:29:54.06	231.29	22.36	-45.9	-46.6	24.7	0.00e+00	0	46	0	1459617792	60	8352
2026-01-29 14:29:55.07	231.50	22.45	-45.8	-46.4	24.8	0.00e+00	0	46	0	1466957824	60	8225
2026-01-29 14:29:56.07	231.72	22.54	-45.9	-46.5	24.8	0.00e+00	0	46	0	1474297856	60	8259
2026-01-29 14:29:57.08	231.94	22.62	-46.0	-46.6	24.7	0.00e+00	0	46	0	1481637888	60	8371
2026-01-29 14:29:58.09	232.17	22.71	-45.8	-46.4	24.7	0.00e+00	0	46	0	1490026496	60	8213
2026-01-29 14:29:59.09	232.39	22.80	-45.8	-46.5	24.6	0.00e+00	0	46	0	1497366528	60	8234
2026-01-29 14:30:00.10	232.61	22.89	-45.7	-46.3	24.9	0.00e+00	0	46	0	1503657984	60	8066
2026-01-29 14:30:01.11	232.84	22.97	-45.7	-46.3	25.0	0.00e+00	0	46	0	1510998016	60	8057
2026-01-29 14:30:02.11	233.06	23.06	-45.7	-46.3	25.0	0.00e+00	0	46	0	1518338048	60	8092
2026-01-29 14:30:03.12	233.29	23.15	-45.7	-46.3	24.9	0.00e+00	0	46	0	1525678080	60	8090
2026-01-29 14:30:04.12	233.52	23.23	-45.6	-46.2	25.0	0.00e+00	0	46	0	1533018112	60	8032
2026-01-29 14:30:05.13	233.75	23.32	-45.8	-46.4	25.0	0.00e+00	0	46	0	1540358144	60	8170
2026-01-29 14:30:06.13	233.98	23.40	-45.7	-46.3	24.8	0.00e+00	0	46	0	1547698176	60	8123
2026-01-29 14:30:07.13	234.21	23.49	-45.9	-46.5	24.8	0.00e+00	0	46	0	1555038208	60	8259
2026-01-29 14:30:08.14	234.44	23.57	-45.8	-46.4	24.7	0.00e+00	0	46	0	1561329664	60	8171
2026-01-29 14:30:09.15	234.68	23.66	-45.8	-46.4	24.8	0.00e+00	0	46	0	1568669696	60	8232
2026-01-29 14:30:10.16	234.92	23.74	-45.8	-46.4	24.8	0.00e+00	0	46	0	1576009728	60	8202
2026-01-29 14:30:11.16	235.15	23.83	-45.7	-46.3	24.8	0.00e+00	0	46	0	1583349760	60	8131
2026-01-29 14:30:12.17	235.39	23.91	-45.8	-46.4	24.8	0.00e+00	0	46	0	1590689792	60	8173
2026-01-29 14:30:13.18	235.63	24.00	-45.6	-46.2	24.9	0.00e+00	0	46	0	1598029824	60	8031
2026-01-29 14:30:14.19	235.87	24.08	-45.5	-46.1	25.1	0.00e+00	0	46	0	1605369856	60	7875
2026-01-29 14:30:15.19	236.11	24.17	-45.4	-46.0	25.0	0.00e+00	0	46	0	1612709888	60	7836
2026-01-29 14:30:16.20	236.36	24.25	-45.5	-46.1	25.0	0.00e+00	0	46	0	1620049920	60	7931
2026-01-29 14:30:17.21	236.61	24.33	-45.4	-46.0	25.0	0.00e+00	0	46	0	1627389952	60	7844
2026-01-29 14:30:18.21	236.85	24.42	-45.4	-46.0	25.1	0.00e+00	0	46	0	1634729984	60	7828
2026-01-29 14:30:19.21	237.10	24.50	-45.5	-46.1	25.0	0.00e+00	0	46	0	1642070016	60	7932
2026-01-29 14:30:20.22	237.35	24.58	-45.5	-46.1	25.0	0.00e+00	0	46	0	1649410048	60	7887
2026-01-29 14:30:21.23	237.60	24.66	-45.4	-46.0	25.1	0.00e+00	0	46	0	1656750080	60	7827
2026-01-29 14:30:22.24	237.85	24.74	-45.4	-45.9	25.2	0.00e+00	0	46	0	1664090112	60	7772
2026-01-29 14:30:23.24	238.10	24.83	-45.3	-45.8	25.1	0.00e+00	0	46	0	1670381568	60	7679
2026-01-29 14:30:24.25	238.35	24.91	-45.2	-45.8	25.1	0.00e+00	0	46	0	1677721600	60	7661
2026-01-29 14:30:25.25	238.61	24.99	-45.2	-45.8	25.1	0.00e+00	0	46	0	1685061632	60	7614
2026-01-29 14:30:26.26	238.87	25.07	-45.2	-45.8	25.1	0.00e+00	0	46	0	1692401664	60	7651
2026-01-29 14:30:27.27	239.12	25.15	-45.2	-45.7	25.2	0.00e+00	0	46	0	1699741696	60	7584
2026-01-29 14:30:28.27	239.38	25.23	-45.2	-45.7	25.3	0.00e+00	0	46	0	1707081728	60	7582
2026-01-29 14:30:29.28	239.64	25.31	-45.3	-45.9	25.2	0.00e+00	0	46	0	1714421760	60	7691
2026-01-29 14:30:30.28	239.90	25.39	-45.2	-45.8	25.1	0.00e+00	0	46	0	1721761792	60	7658
2026-01-29 14:30:31.29	240.17	25.46	-45.2	-45.8	25.2	0.00e+00	0	46	0	1729101824	60	7643
2026-01-29 14:30:32.30	240.43	25.54	-45.2	-45.8	25.1	0.00e+00	0	46	0	1736441856	60	7654
2026-01-29 14:30:33.30	240.69	25.62	-45.2	-45.8	25.1	0.00e+00	0	46	0	1743781888	60	7666
2026-01-29 14:30:34.30	240.96	25.70	-45.3	-45.9	25.1	0.00e+00	0	46	0	1751121920	60	7756
2026-01-29 14:30:35.31	241.23	25.78	-45.2	-45.8	25.2	0.00e+00	0	46	0	1758461952	60	7621
2026-01-29 14:30:36.31	241.50	25.85	-45.1	-45.8	25.1	0.00e+00	0	46	0	1765801984	60	7601
2026-01-29 14:30:37.31	241.76	25.93	-45.0	-45.6	25.2	0.00e+00	0	46	0	1772093440	60	7486
2026-01-29 14:30:38.32	242.04	26.00	-45.1	-45.7	25.2	0.00e+00	0	46	0	1779433472	60	7515
2026-01-29 14:30:39.32	242.31	26.08	-45.2	-45.8	25.0	0.00e+00	0	46	0	1786773504	60	7651
2026-01-29 14:30:40.33	242.58	26.15	-45.0	-45.6	25.2	0.00e+00	0	46	0	1794113536	60	7467
2026-01-29 14:30:41.34	242.86	26.23	-45.0	-45.6	25.3	0.00e+00	0	46	0	1801453568	60	7431
2026-01-29 14:30:42.35	243.14	26.30	-44.9	-45.5	25.3	0.00e+00	0	46	0	1808793600	60	7386
2026-01-29 14:30:43.36	243.42	26.37	-44.9	-45.5	25.3	0.00e+00	0	46	0	1816133632	60	7398
2026-01-29 14:30:44.36	243.69	26.45	-44.9	-45.5	25.1	0.00e+00	0	46	0	1823473664	60	7394
2026-01-29 14:30:45.37	243.98	26.52	-44.9	-45.5	25.2	0.00e+00	0	46	0	1830813696	60	7348
2026-01-29 14:30:46.38	244.26	26.59	-44.7	-45.3	25.4	0.00e+00	0	46	0	1837105152	60	7208
2026-01-29 14:30:47.39	244.54	26.66	-44.7	-45.3	25.4	0.00e+00	0	46	0	1845493760	60	7222
2026-01-29 14:30:48.40	244.83	26.73	-44.7	-45.3	25.4	0.00e+00	0	46	0	1852833792	60	7217
2026-01-29 14:30:49.40	245.11	26.80	-44.7	-45.3	25.4	0.00e+00	0	46	0	1860173824	60	7189
2026-01-29 14:30:50.40	245.40	26.87	-44.7	-45.2	25.4	0.00e+00	0	46	0	1867513856	60	7161
2026-01-29 14:30:51.41	245.68	26.94	-44.7	-45.3	25.5	0.00e+00	0	46	0	1874853888	60	7212
2026-01-29 14:30:52.41	245.97	27.01	-44.9	-45.4	25.4	0.00e+00	0	46	0	1881145344	60	7321
2026-01-29 14:30:53.41	246.26	27.08	-44.8	-45.3	25.4	0.00e+00	0	46	0	1888485376	60	7237
2026-01-29 14:30:54.42	246.55	27.14	-44.8	-45.4	25.4	0.00e+00	0	46	0	1895825408	60	7282
2026-01-29 14:30:55.42	246.84	27.21	-44.9	-45.5	25.4	0.00e+00	0	46	0	1903165440	60	7341
2026-01-29 14:30:56.42	247.14	27.28	-44.8	-45.4	25.5	0.00e+00	0	46	0	1910505472	60	7281
2026-01-29 14:30:57.43	247.43	27.34	-44.8	-45.4	25.5	0.00e+00	0	46	0	1917845504	60	7297
2026-01-29 14:30:58.44	247.73	27.41	-44.8	-45.4	25.5	0.00e+00	0	46	0	1925185536	60	7316
2026-01-29 14:30:59.44	248.02	27.47	-45.1	-45.6	25.3	0.00e+00	0	46	0	1932525568	60	7503
2026-01-29 14:31:00.45	248.32	27.53	-45.0	-45.6	25.4	0.00e+00	0	46	0	1939865600	60	7440
2026-01-29 14:31:01.46	248.62	27.60	-45.0	-45.6	25.3	0.00e+00	0	46	0	1946157056	60	7472
2026-01-29 14:31:02.47	248.93	27.66	-45.1	-45.7	25.3	0.00e+00	0	46	0	1953497088	60	7513
2026-01-29 14:31:03.47	249.23	27.72	-45.1	-45.7	25.3	0.00e+00	0	46	0	1960837120	60	7520
2026-01-29 14:31:04.48	249.53	27.78	-45.1	-45.7	25.3	0.00e+00	0	46	0	1968177152	60	7554
2026-01-29 14:31:05.48	249.83	27.84	-45.1	-45.7	25.3	0.00e+00	0	46	0	1975517184	60	7523
2026-01-29 14:31:06.48	250.14	27.90	-45.2	-45.7	25.2	0.00e+00	0	46	0	1983905792	60	7593
2026-01-29 14:31:07.48	250.44	27.96	-45.0	-45.6	25.2	0.00e+00	0	46	0	1990197248	60	7493
2026-01-29 14:31:08.49	250.75	28.01	-45.1	-45.7	25.1	0.00e+00	0	46	0	1997537280	60	7575
2026-01-29 14:31:09.50	251.06	28.07	-45.1	-45.7	25.2	0.00e+00	0	46	0	2004877312	60	7541
2026-01-29 14:31:10.51	251.37	28.13	-45.1	-45.7	25.2	0.00e+00	0	46	0	2012217344	60	7559
2026-01-29 14:31:11.51	251.68	28.18	-45.0	-45.6	25.2	0.00e+00	0	46	0	2019557376	60	7458
2026-01-29 14:31:12.52	251.99	28.24	-44.9	-45.5	25.3	0.00e+00	0	46	0	2026897408	60	7387
2026-01-29 14:31:13.53	252.31	28.29	-44.9	-45.5	25.4	0.00e+00	0	46	0	2034237440	60	7360
2026-01-29 14:31:14.54	252.62	28.34	-44.9	-45.5	25.4	0.00e+00	0	46	0	2041577472	60	7393
2026-01-29 14:31:15.55	252.94	28.40	-45.0	-45.6	25.4	0.00e+00	0	47	0	2047868928	60	7445
2026-01-29 14:31:16.56	253.25	28.45	-45.0	-45.7	25.3	0.00e+00	0	46	0	2055208960	60	7515
2026-01-29 14:31:17.56	253.57	28.50	-45.1	-45.7	25.2	0.00e+00	0	47	0	2062548992	60	7533
2026-01-29 14:31:18.57	253.89	28.55	-45.0	-45.6	25.3	0.00e+00	0	46	0	2069889024	60	7474
2026-01-29 14:31:19.58	254.21	28.60	-45.1	-45.7	25.3	0.00e+00	0	46	0	2077229056	60	7523
2026-01-29 14:31:20.58	254.52	28.64	-45.1	-45.7	25.3	0.00e+00	0	46	0	2085617664	60	7553
2026-01-29 14:31:21.59	254.85	28.69	-45.2	-45.8	25.3	0.00e+00	0	46	0	2091909120	60	7615
2026-01-29 14:31:22.60	255.17	28.74	-45.2	-45.8	25.2	0.00e+00	0	46	0	2099249152	60	7646
2026-01-29 14:31:23.60	255.49	28.78	-45.3	-45.8	25.1	0.00e+00	0	46	0	2106589184	60	7671
2026-01-29 14:31:24.61	255.81	28.83	-45.5	-46.1	25.0	0.00e+00	0	46	0	2113929216	60	7907
2026-01-29 14:31:25.62	256.14	28.87	-45.3	-45.9	25.2	0.00e+00	0	46	0	2121269248	60	7704
2026-01-29 14:31:26.62	256.46	28.91	-45.3	-45.9	25.0	0.00e+00	0	46	0	2128609280	60	7727
2026-01-29 14:31:27.63	256.79	28.95	-45.3	-45.9	25.1	0.00e+00	0	46	0	2135949312	60	7707
2026-01-29 14:31:28.63	257.11	28.99	-45.1	-45.7	25.2	0.00e+00	0	46	0	2143289344	60	7539
2026-01-29 14:31:29.64	257.44	29.03	-45.0	-45.6	25.3	0.00e+00	0	46	0	2150629376	60	7466
2026-01-29 14:31:30.65	257.77	29.07	-44.8	-45.4	25.5	0.00e+00	0	46	0	2156920832	60	7267
2026-01-29 14:31:31.66	258.10	29.11	-44.7	-45.2	25.6	0.00e+00	0	46	0	2164260864	60	7132
2026-01-29 14:31:32.66	258.43	29.15	-44.8	-45.4	25.4	0.00e+00	0	46	0	2171600896	60	7288
2026-01-29 14:31:33.67	258.76	29.18	-44.9	-45.5	25.5	0.00e+00	0	46	0	2178940928	60	7347
2026-01-29 14:31:34.67	259.09	29.22	-45.0	-45.6	25.4	0.00e+00	0	46	0	2186280960	60	7505
2026-01-29 14:31:35.68	259.42	29.25	-44.8	-45.3	25.5	0.00e+00	0	46	0	2193620992	60	7246
2026-01-29 14:31:36.68	259.75	29.28	-44.8	-45.4	25.5	0.00e+00	0	46	0	2200961024	60	7301
2026-01-29 14:31:37.69	260.09	29.32	-44.9	-45.5	25.4	0.00e+00	0	46	0	2208301056	60	7363
2026-01-29 14:31:38.70	260.42	29.35	-45.0	-45.6	25.4	0.00e+00	0	46	0	2215641088	60	7466
2026-01-29 14:31:39.71	260.76	29.38	-45.0	-45.6	25.5	0.00e+00	0	46	0	2222981120	60	7457
2026-01-29 14:31:40.72	261.09	29.41	-45.1	-45.7	25.3	0.00e+00	0	46	0	2230321152	60	7520
2026-01-29 14:31:41.72	261.43	29.43	-45.2	-45.8	25.3	0.00e+00	0	46	0	2237661184	60	7603
2026-01-29 14:31:42.73	261.76	29.46	-45.3	-45.9	25.1	0.00e+00	0	46	0	2245001216	60	7691
2026-01-29 14:31:43.73	262.10	29.49	-45.4	-46.0	25.1	0.00e+00	0	46	0	2252341248	60	7818
2026-01-29 14:31:44.73	262.43	29.51	-45.3	-45.9	25.1	0.00e+00	0	46	0	2258632704	60	7743
2026-01-29 14:31:45.74	262.77	29.54	-45.3	-45.9	25.1	0.00e+00	0	46	0	2265972736	60	7685
2026-01-29 14:31:46.74	263.11	29.56	-45.2	-45.8	25.2	0.00e+00	0	46	0	2273312768	60	7662
2026-01-29 14:31:47.75	263.45	29.58	-45.2	-45.8	25.3	0.00e+00	0	46	0	2280652800	60	7641
2026-01-29 14:31:48.76	263.79	29.60	-45.1	-45.6	25.3	0.00e+00	0	46	0	2287992832	60	7492
2026-01-29 14:31:49.77	264.13	29.62	-45.0	-45.6	25.4	0.00e+00	0	46	0	2295332864	60	7486
2026-01-29 14:31:50.78	264.47	29.64	-45.1	-45.6	25.5	0.00e+00	0	47	0	2302672896	60	7490
2026-01-29 14:31:51.78	264.81	29.66	-45.1	-45.6	25.5	0.00e+00	0	46	0	2310012928	60	7506
2026-01-29 14:31:52.79	265.15	29.67	-45.1	-45.7	25.4	0.00e+00	0	46	0	2317352960	60	7583
2026-01-29 14:31:53.79	265.49	29.69	-45.1	-45.7	25.4	0.00e+00	0	46	0	2324692992	60	7535
2026-01-29 14:31:54.80	265.83	29.70	-45.1	-45.7	25.4	0.00e+00	0	46	0	2332033024	60	7518
2026-01-29 14:31:55.80	266.17	29.71	-45.0	-45.6	25.5	0.00e+00	0	46	0	2339373056	60	7459
2026-01-29 14:31:56.81	266.51	29.73	-45.1	-45.7	25.5	0.00e+00	0	46	0	2346713088	60	7569
2026-01-29 14:31:57.82	266.86	29.74	-45.1	-45.7	25.4	0.00e+00	0	46	0	2354053120	60	7560
2026-01-29 14:31:58.82	267.20	29.75	-45.2	-45.8	25.2	0.00e+00	0	46	0	2361393152	60	7613
2026-01-29 14:31:59.83	267.54	29.76	-45.4	-46.0	25.1	0.00e+00	0	46	0	2367684608	60	7810
2026-01-29 14:32:00.83	267.88	29.76	-45.4	-46.0	25.2	0.00e+00	0	46	0	2375024640	60	7782
2026-01-29 14:32:01.84	268.22	29.77	-45.3	-45.9	25.2	0.00e+00	0	46	0	2382364672	60	7740
2026-01-29 14:32:02.85	268.57	29.78	-45.4	-46.0	25.1	0.00e+00	0	46	0	2389704704	60	7787
2026-01-29 14:32:03.85	268.91	29.78	-45.3	-45.9	25.1	0.00e+00	0	46	0	2397044736	60	7692
2026-01-29 14:32:04.86	269.25	29.78	-45.4	-46.0	25.1	0.00e+00	0	46	0	2404384768	60	7818
2026-01-29 14:32:05.86	269.59	29.79	-45.5	-46.2	25.1	0.00e+00	0	46	0	2411724800	60	7954
2026-01-29 14:32:06.87	269.94	29.79	-45.5	-46.1	25.0	0.00e+00	0	46	0	2419064832	60	7910
2026-01-29 14:32:07.88	270.28	29.79	-45.4	-46.1	25.0	0.00e+00	0	46	0	2426404864	60	7879
2026-01-29 14:32:08.88	270.62	29.79	-45.4	-46.0	25.2	0.00e+00	0	46	0	2433744896	60	7844
2026-01-29 14:32:09.89	270.97	29.78	-45.4	-46.0	25.0	0.00e+00	0	46	0	2441084928	60	7780
2026-01-29 14:32:10.89	271.31	29.78	-45.2	-45.9	25.1	0.00e+00	0	46	0	2448424960	60	7688
2026-01-29 14:32:11.90	271.65	29.78	-45.2	-45.8	25.2	0.00e+00	0	46	0	2455764992	60	7660
2026-01-29 14:32:12.90	271.99	29.77	-45.3	-45.9	25.2	0.00e+00	0	46	0	2463105024	60	7704
2026-01-29 14:32:13.91	272.33	29.76	-45.3	-45.9	25.1	0.00e+00	0	46	0	2470445056	60	7764
2026-01-29 14:32:14.91	272.67	29.76	-45.2	-45.8	25.3	0.00e+00	0	46	0	2476736512	60	7655
2026-01-29 14:32:15.92	273.02	29.75	-45.1	-45.7	25.3	0.00e+00	0	46	0	2484076544	60	7574
2026-01-29 14:32:16.92	273.36	29.74	-45.1	-45.7	25.3	0.00e+00	0	47	0	2491416576	60	7582
2026-01-29 14:32:17.92	273.70	29.73	-45.2	-45.8	25.2	0.00e+00	0	47	0	2498756608	60	7653
2026-01-29 14:32:18.93	274.04	29.71	-45.3	-45.9	25.2	0.00e+00	0	46	0	2506096640	60	7728
2026-01-29 14:32:19.94	274.38	29.70	-45.4	-46.0	25.2	0.00e+00	0	46	0	2513436672	60	7824
2026-01-29 14:32:20.94	274.72	29.69	-45.4	-46.0	25.1	0.00e+00	0	47	0	2520776704	60	7809
2026-01-29 14:32:21.95	275.06	29.67	-45.4	-46.0	25.2	0.00e+00	0	46	0	2528116736	60	7821
2026-01-29 14:32:22.96	275.40	29.65	-45.2	-45.9	25.2	0.00e+00	0	47	0	2534408192	60	7703
2026-01-29 14:32:23.96	275.74	29.64	-45.3	-45.9	25.2	0.00e+00	0	46	0	2541748224	60	7735
2026-01-29 14:32:24.97	276.08	29.62	-45.2	-45.8	25.3	0.00e+00	0	46	0	2549088256	60	7662
2026-01-29 14:32:25.97	276.42	29.60	-45.2	-45.8	25.2	0.00e+00	0	46	0	2556428288	60	7668
2026-01-29 14:32:26.98	276.76	29.58	-45.0	-45.6	25.4	0.00e+00	0	46	0	2563768320	60	7507
2026-01-29 14:32:27.98	277.10	29.56	-45.0	-45.6	25.5	0.00e+00	0	46	0	2572156928	60	7503
2026-01-29 14:32:28.99	277.43	29.53	-45.1	-45.8	25.5	0.00e+00	0	46	0	2578448384	60	7600
2026-01-29 14:32:30.00	277.77	29.51	-45.1	-45.8	25.4	0.00e+00	0	46	0	2585788416	60	7619
2026-01-29 14:32:31.00	278.11	29.49	-45.1	-45.8	25.3	0.00e+00	0	46	0	2593128448	60	7629
2026-01-29 14:32:32.01	278.45	29.46	-45.2	-45.9	25.3	0.00e+00	0	46	0	2600468480	60	7743
2026-01-29 14:32:33.01	278.78	29.43	-45.1	-45.8	25.4	0.00e+00	0	46	0	2607808512	60	7604
2026-01-29 14:32:34.01	279.11	29.41	-45.0	-45.7	25.4	0.00e+00	0	46	0	2615148544	60	7588
2026-01-29 14:32:35.02	279.45	29.38	-45.0	-45.8	25.2	0.00e+00	0	46	0	2622488576	60	7602
2026-01-29 14:32:36.02	279.78	29.35	-45.1	-45.8	25.2	0.00e+00	0	46	0	2629828608	60	7679
2026-01-29 14:32:37.03	280.11	29.32	-45.1	-45.9	25.2	0.00e+00	0	46	0	2637168640	60	7695
2026-01-29 14:32:38.03	280.44	29.28	-45.3	-46.0	25.2	0.00e+00	0	46	0	2643460096	60	7793
2026-01-29 14:32:39.04	280.78	29.25	-45.2	-45.9	25.2	0.00e+00	0	47	0	2650800128	60	7734
2026-01-29 14:32:40.04	281.11	29.22	-45.1	-45.8	25.3	0.00e+00	0	46	0	2658140160	60	7667
2026-01-29 14:32:41.05	281.44	29.18	-45.2	-45.9	25.2	0.00e+00	0	46	0	2665480192	60	7698
2026-01-29 14:32:42.06	281.77	29.15	-45.0	-45.7	25.4	0.00e+00	0	46	0	2672820224	60	7511
2026-01-29 14:32:43.07	282.10	29.11	-44.8	-45.5	25.5	0.00e+00	0	46	0	2680160256	60	7341
2026-01-29 14:32:44.07	282.43	29.07	-44.9	-45.6	25.5	0.00e+00	0	46	0	2687500288	60	7451
2026-01-29 14:32:45.08	282.76	29.03	-45.0	-45.7	25.3	0.00e+00	0	46	0	2694840320	60	7549
2026-01-29 14:32:46.08	283.08	28.99	-45.0	-45.7	25.4	0.00e+00	0	46	0	2702180352	60	7525
2026-01-29 14:32:47.09	283.41	28.95	-45.0	-45.7	25.4	0.00e+00	0	46	0	2709520384	60	7522
2026-01-29 14:32:48.09	283.73	28.91	-45.1	-45.8	25.3	0.00e+00	0	46	0	2716860416	60	7642
2026-01-29 14:32:49.10	284.06	28.87	-45.0	-45.7	25.4	0.00e+00	0	46	0	2724200448	60	7522
2026-01-29 14:32:50.10	284.38	28.83	-44.9	-45.6	25.5	0.00e+00	0	46	0	2731540480	60	7438
2026-01-29 14:32:51.12	284.71	28.78	-44.9	-45.6	25.5	0.00e+00	0	46	0	2738880512	60	7455
2026-01-29 14:32:52.12	285.02	28.74	-44.9	-45.5	25.5	0.00e+00	0	46	0	2745171968	60	7416
2026-01-29 14:32:53.13	285.35	28.69	-44.9	-45.5	25.4	0.00e+00	0	46	0	2752512000	60	7347
2026-01-29 14:32:54.13	285.66	28.64	-45.1	-45.7	25.2	0.00e+00	0	46	0	2759852032	60	7551
2026-01-29 14:32:55.14	285.99	28.60	-45.0	-45.6	25.4	0.00e+00	0	46	0	2767192064	60	7460
2026-01-29 14:32:56.15	286.30	28.55	-45.1	-45.8	25.4	0.00e+00	0	46	0	2774532096	60	7601
2026-01-29 14:32:57.16	286.62	28.50	-45.3	-45.9	25.1	0.00e+00	0	46	0	2781872128	60	7751
2026-01-29 14:32:58.17	286.94	28.45	-45.3	-46.0	25.2	0.00e+00	0	47	0	2789212160	60	7824
2026-01-29 14:32:59.18	287.26	28.40	-45.3	-46.0	25.0	0.00e+00	0	46	0	2796552192	60	7847
2026-01-29 14:33:00.18	287.57	28.34	-45.3	-46.0	25.0	0.00e+00	0	46	0	2803892224	60	7855
2026-01-29 14:33:01.19	287.88	28.29	-45.3	-46.1	25.1	0.00e+00	0	46	0	2811232256	60	7899
2026-01-29 14:33:02.20	288.20	28.24	-45.3	-46.0	25.1	0.00e+00	0	46	0	2818572288	60	7843
2026-01-29 14:33:03.21	288.51	28.18	-45.4	-46.2	24.9	0.00e+00	0	46	0	2825912320	60	7996
2026-01-29 14:33:04.22	288.82	28.13	-45.2	-46.1	25.0	0.00e+00	0	46	0	2833252352	60	7870
2026-01-29 14:33:05.22	289.13	28.07	-45.3	-46.1	25.1	0.00e+00	0	47	0	2840592384	60	7901
2026-01-29 14:33:06.22	289.43	28.02	-45.3	-46.1	25.0	0.00e+00	0	46	0	2847932416	60	7938
2026-01-29 14:33:07.22	289.74	27.96	-45.3	-46.1	25.0	0.00e+00	0	46	0	2854223872	60	7941
2026-01-29 14:33:08.23	290.04	27.90	-45.2	-46.0	25.0	0.00e+00	0	46	0	2861563904	60	7848
2026-01-29 14:33:09.24	290.35	27.84	-45.2	-45.9	25.2	0.00e+00	0	46	0	2868903936	60	7737
2026-01-29 14:33:10.24	290.65	27.78	-45.2	-45.9	25.2	0.00e+00	0	46	0	2876243968	60	7772
2026-01-29 14:33:11.24	290.95	27.72	-45.3	-46.0	25.1	0.00e+00	0	46	0	2883584000	60	7807
2026-01-29 14:33:12.25	291.25	27.66	-45.4	-46.1	25.0	0.00e+00	0	46	0	2890924032	60	7895
2026-01-29 14:33:13.26	291.56	27.60	-45.4	-46.1	25.1	0.00e+00	0	46	0	2898264064	60	7894
2026-01-29 14:33:14.27	291.86	27.54	-45.6	-46.2	25.1	0.00e+00	0	46	0	2905604096	60	8013
2026-01-29 14:33:15.27	292.15	27.47	-45.4	-46.0	25.1	0.00e+00	0	46	0	2912944128	60	7831
2026-01-29 14:33:16.28	292.45	27.41	-45.4	-46.0	25.1	0.00e+00	0	46	0	2919235584	60	7802
2026-01-29 14:33:17.29	292.75	27.35	-45.5	-46.1	25.0	0.00e+00	0	46	0	2927624192	60	7889
2026-01-29 14:33:18.30	293.04	27.28	-45.4	-46.0	25.3	0.00e+00	0	46	0	2934964224	60	7777
2026-01-29 14:33:19.31	293.34	27.21	-45.4	-46.0	25.1	0.00e+00	0	46	0	2942304256	60	7797
2026-01-29 14:33:20.31	293.63	27.15	-45.4	-46.0	25.2	0.00e+00	0	46	0	2949644288	60	7783
2026-01-29 14:33:21.32	293.92	27.08	-45.5	-46.1	25.2	0.00e+00	0	46	0	2956984320	60	7882
2026-01-29 14:33:22.32	294.20	27.01	-45.5	-46.1	25.1	0.00e+00	0	46	0	2963275776	60	7904
2026-01-29 14:33:23.33	294.49	26.95	-45.6	-46.3	25.0	0.00e+00	0	46	0	2970615808	60	8062
2026-01-29 14:33:24.34	294.78	26.88	-45.6	-46.2	25.0	0.00e+00	0	46	0	2977955840	60	8028
2026-01-29 14:33:25.34	295.07	26.81	-45.6	-46.3	25.0	0.00e+00	0	46	0	2985295872	60	8077
2026-01-29 14:33:26.35	295.35	26.74	-45.7	-46.3	24.8	0.00e+00	0	46	0	2992635904	60	8134
2026-01-29 14:33:27.36	295.64	26.67	-45.7	-46.4	24.8	0.00e+00	0	46	0	2999975936	60	8170
2026-01-29 14:33:28.36	295.92	26.60	-45.6	-46.3	24.9	0.00e+00	0	46	0	3007315968	60	8103
2026-01-29 14:33:29.37	296.20	26.52	-45.7	-46.3	24.9	0.00e+00	0	46	0	3014656000	60	8122
2026-01-29 14:33:30.38	296.48	26.45	-45.5	-46.1	25.1	0.00e+00	0	46	0	3020947456	60	7931
2026-01-29 14:33:31.39	296.76	26.38	-45.3	-45.9	25.2	0.00e+00	0	46	0	3029336064	60	7725
2026-01-29 14:33:32.40	297.04	26.31	-45.3	-45.9	25.3	0.00e+00	0	46	0	3036676096	60	7768
2026-01-29 14:33:33.40	297.31	26.23	-45.3	-46.0	25.3	0.00e+00	0	47	0	3044016128	60	7781
2026-01-29 14:33:34.41	297.59	26.16	-45.3	-46.0	25.3	0.00e+00	0	46	0	3051356160	60	7795
2026-01-29 14:33:35.42	297.86	26.08	-45.4	-46.1	24.8	0.00e+00	0	46	0	3058696192	60	7872
2026-01-29 14:33:36.43	298.13	26.01	-45.5	-46.2	25.1	0.00e+00	0	46	0	3064987648	60	7967
2026-01-29 14:33:37.43	298.40	25.93	-45.5	-46.2	25.0	0.00e+00	0	46	0	3072327680	60	8015
2026-01-29 14:33:38.44	298.67	25.86	-45.5	-46.3	24.9	0.00e+00	0	46	0	3079667712	60	8054
2026-01-29 14:33:39.44	298.94	25.78	-45.4	-46.2	25.0	0.00e+00	0	46	0	3087007744	60	7959
2026-01-29 14:33:40.44	299.21	25.71	-45.6	-46.3	24.8	0.00e+00	0	46	0	3094347776	60	8123
2026-01-29 14:33:41.45	299.47	25.63	-45.8	-46.6	24.7	0.00e+00	0	46	0	3101687808	60	8345
2026-01-29 14:33:42.46	299.74	25.55	-46.0	-46.7	24.7	0.00e+00	0	46	0	3109027840	60	8473
2026-01-29 14:33:43.46	300.00	25.47	-46.1	-46.8	24.6	0.00e+00	0	46	0	3116367872	60	8554
2026-01-29 14:33:44.47	300.26	25.40	-46.1	-46.8	24.5	0.00e+00	0	46	0	3123707904	60	8613
2026-01-29 14:33:45.47	300.52	25.32	-46.1	-46.7	24.5	0.00e+00	0	46	0	3129999360	60	8517
2026-01-29 14:33:46.48	300.78	25.24	-46.1	-46.7	24.5	0.00e+00	0	46	0	3137339392	60	8519
2026-01-29 14:33:47.48	301.04	25.16	-46.1	-46.7	24.6	0.00e+00	0	46	0	3145728000	60	8480
2026-01-29 14:33:48.49	301.30	25.08	-46.1	-46.7	24.6	0.00e+00	0	46	0	3153068032	60	8506
2026-01-29 14:33:49.50	301.55	25.00	-46.0	-46.6	24.7	0.00e+00	0	46	0	3160408064	60	8375
2026-01-29 14:33:50.51	301.81	24.92	-45.9	-46.6	24.7	0.00e+00	0	46	0	3167748096	60	8331
2026-01-29 14:33:51.51	302.06	24.84	-45.7	-46.4	24.9	0.00e+00	0	46	0	3174039552	60	8142
2026-01-29 14:33:52.52	302.31	24.76	-45.6	-46.3	25.0	0.00e+00	0	46	0	3181379584	60	8075
2026-01-29 14:33:53.52	302.56	24.68	-45.7	-46.4	24.9	0.00e+00	0	46	0	3188719616	60	8167
2026-01-29 14:33:54.53	302.81	24.59	-45.8	-46.4	24.9	0.00e+00	0	46	0	3196059648	60	8230
2026-01-29 14:33:55.53	303.06	24.51	-45.9	-46.5	24.8	0.00e+00	0	46	0	3203399680	60	8313
2026-01-29 14:33:56.53	303.30	24.43	-45.8	-46.5	24.8	0.00e+00	0	46	0	3210739712	60	8270
2026-01-29 14:33:57.54	303.55	24.35	-45.8	-46.4	24.8	0.00e+00	0	46	0	3218079744	60	8228
2026-01-29 14:33:58.55	303.79	24.26	-45.8	-46.5	24.8	0.00e+00	0	46	0	3225419776	60	8251
2026-01-29 14:33:59.55	304.04	24.18	-45.8	-46.5	24.7	0.00e+00	0	46	0	3231711232	60	8304
2026-01-29 14:34:00.56	304.28	24.10	-45.9	-46.6	24.7	0.00e+00	0	47	0	3239051264	60	8363
2026-01-29 14:34:01.56	304.52	24.01	-45.8	-46.6	24.4	0.00e+00	0	46	0	3246391296	60	8332
2026-01-29 14:34:02.57	304.76	23.93	-45.9	-46.6	24.7	0.00e+00	0	47	0	3253731328	60	8364
2026-01-29 14:34:03.58	305.00	23.85	-45.9	-46.6	24.6	0.00e+00	0	46	0	3261071360	60	8387
2026-01-29 14:34:04.59	305.23	23.76	-45.9	-46.6	24.6	0.00e+00	0	46	0	3269459968	60	8357
2026-01-29 14:34:05.59	305.47	23.68	-46.0	-46.6	24.5	0.00e+00	0	46	0	3275751424	60	8395
2026-01-29 14:34:06.60	305.70	23.59	-46.0	-46.6	24.5	0.00e+00	0	46	0	3283091456	60	8421
2026-01-29 14:34:07.60	305.93	23.51	-46.0	-46.7	24.3	0.00e+00	0	46	0	3290431488	60	8431
2026-01-29 14:34:08.61	306.17	23.42	-46.2	-46.8	24.4	0.00e+00	0	46	0	3297771520	60	8556
2026-01-29 14:34:09.61	306.40	23.34	-46.2	-46.8	24.3	0.00e+00	0	46	0	3305111552	60	8607
2026-01-29 14:34:10.61	306.62	23.25	-46.1	-46.7	24.3	0.00e+00	0	46	0	3312451584	60	8515
2026-01-29 14:34:11.62	306.85	23.17	-46.0	-46.7	24.4	0.00e+00	0	46	0	3319791616	60	8430
2026-01-29 14:34:12.62	307.08	23.08	-46.1	-46.8	24.2	0.00e+00	0	46	0	3327131648	60	8575
2026-01-29 14:34:13.62	307.30	23.00	-46.0	-46.7	24.4	0.00e+00	0	46	0	3334471680	60	8465
2026-01-29 14:34:14.63	307.53	22.91	-46.0	-46.7	24.2	0.00e+00	0	46	0	3340763136	60	8475
2026-01-29 14:34:15.63	307.75	22.82	-45.9	-46.7	24.3	0.00e+00	0	47	0	3348103168	60	8442
2026-01-29 14:34:16.64	307.97	22.74	-46.0	-46.8	24.1	0.00e+00	0	46	0	3355443200	60	8532
2026-01-29 14:34:17.64	308.19	22.65	-46.0	-46.8	24.1	0.00e+00	0	46	0	3362783232	60	8555
2026-01-29 14:34:18.65	308.41	22.56	-46.0	-46.8	24.1	0.00e+00	0	46	0	3370123264	60	8550
2026-01-29 14:34:19.66	308.63	22.48	-46.1	-46.9	23.9	0.00e+00	0	46	0	3377463296	60	8693
2026-01-29 14:34:20.66	308.85	22.39	-46.0	-46.8	24.0	0.00e+00	0	46	0	3384803328	60	8546
2026-01-29 14:34:21.67	309.06	22.30	-46.0	-46.8	24.0	0.00e+00	0	46	0	3392143360	60	8577
2026-01-29 14:34:22.68	309.28	22.22	-46.0	-46.8	24.0	0.00e+00	0	46	0	3399483392	60	8590
2026-01-29 14:34:23.68	309.49	22.13	-46.0	-46.7	24.0	0.00e+00	0	47	0	3406823424	60	8518
2026-01-29 14:34:24.69	309.70	22.04	-46.1	-46.9	23.9	0.00e+00	0	46	0	3414163456	60	8653
2026-01-29 14:34:25.69	309.91	21.95	-46.1	-46.8	23.9	0.00e+00	0	46	0	3421503488	60	8602
2026-01-29 14:34:26.70	310.13	21.87	-46.2	-46.9	23.8	0.00e+00	0	46	0	3428843520	60	8702
2026-01-29 14:34:27.70	310.33	21.78	-46.3	-47.0	23.8	0.00e+00	0	46	0	3436183552	60	8762
2026-01-29 14:34:28.71	310.54	21.69	-46.3	-47.0	23.7	0.00e+00	0	46	0	3443523584	60	8773
2026-01-29 14:34:29.71	310.75	21.60	-46.3	-47.0	23.7	0.00e+00	0	46	0	3449815040	60	8761
2026-01-29 14:34:30.72	310.95	21.52	-46.4	-47.1	23.7	0.00e+00	0	46	0	3457155072	60	8825
2026-01-29 14:34:31.72	311.16	21.43	-46.3	-47.0	23.7	0.00e+00	0	46	0	3464495104	60	8788
2026-01-29 14:34:32.73	311.36	21.34	-46.4	-47.1	23.8	0.00e+00	0	46	0	3471835136	60	8869
2026-01-29 14:34:33.74	311.56	21.25	-46.3	-47.0	23.9	0.00e+00	0	46	0	3479175168	60	8744
2026-01-29 14:34:34.75	311.77	21.16	-46.2	-46.9	23.9	0.00e+00	0	46	0	3486515200	60	8679
2026-01-29 14:34:35.76	311.97	21.08	-46.2	-47.0	23.8	0.00e+00	0	46	0	3493855232	60	8726
2026-01-29 14:34:36.76	312.16	20.99	-46.1	-46.8	24.0	0.00e+00	0	46	0	3501195264	60	8598
2026-01-29 14:34:37.77	312.36	20.90	-46.2	-46.8	24.0	0.00e+00	0	46	0	3507486720	60	8613
2026-01-29 14:34:38.78	312.56	20.81	-46.2	-46.9	23.9	0.00e+00	0	46	0	3514826752	60	8700
2026-01-29 14:34:39.78	312.75	20.72	-46.4	-47.0	23.8	0.00e+00	0	46	0	3523215360	60	8801
2026-01-29 14:34:40.79	312.95	20.63	-46.4	-47.1	23.8	0.00e+00	0	47	0	3530555392	60	8848
2026-01-29 14:34:41.80	313.14	20.55	-46.4	-47.1	23.7	0.00e+00	0	46	0	3537895424	60	8862
2026-01-29 14:34:42.80	313.33	20.46	-46.5	-47.2	23.7	0.00e+00	0	46	0	3545235456	60	8991
2026-01-29 14:34:43.80	313.52	20.37	-46.6	-47.4	23.6	0.00e+00	0	47	0	3551526912	60	9142
2026-01-29 14:34:44.81	313.71	20.28	-46.8	-47.5	23.5	0.00e+00	0	46	0	3558866944	60	9302
2026-01-29 14:34:45.82	313.90	20.19	-46.8	-47.5	23.5	0.00e+00	0	46	0	3566206976	60	9342
2026-01-29 14:34:46.82	314.09	20.11	-46.9	-47.7	23.4	0.00e+00	0	46	0	3573547008	60	9453
2026-01-29 14:34:47.83	314.28	20.02	-46.9	-47.6	23.4	0.00e+00	0	46	0	3580887040	60	9407
2026-01-29 14:34:48.84	314.47	19.93	-46.8	-47.5	23.5	0.00e+00	0	46	0	3588227072	60	9268
2026-01-29 14:34:49.84	314.65	19.84	-46.8	-47.6	23.5	0.00e+00	0	46	0	3595567104	60	9347
2026-01-29 14:34:50.85	314.83	19.75	-46.7	-47.4	23.5	0.00e+00	0	46	0	3602907136	60	9217
2026-01-29 14:34:51.85	315.02	19.67	-46.6	-47.3	23.7	0.00e+00	0	46	0	3610247168	60	9064
2026-01-29 14:34:52.86	315.20	19.58	-46.5	-47.1	23.8	0.00e+00	0	46	0	3616538624	60	8915
2026-01-29 14:34:53.87	315.38	19.49	-46.5	-47.2	23.8	0.00e+00	0	46	0	3623878656	60	8944
2026-01-29 14:34:54.87	315.56	19.40	-46.4	-47.1	23.8	0.00e+00	0	46	0	3631218688	60	8855
2026-01-29 14:34:55.88	315.74	19.31	-46.6	-47.2	23.7	0.00e+00	0	46	0	3638558720	60	9015
2026-01-29 14:34:56.89	315.92	19.23	-46.5	-47.2	23.8	0.00e+00	0	46	0	3646947328	60	8940
2026-01-29 14:34:57.89	316.09	19.14	-46.5	-47.2	23.8	0.00e+00	0	46	0	3654287360	60	8958
2026-01-29 14:34:58.90	316.27	19.05	-46.5	-47.2	23.7	0.00e+00	0	46	0	3660578816	60	8929
2026-01-29 14:34:59.91	316.44	18.96	-46.6	-47.3	23.7	0.00e+00	0	46	0	3667918848	60	9046
2026-01-29 14:35:00.92	316.62	18.87	-46.7	-47.4	23.5	0.00e+00	0	46	0	3675258880	60	9174
2026-01-29 14:35:01.92	316.79	18.79	-46.9	-47.5	23.4	0.00e+00	0	46	0	3682598912	60	9313
2026-01-29 14:35:02.92	316.96	18.70	-46.9	-47.6	23.4	0.00e+00	0	46	0	3689938944	60	9427
2026-01-29 14:35:03.93	317.13	18.61	-47.1	-47.8	23.2	0.00e+00	0	46	0	3697278976	60	9626
2026-01-29 14:35:04.94	317.30	18.52	-47.1	-47.9	23.1	0.00e+00	0	46	0	3704619008	60	9689
2026-01-29 14:35:05.94	317.47	18.44	-47.1	-47.8	23.0	0.00e+00	0	47	0	3711959040	60	9673
2026-01-29 14:35:06.94	317.64	18.35	-47.1	-47.8	23.1	0.00e+00	0	46	0	3718250496	60	9671
2026-01-29 14:35:07.95	317.81	18.26	-47.2	-48.0	22.9	0.00e+00	0	46	0	3725590528	60	9846
2026-01-29 14:35:08.96	317.97	18.18	-47.1	-47.9	23.0	0.00e+00	0	46	0	3732930560	60	9731
2026-01-29 14:35:09.96	318.14	18.09	-46.9	-47.7	23.1	0.00e+00	0	46	0	3740270592	60	9548
2026-01-29 14:35:10.97	318.30	18.00	-47.0	-47.7	23.2	0.00e+00	0	46	0	3747610624	60	9544
2026-01-29 14:35:11.98	318.47	17.92	-47.0	-47.7	23.0	0.00e+00	0	46	0	3754950656	60	9534
2026-01-29 14:35:12.99	318.63	17.83	-46.9	-47.7	23.3	0.00e+00	0	46	0	3762290688	60	9474
2026-01-29 14:35:13.99	318.79	17.74	-46.8	-47.5	23.5	0.00e+00	0	46	0	3769630720	60	9320
2026-01-29 14:35:14.99	318.95	17.66	-46.7	-47.4	23.5	0.00e+00	0	46	0	3776970752	60	9154
2026-01-29 14:35:16.00	319.11	17.57	-46.6	-47.3	23.5	0.00e+00	0	46	0	3784310784	60	9105
2026-01-29 14:35:17.01	319.27	17.48	-46.6	-47.3	23.5	0.00e+00	0	46	0	3791650816	60	9058
2026-01-29 14:35:18.01	319.43	17.40	-46.6	-47.3	23.3	0.00e+00	0	46	0	3798990848	60	9103
2026-01-29 14:35:19.02	319.58	17.31	-46.8	-47.5	23.2	0.00e+00	0	46	0	3806330880	60	9283
2026-01-29 14:35:20.02	319.74	17.23	-46.8	-47.5	23.3	0.00e+00	0	46	0	3813670912	60	9255
2026-01-29 14:35:21.02	319.89	17.14	-46.9	-47.6	23.3	0.00e+00	0	46	0	3821010944	60	9380
2026-01-29 14:35:22.03	320.05	17.05	-47.0	-47.7	23.3	0.00e+00	0	46	0	3827302400	60	9472
2026-01-29 14:35:23.04	320.20	16.97	-47.1	-47.8	23.0	0.00e+00	0	46	0	3834642432	60	9651
2026-01-29 14:35:24.04	320.36	16.88	-47.2	-47.9	23.0	0.00e+00	0	46	0	3841982464	60	9740
2026-01-29 14:35:25.05	320.51	16.80	-47.3	-48.0	22.9	0.00e+00	0	46	0	3849322496	60	9891
2026-01-29 14:35:26.06	320.66	16.71	-47.3	-48.1	22.9	0.00e+00	0	46	0	3856662528	60	9988
2026-01-29 14:35:27.07	320.81	16.63	-47.4	-48.3	22.8	0.00e+00	0	46	0	3864002560	60	10156
2026-01-29 14:35:28.07	320.96	16.54	-47.4	-48.2	22.7	0.00e+00	0	46	0	3871342592	60	10084
2026-01-29 14:35:29.08	321.11	16.46	-47.4	-48.3	22.6	0.00e+00	0	46	0	3878682624	60	10137
2026-01-29 14:35:30.08	321.26	16.37	-47.5	-48.4	22.6	0.00e+00	0	46	0	3886022656	60	10252
2026-01-29 14:35:31.09	321.40	16.29	-47.5	-48.3	22.7	0.00e+00	0	46	0	3893362688	60	10215
2026-01-29 14:35:32.10	321.55	16.20	-47.7	-48.5	22.5	0.00e+00	0	46	0	3900702720	60	10397
2026-01-29 14:35:33.10	321.70	16.12	-47.6	-48.3	22.5	0.00e+00	0	46	0	3908042752	60	10198
2026-01-29 14:35:34.11	321.84	16.03	-47.6	-48.3	22.7	0.00e+00	0	46	0	3915382784	60	10228
2026-01-29 14:35:35.12	321.99	15.95	-47.4	-48.1	22.8	0.00e+00	0	46	0	3922722816	60	9988
2026-01-29 14:35:36.12	322.13	15.86	-47.4	-48.2	22.7	0.00e+00	0	46	0	3929014272	60	10045
2026-01-29 14:35:37.13	322.27	15.78	-47.3	-48.1	22.8	0.00e+00	0	46	0	3936354304	60	9936
2026-01-29 14:35:38.13	322.41	15.70	-47.2	-48.1	22.7	0.00e+00	0	46	0	3943694336	60	9971
2026-01-29 14:35:39.14	322.55	15.61	-47.1	-48.0	22.8	0.00e+00	0	46	0	3951034368	60	9880
2026-01-29 14:35:40.15	322.69	15.53	-46.8	-48.0	22.8	0.00e+00	0	46	0	3958374400	60	9799
2026-01-29 14:35:41.15	322.83	15.45	-47.0	-48.1	22.6	0.00e+00	0	46	0	3965714432	60	9955
2026-01-29 14:35:42.16	322.97	15.36	-46.9	-48.2	22.5	0.00e+00	0	46	0	3973054464	60	10057
2026-01-29 14:35:43.17	323.11	15.28	-47.0	-48.3	22.4	0.00e+00	0	46	0	3980394496	60	10161
2026-01-29 14:35:44.18	323.25	15.19	-47.1	-48.4	22.3	0.00e+00	0	46	0	3987734528	60	10347
2026-01-29 14:35:45.18	323.38	15.11	-47.2	-48.5	22.1	0.00e+00	0	46	0	3995074560	60	10458
2026-01-29 14:35:46.19	323.52	15.03	-47.3	-48.6	22.1	0.00e+00	0	46	0	4002414592	60	10543
2026-01-29 14:35:47.20	323.66	14.95	-47.4	-48.7	21.9	0.00e+00	0	46	0	4009754624	60	10697
2026-01-29 14:35:48.20	323.79	14.86	-47.5	-48.8	21.7	0.00e+00	0	46	0	4017094656	60	10825
2026-01-29 14:35:49.21	323.92	14.78	-47.7	-49.0	21.6	0.00e+00	0	46	0	4024434688	60	10981
2026-01-29 14:35:50.22	324.06	14.70	-47.8	-49.1	21.4	0.00e+00	0	46	0	4031774720	60	11132
2026-01-29 14:35:51.23	324.19	14.62	-47.8	-49.1	21.3	0.00e+00	0	47	0	4038066176	60	11194
2026-01-29 14:35:52.23	324.32	14.53	-47.8	-49.3	21.1	0.00e+00	0	46	0	4045406208	60	11441
2026-01-29 14:35:53.23	324.45	14.45	-47.9	-49.4	20.8	0.00e+00	0	46	0	4052746240	60	11618
2026-01-29 14:35:54.24	324.58	14.37	-47.8	-49.5	20.7	0.00e+00	0	46	0	4060086272	60	11696
2026-01-29 14:35:55.24	324.71	14.29	-47.7	-49.6	20.5	0.00e+00	0	47	0	4067426304	60	11777
2026-01-29 14:35:56.25	324.84	14.21	-47.7	-49.7	20.4	0.00e+00	0	46	0	4074766336	60	11978
2026-01-29 14:35:57.25	324.97	14.13	-47.7	-49.8	20.2	0.00e+00	0	46	0	4082106368	60	12073
2026-01-29 14:35:58.26	325.09	14.05	-47.7	-49.9	20.1	0.00e+00	0	46	0	4089446400	60	12239
2026-01-29 14:35:59.27	325.22	13.96	-47.6	-50.0	20.0	0.00e+00	0	46	0	4096786432	60	12354
2026-01-29 14:36:00.28	325.35	13.88	-47.6	-50.1	19.9	0.00e+00	0	46	0	4103077888	60	12488
2026-01-29 14:36:01.29	325.47	13.80	-47.5	-50.2	19.6	0.00e+00	0	46	0	4111466496	60	12636
2026-01-29 14:36:02.30	325.60	13.72	-47.5	-50.3	19.4	0.00e+00	0	46	0	4118806528	60	12856
2026-01-29 14:36:03.30	325.72	13.64	-47.5	-50.3	19.5	0.00e+00	0	46	0	4126146560	60	12884
2026-01-29 14:36:04.31	325.85	13.56	-47.6	-50.6	19.2	0.00e+00	0	46	0	4133486592	60	13257
2026-01-29 14:36:05.31	325.97	13.48	-47.7	-50.8	19.0	0.00e+00	0	46	0	4140826624	60	13538
2026-01-29 14:36:06.31	326.09	13.40	-47.9	-50.9	18.9	0.00e+00	0	46	0	4147118080	60	13753
2026-01-29 14:36:07.32	326.21	13.32	-48.2	-51.1	18.7	0.00e+00	0	46	0	4154458112	60	14132
2026-01-29 14:36:08.32	326.33	13.24	-48.6	-51.3	18.4	0.00e+00	0	46	0	4161798144	60	14467
2026-01-29 14:36:09.32	326.45	13.16	-48.9	-51.5	18.2	0.00e+00	0	46	0	4169138176	60	14770
2026-01-29 14:36:10.32	326.57	13.08	-49.3	-51.7	18.0	0.00e+00	0	46	0	4176478208	60	15080
2026-01-29 14:36:11.33	326.69	13.01	-49.6	-51.9	17.7	0.00e+00	0	46	0	4183818240	60	15481
2026-01-29 14:36:12.34	326.81	12.93	-49.7	-52.2	17.5	0.00e+00	0	46	0	4191158272	60	15925
2026-01-29 14:36:13.35	326.93	12.85	-49.8	-52.5	17.1	0.00e+00	0	46	0	4198498304	60	16509
2026-01-29 14:36:14.35	327.04	12.77	-49.8	-52.8	16.9	0.00e+00	0	46	0	4204789760	60	17019
2026-01-29 14:36:15.36	327.16	12.69	-49.6	-53.0	16.7	0.00e+00	0	47	0	4212129792	60	17460
