passes_logs/2026/01/29/R3.2S-Naryan-Mar/R3.2S-Naryan-Mar__20260129_064443_SUOMI_NPP_rec.log

#Pass ID: 20260129_064443_SUOMI NPP
#Satellite: SUOMI NPP
#Configuration: NPP
#almurnet v.1.7.20240730
#Start time: 2026-01-29 06:44:43

#Version: 2.2.20231116
#Station: R3.2S-Naryan-Mar
#Location: 53.008057 lon 67.646978 lat
#TLE: 1 37849U 11061A   26027.93236865  .00000148  00000+0  91411-4 0  9991
#TLE: 2 37849  98.7823 329.8704 0002085  41.3231 318.8102 14.19530777738546

#Time	Az	El	Level	Level2	SNR	BER	BlckErr	Temp	State	Recorded	gain1	gain2
2026-01-29 06:44:43.44	115.71	0.02	-61.1	-75.9	3.4	1.51e+00	0	43	0	0	60	238647
2026-01-29 06:44:44.44	115.68	0.07	-60.8	-78.5	3.6	1.51e+00	0	44	104	0	60	330956
2026-01-29 06:44:45.45	115.64	0.13	-60.6	-78.4	3.6	1.51e+00	0	44	104	0	60	327383
2026-01-29 06:44:46.46	115.61	0.19	-59.6	-78.1	3.6	1.51e+00	0	44	104	0	60	314840
2026-01-29 06:44:47.46	115.57	0.25	-61.0	-78.6	3.6	1.51e+00	0	44	104	0	60	335057
2026-01-29 06:44:48.47	115.54	0.31	-61.3	-79.2	3.6	1.51e+00	0	44	104	0	60	359059
2026-01-29 06:44:49.47	115.51	0.37	-61.4	-78.8	3.6	1.51e+00	0	44	104	0	60	341521
2026-01-29 06:44:50.48	115.47	0.43	-61.7	-79.3	3.6	1.51e+00	0	44	104	0	60	359664
2026-01-29 06:44:51.48	115.44	0.48	-61.9	-78.9	3.6	1.51e+00	0	44	104	0	60	346029
2026-01-29 06:44:52.49	115.40	0.54	-62.3	-79.5	3.6	1.51e+00	0	44	104	0	60	369091
2026-01-29 06:44:53.50	115.37	0.60	-61.4	-78.9	3.6	1.51e+00	0	45	104	0	60	344601
2026-01-29 06:44:54.50	115.33	0.66	-61.3	-79.0	3.6	1.51e+00	0	45	104	0	60	349816
2026-01-29 06:44:55.51	115.30	0.72	-61.2	-78.6	3.6	1.51e+00	0	45	104	0	60	331938
2026-01-29 06:44:56.52	115.26	0.78	-61.1	-78.5	3.6	1.51e+00	0	44	104	0	60	328141
2026-01-29 06:44:57.53	115.23	0.84	-58.2	-76.4	3.6	1.51e+00	0	44	104	0	60	257604
2026-01-29 06:44:58.53	115.19	0.90	-57.7	-77.8	3.6	1.51e+00	0	45	104	0	60	305065
2026-01-29 06:44:59.53	115.16	0.96	-56.9	-76.5	3.5	1.51e+00	0	45	104	0	60	262624
2026-01-29 06:45:00.54	115.12	1.02	-58.4	-77.1	3.6	1.51e+00	0	44	104	0	60	280534
2026-01-29 06:45:01.55	115.08	1.08	-51.3	-70.9	3.6	1.51e+00	0	45	104	0	60	137756
2026-01-29 06:45:02.55	115.05	1.14	-50.1	-72.5	3.6	1.51e+00	0	44	104	0	60	165900
2026-01-29 06:45:03.56	115.01	1.20	-50.1	-72.4	3.6	1.51e+00	0	45	104	0	60	163991
2026-01-29 06:45:04.57	114.97	1.26	-50.0	-71.1	3.6	1.51e+00	0	45	104	0	60	140674
2026-01-29 06:45:05.57	114.94	1.32	-49.9	-71.1	3.6	1.51e+00	0	45	104	0	60	140024
2026-01-29 06:45:06.58	114.90	1.38	-49.9	-72.3	3.6	1.51e+00	0	45	104	0	60	161665
2026-01-29 06:45:07.59	114.86	1.45	-49.8	-72.3	3.6	1.51e+00	0	45	104	0	60	160590
2026-01-29 06:45:08.59	114.83	1.51	-49.8	-72.2	3.6	1.51e+00	0	45	104	0	60	159630
2026-01-29 06:45:09.60	114.79	1.57	-49.8	-72.2	3.6	1.51e+00	0	45	104	0	60	159361
2026-01-29 06:45:10.60	114.75	1.63	-49.7	-71.9	3.6	1.51e+00	0	45	104	0	60	154358
2026-01-29 06:45:11.61	114.72	1.69	-49.7	-72.0	3.6	1.51e+00	0	45	104	0	60	156298
2026-01-29 06:45:12.62	114.68	1.75	-49.7	-72.0	3.6	1.51e+00	0	45	104	0	60	155612
2026-01-29 06:45:13.63	114.64	1.81	-49.6	-70.7	3.6	1.51e+00	0	45	104	0	60	135055
2026-01-29 06:45:14.63	114.60	1.88	-49.6	-72.0	3.6	1.51e+00	0	45	104	0	60	156326
2026-01-29 06:45:15.64	114.56	1.94	-49.7	-71.9	3.6	1.51e+00	0	45	104	0	60	154299
2026-01-29 06:45:16.65	114.52	2.00	-49.8	-72.0	3.6	1.51e+00	0	45	104	0	60	156009
2026-01-29 06:45:17.65	114.49	2.06	-49.8	-72.1	3.6	1.51e+00	0	45	104	0	60	157960
2026-01-29 06:45:18.66	114.45	2.12	-49.8	-72.2	3.6	1.51e+00	0	45	104	0	60	159097
2026-01-29 06:45:19.67	114.41	2.19	-49.7	-72.1	3.6	1.51e+00	0	45	104	0	60	157129
2026-01-29 06:45:20.68	114.37	2.25	-49.7	-72.0	3.6	1.51e+00	0	45	104	0	60	156578
2026-01-29 06:45:21.68	114.33	2.31	-49.7	-71.3	3.5	1.51e+00	0	45	104	0	60	144103
2026-01-29 06:45:22.70	114.29	2.37	-49.6	-70.7	3.6	1.51e+00	0	45	104	0	60	134298
2026-01-29 06:45:23.70	114.25	2.44	-49.6	-71.9	3.6	1.51e+00	0	45	104	0	60	153636
2026-01-29 06:45:24.71	114.21	2.50	-49.6	-71.9	3.6	1.51e+00	0	45	104	0	60	154793
2026-01-29 06:45:25.72	114.17	2.56	-49.5	-71.8	3.6	1.51e+00	0	45	104	0	60	152231
2026-01-29 06:45:26.72	114.13	2.63	-49.5	-71.9	3.6	1.51e+00	0	45	104	0	60	153775
2026-01-29 06:45:27.72	114.09	2.69	-49.5	-71.9	3.6	1.51e+00	0	45	104	0	60	153566
2026-01-29 06:45:28.73	114.05	2.75	-49.4	-71.6	3.6	1.51e+00	0	45	104	0	60	148329
2026-01-29 06:45:29.74	114.01	2.82	-49.3	-71.6	3.5	1.51e+00	0	45	104	0	60	148598
2026-01-29 06:45:30.75	113.97	2.88	-49.4	-70.5	3.6	1.51e+00	0	45	104	0	60	131409
2026-01-29 06:45:31.76	113.92	2.94	-49.3	-71.7	3.5	1.51e+00	0	45	104	0	60	150648
2026-01-29 06:45:32.76	113.88	3.01	-49.3	-71.7	3.6	1.51e+00	0	45	104	0	60	150629
2026-01-29 06:45:33.77	113.84	3.07	-49.3	-71.8	3.6	1.51e+00	0	45	104	0	60	152437
2026-01-29 06:45:34.78	113.80	3.14	-49.3	-71.6	3.6	1.51e+00	0	45	104	0	60	149323
2026-01-29 06:45:35.78	113.76	3.20	-49.2	-71.7	3.6	1.51e+00	0	45	104	0	60	150667
2026-01-29 06:45:36.79	113.72	3.27	-49.3	-71.7	3.6	1.51e+00	0	45	104	0	60	151004
2026-01-29 06:45:37.79	113.67	3.33	-49.3	-71.7	3.6	1.51e+00	0	45	104	0	60	151099
2026-01-29 06:45:38.79	113.63	3.39	-49.2	-70.4	3.6	1.51e+00	0	45	104	0	60	130112
2026-01-29 06:45:39.80	113.59	3.46	-49.3	-70.9	3.5	1.51e+00	0	45	104	0	60	138070
2026-01-29 06:45:40.80	113.55	3.52	-49.2	-71.7	3.6	1.51e+00	0	45	104	0	60	151193
2026-01-29 06:45:41.80	113.50	3.59	-49.2	-71.6	3.6	1.51e+00	0	45	104	0	60	149571
2026-01-29 06:45:42.80	113.46	3.65	-49.2	-71.7	3.5	1.51e+00	0	45	104	0	60	150667
2026-01-29 06:45:43.81	113.42	3.72	-49.3	-71.7	3.6	1.51e+00	0	45	104	0	60	150566
2026-01-29 06:45:44.82	113.37	3.79	-49.1	-71.5	3.6	1.51e+00	0	45	104	0	60	147349
2026-01-29 06:45:45.83	113.33	3.85	-49.2	-71.6	3.6	1.51e+00	0	45	104	0	60	148285
2026-01-29 06:45:46.84	113.28	3.92	-49.2	-71.6	3.6	1.51e+00	0	45	104	0	60	149589
2026-01-29 06:45:47.85	113.24	3.98	-49.1	-71.5	3.6	1.51e+00	0	45	104	0	60	147206
2026-01-29 06:45:48.85	113.19	4.05	-49.2	-71.3	3.6	1.51e+00	0	45	104	0	60	144360
2026-01-29 06:45:49.86	113.15	4.12	-49.2	-71.7	3.6	1.51e+00	0	45	104	0	60	150420
2026-01-29 06:45:50.87	113.10	4.18	-49.1	-71.4	3.6	1.51e+00	0	45	104	0	60	145123
2026-01-29 06:45:51.88	113.06	4.25	-49.4	-71.8	3.6	1.51e+00	0	45	104	0	60	152468
2026-01-29 06:45:52.88	113.01	4.32	-49.4	-71.5	3.6	1.51e+00	0	45	104	0	60	147981
2026-01-29 06:45:53.89	112.97	4.38	-49.3	-71.4	3.6	1.51e+00	0	45	104	0	60	146221
2026-01-29 06:45:54.89	112.92	4.45	-49.4	-71.4	3.6	1.51e+00	0	45	104	0	60	145711
2026-01-29 06:45:55.90	112.87	4.52	-49.4	-70.5	3.6	1.51e+00	0	45	104	0	60	131525
2026-01-29 06:45:56.90	112.83	4.58	-49.3	-70.5	3.6	1.51e+00	0	45	104	0	60	130974
2026-01-29 06:45:57.91	112.78	4.65	-49.1	-71.3	3.6	1.51e+00	0	45	104	0	60	143899
2026-01-29 06:45:58.91	112.73	4.72	-49.1	-71.4	3.6	1.51e+00	0	45	104	0	60	145472
2026-01-29 06:45:59.92	112.69	4.79	-49.1	-71.5	3.6	1.51e+00	0	45	104	0	60	147496
2026-01-29 06:46:00.93	112.64	4.86	-49.1	-71.6	3.6	1.51e+00	0	45	104	0	60	149035
2026-01-29 06:46:01.94	112.59	4.92	-49.1	-71.1	3.6	1.51e+00	0	45	104	0	60	140452
2026-01-29 06:46:02.95	112.54	4.99	-49.1	-71.5	3.6	1.51e+00	0	45	104	0	60	147758
2026-01-29 06:46:03.96	112.49	5.06	-49.1	-70.3	3.6	1.51e+00	0	45	104	0	60	128107
2026-01-29 06:46:04.96	112.45	5.13	-49.0	-70.2	3.6	1.51e+00	0	45	104	0	60	127015
2026-01-29 06:46:05.97	112.40	5.20	-49.0	-71.4	3.6	1.51e+00	0	45	104	0	60	145082
2026-01-29 06:46:06.98	112.35	5.27	-49.0	-71.5	3.6	1.51e+00	0	45	104	0	60	147307
2026-01-29 06:46:07.99	112.30	5.34	-49.0	-71.3	3.6	1.51e+00	0	45	104	0	60	144526
2026-01-29 06:46:08.99	112.25	5.41	-49.0	-71.3	3.6	1.51e+00	0	45	104	0	60	144022
2026-01-29 06:46:10.00	112.20	5.48	-49.2	-71.4	3.6	1.51e+00	0	45	104	0	60	144867
2026-01-29 06:46:11.00	112.15	5.55	-49.1	-71.5	3.6	1.51e+00	0	45	104	0	60	147736
2026-01-29 06:46:12.01	112.10	5.62	-49.1	-71.6	3.6	1.51e+00	0	45	104	0	60	148507
2026-01-29 06:46:13.02	112.05	5.69	-49.2	-71.7	3.6	1.51e+00	0	45	104	0	60	150209
2026-01-29 06:46:14.02	112.00	5.76	-49.2	-70.4	3.6	1.51e+00	0	45	104	0	60	128995
2026-01-29 06:46:15.03	111.95	5.83	-49.1	-71.4	3.6	1.51e+00	0	45	104	0	60	145097
2026-01-29 06:46:16.03	111.90	5.90	-49.0	-71.5	3.6	1.51e+00	0	45	104	0	60	146896
2026-01-29 06:46:17.04	111.85	5.97	-49.0	-71.5	3.6	1.51e+00	0	45	104	0	60	147769
2026-01-29 06:46:18.05	111.79	6.04	-48.9	-71.5	3.6	1.51e+00	0	45	104	0	60	146909
2026-01-29 06:46:19.06	111.74	6.11	-47.2	-71.9	3.6	1.51e+00	0	45	104	0	60	154100
2026-01-29 06:46:20.07	111.69	6.18	-47.9	-67.3	3.6	1.51e+00	0	45	104	0	60	90937
2026-01-29 06:46:21.08	111.64	6.25	-46.4	-66.0	3.6	1.51e+00	0	45	104	0	60	78438
2026-01-29 06:46:22.08	111.59	6.32	-49.1	-72.0	3.6	1.51e+00	0	45	104	0	60	156250
2026-01-29 06:46:23.09	111.53	6.39	-38.7	-61.5	3.6	1.51e+00	0	45	104	0	54	65747
2026-01-29 06:46:24.10	111.48	6.47	-39.3	-62.0	3.6	1.51e+00	0	45	104	0	52	78098
2026-01-29 06:46:25.10	111.43	6.54	-41.0	-62.9	3.6	1.51e+00	0	45	104	0	54	77124
2026-01-29 06:46:26.11	111.37	6.61	-41.9	-63.9	3.6	1.51e+00	0	45	104	0	56	77037
2026-01-29 06:46:27.11	111.32	6.68	-48.5	-70.8	3.6	1.51e+00	0	45	104	0	60	135216
2026-01-29 06:46:28.12	111.26	6.75	-48.5	-71.5	3.6	1.51e+00	0	45	104	0	60	146427
2026-01-29 06:46:29.13	111.21	6.83	-48.9	-71.2	3.6	1.51e+00	0	45	104	0	60	142792
2026-01-29 06:46:30.14	111.15	6.90	-56.8	-74.6	3.6	1.51e+00	0	45	104	0	60	210719
2026-01-29 06:46:31.15	111.10	6.97	-47.0	-69.8	3.6	1.51e+00	0	45	104	0	60	121554
2026-01-29 06:46:32.15	111.04	7.05	-46.0	-70.3	3.6	1.51e+00	0	46	104	0	60	128431
2026-01-29 06:46:33.16	110.99	7.12	-46.4	-70.6	3.6	1.51e+00	0	45	104	0	60	132419
2026-01-29 06:46:34.17	110.93	7.19	-46.8	-70.7	3.6	1.51e+00	0	45	104	0	60	134041
2026-01-29 06:46:35.18	110.87	7.27	-53.6	-73.2	3.6	1.51e+00	0	45	104	0	60	178450
2026-01-29 06:46:36.19	110.82	7.34	-49.4	-74.2	3.6	1.51e+00	0	45	104	0	60	201706
2026-01-29 06:46:37.19	110.76	7.42	-53.0	-72.8	3.6	1.51e+00	0	45	104	0	60	171788
2026-01-29 06:46:38.20	110.70	7.49	-54.7	-75.2	3.6	1.51e+00	0	45	104	0	60	225590
2026-01-29 06:46:39.21	110.64	7.57	-48.2	-71.7	3.6	1.51e+00	0	46	104	0	60	150060
2026-01-29 06:46:40.21	110.59	7.64	-47.6	-71.3	3.6	1.51e+00	0	45	104	0	60	143708
2026-01-29 06:46:41.22	110.53	7.71	-48.7	-71.8	3.6	1.51e+00	0	45	104	0	60	152759
2026-01-29 06:46:42.23	110.47	7.79	-49.0	-71.9	3.5	1.51e+00	0	45	104	0	60	155028
2026-01-29 06:46:43.24	110.41	7.87	-58.1	-75.6	3.6	1.51e+00	0	45	104	0	60	234868
2026-01-29 06:46:44.24	110.35	7.94	-58.4	-75.6	3.6	1.51e+00	0	46	104	0	60	236172
2026-01-29 06:46:45.24	110.29	8.02	-49.9	-71.0	3.6	1.51e+00	0	45	104	0	60	138354
2026-01-29 06:46:46.25	110.23	8.09	-58.5	-75.0	3.6	1.51e+00	0	46	104	0	60	221401
2026-01-29 06:46:47.26	110.17	8.17	-45.8	-68.9	3.6	1.51e+00	0	45	104	0	60	109588
2026-01-29 06:46:48.26	110.11	8.24	-45.9	-70.1	3.6	1.51e+00	0	45	104	0	60	125967
2026-01-29 06:46:49.27	110.05	8.32	-46.3	-70.5	3.6	1.51e+00	0	45	104	0	60	131047
2026-01-29 06:46:50.28	109.99	8.40	-46.8	-70.8	3.6	1.51e+00	0	45	104	0	60	135198
2026-01-29 06:46:51.28	109.93	8.47	-55.4	-74.1	3.6	1.51e+00	0	46	104	0	60	197914
2026-01-29 06:46:52.29	109.86	8.55	-55.5	-73.8	3.6	1.51e+00	0	45	104	0	60	190823
2026-01-29 06:46:53.30	109.80	8.63	-50.0	-70.3	3.6	1.51e+00	0	45	104	0	60	128782
2026-01-29 06:46:54.31	109.74	8.71	-57.4	-75.1	3.6	1.51e+00	0	45	104	0	60	223116
2026-01-29 06:46:55.32	109.68	8.78	-53.7	-73.3	3.6	1.51e+00	0	45	104	0	60	182147
2026-01-29 06:46:56.33	109.61	8.86	-52.4	-72.9	3.6	1.51e+00	0	45	104	0	60	172650
2026-01-29 06:46:57.33	109.55	8.94	-53.9	-73.5	3.6	1.51e+00	0	46	104	0	60	184410
2026-01-29 06:46:58.34	109.48	9.02	-55.0	-73.9	3.6	1.51e+00	0	46	104	0	60	194141
2026-01-29 06:46:59.34	109.42	9.10	-57.2	-75.1	3.6	1.51e+00	0	46	104	0	60	223633
2026-01-29 06:47:00.35	109.35	9.18	-57.4	-75.3	3.6	1.51e+00	0	46	104	0	60	228696
2026-01-29 06:47:01.36	109.29	9.25	-57.8	-75.5	3.6	1.51e+00	0	46	104	0	60	234227
2026-01-29 06:47:02.36	109.22	9.33	-57.6	-75.5	3.6	1.51e+00	0	45	104	0	60	232389
2026-01-29 06:47:03.37	109.16	9.41	-57.9	-75.8	3.6	1.51e+00	0	45	104	0	60	241877
2026-01-29 06:47:04.38	109.09	9.49	-57.7	-75.6	3.6	1.51e+00	0	45	104	0	60	236951
2026-01-29 06:47:05.39	109.02	9.57	-57.7	-75.7	3.6	1.51e+00	0	45	104	0	60	237519
2026-01-29 06:47:06.39	108.96	9.65	-57.2	-75.4	3.6	1.51e+00	0	45	104	0	60	231952
2026-01-29 06:47:07.40	108.89	9.73	-57.5	-75.9	3.6	1.51e+00	0	46	104	0	60	244605
2026-01-29 06:47:08.41	108.82	9.81	-57.9	-75.7	3.6	1.51e+00	0	45	104	0	60	237901
2026-01-29 06:47:09.41	108.75	9.89	-55.3	-74.3	3.6	1.51e+00	0	45	104	0	60	204277
2026-01-29 06:47:10.42	108.69	9.97	-58.7	-75.7	3.6	1.51e+00	0	46	104	0	60	240115
2026-01-29 06:47:11.43	108.62	10.06	-57.5	-75.0	3.6	1.51e+00	0	46	104	0	60	219588
2026-01-29 06:47:12.44	108.55	10.14	-56.0	-75.0	3.6	1.51e+00	0	46	104	0	60	220726
2026-01-29 06:47:13.44	108.48	10.22	-55.8	-75.0	3.6	1.51e+00	0	45	104	0	60	221335
2026-01-29 06:47:14.45	108.41	10.30	-55.3	-74.6	3.6	1.51e+00	0	45	104	0	60	211150
2026-01-29 06:47:15.46	108.34	10.38	-57.6	-75.7	3.6	1.51e+00	0	45	104	0	60	238560
2026-01-29 06:47:16.46	108.27	10.46	-57.5	-75.8	3.6	1.51e+00	0	46	104	0	60	241930
2026-01-29 06:47:17.47	108.19	10.55	-58.5	-75.9	3.6	1.51e+00	0	46	104	0	60	244457
2026-01-29 06:47:18.47	108.12	10.63	-58.5	-76.2	3.6	1.51e+00	0	45	104	0	60	251649
2026-01-29 06:47:19.48	108.05	10.71	-57.2	-75.3	3.6	1.51e+00	0	46	104	0	60	228015
2026-01-29 06:47:20.48	107.98	10.80	-57.1	-75.6	3.6	1.51e+00	0	45	104	0	60	236218
2026-01-29 06:47:21.49	107.90	10.88	-56.7	-75.6	3.6	1.51e+00	0	45	104	0	60	236082
2026-01-29 06:47:22.49	107.83	10.96	-56.7	-75.8	3.6	1.51e+00	0	46	104	0	60	241488
2026-01-29 06:47:23.50	107.76	11.05	-58.3	-76.2	3.6	1.51e+00	0	45	104	0	60	252503
2026-01-29 06:47:24.51	107.68	11.13	-58.7	-76.2	3.6	1.51e+00	0	46	104	0	60	253026
2026-01-29 06:47:25.52	107.61	11.22	-57.6	-75.9	3.6	1.51e+00	0	45	104	0	60	245551
2026-01-29 06:47:26.52	107.53	11.30	-58.3	-76.1	3.6	1.51e+00	0	45	104	0	60	251181
2026-01-29 06:47:27.53	107.46	11.38	-58.6	-76.2	3.6	1.51e+00	0	45	104	0	60	251518
2026-01-29 06:47:28.54	107.38	11.47	-59.2	-76.3	3.6	1.51e+00	0	45	104	0	60	257079
2026-01-29 06:47:29.55	107.30	11.56	-58.3	-76.1	3.6	1.51e+00	0	45	104	0	60	250639
2026-01-29 06:47:30.55	107.22	11.64	-59.1	-76.4	3.6	1.51e+00	0	46	104	0	60	258398
2026-01-29 06:47:31.56	107.15	11.73	-58.7	-76.2	3.6	1.51e+00	0	46	104	0	60	251753
2026-01-29 06:47:32.57	107.07	11.81	-57.3	-75.4	3.6	1.51e+00	0	46	104	0	60	231134
2026-01-29 06:47:33.57	106.99	11.90	-57.2	-75.3	3.6	1.51e+00	0	46	104	0	60	228724
2026-01-29 06:47:34.58	106.91	11.99	-57.9	-75.8	3.6	1.51e+00	0	46	104	0	60	241523
2026-01-29 06:47:35.58	106.83	12.07	-59.0	-76.0	3.6	1.51e+00	0	46	104	0	60	248476
2026-01-29 06:47:36.59	106.75	12.16	-59.1	-76.3	3.6	1.51e+00	0	46	104	0	60	255094
2026-01-29 06:47:37.60	106.67	12.25	-58.0	-75.5	3.6	1.51e+00	0	46	104	0	60	234141
2026-01-29 06:47:38.60	106.59	12.33	-57.7	-75.5	3.6	1.51e+00	0	46	104	0	60	232904
2026-01-29 06:47:39.60	106.51	12.42	-57.1	-75.5	3.6	1.51e+00	0	46	104	0	60	233883
2026-01-29 06:47:40.60	106.43	12.51	-57.8	-75.8	3.6	1.51e+00	0	46	104	0	60	240493
2026-01-29 06:47:41.61	106.34	12.60	-57.7	-75.6	3.6	1.51e+00	0	46	104	0	60	235850
2026-01-29 06:47:42.61	106.26	12.69	-57.6	-75.9	3.6	1.51e+00	0	46	104	0	60	244153
2026-01-29 06:47:43.62	106.18	12.77	-58.9	-76.2	3.6	1.51e+00	0	46	104	0	60	251873
2026-01-29 06:47:44.63	106.09	12.86	-58.7	-76.0	3.6	1.51e+00	0	46	104	0	60	247172
2026-01-29 06:47:45.63	106.01	12.95	-58.3	-75.9	3.6	1.51e+00	0	46	104	0	60	244369
2026-01-29 06:47:46.63	105.92	13.04	-58.0	-76.1	3.6	1.51e+00	0	46	104	0	60	249450
2026-01-29 06:47:47.64	105.84	13.13	-58.8	-76.0	3.6	1.51e+00	0	45	104	0	60	247676
2026-01-29 06:47:48.65	105.75	13.22	-57.8	-75.8	3.6	1.51e+00	0	45	104	0	60	241126
2026-01-29 06:47:49.65	105.67	13.31	-58.0	-75.8	3.6	1.51e+00	0	46	104	0	60	242830
2026-01-29 06:47:50.66	105.58	13.40	-58.9	-75.9	3.6	1.51e+00	0	45	104	0	60	244858
2026-01-29 06:47:51.66	105.49	13.49	-59.2	-76.3	3.6	1.51e+00	0	46	104	0	60	255695
2026-01-29 06:47:52.67	105.40	13.59	-58.6	-76.1	3.6	1.51e+00	0	46	104	0	60	251167
2026-01-29 06:47:53.67	105.31	13.68	-58.3	-76.2	3.6	1.51e+00	0	46	104	0	60	252691
2026-01-29 06:47:54.67	105.22	13.77	-58.6	-76.0	3.5	1.51e+00	0	46	104	0	60	246663
2026-01-29 06:47:55.67	105.13	13.86	-58.6	-75.9	3.6	1.51e+00	0	46	104	0	60	244847
2026-01-29 06:47:56.68	105.04	13.95	-58.1	-75.8	3.6	1.51e+00	0	46	104	0	60	242460
2026-01-29 06:47:57.69	104.95	14.04	-58.1	-75.9	3.6	1.51e+00	0	46	104	0	60	243739
2026-01-29 06:47:58.70	104.86	14.14	-59.7	-76.0	3.6	1.51e+00	0	45	104	0	60	247163
2026-01-29 06:47:59.71	104.77	14.23	-60.1	-76.4	3.6	1.51e+00	0	46	104	0	60	259556
2026-01-29 06:48:00.71	104.67	14.32	-59.1	-76.5	3.6	1.51e+00	0	46	104	0	60	262821
2026-01-29 06:48:01.72	104.58	14.42	-59.0	-76.4	3.6	1.51e+00	0	45	104	0	60	259065
2026-01-29 06:48:02.72	104.49	14.51	-58.8	-75.8	3.6	1.51e+00	0	46	104	0	60	241125
2026-01-29 06:48:03.73	104.39	14.61	-58.9	-76.5	3.6	1.51e+00	0	46	104	0	60	262217
2026-01-29 06:48:04.74	104.29	14.70	-58.7	-76.3	3.6	1.51e+00	0	46	104	0	60	255663
2026-01-29 06:48:05.75	104.20	14.80	-58.7	-76.4	3.6	1.51e+00	0	46	104	0	60	259163
2026-01-29 06:48:06.76	104.10	14.89	-59.7	-76.4	3.5	1.51e+00	0	46	104	0	60	258826
2026-01-29 06:48:07.76	104.00	14.99	-60.1	-76.7	3.6	1.51e+00	0	46	104	0	60	267074
2026-01-29 06:48:08.76	103.91	15.08	-59.9	-76.5	3.6	1.51e+00	0	46	104	0	60	262647
2026-01-29 06:48:09.77	103.81	15.18	-59.9	-76.6	3.6	1.51e+00	0	46	104	0	60	265310
2026-01-29 06:48:10.77	103.71	15.27	-59.8	-76.4	3.6	1.51e+00	0	46	104	0	60	259556
2026-01-29 06:48:11.78	103.61	15.37	-60.0	-76.4	3.6	1.51e+00	0	45	104	0	60	260021
2026-01-29 06:48:12.79	103.51	15.47	-59.4	-76.2	3.6	1.51e+00	0	45	104	0	60	253867
2026-01-29 06:48:13.80	103.40	15.57	-58.9	-76.1	3.6	1.51e+00	0	45	104	0	60	250109
2026-01-29 06:48:14.81	103.30	15.66	-58.5	-75.8	3.6	1.51e+00	0	45	104	0	60	240268
2026-01-29 06:48:15.81	103.20	15.76	-59.3	-76.0	3.6	1.51e+00	0	46	104	0	60	247403
2026-01-29 06:48:16.82	103.10	15.86	-59.3	-76.7	3.6	1.51e+00	0	45	104	0	60	266725
2026-01-29 06:48:17.83	102.99	15.96	-59.4	-76.4	3.6	1.51e+00	0	46	104	0	60	259762
2026-01-29 06:48:18.84	102.89	16.06	-58.4	-76.0	3.6	1.51e+00	0	46	104	0	60	245957
2026-01-29 06:48:19.84	102.78	16.15	-58.7	-76.2	3.6	1.51e+00	0	46	104	0	60	252748
2026-01-29 06:48:20.85	102.67	16.25	-59.3	-76.2	3.5	1.51e+00	0	45	104	0	60	252193
2026-01-29 06:48:21.86	102.57	16.35	-59.3	-76.4	3.6	1.51e+00	0	46	104	0	60	260137
2026-01-29 06:48:22.86	102.46	16.45	-59.0	-76.0	3.6	1.51e+00	0	46	104	0	60	246196
2026-01-29 06:48:23.87	102.35	16.55	-59.2	-76.0	3.6	1.51e+00	0	46	104	0	60	247306
2026-01-29 06:48:24.87	102.24	16.65	-59.0	-76.6	3.6	1.51e+00	0	46	104	0	60	265082
2026-01-29 06:48:25.88	102.13	16.76	-58.8	-76.5	3.6	1.51e+00	0	46	104	0	60	260475
2026-01-29 06:48:26.89	102.02	16.86	-59.1	-76.3	3.6	1.51e+00	0	46	104	0	60	255477
2026-01-29 06:48:27.89	101.91	16.96	-59.3	-76.1	3.6	1.51e+00	0	46	104	0	60	250114
2026-01-29 06:48:28.90	101.80	17.06	-58.6	-76.1	3.6	1.51e+00	0	46	104	0	60	249922
2026-01-29 06:48:29.91	101.68	17.16	-58.3	-76.0	3.6	1.51e+00	0	46	104	0	60	248591
2026-01-29 06:48:30.92	101.57	17.26	-58.3	-75.6	3.6	1.51e+00	0	46	104	0	60	235667
2026-01-29 06:48:31.93	101.45	17.37	-59.4	-76.8	3.6	1.51e+00	0	46	104	0	60	271016
2026-01-29 06:48:32.93	101.34	17.47	-59.8	-76.2	3.6	1.51e+00	0	46	104	0	60	252478
2026-01-29 06:48:33.94	101.22	17.57	-58.9	-76.1	3.6	1.51e+00	0	46	104	0	60	249942
2026-01-29 06:48:34.94	101.10	17.68	-59.8	-76.6	3.6	1.51e+00	0	46	104	0	60	265606
2026-01-29 06:48:35.95	100.99	17.78	-59.9	-76.4	3.6	1.51e+00	0	46	104	0	60	257548
2026-01-29 06:48:36.95	100.87	17.88	-59.0	-75.4	3.6	1.51e+00	0	46	104	0	60	230365
2026-01-29 06:48:37.96	100.75	17.99	-58.2	-75.1	3.6	1.51e+00	0	46	104	0	60	222517
2026-01-29 06:48:38.96	100.63	18.09	-56.4	-74.9	3.6	1.51e+00	0	46	104	0	60	216595
2026-01-29 06:48:39.97	100.51	18.20	-60.3	-76.6	3.6	1.51e+00	0	46	104	0	60	265217
2026-01-29 06:48:40.98	100.38	18.30	-58.4	-75.4	3.6	1.51e+00	0	46	104	0	60	230401
2026-01-29 06:48:41.98	100.26	18.41	-55.2	-75.8	3.6	1.51e+00	0	46	104	0	60	242435
2026-01-29 06:48:42.99	100.14	18.52	-59.1	-76.5	3.6	1.51e+00	0	45	104	0	60	261254
2026-01-29 06:48:44.00	100.01	18.62	-55.7	-75.8	3.6	1.51e+00	0	46	104	0	60	241009
2026-01-29 06:48:45.00	99.89	18.73	-55.4	-74.7	3.6	1.51e+00	0	46	104	0	60	212135
2026-01-29 06:48:46.01	99.76	18.84	-55.9	-74.6	3.6	1.51e+00	0	46	104	0	60	210690
2026-01-29 06:48:47.02	99.63	18.94	-59.9	-77.0	3.6	1.51e+00	0	46	104	0	60	278719
2026-01-29 06:48:48.03	99.50	19.05	-58.0	-76.3	3.6	1.51e+00	0	46	104	0	60	254484
2026-01-29 06:48:49.04	99.37	19.16	-55.1	-74.2	3.6	1.51e+00	0	46	104	0	60	199857
2026-01-29 06:48:50.05	99.24	19.27	-59.4	-76.7	3.6	1.51e+00	0	45	104	0	60	268177
2026-01-29 06:48:51.06	99.11	19.38	-55.4	-76.0	3.6	1.51e+00	0	46	104	0	60	246748
2026-01-29 06:48:52.07	98.98	19.49	-54.7	-74.8	3.6	1.51e+00	0	46	104	0	60	215700
2026-01-29 06:48:53.07	98.84	19.60	-54.9	-73.8	3.6	1.51e+00	0	46	104	0	60	192166
2026-01-29 06:48:54.08	98.71	19.71	-55.5	-74.0	3.6	1.51e+00	0	46	104	0	60	195250
2026-01-29 06:48:55.09	98.57	19.82	-60.0	-76.5	3.6	1.51e+00	0	46	104	0	60	263151
2026-01-29 06:48:56.09	98.44	19.92	-58.2	-76.1	3.6	1.51e+00	0	46	104	0	60	250560
2026-01-29 06:48:57.10	98.30	20.04	-56.8	-76.0	3.6	1.51e+00	0	46	104	0	60	247085
2026-01-29 06:48:58.10	98.16	20.15	-57.6	-76.0	3.6	1.51e+00	0	46	104	0	60	247338
2026-01-29 06:48:59.10	98.02	20.26	-57.8	-76.2	3.6	1.51e+00	0	46	104	0	60	252876
2026-01-29 06:49:00.11	97.88	20.37	-58.9	-76.8	3.6	1.51e+00	0	46	104	0	60	269899
2026-01-29 06:49:01.11	97.74	20.48	-59.8	-76.9	3.6	1.51e+00	0	46	104	0	60	273942
2026-01-29 06:49:02.12	97.60	20.59	-60.0	-76.9	3.6	1.51e+00	0	46	104	0	60	273134
2026-01-29 06:49:03.12	97.46	20.70	-59.3	-77.0	3.6	1.51e+00	0	46	104	0	60	276182
2026-01-29 06:49:04.13	97.31	20.82	-59.3	-76.9	3.6	1.51e+00	0	46	104	0	60	272962
2026-01-29 06:49:05.14	97.17	20.93	-58.1	-75.8	3.6	1.51e+00	0	46	104	0	60	242444
2026-01-29 06:49:06.15	97.02	21.04	-58.6	-76.3	3.6	1.51e+00	0	46	104	0	60	257100
2026-01-29 06:49:07.16	96.87	21.16	-58.7	-76.4	3.6	1.51e+00	0	46	104	0	60	260313
2026-01-29 06:49:08.16	96.72	21.27	-58.2	-76.0	3.5	1.51e+00	0	46	104	0	60	248607
2026-01-29 06:49:09.17	96.57	21.38	-57.6	-76.2	3.6	1.51e+00	0	45	104	0	60	252132
2026-01-29 06:49:10.18	96.42	21.50	-57.6	-76.3	3.6	1.51e+00	0	46	104	0	60	256893
2026-01-29 06:49:11.19	96.27	21.61	-59.8	-76.4	3.6	1.51e+00	0	46	104	0	60	259008
2026-01-29 06:49:12.20	96.11	21.73	-59.6	-76.9	3.6	1.51e+00	0	46	104	0	60	273856
2026-01-29 06:49:13.20	95.96	21.84	-59.4	-76.4	3.6	1.51e+00	0	46	104	0	60	258172
2026-01-29 06:49:14.20	95.81	21.96	-59.1	-76.7	3.5	1.51e+00	0	46	104	0	60	267486
2026-01-29 06:49:15.20	95.65	22.07	-58.7	-76.4	3.6	1.51e+00	0	46	104	0	60	259513
2026-01-29 06:49:16.21	95.49	22.19	-59.6	-76.3	3.6	1.51e+00	0	46	104	0	60	255896
2026-01-29 06:49:17.21	95.33	22.31	-59.3	-76.2	3.6	1.51e+00	0	46	104	0	60	254285
2026-01-29 06:49:18.22	95.17	22.42	-59.2	-76.1	3.6	1.51e+00	0	46	104	0	60	250069
2026-01-29 06:49:19.23	95.01	22.54	-59.7	-77.0	3.6	1.51e+00	0	46	104	0	60	277585
2026-01-29 06:49:20.24	94.85	22.66	-59.7	-76.5	3.6	1.51e+00	0	46	104	0	60	263330
2026-01-29 06:49:21.25	94.68	22.78	-59.1	-75.7	3.6	1.51e+00	0	46	104	0	60	238684
2026-01-29 06:49:22.26	94.51	22.90	-60.1	-76.8	3.6	1.51e+00	0	46	104	0	60	270934
2026-01-29 06:49:23.27	94.35	23.01	-59.0	-76.5	3.6	1.51e+00	0	46	104	0	60	262381
2026-01-29 06:49:24.27	94.18	23.13	-59.0	-76.1	3.6	1.51e+00	0	46	104	0	60	250438
2026-01-29 06:49:25.28	94.01	23.25	-59.2	-76.4	3.6	1.51e+00	0	46	104	0	60	260131
2026-01-29 06:49:26.28	93.84	23.37	-59.4	-76.5	3.6	1.51e+00	0	46	104	0	60	262476
2026-01-29 06:49:27.29	93.67	23.49	-60.3	-76.4	3.6	1.51e+00	0	46	104	0	60	259629
2026-01-29 06:49:28.30	93.49	23.61	-59.2	-76.5	3.6	1.51e+00	0	46	104	0	60	262946
2026-01-29 06:49:29.30	93.32	23.73	-58.8	-76.9	3.6	1.51e+00	0	46	104	0	60	272813
2026-01-29 06:49:30.31	93.14	23.85	-60.2	-76.0	3.6	1.51e+00	0	46	104	0	60	246602
2026-01-29 06:49:31.32	92.96	23.97	-59.0	-76.7	3.6	1.51e+00	0	46	104	0	60	269039
2026-01-29 06:49:32.33	92.78	24.09	-59.8	-76.1	3.6	1.51e+00	0	46	104	0	60	249954
2026-01-29 06:49:33.33	92.61	24.21	-59.7	-76.0	3.6	1.51e+00	0	46	104	0	60	246008
2026-01-29 06:49:34.33	92.42	24.33	-59.5	-76.0	3.6	1.51e+00	0	46	104	0	60	247632
2026-01-29 06:49:35.33	92.24	24.45	-59.4	-76.9	3.6	1.51e+00	0	46	104	0	60	275565
2026-01-29 06:49:36.34	92.06	24.57	-59.2	-76.7	3.6	1.51e+00	0	46	104	0	60	267244
2026-01-29 06:49:37.35	91.87	24.70	-59.5	-76.4	3.6	1.51e+00	0	46	104	0	60	258269
2026-01-29 06:49:38.36	91.68	24.82	-59.7	-75.8	3.6	1.51e+00	0	46	104	0	60	242006
2026-01-29 06:49:39.36	91.50	24.94	-59.0	-76.4	3.6	1.51e+00	0	46	104	0	60	260139
2026-01-29 06:49:40.37	91.30	25.06	-59.9	-76.3	3.6	1.51e+00	0	46	104	0	60	255904
2026-01-29 06:49:41.38	91.11	25.19	-59.9	-76.3	3.6	1.51e+00	0	46	104	0	60	256631
2026-01-29 06:49:42.39	90.92	25.31	-59.9	-76.1	3.6	1.51e+00	0	46	104	0	60	250709
2026-01-29 06:49:43.39	90.72	25.43	-60.2	-76.6	3.6	1.51e+00	0	46	104	0	60	264660
2026-01-29 06:49:44.40	90.53	25.56	-60.1	-77.1	3.6	1.51e+00	0	46	104	0	60	279637
2026-01-29 06:49:45.41	90.33	25.68	-60.4	-76.4	3.6	1.51e+00	0	46	104	0	60	259112
2026-01-29 06:49:46.41	90.13	25.80	-59.8	-76.7	3.6	1.51e+00	0	46	104	0	60	267369
2026-01-29 06:49:47.42	89.93	25.93	-60.4	-77.0	3.6	1.51e+00	0	46	104	0	60	276764
2026-01-29 06:49:48.43	89.72	26.05	-60.2	-76.4	3.6	1.51e+00	0	46	104	0	60	257990
2026-01-29 06:49:49.43	89.52	26.18	-60.2	-76.6	3.6	1.51e+00	0	46	104	0	60	264940
2026-01-29 06:49:50.44	89.31	26.30	-59.9	-76.6	3.6	1.51e+00	0	46	104	0	60	265145
2026-01-29 06:49:51.45	89.10	26.43	-59.7	-76.6	3.6	1.51e+00	0	46	104	0	60	265166
2026-01-29 06:49:52.45	88.90	26.55	-59.4	-76.4	3.6	1.51e+00	0	46	104	0	60	259397
2026-01-29 06:49:53.46	88.68	26.67	-59.7	-76.3	3.6	1.51e+00	0	46	104	0	60	255502
2026-01-29 06:49:54.47	88.47	26.80	-60.5	-76.6	3.6	1.51e+00	0	46	104	0	60	264767
2026-01-29 06:49:55.48	88.26	26.93	-60.4	-76.6	3.6	1.51e+00	0	46	104	0	60	265139
2026-01-29 06:49:56.49	88.04	27.05	-60.3	-76.9	3.6	1.51e+00	0	46	104	0	60	275424
2026-01-29 06:49:57.49	87.82	27.18	-60.5	-76.6	3.6	1.51e+00	0	46	104	0	60	266033
2026-01-29 06:49:58.50	87.60	27.30	-59.6	-76.6	3.6	1.51e+00	0	46	104	0	60	265875
2026-01-29 06:49:59.51	87.38	27.43	-59.8	-76.5	3.6	1.51e+00	0	46	104	0	60	263256
2026-01-29 06:50:00.51	87.16	27.55	-60.6	-77.0	3.6	1.51e+00	0	46	104	0	60	278167
2026-01-29 06:50:01.52	86.93	27.68	-59.8	-76.2	3.6	1.51e+00	0	46	104	0	60	251888
2026-01-29 06:50:02.52	86.71	27.80	-59.6	-76.7	3.6	1.51e+00	0	46	104	0	60	269305
2026-01-29 06:50:03.53	86.48	27.93	-59.6	-76.7	3.6	1.51e+00	0	46	104	0	60	267442
2026-01-29 06:50:04.54	86.25	28.06	-59.8	-77.0	3.6	1.51e+00	0	46	104	0	60	277679
2026-01-29 06:50:05.54	86.02	28.18	-60.0	-76.9	3.6	1.51e+00	0	46	104	0	60	273623
2026-01-29 06:50:06.55	85.78	28.31	-59.3	-76.5	3.6	1.51e+00	0	46	104	0	60	262083
2026-01-29 06:50:07.56	85.54	28.43	-60.0	-76.8	3.6	1.51e+00	0	46	104	0	60	272252
2026-01-29 06:50:08.57	85.31	28.56	-59.5	-76.9	3.6	1.51e+00	0	46	104	0	60	275284
2026-01-29 06:50:09.57	85.07	28.69	-59.1	-76.2	3.6	1.51e+00	0	46	104	0	60	253303
2026-01-29 06:50:10.58	84.82	28.81	-59.4	-76.7	3.6	1.51e+00	0	46	104	0	60	267104
2026-01-29 06:50:11.59	84.58	28.94	-59.1	-76.7	3.6	1.51e+00	0	46	104	0	60	267611
2026-01-29 06:50:12.59	84.34	29.07	-59.3	-76.8	3.6	1.51e+00	0	46	104	0	60	270403
2026-01-29 06:50:13.61	84.09	29.19	-59.2	-76.0	3.6	1.51e+00	0	46	104	0	60	246256
2026-01-29 06:50:14.61	83.84	29.32	-59.9	-76.9	3.6	1.51e+00	0	46	104	0	60	273851
2026-01-29 06:50:15.62	83.59	29.44	-59.2	-77.1	3.6	1.51e+00	0	46	104	0	60	280745
2026-01-29 06:50:16.63	83.33	29.57	-60.8	-77.1	3.6	1.51e+00	0	46	104	0	60	280967
2026-01-29 06:50:17.63	83.08	29.70	-60.5	-77.0	3.6	1.51e+00	0	46	104	0	60	277574
2026-01-29 06:50:18.64	82.82	29.82	-60.5	-77.4	3.6	1.51e+00	0	46	104	0	60	291127
2026-01-29 06:50:19.64	82.56	29.95	-60.3	-77.0	3.6	1.51e+00	0	46	104	0	60	277791
2026-01-29 06:50:20.65	82.30	30.07	-60.1	-76.9	3.6	1.51e+00	0	46	104	0	60	274805
2026-01-29 06:50:21.66	82.04	30.20	-59.5	-77.0	3.6	1.51e+00	0	46	104	0	60	278493
2026-01-29 06:50:22.66	81.77	30.32	-60.6	-77.6	3.6	1.51e+00	0	46	104	0	60	297240
2026-01-29 06:50:23.67	81.50	30.45	-59.2	-77.4	3.6	1.51e+00	0	46	104	0	60	289859
2026-01-29 06:50:24.68	81.23	30.57	-59.3	-77.3	3.6	1.51e+00	0	46	104	0	60	287664
2026-01-29 06:50:25.69	80.96	30.70	-60.1	-77.6	3.6	1.51e+00	0	46	104	0	60	296235
2026-01-29 06:50:26.70	80.68	30.82	-60.4	-77.7	3.6	1.51e+00	0	46	104	0	60	301756
2026-01-29 06:50:27.70	80.41	30.95	-61.4	-77.3	3.6	1.51e+00	0	46	104	0	60	285863
2026-01-29 06:50:28.71	80.13	31.07	-61.4	-77.2	3.6	1.51e+00	0	46	104	0	60	284908
2026-01-29 06:50:29.72	79.85	31.20	-61.2	-77.6	3.6	1.51e+00	0	46	104	0	60	296412
2026-01-29 06:50:30.73	79.57	31.32	-60.8	-77.5	3.6	1.51e+00	0	45	104	0	60	293248
2026-01-29 06:50:31.73	79.28	31.44	-61.0	-77.8	3.6	1.51e+00	0	45	104	0	60	302460
2026-01-29 06:50:32.73	79.00	31.56	-61.1	-77.6	3.6	1.51e+00	0	46	104	0	60	297010
2026-01-29 06:50:33.74	78.71	31.69	-61.0	-77.5	3.6	1.51e+00	0	46	104	0	60	294626
2026-01-29 06:50:34.75	78.42	31.81	-61.1	-77.7	3.6	1.51e+00	0	45	104	0	60	300461
2026-01-29 06:50:35.75	78.12	31.93	-60.6	-77.5	3.6	1.51e+00	0	46	104	0	60	294733
2026-01-29 06:50:36.76	77.83	32.05	-60.7	-77.5	3.6	1.51e+00	0	46	104	0	60	292512
2026-01-29 06:50:37.76	77.53	32.17	-61.3	-76.6	3.6	1.51e+00	0	45	104	0	60	264193
2026-01-29 06:50:38.76	77.23	32.29	-61.2	-77.9	3.6	1.51e+00	0	46	104	0	60	306857
2026-01-29 06:50:39.77	76.93	32.42	-61.5	-77.9	3.6	1.51e+00	0	46	104	0	60	307112
2026-01-29 06:50:40.78	76.62	32.54	-60.8	-77.5	3.6	1.51e+00	0	46	104	0	60	294408
2026-01-29 06:50:41.79	76.31	32.66	-61.2	-78.0	3.6	1.51e+00	0	45	104	0	60	312638
2026-01-29 06:50:42.80	76.00	32.78	-61.2	-78.1	3.6	1.51e+00	0	46	104	0	60	316516
2026-01-29 06:50:43.80	75.69	32.89	-61.4	-77.7	3.6	1.51e+00	0	45	104	0	60	301345
2026-01-29 06:50:44.81	75.38	33.01	-61.7	-77.8	3.6	1.51e+00	0	46	104	0	60	303923
2026-01-29 06:50:45.82	75.06	33.13	-61.5	-78.0	3.6	1.51e+00	0	46	104	0	60	310856
2026-01-29 06:50:46.83	74.74	33.25	-61.4	-78.0	3.6	1.51e+00	0	46	104	0	60	312088
2026-01-29 06:50:47.83	74.42	33.36	-61.7	-78.1	3.6	1.51e+00	0	46	104	0	60	314043
2026-01-29 06:50:48.84	74.10	33.48	-60.3	-78.0	3.6	1.51e+00	0	46	104	0	60	310924
2026-01-29 06:50:49.85	73.77	33.59	-61.6	-78.1	3.6	1.51e+00	0	46	104	0	60	316345
2026-01-29 06:50:50.86	73.44	33.71	-61.4	-78.0	3.6	1.51e+00	0	46	104	0	60	309933
2026-01-29 06:50:51.86	73.12	33.82	-59.6	-77.8	3.6	1.51e+00	0	46	104	0	60	303961
2026-01-29 06:50:52.87	72.78	33.94	-60.5	-78.0	3.6	1.51e+00	0	46	104	0	60	312572
2026-01-29 06:50:53.87	72.45	34.05	-59.8	-77.8	3.6	1.51e+00	0	46	104	0	60	305234
2026-01-29 06:50:54.88	72.11	34.16	-60.3	-77.5	3.6	1.51e+00	0	46	104	0	60	295215
2026-01-29 06:50:55.88	71.78	34.27	-60.5	-78.0	3.6	1.51e+00	0	46	104	0	60	309634
2026-01-29 06:50:56.89	71.43	34.38	-60.8	-77.7	3.6	1.51e+00	0	46	104	0	60	299239
2026-01-29 06:50:57.89	71.09	34.49	-60.4	-78.0	3.6	1.51e+00	0	46	104	0	60	311516
2026-01-29 06:50:58.89	70.75	34.60	-60.9	-77.7	3.6	1.51e+00	0	46	104	0	60	299639
2026-01-29 06:50:59.90	70.40	34.71	-60.5	-77.6	3.6	1.51e+00	0	46	104	0	60	296823
2026-01-29 06:51:00.91	70.04	34.81	-59.6	-77.6	3.6	1.51e+00	0	46	104	0	60	296149
2026-01-29 06:51:01.92	69.69	34.92	-60.9	-78.0	3.6	1.51e+00	0	46	104	0	60	311984
2026-01-29 06:51:02.92	69.34	35.03	-59.8	-77.8	3.6	1.51e+00	0	46	104	0	60	304401
2026-01-29 06:51:03.93	68.98	35.13	-60.3	-77.6	3.6	1.51e+00	0	46	104	0	60	297943
2026-01-29 06:51:04.94	68.62	35.23	-60.7	-77.5	3.6	1.51e+00	0	46	104	0	60	293279
2026-01-29 06:51:05.95	68.25	35.34	-61.3	-77.9	3.6	1.51e+00	0	46	104	0	60	308903
2026-01-29 06:51:06.96	67.89	35.44	-61.2	-78.0	3.6	1.51e+00	0	46	104	0	60	312055
2026-01-29 06:51:07.96	67.52	35.54	-61.3	-77.9	3.6	1.51e+00	0	46	104	0	60	307240
2026-01-29 06:51:08.97	67.15	35.64	-61.0	-77.8	3.6	1.51e+00	0	46	104	0	60	303990
2026-01-29 06:51:09.97	66.78	35.74	-61.3	-77.9	3.6	1.51e+00	0	46	104	0	60	308588
2026-01-29 06:51:10.98	66.41	35.83	-61.3	-77.7	3.6	1.51e+00	0	46	104	0	60	302244
2026-01-29 06:51:11.99	66.03	35.93	-61.3	-78.1	3.6	1.51e+00	0	46	104	0	60	314626
2026-01-29 06:51:12.99	65.65	36.02	-61.5	-77.5	3.6	1.51e+00	0	46	104	0	60	293121
2026-01-29 06:51:14.00	65.27	36.12	-61.6	-78.2	3.6	1.51e+00	0	46	104	0	60	320206
2026-01-29 06:51:15.00	64.89	36.21	-61.2	-77.9	3.6	1.51e+00	0	46	104	0	60	309165
2026-01-29 06:51:16.00	64.51	36.30	-61.2	-77.7	3.6	1.51e+00	0	46	104	0	60	300447
2026-01-29 06:51:17.01	64.12	36.39	-61.6	-77.7	3.6	1.51e+00	0	46	104	0	60	301829
2026-01-29 06:51:18.02	63.73	36.48	-61.5	-77.7	3.6	1.51e+00	0	46	104	0	60	301305
2026-01-29 06:51:19.03	63.34	36.57	-61.3	-78.2	3.6	1.51e+00	0	46	104	0	60	319762
2026-01-29 06:51:20.04	62.94	36.66	-61.8	-77.8	3.6	1.51e+00	0	46	104	0	60	304850
2026-01-29 06:51:21.04	62.55	36.74	-61.6	-77.7	3.6	1.51e+00	0	46	104	0	60	301661
2026-01-29 06:51:22.05	62.15	36.82	-61.6	-77.8	3.6	1.51e+00	0	46	104	0	60	303146
2026-01-29 06:51:23.06	61.75	36.91	-61.8	-77.7	3.6	1.51e+00	0	46	104	0	60	302067
2026-01-29 06:51:24.06	61.35	36.99	-61.8	-78.0	3.6	1.51e+00	0	46	104	0	60	311285
2026-01-29 06:51:25.07	60.95	37.07	-61.8	-77.5	3.6	1.51e+00	0	46	104	0	60	293731
2026-01-29 06:51:26.07	60.54	37.15	-61.1	-78.0	3.6	1.51e+00	0	46	104	0	60	311123
2026-01-29 06:51:27.07	60.14	37.22	-61.6	-77.7	3.6	1.51e+00	0	46	104	0	60	300558
2026-01-29 06:51:28.08	59.73	37.30	-61.4	-77.3	3.6	1.51e+00	0	46	104	0	60	288234
2026-01-29 06:51:29.09	59.32	37.37	-61.2	-77.3	3.6	1.51e+00	0	46	104	0	60	288058
2026-01-29 06:51:30.09	58.91	37.44	-61.2	-77.3	3.6	1.51e+00	0	46	104	0	60	285896
2026-01-29 06:51:31.10	58.49	37.51	-61.6	-78.0	3.6	1.51e+00	0	46	104	0	60	309476
2026-01-29 06:51:32.11	58.07	37.58	-60.7	-77.5	3.6	1.51e+00	0	46	104	0	60	293509
2026-01-29 06:51:33.11	57.66	37.65	-60.7	-77.7	3.6	1.51e+00	0	46	104	0	60	301067
2026-01-29 06:51:34.12	57.24	37.72	-61.7	-78.1	3.6	1.51e+00	0	46	104	0	60	315879
2026-01-29 06:51:35.13	56.81	37.78	-60.9	-77.7	3.6	1.51e+00	0	46	104	0	60	301607
2026-01-29 06:51:36.13	56.39	37.84	-61.3	-77.8	3.6	1.51e+00	0	46	104	0	60	304282
2026-01-29 06:51:37.14	55.96	37.90	-61.4	-77.7	3.6	1.51e+00	0	46	104	0	60	300699
2026-01-29 06:51:38.15	55.54	37.96	-61.2	-76.0	3.8	1.51e+00	0	45	104	0	60	246654
2026-01-29 06:51:39.16	55.11	38.02	-61.9	-77.6	3.6	1.51e+00	0	46	104	0	60	296084
2026-01-29 06:51:40.16	54.68	38.08	-61.3	-77.5	3.6	1.51e+00	0	46	104	0	60	292128
2026-01-29 06:51:41.17	54.25	38.13	-61.8	-76.9	3.6	1.51e+00	0	46	104	0	60	273097
2026-01-29 06:51:42.18	53.81	38.18	-61.3	-77.8	3.6	1.51e+00	0	46	104	0	60	305810
2026-01-29 06:51:43.19	53.38	38.23	-61.9	-77.5	3.6	1.51e+00	0	46	104	0	60	292803
2026-01-29 06:51:44.19	52.95	38.28	-61.5	-76.8	3.6	1.51e+00	0	46	104	0	60	270765
2026-01-29 06:51:45.20	52.51	38.33	-60.9	-76.8	3.6	1.51e+00	0	46	104	0	60	271356
2026-01-29 06:51:46.21	52.07	38.37	-62.1	-76.0	3.7	1.50e+00	0	46	104	0	60	247215
2026-01-29 06:51:47.21	51.63	38.41	-61.8	-78.1	3.6	1.51e+00	0	46	104	0	60	313947
2026-01-29 06:51:48.21	51.20	38.46	-62.1	-77.3	3.6	1.51e+00	0	46	104	0	60	285832
2026-01-29 06:51:49.22	50.75	38.49	-62.1	-78.1	3.6	1.51e+00	0	46	104	0	60	314016
2026-01-29 06:51:50.23	50.31	38.53	-61.4	-78.4	3.6	1.51e+00	0	46	104	0	60	325699
2026-01-29 06:51:51.24	49.87	38.57	-62.2	-77.3	3.6	1.51e+00	0	46	104	0	60	285819
2026-01-29 06:51:52.25	49.42	38.60	-62.2	-76.9	3.6	1.51e+00	0	46	104	0	60	275549
2026-01-29 06:51:53.25	48.98	38.63	-62.1	-76.8	3.6	1.51e+00	0	46	104	0	60	270197
2026-01-29 06:51:54.26	48.53	38.66	-62.0	-76.8	3.6	1.51e+00	0	46	104	0	60	271956
2026-01-29 06:51:55.27	48.08	38.69	-62.2	-78.5	3.6	1.51e+00	0	46	104	0	60	330356
2026-01-29 06:51:56.28	47.63	38.72	-61.2	-76.9	3.6	1.51e+00	0	46	104	0	60	273969
2026-01-29 06:51:57.28	47.19	38.74	-62.0	-78.1	3.6	1.51e+00	0	46	104	0	60	314040
2026-01-29 06:51:58.29	46.74	38.76	-61.2	-78.1	3.6	1.51e+00	0	46	104	0	60	314089
2026-01-29 06:51:59.30	46.29	38.78	-61.6	-77.1	3.6	1.51e+00	0	46	104	0	60	279064
2026-01-29 06:52:00.31	45.84	38.80	-61.8	-77.2	3.6	1.51e+00	0	46	104	0	60	282301
2026-01-29 06:52:01.31	45.39	38.81	-61.9	-77.1	3.5	1.51e+00	0	46	104	0	60	279996
2026-01-29 06:52:02.32	44.94	38.83	-61.9	-75.6	3.8	1.51e+00	0	46	104	0	60	236685
2026-01-29 06:52:03.32	44.49	38.84	-61.3	-78.0	3.6	1.51e+00	0	46	104	0	60	310026
2026-01-29 06:52:04.33	44.04	38.85	-61.5	-78.3	3.6	1.51e+00	0	46	104	0	60	323784
2026-01-29 06:52:05.33	43.59	38.86	-61.7	-77.5	3.6	1.51e+00	0	46	104	0	60	294200
2026-01-29 06:52:06.34	43.14	38.86	-62.0	-78.5	3.6	1.51e+00	0	46	104	0	60	327869
2026-01-29 06:52:07.34	42.69	38.87	-61.7	-77.5	3.6	1.51e+00	0	46	104	0	60	293114
2026-01-29 06:52:08.35	42.24	38.87	-61.5	-77.5	3.6	1.51e+00	0	46	104	0	60	292666
2026-01-29 06:52:09.35	41.79	38.87	-61.1	-77.5	3.6	1.51e+00	0	46	104	0	60	294827
2026-01-29 06:52:10.36	41.33	38.87	-61.0	-77.8	3.6	1.51e+00	0	46	104	0	60	305780
2026-01-29 06:52:11.36	40.88	38.86	-61.1	-78.1	3.6	1.51e+00	0	46	104	0	60	314363
2026-01-29 06:52:12.37	40.43	38.85	-61.3	-77.2	3.6	1.51e+00	0	46	104	0	60	284631
2026-01-29 06:52:13.38	39.98	38.85	-61.8	-78.1	3.6	1.51e+00	0	46	104	0	60	313065
2026-01-29 06:52:14.39	39.53	38.84	-61.0	-78.1	3.6	1.51e+00	0	46	104	0	60	314306
2026-01-29 06:52:15.39	39.08	38.82	-61.5	-77.6	3.6	1.51e+00	0	46	104	0	60	297870
2026-01-29 06:52:16.40	38.63	38.81	-61.4	-77.5	3.6	1.51e+00	0	46	104	0	60	294423
2026-01-29 06:52:17.40	38.18	38.79	-61.2	-77.4	3.6	1.51e+00	0	46	104	0	60	291882
2026-01-29 06:52:18.41	37.73	38.77	-61.7	-76.1	3.6	1.51e+00	0	46	104	0	60	248897
2026-01-29 06:52:19.41	37.28	38.75	-61.9	-78.2	3.6	1.51e+00	0	46	104	0	60	318774
2026-01-29 06:52:20.42	36.83	38.73	-61.3	-78.1	3.6	1.51e+00	0	46	104	0	60	313346
2026-01-29 06:52:21.43	36.39	38.71	-61.7	-77.9	3.6	1.51e+00	0	46	104	0	60	306389
2026-01-29 06:52:22.43	35.94	38.68	-61.6	-78.1	3.6	1.51e+00	0	46	104	0	60	316356
2026-01-29 06:52:23.44	35.49	38.65	-61.8	-77.6	3.6	1.51e+00	0	46	104	0	60	298894
2026-01-29 06:52:24.44	35.05	38.62	-61.7	-77.6	3.6	1.51e+00	0	46	104	0	60	297640
2026-01-29 06:52:25.45	34.61	38.59	-61.5	-77.6	3.6	1.51e+00	0	46	104	0	60	297620
2026-01-29 06:52:26.46	34.16	38.55	-61.6	-77.7	3.6	1.51e+00	0	46	104	0	60	300912
2026-01-29 06:52:27.46	33.72	38.52	-61.9	-78.2	3.6	1.51e+00	0	46	104	0	60	320287
2026-01-29 06:52:28.47	33.28	38.48	-61.8	-77.9	3.6	1.51e+00	0	46	104	0	60	306516
2026-01-29 06:52:29.47	32.84	38.44	-60.9	-78.1	3.6	1.51e+00	0	46	104	0	60	313602
2026-01-29 06:52:30.48	32.40	38.40	-60.7	-77.7	3.6	1.51e+00	0	46	104	0	60	302037
2026-01-29 06:52:31.49	31.96	38.35	-61.9	-78.0	3.6	1.51e+00	0	46	104	0	60	310603
2026-01-29 06:52:32.49	31.53	38.31	-61.9	-77.8	3.5	1.51e+00	0	46	104	0	60	303463
2026-01-29 06:52:33.50	31.09	38.26	-61.9	-77.6	3.5	1.51e+00	0	46	104	0	60	298090
2026-01-29 06:52:34.50	30.66	38.21	-60.2	-76.6	3.6	1.51e+00	0	46	104	0	60	265806
2026-01-29 06:52:35.51	30.23	38.16	-60.3	-77.8	3.6	1.51e+00	0	46	104	0	60	303150
2026-01-29 06:52:36.52	29.79	38.11	-60.3	-78.0	3.6	1.51e+00	0	46	104	0	60	309680
2026-01-29 06:52:37.52	29.37	38.05	-58.7	-76.9	3.6	1.51e+00	0	46	104	0	60	274255
2026-01-29 06:52:38.53	28.94	38.00	-59.3	-77.4	3.6	1.51e+00	0	46	104	0	60	291751
2026-01-29 06:52:39.53	28.51	37.94	-58.8	-76.9	3.6	1.51e+00	0	46	104	0	60	274111
2026-01-29 06:52:40.54	28.08	37.88	-58.8	-76.7	3.6	1.51e+00	0	46	104	0	60	266752
2026-01-29 06:52:41.54	27.66	37.82	-59.4	-77.3	3.6	1.51e+00	0	46	104	0	60	285581
2026-01-29 06:52:42.55	27.24	37.75	-60.0	-77.6	3.6	1.51e+00	0	46	104	0	60	297361
2026-01-29 06:52:43.56	26.82	37.69	-59.7	-78.0	3.6	1.51e+00	0	46	104	0	60	310814
2026-01-29 06:52:44.56	26.40	37.62	-59.8	-77.6	3.6	1.51e+00	0	46	104	0	60	296398
2026-01-29 06:52:45.57	25.98	37.56	-59.9	-77.5	3.6	1.51e+00	0	46	104	0	60	294164
2026-01-29 06:52:46.57	25.57	37.49	-61.5	-77.4	3.6	1.51e+00	0	46	104	0	60	289300
2026-01-29 06:52:47.57	25.16	37.42	-61.3	-77.4	3.6	1.51e+00	0	46	104	0	60	291530
2026-01-29 06:52:48.58	24.75	37.34	-61.5	-77.4	3.6	1.51e+00	0	46	104	0	60	291115
2026-01-29 06:52:49.58	24.34	37.27	-61.8	-77.6	3.6	1.51e+00	0	46	104	0	60	296157
2026-01-29 06:52:50.59	23.93	37.19	-61.7	-76.8	3.6	1.38e+00	0	46	104	0	60	271805
2026-01-29 06:52:51.60	23.52	37.12	-60.9	-77.8	3.6	1.51e+00	0	46	104	0	60	302802
2026-01-29 06:52:52.60	23.12	37.04	-61.6	-77.2	3.6	1.51e+00	0	46	104	0	60	283581
2026-01-29 06:52:53.61	22.72	36.96	-61.6	-77.6	3.6	1.51e+00	0	46	104	0	60	298058
2026-01-29 06:52:54.61	22.32	36.88	-61.3	-77.0	3.6	1.51e+00	0	46	104	0	60	277861
2026-01-29 06:52:55.62	21.92	36.79	-60.5	-76.7	3.6	1.51e+00	0	46	104	0	60	268247
2026-01-29 06:52:56.63	21.52	36.71	-59.9	-76.7	3.6	1.51e+00	0	46	104	0	60	266539
2026-01-29 06:52:57.63	21.13	36.62	-59.7	-76.9	3.6	1.51e+00	0	46	104	0	60	274346
2026-01-29 06:52:58.64	20.74	36.54	-61.1	-77.4	3.6	1.41e+00	0	46	104	0	60	289532
2026-01-29 06:52:59.64	20.35	36.45	-59.9	-77.5	3.6	1.51e+00	0	46	104	0	60	292189
2026-01-29 06:53:00.65	19.96	36.36	-60.9	-77.6	3.6	1.51e+00	0	46	104	0	60	298042
2026-01-29 06:53:01.66	19.58	36.27	-61.0	-77.8	3.6	1.51e+00	0	46	104	0	60	305470
2026-01-29 06:53:02.66	19.20	36.18	-59.5	-77.1	3.6	1.51e+00	0	46	104	0	60	279608
2026-01-29 06:53:03.67	18.81	36.09	-60.7	-77.4	3.6	1.51e+00	0	46	104	0	60	290830
2026-01-29 06:53:04.67	18.44	35.99	-60.0	-77.4	3.6	1.51e+00	0	46	104	0	60	291326
2026-01-29 06:53:05.68	18.06	35.90	-56.4	-76.3	3.6	1.51e+00	0	46	104	0	60	257372
2026-01-29 06:53:06.69	17.68	35.80	-60.2	-77.6	3.6	1.51e+00	0	46	104	0	60	297496
2026-01-29 06:53:07.70	17.31	35.70	-61.4	-77.9	3.6	1.51e+00	0	46	104	0	60	306321
2026-01-29 06:53:08.70	16.94	35.60	-60.9	-77.7	3.6	1.51e+00	0	46	104	0	60	299065
2026-01-29 06:53:09.71	16.57	35.50	-61.1	-77.8	3.6	1.51e+00	0	46	104	0	60	305857
2026-01-29 06:53:10.71	16.21	35.40	-57.4	-76.9	3.5	1.51e+00	0	45	104	0	60	273879
2026-01-29 06:53:11.72	15.85	35.30	-59.9	-77.5	3.6	1.51e+00	0	46	104	0	60	295422
2026-01-29 06:53:12.73	15.48	35.20	-60.7	-77.6	3.6	1.51e+00	0	46	104	0	60	298900
2026-01-29 06:53:13.74	15.12	35.10	-59.5	-77.0	3.6	1.51e+00	0	46	104	0	60	276786
2026-01-29 06:53:14.75	14.77	34.99	-61.2	-77.6	3.6	1.51e+00	0	46	104	0	60	298126
2026-01-29 06:53:15.76	14.41	34.88	-59.2	-77.4	3.6	1.51e+00	0	46	104	0	60	289321
2026-01-29 06:53:16.76	14.06	34.78	-60.7	-77.6	3.6	1.51e+00	0	46	104	0	60	296619
2026-01-29 06:53:17.77	13.71	34.67	-59.9	-76.7	3.6	1.51e+00	0	46	104	0	60	268818
2026-01-29 06:53:18.78	13.36	34.56	-60.6	-77.0	3.6	1.51e+00	0	46	104	0	60	277809
2026-01-29 06:53:19.79	13.02	34.45	-60.6	-77.0	3.6	1.51e+00	0	46	104	0	60	275841
2026-01-29 06:53:20.80	12.67	34.34	-60.2	-76.4	3.6	1.51e+00	0	46	104	0	60	258179
2026-01-29 06:53:21.80	12.34	34.23	-61.1	-77.8	3.6	1.51e+00	0	46	104	0	60	302968
2026-01-29 06:53:22.81	12.00	34.12	-61.0	-77.6	3.6	1.51e+00	0	46	104	0	60	296267
2026-01-29 06:53:23.82	11.66	34.01	-60.0	-77.7	3.5	1.51e+00	0	46	104	0	60	299532
2026-01-29 06:53:24.83	11.33	33.90	-58.6	-77.2	3.6	1.51e+00	0	46	104	0	60	282970
2026-01-29 06:53:25.83	11.00	33.78	-59.7	-77.5	3.6	1.51e+00	0	46	104	0	60	292591
2026-01-29 06:53:26.84	10.67	33.67	-60.2	-77.7	3.6	1.51e+00	0	46	104	0	60	301767
2026-01-29 06:53:27.84	10.34	33.56	-60.3	-77.7	3.6	1.51e+00	0	46	104	0	60	299850
2026-01-29 06:53:28.85	10.02	33.44	-60.6	-77.7	3.6	1.51e+00	0	45	104	0	60	302008
2026-01-29 06:53:29.85	9.70	33.33	-60.2	-76.8	3.6	1.51e+00	0	46	104	0	60	271083
2026-01-29 06:53:30.86	9.38	33.21	-59.9	-77.9	3.6	1.51e+00	0	46	104	0	60	306008
2026-01-29 06:53:31.87	9.06	33.09	-61.1	-77.9	3.6	1.51e+00	0	46	104	0	60	307025
2026-01-29 06:53:32.88	8.75	32.97	-60.5	-77.8	3.6	1.51e+00	0	46	104	0	60	304088
2026-01-29 06:53:33.89	8.43	32.86	-60.7	-77.9	3.6	1.51e+00	0	46	104	0	60	307409
2026-01-29 06:53:34.89	8.13	32.74	-59.4	-77.8	3.6	1.51e+00	0	46	104	0	60	303947
2026-01-29 06:53:35.90	7.82	32.62	-60.6	-77.8	3.6	1.51e+00	0	46	104	0	60	305828
2026-01-29 06:53:36.91	7.51	32.50	-60.2	-77.5	3.6	1.51e+00	0	46	104	0	60	295361
2026-01-29 06:53:37.92	7.21	32.38	-59.3	-77.5	3.6	1.51e+00	0	46	104	0	60	294729
2026-01-29 06:53:38.92	6.91	32.26	-59.4	-77.2	3.6	1.51e+00	0	46	104	0	60	285400
2026-01-29 06:53:39.92	6.61	32.14	-60.3	-77.3	3.6	1.51e+00	0	46	104	0	60	287366
2026-01-29 06:53:40.93	6.31	32.02	-60.3	-77.2	3.6	1.51e+00	0	46	104	0	60	283883
2026-01-29 06:53:41.93	6.02	31.90	-59.3	-77.3	3.5	1.51e+00	0	46	104	0	60	287526
2026-01-29 06:53:42.93	5.73	31.78	-60.9	-77.6	3.6	1.51e+00	0	46	104	0	60	298853
2026-01-29 06:53:43.94	5.44	31.65	-59.4	-77.5	3.6	1.51e+00	0	46	104	0	60	293324
2026-01-29 06:53:44.94	5.15	31.53	-59.6	-77.8	3.6	1.51e+00	0	46	104	0	60	303361
2026-01-29 06:53:45.94	4.87	31.41	-60.2	-77.7	3.6	1.51e+00	0	46	104	0	60	300236
2026-01-29 06:53:46.95	4.59	31.29	-59.5	-77.0	3.6	1.51e+00	0	46	104	0	60	278772
2026-01-29 06:53:47.95	4.31	31.16	-59.7	-77.6	3.6	1.51e+00	0	46	104	0	60	295868
2026-01-29 06:53:48.95	4.03	31.04	-60.8	-78.0	3.6	1.51e+00	0	46	104	0	60	310739
2026-01-29 06:53:49.96	3.75	30.92	-59.6	-77.5	3.6	1.51e+00	0	46	104	0	60	293579
2026-01-29 06:53:50.97	3.48	30.79	-60.5	-77.7	3.6	1.51e+00	0	46	104	0	60	301881
2026-01-29 06:53:51.97	3.21	30.67	-60.7	-77.7	3.6	1.51e+00	0	46	104	0	60	300997
2026-01-29 06:53:52.98	2.94	30.55	-60.4	-77.7	3.6	1.51e+00	0	46	104	0	60	299205
2026-01-29 06:53:53.98	2.67	30.42	-59.2	-77.2	3.6	1.51e+00	0	46	104	0	60	282787
2026-01-29 06:53:54.99	2.40	30.30	-60.5	-77.7	3.6	1.51e+00	0	46	104	0	60	301091
2026-01-29 06:53:55.99	2.14	30.17	-59.4	-77.2	3.6	1.51e+00	0	46	104	0	60	283015
2026-01-29 06:53:56.99	1.88	30.05	-59.6	-77.2	3.6	1.51e+00	0	46	104	0	60	284604
2026-01-29 06:53:58.00	1.62	29.92	-59.5	-77.5	3.6	1.51e+00	0	46	104	0	60	293534
2026-01-29 06:53:59.00	1.36	29.80	-59.2	-77.3	3.6	1.51e+00	0	46	104	0	60	285529
2026-01-29 06:53:59.99	1.11	29.67	-59.4	-77.4	3.6	1.51e+00	0	46	104	0	60	290735
2026-01-29 06:54:01.00	0.86	29.55	-59.4	-77.3	3.6	1.51e+00	0	46	104	0	60	287684
2026-01-29 06:54:02.00	0.60	29.42	-60.8	-77.6	3.6	1.51e+00	0	46	104	0	60	296487
2026-01-29 06:54:03.01	0.35	29.30	-58.4	-77.5	3.6	1.51e+00	0	46	104	0	60	293343
2026-01-29 06:54:04.01	0.11	29.17	-59.9	-77.2	3.6	1.51e+00	0	46	104	0	60	285371
2026-01-29 06:54:05.02	359.86	29.05	-57.1	-76.8	3.6	1.51e+00	0	46	104	0	60	270030
2026-01-29 06:54:06.03	359.62	28.92	-58.0	-77.3	3.6	1.51e+00	0	46	104	0	60	288501
2026-01-29 06:54:07.04	359.37	28.80	-57.1	-76.5	3.6	1.51e+00	0	46	104	0	60	261598
2026-01-29 06:54:08.04	359.13	28.67	-56.9	-77.1	3.6	1.51e+00	0	46	104	0	60	279539
2026-01-29 06:54:09.05	358.89	28.54	-57.3	-76.9	3.6	1.51e+00	0	46	104	0	60	274213
2026-01-29 06:54:10.06	358.66	28.42	-58.3	-77.1	3.6	1.51e+00	0	46	104	0	60	279066
2026-01-29 06:54:11.07	358.42	28.29	-58.3	-77.0	3.6	1.51e+00	0	46	104	0	60	276992
2026-01-29 06:54:12.07	358.19	28.17	-57.0	-76.7	3.6	1.51e+00	0	46	104	0	60	266707
2026-01-29 06:54:13.08	357.96	28.04	-60.5	-77.4	3.6	1.51e+00	0	46	104	0	60	290481
2026-01-29 06:54:14.08	357.73	27.92	-58.5	-77.4	3.6	1.51e+00	0	46	104	0	60	289808
2026-01-29 06:54:15.09	357.50	27.79	-57.8	-76.6	3.6	1.51e+00	0	46	104	0	60	265168
2026-01-29 06:54:16.09	357.28	27.67	-58.5	-76.9	3.6	1.51e+00	0	46	104	0	60	272674
2026-01-29 06:54:17.10	357.06	27.54	-60.1	-77.2	3.6	1.51e+00	0	46	104	0	60	283016
2026-01-29 06:54:18.11	356.83	27.41	-59.5	-77.5	3.6	1.51e+00	0	46	104	0	60	294292
2026-01-29 06:54:19.11	356.61	27.29	-58.9	-77.3	3.6	1.51e+00	0	46	104	0	60	287530
2026-01-29 06:54:20.12	356.39	27.16	-58.5	-77.3	3.6	1.51e+00	0	46	104	0	60	286095
2026-01-29 06:54:21.13	356.18	27.04	-58.7	-77.0	3.6	1.51e+00	0	46	104	0	60	276785
2026-01-29 06:54:22.13	355.96	26.91	-60.7	-77.2	3.6	1.51e+00	0	46	104	0	60	282497
2026-01-29 06:54:23.14	355.75	26.79	-60.0	-77.2	3.6	1.51e+00	0	46	104	0	60	284340
2026-01-29 06:54:24.15	355.54	26.66	-61.0	-77.7	3.6	1.51e+00	0	46	104	0	60	299386
2026-01-29 06:54:25.16	355.33	26.54	-60.2	-77.3	3.5	1.51e+00	0	46	104	0	60	288395
2026-01-29 06:54:26.17	355.12	26.42	-58.9	-77.2	3.6	1.51e+00	0	46	104	0	60	284227
2026-01-29 06:54:27.17	354.91	26.29	-59.7	-77.5	3.6	1.51e+00	0	46	104	0	60	295335
2026-01-29 06:54:28.17	354.71	26.17	-59.9	-77.5	3.6	1.51e+00	0	46	104	0	60	293350
2026-01-29 06:54:29.18	354.50	26.04	-60.1	-77.6	3.6	1.51e+00	0	46	104	0	60	296583
2026-01-29 06:54:30.18	354.30	25.92	-60.6	-77.4	3.6	1.51e+00	0	46	104	0	60	289064
2026-01-29 06:54:31.19	354.10	25.80	-60.7	-77.1	3.6	1.51e+00	0	46	104	0	60	281834
2026-01-29 06:54:32.20	353.90	25.67	-60.6	-77.4	3.6	1.51e+00	0	46	104	0	60	289473
2026-01-29 06:54:33.20	353.71	25.55	-60.2	-77.2	3.6	1.51e+00	0	46	104	0	60	284638
2026-01-29 06:54:34.21	353.51	25.43	-59.8	-77.3	3.6	1.51e+00	0	46	104	0	60	285902
2026-01-29 06:54:35.22	353.32	25.31	-60.9	-77.3	3.6	1.51e+00	0	46	104	0	60	286799
2026-01-29 06:54:36.23	353.12	25.18	-60.0	-77.4	3.6	1.51e+00	0	46	104	0	60	291788
2026-01-29 06:54:37.24	352.93	25.06	-59.4	-77.1	3.6	1.51e+00	0	46	104	0	60	281288
2026-01-29 06:54:38.25	352.74	24.94	-60.7	-77.7	3.6	1.51e+00	0	46	104	0	60	300728
2026-01-29 06:54:39.26	352.55	24.82	-59.3	-77.2	3.6	1.51e+00	0	46	104	0	60	284886
2026-01-29 06:54:40.27	352.37	24.69	-59.3	-77.1	3.6	1.51e+00	0	46	104	0	60	281804
2026-01-29 06:54:41.28	352.18	24.57	-59.5	-77.4	3.6	1.51e+00	0	46	104	0	60	288988
2026-01-29 06:54:42.29	352.00	24.45	-60.8	-77.7	3.6	1.51e+00	0	46	104	0	60	299340
2026-01-29 06:54:43.29	351.82	24.33	-59.6	-77.3	3.6	1.51e+00	0	46	104	0	60	287121
2026-01-29 06:54:44.30	351.64	24.21	-60.8	-77.8	3.6	1.51e+00	0	46	104	0	60	302461
2026-01-29 06:54:45.31	351.46	24.09	-60.2	-77.4	3.6	1.51e+00	0	46	104	0	60	289379
2026-01-29 06:54:46.32	351.28	23.97	-60.8	-77.6	3.6	1.51e+00	0	46	104	0	60	296277
2026-01-29 06:54:47.33	351.10	23.85	-60.2	-77.5	3.6	1.51e+00	0	46	104	0	60	294645
2026-01-29 06:54:48.33	350.93	23.73	-60.6	-77.6	3.6	1.51e+00	0	46	104	0	60	298695
2026-01-29 06:54:49.34	350.75	23.61	-60.9	-77.7	3.6	1.51e+00	0	46	104	0	60	302232
2026-01-29 06:54:50.35	350.58	23.49	-60.4	-77.6	3.6	1.51e+00	0	46	104	0	60	298439
2026-01-29 06:54:51.36	350.41	23.37	-60.8	-77.7	3.6	1.51e+00	0	46	104	0	60	299728
2026-01-29 06:54:52.37	350.24	23.25	-60.3	-77.3	3.6	1.51e+00	0	46	104	0	60	287616
2026-01-29 06:54:53.37	350.07	23.13	-61.0	-77.7	3.6	1.51e+00	0	46	104	0	60	300953
2026-01-29 06:54:54.38	349.90	23.02	-60.8	-77.7	3.6	1.51e+00	0	46	104	0	60	302182
2026-01-29 06:54:55.39	349.74	22.90	-60.0	-77.2	3.6	1.51e+00	0	46	104	0	60	283545
2026-01-29 06:54:56.40	349.57	22.78	-61.0	-77.5	3.6	1.51e+00	0	46	104	0	60	294685
2026-01-29 06:54:57.40	349.41	22.66	-61.3	-77.8	3.6	1.51e+00	0	46	104	0	60	304012
2026-01-29 06:54:58.41	349.25	22.55	-60.3	-77.6	3.6	1.51e+00	0	46	104	0	60	298637
2026-01-29 06:54:59.42	349.08	22.43	-60.1	-77.4	3.5	1.51e+00	0	46	104	0	60	290655
2026-01-29 06:55:00.43	348.92	22.31	-60.9	-77.4	3.6	1.51e+00	0	46	104	0	60	291434
2026-01-29 06:55:01.43	348.77	22.20	-60.7	-77.6	3.6	1.51e+00	0	46	104	0	60	298274
2026-01-29 06:55:02.43	348.61	22.08	-60.8	-77.6	3.6	1.51e+00	0	46	104	0	60	298604
2026-01-29 06:55:03.43	348.46	21.97	-60.2	-77.5	3.6	1.51e+00	0	46	104	0	60	294292
2026-01-29 06:55:04.44	348.30	21.85	-60.4	-77.1	3.6	1.51e+00	0	46	104	0	60	281351
2026-01-29 06:55:05.45	348.15	21.74	-60.5	-77.3	3.6	1.51e+00	0	46	104	0	60	287362
2026-01-29 06:55:06.45	347.99	21.62	-60.9	-77.7	3.6	1.51e+00	0	46	104	0	60	300200
2026-01-29 06:55:07.46	347.84	21.51	-60.8	-77.7	3.6	1.51e+00	0	46	104	0	60	301582
2026-01-29 06:55:08.47	347.69	21.39	-60.2	-77.2	3.6	1.51e+00	0	46	104	0	60	283531
2026-01-29 06:55:09.48	347.54	21.28	-60.6	-77.3	3.6	1.51e+00	0	46	104	0	60	285512
2026-01-29 06:55:10.48	347.40	21.17	-60.5	-77.4	3.6	1.51e+00	0	46	104	0	60	291459
2026-01-29 06:55:11.49	347.25	21.05	-60.9	-77.5	3.6	1.51e+00	0	46	104	0	60	295315
2026-01-29 06:55:12.50	347.10	20.94	-61.1	-77.5	3.6	1.51e+00	0	46	104	0	60	293908
2026-01-29 06:55:13.51	346.96	20.83	-60.4	-77.2	3.6	1.51e+00	0	46	104	0	60	283531
2026-01-29 06:55:14.52	346.81	20.71	-60.5	-77.3	3.6	1.51e+00	0	46	104	0	60	287735
2026-01-29 06:55:15.52	346.67	20.60	-60.5	-77.4	3.6	1.51e+00	0	46	104	0	60	289779
2026-01-29 06:55:16.53	346.53	20.49	-60.7	-77.5	3.6	1.51e+00	0	46	104	0	60	292167
2026-01-29 06:55:17.54	346.39	20.38	-60.4	-77.5	3.6	1.51e+00	0	46	104	0	60	294091
2026-01-29 06:55:18.54	346.25	20.27	-60.5	-77.3	3.6	1.51e+00	0	46	104	0	60	285790
2026-01-29 06:55:19.54	346.11	20.16	-60.4	-77.1	3.6	1.51e+00	0	46	104	0	60	279430
2026-01-29 06:55:20.55	345.97	20.05	-59.1	-77.3	3.6	1.51e+00	0	46	104	0	60	287648
2026-01-29 06:55:21.56	345.84	19.94	-59.7	-77.4	3.6	1.51e+00	0	46	104	0	60	291920
2026-01-29 06:55:22.56	345.70	19.83	-60.4	-77.2	3.6	1.51e+00	0	46	104	0	60	283857
2026-01-29 06:55:23.57	345.57	19.72	-60.7	-77.4	3.6	1.51e+00	0	46	104	0	60	291644
2026-01-29 06:55:24.58	345.43	19.61	-60.0	-77.5	3.6	1.51e+00	0	46	104	0	60	293250
2026-01-29 06:55:25.58	345.30	19.50	-59.8	-77.4	3.6	1.51e+00	0	46	104	0	60	291163
2026-01-29 06:55:26.59	345.17	19.39	-60.7	-77.5	3.6	1.51e+00	0	46	104	0	60	292561
2026-01-29 06:55:27.60	345.04	19.28	-59.8	-77.2	3.6	1.51e+00	0	46	104	0	60	283641
2026-01-29 06:55:28.60	344.91	19.18	-60.8	-77.4	3.6	1.51e+00	0	46	104	0	60	289651
2026-01-29 06:55:29.61	344.78	19.07	-60.1	-77.3	3.6	1.51e+00	0	46	104	0	60	287703
2026-01-29 06:55:30.62	344.65	18.96	-59.8	-77.3	3.6	1.51e+00	0	46	104	0	60	287859
2026-01-29 06:55:31.63	344.53	18.85	-60.0	-77.2	3.6	1.51e+00	0	46	104	0	60	284646
2026-01-29 06:55:32.63	344.40	18.75	-60.8	-77.4	3.6	1.51e+00	0	46	104	0	60	290765
2026-01-29 06:55:33.64	344.28	18.64	-60.1	-77.2	3.6	1.51e+00	0	46	104	0	60	283013
2026-01-29 06:55:34.64	344.15	18.54	-60.0	-77.3	3.6	1.51e+00	0	46	104	0	60	287204
2026-01-29 06:55:35.65	344.03	18.43	-60.4	-77.3	3.6	1.51e+00	0	46	104	0	60	286814
2026-01-29 06:55:36.66	343.91	18.33	-60.8	-77.4	3.6	1.51e+00	0	46	104	0	60	290688
2026-01-29 06:55:37.66	343.79	18.22	-60.4	-77.3	3.6	1.51e+00	0	46	104	0	60	286465
2026-01-29 06:55:38.66	343.67	18.12	-60.1	-77.3	3.6	1.51e+00	0	46	104	0	60	286382
2026-01-29 06:55:39.67	343.55	18.01	-60.9	-77.4	3.5	1.51e+00	0	46	104	0	60	290947
2026-01-29 06:55:40.68	343.43	17.91	-60.3	-77.4	3.6	1.51e+00	0	46	104	0	60	289325
2026-01-29 06:55:41.69	343.31	17.80	-60.8	-77.3	3.6	1.51e+00	0	46	104	0	60	287799
2026-01-29 06:55:42.69	343.19	17.70	-60.6	-77.4	3.6	1.51e+00	0	46	104	0	60	288878
2026-01-29 06:55:43.70	343.08	17.60	-60.7	-77.3	3.6	1.51e+00	0	46	104	0	60	287331
2026-01-29 06:55:44.71	342.96	17.49	-59.5	-77.1	3.6	1.51e+00	0	46	104	0	60	280910
2026-01-29 06:55:45.72	342.84	17.39	-59.9	-77.2	3.6	1.51e+00	0	46	104	0	60	284468
2026-01-29 06:55:46.73	342.73	17.29	-60.9	-77.4	3.6	1.51e+00	0	46	104	0	60	289186
2026-01-29 06:55:47.73	342.62	17.19	-59.7	-77.2	3.6	1.51e+00	0	46	104	0	60	284031
2026-01-29 06:55:48.74	342.51	17.09	-58.8	-76.8	3.6	1.51e+00	0	46	104	0	60	270101
2026-01-29 06:55:49.75	342.39	16.98	-58.9	-77.0	3.6	1.51e+00	0	46	104	0	60	275986
2026-01-29 06:55:50.76	342.28	16.88	-60.9	-77.3	3.6	1.51e+00	0	46	104	0	60	287614
2026-01-29 06:55:51.76	342.17	16.78	-58.6	-77.0	3.6	1.51e+00	0	46	104	0	60	276553
2026-01-29 06:55:52.77	342.06	16.68	-59.7	-77.1	3.6	1.51e+00	0	46	104	0	60	280990
2026-01-29 06:55:53.78	341.95	16.58	-58.7	-76.9	3.6	1.51e+00	0	46	104	0	60	275067
2026-01-29 06:55:54.78	341.85	16.48	-60.3	-77.2	3.6	1.51e+00	0	46	104	0	60	285077
2026-01-29 06:55:55.79	341.74	16.38	-59.5	-77.0	3.6	1.51e+00	0	46	104	0	60	277473
2026-01-29 06:55:56.79	341.63	16.28	-60.8	-77.2	3.6	1.51e+00	0	46	104	0	60	282906
2026-01-29 06:55:57.80	341.53	16.18	-59.4	-77.1	3.6	1.51e+00	0	46	104	0	60	281081
2026-01-29 06:55:58.80	341.42	16.09	-60.0	-77.0	3.6	1.51e+00	0	46	104	0	60	278060
2026-01-29 06:55:59.82	341.32	15.99	-60.7	-77.1	3.6	1.51e+00	0	46	104	0	60	282025
2026-01-29 06:56:00.82	341.22	15.89	-60.8	-77.2	3.6	1.51e+00	0	46	104	0	60	282606
2026-01-29 06:56:01.83	341.11	15.79	-60.3	-77.2	3.6	1.51e+00	0	46	104	0	60	285288
2026-01-29 06:56:02.83	341.01	15.69	-60.1	-77.0	3.6	1.51e+00	0	46	104	0	60	278586
2026-01-29 06:56:03.84	340.91	15.60	-60.8	-77.2	3.6	1.51e+00	0	46	104	0	60	284468
2026-01-29 06:56:04.85	340.81	15.50	-60.7	-77.1	3.6	1.51e+00	0	46	104	0	60	281053
2026-01-29 06:56:05.85	340.71	15.40	-60.7	-77.3	3.6	1.51e+00	0	46	104	0	60	286708
2026-01-29 06:56:06.86	340.61	15.31	-60.4	-77.3	3.6	1.51e+00	0	46	104	0	60	285783
2026-01-29 06:56:07.86	340.51	15.21	-60.8	-77.1	3.6	1.51e+00	0	46	104	0	60	279523
2026-01-29 06:56:08.87	340.41	15.12	-60.7	-77.1	3.6	1.51e+00	0	46	104	0	60	279101
2026-01-29 06:56:09.88	340.31	15.02	-60.8	-77.3	3.6	1.51e+00	0	46	104	0	60	286370
2026-01-29 06:56:10.89	340.22	14.93	-60.5	-77.2	3.6	1.51e+00	0	46	104	0	60	283513
2026-01-29 06:56:11.89	340.12	14.83	-60.8	-77.2	3.6	1.51e+00	0	46	104	0	60	282885
2026-01-29 06:56:12.89	340.03	14.74	-60.6	-77.1	3.5	1.51e+00	0	46	104	0	60	279215
2026-01-29 06:56:13.90	339.93	14.64	-60.6	-77.1	3.6	1.51e+00	0	46	104	0	60	281369
2026-01-29 06:56:14.90	339.84	14.55	-60.6	-77.1	3.6	1.51e+00	0	46	104	0	60	279438
2026-01-29 06:56:15.91	339.74	14.46	-60.6	-77.1	3.6	1.51e+00	0	46	104	0	60	282006
2026-01-29 06:56:16.91	339.65	14.36	-60.6	-77.2	3.6	1.51e+00	0	46	104	0	60	282330
2026-01-29 06:56:17.92	339.56	14.27	-60.7	-77.1	3.6	1.51e+00	0	46	104	0	60	279001
2026-01-29 06:56:18.92	339.47	14.18	-60.5	-76.9	3.6	1.51e+00	0	46	104	0	60	275364
2026-01-29 06:56:19.93	339.38	14.08	-60.4	-77.0	3.6	1.51e+00	0	46	104	0	60	278312
2026-01-29 06:56:20.94	339.28	13.99	-60.2	-77.1	3.6	1.51e+00	0	46	104	0	60	279747
2026-01-29 06:56:21.95	339.19	13.90	-60.4	-77.0	3.6	1.51e+00	0	46	104	0	60	275834
2026-01-29 06:56:22.96	339.10	13.81	-60.3	-76.8	3.6	1.51e+00	0	46	104	0	60	271925
2026-01-29 06:56:23.96	339.02	13.72	-60.0	-76.9	3.6	1.51e+00	0	46	104	0	60	273340
2026-01-29 06:56:24.97	338.93	13.62	-59.3	-76.8	3.6	1.51e+00	0	46	104	0	60	269780
2026-01-29 06:56:25.97	338.84	13.53	-60.3	-76.9	3.6	1.51e+00	0	46	104	0	60	275287
2026-01-29 06:56:26.97	338.75	13.44	-60.3	-76.9	3.6	1.51e+00	0	46	104	0	60	275634
2026-01-29 06:56:27.97	338.67	13.35	-60.1	-76.8	3.6	1.51e+00	0	46	104	0	60	271362
2026-01-29 06:56:28.97	338.58	13.27	-59.0	-76.3	3.6	1.51e+00	0	46	104	0	60	254509
2026-01-29 06:56:29.98	338.50	13.18	-60.4	-77.0	3.6	1.51e+00	0	46	104	0	60	278477
2026-01-29 06:56:30.99	338.41	13.09	-59.1	-76.8	3.6	1.51e+00	0	46	104	0	60	270833
2026-01-29 06:56:31.99	338.33	13.00	-58.9	-76.3	3.6	1.51e+00	0	46	104	0	60	255914
2026-01-29 06:56:33.00	338.24	12.91	-59.2	-76.1	3.6	1.51e+00	0	46	104	0	60	251344
2026-01-29 06:56:34.01	338.16	12.82	-59.4	-75.6	3.6	1.51e+00	0	46	104	0	60	237211
2026-01-29 06:56:35.02	338.08	12.73	-60.0	-76.9	3.6	1.51e+00	0	46	104	0	60	275757
2026-01-29 06:56:36.03	337.99	12.64	-59.6	-75.9	3.6	1.51e+00	0	46	104	0	60	245154
2026-01-29 06:56:37.03	337.91	12.55	-57.9	-76.0	3.6	1.51e+00	0	46	104	0	60	247074
2026-01-29 06:56:38.03	337.83	12.47	-58.6	-75.7	3.6	1.51e+00	0	46	104	0	60	239225
2026-01-29 06:56:39.04	337.75	12.38	-59.7	-76.0	3.6	1.51e+00	0	46	104	0	60	248221
2026-01-29 06:56:40.04	337.67	12.29	-59.5	-75.9	3.6	1.51e+00	0	46	104	0	60	245427
2026-01-29 06:56:41.05	337.59	12.20	-59.4	-75.9	3.6	1.51e+00	0	46	104	0	60	243209
2026-01-29 06:56:42.05	337.51	12.12	-58.5	-74.9	3.6	1.51e+00	0	46	104	0	60	216891
2026-01-29 06:56:43.06	337.43	12.03	-59.0	-75.9	3.6	1.51e+00	0	46	104	0	60	244722
2026-01-29 06:56:44.06	337.35	11.95	-58.0	-76.4	3.6	1.51e+00	0	46	104	0	60	258276
2026-01-29 06:56:45.07	337.28	11.86	-59.3	-75.7	3.6	1.51e+00	0	46	104	0	60	239880
2026-01-29 06:56:46.08	337.20	11.77	-59.1	-76.6	3.6	1.51e+00	0	46	104	0	60	263808
2026-01-29 06:56:47.08	337.12	11.69	-59.3	-75.9	3.6	1.51e+00	0	46	104	0	60	243776
2026-01-29 06:56:48.09	337.04	11.60	-59.2	-75.6	3.6	1.51e+00	0	46	104	0	60	236950
2026-01-29 06:56:49.10	336.97	11.52	-59.1	-75.5	3.6	1.51e+00	0	46	104	0	60	234566
2026-01-29 06:56:50.10	336.89	11.43	-58.6	-74.5	3.6	1.51e+00	0	46	104	0	60	207699
2026-01-29 06:56:51.11	336.82	11.35	-57.3	-75.3	3.6	1.51e+00	0	46	104	0	60	227296
2026-01-29 06:56:52.11	336.74	11.26	-59.0	-76.3	3.6	1.51e+00	0	46	104	0	60	254719
2026-01-29 06:56:53.12	336.67	11.18	-58.3	-75.2	3.6	1.51e+00	0	46	104	0	60	224316
2026-01-29 06:56:54.13	336.59	11.10	-59.1	-75.9	3.6	1.51e+00	0	46	104	0	60	243886
2026-01-29 06:56:55.13	336.52	11.01	-58.3	-75.4	3.6	1.51e+00	0	46	104	0	60	231235
2026-01-29 06:56:56.14	336.45	10.93	-57.8	-75.3	3.6	1.51e+00	0	46	104	0	60	228972
2026-01-29 06:56:57.15	336.38	10.85	-57.7	-75.1	3.6	1.51e+00	0	46	104	0	60	223785
2026-01-29 06:56:58.15	336.30	10.76	-59.1	-76.1	3.6	1.51e+00	0	46	104	0	60	250066
2026-01-29 06:56:59.16	336.23	10.68	-58.7	-76.0	3.6	1.51e+00	0	46	104	0	60	248242
