passes_logs/2026/01/29/R3.2S-Naryan-Mar/R3.2S-Naryan-Mar__20260129_231919_NOAA_21_JPSS-2_rec.log

#Pass ID: 20260129_231919_NOAA 21 (JPSS-2)
#Satellite: NOAA 21 (JPSS-2)
#Configuration: NOAA-21
#almurnet v.1.7.20240730
#Start time: 2026-01-29 23:19:22

#Version: 2.2.20231116
#Station: R3.2S-Naryan-Mar
#Location: 53.008057 lon 67.646978 lat
#TLE: 1 54234U 22150A   26028.89828222  .00000145  00000+0  89569-4 0  9997
#TLE: 2 54234  98.7511 329.6308 0000927 198.8651 161.2491 14.19540676166783

#Time	Az	El	Level	Level2	SNR	BER	BlckErr	Temp	State	Recorded	gain1	gain2
2026-01-29 23:19:22.24	23.33	0.16	-61.4	-75.0	3.2	1.54e+00	0	45	0	0	60	213957
2026-01-29 23:19:23.24	23.33	0.22	-62.8	-77.0	3.5	1.51e+00	0	45	104	0	60	268107
2026-01-29 23:19:24.25	23.34	0.28	-62.9	-77.3	3.5	1.52e+00	0	45	104	0	60	279211
2026-01-29 23:19:25.25	23.34	0.34	-61.9	-77.0	3.5	1.52e+00	0	45	104	0	60	268189
2026-01-29 23:19:26.26	23.34	0.40	-62.1	-76.7	3.5	1.52e+00	0	45	104	0	60	261556
2026-01-29 23:19:27.26	23.34	0.46	-62.6	-76.9	3.5	1.52e+00	0	45	104	0	60	266723
2026-01-29 23:19:28.27	23.34	0.52	-62.6	-76.8	3.5	1.52e+00	0	45	104	0	60	262843
2026-01-29 23:19:29.27	23.35	0.58	-62.7	-76.8	3.5	1.52e+00	0	45	104	0	60	262015
2026-01-29 23:19:30.28	23.35	0.65	-62.2	-76.7	3.5	1.52e+00	0	45	104	0	60	260260
2026-01-29 23:19:31.28	23.35	0.71	-62.6	-76.6	3.5	1.52e+00	0	45	104	0	60	257617
2026-01-29 23:19:32.29	23.35	0.77	-62.5	-76.5	3.5	1.52e+00	0	45	104	0	60	254271
2026-01-29 23:19:33.30	23.35	0.83	-62.2	-76.5	3.5	1.52e+00	0	45	104	0	60	253814
2026-01-29 23:19:34.31	23.35	0.89	-60.4	-76.1	3.5	1.51e+00	0	45	104	0	60	243589
2026-01-29 23:19:35.31	23.36	0.95	-62.0	-76.3	3.6	1.52e+00	0	45	104	0	60	249847
2026-01-29 23:19:36.32	23.36	1.02	-60.9	-76.0	3.5	1.51e+00	0	45	104	0	60	239397
2026-01-29 23:19:37.32	23.36	1.08	-58.7	-74.3	3.8	1.51e+00	0	45	104	0	60	197737
2026-01-29 23:19:38.32	23.36	1.14	-59.5	-75.6	3.5	1.51e+00	0	45	104	0	60	230368
2026-01-29 23:19:39.33	23.36	1.20	-61.2	-75.9	3.5	1.52e+00	0	45	104	0	60	236905
2026-01-29 23:19:40.33	23.37	1.26	-59.9	-74.4	3.6	1.52e+00	0	45	104	0	60	199659
2026-01-29 23:19:41.34	23.37	1.33	-61.4	-75.6	3.5	1.52e+00	0	45	104	0	60	230035
2026-01-29 23:19:42.35	23.37	1.39	-59.2	-75.6	3.5	1.52e+00	0	45	104	0	60	229270
2026-01-29 23:19:43.35	23.37	1.45	-60.3	-74.6	3.6	1.52e+00	0	45	104	0	60	203255
2026-01-29 23:19:44.36	23.37	1.52	-57.7	-73.6	3.7	1.51e+00	0	45	104	0	60	181106
2026-01-29 23:19:45.36	23.37	1.58	-59.5	-73.8	3.6	1.51e+00	0	45	104	0	60	186547
2026-01-29 23:19:46.37	23.38	1.64	-50.7	-71.9	3.9	1.50e+00	0	45	104	0	60	150045
2026-01-29 23:19:47.37	23.38	1.70	-57.7	-73.6	3.6	1.51e+00	0	45	104	0	60	182827
2026-01-29 23:19:48.38	23.38	1.77	-50.6	-68.1	4.3	1.50e+00	0	45	104	0	60	96655
2026-01-29 23:19:49.39	23.38	1.83	-58.7	-74.9	3.5	1.51e+00	0	45	104	0	60	211305
2026-01-29 23:19:50.40	23.38	1.90	-59.8	-74.7	3.5	1.52e+00	0	45	104	0	60	205596
2026-01-29 23:19:51.40	23.38	1.96	-59.5	-74.9	3.5	1.51e+00	0	45	104	0	60	211703
2026-01-29 23:19:52.41	23.38	2.02	-58.8	-73.5	3.6	1.51e+00	0	45	104	0	60	181013
2026-01-29 23:19:53.42	23.39	2.09	-54.9	-72.2	3.7	1.51e+00	0	45	104	0	60	154975
2026-01-29 23:19:54.42	23.39	2.15	-57.2	-73.5	3.7	1.52e+00	0	45	104	0	60	181001
2026-01-29 23:19:55.43	23.39	2.22	-59.6	-73.9	3.5	1.52e+00	0	46	104	0	60	188387
2026-01-29 23:19:56.43	23.39	2.28	-57.7	-72.9	3.5	1.52e+00	0	46	104	0	60	167157
2026-01-29 23:19:57.43	23.39	2.35	-57.7	-72.9	3.5	1.52e+00	0	46	104	0	60	168373
2026-01-29 23:19:58.43	23.39	2.41	-57.6	-72.6	3.6	1.51e+00	0	46	104	0	60	162884
2026-01-29 23:19:59.44	23.40	2.48	-57.6	-72.7	3.6	1.51e+00	0	46	104	0	60	164055
2026-01-29 23:20:00.44	23.40	2.54	-57.6	-72.8	3.6	1.51e+00	0	46	104	0	60	165532
2026-01-29 23:20:01.45	23.40	2.61	-57.7	-72.8	3.6	1.51e+00	0	46	104	0	60	166350
2026-01-29 23:20:02.45	23.40	2.67	-57.6	-72.8	3.6	1.52e+00	0	46	104	0	60	166981
2026-01-29 23:20:03.46	23.40	2.74	-57.7	-72.6	3.5	1.51e+00	0	46	104	0	60	161471
2026-01-29 23:20:04.46	23.40	2.80	-57.5	-72.7	3.5	1.52e+00	0	46	104	0	60	163910
2026-01-29 23:20:05.47	23.40	2.87	-57.6	-72.6	3.6	1.51e+00	0	46	104	0	60	162222
2026-01-29 23:20:06.48	23.41	2.94	-57.6	-72.7	3.5	1.51e+00	0	46	104	0	60	163503
2026-01-29 23:20:07.48	23.41	3.00	-57.5	-72.6	3.5	1.51e+00	0	46	104	0	60	162811
2026-01-29 23:20:08.49	23.41	3.07	-57.6	-72.7	3.5	1.51e+00	0	46	104	0	60	164984
2026-01-29 23:20:09.50	23.41	3.14	-57.5	-72.8	3.6	1.52e+00	0	46	104	0	60	166263
2026-01-29 23:20:10.51	23.41	3.20	-57.5	-72.8	3.6	1.51e+00	0	45	104	0	60	166086
2026-01-29 23:20:11.52	23.41	3.27	-57.5	-72.6	3.6	1.51e+00	0	46	104	0	60	162631
2026-01-29 23:20:12.52	23.41	3.34	-57.5	-72.5	3.6	1.51e+00	0	46	104	0	60	160770
2026-01-29 23:20:13.53	23.41	3.41	-57.5	-72.6	3.6	1.51e+00	0	46	104	0	60	162180
2026-01-29 23:20:14.54	23.42	3.47	-57.5	-72.5	3.5	1.51e+00	0	46	104	0	60	159624
2026-01-29 23:20:15.55	23.42	3.54	-57.6	-72.5	3.5	1.51e+00	0	46	104	0	60	161140
2026-01-29 23:20:16.55	23.42	3.61	-57.5	-72.5	3.5	1.52e+00	0	46	104	0	60	160547
2026-01-29 23:20:17.56	23.42	3.68	-57.6	-72.5	3.5	1.52e+00	0	46	104	0	60	159531
2026-01-29 23:20:18.57	23.42	3.74	-57.6	-72.5	3.6	1.51e+00	0	46	104	0	60	159638
2026-01-29 23:20:19.58	23.42	3.81	-57.6	-72.2	3.6	1.52e+00	0	46	104	0	60	155058
2026-01-29 23:20:20.58	23.42	3.88	-57.7	-72.4	3.5	1.51e+00	0	46	104	0	60	158313
2026-01-29 23:20:21.59	23.42	3.95	-57.7	-72.4	3.6	1.52e+00	0	45	104	0	60	159168
2026-01-29 23:20:22.60	23.43	4.02	-57.7	-72.5	3.5	1.51e+00	0	46	104	0	60	160823
2026-01-29 23:20:23.61	23.43	4.09	-57.7	-72.3	3.5	1.52e+00	0	46	104	0	60	157116
2026-01-29 23:20:24.62	23.43	4.16	-57.7	-72.4	3.5	1.51e+00	0	46	104	0	60	157788
2026-01-29 23:20:25.63	23.43	4.23	-57.7	-72.4	3.6	1.51e+00	0	46	104	0	60	158338
2026-01-29 23:20:26.63	23.43	4.30	-57.7	-72.3	3.5	1.52e+00	0	46	104	0	60	156344
2026-01-29 23:20:27.64	23.43	4.37	-57.7	-72.4	3.5	1.51e+00	0	46	104	0	60	158971
2026-01-29 23:20:28.65	23.43	4.44	-57.7	-72.3	3.5	1.51e+00	0	46	104	0	60	157441
2026-01-29 23:20:29.66	23.43	4.51	-57.8	-72.2	3.5	1.51e+00	0	46	104	0	60	155474
2026-01-29 23:20:30.66	23.43	4.58	-57.7	-72.2	3.5	1.51e+00	0	46	104	0	60	154500
2026-01-29 23:20:31.67	23.44	4.65	-57.7	-72.2	3.5	1.52e+00	0	46	104	0	60	154913
2026-01-29 23:20:32.68	23.44	4.72	-57.7	-72.1	3.5	1.51e+00	0	46	104	0	60	152404
2026-01-29 23:20:33.69	23.44	4.79	-57.7	-71.7	3.5	1.51e+00	0	46	104	0	60	147156
2026-01-29 23:20:34.70	23.44	4.86	-57.7	-70.8	3.5	1.51e+00	0	46	104	0	60	132597
2026-01-29 23:20:35.71	23.44	4.93	-57.6	-69.3	4.2	1.51e+00	0	46	104	0	60	111348
2026-01-29 23:20:36.72	23.44	5.01	-57.4	-67.4	5.2	1.11e+00	0	46	104	0	60	89192
2026-01-29 23:20:37.72	23.44	5.08	-57.1	-64.5	6.8	2.36e-01	0	46	0	1048576	60	64087
2026-01-29 23:20:38.73	23.44	5.15	-56.7	-62.9	8.6	7.78e-02	0	46	0	4194304	60	53241
2026-01-29 23:20:39.74	23.44	5.22	-56.2	-61.4	10.4	1.17e-02	0	46	0	7340032	60	44764
2026-01-29 23:20:40.75	23.44	5.29	-55.6	-60.1	11.7	1.18e-03	0	46	0	10485760	60	38464
2026-01-29 23:20:41.76	23.44	5.37	-55.0	-58.8	13.1	7.01e-05	0	46	0	13631488	60	33007
2026-01-29 23:20:42.76	23.45	5.44	-54.4	-57.7	14.3	1.50e-06	0	46	0	16777216	60	29140
2026-01-29 23:20:43.77	23.45	5.51	-53.8	-56.7	15.2	0.00e+00	0	46	0	19922944	60	26126
2026-01-29 23:20:44.78	23.45	5.58	-53.4	-56.1	15.8	0.00e+00	0	46	0	23068672	60	24389
2026-01-29 23:20:45.78	23.45	5.66	-53.0	-55.6	16.3	0.00e+00	0	46	0	26214400	60	22815
2026-01-29 23:20:46.79	23.45	5.73	-52.7	-55.1	16.8	0.00e+00	0	46	0	29360128	60	21715
2026-01-29 23:20:47.80	23.45	5.81	-52.6	-55.0	16.9	0.00e+00	0	46	0	32505856	60	21391
2026-01-29 23:20:48.80	23.45	5.88	-52.6	-54.9	16.8	0.00e+00	0	46	0	35651584	60	21255
2026-01-29 23:20:49.80	23.45	5.95	-52.6	-54.9	16.9	0.00e+00	0	46	0	38797312	60	21269
2026-01-29 23:20:50.81	23.45	6.03	-52.8	-55.2	16.6	0.00e+00	0	46	0	41943040	60	21910
2026-01-29 23:20:51.82	23.45	6.10	-53.2	-55.2	17.7	0.00e+00	0	46	0	45088768	60	21887
2026-01-29 23:20:52.82	23.45	6.18	-53.1	-55.1	17.2	0.00e+00	0	46	0	48234496	60	21602
2026-01-29 23:20:53.83	23.45	6.25	-53.4	-55.4	17.3	0.00e+00	0	46	0	51380224	60	22379
2026-01-29 23:20:54.84	23.45	6.33	-52.4	-55.9	15.3	0.00e+00	0	46	0	54525952	60	23785
2026-01-29 23:20:55.84	23.45	6.40	-53.4	-56.1	15.4	0.00e+00	0	46	0	57671680	60	24321
2026-01-29 23:20:56.84	23.45	6.48	-55.6	-59.5	13.9	1.95e-02	0	46	0	60817408	60	35799
2026-01-29 23:20:57.85	23.46	6.55	-54.3	-57.3	15.5	0.00e+00	0	46	0	63963136	60	27772
2026-01-29 23:20:58.86	23.46	6.63	-54.0	-57.6	14.8	0.00e+00	0	46	0	67108864	60	28795
2026-01-29 23:20:59.87	23.46	6.71	-53.9	-58.0	14.0	2.20e-06	0	46	0	70254592	60	30325
2026-01-29 23:21:00.87	23.46	6.78	-53.5	-58.3	13.3	1.52e-05	0	46	0	73400320	60	31269
2026-01-29 23:21:01.88	23.46	6.86	-53.1	-58.5	12.6	6.63e-05	0	46	0	76546048	60	31863
2026-01-29 23:21:02.89	23.46	6.94	-52.9	-58.7	12.3	1.95e-04	0	46	0	79691776	60	32674
2026-01-29 23:21:03.90	23.46	7.01	-52.9	-59.0	11.9	2.68e-04	0	46	0	82837504	60	33835
2026-01-29 23:21:04.91	23.46	7.09	-53.1	-59.3	11.8	4.94e-04	0	46	0	85983232	60	35083
2026-01-29 23:21:05.92	23.46	7.17	-53.4	-59.6	11.7	8.85e-04	0	46	0	89128960	60	36335
2026-01-29 23:21:06.92	23.46	7.25	-53.8	-60.0	11.8	2.35e-04	0	46	0	92274688	60	37834
2026-01-29 23:21:07.93	23.46	7.32	-54.4	-60.1	12.3	3.81e-04	0	46	0	95420416	60	38396
2026-01-29 23:21:08.94	23.46	7.40	-55.1	-60.0	12.4	1.20e-04	0	46	0	98566144	60	38158
2026-01-29 23:21:09.95	23.46	7.48	-55.8	-60.9	11.8	1.81e-04	0	46	0	101711872	60	42055
2026-01-29 23:21:10.96	23.46	7.56	-56.1	-60.5	11.8	3.97e-04	0	46	0	104857600	60	40264
2026-01-29 23:21:11.97	23.46	7.64	-56.3	-61.1	10.8	2.08e-03	0	46	0	108003328	60	43283
2026-01-29 23:21:12.97	23.46	7.72	-56.0	-61.0	10.4	3.18e-03	0	46	0	111149056	60	42664
2026-01-29 23:21:13.98	23.46	7.80	-55.8	-61.5	9.8	6.50e-03	0	46	0	114294784	60	45161
2026-01-29 23:21:14.99	23.46	7.88	-55.5	-61.2	10.2	6.26e-03	0	46	0	117440512	60	43676
2026-01-29 23:21:16.00	23.46	7.96	-55.5	-61.7	9.8	6.27e-03	0	46	0	120586240	60	46187
2026-01-29 23:21:17.00	23.46	8.04	-55.6	-61.5	10.5	5.37e-03	0	46	0	123731968	60	45369
2026-01-29 23:21:18.01	23.46	8.12	-56.1	-62.2	10.0	3.49e-03	0	46	0	126877696	60	49230
2026-01-29 23:21:19.02	23.46	8.20	-56.3	-62.4	10.2	3.40e-03	0	46	0	130023424	60	50266
2026-01-29 23:21:20.03	23.46	8.28	-56.5	-62.8	9.4	7.69e-03	0	46	0	133169152	60	52759
2026-01-29 23:21:21.03	23.46	8.36	-56.5	-63.3	8.7	3.59e-02	0	46	0	136314880	60	55594
2026-01-29 23:21:22.04	23.46	8.45	-56.8	-64.6	8.0	8.40e-02	0	46	0	139460608	60	64743
2026-01-29 23:21:23.05	23.46	8.53	-56.7	-65.3	6.4	1.66e-01	0	46	0	142606336	60	70301
2026-01-29 23:21:24.06	23.46	8.61	-56.6	-65.6	6.0	3.03e-01	0	46	0	145752064	60	72610
2026-01-29 23:21:25.06	23.46	8.69	-56.5	-67.3	5.3	4.06e-01	0	46	104	145752064	60	88204
2026-01-29 23:21:26.06	23.46	8.77	-56.3	-67.2	5.4	8.68e-01	0	46	104	145752064	60	87309
2026-01-29 23:21:27.07	23.46	8.86	-56.9	-67.5	5.8	1.46e+00	0	46	104	145752064	60	89884
2026-01-29 23:21:28.07	23.46	8.94	-57.8	-65.8	6.5	3.41e-01	0	46	0	1048576	60	73902
2026-01-29 23:21:29.08	23.46	9.02	-55.3	-59.4	12.8	4.39e-04	0	46	0	4194304	60	35498
2026-01-29 23:21:30.08	23.46	9.11	-56.0	-60.4	12.4	5.64e-05	0	46	0	7340032	60	39719
2026-01-29 23:21:31.09	23.46	9.19	-52.8	-55.1	16.3	0.00e+00	0	46	0	10485760	60	21608
2026-01-29 23:21:32.10	23.46	9.28	-53.6	-56.4	16.0	0.00e+00	0	46	0	13631488	60	25169
2026-01-29 23:21:33.11	23.46	9.36	-53.9	-56.3	15.8	0.00e+00	0	46	0	16777216	60	24732
2026-01-29 23:21:34.12	23.46	9.45	-53.5	-55.8	16.8	0.00e+00	0	46	0	19922944	60	23383
2026-01-29 23:21:35.12	23.46	9.53	-53.0	-55.3	17.3	0.00e+00	0	46	0	23068672	60	22155
2026-01-29 23:21:36.13	23.46	9.62	-52.5	-55.0	17.7	0.00e+00	0	46	0	26214400	60	21278
2026-01-29 23:21:37.14	23.46	9.70	-52.3	-54.8	17.9	0.00e+00	0	46	0	29360128	60	20916
2026-01-29 23:21:38.15	23.46	9.79	-52.3	-54.9	17.8	0.00e+00	0	46	0	32505856	60	21124
2026-01-29 23:21:39.15	23.46	9.88	-52.3	-55.0	17.7	0.00e+00	0	46	0	35651584	60	21289
2026-01-29 23:21:40.16	23.46	9.96	-52.3	-54.9	18.0	0.00e+00	0	46	0	38797312	60	21116
2026-01-29 23:21:41.16	23.46	10.05	-52.6	-55.3	17.9	0.00e+00	0	46	0	41943040	60	22135
2026-01-29 23:21:42.17	23.46	10.14	-52.5	-55.1	18.0	0.00e+00	0	46	0	45088768	60	21634
2026-01-29 23:21:43.17	23.45	10.22	-52.6	-55.4	18.0	0.00e+00	0	46	0	48234496	60	22413
2026-01-29 23:21:44.18	23.45	10.31	-52.6	-55.5	17.7	0.00e+00	0	46	0	51380224	60	22687
2026-01-29 23:21:45.19	23.45	10.40	-52.1	-54.7	18.4	0.00e+00	0	46	0	54525952	60	20637
2026-01-29 23:21:46.20	23.45	10.49	-51.7	-54.1	19.0	0.00e+00	0	46	0	57671680	60	19257
2026-01-29 23:21:47.20	23.45	10.58	-51.5	-53.8	19.3	0.00e+00	0	46	0	60817408	60	18701
2026-01-29 23:21:48.21	23.45	10.67	-51.6	-54.0	19.1	0.00e+00	0	46	0	63963136	60	19008
2026-01-29 23:21:49.21	23.45	10.76	-51.5	-54.0	18.5	0.00e+00	0	46	0	67108864	60	19078
2026-01-29 23:21:50.22	23.45	10.85	-51.3	-54.2	18.3	0.00e+00	0	46	0	70254592	60	19458
2026-01-29 23:21:51.23	23.45	10.94	-51.2	-54.3	17.8	0.00e+00	0	46	0	73400320	60	19789
2026-01-29 23:21:52.23	23.45	11.03	-51.1	-54.4	17.5	0.00e+00	0	46	0	76546048	60	19970
2026-01-29 23:21:53.24	23.45	11.12	-51.1	-54.7	17.2	0.00e+00	0	46	0	79691776	60	20610
2026-01-29 23:21:54.25	23.45	11.21	-51.2	-54.9	16.9	0.00e+00	0	46	0	82837504	60	21244
2026-01-29 23:21:55.26	23.45	11.30	-51.3	-55.2	16.8	0.00e+00	0	46	0	85983232	60	21814
2026-01-29 23:21:56.26	23.44	11.39	-51.4	-55.2	16.6	0.00e+00	0	46	0	89128960	60	21992
2026-01-29 23:21:57.27	23.44	11.49	-51.6	-55.4	16.6	0.00e+00	0	46	0	92274688	60	22399
2026-01-29 23:21:58.28	23.44	11.58	-52.0	-55.7	16.4	0.00e+00	0	46	0	95420416	60	23098
2026-01-29 23:21:59.28	23.44	11.67	-52.0	-55.6	16.5	0.00e+00	0	46	0	98566144	60	22966
2026-01-29 23:22:00.29	23.44	11.77	-52.2	-55.7	16.3	0.00e+00	0	46	0	101711872	60	23268
2026-01-29 23:22:01.30	23.44	11.86	-52.5	-55.9	16.0	0.00e+00	0	46	0	104857600	60	23714
2026-01-29 23:22:02.31	23.44	11.95	-52.5	-55.9	15.7	0.00e+00	0	46	0	108003328	60	23831
2026-01-29 23:22:03.32	23.44	12.05	-52.7	-56.2	15.4	0.00e+00	0	46	0	111149056	60	24632
2026-01-29 23:22:04.32	23.44	12.14	-52.9	-56.4	15.2	0.00e+00	0	46	0	114294784	60	25034
2026-01-29 23:22:05.33	23.43	12.24	-52.9	-56.5	14.9	0.00e+00	0	46	0	117440512	60	25415
2026-01-29 23:22:06.34	23.43	12.33	-53.0	-56.6	14.8	0.00e+00	0	46	0	120586240	60	25671
2026-01-29 23:22:07.35	23.43	12.43	-53.1	-56.4	14.8	0.00e+00	0	46	0	123731968	60	25193
2026-01-29 23:22:08.35	23.43	12.53	-53.5	-57.0	14.6	0.00e+00	0	46	0	126877696	60	26807
2026-01-29 23:22:09.36	23.43	12.62	-53.8	-57.3	13.9	2.20e-06	0	46	0	130023424	60	27860
2026-01-29 23:22:10.36	23.43	12.72	-54.0	-57.4	13.9	1.50e-06	0	46	0	133169152	60	28070
2026-01-29 23:22:11.37	23.43	12.82	-54.3	-57.5	14.0	1.50e-06	0	46	0	136314880	60	28460
2026-01-29 23:22:12.38	23.42	12.92	-54.8	-57.8	14.1	1.50e-06	0	46	0	139460608	60	29435
2026-01-29 23:22:13.39	23.42	13.01	-54.6	-57.1	15.3	0.00e+00	0	46	0	142606336	60	27162
2026-01-29 23:22:14.39	23.42	13.11	-54.2	-56.4	16.7	0.00e+00	0	46	0	145752064	60	25051
2026-01-29 23:22:15.40	23.42	13.21	-53.7	-55.7	17.8	0.00e+00	0	46	0	148897792	60	23285
2026-01-29 23:22:16.41	23.42	13.31	-53.2	-55.3	18.4	0.00e+00	0	46	0	152043520	60	22208
2026-01-29 23:22:17.42	23.42	13.41	-52.6	-55.0	18.3	0.00e+00	0	46	0	155189248	60	21273
2026-01-29 23:22:18.43	23.41	13.51	-52.1	-54.6	18.0	0.00e+00	0	46	0	158334976	60	20495
2026-01-29 23:22:19.43	23.41	13.61	-52.1	-54.6	17.7	0.00e+00	0	46	0	161480704	60	20358
2026-01-29 23:22:20.44	23.41	13.71	-52.1	-54.4	17.6	0.00e+00	0	46	0	164626432	60	19936
2026-01-29 23:22:21.45	23.41	13.82	-52.7	-55.0	17.6	0.00e+00	0	46	0	167772160	60	21340
2026-01-29 23:22:22.46	23.41	13.92	-53.2	-55.5	16.9	0.00e+00	0	46	0	170917888	60	22758
2026-01-29 23:22:23.46	23.40	14.02	-53.6	-55.8	16.7	0.00e+00	0	46	0	174063616	60	23531
2026-01-29 23:22:24.47	23.40	14.12	-53.9	-56.1	16.5	0.00e+00	0	46	0	177209344	60	24290
2026-01-29 23:22:25.48	23.40	14.23	-54.3	-56.5	16.5	0.00e+00	0	46	0	180355072	60	25417
2026-01-29 23:22:26.48	23.40	14.33	-54.3	-56.8	16.5	0.00e+00	0	46	0	183500800	60	26216
2026-01-29 23:22:27.49	23.40	14.43	-53.8	-56.6	16.2	0.00e+00	0	46	0	186646528	60	25726
2026-01-29 23:22:28.49	23.39	14.54	-53.6	-57.0	16.1	0.00e+00	0	46	0	189792256	60	27012
2026-01-29 23:22:29.50	23.39	14.64	-53.1	-56.9	15.6	0.00e+00	0	46	0	192937984	60	26535
2026-01-29 23:22:30.51	23.39	14.75	-53.0	-57.2	15.4	0.00e+00	0	46	0	196083712	60	27647
2026-01-29 23:22:31.51	23.39	14.85	-52.9	-57.2	15.1	0.00e+00	0	46	0	199229440	60	27629
2026-01-29 23:22:32.52	23.38	14.96	-52.8	-57.1	14.7	0.00e+00	0	46	0	202375168	60	27347
2026-01-29 23:22:33.53	23.38	15.07	-53.1	-57.7	14.1	1.50e-06	0	46	0	205520896	60	29065
2026-01-29 23:22:34.54	23.38	15.18	-53.0	-57.6	13.3	2.20e-06	0	46	0	208666624	60	28917
2026-01-29 23:22:35.54	23.38	15.28	-52.9	-57.7	12.8	2.21e-05	0	46	0	211812352	60	29276
2026-01-29 23:22:36.55	23.37	15.39	-53.0	-58.3	12.3	4.57e-05	0	46	0	214958080	60	31198
2026-01-29 23:22:37.56	23.37	15.50	-52.8	-58.6	11.8	1.68e-04	0	46	0	218103808	60	32269
2026-01-29 23:22:38.57	23.37	15.61	-52.6	-58.9	11.3	3.67e-04	0	46	0	221249536	60	33341
2026-01-29 23:22:39.58	23.36	15.72	-52.4	-59.1	11.4	8.44e-04	0	46	0	224395264	60	34123
2026-01-29 23:22:40.58	23.36	15.83	-52.4	-59.3	11.2	1.26e-03	0	46	0	227540992	60	35281
2026-01-29 23:22:41.59	23.36	15.94	-52.4	-59.7	11.0	1.65e-03	0	46	0	230686720	60	36758
2026-01-29 23:22:42.59	23.36	16.05	-52.7	-59.9	11.0	2.26e-03	0	46	0	233832448	60	37766
2026-01-29 23:22:43.60	23.35	16.16	-53.0	-60.3	10.9	2.33e-03	0	46	0	236978176	60	39331
2026-01-29 23:22:44.60	23.35	16.28	-52.9	-59.9	10.7	2.56e-03	0	46	0	240123904	60	37601
2026-01-29 23:22:45.61	23.35	16.39	-53.3	-60.3	10.5	3.93e-03	0	46	0	243269632	60	39605
2026-01-29 23:22:46.62	23.34	16.50	-53.8	-60.7	10.2	6.44e-03	0	46	0	246415360	60	41298
2026-01-29 23:22:47.62	23.34	16.62	-54.2	-61.6	9.8	1.27e-02	0	46	0	249561088	60	45819
2026-01-29 23:22:48.63	23.34	16.73	-54.6	-62.1	9.8	1.99e-02	0	46	0	252706816	60	48623
2026-01-29 23:22:49.64	23.33	16.85	-55.5	-62.9	8.8	2.44e-02	0	46	0	255852544	60	53072
2026-01-29 23:22:50.65	23.33	16.96	-56.2	-63.1	8.6	3.17e-02	0	46	0	258998272	60	54514
2026-01-29 23:22:51.65	23.33	17.08	-56.8	-63.5	9.0	3.80e-02	0	46	0	262144000	60	57053
2026-01-29 23:22:52.66	23.32	17.19	-57.5	-64.7	8.2	9.62e-02	0	46	0	265289728	60	65082
2026-01-29 23:22:53.67	23.32	17.31	-58.0	-65.2	7.4	8.27e-02	0	46	0	268435456	60	69156
2026-01-29 23:22:54.67	23.32	17.43	-58.0	-65.2	6.8	1.86e-01	0	46	0	271581184	60	69036
2026-01-29 23:22:55.68	23.31	17.55	-58.3	-66.4	6.1	2.93e-01	0	46	0	274726912	60	79270
2026-01-29 23:22:56.69	23.31	17.67	-58.1	-67.8	5.2	6.15e-01	0	46	104	275775488	60	93127
2026-01-29 23:22:57.70	23.31	17.79	-58.1	-68.5	4.9	9.61e-01	0	46	104	275775488	60	101809
2026-01-29 23:22:58.71	23.30	17.91	-57.8	-69.0	4.5	1.29e+00	0	46	104	275775488	60	107039
2026-01-29 23:22:59.71	23.30	18.03	-55.3	-61.6	12.1	7.26e-01	0	46	104	275775488	60	45836
2026-01-29 23:23:00.72	23.29	18.15	-51.1	-52.8	19.3	0.00e+00	0	46	0	2097152	60	16692
2026-01-29 23:23:01.73	23.29	18.27	-52.9	-54.6	18.6	0.00e+00	0	46	0	5242880	60	20481
2026-01-29 23:23:02.74	23.29	18.39	-51.8	-53.4	19.7	0.00e+00	0	46	0	8388608	60	17729
2026-01-29 23:23:03.74	23.28	18.52	-53.7	-56.3	16.7	3.00e-06	0	46	0	11534336	60	24719
2026-01-29 23:23:04.75	23.28	18.64	-52.4	-54.0	19.6	0.00e+00	0	46	0	14680064	60	19105
2026-01-29 23:23:05.75	23.27	18.76	-52.1	-53.7	20.2	0.00e+00	0	46	0	17825792	60	18335
2026-01-29 23:23:06.76	23.27	18.89	-51.9	-53.5	20.3	0.00e+00	0	46	0	20971520	60	18029
2026-01-29 23:23:07.76	23.26	19.01	-52.0	-53.7	20.0	0.00e+00	0	46	0	24117248	60	18340
2026-01-29 23:23:08.77	23.26	19.14	-52.0	-53.7	19.9	0.00e+00	0	46	0	27262976	60	18402
2026-01-29 23:23:09.78	23.25	19.27	-52.0	-53.7	19.7	0.00e+00	0	46	0	30408704	60	18441
2026-01-29 23:23:10.79	23.25	19.39	-52.0	-53.8	19.7	0.00e+00	0	46	0	33554432	60	18558
2026-01-29 23:23:11.79	23.24	19.52	-52.1	-53.9	19.6	0.00e+00	0	46	0	36700160	60	18829
2026-01-29 23:23:12.80	23.24	19.65	-51.7	-53.4	20.0	0.00e+00	0	46	0	39845888	60	17884
2026-01-29 23:23:13.81	23.23	19.78	-51.4	-53.2	20.2	0.00e+00	0	46	0	42991616	60	17300
2026-01-29 23:23:14.82	23.23	19.91	-51.3	-53.1	20.1	0.00e+00	0	46	0	46137344	60	17227
2026-01-29 23:23:15.83	23.22	20.04	-51.3	-53.2	19.8	0.00e+00	0	46	0	49283072	60	17303
2026-01-29 23:23:16.84	23.22	20.18	-51.4	-53.3	20.1	0.00e+00	0	46	0	52428800	60	17568
2026-01-29 23:23:17.84	23.21	20.31	-51.7	-53.6	20.2	0.00e+00	0	46	0	55574528	60	18121
2026-01-29 23:23:18.85	23.21	20.44	-51.6	-53.3	20.5	0.00e+00	0	46	0	58720256	60	17671
2026-01-29 23:23:19.86	23.20	20.57	-51.9	-53.6	20.1	0.00e+00	0	46	0	61865984	60	18221
2026-01-29 23:23:20.87	23.20	20.71	-51.9	-53.6	20.3	0.00e+00	0	46	0	65011712	60	18188
2026-01-29 23:23:21.87	23.19	20.84	-52.0	-53.8	20.1	0.00e+00	0	46	0	68157440	60	18531
2026-01-29 23:23:22.88	23.19	20.98	-51.9	-53.6	20.0	0.00e+00	0	46	0	71303168	60	18152
2026-01-29 23:23:23.89	23.18	21.12	-52.2	-53.9	19.6	0.00e+00	0	46	0	74448896	60	18843
2026-01-29 23:23:24.89	23.18	21.25	-51.5	-53.1	20.2	0.00e+00	0	46	0	77594624	60	17193
2026-01-29 23:23:25.89	23.17	21.39	-51.0	-52.5	20.6	0.00e+00	0	46	0	80740352	60	16000
2026-01-29 23:23:26.90	23.16	21.53	-50.7	-52.2	20.9	0.00e+00	0	46	0	83886080	60	15435
2026-01-29 23:23:27.91	23.16	21.67	-50.6	-52.1	20.9	0.00e+00	0	46	0	87031808	60	15348
2026-01-29 23:23:28.91	23.15	21.81	-50.8	-52.3	20.6	0.00e+00	0	46	0	90177536	60	15673
2026-01-29 23:23:29.92	23.14	21.95	-50.6	-52.0	20.8	0.00e+00	0	46	0	93323264	60	15171
2026-01-29 23:23:30.93	23.14	22.09	-50.3	-51.7	21.0	0.00e+00	0	46	0	96468992	60	14709
2026-01-29 23:23:31.94	23.13	22.24	-50.4	-51.9	20.9	0.00e+00	0	46	0	99614720	60	14915
2026-01-29 23:23:32.94	23.13	22.38	-50.3	-51.7	20.9	0.00e+00	0	46	0	102760448	60	14645
2026-01-29 23:23:33.95	23.12	22.52	-50.6	-52.0	20.6	0.00e+00	0	46	0	105906176	60	15126
2026-01-29 23:23:34.96	23.11	22.67	-50.5	-51.9	20.7	0.00e+00	0	46	0	109051904	60	14989
2026-01-29 23:23:35.96	23.10	22.81	-50.7	-52.1	20.7	0.00e+00	0	46	0	112197632	60	15383
2026-01-29 23:23:36.96	23.10	22.96	-50.2	-51.6	21.3	0.00e+00	0	46	0	115343360	60	14403
2026-01-29 23:23:37.97	23.09	23.11	-50.0	-51.4	20.9	0.00e+00	0	46	0	118489088	60	14078
2026-01-29 23:23:38.98	23.08	23.26	-49.8	-51.3	20.4	0.00e+00	0	46	0	121634816	60	13901
2026-01-29 23:23:39.98	23.08	23.41	-49.8	-51.3	20.3	0.00e+00	0	46	0	124780544	60	14000
2026-01-29 23:23:40.99	23.07	23.56	-49.8	-51.3	20.4	0.00e+00	0	46	0	127926272	60	13925
2026-01-29 23:23:41.99	23.06	23.71	-49.8	-51.3	20.5	0.00e+00	0	46	0	131072000	60	14018
2026-01-29 23:23:43.00	23.05	23.86	-49.8	-51.3	20.6	0.00e+00	0	46	0	134217728	60	13915
2026-01-29 23:23:44.00	23.05	24.01	-50.0	-51.5	20.7	0.00e+00	0	46	0	137363456	60	14285
2026-01-29 23:23:45.00	23.04	24.16	-50.1	-51.5	20.6	0.00e+00	0	46	0	140509184	60	14319
2026-01-29 23:23:46.01	23.03	24.32	-50.2	-51.7	20.4	0.00e+00	0	46	0	143654912	60	14610
2026-01-29 23:23:47.01	23.02	24.47	-50.3	-51.8	20.3	0.00e+00	0	46	0	146800640	60	14803
2026-01-29 23:23:48.02	23.01	24.63	-50.4	-52.0	20.2	0.00e+00	0	46	0	149946368	60	15076
2026-01-29 23:23:49.02	23.00	24.79	-50.3	-51.8	20.9	0.00e+00	0	46	0	153092096	60	14732
2026-01-29 23:23:50.03	23.00	24.95	-50.3	-51.8	21.3	0.00e+00	0	46	0	156237824	60	14772
2026-01-29 23:23:51.03	22.99	25.10	-50.4	-52.1	21.0	0.00e+00	0	46	0	159383552	60	15255
2026-01-29 23:23:52.04	22.98	25.27	-50.4	-52.2	20.5	0.00e+00	0	46	0	162529280	60	15518
2026-01-29 23:23:53.04	22.97	25.43	-50.2	-52.1	20.1	0.00e+00	0	46	0	165675008	60	15306
2026-01-29 23:23:54.05	22.96	25.59	-50.4	-52.4	19.6	0.00e+00	0	46	0	168820736	60	15805
2026-01-29 23:23:55.05	22.95	25.75	-50.5	-52.3	19.8	0.00e+00	0	46	0	171966464	60	15743
2026-01-29 23:23:56.06	22.94	25.92	-50.9	-52.7	20.0	0.00e+00	0	46	0	175112192	60	16357
2026-01-29 23:23:57.07	22.93	26.08	-51.2	-52.8	20.1	0.00e+00	0	46	0	178257920	60	16616
2026-01-29 23:23:58.07	22.92	26.25	-51.4	-53.0	20.1	0.00e+00	0	46	0	181403648	60	17074
2026-01-29 23:23:59.08	22.91	26.41	-51.3	-53.1	20.0	0.00e+00	0	46	0	184549376	60	17229
2026-01-29 23:24:00.09	22.90	26.58	-51.5	-53.6	19.4	0.00e+00	0	46	0	187695104	60	18251
2026-01-29 23:24:01.09	22.89	26.75	-51.4	-53.8	18.8	0.00e+00	0	46	0	190840832	60	18676
2026-01-29 23:24:02.10	22.88	26.92	-51.6	-54.2	18.1	0.00e+00	0	46	0	193986560	60	19466
2026-01-29 23:24:03.10	22.87	27.09	-51.8	-54.2	18.1	0.00e+00	0	46	0	197132288	60	19556
2026-01-29 23:24:04.11	22.86	27.27	-52.1	-54.2	18.7	0.00e+00	0	46	0	200278016	60	19562
2026-01-29 23:24:05.11	22.85	27.44	-52.7	-54.5	19.0	0.00e+00	0	46	0	203423744	60	20291
2026-01-29 23:24:06.12	22.84	27.62	-53.0	-54.6	19.5	0.00e+00	0	46	0	206569472	60	20462
2026-01-29 23:24:07.13	22.83	27.79	-52.5	-53.9	20.1	0.00e+00	0	46	0	209715200	60	18951
2026-01-29 23:24:08.14	22.82	27.97	-51.8	-53.5	19.8	0.00e+00	0	46	0	212860928	60	17993
2026-01-29 23:24:09.15	22.81	28.15	-51.5	-53.4	19.3	0.00e+00	0	46	0	216006656	60	17788
2026-01-29 23:24:10.15	22.80	28.33	-51.2	-53.1	19.5	0.00e+00	0	46	0	219152384	60	17094
2026-01-29 23:24:11.16	22.78	28.51	-51.3	-52.9	19.6	0.00e+00	0	46	0	222298112	60	16869
2026-01-29 23:24:12.17	22.77	28.69	-51.4	-52.9	19.8	0.00e+00	0	46	0	225443840	60	16873
2026-01-29 23:24:13.17	22.76	28.87	-51.2	-52.6	20.7	0.00e+00	0	46	0	228589568	60	16238
2026-01-29 23:24:14.17	22.75	29.06	-51.2	-52.5	21.0	0.00e+00	0	46	0	231735296	60	16098
2026-01-29 23:24:15.18	22.74	29.24	-51.0	-52.4	21.1	0.00e+00	0	46	0	234881024	60	15911
2026-01-29 23:24:16.18	22.72	29.43	-50.8	-52.3	21.4	0.00e+00	0	46	0	238026752	60	15595
2026-01-29 23:24:17.19	22.71	29.62	-50.7	-52.3	21.4	0.00e+00	0	46	0	241172480	60	15638
2026-01-29 23:24:18.20	22.70	29.81	-50.7	-52.2	21.4	0.00e+00	0	46	0	244318208	60	15515
2026-01-29 23:24:19.20	22.68	30.00	-50.7	-52.2	21.4	0.00e+00	0	46	0	247463936	60	15436
2026-01-29 23:24:20.21	22.67	30.19	-50.9	-52.2	21.3	0.00e+00	0	46	0	250609664	60	15556
2026-01-29 23:24:21.21	22.66	30.38	-50.8	-52.1	21.3	0.00e+00	0	46	0	253755392	60	15372
2026-01-29 23:24:22.22	22.64	30.57	-50.8	-52.1	21.2	0.00e+00	0	46	0	256901120	60	15351
2026-01-29 23:24:23.23	22.63	30.77	-50.9	-52.1	21.2	0.00e+00	0	46	0	260046848	60	15399
2026-01-29 23:24:24.23	22.62	30.97	-50.9	-52.2	21.2	0.00e+00	0	46	0	263192576	60	15476
2026-01-29 23:24:25.24	22.60	31.17	-50.9	-52.2	21.2	0.00e+00	0	46	0	266338304	60	15570
2026-01-29 23:24:26.25	22.59	31.37	-51.2	-52.6	20.8	0.00e+00	0	46	0	268435456	60	16274
2026-01-29 23:24:27.26	22.57	31.57	-51.2	-52.8	20.4	0.00e+00	0	46	0	272629760	60	16620
2026-01-29 23:24:28.27	22.56	31.77	-51.3	-52.8	20.3	0.00e+00	0	46	0	275775488	60	16679
2026-01-29 23:24:29.27	22.54	31.97	-51.5	-53.1	20.3	0.00e+00	0	46	0	278921216	60	17133
2026-01-29 23:24:30.28	22.53	32.18	-51.5	-53.0	20.4	0.00e+00	0	46	0	282066944	60	17050
2026-01-29 23:24:31.29	22.51	32.39	-51.6	-53.1	20.6	0.00e+00	0	46	0	285212672	60	17123
2026-01-29 23:24:32.30	22.49	32.59	-51.9	-53.3	20.6	0.00e+00	0	46	0	288358400	60	17575
2026-01-29 23:24:33.30	22.48	32.80	-52.2	-53.6	20.6	0.00e+00	0	46	0	291504128	60	18225
2026-01-29 23:24:34.31	22.46	33.01	-52.5	-54.0	20.3	0.00e+00	0	46	0	294649856	60	18990
2026-01-29 23:24:35.32	22.44	33.23	-52.7	-54.2	20.1	0.00e+00	0	46	0	297795584	60	19495
2026-01-29 23:24:36.33	22.43	33.44	-52.7	-54.2	20.1	0.00e+00	0	46	0	300941312	60	19607
2026-01-29 23:24:37.34	22.41	33.66	-52.4	-53.9	20.3	0.00e+00	0	46	0	304087040	60	18853
2026-01-29 23:24:38.34	22.39	33.87	-52.4	-53.9	20.3	0.00e+00	0	46	0	307232768	60	18887
2026-01-29 23:24:39.35	22.37	34.09	-52.6	-54.0	20.1	0.00e+00	0	46	0	310378496	60	19123
2026-01-29 23:24:40.36	22.35	34.31	-53.1	-54.6	19.9	0.00e+00	0	46	0	313524224	60	20315
2026-01-29 23:24:41.36	22.33	34.54	-53.2	-54.8	19.2	0.00e+00	0	46	0	316669952	60	21005
2026-01-29 23:24:42.36	22.32	34.76	-53.3	-55.1	19.1	0.00e+00	0	46	0	319815680	60	21702
2026-01-29 23:24:43.37	22.30	34.98	-53.5	-55.4	18.5	0.00e+00	0	46	0	322961408	60	22491
2026-01-29 23:24:44.38	22.28	35.21	-53.4	-55.4	18.3	0.00e+00	0	46	0	326107136	60	22411
2026-01-29 23:24:45.39	22.26	35.44	-53.4	-55.6	17.5	0.00e+00	0	46	0	329252864	60	22832
2026-01-29 23:24:46.39	22.24	35.67	-53.3	-55.7	17.0	0.00e+00	0	46	0	332398592	60	23267
2026-01-29 23:24:47.40	22.22	35.90	-53.6	-56.2	16.7	0.00e+00	0	46	0	335544320	60	24507
2026-01-29 23:24:48.41	22.19	36.13	-54.2	-56.8	16.8	0.00e+00	0	46	0	338690048	60	26221
2026-01-29 23:24:49.42	22.17	36.37	-54.5	-57.0	16.6	0.00e+00	0	46	0	341835776	60	27044
2026-01-29 23:24:50.43	22.15	36.61	-54.5	-57.3	16.7	0.00e+00	0	46	0	344981504	60	27956
2026-01-29 23:24:51.44	22.13	36.85	-54.4	-57.6	15.8	0.00e+00	0	46	0	348127232	60	28761
2026-01-29 23:24:52.45	22.11	37.09	-54.3	-57.7	15.7	0.00e+00	0	46	0	351272960	60	29321
2026-01-29 23:24:53.46	22.08	37.33	-54.8	-58.2	15.6	0.00e+00	0	46	0	354418688	60	31059
2026-01-29 23:24:54.46	22.06	37.57	-55.6	-58.6	15.6	0.00e+00	0	46	0	357564416	60	32293
2026-01-29 23:24:55.47	22.04	37.82	-56.1	-58.7	15.4	0.00e+00	0	46	0	360710144	60	32735
2026-01-29 23:24:56.48	22.01	38.06	-56.3	-58.8	15.5	0.00e+00	0	46	0	363855872	60	33107
2026-01-29 23:24:57.49	21.99	38.31	-56.4	-58.8	15.7	0.00e+00	0	46	0	367001600	60	33131
2026-01-29 23:24:58.50	21.96	38.57	-56.7	-59.2	15.4	0.00e+00	0	46	0	370147328	60	34850
2026-01-29 23:24:59.50	21.94	38.82	-56.0	-58.3	16.2	0.00e+00	0	46	0	373293056	60	31373
2026-01-29 23:25:00.51	21.91	39.07	-55.0	-57.3	16.9	0.00e+00	0	46	0	376438784	60	27796
2026-01-29 23:25:01.51	21.88	39.33	-54.5	-56.7	17.5	0.00e+00	0	46	0	379584512	60	25872
2026-01-29 23:25:02.52	21.86	39.59	-54.4	-56.3	18.1	0.00e+00	0	46	0	382730240	60	24806
2026-01-29 23:25:03.52	21.83	39.85	-54.6	-56.3	18.3	0.00e+00	0	46	0	385875968	60	24805
2026-01-29 23:25:04.53	21.80	40.11	-54.7	-56.5	18.1	0.00e+00	0	46	0	389021696	60	25449
2026-01-29 23:25:05.54	21.77	40.37	-54.7	-56.6	18.0	0.00e+00	0	46	0	392167424	60	25628
2026-01-29 23:25:06.55	21.74	40.64	-54.7	-56.6	17.9	0.00e+00	0	46	0	395313152	60	25686
2026-01-29 23:25:07.56	21.71	40.91	-54.8	-56.7	17.6	0.00e+00	0	46	0	398458880	60	26165
2026-01-29 23:25:08.56	21.68	41.18	-54.9	-56.8	17.9	0.00e+00	0	46	0	401604608	60	26469
2026-01-29 23:25:09.57	21.65	41.45	-55.1	-57.2	17.3	0.00e+00	0	46	0	404750336	60	27403
2026-01-29 23:25:10.58	21.62	41.73	-55.0	-57.3	16.5	0.00e+00	0	46	0	407896064	60	28040
2026-01-29 23:25:11.58	21.59	42.00	-55.3	-57.9	15.9	0.00e+00	0	46	0	411041792	60	29868
2026-01-29 23:25:12.59	21.56	42.28	-55.5	-58.0	15.8	0.00e+00	0	46	0	414187520	60	30242
2026-01-29 23:25:13.59	21.52	42.56	-55.9	-58.3	16.1	0.00e+00	0	46	0	417333248	60	31263
2026-01-29 23:25:14.60	21.49	42.84	-56.3	-58.7	15.9	0.00e+00	0	46	0	420478976	60	32745
2026-01-29 23:25:15.61	21.46	43.13	-56.6	-59.1	15.4	0.00e+00	0	46	0	423624704	60	34179
2026-01-29 23:25:16.62	21.42	43.42	-56.8	-59.3	15.2	0.00e+00	0	46	0	426770432	60	34910
2026-01-29 23:25:17.62	21.38	43.70	-56.9	-59.3	15.3	0.00e+00	0	46	0	429916160	60	35230
2026-01-29 23:25:18.63	21.35	44.00	-56.4	-58.7	16.0	0.00e+00	0	46	0	433061888	60	32630
2026-01-29 23:25:19.64	21.31	44.29	-55.6	-57.7	17.0	0.00e+00	0	46	0	436207616	60	29068
2026-01-29 23:25:20.64	21.27	44.58	-55.1	-57.2	17.3	0.00e+00	0	46	0	439353344	60	27611
2026-01-29 23:25:21.65	21.23	44.88	-55.4	-57.5	16.8	0.00e+00	0	46	0	442499072	60	28638
2026-01-29 23:25:22.66	21.19	45.18	-55.4	-57.4	17.4	0.00e+00	0	46	0	445644800	60	28106
2026-01-29 23:25:23.67	21.15	45.49	-55.6	-57.7	16.9	0.00e+00	0	46	0	448790528	60	29040
2026-01-29 23:25:24.67	21.11	45.79	-55.7	-57.8	17.0	0.00e+00	0	46	0	451936256	60	29367
2026-01-29 23:25:25.67	21.07	46.10	-55.8	-57.9	16.8	0.00e+00	0	46	0	455081984	60	29766
2026-01-29 23:25:26.68	21.03	46.41	-55.9	-58.1	16.5	0.00e+00	0	46	0	458227712	60	30685
2026-01-29 23:25:27.69	20.98	46.72	-56.1	-58.2	16.6	0.00e+00	0	46	0	461373440	60	30960
2026-01-29 23:25:28.69	20.94	47.03	-56.0	-58.2	16.7	0.00e+00	0	46	0	464519168	60	30959
2026-01-29 23:25:29.70	20.89	47.35	-56.0	-58.3	16.7	0.00e+00	0	46	0	467664896	60	31346
2026-01-29 23:25:30.70	20.84	47.66	-55.9	-58.2	16.6	0.00e+00	0	46	0	470810624	60	30881
2026-01-29 23:25:31.71	20.79	47.99	-55.4	-57.5	17.3	0.00e+00	0	46	0	473956352	60	28557
2026-01-29 23:25:32.71	20.75	48.31	-54.4	-56.2	18.5	0.00e+00	0	46	0	477102080	60	24623
2026-01-29 23:25:33.72	20.70	48.63	-53.9	-55.6	19.1	0.00e+00	0	46	0	480247808	60	22826
2026-01-29 23:25:34.73	20.64	48.96	-53.6	-55.2	19.3	0.00e+00	0	46	0	483393536	60	21923
2026-01-29 23:25:35.74	20.59	49.30	-53.5	-55.1	19.3	0.00e+00	0	46	0	486539264	60	21701
2026-01-29 23:25:36.74	20.54	49.63	-53.6	-55.2	19.2	0.00e+00	0	46	0	489684992	60	21890
2026-01-29 23:25:37.75	20.48	49.96	-53.8	-55.5	18.9	0.00e+00	0	46	0	492830720	60	22543
2026-01-29 23:25:38.76	20.42	50.30	-53.7	-55.3	19.2	0.00e+00	0	46	0	495976448	60	22127
2026-01-29 23:25:39.76	20.37	50.64	-53.9	-55.6	19.2	0.00e+00	0	46	0	499122176	60	22805
2026-01-29 23:25:40.77	20.31	50.98	-54.2	-55.9	19.1	0.00e+00	0	46	0	502267904	60	23638
2026-01-29 23:25:41.78	20.24	51.33	-54.0	-55.6	19.2	0.00e+00	0	46	0	505413632	60	23046
2026-01-29 23:25:42.79	20.18	51.68	-54.3	-55.9	18.8	0.00e+00	0	46	0	508559360	60	23776
2026-01-29 23:25:43.80	20.12	52.03	-54.5	-56.3	18.5	0.00e+00	0	46	0	511705088	60	24780
2026-01-29 23:25:44.80	20.05	52.38	-54.6	-56.4	18.5	0.00e+00	0	46	0	514850816	60	25180
2026-01-29 23:25:45.80	19.99	52.74	-54.8	-56.6	18.0	0.00e+00	0	46	0	517996544	60	25768
2026-01-29 23:25:46.81	19.92	53.09	-55.0	-56.9	17.7	0.00e+00	0	46	0	521142272	60	26518
2026-01-29 23:25:47.82	19.84	53.46	-54.9	-56.8	17.8	0.00e+00	0	46	0	524288000	60	26309
2026-01-29 23:25:48.83	19.77	53.82	-54.4	-56.2	18.5	0.00e+00	0	46	0	527433728	60	24695
2026-01-29 23:25:49.83	19.70	54.18	-53.7	-55.3	19.2	0.00e+00	0	46	0	530579456	60	22190
2026-01-29 23:25:50.84	19.62	54.55	-53.2	-54.8	19.8	0.00e+00	0	46	0	533725184	60	20858
2026-01-29 23:25:51.84	19.54	54.92	-53.1	-54.6	19.9	0.00e+00	0	46	0	536870912	60	20387
2026-01-29 23:25:52.85	19.46	55.30	-53.1	-54.5	20.1	0.00e+00	0	46	0	540016640	60	20258
2026-01-29 23:25:53.85	19.38	55.67	-53.3	-54.8	19.9	0.00e+00	0	46	0	543162368	60	20980
2026-01-29 23:25:54.86	19.29	56.05	-53.2	-54.7	20.3	0.00e+00	0	46	0	546308096	60	20569
2026-01-29 23:25:55.87	19.20	56.43	-53.5	-55.0	20.0	0.00e+00	0	46	0	549453824	60	21286
2026-01-29 23:25:56.88	19.11	56.82	-53.6	-55.1	19.7	0.00e+00	0	46	0	552599552	60	21664
2026-01-29 23:25:57.89	19.02	57.21	-53.6	-55.2	19.8	0.00e+00	0	46	0	555745280	60	21775
2026-01-29 23:25:58.90	18.92	57.60	-53.5	-55.0	19.8	0.00e+00	0	46	0	558891008	60	21335
2026-01-29 23:25:59.90	18.82	57.98	-53.7	-55.2	19.9	0.00e+00	0	46	0	562036736	60	21767
2026-01-29 23:26:00.91	18.72	58.38	-53.8	-55.3	19.7	0.00e+00	0	46	0	565182464	60	22141
2026-01-29 23:26:01.92	18.61	58.78	-52.9	-54.3	20.7	0.00e+00	0	46	0	568328192	60	19633
2026-01-29 23:26:02.92	18.50	59.17	-52.2	-53.4	21.2	0.00e+00	0	46	0	571473920	60	17847
2026-01-29 23:26:03.93	18.39	59.58	-51.7	-53.0	21.5	0.00e+00	0	46	0	574619648	60	17040
2026-01-29 23:26:04.93	18.27	59.98	-51.8	-53.1	21.4	0.00e+00	0	46	0	577765376	60	17222
2026-01-29 23:26:05.94	18.15	60.39	-52.1	-53.4	21.3	0.00e+00	0	46	0	580911104	60	17822
2026-01-29 23:26:06.94	18.03	60.79	-52.3	-53.6	21.2	0.00e+00	0	46	0	584056832	60	18111
2026-01-29 23:26:07.95	17.90	61.21	-52.0	-53.3	21.4	0.00e+00	0	46	0	587202560	60	17641
2026-01-29 23:26:08.96	17.77	61.62	-52.5	-53.8	21.0	0.00e+00	0	46	0	590348288	60	18698
2026-01-29 23:26:09.96	17.63	62.04	-52.4	-53.8	20.8	0.00e+00	0	46	0	593494016	60	18618
2026-01-29 23:26:10.97	17.49	62.46	-52.6	-54.0	20.6	0.00e+00	0	46	0	596639744	60	18978
2026-01-29 23:26:11.98	17.34	62.88	-52.7	-54.1	20.5	0.00e+00	0	46	0	599785472	60	19346
2026-01-29 23:26:12.99	17.19	63.30	-52.7	-54.2	20.5	0.00e+00	0	46	0	602931200	60	19467
2026-01-29 23:26:13.99	17.03	63.73	-52.3	-53.7	20.7	0.00e+00	0	46	0	606076928	60	18404
2026-01-29 23:26:15.00	16.86	64.16	-52.6	-54.0	20.5	0.00e+00	0	46	0	609222656	60	19083
2026-01-29 23:26:16.01	16.69	64.59	-52.9	-54.3	20.6	0.00e+00	0	46	0	612368384	60	19762
2026-01-29 23:26:17.02	16.51	65.02	-52.9	-54.3	20.5	0.00e+00	0	46	0	615514112	60	19760
2026-01-29 23:26:18.02	16.33	65.46	-53.4	-54.8	19.8	0.00e+00	0	46	0	618659840	60	21026
2026-01-29 23:26:19.03	16.13	65.90	-53.5	-54.9	20.3	0.00e+00	0	46	0	621805568	60	21156
2026-01-29 23:26:20.03	15.93	66.33	-52.1	-53.4	21.5	0.00e+00	0	46	0	624951296	60	17830
2026-01-29 23:26:21.04	15.72	66.78	-51.0	-52.2	22.1	0.00e+00	0	46	0	628097024	60	15551
2026-01-29 23:26:22.05	15.51	67.22	-50.3	-51.5	22.5	0.00e+00	0	46	0	631242752	60	14280
2026-01-29 23:26:23.05	15.28	67.66	-49.9	-51.1	22.9	0.00e+00	0	46	0	634388480	60	13595
2026-01-29 23:26:24.06	15.04	68.11	-49.9	-51.0	22.9	0.00e+00	0	46	0	637534208	60	13553
2026-01-29 23:26:25.07	14.79	68.56	-49.8	-51.0	23.1	0.00e+00	0	46	0	640679936	60	13465
2026-01-29 23:26:26.07	14.53	69.01	-49.5	-50.6	23.0	0.00e+00	0	46	0	643825664	60	12948
2026-01-29 23:26:27.07	14.26	69.46	-49.5	-50.7	22.6	0.00e+00	0	46	0	646971392	60	13027
2026-01-29 23:26:28.08	13.97	69.92	-49.8	-51.0	22.7	0.00e+00	0	46	0	650117120	60	13495
2026-01-29 23:26:29.09	13.66	70.38	-50.1	-51.3	22.7	0.00e+00	0	46	0	653262848	60	13914
2026-01-29 23:26:30.09	13.35	70.83	-50.3	-51.5	22.7	0.00e+00	0	46	0	656408576	60	14368
2026-01-29 23:26:31.10	13.01	71.30	-50.2	-51.4	22.8	0.00e+00	0	46	0	659554304	60	14104
2026-01-29 23:26:32.11	12.66	71.76	-50.2	-51.4	22.5	0.00e+00	0	46	0	662700032	60	14090
2026-01-29 23:26:33.11	12.29	72.22	-50.5	-51.7	22.2	0.00e+00	0	46	0	665845760	60	14679
2026-01-29 23:26:34.12	11.89	72.68	-50.6	-51.9	22.4	0.00e+00	0	46	0	668991488	60	14947
2026-01-29 23:26:35.13	11.48	73.15	-50.8	-52.1	22.3	0.00e+00	0	46	0	672137216	60	15303
2026-01-29 23:26:36.13	11.04	73.61	-50.6	-51.8	22.5	0.00e+00	0	46	0	675282944	60	14853
2026-01-29 23:26:37.14	10.57	74.08	-50.7	-52.0	22.2	0.00e+00	0	46	0	678428672	60	15111
2026-01-29 23:26:38.15	10.06	74.55	-50.9	-52.2	21.9	0.00e+00	0	46	0	681574400	60	15525
2026-01-29 23:26:39.15	9.54	75.02	-51.0	-52.2	22.1	0.00e+00	0	46	0	684720128	60	15573
2026-01-29 23:26:40.16	8.97	75.49	-50.9	-52.2	22.1	0.00e+00	0	46	0	687865856	60	15412
2026-01-29 23:26:41.17	8.36	75.96	-50.8	-52.0	22.0	0.00e+00	0	46	0	691011584	60	15183
2026-01-29 23:26:42.17	7.71	76.42	-51.4	-52.7	21.4	0.00e+00	0	46	0	694157312	60	16451
2026-01-29 23:26:43.17	7.01	76.89	-51.5	-52.7	22.1	0.00e+00	0	46	0	697303040	60	16457
2026-01-29 23:26:44.18	6.26	77.35	-51.2	-52.4	22.7	0.00e+00	0	46	0	700448768	60	15870
2026-01-29 23:26:45.19	5.44	77.82	-51.0	-52.1	22.7	0.00e+00	0	46	0	703594496	60	15325
2026-01-29 23:26:46.19	4.57	78.29	-51.0	-52.2	22.3	0.00e+00	0	46	0	706740224	60	15544
2026-01-29 23:26:47.20	3.61	78.75	-51.5	-52.8	22.0	0.00e+00	0	46	0	709885952	60	16633
2026-01-29 23:26:48.21	2.57	79.21	-51.8	-53.0	22.2	0.00e+00	0	46	0	713031680	60	17044
2026-01-29 23:26:49.21	1.45	79.67	-51.8	-53.0	22.3	0.00e+00	0	46	0	716177408	60	17064
2026-01-29 23:26:50.21	0.21	80.12	-51.4	-52.6	22.5	0.00e+00	0	46	0	719323136	60	16230
2026-01-29 23:26:51.22	358.85	80.58	-51.4	-52.6	22.3	0.00e+00	0	46	0	722468864	60	16286
2026-01-29 23:26:52.22	357.36	81.02	-51.3	-52.4	22.7	0.00e+00	0	46	0	725614592	60	15943
2026-01-29 23:26:53.22	355.71	81.46	-50.7	-51.9	22.9	0.00e+00	0	46	0	728760320	60	14922
2026-01-29 23:26:54.23	353.87	81.89	-50.5	-51.7	23.0	0.00e+00	0	46	0	731906048	60	14623
2026-01-29 23:26:55.23	351.83	82.32	-50.5	-51.6	22.8	0.00e+00	0	46	0	735051776	60	14534
2026-01-29 23:26:56.24	349.54	82.73	-50.8	-52.1	22.3	0.00e+00	0	46	0	738197504	60	15373
2026-01-29 23:26:57.25	346.96	83.14	-50.5	-51.8	22.6	0.00e+00	0	46	0	741343232	60	14750
2026-01-29 23:26:58.25	344.10	83.52	-50.6	-51.8	22.4	0.00e+00	0	46	0	743440384	60	14871
2026-01-29 23:26:59.26	340.85	83.90	-50.6	-51.9	22.4	0.00e+00	0	46	0	747634688	60	14916
2026-01-29 23:27:00.27	337.18	84.25	-51.0	-52.3	21.9	0.00e+00	0	46	0	750780416	60	15704
2026-01-29 23:27:01.27	333.10	84.57	-50.9	-52.2	22.0	0.00e+00	0	46	0	753926144	60	15556
2026-01-29 23:27:02.28	328.48	84.86	-51.0	-52.3	22.1	0.00e+00	0	46	0	757071872	60	15719
2026-01-29 23:27:03.29	323.33	85.12	-51.0	-52.4	22.0	0.00e+00	0	46	0	760217600	60	15798
2026-01-29 23:27:04.30	317.67	85.33	-50.8	-52.1	21.8	0.00e+00	0	46	0	763363328	60	15331
2026-01-29 23:27:05.31	311.53	85.49	-50.8	-52.1	21.9	0.00e+00	0	46	0	766509056	60	15409
2026-01-29 23:27:06.32	305.01	85.60	-51.0	-52.3	21.6	0.00e+00	0	46	0	769654784	60	15743
2026-01-29 23:27:07.32	298.31	85.65	-51.0	-52.4	21.6	0.00e+00	0	46	0	772800512	60	15838
2026-01-29 23:27:08.33	291.49	85.64	-50.4	-51.7	22.4	0.00e+00	0	46	0	775946240	60	14603
2026-01-29 23:27:09.34	284.80	85.57	-50.5	-51.7	22.7	0.00e+00	0	46	0	779091968	60	14713
2026-01-29 23:27:10.34	278.48	85.44	-50.7	-51.9	22.5	0.00e+00	0	46	0	782237696	60	14959
2026-01-29 23:27:11.35	272.51	85.25	-50.8	-52.1	22.4	0.00e+00	0	46	0	785383424	60	15234
2026-01-29 23:27:12.35	267.09	85.03	-50.5	-51.7	22.3	0.00e+00	0	46	0	788529152	60	14673
2026-01-29 23:27:13.35	262.19	84.76	-50.8	-52.1	22.1	0.00e+00	0	46	0	790626304	60	15294
2026-01-29 23:27:14.36	257.76	84.45	-51.1	-52.4	21.9	0.00e+00	0	46	0	794820608	60	15806
2026-01-29 23:27:15.37	253.81	84.12	-50.9	-52.3	21.7	0.00e+00	0	46	0	797966336	60	15604
2026-01-29 23:27:16.38	250.30	83.76	-51.0	-52.4	21.6	0.00e+00	0	46	0	801112064	60	15805
2026-01-29 23:27:17.39	247.19	83.38	-51.1	-52.5	21.4	0.00e+00	0	46	0	804257792	60	16030
2026-01-29 23:27:18.40	244.42	82.98	-51.3	-52.7	21.3	0.00e+00	0	46	0	807403520	60	16489
2026-01-29 23:27:19.40	241.98	82.58	-51.4	-52.9	21.5	0.00e+00	0	46	0	810549248	60	16823
2026-01-29 23:27:20.41	239.78	82.16	-50.9	-52.3	22.0	0.00e+00	0	46	0	813694976	60	15695
2026-01-29 23:27:21.42	237.80	81.73	-50.9	-52.3	21.6	0.00e+00	0	46	0	816840704	60	15697
2026-01-29 23:27:22.43	236.03	81.29	-51.0	-52.4	21.8	0.00e+00	0	46	0	819986432	60	15909
2026-01-29 23:27:23.43	234.45	80.85	-50.9	-52.3	21.8	0.00e+00	0	46	0	823132160	60	15714
2026-01-29 23:27:24.44	233.00	80.40	-50.6	-52.0	22.2	0.00e+00	0	46	0	826277888	60	15060
2026-01-29 23:27:25.45	231.68	79.94	-50.5	-51.8	22.2	0.00e+00	0	46	0	829423616	60	14876
2026-01-29 23:27:26.46	230.48	79.48	-50.6	-52.0	21.9	0.00e+00	0	46	0	832569344	60	15123
2026-01-29 23:27:27.46	229.40	79.02	-51.1	-52.5	21.6	0.00e+00	0	46	0	835715072	60	16102
2026-01-29 23:27:28.47	228.39	78.56	-51.3	-52.7	21.6	0.00e+00	0	46	0	838860800	60	16422
2026-01-29 23:27:29.48	227.46	78.09	-51.7	-53.3	21.0	0.00e+00	0	46	0	842006528	60	17511
2026-01-29 23:27:30.49	226.61	77.62	-51.5	-53.0	21.7	0.00e+00	0	46	0	845152256	60	16910
2026-01-29 23:27:31.49	225.83	77.16	-51.6	-52.9	21.4	0.00e+00	0	46	0	848297984	60	16895
2026-01-29 23:27:32.50	225.09	76.69	-51.6	-52.9	21.4	0.00e+00	0	46	0	851443712	60	16894
2026-01-29 23:27:33.50	224.42	76.22	-52.1	-53.5	21.3	0.00e+00	0	46	0	854589440	60	18012
2026-01-29 23:27:34.51	223.78	75.75	-52.7	-54.2	21.0	0.00e+00	0	46	0	857735168	60	19547
2026-01-29 23:27:35.52	223.19	75.28	-53.3	-54.8	20.6	0.00e+00	0	46	0	860880896	60	21021
2026-01-29 23:27:36.53	222.63	74.81	-53.4	-54.9	20.3	0.00e+00	0	46	0	864026624	60	21118
2026-01-29 23:27:37.53	222.12	74.35	-52.0	-53.4	21.2	0.00e+00	0	46	0	867172352	60	17822
2026-01-29 23:27:38.54	221.63	73.88	-51.4	-52.7	21.7	0.00e+00	0	46	0	870318080	60	16362
2026-01-29 23:27:39.55	221.17	73.41	-51.2	-52.5	22.1	0.00e+00	0	46	0	873463808	60	16003
2026-01-29 23:27:40.55	220.74	72.95	-51.5	-52.8	22.2	0.00e+00	0	46	0	876609536	60	16544
2026-01-29 23:27:41.55	220.34	72.48	-51.8	-53.1	22.1	0.00e+00	0	46	0	879755264	60	17097
2026-01-29 23:27:42.56	219.95	72.02	-51.6	-52.8	21.6	0.00e+00	0	46	0	882900992	60	16618
2026-01-29 23:27:43.56	219.59	71.56	-51.1	-52.4	21.8	0.00e+00	0	46	0	886046720	60	15809
2026-01-29 23:27:44.57	219.24	71.09	-50.3	-51.4	22.8	0.00e+00	0	46	0	889192448	60	14137
2026-01-29 23:27:45.58	218.92	70.63	-50.0	-51.0	23.4	0.00e+00	0	46	0	892338176	60	13572
2026-01-29 23:27:46.58	218.61	70.18	-50.4	-51.5	23.2	0.00e+00	0	46	0	895483904	60	14328
2026-01-29 23:27:47.59	218.31	69.72	-51.2	-52.4	22.2	0.00e+00	0	46	0	898629632	60	15867
2026-01-29 23:27:48.60	218.03	69.26	-51.9	-53.3	20.8	0.00e+00	0	46	0	901775360	60	17597
2026-01-29 23:27:49.61	217.76	68.81	-51.9	-53.3	20.8	0.00e+00	0	46	0	904921088	60	17624
2026-01-29 23:27:50.61	217.50	68.36	-50.9	-52.2	22.1	0.00e+00	0	46	0	908066816	60	15412
2026-01-29 23:27:51.62	217.25	67.91	-49.8	-50.9	23.4	0.00e+00	0	46	0	911212544	60	13338
2026-01-29 23:27:52.62	217.02	67.46	-49.5	-50.5	23.8	0.00e+00	0	46	0	914358272	60	12799
2026-01-29 23:27:53.63	216.80	67.01	-49.8	-50.8	23.6	0.00e+00	0	46	0	917504000	60	13220
2026-01-29 23:27:54.64	216.58	66.57	-50.4	-51.4	23.2	0.00e+00	0	46	0	920649728	60	14160
2026-01-29 23:27:55.64	216.38	66.13	-51.3	-52.5	22.3	0.00e+00	0	46	0	923795456	60	16087
2026-01-29 23:27:56.65	216.18	65.69	-51.5	-52.7	22.0	0.00e+00	0	46	0	926941184	60	16349
2026-01-29 23:27:57.65	215.99	65.25	-50.1	-51.2	22.6	0.00e+00	0	46	0	930086912	60	13837
2026-01-29 23:27:58.66	215.81	64.82	-49.6	-50.7	22.8	0.00e+00	0	46	0	933232640	60	13017
2026-01-29 23:27:59.67	215.63	64.38	-49.5	-50.7	23.2	0.00e+00	0	46	0	936378368	60	12969
2026-01-29 23:28:00.67	215.46	63.95	-49.5	-50.6	23.7	0.00e+00	0	46	0	939524096	60	12866
2026-01-29 23:28:01.68	215.30	63.52	-49.8	-50.8	23.6	0.00e+00	0	46	0	942669824	60	13266
2026-01-29 23:28:02.67	215.15	63.11	-50.9	-52.1	22.6	0.00e+00	0	46	0	945815552	60	15289
2026-01-29 23:28:03.68	214.99	62.68	-52.1	-53.4	21.6	0.00e+00	0	46	0	948961280	60	17816
2026-01-29 23:28:04.68	214.85	62.26	-52.6	-54.0	20.2	0.00e+00	0	46	0	952107008	60	19155
2026-01-29 23:28:05.69	214.71	61.84	-52.4	-53.9	19.8	0.00e+00	0	46	0	955252736	60	18770
2026-01-29 23:28:06.69	214.57	61.43	-52.0	-53.4	20.5	0.00e+00	0	46	0	958398464	60	17720
2026-01-29 23:28:07.70	214.44	61.01	-51.7	-53.0	21.1	0.00e+00	0	46	0	961544192	60	16980
2026-01-29 23:28:08.70	214.31	60.60	-51.3	-52.5	22.0	0.00e+00	0	46	0	964689920	60	16090
2026-01-29 23:28:09.71	214.19	60.19	-51.3	-52.5	22.1	0.00e+00	0	46	0	967835648	60	15959
2026-01-29 23:28:10.72	214.07	59.78	-51.8	-53.1	21.6	0.00e+00	0	46	0	970981376	60	17145
2026-01-29 23:28:11.73	213.96	59.38	-52.4	-53.7	21.2	0.00e+00	0	46	0	974127104	60	18482
2026-01-29 23:28:12.73	213.85	58.98	-52.6	-53.9	21.2	0.00e+00	0	46	0	977272832	60	18841
2026-01-29 23:28:13.74	213.74	58.58	-52.9	-54.3	20.5	0.00e+00	0	46	0	979369984	60	19688
2026-01-29 23:28:14.74	213.63	58.19	-52.9	-54.3	20.4	0.00e+00	0	46	0	982515712	60	19806
2026-01-29 23:28:15.75	213.53	57.79	-51.6	-52.9	21.1	0.00e+00	0	46	0	985661440	60	16720
2026-01-29 23:28:16.76	213.43	57.40	-50.6	-51.8	22.0	0.00e+00	0	46	0	989855744	60	14823
2026-01-29 23:28:17.77	213.34	57.01	-50.5	-51.6	22.4	0.00e+00	0	46	0	993001472	60	14496
2026-01-29 23:28:18.78	213.24	56.62	-51.0	-52.2	22.2	0.00e+00	0	46	0	996147200	60	15444
2026-01-29 23:28:19.78	213.15	56.24	-51.9	-53.1	21.6	0.00e+00	0	46	0	999292928	60	17274
2026-01-29 23:28:20.79	213.07	55.86	-52.5	-53.8	21.0	0.00e+00	0	46	0	1002438656	60	18613
2026-01-29 23:28:21.80	212.98	55.48	-53.2	-54.7	20.2	0.00e+00	0	46	0	1005584384	60	20613
2026-01-29 23:28:22.79	212.90	55.11	-53.8	-55.4	19.5	0.00e+00	0	46	0	1008730112	60	22432
2026-01-29 23:28:23.80	212.82	54.73	-54.5	-56.2	18.9	0.00e+00	0	46	0	1011875840	60	24507
2026-01-29 23:28:24.81	212.74	54.36	-54.2	-55.8	19.3	0.00e+00	0	46	0	1015021568	60	23572
2026-01-29 23:28:25.82	212.66	53.99	-53.4	-54.8	20.2	0.00e+00	0	46	0	1018167296	60	20968
2026-01-29 23:28:26.83	212.59	53.62	-52.5	-53.8	20.9	0.00e+00	0	46	0	1021313024	60	18677
2026-01-29 23:28:27.84	212.52	53.26	-51.8	-53.0	21.1	0.00e+00	0	46	0	1024458752	60	17059
2026-01-29 23:28:28.85	212.45	52.90	-51.9	-53.2	20.6	0.00e+00	0	46	0	1026555904	60	17444
2026-01-29 23:28:29.85	212.38	52.54	-52.2	-53.6	20.6	0.00e+00	0	46	0	1029701632	60	18183
2026-01-29 23:28:30.86	212.31	52.19	-52.3	-53.6	20.9	0.00e+00	0	46	0	1033895936	60	18183
2026-01-29 23:28:31.87	212.24	51.83	-52.9	-54.3	20.3	0.00e+00	0	46	0	1037041664	60	19782
2026-01-29 23:28:32.88	212.18	51.48	-53.8	-55.4	19.2	0.00e+00	0	46	0	1040187392	60	22340
2026-01-29 23:28:33.88	212.12	51.13	-54.2	-56.0	18.6	0.00e+00	0	46	0	1043333120	60	23925
2026-01-29 23:28:34.89	212.06	50.79	-54.0	-55.6	19.1	0.00e+00	0	46	0	1046478848	60	22956
2026-01-29 23:28:35.90	212.00	50.44	-53.5	-55.0	19.7	0.00e+00	0	46	0	1049624576	60	21442
2026-01-29 23:28:36.91	211.94	50.10	-53.4	-54.9	19.7	0.00e+00	0	46	0	1052770304	60	21031
2026-01-29 23:28:37.91	211.88	49.77	-53.4	-54.9	19.8	0.00e+00	0	46	0	1055916032	60	21042
2026-01-29 23:28:38.92	211.83	49.43	-53.6	-55.1	19.6	0.00e+00	0	46	0	1059061760	60	21688
2026-01-29 23:28:39.93	211.78	49.10	-53.5	-55.1	19.5	0.00e+00	0	46	0	1062207488	60	21564
2026-01-29 23:28:40.93	211.72	48.77	-53.3	-54.9	19.5	0.00e+00	0	46	0	1065353216	60	21063
2026-01-29 23:28:41.94	211.67	48.44	-53.0	-54.5	19.7	0.00e+00	0	46	0	1068498944	60	20093
2026-01-29 23:28:42.94	211.62	48.11	-53.0	-54.5	19.8	0.00e+00	0	46	0	1071644672	60	20179
2026-01-29 23:28:43.94	211.57	47.79	-53.0	-54.4	20.2	0.00e+00	0	46	0	1073741824	60	19982
2026-01-29 23:28:44.95	211.52	47.47	-52.8	-54.2	20.4	0.00e+00	0	46	0	1076887552	60	19510
2026-01-29 23:28:45.95	211.48	47.15	-52.9	-54.4	20.3	0.00e+00	0	46	0	1080033280	60	19865
2026-01-29 23:28:46.96	211.43	46.84	-53.5	-55.0	19.7	0.00e+00	0	46	0	1084227584	60	21422
2026-01-29 23:28:47.97	211.39	46.52	-53.9	-55.5	19.1	0.00e+00	0	46	0	1087373312	60	22738
2026-01-29 23:28:48.97	211.34	46.21	-54.1	-55.7	18.9	0.00e+00	0	46	0	1090519040	60	23215
2026-01-29 23:28:49.98	211.30	45.90	-54.3	-56.0	18.5	0.00e+00	0	46	0	1093664768	60	24044
2026-01-29 23:28:50.99	211.26	45.59	-54.5	-56.3	18.3	0.00e+00	0	46	0	1096810496	60	24913
2026-01-29 23:28:52.00	211.21	45.29	-54.5	-56.3	18.3	0.00e+00	0	46	0	1099956224	60	24876
2026-01-29 23:28:53.00	211.17	44.99	-54.6	-56.3	18.3	0.00e+00	0	46	0	1103101952	60	24872
2026-01-29 23:28:54.00	211.14	44.69	-55.0	-56.8	17.8	0.00e+00	0	46	0	1106247680	60	26457
2026-01-29 23:28:55.01	211.10	44.39	-55.2	-57.2	17.6	0.00e+00	0	46	0	1109393408	60	27418
2026-01-29 23:28:56.02	211.06	44.09	-54.8	-56.7	18.0	0.00e+00	0	46	0	1112539136	60	25928
2026-01-29 23:28:57.03	211.02	43.80	-54.5	-56.3	18.1	0.00e+00	0	46	0	1115684864	60	24967
2026-01-29 23:28:58.03	210.98	43.51	-54.4	-56.1	18.3	0.00e+00	0	46	0	1118830592	60	24402
2026-01-29 23:28:59.04	210.95	43.22	-54.1	-55.8	18.6	0.00e+00	0	46	0	1120927744	60	23357
2026-01-29 23:29:00.05	210.91	42.93	-53.8	-55.4	19.0	0.00e+00	0	46	0	1124073472	60	22340
2026-01-29 23:29:01.06	210.88	42.65	-53.7	-55.3	19.0	0.00e+00	0	46	0	1128267776	60	22127
2026-01-29 23:29:02.07	210.84	42.36	-53.6	-55.1	19.2	0.00e+00	0	46	0	1131413504	60	21721
2026-01-29 23:29:03.07	210.81	42.09	-53.9	-55.5	18.8	0.00e+00	0	46	0	1134559232	60	22541
2026-01-29 23:29:04.08	210.78	41.81	-54.3	-56.0	18.3	0.00e+00	0	46	0	1137704960	60	24042
2026-01-29 23:29:05.08	210.75	41.53	-55.0	-56.9	17.6	0.00e+00	0	46	0	1140850688	60	26635
2026-01-29 23:29:06.09	210.72	41.26	-55.8	-58.0	16.5	0.00e+00	0	46	0	1143996416	60	30265
2026-01-29 23:29:07.10	210.68	40.98	-56.1	-58.3	16.4	0.00e+00	0	46	0	1147142144	60	31373
2026-01-29 23:29:08.10	210.65	40.71	-56.2	-58.5	16.1	0.00e+00	0	46	0	1150287872	60	32135
2026-01-29 23:29:09.11	210.63	40.45	-55.5	-57.6	17.0	0.00e+00	0	46	0	1153433600	60	28817
2026-01-29 23:29:10.11	210.60	40.18	-54.9	-56.8	17.9	0.00e+00	0	46	0	1156579328	60	26246
2026-01-29 23:29:10.94	210.57	39.96	-54.5	-56.2	18.4	0.00e+00	0	46	0	1159725056	60	24540
2026-01-29 23:29:12.10	210.54	39.66	-54.3	-56.0	18.4	0.00e+00	0	46	0	1162870784	60	23962
2026-01-29 23:29:12.96	210.52	39.44	-54.6	-56.3	18.3	0.00e+00	0	46	0	1166016512	60	24908
2026-01-29 23:29:14.11	210.49	39.14	-54.4	-56.1	18.3	0.00e+00	0	46	0	1169162240	60	24318
2026-01-29 23:29:14.97	210.46	38.92	-53.9	-55.5	18.9	0.00e+00	0	46	0	1171259392	60	22616
2026-01-29 23:29:16.13	210.43	38.63	-53.3	-54.9	19.6	0.00e+00	0	46	0	1175453696	60	21038
2026-01-29 23:29:16.99	210.41	38.41	-53.2	-54.7	19.6	0.00e+00	0	46	0	1178599424	60	20640
2026-01-29 23:29:18.14	210.38	38.13	-53.2	-54.8	19.5	0.00e+00	0	46	0	1181745152	60	20827
2026-01-29 23:29:19.00	210.36	37.91	-53.1	-54.6	19.6	0.00e+00	0	46	0	1184890880	60	20508
2026-01-29 23:29:20.16	210.33	37.63	-52.6	-54.0	20.0	0.00e+00	0	46	0	1188036608	60	19133
2026-01-29 23:29:21.02	210.31	37.42	-52.2	-53.6	20.3	0.00e+00	0	46	0	1191182336	60	18311
2026-01-29 23:29:22.16	210.29	37.14	-52.1	-53.5	20.4	0.00e+00	0	46	0	1194328064	60	17997
2026-01-29 23:29:23.03	210.27	36.93	-51.9	-53.2	20.5	0.00e+00	0	46	0	1197473792	60	17454
2026-01-29 23:29:24.17	210.24	36.66	-51.8	-53.2	20.6	0.00e+00	0	46	0	1200619520	60	17467
2026-01-29 23:29:25.03	210.22	36.46	-51.8	-53.2	20.6	0.00e+00	0	46	0	1203765248	60	17328
2026-01-29 23:29:26.18	210.20	36.19	-51.9	-53.2	20.8	0.00e+00	0	46	0	1206910976	60	17434
2026-01-29 23:29:27.04	210.18	35.99	-51.6	-52.9	21.0	0.00e+00	0	46	0	1210056704	60	16777
2026-01-29 23:29:28.19	210.15	35.72	-51.6	-53.0	20.9	0.00e+00	0	46	0	1213202432	60	16936
2026-01-29 23:29:29.05	210.14	35.52	-51.6	-53.0	20.8	0.00e+00	0	46	0	1215299584	60	16930
2026-01-29 23:29:30.21	210.11	35.26	-51.7	-53.0	20.8	0.00e+00	0	46	0	1219493888	60	17012
2026-01-29 23:29:31.07	210.09	35.06	-51.8	-53.1	20.7	0.00e+00	0	46	0	1221591040	60	17167
2026-01-29 23:29:32.22	210.07	34.80	-51.7	-53.0	20.6	0.00e+00	0	46	0	1225785344	60	17062
2026-01-29 23:29:33.09	210.05	34.61	-51.7	-53.1	20.6	0.00e+00	0	46	0	1228931072	60	17108
2026-01-29 23:29:34.24	210.03	34.35	-51.7	-53.0	20.7	0.00e+00	0	46	0	1232076800	60	17056
2026-01-29 23:29:35.10	210.02	34.16	-51.2	-52.5	21.2	0.00e+00	0	46	0	1235222528	60	16103
2026-01-29 23:29:36.25	210.00	33.91	-51.1	-52.4	21.2	0.00e+00	0	46	0	1238368256	60	15809
2026-01-29 23:29:37.11	209.98	33.73	-51.2	-52.5	21.1	0.00e+00	0	46	0	1241513984	60	15996
2026-01-29 23:29:38.26	209.96	33.48	-51.1	-52.4	21.2	0.00e+00	0	46	0	1244659712	60	15889
2026-01-29 23:29:39.12	209.94	33.29	-51.1	-52.3	21.2	0.00e+00	0	46	0	1247805440	60	15762
2026-01-29 23:29:40.28	209.92	33.05	-51.2	-52.5	21.2	0.00e+00	0	46	0	1250951168	60	16075
2026-01-29 23:29:41.14	209.91	32.86	-51.2	-52.5	21.3	0.00e+00	0	46	0	1254096896	60	16041
2026-01-29 23:29:42.29	209.89	32.62	-51.3	-52.6	21.3	0.00e+00	0	46	0	1257242624	60	16238
2026-01-29 23:29:43.15	209.88	32.44	-51.3	-52.6	21.4	0.00e+00	0	46	0	1260388352	60	16321
2026-01-29 23:29:44.30	209.86	32.21	-51.2	-52.5	21.5	0.00e+00	0	46	0	1263534080	60	16037
2026-01-29 23:29:45.16	209.84	32.03	-51.1	-52.4	21.6	0.00e+00	0	46	0	1265631232	60	15876
2026-01-29 23:29:46.31	209.82	31.79	-51.2	-52.4	21.5	0.00e+00	0	46	0	1269825536	60	15900
2026-01-29 23:29:47.17	209.81	31.62	-51.3	-52.5	21.4	0.00e+00	0	46	0	1271922688	60	16095
2026-01-29 23:29:48.33	209.79	31.39	-51.3	-52.6	21.3	0.00e+00	0	46	0	1276116992	60	16293
2026-01-29 23:29:49.19	209.78	31.21	-51.5	-52.8	21.1	0.00e+00	0	46	0	1279262720	60	16628
2026-01-29 23:29:50.34	209.76	30.99	-51.7	-53.0	21.0	0.00e+00	0	46	0	1282408448	60	17020
2026-01-29 23:29:51.21	209.75	30.82	-51.7	-53.1	20.9	0.00e+00	0	46	0	1285554176	60	17152
2026-01-29 23:29:52.36	209.73	30.59	-51.8	-53.2	20.7	0.00e+00	0	46	0	1288699904	60	17445
2026-01-29 23:29:53.22	209.72	30.42	-51.9	-53.4	20.6	0.00e+00	0	46	0	1291845632	60	17712
2026-01-29 23:29:54.37	209.71	30.20	-52.1	-53.5	20.5	0.00e+00	0	46	0	1294991360	60	18069
2026-01-29 23:29:55.23	209.69	30.04	-52.3	-53.7	20.3	0.00e+00	0	46	0	1298137088	60	18450
2026-01-29 23:29:56.38	209.68	29.82	-52.3	-53.7	20.3	0.00e+00	0	46	0	1301282816	60	18522
2026-01-29 23:29:57.25	209.67	29.65	-52.4	-53.9	20.2	0.00e+00	0	46	0	1304428544	60	18812
2026-01-29 23:29:58.40	209.65	29.44	-52.1	-53.5	20.4	0.00e+00	0	46	0	1307574272	60	18079
2026-01-29 23:29:59.26	209.64	29.27	-52.1	-53.5	20.4	0.00e+00	0	46	0	1310720000	60	18075
2026-01-29 23:30:00.41	209.63	29.06	-51.8	-53.3	20.5	0.00e+00	0	46	0	1313865728	60	17494
2026-01-29 23:30:01.27	209.61	28.90	-52.0	-53.4	20.2	0.00e+00	0	46	0	1315962880	60	17813
2026-01-29 23:30:02.42	209.60	28.69	-51.9	-53.4	20.2	0.00e+00	0	46	0	1320157184	60	17698
2026-01-29 23:30:03.28	209.59	28.54	-51.7	-53.2	20.3	0.00e+00	0	46	0	1323302912	60	17410
2026-01-29 23:30:04.42	209.58	28.33	-51.7	-53.2	20.3	0.00e+00	0	46	0	1326448640	60	17384
2026-01-29 23:30:05.29	209.57	28.17	-51.7	-53.1	20.4	0.00e+00	0	46	0	1329594368	60	17206
2026-01-29 23:30:06.44	209.55	27.97	-51.9	-53.3	20.4	0.00e+00	0	46	0	1332740096	60	17627
2026-01-29 23:30:07.30	209.54	27.81	-51.8	-53.2	20.3	0.00e+00	0	46	0	1335885824	60	17380
2026-01-29 23:30:08.45	209.53	27.61	-51.9	-53.4	20.2	0.00e+00	0	46	0	1339031552	60	17744
2026-01-29 23:30:09.31	209.52	27.46	-52.1	-53.6	20.0	0.00e+00	0	46	0	1342177280	60	18284
2026-01-29 23:30:10.46	209.51	27.26	-52.2	-53.7	19.8	0.00e+00	0	46	0	1345323008	60	18432
2026-01-29 23:30:11.33	209.50	27.11	-52.3	-53.9	19.7	0.00e+00	0	46	0	1348468736	60	18761
2026-01-29 23:30:12.47	209.48	26.92	-52.4	-54.0	19.6	0.00e+00	0	46	0	1351614464	60	18974
2026-01-29 23:30:13.34	209.48	26.77	-52.4	-53.9	19.6	0.00e+00	0	46	0	1354760192	60	18866
2026-01-29 23:30:14.48	209.46	26.57	-52.6	-54.2	19.5	0.00e+00	0	46	0	1357905920	60	19477
2026-01-29 23:30:15.35	209.45	26.43	-52.8	-54.4	19.3	0.00e+00	0	46	0	1360003072	60	19977
2026-01-29 23:30:16.50	209.44	26.23	-53.2	-54.8	19.0	0.00e+00	0	46	0	1364197376	60	20963
2026-01-29 23:30:17.37	209.43	26.09	-53.1	-54.8	18.9	0.00e+00	0	46	0	1366294528	60	20827
2026-01-29 23:30:18.52	209.42	25.90	-53.3	-55.0	18.8	0.00e+00	0	46	0	1370488832	60	21367
2026-01-29 23:30:19.38	209.41	25.76	-53.3	-55.0	18.8	0.00e+00	0	46	0	1373634560	60	21427
2026-01-29 23:30:20.54	209.40	25.57	-52.9	-54.5	19.2	0.00e+00	0	46	0	1376780288	60	20232
2026-01-29 23:30:21.40	209.40	25.43	-53.0	-54.6	19.2	0.00e+00	0	46	0	1379926016	60	20316
2026-01-29 23:30:22.55	209.38	25.24	-53.1	-54.7	19.0	0.00e+00	0	46	0	1383071744	60	20732
2026-01-29 23:30:23.41	209.38	25.10	-53.3	-54.9	18.7	0.00e+00	0	46	0	1386217472	60	21232
2026-01-29 23:30:24.56	209.37	24.92	-53.6	-55.3	18.6	0.00e+00	0	46	0	1389363200	60	22125
2026-01-29 23:30:25.43	209.36	24.78	-53.6	-55.3	18.6	0.00e+00	0	46	0	1392508928	60	22134
2026-01-29 23:30:26.58	209.35	24.60	-53.7	-55.4	18.4	0.00e+00	0	46	0	1395654656	60	22418
2026-01-29 23:30:27.44	209.34	24.47	-53.5	-55.2	18.6	0.00e+00	0	46	0	1398800384	60	21893
2026-01-29 23:30:28.58	209.33	24.29	-53.3	-55.0	18.8	0.00e+00	0	46	0	1401946112	60	21283
2026-01-29 23:30:29.45	209.32	24.16	-52.9	-54.6	19.2	0.00e+00	0	46	0	1405091840	60	20314
2026-01-29 23:30:30.60	209.31	23.98	-51.9	-53.3	20.3	0.00e+00	0	46	0	1408237568	60	17541
2026-01-29 23:30:31.46	209.31	23.85	-51.3	-52.7	20.7	0.00e+00	0	46	0	1410334720	60	16390
2026-01-29 23:30:32.61	209.30	23.67	-50.5	-51.8	21.4	0.00e+00	0	46	0	1414529024	60	14755
2026-01-29 23:30:33.47	209.29	23.54	-50.1	-51.3	21.7	0.00e+00	0	46	0	1416626176	60	13974
2026-01-29 23:30:34.62	209.28	23.37	-49.8	-51.0	21.9	0.00e+00	0	46	0	1420820480	60	13431
2026-01-29 23:30:35.48	209.27	23.24	-49.8	-51.0	21.9	0.00e+00	0	46	0	1423966208	60	13537
2026-01-29 23:30:36.63	209.27	23.07	-49.8	-51.0	21.8	0.00e+00	0	46	0	1427111936	60	13540
2026-01-29 23:30:37.49	209.26	22.94	-49.8	-51.0	21.8	0.00e+00	0	46	0	1430257664	60	13532
2026-01-29 23:30:38.64	209.25	22.77	-49.8	-51.0	21.9	0.00e+00	0	46	0	1433403392	60	13485
2026-01-29 23:30:39.50	209.24	22.65	-49.7	-51.0	21.9	0.00e+00	0	46	0	1436549120	60	13428
2026-01-29 23:30:40.65	209.24	22.48	-49.8	-51.0	21.9	0.00e+00	0	46	0	1439694848	60	13478
2026-01-29 23:30:41.51	209.23	22.36	-49.8	-51.0	22.0	0.00e+00	0	46	0	1442840576	60	13563
2026-01-29 23:30:42.67	209.22	22.19	-49.7	-51.0	21.9	0.00e+00	0	46	0	1445986304	60	13440
2026-01-29 23:30:43.52	209.22	22.07	-49.8	-51.0	21.8	0.00e+00	0	46	0	1449132032	60	13470
2026-01-29 23:30:44.67	209.21	21.91	-49.9	-51.2	21.7	0.00e+00	0	46	0	1452277760	60	13765
2026-01-29 23:30:45.53	209.20	21.79	-50.0	-51.2	21.7	0.00e+00	0	46	0	1454374912	60	13833
2026-01-29 23:30:46.68	209.19	21.62	-50.0	-51.3	21.5	0.00e+00	0	46	0	1458569216	60	13912
2026-01-29 23:30:47.54	209.19	21.50	-50.1	-51.4	21.4	0.00e+00	0	46	0	1460666368	60	14157
2026-01-29 23:30:48.69	209.18	21.34	-50.2	-51.5	21.5	0.00e+00	0	46	0	1464860672	60	14298
2026-01-29 23:30:49.56	209.18	21.22	-50.3	-51.6	21.3	0.00e+00	0	46	0	1466957824	60	14399
2026-01-29 23:30:50.71	209.17	21.07	-50.5	-51.8	21.2	0.00e+00	0	46	0	1471152128	60	14757
2026-01-29 23:30:51.56	209.16	20.95	-50.6	-52.0	20.9	0.00e+00	0	46	0	1473249280	60	15065
2026-01-29 23:30:52.71	209.16	20.79	-50.9	-52.3	20.5	0.00e+00	0	46	0	1477443584	60	15650
