passes_logs/2026/01/29/R3.2S-Naryan-Mar/R3.2S-Naryan-Mar__20260129_224932_AQUA_rec.log

#Pass ID: 20260129_224932_AQUA
#Satellite: AQUA
#Configuration: AQUA
#almurnet v.1.7.20240730
#Start time: 2026-01-29 22:49:35

#Version: 2.2.20231116
#Station: R3.2S-Naryan-Mar
#Location: 53.008057 lon 67.646978 lat
#TLE: 1 27424U 02022A   26028.91948147  .00001781  00000+0  36607-3 0  9997
#TLE: 2 27424  98.4103 355.5827 0001815  62.4290   1.4641 14.61871847262923

#Time	Az	El	Level	Level2	SNR	BER	BlckErr	Temp	State	Recorded	gain1	gain2
2026-01-29 22:49:35.39	19.24	0.15	-53.4	-75.5	3.2	3.02e+01	0	45	0	0	60	227893
2026-01-29 22:49:36.38	19.31	0.21	-53.4	-76.9	3.5	3.02e+01	0	45	104	0	60	266755
2026-01-29 22:49:37.39	19.38	0.26	-53.4	-77.0	3.5	3.02e+01	0	45	104	0	60	269327
2026-01-29 22:49:38.40	19.45	0.31	-53.4	-77.0	3.5	3.02e+01	0	45	104	0	60	268108
2026-01-29 22:49:39.40	19.52	0.37	-53.5	-77.0	3.5	3.02e+01	0	45	104	0	60	267997
2026-01-29 22:49:40.41	19.60	0.42	-53.6	-77.1	3.5	3.02e+01	0	45	104	0	60	271105
2026-01-29 22:49:41.42	19.67	0.48	-53.7	-77.0	3.5	3.02e+01	0	45	104	0	60	268208
2026-01-29 22:49:42.42	19.74	0.53	-53.9	-77.0	3.5	3.02e+01	0	45	104	0	60	268429
2026-01-29 22:49:43.43	19.81	0.59	-54.0	-77.0	3.5	3.02e+01	0	45	104	0	60	268064
2026-01-29 22:49:44.42	19.89	0.64	-54.2	-77.0	3.5	3.02e+01	0	45	104	0	60	269436
2026-01-29 22:49:45.42	19.96	0.69	-54.3	-76.9	3.5	3.02e+01	0	45	104	0	60	267424
2026-01-29 22:49:46.43	20.03	0.75	-54.5	-76.9	3.5	3.02e+01	0	45	104	0	60	267262
2026-01-29 22:49:47.43	20.11	0.80	-54.6	-77.0	3.5	3.02e+01	0	45	104	0	60	267974
2026-01-29 22:49:48.44	20.18	0.86	-54.8	-77.0	3.5	3.02e+01	0	45	104	0	60	268616
2026-01-29 22:49:49.44	20.25	0.91	-54.9	-76.9	3.5	3.02e+01	0	45	104	0	60	267536
2026-01-29 22:49:50.45	20.33	0.97	-55.0	-77.1	3.5	3.02e+01	0	45	104	0	60	271498
2026-01-29 22:49:51.46	20.41	1.02	-55.0	-77.0	3.5	3.02e+01	0	45	104	0	60	269801
2026-01-29 22:49:52.47	20.48	1.08	-55.1	-77.0	3.5	3.02e+01	0	45	104	0	60	267828
2026-01-29 22:49:53.48	20.56	1.13	-55.1	-76.9	3.5	3.02e+01	0	45	104	0	60	266132
2026-01-29 22:49:54.48	20.63	1.19	-55.2	-76.9	3.5	3.02e+01	0	45	104	0	60	265104
2026-01-29 22:49:55.49	20.71	1.24	-55.1	-77.0	3.5	3.02e+01	0	45	104	0	60	270045
2026-01-29 22:49:56.49	20.78	1.30	-55.1	-77.0	3.5	3.02e+01	0	45	104	0	60	269760
2026-01-29 22:49:57.50	20.86	1.36	-55.1	-77.0	3.5	3.02e+01	0	45	104	0	60	268639
2026-01-29 22:49:58.51	20.94	1.41	-55.2	-76.9	3.5	3.02e+01	0	45	104	0	60	266274
2026-01-29 22:49:59.51	21.02	1.47	-55.2	-77.0	3.5	3.02e+01	0	45	104	0	60	270537
2026-01-29 22:50:00.51	21.09	1.52	-55.3	-76.8	3.5	3.02e+01	0	45	104	0	60	264277
2026-01-29 22:50:01.52	21.17	1.58	-55.2	-76.8	3.5	3.02e+01	0	45	104	0	60	264633
2026-01-29 22:50:02.52	21.25	1.63	-55.3	-77.0	3.5	3.02e+01	0	45	104	0	60	268139
2026-01-29 22:50:03.53	21.33	1.69	-55.3	-76.9	3.5	3.02e+01	0	45	104	0	60	265129
2026-01-29 22:50:04.54	21.41	1.75	-55.4	-76.8	3.5	3.02e+01	0	45	104	0	60	264513
2026-01-29 22:50:05.55	21.49	1.80	-55.5	-76.9	3.5	3.02e+01	0	45	104	0	60	267036
2026-01-29 22:50:06.56	21.57	1.86	-55.6	-76.9	3.5	3.02e+01	0	45	104	0	60	265816
2026-01-29 22:50:07.56	21.65	1.92	-55.6	-77.0	3.5	3.02e+01	0	45	104	0	60	268843
2026-01-29 22:50:08.57	21.73	1.97	-55.6	-76.8	3.5	3.02e+01	0	45	104	0	60	264145
2026-01-29 22:50:09.57	21.81	2.03	-55.7	-76.9	3.5	3.02e+01	0	45	104	0	60	266971
2026-01-29 22:50:10.58	21.89	2.09	-55.7	-76.9	3.5	3.02e+01	0	45	104	0	60	267002
2026-01-29 22:50:11.59	21.97	2.14	-55.6	-76.9	3.5	3.02e+01	0	45	104	0	60	266325
2026-01-29 22:50:12.59	22.05	2.20	-55.6	-76.8	3.5	3.02e+01	0	45	104	0	60	263797
2026-01-29 22:50:13.60	22.13	2.26	-55.5	-76.9	3.5	3.02e+01	0	45	104	0	60	266657
2026-01-29 22:50:14.60	22.21	2.31	-55.3	-76.9	3.5	3.02e+01	0	45	104	0	60	265294
2026-01-29 22:50:15.61	22.30	2.37	-55.3	-76.9	3.5	3.02e+01	0	45	104	0	60	266889
2026-01-29 22:50:16.62	22.38	2.43	-55.1	-76.9	3.5	3.02e+01	0	45	104	0	60	264912
2026-01-29 22:50:17.62	22.46	2.48	-54.9	-76.8	3.5	3.02e+01	0	45	104	0	60	264145
2026-01-29 22:50:18.63	22.55	2.54	-54.8	-76.9	3.5	3.02e+01	0	45	104	0	60	267313
2026-01-29 22:50:19.63	22.63	2.60	-54.7	-76.9	3.5	3.02e+01	0	46	104	0	60	265224
2026-01-29 22:50:20.64	22.71	2.66	-54.6	-76.9	3.5	3.02e+01	0	45	104	0	60	265152
2026-01-29 22:50:21.64	22.80	2.71	-54.6	-76.9	3.5	3.02e+01	0	45	104	0	60	265898
2026-01-29 22:50:22.64	22.88	2.77	-54.5	-76.9	3.5	3.02e+01	0	45	104	0	60	266843
2026-01-29 22:50:23.65	22.97	2.83	-54.4	-77.0	3.5	3.02e+01	0	45	104	0	60	268400
2026-01-29 22:50:24.66	23.05	2.89	-54.5	-76.9	3.5	3.02e+01	0	45	104	0	60	267051
2026-01-29 22:50:25.66	23.14	2.94	-54.4	-76.9	3.5	3.02e+01	0	46	104	0	60	267072
2026-01-29 22:50:26.67	23.23	3.00	-54.3	-76.8	3.5	3.02e+01	0	45	104	0	60	264498
2026-01-29 22:50:27.67	23.31	3.06	-54.3	-77.0	3.5	3.02e+01	0	45	104	0	60	268392
2026-01-29 22:50:28.68	23.40	3.12	-54.2	-76.9	3.5	3.02e+01	0	45	104	0	60	265584
2026-01-29 22:50:29.69	23.49	3.18	-54.2	-76.9	3.5	3.02e+01	0	45	104	0	60	265988
2026-01-29 22:50:30.69	23.57	3.24	-54.3	-76.9	3.5	3.02e+01	0	45	104	0	60	266052
2026-01-29 22:50:31.70	23.66	3.29	-54.2	-76.9	3.5	3.02e+01	0	45	104	0	60	266389
2026-01-29 22:50:32.71	23.75	3.35	-54.1	-76.8	3.5	3.02e+01	0	45	104	0	60	264194
2026-01-29 22:50:33.72	23.84	3.41	-54.1	-76.9	3.5	3.02e+01	0	46	104	0	60	267531
2026-01-29 22:50:34.72	23.93	3.47	-54.0	-76.9	3.5	3.02e+01	0	46	104	0	60	267319
2026-01-29 22:50:35.73	24.02	3.53	-54.0	-77.0	3.5	3.02e+01	0	46	104	0	60	268448
2026-01-29 22:50:36.73	24.11	3.59	-54.0	-76.8	3.5	3.02e+01	0	45	104	0	60	264562
2026-01-29 22:50:37.74	24.20	3.65	-53.9	-76.9	3.5	3.02e+01	0	46	104	0	60	266906
2026-01-29 22:50:38.75	24.29	3.71	-53.8	-76.9	3.5	3.02e+01	0	46	104	0	60	267731
2026-01-29 22:50:39.76	24.38	3.77	-53.9	-76.9	3.5	3.02e+01	0	46	104	0	60	265764
2026-01-29 22:50:40.77	24.47	3.83	-53.7	-77.0	3.5	3.02e+01	0	46	104	0	60	268219
2026-01-29 22:50:41.77	24.56	3.88	-53.6	-77.0	3.5	3.02e+01	0	45	104	0	60	267884
2026-01-29 22:50:42.77	24.65	3.94	-53.7	-77.0	3.5	3.02e+01	0	46	104	0	60	268289
2026-01-29 22:50:43.78	24.75	4.00	-53.8	-77.0	3.5	3.02e+01	0	46	104	0	60	268162
2026-01-29 22:50:44.79	24.84	4.06	-53.8	-77.0	3.5	3.02e+01	0	46	104	0	60	270682
2026-01-29 22:50:45.80	24.93	4.12	-53.9	-77.0	3.5	3.02e+01	0	45	104	0	60	268044
2026-01-29 22:50:46.80	25.03	4.18	-53.9	-77.0	3.5	3.02e+01	0	46	104	0	60	270715
2026-01-29 22:50:47.81	25.12	4.24	-54.2	-76.9	3.5	3.02e+01	0	46	104	0	60	267484
2026-01-29 22:50:48.81	25.21	4.30	-54.4	-77.0	3.5	3.02e+01	0	46	104	0	60	269358
2026-01-29 22:50:49.81	25.31	4.36	-54.5	-76.9	3.5	3.02e+01	0	46	104	0	60	265766
2026-01-29 22:50:50.82	25.40	4.42	-54.6	-77.0	3.5	3.02e+01	0	46	104	0	60	268504
2026-01-29 22:50:51.82	25.50	4.48	-54.8	-77.0	3.5	3.02e+01	0	46	104	0	60	268415
2026-01-29 22:50:52.82	25.59	4.54	-55.0	-76.9	3.5	3.02e+01	0	46	104	0	60	267599
2026-01-29 22:50:53.83	25.69	4.60	-55.1	-76.9	3.5	3.02e+01	0	46	104	0	60	266619
2026-01-29 22:50:54.84	25.79	4.66	-55.3	-77.0	3.5	3.02e+01	0	46	104	0	60	268984
2026-01-29 22:50:55.84	25.89	4.72	-55.5	-76.9	3.5	3.02e+01	0	46	104	0	60	267701
2026-01-29 22:50:56.85	25.98	4.78	-55.7	-77.0	3.5	3.02e+01	0	46	104	0	60	268684
2026-01-29 22:50:57.86	26.08	4.85	-55.9	-77.0	3.5	3.02e+01	0	46	104	0	60	270007
2026-01-29 22:50:58.87	26.18	4.91	-56.1	-76.9	3.5	3.02e+01	0	46	104	0	60	267630
2026-01-29 22:50:59.88	26.28	4.97	-56.2	-76.9	3.5	3.02e+01	0	46	104	0	60	265510
2026-01-29 22:51:00.88	26.38	5.03	-56.3	-77.0	3.5	3.02e+01	0	46	104	0	60	269227
2026-01-29 22:51:01.89	26.48	5.09	-56.4	-77.0	3.5	3.02e+01	0	46	104	0	60	270578
2026-01-29 22:51:02.90	26.58	5.15	-56.4	-77.0	3.5	3.02e+01	0	46	104	0	60	268506
2026-01-29 22:51:03.91	26.68	5.21	-56.5	-76.9	3.5	3.02e+01	0	46	104	0	60	266733
2026-01-29 22:51:04.92	26.78	5.28	-56.5	-76.9	3.5	3.02e+01	0	46	104	0	60	267491
2026-01-29 22:51:05.92	26.88	5.34	-56.5	-77.0	3.5	3.02e+01	0	46	104	0	60	267892
2026-01-29 22:51:06.93	26.99	5.40	-56.6	-76.9	3.5	3.02e+01	0	46	104	0	60	267183
2026-01-29 22:51:07.94	27.09	5.46	-56.6	-76.9	3.5	3.02e+01	0	46	104	0	60	267727
2026-01-29 22:51:08.95	27.19	5.52	-56.6	-76.9	3.5	3.02e+01	0	46	104	0	60	265769
2026-01-29 22:51:09.95	27.30	5.58	-56.7	-77.1	3.5	3.02e+01	0	46	104	0	60	270995
2026-01-29 22:51:10.95	27.40	5.65	-56.7	-76.9	3.5	3.02e+01	0	46	104	0	60	266665
2026-01-29 22:51:11.96	27.50	5.71	-56.7	-76.9	3.5	3.02e+01	0	46	104	0	60	267118
2026-01-29 22:51:12.97	27.61	5.77	-56.7	-77.0	3.5	3.02e+01	0	46	104	0	60	269332
2026-01-29 22:51:13.97	27.71	5.83	-56.8	-76.9	3.5	3.02e+01	0	46	104	0	60	266778
2026-01-29 22:51:14.98	27.82	5.89	-56.7	-76.9	3.5	3.02e+01	0	46	104	0	60	266461
2026-01-29 22:51:15.99	27.93	5.96	-56.8	-76.9	3.5	3.02e+01	0	46	104	0	60	266201
2026-01-29 22:51:17.00	28.03	6.02	-56.7	-76.9	3.5	3.02e+01	0	46	104	0	60	266774
2026-01-29 22:51:18.01	28.14	6.08	-56.7	-76.8	3.5	3.02e+01	0	46	104	0	60	263260
2026-01-29 22:51:19.02	28.25	6.15	-56.6	-76.8	3.5	3.02e+01	0	46	104	0	60	264497
2026-01-29 22:51:20.02	28.36	6.21	-56.5	-76.8	3.5	3.02e+01	0	46	104	0	60	263235
2026-01-29 22:51:21.03	28.46	6.27	-56.3	-76.9	3.5	3.02e+01	0	46	104	0	60	267407
2026-01-29 22:51:22.03	28.57	6.33	-56.1	-76.9	3.5	3.02e+01	0	46	104	0	60	265983
2026-01-29 22:51:23.04	28.68	6.40	-55.9	-76.9	3.5	3.02e+01	0	46	104	0	60	266808
2026-01-29 22:51:24.05	28.79	6.46	-55.7	-77.0	3.5	3.02e+01	0	46	104	0	60	268296
2026-01-29 22:51:25.05	28.90	6.52	-55.5	-76.9	3.5	3.02e+01	0	46	104	0	60	267600
2026-01-29 22:51:26.06	29.01	6.59	-55.2	-76.9	3.5	3.02e+01	0	46	104	0	60	266413
2026-01-29 22:51:27.06	29.13	6.65	-54.9	-76.8	3.5	3.02e+01	0	46	104	0	60	264161
2026-01-29 22:51:28.07	29.24	6.71	-54.7	-76.9	3.5	3.02e+01	0	45	104	0	60	266264
2026-01-29 22:51:29.08	29.35	6.78	-54.4	-76.7	3.5	3.02e+01	0	46	104	0	60	261618
2026-01-29 22:51:30.08	29.46	6.84	-53.9	-76.7	3.5	3.02e+01	0	46	104	0	60	259332
2026-01-29 22:51:31.09	29.58	6.91	-53.8	-76.8	3.5	3.02e+01	0	46	104	0	60	262897
2026-01-29 22:51:32.10	29.69	6.97	-53.7	-76.8	3.5	3.02e+01	0	46	104	0	60	264414
2026-01-29 22:51:33.11	29.81	7.03	-53.4	-76.7	3.5	3.02e+01	0	46	104	0	60	261314
2026-01-29 22:51:34.12	29.92	7.10	-53.2	-76.6	3.5	3.02e+01	0	46	104	0	60	258366
2026-01-29 22:51:35.12	30.04	7.16	-53.3	-76.9	3.5	3.02e+01	0	46	104	0	60	266281
2026-01-29 22:51:36.13	30.15	7.23	-53.2	-76.8	3.5	3.02e+01	0	46	104	0	60	264677
2026-01-29 22:51:37.14	30.27	7.29	-53.2	-76.8	3.5	3.02e+01	0	46	104	0	60	262410
2026-01-29 22:51:38.15	30.39	7.36	-53.2	-76.8	3.5	3.02e+01	0	46	104	0	60	263111
2026-01-29 22:51:39.16	30.51	7.42	-53.3	-76.8	3.5	3.02e+01	0	46	104	0	60	262411
2026-01-29 22:51:40.16	30.63	7.49	-53.4	-76.9	3.5	3.02e+01	0	46	104	0	60	265589
2026-01-29 22:51:41.17	30.75	7.55	-53.5	-76.8	3.5	3.02e+01	0	46	104	0	60	263739
2026-01-29 22:51:42.18	30.87	7.62	-53.6	-76.8	3.5	3.02e+01	0	46	104	0	60	264451
2026-01-29 22:51:43.19	30.99	7.68	-53.8	-76.8	3.5	3.02e+01	0	46	104	0	60	263417
2026-01-29 22:51:44.20	31.11	7.75	-54.0	-76.9	3.5	3.02e+01	0	46	104	0	60	265267
2026-01-29 22:51:45.20	31.23	7.81	-54.2	-77.0	3.5	3.02e+01	0	46	104	0	60	268022
2026-01-29 22:51:46.21	31.35	7.88	-54.4	-76.9	3.5	3.02e+01	0	46	104	0	60	265790
2026-01-29 22:51:47.22	31.47	7.94	-54.6	-76.8	3.5	3.02e+01	0	46	104	0	60	264594
2026-01-29 22:51:48.23	31.60	8.01	-54.7	-76.9	3.5	3.02e+01	0	46	104	0	60	265844
2026-01-29 22:51:49.23	31.72	8.07	-54.9	-76.9	3.5	3.02e+01	0	46	104	0	60	265896
2026-01-29 22:51:50.24	31.84	8.14	-55.0	-76.9	3.5	3.02e+01	0	46	104	0	60	265570
2026-01-29 22:51:51.24	31.97	8.20	-55.1	-76.8	3.5	3.02e+01	0	46	104	0	60	263888
2026-01-29 22:51:52.25	32.09	8.27	-55.2	-76.8	3.5	3.02e+01	0	46	104	0	60	263040
2026-01-29 22:51:53.26	32.22	8.33	-55.4	-76.9	3.5	3.02e+01	0	46	104	0	60	265839
2026-01-29 22:51:54.27	32.35	8.40	-55.5	-76.9	3.5	3.02e+01	0	46	104	0	60	265339
2026-01-29 22:51:55.28	32.47	8.47	-55.5	-76.9	3.5	3.02e+01	0	46	104	0	60	265287
2026-01-29 22:51:56.28	32.60	8.53	-55.6	-76.9	3.5	3.02e+01	0	46	104	0	60	265537
2026-01-29 22:51:57.29	32.73	8.60	-55.5	-76.8	3.5	3.02e+01	0	46	104	0	60	264534
2026-01-29 22:51:58.30	32.86	8.67	-55.5	-76.9	3.5	3.02e+01	0	46	104	0	60	266716
2026-01-29 22:51:59.31	32.99	8.73	-55.3	-76.8	3.5	3.02e+01	0	46	104	0	60	262238
2026-01-29 22:52:00.32	33.12	8.80	-55.3	-76.8	3.5	3.02e+01	0	46	104	0	60	264194
2026-01-29 22:52:01.32	33.25	8.86	-55.2	-76.9	3.5	3.02e+01	0	46	104	0	60	265581
2026-01-29 22:52:02.33	33.38	8.93	-55.1	-76.8	3.5	3.02e+01	0	46	104	0	60	264435
2026-01-29 22:52:03.34	33.51	9.00	-54.9	-76.9	3.5	3.02e+01	0	46	104	0	60	266584
2026-01-29 22:52:04.34	33.64	9.06	-54.8	-76.9	3.5	3.02e+01	0	46	104	0	60	266044
2026-01-29 22:52:05.35	33.78	9.13	-54.8	-76.9	3.5	3.02e+01	0	46	104	0	60	266665
2026-01-29 22:52:06.36	33.91	9.20	-54.6	-76.8	3.5	3.02e+01	0	46	104	0	60	263737
2026-01-29 22:52:07.37	34.05	9.26	-54.6	-77.0	3.5	3.02e+01	0	46	104	0	60	267867
2026-01-29 22:52:08.37	34.18	9.33	-54.4	-76.8	3.5	3.02e+01	0	46	104	0	60	264401
2026-01-29 22:52:09.38	34.32	9.40	-54.3	-76.8	3.5	3.02e+01	0	46	104	0	60	262813
2026-01-29 22:52:10.39	34.46	9.47	-54.3	-76.9	3.5	3.02e+01	0	46	104	0	60	267074
2026-01-29 22:52:11.40	34.59	9.53	-54.2	-76.9	3.5	3.02e+01	0	46	104	0	60	265180
2026-01-29 22:52:12.40	34.73	9.60	-54.2	-76.9	3.5	3.02e+01	0	46	104	0	60	264890
2026-01-29 22:52:13.40	34.87	9.67	-54.3	-76.8	3.5	3.02e+01	0	46	104	0	60	264360
2026-01-29 22:52:14.40	35.01	9.73	-54.4	-76.9	3.5	3.02e+01	0	46	104	0	60	266521
2026-01-29 22:52:15.41	35.15	9.80	-54.6	-76.9	3.5	3.02e+01	0	46	104	0	60	267316
2026-01-29 22:52:16.42	35.29	9.87	-54.7	-77.0	3.5	3.02e+01	0	46	104	0	60	268083
2026-01-29 22:52:17.43	35.43	9.94	-54.9	-76.9	3.5	3.02e+01	0	46	104	0	60	264751
2026-01-29 22:52:18.44	35.57	10.00	-55.2	-76.8	3.5	3.02e+01	0	46	104	0	60	264577
2026-01-29 22:52:19.44	35.71	10.07	-55.3	-76.8	3.5	3.02e+01	0	46	104	0	60	264103
2026-01-29 22:52:20.45	35.86	10.14	-55.5	-76.9	3.5	3.02e+01	0	46	104	0	60	265969
2026-01-29 22:52:21.46	36.00	10.21	-55.7	-76.9	3.5	3.02e+01	0	46	104	0	60	265655
2026-01-29 22:52:22.46	36.14	10.28	-55.9	-76.9	3.5	3.02e+01	0	46	104	0	60	266765
2026-01-29 22:52:23.47	36.29	10.34	-56.1	-76.9	3.5	3.02e+01	0	46	104	0	60	267618
2026-01-29 22:52:24.48	36.44	10.41	-56.2	-76.9	3.5	3.02e+01	0	46	104	0	60	265105
2026-01-29 22:52:25.48	36.58	10.48	-56.3	-76.9	3.5	3.02e+01	0	46	104	0	60	265435
2026-01-29 22:52:26.49	36.73	10.55	-56.3	-76.9	3.5	3.02e+01	0	46	104	0	60	266635
2026-01-29 22:52:27.50	36.88	10.62	-56.3	-76.9	3.5	3.02e+01	0	46	104	0	60	266249
2026-01-29 22:52:28.50	37.03	10.68	-56.2	-76.9	3.5	3.02e+01	0	46	104	0	60	265951
2026-01-29 22:52:29.51	37.18	10.75	-56.1	-76.9	3.5	3.02e+01	0	46	104	0	60	266127
2026-01-29 22:52:30.51	37.33	10.82	-56.0	-76.9	3.5	3.02e+01	0	46	104	0	60	267303
2026-01-29 22:52:31.51	37.48	10.89	-55.9	-76.9	3.5	3.02e+01	0	46	104	0	60	266768
2026-01-29 22:52:32.52	37.63	10.96	-55.8	-76.9	3.5	3.02e+01	0	46	104	0	60	267671
2026-01-29 22:52:33.53	37.78	11.03	-55.6	-76.9	3.5	3.02e+01	0	46	104	0	60	267155
2026-01-29 22:52:34.53	37.93	11.09	-55.5	-76.9	3.5	3.02e+01	0	46	104	0	60	266385
2026-01-29 22:52:35.54	38.09	11.16	-55.4	-77.0	3.5	3.02e+01	0	46	104	0	60	268529
2026-01-29 22:52:36.55	38.24	11.23	-55.3	-76.9	3.5	3.02e+01	0	46	104	0	60	267705
2026-01-29 22:52:37.55	38.40	11.30	-55.3	-77.0	3.5	3.02e+01	0	46	104	0	60	268255
2026-01-29 22:52:38.56	38.56	11.37	-55.2	-76.9	3.5	3.02e+01	0	46	104	0	60	267434
2026-01-29 22:52:39.57	38.71	11.44	-55.2	-76.9	3.5	3.02e+01	0	46	104	0	60	265528
2026-01-29 22:52:40.57	38.87	11.50	-55.1	-76.8	3.5	3.02e+01	0	46	104	0	60	262430
2026-01-29 22:52:41.57	39.03	11.57	-55.1	-76.8	3.5	3.02e+01	0	46	104	0	60	262222
2026-01-29 22:52:42.58	39.19	11.64	-55.1	-76.6	3.5	3.02e+01	0	46	104	0	60	258332
2026-01-29 22:52:43.58	39.35	11.71	-54.9	-76.5	3.5	3.02e+01	0	46	104	0	60	253507
2026-01-29 22:52:44.59	39.51	11.78	-54.9	-76.5	3.5	3.02e+01	0	46	104	0	60	253398
2026-01-29 22:52:45.60	39.67	11.85	-54.8	-76.4	3.5	3.02e+01	0	46	104	0	60	251284
2026-01-29 22:52:46.60	39.83	11.92	-54.7	-76.4	3.5	3.02e+01	0	46	104	0	60	251864
2026-01-29 22:52:47.60	39.99	11.99	-54.8	-76.6	3.5	3.02e+01	0	46	104	0	60	256379
2026-01-29 22:52:48.60	40.16	12.05	-54.7	-76.7	3.5	3.02e+01	0	46	104	0	60	259896
2026-01-29 22:52:49.61	40.32	12.12	-54.7	-76.8	3.5	3.02e+01	0	46	104	0	60	264264
2026-01-29 22:52:50.62	40.49	12.19	-54.7	-76.7	3.5	3.02e+01	0	46	104	0	60	261659
2026-01-29 22:52:51.62	40.65	12.26	-54.8	-76.7	3.5	3.02e+01	0	46	104	0	60	260750
2026-01-29 22:52:52.63	40.82	12.33	-54.8	-76.8	3.5	3.02e+01	0	46	104	0	60	262529
2026-01-29 22:52:53.64	40.99	12.40	-54.8	-76.8	3.5	3.02e+01	0	46	104	0	60	262858
2026-01-29 22:52:54.65	41.16	12.47	-54.9	-76.8	3.5	3.02e+01	0	46	104	0	60	264379
2026-01-29 22:52:55.65	41.33	12.54	-55.1	-76.8	3.5	3.02e+01	0	46	104	0	60	264339
2026-01-29 22:52:56.66	41.50	12.61	-55.3	-76.8	3.5	3.02e+01	0	46	104	0	60	263978
2026-01-29 22:52:57.67	41.67	12.68	-55.4	-76.9	3.5	3.02e+01	0	46	104	0	60	265485
2026-01-29 22:52:58.67	41.84	12.74	-55.5	-76.8	3.5	3.02e+01	0	46	104	0	60	264264
2026-01-29 22:52:59.68	42.02	12.81	-55.7	-76.8	3.5	3.02e+01	0	46	104	0	60	264063
2026-01-29 22:53:00.68	42.19	12.88	-55.7	-76.9	3.5	3.02e+01	0	46	104	0	60	265349
2026-01-29 22:53:01.69	42.37	12.95	-55.6	-76.8	3.5	3.02e+01	0	46	104	0	60	263166
2026-01-29 22:53:02.69	42.54	13.02	-55.6	-76.8	3.5	3.02e+01	0	46	104	0	60	263373
2026-01-29 22:53:03.70	42.72	13.09	-55.3	-76.8	3.5	3.02e+01	0	46	104	0	60	262464
2026-01-29 22:53:04.70	42.89	13.16	-55.1	-76.8	3.5	3.02e+01	0	46	104	0	60	263574
2026-01-29 22:53:05.71	43.07	13.23	-54.6	-76.8	3.5	3.02e+01	0	46	104	0	60	262907
2026-01-29 22:53:06.72	43.25	13.30	-54.1	-76.7	3.5	3.02e+01	0	46	104	0	60	261407
2026-01-29 22:53:07.71	43.43	13.36	-53.5	-76.8	3.5	3.02e+01	0	46	104	0	60	262043
2026-01-29 22:53:08.72	43.61	13.43	-52.9	-76.7	3.5	3.02e+01	0	46	104	0	60	260687
2026-01-29 22:53:09.73	43.79	13.50	-52.4	-76.7	3.5	3.02e+01	0	46	104	0	60	261583
2026-01-29 22:53:10.74	43.98	13.57	-51.9	-76.8	3.5	3.02e+01	0	46	104	0	60	262754
2026-01-29 22:53:11.74	44.16	13.64	-51.5	-76.7	3.5	3.02e+01	0	46	104	0	60	261469
2026-01-29 22:53:12.75	44.34	13.71	-51.1	-76.7	3.5	3.02e+01	0	46	104	0	60	261455
2026-01-29 22:53:13.75	44.53	13.78	-50.8	-76.7	3.5	3.02e+01	0	46	104	0	60	261245
2026-01-29 22:53:14.76	44.72	13.84	-50.5	-76.6	3.5	3.02e+01	0	46	104	0	60	257598
2026-01-29 22:53:15.77	44.90	13.91	-50.3	-76.7	3.5	3.02e+01	0	46	104	0	60	260280
2026-01-29 22:53:16.78	45.09	13.98	-50.3	-76.6	3.5	3.02e+01	0	46	104	0	60	257602
2026-01-29 22:53:17.78	45.28	14.05	-50.2	-76.7	3.5	3.02e+01	0	46	104	0	60	259791
2026-01-29 22:53:18.78	45.47	14.12	-50.1	-76.6	3.5	3.02e+01	0	46	104	0	60	258400
2026-01-29 22:53:19.79	45.66	14.19	-50.0	-76.7	3.5	3.02e+01	0	46	104	0	60	261488
2026-01-29 22:53:20.80	45.85	14.25	-50.1	-76.9	3.5	3.02e+01	0	46	104	0	60	266156
2026-01-29 22:53:21.80	46.04	14.32	-50.1	-76.8	3.5	3.02e+01	0	46	104	0	60	263031
2026-01-29 22:53:22.81	46.24	14.39	-50.1	-76.6	3.5	3.02e+01	0	46	104	0	60	257133
2026-01-29 22:53:23.81	46.43	14.46	-50.1	-76.5	3.5	3.02e+01	0	46	104	0	60	253447
2026-01-29 22:53:24.82	46.63	14.53	-50.1	-76.4	3.5	3.02e+01	0	46	104	0	60	252593
2026-01-29 22:53:25.82	46.82	14.59	-50.3	-76.6	3.5	3.02e+01	0	46	104	0	60	257449
2026-01-29 22:53:26.83	47.02	14.66	-50.4	-76.8	3.5	3.02e+01	0	46	104	0	60	262148
2026-01-29 22:53:27.84	47.22	14.73	-50.4	-76.8	3.5	3.02e+01	0	46	104	0	60	263517
2026-01-29 22:53:28.85	47.42	14.80	-50.5	-76.7	3.5	3.02e+01	0	46	104	0	60	260090
2026-01-29 22:53:29.86	47.62	14.87	-50.7	-76.7	3.5	3.02e+01	0	46	104	0	60	259653
2026-01-29 22:53:30.87	47.82	14.93	-50.8	-76.7	3.5	3.02e+01	0	46	104	0	60	259557
2026-01-29 22:53:31.88	48.02	15.00	-51.0	-76.6	3.5	3.02e+01	0	46	104	0	60	258580
2026-01-29 22:53:32.88	48.22	15.07	-51.2	-76.8	3.5	3.02e+01	0	46	104	0	60	263649
2026-01-29 22:53:33.89	48.43	15.13	-51.3	-76.8	3.5	3.02e+01	0	46	104	0	60	263404
2026-01-29 22:53:34.90	48.63	15.20	-51.6	-76.8	3.5	3.02e+01	0	46	104	0	60	261726
2026-01-29 22:53:35.90	48.84	15.27	-51.6	-76.7	3.5	3.02e+01	0	46	104	0	60	260635
2026-01-29 22:53:36.91	49.05	15.34	-51.8	-76.8	3.5	3.02e+01	0	46	104	0	60	262192
2026-01-29 22:53:37.91	49.25	15.40	-52.1	-76.8	3.5	3.02e+01	0	46	104	0	60	262363
2026-01-29 22:53:38.92	49.46	15.47	-52.3	-76.7	3.5	3.02e+01	0	46	104	0	60	261325
2026-01-29 22:53:39.92	49.67	15.53	-52.5	-76.7	3.5	3.02e+01	0	46	104	0	60	259621
2026-01-29 22:53:40.93	49.88	15.60	-52.7	-76.6	3.5	3.02e+01	0	46	104	0	60	257036
2026-01-29 22:53:41.94	50.09	15.67	-53.0	-76.6	3.5	3.02e+01	0	46	104	0	60	257804
2026-01-29 22:53:42.95	50.31	15.73	-53.1	-76.6	3.5	3.02e+01	0	46	104	0	60	256872
2026-01-29 22:53:43.95	50.52	15.80	-53.4	-76.6	3.5	3.02e+01	0	46	104	0	60	257095
2026-01-29 22:53:44.96	50.74	15.86	-53.7	-76.7	3.5	3.02e+01	0	46	104	0	60	258829
2026-01-29 22:53:45.96	50.95	15.93	-53.9	-76.7	3.5	3.02e+01	0	46	104	0	60	260903
2026-01-29 22:53:46.97	51.17	15.99	-54.2	-76.7	3.5	3.02e+01	0	46	104	0	60	259726
2026-01-29 22:53:47.97	51.38	16.06	-54.4	-76.8	3.5	3.02e+01	0	46	104	0	60	262085
2026-01-29 22:53:48.97	51.60	16.12	-54.5	-76.6	3.5	3.02e+01	0	46	104	0	60	257996
2026-01-29 22:53:49.98	51.82	16.19	-54.7	-76.7	3.5	3.02e+01	0	46	104	0	60	260802
2026-01-29 22:53:50.98	52.04	16.25	-54.9	-76.6	3.5	3.02e+01	0	46	104	0	60	258269
2026-01-29 22:53:51.99	52.26	16.32	-55.0	-76.7	3.5	3.02e+01	0	46	104	0	60	261623
2026-01-29 22:53:53.00	52.48	16.38	-55.1	-76.7	3.5	3.02e+01	0	46	104	0	60	260631
2026-01-29 22:53:54.00	52.71	16.44	-55.2	-76.7	3.5	3.02e+01	0	46	104	0	60	260562
2026-01-29 22:53:55.01	52.93	16.51	-55.2	-76.7	3.5	3.02e+01	0	46	104	0	60	261448
2026-01-29 22:53:56.01	53.16	16.57	-55.3	-76.8	3.5	3.02e+01	0	46	104	0	60	261956
2026-01-29 22:53:57.02	53.38	16.64	-55.3	-76.7	3.5	3.02e+01	0	46	104	0	60	259972
2026-01-29 22:53:58.02	53.61	16.70	-55.2	-76.8	3.5	3.02e+01	0	46	104	0	60	262248
2026-01-29 22:53:59.03	53.84	16.76	-55.2	-76.8	3.5	3.02e+01	0	46	104	0	60	261830
2026-01-29 22:54:00.04	54.07	16.82	-55.2	-76.8	3.5	3.02e+01	0	46	104	0	60	263644
2026-01-29 22:54:01.04	54.30	16.89	-55.0	-76.7	3.5	3.02e+01	0	46	104	0	60	260682
2026-01-29 22:54:02.05	54.53	16.95	-54.9	-76.7	3.5	3.02e+01	0	46	104	0	60	260449
2026-01-29 22:54:03.06	54.76	17.01	-54.9	-76.7	3.5	3.02e+01	0	46	104	0	60	258706
2026-01-29 22:54:04.06	54.99	17.07	-54.7	-76.7	3.5	3.02e+01	0	46	104	0	60	259642
2026-01-29 22:54:05.07	55.23	17.13	-54.6	-76.7	3.5	3.02e+01	0	46	104	0	60	260397
2026-01-29 22:54:06.07	55.46	17.19	-54.5	-76.7	3.5	3.02e+01	0	46	104	0	60	258779
2026-01-29 22:54:07.08	55.70	17.25	-54.4	-76.8	3.5	3.02e+01	0	46	104	0	60	262017
2026-01-29 22:54:08.09	55.94	17.31	-54.2	-76.7	3.5	3.02e+01	0	46	104	0	60	260851
2026-01-29 22:54:09.10	56.18	17.37	-54.1	-76.6	3.5	3.02e+01	0	46	104	0	60	257989
2026-01-29 22:54:10.10	56.41	17.43	-54.0	-76.8	3.5	3.02e+01	0	46	104	0	60	262249
2026-01-29 22:54:11.11	56.65	17.49	-53.9	-76.7	3.5	3.02e+01	0	46	104	0	60	259133
2026-01-29 22:54:12.11	56.89	17.55	-53.8	-76.7	3.5	3.02e+01	0	46	104	0	60	261138
2026-01-29 22:54:13.11	57.13	17.61	-53.7	-76.7	3.5	3.02e+01	0	46	104	0	60	260984
2026-01-29 22:54:14.12	57.38	17.67	-53.6	-76.8	3.5	3.02e+01	0	46	104	0	60	262692
2026-01-29 22:54:15.13	57.62	17.73	-53.6	-76.6	3.5	3.02e+01	0	46	104	0	60	258451
2026-01-29 22:54:16.14	57.87	17.79	-53.5	-76.7	3.5	3.02e+01	0	46	104	0	60	259391
2026-01-29 22:54:17.14	58.11	17.84	-53.4	-76.7	3.5	3.02e+01	0	46	104	0	60	260291
2026-01-29 22:54:18.15	58.36	17.90	-53.4	-76.7	3.5	3.02e+01	0	46	104	0	60	259920
2026-01-29 22:54:19.15	58.61	17.96	-53.3	-76.9	3.5	3.02e+01	0	46	104	0	60	266206
2026-01-29 22:54:20.16	58.86	18.02	-53.3	-76.8	3.5	3.02e+01	0	46	104	0	60	263899
2026-01-29 22:54:21.15	59.10	18.07	-53.3	-76.8	3.5	3.02e+01	0	46	104	0	60	261700
2026-01-29 22:54:22.15	59.35	18.13	-53.2	-76.7	3.5	3.02e+01	0	46	104	0	60	260748
2026-01-29 22:54:23.16	59.61	18.18	-53.2	-76.7	3.5	3.02e+01	0	46	104	0	60	258879
2026-01-29 22:54:24.16	59.86	18.24	-53.2	-76.6	3.5	3.02e+01	0	46	104	0	60	257491
2026-01-29 22:54:25.17	60.11	18.29	-53.1	-76.6	3.5	3.02e+01	0	46	104	0	60	258573
2026-01-29 22:54:26.17	60.37	18.35	-53.0	-76.6	3.5	3.02e+01	0	46	104	0	60	257503
2026-01-29 22:54:27.18	60.62	18.40	-53.0	-76.6	3.5	3.02e+01	0	46	104	0	60	256889
2026-01-29 22:54:28.18	60.88	18.45	-53.1	-76.7	3.5	3.02e+01	0	46	104	0	60	261303
2026-01-29 22:54:29.20	61.14	18.51	-53.0	-76.7	3.5	3.02e+01	0	46	104	0	60	261420
2026-01-29 22:54:30.20	61.39	18.56	-53.0	-76.7	3.5	3.02e+01	0	46	104	0	60	261159
2026-01-29 22:54:31.21	61.66	18.61	-53.0	-76.7	3.5	3.02e+01	0	46	104	0	60	258954
2026-01-29 22:54:32.22	61.92	18.66	-53.0	-76.6	3.5	3.02e+01	0	46	104	0	60	258469
2026-01-29 22:54:33.23	62.18	18.72	-53.0	-76.7	3.5	3.02e+01	0	46	104	0	60	259760
2026-01-29 22:54:34.23	62.44	18.77	-53.0	-76.6	3.5	3.02e+01	0	46	104	0	60	258589
2026-01-29 22:54:35.24	62.70	18.82	-52.8	-76.7	3.5	3.02e+01	0	46	104	0	60	260656
2026-01-29 22:54:36.25	62.97	18.87	-52.7	-76.7	3.5	3.02e+01	0	46	104	0	60	258864
2026-01-29 22:54:37.26	63.23	18.92	-52.6	-76.7	3.5	3.02e+01	0	46	104	0	60	259467
2026-01-29 22:54:38.26	63.50	18.97	-52.6	-76.6	3.5	3.02e+01	0	46	104	0	60	258379
2026-01-29 22:54:39.27	63.77	19.02	-52.5	-76.6	3.5	3.02e+01	0	46	104	0	60	256977
2026-01-29 22:54:40.28	64.03	19.06	-52.4	-76.4	3.5	3.02e+01	0	46	104	0	60	251993
2026-01-29 22:54:41.28	64.30	19.11	-52.3	-76.6	3.5	3.02e+01	0	46	104	0	60	256332
2026-01-29 22:54:42.29	64.57	19.16	-52.2	-76.6	3.5	3.02e+01	0	46	104	0	60	256574
2026-01-29 22:54:43.29	64.84	19.21	-52.1	-76.5	3.5	3.02e+01	0	46	104	0	60	253555
2026-01-29 22:54:44.30	65.11	19.25	-52.0	-76.3	3.5	3.02e+01	0	46	104	0	60	249303
2026-01-29 22:54:45.30	65.38	19.30	-51.9	-76.5	3.5	3.02e+01	0	46	104	0	60	253718
2026-01-29 22:54:46.30	65.65	19.34	-51.7	-76.5	3.5	3.02e+01	0	46	104	0	60	254601
2026-01-29 22:54:47.31	65.93	19.39	-51.6	-76.5	3.5	3.02e+01	0	46	104	0	60	252954
2026-01-29 22:54:48.32	66.20	19.43	-51.6	-76.4	3.5	3.02e+01	0	46	104	0	60	251473
2026-01-29 22:54:49.33	66.48	19.47	-51.5	-76.5	3.5	3.02e+01	0	46	104	0	60	253353
2026-01-29 22:54:50.34	66.76	19.52	-51.3	-76.4	3.5	3.02e+01	0	46	104	0	60	252455
2026-01-29 22:54:51.35	67.03	19.56	-51.2	-76.6	3.5	3.02e+01	0	46	104	0	60	256716
2026-01-29 22:54:52.36	67.31	19.60	-51.2	-76.5	3.5	3.02e+01	0	46	104	0	60	254788
2026-01-29 22:54:53.36	67.59	19.64	-51.1	-76.6	3.5	3.02e+01	0	46	104	0	60	257206
2026-01-29 22:54:54.37	67.87	19.69	-51.0	-76.4	3.5	3.02e+01	0	46	104	0	60	251918
2026-01-29 22:54:55.38	68.15	19.73	-50.9	-76.5	3.5	3.02e+01	0	46	104	0	60	253142
2026-01-29 22:54:56.38	68.43	19.77	-50.7	-76.5	3.5	3.02e+01	0	46	104	0	60	254511
2026-01-29 22:54:57.39	68.71	19.80	-50.7	-76.3	3.5	3.02e+01	0	46	104	0	60	248233
2026-01-29 22:54:58.40	68.99	19.84	-50.4	-76.4	3.5	3.02e+01	0	46	104	0	60	251570
2026-01-29 22:54:59.41	69.28	19.88	-50.4	-76.4	3.5	3.02e+01	0	46	104	0	60	250072
2026-01-29 22:55:00.41	69.56	19.92	-50.4	-76.3	3.5	3.02e+01	0	46	104	0	60	247617
2026-01-29 22:55:01.42	69.85	19.96	-50.2	-76.4	3.5	3.02e+01	0	46	104	0	60	251771
2026-01-29 22:55:02.42	70.13	19.99	-50.0	-76.3	3.5	3.02e+01	0	46	104	0	60	247712
2026-01-29 22:55:03.43	70.42	20.03	-50.0	-76.4	3.5	3.02e+01	0	46	104	0	60	250109
2026-01-29 22:55:04.43	70.70	20.06	-49.9	-76.3	3.5	3.02e+01	0	46	104	0	60	247567
2026-01-29 22:55:05.44	70.99	20.10	-49.7	-76.1	3.5	3.02e+01	0	46	104	0	60	243459
2026-01-29 22:55:06.45	71.28	20.13	-49.6	-75.9	3.5	3.02e+01	0	46	104	0	60	236715
2026-01-29 22:55:07.46	71.57	20.16	-49.6	-75.8	3.5	3.02e+01	0	46	104	0	60	233734
2026-01-29 22:55:08.47	71.86	20.20	-49.5	-75.8	3.5	3.02e+01	0	46	104	0	60	234135
2026-01-29 22:55:09.47	72.15	20.23	-49.5	-75.7	3.5	3.02e+01	0	46	104	0	60	232958
2026-01-29 22:55:10.48	72.44	20.26	-49.4	-75.6	3.5	3.02e+01	0	46	104	0	60	229215
2026-01-29 22:55:11.49	72.73	20.29	-49.4	-75.9	3.5	3.02e+01	0	46	104	0	60	237776
2026-01-29 22:55:12.50	73.02	20.32	-49.1	-76.1	3.5	3.02e+01	0	46	104	0	60	244077
2026-01-29 22:55:13.51	73.32	20.35	-49.0	-76.1	3.5	3.02e+01	0	46	104	0	60	243602
2026-01-29 22:55:14.51	73.61	20.38	-49.0	-76.2	3.5	3.02e+01	0	46	104	0	60	246205
2026-01-29 22:55:15.52	73.90	20.40	-49.1	-76.2	3.5	3.02e+01	0	46	104	0	60	244826
2026-01-29 22:55:16.52	74.19	20.43	-49.0	-76.2	3.5	3.02e+01	0	46	104	0	60	246289
2026-01-29 22:55:17.53	74.49	20.46	-48.8	-76.1	3.5	3.02e+01	0	46	104	0	60	243337
2026-01-29 22:55:18.53	74.78	20.48	-48.9	-76.0	3.5	3.02e+01	0	46	104	0	60	240720
2026-01-29 22:55:19.54	75.08	20.51	-48.7	-76.2	3.5	3.02e+01	0	46	104	0	60	245833
2026-01-29 22:55:20.55	75.37	20.53	-48.7	-76.2	3.5	3.02e+01	0	46	104	0	60	244934
2026-01-29 22:55:21.55	75.67	20.55	-48.7	-76.1	3.5	3.02e+01	0	46	104	0	60	242116
2026-01-29 22:55:22.56	75.97	20.58	-48.8	-76.0	3.5	3.02e+01	0	46	104	0	60	239987
2026-01-29 22:55:23.56	76.26	20.60	-48.7	-76.0	3.5	3.02e+01	0	46	104	0	60	240250
2026-01-29 22:55:24.57	76.56	20.62	-48.7	-75.8	3.5	3.02e+01	0	46	104	0	60	233548
2026-01-29 22:55:25.58	76.86	20.64	-48.8	-75.8	3.6	3.02e+01	0	46	104	0	60	235482
2026-01-29 22:55:26.58	77.16	20.66	-48.7	-75.9	3.5	3.02e+01	0	46	104	0	60	236753
2026-01-29 22:55:27.59	77.46	20.68	-48.8	-75.9	3.5	3.02e+01	0	46	104	0	60	237433
2026-01-29 22:55:28.60	77.76	20.70	-48.7	-76.3	3.5	3.02e+01	0	46	104	0	60	248700
2026-01-29 22:55:29.60	78.06	20.72	-48.7	-76.1	3.5	3.02e+01	0	46	104	0	60	242502
2026-01-29 22:55:30.61	78.36	20.73	-48.7	-76.0	3.5	3.02e+01	0	46	104	0	60	239413
2026-01-29 22:55:31.62	78.66	20.75	-48.7	-76.0	3.5	3.02e+01	0	46	104	0	60	239094
2026-01-29 22:55:32.62	78.96	20.77	-48.8	-75.8	3.5	3.02e+01	0	46	104	0	60	235388
2026-01-29 22:55:33.63	79.26	20.78	-48.9	-76.0	3.5	3.02e+01	0	46	104	0	60	239154
2026-01-29 22:55:34.63	79.56	20.79	-49.0	-75.9	3.5	3.02e+01	0	46	104	0	60	237920
2026-01-29 22:55:35.64	79.86	20.81	-49.3	-76.1	3.6	3.02e+01	0	46	104	0	60	241428
2026-01-29 22:55:36.65	80.16	20.82	-49.2	-75.9	3.5	3.02e+01	0	46	104	0	60	237660
2026-01-29 22:55:37.65	80.46	20.83	-49.2	-75.7	3.5	3.02e+01	0	46	104	0	60	232973
2026-01-29 22:55:38.66	80.77	20.84	-49.1	-75.7	3.6	3.02e+01	0	46	104	0	60	232109
2026-01-29 22:55:39.67	81.07	20.85	-49.2	-75.4	3.6	3.02e+01	0	46	104	0	60	222996
2026-01-29 22:55:40.67	81.37	20.86	-49.3	-75.4	3.6	3.02e+01	0	46	104	0	60	223856
2026-01-29 22:55:41.68	81.68	20.87	-49.5	-75.5	3.6	3.02e+01	0	46	104	0	60	226233
2026-01-29 22:55:42.68	81.98	20.88	-49.6	-75.5	3.5	3.02e+01	0	46	104	0	60	225497
2026-01-29 22:55:43.69	82.28	20.89	-49.7	-75.3	3.6	3.02e+01	0	46	104	0	60	222327
2026-01-29 22:55:44.69	82.58	20.89	-49.8	-75.5	3.6	3.02e+01	0	46	104	0	60	227216
2026-01-29 22:55:45.70	82.89	20.90	-49.9	-75.4	3.6	3.02e+01	0	46	104	0	60	223440
2026-01-29 22:55:46.70	83.19	20.90	-50.0	-75.6	3.6	3.02e+01	0	46	104	0	60	228685
2026-01-29 22:55:47.71	83.50	20.91	-50.2	-75.3	3.6	3.02e+01	0	46	104	0	60	221900
2026-01-29 22:55:48.72	83.80	20.91	-50.4	-75.3	3.6	3.02e+01	0	46	104	0	60	220561
2026-01-29 22:55:49.73	84.11	20.91	-50.4	-75.1	3.6	3.02e+01	0	46	104	0	60	217598
2026-01-29 22:55:50.73	84.41	20.91	-50.5	-75.4	3.6	3.02e+01	0	46	104	0	60	223015
2026-01-29 22:55:51.73	84.71	20.92	-50.6	-75.2	3.6	3.02e+01	0	46	104	0	60	219480
2026-01-29 22:55:52.73	85.01	20.92	-50.6	-75.4	3.6	3.02e+01	0	46	104	0	60	224585
2026-01-29 22:55:53.74	85.32	20.91	-50.8	-75.1	3.6	3.02e+01	0	46	104	0	60	217482
2026-01-29 22:55:54.75	85.62	20.91	-50.9	-75.3	3.6	3.02e+01	0	46	104	0	60	221883
2026-01-29 22:55:55.76	85.93	20.91	-50.9	-75.6	3.7	3.02e+01	0	46	104	0	60	227991
2026-01-29 22:55:56.76	86.23	20.91	-50.9	-75.2	3.6	3.02e+01	0	46	104	0	60	218574
2026-01-29 22:55:57.77	86.53	20.90	-51.0	-75.1	3.6	3.02e+01	0	46	104	0	60	216462
2026-01-29 22:55:58.78	86.84	20.90	-51.0	-75.1	3.6	3.02e+01	0	46	104	0	60	217514
2026-01-29 22:55:59.79	87.14	20.89	-51.0	-75.0	3.6	3.02e+01	0	46	104	0	60	213616
2026-01-29 22:56:00.79	87.45	20.89	-51.0	-75.0	3.6	3.02e+01	0	46	104	0	60	214580
2026-01-29 22:56:01.80	87.75	20.88	-51.1	-75.3	3.6	3.02e+01	0	46	104	0	60	221355
2026-01-29 22:56:02.80	88.05	20.87	-51.0	-75.4	3.6	3.02e+01	0	46	104	0	60	223797
2026-01-29 22:56:03.81	88.36	20.87	-51.0	-75.3	3.6	3.02e+01	0	46	104	0	60	222343
2026-01-29 22:56:04.82	88.66	20.86	-50.9	-75.3	3.6	3.02e+01	0	46	104	0	60	220676
2026-01-29 22:56:05.82	88.96	20.85	-50.8	-75.0	3.6	3.02e+01	0	46	104	0	60	214701
2026-01-29 22:56:06.83	89.27	20.84	-50.8	-74.9	3.6	3.02e+01	0	46	104	0	60	212020
2026-01-29 22:56:07.83	89.57	20.83	-50.7	-75.5	3.6	3.02e+01	0	46	104	0	60	226135
2026-01-29 22:56:08.84	89.87	20.81	-50.6	-75.1	3.6	3.02e+01	0	46	104	0	60	216214
2026-01-29 22:56:09.85	90.17	20.80	-50.6	-74.8	3.6	3.02e+01	0	46	104	0	60	209920
2026-01-29 22:56:10.86	90.48	20.79	-50.5	-75.2	3.6	3.02e+01	0	46	104	0	60	219832
2026-01-29 22:56:11.86	90.78	20.77	-50.4	-75.2	3.6	3.02e+01	0	46	104	0	60	218910
2026-01-29 22:56:12.87	91.08	20.76	-50.3	-75.2	3.6	3.02e+01	0	46	104	0	60	218522
2026-01-29 22:56:13.88	91.38	20.74	-50.2	-74.9	3.6	3.02e+01	0	46	104	0	60	210390
2026-01-29 22:56:14.88	91.68	20.72	-50.1	-74.9	3.6	3.02e+01	0	46	104	0	60	210629
2026-01-29 22:56:15.89	91.98	20.71	-50.2	-74.9	3.6	3.02e+01	0	46	104	0	60	210531
2026-01-29 22:56:16.89	92.28	20.69	-50.1	-75.0	3.6	3.02e+01	0	46	104	0	60	214912
2026-01-29 22:56:17.90	92.58	20.67	-50.0	-75.0	3.6	3.02e+01	0	46	104	0	60	214541
2026-01-29 22:56:18.91	92.88	20.65	-49.9	-74.7	3.6	3.02e+01	0	46	104	0	60	206785
2026-01-29 22:56:19.91	93.17	20.63	-49.9	-74.7	3.6	3.02e+01	0	46	104	0	60	206911
2026-01-29 22:56:20.92	93.47	20.61	-49.8	-75.1	3.7	3.02e+01	0	46	104	0	60	217647
2026-01-29 22:56:21.93	93.77	20.59	-49.8	-74.7	3.6	3.02e+01	0	46	104	0	60	206932
2026-01-29 22:56:22.93	94.07	20.56	-49.8	-74.7	3.6	3.02e+01	0	46	104	0	60	206289
2026-01-29 22:56:23.94	94.37	20.54	-49.8	-75.2	3.7	3.02e+01	0	46	104	0	60	218033
2026-01-29 22:56:24.94	94.66	20.52	-49.8	-75.2	3.6	3.02e+01	0	46	104	0	60	218805
2026-01-29 22:56:25.95	94.96	20.49	-49.8	-74.9	3.6	3.02e+01	0	46	104	0	60	211258
2026-01-29 22:56:26.95	95.25	20.47	-49.8	-74.7	3.7	3.02e+01	0	46	104	0	60	206880
2026-01-29 22:56:27.96	95.55	20.44	-49.8	-74.6	3.6	3.02e+01	0	46	104	0	60	203935
2026-01-29 22:56:28.97	95.84	20.41	-49.9	-75.0	3.6	3.02e+01	0	46	104	0	60	213406
2026-01-29 22:56:29.98	96.14	20.39	-49.9	-75.1	3.6	3.02e+01	0	46	104	0	60	215288
2026-01-29 22:56:30.98	96.43	20.36	-50.0	-74.9	3.6	3.02e+01	0	46	104	0	60	212273
2026-01-29 22:56:32.00	96.73	20.33	-50.0	-74.7	3.6	3.02e+01	0	46	104	0	60	207032
2026-01-29 22:56:33.00	97.02	20.30	-50.0	-74.5	3.6	3.02e+01	0	46	104	0	60	201102
2026-01-29 22:56:34.01	97.31	20.27	-50.1	-74.9	3.6	3.02e+01	0	46	104	0	60	211001
2026-01-29 22:56:35.01	97.60	20.24	-50.3	-74.8	3.7	3.02e+01	0	46	104	0	60	208121
2026-01-29 22:56:36.02	97.89	20.21	-50.3	-74.5	3.7	3.02e+01	0	46	104	0	60	201415
2026-01-29 22:56:37.03	98.18	20.17	-50.4	-75.0	3.6	3.02e+01	0	46	104	0	60	214920
2026-01-29 22:56:38.03	98.47	20.14	-50.5	-74.9	3.6	3.02e+01	0	46	104	0	60	212693
2026-01-29 22:56:39.04	98.76	20.11	-50.5	-74.4	3.6	3.02e+01	0	46	104	0	60	200391
2026-01-29 22:56:40.04	99.05	20.07	-49.9	-73.9	3.7	3.02e+01	0	46	104	0	60	189298
2026-01-29 22:56:41.05	99.33	20.04	-49.9	-73.5	3.7	3.02e+01	0	46	104	0	60	179989
2026-01-29 22:56:42.05	99.62	20.00	-50.0	-73.5	3.8	3.02e+01	0	46	104	0	60	180156
2026-01-29 22:56:43.06	99.91	19.97	-50.0	-73.6	3.8	3.02e+01	0	46	104	0	60	182052
2026-01-29 22:56:44.06	100.19	19.93	-50.1	-73.8	3.8	3.02e+01	0	46	104	0	60	185703
2026-01-29 22:56:45.07	100.48	19.89	-50.1	-73.4	3.8	3.02e+01	0	46	104	0	60	177927
2026-01-29 22:56:46.08	100.76	19.86	-50.1	-73.9	3.8	3.02e+01	0	46	104	0	60	188260
2026-01-29 22:56:47.08	101.04	19.82	-50.1	-73.8	3.8	3.02e+01	0	46	104	0	60	185678
2026-01-29 22:56:48.09	101.33	19.78	-50.1	-73.1	3.8	3.02e+01	0	46	104	0	60	172068
2026-01-29 22:56:49.10	101.61	19.74	-50.1	-73.2	3.8	3.02e+01	0	46	104	0	60	174761
2026-01-29 22:56:50.11	101.89	19.70	-50.1	-73.1	3.8	3.02e+01	0	46	104	0	60	171243
2026-01-29 22:56:51.11	102.17	19.66	-50.1	-73.6	3.8	3.02e+01	0	46	104	0	60	182528
2026-01-29 22:56:52.11	102.45	19.62	-50.2	-73.0	3.8	3.02e+01	0	46	104	0	60	170863
2026-01-29 22:56:53.12	102.73	19.58	-50.1	-73.0	3.8	3.02e+01	0	46	104	0	60	169763
2026-01-29 22:56:54.13	103.01	19.53	-50.1	-73.4	3.8	3.02e+01	0	46	104	0	60	178520
2026-01-29 22:56:55.13	103.28	19.49	-50.1	-73.6	3.8	3.02e+01	0	46	104	0	60	183071
2026-01-29 22:56:56.14	103.56	19.45	-50.2	-73.1	3.9	3.02e+01	0	46	104	0	60	171619
2026-01-29 22:56:57.15	103.83	19.40	-50.2	-72.9	3.8	3.02e+01	0	46	104	0	60	167160
2026-01-29 22:56:58.15	104.11	19.36	-50.1	-73.3	3.8	3.02e+01	0	46	104	0	60	175098
2026-01-29 22:56:59.16	104.38	19.31	-50.2	-72.9	3.8	3.02e+01	0	46	104	0	60	168785
2026-01-29 22:57:00.16	104.65	19.27	-50.1	-72.9	3.8	3.02e+01	0	46	104	0	60	168694
2026-01-29 22:57:01.17	104.93	19.22	-50.1	-73.1	3.8	3.02e+01	0	46	104	0	60	172000
2026-01-29 22:57:02.18	105.20	19.17	-50.1	-72.6	3.9	3.02e+01	0	46	104	0	60	163083
2026-01-29 22:57:03.18	105.47	19.13	-50.1	-73.4	3.8	3.02e+01	0	46	104	0	60	178057
2026-01-29 22:57:04.19	105.74	19.08	-50.2	-73.3	3.9	3.02e+01	0	46	104	0	60	176672
2026-01-29 22:57:05.20	106.01	19.03	-50.1	-72.7	3.8	3.02e+01	0	46	104	0	60	163583
2026-01-29 22:57:06.21	106.28	18.98	-50.1	-72.6	3.8	3.02e+01	0	46	104	0	60	162814
2026-01-29 22:57:07.22	106.54	18.93	-50.1	-72.6	3.9	3.02e+01	0	46	104	0	60	163156
2026-01-29 22:57:08.22	106.81	18.88	-50.1	-72.7	3.9	3.02e+01	0	46	104	0	60	164107
2026-01-29 22:57:09.23	107.07	18.83	-50.2	-73.1	3.9	3.02e+01	0	46	104	0	60	171798
2026-01-29 22:57:10.24	107.34	18.78	-50.1	-72.4	3.9	3.02e+01	0	46	104	0	60	159381
2026-01-29 22:57:11.24	107.60	18.73	-50.2	-73.2	3.8	3.02e+01	0	46	104	0	60	173507
2026-01-29 22:57:12.25	107.87	18.68	-50.1	-73.1	3.9	3.02e+01	0	46	104	0	60	171785
2026-01-29 22:57:13.25	108.12	18.63	-50.1	-72.5	3.8	3.02e+01	0	46	104	0	60	160799
2026-01-29 22:57:14.25	108.38	18.58	-50.1	-72.3	3.8	3.02e+01	0	46	104	0	60	157593
2026-01-29 22:57:15.26	108.64	18.52	-50.1	-73.9	3.8	3.02e+01	0	46	104	0	60	187584
2026-01-29 22:57:16.26	108.90	18.47	-50.0	-72.4	3.8	3.02e+01	0	46	104	0	60	159386
2026-01-29 22:57:17.27	109.16	18.42	-50.0	-72.4	3.8	3.02e+01	0	46	104	0	60	159164
2026-01-29 22:57:18.27	109.42	18.36	-49.9	-72.3	3.9	3.02e+01	0	46	104	0	60	156961
2026-01-29 22:57:19.28	109.67	18.31	-49.9	-72.4	3.9	3.02e+01	0	46	104	0	60	159007
2026-01-29 22:57:20.29	109.93	18.25	-49.9	-72.3	3.9	3.02e+01	0	46	104	0	60	156886
2026-01-29 22:57:21.30	110.18	18.20	-49.8	-73.1	3.9	3.02e+01	0	46	104	0	60	172523
2026-01-29 22:57:22.31	110.44	18.14	-49.8	-72.6	3.9	3.02e+01	0	46	104	0	60	162814
2026-01-29 22:57:23.32	110.69	18.08	-49.7	-72.5	3.9	3.02e+01	0	46	104	0	60	159705
2026-01-29 22:57:24.32	110.94	18.03	-49.6	-72.4	3.9	3.02e+01	0	46	104	0	60	157790
2026-01-29 22:57:25.33	111.19	17.97	-49.6	-73.7	3.8	3.02e+01	0	46	104	0	60	184081
2026-01-29 22:57:26.33	111.44	17.91	-49.5	-72.2	3.8	3.02e+01	0	46	104	0	60	154281
2026-01-29 22:57:27.34	111.69	17.86	-49.5	-72.2	3.8	3.02e+01	0	46	104	0	60	155298
2026-01-29 22:57:28.35	111.94	17.80	-49.4	-73.0	3.9	3.02e+01	0	46	104	0	60	170095
2026-01-29 22:57:29.36	112.18	17.74	-49.4	-72.9	3.9	3.02e+01	0	46	104	0	60	167752
2026-01-29 22:57:30.37	112.43	17.68	-49.3	-72.1	3.8	3.02e+01	0	46	104	0	60	154074
2026-01-29 22:57:31.37	112.67	17.62	-49.2	-72.1	3.9	3.02e+01	0	46	104	0	60	153593
2026-01-29 22:57:32.38	112.92	17.56	-49.2	-72.2	3.9	3.02e+01	0	46	104	0	60	154155
2026-01-29 22:57:33.39	113.16	17.50	-49.2	-72.0	3.8	3.02e+01	0	46	104	0	60	151864
2026-01-29 22:57:34.39	113.40	17.44	-49.1	-72.2	3.9	3.02e+01	0	46	104	0	60	154739
2026-01-29 22:57:35.40	113.64	17.38	-49.1	-72.1	3.9	3.02e+01	0	46	104	0	60	153273
2026-01-29 22:57:36.40	113.88	17.32	-49.1	-72.7	3.8	3.02e+01	0	46	104	0	60	164989
2026-01-29 22:57:37.41	114.12	17.26	-49.0	-72.9	3.9	3.02e+01	0	46	104	0	60	167802
2026-01-29 22:57:38.42	114.36	17.20	-49.0	-72.1	3.9	3.02e+01	0	46	104	0	60	152843
2026-01-29 22:57:39.43	114.59	17.14	-48.9	-72.0	3.9	3.02e+01	0	46	104	0	60	150705
2026-01-29 22:57:40.43	114.83	17.08	-48.9	-72.3	3.9	3.02e+01	0	46	104	0	60	156324
2026-01-29 22:57:41.44	115.06	17.02	-48.9	-72.2	3.9	3.02e+01	0	46	104	0	60	154292
2026-01-29 22:57:42.44	115.29	16.96	-48.9	-71.9	3.9	3.02e+01	0	46	104	0	60	150552
2026-01-29 22:57:43.45	115.53	16.89	-48.9	-71.9	3.8	3.02e+01	0	46	104	0	60	149866
2026-01-29 22:57:44.45	115.76	16.83	-48.9	-71.9	3.9	3.02e+01	0	46	104	0	60	150573
2026-01-29 22:57:45.46	115.99	16.77	-48.9	-72.0	3.9	3.02e+01	0	46	104	0	60	152028
2026-01-29 22:57:46.47	116.22	16.70	-48.9	-72.8	4.0	3.02e+01	0	46	104	0	60	166702
2026-01-29 22:57:47.48	116.45	16.64	-48.9	-71.9	3.8	3.02e+01	0	46	104	0	60	150395
2026-01-29 22:57:48.48	116.67	16.58	-48.9	-72.1	3.9	3.02e+01	0	46	104	0	60	152810
2026-01-29 22:57:49.49	116.90	16.51	-48.9	-73.6	3.8	3.02e+01	0	46	104	0	60	181938
2026-01-29 22:57:50.50	117.13	16.45	-48.9	-73.7	3.9	3.02e+01	0	46	104	0	60	184801
2026-01-29 22:57:51.50	117.35	16.39	-48.9	-72.0	3.9	3.02e+01	0	46	104	0	60	151946
2026-01-29 22:57:52.51	117.58	16.32	-48.9	-72.3	4.0	3.02e+01	0	46	104	0	60	155884
2026-01-29 22:57:53.52	117.80	16.26	-49.0	-72.9	3.9	3.02e+01	0	46	104	0	60	167476
2026-01-29 22:57:54.52	118.02	16.19	-48.9	-72.9	3.9	3.02e+01	0	46	104	0	60	168302
2026-01-29 22:57:55.53	118.24	16.13	-49.0	-74.0	3.9	3.02e+01	0	46	104	0	60	190096
2026-01-29 22:57:56.54	118.46	16.06	-49.0	-72.3	3.9	3.02e+01	0	46	104	0	60	156298
2026-01-29 22:57:57.54	118.68	16.00	-49.0	-72.2	3.9	3.02e+01	0	46	104	0	60	154705
2026-01-29 22:57:58.55	118.90	15.93	-49.0	-72.5	3.9	3.02e+01	0	46	104	0	60	160932
2026-01-29 22:57:59.55	119.11	15.87	-49.0	-72.2	3.9	3.02e+01	0	46	104	0	60	155606
2026-01-29 22:58:00.56	119.33	15.80	-49.0	-72.3	3.9	3.02e+01	0	46	104	0	60	157047
2026-01-29 22:58:01.57	119.54	15.73	-49.1	-72.5	3.8	3.02e+01	0	46	104	0	60	161183
2026-01-29 22:58:02.57	119.76	15.67	-49.0	-73.2	3.8	3.02e+01	0	46	104	0	60	173682
2026-01-29 22:58:03.58	119.97	15.60	-49.0	-73.2	3.9	3.02e+01	0	46	104	0	60	174116
2026-01-29 22:58:04.58	120.18	15.53	-49.0	-72.7	3.9	3.02e+01	0	46	104	0	60	164425
2026-01-29 22:58:05.58	120.39	15.47	-49.0	-72.8	3.8	3.02e+01	0	46	104	0	60	165445
2026-01-29 22:58:06.59	120.60	15.40	-49.0	-72.6	3.9	3.02e+01	0	46	104	0	60	162794
2026-01-29 22:58:07.59	120.81	15.33	-49.0	-72.7	3.8	3.02e+01	0	46	104	0	60	164761
2026-01-29 22:58:08.60	121.02	15.27	-49.0	-72.8	3.8	3.02e+01	0	46	104	0	60	165745
2026-01-29 22:58:09.60	121.22	15.20	-49.1	-73.0	3.8	3.02e+01	0	46	104	0	60	169191
2026-01-29 22:58:10.61	121.43	15.13	-49.0	-73.6	3.8	3.02e+01	0	46	104	0	60	181782
2026-01-29 22:58:11.62	121.63	15.07	-49.0	-73.3	3.8	3.02e+01	0	46	104	0	60	176797
2026-01-29 22:58:12.62	121.84	15.00	-49.0	-73.1	3.8	3.02e+01	0	46	104	0	60	172111
2026-01-29 22:58:13.63	122.04	14.93	-49.0	-73.2	3.8	3.02e+01	0	46	104	0	60	174510
2026-01-29 22:58:14.64	122.24	14.86	-49.0	-73.0	3.8	3.02e+01	0	46	104	0	60	170272
2026-01-29 22:58:15.64	122.44	14.79	-49.0	-73.0	3.8	3.02e+01	0	46	104	0	60	170458
2026-01-29 22:58:16.65	122.64	14.73	-49.0	-73.6	3.7	3.02e+01	0	46	104	0	60	181218
2026-01-29 22:58:17.65	122.84	14.66	-49.0	-73.6	3.7	3.02e+01	0	46	104	0	60	182537
2026-01-29 22:58:18.66	123.04	14.59	-49.0	-73.3	3.7	3.02e+01	0	46	104	0	60	176850
2026-01-29 22:58:19.66	123.24	14.52	-49.0	-73.7	3.7	3.02e+01	0	46	104	0	60	185247
2026-01-29 22:58:20.67	123.43	14.45	-49.0	-74.0	3.8	3.02e+01	0	46	104	0	60	191206
2026-01-29 22:58:21.67	123.63	14.39	-48.9	-73.4	3.7	3.02e+01	0	46	104	0	60	178888
2026-01-29 22:58:22.68	123.82	14.32	-48.9	-73.7	3.8	3.02e+01	0	46	104	0	60	184556
2026-01-29 22:58:23.68	124.02	14.25	-48.9	-73.5	3.7	3.02e+01	0	46	104	0	60	179884
2026-01-29 22:58:24.69	124.21	14.18	-48.9	-73.8	3.7	3.02e+01	0	46	104	0	60	185462
2026-01-29 22:58:25.70	124.40	14.11	-48.8	-73.5	3.7	3.02e+01	0	46	104	0	60	180609
2026-01-29 22:58:26.71	124.59	14.04	-48.8	-73.6	3.7	3.02e+01	0	46	104	0	60	182502
2026-01-29 22:58:27.72	124.78	13.97	-48.8	-74.2	3.7	3.02e+01	0	46	104	0	60	194004
2026-01-29 22:58:28.72	124.97	13.90	-48.8	-74.2	3.7	3.02e+01	0	46	104	0	60	195111
2026-01-29 22:58:29.73	125.16	13.83	-48.8	-73.9	3.7	3.02e+01	0	46	104	0	60	187961
2026-01-29 22:58:30.74	125.35	13.77	-48.7	-73.9	3.7	3.02e+01	0	46	104	0	60	188901
2026-01-29 22:58:31.74	125.53	13.70	-48.7	-73.9	3.7	3.02e+01	0	46	104	0	60	187417
2026-01-29 22:58:32.75	125.72	13.63	-48.8	-73.7	3.7	3.02e+01	0	46	104	0	60	183846
2026-01-29 22:58:33.76	125.90	13.56	-48.8	-74.0	3.7	3.02e+01	0	46	104	0	60	190062
2026-01-29 22:58:34.77	126.09	13.49	-48.8	-73.7	3.7	3.02e+01	0	46	104	0	60	184577
2026-01-29 22:58:35.77	126.27	13.42	-48.8	-74.1	3.7	3.02e+01	0	46	104	0	60	193769
2026-01-29 22:58:36.78	126.45	13.35	-48.8	-74.4	3.7	3.02e+01	0	46	104	0	60	200248
2026-01-29 22:58:37.78	126.63	13.28	-48.9	-74.5	3.7	3.02e+01	0	46	104	0	60	202104
2026-01-29 22:58:38.78	126.81	13.21	-48.8	-74.1	3.7	3.02e+01	0	46	104	0	60	191972
2026-01-29 22:58:39.79	126.99	13.14	-48.9	-74.0	3.7	3.02e+01	0	46	104	0	60	190636
2026-01-29 22:58:40.79	127.17	13.07	-48.9	-74.4	3.7	3.02e+01	0	46	104	0	60	198742
2026-01-29 22:58:41.80	127.35	13.00	-48.9	-74.2	3.6	3.02e+01	0	46	104	0	60	195466
2026-01-29 22:58:42.81	127.52	12.93	-49.0	-74.4	3.7	3.02e+01	0	46	104	0	60	199184
2026-01-29 22:58:43.81	127.70	12.87	-49.0	-74.2	3.7	3.02e+01	0	46	104	0	60	194421
2026-01-29 22:58:44.82	127.87	12.80	-49.1	-74.6	3.7	3.02e+01	0	46	104	0	60	203834
2026-01-29 22:58:45.83	128.05	12.73	-49.1	-74.7	3.7	3.02e+01	0	46	104	0	60	207479
2026-01-29 22:58:46.84	128.22	12.66	-49.2	-74.3	3.7	3.02e+01	0	46	104	0	60	196375
2026-01-29 22:58:47.85	128.39	12.59	-49.2	-74.3	3.7	3.02e+01	0	46	104	0	60	198164
2026-01-29 22:58:48.85	128.56	12.52	-49.2	-74.4	3.6	3.02e+01	0	46	104	0	60	199007
2026-01-29 22:58:49.86	128.74	12.45	-49.3	-74.4	3.6	3.02e+01	0	46	104	0	60	198627
2026-01-29 22:58:50.87	128.91	12.38	-49.3	-74.3	3.7	3.02e+01	0	46	104	0	60	196243
2026-01-29 22:58:51.87	129.07	12.31	-49.3	-74.3	3.7	3.02e+01	0	46	104	0	60	197984
2026-01-29 22:58:52.88	129.24	12.24	-49.4	-74.4	3.6	3.02e+01	0	46	104	0	60	199107
2026-01-29 22:58:53.88	129.41	12.17	-49.4	-74.8	3.6	3.02e+01	0	46	104	0	60	210204
2026-01-29 22:58:54.88	129.57	12.10	-49.4	-74.8	3.7	3.02e+01	0	46	104	0	60	208803
2026-01-29 22:58:55.89	129.74	12.03	-49.4	-74.7	3.7	3.02e+01	0	46	104	0	60	206574
2026-01-29 22:58:56.90	129.91	11.96	-49.4	-74.2	3.6	3.02e+01	0	46	104	0	60	195390
2026-01-29 22:58:57.91	130.07	11.89	-49.4	-74.5	3.6	3.02e+01	0	46	104	0	60	202403
2026-01-29 22:58:58.91	130.23	11.82	-49.3	-74.3	3.6	3.02e+01	0	46	104	0	60	196793
2026-01-29 22:58:59.92	130.40	11.75	-49.3	-74.5	3.6	3.02e+01	0	46	104	0	60	202037
2026-01-29 22:59:00.92	130.56	11.68	-49.3	-74.3	3.7	3.02e+01	0	46	104	0	60	198189
2026-01-29 22:59:01.93	130.72	11.62	-49.3	-74.8	3.6	3.02e+01	0	46	104	0	60	209222
2026-01-29 22:59:02.93	130.88	11.55	-49.3	-74.8	3.6	3.02e+01	0	46	104	0	60	209649
2026-01-29 22:59:03.94	131.04	11.48	-49.3	-74.3	3.6	3.02e+01	0	46	104	0	60	198324
2026-01-29 22:59:04.95	131.20	11.41	-49.3	-74.4	3.7	3.02e+01	0	46	104	0	60	198821
2026-01-29 22:59:05.95	131.35	11.34	-49.3	-74.4	3.6	3.02e+01	0	46	104	0	60	200125
2026-01-29 22:59:06.96	131.51	11.27	-49.2	-74.6	3.6	3.02e+01	0	46	104	0	60	204037
2026-01-29 22:59:07.96	131.66	11.20	-49.2	-74.7	3.6	3.02e+01	0	46	104	0	60	206410
2026-01-29 22:59:08.96	131.82	11.13	-49.3	-74.5	3.6	3.02e+01	0	46	104	0	60	202058
2026-01-29 22:59:09.97	131.97	11.06	-49.2	-74.5	3.6	3.02e+01	0	46	104	0	60	202451
2026-01-29 22:59:10.98	132.13	10.99	-49.3	-74.6	3.6	3.02e+01	0	46	104	0	60	205050
2026-01-29 22:59:11.99	132.28	10.92	-49.2	-75.0	3.7	3.02e+01	0	46	104	0	60	213063
2026-01-29 22:59:12.99	132.43	10.86	-49.2	-74.4	3.7	3.02e+01	0	46	104	0	60	199967
2026-01-29 22:59:14.00	132.59	10.79	-49.3	-74.7	3.6	3.02e+01	0	46	104	0	60	206330
2026-01-29 22:59:15.01	132.74	10.72	-49.2	-74.5	3.6	3.02e+01	0	46	104	0	60	201984
2026-01-29 22:59:16.02	132.89	10.65	-49.3	-74.8	3.6	3.02e+01	0	46	104	0	60	209296
2026-01-29 22:59:17.03	133.04	10.58	-49.2	-74.5	3.6	3.02e+01	0	46	104	0	60	203044
2026-01-29 22:59:18.04	133.19	10.51	-49.2	-74.6	3.6	3.02e+01	0	46	104	0	60	203296
2026-01-29 22:59:19.05	133.34	10.44	-49.2	-75.0	3.6	3.02e+01	0	46	104	0	60	214519
2026-01-29 22:59:20.05	133.48	10.37	-49.2	-75.0	3.6	3.02e+01	0	46	104	0	60	214299
2026-01-29 22:59:21.06	133.63	10.31	-49.2	-75.0	3.6	3.02e+01	0	46	104	0	60	212771
2026-01-29 22:59:22.06	133.77	10.24	-49.2	-74.6	3.6	3.02e+01	0	46	104	0	60	203303
2026-01-29 22:59:23.07	133.92	10.17	-49.2	-74.6	3.6	3.02e+01	0	46	104	0	60	204907
2026-01-29 22:59:24.08	134.06	10.10	-49.2	-74.6	3.6	3.02e+01	0	46	104	0	60	203588
2026-01-29 22:59:25.08	134.21	10.03	-49.2	-74.6	3.6	3.02e+01	0	46	104	0	60	203938
2026-01-29 22:59:26.08	134.35	9.97	-49.2	-74.8	3.6	3.02e+01	0	46	104	0	60	209797
2026-01-29 22:59:27.09	134.49	9.90	-49.3	-74.9	3.6	3.02e+01	0	46	104	0	60	211697
2026-01-29 22:59:28.09	134.63	9.83	-49.2	-75.1	3.6	3.02e+01	0	46	104	0	60	216725
2026-01-29 22:59:29.10	134.77	9.76	-49.2	-75.0	3.6	3.02e+01	0	46	104	0	60	214926
2026-01-29 22:59:30.11	134.92	9.69	-49.3	-74.8	3.6	3.02e+01	0	46	104	0	60	208097
2026-01-29 22:59:31.12	135.06	9.62	-49.3	-74.7	3.6	3.02e+01	0	46	104	0	60	206534
2026-01-29 22:59:32.12	135.19	9.56	-49.3	-75.1	3.6	3.02e+01	0	46	104	0	60	215336
2026-01-29 22:59:33.13	135.33	9.49	-49.4	-74.7	3.6	3.02e+01	0	46	104	0	60	206555
2026-01-29 22:59:34.14	135.47	9.42	-49.4	-74.8	3.6	3.02e+01	0	46	104	0	60	208493
2026-01-29 22:59:35.15	135.61	9.35	-50.0	-75.2	3.6	3.02e+01	0	46	104	0	60	219879
2026-01-29 22:59:36.15	135.74	9.29	-50.0	-75.5	3.6	3.02e+01	0	46	104	0	60	227177
2026-01-29 22:59:37.16	135.88	9.22	-50.1	-75.3	3.6	3.02e+01	0	46	104	0	60	220607
2026-01-29 22:59:38.16	136.01	9.15	-50.1	-75.3	3.6	3.02e+01	0	46	104	0	60	221823
2026-01-29 22:59:39.17	136.15	9.08	-50.2	-75.2	3.6	3.02e+01	0	46	104	0	60	218676
2026-01-29 22:59:40.17	136.28	9.02	-50.2	-75.2	3.6	3.02e+01	0	46	104	0	60	219948
2026-01-29 22:59:41.17	136.41	8.95	-50.2	-75.3	3.6	3.02e+01	0	46	104	0	60	221128
2026-01-29 22:59:42.18	136.55	8.88	-50.3	-75.2	3.6	3.02e+01	0	46	104	0	60	219788
2026-01-29 22:59:43.18	136.68	8.82	-50.3	-75.3	3.6	3.02e+01	0	46	104	0	60	222458
2026-01-29 22:59:44.19	136.81	8.75	-50.3	-75.3	3.6	3.02e+01	0	46	104	0	60	221767
2026-01-29 22:59:45.20	136.94	8.68	-50.3	-75.5	3.5	3.02e+01	0	46	104	0	60	227262
2026-01-29 22:59:46.20	137.07	8.62	-50.4	-75.7	3.5	3.02e+01	0	46	104	0	60	231481
2026-01-29 22:59:47.20	137.20	8.55	-50.4	-75.4	3.5	3.02e+01	0	46	104	0	60	224637
2026-01-29 22:59:48.21	137.33	8.48	-50.4	-75.5	3.5	3.02e+01	0	46	104	0	60	226360
2026-01-29 22:59:49.21	137.45	8.42	-50.4	-75.5	3.5	3.02e+01	0	46	104	0	60	227059
2026-01-29 22:59:50.22	137.58	8.35	-50.4	-75.7	3.5	3.02e+01	0	46	104	0	60	232424
2026-01-29 22:59:51.23	137.71	8.28	-50.4	-75.6	3.5	3.02e+01	0	46	104	0	60	228712
2026-01-29 22:59:52.23	137.83	8.22	-50.5	-75.5	3.5	3.02e+01	0	46	104	0	60	226490
2026-01-29 22:59:53.24	137.96	8.15	-50.4	-75.6	3.5	3.02e+01	0	46	104	0	60	230516
2026-01-29 22:59:54.25	138.08	8.09	-50.4	-75.6	3.5	3.02e+01	0	46	104	0	60	230175
2026-01-29 22:59:55.26	138.21	8.02	-50.4	-75.4	3.5	3.02e+01	0	46	104	0	60	224539
2026-01-29 22:59:56.26	138.33	7.95	-50.4	-75.6	3.5	3.02e+01	0	46	104	0	60	229192
2026-01-29 22:59:57.27	138.46	7.89	-50.4	-75.5	3.6	3.02e+01	0	46	104	0	60	225583
2026-01-29 22:59:58.28	138.58	7.82	-50.4	-75.5	3.6	3.02e+01	0	47	104	0	60	226423
2026-01-29 22:59:59.29	138.70	7.76	-50.3	-75.8	3.6	3.02e+01	0	46	104	0	60	234649
2026-01-29 23:00:00.29	138.82	7.69	-50.3	-75.8	3.6	3.02e+01	0	46	104	0	60	235012
2026-01-29 23:00:01.30	138.94	7.62	-50.3	-75.7	3.5	3.02e+01	0	46	104	0	60	232287
2026-01-29 23:00:02.30	139.06	7.56	-50.2	-75.7	3.5	3.02e+01	0	46	104	0	60	232280
2026-01-29 23:00:03.31	139.18	7.49	-50.3	-75.6	3.5	3.02e+01	0	46	104	0	60	228869
2026-01-29 23:00:04.32	139.30	7.43	-50.3	-75.5	3.6	3.02e+01	0	46	104	0	60	227797
2026-01-29 23:00:05.33	139.42	7.36	-50.3	-75.6	3.5	3.02e+01	0	46	104	0	60	228035
2026-01-29 23:00:06.34	139.54	7.30	-50.4	-75.5	3.5	3.02e+01	0	46	104	0	60	227917
2026-01-29 23:00:07.35	139.66	7.23	-50.5	-75.6	3.5	3.02e+01	0	46	104	0	60	228712
2026-01-29 23:00:08.35	139.78	7.17	-50.6	-75.5	3.5	3.02e+01	0	46	104	0	60	227093
2026-01-29 23:00:09.36	139.89	7.10	-50.7	-75.5	3.5	3.02e+01	0	46	104	0	60	227502
2026-01-29 23:00:10.37	140.01	7.04	-50.8	-75.8	3.5	3.02e+01	0	46	104	0	60	233574
2026-01-29 23:00:11.37	140.12	6.97	-50.9	-75.7	3.5	3.02e+01	0	46	104	0	60	232381
2026-01-29 23:00:12.38	140.24	6.91	-51.1	-75.5	3.6	3.02e+01	0	46	104	0	60	227824
2026-01-29 23:00:13.39	140.35	6.85	-51.2	-75.6	3.5	3.02e+01	0	46	104	0	60	229898
2026-01-29 23:00:14.39	140.47	6.78	-51.4	-75.6	3.5	3.02e+01	0	46	104	0	60	227976
2026-01-29 23:00:15.40	140.58	6.72	-51.6	-75.5	3.5	3.02e+01	0	46	104	0	60	227011
2026-01-29 23:00:16.41	140.69	6.65	-51.8	-75.6	3.5	3.02e+01	0	46	104	0	60	229211
2026-01-29 23:00:17.41	140.81	6.59	-52.0	-75.5	3.5	3.02e+01	0	46	104	0	60	226225
2026-01-29 23:00:18.41	140.92	6.53	-52.2	-75.7	3.5	3.02e+01	0	46	104	0	60	232598
2026-01-29 23:00:19.42	141.03	6.46	-52.4	-75.7	3.6	3.02e+01	0	46	104	0	60	232445
2026-01-29 23:00:20.43	141.14	6.40	-52.6	-75.6	3.5	3.02e+01	0	46	104	0	60	229484
2026-01-29 23:00:21.43	141.25	6.33	-52.8	-75.6	3.6	3.02e+01	0	46	104	0	60	229651
2026-01-29 23:00:22.44	141.36	6.27	-52.9	-75.4	3.6	3.02e+01	0	46	104	0	60	224764
2026-01-29 23:00:23.45	141.47	6.21	-53.0	-75.5	3.5	3.02e+01	0	46	104	0	60	226013
2026-01-29 23:00:24.46	141.58	6.14	-53.1	-75.5	3.5	3.02e+01	0	46	104	0	60	227442
2026-01-29 23:00:25.47	141.69	6.08	-53.2	-75.7	3.5	3.02e+01	0	46	104	0	60	230802
2026-01-29 23:00:26.47	141.79	6.02	-53.2	-75.6	3.5	3.02e+01	0	46	104	0	60	228070
2026-01-29 23:00:27.47	141.90	5.95	-53.3	-75.6	3.5	3.02e+01	0	46	104	0	60	230210
2026-01-29 23:00:28.48	142.01	5.89	-53.2	-75.6	3.5	3.02e+01	0	46	104	0	60	229182
2026-01-29 23:00:29.49	142.11	5.83	-53.2	-75.5	3.5	3.02e+01	0	46	104	0	60	227796
2026-01-29 23:00:30.49	142.22	5.76	-53.2	-75.6	3.5	3.02e+01	0	46	104	0	60	230164
2026-01-29 23:00:31.50	142.32	5.70	-53.1	-75.5	3.5	3.02e+01	0	46	104	0	60	227045
2026-01-29 23:00:32.51	142.43	5.64	-53.1	-75.5	3.5	3.02e+01	0	46	104	0	60	225386
2026-01-29 23:00:33.51	142.53	5.58	-53.0	-75.5	3.5	3.02e+01	0	46	104	0	60	225552
2026-01-29 23:00:34.52	142.64	5.51	-52.9	-75.5	3.5	3.02e+01	0	46	104	0	60	226707
2026-01-29 23:00:35.52	142.74	5.45	-52.8	-75.4	3.5	3.02e+01	0	46	104	0	60	224297
2026-01-29 23:00:36.53	142.84	5.39	-52.7	-75.6	3.6	3.02e+01	0	46	104	0	60	228858
2026-01-29 23:00:37.54	142.95	5.33	-52.6	-75.5	3.5	3.02e+01	0	46	104	0	60	225956
2026-01-29 23:00:38.54	143.05	5.26	-52.5	-75.4	3.5	3.02e+01	0	46	104	0	60	224641
2026-01-29 23:00:39.55	143.15	5.20	-52.4	-75.6	3.5	3.02e+01	0	46	104	0	60	228988
2026-01-29 23:00:40.56	143.25	5.14	-52.4	-75.4	3.5	3.02e+01	0	46	104	0	60	223738
2026-01-29 23:00:41.57	143.35	5.08	-52.3	-75.4	3.5	3.02e+01	0	46	104	0	60	224976
2026-01-29 23:00:42.57	143.45	5.02	-52.3	-75.4	3.5	3.02e+01	0	46	104	0	60	223444
2026-01-29 23:00:43.57	143.55	4.96	-52.2	-75.6	3.5	3.02e+01	0	46	104	0	60	229286
2026-01-29 23:00:44.58	143.65	4.89	-52.2	-75.6	3.5	3.02e+01	0	46	104	0	60	230135
2026-01-29 23:00:45.59	143.75	4.83	-52.2	-75.6	3.5	3.02e+01	0	46	104	0	60	229387
2026-01-29 23:00:46.59	143.85	4.77	-52.2	-75.5	3.5	3.02e+01	0	46	104	0	60	226696
2026-01-29 23:00:47.60	143.95	4.71	-52.1	-75.5	3.5	3.02e+01	0	46	104	0	60	226127
2026-01-29 23:00:48.61	144.04	4.65	-52.0	-75.6	3.5	3.02e+01	0	46	104	0	60	229291
2026-01-29 23:00:49.61	144.14	4.59	-52.0	-75.6	3.6	3.02e+01	0	46	104	0	60	229858
2026-01-29 23:00:50.61	144.24	4.53	-52.1	-75.5	3.5	3.02e+01	0	46	104	0	60	226625
2026-01-29 23:00:51.62	144.33	4.47	-52.0	-75.5	3.5	3.02e+01	0	46	104	0	60	226253
2026-01-29 23:00:52.62	144.43	4.41	-52.0	-75.6	3.5	3.02e+01	0	46	104	0	60	229974
2026-01-29 23:00:53.62	144.52	4.35	-52.0	-75.6	3.5	3.02e+01	0	46	104	0	60	230432
2026-01-29 23:00:54.63	144.62	4.28	-51.9	-75.5	3.5	3.02e+01	0	46	104	0	60	226689
2026-01-29 23:00:55.63	144.71	4.22	-51.9	-75.5	3.5	3.02e+01	0	46	104	0	60	227248
2026-01-29 23:00:56.64	144.81	4.16	-51.9	-75.7	3.5	3.02e+01	0	46	104	0	60	231004
2026-01-29 23:00:57.65	144.90	4.10	-51.8	-75.6	3.5	3.02e+01	0	46	104	0	60	228207
2026-01-29 23:00:58.66	145.00	4.04	-51.7	-75.5	3.5	3.02e+01	0	46	104	0	60	226012
2026-01-29 23:00:59.67	145.09	3.98	-51.7	-75.6	3.5	3.02e+01	0	46	104	0	60	228097
2026-01-29 23:01:00.68	145.18	3.92	-51.6	-75.5	3.5	3.02e+01	0	46	104	0	60	225654
2026-01-29 23:01:01.68	145.28	3.86	-51.6	-75.6	3.5	3.02e+01	0	46	104	0	60	229038
2026-01-29 23:01:02.69	145.37	3.80	-51.5	-75.6	3.5	3.02e+01	0	46	104	0	60	229067
2026-01-29 23:01:03.69	145.46	3.74	-51.5	-75.5	3.5	3.02e+01	0	46	104	0	60	226557
2026-01-29 23:01:04.70	145.55	3.68	-51.4	-75.5	3.5	3.02e+01	0	46	104	0	60	227646
2026-01-29 23:01:05.70	145.64	3.62	-51.4	-75.6	3.6	3.02e+01	0	46	104	0	60	228804
2026-01-29 23:01:06.71	145.73	3.56	-51.3	-75.3	3.5	3.02e+01	0	46	104	0	60	220670
2026-01-29 23:01:07.72	145.82	3.50	-51.2	-75.4	3.5	3.02e+01	0	46	104	0	60	223507
2026-01-29 23:01:08.72	145.91	3.45	-51.2	-74.9	3.5	3.02e+01	0	46	104	0	60	211756
2026-01-29 23:01:09.73	146.00	3.39	-51.1	-74.6	3.6	3.02e+01	0	46	104	0	60	204149
2026-01-29 23:01:10.74	146.09	3.33	-51.0	-74.9	3.7	3.02e+01	0	46	104	0	60	211431
2026-01-29 23:01:11.74	146.18	3.27	-51.0	-73.8	3.7	3.02e+01	0	46	104	0	60	186822
2026-01-29 23:01:12.75	146.27	3.21	-50.9	-73.8	3.7	3.02e+01	0	46	104	0	60	185499
2026-01-29 23:01:13.75	146.35	3.15	-50.9	-73.6	3.7	3.02e+01	0	46	104	0	60	181938
2026-01-29 23:01:14.76	146.44	3.09	-50.9	-73.8	3.7	3.02e+01	0	46	104	0	60	186901
2026-01-29 23:01:15.77	146.53	3.03	-50.9	-74.4	3.6	3.02e+01	0	46	104	0	60	199081
2026-01-29 23:01:16.78	146.62	2.97	-50.9	-74.4	3.6	3.02e+01	0	46	104	0	60	200017
2026-01-29 23:01:17.78	146.70	2.91	-50.9	-75.1	3.5	3.02e+01	0	46	104	0	60	217570
2026-01-29 23:01:18.79	146.79	2.86	-50.9	-75.5	3.5	3.02e+01	0	46	104	0	60	225425
2026-01-29 23:01:19.79	146.87	2.80	-50.8	-75.5	3.5	3.02e+01	0	46	104	0	60	226325
2026-01-29 23:01:20.80	146.96	2.74	-50.8	-75.4	3.5	3.02e+01	0	46	104	0	60	223956
2026-01-29 23:01:21.81	147.04	2.68	-50.7	-75.5	3.5	3.02e+01	0	46	104	0	60	226023
2026-01-29 23:01:22.82	147.13	2.62	-50.6	-75.3	3.5	3.02e+01	0	46	104	0	60	222538
2026-01-29 23:01:23.82	147.21	2.57	-50.6	-75.4	3.5	3.02e+01	0	46	104	0	60	224840
2026-01-29 23:01:24.83	147.30	2.51	-50.5	-75.4	3.5	3.02e+01	0	46	104	0	60	225280
2026-01-29 23:01:25.84	147.38	2.45	-50.4	-75.4	3.5	3.02e+01	0	46	104	0	60	223802
2026-01-29 23:01:26.84	147.46	2.39	-50.4	-75.6	3.5	3.02e+01	0	46	104	0	60	228888
2026-01-29 23:01:27.85	147.55	2.33	-50.3	-75.5	3.6	3.02e+01	0	46	104	0	60	227286
2026-01-29 23:01:28.86	147.63	2.28	-50.2	-75.4	3.5	3.02e+01	0	46	104	0	60	222799
2026-01-29 23:01:29.87	147.71	2.22	-50.2	-75.4	3.5	3.02e+01	0	46	104	0	60	223776
2026-01-29 23:01:30.88	147.79	2.16	-50.1	-75.4	3.5	3.02e+01	0	46	104	0	60	224310
2026-01-29 23:01:31.89	147.87	2.10	-50.1	-75.4	3.5	3.02e+01	0	46	104	0	60	223062
2026-01-29 23:01:32.89	147.96	2.05	-50.2	-75.5	3.5	3.02e+01	0	46	104	0	60	225690
2026-01-29 23:01:33.90	148.04	1.99	-50.1	-75.5	3.6	3.02e+01	0	46	104	0	60	227429
2026-01-29 23:01:34.90	148.12	1.93	-50.1	-75.6	3.5	3.02e+01	0	46	104	0	60	228985
2026-01-29 23:01:35.91	148.20	1.87	-50.0	-75.6	3.5	3.02e+01	0	46	104	0	60	228061
2026-01-29 23:01:36.92	148.28	1.82	-50.1	-75.3	3.5	3.02e+01	0	46	104	0	60	220231
2026-01-29 23:01:37.92	148.36	1.76	-50.1	-75.4	3.5	3.02e+01	0	46	104	0	60	223708
2026-01-29 23:01:38.93	148.44	1.70	-50.1	-75.4	3.5	3.02e+01	0	46	104	0	60	223576
2026-01-29 23:01:39.93	148.51	1.65	-50.1	-75.3	3.5	3.02e+01	0	46	104	0	60	222014
2026-01-29 23:01:40.94	148.59	1.59	-50.2	-75.5	3.5	3.02e+01	0	46	104	0	60	227546
2026-01-29 23:01:41.94	148.67	1.54	-50.2	-75.3	3.6	3.02e+01	0	46	104	0	60	220651
2026-01-29 23:01:42.95	148.75	1.48	-50.3	-75.5	3.5	3.02e+01	0	46	104	0	60	225640
2026-01-29 23:01:43.95	148.83	1.42	-50.4	-75.4	3.5	3.02e+01	0	46	104	0	60	225155
2026-01-29 23:01:44.96	148.90	1.37	-50.6	-75.4	3.6	3.02e+01	0	46	104	0	60	223347
2026-01-29 23:01:45.96	148.98	1.31	-50.7	-75.5	3.5	3.02e+01	0	46	104	0	60	227007
2026-01-29 23:01:46.97	149.06	1.25	-50.7	-75.3	3.5	3.02e+01	0	46	104	0	60	220613
2026-01-29 23:01:47.98	149.13	1.20	-50.9	-75.1	3.5	3.02e+01	0	46	104	0	60	217254
2026-01-29 23:01:48.98	149.21	1.14	-50.9	-75.2	3.6	3.02e+01	0	46	104	0	60	217965
2026-01-29 23:01:49.99	149.29	1.09	-51.0	-75.2	3.5	3.02e+01	0	46	104	0	60	220062
2026-01-29 23:01:51.00	149.36	1.03	-51.1	-75.1	3.5	3.02e+01	0	46	104	0	60	215472
2026-01-29 23:01:52.00	149.44	0.98	-51.1	-75.3	3.5	3.02e+01	0	46	104	0	60	221696
2026-01-29 23:01:53.01	149.51	0.92	-51.2	-75.3	3.5	3.02e+01	0	46	104	0	60	221011
2026-01-29 23:01:54.02	149.59	0.86	-51.2	-75.2	3.6	3.02e+01	0	46	104	0	60	219337
