passes_logs/2026/01/29/R3.2S-Naryan-Mar/R3.2S-Naryan-Mar__20260129_070456_NOAA_20_JPSS-1_rec.log

#Pass ID: 20260129_070456_NOAA 20 (JPSS-1)
#Satellite: NOAA 20 (JPSS-1)
#Configuration: NOAA 20
#almurnet v.1.7.20240730
#Start time: 2026-01-29 07:04:58

#Version: 2.2.20231116
#Station: R3.2S-Naryan-Mar
#Location: 53.008057 lon 67.646978 lat
#TLE: 1 43013U 17073A   26027.94683596  .00000137  00000+0  85741-4 0  9995
#TLE: 2 43013  98.7648 328.7503 0000940  21.3928 338.7287 14.19541154424576

#Time	Az	El	Level	Level2	SNR	BER	BlckErr	Temp	State	Recorded	gain1	gain2
2026-01-29 07:04:58.77	124.86	0.12	-60.7	-78.3	3.5	1.51e+00	0	43	0	0	60	322792
2026-01-29 07:04:59.77	124.84	0.18	-61.0	-78.7	3.6	1.51e+00	0	44	104	0	60	335933
2026-01-29 07:05:00.78	124.81	0.24	-60.6	-78.6	3.6	1.51e+00	0	44	104	0	60	332616
2026-01-29 07:05:01.79	124.78	0.30	-59.7	-78.6	3.6	1.51e+00	0	44	104	0	60	334236
2026-01-29 07:05:02.79	124.76	0.36	-61.0	-78.9	3.6	1.51e+00	0	44	104	0	60	344090
2026-01-29 07:05:03.79	124.73	0.42	-61.8	-79.3	3.6	1.51e+00	0	45	104	0	60	361563
2026-01-29 07:05:04.80	124.71	0.48	-61.8	-79.2	3.6	1.51e+00	0	45	104	0	60	355918
2026-01-29 07:05:05.81	124.68	0.54	-61.9	-79.3	3.6	1.51e+00	0	45	104	0	60	362788
2026-01-29 07:05:06.81	124.65	0.60	-61.6	-79.1	3.6	1.51e+00	0	45	104	0	60	352552
2026-01-29 07:05:07.82	124.63	0.66	-61.9	-79.3	3.6	1.51e+00	0	45	104	0	60	359590
2026-01-29 07:05:08.83	124.60	0.72	-60.4	-78.9	3.6	1.51e+00	0	45	104	0	60	345961
2026-01-29 07:05:09.84	124.57	0.78	-59.4	-78.5	3.6	1.51e+00	0	45	104	0	60	330779
2026-01-29 07:05:10.84	124.55	0.84	-61.9	-78.9	3.6	1.51e+00	0	45	104	0	60	345983
2026-01-29 07:05:11.85	124.52	0.90	-61.1	-78.4	3.6	1.51e+00	0	45	104	0	60	327109
2026-01-29 07:05:12.86	124.49	0.96	-60.7	-78.0	3.6	1.51e+00	0	45	104	0	60	311698
2026-01-29 07:05:13.87	124.47	1.03	-61.6	-78.1	3.6	1.51e+00	0	45	104	0	60	315839
2026-01-29 07:05:14.87	124.44	1.09	-60.6	-77.5	3.6	1.51e+00	0	45	104	0	60	295283
2026-01-29 07:05:15.88	124.41	1.15	-59.1	-76.8	3.6	1.51e+00	0	45	104	0	60	271287
2026-01-29 07:05:16.89	124.38	1.21	-55.7	-73.5	3.6	1.51e+00	0	45	104	0	60	184358
2026-01-29 07:05:17.89	124.36	1.27	-55.8	-73.5	3.6	1.51e+00	0	45	104	0	60	185432
2026-01-29 07:05:18.90	124.33	1.33	-55.7	-73.5	3.6	1.51e+00	0	45	104	0	60	185459
2026-01-29 07:05:19.91	124.30	1.39	-55.6	-73.8	3.6	1.51e+00	0	45	104	0	60	191549
2026-01-29 07:05:20.91	124.27	1.46	-55.5	-73.6	3.6	1.51e+00	0	45	104	0	60	188298
2026-01-29 07:05:21.92	124.24	1.52	-55.5	-73.3	3.6	1.51e+00	0	45	104	0	60	180955
2026-01-29 07:05:22.93	124.22	1.58	-55.5	-73.6	3.6	1.51e+00	0	45	104	0	60	187191
2026-01-29 07:05:23.93	124.19	1.64	-55.5	-73.4	3.6	1.51e+00	0	45	104	0	60	182280
2026-01-29 07:05:24.94	124.16	1.71	-55.5	-73.2	3.6	1.51e+00	0	45	104	0	60	179112
2026-01-29 07:05:25.94	124.13	1.77	-55.5	-73.4	3.6	1.51e+00	0	45	104	0	60	182865
2026-01-29 07:05:26.94	124.10	1.83	-55.4	-73.4	3.6	1.51e+00	0	45	104	0	60	184002
2026-01-29 07:05:27.95	124.07	1.89	-55.4	-73.2	3.6	1.51e+00	0	45	104	0	60	179931
2026-01-29 07:05:28.96	124.04	1.96	-55.5	-73.4	3.6	1.51e+00	0	45	104	0	60	183494
2026-01-29 07:05:29.97	124.01	2.02	-55.4	-73.4	3.6	1.51e+00	0	45	104	0	60	183652
2026-01-29 07:05:30.97	123.98	2.08	-55.4	-73.1	3.6	1.51e+00	0	45	104	0	60	177733
2026-01-29 07:05:31.98	123.96	2.15	-55.4	-73.3	3.6	1.51e+00	0	45	104	0	60	180316
2026-01-29 07:05:32.98	123.93	2.21	-55.4	-73.2	3.6	1.51e+00	0	45	104	0	60	178483
2026-01-29 07:05:33.99	123.90	2.27	-55.4	-73.4	3.5	1.51e+00	0	45	104	0	60	183466
2026-01-29 07:05:34.99	123.87	2.34	-55.4	-73.1	3.6	1.51e+00	0	45	104	0	60	176306
2026-01-29 07:05:36.00	123.84	2.40	-55.4	-73.0	3.6	1.51e+00	0	45	104	0	60	174600
2026-01-29 07:05:37.01	123.81	2.47	-55.5	-73.4	3.6	1.51e+00	0	45	104	0	60	183896
2026-01-29 07:05:38.01	123.78	2.53	-55.4	-73.4	3.6	1.51e+00	0	45	104	0	60	183841
2026-01-29 07:05:39.02	123.74	2.59	-55.4	-73.1	3.6	1.51e+00	0	45	104	0	60	177233
2026-01-29 07:05:40.03	123.71	2.66	-55.5	-73.6	3.6	1.51e+00	0	45	104	0	60	186781
2026-01-29 07:05:41.04	123.68	2.72	-55.5	-73.2	3.6	1.51e+00	0	45	104	0	60	178333
2026-01-29 07:05:42.04	123.65	2.79	-55.4	-73.6	3.6	1.51e+00	0	45	104	0	60	187469
2026-01-29 07:05:43.05	123.62	2.85	-55.4	-73.3	3.6	1.51e+00	0	45	104	0	60	180649
2026-01-29 07:05:44.05	123.59	2.92	-55.5	-73.5	3.6	1.51e+00	0	45	104	0	60	184795
2026-01-29 07:05:45.05	123.56	2.98	-55.4	-73.3	3.6	1.51e+00	0	45	104	0	60	182001
2026-01-29 07:05:46.06	123.53	3.05	-55.5	-73.5	3.6	1.51e+00	0	45	104	0	60	186411
2026-01-29 07:05:47.07	123.50	3.11	-55.5	-73.5	3.6	1.51e+00	0	45	104	0	60	186192
2026-01-29 07:05:48.07	123.46	3.18	-55.5	-73.2	3.6	1.51e+00	0	45	104	0	60	178910
2026-01-29 07:05:49.08	123.43	3.24	-55.4	-73.3	3.6	1.51e+00	0	45	104	0	60	181949
2026-01-29 07:05:50.09	123.40	3.31	-55.4	-73.2	3.5	1.51e+00	0	45	104	0	60	179303
2026-01-29 07:05:51.09	123.37	3.38	-55.5	-73.3	3.6	1.51e+00	0	45	104	0	60	181515
2026-01-29 07:05:52.10	123.33	3.44	-55.4	-73.4	3.6	1.51e+00	0	45	104	0	60	184181
2026-01-29 07:05:53.10	123.30	3.51	-55.4	-73.0	3.6	1.51e+00	0	45	104	0	60	175727
2026-01-29 07:05:54.11	123.27	3.58	-55.4	-73.4	3.6	1.51e+00	0	45	104	0	60	183177
2026-01-29 07:05:55.11	123.24	3.64	-55.4	-73.4	3.6	1.51e+00	0	45	104	0	60	182365
2026-01-29 07:05:56.12	123.20	3.71	-55.2	-73.1	3.6	1.51e+00	0	45	104	0	60	177886
2026-01-29 07:05:57.12	123.17	3.77	-55.1	-72.9	3.6	1.51e+00	0	45	104	0	60	172297
2026-01-29 07:05:58.13	123.14	3.84	-55.2	-73.1	3.6	1.51e+00	0	45	104	0	60	177088
2026-01-29 07:05:59.13	123.10	3.91	-55.1	-73.0	3.6	1.51e+00	0	45	104	0	60	174753
2026-01-29 07:06:00.14	123.07	3.98	-55.1	-73.2	3.6	1.51e+00	0	45	104	0	60	178473
2026-01-29 07:06:01.14	123.04	4.04	-55.0	-73.1	3.6	1.51e+00	0	45	104	0	60	176724
2026-01-29 07:06:02.15	123.00	4.11	-55.0	-73.3	3.6	1.51e+00	0	45	104	0	60	180470
2026-01-29 07:06:03.16	122.97	4.18	-55.1	-73.0	3.6	1.51e+00	0	45	104	0	60	175506
2026-01-29 07:06:04.17	122.93	4.25	-55.1	-73.2	3.6	1.51e+00	0	45	104	0	60	179674
2026-01-29 07:06:05.17	122.90	4.32	-55.2	-73.0	3.6	1.51e+00	0	45	104	0	60	174746
2026-01-29 07:06:06.18	122.86	4.38	-55.1	-73.0	3.6	1.51e+00	0	45	104	0	60	174213
2026-01-29 07:06:07.18	122.83	4.45	-55.1	-73.0	3.6	1.51e+00	0	45	104	0	60	174499
2026-01-29 07:06:08.19	122.79	4.52	-55.2	-72.9	3.6	1.51e+00	0	45	104	0	60	172511
2026-01-29 07:06:09.20	122.76	4.59	-55.1	-72.7	3.6	1.51e+00	0	45	104	0	60	168548
2026-01-29 07:06:10.20	122.72	4.66	-55.2	-72.9	3.6	1.51e+00	0	45	104	0	60	173859
2026-01-29 07:06:11.21	122.69	4.73	-55.2	-73.1	3.6	1.51e+00	0	45	104	0	60	176998
2026-01-29 07:06:12.21	122.65	4.80	-55.1	-73.1	3.6	1.51e+00	0	45	104	0	60	177039
2026-01-29 07:06:13.22	122.61	4.87	-55.1	-72.7	3.6	1.51e+00	0	45	104	0	60	168825
2026-01-29 07:06:14.22	122.58	4.94	-55.2	-72.8	3.6	1.51e+00	0	45	104	0	60	170076
2026-01-29 07:06:15.23	122.54	5.01	-55.1	-72.8	3.6	1.51e+00	0	45	104	0	60	171070
2026-01-29 07:06:16.23	122.50	5.08	-55.1	-73.1	3.6	1.51e+00	0	45	104	0	60	177861
2026-01-29 07:06:17.24	122.47	5.15	-55.0	-72.8	3.6	1.51e+00	0	45	104	0	60	170477
2026-01-29 07:06:18.24	122.43	5.22	-55.0	-72.7	3.6	1.51e+00	0	45	104	0	60	169560
2026-01-29 07:06:19.25	122.39	5.29	-55.0	-72.8	3.6	1.51e+00	0	45	104	0	60	170395
2026-01-29 07:06:20.26	122.36	5.36	-55.0	-73.2	3.6	1.51e+00	0	45	104	0	60	179618
2026-01-29 07:06:21.27	122.32	5.43	-55.0	-73.2	3.6	1.51e+00	0	45	104	0	60	179530
2026-01-29 07:06:22.28	122.28	5.50	-55.0	-72.8	3.6	1.51e+00	0	45	104	0	60	170768
2026-01-29 07:06:23.28	122.24	5.57	-54.9	-73.0	3.6	1.51e+00	0	45	104	0	60	175904
2026-01-29 07:06:24.29	122.20	5.64	-54.9	-72.8	3.6	1.51e+00	0	45	104	0	60	170382
2026-01-29 07:06:25.30	122.16	5.72	-54.8	-72.7	3.6	1.51e+00	0	45	104	0	60	169411
2026-01-29 07:06:26.31	122.13	5.79	-54.8	-72.7	3.6	1.51e+00	0	45	104	0	60	169382
2026-01-29 07:06:27.31	122.09	5.86	-54.8	-72.9	3.6	1.51e+00	0	45	104	0	60	173233
2026-01-29 07:06:28.32	122.05	5.93	-54.8	-72.9	3.6	1.51e+00	0	45	104	0	60	172295
2026-01-29 07:06:29.32	122.01	6.00	-54.9	-73.1	3.6	1.51e+00	0	45	104	0	60	177330
2026-01-29 07:06:30.33	121.97	6.08	-55.1	-72.9	3.6	1.51e+00	0	45	104	0	60	172202
2026-01-29 07:06:31.33	121.93	6.15	-56.9	-75.1	3.6	1.51e+00	0	45	104	0	60	222951
2026-01-29 07:06:32.34	121.89	6.22	-54.8	-73.9	3.6	1.51e+00	0	45	104	0	60	193008
2026-01-29 07:06:33.35	121.85	6.30	-55.3	-73.0	3.6	1.51e+00	0	45	104	0	60	175185
2026-01-29 07:06:34.35	121.81	6.37	-57.2	-74.7	3.6	1.51e+00	0	45	104	0	60	213086
2026-01-29 07:06:35.36	121.77	6.44	-53.8	-72.7	3.6	1.51e+00	0	45	104	0	60	169913
2026-01-29 07:06:36.37	121.73	6.52	-54.0	-72.5	3.6	1.51e+00	0	45	104	0	60	164924
2026-01-29 07:06:37.37	121.69	6.59	-54.3	-72.9	3.6	1.51e+00	0	45	104	0	60	172504
2026-01-29 07:06:38.38	121.64	6.66	-54.4	-72.9	3.6	1.51e+00	0	45	104	0	60	173904
2026-01-29 07:06:39.39	121.60	6.74	-53.0	-72.4	3.6	1.51e+00	0	45	104	0	60	163924
2026-01-29 07:06:40.40	121.56	6.81	-57.3	-74.3	3.6	1.51e+00	0	45	104	0	60	204187
2026-01-29 07:06:41.41	121.52	6.89	-55.1	-72.8	3.6	1.51e+00	0	45	104	0	60	170965
2026-01-29 07:06:42.41	121.48	6.96	-54.5	-73.6	3.6	1.51e+00	0	45	104	0	60	187425
2026-01-29 07:06:43.42	121.43	7.04	-55.1	-72.9	3.5	1.51e+00	0	45	104	0	60	172171
2026-01-29 07:06:44.43	121.39	7.11	-55.9	-73.0	3.6	1.51e+00	0	45	104	0	60	174161
2026-01-29 07:06:45.43	121.35	7.19	-56.1	-73.2	3.6	1.51e+00	0	45	104	0	60	178700
2026-01-29 07:06:46.43	121.31	7.27	-56.1	-73.5	3.6	1.51e+00	0	46	104	0	60	184785
2026-01-29 07:06:47.44	121.26	7.34	-54.4	-74.3	3.6	1.51e+00	0	45	104	0	60	204062
2026-01-29 07:06:48.45	121.22	7.42	-56.3	-75.2	3.6	1.51e+00	0	46	104	0	60	225635
2026-01-29 07:06:49.46	121.17	7.49	-55.5	-74.6	3.6	1.51e+00	0	46	104	0	60	210832
2026-01-29 07:06:50.47	121.13	7.57	-58.6	-75.3	3.6	1.51e+00	0	45	104	0	60	228860
2026-01-29 07:06:51.47	121.09	7.65	-55.5	-73.2	3.5	1.51e+00	0	46	104	0	60	178685
2026-01-29 07:06:52.48	121.04	7.73	-55.9	-73.3	3.6	1.51e+00	0	45	104	0	60	181870
2026-01-29 07:06:53.49	121.00	7.80	-55.9	-73.6	3.6	1.51e+00	0	46	104	0	60	186629
2026-01-29 07:06:54.49	120.95	7.88	-55.9	-73.8	3.6	1.51e+00	0	45	104	0	60	192819
2026-01-29 07:06:55.50	120.91	7.96	-57.3	-75.0	3.6	1.51e+00	0	45	104	0	60	219083
2026-01-29 07:06:56.51	120.86	8.04	-58.6	-75.2	3.6	1.51e+00	0	45	104	0	60	226248
2026-01-29 07:06:57.52	120.81	8.11	-56.7	-74.5	3.6	1.51e+00	0	45	104	0	60	208634
2026-01-29 07:06:58.52	120.77	8.19	-58.5	-75.4	3.6	1.51e+00	0	45	104	0	60	231154
2026-01-29 07:06:59.52	120.72	8.27	-57.0	-75.3	3.6	1.51e+00	0	45	104	0	60	228280
2026-01-29 07:07:00.53	120.68	8.35	-57.1	-75.2	3.6	1.51e+00	0	45	104	0	60	224385
2026-01-29 07:07:01.54	120.63	8.43	-57.1	-75.2	3.6	1.51e+00	0	45	104	0	60	225568
2026-01-29 07:07:02.54	120.58	8.51	-57.7	-75.4	3.6	1.51e+00	0	46	104	0	60	231229
2026-01-29 07:07:03.55	120.53	8.59	-57.9	-75.4	3.6	1.51e+00	0	45	104	0	60	231226
2026-01-29 07:07:04.55	120.49	8.67	-58.1	-75.4	3.6	1.51e+00	0	45	104	0	60	230819
2026-01-29 07:07:05.56	120.44	8.75	-58.1	-75.6	3.6	1.51e+00	0	45	104	0	60	236653
2026-01-29 07:07:06.57	120.39	8.83	-58.2	-75.7	3.5	1.51e+00	0	45	104	0	60	238628
2026-01-29 07:07:07.57	120.34	8.91	-56.3	-74.8	3.6	1.51e+00	0	46	104	0	60	214391
2026-01-29 07:07:08.58	120.29	8.99	-56.7	-74.8	3.6	1.51e+00	0	46	104	0	60	214876
2026-01-29 07:07:09.59	120.24	9.07	-56.8	-74.6	3.6	1.51e+00	0	45	104	0	60	209255
2026-01-29 07:07:10.60	120.19	9.15	-57.8	-74.4	3.6	1.51e+00	0	45	104	0	60	206394
2026-01-29 07:07:11.61	120.14	9.23	-58.2	-75.6	3.6	1.51e+00	0	45	104	0	60	237376
2026-01-29 07:07:12.61	120.09	9.31	-56.6	-75.4	3.6	1.51e+00	0	46	104	0	60	231824
2026-01-29 07:07:13.62	120.04	9.40	-58.1	-75.8	3.6	1.51e+00	0	46	104	0	60	241574
2026-01-29 07:07:14.62	119.99	9.48	-58.9	-75.8	3.6	1.51e+00	0	46	104	0	60	241901
2026-01-29 07:07:15.63	119.94	9.56	-57.8	-74.7	3.6	1.51e+00	0	46	104	0	60	212927
2026-01-29 07:07:16.63	119.89	9.64	-58.1	-75.1	3.6	1.51e+00	0	46	104	0	60	221852
2026-01-29 07:07:17.64	119.84	9.72	-58.2	-75.1	3.6	1.51e+00	0	46	104	0	60	223205
2026-01-29 07:07:18.64	119.79	9.81	-57.8	-75.2	3.6	1.51e+00	0	46	104	0	60	224175
2026-01-29 07:07:19.65	119.73	9.89	-57.8	-75.5	3.6	1.51e+00	0	46	104	0	60	233862
2026-01-29 07:07:20.65	119.68	9.97	-56.2	-75.0	3.6	1.51e+00	0	46	104	0	60	219633
2026-01-29 07:07:21.66	119.63	10.06	-58.3	-75.6	3.6	1.51e+00	0	46	104	0	60	235624
2026-01-29 07:07:22.67	119.58	10.14	-57.5	-75.6	3.6	1.51e+00	0	46	104	0	60	236337
2026-01-29 07:07:23.68	119.52	10.23	-58.4	-75.2	3.6	1.51e+00	0	45	104	0	60	224876
2026-01-29 07:07:24.68	119.47	10.31	-58.0	-75.3	3.6	1.51e+00	0	45	104	0	60	228136
2026-01-29 07:07:25.69	119.41	10.40	-58.3	-75.2	3.6	1.51e+00	0	45	104	0	60	225853
2026-01-29 07:07:26.70	119.36	10.48	-57.7	-75.3	3.6	1.51e+00	0	46	104	0	60	228932
2026-01-29 07:07:27.70	119.30	10.57	-57.2	-75.8	3.6	1.51e+00	0	46	104	0	60	242477
2026-01-29 07:07:28.71	119.25	10.65	-56.8	-75.6	3.6	1.51e+00	0	46	104	0	60	235145
2026-01-29 07:07:29.71	119.19	10.74	-56.9	-75.1	3.6	1.51e+00	0	46	104	0	60	222480
2026-01-29 07:07:30.71	119.14	10.82	-56.1	-75.0	3.6	1.51e+00	0	46	104	0	60	221528
2026-01-29 07:07:31.72	119.08	10.91	-58.4	-75.7	3.6	1.51e+00	0	46	104	0	60	238065
2026-01-29 07:07:32.72	119.03	11.00	-58.4	-75.2	3.6	1.51e+00	0	45	104	0	60	226649
2026-01-29 07:07:33.73	118.97	11.09	-58.3	-75.5	3.6	1.51e+00	0	45	104	0	60	233939
2026-01-29 07:07:34.74	118.91	11.17	-56.4	-75.2	3.6	1.51e+00	0	46	104	0	60	224621
2026-01-29 07:07:35.74	118.85	11.26	-59.2	-76.1	3.6	1.51e+00	0	46	104	0	60	250588
2026-01-29 07:07:36.74	118.80	11.35	-57.3	-75.9	3.6	1.51e+00	0	46	104	0	60	243908
2026-01-29 07:07:37.75	118.74	11.44	-58.1	-74.6	3.6	1.51e+00	0	45	104	0	60	209943
2026-01-29 07:07:38.76	118.68	11.53	-57.2	-74.7	3.6	1.51e+00	0	46	104	0	60	213178
2026-01-29 07:07:39.77	118.62	11.61	-57.2	-75.5	3.6	1.51e+00	0	46	104	0	60	233903
2026-01-29 07:07:40.78	118.56	11.70	-57.2	-74.8	3.6	1.51e+00	0	46	104	0	60	215959
2026-01-29 07:07:41.78	118.50	11.79	-57.3	-74.8	3.6	1.51e+00	0	46	104	0	60	214697
2026-01-29 07:07:42.79	118.44	11.88	-58.3	-75.7	3.6	1.51e+00	0	46	104	0	60	239208
2026-01-29 07:07:43.80	118.38	11.97	-58.3	-76.0	3.6	1.51e+00	0	46	104	0	60	246695
2026-01-29 07:07:44.80	118.32	12.06	-57.5	-76.0	3.6	1.51e+00	0	46	104	0	60	246724
2026-01-29 07:07:45.81	118.26	12.15	-58.5	-75.5	3.6	1.51e+00	0	45	104	0	60	233145
2026-01-29 07:07:46.82	118.19	12.24	-57.1	-75.6	3.6	1.51e+00	0	46	104	0	60	236693
2026-01-29 07:07:47.83	118.13	12.34	-56.8	-75.7	3.6	1.51e+00	0	46	104	0	60	237464
2026-01-29 07:07:48.83	118.07	12.43	-58.0	-76.0	3.6	1.51e+00	0	46	104	0	60	247216
2026-01-29 07:07:49.84	118.01	12.52	-58.1	-75.9	3.6	1.51e+00	0	46	104	0	60	245509
2026-01-29 07:07:50.85	117.94	12.61	-58.4	-76.1	3.6	1.51e+00	0	46	104	0	60	251414
2026-01-29 07:07:51.85	117.88	12.70	-59.1	-76.2	3.6	1.51e+00	0	46	104	0	60	254373
2026-01-29 07:07:52.86	117.81	12.80	-58.4	-76.3	3.6	1.51e+00	0	46	104	0	60	256232
2026-01-29 07:07:53.87	117.75	12.89	-57.9	-75.9	3.6	1.51e+00	0	46	104	0	60	242986
2026-01-29 07:07:54.87	117.68	12.98	-59.0	-76.5	3.6	1.51e+00	0	46	104	0	60	262770
2026-01-29 07:07:55.88	117.62	13.08	-58.7	-76.1	3.6	1.51e+00	0	46	104	0	60	248975
2026-01-29 07:07:56.89	117.55	13.17	-58.7	-76.4	3.6	1.51e+00	0	46	104	0	60	258172
2026-01-29 07:07:57.89	117.49	13.27	-58.1	-76.0	3.6	1.51e+00	0	46	104	0	60	248151
2026-01-29 07:07:58.90	117.42	13.36	-58.7	-76.4	3.6	1.51e+00	0	46	104	0	60	260227
2026-01-29 07:07:59.91	117.35	13.46	-57.9	-75.7	3.6	1.51e+00	0	46	104	0	60	239557
2026-01-29 07:08:00.92	117.28	13.55	-58.9	-76.3	3.6	1.51e+00	0	46	104	0	60	257087
2026-01-29 07:08:01.93	117.21	13.65	-58.8	-76.4	3.6	1.51e+00	0	46	104	0	60	259221
2026-01-29 07:08:02.93	117.15	13.74	-59.0	-76.3	3.6	1.51e+00	0	46	104	0	60	255147
2026-01-29 07:08:03.94	117.08	13.84	-58.8	-76.0	3.6	1.51e+00	0	46	104	0	60	246702
2026-01-29 07:08:04.95	117.01	13.94	-58.3	-76.4	3.6	1.51e+00	0	46	104	0	60	259606
2026-01-29 07:08:05.95	116.94	14.03	-58.8	-76.1	3.6	1.51e+00	0	46	104	0	60	251317
2026-01-29 07:08:06.95	116.87	14.13	-58.4	-76.0	3.6	1.51e+00	0	46	104	0	60	247574
2026-01-29 07:08:07.95	116.80	14.23	-59.2	-76.2	3.6	1.51e+00	0	46	104	0	60	253513
2026-01-29 07:08:08.95	116.72	14.32	-58.0	-76.2	3.6	1.51e+00	0	46	104	0	60	251720
2026-01-29 07:08:09.96	116.65	14.42	-58.9	-75.9	3.6	1.51e+00	0	46	104	0	60	243309
2026-01-29 07:08:10.96	116.58	14.52	-58.2	-76.3	3.6	1.51e+00	0	46	104	0	60	254478
2026-01-29 07:08:11.96	116.51	14.62	-59.3	-76.0	3.6	1.51e+00	0	46	104	0	60	247297
2026-01-29 07:08:12.96	116.43	14.72	-59.1	-75.9	3.6	1.51e+00	0	46	104	0	60	243987
2026-01-29 07:08:13.97	116.36	14.82	-59.2	-76.1	3.6	1.51e+00	0	46	104	0	60	250847
2026-01-29 07:08:14.98	116.28	14.92	-59.4	-76.1	3.6	1.51e+00	0	46	104	0	60	249010
2026-01-29 07:08:15.99	116.21	15.02	-59.0	-75.8	3.6	1.51e+00	0	46	104	0	60	242555
2026-01-29 07:08:17.00	116.13	15.12	-58.8	-76.2	3.6	1.51e+00	0	46	104	0	60	251655
2026-01-29 07:08:18.01	116.06	15.22	-59.7	-76.3	3.6	1.51e+00	0	46	104	0	60	255335
2026-01-29 07:08:19.01	115.98	15.32	-59.0	-76.2	3.6	1.51e+00	0	46	104	0	60	253212
2026-01-29 07:08:20.02	115.90	15.43	-58.9	-76.1	3.5	1.51e+00	0	46	104	0	60	250724
2026-01-29 07:08:21.03	115.82	15.53	-58.8	-75.9	3.6	1.51e+00	0	46	104	0	60	245120
2026-01-29 07:08:22.04	115.75	15.63	-58.8	-76.3	3.6	1.51e+00	0	46	104	0	60	255497
2026-01-29 07:08:23.05	115.67	15.74	-59.7	-76.3	3.6	1.51e+00	0	46	104	0	60	256690
2026-01-29 07:08:24.05	115.59	15.84	-59.8	-76.3	3.6	1.51e+00	0	46	104	0	60	257238
2026-01-29 07:08:25.05	115.51	15.94	-58.9	-76.4	3.6	1.51e+00	0	46	104	0	60	258717
2026-01-29 07:08:26.05	115.43	16.05	-59.4	-76.0	3.6	1.51e+00	0	46	104	0	60	248433
2026-01-29 07:08:27.06	115.35	16.15	-58.6	-75.9	3.6	1.51e+00	0	46	104	0	60	244902
2026-01-29 07:08:28.06	115.26	16.26	-59.7	-76.3	3.6	1.51e+00	0	46	104	0	60	256971
2026-01-29 07:08:29.07	115.18	16.36	-58.9	-76.5	3.6	1.51e+00	0	46	104	0	60	261981
2026-01-29 07:08:30.08	115.10	16.47	-59.3	-76.0	3.6	1.51e+00	0	46	104	0	60	246948
2026-01-29 07:08:31.09	115.01	16.57	-58.9	-76.1	3.6	1.51e+00	0	46	104	0	60	249646
2026-01-29 07:08:32.09	114.93	16.68	-59.4	-76.4	3.6	1.51e+00	0	46	104	0	60	259583
2026-01-29 07:08:33.10	114.85	16.79	-59.4	-76.3	3.6	1.51e+00	0	46	104	0	60	255681
2026-01-29 07:08:34.11	114.76	16.90	-59.3	-76.1	3.6	1.51e+00	0	46	104	0	60	249562
2026-01-29 07:08:35.11	114.67	17.00	-59.8	-76.4	3.6	1.51e+00	0	46	104	0	60	260120
2026-01-29 07:08:36.12	114.59	17.11	-60.0	-76.4	3.6	1.51e+00	0	46	104	0	60	259370
2026-01-29 07:08:37.13	114.50	17.22	-59.4	-76.3	3.6	1.51e+00	0	46	104	0	60	254765
2026-01-29 07:08:38.14	114.41	17.33	-59.7	-76.3	3.6	1.51e+00	0	46	104	0	60	255255
2026-01-29 07:08:39.14	114.32	17.44	-59.1	-76.2	3.6	1.51e+00	0	46	104	0	60	254018
2026-01-29 07:08:40.15	114.23	17.55	-59.1	-76.0	3.6	1.51e+00	0	46	104	0	60	246721
2026-01-29 07:08:41.16	114.14	17.66	-59.1	-76.2	3.6	1.51e+00	0	46	104	0	60	253509
2026-01-29 07:08:42.16	114.05	17.77	-59.2	-76.2	3.6	1.51e+00	0	46	104	0	60	253541
2026-01-29 07:08:43.17	113.96	17.88	-59.6	-76.2	3.6	1.51e+00	0	46	104	0	60	253553
2026-01-29 07:08:44.17	113.87	17.99	-59.5	-76.4	3.6	1.51e+00	0	46	104	0	60	257991
2026-01-29 07:08:45.18	113.77	18.10	-59.4	-76.3	3.6	1.51e+00	0	46	104	0	60	256799
2026-01-29 07:08:46.19	113.68	18.22	-59.4	-76.3	3.6	1.51e+00	0	46	104	0	60	254648
2026-01-29 07:08:47.19	113.59	18.33	-59.1	-76.2	3.6	1.51e+00	0	46	104	0	60	253583
2026-01-29 07:08:48.20	113.49	18.44	-59.1	-76.1	3.6	1.51e+00	0	46	104	0	60	249575
2026-01-29 07:08:49.21	113.39	18.56	-60.0	-76.6	3.6	1.51e+00	0	46	104	0	60	264573
2026-01-29 07:08:50.21	113.30	18.67	-58.9	-76.1	3.6	1.51e+00	0	46	104	0	60	250859
2026-01-29 07:08:51.22	113.20	18.79	-58.9	-76.3	3.6	1.51e+00	0	46	104	0	60	256400
2026-01-29 07:08:52.23	113.10	18.90	-59.0	-76.1	3.6	1.51e+00	0	46	104	0	60	249225
2026-01-29 07:08:53.24	113.00	19.02	-59.9	-76.5	3.6	1.51e+00	0	46	104	0	60	263060
2026-01-29 07:08:54.25	112.90	19.13	-58.6	-76.2	3.6	1.51e+00	0	46	104	0	60	251655
2026-01-29 07:08:55.25	112.80	19.25	-59.0	-76.6	3.6	1.51e+00	0	46	104	0	60	264768
2026-01-29 07:08:56.25	112.70	19.37	-59.3	-76.4	3.6	1.51e+00	0	46	104	0	60	258586
2026-01-29 07:08:57.25	112.60	19.48	-59.6	-76.6	3.6	1.51e+00	0	45	104	0	60	263992
2026-01-29 07:08:58.26	112.50	19.60	-58.9	-76.0	3.6	1.51e+00	0	45	104	0	60	247406
2026-01-29 07:08:59.26	112.40	19.72	-59.2	-76.4	3.6	1.51e+00	0	46	104	0	60	258863
2026-01-29 07:09:00.27	112.29	19.84	-59.2	-76.3	3.6	1.51e+00	0	46	104	0	60	256072
2026-01-29 07:09:01.28	112.18	19.96	-59.2	-76.3	3.6	1.51e+00	0	46	104	0	60	256264
2026-01-29 07:09:02.28	112.08	20.08	-59.3	-76.3	3.6	1.51e+00	0	46	104	0	60	257198
2026-01-29 07:09:03.29	111.97	20.20	-59.2	-76.4	3.6	1.51e+00	0	46	104	0	60	257478
2026-01-29 07:09:04.30	111.86	20.32	-59.0	-76.4	3.6	1.51e+00	0	46	104	0	60	258681
2026-01-29 07:09:05.31	111.75	20.44	-59.0	-76.5	3.6	1.51e+00	0	46	104	0	60	260709
2026-01-29 07:09:06.31	111.65	20.56	-59.4	-76.3	3.6	1.51e+00	0	46	104	0	60	256631
2026-01-29 07:09:07.32	111.53	20.68	-59.1	-76.7	3.6	1.51e+00	0	46	104	0	60	268338
2026-01-29 07:09:08.33	111.42	20.81	-58.9	-76.2	3.6	1.51e+00	0	46	104	0	60	252288
2026-01-29 07:09:09.34	111.31	20.93	-59.4	-76.6	3.6	1.51e+00	0	46	104	0	60	263875
2026-01-29 07:09:10.34	111.20	21.05	-59.3	-76.5	3.6	1.51e+00	0	46	104	0	60	260699
2026-01-29 07:09:11.34	111.08	21.17	-59.1	-75.9	3.6	1.51e+00	0	46	104	0	60	245406
2026-01-29 07:09:12.35	110.97	21.30	-59.1	-76.0	3.6	1.51e+00	0	46	104	0	60	247697
2026-01-29 07:09:13.36	110.85	21.43	-59.1	-75.8	3.6	1.51e+00	0	46	104	0	60	240788
2026-01-29 07:09:14.36	110.74	21.55	-59.1	-76.2	3.6	1.51e+00	0	46	104	0	60	252754
2026-01-29 07:09:15.37	110.62	21.68	-58.4	-75.8	3.6	1.51e+00	0	46	104	0	60	241653
2026-01-29 07:09:16.38	110.50	21.80	-59.2	-76.7	3.6	1.51e+00	0	46	104	0	60	266745
2026-01-29 07:09:17.39	110.38	21.93	-58.7	-76.3	3.6	1.51e+00	0	46	104	0	60	256829
2026-01-29 07:09:18.40	110.26	22.06	-59.6	-76.5	3.6	1.51e+00	0	46	104	0	60	262308
2026-01-29 07:09:19.41	110.13	22.19	-58.9	-76.4	3.6	1.51e+00	0	46	104	0	60	258169
2026-01-29 07:09:20.41	110.01	22.31	-59.0	-76.5	3.6	1.51e+00	0	46	104	0	60	261140
2026-01-29 07:09:21.42	109.89	22.44	-58.8	-76.5	3.6	1.51e+00	0	46	104	0	60	261822
2026-01-29 07:09:22.43	109.76	22.57	-59.8	-76.5	3.5	1.51e+00	0	46	104	0	60	262788
2026-01-29 07:09:23.44	109.63	22.70	-59.0	-76.7	3.6	1.51e+00	0	46	104	0	60	267333
2026-01-29 07:09:24.44	109.51	22.83	-59.2	-76.5	3.6	1.51e+00	0	46	104	0	60	261423
2026-01-29 07:09:25.44	109.38	22.96	-59.1	-76.3	3.6	1.51e+00	0	46	104	0	60	256116
2026-01-29 07:09:26.45	109.25	23.10	-59.3	-76.1	3.5	1.51e+00	0	46	104	0	60	249146
2026-01-29 07:09:27.46	109.12	23.23	-59.6	-76.8	3.6	1.51e+00	0	46	104	0	60	270537
2026-01-29 07:09:28.46	108.99	23.36	-59.0	-76.2	3.6	1.51e+00	0	46	104	0	60	251813
2026-01-29 07:09:29.47	108.85	23.49	-58.4	-76.2	3.6	1.51e+00	0	46	104	0	60	252627
2026-01-29 07:09:30.47	108.72	23.63	-57.9	-76.5	3.6	1.51e+00	0	46	104	0	60	261210
2026-01-29 07:09:31.48	108.59	23.76	-57.8	-76.5	3.6	1.51e+00	0	46	104	0	60	260993
2026-01-29 07:09:32.49	108.45	23.89	-59.2	-76.4	3.6	1.51e+00	0	46	104	0	60	258642
2026-01-29 07:09:33.49	108.31	24.03	-57.8	-76.5	3.6	1.51e+00	0	46	104	0	60	262437
2026-01-29 07:09:34.49	108.17	24.16	-57.6	-76.4	3.6	1.51e+00	0	46	104	0	60	259337
2026-01-29 07:09:35.50	108.03	24.30	-58.3	-76.0	3.6	1.51e+00	0	46	104	0	60	247542
2026-01-29 07:09:36.51	107.89	24.44	-57.4	-75.7	3.6	1.51e+00	0	46	104	0	60	238405
2026-01-29 07:09:37.52	107.75	24.57	-57.1	-75.9	3.6	1.51e+00	0	46	104	0	60	243003
2026-01-29 07:09:38.53	107.60	24.71	-57.2	-76.2	3.6	1.51e+00	0	46	104	0	60	254096
2026-01-29 07:09:39.54	107.46	24.85	-57.5	-76.7	3.6	1.51e+00	0	46	104	0	60	267881
2026-01-29 07:09:40.55	107.31	24.99	-58.3	-76.1	3.6	1.51e+00	0	46	104	0	60	250087
2026-01-29 07:09:41.55	107.16	25.13	-57.5	-76.0	3.6	1.51e+00	0	46	104	0	60	248238
2026-01-29 07:09:42.56	107.01	25.27	-58.2	-75.5	3.6	1.51e+00	0	46	104	0	60	232719
2026-01-29 07:09:43.57	106.86	25.41	-58.8	-76.5	3.6	1.51e+00	0	46	104	0	60	263289
2026-01-29 07:09:44.57	106.71	25.55	-58.5	-75.6	3.6	1.51e+00	0	46	104	0	60	235613
2026-01-29 07:09:45.58	106.56	25.69	-58.8	-76.1	3.6	1.51e+00	0	46	104	0	60	251245
2026-01-29 07:09:46.58	106.41	25.83	-59.9	-76.6	3.6	1.51e+00	0	46	104	0	60	266157
2026-01-29 07:09:47.59	106.25	25.97	-60.1	-76.7	3.6	1.51e+00	0	46	104	0	60	268048
2026-01-29 07:09:48.60	106.09	26.12	-58.5	-76.4	3.6	1.51e+00	0	46	104	0	60	257945
2026-01-29 07:09:49.60	105.93	26.26	-60.0	-76.6	3.6	1.51e+00	0	46	104	0	60	264413
2026-01-29 07:09:50.61	105.77	26.40	-59.9	-76.7	3.6	1.51e+00	0	46	104	0	60	268861
2026-01-29 07:09:51.62	105.61	26.55	-59.9	-76.6	3.6	1.51e+00	0	46	104	0	60	264954
2026-01-29 07:09:52.63	105.45	26.69	-59.8	-76.9	3.6	1.51e+00	0	46	104	0	60	272721
2026-01-29 07:09:53.63	105.28	26.84	-59.4	-76.6	3.6	1.51e+00	0	46	104	0	60	264894
2026-01-29 07:09:54.64	105.11	26.99	-59.0	-76.5	3.6	1.51e+00	0	46	104	0	60	260548
2026-01-29 07:09:55.65	104.95	27.13	-59.4	-76.8	3.6	1.51e+00	0	46	104	0	60	269722
2026-01-29 07:09:56.66	104.78	27.28	-58.9	-76.1	3.6	1.51e+00	0	46	104	0	60	249957
2026-01-29 07:09:57.66	104.61	27.43	-59.1	-76.1	3.6	1.51e+00	0	46	104	0	60	248998
2026-01-29 07:09:58.67	104.43	27.57	-59.6	-76.0	3.6	1.51e+00	0	46	104	0	60	248511
2026-01-29 07:09:59.68	104.26	27.72	-59.2	-76.2	3.6	1.51e+00	0	46	104	0	60	254308
2026-01-29 07:10:00.69	104.08	27.87	-58.8	-76.4	3.6	1.51e+00	0	46	104	0	60	259137
2026-01-29 07:10:01.69	103.90	28.02	-60.3	-76.1	3.6	1.51e+00	0	46	104	0	60	249981
2026-01-29 07:10:02.70	103.72	28.17	-58.9	-75.6	3.6	1.51e+00	0	46	104	0	60	234862
2026-01-29 07:10:03.71	103.54	28.32	-59.0	-76.4	3.6	1.51e+00	0	46	104	0	60	258227
2026-01-29 07:10:04.71	103.36	28.47	-58.7	-76.4	3.6	1.51e+00	0	46	104	0	60	259603
2026-01-29 07:10:05.71	103.18	28.62	-58.8	-76.2	3.6	1.51e+00	0	46	104	0	60	254397
2026-01-29 07:10:06.71	102.99	28.77	-58.8	-76.4	3.6	1.51e+00	0	46	104	0	60	259129
2026-01-29 07:10:07.72	102.80	28.93	-59.0	-75.7	3.6	1.51e+00	0	46	104	0	60	238479
2026-01-29 07:10:08.72	102.61	29.08	-58.7	-76.3	3.6	1.51e+00	0	46	104	0	60	256279
2026-01-29 07:10:09.73	102.42	29.23	-59.3	-75.6	3.6	1.51e+00	0	46	104	0	60	237266
2026-01-29 07:10:10.74	102.23	29.39	-59.7	-76.6	3.6	1.51e+00	0	46	104	0	60	266341
2026-01-29 07:10:11.75	102.03	29.54	-60.3	-77.0	3.6	1.51e+00	0	46	104	0	60	276562
2026-01-29 07:10:12.76	101.83	29.70	-59.8	-76.3	3.6	1.51e+00	0	46	104	0	60	254555
2026-01-29 07:10:13.77	101.63	29.85	-60.3	-76.4	3.6	1.51e+00	0	46	104	0	60	257477
2026-01-29 07:10:14.77	101.43	30.01	-60.2	-76.7	3.6	1.51e+00	0	46	104	0	60	268768
2026-01-29 07:10:15.78	101.23	30.16	-60.1	-76.6	3.6	1.51e+00	0	46	104	0	60	265538
2026-01-29 07:10:16.79	101.02	30.32	-60.4	-76.5	3.6	1.51e+00	0	46	104	0	60	263117
2026-01-29 07:10:17.80	100.81	30.48	-60.5	-76.7	3.6	1.51e+00	0	46	104	0	60	267974
2026-01-29 07:10:18.81	100.60	30.63	-59.8	-76.6	3.5	1.51e+00	0	46	104	0	60	265644
2026-01-29 07:10:19.81	100.39	30.79	-59.3	-76.4	3.6	1.51e+00	0	46	104	0	60	259669
2026-01-29 07:10:20.82	100.18	30.95	-59.6	-76.2	3.6	1.51e+00	0	46	104	0	60	253724
2026-01-29 07:10:21.83	99.96	31.11	-60.0	-76.8	3.6	1.51e+00	0	46	104	0	60	270446
2026-01-29 07:10:22.83	99.75	31.27	-60.1	-77.0	3.6	1.51e+00	0	46	104	0	60	278012
2026-01-29 07:10:23.83	99.53	31.42	-59.0	-76.1	3.6	1.51e+00	0	46	104	0	60	250527
2026-01-29 07:10:24.84	99.30	31.59	-59.4	-76.8	3.6	1.51e+00	0	46	104	0	60	271598
2026-01-29 07:10:25.85	99.08	31.75	-59.6	-76.9	3.6	1.51e+00	0	46	104	0	60	272677
2026-01-29 07:10:26.86	98.85	31.91	-59.0	-76.2	3.6	1.51e+00	0	46	104	0	60	253569
2026-01-29 07:10:27.86	98.62	32.07	-58.5	-76.4	3.6	1.51e+00	0	46	104	0	60	259730
2026-01-29 07:10:28.87	98.39	32.23	-58.3	-76.7	3.6	1.51e+00	0	46	104	0	60	268996
2026-01-29 07:10:29.88	98.16	32.39	-58.4	-76.5	3.6	1.51e+00	0	46	104	0	60	260663
2026-01-29 07:10:30.89	97.92	32.55	-58.6	-76.5	3.6	1.51e+00	0	46	104	0	60	261547
2026-01-29 07:10:31.89	97.68	32.71	-60.3	-76.9	3.6	1.51e+00	0	46	104	0	60	274158
2026-01-29 07:10:32.90	97.44	32.88	-59.3	-76.7	3.6	1.51e+00	0	46	104	0	60	268208
2026-01-29 07:10:33.91	97.20	33.04	-59.9	-76.5	3.6	1.51e+00	0	46	104	0	60	260648
2026-01-29 07:10:34.91	96.95	33.20	-60.3	-77.1	3.6	1.51e+00	0	46	104	0	60	279580
2026-01-29 07:10:35.92	96.71	33.36	-60.0	-77.1	3.6	1.51e+00	0	46	104	0	60	281819
2026-01-29 07:10:36.92	96.46	33.53	-59.5	-76.7	3.6	1.51e+00	0	46	104	0	60	267830
2026-01-29 07:10:37.93	96.20	33.69	-59.4	-77.0	3.6	1.51e+00	0	46	104	0	60	278552
2026-01-29 07:10:38.94	95.95	33.86	-58.4	-76.8	3.6	1.51e+00	0	46	104	0	60	270108
2026-01-29 07:10:39.95	95.69	34.02	-58.9	-76.5	3.6	1.51e+00	0	46	104	0	60	261082
2026-01-29 07:10:40.96	95.42	34.18	-58.9	-76.9	3.6	1.51e+00	0	46	104	0	60	273061
2026-01-29 07:10:41.97	95.16	34.35	-58.4	-76.3	3.6	1.51e+00	0	46	104	0	60	257028
2026-01-29 07:10:42.97	94.89	34.51	-59.3	-77.2	3.6	1.51e+00	0	46	104	0	60	282878
2026-01-29 07:10:43.98	94.62	34.68	-58.5	-76.6	3.6	1.51e+00	0	46	104	0	60	266193
2026-01-29 07:10:44.99	94.35	34.84	-59.0	-77.2	3.6	1.51e+00	0	46	104	0	60	282709
2026-01-29 07:10:46.00	94.08	35.01	-59.4	-77.1	3.6	1.51e+00	0	46	104	0	60	279297
2026-01-29 07:10:47.01	93.80	35.17	-60.0	-77.2	3.6	1.51e+00	0	46	104	0	60	283708
2026-01-29 07:10:48.01	93.52	35.34	-59.4	-77.3	3.6	1.51e+00	0	46	104	0	60	287316
2026-01-29 07:10:49.02	93.23	35.50	-60.1	-76.9	3.6	1.51e+00	0	46	104	0	60	274924
2026-01-29 07:10:50.03	92.95	35.67	-59.8	-77.0	3.6	1.51e+00	0	46	104	0	60	277891
2026-01-29 07:10:51.04	92.66	35.84	-59.9	-77.3	3.6	1.51e+00	0	46	104	0	60	285655
2026-01-29 07:10:52.04	92.37	36.00	-59.9	-76.9	3.6	1.51e+00	0	46	104	0	60	275194
2026-01-29 07:10:53.04	92.07	36.16	-60.0	-77.5	3.6	1.51e+00	0	46	104	0	60	294220
2026-01-29 07:10:54.05	91.77	36.33	-59.4	-76.7	3.6	1.51e+00	0	46	104	0	60	268048
2026-01-29 07:10:55.05	91.47	36.49	-60.2	-77.1	3.6	1.51e+00	0	46	104	0	60	279649
2026-01-29 07:10:56.06	91.17	36.66	-59.3	-77.0	3.6	1.51e+00	0	46	104	0	60	277326
2026-01-29 07:10:57.06	90.86	36.82	-59.1	-76.2	3.6	1.51e+00	0	46	104	0	60	253688
2026-01-29 07:10:58.06	90.55	36.99	-58.7	-76.2	3.6	1.51e+00	0	46	104	0	60	254268
2026-01-29 07:10:59.07	90.24	37.15	-60.2	-77.0	3.6	1.51e+00	0	46	104	0	60	276197
2026-01-29 07:11:00.07	89.92	37.32	-60.2	-77.3	3.6	1.51e+00	0	46	104	0	60	287616
2026-01-29 07:11:01.08	89.60	37.48	-60.0	-76.6	3.6	1.51e+00	0	46	104	0	60	265122
2026-01-29 07:11:02.09	89.28	37.65	-60.9	-77.2	3.6	1.51e+00	0	46	104	0	60	283518
2026-01-29 07:11:03.10	88.95	37.81	-59.0	-77.1	3.6	1.51e+00	0	46	104	0	60	280639
2026-01-29 07:11:04.10	88.62	37.97	-61.1	-77.5	3.6	1.51e+00	0	46	104	0	60	292494
2026-01-29 07:11:05.11	88.29	38.14	-61.0	-77.3	3.6	1.51e+00	0	46	104	0	60	287487
2026-01-29 07:11:06.11	87.95	38.30	-60.8	-77.3	3.6	1.51e+00	0	46	104	0	60	287960
2026-01-29 07:11:07.12	87.61	38.46	-61.0	-77.0	3.6	1.51e+00	0	46	104	0	60	278322
2026-01-29 07:11:08.13	87.27	38.62	-60.6	-77.7	3.5	1.51e+00	0	46	104	0	60	299044
2026-01-29 07:11:09.14	86.92	38.79	-60.1	-77.3	3.6	1.51e+00	0	46	104	0	60	285918
2026-01-29 07:11:10.14	86.57	38.95	-61.3	-77.3	3.6	1.51e+00	0	46	104	0	60	288312
2026-01-29 07:11:11.15	86.22	39.11	-59.9	-77.5	3.6	1.51e+00	0	46	104	0	60	295158
2026-01-29 07:11:12.15	85.86	39.27	-61.0	-77.6	3.6	1.51e+00	0	46	104	0	60	296994
2026-01-29 07:11:13.16	85.50	39.43	-61.4	-77.4	3.6	1.51e+00	0	46	104	0	60	290250
2026-01-29 07:11:14.17	85.13	39.59	-61.1	-77.5	3.6	1.51e+00	0	46	104	0	60	292895
2026-01-29 07:11:15.17	84.77	39.75	-60.9	-77.5	3.6	1.51e+00	0	46	104	0	60	293629
2026-01-29 07:11:16.17	84.40	39.90	-61.0	-77.7	3.6	1.51e+00	0	46	104	0	60	300910
2026-01-29 07:11:17.18	84.02	40.06	-60.8	-77.5	3.6	1.51e+00	0	46	104	0	60	293045
2026-01-29 07:11:18.19	83.64	40.22	-61.1	-77.5	3.6	1.51e+00	0	46	104	0	60	294095
2026-01-29 07:11:19.19	83.26	40.37	-61.1	-77.6	3.6	1.51e+00	0	46	104	0	60	298642
2026-01-29 07:11:20.20	82.87	40.53	-60.9	-77.6	3.6	1.51e+00	0	46	104	0	60	298730
2026-01-29 07:11:21.20	82.48	40.68	-61.3	-78.0	3.6	1.51e+00	0	46	104	0	60	311365
2026-01-29 07:11:22.21	82.09	40.83	-61.1	-77.6	3.6	1.51e+00	0	46	104	0	60	296427
2026-01-29 07:11:23.21	81.69	40.98	-60.7	-77.7	3.5	1.51e+00	0	46	104	0	60	302121
2026-01-29 07:11:24.22	81.29	41.14	-60.6	-77.3	3.6	1.51e+00	0	46	104	0	60	287464
2026-01-29 07:11:25.23	80.88	41.29	-61.2	-78.0	3.6	1.51e+00	0	46	104	0	60	311944
2026-01-29 07:11:26.23	80.48	41.44	-60.7	-77.1	3.6	1.51e+00	0	46	104	0	60	280426
2026-01-29 07:11:27.24	80.06	41.58	-61.1	-77.6	3.6	1.51e+00	0	46	104	0	60	295657
2026-01-29 07:11:28.24	79.65	41.73	-61.0	-77.3	3.6	1.51e+00	0	46	104	0	60	286812
2026-01-29 07:11:29.24	79.23	41.88	-61.4	-77.3	3.6	1.51e+00	0	46	104	0	60	285608
2026-01-29 07:11:30.25	78.81	42.02	-61.6	-77.3	3.6	1.51e+00	0	46	104	0	60	286055
2026-01-29 07:11:31.26	78.38	42.17	-60.8	-78.0	3.6	1.51e+00	0	46	104	0	60	311006
2026-01-29 07:11:32.26	77.95	42.31	-61.3	-78.0	3.6	1.51e+00	0	46	104	0	60	312754
2026-01-29 07:11:33.27	77.51	42.45	-60.9	-78.0	3.6	1.51e+00	0	46	104	0	60	309936
2026-01-29 07:11:34.28	77.07	42.59	-61.1	-77.6	3.6	1.51e+00	0	46	104	0	60	297934
2026-01-29 07:11:35.29	76.62	42.73	-60.8	-77.8	3.6	1.51e+00	0	46	104	0	60	303310
2026-01-29 07:11:36.30	76.17	42.86	-60.2	-77.4	3.6	1.51e+00	0	46	104	0	60	290806
2026-01-29 07:11:37.31	75.72	43.00	-60.8	-77.9	3.5	1.51e+00	0	46	104	0	60	308647
2026-01-29 07:11:38.32	75.26	43.13	-60.5	-77.4	3.6	1.51e+00	0	46	104	0	60	291092
2026-01-29 07:11:39.33	74.80	43.27	-60.3	-77.8	3.6	1.51e+00	0	46	104	0	60	304912
2026-01-29 07:11:40.33	74.34	43.40	-59.8	-77.6	3.6	1.51e+00	0	46	104	0	60	298381
2026-01-29 07:11:41.34	73.88	43.53	-59.4	-77.5	3.6	1.51e+00	0	46	104	0	60	292349
2026-01-29 07:11:42.34	73.41	43.65	-59.7	-77.6	3.6	1.51e+00	0	46	104	0	60	295910
2026-01-29 07:11:43.35	72.93	43.78	-60.4	-77.6	3.6	1.51e+00	0	46	104	0	60	297374
2026-01-29 07:11:44.36	72.46	43.90	-60.8	-77.8	3.6	1.51e+00	0	46	104	0	60	304538
2026-01-29 07:11:45.37	71.97	44.02	-61.6	-77.7	3.6	1.51e+00	0	46	104	0	60	299376
2026-01-29 07:11:46.37	71.49	44.14	-60.9	-78.3	3.6	1.51e+00	0	46	104	0	60	320445
2026-01-29 07:11:47.38	71.00	44.26	-61.6	-77.9	3.6	1.51e+00	0	46	104	0	60	308607
2026-01-29 07:11:48.38	70.51	44.38	-61.1	-77.9	3.6	1.51e+00	0	46	104	0	60	306969
2026-01-29 07:11:49.39	70.01	44.49	-61.7	-77.8	3.5	1.51e+00	0	46	104	0	60	302453
2026-01-29 07:11:50.39	69.52	44.60	-61.8	-78.3	3.6	1.51e+00	0	46	104	0	60	322574
2026-01-29 07:11:51.39	69.02	44.71	-61.6	-77.9	3.6	1.51e+00	0	46	104	0	60	306351
2026-01-29 07:11:52.40	68.51	44.82	-62.0	-78.2	3.6	1.51e+00	0	46	104	0	60	316722
2026-01-29 07:11:53.41	68.00	44.92	-61.9	-78.3	3.6	1.51e+00	0	46	104	0	60	323443
2026-01-29 07:11:54.42	67.48	45.02	-61.4	-78.2	3.6	1.51e+00	0	46	104	0	60	319169
2026-01-29 07:11:55.42	66.97	45.12	-61.6	-78.1	3.6	1.51e+00	0	46	104	0	60	313289
2026-01-29 07:11:56.43	66.45	45.22	-61.0	-78.3	3.6	1.51e+00	0	46	104	0	60	322668
2026-01-29 07:11:57.43	65.93	45.32	-61.6	-78.3	3.6	1.51e+00	0	46	104	0	60	322486
2026-01-29 07:11:58.43	65.41	45.41	-61.0	-78.3	3.6	1.51e+00	0	46	104	0	60	321792
2026-01-29 07:11:59.44	64.88	45.50	-61.1	-77.9	3.6	1.51e+00	0	46	104	0	60	308182
2026-01-29 07:12:00.44	64.35	45.59	-61.6	-78.4	3.6	1.51e+00	0	46	104	0	60	327680
2026-01-29 07:12:01.45	63.81	45.68	-61.6	-78.3	3.6	1.51e+00	0	46	104	0	60	323747
2026-01-29 07:12:02.46	63.27	45.76	-61.6	-78.0	3.6	1.51e+00	0	46	104	0	60	312565
2026-01-29 07:12:03.45	62.74	45.84	-61.7	-78.1	3.6	1.51e+00	0	46	104	0	60	314934
2026-01-29 07:12:04.45	62.20	45.92	-61.6	-78.0	3.6	1.51e+00	0	46	104	0	60	311827
2026-01-29 07:12:05.46	61.66	45.99	-61.6	-78.1	3.6	1.51e+00	0	46	104	0	60	315109
2026-01-29 07:12:06.46	61.11	46.06	-61.6	-78.0	3.6	1.51e+00	0	46	104	0	60	310114
2026-01-29 07:12:07.47	60.56	46.13	-61.5	-77.7	3.6	1.51e+00	0	46	104	0	60	300911
2026-01-29 07:12:08.48	60.00	46.20	-61.7	-78.3	3.6	1.51e+00	0	46	104	0	60	322429
2026-01-29 07:12:09.49	59.45	46.26	-61.3	-78.2	3.6	1.51e+00	0	46	104	0	60	316745
2026-01-29 07:12:10.49	58.89	46.32	-61.3	-78.0	3.6	1.51e+00	0	46	104	0	60	312717
2026-01-29 07:12:11.50	58.33	46.38	-61.5	-78.0	3.6	1.51e+00	0	46	104	0	60	310993
2026-01-29 07:12:12.51	57.77	46.44	-61.3	-77.5	3.6	1.51e+00	0	46	104	0	60	292958
2026-01-29 07:12:13.51	57.21	46.49	-61.5	-78.0	3.6	1.51e+00	0	46	104	0	60	312113
2026-01-29 07:12:14.52	56.64	46.54	-61.2	-77.6	3.6	1.51e+00	0	46	104	0	60	296755
2026-01-29 07:12:15.53	56.07	46.58	-60.9	-77.3	3.6	1.51e+00	0	46	104	0	60	287713
2026-01-29 07:12:16.54	55.50	46.63	-61.2	-77.9	3.6	1.51e+00	0	46	104	0	60	307403
2026-01-29 07:12:17.55	54.93	46.67	-60.8	-77.8	3.6	1.51e+00	0	46	104	0	60	305294
2026-01-29 07:12:18.56	54.35	46.71	-61.6	-77.9	3.6	1.51e+00	0	46	104	0	60	307176
2026-01-29 07:12:19.57	53.78	46.74	-61.6	-77.9	3.6	1.51e+00	0	46	104	0	60	307333
2026-01-29 07:12:20.57	53.21	46.77	-61.8	-78.0	3.6	1.51e+00	0	46	104	0	60	312123
2026-01-29 07:12:21.58	52.63	46.80	-61.2	-78.1	3.6	1.51e+00	0	46	104	0	60	315122
2026-01-29 07:12:22.59	52.05	46.82	-61.7	-78.0	3.6	1.51e+00	0	46	104	0	60	311537
2026-01-29 07:12:23.59	51.48	46.84	-61.8	-78.1	3.6	1.51e+00	0	46	104	0	60	316092
2026-01-29 07:12:24.60	50.90	46.86	-61.7	-78.2	3.6	1.51e+00	0	46	104	0	60	319302
2026-01-29 07:12:25.60	50.33	46.87	-61.7	-78.2	3.6	1.51e+00	0	46	104	0	60	317858
2026-01-29 07:12:26.60	49.75	46.89	-61.6	-78.0	3.6	1.51e+00	0	46	104	0	60	312074
2026-01-29 07:12:27.61	49.17	46.89	-61.7	-78.1	3.6	1.51e+00	0	46	104	0	60	314573
2026-01-29 07:12:28.62	48.59	46.90	-61.7	-78.2	3.6	1.51e+00	0	46	104	0	60	318442
2026-01-29 07:12:29.62	48.01	46.90	-61.5	-78.2	3.6	1.51e+00	0	46	104	0	60	317167
2026-01-29 07:12:30.63	47.43	46.90	-61.8	-78.3	3.6	1.51e+00	0	46	104	0	60	323119
2026-01-29 07:12:31.63	46.85	46.90	-61.3	-78.3	3.6	1.51e+00	0	46	104	0	60	320639
2026-01-29 07:12:32.64	46.27	46.89	-61.5	-78.2	3.6	1.51e+00	0	46	104	0	60	318675
2026-01-29 07:12:33.65	45.69	46.88	-61.5	-78.3	3.6	1.51e+00	0	46	104	0	60	322018
2026-01-29 07:12:34.65	45.12	46.86	-61.4	-78.1	3.6	1.51e+00	0	46	104	0	60	315511
2026-01-29 07:12:35.66	44.54	46.84	-62.1	-78.4	3.6	1.51e+00	0	46	104	0	60	326482
2026-01-29 07:12:36.67	43.96	46.82	-62.1	-78.3	3.6	1.51e+00	0	46	104	0	60	322631
2026-01-29 07:12:37.68	43.38	46.80	-61.4	-77.8	3.6	1.51e+00	0	46	104	0	60	302847
2026-01-29 07:12:38.69	42.80	46.77	-61.5	-77.7	3.6	1.51e+00	0	46	104	0	60	299739
2026-01-29 07:12:39.69	42.23	46.74	-62.0	-78.2	3.6	1.51e+00	0	46	104	0	60	319543
2026-01-29 07:12:40.70	41.66	46.71	-61.8	-78.0	3.6	1.51e+00	0	46	104	0	60	312752
2026-01-29 07:12:41.71	41.09	46.67	-62.0	-78.3	3.6	1.51e+00	0	46	104	0	60	321914
2026-01-29 07:12:42.72	40.51	46.63	-61.7	-77.9	3.6	1.51e+00	0	46	104	0	60	307948
2026-01-29 07:12:43.72	39.95	46.59	-62.0	-78.4	3.6	1.51e+00	0	46	104	0	60	324951
2026-01-29 07:12:44.73	39.38	46.55	-61.1	-78.2	3.6	1.51e+00	0	46	104	0	60	318474
2026-01-29 07:12:45.74	38.81	46.50	-61.9	-78.3	3.6	1.51e+00	0	46	104	0	60	323235
2026-01-29 07:12:46.74	38.25	46.45	-61.6	-78.2	3.6	1.51e+00	0	46	104	0	60	318060
2026-01-29 07:12:47.75	37.69	46.39	-60.7	-77.8	3.6	1.51e+00	0	46	104	0	60	304020
2026-01-29 07:12:48.75	37.13	46.33	-60.9	-78.0	3.6	1.51e+00	0	46	104	0	60	311221
2026-01-29 07:12:49.76	36.57	46.27	-61.2	-78.1	3.6	1.51e+00	0	46	104	0	60	314894
2026-01-29 07:12:50.76	36.02	46.21	-60.7	-78.0	3.6	1.51e+00	0	46	104	0	60	309769
2026-01-29 07:12:51.77	35.47	46.14	-61.0	-77.8	3.5	1.51e+00	0	46	104	0	60	305246
2026-01-29 07:12:52.77	34.92	46.08	-61.1	-78.3	3.6	1.51e+00	0	46	104	0	60	320788
2026-01-29 07:12:53.78	34.37	46.00	-60.7	-78.3	3.6	1.51e+00	0	46	104	0	60	322595
2026-01-29 07:12:54.78	33.83	45.93	-61.8	-78.2	3.6	1.51e+00	0	46	104	0	60	318283
2026-01-29 07:12:55.79	33.28	45.85	-61.4	-78.0	3.6	1.51e+00	0	46	104	0	60	310309
2026-01-29 07:12:56.80	32.74	45.77	-61.7	-78.1	3.6	1.51e+00	0	46	104	0	60	314866
2026-01-29 07:12:57.80	32.21	45.69	-61.4	-78.0	3.6	1.51e+00	0	46	104	0	60	309470
2026-01-29 07:12:58.81	31.67	45.60	-61.6	-77.8	3.6	1.51e+00	0	46	104	0	60	305664
2026-01-29 07:12:59.81	31.14	45.52	-60.6	-77.0	3.6	1.51e+00	0	46	104	0	60	275828
2026-01-29 07:13:00.82	30.61	45.43	-59.5	-77.7	3.6	1.51e+00	0	46	104	0	60	302270
2026-01-29 07:13:01.82	30.09	45.33	-61.4	-78.1	3.6	1.51e+00	0	46	104	0	60	315102
2026-01-29 07:13:02.82	29.57	45.24	-60.5	-77.6	3.6	1.51e+00	0	46	104	0	60	296494
2026-01-29 07:13:03.82	29.05	45.14	-60.8	-78.3	3.6	1.51e+00	0	46	104	0	60	321359
2026-01-29 07:13:04.83	28.54	45.04	-60.8	-78.0	3.6	1.51e+00	0	46	104	0	60	312700
2026-01-29 07:13:05.83	28.03	44.94	-60.4	-77.6	3.6	1.51e+00	0	46	104	0	60	296313
2026-01-29 07:13:06.84	27.52	44.84	-60.4	-77.6	3.6	1.51e+00	0	46	104	0	60	296506
2026-01-29 07:13:07.85	27.01	44.73	-61.0	-77.0	3.6	1.51e+00	0	46	104	0	60	278114
2026-01-29 07:13:08.85	26.51	44.62	-61.3	-77.7	3.6	1.51e+00	0	46	104	0	60	302054
2026-01-29 07:13:09.86	26.01	44.51	-60.6	-78.0	3.6	1.51e+00	0	46	104	0	60	311507
2026-01-29 07:13:10.87	25.51	44.40	-61.3	-77.5	3.6	1.51e+00	0	46	104	0	60	294988
2026-01-29 07:13:11.87	25.02	44.28	-61.1	-78.0	3.6	1.51e+00	0	46	104	0	60	311503
2026-01-29 07:13:12.88	24.53	44.16	-61.1	-77.7	3.6	1.51e+00	0	46	104	0	60	299984
2026-01-29 07:13:13.88	24.05	44.05	-61.4	-77.1	3.6	1.51e+00	0	46	104	0	60	281921
2026-01-29 07:13:14.88	23.57	43.93	-61.4	-77.3	3.6	1.51e+00	0	46	104	0	60	286365
2026-01-29 07:13:15.89	23.09	43.80	-61.4	-76.7	3.6	1.51e+00	0	46	104	0	60	266844
2026-01-29 07:13:16.89	22.62	43.68	-61.3	-77.8	3.5	1.51e+00	0	46	104	0	60	304785
2026-01-29 07:13:17.90	22.15	43.55	-61.6	-78.1	3.6	1.51e+00	0	46	104	0	60	315788
2026-01-29 07:13:18.91	21.68	43.42	-61.4	-77.3	3.6	1.51e+00	0	46	104	0	60	286825
2026-01-29 07:13:19.91	21.22	43.29	-61.6	-78.1	3.6	1.51e+00	0	46	104	0	60	315013
2026-01-29 07:13:20.91	20.77	43.16	-61.5	-78.1	3.6	1.51e+00	0	46	104	0	60	315499
2026-01-29 07:13:21.92	20.31	43.03	-61.8	-77.6	3.6	1.51e+00	0	46	104	0	60	297211
2026-01-29 07:13:22.93	19.86	42.89	-61.8	-77.6	3.6	1.51e+00	0	46	104	0	60	298922
2026-01-29 07:13:23.93	19.41	42.76	-60.1	-76.5	3.6	1.51e+00	0	46	104	0	60	262911
2026-01-29 07:13:24.94	18.97	42.62	-60.2	-77.9	3.6	1.51e+00	0	46	104	0	60	308363
2026-01-29 07:13:25.95	18.53	42.48	-61.8	-77.9	3.6	1.51e+00	0	46	104	0	60	306843
2026-01-29 07:13:26.95	18.10	42.34	-59.6	-77.1	3.6	1.51e+00	0	46	104	0	60	279476
2026-01-29 07:13:27.95	17.67	42.20	-61.5	-78.1	3.6	1.51e+00	0	46	104	0	60	316265
2026-01-29 07:13:28.96	17.24	42.06	-59.5	-77.8	3.6	1.51e+00	0	46	104	0	60	302895
2026-01-29 07:13:29.96	16.82	41.91	-60.1	-77.3	3.6	1.51e+00	0	46	104	0	60	287362
2026-01-29 07:13:30.97	16.39	41.77	-60.5	-77.3	3.6	1.51e+00	0	46	104	0	60	286151
2026-01-29 07:13:31.98	15.98	41.62	-60.8	-76.5	3.6	1.51e+00	0	46	104	0	60	260371
2026-01-29 07:13:32.98	15.57	41.47	-60.6	-77.6	3.6	1.51e+00	0	46	104	0	60	296454
2026-01-29 07:13:33.99	15.15	41.33	-60.8	-77.8	3.6	1.51e+00	0	46	104	0	60	302870
2026-01-29 07:13:34.99	14.75	41.18	-60.6	-76.8	3.6	1.51e+00	0	46	104	0	60	271342
2026-01-29 07:13:36.00	14.35	41.03	-60.6	-77.7	3.6	1.51e+00	0	46	104	0	60	301200
2026-01-29 07:13:37.01	13.95	40.87	-60.4	-77.6	3.6	1.51e+00	0	46	104	0	60	295685
2026-01-29 07:13:38.01	13.56	40.72	-60.5	-77.5	3.6	1.51e+00	0	46	104	0	60	293871
2026-01-29 07:13:39.02	13.17	40.57	-60.4	-77.6	3.6	1.51e+00	0	46	104	0	60	297679
2026-01-29 07:13:40.02	12.78	40.41	-59.6	-76.8	3.6	1.51e+00	0	46	104	0	60	271479
2026-01-29 07:13:41.03	12.40	40.26	-59.8	-77.0	3.6	1.51e+00	0	46	104	0	60	277289
2026-01-29 07:13:42.03	12.02	40.10	-59.5	-77.7	3.6	1.51e+00	0	46	104	0	60	301575
2026-01-29 07:13:43.04	11.65	39.95	-60.3	-77.2	3.6	1.51e+00	0	46	104	0	60	284204
2026-01-29 07:13:44.04	11.28	39.79	-60.7	-77.5	3.6	1.51e+00	0	46	104	0	60	292755
2026-01-29 07:13:45.05	10.91	39.63	-60.1	-77.5	3.6	1.51e+00	0	46	104	0	60	292538
2026-01-29 07:13:46.05	10.54	39.47	-59.4	-77.1	3.6	1.51e+00	0	46	104	0	60	280141
2026-01-29 07:13:47.06	10.18	39.31	-59.3	-77.0	3.6	1.51e+00	0	46	104	0	60	278824
2026-01-29 07:13:48.07	9.82	39.15	-60.3	-77.3	3.6	1.51e+00	0	46	104	0	60	287670
2026-01-29 07:13:49.07	9.47	38.99	-59.2	-77.3	3.6	1.51e+00	0	46	104	0	60	287194
2026-01-29 07:13:50.07	9.12	38.84	-59.9	-77.5	3.6	1.51e+00	0	46	104	0	60	293708
2026-01-29 07:13:51.07	8.78	38.68	-59.5	-77.9	3.6	1.51e+00	0	46	104	0	60	305919
2026-01-29 07:13:52.08	8.43	38.51	-60.5	-77.8	3.6	1.51e+00	0	46	104	0	60	303991
2026-01-29 07:13:53.08	8.10	38.35	-59.1	-77.0	3.6	1.51e+00	0	46	104	0	60	278303
2026-01-29 07:13:54.09	7.76	38.19	-59.6	-77.4	3.6	1.51e+00	0	46	104	0	60	290888
2026-01-29 07:13:55.10	7.42	38.03	-59.4	-77.5	3.6	1.51e+00	0	46	104	0	60	292268
2026-01-29 07:13:56.10	7.10	37.86	-58.6	-77.0	3.6	1.51e+00	0	46	104	0	60	276844
2026-01-29 07:13:57.11	6.77	37.70	-58.6	-77.4	3.6	1.51e+00	0	46	104	0	60	290274
2026-01-29 07:13:58.11	6.45	37.54	-58.0	-77.0	3.6	1.51e+00	0	46	104	0	60	278283
2026-01-29 07:13:59.11	6.13	37.38	-57.7	-76.8	3.6	1.51e+00	0	46	104	0	60	271228
2026-01-29 07:14:00.11	5.81	37.21	-60.3	-77.8	3.6	1.51e+00	0	46	104	0	60	303714
2026-01-29 07:14:01.11	5.50	37.05	-60.2	-77.6	3.6	1.51e+00	0	46	104	0	60	296636
2026-01-29 07:14:02.12	5.19	36.88	-58.1	-77.1	3.6	1.51e+00	0	46	104	0	60	279918
2026-01-29 07:14:03.11	4.89	36.72	-59.6	-77.1	3.6	1.51e+00	0	46	104	0	60	281803
2026-01-29 07:14:04.11	4.59	36.56	-57.8	-77.3	3.6	1.51e+00	0	46	104	0	60	287119
2026-01-29 07:14:05.11	4.29	36.40	-57.8	-77.1	3.6	1.51e+00	0	46	104	0	60	280385
2026-01-29 07:14:06.12	3.99	36.23	-57.7	-77.3	3.6	1.51e+00	0	46	104	0	60	288637
2026-01-29 07:14:07.12	3.69	36.07	-58.4	-77.5	3.6	1.51e+00	0	46	104	0	60	294802
2026-01-29 07:14:08.13	3.40	35.90	-60.0	-77.7	3.6	1.51e+00	0	46	104	0	60	300948
2026-01-29 07:14:09.14	3.11	35.74	-59.6	-77.3	3.6	1.51e+00	0	46	104	0	60	286358
2026-01-29 07:14:10.14	2.83	35.57	-60.4	-77.8	3.6	1.51e+00	0	46	104	0	60	303539
2026-01-29 07:14:11.15	2.54	35.41	-61.2	-77.5	3.6	1.51e+00	0	46	104	0	60	294758
2026-01-29 07:14:12.15	2.26	35.24	-59.8	-77.6	3.6	1.51e+00	0	46	104	0	60	297308
2026-01-29 07:14:13.16	1.98	35.08	-59.8	-77.4	3.6	1.51e+00	0	46	104	0	60	291114
2026-01-29 07:14:14.16	1.71	34.91	-59.6	-77.6	3.6	1.51e+00	0	46	104	0	60	295631
2026-01-29 07:14:15.16	1.44	34.75	-61.3	-77.7	3.6	1.51e+00	0	46	104	0	60	298940
2026-01-29 07:14:16.16	1.17	34.59	-60.0	-77.7	3.6	1.51e+00	0	46	104	0	60	299338
2026-01-29 07:14:17.17	0.91	34.42	-59.2	-77.3	3.6	1.51e+00	0	46	104	0	60	287189
2026-01-29 07:14:18.18	0.64	34.26	-60.0	-77.6	3.6	1.51e+00	0	46	104	0	60	297005
2026-01-29 07:14:19.18	0.38	34.10	-60.6	-77.6	3.6	1.51e+00	0	46	104	0	60	298025
2026-01-29 07:14:20.19	0.12	33.93	-59.6	-77.5	3.6	1.51e+00	0	46	104	0	60	295264
2026-01-29 07:14:21.20	359.87	33.77	-59.9	-77.5	3.6	1.51e+00	0	46	104	0	60	292646
2026-01-29 07:14:22.20	359.61	33.61	-59.6	-77.6	3.6	1.51e+00	0	46	104	0	60	297962
2026-01-29 07:14:23.20	359.36	33.44	-60.4	-77.7	3.6	1.51e+00	0	46	104	0	60	299264
2026-01-29 07:14:24.21	359.12	33.28	-58.7	-77.1	3.6	1.51e+00	0	46	104	0	60	279309
2026-01-29 07:14:25.22	358.87	33.12	-58.8	-77.0	3.6	1.51e+00	0	46	104	0	60	278099
2026-01-29 07:14:26.22	358.63	32.96	-59.4	-77.4	3.6	1.51e+00	0	46	104	0	60	290812
2026-01-29 07:14:27.23	358.39	32.80	-59.9	-77.5	3.6	1.51e+00	0	46	104	0	60	295152
2026-01-29 07:14:28.23	358.15	32.63	-60.1	-77.3	3.6	1.51e+00	0	46	104	0	60	286699
2026-01-29 07:14:29.24	357.91	32.47	-60.4	-77.7	3.6	1.51e+00	0	46	104	0	60	299903
2026-01-29 07:14:30.24	357.68	32.31	-60.4	-77.6	3.6	1.51e+00	0	46	104	0	60	297447
2026-01-29 07:14:31.25	357.45	32.15	-61.0	-77.7	3.6	1.51e+00	0	46	104	0	60	299256
2026-01-29 07:14:32.26	357.22	31.99	-60.4	-77.8	3.6	1.51e+00	0	46	104	0	60	304067
2026-01-29 07:14:33.26	356.99	31.83	-60.1	-77.6	3.6	1.51e+00	0	46	104	0	60	295629
2026-01-29 07:14:34.27	356.77	31.67	-60.2	-77.6	3.6	1.51e+00	0	46	104	0	60	296727
2026-01-29 07:14:35.28	356.54	31.51	-61.3	-77.7	3.6	1.51e+00	0	46	104	0	60	300715
2026-01-29 07:14:36.29	356.32	31.35	-60.3	-77.6	3.6	1.51e+00	0	46	104	0	60	298489
2026-01-29 07:14:37.29	356.11	31.20	-60.5	-77.3	3.6	1.51e+00	0	46	104	0	60	287420
2026-01-29 07:14:38.30	355.89	31.04	-59.6	-77.3	3.6	1.51e+00	0	46	104	0	60	287079
2026-01-29 07:14:39.31	355.68	30.88	-59.0	-77.3	3.6	1.51e+00	0	46	104	0	60	287558
2026-01-29 07:14:40.31	355.47	30.72	-61.3	-77.8	3.6	1.51e+00	0	46	104	0	60	303116
2026-01-29 07:14:41.32	355.26	30.56	-58.4	-77.3	3.6	1.51e+00	0	46	104	0	60	286850
2026-01-29 07:14:42.33	355.05	30.41	-58.3	-77.2	3.6	1.51e+00	0	46	104	0	60	283551
2026-01-29 07:14:43.34	354.84	30.25	-58.3	-77.1	3.6	1.51e+00	0	46	104	0	60	280739
2026-01-29 07:14:44.34	354.64	30.10	-57.4	-76.9	3.6	1.51e+00	0	46	104	0	60	275408
2026-01-29 07:14:45.34	354.44	29.94	-59.0	-76.8	3.6	1.51e+00	0	46	104	0	60	269843
2026-01-29 07:14:46.34	354.24	29.79	-59.9	-77.4	3.6	1.51e+00	0	46	104	0	60	291644
2026-01-29 07:14:47.35	354.04	29.63	-58.7	-76.9	3.6	1.51e+00	0	46	104	0	60	274158
2026-01-29 07:14:48.36	353.85	29.48	-59.2	-77.2	3.6	1.51e+00	0	46	104	0	60	285257
2026-01-29 07:14:49.37	353.65	29.33	-58.9	-77.3	3.6	1.51e+00	0	46	104	0	60	285558
2026-01-29 07:14:50.37	353.46	29.17	-58.7	-77.1	3.6	1.51e+00	0	46	104	0	60	281419
2026-01-29 07:14:51.38	353.27	29.02	-58.5	-77.0	3.6	1.51e+00	0	46	104	0	60	278409
2026-01-29 07:14:52.39	353.08	28.87	-58.5	-77.3	3.6	1.51e+00	0	46	104	0	60	288600
2026-01-29 07:14:53.40	352.89	28.72	-57.9	-77.2	3.6	1.51e+00	0	46	104	0	60	284547
2026-01-29 07:14:54.41	352.71	28.57	-58.4	-76.2	3.6	1.51e+00	0	46	104	0	60	253631
2026-01-29 07:14:55.41	352.53	28.42	-58.4	-76.9	3.6	1.51e+00	0	46	104	0	60	272701
2026-01-29 07:14:56.42	352.35	28.27	-58.2	-76.2	3.6	1.51e+00	0	46	104	0	60	252466
2026-01-29 07:14:57.43	352.17	28.12	-58.2	-76.3	3.6	1.51e+00	0	46	104	0	60	255166
2026-01-29 07:14:58.44	351.99	27.97	-58.1	-76.5	3.6	1.51e+00	0	46	104	0	60	262514
2026-01-29 07:14:59.44	351.81	27.82	-58.2	-76.6	3.6	1.51e+00	0	46	104	0	60	265018
2026-01-29 07:15:00.45	351.64	27.67	-57.9	-76.7	3.6	1.51e+00	0	46	104	0	60	268476
2026-01-29 07:15:01.45	351.47	27.52	-59.3	-77.6	3.6	1.51e+00	0	46	104	0	60	296679
2026-01-29 07:15:02.46	351.29	27.38	-58.1	-77.4	3.6	1.51e+00	0	46	104	0	60	291569
2026-01-29 07:15:03.47	351.12	27.23	-57.1	-76.8	3.5	1.51e+00	0	46	104	0	60	272527
2026-01-29 07:15:04.48	350.96	27.08	-60.2	-77.3	3.6	1.51e+00	0	46	104	0	60	285906
2026-01-29 07:15:05.48	350.79	26.94	-57.6	-77.1	3.6	1.51e+00	0	46	104	0	60	281054
2026-01-29 07:15:06.49	350.63	26.79	-57.8	-77.3	3.6	1.51e+00	0	46	104	0	60	285579
2026-01-29 07:15:07.50	350.46	26.65	-58.6	-77.5	3.6	1.51e+00	0	46	104	0	60	293753
2026-01-29 07:15:08.51	350.30	26.50	-60.5	-77.6	3.6	1.51e+00	0	46	104	0	60	297814
2026-01-29 07:15:09.52	350.14	26.36	-60.9	-77.3	3.6	1.51e+00	0	46	104	0	60	287420
2026-01-29 07:15:10.52	349.98	26.22	-58.8	-77.3	3.6	1.51e+00	0	46	104	0	60	286382
2026-01-29 07:15:11.53	349.82	26.07	-60.8	-77.4	3.6	1.51e+00	0	46	104	0	60	290214
2026-01-29 07:15:12.53	349.67	25.93	-60.9	-77.4	3.6	1.51e+00	0	46	104	0	60	291160
2026-01-29 07:15:13.53	349.51	25.79	-60.8	-77.4	3.6	1.51e+00	0	46	104	0	60	288813
2026-01-29 07:15:14.53	349.36	25.65	-60.8	-77.4	3.6	1.51e+00	0	46	104	0	60	290619
2026-01-29 07:15:15.54	349.21	25.51	-60.7	-77.4	3.6	1.51e+00	0	46	104	0	60	289920
2026-01-29 07:15:16.54	349.06	25.37	-60.8	-77.4	3.6	1.51e+00	0	46	104	0	60	291039
2026-01-29 07:15:17.54	348.91	25.23	-60.1	-77.5	3.6	1.51e+00	0	46	104	0	60	292825
2026-01-29 07:15:18.55	348.76	25.09	-59.7	-76.9	3.6	1.51e+00	0	46	104	0	60	275458
2026-01-29 07:15:19.55	348.62	24.96	-60.0	-77.1	3.6	1.51e+00	0	46	104	0	60	280870
2026-01-29 07:15:20.55	348.47	24.82	-60.3	-77.2	3.6	1.51e+00	0	46	104	0	60	284606
2026-01-29 07:15:21.56	348.33	24.68	-59.9	-77.0	3.6	1.51e+00	0	46	104	0	60	276253
2026-01-29 07:15:22.56	348.19	24.55	-59.9	-76.9	3.6	1.51e+00	0	46	104	0	60	275276
2026-01-29 07:15:23.56	348.05	24.41	-59.9	-77.1	3.6	1.51e+00	0	46	104	0	60	280087
2026-01-29 07:15:24.56	347.91	24.28	-60.3	-77.0	3.6	1.51e+00	0	46	104	0	60	277923
2026-01-29 07:15:25.57	347.77	24.14	-61.3	-77.6	3.6	1.51e+00	0	46	104	0	60	297554
2026-01-29 07:15:26.57	347.63	24.01	-59.8	-77.1	3.6	1.51e+00	0	46	104	0	60	279922
2026-01-29 07:15:27.57	347.50	23.87	-60.1	-77.2	3.6	1.51e+00	0	46	104	0	60	282866
2026-01-29 07:15:28.58	347.36	23.74	-59.9	-77.0	3.6	1.51e+00	0	46	104	0	60	278302
2026-01-29 07:15:29.59	347.23	23.60	-60.0	-77.1	3.6	1.51e+00	0	46	104	0	60	279492
2026-01-29 07:15:30.59	347.10	23.47	-60.1	-77.2	3.6	1.51e+00	0	46	104	0	60	282396
2026-01-29 07:15:31.59	346.96	23.34	-60.6	-77.5	3.6	1.51e+00	0	46	104	0	60	294534
2026-01-29 07:15:32.60	346.83	23.21	-61.0	-77.5	3.6	1.51e+00	0	46	104	0	60	293508
2026-01-29 07:15:33.60	346.71	23.08	-59.9	-76.9	3.6	1.51e+00	0	46	104	0	60	274719
2026-01-29 07:15:34.61	346.58	22.95	-60.5	-77.0	3.6	1.51e+00	0	46	104	0	60	278336
2026-01-29 07:15:35.62	346.45	22.82	-59.7	-76.7	3.6	1.51e+00	0	46	104	0	60	267349
2026-01-29 07:15:36.62	346.32	22.69	-61.1	-77.5	3.6	1.51e+00	0	46	104	0	60	292456
2026-01-29 07:15:37.62	346.20	22.56	-61.0	-77.5	3.6	1.51e+00	0	46	104	0	60	293778
2026-01-29 07:15:38.62	346.08	22.43	-61.1	-77.5	3.6	1.51e+00	0	46	104	0	60	295281
2026-01-29 07:15:39.62	345.95	22.30	-60.8	-77.4	3.6	1.51e+00	0	46	104	0	60	290367
2026-01-29 07:15:40.63	345.83	22.18	-60.6	-77.3	3.6	1.51e+00	0	46	104	0	60	288647
2026-01-29 07:15:41.63	345.71	22.05	-61.0	-77.3	3.6	1.51e+00	0	46	104	0	60	286899
2026-01-29 07:15:42.63	345.59	21.92	-60.9	-77.3	3.6	1.51e+00	0	46	104	0	60	288283
2026-01-29 07:15:43.63	345.47	21.80	-61.1	-77.5	3.6	1.51e+00	0	46	104	0	60	295176
2026-01-29 07:15:44.64	345.36	21.67	-60.4	-77.1	3.6	1.51e+00	0	46	104	0	60	281892
2026-01-29 07:15:45.64	345.24	21.55	-60.6	-77.2	3.6	1.51e+00	0	46	104	0	60	284931
2026-01-29 07:15:46.65	345.12	21.42	-61.2	-77.5	3.6	1.51e+00	0	46	104	0	60	294106
2026-01-29 07:15:47.66	345.01	21.30	-60.7	-77.3	3.6	1.51e+00	0	46	104	0	60	286577
2026-01-29 07:15:48.65	344.90	21.18	-61.0	-77.3	3.6	1.51e+00	0	46	104	0	60	286772
2026-01-29 07:15:49.66	344.78	21.05	-60.9	-77.1	3.6	1.51e+00	0	46	104	0	60	280682
2026-01-29 07:15:50.66	344.67	20.93	-60.8	-77.4	3.6	1.51e+00	0	46	104	0	60	289191
2026-01-29 07:15:51.67	344.56	20.81	-60.9	-77.4	3.6	1.51e+00	0	46	104	0	60	289036
2026-01-29 07:15:52.67	344.45	20.69	-60.1	-77.2	3.6	1.51e+00	0	46	104	0	60	284980
2026-01-29 07:15:53.67	344.34	20.57	-61.1	-77.4	3.6	1.51e+00	0	46	104	0	60	291163
2026-01-29 07:15:54.68	344.23	20.44	-60.6	-77.3	3.6	1.51e+00	0	46	104	0	60	287055
2026-01-29 07:15:55.68	344.12	20.32	-60.5	-77.5	3.6	1.51e+00	0	46	104	0	60	292505
2026-01-29 07:15:56.69	344.02	20.20	-60.2	-77.3	3.6	1.51e+00	0	46	104	0	60	287345
2026-01-29 07:15:57.70	343.91	20.08	-60.9	-77.5	3.6	1.51e+00	0	46	104	0	60	292937
2026-01-29 07:15:58.71	343.80	19.96	-61.1	-77.5	3.6	1.51e+00	0	46	104	0	60	294741
2026-01-29 07:15:59.72	343.70	19.85	-60.8	-77.5	3.6	1.51e+00	0	46	104	0	60	293251
2026-01-29 07:16:00.72	343.60	19.73	-60.2	-77.4	3.6	1.51e+00	0	46	104	0	60	291392
2026-01-29 07:16:01.73	343.49	19.61	-60.7	-77.4	3.6	1.51e+00	0	46	104	0	60	290805
2026-01-29 07:16:02.74	343.39	19.49	-61.3	-77.6	3.6	1.51e+00	0	46	104	0	60	295986
2026-01-29 07:16:03.75	343.29	19.38	-60.7	-77.4	3.6	1.51e+00	0	46	104	0	60	292010
2026-01-29 07:16:04.75	343.19	19.26	-60.6	-77.4	3.6	1.51e+00	0	46	104	0	60	291766
2026-01-29 07:16:05.76	343.09	19.14	-60.6	-77.2	3.6	1.51e+00	0	46	104	0	60	284720
2026-01-29 07:16:06.76	342.99	19.03	-60.8	-77.3	3.6	1.51e+00	0	46	104	0	60	287761
2026-01-29 07:16:07.77	342.89	18.91	-60.4	-77.3	3.6	1.51e+00	0	46	104	0	60	285827
2026-01-29 07:16:08.78	342.80	18.80	-61.1	-77.5	3.6	1.51e+00	0	46	104	0	60	294533
2026-01-29 07:16:09.79	342.70	18.68	-60.3	-77.2	3.6	1.51e+00	0	46	104	0	60	284173
2026-01-29 07:16:10.79	342.61	18.57	-60.0	-76.9	3.6	1.51e+00	0	46	104	0	60	274351
2026-01-29 07:16:11.80	342.51	18.46	-61.0	-77.4	3.6	1.51e+00	0	46	104	0	60	291514
2026-01-29 07:16:12.80	342.42	18.35	-59.8	-77.1	3.6	1.51e+00	0	46	104	0	60	281337
2026-01-29 07:16:13.81	342.32	18.23	-59.3	-76.9	3.6	1.51e+00	0	46	104	0	60	274349
2026-01-29 07:16:14.82	342.23	18.12	-59.1	-77.0	3.6	1.51e+00	0	46	104	0	60	277740
2026-01-29 07:16:15.83	342.14	18.01	-61.0	-77.3	3.6	1.51e+00	0	46	104	0	60	286909
2026-01-29 07:16:16.84	342.05	17.90	-59.9	-77.3	3.6	1.51e+00	0	46	104	0	60	285689
2026-01-29 07:16:17.85	341.95	17.79	-59.9	-77.3	3.6	1.51e+00	0	46	104	0	60	286471
2026-01-29 07:16:18.84	341.87	17.68	-60.4	-77.1	3.6	1.51e+00	0	46	104	0	60	281523
2026-01-29 07:16:19.85	341.78	17.57	-60.8	-77.3	3.6	1.51e+00	0	46	104	0	60	287497
2026-01-29 07:16:20.86	341.69	17.46	-60.0	-77.3	3.6	1.51e+00	0	46	104	0	60	288080
2026-01-29 07:16:21.87	341.60	17.35	-59.0	-77.1	3.6	1.51e+00	0	46	104	0	60	281369
2026-01-29 07:16:22.88	341.51	17.24	-60.0	-77.2	3.6	1.51e+00	0	46	104	0	60	284834
2026-01-29 07:16:23.89	341.42	17.13	-58.8	-77.0	3.6	1.51e+00	0	46	104	0	60	277640
2026-01-29 07:16:24.89	341.34	17.02	-58.3	-77.0	3.6	1.51e+00	0	46	104	0	60	275994
2026-01-29 07:16:25.90	341.25	16.92	-59.3	-77.0	3.6	1.51e+00	0	46	104	0	60	277704
2026-01-29 07:16:26.91	341.17	16.81	-59.7	-77.2	3.6	1.51e+00	0	46	104	0	60	282375
2026-01-29 07:16:27.91	341.08	16.70	-60.9	-77.0	3.6	1.51e+00	0	46	104	0	60	278445
2026-01-29 07:16:28.92	341.00	16.60	-59.6	-76.8	3.6	1.51e+00	0	46	104	0	60	269516
2026-01-29 07:16:29.92	340.92	16.49	-60.4	-77.3	3.6	1.51e+00	0	46	104	0	60	286556
2026-01-29 07:16:30.93	340.84	16.39	-60.5	-77.2	3.6	1.51e+00	0	46	104	0	60	283635
2026-01-29 07:16:31.93	340.76	16.28	-59.9	-77.1	3.6	1.51e+00	0	46	104	0	60	280013
2026-01-29 07:16:32.94	340.67	16.18	-60.2	-77.2	3.6	1.51e+00	0	46	104	0	60	282457
2026-01-29 07:16:33.95	340.59	16.07	-60.7	-77.3	3.6	1.51e+00	0	46	104	0	60	287441
2026-01-29 07:16:34.95	340.51	15.97	-60.7	-77.3	3.6	1.51e+00	0	46	104	0	60	286923
2026-01-29 07:16:35.96	340.43	15.86	-60.7	-77.0	3.6	1.51e+00	0	46	104	0	60	277725
2026-01-29 07:16:36.96	340.36	15.76	-60.3	-77.2	3.6	1.51e+00	0	46	104	0	60	284313
2026-01-29 07:16:37.97	340.28	15.66	-60.7	-77.1	3.6	1.51e+00	0	46	104	0	60	282105
2026-01-29 07:16:38.98	340.20	15.56	-60.6	-76.9	3.6	1.51e+00	0	46	104	0	60	275002
2026-01-29 07:16:39.98	340.12	15.46	-60.0	-77.1	3.6	1.51e+00	0	46	104	0	60	280935
2026-01-29 07:16:40.99	340.05	15.35	-60.6	-77.2	3.6	1.51e+00	0	46	104	0	60	283359
2026-01-29 07:16:42.00	339.97	15.25	-60.8	-77.1	3.6	1.51e+00	0	46	104	0	60	280629
2026-01-29 07:16:43.01	339.89	15.15	-60.2	-76.8	3.6	1.51e+00	0	46	104	0	60	270387
2026-01-29 07:16:44.01	339.82	15.05	-60.4	-77.3	3.6	1.51e+00	0	46	104	0	60	285547
2026-01-29 07:16:45.01	339.75	14.95	-60.4	-77.0	3.6	1.51e+00	0	46	104	0	60	276667
2026-01-29 07:16:46.02	339.67	14.85	-60.7	-77.1	3.6	1.51e+00	0	46	104	0	60	282167
2026-01-29 07:16:47.03	339.60	14.75	-60.1	-77.0	3.6	1.51e+00	0	46	104	0	60	276840
2026-01-29 07:16:48.04	339.52	14.65	-60.4	-77.1	3.6	1.51e+00	0	46	104	0	60	281974
2026-01-29 07:16:49.04	339.45	14.55	-60.4	-76.9	3.6	1.51e+00	0	46	104	0	60	275218
2026-01-29 07:16:50.04	339.38	14.46	-60.5	-77.0	3.6	1.51e+00	0	46	104	0	60	278500
2026-01-29 07:16:51.04	339.31	14.36	-60.3	-77.0	3.6	1.51e+00	0	46	104	0	60	278294
2026-01-29 07:16:52.05	339.24	14.26	-60.5	-77.0	3.6	1.51e+00	0	46	104	0	60	278852
2026-01-29 07:16:53.05	339.17	14.16	-60.5	-76.8	3.6	1.51e+00	0	46	104	0	60	272441
2026-01-29 07:16:54.06	339.10	14.07	-60.2	-77.0	3.6	1.51e+00	0	46	104	0	60	276879
2026-01-29 07:16:55.07	339.03	13.97	-59.8	-76.9	3.6	1.51e+00	0	46	104	0	60	274574
2026-01-29 07:16:56.08	338.96	13.87	-60.3	-76.8	3.6	1.51e+00	0	46	104	0	60	269950
2026-01-29 07:16:57.08	338.89	13.78	-60.2	-76.9	3.6	1.51e+00	0	46	104	0	60	273448
2026-01-29 07:16:58.09	338.82	13.68	-59.9	-76.9	3.6	1.51e+00	0	46	104	0	60	273322
2026-01-29 07:16:59.09	338.76	13.59	-58.7	-76.5	3.6	1.51e+00	0	46	104	0	60	261784
2026-01-29 07:17:00.10	338.69	13.49	-59.9	-76.8	3.6	1.51e+00	0	46	104	0	60	270669
2026-01-29 07:17:01.11	338.62	13.40	-59.4	-76.9	3.6	1.51e+00	0	46	104	0	60	272733
2026-01-29 07:17:02.11	338.56	13.30	-58.6	-76.5	3.6	1.51e+00	0	46	104	0	60	261225
2026-01-29 07:17:03.12	338.49	13.21	-58.8	-76.4	3.6	1.51e+00	0	46	104	0	60	260027
2026-01-29 07:17:04.13	338.43	13.12	-59.4	-75.5	3.6	1.51e+00	0	46	104	0	60	232832
2026-01-29 07:17:05.13	338.36	13.02	-60.2	-77.0	3.6	1.51e+00	0	46	104	0	60	277573
2026-01-29 07:17:06.14	338.30	12.93	-59.8	-76.0	3.6	1.51e+00	0	46	104	0	60	246819
2026-01-29 07:17:07.14	338.23	12.84	-57.4	-75.8	3.6	1.51e+00	0	46	104	0	60	242488
2026-01-29 07:17:08.15	338.17	12.74	-58.7	-75.7	3.6	1.51e+00	0	46	104	0	60	238209
2026-01-29 07:17:09.15	338.11	12.65	-60.0	-76.1	3.6	1.51e+00	0	46	104	0	60	250510
2026-01-29 07:17:10.16	338.04	12.56	-59.7	-76.0	3.6	1.51e+00	0	46	104	0	60	246127
2026-01-29 07:17:11.16	337.98	12.47	-59.5	-75.9	3.6	1.51e+00	0	46	104	0	60	243526
2026-01-29 07:17:12.17	337.92	12.38	-57.7	-73.8	3.6	1.51e+00	0	46	104	0	60	192695
2026-01-29 07:17:13.17	337.86	12.29	-59.1	-76.7	3.6	1.51e+00	0	46	104	0	60	268250
