passes_logs/2026/01/29/R3.2S-Naryan-Mar/R3.2S-Naryan-Mar__20260129_100533_SUOMI_NPP_rec.log

#Pass ID: 20260129_100533_SUOMI NPP
#Satellite: SUOMI NPP
#Configuration: NPP
#almurnet v.1.7.20240730
#Start time: 2026-01-29 10:05:34

#Version: 2.2.20231116
#Station: R3.2S-Naryan-Mar
#Location: 53.008057 lon 67.646978 lat
#TLE: 1 37849U 11061A   26027.93236865  .00000148  00000+0  91411-4 0  9991
#TLE: 2 37849  98.7823 329.8704 0002085  41.3231 318.8102 14.19530777738546

#Time	Az	El	Level	Level2	SNR	BER	BlckErr	Temp	State	Recorded	gain1	gain2
2026-01-29 10:05:34.17	195.24	0.04	-55.2	-76.7	3.5	3.01e+01	0	43	0	0	60	261473
2026-01-29 10:05:35.17	195.29	0.10	-59.7	-77.5	3.6	1.51e+00	0	44	104	0	60	294622
2026-01-29 10:05:36.18	195.34	0.15	-59.9	-77.9	3.6	1.51e+00	0	44	104	0	60	307542
2026-01-29 10:05:37.19	195.39	0.21	-61.3	-78.2	3.6	1.51e+00	0	44	104	0	60	317946
2026-01-29 10:05:38.20	195.44	0.27	-61.8	-78.3	3.6	1.51e+00	0	44	104	0	60	323252
2026-01-29 10:05:39.21	195.49	0.32	-61.9	-78.3	3.6	1.51e+00	0	44	104	0	60	322016
2026-01-29 10:05:40.22	195.54	0.38	-61.7	-78.2	3.6	1.51e+00	0	44	104	0	60	316916
2026-01-29 10:05:41.23	195.59	0.44	-61.6	-78.0	3.6	1.51e+00	0	44	104	0	60	312637
2026-01-29 10:05:42.23	195.64	0.49	-61.6	-78.0	3.6	1.51e+00	0	44	104	0	60	310996
2026-01-29 10:05:43.24	195.69	0.55	-61.9	-78.3	3.6	1.51e+00	0	44	104	0	60	321693
2026-01-29 10:05:44.25	195.74	0.61	-61.9	-78.4	3.6	1.51e+00	0	44	104	0	60	324233
2026-01-29 10:05:45.26	195.79	0.67	-61.7	-78.1	3.6	1.51e+00	0	44	104	0	60	315214
2026-01-29 10:05:46.26	195.84	0.72	-61.2	-77.6	3.6	1.51e+00	0	44	104	0	60	298657
2026-01-29 10:05:47.27	195.89	0.78	-60.7	-77.2	3.6	1.51e+00	0	44	104	0	60	285331
2026-01-29 10:05:48.27	195.94	0.84	-60.5	-77.1	3.6	1.51e+00	0	44	104	0	60	280421
2026-01-29 10:05:49.28	195.99	0.89	-59.9	-76.7	3.6	1.51e+00	0	44	104	0	60	268517
2026-01-29 10:05:50.29	196.04	0.95	-59.9	-76.7	3.6	1.51e+00	0	44	104	0	60	267322
2026-01-29 10:05:51.30	196.09	1.01	-59.4	-76.1	3.6	1.51e+00	0	44	104	0	60	249085
2026-01-29 10:05:52.31	196.15	1.07	-58.6	-75.6	3.6	1.51e+00	0	44	104	0	60	234756
2026-01-29 10:05:53.31	196.20	1.13	-58.2	-75.3	3.6	1.51e+00	0	44	104	0	60	228165
2026-01-29 10:05:54.32	196.25	1.18	-58.1	-75.1	3.6	1.51e+00	0	44	104	0	60	223567
2026-01-29 10:05:55.33	196.30	1.24	-58.0	-75.1	3.6	1.51e+00	0	44	104	0	60	222762
2026-01-29 10:05:56.34	196.35	1.30	-58.0	-75.1	3.6	1.51e+00	0	44	104	0	60	223548
2026-01-29 10:05:57.35	196.41	1.36	-58.0	-75.0	3.6	1.51e+00	0	44	104	0	60	221440
2026-01-29 10:05:58.35	196.46	1.42	-58.0	-75.0	3.5	1.51e+00	0	44	104	0	60	220218
2026-01-29 10:05:59.36	196.51	1.48	-57.9	-75.0	3.6	1.51e+00	0	44	104	0	60	219290
2026-01-29 10:06:00.37	196.57	1.53	-57.9	-75.0	3.6	1.51e+00	0	44	104	0	60	220295
2026-01-29 10:06:01.37	196.62	1.59	-57.9	-74.9	3.6	1.51e+00	0	44	104	0	60	217382
2026-01-29 10:06:02.38	196.67	1.65	-57.8	-74.9	3.6	1.51e+00	0	44	104	0	60	217713
2026-01-29 10:06:03.39	196.73	1.71	-57.8	-74.9	3.6	1.51e+00	0	44	104	0	60	216705
2026-01-29 10:06:04.40	196.78	1.77	-57.8	-74.9	3.6	1.51e+00	0	44	104	0	60	216740
2026-01-29 10:06:05.41	196.84	1.83	-57.8	-74.8	3.6	1.51e+00	0	44	104	0	60	216201
2026-01-29 10:06:06.41	196.89	1.89	-57.8	-74.8	3.6	1.51e+00	0	44	104	0	60	215483
2026-01-29 10:06:07.42	196.94	1.95	-57.8	-74.8	3.6	1.51e+00	0	44	104	0	60	215791
2026-01-29 10:06:08.43	197.00	2.01	-57.8	-74.8	3.6	1.51e+00	0	44	104	0	60	214178
2026-01-29 10:06:09.44	197.06	2.07	-57.8	-74.8	3.6	1.51e+00	0	44	104	0	60	214493
2026-01-29 10:06:10.45	197.11	2.13	-57.7	-74.7	3.6	1.51e+00	0	44	104	0	60	213527
2026-01-29 10:06:11.45	197.17	2.18	-57.7	-74.7	3.6	1.51e+00	0	44	104	0	60	213572
2026-01-29 10:06:12.46	197.22	2.24	-57.7	-74.8	3.6	1.51e+00	0	44	104	0	60	214345
2026-01-29 10:06:13.47	197.28	2.30	-57.7	-74.8	3.6	1.51e+00	0	44	104	0	60	214628
2026-01-29 10:06:14.48	197.33	2.37	-57.7	-74.8	3.6	1.51e+00	0	44	104	0	60	214439
2026-01-29 10:06:15.49	197.39	2.43	-57.7	-74.7	3.6	1.51e+00	0	44	104	0	60	213073
2026-01-29 10:06:16.50	197.45	2.49	-57.7	-74.7	3.6	1.51e+00	0	44	104	0	60	213007
2026-01-29 10:06:17.51	197.50	2.55	-57.7	-74.7	3.6	1.51e+00	0	44	104	0	60	213298
2026-01-29 10:06:18.52	197.56	2.61	-57.7	-74.7	3.6	1.51e+00	0	44	104	0	60	212762
2026-01-29 10:06:19.53	197.62	2.67	-57.7	-74.7	3.6	1.51e+00	0	44	104	0	60	212290
2026-01-29 10:06:20.53	197.68	2.73	-57.7	-74.8	3.6	1.51e+00	0	44	104	0	60	214077
2026-01-29 10:06:21.54	197.73	2.79	-57.7	-74.7	3.6	1.51e+00	0	44	104	0	60	212164
2026-01-29 10:06:22.54	197.79	2.85	-57.7	-74.7	3.6	1.51e+00	0	44	104	0	60	212975
2026-01-29 10:06:23.55	197.85	2.91	-57.7	-74.6	3.6	1.51e+00	0	44	104	0	60	211290
2026-01-29 10:06:24.56	197.91	2.97	-57.7	-74.7	3.6	1.51e+00	0	45	104	0	60	211679
2026-01-29 10:06:25.57	197.97	3.03	-57.7	-74.7	3.6	1.51e+00	0	44	104	0	60	212544
2026-01-29 10:06:26.58	198.03	3.09	-57.7	-74.7	3.6	1.51e+00	0	45	104	0	60	212815
2026-01-29 10:06:27.58	198.08	3.16	-57.7	-74.7	3.6	1.51e+00	0	45	104	0	60	213000
2026-01-29 10:06:28.58	198.14	3.22	-57.7	-74.7	3.6	1.51e+00	0	44	104	0	60	213139
2026-01-29 10:06:29.59	198.20	3.28	-57.7	-74.7	3.6	1.51e+00	0	45	104	0	60	213492
2026-01-29 10:06:30.60	198.26	3.34	-57.7	-74.7	3.6	1.51e+00	0	44	104	0	60	212951
2026-01-29 10:06:31.61	198.32	3.40	-57.7	-74.6	3.6	1.51e+00	0	45	104	0	60	210709
2026-01-29 10:06:32.61	198.38	3.46	-57.7	-74.6	3.6	1.51e+00	0	45	104	0	60	210373
2026-01-29 10:06:33.62	198.44	3.53	-57.6	-74.7	3.6	1.51e+00	0	45	104	0	60	212530
2026-01-29 10:06:34.63	198.50	3.59	-57.6	-74.6	3.6	1.51e+00	0	45	104	0	60	211281
2026-01-29 10:06:35.64	198.57	3.65	-57.6	-74.7	3.6	1.51e+00	0	45	104	0	60	211633
2026-01-29 10:06:36.65	198.63	3.71	-57.6	-74.6	3.6	1.51e+00	0	45	104	0	60	211452
2026-01-29 10:06:37.65	198.69	3.78	-57.6	-74.6	3.5	1.51e+00	0	45	104	0	60	210793
2026-01-29 10:06:38.66	198.75	3.84	-57.6	-74.6	3.6	1.51e+00	0	45	104	0	60	210437
2026-01-29 10:06:39.67	198.81	3.90	-57.6	-74.6	3.6	1.51e+00	0	45	104	0	60	211273
2026-01-29 10:06:40.68	198.87	3.97	-57.6	-74.6	3.6	1.51e+00	0	45	104	0	60	210461
2026-01-29 10:06:41.69	198.94	4.03	-57.6	-74.6	3.6	1.51e+00	0	45	104	0	60	209522
2026-01-29 10:06:42.69	199.00	4.09	-57.6	-74.6	3.6	1.51e+00	0	45	104	0	60	210395
2026-01-29 10:06:43.70	199.06	4.16	-57.6	-74.6	3.6	1.51e+00	0	45	104	0	60	210057
2026-01-29 10:06:44.70	199.12	4.22	-57.6	-74.5	3.6	1.51e+00	0	45	104	0	60	207338
2026-01-29 10:06:45.71	199.19	4.28	-57.6	-74.6	3.6	1.51e+00	0	45	104	0	60	210313
2026-01-29 10:06:46.71	199.25	4.35	-57.6	-74.6	3.6	1.51e+00	0	45	104	0	60	211293
2026-01-29 10:06:47.72	199.32	4.41	-57.6	-74.5	3.6	1.51e+00	0	45	104	0	60	208916
2026-01-29 10:06:48.73	199.38	4.47	-57.6	-74.5	3.6	1.51e+00	0	45	104	0	60	207394
2026-01-29 10:06:49.74	199.44	4.54	-57.6	-74.4	3.6	1.51e+00	0	45	104	0	60	206703
2026-01-29 10:06:50.75	199.51	4.60	-57.5	-74.4	3.6	1.51e+00	0	45	104	0	60	204733
2026-01-29 10:06:51.75	199.57	4.67	-57.6	-74.4	3.6	1.51e+00	0	45	104	0	60	205703
2026-01-29 10:06:52.76	199.64	4.73	-57.5	-74.5	3.6	1.51e+00	0	45	104	0	60	208975
2026-01-29 10:06:53.77	199.71	4.80	-57.5	-74.5	3.6	1.51e+00	0	45	104	0	60	208082
2026-01-29 10:06:54.77	199.77	4.86	-57.5	-74.5	3.6	1.51e+00	0	45	104	0	60	208080
2026-01-29 10:06:55.78	199.84	4.92	-57.5	-74.3	3.6	1.51e+00	0	45	104	0	60	202106
2026-01-29 10:06:56.79	199.90	4.99	-57.5	-74.1	3.6	1.51e+00	0	45	104	0	60	199116
2026-01-29 10:06:57.80	199.97	5.06	-57.5	-73.9	3.6	1.51e+00	0	45	104	0	60	193921
2026-01-29 10:06:58.80	200.04	5.12	-57.5	-73.9	3.6	1.51e+00	0	45	104	0	60	193608
2026-01-29 10:06:59.81	200.10	5.19	-57.5	-73.5	3.6	1.51e+00	0	45	104	0	60	185273
2026-01-29 10:07:00.82	200.17	5.25	-57.4	-72.7	3.6	1.51e+00	0	45	104	0	60	169459
2026-01-29 10:07:01.83	200.24	5.32	-57.4	-71.2	3.9	1.50e+00	0	45	104	0	60	142478
2026-01-29 10:07:02.84	200.31	5.38	-57.3	-68.1	4.6	9.18e-01	0	45	0	1048576	60	100098
2026-01-29 10:07:03.84	200.38	5.45	-57.1	-66.2	6.3	3.96e-01	0	45	0	2097152	60	80451
2026-01-29 10:07:04.85	200.45	5.51	-56.8	-64.6	8.1	1.38e-01	0	45	0	4194304	60	66752
2026-01-29 10:07:05.86	200.51	5.58	-56.5	-63.2	9.9	3.56e-02	0	45	0	6291456	60	56512
2026-01-29 10:07:06.87	200.58	5.65	-56.2	-62.1	11.0	2.96e-03	0	45	0	8388608	60	49831
2026-01-29 10:07:07.87	200.65	5.71	-55.9	-61.3	12.0	8.20e-04	0	45	0	10485760	60	45289
2026-01-29 10:07:08.88	200.72	5.78	-55.7	-60.7	12.6	2.12e-04	0	45	0	12582912	60	42269
2026-01-29 10:07:09.89	200.79	5.85	-55.6	-60.5	12.8	9.84e-05	0	45	0	13631488	60	41351
2026-01-29 10:07:10.90	200.86	5.91	-55.6	-60.5	12.8	5.34e-05	0	45	0	15728640	60	41375
2026-01-29 10:07:11.91	200.94	5.98	-55.7	-60.7	12.6	6.02e-05	0	45	0	17825792	60	42296
2026-01-29 10:07:12.91	201.01	6.05	-55.9	-61.3	11.8	3.39e-04	0	45	0	19922944	60	45690
2026-01-29 10:07:13.92	201.08	6.12	-55.9	-60.8	11.9	2.55e-04	0	45	0	22020096	60	43047
2026-01-29 10:07:14.93	201.15	6.18	-56.9	-63.8	9.0	3.29e-03	0	45	0	23068672	60	60911
2026-01-29 10:07:15.93	201.22	6.25	-57.1	-68.2	4.0	5.43e-02	0	45	0	25165824	60	100645
2026-01-29 10:07:16.94	201.29	6.32	-57.5	-73.8	3.6	1.51e+00	0	45	104	25165824	60	192428
2026-01-29 10:07:17.95	201.37	6.39	-54.4	-57.6	6.0	1.51e+00	0	45	104	25165824	60	29809
2026-01-29 10:07:18.96	201.44	6.45	-55.2	-58.8	14.9	4.03e-01	0	45	104	25165824	60	34297
2026-01-29 10:07:19.97	201.51	6.52	-55.0	-58.4	15.3	0.00e+00	0	45	0	1048576	60	32465
2026-01-29 10:07:20.97	201.59	6.59	-55.0	-58.2	15.4	0.00e+00	0	45	0	3145728	60	32025
2026-01-29 10:07:21.98	201.66	6.66	-54.7	-57.7	16.0	0.00e+00	0	45	0	5242880	60	29997
2026-01-29 10:07:22.99	201.73	6.73	-54.7	-57.8	16.0	0.00e+00	0	45	0	7340032	60	30242
2026-01-29 10:07:24.00	201.81	6.80	-54.5	-57.4	16.3	0.00e+00	0	45	0	9437184	60	28921
2026-01-29 10:07:25.00	201.88	6.86	-54.6	-57.5	16.2	0.00e+00	0	45	0	10485760	60	29245
2026-01-29 10:07:26.01	201.96	6.93	-54.4	-57.2	16.4	0.00e+00	0	45	0	12582912	60	28265
2026-01-29 10:07:27.02	202.04	7.00	-54.5	-57.3	16.3	0.00e+00	0	45	0	14680064	60	28853
2026-01-29 10:07:28.02	202.11	7.07	-54.6	-57.5	16.1	0.00e+00	0	45	0	16777216	60	29474
2026-01-29 10:07:29.03	202.19	7.14	-54.4	-57.2	16.5	0.00e+00	0	45	0	18874368	60	28499
2026-01-29 10:07:30.04	202.26	7.21	-54.4	-57.1	16.5	0.00e+00	0	45	0	19922944	60	28202
2026-01-29 10:07:31.04	202.34	7.28	-54.3	-57.0	16.7	0.00e+00	0	45	0	22020096	60	27871
2026-01-29 10:07:32.05	202.42	7.35	-54.3	-56.9	16.6	0.00e+00	0	45	0	24117248	60	27437
2026-01-29 10:07:33.06	202.50	7.42	-54.3	-57.1	16.7	0.00e+00	0	45	0	26214400	60	28026
2026-01-29 10:07:34.07	202.57	7.49	-54.3	-57.0	16.7	0.00e+00	0	45	0	28311552	60	27873
2026-01-29 10:07:35.08	202.65	7.56	-54.2	-56.8	16.9	0.00e+00	0	45	0	29360128	60	27234
2026-01-29 10:07:36.08	202.73	7.63	-54.3	-57.0	16.7	0.00e+00	0	45	0	31457280	60	27796
2026-01-29 10:07:37.09	202.81	7.70	-54.2	-56.9	17.0	0.00e+00	0	45	0	33554432	60	27267
2026-01-29 10:07:38.10	202.89	7.77	-53.9	-56.3	17.4	0.00e+00	0	45	0	35651584	60	25450
2026-01-29 10:07:39.11	202.97	7.84	-54.0	-56.5	17.3	0.00e+00	0	45	0	37748736	60	26077
2026-01-29 10:07:40.12	203.05	7.91	-53.9	-56.2	17.6	0.00e+00	0	45	0	38797312	60	25419
2026-01-29 10:07:41.12	203.13	7.99	-53.8	-56.1	17.6	0.00e+00	0	45	0	40894464	60	24902
2026-01-29 10:07:42.13	203.21	8.06	-53.9	-56.2	17.6	0.00e+00	0	45	0	42991616	60	25427
2026-01-29 10:07:43.14	203.29	8.13	-53.8	-56.1	17.7	0.00e+00	0	45	0	45088768	60	24925
2026-01-29 10:07:44.14	203.38	8.20	-53.7	-56.0	17.8	0.00e+00	0	45	0	47185920	60	24678
2026-01-29 10:07:45.15	203.46	8.27	-53.7	-55.9	17.9	0.00e+00	0	45	0	48234496	60	24558
2026-01-29 10:07:46.16	203.54	8.34	-53.8	-56.0	17.7	0.00e+00	0	45	0	50331648	60	24806
2026-01-29 10:07:47.17	203.62	8.42	-53.9	-56.2	17.6	0.00e+00	0	45	0	52428800	60	25252
2026-01-29 10:07:48.17	203.71	8.49	-53.8	-56.1	17.6	0.00e+00	0	45	0	54525952	60	24893
2026-01-29 10:07:49.18	203.79	8.56	-53.6	-55.8	18.0	0.00e+00	0	45	0	56623104	60	24097
2026-01-29 10:07:50.19	203.87	8.63	-53.6	-55.7	18.1	0.00e+00	0	45	0	58720256	60	23831
2026-01-29 10:07:51.20	203.96	8.71	-53.6	-55.8	18.0	0.00e+00	0	45	0	59768832	60	24163
2026-01-29 10:07:52.21	204.04	8.78	-53.7	-55.8	17.9	0.00e+00	0	45	0	61865984	60	24280
2026-01-29 10:07:53.22	204.13	8.85	-53.6	-55.7	18.0	0.00e+00	0	45	0	63963136	60	23962
2026-01-29 10:07:54.22	204.22	8.93	-53.7	-55.8	17.9	0.00e+00	0	45	0	66060288	60	24186
2026-01-29 10:07:55.23	204.30	9.00	-53.5	-55.6	18.2	0.00e+00	0	45	0	67108864	60	23624
2026-01-29 10:07:56.23	204.39	9.07	-53.6	-55.8	18.1	0.00e+00	0	45	0	69206016	60	24068
2026-01-29 10:07:57.24	204.47	9.15	-53.6	-55.7	18.1	0.00e+00	0	45	0	71303168	60	23984
2026-01-29 10:07:58.25	204.56	9.22	-53.6	-55.7	18.2	0.00e+00	0	45	0	73400320	60	23878
2026-01-29 10:07:59.26	204.65	9.29	-53.5	-55.5	18.4	0.00e+00	0	45	0	75497472	60	23357
2026-01-29 10:08:00.26	204.74	9.37	-53.4	-55.4	18.5	0.00e+00	0	45	0	76546048	60	23139
2026-01-29 10:08:01.26	204.83	9.44	-53.4	-55.5	18.3	0.00e+00	0	45	0	78643200	60	23224
2026-01-29 10:08:02.27	204.92	9.52	-53.3	-55.3	18.6	0.00e+00	0	45	0	80740352	60	22875
2026-01-29 10:08:03.28	205.00	9.59	-53.1	-55.0	18.9	0.00e+00	0	45	0	82837504	60	22037
2026-01-29 10:08:04.29	205.10	9.67	-53.4	-55.3	18.6	0.00e+00	0	45	0	84934656	60	22938
2026-01-29 10:08:05.29	205.18	9.74	-53.3	-55.2	18.8	0.00e+00	0	45	0	87031808	60	22534
2026-01-29 10:08:06.30	205.28	9.82	-53.2	-55.1	18.8	0.00e+00	0	45	0	88080384	60	22362
2026-01-29 10:08:07.30	205.37	9.89	-53.4	-55.3	18.7	0.00e+00	0	45	0	90177536	60	22781
2026-01-29 10:08:08.31	205.46	9.97	-53.3	-55.2	18.8	0.00e+00	0	45	0	92274688	60	22650
2026-01-29 10:08:09.31	205.55	10.04	-53.4	-55.4	18.7	0.00e+00	0	45	0	94371840	60	23039
2026-01-29 10:08:10.32	205.64	10.12	-53.5	-55.4	18.8	0.00e+00	0	45	0	95420416	60	23095
2026-01-29 10:08:11.32	205.74	10.19	-53.4	-55.4	18.8	0.00e+00	0	45	0	97517568	60	22955
2026-01-29 10:08:12.32	205.83	10.27	-53.4	-55.3	18.9	0.00e+00	0	45	0	99614720	60	22792
2026-01-29 10:08:13.33	205.92	10.35	-53.2	-54.9	19.3	0.00e+00	0	45	0	101711872	60	21896
2026-01-29 10:08:14.33	206.02	10.42	-53.0	-54.7	19.4	0.00e+00	0	45	0	103809024	60	21365
2026-01-29 10:08:15.34	206.11	10.50	-53.1	-54.8	19.3	0.00e+00	0	45	0	104857600	60	21636
2026-01-29 10:08:16.35	206.21	10.58	-53.0	-54.8	19.4	0.00e+00	0	45	0	106954752	60	21462
2026-01-29 10:08:17.36	206.30	10.65	-53.0	-54.6	19.6	0.00e+00	0	45	0	109051904	60	21161
2026-01-29 10:08:18.36	206.40	10.73	-52.9	-54.6	19.6	0.00e+00	0	45	0	111149056	60	21049
2026-01-29 10:08:19.37	206.50	10.81	-53.0	-54.7	19.5	0.00e+00	0	45	0	113246208	60	21191
2026-01-29 10:08:20.38	206.59	10.89	-52.9	-54.6	19.7	0.00e+00	0	45	0	115343360	60	20996
2026-01-29 10:08:21.39	206.69	10.96	-52.9	-54.6	19.6	0.00e+00	0	45	0	116391936	60	21069
2026-01-29 10:08:22.39	206.79	11.04	-52.7	-54.3	19.9	0.00e+00	0	45	0	118489088	60	20423
2026-01-29 10:08:23.39	206.89	11.12	-52.6	-54.2	20.0	0.00e+00	0	45	0	120586240	60	20094
2026-01-29 10:08:24.40	206.99	11.20	-52.5	-54.0	20.2	0.00e+00	0	45	0	122683392	60	19728
2026-01-29 10:08:25.40	207.09	11.28	-52.5	-54.1	20.0	0.00e+00	0	45	0	123731968	60	19883
2026-01-29 10:08:26.41	207.19	11.35	-52.5	-54.0	20.1	0.00e+00	0	45	0	125829120	60	19718
2026-01-29 10:08:27.42	207.29	11.43	-52.5	-54.1	20.2	0.00e+00	0	45	0	127926272	60	19804
2026-01-29 10:08:28.43	207.39	11.51	-52.5	-54.0	20.0	0.00e+00	0	45	0	130023424	60	19691
2026-01-29 10:08:29.44	207.49	11.59	-52.6	-54.1	20.0	0.00e+00	0	45	0	132120576	60	19960
2026-01-29 10:08:30.45	207.60	11.67	-52.8	-54.4	19.8	0.00e+00	0	45	0	133169152	60	20669
2026-01-29 10:08:31.45	207.70	11.75	-52.8	-54.4	19.8	0.00e+00	0	45	0	135266304	60	20581
2026-01-29 10:08:32.46	207.80	11.83	-53.0	-54.6	19.7	0.00e+00	0	45	0	137363456	60	21121
2026-01-29 10:08:33.47	207.91	11.91	-53.3	-55.0	19.6	0.00e+00	0	45	0	139460608	60	22019
2026-01-29 10:08:34.47	208.01	11.99	-53.2	-54.9	19.6	0.00e+00	0	45	0	141557760	60	21658
2026-01-29 10:08:35.48	208.12	12.07	-53.4	-55.1	19.5	0.00e+00	0	45	0	142606336	60	22294
2026-01-29 10:08:36.49	208.22	12.15	-53.4	-55.1	19.6	0.00e+00	0	45	0	144703488	60	22337
2026-01-29 10:08:37.50	208.33	12.23	-53.2	-54.9	19.5	0.00e+00	0	45	0	146800640	60	21752
2026-01-29 10:08:38.50	208.43	12.31	-53.5	-55.2	19.6	0.00e+00	0	45	0	148897792	60	22588
2026-01-29 10:08:39.51	208.54	12.39	-53.4	-55.0	19.6	0.00e+00	0	45	0	150994944	60	22113
2026-01-29 10:08:40.52	208.65	12.48	-53.5	-55.2	19.5	0.00e+00	0	45	0	152043520	60	22557
2026-01-29 10:08:41.53	208.76	12.56	-53.5	-55.2	19.6	0.00e+00	0	45	0	154140672	60	22442
2026-01-29 10:08:42.52	208.87	12.64	-53.2	-54.8	19.9	0.00e+00	0	45	0	156237824	60	21531
2026-01-29 10:08:43.53	208.98	12.72	-53.3	-55.0	19.9	0.00e+00	0	45	0	158334976	60	21925
2026-01-29 10:08:44.53	209.09	12.80	-53.0	-54.5	20.2	0.00e+00	0	45	0	160432128	60	20896
2026-01-29 10:08:45.54	209.20	12.88	-53.0	-54.6	20.2	0.00e+00	0	45	0	161480704	60	20960
2026-01-29 10:08:46.55	209.31	12.96	-52.9	-54.4	20.2	0.00e+00	0	45	0	163577856	60	20624
2026-01-29 10:08:47.55	209.42	13.05	-52.9	-54.4	20.3	0.00e+00	0	45	0	165675008	60	20573
2026-01-29 10:08:48.56	209.53	13.13	-52.6	-54.1	20.6	0.00e+00	0	45	0	167772160	60	19796
2026-01-29 10:08:49.56	209.65	13.21	-52.7	-54.1	20.5	0.00e+00	0	45	0	169869312	60	19954
2026-01-29 10:08:50.57	209.76	13.29	-52.9	-54.4	20.3	0.00e+00	0	45	0	170917888	60	20605
2026-01-29 10:08:51.58	209.88	13.38	-52.7	-54.2	20.5	0.00e+00	0	45	0	173015040	60	20055
2026-01-29 10:08:52.59	209.99	13.46	-52.8	-54.3	20.5	0.00e+00	0	45	0	175112192	60	20312
2026-01-29 10:08:53.59	210.11	13.54	-52.8	-54.3	20.5	0.00e+00	0	45	0	177209344	60	20437
2026-01-29 10:08:54.60	210.22	13.63	-52.9	-54.4	20.5	0.00e+00	0	45	0	179306496	60	20469
2026-01-29 10:08:55.61	210.34	13.71	-53.0	-54.5	20.3	0.00e+00	0	45	0	180355072	60	20880
2026-01-29 10:08:56.62	210.46	13.80	-53.0	-54.6	20.4	0.00e+00	0	45	0	182452224	60	20929
2026-01-29 10:08:57.63	210.58	13.88	-53.1	-54.6	20.1	0.00e+00	0	45	0	184549376	60	21138
2026-01-29 10:08:58.64	210.70	13.97	-53.3	-54.9	19.9	0.00e+00	0	45	0	186646528	60	21666
2026-01-29 10:08:59.64	210.82	14.05	-53.4	-55.1	19.9	0.00e+00	0	45	0	188743680	60	22165
2026-01-29 10:09:00.65	210.94	14.14	-53.5	-55.2	19.7	0.00e+00	0	45	0	189792256	60	22516
2026-01-29 10:09:01.65	211.06	14.22	-53.8	-55.5	19.5	0.00e+00	0	45	0	191889408	60	23283
2026-01-29 10:09:02.66	211.18	14.31	-53.9	-55.6	19.5	0.00e+00	0	45	0	193986560	60	23648
2026-01-29 10:09:03.67	211.30	14.39	-53.9	-55.7	19.6	0.00e+00	0	45	0	196083712	60	23851
2026-01-29 10:09:04.68	211.42	14.48	-54.1	-55.9	19.3	0.00e+00	0	45	0	198180864	60	24354
2026-01-29 10:09:05.68	211.55	14.56	-54.1	-55.9	19.3	0.00e+00	0	45	0	200278016	60	24467
2026-01-29 10:09:06.69	211.67	14.65	-54.1	-55.9	19.3	0.00e+00	0	45	0	201326592	60	24455
2026-01-29 10:09:07.70	211.80	14.73	-54.3	-56.1	19.2	0.00e+00	0	45	0	203423744	60	24961
2026-01-29 10:09:08.71	211.92	14.82	-54.0	-55.7	19.4	0.00e+00	0	45	0	205520896	60	23965
2026-01-29 10:09:09.72	212.05	14.91	-53.8	-55.5	19.7	0.00e+00	0	45	0	207618048	60	23330
2026-01-29 10:09:10.73	212.18	14.99	-54.1	-55.8	19.2	0.00e+00	0	45	0	208666624	60	24282
2026-01-29 10:09:11.74	212.31	15.08	-53.8	-55.5	19.7	0.00e+00	0	45	0	210763776	60	23246
2026-01-29 10:09:12.74	212.43	15.17	-53.5	-55.1	20.0	0.00e+00	0	45	0	212860928	60	22362
2026-01-29 10:09:13.75	212.56	15.25	-53.6	-55.2	19.9	0.00e+00	0	45	0	214958080	60	22561
2026-01-29 10:09:14.76	212.69	15.34	-53.7	-55.3	19.8	0.00e+00	0	45	0	217055232	60	22823
2026-01-29 10:09:15.77	212.82	15.43	-53.8	-55.4	19.7	0.00e+00	0	45	0	218103808	60	23072
2026-01-29 10:09:16.77	212.96	15.52	-53.8	-55.5	19.6	0.00e+00	0	45	0	220200960	60	23232
2026-01-29 10:09:17.78	213.09	15.61	-54.1	-55.8	19.3	0.00e+00	0	45	0	222298112	60	24207
2026-01-29 10:09:18.78	213.22	15.69	-54.0	-55.8	19.4	0.00e+00	0	45	0	224395264	60	24169
2026-01-29 10:09:19.79	213.35	15.78	-54.1	-55.9	19.2	0.00e+00	0	45	0	226492416	60	24443
2026-01-29 10:09:20.79	213.49	15.87	-54.3	-56.1	19.0	0.00e+00	0	45	0	228589568	60	25082
2026-01-29 10:09:21.80	213.62	15.96	-54.2	-56.1	19.0	0.00e+00	0	45	0	229638144	60	24992
2026-01-29 10:09:22.80	213.76	16.05	-53.9	-55.7	19.4	0.00e+00	0	45	0	231735296	60	23795
2026-01-29 10:09:23.81	213.90	16.14	-53.9	-55.7	19.4	0.00e+00	0	45	0	233832448	60	23773
2026-01-29 10:09:24.82	214.03	16.22	-53.9	-55.6	19.6	0.00e+00	0	45	0	235929600	60	23501
2026-01-29 10:09:25.82	214.17	16.31	-53.8	-55.5	19.7	0.00e+00	0	45	0	236978176	60	23231
2026-01-29 10:09:26.83	214.31	16.40	-53.8	-55.5	19.7	0.00e+00	0	45	0	239075328	60	23408
2026-01-29 10:09:27.83	214.45	16.49	-53.8	-55.4	19.9	0.00e+00	0	45	0	241172480	60	23109
2026-01-29 10:09:28.83	214.59	16.58	-53.8	-55.5	19.7	0.00e+00	0	45	0	243269632	60	23355
2026-01-29 10:09:29.84	214.73	16.67	-54.0	-55.7	19.6	0.00e+00	0	45	0	245366784	60	23891
2026-01-29 10:09:30.85	214.87	16.76	-54.1	-55.8	19.6	0.00e+00	0	45	0	246415360	60	24232
2026-01-29 10:09:31.85	215.02	16.85	-54.0	-55.8	19.5	0.00e+00	0	45	0	248512512	60	24042
2026-01-29 10:09:32.85	215.16	16.94	-54.1	-55.8	19.5	0.00e+00	0	45	0	250609664	60	24231
2026-01-29 10:09:33.84	215.30	17.03	-54.0	-55.7	19.5	0.00e+00	0	45	0	252706816	60	23782
2026-01-29 10:09:34.84	215.45	17.12	-54.0	-55.7	19.5	0.00e+00	0	45	0	254803968	60	23991
2026-01-29 10:09:35.85	215.59	17.21	-54.0	-55.7	19.5	0.00e+00	0	45	0	255852544	60	23979
2026-01-29 10:09:36.86	215.74	17.30	-54.2	-56.0	19.4	0.00e+00	0	45	0	257949696	60	24582
2026-01-29 10:09:37.86	215.89	17.39	-54.1	-55.8	19.5	0.00e+00	0	45	0	260046848	60	24152
2026-01-29 10:09:38.85	216.04	17.48	-54.2	-56.0	19.2	0.00e+00	0	45	0	262144000	60	24674
2026-01-29 10:09:39.86	216.19	17.57	-54.3	-56.1	19.2	0.00e+00	0	45	0	264241152	60	25055
2026-01-29 10:09:40.87	216.34	17.67	-54.2	-55.9	19.3	0.00e+00	0	45	0	265289728	60	24483
2026-01-29 10:09:41.87	216.49	17.76	-54.4	-56.2	19.0	0.00e+00	0	45	0	267386880	60	25318
2026-01-29 10:09:42.87	216.64	17.85	-54.2	-56.0	19.3	0.00e+00	0	45	0	269484032	60	24744
2026-01-29 10:09:43.87	216.79	17.94	-54.3	-56.1	19.4	4.33e-04	0	45	0	271581184	60	24955
2026-01-29 10:09:44.88	216.95	18.03	-54.4	-56.2	19.1	0.00e+00	0	45	0	272629760	60	25374
2026-01-29 10:09:45.88	217.10	18.12	-54.4	-56.2	19.1	0.00e+00	0	45	0	274726912	60	25288
2026-01-29 10:09:46.89	217.26	18.22	-54.0	-55.8	19.6	0.00e+00	0	45	0	276824064	60	24020
2026-01-29 10:09:47.89	217.42	18.31	-54.3	-56.1	19.3	0.00e+00	0	45	0	278921216	60	24889
2026-01-29 10:09:48.90	217.57	18.40	-54.3	-56.1	19.2	0.00e+00	0	45	0	281018368	60	25110
2026-01-29 10:09:49.90	217.73	18.50	-54.2	-55.9	19.4	0.00e+00	0	45	0	283115520	60	24553
2026-01-29 10:09:50.90	217.89	18.59	-54.3	-56.1	19.2	0.00e+00	0	45	0	284164096	60	25062
2026-01-29 10:09:51.90	218.05	18.68	-54.1	-55.7	19.6	0.00e+00	0	45	0	286261248	60	23994
2026-01-29 10:09:52.91	218.21	18.77	-53.7	-55.3	19.9	0.00e+00	0	45	0	288358400	60	22759
2026-01-29 10:09:53.91	218.38	18.87	-53.7	-55.3	19.8	0.00e+00	0	45	0	290455552	60	22749
2026-01-29 10:09:54.92	218.54	18.96	-53.7	-55.2	20.1	0.00e+00	0	45	0	292552704	60	22650
2026-01-29 10:09:55.93	218.71	19.06	-53.5	-55.0	20.3	0.00e+00	0	45	0	293601280	60	21952
2026-01-29 10:09:56.93	218.87	19.15	-53.2	-54.7	20.4	0.00e+00	0	45	0	295698432	60	21308
2026-01-29 10:09:57.93	219.04	19.24	-53.2	-54.6	20.5	0.00e+00	0	45	0	297795584	60	21099
2026-01-29 10:09:58.94	219.20	19.34	-53.2	-54.6	20.5	0.00e+00	0	45	0	299892736	60	21138
2026-01-29 10:09:59.95	219.37	19.43	-53.1	-54.6	20.3	0.00e+00	0	45	0	300941312	60	20995
2026-01-29 10:10:00.95	219.54	19.52	-53.3	-54.9	20.3	0.00e+00	0	45	0	303038464	60	21792
2026-01-29 10:10:01.95	219.71	19.62	-53.2	-54.8	20.3	0.00e+00	0	45	0	305135616	60	21410
2026-01-29 10:10:02.96	219.88	19.71	-53.2	-54.7	20.3	0.00e+00	0	45	0	307232768	60	21403
2026-01-29 10:10:03.96	220.06	19.81	-53.2	-54.7	20.4	0.00e+00	0	45	0	309329920	60	21381
2026-01-29 10:10:04.97	220.23	19.90	-53.0	-54.4	20.5	0.00e+00	0	45	0	310378496	60	20628
2026-01-29 10:10:05.97	220.40	20.00	-52.8	-54.2	20.7	0.00e+00	0	45	0	312475648	60	20180
2026-01-29 10:10:06.98	220.58	20.09	-52.8	-54.2	20.8	0.00e+00	0	45	0	314572800	60	20168
2026-01-29 10:10:07.99	220.76	20.19	-52.6	-54.0	21.0	0.00e+00	0	45	0	316669952	60	19533
2026-01-29 10:10:09.00	220.94	20.28	-52.6	-54.0	21.0	0.00e+00	0	45	0	318767104	60	19711
2026-01-29 10:10:10.00	221.12	20.38	-52.6	-54.0	20.9	0.00e+00	0	45	0	320864256	60	19661
2026-01-29 10:10:11.01	221.30	20.47	-52.8	-54.2	20.7	0.00e+00	0	45	0	321912832	60	20170
2026-01-29 10:10:12.01	221.48	20.57	-52.8	-54.3	20.8	0.00e+00	0	45	0	324009984	60	20266
2026-01-29 10:10:13.02	221.66	20.66	-52.8	-54.3	20.8	0.00e+00	0	45	0	326107136	60	20280
2026-01-29 10:10:14.02	221.84	20.76	-52.8	-54.3	20.7	0.00e+00	0	45	0	328204288	60	20264
2026-01-29 10:10:15.02	222.03	20.85	-52.7	-54.2	20.8	0.00e+00	0	45	0	329252864	60	20092
2026-01-29 10:10:16.03	222.21	20.95	-52.8	-54.2	20.8	0.00e+00	0	45	0	331350016	60	20176
2026-01-29 10:10:17.04	222.40	21.05	-52.6	-54.0	21.0	0.00e+00	0	45	0	333447168	60	19691
2026-01-29 10:10:18.05	222.59	21.14	-52.9	-54.4	20.7	0.00e+00	0	45	0	335544320	60	20519
2026-01-29 10:10:19.05	222.78	21.24	-52.9	-54.3	20.8	0.00e+00	0	45	0	337641472	60	20404
2026-01-29 10:10:20.06	222.97	21.33	-52.9	-54.4	20.7	0.00e+00	0	45	0	338690048	60	20621
2026-01-29 10:10:21.06	223.16	21.43	-53.0	-54.5	20.6	0.00e+00	0	45	0	340787200	60	20860
2026-01-29 10:10:22.07	223.35	21.53	-52.9	-54.4	20.7	0.00e+00	0	45	0	342884352	60	20530
2026-01-29 10:10:23.08	223.55	21.62	-52.7	-54.1	20.9	0.00e+00	0	45	0	344981504	60	19826
2026-01-29 10:10:24.08	223.74	21.72	-52.5	-53.9	21.2	0.00e+00	0	45	0	347078656	60	19301
2026-01-29 10:10:25.09	223.94	21.81	-52.3	-53.7	21.3	0.00e+00	0	45	0	349175808	60	18904
2026-01-29 10:10:26.10	224.13	21.91	-52.2	-53.6	21.4	0.00e+00	0	45	0	350224384	60	18665
2026-01-29 10:10:27.10	224.33	22.01	-52.3	-53.7	21.3	0.00e+00	0	45	0	352321536	60	18865
2026-01-29 10:10:28.11	224.53	22.10	-52.0	-53.3	21.6	0.00e+00	0	45	0	354418688	60	18168
2026-01-29 10:10:29.12	224.73	22.20	-51.9	-53.2	21.5	0.00e+00	0	45	0	356515840	60	17832
2026-01-29 10:10:30.13	224.94	22.30	-51.9	-53.2	21.5	0.00e+00	0	45	0	357564416	60	17815
2026-01-29 10:10:31.14	225.14	22.39	-51.9	-53.1	21.7	0.00e+00	0	45	0	359661568	60	17796
2026-01-29 10:10:32.14	225.34	22.49	-51.4	-52.6	22.2	0.00e+00	0	45	0	361758720	60	16723
2026-01-29 10:10:33.15	225.55	22.58	-51.2	-52.4	22.3	0.00e+00	0	45	0	363855872	60	16265
2026-01-29 10:10:34.16	225.76	22.68	-51.2	-52.3	22.5	0.00e+00	0	45	0	365953024	60	16144
2026-01-29 10:10:35.17	225.97	22.78	-51.2	-52.3	22.5	0.00e+00	0	45	0	367001600	60	16177
2026-01-29 10:10:36.17	226.18	22.87	-51.3	-52.4	22.5	0.00e+00	0	45	0	369098752	60	16306
2026-01-29 10:10:37.17	226.39	22.97	-51.3	-52.4	22.4	0.00e+00	0	45	0	371195904	60	16386
2026-01-29 10:10:38.17	226.60	23.06	-51.5	-52.6	22.3	0.00e+00	0	45	0	373293056	60	16718
2026-01-29 10:10:39.17	226.81	23.16	-51.3	-52.4	22.4	0.00e+00	0	45	0	375390208	60	16423
2026-01-29 10:10:40.18	227.02	23.26	-51.6	-52.8	22.0	0.00e+00	0	45	0	377487360	60	17177
2026-01-29 10:10:41.19	227.24	23.35	-51.7	-53.0	22.0	0.00e+00	0	45	0	378535936	60	17426
2026-01-29 10:10:42.19	227.46	23.45	-52.1	-53.3	21.6	0.00e+00	0	45	0	380633088	60	18172
2026-01-29 10:10:43.19	227.67	23.54	-52.0	-53.3	21.8	0.00e+00	0	45	0	382730240	60	18030
2026-01-29 10:10:44.20	227.89	23.64	-52.3	-53.6	21.4	0.00e+00	0	45	0	384827392	60	18781
2026-01-29 10:10:45.20	228.11	23.73	-52.2	-53.5	21.5	0.00e+00	0	45	0	385875968	60	18629
2026-01-29 10:10:46.21	228.34	23.83	-52.4	-53.8	21.2	0.00e+00	0	45	0	387973120	60	19091
2026-01-29 10:10:47.21	228.56	23.93	-52.4	-53.7	21.2	0.00e+00	0	45	0	390070272	60	19027
2026-01-29 10:10:48.21	228.78	24.02	-52.3	-53.6	21.3	0.00e+00	0	45	0	392167424	60	18764
2026-01-29 10:10:49.22	229.01	24.12	-52.4	-53.7	21.4	0.00e+00	0	45	0	394264576	60	18911
2026-01-29 10:10:50.22	229.24	24.21	-52.2	-53.5	21.4	0.00e+00	0	45	0	395313152	60	18626
2026-01-29 10:10:51.22	229.47	24.31	-52.2	-53.5	21.4	0.00e+00	0	45	0	397410304	60	18606
2026-01-29 10:10:52.23	229.70	24.40	-52.4	-53.7	21.3	0.00e+00	0	45	0	399507456	60	18939
2026-01-29 10:10:53.23	229.93	24.49	-52.3	-53.6	21.3	0.00e+00	0	45	0	401604608	60	18818
2026-01-29 10:10:54.23	230.16	24.59	-52.4	-53.8	21.1	0.00e+00	0	45	0	403701760	60	19123
2026-01-29 10:10:55.24	230.39	24.68	-52.7	-54.1	21.1	0.00e+00	0	45	0	404750336	60	19857
2026-01-29 10:10:56.24	230.63	24.78	-52.9	-54.3	20.7	0.00e+00	0	45	0	406847488	60	20316
2026-01-29 10:10:57.24	230.86	24.87	-52.9	-54.3	20.9	0.00e+00	0	45	0	408944640	60	20374
2026-01-29 10:10:58.24	231.10	24.96	-53.0	-54.4	20.9	0.00e+00	0	45	0	411041792	60	20486
2026-01-29 10:10:59.24	231.34	25.06	-52.9	-54.3	20.9	0.00e+00	0	45	0	412090368	60	20260
2026-01-29 10:11:00.25	231.58	25.15	-52.8	-54.2	20.9	0.00e+00	0	45	0	414187520	60	20141
2026-01-29 10:11:01.25	231.82	25.24	-52.8	-54.2	20.9	0.00e+00	0	45	0	416284672	60	20004
2026-01-29 10:11:02.26	232.07	25.34	-52.5	-53.8	21.3	0.00e+00	0	45	0	418381824	60	19244
2026-01-29 10:11:03.26	232.31	25.43	-52.5	-53.8	21.3	0.00e+00	0	45	0	420478976	60	19236
2026-01-29 10:11:04.27	232.56	25.52	-52.4	-53.7	21.3	0.00e+00	0	45	0	421527552	60	18937
2026-01-29 10:11:05.27	232.81	25.62	-52.4	-53.7	21.4	0.00e+00	0	45	0	423624704	60	18893
2026-01-29 10:11:06.28	233.06	25.71	-52.4	-53.7	21.4	0.00e+00	0	45	0	425721856	60	19041
2026-01-29 10:11:07.29	233.31	25.80	-52.3	-53.5	21.5	0.00e+00	0	45	0	427819008	60	18553
2026-01-29 10:11:08.29	233.56	25.89	-52.5	-53.8	21.4	0.00e+00	0	45	0	429916160	60	19193
2026-01-29 10:11:09.30	233.82	25.98	-52.8	-54.2	21.0	0.00e+00	0	45	0	432013312	60	20046
2026-01-29 10:11:10.31	234.07	26.08	-53.0	-54.4	20.8	0.00e+00	0	45	0	433061888	60	20511
2026-01-29 10:11:11.32	234.33	26.17	-53.5	-55.0	20.4	0.00e+00	0	45	0	435159040	60	22098
2026-01-29 10:11:12.32	234.59	26.26	-53.6	-55.2	20.1	0.00e+00	0	45	0	437256192	60	22488
2026-01-29 10:11:13.33	234.85	26.35	-53.7	-55.3	20.0	0.00e+00	0	45	0	439353344	60	22853
2026-01-29 10:11:14.33	235.11	26.44	-53.7	-55.4	20.0	0.00e+00	0	45	0	440401920	60	22939
2026-01-29 10:11:15.34	235.37	26.53	-53.3	-54.8	20.5	0.00e+00	0	45	0	442499072	60	21536
2026-01-29 10:11:16.34	235.64	26.62	-53.0	-54.4	20.8	0.00e+00	0	45	0	444596224	60	20600
2026-01-29 10:11:17.34	235.90	26.71	-53.0	-54.3	20.9	0.00e+00	0	45	0	446693376	60	20441
2026-01-29 10:11:18.34	236.17	26.79	-52.8	-54.1	21.1	0.00e+00	0	45	0	448790528	60	19947
2026-01-29 10:11:19.34	236.43	26.88	-53.0	-54.4	20.9	0.00e+00	0	45	0	449839104	60	20476
2026-01-29 10:11:20.35	236.70	26.97	-53.0	-54.4	20.8	0.00e+00	0	45	0	451936256	60	20571
2026-01-29 10:11:21.35	236.97	27.06	-52.8	-54.2	20.9	0.00e+00	0	45	0	454033408	60	19983
2026-01-29 10:11:22.36	237.25	27.14	-52.8	-54.2	21.0	0.00e+00	0	45	0	456130560	60	20088
2026-01-29 10:11:23.36	237.52	27.23	-52.9	-54.3	20.8	0.00e+00	0	45	0	458227712	60	20427
2026-01-29 10:11:24.37	237.80	27.32	-53.0	-54.4	20.6	0.00e+00	0	45	0	459276288	60	20540
2026-01-29 10:11:25.37	238.07	27.40	-53.2	-54.7	20.4	0.00e+00	0	45	0	461373440	60	21382
2026-01-29 10:11:26.37	238.35	27.49	-53.5	-55.1	19.9	0.00e+00	0	45	0	463470592	60	22193
2026-01-29 10:11:27.37	238.63	27.57	-53.6	-55.2	19.9	0.00e+00	0	45	0	465567744	60	22423
2026-01-29 10:11:28.38	238.91	27.66	-53.4	-54.9	20.3	0.00e+00	0	45	0	467664896	60	21830
2026-01-29 10:11:29.39	239.20	27.74	-52.9	-54.3	20.7	0.00e+00	0	45	0	468713472	60	20438
2026-01-29 10:11:30.39	239.48	27.82	-52.9	-54.3	20.6	0.00e+00	0	45	0	470810624	60	20271
2026-01-29 10:11:31.39	239.76	27.91	-53.1	-54.6	20.5	0.00e+00	0	45	0	472907776	60	20957
2026-01-29 10:11:32.40	240.05	27.99	-53.1	-54.6	20.3	0.00e+00	0	45	0	475004928	60	20948
2026-01-29 10:11:33.40	240.34	28.07	-53.4	-54.9	20.2	0.00e+00	0	45	0	477102080	60	21836
2026-01-29 10:11:34.41	240.63	28.15	-53.4	-55.0	20.1	0.00e+00	0	45	0	478150656	60	21992
2026-01-29 10:11:35.42	240.92	28.24	-53.2	-54.7	20.3	0.00e+00	0	45	0	480247808	60	21388
2026-01-29 10:11:36.42	241.21	28.32	-53.3	-54.9	20.3	0.00e+00	0	45	0	482344960	60	21681
2026-01-29 10:11:37.43	241.51	28.40	-53.2	-54.7	20.3	0.00e+00	0	45	0	484442112	60	21297
2026-01-29 10:11:38.44	241.81	28.48	-53.3	-54.8	20.2	0.00e+00	0	45	0	486539264	60	21542
2026-01-29 10:11:39.44	242.10	28.55	-53.2	-54.6	20.4	0.00e+00	0	45	0	487587840	60	21111
2026-01-29 10:11:40.45	242.40	28.63	-53.1	-54.6	20.5	0.00e+00	0	45	0	489684992	60	21066
2026-01-29 10:11:41.45	242.70	28.71	-53.4	-55.0	20.2	0.00e+00	0	45	0	491782144	60	21993
2026-01-29 10:11:42.46	243.00	28.79	-53.6	-55.1	20.1	0.00e+00	0	45	0	493879296	60	22340
2026-01-29 10:11:43.47	243.31	28.86	-53.6	-55.2	20.1	0.00e+00	0	45	0	495976448	60	22457
2026-01-29 10:11:44.47	243.61	28.94	-53.7	-55.3	19.9	0.00e+00	0	45	0	497025024	60	22798
2026-01-29 10:11:45.48	243.92	29.01	-53.5	-55.0	20.2	0.00e+00	0	45	0	499122176	60	21985
2026-01-29 10:11:46.48	244.22	29.09	-53.3	-54.7	20.4	0.00e+00	0	45	0	501219328	60	21334
2026-01-29 10:11:47.48	244.53	29.16	-53.4	-54.9	20.0	0.00e+00	0	45	0	503316480	60	21676
2026-01-29 10:11:48.49	244.84	29.23	-53.6	-55.1	19.9	0.00e+00	0	45	0	505413632	60	22399
2026-01-29 10:11:49.49	245.15	29.30	-53.9	-55.6	19.5	0.00e+00	0	45	0	506462208	60	23536
2026-01-29 10:11:50.50	245.47	29.38	-53.9	-55.6	19.6	0.00e+00	0	45	0	508559360	60	23494
2026-01-29 10:11:51.50	245.78	29.45	-54.0	-55.6	19.6	0.00e+00	0	45	0	510656512	60	23724
2026-01-29 10:11:52.51	246.10	29.52	-53.9	-55.5	19.6	0.00e+00	0	45	0	512753664	60	23334
2026-01-29 10:11:53.52	246.41	29.59	-53.6	-55.2	20.0	0.00e+00	0	45	0	514850816	60	22489
2026-01-29 10:11:54.52	246.73	29.65	-53.7	-55.3	19.6	0.00e+00	0	45	0	515899392	60	22892
2026-01-29 10:11:55.52	247.05	29.72	-54.1	-55.8	19.3	0.00e+00	0	45	0	517996544	60	24041
2026-01-29 10:11:56.53	247.37	29.79	-54.5	-56.4	18.8	0.00e+00	0	45	0	520093696	60	25861
2026-01-29 10:11:57.54	247.69	29.85	-54.5	-56.4	18.8	0.00e+00	0	45	0	522190848	60	25819
2026-01-29 10:11:58.55	248.02	29.92	-54.0	-55.7	19.2	0.00e+00	0	45	0	524288000	60	23981
2026-01-29 10:11:59.55	248.34	29.98	-53.8	-55.5	19.5	0.00e+00	0	45	0	525336576	60	23377
2026-01-29 10:12:00.56	248.67	30.05	-53.7	-55.4	19.4	0.00e+00	0	45	0	527433728	60	23149
2026-01-29 10:12:01.56	248.99	30.11	-53.8	-55.5	19.5	0.00e+00	0	45	0	529530880	60	23303
2026-01-29 10:12:02.57	249.32	30.17	-54.1	-56.0	18.9	0.00e+00	0	45	0	531628032	60	24588
2026-01-29 10:12:03.57	249.65	30.23	-54.1	-55.9	19.0	0.00e+00	0	45	0	532676608	60	24432
2026-01-29 10:12:04.57	249.98	30.29	-54.4	-56.3	18.7	0.00e+00	0	45	0	534773760	60	25721
2026-01-29 10:12:05.58	250.31	30.35	-54.6	-56.5	18.3	0.00e+00	0	45	0	536870912	60	26245
2026-01-29 10:12:06.59	250.65	30.41	-55.0	-57.2	17.9	0.00e+00	0	45	0	538968064	60	28348
2026-01-29 10:12:07.59	250.98	30.47	-55.3	-57.7	17.4	0.00e+00	0	45	0	541065216	60	29900
2026-01-29 10:12:08.59	251.31	30.52	-55.4	-57.8	17.0	0.00e+00	0	45	0	543162368	60	30517
2026-01-29 10:12:09.60	251.65	30.58	-55.4	-57.7	17.2	0.00e+00	0	45	0	544210944	60	30114
2026-01-29 10:12:10.60	251.99	30.63	-55.1	-57.2	17.8	0.00e+00	0	45	0	546308096	60	28513
2026-01-29 10:12:11.60	252.32	30.68	-54.7	-56.8	18.2	0.00e+00	0	45	0	548405248	60	26990
2026-01-29 10:12:12.61	252.67	30.74	-54.7	-56.7	18.1	0.00e+00	0	45	0	550502400	60	26827
2026-01-29 10:12:13.61	253.00	30.79	-55.0	-57.3	17.6	0.00e+00	0	45	0	552599552	60	28605
2026-01-29 10:12:14.61	253.34	30.84	-55.1	-57.3	17.7	0.00e+00	0	45	0	553648128	60	28783
2026-01-29 10:12:15.62	253.69	30.89	-55.0	-57.2	17.8	0.00e+00	0	45	0	555745280	60	28398
2026-01-29 10:12:16.63	254.03	30.94	-54.5	-56.5	18.3	0.00e+00	0	45	0	557842432	60	26154
2026-01-29 10:12:17.63	254.38	30.98	-54.6	-56.6	18.1	0.00e+00	0	45	0	559939584	60	26521
2026-01-29 10:12:18.64	254.72	31.03	-54.4	-56.3	18.7	0.00e+00	0	45	0	560988160	60	25690
2026-01-29 10:12:19.65	255.07	31.08	-54.3	-56.2	18.8	0.00e+00	0	45	0	563085312	60	25288
2026-01-29 10:12:20.65	255.42	31.12	-53.8	-55.6	19.1	0.00e+00	0	45	0	565182464	60	23513
2026-01-29 10:12:21.66	255.77	31.16	-53.6	-55.3	19.3	0.00e+00	0	45	0	567279616	60	22827
2026-01-29 10:12:22.67	256.12	31.20	-53.7	-55.4	19.3	0.00e+00	0	45	0	569376768	60	23043
2026-01-29 10:12:23.68	256.47	31.25	-54.2	-56.0	18.8	0.00e+00	0	45	0	570425344	60	24835
2026-01-29 10:12:24.69	256.83	31.29	-54.6	-56.7	18.3	0.00e+00	0	45	0	572522496	60	26821
2026-01-29 10:12:25.69	257.18	31.32	-54.8	-57.0	18.0	0.00e+00	0	45	0	574619648	60	27609
2026-01-29 10:12:26.70	257.53	31.36	-54.5	-56.5	18.4	0.00e+00	0	45	0	576716800	60	26134
2026-01-29 10:12:27.71	257.89	31.40	-54.5	-56.4	18.6	0.00e+00	0	45	0	578813952	60	25998
2026-01-29 10:12:28.72	258.24	31.43	-54.1	-56.0	18.8	0.00e+00	0	45	0	580911104	60	24580
2026-01-29 10:12:29.73	258.60	31.47	-53.7	-55.5	19.4	0.00e+00	0	45	0	581959680	60	23250
2026-01-29 10:12:30.73	258.95	31.50	-53.6	-55.3	19.5	0.00e+00	0	45	0	584056832	60	22771
2026-01-29 10:12:31.74	259.31	31.53	-53.3	-54.9	19.9	0.00e+00	0	45	0	586153984	60	21813
2026-01-29 10:12:32.74	259.67	31.56	-53.0	-54.5	20.4	0.00e+00	0	45	0	588251136	60	20732
2026-01-29 10:12:33.75	260.03	31.59	-52.9	-54.4	20.3	0.00e+00	0	45	0	589299712	60	20582
2026-01-29 10:12:34.75	260.38	31.62	-53.2	-54.7	20.0	0.00e+00	0	45	0	591396864	60	21364
2026-01-29 10:12:35.76	260.74	31.65	-53.6	-55.2	19.7	0.00e+00	0	45	0	593494016	60	22591
2026-01-29 10:12:36.77	261.10	31.67	-54.1	-55.9	18.9	0.00e+00	0	45	0	595591168	60	24416
2026-01-29 10:12:37.77	261.46	31.70	-54.1	-56.0	18.9	0.00e+00	0	45	0	597688320	60	24640
2026-01-29 10:12:38.78	261.83	31.72	-53.9	-55.7	19.1	0.00e+00	0	45	0	598736896	60	23853
2026-01-29 10:12:39.79	262.19	31.74	-53.7	-55.4	19.4	0.00e+00	0	45	0	600834048	60	22947
2026-01-29 10:12:40.79	262.55	31.76	-53.3	-54.9	19.9	0.00e+00	0	45	0	602931200	60	21771
2026-01-29 10:12:41.80	262.91	31.78	-53.2	-54.7	20.3	0.00e+00	0	45	0	605028352	60	21196
2026-01-29 10:12:42.80	263.27	31.80	-52.9	-54.4	20.5	0.00e+00	0	45	0	607125504	60	20524
2026-01-29 10:12:43.81	263.64	31.82	-52.9	-54.3	20.5	0.00e+00	0	45	0	609222656	60	20409
2026-01-29 10:12:44.82	264.00	31.84	-53.0	-54.5	20.5	0.00e+00	0	45	0	610271232	60	20730
2026-01-29 10:12:45.83	264.37	31.85	-53.0	-54.5	20.4	0.00e+00	0	45	0	612368384	60	20752
2026-01-29 10:12:46.83	264.73	31.86	-53.2	-54.7	20.1	0.00e+00	0	45	0	614465536	60	21284
2026-01-29 10:12:47.83	265.09	31.88	-53.8	-55.4	19.6	0.00e+00	0	45	0	616562688	60	23163
2026-01-29 10:12:48.84	265.46	31.89	-54.0	-55.7	19.2	0.00e+00	0	45	0	617611264	60	23894
2026-01-29 10:12:49.84	265.82	31.90	-53.9	-55.6	19.5	0.00e+00	0	45	0	619708416	60	23516
2026-01-29 10:12:50.85	266.19	31.91	-53.8	-55.5	19.6	0.00e+00	0	45	0	621805568	60	23245
2026-01-29 10:12:51.85	266.55	31.91	-53.6	-55.2	19.7	0.00e+00	0	45	0	623902720	60	22640
2026-01-29 10:12:52.86	266.92	31.92	-53.6	-55.3	19.6	0.00e+00	0	45	0	625999872	60	22754
2026-01-29 10:12:53.86	267.28	31.92	-53.3	-54.9	19.9	0.00e+00	0	45	0	627048448	60	21851
2026-01-29 10:12:54.87	267.65	31.93	-53.3	-54.9	20.0	0.00e+00	0	45	0	629145600	60	21809
2026-01-29 10:12:55.88	268.01	31.93	-53.4	-55.0	19.9	0.00e+00	0	45	0	631242752	60	22028
2026-01-29 10:12:56.89	268.38	31.93	-53.4	-55.0	19.9	0.00e+00	0	45	0	633339904	60	21940
2026-01-29 10:12:57.89	268.75	31.93	-53.1	-54.7	20.3	0.00e+00	0	45	0	635437056	60	21187
2026-01-29 10:12:58.90	269.11	31.93	-53.0	-54.5	20.4	0.00e+00	0	45	0	637534208	60	20777
2026-01-29 10:12:59.90	269.48	31.93	-53.0	-54.5	20.4	0.00e+00	0	45	0	638582784	60	20872
2026-01-29 10:13:00.91	269.84	31.92	-53.2	-54.8	20.2	0.00e+00	0	45	0	640679936	60	21426
2026-01-29 10:13:01.90	270.20	31.92	-53.5	-55.1	19.7	0.00e+00	0	45	0	642777088	60	22299
2026-01-29 10:13:02.91	270.57	31.91	-53.4	-55.0	19.9	0.00e+00	0	45	0	644874240	60	22130
2026-01-29 10:13:03.91	270.93	31.90	-53.1	-54.6	20.3	0.00e+00	0	45	0	645922816	60	21125
2026-01-29 10:13:04.92	271.30	31.89	-52.9	-54.4	20.4	0.00e+00	0	45	0	648019968	60	20589
2026-01-29 10:13:05.92	271.66	31.88	-52.9	-54.4	20.6	0.00e+00	0	45	0	650117120	60	20456
2026-01-29 10:13:06.93	272.03	31.87	-53.1	-54.7	20.2	0.00e+00	0	45	0	652214272	60	21330
2026-01-29 10:13:07.93	272.39	31.86	-53.6	-55.3	19.7	0.00e+00	0	45	0	654311424	60	22811
2026-01-29 10:13:08.94	272.75	31.84	-53.9	-55.6	19.3	0.00e+00	0	45	0	655360000	60	23732
2026-01-29 10:13:09.94	273.12	31.83	-53.9	-55.7	19.4	0.00e+00	0	45	0	657457152	60	23802
2026-01-29 10:13:10.95	273.48	31.81	-53.4	-55.1	19.8	0.00e+00	0	45	0	659554304	60	22188
2026-01-29 10:13:11.96	273.84	31.79	-53.0	-54.6	20.2	0.00e+00	0	45	0	661651456	60	21071
2026-01-29 10:13:12.96	274.20	31.77	-52.8	-54.4	20.4	0.00e+00	0	45	0	663748608	60	20457
2026-01-29 10:13:13.97	274.57	31.75	-52.9	-54.5	20.6	0.00e+00	0	45	0	664797184	60	20688
2026-01-29 10:13:14.98	274.93	31.73	-53.1	-54.7	20.2	0.00e+00	0	45	0	666894336	60	21217
2026-01-29 10:13:15.98	275.29	31.71	-53.3	-55.0	20.0	0.00e+00	0	45	0	668991488	60	21957
2026-01-29 10:13:16.99	275.65	31.69	-53.2	-54.8	20.3	0.00e+00	0	45	0	671088640	60	21582
2026-01-29 10:13:17.99	276.01	31.66	-53.1	-54.7	20.2	0.00e+00	0	45	0	673185792	60	21228
2026-01-29 10:13:19.00	276.37	31.63	-53.2	-54.8	20.0	0.00e+00	0	45	0	674234368	60	21598
2026-01-29 10:13:20.01	276.73	31.61	-53.4	-55.1	19.7	0.00e+00	0	45	0	676331520	60	22307
2026-01-29 10:13:21.01	277.09	31.58	-53.1	-54.8	20.0	0.00e+00	0	45	0	678428672	60	21568
2026-01-29 10:13:22.02	277.44	31.55	-53.0	-54.6	20.3	0.00e+00	0	45	0	680525824	60	21095
2026-01-29 10:13:23.03	277.80	31.52	-52.5	-54.0	20.7	0.00e+00	0	45	0	682622976	60	19650
2026-01-29 10:13:24.03	278.16	31.49	-52.2	-53.7	21.0	0.00e+00	0	45	0	683671552	60	18886
2026-01-29 10:13:25.04	278.51	31.45	-52.3	-53.9	20.8	0.00e+00	0	45	0	685768704	60	19335
2026-01-29 10:13:26.04	278.87	31.42	-52.7	-54.4	20.0	0.00e+00	0	45	0	687865856	60	20625
2026-01-29 10:13:27.05	279.22	31.38	-53.4	-55.3	19.3	0.00e+00	0	45	0	689963008	60	22891
2026-01-29 10:13:28.05	279.57	31.35	-53.7	-55.9	18.8	0.00e+00	0	45	0	692060160	60	24392
2026-01-29 10:13:29.06	279.93	31.31	-54.0	-56.3	18.6	0.00e+00	0	45	0	693108736	60	25521
2026-01-29 10:13:30.06	280.27	31.27	-53.9	-56.3	18.4	0.00e+00	0	45	0	695205888	60	25470
2026-01-29 10:13:31.07	280.63	31.23	-54.2	-56.7	18.0	0.00e+00	0	45	0	697303040	60	26911
2026-01-29 10:13:32.08	280.98	31.19	-54.3	-56.8	18.0	0.00e+00	0	45	0	699400192	60	27140
2026-01-29 10:13:33.08	281.32	31.14	-54.4	-56.9	18.0	0.00e+00	0	45	0	701497344	60	27507
2026-01-29 10:13:34.09	281.67	31.10	-54.0	-56.2	18.7	0.00e+00	0	45	0	702545920	60	25228
2026-01-29 10:13:35.10	282.02	31.06	-53.7	-55.8	19.1	0.00e+00	0	45	0	704643072	60	24074
2026-01-29 10:13:36.11	282.37	31.01	-54.1	-56.2	18.7	0.00e+00	0	45	0	706740224	60	25308
2026-01-29 10:13:37.11	282.71	30.96	-54.6	-56.9	18.1	0.00e+00	0	45	0	708837376	60	27409
2026-01-29 10:13:38.12	283.06	30.92	-55.4	-58.1	17.0	0.00e+00	0	45	0	710934528	60	31413
2026-01-29 10:13:39.13	283.40	30.87	-55.5	-58.2	16.9	0.00e+00	0	45	0	711983104	60	31851
2026-01-29 10:13:40.14	283.75	30.82	-54.9	-57.2	17.9	0.00e+00	0	45	0	714080256	60	28282
2026-01-29 10:13:41.15	284.09	30.77	-54.2	-56.1	18.9	0.00e+00	0	45	0	716177408	60	25125
2026-01-29 10:13:42.15	284.43	30.72	-53.6	-55.4	19.4	0.00e+00	0	45	0	718274560	60	22992
2026-01-29 10:13:43.15	284.76	30.66	-53.6	-55.4	19.6	0.00e+00	0	45	0	720371712	60	22956
2026-01-29 10:13:44.15	285.10	30.61	-54.1	-56.0	19.0	0.00e+00	0	45	0	721420288	60	24833
2026-01-29 10:13:45.16	285.44	30.55	-54.1	-56.0	18.9	0.00e+00	0	45	0	723517440	60	24843
2026-01-29 10:13:46.16	285.77	30.50	-53.6	-55.3	19.6	0.00e+00	0	45	0	725614592	60	22924
2026-01-29 10:13:47.16	286.10	30.44	-53.5	-55.2	19.8	0.00e+00	0	45	0	727711744	60	22557
2026-01-29 10:13:48.17	286.44	30.39	-53.4	-55.0	20.0	0.00e+00	0	45	0	728760320	60	22136
2026-01-29 10:13:49.18	286.77	30.33	-54.0	-55.8	19.1	0.00e+00	0	45	0	730857472	60	24247
2026-01-29 10:13:50.18	287.10	30.27	-54.5	-56.7	18.5	0.00e+00	0	45	0	732954624	60	26677
2026-01-29 10:13:51.19	287.43	30.21	-54.9	-57.2	17.7	0.00e+00	0	45	0	735051776	60	28341
2026-01-29 10:13:52.20	287.76	30.15	-54.9	-57.3	17.9	0.00e+00	0	45	0	737148928	60	28689
2026-01-29 10:13:53.20	288.08	30.09	-54.3	-56.4	18.5	0.00e+00	0	45	0	739246080	60	26021
2026-01-29 10:13:54.21	288.41	30.02	-54.0	-56.1	19.0	0.00e+00	0	45	0	740294656	60	24878
2026-01-29 10:13:55.21	288.73	29.96	-53.5	-55.6	19.4	0.00e+00	0	45	0	742391808	60	23591
2026-01-29 10:13:56.22	289.06	29.89	-53.6	-55.7	19.1	0.00e+00	0	45	0	744488960	60	23985
2026-01-29 10:13:57.23	289.38	29.83	-53.6	-55.9	18.8	0.00e+00	0	45	0	746586112	60	24335
2026-01-29 10:13:58.23	289.70	29.76	-53.8	-56.2	18.7	0.00e+00	0	45	0	748683264	60	25262
2026-01-29 10:13:59.23	290.02	29.70	-53.3	-55.4	19.3	0.00e+00	0	45	0	749731840	60	23131
2026-01-29 10:14:00.24	290.34	29.63	-53.1	-55.2	19.7	0.00e+00	0	45	0	751828992	60	22565
2026-01-29 10:14:01.24	290.65	29.56	-52.9	-54.8	20.0	0.00e+00	0	45	0	753926144	60	21565
2026-01-29 10:14:02.25	290.97	29.49	-53.4	-55.4	19.3	0.00e+00	0	45	0	756023296	60	23192
2026-01-29 10:14:03.25	291.28	29.42	-54.2	-56.5	18.5	0.00e+00	0	45	0	757071872	60	26315
2026-01-29 10:14:04.26	291.59	29.35	-54.6	-57.2	17.8	0.00e+00	0	45	0	759169024	60	28277
2026-01-29 10:14:05.26	291.90	29.28	-54.9	-57.3	17.8	0.00e+00	0	45	0	761266176	60	28863
2026-01-29 10:14:06.26	292.21	29.21	-54.9	-57.3	18.0	0.00e+00	0	45	0	763363328	60	28563
2026-01-29 10:14:07.27	292.52	29.13	-55.3	-57.7	17.6	0.00e+00	0	45	0	765460480	60	29920
2026-01-29 10:14:08.27	292.83	29.06	-55.0	-57.1	18.2	0.00e+00	0	45	0	766509056	60	28135
2026-01-29 10:14:09.27	293.13	28.99	-54.9	-56.9	18.3	0.00e+00	0	45	0	768606208	60	27568
2026-01-29 10:14:10.27	293.43	28.91	-55.2	-57.5	17.8	0.00e+00	0	45	0	770703360	60	29388
2026-01-29 10:14:11.27	293.74	28.84	-54.9	-56.9	18.4	0.00e+00	0	45	0	772800512	60	27575
2026-01-29 10:14:12.27	294.04	28.76	-54.6	-56.6	18.8	0.00e+00	0	45	0	774897664	60	26422
2026-01-29 10:14:13.28	294.34	28.69	-54.0	-55.7	19.4	0.00e+00	0	45	0	775946240	60	23920
2026-01-29 10:14:14.28	294.63	28.61	-53.3	-54.9	20.2	0.00e+00	0	45	0	778043392	60	21724
2026-01-29 10:14:15.29	294.93	28.53	-53.5	-55.1	20.1	0.00e+00	0	45	0	780140544	60	22192
2026-01-29 10:14:16.29	295.23	28.45	-54.1	-56.0	19.1	0.00e+00	0	45	0	782237696	60	24657
2026-01-29 10:14:17.29	295.52	28.37	-55.0	-57.3	18.0	0.00e+00	0	45	0	784334848	60	28602
2026-01-29 10:14:18.29	295.81	28.29	-55.8	-58.5	16.7	0.00e+00	0	46	0	785383424	60	33068
2026-01-29 10:14:19.30	296.10	28.21	-56.2	-59.2	16.0	0.00e+00	0	45	0	787480576	60	35717
2026-01-29 10:14:20.30	296.39	28.13	-56.6	-59.9	15.4	0.00e+00	0	45	0	789577728	60	38871
2026-01-29 10:14:21.30	296.68	28.05	-56.3	-59.3	16.2	0.00e+00	0	45	0	791674880	60	35965
2026-01-29 10:14:22.31	296.97	27.97	-56.0	-58.7	16.7	0.00e+00	0	45	0	793772032	60	33612
2026-01-29 10:14:23.32	297.26	27.89	-55.9	-58.5	16.9	0.00e+00	0	45	0	794820608	60	33050
2026-01-29 10:14:24.32	297.54	27.81	-55.8	-58.5	17.0	0.00e+00	0	45	0	796917760	60	32863
2026-01-29 10:14:25.32	297.82	27.72	-55.8	-58.4	16.9	0.00e+00	0	45	0	799014912	60	32588
2026-01-29 10:14:26.32	298.10	27.64	-55.7	-58.2	16.9	0.00e+00	0	45	0	801112064	60	31913
2026-01-29 10:14:27.33	298.38	27.55	-55.6	-58.1	17.2	0.00e+00	0	45	0	803209216	60	31559
2026-01-29 10:14:28.34	298.66	27.47	-55.3	-57.6	17.8	0.00e+00	0	45	0	804257792	60	29750
2026-01-29 10:14:29.34	298.94	27.39	-55.3	-57.6	17.7	0.00e+00	0	45	0	806354944	60	29697
2026-01-29 10:14:30.35	299.21	27.30	-55.5	-57.9	17.3	0.00e+00	0	45	0	808452096	60	30832
2026-01-29 10:14:31.35	299.49	27.21	-56.0	-58.8	16.6	0.00e+00	0	45	0	810549248	60	33952
2026-01-29 10:14:32.36	299.76	27.13	-56.3	-59.2	16.1	0.00e+00	0	45	0	812646400	60	35560
2026-01-29 10:14:33.36	300.03	27.04	-56.1	-58.9	16.4	0.00e+00	0	45	0	813694976	60	34644
2026-01-29 10:14:34.37	300.30	26.95	-56.0	-58.6	16.7	0.00e+00	0	45	0	815792128	60	33320
2026-01-29 10:14:35.38	300.57	26.86	-55.6	-58.1	17.2	0.00e+00	0	45	0	817889280	60	31381
2026-01-29 10:14:36.38	300.84	26.78	-55.6	-58.0	17.3	0.00e+00	0	45	0	819986432	60	31146
2026-01-29 10:14:37.39	301.10	26.69	-55.8	-58.4	16.9	0.00e+00	0	45	0	822083584	60	32498
2026-01-29 10:14:38.39	301.37	26.60	-56.0	-58.6	16.6	0.00e+00	0	45	0	823132160	60	33498
2026-01-29 10:14:39.40	301.63	26.51	-56.2	-58.8	16.5	0.00e+00	0	46	0	825229312	60	34310
2026-01-29 10:14:40.41	301.89	26.42	-56.1	-58.7	16.6	0.00e+00	0	45	0	827326464	60	33694
2026-01-29 10:14:41.42	302.15	26.33	-55.9	-58.4	16.9	0.00e+00	0	45	0	829423616	60	32674
2026-01-29 10:14:42.42	302.41	26.24	-55.3	-57.6	17.7	0.00e+00	0	45	0	831520768	60	29769
2026-01-29 10:14:43.43	302.67	26.15	-54.9	-57.1	18.1	0.00e+00	0	45	0	832569344	60	28043
2026-01-29 10:14:44.44	302.92	26.06	-55.0	-57.3	17.9	0.00e+00	0	45	0	834666496	60	28609
2026-01-29 10:14:45.45	303.18	25.97	-55.3	-57.7	17.4	0.00e+00	0	45	0	836763648	60	30226
2026-01-29 10:14:46.46	303.43	25.88	-55.8	-58.6	16.5	0.00e+00	0	45	0	838860800	60	33523
2026-01-29 10:14:47.47	303.68	25.79	-56.0	-59.2	16.1	0.00e+00	0	45	0	840957952	60	35533
2026-01-29 10:14:48.47	303.93	25.69	-55.9	-58.9	16.2	0.00e+00	0	45	0	842006528	60	34707
2026-01-29 10:14:49.48	304.18	25.60	-55.7	-58.5	16.7	0.00e+00	0	45	0	844103680	60	32834
2026-01-29 10:14:50.48	304.43	25.51	-55.1	-57.5	17.7	0.00e+00	0	45	0	846200832	60	29258
2026-01-29 10:14:51.49	304.67	25.42	-54.9	-57.1	18.0	0.00e+00	0	45	0	848297984	60	28011
2026-01-29 10:14:52.50	304.92	25.33	-54.7	-56.9	18.3	0.00e+00	0	45	0	850395136	60	27305
2026-01-29 10:14:53.51	305.16	25.23	-54.7	-56.9	18.2	0.00e+00	0	45	0	851443712	60	27365
2026-01-29 10:14:54.51	305.40	25.14	-54.9	-57.2	17.8	0.00e+00	0	45	0	853540864	60	28382
2026-01-29 10:14:55.52	305.64	25.05	-55.6	-58.3	16.8	0.00e+00	0	45	0	855638016	60	32150
2026-01-29 10:14:56.53	305.88	24.95	-55.2	-57.7	17.4	0.00e+00	0	45	0	857735168	60	30219
2026-01-29 10:14:57.53	306.12	24.86	-55.0	-57.3	17.8	0.00e+00	0	45	0	859832320	60	28811
2026-01-29 10:14:58.54	306.36	24.77	-54.8	-57.1	18.1	0.00e+00	0	45	0	860880896	60	28011
2026-01-29 10:14:59.55	306.59	24.67	-54.6	-56.8	18.3	0.00e+00	0	45	0	862978048	60	26955
2026-01-29 10:15:00.56	306.83	24.58	-54.7	-56.9	18.2	0.00e+00	0	45	0	865075200	60	27278
2026-01-29 10:15:01.56	307.06	24.48	-55.0	-57.2	17.9	0.00e+00	0	45	0	867172352	60	28254
2026-01-29 10:15:02.56	307.28	24.39	-55.3	-57.7	17.4	0.00e+00	0	45	0	869269504	60	30116
2026-01-29 10:15:03.57	307.51	24.30	-55.7	-58.3	17.0	0.00e+00	0	45	0	870318080	60	32220
2026-01-29 10:15:04.57	307.74	24.20	-55.8	-58.5	16.7	0.00e+00	0	45	0	872415232	60	32942
2026-01-29 10:15:05.57	307.97	24.11	-55.2	-57.5	17.8	0.00e+00	0	45	0	874512384	60	29236
2026-01-29 10:15:06.58	308.19	24.01	-54.5	-56.5	18.6	0.00e+00	0	45	0	876609536	60	26333
2026-01-29 10:15:07.58	308.41	23.92	-54.1	-56.0	19.2	0.00e+00	0	45	0	878706688	60	24671
2026-01-29 10:15:08.59	308.64	23.82	-53.7	-55.5	19.5	0.00e+00	0	45	0	879755264	60	23369
2026-01-29 10:15:09.59	308.86	23.73	-53.9	-55.9	19.1	0.00e+00	0	45	0	881852416	60	24320
2026-01-29 10:15:10.61	309.08	23.63	-53.9	-56.0	19.1	0.00e+00	0	45	0	883949568	60	24584
2026-01-29 10:15:11.60	309.30	23.54	-53.9	-56.1	18.8	0.00e+00	0	45	0	886046720	60	25117
2026-01-29 10:15:12.61	309.51	23.44	-54.2	-56.6	18.6	0.00e+00	0	45	0	888143872	60	26360
2026-01-29 10:15:13.62	309.73	23.35	-53.6	-55.7	19.2	0.00e+00	0	45	0	889192448	60	24014
2026-01-29 10:15:14.62	309.94	23.25	-53.0	-54.9	20.0	0.00e+00	0	45	0	891289600	60	21792
2026-01-29 10:15:15.63	310.16	23.16	-52.6	-54.3	20.5	0.00e+00	0	45	0	893386752	60	20302
2026-01-29 10:15:16.63	310.37	23.06	-52.2	-53.8	21.0	0.00e+00	0	45	0	895483904	60	19243
2026-01-29 10:15:17.64	310.58	22.97	-52.5	-54.1	20.7	0.00e+00	0	45	0	897581056	60	19854
2026-01-29 10:15:18.64	310.79	22.87	-53.1	-54.9	20.1	0.00e+00	0	45	0	898629632	60	21672
2026-01-29 10:15:19.65	311.00	22.77	-54.0	-56.0	18.8	0.00e+00	0	45	0	900726784	60	24631
2026-01-29 10:15:20.66	311.21	22.68	-54.8	-57.1	17.9	0.00e+00	0	45	0	902823936	60	28073
2026-01-29 10:15:21.66	311.41	22.58	-55.1	-57.4	17.7	0.00e+00	0	45	0	904921088	60	29099
2026-01-29 10:15:22.67	311.61	22.49	-55.0	-57.2	17.9	0.00e+00	0	45	0	905969664	60	28452
2026-01-29 10:15:23.68	311.82	22.39	-54.5	-56.5	18.6	0.00e+00	0	45	0	908066816	60	26254
2026-01-29 10:15:24.67	312.02	22.30	-54.2	-56.1	18.9	0.00e+00	0	45	0	910163968	60	25027
2026-01-29 10:15:25.67	312.22	22.20	-53.9	-55.7	19.3	0.00e+00	0	45	0	912261120	60	23888
2026-01-29 10:15:26.68	312.42	22.11	-54.0	-55.9	19.1	0.00e+00	0	45	0	914358272	60	24470
2026-01-29 10:15:27.69	312.62	22.01	-54.0	-56.0	19.0	0.00e+00	0	45	0	916455424	60	24682
2026-01-29 10:15:28.69	312.81	21.92	-54.2	-56.3	18.7	0.00e+00	0	45	0	917504000	60	25567
2026-01-29 10:15:29.70	313.01	21.82	-54.3	-56.4	18.7	0.00e+00	0	45	0	919601152	60	25786
2026-01-29 10:15:30.70	313.20	21.73	-54.0	-56.0	19.0	0.00e+00	0	45	0	921698304	60	24678
2026-01-29 10:15:31.70	313.40	21.63	-53.6	-55.4	19.6	0.00e+00	0	45	0	923795456	60	23031
2026-01-29 10:15:32.70	313.59	21.54	-53.2	-54.8	20.2	0.00e+00	0	45	0	925892608	60	21592
2026-01-29 10:15:33.71	313.78	21.44	-52.8	-54.3	20.6	0.00e+00	0	45	0	926941184	60	20359
2026-01-29 10:15:34.71	313.97	21.35	-52.5	-54.0	20.8	0.00e+00	0	45	0	929038336	60	19577
2026-01-29 10:15:35.72	314.16	21.25	-52.4	-53.8	21.0	0.00e+00	0	45	0	931135488	60	19232
2026-01-29 10:15:36.72	314.35	21.16	-52.6	-54.1	20.7	0.00e+00	0	45	0	933232640	60	19750
2026-01-29 10:15:37.73	314.53	21.06	-52.9	-54.4	20.4	0.00e+00	0	45	0	934281216	60	20626
2026-01-29 10:15:38.74	314.72	20.96	-53.1	-54.6	20.2	0.00e+00	0	45	0	936378368	60	21068
2026-01-29 10:15:39.75	314.91	20.87	-53.0	-54.5	20.3	0.00e+00	0	46	0	938475520	60	20864
2026-01-29 10:15:40.75	315.09	20.77	-53.0	-54.5	20.4	0.00e+00	0	46	0	940572672	60	20700
2026-01-29 10:15:41.76	315.27	20.68	-53.0	-54.5	20.5	0.00e+00	0	45	0	942669824	60	20682
2026-01-29 10:15:42.76	315.45	20.58	-52.9	-54.3	20.6	0.00e+00	0	45	0	943718400	60	20424
2026-01-29 10:15:43.77	315.63	20.49	-52.8	-54.2	20.7	0.00e+00	0	45	0	945815552	60	20126
2026-01-29 10:15:44.77	315.81	20.40	-52.7	-54.2	20.6	0.00e+00	0	45	0	947912704	60	20007
2026-01-29 10:15:45.78	315.99	20.30	-53.2	-54.8	20.1	0.00e+00	0	45	0	950009856	60	21573
2026-01-29 10:15:46.79	316.17	20.21	-53.5	-55.2	19.5	0.00e+00	0	45	0	952107008	60	22417
2026-01-29 10:15:47.79	316.34	20.11	-53.7	-55.5	19.4	0.00e+00	0	45	0	954204160	60	23269
2026-01-29 10:15:48.80	316.52	20.02	-53.7	-55.5	19.4	0.00e+00	0	45	0	955252736	60	23211
2026-01-29 10:15:49.81	316.69	19.92	-53.6	-55.3	19.7	0.00e+00	0	45	0	957349888	60	22790
2026-01-29 10:15:50.81	316.87	19.83	-53.1	-54.6	20.3	0.00e+00	0	45	0	959447040	60	21152
2026-01-29 10:15:51.82	317.04	19.74	-52.8	-54.2	20.6	0.00e+00	0	45	0	961544192	60	20146
2026-01-29 10:15:52.83	317.21	19.64	-52.3	-53.7	21.0	0.00e+00	0	45	0	962592768	60	18868
2026-01-29 10:15:53.84	317.38	19.55	-51.9	-53.1	21.5	0.00e+00	0	45	0	964689920	60	17758
2026-01-29 10:15:54.84	317.55	19.45	-51.8	-53.1	21.5	0.00e+00	0	45	0	966787072	60	17656
2026-01-29 10:15:55.84	317.72	19.36	-51.8	-53.1	21.4	0.00e+00	0	45	0	968884224	60	17741
2026-01-29 10:15:56.85	317.88	19.27	-52.0	-53.3	21.2	0.00e+00	0	45	0	970981376	60	18172
2026-01-29 10:15:57.85	318.05	19.17	-52.2	-53.7	21.0	0.00e+00	0	45	0	972029952	60	18885
2026-01-29 10:15:58.86	318.21	19.08	-52.2	-53.7	20.9	0.00e+00	0	45	0	974127104	60	18873
2026-01-29 10:15:59.87	318.38	18.99	-52.4	-53.8	20.7	0.00e+00	0	46	0	976224256	60	19251
2026-01-29 10:16:00.87	318.54	18.90	-52.4	-53.9	20.7	0.00e+00	0	45	0	978321408	60	19367
2026-01-29 10:16:01.87	318.70	18.80	-52.3	-53.8	20.7	0.00e+00	0	45	0	980418560	60	19185
2026-01-29 10:16:02.88	318.86	18.71	-52.2	-53.6	21.0	0.00e+00	0	46	0	981467136	60	18766
2026-01-29 10:16:03.89	319.02	18.62	-52.1	-53.5	21.2	0.00e+00	0	45	0	983564288	60	18555
2026-01-29 10:16:04.89	319.18	18.53	-52.2	-53.5	21.3	0.00e+00	0	45	0	985661440	60	18603
2026-01-29 10:16:05.89	319.34	18.43	-52.0	-53.4	21.1	0.00e+00	0	45	0	987758592	60	18262
2026-01-29 10:16:06.90	319.50	18.34	-52.2	-53.5	21.2	0.00e+00	0	45	0	989855744	60	18634
2026-01-29 10:16:07.90	319.65	18.25	-52.2	-53.6	21.1	0.00e+00	0	45	0	990904320	60	18730
2026-01-29 10:16:08.90	319.81	18.16	-52.3	-53.7	21.0	0.00e+00	0	45	0	993001472	60	18990
2026-01-29 10:16:09.90	319.96	18.07	-52.3	-53.7	21.0	0.00e+00	0	45	0	995098624	60	18968
2026-01-29 10:16:10.91	320.12	17.98	-52.3	-53.7	20.9	0.00e+00	0	45	0	997195776	60	19000
2026-01-29 10:16:11.91	320.27	17.89	-52.5	-53.9	20.9	0.00e+00	0	46	0	999292928	60	19473
2026-01-29 10:16:12.91	320.42	17.79	-52.4	-53.9	20.9	0.00e+00	0	45	0	1000341504	60	19356
2026-01-29 10:16:13.92	320.57	17.70	-52.3	-53.6	21.0	0.00e+00	0	45	0	1002438656	60	18847
2026-01-29 10:16:14.92	320.72	17.61	-52.2	-53.6	21.1	0.00e+00	0	45	0	1004535808	60	18714
2026-01-29 10:16:15.92	320.87	17.52	-52.2	-53.5	21.2	0.00e+00	0	45	0	1006632960	60	18523
2026-01-29 10:16:16.93	321.02	17.43	-52.1	-53.4	21.2	0.00e+00	0	45	0	1008730112	60	18387
2026-01-29 10:16:17.94	321.17	17.34	-52.0	-53.3	21.4	0.00e+00	0	45	0	1009778688	60	18042
2026-01-29 10:16:18.95	321.31	17.25	-52.0	-53.3	21.3	0.00e+00	0	45	0	1011875840	60	18077
2026-01-29 10:16:19.95	321.46	17.16	-52.1	-53.4	21.2	0.00e+00	0	45	0	1013972992	60	18417
2026-01-29 10:16:20.96	321.60	17.07	-52.1	-53.4	21.2	0.00e+00	0	45	0	1016070144	60	18427
2026-01-29 10:16:21.97	321.75	16.98	-52.3	-53.8	20.9	0.00e+00	0	45	0	1018167296	60	19081
2026-01-29 10:16:22.98	321.89	16.89	-52.3	-53.8	20.8	0.00e+00	0	45	0	1019215872	60	19105
2026-01-29 10:16:23.98	322.03	16.80	-52.5	-53.9	20.8	0.00e+00	0	45	0	1021313024	60	19420
2026-01-29 10:16:24.99	322.18	16.71	-52.7	-54.2	20.6	0.00e+00	0	45	0	1023410176	60	20058
2026-01-29 10:16:26.00	322.32	16.62	-52.7	-54.1	20.6	0.00e+00	0	45	0	1025507328	60	19969
2026-01-29 10:16:27.00	322.46	16.53	-52.7	-54.2	20.5	0.00e+00	0	45	0	1027604480	60	20108
2026-01-29 10:16:28.01	322.60	16.44	-52.6	-54.1	20.7	0.00e+00	0	45	0	1028653056	60	19805
2026-01-29 10:16:29.02	322.74	16.36	-52.4	-53.8	20.9	0.00e+00	0	45	0	1030750208	60	19223
2026-01-29 10:16:30.02	322.87	16.27	-52.3	-53.7	21.0	0.00e+00	0	45	0	1032847360	60	19000
2026-01-29 10:16:31.02	323.01	16.18	-52.2	-53.5	21.1	0.00e+00	0	45	0	1034944512	60	18599
2026-01-29 10:16:32.03	323.15	16.09	-52.0	-53.3	21.1	0.00e+00	0	45	0	1037041664	60	18160
2026-01-29 10:16:33.03	323.28	16.00	-52.1	-53.5	21.0	0.00e+00	0	45	0	1038090240	60	18505
2026-01-29 10:16:34.04	323.42	15.92	-51.9	-53.3	21.1	0.00e+00	0	45	0	1040187392	60	18177
2026-01-29 10:16:35.05	323.55	15.83	-52.1	-53.6	20.8	0.00e+00	0	45	0	1042284544	60	18779
2026-01-29 10:16:36.05	323.68	15.74	-52.1	-53.7	20.7	0.00e+00	0	45	0	1044381696	60	18911
2026-01-29 10:16:37.06	323.82	15.65	-52.3	-54.0	20.5	0.00e+00	0	45	0	1046478848	60	19583
2026-01-29 10:16:38.06	323.95	15.57	-52.8	-54.7	19.8	0.00e+00	0	45	0	1047527424	60	21209
2026-01-29 10:16:39.07	324.08	15.48	-53.0	-54.9	19.8	0.00e+00	0	45	0	1049624576	60	21825
2026-01-29 10:16:40.08	324.21	15.39	-53.3	-55.4	19.2	0.00e+00	0	45	0	1051721728	60	22987
2026-01-29 10:16:41.08	324.34	15.31	-53.8	-56.0	18.7	0.00e+00	0	45	0	1053818880	60	24621
2026-01-29 10:16:42.09	324.47	15.22	-53.8	-55.9	18.6	0.00e+00	0	45	0	1055916032	60	24549
2026-01-29 10:16:43.09	324.59	15.13	-54.1	-56.4	18.1	0.00e+00	0	45	0	1056964608	60	25794
2026-01-29 10:16:44.10	324.72	15.05	-53.9	-56.1	18.3	0.00e+00	0	46	0	1059061760	60	25046
2026-01-29 10:16:45.10	324.85	14.96	-53.9	-56.2	18.2	0.00e+00	0	45	0	1061158912	60	25434
2026-01-29 10:16:46.11	324.97	14.88	-54.0	-56.4	18.0	0.00e+00	0	45	0	1063256064	60	26018
2026-01-29 10:16:47.11	325.10	14.79	-53.7	-56.1	18.1	0.00e+00	0	45	0	1065353216	60	25044
2026-01-29 10:16:48.12	325.22	14.71	-53.7	-56.3	18.0	0.00e+00	0	45	0	1066401792	60	25518
2026-01-29 10:16:49.12	325.35	14.62	-53.5	-56.3	17.7	0.00e+00	0	45	0	1068498944	60	25512
2026-01-29 10:16:50.13	325.47	14.54	-53.2	-56.0	17.7	0.00e+00	0	45	0	1070596096	60	24691
2026-01-29 10:16:51.14	325.59	14.45	-53.3	-56.4	17.3	0.00e+00	0	45	0	1072693248	60	25918
2026-01-29 10:16:52.15	325.72	14.37	-53.2	-56.3	17.4	0.00e+00	0	45	0	1074790400	60	25672
2026-01-29 10:16:53.15	325.84	14.28	-53.2	-56.7	16.9	0.00e+00	0	45	0	1075838976	60	26694
2026-01-29 10:16:54.16	325.96	14.20	-53.2	-57.0	16.4	0.00e+00	0	45	0	1077936128	60	27778
2026-01-29 10:16:55.16	326.08	14.11	-53.1	-57.2	16.1	0.00e+00	0	45	0	1080033280	60	28477
2026-01-29 10:16:56.17	326.20	14.03	-53.2	-57.6	15.6	0.00e+00	0	45	0	1082130432	60	29801
2026-01-29 10:16:57.17	326.31	13.95	-53.3	-58.0	15.3	0.00e+00	0	45	0	1083179008	60	31072
2026-01-29 10:16:58.18	326.43	13.86	-53.2	-58.3	15.0	0.00e+00	0	45	0	1085276160	60	32120
2026-01-29 10:16:59.19	326.55	13.78	-53.4	-58.7	14.7	0.00e+00	0	45	0	1087373312	60	33894
2026-01-29 10:17:00.19	326.67	13.70	-53.6	-58.7	14.8	0.00e+00	0	45	0	1089470464	60	33831
2026-01-29 10:17:01.19	326.78	13.61	-53.8	-58.8	14.7	0.00e+00	0	45	0	1091567616	60	34046
