passes_logs/2026/01/29/R3.2S-Naryan-Mar/R3.2S-Naryan-Mar__20260129_234907_SUOMI_NPP_rec.log

#Pass ID: 20260129_234907_SUOMI NPP
#Satellite: SUOMI NPP
#Configuration: NPP
#almurnet v.1.7.20240730
#Start time: 2026-01-29 23:49:09

#Version: 2.2.20231116
#Station: R3.2S-Naryan-Mar
#Location: 53.008057 lon 67.646978 lat
#TLE: 1 37849U 11061A   26028.91916408  .00000155  00000+0  94467-4 0  9990
#TLE: 2 37849  98.7824 330.8488 0002045  39.4457 320.6868 14.19531289738686

#Time	Az	El	Level	Level2	SNR	BER	BlckErr	Temp	State	Recorded	gain1	gain2
2026-01-29 23:49:09.22	25.13	0.11	-62.0	-76.3	3.4	1.52e+00	0	43	0	0	60	248703
2026-01-29 23:49:10.23	25.12	0.17	-59.8	-78.2	3.6	1.51e+00	0	44	104	0	60	317988
2026-01-29 23:49:11.23	25.11	0.23	-60.5	-78.2	3.6	1.51e+00	0	45	104	0	60	319021
2026-01-29 23:49:12.24	25.10	0.29	-61.8	-78.8	3.6	1.51e+00	0	44	104	0	60	340056
2026-01-29 23:49:13.24	25.10	0.35	-62.0	-78.8	3.6	1.51e+00	0	45	104	0	60	340478
2026-01-29 23:49:14.24	25.09	0.41	-61.7	-78.8	3.6	1.51e+00	0	45	104	0	60	341581
2026-01-29 23:49:15.25	25.08	0.48	-60.4	-78.6	3.6	1.51e+00	0	45	104	0	60	333632
2026-01-29 23:49:16.25	25.07	0.54	-61.2	-78.6	3.6	1.51e+00	0	45	104	0	60	333621
2026-01-29 23:49:17.26	25.06	0.60	-61.5	-78.7	3.6	1.51e+00	0	45	104	0	60	337097
2026-01-29 23:49:18.27	25.05	0.66	-61.6	-78.4	3.6	1.51e+00	0	45	104	0	60	325473
2026-01-29 23:49:19.28	25.04	0.72	-61.7	-78.2	3.6	1.51e+00	0	45	104	0	60	318922
2026-01-29 23:49:20.29	25.04	0.78	-61.3	-78.2	3.6	1.51e+00	0	45	104	0	60	317705
2026-01-29 23:49:21.29	25.03	0.84	-61.2	-78.3	3.6	1.51e+00	0	45	104	0	60	322308
2026-01-29 23:49:22.30	25.02	0.91	-61.5	-78.4	3.6	1.51e+00	0	45	104	0	60	326666
2026-01-29 23:49:23.30	25.01	0.97	-61.7	-78.5	3.6	1.51e+00	0	45	104	0	60	329595
2026-01-29 23:49:24.31	25.00	1.03	-59.8	-78.0	3.6	1.51e+00	0	45	104	0	60	310201
2026-01-29 23:49:25.31	24.99	1.09	-57.8	-77.2	3.6	1.51e+00	0	45	104	0	60	284846
2026-01-29 23:49:26.32	24.98	1.15	-58.1	-77.8	3.6	1.51e+00	0	45	104	0	60	303557
2026-01-29 23:49:27.32	24.97	1.21	-54.9	-74.7	3.6	1.51e+00	0	45	104	0	60	211852
2026-01-29 23:49:28.33	24.96	1.28	-60.4	-77.9	3.6	1.51e+00	0	45	104	0	60	308175
2026-01-29 23:49:29.34	24.96	1.34	-60.3	-77.3	3.6	1.51e+00	0	45	104	0	60	285961
2026-01-29 23:49:30.35	24.95	1.40	-57.2	-76.9	3.6	1.51e+00	0	45	104	0	60	274516
2026-01-29 23:49:31.34	24.94	1.46	-58.2	-77.5	3.6	1.51e+00	0	45	104	0	60	294043
2026-01-29 23:49:32.35	24.93	1.53	-55.0	-73.7	3.6	1.51e+00	0	45	104	0	60	188801
2026-01-29 23:49:33.36	24.92	1.59	-59.5	-77.4	3.6	1.51e+00	0	45	104	0	60	289605
2026-01-29 23:49:34.37	24.91	1.65	-54.5	-75.9	3.6	1.51e+00	0	45	104	0	60	244656
2026-01-29 23:49:35.38	24.90	1.72	-49.2	-73.0	3.6	1.51e+00	0	45	104	0	60	176005
2026-01-29 23:49:36.38	24.89	1.78	-50.7	-74.5	3.6	1.51e+00	0	45	104	0	60	207642
2026-01-29 23:49:37.39	24.88	1.85	-58.5	-75.9	3.6	1.51e+00	0	45	104	0	60	243390
2026-01-29 23:49:38.40	24.87	1.91	-59.4	-77.3	3.6	1.51e+00	0	45	104	0	60	287128
2026-01-29 23:49:39.41	24.86	1.97	-56.4	-76.6	3.6	1.51e+00	0	45	104	0	60	264230
2026-01-29 23:49:40.41	24.85	2.04	-58.8	-76.3	3.6	1.51e+00	0	45	104	0	60	256622
2026-01-29 23:49:41.42	24.84	2.10	-55.5	-75.5	3.6	1.51e+00	0	45	104	0	60	234224
2026-01-29 23:49:42.43	24.83	2.17	-55.8	-73.7	3.6	1.51e+00	0	45	104	0	60	190117
2026-01-29 23:49:43.43	24.82	2.23	-52.8	-75.2	3.6	1.51e+00	0	45	104	0	60	226747
2026-01-29 23:49:44.43	24.81	2.29	-58.3	-76.3	3.6	1.51e+00	0	45	104	0	60	254536
2026-01-29 23:49:45.44	24.80	2.36	-54.6	-74.5	3.5	1.51e+00	0	45	104	0	60	207832
2026-01-29 23:49:46.44	24.79	2.42	-54.8	-74.4	3.6	1.51e+00	0	45	104	0	60	205738
2026-01-29 23:49:47.45	24.78	2.49	-54.8	-74.8	3.6	1.51e+00	0	45	104	0	60	214347
2026-01-29 23:49:48.46	24.77	2.55	-54.6	-74.8	3.6	1.51e+00	0	45	104	0	60	214570
2026-01-29 23:49:49.47	24.76	2.62	-54.7	-74.4	3.6	1.51e+00	0	45	104	0	60	206419
2026-01-29 23:49:50.47	24.75	2.69	-54.7	-74.4	3.6	1.51e+00	0	45	104	0	60	206031
2026-01-29 23:49:51.48	24.74	2.75	-54.6	-74.5	3.6	1.51e+00	0	45	104	0	60	207344
2026-01-29 23:49:52.49	24.73	2.82	-54.5	-74.2	3.6	1.51e+00	0	45	104	0	60	201570
2026-01-29 23:49:53.50	24.72	2.88	-54.5	-74.3	3.6	1.51e+00	0	45	104	0	60	202511
2026-01-29 23:49:54.51	24.71	2.95	-54.5	-74.3	3.6	1.51e+00	0	45	104	0	60	203955
2026-01-29 23:49:55.51	24.70	3.02	-54.4	-74.3	3.6	1.51e+00	0	45	104	0	60	202335
2026-01-29 23:49:56.51	24.69	3.08	-54.4	-74.6	3.6	1.51e+00	0	45	104	0	60	210293
2026-01-29 23:49:57.52	24.68	3.15	-54.3	-74.6	3.6	1.51e+00	0	45	104	0	60	209756
2026-01-29 23:49:58.53	24.66	3.22	-54.2	-74.1	3.6	1.51e+00	0	45	104	0	60	198375
2026-01-29 23:49:59.54	24.65	3.28	-54.2	-74.2	3.6	1.51e+00	0	45	104	0	60	201274
2026-01-29 23:50:00.54	24.64	3.35	-54.2	-74.1	3.5	1.51e+00	0	45	104	0	60	197628
2026-01-29 23:50:01.55	24.63	3.42	-54.2	-74.3	3.6	1.51e+00	0	45	104	0	60	203993
2026-01-29 23:50:02.56	24.62	3.49	-54.1	-74.0	3.6	1.51e+00	0	45	104	0	60	196597
2026-01-29 23:50:03.57	24.61	3.55	-54.1	-74.4	3.6	1.51e+00	0	45	104	0	60	205893
2026-01-29 23:50:04.58	24.60	3.62	-54.2	-74.4	3.6	1.51e+00	0	45	104	0	60	206018
2026-01-29 23:50:05.59	24.59	3.69	-54.1	-74.4	3.6	1.51e+00	0	45	104	0	60	206031
2026-01-29 23:50:06.59	24.57	3.76	-54.1	-73.9	3.6	1.51e+00	0	45	104	0	60	194778
2026-01-29 23:50:07.60	24.56	3.83	-53.9	-73.9	3.6	1.51e+00	0	45	104	0	60	194872
2026-01-29 23:50:08.61	24.55	3.89	-54.0	-73.9	3.6	1.51e+00	0	45	104	0	60	194857
2026-01-29 23:50:09.62	24.54	3.96	-53.9	-73.9	3.6	1.51e+00	0	45	104	0	60	193641
2026-01-29 23:50:10.63	24.53	4.03	-53.8	-74.1	3.6	1.51e+00	0	45	104	0	60	197888
2026-01-29 23:50:11.63	24.52	4.10	-53.9	-73.9	3.6	1.51e+00	0	45	104	0	60	194203
2026-01-29 23:50:12.63	24.50	4.17	-53.9	-73.8	3.6	1.51e+00	0	45	104	0	60	192747
2026-01-29 23:50:13.64	24.49	4.24	-53.8	-74.4	3.6	1.51e+00	0	45	104	0	60	204839
2026-01-29 23:50:14.64	24.48	4.31	-53.9	-73.9	3.6	1.51e+00	0	45	104	0	60	194574
2026-01-29 23:50:15.65	24.47	4.38	-53.9	-73.9	3.6	1.51e+00	0	45	104	0	60	194271
2026-01-29 23:50:16.66	24.45	4.45	-53.8	-73.8	3.6	1.51e+00	0	45	104	0	60	192273
2026-01-29 23:50:17.67	24.44	4.52	-54.0	-73.7	3.6	1.51e+00	0	45	104	0	60	190029
2026-01-29 23:50:18.67	24.43	4.59	-53.8	-73.9	3.6	1.51e+00	0	45	104	0	60	194273
2026-01-29 23:50:19.68	24.42	4.66	-53.7	-73.7	3.6	1.51e+00	0	45	104	0	60	189078
2026-01-29 23:50:20.69	24.40	4.73	-53.8	-73.7	3.6	1.51e+00	0	45	104	0	60	189694
2026-01-29 23:50:21.70	24.39	4.80	-53.8	-73.6	3.6	1.51e+00	0	45	104	0	60	187505
2026-01-29 23:50:22.71	24.38	4.87	-53.7	-72.8	3.6	1.51e+00	0	45	104	0	60	171947
2026-01-29 23:50:23.72	24.37	4.94	-53.8	-71.8	3.8	1.51e+00	0	45	104	0	60	152083
2026-01-29 23:50:24.72	24.35	5.01	-53.8	-69.2	4.1	1.41e+00	0	45	0	0	60	113600
2026-01-29 23:50:25.72	24.34	5.08	-53.6	-67.4	5.1	6.63e-01	0	45	0	2097152	60	91807
2026-01-29 23:50:26.73	24.33	5.16	-53.6	-65.8	6.6	2.94e-01	0	45	0	3145728	60	76206
2026-01-29 23:50:27.73	24.31	5.23	-53.4	-64.3	8.2	1.06e-01	0	45	0	5242880	60	64497
2026-01-29 23:50:28.74	24.30	5.30	-53.3	-63.1	9.7	1.68e-02	0	45	0	7340032	60	55905
2026-01-29 23:50:29.75	24.29	5.37	-53.3	-62.0	11.0	4.99e-03	0	45	0	9437184	60	49391
2026-01-29 23:50:30.76	24.27	5.45	-53.2	-61.0	12.1	6.22e-04	0	45	0	11534336	60	43861
2026-01-29 23:50:31.77	24.26	5.52	-53.0	-60.1	13.1	1.02e-04	0	45	0	12582912	60	39858
2026-01-29 23:50:32.77	24.25	5.59	-52.8	-59.4	13.9	8.30e-06	0	45	0	14680064	60	36429
2026-01-29 23:50:33.78	24.23	5.66	-52.7	-58.7	14.5	1.50e-06	0	45	0	16777216	60	33635
2026-01-29 23:50:34.78	24.22	5.74	-52.4	-58.6	14.6	0.00e+00	0	45	0	18874368	60	33171
2026-01-29 23:50:35.79	24.20	5.81	-52.3	-58.1	15.0	0.00e+00	0	45	0	20971520	60	31659
2026-01-29 23:50:36.79	24.19	5.88	-52.3	-58.1	15.1	0.00e+00	0	45	0	22020096	60	31499
2026-01-29 23:50:37.80	24.18	5.96	-52.3	-58.2	14.9	0.00e+00	0	46	0	24117248	60	31758
2026-01-29 23:50:38.81	24.16	6.03	-52.3	-58.5	14.6	0.00e+00	0	45	0	26214400	60	32804
2026-01-29 23:50:39.82	24.15	6.11	-51.8	-58.4	14.4	0.00e+00	0	46	0	28311552	60	32651
2026-01-29 23:50:40.82	24.13	6.18	-53.2	-58.7	16.3	0.00e+00	0	45	0	30408704	60	33562
2026-01-29 23:50:41.83	24.12	6.26	-53.0	-60.4	11.4	0.00e+00	0	45	0	31457280	60	41248
2026-01-29 23:50:42.83	24.10	6.33	-52.9	-59.1	15.5	1.25e-03	0	45	0	33554432	60	35487
2026-01-29 23:50:43.84	24.09	6.41	-50.8	-59.7	12.4	0.00e+00	0	45	0	35651584	60	37918
2026-01-29 23:50:44.85	24.07	6.48	-51.2	-58.7	15.2	4.29e-04	0	45	0	37748736	60	33854
2026-01-29 23:50:45.85	24.06	6.56	-52.4	-58.5	16.3	0.00e+00	0	45	0	39845888	60	33099
2026-01-29 23:50:46.86	24.04	6.63	-53.3	-58.5	16.7	0.00e+00	0	45	0	40894464	60	32958
2026-01-29 23:50:47.86	24.03	6.71	-54.9	-58.4	16.1	0.00e+00	0	45	0	42991616	60	32518
2026-01-29 23:50:48.86	24.01	6.78	-54.7	-58.1	15.5	0.00e+00	0	46	0	45088768	60	31503
2026-01-29 23:50:49.86	24.00	6.86	-54.1	-58.2	14.5	7.00e-07	0	45	0	47185920	60	31723
2026-01-29 23:50:50.86	23.98	6.94	-53.1	-58.3	13.7	0.00e+00	0	45	0	49283072	60	32304
2026-01-29 23:50:51.87	23.97	7.01	-52.5	-58.1	13.4	2.20e-06	0	45	0	50331648	60	31589
2026-01-29 23:50:52.87	23.95	7.09	-52.4	-58.0	14.1	3.00e-06	0	45	0	52428800	60	31009
2026-01-29 23:50:53.87	23.94	7.17	-53.0	-58.1	14.6	7.00e-07	0	45	0	54525952	60	31475
2026-01-29 23:50:54.87	23.92	7.24	-52.8	-58.1	15.2	0.00e+00	0	45	0	56623104	60	31344
2026-01-29 23:50:55.88	23.91	7.32	-51.7	-57.9	15.1	0.00e+00	0	45	0	58720256	60	30637
2026-01-29 23:50:56.89	23.89	7.40	-50.1	-57.5	14.4	0.00e+00	0	46	0	59768832	60	29249
2026-01-29 23:50:57.90	23.87	7.48	-49.6	-57.4	14.2	1.50e-06	0	46	0	61865984	60	28923
2026-01-29 23:50:58.90	23.86	7.56	-49.8	-57.5	14.2	2.20e-06	0	46	0	63963136	60	29328
2026-01-29 23:50:59.91	23.84	7.64	-50.7	-57.2	15.3	0.00e+00	0	46	0	66060288	60	28518
2026-01-29 23:51:00.92	23.82	7.71	-52.3	-57.4	16.3	0.00e+00	0	46	0	68157440	60	29117
2026-01-29 23:51:01.93	23.81	7.79	-54.2	-57.7	17.0	0.00e+00	0	46	0	69206016	60	30208
2026-01-29 23:51:02.93	23.79	7.87	-54.7	-57.6	17.3	0.00e+00	0	46	0	71303168	60	29590
2026-01-29 23:51:03.94	23.77	7.95	-54.9	-57.6	17.1	0.00e+00	0	45	0	73400320	60	29863
2026-01-29 23:51:04.94	23.76	8.03	-54.1	-57.4	16.6	0.00e+00	0	45	0	75497472	60	29159
2026-01-29 23:51:05.95	23.74	8.11	-53.3	-57.4	16.1	0.00e+00	0	46	0	77594624	60	29165
2026-01-29 23:51:06.95	23.72	8.19	-52.4	-57.3	15.9	0.00e+00	0	46	0	78643200	60	28804
2026-01-29 23:51:07.96	23.71	8.27	-51.4	-57.2	15.5	0.00e+00	0	46	0	80740352	60	28474
2026-01-29 23:51:08.97	23.69	8.36	-50.9	-57.2	15.6	0.00e+00	0	46	0	82837504	60	28281
2026-01-29 23:51:09.97	23.67	8.44	-50.3	-57.3	15.8	0.00e+00	0	45	0	84934656	60	28572
2026-01-29 23:51:10.98	23.65	8.52	-50.1	-57.1	16.4	0.00e+00	0	46	0	87031808	60	28111
2026-01-29 23:51:11.99	23.64	8.60	-50.1	-57.4	16.6	0.00e+00	0	46	0	88080384	60	28978
2026-01-29 23:51:13.00	23.62	8.68	-49.8	-57.1	16.8	0.00e+00	0	46	0	90177536	60	28161
2026-01-29 23:51:14.00	23.60	8.76	-49.6	-57.1	16.4	0.00e+00	0	45	0	92274688	60	28198
2026-01-29 23:51:15.01	23.58	8.85	-49.8	-57.4	16.0	0.00e+00	0	46	0	94371840	60	29095
2026-01-29 23:51:16.01	23.56	8.93	-49.9	-56.9	16.2	0.00e+00	0	45	0	96468992	60	27427
2026-01-29 23:51:17.02	23.54	9.01	-49.7	-56.8	15.8	0.00e+00	0	45	0	97517568	60	27102
2026-01-29 23:51:18.02	23.53	9.10	-50.7	-56.9	15.4	0.00e+00	0	46	0	99614720	60	27552
2026-01-29 23:51:19.03	23.51	9.18	-50.8	-56.7	15.5	0.00e+00	0	46	0	101711872	60	26851
2026-01-29 23:51:20.04	23.49	9.26	-51.6	-57.0	15.6	0.00e+00	0	45	0	103809024	60	27608
2026-01-29 23:51:21.05	23.47	9.35	-52.0	-56.7	15.8	0.00e+00	0	46	0	105906176	60	26923
2026-01-29 23:51:22.06	23.45	9.43	-52.6	-56.8	16.1	0.00e+00	0	46	0	106954752	60	27195
2026-01-29 23:51:23.06	23.43	9.52	-52.8	-56.8	16.4	0.00e+00	0	46	0	109051904	60	27198
2026-01-29 23:51:24.07	23.41	9.60	-52.8	-56.8	16.7	0.00e+00	0	46	0	111149056	60	27198
2026-01-29 23:51:25.08	23.39	9.69	-52.7	-56.8	16.9	0.00e+00	0	46	0	113246208	60	27080
2026-01-29 23:51:26.08	23.37	9.77	-52.2	-56.7	17.2	0.00e+00	0	45	0	115343360	60	26905
2026-01-29 23:51:27.09	23.35	9.86	-51.6	-56.8	17.3	0.00e+00	0	46	0	116391936	60	27087
2026-01-29 23:51:28.09	23.33	9.95	-51.1	-57.1	17.4	0.00e+00	0	46	0	118489088	60	27931
2026-01-29 23:51:29.10	23.31	10.03	-50.7	-56.8	17.8	0.00e+00	0	46	0	120586240	60	27189
2026-01-29 23:51:30.10	23.29	10.12	-50.5	-56.8	18.0	0.00e+00	0	46	0	122683392	60	26974
2026-01-29 23:51:31.11	23.27	10.21	-50.2	-56.7	18.2	0.00e+00	0	46	0	124780544	60	26680
2026-01-29 23:51:32.11	23.25	10.29	-49.9	-56.4	18.3	0.00e+00	0	46	0	125829120	60	25883
2026-01-29 23:51:33.12	23.23	10.38	-50.0	-56.3	18.2	0.00e+00	0	46	0	127926272	60	25465
2026-01-29 23:51:34.12	23.21	10.47	-50.3	-56.2	18.0	0.00e+00	0	46	0	130023424	60	25419
2026-01-29 23:51:35.13	23.19	10.56	-50.2	-56.1	17.6	0.00e+00	0	45	0	132120576	60	25008
2026-01-29 23:51:36.14	23.17	10.65	-50.2	-56.3	17.2	0.00e+00	0	46	0	133169152	60	25613
2026-01-29 23:51:37.15	23.15	10.74	-50.3	-56.1	17.2	0.00e+00	0	46	0	135266304	60	24896
2026-01-29 23:51:38.15	23.13	10.82	-50.2	-56.0	16.5	0.00e+00	0	46	0	137363456	60	24820
2026-01-29 23:51:39.16	23.11	10.91	-50.1	-56.0	16.2	0.00e+00	0	46	0	139460608	60	24628
2026-01-29 23:51:40.17	23.08	11.01	-49.6	-55.9	16.0	0.00e+00	0	46	0	141557760	60	24458
2026-01-29 23:51:41.18	23.06	11.10	-49.5	-55.8	15.4	0.00e+00	0	46	0	143654912	60	24297
2026-01-29 23:51:42.19	23.04	11.19	-48.8	-55.7	14.8	0.00e+00	0	46	0	144703488	60	23827
2026-01-29 23:51:43.19	23.02	11.28	-48.6	-55.6	14.4	0.00e+00	0	46	0	146800640	60	23678
2026-01-29 23:51:44.20	22.99	11.37	-48.6	-55.8	14.1	7.00e-07	0	46	0	148897792	60	24053
2026-01-29 23:51:45.20	22.97	11.46	-48.8	-55.7	13.9	0.00e+00	0	46	0	150994944	60	23769
2026-01-29 23:51:46.20	22.95	11.55	-48.8	-55.7	14.0	7.00e-07	0	46	0	153092096	60	23832
2026-01-29 23:51:47.21	22.93	11.64	-49.0	-55.8	13.7	7.00e-07	0	46	0	154140672	60	24287
2026-01-29 23:51:48.22	22.90	11.74	-49.5	-55.7	14.2	7.00e-07	0	46	0	156237824	60	24012
2026-01-29 23:51:49.23	22.88	11.83	-51.1	-55.6	15.1	0.00e+00	0	46	0	158334976	60	23726
2026-01-29 23:51:50.23	22.86	11.92	-52.0	-55.6	15.9	0.00e+00	0	46	0	160432128	60	23579
2026-01-29 23:51:51.24	22.83	12.02	-52.3	-55.5	16.6	0.00e+00	0	46	0	162529280	60	23408
2026-01-29 23:51:52.25	22.81	12.11	-52.1	-55.5	16.7	0.00e+00	0	46	0	163577856	60	23240
2026-01-29 23:51:53.26	22.79	12.21	-51.5	-55.4	16.3	0.00e+00	0	46	0	165675008	60	23013
2026-01-29 23:51:54.26	22.76	12.30	-51.2	-55.3	16.4	0.00e+00	0	46	0	167772160	60	22710
2026-01-29 23:51:55.27	22.74	12.40	-50.8	-55.4	15.9	0.00e+00	0	46	0	169869312	60	23068
2026-01-29 23:51:56.27	22.71	12.49	-49.8	-55.3	15.2	0.00e+00	0	46	0	171966464	60	22761
2026-01-29 23:51:57.28	22.69	12.59	-48.9	-55.3	14.5	0.00e+00	0	46	0	173015040	60	22871
2026-01-29 23:51:58.29	22.66	12.68	-48.5	-55.1	14.5	7.00e-07	0	46	0	175112192	60	22378
2026-01-29 23:51:59.29	22.64	12.78	-48.2	-55.1	14.7	0.00e+00	0	46	0	177209344	60	22394
2026-01-29 23:52:00.30	22.61	12.88	-47.5	-55.1	14.6	7.00e-07	0	46	0	179306496	60	22317
2026-01-29 23:52:01.31	22.59	12.97	-47.4	-55.2	14.7	0.00e+00	0	46	0	181403648	60	22427
2026-01-29 23:52:02.32	22.56	13.07	-47.1	-55.1	15.0	7.00e-07	0	46	0	182452224	60	22337
2026-01-29 23:52:03.33	22.54	13.17	-47.3	-55.2	15.1	0.00e+00	0	46	0	184549376	60	22596
2026-01-29 23:52:04.34	22.51	13.27	-47.5	-55.2	15.5	0.00e+00	0	46	0	186646528	60	22422
2026-01-29 23:52:05.35	22.48	13.37	-47.6	-55.3	15.6	0.00e+00	0	46	0	188743680	60	22740
2026-01-29 23:52:06.35	22.46	13.47	-48.1	-55.1	15.9	0.00e+00	0	46	0	190840832	60	22373
2026-01-29 23:52:07.36	22.43	13.57	-48.8	-55.3	16.6	0.00e+00	0	46	0	191889408	60	22804
2026-01-29 23:52:08.37	22.40	13.67	-49.2	-55.1	17.1	0.00e+00	0	46	0	193986560	60	22284
2026-01-29 23:52:09.37	22.38	13.77	-50.3	-55.3	18.0	0.00e+00	0	46	0	196083712	60	22711
2026-01-29 23:52:10.38	22.35	13.87	-50.8	-55.2	18.7	0.00e+00	0	46	0	198180864	60	22568
2026-01-29 23:52:11.39	22.32	13.97	-50.9	-55.2	19.4	0.00e+00	0	46	0	200278016	60	22654
2026-01-29 23:52:12.38	22.30	14.07	-50.0	-55.0	19.4	0.00e+00	0	46	0	201326592	60	22069
2026-01-29 23:52:13.38	22.27	14.17	-50.1	-55.1	19.2	0.00e+00	0	46	0	203423744	60	22307
2026-01-29 23:52:14.38	22.24	14.27	-49.8	-55.1	18.5	0.00e+00	0	46	0	205520896	60	22391
2026-01-29 23:52:15.39	22.21	14.38	-49.5	-55.1	17.5	0.00e+00	0	46	0	207618048	60	22173
2026-01-29 23:52:16.40	22.18	14.48	-49.4	-55.0	16.7	0.00e+00	0	46	0	209715200	60	22013
2026-01-29 23:52:17.40	22.15	14.59	-49.3	-55.0	16.5	0.00e+00	0	46	0	210763776	60	22077
2026-01-29 23:52:18.41	22.12	14.69	-49.5	-54.8	16.8	0.00e+00	0	45	0	212860928	60	21545
2026-01-29 23:52:19.42	22.10	14.80	-49.5	-54.9	17.0	0.00e+00	0	46	0	214958080	60	21689
2026-01-29 23:52:20.42	22.07	14.90	-49.2	-54.7	17.6	0.00e+00	0	46	0	217055232	60	21288
2026-01-29 23:52:21.43	22.04	15.01	-49.4	-54.7	18.8	0.00e+00	0	46	0	218103808	60	21369
2026-01-29 23:52:22.43	22.01	15.11	-49.7	-54.5	20.4	0.00e+00	0	46	0	220200960	60	20911
2026-01-29 23:52:23.44	21.98	15.22	-50.0	-54.4	21.0	0.00e+00	0	46	0	222298112	60	20613
2026-01-29 23:52:24.45	21.95	15.33	-50.7	-54.4	20.7	0.00e+00	0	46	0	224395264	60	20658
2026-01-29 23:52:25.46	21.91	15.43	-51.1	-54.3	20.5	0.00e+00	0	46	0	226492416	60	20361
2026-01-29 23:52:26.46	21.88	15.54	-51.0	-54.2	20.4	0.00e+00	0	46	0	228589568	60	20109
2026-01-29 23:52:27.46	21.85	15.65	-51.3	-54.2	20.1	0.00e+00	0	46	0	229638144	60	20186
2026-01-29 23:52:28.47	21.82	15.76	-51.6	-54.2	20.2	0.00e+00	0	46	0	231735296	60	20011
2026-01-29 23:52:29.48	21.79	15.87	-51.8	-54.1	20.4	0.00e+00	0	46	0	233832448	60	19848
2026-01-29 23:52:30.49	21.76	15.98	-52.1	-54.1	20.5	0.00e+00	0	46	0	235929600	60	19886
2026-01-29 23:52:31.49	21.73	16.09	-52.2	-54.0	21.1	0.00e+00	0	46	0	238026752	60	19527
2026-01-29 23:52:32.50	21.69	16.20	-52.3	-54.0	21.2	0.00e+00	0	46	0	239075328	60	19595
2026-01-29 23:52:33.50	21.66	16.31	-52.2	-53.9	21.4	0.00e+00	0	46	0	241172480	60	19439
2026-01-29 23:52:34.50	21.63	16.42	-52.0	-53.9	21.1	0.00e+00	0	46	0	243269632	60	19469
2026-01-29 23:52:35.51	21.59	16.53	-51.8	-53.9	20.7	0.00e+00	0	46	0	245366784	60	19409
2026-01-29 23:52:36.52	21.56	16.65	-51.6	-54.0	20.0	0.00e+00	0	46	0	246415360	60	19583
2026-01-29 23:52:37.53	21.53	16.76	-50.8	-53.7	19.4	0.00e+00	0	46	0	248512512	60	18974
2026-01-29 23:52:38.53	21.49	16.87	-50.7	-53.8	18.8	0.00e+00	0	46	0	250609664	60	19180
2026-01-29 23:52:39.54	21.46	16.99	-50.6	-53.9	19.0	0.00e+00	0	46	0	252706816	60	19448
2026-01-29 23:52:40.55	21.42	17.10	-50.7	-53.9	19.2	0.00e+00	0	46	0	254803968	60	19460
2026-01-29 23:52:41.55	21.39	17.22	-51.1	-53.9	20.0	0.00e+00	0	46	0	256901120	60	19329
2026-01-29 23:52:42.56	21.35	17.34	-51.4	-53.8	20.7	0.00e+00	0	46	0	257949696	60	19202
2026-01-29 23:52:43.56	21.32	17.45	-51.7	-53.9	21.1	0.00e+00	0	46	0	260046848	60	19471
2026-01-29 23:52:44.56	21.28	17.57	-51.9	-54.1	21.0	0.00e+00	0	46	0	262144000	60	19818
2026-01-29 23:52:45.57	21.24	17.69	-51.8	-54.0	20.7	0.00e+00	0	46	0	264241152	60	19744
2026-01-29 23:52:46.58	21.21	17.80	-51.7	-54.1	20.4	0.00e+00	0	46	0	266338304	60	19817
2026-01-29 23:52:47.58	21.17	17.92	-51.7	-54.3	20.4	0.00e+00	0	46	0	267386880	60	20231
2026-01-29 23:52:48.59	21.13	18.04	-51.5	-54.1	20.6	0.00e+00	0	46	0	269484032	60	19857
2026-01-29 23:52:49.59	21.10	18.16	-51.3	-54.1	21.1	0.00e+00	0	46	0	271581184	60	19910
2026-01-29 23:52:50.60	21.06	18.28	-50.7	-54.2	20.9	0.00e+00	0	46	0	273678336	60	20103
2026-01-29 23:52:51.61	21.02	18.40	-50.2	-54.2	20.6	0.00e+00	0	46	0	274726912	60	19984
2026-01-29 23:52:52.61	20.98	18.52	-49.9	-54.3	19.9	0.00e+00	0	46	0	276824064	60	20215
2026-01-29 23:52:53.62	20.94	18.65	-49.8	-54.1	19.5	0.00e+00	0	46	0	278921216	60	19879
2026-01-29 23:52:54.63	20.90	18.77	-49.9	-54.1	19.2	0.00e+00	0	46	0	281018368	60	19774
2026-01-29 23:52:55.64	20.86	18.89	-50.1	-54.3	18.9	0.00e+00	0	46	0	283115520	60	20220
2026-01-29 23:52:56.64	20.82	19.02	-50.0	-53.9	19.0	0.00e+00	0	46	0	285212672	60	19520
2026-01-29 23:52:57.65	20.78	19.14	-50.0	-53.9	18.9	0.00e+00	0	46	0	286261248	60	19425
2026-01-29 23:52:58.65	20.74	19.27	-49.8	-53.8	18.9	0.00e+00	0	46	0	288358400	60	19089
2026-01-29 23:52:59.66	20.70	19.39	-49.9	-53.9	19.0	0.00e+00	0	46	0	290455552	60	19475
2026-01-29 23:53:00.66	20.66	19.52	-50.1	-53.8	19.7	0.00e+00	0	46	0	292552704	60	19146
2026-01-29 23:53:01.67	20.62	19.65	-50.7	-53.8	20.2	0.00e+00	0	46	0	294649856	60	19268
2026-01-29 23:53:02.68	20.58	19.77	-50.5	-54.0	19.9	0.00e+00	0	46	0	295698432	60	19542
2026-01-29 23:53:03.69	20.53	19.90	-49.4	-53.9	18.1	0.00e+00	0	46	0	297795584	60	19470
2026-01-29 23:53:04.70	20.49	20.03	-48.3	-53.9	17.0	0.00e+00	0	46	0	299892736	60	19504
2026-01-29 23:53:05.70	20.45	20.16	-47.8	-53.9	16.0	0.00e+00	0	46	0	301989888	60	19386
2026-01-29 23:53:06.71	20.40	20.29	-47.8	-53.8	16.1	0.00e+00	0	46	0	303038464	60	19246
2026-01-29 23:53:07.71	20.36	20.42	-48.9	-54.0	16.4	0.00e+00	0	46	0	305135616	60	19555
2026-01-29 23:53:08.72	20.31	20.55	-50.5	-54.0	17.6	0.00e+00	0	46	0	307232768	60	19738
2026-01-29 23:53:09.72	20.27	20.69	-52.6	-54.4	20.0	0.00e+00	0	46	0	309329920	60	20444
2026-01-29 23:53:10.73	20.22	20.82	-52.1	-54.1	21.3	0.00e+00	0	46	0	311427072	60	19880
2026-01-29 23:53:11.74	20.18	20.95	-50.5	-53.8	21.6	0.00e+00	0	46	0	313524224	60	19273
2026-01-29 23:53:12.74	20.13	21.09	-48.6	-53.9	19.6	0.00e+00	0	46	0	314572800	60	19515
2026-01-29 23:53:13.75	20.08	21.22	-47.7	-54.0	17.9	0.00e+00	0	46	0	316669952	60	19561
2026-01-29 23:53:14.75	20.04	21.36	-47.5	-53.7	17.5	0.00e+00	0	46	0	318767104	60	19043
2026-01-29 23:53:15.76	19.99	21.49	-47.8	-53.9	17.1	0.00e+00	0	46	0	320864256	60	19378
2026-01-29 23:53:16.76	19.94	21.63	-48.5	-53.8	17.3	0.00e+00	0	46	0	322961408	60	19139
2026-01-29 23:53:17.77	19.89	21.77	-50.1	-54.1	17.5	0.00e+00	0	46	0	324009984	60	19906
2026-01-29 23:53:18.78	19.84	21.91	-50.7	-53.9	18.4	0.00e+00	0	46	0	326107136	60	19447
2026-01-29 23:53:19.79	19.79	22.05	-51.7	-54.0	19.8	0.00e+00	0	46	0	328204288	60	19550
2026-01-29 23:53:20.79	19.74	22.19	-52.3	-54.2	20.5	0.00e+00	0	46	0	330301440	60	20025
2026-01-29 23:53:21.80	19.69	22.33	-52.5	-54.5	21.1	0.00e+00	0	46	0	331350016	60	20703
2026-01-29 23:53:22.81	19.64	22.47	-52.0	-54.2	21.5	0.00e+00	0	46	0	333447168	60	20069
2026-01-29 23:53:23.81	19.59	22.61	-51.8	-54.4	20.9	0.00e+00	0	46	0	335544320	60	20567
2026-01-29 23:53:24.82	19.54	22.76	-51.8	-54.4	20.6	0.00e+00	0	46	0	337641472	60	20614
2026-01-29 23:53:25.83	19.49	22.90	-52.1	-54.5	20.4	0.00e+00	0	46	0	339738624	60	20874
2026-01-29 23:53:26.83	19.43	23.04	-52.3	-54.4	20.4	0.00e+00	0	46	0	340787200	60	20613
2026-01-29 23:53:27.83	19.38	23.19	-52.4	-54.1	21.1	0.00e+00	0	46	0	342884352	60	19821
2026-01-29 23:53:28.84	19.33	23.34	-52.8	-54.3	21.2	0.00e+00	0	46	0	344981504	60	20308
2026-01-29 23:53:29.84	19.27	23.48	-53.1	-54.6	21.2	0.00e+00	0	46	0	347078656	60	21010
2026-01-29 23:53:30.85	19.22	23.63	-52.7	-54.3	21.2	0.00e+00	0	46	0	349175808	60	20349
2026-01-29 23:53:31.85	19.16	23.78	-52.6	-54.7	20.7	0.00e+00	0	46	0	351272960	60	21304
2026-01-29 23:53:32.86	19.10	23.93	-52.3	-54.7	20.3	0.00e+00	0	46	0	352321536	60	21282
2026-01-29 23:53:33.87	19.05	24.08	-51.7	-54.4	20.1	0.00e+00	0	46	0	354418688	60	20586
2026-01-29 23:53:34.87	18.99	24.23	-51.7	-54.5	19.8	0.00e+00	0	46	0	356515840	60	20819
2026-01-29 23:53:35.88	18.93	24.38	-51.7	-54.5	19.9	0.00e+00	0	46	0	358612992	60	20784
2026-01-29 23:53:36.88	18.87	24.53	-52.2	-55.1	19.4	0.00e+00	0	46	0	359661568	60	22204
2026-01-29 23:53:37.89	18.81	24.69	-52.8	-55.2	19.3	0.00e+00	0	46	0	361758720	60	22624
2026-01-29 23:53:38.89	18.75	24.84	-53.2	-55.4	19.5	0.00e+00	0	46	0	363855872	60	23068
2026-01-29 23:53:39.90	18.69	25.00	-53.8	-55.8	19.4	0.00e+00	0	46	0	365953024	60	24132
2026-01-29 23:53:40.90	18.63	25.15	-53.8	-55.7	19.8	0.00e+00	0	46	0	368050176	60	23776
2026-01-29 23:53:41.89	18.57	25.31	-53.5	-55.6	19.9	0.00e+00	0	46	0	369098752	60	23556
2026-01-29 23:53:42.90	18.51	25.47	-53.4	-55.8	19.8	0.00e+00	0	46	0	371195904	60	24087
2026-01-29 23:53:43.90	18.45	25.63	-53.1	-55.5	20.3	0.00e+00	0	46	0	373293056	60	23346
2026-01-29 23:53:44.91	18.38	25.79	-53.2	-56.0	20.0	0.00e+00	0	46	0	375390208	60	24709
2026-01-29 23:53:45.91	18.32	25.95	-53.2	-56.1	19.9	0.00e+00	0	46	0	377487360	60	24929
2026-01-29 23:53:46.92	18.25	26.11	-52.8	-55.7	20.0	0.00e+00	0	46	0	378535936	60	23758
2026-01-29 23:53:47.92	18.19	26.27	-52.8	-56.0	19.4	0.00e+00	0	46	0	380633088	60	24737
2026-01-29 23:53:48.92	18.12	26.43	-52.5	-55.6	19.3	0.00e+00	0	46	0	382730240	60	23656
2026-01-29 23:53:49.93	18.05	26.60	-52.4	-55.3	19.1	0.00e+00	0	46	0	384827392	60	22932
2026-01-29 23:53:50.94	17.98	26.76	-52.7	-55.5	19.1	0.00e+00	0	46	0	386924544	60	23288
2026-01-29 23:53:51.94	17.92	26.93	-53.1	-55.4	19.8	0.00e+00	0	46	0	387973120	60	23201
2026-01-29 23:53:52.95	17.85	27.10	-54.0	-56.1	19.8	0.00e+00	0	46	0	390070272	60	24980
2026-01-29 23:53:53.95	17.78	27.27	-54.3	-56.2	19.7	0.00e+00	0	46	0	392167424	60	25422
2026-01-29 23:53:54.96	17.70	27.44	-54.3	-56.5	19.0	0.00e+00	0	46	0	394264576	60	26265
2026-01-29 23:53:55.96	17.63	27.61	-54.2	-56.8	18.3	0.00e+00	0	46	0	396361728	60	27198
2026-01-29 23:53:56.97	17.56	27.78	-54.0	-56.6	18.2	0.00e+00	0	46	0	397410304	60	26633
2026-01-29 23:53:57.98	17.49	27.95	-54.1	-57.0	18.0	0.00e+00	0	46	0	399507456	60	27685
2026-01-29 23:53:58.98	17.41	28.12	-54.3	-57.1	18.3	0.00e+00	0	46	0	401604608	60	27972
2026-01-29 23:53:59.99	17.34	28.30	-54.2	-56.4	19.3	0.00e+00	0	46	0	403701760	60	25823
2026-01-29 23:54:00.99	17.26	28.47	-54.7	-56.7	19.2	0.00e+00	0	46	0	405798912	60	26890
2026-01-29 23:54:02.00	17.18	28.65	-54.4	-56.6	19.4	0.00e+00	0	46	0	406847488	60	26371
2026-01-29 23:54:03.01	17.10	28.83	-53.8	-56.4	19.4	0.00e+00	0	46	0	408944640	60	25863
2026-01-29 23:54:04.01	17.03	29.01	-53.3	-56.6	19.5	0.00e+00	0	46	0	411041792	60	26444
2026-01-29 23:54:05.02	16.95	29.19	-52.9	-56.7	18.8	0.00e+00	0	46	0	413138944	60	26813
2026-01-29 23:54:06.02	16.87	29.37	-52.5	-56.7	17.9	0.00e+00	0	46	0	415236096	60	26911
2026-01-29 23:54:07.03	16.78	29.55	-52.5	-57.2	16.9	0.00e+00	0	46	0	416284672	60	28401
2026-01-29 23:54:08.03	16.70	29.73	-52.4	-56.9	16.8	0.00e+00	0	46	0	418381824	60	27515
2026-01-29 23:54:09.04	16.62	29.92	-53.2	-57.7	16.1	0.00e+00	0	46	0	420478976	60	29950
2026-01-29 23:54:10.05	16.53	30.10	-53.6	-57.7	16.2	0.00e+00	0	46	0	422576128	60	30153
2026-01-29 23:54:11.05	16.45	30.29	-54.1	-57.9	16.3	0.00e+00	0	46	0	424673280	60	30821
2026-01-29 23:54:12.06	16.36	30.48	-54.4	-57.7	16.8	0.00e+00	0	46	0	425721856	60	29952
2026-01-29 23:54:13.06	16.27	30.67	-55.0	-57.8	17.1	0.00e+00	0	46	0	427819008	60	30317
2026-01-29 23:54:14.06	16.18	30.85	-55.1	-57.6	17.4	0.00e+00	0	46	0	429916160	60	29725
2026-01-29 23:54:15.07	16.09	31.05	-54.7	-57.5	17.3	0.00e+00	0	46	0	432013312	60	29394
2026-01-29 23:54:16.08	16.00	31.24	-54.0	-57.2	18.0	0.00e+00	0	46	0	434110464	60	28360
2026-01-29 23:54:17.08	15.91	31.43	-54.0	-57.2	18.3	0.00e+00	0	46	0	435159040	60	28477
2026-01-29 23:54:18.09	15.82	31.63	-54.5	-57.6	18.4	0.00e+00	0	46	0	437256192	60	29861
2026-01-29 23:54:19.09	15.72	31.82	-54.5	-58.2	17.9	0.00e+00	0	46	0	439353344	60	31912
2026-01-29 23:54:20.10	15.63	32.02	-54.2	-58.4	17.7	0.00e+00	0	46	0	441450496	60	32473
2026-01-29 23:54:21.10	15.53	32.22	-54.3	-58.4	17.4	0.00e+00	0	46	0	443547648	60	32743
2026-01-29 23:54:22.10	15.43	32.42	-55.2	-58.5	17.6	0.00e+00	0	46	0	444596224	60	32794
2026-01-29 23:54:23.11	15.33	32.62	-56.0	-58.9	17.4	0.00e+00	0	46	0	446693376	60	34394
2026-01-29 23:54:24.12	15.23	32.82	-54.7	-58.1	18.0	0.00e+00	0	46	0	448790528	60	31648
2026-01-29 23:54:25.12	15.13	33.02	-53.2	-57.9	17.7	0.00e+00	0	46	0	450887680	60	30900
2026-01-29 23:54:26.12	15.03	33.23	-52.1	-58.1	16.6	0.00e+00	0	46	0	451936256	60	31404
2026-01-29 23:54:27.12	14.92	33.43	-51.4	-58.2	15.1	0.00e+00	0	46	0	454033408	60	31822
2026-01-29 23:54:28.13	14.82	33.64	-51.2	-58.2	14.4	0.00e+00	0	46	0	456130560	60	31766
2026-01-29 23:54:29.14	14.71	33.85	-51.6	-58.5	14.1	7.00e-07	0	46	0	458227712	60	32811
2026-01-29 23:54:30.15	14.60	34.06	-52.6	-59.4	13.5	7.60e-06	0	46	0	460324864	60	36644
2026-01-29 23:54:31.16	14.49	34.27	-54.5	-59.9	14.2	5.30e-06	0	46	0	462422016	60	38881
2026-01-29 23:54:32.17	14.37	34.49	-56.0	-59.4	16.2	0.00e+00	0	46	0	463470592	60	36478
2026-01-29 23:54:33.17	14.26	34.70	-56.4	-59.3	17.1	0.00e+00	0	46	0	465567744	60	36276
2026-01-29 23:54:34.18	14.15	34.91	-56.2	-59.2	16.8	0.00e+00	0	46	0	467664896	60	35902
2026-01-29 23:54:35.19	14.03	35.13	-55.7	-58.7	17.6	0.00e+00	0	46	0	469762048	60	33767
2026-01-29 23:54:36.20	13.91	35.35	-55.2	-58.1	18.0	0.00e+00	0	46	0	471859200	60	31523
2026-01-29 23:54:37.20	13.79	35.57	-55.1	-58.2	18.2	0.00e+00	0	46	0	472907776	60	31810
2026-01-29 23:54:38.21	13.67	35.79	-55.5	-59.0	17.2	0.00e+00	0	46	0	475004928	60	35113
2026-01-29 23:54:39.22	13.54	36.01	-55.4	-58.8	17.7	0.00e+00	0	46	0	477102080	60	34019
2026-01-29 23:54:40.23	13.42	36.24	-55.0	-58.3	17.8	0.00e+00	0	46	0	479199232	60	32172
2026-01-29 23:54:41.23	13.29	36.46	-55.3	-58.9	17.3	0.00e+00	0	46	0	480247808	60	34532
2026-01-29 23:54:42.24	13.16	36.69	-55.4	-58.7	17.5	0.00e+00	0	46	0	482344960	60	33897
2026-01-29 23:54:43.24	13.03	36.91	-55.7	-59.0	17.2	0.00e+00	0	46	0	484442112	60	35015
2026-01-29 23:54:44.24	12.90	37.14	-56.1	-59.0	17.3	0.00e+00	0	46	0	486539264	60	35099
2026-01-29 23:54:45.25	12.77	37.37	-55.6	-57.9	18.4	0.00e+00	0	46	0	488636416	60	30730
2026-01-29 23:54:46.26	12.63	37.61	-55.9	-58.2	18.2	0.00e+00	0	46	0	490733568	60	31730
2026-01-29 23:54:47.26	12.49	37.84	-55.5	-57.7	18.7	0.00e+00	0	46	0	491782144	60	30114
2026-01-29 23:54:48.26	12.35	38.07	-55.4	-57.6	18.7	0.00e+00	0	46	0	493879296	60	29763
2026-01-29 23:54:49.27	12.21	38.31	-55.3	-57.6	18.6	0.00e+00	0	46	0	495976448	60	29739
2026-01-29 23:54:50.28	12.06	38.55	-55.4	-57.9	18.4	0.00e+00	0	46	0	498073600	60	30620
2026-01-29 23:54:51.29	11.92	38.79	-55.4	-57.9	18.0	0.00e+00	0	46	0	500170752	60	30646
2026-01-29 23:54:52.30	11.77	39.03	-55.5	-58.0	17.7	0.00e+00	0	46	0	501219328	60	31033
2026-01-29 23:54:53.30	11.62	39.27	-56.2	-59.3	16.3	0.00e+00	0	46	0	503316480	60	35945
2026-01-29 23:54:54.31	11.46	39.51	-55.9	-58.6	17.1	0.00e+00	0	46	0	505413632	60	33531
2026-01-29 23:54:55.31	11.31	39.76	-55.9	-58.8	17.3	0.00e+00	0	46	0	507510784	60	33983
2026-01-29 23:54:56.32	11.15	40.00	-56.2	-59.0	17.7	0.00e+00	0	46	0	508559360	60	34957
2026-01-29 23:54:57.32	10.99	40.25	-56.2	-59.2	17.5	0.00e+00	0	46	0	510656512	60	35741
2026-01-29 23:54:58.33	10.82	40.50	-56.1	-59.4	17.0	0.00e+00	0	46	0	512753664	60	36674
2026-01-29 23:54:59.34	10.66	40.75	-55.6	-59.0	17.2	0.00e+00	0	46	0	514850816	60	35102
2026-01-29 23:55:00.34	10.49	41.00	-55.4	-58.6	17.6	0.00e+00	0	46	0	516947968	60	33476
2026-01-29 23:55:01.34	10.32	41.25	-55.4	-58.5	17.7	0.00e+00	0	46	0	519045120	60	32948
2026-01-29 23:55:02.35	10.14	41.51	-55.1	-57.9	18.0	0.00e+00	0	46	0	520093696	60	30615
2026-01-29 23:55:03.36	9.96	41.77	-54.8	-57.3	18.3	0.00e+00	0	46	0	522190848	60	28737
2026-01-29 23:55:04.36	9.79	42.03	-54.5	-56.6	18.5	0.00e+00	0	46	0	524288000	60	26617
2026-01-29 23:55:05.37	9.60	42.29	-55.0	-57.1	18.9	0.00e+00	0	46	0	526385152	60	28217
2026-01-29 23:55:06.38	9.41	42.55	-55.3	-57.2	19.0	0.00e+00	0	46	0	528482304	60	28342
2026-01-29 23:55:07.39	9.22	42.81	-55.3	-57.2	19.2	0.00e+00	0	46	0	529530880	60	28313
2026-01-29 23:55:08.39	9.03	43.07	-55.2	-57.0	19.3	0.00e+00	0	46	0	531628032	60	27889
2026-01-29 23:55:09.40	8.84	43.34	-55.3	-57.2	19.3	0.00e+00	0	46	0	533725184	60	28504
2026-01-29 23:55:10.41	8.64	43.61	-55.1	-57.0	19.2	0.00e+00	0	46	0	535822336	60	27824
2026-01-29 23:55:11.42	8.43	43.88	-55.5	-57.5	19.0	0.00e+00	0	46	0	536870912	60	29426
2026-01-29 23:55:12.42	8.23	44.15	-55.6	-57.5	19.0	0.00e+00	0	46	0	538968064	60	29414
2026-01-29 23:55:13.43	8.02	44.42	-55.2	-57.0	19.5	0.00e+00	0	46	0	541065216	60	27711
2026-01-29 23:55:14.44	7.80	44.69	-55.0	-56.6	19.8	0.00e+00	0	46	0	543162368	60	26618
2026-01-29 23:55:15.45	7.59	44.97	-54.2	-55.6	20.5	0.00e+00	0	46	0	545259520	60	23674
2026-01-29 23:55:16.46	7.36	45.25	-54.0	-55.4	20.9	0.00e+00	0	46	0	547356672	60	23043
2026-01-29 23:55:17.46	7.14	45.52	-54.1	-55.6	20.5	0.00e+00	0	46	0	548405248	60	23671
2026-01-29 23:55:18.47	6.91	45.80	-54.6	-56.3	20.1	0.00e+00	0	46	0	550502400	60	25500
2026-01-29 23:55:19.48	6.68	46.08	-54.8	-56.6	20.0	0.00e+00	0	46	0	552599552	60	26574
2026-01-29 23:55:20.49	6.44	46.37	-55.0	-56.9	19.5	0.00e+00	0	46	0	554696704	60	27564
2026-01-29 23:55:21.50	6.20	46.65	-54.9	-56.8	19.6	0.00e+00	0	46	0	556793856	60	27223
2026-01-29 23:55:22.50	5.95	46.93	-54.1	-55.7	20.5	0.00e+00	0	46	0	557842432	60	23887
2026-01-29 23:55:23.51	5.70	47.22	-54.1	-55.8	20.4	0.00e+00	0	46	0	559939584	60	24121
2026-01-29 23:55:24.52	5.44	47.51	-53.8	-55.5	20.3	0.00e+00	0	46	0	562036736	60	23420
2026-01-29 23:55:25.53	5.18	47.80	-54.5	-56.7	19.4	0.00e+00	0	46	0	564133888	60	26690
2026-01-29 23:55:26.53	4.92	48.08	-54.7	-57.0	18.7	0.00e+00	0	46	0	565182464	60	27849
2026-01-29 23:55:27.54	4.64	48.38	-55.0	-57.3	18.8	0.00e+00	0	46	0	567279616	60	28829
2026-01-29 23:55:28.54	4.37	48.67	-54.6	-56.5	19.5	0.00e+00	0	46	0	569376768	60	26148
2026-01-29 23:55:29.55	4.09	48.96	-54.0	-55.6	20.5	0.00e+00	0	46	0	571473920	60	23711
2026-01-29 23:55:30.55	3.80	49.25	-53.8	-55.2	20.9	0.00e+00	0	46	0	573571072	60	22662
2026-01-29 23:55:31.56	3.51	49.55	-53.6	-54.9	21.4	0.00e+00	0	46	0	575668224	60	21896
2026-01-29 23:55:32.56	3.21	49.85	-53.8	-55.4	20.9	0.00e+00	0	46	0	576716800	60	22986
2026-01-29 23:55:33.57	2.91	50.14	-53.6	-55.1	21.1	0.00e+00	0	46	0	578813952	60	22360
2026-01-29 23:55:34.57	2.60	50.44	-53.6	-55.3	21.1	0.00e+00	0	46	0	580911104	60	22719
2026-01-29 23:55:35.58	2.28	50.74	-53.1	-54.6	21.7	0.00e+00	0	46	0	583008256	60	21050
2026-01-29 23:55:36.58	1.96	51.04	-53.2	-54.7	21.7	0.00e+00	0	46	0	585105408	60	21247
2026-01-29 23:55:37.59	1.63	51.34	-53.8	-55.3	21.1	0.00e+00	0	46	0	586153984	60	22778
2026-01-29 23:55:38.60	1.29	51.65	-54.4	-56.0	20.6	0.00e+00	0	46	0	588251136	60	24729
2026-01-29 23:55:39.61	0.95	51.95	-54.7	-56.3	20.3	0.00e+00	0	46	0	590348288	60	25443
2026-01-29 23:55:40.61	0.60	52.26	-54.4	-55.9	20.7	0.00e+00	0	46	0	592445440	60	24379
2026-01-29 23:55:41.62	0.24	52.56	-54.2	-55.6	20.8	0.00e+00	0	46	0	593494016	60	23726
2026-01-29 23:55:42.63	359.88	52.87	-53.9	-55.3	21.1	0.00e+00	0	46	0	595591168	60	22699
2026-01-29 23:55:43.63	359.50	53.17	-53.9	-55.2	21.1	0.00e+00	0	46	0	597688320	60	22629
2026-01-29 23:55:44.64	359.12	53.48	-54.7	-56.3	20.3	0.00e+00	0	46	0	599785472	60	25485
2026-01-29 23:55:45.65	358.73	53.79	-55.0	-56.6	20.2	0.00e+00	0	46	0	601882624	60	26623
2026-01-29 23:55:46.66	358.33	54.10	-54.7	-56.2	20.6	0.00e+00	0	46	0	603979776	60	25328
2026-01-29 23:55:47.66	357.93	54.41	-53.9	-55.3	21.3	0.00e+00	0	46	0	605028352	60	22776
2026-01-29 23:55:48.67	357.51	54.72	-53.8	-55.1	21.4	0.00e+00	0	46	0	607125504	60	22382
2026-01-29 23:55:49.67	357.09	55.02	-53.9	-55.2	21.2	0.00e+00	0	46	0	609222656	60	22655
2026-01-29 23:55:50.68	356.65	55.34	-54.8	-56.4	20.4	0.00e+00	0	46	0	611319808	60	25739
2026-01-29 23:55:51.68	356.21	55.64	-55.7	-57.5	19.3	0.00e+00	0	46	0	613416960	60	29344
2026-01-29 23:55:52.69	355.76	55.95	-55.5	-57.3	19.3	0.00e+00	0	46	0	614465536	60	28687
2026-01-29 23:55:53.70	355.29	56.26	-55.5	-57.1	19.9	0.00e+00	0	46	0	616562688	60	28047
2026-01-29 23:55:54.70	354.82	56.57	-55.3	-56.9	19.9	0.00e+00	0	46	0	618659840	60	27377
2026-01-29 23:55:55.71	354.33	56.88	-55.8	-57.6	19.1	0.00e+00	0	46	0	620756992	60	29789
2026-01-29 23:55:56.72	353.83	57.19	-56.9	-59.2	17.6	0.00e+00	0	46	0	621805568	60	35918
2026-01-29 23:55:57.72	353.33	57.50	-57.4	-60.2	16.6	0.00e+00	0	46	0	623902720	60	40141
2026-01-29 23:55:58.73	352.80	57.81	-57.3	-60.0	16.9	0.00e+00	0	46	0	625999872	60	39144
2026-01-29 23:55:59.74	352.27	58.12	-56.4	-58.4	18.1	0.00e+00	0	46	0	628097024	60	32565
2026-01-29 23:56:00.75	351.72	58.42	-56.4	-58.5	18.6	0.00e+00	0	46	0	630194176	60	32945
2026-01-29 23:56:01.76	351.16	58.73	-55.6	-57.3	19.6	0.00e+00	0	46	0	632291328	60	28803
2026-01-29 23:56:02.76	350.60	59.03	-55.2	-56.8	20.4	0.00e+00	0	46	0	633339904	60	27042
2026-01-29 23:56:03.77	350.01	59.34	-54.9	-56.6	20.3	0.00e+00	0	46	0	635437056	60	26342
2026-01-29 23:56:04.78	349.41	59.64	-55.1	-56.7	19.8	0.00e+00	0	46	0	637534208	60	26864
2026-01-29 23:56:05.78	348.80	59.94	-55.6	-57.4	19.9	0.00e+00	0	46	0	639631360	60	28957
2026-01-29 23:56:06.79	348.18	60.24	-54.8	-56.3	20.6	0.00e+00	0	46	0	641728512	60	25566
2026-01-29 23:56:07.79	347.54	60.53	-54.6	-56.0	20.7	0.00e+00	0	46	0	642777088	60	24862
2026-01-29 23:56:08.80	346.88	60.83	-54.9	-56.3	20.5	0.00e+00	0	46	0	644874240	60	25726
2026-01-29 23:56:09.81	346.21	61.12	-54.8	-56.2	20.9	0.00e+00	0	46	0	646971392	60	25152
2026-01-29 23:56:10.82	345.52	61.42	-54.2	-55.5	21.4	0.00e+00	0	46	0	649068544	60	23390
2026-01-29 23:56:11.82	344.82	61.70	-53.8	-55.1	21.7	0.00e+00	0	46	0	650117120	60	22160
2026-01-29 23:56:12.83	344.09	61.99	-53.9	-55.1	21.5	0.00e+00	0	46	0	652214272	60	22399
2026-01-29 23:56:13.83	343.36	62.27	-54.1	-55.3	21.0	0.00e+00	0	46	0	654311424	60	22879
2026-01-29 23:56:14.84	342.60	62.55	-54.7	-56.1	20.6	0.00e+00	0	46	0	656408576	60	25151
2026-01-29 23:56:15.84	341.83	62.83	-54.3	-55.6	21.2	0.00e+00	0	46	0	658505728	60	23678
2026-01-29 23:56:16.85	341.04	63.10	-53.5	-54.7	21.9	0.00e+00	0	46	0	660602880	60	21297
2026-01-29 23:56:17.86	340.23	63.37	-53.3	-54.5	22.0	0.00e+00	0	46	0	661651456	60	20790
2026-01-29 23:56:18.87	339.40	63.64	-53.3	-54.5	21.9	0.00e+00	0	46	0	663748608	60	20900
2026-01-29 23:56:19.87	338.55	63.90	-53.8	-55.2	21.5	0.00e+00	0	46	0	665845760	60	22422
2026-01-29 23:56:20.88	337.68	64.16	-53.9	-55.3	21.5	0.00e+00	0	46	0	667942912	60	22870
2026-01-29 23:56:21.88	336.80	64.41	-53.7	-55.0	21.7	0.00e+00	0	46	0	670040064	60	22039
2026-01-29 23:56:22.89	335.90	64.66	-53.0	-54.2	22.4	0.00e+00	0	46	0	671088640	60	20071
2026-01-29 23:56:23.90	334.97	64.90	-53.2	-54.4	22.0	0.00e+00	0	46	0	673185792	60	20446
2026-01-29 23:56:24.90	334.03	65.14	-54.1	-55.4	21.1	0.00e+00	0	46	0	675282944	60	23199
2026-01-29 23:56:25.90	333.07	65.37	-54.3	-55.7	21.0	0.00e+00	0	46	0	677380096	60	23758
2026-01-29 23:56:26.91	332.08	65.60	-54.3	-55.7	21.0	0.00e+00	0	46	0	678428672	60	23962
2026-01-29 23:56:27.92	331.07	65.82	-53.9	-55.2	21.4	0.00e+00	0	46	0	680525824	60	22634
2026-01-29 23:56:28.93	330.04	66.04	-54.1	-55.4	21.1	0.00e+00	0	46	0	682622976	60	23193
2026-01-29 23:56:29.94	328.99	66.24	-54.0	-55.4	21.1	0.00e+00	0	46	0	684720128	60	23177
2026-01-29 23:56:30.95	327.92	66.45	-53.6	-55.0	21.7	0.00e+00	0	46	0	686817280	60	21920
2026-01-29 23:56:31.95	326.84	66.64	-53.5	-55.0	21.2	0.00e+00	0	46	0	688914432	60	22083
2026-01-29 23:56:32.96	325.73	66.83	-53.6	-55.2	20.9	0.00e+00	0	46	0	689963008	60	22651
2026-01-29 23:56:33.96	324.61	67.00	-53.9	-55.7	20.6	0.00e+00	0	46	0	692060160	60	23755
2026-01-29 23:56:34.97	323.46	67.17	-54.8	-56.9	19.5	0.00e+00	0	46	0	694157312	60	27273
2026-01-29 23:56:35.97	322.30	67.34	-55.1	-57.2	19.6	0.00e+00	0	46	0	696254464	60	28283
2026-01-29 23:56:36.98	321.12	67.49	-55.1	-57.1	19.3	0.00e+00	0	46	0	698351616	60	27955
2026-01-29 23:56:37.99	319.92	67.64	-56.2	-58.6	18.2	0.00e+00	0	46	0	699400192	60	33493
2026-01-29 23:56:38.99	318.71	67.77	-57.4	-60.7	16.1	0.00e+00	0	46	0	701497344	60	42483
2026-01-29 23:56:40.00	317.47	67.90	-57.3	-60.6	16.3	0.00e+00	0	46	0	703594496	60	41783
2026-01-29 23:56:41.01	316.22	68.02	-56.4	-58.9	17.8	0.00e+00	0	46	0	705691648	60	34528
2026-01-29 23:56:42.01	314.97	68.13	-55.9	-58.0	18.8	0.00e+00	0	46	0	706740224	60	31057
2026-01-29 23:56:43.02	313.69	68.22	-55.7	-57.6	19.2	0.00e+00	0	46	0	708837376	60	29886
2026-01-29 23:56:44.03	312.40	68.31	-55.8	-57.7	19.2	0.00e+00	0	46	0	710934528	60	30043
2026-01-29 23:56:45.03	311.12	68.39	-56.2	-58.2	18.5	0.00e+00	0	46	0	713031680	60	31778
2026-01-29 23:56:46.04	309.81	68.46	-55.8	-57.9	18.8	0.00e+00	0	46	0	715128832	60	30941
2026-01-29 23:56:47.05	308.49	68.52	-55.8	-58.1	18.6	0.00e+00	0	46	0	717225984	60	31586
2026-01-29 23:56:48.06	307.16	68.57	-55.9	-58.5	18.2	0.00e+00	0	46	0	718274560	60	33029
2026-01-29 23:56:49.06	305.84	68.60	-55.6	-58.2	18.8	0.00e+00	0	46	0	720371712	60	31732
2026-01-29 23:56:50.07	304.51	68.63	-55.7	-58.7	17.7	0.00e+00	0	46	0	722468864	60	33562
2026-01-29 23:56:51.08	303.17	68.64	-55.8	-59.0	17.2	0.00e+00	0	46	0	724566016	60	34987
2026-01-29 23:56:52.09	301.83	68.65	-55.7	-58.9	17.8	0.00e+00	0	46	0	726663168	60	34634
2026-01-29 23:56:53.10	300.49	68.64	-55.0	-57.9	18.6	0.00e+00	0	46	0	727711744	60	30696
2026-01-29 23:56:54.10	299.17	68.62	-54.7	-57.6	18.7	0.00e+00	0	46	0	729808896	60	29632
2026-01-29 23:56:55.11	297.83	68.60	-55.1	-58.4	17.9	0.00e+00	0	46	0	731906048	60	32456
2026-01-29 23:56:56.12	296.50	68.56	-55.4	-59.0	17.6	0.00e+00	0	46	0	734003200	60	34772
2026-01-29 23:56:57.12	295.19	68.51	-54.7	-57.6	18.7	0.00e+00	0	46	0	735051776	60	29837
2026-01-29 23:56:58.12	293.88	68.45	-54.8	-57.8	18.9	0.00e+00	0	46	0	737148928	60	30457
2026-01-29 23:56:59.13	292.58	68.38	-55.1	-58.2	18.3	0.00e+00	0	46	0	739246080	60	32013
2026-01-29 23:57:00.13	291.29	68.30	-54.8	-57.5	18.9	0.00e+00	0	46	0	741343232	60	29497
2026-01-29 23:57:01.14	290.00	68.21	-55.5	-58.4	17.9	0.00e+00	0	46	0	743440384	60	32768
2026-01-29 23:57:02.15	288.73	68.11	-56.5	-60.2	16.3	0.00e+00	0	46	0	745537536	60	39921
2026-01-29 23:57:03.15	287.48	68.00	-57.5	-61.9	15.0	0.00e+00	0	46	0	746586112	60	48883
2026-01-29 23:57:04.16	286.23	67.88	-57.3	-61.0	15.8	0.00e+00	0	46	0	748683264	60	44089
2026-01-29 23:57:05.17	284.99	67.75	-56.2	-59.0	17.8	0.00e+00	0	46	0	750780416	60	34903
2026-01-29 23:57:06.18	283.78	67.61	-56.7	-59.8	16.7	0.00e+00	0	46	0	752877568	60	38291
2026-01-29 23:57:07.19	282.58	67.46	-56.9	-60.3	16.5	0.00e+00	0	46	0	754974720	60	40618
2026-01-29 23:57:08.19	281.40	67.31	-56.6	-59.8	16.9	0.00e+00	0	46	0	756023296	60	38217
2026-01-29 23:57:09.20	280.24	67.15	-56.2	-59.1	17.4	0.00e+00	0	46	0	758120448	60	35428
2026-01-29 23:57:10.20	279.10	66.97	-55.0	-57.3	19.3	0.00e+00	0	46	0	760217600	60	28625
2026-01-29 23:57:11.21	277.98	66.79	-54.0	-55.9	20.2	0.00e+00	0	46	0	762314752	60	24468
2026-01-29 23:57:12.22	276.87	66.61	-54.0	-56.0	20.0	0.00e+00	0	46	0	763363328	60	24688
2026-01-29 23:57:13.22	275.79	66.41	-54.6	-57.1	18.9	0.00e+00	0	46	0	765460480	60	28108
2026-01-29 23:57:14.23	274.72	66.21	-54.7	-57.6	18.6	0.00e+00	0	46	0	767557632	60	29726
2026-01-29 23:57:15.24	273.68	66.00	-54.0	-56.5	19.4	0.00e+00	0	46	0	769654784	60	26253
2026-01-29 23:57:16.24	272.66	65.78	-52.8	-54.9	20.9	0.00e+00	0	46	0	771751936	60	21765
2026-01-29 23:57:17.24	271.66	65.56	-52.6	-54.7	20.9	0.00e+00	0	46	0	773849088	60	21263
2026-01-29 23:57:18.25	270.67	65.33	-52.6	-54.9	20.9	0.00e+00	0	46	0	774897664	60	21722
2026-01-29 23:57:19.26	269.71	65.10	-53.0	-55.4	20.3	0.00e+00	0	46	0	776994816	60	23027
2026-01-29 23:57:20.27	268.76	64.86	-52.8	-55.1	20.7	0.00e+00	0	46	0	779091968	60	22351
2026-01-29 23:57:21.27	267.84	64.62	-52.1	-54.0	21.6	0.00e+00	0	46	0	781189120	60	19705
2026-01-29 23:57:22.28	266.94	64.37	-51.9	-53.7	21.9	0.00e+00	0	46	0	783286272	60	19029
2026-01-29 23:57:23.29	266.05	64.11	-52.2	-54.0	21.6	0.00e+00	0	46	0	784334848	60	19574
2026-01-29 23:57:24.30	265.18	63.85	-53.3	-55.4	20.5	0.00e+00	0	46	0	786432000	60	23052
2026-01-29 23:57:25.30	264.35	63.59	-53.9	-56.2	20.0	0.00e+00	0	46	0	788529152	60	25252
2026-01-29 23:57:26.31	263.52	63.32	-53.5	-55.5	20.7	0.00e+00	0	46	0	790626304	60	23369
2026-01-29 23:57:27.32	262.71	63.05	-53.6	-55.5	20.6	0.00e+00	0	46	0	791674880	60	23235
2026-01-29 23:57:28.32	261.92	62.78	-54.7	-56.9	19.5	0.00e+00	0	46	0	793772032	60	27419
2026-01-29 23:57:29.32	261.16	62.50	-54.7	-56.8	19.8	0.00e+00	0	46	0	795869184	60	26953
2026-01-29 23:57:30.33	260.40	62.22	-54.8	-56.9	19.5	0.00e+00	0	46	0	797966336	60	27384
2026-01-29 23:57:31.34	259.66	61.93	-54.9	-57.1	19.5	0.00e+00	0	46	0	800063488	60	28080
2026-01-29 23:57:32.35	258.94	61.65	-55.5	-57.8	18.8	0.00e+00	0	46	0	802160640	60	30501
2026-01-29 23:57:33.35	258.24	61.36	-55.4	-57.6	18.8	0.00e+00	0	46	0	803209216	60	29560
2026-01-29 23:57:34.36	257.56	61.07	-55.2	-57.3	19.5	0.00e+00	0	46	0	805306368	60	28548
2026-01-29 23:57:35.37	256.88	60.77	-55.2	-57.2	19.3	0.00e+00	0	46	0	807403520	60	28356
2026-01-29 23:57:36.38	256.23	60.47	-56.2	-58.8	17.7	0.00e+00	0	46	0	809500672	60	34209
2026-01-29 23:57:37.39	255.59	60.18	-57.0	-59.9	17.0	0.00e+00	0	46	0	811597824	60	38876
2026-01-29 23:57:38.40	254.96	59.87	-55.5	-57.3	19.3	0.00e+00	0	46	0	812646400	60	28857
2026-01-29 23:57:39.40	254.35	59.58	-55.2	-57.1	19.5	0.00e+00	0	46	0	814743552	60	28138
2026-01-29 23:57:40.41	253.76	59.27	-55.5	-57.4	19.3	0.00e+00	0	46	0	816840704	60	29189
2026-01-29 23:57:41.42	253.17	58.97	-55.8	-57.7	19.1	0.00e+00	0	46	0	818937856	60	30134
2026-01-29 23:57:42.42	252.61	58.66	-56.0	-58.0	18.8	0.00e+00	0	46	0	819986432	60	31108
2026-01-29 23:57:43.43	252.05	58.36	-55.1	-56.8	19.8	0.00e+00	0	46	0	822083584	60	27248
2026-01-29 23:57:44.44	251.50	58.05	-54.0	-55.5	21.0	0.00e+00	0	46	0	824180736	60	23258
2026-01-29 23:57:45.44	250.98	57.74	-53.0	-54.3	22.0	0.00e+00	0	46	0	826277888	60	20303
2026-01-29 23:57:46.44	250.46	57.43	-52.7	-53.9	22.6	0.00e+00	0	46	0	828375040	60	19481
2026-01-29 23:57:47.45	249.95	57.12	-52.6	-53.7	22.6	0.00e+00	0	46	0	830472192	60	19065
2026-01-29 23:57:48.45	249.46	56.82	-53.2	-54.5	22.1	0.00e+00	0	46	0	831520768	60	20866
2026-01-29 23:57:49.46	248.97	56.51	-53.9	-55.3	21.1	0.00e+00	0	46	0	833617920	60	22752
2026-01-29 23:57:50.46	248.50	56.20	-54.4	-55.9	20.8	0.00e+00	0	46	0	835715072	60	24365
2026-01-29 23:57:51.47	248.04	55.89	-54.2	-55.5	20.9	0.00e+00	0	46	0	837812224	60	23441
2026-01-29 23:57:52.48	247.58	55.58	-54.0	-55.3	21.3	0.00e+00	0	46	0	839909376	60	22733
2026-01-29 23:57:53.49	247.14	55.26	-54.1	-55.5	21.2	0.00e+00	0	46	0	840957952	60	23292
2026-01-29 23:57:54.50	246.71	54.95	-54.5	-56.0	20.3	0.00e+00	0	46	0	843055104	60	24729
2026-01-29 23:57:55.50	246.28	54.64	-54.7	-56.2	20.6	0.00e+00	0	45	0	845152256	60	25264
2026-01-29 23:57:56.51	245.87	54.33	-54.5	-55.9	20.7	0.00e+00	0	45	0	847249408	60	24473
2026-01-29 23:57:57.51	245.47	54.03	-54.3	-55.7	20.6	0.00e+00	0	46	0	848297984	60	24016
2026-01-29 23:57:58.52	245.07	53.72	-53.9	-55.2	21.3	0.00e+00	0	46	0	850395136	60	22614
2026-01-29 23:57:59.52	244.68	53.41	-53.2	-54.4	22.0	0.00e+00	0	46	0	852492288	60	20480
2026-01-29 23:58:00.53	244.30	53.10	-53.5	-54.8	21.6	0.00e+00	0	46	0	854589440	60	21430
2026-01-29 23:58:01.54	243.93	52.79	-54.7	-56.3	20.2	0.00e+00	0	46	0	856686592	60	25700
2026-01-29 23:58:02.54	243.56	52.49	-55.0	-56.6	20.0	0.00e+00	0	46	0	858783744	60	26611
2026-01-29 23:58:03.54	243.21	52.18	-55.0	-56.7	19.8	0.00e+00	0	46	0	859832320	60	26891
2026-01-29 23:58:04.55	242.86	51.88	-55.4	-57.3	19.3	0.00e+00	0	46	0	861929472	60	28591
2026-01-29 23:58:05.55	242.52	51.58	-55.6	-57.6	19.0	0.00e+00	0	46	0	864026624	60	29568
2026-01-29 23:58:06.56	242.18	51.27	-54.6	-56.1	20.5	0.00e+00	0	46	0	866123776	60	24949
2026-01-29 23:58:07.57	241.85	50.97	-54.5	-56.0	20.6	0.00e+00	0	46	0	868220928	60	24834
2026-01-29 23:58:08.57	241.53	50.67	-54.3	-55.8	20.6	0.00e+00	0	46	0	869269504	60	24033
2026-01-29 23:58:09.58	241.21	50.37	-54.1	-55.6	20.8	0.00e+00	0	46	0	871366656	60	23541
2026-01-29 23:58:10.59	240.90	50.07	-53.7	-55.1	21.2	0.00e+00	0	46	0	873463808	60	22167
2026-01-29 23:58:11.60	240.60	49.77	-53.3	-54.5	21.7	0.00e+00	0	46	0	875560960	60	20884
2026-01-29 23:58:12.60	240.30	49.47	-53.4	-54.7	21.5	0.00e+00	0	46	0	876609536	60	21276
2026-01-29 23:58:13.61	240.01	49.17	-54.8	-56.5	19.8	0.00e+00	0	46	0	878706688	60	26218
2026-01-29 23:58:14.61	239.72	48.88	-55.4	-57.3	19.1	0.00e+00	0	46	0	880803840	60	28694
2026-01-29 23:58:15.62	239.44	48.59	-55.0	-56.7	19.8	0.00e+00	0	46	0	882900992	60	26703
2026-01-29 23:58:16.62	239.17	48.30	-54.2	-55.7	20.5	0.00e+00	0	46	0	884998144	60	23946
2026-01-29 23:58:17.62	238.90	48.01	-54.7	-56.4	19.5	0.00e+00	0	46	0	886046720	60	25758
2026-01-29 23:58:18.63	238.64	47.72	-56.1	-58.3	17.9	0.00e+00	0	46	0	888143872	60	32128
2026-01-29 23:58:19.63	238.38	47.43	-56.1	-58.2	18.3	0.00e+00	0	46	0	890241024	60	31708
2026-01-29 23:58:20.64	238.12	47.14	-55.9	-57.9	18.4	0.00e+00	0	46	0	892338176	60	30851
2026-01-29 23:58:21.65	237.87	46.85	-55.5	-57.4	18.8	0.00e+00	0	46	0	894435328	60	29132
2026-01-29 23:58:22.65	237.62	46.57	-54.8	-56.5	19.7	0.00e+00	0	46	0	896532480	60	26041
2026-01-29 23:58:23.66	237.38	46.29	-54.3	-55.8	20.0	0.00e+00	0	46	0	897581056	60	24233
2026-01-29 23:58:24.67	237.14	46.00	-54.2	-55.7	20.3	0.00e+00	0	46	0	899678208	60	23750
2026-01-29 23:58:25.68	236.91	45.72	-54.7	-56.3	19.6	0.00e+00	0	46	0	901775360	60	25725
2026-01-29 23:58:26.69	236.68	45.44	-55.3	-57.2	19.1	0.00e+00	0	46	0	903872512	60	28366
2026-01-29 23:58:27.70	236.45	45.16	-54.7	-56.4	19.9	0.00e+00	0	46	0	904921088	60	25742
2026-01-29 23:58:28.70	236.24	44.89	-53.6	-54.9	21.1	0.00e+00	0	46	0	907018240	60	21886
2026-01-29 23:58:29.71	236.02	44.61	-53.1	-54.4	21.4	0.00e+00	0	46	0	909115392	60	20444
2026-01-29 23:58:30.71	235.81	44.34	-54.0	-55.4	20.6	0.00e+00	0	46	0	911212544	60	23147
2026-01-29 23:58:31.72	235.60	44.07	-54.8	-56.4	19.6	0.00e+00	0	46	0	913309696	60	26017
2026-01-29 23:58:32.73	235.39	43.79	-55.3	-57.0	19.0	0.00e+00	0	46	0	914358272	60	27895
2026-01-29 23:58:33.74	235.19	43.52	-55.6	-57.5	18.4	0.00e+00	0	46	0	916455424	60	29469
2026-01-29 23:58:34.75	234.99	43.26	-57.2	-60.0	16.2	0.00e+00	0	46	0	918552576	60	39024
2026-01-29 23:58:35.75	234.79	42.99	-57.3	-60.3	15.9	0.00e+00	0	46	0	920649728	60	40540
2026-01-29 23:58:36.76	234.60	42.73	-58.2	-61.9	14.3	0.00e+00	0	46	0	922746880	60	48642
2026-01-29 23:58:37.75	234.41	42.47	-58.1	-61.6	14.6	7.00e-07	0	46	0	924844032	60	47153
2026-01-29 23:58:38.75	234.23	42.21	-58.1	-61.5	14.8	2.20e-06	0	46	0	925892608	60	46439
2026-01-29 23:58:39.76	234.04	41.95	-57.1	-59.7	16.5	0.00e+00	0	46	0	927989760	60	37921
2026-01-29 23:58:40.76	233.86	41.69	-56.8	-59.4	16.8	0.00e+00	0	46	0	930086912	60	36517
2026-01-29 23:58:41.77	233.69	41.43	-56.6	-59.0	17.1	0.00e+00	0	46	0	932184064	60	34759
2026-01-29 23:58:42.77	233.51	41.18	-56.4	-58.7	17.3	0.00e+00	0	46	0	933232640	60	33609
2026-01-29 23:58:43.78	233.34	40.92	-55.6	-57.6	18.8	0.00e+00	0	46	0	935329792	60	29754
2026-01-29 23:58:44.79	233.17	40.67	-55.2	-57.0	19.0	0.00e+00	0	46	0	937426944	60	27653
2026-01-29 23:58:45.80	233.01	40.41	-55.4	-57.3	18.8	0.00e+00	0	46	0	939524096	60	28809
2026-01-29 23:58:46.80	232.84	40.17	-55.4	-57.3	18.7	0.00e+00	0	46	0	941621248	60	28686
2026-01-29 23:58:47.81	232.68	39.92	-55.4	-57.4	18.4	0.00e+00	0	46	0	942669824	60	28918
2026-01-29 23:58:48.82	232.52	39.67	-55.9	-58.1	17.7	0.00e+00	0	46	0	944766976	60	31624
2026-01-29 23:58:49.83	232.36	39.42	-56.6	-59.2	16.9	0.00e+00	0	46	0	946864128	60	35745
2026-01-29 23:58:50.84	232.21	39.18	-56.2	-58.5	17.0	0.00e+00	0	46	0	948961280	60	32960
2026-01-29 23:58:51.85	232.06	38.94	-56.4	-58.8	17.3	0.00e+00	0	46	0	951058432	60	34048
2026-01-29 23:58:52.85	231.91	38.70	-56.3	-58.6	17.4	0.00e+00	0	46	0	953155584	60	33528
2026-01-29 23:58:53.86	231.76	38.46	-56.2	-58.5	17.5	0.00e+00	0	46	0	954204160	60	33060
2026-01-29 23:58:54.87	231.62	38.22	-56.7	-59.3	16.6	0.00e+00	0	46	0	956301312	60	36195
2026-01-29 23:58:55.87	231.48	37.98	-57.3	-60.4	15.4	0.00e+00	0	46	0	958398464	60	40869
2026-01-29 23:58:56.88	231.33	37.75	-57.5	-60.7	14.9	0.00e+00	0	46	0	960495616	60	42510
2026-01-29 23:58:57.88	231.20	37.51	-57.6	-60.9	15.1	0.00e+00	0	46	0	961544192	60	43473
2026-01-29 23:58:58.89	231.06	37.28	-56.3	-58.6	17.3	0.00e+00	0	46	0	963641344	60	33280
2026-01-29 23:58:59.90	230.92	37.05	-55.5	-57.5	18.6	0.00e+00	0	46	0	965738496	60	29348
2026-01-29 23:59:00.91	230.79	36.82	-54.5	-56.1	19.4	0.00e+00	0	46	0	967835648	60	25055
2026-01-29 23:59:01.91	230.66	36.59	-54.1	-55.7	19.9	0.00e+00	0	46	0	969932800	60	23876
2026-01-29 23:59:02.92	230.53	36.36	-54.0	-55.6	20.1	0.00e+00	0	46	0	970981376	60	23499
2026-01-29 23:59:03.93	230.41	36.14	-54.1	-55.6	20.1	0.00e+00	0	46	0	973078528	60	23654
2026-01-29 23:59:04.94	230.28	35.91	-53.8	-55.4	20.3	0.00e+00	0	46	0	975175680	60	22962
2026-01-29 23:59:05.94	230.16	35.69	-54.0	-55.5	20.1	0.00e+00	0	46	0	977272832	60	23436
2026-01-29 23:59:06.95	230.03	35.47	-54.2	-55.8	19.8	0.00e+00	0	46	0	979369984	60	24116
2026-01-29 23:59:07.96	229.91	35.25	-54.6	-56.4	19.3	0.00e+00	0	46	0	981467136	60	25819
2026-01-29 23:59:08.97	229.79	35.03	-55.2	-57.2	18.4	0.00e+00	0	46	0	982515712	60	28339
2026-01-29 23:59:09.97	229.68	34.82	-55.4	-57.4	18.2	0.00e+00	0	46	0	984612864	60	29200
2026-01-29 23:59:10.98	229.56	34.60	-55.7	-58.0	17.7	0.00e+00	0	46	0	986710016	60	31107
2026-01-29 23:59:11.98	229.45	34.39	-55.2	-57.3	18.6	0.00e+00	0	46	0	988807168	60	28595
2026-01-29 23:59:12.98	229.34	34.18	-55.0	-56.8	18.9	0.00e+00	0	46	0	989855744	60	27237
2026-01-29 23:59:13.97	229.23	33.97	-54.5	-56.2	19.3	0.00e+00	0	46	0	991952896	60	25220
2026-01-29 23:59:14.98	229.12	33.76	-54.3	-56.0	19.2	0.00e+00	0	46	0	994050048	60	24649
2026-01-29 23:59:15.99	229.01	33.55	-54.6	-56.4	19.0	0.00e+00	0	46	0	996147200	60	25855
2026-01-29 23:59:17.00	228.90	33.34	-55.0	-57.0	18.0	0.00e+00	0	46	0	998244352	60	27653
2026-01-29 23:59:18.00	228.80	33.13	-55.2	-57.2	18.3	0.00e+00	0	46	0	999292928	60	28486
2026-01-29 23:59:19.01	228.70	32.93	-55.3	-57.4	18.2	0.00e+00	0	46	0	1001390080	60	29113
2026-01-29 23:59:20.01	228.59	32.73	-55.4	-57.6	17.8	0.00e+00	0	46	0	1003487232	60	29604
2026-01-29 23:59:21.02	228.49	32.52	-55.2	-57.3	18.3	0.00e+00	0	46	0	1005584384	60	28834
2026-01-29 23:59:22.02	228.39	32.32	-55.2	-57.4	18.0	0.00e+00	0	46	0	1007681536	60	28904
2026-01-29 23:59:23.03	228.30	32.12	-55.6	-57.9	17.5	0.00e+00	0	46	0	1008730112	60	30745
2026-01-29 23:59:24.04	228.20	31.92	-55.7	-58.1	17.5	0.00e+00	0	46	0	1010827264	60	31554
2026-01-29 23:59:25.05	228.10	31.72	-55.7	-58.1	17.4	0.00e+00	0	46	0	1012924416	60	31434
2026-01-29 23:59:26.05	228.01	31.53	-55.3	-57.6	17.8	0.00e+00	0	46	0	1015021568	60	29623
2026-01-29 23:59:27.06	227.91	31.33	-55.2	-57.3	18.1	0.00e+00	0	46	0	1017118720	60	28730
2026-01-29 23:59:28.07	227.82	31.14	-55.0	-57.1	18.3	0.00e+00	0	46	0	1018167296	60	27926
2026-01-29 23:59:29.07	227.73	30.95	-54.9	-56.9	18.5	0.00e+00	0	46	0	1020264448	60	27400
2026-01-29 23:59:30.08	227.64	30.75	-54.9	-57.0	18.3	0.00e+00	0	46	0	1022361600	60	27674
2026-01-29 23:59:31.08	227.55	30.56	-55.5	-57.8	17.6	0.00e+00	0	46	0	1024458752	60	30430
2026-01-29 23:59:32.09	227.46	30.37	-56.0	-58.7	16.6	0.00e+00	0	46	0	1026555904	60	33919
2026-01-29 23:59:33.10	227.37	30.19	-56.7	-60.0	15.5	0.00e+00	0	46	0	1027604480	60	39081
2026-01-29 23:59:34.10	227.29	30.00	-56.6	-59.7	15.7	0.00e+00	0	46	0	1029701632	60	37895
2026-01-29 23:59:35.11	227.20	29.81	-56.7	-60.0	15.3	0.00e+00	0	46	0	1031798784	60	39182
2026-01-29 23:59:36.12	227.12	29.63	-56.4	-59.4	16.0	0.00e+00	0	46	0	1033895936	60	36641
2026-01-29 23:59:37.13	227.04	29.44	-55.9	-58.6	16.7	0.00e+00	0	46	0	1035993088	60	33286
2026-01-29 23:59:38.14	226.95	29.26	-55.7	-58.2	17.1	0.00e+00	0	46	0	1037041664	60	31711
2026-01-29 23:59:39.15	226.87	29.08	-55.7	-58.2	17.1	0.00e+00	0	46	0	1039138816	60	31815
2026-01-29 23:59:40.15	226.79	28.90	-55.7	-58.3	17.0	0.00e+00	0	46	0	1041235968	60	32167
2026-01-29 23:59:41.15	226.71	28.72	-55.6	-58.1	17.0	0.00e+00	0	46	0	1043333120	60	31318
2026-01-29 23:59:42.16	226.64	28.54	-55.8	-58.5	16.7	0.00e+00	0	46	0	1045430272	60	32830
2026-01-29 23:59:43.17	226.56	28.37	-56.3	-59.1	16.2	0.00e+00	0	46	0	1046478848	60	35499
2026-01-29 23:59:44.17	226.48	28.19	-56.1	-58.8	16.3	0.00e+00	0	46	0	1048576000	60	34047
2026-01-29 23:59:45.18	226.41	28.02	-56.2	-59.0	16.5	0.00e+00	0	46	0	1050673152	60	35090
2026-01-29 23:59:46.18	226.33	27.84	-55.9	-58.6	17.1	0.00e+00	0	46	0	1052770304	60	33173
2026-01-29 23:59:47.19	226.26	27.67	-55.5	-58.0	17.1	0.00e+00	0	46	0	1054867456	60	31008
2026-01-29 23:59:48.20	226.18	27.50	-55.4	-57.7	17.6	0.00e+00	0	46	0	1055916032	60	30060
2026-01-29 23:59:49.21	226.11	27.33	-55.1	-57.3	18.3	0.00e+00	0	46	0	1058013184	60	28668
2026-01-29 23:59:50.22	226.04	27.16	-54.7	-56.8	18.2	0.00e+00	0	46	0	1060110336	60	27190
2026-01-29 23:59:51.23	225.97	26.99	-54.5	-56.5	18.6	0.00e+00	0	46	0	1062207488	60	26071
2026-01-29 23:59:52.23	225.90	26.82	-54.7	-56.8	18.3	0.00e+00	0	46	0	1064304640	60	27173
2026-01-29 23:59:53.24	225.83	26.65	-54.8	-56.9	18.3	0.00e+00	0	46	0	1065353216	60	27489
2026-01-29 23:59:54.24	225.76	26.49	-54.8	-57.0	18.3	0.00e+00	0	46	0	1067450368	60	27727
2026-01-29 23:59:55.25	225.69	26.32	-54.8	-57.0	18.0	0.00e+00	0	46	0	1069547520	60	27856
2026-01-29 23:59:56.25	225.63	26.16	-54.5	-56.6	18.4	0.00e+00	0	46	0	1071644672	60	26603
2026-01-29 23:59:57.25	225.56	26.00	-54.8	-57.0	18.1	0.00e+00	0	46	0	1073741824	60	27715
2026-01-29 23:59:58.26	225.50	25.83	-55.0	-57.4	18.0	0.00e+00	0	46	0	1074790400	60	28908
2026-01-29 23:59:59.27	225.43	25.67	-55.1	-57.5	17.6	0.00e+00	0	46	0	1076887552	60	29273
2026-01-30 00:00:00.27	225.37	25.51	-55.5	-58.0	17.2	0.00e+00	0	46	0	1078984704	60	31300
2026-01-30 00:00:01.28	225.30	25.35	-55.6	-58.1	17.0	0.00e+00	0	46	0	1081081856	60	31661
2026-01-30 00:00:02.29	225.24	25.19	-55.3	-57.7	17.5	0.00e+00	0	46	0	1083179008	60	29950
2026-01-30 00:00:03.30	225.18	25.04	-55.4	-57.8	17.5	0.00e+00	0	46	0	1084227584	60	30370
2026-01-30 00:00:04.30	225.12	24.88	-55.2	-57.4	17.6	0.00e+00	0	46	0	1086324736	60	29112
2026-01-30 00:00:05.31	225.06	24.72	-54.7	-56.8	18.4	0.00e+00	0	46	0	1088421888	60	26996
2026-01-30 00:00:06.32	225.00	24.57	-54.3	-56.2	18.8	0.00e+00	0	46	0	1090519040	60	25438
2026-01-30 00:00:07.33	224.94	24.41	-54.1	-56.0	19.1	0.00e+00	0	46	0	1092616192	60	24679
2026-01-30 00:00:08.34	224.88	24.26	-53.8	-55.5	19.6	0.00e+00	0	46	0	1094713344	60	23403
2026-01-30 00:00:09.34	224.82	24.11	-54.0	-55.7	19.3	0.00e+00	0	46	0	1095761920	60	23996
2026-01-30 00:00:10.35	224.76	23.96	-54.1	-55.9	19.2	0.00e+00	0	46	0	1097859072	60	24473
2026-01-30 00:00:11.36	224.70	23.81	-54.2	-56.0	19.0	0.00e+00	0	46	0	1099956224	60	24820
2026-01-30 00:00:12.37	224.65	23.66	-54.7	-56.8	18.4	0.00e+00	0	46	0	1102053376	60	26988
2026-01-30 00:00:13.37	224.59	23.51	-54.7	-56.8	17.9	0.00e+00	0	46	0	1103101952	60	27181
2026-01-30 00:00:14.37	224.54	23.36	-54.9	-57.1	18.0	0.00e+00	0	46	0	1105199104	60	28061
2026-01-30 00:00:15.38	224.48	23.21	-55.1	-57.3	17.6	0.00e+00	0	46	0	1107296256	60	28867
2026-01-30 00:00:16.39	224.43	23.07	-55.5	-58.0	17.3	0.00e+00	0	46	0	1109393408	60	30989
2026-01-30 00:00:17.39	224.37	22.92	-55.1	-57.4	17.7	0.00e+00	0	46	0	1111490560	60	29079
2026-01-30 00:00:18.40	224.32	22.78	-55.2	-57.5	17.7	0.00e+00	0	46	0	1112539136	60	29476
2026-01-30 00:00:19.41	224.27	22.63	-54.9	-57.1	17.9	0.00e+00	0	46	0	1114636288	60	28039
2026-01-30 00:00:20.42	224.21	22.49	-54.7	-56.9	18.3	0.00e+00	0	46	0	1116733440	60	27442
2026-01-30 00:00:21.43	224.16	22.35	-54.7	-56.9	18.2	0.00e+00	0	46	0	1118830592	60	27370
2026-01-30 00:00:22.43	224.11	22.20	-54.5	-56.7	18.5	0.00e+00	0	46	0	1120927744	60	26693
2026-01-30 00:00:23.44	224.06	22.06	-54.1	-56.0	18.9	0.00e+00	0	46	0	1123024896	60	24754
2026-01-30 00:00:24.45	224.01	21.92	-54.1	-56.2	18.8	0.00e+00	0	46	0	1124073472	60	25170
2026-01-30 00:00:25.45	223.96	21.78	-53.9	-55.9	19.1	0.00e+00	0	46	0	1126170624	60	24447
2026-01-30 00:00:26.46	223.91	21.64	-54.0	-56.0	18.9	0.00e+00	0	46	0	1128267776	60	24804
2026-01-30 00:00:27.46	223.86	21.51	-54.2	-56.3	18.6	0.00e+00	0	46	0	1130364928	60	25568
2026-01-30 00:00:28.47	223.81	21.37	-54.4	-56.6	18.3	0.00e+00	0	46	0	1131413504	60	26355
2026-01-30 00:00:29.47	223.76	21.23	-54.2	-56.3	18.6	0.00e+00	0	46	0	1133510656	60	25701
2026-01-30 00:00:30.48	223.72	21.10	-54.5	-56.7	18.1	0.00e+00	0	46	0	1135607808	60	26884
2026-01-30 00:00:31.48	223.67	20.96	-54.5	-56.8	18.0	0.00e+00	0	46	0	1137704960	60	27028
2026-01-30 00:00:32.48	223.62	20.83	-54.4	-56.7	18.2	0.00e+00	0	46	0	1139802112	60	26716
2026-01-30 00:00:33.49	223.58	20.70	-54.6	-56.9	17.9	0.00e+00	0	46	0	1140850688	60	27556
2026-01-30 00:00:34.49	223.53	20.56	-54.6	-57.0	17.9	0.00e+00	0	46	0	1142947840	60	27679
2026-01-30 00:00:35.49	223.49	20.43	-54.4	-56.7	18.1	0.00e+00	0	46	0	1145044992	60	26703
2026-01-30 00:00:36.49	223.44	20.30	-54.3	-56.5	18.3	0.00e+00	0	46	0	1147142144	60	26091
2026-01-30 00:00:37.49	223.40	20.17	-54.4	-56.5	18.2	0.00e+00	0	46	0	1149239296	60	26317
2026-01-30 00:00:38.50	223.35	20.04	-54.0	-56.0	18.7	0.00e+00	0	46	0	1150287872	60	24730
2026-01-30 00:00:39.51	223.31	19.91	-53.8	-55.7	18.9	0.00e+00	0	46	0	1152385024	60	23939
2026-01-30 00:00:40.51	223.27	19.78	-54.0	-56.0	18.6	0.00e+00	0	46	0	1154482176	60	24721
