passes_logs/2025/01/10/SPB_Silybum_02/SPB_Silybum_02__20250110_191122_TERRA_rec.log

#Pass ID: 20250110_191122_TERRA
#Satellite: TERRA
#Configuration: TERRA
#Start time: 2025-01-10 19:11:21

#Version: 2.0.20230423
#Station: SPB_Silybum_02
#Location: 30.233357 lon 59.946436 lat
#TLE: 1 25994U 99068A   25009.84464495  .00000861  00000+0  18726-3 0  9992
#TLE: 2 25994  98.0226  73.0387 0003560  82.8900 338.1382 14.60385144333325

#Time	Az	El	Level	Level2	SNR	BER	Gain	Gain2
2025-01-10 19:11:23.07	182.07	4.05	
2025-01-10 19:11:23.27	182.08	4.06	
2025-01-10 19:11:23.48	182.09	4.08	
2025-01-10 19:11:23.68	182.10	4.09	
2025-01-10 19:11:23.89	182.11	4.10	
2025-01-10 19:11:24.09	182.11	4.12	
2025-01-10 19:11:24.30	182.12	4.13	
2025-01-10 19:11:24.50	182.13	4.15	
2025-01-10 19:11:24.71	182.14	4.16	
2025-01-10 19:11:24.91	182.15	4.18	
2025-01-10 19:11:25.12	182.16	4.19	
2025-01-10 19:11:25.32	182.17	4.21	
2025-01-10 19:11:25.53	182.17	4.22	
2025-01-10 19:11:25.73	182.18	4.23	
2025-01-10 19:11:25.94	182.19	4.25	
2025-01-10 19:11:26.14	182.20	4.26	
2025-01-10 19:11:26.35	182.21	4.28	
2025-01-10 19:11:26.55	182.22	4.29	
2025-01-10 19:11:26.76	182.23	4.31	
2025-01-10 19:11:26.96	182.23	4.32	
2025-01-10 19:11:27.17	182.24	4.34	
2025-01-10 19:11:27.37	182.25	4.35	
2025-01-10 19:11:27.58	182.26	4.36	
2025-01-10 19:11:27.78	182.27	4.38	
2025-01-10 19:11:28.00	182.28	4.39	
2025-01-10 19:11:28.21	182.29	4.41	
2025-01-10 19:11:28.41	182.30	4.42	
2025-01-10 19:11:28.62	182.31	4.44	
2025-01-10 19:11:28.82	182.31	4.45	
2025-01-10 19:11:29.03	182.32	4.47	
2025-01-10 19:11:29.24	182.33	4.48	
2025-01-10 19:11:29.44	182.34	4.50	
2025-01-10 19:11:29.65	182.35	4.51	
2025-01-10 19:11:29.85	182.36	4.53	
2025-01-10 19:11:30.05	182.37	4.54	
2025-01-10 19:11:30.26	182.38	4.56	
2025-01-10 19:11:30.46	182.38	4.57	
2025-01-10 19:11:30.67	182.39	4.58	
2025-01-10 19:11:30.87	182.40	4.60	
2025-01-10 19:11:31.08	182.41	4.61	
2025-01-10 19:11:31.28	182.42	4.63	
2025-01-10 19:11:31.49	182.43	4.64	
2025-01-10 19:11:31.70	182.44	4.66	
2025-01-10 19:11:31.90	182.45	4.67	
2025-01-10 19:11:32.10	182.45	4.69	
2025-01-10 19:11:32.31	182.46	4.70	
2025-01-10 19:11:32.51	182.47	4.72	
2025-01-10 19:11:32.72	182.48	4.73	
2025-01-10 19:11:32.93	182.49	4.75	
2025-01-10 19:11:33.13	182.50	4.76	
2025-01-10 19:11:33.34	182.51	4.78	
2025-01-10 19:11:33.54	182.52	4.79	
2025-01-10 19:11:33.75	182.53	4.81	
2025-01-10 19:11:33.95	182.54	4.82	
2025-01-10 19:11:34.16	182.54	4.84	
2025-01-10 19:11:34.36	182.55	4.85	
2025-01-10 19:11:34.57	182.56	4.87	
2025-01-10 19:11:34.77	182.57	4.88	
2025-01-10 19:11:34.98	182.58	4.89	
2025-01-10 19:11:35.18	182.59	4.91	
2025-01-10 19:11:35.39	182.60	4.92	
2025-01-10 19:11:35.59	182.61	4.94	
2025-01-10 19:11:35.80	182.62	4.95	
2025-01-10 19:11:36.01	182.63	4.97	
2025-01-10 19:11:36.21	182.63	4.98	
2025-01-10 19:11:36.41	182.64	5.00	
2025-01-10 19:11:36.62	182.65	5.01	
2025-01-10 19:11:36.83	182.66	5.03	
2025-01-10 19:11:37.03	182.67	5.04	
2025-01-10 19:11:37.24	182.68	5.06	
2025-01-10 19:11:37.44	182.69	5.07	
2025-01-10 19:11:37.65	182.70	5.09	
2025-01-10 19:11:37.86	182.71	5.10	
2025-01-10 19:11:38.06	182.72	5.12	
2025-01-10 19:11:38.27	182.73	5.13	
2025-01-10 19:11:38.47	182.73	5.15	
2025-01-10 19:11:38.68	182.74	5.16	
2025-01-10 19:11:38.88	182.75	5.18	
2025-01-10 19:11:39.09	182.76	5.19	
2025-01-10 19:11:39.29	182.77	5.21	
2025-01-10 19:11:39.50	182.78	5.22	
2025-01-10 19:11:39.70	182.79	5.24	
2025-01-10 19:11:39.91	182.80	5.25	
2025-01-10 19:11:40.11	182.81	5.27	
2025-01-10 19:11:40.32	182.82	5.28	
2025-01-10 19:11:40.52	182.83	5.30	
2025-01-10 19:11:40.73	182.84	5.31	
2025-01-10 19:11:40.93	182.85	5.33	
2025-01-10 19:11:41.14	182.86	5.34	
2025-01-10 19:11:41.35	182.86	5.36	
2025-01-10 19:11:41.55	182.87	5.37	
2025-01-10 19:11:41.75	182.88	5.39	
2025-01-10 19:11:41.96	182.89	5.40	
2025-01-10 19:11:42.17	182.90	5.42	
2025-01-10 19:11:42.37	182.91	5.43	
2025-01-10 19:11:42.58	182.92	5.45	
2025-01-10 19:11:42.78	182.93	5.47	
2025-01-10 19:11:42.99	182.94	5.48	
2025-01-10 19:11:43.19	182.95	5.50	
2025-01-10 19:11:43.40	182.96	5.51	
2025-01-10 19:11:43.60	182.97	5.53	
2025-01-10 19:11:43.81	182.98	5.54	
2025-01-10 19:11:44.01	182.99	5.56	
2025-01-10 19:11:44.22	183.00	5.57	
2025-01-10 19:11:44.42	183.01	5.59	
2025-01-10 19:11:44.62	183.01	5.60	
2025-01-10 19:11:44.83	183.02	5.62	
2025-01-10 19:11:45.03	183.03	5.63	
2025-01-10 19:11:45.24	183.04	5.65	
2025-01-10 19:11:45.44	183.05	5.66	
2025-01-10 19:11:45.65	183.06	5.68	
2025-01-10 19:11:45.86	183.07	5.69	
2025-01-10 19:11:46.06	183.08	5.71	
2025-01-10 19:11:46.26	183.09	5.72	
2025-01-10 19:11:46.47	183.10	5.74	
2025-01-10 19:11:46.68	183.11	5.76	
2025-01-10 19:11:46.88	183.12	5.77	
2025-01-10 19:11:47.08	183.13	5.79	
2025-01-10 19:11:47.29	183.14	5.80	
2025-01-10 19:11:47.50	183.15	5.82	
2025-01-10 19:11:47.70	183.16	5.83	
2025-01-10 19:11:47.91	183.17	5.85	
2025-01-10 19:11:48.11	183.18	5.86	
2025-01-10 19:11:48.32	183.19	5.88	
2025-01-10 19:11:48.52	183.20	5.89	
2025-01-10 19:11:48.73	183.21	5.91	
2025-01-10 19:11:48.93	183.22	5.92	
2025-01-10 19:11:49.14	183.23	5.94	
2025-01-10 19:11:49.34	183.23	5.96	
2025-01-10 19:11:49.55	183.24	5.97	
2025-01-10 19:11:49.75	183.25	5.99	
2025-01-10 19:11:49.96	183.26	6.00	
2025-01-10 19:11:50.17	183.27	6.02	
2025-01-10 19:11:50.37	183.28	6.03	
2025-01-10 19:11:50.57	183.29	6.05	
2025-01-10 19:11:50.78	183.30	6.06	
2025-01-10 19:11:50.99	183.31	6.08	
2025-01-10 19:11:51.19	183.32	6.10	
2025-01-10 19:11:51.40	183.33	6.11	
2025-01-10 19:11:51.60	183.34	6.13	
2025-01-10 19:11:51.81	183.35	6.14	
2025-01-10 19:11:52.01	183.36	6.16	
2025-01-10 19:11:52.22	183.37	6.17	
2025-01-10 19:11:52.42	183.38	6.19	
2025-01-10 19:11:52.63	183.39	6.21	
2025-01-10 19:11:52.83	183.40	6.22	
2025-01-10 19:11:53.04	183.41	6.24	
2025-01-10 19:11:53.25	183.42	6.25	
2025-01-10 19:11:53.45	183.43	6.27	
2025-01-10 19:11:53.66	183.44	6.28	
2025-01-10 19:11:53.86	183.45	6.30	
2025-01-10 19:11:54.07	183.46	6.32	
2025-01-10 19:11:54.27	183.47	6.33	
2025-01-10 19:11:54.48	183.48	6.35	
2025-01-10 19:11:54.68	183.49	6.36	
2025-01-10 19:11:54.89	183.50	6.38	
2025-01-10 19:11:55.09	183.51	6.39	
2025-01-10 19:11:55.30	183.52	6.41	
2025-01-10 19:11:55.51	183.53	6.43	
2025-01-10 19:11:55.71	183.54	6.44	
2025-01-10 19:11:55.91	183.55	6.46	
2025-01-10 19:11:56.12	183.56	6.47	
2025-01-10 19:11:56.33	183.57	6.49	
2025-01-10 19:11:56.53	183.58	6.50	
2025-01-10 19:11:56.73	183.59	6.52	
2025-01-10 19:11:56.94	183.60	6.54	
2025-01-10 19:11:57.14	183.61	6.55	
2025-01-10 19:11:57.35	183.62	6.57	
2025-01-10 19:11:57.56	183.63	6.58	
2025-01-10 19:11:57.76	183.64	6.60	
2025-01-10 19:11:57.97	183.65	6.62	
2025-01-10 19:11:58.17	183.66	6.63	
2025-01-10 19:11:58.38	183.67	6.65	
2025-01-10 19:11:58.58	183.68	6.66	
2025-01-10 19:11:58.79	183.69	6.68	
2025-01-10 19:11:58.99	183.70	6.69	
2025-01-10 19:11:59.20	183.71	6.71	
2025-01-10 19:11:59.40	183.72	6.73	
2025-01-10 19:11:59.61	183.73	6.74	
2025-01-10 19:11:59.81	183.74	6.76	
2025-01-10 19:12:00.02	183.75	6.77	
2025-01-10 19:12:00.22	183.76	6.79	
2025-01-10 19:12:00.43	183.78	6.81	
2025-01-10 19:12:00.63	183.79	6.82	
2025-01-10 19:12:00.84	183.80	6.84	
2025-01-10 19:12:01.06	183.81	6.86	
2025-01-10 19:12:01.26	183.82	6.87	
2025-01-10 19:12:01.47	183.83	6.89	
2025-01-10 19:12:01.67	183.84	6.90	
2025-01-10 19:12:01.88	183.85	6.92	
2025-01-10 19:12:02.08	183.86	6.94	
2025-01-10 19:12:02.29	183.87	6.95	
2025-01-10 19:12:02.49	183.88	6.97	
2025-01-10 19:12:02.70	183.89	6.98	
2025-01-10 19:12:02.90	183.90	7.00	
2025-01-10 19:12:03.11	183.91	7.02	
2025-01-10 19:12:03.31	183.92	7.03	
2025-01-10 19:12:03.52	183.93	7.05	
2025-01-10 19:12:03.72	183.94	7.07	
2025-01-10 19:12:03.93	183.95	7.08	
2025-01-10 19:12:04.13	183.96	7.10	
2025-01-10 19:12:04.34	183.97	7.11	
2025-01-10 19:12:04.54	183.98	7.13	
2025-01-10 19:12:04.75	183.99	7.15	
2025-01-10 19:12:04.95	184.00	7.16	
2025-01-10 19:12:05.16	184.02	7.18	
2025-01-10 19:12:05.38	184.03	7.20	
2025-01-10 19:12:05.58	184.04	7.21	
2025-01-10 19:12:05.79	184.05	7.23	
2025-01-10 19:12:06.00	184.06	7.25	
2025-01-10 19:12:06.20	184.07	7.26	
2025-01-10 19:12:06.42	184.08	7.28	
2025-01-10 19:12:06.63	184.09	7.30	
2025-01-10 19:12:06.83	184.10	7.31	
2025-01-10 19:12:07.04	184.11	7.33	
2025-01-10 19:12:07.24	184.12	7.34	
2025-01-10 19:12:07.45	184.13	7.36	
2025-01-10 19:12:07.65	184.14	7.38	
2025-01-10 19:12:07.86	184.16	7.39	
2025-01-10 19:12:08.06	184.17	7.41	
2025-01-10 19:12:08.27	184.18	7.43	
2025-01-10 19:12:08.47	184.19	7.44	
2025-01-10 19:12:08.68	184.20	7.46	
2025-01-10 19:12:08.88	184.21	7.48	
2025-01-10 19:12:09.09	184.22	7.49	
2025-01-10 19:12:09.29	184.23	7.51	
2025-01-10 19:12:09.50	184.24	7.53	
2025-01-10 19:12:09.70	184.25	7.54	
2025-01-10 19:12:09.91	184.26	7.56	
2025-01-10 19:12:10.12	184.27	7.58	
2025-01-10 19:12:10.32	184.29	7.59	
2025-01-10 19:12:10.53	184.30	7.61	
2025-01-10 19:12:10.74	184.31	7.63	
2025-01-10 19:12:10.95	184.32	7.64	
2025-01-10 19:12:11.16	184.33	7.66	
2025-01-10 19:12:11.36	184.34	7.68	
2025-01-10 19:12:11.57	184.35	7.69	
2025-01-10 19:12:11.77	184.36	7.71	
2025-01-10 19:12:11.98	184.37	7.73	
2025-01-10 19:12:12.18	184.38	7.74	
2025-01-10 19:12:12.39	184.40	7.76	
2025-01-10 19:12:12.59	184.41	7.78	
2025-01-10 19:12:12.79	184.42	7.79	
2025-01-10 19:12:13.00	184.43	7.81	
2025-01-10 19:12:13.21	184.44	7.83	
2025-01-10 19:12:13.41	184.45	7.84	
2025-01-10 19:12:13.61	184.46	7.86	
2025-01-10 19:12:13.82	184.47	7.88	
2025-01-10 19:12:14.02	184.48	7.89	
2025-01-10 19:12:14.23	184.49	7.91	
2025-01-10 19:12:14.43	184.51	7.93	
2025-01-10 19:12:14.64	184.52	7.94	
2025-01-10 19:12:14.84	184.53	7.96	
2025-01-10 19:12:15.05	184.54	7.98	
2025-01-10 19:12:15.26	184.55	7.99	
2025-01-10 19:12:15.46	184.56	8.01	
2025-01-10 19:12:15.66	184.57	8.03	
2025-01-10 19:12:15.87	184.58	8.04	
2025-01-10 19:12:16.08	184.60	8.06	
2025-01-10 19:12:16.28	184.61	8.08	
2025-01-10 19:12:16.48	184.62	8.09	
2025-01-10 19:12:16.69	184.63	8.11	
2025-01-10 19:12:16.90	184.64	8.13	
2025-01-10 19:12:17.10	184.65	8.14	
2025-01-10 19:12:17.30	184.66	8.16	
2025-01-10 19:12:17.51	184.67	8.18	
2025-01-10 19:12:17.72	184.69	8.20	
2025-01-10 19:12:17.92	184.70	8.21	
2025-01-10 19:12:18.12	184.71	8.23	
2025-01-10 19:12:18.33	184.72	8.25	
2025-01-10 19:12:18.54	184.73	8.26	
2025-01-10 19:12:18.74	184.74	8.28	
2025-01-10 19:12:18.95	184.75	8.30	
2025-01-10 19:12:19.15	184.77	8.31	
2025-01-10 19:12:19.36	184.78	8.33	
2025-01-10 19:12:19.56	184.79	8.35	
2025-01-10 19:12:19.77	184.80	8.37	
2025-01-10 19:12:19.97	184.81	8.38	
2025-01-10 19:12:20.18	184.82	8.40	
2025-01-10 19:12:20.38	184.83	8.42	
2025-01-10 19:12:20.59	184.85	8.43	
2025-01-10 19:12:20.80	184.86	8.45	
2025-01-10 19:12:21.00	184.87	8.47	
2025-01-10 19:12:21.20	184.88	8.49	
2025-01-10 19:12:21.41	184.89	8.50	
2025-01-10 19:12:21.61	184.90	8.52	
2025-01-10 19:12:21.82	184.92	8.54	
2025-01-10 19:12:22.02	184.93	8.55	
2025-01-10 19:12:22.23	184.94	8.57	
2025-01-10 19:12:22.43	184.95	8.59	
2025-01-10 19:12:22.64	184.96	8.61	
2025-01-10 19:12:22.84	184.97	8.62	
2025-01-10 19:12:23.05	184.99	8.64	
2025-01-10 19:12:23.26	185.00	8.66	
2025-01-10 19:12:23.46	185.01	8.68	
2025-01-10 19:12:23.66	185.02	8.69	
2025-01-10 19:12:23.87	185.03	8.71	
2025-01-10 19:12:24.08	185.04	8.73	
2025-01-10 19:12:24.28	185.06	8.74	
2025-01-10 19:12:24.49	185.07	8.76	
2025-01-10 19:12:24.69	185.08	8.78	
2025-01-10 19:12:24.90	185.09	8.80	
2025-01-10 19:12:25.10	185.10	8.81	
2025-01-10 19:12:25.31	185.12	8.83	
2025-01-10 19:12:25.51	185.13	8.85	
2025-01-10 19:12:25.72	185.14	8.87	
2025-01-10 19:12:25.92	185.15	8.88	
2025-01-10 19:12:26.13	185.16	8.90	
2025-01-10 19:12:26.33	185.17	8.92	
2025-01-10 19:12:26.53	185.19	8.94	
2025-01-10 19:12:26.74	185.20	8.95	
2025-01-10 19:12:26.94	185.21	8.97	
2025-01-10 19:12:27.15	185.22	8.99	
2025-01-10 19:12:27.36	185.23	9.01	
2025-01-10 19:12:27.56	185.25	9.02	
2025-01-10 19:12:27.77	185.26	9.04	
2025-01-10 19:12:27.97	185.27	9.06	
2025-01-10 19:12:28.18	185.28	9.08	
2025-01-10 19:12:28.38	185.29	9.09	
2025-01-10 19:12:28.59	185.31	9.11	
2025-01-10 19:12:28.81	185.32	9.13	
2025-01-10 19:12:29.01	185.33	9.15	
2025-01-10 19:12:29.22	185.34	9.17	
2025-01-10 19:12:29.43	185.36	9.18	
2025-01-10 19:12:29.63	185.37	9.20	
2025-01-10 19:12:29.83	185.38	9.22	
2025-01-10 19:12:30.04	185.39	9.24	
2025-01-10 19:12:30.25	185.41	9.25	
2025-01-10 19:12:30.45	185.42	9.27	
2025-01-10 19:12:30.66	185.43	9.29	
2025-01-10 19:12:30.86	185.44	9.31	
2025-01-10 19:12:31.07	185.45	9.33	
2025-01-10 19:12:31.27	185.47	9.34	
2025-01-10 19:12:31.48	185.48	9.36	
2025-01-10 19:12:31.68	185.49	9.38	
2025-01-10 19:12:31.89	185.50	9.40	
2025-01-10 19:12:32.09	185.52	9.41	
2025-01-10 19:12:32.30	185.53	9.43	
2025-01-10 19:12:32.50	185.54	9.45	
2025-01-10 19:12:32.71	185.55	9.47	
2025-01-10 19:12:32.92	185.57	9.49	
2025-01-10 19:12:33.12	185.58	9.50	
2025-01-10 19:12:33.33	185.59	9.52	
2025-01-10 19:12:33.53	185.60	9.54	
2025-01-10 19:12:33.74	185.62	9.56	
2025-01-10 19:12:33.95	185.63	9.58	
2025-01-10 19:12:34.15	185.64	9.59	
2025-01-10 19:12:34.36	185.65	9.61	
2025-01-10 19:12:34.56	185.67	9.63	
2025-01-10 19:12:34.77	185.68	9.65	
2025-01-10 19:12:34.97	185.69	9.67	
2025-01-10 19:12:35.19	185.70	9.69	
2025-01-10 19:12:35.39	185.72	9.70	
2025-01-10 19:12:35.60	185.73	9.72	
2025-01-10 19:12:35.80	185.74	9.74	
2025-01-10 19:12:36.01	185.75	9.76	
2025-01-10 19:12:36.21	185.77	9.78	
2025-01-10 19:12:36.42	185.78	9.79	
2025-01-10 19:12:36.63	185.79	9.81	
2025-01-10 19:12:36.83	185.80	9.83	
2025-01-10 19:12:37.04	185.82	9.85	
2025-01-10 19:12:37.24	185.83	9.87	
2025-01-10 19:12:37.44	185.84	9.88	
2025-01-10 19:12:37.65	185.86	9.90	
2025-01-10 19:12:37.86	185.87	9.92	
2025-01-10 19:12:38.06	185.88	9.94	
2025-01-10 19:12:38.27	185.89	9.96	
2025-01-10 19:12:38.47	185.91	9.98	
2025-01-10 19:12:38.68	185.92	9.99	
2025-01-10 19:12:38.88	185.93	10.01	
2025-01-10 19:12:39.09	185.95	10.03	
2025-01-10 19:12:39.30	185.96	10.05	
2025-01-10 19:12:39.50	185.97	10.07	
2025-01-10 19:12:39.71	185.99	10.09	
2025-01-10 19:12:39.91	186.00	10.10	
2025-01-10 19:12:40.12	186.01	10.12	
2025-01-10 19:12:40.32	186.02	10.14	
2025-01-10 19:12:40.53	186.04	10.16	
2025-01-10 19:12:40.73	186.05	10.18	
2025-01-10 19:12:40.93	186.06	10.20	
2025-01-10 19:12:41.14	186.08	10.21	
2025-01-10 19:12:41.35	186.09	10.23	
2025-01-10 19:12:41.55	186.10	10.25	
2025-01-10 19:12:41.76	186.12	10.27	
2025-01-10 19:12:41.96	186.13	10.29	
2025-01-10 19:12:42.17	186.14	10.31	
2025-01-10 19:12:42.37	186.15	10.33	
2025-01-10 19:12:42.58	186.17	10.34	
2025-01-10 19:12:42.78	186.18	10.36	
2025-01-10 19:12:42.99	186.19	10.38	
2025-01-10 19:12:43.19	186.21	10.40	
2025-01-10 19:12:43.40	186.22	10.42	
2025-01-10 19:12:43.61	186.23	10.44	
2025-01-10 19:12:43.81	186.25	10.46	
2025-01-10 19:12:44.01	186.26	10.47	
2025-01-10 19:12:44.22	186.27	10.49	
2025-01-10 19:12:44.42	186.29	10.51	
2025-01-10 19:12:44.63	186.30	10.53	
2025-01-10 19:12:44.83	186.31	10.55	
2025-01-10 19:12:45.04	186.33	10.57	
2025-01-10 19:12:45.25	186.34	10.59	
2025-01-10 19:12:45.45	186.35	10.61	
2025-01-10 19:12:45.66	186.37	10.62	
2025-01-10 19:12:45.86	186.38	10.64	
2025-01-10 19:12:46.06	186.39	10.66	
2025-01-10 19:12:46.27	186.41	10.68	
2025-01-10 19:12:46.47	186.42	10.70	
2025-01-10 19:12:46.68	186.43	10.72	
2025-01-10 19:12:46.88	186.45	10.74	
2025-01-10 19:12:47.09	186.46	10.76	
2025-01-10 19:12:47.29	186.48	10.77	
2025-01-10 19:12:47.50	186.49	10.79	
2025-01-10 19:12:47.70	186.50	10.81	
2025-01-10 19:12:47.91	186.52	10.83	
2025-01-10 19:12:48.11	186.53	10.85	
2025-01-10 19:12:48.32	186.54	10.87	
2025-01-10 19:12:48.52	186.56	10.89	
2025-01-10 19:12:48.73	186.57	10.91	
2025-01-10 19:12:48.94	186.58	10.93	
2025-01-10 19:12:49.14	186.60	10.94	
2025-01-10 19:12:49.34	186.61	10.96	
2025-01-10 19:12:49.55	186.63	10.98	
2025-01-10 19:12:49.76	186.64	11.00	
2025-01-10 19:12:49.96	186.65	11.02	
2025-01-10 19:12:50.17	186.67	11.04	
2025-01-10 19:12:50.37	186.68	11.06	
2025-01-10 19:12:50.58	186.70	11.08	
2025-01-10 19:12:50.78	186.71	11.10	
2025-01-10 19:12:50.99	186.72	11.12	
2025-01-10 19:12:51.19	186.74	11.14	
2025-01-10 19:12:51.40	186.75	11.16	
2025-01-10 19:12:51.60	186.76	11.17	
2025-01-10 19:12:51.81	186.78	11.19	
2025-01-10 19:12:52.01	186.79	11.21	
2025-01-10 19:12:52.23	186.81	11.23	
2025-01-10 19:12:52.44	186.82	11.25	
2025-01-10 19:12:52.64	186.84	11.27	
2025-01-10 19:12:52.85	186.85	11.29	
2025-01-10 19:12:53.05	186.86	11.31	
2025-01-10 19:12:53.26	186.88	11.33	
2025-01-10 19:12:53.46	186.89	11.35	
2025-01-10 19:12:53.67	186.91	11.37	
2025-01-10 19:12:53.87	186.92	11.39	
2025-01-10 19:12:54.08	186.93	11.41	
2025-01-10 19:12:54.28	186.95	11.43	
2025-01-10 19:12:54.50	186.96	11.45	
2025-01-10 19:12:54.71	186.98	11.47	
2025-01-10 19:12:54.91	186.99	11.49	
2025-01-10 19:12:55.12	187.01	11.51	
2025-01-10 19:12:55.32	187.02	11.52	
2025-01-10 19:12:55.54	187.04	11.55	
2025-01-10 19:12:55.75	187.05	11.57	
2025-01-10 19:12:55.95	187.06	11.58	
2025-01-10 19:12:56.16	187.08	11.60	
2025-01-10 19:12:56.37	187.09	11.62	
2025-01-10 19:12:56.57	187.11	11.64	
2025-01-10 19:12:56.77	187.12	11.66	
2025-01-10 19:12:56.98	187.14	11.68	
2025-01-10 19:12:57.18	187.15	11.70	
2025-01-10 19:12:57.39	187.17	11.72	
2025-01-10 19:12:57.61	187.18	11.74	
2025-01-10 19:12:57.81	187.20	11.76	
2025-01-10 19:12:58.02	187.21	11.78	
2025-01-10 19:12:58.22	187.23	11.80	
2025-01-10 19:12:58.43	187.24	11.82	
2025-01-10 19:12:58.63	187.25	11.84	
2025-01-10 19:12:58.84	187.27	11.86	
2025-01-10 19:12:59.05	187.28	11.88	
2025-01-10 19:12:59.25	187.30	11.90	
2025-01-10 19:12:59.46	187.31	11.92	
2025-01-10 19:12:59.66	187.33	11.94	
2025-01-10 19:12:59.86	187.34	11.96	
2025-01-10 19:13:00.07	187.36	11.98	
2025-01-10 19:13:00.27	187.37	12.00	
2025-01-10 19:13:00.48	187.39	12.02	
2025-01-10 19:13:00.68	187.40	12.04	
2025-01-10 19:13:00.90	187.42	12.06	
2025-01-10 19:13:01.11	187.43	12.08	
2025-01-10 19:13:01.31	187.45	12.10	
2025-01-10 19:13:01.52	187.46	12.12	
2025-01-10 19:13:01.72	187.48	12.14	
2025-01-10 19:13:01.92	187.49	12.16	
2025-01-10 19:13:02.13	187.51	12.18	
2025-01-10 19:13:02.34	187.52	12.20	
2025-01-10 19:13:02.54	187.54	12.22	
2025-01-10 19:13:02.75	187.55	12.24	
2025-01-10 19:13:02.95	187.57	12.26	
2025-01-10 19:13:03.16	187.58	12.28	
2025-01-10 19:13:03.36	187.60	12.30	
2025-01-10 19:13:03.57	187.61	12.32	
2025-01-10 19:13:03.77	187.63	12.34	
2025-01-10 19:13:03.98	187.64	12.36	
2025-01-10 19:13:04.19	187.66	12.38	
2025-01-10 19:13:04.40	187.67	12.40	
2025-01-10 19:13:04.60	187.69	12.42	
2025-01-10 19:13:04.81	187.70	12.44	
2025-01-10 19:13:05.01	187.72	12.46	
2025-01-10 19:13:05.22	187.73	12.48	
2025-01-10 19:13:05.42	187.75	12.50	
2025-01-10 19:13:05.63	187.77	12.52	
2025-01-10 19:13:05.83	187.78	12.54	
2025-01-10 19:13:06.04	187.80	12.56	
2025-01-10 19:13:06.25	187.81	12.59	
2025-01-10 19:13:06.46	187.83	12.61	
2025-01-10 19:13:06.67	187.84	12.63	
2025-01-10 19:13:06.87	187.86	12.65	
2025-01-10 19:13:07.08	187.87	12.67	
2025-01-10 19:13:07.28	187.89	12.69	
2025-01-10 19:13:07.49	187.91	12.71	
2025-01-10 19:13:07.69	187.92	12.73	
2025-01-10 19:13:07.90	187.94	12.75	
2025-01-10 19:13:08.11	187.95	12.77	
2025-01-10 19:13:08.31	187.97	12.79	
2025-01-10 19:13:08.52	187.98	12.81	
2025-01-10 19:13:08.72	188.00	12.83	
2025-01-10 19:13:08.93	188.01	12.85	
2025-01-10 19:13:09.14	188.03	12.87	
2025-01-10 19:13:09.34	188.05	12.89	
2025-01-10 19:13:09.55	188.06	12.91	
2025-01-10 19:13:09.75	188.08	12.94	
2025-01-10 19:13:09.96	188.09	12.96	
2025-01-10 19:13:10.16	188.11	12.98	
2025-01-10 19:13:10.37	188.13	13.00	
2025-01-10 19:13:10.57	188.14	13.02	
2025-01-10 19:13:10.78	188.16	13.04	
2025-01-10 19:13:10.98	188.17	13.06	
2025-01-10 19:13:11.19	188.19	13.08	
2025-01-10 19:13:11.39	188.20	13.10	
2025-01-10 19:13:11.59	188.22	13.12	
2025-01-10 19:13:11.80	188.24	13.14	
2025-01-10 19:13:12.01	188.25	13.16	
2025-01-10 19:13:12.21	188.27	13.18	
2025-01-10 19:13:12.42	188.29	13.21	
2025-01-10 19:13:12.62	188.30	13.23	
2025-01-10 19:13:12.83	188.32	13.25	
2025-01-10 19:13:13.03	188.33	13.27	
2025-01-10 19:13:13.24	188.35	13.29	
2025-01-10 19:13:13.44	188.37	13.31	
2025-01-10 19:13:13.65	188.38	13.33	
2025-01-10 19:13:13.85	188.40	13.35	
2025-01-10 19:13:14.06	188.41	13.37	
2025-01-10 19:13:14.26	188.43	13.39	
2025-01-10 19:13:14.47	188.45	13.41	
2025-01-10 19:13:14.67	188.46	13.44	
2025-01-10 19:13:14.88	188.48	13.46	
2025-01-10 19:13:15.08	188.50	13.48	
2025-01-10 19:13:15.29	188.51	13.50	
2025-01-10 19:13:15.49	188.53	13.52	
2025-01-10 19:13:15.70	188.55	13.54	
2025-01-10 19:13:15.90	188.56	13.56	
2025-01-10 19:13:16.11	188.58	13.58	
2025-01-10 19:13:16.31	188.59	13.60	
2025-01-10 19:13:16.52	188.61	13.63	
2025-01-10 19:13:16.72	188.63	13.65	
2025-01-10 19:13:16.92	188.64	13.67	
2025-01-10 19:13:17.13	188.66	13.69	
2025-01-10 19:13:17.34	188.68	13.71	
2025-01-10 19:13:17.54	188.69	13.73	
2025-01-10 19:13:17.75	188.71	13.75	
2025-01-10 19:13:17.95	188.73	13.77	
2025-01-10 19:13:18.16	188.74	13.80	
2025-01-10 19:13:18.36	188.76	13.82	
2025-01-10 19:13:18.57	188.78	13.84	
2025-01-10 19:13:18.78	188.80	13.86	
2025-01-10 19:13:18.98	188.81	13.88	
2025-01-10 19:13:19.18	188.83	13.90	
2025-01-10 19:13:19.39	188.85	13.93	
2025-01-10 19:13:19.59	188.86	13.95	
2025-01-10 19:13:19.80	188.88	13.97	
2025-01-10 19:13:20.00	188.90	13.99	
2025-01-10 19:13:20.21	188.91	14.01	
2025-01-10 19:13:20.41	188.93	14.03	
2025-01-10 19:13:20.62	188.95	14.05	
2025-01-10 19:13:20.82	188.96	14.08	
2025-01-10 19:13:21.03	188.98	14.10	
2025-01-10 19:13:21.23	189.00	14.12	
2025-01-10 19:13:21.44	189.02	14.14	
2025-01-10 19:13:21.64	189.03	14.16	
2025-01-10 19:13:21.85	189.05	14.18	
2025-01-10 19:13:22.05	189.07	14.21	
2025-01-10 19:13:22.26	189.08	14.23	
2025-01-10 19:13:22.46	189.10	14.25	
2025-01-10 19:13:22.68	189.12	14.27	
2025-01-10 19:13:22.88	189.14	14.29	
2025-01-10 19:13:23.09	189.15	14.32	
2025-01-10 19:13:23.30	189.17	14.34	
2025-01-10 19:13:23.50	189.19	14.36	
2025-01-10 19:13:23.71	189.21	14.38	
2025-01-10 19:13:23.91	189.22	14.40	
2025-01-10 19:13:24.12	189.24	14.43	
2025-01-10 19:13:24.32	189.26	14.45	
2025-01-10 19:13:24.53	189.28	14.47	
2025-01-10 19:13:24.73	189.29	14.49	
2025-01-10 19:13:24.94	189.31	14.51	
2025-01-10 19:13:25.14	189.33	14.54	
2025-01-10 19:13:25.35	189.35	14.56	
2025-01-10 19:13:25.55	189.36	14.58	
2025-01-10 19:13:25.76	189.38	14.60	
2025-01-10 19:13:25.96	189.40	14.62	
2025-01-10 19:13:26.17	189.42	14.65	
2025-01-10 19:13:26.37	189.44	14.67	
2025-01-10 19:13:26.58	189.45	14.69	
2025-01-10 19:13:26.78	189.47	14.71	
2025-01-10 19:13:26.99	189.49	14.74	
2025-01-10 19:13:27.19	189.51	14.76	
2025-01-10 19:13:27.40	189.52	14.78	
2025-01-10 19:13:27.60	189.54	14.80	
2025-01-10 19:13:27.81	189.56	14.82	
2025-01-10 19:13:28.02	189.58	14.85	
2025-01-10 19:13:28.22	189.60	14.87	
2025-01-10 19:13:28.43	189.61	14.89	
2025-01-10 19:13:28.63	189.63	14.91	
2025-01-10 19:13:28.83	189.65	14.94	
2025-01-10 19:13:29.04	189.67	14.96	
2025-01-10 19:13:29.24	189.69	14.98	
2025-01-10 19:13:29.45	189.71	15.00	
2025-01-10 19:13:29.65	189.72	15.03	
2025-01-10 19:13:29.86	189.74	15.05	
2025-01-10 19:13:30.07	189.76	15.07	
2025-01-10 19:13:30.28	189.78	15.09	
2025-01-10 19:13:30.49	189.80	15.12	
2025-01-10 19:13:30.69	189.82	15.14	
2025-01-10 19:13:30.90	189.83	15.16	
2025-01-10 19:13:31.10	189.85	15.19	
2025-01-10 19:13:31.31	189.87	15.21	
2025-01-10 19:13:31.52	189.89	15.23	
2025-01-10 19:13:31.72	189.91	15.25	
2025-01-10 19:13:31.92	189.93	15.28	
2025-01-10 19:13:32.13	189.95	15.30	
2025-01-10 19:13:32.33	189.96	15.32	
2025-01-10 19:13:32.54	189.98	15.34	
2025-01-10 19:13:32.74	190.00	15.37	
2025-01-10 19:13:32.94	190.02	15.39	
2025-01-10 19:13:33.15	190.04	15.41	
2025-01-10 19:13:33.36	190.06	15.44	
2025-01-10 19:13:33.56	190.08	15.46	
2025-01-10 19:13:33.77	190.09	15.48	
2025-01-10 19:13:33.99	190.11	15.51	
2025-01-10 19:13:34.19	190.13	15.53	
2025-01-10 19:13:34.40	190.15	15.55	
2025-01-10 19:13:34.60	190.17	15.57	
2025-01-10 19:13:34.81	190.19	15.60	
2025-01-10 19:13:35.03	190.21	15.62	
2025-01-10 19:13:35.23	190.23	15.65	
2025-01-10 19:13:35.44	190.25	15.67	
2025-01-10 19:13:35.64	190.27	15.69	
2025-01-10 19:13:35.85	190.29	15.71	
2025-01-10 19:13:36.05	190.31	15.74	
2025-01-10 19:13:36.26	190.32	15.76	
2025-01-10 19:13:36.46	190.34	15.78	
2025-01-10 19:13:36.67	190.36	15.81	
2025-01-10 19:13:36.88	190.38	15.83	
2025-01-10 19:13:37.08	190.40	15.85	
2025-01-10 19:13:37.28	190.42	15.88	
2025-01-10 19:13:37.49	190.44	15.90	
2025-01-10 19:13:37.70	190.46	15.92	
2025-01-10 19:13:37.90	190.48	15.95	
2025-01-10 19:13:38.10	190.50	15.97	
2025-01-10 19:13:38.31	190.52	15.99	
2025-01-10 19:13:38.52	190.54	16.02	
2025-01-10 19:13:38.72	190.56	16.04	
2025-01-10 19:13:38.93	190.58	16.06	
2025-01-10 19:13:39.13	190.60	16.09	
2025-01-10 19:13:39.34	190.62	16.11	
2025-01-10 19:13:39.54	190.64	16.13	
2025-01-10 19:13:39.75	190.66	16.16	
2025-01-10 19:13:39.95	190.67	16.18	
2025-01-10 19:13:40.16	190.69	16.21	
2025-01-10 19:13:40.36	190.71	16.23	
2025-01-10 19:13:40.57	190.73	16.25	
2025-01-10 19:13:40.77	190.75	16.28	
2025-01-10 19:13:40.98	190.77	16.30	
2025-01-10 19:13:41.18	190.79	16.32	
2025-01-10 19:13:41.39	190.81	16.35	
2025-01-10 19:13:41.59	190.83	16.37	
2025-01-10 19:13:41.80	190.85	16.39	
2025-01-10 19:13:42.00	190.87	16.42	
2025-01-10 19:13:42.21	190.89	16.44	
2025-01-10 19:13:42.41	190.91	16.47	
2025-01-10 19:13:42.62	190.93	16.49	
2025-01-10 19:13:42.82	190.95	16.51	
2025-01-10 19:13:43.03	190.97	16.54	
2025-01-10 19:13:43.23	190.99	16.56	
2025-01-10 19:13:43.44	191.01	16.59	
2025-01-10 19:13:43.64	191.03	16.61	
2025-01-10 19:13:43.85	191.06	16.63	
2025-01-10 19:13:44.05	191.08	16.66	
2025-01-10 19:13:44.26	191.10	16.68	
2025-01-10 19:13:44.46	191.12	16.71	
2025-01-10 19:13:44.66	191.14	16.73	
2025-01-10 19:13:44.87	191.16	16.75	
2025-01-10 19:13:45.08	191.18	16.78	
2025-01-10 19:13:45.28	191.20	16.80	
2025-01-10 19:13:45.49	191.22	16.83	
2025-01-10 19:13:45.69	191.24	16.85	
2025-01-10 19:13:45.90	191.26	16.87	
2025-01-10 19:13:46.10	191.28	16.90	
2025-01-10 19:13:46.31	191.30	16.92	
2025-01-10 19:13:46.52	191.32	16.95	
2025-01-10 19:13:46.72	191.34	16.97	
2025-01-10 19:13:46.92	191.36	17.00	
2025-01-10 19:13:47.13	191.38	17.02	
2025-01-10 19:13:47.33	191.40	17.04	
2025-01-10 19:13:47.54	191.43	17.07	
2025-01-10 19:13:47.74	191.45	17.09	
2025-01-10 19:13:47.95	191.47	17.12	
2025-01-10 19:13:48.15	191.49	17.14	
2025-01-10 19:13:48.36	191.51	17.17	
2025-01-10 19:13:48.57	191.53	17.19	
2025-01-10 19:13:48.77	191.55	17.22	
2025-01-10 19:13:48.97	191.57	17.24	
2025-01-10 19:13:49.18	191.59	17.26	
2025-01-10 19:13:49.38	191.62	17.29	
2025-01-10 19:13:49.59	191.64	17.31	
2025-01-10 19:13:49.79	191.66	17.34	
2025-01-10 19:13:50.00	191.68	17.36	
2025-01-10 19:13:50.20	191.70	17.39	
2025-01-10 19:13:50.41	191.72	17.41	
2025-01-10 19:13:50.62	191.74	17.44	
2025-01-10 19:13:50.82	191.77	17.46	
2025-01-10 19:13:51.02	191.79	17.49	
2025-01-10 19:13:51.23	191.81	17.51	
2025-01-10 19:13:51.43	191.83	17.54	
2025-01-10 19:13:51.64	191.85	17.56	
2025-01-10 19:13:51.84	191.87	17.59	
2025-01-10 19:13:52.05	191.90	17.61	
2025-01-10 19:13:52.25	191.92	17.64	
2025-01-10 19:13:52.45	191.94	17.66	
2025-01-10 19:13:52.66	191.96	17.69	
2025-01-10 19:13:52.87	191.98	17.71	
2025-01-10 19:13:53.07	192.00	17.74	
2025-01-10 19:13:53.27	192.03	17.76	
2025-01-10 19:13:53.48	192.05	17.79	
2025-01-10 19:13:53.69	192.07	17.81	
2025-01-10 19:13:53.89	192.09	17.84	
2025-01-10 19:13:54.10	192.11	17.86	
2025-01-10 19:13:54.30	192.14	17.89	
2025-01-10 19:13:54.51	192.16	17.91	
2025-01-10 19:13:54.72	192.18	17.94	
2025-01-10 19:13:54.92	192.20	17.96	
2025-01-10 19:13:55.13	192.23	17.99	
2025-01-10 19:13:55.35	192.25	18.02	
2025-01-10 19:13:55.55	192.27	18.04	
2025-01-10 19:13:55.76	192.29	18.07	
2025-01-10 19:13:55.96	192.32	18.09	
2025-01-10 19:13:56.17	192.34	18.12	
2025-01-10 19:13:56.37	192.36	18.14	
2025-01-10 19:13:56.57	192.38	18.17	
2025-01-10 19:13:56.78	192.41	18.19	
2025-01-10 19:13:56.99	192.43	18.22	
2025-01-10 19:13:57.19	192.45	18.24	
2025-01-10 19:13:57.39	192.47	18.27	
2025-01-10 19:13:57.60	192.50	18.29	
2025-01-10 19:13:57.81	192.52	18.32	
2025-01-10 19:13:58.01	192.54	18.35	
2025-01-10 19:13:58.22	192.57	18.37	
2025-01-10 19:13:58.42	192.59	18.40	
2025-01-10 19:13:58.63	192.61	18.42	
2025-01-10 19:13:58.83	192.63	18.45	
2025-01-10 19:13:59.04	192.66	18.47	
2025-01-10 19:13:59.25	192.68	18.50	
2025-01-10 19:13:59.45	192.70	18.53	
2025-01-10 19:13:59.65	192.73	18.55	
2025-01-10 19:13:59.86	192.75	18.58	
2025-01-10 19:14:00.06	192.77	18.60	
2025-01-10 19:14:00.27	192.80	18.63	
2025-01-10 19:14:00.48	192.82	18.66	
2025-01-10 19:14:00.68	192.84	18.68	
2025-01-10 19:14:00.88	192.87	18.71	
2025-01-10 19:14:01.09	192.89	18.73	
2025-01-10 19:14:01.30	192.91	18.76	
2025-01-10 19:14:01.50	192.94	18.79	
2025-01-10 19:14:01.70	192.96	18.81	
2025-01-10 19:14:01.91	192.98	18.84	
2025-01-10 19:14:02.11	193.01	18.86	
2025-01-10 19:14:02.32	193.03	18.89	
2025-01-10 19:14:02.53	193.05	18.92	
2025-01-10 19:14:02.73	193.08	18.94	
2025-01-10 19:14:02.93	193.10	18.97	
2025-01-10 19:14:03.14	193.13	19.00	
2025-01-10 19:14:03.34	193.15	19.02	
2025-01-10 19:14:03.55	193.17	19.05	
2025-01-10 19:14:03.75	193.20	19.07	
2025-01-10 19:14:03.96	193.22	19.10	
2025-01-10 19:14:04.16	193.24	19.13	
2025-01-10 19:14:04.37	193.27	19.15	
2025-01-10 19:14:04.57	193.29	19.18	
2025-01-10 19:14:04.78	193.32	19.21	
2025-01-10 19:14:04.98	193.34	19.23	
2025-01-10 19:14:05.19	193.37	19.26	
2025-01-10 19:14:05.39	193.39	19.29	
2025-01-10 19:14:05.60	193.41	19.31	
2025-01-10 19:14:05.80	193.44	19.34	
2025-01-10 19:14:06.01	193.46	19.37	
2025-01-10 19:14:06.22	193.49	19.39	
2025-01-10 19:14:06.42	193.51	19.42	
2025-01-10 19:14:06.63	193.54	19.45	
2025-01-10 19:14:06.83	193.56	19.47	
2025-01-10 19:14:07.03	193.59	19.50	
2025-01-10 19:14:07.24	193.61	19.53	
2025-01-10 19:14:07.44	193.63	19.55	
2025-01-10 19:14:07.65	193.66	19.58	
2025-01-10 19:14:07.85	193.68	19.61	
2025-01-10 19:14:08.06	193.71	19.63	
2025-01-10 19:14:08.26	193.73	19.66	
2025-01-10 19:14:08.47	193.76	19.69	
2025-01-10 19:14:08.68	193.78	19.71	
2025-01-10 19:14:08.88	193.81	19.74	
2025-01-10 19:14:09.08	193.83	19.77	
2025-01-10 19:14:09.29	193.86	19.80	
2025-01-10 19:14:09.49	193.88	19.82	
2025-01-10 19:14:09.70	193.91	19.85	
2025-01-10 19:14:09.91	193.94	19.88	
2025-01-10 19:14:10.11	193.96	19.90	
2025-01-10 19:14:10.32	193.99	19.93	
2025-01-10 19:14:10.52	194.01	19.96	
2025-01-10 19:14:10.74	194.04	19.99	
2025-01-10 19:14:10.94	194.06	20.01	
2025-01-10 19:14:11.15	194.09	20.04	
2025-01-10 19:14:11.35	194.11	20.07	
2025-01-10 19:14:11.56	194.14	20.10	
2025-01-10 19:14:11.76	194.17	20.12	
2025-01-10 19:14:11.97	194.19	20.15	
2025-01-10 19:14:12.17	194.22	20.18	
2025-01-10 19:14:12.38	194.24	20.21	
2025-01-10 19:14:12.58	194.27	20.23	
2025-01-10 19:14:12.79	194.29	20.26	
2025-01-10 19:14:12.99	194.32	20.29	
2025-01-10 19:14:13.20	194.35	20.32	
2025-01-10 19:14:13.40	194.37	20.34	
2025-01-10 19:14:13.61	194.40	20.37	
2025-01-10 19:14:13.81	194.42	20.40	
2025-01-10 19:14:14.02	194.45	20.43	
2025-01-10 19:14:14.23	194.48	20.46	
2025-01-10 19:14:14.43	194.50	20.48	
2025-01-10 19:14:14.64	194.53	20.51	
2025-01-10 19:14:14.84	194.56	20.54	
2025-01-10 19:14:15.05	194.58	20.57	
2025-01-10 19:14:15.25	194.61	20.59	
2025-01-10 19:14:15.46	194.64	20.62	
2025-01-10 19:14:15.66	194.66	20.65	
2025-01-10 19:14:15.87	194.69	20.68	
2025-01-10 19:14:16.08	194.72	20.71	
2025-01-10 19:14:16.28	194.74	20.73	
2025-01-10 19:14:16.48	194.77	20.76	
2025-01-10 19:14:16.69	194.80	20.79	
2025-01-10 19:14:16.89	194.82	20.82	
2025-01-10 19:14:17.10	194.85	20.85	
2025-01-10 19:14:17.30	194.88	20.87	
2025-01-10 19:14:17.51	194.90	20.90	
2025-01-10 19:14:17.71	194.93	20.93	
2025-01-10 19:14:17.92	194.96	20.96	
2025-01-10 19:14:18.13	194.99	20.99	
2025-01-10 19:14:18.33	195.01	21.02	
2025-01-10 19:14:18.54	195.04	21.04	
2025-01-10 19:14:18.74	195.07	21.07	
2025-01-10 19:14:18.95	195.10	21.10	
2025-01-10 19:14:19.16	195.12	21.13	
2025-01-10 19:14:19.36	195.15	21.16	
2025-01-10 19:14:19.57	195.18	21.19	
2025-01-10 19:14:19.77	195.21	21.21	
2025-01-10 19:14:19.98	195.23	21.24	
2025-01-10 19:14:20.18	195.26	21.27	
2025-01-10 19:14:20.38	195.29	21.30	
2025-01-10 19:14:20.59	195.32	21.33	
2025-01-10 19:14:20.80	195.34	21.36	
2025-01-10 19:14:21.00	195.37	21.39	
2025-01-10 19:14:21.20	195.40	21.41	
2025-01-10 19:14:21.41	195.43	21.44	
2025-01-10 19:14:21.62	195.46	21.47	
2025-01-10 19:14:21.82	195.48	21.50	
2025-01-10 19:14:22.02	195.51	21.53	
2025-01-10 19:14:22.23	195.54	21.56	
2025-01-10 19:14:22.44	195.57	21.59	
2025-01-10 19:14:22.64	195.60	21.62	
2025-01-10 19:14:22.85	195.63	21.65	
2025-01-10 19:14:23.05	195.65	21.67	
2025-01-10 19:14:23.26	195.68	21.70	
2025-01-10 19:14:23.46	195.71	21.73	
2025-01-10 19:14:23.67	195.74	21.76	
2025-01-10 19:14:23.88	195.77	21.79	
2025-01-10 19:14:24.08	195.80	21.82	
2025-01-10 19:14:24.28	195.83	21.85	
2025-01-10 19:14:24.49	195.85	21.88	
2025-01-10 19:14:24.70	195.88	21.91	
2025-01-10 19:14:24.90	195.91	21.94	
2025-01-10 19:14:25.11	195.94	21.97	
2025-01-10 19:14:25.32	195.97	22.00	
2025-01-10 19:14:25.53	196.00	22.03	
2025-01-10 19:14:25.73	196.03	22.06	
2025-01-10 19:14:25.94	196.06	22.09	
2025-01-10 19:14:26.14	196.09	22.11	
2025-01-10 19:14:26.36	196.12	22.15	
2025-01-10 19:14:26.57	196.15	22.18	
2025-01-10 19:14:26.77	196.18	22.20	
2025-01-10 19:14:26.98	196.21	22.23	
2025-01-10 19:14:27.19	196.24	22.27	
2025-01-10 19:14:27.40	196.27	22.30	
2025-01-10 19:14:27.61	196.30	22.33	
2025-01-10 19:14:27.82	196.33	22.36	
2025-01-10 19:14:28.02	196.36	22.39	
2025-01-10 19:14:28.23	196.39	22.42	
2025-01-10 19:14:28.43	196.42	22.44	
2025-01-10 19:14:28.64	196.45	22.47	
2025-01-10 19:14:28.84	196.48	22.50	
2025-01-10 19:14:29.05	196.51	22.53	
2025-01-10 19:14:29.25	196.54	22.56	
2025-01-10 19:14:29.45	196.57	22.59	
2025-01-10 19:14:29.66	196.60	22.62	
2025-01-10 19:14:29.87	196.63	22.65	
2025-01-10 19:14:30.07	196.66	22.68	
2025-01-10 19:14:30.28	196.69	22.71	
2025-01-10 19:14:30.49	196.72	22.74	
2025-01-10 19:14:30.69	196.75	22.77	
2025-01-10 19:14:30.89	196.78	22.80	
2025-01-10 19:14:31.10	196.81	22.83	
2025-01-10 19:14:31.30	196.84	22.86	
2025-01-10 19:14:31.51	196.88	22.89	
2025-01-10 19:14:31.71	196.91	22.92	
2025-01-10 19:14:31.92	196.94	22.96	
2025-01-10 19:14:32.13	196.97	22.99	
2025-01-10 19:14:32.33	197.00	23.02	
2025-01-10 19:14:32.54	197.03	23.05	
2025-01-10 19:14:32.74	197.06	23.08	
2025-01-10 19:14:32.95	197.09	23.11	
2025-01-10 19:14:33.15	197.12	23.14	
2025-01-10 19:14:33.36	197.16	23.17	
2025-01-10 19:14:33.56	197.19	23.20	
2025-01-10 19:14:33.77	197.22	23.23	
2025-01-10 19:14:33.97	197.25	23.26	
2025-01-10 19:14:34.18	197.28	23.29	
2025-01-10 19:14:34.38	197.31	23.32	
2025-01-10 19:14:34.59	197.35	23.35	
2025-01-10 19:14:34.79	197.38	23.38	
2025-01-10 19:14:35.00	197.41	23.41	
2025-01-10 19:14:35.20	197.44	23.44	
2025-01-10 19:14:35.41	197.47	23.47	
2025-01-10 19:14:35.62	197.51	23.51	
2025-01-10 19:14:35.82	197.54	23.54	
2025-01-10 19:14:36.02	197.57	23.57	
2025-01-10 19:14:36.23	197.60	23.60	
2025-01-10 19:14:36.44	197.63	23.63	
2025-01-10 19:14:36.64	197.67	23.66	
2025-01-10 19:14:36.85	197.70	23.69	
2025-01-10 19:14:37.05	197.73	23.72	
2025-01-10 19:14:37.26	197.76	23.75	
2025-01-10 19:14:37.46	197.80	23.78	
2025-01-10 19:14:37.67	197.83	23.82	
2025-01-10 19:14:37.87	197.86	23.85	
2025-01-10 19:14:38.09	197.90	23.88	
2025-01-10 19:14:38.29	197.93	23.91	
2025-01-10 19:14:38.50	197.96	23.94	
2025-01-10 19:14:38.71	198.00	23.97	
2025-01-10 19:14:38.91	198.03	24.00	
2025-01-10 19:14:39.12	198.06	24.04	
2025-01-10 19:14:39.32	198.09	24.07	
2025-01-10 19:14:39.53	198.13	24.10	
2025-01-10 19:14:39.73	198.16	24.13	
2025-01-10 19:14:39.94	198.20	24.16	
2025-01-10 19:14:40.14	198.23	24.19	
2025-01-10 19:14:40.35	198.26	24.23	
2025-01-10 19:14:40.55	198.30	24.26	
2025-01-10 19:14:40.76	198.33	24.29	
2025-01-10 19:14:40.97	198.36	24.32	
2025-01-10 19:14:41.18	198.40	24.35	
2025-01-10 19:14:41.38	198.43	24.38	
2025-01-10 19:14:41.59	198.47	24.42	
2025-01-10 19:14:41.79	198.50	24.45	
2025-01-10 19:14:42.00	198.54	24.48	
2025-01-10 19:14:42.20	198.57	24.51	
2025-01-10 19:14:42.41	198.60	24.54	
2025-01-10 19:14:42.61	198.64	24.57	
2025-01-10 19:14:42.82	198.67	24.61	
2025-01-10 19:14:43.03	198.71	24.64	
2025-01-10 19:14:43.23	198.74	24.67	
2025-01-10 19:14:43.43	198.78	24.70	
2025-01-10 19:14:43.64	198.81	24.74	
2025-01-10 19:14:43.85	198.85	24.77	
2025-01-10 19:14:44.05	198.88	24.80	
2025-01-10 19:14:44.26	198.92	24.83	
2025-01-10 19:14:44.46	198.95	24.86	
2025-01-10 19:14:44.67	198.99	24.90	
2025-01-10 19:14:44.87	199.02	24.93	
2025-01-10 19:14:45.08	199.06	24.96	
2025-01-10 19:14:45.28	199.09	24.99	
2025-01-10 19:14:45.49	199.13	25.03	
2025-01-10 19:14:45.69	199.16	25.06	
2025-01-10 19:14:45.90	199.20	25.09	
2025-01-10 19:14:46.10	199.23	25.12	
2025-01-10 19:14:46.31	199.27	25.16	
2025-01-10 19:14:46.51	199.30	25.19	
2025-01-10 19:14:46.72	199.34	25.22	
2025-01-10 19:14:46.93	199.38	25.25	
2025-01-10 19:14:47.13	199.41	25.29	
2025-01-10 19:14:47.34	199.45	25.32	
2025-01-10 19:14:47.54	199.48	25.35	
2025-01-10 19:14:47.75	199.52	25.38	
2025-01-10 19:14:47.95	199.56	25.42	
2025-01-10 19:14:48.16	199.59	25.45	
2025-01-10 19:14:48.36	199.63	25.48	
2025-01-10 19:14:48.57	199.67	25.51	
2025-01-10 19:14:48.77	199.70	25.55	
2025-01-10 19:14:48.98	199.74	25.58	
2025-01-10 19:14:49.18	199.78	25.61	
2025-01-10 19:14:49.39	199.81	25.65	
2025-01-10 19:14:49.60	199.85	25.68	
2025-01-10 19:14:49.80	199.89	25.71	
2025-01-10 19:14:50.01	199.92	25.75	
2025-01-10 19:14:50.21	199.96	25.78	
2025-01-10 19:14:50.42	200.00	25.81	
2025-01-10 19:14:50.62	200.04	25.84	
2025-01-10 19:14:50.83	200.07	25.88	
2025-01-10 19:14:51.03	200.11	25.91	
2025-01-10 19:14:51.24	200.15	25.94	
2025-01-10 19:14:51.44	200.18	25.98	
2025-01-10 19:14:51.65	200.22	26.01	
2025-01-10 19:14:51.85	200.26	26.04	
2025-01-10 19:14:52.06	200.30	26.08	
2025-01-10 19:14:52.26	200.34	26.11	
2025-01-10 19:14:52.47	200.37	26.14	
2025-01-10 19:14:52.67	200.41	26.18	
2025-01-10 19:14:52.88	200.45	26.21	
2025-01-10 19:14:53.10	200.49	26.25	
2025-01-10 19:14:53.30	200.53	26.28	
2025-01-10 19:14:53.51	200.57	26.31	
2025-01-10 19:14:53.71	200.61	26.35	
2025-01-10 19:14:53.92	200.65	26.38	
2025-01-10 19:14:54.12	200.68	26.41	
2025-01-10 19:14:54.32	200.72	26.45	
2025-01-10 19:14:54.53	200.76	26.48	
2025-01-10 19:14:54.74	200.80	26.52	
2025-01-10 19:14:54.94	200.84	26.55	
2025-01-10 19:14:55.14	200.88	26.58	
2025-01-10 19:14:55.35	200.92	26.62	
2025-01-10 19:14:55.55	200.95	26.65	
2025-01-10 19:14:55.76	200.99	26.69	
2025-01-10 19:14:55.97	201.04	26.72	
2025-01-10 19:14:56.17	201.07	26.75	
2025-01-10 19:14:56.39	201.12	26.79	
2025-01-10 19:14:56.59	201.15	26.82	
2025-01-10 19:14:56.80	201.20	26.86	
2025-01-10 19:14:57.01	201.24	26.89	
2025-01-10 19:14:57.21	201.28	26.93	
2025-01-10 19:14:57.41	201.31	26.96	
2025-01-10 19:14:57.62	201.36	26.99	
2025-01-10 19:14:57.83	201.40	27.03	
2025-01-10 19:14:58.03	201.44	27.06	
2025-01-10 19:14:58.24	201.48	27.10	
2025-01-10 19:14:58.44	201.52	27.13	
2025-01-10 19:14:58.65	201.56	27.17	
2025-01-10 19:14:58.86	201.60	27.20	
2025-01-10 19:14:59.06	201.64	27.24	
2025-01-10 19:14:59.27	201.68	27.27	
2025-01-10 19:14:59.47	201.72	27.30	
2025-01-10 19:14:59.68	201.76	27.34	
2025-01-10 19:14:59.88	201.80	27.37	
2025-01-10 19:15:00.09	201.84	27.41	
2025-01-10 19:15:00.29	201.89	27.44	
2025-01-10 19:15:00.49	201.93	27.48	
2025-01-10 19:15:00.70	201.97	27.51	
2025-01-10 19:15:00.91	202.01	27.55	
2025-01-10 19:15:01.11	202.05	27.58	
2025-01-10 19:15:01.32	202.09	27.62	
2025-01-10 19:15:01.52	202.13	27.65	
2025-01-10 19:15:01.73	202.18	27.69	
2025-01-10 19:15:01.93	202.22	27.72	
2025-01-10 19:15:02.14	202.26	27.76	
2025-01-10 19:15:02.34	202.30	27.79	
2025-01-10 19:15:02.55	202.35	27.83	
2025-01-10 19:15:02.75	202.39	27.86	
2025-01-10 19:15:02.96	202.43	27.90	
2025-01-10 19:15:03.16	202.47	27.93	
2025-01-10 19:15:03.37	202.52	27.97	
2025-01-10 19:15:03.57	202.56	28.00	
2025-01-10 19:15:03.78	202.60	28.04	
2025-01-10 19:15:03.98	202.64	28.07	
2025-01-10 19:15:04.19	202.69	28.11	
2025-01-10 19:15:04.40	202.73	28.14	
2025-01-10 19:15:04.60	202.77	28.18	
2025-01-10 19:15:04.80	202.82	28.21	
2025-01-10 19:15:05.01	202.86	28.25	
2025-01-10 19:15:05.21	202.90	28.28	
2025-01-10 19:15:05.42	202.95	28.32	
2025-01-10 19:15:05.63	202.99	28.36	
2025-01-10 19:15:05.83	203.03	28.39	
2025-01-10 19:15:06.03	203.08	28.43	
2025-01-10 19:15:06.24	203.12	28.46	
2025-01-10 19:15:06.45	203.17	28.50	
2025-01-10 19:15:06.65	203.21	28.53	
2025-01-10 19:15:06.85	203.25	28.57	
2025-01-10 19:15:07.06	203.30	28.60	
2025-01-10 19:15:07.27	203.34	28.64	
2025-01-10 19:15:07.47	203.39	28.68	
2025-01-10 19:15:07.68	203.43	28.71	
2025-01-10 19:15:07.88	203.48	28.75	
2025-01-10 19:15:08.08	203.52	28.78	
2025-01-10 19:15:08.29	203.57	28.82	
2025-01-10 19:15:08.50	203.61	28.86	
2025-01-10 19:15:08.70	203.66	28.89	
2025-01-10 19:15:08.90	203.70	28.93	
2025-01-10 19:15:09.11	203.75	28.96	
2025-01-10 19:15:09.32	203.79	29.00	
2025-01-10 19:15:09.52	203.84	29.03	
2025-01-10 19:15:09.73	203.89	29.07	
2025-01-10 19:15:09.93	203.93	29.11	
2025-01-10 19:15:10.14	203.98	29.14	
2025-01-10 19:15:10.34	204.02	29.18	
2025-01-10 19:15:10.55	204.07	29.22	
2025-01-10 19:15:10.75	204.11	29.25	
2025-01-10 19:15:10.96	204.16	29.29	
2025-01-10 19:15:11.17	204.21	29.33	
2025-01-10 19:15:11.38	204.26	29.36	
2025-01-10 19:15:11.58	204.30	29.40	
2025-01-10 19:15:11.79	204.35	29.44	
2025-01-10 19:15:11.99	204.40	29.47	
2025-01-10 19:15:12.21	204.45	29.51	
2025-01-10 19:15:12.42	204.49	29.55	
2025-01-10 19:15:12.62	204.54	29.58	
2025-01-10 19:15:12.83	204.59	29.62	
2025-01-10 19:15:13.03	204.64	29.66	
2025-01-10 19:15:13.24	204.68	29.69	
2025-01-10 19:15:13.44	204.73	29.73	
2025-01-10 19:15:13.65	204.78	29.77	
2025-01-10 19:15:13.85	204.83	29.80	
2025-01-10 19:15:14.06	204.88	29.84	
2025-01-10 19:15:14.26	204.92	29.88	
2025-01-10 19:15:14.47	204.97	29.91	
2025-01-10 19:15:14.67	205.02	29.95	
2025-01-10 19:15:14.88	205.07	29.99	
2025-01-10 19:15:15.08	205.12	30.02	
2025-01-10 19:15:15.29	205.17	30.06	
2025-01-10 19:15:15.49	205.21	30.10	
2025-01-10 19:15:15.70	205.26	30.14	
2025-01-10 19:15:15.90	205.31	30.17	
2025-01-10 19:15:16.11	205.36	30.21	
2025-01-10 19:15:16.32	205.41	30.25	
2025-01-10 19:15:16.52	205.46	30.28	
2025-01-10 19:15:16.72	205.51	30.32	
2025-01-10 19:15:16.93	205.56	30.36	
2025-01-10 19:15:17.13	205.61	30.39	
2025-01-10 19:15:17.34	205.66	30.43	
2025-01-10 19:15:17.54	205.71	30.47	
2025-01-10 19:15:17.75	205.76	30.51	
2025-01-10 19:15:17.95	205.81	30.54	
2025-01-10 19:15:18.16	205.86	30.58	
2025-01-10 19:15:18.37	205.91	30.62	
2025-01-10 19:15:18.57	205.96	30.66	
2025-01-10 19:15:18.77	206.01	30.69	
2025-01-10 19:15:18.98	206.06	30.73	
2025-01-10 19:15:19.19	206.11	30.77	
2025-01-10 19:15:19.39	206.16	30.81	
2025-01-10 19:15:19.60	206.21	30.84	
2025-01-10 19:15:19.80	206.26	30.88	
2025-01-10 19:15:20.01	206.32	30.92	
2025-01-10 19:15:20.21	206.37	30.96	
2025-01-10 19:15:20.42	206.42	30.99	
2025-01-10 19:15:20.62	206.47	31.03	
2025-01-10 19:15:20.84	206.53	31.07	
2025-01-10 19:15:21.05	206.58	31.11	
2025-01-10 19:15:21.25	206.63	31.15	
2025-01-10 19:15:21.46	206.68	31.19	
2025-01-10 19:15:21.66	206.73	31.22	
2025-01-10 19:15:21.86	206.78	31.26	
2025-01-10 19:15:22.07	206.84	31.30	
2025-01-10 19:15:22.28	206.89	31.34	
2025-01-10 19:15:22.48	206.94	31.37	
2025-01-10 19:15:22.69	207.00	31.41	
2025-01-10 19:15:22.89	207.05	31.45	
2025-01-10 19:15:23.10	207.10	31.49	
2025-01-10 19:15:23.30	207.16	31.52	
2025-01-10 19:15:23.51	207.21	31.56	
2025-01-10 19:15:23.71	207.26	31.60	
2025-01-10 19:15:23.92	207.32	31.64	
2025-01-10 19:15:24.12	207.37	31.68	
2025-01-10 19:15:24.33	207.43	31.72	
2025-01-10 19:15:24.53	207.48	31.75	
2025-01-10 19:15:24.74	207.53	31.79	
2025-01-10 19:15:24.94	207.59	31.83	
2025-01-10 19:15:25.15	207.64	31.87	
2025-01-10 19:15:25.35	207.70	31.91	
2025-01-10 19:15:25.56	207.75	31.95	
2025-01-10 19:15:25.77	207.81	31.98	
2025-01-10 19:15:25.97	207.86	32.02	
2025-01-10 19:15:26.17	207.91	32.06	
2025-01-10 19:15:26.38	207.97	32.10	
2025-01-10 19:15:26.59	208.03	32.14	
2025-01-10 19:15:26.79	208.08	32.18	
2025-01-10 19:15:27.00	208.14	32.21	
2025-01-10 19:15:27.20	208.19	32.25	
2025-01-10 19:15:27.40	208.25	32.29	
2025-01-10 19:15:27.61	208.31	32.33	
2025-01-10 19:15:27.82	208.36	32.37	
2025-01-10 19:15:28.02	208.42	32.41	
2025-01-10 19:15:28.23	208.48	32.45	
2025-01-10 19:15:28.43	208.53	32.48	
2025-01-10 19:15:28.64	208.59	32.52	
2025-01-10 19:15:28.84	208.64	32.56	
2025-01-10 19:15:29.05	208.70	32.60	
2025-01-10 19:15:29.26	208.76	32.64	
2025-01-10 19:15:29.46	208.82	32.68	
2025-01-10 19:15:29.67	208.88	32.72	
2025-01-10 19:15:29.87	208.93	32.76	
2025-01-10 19:15:30.08	208.99	32.80	
2025-01-10 19:15:30.28	209.05	32.83	
2025-01-10 19:15:30.49	209.11	32.87	
2025-01-10 19:15:30.69	209.16	32.91	
2025-01-10 19:15:30.90	209.22	32.95	
2025-01-10 19:15:31.10	209.28	32.99	
2025-01-10 19:15:31.31	209.34	33.03	
2025-01-10 19:15:31.51	209.40	33.07	
2025-01-10 19:15:31.72	209.46	33.11	
2025-01-10 19:15:31.92	209.51	33.14	
2025-01-10 19:15:32.13	209.57	33.18	
2025-01-10 19:15:32.33	209.63	33.22	
2025-01-10 19:15:32.54	209.69	33.26	
2025-01-10 19:15:32.74	209.75	33.30	
2025-01-10 19:15:32.95	209.81	33.34	
2025-01-10 19:15:33.15	209.87	33.38	
2025-01-10 19:15:33.36	209.93	33.42	
2025-01-10 19:15:33.56	209.99	33.46	
2025-01-10 19:15:33.77	210.05	33.50	
2025-01-10 19:15:33.97	210.11	33.54	
2025-01-10 19:15:34.18	210.17	33.58	
2025-01-10 19:15:34.38	210.23	33.61	
2025-01-10 19:15:34.59	210.29	33.65	
2025-01-10 19:15:34.79	210.35	33.69	
2025-01-10 19:15:35.00	210.42	33.73	
2025-01-10 19:15:35.21	210.48	33.77	
2025-01-10 19:15:35.41	210.54	33.81	
2025-01-10 19:15:35.62	210.60	33.85	
2025-01-10 19:15:35.82	210.66	33.89	
2025-01-10 19:15:36.03	210.73	33.93	
2025-01-10 19:15:36.23	210.79	33.97	
2025-01-10 19:15:36.44	210.85	34.01	
2025-01-10 19:15:36.65	210.91	34.05	
2025-01-10 19:15:36.85	210.97	34.09	
2025-01-10 19:15:37.05	211.04	34.13	
2025-01-10 19:15:37.26	211.10	34.17	
2025-01-10 19:15:37.46	211.16	34.20	
2025-01-10 19:15:37.67	211.23	34.25	
2025-01-10 19:15:37.87	211.29	34.28	
2025-01-10 19:15:38.08	211.35	34.32	
2025-01-10 19:15:38.29	211.42	34.37	
2025-01-10 19:15:38.49	211.48	34.40	
2025-01-10 19:15:38.70	211.55	34.44	
2025-01-10 19:15:38.90	211.61	34.48	
2025-01-10 19:15:39.11	211.67	34.52	
2025-01-10 19:15:39.31	211.74	34.56	
2025-01-10 19:15:39.52	211.80	34.60	
2025-01-10 19:15:39.72	211.87	34.64	
2025-01-10 19:15:39.93	211.93	34.68	
2025-01-10 19:15:40.15	212.00	34.72	
2025-01-10 19:15:40.35	212.06	34.76	
2025-01-10 19:15:40.56	212.13	34.80	
2025-01-10 19:15:40.76	212.20	34.84	
2025-01-10 19:15:40.97	212.26	34.88	
2025-01-10 19:15:41.17	212.33	34.92	
2025-01-10 19:15:41.38	212.39	34.96	
2025-01-10 19:15:41.58	212.46	35.00	
2025-01-10 19:15:41.79	212.53	35.04	
2025-01-10 19:15:41.99	212.59	35.08	
2025-01-10 19:15:42.20	212.66	35.12	
2025-01-10 19:15:42.40	212.72	35.16	
2025-01-10 19:15:42.61	212.79	35.20	
2025-01-10 19:15:42.82	212.86	35.24	
2025-01-10 19:15:43.02	212.93	35.28	
2025-01-10 19:15:43.23	213.00	35.32	
2025-01-10 19:15:43.43	213.06	35.36	
2025-01-10 19:15:43.64	213.13	35.40	
2025-01-10 19:15:43.84	213.20	35.44	
2025-01-10 19:15:44.05	213.27	35.48	
2025-01-10 19:15:44.25	213.33	35.52	
2025-01-10 19:15:44.46	213.40	35.56	
2025-01-10 19:15:44.66	213.47	35.60	
2025-01-10 19:15:44.87	213.54	35.64	
2025-01-10 19:15:45.07	213.61	35.68	
2025-01-10 19:15:45.28	213.68	35.72	
2025-01-10 19:15:45.48	213.75	35.76	
2025-01-10 19:15:45.69	213.82	35.80	
2025-01-10 19:15:45.89	213.89	35.84	
2025-01-10 19:15:46.10	213.96	35.88	
2025-01-10 19:15:46.31	214.03	35.92	
2025-01-10 19:15:46.52	214.10	35.96	
2025-01-10 19:15:46.73	214.17	36.00	
2025-01-10 19:15:46.93	214.24	36.04	
2025-01-10 19:15:47.14	214.31	36.08	
2025-01-10 19:15:47.36	214.39	36.13	
2025-01-10 19:15:47.58	214.47	36.17	
2025-01-10 19:15:47.78	214.54	36.21	
2025-01-10 19:15:47.99	214.61	36.25	
2025-01-10 19:15:48.19	214.68	36.29	
2025-01-10 19:15:48.40	214.75	36.33	
2025-01-10 19:15:48.60	214.82	36.37	
2025-01-10 19:15:48.81	214.90	36.41	
2025-01-10 19:15:49.01	214.97	36.45	
2025-01-10 19:15:49.22	215.04	36.49	
2025-01-10 19:15:49.42	215.11	36.53	
2025-01-10 19:15:49.62	215.18	36.57	
2025-01-10 19:15:49.83	215.26	36.61	
2025-01-10 19:15:50.03	215.33	36.65	
2025-01-10 19:15:50.24	215.40	36.69	
2025-01-10 19:15:50.44	215.48	36.73	
2025-01-10 19:15:50.65	215.55	36.77	
2025-01-10 19:15:50.85	215.62	36.81	
2025-01-10 19:15:51.06	215.70	36.85	
2025-01-10 19:15:51.26	215.77	36.89	
2025-01-10 19:15:51.47	215.85	36.93	
2025-01-10 19:15:51.67	215.92	36.97	
2025-01-10 19:15:51.88	216.00	37.01	
2025-01-10 19:15:52.08	216.07	37.05	
2025-01-10 19:15:52.29	216.15	37.09	
2025-01-10 19:15:52.49	216.22	37.13	
2025-01-10 19:15:52.70	216.30	37.17	
2025-01-10 19:15:52.90	216.37	37.21	
2025-01-10 19:15:53.11	216.45	37.25	
2025-01-10 19:15:53.31	216.52	37.29	
2025-01-10 19:15:53.52	216.60	37.33	
2025-01-10 19:15:53.73	216.68	37.37	
2025-01-10 19:15:53.93	216.76	37.41	
2025-01-10 19:15:54.14	216.83	37.45	
2025-01-10 19:15:54.34	216.91	37.49	
2025-01-10 19:15:54.55	216.99	37.53	
2025-01-10 19:15:54.76	217.07	37.57	
2025-01-10 19:15:54.96	217.14	37.61	
2025-01-10 19:15:55.17	217.22	37.65	
2025-01-10 19:15:55.37	217.30	37.69	
2025-01-10 19:15:55.58	217.38	37.73	
2025-01-10 19:15:55.78	217.46	37.77	
2025-01-10 19:15:55.99	217.54	37.81	
2025-01-10 19:15:56.19	217.61	37.85	
2025-01-10 19:15:56.40	217.70	37.89	
2025-01-10 19:15:56.60	217.77	37.93	
2025-01-10 19:15:56.81	217.85	37.97	
2025-01-10 19:15:57.02	217.94	38.01	
2025-01-10 19:15:57.22	218.01	38.05	
2025-01-10 19:15:57.43	218.10	38.09	
2025-01-10 19:15:57.63	218.17	38.13	
2025-01-10 19:15:57.84	218.26	38.17	
2025-01-10 19:15:58.04	218.33	38.21	
2025-01-10 19:15:58.25	218.42	38.25	
2025-01-10 19:15:58.45	218.50	38.29	
2025-01-10 19:15:58.66	218.58	38.33	
2025-01-10 19:15:58.86	218.66	38.37	
2025-01-10 19:15:59.07	218.74	38.41	
2025-01-10 19:15:59.27	218.82	38.45	
2025-01-10 19:15:59.48	218.91	38.49	
2025-01-10 19:15:59.68	218.99	38.53	
2025-01-10 19:15:59.89	219.07	38.57	
2025-01-10 19:16:00.09	219.15	38.61	
2025-01-10 19:16:00.30	219.24	38.65	
2025-01-10 19:16:00.50	219.32	38.69	
2025-01-10 19:16:00.71	219.40	38.73	
2025-01-10 19:16:00.91	219.48	38.77	
2025-01-10 19:16:01.12	219.57	38.81	
2025-01-10 19:16:01.33	219.65	38.85	
2025-01-10 19:16:01.53	219.74	38.89	
2025-01-10 19:16:01.74	219.82	38.93	
2025-01-10 19:16:01.94	219.91	38.97	
2025-01-10 19:16:02.15	219.99	39.01	
2025-01-10 19:16:02.36	220.08	39.05	
2025-01-10 19:16:02.58	220.17	39.09	
2025-01-10 19:16:02.78	220.25	39.13	
2025-01-10 19:16:02.99	220.34	39.17	
2025-01-10 19:16:03.19	220.42	39.21	
2025-01-10 19:16:03.40	220.51	39.25	
2025-01-10 19:16:03.60	220.60	39.29	
2025-01-10 19:16:03.81	220.69	39.33	
2025-01-10 19:16:04.02	220.77	39.37	
2025-01-10 19:16:04.22	220.86	39.41	
2025-01-10 19:16:04.43	220.95	39.45	
2025-01-10 19:16:04.63	221.03	39.49	
2025-01-10 19:16:04.84	221.12	39.53	
2025-01-10 19:16:05.04	221.21	39.56	
2025-01-10 19:16:05.25	221.30	39.61	
2025-01-10 19:16:05.45	221.38	39.64	
2025-01-10 19:16:05.66	221.47	39.68	
2025-01-10 19:16:05.86	221.56	39.72	
2025-01-10 19:16:06.07	221.65	39.76	
2025-01-10 19:16:06.27	221.74	39.80	
2025-01-10 19:16:06.48	221.83	39.84	
2025-01-10 19:16:06.68	221.92	39.88	
2025-01-10 19:16:06.89	222.01	39.92	
2025-01-10 19:16:07.09	222.10	39.96	
2025-01-10 19:16:07.30	222.19	40.00	
2025-01-10 19:16:07.50	222.28	40.03	
2025-01-10 19:16:07.71	222.37	40.07	
2025-01-10 19:16:07.91	222.46	40.11	
2025-01-10 19:16:08.12	222.55	40.15	
2025-01-10 19:16:08.32	222.64	40.19	
2025-01-10 19:16:08.53	222.73	40.23	
2025-01-10 19:16:08.73	222.82	40.27	
2025-01-10 19:16:08.93	222.91	40.30	
2025-01-10 19:16:09.14	223.00	40.34	
2025-01-10 19:16:09.35	223.10	40.38	
2025-01-10 19:16:09.55	223.19	40.42	
2025-01-10 19:16:09.76	223.28	40.46	
2025-01-10 19:16:09.96	223.37	40.50	
2025-01-10 19:16:10.17	223.47	40.54	
2025-01-10 19:16:10.37	223.56	40.57	
2025-01-10 19:16:10.58	223.66	40.61	
2025-01-10 19:16:10.79	223.75	40.65	
2025-01-10 19:16:10.99	223.84	40.69	
2025-01-10 19:16:11.20	223.94	40.73	
2025-01-10 19:16:11.40	224.03	40.77	
2025-01-10 19:16:11.60	224.13	40.80	
2025-01-10 19:16:11.81	224.22	40.84	
2025-01-10 19:16:12.01	224.32	40.88	
2025-01-10 19:16:12.22	224.41	40.92	
2025-01-10 19:16:12.43	224.51	40.96	
2025-01-10 19:16:12.63	224.60	41.00	
2025-01-10 19:16:12.84	224.70	41.03	
2025-01-10 19:16:13.04	224.80	41.07	
2025-01-10 19:16:13.25	224.89	41.11	
2025-01-10 19:16:13.45	224.99	41.15	
2025-01-10 19:16:13.66	225.09	41.19	
2025-01-10 19:16:13.87	225.19	41.22	
2025-01-10 19:16:14.07	225.28	41.26	
2025-01-10 19:16:14.27	225.38	41.30	
2025-01-10 19:16:14.48	225.48	41.34	
2025-01-10 19:16:14.68	225.57	41.37	
2025-01-10 19:16:14.89	225.67	41.41	
2025-01-10 19:16:15.09	225.77	41.45	
2025-01-10 19:16:15.30	225.87	41.49	
2025-01-10 19:16:15.50	225.97	41.52	
2025-01-10 19:16:15.71	226.07	41.56	
2025-01-10 19:16:15.92	226.17	41.60	
2025-01-10 19:16:16.12	226.27	41.63	
2025-01-10 19:16:16.33	226.37	41.67	
2025-01-10 19:16:16.53	226.47	41.71	
2025-01-10 19:16:16.74	226.57	41.75	
2025-01-10 19:16:16.94	226.67	41.78	
2025-01-10 19:16:17.15	226.77	41.82	
2025-01-10 19:16:17.35	226.87	41.86	
2025-01-10 19:16:17.56	226.97	41.89	
2025-01-10 19:16:17.76	227.07	41.93	
2025-01-10 19:16:17.97	227.18	41.97	
2025-01-10 19:16:18.17	227.28	42.00	
2025-01-10 19:16:18.38	227.38	42.04	
2025-01-10 19:16:18.60	227.49	42.08	
2025-01-10 19:16:18.80	227.59	42.11	
2025-01-10 19:16:19.01	227.70	42.15	
2025-01-10 19:16:19.22	227.80	42.19	
2025-01-10 19:16:19.42	227.90	42.22	
2025-01-10 19:16:19.62	228.00	42.26	
2025-01-10 19:16:19.83	228.11	42.30	
2025-01-10 19:16:20.04	228.22	42.33	
2025-01-10 19:16:20.24	228.32	42.37	
2025-01-10 19:16:20.45	228.43	42.40	
2025-01-10 19:16:20.65	228.53	42.44	
2025-01-10 19:16:20.86	228.64	42.48	
2025-01-10 19:16:21.06	228.74	42.51	
2025-01-10 19:16:21.27	228.85	42.55	
2025-01-10 19:16:21.47	228.95	42.58	
2025-01-10 19:16:21.67	229.05	42.62	
2025-01-10 19:16:21.88	229.16	42.65	
2025-01-10 19:16:22.08	229.27	42.69	
2025-01-10 19:16:22.29	229.37	42.72	
2025-01-10 19:16:22.49	229.48	42.76	
2025-01-10 19:16:22.70	229.59	42.79	
2025-01-10 19:16:22.90	229.69	42.83	
2025-01-10 19:16:23.11	229.80	42.86	
2025-01-10 19:16:23.31	229.91	42.90	
2025-01-10 19:16:23.52	230.02	42.93	
2025-01-10 19:16:23.73	230.13	42.97	
2025-01-10 19:16:23.93	230.24	43.00	
2025-01-10 19:16:24.13	230.34	43.03	
2025-01-10 19:16:24.34	230.45	43.07	
2025-01-10 19:16:24.55	230.57	43.11	
2025-01-10 19:16:24.75	230.67	43.14	
2025-01-10 19:16:24.95	230.78	43.17	
2025-01-10 19:16:25.16	230.89	43.21	
2025-01-10 19:16:25.37	231.00	43.24	
2025-01-10 19:16:25.57	231.11	43.27	
2025-01-10 19:16:25.78	231.23	43.31	
2025-01-10 19:16:25.98	231.33	43.34	
2025-01-10 19:16:26.19	231.45	43.38	
2025-01-10 19:16:26.39	231.56	43.41	
2025-01-10 19:16:26.60	231.67	43.44	
2025-01-10 19:16:26.80	231.78	43.48	
2025-01-10 19:16:27.01	231.89	43.51	
2025-01-10 19:16:27.21	232.00	43.54	
2025-01-10 19:16:27.42	232.12	43.58	
2025-01-10 19:16:27.62	232.23	43.61	
2025-01-10 19:16:27.83	232.34	43.64	
2025-01-10 19:16:28.03	232.45	43.68	
2025-01-10 19:16:28.24	232.57	43.71	
2025-01-10 19:16:28.45	232.69	43.74	
2025-01-10 19:16:28.65	232.80	43.77	
2025-01-10 19:16:28.86	232.92	43.81	
2025-01-10 19:16:29.06	233.03	43.84	
2025-01-10 19:16:29.28	233.15	43.87	
2025-01-10 19:16:29.49	233.27	43.91	
2025-01-10 19:16:29.69	233.38	43.94	
2025-01-10 19:16:29.90	233.50	43.97	
2025-01-10 19:16:30.10	233.61	44.00	
2025-01-10 19:16:30.31	233.73	44.04	
2025-01-10 19:16:30.51	233.84	44.07	
2025-01-10 19:16:30.72	233.96	44.10	
2025-01-10 19:16:30.92	234.07	44.13	
2025-01-10 19:16:31.13	234.19	44.16	
2025-01-10 19:16:31.33	234.31	44.19	
2025-01-10 19:16:31.53	234.42	44.22	
2025-01-10 19:16:31.74	234.54	44.25	
2025-01-10 19:16:31.94	234.66	44.28	
2025-01-10 19:16:32.15	234.78	44.32	
2025-01-10 19:16:32.35	234.89	44.35	
2025-01-10 19:16:32.56	235.01	44.38	
2025-01-10 19:16:32.76	235.13	44.41	
2025-01-10 19:16:32.97	235.25	44.44	
2025-01-10 19:16:33.17	235.37	44.47	
2025-01-10 19:16:33.37	235.48	44.50	
2025-01-10 19:16:33.58	235.61	44.53	
2025-01-10 19:16:33.78	235.72	44.56	
2025-01-10 19:16:33.99	235.85	44.59	
2025-01-10 19:16:34.20	235.97	44.62	
2025-01-10 19:16:34.40	236.09	44.65	
2025-01-10 19:16:34.60	236.20	44.68	
2025-01-10 19:16:34.81	236.33	44.71	
2025-01-10 19:16:35.02	236.45	44.74	
2025-01-10 19:16:35.22	236.57	44.77	
2025-01-10 19:16:35.43	236.69	44.80	
2025-01-10 19:16:35.63	236.81	44.82	
2025-01-10 19:16:35.84	236.94	44.85	
2025-01-10 19:16:36.04	237.06	44.88	
2025-01-10 19:16:36.25	237.18	44.91	
2025-01-10 19:16:36.45	237.30	44.94	
2025-01-10 19:16:36.66	237.43	44.97	
2025-01-10 19:16:36.86	237.55	45.00	
2025-01-10 19:16:37.07	237.67	45.03	
2025-01-10 19:16:37.28	237.80	45.05	
2025-01-10 19:16:37.48	237.92	45.08	
2025-01-10 19:16:37.69	238.05	45.11	
2025-01-10 19:16:37.89	238.17	45.14	
2025-01-10 19:16:38.10	238.30	45.17	
2025-01-10 19:16:38.30	238.42	45.19	
2025-01-10 19:16:38.51	238.55	45.22	
2025-01-10 19:16:38.71	238.67	45.25	
2025-01-10 19:16:38.92	238.80	45.27	
2025-01-10 19:16:39.12	238.92	45.30	
2025-01-10 19:16:39.33	239.05	45.33	
2025-01-10 19:16:39.53	239.17	45.35	
2025-01-10 19:16:39.74	239.30	45.38	
2025-01-10 19:16:39.96	239.43	45.41	
2025-01-10 19:16:40.16	239.56	45.44	
2025-01-10 19:16:40.37	239.69	45.46	
2025-01-10 19:16:40.57	239.81	45.49	
2025-01-10 19:16:40.78	239.94	45.51	
2025-01-10 19:16:40.98	240.07	45.54	
2025-01-10 19:16:41.19	240.20	45.57	
2025-01-10 19:16:41.40	240.33	45.59	
2025-01-10 19:16:41.60	240.45	45.62	
2025-01-10 19:16:41.81	240.58	45.64	
2025-01-10 19:16:42.01	240.71	45.67	
2025-01-10 19:16:42.22	240.84	45.69	
2025-01-10 19:16:42.42	240.97	45.72	
2025-01-10 19:16:42.63	241.10	45.74	
2025-01-10 19:16:42.84	241.23	45.77	
2025-01-10 19:16:43.04	241.36	45.79	
2025-01-10 19:16:43.25	241.49	45.82	
2025-01-10 19:16:43.45	241.62	45.84	
2025-01-10 19:16:43.66	241.75	45.86	
2025-01-10 19:16:43.86	241.88	45.89	
2025-01-10 19:16:44.06	242.00	45.91	
2025-01-10 19:16:44.27	242.14	45.93	
2025-01-10 19:16:44.48	242.27	45.96	
2025-01-10 19:16:44.68	242.40	45.98	
2025-01-10 19:16:44.89	242.53	46.01	
2025-01-10 19:16:45.09	242.66	46.03	
2025-01-10 19:16:45.30	242.79	46.05	
2025-01-10 19:16:45.50	242.92	46.07	
2025-01-10 19:16:45.71	243.06	46.10	
2025-01-10 19:16:45.91	243.19	46.12	
2025-01-10 19:16:46.12	243.32	46.14	
2025-01-10 19:16:46.32	243.45	46.16	
2025-01-10 19:16:46.53	243.59	46.18	
2025-01-10 19:16:46.73	243.72	46.21	
2025-01-10 19:16:46.94	243.85	46.23	
2025-01-10 19:16:47.14	243.98	46.25	
2025-01-10 19:16:47.36	244.13	46.27	
2025-01-10 19:16:47.57	244.26	46.29	
2025-01-10 19:16:47.77	244.39	46.31	
2025-01-10 19:16:47.98	244.53	46.34	
2025-01-10 19:16:48.19	244.67	46.36	
2025-01-10 19:16:48.39	244.80	46.38	
2025-01-10 19:16:48.59	244.93	46.40	
2025-01-10 19:16:48.80	245.07	46.42	
2025-01-10 19:16:49.01	245.21	46.44	
2025-01-10 19:16:49.21	245.34	46.46	
2025-01-10 19:16:49.41	245.47	46.48	
2025-01-10 19:16:49.62	245.61	46.50	
2025-01-10 19:16:49.82	245.74	46.52	
2025-01-10 19:16:50.03	245.88	46.53	
2025-01-10 19:16:50.23	246.01	46.55	
2025-01-10 19:16:50.44	246.15	46.57	
2025-01-10 19:16:50.64	246.28	46.59	
2025-01-10 19:16:50.85	246.42	46.61	
2025-01-10 19:16:51.05	246.56	46.63	
2025-01-10 19:16:51.26	246.70	46.65	
2025-01-10 19:16:51.46	246.83	46.66	
2025-01-10 19:16:51.67	246.97	46.68	
2025-01-10 19:16:51.87	247.10	46.70	
2025-01-10 19:16:52.08	247.25	46.72	
2025-01-10 19:16:52.28	247.38	46.74	
2025-01-10 19:16:52.49	247.52	46.75	
2025-01-10 19:16:52.69	247.65	46.77	
2025-01-10 19:16:52.90	247.80	46.79	
2025-01-10 19:16:53.10	247.93	46.80	
2025-01-10 19:16:53.31	248.07	46.82	
2025-01-10 19:16:53.52	248.21	46.84	
2025-01-10 19:16:53.72	248.35	46.85	
2025-01-10 19:16:53.92	248.48	46.87	
2025-01-10 19:16:54.13	248.63	46.88	
2025-01-10 19:16:54.33	248.76	46.90	
2025-01-10 19:16:54.54	248.90	46.92	
2025-01-10 19:16:54.74	249.04	46.93	
2025-01-10 19:16:54.95	249.18	46.95	
2025-01-10 19:16:55.15	249.32	46.96	
2025-01-10 19:16:55.36	249.46	46.98	
2025-01-10 19:16:55.56	249.60	46.99	
2025-01-10 19:16:55.77	249.74	47.01	
2025-01-10 19:16:55.97	249.88	47.02	
