passes_logs/2025/01/10/SPB_Silybum_02/SPB_Silybum_02__20250110_111258_TERRA_rec.log

#Pass ID: 20250110_111258_TERRA
#Satellite: TERRA
#Configuration: TERRA
#Start time: 2025-01-10 11:12:57

#Version: 2.0.20230423
#Station: SPB_Silybum_02
#Location: 30.233357 lon 59.946436 lat
#TLE: 1 25994U 99068A   25009.84464495  .00000861  00000+0  18726-3 0  9992
#TLE: 2 25994  98.0226  73.0387 0003560  82.8900 338.1382 14.60385144333325

#Time	Az	El	Level	Level2	SNR	BER	Gain	Gain2
2025-01-10 11:12:59.20	5.86	4.05	
2025-01-10 11:12:59.41	5.83	4.06	
2025-01-10 11:12:59.61	5.81	4.07	
2025-01-10 11:12:59.82	5.78	4.08	
2025-01-10 11:13:00.03	5.75	4.09	
2025-01-10 11:13:00.23	5.73	4.10	
2025-01-10 11:13:00.43	5.70	4.11	
2025-01-10 11:13:00.64	5.68	4.12	
2025-01-10 11:13:00.84	5.65	4.13	
2025-01-10 11:13:01.05	5.62	4.14	
2025-01-10 11:13:01.25	5.60	4.15	
2025-01-10 11:13:01.46	5.57	4.16	
2025-01-10 11:13:01.66	5.55	4.17	
2025-01-10 11:13:01.87	5.52	4.18	
2025-01-10 11:13:02.07	5.49	4.18	
2025-01-10 11:13:02.28	5.47	4.19	
2025-01-10 11:13:02.48	5.44	4.20	
2025-01-10 11:13:02.69	5.42	4.21	
2025-01-10 11:13:02.89	5.39	4.22	
2025-01-10 11:13:03.10	5.36	4.23	
2025-01-10 11:13:03.30	5.34	4.24	
2025-01-10 11:13:03.51	5.31	4.25	
2025-01-10 11:13:03.71	5.29	4.26	
2025-01-10 11:13:03.92	5.26	4.27	
2025-01-10 11:13:04.12	5.23	4.28	
2025-01-10 11:13:04.33	5.21	4.29	
2025-01-10 11:13:04.54	5.18	4.30	
2025-01-10 11:13:04.74	5.15	4.31	
2025-01-10 11:13:04.95	5.13	4.32	
2025-01-10 11:13:05.15	5.10	4.33	
2025-01-10 11:13:05.36	5.07	4.34	
2025-01-10 11:13:05.57	5.05	4.34	
2025-01-10 11:13:05.77	5.02	4.35	
2025-01-10 11:13:05.98	4.99	4.36	
2025-01-10 11:13:06.18	4.97	4.37	
2025-01-10 11:13:06.39	4.94	4.38	
2025-01-10 11:13:06.59	4.92	4.39	
2025-01-10 11:13:06.80	4.89	4.40	
2025-01-10 11:13:07.00	4.86	4.41	
2025-01-10 11:13:07.21	4.84	4.42	
2025-01-10 11:13:07.41	4.81	4.43	
2025-01-10 11:13:07.62	4.78	4.44	
2025-01-10 11:13:07.82	4.76	4.45	
2025-01-10 11:13:08.03	4.73	4.46	
2025-01-10 11:13:08.23	4.70	4.47	
2025-01-10 11:13:08.44	4.68	4.48	
2025-01-10 11:13:08.64	4.65	4.48	
2025-01-10 11:13:08.85	4.62	4.49	
2025-01-10 11:13:09.05	4.60	4.50	
2025-01-10 11:13:09.26	4.57	4.51	
2025-01-10 11:13:09.46	4.54	4.52	
2025-01-10 11:13:09.67	4.52	4.53	
2025-01-10 11:13:09.87	4.49	4.54	
2025-01-10 11:13:10.08	4.46	4.55	
2025-01-10 11:13:10.28	4.44	4.56	
2025-01-10 11:13:10.48	4.41	4.57	
2025-01-10 11:13:10.69	4.38	4.58	
2025-01-10 11:13:10.90	4.36	4.59	
2025-01-10 11:13:11.10	4.33	4.60	
2025-01-10 11:13:11.31	4.30	4.61	
2025-01-10 11:13:11.51	4.28	4.62	
2025-01-10 11:13:11.72	4.25	4.62	
2025-01-10 11:13:11.92	4.22	4.63	
2025-01-10 11:13:12.13	4.19	4.64	
2025-01-10 11:13:12.33	4.17	4.65	
2025-01-10 11:13:12.54	4.14	4.66	
2025-01-10 11:13:12.74	4.11	4.67	
2025-01-10 11:13:12.95	4.09	4.68	
2025-01-10 11:13:13.15	4.06	4.69	
2025-01-10 11:13:13.36	4.03	4.70	
2025-01-10 11:13:13.56	4.00	4.71	
2025-01-10 11:13:13.76	3.98	4.72	
2025-01-10 11:13:13.97	3.95	4.73	
2025-01-10 11:13:14.18	3.92	4.74	
2025-01-10 11:13:14.38	3.90	4.75	
2025-01-10 11:13:14.59	3.87	4.75	
2025-01-10 11:13:14.79	3.84	4.76	
2025-01-10 11:13:15.00	3.81	4.77	
2025-01-10 11:13:15.20	3.79	4.78	
2025-01-10 11:13:15.41	3.76	4.79	
2025-01-10 11:13:15.61	3.73	4.80	
2025-01-10 11:13:15.82	3.70	4.81	
2025-01-10 11:13:16.02	3.68	4.82	
2025-01-10 11:13:16.23	3.65	4.83	
2025-01-10 11:13:16.43	3.62	4.84	
2025-01-10 11:13:16.64	3.60	4.85	
2025-01-10 11:13:16.84	3.57	4.86	
2025-01-10 11:13:17.05	3.54	4.87	
2025-01-10 11:13:17.26	3.51	4.88	
2025-01-10 11:13:17.46	3.49	4.88	
2025-01-10 11:13:17.67	3.46	4.89	
2025-01-10 11:13:17.87	3.43	4.90	
2025-01-10 11:13:18.08	3.40	4.91	
2025-01-10 11:13:18.29	3.37	4.92	
2025-01-10 11:13:18.49	3.35	4.93	
2025-01-10 11:13:18.70	3.32	4.94	
2025-01-10 11:13:18.91	3.29	4.95	
2025-01-10 11:13:19.11	3.26	4.96	
2025-01-10 11:13:19.31	3.24	4.97	
2025-01-10 11:13:19.52	3.21	4.98	
2025-01-10 11:13:19.73	3.18	4.99	
2025-01-10 11:13:19.93	3.15	5.00	
2025-01-10 11:13:20.13	3.13	5.00	
2025-01-10 11:13:20.34	3.10	5.01	
2025-01-10 11:13:20.55	3.07	5.02	
2025-01-10 11:13:20.75	3.04	5.03	
2025-01-10 11:13:20.96	3.01	5.04	
2025-01-10 11:13:21.16	2.99	5.05	
2025-01-10 11:13:21.37	2.96	5.06	
2025-01-10 11:13:21.57	2.93	5.07	
2025-01-10 11:13:21.78	2.90	5.08	
2025-01-10 11:13:21.98	2.87	5.09	
2025-01-10 11:13:22.18	2.85	5.10	
2025-01-10 11:13:22.39	2.82	5.11	
2025-01-10 11:13:22.60	2.79	5.11	
2025-01-10 11:13:22.80	2.76	5.12	
2025-01-10 11:13:23.01	2.73	5.13	
2025-01-10 11:13:23.21	2.71	5.14	
2025-01-10 11:13:23.41	2.68	5.15	
2025-01-10 11:13:23.62	2.65	5.16	
2025-01-10 11:13:23.83	2.62	5.17	
2025-01-10 11:13:24.03	2.59	5.18	
2025-01-10 11:13:24.24	2.57	5.19	
2025-01-10 11:13:24.44	2.54	5.20	
2025-01-10 11:13:24.65	2.51	5.21	
2025-01-10 11:13:24.85	2.48	5.22	
2025-01-10 11:13:25.06	2.45	5.22	
2025-01-10 11:13:25.26	2.43	5.23	
2025-01-10 11:13:25.47	2.40	5.24	
2025-01-10 11:13:25.67	2.37	5.25	
2025-01-10 11:13:25.88	2.34	5.26	
2025-01-10 11:13:26.08	2.31	5.27	
2025-01-10 11:13:26.29	2.28	5.28	
2025-01-10 11:13:26.49	2.26	5.29	
2025-01-10 11:13:26.70	2.23	5.30	
2025-01-10 11:13:26.90	2.20	5.31	
2025-01-10 11:13:27.11	2.17	5.32	
2025-01-10 11:13:27.31	2.14	5.33	
2025-01-10 11:13:27.52	2.11	5.33	
2025-01-10 11:13:27.72	2.09	5.34	
2025-01-10 11:13:27.93	2.06	5.35	
2025-01-10 11:13:28.13	2.03	5.36	
2025-01-10 11:13:28.34	2.00	5.37	
2025-01-10 11:13:28.54	1.97	5.38	
2025-01-10 11:13:28.75	1.94	5.39	
2025-01-10 11:13:28.95	1.91	5.40	
2025-01-10 11:13:29.16	1.88	5.41	
2025-01-10 11:13:29.37	1.86	5.42	
2025-01-10 11:13:29.57	1.83	5.43	
2025-01-10 11:13:29.78	1.80	5.43	
2025-01-10 11:13:29.98	1.77	5.44	
2025-01-10 11:13:30.19	1.74	5.45	
2025-01-10 11:13:30.39	1.71	5.46	
2025-01-10 11:13:30.60	1.68	5.47	
2025-01-10 11:13:30.80	1.66	5.48	
2025-01-10 11:13:31.01	1.63	5.49	
2025-01-10 11:13:31.21	1.60	5.50	
2025-01-10 11:13:31.42	1.57	5.51	
2025-01-10 11:13:31.63	1.54	5.52	
2025-01-10 11:13:31.83	1.51	5.53	
2025-01-10 11:13:32.03	1.48	5.53	
2025-01-10 11:13:32.24	1.45	5.54	
2025-01-10 11:13:32.45	1.42	5.55	
2025-01-10 11:13:32.65	1.39	5.56	
2025-01-10 11:13:32.86	1.36	5.57	
2025-01-10 11:13:33.06	1.34	5.58	
2025-01-10 11:13:33.27	1.31	5.59	
2025-01-10 11:13:33.47	1.28	5.60	
2025-01-10 11:13:33.68	1.25	5.61	
2025-01-10 11:13:33.88	1.22	5.62	
2025-01-10 11:13:34.09	1.19	5.63	
2025-01-10 11:13:34.29	1.16	5.63	
2025-01-10 11:13:34.50	1.13	5.64	
2025-01-10 11:13:34.70	1.10	5.65	
2025-01-10 11:13:34.91	1.07	5.66	
2025-01-10 11:13:35.11	1.05	5.67	
2025-01-10 11:13:35.32	1.02	5.68	
2025-01-10 11:13:35.53	0.99	5.69	
2025-01-10 11:13:35.73	0.96	5.70	
2025-01-10 11:13:35.94	0.93	5.71	
2025-01-10 11:13:36.16	0.90	5.72	
2025-01-10 11:13:36.36	0.87	5.73	
2025-01-10 11:13:36.57	0.84	5.73	
2025-01-10 11:13:36.77	0.81	5.74	
2025-01-10 11:13:36.98	0.78	5.75	
2025-01-10 11:13:37.20	0.75	5.76	
2025-01-10 11:13:37.40	0.72	5.77	
2025-01-10 11:13:37.61	0.69	5.78	
2025-01-10 11:13:37.82	0.66	5.79	
2025-01-10 11:13:38.02	0.63	5.80	
2025-01-10 11:13:38.23	0.60	5.81	
2025-01-10 11:13:38.43	0.57	5.82	
2025-01-10 11:13:38.64	0.54	5.83	
2025-01-10 11:13:38.84	0.51	5.83	
2025-01-10 11:13:39.05	0.48	5.84	
2025-01-10 11:13:39.25	0.45	5.85	
2025-01-10 11:13:39.46	0.42	5.86	
2025-01-10 11:13:39.66	0.39	5.87	
2025-01-10 11:13:39.87	0.36	5.88	
2025-01-10 11:13:40.07	0.33	5.89	
2025-01-10 11:13:40.28	0.30	5.90	
2025-01-10 11:13:40.49	0.27	5.91	
2025-01-10 11:13:40.69	0.24	5.91	
2025-01-10 11:13:40.90	0.21	5.92	
2025-01-10 11:13:41.11	0.18	5.93	
2025-01-10 11:13:41.31	0.15	5.94	
2025-01-10 11:13:41.53	0.12	5.95	
2025-01-10 11:13:41.74	0.09	5.96	
2025-01-10 11:13:41.94	0.06	5.97	
2025-01-10 11:13:42.15	0.03	5.98	
2025-01-10 11:13:42.36	0.00	5.99	
2025-01-10 11:13:42.58	359.97	6.00	
2025-01-10 11:13:42.78	359.94	6.01	
2025-01-10 11:13:42.99	359.91	6.01	
2025-01-10 11:13:43.19	359.88	6.02	
2025-01-10 11:13:43.40	359.85	6.03	
2025-01-10 11:13:43.60	359.82	6.04	
2025-01-10 11:13:43.81	359.79	6.05	
2025-01-10 11:13:44.01	359.76	6.06	
2025-01-10 11:13:44.22	359.73	6.07	
2025-01-10 11:13:44.43	359.70	6.08	
2025-01-10 11:13:44.63	359.67	6.09	
2025-01-10 11:13:44.83	359.64	6.09	
2025-01-10 11:13:45.04	359.61	6.10	
2025-01-10 11:13:45.25	359.58	6.11	
2025-01-10 11:13:45.45	359.55	6.12	
2025-01-10 11:13:45.66	359.52	6.13	
2025-01-10 11:13:45.86	359.49	6.14	
2025-01-10 11:13:46.07	359.46	6.15	
2025-01-10 11:13:46.27	359.43	6.16	
2025-01-10 11:13:46.48	359.40	6.17	
2025-01-10 11:13:46.68	359.37	6.17	
2025-01-10 11:13:46.89	359.33	6.18	
2025-01-10 11:13:47.10	359.30	6.19	
2025-01-10 11:13:47.30	359.27	6.20	
2025-01-10 11:13:47.51	359.24	6.21	
2025-01-10 11:13:47.72	359.21	6.22	
2025-01-10 11:13:47.93	359.18	6.23	
2025-01-10 11:13:48.14	359.15	6.24	
2025-01-10 11:13:48.35	359.12	6.25	
2025-01-10 11:13:48.55	359.09	6.25	
2025-01-10 11:13:48.76	359.06	6.26	
2025-01-10 11:13:48.97	359.03	6.27	
2025-01-10 11:13:49.17	359.00	6.28	
2025-01-10 11:13:49.38	358.96	6.29	
2025-01-10 11:13:49.58	358.93	6.30	
2025-01-10 11:13:49.79	358.90	6.31	
2025-01-10 11:13:50.00	358.87	6.32	
2025-01-10 11:13:50.20	358.84	6.32	
2025-01-10 11:13:50.41	358.81	6.33	
2025-01-10 11:13:50.61	358.78	6.34	
2025-01-10 11:13:50.82	358.75	6.35	
2025-01-10 11:13:51.02	358.72	6.36	
2025-01-10 11:13:51.23	358.69	6.37	
2025-01-10 11:13:51.43	358.66	6.38	
2025-01-10 11:13:51.64	358.63	6.39	
2025-01-10 11:13:51.85	358.59	6.39	
2025-01-10 11:13:52.05	358.56	6.40	
2025-01-10 11:13:52.25	358.53	6.41	
2025-01-10 11:13:52.46	358.50	6.42	
2025-01-10 11:13:52.67	358.47	6.43	
2025-01-10 11:13:52.87	358.44	6.44	
2025-01-10 11:13:53.08	358.41	6.45	
2025-01-10 11:13:53.28	358.38	6.46	
2025-01-10 11:13:53.49	358.35	6.46	
2025-01-10 11:13:53.70	358.31	6.47	
2025-01-10 11:13:53.90	358.28	6.48	
2025-01-10 11:13:54.11	358.25	6.49	
2025-01-10 11:13:54.31	358.22	6.50	
2025-01-10 11:13:54.52	358.19	6.51	
2025-01-10 11:13:54.73	358.16	6.52	
2025-01-10 11:13:54.93	358.13	6.53	
2025-01-10 11:13:55.14	358.10	6.53	
2025-01-10 11:13:55.34	358.07	6.54	
2025-01-10 11:13:55.55	358.03	6.55	
2025-01-10 11:13:55.75	358.00	6.56	
2025-01-10 11:13:55.96	357.97	6.57	
2025-01-10 11:13:56.17	357.94	6.58	
2025-01-10 11:13:56.37	357.91	6.59	
2025-01-10 11:13:56.57	357.88	6.59	
2025-01-10 11:13:56.78	357.85	6.60	
2025-01-10 11:13:56.98	357.82	6.61	
2025-01-10 11:13:57.19	357.78	6.62	
2025-01-10 11:13:57.39	357.75	6.63	
2025-01-10 11:13:57.60	357.72	6.64	
2025-01-10 11:13:57.80	357.69	6.65	
2025-01-10 11:13:58.01	357.66	6.66	
2025-01-10 11:13:58.21	357.63	6.66	
2025-01-10 11:13:58.42	357.59	6.67	
2025-01-10 11:13:58.63	357.56	6.68	
2025-01-10 11:13:58.83	357.53	6.69	
2025-01-10 11:13:59.04	357.50	6.70	
2025-01-10 11:13:59.24	357.47	6.71	
2025-01-10 11:13:59.45	357.44	6.72	
2025-01-10 11:13:59.65	357.41	6.72	
2025-01-10 11:13:59.86	357.37	6.73	
2025-01-10 11:14:00.06	357.34	6.74	
2025-01-10 11:14:00.27	357.31	6.75	
2025-01-10 11:14:00.47	357.28	6.76	
2025-01-10 11:14:00.68	357.25	6.77	
2025-01-10 11:14:00.89	357.21	6.78	
2025-01-10 11:14:01.09	357.18	6.78	
2025-01-10 11:14:01.30	357.15	6.79	
2025-01-10 11:14:01.50	357.12	6.80	
2025-01-10 11:14:01.70	357.09	6.81	
2025-01-10 11:14:01.91	357.06	6.82	
2025-01-10 11:14:02.12	357.02	6.83	
2025-01-10 11:14:02.32	356.99	6.83	
2025-01-10 11:14:02.53	356.96	6.84	
2025-01-10 11:14:02.73	356.93	6.85	
2025-01-10 11:14:02.94	356.89	6.86	
2025-01-10 11:14:03.14	356.86	6.87	
2025-01-10 11:14:03.35	356.83	6.88	
2025-01-10 11:14:03.55	356.80	6.89	
2025-01-10 11:14:03.76	356.77	6.89	
2025-01-10 11:14:03.98	356.73	6.90	
2025-01-10 11:14:04.18	356.70	6.91	
2025-01-10 11:14:04.39	356.67	6.92	
2025-01-10 11:14:04.59	356.64	6.93	
2025-01-10 11:14:04.80	356.60	6.94	
2025-01-10 11:14:05.00	356.57	6.95	
2025-01-10 11:14:05.21	356.54	6.95	
2025-01-10 11:14:05.41	356.51	6.96	
2025-01-10 11:14:05.62	356.48	6.97	
2025-01-10 11:14:05.83	356.44	6.98	
2025-01-10 11:14:06.03	356.41	6.99	
2025-01-10 11:14:06.23	356.38	7.00	
2025-01-10 11:14:06.44	356.35	7.00	
2025-01-10 11:14:06.64	356.31	7.01	
2025-01-10 11:14:06.85	356.28	7.02	
2025-01-10 11:14:07.05	356.25	7.03	
2025-01-10 11:14:07.26	356.22	7.04	
2025-01-10 11:14:07.46	356.18	7.05	
2025-01-10 11:14:07.67	356.15	7.05	
2025-01-10 11:14:07.87	356.12	7.06	
2025-01-10 11:14:08.08	356.09	7.07	
2025-01-10 11:14:08.29	356.05	7.08	
2025-01-10 11:14:08.50	356.02	7.09	
2025-01-10 11:14:08.71	355.99	7.10	
2025-01-10 11:14:08.91	355.95	7.11	
2025-01-10 11:14:09.12	355.92	7.11	
2025-01-10 11:14:09.32	355.89	7.12	
2025-01-10 11:14:09.53	355.86	7.13	
2025-01-10 11:14:09.73	355.82	7.14	
2025-01-10 11:14:09.94	355.79	7.15	
2025-01-10 11:14:10.14	355.76	7.16	
2025-01-10 11:14:10.34	355.73	7.16	
2025-01-10 11:14:10.55	355.69	7.17	
2025-01-10 11:14:10.75	355.66	7.18	
2025-01-10 11:14:10.96	355.63	7.19	
2025-01-10 11:14:11.17	355.59	7.20	
2025-01-10 11:14:11.37	355.56	7.21	
2025-01-10 11:14:11.58	355.53	7.21	
2025-01-10 11:14:11.78	355.50	7.22	
2025-01-10 11:14:11.99	355.46	7.23	
2025-01-10 11:14:12.19	355.43	7.24	
2025-01-10 11:14:12.40	355.40	7.25	
2025-01-10 11:14:12.60	355.37	7.25	
2025-01-10 11:14:12.81	355.33	7.26	
2025-01-10 11:14:13.01	355.30	7.27	
2025-01-10 11:14:13.22	355.27	7.28	
2025-01-10 11:14:13.42	355.23	7.29	
2025-01-10 11:14:13.62	355.20	7.30	
2025-01-10 11:14:13.83	355.17	7.30	
2025-01-10 11:14:14.03	355.13	7.31	
2025-01-10 11:14:14.24	355.10	7.32	
2025-01-10 11:14:14.45	355.07	7.33	
2025-01-10 11:14:14.65	355.03	7.34	
2025-01-10 11:14:14.86	355.00	7.35	
2025-01-10 11:14:15.06	354.97	7.35	
2025-01-10 11:14:15.27	354.93	7.36	
2025-01-10 11:14:15.47	354.90	7.37	
2025-01-10 11:14:15.68	354.87	7.38	
2025-01-10 11:14:15.88	354.84	7.39	
2025-01-10 11:14:16.09	354.80	7.39	
2025-01-10 11:14:16.29	354.77	7.40	
2025-01-10 11:14:16.50	354.73	7.41	
2025-01-10 11:14:16.70	354.70	7.42	
2025-01-10 11:14:16.91	354.67	7.43	
2025-01-10 11:14:17.12	354.63	7.44	
2025-01-10 11:14:17.32	354.60	7.44	
2025-01-10 11:14:17.53	354.57	7.45	
2025-01-10 11:14:17.73	354.53	7.46	
2025-01-10 11:14:17.94	354.50	7.47	
2025-01-10 11:14:18.15	354.47	7.48	
2025-01-10 11:14:18.35	354.43	7.48	
2025-01-10 11:14:18.56	354.40	7.49	
2025-01-10 11:14:18.76	354.37	7.50	
2025-01-10 11:14:18.96	354.33	7.51	
2025-01-10 11:14:19.17	354.30	7.52	
2025-01-10 11:14:19.38	354.26	7.52	
2025-01-10 11:14:19.58	354.23	7.53	
2025-01-10 11:14:19.79	354.20	7.54	
2025-01-10 11:14:19.99	354.16	7.55	
2025-01-10 11:14:20.19	354.13	7.56	
2025-01-10 11:14:20.40	354.10	7.56	
2025-01-10 11:14:20.61	354.06	7.57	
2025-01-10 11:14:20.81	354.03	7.58	
2025-01-10 11:14:21.02	353.99	7.59	
2025-01-10 11:14:21.22	353.96	7.60	
2025-01-10 11:14:21.43	353.93	7.60	
2025-01-10 11:14:21.63	353.89	7.61	
2025-01-10 11:14:21.84	353.86	7.62	
2025-01-10 11:14:22.04	353.83	7.63	
2025-01-10 11:14:22.25	353.79	7.64	
2025-01-10 11:14:22.45	353.76	7.64	
2025-01-10 11:14:22.66	353.72	7.65	
2025-01-10 11:14:22.86	353.69	7.66	
2025-01-10 11:14:23.06	353.66	7.67	
2025-01-10 11:14:23.27	353.62	7.68	
2025-01-10 11:14:23.47	353.59	7.68	
2025-01-10 11:14:23.68	353.55	7.69	
2025-01-10 11:14:23.88	353.52	7.70	
2025-01-10 11:14:24.09	353.49	7.71	
2025-01-10 11:14:24.31	353.45	7.72	
2025-01-10 11:14:24.51	353.42	7.72	
2025-01-10 11:14:24.72	353.38	7.73	
2025-01-10 11:14:24.92	353.35	7.74	
2025-01-10 11:14:25.13	353.31	7.75	
2025-01-10 11:14:25.35	353.28	7.76	
2025-01-10 11:14:25.55	353.24	7.76	
2025-01-10 11:14:25.76	353.21	7.77	
2025-01-10 11:14:25.96	353.17	7.78	
2025-01-10 11:14:26.17	353.14	7.79	
2025-01-10 11:14:26.37	353.11	7.80	
2025-01-10 11:14:26.58	353.07	7.80	
2025-01-10 11:14:26.78	353.04	7.81	
2025-01-10 11:14:26.99	353.00	7.82	
2025-01-10 11:14:27.20	352.97	7.83	
2025-01-10 11:14:27.40	352.93	7.83	
2025-01-10 11:14:27.61	352.90	7.84	
2025-01-10 11:14:27.81	352.86	7.85	
2025-01-10 11:14:28.02	352.83	7.86	
2025-01-10 11:14:28.22	352.80	7.87	
2025-01-10 11:14:28.43	352.76	7.87	
2025-01-10 11:14:28.63	352.73	7.88	
2025-01-10 11:14:28.84	352.69	7.89	
2025-01-10 11:14:29.05	352.66	7.90	
2025-01-10 11:14:29.25	352.62	7.90	
2025-01-10 11:14:29.46	352.59	7.91	
2025-01-10 11:14:29.66	352.55	7.92	
2025-01-10 11:14:29.87	352.52	7.93	
2025-01-10 11:14:30.07	352.48	7.94	
2025-01-10 11:14:30.28	352.45	7.94	
2025-01-10 11:14:30.48	352.41	7.95	
2025-01-10 11:14:30.69	352.38	7.96	
2025-01-10 11:14:30.89	352.34	7.97	
2025-01-10 11:14:31.10	352.31	7.97	
2025-01-10 11:14:31.31	352.27	7.98	
2025-01-10 11:14:31.51	352.24	7.99	
2025-01-10 11:14:31.72	352.20	8.00	
2025-01-10 11:14:31.92	352.17	8.01	
2025-01-10 11:14:32.12	352.13	8.01	
2025-01-10 11:14:32.33	352.10	8.02	
2025-01-10 11:14:32.54	352.06	8.03	
2025-01-10 11:14:32.75	352.03	8.04	
2025-01-10 11:14:32.96	351.99	8.04	
2025-01-10 11:14:33.17	351.96	8.05	
2025-01-10 11:14:33.37	351.92	8.06	
2025-01-10 11:14:33.58	351.89	8.07	
2025-01-10 11:14:33.78	351.85	8.07	
2025-01-10 11:14:33.99	351.82	8.08	
2025-01-10 11:14:34.19	351.78	8.09	
2025-01-10 11:14:34.40	351.75	8.10	
2025-01-10 11:14:34.61	351.71	8.11	
2025-01-10 11:14:34.81	351.68	8.11	
2025-01-10 11:14:35.01	351.64	8.12	
2025-01-10 11:14:35.22	351.60	8.13	
2025-01-10 11:14:35.43	351.57	8.14	
2025-01-10 11:14:35.64	351.53	8.14	
2025-01-10 11:14:35.84	351.50	8.15	
2025-01-10 11:14:36.04	351.46	8.16	
2025-01-10 11:14:36.25	351.43	8.17	
2025-01-10 11:14:36.46	351.39	8.17	
2025-01-10 11:14:36.66	351.36	8.18	
2025-01-10 11:14:36.87	351.32	8.19	
2025-01-10 11:14:37.07	351.29	8.20	
2025-01-10 11:14:37.28	351.25	8.20	
2025-01-10 11:14:37.48	351.22	8.21	
2025-01-10 11:14:37.69	351.18	8.22	
2025-01-10 11:14:37.89	351.14	8.23	
2025-01-10 11:14:38.10	351.11	8.23	
2025-01-10 11:14:38.30	351.07	8.24	
2025-01-10 11:14:38.51	351.04	8.25	
2025-01-10 11:14:38.71	351.00	8.26	
2025-01-10 11:14:38.92	350.97	8.26	
2025-01-10 11:14:39.12	350.93	8.27	
2025-01-10 11:14:39.33	350.89	8.28	
2025-01-10 11:14:39.53	350.86	8.28	
2025-01-10 11:14:39.74	350.82	8.29	
2025-01-10 11:14:39.95	350.79	8.30	
2025-01-10 11:14:40.15	350.75	8.31	
2025-01-10 11:14:40.37	350.71	8.32	
2025-01-10 11:14:40.57	350.68	8.32	
2025-01-10 11:14:40.78	350.64	8.33	
2025-01-10 11:14:40.99	350.61	8.34	
2025-01-10 11:14:41.19	350.57	8.34	
2025-01-10 11:14:41.40	350.53	8.35	
2025-01-10 11:14:41.60	350.50	8.36	
2025-01-10 11:14:41.81	350.46	8.37	
2025-01-10 11:14:42.02	350.43	8.37	
2025-01-10 11:14:42.22	350.39	8.38	
2025-01-10 11:14:42.43	350.35	8.39	
2025-01-10 11:14:42.63	350.32	8.40	
2025-01-10 11:14:42.84	350.28	8.40	
2025-01-10 11:14:43.04	350.25	8.41	
2025-01-10 11:14:43.25	350.21	8.42	
2025-01-10 11:14:43.47	350.17	8.43	
2025-01-10 11:14:43.67	350.14	8.43	
2025-01-10 11:14:43.88	350.10	8.44	
2025-01-10 11:14:44.08	350.06	8.45	
2025-01-10 11:14:44.29	350.03	8.45	
2025-01-10 11:14:44.49	349.99	8.46	
2025-01-10 11:14:44.70	349.96	8.47	
2025-01-10 11:14:44.90	349.92	8.48	
2025-01-10 11:14:45.11	349.88	8.48	
2025-01-10 11:14:45.31	349.85	8.49	
2025-01-10 11:14:45.52	349.81	8.50	
2025-01-10 11:14:45.72	349.78	8.50	
2025-01-10 11:14:45.93	349.74	8.51	
2025-01-10 11:14:46.14	349.70	8.52	
2025-01-10 11:14:46.34	349.67	8.53	
2025-01-10 11:14:46.55	349.63	8.53	
2025-01-10 11:14:46.75	349.59	8.54	
2025-01-10 11:14:46.96	349.56	8.55	
2025-01-10 11:14:47.16	349.52	8.56	
2025-01-10 11:14:47.37	349.48	8.56	
2025-01-10 11:14:47.57	349.45	8.57	
2025-01-10 11:14:47.79	349.41	8.58	
2025-01-10 11:14:48.00	349.37	8.58	
2025-01-10 11:14:48.20	349.34	8.59	
2025-01-10 11:14:48.41	349.30	8.60	
2025-01-10 11:14:48.61	349.26	8.61	
2025-01-10 11:14:48.81	349.23	8.61	
2025-01-10 11:14:49.02	349.19	8.62	
2025-01-10 11:14:49.23	349.15	8.63	
2025-01-10 11:14:49.43	349.12	8.63	
2025-01-10 11:14:49.64	349.08	8.64	
2025-01-10 11:14:49.84	349.04	8.65	
2025-01-10 11:14:50.05	349.01	8.65	
2025-01-10 11:14:50.26	348.97	8.66	
2025-01-10 11:14:50.47	348.93	8.67	
2025-01-10 11:14:50.68	348.89	8.68	
2025-01-10 11:14:50.88	348.86	8.68	
2025-01-10 11:14:51.09	348.82	8.69	
2025-01-10 11:14:51.29	348.78	8.70	
2025-01-10 11:14:51.49	348.75	8.70	
2025-01-10 11:14:51.70	348.71	8.71	
2025-01-10 11:14:51.91	348.67	8.72	
2025-01-10 11:14:52.12	348.63	8.72	
2025-01-10 11:14:52.33	348.60	8.73	
2025-01-10 11:14:52.53	348.56	8.74	
2025-01-10 11:14:52.74	348.52	8.75	
2025-01-10 11:14:52.94	348.49	8.75	
2025-01-10 11:14:53.15	348.45	8.76	
2025-01-10 11:14:53.35	348.41	8.77	
2025-01-10 11:14:53.56	348.38	8.77	
2025-01-10 11:14:53.76	348.34	8.78	
2025-01-10 11:14:53.97	348.30	8.79	
2025-01-10 11:14:54.17	348.27	8.79	
2025-01-10 11:14:54.38	348.23	8.80	
2025-01-10 11:14:54.59	348.19	8.81	
2025-01-10 11:14:54.79	348.15	8.81	
2025-01-10 11:14:55.00	348.12	8.82	
2025-01-10 11:14:55.20	348.08	8.83	
2025-01-10 11:14:55.41	348.04	8.83	
2025-01-10 11:14:55.61	348.00	8.84	
2025-01-10 11:14:55.82	347.97	8.85	
2025-01-10 11:14:56.03	347.93	8.85	
2025-01-10 11:14:56.23	347.89	8.86	
2025-01-10 11:14:56.43	347.86	8.87	
2025-01-10 11:14:56.64	347.82	8.87	
2025-01-10 11:14:56.85	347.78	8.88	
2025-01-10 11:14:57.05	347.74	8.89	
2025-01-10 11:14:57.26	347.70	8.90	
2025-01-10 11:14:57.47	347.67	8.90	
2025-01-10 11:14:57.68	347.63	8.91	
2025-01-10 11:14:57.88	347.59	8.92	
2025-01-10 11:14:58.09	347.55	8.92	
2025-01-10 11:14:58.29	347.52	8.93	
2025-01-10 11:14:58.51	347.48	8.94	
2025-01-10 11:14:58.72	347.44	8.94	
2025-01-10 11:14:58.92	347.40	8.95	
2025-01-10 11:14:59.13	347.36	8.96	
2025-01-10 11:14:59.33	347.33	8.96	
2025-01-10 11:14:59.54	347.29	8.97	
2025-01-10 11:14:59.74	347.25	8.98	
2025-01-10 11:14:59.95	347.21	8.98	
2025-01-10 11:15:00.15	347.18	8.99	
2025-01-10 11:15:00.36	347.14	9.00	
2025-01-10 11:15:00.56	347.10	9.00	
2025-01-10 11:15:00.76	347.07	9.01	
2025-01-10 11:15:00.97	347.03	9.01	
2025-01-10 11:15:01.18	346.99	9.02	
2025-01-10 11:15:01.38	346.95	9.03	
2025-01-10 11:15:01.59	346.91	9.03	
2025-01-10 11:15:01.79	346.88	9.04	
2025-01-10 11:15:02.00	346.84	9.05	
2025-01-10 11:15:02.20	346.80	9.05	
2025-01-10 11:15:02.41	346.76	9.06	
2025-01-10 11:15:02.61	346.72	9.07	
2025-01-10 11:15:02.82	346.69	9.07	
2025-01-10 11:15:03.02	346.65	9.08	
2025-01-10 11:15:03.23	346.61	9.09	
2025-01-10 11:15:03.44	346.57	9.09	
2025-01-10 11:15:03.64	346.53	9.10	
2025-01-10 11:15:03.84	346.50	9.11	
2025-01-10 11:15:04.05	346.46	9.11	
2025-01-10 11:15:04.26	346.42	9.12	
2025-01-10 11:15:04.46	346.38	9.12	
2025-01-10 11:15:04.67	346.34	9.13	
2025-01-10 11:15:04.87	346.31	9.14	
2025-01-10 11:15:05.08	346.27	9.14	
2025-01-10 11:15:05.29	346.23	9.15	
2025-01-10 11:15:05.49	346.19	9.16	
2025-01-10 11:15:05.70	346.15	9.16	
2025-01-10 11:15:05.90	346.12	9.17	
2025-01-10 11:15:06.10	346.08	9.18	
2025-01-10 11:15:06.31	346.04	9.18	
2025-01-10 11:15:06.52	346.00	9.19	
2025-01-10 11:15:06.72	345.96	9.19	
2025-01-10 11:15:06.93	345.92	9.20	
2025-01-10 11:15:07.13	345.89	9.21	
2025-01-10 11:15:07.34	345.85	9.21	
2025-01-10 11:15:07.54	345.81	9.22	
2025-01-10 11:15:07.75	345.77	9.23	
2025-01-10 11:15:07.95	345.73	9.23	
2025-01-10 11:15:08.17	345.69	9.24	
2025-01-10 11:15:08.38	345.65	9.24	
2025-01-10 11:15:08.58	345.62	9.25	
2025-01-10 11:15:08.79	345.58	9.26	
2025-01-10 11:15:08.99	345.54	9.26	
2025-01-10 11:15:09.20	345.50	9.27	
2025-01-10 11:15:09.40	345.46	9.28	
2025-01-10 11:15:09.61	345.42	9.28	
2025-01-10 11:15:09.81	345.39	9.29	
2025-01-10 11:15:10.02	345.35	9.29	
2025-01-10 11:15:10.22	345.31	9.30	
2025-01-10 11:15:10.43	345.27	9.31	
2025-01-10 11:15:10.63	345.23	9.31	
2025-01-10 11:15:10.84	345.19	9.32	
2025-01-10 11:15:11.04	345.15	9.32	
2025-01-10 11:15:11.24	345.12	9.33	
2025-01-10 11:15:11.45	345.08	9.34	
2025-01-10 11:15:11.66	345.04	9.34	
2025-01-10 11:15:11.86	345.00	9.35	
2025-01-10 11:15:12.07	344.96	9.35	
2025-01-10 11:15:12.27	344.92	9.36	
2025-01-10 11:15:12.48	344.88	9.37	
2025-01-10 11:15:12.69	344.84	9.37	
2025-01-10 11:15:12.89	344.81	9.38	
2025-01-10 11:15:13.10	344.77	9.38	
2025-01-10 11:15:13.30	344.73	9.39	
2025-01-10 11:15:13.51	344.69	9.40	
2025-01-10 11:15:13.71	344.65	9.40	
2025-01-10 11:15:13.92	344.61	9.41	
2025-01-10 11:15:14.12	344.57	9.41	
2025-01-10 11:15:14.33	344.53	9.42	
2025-01-10 11:15:14.54	344.49	9.43	
2025-01-10 11:15:14.75	344.45	9.43	
2025-01-10 11:15:14.96	344.41	9.44	
2025-01-10 11:15:15.16	344.38	9.44	
2025-01-10 11:15:15.37	344.34	9.45	
2025-01-10 11:15:15.58	344.30	9.46	
2025-01-10 11:15:15.79	344.26	9.46	
2025-01-10 11:15:16.00	344.22	9.47	
2025-01-10 11:15:16.20	344.18	9.47	
2025-01-10 11:15:16.41	344.14	9.48	
2025-01-10 11:15:16.61	344.10	9.48	
2025-01-10 11:15:16.82	344.06	9.49	
2025-01-10 11:15:17.02	344.02	9.50	
2025-01-10 11:15:17.23	343.98	9.50	
2025-01-10 11:15:17.44	343.94	9.51	
2025-01-10 11:15:17.64	343.91	9.51	
2025-01-10 11:15:17.85	343.86	9.52	
2025-01-10 11:15:18.05	343.83	9.52	
2025-01-10 11:15:18.26	343.79	9.53	
2025-01-10 11:15:18.46	343.75	9.54	
2025-01-10 11:15:18.67	343.71	9.54	
2025-01-10 11:15:18.89	343.67	9.55	
2025-01-10 11:15:19.09	343.63	9.55	
2025-01-10 11:15:19.30	343.59	9.56	
2025-01-10 11:15:19.50	343.55	9.56	
2025-01-10 11:15:19.71	343.51	9.57	
2025-01-10 11:15:19.91	343.47	9.58	
2025-01-10 11:15:20.12	343.43	9.58	
2025-01-10 11:15:20.33	343.39	9.59	
2025-01-10 11:15:20.53	343.35	9.59	
2025-01-10 11:15:20.74	343.31	9.60	
2025-01-10 11:15:20.94	343.27	9.60	
2025-01-10 11:15:21.14	343.24	9.61	
2025-01-10 11:15:21.35	343.19	9.62	
2025-01-10 11:15:21.56	343.15	9.62	
2025-01-10 11:15:21.76	343.12	9.63	
2025-01-10 11:15:21.96	343.08	9.63	
2025-01-10 11:15:22.17	343.04	9.64	
2025-01-10 11:15:22.38	343.00	9.64	
2025-01-10 11:15:22.58	342.96	9.65	
2025-01-10 11:15:22.79	342.92	9.65	
2025-01-10 11:15:22.99	342.88	9.66	
2025-01-10 11:15:23.20	342.84	9.66	
2025-01-10 11:15:23.40	342.80	9.67	
2025-01-10 11:15:23.61	342.76	9.68	
2025-01-10 11:15:23.81	342.72	9.68	
2025-01-10 11:15:24.02	342.68	9.69	
2025-01-10 11:15:24.22	342.64	9.69	
2025-01-10 11:15:24.43	342.60	9.70	
2025-01-10 11:15:24.65	342.56	9.70	
2025-01-10 11:15:24.86	342.52	9.71	
2025-01-10 11:15:25.07	342.48	9.71	
2025-01-10 11:15:25.27	342.44	9.72	
2025-01-10 11:15:25.48	342.40	9.72	
2025-01-10 11:15:25.68	342.36	9.73	
2025-01-10 11:15:25.89	342.32	9.74	
2025-01-10 11:15:26.10	342.28	9.74	
2025-01-10 11:15:26.31	342.24	9.75	
2025-01-10 11:15:26.52	342.20	9.75	
2025-01-10 11:15:26.73	342.16	9.76	
2025-01-10 11:15:26.93	342.12	9.76	
2025-01-10 11:15:27.14	342.08	9.77	
2025-01-10 11:15:27.34	342.04	9.77	
2025-01-10 11:15:27.55	342.00	9.78	
2025-01-10 11:15:27.75	341.96	9.78	
2025-01-10 11:15:27.96	341.92	9.79	
2025-01-10 11:15:28.17	341.88	9.79	
2025-01-10 11:15:28.37	341.84	9.80	
2025-01-10 11:15:28.58	341.80	9.80	
2025-01-10 11:15:28.78	341.76	9.81	
2025-01-10 11:15:28.99	341.72	9.81	
2025-01-10 11:15:29.20	341.67	9.82	
2025-01-10 11:15:29.40	341.64	9.82	
2025-01-10 11:15:29.60	341.60	9.83	
2025-01-10 11:15:29.81	341.56	9.83	
2025-01-10 11:15:30.02	341.51	9.84	
2025-01-10 11:15:30.22	341.47	9.84	
2025-01-10 11:15:30.43	341.43	9.85	
2025-01-10 11:15:30.63	341.39	9.85	
2025-01-10 11:15:30.84	341.35	9.86	
2025-01-10 11:15:31.04	341.31	9.86	
2025-01-10 11:15:31.25	341.27	9.87	
2025-01-10 11:15:31.46	341.23	9.87	
2025-01-10 11:15:31.67	341.19	9.88	
2025-01-10 11:15:31.88	341.15	9.88	
2025-01-10 11:15:32.08	341.11	9.89	
2025-01-10 11:15:32.29	341.07	9.89	
2025-01-10 11:15:32.50	341.03	9.90	
2025-01-10 11:15:32.70	340.99	9.90	
2025-01-10 11:15:32.91	340.95	9.91	
2025-01-10 11:15:33.11	340.91	9.91	
2025-01-10 11:15:33.32	340.87	9.92	
2025-01-10 11:15:33.52	340.83	9.92	
2025-01-10 11:15:33.73	340.79	9.93	
2025-01-10 11:15:33.93	340.75	9.93	
2025-01-10 11:15:34.14	340.71	9.94	
2025-01-10 11:15:34.34	340.67	9.94	
2025-01-10 11:15:34.55	340.62	9.95	
2025-01-10 11:15:34.75	340.59	9.95	
2025-01-10 11:15:34.96	340.54	9.96	
2025-01-10 11:15:35.16	340.50	9.96	
2025-01-10 11:15:35.37	340.46	9.97	
2025-01-10 11:15:35.57	340.42	9.97	
2025-01-10 11:15:35.78	340.38	9.98	
2025-01-10 11:15:35.98	340.34	9.98	
2025-01-10 11:15:36.19	340.30	9.99	
2025-01-10 11:15:36.39	340.26	9.99	
2025-01-10 11:15:36.60	340.22	10.00	
2025-01-10 11:15:36.81	340.18	10.00	
2025-01-10 11:15:37.01	340.14	10.00	
2025-01-10 11:15:37.22	340.10	10.01	
2025-01-10 11:15:37.42	340.06	10.01	
2025-01-10 11:15:37.63	340.02	10.02	
2025-01-10 11:15:37.83	339.98	10.02	
2025-01-10 11:15:38.04	339.94	10.03	
2025-01-10 11:15:38.24	339.90	10.03	
2025-01-10 11:15:38.45	339.85	10.04	
2025-01-10 11:15:38.65	339.81	10.04	
2025-01-10 11:15:38.86	339.77	10.05	
2025-01-10 11:15:39.06	339.73	10.05	
2025-01-10 11:15:39.27	339.69	10.06	
2025-01-10 11:15:39.48	339.65	10.06	
2025-01-10 11:15:39.69	339.61	10.06	
2025-01-10 11:15:39.90	339.57	10.07	
2025-01-10 11:15:40.10	339.53	10.07	
2025-01-10 11:15:40.31	339.48	10.08	
2025-01-10 11:15:40.51	339.44	10.08	
2025-01-10 11:15:40.72	339.40	10.09	
2025-01-10 11:15:40.93	339.36	10.09	
2025-01-10 11:15:41.13	339.32	10.10	
2025-01-10 11:15:41.34	339.28	10.10	
2025-01-10 11:15:41.54	339.24	10.10	
2025-01-10 11:15:41.75	339.20	10.11	
2025-01-10 11:15:41.95	339.16	10.11	
2025-01-10 11:15:42.16	339.12	10.12	
2025-01-10 11:15:42.36	339.08	10.12	
2025-01-10 11:15:42.57	339.03	10.13	
2025-01-10 11:15:42.77	338.99	10.13	
2025-01-10 11:15:42.98	338.95	10.14	
2025-01-10 11:15:43.18	338.91	10.14	
2025-01-10 11:15:43.39	338.87	10.14	
2025-01-10 11:15:43.60	338.83	10.15	
2025-01-10 11:15:43.80	338.79	10.15	
2025-01-10 11:15:44.00	338.75	10.16	
2025-01-10 11:15:44.21	338.71	10.16	
2025-01-10 11:15:44.41	338.67	10.16	
2025-01-10 11:15:44.62	338.62	10.17	
2025-01-10 11:15:44.83	338.58	10.17	
2025-01-10 11:15:45.03	338.54	10.18	
2025-01-10 11:15:45.24	338.50	10.18	
2025-01-10 11:15:45.45	338.46	10.19	
2025-01-10 11:15:45.66	338.41	10.19	
2025-01-10 11:15:45.86	338.37	10.19	
2025-01-10 11:15:46.07	338.33	10.20	
2025-01-10 11:15:46.28	338.29	10.20	
2025-01-10 11:15:46.48	338.25	10.21	
2025-01-10 11:15:46.69	338.21	10.21	
2025-01-10 11:15:46.90	338.17	10.22	
2025-01-10 11:15:47.11	338.12	10.22	
2025-01-10 11:15:47.32	338.08	10.22	
2025-01-10 11:15:47.52	338.04	10.23	
2025-01-10 11:15:47.73	338.00	10.23	
2025-01-10 11:15:47.93	337.96	10.24	
2025-01-10 11:15:48.14	337.92	10.24	
2025-01-10 11:15:48.34	337.88	10.24	
2025-01-10 11:15:48.55	337.83	10.25	
2025-01-10 11:15:48.76	337.79	10.25	
2025-01-10 11:15:48.96	337.75	10.26	
2025-01-10 11:15:49.17	337.71	10.26	
2025-01-10 11:15:49.37	337.67	10.26	
2025-01-10 11:15:49.58	337.63	10.27	
2025-01-10 11:15:49.80	337.58	10.27	
2025-01-10 11:15:50.00	337.54	10.28	
2025-01-10 11:15:50.21	337.50	10.28	
2025-01-10 11:15:50.41	337.46	10.28	
2025-01-10 11:15:50.62	337.42	10.29	
2025-01-10 11:15:50.82	337.38	10.29	
2025-01-10 11:15:51.03	337.33	10.29	
2025-01-10 11:15:51.23	337.29	10.30	
2025-01-10 11:15:51.44	337.25	10.30	
2025-01-10 11:15:51.64	337.21	10.31	
2025-01-10 11:15:51.86	337.16	10.31	
2025-01-10 11:15:52.07	337.12	10.31	
2025-01-10 11:15:52.27	337.08	10.32	
2025-01-10 11:15:52.48	337.04	10.32	
2025-01-10 11:15:52.68	337.00	10.32	
2025-01-10 11:15:52.89	336.96	10.33	
2025-01-10 11:15:53.09	336.92	10.33	
2025-01-10 11:15:53.30	336.87	10.34	
2025-01-10 11:15:53.50	336.83	10.34	
2025-01-10 11:15:53.71	336.79	10.34	
2025-01-10 11:15:53.92	336.75	10.35	
2025-01-10 11:15:54.12	336.71	10.35	
2025-01-10 11:15:54.33	336.66	10.35	
2025-01-10 11:15:54.53	336.62	10.36	
2025-01-10 11:15:54.74	336.58	10.36	
2025-01-10 11:15:54.94	336.54	10.36	
2025-01-10 11:15:55.14	336.50	10.37	
2025-01-10 11:15:55.35	336.46	10.37	
2025-01-10 11:15:55.56	336.41	10.38	
2025-01-10 11:15:55.76	336.37	10.38	
2025-01-10 11:15:55.97	336.33	10.38	
2025-01-10 11:15:56.17	336.29	10.39	
2025-01-10 11:15:56.38	336.25	10.39	
2025-01-10 11:15:56.58	336.21	10.39	
2025-01-10 11:15:56.79	336.16	10.40	
2025-01-10 11:15:57.00	336.12	10.40	
2025-01-10 11:15:57.20	336.08	10.40	
2025-01-10 11:15:57.40	336.04	10.41	
2025-01-10 11:15:57.61	336.00	10.41	
2025-01-10 11:15:57.82	335.95	10.41	
2025-01-10 11:15:58.02	335.91	10.42	
2025-01-10 11:15:58.23	335.87	10.42	
2025-01-10 11:15:58.43	335.83	10.42	
2025-01-10 11:15:58.64	335.79	10.43	
2025-01-10 11:15:58.84	335.74	10.43	
2025-01-10 11:15:59.05	335.70	10.43	
2025-01-10 11:15:59.25	335.66	10.44	
2025-01-10 11:15:59.46	335.62	10.44	
2025-01-10 11:15:59.66	335.58	10.44	
2025-01-10 11:15:59.87	335.53	10.45	
2025-01-10 11:16:00.07	335.49	10.45	
2025-01-10 11:16:00.27	335.45	10.45	
2025-01-10 11:16:00.48	335.41	10.46	
2025-01-10 11:16:00.68	335.37	10.46	
2025-01-10 11:16:00.89	335.33	10.46	
2025-01-10 11:16:01.09	335.28	10.47	
2025-01-10 11:16:01.30	335.24	10.47	
2025-01-10 11:16:01.50	335.20	10.47	
2025-01-10 11:16:01.71	335.16	10.47	
2025-01-10 11:16:01.92	335.11	10.48	
2025-01-10 11:16:02.12	335.07	10.48	
2025-01-10 11:16:02.33	335.03	10.48	
2025-01-10 11:16:02.53	334.99	10.49	
2025-01-10 11:16:02.74	334.95	10.49	
2025-01-10 11:16:02.94	334.90	10.49	
2025-01-10 11:16:03.15	334.86	10.50	
2025-01-10 11:16:03.35	334.82	10.50	
2025-01-10 11:16:03.56	334.78	10.50	
2025-01-10 11:16:03.76	334.74	10.50	
2025-01-10 11:16:03.97	334.69	10.51	
2025-01-10 11:16:04.18	334.65	10.51	
2025-01-10 11:16:04.38	334.61	10.51	
2025-01-10 11:16:04.59	334.57	10.52	
2025-01-10 11:16:04.79	334.52	10.52	
2025-01-10 11:16:05.00	334.48	10.52	
2025-01-10 11:16:05.20	334.44	10.53	
2025-01-10 11:16:05.41	334.40	10.53	
2025-01-10 11:16:05.61	334.36	10.53	
2025-01-10 11:16:05.82	334.31	10.53	
2025-01-10 11:16:06.02	334.27	10.54	
2025-01-10 11:16:06.23	334.23	10.54	
2025-01-10 11:16:06.43	334.19	10.54	
2025-01-10 11:16:06.64	334.14	10.55	
2025-01-10 11:16:06.84	334.10	10.55	
2025-01-10 11:16:07.05	334.06	10.55	
2025-01-10 11:16:07.25	334.02	10.55	
2025-01-10 11:16:07.46	333.97	10.56	
2025-01-10 11:16:07.66	333.93	10.56	
2025-01-10 11:16:07.87	333.89	10.56	
2025-01-10 11:16:08.08	333.85	10.56	
2025-01-10 11:16:08.28	333.81	10.57	
2025-01-10 11:16:08.49	333.76	10.57	
2025-01-10 11:16:08.69	333.72	10.57	
2025-01-10 11:16:08.90	333.68	10.58	
2025-01-10 11:16:09.10	333.64	10.58	
2025-01-10 11:16:09.31	333.59	10.58	
2025-01-10 11:16:09.51	333.55	10.58	
2025-01-10 11:16:09.72	333.51	10.59	
2025-01-10 11:16:09.92	333.47	10.59	
2025-01-10 11:16:10.13	333.42	10.59	
2025-01-10 11:16:10.33	333.38	10.59	
2025-01-10 11:16:10.54	333.34	10.60	
2025-01-10 11:16:10.75	333.29	10.60	
2025-01-10 11:16:10.95	333.25	10.60	
2025-01-10 11:16:11.16	333.21	10.60	
2025-01-10 11:16:11.36	333.17	10.61	
2025-01-10 11:16:11.57	333.12	10.61	
2025-01-10 11:16:11.77	333.08	10.61	
2025-01-10 11:16:11.98	333.04	10.61	
2025-01-10 11:16:12.18	333.00	10.62	
2025-01-10 11:16:12.38	332.96	10.62	
2025-01-10 11:16:12.59	332.91	10.62	
2025-01-10 11:16:12.80	332.87	10.62	
2025-01-10 11:16:13.00	332.83	10.62	
2025-01-10 11:16:13.21	332.79	10.63	
2025-01-10 11:16:13.41	332.74	10.63	
2025-01-10 11:16:13.62	332.70	10.63	
2025-01-10 11:16:13.82	332.66	10.63	
2025-01-10 11:16:14.03	332.61	10.64	
2025-01-10 11:16:14.24	332.57	10.64	
2025-01-10 11:16:14.44	332.53	10.64	
2025-01-10 11:16:14.64	332.49	10.64	
2025-01-10 11:16:14.85	332.44	10.65	
2025-01-10 11:16:15.06	332.40	10.65	
2025-01-10 11:16:15.26	332.36	10.65	
2025-01-10 11:16:15.47	332.32	10.65	
2025-01-10 11:16:15.67	332.27	10.65	
2025-01-10 11:16:15.88	332.23	10.66	
2025-01-10 11:16:16.08	332.19	10.66	
2025-01-10 11:16:16.29	332.15	10.66	
2025-01-10 11:16:16.49	332.10	10.66	
2025-01-10 11:16:16.69	332.06	10.66	
2025-01-10 11:16:16.90	332.02	10.67	
2025-01-10 11:16:17.11	331.97	10.67	
2025-01-10 11:16:17.31	331.93	10.67	
2025-01-10 11:16:17.52	331.89	10.67	
2025-01-10 11:16:17.72	331.85	10.68	
2025-01-10 11:16:17.93	331.80	10.68	
2025-01-10 11:16:18.13	331.76	10.68	
2025-01-10 11:16:18.34	331.72	10.68	
2025-01-10 11:16:18.54	331.68	10.68	
2025-01-10 11:16:18.75	331.63	10.69	
2025-01-10 11:16:18.95	331.59	10.69	
2025-01-10 11:16:19.16	331.55	10.69	
2025-01-10 11:16:19.36	331.51	10.69	
2025-01-10 11:16:19.57	331.46	10.69	
2025-01-10 11:16:19.77	331.42	10.69	
2025-01-10 11:16:19.98	331.38	10.70	
2025-01-10 11:16:20.18	331.34	10.70	
2025-01-10 11:16:20.39	331.29	10.70	
2025-01-10 11:16:20.59	331.25	10.70	
2025-01-10 11:16:20.81	331.20	10.70	
2025-01-10 11:16:21.02	331.16	10.71	
2025-01-10 11:16:21.22	331.12	10.71	
2025-01-10 11:16:21.43	331.07	10.71	
2025-01-10 11:16:21.64	331.03	10.71	
2025-01-10 11:16:21.84	330.99	10.71	
2025-01-10 11:16:22.05	330.95	10.71	
2025-01-10 11:16:22.25	330.90	10.72	
2025-01-10 11:16:22.46	330.86	10.72	
2025-01-10 11:16:22.66	330.82	10.72	
2025-01-10 11:16:22.87	330.77	10.72	
2025-01-10 11:16:23.07	330.73	10.72	
2025-01-10 11:16:23.28	330.69	10.72	
2025-01-10 11:16:23.48	330.65	10.73	
2025-01-10 11:16:23.69	330.60	10.73	
2025-01-10 11:16:23.89	330.56	10.73	
2025-01-10 11:16:24.10	330.52	10.73	
2025-01-10 11:16:24.31	330.47	10.73	
2025-01-10 11:16:24.51	330.43	10.73	
2025-01-10 11:16:24.72	330.39	10.74	
2025-01-10 11:16:24.93	330.34	10.74	
2025-01-10 11:16:25.13	330.30	10.74	
2025-01-10 11:16:25.33	330.26	10.74	
2025-01-10 11:16:25.54	330.22	10.74	
2025-01-10 11:16:25.75	330.17	10.74	
2025-01-10 11:16:25.95	330.13	10.74	
2025-01-10 11:16:26.16	330.09	10.75	
2025-01-10 11:16:26.36	330.04	10.75	
2025-01-10 11:16:26.57	330.00	10.75	
2025-01-10 11:16:26.78	329.96	10.75	
2025-01-10 11:16:26.98	329.91	10.75	
2025-01-10 11:16:27.19	329.87	10.75	
2025-01-10 11:16:27.39	329.83	10.75	
2025-01-10 11:16:27.60	329.78	10.76	
2025-01-10 11:16:27.80	329.74	10.76	
2025-01-10 11:16:28.01	329.70	10.76	
2025-01-10 11:16:28.21	329.66	10.76	
2025-01-10 11:16:28.42	329.61	10.76	
2025-01-10 11:16:28.62	329.57	10.76	
2025-01-10 11:16:28.83	329.53	10.76	
2025-01-10 11:16:29.04	329.48	10.76	
2025-01-10 11:16:29.24	329.44	10.77	
2025-01-10 11:16:29.45	329.40	10.77	
2025-01-10 11:16:29.65	329.35	10.77	
2025-01-10 11:16:29.86	329.31	10.77	
2025-01-10 11:16:30.07	329.27	10.77	
2025-01-10 11:16:30.27	329.22	10.77	
2025-01-10 11:16:30.47	329.18	10.77	
2025-01-10 11:16:30.68	329.14	10.77	
2025-01-10 11:16:30.89	329.09	10.78	
2025-01-10 11:16:31.09	329.05	10.78	
2025-01-10 11:16:31.30	329.01	10.78	
2025-01-10 11:16:31.50	328.97	10.78	
2025-01-10 11:16:31.71	328.92	10.78	
2025-01-10 11:16:31.91	328.88	10.78	
2025-01-10 11:16:32.12	328.84	10.78	
2025-01-10 11:16:32.32	328.79	10.78	
2025-01-10 11:16:32.53	328.75	10.78	
2025-01-10 11:16:32.73	328.71	10.78	
2025-01-10 11:16:32.94	328.66	10.79	
2025-01-10 11:16:33.15	328.62	10.79	
2025-01-10 11:16:33.35	328.58	10.79	
2025-01-10 11:16:33.56	328.53	10.79	
2025-01-10 11:16:33.76	328.49	10.79	
2025-01-10 11:16:33.97	328.45	10.79	
2025-01-10 11:16:34.17	328.41	10.79	
2025-01-10 11:16:34.38	328.36	10.79	
2025-01-10 11:16:34.59	328.32	10.79	
2025-01-10 11:16:34.79	328.28	10.79	
2025-01-10 11:16:35.00	328.23	10.79	
2025-01-10 11:16:35.20	328.19	10.79	
2025-01-10 11:16:35.41	328.15	10.80	
2025-01-10 11:16:35.61	328.10	10.80	
2025-01-10 11:16:35.81	328.06	10.80	
2025-01-10 11:16:36.02	328.02	10.80	
2025-01-10 11:16:36.22	327.98	10.80	
2025-01-10 11:16:36.43	327.93	10.80	
2025-01-10 11:16:36.63	327.89	10.80	
2025-01-10 11:16:36.84	327.85	10.80	
2025-01-10 11:16:37.04	327.80	10.80	
2025-01-10 11:16:37.25	327.76	10.80	
2025-01-10 11:16:37.45	327.72	10.80	
2025-01-10 11:16:37.66	327.67	10.80	
2025-01-10 11:16:37.86	327.63	10.80	
2025-01-10 11:16:38.07	327.59	10.80	
2025-01-10 11:16:38.28	327.54	10.80	
2025-01-10 11:16:38.48	327.50	10.81	
2025-01-10 11:16:38.69	327.46	10.81	
2025-01-10 11:16:38.89	327.41	10.81	
2025-01-10 11:16:39.10	327.37	10.81	
2025-01-10 11:16:39.30	327.33	10.81	
2025-01-10 11:16:39.51	327.28	10.81	
2025-01-10 11:16:39.71	327.24	10.81	
2025-01-10 11:16:39.92	327.20	10.81	
2025-01-10 11:16:40.12	327.16	10.81	
2025-01-10 11:16:40.33	327.11	10.81	
2025-01-10 11:16:40.53	327.07	10.81	
2025-01-10 11:16:40.74	327.03	10.81	
2025-01-10 11:16:40.94	326.98	10.81	
2025-01-10 11:16:41.15	326.94	10.81	
2025-01-10 11:16:41.35	326.90	10.81	
2025-01-10 11:16:41.56	326.85	10.81	
2025-01-10 11:16:41.77	326.81	10.81	
2025-01-10 11:16:41.97	326.77	10.81	
2025-01-10 11:16:42.18	326.72	10.81	
2025-01-10 11:16:42.38	326.68	10.81	
2025-01-10 11:16:42.59	326.64	10.81	
2025-01-10 11:16:42.79	326.59	10.81	
2025-01-10 11:16:43.00	326.55	10.81	
2025-01-10 11:16:43.20	326.51	10.81	
2025-01-10 11:16:43.41	326.46	10.81	
2025-01-10 11:16:43.62	326.42	10.81	
2025-01-10 11:16:43.82	326.38	10.81	
2025-01-10 11:16:44.03	326.33	10.81	
2025-01-10 11:16:44.23	326.29	10.82	
2025-01-10 11:16:44.44	326.25	10.82	
2025-01-10 11:16:44.65	326.20	10.82	
2025-01-10 11:16:44.85	326.16	10.82	
2025-01-10 11:16:45.06	326.12	10.82	
2025-01-10 11:16:45.26	326.07	10.82	
2025-01-10 11:16:45.47	326.03	10.82	
2025-01-10 11:16:45.67	325.99	10.82	
2025-01-10 11:16:45.88	325.94	10.82	
2025-01-10 11:16:46.08	325.90	10.82	
2025-01-10 11:16:46.29	325.86	10.82	
2025-01-10 11:16:46.49	325.82	10.82	
2025-01-10 11:16:46.70	325.77	10.82	
2025-01-10 11:16:46.90	325.73	10.82	
2025-01-10 11:16:47.11	325.69	10.82	
2025-01-10 11:16:47.31	325.64	10.82	
2025-01-10 11:16:47.53	325.60	10.82	
2025-01-10 11:16:47.74	325.55	10.82	
2025-01-10 11:16:47.94	325.51	10.81	
2025-01-10 11:16:48.15	325.47	10.81	
2025-01-10 11:16:48.35	325.42	10.81	
2025-01-10 11:16:48.57	325.38	10.81	
2025-01-10 11:16:48.78	325.33	10.81	
2025-01-10 11:16:48.98	325.29	10.81	
2025-01-10 11:16:49.19	325.25	10.81	
2025-01-10 11:16:49.39	325.21	10.81	
2025-01-10 11:16:49.60	325.16	10.81	
2025-01-10 11:16:49.80	325.12	10.81	
2025-01-10 11:16:50.01	325.07	10.81	
2025-01-10 11:16:50.22	325.03	10.81	
2025-01-10 11:16:50.42	324.99	10.81	
2025-01-10 11:16:50.63	324.94	10.81	
2025-01-10 11:16:50.83	324.90	10.81	
2025-01-10 11:16:51.04	324.86	10.81	
2025-01-10 11:16:51.24	324.82	10.81	
2025-01-10 11:16:51.45	324.77	10.81	
2025-01-10 11:16:51.66	324.73	10.81	
2025-01-10 11:16:51.86	324.69	10.81	
2025-01-10 11:16:52.07	324.64	10.81	
2025-01-10 11:16:52.27	324.60	10.81	
2025-01-10 11:16:52.47	324.56	10.81	
2025-01-10 11:16:52.68	324.51	10.81	
2025-01-10 11:16:52.88	324.47	10.81	
2025-01-10 11:16:53.09	324.43	10.81	
2025-01-10 11:16:53.30	324.38	10.81	
2025-01-10 11:16:53.50	324.34	10.81	
2025-01-10 11:16:53.71	324.30	10.81	
2025-01-10 11:16:53.91	324.25	10.80	
2025-01-10 11:16:54.12	324.21	10.80	
2025-01-10 11:16:54.32	324.17	10.80	
2025-01-10 11:16:54.53	324.12	10.80	
2025-01-10 11:16:54.74	324.08	10.80	
2025-01-10 11:16:54.94	324.04	10.80	
2025-01-10 11:16:55.14	324.00	10.80	
2025-01-10 11:16:55.35	323.95	10.80	
2025-01-10 11:16:55.55	323.91	10.80	
2025-01-10 11:16:55.76	323.87	10.80	
2025-01-10 11:16:55.96	323.82	10.80	
2025-01-10 11:16:56.17	323.78	10.80	
2025-01-10 11:16:56.37	323.74	10.80	
2025-01-10 11:16:56.58	323.69	10.80	
2025-01-10 11:16:56.78	323.65	10.80	
2025-01-10 11:16:56.99	323.61	10.79	
2025-01-10 11:16:57.19	323.56	10.79	
2025-01-10 11:16:57.40	323.52	10.79	
2025-01-10 11:16:57.60	323.48	10.79	
2025-01-10 11:16:57.81	323.43	10.79	
2025-01-10 11:16:58.01	323.39	10.79	
2025-01-10 11:16:58.23	323.35	10.79	
2025-01-10 11:16:53.87	324.26	10.80	
2025-01-10 11:16:54.07	324.22	10.80	
2025-01-10 11:16:54.28	324.18	10.80	
2025-01-10 11:16:54.49	324.13	10.80	
2025-01-10 11:16:54.69	324.09	10.80	
2025-01-10 11:16:54.89	324.05	10.80	
2025-01-10 11:16:55.10	324.00	10.80	
2025-01-10 11:16:55.31	323.96	10.80	
2025-01-10 11:16:55.51	323.92	10.80	
2025-01-10 11:16:55.71	323.88	10.80	
2025-01-10 11:16:55.92	323.83	10.80	
2025-01-10 11:16:56.13	323.79	10.80	
2025-01-10 11:16:56.33	323.75	10.80	
2025-01-10 11:16:56.54	323.70	10.80	
2025-01-10 11:16:56.74	323.66	10.80	
2025-01-10 11:16:56.95	323.62	10.79	
2025-01-10 11:16:57.16	323.57	10.79	
2025-01-10 11:16:57.36	323.53	10.79	
2025-01-10 11:16:57.57	323.49	10.79	
2025-01-10 11:16:57.77	323.44	10.79	
2025-01-10 11:16:57.98	323.40	10.79	
2025-01-10 11:16:58.18	323.36	10.79	
2025-01-10 11:16:58.39	323.31	10.79	
2025-01-10 11:16:58.60	323.27	10.79	
2025-01-10 11:16:58.80	323.23	10.79	
2025-01-10 11:16:59.00	323.18	10.79	
2025-01-10 11:16:59.21	323.14	10.79	
2025-01-10 11:16:59.42	323.10	10.78	
2025-01-10 11:16:59.62	323.05	10.78	
2025-01-10 11:16:59.83	323.01	10.78	
2025-01-10 11:17:00.03	322.97	10.78	
2025-01-10 11:17:00.23	322.93	10.78	
2025-01-10 11:17:00.44	322.88	10.78	
2025-01-10 11:17:00.64	322.84	10.78	
2025-01-10 11:17:00.85	322.80	10.78	
2025-01-10 11:17:01.05	322.75	10.78	
2025-01-10 11:17:01.26	322.71	10.78	
2025-01-10 11:17:01.46	322.67	10.77	
2025-01-10 11:17:01.67	322.62	10.77	
2025-01-10 11:17:01.88	322.58	10.77	
2025-01-10 11:17:02.08	322.54	10.77	
2025-01-10 11:17:02.28	322.50	10.77	
2025-01-10 11:17:02.49	322.45	10.77	
2025-01-10 11:17:02.70	322.41	10.77	
2025-01-10 11:17:02.90	322.37	10.77	
2025-01-10 11:17:03.11	322.32	10.76	
2025-01-10 11:17:03.31	322.28	10.76	
2025-01-10 11:17:03.52	322.24	10.76	
2025-01-10 11:17:03.72	322.19	10.76	
2025-01-10 11:17:03.93	322.15	10.76	
2025-01-10 11:17:04.13	322.11	10.76	
2025-01-10 11:17:04.34	322.06	10.76	
2025-01-10 11:17:04.54	322.02	10.76	
2025-01-10 11:17:04.75	321.98	10.75	
2025-01-10 11:17:04.96	321.93	10.75	
2025-01-10 11:17:05.16	321.89	10.75	
2025-01-10 11:17:05.36	321.85	10.75	
2025-01-10 11:17:05.57	321.81	10.75	
2025-01-10 11:17:05.77	321.76	10.75	
2025-01-10 11:17:05.98	321.72	10.75	
2025-01-10 11:17:06.18	321.68	10.74	
2025-01-10 11:17:06.39	321.63	10.74	
2025-01-10 11:17:06.59	321.59	10.74	
2025-01-10 11:17:06.80	321.55	10.74	
2025-01-10 11:17:07.00	321.51	10.74	
2025-01-10 11:17:07.21	321.46	10.74	
2025-01-10 11:17:07.42	321.42	10.74	
2025-01-10 11:17:07.62	321.38	10.73	
2025-01-10 11:17:07.83	321.33	10.73	
2025-01-10 11:17:08.03	321.29	10.73	
2025-01-10 11:17:08.24	321.25	10.73	
2025-01-10 11:17:08.44	321.21	10.73	
2025-01-10 11:17:08.64	321.16	10.73	
2025-01-10 11:17:08.85	321.12	10.72	
2025-01-10 11:17:09.06	321.08	10.72	
2025-01-10 11:17:09.26	321.03	10.72	
2025-01-10 11:17:09.47	320.99	10.72	
2025-01-10 11:17:09.67	320.95	10.72	
2025-01-10 11:17:09.88	320.90	10.72	
2025-01-10 11:17:10.08	320.86	10.71	
2025-01-10 11:17:10.29	320.82	10.71	
2025-01-10 11:17:10.49	320.78	10.71	
2025-01-10 11:17:10.70	320.73	10.71	
2025-01-10 11:17:10.90	320.69	10.71	
2025-01-10 11:17:11.11	320.65	10.71	
2025-01-10 11:17:11.31	320.61	10.70	
2025-01-10 11:17:11.52	320.56	10.70	
2025-01-10 11:17:11.72	320.52	10.70	
2025-01-10 11:17:11.93	320.48	10.70	
2025-01-10 11:17:12.13	320.44	10.70	
2025-01-10 11:17:12.34	320.39	10.69	
2025-01-10 11:17:12.55	320.35	10.69	
2025-01-10 11:17:12.75	320.31	10.69	
2025-01-10 11:17:12.95	320.26	10.69	
2025-01-10 11:17:13.16	320.22	10.69	
2025-01-10 11:17:13.37	320.18	10.69	
2025-01-10 11:17:13.57	320.13	10.68	
2025-01-10 11:17:13.78	320.09	10.68	
2025-01-10 11:17:13.98	320.05	10.68	
2025-01-10 11:17:14.19	320.01	10.68	
2025-01-10 11:17:14.39	319.96	10.68	
2025-01-10 11:17:14.60	319.92	10.67	
2025-01-10 11:17:14.81	319.88	10.67	
2025-01-10 11:17:15.02	319.83	10.67	
2025-01-10 11:17:15.23	319.79	10.67	
2025-01-10 11:17:15.44	319.75	10.66	
2025-01-10 11:17:15.64	319.70	10.66	
2025-01-10 11:17:15.85	319.66	10.66	
2025-01-10 11:17:16.07	319.61	10.66	
2025-01-10 11:17:16.27	319.57	10.66	
2025-01-10 11:17:16.48	319.53	10.65	
2025-01-10 11:17:16.68	319.49	10.65	
2025-01-10 11:17:16.89	319.44	10.65	
2025-01-10 11:17:17.09	319.40	10.65	
2025-01-10 11:17:17.30	319.36	10.65	
2025-01-10 11:17:17.50	319.32	10.64	
2025-01-10 11:17:17.71	319.27	10.64	
2025-01-10 11:17:17.91	319.23	10.64	
2025-01-10 11:17:18.12	319.19	10.64	
2025-01-10 11:17:18.32	319.15	10.63	
2025-01-10 11:17:18.53	319.10	10.63	
2025-01-10 11:17:18.73	319.06	10.63	
2025-01-10 11:17:18.94	319.02	10.63	
2025-01-10 11:17:19.14	318.98	10.62	
2025-01-10 11:17:19.35	318.93	10.62	
2025-01-10 11:17:19.55	318.89	10.62	
2025-01-10 11:17:19.76	318.85	10.62	
2025-01-10 11:17:19.97	318.80	10.61	
2025-01-10 11:17:20.17	318.76	10.61	
2025-01-10 11:17:20.38	318.72	10.61	
2025-01-10 11:17:20.58	318.68	10.61	
2025-01-10 11:17:20.79	318.63	10.61	
2025-01-10 11:17:20.99	318.59	10.60	
2025-01-10 11:17:21.20	318.55	10.60	
2025-01-10 11:17:21.40	318.51	10.60	
2025-01-10 11:17:21.61	318.46	10.60	
2025-01-10 11:17:21.81	318.42	10.59	
2025-01-10 11:17:22.02	318.38	10.59	
2025-01-10 11:17:22.23	318.34	10.59	
2025-01-10 11:17:22.43	318.29	10.59	
2025-01-10 11:17:22.63	318.25	10.58	
2025-01-10 11:17:22.84	318.21	10.58	
2025-01-10 11:17:23.05	318.17	10.58	
2025-01-10 11:17:23.25	318.12	10.57	
2025-01-10 11:17:23.46	318.08	10.57	
2025-01-10 11:17:23.66	318.04	10.57	
2025-01-10 11:17:23.87	318.00	10.57	
2025-01-10 11:17:24.08	317.95	10.56	
2025-01-10 11:17:24.28	317.91	10.56	
2025-01-10 11:17:24.49	317.87	10.56	
2025-01-10 11:17:24.69	317.83	10.56	
2025-01-10 11:17:24.90	317.78	10.55	
2025-01-10 11:17:25.10	317.74	10.55	
2025-01-10 11:17:25.31	317.70	10.55	
2025-01-10 11:17:25.51	317.66	10.54	
2025-01-10 11:17:25.72	317.61	10.54	
2025-01-10 11:17:25.92	317.57	10.54	
2025-01-10 11:17:26.13	317.53	10.54	
2025-01-10 11:17:26.33	317.49	10.53	
2025-01-10 11:17:26.54	317.45	10.53	
2025-01-10 11:17:26.74	317.40	10.53	
2025-01-10 11:17:26.95	317.36	10.52	
2025-01-10 11:17:27.16	317.32	10.52	
2025-01-10 11:17:27.36	317.28	10.52	
2025-01-10 11:17:27.57	317.23	10.52	
2025-01-10 11:17:27.77	317.19	10.51	
2025-01-10 11:17:27.98	317.15	10.51	
2025-01-10 11:17:28.18	317.11	10.51	
2025-01-10 11:17:28.39	317.06	10.50	
2025-01-10 11:17:28.59	317.02	10.50	
2025-01-10 11:17:28.80	316.98	10.50	
2025-01-10 11:17:29.00	316.94	10.50	
2025-01-10 11:17:29.21	316.90	10.49	
2025-01-10 11:17:29.41	316.85	10.49	
2025-01-10 11:17:29.62	316.81	10.49	
2025-01-10 11:17:29.82	316.77	10.48	
2025-01-10 11:17:30.02	316.73	10.48	
2025-01-10 11:17:30.23	316.69	10.48	
2025-01-10 11:17:30.44	316.64	10.47	
2025-01-10 11:17:30.64	316.60	10.47	
2025-01-10 11:17:30.85	316.56	10.47	
2025-01-10 11:17:31.05	316.52	10.46	
2025-01-10 11:17:31.26	316.47	10.46	
2025-01-10 11:17:31.46	316.43	10.46	
2025-01-10 11:17:31.67	316.39	10.45	
2025-01-10 11:17:31.87	316.35	10.45	
2025-01-10 11:17:32.08	316.31	10.45	
2025-01-10 11:17:32.28	316.27	10.45	
2025-01-10 11:17:32.49	316.22	10.44	
2025-01-10 11:17:32.69	316.18	10.44	
2025-01-10 11:17:32.90	316.14	10.44	
2025-01-10 11:17:33.10	316.10	10.43	
2025-01-10 11:17:33.31	316.06	10.43	
2025-01-10 11:17:33.51	316.01	10.43	
2025-01-10 11:17:33.72	315.97	10.42	
2025-01-10 11:17:33.93	315.93	10.42	
2025-01-10 11:17:34.13	315.89	10.42	
2025-01-10 11:17:34.34	315.84	10.41	
2025-01-10 11:17:34.54	315.80	10.41	
2025-01-10 11:17:34.75	315.76	10.41	
2025-01-10 11:17:34.96	315.72	10.40	
2025-01-10 11:17:35.16	315.68	10.40	
2025-01-10 11:17:35.36	315.64	10.40	
2025-01-10 11:17:35.57	315.59	10.39	
2025-01-10 11:17:35.78	315.55	10.39	
2025-01-10 11:17:35.98	315.51	10.38	
2025-01-10 11:17:36.19	315.47	10.38	
2025-01-10 11:17:36.39	315.43	10.38	
2025-01-10 11:17:36.60	315.38	10.37	
2025-01-10 11:17:36.80	315.34	10.37	
2025-01-10 11:17:37.01	315.30	10.37	
2025-01-10 11:17:37.21	315.26	10.36	
2025-01-10 11:17:37.42	315.22	10.36	
2025-01-10 11:17:37.62	315.18	10.36	
2025-01-10 11:17:37.83	315.13	10.35	
2025-01-10 11:17:38.04	315.09	10.35	
2025-01-10 11:17:38.24	315.05	10.35	
2025-01-10 11:17:38.44	315.01	10.34	
2025-01-10 11:17:38.65	314.97	10.34	
2025-01-10 11:17:38.86	314.92	10.33	
2025-01-10 11:17:39.06	314.88	10.33	
2025-01-10 11:17:39.27	314.84	10.33	
2025-01-10 11:17:39.48	314.80	10.32	
2025-01-10 11:17:39.68	314.76	10.32	
2025-01-10 11:17:39.89	314.71	10.32	
2025-01-10 11:17:40.09	314.67	10.31	
2025-01-10 11:17:40.30	314.63	10.31	
2025-01-10 11:17:40.50	314.59	10.30	
2025-01-10 11:17:40.72	314.55	10.30	
2025-01-10 11:17:40.93	314.50	10.30	
2025-01-10 11:17:41.13	314.46	10.29	
2025-01-10 11:17:41.34	314.42	10.29	
2025-01-10 11:17:41.54	314.38	10.29	
2025-01-10 11:17:41.75	314.34	10.28	
2025-01-10 11:17:41.95	314.30	10.28	
2025-01-10 11:17:42.16	314.25	10.27	
2025-01-10 11:17:42.37	314.21	10.27	
2025-01-10 11:17:42.57	314.17	10.27	
2025-01-10 11:17:42.77	314.13	10.26	
2025-01-10 11:17:42.98	314.09	10.26	
2025-01-10 11:17:43.18	314.05	10.25	
2025-01-10 11:17:43.39	314.01	10.25	
2025-01-10 11:17:43.60	313.96	10.25	
2025-01-10 11:17:43.80	313.92	10.24	
2025-01-10 11:17:44.00	313.88	10.24	
2025-01-10 11:17:44.21	313.84	10.23	
2025-01-10 11:17:44.41	313.80	10.23	
2025-01-10 11:17:44.62	313.76	10.23	
2025-01-10 11:17:44.82	313.72	10.22	
2025-01-10 11:17:45.03	313.68	10.22	
2025-01-10 11:17:45.23	313.63	10.21	
2025-01-10 11:17:45.44	313.59	10.21	
2025-01-10 11:17:45.64	313.55	10.21	
2025-01-10 11:17:45.85	313.51	10.20	
2025-01-10 11:17:46.05	313.47	10.20	
2025-01-10 11:17:46.26	313.43	10.19	
2025-01-10 11:17:46.47	313.39	10.19	
2025-01-10 11:17:46.67	313.35	10.19	
2025-01-10 11:17:46.88	313.30	10.18	
2025-01-10 11:17:47.08	313.26	10.18	
2025-01-10 11:17:47.28	313.22	10.17	
2025-01-10 11:17:47.49	313.18	10.17	
2025-01-10 11:17:47.69	313.14	10.16	
2025-01-10 11:17:47.90	313.10	10.16	
2025-01-10 11:17:48.10	313.06	10.16	
2025-01-10 11:17:48.31	313.02	10.15	
2025-01-10 11:17:48.51	312.98	10.15	
2025-01-10 11:17:48.72	312.93	10.14	
2025-01-10 11:17:48.92	312.89	10.14	
2025-01-10 11:17:49.13	312.85	10.14	
2025-01-10 11:17:49.33	312.81	10.13	
2025-01-10 11:17:49.54	312.77	10.13	
2025-01-10 11:17:49.74	312.73	10.12	
2025-01-10 11:17:49.95	312.69	10.12	
2025-01-10 11:17:50.16	312.65	10.11	
2025-01-10 11:17:50.38	312.60	10.11	
2025-01-10 11:17:50.58	312.56	10.10	
2025-01-10 11:17:50.78	312.52	10.10	
2025-01-10 11:17:51.00	312.48	10.10	
2025-01-10 11:17:51.20	312.44	10.09	
2025-01-10 11:17:51.41	312.40	10.09	
2025-01-10 11:17:51.61	312.36	10.08	
2025-01-10 11:17:51.82	312.31	10.08	
2025-01-10 11:17:52.02	312.27	10.07	
2025-01-10 11:17:52.23	312.23	10.07	
2025-01-10 11:17:52.43	312.19	10.06	
2025-01-10 11:17:52.64	312.15	10.06	
2025-01-10 11:17:52.85	312.11	10.05	
2025-01-10 11:17:53.05	312.07	10.05	
2025-01-10 11:17:53.26	312.03	10.05	
2025-01-10 11:17:53.46	311.99	10.04	
2025-01-10 11:17:53.67	311.95	10.04	
2025-01-10 11:17:53.87	311.91	10.03	
2025-01-10 11:17:54.08	311.86	10.03	
2025-01-10 11:17:54.28	311.83	10.02	
2025-01-10 11:17:54.49	311.78	10.02	
2025-01-10 11:17:54.69	311.74	10.01	
2025-01-10 11:17:54.90	311.70	10.01	
2025-01-10 11:17:55.10	311.66	10.00	
2025-01-10 11:17:55.31	311.62	10.00	
2025-01-10 11:17:55.51	311.58	10.00	
2025-01-10 11:17:55.72	311.54	9.99	
2025-01-10 11:17:55.92	311.50	9.99	
2025-01-10 11:17:56.13	311.46	9.98	
2025-01-10 11:17:56.33	311.42	9.98	
2025-01-10 11:17:56.54	311.38	9.97	
2025-01-10 11:17:56.74	311.34	9.97	
2025-01-10 11:17:56.95	311.30	9.96	
2025-01-10 11:17:57.16	311.25	9.96	
2025-01-10 11:17:57.36	311.22	9.95	
2025-01-10 11:17:57.57	311.17	9.95	
2025-01-10 11:17:57.77	311.13	9.94	
2025-01-10 11:17:57.98	311.09	9.94	
2025-01-10 11:17:58.18	311.05	9.93	
2025-01-10 11:17:58.39	311.01	9.93	
2025-01-10 11:17:58.59	310.97	9.92	
2025-01-10 11:17:58.80	310.93	9.92	
2025-01-10 11:17:59.00	310.89	9.91	
2025-01-10 11:17:59.21	310.85	9.91	
2025-01-10 11:17:59.41	310.81	9.90	
2025-01-10 11:17:59.62	310.77	9.90	
2025-01-10 11:17:59.83	310.73	9.89	
2025-01-10 11:18:00.03	310.69	9.89	
2025-01-10 11:18:00.23	310.65	9.88	
2025-01-10 11:18:00.44	310.61	9.88	
2025-01-10 11:18:00.65	310.57	9.87	
2025-01-10 11:18:00.85	310.53	9.87	
2025-01-10 11:18:01.05	310.49	9.86	
2025-01-10 11:18:01.26	310.45	9.86	
2025-01-10 11:18:01.47	310.41	9.85	
2025-01-10 11:18:01.67	310.37	9.85	
2025-01-10 11:18:01.88	310.33	9.84	
2025-01-10 11:18:02.08	310.29	9.84	
2025-01-10 11:18:02.29	310.25	9.83	
2025-01-10 11:18:02.49	310.21	9.83	
2025-01-10 11:18:02.70	310.17	9.82	
2025-01-10 11:18:02.90	310.13	9.82	
2025-01-10 11:18:03.11	310.09	9.81	
2025-01-10 11:18:03.31	310.05	9.81	
2025-01-10 11:18:03.52	310.01	9.80	
2025-01-10 11:18:03.72	309.97	9.80	
2025-01-10 11:18:03.93	309.93	9.79	
2025-01-10 11:18:04.13	309.89	9.79	
2025-01-10 11:18:04.34	309.85	9.78	
2025-01-10 11:18:04.54	309.81	9.78	
2025-01-10 11:18:04.75	309.77	9.77	
2025-01-10 11:18:04.95	309.73	9.77	
2025-01-10 11:18:05.16	309.69	9.76	
2025-01-10 11:18:05.36	309.65	9.76	
2025-01-10 11:18:05.57	309.61	9.75	
2025-01-10 11:18:05.78	309.56	9.75	
2025-01-10 11:18:05.98	309.53	9.74	
2025-01-10 11:18:06.19	309.49	9.74	
2025-01-10 11:18:06.40	309.44	9.73	
2025-01-10 11:18:06.60	309.41	9.72	
2025-01-10 11:18:06.81	309.36	9.72	
2025-01-10 11:18:07.01	309.33	9.71	
2025-01-10 11:18:07.22	309.29	9.71	
2025-01-10 11:18:07.43	309.24	9.70	
2025-01-10 11:18:07.64	309.20	9.70	
2025-01-10 11:18:07.85	309.16	9.69	
2025-01-10 11:18:08.05	309.12	9.69	
2025-01-10 11:18:08.26	309.08	9.68	
2025-01-10 11:18:08.46	309.04	9.68	
2025-01-10 11:18:08.67	309.00	9.67	
2025-01-10 11:18:08.88	308.96	9.66	
2025-01-10 11:18:09.08	308.92	9.66	
2025-01-10 11:18:09.29	308.88	9.65	
2025-01-10 11:18:09.49	308.85	9.65	
2025-01-10 11:18:09.70	308.81	9.64	
2025-01-10 11:18:09.90	308.77	9.64	
2025-01-10 11:18:10.11	308.73	9.63	
2025-01-10 11:18:10.32	308.69	9.63	
2025-01-10 11:18:10.52	308.65	9.62	
2025-01-10 11:18:10.72	308.61	9.62	
2025-01-10 11:18:10.93	308.57	9.61	
2025-01-10 11:18:11.14	308.53	9.60	
2025-01-10 11:18:11.34	308.49	9.60	
2025-01-10 11:18:11.55	308.45	9.59	
2025-01-10 11:18:11.75	308.41	9.59	
2025-01-10 11:18:11.96	308.37	9.58	
2025-01-10 11:18:12.16	308.33	9.58	
2025-01-10 11:18:12.37	308.29	9.57	
2025-01-10 11:18:12.57	308.25	9.57	
2025-01-10 11:18:12.78	308.21	9.56	
2025-01-10 11:18:12.98	308.17	9.55	
2025-01-10 11:18:13.19	308.13	9.55	
2025-01-10 11:18:13.39	308.10	9.54	
2025-01-10 11:18:13.60	308.06	9.54	
2025-01-10 11:18:13.80	308.02	9.53	
2025-01-10 11:18:14.00	307.98	9.53	
2025-01-10 11:18:14.21	307.94	9.52	
2025-01-10 11:18:14.42	307.90	9.51	
2025-01-10 11:18:14.62	307.86	9.51	
2025-01-10 11:18:14.83	307.82	9.50	
2025-01-10 11:18:15.03	307.78	9.50	
2025-01-10 11:18:15.23	307.74	9.49	
2025-01-10 11:18:15.44	307.70	9.49	
2025-01-10 11:18:15.65	307.66	9.48	
2025-01-10 11:18:15.85	307.63	9.47	
2025-01-10 11:18:16.06	307.59	9.47	
2025-01-10 11:18:16.26	307.55	9.46	
2025-01-10 11:18:16.47	307.51	9.46	
2025-01-10 11:18:16.67	307.47	9.45	
2025-01-10 11:18:16.88	307.43	9.44	
2025-01-10 11:18:17.09	307.39	9.44	
2025-01-10 11:18:17.29	307.35	9.43	
2025-01-10 11:18:17.50	307.31	9.43	
2025-01-10 11:18:17.70	307.27	9.42	
2025-01-10 11:18:17.91	307.23	9.41	
2025-01-10 11:18:18.12	307.19	9.41	
2025-01-10 11:18:18.33	307.15	9.40	
2025-01-10 11:18:18.54	307.11	9.40	
2025-01-10 11:18:18.74	307.08	9.39	
2025-01-10 11:18:18.95	307.04	9.38	
2025-01-10 11:18:19.15	307.00	9.38	
2025-01-10 11:18:19.36	306.96	9.37	
2025-01-10 11:18:19.56	306.92	9.37	
2025-01-10 11:18:19.77	306.88	9.36	
2025-01-10 11:18:19.97	306.84	9.36	
2025-01-10 11:18:20.18	306.80	9.35	
2025-01-10 11:18:20.39	306.76	9.34	
2025-01-10 11:18:20.59	306.73	9.34	
2025-01-10 11:18:20.80	306.69	9.33	
2025-01-10 11:18:21.00	306.65	9.32	
2025-01-10 11:18:21.21	306.61	9.32	
2025-01-10 11:18:21.41	306.57	9.31	
2025-01-10 11:18:21.62	306.53	9.31	
2025-01-10 11:18:21.82	306.49	9.30	
2025-01-10 11:18:22.03	306.46	9.29	
2025-01-10 11:18:22.23	306.42	9.29	
2025-01-10 11:18:22.44	306.38	9.28	
2025-01-10 11:18:22.65	306.34	9.28	
2025-01-10 11:18:22.85	306.30	9.27	
2025-01-10 11:18:23.06	306.26	9.26	
2025-01-10 11:18:23.26	306.22	9.26	
2025-01-10 11:18:23.47	306.19	9.25	
2025-01-10 11:18:23.67	306.15	9.24	
2025-01-10 11:18:23.88	306.11	9.24	
2025-01-10 11:18:24.08	306.07	9.23	
2025-01-10 11:18:24.29	306.03	9.23	
2025-01-10 11:18:24.49	305.99	9.22	
2025-01-10 11:18:24.70	305.95	9.21	
2025-01-10 11:18:24.90	305.92	9.21	
2025-01-10 11:18:25.11	305.88	9.20	
2025-01-10 11:18:25.32	305.84	9.19	
2025-01-10 11:18:25.52	305.80	9.19	
2025-01-10 11:18:25.73	305.76	9.18	
2025-01-10 11:18:25.93	305.73	9.18	
2025-01-10 11:18:26.14	305.69	9.17	
2025-01-10 11:18:26.35	305.65	9.16	
2025-01-10 11:18:26.55	305.61	9.16	
2025-01-10 11:18:26.75	305.57	9.15	
2025-01-10 11:18:26.96	305.53	9.14	
2025-01-10 11:18:27.17	305.49	9.14	
2025-01-10 11:18:27.37	305.46	9.13	
2025-01-10 11:18:27.58	305.42	9.13	
2025-01-10 11:18:27.78	305.38	9.12	
2025-01-10 11:18:27.99	305.34	9.11	
2025-01-10 11:18:28.19	305.31	9.11	
2025-01-10 11:18:28.40	305.27	9.10	
2025-01-10 11:18:28.60	305.23	9.09	
2025-01-10 11:18:28.81	305.19	9.09	
2025-01-10 11:18:29.01	305.15	9.08	
2025-01-10 11:18:29.22	305.11	9.07	
2025-01-10 11:18:29.42	305.08	9.07	
2025-01-10 11:18:29.63	305.04	9.06	
2025-01-10 11:18:29.83	305.00	9.05	
2025-01-10 11:18:30.04	304.96	9.05	
2025-01-10 11:18:30.24	304.93	9.04	
2025-01-10 11:18:30.45	304.89	9.04	
2025-01-10 11:18:30.65	304.85	9.03	
2025-01-10 11:18:30.86	304.81	9.02	
2025-01-10 11:18:31.06	304.77	9.02	
2025-01-10 11:18:31.27	304.74	9.01	
2025-01-10 11:18:31.47	304.70	9.00	
2025-01-10 11:18:31.68	304.66	9.00	
2025-01-10 11:18:31.88	304.62	8.99	
2025-01-10 11:18:32.09	304.59	8.98	
2025-01-10 11:18:32.29	304.55	8.98	
2025-01-10 11:18:32.50	304.51	8.97	
2025-01-10 11:18:32.70	304.47	8.96	
2025-01-10 11:18:32.91	304.43	8.96	
2025-01-10 11:18:33.11	304.40	8.95	
2025-01-10 11:18:33.32	304.36	8.94	
