passes_logs/2025/01/10/SPB_Silybum_02/SPB_Silybum_02__20250110_114041_SUOMI_NPP_rec.log

#Pass ID: 20250110_114041_SUOMI NPP
#Satellite: SUOMI NPP
#Configuration: NPP
#Start time: 2025-01-10 11:44:09

#Version: 2.0.20230423
#Station: SPB_Silybum_02
#Location: 30.233357 lon 59.946436 lat
#TLE: 1 37849U 11061A   25009.84493763  .00000180  00000+0  10621-3 0  9991
#TLE: 2 37849  98.7440 310.8990 0001846  48.8747 311.2588 14.19535791684182

#Time	Az	El	Level	Level2	SNR	BER	Gain	Gain2
2025-01-10 11:44:11.65	225.53	19.72	
2025-01-10 11:44:11.85	225.57	19.74	
2025-01-10 11:44:12.06	225.61	19.76	
2025-01-10 11:44:12.26	225.64	19.77	
2025-01-10 11:44:12.47	225.68	19.79	
2025-01-10 11:44:12.68	225.72	19.81	
2025-01-10 11:44:12.88	225.76	19.83	
2025-01-10 11:44:13.09	225.80	19.84	
2025-01-10 11:44:13.29	225.84	19.86	
2025-01-10 11:44:13.50	225.88	19.88	
2025-01-10 11:44:13.70	225.92	19.90	
2025-01-10 11:44:13.91	225.96	19.91	
2025-01-10 11:44:14.12	226.00	19.93	
2025-01-10 11:44:14.32	226.03	19.95	
2025-01-10 11:44:14.53	226.07	19.97	
2025-01-10 11:44:14.73	226.11	19.98	
2025-01-10 11:44:14.94	226.15	20.00	
2025-01-10 11:44:15.15	226.19	20.02	
2025-01-10 11:44:15.35	226.23	20.04	
2025-01-10 11:44:15.55	226.27	20.05	
2025-01-10 11:44:15.76	226.31	20.07	
2025-01-10 11:44:15.96	226.35	20.09	
2025-01-10 11:44:16.17	226.39	20.11	
2025-01-10 11:44:16.38	226.43	20.12	
2025-01-10 11:44:16.58	226.47	20.14	
2025-01-10 11:44:16.78	226.51	20.16	
2025-01-10 11:44:16.99	226.55	20.18	
2025-01-10 11:44:17.19	226.59	20.19	
2025-01-10 11:44:17.40	226.63	20.21	
2025-01-10 11:44:17.60	226.66	20.23	
2025-01-10 11:44:17.81	226.71	20.25	
2025-01-10 11:44:18.01	226.74	20.26	
2025-01-10 11:44:18.22	226.79	20.28	
2025-01-10 11:44:18.43	226.83	20.30	
2025-01-10 11:44:18.64	226.87	20.32	
2025-01-10 11:44:18.85	226.91	20.34	
2025-01-10 11:44:19.05	226.95	20.35	
2025-01-10 11:44:19.26	226.99	20.37	
2025-01-10 11:44:19.46	227.03	20.39	
2025-01-10 11:44:19.67	227.07	20.41	
2025-01-10 11:44:19.87	227.11	20.42	
2025-01-10 11:44:20.08	227.15	20.44	
2025-01-10 11:44:20.28	227.19	20.46	
2025-01-10 11:44:20.49	227.23	20.47	
2025-01-10 11:44:20.69	227.27	20.49	
2025-01-10 11:44:20.90	227.31	20.51	
2025-01-10 11:44:21.10	227.35	20.53	
2025-01-10 11:44:21.31	227.39	20.54	
2025-01-10 11:44:21.52	227.43	20.56	
2025-01-10 11:44:21.72	227.47	20.58	
2025-01-10 11:44:21.93	227.51	20.60	
2025-01-10 11:44:22.13	227.55	20.61	
2025-01-10 11:44:22.34	227.60	20.63	
2025-01-10 11:44:22.54	227.64	20.65	
2025-01-10 11:44:22.75	227.68	20.67	
2025-01-10 11:44:22.95	227.72	20.68	
2025-01-10 11:44:23.16	227.76	20.70	
2025-01-10 11:44:23.36	227.80	20.72	
2025-01-10 11:44:23.57	227.84	20.74	
2025-01-10 11:44:23.78	227.88	20.75	
2025-01-10 11:44:23.99	227.93	20.77	
2025-01-10 11:44:24.20	227.97	20.79	
2025-01-10 11:44:24.40	228.01	20.81	
2025-01-10 11:44:24.61	228.05	20.83	
2025-01-10 11:44:24.81	228.09	20.84	
2025-01-10 11:44:25.02	228.13	20.86	
2025-01-10 11:44:25.22	228.17	20.88	
2025-01-10 11:44:25.43	228.22	20.89	
2025-01-10 11:44:25.63	228.26	20.91	
2025-01-10 11:44:25.84	228.30	20.93	
2025-01-10 11:44:26.04	228.34	20.95	
2025-01-10 11:44:26.25	228.38	20.96	
2025-01-10 11:44:26.45	228.42	20.98	
2025-01-10 11:44:26.66	228.47	21.00	
2025-01-10 11:44:26.87	228.51	21.02	
2025-01-10 11:44:27.07	228.55	21.03	
2025-01-10 11:44:27.27	228.59	21.05	
2025-01-10 11:44:27.48	228.63	21.07	
2025-01-10 11:44:27.69	228.68	21.09	
2025-01-10 11:44:27.89	228.72	21.10	
2025-01-10 11:44:28.10	228.76	21.12	
2025-01-10 11:44:28.30	228.80	21.14	
2025-01-10 11:44:28.51	228.84	21.16	
2025-01-10 11:44:28.72	228.89	21.17	
2025-01-10 11:44:28.92	228.93	21.19	
2025-01-10 11:44:29.13	228.97	21.21	
2025-01-10 11:44:29.33	229.01	21.23	
2025-01-10 11:44:29.53	229.05	21.24	
2025-01-10 11:44:29.74	229.10	21.26	
2025-01-10 11:44:29.95	229.14	21.28	
2025-01-10 11:44:30.15	229.18	21.29	
2025-01-10 11:44:30.36	229.23	21.31	
2025-01-10 11:44:30.56	229.27	21.33	
2025-01-10 11:44:30.77	229.31	21.35	
2025-01-10 11:44:30.97	229.35	21.36	
2025-01-10 11:44:31.18	229.40	21.38	
2025-01-10 11:44:31.39	229.44	21.40	
2025-01-10 11:44:31.59	229.48	21.42	
2025-01-10 11:44:31.80	229.53	21.43	
2025-01-10 11:44:32.00	229.57	21.45	
2025-01-10 11:44:32.21	229.61	21.47	
2025-01-10 11:44:32.42	229.66	21.49	
2025-01-10 11:44:32.63	229.70	21.50	
2025-01-10 11:44:32.84	229.74	21.52	
2025-01-10 11:44:33.05	229.79	21.54	
2025-01-10 11:44:33.25	229.83	21.56	
2025-01-10 11:44:33.46	229.88	21.57	
2025-01-10 11:44:33.66	229.92	21.59	
2025-01-10 11:44:33.87	229.96	21.61	
2025-01-10 11:44:34.07	230.00	21.63	
2025-01-10 11:44:34.28	230.05	21.64	
2025-01-10 11:44:34.48	230.09	21.66	
2025-01-10 11:44:34.69	230.14	21.68	
2025-01-10 11:44:34.89	230.18	21.69	
2025-01-10 11:44:35.10	230.22	21.71	
2025-01-10 11:44:35.30	230.27	21.73	
2025-01-10 11:44:35.51	230.31	21.75	
2025-01-10 11:44:35.71	230.35	21.76	
2025-01-10 11:44:35.92	230.40	21.78	
2025-01-10 11:44:36.13	230.44	21.80	
2025-01-10 11:44:36.33	230.49	21.82	
2025-01-10 11:44:36.54	230.53	21.83	
2025-01-10 11:44:36.74	230.57	21.85	
2025-01-10 11:44:36.94	230.62	21.87	
2025-01-10 11:44:37.15	230.66	21.88	
2025-01-10 11:44:37.36	230.71	21.90	
2025-01-10 11:44:37.56	230.75	21.92	
2025-01-10 11:44:37.76	230.79	21.93	
2025-01-10 11:44:37.97	230.84	21.95	
2025-01-10 11:44:38.18	230.88	21.97	
2025-01-10 11:44:38.38	230.93	21.99	
2025-01-10 11:44:38.59	230.97	22.00	
2025-01-10 11:44:38.79	231.02	22.02	
2025-01-10 11:44:38.99	231.06	22.04	
2025-01-10 11:44:39.20	231.11	22.06	
2025-01-10 11:44:39.41	231.15	22.07	
2025-01-10 11:44:39.61	231.19	22.09	
2025-01-10 11:44:39.82	231.24	22.11	
2025-01-10 11:44:40.02	231.28	22.12	
2025-01-10 11:44:40.23	231.33	22.14	
2025-01-10 11:44:40.43	231.37	22.16	
2025-01-10 11:44:40.64	231.42	22.18	
2025-01-10 11:44:40.84	231.46	22.19	
2025-01-10 11:44:41.05	231.51	22.21	
2025-01-10 11:44:41.25	231.55	22.23	
2025-01-10 11:44:41.46	231.60	22.24	
2025-01-10 11:44:41.66	231.64	22.26	
2025-01-10 11:44:41.87	231.69	22.28	
2025-01-10 11:44:42.07	231.73	22.29	
2025-01-10 11:44:42.27	231.78	22.31	
2025-01-10 11:44:42.48	231.83	22.33	
2025-01-10 11:44:42.69	231.87	22.35	
2025-01-10 11:44:42.89	231.92	22.36	
2025-01-10 11:44:43.10	231.96	22.38	
2025-01-10 11:44:43.30	232.01	22.40	
2025-01-10 11:44:43.50	232.05	22.41	
2025-01-10 11:44:43.71	232.10	22.43	
2025-01-10 11:44:43.91	232.14	22.45	
2025-01-10 11:44:44.12	232.19	22.46	
2025-01-10 11:44:44.32	232.23	22.48	
2025-01-10 11:44:44.53	232.28	22.50	
2025-01-10 11:44:44.74	232.33	22.52	
2025-01-10 11:44:44.94	232.37	22.53	
2025-01-10 11:44:45.15	232.42	22.55	
2025-01-10 11:44:45.35	232.47	22.57	
2025-01-10 11:44:45.56	232.51	22.58	
2025-01-10 11:44:45.77	232.56	22.60	
2025-01-10 11:44:45.97	232.60	22.62	
2025-01-10 11:44:46.18	232.65	22.63	
2025-01-10 11:44:46.38	232.70	22.65	
2025-01-10 11:44:46.59	232.74	22.67	
2025-01-10 11:44:46.79	232.79	22.68	
2025-01-10 11:44:47.00	232.84	22.70	
2025-01-10 11:44:47.20	232.88	22.72	
2025-01-10 11:44:47.41	232.93	22.73	
2025-01-10 11:44:47.62	232.98	22.75	
2025-01-10 11:44:47.82	233.02	22.77	
2025-01-10 11:44:48.03	233.07	22.79	
2025-01-10 11:44:48.23	233.12	22.80	
2025-01-10 11:44:48.44	233.17	22.82	
2025-01-10 11:44:48.64	233.21	22.84	
2025-01-10 11:44:48.85	233.26	22.85	
2025-01-10 11:44:49.05	233.30	22.87	
2025-01-10 11:44:49.26	233.35	22.89	
2025-01-10 11:44:49.47	233.40	22.90	
2025-01-10 11:44:49.67	233.45	22.92	
2025-01-10 11:44:49.87	233.49	22.94	
2025-01-10 11:44:50.08	233.54	22.95	
2025-01-10 11:44:50.29	233.59	22.97	
2025-01-10 11:44:50.49	233.64	22.99	
2025-01-10 11:44:50.69	233.68	23.00	
2025-01-10 11:44:50.90	233.73	23.02	
2025-01-10 11:44:51.11	233.78	23.04	
2025-01-10 11:44:51.31	233.83	23.05	
2025-01-10 11:44:51.52	233.87	23.07	
2025-01-10 11:44:51.72	233.92	23.09	
2025-01-10 11:44:51.93	233.97	23.10	
2025-01-10 11:44:52.13	234.02	23.12	
2025-01-10 11:44:52.35	234.07	23.14	
2025-01-10 11:44:52.55	234.11	23.15	
2025-01-10 11:44:52.75	234.16	23.17	
2025-01-10 11:44:52.96	234.21	23.19	
2025-01-10 11:44:53.17	234.26	23.20	
2025-01-10 11:44:53.37	234.30	23.22	
2025-01-10 11:44:53.58	234.35	23.24	
2025-01-10 11:44:53.78	234.40	23.25	
2025-01-10 11:44:53.99	234.45	23.27	
2025-01-10 11:44:54.19	234.50	23.29	
2025-01-10 11:44:54.40	234.55	23.30	
2025-01-10 11:44:54.60	234.59	23.32	
2025-01-10 11:44:54.81	234.64	23.34	
2025-01-10 11:44:55.01	234.69	23.35	
2025-01-10 11:44:55.22	234.74	23.37	
2025-01-10 11:44:55.43	234.79	23.39	
2025-01-10 11:44:55.63	234.84	23.40	
2025-01-10 11:44:55.84	234.89	23.42	
2025-01-10 11:44:56.06	234.94	23.44	
2025-01-10 11:44:56.26	234.99	23.45	
2025-01-10 11:44:56.47	235.04	23.47	
2025-01-10 11:44:56.68	235.09	23.49	
2025-01-10 11:44:56.88	235.13	23.50	
2025-01-10 11:44:57.10	235.19	23.52	
2025-01-10 11:44:57.30	235.23	23.54	
2025-01-10 11:44:57.51	235.28	23.55	
2025-01-10 11:44:57.72	235.33	23.57	
2025-01-10 11:44:57.92	235.38	23.59	
2025-01-10 11:44:58.13	235.43	23.60	
2025-01-10 11:44:58.33	235.48	23.62	
2025-01-10 11:44:58.54	235.53	23.63	
2025-01-10 11:44:58.74	235.58	23.65	
2025-01-10 11:44:58.95	235.63	23.67	
2025-01-10 11:44:59.16	235.68	23.68	
2025-01-10 11:44:59.37	235.73	23.70	
2025-01-10 11:44:59.57	235.78	23.72	
2025-01-10 11:44:59.78	235.83	23.73	
2025-01-10 11:44:59.98	235.88	23.75	
2025-01-10 11:45:00.19	235.93	23.77	
2025-01-10 11:45:00.39	235.98	23.78	
2025-01-10 11:45:00.60	236.03	23.80	
2025-01-10 11:45:00.80	236.08	23.81	
2025-01-10 11:45:01.01	236.13	23.83	
2025-01-10 11:45:01.21	236.18	23.85	
2025-01-10 11:45:01.42	236.23	23.86	
2025-01-10 11:45:01.62	236.28	23.88	
2025-01-10 11:45:01.83	236.33	23.90	
2025-01-10 11:45:02.04	236.38	23.91	
2025-01-10 11:45:02.24	236.43	23.93	
2025-01-10 11:45:02.44	236.48	23.94	
2025-01-10 11:45:02.65	236.53	23.96	
2025-01-10 11:45:02.86	236.58	23.98	
2025-01-10 11:45:03.06	236.63	23.99	
2025-01-10 11:45:03.27	236.68	24.01	
2025-01-10 11:45:03.47	236.73	24.02	
2025-01-10 11:45:03.67	236.78	24.04	
2025-01-10 11:45:03.88	236.83	24.06	
2025-01-10 11:45:04.09	236.88	24.07	
2025-01-10 11:45:04.29	236.93	24.09	
2025-01-10 11:45:04.50	236.98	24.10	
2025-01-10 11:45:04.70	237.03	24.12	
2025-01-10 11:45:04.91	237.08	24.14	
2025-01-10 11:45:05.11	237.13	24.15	
2025-01-10 11:45:05.31	237.18	24.17	
2025-01-10 11:45:05.52	237.24	24.18	
2025-01-10 11:45:05.72	237.29	24.20	
2025-01-10 11:45:05.93	237.34	24.21	
2025-01-10 11:45:06.13	237.39	24.23	
2025-01-10 11:45:06.34	237.44	24.25	
2025-01-10 11:45:06.54	237.49	24.26	
2025-01-10 11:45:06.74	237.54	24.28	
2025-01-10 11:45:06.95	237.59	24.29	
2025-01-10 11:45:07.15	237.64	24.31	
2025-01-10 11:45:07.36	237.70	24.32	
2025-01-10 11:45:07.57	237.75	24.34	
2025-01-10 11:45:07.77	237.80	24.36	
2025-01-10 11:45:07.98	237.85	24.37	
2025-01-10 11:45:08.18	237.90	24.39	
2025-01-10 11:45:08.39	237.95	24.40	
2025-01-10 11:45:08.59	238.00	24.42	
2025-01-10 11:45:08.79	238.06	24.43	
2025-01-10 11:45:09.00	238.11	24.45	
2025-01-10 11:45:09.21	238.16	24.47	
2025-01-10 11:45:09.41	238.21	24.48	
2025-01-10 11:45:09.62	238.27	24.50	
2025-01-10 11:45:09.82	238.32	24.51	
2025-01-10 11:45:10.03	238.37	24.53	
2025-01-10 11:45:10.23	238.42	24.54	
2025-01-10 11:45:10.44	238.47	24.56	
2025-01-10 11:45:10.64	238.52	24.57	
2025-01-10 11:45:10.85	238.58	24.59	
2025-01-10 11:45:11.05	238.63	24.61	
2025-01-10 11:45:11.26	238.68	24.62	
2025-01-10 11:45:11.46	238.73	24.64	
2025-01-10 11:45:11.67	238.79	24.65	
2025-01-10 11:45:11.87	238.84	24.67	
2025-01-10 11:45:12.08	238.89	24.68	
2025-01-10 11:45:12.28	238.94	24.70	
2025-01-10 11:45:12.49	239.00	24.71	
2025-01-10 11:45:12.69	239.05	24.73	
2025-01-10 11:45:12.90	239.10	24.74	
2025-01-10 11:45:13.10	239.15	24.76	
2025-01-10 11:45:13.31	239.21	24.78	
2025-01-10 11:45:13.51	239.26	24.79	
2025-01-10 11:45:13.72	239.31	24.81	
2025-01-10 11:45:13.92	239.37	24.82	
2025-01-10 11:45:14.13	239.42	24.84	
2025-01-10 11:45:14.33	239.47	24.85	
2025-01-10 11:45:14.54	239.53	24.87	
2025-01-10 11:45:14.75	239.58	24.88	
2025-01-10 11:45:14.95	239.63	24.90	
2025-01-10 11:45:15.16	239.69	24.91	
2025-01-10 11:45:15.36	239.74	24.93	
2025-01-10 11:45:15.56	239.79	24.94	
2025-01-10 11:45:15.77	239.85	24.96	
2025-01-10 11:45:15.98	239.90	24.97	
2025-01-10 11:45:16.18	239.95	24.99	
2025-01-10 11:45:16.38	240.01	25.00	
2025-01-10 11:45:16.59	240.06	25.02	
2025-01-10 11:45:16.80	240.12	25.03	
2025-01-10 11:45:17.00	240.17	25.05	
2025-01-10 11:45:17.21	240.22	25.06	
2025-01-10 11:45:17.42	240.28	25.08	
2025-01-10 11:45:17.63	240.33	25.09	
2025-01-10 11:45:17.83	240.39	25.11	
2025-01-10 11:45:18.04	240.44	25.12	
2025-01-10 11:45:18.25	240.50	25.14	
2025-01-10 11:45:18.45	240.55	25.15	
2025-01-10 11:45:18.65	240.60	25.17	
2025-01-10 11:45:18.86	240.66	25.18	
2025-01-10 11:45:19.07	240.71	25.20	
2025-01-10 11:45:19.27	240.77	25.21	
2025-01-10 11:45:19.48	240.82	25.23	
2025-01-10 11:45:19.68	240.87	25.24	
2025-01-10 11:45:19.88	240.93	25.26	
2025-01-10 11:45:20.09	240.98	25.27	
2025-01-10 11:45:20.30	241.04	25.29	
2025-01-10 11:45:20.50	241.09	25.30	
2025-01-10 11:45:20.70	241.15	25.32	
2025-01-10 11:45:20.91	241.20	25.33	
2025-01-10 11:45:21.12	241.26	25.35	
2025-01-10 11:45:21.32	241.31	25.36	
2025-01-10 11:45:21.53	241.37	25.38	
2025-01-10 11:45:21.73	241.42	25.39	
2025-01-10 11:45:21.94	241.48	25.40	
2025-01-10 11:45:22.14	241.53	25.42	
2025-01-10 11:45:22.35	241.59	25.43	
2025-01-10 11:45:22.56	241.64	25.45	
2025-01-10 11:45:22.76	241.70	25.46	
2025-01-10 11:45:22.97	241.75	25.48	
2025-01-10 11:45:23.17	241.81	25.49	
2025-01-10 11:45:23.38	241.86	25.51	
2025-01-10 11:45:23.59	241.92	25.52	
2025-01-10 11:45:23.79	241.98	25.54	
2025-01-10 11:45:24.00	242.03	25.55	
2025-01-10 11:45:24.20	242.09	25.56	
2025-01-10 11:45:24.41	242.14	25.58	
2025-01-10 11:45:24.62	242.20	25.59	
2025-01-10 11:45:24.82	242.25	25.61	
2025-01-10 11:45:25.03	242.31	25.62	
2025-01-10 11:45:25.23	242.37	25.64	
2025-01-10 11:45:25.44	242.42	25.65	
2025-01-10 11:45:25.65	242.48	25.66	
2025-01-10 11:45:25.85	242.53	25.68	
2025-01-10 11:45:26.05	242.59	25.69	
2025-01-10 11:45:26.26	242.65	25.71	
2025-01-10 11:45:26.47	242.70	25.72	
2025-01-10 11:45:26.67	242.76	25.74	
2025-01-10 11:45:26.88	242.82	25.75	
2025-01-10 11:45:27.08	242.87	25.76	
2025-01-10 11:45:27.29	242.93	25.78	
2025-01-10 11:45:27.49	242.98	25.79	
2025-01-10 11:45:27.70	243.04	25.81	
2025-01-10 11:45:27.91	243.10	25.82	
2025-01-10 11:45:28.12	243.16	25.83	
2025-01-10 11:45:28.33	243.21	25.85	
2025-01-10 11:45:28.53	243.27	25.86	
2025-01-10 11:45:28.74	243.33	25.88	
2025-01-10 11:45:28.95	243.39	25.89	
2025-01-10 11:45:29.15	243.44	25.90	
2025-01-10 11:45:29.35	243.50	25.92	
2025-01-10 11:45:29.56	243.55	25.93	
2025-01-10 11:45:29.77	243.61	25.95	
2025-01-10 11:45:29.97	243.67	25.96	
2025-01-10 11:45:30.18	243.73	25.97	
2025-01-10 11:45:30.39	243.78	25.99	
2025-01-10 11:45:30.60	243.84	26.00	
2025-01-10 11:45:30.80	243.90	26.01	
2025-01-10 11:45:31.01	243.96	26.03	
2025-01-10 11:45:31.21	244.01	26.04	
2025-01-10 11:45:31.41	244.07	26.06	
2025-01-10 11:45:31.62	244.13	26.07	
2025-01-10 11:45:31.83	244.19	26.08	
2025-01-10 11:45:32.03	244.24	26.10	
2025-01-10 11:45:32.24	244.30	26.11	
2025-01-10 11:45:32.44	244.36	26.12	
2025-01-10 11:45:32.65	244.41	26.14	
2025-01-10 11:45:32.85	244.47	26.15	
2025-01-10 11:45:33.06	244.53	26.16	
2025-01-10 11:45:33.26	244.59	26.18	
2025-01-10 11:45:33.46	244.64	26.19	
2025-01-10 11:45:33.67	244.70	26.20	
2025-01-10 11:45:33.88	244.76	26.22	
2025-01-10 11:45:34.08	244.82	26.23	
2025-01-10 11:45:34.29	244.88	26.24	
2025-01-10 11:45:34.49	244.93	26.26	
2025-01-10 11:45:34.70	244.99	26.27	
2025-01-10 11:45:34.90	245.05	26.28	
2025-01-10 11:45:35.11	245.11	26.30	
2025-01-10 11:45:35.31	245.16	26.31	
2025-01-10 11:45:35.52	245.22	26.32	
2025-01-10 11:45:35.72	245.28	26.34	
2025-01-10 11:45:35.93	245.34	26.35	
2025-01-10 11:45:36.13	245.40	26.36	
2025-01-10 11:45:36.34	245.46	26.37	
2025-01-10 11:45:36.54	245.51	26.39	
2025-01-10 11:45:36.75	245.57	26.40	
2025-01-10 11:45:36.96	245.63	26.41	
2025-01-10 11:45:37.16	245.69	26.43	
2025-01-10 11:45:37.36	245.75	26.44	
2025-01-10 11:45:37.57	245.81	26.45	
2025-01-10 11:45:37.79	245.87	26.47	
2025-01-10 11:45:38.00	245.93	26.48	
2025-01-10 11:45:38.20	245.99	26.49	
2025-01-10 11:45:38.41	246.05	26.50	
2025-01-10 11:45:38.61	246.11	26.52	
2025-01-10 11:45:38.81	246.16	26.53	
2025-01-10 11:45:39.02	246.22	26.54	
2025-01-10 11:45:39.23	246.28	26.56	
2025-01-10 11:45:39.43	246.34	26.57	
2025-01-10 11:45:39.64	246.40	26.58	
2025-01-10 11:45:39.86	246.47	26.59	
2025-01-10 11:45:40.06	246.52	26.61	
2025-01-10 11:45:40.27	246.58	26.62	
2025-01-10 11:45:40.47	246.64	26.63	
2025-01-10 11:45:40.68	246.70	26.64	
2025-01-10 11:45:40.88	246.76	26.66	
2025-01-10 11:45:41.09	246.82	26.67	
2025-01-10 11:45:41.30	246.88	26.68	
2025-01-10 11:45:41.50	246.94	26.69	
2025-01-10 11:45:41.71	247.00	26.71	
2025-01-10 11:45:41.91	247.06	26.72	
2025-01-10 11:45:42.12	247.12	26.73	
2025-01-10 11:45:42.32	247.18	26.74	
2025-01-10 11:45:42.53	247.24	26.76	
2025-01-10 11:45:42.74	247.30	26.77	
2025-01-10 11:45:42.94	247.36	26.78	
2025-01-10 11:45:43.16	247.42	26.79	
2025-01-10 11:45:43.37	247.48	26.81	
2025-01-10 11:45:43.57	247.54	26.82	
2025-01-10 11:45:43.78	247.60	26.83	
2025-01-10 11:45:43.98	247.66	26.84	
2025-01-10 11:45:44.20	247.73	26.85	
2025-01-10 11:45:44.40	247.79	26.87	
2025-01-10 11:45:44.61	247.85	26.88	
2025-01-10 11:45:44.82	247.91	26.89	
2025-01-10 11:45:45.02	247.97	26.90	
2025-01-10 11:45:45.22	248.03	26.91	
2025-01-10 11:45:45.43	248.09	26.93	
2025-01-10 11:45:45.63	248.15	26.94	
2025-01-10 11:45:45.84	248.21	26.95	
2025-01-10 11:45:46.05	248.27	26.96	
2025-01-10 11:45:46.25	248.33	26.97	
2025-01-10 11:45:46.46	248.39	26.98	
2025-01-10 11:45:46.66	248.45	27.00	
2025-01-10 11:45:46.87	248.51	27.01	
2025-01-10 11:45:47.07	248.57	27.02	
2025-01-10 11:45:47.28	248.64	27.03	
2025-01-10 11:45:47.48	248.69	27.04	
2025-01-10 11:45:47.69	248.76	27.05	
2025-01-10 11:45:47.89	248.82	27.07	
2025-01-10 11:45:48.10	248.88	27.08	
2025-01-10 11:45:48.30	248.94	27.09	
2025-01-10 11:45:48.51	249.00	27.10	
2025-01-10 11:45:48.71	249.06	27.11	
2025-01-10 11:45:48.92	249.12	27.12	
2025-01-10 11:45:49.12	249.18	27.13	
2025-01-10 11:45:49.33	249.24	27.15	
2025-01-10 11:45:49.53	249.30	27.16	
2025-01-10 11:45:49.74	249.37	27.17	
2025-01-10 11:45:49.94	249.43	27.18	
2025-01-10 11:45:50.15	249.49	27.19	
2025-01-10 11:45:50.35	249.55	27.20	
2025-01-10 11:45:50.57	249.62	27.21	
2025-01-10 11:45:50.78	249.68	27.22	
2025-01-10 11:45:50.98	249.74	27.24	
2025-01-10 11:45:51.19	249.80	27.25	
2025-01-10 11:45:51.40	249.86	27.26	
2025-01-10 11:45:51.60	249.92	27.27	
2025-01-10 11:45:51.81	249.99	27.28	
2025-01-10 11:45:52.01	250.05	27.29	
2025-01-10 11:45:52.22	250.11	27.30	
2025-01-10 11:45:52.42	250.17	27.31	
2025-01-10 11:45:52.62	250.23	27.32	
2025-01-10 11:45:52.83	250.29	27.33	
2025-01-10 11:45:53.03	250.35	27.34	
2025-01-10 11:45:53.24	250.42	27.35	
2025-01-10 11:45:53.44	250.48	27.37	
2025-01-10 11:45:53.65	250.54	27.38	
2025-01-10 11:45:53.85	250.60	27.39	
2025-01-10 11:45:54.06	250.67	27.40	
2025-01-10 11:45:54.26	250.73	27.41	
2025-01-10 11:45:54.47	250.79	27.42	
2025-01-10 11:45:54.67	250.85	27.43	
2025-01-10 11:45:54.88	250.92	27.44	
2025-01-10 11:45:55.08	250.98	27.45	
2025-01-10 11:45:55.29	251.04	27.46	
2025-01-10 11:45:55.49	251.10	27.47	
2025-01-10 11:45:55.70	251.16	27.48	
2025-01-10 11:45:55.92	251.23	27.49	
2025-01-10 11:45:56.12	251.29	27.50	
2025-01-10 11:45:56.33	251.36	27.51	
2025-01-10 11:45:56.53	251.42	27.52	
2025-01-10 11:45:56.74	251.48	27.53	
2025-01-10 11:45:56.95	251.55	27.54	
2025-01-10 11:45:57.15	251.61	27.55	
2025-01-10 11:45:57.36	251.67	27.56	
2025-01-10 11:45:57.56	251.73	27.57	
2025-01-10 11:45:57.77	251.80	27.58	
2025-01-10 11:45:57.97	251.86	27.59	
2025-01-10 11:45:58.18	251.92	27.60	
2025-01-10 11:45:58.38	251.98	27.61	
2025-01-10 11:45:58.59	252.05	27.62	
2025-01-10 11:45:58.79	252.11	27.63	
2025-01-10 11:45:58.99	252.17	27.64	
2025-01-10 11:45:59.20	252.24	27.65	
2025-01-10 11:45:59.41	252.30	27.66	
2025-01-10 11:45:59.61	252.36	27.67	
2025-01-10 11:45:59.82	252.43	27.68	
2025-01-10 11:46:00.02	252.49	27.69	
2025-01-10 11:46:00.22	252.55	27.70	
2025-01-10 11:46:00.43	252.62	27.71	
2025-01-10 11:46:00.63	252.68	27.72	
2025-01-10 11:46:00.84	252.74	27.73	
2025-01-10 11:46:01.05	252.81	27.74	
2025-01-10 11:46:01.25	252.87	27.75	
2025-01-10 11:46:01.45	252.93	27.76	
2025-01-10 11:46:01.66	253.00	27.77	
2025-01-10 11:46:01.87	253.06	27.78	
2025-01-10 11:46:02.07	253.12	27.79	
2025-01-10 11:46:02.29	253.19	27.80	
2025-01-10 11:46:02.49	253.25	27.80	
2025-01-10 11:46:02.70	253.32	27.81	
2025-01-10 11:46:02.91	253.38	27.82	
2025-01-10 11:46:03.11	253.45	27.83	
2025-01-10 11:46:03.32	253.51	27.84	
2025-01-10 11:46:03.52	253.57	27.85	
2025-01-10 11:46:03.73	253.64	27.86	
2025-01-10 11:46:03.93	253.70	27.87	
2025-01-10 11:46:04.14	253.77	27.88	
2025-01-10 11:46:04.34	253.83	27.89	
2025-01-10 11:46:04.55	253.89	27.90	
2025-01-10 11:46:04.75	253.96	27.90	
2025-01-10 11:46:04.96	254.02	27.91	
2025-01-10 11:46:05.17	254.09	27.92	
2025-01-10 11:46:05.37	254.15	27.93	
2025-01-10 11:46:05.58	254.22	27.94	
2025-01-10 11:46:05.78	254.28	27.95	
2025-01-10 11:46:05.99	254.34	27.96	
2025-01-10 11:46:06.19	254.41	27.96	
2025-01-10 11:46:06.40	254.47	27.97	
2025-01-10 11:46:06.60	254.54	27.98	
2025-01-10 11:46:06.81	254.60	27.99	
2025-01-10 11:46:07.01	254.67	28.00	
2025-01-10 11:46:07.22	254.73	28.01	
2025-01-10 11:46:07.42	254.79	28.02	
2025-01-10 11:46:07.64	254.86	28.02	
2025-01-10 11:46:07.84	254.93	28.03	
2025-01-10 11:46:08.05	254.99	28.04	
2025-01-10 11:46:08.25	255.06	28.05	
2025-01-10 11:46:08.46	255.12	28.06	
2025-01-10 11:46:08.66	255.18	28.07	
2025-01-10 11:46:08.87	255.25	28.07	
2025-01-10 11:46:09.08	255.32	28.08	
2025-01-10 11:46:09.28	255.38	28.09	
2025-01-10 11:46:09.49	255.45	28.10	
2025-01-10 11:46:09.69	255.51	28.11	
2025-01-10 11:46:09.90	255.58	28.11	
2025-01-10 11:46:10.10	255.64	28.12	
2025-01-10 11:46:10.31	255.71	28.13	
2025-01-10 11:46:10.52	255.77	28.14	
2025-01-10 11:46:10.72	255.84	28.15	
2025-01-10 11:46:10.93	255.90	28.15	
2025-01-10 11:46:11.13	255.97	28.16	
2025-01-10 11:46:11.34	256.03	28.17	
2025-01-10 11:46:11.54	256.10	28.18	
2025-01-10 11:46:11.75	256.16	28.18	
2025-01-10 11:46:11.95	256.23	28.19	
2025-01-10 11:46:12.16	256.29	28.20	
2025-01-10 11:46:12.37	256.36	28.21	
2025-01-10 11:46:12.57	256.42	28.21	
2025-01-10 11:46:12.78	256.49	28.22	
2025-01-10 11:46:12.98	256.55	28.23	
2025-01-10 11:46:13.18	256.62	28.24	
2025-01-10 11:46:13.39	256.69	28.24	
2025-01-10 11:46:13.59	256.75	28.25	
2025-01-10 11:46:13.80	256.82	28.26	
2025-01-10 11:46:14.00	256.88	28.27	
2025-01-10 11:46:14.21	256.95	28.27	
2025-01-10 11:46:14.41	257.01	28.28	
2025-01-10 11:46:14.62	257.08	28.29	
2025-01-10 11:46:14.82	257.14	28.29	
2025-01-10 11:46:15.04	257.21	28.30	
2025-01-10 11:46:15.25	257.28	28.31	
2025-01-10 11:46:15.45	257.34	28.31	
2025-01-10 11:46:15.66	257.41	28.32	
2025-01-10 11:46:15.87	257.48	28.33	
2025-01-10 11:46:16.07	257.54	28.34	
2025-01-10 11:46:16.28	257.61	28.34	
2025-01-10 11:46:16.48	257.67	28.35	
2025-01-10 11:46:16.69	257.74	28.36	
2025-01-10 11:46:16.89	257.81	28.36	
2025-01-10 11:46:17.10	257.87	28.37	
2025-01-10 11:46:17.30	257.94	28.38	
2025-01-10 11:46:17.50	258.00	28.38	
2025-01-10 11:46:17.71	258.07	28.39	
2025-01-10 11:46:17.91	258.13	28.39	
2025-01-10 11:46:18.12	258.20	28.40	
2025-01-10 11:46:18.32	258.27	28.41	
2025-01-10 11:46:18.53	258.33	28.41	
2025-01-10 11:46:18.74	258.40	28.42	
2025-01-10 11:46:18.94	258.47	28.43	
2025-01-10 11:46:19.15	258.53	28.43	
2025-01-10 11:46:19.36	258.60	28.44	
2025-01-10 11:46:19.57	258.67	28.45	
2025-01-10 11:46:19.78	258.74	28.45	
2025-01-10 11:46:19.98	258.80	28.46	
2025-01-10 11:46:20.19	258.87	28.46	
2025-01-10 11:46:20.39	258.93	28.47	
2025-01-10 11:46:20.60	259.00	28.48	
2025-01-10 11:46:20.80	259.07	28.48	
2025-01-10 11:46:21.01	259.13	28.49	
2025-01-10 11:46:21.22	259.20	28.49	
2025-01-10 11:46:21.42	259.27	28.50	
2025-01-10 11:46:21.62	259.33	28.51	
2025-01-10 11:46:21.83	259.40	28.51	
2025-01-10 11:46:22.04	259.47	28.52	
2025-01-10 11:46:22.24	259.53	28.52	
2025-01-10 11:46:22.46	259.60	28.53	
2025-01-10 11:46:22.66	259.67	28.53	
2025-01-10 11:46:22.87	259.74	28.54	
2025-01-10 11:46:23.08	259.81	28.54	
2025-01-10 11:46:23.28	259.87	28.55	
2025-01-10 11:46:23.49	259.94	28.56	
2025-01-10 11:46:23.69	260.00	28.56	
2025-01-10 11:46:23.90	260.07	28.57	
2025-01-10 11:46:24.10	260.14	28.57	
2025-01-10 11:46:24.31	260.21	28.58	
2025-01-10 11:46:24.51	260.27	28.58	
2025-01-10 11:46:24.72	260.34	28.59	
2025-01-10 11:46:24.92	260.40	28.59	
2025-01-10 11:46:25.13	260.47	28.60	
2025-01-10 11:46:25.33	260.54	28.60	
2025-01-10 11:46:25.54	260.61	28.61	
2025-01-10 11:46:25.74	260.67	28.61	
2025-01-10 11:46:25.95	260.74	28.62	
2025-01-10 11:46:26.15	260.81	28.62	
2025-01-10 11:46:26.36	260.87	28.63	
2025-01-10 11:46:26.56	260.94	28.63	
2025-01-10 11:46:26.77	261.01	28.64	
2025-01-10 11:46:26.97	261.07	28.64	
2025-01-10 11:46:27.18	261.14	28.65	
2025-01-10 11:46:27.38	261.21	28.65	
2025-01-10 11:46:27.59	261.28	28.65	
2025-01-10 11:46:27.79	261.34	28.66	
2025-01-10 11:46:28.00	261.41	28.66	
2025-01-10 11:46:28.20	261.48	28.67	
2025-01-10 11:46:28.41	261.54	28.67	
2025-01-10 11:46:28.61	261.61	28.68	
2025-01-10 11:46:28.82	261.68	28.68	
2025-01-10 11:46:29.02	261.74	28.69	
2025-01-10 11:46:29.23	261.81	28.69	
2025-01-10 11:46:29.43	261.88	28.69	
2025-01-10 11:46:29.64	261.95	28.70	
2025-01-10 11:46:29.84	262.01	28.70	
2025-01-10 11:46:30.05	262.08	28.71	
2025-01-10 11:46:30.26	262.15	28.71	
2025-01-10 11:46:30.46	262.22	28.71	
2025-01-10 11:46:30.67	262.28	28.72	
2025-01-10 11:46:30.87	262.35	28.72	
2025-01-10 11:46:31.08	262.42	28.73	
2025-01-10 11:46:31.28	262.48	28.73	
2025-01-10 11:46:31.49	262.55	28.73	
2025-01-10 11:46:31.70	262.62	28.74	
2025-01-10 11:46:31.90	262.69	28.74	
2025-01-10 11:46:32.11	262.76	28.75	
2025-01-10 11:46:32.31	262.82	28.75	
2025-01-10 11:46:32.52	262.89	28.75	
2025-01-10 11:46:32.72	262.96	28.76	
2025-01-10 11:46:32.93	263.03	28.76	
2025-01-10 11:46:33.13	263.09	28.76	
2025-01-10 11:46:33.35	263.17	28.77	
2025-01-10 11:46:33.55	263.23	28.77	
2025-01-10 11:46:33.76	263.30	28.77	
2025-01-10 11:46:33.97	263.37	28.78	
2025-01-10 11:46:34.17	263.44	28.78	
2025-01-10 11:46:34.38	263.50	28.78	
2025-01-10 11:46:34.58	263.57	28.79	
2025-01-10 11:46:34.79	263.64	28.79	
2025-01-10 11:46:34.99	263.71	28.79	
2025-01-10 11:46:35.20	263.78	28.80	
2025-01-10 11:46:35.40	263.84	28.80	
2025-01-10 11:46:35.61	263.91	28.80	
2025-01-10 11:46:35.82	263.98	28.80	
2025-01-10 11:46:36.02	264.05	28.81	
2025-01-10 11:46:36.23	264.11	28.81	
2025-01-10 11:46:36.44	264.18	28.81	
2025-01-10 11:46:36.65	264.25	28.82	
2025-01-10 11:46:36.86	264.32	28.82	
2025-01-10 11:46:37.06	264.39	28.82	
2025-01-10 11:46:37.27	264.46	28.82	
2025-01-10 11:46:37.47	264.52	28.83	
2025-01-10 11:46:37.68	264.59	28.83	
2025-01-10 11:46:37.88	264.66	28.83	
2025-01-10 11:46:38.09	264.73	28.83	
2025-01-10 11:46:38.29	264.80	28.84	
2025-01-10 11:46:38.50	264.86	28.84	
2025-01-10 11:46:38.70	264.93	28.84	
2025-01-10 11:46:38.91	265.00	28.84	
2025-01-10 11:46:39.11	265.07	28.84	
2025-01-10 11:46:39.32	265.14	28.85	
2025-01-10 11:46:39.52	265.20	28.85	
2025-01-10 11:46:39.73	265.27	28.85	
2025-01-10 11:46:39.93	265.34	28.85	
2025-01-10 11:46:40.14	265.41	28.86	
2025-01-10 11:46:40.34	265.47	28.86	
2025-01-10 11:46:40.55	265.54	28.86	
2025-01-10 11:46:40.75	265.61	28.86	
2025-01-10 11:46:40.96	265.68	28.86	
2025-01-10 11:46:41.16	265.74	28.86	
2025-01-10 11:46:41.37	265.81	28.87	
2025-01-10 11:46:41.58	265.88	28.87	
2025-01-10 11:46:41.78	265.95	28.87	
2025-01-10 11:46:41.99	266.02	28.87	
2025-01-10 11:46:42.19	266.09	28.87	
2025-01-10 11:46:42.40	266.16	28.87	
2025-01-10 11:46:42.60	266.22	28.88	
2025-01-10 11:46:42.81	266.29	28.88	
2025-01-10 11:46:43.01	266.36	28.88	
2025-01-10 11:46:43.22	266.43	28.88	
2025-01-10 11:46:43.42	266.49	28.88	
2025-01-10 11:46:43.63	266.56	28.88	
2025-01-10 11:46:43.83	266.63	28.88	
2025-01-10 11:46:44.03	266.70	28.89	
2025-01-10 11:46:44.24	266.77	28.89	
2025-01-10 11:46:44.45	266.83	28.89	
2025-01-10 11:46:44.65	266.90	28.89	
2025-01-10 11:46:44.86	266.97	28.89	
2025-01-10 11:46:45.06	267.04	28.89	
2025-01-10 11:46:45.27	267.11	28.89	
2025-01-10 11:46:45.47	267.17	28.89	
2025-01-10 11:46:45.68	267.24	28.89	
2025-01-10 11:46:45.89	267.31	28.89	
2025-01-10 11:46:46.09	267.38	28.89	
2025-01-10 11:46:46.29	267.44	28.90	
2025-01-10 11:46:46.50	267.51	28.90	
2025-01-10 11:46:46.70	267.58	28.90	
2025-01-10 11:46:46.91	267.65	28.90	
2025-01-10 11:46:47.11	267.72	28.90	
2025-01-10 11:46:47.32	267.79	28.90	
2025-01-10 11:46:47.52	267.85	28.90	
2025-01-10 11:46:47.73	267.92	28.90	
2025-01-10 11:46:47.93	267.99	28.90	
2025-01-10 11:46:48.14	268.06	28.90	
2025-01-10 11:46:48.34	268.12	28.90	
2025-01-10 11:46:48.55	268.19	28.90	
2025-01-10 11:46:48.75	268.26	28.90	
2025-01-10 11:46:48.96	268.33	28.90	
2025-01-10 11:46:49.16	268.40	28.90	
2025-01-10 11:46:49.37	268.47	28.90	
2025-01-10 11:46:49.57	268.53	28.90	
2025-01-10 11:46:49.78	268.60	28.90	
2025-01-10 11:46:49.98	268.67	28.90	
2025-01-10 11:46:50.19	268.74	28.90	
2025-01-10 11:46:50.41	268.81	28.90	
2025-01-10 11:46:50.61	268.88	28.90	
2025-01-10 11:46:50.82	268.95	28.90	
2025-01-10 11:46:51.03	269.02	28.90	
2025-01-10 11:46:51.23	269.08	28.90	
2025-01-10 11:46:51.44	269.15	28.90	
2025-01-10 11:46:51.64	269.22	28.90	
2025-01-10 11:46:51.85	269.29	28.90	
2025-01-10 11:46:52.05	269.36	28.90	
2025-01-10 11:46:52.26	269.43	28.90	
2025-01-10 11:46:52.46	269.49	28.90	
2025-01-10 11:46:52.67	269.56	28.90	
2025-01-10 11:46:52.87	269.63	28.90	
2025-01-10 11:46:53.08	269.70	28.89	
2025-01-10 11:46:53.28	269.76	28.89	
2025-01-10 11:46:53.49	269.83	28.89	
2025-01-10 11:46:53.69	269.90	28.89	
2025-01-10 11:46:53.90	269.97	28.89	
2025-01-10 11:46:54.10	270.04	28.89	
2025-01-10 11:46:54.31	270.10	28.89	
2025-01-10 11:46:54.51	270.17	28.89	
2025-01-10 11:46:54.72	270.24	28.89	
2025-01-10 11:46:54.92	270.31	28.89	
2025-01-10 11:46:55.13	270.38	28.89	
2025-01-10 11:46:55.33	270.44	28.88	
2025-01-10 11:46:55.54	270.51	28.88	
2025-01-10 11:46:55.74	270.58	28.88	
2025-01-10 11:46:55.95	270.65	28.88	
2025-01-10 11:46:56.15	270.71	28.88	
2025-01-10 11:46:56.36	270.78	28.88	
2025-01-10 11:46:56.57	270.85	28.88	
2025-01-10 11:46:56.77	270.92	28.87	
2025-01-10 11:46:56.98	270.99	28.87	
2025-01-10 11:46:57.18	271.06	28.87	
2025-01-10 11:46:57.39	271.13	28.87	
2025-01-10 11:46:57.59	271.19	28.87	
2025-01-10 11:46:57.80	271.26	28.87	
2025-01-10 11:46:58.00	271.33	28.86	
2025-01-10 11:46:58.21	271.40	28.86	
2025-01-10 11:46:58.42	271.47	28.86	
2025-01-10 11:46:58.62	271.53	28.86	
2025-01-10 11:46:58.83	271.60	28.86	
2025-01-10 11:46:59.03	271.67	28.86	
2025-01-10 11:46:59.24	271.74	28.85	
2025-01-10 11:46:59.44	271.80	28.85	
2025-01-10 11:46:59.65	271.87	28.85	
2025-01-10 11:46:59.86	271.94	28.85	
2025-01-10 11:47:00.06	272.01	28.84	
2025-01-10 11:47:00.26	272.07	28.84	
2025-01-10 11:47:00.47	272.14	28.84	
2025-01-10 11:47:00.67	272.21	28.84	
2025-01-10 11:47:00.88	272.28	28.84	
2025-01-10 11:47:01.08	272.35	28.83	
2025-01-10 11:47:01.29	272.41	28.83	
2025-01-10 11:47:01.50	272.48	28.83	
2025-01-10 11:47:01.70	272.55	28.83	
2025-01-10 11:47:01.91	272.62	28.82	
2025-01-10 11:47:02.11	272.69	28.82	
2025-01-10 11:47:02.31	272.75	28.82	
2025-01-10 11:47:02.52	272.82	28.82	
2025-01-10 11:47:02.73	272.89	28.81	
2025-01-10 11:47:02.93	272.96	28.81	
2025-01-10 11:47:03.14	273.03	28.81	
2025-01-10 11:47:03.34	273.09	28.80	
2025-01-10 11:47:03.55	273.16	28.80	
2025-01-10 11:47:03.75	273.23	28.80	
2025-01-10 11:47:03.96	273.30	28.80	
2025-01-10 11:47:04.16	273.36	28.79	
2025-01-10 11:47:04.37	273.43	28.79	
2025-01-10 11:47:04.57	273.50	28.79	
2025-01-10 11:47:04.78	273.57	28.78	
2025-01-10 11:47:04.98	273.63	28.78	
2025-01-10 11:47:05.19	273.70	28.78	
2025-01-10 11:47:05.39	273.77	28.77	
2025-01-10 11:47:05.60	273.84	28.77	
2025-01-10 11:47:05.80	273.90	28.77	
2025-01-10 11:47:06.01	273.97	28.76	
2025-01-10 11:47:06.21	274.04	28.76	
2025-01-10 11:47:06.41	274.10	28.76	
2025-01-10 11:47:06.62	274.17	28.75	
2025-01-10 11:47:06.83	274.24	28.75	
2025-01-10 11:47:07.03	274.31	28.75	
2025-01-10 11:47:07.24	274.37	28.74	
2025-01-10 11:47:07.44	274.44	28.74	
2025-01-10 11:47:07.64	274.51	28.73	
2025-01-10 11:47:07.85	274.57	28.73	
2025-01-10 11:47:08.06	274.64	28.73	
2025-01-10 11:47:08.26	274.71	28.72	
2025-01-10 11:47:08.47	274.78	28.72	
2025-01-10 11:47:08.67	274.84	28.72	
2025-01-10 11:47:08.88	274.91	28.71	
2025-01-10 11:47:09.08	274.98	28.71	
2025-01-10 11:47:09.29	275.05	28.70	
2025-01-10 11:47:09.49	275.11	28.70	
2025-01-10 11:47:09.69	275.18	28.70	
2025-01-10 11:47:09.90	275.25	28.69	
2025-01-10 11:47:10.10	275.31	28.69	
2025-01-10 11:47:10.31	275.38	28.68	
2025-01-10 11:47:10.52	275.45	28.68	
2025-01-10 11:47:10.72	275.51	28.67	
2025-01-10 11:47:10.93	275.58	28.67	
2025-01-10 11:47:11.13	275.65	28.67	
2025-01-10 11:47:11.34	275.72	28.66	
2025-01-10 11:47:11.54	275.78	28.66	
2025-01-10 11:47:11.75	275.85	28.65	
2025-01-10 11:47:11.95	275.92	28.65	
2025-01-10 11:47:12.16	275.99	28.64	
2025-01-10 11:47:12.36	276.05	28.64	
2025-01-10 11:47:12.57	276.12	28.63	
2025-01-10 11:47:12.78	276.19	28.63	
2025-01-10 11:47:12.98	276.25	28.62	
2025-01-10 11:47:13.19	276.32	28.62	
2025-01-10 11:47:13.39	276.39	28.61	
2025-01-10 11:47:13.60	276.45	28.61	
2025-01-10 11:47:13.80	276.52	28.60	
2025-01-10 11:47:14.02	276.59	28.60	
2025-01-10 11:47:14.23	276.66	28.59	
2025-01-10 11:47:14.43	276.72	28.59	
2025-01-10 11:47:14.64	276.79	28.58	
2025-01-10 11:47:14.84	276.86	28.58	
2025-01-10 11:47:15.05	276.93	28.57	
2025-01-10 11:47:15.25	276.99	28.57	
2025-01-10 11:47:15.46	277.06	28.56	
2025-01-10 11:47:15.67	277.13	28.56	
2025-01-10 11:47:15.87	277.19	28.55	
2025-01-10 11:47:16.09	277.26	28.55	
2025-01-10 11:47:16.30	277.33	28.54	
2025-01-10 11:47:16.50	277.40	28.53	
2025-01-10 11:47:16.71	277.46	28.53	
2025-01-10 11:47:16.91	277.53	28.52	
2025-01-10 11:47:17.12	277.60	28.52	
2025-01-10 11:47:17.32	277.66	28.51	
2025-01-10 11:47:17.53	277.73	28.51	
2025-01-10 11:47:17.74	277.80	28.50	
2025-01-10 11:47:17.94	277.86	28.49	
2025-01-10 11:47:18.14	277.93	28.49	
2025-01-10 11:47:18.35	278.00	28.48	
2025-01-10 11:47:18.56	278.06	28.48	
2025-01-10 11:47:18.76	278.13	28.47	
2025-01-10 11:47:18.97	278.20	28.47	
2025-01-10 11:47:19.17	278.26	28.46	
2025-01-10 11:47:19.38	278.33	28.45	
2025-01-10 11:47:19.58	278.39	28.45	
2025-01-10 11:47:19.79	278.46	28.44	
2025-01-10 11:47:19.99	278.52	28.44	
2025-01-10 11:47:20.20	278.59	28.43	
2025-01-10 11:47:20.40	278.66	28.42	
2025-01-10 11:47:20.61	278.72	28.42	
2025-01-10 11:47:20.81	278.79	28.41	
2025-01-10 11:47:21.02	278.86	28.40	
2025-01-10 11:47:21.23	278.92	28.40	
2025-01-10 11:47:21.43	278.99	28.39	
2025-01-10 11:47:21.63	279.05	28.38	
2025-01-10 11:47:21.84	279.12	28.38	
2025-01-10 11:47:22.05	279.19	28.37	
2025-01-10 11:47:22.25	279.25	28.36	
2025-01-10 11:47:22.46	279.32	28.36	
2025-01-10 11:47:22.66	279.38	28.35	
2025-01-10 11:47:22.87	279.45	28.34	
2025-01-10 11:47:23.07	279.51	28.34	
2025-01-10 11:47:23.28	279.58	28.33	
2025-01-10 11:47:23.48	279.64	28.32	
2025-01-10 11:47:23.69	279.71	28.32	
2025-01-10 11:47:23.89	279.78	28.31	
2025-01-10 11:47:24.10	279.84	28.30	
2025-01-10 11:47:24.30	279.91	28.30	
2025-01-10 11:47:24.51	279.97	28.29	
2025-01-10 11:47:24.71	280.04	28.28	
2025-01-10 11:47:24.92	280.10	28.28	
2025-01-10 11:47:25.13	280.17	28.27	
2025-01-10 11:47:25.33	280.24	28.26	
2025-01-10 11:47:25.54	280.30	28.25	
2025-01-10 11:47:25.74	280.37	28.25	
2025-01-10 11:47:25.95	280.43	28.24	
2025-01-10 11:47:26.15	280.50	28.23	
2025-01-10 11:47:26.36	280.56	28.22	
2025-01-10 11:47:26.56	280.63	28.22	
2025-01-10 11:47:26.77	280.69	28.21	
2025-01-10 11:47:26.97	280.76	28.20	
2025-01-10 11:47:27.18	280.82	28.19	
2025-01-10 11:47:27.38	280.89	28.19	
2025-01-10 11:47:27.59	280.95	28.18	
2025-01-10 11:47:27.79	281.02	28.17	
2025-01-10 11:47:28.00	281.08	28.16	
2025-01-10 11:47:28.21	281.15	28.16	
2025-01-10 11:47:28.41	281.21	28.15	
2025-01-10 11:47:28.62	281.28	28.14	
2025-01-10 11:47:28.82	281.34	28.13	
2025-01-10 11:47:29.03	281.41	28.13	
2025-01-10 11:47:29.23	281.47	28.12	
2025-01-10 11:47:29.44	281.54	28.11	
2025-01-10 11:47:29.65	281.61	28.10	
2025-01-10 11:47:29.85	281.67	28.09	
2025-01-10 11:47:30.06	281.73	28.09	
2025-01-10 11:47:30.26	281.80	28.08	
2025-01-10 11:47:30.47	281.86	28.07	
2025-01-10 11:47:30.67	281.93	28.06	
2025-01-10 11:47:30.88	281.99	28.05	
2025-01-10 11:47:31.08	282.06	28.05	
2025-01-10 11:47:31.30	282.12	28.04	
2025-01-10 11:47:31.51	282.19	28.03	
2025-01-10 11:47:31.71	282.25	28.02	
2025-01-10 11:47:31.92	282.32	28.01	
2025-01-10 11:47:32.12	282.38	28.00	
2025-01-10 11:47:32.33	282.45	27.99	
2025-01-10 11:47:32.53	282.51	27.99	
2025-01-10 11:47:32.74	282.58	27.98	
2025-01-10 11:47:32.95	282.64	27.97	
2025-01-10 11:47:33.15	282.70	27.96	
2025-01-10 11:47:33.35	282.77	27.95	
2025-01-10 11:47:33.56	282.83	27.94	
2025-01-10 11:47:33.76	282.90	27.93	
2025-01-10 11:47:33.97	282.96	27.93	
2025-01-10 11:47:34.17	283.02	27.92	
2025-01-10 11:47:34.38	283.09	27.91	
2025-01-10 11:47:34.59	283.15	27.90	
2025-01-10 11:47:34.79	283.22	27.89	
2025-01-10 11:47:35.00	283.28	27.88	
2025-01-10 11:47:35.20	283.34	27.87	
2025-01-10 11:47:35.41	283.41	27.86	
2025-01-10 11:47:35.61	283.47	27.85	
2025-01-10 11:47:35.82	283.54	27.85	
2025-01-10 11:47:36.02	283.60	27.84	
2025-01-10 11:47:36.23	283.66	27.83	
2025-01-10 11:47:36.43	283.73	27.82	
2025-01-10 11:47:36.64	283.79	27.81	
2025-01-10 11:47:36.84	283.85	27.80	
2025-01-10 11:47:37.05	283.92	27.79	
2025-01-10 11:47:37.25	283.98	27.78	
2025-01-10 11:47:37.46	284.05	27.77	
2025-01-10 11:47:37.66	284.11	27.76	
2025-01-10 11:47:37.87	284.17	27.75	
2025-01-10 11:47:38.07	284.23	27.74	
2025-01-10 11:47:38.28	284.30	27.73	
2025-01-10 11:47:38.48	284.36	27.73	
2025-01-10 11:47:38.69	284.42	27.72	
2025-01-10 11:47:38.89	284.49	27.71	
2025-01-10 11:47:39.10	284.55	27.70	
2025-01-10 11:47:39.30	284.61	27.69	
2025-01-10 11:47:39.51	284.68	27.68	
2025-01-10 11:47:39.71	284.74	27.67	
2025-01-10 11:47:39.92	284.80	27.66	
2025-01-10 11:47:40.12	284.86	27.65	
2025-01-10 11:47:40.33	284.93	27.64	
2025-01-10 11:47:40.53	284.99	27.63	
2025-01-10 11:47:40.74	285.05	27.62	
2025-01-10 11:47:40.94	285.12	27.61	
2025-01-10 11:47:41.15	285.18	27.60	
2025-01-10 11:47:41.36	285.24	27.59	
2025-01-10 11:47:41.56	285.31	27.58	
2025-01-10 11:47:41.76	285.37	27.57	
2025-01-10 11:47:41.97	285.43	27.56	
2025-01-10 11:47:42.18	285.49	27.55	
2025-01-10 11:47:42.38	285.56	27.54	
2025-01-10 11:47:42.59	285.62	27.53	
2025-01-10 11:47:42.79	285.68	27.52	
2025-01-10 11:47:43.00	285.74	27.51	
2025-01-10 11:47:43.20	285.80	27.50	
2025-01-10 11:47:43.41	285.87	27.49	
2025-01-10 11:47:43.61	285.93	27.48	
2025-01-10 11:47:43.82	285.99	27.47	
2025-01-10 11:47:44.03	286.06	27.46	
2025-01-10 11:47:44.23	286.12	27.45	
2025-01-10 11:47:44.44	286.18	27.44	
2025-01-10 11:47:44.64	286.24	27.43	
2025-01-10 11:47:44.86	286.31	27.42	
2025-01-10 11:47:45.06	286.37	27.40	
2025-01-10 11:47:45.27	286.43	27.39	
2025-01-10 11:47:45.47	286.49	27.38	
2025-01-10 11:47:45.68	286.56	27.37	
2025-01-10 11:47:45.88	286.62	27.36	
2025-01-10 11:47:46.09	286.68	27.35	
2025-01-10 11:47:46.30	286.74	27.34	
2025-01-10 11:47:46.50	286.80	27.33	
2025-01-10 11:47:46.71	286.87	27.32	
2025-01-10 11:47:46.91	286.93	27.31	
2025-01-10 11:47:47.12	286.99	27.30	
2025-01-10 11:47:47.32	287.05	27.29	
2025-01-10 11:47:47.53	287.11	27.28	
2025-01-10 11:47:47.74	287.17	27.26	
2025-01-10 11:47:47.94	287.23	27.25	
2025-01-10 11:47:48.15	287.30	27.24	
2025-01-10 11:47:48.35	287.36	27.23	
2025-01-10 11:47:48.56	287.42	27.22	
2025-01-10 11:47:48.76	287.48	27.21	
2025-01-10 11:47:48.97	287.54	27.20	
2025-01-10 11:47:49.17	287.60	27.19	
2025-01-10 11:47:49.38	287.66	27.18	
2025-01-10 11:47:49.59	287.73	27.17	
2025-01-10 11:47:49.79	287.79	27.15	
2025-01-10 11:47:50.00	287.85	27.14	
2025-01-10 11:47:50.20	287.91	27.13	
2025-01-10 11:47:50.41	287.97	27.12	
2025-01-10 11:47:50.61	288.03	27.11	
2025-01-10 11:47:50.82	288.09	27.10	
2025-01-10 11:47:51.03	288.15	27.09	
2025-01-10 11:47:51.23	288.21	27.07	
2025-01-10 11:47:51.44	288.28	27.06	
2025-01-10 11:47:51.64	288.34	27.05	
2025-01-10 11:47:51.85	288.40	27.04	
2025-01-10 11:47:52.05	288.46	27.03	
2025-01-10 11:47:52.26	288.52	27.02	
2025-01-10 11:47:52.48	288.58	27.00	
2025-01-10 11:47:52.68	288.64	26.99	
2025-01-10 11:47:52.89	288.70	26.98	
2025-01-10 11:47:53.09	288.76	26.97	
2025-01-10 11:47:53.30	288.82	26.96	
2025-01-10 11:47:53.52	288.89	26.95	
2025-01-10 11:47:53.72	288.95	26.93	
2025-01-10 11:47:53.92	289.01	26.92	
2025-01-10 11:47:54.13	289.07	26.91	
2025-01-10 11:47:54.33	289.13	26.90	
2025-01-10 11:47:54.55	289.19	26.89	
2025-01-10 11:47:54.75	289.25	26.87	
2025-01-10 11:47:54.96	289.31	26.86	
2025-01-10 11:47:55.16	289.37	26.85	
2025-01-10 11:47:55.37	289.43	26.84	
2025-01-10 11:47:55.57	289.49	26.83	
2025-01-10 11:47:55.78	289.55	26.81	
2025-01-10 11:47:55.98	289.61	26.80	
2025-01-10 11:47:56.18	289.67	26.79	
2025-01-10 11:47:56.39	289.73	26.78	
2025-01-10 11:47:56.59	289.79	26.77	
2025-01-10 11:47:56.79	289.84	26.76	
2025-01-10 11:47:57.00	289.91	26.74	
2025-01-10 11:47:57.21	289.97	26.73	
2025-01-10 11:47:57.41	290.02	26.72	
2025-01-10 11:47:57.62	290.08	26.71	
2025-01-10 11:47:57.82	290.14	26.69	
2025-01-10 11:47:58.03	290.20	26.68	
2025-01-10 11:47:58.23	290.26	26.67	
2025-01-10 11:47:58.44	290.32	26.66	
2025-01-10 11:47:58.64	290.38	26.64	
2025-01-10 11:47:58.86	290.44	26.63	
2025-01-10 11:47:59.07	290.50	26.62	
2025-01-10 11:47:59.27	290.56	26.61	
2025-01-10 11:47:59.48	290.62	26.59	
2025-01-10 11:47:59.69	290.68	26.58	
2025-01-10 11:47:59.89	290.74	26.57	
2025-01-10 11:48:00.09	290.80	26.56	
2025-01-10 11:48:00.30	290.86	26.54	
2025-01-10 11:48:00.50	290.91	26.53	
2025-01-10 11:48:00.71	290.97	26.52	
2025-01-10 11:48:00.91	291.03	26.51	
2025-01-10 11:48:01.12	291.09	26.49	
2025-01-10 11:48:01.33	291.15	26.48	
2025-01-10 11:48:01.53	291.21	26.47	
2025-01-10 11:48:01.74	291.27	26.45	
2025-01-10 11:48:01.94	291.32	26.44	
2025-01-10 11:48:02.15	291.38	26.43	
2025-01-10 11:48:02.35	291.44	26.42	
2025-01-10 11:48:02.56	291.50	26.40	
2025-01-10 11:48:02.77	291.56	26.39	
2025-01-10 11:48:02.97	291.62	26.38	
2025-01-10 11:48:03.17	291.67	26.36	
2025-01-10 11:48:03.38	291.73	26.35	
2025-01-10 11:48:03.59	291.79	26.34	
2025-01-10 11:48:03.79	291.85	26.32	
2025-01-10 11:48:04.00	291.91	26.31	
2025-01-10 11:48:04.20	291.96	26.30	
2025-01-10 11:48:04.41	292.02	26.28	
2025-01-10 11:48:04.61	292.08	26.27	
2025-01-10 11:48:04.82	292.14	26.26	
2025-01-10 11:48:05.02	292.20	26.25	
2025-01-10 11:48:05.22	292.25	26.23	
2025-01-10 11:48:05.43	292.31	26.22	
2025-01-10 11:48:05.64	292.37	26.21	
2025-01-10 11:48:05.84	292.43	26.19	
2025-01-10 11:48:06.05	292.48	26.18	
2025-01-10 11:48:06.25	292.54	26.17	
2025-01-10 11:48:06.46	292.60	26.15	
2025-01-10 11:48:06.66	292.66	26.14	
2025-01-10 11:48:06.87	292.71	26.13	
2025-01-10 11:48:07.07	292.77	26.11	
2025-01-10 11:48:07.28	292.83	26.10	
2025-01-10 11:48:07.48	292.88	26.09	
2025-01-10 11:48:07.69	292.94	26.07	
2025-01-10 11:48:07.89	293.00	26.06	
2025-01-10 11:48:08.10	293.06	26.05	
2025-01-10 11:48:08.30	293.11	26.03	
2025-01-10 11:48:08.51	293.17	26.02	
2025-01-10 11:48:08.72	293.23	26.00	
2025-01-10 11:48:08.92	293.28	25.99	
2025-01-10 11:48:09.13	293.34	25.98	
2025-01-10 11:48:09.33	293.40	25.96	
2025-01-10 11:48:09.54	293.45	25.95	
2025-01-10 11:48:09.74	293.51	25.94	
2025-01-10 11:48:09.95	293.57	25.92	
2025-01-10 11:48:10.15	293.62	25.91	
2025-01-10 11:48:10.36	293.68	25.89	
2025-01-10 11:48:10.56	293.74	25.88	
2025-01-10 11:48:10.76	293.79	25.87	
2025-01-10 11:48:10.97	293.85	25.85	
2025-01-10 11:48:11.18	293.91	25.84	
2025-01-10 11:48:11.38	293.96	25.83	
2025-01-10 11:48:11.59	294.02	25.81	
2025-01-10 11:48:11.79	294.07	25.80	
2025-01-10 11:48:12.00	294.13	25.78	
2025-01-10 11:48:12.21	294.19	25.77	
2025-01-10 11:48:12.41	294.24	25.76	
2025-01-10 11:48:12.62	294.30	25.74	
2025-01-10 11:48:12.82	294.35	25.73	
2025-01-10 11:48:13.03	294.41	25.71	
2025-01-10 11:48:13.23	294.47	25.70	
2025-01-10 11:48:13.44	294.52	25.69	
2025-01-10 11:48:13.64	294.58	25.67	
2025-01-10 11:48:13.85	294.63	25.66	
2025-01-10 11:48:14.06	294.69	25.64	
2025-01-10 11:48:14.26	294.74	25.63	
2025-01-10 11:48:14.47	294.80	25.61	
2025-01-10 11:48:14.67	294.86	25.60	
2025-01-10 11:48:14.88	294.91	25.59	
2025-01-10 11:48:15.08	294.97	25.57	
2025-01-10 11:48:15.29	295.02	25.56	
2025-01-10 11:48:15.49	295.08	25.54	
2025-01-10 11:48:15.70	295.13	25.53	
2025-01-10 11:48:15.90	295.19	25.51	
2025-01-10 11:48:16.11	295.24	25.50	
2025-01-10 11:48:16.31	295.30	25.49	
2025-01-10 11:48:16.52	295.35	25.47	
2025-01-10 11:48:16.72	295.41	25.46	
2025-01-10 11:48:16.93	295.46	25.44	
2025-01-10 11:48:17.13	295.52	25.43	
2025-01-10 11:48:17.34	295.57	25.41	
2025-01-10 11:48:17.54	295.63	25.40	
2025-01-10 11:48:17.75	295.68	25.38	
2025-01-10 11:48:17.95	295.74	25.37	
2025-01-10 11:48:18.16	295.79	25.36	
2025-01-10 11:48:18.37	295.85	25.34	
2025-01-10 11:48:18.57	295.90	25.33	
2025-01-10 11:48:18.78	295.96	25.31	
2025-01-10 11:48:18.98	296.01	25.30	
2025-01-10 11:48:19.19	296.06	25.28	
2025-01-10 11:48:19.39	296.12	25.27	
2025-01-10 11:48:19.60	296.17	25.25	
2025-01-10 11:48:19.80	296.23	25.24	
2025-01-10 11:48:20.01	296.28	25.22	
2025-01-10 11:48:20.21	296.33	25.21	
2025-01-10 11:48:20.42	296.39	25.19	
2025-01-10 11:48:20.62	296.44	25.18	
2025-01-10 11:48:20.83	296.50	25.16	
2025-01-10 11:48:21.03	296.55	25.15	
2025-01-10 11:48:21.24	296.60	25.13	
2025-01-10 11:48:21.44	296.66	25.12	
2025-01-10 11:48:21.65	296.71	25.11	
2025-01-10 11:48:21.85	296.76	25.09	
2025-01-10 11:48:22.06	296.82	25.08	
2025-01-10 11:48:22.26	296.87	25.06	
2025-01-10 11:48:22.47	296.93	25.05	
2025-01-10 11:48:22.67	296.98	25.03	
2025-01-10 11:48:22.88	297.03	25.02	
2025-01-10 11:48:23.08	297.09	25.00	
2025-01-10 11:48:23.30	297.14	24.99	
2025-01-10 11:48:23.51	297.20	24.97	
2025-01-10 11:48:23.71	297.25	24.95	
2025-01-10 11:48:23.92	297.30	24.94	
2025-01-10 11:48:24.12	297.36	24.92	
2025-01-10 11:48:24.33	297.41	24.91	
2025-01-10 11:48:24.53	297.46	24.89	
2025-01-10 11:48:24.74	297.52	24.88	
2025-01-10 11:48:24.94	297.57	24.86	
2025-01-10 11:48:25.15	297.62	24.85	
2025-01-10 11:48:25.35	297.67	24.83	
2025-01-10 11:48:25.56	297.73	24.82	
2025-01-10 11:48:25.76	297.78	24.80	
2025-01-10 11:48:25.97	297.83	24.79	
2025-01-10 11:48:26.17	297.88	24.77	
2025-01-10 11:48:26.38	297.94	24.76	
2025-01-10 11:48:26.59	297.99	24.74	
2025-01-10 11:48:26.80	298.05	24.73	
2025-01-10 11:48:27.00	298.10	24.71	
2025-01-10 11:48:27.21	298.15	24.70	
2025-01-10 11:48:27.41	298.20	24.68	
2025-01-10 11:48:27.62	298.25	24.67	
2025-01-10 11:48:27.82	298.31	24.65	
2025-01-10 11:48:28.03	298.36	24.63	
2025-01-10 11:48:28.23	298.41	24.62	
2025-01-10 11:48:28.44	298.46	24.60	
2025-01-10 11:48:28.64	298.51	24.59	
2025-01-10 11:48:28.85	298.57	24.57	
2025-01-10 11:48:29.05	298.62	24.56	
2025-01-10 11:48:29.26	298.67	24.54	
2025-01-10 11:48:29.46	298.72	24.53	
2025-01-10 11:48:29.67	298.77	24.51	
2025-01-10 11:48:29.87	298.82	24.50	
2025-01-10 11:48:30.08	298.88	24.48	
2025-01-10 11:48:30.28	298.93	24.47	
2025-01-10 11:48:30.49	298.98	24.45	
2025-01-10 11:48:30.69	299.03	24.43	
2025-01-10 11:48:30.90	299.08	24.42	
2025-01-10 11:48:31.10	299.13	24.40	
2025-01-10 11:48:31.31	299.19	24.39	
2025-01-10 11:48:31.51	299.24	24.37	
2025-01-10 11:48:31.72	299.29	24.36	
2025-01-10 11:48:31.92	299.34	24.34	
2025-01-10 11:48:32.12	299.39	24.33	
2025-01-10 11:48:32.33	299.44	24.31	
2025-01-10 11:48:32.54	299.49	24.29	
2025-01-10 11:48:32.74	299.54	24.28	
2025-01-10 11:48:32.95	299.60	24.26	
2025-01-10 11:48:33.15	299.65	24.25	
2025-01-10 11:48:33.36	299.70	24.23	
2025-01-10 11:48:33.56	299.75	24.21	
2025-01-10 11:48:33.77	299.80	24.20	
2025-01-10 11:48:33.97	299.85	24.18	
2025-01-10 11:48:34.18	299.90	24.17	
2025-01-10 11:48:34.39	299.95	24.15	
2025-01-10 11:48:34.59	300.00	24.14	
2025-01-10 11:48:34.80	300.05	24.12	
2025-01-10 11:48:35.00	300.10	24.10	
2025-01-10 11:48:35.21	300.15	24.09	
2025-01-10 11:48:35.41	300.20	24.07	
2025-01-10 11:48:35.62	300.25	24.06	
2025-01-10 11:48:35.82	300.30	24.04	
2025-01-10 11:48:36.03	300.36	24.02	
2025-01-10 11:48:36.23	300.40	24.01	
2025-01-10 11:48:36.44	300.46	23.99	
2025-01-10 11:48:36.64	300.50	23.98	
2025-01-10 11:48:36.85	300.56	23.96	
2025-01-10 11:48:37.06	300.61	23.94	
2025-01-10 11:48:37.27	300.66	23.93	
2025-01-10 11:48:37.48	300.71	23.91	
2025-01-10 11:48:37.69	300.76	23.89	
2025-01-10 11:48:37.89	300.81	23.88	
2025-01-10 11:48:38.10	300.86	23.86	
2025-01-10 11:48:38.31	300.91	23.85	
2025-01-10 11:48:38.52	300.96	23.83	
2025-01-10 11:48:38.73	301.01	23.81	
2025-01-10 11:48:38.93	301.06	23.80	
2025-01-10 11:48:39.14	301.11	23.78	
2025-01-10 11:48:39.35	301.16	23.76	
2025-01-10 11:48:39.56	301.21	23.75	
2025-01-10 11:48:39.77	301.26	23.73	
2025-01-10 11:48:39.97	301.31	23.72	
2025-01-10 11:48:40.18	301.36	23.70	
2025-01-10 11:48:40.38	301.41	23.68	
2025-01-10 11:48:40.59	301.46	23.67	
2025-01-10 11:48:40.79	301.51	23.65	
2025-01-10 11:48:41.00	301.56	23.63	
2025-01-10 11:48:41.21	301.61	23.62	
2025-01-10 11:48:41.41	301.65	23.60	
2025-01-10 11:48:41.61	301.70	23.59	
2025-01-10 11:48:41.82	301.75	23.57	
2025-01-10 11:48:42.03	301.80	23.55	
2025-01-10 11:48:42.23	301.85	23.54	
2025-01-10 11:48:42.43	301.90	23.52	
2025-01-10 11:48:42.64	301.95	23.50	
2025-01-10 11:48:42.84	301.99	23.49	
2025-01-10 11:48:43.05	302.04	23.47	
2025-01-10 11:48:43.25	302.09	23.46	
2025-01-10 11:48:43.47	302.14	23.44	
2025-01-10 11:48:43.67	302.19	23.42	
2025-01-10 11:48:43.87	302.24	23.41	
2025-01-10 11:48:44.08	302.29	23.39	
2025-01-10 11:48:44.29	302.34	23.37	
2025-01-10 11:48:44.49	302.38	23.36	
2025-01-10 11:48:44.70	302.43	23.34	
2025-01-10 11:48:44.90	302.48	23.32	
2025-01-10 11:48:45.11	302.53	23.31	
2025-01-10 11:48:45.31	302.58	23.29	
2025-01-10 11:48:45.52	302.62	23.28	
2025-01-10 11:48:45.72	302.67	23.26	
2025-01-10 11:48:45.93	302.72	23.24	
2025-01-10 11:48:46.13	302.77	23.23	
2025-01-10 11:48:46.34	302.82	23.21	
2025-01-10 11:48:46.54	302.86	23.19	
2025-01-10 11:48:46.74	302.91	23.18	
2025-01-10 11:48:46.95	302.96	23.16	
2025-01-10 11:48:47.16	303.01	23.14	
2025-01-10 11:48:47.36	303.05	23.13	
2025-01-10 11:48:47.57	303.10	23.11	
2025-01-10 11:48:47.77	303.15	23.09	
2025-01-10 11:48:47.98	303.20	23.08	
2025-01-10 11:48:48.19	303.24	23.06	
2025-01-10 11:48:48.39	303.29	23.04	
2025-01-10 11:48:48.60	303.34	23.03	
2025-01-10 11:48:48.80	303.38	23.01	
2025-01-10 11:48:49.02	303.43	22.99	
2025-01-10 11:48:49.23	303.48	22.98	
2025-01-10 11:48:49.43	303.53	22.96	
2025-01-10 11:48:49.64	303.58	22.94	
2025-01-10 11:48:49.84	303.62	22.93	
2025-01-10 11:48:50.05	303.67	22.91	
2025-01-10 11:48:50.25	303.72	22.89	
2025-01-10 11:48:50.46	303.76	22.88	
2025-01-10 11:48:50.66	303.81	22.86	
2025-01-10 11:48:50.87	303.86	22.84	
2025-01-10 11:48:51.07	303.90	22.83	
2025-01-10 11:48:51.28	303.95	22.81	
2025-01-10 11:48:51.48	304.00	22.79	
2025-01-10 11:48:51.69	304.04	22.78	
2025-01-10 11:48:51.89	304.09	22.76	
2025-01-10 11:48:52.10	304.14	22.74	
2025-01-10 11:48:52.30	304.18	22.73	
2025-01-10 11:48:52.51	304.23	22.71	
2025-01-10 11:48:52.71	304.27	22.69	
2025-01-10 11:48:52.92	304.32	22.68	
2025-01-10 11:48:53.12	304.37	22.66	
2025-01-10 11:48:53.32	304.41	22.64	
2025-01-10 11:48:53.53	304.46	22.63	
2025-01-10 11:48:53.73	304.50	22.61	
2025-01-10 11:48:53.94	304.55	22.59	
2025-01-10 11:48:54.15	304.60	22.58	
2025-01-10 11:48:54.35	304.64	22.56	
2025-01-10 11:48:54.56	304.69	22.54	
2025-01-10 11:48:54.76	304.73	22.53	
2025-01-10 11:48:54.97	304.78	22.51	
2025-01-10 11:48:55.17	304.82	22.49	
2025-01-10 11:48:55.37	304.87	22.48	
2025-01-10 11:48:55.58	304.91	22.46	
2025-01-10 11:48:55.79	304.96	22.44	
2025-01-10 11:48:55.99	305.01	22.42	
2025-01-10 11:48:56.20	305.05	22.41	
2025-01-10 11:48:56.42	305.10	22.39	
2025-01-10 11:48:56.62	305.14	22.37	
2025-01-10 11:48:56.82	305.19	22.36	
2025-01-10 11:48:57.03	305.24	22.34	
2025-01-10 11:48:57.24	305.28	22.32	
2025-01-10 11:48:57.44	305.33	22.31	
2025-01-10 11:48:57.65	305.37	22.29	
2025-01-10 11:48:57.85	305.42	22.27	
2025-01-10 11:48:58.05	305.46	22.26	
2025-01-10 11:48:58.26	305.50	22.24	
2025-01-10 11:48:58.46	305.55	22.22	
2025-01-10 11:48:58.67	305.59	22.20	
2025-01-10 11:48:58.87	305.64	22.19	
2025-01-10 11:48:59.08	305.68	22.17	
2025-01-10 11:48:59.29	305.73	22.15	
2025-01-10 11:48:59.49	305.77	22.14	
2025-01-10 11:48:59.70	305.82	22.12	
2025-01-10 11:48:59.90	305.86	22.10	
2025-01-10 11:49:00.11	305.91	22.08	
2025-01-10 11:49:00.31	305.95	22.07	
2025-01-10 11:49:00.52	306.00	22.05	
2025-01-10 11:49:00.72	306.04	22.03	
2025-01-10 11:49:00.93	306.08	22.02	
2025-01-10 11:49:01.13	306.13	22.00	
2025-01-10 11:49:01.34	306.17	21.98	
2025-01-10 11:49:01.54	306.22	21.97	
2025-01-10 11:49:01.75	306.26	21.95	
2025-01-10 11:49:01.95	306.30	21.93	
2025-01-10 11:49:02.16	306.35	21.91	
2025-01-10 11:49:02.36	306.39	21.90	
2025-01-10 11:49:02.57	306.44	21.88	
2025-01-10 11:49:02.77	306.48	21.86	
2025-01-10 11:49:02.98	306.52	21.85	
2025-01-10 11:49:03.18	306.57	21.83	
2025-01-10 11:49:03.39	306.61	21.81	
2025-01-10 11:49:03.59	306.65	21.80	
2025-01-10 11:49:03.80	306.70	21.78	
2025-01-10 11:49:04.00	306.74	21.76	
2025-01-10 11:49:04.21	306.79	21.74	
2025-01-10 11:49:04.42	306.83	21.73	
2025-01-10 11:49:04.62	306.87	21.71	
2025-01-10 11:49:04.83	306.92	21.69	
2025-01-10 11:49:05.05	306.96	21.67	
2025-01-10 11:49:05.25	307.01	21.66	
2025-01-10 11:49:05.46	307.05	21.64	
2025-01-10 11:49:05.66	307.09	21.62	
2025-01-10 11:49:05.87	307.14	21.61	
2025-01-10 11:49:06.07	307.18	21.59	
2025-01-10 11:49:06.28	307.22	21.57	
2025-01-10 11:49:06.48	307.26	21.55	
2025-01-10 11:49:06.69	307.31	21.54	
2025-01-10 11:49:06.90	307.35	21.52	
2025-01-10 11:49:07.10	307.39	21.50	
2025-01-10 11:49:07.30	307.44	21.49	
2025-01-10 11:49:07.51	307.48	21.47	
2025-01-10 11:49:07.71	307.52	21.45	
2025-01-10 11:49:07.92	307.57	21.43	
2025-01-10 11:49:08.12	307.61	21.42	
2025-01-10 11:49:08.32	307.65	21.40	
2025-01-10 11:49:08.53	307.69	21.38	
2025-01-10 11:49:08.74	307.74	21.37	
2025-01-10 11:49:08.94	307.78	21.35	
2025-01-10 11:49:09.15	307.82	21.33	
2025-01-10 11:49:09.35	307.86	21.31	
2025-01-10 11:49:09.56	307.90	21.30	
2025-01-10 11:49:09.77	307.95	21.28	
2025-01-10 11:49:09.97	307.99	21.26	
2025-01-10 11:49:10.17	308.03	21.25	
2025-01-10 11:49:10.38	308.07	21.23	
2025-01-10 11:49:10.59	308.12	21.21	
2025-01-10 11:49:10.79	308.16	21.19	
2025-01-10 11:49:11.00	308.20	21.18	
2025-01-10 11:49:11.20	308.24	21.16	
2025-01-10 11:49:11.41	308.28	21.14	
2025-01-10 11:49:11.61	308.33	21.13	
2025-01-10 11:49:11.82	308.37	21.11	
2025-01-10 11:49:12.02	308.41	21.09	
2025-01-10 11:49:12.23	308.45	21.07	
2025-01-10 11:49:12.43	308.49	21.06	
2025-01-10 11:49:12.64	308.53	21.04	
2025-01-10 11:49:12.84	308.58	21.02	
2025-01-10 11:49:13.05	308.62	21.00	
2025-01-10 11:49:13.26	308.66	20.99	
2025-01-10 11:49:13.46	308.70	20.97	
2025-01-10 11:49:13.67	308.74	20.95	
2025-01-10 11:49:13.87	308.78	20.93	
2025-01-10 11:49:14.08	308.83	20.92	
2025-01-10 11:49:14.28	308.87	20.90	
2025-01-10 11:49:14.49	308.91	20.88	
2025-01-10 11:49:14.69	308.95	20.87	
2025-01-10 11:49:14.90	308.99	20.85	
2025-01-10 11:49:15.10	309.03	20.83	
2025-01-10 11:49:15.31	309.07	20.81	
2025-01-10 11:49:15.51	309.11	20.80	
2025-01-10 11:49:15.72	309.15	20.78	
2025-01-10 11:49:15.93	309.20	20.76	
2025-01-10 11:49:16.13	309.24	20.74	
2025-01-10 11:49:16.33	309.28	20.73	
2025-01-10 11:49:16.54	309.32	20.71	
2025-01-10 11:49:16.74	309.36	20.69	
2025-01-10 11:49:16.95	309.40	20.68	
2025-01-10 11:49:17.15	309.44	20.66	
2025-01-10 11:49:17.36	309.48	20.64	
2025-01-10 11:49:17.57	309.52	20.62	
2025-01-10 11:49:17.77	309.56	20.61	
2025-01-10 11:49:17.98	309.60	20.59	
2025-01-10 11:49:18.18	309.64	20.57	
2025-01-10 11:49:18.39	309.68	20.55	
2025-01-10 11:49:18.59	309.72	20.54	
2025-01-10 11:49:18.81	309.77	20.52	
2025-01-10 11:49:19.01	309.80	20.50	
2025-01-10 11:49:19.22	309.85	20.48	
2025-01-10 11:49:19.42	309.88	20.47	
2025-01-10 11:49:19.63	309.93	20.45	
2025-01-10 11:49:19.83	309.96	20.43	
2025-01-10 11:49:20.04	310.01	20.41	
2025-01-10 11:49:20.25	310.05	20.40	
2025-01-10 11:49:20.45	310.09	20.38	
2025-01-10 11:49:20.66	310.13	20.36	
2025-01-10 11:49:20.86	310.17	20.35	
2025-01-10 11:49:21.06	310.20	20.33	
2025-01-10 11:49:21.27	310.24	20.31	
2025-01-10 11:49:21.47	310.28	20.29	
2025-01-10 11:49:21.68	310.32	20.28	
2025-01-10 11:49:21.88	310.36	20.26	
2025-01-10 11:49:22.09	310.40	20.24	
2025-01-10 11:49:22.30	310.44	20.22	
2025-01-10 11:49:22.50	310.48	20.21	
2025-01-10 11:49:22.71	310.52	20.19	
2025-01-10 11:49:22.91	310.56	20.17	
2025-01-10 11:49:23.12	310.60	20.15	
2025-01-10 11:49:23.32	310.64	20.14	
2025-01-10 11:49:23.53	310.68	20.12	
2025-01-10 11:49:23.73	310.72	20.10	
2025-01-10 11:49:23.94	310.76	20.08	
2025-01-10 11:49:24.14	310.80	20.07	
2025-01-10 11:49:24.35	310.84	20.05	
2025-01-10 11:49:24.56	310.88	20.03	
2025-01-10 11:49:24.76	310.91	20.02	
2025-01-10 11:49:24.96	310.95	20.00	
2025-01-10 11:49:25.17	310.99	19.98	
2025-01-10 11:49:25.37	311.03	19.96	
2025-01-10 11:49:25.58	311.07	19.95	
2025-01-10 11:49:25.79	311.11	19.93	
2025-01-10 11:49:25.99	311.15	19.91	
2025-01-10 11:49:26.20	311.19	19.89	
2025-01-10 11:49:26.40	311.22	19.88	
2025-01-10 11:49:26.61	311.26	19.86	
2025-01-10 11:49:26.81	311.30	19.84	
2025-01-10 11:49:27.02	311.34	19.82	
2025-01-10 11:49:27.22	311.38	19.81	
2025-01-10 11:49:27.43	311.42	19.79	
2025-01-10 11:49:27.63	311.46	19.77	
2025-01-10 11:49:27.84	311.49	19.75	
2025-01-10 11:49:28.05	311.53	19.74	
2025-01-10 11:49:28.25	311.57	19.72	
2025-01-10 11:49:28.46	311.61	19.70	
2025-01-10 11:49:28.66	311.65	19.69	
2025-01-10 11:49:28.87	311.69	19.67	
2025-01-10 11:49:29.07	311.72	19.65	
2025-01-10 11:49:29.28	311.76	19.63	
2025-01-10 11:49:29.48	311.80	19.62	
2025-01-10 11:49:29.69	311.84	19.60	
2025-01-10 11:49:29.90	311.88	19.58	
2025-01-10 11:49:30.10	311.91	19.56	
2025-01-10 11:49:30.31	311.95	19.55	
2025-01-10 11:49:30.51	311.99	19.53	
2025-01-10 11:49:30.72	312.03	19.51	
2025-01-10 11:49:30.93	312.07	19.49	
2025-01-10 11:49:31.13	312.10	19.48	
2025-01-10 11:49:31.34	312.14	19.46	
2025-01-10 11:49:31.54	312.18	19.44	
2025-01-10 11:49:31.74	312.22	19.42	
2025-01-10 11:49:31.95	312.25	19.41	
2025-01-10 11:49:32.16	312.29	19.39	
2025-01-10 11:49:32.36	312.33	19.37	
2025-01-10 11:49:32.57	312.37	19.35	
2025-01-10 11:49:32.77	312.40	19.34	
2025-01-10 11:49:32.98	312.44	19.32	
2025-01-10 11:49:33.19	312.48	19.30	
2025-01-10 11:49:33.39	312.52	19.28	
2025-01-10 11:49:33.60	312.55	19.27	
2025-01-10 11:49:33.80	312.59	19.25	
2025-01-10 11:49:34.01	312.63	19.23	
2025-01-10 11:49:34.21	312.66	19.22	
2025-01-10 11:49:34.42	312.70	19.20	
2025-01-10 11:49:34.63	312.74	19.18	
2025-01-10 11:49:34.83	312.78	19.16	
2025-01-10 11:49:35.03	312.81	19.15	
2025-01-10 11:49:35.24	312.85	19.13	
2025-01-10 11:49:35.45	312.89	19.11	
2025-01-10 11:49:35.65	312.92	19.09	
2025-01-10 11:49:35.87	312.96	19.07	
2025-01-10 11:49:36.08	313.00	19.06	
2025-01-10 11:49:36.29	313.04	19.04	
2025-01-10 11:49:36.49	313.07	19.02	
2025-01-10 11:49:36.70	313.11	19.00	
2025-01-10 11:49:36.90	313.15	18.99	
2025-01-10 11:49:37.11	313.18	18.97	
2025-01-10 11:49:37.31	313.22	18.95	
2025-01-10 11:49:37.52	313.26	18.94	
2025-01-10 11:49:37.73	313.29	18.92	
2025-01-10 11:49:37.93	313.33	18.90	
2025-01-10 11:49:38.13	313.36	18.88	
2025-01-10 11:49:38.34	313.40	18.87	
2025-01-10 11:49:38.55	313.44	18.85	
2025-01-10 11:49:38.75	313.47	18.83	
2025-01-10 11:49:38.96	313.51	18.81	
2025-01-10 11:49:39.16	313.55	18.80	
2025-01-10 11:49:39.37	313.58	18.78	
2025-01-10 11:49:39.57	313.62	18.76	
2025-01-10 11:49:39.78	313.66	18.74	
2025-01-10 11:49:39.98	313.69	18.73	
2025-01-10 11:49:40.19	313.73	18.71	
2025-01-10 11:49:40.39	313.76	18.69	
2025-01-10 11:49:40.60	313.80	18.67	
2025-01-10 11:49:40.80	313.83	18.66	
2025-01-10 11:49:41.01	313.87	18.64	
2025-01-10 11:49:41.21	313.90	18.62	
2025-01-10 11:49:41.42	313.94	18.61	
2025-01-10 11:49:41.62	313.98	18.59	
2025-01-10 11:49:41.83	314.01	18.57	
2025-01-10 11:49:42.03	314.05	18.55	
2025-01-10 11:49:42.24	314.08	18.54	
2025-01-10 11:49:42.44	314.12	18.52	
