passes_logs/2025/01/10/SPB_Silybum_02/SPB_Silybum_02__20250110_205209_TERRA_rec.log

#Pass ID: 20250110_205209_TERRA
#Satellite: TERRA
#Configuration: TERRA
#Start time: 2025-01-10 20:52:08

#Version: 2.0.20230423
#Station: SPB_Silybum_02
#Location: 30.233357 lon 59.946436 lat
#TLE: 1 25994U 99068A   25009.84464495  .00000861  00000+0  18726-3 0  9992
#TLE: 2 25994  98.0226  73.0387 0003560  82.8900 338.1382 14.60385144333325

#Time	Az	El	Level	Level2	SNR	BER	Gain	Gain2
2025-01-10 20:52:10.81	242.20	4.07	
2025-01-10 20:52:11.01	242.22	4.08	
2025-01-10 20:52:11.22	242.25	4.09	
2025-01-10 20:52:11.42	242.28	4.10	
2025-01-10 20:52:11.63	242.31	4.10	
2025-01-10 20:52:11.83	242.33	4.11	
2025-01-10 20:52:12.04	242.36	4.12	
2025-01-10 20:52:12.24	242.39	4.13	
2025-01-10 20:52:12.45	242.42	4.14	
2025-01-10 20:52:12.65	242.44	4.15	
2025-01-10 20:52:12.86	242.47	4.16	
2025-01-10 20:52:13.06	242.50	4.17	
2025-01-10 20:52:13.27	242.53	4.17	
2025-01-10 20:52:13.47	242.55	4.18	
2025-01-10 20:52:13.68	242.58	4.19	
2025-01-10 20:52:13.88	242.61	4.20	
2025-01-10 20:52:14.09	242.64	4.21	
2025-01-10 20:52:14.29	242.66	4.22	
2025-01-10 20:52:14.50	242.69	4.23	
2025-01-10 20:52:14.70	242.72	4.24	
2025-01-10 20:52:14.91	242.75	4.24	
2025-01-10 20:52:15.11	242.77	4.25	
2025-01-10 20:52:15.32	242.80	4.26	
2025-01-10 20:52:15.52	242.83	4.27	
2025-01-10 20:52:15.73	242.86	4.28	
2025-01-10 20:52:15.93	242.88	4.29	
2025-01-10 20:52:16.13	242.91	4.30	
2025-01-10 20:52:16.34	242.94	4.31	
2025-01-10 20:52:16.54	242.97	4.31	
2025-01-10 20:52:16.75	242.99	4.32	
2025-01-10 20:52:16.96	243.02	4.33	
2025-01-10 20:52:17.16	243.05	4.34	
2025-01-10 20:52:17.37	243.08	4.35	
2025-01-10 20:52:17.57	243.10	4.36	
2025-01-10 20:52:17.77	243.13	4.37	
2025-01-10 20:52:17.98	243.16	4.38	
2025-01-10 20:52:18.18	243.19	4.38	
2025-01-10 20:52:18.39	243.22	4.39	
2025-01-10 20:52:18.59	243.24	4.40	
2025-01-10 20:52:18.80	243.27	4.41	
2025-01-10 20:52:19.00	243.30	4.42	
2025-01-10 20:52:19.21	243.33	4.43	
2025-01-10 20:52:19.41	243.35	4.44	
2025-01-10 20:52:19.62	243.38	4.45	
2025-01-10 20:52:19.82	243.41	4.45	
2025-01-10 20:52:20.04	243.44	4.46	
2025-01-10 20:52:20.25	243.47	4.47	
2025-01-10 20:52:20.45	243.50	4.48	
2025-01-10 20:52:20.66	243.53	4.49	
2025-01-10 20:52:20.86	243.55	4.50	
2025-01-10 20:52:21.08	243.58	4.51	
2025-01-10 20:52:21.29	243.61	4.52	
2025-01-10 20:52:21.49	243.64	4.53	
2025-01-10 20:52:21.70	243.67	4.53	
2025-01-10 20:52:21.90	243.70	4.54	
2025-01-10 20:52:22.11	243.72	4.55	
2025-01-10 20:52:22.31	243.75	4.56	
2025-01-10 20:52:22.52	243.78	4.57	
2025-01-10 20:52:22.72	243.81	4.58	
2025-01-10 20:52:22.93	243.84	4.59	
2025-01-10 20:52:23.13	243.87	4.59	
2025-01-10 20:52:23.34	243.89	4.60	
2025-01-10 20:52:23.55	243.92	4.61	
2025-01-10 20:52:23.75	243.95	4.62	
2025-01-10 20:52:23.96	243.98	4.63	
2025-01-10 20:52:24.16	244.01	4.64	
2025-01-10 20:52:24.37	244.04	4.65	
2025-01-10 20:52:24.57	244.06	4.66	
2025-01-10 20:52:24.78	244.09	4.66	
2025-01-10 20:52:24.98	244.12	4.67	
2025-01-10 20:52:25.19	244.15	4.68	
2025-01-10 20:52:25.41	244.18	4.69	
2025-01-10 20:52:25.61	244.21	4.70	
2025-01-10 20:52:25.82	244.24	4.71	
2025-01-10 20:52:26.02	244.27	4.72	
2025-01-10 20:52:26.23	244.29	4.73	
2025-01-10 20:52:26.43	244.32	4.73	
2025-01-10 20:52:26.64	244.35	4.74	
2025-01-10 20:52:26.84	244.38	4.75	
2025-01-10 20:52:27.05	244.41	4.76	
2025-01-10 20:52:27.25	244.44	4.77	
2025-01-10 20:52:27.45	244.46	4.78	
2025-01-10 20:52:27.66	244.49	4.79	
2025-01-10 20:52:27.87	244.52	4.80	
2025-01-10 20:52:28.07	244.55	4.80	
2025-01-10 20:52:28.28	244.58	4.81	
2025-01-10 20:52:28.48	244.61	4.82	
2025-01-10 20:52:28.69	244.64	4.83	
2025-01-10 20:52:28.89	244.67	4.84	
2025-01-10 20:52:29.10	244.70	4.85	
2025-01-10 20:52:29.30	244.72	4.86	
2025-01-10 20:52:29.51	244.75	4.86	
2025-01-10 20:52:29.71	244.78	4.87	
2025-01-10 20:52:29.92	244.81	4.88	
2025-01-10 20:52:30.12	244.84	4.89	
2025-01-10 20:52:30.33	244.87	4.90	
2025-01-10 20:52:30.54	244.90	4.91	
2025-01-10 20:52:30.74	244.93	4.92	
2025-01-10 20:52:30.94	244.95	4.92	
2025-01-10 20:52:31.15	244.98	4.93	
2025-01-10 20:52:31.36	245.01	4.94	
2025-01-10 20:52:31.56	245.04	4.95	
2025-01-10 20:52:31.77	245.07	4.96	
2025-01-10 20:52:31.97	245.10	4.97	
2025-01-10 20:52:32.17	245.13	4.98	
2025-01-10 20:52:32.38	245.16	4.98	
2025-01-10 20:52:32.58	245.19	4.99	
2025-01-10 20:52:32.79	245.22	5.00	
2025-01-10 20:52:33.00	245.25	5.01	
2025-01-10 20:52:33.20	245.28	5.02	
2025-01-10 20:52:33.41	245.30	5.03	
2025-01-10 20:52:33.61	245.33	5.04	
2025-01-10 20:52:33.81	245.36	5.04	
2025-01-10 20:52:34.02	245.39	5.05	
2025-01-10 20:52:34.23	245.42	5.06	
2025-01-10 20:52:34.43	245.45	5.07	
2025-01-10 20:52:34.64	245.48	5.08	
2025-01-10 20:52:34.84	245.51	5.09	
2025-01-10 20:52:35.05	245.54	5.10	
2025-01-10 20:52:35.25	245.57	5.10	
2025-01-10 20:52:35.46	245.60	5.11	
2025-01-10 20:52:35.66	245.63	5.12	
2025-01-10 20:52:35.87	245.66	5.13	
2025-01-10 20:52:36.07	245.68	5.14	
2025-01-10 20:52:36.28	245.71	5.15	
2025-01-10 20:52:36.48	245.74	5.16	
2025-01-10 20:52:36.69	245.77	5.16	
2025-01-10 20:52:36.89	245.80	5.17	
2025-01-10 20:52:37.10	245.83	5.18	
2025-01-10 20:52:37.30	245.86	5.19	
2025-01-10 20:52:37.51	245.89	5.20	
2025-01-10 20:52:37.71	245.92	5.21	
2025-01-10 20:52:37.92	245.95	5.22	
2025-01-10 20:52:38.12	245.98	5.22	
2025-01-10 20:52:38.33	246.01	5.23	
2025-01-10 20:52:38.53	246.04	5.24	
2025-01-10 20:52:38.74	246.07	5.25	
2025-01-10 20:52:38.94	246.10	5.26	
2025-01-10 20:52:39.15	246.13	5.27	
2025-01-10 20:52:39.35	246.16	5.27	
2025-01-10 20:52:39.56	246.19	5.28	
2025-01-10 20:52:39.76	246.22	5.29	
2025-01-10 20:52:39.97	246.25	5.30	
2025-01-10 20:52:40.17	246.28	5.31	
2025-01-10 20:52:40.38	246.31	5.32	
2025-01-10 20:52:40.58	246.34	5.33	
2025-01-10 20:52:40.79	246.37	5.33	
2025-01-10 20:52:41.00	246.40	5.34	
2025-01-10 20:52:41.21	246.43	5.35	
2025-01-10 20:52:41.41	246.46	5.36	
2025-01-10 20:52:41.62	246.49	5.37	
2025-01-10 20:52:41.82	246.52	5.38	
2025-01-10 20:52:42.03	246.55	5.39	
2025-01-10 20:52:42.24	246.58	5.39	
2025-01-10 20:52:42.44	246.61	5.40	
2025-01-10 20:52:42.64	246.64	5.41	
2025-01-10 20:52:42.85	246.67	5.42	
2025-01-10 20:52:43.06	246.70	5.43	
2025-01-10 20:52:43.26	246.73	5.44	
2025-01-10 20:52:43.46	246.76	5.44	
2025-01-10 20:52:43.67	246.79	5.45	
2025-01-10 20:52:43.87	246.82	5.46	
2025-01-10 20:52:44.08	246.85	5.47	
2025-01-10 20:52:44.29	246.88	5.48	
2025-01-10 20:52:44.49	246.91	5.49	
2025-01-10 20:52:44.69	246.94	5.49	
2025-01-10 20:52:44.90	246.97	5.50	
2025-01-10 20:52:45.10	247.00	5.51	
2025-01-10 20:52:45.31	247.03	5.52	
2025-01-10 20:52:45.52	247.06	5.53	
2025-01-10 20:52:45.72	247.09	5.54	
2025-01-10 20:52:45.93	247.12	5.55	
2025-01-10 20:52:46.13	247.15	5.55	
2025-01-10 20:52:46.34	247.18	5.56	
2025-01-10 20:52:46.54	247.21	5.57	
2025-01-10 20:52:46.76	247.24	5.58	
2025-01-10 20:52:46.97	247.27	5.59	
2025-01-10 20:52:47.17	247.30	5.60	
2025-01-10 20:52:47.38	247.33	5.60	
2025-01-10 20:52:47.58	247.36	5.61	
2025-01-10 20:52:47.78	247.39	5.62	
2025-01-10 20:52:47.99	247.42	5.63	
2025-01-10 20:52:48.19	247.45	5.64	
2025-01-10 20:52:48.40	247.49	5.65	
2025-01-10 20:52:48.61	247.52	5.65	
2025-01-10 20:52:48.81	247.55	5.66	
2025-01-10 20:52:49.01	247.58	5.67	
2025-01-10 20:52:49.22	247.61	5.68	
2025-01-10 20:52:49.43	247.64	5.69	
2025-01-10 20:52:49.63	247.67	5.70	
2025-01-10 20:52:49.83	247.70	5.70	
2025-01-10 20:52:50.04	247.73	5.71	
2025-01-10 20:52:50.24	247.76	5.72	
2025-01-10 20:52:50.45	247.79	5.73	
2025-01-10 20:52:50.65	247.82	5.74	
2025-01-10 20:52:50.86	247.85	5.75	
2025-01-10 20:52:51.06	247.88	5.75	
2025-01-10 20:52:51.27	247.91	5.76	
2025-01-10 20:52:51.48	247.95	5.77	
2025-01-10 20:52:51.68	247.98	5.78	
2025-01-10 20:52:51.89	248.01	5.79	
2025-01-10 20:52:52.09	248.04	5.80	
2025-01-10 20:52:52.29	248.07	5.80	
2025-01-10 20:52:52.50	248.10	5.81	
2025-01-10 20:52:52.71	248.13	5.82	
2025-01-10 20:52:52.91	248.16	5.83	
2025-01-10 20:52:53.11	248.19	5.84	
2025-01-10 20:52:53.32	248.22	5.85	
2025-01-10 20:52:53.53	248.25	5.85	
2025-01-10 20:52:53.73	248.28	5.86	
2025-01-10 20:52:53.93	248.31	5.87	
2025-01-10 20:52:54.14	248.35	5.88	
2025-01-10 20:52:54.34	248.38	5.89	
2025-01-10 20:52:54.55	248.41	5.89	
2025-01-10 20:52:54.75	248.44	5.90	
2025-01-10 20:52:54.96	248.47	5.91	
2025-01-10 20:52:55.16	248.50	5.92	
2025-01-10 20:52:55.37	248.53	5.93	
2025-01-10 20:52:55.57	248.56	5.94	
2025-01-10 20:52:55.78	248.60	5.94	
2025-01-10 20:52:55.99	248.63	5.95	
2025-01-10 20:52:56.19	248.66	5.96	
2025-01-10 20:52:56.41	248.69	5.97	
2025-01-10 20:52:56.62	248.72	5.98	
2025-01-10 20:52:56.82	248.75	5.99	
2025-01-10 20:52:57.03	248.79	5.99	
2025-01-10 20:52:57.23	248.82	6.00	
2025-01-10 20:52:57.44	248.85	6.01	
2025-01-10 20:52:57.64	248.88	6.02	
2025-01-10 20:52:57.85	248.91	6.03	
2025-01-10 20:52:58.05	248.94	6.03	
2025-01-10 20:52:58.26	248.97	6.04	
2025-01-10 20:52:58.46	249.00	6.05	
2025-01-10 20:52:58.67	249.04	6.06	
2025-01-10 20:52:58.87	249.07	6.07	
2025-01-10 20:52:59.08	249.10	6.08	
2025-01-10 20:52:59.28	249.13	6.08	
2025-01-10 20:52:59.49	249.16	6.09	
2025-01-10 20:52:59.69	249.19	6.10	
2025-01-10 20:52:59.90	249.23	6.11	
2025-01-10 20:53:00.10	249.26	6.12	
2025-01-10 20:53:00.31	249.29	6.12	
2025-01-10 20:53:00.51	249.32	6.13	
2025-01-10 20:53:00.72	249.35	6.14	
2025-01-10 20:53:00.92	249.38	6.15	
2025-01-10 20:53:01.13	249.41	6.16	
2025-01-10 20:53:01.33	249.45	6.16	
2025-01-10 20:53:01.54	249.48	6.17	
2025-01-10 20:53:01.74	249.51	6.18	
2025-01-10 20:53:01.95	249.54	6.19	
2025-01-10 20:53:02.15	249.57	6.20	
2025-01-10 20:53:02.36	249.60	6.21	
2025-01-10 20:53:02.56	249.64	6.21	
2025-01-10 20:53:02.77	249.67	6.22	
2025-01-10 20:53:02.97	249.70	6.23	
2025-01-10 20:53:03.18	249.73	6.24	
2025-01-10 20:53:03.38	249.76	6.25	
2025-01-10 20:53:03.59	249.80	6.25	
2025-01-10 20:53:03.81	249.83	6.26	
2025-01-10 20:53:04.01	249.86	6.27	
2025-01-10 20:53:04.22	249.89	6.28	
2025-01-10 20:53:04.43	249.93	6.29	
2025-01-10 20:53:04.63	249.96	6.29	
2025-01-10 20:53:04.84	249.99	6.30	
2025-01-10 20:53:05.04	250.02	6.31	
2025-01-10 20:53:05.25	250.05	6.32	
2025-01-10 20:53:05.45	250.09	6.33	
2025-01-10 20:53:05.66	250.12	6.33	
2025-01-10 20:53:05.86	250.15	6.34	
2025-01-10 20:53:06.07	250.18	6.35	
2025-01-10 20:53:06.27	250.21	6.36	
2025-01-10 20:53:06.48	250.25	6.37	
2025-01-10 20:53:06.68	250.28	6.37	
2025-01-10 20:53:06.88	250.31	6.38	
2025-01-10 20:53:07.09	250.34	6.39	
2025-01-10 20:53:07.29	250.37	6.40	
2025-01-10 20:53:07.50	250.41	6.41	
2025-01-10 20:53:07.70	250.44	6.41	
2025-01-10 20:53:07.91	250.47	6.42	
2025-01-10 20:53:08.11	250.50	6.43	
2025-01-10 20:53:08.32	250.54	6.44	
2025-01-10 20:53:08.52	250.57	6.45	
2025-01-10 20:53:08.73	250.60	6.45	
2025-01-10 20:53:08.94	250.63	6.46	
2025-01-10 20:53:09.14	250.66	6.47	
2025-01-10 20:53:09.35	250.70	6.48	
2025-01-10 20:53:09.55	250.73	6.49	
2025-01-10 20:53:09.75	250.76	6.49	
2025-01-10 20:53:09.96	250.79	6.50	
2025-01-10 20:53:10.16	250.83	6.51	
2025-01-10 20:53:10.37	250.86	6.52	
2025-01-10 20:53:10.57	250.89	6.53	
2025-01-10 20:53:10.78	250.92	6.53	
2025-01-10 20:53:10.98	250.96	6.54	
2025-01-10 20:53:11.19	250.99	6.55	
2025-01-10 20:53:11.39	251.02	6.56	
2025-01-10 20:53:11.59	251.05	6.56	
2025-01-10 20:53:11.80	251.09	6.57	
2025-01-10 20:53:12.01	251.12	6.58	
2025-01-10 20:53:12.21	251.15	6.59	
2025-01-10 20:53:12.41	251.18	6.60	
2025-01-10 20:53:12.62	251.22	6.60	
2025-01-10 20:53:12.83	251.25	6.61	
2025-01-10 20:53:13.03	251.28	6.62	
2025-01-10 20:53:13.24	251.32	6.63	
2025-01-10 20:53:13.44	251.35	6.64	
2025-01-10 20:53:13.65	251.38	6.64	
2025-01-10 20:53:13.85	251.41	6.65	
2025-01-10 20:53:14.06	251.45	6.66	
2025-01-10 20:53:14.26	251.48	6.67	
2025-01-10 20:53:14.47	251.51	6.67	
2025-01-10 20:53:14.67	251.54	6.68	
2025-01-10 20:53:14.88	251.58	6.69	
2025-01-10 20:53:15.08	251.61	6.70	
2025-01-10 20:53:15.29	251.64	6.71	
2025-01-10 20:53:15.49	251.68	6.71	
2025-01-10 20:53:15.70	251.71	6.72	
2025-01-10 20:53:15.90	251.74	6.73	
2025-01-10 20:53:16.11	251.78	6.74	
2025-01-10 20:53:16.32	251.81	6.75	
2025-01-10 20:53:16.52	251.84	6.75	
2025-01-10 20:53:16.72	251.87	6.76	
2025-01-10 20:53:16.93	251.91	6.77	
2025-01-10 20:53:17.14	251.94	6.78	
2025-01-10 20:53:17.34	251.97	6.78	
2025-01-10 20:53:17.55	252.01	6.79	
2025-01-10 20:53:17.75	252.04	6.80	
2025-01-10 20:53:17.96	252.07	6.81	
2025-01-10 20:53:18.16	252.11	6.81	
2025-01-10 20:53:18.37	252.14	6.82	
2025-01-10 20:53:18.57	252.17	6.83	
2025-01-10 20:53:18.78	252.21	6.84	
2025-01-10 20:53:18.98	252.24	6.85	
2025-01-10 20:53:19.19	252.27	6.85	
2025-01-10 20:53:19.39	252.31	6.86	
2025-01-10 20:53:19.60	252.34	6.87	
2025-01-10 20:53:19.80	252.37	6.88	
2025-01-10 20:53:20.01	252.41	6.88	
2025-01-10 20:53:20.22	252.44	6.89	
2025-01-10 20:53:20.42	252.47	6.90	
2025-01-10 20:53:20.63	252.51	6.91	
2025-01-10 20:53:20.83	252.54	6.91	
2025-01-10 20:53:21.04	252.57	6.92	
2025-01-10 20:53:21.24	252.61	6.93	
2025-01-10 20:53:21.45	252.64	6.94	
2025-01-10 20:53:21.66	252.68	6.95	
2025-01-10 20:53:21.86	252.71	6.95	
2025-01-10 20:53:22.06	252.74	6.96	
2025-01-10 20:53:22.27	252.78	6.97	
2025-01-10 20:53:22.47	252.81	6.98	
2025-01-10 20:53:22.68	252.84	6.98	
2025-01-10 20:53:22.88	252.87	6.99	
2025-01-10 20:53:23.08	252.91	7.00	
2025-01-10 20:53:23.29	252.94	7.01	
2025-01-10 20:53:23.49	252.98	7.01	
2025-01-10 20:53:23.70	253.01	7.02	
2025-01-10 20:53:23.90	253.04	7.03	
2025-01-10 20:53:24.12	253.08	7.04	
2025-01-10 20:53:24.32	253.11	7.04	
2025-01-10 20:53:24.53	253.15	7.05	
2025-01-10 20:53:24.73	253.18	7.06	
2025-01-10 20:53:24.94	253.21	7.07	
2025-01-10 20:53:25.14	253.25	7.07	
2025-01-10 20:53:25.35	253.28	7.08	
2025-01-10 20:53:25.55	253.31	7.09	
2025-01-10 20:53:25.76	253.35	7.10	
2025-01-10 20:53:25.96	253.38	7.10	
2025-01-10 20:53:26.17	253.42	7.11	
2025-01-10 20:53:26.37	253.45	7.12	
2025-01-10 20:53:26.58	253.48	7.13	
2025-01-10 20:53:26.79	253.52	7.14	
2025-01-10 20:53:26.99	253.55	7.14	
2025-01-10 20:53:27.19	253.59	7.15	
2025-01-10 20:53:27.40	253.62	7.16	
2025-01-10 20:53:27.60	253.65	7.16	
2025-01-10 20:53:27.81	253.69	7.17	
2025-01-10 20:53:28.01	253.72	7.18	
2025-01-10 20:53:28.22	253.76	7.19	
2025-01-10 20:53:28.42	253.79	7.19	
2025-01-10 20:53:28.63	253.82	7.20	
2025-01-10 20:53:28.83	253.86	7.21	
2025-01-10 20:53:29.04	253.89	7.22	
2025-01-10 20:53:29.25	253.93	7.22	
2025-01-10 20:53:29.45	253.96	7.23	
2025-01-10 20:53:29.66	254.00	7.24	
2025-01-10 20:53:29.86	254.03	7.25	
2025-01-10 20:53:30.07	254.06	7.25	
2025-01-10 20:53:30.27	254.10	7.26	
2025-01-10 20:53:30.48	254.13	7.27	
2025-01-10 20:53:30.68	254.17	7.28	
2025-01-10 20:53:30.89	254.20	7.28	
2025-01-10 20:53:31.09	254.24	7.29	
2025-01-10 20:53:31.30	254.27	7.30	
2025-01-10 20:53:31.50	254.30	7.31	
2025-01-10 20:53:31.71	254.34	7.31	
2025-01-10 20:53:31.91	254.37	7.32	
2025-01-10 20:53:32.12	254.41	7.33	
2025-01-10 20:53:32.32	254.44	7.34	
2025-01-10 20:53:32.53	254.48	7.34	
2025-01-10 20:53:32.73	254.51	7.35	
2025-01-10 20:53:32.94	254.55	7.36	
2025-01-10 20:53:33.14	254.58	7.36	
2025-01-10 20:53:33.35	254.61	7.37	
2025-01-10 20:53:33.55	254.65	7.38	
2025-01-10 20:53:33.76	254.68	7.39	
2025-01-10 20:53:33.96	254.72	7.39	
2025-01-10 20:53:34.17	254.75	7.40	
2025-01-10 20:53:34.37	254.79	7.41	
2025-01-10 20:53:34.58	254.82	7.42	
2025-01-10 20:53:34.78	254.86	7.42	
2025-01-10 20:53:34.99	254.89	7.43	
2025-01-10 20:53:35.20	254.93	7.44	
2025-01-10 20:53:35.40	254.96	7.44	
2025-01-10 20:53:35.61	255.00	7.45	
2025-01-10 20:53:35.81	255.03	7.46	
2025-01-10 20:53:36.02	255.07	7.47	
2025-01-10 20:53:36.22	255.10	7.47	
2025-01-10 20:53:36.43	255.14	7.48	
2025-01-10 20:53:36.63	255.17	7.49	
2025-01-10 20:53:36.83	255.20	7.50	
2025-01-10 20:53:37.04	255.24	7.50	
2025-01-10 20:53:37.24	255.27	7.51	
2025-01-10 20:53:37.46	255.31	7.52	
2025-01-10 20:53:37.67	255.35	7.52	
2025-01-10 20:53:37.87	255.38	7.53	
2025-01-10 20:53:38.07	255.41	7.54	
2025-01-10 20:53:38.28	255.45	7.55	
2025-01-10 20:53:38.49	255.49	7.55	
2025-01-10 20:53:38.69	255.52	7.56	
2025-01-10 20:53:38.90	255.56	7.57	
2025-01-10 20:53:39.10	255.59	7.57	
2025-01-10 20:53:39.31	255.63	7.58	
2025-01-10 20:53:39.51	255.66	7.59	
2025-01-10 20:53:39.72	255.70	7.60	
2025-01-10 20:53:39.93	255.73	7.60	
2025-01-10 20:53:40.13	255.77	7.61	
2025-01-10 20:53:40.33	255.80	7.62	
2025-01-10 20:53:40.54	255.84	7.62	
2025-01-10 20:53:40.74	255.87	7.63	
2025-01-10 20:53:40.95	255.91	7.64	
2025-01-10 20:53:41.15	255.94	7.65	
2025-01-10 20:53:41.36	255.98	7.65	
2025-01-10 20:53:41.57	256.01	7.66	
2025-01-10 20:53:41.77	256.05	7.67	
2025-01-10 20:53:41.97	256.08	7.67	
2025-01-10 20:53:42.18	256.12	7.68	
2025-01-10 20:53:42.38	256.15	7.69	
2025-01-10 20:53:42.59	256.19	7.69	
2025-01-10 20:53:42.79	256.22	7.70	
2025-01-10 20:53:43.00	256.26	7.71	
2025-01-10 20:53:43.21	256.30	7.72	
2025-01-10 20:53:43.41	256.33	7.72	
2025-01-10 20:53:43.61	256.37	7.73	
2025-01-10 20:53:43.82	256.40	7.74	
2025-01-10 20:53:44.02	256.44	7.74	
2025-01-10 20:53:44.23	256.47	7.75	
2025-01-10 20:53:44.43	256.51	7.76	
2025-01-10 20:53:44.64	256.54	7.76	
2025-01-10 20:53:44.84	256.58	7.77	
2025-01-10 20:53:45.05	256.61	7.78	
2025-01-10 20:53:45.25	256.65	7.79	
2025-01-10 20:53:45.46	256.69	7.79	
2025-01-10 20:53:45.66	256.72	7.80	
2025-01-10 20:53:45.87	256.76	7.81	
2025-01-10 20:53:46.07	256.79	7.81	
2025-01-10 20:53:46.28	256.83	7.82	
2025-01-10 20:53:46.48	256.86	7.83	
2025-01-10 20:53:46.69	256.90	7.83	
2025-01-10 20:53:46.89	256.93	7.84	
2025-01-10 20:53:47.10	256.97	7.85	
2025-01-10 20:53:47.30	257.01	7.85	
2025-01-10 20:53:47.51	257.04	7.86	
2025-01-10 20:53:47.71	257.08	7.87	
2025-01-10 20:53:47.91	257.11	7.87	
2025-01-10 20:53:48.12	257.15	7.88	
2025-01-10 20:53:48.32	257.18	7.89	
2025-01-10 20:53:48.53	257.22	7.90	
2025-01-10 20:53:48.73	257.26	7.90	
2025-01-10 20:53:48.94	257.29	7.91	
2025-01-10 20:53:49.15	257.33	7.92	
2025-01-10 20:53:49.35	257.36	7.92	
2025-01-10 20:53:49.56	257.40	7.93	
2025-01-10 20:53:49.76	257.44	7.94	
2025-01-10 20:53:49.97	257.47	7.94	
2025-01-10 20:53:50.18	257.51	7.95	
2025-01-10 20:53:50.38	257.54	7.96	
2025-01-10 20:53:50.59	257.58	7.96	
2025-01-10 20:53:50.79	257.62	7.97	
2025-01-10 20:53:51.00	257.65	7.98	
2025-01-10 20:53:51.20	257.69	7.98	
2025-01-10 20:53:51.41	257.73	7.99	
2025-01-10 20:53:51.61	257.76	8.00	
2025-01-10 20:53:51.82	257.80	8.00	
2025-01-10 20:53:52.02	257.83	8.01	
2025-01-10 20:53:52.23	257.87	8.02	
2025-01-10 20:53:52.43	257.91	8.02	
2025-01-10 20:53:52.64	257.94	8.03	
2025-01-10 20:53:52.84	257.98	8.04	
2025-01-10 20:53:53.05	258.02	8.04	
2025-01-10 20:53:53.25	258.05	8.05	
2025-01-10 20:53:53.45	258.09	8.06	
2025-01-10 20:53:53.66	258.12	8.06	
2025-01-10 20:53:53.86	258.16	8.07	
2025-01-10 20:53:54.07	258.20	8.08	
2025-01-10 20:53:54.27	258.23	8.08	
2025-01-10 20:53:54.48	258.27	8.09	
2025-01-10 20:53:54.68	258.30	8.10	
2025-01-10 20:53:54.89	258.34	8.10	
2025-01-10 20:53:55.09	258.38	8.11	
2025-01-10 20:53:55.30	258.41	8.12	
2025-01-10 20:53:55.50	258.45	8.12	
2025-01-10 20:53:55.71	258.49	8.13	
2025-01-10 20:53:55.92	258.52	8.14	
2025-01-10 20:53:56.12	258.56	8.14	
2025-01-10 20:53:56.32	258.60	8.15	
2025-01-10 20:53:56.53	258.63	8.16	
2025-01-10 20:53:56.74	258.67	8.16	
2025-01-10 20:53:56.94	258.71	8.17	
2025-01-10 20:53:57.14	258.74	8.18	
2025-01-10 20:53:57.35	258.78	8.18	
2025-01-10 20:53:57.56	258.82	8.19	
2025-01-10 20:53:57.76	258.85	8.20	
2025-01-10 20:53:57.97	258.89	8.20	
2025-01-10 20:53:58.17	258.93	8.21	
2025-01-10 20:53:58.38	258.96	8.21	
2025-01-10 20:53:58.58	259.00	8.22	
2025-01-10 20:53:58.79	259.04	8.23	
2025-01-10 20:53:58.99	259.07	8.23	
2025-01-10 20:53:59.20	259.11	8.24	
2025-01-10 20:53:59.40	259.15	8.25	
2025-01-10 20:53:59.61	259.18	8.25	
2025-01-10 20:53:59.81	259.22	8.26	
2025-01-10 20:54:00.02	259.26	8.27	
2025-01-10 20:54:00.23	259.30	8.27	
2025-01-10 20:54:00.43	259.33	8.28	
2025-01-10 20:54:00.64	259.37	8.29	
2025-01-10 20:54:00.84	259.40	8.29	
2025-01-10 20:54:01.05	259.44	8.30	
2025-01-10 20:54:01.25	259.48	8.30	
2025-01-10 20:54:01.46	259.52	8.31	
2025-01-10 20:54:01.66	259.55	8.32	
2025-01-10 20:54:01.87	259.59	8.32	
2025-01-10 20:54:02.08	259.63	8.33	
2025-01-10 20:54:02.28	259.66	8.34	
2025-01-10 20:54:02.49	259.70	8.34	
2025-01-10 20:54:02.69	259.74	8.35	
2025-01-10 20:54:02.90	259.78	8.36	
2025-01-10 20:54:03.10	259.81	8.36	
2025-01-10 20:54:03.31	259.85	8.37	
2025-01-10 20:54:03.51	259.89	8.37	
2025-01-10 20:54:03.72	259.92	8.38	
2025-01-10 20:54:03.92	259.96	8.39	
2025-01-10 20:54:04.13	260.00	8.39	
2025-01-10 20:54:04.33	260.04	8.40	
2025-01-10 20:54:04.54	260.07	8.41	
2025-01-10 20:54:04.74	260.11	8.41	
2025-01-10 20:54:04.95	260.15	8.42	
2025-01-10 20:54:05.15	260.18	8.42	
2025-01-10 20:54:05.36	260.22	8.43	
2025-01-10 20:54:05.56	260.26	8.44	
2025-01-10 20:54:05.76	260.29	8.44	
2025-01-10 20:54:05.97	260.33	8.45	
2025-01-10 20:54:06.18	260.37	8.46	
2025-01-10 20:54:06.38	260.41	8.46	
2025-01-10 20:54:06.59	260.45	8.47	
2025-01-10 20:54:06.79	260.48	8.47	
2025-01-10 20:54:07.00	260.52	8.48	
2025-01-10 20:54:07.20	260.56	8.49	
2025-01-10 20:54:07.41	260.60	8.49	
2025-01-10 20:54:07.61	260.63	8.50	
2025-01-10 20:54:07.81	260.67	8.50	
2025-01-10 20:54:08.02	260.71	8.51	
2025-01-10 20:54:08.23	260.75	8.52	
2025-01-10 20:54:08.43	260.78	8.52	
2025-01-10 20:54:08.64	260.82	8.53	
2025-01-10 20:54:08.84	260.86	8.53	
2025-01-10 20:54:09.04	260.89	8.54	
2025-01-10 20:54:09.25	260.93	8.55	
2025-01-10 20:54:09.46	260.97	8.55	
2025-01-10 20:54:09.66	261.01	8.56	
2025-01-10 20:54:09.87	261.05	8.56	
2025-01-10 20:54:10.08	261.08	8.57	
2025-01-10 20:54:10.29	261.12	8.58	
2025-01-10 20:54:10.49	261.16	8.58	
2025-01-10 20:54:10.70	261.20	8.59	
2025-01-10 20:54:10.90	261.23	8.59	
2025-01-10 20:54:11.11	261.27	8.60	
2025-01-10 20:54:11.31	261.31	8.61	
2025-01-10 20:54:11.52	261.35	8.61	
2025-01-10 20:54:11.72	261.39	8.62	
2025-01-10 20:54:11.93	261.42	8.62	
2025-01-10 20:54:12.13	261.46	8.63	
2025-01-10 20:54:12.33	261.50	8.64	
2025-01-10 20:54:12.54	261.54	8.64	
2025-01-10 20:54:12.74	261.57	8.65	
2025-01-10 20:54:12.95	261.61	8.65	
2025-01-10 20:54:13.15	261.65	8.66	
2025-01-10 20:54:13.36	261.69	8.67	
2025-01-10 20:54:13.57	261.73	8.67	
2025-01-10 20:54:13.77	261.76	8.68	
2025-01-10 20:54:13.98	261.80	8.68	
2025-01-10 20:54:14.18	261.84	8.69	
2025-01-10 20:54:14.38	261.88	8.69	
2025-01-10 20:54:14.59	261.92	8.70	
2025-01-10 20:54:14.80	261.95	8.71	
2025-01-10 20:54:15.00	261.99	8.71	
2025-01-10 20:54:15.21	262.03	8.72	
2025-01-10 20:54:15.41	262.07	8.72	
2025-01-10 20:54:15.62	262.11	8.73	
2025-01-10 20:54:15.82	262.14	8.74	
2025-01-10 20:54:16.02	262.18	8.74	
2025-01-10 20:54:16.23	262.22	8.75	
2025-01-10 20:54:16.43	262.26	8.75	
2025-01-10 20:54:16.64	262.30	8.76	
2025-01-10 20:54:16.84	262.33	8.76	
2025-01-10 20:54:17.05	262.37	8.77	
2025-01-10 20:54:17.25	262.41	8.78	
2025-01-10 20:54:17.46	262.45	8.78	
2025-01-10 20:54:17.66	262.49	8.79	
2025-01-10 20:54:17.87	262.53	8.79	
2025-01-10 20:54:18.07	262.56	8.80	
2025-01-10 20:54:18.28	262.60	8.80	
2025-01-10 20:54:18.48	262.64	8.81	
2025-01-10 20:54:18.69	262.68	8.82	
2025-01-10 20:54:18.91	262.72	8.82	
2025-01-10 20:54:19.11	262.76	8.83	
2025-01-10 20:54:19.32	262.80	8.83	
2025-01-10 20:54:19.52	262.83	8.84	
2025-01-10 20:54:19.73	262.87	8.84	
2025-01-10 20:54:19.93	262.91	8.85	
2025-01-10 20:54:20.14	262.95	8.85	
2025-01-10 20:54:20.34	262.99	8.86	
2025-01-10 20:54:20.55	263.03	8.87	
2025-01-10 20:54:20.75	263.06	8.87	
2025-01-10 20:54:20.96	263.10	8.88	
2025-01-10 20:54:21.16	263.14	8.88	
2025-01-10 20:54:21.37	263.18	8.89	
2025-01-10 20:54:21.57	263.22	8.89	
2025-01-10 20:54:21.78	263.26	8.90	
2025-01-10 20:54:21.98	263.30	8.90	
2025-01-10 20:54:22.19	263.33	8.91	
2025-01-10 20:54:22.39	263.37	8.92	
2025-01-10 20:54:22.60	263.41	8.92	
2025-01-10 20:54:22.80	263.45	8.93	
2025-01-10 20:54:23.01	263.49	8.93	
2025-01-10 20:54:23.22	263.53	8.94	
2025-01-10 20:54:23.42	263.57	8.94	
2025-01-10 20:54:23.63	263.61	8.95	
2025-01-10 20:54:23.83	263.64	8.95	
2025-01-10 20:54:24.04	263.68	8.96	
2025-01-10 20:54:24.24	263.72	8.96	
2025-01-10 20:54:24.45	263.76	8.97	
2025-01-10 20:54:24.65	263.80	8.97	
2025-01-10 20:54:24.86	263.84	8.98	
2025-01-10 20:54:25.06	263.88	8.99	
2025-01-10 20:54:25.27	263.92	8.99	
2025-01-10 20:54:25.47	263.95	9.00	
2025-01-10 20:54:25.68	263.99	9.00	
2025-01-10 20:54:25.88	264.03	9.01	
2025-01-10 20:54:26.08	264.07	9.01	
2025-01-10 20:54:26.29	264.11	9.02	
2025-01-10 20:54:26.50	264.15	9.02	
2025-01-10 20:54:26.70	264.19	9.03	
2025-01-10 20:54:26.91	264.23	9.03	
2025-01-10 20:54:27.11	264.26	9.04	
2025-01-10 20:54:27.31	264.30	9.04	
2025-01-10 20:54:27.52	264.34	9.05	
2025-01-10 20:54:27.72	264.38	9.05	
2025-01-10 20:54:27.93	264.42	9.06	
2025-01-10 20:54:28.14	264.46	9.06	
2025-01-10 20:54:28.34	264.50	9.07	
2025-01-10 20:54:28.55	264.54	9.08	
2025-01-10 20:54:28.75	264.58	9.08	
2025-01-10 20:54:28.96	264.62	9.09	
2025-01-10 20:54:29.16	264.65	9.09	
2025-01-10 20:54:29.37	264.69	9.10	
2025-01-10 20:54:29.58	264.73	9.10	
2025-01-10 20:54:29.78	264.77	9.11	
2025-01-10 20:54:29.99	264.81	9.11	
2025-01-10 20:54:30.19	264.85	9.12	
2025-01-10 20:54:30.39	264.89	9.12	
2025-01-10 20:54:30.60	264.93	9.13	
2025-01-10 20:54:30.80	264.97	9.13	
2025-01-10 20:54:31.01	265.01	9.14	
2025-01-10 20:54:31.22	265.05	9.14	
2025-01-10 20:54:31.42	265.09	9.15	
2025-01-10 20:54:31.63	265.13	9.15	
2025-01-10 20:54:31.83	265.16	9.16	
2025-01-10 20:54:32.04	265.20	9.16	
2025-01-10 20:54:32.25	265.24	9.17	
2025-01-10 20:54:32.45	265.28	9.17	
2025-01-10 20:54:32.66	265.32	9.18	
2025-01-10 20:54:32.86	265.36	9.18	
2025-01-10 20:54:33.07	265.40	9.19	
2025-01-10 20:54:33.27	265.44	9.19	
2025-01-10 20:54:33.48	265.48	9.20	
2025-01-10 20:54:33.68	265.52	9.20	
2025-01-10 20:54:33.89	265.56	9.21	
2025-01-10 20:54:34.09	265.60	9.21	
2025-01-10 20:54:34.30	265.64	9.22	
2025-01-10 20:54:34.50	265.68	9.22	
2025-01-10 20:54:34.71	265.72	9.23	
2025-01-10 20:54:34.91	265.76	9.23	
2025-01-10 20:54:35.12	265.80	9.24	
2025-01-10 20:54:35.32	265.83	9.24	
2025-01-10 20:54:35.53	265.87	9.25	
2025-01-10 20:54:35.73	265.91	9.25	
2025-01-10 20:54:35.94	265.95	9.26	
2025-01-10 20:54:36.14	265.99	9.26	
2025-01-10 20:54:36.35	266.03	9.26	
2025-01-10 20:54:36.55	266.07	9.27	
2025-01-10 20:54:36.76	266.11	9.27	
2025-01-10 20:54:36.96	266.15	9.28	
2025-01-10 20:54:37.17	266.19	9.28	
2025-01-10 20:54:37.37	266.23	9.29	
2025-01-10 20:54:37.58	266.27	9.29	
2025-01-10 20:54:37.78	266.31	9.30	
2025-01-10 20:54:37.99	266.35	9.30	
2025-01-10 20:54:38.20	266.39	9.31	
2025-01-10 20:54:38.40	266.43	9.31	
2025-01-10 20:54:38.60	266.47	9.32	
2025-01-10 20:54:38.81	266.51	9.32	
2025-01-10 20:54:39.01	266.55	9.33	
2025-01-10 20:54:39.22	266.59	9.33	
2025-01-10 20:54:39.42	266.63	9.34	
2025-01-10 20:54:39.63	266.67	9.34	
2025-01-10 20:54:39.83	266.71	9.34	
2025-01-10 20:54:40.04	266.75	9.35	
2025-01-10 20:54:40.24	266.79	9.35	
2025-01-10 20:54:40.45	266.83	9.36	
2025-01-10 20:54:40.65	266.87	9.36	
2025-01-10 20:54:40.86	266.91	9.37	
2025-01-10 20:54:41.08	266.95	9.37	
2025-01-10 20:54:41.28	266.99	9.38	
2025-01-10 20:54:41.49	267.03	9.38	
2025-01-10 20:54:41.69	267.07	9.39	
2025-01-10 20:54:41.90	267.11	9.39	
2025-01-10 20:54:42.10	267.15	9.40	
2025-01-10 20:54:42.31	267.19	9.40	
2025-01-10 20:54:42.51	267.23	9.40	
2025-01-10 20:54:42.72	267.27	9.41	
2025-01-10 20:54:42.92	267.31	9.41	
2025-01-10 20:54:43.12	267.35	9.42	
2025-01-10 20:54:43.33	267.39	9.42	
2025-01-10 20:54:43.54	267.43	9.43	
2025-01-10 20:54:43.74	267.47	9.43	
2025-01-10 20:54:43.95	267.51	9.44	
2025-01-10 20:54:44.16	267.55	9.44	
2025-01-10 20:54:44.37	267.59	9.44	
2025-01-10 20:54:44.57	267.63	9.45	
2025-01-10 20:54:44.78	267.67	9.45	
2025-01-10 20:54:44.99	267.71	9.46	
2025-01-10 20:54:45.19	267.75	9.46	
2025-01-10 20:54:45.39	267.79	9.47	
2025-01-10 20:54:45.60	267.83	9.47	
2025-01-10 20:54:45.81	267.87	9.48	
2025-01-10 20:54:46.01	267.91	9.48	
2025-01-10 20:54:46.22	267.95	9.48	
2025-01-10 20:54:46.42	267.99	9.49	
2025-01-10 20:54:46.63	268.03	9.49	
2025-01-10 20:54:46.83	268.07	9.50	
2025-01-10 20:54:47.04	268.11	9.50	
2025-01-10 20:54:47.24	268.15	9.50	
2025-01-10 20:54:47.45	268.19	9.51	
2025-01-10 20:54:47.65	268.23	9.51	
2025-01-10 20:54:47.86	268.27	9.52	
2025-01-10 20:54:48.06	268.31	9.52	
2025-01-10 20:54:48.27	268.35	9.53	
2025-01-10 20:54:48.47	268.39	9.53	
2025-01-10 20:54:48.68	268.43	9.53	
2025-01-10 20:54:48.88	268.47	9.54	
2025-01-10 20:54:49.09	268.52	9.54	
2025-01-10 20:54:49.29	268.55	9.55	
2025-01-10 20:54:49.50	268.60	9.55	
2025-01-10 20:54:49.70	268.64	9.55	
2025-01-10 20:54:49.91	268.68	9.56	
2025-01-10 20:54:50.11	268.72	9.56	
2025-01-10 20:54:50.32	268.76	9.57	
2025-01-10 20:54:50.53	268.80	9.57	
2025-01-10 20:54:50.73	268.84	9.58	
2025-01-10 20:54:50.94	268.88	9.58	
2025-01-10 20:54:51.15	268.92	9.58	
2025-01-10 20:54:51.35	268.96	9.59	
2025-01-10 20:54:51.55	269.00	9.59	
2025-01-10 20:54:51.76	269.04	9.60	
2025-01-10 20:54:51.97	269.08	9.60	
2025-01-10 20:54:52.17	269.12	9.60	
2025-01-10 20:54:52.38	269.16	9.61	
2025-01-10 20:54:52.58	269.20	9.61	
2025-01-10 20:54:52.79	269.24	9.62	
2025-01-10 20:54:52.99	269.28	9.62	
2025-01-10 20:54:53.20	269.33	9.62	
2025-01-10 20:54:53.41	269.37	9.63	
2025-01-10 20:54:53.61	269.41	9.63	
2025-01-10 20:54:53.82	269.45	9.63	
2025-01-10 20:54:54.02	269.49	9.64	
2025-01-10 20:54:54.23	269.53	9.64	
2025-01-10 20:54:54.43	269.57	9.65	
2025-01-10 20:54:54.64	269.61	9.65	
2025-01-10 20:54:54.84	269.65	9.65	
2025-01-10 20:54:55.04	269.69	9.66	
2025-01-10 20:54:55.25	269.73	9.66	
2025-01-10 20:54:55.46	269.77	9.67	
2025-01-10 20:54:55.66	269.81	9.67	
2025-01-10 20:54:55.87	269.86	9.67	
2025-01-10 20:54:56.07	269.90	9.68	
2025-01-10 20:54:56.28	269.94	9.68	
2025-01-10 20:54:56.48	269.98	9.68	
2025-01-10 20:54:56.69	270.02	9.69	
2025-01-10 20:54:56.89	270.06	9.69	
2025-01-10 20:54:57.10	270.10	9.70	
2025-01-10 20:54:57.30	270.14	9.70	
2025-01-10 20:54:57.51	270.18	9.70	
2025-01-10 20:54:57.72	270.22	9.71	
2025-01-10 20:54:57.92	270.26	9.71	
2025-01-10 20:54:58.13	270.30	9.71	
2025-01-10 20:54:58.33	270.34	9.72	
2025-01-10 20:54:58.54	270.39	9.72	
2025-01-10 20:54:58.74	270.43	9.72	
2025-01-10 20:54:58.95	270.47	9.73	
2025-01-10 20:54:59.15	270.51	9.73	
2025-01-10 20:54:59.36	270.55	9.74	
2025-01-10 20:54:59.56	270.59	9.74	
2025-01-10 20:54:59.77	270.63	9.74	
2025-01-10 20:54:59.98	270.67	9.75	
2025-01-10 20:55:00.18	270.71	9.75	
2025-01-10 20:55:00.39	270.76	9.75	
2025-01-10 20:55:00.59	270.80	9.76	
2025-01-10 20:55:00.80	270.84	9.76	
2025-01-10 20:55:01.00	270.88	9.76	
2025-01-10 20:55:01.20	270.92	9.77	
2025-01-10 20:55:01.41	270.96	9.77	
2025-01-10 20:55:01.61	271.00	9.77	
2025-01-10 20:55:01.82	271.04	9.78	
2025-01-10 20:55:02.03	271.08	9.78	
2025-01-10 20:55:02.23	271.12	9.78	
2025-01-10 20:55:02.43	271.16	9.79	
2025-01-10 20:55:02.64	271.21	9.79	
2025-01-10 20:55:02.85	271.25	9.79	
2025-01-10 20:55:03.05	271.29	9.80	
2025-01-10 20:55:03.25	271.33	9.80	
2025-01-10 20:55:03.46	271.37	9.80	
2025-01-10 20:55:03.67	271.41	9.81	
2025-01-10 20:55:03.87	271.45	9.81	
2025-01-10 20:55:04.08	271.49	9.81	
2025-01-10 20:55:04.28	271.53	9.82	
2025-01-10 20:55:04.48	271.57	9.82	
2025-01-10 20:55:04.69	271.62	9.82	
2025-01-10 20:55:04.89	271.66	9.83	
2025-01-10 20:55:05.10	271.70	9.83	
2025-01-10 20:55:05.31	271.74	9.83	
2025-01-10 20:55:05.51	271.78	9.84	
2025-01-10 20:55:05.72	271.82	9.84	
2025-01-10 20:55:05.92	271.86	9.84	
2025-01-10 20:55:06.13	271.91	9.85	
2025-01-10 20:55:06.33	271.95	9.85	
2025-01-10 20:55:06.55	271.99	9.85	
2025-01-10 20:55:06.75	272.03	9.86	
2025-01-10 20:55:06.96	272.07	9.86	
2025-01-10 20:55:07.17	272.11	9.86	
2025-01-10 20:55:07.38	272.16	9.87	
2025-01-10 20:55:07.58	272.20	9.87	
2025-01-10 20:55:07.79	272.24	9.87	
2025-01-10 20:55:07.99	272.28	9.88	
2025-01-10 20:55:08.20	272.32	9.88	
2025-01-10 20:55:08.42	272.37	9.88	
2025-01-10 20:55:08.62	272.41	9.88	
2025-01-10 20:55:08.83	272.45	9.89	
2025-01-10 20:55:09.03	272.49	9.89	
2025-01-10 20:55:09.24	272.53	9.89	
2025-01-10 20:55:09.44	272.57	9.90	
2025-01-10 20:55:09.65	272.61	9.90	
2025-01-10 20:55:09.85	272.65	9.90	
2025-01-10 20:55:10.06	272.70	9.91	
2025-01-10 20:55:10.26	272.74	9.91	
2025-01-10 20:55:10.47	272.78	9.91	
2025-01-10 20:55:10.68	272.82	9.91	
2025-01-10 20:55:10.88	272.86	9.92	
2025-01-10 20:55:11.08	272.90	9.92	
2025-01-10 20:55:11.29	272.95	9.92	
2025-01-10 20:55:11.49	272.99	9.93	
2025-01-10 20:55:11.70	273.03	9.93	
2025-01-10 20:55:11.90	273.07	9.93	
2025-01-10 20:55:12.11	273.11	9.93	
2025-01-10 20:55:12.31	273.15	9.94	
2025-01-10 20:55:12.52	273.19	9.94	
2025-01-10 20:55:12.73	273.24	9.94	
2025-01-10 20:55:12.94	273.28	9.95	
2025-01-10 20:55:13.15	273.32	9.95	
2025-01-10 20:55:13.36	273.36	9.95	
2025-01-10 20:55:13.56	273.41	9.95	
2025-01-10 20:55:13.77	273.45	9.96	
2025-01-10 20:55:13.97	273.49	9.96	
2025-01-10 20:55:14.18	273.53	9.96	
2025-01-10 20:55:14.38	273.57	9.97	
2025-01-10 20:55:14.59	273.61	9.97	
2025-01-10 20:55:14.79	273.65	9.97	
2025-01-10 20:55:15.01	273.70	9.97	
2025-01-10 20:55:15.22	273.74	9.98	
2025-01-10 20:55:15.42	273.78	9.98	
2025-01-10 20:55:15.63	273.82	9.98	
2025-01-10 20:55:15.83	273.87	9.98	
2025-01-10 20:55:16.04	273.91	9.99	
2025-01-10 20:55:16.24	273.95	9.99	
2025-01-10 20:55:16.45	273.99	9.99	
2025-01-10 20:55:16.66	274.03	9.99	
2025-01-10 20:55:16.86	274.07	10.00	
2025-01-10 20:55:17.07	274.12	10.00	
2025-01-10 20:55:17.27	274.16	10.00	
2025-01-10 20:55:17.48	274.20	10.00	
2025-01-10 20:55:17.68	274.24	10.01	
2025-01-10 20:55:17.89	274.28	10.01	
2025-01-10 20:55:18.09	274.32	10.01	
2025-01-10 20:55:18.31	274.37	10.01	
2025-01-10 20:55:18.52	274.41	10.02	
2025-01-10 20:55:18.72	274.45	10.02	
2025-01-10 20:55:18.92	274.49	10.02	
2025-01-10 20:55:19.13	274.54	10.02	
2025-01-10 20:55:19.33	274.58	10.03	
2025-01-10 20:55:19.54	274.62	10.03	
2025-01-10 20:55:19.75	274.66	10.03	
2025-01-10 20:55:19.95	274.70	10.03	
2025-01-10 20:55:20.16	274.75	10.04	
2025-01-10 20:55:20.36	274.79	10.04	
2025-01-10 20:55:20.57	274.83	10.04	
2025-01-10 20:55:20.77	274.87	10.04	
2025-01-10 20:55:20.98	274.91	10.05	
2025-01-10 20:55:21.18	274.95	10.05	
2025-01-10 20:55:21.40	275.00	10.05	
2025-01-10 20:55:21.60	275.04	10.05	
2025-01-10 20:55:21.82	275.08	10.05	
2025-01-10 20:55:22.03	275.13	10.06	
2025-01-10 20:55:22.24	275.17	10.06	
2025-01-10 20:55:22.44	275.21	10.06	
2025-01-10 20:55:22.64	275.25	10.06	
2025-01-10 20:55:22.85	275.29	10.07	
2025-01-10 20:55:23.05	275.34	10.07	
2025-01-10 20:55:23.26	275.38	10.07	
2025-01-10 20:55:23.47	275.42	10.07	
2025-01-10 20:55:23.67	275.46	10.07	
2025-01-10 20:55:23.88	275.50	10.08	
2025-01-10 20:55:24.08	275.55	10.08	
2025-01-10 20:55:24.29	275.59	10.08	
2025-01-10 20:55:24.49	275.63	10.08	
2025-01-10 20:55:24.70	275.67	10.08	
2025-01-10 20:55:24.90	275.71	10.09	
2025-01-10 20:55:25.11	275.76	10.09	
2025-01-10 20:55:25.31	275.80	10.09	
2025-01-10 20:55:25.52	275.84	10.09	
2025-01-10 20:55:25.72	275.88	10.09	
2025-01-10 20:55:25.93	275.92	10.10	
2025-01-10 20:55:26.13	275.96	10.10	
2025-01-10 20:55:26.34	276.01	10.10	
2025-01-10 20:55:26.54	276.05	10.10	
2025-01-10 20:55:26.75	276.09	10.10	
2025-01-10 20:55:26.95	276.13	10.11	
2025-01-10 20:55:27.16	276.18	10.11	
2025-01-10 20:55:27.36	276.22	10.11	
2025-01-10 20:55:27.57	276.26	10.11	
2025-01-10 20:55:27.78	276.30	10.11	
2025-01-10 20:55:27.98	276.34	10.12	
2025-01-10 20:55:28.18	276.38	10.12	
2025-01-10 20:55:28.39	276.43	10.12	
2025-01-10 20:55:28.59	276.47	10.12	
2025-01-10 20:55:28.80	276.51	10.12	
2025-01-10 20:55:29.00	276.55	10.13	
2025-01-10 20:55:29.21	276.60	10.13	
2025-01-10 20:55:29.41	276.64	10.13	
2025-01-10 20:55:29.62	276.68	10.13	
2025-01-10 20:55:29.82	276.72	10.13	
2025-01-10 20:55:30.03	276.76	10.13	
2025-01-10 20:55:30.23	276.80	10.14	
2025-01-10 20:55:30.44	276.85	10.14	
2025-01-10 20:55:30.64	276.89	10.14	
2025-01-10 20:55:30.85	276.93	10.14	
2025-01-10 20:55:31.05	276.97	10.14	
2025-01-10 20:55:31.26	277.02	10.14	
2025-01-10 20:55:31.46	277.06	10.15	
2025-01-10 20:55:31.67	277.10	10.15	
2025-01-10 20:55:31.88	277.14	10.15	
2025-01-10 20:55:32.08	277.18	10.15	
2025-01-10 20:55:32.28	277.23	10.15	
2025-01-10 20:55:32.49	277.27	10.15	
2025-01-10 20:55:32.69	277.31	10.16	
2025-01-10 20:55:32.90	277.35	10.16	
2025-01-10 20:55:33.10	277.39	10.16	
2025-01-10 20:55:33.31	277.44	10.16	
2025-01-10 20:55:33.51	277.48	10.16	
2025-01-10 20:55:33.72	277.52	10.16	
2025-01-10 20:55:33.92	277.56	10.16	
2025-01-10 20:55:34.13	277.61	10.17	
2025-01-10 20:55:34.33	277.65	10.17	
2025-01-10 20:55:34.54	277.69	10.17	
2025-01-10 20:55:34.74	277.73	10.17	
2025-01-10 20:55:34.95	277.77	10.17	
2025-01-10 20:55:35.15	277.82	10.17	
2025-01-10 20:55:35.37	277.86	10.17	
2025-01-10 20:55:35.57	277.90	10.18	
2025-01-10 20:55:35.78	277.94	10.18	
2025-01-10 20:55:35.98	277.99	10.18	
2025-01-10 20:55:36.19	278.03	10.18	
2025-01-10 20:55:36.39	278.07	10.18	
2025-01-10 20:55:36.60	278.11	10.18	
2025-01-10 20:55:36.81	278.16	10.18	
2025-01-10 20:55:37.01	278.20	10.19	
2025-01-10 20:55:37.22	278.24	10.19	
2025-01-10 20:55:37.42	278.28	10.19	
2025-01-10 20:55:37.62	278.32	10.19	
2025-01-10 20:55:37.83	278.37	10.19	
2025-01-10 20:55:38.04	278.41	10.19	
2025-01-10 20:55:38.24	278.45	10.19	
2025-01-10 20:55:38.45	278.49	10.19	
2025-01-10 20:55:38.65	278.54	10.20	
2025-01-10 20:55:38.86	278.58	10.20	
2025-01-10 20:55:39.06	278.62	10.20	
2025-01-10 20:55:39.27	278.66	10.20	
2025-01-10 20:55:39.47	278.70	10.20	
2025-01-10 20:55:39.68	278.75	10.20	
2025-01-10 20:55:39.88	278.79	10.20	
2025-01-10 20:55:40.09	278.83	10.20	
2025-01-10 20:55:40.29	278.87	10.20	
2025-01-10 20:55:40.50	278.92	10.21	
2025-01-10 20:55:40.70	278.96	10.21	
2025-01-10 20:55:40.90	279.00	10.21	
2025-01-10 20:55:41.11	279.04	10.21	
2025-01-10 20:55:41.32	279.09	10.21	
2025-01-10 20:55:41.52	279.13	10.21	
2025-01-10 20:55:41.73	279.17	10.21	
2025-01-10 20:55:41.93	279.21	10.21	
2025-01-10 20:55:42.14	279.25	10.21	
2025-01-10 20:55:42.34	279.30	10.22	
2025-01-10 20:55:42.55	279.34	10.22	
2025-01-10 20:55:42.75	279.38	10.22	
2025-01-10 20:55:42.96	279.42	10.22	
2025-01-10 20:55:43.16	279.47	10.22	
2025-01-10 20:55:43.37	279.51	10.22	
2025-01-10 20:55:43.57	279.55	10.22	
2025-01-10 20:55:43.78	279.59	10.22	
2025-01-10 20:55:43.98	279.63	10.22	
2025-01-10 20:55:44.19	279.68	10.22	
2025-01-10 20:55:44.39	279.72	10.22	
2025-01-10 20:55:44.60	279.76	10.22	
2025-01-10 20:55:44.80	279.80	10.23	
2025-01-10 20:55:45.01	279.85	10.23	
2025-01-10 20:55:45.21	279.89	10.23	
2025-01-10 20:55:45.42	279.93	10.23	
2025-01-10 20:55:45.63	279.98	10.23	
2025-01-10 20:55:45.83	280.02	10.23	
2025-01-10 20:55:46.04	280.06	10.23	
2025-01-10 20:55:46.24	280.10	10.23	
2025-01-10 20:55:46.44	280.14	10.23	
2025-01-10 20:55:46.65	280.19	10.23	
2025-01-10 20:55:46.86	280.23	10.23	
2025-01-10 20:55:47.06	280.27	10.23	
2025-01-10 20:55:47.27	280.31	10.23	
2025-01-10 20:55:47.47	280.36	10.23	
2025-01-10 20:55:47.68	280.40	10.24	
2025-01-10 20:55:47.88	280.44	10.24	
2025-01-10 20:55:48.09	280.48	10.24	
2025-01-10 20:55:48.29	280.52	10.24	
2025-01-10 20:55:48.49	280.57	10.24	
2025-01-10 20:55:48.70	280.61	10.24	
2025-01-10 20:55:48.90	280.65	10.24	
2025-01-10 20:55:49.11	280.69	10.24	
2025-01-10 20:55:49.33	280.74	10.24	
2025-01-10 20:55:49.53	280.78	10.24	
2025-01-10 20:55:49.74	280.82	10.24	
2025-01-10 20:55:49.94	280.87	10.24	
2025-01-10 20:55:50.15	280.91	10.24	
2025-01-10 20:55:50.35	280.95	10.24	
2025-01-10 20:55:50.56	280.99	10.24	
2025-01-10 20:55:50.76	281.03	10.24	
2025-01-10 20:55:50.97	281.08	10.24	
2025-01-10 20:55:51.18	281.12	10.24	
2025-01-10 20:55:51.38	281.16	10.24	
2025-01-10 20:55:51.58	281.20	10.24	
2025-01-10 20:55:51.79	281.25	10.25	
2025-01-10 20:55:52.00	281.29	10.25	
2025-01-10 20:55:52.20	281.33	10.25	
2025-01-10 20:55:52.41	281.38	10.25	
2025-01-10 20:55:52.61	281.42	10.25	
2025-01-10 20:55:52.82	281.46	10.25	
2025-01-10 20:55:53.02	281.50	10.25	
2025-01-10 20:55:53.23	281.55	10.25	
2025-01-10 20:55:53.43	281.59	10.25	
2025-01-10 20:55:53.64	281.63	10.25	
2025-01-10 20:55:53.84	281.67	10.25	
2025-01-10 20:55:54.05	281.71	10.25	
2025-01-10 20:55:54.26	281.76	10.25	
2025-01-10 20:55:54.46	281.80	10.25	
2025-01-10 20:55:54.66	281.84	10.25	
2025-01-10 20:55:54.87	281.88	10.25	
2025-01-10 20:55:55.08	281.93	10.25	
2025-01-10 20:55:55.28	281.97	10.25	
2025-01-10 20:55:55.48	282.01	10.25	
2025-01-10 20:55:55.69	282.05	10.25	
2025-01-10 20:55:55.89	282.09	10.25	
2025-01-10 20:55:56.10	282.14	10.25	
2025-01-10 20:55:56.30	282.18	10.25	
2025-01-10 20:55:56.51	282.22	10.25	
2025-01-10 20:55:56.71	282.26	10.25	
2025-01-10 20:55:56.91	282.31	10.25	
2025-01-10 20:55:57.12	282.35	10.25	
2025-01-10 20:55:57.32	282.39	10.25	
2025-01-10 20:55:57.53	282.43	10.25	
2025-01-10 20:55:57.73	282.48	10.25	
2025-01-10 20:55:57.94	282.52	10.25	
2025-01-10 20:55:58.14	282.56	10.25	
2025-01-10 20:55:58.35	282.60	10.25	
2025-01-10 20:55:58.55	282.64	10.25	
2025-01-10 20:55:58.76	282.69	10.25	
2025-01-10 20:55:58.98	282.73	10.25	
2025-01-10 20:55:59.18	282.77	10.25	
2025-01-10 20:55:59.39	282.82	10.25	
2025-01-10 20:55:59.59	282.86	10.25	
2025-01-10 20:55:59.80	282.90	10.25	
2025-01-10 20:56:00.01	282.95	10.25	
2025-01-10 20:56:00.22	282.99	10.25	
2025-01-10 20:56:00.42	283.03	10.25	
2025-01-10 20:56:00.63	283.07	10.25	
2025-01-10 20:56:00.84	283.12	10.25	
2025-01-10 20:56:01.04	283.16	10.25	
2025-01-10 20:56:01.24	283.20	10.25	
2025-01-10 20:56:01.45	283.24	10.25	
2025-01-10 20:56:01.65	283.29	10.25	
2025-01-10 20:56:01.86	283.33	10.25	
2025-01-10 20:56:02.06	283.37	10.25	
2025-01-10 20:56:02.27	283.41	10.25	
2025-01-10 20:56:02.48	283.46	10.25	
2025-01-10 20:56:02.68	283.50	10.25	
2025-01-10 20:56:02.89	283.54	10.25	
2025-01-10 20:56:03.09	283.58	10.24	
2025-01-10 20:56:03.30	283.63	10.24	
2025-01-10 20:56:03.50	283.67	10.24	
2025-01-10 20:56:03.71	283.71	10.24	
2025-01-10 20:56:03.91	283.75	10.24	
2025-01-10 20:56:04.12	283.80	10.24	
2025-01-10 20:56:04.32	283.84	10.24	
2025-01-10 20:56:04.53	283.88	10.24	
2025-01-10 20:56:04.74	283.92	10.24	
2025-01-10 20:56:04.94	283.96	10.24	
2025-01-10 20:56:05.15	284.01	10.24	
2025-01-10 20:56:05.35	284.05	10.24	
2025-01-10 20:56:05.56	284.09	10.24	
2025-01-10 20:56:05.76	284.13	10.24	
2025-01-10 20:56:05.97	284.18	10.24	
2025-01-10 20:56:06.17	284.22	10.24	
2025-01-10 20:56:06.39	284.26	10.24	
2025-01-10 20:56:06.60	284.31	10.24	
2025-01-10 20:56:06.80	284.35	10.24	
2025-01-10 20:56:07.01	284.39	10.24	
2025-01-10 20:56:07.21	284.43	10.23	
2025-01-10 20:56:07.42	284.48	10.23	
2025-01-10 20:56:07.62	284.52	10.23	
2025-01-10 20:56:07.83	284.56	10.23	
2025-01-10 20:56:08.03	284.60	10.23	
2025-01-10 20:56:08.24	284.65	10.23	
2025-01-10 20:56:08.44	284.69	10.23	
2025-01-10 20:56:08.65	284.73	10.23	
2025-01-10 20:56:08.86	284.77	10.23	
2025-01-10 20:56:09.06	284.82	10.23	
2025-01-10 20:56:09.28	284.86	10.23	
2025-01-10 20:56:09.48	284.90	10.23	
2025-01-10 20:56:09.68	284.94	10.23	
2025-01-10 20:56:09.89	284.99	10.23	
2025-01-10 20:56:10.09	285.03	10.22	
2025-01-10 20:56:10.30	285.07	10.22	
2025-01-10 20:56:10.51	285.11	10.22	
2025-01-10 20:56:10.72	285.16	10.22	
2025-01-10 20:56:10.93	285.20	10.22	
2025-01-10 20:56:11.14	285.24	10.22	
2025-01-10 20:56:11.34	285.29	10.22	
2025-01-10 20:56:11.55	285.33	10.22	
2025-01-10 20:56:11.76	285.37	10.22	
2025-01-10 20:56:11.97	285.42	10.22	
2025-01-10 20:56:12.18	285.46	10.22	
2025-01-10 20:56:12.38	285.50	10.21	
2025-01-10 20:56:12.59	285.54	10.21	
2025-01-10 20:56:12.79	285.58	10.21	
2025-01-10 20:56:13.00	285.63	10.21	
2025-01-10 20:56:13.20	285.67	10.21	
2025-01-10 20:56:13.40	285.71	10.21	
2025-01-10 20:56:13.61	285.75	10.21	
2025-01-10 20:56:13.81	285.79	10.21	
2025-01-10 20:56:14.02	285.84	10.21	
2025-01-10 20:56:14.22	285.88	10.21	
2025-01-10 20:56:14.43	285.92	10.20	
2025-01-10 20:56:14.63	285.96	10.20	
2025-01-10 20:56:14.84	286.01	10.20	
2025-01-10 20:56:15.04	286.05	10.20	
2025-01-10 20:56:15.25	286.09	10.20	
2025-01-10 20:56:15.46	286.13	10.20	
2025-01-10 20:56:15.66	286.18	10.20	
2025-01-10 20:56:15.86	286.22	10.20	
2025-01-10 20:56:16.08	286.26	10.20	
2025-01-10 20:56:16.29	286.31	10.19	
2025-01-10 20:56:16.49	286.35	10.19	
2025-01-10 20:56:16.70	286.39	10.19	
2025-01-10 20:56:16.90	286.43	10.19	
2025-01-10 20:56:17.11	286.47	10.19	
2025-01-10 20:56:17.31	286.52	10.19	
2025-01-10 20:56:17.52	286.56	10.19	
2025-01-10 20:56:17.72	286.60	10.19	
2025-01-10 20:56:17.93	286.64	10.18	
2025-01-10 20:56:18.13	286.68	10.18	
2025-01-10 20:56:18.34	286.73	10.18	
2025-01-10 20:56:18.55	286.77	10.18	
2025-01-10 20:56:18.75	286.81	10.18	
2025-01-10 20:56:18.96	286.85	10.18	
2025-01-10 20:56:19.16	286.90	10.18	
2025-01-10 20:56:19.37	286.94	10.17	
2025-01-10 20:56:19.57	286.98	10.17	
2025-01-10 20:56:19.78	287.02	10.17	
2025-01-10 20:56:19.98	287.06	10.17	
2025-01-10 20:56:20.19	287.11	10.17	
2025-01-10 20:56:20.39	287.15	10.17	
2025-01-10 20:56:20.60	287.19	10.17	
2025-01-10 20:56:20.80	287.23	10.16	
2025-01-10 20:56:21.01	287.28	10.16	
2025-01-10 20:56:21.21	287.32	10.16	
2025-01-10 20:56:21.41	287.36	10.16	
2025-01-10 20:56:21.62	287.40	10.16	
2025-01-10 20:56:21.83	287.44	10.16	
2025-01-10 20:56:22.03	287.48	10.16	
2025-01-10 20:56:22.24	287.53	10.15	
2025-01-10 20:56:22.44	287.57	10.15	
2025-01-10 20:56:22.65	287.61	10.15	
2025-01-10 20:56:22.85	287.65	10.15	
2025-01-10 20:56:23.06	287.70	10.15	
2025-01-10 20:56:23.26	287.74	10.15	
2025-01-10 20:56:23.47	287.78	10.14	
2025-01-10 20:56:23.67	287.82	10.14	
2025-01-10 20:56:23.88	287.86	10.14	
2025-01-10 20:56:24.08	287.90	10.14	
2025-01-10 20:56:24.29	287.95	10.14	
2025-01-10 20:56:24.49	287.99	10.14	
2025-01-10 20:56:24.70	288.03	10.13	
2025-01-10 20:56:24.91	288.07	10.13	
2025-01-10 20:56:25.11	288.12	10.13	
2025-01-10 20:56:25.32	288.16	10.13	
2025-01-10 20:56:25.52	288.20	10.13	
2025-01-10 20:56:25.73	288.24	10.12	
2025-01-10 20:56:25.93	288.28	10.12	
2025-01-10 20:56:26.14	288.33	10.12	
2025-01-10 20:56:26.34	288.37	10.12	
2025-01-10 20:56:26.55	288.41	10.12	
2025-01-10 20:56:26.75	288.45	10.12	
2025-01-10 20:56:26.96	288.49	10.11	
2025-01-10 20:56:27.17	288.54	10.11	
2025-01-10 20:56:27.37	288.58	10.11	
2025-01-10 20:56:27.58	288.62	10.11	
2025-01-10 20:56:27.78	288.66	10.11	
2025-01-10 20:56:27.99	288.71	10.10	
2025-01-10 20:56:28.19	288.75	10.10	
2025-01-10 20:56:28.40	288.79	10.10	
2025-01-10 20:56:28.60	288.83	10.10	
2025-01-10 20:56:28.81	288.87	10.10	
2025-01-10 20:56:29.01	288.91	10.09	
2025-01-10 20:56:29.23	288.96	10.09	
2025-01-10 20:56:29.44	289.00	10.09	
2025-01-10 20:56:29.64	289.04	10.09	
2025-01-10 20:56:29.85	289.09	10.09	
2025-01-10 20:56:30.05	289.13	10.08	
2025-01-10 20:56:30.26	289.17	10.08	
2025-01-10 20:56:30.46	289.21	10.08	
2025-01-10 20:56:30.67	289.25	10.08	
2025-01-10 20:56:30.87	289.29	10.08	
2025-01-10 20:56:31.08	289.34	10.07	
2025-01-10 20:56:31.28	289.38	10.07	
2025-01-10 20:56:31.49	289.42	10.07	
2025-01-10 20:56:31.69	289.46	10.07	
2025-01-10 20:56:31.89	289.50	10.07	
2025-01-10 20:56:32.10	289.54	10.06	
2025-01-10 20:56:32.30	289.58	10.06	
2025-01-10 20:56:32.51	289.63	10.06	
2025-01-10 20:56:32.71	289.67	10.06	
2025-01-10 20:56:32.92	289.71	10.05	
2025-01-10 20:56:33.12	289.75	10.05	
2025-01-10 20:56:33.33	289.79	10.05	
2025-01-10 20:56:33.53	289.84	10.05	
2025-01-10 20:56:33.74	289.88	10.05	
2025-01-10 20:56:33.94	289.92	10.04	
2025-01-10 20:56:34.15	289.96	10.04	
2025-01-10 20:56:34.35	290.00	10.04	
2025-01-10 20:56:34.56	290.04	10.04	
2025-01-10 20:56:34.76	290.09	10.03	
2025-01-10 20:56:34.97	290.13	10.03	
2025-01-10 20:56:35.17	290.17	10.03	
2025-01-10 20:56:35.38	290.21	10.03	
2025-01-10 20:56:35.59	290.25	10.02	
2025-01-10 20:56:35.79	290.29	10.02	
2025-01-10 20:56:36.00	290.34	10.02	
2025-01-10 20:56:36.20	290.38	10.02	
2025-01-10 20:56:36.41	290.42	10.01	
2025-01-10 20:56:36.61	290.46	10.01	
2025-01-10 20:56:36.82	290.50	10.01	
2025-01-10 20:56:37.02	290.54	10.01	
2025-01-10 20:56:37.22	290.58	10.00	
2025-01-10 20:56:37.43	290.63	10.00	
2025-01-10 20:56:37.63	290.67	10.00	
2025-01-10 20:56:37.84	290.71	10.00	
2025-01-10 20:56:38.04	290.75	9.99	
2025-01-10 20:56:38.25	290.79	9.99	
2025-01-10 20:56:38.45	290.83	9.99	
2025-01-10 20:56:38.66	290.88	9.99	
2025-01-10 20:56:38.86	290.92	9.98	
2025-01-10 20:56:39.07	290.96	9.98	
2025-01-10 20:56:39.28	291.00	9.98	
2025-01-10 20:56:39.48	291.04	9.98	
2025-01-10 20:56:39.68	291.08	9.97	
2025-01-10 20:56:39.89	291.13	9.97	
2025-01-10 20:56:40.09	291.17	9.97	
2025-01-10 20:56:40.30	291.21	9.97	
2025-01-10 20:56:40.50	291.25	9.96	
2025-01-10 20:56:40.71	291.29	9.96	
2025-01-10 20:56:40.91	291.33	9.96	
2025-01-10 20:56:41.11	291.37	9.95	
2025-01-10 20:56:41.32	291.42	9.95	
2025-01-10 20:56:41.53	291.46	9.95	
2025-01-10 20:56:41.73	291.50	9.95	
2025-01-10 20:56:41.94	291.54	9.94	
2025-01-10 20:56:42.14	291.58	9.94	
2025-01-10 20:56:42.35	291.62	9.94	
2025-01-10 20:56:42.56	291.67	9.94	
2025-01-10 20:56:42.76	291.71	9.93	
2025-01-10 20:56:42.97	291.75	9.93	
2025-01-10 20:56:43.17	291.79	9.93	
2025-01-10 20:56:43.38	291.83	9.92	
2025-01-10 20:56:43.58	291.87	9.92	
2025-01-10 20:56:43.80	291.92	9.92	
2025-01-10 20:56:44.01	291.96	9.91	
2025-01-10 20:56:44.21	292.00	9.91	
2025-01-10 20:56:44.42	292.04	9.91	
2025-01-10 20:56:44.62	292.08	9.91	
2025-01-10 20:56:44.83	292.12	9.90	
2025-01-10 20:56:45.03	292.16	9.90	
2025-01-10 20:56:45.24	292.21	9.90	
2025-01-10 20:56:45.45	292.25	9.89	
2025-01-10 20:56:45.65	292.29	9.89	
2025-01-10 20:56:45.85	292.33	9.89	
2025-01-10 20:56:46.06	292.37	9.89	
2025-01-10 20:56:46.27	292.41	9.88	
2025-01-10 20:56:46.47	292.45	9.88	
2025-01-10 20:56:46.68	292.50	9.88	
2025-01-10 20:56:46.88	292.54	9.87	
2025-01-10 20:56:47.09	292.58	9.87	
2025-01-10 20:56:47.29	292.62	9.87	
2025-01-10 20:56:47.50	292.66	9.86	
2025-01-10 20:56:47.70	292.70	9.86	
2025-01-10 20:56:47.91	292.74	9.86	
2025-01-10 20:56:48.11	292.78	9.85	
2025-01-10 20:56:48.32	292.82	9.85	
2025-01-10 20:56:48.52	292.86	9.85	
2025-01-10 20:56:48.73	292.91	9.84	
2025-01-10 20:56:48.94	292.95	9.84	
2025-01-10 20:56:49.15	292.99	9.84	
2025-01-10 20:56:49.36	293.03	9.84	
2025-01-10 20:56:49.56	293.07	9.83	
2025-01-10 20:56:49.77	293.12	9.83	
2025-01-10 20:56:49.99	293.16	9.83	
2025-01-10 20:56:50.20	293.20	9.82	
2025-01-10 20:56:50.41	293.24	9.82	
2025-01-10 20:56:50.61	293.28	9.82	
2025-01-10 20:56:50.82	293.33	9.81	
2025-01-10 20:56:51.02	293.37	9.81	
2025-01-10 20:56:51.24	293.41	9.81	
2025-01-10 20:56:51.45	293.45	9.80	
2025-01-10 20:56:51.65	293.49	9.80	
2025-01-10 20:56:51.86	293.53	9.80	
2025-01-10 20:56:52.06	293.57	9.79	
2025-01-10 20:56:52.27	293.62	9.79	
2025-01-10 20:56:52.47	293.66	9.79	
2025-01-10 20:56:52.68	293.70	9.78	
2025-01-10 20:56:52.88	293.74	9.78	
2025-01-10 20:56:53.09	293.78	9.77	
2025-01-10 20:56:53.29	293.82	9.77	
2025-01-10 20:56:53.50	293.86	9.77	
2025-01-10 20:56:53.70	293.90	9.76	
2025-01-10 20:56:53.91	293.94	9.76	
2025-01-10 20:56:54.12	293.98	9.76	
2025-01-10 20:56:54.32	294.02	9.75	
2025-01-10 20:56:54.52	294.06	9.75	
2025-01-10 20:56:54.73	294.11	9.75	
2025-01-10 20:56:54.94	294.15	9.74	
2025-01-10 20:56:55.14	294.19	9.74	
2025-01-10 20:56:55.35	294.23	9.74	
2025-01-10 20:56:55.55	294.27	9.73	
2025-01-10 20:56:55.75	294.31	9.73	
2025-01-10 20:56:55.96	294.35	9.73	
2025-01-10 20:56:56.17	294.39	9.72	
2025-01-10 20:56:56.37	294.43	9.72	
2025-01-10 20:56:56.58	294.47	9.71	
2025-01-10 20:56:56.78	294.51	9.71	
2025-01-10 20:56:56.99	294.56	9.71	
2025-01-10 20:56:57.19	294.59	9.70	
2025-01-10 20:56:57.40	294.64	9.70	
2025-01-10 20:56:57.60	294.68	9.70	
2025-01-10 20:56:57.81	294.72	9.69	
2025-01-10 20:56:58.01	294.76	9.69	
2025-01-10 20:56:58.22	294.80	9.69	
2025-01-10 20:56:58.42	294.84	9.68	
2025-01-10 20:56:58.63	294.88	9.68	
2025-01-10 20:56:58.83	294.92	9.67	
2025-01-10 20:56:59.04	294.96	9.67	
2025-01-10 20:56:59.25	295.00	9.67	
2025-01-10 20:56:59.45	295.04	9.66	
2025-01-10 20:56:59.65	295.08	9.66	
2025-01-10 20:56:59.86	295.12	9.66	
2025-01-10 20:57:00.06	295.16	9.65	
2025-01-10 20:57:00.27	295.20	9.65	
2025-01-10 20:57:00.47	295.24	9.64	
2025-01-10 20:57:00.68	295.29	9.64	
2025-01-10 20:57:00.88	295.33	9.64	
2025-01-10 20:57:01.09	295.37	9.63	
2025-01-10 20:57:01.29	295.41	9.63	
2025-01-10 20:57:01.50	295.45	9.62	
2025-01-10 20:57:01.70	295.49	9.62	
2025-01-10 20:57:01.92	295.53	9.62	
2025-01-10 20:57:02.13	295.57	9.61	
2025-01-10 20:57:02.33	295.61	9.61	
2025-01-10 20:57:02.54	295.65	9.60	
2025-01-10 20:57:02.74	295.69	9.60	
2025-01-10 20:57:02.95	295.73	9.60	
2025-01-10 20:57:03.16	295.77	9.59	
2025-01-10 20:57:03.36	295.81	9.59	
2025-01-10 20:57:03.57	295.86	9.58	
2025-01-10 20:57:03.77	295.89	9.58	
2025-01-10 20:57:03.99	295.94	9.58	
2025-01-10 20:57:04.20	295.98	9.57	
2025-01-10 20:57:04.40	296.02	9.57	
2025-01-10 20:57:04.61	296.06	9.56	
2025-01-10 20:57:04.81	296.10	9.56	
2025-01-10 20:57:05.02	296.14	9.56	
2025-01-10 20:57:05.22	296.18	9.55	
2025-01-10 20:57:05.43	296.22	9.55	
2025-01-10 20:57:05.63	296.26	9.54	
2025-01-10 20:57:05.84	296.30	9.54	
2025-01-10 20:57:06.05	296.34	9.54	
2025-01-10 20:57:06.25	296.38	9.53	
2025-01-10 20:57:06.45	296.42	9.53	
2025-01-10 20:57:06.66	296.46	9.52	
2025-01-10 20:57:06.86	296.50	9.52	
2025-01-10 20:57:07.07	296.54	9.51	
2025-01-10 20:57:07.29	296.59	9.51	
2025-01-10 20:57:07.49	296.62	9.51	
2025-01-10 20:57:07.70	296.67	9.50	
2025-01-10 20:57:07.90	296.70	9.50	
2025-01-10 20:57:08.11	296.75	9.49	
2025-01-10 20:57:08.31	296.78	9.49	
2025-01-10 20:57:08.52	296.83	9.48	
2025-01-10 20:57:08.72	296.86	9.48	
2025-01-10 20:57:08.93	296.91	9.48	
2025-01-10 20:57:09.13	296.94	9.47	
2025-01-10 20:57:09.34	296.99	9.47	
2025-01-10 20:57:09.54	297.02	9.46	
2025-01-10 20:57:09.75	297.07	9.46	
2025-01-10 20:57:09.95	297.10	9.45	
2025-01-10 20:57:10.16	297.15	9.45	
2025-01-10 20:57:10.36	297.18	9.45	
2025-01-10 20:57:10.57	297.23	9.44	
2025-01-10 20:57:10.78	297.27	9.44	
2025-01-10 20:57:10.98	297.31	9.43	
2025-01-10 20:57:11.19	297.35	9.43	
2025-01-10 20:57:11.40	297.39	9.42	
2025-01-10 20:57:11.61	297.43	9.42	
2025-01-10 20:57:11.82	297.47	9.41	
2025-01-10 20:57:12.02	297.51	9.41	
2025-01-10 20:57:12.22	297.55	9.41	
2025-01-10 20:57:12.43	297.59	9.40	
2025-01-10 20:57:12.63	297.63	9.40	
2025-01-10 20:57:12.84	297.67	9.39	
2025-01-10 20:57:13.04	297.71	9.39	
2025-01-10 20:57:13.25	297.75	9.38	
2025-01-10 20:57:13.45	297.78	9.38	
2025-01-10 20:57:13.66	297.83	9.37	
2025-01-10 20:57:13.86	297.86	9.37	
2025-01-10 20:57:14.07	297.90	9.37	
2025-01-10 20:57:14.27	297.94	9.36	
2025-01-10 20:57:14.48	297.98	9.36	
2025-01-10 20:57:14.68	298.02	9.35	
2025-01-10 20:57:14.89	298.06	9.35	
2025-01-10 20:57:15.10	298.10	9.34	
2025-01-10 20:57:15.30	298.14	9.34	
2025-01-10 20:57:15.51	298.18	9.33	
2025-01-10 20:57:15.71	298.22	9.33	
2025-01-10 20:57:15.92	298.26	9.32	
2025-01-10 20:57:16.12	298.30	9.32	
2025-01-10 20:57:16.33	298.34	9.31	
2025-01-10 20:57:16.53	298.38	9.31	
2025-01-10 20:57:16.74	298.42	9.31	
2025-01-10 20:57:16.94	298.46	9.30	
2025-01-10 20:57:17.15	298.50	9.30	
2025-01-10 20:57:17.35	298.54	9.29	
2025-01-10 20:57:17.56	298.58	9.29	
2025-01-10 20:57:17.76	298.62	9.28	
2025-01-10 20:57:17.97	298.66	9.28	
2025-01-10 20:57:18.17	298.70	9.27	
2025-01-10 20:57:18.38	298.74	9.27	
2025-01-10 20:57:18.59	298.78	9.26	
2025-01-10 20:57:18.79	298.82	9.26	
2025-01-10 20:57:18.99	298.85	9.25	
2025-01-10 20:57:19.20	298.89	9.25	
2025-01-10 20:57:19.40	298.93	9.24	
2025-01-10 20:57:19.61	298.97	9.24	
2025-01-10 20:57:19.82	299.01	9.23	
2025-01-10 20:57:20.02	299.05	9.23	
2025-01-10 20:57:20.23	299.09	9.22	
2025-01-10 20:57:20.43	299.13	9.22	
2025-01-10 20:57:20.64	299.17	9.21	
2025-01-10 20:57:20.84	299.21	9.21	
2025-01-10 20:57:21.04	299.25	9.20	
2025-01-10 20:57:21.25	299.29	9.20	
2025-01-10 20:57:21.46	299.33	9.19	
2025-01-10 20:57:21.66	299.36	9.19	
2025-01-10 20:57:21.86	299.40	9.18	
2025-01-10 20:57:22.07	299.44	9.18	
2025-01-10 20:57:22.27	299.48	9.18	
2025-01-10 20:57:22.48	299.52	9.17	
2025-01-10 20:57:22.68	299.56	9.17	
2025-01-10 20:57:22.89	299.60	9.16	
2025-01-10 20:57:23.09	299.64	9.16	
2025-01-10 20:57:23.30	299.68	9.15	
2025-01-10 20:57:23.50	299.72	9.15	
2025-01-10 20:57:23.71	299.76	9.14	
2025-01-10 20:57:23.91	299.79	9.14	
2025-01-10 20:57:24.12	299.83	9.13	
2025-01-10 20:57:24.34	299.88	9.12	
2025-01-10 20:57:24.54	299.91	9.12	
2025-01-10 20:57:24.75	299.95	9.11	
2025-01-10 20:57:24.95	299.99	9.11	
2025-01-10 20:57:25.16	300.03	9.10	
2025-01-10 20:57:25.36	300.07	9.10	
2025-01-10 20:57:25.57	300.11	9.09	
2025-01-10 20:57:25.77	300.15	9.09	
2025-01-10 20:57:25.98	300.19	9.08	
2025-01-10 20:57:26.19	300.23	9.08	
2025-01-10 20:57:26.40	300.27	9.07	
2025-01-10 20:57:26.61	300.31	9.07	
2025-01-10 20:57:26.82	300.35	9.06	
2025-01-10 20:57:27.02	300.38	9.06	
2025-01-10 20:57:27.22	300.42	9.05	
2025-01-10 20:57:27.43	300.46	9.05	
2025-01-10 20:57:27.63	300.50	9.04	
2025-01-10 20:57:27.84	300.54	9.04	
2025-01-10 20:57:28.04	300.58	9.03	
2025-01-10 20:57:28.25	300.62	9.03	
2025-01-10 20:57:28.45	300.65	9.02	
2025-01-10 20:57:28.66	300.69	9.02	
2025-01-10 20:57:28.86	300.73	9.01	
2025-01-10 20:57:29.07	300.77	9.01	
2025-01-10 20:57:29.27	300.81	9.00	
2025-01-10 20:57:29.48	300.85	8.99	
2025-01-10 20:57:29.68	300.89	8.99	
2025-01-10 20:57:29.89	300.93	8.98	
2025-01-10 20:57:30.09	300.96	8.98	
2025-01-10 20:57:30.30	301.00	8.97	
2025-01-10 20:57:30.51	301.04	8.97	
2025-01-10 20:57:30.72	301.08	8.96	
2025-01-10 20:57:30.93	301.12	8.96	
2025-01-10 20:57:31.14	301.16	8.95	
2025-01-10 20:57:31.34	301.20	8.95	
2025-01-10 20:57:31.55	301.24	8.94	
2025-01-10 20:57:31.75	301.28	8.94	
2025-01-10 20:57:31.96	301.32	8.93	
2025-01-10 20:57:32.16	301.35	8.92	
2025-01-10 20:57:32.37	301.39	8.92	
2025-01-10 20:57:32.58	301.43	8.91	
2025-01-10 20:57:32.79	301.47	8.91	
2025-01-10 20:57:33.00	301.51	8.90	
2025-01-10 20:57:33.20	301.55	8.90	
2025-01-10 20:57:33.41	301.59	8.89	
2025-01-10 20:57:33.61	301.62	8.89	
2025-01-10 20:57:33.82	301.66	8.88	
2025-01-10 20:57:34.02	301.70	8.87	
2025-01-10 20:57:34.23	301.74	8.87	
2025-01-10 20:57:34.43	301.78	8.86	
2025-01-10 20:57:34.64	301.82	8.86	
2025-01-10 20:57:34.84	301.85	8.85	
2025-01-10 20:57:35.05	301.89	8.85	
2025-01-10 20:57:35.25	301.93	8.84	
2025-01-10 20:57:35.46	301.97	8.84	
2025-01-10 20:57:35.66	302.01	8.83	
2025-01-10 20:57:35.87	302.05	8.82	
2025-01-10 20:57:36.07	302.08	8.82	
2025-01-10 20:57:36.28	302.12	8.81	
2025-01-10 20:57:36.48	302.16	8.81	
2025-01-10 20:57:36.69	302.20	8.80	
2025-01-10 20:57:36.89	302.24	8.80	
2025-01-10 20:57:37.11	302.28	8.79	
2025-01-10 20:57:37.32	302.32	8.79	
2025-01-10 20:57:37.52	302.35	8.78	
2025-01-10 20:57:37.73	302.39	8.77	
2025-01-10 20:57:37.94	302.43	8.77	
2025-01-10 20:57:38.16	302.47	8.76	
2025-01-10 20:57:38.36	302.51	8.76	
2025-01-10 20:57:38.57	302.55	8.75	
2025-01-10 20:57:38.77	302.58	8.74	
2025-01-10 20:57:38.98	302.62	8.74	
2025-01-10 20:57:39.18	302.66	8.73	
2025-01-10 20:57:39.39	302.70	8.73	
2025-01-10 20:57:39.59	302.74	8.72	
2025-01-10 20:57:39.80	302.77	8.72	
2025-01-10 20:57:40.00	302.81	8.71	
2025-01-10 20:57:40.21	302.85	8.70	
2025-01-10 20:57:40.41	302.89	8.70	
2025-01-10 20:57:40.62	302.93	8.69	
2025-01-10 20:57:40.82	302.96	8.69	
2025-01-10 20:57:41.03	303.00	8.68	
2025-01-10 20:57:41.23	303.04	8.68	
2025-01-10 20:57:41.44	303.08	8.67	
2025-01-10 20:57:41.64	303.11	8.66	
2025-01-10 20:57:41.85	303.15	8.66	
2025-01-10 20:57:42.06	303.19	8.65	
2025-01-10 20:57:42.26	303.23	8.65	
2025-01-10 20:57:42.46	303.26	8.64	
2025-01-10 20:57:42.67	303.30	8.63	
2025-01-10 20:57:42.88	303.34	8.63	
2025-01-10 20:57:43.08	303.38	8.62	
2025-01-10 20:57:43.29	303.42	8.62	
2025-01-10 20:57:43.49	303.45	8.61	
2025-01-10 20:57:43.70	303.49	8.61	
2025-01-10 20:57:43.90	303.53	8.60	
2025-01-10 20:57:44.11	303.57	8.59	
2025-01-10 20:57:44.32	303.60	8.59	
2025-01-10 20:57:44.52	303.64	8.58	
2025-01-10 20:57:44.72	303.68	8.58	
2025-01-10 20:57:44.93	303.72	8.57	
2025-01-10 20:57:45.13	303.75	8.56	
2025-01-10 20:57:45.34	303.79	8.56	
2025-01-10 20:57:45.54	303.83	8.55	
2025-01-10 20:57:45.75	303.87	8.55	
2025-01-10 20:57:45.95	303.90	8.54	
2025-01-10 20:57:46.16	303.94	8.53	
2025-01-10 20:57:46.37	303.98	8.53	
2025-01-10 20:57:46.57	304.02	8.52	
2025-01-10 20:57:46.78	304.05	8.52	
2025-01-10 20:57:46.98	304.09	8.51	
2025-01-10 20:57:47.19	304.13	8.50	
2025-01-10 20:57:47.39	304.16	8.50	
2025-01-10 20:57:47.60	304.20	8.49	
2025-01-10 20:57:47.80	304.24	8.48	
2025-01-10 20:57:48.01	304.28	8.48	
2025-01-10 20:57:48.21	304.31	8.47	
2025-01-10 20:57:48.42	304.35	8.47	
