passes_logs/2025/01/10/SPB_Silybum_02/SPB_Silybum_02__20250110_232029_AQUA_rec.log

#Pass ID: 20250110_232029_AQUA
#Satellite: AQUA
#Configuration: AQUA
#Start time: 2025-01-10 23:20:29

#Version: 2.0.20230423
#Station: SPB_Silybum_02
#Location: 30.233357 lon 59.946436 lat
#TLE: 1 27424U 02022A   25010.14776733  .00002050  00000+0  43097-3 0  9993
#TLE: 2 27424  98.3581 326.7682 0001515 116.0773 333.4276 14.60663937206917

#Time	Az	El	Level	Level2	SNR	BER	Gain	Gain2
2025-01-10 23:20:31.62	33.12	4.10	
2025-01-10 23:20:31.83	33.14	4.11	
2025-01-10 23:20:32.03	33.17	4.12	
2025-01-10 23:20:32.24	33.19	4.13	
2025-01-10 23:20:32.44	33.21	4.14	
2025-01-10 23:20:32.65	33.24	4.16	
2025-01-10 23:20:32.85	33.26	4.17	
2025-01-10 23:20:33.06	33.29	4.18	
2025-01-10 23:20:33.26	33.31	4.19	
2025-01-10 23:20:33.47	33.33	4.20	
2025-01-10 23:20:33.67	33.36	4.21	
2025-01-10 23:20:33.88	33.38	4.22	
2025-01-10 23:20:34.08	33.40	4.23	
2025-01-10 23:20:34.29	33.43	4.24	
2025-01-10 23:20:34.49	33.45	4.25	
2025-01-10 23:20:34.70	33.48	4.26	
2025-01-10 23:20:34.90	33.50	4.27	
2025-01-10 23:20:35.11	33.52	4.28	
2025-01-10 23:20:35.31	33.55	4.29	
2025-01-10 23:20:35.52	33.57	4.30	
2025-01-10 23:20:35.72	33.60	4.31	
2025-01-10 23:20:35.93	33.62	4.32	
2025-01-10 23:20:36.13	33.64	4.33	
2025-01-10 23:20:36.34	33.67	4.34	
2025-01-10 23:20:36.55	33.69	4.35	
2025-01-10 23:20:36.75	33.72	4.36	
2025-01-10 23:20:36.95	33.74	4.37	
2025-01-10 23:20:37.16	33.76	4.39	
2025-01-10 23:20:37.36	33.79	4.40	
2025-01-10 23:20:37.57	33.81	4.41	
2025-01-10 23:20:37.77	33.84	4.42	
2025-01-10 23:20:37.98	33.86	4.43	
2025-01-10 23:20:38.18	33.88	4.44	
2025-01-10 23:20:38.39	33.91	4.45	
2025-01-10 23:20:38.59	33.93	4.46	
2025-01-10 23:20:38.80	33.96	4.47	
2025-01-10 23:20:39.00	33.98	4.48	
2025-01-10 23:20:39.22	34.01	4.49	
2025-01-10 23:20:39.43	34.03	4.50	
2025-01-10 23:20:39.63	34.06	4.51	
2025-01-10 23:20:39.84	34.08	4.52	
2025-01-10 23:20:40.05	34.11	4.53	
2025-01-10 23:20:40.25	34.13	4.54	
2025-01-10 23:20:40.46	34.15	4.55	
2025-01-10 23:20:40.66	34.18	4.56	
2025-01-10 23:20:40.86	34.20	4.58	
2025-01-10 23:20:41.07	34.23	4.59	
2025-01-10 23:20:41.27	34.25	4.60	
2025-01-10 23:20:41.48	34.28	4.61	
2025-01-10 23:20:41.68	34.30	4.62	
2025-01-10 23:20:41.89	34.33	4.63	
2025-01-10 23:20:42.09	34.35	4.64	
2025-01-10 23:20:42.30	34.37	4.65	
2025-01-10 23:20:42.50	34.40	4.66	
2025-01-10 23:20:42.71	34.42	4.67	
2025-01-10 23:20:42.91	34.45	4.68	
2025-01-10 23:20:43.12	34.47	4.69	
2025-01-10 23:20:43.32	34.50	4.70	
2025-01-10 23:20:43.53	34.52	4.71	
2025-01-10 23:20:43.73	34.55	4.72	
2025-01-10 23:20:43.94	34.57	4.73	
2025-01-10 23:20:44.14	34.60	4.74	
2025-01-10 23:20:44.35	34.62	4.75	
2025-01-10 23:20:44.55	34.64	4.76	
2025-01-10 23:20:44.76	34.67	4.78	
2025-01-10 23:20:44.96	34.69	4.79	
2025-01-10 23:20:45.17	34.72	4.80	
2025-01-10 23:20:45.37	34.74	4.81	
2025-01-10 23:20:45.58	34.77	4.82	
2025-01-10 23:20:45.78	34.79	4.83	
2025-01-10 23:20:45.99	34.82	4.84	
2025-01-10 23:20:46.19	34.84	4.85	
2025-01-10 23:20:46.40	34.87	4.86	
2025-01-10 23:20:46.60	34.89	4.87	
2025-01-10 23:20:46.81	34.92	4.88	
2025-01-10 23:20:47.01	34.94	4.89	
2025-01-10 23:20:47.22	34.97	4.90	
2025-01-10 23:20:47.43	34.99	4.91	
2025-01-10 23:20:47.63	35.02	4.92	
2025-01-10 23:20:47.83	35.04	4.93	
2025-01-10 23:20:48.04	35.07	4.94	
2025-01-10 23:20:48.25	35.09	4.95	
2025-01-10 23:20:48.45	35.12	4.96	
2025-01-10 23:20:48.66	35.14	4.98	
2025-01-10 23:20:48.86	35.17	4.99	
2025-01-10 23:20:49.07	35.19	5.00	
2025-01-10 23:20:49.27	35.22	5.01	
2025-01-10 23:20:49.48	35.25	5.02	
2025-01-10 23:20:49.68	35.27	5.03	
2025-01-10 23:20:49.88	35.29	5.04	
2025-01-10 23:20:50.09	35.32	5.05	
2025-01-10 23:20:50.30	35.35	5.06	
2025-01-10 23:20:50.50	35.37	5.07	
2025-01-10 23:20:50.71	35.40	5.08	
2025-01-10 23:20:50.91	35.42	5.09	
2025-01-10 23:20:51.12	35.45	5.10	
2025-01-10 23:20:51.32	35.47	5.11	
2025-01-10 23:20:51.53	35.50	5.12	
2025-01-10 23:20:51.73	35.52	5.13	
2025-01-10 23:20:51.94	35.55	5.14	
2025-01-10 23:20:52.14	35.57	5.15	
2025-01-10 23:20:52.35	35.60	5.16	
2025-01-10 23:20:52.55	35.62	5.18	
2025-01-10 23:20:52.76	35.65	5.19	
2025-01-10 23:20:52.96	35.68	5.20	
2025-01-10 23:20:53.17	35.70	5.21	
2025-01-10 23:20:53.37	35.73	5.22	
2025-01-10 23:20:53.58	35.75	5.23	
2025-01-10 23:20:53.78	35.78	5.24	
2025-01-10 23:20:53.98	35.80	5.25	
2025-01-10 23:20:54.19	35.83	5.26	
2025-01-10 23:20:54.39	35.85	5.27	
2025-01-10 23:20:54.60	35.88	5.28	
2025-01-10 23:20:54.81	35.91	5.29	
2025-01-10 23:20:55.01	35.93	5.30	
2025-01-10 23:20:55.22	35.96	5.31	
2025-01-10 23:20:55.42	35.98	5.32	
2025-01-10 23:20:55.63	36.01	5.33	
2025-01-10 23:20:55.83	36.04	5.34	
2025-01-10 23:20:56.04	36.06	5.35	
2025-01-10 23:20:56.24	36.09	5.36	
2025-01-10 23:20:56.45	36.11	5.38	
2025-01-10 23:20:56.65	36.14	5.39	
2025-01-10 23:20:56.85	36.16	5.40	
2025-01-10 23:20:57.06	36.19	5.41	
2025-01-10 23:20:57.26	36.22	5.42	
2025-01-10 23:20:57.47	36.24	5.43	
2025-01-10 23:20:57.68	36.27	5.44	
2025-01-10 23:20:57.88	36.29	5.45	
2025-01-10 23:20:58.09	36.32	5.46	
2025-01-10 23:20:58.29	36.35	5.47	
2025-01-10 23:20:58.50	36.37	5.48	
2025-01-10 23:20:58.70	36.40	5.49	
2025-01-10 23:20:58.91	36.42	5.50	
2025-01-10 23:20:59.11	36.45	5.51	
2025-01-10 23:20:59.32	36.48	5.52	
2025-01-10 23:20:59.52	36.50	5.53	
2025-01-10 23:20:59.72	36.53	5.54	
2025-01-10 23:20:59.93	36.56	5.55	
2025-01-10 23:21:00.15	36.58	5.57	
2025-01-10 23:21:00.35	36.61	5.58	
2025-01-10 23:21:00.56	36.64	5.59	
2025-01-10 23:21:00.76	36.66	5.60	
2025-01-10 23:21:00.97	36.69	5.61	
2025-01-10 23:21:01.17	36.71	5.62	
2025-01-10 23:21:01.38	36.74	5.63	
2025-01-10 23:21:01.58	36.77	5.64	
2025-01-10 23:21:01.79	36.79	5.65	
2025-01-10 23:21:02.00	36.82	5.66	
2025-01-10 23:21:02.20	36.85	5.67	
2025-01-10 23:21:02.41	36.87	5.68	
2025-01-10 23:21:02.61	36.90	5.69	
2025-01-10 23:21:02.82	36.93	5.70	
2025-01-10 23:21:03.03	36.95	5.71	
2025-01-10 23:21:03.23	36.98	5.72	
2025-01-10 23:21:03.44	37.01	5.73	
2025-01-10 23:21:03.64	37.03	5.75	
2025-01-10 23:21:03.85	37.06	5.76	
2025-01-10 23:21:04.05	37.09	5.77	
2025-01-10 23:21:04.26	37.11	5.78	
2025-01-10 23:21:04.46	37.14	5.79	
2025-01-10 23:21:04.67	37.17	5.80	
2025-01-10 23:21:04.87	37.19	5.81	
2025-01-10 23:21:05.08	37.22	5.82	
2025-01-10 23:21:05.28	37.25	5.83	
2025-01-10 23:21:05.49	37.27	5.84	
2025-01-10 23:21:05.69	37.30	5.85	
2025-01-10 23:21:05.90	37.33	5.86	
2025-01-10 23:21:06.10	37.35	5.87	
2025-01-10 23:21:06.31	37.38	5.88	
2025-01-10 23:21:06.51	37.41	5.89	
2025-01-10 23:21:06.72	37.43	5.90	
2025-01-10 23:21:06.93	37.46	5.91	
2025-01-10 23:21:07.14	37.49	5.93	
2025-01-10 23:21:07.35	37.52	5.94	
2025-01-10 23:21:07.55	37.54	5.95	
2025-01-10 23:21:07.76	37.57	5.96	
2025-01-10 23:21:07.96	37.60	5.97	
2025-01-10 23:21:08.17	37.62	5.98	
2025-01-10 23:21:08.37	37.65	5.99	
2025-01-10 23:21:08.58	37.68	6.00	
2025-01-10 23:21:08.78	37.70	6.01	
2025-01-10 23:21:08.98	37.73	6.02	
2025-01-10 23:21:09.19	37.76	6.03	
2025-01-10 23:21:09.39	37.79	6.04	
2025-01-10 23:21:09.60	37.81	6.05	
2025-01-10 23:21:09.81	37.84	6.06	
2025-01-10 23:21:10.01	37.87	6.07	
2025-01-10 23:21:10.21	37.89	6.08	
2025-01-10 23:21:10.42	37.92	6.09	
2025-01-10 23:21:10.62	37.95	6.10	
2025-01-10 23:21:10.83	37.98	6.11	
2025-01-10 23:21:11.04	38.00	6.13	
2025-01-10 23:21:11.25	38.03	6.14	
2025-01-10 23:21:11.46	38.06	6.15	
2025-01-10 23:21:11.66	38.09	6.16	
2025-01-10 23:21:11.87	38.11	6.17	
2025-01-10 23:21:12.07	38.14	6.18	
2025-01-10 23:21:12.28	38.17	6.19	
2025-01-10 23:21:12.48	38.20	6.20	
2025-01-10 23:21:12.69	38.22	6.21	
2025-01-10 23:21:12.89	38.25	6.22	
2025-01-10 23:21:13.10	38.28	6.23	
2025-01-10 23:21:13.30	38.31	6.24	
2025-01-10 23:21:13.51	38.33	6.25	
2025-01-10 23:21:13.71	38.36	6.26	
2025-01-10 23:21:13.92	38.39	6.27	
2025-01-10 23:21:14.13	38.42	6.28	
2025-01-10 23:21:14.33	38.44	6.29	
2025-01-10 23:21:14.53	38.47	6.30	
2025-01-10 23:21:14.74	38.50	6.32	
2025-01-10 23:21:14.94	38.53	6.33	
2025-01-10 23:21:15.15	38.56	6.34	
2025-01-10 23:21:15.35	38.58	6.35	
2025-01-10 23:21:15.56	38.61	6.36	
2025-01-10 23:21:15.76	38.64	6.37	
2025-01-10 23:21:15.97	38.67	6.38	
2025-01-10 23:21:16.17	38.69	6.39	
2025-01-10 23:21:16.38	38.72	6.40	
2025-01-10 23:21:16.58	38.75	6.41	
2025-01-10 23:21:16.79	38.78	6.42	
2025-01-10 23:21:16.99	38.81	6.43	
2025-01-10 23:21:17.20	38.83	6.44	
2025-01-10 23:21:17.40	38.86	6.45	
2025-01-10 23:21:17.62	38.89	6.46	
2025-01-10 23:21:17.83	38.92	6.47	
2025-01-10 23:21:18.04	38.95	6.49	
2025-01-10 23:21:18.24	38.98	6.50	
2025-01-10 23:21:18.45	39.00	6.51	
2025-01-10 23:21:18.65	39.03	6.52	
2025-01-10 23:21:18.86	39.06	6.53	
2025-01-10 23:21:19.06	39.09	6.54	
2025-01-10 23:21:19.27	39.12	6.55	
2025-01-10 23:21:19.48	39.15	6.56	
2025-01-10 23:21:19.68	39.17	6.57	
2025-01-10 23:21:19.88	39.20	6.58	
2025-01-10 23:21:20.09	39.23	6.59	
2025-01-10 23:21:20.29	39.26	6.60	
2025-01-10 23:21:20.50	39.29	6.61	
2025-01-10 23:21:20.70	39.31	6.62	
2025-01-10 23:21:20.91	39.34	6.63	
2025-01-10 23:21:21.11	39.37	6.64	
2025-01-10 23:21:21.32	39.40	6.65	
2025-01-10 23:21:21.52	39.43	6.66	
2025-01-10 23:21:21.73	39.46	6.67	
2025-01-10 23:21:21.93	39.48	6.68	
2025-01-10 23:21:22.14	39.51	6.70	
2025-01-10 23:21:22.34	39.54	6.71	
2025-01-10 23:21:22.55	39.57	6.72	
2025-01-10 23:21:22.75	39.60	6.73	
2025-01-10 23:21:22.96	39.63	6.74	
2025-01-10 23:21:23.16	39.65	6.75	
2025-01-10 23:21:23.37	39.68	6.76	
2025-01-10 23:21:23.57	39.71	6.77	
2025-01-10 23:21:23.78	39.74	6.78	
2025-01-10 23:21:23.98	39.77	6.79	
2025-01-10 23:21:24.19	39.80	6.80	
2025-01-10 23:21:24.39	39.83	6.81	
2025-01-10 23:21:24.60	39.86	6.82	
2025-01-10 23:21:24.80	39.88	6.83	
2025-01-10 23:21:25.01	39.91	6.84	
2025-01-10 23:21:25.21	39.94	6.85	
2025-01-10 23:21:25.42	39.97	6.86	
2025-01-10 23:21:25.63	40.00	6.87	
2025-01-10 23:21:25.83	40.03	6.88	
2025-01-10 23:21:26.04	40.06	6.89	
2025-01-10 23:21:26.24	40.09	6.91	
2025-01-10 23:21:26.44	40.11	6.92	
2025-01-10 23:21:26.65	40.14	6.93	
2025-01-10 23:21:26.86	40.17	6.94	
2025-01-10 23:21:27.06	40.20	6.95	
2025-01-10 23:21:27.26	40.23	6.96	
2025-01-10 23:21:27.47	40.26	6.97	
2025-01-10 23:21:27.68	40.29	6.98	
2025-01-10 23:21:27.88	40.32	6.99	
2025-01-10 23:21:28.09	40.35	7.00	
2025-01-10 23:21:28.29	40.38	7.01	
2025-01-10 23:21:28.49	40.40	7.02	
2025-01-10 23:21:28.70	40.43	7.03	
2025-01-10 23:21:28.91	40.46	7.04	
2025-01-10 23:21:29.11	40.49	7.05	
2025-01-10 23:21:29.32	40.52	7.06	
2025-01-10 23:21:29.52	40.55	7.07	
2025-01-10 23:21:29.73	40.58	7.08	
2025-01-10 23:21:29.93	40.61	7.09	
2025-01-10 23:21:30.14	40.64	7.10	
2025-01-10 23:21:30.34	40.67	7.11	
2025-01-10 23:21:30.55	40.70	7.13	
2025-01-10 23:21:30.77	40.73	7.14	
2025-01-10 23:21:30.97	40.76	7.15	
2025-01-10 23:21:31.18	40.79	7.16	
2025-01-10 23:21:31.38	40.82	7.17	
2025-01-10 23:21:31.59	40.85	7.18	
2025-01-10 23:21:31.79	40.88	7.19	
2025-01-10 23:21:32.00	40.91	7.20	
2025-01-10 23:21:32.21	40.94	7.21	
2025-01-10 23:21:32.41	40.96	7.22	
2025-01-10 23:21:32.61	40.99	7.23	
2025-01-10 23:21:32.82	41.02	7.24	
2025-01-10 23:21:33.02	41.05	7.25	
2025-01-10 23:21:33.23	41.08	7.26	
2025-01-10 23:21:33.43	41.11	7.27	
2025-01-10 23:21:33.64	41.14	7.28	
2025-01-10 23:21:33.84	41.17	7.29	
2025-01-10 23:21:34.05	41.20	7.30	
2025-01-10 23:21:34.25	41.23	7.31	
2025-01-10 23:21:34.46	41.26	7.32	
2025-01-10 23:21:34.67	41.29	7.34	
2025-01-10 23:21:34.88	41.32	7.35	
2025-01-10 23:21:35.09	41.35	7.36	
2025-01-10 23:21:35.29	41.38	7.37	
2025-01-10 23:21:35.49	41.41	7.38	
2025-01-10 23:21:35.70	41.44	7.39	
2025-01-10 23:21:35.90	41.47	7.40	
2025-01-10 23:21:36.11	41.50	7.41	
2025-01-10 23:21:36.31	41.53	7.42	
2025-01-10 23:21:36.52	41.56	7.43	
2025-01-10 23:21:36.72	41.59	7.44	
2025-01-10 23:21:36.93	41.62	7.45	
2025-01-10 23:21:37.13	41.65	7.46	
2025-01-10 23:21:37.34	41.68	7.47	
2025-01-10 23:21:37.54	41.71	7.48	
2025-01-10 23:21:37.74	41.74	7.49	
2025-01-10 23:21:37.95	41.77	7.50	
2025-01-10 23:21:38.16	41.80	7.51	
2025-01-10 23:21:38.36	41.83	7.52	
2025-01-10 23:21:38.57	41.86	7.53	
2025-01-10 23:21:38.77	41.89	7.54	
2025-01-10 23:21:38.97	41.92	7.55	
2025-01-10 23:21:39.18	41.95	7.56	
2025-01-10 23:21:39.39	41.98	7.58	
2025-01-10 23:21:39.59	42.01	7.59	
2025-01-10 23:21:39.80	42.04	7.60	
2025-01-10 23:21:40.01	42.08	7.61	
2025-01-10 23:21:40.22	42.11	7.62	
2025-01-10 23:21:40.42	42.14	7.63	
2025-01-10 23:21:40.63	42.17	7.64	
2025-01-10 23:21:40.83	42.20	7.65	
2025-01-10 23:21:41.05	42.23	7.66	
2025-01-10 23:21:41.25	42.26	7.67	
2025-01-10 23:21:41.46	42.29	7.68	
2025-01-10 23:21:41.67	42.32	7.69	
2025-01-10 23:21:41.87	42.35	7.70	
2025-01-10 23:21:42.08	42.38	7.71	
2025-01-10 23:21:42.28	42.41	7.72	
2025-01-10 23:21:42.49	42.44	7.73	
2025-01-10 23:21:42.69	42.47	7.74	
2025-01-10 23:21:42.90	42.51	7.75	
2025-01-10 23:21:43.10	42.54	7.76	
2025-01-10 23:21:43.31	42.57	7.77	
2025-01-10 23:21:43.51	42.60	7.78	
2025-01-10 23:21:43.72	42.63	7.80	
2025-01-10 23:21:43.93	42.66	7.81	
2025-01-10 23:21:44.13	42.69	7.82	
2025-01-10 23:21:44.34	42.72	7.83	
2025-01-10 23:21:44.54	42.75	7.84	
2025-01-10 23:21:44.75	42.78	7.85	
2025-01-10 23:21:44.95	42.81	7.86	
2025-01-10 23:21:45.16	42.85	7.87	
2025-01-10 23:21:45.36	42.88	7.88	
2025-01-10 23:21:45.56	42.91	7.89	
2025-01-10 23:21:45.77	42.94	7.90	
2025-01-10 23:21:45.98	42.97	7.91	
2025-01-10 23:21:46.18	43.00	7.92	
2025-01-10 23:21:46.38	43.03	7.93	
2025-01-10 23:21:46.59	43.06	7.94	
2025-01-10 23:21:46.80	43.09	7.95	
2025-01-10 23:21:47.00	43.12	7.96	
2025-01-10 23:21:47.21	43.16	7.97	
2025-01-10 23:21:47.42	43.19	7.98	
2025-01-10 23:21:47.63	43.22	7.99	
2025-01-10 23:21:47.83	43.25	8.00	
2025-01-10 23:21:48.04	43.28	8.01	
2025-01-10 23:21:48.25	43.31	8.02	
2025-01-10 23:21:48.45	43.34	8.03	
2025-01-10 23:21:48.66	43.38	8.04	
2025-01-10 23:21:48.86	43.41	8.05	
2025-01-10 23:21:49.06	43.44	8.06	
2025-01-10 23:21:49.27	43.47	8.07	
2025-01-10 23:21:49.47	43.50	8.09	
2025-01-10 23:21:49.68	43.53	8.10	
2025-01-10 23:21:49.88	43.56	8.11	
2025-01-10 23:21:50.09	43.60	8.12	
2025-01-10 23:21:50.29	43.63	8.13	
2025-01-10 23:21:50.50	43.66	8.14	
2025-01-10 23:21:50.70	43.69	8.15	
2025-01-10 23:21:50.90	43.72	8.16	
2025-01-10 23:21:51.11	43.75	8.17	
2025-01-10 23:21:51.31	43.78	8.18	
2025-01-10 23:21:51.52	43.82	8.19	
2025-01-10 23:21:51.72	43.85	8.20	
2025-01-10 23:21:51.93	43.88	8.21	
2025-01-10 23:21:52.13	43.91	8.22	
2025-01-10 23:21:52.34	43.94	8.23	
2025-01-10 23:21:52.54	43.97	8.24	
2025-01-10 23:21:52.75	44.01	8.25	
2025-01-10 23:21:52.95	44.04	8.26	
2025-01-10 23:21:53.16	44.07	8.27	
2025-01-10 23:21:53.36	44.10	8.28	
2025-01-10 23:21:53.57	44.13	8.29	
2025-01-10 23:21:53.77	44.17	8.30	
2025-01-10 23:21:53.98	44.20	8.31	
2025-01-10 23:21:54.18	44.23	8.32	
2025-01-10 23:21:54.39	44.26	8.33	
2025-01-10 23:21:54.59	44.29	8.34	
2025-01-10 23:21:54.80	44.33	8.35	
2025-01-10 23:21:55.00	44.36	8.36	
2025-01-10 23:21:55.21	44.39	8.37	
2025-01-10 23:21:55.41	44.42	8.38	
2025-01-10 23:21:55.62	44.45	8.39	
2025-01-10 23:21:55.82	44.49	8.40	
2025-01-10 23:21:56.03	44.52	8.41	
2025-01-10 23:21:56.23	44.55	8.42	
2025-01-10 23:21:56.44	44.58	8.43	
2025-01-10 23:21:56.64	44.62	8.44	
2025-01-10 23:21:56.85	44.65	8.45	
2025-01-10 23:21:57.05	44.68	8.46	
2025-01-10 23:21:57.26	44.71	8.48	
2025-01-10 23:21:57.46	44.74	8.49	
2025-01-10 23:21:57.67	44.78	8.50	
2025-01-10 23:21:57.87	44.81	8.51	
2025-01-10 23:21:58.07	44.84	8.52	
2025-01-10 23:21:58.28	44.87	8.53	
2025-01-10 23:21:58.49	44.91	8.54	
2025-01-10 23:21:58.69	44.94	8.55	
2025-01-10 23:21:58.90	44.97	8.56	
2025-01-10 23:21:59.10	45.00	8.57	
2025-01-10 23:21:59.31	45.04	8.58	
2025-01-10 23:21:59.51	45.07	8.59	
2025-01-10 23:21:59.72	45.10	8.60	
2025-01-10 23:21:59.93	45.14	8.61	
2025-01-10 23:22:00.13	45.17	8.62	
2025-01-10 23:22:00.33	45.20	8.63	
2025-01-10 23:22:00.54	45.23	8.64	
2025-01-10 23:22:00.74	45.27	8.65	
2025-01-10 23:22:00.95	45.30	8.66	
2025-01-10 23:22:01.16	45.33	8.67	
2025-01-10 23:22:01.36	45.36	8.68	
2025-01-10 23:22:01.57	45.40	8.69	
2025-01-10 23:22:01.77	45.43	8.70	
2025-01-10 23:22:01.98	45.46	8.71	
2025-01-10 23:22:02.18	45.50	8.72	
2025-01-10 23:22:02.39	45.53	8.73	
2025-01-10 23:22:02.59	45.56	8.74	
2025-01-10 23:22:02.80	45.60	8.75	
2025-01-10 23:22:03.00	45.63	8.76	
2025-01-10 23:22:03.21	45.66	8.77	
2025-01-10 23:22:03.41	45.69	8.78	
2025-01-10 23:22:03.62	45.73	8.79	
2025-01-10 23:22:03.82	45.76	8.80	
2025-01-10 23:22:04.03	45.79	8.81	
2025-01-10 23:22:04.23	45.83	8.82	
2025-01-10 23:22:04.44	45.86	8.83	
2025-01-10 23:22:04.64	45.89	8.84	
2025-01-10 23:22:04.85	45.93	8.85	
2025-01-10 23:22:05.05	45.96	8.86	
2025-01-10 23:22:05.26	45.99	8.87	
2025-01-10 23:22:05.46	46.03	8.88	
2025-01-10 23:22:05.66	46.06	8.89	
2025-01-10 23:22:05.87	46.09	8.90	
2025-01-10 23:22:06.07	46.12	8.91	
2025-01-10 23:22:06.28	46.16	8.92	
2025-01-10 23:22:06.48	46.19	8.93	
2025-01-10 23:22:06.69	46.23	8.94	
2025-01-10 23:22:06.90	46.26	8.95	
2025-01-10 23:22:07.10	46.29	8.96	
2025-01-10 23:22:07.31	46.33	8.97	
2025-01-10 23:22:07.51	46.36	8.98	
2025-01-10 23:22:07.72	46.39	8.99	
2025-01-10 23:22:07.92	46.43	9.00	
2025-01-10 23:22:08.13	46.46	9.01	
2025-01-10 23:22:08.34	46.50	9.02	
2025-01-10 23:22:08.54	46.53	9.03	
2025-01-10 23:22:08.74	46.56	9.04	
2025-01-10 23:22:08.95	46.60	9.05	
2025-01-10 23:22:09.15	46.63	9.06	
2025-01-10 23:22:09.36	46.66	9.07	
2025-01-10 23:22:09.57	46.70	9.08	
2025-01-10 23:22:09.78	46.73	9.09	
2025-01-10 23:22:09.99	46.77	9.10	
2025-01-10 23:22:10.20	46.80	9.11	
2025-01-10 23:22:10.40	46.83	9.12	
2025-01-10 23:22:10.61	46.87	9.13	
2025-01-10 23:22:10.81	46.90	9.14	
2025-01-10 23:22:11.02	46.94	9.15	
2025-01-10 23:22:11.22	46.97	9.16	
2025-01-10 23:22:11.43	47.01	9.17	
2025-01-10 23:22:11.63	47.04	9.18	
2025-01-10 23:22:11.84	47.07	9.19	
2025-01-10 23:22:12.04	47.11	9.20	
2025-01-10 23:22:12.25	47.14	9.21	
2025-01-10 23:22:12.45	47.18	9.22	
2025-01-10 23:22:12.66	47.21	9.23	
2025-01-10 23:22:12.86	47.24	9.24	
2025-01-10 23:22:13.07	47.28	9.25	
2025-01-10 23:22:13.27	47.31	9.26	
2025-01-10 23:22:13.48	47.35	9.27	
2025-01-10 23:22:13.68	47.38	9.28	
2025-01-10 23:22:13.89	47.42	9.29	
2025-01-10 23:22:14.09	47.45	9.30	
2025-01-10 23:22:14.30	47.48	9.31	
2025-01-10 23:22:14.50	47.52	9.32	
2025-01-10 23:22:14.71	47.55	9.33	
2025-01-10 23:22:14.92	47.59	9.34	
2025-01-10 23:22:15.13	47.62	9.35	
2025-01-10 23:22:15.34	47.66	9.36	
2025-01-10 23:22:15.54	47.69	9.37	
2025-01-10 23:22:15.75	47.73	9.38	
2025-01-10 23:22:15.96	47.76	9.39	
2025-01-10 23:22:16.16	47.80	9.40	
2025-01-10 23:22:16.37	47.83	9.41	
2025-01-10 23:22:16.57	47.87	9.42	
2025-01-10 23:22:16.78	47.90	9.43	
2025-01-10 23:22:16.99	47.94	9.44	
2025-01-10 23:22:17.19	47.97	9.45	
2025-01-10 23:22:17.39	48.00	9.46	
2025-01-10 23:22:17.60	48.04	9.47	
2025-01-10 23:22:17.81	48.08	9.48	
2025-01-10 23:22:18.01	48.11	9.49	
2025-01-10 23:22:18.23	48.15	9.50	
2025-01-10 23:22:18.44	48.18	9.51	
2025-01-10 23:22:18.64	48.22	9.52	
2025-01-10 23:22:18.85	48.25	9.53	
2025-01-10 23:22:19.05	48.29	9.54	
2025-01-10 23:22:19.26	48.32	9.55	
2025-01-10 23:22:19.46	48.36	9.56	
2025-01-10 23:22:19.67	48.39	9.57	
2025-01-10 23:22:19.87	48.43	9.58	
2025-01-10 23:22:20.08	48.46	9.59	
2025-01-10 23:22:20.29	48.50	9.60	
2025-01-10 23:22:20.49	48.53	9.61	
2025-01-10 23:22:20.69	48.57	9.62	
2025-01-10 23:22:20.90	48.60	9.63	
2025-01-10 23:22:21.10	48.64	9.64	
2025-01-10 23:22:21.31	48.67	9.65	
2025-01-10 23:22:21.51	48.71	9.66	
2025-01-10 23:22:21.72	48.74	9.67	
2025-01-10 23:22:21.92	48.78	9.68	
2025-01-10 23:22:22.13	48.81	9.69	
2025-01-10 23:22:22.33	48.85	9.70	
2025-01-10 23:22:22.53	48.88	9.71	
2025-01-10 23:22:22.74	48.92	9.72	
2025-01-10 23:22:22.95	48.96	9.73	
2025-01-10 23:22:23.15	48.99	9.74	
2025-01-10 23:22:23.36	49.03	9.75	
2025-01-10 23:22:23.56	49.06	9.76	
2025-01-10 23:22:23.76	49.10	9.77	
2025-01-10 23:22:23.97	49.13	9.78	
2025-01-10 23:22:24.18	49.17	9.79	
2025-01-10 23:22:24.38	49.20	9.80	
2025-01-10 23:22:24.59	49.24	9.81	
2025-01-10 23:22:24.79	49.27	9.82	
2025-01-10 23:22:25.00	49.31	9.83	
2025-01-10 23:22:25.20	49.35	9.84	
2025-01-10 23:22:25.41	49.38	9.85	
2025-01-10 23:22:25.61	49.42	9.86	
2025-01-10 23:22:25.82	49.45	9.87	
2025-01-10 23:22:26.02	49.49	9.87	
2025-01-10 23:22:26.23	49.53	9.88	
2025-01-10 23:22:26.43	49.56	9.89	
2025-01-10 23:22:26.63	49.60	9.90	
2025-01-10 23:22:26.84	49.63	9.91	
2025-01-10 23:22:27.04	49.67	9.92	
2025-01-10 23:22:27.25	49.70	9.93	
2025-01-10 23:22:27.45	49.74	9.94	
2025-01-10 23:22:27.66	49.78	9.95	
2025-01-10 23:22:27.86	49.81	9.96	
2025-01-10 23:22:28.07	49.85	9.97	
2025-01-10 23:22:28.27	49.88	9.98	
2025-01-10 23:22:28.48	49.92	9.99	
2025-01-10 23:22:28.69	49.96	10.00	
2025-01-10 23:22:28.89	49.99	10.01	
2025-01-10 23:22:29.09	50.03	10.02	
2025-01-10 23:22:29.30	50.06	10.03	
2025-01-10 23:22:29.51	50.10	10.04	
2025-01-10 23:22:29.71	50.14	10.05	
2025-01-10 23:22:29.91	50.17	10.06	
2025-01-10 23:22:30.12	50.21	10.07	
2025-01-10 23:22:30.32	50.24	10.08	
2025-01-10 23:22:30.53	50.28	10.09	
2025-01-10 23:22:30.74	50.32	10.10	
2025-01-10 23:22:30.94	50.35	10.11	
2025-01-10 23:22:31.16	50.39	10.12	
2025-01-10 23:22:31.36	50.43	10.13	
2025-01-10 23:22:31.57	50.47	10.13	
2025-01-10 23:22:31.77	50.50	10.14	
2025-01-10 23:22:31.98	50.54	10.15	
2025-01-10 23:22:32.18	50.57	10.16	
2025-01-10 23:22:32.40	50.61	10.17	
2025-01-10 23:22:32.60	50.65	10.18	
2025-01-10 23:22:32.81	50.69	10.19	
2025-01-10 23:22:33.02	50.72	10.20	
2025-01-10 23:22:33.22	50.76	10.21	
2025-01-10 23:22:33.43	50.80	10.22	
2025-01-10 23:22:33.63	50.83	10.23	
2025-01-10 23:22:33.84	50.87	10.24	
2025-01-10 23:22:34.04	50.91	10.25	
2025-01-10 23:22:34.25	50.94	10.26	
2025-01-10 23:22:34.45	50.98	10.27	
2025-01-10 23:22:34.66	51.02	10.28	
2025-01-10 23:22:34.86	51.05	10.29	
2025-01-10 23:22:35.07	51.09	10.30	
2025-01-10 23:22:35.27	51.13	10.31	
2025-01-10 23:22:35.48	51.17	10.32	
2025-01-10 23:22:35.68	51.20	10.32	
2025-01-10 23:22:35.89	51.24	10.33	
2025-01-10 23:22:36.09	51.28	10.34	
2025-01-10 23:22:36.30	51.31	10.35	
2025-01-10 23:22:36.50	51.35	10.36	
2025-01-10 23:22:36.71	51.39	10.37	
2025-01-10 23:22:36.91	51.42	10.38	
2025-01-10 23:22:37.12	51.46	10.39	
2025-01-10 23:22:37.33	51.50	10.40	
2025-01-10 23:22:37.53	51.54	10.41	
2025-01-10 23:22:37.74	51.57	10.42	
2025-01-10 23:22:37.94	51.61	10.43	
2025-01-10 23:22:38.15	51.65	10.44	
2025-01-10 23:22:38.35	51.69	10.45	
2025-01-10 23:22:38.56	51.72	10.46	
2025-01-10 23:22:38.76	51.76	10.47	
2025-01-10 23:22:38.97	51.80	10.48	
2025-01-10 23:22:39.17	51.83	10.48	
2025-01-10 23:22:39.38	51.87	10.49	
2025-01-10 23:22:39.60	51.91	10.50	
2025-01-10 23:22:39.80	51.95	10.51	
2025-01-10 23:22:40.00	51.99	10.52	
2025-01-10 23:22:40.21	52.02	10.53	
2025-01-10 23:22:40.41	52.06	10.54	
2025-01-10 23:22:40.62	52.10	10.55	
2025-01-10 23:22:40.82	52.14	10.56	
2025-01-10 23:22:41.03	52.17	10.57	
2025-01-10 23:22:41.23	52.21	10.58	
2025-01-10 23:22:41.45	52.25	10.59	
2025-01-10 23:22:41.65	52.29	10.60	
2025-01-10 23:22:41.85	52.33	10.61	
2025-01-10 23:22:42.06	52.36	10.62	
2025-01-10 23:22:42.27	52.40	10.62	
2025-01-10 23:22:42.47	52.44	10.63	
2025-01-10 23:22:42.68	52.48	10.64	
2025-01-10 23:22:42.88	52.52	10.65	
2025-01-10 23:22:43.09	52.55	10.66	
2025-01-10 23:22:43.29	52.59	10.67	
2025-01-10 23:22:43.50	52.63	10.68	
2025-01-10 23:22:43.70	52.67	10.69	
2025-01-10 23:22:43.91	52.71	10.70	
2025-01-10 23:22:44.11	52.74	10.71	
2025-01-10 23:22:44.32	52.78	10.72	
2025-01-10 23:22:44.52	52.82	10.73	
2025-01-10 23:22:44.73	52.86	10.74	
2025-01-10 23:22:44.93	52.89	10.74	
2025-01-10 23:22:45.14	52.93	10.75	
2025-01-10 23:22:45.34	52.97	10.76	
2025-01-10 23:22:45.55	53.01	10.77	
2025-01-10 23:22:45.76	53.05	10.78	
2025-01-10 23:22:45.96	53.09	10.79	
2025-01-10 23:22:46.17	53.13	10.80	
2025-01-10 23:22:46.37	53.16	10.81	
2025-01-10 23:22:46.57	53.20	10.82	
2025-01-10 23:22:46.78	53.24	10.83	
2025-01-10 23:22:46.98	53.28	10.83	
2025-01-10 23:22:47.19	53.32	10.84	
2025-01-10 23:22:47.40	53.36	10.85	
2025-01-10 23:22:47.60	53.39	10.86	
2025-01-10 23:22:47.81	53.43	10.87	
2025-01-10 23:22:48.01	53.47	10.88	
2025-01-10 23:22:48.22	53.51	10.89	
2025-01-10 23:22:48.42	53.55	10.90	
2025-01-10 23:22:48.63	53.59	10.91	
2025-01-10 23:22:48.83	53.62	10.92	
2025-01-10 23:22:49.03	53.66	10.93	
2025-01-10 23:22:49.25	53.70	10.93	
2025-01-10 23:22:49.46	53.74	10.94	
2025-01-10 23:22:49.66	53.78	10.95	
2025-01-10 23:22:49.87	53.82	10.96	
2025-01-10 23:22:50.07	53.86	10.97	
2025-01-10 23:22:50.28	53.90	10.98	
2025-01-10 23:22:50.48	53.94	10.99	
2025-01-10 23:22:50.69	53.97	11.00	
2025-01-10 23:22:50.89	54.01	11.01	
2025-01-10 23:22:51.10	54.05	11.02	
2025-01-10 23:22:51.31	54.09	11.02	
2025-01-10 23:22:51.52	54.13	11.03	
2025-01-10 23:22:51.72	54.17	11.04	
2025-01-10 23:22:51.93	54.21	11.05	
2025-01-10 23:22:52.13	54.25	11.06	
2025-01-10 23:22:52.34	54.29	11.07	
2025-01-10 23:22:52.54	54.33	11.08	
2025-01-10 23:22:52.75	54.37	11.09	
2025-01-10 23:22:52.95	54.40	11.10	
2025-01-10 23:22:53.16	54.44	11.11	
2025-01-10 23:22:53.36	54.48	11.11	
2025-01-10 23:22:53.57	54.52	11.12	
2025-01-10 23:22:53.78	54.56	11.13	
2025-01-10 23:22:53.98	54.60	11.14	
2025-01-10 23:22:54.18	54.64	11.15	
2025-01-10 23:22:54.39	54.68	11.16	
2025-01-10 23:22:54.59	54.72	11.17	
2025-01-10 23:22:54.80	54.76	11.18	
2025-01-10 23:22:55.00	54.80	11.18	
2025-01-10 23:22:55.21	54.84	11.19	
2025-01-10 23:22:55.42	54.88	11.20	
2025-01-10 23:22:55.62	54.91	11.21	
2025-01-10 23:22:55.83	54.96	11.22	
2025-01-10 23:22:56.03	54.99	11.23	
2025-01-10 23:22:56.24	55.03	11.24	
2025-01-10 23:22:56.44	55.07	11.25	
2025-01-10 23:22:56.65	55.11	11.25	
2025-01-10 23:22:56.85	55.15	11.26	
2025-01-10 23:22:57.06	55.19	11.27	
2025-01-10 23:22:57.27	55.23	11.28	
2025-01-10 23:22:57.47	55.27	11.29	
2025-01-10 23:22:57.67	55.31	11.30	
2025-01-10 23:22:57.88	55.35	11.31	
2025-01-10 23:22:58.09	55.39	11.32	
2025-01-10 23:22:58.29	55.43	11.32	
2025-01-10 23:22:58.50	55.47	11.33	
2025-01-10 23:22:58.70	55.51	11.34	
2025-01-10 23:22:58.90	55.55	11.35	
2025-01-10 23:22:59.11	55.59	11.36	
2025-01-10 23:22:59.32	55.63	11.37	
2025-01-10 23:22:59.52	55.67	11.38	
2025-01-10 23:22:59.73	55.71	11.38	
2025-01-10 23:22:59.93	55.75	11.39	
2025-01-10 23:23:00.13	55.79	11.40	
2025-01-10 23:23:00.34	55.83	11.41	
2025-01-10 23:23:00.55	55.87	11.42	
2025-01-10 23:23:00.75	55.91	11.43	
2025-01-10 23:23:00.95	55.95	11.44	
2025-01-10 23:23:01.16	55.99	11.44	
2025-01-10 23:23:01.37	56.03	11.45	
2025-01-10 23:23:01.57	56.07	11.46	
2025-01-10 23:23:01.78	56.11	11.47	
2025-01-10 23:23:01.98	56.15	11.48	
2025-01-10 23:23:02.19	56.19	11.49	
2025-01-10 23:23:02.39	56.23	11.50	
2025-01-10 23:23:02.60	56.27	11.50	
2025-01-10 23:23:02.80	56.31	11.51	
2025-01-10 23:23:03.00	56.35	11.52	
2025-01-10 23:23:03.21	56.39	11.53	
2025-01-10 23:23:03.42	56.43	11.54	
2025-01-10 23:23:03.62	56.47	11.55	
2025-01-10 23:23:03.82	56.51	11.55	
2025-01-10 23:23:04.03	56.55	11.56	
2025-01-10 23:23:04.23	56.59	11.57	
2025-01-10 23:23:04.44	56.63	11.58	
2025-01-10 23:23:04.64	56.67	11.59	
2025-01-10 23:23:04.85	56.71	11.60	
2025-01-10 23:23:05.05	56.75	11.60	
2025-01-10 23:23:05.26	56.79	11.61	
2025-01-10 23:23:05.46	56.83	11.62	
2025-01-10 23:23:05.67	56.88	11.63	
2025-01-10 23:23:05.87	56.91	11.64	
2025-01-10 23:23:06.08	56.96	11.65	
2025-01-10 23:23:06.30	57.00	11.66	
2025-01-10 23:23:06.50	57.04	11.66	
2025-01-10 23:23:06.71	57.08	11.67	
2025-01-10 23:23:06.91	57.12	11.68	
2025-01-10 23:23:07.12	57.16	11.69	
2025-01-10 23:23:07.32	57.20	11.70	
2025-01-10 23:23:07.53	57.24	11.71	
2025-01-10 23:23:07.73	57.28	11.71	
2025-01-10 23:23:07.94	57.33	11.72	
2025-01-10 23:23:08.15	57.37	11.73	
2025-01-10 23:23:08.35	57.41	11.74	
2025-01-10 23:23:08.56	57.45	11.75	
2025-01-10 23:23:08.77	57.49	11.75	
2025-01-10 23:23:08.97	57.53	11.76	
2025-01-10 23:23:09.18	57.57	11.77	
2025-01-10 23:23:09.38	57.61	11.78	
2025-01-10 23:23:09.59	57.66	11.79	
2025-01-10 23:23:09.79	57.70	11.80	
2025-01-10 23:23:10.00	57.74	11.80	
2025-01-10 23:23:10.21	57.78	11.81	
2025-01-10 23:23:10.41	57.82	11.82	
2025-01-10 23:23:10.61	57.86	11.83	
2025-01-10 23:23:10.82	57.90	11.84	
2025-01-10 23:23:11.02	57.94	11.84	
2025-01-10 23:23:11.23	57.98	11.85	
2025-01-10 23:23:11.43	58.03	11.86	
2025-01-10 23:23:11.64	58.07	11.87	
2025-01-10 23:23:11.84	58.11	11.88	
2025-01-10 23:23:12.05	58.15	11.88	
2025-01-10 23:23:12.25	58.19	11.89	
2025-01-10 23:23:12.46	58.23	11.90	
2025-01-10 23:23:12.68	58.28	11.91	
2025-01-10 23:23:12.88	58.32	11.92	
2025-01-10 23:23:13.09	58.36	11.93	
2025-01-10 23:23:13.30	58.40	11.93	
2025-01-10 23:23:13.50	58.44	11.94	
2025-01-10 23:23:13.71	58.49	11.95	
2025-01-10 23:23:13.91	58.53	11.96	
2025-01-10 23:23:14.12	58.57	11.97	
2025-01-10 23:23:14.32	58.61	11.97	
2025-01-10 23:23:14.53	58.65	11.98	
2025-01-10 23:23:14.73	58.69	11.99	
2025-01-10 23:23:14.94	58.74	12.00	
2025-01-10 23:23:15.14	58.78	12.01	
2025-01-10 23:23:15.35	58.82	12.01	
2025-01-10 23:23:15.55	58.86	12.02	
2025-01-10 23:23:15.75	58.90	12.03	
2025-01-10 23:23:15.96	58.94	12.04	
2025-01-10 23:23:16.17	58.99	12.04	
2025-01-10 23:23:16.37	59.03	12.05	
2025-01-10 23:23:16.58	59.07	12.06	
2025-01-10 23:23:16.78	59.11	12.07	
2025-01-10 23:23:16.99	59.15	12.08	
2025-01-10 23:23:17.19	59.19	12.08	
2025-01-10 23:23:17.40	59.24	12.09	
2025-01-10 23:23:17.60	59.28	12.10	
2025-01-10 23:23:17.81	59.32	12.11	
2025-01-10 23:23:18.01	59.36	12.11	
2025-01-10 23:23:18.22	59.41	12.12	
2025-01-10 23:23:18.43	59.45	12.13	
2025-01-10 23:23:18.63	59.49	12.14	
2025-01-10 23:23:18.84	59.53	12.15	
2025-01-10 23:23:19.04	59.57	12.15	
2025-01-10 23:23:19.25	59.62	12.16	
2025-01-10 23:23:19.45	59.66	12.17	
2025-01-10 23:23:19.66	59.70	12.18	
2025-01-10 23:23:19.86	59.74	12.18	
2025-01-10 23:23:20.06	59.78	12.19	
2025-01-10 23:23:20.27	59.83	12.20	
2025-01-10 23:23:20.48	59.87	12.21	
2025-01-10 23:23:20.68	59.91	12.21	
2025-01-10 23:23:20.89	59.95	12.22	
2025-01-10 23:23:21.09	60.00	12.23	
2025-01-10 23:23:21.30	60.04	12.24	
2025-01-10 23:23:21.50	60.08	12.25	
2025-01-10 23:23:21.71	60.12	12.25	
2025-01-10 23:23:21.91	60.17	12.26	
2025-01-10 23:23:22.12	60.21	12.27	
2025-01-10 23:23:22.32	60.25	12.28	
2025-01-10 23:23:22.53	60.29	12.28	
2025-01-10 23:23:22.73	60.34	12.29	
2025-01-10 23:23:22.94	60.38	12.30	
2025-01-10 23:23:23.15	60.42	12.31	
2025-01-10 23:23:23.36	60.47	12.31	
2025-01-10 23:23:23.56	60.51	12.32	
2025-01-10 23:23:23.77	60.55	12.33	
2025-01-10 23:23:23.98	60.60	12.34	
2025-01-10 23:23:24.18	60.64	12.34	
2025-01-10 23:23:24.38	60.68	12.35	
2025-01-10 23:23:24.59	60.72	12.36	
2025-01-10 23:23:24.79	60.76	12.37	
2025-01-10 23:23:25.00	60.81	12.37	
2025-01-10 23:23:25.21	60.85	12.38	
2025-01-10 23:23:25.41	60.89	12.39	
2025-01-10 23:23:25.61	60.94	12.39	
2025-01-10 23:23:25.82	60.98	12.40	
2025-01-10 23:23:26.03	61.02	12.41	
2025-01-10 23:23:26.23	61.07	12.42	
2025-01-10 23:23:26.44	61.11	12.42	
2025-01-10 23:23:26.64	61.15	12.43	
2025-01-10 23:23:26.85	61.20	12.44	
2025-01-10 23:23:27.05	61.24	12.45	
2025-01-10 23:23:27.26	61.28	12.45	
2025-01-10 23:23:27.46	61.32	12.46	
2025-01-10 23:23:27.67	61.37	12.47	
2025-01-10 23:23:27.88	61.41	12.48	
2025-01-10 23:23:28.08	61.45	12.48	
2025-01-10 23:23:28.29	61.50	12.49	
2025-01-10 23:23:28.49	61.54	12.50	
2025-01-10 23:23:28.69	61.58	12.50	
2025-01-10 23:23:28.90	61.63	12.51	
2025-01-10 23:23:29.11	61.67	12.52	
2025-01-10 23:23:29.31	61.71	12.53	
2025-01-10 23:23:29.52	61.76	12.53	
2025-01-10 23:23:29.73	61.80	12.54	
2025-01-10 23:23:29.94	61.85	12.55	
2025-01-10 23:23:30.15	61.89	12.55	
2025-01-10 23:23:30.35	61.93	12.56	
2025-01-10 23:23:30.56	61.98	12.57	
2025-01-10 23:23:30.76	62.02	12.58	
2025-01-10 23:23:30.96	62.06	12.58	
2025-01-10 23:23:31.17	62.11	12.59	
2025-01-10 23:23:31.37	62.15	12.60	
2025-01-10 23:23:31.58	62.19	12.60	
2025-01-10 23:23:31.78	62.24	12.61	
2025-01-10 23:23:31.99	62.28	12.62	
2025-01-10 23:23:32.19	62.32	12.62	
2025-01-10 23:23:32.40	62.37	12.63	
2025-01-10 23:23:32.60	62.41	12.64	
2025-01-10 23:23:32.81	62.46	12.65	
2025-01-10 23:23:33.01	62.50	12.65	
2025-01-10 23:23:33.22	62.54	12.66	
2025-01-10 23:23:33.43	62.59	12.67	
2025-01-10 23:23:33.63	62.63	12.67	
2025-01-10 23:23:33.84	62.68	12.68	
2025-01-10 23:23:34.04	62.72	12.69	
2025-01-10 23:23:34.24	62.76	12.69	
2025-01-10 23:23:34.45	62.81	12.70	
2025-01-10 23:23:34.65	62.85	12.71	
2025-01-10 23:23:34.86	62.89	12.71	
2025-01-10 23:23:35.06	62.94	12.72	
2025-01-10 23:23:35.27	62.98	12.73	
2025-01-10 23:23:35.47	63.02	12.73	
2025-01-10 23:23:35.68	63.07	12.74	
2025-01-10 23:23:35.89	63.11	12.75	
2025-01-10 23:23:36.09	63.16	12.76	
2025-01-10 23:23:36.30	63.20	12.76	
2025-01-10 23:23:36.50	63.24	12.77	
2025-01-10 23:23:36.71	63.29	12.78	
2025-01-10 23:23:36.91	63.33	12.78	
2025-01-10 23:23:37.12	63.38	12.79	
2025-01-10 23:23:37.32	63.42	12.80	
2025-01-10 23:23:37.53	63.47	12.80	
2025-01-10 23:23:37.73	63.51	12.81	
2025-01-10 23:23:37.94	63.55	12.82	
2025-01-10 23:23:38.14	63.60	12.82	
2025-01-10 23:23:38.35	63.64	12.83	
2025-01-10 23:23:38.55	63.69	12.84	
2025-01-10 23:23:38.76	63.73	12.84	
2025-01-10 23:23:38.97	63.78	12.85	
2025-01-10 23:23:39.17	63.82	12.85	
2025-01-10 23:23:39.37	63.86	12.86	
2025-01-10 23:23:39.58	63.91	12.87	
2025-01-10 23:23:39.79	63.95	12.87	
2025-01-10 23:23:39.99	64.00	12.88	
2025-01-10 23:23:40.20	64.04	12.89	
2025-01-10 23:23:40.40	64.09	12.89	
2025-01-10 23:23:40.61	64.13	12.90	
2025-01-10 23:23:40.81	64.18	12.91	
2025-01-10 23:23:41.02	64.22	12.91	
2025-01-10 23:23:41.22	64.26	12.92	
2025-01-10 23:23:41.44	64.31	12.93	
2025-01-10 23:23:41.65	64.36	12.93	
2025-01-10 23:23:41.85	64.40	12.94	
2025-01-10 23:23:42.06	64.45	12.95	
2025-01-10 23:23:42.27	64.49	12.95	
2025-01-10 23:23:42.47	64.54	12.96	
2025-01-10 23:23:42.67	64.58	12.96	
2025-01-10 23:23:42.88	64.63	12.97	
2025-01-10 23:23:43.08	64.67	12.98	
2025-01-10 23:23:43.29	64.72	12.98	
2025-01-10 23:23:43.49	64.76	12.99	
2025-01-10 23:23:43.70	64.80	13.00	
2025-01-10 23:23:43.90	64.85	13.00	
2025-01-10 23:23:44.11	64.89	13.01	
2025-01-10 23:23:44.31	64.94	13.01	
2025-01-10 23:23:44.51	64.98	13.02	
2025-01-10 23:23:44.72	65.03	13.03	
2025-01-10 23:23:44.92	65.07	13.03	
2025-01-10 23:23:45.13	65.12	13.04	
2025-01-10 23:23:45.34	65.16	13.05	
2025-01-10 23:23:45.54	65.21	13.05	
2025-01-10 23:23:45.75	65.25	13.06	
2025-01-10 23:23:45.95	65.30	13.06	
2025-01-10 23:23:46.16	65.34	13.07	
2025-01-10 23:23:46.36	65.39	13.08	
2025-01-10 23:23:46.57	65.43	13.08	
2025-01-10 23:23:46.77	65.48	13.09	
2025-01-10 23:23:46.97	65.52	13.09	
2025-01-10 23:23:47.18	65.57	13.10	
2025-01-10 23:23:47.39	65.61	13.11	
2025-01-10 23:23:47.59	65.66	13.11	
2025-01-10 23:23:47.79	65.70	13.12	
2025-01-10 23:23:48.00	65.75	13.12	
2025-01-10 23:23:48.20	65.79	13.13	
2025-01-10 23:23:48.41	65.84	13.14	
2025-01-10 23:23:48.62	65.88	13.14	
2025-01-10 23:23:48.83	65.93	13.15	
2025-01-10 23:23:49.03	65.98	13.15	
2025-01-10 23:23:49.24	66.02	13.16	
2025-01-10 23:23:49.44	66.07	13.17	
2025-01-10 23:23:49.65	66.11	13.17	
2025-01-10 23:23:49.85	66.16	13.18	
2025-01-10 23:23:50.05	66.20	13.18	
2025-01-10 23:23:50.26	66.25	13.19	
2025-01-10 23:23:50.46	66.29	13.20	
2025-01-10 23:23:50.67	66.34	13.20	
2025-01-10 23:23:50.87	66.38	13.21	
2025-01-10 23:23:51.08	66.43	13.21	
2025-01-10 23:23:51.28	66.47	13.22	
2025-01-10 23:23:51.49	66.52	13.22	
2025-01-10 23:23:51.69	66.56	13.23	
2025-01-10 23:23:51.90	66.61	13.24	
2025-01-10 23:23:52.10	66.66	13.24	
2025-01-10 23:23:52.31	66.70	13.25	
2025-01-10 23:23:52.52	66.75	13.25	
2025-01-10 23:23:52.72	66.79	13.26	
2025-01-10 23:23:52.93	66.84	13.26	
2025-01-10 23:23:53.13	66.88	13.27	
2025-01-10 23:23:53.34	66.93	13.28	
2025-01-10 23:23:53.54	66.98	13.28	
2025-01-10 23:23:53.75	67.02	13.29	
2025-01-10 23:23:53.95	67.07	13.29	
2025-01-10 23:23:54.16	67.11	13.30	
2025-01-10 23:23:54.36	67.16	13.30	
2025-01-10 23:23:54.57	67.21	13.31	
2025-01-10 23:23:54.77	67.25	13.31	
2025-01-10 23:23:54.98	67.30	13.32	
2025-01-10 23:23:55.18	67.34	13.33	
2025-01-10 23:23:55.40	67.39	13.33	
2025-01-10 23:23:55.61	67.44	13.34	
2025-01-10 23:23:55.81	67.48	13.34	
2025-01-10 23:23:56.02	67.53	13.35	
2025-01-10 23:23:56.22	67.57	13.35	
2025-01-10 23:23:56.44	67.62	13.36	
2025-01-10 23:23:56.65	67.67	13.36	
2025-01-10 23:23:56.85	67.72	13.37	
2025-01-10 23:23:57.06	67.76	13.37	
2025-01-10 23:23:57.26	67.81	13.38	
2025-01-10 23:23:57.47	67.86	13.39	
2025-01-10 23:23:57.67	67.90	13.39	
2025-01-10 23:23:57.88	67.95	13.40	
2025-01-10 23:23:58.08	67.99	13.40	
2025-01-10 23:23:58.29	68.04	13.41	
2025-01-10 23:23:58.49	68.08	13.41	
2025-01-10 23:23:58.70	68.13	13.42	
2025-01-10 23:23:58.90	68.18	13.42	
2025-01-10 23:23:59.11	68.22	13.43	
2025-01-10 23:23:59.32	68.27	13.43	
2025-01-10 23:23:59.52	68.32	13.44	
2025-01-10 23:23:59.72	68.36	13.44	
2025-01-10 23:23:59.93	68.41	13.45	
2025-01-10 23:24:00.13	68.45	13.45	
2025-01-10 23:24:00.34	68.50	13.46	
2025-01-10 23:24:00.54	68.55	13.46	
2025-01-10 23:24:00.75	68.59	13.47	
2025-01-10 23:24:00.95	68.64	13.47	
2025-01-10 23:24:01.16	68.69	13.48	
2025-01-10 23:24:01.36	68.73	13.48	
2025-01-10 23:24:01.57	68.78	13.49	
2025-01-10 23:24:01.77	68.82	13.49	
2025-01-10 23:24:01.98	68.87	13.50	
2025-01-10 23:24:02.18	68.92	13.50	
2025-01-10 23:24:02.39	68.96	13.51	
2025-01-10 23:24:02.59	69.01	13.51	
2025-01-10 23:24:02.80	69.06	13.52	
2025-01-10 23:24:03.00	69.10	13.52	
2025-01-10 23:24:03.21	69.15	13.53	
2025-01-10 23:24:03.41	69.20	13.53	
2025-01-10 23:24:03.62	69.24	13.54	
2025-01-10 23:24:03.82	69.29	13.54	
2025-01-10 23:24:04.03	69.34	13.55	
2025-01-10 23:24:04.23	69.38	13.55	
2025-01-10 23:24:04.44	69.43	13.56	
2025-01-10 23:24:04.64	69.48	13.56	
2025-01-10 23:24:04.85	69.52	13.57	
2025-01-10 23:24:05.05	69.57	13.57	
2025-01-10 23:24:05.26	69.62	13.58	
2025-01-10 23:24:05.46	69.66	13.58	
2025-01-10 23:24:05.67	69.71	13.59	
2025-01-10 23:24:05.87	69.76	13.59	
2025-01-10 23:24:06.08	69.80	13.60	
2025-01-10 23:24:06.28	69.85	13.60	
2025-01-10 23:24:06.49	69.90	13.60	
2025-01-10 23:24:06.70	69.94	13.61	
2025-01-10 23:24:06.90	69.99	13.61	
2025-01-10 23:24:07.11	70.04	13.62	
2025-01-10 23:24:07.31	70.08	13.62	
2025-01-10 23:24:07.52	70.13	13.63	
2025-01-10 23:24:07.72	70.18	13.63	
2025-01-10 23:24:07.93	70.23	13.64	
2025-01-10 23:24:08.13	70.27	13.64	
2025-01-10 23:24:08.34	70.32	13.65	
2025-01-10 23:24:08.54	70.37	13.65	
2025-01-10 23:24:08.75	70.41	13.65	
2025-01-10 23:24:08.96	70.46	13.66	
2025-01-10 23:24:09.16	70.51	13.66	
2025-01-10 23:24:09.36	70.55	13.67	
2025-01-10 23:24:09.57	70.60	13.67	
2025-01-10 23:24:09.78	70.65	13.68	
2025-01-10 23:24:09.98	70.70	13.68	
2025-01-10 23:24:10.20	70.75	13.69	
2025-01-10 23:24:10.40	70.79	13.69	
2025-01-10 23:24:10.61	70.84	13.69	
2025-01-10 23:24:10.81	70.89	13.70	
2025-01-10 23:24:11.02	70.93	13.70	
2025-01-10 23:24:11.22	70.98	13.71	
2025-01-10 23:24:11.43	71.03	13.71	
2025-01-10 23:24:11.63	71.07	13.72	
2025-01-10 23:24:11.84	71.12	13.72	
2025-01-10 23:24:12.04	71.17	13.72	
2025-01-10 23:24:12.25	71.22	13.73	
2025-01-10 23:24:12.47	71.27	13.73	
2025-01-10 23:24:12.67	71.31	13.74	
2025-01-10 23:24:12.88	71.36	13.74	
2025-01-10 23:24:13.08	71.41	13.75	
2025-01-10 23:24:13.29	71.46	13.75	
2025-01-10 23:24:13.49	71.50	13.75	
2025-01-10 23:24:13.70	71.55	13.76	
2025-01-10 23:24:13.90	71.60	13.76	
2025-01-10 23:24:14.11	71.65	13.77	
2025-01-10 23:24:14.31	71.69	13.77	
2025-01-10 23:24:14.53	71.74	13.77	
2025-01-10 23:24:14.74	71.79	13.78	
2025-01-10 23:24:14.94	71.84	13.78	
2025-01-10 23:24:15.15	71.89	13.79	
2025-01-10 23:24:15.35	71.93	13.79	
2025-01-10 23:24:15.56	71.98	13.79	
2025-01-10 23:24:15.76	72.03	13.80	
2025-01-10 23:24:15.97	72.08	13.80	
2025-01-10 23:24:16.17	72.12	13.81	
2025-01-10 23:24:16.38	72.17	13.81	
2025-01-10 23:24:16.58	72.22	13.81	
2025-01-10 23:24:16.79	72.27	13.82	
2025-01-10 23:24:16.99	72.31	13.82	
2025-01-10 23:24:17.20	72.36	13.83	
2025-01-10 23:24:17.40	72.41	13.83	
2025-01-10 23:24:17.61	72.46	13.83	
2025-01-10 23:24:17.81	72.50	13.84	
2025-01-10 23:24:18.02	72.55	13.84	
2025-01-10 23:24:18.22	72.60	13.84	
2025-01-10 23:24:18.43	72.65	13.85	
2025-01-10 23:24:18.63	72.69	13.85	
2025-01-10 23:24:18.84	72.74	13.85	
2025-01-10 23:24:19.04	72.79	13.86	
2025-01-10 23:24:19.25	72.84	13.86	
2025-01-10 23:24:19.45	72.88	13.87	
2025-01-10 23:24:19.66	72.93	13.87	
2025-01-10 23:24:19.86	72.98	13.87	
2025-01-10 23:24:20.07	73.03	13.88	
2025-01-10 23:24:20.27	73.07	13.88	
2025-01-10 23:24:20.48	73.12	13.88	
2025-01-10 23:24:20.68	73.17	13.89	
2025-01-10 23:24:20.88	73.21	13.89	
2025-01-10 23:24:21.09	73.26	13.89	
2025-01-10 23:24:21.30	73.31	13.90	
2025-01-10 23:24:21.50	73.36	13.90	
2025-01-10 23:24:21.71	73.41	13.90	
2025-01-10 23:24:21.91	73.45	13.91	
2025-01-10 23:24:22.11	73.50	13.91	
2025-01-10 23:24:22.32	73.55	13.91	
2025-01-10 23:24:22.52	73.60	13.92	
2025-01-10 23:24:22.73	73.65	13.92	
2025-01-10 23:24:22.94	73.70	13.92	
2025-01-10 23:24:23.15	73.74	13.93	
2025-01-10 23:24:23.36	73.79	13.93	
2025-01-10 23:24:23.57	73.84	13.93	
2025-01-10 23:24:23.77	73.89	13.94	
2025-01-10 23:24:23.98	73.94	13.94	
2025-01-10 23:24:24.18	73.98	13.94	
2025-01-10 23:24:24.39	74.03	13.95	
2025-01-10 23:24:24.59	74.08	13.95	
2025-01-10 23:24:24.80	74.13	13.95	
2025-01-10 23:24:25.00	74.18	13.96	
2025-01-10 23:24:25.21	74.23	13.96	
2025-01-10 23:24:25.41	74.27	13.96	
2025-01-10 23:24:25.62	74.32	13.97	
2025-01-10 23:24:25.82	74.37	13.97	
2025-01-10 23:24:26.03	74.42	13.97	
2025-01-10 23:24:26.23	74.46	13.98	
2025-01-10 23:24:26.44	74.51	13.98	
2025-01-10 23:24:26.64	74.56	13.98	
2025-01-10 23:24:26.85	74.61	13.98	
2025-01-10 23:24:27.05	74.66	13.99	
2025-01-10 23:24:27.26	74.71	13.99	
2025-01-10 23:24:27.46	74.75	13.99	
2025-01-10 23:24:27.67	74.80	14.00	
2025-01-10 23:24:27.87	74.85	14.00	
2025-01-10 23:24:28.08	74.90	14.00	
2025-01-10 23:24:28.28	74.95	14.01	
2025-01-10 23:24:28.49	74.99	14.01	
2025-01-10 23:24:28.69	75.04	14.01	
2025-01-10 23:24:28.90	75.09	14.01	
2025-01-10 23:24:29.10	75.14	14.02	
2025-01-10 23:24:29.31	75.19	14.02	
2025-01-10 23:24:29.51	75.23	14.02	
2025-01-10 23:24:29.72	75.28	14.03	
2025-01-10 23:24:29.92	75.33	14.03	
2025-01-10 23:24:30.13	75.38	14.03	
2025-01-10 23:24:30.34	75.43	14.03	
2025-01-10 23:24:30.54	75.48	14.04	
2025-01-10 23:24:30.75	75.53	14.04	
2025-01-10 23:24:30.95	75.57	14.04	
2025-01-10 23:24:31.16	75.62	14.04	
2025-01-10 23:24:31.36	75.67	14.05	
2025-01-10 23:24:31.57	75.72	14.05	
2025-01-10 23:24:31.77	75.77	14.05	
2025-01-10 23:24:31.98	75.82	14.05	
2025-01-10 23:24:32.18	75.86	14.06	
2025-01-10 23:24:32.39	75.91	14.06	
2025-01-10 23:24:32.59	75.96	14.06	
2025-01-10 23:24:32.80	76.01	14.06	
2025-01-10 23:24:33.00	76.06	14.07	
2025-01-10 23:24:33.21	76.11	14.07	
2025-01-10 23:24:33.41	76.15	14.07	
2025-01-10 23:24:33.62	76.20	14.07	
2025-01-10 23:24:33.82	76.25	14.08	
2025-01-10 23:24:34.03	76.30	14.08	
2025-01-10 23:24:34.24	76.35	14.08	
2025-01-10 23:24:34.44	76.40	14.08	
2025-01-10 23:24:34.65	76.45	14.09	
2025-01-10 23:24:34.87	76.50	14.09	
2025-01-10 23:24:35.07	76.54	14.09	
2025-01-10 23:24:35.28	76.59	14.09	
2025-01-10 23:24:35.48	76.64	14.10	
2025-01-10 23:24:35.69	76.69	14.10	
2025-01-10 23:24:35.91	76.74	14.10	
2025-01-10 23:24:36.12	76.79	14.10	
2025-01-10 23:24:36.33	76.84	14.10	
2025-01-10 23:24:36.54	76.89	14.11	
2025-01-10 23:24:36.74	76.94	14.11	
2025-01-10 23:24:36.96	76.99	14.11	
2025-01-10 23:24:37.16	77.04	14.11	
2025-01-10 23:24:37.37	77.09	14.12	
2025-01-10 23:24:37.57	77.14	14.12	
2025-01-10 23:24:37.78	77.19	14.12	
2025-01-10 23:24:37.98	77.23	14.12	
2025-01-10 23:24:38.19	77.28	14.12	
2025-01-10 23:24:38.40	77.33	14.13	
2025-01-10 23:24:38.60	77.38	14.13	
2025-01-10 23:24:38.81	77.43	14.13	
2025-01-10 23:24:39.01	77.48	14.13	
2025-01-10 23:24:39.22	77.53	14.13	
2025-01-10 23:24:39.42	77.57	14.14	
2025-01-10 23:24:39.63	77.62	14.14	
2025-01-10 23:24:39.83	77.67	14.14	
2025-01-10 23:24:40.04	77.72	14.14	
2025-01-10 23:24:40.24	77.77	14.14	
2025-01-10 23:24:40.45	77.82	14.14	
2025-01-10 23:24:40.66	77.87	14.15	
2025-01-10 23:24:40.86	77.92	14.15	
2025-01-10 23:24:41.07	77.97	14.15	
2025-01-10 23:24:41.29	78.02	14.15	
2025-01-10 23:24:41.49	78.06	14.15	
2025-01-10 23:24:41.70	78.11	14.16	
2025-01-10 23:24:41.90	78.16	14.16	
2025-01-10 23:24:42.11	78.21	14.16	
2025-01-10 23:24:42.31	78.26	14.16	
2025-01-10 23:24:42.52	78.31	14.16	
2025-01-10 23:24:42.72	78.36	14.16	
2025-01-10 23:24:42.93	78.41	14.17	
2025-01-10 23:24:43.14	78.46	14.17	
2025-01-10 23:24:43.34	78.50	14.17	
2025-01-10 23:24:43.54	78.55	14.17	
2025-01-10 23:24:43.75	78.60	14.17	
2025-01-10 23:24:43.96	78.65	14.17	
2025-01-10 23:24:44.16	78.70	14.17	
2025-01-10 23:24:44.36	78.75	14.18	
2025-01-10 23:24:44.57	78.80	14.18	
2025-01-10 23:24:44.77	78.84	14.18	
2025-01-10 23:24:44.98	78.89	14.18	
2025-01-10 23:24:45.19	78.94	14.18	
2025-01-10 23:24:45.39	78.99	14.18	
2025-01-10 23:24:45.59	79.04	14.18	
2025-01-10 23:24:45.80	79.09	14.19	
2025-01-10 23:24:46.01	79.14	14.19	
2025-01-10 23:24:46.21	79.19	14.19	
2025-01-10 23:24:46.41	79.23	14.19	
2025-01-10 23:24:46.62	79.28	14.19	
2025-01-10 23:24:46.82	79.33	14.19	
2025-01-10 23:24:47.03	79.38	14.19	
2025-01-10 23:24:47.24	79.43	14.19	
2025-01-10 23:24:47.44	79.48	14.20	
2025-01-10 23:24:47.66	79.53	14.20	
2025-01-10 23:24:47.87	79.58	14.20	
2025-01-10 23:24:48.07	79.63	14.20	
2025-01-10 23:24:48.28	79.68	14.20	
2025-01-10 23:24:48.48	79.73	14.20	
2025-01-10 23:24:48.69	79.78	14.20	
2025-01-10 23:24:48.89	79.82	14.20	
2025-01-10 23:24:49.10	79.87	14.21	
2025-01-10 23:24:49.30	79.92	14.21	
2025-01-10 23:24:49.51	79.97	14.21	
2025-01-10 23:24:49.71	80.02	14.21	
2025-01-10 23:24:49.92	80.07	14.21	
2025-01-10 23:24:50.12	80.12	14.21	
2025-01-10 23:24:50.33	80.17	14.21	
2025-01-10 23:24:50.53	80.22	14.21	
2025-01-10 23:24:50.74	80.27	14.21	
2025-01-10 23:24:50.94	80.31	14.21	
2025-01-10 23:24:51.15	80.36	14.21	
2025-01-10 23:24:51.35	80.41	14.22	
2025-01-10 23:24:51.56	80.46	14.22	
2025-01-10 23:24:51.76	80.51	14.22	
2025-01-10 23:24:51.97	80.56	14.22	
2025-01-10 23:24:52.17	80.61	14.22	
2025-01-10 23:24:52.38	80.66	14.22	
2025-01-10 23:24:52.58	80.70	14.22	
2025-01-10 23:24:52.79	80.75	14.22	
2025-01-10 23:24:52.99	80.80	14.22	
2025-01-10 23:24:53.20	80.85	14.22	
2025-01-10 23:24:53.40	80.90	14.22	
2025-01-10 23:24:53.61	80.95	14.22	
2025-01-10 23:24:53.82	81.00	14.22	
2025-01-10 23:24:54.02	81.05	14.22	
2025-01-10 23:24:54.23	81.10	14.23	
2025-01-10 23:24:54.43	81.15	14.23	
2025-01-10 23:24:54.63	81.19	14.23	
2025-01-10 23:24:54.84	81.24	14.23	
2025-01-10 23:24:55.04	81.29	14.23	
2025-01-10 23:24:55.25	81.34	14.23	
2025-01-10 23:24:55.46	81.39	14.23	
2025-01-10 23:24:55.66	81.44	14.23	
2025-01-10 23:24:55.87	81.49	14.23	
2025-01-10 23:24:56.07	81.54	14.23	
2025-01-10 23:24:56.28	81.59	14.23	
2025-01-10 23:24:56.48	81.64	14.23	
2025-01-10 23:24:56.69	81.69	14.23	
2025-01-10 23:24:56.90	81.74	14.23	
2025-01-10 23:24:57.10	81.78	14.23	
2025-01-10 23:24:57.31	81.83	14.23	
2025-01-10 23:24:57.51	81.88	14.23	
2025-01-10 23:24:57.72	81.93	14.23	
2025-01-10 23:24:57.93	81.98	14.23	
2025-01-10 23:24:58.13	82.03	14.23	
2025-01-10 23:24:58.33	82.08	14.23	
2025-01-10 23:24:58.54	82.13	14.23	
2025-01-10 23:24:58.75	82.18	14.23	
2025-01-10 23:24:58.95	82.22	14.23	
2025-01-10 23:24:59.16	82.27	14.23	
2025-01-10 23:24:59.36	82.32	14.23	
2025-01-10 23:24:59.56	82.37	14.23	
2025-01-10 23:24:59.77	82.42	14.23	
2025-01-10 23:24:59.97	82.47	14.23	
2025-01-10 23:25:00.18	82.52	14.23	
2025-01-10 23:25:00.38	82.57	14.23	
2025-01-10 23:25:00.59	82.62	14.23	
2025-01-10 23:25:00.79	82.66	14.23	
2025-01-10 23:25:01.00	82.71	14.23	
2025-01-10 23:25:01.20	82.76	14.23	
2025-01-10 23:25:01.41	82.81	14.23	
2025-01-10 23:25:01.61	82.86	14.23	
2025-01-10 23:25:01.82	82.91	14.23	
2025-01-10 23:25:02.02	82.96	14.23	
2025-01-10 23:25:02.23	83.01	14.23	
2025-01-10 23:25:02.44	83.06	14.23	
2025-01-10 23:25:02.64	83.11	14.23	
2025-01-10 23:25:02.84	83.15	14.23	
2025-01-10 23:25:03.05	83.20	14.23	
2025-01-10 23:25:03.26	83.25	14.23	
2025-01-10 23:25:03.46	83.30	14.23	
2025-01-10 23:25:03.67	83.35	14.23	
2025-01-10 23:25:03.87	83.40	14.23	
2025-01-10 23:25:04.08	83.45	14.23	
2025-01-10 23:25:04.28	83.50	14.23	
2025-01-10 23:25:04.49	83.55	14.23	
2025-01-10 23:25:04.69	83.60	14.23	
2025-01-10 23:25:04.90	83.65	14.23	
2025-01-10 23:25:05.10	83.69	14.23	
2025-01-10 23:25:05.31	83.74	14.23	
2025-01-10 23:25:05.51	83.79	14.23	
2025-01-10 23:25:05.71	83.84	14.23	
2025-01-10 23:25:05.92	83.89	14.23	
2025-01-10 23:25:06.12	83.94	14.23	
2025-01-10 23:25:06.33	83.99	14.23	
2025-01-10 23:25:06.54	84.04	14.23	
2025-01-10 23:25:06.74	84.08	14.23	
2025-01-10 23:25:06.94	84.13	14.23	
2025-01-10 23:25:07.15	84.18	14.23	
2025-01-10 23:25:07.36	84.23	14.23	
2025-01-10 23:25:07.56	84.28	14.22	
2025-01-10 23:25:07.77	84.33	14.22	
2025-01-10 23:25:07.97	84.38	14.22	
2025-01-10 23:25:08.17	84.43	14.22	
2025-01-10 23:25:08.38	84.48	14.22	
2025-01-10 23:25:08.58	84.52	14.22	
2025-01-10 23:25:08.79	84.57	14.22	
2025-01-10 23:25:09.01	84.63	14.22	
2025-01-10 23:25:09.21	84.67	14.22	
2025-01-10 23:25:09.42	84.72	14.22	
2025-01-10 23:25:09.62	84.77	14.22	
2025-01-10 23:25:09.83	84.82	14.22	
2025-01-10 23:25:10.03	84.87	14.22	
2025-01-10 23:25:10.24	84.92	14.21	
2025-01-10 23:25:10.44	84.97	14.21	
2025-01-10 23:25:10.65	85.02	14.21	
2025-01-10 23:25:10.85	85.07	14.21	
2025-01-10 23:25:11.05	85.11	14.21	
2025-01-10 23:25:11.26	85.16	14.21	
2025-01-10 23:25:11.47	85.21	14.21	
2025-01-10 23:25:11.67	85.26	14.21	
2025-01-10 23:25:11.88	85.31	14.21	
2025-01-10 23:25:12.08	85.36	14.21	
2025-01-10 23:25:12.29	85.41	14.21	
2025-01-10 23:25:12.49	85.46	14.20	
2025-01-10 23:25:12.70	85.51	14.20	
2025-01-10 23:25:12.90	85.55	14.20	
2025-01-10 23:25:13.11	85.60	14.20	
2025-01-10 23:25:13.32	85.65	14.20	
2025-01-10 23:25:13.53	85.70	14.20	
2025-01-10 23:25:13.73	85.75	14.20	
2025-01-10 23:25:13.94	85.80	14.20	
2025-01-10 23:25:14.15	85.85	14.20	
2025-01-10 23:25:14.35	85.90	14.19	
2025-01-10 23:25:14.56	85.95	14.19	
2025-01-10 23:25:14.76	86.00	14.19	
2025-01-10 23:25:14.97	86.05	14.19	
2025-01-10 23:25:15.17	86.10	14.19	
2025-01-10 23:25:15.38	86.15	14.19	
2025-01-10 23:25:15.58	86.19	14.19	
2025-01-10 23:25:15.79	86.24	14.18	
2025-01-10 23:25:15.99	86.29	14.18	
2025-01-10 23:25:16.20	86.34	14.18	
2025-01-10 23:25:16.40	86.39	14.18	
2025-01-10 23:25:16.61	86.44	14.18	
2025-01-10 23:25:16.81	86.49	14.18	
2025-01-10 23:25:17.02	86.54	14.18	
2025-01-10 23:25:17.22	86.58	14.18	
2025-01-10 23:25:17.43	86.63	14.17	
2025-01-10 23:25:17.63	86.68	14.17	
2025-01-10 23:25:17.84	86.73	14.17	
2025-01-10 23:25:18.04	86.78	14.17	
2025-01-10 23:25:18.25	86.83	14.17	
2025-01-10 23:25:18.46	86.88	14.17	
2025-01-10 23:25:18.66	86.93	14.16	
2025-01-10 23:25:18.86	86.97	14.16	
2025-01-10 23:25:19.07	87.02	14.16	
2025-01-10 23:25:19.27	87.07	14.16	
2025-01-10 23:25:19.48	87.12	14.16	
2025-01-10 23:25:19.70	87.17	14.16	
2025-01-10 23:25:19.90	87.22	14.15	
2025-01-10 23:25:20.11	87.27	14.15	
2025-01-10 23:25:20.32	87.32	14.15	
2025-01-10 23:25:20.52	87.37	14.15	
2025-01-10 23:25:20.73	87.42	14.15	
2025-01-10 23:25:20.93	87.47	14.15	
2025-01-10 23:25:21.14	87.52	14.14	
2025-01-10 23:25:21.34	87.56	14.14	
2025-01-10 23:25:21.55	87.61	14.14	
2025-01-10 23:25:21.76	87.66	14.14	
2025-01-10 23:25:21.97	87.71	14.14	
2025-01-10 23:25:22.18	87.76	14.13	
2025-01-10 23:25:22.38	87.81	14.13	
2025-01-10 23:25:22.59	87.86	14.13	
2025-01-10 23:25:22.79	87.91	14.13	
2025-01-10 23:25:23.00	87.96	14.13	
2025-01-10 23:25:23.20	88.00	14.12	
2025-01-10 23:25:23.41	88.05	14.12	
2025-01-10 23:25:23.62	88.10	14.12	
2025-01-10 23:25:23.82	88.15	14.12	
2025-01-10 23:25:24.03	88.20	14.12	
2025-01-10 23:25:24.23	88.25	14.11	
2025-01-10 23:25:24.44	88.30	14.11	
2025-01-10 23:25:24.64	88.35	14.11	
2025-01-10 23:25:24.85	88.39	14.11	
2025-01-10 23:25:25.07	88.45	14.10	
2025-01-10 23:25:25.27	88.49	14.10	
2025-01-10 23:25:25.48	88.54	14.10	
2025-01-10 23:25:25.68	88.59	14.10	
2025-01-10 23:25:25.89	88.64	14.10	
2025-01-10 23:25:26.09	88.69	14.09	
2025-01-10 23:25:26.30	88.74	14.09	
2025-01-10 23:25:26.50	88.79	14.09	
2025-01-10 23:25:26.71	88.84	14.09	
2025-01-10 23:25:26.91	88.88	14.08	
2025-01-10 23:25:27.12	88.93	14.08	
2025-01-10 23:25:27.32	88.98	14.08	
2025-01-10 23:25:27.53	89.03	14.08	
2025-01-10 23:25:27.73	89.08	14.08	
2025-01-10 23:25:27.94	89.13	14.07	
2025-01-10 23:25:28.14	89.17	14.07	
2025-01-10 23:25:28.35	89.22	14.07	
2025-01-10 23:25:28.56	89.27	14.07	
2025-01-10 23:25:28.76	89.32	14.06	
2025-01-10 23:25:28.97	89.37	14.06	
2025-01-10 23:25:29.17	89.42	14.06	
2025-01-10 23:25:29.38	89.47	14.06	
2025-01-10 23:25:29.58	89.51	14.05	
2025-01-10 23:25:29.79	89.56	14.05	
2025-01-10 23:25:29.99	89.61	14.05	
2025-01-10 23:25:30.20	89.66	14.04	
2025-01-10 23:25:30.40	89.71	14.04	
2025-01-10 23:25:30.61	89.76	14.04	
2025-01-10 23:25:30.81	89.80	14.04	
2025-01-10 23:25:31.02	89.85	14.03	
2025-01-10 23:25:31.22	89.90	14.03	
2025-01-10 23:25:31.43	89.95	14.03	
2025-01-10 23:25:31.63	90.00	14.03	
2025-01-10 23:25:31.84	90.05	14.02	
2025-01-10 23:25:32.04	90.09	14.02	
2025-01-10 23:25:32.25	90.14	14.02	
2025-01-10 23:25:32.45	90.19	14.02	
2025-01-10 23:25:32.66	90.24	14.01	
2025-01-10 23:25:32.86	90.29	14.01	
2025-01-10 23:25:33.07	90.34	14.01	
2025-01-10 23:25:33.27	90.38	14.00	
2025-01-10 23:25:33.48	90.43	14.00	
2025-01-10 23:25:33.68	90.48	14.00	
2025-01-10 23:25:33.88	90.53	13.99	
2025-01-10 23:25:34.09	90.58	13.99	
2025-01-10 23:25:34.30	90.62	13.99	
2025-01-10 23:25:34.50	90.67	13.99	
2025-01-10 23:25:34.71	90.72	13.98	
2025-01-10 23:25:34.91	90.77	13.98	
2025-01-10 23:25:35.12	90.82	13.98	
2025-01-10 23:25:35.32	90.86	13.97	
2025-01-10 23:25:35.53	90.91	13.97	
2025-01-10 23:25:35.73	90.96	13.97	
2025-01-10 23:25:35.94	91.01	13.96	
2025-01-10 23:25:36.14	91.06	13.96	
2025-01-10 23:25:36.35	91.11	13.96	
2025-01-10 23:25:36.55	91.15	13.96	
2025-01-10 23:25:36.76	91.20	13.95	
2025-01-10 23:25:36.96	91.25	13.95	
2025-01-10 23:25:37.17	91.30	13.95	
2025-01-10 23:25:37.37	91.34	13.94	
2025-01-10 23:25:37.58	91.39	13.94	
2025-01-10 23:25:37.78	91.44	13.94	
2025-01-10 23:25:37.99	91.49	13.93	
2025-01-10 23:25:38.19	91.54	13.93	
2025-01-10 23:25:38.40	91.59	13.93	
2025-01-10 23:25:38.60	91.63	13.92	
2025-01-10 23:25:38.81	91.68	13.92	
2025-01-10 23:25:39.01	91.73	13.92	
2025-01-10 23:25:39.21	91.78	13.91	
2025-01-10 23:25:39.42	91.82	13.91	
2025-01-10 23:25:39.63	91.87	13.91	
2025-01-10 23:25:39.83	91.92	13.90	
2025-01-10 23:25:40.03	91.97	13.90	
2025-01-10 23:25:40.24	92.02	13.90	
2025-01-10 23:25:40.44	92.06	13.89	
2025-01-10 23:25:40.65	92.11	13.89	
2025-01-10 23:25:40.85	92.16	13.89	
2025-01-10 23:25:41.05	92.20	13.88	
2025-01-10 23:25:41.26	92.25	13.88	
2025-01-10 23:25:41.46	92.30	13.87	
2025-01-10 23:25:41.67	92.35	13.87	
2025-01-10 23:25:41.88	92.40	13.87	
2025-01-10 23:25:42.08	92.44	13.86	
2025-01-10 23:25:42.28	92.49	13.86	
2025-01-10 23:25:42.49	92.54	13.86	
2025-01-10 23:25:42.70	92.59	13.85	
2025-01-10 23:25:42.90	92.64	13.85	
2025-01-10 23:25:43.10	92.68	13.85	
2025-01-10 23:25:43.31	92.73	13.84	
2025-01-10 23:25:43.52	92.78	13.84	
2025-01-10 23:25:43.72	92.83	13.83	
2025-01-10 23:25:43.93	92.88	13.83	
2025-01-10 23:25:44.13	92.92	13.83	
2025-01-10 23:25:44.34	92.97	13.82	
2025-01-10 23:25:44.54	93.02	13.82	
2025-01-10 23:25:44.75	93.07	13.81	
2025-01-10 23:25:44.95	93.11	13.81	
2025-01-10 23:25:45.16	93.16	13.81	
2025-01-10 23:25:45.36	93.21	13.80	
2025-01-10 23:25:45.56	93.25	13.80	
2025-01-10 23:25:45.77	93.30	13.80	
2025-01-10 23:25:45.97	93.35	13.79	
2025-01-10 23:25:46.18	93.40	13.79	
2025-01-10 23:25:46.38	93.44	13.78	
2025-01-10 23:25:46.59	93.49	13.78	
2025-01-10 23:25:46.79	93.54	13.78	
2025-01-10 23:25:47.00	93.59	13.77	
2025-01-10 23:25:47.21	93.64	13.77	
2025-01-10 23:25:47.41	93.68	13.76	
2025-01-10 23:25:47.61	93.73	13.76	
2025-01-10 23:25:47.82	93.78	13.76	
2025-01-10 23:25:48.02	93.82	13.75	
2025-01-10 23:25:48.23	93.87	13.75	
2025-01-10 23:25:48.43	93.92	13.74	
2025-01-10 23:25:48.64	93.97	13.74	
2025-01-10 23:25:48.84	94.01	13.73	
2025-01-10 23:25:49.05	94.06	13.73	
2025-01-10 23:25:49.25	94.11	13.73	
2025-01-10 23:25:49.46	94.16	13.72	
2025-01-10 23:25:49.66	94.20	13.72	
2025-01-10 23:25:49.87	94.25	13.71	
2025-01-10 23:25:50.07	94.30	13.71	
2025-01-10 23:25:50.28	94.34	13.71	
2025-01-10 23:25:50.49	94.39	13.70	
2025-01-10 23:25:50.69	94.44	13.70	
2025-01-10 23:25:50.90	94.49	13.69	
2025-01-10 23:25:51.10	94.53	13.69	
2025-01-10 23:25:51.31	94.58	13.68	
2025-01-10 23:25:51.51	94.63	13.68	
2025-01-10 23:25:51.71	94.67	13.67	
2025-01-10 23:25:51.92	94.72	13.67	
2025-01-10 23:25:52.13	94.77	13.67	
2025-01-10 23:25:52.33	94.82	13.66	
2025-01-10 23:25:52.54	94.86	13.66	
2025-01-10 23:25:52.74	94.91	13.65	
2025-01-10 23:25:52.95	94.96	13.65	
2025-01-10 23:25:53.15	95.00	13.64	
2025-01-10 23:25:53.36	95.05	13.64	
2025-01-10 23:25:53.56	95.10	13.63	
2025-01-10 23:25:53.77	95.15	13.63	
2025-01-10 23:25:53.97	95.19	13.63	
2025-01-10 23:25:54.18	95.24	13.62	
2025-01-10 23:25:54.39	95.29	13.62	
2025-01-10 23:25:54.59	95.33	13.61	
2025-01-10 23:25:54.79	95.38	13.61	
2025-01-10 23:25:55.00	95.43	13.60	
2025-01-10 23:25:55.20	95.47	13.60	
2025-01-10 23:25:55.41	95.52	13.59	
2025-01-10 23:25:55.62	95.57	13.59	
2025-01-10 23:25:55.82	95.62	13.58	
2025-01-10 23:25:56.02	95.66	13.58	
2025-01-10 23:25:56.23	95.71	13.57	
2025-01-10 23:25:56.43	95.75	13.57	
2025-01-10 23:25:56.64	95.80	13.56	
2025-01-10 23:25:56.85	95.85	13.56	
2025-01-10 23:25:57.05	95.90	13.55	
2025-01-10 23:25:57.26	95.94	13.55	
2025-01-10 23:25:57.46	95.99	13.54	
2025-01-10 23:25:57.66	96.04	13.54	
2025-01-10 23:25:57.87	96.08	13.54	
2025-01-10 23:25:58.07	96.13	13.53	
2025-01-10 23:25:58.28	96.18	13.53	
2025-01-10 23:25:58.48	96.22	13.52	
2025-01-10 23:25:58.69	96.27	13.52	
2025-01-10 23:25:58.89	96.32	13.51	
2025-01-10 23:25:59.10	96.36	13.51	
2025-01-10 23:25:59.30	96.41	13.50	
2025-01-10 23:25:59.51	96.46	13.50	
2025-01-10 23:25:59.71	96.50	13.49	
2025-01-10 23:25:59.92	96.55	13.49	
2025-01-10 23:26:00.12	96.59	13.48	
2025-01-10 23:26:00.33	96.64	13.48	
2025-01-10 23:26:00.53	96.69	13.47	
2025-01-10 23:26:00.74	96.74	13.47	
2025-01-10 23:26:00.94	96.78	13.46	
2025-01-10 23:26:01.15	96.83	13.46	
2025-01-10 23:26:01.35	96.87	13.45	
2025-01-10 23:26:01.56	96.92	13.44	
2025-01-10 23:26:01.76	96.97	13.44	
2025-01-10 23:26:01.97	97.01	13.43	
2025-01-10 23:26:02.18	97.06	13.43	
2025-01-10 23:26:02.39	97.11	13.42	
2025-01-10 23:26:02.60	97.16	13.42	
2025-01-10 23:26:02.80	97.20	13.41	
2025-01-10 23:26:03.00	97.25	13.41	
2025-01-10 23:26:03.21	97.29	13.40	
2025-01-10 23:26:03.41	97.34	13.40	
2025-01-10 23:26:03.62	97.39	13.39	
2025-01-10 23:26:03.82	97.43	13.39	
2025-01-10 23:26:04.03	97.48	13.38	
2025-01-10 23:26:04.24	97.53	13.38	
2025-01-10 23:26:04.44	97.57	13.37	
2025-01-10 23:26:04.64	97.62	13.37	
2025-01-10 23:26:04.85	97.66	13.36	
2025-01-10 23:26:05.06	97.71	13.35	
2025-01-10 23:26:05.26	97.76	13.35	
2025-01-10 23:26:05.47	97.80	13.34	
2025-01-10 23:26:05.67	97.85	13.34	
2025-01-10 23:26:05.88	97.89	13.33	
2025-01-10 23:26:06.09	97.94	13.33	
2025-01-10 23:26:06.29	97.99	13.32	
2025-01-10 23:26:06.50	98.03	13.32	
2025-01-10 23:26:06.70	98.08	13.31	
2025-01-10 23:26:06.91	98.13	13.31	
2025-01-10 23:26:07.11	98.17	13.30	
2025-01-10 23:26:07.32	98.22	13.29	
2025-01-10 23:26:07.52	98.26	13.29	
2025-01-10 23:26:07.74	98.31	13.28	
2025-01-10 23:26:07.94	98.36	13.28	
2025-01-10 23:26:08.15	98.40	13.27	
2025-01-10 23:26:08.35	98.45	13.27	
2025-01-10 23:26:08.56	98.49	13.26	
2025-01-10 23:26:08.78	98.54	13.25	
2025-01-10 23:26:08.98	98.59	13.25	
2025-01-10 23:26:09.19	98.64	13.24	
2025-01-10 23:26:09.39	98.68	13.24	
2025-01-10 23:26:09.60	98.73	13.23	
2025-01-10 23:26:09.80	98.77	13.23	
2025-01-10 23:26:10.01	98.82	13.22	
2025-01-10 23:26:10.21	98.86	13.21	
2025-01-10 23:26:10.42	98.91	13.21	
2025-01-10 23:26:10.62	98.95	13.20	
2025-01-10 23:26:10.83	99.00	13.20	
2025-01-10 23:26:11.03	99.04	13.19	
2025-01-10 23:26:11.24	99.09	13.18	
2025-01-10 23:26:11.44	99.14	13.18	
2025-01-10 23:26:11.65	99.18	13.17	
2025-01-10 23:26:11.85	99.23	13.17	
2025-01-10 23:26:12.06	99.27	13.16	
2025-01-10 23:26:12.26	99.32	13.16	
2025-01-10 23:26:12.47	99.36	13.15	
2025-01-10 23:26:12.67	99.41	13.14	
2025-01-10 23:26:12.87	99.45	13.14	
2025-01-10 23:26:13.08	99.50	13.13	
2025-01-10 23:26:13.28	99.54	13.13	
2025-01-10 23:26:13.49	99.59	13.12	
2025-01-10 23:26:13.69	99.63	13.11	
2025-01-10 23:26:13.90	99.68	13.11	
2025-01-10 23:26:14.12	99.73	13.10	
2025-01-10 23:26:14.32	99.77	13.10	
2025-01-10 23:26:14.53	99.82	13.09	
2025-01-10 23:26:14.73	99.86	13.08	
