passes_logs/2025/01/10/SPB_Silybum_02/SPB_Silybum_02__20250110_082049_SUOMI_NPP_rec.log

#Pass ID: 20250110_082049_SUOMI NPP
#Satellite: SUOMI NPP
#Configuration: NPP
#Start time: 2025-01-10 08:20:49

#Version: 2.0.20230423
#Station: SPB_Silybum_02
#Location: 30.233357 lon 59.946436 lat
#TLE: 1 37849U 11061A   25009.84493763  .00000180  00000+0  10621-3 0  9991
#TLE: 2 37849  98.7440 310.8990 0001846  48.8747 311.2588 14.19535791684182

#Time	Az	El	Level	Level2	SNR	BER	Gain	Gain2
2025-01-10 08:20:51.10	103.80	4.07	
2025-01-10 08:20:51.31	103.78	4.08	
2025-01-10 08:20:51.51	103.77	4.09	
2025-01-10 08:20:51.72	103.75	4.11	
2025-01-10 08:20:51.92	103.74	4.12	
2025-01-10 08:20:52.13	103.72	4.13	
2025-01-10 08:20:52.33	103.71	4.14	
2025-01-10 08:20:52.54	103.69	4.15	
2025-01-10 08:20:52.74	103.68	4.17	
2025-01-10 08:20:52.95	103.66	4.18	
2025-01-10 08:20:53.15	103.64	4.19	
2025-01-10 08:20:53.35	103.63	4.20	
2025-01-10 08:20:53.56	103.61	4.22	
2025-01-10 08:20:53.78	103.60	4.23	
2025-01-10 08:20:53.99	103.58	4.24	
2025-01-10 08:20:54.19	103.57	4.25	
2025-01-10 08:20:54.40	103.55	4.27	
2025-01-10 08:20:54.60	103.53	4.28	
2025-01-10 08:20:54.82	103.52	4.29	
2025-01-10 08:20:55.02	103.50	4.30	
2025-01-10 08:20:55.23	103.49	4.32	
2025-01-10 08:20:55.43	103.47	4.33	
2025-01-10 08:20:55.64	103.45	4.34	
2025-01-10 08:20:55.84	103.44	4.35	
2025-01-10 08:20:56.05	103.42	4.36	
2025-01-10 08:20:56.25	103.41	4.38	
2025-01-10 08:20:56.46	103.39	4.39	
2025-01-10 08:20:56.66	103.38	4.40	
2025-01-10 08:20:56.87	103.36	4.41	
2025-01-10 08:20:57.07	103.34	4.43	
2025-01-10 08:20:57.28	103.33	4.44	
2025-01-10 08:20:57.48	103.31	4.45	
2025-01-10 08:20:57.69	103.30	4.46	
2025-01-10 08:20:57.89	103.28	4.47	
2025-01-10 08:20:58.10	103.26	4.49	
2025-01-10 08:20:58.30	103.25	4.50	
2025-01-10 08:20:58.51	103.23	4.51	
2025-01-10 08:20:58.72	103.22	4.52	
2025-01-10 08:20:58.92	103.20	4.54	
2025-01-10 08:20:59.14	103.18	4.55	
2025-01-10 08:20:59.34	103.17	4.56	
2025-01-10 08:20:59.55	103.15	4.57	
2025-01-10 08:20:59.75	103.14	4.59	
2025-01-10 08:20:59.96	103.12	4.60	
2025-01-10 08:21:00.18	103.10	4.61	
2025-01-10 08:21:00.38	103.09	4.62	
2025-01-10 08:21:00.59	103.07	4.64	
2025-01-10 08:21:00.79	103.05	4.65	
2025-01-10 08:21:01.00	103.04	4.66	
2025-01-10 08:21:01.20	103.02	4.67	
2025-01-10 08:21:01.41	103.01	4.69	
2025-01-10 08:21:01.61	102.99	4.70	
2025-01-10 08:21:01.82	102.97	4.71	
2025-01-10 08:21:02.02	102.96	4.72	
2025-01-10 08:21:02.22	102.94	4.74	
2025-01-10 08:21:02.43	102.93	4.75	
2025-01-10 08:21:02.63	102.91	4.76	
2025-01-10 08:21:02.84	102.89	4.77	
2025-01-10 08:21:03.04	102.88	4.78	
2025-01-10 08:21:03.25	102.86	4.80	
2025-01-10 08:21:03.45	102.84	4.81	
2025-01-10 08:21:03.66	102.83	4.82	
2025-01-10 08:21:03.86	102.81	4.83	
2025-01-10 08:21:04.07	102.80	4.85	
2025-01-10 08:21:04.28	102.78	4.86	
2025-01-10 08:21:04.48	102.76	4.87	
2025-01-10 08:21:04.69	102.75	4.88	
2025-01-10 08:21:04.89	102.73	4.90	
2025-01-10 08:21:05.09	102.71	4.91	
2025-01-10 08:21:05.30	102.70	4.92	
2025-01-10 08:21:05.50	102.68	4.93	
2025-01-10 08:21:05.71	102.66	4.95	
2025-01-10 08:21:05.91	102.65	4.96	
2025-01-10 08:21:06.12	102.63	4.97	
2025-01-10 08:21:06.33	102.61	4.98	
2025-01-10 08:21:06.53	102.60	5.00	
2025-01-10 08:21:06.73	102.58	5.01	
2025-01-10 08:21:06.94	102.57	5.02	
2025-01-10 08:21:07.15	102.55	5.03	
2025-01-10 08:21:07.35	102.53	5.05	
2025-01-10 08:21:07.55	102.52	5.06	
2025-01-10 08:21:07.76	102.50	5.07	
2025-01-10 08:21:07.97	102.48	5.08	
2025-01-10 08:21:08.17	102.47	5.10	
2025-01-10 08:21:08.38	102.45	5.11	
2025-01-10 08:21:08.58	102.43	5.12	
2025-01-10 08:21:08.79	102.42	5.13	
2025-01-10 08:21:08.99	102.40	5.15	
2025-01-10 08:21:09.20	102.38	5.16	
2025-01-10 08:21:09.40	102.37	5.17	
2025-01-10 08:21:09.61	102.35	5.18	
2025-01-10 08:21:09.81	102.33	5.20	
2025-01-10 08:21:10.02	102.32	5.21	
2025-01-10 08:21:10.22	102.30	5.22	
2025-01-10 08:21:10.43	102.28	5.23	
2025-01-10 08:21:10.63	102.27	5.25	
2025-01-10 08:21:10.84	102.25	5.26	
2025-01-10 08:21:11.04	102.23	5.27	
2025-01-10 08:21:11.25	102.21	5.28	
2025-01-10 08:21:11.45	102.20	5.30	
2025-01-10 08:21:11.66	102.18	5.31	
2025-01-10 08:21:11.86	102.16	5.32	
2025-01-10 08:21:12.07	102.15	5.33	
2025-01-10 08:21:12.27	102.13	5.35	
2025-01-10 08:21:12.48	102.11	5.36	
2025-01-10 08:21:12.69	102.10	5.37	
2025-01-10 08:21:12.89	102.08	5.38	
2025-01-10 08:21:13.10	102.06	5.40	
2025-01-10 08:21:13.30	102.05	5.41	
2025-01-10 08:21:13.51	102.03	5.42	
2025-01-10 08:21:13.71	102.01	5.43	
2025-01-10 08:21:13.91	102.00	5.45	
2025-01-10 08:21:14.12	101.98	5.46	
2025-01-10 08:21:14.33	101.96	5.47	
2025-01-10 08:21:14.53	101.94	5.49	
2025-01-10 08:21:14.74	101.93	5.50	
2025-01-10 08:21:14.94	101.91	5.51	
2025-01-10 08:21:15.15	101.89	5.52	
2025-01-10 08:21:15.35	101.88	5.54	
2025-01-10 08:21:15.56	101.86	5.55	
2025-01-10 08:21:15.77	101.84	5.56	
2025-01-10 08:21:15.97	101.82	5.57	
2025-01-10 08:21:16.17	101.81	5.59	
2025-01-10 08:21:16.38	101.79	5.60	
2025-01-10 08:21:16.58	101.77	5.61	
2025-01-10 08:21:16.79	101.75	5.62	
2025-01-10 08:21:17.00	101.74	5.64	
2025-01-10 08:21:17.20	101.72	5.65	
2025-01-10 08:21:17.41	101.70	5.66	
2025-01-10 08:21:17.61	101.69	5.67	
2025-01-10 08:21:17.82	101.67	5.69	
2025-01-10 08:21:18.02	101.65	5.70	
2025-01-10 08:21:18.22	101.63	5.71	
2025-01-10 08:21:18.43	101.62	5.73	
2025-01-10 08:21:18.64	101.60	5.74	
2025-01-10 08:21:18.84	101.58	5.75	
2025-01-10 08:21:19.05	101.56	5.76	
2025-01-10 08:21:19.25	101.55	5.78	
2025-01-10 08:21:19.46	101.53	5.79	
2025-01-10 08:21:19.66	101.51	5.80	
2025-01-10 08:21:19.87	101.49	5.81	
2025-01-10 08:21:20.07	101.48	5.83	
2025-01-10 08:21:20.28	101.46	5.84	
2025-01-10 08:21:20.48	101.44	5.85	
2025-01-10 08:21:20.69	101.42	5.87	
2025-01-10 08:21:20.89	101.41	5.88	
2025-01-10 08:21:21.10	101.39	5.89	
2025-01-10 08:21:21.30	101.37	5.90	
2025-01-10 08:21:21.50	101.35	5.92	
2025-01-10 08:21:21.71	101.34	5.93	
2025-01-10 08:21:21.91	101.32	5.94	
2025-01-10 08:21:22.12	101.30	5.95	
2025-01-10 08:21:22.32	101.28	5.97	
2025-01-10 08:21:22.54	101.26	5.98	
2025-01-10 08:21:22.75	101.25	5.99	
2025-01-10 08:21:22.95	101.23	6.01	
2025-01-10 08:21:23.16	101.21	6.02	
2025-01-10 08:21:23.37	101.19	6.03	
2025-01-10 08:21:23.57	101.18	6.04	
2025-01-10 08:21:23.78	101.16	6.06	
2025-01-10 08:21:23.98	101.14	6.07	
2025-01-10 08:21:24.19	101.12	6.08	
2025-01-10 08:21:24.39	101.10	6.09	
2025-01-10 08:21:24.60	101.09	6.11	
2025-01-10 08:21:24.80	101.07	6.12	
2025-01-10 08:21:25.01	101.05	6.13	
2025-01-10 08:21:25.22	101.03	6.15	
2025-01-10 08:21:25.42	101.01	6.16	
2025-01-10 08:21:25.62	101.00	6.17	
2025-01-10 08:21:25.83	100.98	6.18	
2025-01-10 08:21:26.03	100.96	6.20	
2025-01-10 08:21:26.24	100.94	6.21	
2025-01-10 08:21:26.44	100.93	6.22	
2025-01-10 08:21:26.65	100.91	6.24	
2025-01-10 08:21:26.87	100.89	6.25	
2025-01-10 08:21:27.07	100.87	6.26	
2025-01-10 08:21:27.28	100.85	6.28	
2025-01-10 08:21:27.49	100.83	6.29	
2025-01-10 08:21:27.69	100.82	6.30	
2025-01-10 08:21:27.90	100.80	6.31	
2025-01-10 08:21:28.10	100.78	6.33	
2025-01-10 08:21:28.30	100.76	6.34	
2025-01-10 08:21:28.51	100.74	6.35	
2025-01-10 08:21:28.72	100.72	6.37	
2025-01-10 08:21:28.92	100.71	6.38	
2025-01-10 08:21:29.13	100.69	6.39	
2025-01-10 08:21:29.33	100.67	6.40	
2025-01-10 08:21:29.54	100.65	6.42	
2025-01-10 08:21:29.74	100.63	6.43	
2025-01-10 08:21:29.94	100.62	6.44	
2025-01-10 08:21:30.15	100.60	6.46	
2025-01-10 08:21:30.36	100.58	6.47	
2025-01-10 08:21:30.56	100.56	6.48	
2025-01-10 08:21:30.77	100.54	6.49	
2025-01-10 08:21:30.97	100.52	6.51	
2025-01-10 08:21:31.18	100.51	6.52	
2025-01-10 08:21:31.38	100.49	6.53	
2025-01-10 08:21:31.58	100.47	6.55	
2025-01-10 08:21:31.79	100.45	6.56	
2025-01-10 08:21:31.99	100.43	6.57	
2025-01-10 08:21:32.20	100.41	6.58	
2025-01-10 08:21:32.40	100.40	6.60	
2025-01-10 08:21:32.61	100.38	6.61	
2025-01-10 08:21:32.81	100.36	6.62	
2025-01-10 08:21:33.02	100.34	6.64	
2025-01-10 08:21:33.22	100.32	6.65	
2025-01-10 08:21:33.43	100.30	6.66	
2025-01-10 08:21:33.63	100.28	6.67	
2025-01-10 08:21:33.84	100.27	6.69	
2025-01-10 08:21:34.05	100.25	6.70	
2025-01-10 08:21:34.25	100.23	6.71	
2025-01-10 08:21:34.45	100.21	6.73	
2025-01-10 08:21:34.66	100.19	6.74	
2025-01-10 08:21:34.86	100.17	6.75	
2025-01-10 08:21:35.07	100.15	6.77	
2025-01-10 08:21:35.27	100.14	6.78	
2025-01-10 08:21:35.48	100.12	6.79	
2025-01-10 08:21:35.68	100.10	6.80	
2025-01-10 08:21:35.89	100.08	6.82	
2025-01-10 08:21:36.09	100.06	6.83	
2025-01-10 08:21:36.30	100.04	6.84	
2025-01-10 08:21:36.52	100.02	6.86	
2025-01-10 08:21:36.72	100.00	6.87	
2025-01-10 08:21:36.93	99.98	6.88	
2025-01-10 08:21:37.14	99.96	6.90	
2025-01-10 08:21:37.34	99.95	6.91	
2025-01-10 08:21:37.56	99.93	6.92	
2025-01-10 08:21:37.76	99.91	6.94	
2025-01-10 08:21:37.97	99.89	6.95	
2025-01-10 08:21:38.17	99.87	6.96	
2025-01-10 08:21:38.38	99.85	6.97	
2025-01-10 08:21:38.58	99.83	6.99	
2025-01-10 08:21:38.79	99.81	7.00	
2025-01-10 08:21:38.99	99.79	7.01	
2025-01-10 08:21:39.20	99.77	7.03	
2025-01-10 08:21:39.41	99.75	7.04	
2025-01-10 08:21:39.61	99.74	7.05	
2025-01-10 08:21:39.81	99.72	7.07	
2025-01-10 08:21:40.02	99.70	7.08	
2025-01-10 08:21:40.22	99.68	7.09	
2025-01-10 08:21:40.43	99.66	7.11	
2025-01-10 08:21:40.63	99.64	7.12	
2025-01-10 08:21:40.84	99.62	7.13	
2025-01-10 08:21:41.04	99.60	7.14	
2025-01-10 08:21:41.25	99.58	7.16	
2025-01-10 08:21:41.47	99.56	7.17	
2025-01-10 08:21:41.67	99.54	7.18	
2025-01-10 08:21:41.88	99.52	7.20	
2025-01-10 08:21:42.08	99.51	7.21	
2025-01-10 08:21:42.29	99.49	7.22	
2025-01-10 08:21:42.49	99.47	7.24	
2025-01-10 08:21:42.71	99.45	7.25	
2025-01-10 08:21:42.91	99.43	7.26	
2025-01-10 08:21:43.12	99.41	7.28	
2025-01-10 08:21:43.32	99.39	7.29	
2025-01-10 08:21:43.53	99.37	7.30	
2025-01-10 08:21:43.73	99.35	7.32	
2025-01-10 08:21:43.94	99.33	7.33	
2025-01-10 08:21:44.14	99.31	7.34	
2025-01-10 08:21:44.35	99.29	7.36	
2025-01-10 08:21:44.55	99.27	7.37	
2025-01-10 08:21:44.76	99.25	7.38	
2025-01-10 08:21:44.98	99.23	7.40	
2025-01-10 08:21:45.18	99.21	7.41	
2025-01-10 08:21:45.39	99.19	7.42	
2025-01-10 08:21:45.59	99.17	7.43	
2025-01-10 08:21:45.80	99.15	7.45	
2025-01-10 08:21:46.00	99.13	7.46	
2025-01-10 08:21:46.21	99.11	7.47	
2025-01-10 08:21:46.42	99.09	7.49	
2025-01-10 08:21:46.62	99.07	7.50	
2025-01-10 08:21:46.83	99.05	7.51	
2025-01-10 08:21:47.03	99.03	7.53	
2025-01-10 08:21:47.24	99.01	7.54	
2025-01-10 08:21:47.44	99.00	7.55	
2025-01-10 08:21:47.65	98.97	7.57	
2025-01-10 08:21:47.85	98.96	7.58	
2025-01-10 08:21:48.06	98.94	7.59	
2025-01-10 08:21:48.26	98.92	7.61	
2025-01-10 08:21:48.47	98.90	7.62	
2025-01-10 08:21:48.67	98.88	7.63	
2025-01-10 08:21:48.88	98.86	7.65	
2025-01-10 08:21:49.08	98.84	7.66	
2025-01-10 08:21:49.29	98.82	7.67	
2025-01-10 08:21:49.49	98.80	7.69	
2025-01-10 08:21:49.70	98.78	7.70	
2025-01-10 08:21:49.90	98.76	7.71	
2025-01-10 08:21:50.11	98.74	7.73	
2025-01-10 08:21:50.31	98.72	7.74	
2025-01-10 08:21:50.52	98.70	7.75	
2025-01-10 08:21:50.72	98.68	7.76	
2025-01-10 08:21:50.93	98.66	7.78	
2025-01-10 08:21:51.13	98.64	7.79	
2025-01-10 08:21:51.34	98.62	7.80	
2025-01-10 08:21:51.54	98.60	7.82	
2025-01-10 08:21:51.75	98.58	7.83	
2025-01-10 08:21:51.95	98.56	7.84	
2025-01-10 08:21:52.16	98.54	7.86	
2025-01-10 08:21:52.37	98.51	7.87	
2025-01-10 08:21:52.58	98.49	7.89	
2025-01-10 08:21:52.78	98.47	7.90	
2025-01-10 08:21:52.99	98.45	7.91	
2025-01-10 08:21:53.20	98.43	7.93	
2025-01-10 08:21:53.40	98.41	7.94	
2025-01-10 08:21:53.61	98.39	7.95	
2025-01-10 08:21:53.81	98.37	7.96	
2025-01-10 08:21:54.02	98.35	7.98	
2025-01-10 08:21:54.22	98.33	7.99	
2025-01-10 08:21:54.43	98.31	8.01	
2025-01-10 08:21:54.63	98.29	8.02	
2025-01-10 08:21:54.84	98.27	8.03	
2025-01-10 08:21:55.04	98.25	8.04	
2025-01-10 08:21:55.25	98.23	8.06	
2025-01-10 08:21:55.45	98.21	8.07	
2025-01-10 08:21:55.67	98.19	8.09	
2025-01-10 08:21:55.88	98.17	8.10	
2025-01-10 08:21:56.08	98.15	8.11	
2025-01-10 08:21:56.29	98.13	8.13	
2025-01-10 08:21:56.49	98.11	8.14	
2025-01-10 08:21:56.70	98.08	8.15	
2025-01-10 08:21:56.90	98.06	8.17	
2025-01-10 08:21:57.11	98.04	8.18	
2025-01-10 08:21:57.31	98.02	8.19	
2025-01-10 08:21:57.52	98.00	8.21	
2025-01-10 08:21:57.72	97.98	8.22	
2025-01-10 08:21:57.93	97.96	8.23	
2025-01-10 08:21:58.13	97.94	8.25	
2025-01-10 08:21:58.34	97.92	8.26	
2025-01-10 08:21:58.54	97.90	8.27	
2025-01-10 08:21:58.75	97.88	8.29	
2025-01-10 08:21:58.96	97.86	8.30	
2025-01-10 08:21:59.17	97.83	8.31	
2025-01-10 08:21:59.37	97.81	8.33	
2025-01-10 08:21:59.58	97.79	8.34	
2025-01-10 08:21:59.78	97.77	8.35	
2025-01-10 08:21:59.99	97.75	8.37	
2025-01-10 08:22:00.20	97.73	8.38	
2025-01-10 08:22:00.41	97.71	8.39	
2025-01-10 08:22:00.61	97.69	8.41	
2025-01-10 08:22:00.82	97.67	8.42	
2025-01-10 08:22:01.02	97.65	8.43	
2025-01-10 08:22:01.23	97.62	8.45	
2025-01-10 08:22:01.44	97.60	8.46	
2025-01-10 08:22:01.64	97.58	8.47	
2025-01-10 08:22:01.84	97.56	8.49	
2025-01-10 08:22:02.06	97.54	8.50	
2025-01-10 08:22:02.27	97.52	8.52	
2025-01-10 08:22:02.47	97.50	8.53	
2025-01-10 08:22:02.68	97.47	8.54	
2025-01-10 08:22:02.88	97.45	8.56	
2025-01-10 08:22:03.10	97.43	8.57	
2025-01-10 08:22:03.30	97.41	8.58	
2025-01-10 08:22:03.51	97.39	8.60	
2025-01-10 08:22:03.71	97.37	8.61	
2025-01-10 08:22:03.92	97.35	8.62	
2025-01-10 08:22:04.12	97.33	8.64	
2025-01-10 08:22:04.32	97.30	8.65	
2025-01-10 08:22:04.53	97.28	8.66	
2025-01-10 08:22:04.74	97.26	8.68	
2025-01-10 08:22:04.94	97.24	8.69	
2025-01-10 08:22:05.15	97.22	8.71	
2025-01-10 08:22:05.35	97.20	8.72	
2025-01-10 08:22:05.55	97.18	8.73	
2025-01-10 08:22:05.76	97.15	8.75	
2025-01-10 08:22:05.96	97.13	8.76	
2025-01-10 08:22:06.17	97.11	8.77	
2025-01-10 08:22:06.37	97.09	8.79	
2025-01-10 08:22:06.58	97.07	8.80	
2025-01-10 08:22:06.78	97.05	8.81	
2025-01-10 08:22:06.99	97.03	8.83	
2025-01-10 08:22:07.19	97.00	8.84	
2025-01-10 08:22:07.39	96.98	8.85	
2025-01-10 08:22:07.60	96.96	8.87	
2025-01-10 08:22:07.80	96.94	8.88	
2025-01-10 08:22:08.01	96.92	8.89	
2025-01-10 08:22:08.22	96.90	8.91	
2025-01-10 08:22:08.42	96.87	8.92	
2025-01-10 08:22:08.62	96.85	8.93	
2025-01-10 08:22:08.83	96.83	8.95	
2025-01-10 08:22:09.04	96.81	8.96	
2025-01-10 08:22:09.24	96.79	8.97	
2025-01-10 08:22:09.44	96.77	8.99	
2025-01-10 08:22:09.65	96.74	9.00	
2025-01-10 08:22:09.85	96.72	9.02	
2025-01-10 08:22:10.06	96.70	9.03	
2025-01-10 08:22:10.27	96.68	9.04	
2025-01-10 08:22:10.47	96.66	9.06	
2025-01-10 08:22:10.68	96.63	9.07	
2025-01-10 08:22:10.88	96.61	9.08	
2025-01-10 08:22:11.09	96.59	9.10	
2025-01-10 08:22:11.29	96.57	9.11	
2025-01-10 08:22:11.50	96.55	9.12	
2025-01-10 08:22:11.72	96.52	9.14	
2025-01-10 08:22:11.92	96.50	9.15	
2025-01-10 08:22:12.13	96.48	9.17	
2025-01-10 08:22:12.34	96.45	9.18	
2025-01-10 08:22:12.54	96.43	9.19	
2025-01-10 08:22:12.75	96.41	9.21	
2025-01-10 08:22:12.95	96.39	9.22	
2025-01-10 08:22:13.16	96.37	9.23	
2025-01-10 08:22:13.36	96.34	9.25	
2025-01-10 08:22:13.57	96.32	9.26	
2025-01-10 08:22:13.77	96.30	9.27	
2025-01-10 08:22:13.98	96.28	9.29	
2025-01-10 08:22:14.18	96.25	9.30	
2025-01-10 08:22:14.39	96.23	9.32	
2025-01-10 08:22:14.59	96.21	9.33	
2025-01-10 08:22:14.79	96.19	9.34	
2025-01-10 08:22:15.00	96.17	9.36	
2025-01-10 08:22:15.20	96.14	9.37	
2025-01-10 08:22:15.41	96.12	9.38	
2025-01-10 08:22:15.62	96.10	9.40	
2025-01-10 08:22:15.82	96.08	9.41	
2025-01-10 08:22:16.02	96.05	9.42	
2025-01-10 08:22:16.23	96.03	9.44	
2025-01-10 08:22:16.43	96.01	9.45	
2025-01-10 08:22:16.64	95.99	9.47	
2025-01-10 08:22:16.85	95.96	9.48	
2025-01-10 08:22:17.05	95.94	9.49	
2025-01-10 08:22:17.25	95.92	9.51	
2025-01-10 08:22:17.46	95.89	9.52	
2025-01-10 08:22:17.66	95.87	9.53	
2025-01-10 08:22:17.87	95.85	9.55	
2025-01-10 08:22:18.08	95.83	9.56	
2025-01-10 08:22:18.29	95.80	9.58	
2025-01-10 08:22:18.49	95.78	9.59	
2025-01-10 08:22:18.70	95.76	9.60	
2025-01-10 08:22:18.90	95.74	9.62	
2025-01-10 08:22:19.11	95.71	9.63	
2025-01-10 08:22:19.31	95.69	9.64	
2025-01-10 08:22:19.52	95.67	9.66	
2025-01-10 08:22:19.72	95.64	9.67	
2025-01-10 08:22:19.93	95.62	9.69	
2025-01-10 08:22:20.13	95.60	9.70	
2025-01-10 08:22:20.34	95.57	9.71	
2025-01-10 08:22:20.54	95.55	9.73	
2025-01-10 08:22:20.75	95.53	9.74	
2025-01-10 08:22:20.95	95.51	9.75	
2025-01-10 08:22:21.16	95.48	9.77	
2025-01-10 08:22:21.36	95.46	9.78	
2025-01-10 08:22:21.57	95.44	9.80	
2025-01-10 08:22:21.77	95.41	9.81	
2025-01-10 08:22:21.98	95.39	9.82	
2025-01-10 08:22:22.19	95.37	9.84	
2025-01-10 08:22:22.39	95.34	9.85	
2025-01-10 08:22:22.59	95.32	9.86	
2025-01-10 08:22:22.80	95.30	9.88	
2025-01-10 08:22:23.01	95.27	9.89	
2025-01-10 08:22:23.21	95.25	9.91	
2025-01-10 08:22:23.42	95.23	9.92	
2025-01-10 08:22:23.62	95.20	9.93	
2025-01-10 08:22:23.83	95.18	9.95	
2025-01-10 08:22:24.03	95.16	9.96	
2025-01-10 08:22:24.24	95.13	9.97	
2025-01-10 08:22:24.44	95.11	9.99	
2025-01-10 08:22:24.65	95.09	10.00	
2025-01-10 08:22:24.85	95.06	10.02	
2025-01-10 08:22:25.06	95.04	10.03	
2025-01-10 08:22:25.27	95.02	10.04	
2025-01-10 08:22:25.48	94.99	10.06	
2025-01-10 08:22:25.69	94.97	10.07	
2025-01-10 08:22:25.90	94.94	10.09	
2025-01-10 08:22:26.11	94.92	10.10	
2025-01-10 08:22:26.31	94.90	10.11	
2025-01-10 08:22:26.52	94.87	10.13	
2025-01-10 08:22:26.72	94.85	10.14	
2025-01-10 08:22:26.93	94.82	10.16	
2025-01-10 08:22:27.13	94.80	10.17	
2025-01-10 08:22:27.33	94.78	10.18	
2025-01-10 08:22:27.54	94.75	10.20	
2025-01-10 08:22:27.75	94.73	10.21	
2025-01-10 08:22:27.95	94.71	10.22	
2025-01-10 08:22:28.16	94.68	10.24	
2025-01-10 08:22:28.36	94.66	10.25	
2025-01-10 08:22:28.57	94.63	10.27	
2025-01-10 08:22:28.77	94.61	10.28	
2025-01-10 08:22:28.98	94.59	10.29	
2025-01-10 08:22:29.18	94.56	10.31	
2025-01-10 08:22:29.39	94.54	10.32	
2025-01-10 08:22:29.59	94.51	10.34	
2025-01-10 08:22:29.80	94.49	10.35	
2025-01-10 08:22:30.00	94.47	10.36	
2025-01-10 08:22:30.21	94.44	10.38	
2025-01-10 08:22:30.41	94.42	10.39	
2025-01-10 08:22:30.62	94.39	10.40	
2025-01-10 08:22:30.82	94.37	10.42	
2025-01-10 08:22:31.02	94.35	10.43	
2025-01-10 08:22:31.23	94.32	10.45	
2025-01-10 08:22:31.44	94.30	10.46	
2025-01-10 08:22:31.64	94.27	10.47	
2025-01-10 08:22:31.85	94.25	10.49	
2025-01-10 08:22:32.05	94.22	10.50	
2025-01-10 08:22:32.26	94.20	10.52	
2025-01-10 08:22:32.46	94.18	10.53	
2025-01-10 08:22:32.66	94.15	10.54	
2025-01-10 08:22:32.87	94.13	10.56	
2025-01-10 08:22:33.08	94.10	10.57	
2025-01-10 08:22:33.28	94.08	10.59	
2025-01-10 08:22:33.49	94.05	10.60	
2025-01-10 08:22:33.69	94.03	10.61	
2025-01-10 08:22:33.90	94.00	10.63	
2025-01-10 08:22:34.10	93.98	10.64	
2025-01-10 08:22:34.31	93.96	10.66	
2025-01-10 08:22:34.51	93.93	10.67	
2025-01-10 08:22:34.72	93.91	10.68	
2025-01-10 08:22:34.92	93.88	10.70	
2025-01-10 08:22:35.13	93.86	10.71	
2025-01-10 08:22:35.33	93.83	10.72	
2025-01-10 08:22:35.54	93.81	10.74	
2025-01-10 08:22:35.75	93.78	10.75	
2025-01-10 08:22:35.95	93.76	10.77	
2025-01-10 08:22:36.16	93.73	10.78	
2025-01-10 08:22:36.36	93.71	10.79	
2025-01-10 08:22:36.56	93.68	10.81	
2025-01-10 08:22:36.77	93.66	10.82	
2025-01-10 08:22:36.98	93.63	10.84	
2025-01-10 08:22:37.18	93.61	10.85	
2025-01-10 08:22:37.39	93.58	10.86	
2025-01-10 08:22:37.59	93.56	10.88	
2025-01-10 08:22:37.80	93.53	10.89	
2025-01-10 08:22:38.00	93.51	10.91	
2025-01-10 08:22:38.21	93.48	10.92	
2025-01-10 08:22:38.41	93.46	10.93	
2025-01-10 08:22:38.62	93.43	10.95	
2025-01-10 08:22:38.82	93.41	10.96	
2025-01-10 08:22:39.03	93.38	10.98	
2025-01-10 08:22:39.24	93.36	10.99	
2025-01-10 08:22:39.44	93.33	11.00	
2025-01-10 08:22:39.64	93.31	11.02	
2025-01-10 08:22:39.85	93.28	11.03	
2025-01-10 08:22:40.06	93.26	11.05	
2025-01-10 08:22:40.26	93.23	11.06	
2025-01-10 08:22:40.47	93.21	11.07	
2025-01-10 08:22:40.67	93.18	11.09	
2025-01-10 08:22:40.88	93.16	11.10	
2025-01-10 08:22:41.08	93.13	11.12	
2025-01-10 08:22:41.29	93.11	11.13	
2025-01-10 08:22:41.50	93.08	11.15	
2025-01-10 08:22:41.71	93.05	11.16	
2025-01-10 08:22:41.92	93.03	11.17	
2025-01-10 08:22:42.12	93.00	11.19	
2025-01-10 08:22:42.33	92.98	11.20	
2025-01-10 08:22:42.54	92.95	11.22	
2025-01-10 08:22:42.74	92.93	11.23	
2025-01-10 08:22:42.94	92.90	11.24	
2025-01-10 08:22:43.15	92.88	11.26	
2025-01-10 08:22:43.35	92.85	11.27	
2025-01-10 08:22:43.56	92.82	11.29	
2025-01-10 08:22:43.76	92.80	11.30	
2025-01-10 08:22:43.97	92.77	11.31	
2025-01-10 08:22:44.18	92.75	11.33	
2025-01-10 08:22:44.38	92.72	11.34	
2025-01-10 08:22:44.59	92.69	11.36	
2025-01-10 08:22:44.79	92.67	11.37	
2025-01-10 08:22:45.00	92.64	11.38	
2025-01-10 08:22:45.20	92.62	11.40	
2025-01-10 08:22:45.41	92.59	11.41	
2025-01-10 08:22:45.61	92.57	11.43	
2025-01-10 08:22:45.82	92.54	11.44	
2025-01-10 08:22:46.02	92.51	11.45	
2025-01-10 08:22:46.23	92.49	11.47	
2025-01-10 08:22:46.43	92.46	11.48	
2025-01-10 08:22:46.64	92.44	11.50	
2025-01-10 08:22:46.84	92.41	11.51	
2025-01-10 08:22:47.04	92.38	11.52	
2025-01-10 08:22:47.25	92.36	11.54	
2025-01-10 08:22:47.45	92.33	11.55	
2025-01-10 08:22:47.66	92.31	11.57	
2025-01-10 08:22:47.86	92.28	11.58	
2025-01-10 08:22:48.07	92.25	11.60	
2025-01-10 08:22:48.28	92.23	11.61	
2025-01-10 08:22:48.48	92.20	11.62	
2025-01-10 08:22:48.68	92.18	11.64	
2025-01-10 08:22:48.89	92.15	11.65	
2025-01-10 08:22:49.09	92.12	11.67	
2025-01-10 08:22:49.30	92.10	11.68	
2025-01-10 08:22:49.50	92.07	11.69	
2025-01-10 08:22:49.71	92.04	11.71	
2025-01-10 08:22:49.91	92.02	11.72	
2025-01-10 08:22:50.12	91.99	11.74	
2025-01-10 08:22:50.32	91.96	11.75	
2025-01-10 08:22:50.53	91.94	11.76	
2025-01-10 08:22:50.73	91.91	11.78	
2025-01-10 08:22:50.94	91.88	11.79	
2025-01-10 08:22:51.14	91.86	11.81	
2025-01-10 08:22:51.35	91.83	11.82	
2025-01-10 08:22:51.55	91.81	11.84	
2025-01-10 08:22:51.76	91.78	11.85	
2025-01-10 08:22:51.96	91.75	11.86	
2025-01-10 08:22:52.17	91.72	11.88	
2025-01-10 08:22:52.39	91.70	11.89	
2025-01-10 08:22:52.59	91.67	11.91	
2025-01-10 08:22:52.80	91.64	11.92	
2025-01-10 08:22:53.00	91.62	11.93	
2025-01-10 08:22:53.21	91.59	11.95	
2025-01-10 08:22:53.42	91.56	11.96	
2025-01-10 08:22:53.62	91.53	11.98	
2025-01-10 08:22:53.83	91.51	11.99	
2025-01-10 08:22:54.04	91.48	12.01	
2025-01-10 08:22:54.24	91.45	12.02	
2025-01-10 08:22:54.44	91.43	12.03	
2025-01-10 08:22:54.65	91.40	12.05	
2025-01-10 08:22:54.85	91.37	12.06	
2025-01-10 08:22:55.06	91.35	12.08	
2025-01-10 08:22:55.26	91.32	12.09	
2025-01-10 08:22:55.47	91.29	12.11	
2025-01-10 08:22:55.67	91.26	12.12	
2025-01-10 08:22:55.88	91.24	12.13	
2025-01-10 08:22:56.08	91.21	12.15	
2025-01-10 08:22:56.29	91.18	12.16	
2025-01-10 08:22:56.50	91.15	12.18	
2025-01-10 08:22:56.70	91.13	12.19	
2025-01-10 08:22:56.91	91.10	12.21	
2025-01-10 08:22:57.11	91.07	12.22	
2025-01-10 08:22:57.32	91.05	12.23	
2025-01-10 08:22:57.52	91.02	12.25	
2025-01-10 08:22:57.74	90.99	12.26	
2025-01-10 08:22:57.94	90.96	12.28	
2025-01-10 08:22:58.15	90.93	12.29	
2025-01-10 08:22:58.36	90.91	12.31	
2025-01-10 08:22:58.56	90.88	12.32	
2025-01-10 08:22:58.78	90.85	12.33	
2025-01-10 08:22:58.98	90.82	12.35	
2025-01-10 08:22:59.19	90.79	12.36	
2025-01-10 08:22:59.40	90.77	12.38	
2025-01-10 08:22:59.60	90.74	12.39	
2025-01-10 08:22:59.80	90.71	12.41	
2025-01-10 08:23:00.01	90.68	12.42	
2025-01-10 08:23:00.21	90.66	12.43	
2025-01-10 08:23:00.42	90.63	12.45	
2025-01-10 08:23:00.62	90.60	12.46	
2025-01-10 08:23:00.83	90.57	12.48	
2025-01-10 08:23:01.03	90.55	12.49	
2025-01-10 08:23:01.24	90.52	12.50	
2025-01-10 08:23:01.44	90.49	12.52	
2025-01-10 08:23:01.65	90.46	12.53	
2025-01-10 08:23:01.85	90.43	12.55	
2025-01-10 08:23:02.06	90.40	12.56	
2025-01-10 08:23:02.26	90.38	12.58	
2025-01-10 08:23:02.47	90.35	12.59	
2025-01-10 08:23:02.68	90.32	12.60	
2025-01-10 08:23:02.88	90.29	12.62	
2025-01-10 08:23:03.08	90.27	12.63	
2025-01-10 08:23:03.29	90.24	12.65	
2025-01-10 08:23:03.50	90.21	12.66	
2025-01-10 08:23:03.70	90.18	12.68	
2025-01-10 08:23:03.91	90.15	12.69	
2025-01-10 08:23:04.11	90.12	12.70	
2025-01-10 08:23:04.32	90.09	12.72	
2025-01-10 08:23:04.52	90.07	12.73	
2025-01-10 08:23:04.74	90.04	12.75	
2025-01-10 08:23:04.95	90.01	12.76	
2025-01-10 08:23:05.15	89.98	12.78	
2025-01-10 08:23:05.36	89.95	12.79	
2025-01-10 08:23:05.56	89.92	12.80	
2025-01-10 08:23:05.77	89.89	12.82	
2025-01-10 08:23:05.97	89.87	12.83	
2025-01-10 08:23:06.18	89.84	12.85	
2025-01-10 08:23:06.38	89.81	12.86	
2025-01-10 08:23:06.59	89.78	12.88	
2025-01-10 08:23:06.79	89.75	12.89	
2025-01-10 08:23:07.00	89.72	12.90	
2025-01-10 08:23:07.20	89.69	12.92	
2025-01-10 08:23:07.41	89.66	12.93	
2025-01-10 08:23:07.61	89.64	12.95	
2025-01-10 08:23:07.82	89.61	12.96	
2025-01-10 08:23:08.03	89.58	12.98	
2025-01-10 08:23:08.23	89.55	12.99	
2025-01-10 08:23:08.43	89.52	13.00	
2025-01-10 08:23:08.64	89.49	13.02	
2025-01-10 08:23:08.84	89.46	13.03	
2025-01-10 08:23:09.05	89.43	13.05	
2025-01-10 08:23:09.25	89.41	13.06	
2025-01-10 08:23:09.47	89.37	13.08	
2025-01-10 08:23:09.68	89.34	13.09	
2025-01-10 08:23:09.88	89.32	13.11	
2025-01-10 08:23:10.09	89.29	13.12	
2025-01-10 08:23:10.29	89.26	13.13	
2025-01-10 08:23:10.51	89.23	13.15	
2025-01-10 08:23:10.72	89.20	13.16	
2025-01-10 08:23:10.92	89.17	13.18	
2025-01-10 08:23:11.12	89.14	13.19	
2025-01-10 08:23:11.33	89.11	13.21	
2025-01-10 08:23:11.53	89.08	13.22	
2025-01-10 08:23:11.74	89.05	13.23	
2025-01-10 08:23:11.94	89.02	13.25	
2025-01-10 08:23:12.15	88.99	13.26	
2025-01-10 08:23:12.35	88.96	13.28	
2025-01-10 08:23:12.56	88.93	13.29	
2025-01-10 08:23:12.76	88.91	13.31	
2025-01-10 08:23:12.97	88.87	13.32	
2025-01-10 08:23:13.17	88.85	13.33	
2025-01-10 08:23:13.38	88.82	13.35	
2025-01-10 08:23:13.58	88.79	13.36	
2025-01-10 08:23:13.79	88.76	13.38	
2025-01-10 08:23:13.99	88.73	13.39	
2025-01-10 08:23:14.19	88.70	13.41	
2025-01-10 08:23:14.40	88.67	13.42	
2025-01-10 08:23:14.60	88.64	13.43	
2025-01-10 08:23:14.81	88.61	13.45	
2025-01-10 08:23:15.01	88.58	13.46	
2025-01-10 08:23:15.22	88.55	13.48	
2025-01-10 08:23:15.42	88.52	13.49	
2025-01-10 08:23:15.63	88.49	13.51	
2025-01-10 08:23:15.85	88.46	13.52	
2025-01-10 08:23:16.05	88.43	13.54	
2025-01-10 08:23:16.26	88.40	13.55	
2025-01-10 08:23:16.47	88.37	13.56	
2025-01-10 08:23:16.67	88.34	13.58	
2025-01-10 08:23:16.89	88.31	13.59	
2025-01-10 08:23:17.10	88.27	13.61	
2025-01-10 08:23:17.30	88.25	13.62	
2025-01-10 08:23:17.51	88.21	13.64	
2025-01-10 08:23:17.71	88.18	13.65	
2025-01-10 08:23:17.93	88.15	13.67	
2025-01-10 08:23:18.14	88.12	13.68	
2025-01-10 08:23:18.34	88.09	13.69	
2025-01-10 08:23:18.55	88.06	13.71	
2025-01-10 08:23:18.75	88.03	13.72	
2025-01-10 08:23:18.97	88.00	13.74	
2025-01-10 08:23:19.17	87.97	13.75	
2025-01-10 08:23:19.38	87.94	13.77	
2025-01-10 08:23:19.59	87.91	13.78	
2025-01-10 08:23:19.79	87.88	13.80	
2025-01-10 08:23:20.01	87.84	13.81	
2025-01-10 08:23:20.21	87.81	13.83	
2025-01-10 08:23:20.41	87.78	13.84	
2025-01-10 08:23:20.62	87.75	13.85	
2025-01-10 08:23:20.82	87.72	13.87	
2025-01-10 08:23:21.03	87.69	13.88	
2025-01-10 08:23:21.23	87.66	13.90	
2025-01-10 08:23:21.44	87.63	13.91	
2025-01-10 08:23:21.64	87.60	13.92	
2025-01-10 08:23:21.85	87.57	13.94	
2025-01-10 08:23:22.05	87.54	13.95	
2025-01-10 08:23:22.26	87.51	13.97	
2025-01-10 08:23:22.46	87.48	13.98	
2025-01-10 08:23:22.67	87.45	14.00	
2025-01-10 08:23:22.87	87.42	14.01	
2025-01-10 08:23:23.08	87.38	14.03	
2025-01-10 08:23:23.28	87.35	14.04	
2025-01-10 08:23:23.49	87.32	14.05	
2025-01-10 08:23:23.69	87.29	14.07	
2025-01-10 08:23:23.90	87.26	14.08	
2025-01-10 08:23:24.11	87.23	14.10	
2025-01-10 08:23:24.31	87.20	14.11	
2025-01-10 08:23:24.51	87.17	14.13	
2025-01-10 08:23:24.72	87.14	14.14	
2025-01-10 08:23:24.92	87.10	14.15	
2025-01-10 08:23:25.13	87.07	14.17	
2025-01-10 08:23:25.33	87.04	14.18	
2025-01-10 08:23:25.54	87.01	14.20	
2025-01-10 08:23:25.74	86.98	14.21	
2025-01-10 08:23:25.95	86.95	14.23	
2025-01-10 08:23:26.16	86.92	14.24	
2025-01-10 08:23:26.36	86.88	14.25	
2025-01-10 08:23:26.56	86.85	14.27	
2025-01-10 08:23:26.77	86.82	14.28	
2025-01-10 08:23:26.98	86.79	14.30	
2025-01-10 08:23:27.18	86.76	14.31	
2025-01-10 08:23:27.39	86.73	14.33	
2025-01-10 08:23:27.59	86.70	14.34	
2025-01-10 08:23:27.80	86.66	14.35	
2025-01-10 08:23:28.00	86.63	14.37	
2025-01-10 08:23:28.21	86.60	14.38	
2025-01-10 08:23:28.41	86.57	14.40	
2025-01-10 08:23:28.61	86.54	14.41	
2025-01-10 08:23:28.82	86.51	14.43	
2025-01-10 08:23:29.03	86.47	14.44	
2025-01-10 08:23:29.23	86.44	14.45	
2025-01-10 08:23:29.44	86.41	14.47	
2025-01-10 08:23:29.64	86.38	14.48	
2025-01-10 08:23:29.85	86.34	14.50	
2025-01-10 08:23:30.05	86.31	14.51	
2025-01-10 08:23:30.26	86.28	14.53	
2025-01-10 08:23:30.46	86.25	14.54	
2025-01-10 08:23:30.67	86.22	14.55	
2025-01-10 08:23:30.87	86.19	14.57	
2025-01-10 08:23:31.08	86.15	14.58	
2025-01-10 08:23:31.29	86.12	14.60	
2025-01-10 08:23:31.49	86.09	14.61	
2025-01-10 08:23:31.70	86.05	14.63	
2025-01-10 08:23:31.90	86.02	14.64	
2025-01-10 08:23:32.11	85.99	14.66	
2025-01-10 08:23:32.31	85.96	14.67	
2025-01-10 08:23:32.52	85.93	14.68	
2025-01-10 08:23:32.72	85.89	14.70	
2025-01-10 08:23:32.93	85.86	14.71	
2025-01-10 08:23:33.13	85.83	14.73	
2025-01-10 08:23:33.34	85.80	14.74	
2025-01-10 08:23:33.54	85.76	14.75	
2025-01-10 08:23:33.75	85.73	14.77	
2025-01-10 08:23:33.95	85.70	14.78	
2025-01-10 08:23:34.16	85.67	14.80	
2025-01-10 08:23:34.37	85.63	14.81	
2025-01-10 08:23:34.57	85.60	14.83	
2025-01-10 08:23:34.78	85.57	14.84	
2025-01-10 08:23:35.00	85.53	14.86	
2025-01-10 08:23:35.20	85.50	14.87	
2025-01-10 08:23:35.41	85.47	14.89	
2025-01-10 08:23:35.62	85.43	14.90	
2025-01-10 08:23:35.82	85.40	14.91	
2025-01-10 08:23:36.03	85.37	14.93	
2025-01-10 08:23:36.23	85.33	14.94	
2025-01-10 08:23:36.44	85.30	14.96	
2025-01-10 08:23:36.64	85.27	14.97	
2025-01-10 08:23:36.85	85.23	14.99	
2025-01-10 08:23:37.05	85.20	15.00	
2025-01-10 08:23:37.26	85.17	15.01	
2025-01-10 08:23:37.46	85.14	15.03	
2025-01-10 08:23:37.67	85.10	15.04	
2025-01-10 08:23:37.87	85.07	15.06	
2025-01-10 08:23:38.08	85.04	15.07	
2025-01-10 08:23:38.28	85.00	15.08	
2025-01-10 08:23:38.49	84.97	15.10	
2025-01-10 08:23:38.70	84.93	15.11	
2025-01-10 08:23:38.90	84.90	15.13	
2025-01-10 08:23:39.11	84.87	15.14	
2025-01-10 08:23:39.31	84.84	15.16	
2025-01-10 08:23:39.51	84.80	15.17	
2025-01-10 08:23:39.72	84.77	15.18	
2025-01-10 08:23:39.93	84.73	15.20	
2025-01-10 08:23:40.13	84.70	15.21	
2025-01-10 08:23:40.33	84.67	15.23	
2025-01-10 08:23:40.54	84.63	15.24	
2025-01-10 08:23:40.74	84.60	15.26	
2025-01-10 08:23:40.95	84.57	15.27	
2025-01-10 08:23:41.15	84.53	15.28	
2025-01-10 08:23:41.36	84.50	15.30	
2025-01-10 08:23:41.56	84.47	15.31	
2025-01-10 08:23:41.77	84.43	15.33	
2025-01-10 08:23:41.97	84.40	15.34	
2025-01-10 08:23:42.18	84.36	15.36	
2025-01-10 08:23:42.38	84.33	15.37	
2025-01-10 08:23:42.59	84.30	15.38	
2025-01-10 08:23:42.79	84.26	15.40	
2025-01-10 08:23:43.00	84.23	15.41	
2025-01-10 08:23:43.21	84.19	15.43	
2025-01-10 08:23:43.41	84.16	15.44	
2025-01-10 08:23:43.61	84.13	15.45	
2025-01-10 08:23:43.82	84.09	15.47	
2025-01-10 08:23:44.03	84.06	15.48	
2025-01-10 08:23:44.23	84.02	15.50	
2025-01-10 08:23:44.45	83.99	15.51	
2025-01-10 08:23:44.65	83.95	15.53	
2025-01-10 08:23:44.86	83.92	15.54	
2025-01-10 08:23:45.06	83.88	15.56	
2025-01-10 08:23:45.27	83.85	15.57	
2025-01-10 08:23:45.47	83.82	15.58	
2025-01-10 08:23:45.69	83.78	15.60	
2025-01-10 08:23:45.90	83.74	15.61	
2025-01-10 08:23:46.10	83.71	15.63	
2025-01-10 08:23:46.30	83.68	15.64	
2025-01-10 08:23:46.51	83.64	15.66	
2025-01-10 08:23:46.73	83.60	15.67	
2025-01-10 08:23:46.93	83.57	15.68	
2025-01-10 08:23:47.14	83.53	15.70	
2025-01-10 08:23:47.35	83.50	15.71	
2025-01-10 08:23:47.55	83.47	15.73	
2025-01-10 08:23:47.75	83.43	15.74	
2025-01-10 08:23:47.96	83.40	15.76	
2025-01-10 08:23:48.17	83.36	15.77	
2025-01-10 08:23:48.37	83.33	15.78	
2025-01-10 08:23:48.58	83.29	15.80	
2025-01-10 08:23:48.78	83.26	15.81	
2025-01-10 08:23:48.99	83.22	15.83	
2025-01-10 08:23:49.19	83.19	15.84	
2025-01-10 08:23:49.40	83.15	15.86	
2025-01-10 08:23:49.60	83.12	15.87	
2025-01-10 08:23:49.81	83.08	15.88	
2025-01-10 08:23:50.01	83.05	15.90	
2025-01-10 08:23:50.22	83.01	15.91	
2025-01-10 08:23:50.42	82.98	15.93	
2025-01-10 08:23:50.63	82.94	15.94	
2025-01-10 08:23:50.84	82.90	15.95	
2025-01-10 08:23:51.04	82.87	15.97	
2025-01-10 08:23:51.25	82.83	15.98	
2025-01-10 08:23:51.45	82.80	16.00	
2025-01-10 08:23:51.66	82.76	16.01	
2025-01-10 08:23:51.86	82.73	16.03	
2025-01-10 08:23:52.06	82.69	16.04	
2025-01-10 08:23:52.27	82.66	16.05	
2025-01-10 08:23:52.48	82.62	16.07	
2025-01-10 08:23:52.68	82.58	16.08	
2025-01-10 08:23:52.89	82.55	16.10	
2025-01-10 08:23:53.09	82.51	16.11	
2025-01-10 08:23:53.30	82.48	16.12	
2025-01-10 08:23:53.50	82.44	16.14	
2025-01-10 08:23:53.71	82.41	16.15	
2025-01-10 08:23:53.91	82.37	16.17	
2025-01-10 08:23:54.12	82.33	16.18	
2025-01-10 08:23:54.32	82.30	16.19	
2025-01-10 08:23:54.53	82.26	16.21	
2025-01-10 08:23:54.73	82.23	16.22	
2025-01-10 08:23:54.94	82.19	16.24	
2025-01-10 08:23:55.15	82.15	16.25	
2025-01-10 08:23:55.35	82.12	16.26	
2025-01-10 08:23:55.56	82.08	16.28	
2025-01-10 08:23:55.76	82.05	16.29	
2025-01-10 08:23:55.97	82.01	16.31	
2025-01-10 08:23:56.17	81.97	16.32	
2025-01-10 08:23:56.38	81.94	16.34	
2025-01-10 08:23:56.58	81.90	16.35	
2025-01-10 08:23:56.79	81.86	16.36	
2025-01-10 08:23:56.99	81.83	16.38	
2025-01-10 08:23:57.20	81.79	16.39	
2025-01-10 08:23:57.40	81.76	16.41	
2025-01-10 08:23:57.61	81.72	16.42	
2025-01-10 08:23:57.81	81.68	16.43	
2025-01-10 08:23:58.02	81.65	16.45	
2025-01-10 08:23:58.22	81.61	16.46	
2025-01-10 08:23:58.42	81.57	16.47	
2025-01-10 08:23:58.63	81.54	16.49	
2025-01-10 08:23:58.84	81.50	16.50	
2025-01-10 08:23:59.04	81.46	16.52	
2025-01-10 08:23:59.25	81.43	16.53	
2025-01-10 08:23:59.45	81.39	16.55	
2025-01-10 08:23:59.66	81.35	16.56	
2025-01-10 08:23:59.86	81.32	16.57	
2025-01-10 08:24:00.07	81.28	16.59	
2025-01-10 08:24:00.27	81.24	16.60	
2025-01-10 08:24:00.48	81.21	16.62	
2025-01-10 08:24:00.69	81.17	16.63	
2025-01-10 08:24:00.90	81.13	16.64	
2025-01-10 08:24:01.11	81.09	16.66	
2025-01-10 08:24:01.31	81.06	16.67	
2025-01-10 08:24:01.52	81.02	16.69	
2025-01-10 08:24:01.74	80.98	16.70	
2025-01-10 08:24:01.94	80.94	16.71	
2025-01-10 08:24:02.15	80.90	16.73	
2025-01-10 08:24:02.35	80.87	16.74	
2025-01-10 08:24:02.56	80.83	16.76	
2025-01-10 08:24:02.76	80.79	16.77	
2025-01-10 08:24:02.96	80.76	16.78	
2025-01-10 08:24:03.17	80.72	16.80	
2025-01-10 08:24:03.37	80.68	16.81	
2025-01-10 08:24:03.58	80.64	16.83	
2025-01-10 08:24:03.78	80.61	16.84	
2025-01-10 08:24:03.99	80.57	16.85	
2025-01-10 08:24:04.19	80.53	16.87	
2025-01-10 08:24:04.40	80.49	16.88	
2025-01-10 08:24:04.60	80.46	16.90	
2025-01-10 08:24:04.81	80.42	16.91	
2025-01-10 08:24:05.01	80.38	16.92	
2025-01-10 08:24:05.22	80.34	16.94	
2025-01-10 08:24:05.42	80.31	16.95	
2025-01-10 08:24:05.63	80.27	16.96	
2025-01-10 08:24:05.83	80.23	16.98	
2025-01-10 08:24:06.03	80.19	16.99	
2025-01-10 08:24:06.24	80.15	17.01	
2025-01-10 08:24:06.44	80.12	17.02	
2025-01-10 08:24:06.65	80.08	17.03	
2025-01-10 08:24:06.85	80.04	17.05	
2025-01-10 08:24:07.07	80.00	17.06	
2025-01-10 08:24:07.28	79.96	17.08	
2025-01-10 08:24:07.48	79.93	17.09	
2025-01-10 08:24:07.69	79.89	17.10	
2025-01-10 08:24:07.89	79.85	17.12	
2025-01-10 08:24:08.10	79.81	17.13	
2025-01-10 08:24:08.30	79.77	17.14	
2025-01-10 08:24:08.51	79.73	17.16	
2025-01-10 08:24:08.71	79.70	17.17	
2025-01-10 08:24:08.92	79.66	17.19	
2025-01-10 08:24:09.12	79.62	17.20	
2025-01-10 08:24:09.33	79.58	17.21	
2025-01-10 08:24:09.54	79.54	17.23	
2025-01-10 08:24:09.74	79.50	17.24	
2025-01-10 08:24:09.95	79.46	17.26	
2025-01-10 08:24:10.15	79.43	17.27	
2025-01-10 08:24:10.35	79.39	17.28	
2025-01-10 08:24:10.56	79.35	17.30	
2025-01-10 08:24:10.76	79.31	17.31	
2025-01-10 08:24:10.97	79.27	17.32	
2025-01-10 08:24:11.17	79.23	17.34	
2025-01-10 08:24:11.38	79.19	17.35	
2025-01-10 08:24:11.58	79.16	17.36	
2025-01-10 08:24:11.79	79.12	17.38	
2025-01-10 08:24:11.99	79.08	17.39	
2025-01-10 08:24:12.20	79.04	17.41	
2025-01-10 08:24:12.40	79.00	17.42	
2025-01-10 08:24:12.61	78.96	17.43	
2025-01-10 08:24:12.81	78.92	17.45	
2025-01-10 08:24:13.02	78.88	17.46	
2025-01-10 08:24:13.23	78.84	17.47	
2025-01-10 08:24:13.43	78.80	17.49	
2025-01-10 08:24:13.63	78.77	17.50	
2025-01-10 08:24:13.84	78.73	17.51	
2025-01-10 08:24:14.04	78.69	17.53	
2025-01-10 08:24:14.25	78.65	17.54	
2025-01-10 08:24:14.45	78.61	17.56	
2025-01-10 08:24:14.66	78.57	17.57	
2025-01-10 08:24:14.86	78.53	17.58	
2025-01-10 08:24:15.07	78.49	17.60	
2025-01-10 08:24:15.28	78.45	17.61	
2025-01-10 08:24:15.48	78.41	17.62	
2025-01-10 08:24:15.69	78.37	17.64	
2025-01-10 08:24:15.89	78.33	17.65	
2025-01-10 08:24:16.10	78.29	17.66	
2025-01-10 08:24:16.30	78.25	17.68	
2025-01-10 08:24:16.51	78.21	17.69	
2025-01-10 08:24:16.71	78.17	17.70	
2025-01-10 08:24:16.92	78.13	17.72	
2025-01-10 08:24:17.12	78.09	17.73	
2025-01-10 08:24:17.33	78.05	17.75	
2025-01-10 08:24:17.53	78.02	17.76	
2025-01-10 08:24:17.74	77.97	17.77	
2025-01-10 08:24:17.94	77.94	17.79	
2025-01-10 08:24:18.15	77.89	17.80	
2025-01-10 08:24:18.35	77.86	17.81	
2025-01-10 08:24:18.56	77.81	17.83	
2025-01-10 08:24:18.78	77.77	17.84	
2025-01-10 08:24:18.98	77.73	17.85	
2025-01-10 08:24:19.19	77.69	17.87	
2025-01-10 08:24:19.39	77.65	17.88	
2025-01-10 08:24:19.60	77.61	17.90	
2025-01-10 08:24:19.80	77.57	17.91	
2025-01-10 08:24:20.01	77.53	17.92	
2025-01-10 08:24:20.21	77.49	17.93	
2025-01-10 08:24:20.42	77.45	17.95	
2025-01-10 08:24:20.62	77.41	17.96	
2025-01-10 08:24:20.82	77.37	17.97	
2025-01-10 08:24:21.03	77.33	17.99	
2025-01-10 08:24:21.24	77.29	18.00	
2025-01-10 08:24:21.44	77.25	18.02	
2025-01-10 08:24:21.65	77.21	18.03	
2025-01-10 08:24:21.85	77.17	18.04	
2025-01-10 08:24:22.06	77.13	18.06	
2025-01-10 08:24:22.26	77.09	18.07	
2025-01-10 08:24:22.47	77.04	18.08	
2025-01-10 08:24:22.67	77.01	18.10	
2025-01-10 08:24:22.88	76.96	18.11	
2025-01-10 08:24:23.08	76.92	18.12	
2025-01-10 08:24:23.29	76.88	18.14	
2025-01-10 08:24:23.50	76.84	18.15	
2025-01-10 08:24:23.70	76.80	18.16	
2025-01-10 08:24:23.91	76.76	18.18	
2025-01-10 08:24:24.11	76.72	18.19	
2025-01-10 08:24:24.32	76.68	18.20	
2025-01-10 08:24:24.52	76.64	18.22	
2025-01-10 08:24:24.73	76.59	18.23	
2025-01-10 08:24:24.94	76.55	18.24	
2025-01-10 08:24:25.14	76.51	18.26	
2025-01-10 08:24:25.35	76.47	18.27	
2025-01-10 08:24:25.55	76.43	18.28	
2025-01-10 08:24:25.75	76.39	18.29	
2025-01-10 08:24:25.96	76.35	18.31	
2025-01-10 08:24:26.16	76.31	18.32	
2025-01-10 08:24:26.37	76.26	18.33	
2025-01-10 08:24:26.58	76.22	18.35	
2025-01-10 08:24:26.78	76.18	18.36	
2025-01-10 08:24:26.99	76.14	18.37	
2025-01-10 08:24:27.19	76.10	18.39	
2025-01-10 08:24:27.39	76.06	18.40	
2025-01-10 08:24:27.60	76.02	18.41	
2025-01-10 08:24:27.80	75.97	18.43	
2025-01-10 08:24:28.01	75.93	18.44	
2025-01-10 08:24:28.21	75.89	18.45	
2025-01-10 08:24:28.42	75.85	18.47	
2025-01-10 08:24:28.63	75.81	18.48	
2025-01-10 08:24:28.83	75.76	18.49	
2025-01-10 08:24:29.04	75.72	18.51	
2025-01-10 08:24:29.24	75.68	18.52	
2025-01-10 08:24:29.46	75.64	18.53	
2025-01-10 08:24:29.67	75.59	18.55	
2025-01-10 08:24:29.87	75.55	18.56	
2025-01-10 08:24:30.08	75.51	18.57	
2025-01-10 08:24:30.28	75.47	18.58	
2025-01-10 08:24:30.50	75.42	18.60	
2025-01-10 08:24:30.71	75.38	18.61	
2025-01-10 08:24:30.91	75.34	18.62	
2025-01-10 08:24:31.12	75.30	18.64	
2025-01-10 08:24:31.32	75.25	18.65	
2025-01-10 08:24:31.53	75.21	18.66	
2025-01-10 08:24:31.73	75.17	18.68	
2025-01-10 08:24:31.94	75.13	18.69	
2025-01-10 08:24:32.14	75.08	18.70	
2025-01-10 08:24:32.35	75.04	18.71	
2025-01-10 08:24:32.55	75.00	18.73	
2025-01-10 08:24:32.75	74.96	18.74	
2025-01-10 08:24:32.96	74.91	18.75	
2025-01-10 08:24:33.16	74.87	18.77	
2025-01-10 08:24:33.37	74.83	18.78	
2025-01-10 08:24:33.57	74.79	18.79	
2025-01-10 08:24:33.78	74.74	18.80	
2025-01-10 08:24:33.98	74.70	18.82	
2025-01-10 08:24:34.19	74.66	18.83	
2025-01-10 08:24:34.39	74.62	18.84	
2025-01-10 08:24:34.60	74.57	18.86	
2025-01-10 08:24:34.80	74.53	18.87	
2025-01-10 08:24:35.01	74.49	18.88	
2025-01-10 08:24:35.21	74.45	18.89	
2025-01-10 08:24:35.42	74.40	18.91	
2025-01-10 08:24:35.62	74.36	18.92	
2025-01-10 08:24:35.83	74.32	18.93	
2025-01-10 08:24:36.03	74.27	18.95	
2025-01-10 08:24:36.24	74.23	18.96	
2025-01-10 08:24:36.44	74.19	18.97	
2025-01-10 08:24:36.65	74.14	18.98	
2025-01-10 08:24:36.85	74.10	19.00	
2025-01-10 08:24:37.06	74.06	19.01	
2025-01-10 08:24:37.26	74.01	19.02	
2025-01-10 08:24:37.47	73.97	19.03	
2025-01-10 08:24:37.67	73.93	19.05	
2025-01-10 08:24:37.87	73.89	19.06	
2025-01-10 08:24:38.08	73.84	19.07	
2025-01-10 08:24:38.28	73.80	19.08	
2025-01-10 08:24:38.48	73.76	19.10	
2025-01-10 08:24:38.69	73.71	19.11	
2025-01-10 08:24:38.89	73.67	19.12	
2025-01-10 08:24:39.10	73.62	19.13	
2025-01-10 08:24:39.30	73.58	19.15	
2025-01-10 08:24:39.51	73.54	19.16	
2025-01-10 08:24:39.72	73.49	19.17	
2025-01-10 08:24:39.92	73.45	19.18	
2025-01-10 08:24:40.13	73.40	19.20	
2025-01-10 08:24:40.33	73.36	19.21	
2025-01-10 08:24:40.54	73.32	19.22	
2025-01-10 08:24:40.74	73.27	19.23	
2025-01-10 08:24:40.95	73.23	19.25	
2025-01-10 08:24:41.16	73.18	19.26	
2025-01-10 08:24:41.37	73.14	19.27	
2025-01-10 08:24:41.57	73.10	19.29	
2025-01-10 08:24:41.78	73.05	19.30	
2025-01-10 08:24:41.98	73.01	19.31	
2025-01-10 08:24:42.20	72.96	19.32	
2025-01-10 08:24:42.41	72.91	19.34	
2025-01-10 08:24:42.61	72.87	19.35	
2025-01-10 08:24:42.82	72.83	19.36	
2025-01-10 08:24:43.02	72.78	19.37	
2025-01-10 08:24:43.23	72.74	19.39	
2025-01-10 08:24:43.43	72.69	19.40	
2025-01-10 08:24:43.64	72.65	19.41	
2025-01-10 08:24:43.84	72.61	19.42	
2025-01-10 08:24:44.05	72.56	19.43	
2025-01-10 08:24:44.25	72.52	19.45	
2025-01-10 08:24:44.46	72.47	19.46	
2025-01-10 08:24:44.66	72.43	19.47	
2025-01-10 08:24:44.87	72.38	19.48	
2025-01-10 08:24:45.08	72.34	19.50	
2025-01-10 08:24:45.28	72.29	19.51	
2025-01-10 08:24:45.49	72.25	19.52	
2025-01-10 08:24:45.69	72.20	19.53	
2025-01-10 08:24:45.89	72.16	19.54	
2025-01-10 08:24:46.10	72.11	19.56	
2025-01-10 08:24:46.30	72.07	19.57	
2025-01-10 08:24:46.51	72.02	19.58	
2025-01-10 08:24:46.71	71.98	19.59	
2025-01-10 08:24:46.92	71.93	19.61	
2025-01-10 08:24:47.13	71.89	19.62	
2025-01-10 08:24:47.33	71.84	19.63	
2025-01-10 08:24:47.53	71.80	19.64	
2025-01-10 08:24:47.74	71.75	19.65	
2025-01-10 08:24:47.94	71.71	19.67	
2025-01-10 08:24:48.15	71.66	19.68	
2025-01-10 08:24:48.35	71.62	19.69	
2025-01-10 08:24:48.57	71.57	19.70	
2025-01-10 08:24:48.78	71.52	19.72	
2025-01-10 08:24:48.98	71.48	19.73	
2025-01-10 08:24:49.19	71.43	19.74	
2025-01-10 08:24:49.39	71.39	19.75	
2025-01-10 08:24:49.60	71.34	19.76	
2025-01-10 08:24:49.80	71.30	19.77	
2025-01-10 08:24:50.01	71.25	19.79	
2025-01-10 08:24:50.21	71.21	19.80	
2025-01-10 08:24:50.42	71.16	19.81	
2025-01-10 08:24:50.62	71.12	19.82	
2025-01-10 08:24:50.83	71.07	19.83	
2025-01-10 08:24:51.03	71.02	19.85	
2025-01-10 08:24:51.24	70.98	19.86	
2025-01-10 08:24:51.44	70.93	19.87	
2025-01-10 08:24:51.65	70.89	19.88	
2025-01-10 08:24:51.85	70.84	19.89	
2025-01-10 08:24:52.05	70.80	19.91	
2025-01-10 08:24:52.26	70.75	19.92	
2025-01-10 08:24:52.46	70.70	19.93	
2025-01-10 08:24:52.67	70.66	19.94	
2025-01-10 08:24:52.87	70.61	19.95	
2025-01-10 08:24:53.08	70.56	19.96	
2025-01-10 08:24:53.28	70.52	19.98	
2025-01-10 08:24:53.49	70.47	19.99	
2025-01-10 08:24:53.69	70.43	20.00	
2025-01-10 08:24:53.90	70.38	20.01	
2025-01-10 08:24:54.10	70.33	20.02	
2025-01-10 08:24:54.31	70.29	20.03	
2025-01-10 08:24:54.51	70.24	20.05	
2025-01-10 08:24:54.72	70.19	20.06	
2025-01-10 08:24:54.92	70.15	20.07	
2025-01-10 08:24:55.13	70.10	20.08	
2025-01-10 08:24:55.33	70.06	20.09	
2025-01-10 08:24:55.54	70.01	20.10	
2025-01-10 08:24:55.74	69.96	20.11	
2025-01-10 08:24:55.95	69.92	20.13	
2025-01-10 08:24:56.15	69.87	20.14	
2025-01-10 08:24:56.36	69.82	20.15	
2025-01-10 08:24:56.56	69.78	20.16	
2025-01-10 08:24:56.77	69.73	20.17	
2025-01-10 08:24:56.97	69.68	20.18	
2025-01-10 08:24:57.18	69.64	20.20	
2025-01-10 08:24:57.38	69.59	20.21	
2025-01-10 08:24:57.59	69.54	20.22	
2025-01-10 08:24:57.79	69.50	20.23	
2025-01-10 08:24:58.00	69.45	20.24	
2025-01-10 08:24:58.20	69.40	20.25	
2025-01-10 08:24:58.41	69.35	20.26	
2025-01-10 08:24:58.62	69.31	20.28	
2025-01-10 08:24:58.82	69.26	20.29	
2025-01-10 08:24:59.03	69.21	20.30	
2025-01-10 08:24:59.23	69.17	20.31	
2025-01-10 08:24:59.44	69.12	20.32	
2025-01-10 08:24:59.64	69.07	20.33	
2025-01-10 08:24:59.85	69.02	20.34	
2025-01-10 08:25:00.05	68.98	20.35	
2025-01-10 08:25:00.25	68.93	20.37	
2025-01-10 08:25:00.46	68.88	20.38	
2025-01-10 08:25:00.66	68.84	20.39	
2025-01-10 08:25:00.87	68.79	20.40	
2025-01-10 08:25:01.08	68.74	20.41	
2025-01-10 08:25:01.28	68.69	20.42	
2025-01-10 08:25:01.48	68.65	20.43	
2025-01-10 08:25:01.69	68.60	20.44	
2025-01-10 08:25:01.89	68.55	20.45	
2025-01-10 08:25:02.10	68.50	20.47	
2025-01-10 08:25:02.30	68.46	20.48	
2025-01-10 08:25:02.51	68.41	20.49	
2025-01-10 08:25:02.71	68.36	20.50	
2025-01-10 08:25:02.92	68.31	20.51	
2025-01-10 08:25:03.13	68.26	20.52	
2025-01-10 08:25:03.33	68.22	20.53	
2025-01-10 08:25:03.53	68.17	20.54	
2025-01-10 08:25:03.74	68.12	20.55	
2025-01-10 08:25:03.94	68.07	20.56	
2025-01-10 08:25:04.15	68.03	20.58	
2025-01-10 08:25:04.35	67.98	20.59	
2025-01-10 08:25:04.56	67.93	20.60	
2025-01-10 08:25:04.76	67.88	20.61	
2025-01-10 08:25:04.97	67.83	20.62	
2025-01-10 08:25:05.17	67.79	20.63	
2025-01-10 08:25:05.38	67.74	20.64	
2025-01-10 08:25:05.58	67.69	20.65	
2025-01-10 08:25:05.79	67.64	20.66	
2025-01-10 08:25:05.99	67.59	20.67	
2025-01-10 08:25:06.20	67.54	20.68	
2025-01-10 08:25:06.40	67.50	20.69	
2025-01-10 08:25:06.61	67.45	20.71	
2025-01-10 08:25:06.81	67.40	20.72	
2025-01-10 08:25:07.01	67.35	20.73	
2025-01-10 08:25:07.22	67.30	20.74	
2025-01-10 08:25:07.42	67.26	20.75	
2025-01-10 08:25:07.63	67.21	20.76	
2025-01-10 08:25:07.84	67.16	20.77	
2025-01-10 08:25:08.05	67.11	20.78	
2025-01-10 08:25:08.25	67.06	20.79	
2025-01-10 08:25:08.46	67.01	20.80	
2025-01-10 08:25:08.66	66.96	20.81	
2025-01-10 08:25:08.87	66.91	20.82	
2025-01-10 08:25:09.07	66.86	20.83	
2025-01-10 08:25:09.28	66.81	20.84	
2025-01-10 08:25:09.48	66.77	20.85	
2025-01-10 08:25:09.69	66.72	20.86	
2025-01-10 08:25:09.89	66.67	20.87	
2025-01-10 08:25:10.09	66.62	20.88	
2025-01-10 08:25:10.30	66.57	20.89	
2025-01-10 08:25:10.50	66.52	20.90	
2025-01-10 08:25:10.71	66.47	20.92	
2025-01-10 08:25:10.92	66.42	20.93	
2025-01-10 08:25:11.12	66.37	20.94	
2025-01-10 08:25:11.33	66.32	20.95	
2025-01-10 08:25:11.53	66.28	20.96	
2025-01-10 08:25:11.74	66.23	20.97	
2025-01-10 08:25:11.94	66.18	20.98	
2025-01-10 08:25:12.14	66.13	20.99	
2025-01-10 08:25:12.35	66.08	21.00	
2025-01-10 08:25:12.56	66.03	21.01	
2025-01-10 08:25:12.76	65.98	21.02	
2025-01-10 08:25:12.97	65.93	21.03	
2025-01-10 08:25:13.17	65.88	21.04	
2025-01-10 08:25:13.38	65.83	21.05	
2025-01-10 08:25:13.58	65.78	21.06	
2025-01-10 08:25:13.79	65.73	21.07	
2025-01-10 08:25:13.99	65.68	21.08	
2025-01-10 08:25:14.19	65.64	21.09	
2025-01-10 08:25:14.40	65.59	21.10	
2025-01-10 08:25:14.61	65.53	21.11	
2025-01-10 08:25:14.81	65.49	21.12	
2025-01-10 08:25:15.02	65.43	21.13	
2025-01-10 08:25:15.22	65.39	21.14	
2025-01-10 08:25:15.42	65.34	21.15	
2025-01-10 08:25:15.63	65.29	21.16	
2025-01-10 08:25:15.83	65.24	21.17	
2025-01-10 08:25:16.04	65.19	21.18	
2025-01-10 08:25:16.25	65.14	21.19	
2025-01-10 08:25:16.45	65.09	21.20	
2025-01-10 08:25:16.66	65.04	21.21	
2025-01-10 08:25:16.86	64.99	21.22	
2025-01-10 08:25:17.07	64.94	21.23	
2025-01-10 08:25:17.27	64.89	21.24	
2025-01-10 08:25:17.48	64.84	21.25	
2025-01-10 08:25:17.68	64.79	21.26	
2025-01-10 08:25:17.89	64.74	21.27	
2025-01-10 08:25:18.09	64.69	21.28	
2025-01-10 08:25:18.30	64.64	21.29	
2025-01-10 08:25:18.50	64.59	21.30	
2025-01-10 08:25:18.71	64.53	21.31	
2025-01-10 08:25:18.91	64.49	21.31	
2025-01-10 08:25:19.12	64.43	21.32	
2025-01-10 08:25:19.32	64.38	21.33	
2025-01-10 08:25:19.52	64.34	21.34	
2025-01-10 08:25:19.73	64.28	21.35	
2025-01-10 08:25:19.93	64.23	21.36	
2025-01-10 08:25:20.14	64.18	21.37	
2025-01-10 08:25:20.34	64.13	21.38	
2025-01-10 08:25:20.55	64.08	21.39	
2025-01-10 08:25:20.75	64.03	21.40	
2025-01-10 08:25:20.96	63.98	21.41	
2025-01-10 08:25:21.16	63.93	21.42	
2025-01-10 08:25:21.37	63.88	21.43	
2025-01-10 08:25:21.57	63.83	21.44	
2025-01-10 08:25:21.77	63.78	21.45	
2025-01-10 08:25:21.98	63.73	21.46	
2025-01-10 08:25:22.18	63.68	21.47	
2025-01-10 08:25:22.39	63.63	21.47	
2025-01-10 08:25:22.60	63.57	21.48	
2025-01-10 08:25:22.80	63.52	21.49	
2025-01-10 08:25:23.01	63.47	21.50	
2025-01-10 08:25:23.21	63.42	21.51	
2025-01-10 08:25:23.41	63.37	21.52	
2025-01-10 08:25:23.62	63.32	21.53	
2025-01-10 08:25:23.83	63.27	21.54	
2025-01-10 08:25:24.03	63.22	21.55	
2025-01-10 08:25:24.24	63.17	21.56	
2025-01-10 08:25:24.44	63.12	21.57	
2025-01-10 08:25:24.65	63.06	21.58	
2025-01-10 08:25:24.85	63.01	21.58	
2025-01-10 08:25:25.06	62.96	21.59	
2025-01-10 08:25:25.26	62.91	21.60	
2025-01-10 08:25:25.47	62.86	21.61	
2025-01-10 08:25:25.67	62.81	21.62	
2025-01-10 08:25:25.88	62.76	21.63	
2025-01-10 08:25:26.08	62.71	21.64	
2025-01-10 08:25:26.29	62.65	21.65	
2025-01-10 08:25:26.49	62.60	21.66	
2025-01-10 08:25:26.69	62.55	21.66	
2025-01-10 08:25:26.90	62.50	21.67	
2025-01-10 08:25:27.11	62.45	21.68	
2025-01-10 08:25:27.31	62.40	21.69	
2025-01-10 08:25:27.52	62.34	21.70	
2025-01-10 08:25:27.72	62.29	21.71	
2025-01-10 08:25:27.93	62.24	21.72	
2025-01-10 08:25:28.13	62.19	21.73	
2025-01-10 08:25:28.34	62.14	21.73	
2025-01-10 08:25:28.54	62.09	21.74	
2025-01-10 08:25:28.75	62.03	21.75	
2025-01-10 08:25:28.95	61.98	21.76	
2025-01-10 08:25:29.16	61.93	21.77	
2025-01-10 08:25:29.36	61.88	21.78	
2025-01-10 08:25:29.57	61.83	21.79	
2025-01-10 08:25:29.77	61.78	21.79	
2025-01-10 08:25:29.98	61.72	21.80	
2025-01-10 08:25:30.18	61.67	21.81	
2025-01-10 08:25:30.39	61.62	21.82	
2025-01-10 08:25:30.59	61.57	21.83	
2025-01-10 08:25:30.80	61.52	21.84	
2025-01-10 08:25:31.00	61.46	21.84	
2025-01-10 08:25:31.21	61.41	21.85	
2025-01-10 08:25:31.41	61.36	21.86	
2025-01-10 08:25:31.62	61.31	21.87	
2025-01-10 08:25:31.82	61.26	21.88	
2025-01-10 08:25:32.03	61.20	21.89	
2025-01-10 08:25:32.24	61.15	21.89	
2025-01-10 08:25:32.44	61.10	21.90	
2025-01-10 08:25:32.64	61.05	21.91	
2025-01-10 08:25:32.85	60.99	21.92	
2025-01-10 08:25:33.05	60.94	21.93	
2025-01-10 08:25:33.26	60.89	21.94	
2025-01-10 08:25:33.46	60.84	21.94	
2025-01-10 08:25:33.67	60.78	21.95	
2025-01-10 08:25:33.87	60.73	21.96	
2025-01-10 08:25:34.08	60.68	21.97	
2025-01-10 08:25:34.28	60.63	21.98	
2025-01-10 08:25:34.49	60.57	21.98	
2025-01-10 08:25:34.69	60.52	21.99	
2025-01-10 08:25:34.90	60.47	22.00	
2025-01-10 08:25:35.10	60.42	22.01	
2025-01-10 08:25:35.31	60.36	22.01	
2025-01-10 08:25:35.51	60.31	22.02	
2025-01-10 08:25:35.72	60.26	22.03	
2025-01-10 08:25:35.92	60.21	22.04	
2025-01-10 08:25:36.12	60.16	22.05	
2025-01-10 08:25:36.33	60.10	22.05	
2025-01-10 08:25:36.53	60.05	22.06	
2025-01-10 08:25:36.74	60.00	22.07	
2025-01-10 08:25:36.94	59.94	22.08	
2025-01-10 08:25:37.15	59.89	22.08	
2025-01-10 08:25:37.35	59.84	22.09	
2025-01-10 08:25:37.56	59.78	22.10	
2025-01-10 08:25:37.76	59.73	22.11	
2025-01-10 08:25:37.97	59.68	22.11	
2025-01-10 08:25:38.17	59.63	22.12	
2025-01-10 08:25:38.38	59.57	22.13	
2025-01-10 08:25:38.58	59.52	22.14	
2025-01-10 08:25:38.79	59.47	22.14	
2025-01-10 08:25:38.99	59.41	22.15	
2025-01-10 08:25:39.19	59.36	22.16	
2025-01-10 08:25:39.40	59.31	22.17	
2025-01-10 08:25:39.61	59.25	22.17	
2025-01-10 08:25:39.81	59.20	22.18	
2025-01-10 08:25:40.01	59.15	22.19	
2025-01-10 08:25:40.22	59.10	22.20	
2025-01-10 08:25:40.42	59.04	22.20	
2025-01-10 08:25:40.63	58.99	22.21	
2025-01-10 08:25:40.83	58.94	22.22	
2025-01-10 08:25:41.03	58.88	22.22	
2025-01-10 08:25:41.24	58.83	22.23	
2025-01-10 08:25:41.45	58.77	22.24	
2025-01-10 08:25:41.65	58.72	22.25	
2025-01-10 08:25:41.86	58.67	22.25	
2025-01-10 08:25:42.06	58.62	22.26	
2025-01-10 08:25:42.27	58.56	22.27	
2025-01-10 08:25:42.47	58.51	22.27	
2025-01-10 08:25:42.68	58.45	22.28	
2025-01-10 08:25:42.88	58.40	22.29	
2025-01-10 08:25:43.09	58.35	22.30	
2025-01-10 08:25:43.29	58.29	22.30	
2025-01-10 08:25:43.50	58.24	22.31	
2025-01-10 08:25:43.70	58.19	22.32	
2025-01-10 08:25:43.91	58.13	22.32	
2025-01-10 08:25:44.11	58.08	22.33	
2025-01-10 08:25:44.32	58.02	22.34	
2025-01-10 08:25:44.52	57.97	22.34	
2025-01-10 08:25:44.73	57.92	22.35	
2025-01-10 08:25:44.93	57.86	22.36	
2025-01-10 08:25:45.14	57.81	22.36	
2025-01-10 08:25:45.34	57.76	22.37	
2025-01-10 08:25:45.55	57.70	22.38	
2025-01-10 08:25:45.76	57.65	22.38	
2025-01-10 08:25:45.96	57.59	22.39	
2025-01-10 08:25:46.16	57.54	22.40	
2025-01-10 08:25:46.37	57.49	22.40	
2025-01-10 08:25:46.57	57.43	22.41	
2025-01-10 08:25:46.78	57.38	22.42	
2025-01-10 08:25:46.98	57.33	22.42	
2025-01-10 08:25:47.19	57.27	22.43	
2025-01-10 08:25:47.41	57.21	22.44	
2025-01-10 08:25:47.61	57.16	22.44	
2025-01-10 08:25:47.82	57.10	22.45	
2025-01-10 08:25:48.02	57.05	22.46	
2025-01-10 08:25:48.23	57.00	22.46	
2025-01-10 08:25:48.43	56.94	22.47	
2025-01-10 08:25:48.64	56.89	22.47	
2025-01-10 08:25:48.84	56.83	22.48	
2025-01-10 08:25:49.05	56.78	22.49	
2025-01-10 08:25:49.25	56.73	22.49	
2025-01-10 08:25:49.46	56.67	22.50	
2025-01-10 08:25:49.66	56.62	22.51	
2025-01-10 08:25:49.87	56.56	22.51	
2025-01-10 08:25:50.07	56.51	22.52	
2025-01-10 08:25:50.28	56.45	22.52	
2025-01-10 08:25:50.48	56.40	22.53	
2025-01-10 08:25:50.69	56.34	22.54	
2025-01-10 08:25:50.89	56.29	22.54	
2025-01-10 08:25:51.10	56.23	22.55	
2025-01-10 08:25:51.30	56.18	22.55	
2025-01-10 08:25:51.50	56.13	22.56	
2025-01-10 08:25:51.71	56.07	22.57	
2025-01-10 08:25:51.91	56.02	22.57	
2025-01-10 08:25:52.12	55.96	22.58	
2025-01-10 08:25:52.33	55.91	22.58	
2025-01-10 08:25:52.53	55.85	22.59	
2025-01-10 08:25:52.73	55.80	22.59	
2025-01-10 08:25:52.94	55.74	22.60	
2025-01-10 08:25:53.14	55.69	22.61	
2025-01-10 08:25:53.35	55.63	22.61	
2025-01-10 08:25:53.55	55.58	22.62	
2025-01-10 08:25:53.77	55.52	22.62	
2025-01-10 08:25:53.98	55.47	22.63	
2025-01-10 08:25:54.18	55.41	22.63	
2025-01-10 08:25:54.39	55.36	22.64	
2025-01-10 08:25:54.59	55.30	22.65	
2025-01-10 08:25:54.80	55.25	22.65	
2025-01-10 08:25:55.00	55.19	22.66	
2025-01-10 08:25:55.21	55.14	22.66	
2025-01-10 08:25:55.42	55.08	22.67	
2025-01-10 08:25:55.62	55.03	22.67	
2025-01-10 08:25:55.84	54.97	22.68	
2025-01-10 08:25:56.05	54.91	22.68	
2025-01-10 08:25:56.25	54.86	22.69	
2025-01-10 08:25:56.46	54.80	22.69	
2025-01-10 08:25:56.66	54.75	22.70	
2025-01-10 08:25:56.87	54.69	22.70	
2025-01-10 08:25:57.07	54.64	22.71	
2025-01-10 08:25:57.28	54.58	22.71	
2025-01-10 08:25:57.48	54.53	22.72	
2025-01-10 08:25:57.69	54.47	22.73	
2025-01-10 08:25:57.89	54.42	22.73	
2025-01-10 08:25:58.10	54.36	22.74	
2025-01-10 08:25:58.30	54.31	22.74	
2025-01-10 08:25:58.51	54.25	22.75	
2025-01-10 08:25:58.71	54.20	22.75	
2025-01-10 08:25:58.92	54.14	22.76	
2025-01-10 08:25:59.12	54.09	22.76	
2025-01-10 08:25:59.33	54.03	22.76	
2025-01-10 08:25:59.53	53.98	22.77	
2025-01-10 08:25:59.74	53.92	22.77	
2025-01-10 08:25:59.94	53.87	22.78	
2025-01-10 08:26:00.16	53.81	22.78	
2025-01-10 08:26:00.37	53.75	22.79	
2025-01-10 08:26:00.57	53.70	22.79	
2025-01-10 08:26:00.78	53.64	22.80	
2025-01-10 08:26:00.99	53.58	22.80	
2025-01-10 08:26:01.19	53.53	22.81	
2025-01-10 08:26:01.39	53.47	22.81	
2025-01-10 08:26:01.60	53.42	22.82	
2025-01-10 08:26:01.80	53.36	22.82	
2025-01-10 08:26:02.01	53.31	22.83	
2025-01-10 08:26:02.21	53.25	22.83	
2025-01-10 08:26:02.42	53.20	22.83	
2025-01-10 08:26:02.62	53.14	22.84	
2025-01-10 08:26:02.83	53.09	22.84	
2025-01-10 08:26:03.04	53.03	22.85	
2025-01-10 08:26:03.24	52.97	22.85	
2025-01-10 08:26:03.44	52.92	22.86	
2025-01-10 08:26:03.65	52.86	22.86	
2025-01-10 08:26:03.85	52.81	22.87	
2025-01-10 08:26:04.06	52.75	22.87	
2025-01-10 08:26:04.26	52.70	22.87	
2025-01-10 08:26:04.47	52.64	22.88	
2025-01-10 08:26:04.67	52.59	22.88	
2025-01-10 08:26:04.88	52.53	22.89	
2025-01-10 08:26:05.08	52.47	22.89	
2025-01-10 08:26:05.29	52.42	22.89	
2025-01-10 08:26:05.51	52.36	22.90	
2025-01-10 08:26:05.71	52.30	22.90	
2025-01-10 08:26:05.92	52.25	22.91	
2025-01-10 08:26:06.12	52.19	22.91	
2025-01-10 08:26:06.33	52.13	22.91	
2025-01-10 08:26:06.54	52.08	22.92	
2025-01-10 08:26:06.74	52.02	22.92	
2025-01-10 08:26:06.95	51.97	22.93	
2025-01-10 08:26:07.15	51.91	22.93	
2025-01-10 08:26:07.36	51.85	22.93	
2025-01-10 08:26:07.56	51.80	22.94	
2025-01-10 08:26:07.77	51.74	22.94	
2025-01-10 08:26:07.97	51.69	22.94	
2025-01-10 08:26:08.18	51.63	22.95	
2025-01-10 08:26:08.38	51.58	22.95	
2025-01-10 08:26:08.59	51.52	22.96	
2025-01-10 08:26:08.79	51.46	22.96	
2025-01-10 08:26:09.00	51.41	22.96	
2025-01-10 08:26:09.20	51.35	22.97	
2025-01-10 08:26:09.41	51.30	22.97	
2025-01-10 08:26:09.61	51.24	22.97	
2025-01-10 08:26:09.82	51.18	22.98	
2025-01-10 08:26:10.02	51.13	22.98	
2025-01-10 08:26:10.23	51.07	22.98	
2025-01-10 08:26:10.43	51.02	22.99	
2025-01-10 08:26:10.64	50.96	22.99	
2025-01-10 08:26:10.84	50.90	22.99	
2025-01-10 08:26:11.05	50.85	23.00	
2025-01-10 08:26:11.25	50.79	23.00	
2025-01-10 08:26:11.46	50.73	23.00	
2025-01-10 08:26:11.66	50.68	23.01	
2025-01-10 08:26:11.87	50.62	23.01	
2025-01-10 08:26:12.07	50.57	23.01	
2025-01-10 08:26:12.28	50.51	23.02	
2025-01-10 08:26:12.48	50.46	23.02	
2025-01-10 08:26:12.69	50.40	23.02	
2025-01-10 08:26:12.89	50.34	23.02	
2025-01-10 08:26:13.09	50.29	23.03	
2025-01-10 08:26:13.30	50.23	23.03	
2025-01-10 08:26:13.50	50.18	23.03	
2025-01-10 08:26:13.71	50.12	23.04	
2025-01-10 08:26:13.91	50.06	23.04	
2025-01-10 08:26:14.12	50.01	23.04	
2025-01-10 08:26:14.33	49.95	23.04	
2025-01-10 08:26:14.53	49.89	23.05	
2025-01-10 08:26:14.74	49.84	23.05	
2025-01-10 08:26:14.94	49.78	23.05	
2025-01-10 08:26:15.14	49.73	23.05	
2025-01-10 08:26:15.35	49.67	23.06	
2025-01-10 08:26:15.55	49.61	23.06	
2025-01-10 08:26:15.76	49.56	23.06	
2025-01-10 08:26:15.96	49.50	23.07	
2025-01-10 08:26:16.17	49.44	23.07	
2025-01-10 08:26:16.37	49.39	23.07	
2025-01-10 08:26:16.58	49.33	23.07	
2025-01-10 08:26:16.78	49.28	23.08	
2025-01-10 08:26:16.99	49.22	23.08	
2025-01-10 08:26:17.19	49.16	23.08	
2025-01-10 08:26:17.40	49.11	23.08	
2025-01-10 08:26:17.60	49.05	23.08	
2025-01-10 08:26:17.81	48.99	23.09	
2025-01-10 08:26:18.02	48.93	23.09	
2025-01-10 08:26:18.22	48.88	23.09	
2025-01-10 08:26:18.42	48.82	23.09	
2025-01-10 08:26:18.63	48.77	23.10	
2025-01-10 08:26:18.83	48.71	23.10	
2025-01-10 08:26:19.04	48.65	23.10	
2025-01-10 08:26:19.24	48.60	23.10	
2025-01-10 08:26:19.45	48.54	23.10	
2025-01-10 08:26:19.65	48.49	23.11	
2025-01-10 08:26:19.86	48.43	23.11	
2025-01-10 08:26:20.06	48.37	23.11	
2025-01-10 08:26:20.27	48.32	23.11	
2025-01-10 08:26:20.47	48.26	23.11	
2025-01-10 08:26:20.68	48.20	23.12	
2025-01-10 08:26:20.88	48.15	23.12	
2025-01-10 08:26:21.09	48.09	23.12	
2025-01-10 08:26:21.29	48.03	23.12	
2025-01-10 08:26:21.50	47.98	23.12	
2025-01-10 08:26:21.70	47.92	23.12	
2025-01-10 08:26:21.91	47.86	23.13	
2025-01-10 08:26:22.11	47.81	23.13	
2025-01-10 08:26:22.32	47.75	23.13	
2025-01-10 08:26:22.52	47.69	23.13	
2025-01-10 08:26:22.73	47.64	23.13	
2025-01-10 08:26:22.93	47.58	23.13	
2025-01-10 08:26:23.14	47.52	23.14	
2025-01-10 08:26:23.34	47.47	23.14	
2025-01-10 08:26:23.54	47.41	23.14	
2025-01-10 08:26:23.75	47.36	23.14	
2025-01-10 08:26:23.96	47.30	23.14	
2025-01-10 08:26:24.16	47.24	23.14	
2025-01-10 08:26:24.37	47.18	23.14	
2025-01-10 08:26:24.57	47.13	23.15	
2025-01-10 08:26:24.78	47.07	23.15	
2025-01-10 08:26:24.98	47.02	23.15	
2025-01-10 08:26:25.19	46.96	23.15	
2025-01-10 08:26:25.39	46.90	23.15	
2025-01-10 08:26:25.60	46.84	23.15	
2025-01-10 08:26:25.80	46.79	23.15	
2025-01-10 08:26:26.01	46.73	23.15	
2025-01-10 08:26:26.22	46.67	23.15	
2025-01-10 08:26:26.42	46.62	23.16	
2025-01-10 08:26:26.63	46.56	23.16	
2025-01-10 08:26:26.83	46.50	23.16	
2025-01-10 08:26:27.04	46.45	23.16	
2025-01-10 08:26:27.24	46.39	23.16	
2025-01-10 08:26:27.45	46.33	23.16	
2025-01-10 08:26:27.66	46.28	23.16	
2025-01-10 08:26:27.87	46.22	23.16	
2025-01-10 08:26:28.08	46.16	23.16	
2025-01-10 08:26:28.28	46.10	23.16	
2025-01-10 08:26:28.48	46.05	23.16	
2025-01-10 08:26:28.69	45.99	23.16	
2025-01-10 08:26:28.89	45.94	23.17	
2025-01-10 08:26:29.10	45.88	23.17	
2025-01-10 08:26:29.30	45.82	23.17	
2025-01-10 08:26:29.51	45.76	23.17	
2025-01-10 08:26:29.71	45.71	23.17	
2025-01-10 08:26:29.92	45.65	23.17	
2025-01-10 08:26:30.12	45.60	23.17	
2025-01-10 08:26:30.33	45.54	23.17	
2025-01-10 08:26:30.54	45.48	23.17	
2025-01-10 08:26:30.74	45.42	23.17	
2025-01-10 08:26:30.95	45.37	23.17	
2025-01-10 08:26:31.15	45.31	23.17	
2025-01-10 08:26:31.36	45.25	23.17	
2025-01-10 08:26:31.56	45.20	23.17	
2025-01-10 08:26:31.77	45.14	23.17	
2025-01-10 08:26:31.97	45.08	23.17	
2025-01-10 08:26:32.19	45.02	23.17	
2025-01-10 08:26:32.40	44.96	23.17	
