passes_logs/2025/01/10/SPB_Silybum_02/SPB_Silybum_02__20250110_095537_AQUA_rec.log

#Pass ID: 20250110_095537_AQUA
#Satellite: AQUA
#Configuration: AQUA
#Start time: 2025-01-10 09:55:37

#Version: 2.0.20230423
#Station: SPB_Silybum_02
#Location: 30.233357 lon 59.946436 lat
#TLE: 1 27424U 02022A   25009.33792655  .00001838  00000+0  38750-3 0  9996
#TLE: 2 27424  98.3576 325.9512 0001516 117.1765  36.3916 14.60660973206791

#Time	Az	El	Level	Level2	SNR	BER	Gain	Gain2
2025-01-10 09:55:39.66	115.79	4.14	
2025-01-10 09:55:39.87	115.78	4.15	
2025-01-10 09:55:40.07	115.76	4.16	
2025-01-10 09:55:40.28	115.75	4.18	
2025-01-10 09:55:40.48	115.73	4.19	
2025-01-10 09:55:40.69	115.72	4.20	
2025-01-10 09:55:40.89	115.70	4.22	
2025-01-10 09:55:41.10	115.69	4.23	
2025-01-10 09:55:41.30	115.67	4.24	
2025-01-10 09:55:41.51	115.66	4.26	
2025-01-10 09:55:41.71	115.64	4.27	
2025-01-10 09:55:41.91	115.63	4.28	
2025-01-10 09:55:42.12	115.61	4.30	
2025-01-10 09:55:42.33	115.60	4.31	
2025-01-10 09:55:42.53	115.58	4.32	
2025-01-10 09:55:42.73	115.57	4.34	
2025-01-10 09:55:42.94	115.55	4.35	
2025-01-10 09:55:43.14	115.54	4.36	
2025-01-10 09:55:43.35	115.52	4.38	
2025-01-10 09:55:43.55	115.51	4.39	
2025-01-10 09:55:43.76	115.49	4.40	
2025-01-10 09:55:43.96	115.48	4.42	
2025-01-10 09:55:44.17	115.46	4.43	
2025-01-10 09:55:44.38	115.44	4.45	
2025-01-10 09:55:44.58	115.43	4.46	
2025-01-10 09:55:44.78	115.41	4.47	
2025-01-10 09:55:44.99	115.40	4.49	
2025-01-10 09:55:45.20	115.38	4.50	
2025-01-10 09:55:45.40	115.37	4.51	
2025-01-10 09:55:45.61	115.35	4.53	
2025-01-10 09:55:45.81	115.34	4.54	
2025-01-10 09:55:46.02	115.32	4.55	
2025-01-10 09:55:46.22	115.31	4.57	
2025-01-10 09:55:46.43	115.29	4.58	
2025-01-10 09:55:46.63	115.28	4.59	
2025-01-10 09:55:46.84	115.26	4.61	
2025-01-10 09:55:47.04	115.25	4.62	
2025-01-10 09:55:47.25	115.23	4.63	
2025-01-10 09:55:47.45	115.22	4.65	
2025-01-10 09:55:47.65	115.20	4.66	
2025-01-10 09:55:47.86	115.18	4.67	
2025-01-10 09:55:48.06	115.17	4.69	
2025-01-10 09:55:48.27	115.15	4.70	
2025-01-10 09:55:48.47	115.14	4.72	
2025-01-10 09:55:48.68	115.12	4.73	
2025-01-10 09:55:48.89	115.11	4.74	
2025-01-10 09:55:49.09	115.09	4.76	
2025-01-10 09:55:49.29	115.08	4.77	
2025-01-10 09:55:49.50	115.06	4.78	
2025-01-10 09:55:49.71	115.04	4.80	
2025-01-10 09:55:49.91	115.03	4.81	
2025-01-10 09:55:50.11	115.01	4.82	
2025-01-10 09:55:50.32	115.00	4.84	
2025-01-10 09:55:50.53	114.98	4.85	
2025-01-10 09:55:50.73	114.97	4.87	
2025-01-10 09:55:50.94	114.95	4.88	
2025-01-10 09:55:51.15	114.93	4.89	
2025-01-10 09:55:51.35	114.92	4.91	
2025-01-10 09:55:51.56	114.90	4.92	
2025-01-10 09:55:51.76	114.89	4.93	
2025-01-10 09:55:51.97	114.87	4.95	
2025-01-10 09:55:52.17	114.85	4.96	
2025-01-10 09:55:52.38	114.84	4.98	
2025-01-10 09:55:52.58	114.82	4.99	
2025-01-10 09:55:52.79	114.81	5.00	
2025-01-10 09:55:52.99	114.79	5.02	
2025-01-10 09:55:53.20	114.78	5.03	
2025-01-10 09:55:53.40	114.76	5.04	
2025-01-10 09:55:53.61	114.74	5.06	
2025-01-10 09:55:53.81	114.73	5.07	
2025-01-10 09:55:54.02	114.71	5.09	
2025-01-10 09:55:54.22	114.70	5.10	
2025-01-10 09:55:54.43	114.68	5.11	
2025-01-10 09:55:54.63	114.66	5.13	
2025-01-10 09:55:54.84	114.65	5.14	
2025-01-10 09:55:55.04	114.63	5.15	
2025-01-10 09:55:55.25	114.62	5.17	
2025-01-10 09:55:55.45	114.60	5.18	
2025-01-10 09:55:55.66	114.58	5.20	
2025-01-10 09:55:55.86	114.57	5.21	
2025-01-10 09:55:56.07	114.55	5.22	
2025-01-10 09:55:56.27	114.54	5.24	
2025-01-10 09:55:56.48	114.52	5.25	
2025-01-10 09:55:56.68	114.50	5.26	
2025-01-10 09:55:56.89	114.49	5.28	
2025-01-10 09:55:57.10	114.47	5.29	
2025-01-10 09:55:57.30	114.45	5.31	
2025-01-10 09:55:57.51	114.44	5.32	
2025-01-10 09:55:57.71	114.42	5.33	
2025-01-10 09:55:57.92	114.40	5.35	
2025-01-10 09:55:58.12	114.39	5.36	
2025-01-10 09:55:58.32	114.37	5.38	
2025-01-10 09:55:58.53	114.36	5.39	
2025-01-10 09:55:58.74	114.34	5.40	
2025-01-10 09:55:58.94	114.32	5.42	
2025-01-10 09:55:59.14	114.31	5.43	
2025-01-10 09:55:59.35	114.29	5.45	
2025-01-10 09:55:59.56	114.27	5.46	
2025-01-10 09:55:59.76	114.26	5.47	
2025-01-10 09:55:59.97	114.24	5.49	
2025-01-10 09:56:00.17	114.22	5.50	
2025-01-10 09:56:00.38	114.21	5.52	
2025-01-10 09:56:00.58	114.19	5.53	
2025-01-10 09:56:00.78	114.18	5.54	
2025-01-10 09:56:00.99	114.16	5.56	
2025-01-10 09:56:01.20	114.14	5.57	
2025-01-10 09:56:01.40	114.12	5.58	
2025-01-10 09:56:01.61	114.11	5.60	
2025-01-10 09:56:01.81	114.09	5.61	
2025-01-10 09:56:02.02	114.07	5.63	
2025-01-10 09:56:02.22	114.06	5.64	
2025-01-10 09:56:02.43	114.04	5.65	
2025-01-10 09:56:02.63	114.03	5.67	
2025-01-10 09:56:02.84	114.01	5.68	
2025-01-10 09:56:03.04	113.99	5.70	
2025-01-10 09:56:03.25	113.97	5.71	
2025-01-10 09:56:03.45	113.96	5.72	
2025-01-10 09:56:03.66	113.94	5.74	
2025-01-10 09:56:03.86	113.92	5.75	
2025-01-10 09:56:04.08	113.91	5.77	
2025-01-10 09:56:04.29	113.89	5.78	
2025-01-10 09:56:04.49	113.87	5.80	
2025-01-10 09:56:04.70	113.86	5.81	
2025-01-10 09:56:04.90	113.84	5.82	
2025-01-10 09:56:05.12	113.82	5.84	
2025-01-10 09:56:05.32	113.80	5.85	
2025-01-10 09:56:05.53	113.79	5.87	
2025-01-10 09:56:05.74	113.77	5.88	
2025-01-10 09:56:05.94	113.75	5.90	
2025-01-10 09:56:06.15	113.74	5.91	
2025-01-10 09:56:06.35	113.72	5.92	
2025-01-10 09:56:06.56	113.70	5.94	
2025-01-10 09:56:06.76	113.68	5.95	
2025-01-10 09:56:06.97	113.67	5.97	
2025-01-10 09:56:07.17	113.65	5.98	
2025-01-10 09:56:07.37	113.63	5.99	
2025-01-10 09:56:07.58	113.62	6.01	
2025-01-10 09:56:07.78	113.60	6.02	
2025-01-10 09:56:07.99	113.58	6.04	
2025-01-10 09:56:08.20	113.56	6.05	
2025-01-10 09:56:08.40	113.55	6.07	
2025-01-10 09:56:08.61	113.53	6.08	
2025-01-10 09:56:08.81	113.51	6.09	
2025-01-10 09:56:09.02	113.50	6.11	
2025-01-10 09:56:09.22	113.48	6.12	
2025-01-10 09:56:09.43	113.46	6.14	
2025-01-10 09:56:09.63	113.44	6.15	
2025-01-10 09:56:09.84	113.43	6.16	
2025-01-10 09:56:10.04	113.41	6.18	
2025-01-10 09:56:10.25	113.39	6.19	
2025-01-10 09:56:10.46	113.37	6.21	
2025-01-10 09:56:10.66	113.36	6.22	
2025-01-10 09:56:10.87	113.34	6.24	
2025-01-10 09:56:11.07	113.32	6.25	
2025-01-10 09:56:11.28	113.30	6.27	
2025-01-10 09:56:11.48	113.29	6.28	
2025-01-10 09:56:11.69	113.27	6.29	
2025-01-10 09:56:11.90	113.25	6.31	
2025-01-10 09:56:12.11	113.23	6.32	
2025-01-10 09:56:12.31	113.22	6.34	
2025-01-10 09:56:12.52	113.20	6.35	
2025-01-10 09:56:12.72	113.18	6.37	
2025-01-10 09:56:12.93	113.16	6.38	
2025-01-10 09:56:13.14	113.14	6.39	
2025-01-10 09:56:13.34	113.13	6.41	
2025-01-10 09:56:13.54	113.11	6.42	
2025-01-10 09:56:13.75	113.09	6.44	
2025-01-10 09:56:13.95	113.07	6.45	
2025-01-10 09:56:14.16	113.06	6.47	
2025-01-10 09:56:14.37	113.04	6.48	
2025-01-10 09:56:14.57	113.02	6.49	
2025-01-10 09:56:14.79	113.00	6.51	
2025-01-10 09:56:14.99	112.98	6.52	
2025-01-10 09:56:15.20	112.97	6.54	
2025-01-10 09:56:15.40	112.95	6.55	
2025-01-10 09:56:15.61	112.93	6.57	
2025-01-10 09:56:15.81	112.91	6.58	
2025-01-10 09:56:16.01	112.89	6.60	
2025-01-10 09:56:16.22	112.88	6.61	
2025-01-10 09:56:16.43	112.86	6.63	
2025-01-10 09:56:16.63	112.84	6.64	
2025-01-10 09:56:16.84	112.82	6.65	
2025-01-10 09:56:17.05	112.80	6.67	
2025-01-10 09:56:17.25	112.79	6.68	
2025-01-10 09:56:17.45	112.77	6.70	
2025-01-10 09:56:17.66	112.75	6.71	
2025-01-10 09:56:17.87	112.73	6.73	
2025-01-10 09:56:18.07	112.71	6.74	
2025-01-10 09:56:18.28	112.69	6.76	
2025-01-10 09:56:18.48	112.68	6.77	
2025-01-10 09:56:18.69	112.66	6.79	
2025-01-10 09:56:18.89	112.64	6.80	
2025-01-10 09:56:19.11	112.62	6.81	
2025-01-10 09:56:19.32	112.60	6.83	
2025-01-10 09:56:19.52	112.58	6.84	
2025-01-10 09:56:19.73	112.57	6.86	
2025-01-10 09:56:19.93	112.55	6.87	
2025-01-10 09:56:20.14	112.53	6.89	
2025-01-10 09:56:20.34	112.51	6.90	
2025-01-10 09:56:20.55	112.49	6.92	
2025-01-10 09:56:20.75	112.47	6.93	
2025-01-10 09:56:20.96	112.46	6.95	
2025-01-10 09:56:21.16	112.44	6.96	
2025-01-10 09:56:21.37	112.42	6.98	
2025-01-10 09:56:21.57	112.40	6.99	
2025-01-10 09:56:21.78	112.38	7.00	
2025-01-10 09:56:21.98	112.36	7.02	
2025-01-10 09:56:22.18	112.35	7.03	
2025-01-10 09:56:22.39	112.33	7.05	
2025-01-10 09:56:22.60	112.31	7.06	
2025-01-10 09:56:22.80	112.29	7.08	
2025-01-10 09:56:23.00	112.27	7.09	
2025-01-10 09:56:23.21	112.25	7.11	
2025-01-10 09:56:23.41	112.23	7.12	
2025-01-10 09:56:23.62	112.21	7.14	
2025-01-10 09:56:23.83	112.20	7.15	
2025-01-10 09:56:24.03	112.18	7.17	
2025-01-10 09:56:24.24	112.16	7.18	
2025-01-10 09:56:24.44	112.14	7.19	
2025-01-10 09:56:24.65	112.12	7.21	
2025-01-10 09:56:24.85	112.10	7.22	
2025-01-10 09:56:25.06	112.08	7.24	
2025-01-10 09:56:25.26	112.06	7.25	
2025-01-10 09:56:25.47	112.04	7.27	
2025-01-10 09:56:25.67	112.03	7.28	
2025-01-10 09:56:25.88	112.01	7.30	
2025-01-10 09:56:26.08	111.99	7.31	
2025-01-10 09:56:26.29	111.97	7.33	
2025-01-10 09:56:26.49	111.95	7.34	
2025-01-10 09:56:26.70	111.93	7.36	
2025-01-10 09:56:26.90	111.91	7.37	
2025-01-10 09:56:27.11	111.89	7.39	
2025-01-10 09:56:27.32	111.87	7.40	
2025-01-10 09:56:27.52	111.85	7.42	
2025-01-10 09:56:27.72	111.84	7.43	
2025-01-10 09:56:27.93	111.82	7.45	
2025-01-10 09:56:28.13	111.80	7.46	
2025-01-10 09:56:28.34	111.78	7.48	
2025-01-10 09:56:28.54	111.76	7.49	
2025-01-10 09:56:28.75	111.74	7.50	
2025-01-10 09:56:28.96	111.72	7.52	
2025-01-10 09:56:29.16	111.70	7.53	
2025-01-10 09:56:29.37	111.68	7.55	
2025-01-10 09:56:29.57	111.66	7.56	
2025-01-10 09:56:29.78	111.64	7.58	
2025-01-10 09:56:29.98	111.62	7.59	
2025-01-10 09:56:30.19	111.60	7.61	
2025-01-10 09:56:30.40	111.58	7.62	
2025-01-10 09:56:30.60	111.57	7.64	
2025-01-10 09:56:30.80	111.55	7.65	
2025-01-10 09:56:31.01	111.53	7.67	
2025-01-10 09:56:31.22	111.51	7.68	
2025-01-10 09:56:31.42	111.49	7.70	
2025-01-10 09:56:31.63	111.47	7.71	
2025-01-10 09:56:31.83	111.45	7.73	
2025-01-10 09:56:32.04	111.43	7.74	
2025-01-10 09:56:32.24	111.41	7.76	
2025-01-10 09:56:32.45	111.39	7.77	
2025-01-10 09:56:32.65	111.37	7.79	
2025-01-10 09:56:32.86	111.35	7.80	
2025-01-10 09:56:33.06	111.33	7.82	
2025-01-10 09:56:33.27	111.31	7.83	
2025-01-10 09:56:33.47	111.29	7.85	
2025-01-10 09:56:33.68	111.27	7.86	
2025-01-10 09:56:33.88	111.25	7.88	
2025-01-10 09:56:34.09	111.23	7.89	
2025-01-10 09:56:34.29	111.21	7.91	
2025-01-10 09:56:34.50	111.19	7.92	
2025-01-10 09:56:34.71	111.17	7.94	
2025-01-10 09:56:34.91	111.15	7.95	
2025-01-10 09:56:35.11	111.13	7.97	
2025-01-10 09:56:35.32	111.11	7.98	
2025-01-10 09:56:35.52	111.09	8.00	
2025-01-10 09:56:35.73	111.07	8.01	
2025-01-10 09:56:35.93	111.05	8.03	
2025-01-10 09:56:36.15	111.03	8.04	
2025-01-10 09:56:36.36	111.01	8.06	
2025-01-10 09:56:36.56	110.99	8.07	
2025-01-10 09:56:36.77	110.97	8.09	
2025-01-10 09:56:36.97	110.95	8.10	
2025-01-10 09:56:37.19	110.93	8.12	
2025-01-10 09:56:37.40	110.91	8.14	
2025-01-10 09:56:37.60	110.89	8.15	
2025-01-10 09:56:37.80	110.87	8.17	
2025-01-10 09:56:38.01	110.85	8.18	
2025-01-10 09:56:38.21	110.83	8.20	
2025-01-10 09:56:38.42	110.81	8.21	
2025-01-10 09:56:38.63	110.79	8.23	
2025-01-10 09:56:38.83	110.77	8.24	
2025-01-10 09:56:39.04	110.75	8.26	
2025-01-10 09:56:39.24	110.73	8.27	
2025-01-10 09:56:39.45	110.70	8.29	
2025-01-10 09:56:39.65	110.68	8.30	
2025-01-10 09:56:39.86	110.66	8.32	
2025-01-10 09:56:40.07	110.64	8.33	
2025-01-10 09:56:40.28	110.62	8.35	
2025-01-10 09:56:40.49	110.60	8.36	
2025-01-10 09:56:40.69	110.58	8.38	
2025-01-10 09:56:40.90	110.56	8.40	
2025-01-10 09:56:41.10	110.54	8.41	
2025-01-10 09:56:41.31	110.52	8.43	
2025-01-10 09:56:41.51	110.50	8.44	
2025-01-10 09:56:41.72	110.48	8.46	
2025-01-10 09:56:41.92	110.46	8.47	
2025-01-10 09:56:42.13	110.44	8.49	
2025-01-10 09:56:42.33	110.42	8.50	
2025-01-10 09:56:42.54	110.39	8.52	
2025-01-10 09:56:42.74	110.37	8.53	
2025-01-10 09:56:42.95	110.35	8.55	
2025-01-10 09:56:43.16	110.33	8.56	
2025-01-10 09:56:43.36	110.31	8.58	
2025-01-10 09:56:43.57	110.29	8.59	
2025-01-10 09:56:43.77	110.27	8.61	
2025-01-10 09:56:43.98	110.25	8.62	
2025-01-10 09:56:44.18	110.23	8.64	
2025-01-10 09:56:44.39	110.21	8.66	
2025-01-10 09:56:44.59	110.19	8.67	
2025-01-10 09:56:44.80	110.16	8.69	
2025-01-10 09:56:45.00	110.14	8.70	
2025-01-10 09:56:45.20	110.12	8.72	
2025-01-10 09:56:45.41	110.10	8.73	
2025-01-10 09:56:45.62	110.08	8.75	
2025-01-10 09:56:45.82	110.06	8.76	
2025-01-10 09:56:46.03	110.04	8.78	
2025-01-10 09:56:46.23	110.02	8.79	
2025-01-10 09:56:46.44	109.99	8.81	
2025-01-10 09:56:46.65	109.97	8.83	
2025-01-10 09:56:46.85	109.95	8.84	
2025-01-10 09:56:47.06	109.93	8.86	
2025-01-10 09:56:47.26	109.91	8.87	
2025-01-10 09:56:47.47	109.89	8.89	
2025-01-10 09:56:47.67	109.87	8.90	
2025-01-10 09:56:47.87	109.85	8.92	
2025-01-10 09:56:48.08	109.82	8.93	
2025-01-10 09:56:48.29	109.80	8.95	
2025-01-10 09:56:48.49	109.78	8.96	
2025-01-10 09:56:48.70	109.76	8.98	
2025-01-10 09:56:48.90	109.74	8.99	
2025-01-10 09:56:49.11	109.72	9.01	
2025-01-10 09:56:49.31	109.69	9.03	
2025-01-10 09:56:49.52	109.67	9.04	
2025-01-10 09:56:49.73	109.65	9.06	
2025-01-10 09:56:49.93	109.63	9.07	
2025-01-10 09:56:50.13	109.61	9.09	
2025-01-10 09:56:50.34	109.59	9.10	
2025-01-10 09:56:50.54	109.56	9.12	
2025-01-10 09:56:50.75	109.54	9.14	
2025-01-10 09:56:50.95	109.52	9.15	
2025-01-10 09:56:51.16	109.50	9.17	
2025-01-10 09:56:51.37	109.48	9.18	
2025-01-10 09:56:51.57	109.45	9.20	
2025-01-10 09:56:51.78	109.43	9.21	
2025-01-10 09:56:51.98	109.41	9.23	
2025-01-10 09:56:52.19	109.39	9.24	
2025-01-10 09:56:52.39	109.37	9.26	
2025-01-10 09:56:52.60	109.34	9.28	
2025-01-10 09:56:52.80	109.32	9.29	
2025-01-10 09:56:53.01	109.30	9.31	
2025-01-10 09:56:53.21	109.28	9.32	
2025-01-10 09:56:53.42	109.26	9.34	
2025-01-10 09:56:53.62	109.23	9.35	
2025-01-10 09:56:53.83	109.21	9.37	
2025-01-10 09:56:54.03	109.19	9.39	
2025-01-10 09:56:54.24	109.17	9.40	
2025-01-10 09:56:54.44	109.15	9.42	
2025-01-10 09:56:54.65	109.12	9.43	
2025-01-10 09:56:54.86	109.10	9.45	
2025-01-10 09:56:55.06	109.08	9.46	
2025-01-10 09:56:55.27	109.06	9.48	
2025-01-10 09:56:55.47	109.03	9.50	
2025-01-10 09:56:55.68	109.01	9.51	
2025-01-10 09:56:55.89	108.99	9.53	
2025-01-10 09:56:56.09	108.97	9.54	
2025-01-10 09:56:56.30	108.94	9.56	
2025-01-10 09:56:56.50	108.92	9.57	
2025-01-10 09:56:56.71	108.90	9.59	
2025-01-10 09:56:56.92	108.87	9.61	
2025-01-10 09:56:57.12	108.85	9.62	
2025-01-10 09:56:57.33	108.83	9.64	
2025-01-10 09:56:57.53	108.81	9.65	
2025-01-10 09:56:57.74	108.78	9.67	
2025-01-10 09:56:57.94	108.76	9.69	
2025-01-10 09:56:58.15	108.74	9.70	
2025-01-10 09:56:58.36	108.72	9.72	
2025-01-10 09:56:58.56	108.69	9.73	
2025-01-10 09:56:58.77	108.67	9.75	
2025-01-10 09:56:58.97	108.65	9.76	
2025-01-10 09:56:59.18	108.62	9.78	
2025-01-10 09:56:59.38	108.60	9.80	
2025-01-10 09:56:59.59	108.58	9.81	
2025-01-10 09:56:59.79	108.56	9.83	
2025-01-10 09:57:00.00	108.53	9.84	
2025-01-10 09:57:00.20	108.51	9.86	
2025-01-10 09:57:00.41	108.49	9.88	
2025-01-10 09:57:00.61	108.46	9.89	
2025-01-10 09:57:00.82	108.44	9.91	
2025-01-10 09:57:01.02	108.42	9.92	
2025-01-10 09:57:01.23	108.39	9.94	
2025-01-10 09:57:01.43	108.37	9.96	
2025-01-10 09:57:01.64	108.35	9.97	
2025-01-10 09:57:01.84	108.33	9.99	
2025-01-10 09:57:02.05	108.30	10.00	
2025-01-10 09:57:02.25	108.28	10.02	
2025-01-10 09:57:02.46	108.25	10.04	
2025-01-10 09:57:02.66	108.23	10.05	
2025-01-10 09:57:02.88	108.21	10.07	
2025-01-10 09:57:03.08	108.18	10.08	
2025-01-10 09:57:03.29	108.16	10.10	
2025-01-10 09:57:03.50	108.14	10.12	
2025-01-10 09:57:03.70	108.11	10.13	
2025-01-10 09:57:03.91	108.09	10.15	
2025-01-10 09:57:04.11	108.07	10.16	
2025-01-10 09:57:04.32	108.04	10.18	
2025-01-10 09:57:04.53	108.02	10.20	
2025-01-10 09:57:04.73	107.99	10.21	
2025-01-10 09:57:04.94	107.97	10.23	
2025-01-10 09:57:05.14	107.95	10.24	
2025-01-10 09:57:05.35	107.92	10.26	
2025-01-10 09:57:05.55	107.90	10.28	
2025-01-10 09:57:05.76	107.88	10.29	
2025-01-10 09:57:05.96	107.85	10.31	
2025-01-10 09:57:06.17	107.83	10.33	
2025-01-10 09:57:06.37	107.80	10.34	
2025-01-10 09:57:06.58	107.78	10.36	
2025-01-10 09:57:06.78	107.76	10.37	
2025-01-10 09:57:06.99	107.73	10.39	
2025-01-10 09:57:07.20	107.71	10.41	
2025-01-10 09:57:07.40	107.68	10.42	
2025-01-10 09:57:07.61	107.66	10.44	
2025-01-10 09:57:07.82	107.64	10.46	
2025-01-10 09:57:08.02	107.61	10.47	
2025-01-10 09:57:08.23	107.59	10.49	
2025-01-10 09:57:08.43	107.56	10.50	
2025-01-10 09:57:08.64	107.54	10.52	
2025-01-10 09:57:08.84	107.52	10.54	
2025-01-10 09:57:09.05	107.49	10.55	
2025-01-10 09:57:09.25	107.47	10.57	
2025-01-10 09:57:09.46	107.44	10.58	
2025-01-10 09:57:09.66	107.42	10.60	
2025-01-10 09:57:09.87	107.39	10.62	
2025-01-10 09:57:10.07	107.37	10.63	
2025-01-10 09:57:10.29	107.34	10.65	
2025-01-10 09:57:10.50	107.32	10.67	
2025-01-10 09:57:10.70	107.29	10.68	
2025-01-10 09:57:10.91	107.27	10.70	
2025-01-10 09:57:11.11	107.25	10.72	
2025-01-10 09:57:11.33	107.22	10.73	
2025-01-10 09:57:11.54	107.19	10.75	
2025-01-10 09:57:11.74	107.17	10.77	
2025-01-10 09:57:11.95	107.14	10.78	
2025-01-10 09:57:12.15	107.12	10.80	
2025-01-10 09:57:12.36	107.10	10.81	
2025-01-10 09:57:12.56	107.07	10.83	
2025-01-10 09:57:12.77	107.05	10.85	
2025-01-10 09:57:12.98	107.02	10.86	
2025-01-10 09:57:13.18	107.00	10.88	
2025-01-10 09:57:13.38	106.97	10.90	
2025-01-10 09:57:13.59	106.95	10.91	
2025-01-10 09:57:13.80	106.92	10.93	
2025-01-10 09:57:14.00	106.90	10.95	
2025-01-10 09:57:14.21	106.87	10.96	
2025-01-10 09:57:14.41	106.85	10.98	
2025-01-10 09:57:14.62	106.82	11.00	
2025-01-10 09:57:14.83	106.80	11.01	
2025-01-10 09:57:15.03	106.77	11.03	
2025-01-10 09:57:15.24	106.75	11.04	
2025-01-10 09:57:15.44	106.72	11.06	
2025-01-10 09:57:15.65	106.69	11.08	
2025-01-10 09:57:15.86	106.67	11.09	
2025-01-10 09:57:16.06	106.64	11.11	
2025-01-10 09:57:16.27	106.62	11.13	
2025-01-10 09:57:16.47	106.59	11.14	
2025-01-10 09:57:16.68	106.57	11.16	
2025-01-10 09:57:16.88	106.54	11.18	
2025-01-10 09:57:17.09	106.52	11.19	
2025-01-10 09:57:17.29	106.49	11.21	
2025-01-10 09:57:17.50	106.47	11.23	
2025-01-10 09:57:17.70	106.44	11.24	
2025-01-10 09:57:17.91	106.41	11.26	
2025-01-10 09:57:18.11	106.39	11.28	
2025-01-10 09:57:18.32	106.36	11.29	
2025-01-10 09:57:18.52	106.34	11.31	
2025-01-10 09:57:18.73	106.31	11.33	
2025-01-10 09:57:18.93	106.29	11.34	
2025-01-10 09:57:19.14	106.26	11.36	
2025-01-10 09:57:19.34	106.24	11.37	
2025-01-10 09:57:19.55	106.21	11.39	
2025-01-10 09:57:19.75	106.18	11.41	
2025-01-10 09:57:19.96	106.16	11.42	
2025-01-10 09:57:20.16	106.13	11.44	
2025-01-10 09:57:20.37	106.11	11.46	
2025-01-10 09:57:20.57	106.08	11.47	
2025-01-10 09:57:20.78	106.05	11.49	
2025-01-10 09:57:20.98	106.03	11.51	
2025-01-10 09:57:21.19	106.00	11.52	
2025-01-10 09:57:21.39	105.98	11.54	
2025-01-10 09:57:21.60	105.95	11.56	
2025-01-10 09:57:21.80	105.92	11.57	
2025-01-10 09:57:22.01	105.90	11.59	
2025-01-10 09:57:22.22	105.87	11.61	
2025-01-10 09:57:22.42	105.85	11.62	
2025-01-10 09:57:22.63	105.82	11.64	
2025-01-10 09:57:22.83	105.79	11.66	
2025-01-10 09:57:23.04	105.77	11.67	
2025-01-10 09:57:23.24	105.74	11.69	
2025-01-10 09:57:23.45	105.71	11.71	
2025-01-10 09:57:23.65	105.69	11.72	
2025-01-10 09:57:23.86	105.66	11.74	
2025-01-10 09:57:24.06	105.63	11.76	
2025-01-10 09:57:24.27	105.61	11.77	
2025-01-10 09:57:24.47	105.58	11.79	
2025-01-10 09:57:24.68	105.55	11.81	
2025-01-10 09:57:24.88	105.53	11.82	
2025-01-10 09:57:25.09	105.50	11.84	
2025-01-10 09:57:25.29	105.47	11.86	
2025-01-10 09:57:25.50	105.45	11.87	
2025-01-10 09:57:25.70	105.42	11.89	
2025-01-10 09:57:25.91	105.39	11.91	
2025-01-10 09:57:26.11	105.37	11.92	
2025-01-10 09:57:26.33	105.34	11.94	
2025-01-10 09:57:26.53	105.31	11.96	
2025-01-10 09:57:26.74	105.28	11.98	
2025-01-10 09:57:26.94	105.26	11.99	
2025-01-10 09:57:27.15	105.23	12.01	
2025-01-10 09:57:27.35	105.20	12.03	
2025-01-10 09:57:27.56	105.18	12.04	
2025-01-10 09:57:27.77	105.15	12.06	
2025-01-10 09:57:27.97	105.12	12.08	
2025-01-10 09:57:28.18	105.09	12.09	
2025-01-10 09:57:28.38	105.07	12.11	
2025-01-10 09:57:28.59	105.04	12.13	
2025-01-10 09:57:28.79	105.01	12.14	
2025-01-10 09:57:29.00	104.99	12.16	
2025-01-10 09:57:29.20	104.96	12.18	
2025-01-10 09:57:29.41	104.93	12.20	
2025-01-10 09:57:29.61	104.90	12.21	
2025-01-10 09:57:29.82	104.88	12.23	
2025-01-10 09:57:30.02	104.85	12.25	
2025-01-10 09:57:30.23	104.82	12.26	
2025-01-10 09:57:30.44	104.79	12.28	
2025-01-10 09:57:30.64	104.77	12.30	
2025-01-10 09:57:30.85	104.74	12.31	
2025-01-10 09:57:31.05	104.71	12.33	
2025-01-10 09:57:31.26	104.68	12.35	
2025-01-10 09:57:31.46	104.65	12.36	
2025-01-10 09:57:31.67	104.63	12.38	
2025-01-10 09:57:31.87	104.60	12.40	
2025-01-10 09:57:32.08	104.57	12.42	
2025-01-10 09:57:32.28	104.54	12.43	
2025-01-10 09:57:32.49	104.52	12.45	
2025-01-10 09:57:32.69	104.49	12.47	
2025-01-10 09:57:32.90	104.46	12.48	
2025-01-10 09:57:33.10	104.43	12.50	
2025-01-10 09:57:33.31	104.40	12.52	
2025-01-10 09:57:33.52	104.37	12.54	
2025-01-10 09:57:33.72	104.35	12.55	
2025-01-10 09:57:33.92	104.32	12.57	
2025-01-10 09:57:34.13	104.29	12.59	
2025-01-10 09:57:34.33	104.26	12.60	
2025-01-10 09:57:34.54	104.23	12.62	
2025-01-10 09:57:34.74	104.21	12.64	
2025-01-10 09:57:34.95	104.18	12.65	
2025-01-10 09:57:35.15	104.15	12.67	
2025-01-10 09:57:35.36	104.12	12.69	
2025-01-10 09:57:35.56	104.09	12.71	
2025-01-10 09:57:35.77	104.06	12.72	
2025-01-10 09:57:35.99	104.03	12.74	
2025-01-10 09:57:36.19	104.01	12.76	
2025-01-10 09:57:36.40	103.98	12.78	
2025-01-10 09:57:36.61	103.95	12.79	
2025-01-10 09:57:36.81	103.92	12.81	
2025-01-10 09:57:37.03	103.89	12.83	
2025-01-10 09:57:37.23	103.86	12.84	
2025-01-10 09:57:37.44	103.83	12.86	
2025-01-10 09:57:37.64	103.80	12.88	
2025-01-10 09:57:37.85	103.77	12.90	
2025-01-10 09:57:38.07	103.74	12.92	
2025-01-10 09:57:38.28	103.71	12.93	
2025-01-10 09:57:38.48	103.68	12.95	
2025-01-10 09:57:38.69	103.65	12.97	
2025-01-10 09:57:38.89	103.63	12.98	
2025-01-10 09:57:39.10	103.60	13.00	
2025-01-10 09:57:39.30	103.57	13.02	
2025-01-10 09:57:39.51	103.54	13.04	
2025-01-10 09:57:39.71	103.51	13.05	
2025-01-10 09:57:39.92	103.48	13.07	
2025-01-10 09:57:40.12	103.45	13.09	
2025-01-10 09:57:40.33	103.42	13.10	
2025-01-10 09:57:40.53	103.39	13.12	
2025-01-10 09:57:40.74	103.36	13.14	
2025-01-10 09:57:40.94	103.33	13.16	
2025-01-10 09:57:41.15	103.30	13.17	
2025-01-10 09:57:41.35	103.27	13.19	
2025-01-10 09:57:41.55	103.25	13.21	
2025-01-10 09:57:41.76	103.22	13.23	
2025-01-10 09:57:41.96	103.19	13.24	
2025-01-10 09:57:42.17	103.16	13.26	
2025-01-10 09:57:42.38	103.13	13.28	
2025-01-10 09:57:42.58	103.10	13.29	
2025-01-10 09:57:42.79	103.07	13.31	
2025-01-10 09:57:42.99	103.04	13.33	
2025-01-10 09:57:43.19	103.01	13.35	
2025-01-10 09:57:43.40	102.98	13.36	
2025-01-10 09:57:43.60	102.95	13.38	
2025-01-10 09:57:43.81	102.92	13.40	
2025-01-10 09:57:44.02	102.89	13.42	
2025-01-10 09:57:44.22	102.86	13.43	
2025-01-10 09:57:44.43	102.83	13.45	
2025-01-10 09:57:44.63	102.80	13.47	
2025-01-10 09:57:44.84	102.77	13.49	
2025-01-10 09:57:45.04	102.74	13.50	
2025-01-10 09:57:45.25	102.71	13.52	
2025-01-10 09:57:45.45	102.68	13.54	
2025-01-10 09:57:45.66	102.65	13.56	
2025-01-10 09:57:45.86	102.62	13.57	
2025-01-10 09:57:46.07	102.59	13.59	
2025-01-10 09:57:46.28	102.56	13.61	
2025-01-10 09:57:46.48	102.53	13.62	
2025-01-10 09:57:46.69	102.49	13.64	
2025-01-10 09:57:46.89	102.46	13.66	
2025-01-10 09:57:47.10	102.43	13.68	
2025-01-10 09:57:47.30	102.40	13.69	
2025-01-10 09:57:47.51	102.37	13.71	
2025-01-10 09:57:47.71	102.34	13.73	
2025-01-10 09:57:47.92	102.31	13.75	
2025-01-10 09:57:48.13	102.28	13.77	
2025-01-10 09:57:48.33	102.25	13.78	
2025-01-10 09:57:48.53	102.22	13.80	
2025-01-10 09:57:48.74	102.19	13.82	
2025-01-10 09:57:48.94	102.16	13.83	
2025-01-10 09:57:49.15	102.13	13.85	
2025-01-10 09:57:49.35	102.10	13.87	
2025-01-10 09:57:49.56	102.06	13.89	
2025-01-10 09:57:49.76	102.03	13.90	
2025-01-10 09:57:49.97	102.00	13.92	
2025-01-10 09:57:50.17	101.97	13.94	
2025-01-10 09:57:50.38	101.94	13.96	
2025-01-10 09:57:50.59	101.91	13.98	
2025-01-10 09:57:50.79	101.88	13.99	
2025-01-10 09:57:50.99	101.85	14.01	
2025-01-10 09:57:51.20	101.81	14.03	
2025-01-10 09:57:51.40	101.78	14.04	
2025-01-10 09:57:51.61	101.75	14.06	
2025-01-10 09:57:51.81	101.72	14.08	
2025-01-10 09:57:52.02	101.69	14.10	
2025-01-10 09:57:52.22	101.66	14.12	
2025-01-10 09:57:52.43	101.63	14.13	
2025-01-10 09:57:52.64	101.59	14.15	
2025-01-10 09:57:52.84	101.56	14.17	
2025-01-10 09:57:53.04	101.53	14.19	
2025-01-10 09:57:53.25	101.50	14.20	
2025-01-10 09:57:53.45	101.47	14.22	
2025-01-10 09:57:53.66	101.44	14.24	
2025-01-10 09:57:53.87	101.40	14.26	
2025-01-10 09:57:54.08	101.37	14.28	
2025-01-10 09:57:54.29	101.34	14.29	
2025-01-10 09:57:54.50	101.30	14.31	
2025-01-10 09:57:54.70	101.27	14.33	
2025-01-10 09:57:54.91	101.24	14.35	
2025-01-10 09:57:55.11	101.21	14.36	
2025-01-10 09:57:55.32	101.18	14.38	
2025-01-10 09:57:55.52	101.14	14.40	
2025-01-10 09:57:55.73	101.11	14.42	
2025-01-10 09:57:55.94	101.08	14.44	
2025-01-10 09:57:56.14	101.05	14.45	
2025-01-10 09:57:56.35	101.01	14.47	
2025-01-10 09:57:56.55	100.98	14.49	
2025-01-10 09:57:56.76	100.95	14.51	
2025-01-10 09:57:56.96	100.92	14.52	
2025-01-10 09:57:57.17	100.88	14.54	
2025-01-10 09:57:57.37	100.85	14.56	
2025-01-10 09:57:57.58	100.82	14.58	
2025-01-10 09:57:57.78	100.79	14.59	
2025-01-10 09:57:57.99	100.75	14.61	
2025-01-10 09:57:58.19	100.72	14.63	
2025-01-10 09:57:58.40	100.69	14.65	
2025-01-10 09:57:58.61	100.65	14.67	
2025-01-10 09:57:58.81	100.62	14.68	
2025-01-10 09:57:59.02	100.59	14.70	
2025-01-10 09:57:59.22	100.56	14.72	
2025-01-10 09:57:59.42	100.52	14.74	
2025-01-10 09:57:59.63	100.49	14.76	
2025-01-10 09:57:59.83	100.46	14.77	
2025-01-10 09:58:00.04	100.42	14.79	
2025-01-10 09:58:00.24	100.39	14.81	
2025-01-10 09:58:00.45	100.36	14.83	
2025-01-10 09:58:00.65	100.33	14.84	
2025-01-10 09:58:00.86	100.29	14.86	
2025-01-10 09:58:01.06	100.26	14.88	
2025-01-10 09:58:01.27	100.22	14.90	
2025-01-10 09:58:01.49	100.19	14.92	
2025-01-10 09:58:01.69	100.16	14.93	
2025-01-10 09:58:01.90	100.12	14.95	
2025-01-10 09:58:02.11	100.09	14.97	
2025-01-10 09:58:02.31	100.05	14.99	
2025-01-10 09:58:02.52	100.02	15.01	
2025-01-10 09:58:02.72	99.99	15.02	
2025-01-10 09:58:02.93	99.95	15.04	
2025-01-10 09:58:03.13	99.92	15.06	
2025-01-10 09:58:03.34	99.89	15.08	
2025-01-10 09:58:03.56	99.85	15.10	
2025-01-10 09:58:03.76	99.82	15.11	
2025-01-10 09:58:03.97	99.78	15.13	
2025-01-10 09:58:04.17	99.75	15.15	
2025-01-10 09:58:04.38	99.71	15.17	
2025-01-10 09:58:04.58	99.68	15.19	
2025-01-10 09:58:04.79	99.64	15.20	
2025-01-10 09:58:04.99	99.61	15.22	
2025-01-10 09:58:05.20	99.58	15.24	
2025-01-10 09:58:05.40	99.54	15.26	
2025-01-10 09:58:05.61	99.51	15.28	
2025-01-10 09:58:05.81	99.47	15.29	
2025-01-10 09:58:06.02	99.44	15.31	
2025-01-10 09:58:06.22	99.41	15.33	
2025-01-10 09:58:06.43	99.37	15.35	
2025-01-10 09:58:06.64	99.34	15.37	
2025-01-10 09:58:06.84	99.30	15.38	
2025-01-10 09:58:07.05	99.27	15.40	
2025-01-10 09:58:07.25	99.23	15.42	
2025-01-10 09:58:07.46	99.20	15.44	
2025-01-10 09:58:07.66	99.16	15.46	
2025-01-10 09:58:07.88	99.13	15.48	
2025-01-10 09:58:08.08	99.09	15.49	
2025-01-10 09:58:08.29	99.06	15.51	
2025-01-10 09:58:08.50	99.02	15.53	
2025-01-10 09:58:08.70	98.99	15.55	
2025-01-10 09:58:08.91	98.95	15.57	
2025-01-10 09:58:09.11	98.92	15.58	
2025-01-10 09:58:09.32	98.88	15.60	
2025-01-10 09:58:09.52	98.85	15.62	
2025-01-10 09:58:09.73	98.81	15.64	
2025-01-10 09:58:09.93	98.77	15.66	
2025-01-10 09:58:10.15	98.74	15.67	
2025-01-10 09:58:10.36	98.70	15.69	
2025-01-10 09:58:10.56	98.67	15.71	
2025-01-10 09:58:10.77	98.63	15.73	
2025-01-10 09:58:10.98	98.59	15.75	
2025-01-10 09:58:11.18	98.56	15.77	
2025-01-10 09:58:11.39	98.52	15.78	
2025-01-10 09:58:11.59	98.49	15.80	
2025-01-10 09:58:11.80	98.45	15.82	
2025-01-10 09:58:12.00	98.42	15.84	
2025-01-10 09:58:12.21	98.38	15.86	
2025-01-10 09:58:12.41	98.34	15.87	
2025-01-10 09:58:12.62	98.31	15.89	
2025-01-10 09:58:12.82	98.27	15.91	
2025-01-10 09:58:13.03	98.24	15.93	
2025-01-10 09:58:13.23	98.20	15.95	
2025-01-10 09:58:13.44	98.16	15.96	
2025-01-10 09:58:13.64	98.13	15.98	
2025-01-10 09:58:13.85	98.09	16.00	
2025-01-10 09:58:14.05	98.06	16.02	
2025-01-10 09:58:14.26	98.02	16.04	
2025-01-10 09:58:14.46	97.98	16.05	
2025-01-10 09:58:14.67	97.95	16.07	
2025-01-10 09:58:14.87	97.91	16.09	
2025-01-10 09:58:15.08	97.87	16.11	
2025-01-10 09:58:15.28	97.84	16.13	
2025-01-10 09:58:15.49	97.80	16.15	
2025-01-10 09:58:15.69	97.77	16.16	
2025-01-10 09:58:15.90	97.73	16.18	
2025-01-10 09:58:16.10	97.69	16.20	
2025-01-10 09:58:16.31	97.65	16.22	
2025-01-10 09:58:16.51	97.62	16.24	
2025-01-10 09:58:16.72	97.58	16.25	
2025-01-10 09:58:16.93	97.54	16.27	
2025-01-10 09:58:17.13	97.51	16.29	
2025-01-10 09:58:17.34	97.47	16.31	
2025-01-10 09:58:17.54	97.43	16.33	
2025-01-10 09:58:17.74	97.40	16.35	
2025-01-10 09:58:17.95	97.36	16.36	
2025-01-10 09:58:18.16	97.32	16.38	
2025-01-10 09:58:18.36	97.29	16.40	
2025-01-10 09:58:18.57	97.25	16.42	
2025-01-10 09:58:18.77	97.21	16.44	
2025-01-10 09:58:18.98	97.17	16.46	
2025-01-10 09:58:19.18	97.14	16.47	
2025-01-10 09:58:19.39	97.10	16.49	
2025-01-10 09:58:19.59	97.06	16.51	
2025-01-10 09:58:19.80	97.02	16.53	
2025-01-10 09:58:20.01	96.98	16.55	
2025-01-10 09:58:20.21	96.95	16.56	
2025-01-10 09:58:20.42	96.91	16.58	
2025-01-10 09:58:20.62	96.87	16.60	
2025-01-10 09:58:20.84	96.83	16.62	
2025-01-10 09:58:21.05	96.79	16.64	
2025-01-10 09:58:21.25	96.76	16.66	
2025-01-10 09:58:21.46	96.72	16.68	
2025-01-10 09:58:21.67	96.68	16.69	
2025-01-10 09:58:21.87	96.64	16.71	
2025-01-10 09:58:22.07	96.60	16.73	
2025-01-10 09:58:22.28	96.57	16.75	
2025-01-10 09:58:22.49	96.53	16.77	
2025-01-10 09:58:22.69	96.49	16.79	
2025-01-10 09:58:22.90	96.45	16.80	
2025-01-10 09:58:23.10	96.41	16.82	
2025-01-10 09:58:23.31	96.37	16.84	
2025-01-10 09:58:23.51	96.34	16.86	
2025-01-10 09:58:23.71	96.30	16.88	
2025-01-10 09:58:23.92	96.26	16.89	
2025-01-10 09:58:24.12	96.22	16.91	
2025-01-10 09:58:24.33	96.18	16.93	
2025-01-10 09:58:24.53	96.14	16.95	
2025-01-10 09:58:24.74	96.10	16.97	
2025-01-10 09:58:24.94	96.07	16.99	
2025-01-10 09:58:25.15	96.03	17.00	
2025-01-10 09:58:25.35	95.99	17.02	
2025-01-10 09:58:25.56	95.95	17.04	
2025-01-10 09:58:25.76	95.91	17.06	
2025-01-10 09:58:25.97	95.87	17.08	
2025-01-10 09:58:26.17	95.83	17.10	
2025-01-10 09:58:26.38	95.79	17.11	
2025-01-10 09:58:26.58	95.75	17.13	
2025-01-10 09:58:26.79	95.71	17.15	
2025-01-10 09:58:26.99	95.68	17.17	
2025-01-10 09:58:27.20	95.64	17.19	
2025-01-10 09:58:27.40	95.60	17.20	
2025-01-10 09:58:27.61	95.56	17.22	
2025-01-10 09:58:27.82	95.52	17.24	
2025-01-10 09:58:28.02	95.48	17.26	
2025-01-10 09:58:28.22	95.44	17.28	
2025-01-10 09:58:28.43	95.40	17.30	
2025-01-10 09:58:28.63	95.36	17.31	
2025-01-10 09:58:28.84	95.32	17.33	
2025-01-10 09:58:29.04	95.28	17.35	
2025-01-10 09:58:29.24	95.24	17.37	
2025-01-10 09:58:29.45	95.20	17.39	
2025-01-10 09:58:29.66	95.16	17.41	
2025-01-10 09:58:29.86	95.12	17.42	
2025-01-10 09:58:30.07	95.08	17.44	
2025-01-10 09:58:30.27	95.04	17.46	
2025-01-10 09:58:30.48	95.00	17.48	
2025-01-10 09:58:30.68	94.96	17.50	
2025-01-10 09:58:30.89	94.92	17.52	
2025-01-10 09:58:31.09	94.88	17.53	
2025-01-10 09:58:31.30	94.84	17.55	
2025-01-10 09:58:31.50	94.80	17.57	
2025-01-10 09:58:31.71	94.76	17.59	
2025-01-10 09:58:31.92	94.72	17.61	
2025-01-10 09:58:32.12	94.68	17.63	
2025-01-10 09:58:32.33	94.63	17.65	
2025-01-10 09:58:32.53	94.60	17.66	
2025-01-10 09:58:32.74	94.55	17.68	
2025-01-10 09:58:32.94	94.51	17.70	
2025-01-10 09:58:33.15	94.47	17.72	
2025-01-10 09:58:33.35	94.43	17.74	
2025-01-10 09:58:33.56	94.39	17.76	
2025-01-10 09:58:33.76	94.35	17.77	
2025-01-10 09:58:33.97	94.31	17.79	
2025-01-10 09:58:34.17	94.27	17.81	
2025-01-10 09:58:34.38	94.23	17.83	
2025-01-10 09:58:34.58	94.19	17.85	
2025-01-10 09:58:34.79	94.14	17.87	
2025-01-10 09:58:34.99	94.10	17.88	
2025-01-10 09:58:35.20	94.06	17.90	
2025-01-10 09:58:35.40	94.02	17.92	
2025-01-10 09:58:35.61	93.98	17.94	
2025-01-10 09:58:35.81	93.94	17.96	
2025-01-10 09:58:36.02	93.89	17.98	
2025-01-10 09:58:36.22	93.85	17.99	
2025-01-10 09:58:36.43	93.81	18.01	
2025-01-10 09:58:36.63	93.77	18.03	
2025-01-10 09:58:36.84	93.73	18.05	
2025-01-10 09:58:37.04	93.69	18.07	
2025-01-10 09:58:37.25	93.64	18.09	
2025-01-10 09:58:37.45	93.60	18.10	
2025-01-10 09:58:37.66	93.56	18.12	
2025-01-10 09:58:37.86	93.52	18.14	
2025-01-10 09:58:38.07	93.48	18.16	
2025-01-10 09:58:38.27	93.44	18.18	
2025-01-10 09:58:38.48	93.39	18.19	
2025-01-10 09:58:38.69	93.35	18.21	
2025-01-10 09:58:38.89	93.31	18.23	
2025-01-10 09:58:39.10	93.26	18.25	
2025-01-10 09:58:39.30	93.22	18.27	
2025-01-10 09:58:39.51	93.18	18.29	
2025-01-10 09:58:39.71	93.14	18.30	
2025-01-10 09:58:39.92	93.09	18.32	
2025-01-10 09:58:40.12	93.05	18.34	
2025-01-10 09:58:40.33	93.01	18.36	
2025-01-10 09:58:40.53	92.97	18.38	
2025-01-10 09:58:40.74	92.92	18.40	
2025-01-10 09:58:40.95	92.88	18.42	
2025-01-10 09:58:41.15	92.84	18.43	
2025-01-10 09:58:41.35	92.80	18.45	
2025-01-10 09:58:41.56	92.75	18.47	
2025-01-10 09:58:41.77	92.71	18.49	
2025-01-10 09:58:41.97	92.66	18.51	
2025-01-10 09:58:42.18	92.62	18.53	
2025-01-10 09:58:42.38	92.58	18.54	
2025-01-10 09:58:42.59	92.53	18.56	
2025-01-10 09:58:42.79	92.49	18.58	
2025-01-10 09:58:43.00	92.45	18.60	
2025-01-10 09:58:43.20	92.40	18.62	
2025-01-10 09:58:43.41	92.36	18.64	
2025-01-10 09:58:43.61	92.32	18.65	
2025-01-10 09:58:43.82	92.27	18.67	
2025-01-10 09:58:44.02	92.23	18.69	
2025-01-10 09:58:44.23	92.19	18.71	
2025-01-10 09:58:44.43	92.14	18.73	
2025-01-10 09:58:44.64	92.10	18.75	
2025-01-10 09:58:44.84	92.05	18.76	
2025-01-10 09:58:45.05	92.01	18.78	
2025-01-10 09:58:45.25	91.97	18.80	
2025-01-10 09:58:45.46	91.92	18.82	
2025-01-10 09:58:45.66	91.88	18.84	
2025-01-10 09:58:45.87	91.83	18.85	
2025-01-10 09:58:46.07	91.79	18.87	
2025-01-10 09:58:46.28	91.74	18.89	
2025-01-10 09:58:46.48	91.70	18.91	
2025-01-10 09:58:46.69	91.66	18.93	
2025-01-10 09:58:46.89	91.61	18.95	
2025-01-10 09:58:47.10	91.57	18.96	
2025-01-10 09:58:47.31	91.52	18.98	
2025-01-10 09:58:47.52	91.48	19.00	
2025-01-10 09:58:47.73	91.43	19.02	
2025-01-10 09:58:47.94	91.38	19.04	
2025-01-10 09:58:48.14	91.34	19.06	
2025-01-10 09:58:48.35	91.29	19.08	
2025-01-10 09:58:48.55	91.25	19.09	
2025-01-10 09:58:48.76	91.20	19.11	
2025-01-10 09:58:48.96	91.16	19.13	
2025-01-10 09:58:49.17	91.11	19.15	
2025-01-10 09:58:49.37	91.07	19.17	
2025-01-10 09:58:49.58	91.02	19.19	
2025-01-10 09:58:49.78	90.98	19.20	
2025-01-10 09:58:49.99	90.93	19.22	
2025-01-10 09:58:50.19	90.89	19.24	
2025-01-10 09:58:50.40	90.84	19.26	
2025-01-10 09:58:50.60	90.80	19.28	
2025-01-10 09:58:50.81	90.75	19.29	
2025-01-10 09:58:51.01	90.71	19.31	
2025-01-10 09:58:51.22	90.66	19.33	
2025-01-10 09:58:51.43	90.61	19.35	
2025-01-10 09:58:51.64	90.57	19.37	
2025-01-10 09:58:51.84	90.52	19.39	
2025-01-10 09:58:52.05	90.47	19.40	
2025-01-10 09:58:52.25	90.43	19.42	
2025-01-10 09:58:52.46	90.38	19.44	
2025-01-10 09:58:52.66	90.34	19.46	
2025-01-10 09:58:52.88	90.29	19.48	
2025-01-10 09:58:53.08	90.24	19.50	
2025-01-10 09:58:53.29	90.19	19.51	
2025-01-10 09:58:53.49	90.15	19.53	
2025-01-10 09:58:53.70	90.10	19.55	
2025-01-10 09:58:53.90	90.06	19.57	
2025-01-10 09:58:54.10	90.01	19.59	
2025-01-10 09:58:54.31	89.96	19.60	
2025-01-10 09:58:54.52	89.92	19.62	
2025-01-10 09:58:54.72	89.87	19.64	
2025-01-10 09:58:54.92	89.82	19.66	
2025-01-10 09:58:55.13	89.78	19.68	
2025-01-10 09:58:55.34	89.73	19.70	
2025-01-10 09:58:55.54	89.68	19.71	
2025-01-10 09:58:55.75	89.63	19.73	
2025-01-10 09:58:55.95	89.59	19.75	
2025-01-10 09:58:56.16	89.54	19.77	
2025-01-10 09:58:56.36	89.49	19.79	
2025-01-10 09:58:56.57	89.45	19.80	
2025-01-10 09:58:56.77	89.40	19.82	
2025-01-10 09:58:56.98	89.35	19.84	
2025-01-10 09:58:57.18	89.31	19.86	
2025-01-10 09:58:57.39	89.26	19.88	
2025-01-10 09:58:57.59	89.21	19.89	
2025-01-10 09:58:57.80	89.16	19.91	
2025-01-10 09:58:58.00	89.12	19.93	
2025-01-10 09:58:58.21	89.07	19.95	
2025-01-10 09:58:58.41	89.02	19.97	
2025-01-10 09:58:58.62	88.97	19.99	
2025-01-10 09:58:58.83	88.92	20.00	
2025-01-10 09:58:59.03	88.87	20.02	
2025-01-10 09:58:59.25	88.82	20.04	
2025-01-10 09:58:59.45	88.78	20.06	
2025-01-10 09:58:59.66	88.73	20.08	
2025-01-10 09:58:59.86	88.68	20.09	
2025-01-10 09:59:00.07	88.63	20.11	
2025-01-10 09:59:00.27	88.58	20.13	
2025-01-10 09:59:00.48	88.53	20.15	
2025-01-10 09:59:00.68	88.49	20.17	
2025-01-10 09:59:00.89	88.44	20.18	
2025-01-10 09:59:01.09	88.39	20.20	
2025-01-10 09:59:01.30	88.34	20.22	
2025-01-10 09:59:01.50	88.29	20.24	
2025-01-10 09:59:01.71	88.24	20.26	
2025-01-10 09:59:01.91	88.20	20.27	
2025-01-10 09:59:02.12	88.15	20.29	
2025-01-10 09:59:02.33	88.10	20.31	
2025-01-10 09:59:02.53	88.05	20.33	
2025-01-10 09:59:02.73	88.00	20.35	
2025-01-10 09:59:02.94	87.95	20.36	
2025-01-10 09:59:03.14	87.90	20.38	
2025-01-10 09:59:03.35	87.85	20.40	
2025-01-10 09:59:03.57	87.80	20.42	
2025-01-10 09:59:03.77	87.75	20.44	
2025-01-10 09:59:03.98	87.70	20.45	
2025-01-10 09:59:04.18	87.65	20.47	
2025-01-10 09:59:04.39	87.60	20.49	
2025-01-10 09:59:04.59	87.55	20.51	
2025-01-10 09:59:04.80	87.50	20.53	
2025-01-10 09:59:05.00	87.45	20.54	
2025-01-10 09:59:05.21	87.40	20.56	
2025-01-10 09:59:05.42	87.35	20.58	
2025-01-10 09:59:05.62	87.30	20.60	
2025-01-10 09:59:05.83	87.25	20.62	
2025-01-10 09:59:06.03	87.20	20.63	
2025-01-10 09:59:06.24	87.15	20.65	
2025-01-10 09:59:06.44	87.10	20.67	
2025-01-10 09:59:06.65	87.05	20.69	
2025-01-10 09:59:06.85	87.00	20.70	
2025-01-10 09:59:07.06	86.95	20.72	
2025-01-10 09:59:07.26	86.90	20.74	
2025-01-10 09:59:07.47	86.85	20.76	
2025-01-10 09:59:07.67	86.80	20.77	
2025-01-10 09:59:07.88	86.75	20.79	
2025-01-10 09:59:08.09	86.70	20.81	
2025-01-10 09:59:08.29	86.65	20.83	
2025-01-10 09:59:08.50	86.59	20.85	
2025-01-10 09:59:08.70	86.55	20.86	
2025-01-10 09:59:08.92	86.49	20.88	
2025-01-10 09:59:09.13	86.44	20.90	
2025-01-10 09:59:09.33	86.39	20.92	
2025-01-10 09:59:09.54	86.34	20.94	
2025-01-10 09:59:09.74	86.29	20.95	
2025-01-10 09:59:09.95	86.23	20.97	
2025-01-10 09:59:10.15	86.18	20.99	
2025-01-10 09:59:10.36	86.13	21.01	
2025-01-10 09:59:10.57	86.08	21.02	
2025-01-10 09:59:10.77	86.03	21.04	
2025-01-10 09:59:10.98	85.98	21.06	
2025-01-10 09:59:11.18	85.93	21.08	
2025-01-10 09:59:11.39	85.87	21.09	
2025-01-10 09:59:11.60	85.82	21.11	
2025-01-10 09:59:11.80	85.77	21.13	
2025-01-10 09:59:12.00	85.72	21.15	
2025-01-10 09:59:12.21	85.67	21.16	
2025-01-10 09:59:12.41	85.62	21.18	
2025-01-10 09:59:12.62	85.56	21.20	
2025-01-10 09:59:12.82	85.51	21.22	
2025-01-10 09:59:13.03	85.46	21.23	
2025-01-10 09:59:13.23	85.41	21.25	
2025-01-10 09:59:13.44	85.35	21.27	
2025-01-10 09:59:13.64	85.30	21.29	
2025-01-10 09:59:13.85	85.25	21.30	
2025-01-10 09:59:14.05	85.20	21.32	
2025-01-10 09:59:14.26	85.14	21.34	
2025-01-10 09:59:14.47	85.09	21.36	
2025-01-10 09:59:14.67	85.04	21.37	
2025-01-10 09:59:14.88	84.99	21.39	
2025-01-10 09:59:15.08	84.93	21.41	
2025-01-10 09:59:15.29	84.88	21.43	
2025-01-10 09:59:15.49	84.83	21.44	
2025-01-10 09:59:15.70	84.77	21.46	
2025-01-10 09:59:15.90	84.72	21.48	
2025-01-10 09:59:16.11	84.67	21.49	
2025-01-10 09:59:16.32	84.61	21.51	
2025-01-10 09:59:16.52	84.56	21.53	
2025-01-10 09:59:16.73	84.51	21.55	
2025-01-10 09:59:16.93	84.46	21.56	
2025-01-10 09:59:17.14	84.40	21.58	
2025-01-10 09:59:17.35	84.35	21.60	
2025-01-10 09:59:17.55	84.29	21.62	
2025-01-10 09:59:17.75	84.24	21.63	
2025-01-10 09:59:17.96	84.19	21.65	
2025-01-10 09:59:18.17	84.13	21.67	
2025-01-10 09:59:18.37	84.08	21.68	
2025-01-10 09:59:18.58	84.02	21.70	
2025-01-10 09:59:18.78	83.97	21.72	
2025-01-10 09:59:18.99	83.92	21.74	
2025-01-10 09:59:19.19	83.86	21.75	
2025-01-10 09:59:19.40	83.81	21.77	
2025-01-10 09:59:19.60	83.76	21.79	
2025-01-10 09:59:19.81	83.70	21.80	
2025-01-10 09:59:20.01	83.65	21.82	
2025-01-10 09:59:20.22	83.59	21.84	
2025-01-10 09:59:20.43	83.54	21.86	
2025-01-10 09:59:20.63	83.48	21.87	
2025-01-10 09:59:20.84	83.43	21.89	
2025-01-10 09:59:21.04	83.37	21.91	
2025-01-10 09:59:21.25	83.32	21.92	
2025-01-10 09:59:21.45	83.26	21.94	
2025-01-10 09:59:21.66	83.21	21.96	
2025-01-10 09:59:21.87	83.15	21.97	
2025-01-10 09:59:22.08	83.10	21.99	
2025-01-10 09:59:22.28	83.04	22.01	
2025-01-10 09:59:22.49	82.99	22.02	
2025-01-10 09:59:22.69	82.93	22.04	
2025-01-10 09:59:22.89	82.88	22.06	
2025-01-10 09:59:23.10	82.82	22.07	
2025-01-10 09:59:23.31	82.77	22.09	
2025-01-10 09:59:23.51	82.71	22.11	
2025-01-10 09:59:23.72	82.65	22.13	
2025-01-10 09:59:23.92	82.60	22.14	
2025-01-10 09:59:24.13	82.54	22.16	
2025-01-10 09:59:24.34	82.49	22.18	
2025-01-10 09:59:24.54	82.43	22.19	
2025-01-10 09:59:24.75	82.38	22.21	
2025-01-10 09:59:24.95	82.32	22.23	
2025-01-10 09:59:25.16	82.26	22.24	
2025-01-10 09:59:25.36	82.21	22.26	
2025-01-10 09:59:25.57	82.15	22.28	
2025-01-10 09:59:25.77	82.10	22.29	
2025-01-10 09:59:25.98	82.04	22.31	
2025-01-10 09:59:26.18	81.99	22.33	
2025-01-10 09:59:26.39	81.93	22.34	
2025-01-10 09:59:26.59	81.87	22.36	
2025-01-10 09:59:26.80	81.82	22.38	
2025-01-10 09:59:27.00	81.76	22.39	
2025-01-10 09:59:27.21	81.70	22.41	
2025-01-10 09:59:27.41	81.65	22.42	
2025-01-10 09:59:27.62	81.59	22.44	
2025-01-10 09:59:27.82	81.53	22.46	
2025-01-10 09:59:28.03	81.48	22.47	
2025-01-10 09:59:28.23	81.42	22.49	
2025-01-10 09:59:28.44	81.36	22.51	
2025-01-10 09:59:28.64	81.31	22.52	
2025-01-10 09:59:28.85	81.25	22.54	
2025-01-10 09:59:29.05	81.19	22.56	
2025-01-10 09:59:29.26	81.14	22.57	
2025-01-10 09:59:29.46	81.08	22.59	
2025-01-10 09:59:29.67	81.02	22.60	
2025-01-10 09:59:29.87	80.97	22.62	
2025-01-10 09:59:30.08	80.91	22.64	
2025-01-10 09:59:30.28	80.85	22.65	
2025-01-10 09:59:30.48	80.79	22.67	
2025-01-10 09:59:30.69	80.74	22.69	
2025-01-10 09:59:30.89	80.68	22.70	
2025-01-10 09:59:31.10	80.62	22.72	
2025-01-10 09:59:31.30	80.56	22.73	
2025-01-10 09:59:31.51	80.50	22.75	
2025-01-10 09:59:31.71	80.45	22.77	
2025-01-10 09:59:31.92	80.39	22.78	
2025-01-10 09:59:32.13	80.33	22.80	
2025-01-10 09:59:32.33	80.27	22.81	
2025-01-10 09:59:32.54	80.21	22.83	
2025-01-10 09:59:32.74	80.16	22.85	
2025-01-10 09:59:32.95	80.10	22.86	
2025-01-10 09:59:33.15	80.04	22.88	
2025-01-10 09:59:33.36	79.98	22.89	
2025-01-10 09:59:33.58	79.92	22.91	
2025-01-10 09:59:33.78	79.86	22.93	
2025-01-10 09:59:33.99	79.80	22.94	
2025-01-10 09:59:34.19	79.74	22.96	
2025-01-10 09:59:34.40	79.68	22.97	
2025-01-10 09:59:34.61	79.62	22.99	
2025-01-10 09:59:34.81	79.57	23.01	
2025-01-10 09:59:35.02	79.51	23.02	
2025-01-10 09:59:35.22	79.45	23.04	
2025-01-10 09:59:35.43	79.39	23.05	
2025-01-10 09:59:35.64	79.33	23.07	
2025-01-10 09:59:35.85	79.27	23.09	
2025-01-10 09:59:36.06	79.21	23.10	
2025-01-10 09:59:36.26	79.15	23.12	
2025-01-10 09:59:36.47	79.09	23.13	
2025-01-10 09:59:36.67	79.03	23.15	
2025-01-10 09:59:36.87	78.97	23.16	
2025-01-10 09:59:37.08	78.91	23.18	
2025-01-10 09:59:37.29	78.85	23.19	
2025-01-10 09:59:37.49	78.79	23.21	
2025-01-10 09:59:37.70	78.73	23.23	
2025-01-10 09:59:37.90	78.67	23.24	
2025-01-10 09:59:38.11	78.61	23.26	
2025-01-10 09:59:38.31	78.55	23.27	
2025-01-10 09:59:38.52	78.49	23.29	
2025-01-10 09:59:38.73	78.43	23.30	
2025-01-10 09:59:38.93	78.37	23.32	
2025-01-10 09:59:39.13	78.31	23.33	
2025-01-10 09:59:39.34	78.25	23.35	
2025-01-10 09:59:39.55	78.19	23.36	
2025-01-10 09:59:39.75	78.13	23.38	
2025-01-10 09:59:39.96	78.07	23.39	
2025-01-10 09:59:40.16	78.01	23.41	
2025-01-10 09:59:40.37	77.95	23.43	
2025-01-10 09:59:40.57	77.89	23.44	
2025-01-10 09:59:40.78	77.83	23.46	
2025-01-10 09:59:40.98	77.77	23.47	
2025-01-10 09:59:41.19	77.71	23.49	
2025-01-10 09:59:41.39	77.65	23.50	
2025-01-10 09:59:41.60	77.59	23.52	
2025-01-10 09:59:41.80	77.53	23.53	
2025-01-10 09:59:42.00	77.47	23.54	
2025-01-10 09:59:42.21	77.41	23.56	
2025-01-10 09:59:42.42	77.34	23.58	
2025-01-10 09:59:42.62	77.28	23.59	
2025-01-10 09:59:42.83	77.22	23.61	
2025-01-10 09:59:43.03	77.16	23.62	
2025-01-10 09:59:43.24	77.10	23.64	
2025-01-10 09:59:43.44	77.04	23.65	
2025-01-10 09:59:43.65	76.98	23.66	
2025-01-10 09:59:43.85	76.92	23.68	
2025-01-10 09:59:44.06	76.85	23.69	
2025-01-10 09:59:44.26	76.79	23.71	
2025-01-10 09:59:44.47	76.73	23.72	
2025-01-10 09:59:44.67	76.67	23.74	
2025-01-10 09:59:44.88	76.61	23.75	
2025-01-10 09:59:45.09	76.54	23.77	
2025-01-10 09:59:45.30	76.48	23.78	
2025-01-10 09:59:45.51	76.42	23.80	
2025-01-10 09:59:45.72	76.35	23.81	
2025-01-10 09:59:45.92	76.29	23.83	
2025-01-10 09:59:46.13	76.23	23.84	
2025-01-10 09:59:46.33	76.17	23.86	
2025-01-10 09:59:46.54	76.10	23.87	
2025-01-10 09:59:46.75	76.04	23.88	
2025-01-10 09:59:46.95	75.98	23.90	
2025-01-10 09:59:47.16	75.91	23.91	
2025-01-10 09:59:47.36	75.85	23.93	
2025-01-10 09:59:47.56	75.79	23.94	
2025-01-10 09:59:47.77	75.73	23.96	
2025-01-10 09:59:47.97	75.67	23.97	
2025-01-10 09:59:48.18	75.60	23.98	
2025-01-10 09:59:48.38	75.54	24.00	
2025-01-10 09:59:48.59	75.48	24.01	
2025-01-10 09:59:48.79	75.42	24.03	
2025-01-10 09:59:49.00	75.35	24.04	
2025-01-10 09:59:49.20	75.29	24.05	
2025-01-10 09:59:49.41	75.23	24.07	
2025-01-10 09:59:49.61	75.16	24.08	
2025-01-10 09:59:49.81	75.10	24.10	
2025-01-10 09:59:50.02	75.04	24.11	
2025-01-10 09:59:50.23	74.97	24.12	
2025-01-10 09:59:50.43	74.91	24.14	
2025-01-10 09:59:50.63	74.85	24.15	
2025-01-10 09:59:50.84	74.78	24.17	
2025-01-10 09:59:51.05	74.72	24.18	
2025-01-10 09:59:51.25	74.66	24.19	
2025-01-10 09:59:51.46	74.59	24.21	
2025-01-10 09:59:51.66	74.53	24.22	
2025-01-10 09:59:51.87	74.46	24.24	
2025-01-10 09:59:52.07	74.40	24.25	
2025-01-10 09:59:52.28	74.34	24.26	
2025-01-10 09:59:52.48	74.27	24.28	
2025-01-10 09:59:52.69	74.21	24.29	
2025-01-10 09:59:52.89	74.15	24.30	
2025-01-10 09:59:53.10	74.08	24.32	
2025-01-10 09:59:53.30	74.02	24.33	
2025-01-10 09:59:53.51	73.95	24.34	
2025-01-10 09:59:53.72	73.89	24.36	
2025-01-10 09:59:53.92	73.82	24.37	
2025-01-10 09:59:54.13	73.76	24.38	
2025-01-10 09:59:54.34	73.69	24.40	
2025-01-10 09:59:54.54	73.63	24.41	
2025-01-10 09:59:54.75	73.56	24.42	
2025-01-10 09:59:54.95	73.50	24.44	
2025-01-10 09:59:55.16	73.43	24.45	
2025-01-10 09:59:55.36	73.37	24.46	
2025-01-10 09:59:55.57	73.30	24.48	
2025-01-10 09:59:55.77	73.24	24.49	
2025-01-10 09:59:55.97	73.18	24.50	
2025-01-10 09:59:56.18	73.11	24.52	
2025-01-10 09:59:56.38	73.05	24.53	
2025-01-10 09:59:56.59	72.98	24.54	
2025-01-10 09:59:56.79	72.92	24.55	
2025-01-10 09:59:57.01	72.85	24.57	
2025-01-10 09:59:57.22	72.78	24.58	
2025-01-10 09:59:57.42	72.72	24.59	
2025-01-10 09:59:57.63	72.65	24.61	
2025-01-10 09:59:57.83	72.59	24.62	
2025-01-10 09:59:58.03	72.52	24.63	
2025-01-10 09:59:58.24	72.45	24.65	
2025-01-10 09:59:58.44	72.39	24.66	
2025-01-10 09:59:58.65	72.32	24.67	
2025-01-10 09:59:58.85	72.26	24.68	
2025-01-10 09:59:59.06	72.19	24.70	
2025-01-10 09:59:59.26	72.13	24.71	
2025-01-10 09:59:59.47	72.06	24.72	
2025-01-10 09:59:59.68	71.99	24.73	
2025-01-10 09:59:59.88	71.93	24.75	
2025-01-10 10:00:00.09	71.86	24.76	
2025-01-10 10:00:00.29	71.80	24.77	
2025-01-10 10:00:00.49	71.73	24.78	
2025-01-10 10:00:00.70	71.66	24.80	
2025-01-10 10:00:00.91	71.60	24.81	
2025-01-10 10:00:01.11	71.53	24.82	
2025-01-10 10:00:01.32	71.46	24.83	
2025-01-10 10:00:01.52	71.40	24.84	
2025-01-10 10:00:01.73	71.33	24.86	
2025-01-10 10:00:01.93	71.27	24.87	
2025-01-10 10:00:02.14	71.20	24.88	
2025-01-10 10:00:02.34	71.13	24.89	
2025-01-10 10:00:02.55	71.06	24.90	
2025-01-10 10:00:02.75	71.00	24.92	
2025-01-10 10:00:02.96	70.93	24.93	
2025-01-10 10:00:03.16	70.86	24.94	
2025-01-10 10:00:03.38	70.79	24.95	
2025-01-10 10:00:03.59	70.72	24.97	
2025-01-10 10:00:03.79	70.66	24.98	
2025-01-10 10:00:04.00	70.59	24.99	
2025-01-10 10:00:04.21	70.52	25.00	
2025-01-10 10:00:04.41	70.46	25.01	
2025-01-10 10:00:04.61	70.39	25.02	
2025-01-10 10:00:04.82	70.32	25.04	
2025-01-10 10:00:05.03	70.25	25.05	
2025-01-10 10:00:05.23	70.19	25.06	
2025-01-10 10:00:05.43	70.12	25.07	
2025-01-10 10:00:05.64	70.05	25.08	
2025-01-10 10:00:05.84	69.99	25.09	
2025-01-10 10:00:06.05	69.92	25.10	
2025-01-10 10:00:06.26	69.85	25.12	
2025-01-10 10:00:06.46	69.78	25.13	
2025-01-10 10:00:06.67	69.71	25.14	
2025-01-10 10:00:06.87	69.65	25.15	
2025-01-10 10:00:07.08	69.58	25.16	
2025-01-10 10:00:07.28	69.51	25.17	
2025-01-10 10:00:07.49	69.44	25.18	
2025-01-10 10:00:07.69	69.38	25.19	
2025-01-10 10:00:07.90	69.31	25.21	
2025-01-10 10:00:08.11	69.24	25.22	
2025-01-10 10:00:08.31	69.17	25.23	
2025-01-10 10:00:08.52	69.10	25.24	
2025-01-10 10:00:08.72	69.03	25.25	
2025-01-10 10:00:08.93	68.96	25.26	
2025-01-10 10:00:09.13	68.90	25.27	
2025-01-10 10:00:09.34	68.83	25.28	
2025-01-10 10:00:09.54	68.76	25.29	
2025-01-10 10:00:09.75	68.69	25.30	
2025-01-10 10:00:09.95	68.62	25.31	
2025-01-10 10:00:10.16	68.55	25.32	
2025-01-10 10:00:10.36	68.49	25.33	
2025-01-10 10:00:10.57	68.42	25.35	
2025-01-10 10:00:10.77	68.35	25.36	
2025-01-10 10:00:10.97	68.28	25.37	
2025-01-10 10:00:11.18	68.21	25.38	
2025-01-10 10:00:11.39	68.14	25.39	
2025-01-10 10:00:11.59	68.07	25.40	
2025-01-10 10:00:11.79	68.01	25.41	
2025-01-10 10:00:12.00	67.94	25.42	
2025-01-10 10:00:12.20	67.87	25.43	
2025-01-10 10:00:12.41	67.80	25.44	
2025-01-10 10:00:12.62	67.73	25.45	
2025-01-10 10:00:12.82	67.66	25.46	
2025-01-10 10:00:13.03	67.59	25.47	
2025-01-10 10:00:13.23	67.52	25.48	
2025-01-10 10:00:13.44	67.45	25.49	
2025-01-10 10:00:13.64	67.38	25.50	
2025-01-10 10:00:13.85	67.31	25.51	
2025-01-10 10:00:14.05	67.24	25.52	
2025-01-10 10:00:14.26	67.17	25.53	
2025-01-10 10:00:14.47	67.10	25.54	
2025-01-10 10:00:14.67	67.03	25.55	
2025-01-10 10:00:14.88	66.96	25.56	
2025-01-10 10:00:15.08	66.89	25.57	
2025-01-10 10:00:15.29	66.82	25.58	
2025-01-10 10:00:15.49	66.75	25.59	
2025-01-10 10:00:15.70	66.68	25.60	
2025-01-10 10:00:15.91	66.61	25.61	
2025-01-10 10:00:16.11	66.54	25.62	
2025-01-10 10:00:16.31	66.47	25.63	
2025-01-10 10:00:16.52	66.40	25.63	
2025-01-10 10:00:16.73	66.33	25.64	
2025-01-10 10:00:16.93	66.26	25.65	
2025-01-10 10:00:17.14	66.19	25.66	
2025-01-10 10:00:17.34	66.12	25.67	
2025-01-10 10:00:17.55	66.05	25.68	
2025-01-10 10:00:17.75	65.98	25.69	
2025-01-10 10:00:17.96	65.91	25.70	
2025-01-10 10:00:18.17	65.84	25.71	
2025-01-10 10:00:18.37	65.77	25.72	
2025-01-10 10:00:18.57	65.70	25.73	
2025-01-10 10:00:18.78	65.63	25.74	
2025-01-10 10:00:18.98	65.56	25.74	
2025-01-10 10:00:19.19	65.49	25.75	
2025-01-10 10:00:19.39	65.42	25.76	
2025-01-10 10:00:19.60	65.35	25.77	
2025-01-10 10:00:19.80	65.28	25.78	
2025-01-10 10:00:20.01	65.21	25.79	
2025-01-10 10:00:20.22	65.13	25.80	
2025-01-10 10:00:20.42	65.06	25.81	
2025-01-10 10:00:20.62	65.00	25.81	
2025-01-10 10:00:20.83	64.92	25.82	
2025-01-10 10:00:21.04	64.85	25.83	
2025-01-10 10:00:21.24	64.78	25.84	
2025-01-10 10:00:21.45	64.71	25.85	
2025-01-10 10:00:21.65	64.64	25.86	
2025-01-10 10:00:21.85	64.57	25.86	
2025-01-10 10:00:22.06	64.50	25.87	
2025-01-10 10:00:22.26	64.43	25.88	
2025-01-10 10:00:22.47	64.35	25.89	
2025-01-10 10:00:22.69	64.28	25.90	
2025-01-10 10:00:22.89	64.21	25.91	
2025-01-10 10:00:23.10	64.14	25.91	
2025-01-10 10:00:23.30	64.07	25.92	
2025-01-10 10:00:23.51	63.99	25.93	
2025-01-10 10:00:23.72	63.92	25.94	
2025-01-10 10:00:23.92	63.85	25.94	
2025-01-10 10:00:24.12	63.78	25.95	
2025-01-10 10:00:24.33	63.71	25.96	
2025-01-10 10:00:24.54	63.63	25.97	
2025-01-10 10:00:24.74	63.56	25.98	
2025-01-10 10:00:24.95	63.49	25.98	
2025-01-10 10:00:25.15	63.42	25.99	
2025-01-10 10:00:25.36	63.35	26.00	
2025-01-10 10:00:25.57	63.27	26.01	
2025-01-10 10:00:25.77	63.20	26.01	
2025-01-10 10:00:25.98	63.13	26.02	
2025-01-10 10:00:26.18	63.06	26.03	
2025-01-10 10:00:26.39	62.99	26.04	
2025-01-10 10:00:26.59	62.92	26.04	
2025-01-10 10:00:26.80	62.84	26.05	
2025-01-10 10:00:27.00	62.77	26.06	
2025-01-10 10:00:27.21	62.70	26.06	
2025-01-10 10:00:27.41	62.63	26.07	
2025-01-10 10:00:27.62	62.56	26.08	
2025-01-10 10:00:27.83	62.48	26.09	
2025-01-10 10:00:28.03	62.41	26.09	
2025-01-10 10:00:28.24	62.34	26.10	
2025-01-10 10:00:28.44	62.27	26.11	
2025-01-10 10:00:28.65	62.19	26.11	
2025-01-10 10:00:28.85	62.12	26.12	
2025-01-10 10:00:29.06	62.05	26.13	
2025-01-10 10:00:29.26	61.98	26.13	
2025-01-10 10:00:29.47	61.90	26.14	
2025-01-10 10:00:29.67	61.83	26.15	
2025-01-10 10:00:29.88	61.76	26.15	
2025-01-10 10:00:30.08	61.69	26.16	
2025-01-10 10:00:30.29	61.61	26.17	
2025-01-10 10:00:30.49	61.54	26.17	
2025-01-10 10:00:30.70	61.47	26.18	
2025-01-10 10:00:30.90	61.40	26.18	
2025-01-10 10:00:31.11	61.32	26.19	
2025-01-10 10:00:31.31	61.25	26.20	
2025-01-10 10:00:31.52	61.18	26.20	
2025-01-10 10:00:31.72	61.11	26.21	
2025-01-10 10:00:31.93	61.03	26.21	
2025-01-10 10:00:32.14	60.96	26.22	
2025-01-10 10:00:32.34	60.89	26.23	
2025-01-10 10:00:32.55	60.81	26.23	
2025-01-10 10:00:32.75	60.74	26.24	
2025-01-10 10:00:32.96	60.67	26.24	
2025-01-10 10:00:33.17	60.59	26.25	
2025-01-10 10:00:33.39	60.52	26.26	
2025-01-10 10:00:33.60	60.44	26.26	
2025-01-10 10:00:33.80	60.37	26.27	
2025-01-10 10:00:34.01	60.30	26.27	
2025-01-10 10:00:34.22	60.22	26.28	
2025-01-10 10:00:34.42	60.15	26.28	
2025-01-10 10:00:34.63	60.07	26.29	
2025-01-10 10:00:34.83	60.00	26.29	
2025-01-10 10:00:35.04	59.93	26.30	
2025-01-10 10:00:35.24	59.86	26.31	
2025-01-10 10:00:35.45	59.78	26.31	
2025-01-10 10:00:35.65	59.71	26.32	
2025-01-10 10:00:35.86	59.64	26.32	
2025-01-10 10:00:36.06	59.56	26.33	
2025-01-10 10:00:36.27	59.49	26.33	
2025-01-10 10:00:36.47	59.42	26.34	
2025-01-10 10:00:36.68	59.34	26.34	
2025-01-10 10:00:36.88	59.27	26.35	
2025-01-10 10:00:37.09	59.20	26.35	
2025-01-10 10:00:37.30	59.12	26.36	
2025-01-10 10:00:37.50	59.05	26.36	
2025-01-10 10:00:37.70	58.98	26.36	
2025-01-10 10:00:37.91	58.90	26.37	
2025-01-10 10:00:38.12	58.83	26.37	
2025-01-10 10:00:38.32	58.76	26.38	
2025-01-10 10:00:38.53	58.68	26.38	
2025-01-10 10:00:38.73	58.61	26.39	
2025-01-10 10:00:38.94	58.53	26.39	
2025-01-10 10:00:39.15	58.46	26.40	
2025-01-10 10:00:39.35	58.39	26.40	
2025-01-10 10:00:39.57	58.31	26.40	
2025-01-10 10:00:39.77	58.24	26.41	
2025-01-10 10:00:39.98	58.16	26.41	
2025-01-10 10:00:40.18	58.09	26.42	
2025-01-10 10:00:40.39	58.01	26.42	
2025-01-10 10:00:40.59	57.94	26.43	
2025-01-10 10:00:40.80	57.87	26.43	
2025-01-10 10:00:41.00	57.79	26.43	
2025-01-10 10:00:41.21	57.72	26.44	
2025-01-10 10:00:41.41	57.65	26.44	
2025-01-10 10:00:41.62	57.57	26.44	
2025-01-10 10:00:41.82	57.50	26.45	
2025-01-10 10:00:42.02	57.43	26.45	
2025-01-10 10:00:42.23	57.35	26.45	
2025-01-10 10:00:42.44	57.28	26.46	
2025-01-10 10:00:42.65	57.20	26.46	
2025-01-10 10:00:42.85	57.13	26.47	
2025-01-10 10:00:43.05	57.06	26.47	
2025-01-10 10:00:43.26	56.98	26.47	
2025-01-10 10:00:43.47	56.90	26.48	
2025-01-10 10:00:43.67	56.83	26.48	
2025-01-10 10:00:43.88	56.76	26.48	
2025-01-10 10:00:44.08	56.68	26.48	
2025-01-10 10:00:44.29	56.61	26.49	
2025-01-10 10:00:44.49	56.54	26.49	
2025-01-10 10:00:44.70	56.46	26.49	
2025-01-10 10:00:44.90	56.39	26.50	
2025-01-10 10:00:45.11	56.31	26.50	
2025-01-10 10:00:45.31	56.24	26.50	
2025-01-10 10:00:45.52	56.17	26.51	
2025-01-10 10:00:45.72	56.09	26.51	
2025-01-10 10:00:45.93	56.02	26.51	
2025-01-10 10:00:46.13	55.94	26.51	
2025-01-10 10:00:46.34	55.87	26.52	
2025-01-10 10:00:46.54	55.80	26.52	
2025-01-10 10:00:46.74	55.72	26.52	
2025-01-10 10:00:46.95	55.65	26.52	
2025-01-10 10:00:47.15	55.58	26.53	
2025-01-10 10:00:47.36	55.50	26.53	
2025-01-10 10:00:47.56	55.43	26.53	
2025-01-10 10:00:47.77	55.35	26.53	
2025-01-10 10:00:47.98	55.28	26.53	
2025-01-10 10:00:48.18	55.20	26.54	
2025-01-10 10:00:48.39	55.13	26.54	
2025-01-10 10:00:48.59	55.05	26.54	
2025-01-10 10:00:48.80	54.98	26.54	
2025-01-10 10:00:49.00	54.91	26.54	
2025-01-10 10:00:49.21	54.83	26.55	
2025-01-10 10:00:49.43	54.75	26.55	
2025-01-10 10:00:49.63	54.68	26.55	
2025-01-10 10:00:49.84	54.60	26.55	
2025-01-10 10:00:50.04	54.53	26.55	
2025-01-10 10:00:50.25	54.45	26.55	
2025-01-10 10:00:50.47	54.37	26.56	
2025-01-10 10:00:50.67	54.30	26.56	
2025-01-10 10:00:50.88	54.23	26.56	
2025-01-10 10:00:51.08	54.15	26.56	
2025-01-10 10:00:51.29	54.08	26.56	
2025-01-10 10:00:51.49	54.00	26.56	
2025-01-10 10:00:51.70	53.93	26.56	
2025-01-10 10:00:51.90	53.86	26.57	
2025-01-10 10:00:52.11	53.78	26.57	
2025-01-10 10:00:52.31	53.71	26.57	
2025-01-10 10:00:52.52	53.63	26.57	
2025-01-10 10:00:52.72	53.56	26.57	
2025-01-10 10:00:52.93	53.48	26.57	
2025-01-10 10:00:53.13	53.41	26.57	
2025-01-10 10:00:53.34	53.33	26.57	
2025-01-10 10:00:53.55	53.26	26.57	
2025-01-10 10:00:53.76	53.18	26.57	
2025-01-10 10:00:53.96	53.11	26.57	
2025-01-10 10:00:54.17	53.03	26.57	
2025-01-10 10:00:54.38	52.96	26.58	
2025-01-10 10:00:54.58	52.88	26.58	
2025-01-10 10:00:54.80	52.80	26.58	
2025-01-10 10:00:55.01	52.73	26.58	
2025-01-10 10:00:55.21	52.65	26.58	
2025-01-10 10:00:55.41	52.58	26.58	
2025-01-10 10:00:55.62	52.51	26.58	
2025-01-10 10:00:55.82	52.43	26.58	
2025-01-10 10:00:56.02	52.36	26.58	
2025-01-10 10:00:56.23	52.28	26.58	
2025-01-10 10:00:56.44	52.21	26.58	
2025-01-10 10:00:56.64	52.14	26.58	
2025-01-10 10:00:56.85	52.06	26.58	
2025-01-10 10:00:57.05	51.99	26.58	
2025-01-10 10:00:57.26	51.91	26.58	
2025-01-10 10:00:57.46	51.84	26.58	
2025-01-10 10:00:57.67	51.76	26.58	
2025-01-10 10:00:57.87	51.69	26.58	
2025-01-10 10:00:58.08	51.61	26.58	
2025-01-10 10:00:58.28	51.54	26.58	
2025-01-10 10:00:58.49	51.46	26.58	
2025-01-10 10:00:58.69	51.39	26.57	
2025-01-10 10:00:58.90	51.32	26.57	
2025-01-10 10:00:59.10	51.24	26.57	
2025-01-10 10:00:59.31	51.17	26.57	
2025-01-10 10:00:59.51	51.09	26.57	
2025-01-10 10:00:59.72	51.02	26.57	
2025-01-10 10:00:59.92	50.95	26.57	
2025-01-10 10:01:00.13	50.87	26.57	
2025-01-10 10:01:00.33	50.80	26.57	
2025-01-10 10:01:00.54	50.72	26.57	
2025-01-10 10:01:00.75	50.64	26.57	
2025-01-10 10:01:00.95	50.57	26.57	
2025-01-10 10:01:01.16	50.50	26.56	
2025-01-10 10:01:01.36	50.42	26.56	
2025-01-10 10:01:01.57	50.35	26.56	
2025-01-10 10:01:01.77	50.28	26.56	
2025-01-10 10:01:01.98	50.20	26.56	
2025-01-10 10:01:02.20	50.12	26.56	
2025-01-10 10:01:02.40	50.05	26.56	
2025-01-10 10:01:02.61	49.97	26.55	
2025-01-10 10:01:02.81	49.90	26.55	
2025-01-10 10:01:03.02	49.82	26.55	
2025-01-10 10:01:03.22	49.75	26.55	
2025-01-10 10:01:03.43	49.67	26.55	
2025-01-10 10:01:03.63	49.60	26.55	
2025-01-10 10:01:03.84	49.53	26.54	
2025-01-10 10:01:04.04	49.45	26.54	
2025-01-10 10:01:04.25	49.38	26.54	
2025-01-10 10:01:04.47	49.30	26.54	
2025-01-10 10:01:04.67	49.23	26.54	
2025-01-10 10:01:04.88	49.15	26.53	
2025-01-10 10:01:05.09	49.07	26.53	
2025-01-10 10:01:05.29	49.00	26.53	
2025-01-10 10:01:05.50	48.92	26.53	
2025-01-10 10:01:05.70	48.85	26.53	
2025-01-10 10:01:05.91	48.78	26.52	
2025-01-10 10:01:06.11	48.70	26.52	
2025-01-10 10:01:06.32	48.63	26.52	
2025-01-10 10:01:06.52	48.56	26.52	
2025-01-10 10:01:06.73	48.48	26.51	
2025-01-10 10:01:06.93	48.41	26.51	
2025-01-10 10:01:07.14	48.33	26.51	
2025-01-10 10:01:07.34	48.26	26.50	
2025-01-10 10:01:07.55	48.18	26.50	
2025-01-10 10:01:07.75	48.11	26.50	
2025-01-10 10:01:07.96	48.04	26.50	
2025-01-10 10:01:08.16	47.96	26.49	
2025-01-10 10:01:08.37	47.89	26.49	
2025-01-10 10:01:08.57	47.82	26.49	
2025-01-10 10:01:08.78	47.74	26.48	
2025-01-10 10:01:08.98	47.67	26.48	
2025-01-10 10:01:09.19	47.59	26.48	
2025-01-10 10:01:09.40	47.52	26.47	
2025-01-10 10:01:09.60	47.44	26.47	
2025-01-10 10:01:09.81	47.37	26.47	
2025-01-10 10:01:10.01	47.30	26.47	
2025-01-10 10:01:10.22	47.22	26.46	
2025-01-10 10:01:10.43	47.15	26.46	
2025-01-10 10:01:10.63	47.07	26.45	
2025-01-10 10:01:10.85	46.99	26.45	
2025-01-10 10:01:11.05	46.92	26.45	
2025-01-10 10:01:11.26	46.85	26.44	
2025-01-10 10:01:11.46	46.78	26.44	
2025-01-10 10:01:11.67	46.70	26.44	
2025-01-10 10:01:11.88	46.62	26.43	
2025-01-10 10:01:12.08	46.55	26.43	
2025-01-10 10:01:12.29	46.48	26.42	
2025-01-10 10:01:12.49	46.41	26.42	
2025-01-10 10:01:12.70	46.33	26.42	
2025-01-10 10:01:12.91	46.25	26.41	
2025-01-10 10:01:13.12	46.18	26.41	
2025-01-10 10:01:13.32	46.11	26.40	
2025-01-10 10:01:13.53	46.03	26.40	
2025-01-10 10:01:13.73	45.96	26.40	
2025-01-10 10:01:13.94	45.89	26.39	
2025-01-10 10:01:14.14	45.81	26.39	
2025-01-10 10:01:14.35	45.74	26.38	
2025-01-10 10:01:14.56	45.66	26.38	
2025-01-10 10:01:14.76	45.59	26.37	
2025-01-10 10:01:14.97	45.52	26.37	
2025-01-10 10:01:15.17	45.45	26.36	
2025-01-10 10:01:15.38	45.37	26.36	
2025-01-10 10:01:15.59	45.30	26.35	
2025-01-10 10:01:15.79	45.22	26.35	
2025-01-10 10:01:16.00	45.15	26.34	
2025-01-10 10:01:16.20	45.08	26.34	
2025-01-10 10:01:16.40	45.01	26.34	
2025-01-10 10:01:16.61	44.93	26.33	
2025-01-10 10:01:16.82	44.86	26.33	
2025-01-10 10:01:17.02	44.78	26.32	
2025-01-10 10:01:17.24	44.71	26.31	
2025-01-10 10:01:17.44	44.63	26.31	
2025-01-10 10:01:17.65	44.56	26.30	
2025-01-10 10:01:17.86	44.49	26.30	
2025-01-10 10:01:18.06	44.41	26.29	
