passes_logs/2025/01/10/SPB_Silybum_02/SPB_Silybum_02__20250110_064400_SUOMI_NPP_rec.log

#Pass ID: 20250110_064400_SUOMI NPP
#Satellite: SUOMI NPP
#Configuration: NPP
#Start time: 2025-01-10 06:43:59

#Version: 2.0.20230423
#Station: SPB_Silybum_02
#Location: 30.233357 lon 59.946436 lat
#TLE: 1 37849U 11061A   25009.84493763  .00000180  00000+0  10621-3 0  9991
#TLE: 2 37849  98.7440 310.8990 0001846  48.8747 311.2588 14.19535791684182

#Time	Az	El	Level	Level2	SNR	BER	Gain	Gain2
2025-01-10 06:44:01.90	58.34	4.05	
2025-01-10 06:44:02.11	58.32	4.06	
2025-01-10 06:44:02.31	58.29	4.07	
2025-01-10 06:44:02.52	58.27	4.07	
2025-01-10 06:44:02.72	58.24	4.08	
2025-01-10 06:44:02.93	58.22	4.09	
2025-01-10 06:44:03.13	58.20	4.10	
2025-01-10 06:44:03.34	58.17	4.11	
2025-01-10 06:44:03.54	58.15	4.12	
2025-01-10 06:44:03.75	58.12	4.12	
2025-01-10 06:44:03.95	58.10	4.13	
2025-01-10 06:44:04.16	58.07	4.14	
2025-01-10 06:44:04.36	58.05	4.15	
2025-01-10 06:44:04.57	58.03	4.16	
2025-01-10 06:44:04.77	58.00	4.17	
2025-01-10 06:44:04.98	57.98	4.17	
2025-01-10 06:44:05.18	57.95	4.18	
2025-01-10 06:44:05.39	57.93	4.19	
2025-01-10 06:44:05.59	57.90	4.20	
2025-01-10 06:44:05.80	57.88	4.21	
2025-01-10 06:44:06.00	57.86	4.22	
2025-01-10 06:44:06.21	57.83	4.22	
2025-01-10 06:44:06.41	57.81	4.23	
2025-01-10 06:44:06.62	57.78	4.24	
2025-01-10 06:44:06.82	57.76	4.25	
2025-01-10 06:44:07.03	57.73	4.26	
2025-01-10 06:44:07.23	57.71	4.27	
2025-01-10 06:44:07.44	57.68	4.28	
2025-01-10 06:44:07.64	57.66	4.28	
2025-01-10 06:44:07.85	57.64	4.29	
2025-01-10 06:44:08.05	57.61	4.30	
2025-01-10 06:44:08.26	57.59	4.31	
2025-01-10 06:44:08.46	57.56	4.32	
2025-01-10 06:44:08.67	57.54	4.33	
2025-01-10 06:44:08.87	57.51	4.33	
2025-01-10 06:44:09.08	57.49	4.34	
2025-01-10 06:44:09.29	57.46	4.35	
2025-01-10 06:44:09.49	57.44	4.36	
2025-01-10 06:44:09.70	57.41	4.37	
2025-01-10 06:44:09.90	57.39	4.38	
2025-01-10 06:44:10.11	57.36	4.38	
2025-01-10 06:44:10.31	57.34	4.39	
2025-01-10 06:44:10.52	57.31	4.40	
2025-01-10 06:44:10.72	57.29	4.41	
2025-01-10 06:44:10.93	57.27	4.42	
2025-01-10 06:44:11.14	57.24	4.43	
2025-01-10 06:44:11.34	57.22	4.43	
2025-01-10 06:44:11.55	57.19	4.44	
2025-01-10 06:44:11.75	57.17	4.45	
2025-01-10 06:44:11.95	57.14	4.46	
2025-01-10 06:44:12.16	57.12	4.47	
2025-01-10 06:44:12.36	57.09	4.48	
2025-01-10 06:44:12.57	57.07	4.48	
2025-01-10 06:44:12.78	57.04	4.49	
2025-01-10 06:44:12.98	57.02	4.50	
2025-01-10 06:44:13.19	56.99	4.51	
2025-01-10 06:44:13.39	56.97	4.52	
2025-01-10 06:44:13.60	56.94	4.53	
2025-01-10 06:44:13.81	56.92	4.53	
2025-01-10 06:44:14.02	56.89	4.54	
2025-01-10 06:44:14.23	56.87	4.55	
2025-01-10 06:44:14.43	56.84	4.56	
2025-01-10 06:44:14.63	56.82	4.57	
2025-01-10 06:44:14.84	56.79	4.58	
2025-01-10 06:44:15.05	56.77	4.58	
2025-01-10 06:44:15.25	56.74	4.59	
2025-01-10 06:44:15.45	56.72	4.60	
2025-01-10 06:44:15.66	56.69	4.61	
2025-01-10 06:44:15.86	56.67	4.62	
2025-01-10 06:44:16.07	56.64	4.63	
2025-01-10 06:44:16.28	56.62	4.63	
2025-01-10 06:44:16.48	56.59	4.64	
2025-01-10 06:44:16.68	56.57	4.65	
2025-01-10 06:44:16.89	56.54	4.66	
2025-01-10 06:44:17.10	56.52	4.67	
2025-01-10 06:44:17.30	56.49	4.68	
2025-01-10 06:44:17.51	56.46	4.68	
2025-01-10 06:44:17.71	56.44	4.69	
2025-01-10 06:44:17.92	56.41	4.70	
2025-01-10 06:44:18.12	56.39	4.71	
2025-01-10 06:44:18.33	56.36	4.72	
2025-01-10 06:44:18.54	56.34	4.73	
2025-01-10 06:44:18.74	56.31	4.73	
2025-01-10 06:44:18.94	56.29	4.74	
2025-01-10 06:44:19.15	56.26	4.75	
2025-01-10 06:44:19.36	56.24	4.76	
2025-01-10 06:44:19.56	56.21	4.77	
2025-01-10 06:44:19.76	56.19	4.77	
2025-01-10 06:44:19.97	56.16	4.78	
2025-01-10 06:44:20.17	56.14	4.79	
2025-01-10 06:44:20.38	56.11	4.80	
2025-01-10 06:44:20.59	56.08	4.81	
2025-01-10 06:44:20.79	56.06	4.82	
2025-01-10 06:44:21.00	56.03	4.82	
2025-01-10 06:44:21.20	56.01	4.83	
2025-01-10 06:44:21.41	55.98	4.84	
2025-01-10 06:44:21.61	55.96	4.85	
2025-01-10 06:44:21.82	55.93	4.86	
2025-01-10 06:44:22.02	55.91	4.86	
2025-01-10 06:44:22.23	55.88	4.87	
2025-01-10 06:44:22.43	55.86	4.88	
2025-01-10 06:44:22.64	55.83	4.89	
2025-01-10 06:44:22.84	55.81	4.90	
2025-01-10 06:44:23.05	55.78	4.91	
2025-01-10 06:44:23.25	55.75	4.91	
2025-01-10 06:44:23.46	55.73	4.92	
2025-01-10 06:44:23.66	55.70	4.93	
2025-01-10 06:44:23.87	55.68	4.94	
2025-01-10 06:44:24.08	55.65	4.95	
2025-01-10 06:44:24.28	55.63	4.95	
2025-01-10 06:44:24.49	55.60	4.96	
2025-01-10 06:44:24.70	55.57	4.97	
2025-01-10 06:44:24.91	55.55	4.98	
2025-01-10 06:44:25.11	55.52	4.99	
2025-01-10 06:44:25.32	55.50	5.00	
2025-01-10 06:44:25.52	55.47	5.00	
2025-01-10 06:44:25.72	55.44	5.01	
2025-01-10 06:44:25.93	55.42	5.02	
2025-01-10 06:44:26.13	55.39	5.03	
2025-01-10 06:44:26.34	55.37	5.04	
2025-01-10 06:44:26.54	55.34	5.04	
2025-01-10 06:44:26.75	55.32	5.05	
2025-01-10 06:44:26.96	55.29	5.06	
2025-01-10 06:44:27.16	55.26	5.07	
2025-01-10 06:44:27.36	55.24	5.08	
2025-01-10 06:44:27.57	55.21	5.09	
2025-01-10 06:44:27.78	55.19	5.09	
2025-01-10 06:44:27.98	55.16	5.10	
2025-01-10 06:44:28.19	55.13	5.11	
2025-01-10 06:44:28.39	55.11	5.12	
2025-01-10 06:44:28.60	55.08	5.13	
2025-01-10 06:44:28.80	55.06	5.13	
2025-01-10 06:44:29.01	55.03	5.14	
2025-01-10 06:44:29.21	55.00	5.15	
2025-01-10 06:44:29.42	54.98	5.16	
2025-01-10 06:44:29.62	54.95	5.17	
2025-01-10 06:44:29.83	54.93	5.17	
2025-01-10 06:44:30.04	54.90	5.18	
2025-01-10 06:44:30.24	54.87	5.19	
2025-01-10 06:44:30.45	54.85	5.20	
2025-01-10 06:44:30.65	54.82	5.21	
2025-01-10 06:44:30.86	54.79	5.22	
2025-01-10 06:44:31.06	54.77	5.22	
2025-01-10 06:44:31.27	54.74	5.23	
2025-01-10 06:44:31.47	54.72	5.24	
2025-01-10 06:44:31.68	54.69	5.25	
2025-01-10 06:44:31.88	54.66	5.26	
2025-01-10 06:44:32.09	54.64	5.26	
2025-01-10 06:44:32.29	54.61	5.27	
2025-01-10 06:44:32.50	54.58	5.28	
2025-01-10 06:44:32.70	54.56	5.29	
2025-01-10 06:44:32.91	54.53	5.30	
2025-01-10 06:44:33.11	54.51	5.30	
2025-01-10 06:44:33.32	54.48	5.31	
2025-01-10 06:44:33.53	54.45	5.32	
2025-01-10 06:44:33.74	54.43	5.33	
2025-01-10 06:44:33.95	54.40	5.34	
2025-01-10 06:44:34.15	54.37	5.34	
2025-01-10 06:44:34.36	54.35	5.35	
2025-01-10 06:44:34.56	54.32	5.36	
2025-01-10 06:44:34.77	54.29	5.37	
2025-01-10 06:44:34.97	54.27	5.38	
2025-01-10 06:44:35.18	54.24	5.38	
2025-01-10 06:44:35.38	54.21	5.39	
2025-01-10 06:44:35.59	54.19	5.40	
2025-01-10 06:44:35.79	54.16	5.41	
2025-01-10 06:44:36.00	54.13	5.42	
2025-01-10 06:44:36.20	54.11	5.42	
2025-01-10 06:44:36.41	54.08	5.43	
2025-01-10 06:44:36.61	54.06	5.44	
2025-01-10 06:44:36.82	54.03	5.45	
2025-01-10 06:44:37.02	54.00	5.46	
2025-01-10 06:44:37.23	53.98	5.46	
2025-01-10 06:44:37.43	53.95	5.47	
2025-01-10 06:44:37.64	53.92	5.48	
2025-01-10 06:44:37.84	53.90	5.49	
2025-01-10 06:44:38.06	53.87	5.50	
2025-01-10 06:44:38.26	53.84	5.50	
2025-01-10 06:44:38.47	53.81	5.51	
2025-01-10 06:44:38.67	53.79	5.52	
2025-01-10 06:44:38.88	53.76	5.53	
2025-01-10 06:44:39.08	53.73	5.54	
2025-01-10 06:44:39.29	53.71	5.54	
2025-01-10 06:44:39.49	53.68	5.55	
2025-01-10 06:44:39.70	53.65	5.56	
2025-01-10 06:44:39.90	53.63	5.57	
2025-01-10 06:44:40.10	53.60	5.58	
2025-01-10 06:44:40.31	53.57	5.58	
2025-01-10 06:44:40.52	53.55	5.59	
2025-01-10 06:44:40.72	53.52	5.60	
2025-01-10 06:44:40.92	53.49	5.61	
2025-01-10 06:44:41.13	53.47	5.62	
2025-01-10 06:44:41.33	53.44	5.62	
2025-01-10 06:44:41.54	53.41	5.63	
2025-01-10 06:44:41.74	53.39	5.64	
2025-01-10 06:44:41.95	53.36	5.65	
2025-01-10 06:44:42.15	53.33	5.66	
2025-01-10 06:44:42.36	53.31	5.66	
2025-01-10 06:44:42.56	53.28	5.67	
2025-01-10 06:44:42.77	53.25	5.68	
2025-01-10 06:44:42.97	53.22	5.69	
2025-01-10 06:44:43.18	53.20	5.69	
2025-01-10 06:44:43.38	53.17	5.70	
2025-01-10 06:44:43.59	53.14	5.71	
2025-01-10 06:44:43.79	53.12	5.72	
2025-01-10 06:44:44.00	53.09	5.73	
2025-01-10 06:44:44.21	53.06	5.73	
2025-01-10 06:44:44.41	53.03	5.74	
2025-01-10 06:44:44.61	53.01	5.75	
2025-01-10 06:44:44.82	52.98	5.76	
2025-01-10 06:44:45.03	52.95	5.77	
2025-01-10 06:44:45.23	52.93	5.77	
2025-01-10 06:44:45.43	52.90	5.78	
2025-01-10 06:44:45.64	52.87	5.79	
2025-01-10 06:44:45.85	52.84	5.80	
2025-01-10 06:44:46.05	52.82	5.80	
2025-01-10 06:44:46.26	52.79	5.81	
2025-01-10 06:44:46.46	52.76	5.82	
2025-01-10 06:44:46.66	52.74	5.83	
2025-01-10 06:44:46.87	52.71	5.84	
2025-01-10 06:44:47.08	52.68	5.84	
2025-01-10 06:44:47.28	52.65	5.85	
2025-01-10 06:44:47.49	52.63	5.86	
2025-01-10 06:44:47.69	52.60	5.87	
2025-01-10 06:44:47.90	52.57	5.88	
2025-01-10 06:44:48.10	52.54	5.88	
2025-01-10 06:44:48.31	52.52	5.89	
2025-01-10 06:44:48.51	52.49	5.90	
2025-01-10 06:44:48.72	52.46	5.91	
2025-01-10 06:44:48.92	52.43	5.91	
2025-01-10 06:44:49.13	52.41	5.92	
2025-01-10 06:44:49.33	52.38	5.93	
2025-01-10 06:44:49.54	52.35	5.94	
2025-01-10 06:44:49.74	52.33	5.94	
2025-01-10 06:44:49.95	52.30	5.95	
2025-01-10 06:44:50.15	52.27	5.96	
2025-01-10 06:44:50.36	52.24	5.97	
2025-01-10 06:44:50.56	52.21	5.98	
2025-01-10 06:44:50.78	52.19	5.98	
2025-01-10 06:44:50.99	52.16	5.99	
2025-01-10 06:44:51.19	52.13	6.00	
2025-01-10 06:44:51.40	52.10	6.01	
2025-01-10 06:44:51.60	52.07	6.02	
2025-01-10 06:44:51.81	52.05	6.02	
2025-01-10 06:44:52.01	52.02	6.03	
2025-01-10 06:44:52.22	51.99	6.04	
2025-01-10 06:44:52.43	51.96	6.05	
2025-01-10 06:44:52.63	51.94	6.05	
2025-01-10 06:44:52.83	51.91	6.06	
2025-01-10 06:44:53.04	51.88	6.07	
2025-01-10 06:44:53.24	51.85	6.08	
2025-01-10 06:44:53.45	51.83	6.08	
2025-01-10 06:44:53.65	51.80	6.09	
2025-01-10 06:44:53.86	51.77	6.10	
2025-01-10 06:44:54.06	51.74	6.11	
2025-01-10 06:44:54.27	51.71	6.12	
2025-01-10 06:44:54.47	51.69	6.12	
2025-01-10 06:44:54.67	51.66	6.13	
2025-01-10 06:44:54.88	51.63	6.14	
2025-01-10 06:44:55.08	51.60	6.15	
2025-01-10 06:44:55.29	51.58	6.15	
2025-01-10 06:44:55.50	51.55	6.16	
2025-01-10 06:44:55.70	51.52	6.17	
2025-01-10 06:44:55.91	51.49	6.18	
2025-01-10 06:44:56.11	51.46	6.18	
2025-01-10 06:44:56.32	51.43	6.19	
2025-01-10 06:44:56.52	51.41	6.20	
2025-01-10 06:44:56.73	51.38	6.21	
2025-01-10 06:44:56.93	51.35	6.21	
2025-01-10 06:44:57.14	51.32	6.22	
2025-01-10 06:44:57.34	51.30	6.23	
2025-01-10 06:44:57.55	51.27	6.24	
2025-01-10 06:44:57.76	51.24	6.25	
2025-01-10 06:44:57.96	51.21	6.25	
2025-01-10 06:44:58.17	51.18	6.26	
2025-01-10 06:44:58.37	51.15	6.27	
2025-01-10 06:44:58.58	51.13	6.28	
2025-01-10 06:44:58.78	51.10	6.28	
2025-01-10 06:44:58.99	51.07	6.29	
2025-01-10 06:44:59.19	51.04	6.30	
2025-01-10 06:44:59.40	51.01	6.31	
2025-01-10 06:44:59.60	50.99	6.31	
2025-01-10 06:44:59.81	50.96	6.32	
2025-01-10 06:45:00.01	50.93	6.33	
2025-01-10 06:45:00.22	50.90	6.34	
2025-01-10 06:45:00.42	50.87	6.34	
2025-01-10 06:45:00.63	50.84	6.35	
2025-01-10 06:45:00.83	50.82	6.36	
2025-01-10 06:45:01.04	50.79	6.37	
2025-01-10 06:45:01.24	50.76	6.37	
2025-01-10 06:45:01.44	50.73	6.38	
2025-01-10 06:45:01.65	50.70	6.39	
2025-01-10 06:45:01.86	50.67	6.40	
2025-01-10 06:45:02.06	50.65	6.40	
2025-01-10 06:45:02.27	50.62	6.41	
2025-01-10 06:45:02.47	50.59	6.42	
2025-01-10 06:45:02.68	50.56	6.43	
2025-01-10 06:45:02.88	50.53	6.43	
2025-01-10 06:45:03.09	50.50	6.44	
2025-01-10 06:45:03.29	50.48	6.45	
2025-01-10 06:45:03.50	50.45	6.46	
2025-01-10 06:45:03.70	50.42	6.46	
2025-01-10 06:45:03.91	50.39	6.47	
2025-01-10 06:45:04.11	50.36	6.48	
2025-01-10 06:45:04.32	50.33	6.49	
2025-01-10 06:45:04.52	50.30	6.49	
2025-01-10 06:45:04.73	50.27	6.50	
2025-01-10 06:45:04.93	50.25	6.51	
2025-01-10 06:45:05.14	50.22	6.52	
2025-01-10 06:45:05.34	50.19	6.52	
2025-01-10 06:45:05.55	50.16	6.53	
2025-01-10 06:45:05.75	50.13	6.54	
2025-01-10 06:45:05.96	50.10	6.55	
2025-01-10 06:45:06.17	50.07	6.55	
2025-01-10 06:45:06.37	50.05	6.56	
2025-01-10 06:45:06.58	50.02	6.57	
2025-01-10 06:45:06.79	49.99	6.58	
2025-01-10 06:45:07.00	49.96	6.58	
2025-01-10 06:45:07.20	49.93	6.59	
2025-01-10 06:45:07.41	49.90	6.60	
2025-01-10 06:45:07.61	49.87	6.61	
2025-01-10 06:45:07.82	49.84	6.61	
2025-01-10 06:45:08.02	49.81	6.62	
2025-01-10 06:45:08.23	49.78	6.63	
2025-01-10 06:45:08.43	49.76	6.63	
2025-01-10 06:45:08.64	49.73	6.64	
2025-01-10 06:45:08.84	49.70	6.65	
2025-01-10 06:45:09.05	49.67	6.66	
2025-01-10 06:45:09.25	49.64	6.66	
2025-01-10 06:45:09.46	49.61	6.67	
2025-01-10 06:45:09.66	49.58	6.68	
2025-01-10 06:45:09.87	49.55	6.69	
2025-01-10 06:45:10.07	49.53	6.69	
2025-01-10 06:45:10.27	49.50	6.70	
2025-01-10 06:45:10.48	49.47	6.71	
2025-01-10 06:45:10.68	49.44	6.72	
2025-01-10 06:45:10.89	49.41	6.72	
2025-01-10 06:45:11.11	49.38	6.73	
2025-01-10 06:45:11.31	49.35	6.74	
2025-01-10 06:45:11.52	49.32	6.75	
2025-01-10 06:45:11.73	49.29	6.75	
2025-01-10 06:45:11.93	49.26	6.76	
2025-01-10 06:45:12.13	49.23	6.77	
2025-01-10 06:45:12.34	49.20	6.77	
2025-01-10 06:45:12.54	49.18	6.78	
2025-01-10 06:45:12.75	49.15	6.79	
2025-01-10 06:45:12.96	49.12	6.80	
2025-01-10 06:45:13.16	49.09	6.80	
2025-01-10 06:45:13.37	49.06	6.81	
2025-01-10 06:45:13.57	49.03	6.82	
2025-01-10 06:45:13.78	49.00	6.83	
2025-01-10 06:45:13.98	48.97	6.83	
2025-01-10 06:45:14.19	48.94	6.84	
2025-01-10 06:45:14.39	48.91	6.85	
2025-01-10 06:45:14.60	48.88	6.85	
2025-01-10 06:45:14.80	48.85	6.86	
2025-01-10 06:45:15.01	48.82	6.87	
2025-01-10 06:45:15.21	48.79	6.88	
2025-01-10 06:45:15.41	48.77	6.88	
2025-01-10 06:45:15.62	48.74	6.89	
2025-01-10 06:45:15.83	48.71	6.90	
2025-01-10 06:45:16.03	48.68	6.90	
2025-01-10 06:45:16.24	48.65	6.91	
2025-01-10 06:45:16.44	48.62	6.92	
2025-01-10 06:45:16.65	48.59	6.93	
2025-01-10 06:45:16.85	48.56	6.93	
2025-01-10 06:45:17.06	48.53	6.94	
2025-01-10 06:45:17.26	48.50	6.95	
2025-01-10 06:45:17.46	48.47	6.95	
2025-01-10 06:45:17.67	48.44	6.96	
2025-01-10 06:45:17.88	48.41	6.97	
2025-01-10 06:45:18.08	48.38	6.98	
2025-01-10 06:45:18.29	48.35	6.98	
2025-01-10 06:45:18.49	48.32	6.99	
2025-01-10 06:45:18.70	48.29	7.00	
2025-01-10 06:45:18.90	48.26	7.00	
2025-01-10 06:45:19.11	48.23	7.01	
2025-01-10 06:45:19.32	48.20	7.02	
2025-01-10 06:45:19.52	48.17	7.03	
2025-01-10 06:45:19.72	48.15	7.03	
2025-01-10 06:45:19.93	48.11	7.04	
2025-01-10 06:45:20.14	48.08	7.05	
2025-01-10 06:45:20.34	48.06	7.05	
2025-01-10 06:45:20.55	48.02	7.06	
2025-01-10 06:45:20.75	48.00	7.07	
2025-01-10 06:45:20.95	47.97	7.08	
2025-01-10 06:45:21.16	47.94	7.08	
2025-01-10 06:45:21.37	47.91	7.09	
2025-01-10 06:45:21.57	47.88	7.10	
2025-01-10 06:45:21.79	47.84	7.10	
2025-01-10 06:45:21.99	47.82	7.11	
2025-01-10 06:45:22.20	47.79	7.12	
2025-01-10 06:45:22.40	47.76	7.13	
2025-01-10 06:45:22.61	47.73	7.13	
2025-01-10 06:45:22.81	47.70	7.14	
2025-01-10 06:45:23.02	47.67	7.15	
2025-01-10 06:45:23.22	47.64	7.15	
2025-01-10 06:45:23.43	47.61	7.16	
2025-01-10 06:45:23.63	47.58	7.17	
2025-01-10 06:45:23.84	47.55	7.17	
2025-01-10 06:45:24.04	47.52	7.18	
2025-01-10 06:45:24.25	47.49	7.19	
2025-01-10 06:45:24.45	47.46	7.20	
2025-01-10 06:45:24.66	47.43	7.20	
2025-01-10 06:45:24.86	47.40	7.21	
2025-01-10 06:45:25.07	47.37	7.22	
2025-01-10 06:45:25.28	47.34	7.22	
2025-01-10 06:45:25.48	47.31	7.23	
2025-01-10 06:45:25.69	47.27	7.24	
2025-01-10 06:45:25.89	47.25	7.24	
2025-01-10 06:45:26.10	47.21	7.25	
2025-01-10 06:45:26.30	47.19	7.26	
2025-01-10 06:45:26.51	47.15	7.27	
2025-01-10 06:45:26.71	47.13	7.27	
2025-01-10 06:45:26.92	47.09	7.28	
2025-01-10 06:45:27.12	47.06	7.29	
2025-01-10 06:45:27.33	47.03	7.29	
2025-01-10 06:45:27.54	47.00	7.30	
2025-01-10 06:45:27.74	46.97	7.31	
2025-01-10 06:45:27.95	46.94	7.31	
2025-01-10 06:45:28.17	46.91	7.32	
2025-01-10 06:45:28.37	46.88	7.33	
2025-01-10 06:45:28.58	46.85	7.33	
2025-01-10 06:45:28.78	46.82	7.34	
2025-01-10 06:45:28.99	46.79	7.35	
2025-01-10 06:45:29.19	46.76	7.36	
2025-01-10 06:45:29.40	46.73	7.36	
2025-01-10 06:45:29.60	46.70	7.37	
2025-01-10 06:45:29.81	46.67	7.38	
2025-01-10 06:45:30.01	46.64	7.38	
2025-01-10 06:45:30.21	46.61	7.39	
2025-01-10 06:45:30.42	46.58	7.40	
2025-01-10 06:45:30.63	46.55	7.40	
2025-01-10 06:45:30.83	46.52	7.41	
2025-01-10 06:45:31.04	46.48	7.42	
2025-01-10 06:45:31.24	46.46	7.42	
2025-01-10 06:45:31.45	46.42	7.43	
2025-01-10 06:45:31.65	46.39	7.44	
2025-01-10 06:45:31.86	46.36	7.44	
2025-01-10 06:45:32.06	46.33	7.45	
2025-01-10 06:45:32.27	46.30	7.46	
2025-01-10 06:45:32.47	46.27	7.46	
2025-01-10 06:45:32.68	46.24	7.47	
2025-01-10 06:45:32.88	46.21	7.48	
2025-01-10 06:45:33.09	46.18	7.48	
2025-01-10 06:45:33.30	46.15	7.49	
2025-01-10 06:45:33.50	46.12	7.50	
2025-01-10 06:45:33.71	46.09	7.50	
2025-01-10 06:45:33.91	46.06	7.51	
2025-01-10 06:45:34.12	46.03	7.52	
2025-01-10 06:45:34.32	46.00	7.52	
2025-01-10 06:45:34.53	45.96	7.53	
2025-01-10 06:45:34.73	45.93	7.54	
2025-01-10 06:45:34.94	45.90	7.54	
2025-01-10 06:45:35.15	45.87	7.55	
2025-01-10 06:45:35.35	45.84	7.56	
2025-01-10 06:45:35.55	45.81	7.56	
2025-01-10 06:45:35.76	45.78	7.57	
2025-01-10 06:45:35.96	45.75	7.58	
2025-01-10 06:45:36.17	45.72	7.58	
2025-01-10 06:45:36.37	45.69	7.59	
2025-01-10 06:45:36.58	45.66	7.60	
2025-01-10 06:45:36.78	45.63	7.60	
2025-01-10 06:45:36.99	45.59	7.61	
2025-01-10 06:45:37.19	45.56	7.62	
2025-01-10 06:45:37.40	45.53	7.62	
2025-01-10 06:45:37.61	45.50	7.63	
2025-01-10 06:45:37.81	45.47	7.64	
2025-01-10 06:45:38.01	45.44	7.64	
2025-01-10 06:45:38.22	45.41	7.65	
2025-01-10 06:45:38.43	45.38	7.66	
2025-01-10 06:45:38.63	45.35	7.66	
2025-01-10 06:45:38.84	45.32	7.67	
2025-01-10 06:45:39.04	45.28	7.68	
2025-01-10 06:45:39.25	45.25	7.68	
2025-01-10 06:45:39.45	45.22	7.69	
2025-01-10 06:45:39.66	45.19	7.70	
2025-01-10 06:45:39.86	45.16	7.70	
2025-01-10 06:45:40.06	45.13	7.71	
2025-01-10 06:45:40.27	45.10	7.72	
2025-01-10 06:45:40.48	45.07	7.72	
2025-01-10 06:45:40.68	45.04	7.73	
2025-01-10 06:45:40.89	45.00	7.74	
2025-01-10 06:45:41.09	44.97	7.74	
2025-01-10 06:45:41.30	44.94	7.75	
2025-01-10 06:45:41.50	44.91	7.76	
2025-01-10 06:45:41.71	44.88	7.76	
2025-01-10 06:45:41.91	44.85	7.77	
2025-01-10 06:45:42.13	44.82	7.78	
2025-01-10 06:45:42.34	44.78	7.78	
2025-01-10 06:45:42.54	44.75	7.79	
2025-01-10 06:45:42.75	44.72	7.79	
2025-01-10 06:45:42.96	44.69	7.80	
2025-01-10 06:45:43.16	44.66	7.81	
2025-01-10 06:45:43.37	44.63	7.81	
2025-01-10 06:45:43.57	44.60	7.82	
2025-01-10 06:45:43.78	44.56	7.83	
2025-01-10 06:45:43.98	44.53	7.83	
2025-01-10 06:45:44.18	44.50	7.84	
2025-01-10 06:45:44.39	44.47	7.85	
2025-01-10 06:45:44.59	44.44	7.85	
2025-01-10 06:45:44.80	44.41	7.86	
2025-01-10 06:45:45.00	44.38	7.86	
2025-01-10 06:45:45.21	44.34	7.87	
2025-01-10 06:45:45.41	44.31	7.88	
2025-01-10 06:45:45.62	44.28	7.88	
2025-01-10 06:45:45.82	44.25	7.89	
2025-01-10 06:45:46.03	44.22	7.90	
2025-01-10 06:45:46.23	44.19	7.90	
2025-01-10 06:45:46.44	44.16	7.91	
2025-01-10 06:45:46.64	44.13	7.92	
2025-01-10 06:45:46.85	44.09	7.92	
2025-01-10 06:45:47.05	44.06	7.93	
2025-01-10 06:45:47.25	44.03	7.93	
2025-01-10 06:45:47.46	44.00	7.94	
2025-01-10 06:45:47.67	43.97	7.95	
2025-01-10 06:45:47.87	43.94	7.95	
2025-01-10 06:45:48.07	43.90	7.96	
2025-01-10 06:45:48.28	43.87	7.97	
2025-01-10 06:45:48.48	43.84	7.97	
2025-01-10 06:45:48.69	43.81	7.98	
2025-01-10 06:45:48.89	43.78	7.98	
2025-01-10 06:45:49.10	43.75	7.99	
2025-01-10 06:45:49.30	43.71	8.00	
2025-01-10 06:45:49.51	43.68	8.00	
2025-01-10 06:45:49.71	43.65	8.01	
2025-01-10 06:45:49.92	43.62	8.02	
2025-01-10 06:45:50.12	43.59	8.02	
2025-01-10 06:45:50.33	43.55	8.03	
2025-01-10 06:45:50.53	43.52	8.03	
2025-01-10 06:45:50.74	43.49	8.04	
2025-01-10 06:45:50.94	43.46	8.05	
2025-01-10 06:45:51.15	43.43	8.05	
2025-01-10 06:45:51.36	43.40	8.06	
2025-01-10 06:45:51.56	43.36	8.07	
2025-01-10 06:45:51.77	43.33	8.07	
2025-01-10 06:45:51.97	43.30	8.08	
2025-01-10 06:45:52.18	43.27	8.08	
2025-01-10 06:45:52.38	43.24	8.09	
2025-01-10 06:45:52.59	43.20	8.10	
2025-01-10 06:45:52.79	43.17	8.10	
2025-01-10 06:45:53.00	43.14	8.11	
2025-01-10 06:45:53.20	43.11	8.11	
2025-01-10 06:45:53.41	43.08	8.12	
2025-01-10 06:45:53.61	43.04	8.13	
2025-01-10 06:45:53.82	43.01	8.13	
2025-01-10 06:45:54.02	42.98	8.14	
2025-01-10 06:45:54.23	42.95	8.14	
2025-01-10 06:45:54.44	42.91	8.15	
2025-01-10 06:45:54.64	42.88	8.16	
2025-01-10 06:45:54.84	42.85	8.16	
2025-01-10 06:45:55.05	42.82	8.17	
2025-01-10 06:45:55.26	42.79	8.18	
2025-01-10 06:45:55.46	42.76	8.18	
2025-01-10 06:45:55.67	42.72	8.19	
2025-01-10 06:45:55.87	42.69	8.19	
2025-01-10 06:45:56.08	42.66	8.20	
2025-01-10 06:45:56.28	42.63	8.21	
2025-01-10 06:45:56.49	42.59	8.21	
2025-01-10 06:45:56.69	42.56	8.22	
2025-01-10 06:45:56.89	42.53	8.22	
2025-01-10 06:45:57.10	42.50	8.23	
2025-01-10 06:45:57.30	42.47	8.23	
2025-01-10 06:45:57.51	42.43	8.24	
2025-01-10 06:45:57.71	42.40	8.25	
2025-01-10 06:45:57.92	42.37	8.25	
2025-01-10 06:45:58.12	42.34	8.26	
2025-01-10 06:45:58.33	42.30	8.26	
2025-01-10 06:45:58.53	42.27	8.27	
2025-01-10 06:45:58.74	42.24	8.28	
2025-01-10 06:45:58.94	42.21	8.28	
2025-01-10 06:45:59.15	42.17	8.29	
2025-01-10 06:45:59.35	42.14	8.29	
2025-01-10 06:45:59.56	42.11	8.30	
2025-01-10 06:45:59.76	42.08	8.31	
2025-01-10 06:45:59.97	42.04	8.31	
2025-01-10 06:46:00.17	42.01	8.32	
2025-01-10 06:46:00.38	41.98	8.32	
2025-01-10 06:46:00.58	41.95	8.33	
2025-01-10 06:46:00.79	41.92	8.34	
2025-01-10 06:46:00.99	41.88	8.34	
2025-01-10 06:46:01.20	41.85	8.35	
2025-01-10 06:46:01.40	41.82	8.35	
2025-01-10 06:46:01.61	41.79	8.36	
2025-01-10 06:46:01.82	41.75	8.36	
2025-01-10 06:46:02.02	41.72	8.37	
2025-01-10 06:46:02.22	41.69	8.38	
2025-01-10 06:46:02.43	41.65	8.38	
2025-01-10 06:46:02.64	41.62	8.39	
2025-01-10 06:46:02.84	41.59	8.39	
2025-01-10 06:46:03.05	41.56	8.40	
2025-01-10 06:46:03.25	41.52	8.40	
2025-01-10 06:46:03.46	41.49	8.41	
2025-01-10 06:46:03.67	41.46	8.42	
2025-01-10 06:46:03.87	41.43	8.42	
2025-01-10 06:46:04.08	41.39	8.43	
2025-01-10 06:46:04.28	41.36	8.43	
2025-01-10 06:46:04.49	41.33	8.44	
2025-01-10 06:46:04.69	41.29	8.44	
2025-01-10 06:46:04.90	41.26	8.45	
2025-01-10 06:46:05.10	41.23	8.46	
2025-01-10 06:46:05.31	41.20	8.46	
2025-01-10 06:46:05.51	41.16	8.47	
2025-01-10 06:46:05.72	41.13	8.47	
2025-01-10 06:46:05.93	41.10	8.48	
2025-01-10 06:46:06.13	41.06	8.48	
2025-01-10 06:46:06.34	41.03	8.49	
2025-01-10 06:46:06.54	41.00	8.50	
2025-01-10 06:46:06.74	40.97	8.50	
2025-01-10 06:46:06.95	40.93	8.51	
2025-01-10 06:46:07.15	40.90	8.51	
2025-01-10 06:46:07.36	40.87	8.52	
2025-01-10 06:46:07.56	40.84	8.52	
2025-01-10 06:46:07.77	40.80	8.53	
2025-01-10 06:46:07.97	40.77	8.53	
2025-01-10 06:46:08.18	40.74	8.54	
2025-01-10 06:46:08.39	40.70	8.55	
2025-01-10 06:46:08.59	40.67	8.55	
2025-01-10 06:46:08.79	40.64	8.56	
2025-01-10 06:46:09.00	40.60	8.56	
2025-01-10 06:46:09.20	40.57	8.57	
2025-01-10 06:46:09.41	40.54	8.57	
2025-01-10 06:46:09.61	40.51	8.58	
2025-01-10 06:46:09.83	40.47	8.58	
2025-01-10 06:46:10.04	40.44	8.59	
2025-01-10 06:46:10.24	40.40	8.60	
2025-01-10 06:46:10.45	40.37	8.60	
2025-01-10 06:46:10.66	40.34	8.61	
2025-01-10 06:46:10.86	40.30	8.61	
2025-01-10 06:46:11.06	40.27	8.62	
2025-01-10 06:46:11.27	40.24	8.62	
2025-01-10 06:46:11.47	40.21	8.63	
2025-01-10 06:46:11.68	40.17	8.63	
2025-01-10 06:46:11.89	40.14	8.64	
2025-01-10 06:46:12.09	40.11	8.65	
2025-01-10 06:46:12.30	40.07	8.65	
2025-01-10 06:46:12.50	40.04	8.66	
2025-01-10 06:46:12.71	40.00	8.66	
2025-01-10 06:46:12.91	39.97	8.67	
2025-01-10 06:46:13.12	39.94	8.67	
2025-01-10 06:46:13.33	39.90	8.68	
2025-01-10 06:46:13.53	39.87	8.68	
2025-01-10 06:46:13.74	39.84	8.69	
2025-01-10 06:46:13.94	39.81	8.69	
2025-01-10 06:46:14.15	39.77	8.70	
2025-01-10 06:46:14.35	39.74	8.70	
2025-01-10 06:46:14.56	39.70	8.71	
2025-01-10 06:46:14.76	39.67	8.71	
2025-01-10 06:46:14.97	39.64	8.72	
2025-01-10 06:46:15.17	39.61	8.73	
2025-01-10 06:46:15.38	39.57	8.73	
2025-01-10 06:46:15.58	39.54	8.74	
2025-01-10 06:46:15.79	39.50	8.74	
2025-01-10 06:46:16.00	39.47	8.75	
2025-01-10 06:46:16.20	39.44	8.75	
2025-01-10 06:46:16.41	39.40	8.76	
2025-01-10 06:46:16.61	39.37	8.76	
2025-01-10 06:46:16.82	39.34	8.77	
2025-01-10 06:46:17.02	39.30	8.77	
2025-01-10 06:46:17.23	39.27	8.78	
2025-01-10 06:46:17.43	39.24	8.78	
2025-01-10 06:46:17.64	39.20	8.79	
2025-01-10 06:46:17.84	39.17	8.79	
2025-01-10 06:46:18.05	39.14	8.80	
2025-01-10 06:46:18.25	39.10	8.80	
2025-01-10 06:46:18.46	39.07	8.81	
2025-01-10 06:46:18.67	39.03	8.81	
2025-01-10 06:46:18.87	39.00	8.82	
2025-01-10 06:46:19.08	38.97	8.82	
2025-01-10 06:46:19.28	38.93	8.83	
2025-01-10 06:46:19.49	38.90	8.84	
2025-01-10 06:46:19.69	38.87	8.84	
2025-01-10 06:46:19.90	38.83	8.85	
2025-01-10 06:46:20.10	38.80	8.85	
2025-01-10 06:46:20.31	38.76	8.86	
2025-01-10 06:46:20.51	38.73	8.86	
2025-01-10 06:46:20.72	38.70	8.87	
2025-01-10 06:46:20.92	38.66	8.87	
2025-01-10 06:46:21.13	38.63	8.88	
2025-01-10 06:46:21.33	38.60	8.88	
2025-01-10 06:46:21.54	38.56	8.89	
2025-01-10 06:46:21.74	38.53	8.89	
2025-01-10 06:46:21.95	38.49	8.90	
2025-01-10 06:46:22.15	38.46	8.90	
2025-01-10 06:46:22.36	38.43	8.91	
2025-01-10 06:46:22.56	38.39	8.91	
2025-01-10 06:46:22.77	38.36	8.92	
2025-01-10 06:46:22.97	38.33	8.92	
2025-01-10 06:46:23.18	38.29	8.93	
2025-01-10 06:46:23.39	38.26	8.93	
2025-01-10 06:46:23.59	38.22	8.94	
2025-01-10 06:46:23.79	38.19	8.94	
2025-01-10 06:46:24.00	38.16	8.95	
2025-01-10 06:46:24.20	38.12	8.95	
2025-01-10 06:46:24.41	38.09	8.96	
2025-01-10 06:46:24.61	38.06	8.96	
2025-01-10 06:46:24.82	38.02	8.97	
2025-01-10 06:46:25.02	37.99	8.97	
2025-01-10 06:46:25.23	37.95	8.98	
2025-01-10 06:46:25.43	37.92	8.98	
2025-01-10 06:46:25.64	37.89	8.98	
2025-01-10 06:46:25.84	37.85	8.99	
2025-01-10 06:46:26.05	37.82	8.99	
2025-01-10 06:46:26.25	37.78	9.00	
2025-01-10 06:46:26.46	37.75	9.00	
2025-01-10 06:46:26.67	37.71	9.01	
2025-01-10 06:46:26.88	37.68	9.01	
2025-01-10 06:46:27.09	37.64	9.02	
2025-01-10 06:46:27.30	37.61	9.02	
2025-01-10 06:46:27.50	37.58	9.03	
2025-01-10 06:46:27.71	37.54	9.03	
2025-01-10 06:46:27.91	37.51	9.04	
2025-01-10 06:46:28.12	37.47	9.04	
2025-01-10 06:46:28.33	37.44	9.05	
2025-01-10 06:46:28.53	37.41	9.05	
2025-01-10 06:46:28.74	37.37	9.06	
2025-01-10 06:46:28.94	37.34	9.06	
2025-01-10 06:46:29.14	37.30	9.07	
2025-01-10 06:46:29.35	37.27	9.07	
2025-01-10 06:46:29.55	37.24	9.08	
2025-01-10 06:46:29.76	37.20	9.08	
2025-01-10 06:46:29.96	37.17	9.09	
2025-01-10 06:46:30.17	37.13	9.09	
2025-01-10 06:46:30.38	37.10	9.09	
2025-01-10 06:46:30.58	37.06	9.10	
2025-01-10 06:46:30.79	37.03	9.10	
2025-01-10 06:46:30.99	36.99	9.11	
2025-01-10 06:46:31.20	36.96	9.11	
2025-01-10 06:46:31.40	36.93	9.12	
2025-01-10 06:46:31.61	36.89	9.12	
2025-01-10 06:46:31.81	36.86	9.13	
2025-01-10 06:46:32.02	36.82	9.13	
2025-01-10 06:46:32.22	36.79	9.14	
2025-01-10 06:46:32.43	36.75	9.14	
2025-01-10 06:46:32.63	36.72	9.15	
2025-01-10 06:46:32.84	36.69	9.15	
2025-01-10 06:46:33.04	36.65	9.15	
2025-01-10 06:46:33.24	36.62	9.16	
2025-01-10 06:46:33.45	36.58	9.16	
2025-01-10 06:46:33.65	36.55	9.17	
2025-01-10 06:46:33.86	36.51	9.17	
2025-01-10 06:46:34.07	36.48	9.18	
2025-01-10 06:46:34.27	36.45	9.18	
2025-01-10 06:46:34.48	36.41	9.19	
2025-01-10 06:46:34.68	36.38	9.19	
2025-01-10 06:46:34.89	36.34	9.20	
2025-01-10 06:46:35.09	36.31	9.20	
2025-01-10 06:46:35.30	36.27	9.20	
2025-01-10 06:46:35.50	36.24	9.21	
2025-01-10 06:46:35.71	36.20	9.21	
2025-01-10 06:46:35.91	36.17	9.22	
2025-01-10 06:46:36.12	36.13	9.22	
2025-01-10 06:46:36.33	36.10	9.23	
2025-01-10 06:46:36.54	36.06	9.23	
2025-01-10 06:46:36.75	36.03	9.24	
2025-01-10 06:46:36.96	35.99	9.24	
2025-01-10 06:46:37.16	35.96	9.24	
2025-01-10 06:46:37.37	35.92	9.25	
2025-01-10 06:46:37.59	35.89	9.25	
2025-01-10 06:46:37.79	35.85	9.26	
2025-01-10 06:46:38.00	35.82	9.26	
2025-01-10 06:46:38.20	35.78	9.27	
2025-01-10 06:46:38.41	35.75	9.27	
2025-01-10 06:46:38.61	35.71	9.27	
2025-01-10 06:46:38.82	35.68	9.28	
2025-01-10 06:46:39.02	35.64	9.28	
2025-01-10 06:46:39.23	35.61	9.29	
2025-01-10 06:46:39.44	35.57	9.29	
2025-01-10 06:46:39.64	35.54	9.30	
2025-01-10 06:46:39.85	35.50	9.30	
2025-01-10 06:46:40.05	35.47	9.30	
2025-01-10 06:46:40.27	35.43	9.31	
2025-01-10 06:46:40.47	35.40	9.31	
2025-01-10 06:46:40.68	35.36	9.32	
2025-01-10 06:46:40.88	35.33	9.32	
2025-01-10 06:46:41.09	35.29	9.33	
2025-01-10 06:46:41.30	35.26	9.33	
2025-01-10 06:46:41.50	35.22	9.33	
2025-01-10 06:46:41.70	35.19	9.34	
2025-01-10 06:46:41.91	35.15	9.34	
2025-01-10 06:46:42.11	35.12	9.35	
2025-01-10 06:46:42.32	35.08	9.35	
2025-01-10 06:46:42.53	35.05	9.36	
2025-01-10 06:46:42.73	35.01	9.36	
2025-01-10 06:46:42.94	34.98	9.36	
2025-01-10 06:46:43.14	34.95	9.37	
2025-01-10 06:46:43.35	34.91	9.37	
2025-01-10 06:46:43.55	34.88	9.38	
2025-01-10 06:46:43.76	34.84	9.38	
2025-01-10 06:46:43.96	34.81	9.38	
2025-01-10 06:46:44.17	34.77	9.39	
2025-01-10 06:46:44.37	34.74	9.39	
2025-01-10 06:46:44.58	34.70	9.40	
2025-01-10 06:46:44.78	34.67	9.40	
2025-01-10 06:46:44.99	34.63	9.40	
2025-01-10 06:46:45.19	34.60	9.41	
2025-01-10 06:46:45.40	34.56	9.41	
2025-01-10 06:46:45.60	34.53	9.42	
2025-01-10 06:46:45.81	34.49	9.42	
2025-01-10 06:46:46.01	34.46	9.42	
2025-01-10 06:46:46.22	34.42	9.43	
2025-01-10 06:46:46.43	34.38	9.43	
2025-01-10 06:46:46.63	34.35	9.44	
2025-01-10 06:46:46.84	34.31	9.44	
2025-01-10 06:46:47.04	34.28	9.44	
2025-01-10 06:46:47.25	34.24	9.45	
2025-01-10 06:46:47.45	34.21	9.45	
2025-01-10 06:46:47.66	34.17	9.46	
2025-01-10 06:46:47.86	34.14	9.46	
2025-01-10 06:46:48.07	34.10	9.46	
2025-01-10 06:46:48.27	34.07	9.47	
2025-01-10 06:46:48.48	34.03	9.47	
2025-01-10 06:46:48.68	34.00	9.47	
2025-01-10 06:46:48.89	33.96	9.48	
2025-01-10 06:46:49.10	33.93	9.48	
2025-01-10 06:46:49.31	33.89	9.49	
2025-01-10 06:46:49.52	33.85	9.49	
2025-01-10 06:46:49.73	33.82	9.49	
2025-01-10 06:46:49.93	33.78	9.50	
2025-01-10 06:46:50.14	33.75	9.50	
2025-01-10 06:46:50.34	33.71	9.51	
2025-01-10 06:46:50.55	33.68	9.51	
2025-01-10 06:46:50.75	33.64	9.51	
2025-01-10 06:46:50.96	33.61	9.52	
2025-01-10 06:46:51.16	33.57	9.52	
2025-01-10 06:46:51.37	33.54	9.52	
2025-01-10 06:46:51.57	33.50	9.53	
2025-01-10 06:46:51.78	33.47	9.53	
2025-01-10 06:46:51.98	33.43	9.53	
2025-01-10 06:46:52.19	33.40	9.54	
2025-01-10 06:46:52.39	33.36	9.54	
2025-01-10 06:46:52.60	33.32	9.55	
2025-01-10 06:46:52.80	33.29	9.55	
2025-01-10 06:46:53.01	33.25	9.55	
2025-01-10 06:46:53.21	33.22	9.56	
2025-01-10 06:46:53.42	33.18	9.56	
2025-01-10 06:46:53.64	33.15	9.56	
2025-01-10 06:46:53.84	33.11	9.57	
2025-01-10 06:46:54.05	33.07	9.57	
2025-01-10 06:46:54.25	33.04	9.57	
2025-01-10 06:46:54.46	33.00	9.58	
2025-01-10 06:46:54.67	32.97	9.58	
2025-01-10 06:46:54.88	32.93	9.59	
2025-01-10 06:46:55.08	32.90	9.59	
2025-01-10 06:46:55.29	32.86	9.59	
2025-01-10 06:46:55.49	32.83	9.60	
2025-01-10 06:46:55.70	32.79	9.60	
2025-01-10 06:46:55.90	32.76	9.60	
2025-01-10 06:46:56.11	32.72	9.61	
2025-01-10 06:46:56.32	32.68	9.61	
2025-01-10 06:46:56.52	32.65	9.61	
2025-01-10 06:46:56.73	32.61	9.62	
2025-01-10 06:46:56.93	32.58	9.62	
2025-01-10 06:46:57.14	32.54	9.62	
2025-01-10 06:46:57.34	32.51	9.63	
2025-01-10 06:46:57.55	32.47	9.63	
2025-01-10 06:46:57.75	32.43	9.63	
2025-01-10 06:46:57.96	32.40	9.64	
2025-01-10 06:46:58.16	32.36	9.64	
2025-01-10 06:46:58.36	32.33	9.64	
2025-01-10 06:46:58.57	32.29	9.65	
2025-01-10 06:46:58.78	32.26	9.65	
2025-01-10 06:46:58.98	32.22	9.65	
2025-01-10 06:46:59.19	32.19	9.66	
2025-01-10 06:46:59.39	32.15	9.66	
2025-01-10 06:46:59.60	32.11	9.66	
2025-01-10 06:46:59.80	32.08	9.67	
2025-01-10 06:47:00.01	32.04	9.67	
2025-01-10 06:47:00.21	32.01	9.67	
2025-01-10 06:47:00.43	31.97	9.68	
2025-01-10 06:47:00.64	31.93	9.68	
2025-01-10 06:47:00.84	31.90	9.68	
2025-01-10 06:47:01.04	31.86	9.69	
2025-01-10 06:47:01.25	31.83	9.69	
2025-01-10 06:47:01.45	31.79	9.69	
2025-01-10 06:47:01.66	31.76	9.70	
2025-01-10 06:47:01.87	31.72	9.70	
2025-01-10 06:47:02.07	31.68	9.70	
2025-01-10 06:47:02.28	31.65	9.71	
2025-01-10 06:47:02.48	31.61	9.71	
2025-01-10 06:47:02.69	31.58	9.71	
2025-01-10 06:47:02.89	31.54	9.72	
2025-01-10 06:47:03.10	31.50	9.72	
2025-01-10 06:47:03.30	31.47	9.72	
2025-01-10 06:47:03.51	31.43	9.73	
2025-01-10 06:47:03.71	31.40	9.73	
2025-01-10 06:47:03.92	31.36	9.73	
2025-01-10 06:47:04.12	31.33	9.73	
2025-01-10 06:47:04.33	31.29	9.74	
2025-01-10 06:47:04.53	31.26	9.74	
2025-01-10 06:47:04.74	31.22	9.74	
2025-01-10 06:47:04.95	31.18	9.75	
2025-01-10 06:47:05.15	31.15	9.75	
2025-01-10 06:47:05.35	31.11	9.75	
2025-01-10 06:47:05.56	31.08	9.76	
2025-01-10 06:47:05.77	31.04	9.76	
2025-01-10 06:47:05.97	31.00	9.76	
2025-01-10 06:47:06.18	30.97	9.76	
2025-01-10 06:47:06.38	30.93	9.77	
2025-01-10 06:47:06.59	30.90	9.77	
2025-01-10 06:47:06.79	30.86	9.77	
2025-01-10 06:47:07.00	30.82	9.78	
2025-01-10 06:47:07.20	30.79	9.78	
2025-01-10 06:47:07.41	30.75	9.78	
2025-01-10 06:47:07.61	30.72	9.79	
2025-01-10 06:47:07.81	30.68	9.79	
2025-01-10 06:47:08.02	30.64	9.79	
2025-01-10 06:47:08.22	30.61	9.79	
2025-01-10 06:47:08.43	30.57	9.80	
2025-01-10 06:47:08.63	30.54	9.80	
2025-01-10 06:47:08.84	30.50	9.80	
2025-01-10 06:47:09.04	30.47	9.81	
2025-01-10 06:47:09.25	30.43	9.81	
2025-01-10 06:47:09.45	30.39	9.81	
2025-01-10 06:47:09.66	30.36	9.81	
2025-01-10 06:47:09.86	30.32	9.82	
2025-01-10 06:47:10.07	30.29	9.82	
2025-01-10 06:47:10.27	30.25	9.82	
2025-01-10 06:47:10.48	30.21	9.82	
2025-01-10 06:47:10.68	30.18	9.83	
2025-01-10 06:47:10.89	30.14	9.83	
2025-01-10 06:47:11.09	30.11	9.83	
2025-01-10 06:47:11.30	30.07	9.84	
2025-01-10 06:47:11.50	30.03	9.84	
2025-01-10 06:47:11.71	30.00	9.84	
2025-01-10 06:47:11.91	29.96	9.84	
2025-01-10 06:47:12.12	29.92	9.85	
2025-01-10 06:47:12.32	29.89	9.85	
2025-01-10 06:47:12.53	29.85	9.85	
2025-01-10 06:47:12.73	29.82	9.85	
2025-01-10 06:47:12.94	29.78	9.86	
2025-01-10 06:47:13.14	29.75	9.86	
2025-01-10 06:47:13.35	29.71	9.86	
2025-01-10 06:47:13.56	29.67	9.87	
2025-01-10 06:47:13.76	29.64	9.87	
2025-01-10 06:47:13.97	29.60	9.87	
2025-01-10 06:47:14.17	29.56	9.87	
2025-01-10 06:47:14.38	29.53	9.88	
2025-01-10 06:47:14.58	29.49	9.88	
2025-01-10 06:47:14.79	29.45	9.88	
2025-01-10 06:47:14.99	29.42	9.88	
2025-01-10 06:47:15.20	29.38	9.89	
2025-01-10 06:47:15.40	29.35	9.89	
2025-01-10 06:47:15.60	29.31	9.89	
2025-01-10 06:47:15.81	29.27	9.89	
2025-01-10 06:47:16.01	29.24	9.90	
2025-01-10 06:47:16.22	29.20	9.90	
2025-01-10 06:47:16.42	29.17	9.90	
2025-01-10 06:47:16.63	29.13	9.90	
2025-01-10 06:47:16.83	29.09	9.91	
2025-01-10 06:47:17.04	29.06	9.91	
2025-01-10 06:47:17.24	29.02	9.91	
2025-01-10 06:47:17.45	28.99	9.91	
2025-01-10 06:47:17.65	28.95	9.91	
2025-01-10 06:47:17.86	28.91	9.92	
2025-01-10 06:47:18.06	28.88	9.92	
2025-01-10 06:47:18.27	28.84	9.92	
2025-01-10 06:47:18.47	28.80	9.92	
2025-01-10 06:47:18.68	28.77	9.93	
2025-01-10 06:47:18.88	28.73	9.93	
2025-01-10 06:47:19.09	28.70	9.93	
2025-01-10 06:47:19.29	28.66	9.93	
2025-01-10 06:47:19.50	28.62	9.94	
2025-01-10 06:47:19.70	28.59	9.94	
2025-01-10 06:47:19.91	28.55	9.94	
2025-01-10 06:47:20.11	28.51	9.94	
2025-01-10 06:47:20.32	28.48	9.94	
2025-01-10 06:47:20.52	28.44	9.95	
2025-01-10 06:47:20.73	28.40	9.95	
2025-01-10 06:47:20.93	28.37	9.95	
2025-01-10 06:47:21.14	28.33	9.95	
2025-01-10 06:47:21.34	28.30	9.96	
2025-01-10 06:47:21.55	28.26	9.96	
2025-01-10 06:47:21.75	28.22	9.96	
2025-01-10 06:47:21.96	28.19	9.96	
2025-01-10 06:47:22.16	28.15	9.96	
2025-01-10 06:47:22.37	28.11	9.97	
2025-01-10 06:47:22.57	28.08	9.97	
2025-01-10 06:47:22.78	28.04	9.97	
2025-01-10 06:47:22.98	28.01	9.97	
2025-01-10 06:47:23.19	27.97	9.98	
2025-01-10 06:47:23.39	27.93	9.98	
2025-01-10 06:47:23.60	27.90	9.98	
2025-01-10 06:47:23.80	27.86	9.98	
2025-01-10 06:47:24.01	27.82	9.98	
2025-01-10 06:47:24.22	27.79	9.99	
2025-01-10 06:47:24.42	27.75	9.99	
2025-01-10 06:47:24.62	27.71	9.99	
2025-01-10 06:47:24.83	27.68	9.99	
2025-01-10 06:47:25.04	27.64	9.99	
2025-01-10 06:47:25.24	27.60	10.00	
2025-01-10 06:47:25.45	27.57	10.00	
2025-01-10 06:47:25.65	27.53	10.00	
2025-01-10 06:47:25.86	27.49	10.00	
2025-01-10 06:47:26.06	27.46	10.00	
2025-01-10 06:47:26.27	27.42	10.01	
2025-01-10 06:47:26.48	27.38	10.01	
2025-01-10 06:47:26.68	27.35	10.01	
2025-01-10 06:47:26.88	27.31	10.01	
2025-01-10 06:47:27.09	27.28	10.01	
2025-01-10 06:47:27.29	27.24	10.01	
2025-01-10 06:47:27.50	27.20	10.02	
2025-01-10 06:47:27.70	27.17	10.02	
2025-01-10 06:47:27.91	27.13	10.02	
2025-01-10 06:47:28.12	27.09	10.02	
2025-01-10 06:47:28.32	27.06	10.02	
2025-01-10 06:47:28.53	27.02	10.03	
2025-01-10 06:47:28.73	26.98	10.03	
2025-01-10 06:47:28.93	26.95	10.03	
2025-01-10 06:47:29.14	26.91	10.03	
2025-01-10 06:47:29.35	26.87	10.03	
2025-01-10 06:47:29.55	26.84	10.03	
2025-01-10 06:47:29.76	26.80	10.04	
2025-01-10 06:47:29.96	26.76	10.04	
2025-01-10 06:47:30.17	26.73	10.04	
2025-01-10 06:47:30.37	26.69	10.04	
2025-01-10 06:47:30.58	26.65	10.04	
2025-01-10 06:47:30.78	26.62	10.04	
2025-01-10 06:47:31.00	26.58	10.05	
2025-01-10 06:47:31.21	26.54	10.05	
2025-01-10 06:47:31.41	26.51	10.05	
2025-01-10 06:47:31.62	26.47	10.05	
2025-01-10 06:47:31.82	26.43	10.05	
2025-01-10 06:47:32.03	26.40	10.05	
2025-01-10 06:47:32.23	26.36	10.06	
2025-01-10 06:47:32.44	26.32	10.06	
2025-01-10 06:47:32.64	26.29	10.06	
2025-01-10 06:47:32.85	26.25	10.06	
2025-01-10 06:47:33.05	26.21	10.06	
2025-01-10 06:47:33.26	26.18	10.06	
2025-01-10 06:47:33.46	26.14	10.07	
2025-01-10 06:47:33.67	26.10	10.07	
2025-01-10 06:47:33.87	26.07	10.07	
2025-01-10 06:47:34.08	26.03	10.07	
2025-01-10 06:47:34.28	25.99	10.07	
2025-01-10 06:47:34.49	25.96	10.07	
2025-01-10 06:47:34.69	25.92	10.07	
2025-01-10 06:47:34.90	25.88	10.08	
2025-01-10 06:47:35.10	25.85	10.08	
2025-01-10 06:47:35.31	25.81	10.08	
2025-01-10 06:47:35.51	25.77	10.08	
2025-01-10 06:47:35.72	25.74	10.08	
2025-01-10 06:47:35.92	25.70	10.08	
2025-01-10 06:47:36.13	25.66	10.08	
2025-01-10 06:47:36.33	25.63	10.09	
2025-01-10 06:47:36.54	25.59	10.09	
2025-01-10 06:47:36.74	25.55	10.09	
2025-01-10 06:47:36.95	25.52	10.09	
2025-01-10 06:47:37.16	25.48	10.09	
2025-01-10 06:47:37.36	25.44	10.09	
2025-01-10 06:47:37.57	25.41	10.09	
2025-01-10 06:47:37.77	25.37	10.10	
2025-01-10 06:47:37.98	25.33	10.10	
2025-01-10 06:47:38.18	25.30	10.10	
2025-01-10 06:47:38.39	25.26	10.10	
2025-01-10 06:47:38.59	25.22	10.10	
2025-01-10 06:47:38.80	25.19	10.10	
2025-01-10 06:47:39.01	25.15	10.10	
2025-01-10 06:47:39.21	25.11	10.10	
2025-01-10 06:47:39.42	25.07	10.11	
2025-01-10 06:47:39.62	25.04	10.11	
2025-01-10 06:47:39.83	25.00	10.11	
2025-01-10 06:47:40.03	24.97	10.11	
2025-01-10 06:47:40.24	24.93	10.11	
2025-01-10 06:47:40.44	24.89	10.11	
2025-01-10 06:47:40.65	24.85	10.11	
2025-01-10 06:47:40.85	24.82	10.11	
2025-01-10 06:47:41.06	24.78	10.12	
2025-01-10 06:47:41.27	24.74	10.12	
2025-01-10 06:47:41.47	24.71	10.12	
2025-01-10 06:47:41.67	24.67	10.12	
2025-01-10 06:47:41.88	24.63	10.12	
2025-01-10 06:47:42.09	24.60	10.12	
2025-01-10 06:47:42.29	24.56	10.12	
2025-01-10 06:47:42.50	24.52	10.12	
2025-01-10 06:47:42.70	24.49	10.12	
2025-01-10 06:47:42.91	24.45	10.12	
2025-01-10 06:47:43.11	24.41	10.13	
2025-01-10 06:47:43.32	24.38	10.13	
2025-01-10 06:47:43.52	24.34	10.13	
2025-01-10 06:47:43.73	24.30	10.13	
2025-01-10 06:47:43.93	24.27	10.13	
2025-01-10 06:47:44.14	24.23	10.13	
2025-01-10 06:47:44.34	24.19	10.13	
2025-01-10 06:47:44.55	24.16	10.13	
2025-01-10 06:47:44.75	24.12	10.13	
2025-01-10 06:47:44.96	24.08	10.13	
2025-01-10 06:47:45.16	24.05	10.14	
2025-01-10 06:47:45.37	24.01	10.14	
2025-01-10 06:47:45.57	23.97	10.14	
2025-01-10 06:47:45.78	23.93	10.14	
2025-01-10 06:47:45.98	23.90	10.14	
2025-01-10 06:47:46.19	23.86	10.14	
2025-01-10 06:47:46.39	23.82	10.14	
2025-01-10 06:47:46.60	23.79	10.14	
2025-01-10 06:47:46.80	23.75	10.14	
2025-01-10 06:47:47.00	23.72	10.14	
2025-01-10 06:47:47.21	23.68	10.14	
2025-01-10 06:47:47.41	23.64	10.14	
2025-01-10 06:47:47.62	23.60	10.15	
2025-01-10 06:47:47.82	23.57	10.15	
2025-01-10 06:47:48.03	23.53	10.15	
2025-01-10 06:47:48.23	23.49	10.15	
2025-01-10 06:47:48.44	23.46	10.15	
2025-01-10 06:47:48.64	23.42	10.15	
2025-01-10 06:47:48.85	23.38	10.15	
2025-01-10 06:47:49.06	23.35	10.15	
2025-01-10 06:47:49.26	23.31	10.15	
2025-01-10 06:47:49.47	23.27	10.15	
2025-01-10 06:47:49.67	23.24	10.15	
2025-01-10 06:47:49.88	23.20	10.15	
2025-01-10 06:47:50.08	23.16	10.15	
2025-01-10 06:47:50.29	23.12	10.15	
2025-01-10 06:47:50.49	23.09	10.15	
2025-01-10 06:47:50.70	23.05	10.16	
2025-01-10 06:47:50.90	23.02	10.16	
2025-01-10 06:47:51.11	22.98	10.16	
2025-01-10 06:47:51.31	22.94	10.16	
2025-01-10 06:47:51.52	22.90	10.16	
2025-01-10 06:47:51.72	22.87	10.16	
2025-01-10 06:47:51.93	22.83	10.16	
2025-01-10 06:47:52.14	22.79	10.16	
2025-01-10 06:47:52.34	22.76	10.16	
2025-01-10 06:47:52.55	22.72	10.16	
2025-01-10 06:47:52.75	22.68	10.16	
2025-01-10 06:47:52.96	22.64	10.16	
2025-01-10 06:47:53.16	22.61	10.16	
2025-01-10 06:47:53.36	22.57	10.16	
2025-01-10 06:47:53.57	22.54	10.16	
2025-01-10 06:47:53.77	22.50	10.16	
2025-01-10 06:47:53.98	22.46	10.16	
2025-01-10 06:47:54.18	22.43	10.16	
2025-01-10 06:47:54.39	22.39	10.16	
2025-01-10 06:47:54.59	22.35	10.16	
2025-01-10 06:47:54.80	22.31	10.16	
2025-01-10 06:47:55.00	22.28	10.17	
2025-01-10 06:47:55.21	22.24	10.17	
2025-01-10 06:47:55.41	22.20	10.17	
2025-01-10 06:47:55.61	22.17	10.17	
2025-01-10 06:47:55.82	22.13	10.17	
2025-01-10 06:47:56.03	22.09	10.17	
2025-01-10 06:47:56.23	22.06	10.17	
2025-01-10 06:47:56.44	22.02	10.17	
2025-01-10 06:47:56.64	21.98	10.17	
2025-01-10 06:47:56.85	21.95	10.17	
2025-01-10 06:47:57.05	21.91	10.17	
2025-01-10 06:47:57.26	21.87	10.17	
2025-01-10 06:47:57.46	21.84	10.17	
2025-01-10 06:47:57.67	21.80	10.17	
2025-01-10 06:47:57.88	21.76	10.17	
2025-01-10 06:47:58.08	21.72	10.17	
2025-01-10 06:47:58.28	21.69	10.17	
2025-01-10 06:47:58.49	21.65	10.17	
2025-01-10 06:47:58.69	21.61	10.17	
2025-01-10 06:47:58.90	21.58	10.17	
2025-01-10 06:47:59.10	21.54	10.17	
2025-01-10 06:47:59.31	21.50	10.17	
2025-01-10 06:47:59.51	21.47	10.17	
2025-01-10 06:47:59.72	21.43	10.17	
2025-01-10 06:47:59.92	21.39	10.17	
2025-01-10 06:48:00.12	21.36	10.17	
2025-01-10 06:48:00.33	21.32	10.17	
2025-01-10 06:48:00.53	21.28	10.17	
2025-01-10 06:48:00.74	21.25	10.17	
2025-01-10 06:48:00.95	21.21	10.17	
2025-01-10 06:48:01.15	21.17	10.17	
2025-01-10 06:48:01.36	21.13	10.17	
2025-01-10 06:48:01.56	21.10	10.17	
2025-01-10 06:48:01.77	21.06	10.17	
2025-01-10 06:48:01.97	21.03	10.17	
2025-01-10 06:48:02.18	20.99	10.17	
2025-01-10 06:48:02.39	20.95	10.17	
2025-01-10 06:48:02.59	20.91	10.17	
2025-01-10 06:48:02.80	20.88	10.17	
2025-01-10 06:48:03.00	20.84	10.17	
2025-01-10 06:48:03.21	20.80	10.17	
2025-01-10 06:48:03.41	20.77	10.17	
2025-01-10 06:48:03.62	20.73	10.17	
2025-01-10 06:48:03.83	20.69	10.17	
2025-01-10 06:48:04.04	20.65	10.17	
2025-01-10 06:48:04.25	20.62	10.17	
2025-01-10 06:48:04.45	20.58	10.17	
2025-01-10 06:48:04.66	20.54	10.17	
2025-01-10 06:48:04.86	20.51	10.17	
2025-01-10 06:48:05.07	20.47	10.17	
2025-01-10 06:48:05.27	20.43	10.17	
2025-01-10 06:48:05.48	20.39	10.17	
2025-01-10 06:48:05.68	20.36	10.17	
2025-01-10 06:48:05.89	20.32	10.17	
2025-01-10 06:48:06.09	20.28	10.17	
2025-01-10 06:48:06.30	20.25	10.17	
2025-01-10 06:48:06.50	20.21	10.17	
2025-01-10 06:48:06.71	20.17	10.17	
2025-01-10 06:48:06.91	20.14	10.17	
2025-01-10 06:48:07.12	20.10	10.17	
2025-01-10 06:48:07.32	20.06	10.17	
2025-01-10 06:48:07.53	20.03	10.17	
2025-01-10 06:48:07.73	19.99	10.16	
2025-01-10 06:48:07.94	19.95	10.16	
2025-01-10 06:48:08.14	19.92	10.16	
2025-01-10 06:48:08.35	19.88	10.16	
2025-01-10 06:48:08.55	19.84	10.16	
2025-01-10 06:48:08.76	19.80	10.16	
2025-01-10 06:48:08.96	19.77	10.16	
2025-01-10 06:48:09.17	19.73	10.16	
2025-01-10 06:48:09.37	19.69	10.16	
2025-01-10 06:48:09.58	19.66	10.16	
2025-01-10 06:48:09.78	19.62	10.16	
2025-01-10 06:48:09.99	19.58	10.16	
2025-01-10 06:48:10.19	19.55	10.16	
2025-01-10 06:48:10.40	19.51	10.16	
2025-01-10 06:48:10.60	19.47	10.16	
2025-01-10 06:48:10.81	19.44	10.16	
2025-01-10 06:48:11.02	19.40	10.16	
2025-01-10 06:48:11.22	19.36	10.16	
2025-01-10 06:48:11.42	19.33	10.16	
2025-01-10 06:48:11.63	19.29	10.16	
2025-01-10 06:48:11.84	19.25	10.16	
2025-01-10 06:48:12.04	19.22	10.15	
2025-01-10 06:48:12.25	19.18	10.15	
2025-01-10 06:48:12.46	19.14	10.15	
2025-01-10 06:48:12.67	19.10	10.15	
2025-01-10 06:48:12.87	19.07	10.15	
2025-01-10 06:48:13.08	19.03	10.15	
2025-01-10 06:48:13.28	18.99	10.15	
2025-01-10 06:48:13.49	18.95	10.15	
2025-01-10 06:48:13.69	18.92	10.15	
2025-01-10 06:48:13.90	18.88	10.15	
2025-01-10 06:48:14.10	18.85	10.15	
2025-01-10 06:48:14.31	18.81	10.15	
2025-01-10 06:48:14.51	18.77	10.15	
2025-01-10 06:48:14.71	18.74	10.15	
2025-01-10 06:48:14.92	18.70	10.15	
2025-01-10 06:48:15.12	18.66	10.14	
2025-01-10 06:48:15.33	18.62	10.14	
2025-01-10 06:48:15.53	18.59	10.14	
2025-01-10 06:48:15.74	18.55	10.14	
2025-01-10 06:48:15.94	18.51	10.14	
2025-01-10 06:48:16.15	18.48	10.14	
2025-01-10 06:48:16.35	18.44	10.14	
2025-01-10 06:48:16.56	18.40	10.14	
2025-01-10 06:48:16.76	18.37	10.14	
2025-01-10 06:48:16.97	18.33	10.14	
2025-01-10 06:48:17.17	18.29	10.14	
2025-01-10 06:48:17.38	18.26	10.14	
2025-01-10 06:48:17.59	18.22	10.13	
2025-01-10 06:48:17.79	18.18	10.13	
2025-01-10 06:48:17.99	18.15	10.13	
2025-01-10 06:48:18.21	18.11	10.13	
2025-01-10 06:48:18.42	18.07	10.13	
2025-01-10 06:48:18.63	18.03	10.13	
2025-01-10 06:48:18.83	18.00	10.13	
2025-01-10 06:48:19.03	17.96	10.13	
2025-01-10 06:48:19.24	17.92	10.13	
2025-01-10 06:48:19.45	17.89	10.13	
2025-01-10 06:48:19.65	17.85	10.12	
2025-01-10 06:48:19.86	17.81	10.12	
2025-01-10 06:48:20.08	17.77	10.12	
2025-01-10 06:48:20.28	17.74	10.12	
2025-01-10 06:48:20.49	17.70	10.12	
2025-01-10 06:48:20.69	17.66	10.12	
2025-01-10 06:48:20.90	17.63	10.12	
2025-01-10 06:48:21.12	17.59	10.12	
2025-01-10 06:48:21.32	17.55	10.12	
2025-01-10 06:48:21.53	17.51	10.12	
2025-01-10 06:48:21.73	17.48	10.11	
2025-01-10 06:48:21.93	17.44	10.11	
2025-01-10 06:48:22.14	17.40	10.11	
2025-01-10 06:48:22.34	17.37	10.11	
2025-01-10 06:48:22.55	17.33	10.11	
2025-01-10 06:48:22.75	17.29	10.11	
2025-01-10 06:48:22.96	17.26	10.11	
2025-01-10 06:48:23.16	17.22	10.11	
2025-01-10 06:48:23.37	17.18	10.10	
2025-01-10 06:48:23.57	17.15	10.10	
2025-01-10 06:48:23.78	17.11	10.10	
2025-01-10 06:48:23.98	17.07	10.10	
2025-01-10 06:48:24.19	17.04	10.10	
2025-01-10 06:48:24.39	17.00	10.10	
2025-01-10 06:48:24.60	16.96	10.10	
2025-01-10 06:48:24.80	16.93	10.10	
2025-01-10 06:48:25.01	16.89	10.09	
2025-01-10 06:48:25.21	16.85	10.09	
2025-01-10 06:48:25.42	16.82	10.09	
2025-01-10 06:48:25.62	16.78	10.09	
2025-01-10 06:48:25.83	16.74	10.09	
2025-01-10 06:48:26.03	16.71	10.09	
2025-01-10 06:48:26.24	16.67	10.09	
2025-01-10 06:48:26.44	16.63	10.08	
2025-01-10 06:48:26.65	16.60	10.08	
2025-01-10 06:48:26.85	16.56	10.08	
2025-01-10 06:48:27.06	16.52	10.08	
2025-01-10 06:48:27.26	16.49	10.08	
2025-01-10 06:48:27.46	16.45	10.08	
2025-01-10 06:48:27.67	16.41	10.08	
2025-01-10 06:48:27.87	16.38	10.08	
2025-01-10 06:48:28.08	16.34	10.07	
2025-01-10 06:48:28.29	16.30	10.07	
2025-01-10 06:48:28.49	16.27	10.07	
2025-01-10 06:48:28.70	16.23	10.07	
2025-01-10 06:48:28.90	16.20	10.07	
2025-01-10 06:48:29.11	16.16	10.07	
2025-01-10 06:48:29.31	16.12	10.06	
2025-01-10 06:48:29.52	16.08	10.06	
2025-01-10 06:48:29.73	16.05	10.06	
2025-01-10 06:48:29.93	16.01	10.06	
2025-01-10 06:48:30.14	15.97	10.06	
2025-01-10 06:48:30.35	15.94	10.06	
2025-01-10 06:48:30.55	15.90	10.05	
2025-01-10 06:48:30.75	15.87	10.05	
2025-01-10 06:48:30.96	15.83	10.05	
2025-01-10 06:48:31.16	15.79	10.05	
2025-01-10 06:48:31.37	15.75	10.05	
2025-01-10 06:48:31.58	15.72	10.05	
2025-01-10 06:48:31.79	15.68	10.04	
2025-01-10 06:48:32.00	15.64	10.04	
2025-01-10 06:48:32.21	15.60	10.04	
2025-01-10 06:48:32.41	15.57	10.04	
2025-01-10 06:48:32.62	15.53	10.04	
2025-01-10 06:48:32.82	15.50	10.04	
2025-01-10 06:48:33.02	15.46	10.03	
2025-01-10 06:48:33.23	15.42	10.03	
2025-01-10 06:48:33.44	15.39	10.03	
2025-01-10 06:48:33.64	15.35	10.03	
2025-01-10 06:48:33.85	15.31	10.03	
2025-01-10 06:48:34.05	15.28	10.03	
2025-01-10 06:48:34.26	15.24	10.02	
2025-01-10 06:48:34.46	15.20	10.02	
2025-01-10 06:48:34.67	15.17	10.02	
2025-01-10 06:48:34.88	15.13	10.02	
2025-01-10 06:48:35.09	15.09	10.02	
2025-01-10 06:48:35.30	15.05	10.01	
2025-01-10 06:48:35.50	15.02	10.01	
2025-01-10 06:48:35.71	14.98	10.01	
2025-01-10 06:48:35.91	14.95	10.01	
2025-01-10 06:48:36.12	14.91	10.01	
2025-01-10 06:48:36.32	14.87	10.01	
2025-01-10 06:48:36.53	14.84	10.00	
2025-01-10 06:48:36.73	14.80	10.00	
2025-01-10 06:48:36.94	14.76	10.00	
2025-01-10 06:48:37.14	14.73	10.00	
2025-01-10 06:48:37.35	14.69	10.00	
2025-01-10 06:48:37.55	14.65	9.99	
2025-01-10 06:48:37.76	14.62	9.99	
2025-01-10 06:48:37.97	14.58	9.99	
2025-01-10 06:48:38.17	14.54	9.99	
2025-01-10 06:48:38.38	14.51	9.99	
2025-01-10 06:48:38.58	14.47	9.98	
2025-01-10 06:48:38.79	14.43	9.98	
2025-01-10 06:48:38.99	14.40	9.98	
2025-01-10 06:48:39.21	14.36	9.98	
2025-01-10 06:48:39.41	14.32	9.97	
2025-01-10 06:48:39.62	14.29	9.97	
2025-01-10 06:48:39.83	14.25	9.97	
2025-01-10 06:48:40.03	14.21	9.97	
2025-01-10 06:48:40.23	14.18	9.97	
2025-01-10 06:48:40.44	14.14	9.96	
2025-01-10 06:48:40.64	14.11	9.96	
2025-01-10 06:48:40.85	14.07	9.96	
2025-01-10 06:48:41.05	14.03	9.96	
2025-01-10 06:48:41.26	14.00	9.96	
2025-01-10 06:48:41.46	13.96	9.95	
2025-01-10 06:48:41.67	13.92	9.95	
2025-01-10 06:48:41.88	13.89	9.95	
2025-01-10 06:48:42.08	13.85	9.95	
2025-01-10 06:48:42.29	13.81	9.94	
2025-01-10 06:48:42.49	13.78	9.94	
2025-01-10 06:48:42.70	13.74	9.94	
2025-01-10 06:48:42.90	13.71	9.94	
2025-01-10 06:48:43.11	13.67	9.94	
2025-01-10 06:48:43.32	13.63	9.93	
2025-01-10 06:48:43.52	13.60	9.93	
2025-01-10 06:48:43.73	13.56	9.93	
2025-01-10 06:48:43.94	13.52	9.93	
2025-01-10 06:48:44.14	13.49	9.92	
2025-01-10 06:48:44.35	13.45	9.92	
2025-01-10 06:48:44.55	13.42	9.92	
2025-01-10 06:48:44.75	13.38	9.92	
2025-01-10 06:48:44.96	13.34	9.91	
2025-01-10 06:48:45.17	13.31	9.91	
2025-01-10 06:48:45.37	13.27	9.91	
2025-01-10 06:48:45.57	13.24	9.91	
2025-01-10 06:48:45.78	13.20	9.90	
2025-01-10 06:48:45.99	13.16	9.90	
2025-01-10 06:48:46.20	13.12	9.90	
2025-01-10 06:48:46.40	13.09	9.90	
2025-01-10 06:48:46.61	13.05	9.90	
2025-01-10 06:48:46.81	13.02	9.89	
2025-01-10 06:48:47.02	12.98	9.89	
2025-01-10 06:48:47.22	12.94	9.89	
2025-01-10 06:48:47.43	12.91	9.89	
2025-01-10 06:48:47.63	12.87	9.88	
2025-01-10 06:48:47.84	12.83	9.88	
2025-01-10 06:48:48.05	12.80	9.88	
2025-01-10 06:48:48.25	12.76	9.87	
2025-01-10 06:48:48.46	12.73	9.87	
2025-01-10 06:48:48.66	12.69	9.87	
2025-01-10 06:48:48.87	12.65	9.87	
2025-01-10 06:48:49.07	12.62	9.86	
2025-01-10 06:48:49.28	12.58	9.86	
2025-01-10 06:48:49.48	12.55	9.86	
2025-01-10 06:48:49.69	12.51	9.86	
2025-01-10 06:48:49.89	12.47	9.85	
2025-01-10 06:48:50.10	12.44	9.85	
2025-01-10 06:48:50.30	12.40	9.85	
2025-01-10 06:48:50.51	12.36	9.85	
2025-01-10 06:48:50.72	12.33	9.84	
2025-01-10 06:48:50.92	12.29	9.84	
2025-01-10 06:48:51.13	12.26	9.84	
2025-01-10 06:48:51.33	12.22	9.84	
2025-01-10 06:48:51.54	12.18	9.83	
2025-01-10 06:48:51.74	12.15	9.83	
2025-01-10 06:48:51.94	12.11	9.83	
2025-01-10 06:48:52.15	12.08	9.82	
2025-01-10 06:48:52.36	12.04	9.82	
2025-01-10 06:48:52.56	12.01	9.82	
2025-01-10 06:48:52.76	11.97	9.82	
2025-01-10 06:48:52.97	11.93	9.81	
2025-01-10 06:48:53.17	11.90	9.81	
2025-01-10 06:48:53.38	11.86	9.81	
2025-01-10 06:48:53.59	11.82	9.80	
2025-01-10 06:48:53.79	11.79	9.80	
2025-01-10 06:48:54.00	11.75	9.80	
2025-01-10 06:48:54.20	11.72	9.80	
2025-01-10 06:48:54.41	11.68	9.79	
2025-01-10 06:48:54.61	11.65	9.79	
2025-01-10 06:48:54.82	11.61	9.79	
2025-01-10 06:48:55.02	11.57	9.78	
2025-01-10 06:48:55.23	11.54	9.78	
2025-01-10 06:48:55.43	11.50	9.78	
2025-01-10 06:48:55.64	11.47	9.78	
2025-01-10 06:48:55.84	11.43	9.77	
2025-01-10 06:48:56.05	11.39	9.77	
2025-01-10 06:48:56.25	11.36	9.77	
2025-01-10 06:48:56.46	11.32	9.76	
2025-01-10 06:48:56.66	11.29	9.76	
2025-01-10 06:48:56.87	11.25	9.76	
2025-01-10 06:48:57.08	11.21	9.76	
2025-01-10 06:48:57.28	11.18	9.75	
2025-01-10 06:48:57.48	11.14	9.75	
2025-01-10 06:48:57.69	11.11	9.75	
2025-01-10 06:48:57.90	11.07	9.74	
2025-01-10 06:48:58.10	11.04	9.74	
2025-01-10 06:48:58.31	11.00	9.74	
2025-01-10 06:48:58.51	10.96	9.73	
2025-01-10 06:48:58.72	10.93	9.73	
2025-01-10 06:48:58.92	10.89	9.73	
2025-01-10 06:48:59.13	10.86	9.72	
2025-01-10 06:48:59.33	10.82	9.72	
2025-01-10 06:48:59.54	10.78	9.72	
2025-01-10 06:48:59.74	10.75	9.72	
2025-01-10 06:48:59.95	10.71	9.71	
2025-01-10 06:49:00.15	10.68	9.71	
2025-01-10 06:49:00.37	10.64	9.71	
2025-01-10 06:49:00.58	10.60	9.70	
2025-01-10 06:49:00.80	10.57	9.70	
2025-01-10 06:49:01.02	10.53	9.70	
2025-01-10 06:49:01.22	10.49	9.69	
2025-01-10 06:49:01.43	10.46	9.69	
2025-01-10 06:49:01.63	10.42	9.69	
2025-01-10 06:49:01.84	10.38	9.68	
2025-01-10 06:49:02.04	10.35	9.68	
2025-01-10 06:49:02.25	10.31	9.68	
2025-01-10 06:49:02.45	10.28	9.67	
2025-01-10 06:49:02.67	10.24	9.67	
2025-01-10 06:49:02.88	10.20	9.67	
2025-01-10 06:49:03.08	10.17	9.66	
2025-01-10 06:49:03.29	10.13	9.66	
2025-01-10 06:49:03.49	10.10	9.66	
2025-01-10 06:49:03.70	10.06	9.65	
2025-01-10 06:49:03.90	10.03	9.65	
2025-01-10 06:49:04.11	9.99	9.65	
2025-01-10 06:49:04.32	9.95	9.64	
2025-01-10 06:49:04.52	9.92	9.64	
2025-01-10 06:49:04.72	9.89	9.64	
2025-01-10 06:49:04.93	9.85	9.63	
2025-01-10 06:49:05.14	9.81	9.63	
2025-01-10 06:49:05.34	9.78	9.63	
2025-01-10 06:49:05.55	9.74	9.62	
2025-01-10 06:49:05.75	9.71	9.62	
2025-01-10 06:49:05.95	9.67	9.62	
2025-01-10 06:49:06.16	9.64	9.61	
2025-01-10 06:49:06.36	9.60	9.61	
2025-01-10 06:49:06.57	9.57	9.61	
2025-01-10 06:49:06.77	9.53	9.60	
2025-01-10 06:49:06.98	9.49	9.60	
2025-01-10 06:49:07.19	9.46	9.59	
2025-01-10 06:49:07.39	9.42	9.59	
2025-01-10 06:49:07.60	9.39	9.59	
2025-01-10 06:49:07.80	9.35	9.58	
2025-01-10 06:49:08.01	9.32	9.58	
2025-01-10 06:49:08.21	9.28	9.58	
2025-01-10 06:49:08.42	9.25	9.57	
2025-01-10 06:49:08.62	9.21	9.57	
2025-01-10 06:49:08.83	9.18	9.57	
2025-01-10 06:49:09.03	9.14	9.56	
2025-01-10 06:49:09.23	9.11	9.56	
2025-01-10 06:49:09.44	9.07	9.56	
2025-01-10 06:49:09.64	9.04	9.55	
2025-01-10 06:49:09.85	9.00	9.55	
2025-01-10 06:49:10.06	8.96	9.54	
2025-01-10 06:49:10.26	8.93	9.54	
2025-01-10 06:49:10.47	8.89	9.54	
2025-01-10 06:49:10.67	8.86	9.53	
2025-01-10 06:49:10.88	8.82	9.53	
2025-01-10 06:49:11.08	8.79	9.53	
2025-01-10 06:49:11.28	8.75	9.52	
2025-01-10 06:49:11.49	8.72	9.52	
2025-01-10 06:49:11.69	8.68	9.52	
2025-01-10 06:49:11.90	8.65	9.51	
2025-01-10 06:49:12.10	8.61	9.51	
2025-01-10 06:49:12.31	8.58	9.50	
2025-01-10 06:49:12.51	8.54	9.50	
2025-01-10 06:49:12.72	8.51	9.50	
2025-01-10 06:49:12.93	8.47	9.49	
2025-01-10 06:49:13.13	8.44	9.49	
2025-01-10 06:49:13.35	8.40	9.49	
2025-01-10 06:49:13.56	8.36	9.48	
2025-01-10 06:49:13.76	8.33	9.48	
2025-01-10 06:49:13.96	8.29	9.47	
2025-01-10 06:49:14.17	8.26	9.47	
2025-01-10 06:49:14.39	8.22	9.47	
2025-01-10 06:49:14.60	8.18	9.46	
2025-01-10 06:49:14.80	8.15	9.46	
2025-01-10 06:49:15.01	8.11	9.45	
2025-01-10 06:49:15.21	8.08	9.45	
2025-01-10 06:49:15.42	8.04	9.45	
2025-01-10 06:49:15.62	8.01	9.44	
2025-01-10 06:49:15.83	7.97	9.44	
2025-01-10 06:49:16.03	7.94	9.43	
2025-01-10 06:49:16.24	7.90	9.43	
2025-01-10 06:49:16.44	7.87	9.43	
2025-01-10 06:49:16.65	7.83	9.42	
2025-01-10 06:49:16.85	7.80	9.42	
2025-01-10 06:49:17.06	7.76	9.41	
2025-01-10 06:49:17.26	7.73	9.41	
2025-01-10 06:49:17.47	7.69	9.41	
2025-01-10 06:49:17.67	7.66	9.40	
2025-01-10 06:49:17.88	7.62	9.40	
2025-01-10 06:49:18.08	7.59	9.39	
2025-01-10 06:49:18.30	7.55	9.39	
2025-01-10 06:49:18.50	7.52	9.39	
2025-01-10 06:49:18.71	7.48	9.38	
2025-01-10 06:49:18.91	7.45	9.38	
2025-01-10 06:49:19.12	7.41	9.37	
2025-01-10 06:49:19.32	7.38	9.37	
2025-01-10 06:49:19.53	7.34	9.37	
2025-01-10 06:49:19.73	7.31	9.36	
2025-01-10 06:49:19.94	7.27	9.36	
2025-01-10 06:49:20.14	7.24	9.35	
2025-01-10 06:49:20.35	7.20	9.35	
2025-01-10 06:49:20.56	7.17	9.35	
2025-01-10 06:49:20.77	7.13	9.34	
2025-01-10 06:49:20.98	7.10	9.34	
2025-01-10 06:49:21.19	7.06	9.33	
2025-01-10 06:49:21.39	7.03	9.33	
2025-01-10 06:49:21.60	6.99	9.32	
2025-01-10 06:49:21.81	6.96	9.32	
2025-01-10 06:49:22.02	6.92	9.32	
2025-01-10 06:49:22.22	6.89	9.31	
2025-01-10 06:49:22.43	6.85	9.31	
2025-01-10 06:49:22.63	6.82	9.30	
2025-01-10 06:49:22.84	6.78	9.30	
2025-01-10 06:49:23.04	6.75	9.29	
2025-01-10 06:49:23.25	6.71	9.29	
2025-01-10 06:49:23.45	6.68	9.29	
2025-01-10 06:49:23.66	6.64	9.28	
2025-01-10 06:49:23.86	6.61	9.28	
2025-01-10 06:49:24.07	6.58	9.27	
2025-01-10 06:49:24.28	6.54	9.27	
2025-01-10 06:49:24.48	6.51	9.26	
2025-01-10 06:49:24.69	6.47	9.26	
2025-01-10 06:49:24.89	6.44	9.26	
2025-01-10 06:49:25.10	6.40	9.25	
2025-01-10 06:49:25.31	6.37	9.25	
2025-01-10 06:49:25.52	6.33	9.24	
2025-01-10 06:49:25.73	6.30	9.24	
2025-01-10 06:49:25.93	6.26	9.23	
2025-01-10 06:49:26.14	6.23	9.23	
2025-01-10 06:49:26.34	6.19	9.23	
2025-01-10 06:49:26.54	6.16	9.22	
2025-01-10 06:49:26.75	6.12	9.22	
2025-01-10 06:49:26.96	6.09	9.21	
2025-01-10 06:49:27.16	6.05	9.21	
2025-01-10 06:49:27.36	6.02	9.20	
2025-01-10 06:49:27.57	5.99	9.20	
2025-01-10 06:49:27.78	5.95	9.19	
2025-01-10 06:49:27.98	5.92	9.19	
2025-01-10 06:49:28.18	5.88	9.19	
2025-01-10 06:49:28.39	5.85	9.18	
2025-01-10 06:49:28.60	5.81	9.18	
2025-01-10 06:49:28.80	5.78	9.17	
2025-01-10 06:49:29.01	5.74	9.17	
2025-01-10 06:49:29.21	5.71	9.16	
2025-01-10 06:49:29.42	5.68	9.16	
2025-01-10 06:49:29.62	5.64	9.15	
2025-01-10 06:49:29.83	5.61	9.15	
2025-01-10 06:49:30.03	5.57	9.14	
2025-01-10 06:49:30.24	5.54	9.14	
2025-01-10 06:49:30.44	5.50	9.14	
2025-01-10 06:49:30.65	5.47	9.13	
2025-01-10 06:49:30.85	5.44	9.13	
2025-01-10 06:49:31.06	5.40	9.12	
2025-01-10 06:49:31.26	5.37	9.12	
2025-01-10 06:49:31.47	5.33	9.11	
2025-01-10 06:49:31.67	5.30	9.11	
2025-01-10 06:49:31.88	5.26	9.10	
2025-01-10 06:49:32.08	5.23	9.10	
2025-01-10 06:49:32.29	5.20	9.09	
2025-01-10 06:49:32.49	5.16	9.09	
2025-01-10 06:49:32.70	5.13	9.08	
2025-01-10 06:49:32.90	5.09	9.08	
2025-01-10 06:49:33.11	5.06	9.07	
2025-01-10 06:49:33.32	5.02	9.07	
2025-01-10 06:49:33.52	4.99	9.07	
2025-01-10 06:49:33.73	4.96	9.06	
2025-01-10 06:49:33.93	4.92	9.06	
2025-01-10 06:49:34.14	4.89	9.05	
2025-01-10 06:49:34.34	4.85	9.05	
2025-01-10 06:49:34.54	4.82	9.04	
2025-01-10 06:49:34.75	4.79	9.04	
2025-01-10 06:49:34.95	4.75	9.03	
2025-01-10 06:49:35.16	4.72	9.03	
2025-01-10 06:49:35.36	4.69	9.02	
2025-01-10 06:49:35.57	4.65	9.02	
2025-01-10 06:49:35.77	4.62	9.01	
2025-01-10 06:49:35.98	4.58	9.01	
2025-01-10 06:49:36.18	4.55	9.00	
2025-01-10 06:49:36.39	4.51	9.00	
2025-01-10 06:49:36.60	4.48	8.99	
2025-01-10 06:49:36.80	4.45	8.99	
2025-01-10 06:49:37.00	4.41	8.98	
2025-01-10 06:49:37.21	4.38	8.98	
2025-01-10 06:49:37.41	4.35	8.97	
2025-01-10 06:49:37.62	4.31	8.97	
2025-01-10 06:49:37.84	4.27	8.96	
2025-01-10 06:49:38.04	4.24	8.96	
2025-01-10 06:49:38.25	4.21	8.95	
2025-01-10 06:49:38.46	4.17	8.95	
2025-01-10 06:49:38.66	4.14	8.94	
2025-01-10 06:49:38.86	4.11	8.94	
2025-01-10 06:49:39.07	4.07	8.93	
2025-01-10 06:49:39.27	4.04	8.93	
2025-01-10 06:49:39.48	4.00	8.92	
2025-01-10 06:49:39.68	3.97	8.92	
2025-01-10 06:49:39.89	3.94	8.91	
2025-01-10 06:49:40.10	3.90	8.91	
2025-01-10 06:49:40.30	3.87	8.90	
2025-01-10 06:49:40.51	3.83	8.90	
2025-01-10 06:49:40.71	3.80	8.89	
2025-01-10 06:49:40.91	3.77	8.89	
2025-01-10 06:49:41.12	3.73	8.88	
2025-01-10 06:49:41.33	3.70	8.88	
2025-01-10 06:49:41.53	3.67	8.87	
2025-01-10 06:49:41.74	3.63	8.87	
2025-01-10 06:49:41.94	3.60	8.86	
2025-01-10 06:49:42.14	3.57	8.86	
2025-01-10 06:49:42.35	3.53	8.85	
2025-01-10 06:49:42.55	3.50	8.85	
2025-01-10 06:49:42.76	3.47	8.84	
2025-01-10 06:49:42.96	3.43	8.84	
2025-01-10 06:49:43.18	3.40	8.83	
2025-01-10 06:49:43.39	3.36	8.83	
2025-01-10 06:49:43.59	3.33	8.82	
2025-01-10 06:49:43.80	3.30	8.82	
2025-01-10 06:49:44.00	3.26	8.81	
2025-01-10 06:49:44.21	3.23	8.81	
2025-01-10 06:49:44.41	3.20	8.80	
2025-01-10 06:49:44.62	3.16	8.80	
2025-01-10 06:49:44.82	3.13	8.79	
2025-01-10 06:49:45.03	3.09	8.79	
2025-01-10 06:49:45.23	3.06	8.78	
2025-01-10 06:49:45.44	3.03	8.78	
2025-01-10 06:49:45.64	2.99	8.77	
2025-01-10 06:49:45.85	2.96	8.77	
2025-01-10 06:49:46.05	2.93	8.76	
2025-01-10 06:49:46.26	2.89	8.76	
2025-01-10 06:49:46.47	2.86	8.75	
2025-01-10 06:49:46.67	2.83	8.75	
2025-01-10 06:49:46.88	2.79	8.74	
2025-01-10 06:49:47.08	2.76	8.74	
2025-01-10 06:49:47.28	2.73	8.73	
2025-01-10 06:49:47.49	2.69	8.72	
2025-01-10 06:49:47.69	2.66	8.72	
2025-01-10 06:49:47.90	2.63	8.71	
2025-01-10 06:49:48.11	2.59	8.71	
2025-01-10 06:49:48.31	2.56	8.70	
2025-01-10 06:49:48.51	2.53	8.70	
2025-01-10 06:49:48.72	2.49	8.69	
2025-01-10 06:49:48.92	2.46	8.69	
2025-01-10 06:49:49.13	2.43	8.68	
2025-01-10 06:49:49.34	2.39	8.68	
2025-01-10 06:49:49.54	2.36	8.67	
2025-01-10 06:49:49.75	2.33	8.67	
2025-01-10 06:49:49.95	2.30	8.66	
2025-01-10 06:49:50.16	2.26	8.66	
2025-01-10 06:49:50.36	2.23	8.65	
2025-01-10 06:49:50.57	2.19	8.64	
2025-01-10 06:49:50.77	2.16	8.64	
