passes_logs/2025/01/10/SPB_Silybum_02/SPB_Silybum_02__20250110_000635_SUOMI_NPP_rec.log

#Pass ID: 20250110_000635_SUOMI NPP
#Satellite: SUOMI NPP
#Configuration: NPP
#Start time: 2025-01-10 00:06:34

#Version: 2.0.20230423
#Station: SPB_Silybum_02
#Location: 30.233357 lon 59.946436 lat
#TLE: 1 37849U 11061A   25009.14008564  .00000193  00000+0  11215-3 0  9999
#TLE: 2 37849  98.7440 310.2032 0001887  50.1400 309.9942 14.19535382684083

#Time	Az	El	Level	Level2	SNR	BER	Gain	Gain2
2025-01-10 00:06:36.98	18.63	4.10	
2025-01-10 00:06:37.18	18.64	4.11	
2025-01-10 00:06:37.39	18.64	4.13	
2025-01-10 00:06:37.59	18.64	4.14	
2025-01-10 00:06:37.80	18.64	4.16	
2025-01-10 00:06:38.00	18.65	4.17	
2025-01-10 00:06:38.21	18.65	4.19	
2025-01-10 00:06:38.42	18.65	4.20	
2025-01-10 00:06:38.62	18.65	4.21	
2025-01-10 00:06:38.83	18.66	4.23	
2025-01-10 00:06:39.03	18.66	4.24	
2025-01-10 00:06:39.24	18.66	4.26	
2025-01-10 00:06:39.44	18.67	4.27	
2025-01-10 00:06:39.65	18.67	4.28	
2025-01-10 00:06:39.85	18.67	4.30	
2025-01-10 00:06:40.06	18.67	4.31	
2025-01-10 00:06:40.26	18.68	4.33	
2025-01-10 00:06:40.47	18.68	4.34	
2025-01-10 00:06:40.67	18.68	4.35	
2025-01-10 00:06:40.88	18.68	4.37	
2025-01-10 00:06:41.08	18.69	4.38	
2025-01-10 00:06:41.29	18.69	4.40	
2025-01-10 00:06:41.49	18.69	4.41	
2025-01-10 00:06:41.70	18.70	4.43	
2025-01-10 00:06:41.91	18.70	4.44	
2025-01-10 00:06:42.11	18.70	4.45	
2025-01-10 00:06:42.31	18.70	4.47	
2025-01-10 00:06:42.53	18.71	4.48	
2025-01-10 00:06:42.74	18.71	4.50	
2025-01-10 00:06:42.94	18.71	4.51	
2025-01-10 00:06:43.15	18.72	4.53	
2025-01-10 00:06:43.35	18.72	4.54	
2025-01-10 00:06:43.56	18.72	4.56	
2025-01-10 00:06:43.76	18.72	4.57	
2025-01-10 00:06:43.97	18.73	4.58	
2025-01-10 00:06:44.17	18.73	4.60	
2025-01-10 00:06:44.38	18.73	4.61	
2025-01-10 00:06:44.59	18.74	4.63	
2025-01-10 00:06:44.79	18.74	4.64	
2025-01-10 00:06:45.00	18.74	4.66	
2025-01-10 00:06:45.20	18.74	4.67	
2025-01-10 00:06:45.41	18.75	4.68	
2025-01-10 00:06:45.61	18.75	4.70	
2025-01-10 00:06:45.82	18.75	4.71	
2025-01-10 00:06:46.03	18.75	4.73	
2025-01-10 00:06:46.23	18.76	4.74	
2025-01-10 00:06:46.43	18.76	4.76	
2025-01-10 00:06:46.64	18.76	4.77	
2025-01-10 00:06:46.85	18.77	4.79	
2025-01-10 00:06:47.05	18.77	4.80	
2025-01-10 00:06:47.26	18.77	4.81	
2025-01-10 00:06:47.46	18.77	4.83	
2025-01-10 00:06:47.67	18.78	4.84	
2025-01-10 00:06:47.87	18.78	4.86	
2025-01-10 00:06:48.08	18.78	4.87	
2025-01-10 00:06:48.29	18.79	4.89	
2025-01-10 00:06:48.49	18.79	4.90	
2025-01-10 00:06:48.70	18.79	4.92	
2025-01-10 00:06:48.90	18.79	4.93	
2025-01-10 00:06:49.11	18.80	4.94	
2025-01-10 00:06:49.31	18.80	4.96	
2025-01-10 00:06:49.53	18.80	4.97	
2025-01-10 00:06:49.73	18.81	4.99	
2025-01-10 00:06:49.94	18.81	5.00	
2025-01-10 00:06:50.14	18.81	5.02	
2025-01-10 00:06:50.35	18.81	5.03	
2025-01-10 00:06:50.55	18.82	5.05	
2025-01-10 00:06:50.76	18.82	5.06	
2025-01-10 00:06:50.97	18.82	5.08	
2025-01-10 00:06:51.17	18.83	5.09	
2025-01-10 00:06:51.38	18.83	5.11	
2025-01-10 00:06:51.58	18.83	5.12	
2025-01-10 00:06:51.79	18.83	5.13	
2025-01-10 00:06:51.99	18.84	5.15	
2025-01-10 00:06:52.20	18.84	5.16	
2025-01-10 00:06:52.40	18.84	5.18	
2025-01-10 00:06:52.61	18.85	5.19	
2025-01-10 00:06:52.81	18.85	5.21	
2025-01-10 00:06:53.01	18.85	5.22	
2025-01-10 00:06:53.22	18.85	5.24	
2025-01-10 00:06:53.43	18.86	5.25	
2025-01-10 00:06:53.63	18.86	5.27	
2025-01-10 00:06:53.84	18.86	5.28	
2025-01-10 00:06:54.04	18.87	5.30	
2025-01-10 00:06:54.25	18.87	5.31	
2025-01-10 00:06:54.45	18.87	5.32	
2025-01-10 00:06:54.66	18.87	5.34	
2025-01-10 00:06:54.87	18.88	5.35	
2025-01-10 00:06:55.08	18.88	5.37	
2025-01-10 00:06:55.28	18.88	5.38	
2025-01-10 00:06:55.49	18.89	5.40	
2025-01-10 00:06:55.70	18.89	5.41	
2025-01-10 00:06:55.91	18.89	5.43	
2025-01-10 00:06:56.12	18.90	5.44	
2025-01-10 00:06:56.32	18.90	5.46	
2025-01-10 00:06:56.53	18.90	5.47	
2025-01-10 00:06:56.74	18.90	5.49	
2025-01-10 00:06:56.94	18.91	5.50	
2025-01-10 00:06:57.14	18.91	5.52	
2025-01-10 00:06:57.35	18.91	5.53	
2025-01-10 00:06:57.56	18.92	5.55	
2025-01-10 00:06:57.76	18.92	5.56	
2025-01-10 00:06:57.97	18.92	5.58	
2025-01-10 00:06:58.17	18.92	5.59	
2025-01-10 00:06:58.38	18.93	5.61	
2025-01-10 00:06:58.58	18.93	5.62	
2025-01-10 00:06:58.79	18.93	5.64	
2025-01-10 00:06:58.99	18.94	5.65	
2025-01-10 00:06:59.20	18.94	5.67	
2025-01-10 00:06:59.41	18.94	5.68	
2025-01-10 00:06:59.61	18.95	5.70	
2025-01-10 00:06:59.82	18.95	5.71	
2025-01-10 00:07:00.02	18.95	5.73	
2025-01-10 00:07:00.23	18.95	5.74	
2025-01-10 00:07:00.43	18.96	5.76	
2025-01-10 00:07:00.64	18.96	5.77	
2025-01-10 00:07:00.84	18.96	5.79	
2025-01-10 00:07:01.05	18.97	5.80	
2025-01-10 00:07:01.27	18.97	5.82	
2025-01-10 00:07:01.47	18.97	5.83	
2025-01-10 00:07:01.68	18.97	5.85	
2025-01-10 00:07:01.89	18.98	5.86	
2025-01-10 00:07:02.09	18.98	5.88	
2025-01-10 00:07:02.30	18.98	5.89	
2025-01-10 00:07:02.50	18.99	5.91	
2025-01-10 00:07:02.71	18.99	5.92	
2025-01-10 00:07:02.91	18.99	5.94	
2025-01-10 00:07:03.13	19.00	5.95	
2025-01-10 00:07:03.33	19.00	5.97	
2025-01-10 00:07:03.54	19.00	5.98	
2025-01-10 00:07:03.74	19.00	6.00	
2025-01-10 00:07:03.95	19.01	6.01	
2025-01-10 00:07:04.16	19.01	6.03	
2025-01-10 00:07:04.36	19.01	6.04	
2025-01-10 00:07:04.56	19.02	6.06	
2025-01-10 00:07:04.77	19.02	6.08	
2025-01-10 00:07:04.98	19.02	6.09	
2025-01-10 00:07:05.18	19.03	6.11	
2025-01-10 00:07:05.39	19.03	6.12	
2025-01-10 00:07:05.59	19.03	6.14	
2025-01-10 00:07:05.80	19.03	6.15	
2025-01-10 00:07:06.00	19.04	6.17	
2025-01-10 00:07:06.21	19.04	6.18	
2025-01-10 00:07:06.42	19.04	6.20	
2025-01-10 00:07:06.62	19.05	6.21	
2025-01-10 00:07:06.83	19.05	6.23	
2025-01-10 00:07:07.03	19.05	6.24	
2025-01-10 00:07:07.24	19.06	6.26	
2025-01-10 00:07:07.44	19.06	6.27	
2025-01-10 00:07:07.65	19.06	6.29	
2025-01-10 00:07:07.85	19.06	6.30	
2025-01-10 00:07:08.05	19.07	6.32	
2025-01-10 00:07:08.26	19.07	6.33	
2025-01-10 00:07:08.47	19.07	6.35	
2025-01-10 00:07:08.67	19.08	6.36	
2025-01-10 00:07:08.87	19.08	6.38	
2025-01-10 00:07:09.08	19.08	6.39	
2025-01-10 00:07:09.28	19.09	6.41	
2025-01-10 00:07:09.49	19.09	6.43	
2025-01-10 00:07:09.69	19.09	6.44	
2025-01-10 00:07:09.90	19.10	6.46	
2025-01-10 00:07:10.10	19.10	6.47	
2025-01-10 00:07:10.31	19.10	6.49	
2025-01-10 00:07:10.51	19.10	6.50	
2025-01-10 00:07:10.72	19.11	6.52	
2025-01-10 00:07:10.92	19.11	6.53	
2025-01-10 00:07:11.13	19.11	6.55	
2025-01-10 00:07:11.33	19.12	6.56	
2025-01-10 00:07:11.54	19.12	6.58	
2025-01-10 00:07:11.74	19.12	6.59	
2025-01-10 00:07:11.95	19.13	6.61	
2025-01-10 00:07:12.15	19.13	6.63	
2025-01-10 00:07:12.36	19.13	6.64	
2025-01-10 00:07:12.56	19.14	6.66	
2025-01-10 00:07:12.77	19.14	6.67	
2025-01-10 00:07:12.97	19.14	6.69	
2025-01-10 00:07:13.18	19.14	6.70	
2025-01-10 00:07:13.39	19.15	6.72	
2025-01-10 00:07:13.59	19.15	6.73	
2025-01-10 00:07:13.80	19.15	6.75	
2025-01-10 00:07:14.00	19.16	6.76	
2025-01-10 00:07:14.21	19.16	6.78	
2025-01-10 00:07:14.42	19.16	6.80	
2025-01-10 00:07:14.63	19.17	6.81	
2025-01-10 00:07:14.83	19.17	6.83	
2025-01-10 00:07:15.04	19.17	6.84	
2025-01-10 00:07:15.24	19.18	6.86	
2025-01-10 00:07:15.45	19.18	6.87	
2025-01-10 00:07:15.65	19.18	6.89	
2025-01-10 00:07:15.86	19.18	6.91	
2025-01-10 00:07:16.06	19.19	6.92	
2025-01-10 00:07:16.27	19.19	6.94	
2025-01-10 00:07:16.47	19.19	6.95	
2025-01-10 00:07:16.68	19.20	6.97	
2025-01-10 00:07:16.88	19.20	6.98	
2025-01-10 00:07:17.09	19.20	7.00	
2025-01-10 00:07:17.31	19.21	7.02	
2025-01-10 00:07:17.51	19.21	7.03	
2025-01-10 00:07:17.72	19.21	7.05	
2025-01-10 00:07:17.92	19.22	7.06	
2025-01-10 00:07:18.13	19.22	7.08	
2025-01-10 00:07:18.33	19.22	7.10	
2025-01-10 00:07:18.54	19.23	7.11	
2025-01-10 00:07:18.74	19.23	7.13	
2025-01-10 00:07:18.95	19.23	7.14	
2025-01-10 00:07:19.15	19.24	7.16	
2025-01-10 00:07:19.36	19.24	7.17	
2025-01-10 00:07:19.56	19.24	7.19	
2025-01-10 00:07:19.77	19.24	7.21	
2025-01-10 00:07:19.97	19.25	7.22	
2025-01-10 00:07:20.18	19.25	7.24	
2025-01-10 00:07:20.38	19.25	7.25	
2025-01-10 00:07:20.59	19.26	7.27	
2025-01-10 00:07:20.79	19.26	7.28	
2025-01-10 00:07:21.00	19.26	7.30	
2025-01-10 00:07:21.21	19.27	7.32	
2025-01-10 00:07:21.41	19.27	7.33	
2025-01-10 00:07:21.62	19.27	7.35	
2025-01-10 00:07:21.82	19.28	7.36	
2025-01-10 00:07:22.03	19.28	7.38	
2025-01-10 00:07:22.23	19.28	7.40	
2025-01-10 00:07:22.44	19.29	7.41	
2025-01-10 00:07:22.64	19.29	7.43	
2025-01-10 00:07:22.85	19.29	7.44	
2025-01-10 00:07:23.05	19.30	7.46	
2025-01-10 00:07:23.26	19.30	7.48	
2025-01-10 00:07:23.46	19.30	7.49	
2025-01-10 00:07:23.67	19.31	7.51	
2025-01-10 00:07:23.87	19.31	7.52	
2025-01-10 00:07:24.08	19.31	7.54	
2025-01-10 00:07:24.29	19.31	7.56	
2025-01-10 00:07:24.49	19.32	7.57	
2025-01-10 00:07:24.70	19.32	7.59	
2025-01-10 00:07:24.90	19.32	7.60	
2025-01-10 00:07:25.11	19.33	7.62	
2025-01-10 00:07:25.32	19.33	7.64	
2025-01-10 00:07:25.52	19.33	7.65	
2025-01-10 00:07:25.72	19.34	7.67	
2025-01-10 00:07:25.93	19.34	7.68	
2025-01-10 00:07:26.14	19.34	7.70	
2025-01-10 00:07:26.34	19.35	7.72	
2025-01-10 00:07:26.55	19.35	7.73	
2025-01-10 00:07:26.75	19.35	7.75	
2025-01-10 00:07:26.96	19.36	7.77	
2025-01-10 00:07:27.16	19.36	7.78	
2025-01-10 00:07:27.37	19.36	7.80	
2025-01-10 00:07:27.57	19.37	7.81	
2025-01-10 00:07:27.78	19.37	7.83	
2025-01-10 00:07:27.98	19.37	7.85	
2025-01-10 00:07:28.19	19.38	7.86	
2025-01-10 00:07:28.39	19.38	7.88	
2025-01-10 00:07:28.60	19.38	7.90	
2025-01-10 00:07:28.80	19.39	7.91	
2025-01-10 00:07:29.01	19.39	7.93	
2025-01-10 00:07:29.21	19.39	7.94	
2025-01-10 00:07:29.42	19.40	7.96	
2025-01-10 00:07:29.62	19.40	7.98	
2025-01-10 00:07:29.83	19.40	7.99	
2025-01-10 00:07:30.03	19.41	8.01	
2025-01-10 00:07:30.24	19.41	8.03	
2025-01-10 00:07:30.44	19.41	8.04	
2025-01-10 00:07:30.65	19.42	8.06	
2025-01-10 00:07:30.86	19.42	8.07	
2025-01-10 00:07:31.06	19.42	8.09	
2025-01-10 00:07:31.27	19.43	8.11	
2025-01-10 00:07:31.47	19.43	8.12	
2025-01-10 00:07:31.68	19.43	8.14	
2025-01-10 00:07:31.88	19.44	8.16	
2025-01-10 00:07:32.09	19.44	8.17	
2025-01-10 00:07:32.29	19.44	8.19	
2025-01-10 00:07:32.50	19.45	8.21	
2025-01-10 00:07:32.70	19.45	8.22	
2025-01-10 00:07:32.91	19.45	8.24	
2025-01-10 00:07:33.12	19.46	8.26	
2025-01-10 00:07:33.32	19.46	8.27	
2025-01-10 00:07:33.53	19.46	8.29	
2025-01-10 00:07:33.73	19.47	8.30	
2025-01-10 00:07:33.94	19.47	8.32	
2025-01-10 00:07:34.14	19.47	8.34	
2025-01-10 00:07:34.35	19.48	8.35	
2025-01-10 00:07:34.55	19.48	8.37	
2025-01-10 00:07:34.76	19.48	8.39	
2025-01-10 00:07:34.96	19.49	8.40	
2025-01-10 00:07:35.17	19.49	8.42	
2025-01-10 00:07:35.38	19.49	8.44	
2025-01-10 00:07:35.58	19.50	8.45	
2025-01-10 00:07:35.79	19.50	8.47	
2025-01-10 00:07:35.99	19.50	8.49	
2025-01-10 00:07:36.20	19.51	8.50	
2025-01-10 00:07:36.41	19.51	8.52	
2025-01-10 00:07:36.61	19.51	8.54	
2025-01-10 00:07:36.82	19.52	8.55	
2025-01-10 00:07:37.02	19.52	8.57	
2025-01-10 00:07:37.23	19.52	8.59	
2025-01-10 00:07:37.44	19.53	8.61	
2025-01-10 00:07:37.64	19.53	8.62	
2025-01-10 00:07:37.85	19.53	8.64	
2025-01-10 00:07:38.06	19.54	8.66	
2025-01-10 00:07:38.26	19.54	8.67	
2025-01-10 00:07:38.47	19.54	8.69	
2025-01-10 00:07:38.67	19.55	8.71	
2025-01-10 00:07:38.88	19.55	8.72	
2025-01-10 00:07:39.08	19.55	8.74	
2025-01-10 00:07:39.29	19.56	8.76	
2025-01-10 00:07:39.50	19.56	8.77	
2025-01-10 00:07:39.70	19.56	8.79	
2025-01-10 00:07:39.91	19.57	8.81	
2025-01-10 00:07:40.11	19.57	8.82	
2025-01-10 00:07:40.32	19.57	8.84	
2025-01-10 00:07:40.52	19.58	8.86	
2025-01-10 00:07:40.73	19.58	8.87	
2025-01-10 00:07:40.93	19.58	8.89	
2025-01-10 00:07:41.14	19.59	8.91	
2025-01-10 00:07:41.34	19.59	8.92	
2025-01-10 00:07:41.55	19.59	8.94	
2025-01-10 00:07:41.76	19.60	8.96	
2025-01-10 00:07:41.96	19.60	8.98	
2025-01-10 00:07:42.16	19.61	8.99	
2025-01-10 00:07:42.37	19.61	9.01	
2025-01-10 00:07:42.58	19.61	9.03	
2025-01-10 00:07:42.78	19.62	9.04	
2025-01-10 00:07:43.00	19.62	9.06	
2025-01-10 00:07:43.21	19.62	9.08	
2025-01-10 00:07:43.41	19.63	9.10	
2025-01-10 00:07:43.62	19.63	9.11	
2025-01-10 00:07:43.82	19.63	9.13	
2025-01-10 00:07:44.02	19.64	9.15	
2025-01-10 00:07:44.23	19.64	9.16	
2025-01-10 00:07:44.43	19.64	9.18	
2025-01-10 00:07:44.64	19.65	9.20	
2025-01-10 00:07:44.85	19.65	9.22	
2025-01-10 00:07:45.06	19.65	9.23	
2025-01-10 00:07:45.27	19.66	9.25	
2025-01-10 00:07:45.47	19.66	9.27	
2025-01-10 00:07:45.68	19.66	9.29	
2025-01-10 00:07:45.88	19.67	9.30	
2025-01-10 00:07:46.08	19.67	9.32	
2025-01-10 00:07:46.29	19.68	9.34	
2025-01-10 00:07:46.49	19.68	9.35	
2025-01-10 00:07:46.70	19.68	9.37	
2025-01-10 00:07:46.91	19.69	9.39	
2025-01-10 00:07:47.11	19.69	9.41	
2025-01-10 00:07:47.31	19.69	9.42	
2025-01-10 00:07:47.52	19.70	9.44	
2025-01-10 00:07:47.73	19.70	9.46	
2025-01-10 00:07:47.93	19.70	9.47	
2025-01-10 00:07:48.14	19.71	9.49	
2025-01-10 00:07:48.34	19.71	9.51	
2025-01-10 00:07:48.55	19.71	9.53	
2025-01-10 00:07:48.75	19.72	9.54	
2025-01-10 00:07:48.96	19.72	9.56	
2025-01-10 00:07:49.16	19.72	9.58	
2025-01-10 00:07:49.37	19.73	9.60	
2025-01-10 00:07:49.57	19.73	9.61	
2025-01-10 00:07:49.78	19.74	9.63	
2025-01-10 00:07:49.98	19.74	9.65	
2025-01-10 00:07:50.19	19.74	9.67	
2025-01-10 00:07:50.40	19.75	9.68	
2025-01-10 00:07:50.61	19.75	9.70	
2025-01-10 00:07:50.82	19.75	9.72	
2025-01-10 00:07:51.02	19.76	9.74	
2025-01-10 00:07:51.23	19.76	9.75	
2025-01-10 00:07:51.45	19.76	9.77	
2025-01-10 00:07:51.65	19.77	9.79	
2025-01-10 00:07:51.86	19.77	9.81	
2025-01-10 00:07:52.07	19.78	9.83	
2025-01-10 00:07:52.27	19.78	9.84	
2025-01-10 00:07:52.48	19.78	9.86	
2025-01-10 00:07:52.69	19.79	9.88	
2025-01-10 00:07:52.90	19.79	9.90	
2025-01-10 00:07:53.10	19.79	9.91	
2025-01-10 00:07:53.31	19.80	9.93	
2025-01-10 00:07:53.52	19.80	9.95	
2025-01-10 00:07:53.72	19.80	9.97	
2025-01-10 00:07:53.92	19.81	9.98	
2025-01-10 00:07:54.13	19.81	10.00	
2025-01-10 00:07:54.33	19.82	10.02	
2025-01-10 00:07:54.54	19.82	10.04	
2025-01-10 00:07:54.74	19.82	10.05	
2025-01-10 00:07:54.94	19.83	10.07	
2025-01-10 00:07:55.15	19.83	10.09	
2025-01-10 00:07:55.36	19.83	10.11	
2025-01-10 00:07:55.56	19.84	10.13	
2025-01-10 00:07:55.77	19.84	10.14	
2025-01-10 00:07:55.97	19.84	10.16	
2025-01-10 00:07:56.18	19.85	10.18	
2025-01-10 00:07:56.39	19.85	10.20	
2025-01-10 00:07:56.59	19.86	10.22	
2025-01-10 00:07:56.80	19.86	10.23	
2025-01-10 00:07:57.00	19.86	10.25	
2025-01-10 00:07:57.21	19.87	10.27	
2025-01-10 00:07:57.41	19.87	10.29	
2025-01-10 00:07:57.62	19.87	10.30	
2025-01-10 00:07:57.83	19.88	10.32	
2025-01-10 00:07:58.03	19.88	10.34	
2025-01-10 00:07:58.23	19.89	10.36	
2025-01-10 00:07:58.44	19.89	10.38	
2025-01-10 00:07:58.64	19.89	10.39	
2025-01-10 00:07:58.85	19.90	10.41	
2025-01-10 00:07:59.05	19.90	10.43	
2025-01-10 00:07:59.26	19.90	10.45	
2025-01-10 00:07:59.46	19.91	10.47	
2025-01-10 00:07:59.67	19.91	10.48	
2025-01-10 00:07:59.87	19.92	10.50	
2025-01-10 00:08:00.08	19.92	10.52	
2025-01-10 00:08:00.28	19.92	10.54	
2025-01-10 00:08:00.49	19.93	10.56	
2025-01-10 00:08:00.70	19.93	10.57	
2025-01-10 00:08:00.90	19.93	10.59	
2025-01-10 00:08:01.11	19.94	10.61	
2025-01-10 00:08:01.31	19.94	10.63	
2025-01-10 00:08:01.52	19.95	10.65	
2025-01-10 00:08:01.72	19.95	10.66	
2025-01-10 00:08:01.93	19.95	10.68	
2025-01-10 00:08:02.14	19.96	10.70	
2025-01-10 00:08:02.34	19.96	10.72	
2025-01-10 00:08:02.55	19.96	10.74	
2025-01-10 00:08:02.75	19.97	10.76	
2025-01-10 00:08:02.96	19.97	10.77	
2025-01-10 00:08:03.17	19.98	10.79	
2025-01-10 00:08:03.37	19.98	10.81	
2025-01-10 00:08:03.58	19.98	10.83	
2025-01-10 00:08:03.78	19.99	10.85	
2025-01-10 00:08:03.99	19.99	10.87	
2025-01-10 00:08:04.19	19.99	10.88	
2025-01-10 00:08:04.40	20.00	10.90	
2025-01-10 00:08:04.60	20.00	10.92	
2025-01-10 00:08:04.81	20.01	10.94	
2025-01-10 00:08:05.02	20.01	10.96	
2025-01-10 00:08:05.22	20.01	10.98	
2025-01-10 00:08:05.43	20.02	11.00	
2025-01-10 00:08:05.63	20.02	11.01	
2025-01-10 00:08:05.84	20.03	11.03	
2025-01-10 00:08:06.04	20.03	11.05	
2025-01-10 00:08:06.25	20.03	11.07	
2025-01-10 00:08:06.45	20.04	11.09	
2025-01-10 00:08:06.66	20.04	11.11	
2025-01-10 00:08:06.87	20.04	11.12	
2025-01-10 00:08:07.07	20.05	11.14	
2025-01-10 00:08:07.28	20.05	11.16	
2025-01-10 00:08:07.48	20.06	11.18	
2025-01-10 00:08:07.69	20.06	11.20	
2025-01-10 00:08:07.89	20.06	11.22	
2025-01-10 00:08:08.10	20.07	11.24	
2025-01-10 00:08:08.30	20.07	11.25	
2025-01-10 00:08:08.51	20.08	11.27	
2025-01-10 00:08:08.71	20.08	11.29	
2025-01-10 00:08:08.92	20.08	11.31	
2025-01-10 00:08:09.12	20.09	11.33	
2025-01-10 00:08:09.33	20.09	11.35	
2025-01-10 00:08:09.53	20.10	11.37	
2025-01-10 00:08:09.74	20.10	11.38	
2025-01-10 00:08:09.94	20.10	11.40	
2025-01-10 00:08:10.15	20.11	11.42	
2025-01-10 00:08:10.35	20.11	11.44	
2025-01-10 00:08:10.56	20.11	11.46	
2025-01-10 00:08:10.76	20.12	11.48	
2025-01-10 00:08:10.97	20.12	11.50	
2025-01-10 00:08:11.18	20.13	11.52	
2025-01-10 00:08:11.38	20.13	11.53	
2025-01-10 00:08:11.59	20.13	11.55	
2025-01-10 00:08:11.79	20.14	11.57	
2025-01-10 00:08:12.00	20.14	11.59	
2025-01-10 00:08:12.20	20.15	11.61	
2025-01-10 00:08:12.41	20.15	11.63	
2025-01-10 00:08:12.61	20.15	11.65	
2025-01-10 00:08:12.82	20.16	11.67	
2025-01-10 00:08:13.03	20.16	11.69	
2025-01-10 00:08:13.23	20.17	11.70	
2025-01-10 00:08:13.44	20.17	11.72	
2025-01-10 00:08:13.64	20.17	11.74	
2025-01-10 00:08:13.85	20.18	11.76	
2025-01-10 00:08:14.05	20.18	11.78	
2025-01-10 00:08:14.26	20.19	11.80	
2025-01-10 00:08:14.47	20.19	11.82	
2025-01-10 00:08:14.67	20.19	11.84	
2025-01-10 00:08:14.88	20.20	11.86	
2025-01-10 00:08:15.08	20.20	11.88	
2025-01-10 00:08:15.29	20.21	11.90	
2025-01-10 00:08:15.49	20.21	11.91	
2025-01-10 00:08:15.70	20.21	11.93	
2025-01-10 00:08:15.90	20.22	11.95	
2025-01-10 00:08:16.11	20.22	11.97	
2025-01-10 00:08:16.31	20.23	11.99	
2025-01-10 00:08:16.52	20.23	12.01	
2025-01-10 00:08:16.72	20.23	12.03	
2025-01-10 00:08:16.93	20.24	12.05	
2025-01-10 00:08:17.14	20.24	12.07	
2025-01-10 00:08:17.35	20.25	12.09	
2025-01-10 00:08:17.56	20.25	12.11	
2025-01-10 00:08:17.76	20.25	12.13	
2025-01-10 00:08:17.97	20.26	12.15	
2025-01-10 00:08:18.17	20.26	12.16	
2025-01-10 00:08:18.37	20.27	12.18	
2025-01-10 00:08:18.58	20.27	12.20	
2025-01-10 00:08:18.79	20.28	12.22	
2025-01-10 00:08:18.99	20.28	12.24	
2025-01-10 00:08:19.20	20.28	12.26	
2025-01-10 00:08:19.40	20.29	12.28	
2025-01-10 00:08:19.61	20.29	12.30	
2025-01-10 00:08:19.81	20.30	12.32	
2025-01-10 00:08:20.02	20.30	12.34	
2025-01-10 00:08:20.23	20.30	12.36	
2025-01-10 00:08:20.43	20.31	12.38	
2025-01-10 00:08:20.64	20.31	12.40	
2025-01-10 00:08:20.84	20.32	12.42	
2025-01-10 00:08:21.05	20.32	12.44	
2025-01-10 00:08:21.25	20.32	12.46	
2025-01-10 00:08:21.46	20.33	12.48	
2025-01-10 00:08:21.66	20.33	12.49	
2025-01-10 00:08:21.87	20.34	12.51	
2025-01-10 00:08:22.07	20.34	12.53	
2025-01-10 00:08:22.28	20.35	12.55	
2025-01-10 00:08:22.48	20.35	12.57	
2025-01-10 00:08:22.69	20.35	12.59	
2025-01-10 00:08:22.90	20.36	12.61	
2025-01-10 00:08:23.10	20.36	12.63	
2025-01-10 00:08:23.31	20.37	12.65	
2025-01-10 00:08:23.51	20.37	12.67	
2025-01-10 00:08:23.72	20.37	12.69	
2025-01-10 00:08:23.92	20.38	12.71	
2025-01-10 00:08:24.13	20.38	12.73	
2025-01-10 00:08:24.33	20.39	12.75	
2025-01-10 00:08:24.54	20.39	12.77	
2025-01-10 00:08:24.74	20.40	12.79	
2025-01-10 00:08:24.95	20.40	12.81	
2025-01-10 00:08:25.15	20.40	12.83	
2025-01-10 00:08:25.36	20.41	12.85	
2025-01-10 00:08:25.56	20.41	12.87	
2025-01-10 00:08:25.77	20.42	12.89	
2025-01-10 00:08:25.97	20.42	12.91	
2025-01-10 00:08:26.18	20.43	12.93	
2025-01-10 00:08:26.38	20.43	12.95	
2025-01-10 00:08:26.59	20.43	12.97	
2025-01-10 00:08:26.79	20.44	12.99	
2025-01-10 00:08:27.00	20.44	13.01	
2025-01-10 00:08:27.20	20.45	13.03	
2025-01-10 00:08:27.41	20.45	13.05	
2025-01-10 00:08:27.62	20.46	13.07	
2025-01-10 00:08:27.82	20.46	13.09	
2025-01-10 00:08:28.03	20.46	13.11	
2025-01-10 00:08:28.23	20.47	13.13	
2025-01-10 00:08:28.44	20.47	13.15	
2025-01-10 00:08:28.65	20.48	13.17	
2025-01-10 00:08:28.85	20.48	13.19	
2025-01-10 00:08:29.06	20.49	13.21	
2025-01-10 00:08:29.26	20.49	13.23	
2025-01-10 00:08:29.47	20.49	13.25	
2025-01-10 00:08:29.67	20.50	13.27	
2025-01-10 00:08:29.88	20.50	13.29	
2025-01-10 00:08:30.08	20.51	13.31	
2025-01-10 00:08:30.29	20.51	13.33	
2025-01-10 00:08:30.49	20.52	13.35	
2025-01-10 00:08:30.70	20.52	13.37	
2025-01-10 00:08:30.91	20.52	13.39	
2025-01-10 00:08:31.13	20.53	13.41	
2025-01-10 00:08:31.33	20.53	13.43	
2025-01-10 00:08:31.54	20.54	13.45	
2025-01-10 00:08:31.74	20.54	13.47	
2025-01-10 00:08:31.95	20.55	13.50	
2025-01-10 00:08:32.15	20.55	13.52	
2025-01-10 00:08:32.36	20.56	13.54	
2025-01-10 00:08:32.56	20.56	13.56	
2025-01-10 00:08:32.77	20.56	13.58	
2025-01-10 00:08:32.97	20.57	13.60	
2025-01-10 00:08:33.18	20.57	13.62	
2025-01-10 00:08:33.38	20.58	13.64	
2025-01-10 00:08:33.59	20.58	13.66	
2025-01-10 00:08:33.81	20.59	13.68	
2025-01-10 00:08:34.01	20.59	13.70	
2025-01-10 00:08:34.22	20.60	13.72	
2025-01-10 00:08:34.42	20.60	13.74	
2025-01-10 00:08:34.63	20.60	13.76	
2025-01-10 00:08:34.83	20.61	13.78	
2025-01-10 00:08:35.04	20.61	13.80	
2025-01-10 00:08:35.24	20.62	13.82	
2025-01-10 00:08:35.45	20.62	13.85	
2025-01-10 00:08:35.65	20.63	13.87	
2025-01-10 00:08:35.86	20.63	13.89	
2025-01-10 00:08:36.06	20.64	13.91	
2025-01-10 00:08:36.27	20.64	13.93	
2025-01-10 00:08:36.49	20.64	13.95	
2025-01-10 00:08:36.69	20.65	13.97	
2025-01-10 00:08:36.90	20.65	13.99	
2025-01-10 00:08:37.11	20.66	14.01	
2025-01-10 00:08:37.31	20.66	14.03	
2025-01-10 00:08:37.52	20.67	14.05	
2025-01-10 00:08:37.72	20.67	14.08	
2025-01-10 00:08:37.93	20.68	14.10	
2025-01-10 00:08:38.13	20.68	14.12	
2025-01-10 00:08:38.34	20.69	14.14	
2025-01-10 00:08:38.54	20.69	14.16	
2025-01-10 00:08:38.75	20.69	14.18	
2025-01-10 00:08:38.95	20.70	14.20	
2025-01-10 00:08:39.16	20.70	14.22	
2025-01-10 00:08:39.36	20.71	14.24	
2025-01-10 00:08:39.56	20.71	14.26	
2025-01-10 00:08:39.77	20.72	14.28	
2025-01-10 00:08:39.98	20.72	14.31	
2025-01-10 00:08:40.18	20.73	14.33	
2025-01-10 00:08:40.39	20.73	14.35	
2025-01-10 00:08:40.59	20.74	14.37	
2025-01-10 00:08:40.80	20.74	14.39	
2025-01-10 00:08:41.00	20.74	14.41	
2025-01-10 00:08:41.21	20.75	14.43	
2025-01-10 00:08:41.42	20.75	14.45	
2025-01-10 00:08:41.62	20.76	14.48	
2025-01-10 00:08:41.83	20.76	14.50	
2025-01-10 00:08:42.03	20.77	14.52	
2025-01-10 00:08:42.24	20.77	14.54	
2025-01-10 00:08:42.45	20.78	14.56	
2025-01-10 00:08:42.65	20.78	14.58	
2025-01-10 00:08:42.85	20.79	14.60	
2025-01-10 00:08:43.06	20.79	14.62	
2025-01-10 00:08:43.27	20.80	14.65	
2025-01-10 00:08:43.47	20.80	14.67	
2025-01-10 00:08:43.68	20.80	14.69	
2025-01-10 00:08:43.88	20.81	14.71	
2025-01-10 00:08:44.09	20.81	14.73	
2025-01-10 00:08:44.29	20.82	14.75	
2025-01-10 00:08:44.50	20.82	14.77	
2025-01-10 00:08:44.70	20.83	14.80	
2025-01-10 00:08:44.91	20.83	14.82	
2025-01-10 00:08:45.11	20.84	14.84	
2025-01-10 00:08:45.32	20.84	14.86	
2025-01-10 00:08:45.52	20.85	14.88	
2025-01-10 00:08:45.73	20.85	14.90	
2025-01-10 00:08:45.93	20.86	14.92	
2025-01-10 00:08:46.13	20.86	14.95	
2025-01-10 00:08:46.34	20.87	14.97	
2025-01-10 00:08:46.55	20.87	14.99	
2025-01-10 00:08:46.75	20.88	15.01	
2025-01-10 00:08:46.96	20.88	15.03	
2025-01-10 00:08:47.16	20.88	15.05	
2025-01-10 00:08:47.37	20.89	15.08	
2025-01-10 00:08:47.57	20.89	15.10	
2025-01-10 00:08:47.78	20.90	15.12	
2025-01-10 00:08:47.99	20.90	15.14	
2025-01-10 00:08:48.19	20.91	15.16	
2025-01-10 00:08:48.39	20.91	15.18	
2025-01-10 00:08:48.60	20.92	15.21	
2025-01-10 00:08:48.80	20.92	15.23	
2025-01-10 00:08:49.01	20.93	15.25	
2025-01-10 00:08:49.21	20.93	15.27	
2025-01-10 00:08:49.43	20.94	15.30	
2025-01-10 00:08:49.63	20.94	15.32	
2025-01-10 00:08:49.84	20.95	15.34	
2025-01-10 00:08:50.04	20.95	15.36	
2025-01-10 00:08:50.24	20.96	15.38	
2025-01-10 00:08:50.45	20.96	15.41	
2025-01-10 00:08:50.65	20.97	15.43	
2025-01-10 00:08:50.86	20.97	15.45	
2025-01-10 00:08:51.07	20.98	15.47	
2025-01-10 00:08:51.27	20.98	15.49	
2025-01-10 00:08:51.47	20.99	15.51	
2025-01-10 00:08:51.68	20.99	15.54	
2025-01-10 00:08:51.89	21.00	15.56	
2025-01-10 00:08:52.09	21.00	15.58	
2025-01-10 00:08:52.30	21.01	15.60	
2025-01-10 00:08:52.50	21.01	15.63	
2025-01-10 00:08:52.70	21.02	15.65	
2025-01-10 00:08:52.91	21.02	15.67	
2025-01-10 00:08:53.12	21.03	15.69	
2025-01-10 00:08:53.32	21.03	15.72	
2025-01-10 00:08:53.53	21.04	15.74	
2025-01-10 00:08:53.73	21.04	15.76	
2025-01-10 00:08:53.94	21.05	15.78	
2025-01-10 00:08:54.14	21.05	15.80	
2025-01-10 00:08:54.35	21.06	15.83	
2025-01-10 00:08:54.55	21.06	15.85	
2025-01-10 00:08:54.76	21.07	15.87	
2025-01-10 00:08:54.96	21.07	15.89	
2025-01-10 00:08:55.17	21.08	15.92	
2025-01-10 00:08:55.37	21.08	15.94	
2025-01-10 00:08:55.58	21.09	15.96	
2025-01-10 00:08:55.79	21.09	15.99	
2025-01-10 00:08:55.99	21.10	16.01	
2025-01-10 00:08:56.19	21.10	16.03	
2025-01-10 00:08:56.40	21.11	16.05	
2025-01-10 00:08:56.60	21.11	16.07	
2025-01-10 00:08:56.81	21.12	16.10	
2025-01-10 00:08:57.01	21.12	16.12	
2025-01-10 00:08:57.22	21.13	16.14	
2025-01-10 00:08:57.42	21.13	16.17	
2025-01-10 00:08:57.63	21.14	16.19	
2025-01-10 00:08:57.84	21.14	16.21	
2025-01-10 00:08:58.05	21.15	16.23	
2025-01-10 00:08:58.26	21.15	16.26	
2025-01-10 00:08:58.46	21.16	16.28	
2025-01-10 00:08:58.67	21.16	16.30	
2025-01-10 00:08:58.88	21.17	16.33	
2025-01-10 00:08:59.09	21.17	16.35	
2025-01-10 00:08:59.30	21.18	16.37	
2025-01-10 00:08:59.50	21.18	16.40	
2025-01-10 00:08:59.71	21.19	16.42	
2025-01-10 00:08:59.91	21.19	16.44	
2025-01-10 00:09:00.12	21.20	16.47	
2025-01-10 00:09:00.33	21.20	16.49	
2025-01-10 00:09:00.54	21.21	16.51	
2025-01-10 00:09:00.74	21.21	16.54	
2025-01-10 00:09:00.95	21.22	16.56	
2025-01-10 00:09:01.15	21.22	16.58	
2025-01-10 00:09:01.36	21.23	16.61	
2025-01-10 00:09:01.56	21.23	16.63	
2025-01-10 00:09:01.77	21.24	16.65	
2025-01-10 00:09:01.98	21.24	16.68	
2025-01-10 00:09:02.18	21.25	16.70	
2025-01-10 00:09:02.39	21.25	16.72	
2025-01-10 00:09:02.59	21.26	16.74	
2025-01-10 00:09:02.80	21.27	16.77	
2025-01-10 00:09:03.00	21.27	16.79	
2025-01-10 00:09:03.20	21.28	16.81	
2025-01-10 00:09:03.41	21.28	16.84	
2025-01-10 00:09:03.61	21.29	16.86	
2025-01-10 00:09:03.82	21.29	16.88	
2025-01-10 00:09:04.02	21.30	16.91	
2025-01-10 00:09:04.23	21.30	16.93	
2025-01-10 00:09:04.43	21.31	16.95	
2025-01-10 00:09:04.64	21.31	16.98	
2025-01-10 00:09:04.84	21.32	17.00	
2025-01-10 00:09:05.05	21.32	17.03	
2025-01-10 00:09:05.27	21.33	17.05	
2025-01-10 00:09:05.47	21.33	17.07	
2025-01-10 00:09:05.68	21.34	17.10	
2025-01-10 00:09:05.88	21.34	17.12	
2025-01-10 00:09:06.09	21.35	17.14	
2025-01-10 00:09:06.29	21.36	17.17	
2025-01-10 00:09:06.50	21.36	17.19	
2025-01-10 00:09:06.70	21.37	17.22	
2025-01-10 00:09:06.91	21.37	17.24	
2025-01-10 00:09:07.12	21.38	17.26	
2025-01-10 00:09:07.32	21.38	17.29	
2025-01-10 00:09:07.52	21.39	17.31	
2025-01-10 00:09:07.73	21.39	17.33	
2025-01-10 00:09:07.94	21.40	17.36	
2025-01-10 00:09:08.14	21.40	17.38	
2025-01-10 00:09:08.35	21.41	17.41	
2025-01-10 00:09:08.55	21.41	17.43	
2025-01-10 00:09:08.76	21.42	17.45	
2025-01-10 00:09:08.96	21.43	17.48	
2025-01-10 00:09:09.17	21.43	17.50	
2025-01-10 00:09:09.37	21.44	17.53	
2025-01-10 00:09:09.58	21.44	17.55	
2025-01-10 00:09:09.78	21.45	17.57	
2025-01-10 00:09:09.99	21.45	17.60	
2025-01-10 00:09:10.19	21.46	17.62	
2025-01-10 00:09:10.40	21.46	17.65	
2025-01-10 00:09:10.62	21.47	17.67	
2025-01-10 00:09:10.82	21.48	17.70	
2025-01-10 00:09:11.03	21.48	17.72	
2025-01-10 00:09:11.24	21.49	17.75	
2025-01-10 00:09:11.44	21.49	17.77	
2025-01-10 00:09:11.64	21.50	17.79	
2025-01-10 00:09:11.85	21.50	17.82	
2025-01-10 00:09:12.06	21.51	17.84	
2025-01-10 00:09:12.26	21.51	17.87	
2025-01-10 00:09:12.47	21.52	17.89	
2025-01-10 00:09:12.67	21.53	17.91	
2025-01-10 00:09:12.88	21.53	17.94	
2025-01-10 00:09:13.08	21.54	17.96	
2025-01-10 00:09:13.29	21.54	17.99	
2025-01-10 00:09:13.50	21.55	18.01	
2025-01-10 00:09:13.71	21.55	18.04	
2025-01-10 00:09:13.92	21.56	18.06	
2025-01-10 00:09:14.12	21.56	18.09	
2025-01-10 00:09:14.33	21.57	18.11	
2025-01-10 00:09:14.53	21.58	18.14	
2025-01-10 00:09:14.74	21.58	18.16	
2025-01-10 00:09:14.95	21.59	18.19	
2025-01-10 00:09:15.15	21.59	18.21	
2025-01-10 00:09:15.36	21.60	18.24	
2025-01-10 00:09:15.56	21.60	18.26	
2025-01-10 00:09:15.77	21.61	18.29	
2025-01-10 00:09:15.97	21.62	18.31	
2025-01-10 00:09:16.18	21.62	18.34	
2025-01-10 00:09:16.38	21.63	18.36	
2025-01-10 00:09:16.59	21.63	18.39	
2025-01-10 00:09:16.80	21.64	18.41	
2025-01-10 00:09:17.00	21.64	18.44	
2025-01-10 00:09:17.21	21.65	18.46	
2025-01-10 00:09:17.41	21.66	18.49	
2025-01-10 00:09:17.62	21.66	18.51	
2025-01-10 00:09:17.82	21.67	18.54	
2025-01-10 00:09:18.04	21.67	18.56	
2025-01-10 00:09:18.25	21.68	18.59	
2025-01-10 00:09:18.45	21.69	18.61	
2025-01-10 00:09:18.66	21.69	18.64	
2025-01-10 00:09:18.87	21.70	18.66	
2025-01-10 00:09:19.07	21.70	18.69	
2025-01-10 00:09:19.28	21.71	18.71	
2025-01-10 00:09:19.48	21.71	18.74	
2025-01-10 00:09:19.69	21.72	18.76	
2025-01-10 00:09:19.89	21.73	18.79	
2025-01-10 00:09:20.10	21.73	18.81	
2025-01-10 00:09:20.30	21.74	18.84	
2025-01-10 00:09:20.51	21.74	18.87	
2025-01-10 00:09:20.71	21.75	18.89	
2025-01-10 00:09:20.92	21.76	18.92	
2025-01-10 00:09:21.13	21.76	18.94	
2025-01-10 00:09:21.33	21.77	18.97	
2025-01-10 00:09:21.53	21.77	18.99	
2025-01-10 00:09:21.74	21.78	19.02	
2025-01-10 00:09:21.95	21.79	19.04	
2025-01-10 00:09:22.15	21.79	19.07	
2025-01-10 00:09:22.36	21.80	19.10	
2025-01-10 00:09:22.56	21.80	19.12	
2025-01-10 00:09:22.77	21.81	19.15	
2025-01-10 00:09:22.97	21.82	19.17	
2025-01-10 00:09:23.18	21.82	19.20	
2025-01-10 00:09:23.38	21.83	19.22	
2025-01-10 00:09:23.59	21.83	19.25	
2025-01-10 00:09:23.79	21.84	19.27	
2025-01-10 00:09:24.00	21.85	19.30	
2025-01-10 00:09:24.21	21.85	19.33	
2025-01-10 00:09:24.41	21.86	19.35	
2025-01-10 00:09:24.61	21.86	19.38	
2025-01-10 00:09:24.82	21.87	19.40	
2025-01-10 00:09:25.03	21.88	19.43	
2025-01-10 00:09:25.23	21.88	19.46	
2025-01-10 00:09:25.43	21.89	19.48	
2025-01-10 00:09:25.64	21.89	19.51	
2025-01-10 00:09:25.84	21.90	19.53	
2025-01-10 00:09:26.05	21.91	19.56	
2025-01-10 00:09:26.26	21.91	19.59	
2025-01-10 00:09:26.46	21.92	19.61	
2025-01-10 00:09:26.66	21.92	19.64	
2025-01-10 00:09:26.87	21.93	19.66	
2025-01-10 00:09:27.07	21.94	19.69	
2025-01-10 00:09:27.28	21.94	19.72	
2025-01-10 00:09:27.49	21.95	19.74	
2025-01-10 00:09:27.69	21.96	19.77	
2025-01-10 00:09:27.90	21.96	19.80	
2025-01-10 00:09:28.10	21.97	19.82	
2025-01-10 00:09:28.31	21.97	19.85	
2025-01-10 00:09:28.51	21.98	19.87	
2025-01-10 00:09:28.71	21.99	19.90	
2025-01-10 00:09:28.92	21.99	19.93	
2025-01-10 00:09:29.13	22.00	19.95	
2025-01-10 00:09:29.33	22.00	19.98	
2025-01-10 00:09:29.54	22.01	20.01	
2025-01-10 00:09:29.74	22.02	20.03	
2025-01-10 00:09:29.95	22.02	20.06	
2025-01-10 00:09:30.16	22.03	20.09	
2025-01-10 00:09:30.36	22.04	20.11	
2025-01-10 00:09:30.57	22.04	20.14	
2025-01-10 00:09:30.77	22.05	20.17	
2025-01-10 00:09:30.98	22.06	20.19	
2025-01-10 00:09:31.18	22.06	20.22	
2025-01-10 00:09:31.39	22.07	20.25	
2025-01-10 00:09:31.60	22.07	20.27	
2025-01-10 00:09:31.80	22.08	20.30	
2025-01-10 00:09:32.01	22.09	20.33	
2025-01-10 00:09:32.21	22.09	20.35	
2025-01-10 00:09:32.42	22.10	20.38	
2025-01-10 00:09:32.62	22.11	20.41	
2025-01-10 00:09:32.83	22.11	20.44	
2025-01-10 00:09:33.03	22.12	20.46	
2025-01-10 00:09:33.24	22.13	20.49	
2025-01-10 00:09:33.44	22.13	20.52	
2025-01-10 00:09:33.65	22.14	20.54	
2025-01-10 00:09:33.86	22.15	20.57	
2025-01-10 00:09:34.07	22.15	20.60	
2025-01-10 00:09:34.28	22.16	20.63	
2025-01-10 00:09:34.49	22.17	20.66	
2025-01-10 00:09:34.70	22.17	20.68	
2025-01-10 00:09:34.90	22.18	20.71	
2025-01-10 00:09:35.10	22.18	20.74	
2025-01-10 00:09:35.31	22.19	20.76	
2025-01-10 00:09:35.51	22.20	20.79	
2025-01-10 00:09:35.72	22.20	20.82	
2025-01-10 00:09:35.92	22.21	20.85	
2025-01-10 00:09:36.13	22.22	20.87	
2025-01-10 00:09:36.33	22.22	20.90	
2025-01-10 00:09:36.54	22.23	20.93	
2025-01-10 00:09:36.74	22.24	20.96	
2025-01-10 00:09:36.95	22.24	20.98	
2025-01-10 00:09:37.15	22.25	21.01	
2025-01-10 00:09:37.36	22.26	21.04	
2025-01-10 00:09:37.56	22.26	21.07	
2025-01-10 00:09:37.77	22.27	21.09	
2025-01-10 00:09:37.98	22.28	21.12	
2025-01-10 00:09:38.18	22.28	21.15	
2025-01-10 00:09:38.40	22.29	21.18	
2025-01-10 00:09:38.60	22.30	21.21	
2025-01-10 00:09:38.81	22.30	21.24	
2025-01-10 00:09:39.02	22.31	21.26	
2025-01-10 00:09:39.22	22.32	21.29	
2025-01-10 00:09:39.43	22.32	21.32	
2025-01-10 00:09:39.63	22.33	21.35	
2025-01-10 00:09:39.84	22.34	21.38	
2025-01-10 00:09:40.05	22.35	21.40	
2025-01-10 00:09:40.25	22.35	21.43	
2025-01-10 00:09:40.45	22.36	21.46	
2025-01-10 00:09:40.66	22.37	21.49	
2025-01-10 00:09:40.87	22.37	21.52	
2025-01-10 00:09:41.07	22.38	21.54	
2025-01-10 00:09:41.28	22.39	21.57	
2025-01-10 00:09:41.48	22.39	21.60	
2025-01-10 00:09:41.69	22.40	21.63	
2025-01-10 00:09:41.89	22.41	21.66	
2025-01-10 00:09:42.10	22.41	21.69	
2025-01-10 00:09:42.30	22.42	21.71	
2025-01-10 00:09:42.51	22.43	21.74	
2025-01-10 00:09:42.71	22.43	21.77	
2025-01-10 00:09:42.92	22.44	21.80	
2025-01-10 00:09:43.13	22.45	21.83	
2025-01-10 00:09:43.33	22.46	21.86	
2025-01-10 00:09:43.54	22.46	21.89	
2025-01-10 00:09:43.74	22.47	21.91	
2025-01-10 00:09:43.95	22.48	21.94	
2025-01-10 00:09:44.15	22.48	21.97	
2025-01-10 00:09:44.36	22.49	22.00	
2025-01-10 00:09:44.57	22.50	22.03	
2025-01-10 00:09:44.77	22.50	22.06	
2025-01-10 00:09:44.98	22.51	22.09	
2025-01-10 00:09:45.18	22.52	22.12	
2025-01-10 00:09:45.39	22.53	22.15	
2025-01-10 00:09:45.59	22.53	22.17	
2025-01-10 00:09:45.81	22.54	22.20	
2025-01-10 00:09:46.02	22.55	22.23	
2025-01-10 00:09:46.22	22.55	22.26	
2025-01-10 00:09:46.43	22.56	22.29	
2025-01-10 00:09:46.64	22.57	22.32	
2025-01-10 00:09:46.84	22.58	22.35	
2025-01-10 00:09:47.04	22.58	22.38	
2025-01-10 00:09:47.25	22.59	22.41	
2025-01-10 00:09:47.46	22.60	22.44	
2025-01-10 00:09:47.66	22.60	22.47	
2025-01-10 00:09:47.87	22.61	22.50	
2025-01-10 00:09:48.07	22.62	22.53	
2025-01-10 00:09:48.28	22.63	22.56	
2025-01-10 00:09:48.48	22.63	22.58	
2025-01-10 00:09:48.69	22.64	22.61	
2025-01-10 00:09:48.89	22.65	22.64	
2025-01-10 00:09:49.10	22.66	22.67	
2025-01-10 00:09:49.30	22.66	22.70	
2025-01-10 00:09:49.51	22.67	22.73	
2025-01-10 00:09:49.71	22.68	22.76	
2025-01-10 00:09:49.92	22.68	22.79	
2025-01-10 00:09:50.13	22.69	22.82	
2025-01-10 00:09:50.33	22.70	22.85	
2025-01-10 00:09:50.54	22.71	22.88	
2025-01-10 00:09:50.74	22.71	22.91	
2025-01-10 00:09:50.95	22.72	22.94	
2025-01-10 00:09:51.15	22.73	22.97	
2025-01-10 00:09:51.36	22.74	23.00	
2025-01-10 00:09:51.56	22.74	23.03	
2025-01-10 00:09:51.77	22.75	23.06	
2025-01-10 00:09:51.97	22.76	23.09	
2025-01-10 00:09:52.17	22.77	23.12	
2025-01-10 00:09:52.38	22.77	23.15	
2025-01-10 00:09:52.59	22.78	23.18	
2025-01-10 00:09:52.79	22.79	23.21	
2025-01-10 00:09:53.00	22.80	23.24	
2025-01-10 00:09:53.20	22.80	23.27	
2025-01-10 00:09:53.41	22.81	23.30	
2025-01-10 00:09:53.61	22.82	23.33	
2025-01-10 00:09:53.82	22.83	23.36	
2025-01-10 00:09:54.03	22.83	23.39	
2025-01-10 00:09:54.23	22.84	23.42	
2025-01-10 00:09:54.43	22.85	23.45	
2025-01-10 00:09:54.64	22.86	23.48	
2025-01-10 00:09:54.85	22.86	23.51	
2025-01-10 00:09:55.05	22.87	23.54	
2025-01-10 00:09:55.26	22.88	23.57	
2025-01-10 00:09:55.47	22.89	23.60	
2025-01-10 00:09:55.67	22.90	23.63	
2025-01-10 00:09:55.88	22.90	23.67	
2025-01-10 00:09:56.08	22.91	23.70	
2025-01-10 00:09:56.29	22.92	23.73	
2025-01-10 00:09:56.49	22.93	23.76	
2025-01-10 00:09:56.70	22.93	23.79	
2025-01-10 00:09:56.90	22.94	23.82	
2025-01-10 00:09:57.11	22.95	23.85	
2025-01-10 00:09:57.32	22.96	23.88	
2025-01-10 00:09:57.52	22.97	23.91	
2025-01-10 00:09:57.73	22.97	23.94	
2025-01-10 00:09:57.93	22.98	23.97	
2025-01-10 00:09:58.14	22.99	24.01	
2025-01-10 00:09:58.34	23.00	24.04	
2025-01-10 00:09:58.55	23.00	24.07	
2025-01-10 00:09:58.75	23.01	24.10	
2025-01-10 00:09:58.96	23.02	24.13	
2025-01-10 00:09:59.16	23.03	24.16	
2025-01-10 00:09:59.37	23.04	24.19	
2025-01-10 00:09:59.57	23.04	24.22	
2025-01-10 00:09:59.78	23.05	24.25	
2025-01-10 00:09:59.98	23.06	24.28	
2025-01-10 00:10:00.19	23.07	24.32	
2025-01-10 00:10:00.39	23.08	24.35	
2025-01-10 00:10:00.60	23.08	24.38	
2025-01-10 00:10:00.80	23.09	24.41	
2025-01-10 00:10:01.01	23.10	24.44	
2025-01-10 00:10:01.21	23.11	24.47	
2025-01-10 00:10:01.42	23.12	24.51	
2025-01-10 00:10:01.62	23.12	24.54	
2025-01-10 00:10:01.83	23.13	24.57	
2025-01-10 00:10:02.03	23.14	24.60	
2025-01-10 00:10:02.24	23.15	24.63	
2025-01-10 00:10:02.44	23.16	24.66	
2025-01-10 00:10:02.64	23.16	24.69	
2025-01-10 00:10:02.86	23.17	24.73	
2025-01-10 00:10:03.07	23.18	24.76	
2025-01-10 00:10:03.27	23.19	24.79	
2025-01-10 00:10:03.48	23.20	24.83	
2025-01-10 00:10:03.68	23.21	24.86	
2025-01-10 00:10:03.89	23.21	24.89	
2025-01-10 00:10:04.09	23.22	24.92	
2025-01-10 00:10:04.30	23.23	24.95	
2025-01-10 00:10:04.51	23.24	24.99	
2025-01-10 00:10:04.71	23.25	25.02	
2025-01-10 00:10:04.92	23.26	25.05	
2025-01-10 00:10:05.12	23.26	25.08	
2025-01-10 00:10:05.33	23.27	25.12	
2025-01-10 00:10:05.53	23.28	25.15	
2025-01-10 00:10:05.74	23.29	25.18	
2025-01-10 00:10:05.94	23.30	25.21	
2025-01-10 00:10:06.16	23.31	25.25	
2025-01-10 00:10:06.37	23.32	25.28	
2025-01-10 00:10:06.57	23.32	25.31	
2025-01-10 00:10:06.78	23.33	25.34	
2025-01-10 00:10:06.99	23.34	25.38	
2025-01-10 00:10:07.19	23.35	25.41	
2025-01-10 00:10:07.39	23.36	25.44	
2025-01-10 00:10:07.60	23.37	25.48	
2025-01-10 00:10:07.81	23.38	25.51	
2025-01-10 00:10:08.01	23.38	25.54	
2025-01-10 00:10:08.22	23.39	25.57	
2025-01-10 00:10:08.42	23.40	25.61	
2025-01-10 00:10:08.63	23.41	25.64	
2025-01-10 00:10:08.83	23.42	25.67	
2025-01-10 00:10:09.04	23.43	25.71	
2025-01-10 00:10:09.25	23.44	25.74	
2025-01-10 00:10:09.45	23.44	25.77	
2025-01-10 00:10:09.66	23.45	25.81	
2025-01-10 00:10:09.86	23.46	25.84	
2025-01-10 00:10:10.07	23.47	25.87	
2025-01-10 00:10:10.27	23.48	25.91	
2025-01-10 00:10:10.48	23.49	25.94	
2025-01-10 00:10:10.68	23.50	25.97	
2025-01-10 00:10:10.89	23.51	26.01	
2025-01-10 00:10:11.10	23.52	26.04	
2025-01-10 00:10:11.30	23.52	26.07	
2025-01-10 00:10:11.51	23.53	26.11	
2025-01-10 00:10:11.71	23.54	26.14	
2025-01-10 00:10:11.92	23.55	26.17	
2025-01-10 00:10:12.13	23.56	26.21	
2025-01-10 00:10:12.33	23.57	26.24	
2025-01-10 00:10:12.53	23.58	26.28	
2025-01-10 00:10:12.74	23.59	26.31	
2025-01-10 00:10:12.95	23.60	26.34	
2025-01-10 00:10:13.15	23.60	26.38	
2025-01-10 00:10:13.36	23.61	26.41	
2025-01-10 00:10:13.56	23.62	26.45	
2025-01-10 00:10:13.77	23.63	26.48	
2025-01-10 00:10:13.97	23.64	26.51	
2025-01-10 00:10:14.18	23.65	26.55	
2025-01-10 00:10:14.38	23.66	26.58	
2025-01-10 00:10:14.59	23.67	26.62	
2025-01-10 00:10:14.79	23.68	26.65	
2025-01-10 00:10:15.00	23.69	26.68	
2025-01-10 00:10:15.21	23.70	26.72	
2025-01-10 00:10:15.41	23.70	26.75	
2025-01-10 00:10:15.62	23.71	26.79	
2025-01-10 00:10:15.82	23.72	26.82	
2025-01-10 00:10:16.03	23.73	26.86	
2025-01-10 00:10:16.23	23.74	26.89	
2025-01-10 00:10:16.44	23.75	26.93	
2025-01-10 00:10:16.64	23.76	26.96	
2025-01-10 00:10:16.86	23.77	27.00	
2025-01-10 00:10:17.07	23.78	27.03	
2025-01-10 00:10:17.28	23.79	27.07	
2025-01-10 00:10:17.48	23.80	27.10	
2025-01-10 00:10:17.69	23.81	27.14	
2025-01-10 00:10:17.90	23.82	27.17	
2025-01-10 00:10:18.11	23.83	27.21	
2025-01-10 00:10:18.31	23.84	27.24	
2025-01-10 00:10:18.52	23.85	27.28	
2025-01-10 00:10:18.72	23.85	27.31	
2025-01-10 00:10:18.92	23.86	27.35	
2025-01-10 00:10:19.13	23.87	27.38	
2025-01-10 00:10:19.33	23.88	27.42	
2025-01-10 00:10:19.54	23.89	27.45	
2025-01-10 00:10:19.75	23.90	27.49	
2025-01-10 00:10:19.95	23.91	27.52	
2025-01-10 00:10:20.16	23.92	27.56	
2025-01-10 00:10:20.36	23.93	27.60	
2025-01-10 00:10:20.56	23.94	27.63	
2025-01-10 00:10:20.77	23.95	27.67	
2025-01-10 00:10:20.97	23.96	27.70	
2025-01-10 00:10:21.18	23.97	27.74	
2025-01-10 00:10:21.38	23.98	27.77	
2025-01-10 00:10:21.59	23.99	27.81	
2025-01-10 00:10:21.79	24.00	27.84	
2025-01-10 00:10:22.00	24.01	27.88	
2025-01-10 00:10:22.20	24.02	27.91	
2025-01-10 00:10:22.41	24.03	27.95	
2025-01-10 00:10:22.61	24.04	27.99	
2025-01-10 00:10:22.82	24.05	28.02	
2025-01-10 00:10:23.03	24.06	28.06	
2025-01-10 00:10:23.23	24.07	28.10	
2025-01-10 00:10:23.43	24.08	28.13	
2025-01-10 00:10:23.64	24.09	28.17	
2025-01-10 00:10:23.84	24.10	28.20	
2025-01-10 00:10:24.05	24.11	28.24	
2025-01-10 00:10:24.25	24.12	28.28	
2025-01-10 00:10:24.46	24.13	28.31	
2025-01-10 00:10:24.67	24.14	28.35	
2025-01-10 00:10:24.87	24.15	28.39	
2025-01-10 00:10:25.08	24.16	28.42	
2025-01-10 00:10:25.28	24.17	28.46	
2025-01-10 00:10:25.49	24.18	28.50	
2025-01-10 00:10:25.69	24.19	28.53	
2025-01-10 00:10:25.90	24.20	28.57	
2025-01-10 00:10:26.11	24.21	28.61	
2025-01-10 00:10:26.31	24.22	28.64	
2025-01-10 00:10:26.51	24.23	28.68	
2025-01-10 00:10:26.72	24.24	28.72	
2025-01-10 00:10:26.92	24.25	28.75	
2025-01-10 00:10:27.13	24.26	28.79	
2025-01-10 00:10:27.33	24.27	28.83	
2025-01-10 00:10:27.54	24.28	28.86	
2025-01-10 00:10:27.74	24.29	28.90	
2025-01-10 00:10:27.95	24.30	28.94	
2025-01-10 00:10:28.15	24.31	28.97	
2025-01-10 00:10:28.36	24.32	29.01	
2025-01-10 00:10:28.56	24.33	29.05	
2025-01-10 00:10:28.76	24.34	29.08	
2025-01-10 00:10:28.97	24.35	29.12	
2025-01-10 00:10:29.18	24.36	29.16	
2025-01-10 00:10:29.38	24.38	29.20	
2025-01-10 00:10:29.59	24.39	29.24	
2025-01-10 00:10:29.79	24.40	29.27	
2025-01-10 00:10:30.00	24.41	29.31	
2025-01-10 00:10:30.20	24.42	29.35	
2025-01-10 00:10:30.41	24.43	29.39	
2025-01-10 00:10:30.61	24.44	29.42	
2025-01-10 00:10:30.82	24.45	29.46	
2025-01-10 00:10:31.02	24.46	29.50	
2025-01-10 00:10:31.23	24.47	29.54	
2025-01-10 00:10:31.44	24.48	29.58	
2025-01-10 00:10:31.64	24.49	29.61	
2025-01-10 00:10:31.84	24.50	29.65	
2025-01-10 00:10:32.05	24.51	29.69	
2025-01-10 00:10:32.26	24.53	29.73	
2025-01-10 00:10:32.46	24.54	29.77	
2025-01-10 00:10:32.67	24.55	29.81	
2025-01-10 00:10:32.89	24.56	29.85	
2025-01-10 00:10:33.09	24.57	29.88	
2025-01-10 00:10:33.30	24.58	29.92	
2025-01-10 00:10:33.50	24.59	29.96	
2025-01-10 00:10:33.71	24.60	30.00	
2025-01-10 00:10:33.91	24.61	30.04	
2025-01-10 00:10:34.12	24.63	30.08	
2025-01-10 00:10:34.32	24.64	30.12	
2025-01-10 00:10:34.53	24.65	30.16	
2025-01-10 00:10:34.74	24.66	30.19	
2025-01-10 00:10:34.94	24.67	30.23	
2025-01-10 00:10:35.14	24.68	30.27	
2025-01-10 00:10:35.35	24.69	30.31	
2025-01-10 00:10:35.56	24.70	30.35	
2025-01-10 00:10:35.76	24.72	30.39	
2025-01-10 00:10:35.96	24.73	30.43	
2025-01-10 00:10:36.17	24.74	30.47	
2025-01-10 00:10:36.38	24.75	30.51	
2025-01-10 00:10:36.58	24.76	30.54	
2025-01-10 00:10:36.79	24.77	30.59	
2025-01-10 00:10:36.99	24.78	30.62	
2025-01-10 00:10:37.19	24.79	30.66	
2025-01-10 00:10:37.40	24.81	30.70	
2025-01-10 00:10:37.60	24.82	30.74	
2025-01-10 00:10:37.81	24.83	30.78	
2025-01-10 00:10:38.02	24.84	30.82	
2025-01-10 00:10:38.22	24.85	30.86	
2025-01-10 00:10:38.42	24.86	30.90	
2025-01-10 00:10:38.63	24.88	30.94	
2025-01-10 00:10:38.83	24.89	30.98	
2025-01-10 00:10:39.04	24.90	31.02	
2025-01-10 00:10:39.24	24.91	31.06	
2025-01-10 00:10:39.45	24.92	31.10	
2025-01-10 00:10:39.65	24.93	31.14	
2025-01-10 00:10:39.86	24.95	31.18	
2025-01-10 00:10:40.07	24.96	31.22	
2025-01-10 00:10:40.27	24.97	31.26	
2025-01-10 00:10:40.48	24.98	31.30	
2025-01-10 00:10:40.68	24.99	31.34	
2025-01-10 00:10:40.89	25.01	31.38	
2025-01-10 00:10:41.09	25.02	31.42	
2025-01-10 00:10:41.30	25.03	31.46	
2025-01-10 00:10:41.50	25.04	31.50	
2025-01-10 00:10:41.71	25.05	31.54	
2025-01-10 00:10:41.91	25.07	31.58	
2025-01-10 00:10:42.12	25.08	31.63	
2025-01-10 00:10:42.32	25.09	31.67	
2025-01-10 00:10:42.53	25.10	31.71	
2025-01-10 00:10:42.73	25.11	31.75	
2025-01-10 00:10:42.94	25.13	31.79	
2025-01-10 00:10:43.14	25.14	31.83	
2025-01-10 00:10:43.35	25.15	31.87	
2025-01-10 00:10:43.55	25.16	31.91	
2025-01-10 00:10:43.76	25.18	31.95	
2025-01-10 00:10:43.96	25.19	31.99	
2025-01-10 00:10:44.17	25.20	32.04	
2025-01-10 00:10:44.38	25.21	32.08	
2025-01-10 00:10:44.58	25.23	32.12	
2025-01-10 00:10:44.79	25.24	32.16	
2025-01-10 00:10:44.99	25.25	32.20	
2025-01-10 00:10:45.20	25.26	32.24	
2025-01-10 00:10:45.40	25.28	32.28	
2025-01-10 00:10:45.61	25.29	32.33	
2025-01-10 00:10:45.82	25.30	32.37	
2025-01-10 00:10:46.02	25.31	32.41	
2025-01-10 00:10:46.22	25.33	32.45	
2025-01-10 00:10:46.43	25.34	32.49	
2025-01-10 00:10:46.63	25.35	32.53	
2025-01-10 00:10:46.84	25.37	32.58	
2025-01-10 00:10:47.05	25.38	32.62	
2025-01-10 00:10:47.25	25.39	32.66	
2025-01-10 00:10:47.46	25.40	32.70	
2025-01-10 00:10:47.66	25.42	32.75	
2025-01-10 00:10:47.87	25.43	32.79	
2025-01-10 00:10:48.07	25.44	32.83	
2025-01-10 00:10:48.28	25.46	32.87	
2025-01-10 00:10:48.49	25.47	32.92	
2025-01-10 00:10:48.69	25.48	32.96	
2025-01-10 00:10:48.90	25.50	33.00	
2025-01-10 00:10:49.10	25.51	33.04	
2025-01-10 00:10:49.31	25.52	33.09	
2025-01-10 00:10:49.51	25.54	33.13	
2025-01-10 00:10:49.72	25.55	33.17	
2025-01-10 00:10:49.92	25.56	33.22	
2025-01-10 00:10:50.13	25.58	33.26	
2025-01-10 00:10:50.34	25.59	33.30	
2025-01-10 00:10:50.54	25.60	33.35	
2025-01-10 00:10:50.75	25.62	33.39	
2025-01-10 00:10:50.95	25.63	33.43	
2025-01-10 00:10:51.16	25.64	33.48	
2025-01-10 00:10:51.36	25.66	33.52	
2025-01-10 00:10:51.57	25.67	33.56	
2025-01-10 00:10:51.77	25.68	33.60	
2025-01-10 00:10:51.98	25.70	33.65	
2025-01-10 00:10:52.18	25.71	33.69	
2025-01-10 00:10:52.39	25.72	33.74	
2025-01-10 00:10:52.60	25.74	33.78	
2025-01-10 00:10:52.80	25.75	33.82	
2025-01-10 00:10:53.01	25.77	33.87	
2025-01-10 00:10:53.22	25.78	33.91	
2025-01-10 00:10:53.43	25.79	33.96	
2025-01-10 00:10:53.64	25.81	34.00	
2025-01-10 00:10:53.84	25.82	34.05	
2025-01-10 00:10:54.05	25.84	34.09	
2025-01-10 00:10:54.25	25.85	34.13	
2025-01-10 00:10:54.46	25.86	34.18	
2025-01-10 00:10:54.66	25.88	34.22	
2025-01-10 00:10:54.87	25.89	34.27	
2025-01-10 00:10:55.07	25.91	34.31	
2025-01-10 00:10:55.28	25.92	34.36	
2025-01-10 00:10:55.48	25.94	34.40	
2025-01-10 00:10:55.69	25.95	34.45	
2025-01-10 00:10:55.89	25.96	34.49	
2025-01-10 00:10:56.10	25.98	34.54	
2025-01-10 00:10:56.30	25.99	34.58	
2025-01-10 00:10:56.51	26.01	34.63	
2025-01-10 00:10:56.71	26.02	34.67	
2025-01-10 00:10:56.92	26.04	34.72	
2025-01-10 00:10:57.12	26.05	34.76	
2025-01-10 00:10:57.33	26.07	34.81	
2025-01-10 00:10:57.53	26.08	34.85	
2025-01-10 00:10:57.74	26.09	34.90	
2025-01-10 00:10:57.95	26.11	34.94	
2025-01-10 00:10:58.15	26.12	34.99	
2025-01-10 00:10:58.36	26.14	35.03	
2025-01-10 00:10:58.56	26.15	35.08	
2025-01-10 00:10:58.77	26.17	35.12	
2025-01-10 00:10:58.97	26.18	35.17	
2025-01-10 00:10:59.18	26.20	35.22	
2025-01-10 00:10:59.38	26.21	35.26	
2025-01-10 00:10:59.60	26.23	35.31	
2025-01-10 00:10:59.81	26.24	35.36	
2025-01-10 00:11:00.01	26.26	35.40	
2025-01-10 00:11:00.22	26.27	35.45	
2025-01-10 00:11:00.42	26.29	35.49	
2025-01-10 00:11:00.63	26.30	35.54	
2025-01-10 00:11:00.84	26.32	35.59	
2025-01-10 00:11:01.04	26.34	35.63	
2025-01-10 00:11:01.24	26.35	35.68	
2025-01-10 00:11:01.45	26.37	35.72	
2025-01-10 00:11:01.65	26.38	35.77	
2025-01-10 00:11:01.86	26.40	35.82	
2025-01-10 00:11:02.07	26.41	35.87	
2025-01-10 00:11:02.27	26.43	35.91	
2025-01-10 00:11:02.48	26.44	35.96	
2025-01-10 00:11:02.68	26.46	36.00	
2025-01-10 00:11:02.89	26.47	36.05	
2025-01-10 00:11:03.09	26.49	36.10	
2025-01-10 00:11:03.30	26.51	36.15	
2025-01-10 00:11:03.50	26.52	36.19	
2025-01-10 00:11:03.71	26.54	36.24	
2025-01-10 00:11:03.91	26.55	36.29	
2025-01-10 00:11:04.12	26.57	36.33	
2025-01-10 00:11:04.32	26.59	36.38	
2025-01-10 00:11:04.53	26.60	36.43	
2025-01-10 00:11:04.73	26.62	36.48	
2025-01-10 00:11:04.93	26.63	36.52	
2025-01-10 00:11:05.14	26.65	36.57	
2025-01-10 00:11:05.34	26.67	36.62	
2025-01-10 00:11:05.55	26.68	36.67	
2025-01-10 00:11:05.75	26.70	36.71	
2025-01-10 00:11:05.96	26.71	36.76	
2025-01-10 00:11:06.16	26.73	36.81	
2025-01-10 00:11:06.37	26.75	36.86	
2025-01-10 00:11:06.57	26.76	36.90	
2025-01-10 00:11:06.78	26.78	36.95	
2025-01-10 00:11:07.00	26.80	37.01	
2025-01-10 00:11:07.20	26.81	37.05	
2025-01-10 00:11:07.41	26.83	37.10	
2025-01-10 00:11:07.61	26.85	37.15	
2025-01-10 00:11:07.82	26.86	37.20	
2025-01-10 00:11:08.04	26.88	37.25	
2025-01-10 00:11:08.24	26.90	37.30	
2025-01-10 00:11:08.45	26.92	37.35	
2025-01-10 00:11:08.66	26.93	37.40	
2025-01-10 00:11:08.86	26.95	37.45	
2025-01-10 00:11:09.08	26.97	37.50	
2025-01-10 00:11:09.28	26.99	37.55	
2025-01-10 00:11:09.49	27.00	37.60	
2025-01-10 00:11:09.70	27.02	37.65	
2025-01-10 00:11:09.90	27.04	37.69	
2025-01-10 00:11:10.11	27.05	37.74	
2025-01-10 00:11:10.31	27.07	37.79	
2025-01-10 00:11:10.51	27.09	37.84	
2025-01-10 00:11:10.72	27.11	37.89	
2025-01-10 00:11:10.92	27.12	37.94	
2025-01-10 00:11:11.13	27.14	37.99	
2025-01-10 00:11:11.35	27.16	38.04	
2025-01-10 00:11:11.56	27.18	38.09	
2025-01-10 00:11:11.76	27.20	38.14	
2025-01-10 00:11:11.97	27.21	38.19	
2025-01-10 00:11:12.18	27.23	38.25	
2025-01-10 00:11:12.38	27.25	38.29	
2025-01-10 00:11:12.59	27.27	38.35	
2025-01-10 00:11:12.79	27.29	38.39	
2025-01-10 00:11:13.00	27.30	38.45	
2025-01-10 00:11:13.20	27.32	38.50	
2025-01-10 00:11:13.41	27.34	38.55	
2025-01-10 00:11:13.61	27.36	38.60	
2025-01-10 00:11:13.82	27.38	38.65	
2025-01-10 00:11:14.03	27.39	38.70	
2025-01-10 00:11:14.23	27.41	38.75	
2025-01-10 00:11:14.44	27.43	38.80	
2025-01-10 00:11:14.64	27.45	38.85	
2025-01-10 00:11:14.85	27.47	38.90	
2025-01-10 00:11:15.05	27.49	38.95	
2025-01-10 00:11:15.26	27.51	39.00	
2025-01-10 00:11:15.46	27.52	39.05	
2025-01-10 00:11:15.67	27.54	39.11	
2025-01-10 00:11:15.87	27.56	39.16	
2025-01-10 00:11:16.08	27.58	39.21	
2025-01-10 00:11:16.29	27.60	39.26	
2025-01-10 00:11:16.49	27.62	39.31	
2025-01-10 00:11:16.69	27.64	39.36	
2025-01-10 00:11:16.90	27.66	39.42	
2025-01-10 00:11:17.10	27.67	39.47	
2025-01-10 00:11:17.31	27.69	39.52	
2025-01-10 00:11:17.51	27.71	39.57	
2025-01-10 00:11:17.72	27.73	39.62	
2025-01-10 00:11:17.92	27.75	39.67	
2025-01-10 00:11:18.13	27.77	39.73	
2025-01-10 00:11:18.33	27.79	39.78	
2025-01-10 00:11:18.54	27.81	39.83	
2025-01-10 00:11:18.76	27.83	39.89	
2025-01-10 00:11:18.96	27.85	39.94	
2025-01-10 00:11:19.17	27.87	39.99	
2025-01-10 00:11:19.38	27.89	40.05	
2025-01-10 00:11:19.58	27.91	40.10	
2025-01-10 00:11:19.78	27.93	40.15	
2025-01-10 00:11:19.99	27.95	40.20	
2025-01-10 00:11:20.20	27.97	40.26	
2025-01-10 00:11:20.40	27.99	40.31	
2025-01-10 00:11:20.61	28.01	40.36	
2025-01-10 00:11:20.81	28.03	40.41	
2025-01-10 00:11:21.02	28.05	40.47	
2025-01-10 00:11:21.22	28.07	40.52	
2025-01-10 00:11:21.43	28.09	40.58	
2025-01-10 00:11:21.64	28.11	40.63	
2025-01-10 00:11:21.84	28.13	40.68	
2025-01-10 00:11:22.04	28.15	40.73	
2025-01-10 00:11:22.25	28.17	40.79	
2025-01-10 00:11:22.45	28.19	40.84	
2025-01-10 00:11:22.66	28.22	40.90	
2025-01-10 00:11:22.87	28.24	40.95	
2025-01-10 00:11:23.07	28.26	41.00	
2025-01-10 00:11:23.28	28.28	41.06	
2025-01-10 00:11:23.48	28.30	41.11	
2025-01-10 00:11:23.69	28.32	41.17	
2025-01-10 00:11:23.89	28.34	41.22	
2025-01-10 00:11:24.09	28.36	41.27	
2025-01-10 00:11:24.30	28.38	41.33	
2025-01-10 00:11:24.51	28.41	41.39	
2025-01-10 00:11:24.71	28.43	41.44	
2025-01-10 00:11:24.92	28.45	41.49	
2025-01-10 00:11:25.12	28.47	41.55	
2025-01-10 00:11:25.33	28.49	41.60	
2025-01-10 00:11:25.53	28.51	41.66	
2025-01-10 00:11:25.74	28.54	41.71	
2025-01-10 00:11:25.95	28.56	41.77	
2025-01-10 00:11:26.15	28.58	41.82	
2025-01-10 00:11:26.36	28.60	41.88	
2025-01-10 00:11:26.56	28.62	41.93	
2025-01-10 00:11:26.77	28.65	41.99	
2025-01-10 00:11:26.97	28.67	42.04	
2025-01-10 00:11:27.18	28.69	42.10	
2025-01-10 00:11:27.38	28.71	42.16	
2025-01-10 00:11:27.59	28.74	42.21	
2025-01-10 00:11:27.79	28.76	42.27	
2025-01-10 00:11:28.00	28.78	42.32	
2025-01-10 00:11:28.20	28.80	42.38	
2025-01-10 00:11:28.41	28.83	42.44	
2025-01-10 00:11:28.61	28.85	42.49	
2025-01-10 00:11:28.82	28.87	42.55	
2025-01-10 00:11:29.03	28.90	42.61	
2025-01-10 00:11:29.23	28.92	42.66	
2025-01-10 00:11:29.44	28.94	42.72	
2025-01-10 00:11:29.64	28.97	42.77	
2025-01-10 00:11:29.85	28.99	42.83	
2025-01-10 00:11:30.05	29.01	42.89	
2025-01-10 00:11:30.26	29.04	42.94	
2025-01-10 00:11:30.46	29.06	43.00	
2025-01-10 00:11:30.67	29.08	43.06	
2025-01-10 00:11:30.87	29.11	43.11	
2025-01-10 00:11:31.08	29.13	43.17	
2025-01-10 00:11:31.29	29.16	43.23	
2025-01-10 00:11:31.49	29.18	43.29	
2025-01-10 00:11:31.69	29.20	43.34	
2025-01-10 00:11:31.90	29.23	43.40	
2025-01-10 00:11:32.11	29.25	43.46	
2025-01-10 00:11:32.31	29.28	43.51	
2025-01-10 00:11:32.52	29.30	43.57	
2025-01-10 00:11:32.72	29.32	43.63	
2025-01-10 00:11:32.93	29.35	43.69	
2025-01-10 00:11:33.14	29.37	43.75	
2025-01-10 00:11:33.34	29.40	43.80	
2025-01-10 00:11:33.55	29.42	43.86	
2025-01-10 00:11:33.75	29.45	43.92	
2025-01-10 00:11:33.96	29.47	43.98	
2025-01-10 00:11:34.16	29.50	44.04	
2025-01-10 00:11:34.37	29.52	44.10	
2025-01-10 00:11:34.57	29.55	44.15	
2025-01-10 00:11:34.78	29.58	44.21	
2025-01-10 00:11:34.98	29.60	44.27	
2025-01-10 00:11:35.19	29.63	44.33	
2025-01-10 00:11:35.39	29.65	44.39	
2025-01-10 00:11:35.60	29.68	44.45	
2025-01-10 00:11:35.80	29.70	44.51	
2025-01-10 00:11:36.01	29.73	44.57	
2025-01-10 00:11:36.21	29.75	44.62	
2025-01-10 00:11:36.42	29.78	44.68	
2025-01-10 00:11:36.62	29.81	44.74	
2025-01-10 00:11:36.83	29.83	44.80	
2025-01-10 00:11:37.04	29.86	44.86	
2025-01-10 00:11:37.24	29.89	44.92	
2025-01-10 00:11:37.44	29.91	44.98	
2025-01-10 00:11:37.65	29.94	45.04	
2025-01-10 00:11:37.86	29.97	45.10	
2025-01-10 00:11:38.06	29.99	45.16	
2025-01-10 00:11:38.27	30.02	45.22	
2025-01-10 00:11:38.47	30.05	45.28	
2025-01-10 00:11:38.68	30.08	45.34	
2025-01-10 00:11:38.89	30.10	45.40	
2025-01-10 00:11:39.09	30.13	45.46	
2025-01-10 00:11:39.30	30.16	45.52	
2025-01-10 00:11:39.50	30.18	45.58	
2025-01-10 00:11:39.71	30.21	45.64	
2025-01-10 00:11:39.91	30.24	45.70	
2025-01-10 00:11:40.12	30.27	45.77	
2025-01-10 00:11:40.32	30.30	45.82	
2025-01-10 00:11:40.53	30.32	45.89	
2025-01-10 00:11:40.74	30.35	45.95	
2025-01-10 00:11:40.94	30.38	46.01	
2025-01-10 00:11:41.15	30.41	46.07	
2025-01-10 00:11:41.35	30.44	46.13	
2025-01-10 00:11:41.56	30.47	46.19	
2025-01-10 00:11:41.76	30.50	46.25	
2025-01-10 00:11:41.97	30.53	46.32	
2025-01-10 00:11:42.17	30.55	46.38	
2025-01-10 00:11:42.38	30.58	46.44	
2025-01-10 00:11:42.58	30.61	46.50	
2025-01-10 00:11:42.79	30.64	46.56	
2025-01-10 00:11:42.99	30.67	46.62	
2025-01-10 00:11:43.20	30.70	46.69	
2025-01-10 00:11:43.40	30.73	46.75	
2025-01-10 00:11:43.61	30.76	46.81	
2025-01-10 00:11:43.81	30.79	46.87	
2025-01-10 00:11:44.02	30.82	46.93	
2025-01-10 00:11:44.22	30.85	47.00	
2025-01-10 00:11:44.43	30.88	47.06	
2025-01-10 00:11:44.63	30.91	47.12	
2025-01-10 00:11:44.84	30.94	47.18	
2025-01-10 00:11:45.04	30.97	47.25	
2025-01-10 00:11:45.25	31.00	47.31	
2025-01-10 00:11:45.45	31.03	47.37	
2025-01-10 00:11:45.66	31.06	47.44	
2025-01-10 00:11:45.87	31.10	47.50	
2025-01-10 00:11:46.07	31.13	47.56	
2025-01-10 00:11:46.28	31.16	47.63	
2025-01-10 00:11:46.48	31.19	47.69	
2025-01-10 00:11:46.69	31.22	47.75	
2025-01-10 00:11:46.89	31.25	47.81	
2025-01-10 00:11:47.10	31.28	47.88	
2025-01-10 00:11:47.31	31.32	47.94	
2025-01-10 00:11:47.51	31.35	48.01	
2025-01-10 00:11:47.73	31.38	48.07	
2025-01-10 00:11:47.94	31.42	48.14	
2025-01-10 00:11:48.14	31.45	48.20	
2025-01-10 00:11:48.35	31.48	48.27	
2025-01-10 00:11:48.55	31.51	48.33	
2025-01-10 00:11:48.76	31.55	48.40	
2025-01-10 00:11:48.96	31.58	48.46	
2025-01-10 00:11:49.17	31.61	48.53	
2025-01-10 00:11:49.37	31.64	48.59	
2025-01-10 00:11:49.58	31.68	48.65	
2025-01-10 00:11:49.78	31.71	48.72	
2025-01-10 00:11:49.98	31.74	48.78	
2025-01-10 00:11:50.19	31.78	48.85	
2025-01-10 00:11:50.40	31.81	48.91	
2025-01-10 00:11:50.60	31.85	48.98	
2025-01-10 00:11:50.81	31.88	49.04	
2025-01-10 00:11:51.01	31.92	49.11	
2025-01-10 00:11:51.22	31.95	49.17	
2025-01-10 00:11:51.42	31.98	49.24	
2025-01-10 00:11:51.62	32.02	49.30	
2025-01-10 00:11:51.83	32.05	49.37	
2025-01-10 00:11:52.03	32.09	49.43	
2025-01-10 00:11:52.24	32.12	49.50	
2025-01-10 00:11:52.45	32.16	49.57	
2025-01-10 00:11:52.65	32.20	49.63	
2025-01-10 00:11:52.86	32.23	49.70	
2025-01-10 00:11:53.07	32.27	49.77	
2025-01-10 00:11:53.28	32.31	49.83	
2025-01-10 00:11:53.49	32.34	49.90	
2025-01-10 00:11:53.69	32.38	49.97	
2025-01-10 00:11:53.90	32.42	50.03	
2025-01-10 00:11:54.12	32.45	50.11	
2025-01-10 00:11:54.32	32.49	50.17	
2025-01-10 00:11:54.53	32.53	50.24	
2025-01-10 00:11:54.73	32.56	50.30	
2025-01-10 00:11:54.94	32.60	50.37	
2025-01-10 00:11:55.15	32.64	50.44	
2025-01-10 00:11:55.35	32.68	50.51	
2025-01-10 00:11:55.56	32.72	50.57	
2025-01-10 00:11:55.76	32.75	50.64	
2025-01-10 00:11:55.97	32.79	50.71	
2025-01-10 00:11:56.17	32.83	50.77	
2025-01-10 00:11:56.38	32.87	50.84	
2025-01-10 00:11:56.58	32.91	50.91	
2025-01-10 00:11:56.79	32.95	50.98	
2025-01-10 00:11:57.00	32.99	51.05	
2025-01-10 00:11:57.20	33.02	51.11	
2025-01-10 00:11:57.40	33.06	51.18	
2025-01-10 00:11:57.61	33.10	51.25	
2025-01-10 00:11:57.81	33.14	51.32	
2025-01-10 00:11:58.02	33.18	51.38	
2025-01-10 00:11:58.22	33.22	51.45	
2025-01-10 00:11:58.43	33.26	51.52	
2025-01-10 00:11:58.63	33.30	51.59	
2025-01-10 00:11:58.84	33.34	51.66	
2025-01-10 00:11:59.04	33.38	51.72	
2025-01-10 00:11:59.25	33.42	51.79	
2025-01-10 00:11:59.45	33.46	51.86	
2025-01-10 00:11:59.66	33.51	51.93	
2025-01-10 00:11:59.86	33.55	52.00	
2025-01-10 00:12:00.07	33.59	52.07	
2025-01-10 00:12:00.27	33.63	52.14	
2025-01-10 00:12:00.47	33.67	52.20	
2025-01-10 00:12:00.68	33.71	52.28	
2025-01-10 00:12:00.88	33.76	52.34	
2025-01-10 00:12:01.09	33.80	52.41	
2025-01-10 00:12:01.30	33.84	52.48	
2025-01-10 00:12:01.50	33.89	52.55	
2025-01-10 00:12:01.70	33.93	52.62	
2025-01-10 00:12:01.91	33.97	52.69	
2025-01-10 00:12:02.12	34.02	52.76	
2025-01-10 00:12:02.32	34.06	52.83	
2025-01-10 00:12:02.52	34.10	52.90	
2025-01-10 00:12:02.73	34.15	52.97	
2025-01-10 00:12:02.93	34.19	53.04	
2025-01-10 00:12:03.14	34.24	53.11	
2025-01-10 00:12:03.35	34.28	53.18	
2025-01-10 00:12:03.55	34.33	53.25	
2025-01-10 00:12:03.76	34.37	53.32	
2025-01-10 00:12:03.96	34.42	53.39	
2025-01-10 00:12:04.17	34.46	53.46	
2025-01-10 00:12:04.38	34.51	53.54	
2025-01-10 00:12:04.58	34.56	53.61	
2025-01-10 00:12:04.80	34.61	53.68	
2025-01-10 00:12:05.01	34.65	53.75	
2025-01-10 00:12:05.22	34.70	53.83	
2025-01-10 00:12:05.43	34.75	53.90	
2025-01-10 00:12:05.63	34.80	53.97	
2025-01-10 00:12:05.84	34.84	54.04	
2025-01-10 00:12:06.04	34.89	54.11	
2025-01-10 00:12:06.25	34.94	54.18	
2025-01-10 00:12:06.45	34.99	54.25	
2025-01-10 00:12:06.66	35.04	54.33	
2025-01-10 00:12:06.87	35.09	54.40	
2025-01-10 00:12:07.08	35.14	54.47	
2025-01-10 00:12:07.29	35.19	54.55	
2025-01-10 00:12:07.49	35.24	54.62	
2025-01-10 00:12:07.70	35.29	54.69	
2025-01-10 00:12:07.90	35.33	54.76	
2025-01-10 00:12:08.11	35.39	54.84	
2025-01-10 00:12:08.32	35.44	54.91	
2025-01-10 00:12:08.52	35.49	54.98	
2025-01-10 00:12:08.73	35.54	55.05	
2025-01-10 00:12:08.93	35.59	55.12	
2025-01-10 00:12:09.13	35.64	55.20	
2025-01-10 00:12:09.34	35.69	55.27	
2025-01-10 00:12:09.54	35.74	55.34	
2025-01-10 00:12:09.75	35.80	55.42	
2025-01-10 00:12:09.96	35.85	55.49	
2025-01-10 00:12:10.16	35.90	55.56	
2025-01-10 00:12:10.37	35.96	55.64	
2025-01-10 00:12:10.57	36.01	55.71	
2025-01-10 00:12:10.78	36.06	55.78	
2025-01-10 00:12:10.98	36.12	55.85	
2025-01-10 00:12:11.19	36.17	55.93	
2025-01-10 00:12:11.39	36.22	56.00	
2025-01-10 00:12:11.60	36.28	56.07	
2025-01-10 00:12:11.81	36.34	56.15	
2025-01-10 00:12:12.01	36.39	56.22	
2025-01-10 00:12:12.21	36.44	56.29	
2025-01-10 00:12:12.42	36.50	56.37	
2025-01-10 00:12:12.62	36.56	56.44	
2025-01-10 00:12:12.83	36.61	56.52	
2025-01-10 00:12:13.03	36.67	56.59	
2025-01-10 00:12:13.24	36.73	56.66	
2025-01-10 00:12:13.44	36.78	56.74	
2025-01-10 00:12:13.65	36.84	56.81	
2025-01-10 00:12:13.86	36.90	56.89	
2025-01-10 00:12:14.06	36.96	56.96	
2025-01-10 00:12:14.27	37.02	57.04	
2025-01-10 00:12:14.47	37.08	57.11	
2025-01-10 00:12:14.68	37.14	57.19	
2025-01-10 00:12:14.88	37.20	57.26	
2025-01-10 00:12:15.09	37.26	57.33	
2025-01-10 00:12:15.29	37.32	57.41	
2025-01-10 00:12:15.50	37.38	57.48	
2025-01-10 00:12:15.70	37.44	57.56	
2025-01-10 00:12:15.91	37.50	57.63	
2025-01-10 00:12:16.11	37.56	57.71	
2025-01-10 00:12:16.32	37.62	57.78	
2025-01-10 00:12:16.52	37.68	57.86	
2025-01-10 00:12:16.73	37.75	57.93	
2025-01-10 00:12:16.93	37.81	58.01	
2025-01-10 00:12:17.14	37.87	58.08	
2025-01-10 00:12:17.35	37.94	58.16	
2025-01-10 00:12:17.55	38.00	58.23	
2025-01-10 00:12:17.76	38.07	58.31	
2025-01-10 00:12:17.96	38.13	58.39	
2025-01-10 00:12:18.17	38.20	58.46	
2025-01-10 00:12:18.37	38.26	58.54	
2025-01-10 00:12:18.57	38.33	58.61	
2025-01-10 00:12:18.78	38.39	58.69	
2025-01-10 00:12:18.99	38.46	58.77	
2025-01-10 00:12:19.19	38.53	58.84	
2025-01-10 00:12:19.40	38.60	58.92	
