passes_logs/2025/01/10/SPB_Silybum_02/SPB_Silybum_02__20250110_234747_SUOMI_NPP_rec.log

#Pass ID: 20250110_234747_SUOMI NPP
#Satellite: SUOMI NPP
#Configuration: NPP
#Start time: 2025-01-10 23:47:46

#Version: 2.0.20230423
#Station: SPB_Silybum_02
#Location: 30.233357 lon 59.946436 lat
#TLE: 1 37849U 11061A   25009.91542277  .00000197  00000+0  11407-3 0  9995
#TLE: 2 37849  98.7440 310.9686 0001842  48.7836 311.3498 14.19535939684207

#Time	Az	El	Level	Level2	SNR	BER	Gain	Gain2
2025-01-10 23:47:48.72	19.82	4.07	
2025-01-10 23:47:48.93	19.82	4.09	
2025-01-10 23:47:49.14	19.83	4.10	
2025-01-10 23:47:49.35	19.84	4.11	
2025-01-10 23:47:49.56	19.84	4.13	
2025-01-10 23:47:49.76	19.85	4.14	
2025-01-10 23:47:49.97	19.85	4.16	
2025-01-10 23:47:50.17	19.86	4.17	
2025-01-10 23:47:50.38	19.86	4.18	
2025-01-10 23:47:50.58	19.87	4.20	
2025-01-10 23:47:50.79	19.88	4.21	
2025-01-10 23:47:50.99	19.88	4.23	
2025-01-10 23:47:51.20	19.89	4.24	
2025-01-10 23:47:51.40	19.89	4.25	
2025-01-10 23:47:51.61	19.90	4.27	
2025-01-10 23:47:51.81	19.90	4.28	
2025-01-10 23:47:52.02	19.91	4.30	
2025-01-10 23:47:52.22	19.92	4.31	
2025-01-10 23:47:52.43	19.92	4.32	
2025-01-10 23:47:52.63	19.93	4.34	
2025-01-10 23:47:52.84	19.93	4.35	
2025-01-10 23:47:53.04	19.94	4.37	
2025-01-10 23:47:53.25	19.94	4.38	
2025-01-10 23:47:53.45	19.95	4.39	
2025-01-10 23:47:53.66	19.96	4.41	
2025-01-10 23:47:53.86	19.96	4.42	
2025-01-10 23:47:54.07	19.97	4.44	
2025-01-10 23:47:54.27	19.97	4.45	
2025-01-10 23:47:54.49	19.98	4.46	
2025-01-10 23:47:54.70	19.98	4.48	
2025-01-10 23:47:54.90	19.99	4.49	
2025-01-10 23:47:55.11	20.00	4.51	
2025-01-10 23:47:55.31	20.00	4.52	
2025-01-10 23:47:55.53	20.01	4.54	
2025-01-10 23:47:55.73	20.01	4.55	
2025-01-10 23:47:55.94	20.02	4.56	
2025-01-10 23:47:56.14	20.03	4.58	
2025-01-10 23:47:56.35	20.03	4.59	
2025-01-10 23:47:56.55	20.04	4.61	
2025-01-10 23:47:56.76	20.04	4.62	
2025-01-10 23:47:56.96	20.05	4.63	
2025-01-10 23:47:57.17	20.05	4.65	
2025-01-10 23:47:57.37	20.06	4.66	
2025-01-10 23:47:57.59	20.07	4.68	
2025-01-10 23:47:57.79	20.07	4.69	
2025-01-10 23:47:58.00	20.08	4.71	
2025-01-10 23:47:58.20	20.08	4.72	
2025-01-10 23:47:58.41	20.09	4.73	
2025-01-10 23:47:58.61	20.10	4.75	
2025-01-10 23:47:58.82	20.10	4.76	
2025-01-10 23:47:59.02	20.11	4.78	
2025-01-10 23:47:59.23	20.11	4.79	
2025-01-10 23:47:59.43	20.12	4.80	
2025-01-10 23:47:59.64	20.13	4.82	
2025-01-10 23:47:59.84	20.13	4.83	
2025-01-10 23:48:00.05	20.14	4.85	
2025-01-10 23:48:00.25	20.14	4.86	
2025-01-10 23:48:00.46	20.15	4.88	
2025-01-10 23:48:00.66	20.15	4.89	
2025-01-10 23:48:00.86	20.16	4.90	
2025-01-10 23:48:01.07	20.17	4.92	
2025-01-10 23:48:01.28	20.17	4.93	
2025-01-10 23:48:01.48	20.18	4.95	
2025-01-10 23:48:01.69	20.18	4.96	
2025-01-10 23:48:01.89	20.19	4.98	
2025-01-10 23:48:02.10	20.20	4.99	
2025-01-10 23:48:02.30	20.20	5.00	
2025-01-10 23:48:02.51	20.21	5.02	
2025-01-10 23:48:02.71	20.21	5.03	
2025-01-10 23:48:02.91	20.22	5.05	
2025-01-10 23:48:03.12	20.23	5.06	
2025-01-10 23:48:03.33	20.23	5.08	
2025-01-10 23:48:03.53	20.24	5.09	
2025-01-10 23:48:03.74	20.24	5.10	
2025-01-10 23:48:03.94	20.25	5.12	
2025-01-10 23:48:04.14	20.26	5.13	
2025-01-10 23:48:04.35	20.26	5.15	
2025-01-10 23:48:04.55	20.27	5.16	
2025-01-10 23:48:04.76	20.27	5.18	
2025-01-10 23:48:04.96	20.28	5.19	
2025-01-10 23:48:05.17	20.29	5.21	
2025-01-10 23:48:05.37	20.29	5.22	
2025-01-10 23:48:05.58	20.30	5.23	
2025-01-10 23:48:05.78	20.30	5.25	
2025-01-10 23:48:05.99	20.31	5.26	
2025-01-10 23:48:06.19	20.32	5.28	
2025-01-10 23:48:06.40	20.32	5.29	
2025-01-10 23:48:06.60	20.33	5.31	
2025-01-10 23:48:06.81	20.33	5.32	
2025-01-10 23:48:07.01	20.34	5.33	
2025-01-10 23:48:07.22	20.35	5.35	
2025-01-10 23:48:07.42	20.35	5.36	
2025-01-10 23:48:07.63	20.36	5.38	
2025-01-10 23:48:07.83	20.37	5.39	
2025-01-10 23:48:08.04	20.37	5.41	
2025-01-10 23:48:08.24	20.38	5.42	
2025-01-10 23:48:08.44	20.38	5.44	
2025-01-10 23:48:08.65	20.39	5.45	
2025-01-10 23:48:08.85	20.40	5.47	
2025-01-10 23:48:09.06	20.40	5.48	
2025-01-10 23:48:09.26	20.41	5.49	
2025-01-10 23:48:09.47	20.41	5.51	
2025-01-10 23:48:09.67	20.42	5.52	
2025-01-10 23:48:09.88	20.43	5.54	
2025-01-10 23:48:10.08	20.43	5.55	
2025-01-10 23:48:10.29	20.44	5.57	
2025-01-10 23:48:10.49	20.44	5.58	
2025-01-10 23:48:10.70	20.45	5.60	
2025-01-10 23:48:10.90	20.46	5.61	
2025-01-10 23:48:11.11	20.46	5.63	
2025-01-10 23:48:11.31	20.47	5.64	
2025-01-10 23:48:11.52	20.48	5.66	
2025-01-10 23:48:11.72	20.48	5.67	
2025-01-10 23:48:11.93	20.49	5.68	
2025-01-10 23:48:12.13	20.49	5.70	
2025-01-10 23:48:12.34	20.50	5.71	
2025-01-10 23:48:12.54	20.51	5.73	
2025-01-10 23:48:12.75	20.51	5.74	
2025-01-10 23:48:12.95	20.52	5.76	
2025-01-10 23:48:13.16	20.53	5.77	
2025-01-10 23:48:13.37	20.53	5.79	
2025-01-10 23:48:13.57	20.54	5.80	
2025-01-10 23:48:13.77	20.54	5.82	
2025-01-10 23:48:13.98	20.55	5.83	
2025-01-10 23:48:14.18	20.56	5.85	
2025-01-10 23:48:14.39	20.56	5.86	
2025-01-10 23:48:14.59	20.57	5.88	
2025-01-10 23:48:14.80	20.58	5.89	
2025-01-10 23:48:15.00	20.58	5.91	
2025-01-10 23:48:15.20	20.59	5.92	
2025-01-10 23:48:15.41	20.59	5.93	
2025-01-10 23:48:15.62	20.60	5.95	
2025-01-10 23:48:15.82	20.61	5.96	
2025-01-10 23:48:16.03	20.61	5.98	
2025-01-10 23:48:16.23	20.62	5.99	
2025-01-10 23:48:16.44	20.63	6.01	
2025-01-10 23:48:16.64	20.63	6.02	
2025-01-10 23:48:16.84	20.64	6.04	
2025-01-10 23:48:17.05	20.64	6.05	
2025-01-10 23:48:17.26	20.65	6.07	
2025-01-10 23:48:17.46	20.66	6.08	
2025-01-10 23:48:17.67	20.66	6.10	
2025-01-10 23:48:17.87	20.67	6.11	
2025-01-10 23:48:18.08	20.68	6.13	
2025-01-10 23:48:18.28	20.68	6.14	
2025-01-10 23:48:18.49	20.69	6.16	
2025-01-10 23:48:18.69	20.70	6.17	
2025-01-10 23:48:18.89	20.70	6.19	
2025-01-10 23:48:19.10	20.71	6.20	
2025-01-10 23:48:19.30	20.71	6.22	
2025-01-10 23:48:19.51	20.72	6.23	
2025-01-10 23:48:19.72	20.73	6.25	
2025-01-10 23:48:19.92	20.73	6.26	
2025-01-10 23:48:20.13	20.74	6.28	
2025-01-10 23:48:20.33	20.75	6.29	
2025-01-10 23:48:20.54	20.75	6.31	
2025-01-10 23:48:20.74	20.76	6.32	
2025-01-10 23:48:20.95	20.77	6.34	
2025-01-10 23:48:21.16	20.77	6.35	
2025-01-10 23:48:21.37	20.78	6.37	
2025-01-10 23:48:21.58	20.79	6.38	
2025-01-10 23:48:21.78	20.79	6.40	
2025-01-10 23:48:21.99	20.80	6.41	
2025-01-10 23:48:22.19	20.81	6.43	
2025-01-10 23:48:22.39	20.81	6.44	
2025-01-10 23:48:22.60	20.82	6.46	
2025-01-10 23:48:22.81	20.82	6.47	
2025-01-10 23:48:23.01	20.83	6.49	
2025-01-10 23:48:23.23	20.84	6.51	
2025-01-10 23:48:23.43	20.84	6.52	
2025-01-10 23:48:23.64	20.85	6.54	
2025-01-10 23:48:23.84	20.86	6.55	
2025-01-10 23:48:24.05	20.86	6.57	
2025-01-10 23:48:24.25	20.87	6.58	
2025-01-10 23:48:24.46	20.88	6.60	
2025-01-10 23:48:24.66	20.88	6.61	
2025-01-10 23:48:24.87	20.89	6.63	
2025-01-10 23:48:25.07	20.90	6.64	
2025-01-10 23:48:25.28	20.90	6.66	
2025-01-10 23:48:25.48	20.91	6.67	
2025-01-10 23:48:25.69	20.92	6.69	
2025-01-10 23:48:25.89	20.92	6.70	
2025-01-10 23:48:26.10	20.93	6.72	
2025-01-10 23:48:26.30	20.94	6.73	
2025-01-10 23:48:26.52	20.94	6.75	
2025-01-10 23:48:26.72	20.95	6.76	
2025-01-10 23:48:26.93	20.96	6.78	
2025-01-10 23:48:27.14	20.96	6.80	
2025-01-10 23:48:27.34	20.97	6.81	
2025-01-10 23:48:27.55	20.98	6.83	
2025-01-10 23:48:27.75	20.98	6.84	
2025-01-10 23:48:27.96	20.99	6.86	
2025-01-10 23:48:28.16	21.00	6.87	
2025-01-10 23:48:28.37	21.00	6.89	
2025-01-10 23:48:28.58	21.01	6.90	
2025-01-10 23:48:28.79	21.02	6.92	
2025-01-10 23:48:28.99	21.02	6.93	
2025-01-10 23:48:29.20	21.03	6.95	
2025-01-10 23:48:29.40	21.04	6.96	
2025-01-10 23:48:29.61	21.04	6.98	
2025-01-10 23:48:29.81	21.05	7.00	
2025-01-10 23:48:30.02	21.06	7.01	
2025-01-10 23:48:30.22	21.06	7.03	
2025-01-10 23:48:30.43	21.07	7.04	
2025-01-10 23:48:30.63	21.08	7.06	
2025-01-10 23:48:30.84	21.08	7.07	
2025-01-10 23:48:31.04	21.09	7.09	
2025-01-10 23:48:31.25	21.10	7.10	
2025-01-10 23:48:31.45	21.10	7.12	
2025-01-10 23:48:31.67	21.11	7.14	
2025-01-10 23:48:31.87	21.12	7.15	
2025-01-10 23:48:32.08	21.12	7.17	
2025-01-10 23:48:32.29	21.13	7.18	
2025-01-10 23:48:32.49	21.14	7.20	
2025-01-10 23:48:32.69	21.14	7.21	
2025-01-10 23:48:32.90	21.15	7.23	
2025-01-10 23:48:33.11	21.16	7.24	
2025-01-10 23:48:33.31	21.17	7.26	
2025-01-10 23:48:33.52	21.17	7.28	
2025-01-10 23:48:33.73	21.18	7.29	
2025-01-10 23:48:33.93	21.19	7.31	
2025-01-10 23:48:34.13	21.19	7.32	
2025-01-10 23:48:34.34	21.20	7.34	
2025-01-10 23:48:34.54	21.21	7.35	
2025-01-10 23:48:34.75	21.21	7.37	
2025-01-10 23:48:34.95	21.22	7.38	
2025-01-10 23:48:35.16	21.23	7.40	
2025-01-10 23:48:35.37	21.23	7.42	
2025-01-10 23:48:35.57	21.24	7.43	
2025-01-10 23:48:35.78	21.25	7.45	
2025-01-10 23:48:35.98	21.25	7.46	
2025-01-10 23:48:36.19	21.26	7.48	
2025-01-10 23:48:36.39	21.27	7.50	
2025-01-10 23:48:36.60	21.28	7.51	
2025-01-10 23:48:36.80	21.28	7.53	
2025-01-10 23:48:37.00	21.29	7.54	
2025-01-10 23:48:37.21	21.30	7.56	
2025-01-10 23:48:37.42	21.30	7.57	
2025-01-10 23:48:37.62	21.31	7.59	
2025-01-10 23:48:37.83	21.32	7.61	
2025-01-10 23:48:38.03	21.32	7.62	
2025-01-10 23:48:38.24	21.33	7.64	
2025-01-10 23:48:38.45	21.34	7.65	
2025-01-10 23:48:38.65	21.34	7.67	
2025-01-10 23:48:38.86	21.35	7.68	
2025-01-10 23:48:39.06	21.36	7.70	
2025-01-10 23:48:39.27	21.37	7.72	
2025-01-10 23:48:39.47	21.37	7.73	
2025-01-10 23:48:39.68	21.38	7.75	
2025-01-10 23:48:39.88	21.39	7.76	
2025-01-10 23:48:40.09	21.39	7.78	
2025-01-10 23:48:40.31	21.40	7.80	
2025-01-10 23:48:40.51	21.41	7.81	
2025-01-10 23:48:40.71	21.41	7.83	
2025-01-10 23:48:40.92	21.42	7.84	
2025-01-10 23:48:41.12	21.43	7.86	
2025-01-10 23:48:41.34	21.44	7.88	
2025-01-10 23:48:41.55	21.44	7.89	
2025-01-10 23:48:41.75	21.45	7.91	
2025-01-10 23:48:41.96	21.46	7.93	
2025-01-10 23:48:42.17	21.47	7.94	
2025-01-10 23:48:42.37	21.47	7.96	
2025-01-10 23:48:42.58	21.48	7.97	
2025-01-10 23:48:42.78	21.49	7.99	
2025-01-10 23:48:42.99	21.49	8.01	
2025-01-10 23:48:43.19	21.50	8.02	
2025-01-10 23:48:43.40	21.51	8.04	
2025-01-10 23:48:43.60	21.51	8.05	
2025-01-10 23:48:43.81	21.52	8.07	
2025-01-10 23:48:44.01	21.53	8.09	
2025-01-10 23:48:44.22	21.54	8.10	
2025-01-10 23:48:44.42	21.54	8.12	
2025-01-10 23:48:44.63	21.55	8.13	
2025-01-10 23:48:44.83	21.56	8.15	
2025-01-10 23:48:45.03	21.56	8.17	
2025-01-10 23:48:45.24	21.57	8.18	
2025-01-10 23:48:45.44	21.58	8.20	
2025-01-10 23:48:45.65	21.59	8.21	
2025-01-10 23:48:45.85	21.59	8.23	
2025-01-10 23:48:46.06	21.60	8.25	
2025-01-10 23:48:46.26	21.61	8.26	
2025-01-10 23:48:46.47	21.62	8.28	
2025-01-10 23:48:46.67	21.62	8.29	
2025-01-10 23:48:46.88	21.63	8.31	
2025-01-10 23:48:47.08	21.64	8.33	
2025-01-10 23:48:47.29	21.64	8.34	
2025-01-10 23:48:47.50	21.65	8.36	
2025-01-10 23:48:47.70	21.66	8.38	
2025-01-10 23:48:47.90	21.67	8.39	
2025-01-10 23:48:48.11	21.67	8.41	
2025-01-10 23:48:48.32	21.68	8.43	
2025-01-10 23:48:48.52	21.69	8.44	
2025-01-10 23:48:48.73	21.70	8.46	
2025-01-10 23:48:48.93	21.70	8.47	
2025-01-10 23:48:49.14	21.71	8.49	
2025-01-10 23:48:49.34	21.72	8.51	
2025-01-10 23:48:49.55	21.72	8.52	
2025-01-10 23:48:49.75	21.73	8.54	
2025-01-10 23:48:49.96	21.74	8.56	
2025-01-10 23:48:50.16	21.75	8.57	
2025-01-10 23:48:50.37	21.75	8.59	
2025-01-10 23:48:50.57	21.76	8.60	
2025-01-10 23:48:50.78	21.77	8.62	
2025-01-10 23:48:50.98	21.78	8.64	
2025-01-10 23:48:51.18	21.78	8.65	
2025-01-10 23:48:51.39	21.79	8.67	
2025-01-10 23:48:51.60	21.80	8.69	
2025-01-10 23:48:51.80	21.81	8.70	
2025-01-10 23:48:52.02	21.81	8.72	
2025-01-10 23:48:52.23	21.82	8.74	
2025-01-10 23:48:52.43	21.83	8.75	
2025-01-10 23:48:52.64	21.84	8.77	
2025-01-10 23:48:52.84	21.84	8.79	
2025-01-10 23:48:53.04	21.85	8.80	
2025-01-10 23:48:53.25	21.86	8.82	
2025-01-10 23:48:53.45	21.87	8.84	
2025-01-10 23:48:53.66	21.87	8.85	
2025-01-10 23:48:53.86	21.88	8.87	
2025-01-10 23:48:54.07	21.89	8.89	
2025-01-10 23:48:54.27	21.90	8.90	
2025-01-10 23:48:54.48	21.90	8.92	
2025-01-10 23:48:54.68	21.91	8.94	
2025-01-10 23:48:54.89	21.92	8.95	
2025-01-10 23:48:55.09	21.93	8.97	
2025-01-10 23:48:55.31	21.93	8.99	
2025-01-10 23:48:55.51	21.94	9.00	
2025-01-10 23:48:55.72	21.95	9.02	
2025-01-10 23:48:55.93	21.96	9.04	
2025-01-10 23:48:56.13	21.96	9.05	
2025-01-10 23:48:56.34	21.97	9.07	
2025-01-10 23:48:56.54	21.98	9.09	
2025-01-10 23:48:56.75	21.99	9.10	
2025-01-10 23:48:56.95	21.99	9.12	
2025-01-10 23:48:57.16	22.00	9.14	
2025-01-10 23:48:57.37	22.01	9.15	
2025-01-10 23:48:57.58	22.02	9.17	
2025-01-10 23:48:57.78	22.02	9.19	
2025-01-10 23:48:57.99	22.03	9.21	
2025-01-10 23:48:58.19	22.04	9.22	
2025-01-10 23:48:58.40	22.05	9.24	
2025-01-10 23:48:58.60	22.06	9.26	
2025-01-10 23:48:58.81	22.06	9.27	
2025-01-10 23:48:59.02	22.07	9.29	
2025-01-10 23:48:59.22	22.08	9.31	
2025-01-10 23:48:59.42	22.09	9.32	
2025-01-10 23:48:59.63	22.09	9.34	
2025-01-10 23:48:59.83	22.10	9.36	
2025-01-10 23:49:00.03	22.11	9.37	
2025-01-10 23:49:00.24	22.12	9.39	
2025-01-10 23:49:00.45	22.12	9.41	
2025-01-10 23:49:00.65	22.13	9.42	
2025-01-10 23:49:00.86	22.14	9.44	
2025-01-10 23:49:01.06	22.15	9.46	
2025-01-10 23:49:01.27	22.16	9.47	
2025-01-10 23:49:01.47	22.16	9.49	
2025-01-10 23:49:01.69	22.17	9.51	
2025-01-10 23:49:01.89	22.18	9.53	
2025-01-10 23:49:02.10	22.19	9.54	
2025-01-10 23:49:02.31	22.20	9.56	
2025-01-10 23:49:02.51	22.20	9.58	
2025-01-10 23:49:02.72	22.21	9.60	
2025-01-10 23:49:02.92	22.22	9.61	
2025-01-10 23:49:03.13	22.23	9.63	
2025-01-10 23:49:03.33	22.23	9.65	
2025-01-10 23:49:03.54	22.24	9.66	
2025-01-10 23:49:03.74	22.25	9.68	
2025-01-10 23:49:03.95	22.26	9.70	
2025-01-10 23:49:04.15	22.27	9.71	
2025-01-10 23:49:04.36	22.27	9.73	
2025-01-10 23:49:04.56	22.28	9.75	
2025-01-10 23:49:04.77	22.29	9.77	
2025-01-10 23:49:04.97	22.30	9.78	
2025-01-10 23:49:05.18	22.31	9.80	
2025-01-10 23:49:05.39	22.31	9.82	
2025-01-10 23:49:05.59	22.32	9.83	
2025-01-10 23:49:05.80	22.33	9.85	
2025-01-10 23:49:06.00	22.34	9.87	
2025-01-10 23:49:06.21	22.35	9.89	
2025-01-10 23:49:06.41	22.35	9.90	
2025-01-10 23:49:06.62	22.36	9.92	
2025-01-10 23:49:06.82	22.37	9.94	
2025-01-10 23:49:07.03	22.38	9.96	
2025-01-10 23:49:07.23	22.39	9.97	
2025-01-10 23:49:07.44	22.39	9.99	
2025-01-10 23:49:07.64	22.40	10.01	
2025-01-10 23:49:07.85	22.41	10.03	
2025-01-10 23:49:08.05	22.42	10.04	
2025-01-10 23:49:08.26	22.43	10.06	
2025-01-10 23:49:08.46	22.43	10.08	
2025-01-10 23:49:08.67	22.44	10.09	
2025-01-10 23:49:08.87	22.45	10.11	
2025-01-10 23:49:09.08	22.46	10.13	
2025-01-10 23:49:09.28	22.47	10.15	
2025-01-10 23:49:09.49	22.47	10.16	
2025-01-10 23:49:09.69	22.48	10.18	
2025-01-10 23:49:09.90	22.49	10.20	
2025-01-10 23:49:10.10	22.50	10.22	
2025-01-10 23:49:10.31	22.51	10.23	
2025-01-10 23:49:10.51	22.51	10.25	
2025-01-10 23:49:10.72	22.52	10.27	
2025-01-10 23:49:10.93	22.53	10.29	
2025-01-10 23:49:11.13	22.54	10.30	
2025-01-10 23:49:11.34	22.55	10.32	
2025-01-10 23:49:11.54	22.56	10.34	
2025-01-10 23:49:11.74	22.56	10.36	
2025-01-10 23:49:11.95	22.57	10.37	
2025-01-10 23:49:12.16	22.58	10.39	
2025-01-10 23:49:12.36	22.59	10.41	
2025-01-10 23:49:12.56	22.60	10.43	
2025-01-10 23:49:12.77	22.60	10.44	
2025-01-10 23:49:12.98	22.61	10.46	
2025-01-10 23:49:13.18	22.62	10.48	
2025-01-10 23:49:13.39	22.63	10.50	
2025-01-10 23:49:13.59	22.64	10.51	
2025-01-10 23:49:13.80	22.65	10.53	
2025-01-10 23:49:14.00	22.65	10.55	
2025-01-10 23:49:14.21	22.66	10.57	
2025-01-10 23:49:14.41	22.67	10.59	
2025-01-10 23:49:14.62	22.68	10.60	
2025-01-10 23:49:14.82	22.69	10.62	
2025-01-10 23:49:15.03	22.70	10.64	
2025-01-10 23:49:15.23	22.70	10.66	
2025-01-10 23:49:15.44	22.71	10.67	
2025-01-10 23:49:15.66	22.72	10.69	
2025-01-10 23:49:15.86	22.73	10.71	
2025-01-10 23:49:16.07	22.74	10.73	
2025-01-10 23:49:16.27	22.75	10.75	
2025-01-10 23:49:16.48	22.75	10.76	
2025-01-10 23:49:16.68	22.76	10.78	
2025-01-10 23:49:16.89	22.77	10.80	
2025-01-10 23:49:17.09	22.78	10.82	
2025-01-10 23:49:17.30	22.79	10.84	
2025-01-10 23:49:17.50	22.80	10.85	
2025-01-10 23:49:17.71	22.81	10.87	
2025-01-10 23:49:17.91	22.81	10.89	
2025-01-10 23:49:18.12	22.82	10.91	
2025-01-10 23:49:18.32	22.83	10.93	
2025-01-10 23:49:18.53	22.84	10.94	
2025-01-10 23:49:18.73	22.85	10.96	
2025-01-10 23:49:18.94	22.86	10.98	
2025-01-10 23:49:19.15	22.86	11.00	
2025-01-10 23:49:19.35	22.87	11.02	
2025-01-10 23:49:19.55	22.88	11.03	
2025-01-10 23:49:19.76	22.89	11.05	
2025-01-10 23:49:19.96	22.90	11.07	
2025-01-10 23:49:20.17	22.91	11.09	
2025-01-10 23:49:20.37	22.92	11.11	
2025-01-10 23:49:20.58	22.92	11.12	
2025-01-10 23:49:20.79	22.93	11.14	
2025-01-10 23:49:20.99	22.94	11.16	
2025-01-10 23:49:21.19	22.95	11.18	
2025-01-10 23:49:21.40	22.96	11.20	
2025-01-10 23:49:21.60	22.97	11.21	
2025-01-10 23:49:21.81	22.98	11.23	
2025-01-10 23:49:22.01	22.98	11.25	
2025-01-10 23:49:22.22	22.99	11.27	
2025-01-10 23:49:22.42	23.00	11.29	
2025-01-10 23:49:22.63	23.01	11.31	
2025-01-10 23:49:22.83	23.02	11.32	
2025-01-10 23:49:23.04	23.03	11.34	
2025-01-10 23:49:23.24	23.04	11.36	
2025-01-10 23:49:23.45	23.05	11.38	
2025-01-10 23:49:23.65	23.05	11.40	
2025-01-10 23:49:23.86	23.06	11.42	
2025-01-10 23:49:24.06	23.07	11.43	
2025-01-10 23:49:24.26	23.08	11.45	
2025-01-10 23:49:24.47	23.09	11.47	
2025-01-10 23:49:24.68	23.10	11.49	
2025-01-10 23:49:24.88	23.11	11.51	
2025-01-10 23:49:25.08	23.12	11.52	
2025-01-10 23:49:25.29	23.12	11.54	
2025-01-10 23:49:25.49	23.13	11.56	
2025-01-10 23:49:25.70	23.14	11.58	
2025-01-10 23:49:25.90	23.15	11.60	
2025-01-10 23:49:26.11	23.16	11.62	
2025-01-10 23:49:26.33	23.17	11.64	
2025-01-10 23:49:26.53	23.18	11.65	
2025-01-10 23:49:26.74	23.19	11.67	
2025-01-10 23:49:26.94	23.20	11.69	
2025-01-10 23:49:27.15	23.20	11.71	
2025-01-10 23:49:27.35	23.21	11.73	
2025-01-10 23:49:27.56	23.22	11.75	
2025-01-10 23:49:27.76	23.23	11.77	
2025-01-10 23:49:27.97	23.24	11.78	
2025-01-10 23:49:28.18	23.25	11.80	
2025-01-10 23:49:28.39	23.26	11.82	
2025-01-10 23:49:28.60	23.27	11.84	
2025-01-10 23:49:28.80	23.28	11.86	
2025-01-10 23:49:29.01	23.29	11.88	
2025-01-10 23:49:29.21	23.29	11.90	
2025-01-10 23:49:29.41	23.30	11.92	
2025-01-10 23:49:29.62	23.31	11.93	
2025-01-10 23:49:29.83	23.32	11.95	
2025-01-10 23:49:30.03	23.33	11.97	
2025-01-10 23:49:30.24	23.34	11.99	
2025-01-10 23:49:30.44	23.35	12.01	
2025-01-10 23:49:30.64	23.36	12.03	
2025-01-10 23:49:30.85	23.37	12.05	
2025-01-10 23:49:31.06	23.38	12.07	
2025-01-10 23:49:31.26	23.38	12.08	
2025-01-10 23:49:31.47	23.39	12.10	
2025-01-10 23:49:31.69	23.40	12.12	
2025-01-10 23:49:31.89	23.41	12.14	
2025-01-10 23:49:32.09	23.42	12.16	
2025-01-10 23:49:32.30	23.43	12.18	
2025-01-10 23:49:32.50	23.44	12.20	
2025-01-10 23:49:32.71	23.45	12.22	
2025-01-10 23:49:32.91	23.46	12.24	
2025-01-10 23:49:33.12	23.47	12.26	
2025-01-10 23:49:33.32	23.48	12.27	
2025-01-10 23:49:33.52	23.49	12.29	
2025-01-10 23:49:33.73	23.50	12.31	
2025-01-10 23:49:33.93	23.50	12.33	
2025-01-10 23:49:34.13	23.51	12.35	
2025-01-10 23:49:34.34	23.52	12.37	
2025-01-10 23:49:34.54	23.53	12.39	
2025-01-10 23:49:34.75	23.54	12.41	
2025-01-10 23:49:34.95	23.55	12.43	
2025-01-10 23:49:35.16	23.56	12.44	
2025-01-10 23:49:35.36	23.57	12.46	
2025-01-10 23:49:35.57	23.58	12.48	
2025-01-10 23:49:35.77	23.59	12.50	
2025-01-10 23:49:35.97	23.60	12.52	
2025-01-10 23:49:36.18	23.61	12.54	
2025-01-10 23:49:36.38	23.62	12.56	
2025-01-10 23:49:36.59	23.63	12.58	
2025-01-10 23:49:36.80	23.63	12.60	
2025-01-10 23:49:37.00	23.64	12.62	
2025-01-10 23:49:37.21	23.65	12.64	
2025-01-10 23:49:37.41	23.66	12.65	
2025-01-10 23:49:37.61	23.67	12.67	
2025-01-10 23:49:37.82	23.68	12.69	
2025-01-10 23:49:38.04	23.69	12.71	
2025-01-10 23:49:38.24	23.70	12.73	
2025-01-10 23:49:38.45	23.71	12.75	
2025-01-10 23:49:38.65	23.72	12.77	
2025-01-10 23:49:38.86	23.73	12.79	
2025-01-10 23:49:39.07	23.74	12.81	
2025-01-10 23:49:39.28	23.75	12.83	
2025-01-10 23:49:39.49	23.76	12.85	
2025-01-10 23:49:39.69	23.77	12.87	
2025-01-10 23:49:39.90	23.78	12.89	
2025-01-10 23:49:40.10	23.79	12.91	
2025-01-10 23:49:40.31	23.80	12.93	
2025-01-10 23:49:40.51	23.81	12.95	
2025-01-10 23:49:40.72	23.82	12.97	
2025-01-10 23:49:40.92	23.83	12.99	
2025-01-10 23:49:41.13	23.84	13.01	
2025-01-10 23:49:41.33	23.84	13.02	
2025-01-10 23:49:41.54	23.85	13.04	
2025-01-10 23:49:41.74	23.86	13.06	
2025-01-10 23:49:41.95	23.87	13.08	
2025-01-10 23:49:42.15	23.88	13.10	
2025-01-10 23:49:42.36	23.89	13.12	
2025-01-10 23:49:42.56	23.90	13.14	
2025-01-10 23:49:42.77	23.91	13.16	
2025-01-10 23:49:42.97	23.92	13.18	
2025-01-10 23:49:43.18	23.93	13.20	
2025-01-10 23:49:43.38	23.94	13.22	
2025-01-10 23:49:43.58	23.95	13.24	
2025-01-10 23:49:43.79	23.96	13.26	
2025-01-10 23:49:44.00	23.97	13.28	
2025-01-10 23:49:44.20	23.98	13.30	
2025-01-10 23:49:44.40	23.99	13.32	
2025-01-10 23:49:44.61	24.00	13.34	
2025-01-10 23:49:44.81	24.01	13.36	
2025-01-10 23:49:45.02	24.02	13.38	
2025-01-10 23:49:45.22	24.03	13.40	
2025-01-10 23:49:45.43	24.04	13.42	
2025-01-10 23:49:45.63	24.05	13.44	
2025-01-10 23:49:45.84	24.06	13.46	
2025-01-10 23:49:46.04	24.07	13.48	
2025-01-10 23:49:46.25	24.08	13.50	
2025-01-10 23:49:46.45	24.09	13.52	
2025-01-10 23:49:46.66	24.10	13.54	
2025-01-10 23:49:46.86	24.11	13.56	
2025-01-10 23:49:47.07	24.12	13.58	
2025-01-10 23:49:47.27	24.13	13.60	
2025-01-10 23:49:47.48	24.14	13.62	
2025-01-10 23:49:47.68	24.15	13.64	
2025-01-10 23:49:47.88	24.16	13.66	
2025-01-10 23:49:48.09	24.17	13.68	
2025-01-10 23:49:48.30	24.18	13.70	
2025-01-10 23:49:48.50	24.19	13.72	
2025-01-10 23:49:48.70	24.20	13.74	
2025-01-10 23:49:48.91	24.21	13.76	
2025-01-10 23:49:49.11	24.22	13.78	
2025-01-10 23:49:49.32	24.23	13.80	
2025-01-10 23:49:49.52	24.24	13.82	
2025-01-10 23:49:49.73	24.25	13.84	
2025-01-10 23:49:49.93	24.26	13.86	
2025-01-10 23:49:50.14	24.27	13.88	
2025-01-10 23:49:50.34	24.28	13.90	
2025-01-10 23:49:50.55	24.29	13.92	
2025-01-10 23:49:50.75	24.30	13.94	
2025-01-10 23:49:50.95	24.31	13.96	
2025-01-10 23:49:51.16	24.32	13.98	
2025-01-10 23:49:51.37	24.33	14.00	
2025-01-10 23:49:51.57	24.34	14.02	
2025-01-10 23:49:51.78	24.35	14.04	
2025-01-10 23:49:51.98	24.36	14.06	
2025-01-10 23:49:52.19	24.37	14.08	
2025-01-10 23:49:52.39	24.38	14.10	
2025-01-10 23:49:52.60	24.39	14.12	
2025-01-10 23:49:52.80	24.40	14.14	
2025-01-10 23:49:53.01	24.41	14.16	
2025-01-10 23:49:53.21	24.42	14.18	
2025-01-10 23:49:53.42	24.43	14.20	
2025-01-10 23:49:53.62	24.44	14.22	
2025-01-10 23:49:53.83	24.45	14.24	
2025-01-10 23:49:54.03	24.47	14.26	
2025-01-10 23:49:54.24	24.48	14.28	
2025-01-10 23:49:54.44	24.49	14.30	
2025-01-10 23:49:54.65	24.50	14.32	
2025-01-10 23:49:54.85	24.51	14.34	
2025-01-10 23:49:55.05	24.52	14.36	
2025-01-10 23:49:55.26	24.53	14.39	
2025-01-10 23:49:55.48	24.54	14.41	
2025-01-10 23:49:55.68	24.55	14.43	
2025-01-10 23:49:55.89	24.56	14.45	
2025-01-10 23:49:56.09	24.57	14.47	
2025-01-10 23:49:56.29	24.58	14.49	
2025-01-10 23:49:56.50	24.59	14.51	
2025-01-10 23:49:56.71	24.60	14.53	
2025-01-10 23:49:56.91	24.61	14.55	
2025-01-10 23:49:57.11	24.62	14.57	
2025-01-10 23:49:57.32	24.63	14.59	
2025-01-10 23:49:57.52	24.64	14.61	
2025-01-10 23:49:57.73	24.65	14.63	
2025-01-10 23:49:57.93	24.67	14.65	
2025-01-10 23:49:58.14	24.68	14.68	
2025-01-10 23:49:58.34	24.69	14.70	
2025-01-10 23:49:58.55	24.70	14.72	
2025-01-10 23:49:58.75	24.71	14.74	
2025-01-10 23:49:58.96	24.72	14.76	
2025-01-10 23:49:59.16	24.73	14.78	
2025-01-10 23:49:59.38	24.74	14.80	
2025-01-10 23:49:59.58	24.75	14.82	
2025-01-10 23:49:59.79	24.76	14.84	
2025-01-10 23:49:59.99	24.77	14.86	
2025-01-10 23:50:00.20	24.78	14.89	
2025-01-10 23:50:00.40	24.79	14.91	
2025-01-10 23:50:00.60	24.81	14.93	
2025-01-10 23:50:00.81	24.82	14.95	
2025-01-10 23:50:01.01	24.83	14.97	
2025-01-10 23:50:01.22	24.84	14.99	
2025-01-10 23:50:01.43	24.85	15.01	
2025-01-10 23:50:01.63	24.86	15.03	
2025-01-10 23:50:01.84	24.87	15.05	
2025-01-10 23:50:02.04	24.88	15.08	
2025-01-10 23:50:02.25	24.89	15.10	
2025-01-10 23:50:02.45	24.90	15.12	
2025-01-10 23:50:02.66	24.91	15.14	
2025-01-10 23:50:02.86	24.93	15.16	
2025-01-10 23:50:03.07	24.94	15.18	
2025-01-10 23:50:03.28	24.95	15.20	
2025-01-10 23:50:03.48	24.96	15.22	
2025-01-10 23:50:03.70	24.97	15.25	
2025-01-10 23:50:03.91	24.98	15.27	
2025-01-10 23:50:04.11	24.99	15.29	
2025-01-10 23:50:04.32	25.00	15.31	
2025-01-10 23:50:04.52	25.02	15.33	
2025-01-10 23:50:04.73	25.03	15.35	
2025-01-10 23:50:04.93	25.04	15.38	
2025-01-10 23:50:05.14	25.05	15.40	
2025-01-10 23:50:05.34	25.06	15.42	
2025-01-10 23:50:05.55	25.07	15.44	
2025-01-10 23:50:05.75	25.08	15.46	
2025-01-10 23:50:05.96	25.09	15.48	
2025-01-10 23:50:06.16	25.10	15.50	
2025-01-10 23:50:06.37	25.12	15.53	
2025-01-10 23:50:06.57	25.13	15.55	
2025-01-10 23:50:06.78	25.14	15.57	
2025-01-10 23:50:06.98	25.15	15.59	
2025-01-10 23:50:07.19	25.16	15.61	
2025-01-10 23:50:07.40	25.17	15.63	
2025-01-10 23:50:07.60	25.18	15.66	
2025-01-10 23:50:07.81	25.20	15.68	
2025-01-10 23:50:08.01	25.21	15.70	
2025-01-10 23:50:08.21	25.22	15.72	
2025-01-10 23:50:08.42	25.23	15.74	
2025-01-10 23:50:08.63	25.24	15.76	
2025-01-10 23:50:08.83	25.25	15.79	
2025-01-10 23:50:09.03	25.26	15.81	
2025-01-10 23:50:09.24	25.27	15.83	
2025-01-10 23:50:09.45	25.29	15.85	
2025-01-10 23:50:09.65	25.30	15.87	
2025-01-10 23:50:09.86	25.31	15.89	
2025-01-10 23:50:10.06	25.32	15.92	
2025-01-10 23:50:10.27	25.33	15.94	
2025-01-10 23:50:10.47	25.34	15.96	
2025-01-10 23:50:10.68	25.36	15.98	
2025-01-10 23:50:10.88	25.37	16.00	
2025-01-10 23:50:11.09	25.38	16.03	
2025-01-10 23:50:11.29	25.39	16.05	
2025-01-10 23:50:11.50	25.40	16.07	
2025-01-10 23:50:11.70	25.41	16.09	
2025-01-10 23:50:11.91	25.43	16.11	
2025-01-10 23:50:12.11	25.44	16.14	
2025-01-10 23:50:12.32	25.45	16.16	
2025-01-10 23:50:12.52	25.46	16.18	
2025-01-10 23:50:12.73	25.47	16.20	
2025-01-10 23:50:12.93	25.48	16.22	
2025-01-10 23:50:13.14	25.50	16.25	
2025-01-10 23:50:13.34	25.51	16.27	
2025-01-10 23:50:13.55	25.52	16.29	
2025-01-10 23:50:13.75	25.53	16.31	
2025-01-10 23:50:13.96	25.54	16.34	
2025-01-10 23:50:14.16	25.55	16.36	
2025-01-10 23:50:14.37	25.57	16.38	
2025-01-10 23:50:14.57	25.58	16.40	
2025-01-10 23:50:14.78	25.59	16.42	
2025-01-10 23:50:14.98	25.60	16.45	
2025-01-10 23:50:15.19	25.61	16.47	
2025-01-10 23:50:15.39	25.63	16.49	
2025-01-10 23:50:15.60	25.64	16.51	
2025-01-10 23:50:15.80	25.65	16.54	
2025-01-10 23:50:16.00	25.66	16.56	
2025-01-10 23:50:16.21	25.67	16.58	
2025-01-10 23:50:16.41	25.68	16.60	
2025-01-10 23:50:16.62	25.70	16.63	
2025-01-10 23:50:16.82	25.71	16.65	
2025-01-10 23:50:17.03	25.72	16.67	
2025-01-10 23:50:17.23	25.73	16.69	
2025-01-10 23:50:17.44	25.75	16.72	
2025-01-10 23:50:17.64	25.76	16.74	
2025-01-10 23:50:17.85	25.77	16.76	
2025-01-10 23:50:18.05	25.78	16.78	
2025-01-10 23:50:18.26	25.79	16.81	
2025-01-10 23:50:18.47	25.81	16.83	
2025-01-10 23:50:18.67	25.82	16.85	
2025-01-10 23:50:18.87	25.83	16.87	
2025-01-10 23:50:19.08	25.84	16.90	
2025-01-10 23:50:19.29	25.86	16.92	
2025-01-10 23:50:19.49	25.87	16.94	
2025-01-10 23:50:19.71	25.88	16.97	
2025-01-10 23:50:19.91	25.89	16.99	
2025-01-10 23:50:20.12	25.90	17.01	
2025-01-10 23:50:20.32	25.92	17.03	
2025-01-10 23:50:20.53	25.93	17.06	
2025-01-10 23:50:20.73	25.94	17.08	
2025-01-10 23:50:20.94	25.95	17.10	
2025-01-10 23:50:21.15	25.97	17.13	
2025-01-10 23:50:21.35	25.98	17.15	
2025-01-10 23:50:21.56	25.99	17.17	
2025-01-10 23:50:21.76	26.00	17.19	
2025-01-10 23:50:21.97	26.02	17.22	
2025-01-10 23:50:22.17	26.03	17.24	
2025-01-10 23:50:22.38	26.04	17.26	
2025-01-10 23:50:22.58	26.05	17.29	
2025-01-10 23:50:22.78	26.07	17.31	
2025-01-10 23:50:22.99	26.08	17.33	
2025-01-10 23:50:23.20	26.09	17.36	
2025-01-10 23:50:23.40	26.10	17.38	
2025-01-10 23:50:23.60	26.12	17.40	
2025-01-10 23:50:23.81	26.13	17.43	
2025-01-10 23:50:24.01	26.14	17.45	
2025-01-10 23:50:24.22	26.15	17.47	
2025-01-10 23:50:24.42	26.17	17.49	
2025-01-10 23:50:24.63	26.18	17.52	
2025-01-10 23:50:24.84	26.19	17.54	
2025-01-10 23:50:25.04	26.21	17.56	
2025-01-10 23:50:25.24	26.22	17.59	
2025-01-10 23:50:25.45	26.23	17.61	
2025-01-10 23:50:25.66	26.24	17.64	
2025-01-10 23:50:25.86	26.26	17.66	
2025-01-10 23:50:26.06	26.27	17.68	
2025-01-10 23:50:26.27	26.28	17.70	
2025-01-10 23:50:26.47	26.29	17.73	
2025-01-10 23:50:26.68	26.31	17.75	
2025-01-10 23:50:26.88	26.32	17.77	
2025-01-10 23:50:27.08	26.33	17.80	
2025-01-10 23:50:27.29	26.35	17.82	
2025-01-10 23:50:27.50	26.36	17.85	
2025-01-10 23:50:27.70	26.37	17.87	
2025-01-10 23:50:27.91	26.39	17.89	
2025-01-10 23:50:28.11	26.40	17.92	
2025-01-10 23:50:28.31	26.41	17.94	
2025-01-10 23:50:28.52	26.42	17.96	
2025-01-10 23:50:28.73	26.44	17.99	
2025-01-10 23:50:28.93	26.45	18.01	
2025-01-10 23:50:29.13	26.46	18.03	
2025-01-10 23:50:29.34	26.48	18.06	
2025-01-10 23:50:29.54	26.49	18.08	
2025-01-10 23:50:29.75	26.50	18.11	
2025-01-10 23:50:29.96	26.52	18.13	
2025-01-10 23:50:30.16	26.53	18.15	
2025-01-10 23:50:30.37	26.54	18.18	
2025-01-10 23:50:30.57	26.56	18.20	
2025-01-10 23:50:30.78	26.57	18.23	
2025-01-10 23:50:30.98	26.58	18.25	
2025-01-10 23:50:31.19	26.60	18.27	
2025-01-10 23:50:31.39	26.61	18.30	
2025-01-10 23:50:31.60	26.62	18.32	
2025-01-10 23:50:31.80	26.64	18.34	
2025-01-10 23:50:32.00	26.65	18.37	
2025-01-10 23:50:32.21	26.66	18.39	
2025-01-10 23:50:32.41	26.68	18.42	
2025-01-10 23:50:32.62	26.69	18.44	
2025-01-10 23:50:32.82	26.70	18.46	
2025-01-10 23:50:33.03	26.72	18.49	
2025-01-10 23:50:33.23	26.73	18.51	
2025-01-10 23:50:33.44	26.74	18.54	
2025-01-10 23:50:33.65	26.76	18.56	
2025-01-10 23:50:33.86	26.77	18.59	
2025-01-10 23:50:34.06	26.78	18.61	
2025-01-10 23:50:34.27	26.80	18.64	
2025-01-10 23:50:34.47	26.81	18.66	
2025-01-10 23:50:34.68	26.83	18.68	
2025-01-10 23:50:34.88	26.84	18.71	
2025-01-10 23:50:35.09	26.85	18.73	
2025-01-10 23:50:35.29	26.87	18.76	
2025-01-10 23:50:35.50	26.88	18.78	
2025-01-10 23:50:35.70	26.89	18.81	
2025-01-10 23:50:35.91	26.91	18.83	
2025-01-10 23:50:36.11	26.92	18.85	
2025-01-10 23:50:36.32	26.94	18.88	
2025-01-10 23:50:36.53	26.95	18.90	
2025-01-10 23:50:36.73	26.96	18.93	
2025-01-10 23:50:36.94	26.98	18.95	
2025-01-10 23:50:37.14	26.99	18.98	
2025-01-10 23:50:37.35	27.01	19.00	
2025-01-10 23:50:37.55	27.02	19.03	
2025-01-10 23:50:37.75	27.03	19.05	
2025-01-10 23:50:37.96	27.05	19.08	
2025-01-10 23:50:38.16	27.06	19.10	
2025-01-10 23:50:38.37	27.07	19.13	
2025-01-10 23:50:38.58	27.09	19.15	
2025-01-10 23:50:38.78	27.10	19.18	
2025-01-10 23:50:38.98	27.12	19.20	
2025-01-10 23:50:39.19	27.13	19.22	
2025-01-10 23:50:39.40	27.15	19.25	
2025-01-10 23:50:39.60	27.16	19.27	
2025-01-10 23:50:39.80	27.17	19.30	
2025-01-10 23:50:40.01	27.19	19.32	
2025-01-10 23:50:40.21	27.20	19.35	
2025-01-10 23:50:40.41	27.22	19.37	
2025-01-10 23:50:40.62	27.23	19.40	
2025-01-10 23:50:40.83	27.24	19.42	
2025-01-10 23:50:41.03	27.26	19.45	
2025-01-10 23:50:41.24	27.27	19.47	
2025-01-10 23:50:41.44	27.29	19.50	
2025-01-10 23:50:41.65	27.30	19.52	
2025-01-10 23:50:41.85	27.32	19.55	
2025-01-10 23:50:42.06	27.33	19.57	
2025-01-10 23:50:42.26	27.34	19.60	
2025-01-10 23:50:42.48	27.36	19.63	
2025-01-10 23:50:42.68	27.37	19.65	
2025-01-10 23:50:42.89	27.39	19.68	
2025-01-10 23:50:43.09	27.40	19.70	
2025-01-10 23:50:43.30	27.42	19.73	
2025-01-10 23:50:43.50	27.43	19.75	
2025-01-10 23:50:43.71	27.45	19.78	
2025-01-10 23:50:43.91	27.46	19.80	
2025-01-10 23:50:44.12	27.48	19.83	
2025-01-10 23:50:44.32	27.49	19.85	
2025-01-10 23:50:44.52	27.51	19.88	
2025-01-10 23:50:44.73	27.52	19.90	
2025-01-10 23:50:44.93	27.53	19.93	
2025-01-10 23:50:45.14	27.55	19.96	
2025-01-10 23:50:45.34	27.56	19.98	
2025-01-10 23:50:45.55	27.58	20.01	
2025-01-10 23:50:45.75	27.59	20.03	
2025-01-10 23:50:45.96	27.61	20.06	
2025-01-10 23:50:46.16	27.62	20.08	
2025-01-10 23:50:46.37	27.64	20.11	
2025-01-10 23:50:46.58	27.65	20.14	
2025-01-10 23:50:46.78	27.67	20.16	
2025-01-10 23:50:46.99	27.68	20.19	
2025-01-10 23:50:47.19	27.70	20.21	
2025-01-10 23:50:47.39	27.71	20.24	
2025-01-10 23:50:47.60	27.73	20.26	
2025-01-10 23:50:47.80	27.74	20.29	
2025-01-10 23:50:48.01	27.76	20.32	
2025-01-10 23:50:48.22	27.77	20.34	
2025-01-10 23:50:48.42	27.79	20.37	
2025-01-10 23:50:48.62	27.80	20.39	
2025-01-10 23:50:48.83	27.82	20.42	
2025-01-10 23:50:49.04	27.83	20.45	
2025-01-10 23:50:49.24	27.85	20.47	
2025-01-10 23:50:49.45	27.86	20.50	
2025-01-10 23:50:49.65	27.88	20.52	
2025-01-10 23:50:49.85	27.89	20.55	
2025-01-10 23:50:50.06	27.91	20.58	
2025-01-10 23:50:50.26	27.93	20.60	
2025-01-10 23:50:50.47	27.94	20.63	
2025-01-10 23:50:50.69	27.96	20.66	
2025-01-10 23:50:50.89	27.97	20.68	
2025-01-10 23:50:51.09	27.99	20.71	
2025-01-10 23:50:51.30	28.00	20.73	
2025-01-10 23:50:51.50	28.02	20.76	
2025-01-10 23:50:51.71	28.03	20.79	
2025-01-10 23:50:51.91	28.05	20.81	
2025-01-10 23:50:52.12	28.07	20.84	
2025-01-10 23:50:52.32	28.08	20.86	
2025-01-10 23:50:52.53	28.10	20.89	
2025-01-10 23:50:52.75	28.11	20.92	
2025-01-10 23:50:52.95	28.13	20.95	
2025-01-10 23:50:53.16	28.14	20.97	
2025-01-10 23:50:53.36	28.16	21.00	
2025-01-10 23:50:53.56	28.18	21.02	
2025-01-10 23:50:53.77	28.19	21.05	
2025-01-10 23:50:53.97	28.21	21.08	
2025-01-10 23:50:54.18	28.22	21.11	
2025-01-10 23:50:54.38	28.24	21.13	
2025-01-10 23:50:54.59	28.26	21.16	
2025-01-10 23:50:54.79	28.27	21.18	
2025-01-10 23:50:55.00	28.29	21.21	
2025-01-10 23:50:55.20	28.30	21.24	
2025-01-10 23:50:55.41	28.32	21.27	
2025-01-10 23:50:55.61	28.33	21.29	
2025-01-10 23:50:55.81	28.35	21.32	
2025-01-10 23:50:56.03	28.37	21.35	
2025-01-10 23:50:56.23	28.38	21.37	
2025-01-10 23:50:56.44	28.40	21.40	
2025-01-10 23:50:56.65	28.42	21.43	
2025-01-10 23:50:56.85	28.43	21.45	
2025-01-10 23:50:57.06	28.45	21.48	
2025-01-10 23:50:57.26	28.46	21.51	
2025-01-10 23:50:57.47	28.48	21.54	
2025-01-10 23:50:57.67	28.50	21.56	
2025-01-10 23:50:57.88	28.51	21.59	
2025-01-10 23:50:58.08	28.53	21.62	
2025-01-10 23:50:58.29	28.55	21.64	
2025-01-10 23:50:58.49	28.56	21.67	
2025-01-10 23:50:58.70	28.58	21.70	
2025-01-10 23:50:58.90	28.59	21.73	
2025-01-10 23:50:59.11	28.61	21.75	
2025-01-10 23:50:59.31	28.63	21.78	
2025-01-10 23:50:59.52	28.64	21.81	
2025-01-10 23:50:59.72	28.66	21.84	
2025-01-10 23:50:59.93	28.68	21.86	
2025-01-10 23:51:00.13	28.69	21.89	
2025-01-10 23:51:00.33	28.71	21.92	
2025-01-10 23:51:00.54	28.73	21.94	
2025-01-10 23:51:00.74	28.74	21.97	
2025-01-10 23:51:00.95	28.76	22.00	
2025-01-10 23:51:01.16	28.78	22.03	
2025-01-10 23:51:01.36	28.79	22.06	
2025-01-10 23:51:01.56	28.81	22.08	
2025-01-10 23:51:01.77	28.83	22.11	
2025-01-10 23:51:01.98	28.84	22.14	
2025-01-10 23:51:02.18	28.86	22.17	
2025-01-10 23:51:02.39	28.88	22.19	
2025-01-10 23:51:02.59	28.90	22.22	
2025-01-10 23:51:02.79	28.91	22.25	
2025-01-10 23:51:03.00	28.93	22.28	
2025-01-10 23:51:03.21	28.95	22.31	
2025-01-10 23:51:03.41	28.96	22.33	
2025-01-10 23:51:03.62	28.98	22.36	
2025-01-10 23:51:03.82	29.00	22.39	
2025-01-10 23:51:04.03	29.01	22.42	
2025-01-10 23:51:04.24	29.03	22.45	
2025-01-10 23:51:04.44	29.05	22.47	
2025-01-10 23:51:04.64	29.07	22.50	
2025-01-10 23:51:04.85	29.08	22.53	
2025-01-10 23:51:05.05	29.10	22.56	
2025-01-10 23:51:05.26	29.12	22.58	
2025-01-10 23:51:05.47	29.14	22.61	
2025-01-10 23:51:05.67	29.15	22.64	
2025-01-10 23:51:05.87	29.17	22.67	
2025-01-10 23:51:06.08	29.19	22.70	
2025-01-10 23:51:06.29	29.21	22.73	
2025-01-10 23:51:06.49	29.22	22.75	
2025-01-10 23:51:06.71	29.24	22.78	
2025-01-10 23:51:06.91	29.26	22.81	
2025-01-10 23:51:07.12	29.28	22.84	
2025-01-10 23:51:07.33	29.29	22.87	
2025-01-10 23:51:07.53	29.31	22.90	
2025-01-10 23:51:07.74	29.33	22.93	
2025-01-10 23:51:07.94	29.35	22.96	
2025-01-10 23:51:08.15	29.37	22.98	
2025-01-10 23:51:08.35	29.38	23.01	
2025-01-10 23:51:08.56	29.40	23.04	
2025-01-10 23:51:08.76	29.42	23.07	
2025-01-10 23:51:08.98	29.44	23.10	
2025-01-10 23:51:09.18	29.46	23.13	
2025-01-10 23:51:09.39	29.47	23.16	
2025-01-10 23:51:09.59	29.49	23.19	
2025-01-10 23:51:09.80	29.51	23.21	
2025-01-10 23:51:10.00	29.53	23.24	
2025-01-10 23:51:10.21	29.55	23.27	
2025-01-10 23:51:10.42	29.56	23.30	
2025-01-10 23:51:10.62	29.58	23.33	
2025-01-10 23:51:10.83	29.60	23.36	
2025-01-10 23:51:11.03	29.62	23.39	
2025-01-10 23:51:11.24	29.64	23.42	
2025-01-10 23:51:11.44	29.65	23.45	
2025-01-10 23:51:11.65	29.67	23.48	
2025-01-10 23:51:11.86	29.69	23.51	
2025-01-10 23:51:12.07	29.71	23.54	
2025-01-10 23:51:12.28	29.73	23.57	
2025-01-10 23:51:12.49	29.75	23.59	
2025-01-10 23:51:12.69	29.77	23.62	
2025-01-10 23:51:12.89	29.78	23.65	
2025-01-10 23:51:13.10	29.80	23.68	
2025-01-10 23:51:13.30	29.82	23.71	
2025-01-10 23:51:13.51	29.84	23.74	
2025-01-10 23:51:13.71	29.86	23.77	
2025-01-10 23:51:13.92	29.88	23.80	
2025-01-10 23:51:14.14	29.90	23.83	
2025-01-10 23:51:14.34	29.92	23.86	
2025-01-10 23:51:14.55	29.94	23.89	
2025-01-10 23:51:14.75	29.95	23.92	
2025-01-10 23:51:14.96	29.97	23.95	
2025-01-10 23:51:15.16	29.99	23.98	
2025-01-10 23:51:15.37	30.01	24.01	
2025-01-10 23:51:15.57	30.03	24.04	
2025-01-10 23:51:15.77	30.05	24.07	
2025-01-10 23:51:15.98	30.07	24.10	
2025-01-10 23:51:16.18	30.09	24.12	
2025-01-10 23:51:16.39	30.10	24.16	
2025-01-10 23:51:16.60	30.12	24.19	
2025-01-10 23:51:16.80	30.14	24.21	
2025-01-10 23:51:17.01	30.16	24.25	
2025-01-10 23:51:17.21	30.18	24.27	
2025-01-10 23:51:17.42	30.20	24.30	
2025-01-10 23:51:17.62	30.22	24.33	
2025-01-10 23:51:17.83	30.24	24.36	
2025-01-10 23:51:18.03	30.26	24.39	
2025-01-10 23:51:18.24	30.28	24.42	
2025-01-10 23:51:18.44	30.30	24.45	
2025-01-10 23:51:18.65	30.32	24.48	
2025-01-10 23:51:18.85	30.34	24.51	
2025-01-10 23:51:19.06	30.36	24.55	
2025-01-10 23:51:19.26	30.38	24.57	
2025-01-10 23:51:19.46	30.39	24.60	
2025-01-10 23:51:19.67	30.41	24.63	
2025-01-10 23:51:19.87	30.43	24.66	
2025-01-10 23:51:20.08	30.45	24.70	
2025-01-10 23:51:20.28	30.47	24.73	
2025-01-10 23:51:20.49	30.49	24.76	
2025-01-10 23:51:20.69	30.51	24.79	
2025-01-10 23:51:20.90	30.53	24.82	
2025-01-10 23:51:21.10	30.55	24.85	
2025-01-10 23:51:21.31	30.57	24.88	
2025-01-10 23:51:21.51	30.59	24.91	
2025-01-10 23:51:21.72	30.61	24.94	
2025-01-10 23:51:21.92	30.63	24.97	
2025-01-10 23:51:22.13	30.65	25.00	
2025-01-10 23:51:22.33	30.67	25.03	
2025-01-10 23:51:22.54	30.69	25.06	
2025-01-10 23:51:22.74	30.71	25.09	
2025-01-10 23:51:22.94	30.73	25.12	
2025-01-10 23:51:23.15	30.75	25.15	
2025-01-10 23:51:23.36	30.77	25.18	
2025-01-10 23:51:23.56	30.79	25.21	
2025-01-10 23:51:23.76	30.81	25.24	
2025-01-10 23:51:23.97	30.83	25.28	
2025-01-10 23:51:24.17	30.85	25.31	
2025-01-10 23:51:24.38	30.87	25.34	
2025-01-10 23:51:24.59	30.90	25.37	
2025-01-10 23:51:24.79	30.92	25.40	
2025-01-10 23:51:24.99	30.94	25.43	
2025-01-10 23:51:25.20	30.96	25.46	
2025-01-10 23:51:25.41	30.98	25.49	
2025-01-10 23:51:25.61	31.00	25.52	
2025-01-10 23:51:25.81	31.02	25.56	
2025-01-10 23:51:26.02	31.04	25.59	
2025-01-10 23:51:26.23	31.06	25.62	
2025-01-10 23:51:26.43	31.08	25.65	
2025-01-10 23:51:26.64	31.10	25.68	
2025-01-10 23:51:26.84	31.12	25.71	
2025-01-10 23:51:27.04	31.14	25.74	
2025-01-10 23:51:27.25	31.17	25.78	
2025-01-10 23:51:27.45	31.19	25.81	
2025-01-10 23:51:27.66	31.21	25.84	
2025-01-10 23:51:27.86	31.23	25.87	
2025-01-10 23:51:28.07	31.25	25.90	
2025-01-10 23:51:28.27	31.27	25.93	
2025-01-10 23:51:28.48	31.29	25.96	
2025-01-10 23:51:28.68	31.31	26.00	
2025-01-10 23:51:28.89	31.33	26.03	
2025-01-10 23:51:29.09	31.36	26.06	
2025-01-10 23:51:29.30	31.38	26.09	
2025-01-10 23:51:29.50	31.40	26.12	
2025-01-10 23:51:29.71	31.42	26.15	
2025-01-10 23:51:29.92	31.44	26.19	
2025-01-10 23:51:30.13	31.46	26.22	
2025-01-10 23:51:30.34	31.49	26.25	
2025-01-10 23:51:30.54	31.51	26.28	
2025-01-10 23:51:30.75	31.53	26.32	
2025-01-10 23:51:30.95	31.55	26.35	
2025-01-10 23:51:31.16	31.57	26.38	
2025-01-10 23:51:31.37	31.60	26.41	
2025-01-10 23:51:31.57	31.62	26.45	
2025-01-10 23:51:31.78	31.64	26.48	
2025-01-10 23:51:31.98	31.66	26.51	
2025-01-10 23:51:32.19	31.68	26.54	
2025-01-10 23:51:32.39	31.71	26.57	
2025-01-10 23:51:32.60	31.73	26.61	
2025-01-10 23:51:32.80	31.75	26.64	
2025-01-10 23:51:33.00	31.77	26.67	
2025-01-10 23:51:33.21	31.79	26.70	
2025-01-10 23:51:33.41	31.82	26.74	
2025-01-10 23:51:33.62	31.84	26.77	
2025-01-10 23:51:33.83	31.86	26.80	
2025-01-10 23:51:34.03	31.88	26.83	
2025-01-10 23:51:34.24	31.91	26.87	
2025-01-10 23:51:34.44	31.93	26.90	
2025-01-10 23:51:34.64	31.95	26.93	
2025-01-10 23:51:34.85	31.97	26.96	
2025-01-10 23:51:35.05	32.00	27.00	
2025-01-10 23:51:35.26	32.02	27.03	
2025-01-10 23:51:35.48	32.04	27.06	
2025-01-10 23:51:35.68	32.07	27.10	
2025-01-10 23:51:35.89	32.09	27.13	
2025-01-10 23:51:36.09	32.11	27.16	
2025-01-10 23:51:36.30	32.13	27.20	
2025-01-10 23:51:36.50	32.16	27.23	
2025-01-10 23:51:36.71	32.18	27.26	
2025-01-10 23:51:36.91	32.20	27.29	
2025-01-10 23:51:37.12	32.23	27.33	
2025-01-10 23:51:37.32	32.25	27.36	
2025-01-10 23:51:37.53	32.27	27.39	
2025-01-10 23:51:37.73	32.30	27.43	
2025-01-10 23:51:37.93	32.32	27.46	
2025-01-10 23:51:38.14	32.34	27.49	
2025-01-10 23:51:38.35	32.37	27.53	
2025-01-10 23:51:38.55	32.39	27.56	
2025-01-10 23:51:38.77	32.41	27.60	
2025-01-10 23:51:38.97	32.44	27.63	
2025-01-10 23:51:39.18	32.46	27.66	
2025-01-10 23:51:39.39	32.48	27.70	
2025-01-10 23:51:39.59	32.51	27.73	
2025-01-10 23:51:39.79	32.53	27.76	
2025-01-10 23:51:40.00	32.56	27.80	
2025-01-10 23:51:40.20	32.58	27.83	
2025-01-10 23:51:40.41	32.60	27.86	
2025-01-10 23:51:40.62	32.63	27.90	
2025-01-10 23:51:40.82	32.65	27.93	
2025-01-10 23:51:41.02	32.67	27.96	
2025-01-10 23:51:41.23	32.70	28.00	
2025-01-10 23:51:41.44	32.72	28.03	
2025-01-10 23:51:41.64	32.75	28.07	
2025-01-10 23:51:41.85	32.77	28.10	
2025-01-10 23:51:42.05	32.80	28.13	
2025-01-10 23:51:42.26	32.82	28.17	
2025-01-10 23:51:42.46	32.84	28.20	
2025-01-10 23:51:42.67	32.87	28.24	
2025-01-10 23:51:42.87	32.89	28.27	
2025-01-10 23:51:43.08	32.92	28.31	
2025-01-10 23:51:43.28	32.94	28.34	
2025-01-10 23:51:43.49	32.97	28.37	
2025-01-10 23:51:43.69	32.99	28.41	
2025-01-10 23:51:43.90	33.02	28.44	
2025-01-10 23:51:44.10	33.04	28.48	
2025-01-10 23:51:44.31	33.07	28.51	
2025-01-10 23:51:44.51	33.09	28.55	
2025-01-10 23:51:44.72	33.12	28.58	
2025-01-10 23:51:44.92	33.14	28.61	
2025-01-10 23:51:45.12	33.16	28.65	
2025-01-10 23:51:45.33	33.19	28.68	
2025-01-10 23:51:45.54	33.22	28.72	
2025-01-10 23:51:45.74	33.24	28.75	
2025-01-10 23:51:45.95	33.27	28.79	
2025-01-10 23:51:46.15	33.29	28.82	
2025-01-10 23:51:46.36	33.32	28.86	
2025-01-10 23:51:46.56	33.34	28.89	
2025-01-10 23:51:46.77	33.37	28.93	
2025-01-10 23:51:46.97	33.39	28.96	
2025-01-10 23:51:47.18	33.42	29.00	
2025-01-10 23:51:47.38	33.44	29.03	
2025-01-10 23:51:47.59	33.47	29.07	
2025-01-10 23:51:47.79	33.49	29.10	
2025-01-10 23:51:48.00	33.52	29.14	
2025-01-10 23:51:48.20	33.55	29.17	
2025-01-10 23:51:48.41	33.57	29.21	
2025-01-10 23:51:48.61	33.60	29.24	
2025-01-10 23:51:48.82	33.62	29.28	
2025-01-10 23:51:49.02	33.65	29.31	
2025-01-10 23:51:49.23	33.68	29.35	
2025-01-10 23:51:49.43	33.70	29.38	
2025-01-10 23:51:49.63	33.73	29.42	
2025-01-10 23:51:49.84	33.75	29.45	
2025-01-10 23:51:50.04	33.78	29.49	
2025-01-10 23:51:50.25	33.81	29.52	
2025-01-10 23:51:50.45	33.83	29.56	
2025-01-10 23:51:50.66	33.86	29.59	
2025-01-10 23:51:50.86	33.88	29.63	
2025-01-10 23:51:51.07	33.91	29.67	
2025-01-10 23:51:51.27	33.94	29.70	
2025-01-10 23:51:51.48	33.97	29.74	
2025-01-10 23:51:51.68	33.99	29.77	
2025-01-10 23:51:51.89	34.02	29.81	
2025-01-10 23:51:52.10	34.05	29.85	
2025-01-10 23:51:52.30	34.07	29.88	
2025-01-10 23:51:52.52	34.10	29.92	
2025-01-10 23:51:52.72	34.13	29.95	
2025-01-10 23:51:52.93	34.16	29.99	
2025-01-10 23:51:53.14	34.18	30.03	
2025-01-10 23:51:53.34	34.21	30.06	
2025-01-10 23:51:53.55	34.24	30.10	
2025-01-10 23:51:53.75	34.26	30.13	
2025-01-10 23:51:53.96	34.29	30.17	
2025-01-10 23:51:54.16	34.32	30.21	
2025-01-10 23:51:54.37	34.35	30.24	
2025-01-10 23:51:54.57	34.37	30.28	
2025-01-10 23:51:54.78	34.40	30.32	
2025-01-10 23:51:54.98	34.43	30.35	
2025-01-10 23:51:55.19	34.46	30.39	
2025-01-10 23:51:55.39	34.48	30.42	
2025-01-10 23:51:55.60	34.51	30.46	
2025-01-10 23:51:55.80	34.54	30.50	
2025-01-10 23:51:56.01	34.57	30.54	
2025-01-10 23:51:56.21	34.60	30.57	
2025-01-10 23:51:56.42	34.63	30.61	
2025-01-10 23:51:56.62	34.65	30.64	
2025-01-10 23:51:56.83	34.68	30.68	
2025-01-10 23:51:57.03	34.71	30.72	
2025-01-10 23:51:57.24	34.74	30.76	
2025-01-10 23:51:57.45	34.77	30.79	
2025-01-10 23:51:57.65	34.80	30.83	
2025-01-10 23:51:57.86	34.82	30.87	
2025-01-10 23:51:58.06	34.85	30.90	
2025-01-10 23:51:58.27	34.88	30.94	
2025-01-10 23:51:58.47	34.91	30.98	
2025-01-10 23:51:58.68	34.94	31.01	
2025-01-10 23:51:58.88	34.97	31.05	
2025-01-10 23:51:59.09	35.00	31.09	
2025-01-10 23:51:59.29	35.03	31.13	
2025-01-10 23:51:59.50	35.05	31.16	
2025-01-10 23:51:59.70	35.08	31.20	
2025-01-10 23:51:59.91	35.11	31.24	
2025-01-10 23:52:00.11	35.14	31.27	
2025-01-10 23:52:00.32	35.17	31.31	
2025-01-10 23:52:00.52	35.20	31.35	
2025-01-10 23:52:00.73	35.23	31.39	
2025-01-10 23:52:00.93	35.26	31.42	
2025-01-10 23:52:01.14	35.29	31.46	
2025-01-10 23:52:01.34	35.32	31.50	
2025-01-10 23:52:01.55	35.35	31.54	
2025-01-10 23:52:01.76	35.38	31.58	
2025-01-10 23:52:01.96	35.41	31.61	
2025-01-10 23:52:02.16	35.44	31.65	
2025-01-10 23:52:02.37	35.47	31.69	
2025-01-10 23:52:02.57	35.50	31.73	
2025-01-10 23:52:02.77	35.53	31.76	
2025-01-10 23:52:02.98	35.56	31.80	
2025-01-10 23:52:03.19	35.59	31.84	
2025-01-10 23:52:03.39	35.62	31.88	
2025-01-10 23:52:03.60	35.65	31.92	
2025-01-10 23:52:03.80	35.68	31.95	
2025-01-10 23:52:04.00	35.71	31.99	
2025-01-10 23:52:04.21	35.74	32.03	
2025-01-10 23:52:04.41	35.77	32.07	
2025-01-10 23:52:04.62	35.80	32.11	
2025-01-10 23:52:04.82	35.83	32.14	
2025-01-10 23:52:05.03	35.86	32.18	
2025-01-10 23:52:05.23	35.89	32.22	
2025-01-10 23:52:05.44	35.93	32.26	
2025-01-10 23:52:05.64	35.96	32.30	
2025-01-10 23:52:05.85	35.99	32.34	
2025-01-10 23:52:06.05	36.02	32.37	
2025-01-10 23:52:06.26	36.05	32.41	
2025-01-10 23:52:06.46	36.08	32.45	
2025-01-10 23:52:06.67	36.11	32.49	
2025-01-10 23:52:06.87	36.14	32.53	
2025-01-10 23:52:07.08	36.18	32.57	
2025-01-10 23:52:07.28	36.21	32.61	
2025-01-10 23:52:07.49	36.24	32.65	
2025-01-10 23:52:07.69	36.27	32.68	
2025-01-10 23:52:07.90	36.30	32.72	
2025-01-10 23:52:08.10	36.33	32.76	
2025-01-10 23:52:08.31	36.37	32.80	
2025-01-10 23:52:08.51	36.40	32.84	
2025-01-10 23:52:08.71	36.43	32.88	
2025-01-10 23:52:08.92	36.46	32.92	
2025-01-10 23:52:09.13	36.50	32.96	
2025-01-10 23:52:09.33	36.53	33.00	
2025-01-10 23:52:09.55	36.56	33.04	
2025-01-10 23:52:09.75	36.59	33.08	
2025-01-10 23:52:09.96	36.63	33.12	
2025-01-10 23:52:10.16	36.66	33.15	
2025-01-10 23:52:10.37	36.69	33.19	
2025-01-10 23:52:10.57	36.72	33.23	
2025-01-10 23:52:10.78	36.76	33.27	
2025-01-10 23:52:10.98	36.79	33.31	
2025-01-10 23:52:11.18	36.82	33.35	
2025-01-10 23:52:11.39	36.86	33.39	
2025-01-10 23:52:11.59	36.89	33.43	
2025-01-10 23:52:11.80	36.92	33.47	
2025-01-10 23:52:12.00	36.96	33.51	
2025-01-10 23:52:12.21	36.99	33.55	
2025-01-10 23:52:12.41	37.02	33.59	
2025-01-10 23:52:12.62	37.06	33.63	
2025-01-10 23:52:12.82	37.09	33.67	
2025-01-10 23:52:13.03	37.13	33.71	
2025-01-10 23:52:13.23	37.16	33.75	
2025-01-10 23:52:13.44	37.19	33.79	
2025-01-10 23:52:13.64	37.23	33.83	
2025-01-10 23:52:13.85	37.26	33.87	
2025-01-10 23:52:14.05	37.29	33.91	
2025-01-10 23:52:14.26	37.33	33.95	
2025-01-10 23:52:14.46	37.36	33.99	
2025-01-10 23:52:14.67	37.40	34.03	
2025-01-10 23:52:14.87	37.43	34.07	
2025-01-10 23:52:15.08	37.47	34.11	
2025-01-10 23:52:15.28	37.50	34.15	
2025-01-10 23:52:15.49	37.54	34.19	
2025-01-10 23:52:15.69	37.57	34.23	
2025-01-10 23:52:15.89	37.61	34.27	
2025-01-10 23:52:16.10	37.64	34.31	
2025-01-10 23:52:16.30	37.68	34.35	
2025-01-10 23:52:16.51	37.71	34.39	
2025-01-10 23:52:16.72	37.75	34.44	
2025-01-10 23:52:16.93	37.78	34.48	
2025-01-10 23:52:17.14	37.82	34.52	
2025-01-10 23:52:17.34	37.86	34.56	
2025-01-10 23:52:17.55	37.89	34.60	
2025-01-10 23:52:17.75	37.93	34.64	
2025-01-10 23:52:17.95	37.96	34.68	
2025-01-10 23:52:18.16	38.00	34.72	
2025-01-10 23:52:18.36	38.03	34.76	
2025-01-10 23:52:18.57	38.07	34.80	
2025-01-10 23:52:18.78	38.11	34.85	
2025-01-10 23:52:18.98	38.14	34.89	
2025-01-10 23:52:19.19	38.18	34.93	
2025-01-10 23:52:19.39	38.22	34.97	
2025-01-10 23:52:19.60	38.25	35.01	
2025-01-10 23:52:19.80	38.29	35.05	
2025-01-10 23:52:20.01	38.33	35.09	
2025-01-10 23:52:20.22	38.36	35.14	
2025-01-10 23:52:20.43	38.40	35.18	
2025-01-10 23:52:20.64	38.44	35.22	
2025-01-10 23:52:20.84	38.48	35.26	
2025-01-10 23:52:21.05	38.51	35.30	
2025-01-10 23:52:21.25	38.55	35.34	
2025-01-10 23:52:21.45	38.59	35.39	
2025-01-10 23:52:21.66	38.63	35.43	
2025-01-10 23:52:21.87	38.66	35.47	
2025-01-10 23:52:22.07	38.70	35.51	
2025-01-10 23:52:22.28	38.74	35.55	
2025-01-10 23:52:22.48	38.78	35.59	
2025-01-10 23:52:22.69	38.82	35.64	
2025-01-10 23:52:22.89	38.85	35.68	
2025-01-10 23:52:23.10	38.89	35.72	
2025-01-10 23:52:23.30	38.93	35.76	
2025-01-10 23:52:23.51	38.97	35.81	
2025-01-10 23:52:23.71	39.01	35.85	
2025-01-10 23:52:23.92	39.05	35.89	
2025-01-10 23:52:24.12	39.08	35.93	
2025-01-10 23:52:24.33	39.12	35.97	
2025-01-10 23:52:24.53	39.16	36.02	
2025-01-10 23:52:24.73	39.20	36.06	
2025-01-10 23:52:24.94	39.24	36.10	
2025-01-10 23:52:25.14	39.28	36.14	
2025-01-10 23:52:25.35	39.32	36.18	
2025-01-10 23:52:25.55	39.36	36.23	
2025-01-10 23:52:25.76	39.40	36.27	
2025-01-10 23:52:25.96	39.43	36.31	
2025-01-10 23:52:26.17	39.47	36.36	
2025-01-10 23:52:26.38	39.52	36.40	
2025-01-10 23:52:26.58	39.55	36.44	
2025-01-10 23:52:26.79	39.60	36.48	
2025-01-10 23:52:27.00	39.64	36.53	
2025-01-10 23:52:27.20	39.68	36.57	
2025-01-10 23:52:27.41	39.72	36.61	
2025-01-10 23:52:27.61	39.76	36.66	
2025-01-10 23:52:27.81	39.80	36.70	
2025-01-10 23:52:28.02	39.84	36.74	
2025-01-10 23:52:28.22	39.88	36.78	
2025-01-10 23:52:28.43	39.92	36.83	
2025-01-10 23:52:28.64	39.96	36.87	
2025-01-10 23:52:28.84	40.00	36.91	
2025-01-10 23:52:29.04	40.04	36.96	
2025-01-10 23:52:29.25	40.08	37.00	
2025-01-10 23:52:29.46	40.12	37.04	
2025-01-10 23:52:29.66	40.17	37.09	
2025-01-10 23:52:29.86	40.21	37.13	
2025-01-10 23:52:30.07	40.25	37.17	
2025-01-10 23:52:30.27	40.29	37.22	
2025-01-10 23:52:30.48	40.33	37.26	
2025-01-10 23:52:30.69	40.37	37.30	
2025-01-10 23:52:30.89	40.42	37.35	
2025-01-10 23:52:31.10	40.46	37.39	
2025-01-10 23:52:31.30	40.50	37.43	
2025-01-10 23:52:31.51	40.54	37.48	
2025-01-10 23:52:31.71	40.59	37.52	
2025-01-10 23:52:31.93	40.63	37.57	
2025-01-10 23:52:32.14	40.67	37.61	
2025-01-10 23:52:32.34	40.72	37.66	
2025-01-10 23:52:32.55	40.76	37.70	
2025-01-10 23:52:32.75	40.80	37.74	
2025-01-10 23:52:32.95	40.84	37.79	
2025-01-10 23:52:33.16	40.89	37.83	
2025-01-10 23:52:33.37	40.93	37.88	
2025-01-10 23:52:33.58	40.98	37.92	
2025-01-10 23:52:33.78	41.02	37.97	
2025-01-10 23:52:33.99	41.07	38.01	
2025-01-10 23:52:34.19	41.11	38.05	
2025-01-10 23:52:34.40	41.15	38.10	
2025-01-10 23:52:34.60	41.20	38.14	
2025-01-10 23:52:34.81	41.24	38.19	
2025-01-10 23:52:35.01	41.28	38.23	
2025-01-10 23:52:35.21	41.33	38.27	
2025-01-10 23:52:35.42	41.37	38.32	
2025-01-10 23:52:35.63	41.42	38.36	
2025-01-10 23:52:35.83	41.46	38.41	
2025-01-10 23:52:36.04	41.51	38.45	
2025-01-10 23:52:36.24	41.55	38.50	
2025-01-10 23:52:36.45	41.60	38.54	
2025-01-10 23:52:36.66	41.65	38.59	
2025-01-10 23:52:36.86	41.69	38.63	
2025-01-10 23:52:37.07	41.74	38.68	
2025-01-10 23:52:37.27	41.78	38.72	
2025-01-10 23:52:37.47	41.83	38.77	
2025-01-10 23:52:37.68	41.87	38.81	
2025-01-10 23:52:37.89	41.92	38.86	
2025-01-10 23:52:38.09	41.97	38.90	
2025-01-10 23:52:38.29	42.01	38.95	
2025-01-10 23:52:38.50	42.06	38.99	
2025-01-10 23:52:38.71	42.11	39.04	
2025-01-10 23:52:38.91	42.15	39.08	
2025-01-10 23:52:39.12	42.20	39.13	
2025-01-10 23:52:39.32	42.25	39.17	
2025-01-10 23:52:39.52	42.29	39.22	
2025-01-10 23:52:39.73	42.34	39.26	
2025-01-10 23:52:39.93	42.39	39.31	
2025-01-10 23:52:40.14	42.43	39.35	
2025-01-10 23:52:40.34	42.48	39.40	
2025-01-10 23:52:40.54	42.53	39.44	
2025-01-10 23:52:40.75	42.58	39.49	
2025-01-10 23:52:40.95	42.62	39.53	
2025-01-10 23:52:41.16	42.67	39.58	
2025-01-10 23:52:41.36	42.72	39.62	
2025-01-10 23:52:41.57	42.77	39.67	
2025-01-10 23:52:41.77	42.82	39.72	
2025-01-10 23:52:41.98	42.87	39.76	
2025-01-10 23:52:42.18	42.91	39.81	
2025-01-10 23:52:42.39	42.96	39.85	
2025-01-10 23:52:42.59	43.01	39.90	
2025-01-10 23:52:42.80	43.06	39.94	
2025-01-10 23:52:43.00	43.11	39.99	
2025-01-10 23:52:43.21	43.16	40.04	
2025-01-10 23:52:43.41	43.21	40.08	
2025-01-10 23:52:43.63	43.26	40.13	
2025-01-10 23:52:43.84	43.31	40.18	
2025-01-10 23:52:44.04	43.36	40.22	
2025-01-10 23:52:44.25	43.41	40.27	
2025-01-10 23:52:44.45	43.46	40.32	
2025-01-10 23:52:44.65	43.51	40.36	
2025-01-10 23:52:44.86	43.56	40.41	
2025-01-10 23:52:45.07	43.62	40.45	
2025-01-10 23:52:45.27	43.66	40.50	
2025-01-10 23:52:45.48	43.72	40.55	
2025-01-10 23:52:45.68	43.77	40.59	
2025-01-10 23:52:45.89	43.82	40.64	
2025-01-10 23:52:46.09	43.87	40.69	
2025-01-10 23:52:46.30	43.92	40.73	
2025-01-10 23:52:46.50	43.97	40.78	
2025-01-10 23:52:46.71	44.03	40.83	
2025-01-10 23:52:46.91	44.08	40.87	
2025-01-10 23:52:47.12	44.13	40.92	
2025-01-10 23:52:47.32	44.18	40.96	
2025-01-10 23:52:47.53	44.24	41.01	
2025-01-10 23:52:47.73	44.29	41.06	
2025-01-10 23:52:47.94	44.34	41.11	
2025-01-10 23:52:48.14	44.39	41.15	
2025-01-10 23:52:48.35	44.45	41.20	
2025-01-10 23:52:48.55	44.50	41.24	
2025-01-10 23:52:48.76	44.55	41.29	
2025-01-10 23:52:48.96	44.61	41.34	
2025-01-10 23:52:49.17	44.66	41.39	
2025-01-10 23:52:49.37	44.71	41.43	
2025-01-10 23:52:49.58	44.77	41.48	
2025-01-10 23:52:49.78	44.82	41.53	
2025-01-10 23:52:49.99	44.88	41.57	
2025-01-10 23:52:50.19	44.93	41.62	
2025-01-10 23:52:50.40	44.99	41.67	
2025-01-10 23:52:50.60	45.04	41.71	
2025-01-10 23:52:50.81	45.10	41.76	
2025-01-10 23:52:51.01	45.15	41.81	
2025-01-10 23:52:51.22	45.21	41.86	
2025-01-10 23:52:51.42	45.26	41.90	
2025-01-10 23:52:51.63	45.32	41.95	
2025-01-10 23:52:51.83	45.37	42.00	
2025-01-10 23:52:52.04	45.43	42.05	
2025-01-10 23:52:52.24	45.48	42.09	
2025-01-10 23:52:52.45	45.54	42.14	
2025-01-10 23:52:52.65	45.60	42.19	
2025-01-10 23:52:52.86	45.65	42.24	
2025-01-10 23:52:53.06	45.71	42.28	
2025-01-10 23:52:53.27	45.77	42.33	
2025-01-10 23:52:53.47	45.82	42.38	
2025-01-10 23:52:53.67	45.88	42.42	
2025-01-10 23:52:53.88	45.94	42.47	
2025-01-10 23:52:54.08	45.99	42.52	
2025-01-10 23:52:54.29	46.05	42.57	
2025-01-10 23:52:54.49	46.11	42.62	
2025-01-10 23:52:54.70	46.17	42.66	
2025-01-10 23:52:54.90	46.22	42.71	
2025-01-10 23:52:55.11	46.28	42.76	
2025-01-10 23:52:55.31	46.34	42.81	
2025-01-10 23:52:55.52	46.40	42.86	
2025-01-10 23:52:55.72	46.46	42.90	
2025-01-10 23:52:55.93	46.52	42.95	
2025-01-10 23:52:56.13	46.58	43.00	
2025-01-10 23:52:56.34	46.64	43.05	
2025-01-10 23:52:56.54	46.70	43.09	
2025-01-10 23:52:56.75	46.76	43.14	
2025-01-10 23:52:56.96	46.82	43.19	
2025-01-10 23:52:57.16	46.88	43.24	
2025-01-10 23:52:57.36	46.94	43.29	
2025-01-10 23:52:57.57	47.00	43.34	
2025-01-10 23:52:57.77	47.06	43.38	
2025-01-10 23:52:57.98	47.12	43.43	
2025-01-10 23:52:58.19	47.18	43.48	
2025-01-10 23:52:58.39	47.24	43.53	
2025-01-10 23:52:58.60	47.30	43.58	
2025-01-10 23:52:58.80	47.36	43.63	
2025-01-10 23:52:59.01	47.43	43.68	
2025-01-10 23:52:59.21	47.49	43.72	
2025-01-10 23:52:59.42	47.55	43.77	
2025-01-10 23:52:59.63	47.62	43.82	
2025-01-10 23:52:59.83	47.68	43.87	
2025-01-10 23:53:00.03	47.74	43.92	
2025-01-10 23:53:00.24	47.80	43.97	
2025-01-10 23:53:00.44	47.86	44.01	
2025-01-10 23:53:00.65	47.93	44.06	
2025-01-10 23:53:00.85	47.99	44.11	
2025-01-10 23:53:01.06	48.06	44.16	
2025-01-10 23:53:01.26	48.12	44.21	
2025-01-10 23:53:01.47	48.18	44.26	
2025-01-10 23:53:01.68	48.25	44.31	
2025-01-10 23:53:01.89	48.32	44.36	
2025-01-10 23:53:02.09	48.38	44.41	
2025-01-10 23:53:02.30	48.44	44.46	
2025-01-10 23:53:02.51	48.51	44.50	
2025-01-10 23:53:02.71	48.57	44.55	
2025-01-10 23:53:02.92	48.64	44.60	
2025-01-10 23:53:03.12	48.71	44.65	
2025-01-10 23:53:03.33	48.77	44.70	
2025-01-10 23:53:03.53	48.84	44.75	
2025-01-10 23:53:03.74	48.91	44.80	
2025-01-10 23:53:03.94	48.97	44.85	
2025-01-10 23:53:04.15	49.04	44.90	
2025-01-10 23:53:04.35	49.10	44.94	
2025-01-10 23:53:04.56	49.17	44.99	
2025-01-10 23:53:04.76	49.24	45.04	
2025-01-10 23:53:04.97	49.31	45.09	
2025-01-10 23:53:05.17	49.37	45.14	
2025-01-10 23:53:05.38	49.44	45.19	
2025-01-10 23:53:05.59	49.51	45.24	
2025-01-10 23:53:05.79	49.58	45.29	
2025-01-10 23:53:06.00	49.65	45.34	
2025-01-10 23:53:06.20	49.72	45.39	
2025-01-10 23:53:06.41	49.79	45.44	
2025-01-10 23:53:06.62	49.86	45.49	
2025-01-10 23:53:06.82	49.92	45.53	
2025-01-10 23:53:07.02	49.99	45.58	
2025-01-10 23:53:07.23	50.06	45.63	
2025-01-10 23:53:07.43	50.13	45.68	
2025-01-10 23:53:07.64	50.20	45.73	
2025-01-10 23:53:07.85	50.28	45.78	
2025-01-10 23:53:08.05	50.34	45.83	
2025-01-10 23:53:08.26	50.42	45.88	
2025-01-10 23:53:08.46	50.49	45.93	
2025-01-10 23:53:08.67	50.56	45.98	
2025-01-10 23:53:08.87	50.63	46.03	
2025-01-10 23:53:09.08	50.70	46.08	
2025-01-10 23:53:09.28	50.77	46.13	
2025-01-10 23:53:09.49	50.85	46.18	
2025-01-10 23:53:09.69	50.92	46.22	
2025-01-10 23:53:09.90	50.99	46.27	
2025-01-10 23:53:10.10	51.06	46.32	
2025-01-10 23:53:10.31	51.14	46.37	
2025-01-10 23:53:10.51	51.21	46.42	
2025-01-10 23:53:10.72	51.28	46.47	
2025-01-10 23:53:10.93	51.36	46.52	
2025-01-10 23:53:11.13	51.43	46.57	
2025-01-10 23:53:11.35	51.51	46.62	
2025-01-10 23:53:11.55	51.58	46.67	
2025-01-10 23:53:11.76	51.66	46.72	
2025-01-10 23:53:11.97	51.74	46.77	
2025-01-10 23:53:12.17	51.81	46.82	
2025-01-10 23:53:12.37	51.88	46.87	
2025-01-10 23:53:12.58	51.96	46.92	
2025-01-10 23:53:12.78	52.04	46.97	
2025-01-10 23:53:12.99	52.11	47.02	
2025-01-10 23:53:13.19	52.19	47.07	
2025-01-10 23:53:13.40	52.27	47.12	
2025-01-10 23:53:13.60	52.34	47.17	
2025-01-10 23:53:13.81	52.42	47.22	
2025-01-10 23:53:14.01	52.50	47.27	
2025-01-10 23:53:14.22	52.57	47.32	
2025-01-10 23:53:14.42	52.65	47.36	
2025-01-10 23:53:14.63	52.73	47.41	
2025-01-10 23:53:14.83	52.81	47.46	
2025-01-10 23:53:15.04	52.89	47.51	
2025-01-10 23:53:15.24	52.96	47.56	
2025-01-10 23:53:15.45	53.04	47.61	
2025-01-10 23:53:15.65	53.12	47.66	
2025-01-10 23:53:15.86	53.20	47.71	
2025-01-10 23:53:16.06	53.28	47.76	
2025-01-10 23:53:16.27	53.36	47.81	
2025-01-10 23:53:16.47	53.44	47.86	
2025-01-10 23:53:16.68	53.52	47.91	
2025-01-10 23:53:16.88	53.60	47.96	
2025-01-10 23:53:17.09	53.69	48.01	
2025-01-10 23:53:17.29	53.77	48.06	
2025-01-10 23:53:17.50	53.85	48.11	
2025-01-10 23:53:17.70	53.93	48.16	
2025-01-10 23:53:17.91	54.01	48.21	
2025-01-10 23:53:18.12	54.10	48.26	
2025-01-10 23:53:18.32	54.18	48.31	
2025-01-10 23:53:18.52	54.26	48.35	
2025-01-10 23:53:18.73	54.34	48.40	
2025-01-10 23:53:18.93	54.42	48.45	
2025-01-10 23:53:19.14	54.51	48.50	
2025-01-10 23:53:19.34	54.59	48.55	
2025-01-10 23:53:19.55	54.68	48.60	
2025-01-10 23:53:19.75	54.76	48.65	
2025-01-10 23:53:19.96	54.85	48.70	
2025-01-10 23:53:20.16	54.93	48.75	
2025-01-10 23:53:20.37	55.02	48.80	
2025-01-10 23:53:20.57	55.10	48.85	
2025-01-10 23:53:20.78	55.19	48.90	
2025-01-10 23:53:20.98	55.27	48.95	
2025-01-10 23:53:21.19	55.36	49.00	
2025-01-10 23:53:21.39	55.45	49.04	
2025-01-10 23:53:21.60	55.53	49.10	
2025-01-10 23:53:21.80	55.62	49.14	
2025-01-10 23:53:22.01	55.71	49.19	
2025-01-10 23:53:22.21	55.79	49.24	
2025-01-10 23:53:22.41	55.88	49.29	
2025-01-10 23:53:22.62	55.97	49.34	
2025-01-10 23:53:22.83	56.06	49.39	
2025-01-10 23:53:23.03	56.15	49.44	
2025-01-10 23:53:23.23	56.24	49.49	
2025-01-10 23:53:23.44	56.33	49.54	
2025-01-10 23:53:23.64	56.41	49.59	
2025-01-10 23:53:23.85	56.51	49.64	
2025-01-10 23:53:24.05	56.59	49.68	
2025-01-10 23:53:24.26	56.69	49.73	
2025-01-10 23:53:24.46	56.78	49.78	
2025-01-10 23:53:24.67	56.87	49.83	
2025-01-10 23:53:24.87	56.96	49.88	
2025-01-10 23:53:25.08	57.05	49.93	
2025-01-10 23:53:25.28	57.14	49.98	
2025-01-10 23:53:25.49	57.24	50.03	
2025-01-10 23:53:25.69	57.33	50.08	
2025-01-10 23:53:25.90	57.42	50.13	
2025-01-10 23:53:26.10	57.51	50.17	
2025-01-10 23:53:26.31	57.61	50.22	
2025-01-10 23:53:26.52	57.70	50.27	
2025-01-10 23:53:26.72	57.80	50.32	
2025-01-10 23:53:26.93	57.89	50.37	
2025-01-10 23:53:27.13	57.99	50.42	
2025-01-10 23:53:27.34	58.08	50.47	
2025-01-10 23:53:27.54	58.18	50.52	
2025-01-10 23:53:27.75	58.27	50.57	
2025-01-10 23:53:27.95	58.37	50.61	
2025-01-10 23:53:28.16	58.47	50.66	
2025-01-10 23:53:28.36	58.56	50.71	
2025-01-10 23:53:28.57	58.66	50.76	
2025-01-10 23:53:28.77	58.75	50.81	
2025-01-10 23:53:28.98	58.85	50.86	
2025-01-10 23:53:29.19	58.95	50.91	
2025-01-10 23:53:29.39	59.05	50.95	
2025-01-10 23:53:29.59	59.15	51.00	
2025-01-10 23:53:29.80	59.25	51.05	
2025-01-10 23:53:30.01	59.35	51.10	
2025-01-10 23:53:30.21	59.44	51.15	
2025-01-10 23:53:30.41	59.54	51.19	
2025-01-10 23:53:30.62	59.64	51.24	
