passes_logs/2025/01/10/SPB_Silybum_02/SPB_Silybum_02__20250110_131133_AQUA_rec.log

#Pass ID: 20250110_131133_AQUA
#Satellite: AQUA
#Configuration: AQUA
#Start time: 2025-01-10 13:11:32

#Version: 2.0.20230423
#Station: SPB_Silybum_02
#Location: 30.233357 lon 59.946436 lat
#TLE: 1 27424U 02022A   25009.33792655  .00001838  00000+0  38750-3 0  9996
#TLE: 2 27424  98.3576 325.9512 0001516 117.1765  36.3916 14.60660973206791

#Time	Az	El	Level	Level2	SNR	BER	Gain	Gain2
2025-01-10 13:11:34.17	220.14	4.04	
2025-01-10 13:11:34.37	220.16	4.05	
2025-01-10 13:11:34.58	220.18	4.06	
2025-01-10 13:11:34.78	220.20	4.08	
2025-01-10 13:11:34.99	220.22	4.09	
2025-01-10 13:11:35.19	220.25	4.10	
2025-01-10 13:11:35.40	220.27	4.11	
2025-01-10 13:11:35.60	220.29	4.12	
2025-01-10 13:11:35.81	220.31	4.13	
2025-01-10 13:11:36.01	220.33	4.14	
2025-01-10 13:11:36.22	220.35	4.16	
2025-01-10 13:11:36.42	220.37	4.17	
2025-01-10 13:11:36.62	220.40	4.18	
2025-01-10 13:11:36.83	220.42	4.19	
2025-01-10 13:11:37.03	220.44	4.20	
2025-01-10 13:11:37.24	220.46	4.21	
2025-01-10 13:11:37.45	220.48	4.23	
2025-01-10 13:11:37.65	220.51	4.24	
2025-01-10 13:11:37.86	220.53	4.25	
2025-01-10 13:11:38.06	220.55	4.26	
2025-01-10 13:11:38.27	220.57	4.27	
2025-01-10 13:11:38.47	220.59	4.28	
2025-01-10 13:11:38.68	220.62	4.29	
2025-01-10 13:11:38.88	220.64	4.31	
2025-01-10 13:11:39.09	220.66	4.32	
2025-01-10 13:11:39.29	220.68	4.33	
2025-01-10 13:11:39.50	220.70	4.34	
2025-01-10 13:11:39.71	220.73	4.35	
2025-01-10 13:11:39.91	220.75	4.36	
2025-01-10 13:11:40.12	220.77	4.38	
2025-01-10 13:11:40.32	220.79	4.39	
2025-01-10 13:11:40.53	220.81	4.40	
2025-01-10 13:11:40.73	220.84	4.41	
2025-01-10 13:11:40.94	220.86	4.42	
2025-01-10 13:11:41.14	220.88	4.43	
2025-01-10 13:11:41.35	220.90	4.44	
2025-01-10 13:11:41.56	220.92	4.46	
2025-01-10 13:11:41.76	220.95	4.47	
2025-01-10 13:11:41.96	220.97	4.48	
2025-01-10 13:11:42.17	220.99	4.49	
2025-01-10 13:11:42.38	221.01	4.50	
2025-01-10 13:11:42.58	221.03	4.51	
2025-01-10 13:11:42.79	221.06	4.53	
2025-01-10 13:11:42.99	221.08	4.54	
2025-01-10 13:11:43.20	221.10	4.55	
2025-01-10 13:11:43.41	221.13	4.56	
2025-01-10 13:11:43.61	221.15	4.57	
2025-01-10 13:11:43.82	221.17	4.58	
2025-01-10 13:11:44.02	221.19	4.59	
2025-01-10 13:11:44.23	221.21	4.61	
2025-01-10 13:11:44.43	221.24	4.62	
2025-01-10 13:11:44.64	221.26	4.63	
2025-01-10 13:11:44.84	221.28	4.64	
2025-01-10 13:11:45.05	221.30	4.65	
2025-01-10 13:11:45.25	221.33	4.66	
2025-01-10 13:11:45.46	221.35	4.68	
2025-01-10 13:11:45.66	221.37	4.69	
2025-01-10 13:11:45.87	221.39	4.70	
2025-01-10 13:11:46.08	221.42	4.71	
2025-01-10 13:11:46.28	221.44	4.72	
2025-01-10 13:11:46.48	221.46	4.73	
2025-01-10 13:11:46.69	221.48	4.75	
2025-01-10 13:11:46.90	221.51	4.76	
2025-01-10 13:11:47.10	221.53	4.77	
2025-01-10 13:11:47.31	221.55	4.78	
2025-01-10 13:11:47.51	221.58	4.79	
2025-01-10 13:11:47.72	221.60	4.80	
2025-01-10 13:11:47.92	221.62	4.81	
2025-01-10 13:11:48.13	221.64	4.83	
2025-01-10 13:11:48.33	221.67	4.84	
2025-01-10 13:11:48.54	221.69	4.85	
2025-01-10 13:11:48.74	221.71	4.86	
2025-01-10 13:11:48.95	221.73	4.87	
2025-01-10 13:11:49.16	221.76	4.88	
2025-01-10 13:11:49.36	221.78	4.90	
2025-01-10 13:11:49.56	221.80	4.91	
2025-01-10 13:11:49.77	221.83	4.92	
2025-01-10 13:11:49.98	221.85	4.93	
2025-01-10 13:11:50.18	221.87	4.94	
2025-01-10 13:11:50.39	221.90	4.95	
2025-01-10 13:11:50.59	221.92	4.97	
2025-01-10 13:11:50.79	221.94	4.98	
2025-01-10 13:11:51.00	221.96	4.99	
2025-01-10 13:11:51.21	221.99	5.00	
2025-01-10 13:11:51.41	222.01	5.01	
2025-01-10 13:11:51.62	222.03	5.02	
2025-01-10 13:11:51.82	222.06	5.04	
2025-01-10 13:11:52.03	222.08	5.05	
2025-01-10 13:11:52.24	222.10	5.06	
2025-01-10 13:11:52.44	222.13	5.07	
2025-01-10 13:11:52.64	222.15	5.08	
2025-01-10 13:11:52.85	222.17	5.09	
2025-01-10 13:11:53.06	222.20	5.11	
2025-01-10 13:11:53.26	222.22	5.12	
2025-01-10 13:11:53.47	222.24	5.13	
2025-01-10 13:11:53.67	222.27	5.14	
2025-01-10 13:11:53.88	222.29	5.15	
2025-01-10 13:11:54.08	222.31	5.16	
2025-01-10 13:11:54.29	222.34	5.18	
2025-01-10 13:11:54.49	222.36	5.19	
2025-01-10 13:11:54.71	222.38	5.20	
2025-01-10 13:11:54.91	222.41	5.21	
2025-01-10 13:11:55.12	222.43	5.22	
2025-01-10 13:11:55.33	222.45	5.23	
2025-01-10 13:11:55.53	222.48	5.25	
2025-01-10 13:11:55.74	222.50	5.26	
2025-01-10 13:11:55.94	222.52	5.27	
2025-01-10 13:11:56.14	222.55	5.28	
2025-01-10 13:11:56.35	222.57	5.29	
2025-01-10 13:11:56.57	222.60	5.31	
2025-01-10 13:11:56.77	222.62	5.32	
2025-01-10 13:11:56.97	222.64	5.33	
2025-01-10 13:11:57.18	222.67	5.34	
2025-01-10 13:11:57.39	222.69	5.35	
2025-01-10 13:11:57.59	222.71	5.36	
2025-01-10 13:11:57.80	222.74	5.38	
2025-01-10 13:11:58.02	222.76	5.39	
2025-01-10 13:11:58.22	222.79	5.40	
2025-01-10 13:11:58.43	222.81	5.41	
2025-01-10 13:11:58.63	222.83	5.42	
2025-01-10 13:11:58.84	222.86	5.44	
2025-01-10 13:11:59.04	222.88	5.45	
2025-01-10 13:11:59.25	222.91	5.46	
2025-01-10 13:11:59.45	222.93	5.47	
2025-01-10 13:11:59.66	222.95	5.48	
2025-01-10 13:11:59.86	222.98	5.49	
2025-01-10 13:12:00.07	223.00	5.51	
2025-01-10 13:12:00.27	223.02	5.52	
2025-01-10 13:12:00.48	223.05	5.53	
2025-01-10 13:12:00.68	223.07	5.54	
2025-01-10 13:12:00.89	223.10	5.55	
2025-01-10 13:12:01.09	223.12	5.56	
2025-01-10 13:12:01.30	223.14	5.58	
2025-01-10 13:12:01.51	223.17	5.59	
2025-01-10 13:12:01.71	223.19	5.60	
2025-01-10 13:12:01.92	223.22	5.61	
2025-01-10 13:12:02.12	223.24	5.62	
2025-01-10 13:12:02.32	223.26	5.63	
2025-01-10 13:12:02.53	223.29	5.65	
2025-01-10 13:12:02.73	223.31	5.66	
2025-01-10 13:12:02.94	223.34	5.67	
2025-01-10 13:12:03.14	223.36	5.68	
2025-01-10 13:12:03.34	223.38	5.69	
2025-01-10 13:12:03.55	223.41	5.70	
2025-01-10 13:12:03.76	223.43	5.72	
2025-01-10 13:12:03.96	223.46	5.73	
2025-01-10 13:12:04.17	223.48	5.74	
2025-01-10 13:12:04.37	223.51	5.75	
2025-01-10 13:12:04.58	223.53	5.76	
2025-01-10 13:12:04.79	223.56	5.78	
2025-01-10 13:12:04.99	223.58	5.79	
2025-01-10 13:12:05.20	223.61	5.80	
2025-01-10 13:12:05.41	223.63	5.81	
2025-01-10 13:12:05.61	223.65	5.82	
2025-01-10 13:12:05.82	223.68	5.83	
2025-01-10 13:12:06.02	223.70	5.85	
2025-01-10 13:12:06.23	223.73	5.86	
2025-01-10 13:12:06.43	223.75	5.87	
2025-01-10 13:12:06.65	223.78	5.88	
2025-01-10 13:12:06.86	223.80	5.89	
2025-01-10 13:12:07.06	223.83	5.91	
2025-01-10 13:12:07.27	223.85	5.92	
2025-01-10 13:12:07.47	223.88	5.93	
2025-01-10 13:12:07.68	223.90	5.94	
2025-01-10 13:12:07.89	223.93	5.95	
2025-01-10 13:12:08.09	223.95	5.96	
2025-01-10 13:12:08.30	223.98	5.98	
2025-01-10 13:12:08.50	224.00	5.99	
2025-01-10 13:12:08.71	224.03	6.00	
2025-01-10 13:12:08.91	224.05	6.01	
2025-01-10 13:12:09.12	224.08	6.02	
2025-01-10 13:12:09.32	224.10	6.04	
2025-01-10 13:12:09.53	224.13	6.05	
2025-01-10 13:12:09.73	224.15	6.06	
2025-01-10 13:12:09.94	224.17	6.07	
2025-01-10 13:12:10.14	224.20	6.08	
2025-01-10 13:12:10.35	224.22	6.09	
2025-01-10 13:12:10.56	224.25	6.11	
2025-01-10 13:12:10.76	224.27	6.12	
2025-01-10 13:12:10.97	224.30	6.13	
2025-01-10 13:12:11.17	224.32	6.14	
2025-01-10 13:12:11.38	224.35	6.15	
2025-01-10 13:12:11.58	224.37	6.17	
2025-01-10 13:12:11.79	224.40	6.18	
2025-01-10 13:12:11.99	224.42	6.19	
2025-01-10 13:12:12.20	224.45	6.20	
2025-01-10 13:12:12.41	224.48	6.21	
2025-01-10 13:12:12.61	224.50	6.23	
2025-01-10 13:12:12.82	224.53	6.24	
2025-01-10 13:12:13.02	224.55	6.25	
2025-01-10 13:12:13.23	224.58	6.26	
2025-01-10 13:12:13.44	224.60	6.27	
2025-01-10 13:12:13.64	224.63	6.28	
2025-01-10 13:12:13.85	224.65	6.30	
2025-01-10 13:12:14.05	224.68	6.31	
2025-01-10 13:12:14.26	224.70	6.32	
2025-01-10 13:12:14.46	224.73	6.33	
2025-01-10 13:12:14.67	224.75	6.34	
2025-01-10 13:12:14.87	224.78	6.36	
2025-01-10 13:12:15.08	224.81	6.37	
2025-01-10 13:12:15.28	224.83	6.38	
2025-01-10 13:12:15.49	224.86	6.39	
2025-01-10 13:12:15.69	224.88	6.40	
2025-01-10 13:12:15.90	224.91	6.41	
2025-01-10 13:12:16.10	224.93	6.43	
2025-01-10 13:12:16.31	224.96	6.44	
2025-01-10 13:12:16.52	224.98	6.45	
2025-01-10 13:12:16.72	225.01	6.46	
2025-01-10 13:12:16.93	225.04	6.47	
2025-01-10 13:12:17.13	225.06	6.49	
2025-01-10 13:12:17.33	225.09	6.50	
2025-01-10 13:12:17.54	225.11	6.51	
2025-01-10 13:12:17.75	225.14	6.52	
2025-01-10 13:12:17.95	225.16	6.53	
2025-01-10 13:12:18.16	225.19	6.55	
2025-01-10 13:12:18.36	225.21	6.56	
2025-01-10 13:12:18.57	225.24	6.57	
2025-01-10 13:12:18.77	225.27	6.58	
2025-01-10 13:12:18.98	225.29	6.59	
2025-01-10 13:12:19.18	225.32	6.60	
2025-01-10 13:12:19.39	225.34	6.62	
2025-01-10 13:12:19.59	225.37	6.63	
2025-01-10 13:12:19.80	225.40	6.64	
2025-01-10 13:12:20.00	225.42	6.65	
2025-01-10 13:12:20.21	225.45	6.66	
2025-01-10 13:12:20.41	225.47	6.68	
2025-01-10 13:12:20.62	225.50	6.69	
2025-01-10 13:12:20.83	225.53	6.70	
2025-01-10 13:12:21.03	225.55	6.71	
2025-01-10 13:12:21.24	225.58	6.72	
2025-01-10 13:12:21.45	225.61	6.74	
2025-01-10 13:12:21.65	225.63	6.75	
2025-01-10 13:12:21.85	225.66	6.76	
2025-01-10 13:12:22.06	225.68	6.77	
2025-01-10 13:12:22.27	225.71	6.78	
2025-01-10 13:12:22.47	225.74	6.80	
2025-01-10 13:12:22.69	225.76	6.81	
2025-01-10 13:12:22.90	225.79	6.82	
2025-01-10 13:12:23.10	225.82	6.83	
2025-01-10 13:12:23.31	225.84	6.84	
2025-01-10 13:12:23.51	225.87	6.86	
2025-01-10 13:12:23.72	225.90	6.87	
2025-01-10 13:12:23.92	225.92	6.88	
2025-01-10 13:12:24.13	225.95	6.89	
2025-01-10 13:12:24.33	225.97	6.90	
2025-01-10 13:12:24.54	226.00	6.92	
2025-01-10 13:12:24.74	226.03	6.93	
2025-01-10 13:12:24.95	226.05	6.94	
2025-01-10 13:12:25.15	226.08	6.95	
2025-01-10 13:12:25.36	226.11	6.96	
2025-01-10 13:12:25.56	226.13	6.97	
2025-01-10 13:12:25.77	226.16	6.99	
2025-01-10 13:12:25.97	226.19	7.00	
2025-01-10 13:12:26.18	226.21	7.01	
2025-01-10 13:12:26.38	226.24	7.02	
2025-01-10 13:12:26.59	226.27	7.03	
2025-01-10 13:12:26.79	226.29	7.05	
2025-01-10 13:12:27.00	226.32	7.06	
2025-01-10 13:12:27.20	226.35	7.07	
2025-01-10 13:12:27.41	226.37	7.08	
2025-01-10 13:12:27.61	226.40	7.09	
2025-01-10 13:12:27.82	226.43	7.11	
2025-01-10 13:12:28.02	226.45	7.12	
2025-01-10 13:12:28.23	226.48	7.13	
2025-01-10 13:12:28.43	226.51	7.14	
2025-01-10 13:12:28.64	226.53	7.15	
2025-01-10 13:12:28.85	226.56	7.17	
2025-01-10 13:12:29.05	226.59	7.18	
2025-01-10 13:12:29.25	226.61	7.19	
2025-01-10 13:12:29.46	226.64	7.20	
2025-01-10 13:12:29.66	226.67	7.21	
2025-01-10 13:12:29.87	226.70	7.23	
2025-01-10 13:12:30.08	226.72	7.24	
2025-01-10 13:12:30.28	226.75	7.25	
2025-01-10 13:12:30.49	226.78	7.26	
2025-01-10 13:12:30.69	226.80	7.27	
2025-01-10 13:12:30.90	226.83	7.29	
2025-01-10 13:12:31.10	226.86	7.30	
2025-01-10 13:12:31.31	226.89	7.31	
2025-01-10 13:12:31.51	226.91	7.32	
2025-01-10 13:12:31.72	226.94	7.33	
2025-01-10 13:12:31.92	226.97	7.34	
2025-01-10 13:12:32.13	227.00	7.36	
2025-01-10 13:12:32.33	227.02	7.37	
2025-01-10 13:12:32.54	227.05	7.38	
2025-01-10 13:12:32.74	227.08	7.39	
2025-01-10 13:12:32.95	227.11	7.40	
2025-01-10 13:12:33.15	227.13	7.42	
2025-01-10 13:12:33.36	227.16	7.43	
2025-01-10 13:12:33.56	227.19	7.44	
2025-01-10 13:12:33.77	227.21	7.45	
2025-01-10 13:12:33.97	227.24	7.46	
2025-01-10 13:12:34.18	227.27	7.48	
2025-01-10 13:12:34.38	227.30	7.49	
2025-01-10 13:12:34.59	227.32	7.50	
2025-01-10 13:12:34.80	227.35	7.51	
2025-01-10 13:12:35.00	227.38	7.52	
2025-01-10 13:12:35.21	227.41	7.54	
2025-01-10 13:12:35.41	227.44	7.55	
2025-01-10 13:12:35.62	227.46	7.56	
2025-01-10 13:12:35.82	227.49	7.57	
2025-01-10 13:12:36.03	227.52	7.58	
2025-01-10 13:12:36.23	227.55	7.60	
2025-01-10 13:12:36.44	227.57	7.61	
2025-01-10 13:12:36.64	227.60	7.62	
2025-01-10 13:12:36.85	227.63	7.63	
2025-01-10 13:12:37.06	227.66	7.64	
2025-01-10 13:12:37.26	227.69	7.66	
2025-01-10 13:12:37.46	227.71	7.67	
2025-01-10 13:12:37.67	227.74	7.68	
2025-01-10 13:12:37.87	227.77	7.69	
2025-01-10 13:12:38.08	227.80	7.70	
2025-01-10 13:12:38.29	227.83	7.72	
2025-01-10 13:12:38.49	227.85	7.73	
2025-01-10 13:12:38.69	227.88	7.74	
2025-01-10 13:12:38.90	227.91	7.75	
2025-01-10 13:12:39.11	227.94	7.76	
2025-01-10 13:12:39.31	227.97	7.78	
2025-01-10 13:12:39.52	227.99	7.79	
2025-01-10 13:12:39.72	228.02	7.80	
2025-01-10 13:12:39.93	228.05	7.81	
2025-01-10 13:12:40.13	228.08	7.82	
2025-01-10 13:12:40.34	228.11	7.84	
2025-01-10 13:12:40.55	228.14	7.85	
2025-01-10 13:12:40.75	228.16	7.86	
2025-01-10 13:12:40.96	228.19	7.87	
2025-01-10 13:12:41.16	228.22	7.88	
2025-01-10 13:12:41.37	228.25	7.90	
2025-01-10 13:12:41.58	228.28	7.91	
2025-01-10 13:12:41.78	228.31	7.92	
2025-01-10 13:12:41.98	228.33	7.93	
2025-01-10 13:12:42.19	228.36	7.94	
2025-01-10 13:12:42.40	228.39	7.96	
2025-01-10 13:12:42.60	228.42	7.97	
2025-01-10 13:12:42.82	228.45	7.98	
2025-01-10 13:12:43.02	228.48	7.99	
2025-01-10 13:12:43.23	228.51	8.01	
2025-01-10 13:12:43.44	228.54	8.02	
2025-01-10 13:12:43.64	228.57	8.03	
2025-01-10 13:12:43.85	228.59	8.04	
2025-01-10 13:12:44.05	228.62	8.05	
2025-01-10 13:12:44.26	228.65	8.07	
2025-01-10 13:12:44.47	228.68	8.08	
2025-01-10 13:12:44.67	228.71	8.09	
2025-01-10 13:12:44.88	228.74	8.10	
2025-01-10 13:12:45.09	228.77	8.11	
2025-01-10 13:12:45.30	228.80	8.13	
2025-01-10 13:12:45.50	228.83	8.14	
2025-01-10 13:12:45.71	228.86	8.15	
2025-01-10 13:12:45.91	228.88	8.16	
2025-01-10 13:12:46.12	228.91	8.17	
2025-01-10 13:12:46.32	228.94	8.19	
2025-01-10 13:12:46.53	228.97	8.20	
2025-01-10 13:12:46.74	229.00	8.21	
2025-01-10 13:12:46.94	229.03	8.22	
2025-01-10 13:12:47.15	229.06	8.23	
2025-01-10 13:12:47.35	229.09	8.25	
2025-01-10 13:12:47.56	229.12	8.26	
2025-01-10 13:12:47.76	229.15	8.27	
2025-01-10 13:12:47.97	229.18	8.28	
2025-01-10 13:12:48.17	229.20	8.29	
2025-01-10 13:12:48.38	229.23	8.31	
2025-01-10 13:12:48.58	229.26	8.32	
2025-01-10 13:12:48.79	229.29	8.33	
2025-01-10 13:12:49.00	229.32	8.34	
2025-01-10 13:12:49.20	229.35	8.35	
2025-01-10 13:12:49.41	229.38	8.37	
2025-01-10 13:12:49.62	229.41	8.38	
2025-01-10 13:12:49.82	229.44	8.39	
2025-01-10 13:12:50.03	229.47	8.40	
2025-01-10 13:12:50.23	229.50	8.41	
2025-01-10 13:12:50.44	229.53	8.43	
2025-01-10 13:12:50.64	229.56	8.44	
2025-01-10 13:12:50.85	229.59	8.45	
2025-01-10 13:12:51.05	229.62	8.46	
2025-01-10 13:12:51.26	229.65	8.48	
2025-01-10 13:12:51.48	229.68	8.49	
2025-01-10 13:12:51.69	229.71	8.50	
2025-01-10 13:12:51.89	229.74	8.51	
2025-01-10 13:12:52.10	229.77	8.52	
2025-01-10 13:12:52.30	229.80	8.54	
2025-01-10 13:12:52.50	229.83	8.55	
2025-01-10 13:12:52.71	229.86	8.56	
2025-01-10 13:12:52.91	229.89	8.57	
2025-01-10 13:12:53.12	229.92	8.58	
2025-01-10 13:12:53.33	229.95	8.60	
2025-01-10 13:12:53.53	229.98	8.61	
2025-01-10 13:12:53.73	230.01	8.62	
2025-01-10 13:12:53.94	230.04	8.63	
2025-01-10 13:12:54.15	230.07	8.64	
2025-01-10 13:12:54.35	230.10	8.66	
2025-01-10 13:12:54.55	230.13	8.67	
2025-01-10 13:12:54.76	230.16	8.68	
2025-01-10 13:12:54.96	230.19	8.69	
2025-01-10 13:12:55.17	230.22	8.70	
2025-01-10 13:12:55.37	230.25	8.72	
2025-01-10 13:12:55.58	230.28	8.73	
2025-01-10 13:12:55.78	230.31	8.74	
2025-01-10 13:12:55.99	230.34	8.75	
2025-01-10 13:12:56.19	230.37	8.76	
2025-01-10 13:12:56.40	230.40	8.78	
2025-01-10 13:12:56.60	230.43	8.79	
2025-01-10 13:12:56.81	230.46	8.80	
2025-01-10 13:12:57.01	230.49	8.81	
2025-01-10 13:12:57.22	230.52	8.82	
2025-01-10 13:12:57.43	230.55	8.84	
2025-01-10 13:12:57.63	230.58	8.85	
2025-01-10 13:12:57.83	230.61	8.86	
2025-01-10 13:12:58.04	230.64	8.87	
2025-01-10 13:12:58.25	230.67	8.88	
2025-01-10 13:12:58.45	230.70	8.90	
2025-01-10 13:12:58.66	230.73	8.91	
2025-01-10 13:12:58.86	230.76	8.92	
2025-01-10 13:12:59.06	230.79	8.93	
2025-01-10 13:12:59.27	230.82	8.94	
2025-01-10 13:12:59.48	230.85	8.96	
2025-01-10 13:12:59.68	230.88	8.97	
2025-01-10 13:12:59.89	230.92	8.98	
2025-01-10 13:13:00.09	230.95	8.99	
2025-01-10 13:13:00.30	230.98	9.00	
2025-01-10 13:13:00.50	231.01	9.02	
2025-01-10 13:13:00.71	231.04	9.03	
2025-01-10 13:13:00.91	231.07	9.04	
2025-01-10 13:13:01.13	231.10	9.05	
2025-01-10 13:13:01.34	231.13	9.07	
2025-01-10 13:13:01.54	231.16	9.08	
2025-01-10 13:13:01.75	231.19	9.09	
2025-01-10 13:13:01.96	231.23	9.10	
2025-01-10 13:13:02.16	231.26	9.11	
2025-01-10 13:13:02.37	231.29	9.13	
2025-01-10 13:13:02.57	231.32	9.14	
2025-01-10 13:13:02.78	231.35	9.15	
2025-01-10 13:13:02.98	231.38	9.16	
2025-01-10 13:13:03.19	231.41	9.17	
2025-01-10 13:13:03.39	231.44	9.19	
2025-01-10 13:13:03.60	231.47	9.20	
2025-01-10 13:13:03.80	231.50	9.21	
2025-01-10 13:13:04.01	231.54	9.22	
2025-01-10 13:13:04.22	231.57	9.23	
2025-01-10 13:13:04.43	231.60	9.25	
2025-01-10 13:13:04.64	231.63	9.26	
2025-01-10 13:13:04.84	231.66	9.27	
2025-01-10 13:13:05.05	231.70	9.28	
2025-01-10 13:13:05.25	231.73	9.29	
2025-01-10 13:13:05.46	231.76	9.31	
2025-01-10 13:13:05.66	231.79	9.32	
2025-01-10 13:13:05.87	231.82	9.33	
2025-01-10 13:13:06.07	231.85	9.34	
2025-01-10 13:13:06.28	231.88	9.35	
2025-01-10 13:13:06.48	231.91	9.37	
2025-01-10 13:13:06.69	231.95	9.38	
2025-01-10 13:13:06.89	231.98	9.39	
2025-01-10 13:13:07.10	232.01	9.40	
2025-01-10 13:13:07.31	232.04	9.41	
2025-01-10 13:13:07.51	232.07	9.43	
2025-01-10 13:13:07.71	232.10	9.44	
2025-01-10 13:13:07.92	232.14	9.45	
2025-01-10 13:13:08.12	232.17	9.46	
2025-01-10 13:13:08.33	232.20	9.47	
2025-01-10 13:13:08.55	232.23	9.49	
2025-01-10 13:13:08.75	232.27	9.50	
2025-01-10 13:13:08.96	232.30	9.51	
2025-01-10 13:13:09.17	232.33	9.52	
2025-01-10 13:13:09.37	232.36	9.54	
2025-01-10 13:13:09.57	232.39	9.55	
2025-01-10 13:13:09.78	232.43	9.56	
2025-01-10 13:13:09.99	232.46	9.57	
2025-01-10 13:13:10.19	232.49	9.58	
2025-01-10 13:13:10.39	232.52	9.59	
2025-01-10 13:13:10.60	232.55	9.61	
2025-01-10 13:13:10.80	232.59	9.62	
2025-01-10 13:13:11.01	232.62	9.63	
2025-01-10 13:13:11.21	232.65	9.64	
2025-01-10 13:13:11.42	232.68	9.65	
2025-01-10 13:13:11.63	232.72	9.67	
2025-01-10 13:13:11.83	232.75	9.68	
2025-01-10 13:13:12.04	232.78	9.69	
2025-01-10 13:13:12.24	232.81	9.70	
2025-01-10 13:13:12.45	232.84	9.71	
2025-01-10 13:13:12.65	232.88	9.73	
2025-01-10 13:13:12.86	232.91	9.74	
2025-01-10 13:13:13.06	232.94	9.75	
2025-01-10 13:13:13.27	232.97	9.76	
2025-01-10 13:13:13.47	233.01	9.77	
2025-01-10 13:13:13.68	233.04	9.79	
2025-01-10 13:13:13.88	233.07	9.80	
2025-01-10 13:13:14.09	233.10	9.81	
2025-01-10 13:13:14.30	233.14	9.82	
2025-01-10 13:13:14.50	233.17	9.83	
2025-01-10 13:13:14.71	233.20	9.85	
2025-01-10 13:13:14.91	233.23	9.86	
2025-01-10 13:13:15.12	233.27	9.87	
2025-01-10 13:13:15.32	233.30	9.88	
2025-01-10 13:13:15.53	233.33	9.89	
2025-01-10 13:13:15.73	233.37	9.91	
2025-01-10 13:13:15.94	233.40	9.92	
2025-01-10 13:13:16.14	233.43	9.93	
2025-01-10 13:13:16.35	233.46	9.94	
2025-01-10 13:13:16.55	233.50	9.95	
2025-01-10 13:13:16.76	233.53	9.97	
2025-01-10 13:13:16.96	233.56	9.98	
2025-01-10 13:13:17.17	233.60	9.99	
2025-01-10 13:13:17.37	233.63	10.00	
2025-01-10 13:13:17.58	233.66	10.01	
2025-01-10 13:13:17.78	233.69	10.03	
2025-01-10 13:13:17.99	233.73	10.04	
2025-01-10 13:13:18.19	233.76	10.05	
2025-01-10 13:13:18.40	233.79	10.06	
2025-01-10 13:13:18.61	233.83	10.07	
2025-01-10 13:13:18.81	233.86	10.09	
2025-01-10 13:13:19.02	233.89	10.10	
2025-01-10 13:13:19.22	233.93	10.11	
2025-01-10 13:13:19.43	233.96	10.12	
2025-01-10 13:13:19.63	233.99	10.13	
2025-01-10 13:13:19.84	234.03	10.15	
2025-01-10 13:13:20.04	234.06	10.16	
2025-01-10 13:13:20.25	234.09	10.17	
2025-01-10 13:13:20.45	234.13	10.18	
2025-01-10 13:13:20.66	234.16	10.19	
2025-01-10 13:13:20.86	234.19	10.20	
2025-01-10 13:13:21.07	234.23	10.22	
2025-01-10 13:13:21.27	234.26	10.23	
2025-01-10 13:13:21.48	234.30	10.24	
2025-01-10 13:13:21.68	234.33	10.25	
2025-01-10 13:13:21.89	234.36	10.26	
2025-01-10 13:13:22.10	234.40	10.28	
2025-01-10 13:13:22.30	234.43	10.29	
2025-01-10 13:13:22.50	234.46	10.30	
2025-01-10 13:13:22.71	234.50	10.31	
2025-01-10 13:13:22.92	234.53	10.32	
2025-01-10 13:13:23.12	234.56	10.34	
2025-01-10 13:13:23.33	234.60	10.35	
2025-01-10 13:13:23.53	234.63	10.36	
2025-01-10 13:13:23.74	234.67	10.37	
2025-01-10 13:13:23.94	234.70	10.38	
2025-01-10 13:13:24.15	234.73	10.40	
2025-01-10 13:13:24.35	234.77	10.41	
2025-01-10 13:13:24.55	234.80	10.42	
2025-01-10 13:13:24.76	234.84	10.43	
2025-01-10 13:13:24.97	234.87	10.44	
2025-01-10 13:13:25.17	234.90	10.45	
2025-01-10 13:13:25.38	234.94	10.47	
2025-01-10 13:13:25.58	234.97	10.48	
2025-01-10 13:13:25.79	235.01	10.49	
2025-01-10 13:13:25.99	235.04	10.50	
2025-01-10 13:13:26.21	235.08	10.51	
2025-01-10 13:13:26.41	235.11	10.53	
2025-01-10 13:13:26.62	235.15	10.54	
2025-01-10 13:13:26.82	235.18	10.55	
2025-01-10 13:13:27.03	235.21	10.56	
2025-01-10 13:13:27.23	235.25	10.57	
2025-01-10 13:13:27.44	235.28	10.59	
2025-01-10 13:13:27.64	235.32	10.60	
2025-01-10 13:13:27.85	235.35	10.61	
2025-01-10 13:13:28.05	235.39	10.62	
2025-01-10 13:13:28.26	235.42	10.63	
2025-01-10 13:13:28.47	235.46	10.64	
2025-01-10 13:13:28.67	235.49	10.66	
2025-01-10 13:13:28.89	235.53	10.67	
2025-01-10 13:13:29.10	235.56	10.68	
2025-01-10 13:13:29.30	235.60	10.69	
2025-01-10 13:13:29.51	235.63	10.70	
2025-01-10 13:13:29.71	235.67	10.72	
2025-01-10 13:13:29.92	235.70	10.73	
2025-01-10 13:13:30.12	235.74	10.74	
2025-01-10 13:13:30.33	235.77	10.75	
2025-01-10 13:13:30.54	235.81	10.76	
2025-01-10 13:13:30.74	235.84	10.78	
2025-01-10 13:13:30.95	235.88	10.79	
2025-01-10 13:13:31.15	235.91	10.80	
2025-01-10 13:13:31.36	235.95	10.81	
2025-01-10 13:13:31.57	235.98	10.82	
2025-01-10 13:13:31.77	236.02	10.83	
2025-01-10 13:13:31.98	236.05	10.85	
2025-01-10 13:13:32.18	236.09	10.86	
2025-01-10 13:13:32.39	236.12	10.87	
2025-01-10 13:13:32.59	236.16	10.88	
2025-01-10 13:13:32.80	236.19	10.89	
2025-01-10 13:13:33.01	236.23	10.91	
2025-01-10 13:13:33.22	236.26	10.92	
2025-01-10 13:13:33.42	236.30	10.93	
2025-01-10 13:13:33.63	236.33	10.94	
2025-01-10 13:13:33.83	236.37	10.95	
2025-01-10 13:13:34.04	236.41	10.96	
2025-01-10 13:13:34.24	236.44	10.98	
2025-01-10 13:13:34.45	236.48	10.99	
2025-01-10 13:13:34.65	236.51	11.00	
2025-01-10 13:13:34.86	236.55	11.01	
2025-01-10 13:13:35.06	236.58	11.02	
2025-01-10 13:13:35.28	236.62	11.04	
2025-01-10 13:13:35.49	236.66	11.05	
2025-01-10 13:13:35.69	236.69	11.06	
2025-01-10 13:13:35.90	236.73	11.07	
2025-01-10 13:13:36.11	236.76	11.08	
2025-01-10 13:13:36.31	236.80	11.09	
2025-01-10 13:13:36.51	236.83	11.11	
2025-01-10 13:13:36.72	236.87	11.12	
2025-01-10 13:13:36.93	236.91	11.13	
2025-01-10 13:13:37.13	236.94	11.14	
2025-01-10 13:13:37.33	236.98	11.15	
2025-01-10 13:13:37.54	237.01	11.16	
2025-01-10 13:13:37.75	237.05	11.18	
2025-01-10 13:13:37.95	237.09	11.19	
2025-01-10 13:13:38.16	237.12	11.20	
2025-01-10 13:13:38.36	237.16	11.21	
2025-01-10 13:13:38.57	237.19	11.22	
2025-01-10 13:13:38.77	237.23	11.23	
2025-01-10 13:13:38.98	237.27	11.25	
2025-01-10 13:13:39.18	237.30	11.26	
2025-01-10 13:13:39.39	237.34	11.27	
2025-01-10 13:13:39.59	237.37	11.28	
2025-01-10 13:13:39.80	237.41	11.29	
2025-01-10 13:13:40.00	237.45	11.30	
2025-01-10 13:13:40.21	237.48	11.32	
2025-01-10 13:13:40.41	237.52	11.33	
2025-01-10 13:13:40.62	237.56	11.34	
2025-01-10 13:13:40.82	237.59	11.35	
2025-01-10 13:13:41.03	237.63	11.36	
2025-01-10 13:13:41.23	237.66	11.37	
2025-01-10 13:13:41.44	237.70	11.39	
2025-01-10 13:13:41.64	237.74	11.40	
2025-01-10 13:13:41.85	237.77	11.41	
2025-01-10 13:13:42.06	237.81	11.42	
2025-01-10 13:13:42.26	237.85	11.43	
2025-01-10 13:13:42.47	237.88	11.44	
2025-01-10 13:13:42.69	237.92	11.46	
2025-01-10 13:13:42.89	237.96	11.47	
2025-01-10 13:13:43.10	238.00	11.48	
2025-01-10 13:13:43.30	238.03	11.49	
2025-01-10 13:13:43.51	238.07	11.50	
2025-01-10 13:13:43.71	238.11	11.52	
2025-01-10 13:13:43.92	238.14	11.53	
2025-01-10 13:13:44.12	238.18	11.54	
2025-01-10 13:13:44.33	238.22	11.55	
2025-01-10 13:13:44.53	238.25	11.56	
2025-01-10 13:13:44.74	238.29	11.57	
2025-01-10 13:13:44.94	238.33	11.58	
2025-01-10 13:13:45.16	238.37	11.60	
2025-01-10 13:13:45.36	238.40	11.61	
2025-01-10 13:13:45.57	238.44	11.62	
2025-01-10 13:13:45.77	238.48	11.63	
2025-01-10 13:13:45.98	238.51	11.64	
2025-01-10 13:13:46.18	238.55	11.65	
2025-01-10 13:13:46.39	238.59	11.67	
2025-01-10 13:13:46.59	238.63	11.68	
2025-01-10 13:13:46.80	238.66	11.69	
2025-01-10 13:13:47.00	238.70	11.70	
2025-01-10 13:13:47.21	238.74	11.71	
2025-01-10 13:13:47.41	238.77	11.72	
2025-01-10 13:13:47.62	238.81	11.74	
2025-01-10 13:13:47.83	238.85	11.75	
2025-01-10 13:13:48.03	238.89	11.76	
2025-01-10 13:13:48.24	238.93	11.77	
2025-01-10 13:13:48.44	238.96	11.78	
2025-01-10 13:13:48.65	239.00	11.79	
2025-01-10 13:13:48.85	239.04	11.80	
2025-01-10 13:13:49.06	239.08	11.82	
2025-01-10 13:13:49.26	239.11	11.83	
2025-01-10 13:13:49.47	239.15	11.84	
2025-01-10 13:13:49.67	239.19	11.85	
2025-01-10 13:13:49.88	239.23	11.86	
2025-01-10 13:13:50.08	239.26	11.87	
2025-01-10 13:13:50.29	239.30	11.88	
2025-01-10 13:13:50.49	239.34	11.90	
2025-01-10 13:13:50.70	239.38	11.91	
2025-01-10 13:13:50.90	239.41	11.92	
2025-01-10 13:13:51.11	239.45	11.93	
2025-01-10 13:13:51.31	239.49	11.94	
2025-01-10 13:13:51.52	239.53	11.95	
2025-01-10 13:13:51.73	239.57	11.96	
2025-01-10 13:13:51.93	239.60	11.98	
2025-01-10 13:13:52.14	239.64	11.99	
2025-01-10 13:13:52.34	239.68	12.00	
2025-01-10 13:13:52.55	239.72	12.01	
2025-01-10 13:13:52.76	239.76	12.02	
2025-01-10 13:13:52.96	239.79	12.03	
2025-01-10 13:13:53.17	239.83	12.04	
2025-01-10 13:13:53.37	239.87	12.06	
2025-01-10 13:13:53.57	239.91	12.07	
2025-01-10 13:13:53.78	239.95	12.08	
2025-01-10 13:13:53.99	239.99	12.09	
2025-01-10 13:13:54.19	240.02	12.10	
2025-01-10 13:13:54.40	240.06	12.11	
2025-01-10 13:13:54.60	240.10	12.12	
2025-01-10 13:13:54.81	240.14	12.14	
2025-01-10 13:13:55.01	240.18	12.15	
2025-01-10 13:13:55.22	240.22	12.16	
2025-01-10 13:13:55.42	240.25	12.17	
2025-01-10 13:13:55.63	240.29	12.18	
2025-01-10 13:13:55.83	240.33	12.19	
2025-01-10 13:13:56.04	240.37	12.20	
2025-01-10 13:13:56.24	240.41	12.21	
2025-01-10 13:13:56.45	240.45	12.23	
2025-01-10 13:13:56.67	240.49	12.24	
2025-01-10 13:13:56.87	240.53	12.25	
2025-01-10 13:13:57.08	240.57	12.26	
2025-01-10 13:13:57.29	240.61	12.27	
2025-01-10 13:13:57.49	240.64	12.28	
2025-01-10 13:13:57.70	240.68	12.30	
2025-01-10 13:13:57.90	240.72	12.31	
2025-01-10 13:13:58.11	240.76	12.32	
2025-01-10 13:13:58.31	240.80	12.33	
2025-01-10 13:13:58.52	240.84	12.34	
2025-01-10 13:13:58.72	240.88	12.35	
2025-01-10 13:13:58.93	240.92	12.36	
2025-01-10 13:13:59.13	240.96	12.37	
2025-01-10 13:13:59.34	241.00	12.38	
2025-01-10 13:13:59.55	241.04	12.40	
2025-01-10 13:13:59.75	241.07	12.41	
2025-01-10 13:13:59.95	241.11	12.42	
2025-01-10 13:14:00.16	241.15	12.43	
2025-01-10 13:14:00.36	241.19	12.44	
2025-01-10 13:14:00.57	241.23	12.45	
2025-01-10 13:14:00.78	241.27	12.46	
2025-01-10 13:14:00.98	241.31	12.47	
2025-01-10 13:14:01.19	241.35	12.49	
2025-01-10 13:14:01.39	241.39	12.50	
2025-01-10 13:14:01.60	241.43	12.51	
2025-01-10 13:14:01.80	241.47	12.52	
2025-01-10 13:14:02.01	241.51	12.53	
2025-01-10 13:14:02.21	241.55	12.54	
2025-01-10 13:14:02.42	241.59	12.55	
2025-01-10 13:14:02.63	241.63	12.56	
2025-01-10 13:14:02.83	241.67	12.57	
2025-01-10 13:14:03.05	241.71	12.59	
2025-01-10 13:14:03.25	241.75	12.60	
2025-01-10 13:14:03.46	241.79	12.61	
2025-01-10 13:14:03.67	241.83	12.62	
2025-01-10 13:14:03.87	241.87	12.63	
2025-01-10 13:14:04.07	241.91	12.64	
2025-01-10 13:14:04.28	241.95	12.65	
2025-01-10 13:14:04.49	241.99	12.66	
2025-01-10 13:14:04.69	242.03	12.68	
2025-01-10 13:14:04.90	242.07	12.69	
2025-01-10 13:14:05.10	242.11	12.70	
2025-01-10 13:14:05.30	242.15	12.71	
2025-01-10 13:14:05.51	242.19	12.72	
2025-01-10 13:14:05.71	242.23	12.73	
2025-01-10 13:14:05.92	242.27	12.74	
2025-01-10 13:14:06.13	242.31	12.75	
2025-01-10 13:14:06.33	242.35	12.76	
2025-01-10 13:14:06.54	242.39	12.78	
2025-01-10 13:14:06.75	242.43	12.79	
2025-01-10 13:14:06.95	242.47	12.80	
2025-01-10 13:14:07.16	242.51	12.81	
2025-01-10 13:14:07.36	242.55	12.82	
2025-01-10 13:14:07.56	242.59	12.83	
2025-01-10 13:14:07.77	242.63	12.84	
2025-01-10 13:14:07.98	242.67	12.85	
2025-01-10 13:14:08.18	242.71	12.86	
2025-01-10 13:14:08.39	242.75	12.87	
2025-01-10 13:14:08.59	242.79	12.88	
2025-01-10 13:14:08.80	242.83	12.90	
2025-01-10 13:14:09.01	242.87	12.91	
2025-01-10 13:14:09.21	242.91	12.92	
2025-01-10 13:14:09.41	242.95	12.93	
2025-01-10 13:14:09.62	243.00	12.94	
2025-01-10 13:14:09.83	243.04	12.95	
2025-01-10 13:14:10.03	243.08	12.96	
2025-01-10 13:14:10.24	243.12	12.97	
2025-01-10 13:14:10.44	243.16	12.98	
2025-01-10 13:14:10.65	243.20	12.99	
2025-01-10 13:14:10.86	243.24	13.01	
2025-01-10 13:14:11.07	243.28	13.02	
2025-01-10 13:14:11.27	243.32	13.03	
2025-01-10 13:14:11.48	243.37	13.04	
2025-01-10 13:14:11.68	243.41	13.05	
2025-01-10 13:14:11.89	243.45	13.06	
2025-01-10 13:14:12.09	243.49	13.07	
2025-01-10 13:14:12.30	243.53	13.08	
2025-01-10 13:14:12.50	243.57	13.09	
2025-01-10 13:14:12.71	243.61	13.10	
2025-01-10 13:14:12.91	243.65	13.11	
2025-01-10 13:14:13.12	243.69	13.12	
2025-01-10 13:14:13.33	243.74	13.14	
2025-01-10 13:14:13.53	243.78	13.15	
2025-01-10 13:14:13.75	243.82	13.16	
2025-01-10 13:14:13.95	243.86	13.17	
2025-01-10 13:14:14.16	243.90	13.18	
2025-01-10 13:14:14.37	243.95	13.19	
2025-01-10 13:14:14.57	243.99	13.20	
2025-01-10 13:14:14.78	244.03	13.21	
2025-01-10 13:14:14.98	244.07	13.22	
2025-01-10 13:14:15.19	244.11	13.23	
2025-01-10 13:14:15.39	244.15	13.24	
2025-01-10 13:14:15.60	244.19	13.25	
2025-01-10 13:14:15.80	244.24	13.26	
2025-01-10 13:14:16.01	244.28	13.28	
2025-01-10 13:14:16.21	244.32	13.29	
2025-01-10 13:14:16.42	244.36	13.30	
2025-01-10 13:14:16.62	244.40	13.31	
2025-01-10 13:14:16.83	244.44	13.32	
2025-01-10 13:14:17.03	244.49	13.33	
2025-01-10 13:14:17.24	244.53	13.34	
2025-01-10 13:14:17.44	244.57	13.35	
2025-01-10 13:14:17.65	244.61	13.36	
2025-01-10 13:14:17.86	244.65	13.37	
2025-01-10 13:14:18.07	244.70	13.38	
2025-01-10 13:14:18.28	244.74	13.39	
2025-01-10 13:14:18.48	244.78	13.40	
2025-01-10 13:14:18.69	244.82	13.41	
2025-01-10 13:14:18.90	244.87	13.42	
2025-01-10 13:14:19.11	244.91	13.44	
2025-01-10 13:14:19.32	244.95	13.45	
2025-01-10 13:14:19.53	245.00	13.46	
2025-01-10 13:14:19.73	245.04	13.47	
2025-01-10 13:14:19.94	245.08	13.48	
2025-01-10 13:14:20.14	245.12	13.49	
2025-01-10 13:14:20.35	245.17	13.50	
2025-01-10 13:14:20.55	245.21	13.51	
2025-01-10 13:14:20.76	245.25	13.52	
2025-01-10 13:14:20.96	245.29	13.53	
2025-01-10 13:14:21.17	245.34	13.54	
2025-01-10 13:14:21.37	245.38	13.55	
2025-01-10 13:14:21.58	245.42	13.56	
2025-01-10 13:14:21.78	245.46	13.57	
2025-01-10 13:14:21.99	245.50	13.58	
2025-01-10 13:14:22.19	245.55	13.59	
2025-01-10 13:14:22.40	245.59	13.60	
2025-01-10 13:14:22.61	245.63	13.61	
2025-01-10 13:14:22.81	245.68	13.62	
2025-01-10 13:14:23.02	245.72	13.63	
2025-01-10 13:14:23.22	245.76	13.64	
2025-01-10 13:14:23.42	245.80	13.65	
2025-01-10 13:14:23.63	245.85	13.67	
2025-01-10 13:14:23.84	245.89	13.68	
2025-01-10 13:14:24.04	245.93	13.69	
2025-01-10 13:14:24.25	245.98	13.70	
2025-01-10 13:14:24.45	246.02	13.71	
2025-01-10 13:14:24.66	246.06	13.72	
2025-01-10 13:14:24.86	246.10	13.73	
2025-01-10 13:14:25.07	246.15	13.74	
2025-01-10 13:14:25.27	246.19	13.75	
2025-01-10 13:14:25.48	246.23	13.76	
2025-01-10 13:14:25.68	246.28	13.77	
2025-01-10 13:14:25.89	246.32	13.78	
2025-01-10 13:14:26.09	246.36	13.79	
2025-01-10 13:14:26.30	246.41	13.80	
2025-01-10 13:14:26.50	246.45	13.81	
2025-01-10 13:14:26.71	246.49	13.82	
2025-01-10 13:14:26.91	246.53	13.83	
2025-01-10 13:14:27.12	246.58	13.84	
2025-01-10 13:14:27.32	246.62	13.85	
2025-01-10 13:14:27.53	246.67	13.86	
2025-01-10 13:14:27.73	246.71	13.87	
2025-01-10 13:14:27.93	246.75	13.88	
2025-01-10 13:14:28.14	246.79	13.89	
2025-01-10 13:14:28.35	246.84	13.90	
2025-01-10 13:14:28.55	246.88	13.91	
2025-01-10 13:14:28.75	246.92	13.92	
2025-01-10 13:14:28.96	246.97	13.93	
2025-01-10 13:14:29.17	247.01	13.94	
2025-01-10 13:14:29.37	247.06	13.95	
2025-01-10 13:14:29.58	247.10	13.96	
2025-01-10 13:14:29.78	247.14	13.97	
2025-01-10 13:14:29.99	247.19	13.98	
2025-01-10 13:14:30.19	247.23	13.99	
2025-01-10 13:14:30.40	247.28	14.00	
2025-01-10 13:14:30.60	247.32	14.01	
2025-01-10 13:14:30.81	247.36	14.02	
2025-01-10 13:14:31.01	247.41	14.03	
2025-01-10 13:14:31.22	247.45	14.04	
2025-01-10 13:14:31.43	247.50	14.05	
2025-01-10 13:14:31.63	247.54	14.06	
2025-01-10 13:14:31.83	247.58	14.07	
2025-01-10 13:14:32.04	247.63	14.08	
2025-01-10 13:14:32.25	247.67	14.09	
2025-01-10 13:14:32.45	247.71	14.10	
2025-01-10 13:14:32.66	247.76	14.11	
2025-01-10 13:14:32.86	247.80	14.12	
2025-01-10 13:14:33.08	247.85	14.13	
2025-01-10 13:14:33.29	247.90	14.14	
2025-01-10 13:14:33.49	247.94	14.15	
2025-01-10 13:14:33.70	247.98	14.16	
2025-01-10 13:14:33.90	248.03	14.17	
2025-01-10 13:14:34.10	248.07	14.18	
2025-01-10 13:14:34.31	248.12	14.19	
2025-01-10 13:14:34.52	248.16	14.20	
2025-01-10 13:14:34.72	248.20	14.21	
2025-01-10 13:14:34.93	248.25	14.22	
2025-01-10 13:14:35.13	248.29	14.23	
2025-01-10 13:14:35.34	248.34	14.24	
2025-01-10 13:14:35.55	248.39	14.25	
2025-01-10 13:14:35.75	248.43	14.26	
2025-01-10 13:14:35.96	248.47	14.27	
2025-01-10 13:14:36.16	248.52	14.28	
2025-01-10 13:14:36.37	248.56	14.29	
2025-01-10 13:14:36.57	248.61	14.30	
2025-01-10 13:14:36.78	248.65	14.31	
2025-01-10 13:14:36.98	248.70	14.32	
2025-01-10 13:14:37.19	248.74	14.33	
2025-01-10 13:14:37.39	248.79	14.34	
2025-01-10 13:14:37.60	248.83	14.35	
2025-01-10 13:14:37.81	248.88	14.36	
2025-01-10 13:14:38.01	248.92	14.37	
2025-01-10 13:14:38.22	248.97	14.38	
2025-01-10 13:14:38.42	249.01	14.39	
2025-01-10 13:14:38.63	249.06	14.39	
2025-01-10 13:14:38.84	249.10	14.40	
2025-01-10 13:14:39.04	249.15	14.41	
2025-01-10 13:14:39.25	249.19	14.42	
2025-01-10 13:14:39.45	249.24	14.43	
2025-01-10 13:14:39.66	249.28	14.44	
2025-01-10 13:14:39.86	249.33	14.45	
2025-01-10 13:14:40.07	249.37	14.46	
2025-01-10 13:14:40.27	249.42	14.47	
2025-01-10 13:14:40.47	249.46	14.48	
2025-01-10 13:14:40.68	249.51	14.49	
2025-01-10 13:14:40.89	249.56	14.50	
2025-01-10 13:14:41.09	249.60	14.51	
2025-01-10 13:14:41.30	249.65	14.52	
2025-01-10 13:14:41.50	249.69	14.53	
2025-01-10 13:14:41.71	249.74	14.54	
2025-01-10 13:14:41.92	249.78	14.55	
2025-01-10 13:14:42.12	249.83	14.56	
2025-01-10 13:14:42.33	249.88	14.57	
2025-01-10 13:14:42.53	249.92	14.57	
2025-01-10 13:14:42.75	249.97	14.58	
2025-01-10 13:14:42.95	250.01	14.59	
2025-01-10 13:14:43.16	250.06	14.60	
2025-01-10 13:14:43.37	250.11	14.61	
2025-01-10 13:14:43.57	250.15	14.62	
2025-01-10 13:14:43.77	250.20	14.63	
2025-01-10 13:14:43.98	250.24	14.64	
2025-01-10 13:14:44.19	250.29	14.65	
2025-01-10 13:14:44.39	250.33	14.66	
2025-01-10 13:14:44.60	250.38	14.67	
2025-01-10 13:14:44.80	250.43	14.68	
2025-01-10 13:14:45.01	250.47	14.69	
2025-01-10 13:14:45.21	250.52	14.70	
2025-01-10 13:14:45.42	250.57	14.71	
2025-01-10 13:14:45.62	250.61	14.71	
2025-01-10 13:14:45.83	250.66	14.72	
2025-01-10 13:14:46.03	250.70	14.73	
2025-01-10 13:14:46.24	250.75	14.74	
2025-01-10 13:14:46.45	250.80	14.75	
2025-01-10 13:14:46.65	250.84	14.76	
2025-01-10 13:14:46.85	250.89	14.77	
2025-01-10 13:14:47.06	250.93	14.78	
2025-01-10 13:14:47.27	250.98	14.79	
2025-01-10 13:14:47.47	251.03	14.80	
2025-01-10 13:14:47.68	251.07	14.81	
2025-01-10 13:14:47.88	251.12	14.81	
2025-01-10 13:14:48.09	251.17	14.82	
2025-01-10 13:14:48.29	251.21	14.83	
2025-01-10 13:14:48.50	251.26	14.84	
2025-01-10 13:14:48.71	251.31	14.85	
2025-01-10 13:14:48.91	251.35	14.86	
2025-01-10 13:14:49.13	251.40	14.87	
2025-01-10 13:14:49.34	251.45	14.88	
2025-01-10 13:14:49.54	251.50	14.89	
2025-01-10 13:14:49.75	251.54	14.90	
2025-01-10 13:14:49.95	251.59	14.91	
2025-01-10 13:14:50.16	251.64	14.91	
2025-01-10 13:14:50.36	251.68	14.92	
2025-01-10 13:14:50.57	251.73	14.93	
2025-01-10 13:14:50.77	251.78	14.94	
2025-01-10 13:14:50.98	251.82	14.95	
2025-01-10 13:14:51.18	251.87	14.96	
2025-01-10 13:14:51.39	251.92	14.97	
2025-01-10 13:14:51.59	251.96	14.98	
2025-01-10 13:14:51.80	252.01	14.98	
2025-01-10 13:14:52.00	252.06	14.99	
2025-01-10 13:14:52.21	252.10	15.00	
2025-01-10 13:14:52.42	252.15	15.01	
2025-01-10 13:14:52.62	252.20	15.02	
2025-01-10 13:14:52.83	252.25	15.03	
2025-01-10 13:14:53.03	252.29	15.04	
2025-01-10 13:14:53.24	252.34	15.05	
2025-01-10 13:14:53.44	252.39	15.05	
2025-01-10 13:14:53.65	252.43	15.06	
2025-01-10 13:14:53.85	252.48	15.07	
2025-01-10 13:14:54.06	252.53	15.08	
2025-01-10 13:14:54.26	252.58	15.09	
2025-01-10 13:14:54.47	252.62	15.10	
2025-01-10 13:14:54.67	252.67	15.11	
2025-01-10 13:14:54.88	252.72	15.12	
2025-01-10 13:14:55.08	252.76	15.12	
2025-01-10 13:14:55.29	252.81	15.13	
2025-01-10 13:14:55.51	252.86	15.14	
2025-01-10 13:14:55.71	252.91	15.15	
2025-01-10 13:14:55.92	252.96	15.16	
2025-01-10 13:14:56.13	253.01	15.17	
2025-01-10 13:14:56.33	253.05	15.18	
2025-01-10 13:14:56.55	253.10	15.18	
2025-01-10 13:14:56.76	253.15	15.19	
2025-01-10 13:14:56.96	253.20	15.20	
2025-01-10 13:14:57.17	253.25	15.21	
2025-01-10 13:14:57.37	253.30	15.22	
2025-01-10 13:14:57.57	253.34	15.23	
2025-01-10 13:14:57.78	253.39	15.23	
2025-01-10 13:14:57.99	253.44	15.24	
2025-01-10 13:14:58.19	253.49	15.25	
2025-01-10 13:14:58.40	253.54	15.26	
2025-01-10 13:14:58.60	253.58	15.27	
2025-01-10 13:14:58.81	253.63	15.28	
2025-01-10 13:14:59.01	253.68	15.28	
2025-01-10 13:14:59.22	253.73	15.29	
2025-01-10 13:14:59.43	253.78	15.30	
2025-01-10 13:14:59.63	253.82	15.31	
2025-01-10 13:14:59.83	253.87	15.32	
2025-01-10 13:15:00.04	253.92	15.33	
2025-01-10 13:15:00.24	253.97	15.33	
2025-01-10 13:15:00.45	254.01	15.34	
2025-01-10 13:15:00.65	254.06	15.35	
2025-01-10 13:15:00.86	254.11	15.36	
2025-01-10 13:15:01.06	254.16	15.37	
2025-01-10 13:15:01.27	254.21	15.37	
2025-01-10 13:15:01.48	254.26	15.38	
2025-01-10 13:15:01.68	254.30	15.39	
2025-01-10 13:15:01.89	254.35	15.40	
2025-01-10 13:15:02.09	254.40	15.41	
2025-01-10 13:15:02.30	254.45	15.42	
2025-01-10 13:15:02.50	254.50	15.42	
2025-01-10 13:15:02.71	254.55	15.43	
2025-01-10 13:15:02.91	254.59	15.44	
2025-01-10 13:15:03.12	254.64	15.45	
2025-01-10 13:15:03.32	254.69	15.46	
2025-01-10 13:15:03.53	254.74	15.46	
2025-01-10 13:15:03.74	254.79	15.47	
2025-01-10 13:15:03.94	254.84	15.48	
2025-01-10 13:15:04.14	254.88	15.49	
2025-01-10 13:15:04.35	254.93	15.49	
2025-01-10 13:15:04.55	254.98	15.50	
2025-01-10 13:15:04.76	255.03	15.51	
2025-01-10 13:15:04.97	255.08	15.52	
2025-01-10 13:15:05.17	255.13	15.53	
2025-01-10 13:15:05.38	255.18	15.53	
2025-01-10 13:15:05.58	255.23	15.54	
2025-01-10 13:15:05.79	255.28	15.55	
2025-01-10 13:15:05.99	255.32	15.56	
2025-01-10 13:15:06.20	255.37	15.57	
2025-01-10 13:15:06.40	255.42	15.57	
2025-01-10 13:15:06.61	255.47	15.58	
2025-01-10 13:15:06.81	255.52	15.59	
2025-01-10 13:15:07.02	255.57	15.60	
2025-01-10 13:15:07.22	255.62	15.60	
2025-01-10 13:15:07.43	255.67	15.61	
2025-01-10 13:15:07.63	255.71	15.62	
2025-01-10 13:15:07.84	255.76	15.63	
2025-01-10 13:15:08.05	255.81	15.63	
2025-01-10 13:15:08.25	255.86	15.64	
2025-01-10 13:15:08.45	255.91	15.65	
2025-01-10 13:15:08.66	255.96	15.66	
2025-01-10 13:15:08.86	256.01	15.66	
2025-01-10 13:15:09.07	256.06	15.67	
2025-01-10 13:15:09.28	256.11	15.68	
2025-01-10 13:15:09.48	256.16	15.69	
2025-01-10 13:15:09.69	256.21	15.69	
2025-01-10 13:15:09.89	256.26	15.70	
2025-01-10 13:15:10.10	256.31	15.71	
2025-01-10 13:15:10.30	256.35	15.72	
2025-01-10 13:15:10.51	256.41	15.72	
2025-01-10 13:15:10.71	256.45	15.73	
2025-01-10 13:15:10.92	256.50	15.74	
2025-01-10 13:15:11.12	256.55	15.75	
2025-01-10 13:15:11.33	256.60	15.75	
2025-01-10 13:15:11.53	256.65	15.76	
2025-01-10 13:15:11.74	256.70	15.77	
2025-01-10 13:15:11.94	256.75	15.77	
2025-01-10 13:15:12.15	256.80	15.78	
2025-01-10 13:15:12.35	256.85	15.79	
2025-01-10 13:15:12.56	256.90	15.80	
2025-01-10 13:15:12.76	256.95	15.80	
2025-01-10 13:15:12.96	257.00	15.81	
2025-01-10 13:15:13.17	257.05	15.82	
2025-01-10 13:15:13.38	257.10	15.83	
2025-01-10 13:15:13.58	257.15	15.83	
2025-01-10 13:15:13.79	257.20	15.84	
2025-01-10 13:15:13.99	257.25	15.85	
2025-01-10 13:15:14.20	257.30	15.85	
2025-01-10 13:15:14.40	257.35	15.86	
2025-01-10 13:15:14.61	257.40	15.87	
2025-01-10 13:15:14.81	257.45	15.87	
2025-01-10 13:15:15.02	257.50	15.88	
2025-01-10 13:15:15.22	257.55	15.89	
2025-01-10 13:15:15.43	257.60	15.90	
2025-01-10 13:15:15.63	257.65	15.90	
2025-01-10 13:15:15.84	257.70	15.91	
2025-01-10 13:15:16.04	257.75	15.92	
2025-01-10 13:15:16.25	257.80	15.92	
2025-01-10 13:15:16.46	257.85	15.93	
2025-01-10 13:15:16.66	257.90	15.94	
2025-01-10 13:15:16.86	257.95	15.94	
2025-01-10 13:15:17.07	258.00	15.95	
2025-01-10 13:15:17.27	258.05	15.96	
2025-01-10 13:15:17.48	258.10	15.96	
2025-01-10 13:15:17.69	258.15	15.97	
2025-01-10 13:15:17.89	258.20	15.98	
2025-01-10 13:15:18.10	258.25	15.99	
2025-01-10 13:15:18.30	258.30	15.99	
2025-01-10 13:15:18.51	258.35	16.00	
2025-01-10 13:15:18.71	258.40	16.01	
2025-01-10 13:15:18.92	258.45	16.01	
2025-01-10 13:15:19.12	258.50	16.02	
2025-01-10 13:15:19.33	258.55	16.03	
2025-01-10 13:15:19.53	258.60	16.03	
2025-01-10 13:15:19.74	258.65	16.04	
2025-01-10 13:15:19.94	258.70	16.05	
2025-01-10 13:15:20.15	258.75	16.05	
2025-01-10 13:15:20.35	258.80	16.06	
2025-01-10 13:15:20.56	258.85	16.06	
2025-01-10 13:15:20.76	258.90	16.07	
2025-01-10 13:15:20.97	258.95	16.08	
2025-01-10 13:15:21.17	259.00	16.08	
2025-01-10 13:15:21.38	259.06	16.09	
2025-01-10 13:15:21.58	259.11	16.10	
2025-01-10 13:15:21.79	259.16	16.10	
2025-01-10 13:15:22.00	259.21	16.11	
2025-01-10 13:15:22.20	259.26	16.12	
2025-01-10 13:15:22.41	259.31	16.12	
2025-01-10 13:15:22.61	259.36	16.13	
2025-01-10 13:15:22.82	259.41	16.14	
2025-01-10 13:15:23.02	259.46	16.14	
2025-01-10 13:15:23.23	259.51	16.15	
2025-01-10 13:15:23.43	259.56	16.15	
2025-01-10 13:15:23.64	259.62	16.16	
2025-01-10 13:15:23.84	259.66	16.17	
2025-01-10 13:15:24.05	259.72	16.17	
2025-01-10 13:15:24.25	259.77	16.18	
2025-01-10 13:15:24.46	259.82	16.19	
2025-01-10 13:15:24.67	259.87	16.19	
2025-01-10 13:15:24.87	259.92	16.20	
2025-01-10 13:15:25.08	259.97	16.20	
2025-01-10 13:15:25.28	260.02	16.21	
2025-01-10 13:15:25.49	260.08	16.22	
2025-01-10 13:15:25.69	260.13	16.22	
2025-01-10 13:15:25.90	260.18	16.23	
2025-01-10 13:15:26.10	260.23	16.23	
2025-01-10 13:15:26.31	260.28	16.24	
2025-01-10 13:15:26.51	260.33	16.25	
2025-01-10 13:15:26.72	260.38	16.25	
2025-01-10 13:15:26.92	260.43	16.26	
2025-01-10 13:15:27.13	260.48	16.26	
2025-01-10 13:15:27.34	260.54	16.27	
2025-01-10 13:15:27.55	260.59	16.28	
2025-01-10 13:15:27.76	260.64	16.28	
2025-01-10 13:15:27.97	260.69	16.29	
2025-01-10 13:15:28.17	260.74	16.29	
2025-01-10 13:15:28.38	260.80	16.30	
2025-01-10 13:15:28.58	260.85	16.31	
2025-01-10 13:15:28.79	260.90	16.31	
2025-01-10 13:15:28.99	260.95	16.32	
2025-01-10 13:15:29.20	261.00	16.32	
2025-01-10 13:15:29.41	261.06	16.33	
2025-01-10 13:15:29.61	261.11	16.33	
2025-01-10 13:15:29.82	261.16	16.34	
2025-01-10 13:15:30.02	261.21	16.35	
2025-01-10 13:15:30.22	261.26	16.35	
2025-01-10 13:15:30.43	261.31	16.36	
2025-01-10 13:15:30.63	261.36	16.36	
2025-01-10 13:15:30.84	261.41	16.37	
2025-01-10 13:15:31.04	261.46	16.37	
2025-01-10 13:15:31.25	261.52	16.38	
2025-01-10 13:15:31.45	261.57	16.38	
2025-01-10 13:15:31.66	261.62	16.39	
2025-01-10 13:15:31.87	261.67	16.40	
2025-01-10 13:15:32.07	261.72	16.40	
2025-01-10 13:15:32.28	261.78	16.41	
2025-01-10 13:15:32.49	261.83	16.41	
2025-01-10 13:15:32.69	261.88	16.42	
2025-01-10 13:15:32.90	261.93	16.42	
2025-01-10 13:15:33.10	261.98	16.43	
2025-01-10 13:15:33.31	262.04	16.43	
2025-01-10 13:15:33.52	262.09	16.44	
2025-01-10 13:15:33.72	262.14	16.44	
2025-01-10 13:15:33.93	262.19	16.45	
2025-01-10 13:15:34.13	262.24	16.45	
2025-01-10 13:15:34.34	262.30	16.46	
2025-01-10 13:15:34.54	262.35	16.47	
2025-01-10 13:15:34.75	262.40	16.47	
2025-01-10 13:15:34.95	262.45	16.48	
2025-01-10 13:15:35.15	262.50	16.48	
2025-01-10 13:15:35.36	262.56	16.49	
2025-01-10 13:15:35.56	262.61	16.49	
2025-01-10 13:15:35.77	262.66	16.50	
2025-01-10 13:15:35.98	262.71	16.50	
2025-01-10 13:15:36.18	262.76	16.51	
2025-01-10 13:15:36.39	262.82	16.51	
2025-01-10 13:15:36.59	262.87	16.52	
2025-01-10 13:15:36.80	262.92	16.52	
2025-01-10 13:15:37.01	262.98	16.53	
2025-01-10 13:15:37.21	263.03	16.53	
2025-01-10 13:15:37.41	263.08	16.54	
2025-01-10 13:15:37.62	263.13	16.54	
2025-01-10 13:15:37.82	263.18	16.55	
2025-01-10 13:15:38.03	263.24	16.55	
2025-01-10 13:15:38.23	263.29	16.56	
2025-01-10 13:15:38.44	263.34	16.56	
2025-01-10 13:15:38.64	263.39	16.57	
2025-01-10 13:15:38.85	263.44	16.57	
2025-01-10 13:15:39.06	263.50	16.58	
2025-01-10 13:15:39.26	263.55	16.58	
2025-01-10 13:15:39.47	263.60	16.58	
2025-01-10 13:15:39.67	263.65	16.59	
2025-01-10 13:15:39.88	263.71	16.59	
2025-01-10 13:15:40.08	263.76	16.60	
2025-01-10 13:15:40.29	263.81	16.60	
2025-01-10 13:15:40.49	263.86	16.61	
2025-01-10 13:15:40.70	263.92	16.61	
2025-01-10 13:15:40.90	263.97	16.62	
2025-01-10 13:15:41.11	264.02	16.62	
2025-01-10 13:15:41.31	264.07	16.63	
2025-01-10 13:15:41.52	264.13	16.63	
2025-01-10 13:15:41.72	264.18	16.64	
2025-01-10 13:15:41.93	264.23	16.64	
2025-01-10 13:15:42.14	264.29	16.64	
2025-01-10 13:15:42.34	264.34	16.65	
2025-01-10 13:15:42.54	264.39	16.65	
2025-01-10 13:15:42.75	264.44	16.66	
2025-01-10 13:15:42.95	264.49	16.66	
2025-01-10 13:15:43.16	264.55	16.67	
2025-01-10 13:15:43.37	264.60	16.67	
2025-01-10 13:15:43.57	264.65	16.67	
2025-01-10 13:15:43.78	264.71	16.68	
2025-01-10 13:15:43.98	264.76	16.68	
2025-01-10 13:15:44.19	264.81	16.69	
2025-01-10 13:15:44.40	264.87	16.69	
2025-01-10 13:15:44.60	264.92	16.70	
2025-01-10 13:15:44.81	264.97	16.70	
2025-01-10 13:15:45.01	265.02	16.70	
2025-01-10 13:15:45.22	265.08	16.71	
2025-01-10 13:15:45.42	265.13	16.71	
2025-01-10 13:15:45.62	265.18	16.72	
2025-01-10 13:15:45.83	265.23	16.72	
2025-01-10 13:15:46.04	265.29	16.72	
2025-01-10 13:15:46.24	265.34	16.73	
2025-01-10 13:15:46.45	265.39	16.73	
2025-01-10 13:15:46.65	265.45	16.74	
2025-01-10 13:15:46.86	265.50	16.74	
2025-01-10 13:15:47.06	265.55	16.74	
2025-01-10 13:15:47.27	265.61	16.75	
2025-01-10 13:15:47.47	265.66	16.75	
2025-01-10 13:15:47.68	265.71	16.76	
2025-01-10 13:15:47.88	265.76	16.76	
2025-01-10 13:15:48.09	265.82	16.76	
2025-01-10 13:15:48.30	265.87	16.77	
2025-01-10 13:15:48.50	265.92	16.77	
2025-01-10 13:15:48.71	265.98	16.78	
2025-01-10 13:15:48.91	266.03	16.78	
2025-01-10 13:15:49.12	266.08	16.78	
2025-01-10 13:15:49.32	266.14	16.79	
2025-01-10 13:15:49.53	266.19	16.79	
2025-01-10 13:15:49.73	266.24	16.79	
2025-01-10 13:15:49.95	266.30	16.80	
2025-01-10 13:15:50.16	266.35	16.80	
2025-01-10 13:15:50.36	266.41	16.80	
2025-01-10 13:15:50.57	266.46	16.81	
2025-01-10 13:15:50.78	266.51	16.81	
2025-01-10 13:15:50.98	266.57	16.82	
2025-01-10 13:15:51.18	266.62	16.82	
2025-01-10 13:15:51.39	266.67	16.82	
2025-01-10 13:15:51.60	266.73	16.83	
2025-01-10 13:15:51.80	266.78	16.83	
2025-01-10 13:15:52.00	266.83	16.83	
2025-01-10 13:15:52.21	266.89	16.84	
2025-01-10 13:15:52.41	266.94	16.84	
2025-01-10 13:15:52.62	266.99	16.84	
2025-01-10 13:15:52.83	267.05	16.85	
2025-01-10 13:15:53.03	267.10	16.85	
2025-01-10 13:15:53.25	267.16	16.85	
2025-01-10 13:15:53.45	267.21	16.86	
2025-01-10 13:15:53.66	267.26	16.86	
2025-01-10 13:15:53.86	267.31	16.86	
2025-01-10 13:15:54.07	267.37	16.87	
2025-01-10 13:15:54.27	267.42	16.87	
2025-01-10 13:15:54.47	267.47	16.87	
2025-01-10 13:15:54.68	267.53	16.88	
2025-01-10 13:15:54.89	267.58	16.88	
2025-01-10 13:15:55.09	267.63	16.88	
2025-01-10 13:15:55.30	267.69	16.88	
2025-01-10 13:15:55.50	267.74	16.89	
2025-01-10 13:15:55.71	267.80	16.89	
2025-01-10 13:15:55.91	267.85	16.89	
2025-01-10 13:15:56.12	267.90	16.90	
2025-01-10 13:15:56.32	267.96	16.90	
2025-01-10 13:15:56.53	268.01	16.90	
2025-01-10 13:15:56.73	268.06	16.90	
2025-01-10 13:15:56.94	268.12	16.91	
2025-01-10 13:15:57.15	268.17	16.91	
2025-01-10 13:15:57.35	268.22	16.91	
2025-01-10 13:15:57.55	268.28	16.92	
2025-01-10 13:15:57.76	268.33	16.92	
2025-01-10 13:15:57.97	268.39	16.92	
2025-01-10 13:15:58.17	268.44	16.92	
2025-01-10 13:15:58.38	268.49	16.93	
2025-01-10 13:15:58.60	268.55	16.93	
2025-01-10 13:15:58.80	268.60	16.93	
2025-01-10 13:15:59.01	268.66	16.94	
2025-01-10 13:15:59.22	268.71	16.94	
2025-01-10 13:15:59.42	268.76	16.94	
2025-01-10 13:15:59.63	268.82	16.94	
2025-01-10 13:15:59.83	268.87	16.95	
2025-01-10 13:16:00.04	268.93	16.95	
2025-01-10 13:16:00.25	268.98	16.95	
2025-01-10 13:16:00.46	269.04	16.95	
2025-01-10 13:16:00.66	269.09	16.96	
2025-01-10 13:16:00.87	269.14	16.96	
2025-01-10 13:16:01.07	269.20	16.96	
2025-01-10 13:16:01.28	269.25	16.96	
2025-01-10 13:16:01.48	269.30	16.97	
2025-01-10 13:16:01.69	269.36	16.97	
2025-01-10 13:16:01.89	269.41	16.97	
2025-01-10 13:16:02.10	269.47	16.97	
2025-01-10 13:16:02.31	269.52	16.97	
2025-01-10 13:16:02.51	269.57	16.98	
2025-01-10 13:16:02.71	269.63	16.98	
2025-01-10 13:16:02.92	269.68	16.98	
2025-01-10 13:16:03.12	269.73	16.98	
2025-01-10 13:16:03.33	269.79	16.99	
2025-01-10 13:16:03.54	269.84	16.99	
2025-01-10 13:16:03.74	269.90	16.99	
2025-01-10 13:16:03.95	269.95	16.99	
2025-01-10 13:16:04.15	270.00	16.99	
2025-01-10 13:16:04.35	270.06	17.00	
2025-01-10 13:16:04.56	270.11	17.00	
2025-01-10 13:16:04.77	270.17	17.00	
2025-01-10 13:16:04.97	270.22	17.00	
2025-01-10 13:16:05.17	270.27	17.00	
2025-01-10 13:16:05.38	270.33	17.01	
2025-01-10 13:16:05.59	270.38	17.01	
2025-01-10 13:16:05.79	270.44	17.01	
2025-01-10 13:16:05.99	270.49	17.01	
2025-01-10 13:16:06.20	270.54	17.01	
2025-01-10 13:16:06.40	270.60	17.02	
2025-01-10 13:16:06.61	270.65	17.02	
2025-01-10 13:16:06.81	270.70	17.02	
2025-01-10 13:16:07.02	270.76	17.02	
2025-01-10 13:16:07.22	270.81	17.02	
2025-01-10 13:16:07.43	270.87	17.02	
2025-01-10 13:16:07.64	270.92	17.03	
2025-01-10 13:16:07.84	270.97	17.03	
2025-01-10 13:16:08.04	271.03	17.03	
2025-01-10 13:16:08.25	271.08	17.03	
2025-01-10 13:16:08.46	271.14	17.03	
2025-01-10 13:16:08.66	271.19	17.03	
2025-01-10 13:16:08.87	271.25	17.04	
2025-01-10 13:16:09.07	271.30	17.04	
2025-01-10 13:16:09.28	271.35	17.04	
2025-01-10 13:16:09.48	271.41	17.04	
2025-01-10 13:16:09.69	271.46	17.04	
2025-01-10 13:16:09.89	271.51	17.04	
2025-01-10 13:16:10.10	271.57	17.04	
2025-01-10 13:16:10.31	271.62	17.05	
2025-01-10 13:16:10.52	271.68	17.05	
2025-01-10 13:16:10.73	271.74	17.05	
2025-01-10 13:16:10.93	271.79	17.05	
2025-01-10 13:16:11.14	271.84	17.05	
2025-01-10 13:16:11.36	271.90	17.05	
2025-01-10 13:16:11.56	271.95	17.05	
2025-01-10 13:16:11.76	272.01	17.05	
2025-01-10 13:16:11.97	272.06	17.06	
2025-01-10 13:16:12.18	272.12	17.06	
2025-01-10 13:16:12.38	272.17	17.06	
2025-01-10 13:16:12.58	272.22	17.06	
2025-01-10 13:16:12.79	272.28	17.06	
2025-01-10 13:16:13.00	272.33	17.06	
2025-01-10 13:16:13.20	272.39	17.06	
2025-01-10 13:16:13.40	272.44	17.06	
2025-01-10 13:16:13.61	272.49	17.06	
2025-01-10 13:16:13.82	272.55	17.07	
2025-01-10 13:16:14.02	272.60	17.07	
2025-01-10 13:16:14.23	272.66	17.07	
2025-01-10 13:16:14.43	272.71	17.07	
2025-01-10 13:16:14.64	272.77	17.07	
2025-01-10 13:16:14.84	272.82	17.07	
2025-01-10 13:16:15.05	272.87	17.07	
2025-01-10 13:16:15.25	272.93	17.07	
2025-01-10 13:16:15.46	272.98	17.07	
2025-01-10 13:16:15.68	273.04	17.07	
2025-01-10 13:16:15.88	273.09	17.07	
2025-01-10 13:16:16.09	273.15	17.07	
2025-01-10 13:16:16.29	273.20	17.08	
2025-01-10 13:16:16.50	273.26	17.08	
2025-01-10 13:16:16.70	273.31	17.08	
2025-01-10 13:16:16.91	273.36	17.08	
2025-01-10 13:16:17.12	273.42	17.08	
2025-01-10 13:16:17.32	273.47	17.08	
2025-01-10 13:16:17.53	273.53	17.08	
2025-01-10 13:16:17.73	273.58	17.08	
2025-01-10 13:16:17.94	273.64	17.08	
2025-01-10 13:16:18.14	273.69	17.08	
2025-01-10 13:16:18.35	273.74	17.08	
2025-01-10 13:16:18.56	273.80	17.08	
2025-01-10 13:16:18.76	273.85	17.08	
2025-01-10 13:16:18.97	273.91	17.08	
2025-01-10 13:16:19.17	273.96	17.08	
2025-01-10 13:16:19.38	274.02	17.08	
2025-01-10 13:16:19.58	274.07	17.08	
2025-01-10 13:16:19.79	274.13	17.08	
2025-01-10 13:16:19.99	274.18	17.08	
2025-01-10 13:16:20.20	274.23	17.08	
2025-01-10 13:16:20.40	274.29	17.08	
2025-01-10 13:16:20.61	274.34	17.08	
2025-01-10 13:16:20.82	274.40	17.08	
2025-01-10 13:16:21.02	274.45	17.08	
2025-01-10 13:16:21.23	274.51	17.08	
2025-01-10 13:16:21.43	274.56	17.08	
2025-01-10 13:16:21.64	274.61	17.08	
2025-01-10 13:16:21.84	274.67	17.08	
2025-01-10 13:16:22.05	274.72	17.08	
2025-01-10 13:16:22.26	274.78	17.08	
2025-01-10 13:16:22.46	274.83	17.08	
2025-01-10 13:16:22.66	274.88	17.08	
2025-01-10 13:16:22.87	274.94	17.08	
2025-01-10 13:16:23.07	274.99	17.08	
2025-01-10 13:16:23.28	275.05	17.08	
2025-01-10 13:16:23.49	275.10	17.08	
2025-01-10 13:16:23.69	275.15	17.08	
2025-01-10 13:16:23.90	275.21	17.08	
2025-01-10 13:16:24.10	275.26	17.08	
2025-01-10 13:16:24.31	275.32	17.08	
2025-01-10 13:16:24.51	275.37	17.08	
2025-01-10 13:16:24.72	275.43	17.08	
2025-01-10 13:16:24.92	275.48	17.08	
2025-01-10 13:16:25.13	275.53	17.08	
2025-01-10 13:16:25.33	275.59	17.08	
2025-01-10 13:16:25.54	275.64	17.08	
2025-01-10 13:16:25.75	275.70	17.08	
2025-01-10 13:16:25.95	275.75	17.08	
2025-01-10 13:16:26.16	275.81	17.08	
2025-01-10 13:16:26.36	275.86	17.08	
2025-01-10 13:16:26.57	275.91	17.08	
2025-01-10 13:16:26.77	275.97	17.08	
2025-01-10 13:16:26.98	276.02	17.08	
2025-01-10 13:16:27.19	276.08	17.08	
2025-01-10 13:16:27.39	276.13	17.08	
2025-01-10 13:16:27.59	276.18	17.08	
2025-01-10 13:16:27.80	276.24	17.08	
2025-01-10 13:16:28.00	276.29	17.08	
2025-01-10 13:16:28.21	276.35	17.07	
2025-01-10 13:16:28.41	276.40	17.07	
2025-01-10 13:16:28.62	276.46	17.07	
2025-01-10 13:16:28.82	276.51	17.07	
2025-01-10 13:16:29.03	276.56	17.07	
2025-01-10 13:16:29.23	276.62	17.07	
2025-01-10 13:16:29.44	276.67	17.07	
2025-01-10 13:16:29.64	276.72	17.07	
2025-01-10 13:16:29.85	276.78	17.07	
2025-01-10 13:16:30.05	276.83	17.07	
2025-01-10 13:16:30.25	276.89	17.07	
2025-01-10 13:16:30.46	276.94	17.07	
2025-01-10 13:16:30.66	276.99	17.06	
2025-01-10 13:16:30.87	277.05	17.06	
2025-01-10 13:16:31.08	277.10	17.06	
2025-01-10 13:16:31.28	277.16	17.06	
2025-01-10 13:16:31.49	277.21	17.06	
2025-01-10 13:16:31.69	277.27	17.06	
2025-01-10 13:16:31.90	277.32	17.06	
2025-01-10 13:16:32.10	277.37	17.06	
2025-01-10 13:16:32.31	277.43	17.06	
2025-01-10 13:16:32.51	277.48	17.05	
2025-01-10 13:16:32.72	277.54	17.05	
2025-01-10 13:16:32.92	277.59	17.05	
2025-01-10 13:16:33.13	277.64	17.05	
2025-01-10 13:16:33.33	277.70	17.05	
2025-01-10 13:16:33.54	277.75	17.05	
2025-01-10 13:16:33.74	277.81	17.05	
2025-01-10 13:16:33.94	277.86	17.05	
2025-01-10 13:16:34.15	277.91	17.04	
2025-01-10 13:16:34.36	277.97	17.04	
2025-01-10 13:16:34.56	278.02	17.04	
2025-01-10 13:16:34.76	278.07	17.04	
2025-01-10 13:16:34.97	278.13	17.04	
2025-01-10 13:16:35.17	278.18	17.04	
2025-01-10 13:16:35.38	278.24	17.04	
2025-01-10 13:16:35.59	278.29	17.03	
2025-01-10 13:16:35.79	278.34	17.03	
2025-01-10 13:16:35.99	278.40	17.03	
2025-01-10 13:16:36.20	278.45	17.03	
2025-01-10 13:16:36.40	278.50	17.03	
2025-01-10 13:16:36.61	278.56	17.03	
2025-01-10 13:16:36.81	278.61	17.02	
2025-01-10 13:16:37.02	278.67	17.02	
2025-01-10 13:16:37.22	278.72	17.02	
2025-01-10 13:16:37.43	278.78	17.02	
2025-01-10 13:16:37.63	278.83	17.02	
2025-01-10 13:16:37.84	278.88	17.02	
2025-01-10 13:16:38.04	278.94	17.01	
2025-01-10 13:16:38.25	278.99	17.01	
2025-01-10 13:16:38.45	279.04	17.01	
2025-01-10 13:16:38.66	279.10	17.01	
2025-01-10 13:16:38.86	279.15	17.01	
2025-01-10 13:16:39.06	279.20	17.01	
2025-01-10 13:16:39.27	279.26	17.00	
2025-01-10 13:16:39.48	279.31	17.00	
2025-01-10 13:16:39.68	279.37	17.00	
2025-01-10 13:16:39.89	279.42	17.00	
2025-01-10 13:16:40.09	279.47	17.00	
2025-01-10 13:16:40.30	279.53	16.99	
2025-01-10 13:16:40.51	279.58	16.99	
2025-01-10 13:16:40.71	279.64	16.99	
2025-01-10 13:16:40.92	279.69	16.99	
2025-01-10 13:16:41.12	279.74	16.98	
2025-01-10 13:16:41.33	279.80	16.98	
2025-01-10 13:16:41.53	279.85	16.98	
2025-01-10 13:16:41.74	279.91	16.98	
2025-01-10 13:16:41.94	279.96	16.98	
2025-01-10 13:16:42.15	280.01	16.97	
2025-01-10 13:16:42.35	280.07	16.97	
2025-01-10 13:16:42.55	280.12	16.97	
2025-01-10 13:16:42.76	280.17	16.97	
2025-01-10 13:16:42.97	280.23	16.96	
2025-01-10 13:16:43.17	280.28	16.96	
2025-01-10 13:16:43.38	280.34	16.96	
2025-01-10 13:16:43.58	280.39	16.96	
2025-01-10 13:16:43.79	280.44	16.95	
2025-01-10 13:16:43.99	280.50	16.95	
2025-01-10 13:16:44.20	280.55	16.95	
2025-01-10 13:16:44.40	280.60	16.95	
2025-01-10 13:16:44.61	280.66	16.94	
2025-01-10 13:16:44.82	280.71	16.94	
2025-01-10 13:16:45.02	280.76	16.94	
2025-01-10 13:16:45.23	280.82	16.94	
2025-01-10 13:16:45.43	280.87	16.93	
2025-01-10 13:16:45.63	280.92	16.93	
2025-01-10 13:16:45.84	280.98	16.93	
2025-01-10 13:16:46.04	281.03	16.93	
2025-01-10 13:16:46.25	281.09	16.92	
2025-01-10 13:16:46.46	281.14	16.92	
2025-01-10 13:16:46.66	281.19	16.92	
2025-01-10 13:16:46.87	281.25	16.92	
2025-01-10 13:16:47.07	281.30	16.91	
2025-01-10 13:16:47.28	281.35	16.91	
2025-01-10 13:16:47.48	281.41	16.91	
2025-01-10 13:16:47.69	281.46	16.90	
2025-01-10 13:16:47.89	281.51	16.90	
2025-01-10 13:16:48.10	281.57	16.90	
2025-01-10 13:16:48.30	281.62	16.90	
2025-01-10 13:16:48.51	281.67	16.89	
2025-01-10 13:16:48.71	281.73	16.89	
2025-01-10 13:16:48.92	281.78	16.89	
2025-01-10 13:16:49.12	281.83	16.88	
2025-01-10 13:16:49.33	281.89	16.88	
2025-01-10 13:16:49.53	281.94	16.88	
2025-01-10 13:16:49.74	281.99	16.87	
2025-01-10 13:16:49.95	282.05	16.87	
2025-01-10 13:16:50.15	282.10	16.87	
2025-01-10 13:16:50.36	282.16	16.86	
2025-01-10 13:16:50.56	282.21	16.86	
2025-01-10 13:16:50.77	282.26	16.86	
2025-01-10 13:16:50.97	282.31	16.86	
2025-01-10 13:16:51.18	282.37	16.85	
2025-01-10 13:16:51.38	282.42	16.85	
2025-01-10 13:16:51.59	282.48	16.85	
2025-01-10 13:16:51.80	282.53	16.84	
2025-01-10 13:16:52.01	282.58	16.84	
2025-01-10 13:16:52.22	282.64	16.84	
2025-01-10 13:16:52.42	282.69	16.83	
2025-01-10 13:16:52.63	282.74	16.83	
2025-01-10 13:16:52.84	282.80	16.82	
2025-01-10 13:16:53.06	282.86	16.82	
2025-01-10 13:16:53.26	282.91	16.82	
2025-01-10 13:16:53.47	282.96	16.81	
2025-01-10 13:16:53.67	283.01	16.81	
2025-01-10 13:16:53.88	283.07	16.81	
2025-01-10 13:16:54.08	283.12	16.80	
2025-01-10 13:16:54.29	283.17	16.80	
2025-01-10 13:16:54.49	283.23	16.80	
2025-01-10 13:16:54.70	283.28	16.79	
2025-01-10 13:16:54.90	283.33	16.79	
2025-01-10 13:16:55.11	283.39	16.79	
2025-01-10 13:16:55.31	283.44	16.78	
2025-01-10 13:16:55.52	283.49	16.78	
2025-01-10 13:16:55.72	283.54	16.77	
2025-01-10 13:16:55.93	283.60	16.77	
2025-01-10 13:16:56.13	283.65	16.77	
2025-01-10 13:16:56.34	283.70	16.76	
2025-01-10 13:16:56.54	283.76	16.76	
2025-01-10 13:16:56.75	283.81	16.76	
2025-01-10 13:16:56.95	283.86	16.75	
2025-01-10 13:16:57.16	283.92	16.75	
2025-01-10 13:16:57.36	283.97	16.74	
2025-01-10 13:16:57.57	284.02	16.74	
2025-01-10 13:16:57.77	284.07	16.74	
2025-01-10 13:16:57.98	284.13	16.73	
2025-01-10 13:16:58.18	284.18	16.73	
2025-01-10 13:16:58.39	284.23	16.72	
2025-01-10 13:16:58.59	284.28	16.72	
2025-01-10 13:16:58.80	284.34	16.72	
2025-01-10 13:16:59.00	284.39	16.71	
2025-01-10 13:16:59.21	284.44	16.71	
2025-01-10 13:16:59.41	284.49	16.70	
2025-01-10 13:16:55.05	283.37	16.79	
2025-01-10 13:16:55.26	283.43	16.78	
2025-01-10 13:16:55.47	283.48	16.78	
2025-01-10 13:16:55.69	283.54	16.77	
2025-01-10 13:16:55.89	283.59	16.77	
2025-01-10 13:16:56.10	283.64	16.77	
2025-01-10 13:16:56.31	283.70	16.76	
2025-01-10 13:16:56.51	283.75	16.76	
2025-01-10 13:16:56.72	283.80	16.76	
2025-01-10 13:16:56.92	283.85	16.75	
2025-01-10 13:16:57.13	283.91	16.75	
2025-01-10 13:16:57.33	283.96	16.74	
2025-01-10 13:16:57.54	284.01	16.74	
2025-01-10 13:16:57.74	284.06	16.74	
2025-01-10 13:16:57.95	284.12	16.73	
2025-01-10 13:16:58.15	284.17	16.73	
2025-01-10 13:16:58.36	284.22	16.72	
2025-01-10 13:16:58.56	284.28	16.72	
2025-01-10 13:16:58.77	284.33	16.72	
2025-01-10 13:16:58.97	284.38	16.71	
2025-01-10 13:16:59.18	284.44	16.71	
2025-01-10 13:16:59.38	284.49	16.70	
2025-01-10 13:16:59.59	284.54	16.70	
2025-01-10 13:16:59.80	284.59	16.70	
2025-01-10 13:17:00.00	284.65	16.69	
2025-01-10 13:17:00.20	284.70	16.69	
2025-01-10 13:17:00.41	284.75	16.68	
2025-01-10 13:17:00.62	284.81	16.68	
2025-01-10 13:17:00.82	284.86	16.67	
2025-01-10 13:17:01.03	284.91	16.67	
2025-01-10 13:17:01.23	284.96	16.67	
2025-01-10 13:17:01.44	285.02	16.66	
2025-01-10 13:17:01.64	285.07	16.66	
2025-01-10 13:17:01.85	285.12	16.65	
2025-01-10 13:17:02.05	285.17	16.65	
2025-01-10 13:17:02.26	285.23	16.64	
2025-01-10 13:17:02.46	285.28	16.64	
2025-01-10 13:17:02.67	285.33	16.63	
2025-01-10 13:17:02.87	285.38	16.63	
2025-01-10 13:17:03.08	285.43	16.63	
2025-01-10 13:17:03.28	285.49	16.62	
