passes_logs/2025/01/10/SPB_Silybum_02/SPB_Silybum_02__20250110_075708_TERRA_rec.log

#Pass ID: 20250110_075708_TERRA
#Satellite: TERRA
#Configuration: TERRA
#Start time: 2025-01-10 07:57:08

#Version: 2.0.20230423
#Station: SPB_Silybum_02
#Location: 30.233357 lon 59.946436 lat
#TLE: 1 25994U 99068A   25009.84464495  .00000861  00000+0  18726-3 0  9992
#TLE: 2 25994  98.0226  73.0387 0003560  82.8900 338.1382 14.60385144333325

#Time	Az	El	Level	Level2	SNR	BER	Gain	Gain2
2025-01-10 07:57:10.88	18.98	4.17	
2025-01-10 07:57:11.09	18.99	4.19	
2025-01-10 07:57:11.30	18.99	4.20	
2025-01-10 07:57:11.50	19.00	4.22	
2025-01-10 07:57:11.71	19.00	4.23	
2025-01-10 07:57:11.91	19.01	4.25	
2025-01-10 07:57:12.12	19.02	4.26	
2025-01-10 07:57:12.32	19.02	4.28	
2025-01-10 07:57:12.53	19.03	4.29	
2025-01-10 07:57:12.73	19.03	4.31	
2025-01-10 07:57:12.95	19.04	4.32	
2025-01-10 07:57:13.16	19.05	4.34	
2025-01-10 07:57:13.36	19.05	4.35	
2025-01-10 07:57:13.57	19.06	4.36	
2025-01-10 07:57:13.77	19.06	4.38	
2025-01-10 07:57:13.97	19.07	4.39	
2025-01-10 07:57:14.18	19.08	4.41	
2025-01-10 07:57:14.39	19.08	4.42	
2025-01-10 07:57:14.59	19.09	4.44	
2025-01-10 07:57:14.80	19.09	4.45	
2025-01-10 07:57:15.00	19.10	4.47	
2025-01-10 07:57:15.21	19.10	4.48	
2025-01-10 07:57:15.41	19.11	4.50	
2025-01-10 07:57:15.62	19.12	4.51	
2025-01-10 07:57:15.82	19.12	4.53	
2025-01-10 07:57:16.03	19.13	4.54	
2025-01-10 07:57:16.23	19.13	4.56	
2025-01-10 07:57:16.44	19.14	4.57	
2025-01-10 07:57:16.64	19.15	4.59	
2025-01-10 07:57:16.85	19.15	4.60	
2025-01-10 07:57:17.05	19.16	4.61	
2025-01-10 07:57:17.26	19.16	4.63	
2025-01-10 07:57:17.46	19.17	4.64	
2025-01-10 07:57:17.67	19.18	4.66	
2025-01-10 07:57:17.87	19.18	4.67	
2025-01-10 07:57:18.08	19.19	4.69	
2025-01-10 07:57:18.28	19.19	4.70	
2025-01-10 07:57:18.49	19.20	4.72	
2025-01-10 07:57:18.69	19.21	4.73	
2025-01-10 07:57:18.90	19.21	4.75	
2025-01-10 07:57:19.11	19.22	4.76	
2025-01-10 07:57:19.31	19.22	4.78	
2025-01-10 07:57:19.52	19.23	4.79	
2025-01-10 07:57:19.72	19.24	4.81	
2025-01-10 07:57:19.93	19.24	4.82	
2025-01-10 07:57:20.13	19.25	4.84	
2025-01-10 07:57:20.34	19.25	4.85	
2025-01-10 07:57:20.54	19.26	4.87	
2025-01-10 07:57:20.75	19.27	4.88	
2025-01-10 07:57:20.95	19.27	4.90	
2025-01-10 07:57:21.16	19.28	4.91	
2025-01-10 07:57:21.36	19.28	4.93	
2025-01-10 07:57:21.57	19.29	4.94	
2025-01-10 07:57:21.77	19.30	4.96	
2025-01-10 07:57:21.98	19.30	4.97	
2025-01-10 07:57:22.18	19.31	4.99	
2025-01-10 07:57:22.39	19.31	5.00	
2025-01-10 07:57:22.61	19.32	5.02	
2025-01-10 07:57:22.81	19.33	5.03	
2025-01-10 07:57:23.02	19.33	5.05	
2025-01-10 07:57:23.22	19.34	5.06	
2025-01-10 07:57:23.43	19.35	5.08	
2025-01-10 07:57:23.63	19.35	5.09	
2025-01-10 07:57:23.84	19.36	5.11	
2025-01-10 07:57:24.04	19.36	5.12	
2025-01-10 07:57:24.24	19.37	5.14	
2025-01-10 07:57:24.45	19.38	5.15	
2025-01-10 07:57:24.65	19.38	5.17	
2025-01-10 07:57:24.86	19.39	5.18	
2025-01-10 07:57:25.06	19.39	5.20	
2025-01-10 07:57:25.28	19.40	5.22	
2025-01-10 07:57:25.48	19.41	5.23	
2025-01-10 07:57:25.68	19.41	5.25	
2025-01-10 07:57:25.89	19.42	5.26	
2025-01-10 07:57:26.09	19.43	5.28	
2025-01-10 07:57:26.30	19.43	5.29	
2025-01-10 07:57:26.50	19.44	5.31	
2025-01-10 07:57:26.71	19.44	5.32	
2025-01-10 07:57:26.91	19.45	5.34	
2025-01-10 07:57:27.12	19.46	5.35	
2025-01-10 07:57:27.32	19.46	5.37	
2025-01-10 07:57:27.53	19.47	5.38	
2025-01-10 07:57:27.73	19.47	5.40	
2025-01-10 07:57:27.94	19.48	5.41	
2025-01-10 07:57:28.14	19.49	5.43	
2025-01-10 07:57:28.35	19.49	5.44	
2025-01-10 07:57:28.55	19.50	5.46	
2025-01-10 07:57:28.76	19.51	5.47	
2025-01-10 07:57:28.98	19.51	5.49	
2025-01-10 07:57:29.18	19.52	5.51	
2025-01-10 07:57:29.39	19.53	5.52	
2025-01-10 07:57:29.59	19.53	5.54	
2025-01-10 07:57:29.80	19.54	5.55	
2025-01-10 07:57:30.00	19.54	5.57	
2025-01-10 07:57:30.20	19.55	5.58	
2025-01-10 07:57:30.41	19.56	5.60	
2025-01-10 07:57:30.61	19.56	5.61	
2025-01-10 07:57:30.82	19.57	5.63	
2025-01-10 07:57:31.02	19.58	5.64	
2025-01-10 07:57:31.23	19.58	5.66	
2025-01-10 07:57:31.43	19.59	5.68	
2025-01-10 07:57:31.64	19.60	5.69	
2025-01-10 07:57:31.84	19.60	5.71	
2025-01-10 07:57:32.04	19.61	5.72	
2025-01-10 07:57:32.25	19.61	5.74	
2025-01-10 07:57:32.45	19.62	5.75	
2025-01-10 07:57:32.66	19.63	5.77	
2025-01-10 07:57:32.86	19.63	5.78	
2025-01-10 07:57:33.07	19.64	5.80	
2025-01-10 07:57:33.27	19.65	5.81	
2025-01-10 07:57:33.48	19.65	5.83	
2025-01-10 07:57:33.68	19.66	5.85	
2025-01-10 07:57:33.89	19.67	5.86	
2025-01-10 07:57:34.09	19.67	5.88	
2025-01-10 07:57:34.30	19.68	5.89	
2025-01-10 07:57:34.50	19.68	5.91	
2025-01-10 07:57:34.71	19.69	5.92	
2025-01-10 07:57:34.91	19.70	5.94	
2025-01-10 07:57:35.11	19.70	5.95	
2025-01-10 07:57:35.32	19.71	5.97	
2025-01-10 07:57:35.52	19.72	5.99	
2025-01-10 07:57:35.73	19.72	6.00	
2025-01-10 07:57:35.93	19.73	6.02	
2025-01-10 07:57:36.13	19.74	6.03	
2025-01-10 07:57:36.34	19.74	6.05	
2025-01-10 07:57:36.54	19.75	6.06	
2025-01-10 07:57:36.75	19.76	6.08	
2025-01-10 07:57:36.95	19.76	6.09	
2025-01-10 07:57:37.16	19.77	6.11	
2025-01-10 07:57:37.36	19.78	6.13	
2025-01-10 07:57:37.56	19.78	6.14	
2025-01-10 07:57:37.77	19.79	6.16	
2025-01-10 07:57:37.97	19.79	6.17	
2025-01-10 07:57:38.18	19.80	6.19	
2025-01-10 07:57:38.38	19.81	6.20	
2025-01-10 07:57:38.60	19.81	6.22	
2025-01-10 07:57:38.81	19.82	6.24	
2025-01-10 07:57:39.01	19.83	6.25	
2025-01-10 07:57:39.22	19.83	6.27	
2025-01-10 07:57:39.42	19.84	6.29	
2025-01-10 07:57:39.64	19.85	6.30	
2025-01-10 07:57:39.84	19.85	6.32	
2025-01-10 07:57:40.05	19.86	6.33	
2025-01-10 07:57:40.25	19.87	6.35	
2025-01-10 07:57:40.46	19.87	6.37	
2025-01-10 07:57:40.66	19.88	6.38	
2025-01-10 07:57:40.87	19.89	6.40	
2025-01-10 07:57:41.07	19.89	6.41	
2025-01-10 07:57:41.28	19.90	6.43	
2025-01-10 07:57:41.49	19.91	6.45	
2025-01-10 07:57:41.69	19.91	6.46	
2025-01-10 07:57:41.90	19.92	6.48	
2025-01-10 07:57:42.10	19.93	6.49	
2025-01-10 07:57:42.31	19.94	6.51	
2025-01-10 07:57:42.51	19.94	6.53	
2025-01-10 07:57:42.71	19.95	6.54	
2025-01-10 07:57:42.92	19.96	6.56	
2025-01-10 07:57:43.12	19.96	6.57	
2025-01-10 07:57:43.33	19.97	6.59	
2025-01-10 07:57:43.53	19.98	6.60	
2025-01-10 07:57:43.74	19.98	6.62	
2025-01-10 07:57:43.94	19.99	6.64	
2025-01-10 07:57:44.15	20.00	6.65	
2025-01-10 07:57:44.35	20.00	6.67	
2025-01-10 07:57:44.56	20.01	6.69	
2025-01-10 07:57:44.76	20.02	6.70	
2025-01-10 07:57:44.97	20.02	6.72	
2025-01-10 07:57:45.17	20.03	6.73	
2025-01-10 07:57:45.38	20.04	6.75	
2025-01-10 07:57:45.58	20.04	6.77	
2025-01-10 07:57:45.79	20.05	6.78	
2025-01-10 07:57:45.99	20.06	6.80	
2025-01-10 07:57:46.20	20.06	6.82	
2025-01-10 07:57:46.40	20.07	6.83	
2025-01-10 07:57:46.61	20.08	6.85	
2025-01-10 07:57:46.81	20.08	6.86	
2025-01-10 07:57:47.02	20.09	6.88	
2025-01-10 07:57:47.22	20.10	6.90	
2025-01-10 07:57:47.43	20.10	6.91	
2025-01-10 07:57:47.63	20.11	6.93	
2025-01-10 07:57:47.84	20.12	6.95	
2025-01-10 07:57:48.04	20.13	6.96	
2025-01-10 07:57:48.25	20.13	6.98	
2025-01-10 07:57:48.46	20.14	6.99	
2025-01-10 07:57:48.66	20.15	7.01	
2025-01-10 07:57:48.86	20.15	7.03	
2025-01-10 07:57:49.07	20.16	7.04	
2025-01-10 07:57:49.28	20.17	7.06	
2025-01-10 07:57:49.48	20.17	7.08	
2025-01-10 07:57:49.68	20.18	7.09	
2025-01-10 07:57:49.89	20.19	7.11	
2025-01-10 07:57:50.10	20.19	7.13	
2025-01-10 07:57:50.30	20.20	7.14	
2025-01-10 07:57:50.50	20.21	7.16	
2025-01-10 07:57:50.71	20.22	7.17	
2025-01-10 07:57:50.92	20.22	7.19	
2025-01-10 07:57:51.12	20.23	7.21	
2025-01-10 07:57:51.32	20.24	7.22	
2025-01-10 07:57:51.53	20.24	7.24	
2025-01-10 07:57:51.74	20.25	7.26	
2025-01-10 07:57:51.94	20.26	7.27	
2025-01-10 07:57:52.14	20.26	7.29	
2025-01-10 07:57:52.35	20.27	7.31	
2025-01-10 07:57:52.55	20.28	7.32	
2025-01-10 07:57:52.76	20.29	7.34	
2025-01-10 07:57:52.96	20.29	7.36	
2025-01-10 07:57:53.17	20.30	7.37	
2025-01-10 07:57:53.37	20.31	7.39	
2025-01-10 07:57:53.58	20.31	7.41	
2025-01-10 07:57:53.78	20.32	7.42	
2025-01-10 07:57:53.99	20.33	7.44	
2025-01-10 07:57:54.19	20.34	7.46	
2025-01-10 07:57:54.40	20.34	7.47	
2025-01-10 07:57:54.60	20.35	7.49	
2025-01-10 07:57:54.81	20.36	7.51	
2025-01-10 07:57:55.01	20.36	7.52	
2025-01-10 07:57:55.22	20.37	7.54	
2025-01-10 07:57:55.42	20.38	7.56	
2025-01-10 07:57:55.64	20.39	7.57	
2025-01-10 07:57:55.84	20.39	7.59	
2025-01-10 07:57:56.05	20.40	7.61	
2025-01-10 07:57:56.26	20.41	7.62	
2025-01-10 07:57:56.46	20.41	7.64	
2025-01-10 07:57:56.68	20.42	7.66	
2025-01-10 07:57:56.88	20.43	7.68	
2025-01-10 07:57:57.09	20.44	7.69	
2025-01-10 07:57:57.29	20.44	7.71	
2025-01-10 07:57:57.50	20.45	7.73	
2025-01-10 07:57:57.70	20.46	7.74	
2025-01-10 07:57:57.91	20.47	7.76	
2025-01-10 07:57:58.12	20.47	7.78	
2025-01-10 07:57:58.32	20.48	7.79	
2025-01-10 07:57:58.53	20.49	7.81	
2025-01-10 07:57:58.73	20.50	7.83	
2025-01-10 07:57:58.94	20.50	7.84	
2025-01-10 07:57:59.14	20.51	7.86	
2025-01-10 07:57:59.35	20.52	7.88	
2025-01-10 07:57:59.56	20.52	7.90	
2025-01-10 07:57:59.76	20.53	7.91	
2025-01-10 07:57:59.96	20.54	7.93	
2025-01-10 07:58:00.17	20.55	7.95	
2025-01-10 07:58:00.37	20.55	7.96	
2025-01-10 07:58:00.58	20.56	7.98	
2025-01-10 07:58:00.80	20.57	8.00	
2025-01-10 07:58:01.00	20.58	8.02	
2025-01-10 07:58:01.21	20.58	8.03	
2025-01-10 07:58:01.41	20.59	8.05	
2025-01-10 07:58:01.62	20.60	8.07	
2025-01-10 07:58:01.83	20.61	8.08	
2025-01-10 07:58:02.04	20.61	8.10	
2025-01-10 07:58:02.25	20.62	8.12	
2025-01-10 07:58:02.46	20.63	8.14	
2025-01-10 07:58:02.66	20.64	8.15	
2025-01-10 07:58:02.87	20.64	8.17	
2025-01-10 07:58:03.07	20.65	8.19	
2025-01-10 07:58:03.28	20.66	8.21	
2025-01-10 07:58:03.48	20.67	8.22	
2025-01-10 07:58:03.69	20.67	8.24	
2025-01-10 07:58:03.89	20.68	8.26	
2025-01-10 07:58:04.10	20.69	8.27	
2025-01-10 07:58:04.30	20.70	8.29	
2025-01-10 07:58:04.51	20.70	8.31	
2025-01-10 07:58:04.72	20.71	8.33	
2025-01-10 07:58:04.92	20.72	8.34	
2025-01-10 07:58:05.13	20.73	8.36	
2025-01-10 07:58:05.33	20.73	8.38	
2025-01-10 07:58:05.53	20.74	8.40	
2025-01-10 07:58:05.74	20.75	8.41	
2025-01-10 07:58:05.95	20.76	8.43	
2025-01-10 07:58:06.15	20.76	8.45	
2025-01-10 07:58:06.36	20.77	8.47	
2025-01-10 07:58:06.56	20.78	8.48	
2025-01-10 07:58:06.77	20.79	8.50	
2025-01-10 07:58:06.97	20.80	8.52	
2025-01-10 07:58:07.18	20.80	8.54	
2025-01-10 07:58:07.38	20.81	8.55	
2025-01-10 07:58:07.59	20.82	8.57	
2025-01-10 07:58:07.79	20.83	8.59	
2025-01-10 07:58:08.00	20.83	8.61	
2025-01-10 07:58:08.20	20.84	8.62	
2025-01-10 07:58:08.40	20.85	8.64	
2025-01-10 07:58:08.61	20.86	8.66	
2025-01-10 07:58:08.81	20.86	8.67	
2025-01-10 07:58:09.02	20.87	8.69	
2025-01-10 07:58:09.22	20.88	8.71	
2025-01-10 07:58:09.42	20.89	8.73	
2025-01-10 07:58:09.63	20.90	8.74	
2025-01-10 07:58:09.84	20.90	8.76	
2025-01-10 07:58:10.04	20.91	8.78	
2025-01-10 07:58:10.25	20.92	8.80	
2025-01-10 07:58:10.45	20.93	8.82	
2025-01-10 07:58:10.65	20.93	8.83	
2025-01-10 07:58:10.86	20.94	8.85	
2025-01-10 07:58:11.07	20.95	8.87	
2025-01-10 07:58:11.27	20.96	8.89	
2025-01-10 07:58:11.47	20.97	8.90	
2025-01-10 07:58:11.68	20.97	8.92	
2025-01-10 07:58:11.89	20.98	8.94	
2025-01-10 07:58:12.09	20.99	8.96	
2025-01-10 07:58:12.30	21.00	8.98	
2025-01-10 07:58:12.50	21.00	8.99	
2025-01-10 07:58:12.71	21.01	9.01	
2025-01-10 07:58:12.91	21.02	9.03	
2025-01-10 07:58:13.12	21.03	9.05	
2025-01-10 07:58:13.32	21.04	9.06	
2025-01-10 07:58:13.53	21.04	9.08	
2025-01-10 07:58:13.73	21.05	9.10	
2025-01-10 07:58:13.94	21.06	9.12	
2025-01-10 07:58:14.14	21.07	9.14	
2025-01-10 07:58:14.35	21.08	9.15	
2025-01-10 07:58:14.55	21.08	9.17	
2025-01-10 07:58:14.76	21.09	9.19	
2025-01-10 07:58:14.96	21.10	9.21	
2025-01-10 07:58:15.16	21.11	9.22	
2025-01-10 07:58:15.37	21.12	9.24	
2025-01-10 07:58:15.57	21.12	9.26	
2025-01-10 07:58:15.78	21.13	9.28	
2025-01-10 07:58:15.98	21.14	9.30	
2025-01-10 07:58:16.19	21.15	9.32	
2025-01-10 07:58:16.39	21.16	9.33	
2025-01-10 07:58:16.60	21.16	9.35	
2025-01-10 07:58:16.80	21.17	9.37	
2025-01-10 07:58:17.01	21.18	9.39	
2025-01-10 07:58:17.21	21.19	9.41	
2025-01-10 07:58:17.42	21.20	9.42	
2025-01-10 07:58:17.62	21.20	9.44	
2025-01-10 07:58:17.83	21.21	9.46	
2025-01-10 07:58:18.04	21.22	9.48	
2025-01-10 07:58:18.25	21.23	9.50	
2025-01-10 07:58:18.45	21.24	9.52	
2025-01-10 07:58:18.66	21.25	9.53	
2025-01-10 07:58:18.86	21.25	9.55	
2025-01-10 07:58:19.07	21.26	9.57	
2025-01-10 07:58:19.27	21.27	9.59	
2025-01-10 07:58:19.48	21.28	9.61	
2025-01-10 07:58:19.69	21.29	9.63	
2025-01-10 07:58:19.89	21.29	9.64	
2025-01-10 07:58:20.10	21.30	9.66	
2025-01-10 07:58:20.30	21.31	9.68	
2025-01-10 07:58:20.51	21.32	9.70	
2025-01-10 07:58:20.71	21.33	9.72	
2025-01-10 07:58:20.92	21.34	9.74	
2025-01-10 07:58:21.12	21.34	9.75	
2025-01-10 07:58:21.33	21.35	9.77	
2025-01-10 07:58:21.53	21.36	9.79	
2025-01-10 07:58:21.74	21.37	9.81	
2025-01-10 07:58:21.94	21.38	9.83	
2025-01-10 07:58:22.15	21.39	9.85	
2025-01-10 07:58:22.35	21.39	9.86	
2025-01-10 07:58:22.56	21.40	9.88	
2025-01-10 07:58:22.76	21.41	9.90	
2025-01-10 07:58:22.97	21.42	9.92	
2025-01-10 07:58:23.17	21.43	9.94	
2025-01-10 07:58:23.37	21.44	9.96	
2025-01-10 07:58:23.58	21.44	9.98	
2025-01-10 07:58:23.78	21.45	9.99	
2025-01-10 07:58:23.99	21.46	10.01	
2025-01-10 07:58:24.20	21.47	10.03	
2025-01-10 07:58:24.40	21.48	10.05	
2025-01-10 07:58:24.61	21.49	10.07	
2025-01-10 07:58:24.81	21.50	10.09	
2025-01-10 07:58:25.02	21.50	10.11	
2025-01-10 07:58:25.22	21.51	10.12	
2025-01-10 07:58:25.42	21.52	10.14	
2025-01-10 07:58:25.63	21.53	10.16	
2025-01-10 07:58:25.84	21.54	10.18	
2025-01-10 07:58:26.04	21.55	10.20	
2025-01-10 07:58:26.25	21.55	10.22	
2025-01-10 07:58:26.45	21.56	10.24	
2025-01-10 07:58:26.66	21.57	10.26	
2025-01-10 07:58:26.86	21.58	10.27	
2025-01-10 07:58:27.07	21.59	10.29	
2025-01-10 07:58:27.27	21.60	10.31	
2025-01-10 07:58:27.48	21.61	10.33	
2025-01-10 07:58:27.68	21.61	10.35	
2025-01-10 07:58:27.89	21.62	10.37	
2025-01-10 07:58:28.09	21.63	10.39	
2025-01-10 07:58:28.30	21.64	10.41	
2025-01-10 07:58:28.50	21.65	10.43	
2025-01-10 07:58:28.72	21.66	10.45	
2025-01-10 07:58:28.92	21.67	10.46	
2025-01-10 07:58:29.13	21.68	10.48	
2025-01-10 07:58:29.33	21.68	10.50	
2025-01-10 07:58:29.54	21.69	10.52	
2025-01-10 07:58:29.74	21.70	10.54	
2025-01-10 07:58:29.95	21.71	10.56	
2025-01-10 07:58:30.16	21.72	10.58	
2025-01-10 07:58:30.37	21.73	10.60	
2025-01-10 07:58:30.57	21.74	10.62	
2025-01-10 07:58:30.78	21.75	10.64	
2025-01-10 07:58:30.98	21.75	10.66	
2025-01-10 07:58:31.19	21.76	10.68	
2025-01-10 07:58:31.39	21.77	10.69	
2025-01-10 07:58:31.60	21.78	10.71	
2025-01-10 07:58:31.80	21.79	10.73	
2025-01-10 07:58:32.01	21.80	10.75	
2025-01-10 07:58:32.21	21.81	10.77	
2025-01-10 07:58:32.42	21.82	10.79	
2025-01-10 07:58:32.62	21.83	10.81	
2025-01-10 07:58:32.83	21.83	10.83	
2025-01-10 07:58:33.03	21.84	10.85	
2025-01-10 07:58:33.23	21.85	10.87	
2025-01-10 07:58:33.44	21.86	10.89	
2025-01-10 07:58:33.64	21.87	10.91	
2025-01-10 07:58:33.85	21.88	10.93	
2025-01-10 07:58:34.05	21.89	10.94	
2025-01-10 07:58:34.26	21.90	10.96	
2025-01-10 07:58:34.46	21.91	10.98	
2025-01-10 07:58:34.67	21.91	11.00	
2025-01-10 07:58:34.88	21.92	11.02	
2025-01-10 07:58:35.09	21.93	11.04	
2025-01-10 07:58:35.30	21.94	11.06	
2025-01-10 07:58:35.50	21.95	11.08	
2025-01-10 07:58:35.71	21.96	11.10	
2025-01-10 07:58:35.92	21.97	11.12	
2025-01-10 07:58:36.12	21.98	11.14	
2025-01-10 07:58:36.33	21.99	11.16	
2025-01-10 07:58:36.53	22.00	11.18	
2025-01-10 07:58:36.74	22.01	11.20	
2025-01-10 07:58:36.94	22.02	11.22	
2025-01-10 07:58:37.15	22.02	11.24	
2025-01-10 07:58:37.35	22.03	11.26	
2025-01-10 07:58:37.56	22.04	11.28	
2025-01-10 07:58:37.76	22.05	11.30	
2025-01-10 07:58:37.97	22.06	11.32	
2025-01-10 07:58:38.17	22.07	11.34	
2025-01-10 07:58:38.38	22.08	11.36	
2025-01-10 07:58:38.58	22.09	11.38	
2025-01-10 07:58:38.79	22.10	11.40	
2025-01-10 07:58:38.99	22.11	11.42	
2025-01-10 07:58:39.20	22.12	11.44	
2025-01-10 07:58:39.40	22.13	11.46	
2025-01-10 07:58:39.60	22.13	11.47	
2025-01-10 07:58:39.81	22.14	11.50	
2025-01-10 07:58:40.02	22.15	11.52	
2025-01-10 07:58:40.22	22.16	11.54	
2025-01-10 07:58:40.43	22.17	11.56	
2025-01-10 07:58:40.63	22.18	11.57	
2025-01-10 07:58:40.84	22.19	11.60	
2025-01-10 07:58:41.05	22.20	11.62	
2025-01-10 07:58:41.25	22.21	11.64	
2025-01-10 07:58:41.46	22.22	11.66	
2025-01-10 07:58:41.66	22.23	11.68	
2025-01-10 07:58:41.87	22.24	11.70	
2025-01-10 07:58:42.07	22.25	11.72	
2025-01-10 07:58:42.28	22.26	11.74	
2025-01-10 07:58:42.48	22.27	11.76	
2025-01-10 07:58:42.69	22.28	11.78	
2025-01-10 07:58:42.89	22.29	11.80	
2025-01-10 07:58:43.10	22.29	11.82	
2025-01-10 07:58:43.30	22.30	11.84	
2025-01-10 07:58:43.51	22.31	11.86	
2025-01-10 07:58:43.71	22.32	11.88	
2025-01-10 07:58:43.92	22.33	11.90	
2025-01-10 07:58:44.12	22.34	11.92	
2025-01-10 07:58:44.33	22.35	11.94	
2025-01-10 07:58:44.54	22.36	11.96	
2025-01-10 07:58:44.74	22.37	11.98	
2025-01-10 07:58:44.94	22.38	12.00	
2025-01-10 07:58:45.15	22.39	12.02	
2025-01-10 07:58:45.35	22.40	12.04	
2025-01-10 07:58:45.56	22.41	12.06	
2025-01-10 07:58:45.78	22.42	12.08	
2025-01-10 07:58:45.98	22.43	12.10	
2025-01-10 07:58:46.19	22.44	12.12	
2025-01-10 07:58:46.39	22.45	12.14	
2025-01-10 07:58:46.60	22.46	12.16	
2025-01-10 07:58:46.80	22.47	12.18	
2025-01-10 07:58:47.02	22.48	12.20	
2025-01-10 07:58:47.23	22.49	12.23	
2025-01-10 07:58:47.43	22.50	12.25	
2025-01-10 07:58:47.64	22.51	12.27	
2025-01-10 07:58:47.84	22.52	12.29	
2025-01-10 07:58:48.05	22.53	12.31	
2025-01-10 07:58:48.25	22.54	12.33	
2025-01-10 07:58:48.46	22.55	12.35	
2025-01-10 07:58:48.66	22.56	12.37	
2025-01-10 07:58:48.87	22.57	12.39	
2025-01-10 07:58:49.07	22.58	12.41	
2025-01-10 07:58:49.28	22.59	12.43	
2025-01-10 07:58:49.48	22.60	12.45	
2025-01-10 07:58:49.68	22.61	12.47	
2025-01-10 07:58:49.89	22.62	12.49	
2025-01-10 07:58:50.09	22.63	12.51	
2025-01-10 07:58:50.30	22.64	12.53	
2025-01-10 07:58:50.51	22.65	12.56	
2025-01-10 07:58:50.71	22.66	12.58	
2025-01-10 07:58:50.92	22.67	12.60	
2025-01-10 07:58:51.12	22.68	12.62	
2025-01-10 07:58:51.33	22.69	12.64	
2025-01-10 07:58:51.53	22.70	12.66	
2025-01-10 07:58:51.74	22.71	12.68	
2025-01-10 07:58:51.95	22.72	12.70	
2025-01-10 07:58:52.16	22.73	12.72	
2025-01-10 07:58:52.37	22.74	12.75	
2025-01-10 07:58:52.57	22.75	12.77	
2025-01-10 07:58:52.78	22.76	12.79	
2025-01-10 07:58:52.99	22.77	12.81	
2025-01-10 07:58:53.19	22.78	12.83	
2025-01-10 07:58:53.40	22.79	12.85	
2025-01-10 07:58:53.60	22.80	12.87	
2025-01-10 07:58:53.81	22.81	12.89	
2025-01-10 07:58:54.01	22.82	12.91	
2025-01-10 07:58:54.22	22.83	12.94	
2025-01-10 07:58:54.43	22.84	12.96	
2025-01-10 07:58:54.63	22.85	12.98	
2025-01-10 07:58:54.84	22.86	13.00	
2025-01-10 07:58:55.04	22.87	13.02	
2025-01-10 07:58:55.25	22.88	13.04	
2025-01-10 07:58:55.45	22.89	13.06	
2025-01-10 07:58:55.66	22.90	13.08	
2025-01-10 07:58:55.86	22.91	13.11	
2025-01-10 07:58:56.07	22.92	13.13	
2025-01-10 07:58:56.28	22.93	13.15	
2025-01-10 07:58:56.48	22.94	13.17	
2025-01-10 07:58:56.69	22.95	13.19	
2025-01-10 07:58:56.89	22.96	13.21	
2025-01-10 07:58:57.10	22.97	13.23	
2025-01-10 07:58:57.30	22.98	13.26	
2025-01-10 07:58:57.50	22.99	13.28	
2025-01-10 07:58:57.71	23.01	13.30	
2025-01-10 07:58:57.91	23.02	13.32	
2025-01-10 07:58:58.12	23.03	13.34	
2025-01-10 07:58:58.33	23.04	13.36	
2025-01-10 07:58:58.53	23.05	13.38	
2025-01-10 07:58:58.73	23.06	13.41	
2025-01-10 07:58:58.94	23.07	13.43	
2025-01-10 07:58:59.14	23.08	13.45	
2025-01-10 07:58:59.35	23.09	13.47	
2025-01-10 07:58:59.55	23.10	13.49	
2025-01-10 07:58:59.76	23.11	13.51	
2025-01-10 07:58:59.96	23.12	13.54	
2025-01-10 07:59:00.17	23.13	13.56	
2025-01-10 07:59:00.37	23.14	13.58	
2025-01-10 07:59:00.58	23.15	13.60	
2025-01-10 07:59:00.78	23.16	13.62	
2025-01-10 07:59:00.99	23.17	13.65	
2025-01-10 07:59:01.19	23.19	13.67	
2025-01-10 07:59:01.40	23.20	13.69	
2025-01-10 07:59:01.60	23.21	13.71	
2025-01-10 07:59:01.81	23.22	13.73	
2025-01-10 07:59:02.01	23.23	13.75	
2025-01-10 07:59:02.22	23.24	13.78	
2025-01-10 07:59:02.42	23.25	13.80	
2025-01-10 07:59:02.63	23.26	13.82	
2025-01-10 07:59:02.83	23.27	13.84	
2025-01-10 07:59:03.03	23.28	13.86	
2025-01-10 07:59:03.24	23.29	13.89	
2025-01-10 07:59:03.44	23.30	13.91	
2025-01-10 07:59:03.65	23.32	13.93	
2025-01-10 07:59:03.85	23.33	13.95	
2025-01-10 07:59:04.06	23.34	13.97	
2025-01-10 07:59:04.26	23.35	14.00	
2025-01-10 07:59:04.47	23.36	14.02	
2025-01-10 07:59:04.67	23.37	14.04	
2025-01-10 07:59:04.88	23.38	14.06	
2025-01-10 07:59:05.08	23.39	14.09	
2025-01-10 07:59:05.28	23.40	14.11	
2025-01-10 07:59:05.49	23.41	14.13	
2025-01-10 07:59:05.70	23.43	14.15	
2025-01-10 07:59:05.90	23.44	14.17	
2025-01-10 07:59:06.12	23.45	14.20	
2025-01-10 07:59:06.33	23.46	14.22	
2025-01-10 07:59:06.53	23.47	14.24	
2025-01-10 07:59:06.74	23.48	14.27	
2025-01-10 07:59:06.94	23.49	14.29	
2025-01-10 07:59:07.15	23.50	14.31	
2025-01-10 07:59:07.35	23.51	14.33	
2025-01-10 07:59:07.56	23.53	14.36	
2025-01-10 07:59:07.76	23.54	14.38	
2025-01-10 07:59:07.97	23.55	14.40	
2025-01-10 07:59:08.17	23.56	14.42	
2025-01-10 07:59:08.37	23.57	14.45	
2025-01-10 07:59:08.58	23.58	14.47	
2025-01-10 07:59:08.79	23.59	14.49	
2025-01-10 07:59:08.99	23.60	14.51	
2025-01-10 07:59:09.19	23.62	14.54	
2025-01-10 07:59:09.40	23.63	14.56	
2025-01-10 07:59:09.61	23.64	14.58	
2025-01-10 07:59:09.81	23.65	14.60	
2025-01-10 07:59:10.02	23.66	14.63	
2025-01-10 07:59:10.22	23.67	14.65	
2025-01-10 07:59:10.43	23.69	14.67	
2025-01-10 07:59:10.63	23.70	14.70	
2025-01-10 07:59:10.84	23.71	14.72	
2025-01-10 07:59:11.04	23.72	14.74	
2025-01-10 07:59:11.25	23.73	14.76	
2025-01-10 07:59:11.45	23.74	14.79	
2025-01-10 07:59:11.65	23.75	14.81	
2025-01-10 07:59:11.86	23.77	14.83	
2025-01-10 07:59:12.06	23.78	14.86	
2025-01-10 07:59:12.27	23.79	14.88	
2025-01-10 07:59:12.49	23.80	14.90	
2025-01-10 07:59:12.69	23.81	14.93	
2025-01-10 07:59:12.90	23.82	14.95	
2025-01-10 07:59:13.10	23.84	14.97	
2025-01-10 07:59:13.31	23.85	15.00	
2025-01-10 07:59:13.51	23.86	15.02	
2025-01-10 07:59:13.72	23.87	15.04	
2025-01-10 07:59:13.92	23.88	15.07	
2025-01-10 07:59:14.13	23.89	15.09	
2025-01-10 07:59:14.33	23.91	15.11	
2025-01-10 07:59:14.55	23.92	15.14	
2025-01-10 07:59:14.75	23.93	15.16	
2025-01-10 07:59:14.96	23.94	15.18	
2025-01-10 07:59:15.16	23.95	15.21	
2025-01-10 07:59:15.37	23.97	15.23	
2025-01-10 07:59:15.57	23.98	15.25	
2025-01-10 07:59:15.78	23.99	15.28	
2025-01-10 07:59:15.98	24.00	15.30	
2025-01-10 07:59:16.19	24.01	15.32	
2025-01-10 07:59:16.39	24.03	15.35	
2025-01-10 07:59:16.60	24.04	15.37	
2025-01-10 07:59:16.80	24.05	15.39	
2025-01-10 07:59:17.01	24.06	15.42	
2025-01-10 07:59:17.21	24.07	15.44	
2025-01-10 07:59:17.42	24.09	15.47	
2025-01-10 07:59:17.63	24.10	15.49	
2025-01-10 07:59:17.83	24.11	15.51	
2025-01-10 07:59:18.03	24.12	15.54	
2025-01-10 07:59:18.24	24.13	15.56	
2025-01-10 07:59:18.45	24.15	15.58	
2025-01-10 07:59:18.65	24.16	15.61	
2025-01-10 07:59:18.86	24.17	15.63	
2025-01-10 07:59:19.06	24.18	15.66	
2025-01-10 07:59:19.27	24.20	15.68	
2025-01-10 07:59:19.47	24.21	15.70	
2025-01-10 07:59:19.68	24.22	15.73	
2025-01-10 07:59:19.88	24.23	15.75	
2025-01-10 07:59:20.09	24.25	15.78	
2025-01-10 07:59:20.29	24.26	15.80	
2025-01-10 07:59:20.50	24.27	15.82	
2025-01-10 07:59:20.70	24.28	15.85	
2025-01-10 07:59:20.91	24.29	15.87	
2025-01-10 07:59:21.11	24.31	15.90	
2025-01-10 07:59:21.32	24.32	15.92	
2025-01-10 07:59:21.53	24.33	15.94	
2025-01-10 07:59:21.73	24.34	15.97	
2025-01-10 07:59:21.93	24.36	15.99	
2025-01-10 07:59:22.14	24.37	16.02	
2025-01-10 07:59:22.34	24.38	16.04	
2025-01-10 07:59:22.55	24.39	16.06	
2025-01-10 07:59:22.76	24.41	16.09	
2025-01-10 07:59:22.96	24.42	16.11	
2025-01-10 07:59:23.16	24.43	16.14	
2025-01-10 07:59:23.37	24.45	16.16	
2025-01-10 07:59:23.58	24.46	16.19	
2025-01-10 07:59:23.78	24.47	16.21	
2025-01-10 07:59:23.99	24.48	16.24	
2025-01-10 07:59:24.21	24.50	16.26	
2025-01-10 07:59:24.41	24.51	16.29	
2025-01-10 07:59:24.62	24.52	16.31	
2025-01-10 07:59:24.82	24.54	16.34	
2025-01-10 07:59:25.03	24.55	16.36	
2025-01-10 07:59:25.25	24.56	16.39	
2025-01-10 07:59:25.45	24.57	16.41	
2025-01-10 07:59:25.66	24.59	16.44	
2025-01-10 07:59:25.86	24.60	16.46	
2025-01-10 07:59:26.07	24.61	16.49	
2025-01-10 07:59:26.27	24.63	16.51	
2025-01-10 07:59:26.48	24.64	16.53	
2025-01-10 07:59:26.68	24.65	16.56	
2025-01-10 07:59:26.89	24.67	16.58	
2025-01-10 07:59:27.09	24.68	16.61	
2025-01-10 07:59:27.29	24.69	16.63	
2025-01-10 07:59:27.50	24.70	16.66	
2025-01-10 07:59:27.70	24.72	16.68	
2025-01-10 07:59:27.91	24.73	16.71	
2025-01-10 07:59:28.11	24.74	16.73	
2025-01-10 07:59:28.32	24.76	16.76	
2025-01-10 07:59:28.52	24.77	16.78	
2025-01-10 07:59:28.73	24.78	16.81	
2025-01-10 07:59:28.93	24.80	16.83	
2025-01-10 07:59:29.13	24.81	16.86	
2025-01-10 07:59:29.34	24.82	16.88	
2025-01-10 07:59:29.56	24.84	16.91	
2025-01-10 07:59:29.77	24.85	16.94	
2025-01-10 07:59:29.97	24.86	16.96	
2025-01-10 07:59:30.18	24.88	16.99	
2025-01-10 07:59:30.38	24.89	17.01	
2025-01-10 07:59:30.58	24.90	17.04	
2025-01-10 07:59:30.79	24.92	17.06	
2025-01-10 07:59:31.00	24.93	17.09	
2025-01-10 07:59:31.20	24.94	17.11	
2025-01-10 07:59:31.40	24.96	17.14	
2025-01-10 07:59:31.61	24.97	17.16	
2025-01-10 07:59:31.81	24.98	17.19	
2025-01-10 07:59:32.02	25.00	17.21	
2025-01-10 07:59:32.22	25.01	17.24	
2025-01-10 07:59:32.43	25.03	17.26	
2025-01-10 07:59:32.63	25.04	17.29	
2025-01-10 07:59:32.84	25.05	17.32	
2025-01-10 07:59:33.04	25.07	17.34	
2025-01-10 07:59:33.25	25.08	17.37	
2025-01-10 07:59:33.45	25.09	17.39	
2025-01-10 07:59:33.66	25.11	17.42	
2025-01-10 07:59:33.86	25.12	17.44	
2025-01-10 07:59:34.07	25.13	17.47	
2025-01-10 07:59:34.28	25.15	17.50	
2025-01-10 07:59:34.48	25.16	17.52	
2025-01-10 07:59:34.69	25.18	17.55	
2025-01-10 07:59:34.90	25.19	17.57	
2025-01-10 07:59:35.11	25.20	17.60	
2025-01-10 07:59:35.31	25.22	17.63	
2025-01-10 07:59:35.52	25.23	17.65	
2025-01-10 07:59:35.72	25.25	17.68	
2025-01-10 07:59:35.93	25.26	17.71	
2025-01-10 07:59:36.13	25.27	17.73	
2025-01-10 07:59:36.34	25.29	17.76	
2025-01-10 07:59:36.54	25.30	17.78	
2025-01-10 07:59:36.75	25.32	17.81	
2025-01-10 07:59:36.95	25.33	17.84	
2025-01-10 07:59:37.15	25.34	17.86	
2025-01-10 07:59:37.36	25.36	17.89	
2025-01-10 07:59:37.57	25.37	17.91	
2025-01-10 07:59:37.77	25.39	17.94	
2025-01-10 07:59:37.98	25.40	17.97	
2025-01-10 07:59:38.18	25.42	17.99	
2025-01-10 07:59:38.38	25.43	18.02	
2025-01-10 07:59:38.59	25.44	18.05	
2025-01-10 07:59:38.80	25.46	18.07	
2025-01-10 07:59:39.00	25.47	18.10	
2025-01-10 07:59:39.21	25.49	18.13	
2025-01-10 07:59:39.41	25.50	18.15	
2025-01-10 07:59:39.62	25.52	18.18	
2025-01-10 07:59:39.82	25.53	18.20	
2025-01-10 07:59:40.03	25.55	18.23	
2025-01-10 07:59:40.23	25.56	18.26	
2025-01-10 07:59:40.44	25.57	18.29	
2025-01-10 07:59:40.64	25.59	18.31	
2025-01-10 07:59:40.85	25.60	18.34	
2025-01-10 07:59:41.05	25.62	18.36	
2025-01-10 07:59:41.26	25.63	18.39	
2025-01-10 07:59:41.46	25.65	18.42	
2025-01-10 07:59:41.67	25.66	18.45	
2025-01-10 07:59:41.87	25.68	18.47	
2025-01-10 07:59:42.08	25.69	18.50	
2025-01-10 07:59:42.28	25.71	18.53	
2025-01-10 07:59:42.49	25.72	18.55	
2025-01-10 07:59:42.69	25.74	18.58	
2025-01-10 07:59:42.90	25.75	18.61	
2025-01-10 07:59:43.10	25.77	18.63	
2025-01-10 07:59:43.31	25.78	18.66	
2025-01-10 07:59:43.51	25.80	18.69	
2025-01-10 07:59:43.72	25.81	18.72	
2025-01-10 07:59:43.92	25.83	18.74	
2025-01-10 07:59:44.13	25.84	18.77	
2025-01-10 07:59:44.33	25.86	18.80	
2025-01-10 07:59:44.54	25.87	18.83	
2025-01-10 07:59:44.74	25.89	18.85	
2025-01-10 07:59:44.95	25.90	18.88	
2025-01-10 07:59:45.16	25.92	18.91	
2025-01-10 07:59:45.37	25.93	18.94	
2025-01-10 07:59:45.57	25.95	18.96	
2025-01-10 07:59:45.78	25.96	18.99	
2025-01-10 07:59:45.99	25.98	19.02	
2025-01-10 07:59:46.19	25.99	19.05	
2025-01-10 07:59:46.40	26.01	19.07	
2025-01-10 07:59:46.60	26.02	19.10	
2025-01-10 07:59:46.80	26.04	19.13	
2025-01-10 07:59:47.01	26.05	19.16	
2025-01-10 07:59:47.22	26.07	19.19	
2025-01-10 07:59:47.42	26.09	19.21	
2025-01-10 07:59:47.62	26.10	19.24	
2025-01-10 07:59:47.83	26.12	19.27	
2025-01-10 07:59:48.03	26.13	19.29	
2025-01-10 07:59:48.24	26.15	19.32	
2025-01-10 07:59:48.44	26.16	19.35	
2025-01-10 07:59:48.64	26.18	19.38	
2025-01-10 07:59:48.85	26.19	19.41	
2025-01-10 07:59:49.05	26.21	19.43	
2025-01-10 07:59:49.26	26.22	19.46	
2025-01-10 07:59:49.47	26.24	19.49	
2025-01-10 07:59:49.67	26.26	19.52	
2025-01-10 07:59:49.87	26.27	19.55	
2025-01-10 07:59:50.08	26.29	19.58	
2025-01-10 07:59:50.29	26.30	19.60	
2025-01-10 07:59:50.49	26.32	19.63	
2025-01-10 07:59:50.70	26.34	19.66	
2025-01-10 07:59:50.90	26.35	19.69	
2025-01-10 07:59:51.11	26.37	19.72	
2025-01-10 07:59:51.31	26.38	19.74	
2025-01-10 07:59:51.51	26.40	19.77	
2025-01-10 07:59:51.72	26.42	19.80	
2025-01-10 07:59:51.92	26.43	19.83	
2025-01-10 07:59:52.13	26.45	19.86	
2025-01-10 07:59:52.33	26.46	19.89	
2025-01-10 07:59:52.54	26.48	19.92	
2025-01-10 07:59:52.74	26.50	19.94	
2025-01-10 07:59:52.95	26.51	19.97	
2025-01-10 07:59:53.15	26.53	20.00	
2025-01-10 07:59:53.35	26.54	20.03	
2025-01-10 07:59:53.56	26.56	20.06	
2025-01-10 07:59:53.76	26.58	20.09	
2025-01-10 07:59:53.97	26.59	20.12	
2025-01-10 07:59:54.17	26.61	20.14	
2025-01-10 07:59:54.38	26.63	20.17	
2025-01-10 07:59:54.58	26.64	20.20	
2025-01-10 07:59:54.79	26.66	20.23	
2025-01-10 07:59:55.00	26.68	20.26	
2025-01-10 07:59:55.20	26.69	20.29	
2025-01-10 07:59:55.41	26.71	20.32	
2025-01-10 07:59:55.61	26.73	20.35	
2025-01-10 07:59:55.82	26.74	20.38	
2025-01-10 07:59:56.02	26.76	20.41	
2025-01-10 07:59:56.22	26.78	20.43	
2025-01-10 07:59:56.43	26.79	20.46	
2025-01-10 07:59:56.63	26.81	20.49	
2025-01-10 07:59:56.84	26.83	20.52	
2025-01-10 07:59:57.04	26.84	20.55	
2025-01-10 07:59:57.26	26.86	20.58	
2025-01-10 07:59:57.47	26.88	20.61	
2025-01-10 07:59:57.67	26.89	20.64	
2025-01-10 07:59:57.88	26.91	20.67	
2025-01-10 07:59:58.08	26.93	20.70	
2025-01-10 07:59:58.29	26.95	20.73	
2025-01-10 07:59:58.49	26.96	20.76	
2025-01-10 07:59:58.70	26.98	20.79	
2025-01-10 07:59:58.90	27.00	20.82	
2025-01-10 07:59:59.11	27.01	20.85	
2025-01-10 07:59:59.31	27.03	20.88	
2025-01-10 07:59:59.52	27.05	20.91	
2025-01-10 07:59:59.72	27.07	20.94	
2025-01-10 07:59:59.93	27.08	20.97	
2025-01-10 08:00:00.13	27.10	21.00	
2025-01-10 08:00:00.33	27.12	21.03	
2025-01-10 08:00:00.54	27.14	21.06	
2025-01-10 08:00:00.74	27.15	21.09	
2025-01-10 08:00:00.95	27.17	21.12	
2025-01-10 08:00:01.15	27.19	21.15	
2025-01-10 08:00:01.36	27.20	21.18	
2025-01-10 08:00:01.56	27.22	21.21	
2025-01-10 08:00:01.77	27.24	21.24	
2025-01-10 08:00:01.97	27.26	21.27	
2025-01-10 08:00:02.18	27.28	21.30	
2025-01-10 08:00:02.38	27.29	21.33	
2025-01-10 08:00:02.60	27.31	21.36	
2025-01-10 08:00:02.80	27.33	21.39	
2025-01-10 08:00:03.01	27.35	21.42	
2025-01-10 08:00:03.21	27.36	21.45	
2025-01-10 08:00:03.42	27.38	21.48	
2025-01-10 08:00:03.62	27.40	21.51	
2025-01-10 08:00:03.83	27.42	21.54	
2025-01-10 08:00:04.04	27.44	21.57	
2025-01-10 08:00:04.24	27.45	21.60	
2025-01-10 08:00:04.45	27.47	21.64	
2025-01-10 08:00:04.65	27.49	21.67	
2025-01-10 08:00:04.86	27.51	21.70	
2025-01-10 08:00:05.07	27.53	21.73	
2025-01-10 08:00:05.27	27.55	21.76	
2025-01-10 08:00:05.48	27.56	21.79	
2025-01-10 08:00:05.68	27.58	21.82	
2025-01-10 08:00:05.88	27.60	21.85	
2025-01-10 08:00:06.09	27.62	21.88	
2025-01-10 08:00:06.29	27.64	21.91	
2025-01-10 08:00:06.50	27.66	21.94	
2025-01-10 08:00:06.70	27.67	21.97	
2025-01-10 08:00:06.90	27.69	22.00	
2025-01-10 08:00:07.11	27.71	22.04	
2025-01-10 08:00:07.31	27.73	22.07	
2025-01-10 08:00:07.52	27.75	22.10	
2025-01-10 08:00:07.72	27.77	22.13	
2025-01-10 08:00:07.93	27.79	22.16	
2025-01-10 08:00:08.13	27.80	22.19	
2025-01-10 08:00:08.34	27.82	22.22	
2025-01-10 08:00:08.54	27.84	22.26	
2025-01-10 08:00:08.75	27.86	22.29	
2025-01-10 08:00:08.95	27.88	22.32	
2025-01-10 08:00:09.16	27.90	22.35	
2025-01-10 08:00:09.36	27.92	22.38	
2025-01-10 08:00:09.57	27.94	22.41	
2025-01-10 08:00:09.78	27.96	22.45	
2025-01-10 08:00:09.98	27.97	22.48	
2025-01-10 08:00:10.19	27.99	22.51	
2025-01-10 08:00:10.39	28.01	22.54	
2025-01-10 08:00:10.60	28.03	22.57	
2025-01-10 08:00:10.80	28.05	22.60	
2025-01-10 08:00:11.01	28.07	22.64	
2025-01-10 08:00:11.21	28.09	22.67	
2025-01-10 08:00:11.42	28.11	22.70	
2025-01-10 08:00:11.62	28.13	22.73	
2025-01-10 08:00:11.83	28.15	22.76	
2025-01-10 08:00:12.03	28.17	22.80	
2025-01-10 08:00:12.24	28.19	22.83	
2025-01-10 08:00:12.44	28.21	22.86	
2025-01-10 08:00:12.65	28.23	22.89	
2025-01-10 08:00:12.85	28.25	22.93	
2025-01-10 08:00:13.06	28.27	22.96	
2025-01-10 08:00:13.28	28.29	22.99	
2025-01-10 08:00:13.48	28.31	23.02	
2025-01-10 08:00:13.69	28.33	23.06	
2025-01-10 08:00:13.89	28.35	23.09	
2025-01-10 08:00:14.10	28.37	23.12	
2025-01-10 08:00:14.30	28.39	23.15	
2025-01-10 08:00:14.51	28.41	23.19	
2025-01-10 08:00:14.71	28.43	23.22	
2025-01-10 08:00:14.92	28.45	23.25	
2025-01-10 08:00:15.13	28.47	23.29	
2025-01-10 08:00:15.33	28.49	23.32	
2025-01-10 08:00:15.53	28.51	23.35	
2025-01-10 08:00:15.74	28.53	23.38	
2025-01-10 08:00:15.95	28.55	23.42	
2025-01-10 08:00:16.15	28.57	23.45	
2025-01-10 08:00:16.36	28.59	23.48	
2025-01-10 08:00:16.56	28.61	23.52	
2025-01-10 08:00:16.77	28.63	23.55	
2025-01-10 08:00:16.98	28.65	23.58	
2025-01-10 08:00:17.18	28.67	23.62	
2025-01-10 08:00:17.39	28.69	23.65	
2025-01-10 08:00:17.59	28.71	23.68	
2025-01-10 08:00:17.80	28.73	23.72	
2025-01-10 08:00:18.00	28.75	23.75	
2025-01-10 08:00:18.21	28.77	23.78	
2025-01-10 08:00:18.41	28.79	23.82	
2025-01-10 08:00:18.62	28.81	23.85	
2025-01-10 08:00:18.82	28.84	23.88	
2025-01-10 08:00:19.03	28.86	23.92	
2025-01-10 08:00:19.23	28.88	23.95	
2025-01-10 08:00:19.44	28.90	23.98	
2025-01-10 08:00:19.64	28.92	24.02	
2025-01-10 08:00:19.85	28.94	24.05	
2025-01-10 08:00:20.05	28.96	24.09	
2025-01-10 08:00:20.26	28.98	24.12	
2025-01-10 08:00:20.46	29.00	24.15	
2025-01-10 08:00:20.66	29.02	24.19	
2025-01-10 08:00:20.87	29.05	24.22	
2025-01-10 08:00:21.07	29.07	24.25	
2025-01-10 08:00:21.28	29.09	24.29	
2025-01-10 08:00:21.49	29.11	24.32	
2025-01-10 08:00:21.69	29.13	24.36	
2025-01-10 08:00:21.90	29.15	24.39	
2025-01-10 08:00:22.10	29.18	24.43	
2025-01-10 08:00:22.31	29.20	24.46	
2025-01-10 08:00:22.51	29.22	24.49	
2025-01-10 08:00:22.72	29.24	24.53	
2025-01-10 08:00:22.94	29.26	24.57	
2025-01-10 08:00:23.14	29.29	24.60	
2025-01-10 08:00:23.35	29.31	24.63	
2025-01-10 08:00:23.55	29.33	24.67	
2025-01-10 08:00:23.76	29.35	24.70	
2025-01-10 08:00:23.97	29.37	24.74	
2025-01-10 08:00:24.18	29.40	24.77	
2025-01-10 08:00:24.39	29.42	24.81	
2025-01-10 08:00:24.59	29.44	24.84	
2025-01-10 08:00:24.80	29.46	24.88	
2025-01-10 08:00:25.00	29.49	24.91	
2025-01-10 08:00:25.21	29.51	24.95	
2025-01-10 08:00:25.41	29.53	24.98	
2025-01-10 08:00:25.62	29.55	25.02	
2025-01-10 08:00:25.82	29.58	25.05	
2025-01-10 08:00:26.03	29.60	25.09	
2025-01-10 08:00:26.23	29.62	25.12	
2025-01-10 08:00:26.44	29.64	25.16	
2025-01-10 08:00:26.64	29.67	25.19	
2025-01-10 08:00:26.85	29.69	25.23	
2025-01-10 08:00:27.05	29.71	25.26	
2025-01-10 08:00:27.26	29.73	25.30	
2025-01-10 08:00:27.46	29.76	25.34	
2025-01-10 08:00:27.67	29.78	25.37	
2025-01-10 08:00:27.87	29.80	25.41	
2025-01-10 08:00:28.08	29.83	25.44	
2025-01-10 08:00:28.28	29.85	25.48	
2025-01-10 08:00:28.49	29.87	25.51	
2025-01-10 08:00:28.69	29.90	25.55	
2025-01-10 08:00:28.90	29.92	25.59	
2025-01-10 08:00:29.10	29.94	25.62	
2025-01-10 08:00:29.31	29.97	25.66	
2025-01-10 08:00:29.51	29.99	25.69	
2025-01-10 08:00:29.72	30.01	25.73	
2025-01-10 08:00:29.92	30.04	25.76	
2025-01-10 08:00:30.13	30.06	25.80	
2025-01-10 08:00:30.33	30.08	25.84	
2025-01-10 08:00:30.54	30.11	25.87	
2025-01-10 08:00:30.74	30.13	25.91	
2025-01-10 08:00:30.95	30.15	25.95	
2025-01-10 08:00:31.15	30.18	25.98	
2025-01-10 08:00:31.36	30.20	26.02	
2025-01-10 08:00:31.56	30.23	26.05	
2025-01-10 08:00:31.77	30.25	26.09	
2025-01-10 08:00:31.98	30.27	26.13	
2025-01-10 08:00:32.18	30.30	26.16	
2025-01-10 08:00:32.39	30.32	26.20	
2025-01-10 08:00:32.59	30.35	26.24	
2025-01-10 08:00:32.80	30.37	26.27	
2025-01-10 08:00:33.00	30.40	26.31	
2025-01-10 08:00:33.21	30.42	26.35	
2025-01-10 08:00:33.41	30.44	26.38	
2025-01-10 08:00:33.62	30.47	26.42	
2025-01-10 08:00:33.82	30.49	26.46	
2025-01-10 08:00:34.03	30.52	26.49	
2025-01-10 08:00:34.23	30.54	26.53	
2025-01-10 08:00:34.44	30.57	26.57	
2025-01-10 08:00:34.66	30.59	26.61	
2025-01-10 08:00:34.86	30.62	26.64	
2025-01-10 08:00:35.07	30.64	26.68	
2025-01-10 08:00:35.27	30.67	26.72	
2025-01-10 08:00:35.48	30.69	26.76	
2025-01-10 08:00:35.70	30.72	26.80	
2025-01-10 08:00:35.90	30.75	26.83	
2025-01-10 08:00:36.11	30.77	26.87	
2025-01-10 08:00:36.31	30.80	26.91	
2025-01-10 08:00:36.52	30.82	26.95	
2025-01-10 08:00:36.72	30.85	26.98	
2025-01-10 08:00:36.93	30.87	27.02	
2025-01-10 08:00:37.13	30.90	27.06	
2025-01-10 08:00:37.34	30.92	27.10	
2025-01-10 08:00:37.54	30.95	27.14	
2025-01-10 08:00:37.75	30.97	27.17	
2025-01-10 08:00:37.95	31.00	27.21	
2025-01-10 08:00:38.16	31.03	27.25	
2025-01-10 08:00:38.36	31.05	27.29	
2025-01-10 08:00:38.57	31.08	27.33	
2025-01-10 08:00:38.77	31.10	27.36	
2025-01-10 08:00:38.97	31.13	27.40	
2025-01-10 08:00:39.18	31.16	27.44	
2025-01-10 08:00:39.39	31.18	27.48	
2025-01-10 08:00:39.59	31.21	27.52	
2025-01-10 08:00:39.80	31.24	27.56	
2025-01-10 08:00:40.00	31.26	27.59	
2025-01-10 08:00:40.21	31.29	27.63	
2025-01-10 08:00:40.41	31.31	27.67	
2025-01-10 08:00:40.62	31.34	27.71	
2025-01-10 08:00:40.82	31.37	27.75	
2025-01-10 08:00:41.03	31.39	27.79	
2025-01-10 08:00:41.23	31.42	27.82	
2025-01-10 08:00:41.44	31.45	27.86	
2025-01-10 08:00:41.64	31.47	27.90	
2025-01-10 08:00:41.85	31.50	27.94	
2025-01-10 08:00:42.05	31.53	27.98	
2025-01-10 08:00:42.25	31.55	28.02	
2025-01-10 08:00:42.46	31.58	28.06	
2025-01-10 08:00:42.67	31.61	28.10	
2025-01-10 08:00:42.87	31.64	28.14	
2025-01-10 08:00:43.08	31.66	28.18	
2025-01-10 08:00:43.28	31.69	28.21	
2025-01-10 08:00:43.49	31.72	28.25	
2025-01-10 08:00:43.69	31.75	28.29	
2025-01-10 08:00:43.90	31.77	28.33	
2025-01-10 08:00:44.10	31.80	28.37	
2025-01-10 08:00:44.31	31.83	28.41	
2025-01-10 08:00:44.51	31.86	28.45	
2025-01-10 08:00:44.72	31.89	28.49	
2025-01-10 08:00:44.92	31.91	28.53	
2025-01-10 08:00:45.13	31.94	28.57	
2025-01-10 08:00:45.33	31.97	28.61	
2025-01-10 08:00:45.54	32.00	28.65	
2025-01-10 08:00:45.74	32.03	28.69	
2025-01-10 08:00:45.95	32.05	28.73	
2025-01-10 08:00:46.15	32.08	28.77	
2025-01-10 08:00:46.36	32.11	28.81	
2025-01-10 08:00:46.56	32.14	28.85	
2025-01-10 08:00:46.77	32.17	28.89	
2025-01-10 08:00:46.97	32.20	28.93	
2025-01-10 08:00:47.18	32.23	28.97	
2025-01-10 08:00:47.38	32.25	29.01	
2025-01-10 08:00:47.59	32.28	29.05	
2025-01-10 08:00:47.79	32.31	29.09	
2025-01-10 08:00:48.00	32.34	29.13	
2025-01-10 08:00:48.21	32.37	29.17	
2025-01-10 08:00:48.41	32.40	29.21	
2025-01-10 08:00:48.61	32.43	29.25	
2025-01-10 08:00:48.82	32.46	29.30	
2025-01-10 08:00:49.02	32.49	29.34	
2025-01-10 08:00:49.23	32.52	29.38	
2025-01-10 08:00:49.43	32.55	29.42	
2025-01-10 08:00:49.64	32.58	29.46	
2025-01-10 08:00:49.84	32.61	29.50	
2025-01-10 08:00:50.05	32.64	29.54	
2025-01-10 08:00:50.25	32.67	29.58	
2025-01-10 08:00:50.46	32.70	29.62	
2025-01-10 08:00:50.66	32.73	29.66	
2025-01-10 08:00:50.87	32.76	29.71	
2025-01-10 08:00:51.07	32.79	29.75	
2025-01-10 08:00:51.28	32.82	29.79	
2025-01-10 08:00:51.48	32.85	29.83	
2025-01-10 08:00:51.70	32.88	29.87	
2025-01-10 08:00:51.90	32.91	29.91	
2025-01-10 08:00:52.11	32.94	29.96	
2025-01-10 08:00:52.31	32.97	30.00	
2025-01-10 08:00:52.52	33.00	30.04	
2025-01-10 08:00:52.72	33.03	30.08	
2025-01-10 08:00:52.93	33.06	30.12	
2025-01-10 08:00:53.13	33.09	30.17	
2025-01-10 08:00:53.34	33.12	30.21	
2025-01-10 08:00:53.55	33.16	30.25	
2025-01-10 08:00:53.75	33.19	30.29	
2025-01-10 08:00:53.95	33.22	30.33	
2025-01-10 08:00:54.16	33.25	30.38	
2025-01-10 08:00:54.37	33.28	30.42	
2025-01-10 08:00:54.57	33.31	30.46	
2025-01-10 08:00:54.77	33.34	30.50	
2025-01-10 08:00:54.98	33.38	30.55	
2025-01-10 08:00:55.18	33.41	30.59	
2025-01-10 08:00:55.39	33.44	30.63	
2025-01-10 08:00:55.59	33.47	30.67	
2025-01-10 08:00:55.80	33.50	30.72	
2025-01-10 08:00:56.00	33.54	30.76	
2025-01-10 08:00:56.21	33.57	30.80	
2025-01-10 08:00:56.42	33.60	30.85	
2025-01-10 08:00:56.62	33.63	30.89	
2025-01-10 08:00:56.82	33.66	30.93	
2025-01-10 08:00:57.03	33.70	30.97	
2025-01-10 08:00:57.23	33.73	31.02	
2025-01-10 08:00:57.44	33.76	31.06	
2025-01-10 08:00:57.64	33.80	31.10	
2025-01-10 08:00:57.85	33.83	31.15	
2025-01-10 08:00:58.05	33.86	31.19	
2025-01-10 08:00:58.26	33.90	31.23	
2025-01-10 08:00:58.46	33.93	31.28	
2025-01-10 08:00:58.67	33.96	31.32	
2025-01-10 08:00:58.87	33.99	31.36	
2025-01-10 08:00:59.07	34.03	31.40	
2025-01-10 08:00:59.28	34.06	31.45	
2025-01-10 08:00:59.49	34.10	31.49	
2025-01-10 08:00:59.69	34.13	31.54	
2025-01-10 08:00:59.90	34.16	31.58	
2025-01-10 08:01:00.10	34.20	31.62	
2025-01-10 08:01:00.30	34.23	31.67	
2025-01-10 08:01:00.51	34.26	31.71	
2025-01-10 08:01:00.72	34.30	31.76	
2025-01-10 08:01:00.92	34.33	31.80	
2025-01-10 08:01:01.13	34.37	31.85	
2025-01-10 08:01:01.33	34.40	31.89	
2025-01-10 08:01:01.54	34.44	31.94	
2025-01-10 08:01:01.74	34.47	31.98	
2025-01-10 08:01:01.95	34.51	32.02	
2025-01-10 08:01:02.15	34.54	32.07	
2025-01-10 08:01:02.37	34.58	32.12	
2025-01-10 08:01:02.58	34.61	32.16	
2025-01-10 08:01:02.78	34.65	32.20	
2025-01-10 08:01:02.99	34.68	32.25	
2025-01-10 08:01:03.20	34.72	32.30	
2025-01-10 08:01:03.40	34.75	32.34	
2025-01-10 08:01:03.60	34.79	32.38	
2025-01-10 08:01:03.81	34.83	32.43	
2025-01-10 08:01:04.01	34.86	32.47	
2025-01-10 08:01:04.22	34.90	32.52	
2025-01-10 08:01:04.42	34.93	32.56	
2025-01-10 08:01:04.63	34.97	32.61	
2025-01-10 08:01:04.83	35.00	32.65	
2025-01-10 08:01:05.03	35.04	32.70	
2025-01-10 08:01:05.24	35.08	32.75	
2025-01-10 08:01:05.44	35.11	32.79	
2025-01-10 08:01:05.65	35.15	32.84	
2025-01-10 08:01:05.85	35.19	32.88	
2025-01-10 08:01:06.06	35.22	32.93	
2025-01-10 08:01:06.26	35.26	32.97	
2025-01-10 08:01:06.47	35.30	33.02	
2025-01-10 08:01:06.68	35.33	33.07	
2025-01-10 08:01:06.89	35.37	33.11	
2025-01-10 08:01:07.09	35.41	33.16	
2025-01-10 08:01:07.30	35.45	33.21	
2025-01-10 08:01:07.50	35.48	33.25	
2025-01-10 08:01:07.71	35.52	33.30	
2025-01-10 08:01:07.91	35.56	33.34	
2025-01-10 08:01:08.12	35.60	33.39	
2025-01-10 08:01:08.32	35.63	33.44	
2025-01-10 08:01:08.53	35.67	33.48	
2025-01-10 08:01:08.73	35.71	33.53	
2025-01-10 08:01:08.94	35.75	33.58	
2025-01-10 08:01:09.14	35.79	33.62	
2025-01-10 08:01:09.35	35.83	33.67	
2025-01-10 08:01:09.56	35.87	33.72	
2025-01-10 08:01:09.76	35.90	33.76	
2025-01-10 08:01:09.96	35.94	33.81	
2025-01-10 08:01:10.17	35.98	33.86	
2025-01-10 08:01:10.38	36.02	33.90	
2025-01-10 08:01:10.58	36.06	33.95	
2025-01-10 08:01:10.79	36.10	34.00	
2025-01-10 08:01:10.99	36.14	34.05	
2025-01-10 08:01:11.20	36.18	34.09	
2025-01-10 08:01:11.40	36.22	34.14	
2025-01-10 08:01:11.61	36.26	34.19	
2025-01-10 08:01:11.81	36.30	34.23	
2025-01-10 08:01:12.02	36.34	34.28	
2025-01-10 08:01:12.22	36.38	34.33	
2025-01-10 08:01:12.43	36.42	34.38	
2025-01-10 08:01:12.63	36.46	34.42	
2025-01-10 08:01:12.84	36.50	34.47	
2025-01-10 08:01:13.04	36.54	34.52	
2025-01-10 08:01:13.24	36.58	34.57	
2025-01-10 08:01:13.45	36.62	34.62	
2025-01-10 08:01:13.66	36.66	34.67	
2025-01-10 08:01:13.86	36.70	34.71	
2025-01-10 08:01:14.08	36.75	34.76	
2025-01-10 08:01:14.28	36.79	34.81	
2025-01-10 08:01:14.49	36.83	34.86	
2025-01-10 08:01:14.70	36.87	34.91	
2025-01-10 08:01:14.90	36.91	34.96	
2025-01-10 08:01:15.10	36.95	35.00	
2025-01-10 08:01:15.31	37.00	35.05	
2025-01-10 08:01:15.52	37.04	35.10	
2025-01-10 08:01:15.72	37.08	35.15	
2025-01-10 08:01:15.93	37.12	35.20	
2025-01-10 08:01:16.13	37.16	35.25	
2025-01-10 08:01:16.33	37.21	35.30	
2025-01-10 08:01:16.54	37.25	35.35	
2025-01-10 08:01:16.75	37.29	35.40	
2025-01-10 08:01:16.95	37.33	35.44	
2025-01-10 08:01:17.16	37.38	35.49	
2025-01-10 08:01:17.36	37.42	35.54	
2025-01-10 08:01:17.57	37.47	35.59	
2025-01-10 08:01:17.77	37.51	35.64	
2025-01-10 08:01:17.98	37.55	35.69	
2025-01-10 08:01:18.18	37.59	35.74	
2025-01-10 08:01:18.39	37.64	35.79	
2025-01-10 08:01:18.59	37.68	35.84	
2025-01-10 08:01:18.80	37.73	35.89	
2025-01-10 08:01:19.01	37.77	35.94	
2025-01-10 08:01:19.21	37.82	35.99	
2025-01-10 08:01:19.43	37.86	36.04	
2025-01-10 08:01:19.63	37.91	36.09	
2025-01-10 08:01:19.84	37.95	36.14	
2025-01-10 08:01:20.04	38.00	36.19	
2025-01-10 08:01:20.25	38.04	36.24	
2025-01-10 08:01:20.45	38.09	36.29	
2025-01-10 08:01:20.66	38.13	36.34	
2025-01-10 08:01:20.86	38.18	36.39	
2025-01-10 08:01:21.07	38.22	36.44	
2025-01-10 08:01:21.27	38.27	36.49	
2025-01-10 08:01:21.48	38.32	36.54	
2025-01-10 08:01:21.68	38.36	36.59	
2025-01-10 08:01:21.89	38.41	36.64	
2025-01-10 08:01:22.09	38.45	36.69	
2025-01-10 08:01:22.30	38.50	36.75	
2025-01-10 08:01:22.50	38.55	36.79	
2025-01-10 08:01:22.71	38.59	36.85	
2025-01-10 08:01:22.91	38.64	36.90	
2025-01-10 08:01:23.12	38.69	36.95	
2025-01-10 08:01:23.33	38.74	37.00	
2025-01-10 08:01:23.53	38.78	37.05	
2025-01-10 08:01:23.74	38.83	37.10	
2025-01-10 08:01:23.94	38.88	37.15	
2025-01-10 08:01:24.15	38.93	37.21	
2025-01-10 08:01:24.35	38.97	37.26	
2025-01-10 08:01:24.56	39.02	37.31	
2025-01-10 08:01:24.76	39.07	37.36	
2025-01-10 08:01:24.97	39.12	37.41	
2025-01-10 08:01:25.17	39.17	37.46	
2025-01-10 08:01:25.38	39.22	37.51	
2025-01-10 08:01:25.58	39.26	37.56	
2025-01-10 08:01:25.79	39.32	37.62	
2025-01-10 08:01:25.99	39.36	37.67	
2025-01-10 08:01:26.20	39.41	37.72	
2025-01-10 08:01:26.41	39.46	37.77	
2025-01-10 08:01:26.61	39.51	37.83	
2025-01-10 08:01:26.82	39.56	37.88	
2025-01-10 08:01:27.02	39.61	37.93	
2025-01-10 08:01:27.22	39.66	37.98	
2025-01-10 08:01:27.43	39.71	38.03	
2025-01-10 08:01:27.63	39.76	38.08	
2025-01-10 08:01:27.84	39.81	38.14	
2025-01-10 08:01:28.04	39.86	38.19	
2025-01-10 08:01:28.25	39.92	38.24	
2025-01-10 08:01:28.45	39.97	38.29	
2025-01-10 08:01:28.66	40.02	38.35	
2025-01-10 08:01:28.87	40.07	38.40	
2025-01-10 08:01:29.08	40.12	38.46	
2025-01-10 08:01:29.29	40.18	38.51	
2025-01-10 08:01:29.50	40.23	38.56	
2025-01-10 08:01:29.70	40.28	38.62	
2025-01-10 08:01:29.91	40.33	38.67	
2025-01-10 08:01:30.11	40.39	38.72	
2025-01-10 08:01:30.32	40.44	38.78	
2025-01-10 08:01:30.52	40.49	38.83	
2025-01-10 08:01:30.73	40.55	38.88	
2025-01-10 08:01:30.93	40.60	38.94	
2025-01-10 08:01:31.15	40.65	38.99	
2025-01-10 08:01:31.35	40.71	39.04	
2025-01-10 08:01:31.56	40.76	39.10	
2025-01-10 08:01:31.76	40.81	39.15	
2025-01-10 08:01:31.97	40.87	39.21	
2025-01-10 08:01:32.17	40.92	39.26	
2025-01-10 08:01:32.38	40.98	39.31	
2025-01-10 08:01:32.58	41.03	39.37	
2025-01-10 08:01:32.79	41.09	39.42	
2025-01-10 08:01:32.99	41.14	39.47	
2025-01-10 08:01:33.20	41.20	39.53	
2025-01-10 08:01:33.40	41.25	39.58	
2025-01-10 08:01:33.61	41.31	39.64	
2025-01-10 08:01:33.81	41.36	39.69	
2025-01-10 08:01:34.02	41.42	39.75	
2025-01-10 08:01:34.22	41.47	39.80	
2025-01-10 08:01:34.43	41.53	39.85	
2025-01-10 08:01:34.63	41.59	39.91	
2025-01-10 08:01:34.84	41.65	39.96	
2025-01-10 08:01:35.04	41.70	40.02	
2025-01-10 08:01:35.25	41.76	40.07	
2025-01-10 08:01:35.47	41.82	40.13	
2025-01-10 08:01:35.67	41.88	40.18	
2025-01-10 08:01:35.87	41.93	40.24	
2025-01-10 08:01:36.08	41.99	40.29	
2025-01-10 08:01:36.29	42.05	40.35	
2025-01-10 08:01:36.50	42.11	40.41	
2025-01-10 08:01:36.71	42.17	40.46	
2025-01-10 08:01:36.91	42.23	40.52	
2025-01-10 08:01:37.12	42.29	40.57	
2025-01-10 08:01:37.32	42.35	40.63	
2025-01-10 08:01:37.53	42.41	40.68	
2025-01-10 08:01:37.73	42.46	40.74	
2025-01-10 08:01:37.94	42.53	40.79	
2025-01-10 08:01:38.15	42.59	40.85	
2025-01-10 08:01:38.35	42.65	40.90	
2025-01-10 08:01:38.55	42.70	40.96	
2025-01-10 08:01:38.76	42.77	41.02	
2025-01-10 08:01:38.96	42.83	41.07	
2025-01-10 08:01:39.17	42.89	41.13	
2025-01-10 08:01:39.37	42.95	41.18	
2025-01-10 08:01:39.58	43.01	41.24	
2025-01-10 08:01:39.78	43.07	41.29	
2025-01-10 08:01:39.99	43.13	41.35	
2025-01-10 08:01:40.19	43.19	41.40	
2025-01-10 08:01:40.40	43.26	41.46	
2025-01-10 08:01:40.61	43.32	41.52	
2025-01-10 08:01:40.81	43.38	41.57	
2025-01-10 08:01:41.02	43.45	41.63	
2025-01-10 08:01:41.22	43.51	41.69	
2025-01-10 08:01:41.43	43.57	41.74	
2025-01-10 08:01:41.64	43.64	41.80	
2025-01-10 08:01:41.85	43.70	41.86	
2025-01-10 08:01:42.06	43.77	41.92	
2025-01-10 08:01:42.27	43.83	41.98	
2025-01-10 08:01:42.47	43.90	42.03	
2025-01-10 08:01:42.68	43.96	42.09	
2025-01-10 08:01:42.88	44.03	42.14	
2025-01-10 08:01:43.09	44.09	42.20	
2025-01-10 08:01:43.29	44.16	42.26	
2025-01-10 08:01:43.50	44.22	42.32	
2025-01-10 08:01:43.70	44.29	42.37	
2025-01-10 08:01:43.90	44.35	42.43	
2025-01-10 08:01:44.11	44.42	42.48	
2025-01-10 08:01:44.32	44.49	42.54	
2025-01-10 08:01:44.52	44.55	42.60	
2025-01-10 08:01:44.73	44.62	42.66	
2025-01-10 08:01:44.93	44.69	42.71	
2025-01-10 08:01:45.14	44.76	42.77	
2025-01-10 08:01:45.34	44.82	42.83	
2025-01-10 08:01:45.55	44.89	42.89	
2025-01-10 08:01:45.75	44.96	42.94	
2025-01-10 08:01:45.96	45.03	43.00	
2025-01-10 08:01:46.16	45.10	43.06	
2025-01-10 08:01:46.37	45.17	43.12	
2025-01-10 08:01:46.57	45.23	43.17	
2025-01-10 08:01:46.77	45.30	43.23	
2025-01-10 08:01:46.98	45.37	43.29	
2025-01-10 08:01:47.18	45.44	43.34	
2025-01-10 08:01:47.39	45.51	43.40	
2025-01-10 08:01:47.59	45.58	43.46	
2025-01-10 08:01:47.80	45.65	43.52	
2025-01-10 08:01:48.00	45.72	43.57	
2025-01-10 08:01:48.21	45.80	43.63	
2025-01-10 08:01:48.41	45.87	43.69	
2025-01-10 08:01:48.62	45.94	43.75	
2025-01-10 08:01:48.83	46.01	43.81	
2025-01-10 08:01:49.03	46.08	43.87	
2025-01-10 08:01:49.23	46.16	43.92	
2025-01-10 08:01:49.44	46.23	43.98	
2025-01-10 08:01:49.64	46.30	44.04	
2025-01-10 08:01:49.85	46.38	44.10	
2025-01-10 08:01:50.05	46.45	44.16	
2025-01-10 08:01:50.26	46.52	44.22	
2025-01-10 08:01:50.46	46.60	44.27	
2025-01-10 08:01:50.67	46.67	44.33	
2025-01-10 08:01:50.87	46.74	44.39	
2025-01-10 08:01:51.08	46.82	44.45	
2025-01-10 08:01:51.28	46.89	44.51	
2025-01-10 08:01:51.49	46.97	44.57	
2025-01-10 08:01:51.69	47.05	44.62	
2025-01-10 08:01:51.90	47.12	44.68	
2025-01-10 08:01:52.10	47.20	44.74	
2025-01-10 08:01:52.31	47.28	44.80	
2025-01-10 08:01:52.51	47.35	44.86	
2025-01-10 08:01:52.72	47.43	44.92	
2025-01-10 08:01:52.92	47.51	44.98	
2025-01-10 08:01:53.13	47.59	45.04	
2025-01-10 08:01:53.33	47.66	45.09	
2025-01-10 08:01:53.54	47.74	45.15	
2025-01-10 08:01:53.74	47.82	45.21	
2025-01-10 08:01:53.95	47.90	45.27	
2025-01-10 08:01:54.15	47.98	45.33	
2025-01-10 08:01:54.36	48.06	45.39	
2025-01-10 08:01:54.58	48.14	45.45	
2025-01-10 08:01:54.78	48.22	45.51	
2025-01-10 08:01:54.99	48.30	45.57	
2025-01-10 08:01:55.19	48.38	45.63	
2025-01-10 08:01:55.40	48.47	45.69	
2025-01-10 08:01:55.60	48.55	45.75	
2025-01-10 08:01:55.80	48.63	45.81	
2025-01-10 08:01:56.01	48.71	45.87	
2025-01-10 08:01:56.22	48.79	45.93	
2025-01-10 08:01:56.42	48.87	45.99	
2025-01-10 08:01:56.63	48.96	46.05	
2025-01-10 08:01:56.84	49.04	46.11	
2025-01-10 08:01:57.05	49.13	46.17	
2025-01-10 08:01:57.25	49.21	46.23	
2025-01-10 08:01:57.46	49.30	46.29	
2025-01-10 08:01:57.66	49.38	46.35	
2025-01-10 08:01:57.88	49.47	46.41	
2025-01-10 08:01:58.09	49.56	46.47	
2025-01-10 08:01:58.29	49.64	46.53	
2025-01-10 08:01:58.50	49.73	46.59	
2025-01-10 08:01:58.70	49.81	46.65	
2025-01-10 08:01:58.91	49.90	46.71	
2025-01-10 08:01:59.11	49.99	46.77	
2025-01-10 08:01:59.32	50.08	46.83	
2025-01-10 08:01:59.52	50.16	46.89	
2025-01-10 08:01:59.73	50.25	46.95	
2025-01-10 08:01:59.93	50.34	47.01	
2025-01-10 08:02:00.14	50.43	47.07	
2025-01-10 08:02:00.34	50.51	47.13	
2025-01-10 08:02:00.55	50.61	47.19	
2025-01-10 08:02:00.76	50.70	47.25	
2025-01-10 08:02:00.96	50.79	47.31	
2025-01-10 08:02:01.16	50.87	47.37	
2025-01-10 08:02:01.37	50.97	47.43	
2025-01-10 08:02:01.58	51.06	47.49	
2025-01-10 08:02:01.78	51.15	47.55	
2025-01-10 08:02:01.99	51.24	47.61	
2025-01-10 08:02:02.19	51.33	47.67	
2025-01-10 08:02:02.40	51.43	47.73	
2025-01-10 08:02:02.60	51.52	47.79	
2025-01-10 08:02:02.81	51.61	47.85	
2025-01-10 08:02:03.02	51.71	47.91	
2025-01-10 08:02:03.22	51.80	47.97	
2025-01-10 08:02:03.43	51.90	48.03	
2025-01-10 08:02:03.63	51.99	48.09	
2025-01-10 08:02:03.84	52.09	48.15	
2025-01-10 08:02:04.05	52.18	48.21	
2025-01-10 08:02:04.25	52.28	48.27	
2025-01-10 08:02:04.46	52.37	48.33	
2025-01-10 08:02:04.66	52.47	48.39	
2025-01-10 08:02:04.87	52.57	48.45	
2025-01-10 08:02:05.07	52.66	48.51	
2025-01-10 08:02:05.27	52.76	48.57	
2025-01-10 08:02:05.48	52.86	48.63	
2025-01-10 08:02:05.68	52.95	48.69	
2025-01-10 08:02:05.89	53.05	48.75	
2025-01-10 08:02:06.10	53.16	48.81	
2025-01-10 08:02:06.30	53.25	48.87	
2025-01-10 08:02:06.51	53.36	48.93	
2025-01-10 08:02:06.71	53.45	48.99	
2025-01-10 08:02:06.92	53.56	49.05	
2025-01-10 08:02:07.12	53.65	49.11	
2025-01-10 08:02:07.33	53.76	49.17	
2025-01-10 08:02:07.53	53.86	49.23	
2025-01-10 08:02:07.74	53.96	49.29	
2025-01-10 08:02:07.94	54.06	49.35	
2025-01-10 08:02:08.15	54.17	49.41	
2025-01-10 08:02:08.36	54.27	49.47	
2025-01-10 08:02:08.56	54.38	49.53	
2025-01-10 08:02:08.77	54.48	49.59	
2025-01-10 08:02:08.97	54.58	49.65	
2025-01-10 08:02:09.18	54.69	49.71	
2025-01-10 08:02:09.38	54.79	49.77	
2025-01-10 08:02:09.60	54.91	49.84	
2025-01-10 08:02:09.81	55.02	49.90	
2025-01-10 08:02:10.01	55.12	49.96	
2025-01-10 08:02:10.22	55.23	50.02	
2025-01-10 08:02:10.42	55.34	50.07	
2025-01-10 08:02:10.63	55.45	50.14	
2025-01-10 08:02:10.83	55.55	50.19	
2025-01-10 08:02:11.04	55.66	50.26	
2025-01-10 08:02:11.24	55.77	50.31	
2025-01-10 08:02:11.45	55.88	50.37	
2025-01-10 08:02:11.65	55.99	50.43	
2025-01-10 08:02:11.86	56.10	50.49	
2025-01-10 08:02:12.06	56.21	50.55	
2025-01-10 08:02:12.27	56.33	50.61	
2025-01-10 08:02:12.48	56.44	50.67	
2025-01-10 08:02:12.69	56.56	50.74	
2025-01-10 08:02:12.90	56.67	50.80	
2025-01-10 08:02:13.10	56.78	50.85	
2025-01-10 08:02:13.31	56.90	50.91	
2025-01-10 08:02:13.51	57.01	50.97	
2025-01-10 08:02:13.72	57.13	51.03	
2025-01-10 08:02:13.92	57.24	51.09	
2025-01-10 08:02:14.12	57.35	51.15	
2025-01-10 08:02:14.33	57.47	51.21	
2025-01-10 08:02:14.53	57.59	51.27	
2025-01-10 08:02:14.74	57.71	51.33	
2025-01-10 08:02:14.94	57.82	51.39	
2025-01-10 08:02:15.15	57.94	51.45	
2025-01-10 08:02:15.35	58.06	51.50	
2025-01-10 08:02:15.56	58.18	51.56	
2025-01-10 08:02:15.76	58.29	51.62	
2025-01-10 08:02:15.97	58.42	51.68	
2025-01-10 08:02:16.17	58.53	51.74	
2025-01-10 08:02:16.38	58.66	51.80	
2025-01-10 08:02:16.58	58.78	51.86	
2025-01-10 08:02:16.79	58.90	51.92	
2025-01-10 08:02:16.99	59.02	51.97	
2025-01-10 08:02:17.20	59.15	52.03	
2025-01-10 08:02:17.40	59.27	52.09	
2025-01-10 08:02:17.61	59.39	52.15	
2025-01-10 08:02:17.81	59.51	52.21	
2025-01-10 08:02:18.02	59.64	52.27	
2025-01-10 08:02:18.22	59.76	52.32	
2025-01-10 08:02:18.43	59.89	52.38	
2025-01-10 08:02:18.63	60.01	52.44	
2025-01-10 08:02:18.84	60.14	52.50	
2025-01-10 08:02:19.04	60.27	52.55	
2025-01-10 08:02:19.25	60.40	52.61	
2025-01-10 08:02:19.45	60.52	52.67	
2025-01-10 08:02:19.66	60.66	52.73	
2025-01-10 08:02:19.86	60.78	52.79	
2025-01-10 08:02:20.07	60.91	52.84	
2025-01-10 08:02:20.27	61.04	52.90	
2025-01-10 08:02:20.48	61.18	52.96	
2025-01-10 08:02:20.68	61.30	53.02	
2025-01-10 08:02:20.89	61.44	53.07	
2025-01-10 08:02:21.09	61.57	53.13	
2025-01-10 08:02:21.30	61.70	53.19	
2025-01-10 08:02:21.50	61.83	53.24	
2025-01-10 08:02:21.71	61.97	53.30	
2025-01-10 08:02:21.91	62.10	53.36	
2025-01-10 08:02:22.12	62.24	53.42	
2025-01-10 08:02:22.32	62.37	53.47	
2025-01-10 08:02:22.53	62.51	53.53	
2025-01-10 08:02:22.73	62.64	53.58	
2025-01-10 08:02:22.94	62.78	53.64	
2025-01-10 08:02:23.14	62.92	53.70	
2025-01-10 08:02:23.35	63.06	53.75	
2025-01-10 08:02:23.55	63.19	53.81	
2025-01-10 08:02:23.76	63.34	53.87	
2025-01-10 08:02:23.96	63.47	53.92	
2025-01-10 08:02:24.17	63.62	53.98	
2025-01-10 08:02:24.37	63.75	54.03	
2025-01-10 08:02:24.58	63.90	54.09	
2025-01-10 08:02:24.78	64.04	54.14	
2025-01-10 08:02:24.99	64.18	54.20	
2025-01-10 08:02:25.19	64.32	54.25	
2025-01-10 08:02:25.40	64.47	54.31	
2025-01-10 08:02:25.60	64.61	54.36	
2025-01-10 08:02:25.81	64.76	54.42	
2025-01-10 08:02:26.02	64.91	54.47	
2025-01-10 08:02:26.24	65.06	54.53	
2025-01-10 08:02:26.44	65.20	54.59	
2025-01-10 08:02:26.64	65.35	54.64	
2025-01-10 08:02:26.85	65.50	54.70	
2025-01-10 08:02:27.05	65.64	54.75	
2025-01-10 08:02:27.26	65.80	54.80	
2025-01-10 08:02:27.46	65.94	54.86	
2025-01-10 08:02:27.68	66.10	54.91	
2025-01-10 08:02:27.88	66.25	54.97	
2025-01-10 08:02:28.09	66.40	55.02	
2025-01-10 08:02:28.29	66.55	55.07	
2025-01-10 08:02:28.50	66.71	55.13	
2025-01-10 08:02:28.72	66.87	55.18	
2025-01-10 08:02:28.92	67.02	55.23	
2025-01-10 08:02:29.13	67.18	55.29	
2025-01-10 08:02:29.33	67.33	55.34	
2025-01-10 08:02:29.54	67.49	55.39	
2025-01-10 08:02:29.74	67.64	55.44	
2025-01-10 08:02:29.95	67.80	55.50	
2025-01-10 08:02:30.16	67.96	55.55	
2025-01-10 08:02:30.36	68.11	55.60	
2025-01-10 08:02:30.57	68.27	55.65	
2025-01-10 08:02:30.77	68.43	55.71	
2025-01-10 08:02:30.98	68.59	55.76	
2025-01-10 08:02:31.18	68.74	55.81	
2025-01-10 08:02:31.39	68.91	55.86	
2025-01-10 08:02:31.59	69.07	55.91	
2025-01-10 08:02:31.80	69.23	55.96	
2025-01-10 08:02:32.00	69.39	56.01	
2025-01-10 08:02:32.21	69.55	56.06	
2025-01-10 08:02:32.41	69.71	56.11	
2025-01-10 08:02:32.62	69.88	56.16	
2025-01-10 08:02:32.82	70.04	56.21	
2025-01-10 08:02:33.02	70.20	56.26	
2025-01-10 08:02:33.23	70.37	56.31	
2025-01-10 08:02:33.44	70.54	56.36	
2025-01-10 08:02:33.64	70.70	56.41	
2025-01-10 08:02:33.85	70.88	56.46	
2025-01-10 08:02:34.05	71.04	56.51	
2025-01-10 08:02:34.26	71.21	56.56	
2025-01-10 08:02:34.46	71.38	56.60	
2025-01-10 08:02:34.67	71.55	56.65	
2025-01-10 08:02:34.87	71.72	56.70	
2025-01-10 08:02:35.09	71.90	56.75	
2025-01-10 08:02:35.29	72.07	56.80	
2025-01-10 08:02:35.50	72.24	56.84	
2025-01-10 08:02:35.70	72.41	56.89	
2025-01-10 08:02:35.91	72.59	56.94	
2025-01-10 08:02:36.11	72.76	56.98	
2025-01-10 08:02:36.32	72.94	57.03	
2025-01-10 08:02:36.52	73.11	57.08	
2025-01-10 08:02:36.73	73.29	57.12	
2025-01-10 08:02:36.93	73.46	57.17	
2025-01-10 08:02:37.14	73.64	57.22	
2025-01-10 08:02:37.34	73.81	57.26	
2025-01-10 08:02:37.55	73.99	57.31	
2025-01-10 08:02:37.76	74.18	57.35	
2025-01-10 08:02:37.96	74.35	57.40	
2025-01-10 08:02:38.17	74.54	57.44	
2025-01-10 08:02:38.37	74.71	57.49	
2025-01-10 08:02:38.58	74.90	57.53	
2025-01-10 08:02:38.78	75.07	57.57	
2025-01-10 08:02:38.99	75.26	57.62	
2025-01-10 08:02:39.20	75.45	57.66	
2025-01-10 08:02:39.40	75.63	57.70	
2025-01-10 08:02:39.60	75.81	57.75	
2025-01-10 08:02:39.81	75.99	57.79	
2025-01-10 08:02:40.02	76.18	57.83	
2025-01-10 08:02:40.22	76.37	57.87	
2025-01-10 08:02:40.42	76.55	57.92	
2025-01-10 08:02:40.63	76.74	57.96	
2025-01-10 08:02:40.84	76.93	58.00	
2025-01-10 08:02:41.04	77.11	58.04	
2025-01-10 08:02:41.25	77.31	58.08	
2025-01-10 08:02:41.45	77.49	58.12	
2025-01-10 08:02:41.66	77.68	58.16	
2025-01-10 08:02:41.87	77.88	58.20	
2025-01-10 08:02:42.07	78.07	58.24	
2025-01-10 08:02:42.28	78.26	58.28	
2025-01-10 08:02:42.48	78.45	58.32	
2025-01-10 08:02:42.69	78.65	58.36	
2025-01-10 08:02:42.89	78.83	58.40	
2025-01-10 08:02:43.09	79.02	58.44	
2025-01-10 08:02:43.30	79.22	58.48	
2025-01-10 08:02:43.50	79.41	58.51	
2025-01-10 08:02:43.71	79.61	58.55	
2025-01-10 08:02:43.91	79.80	58.59	
2025-01-10 08:02:44.12	80.00	58.63	
2025-01-10 08:02:44.32	80.20	58.66	
2025-01-10 08:02:44.53	80.40	58.70	
2025-01-10 08:02:44.75	80.61	58.74	
2025-01-10 08:02:44.95	80.80	58.78	
2025-01-10 08:02:45.16	81.01	58.81	
2025-01-10 08:02:45.36	81.20	58.85	
2025-01-10 08:02:45.57	81.41	58.88	
2025-01-10 08:02:45.77	81.60	58.92	
2025-01-10 08:02:45.98	81.81	58.95	
2025-01-10 08:02:46.18	82.01	58.99	
2025-01-10 08:02:46.39	82.21	59.02	
2025-01-10 08:02:46.59	82.41	59.05	
2025-01-10 08:02:46.80	82.62	59.09	
2025-01-10 08:02:47.00	82.82	59.12	
2025-01-10 08:02:47.21	83.03	59.15	
2025-01-10 08:02:47.41	83.23	59.18	
2025-01-10 08:02:47.62	83.44	59.22	
2025-01-10 08:02:47.84	83.66	59.25	
2025-01-10 08:02:48.04	83.86	59.28	
2025-01-10 08:02:48.25	84.07	59.31	
2025-01-10 08:02:48.45	84.28	59.34	
2025-01-10 08:02:48.66	84.49	59.37	
2025-01-10 08:02:48.86	84.69	59.40	
2025-01-10 08:02:49.07	84.91	59.43	
2025-01-10 08:02:49.27	85.11	59.46	
2025-01-10 08:02:49.48	85.33	59.49	
2025-01-10 08:02:49.68	85.53	59.52	
2025-01-10 08:02:49.89	85.75	59.55	
2025-01-10 08:02:50.09	85.95	59.58	
2025-01-10 08:02:50.30	86.17	59.61	
2025-01-10 08:02:50.50	86.38	59.63	
2025-01-10 08:02:50.71	86.59	59.66	
2025-01-10 08:02:50.91	86.80	59.69	
2025-01-10 08:02:51.12	87.02	59.71	
2025-01-10 08:02:51.32	87.23	59.74	
2025-01-10 08:02:51.53	87.45	59.77	
2025-01-10 08:02:51.73	87.66	59.79	
2025-01-10 08:02:51.94	87.88	59.82	
2025-01-10 08:02:52.14	88.09	59.84	
2025-01-10 08:02:52.35	88.31	59.87	
2025-01-10 08:02:52.56	88.53	59.89	
2025-01-10 08:02:52.76	88.74	59.91	
