passes_logs/2025/01/10/SPB_Silybum_02/SPB_Silybum_02__20250110_113207_AQUA_rec.log

#Pass ID: 20250110_113207_AQUA
#Satellite: AQUA
#Configuration: AQUA
#Start time: 2025-01-10 11:32:08

#Version: 2.0.20230423
#Station: SPB_Silybum_02
#Location: 30.233357 lon 59.946436 lat
#TLE: 1 27424U 02022A   25009.33792655  .00001838  00000+0  38750-3 0  9996
#TLE: 2 27424  98.3576 325.9512 0001516 117.1765  36.3916 14.60660973206791

#Time	Az	El	Level	Level2	SNR	BER	Gain	Gain2
2025-01-10 11:32:10.87	165.36	4.22	
2025-01-10 11:32:11.07	165.36	4.24	
2025-01-10 11:32:11.28	165.36	4.25	
2025-01-10 11:32:11.48	165.37	4.27	
2025-01-10 11:32:11.69	165.37	4.28	
2025-01-10 11:32:11.90	165.37	4.30	
2025-01-10 11:32:12.10	165.37	4.31	
2025-01-10 11:32:12.30	165.38	4.33	
2025-01-10 11:32:12.51	165.38	4.34	
2025-01-10 11:32:12.71	165.38	4.36	
2025-01-10 11:32:12.92	165.38	4.37	
2025-01-10 11:32:13.12	165.39	4.39	
2025-01-10 11:32:13.32	165.39	4.40	
2025-01-10 11:32:13.53	165.39	4.42	
2025-01-10 11:32:13.73	165.39	4.43	
2025-01-10 11:32:13.94	165.40	4.45	
2025-01-10 11:32:14.15	165.40	4.46	
2025-01-10 11:32:14.36	165.40	4.48	
2025-01-10 11:32:14.57	165.40	4.49	
2025-01-10 11:32:14.77	165.41	4.51	
2025-01-10 11:32:14.98	165.41	4.52	
2025-01-10 11:32:15.19	165.41	4.54	
2025-01-10 11:32:15.39	165.42	4.55	
2025-01-10 11:32:15.60	165.42	4.57	
2025-01-10 11:32:15.80	165.42	4.58	
2025-01-10 11:32:16.01	165.42	4.60	
2025-01-10 11:32:16.21	165.43	4.61	
2025-01-10 11:32:16.42	165.43	4.63	
2025-01-10 11:32:16.62	165.43	4.64	
2025-01-10 11:32:16.83	165.43	4.66	
2025-01-10 11:32:17.03	165.44	4.67	
2025-01-10 11:32:17.24	165.44	4.69	
2025-01-10 11:32:17.44	165.44	4.70	
2025-01-10 11:32:17.65	165.44	4.72	
2025-01-10 11:32:17.86	165.45	4.73	
2025-01-10 11:32:18.06	165.45	4.75	
2025-01-10 11:32:18.27	165.45	4.76	
2025-01-10 11:32:18.47	165.46	4.78	
2025-01-10 11:32:18.68	165.46	4.79	
2025-01-10 11:32:18.88	165.46	4.81	
2025-01-10 11:32:19.09	165.46	4.83	
2025-01-10 11:32:19.29	165.47	4.84	
2025-01-10 11:32:19.50	165.47	4.86	
2025-01-10 11:32:19.70	165.47	4.87	
2025-01-10 11:32:19.91	165.47	4.89	
2025-01-10 11:32:20.11	165.48	4.90	
2025-01-10 11:32:20.32	165.48	4.92	
2025-01-10 11:32:20.54	165.48	4.93	
2025-01-10 11:32:20.74	165.49	4.95	
2025-01-10 11:32:20.95	165.49	4.96	
2025-01-10 11:32:21.15	165.49	4.98	
2025-01-10 11:32:21.36	165.49	4.99	
2025-01-10 11:32:21.56	165.50	5.01	
2025-01-10 11:32:21.76	165.50	5.02	
2025-01-10 11:32:21.97	165.50	5.04	
2025-01-10 11:32:22.17	165.50	5.06	
2025-01-10 11:32:22.38	165.51	5.07	
2025-01-10 11:32:22.59	165.51	5.09	
2025-01-10 11:32:22.79	165.51	5.10	
2025-01-10 11:32:23.00	165.51	5.12	
2025-01-10 11:32:23.20	165.52	5.13	
2025-01-10 11:32:23.41	165.52	5.15	
2025-01-10 11:32:23.61	165.52	5.16	
2025-01-10 11:32:23.83	165.53	5.18	
2025-01-10 11:32:24.04	165.53	5.20	
2025-01-10 11:32:24.24	165.53	5.21	
2025-01-10 11:32:24.45	165.53	5.23	
2025-01-10 11:32:24.66	165.54	5.24	
2025-01-10 11:32:24.86	165.54	5.26	
2025-01-10 11:32:25.07	165.54	5.27	
2025-01-10 11:32:25.27	165.55	5.29	
2025-01-10 11:32:25.48	165.55	5.31	
2025-01-10 11:32:25.68	165.55	5.32	
2025-01-10 11:32:25.89	165.55	5.34	
2025-01-10 11:32:26.09	165.56	5.35	
2025-01-10 11:32:26.30	165.56	5.37	
2025-01-10 11:32:26.51	165.56	5.38	
2025-01-10 11:32:26.71	165.56	5.40	
2025-01-10 11:32:26.92	165.57	5.42	
2025-01-10 11:32:27.12	165.57	5.43	
2025-01-10 11:32:27.33	165.57	5.45	
2025-01-10 11:32:27.53	165.58	5.46	
2025-01-10 11:32:27.74	165.58	5.48	
2025-01-10 11:32:27.94	165.58	5.49	
2025-01-10 11:32:28.15	165.58	5.51	
2025-01-10 11:32:28.35	165.59	5.52	
2025-01-10 11:32:28.56	165.59	5.54	
2025-01-10 11:32:28.77	165.59	5.56	
2025-01-10 11:32:28.97	165.60	5.57	
2025-01-10 11:32:29.17	165.60	5.59	
2025-01-10 11:32:29.38	165.60	5.60	
2025-01-10 11:32:29.58	165.60	5.62	
2025-01-10 11:32:29.79	165.61	5.64	
2025-01-10 11:32:29.99	165.61	5.65	
2025-01-10 11:32:30.20	165.61	5.67	
2025-01-10 11:32:30.40	165.61	5.68	
2025-01-10 11:32:30.61	165.62	5.70	
2025-01-10 11:32:30.81	165.62	5.71	
2025-01-10 11:32:31.02	165.62	5.73	
2025-01-10 11:32:31.22	165.63	5.75	
2025-01-10 11:32:31.43	165.63	5.76	
2025-01-10 11:32:31.63	165.63	5.78	
2025-01-10 11:32:31.84	165.63	5.79	
2025-01-10 11:32:32.05	165.64	5.81	
2025-01-10 11:32:32.25	165.64	5.83	
2025-01-10 11:32:32.45	165.64	5.84	
2025-01-10 11:32:32.66	165.65	5.86	
2025-01-10 11:32:32.86	165.65	5.87	
2025-01-10 11:32:33.07	165.65	5.89	
2025-01-10 11:32:33.28	165.65	5.91	
2025-01-10 11:32:33.48	165.66	5.92	
2025-01-10 11:32:33.69	165.66	5.94	
2025-01-10 11:32:33.89	165.66	5.95	
2025-01-10 11:32:34.10	165.67	5.97	
2025-01-10 11:32:34.31	165.67	5.99	
2025-01-10 11:32:34.51	165.67	6.00	
2025-01-10 11:32:34.72	165.67	6.02	
2025-01-10 11:32:34.92	165.68	6.03	
2025-01-10 11:32:35.13	165.68	6.05	
2025-01-10 11:32:35.34	165.68	6.07	
2025-01-10 11:32:35.54	165.69	6.08	
2025-01-10 11:32:35.74	165.69	6.10	
2025-01-10 11:32:35.95	165.69	6.11	
2025-01-10 11:32:36.15	165.69	6.13	
2025-01-10 11:32:36.36	165.70	6.15	
2025-01-10 11:32:36.57	165.70	6.16	
2025-01-10 11:32:36.78	165.70	6.18	
2025-01-10 11:32:36.99	165.71	6.20	
2025-01-10 11:32:37.19	165.71	6.21	
2025-01-10 11:32:37.40	165.71	6.23	
2025-01-10 11:32:37.60	165.72	6.24	
2025-01-10 11:32:37.81	165.72	6.26	
2025-01-10 11:32:38.01	165.72	6.28	
2025-01-10 11:32:38.22	165.72	6.29	
2025-01-10 11:32:38.42	165.73	6.31	
2025-01-10 11:32:38.63	165.73	6.33	
2025-01-10 11:32:38.83	165.73	6.34	
2025-01-10 11:32:39.04	165.74	6.36	
2025-01-10 11:32:39.25	165.74	6.38	
2025-01-10 11:32:39.45	165.74	6.39	
2025-01-10 11:32:39.66	165.74	6.41	
2025-01-10 11:32:39.88	165.75	6.43	
2025-01-10 11:32:40.08	165.75	6.44	
2025-01-10 11:32:40.29	165.75	6.46	
2025-01-10 11:32:40.49	165.76	6.47	
2025-01-10 11:32:40.70	165.76	6.49	
2025-01-10 11:32:40.90	165.76	6.51	
2025-01-10 11:32:41.11	165.77	6.52	
2025-01-10 11:32:41.31	165.77	6.54	
2025-01-10 11:32:41.52	165.77	6.56	
2025-01-10 11:32:41.73	165.77	6.57	
2025-01-10 11:32:41.93	165.78	6.59	
2025-01-10 11:32:42.14	165.78	6.61	
2025-01-10 11:32:42.34	165.78	6.62	
2025-01-10 11:32:42.55	165.79	6.64	
2025-01-10 11:32:42.75	165.79	6.65	
2025-01-10 11:32:42.96	165.79	6.67	
2025-01-10 11:32:43.16	165.80	6.69	
2025-01-10 11:32:43.37	165.80	6.70	
2025-01-10 11:32:43.57	165.80	6.72	
2025-01-10 11:32:43.78	165.80	6.74	
2025-01-10 11:32:43.98	165.81	6.75	
2025-01-10 11:32:44.19	165.81	6.77	
2025-01-10 11:32:44.40	165.81	6.79	
2025-01-10 11:32:44.60	165.82	6.80	
2025-01-10 11:32:44.81	165.82	6.82	
2025-01-10 11:32:45.01	165.82	6.84	
2025-01-10 11:32:45.23	165.83	6.86	
2025-01-10 11:32:45.44	165.83	6.87	
2025-01-10 11:32:45.64	165.83	6.89	
2025-01-10 11:32:45.85	165.83	6.91	
2025-01-10 11:32:46.05	165.84	6.92	
2025-01-10 11:32:46.25	165.84	6.94	
2025-01-10 11:32:46.46	165.84	6.96	
2025-01-10 11:32:46.67	165.85	6.97	
2025-01-10 11:32:46.87	165.85	6.99	
2025-01-10 11:32:47.07	165.85	7.00	
2025-01-10 11:32:47.28	165.86	7.02	
2025-01-10 11:32:47.49	165.86	7.04	
2025-01-10 11:32:47.69	165.86	7.06	
2025-01-10 11:32:47.90	165.87	7.07	
2025-01-10 11:32:48.10	165.87	7.09	
2025-01-10 11:32:48.31	165.87	7.11	
2025-01-10 11:32:48.51	165.87	7.12	
2025-01-10 11:32:48.71	165.88	7.14	
2025-01-10 11:32:48.92	165.88	7.16	
2025-01-10 11:32:49.13	165.88	7.17	
2025-01-10 11:32:49.33	165.89	7.19	
2025-01-10 11:32:49.54	165.89	7.21	
2025-01-10 11:32:49.74	165.89	7.22	
2025-01-10 11:32:49.95	165.90	7.24	
2025-01-10 11:32:50.16	165.90	7.26	
2025-01-10 11:32:50.36	165.90	7.28	
2025-01-10 11:32:50.58	165.91	7.29	
2025-01-10 11:32:50.79	165.91	7.31	
2025-01-10 11:32:50.99	165.91	7.33	
2025-01-10 11:32:51.20	165.91	7.34	
2025-01-10 11:32:51.40	165.92	7.36	
2025-01-10 11:32:51.61	165.92	7.38	
2025-01-10 11:32:51.81	165.92	7.40	
2025-01-10 11:32:52.02	165.93	7.41	
2025-01-10 11:32:52.22	165.93	7.43	
2025-01-10 11:32:52.43	165.93	7.45	
2025-01-10 11:32:52.63	165.94	7.46	
2025-01-10 11:32:52.84	165.94	7.48	
2025-01-10 11:32:53.05	165.94	7.50	
2025-01-10 11:32:53.25	165.95	7.52	
2025-01-10 11:32:53.46	165.95	7.53	
2025-01-10 11:32:53.66	165.95	7.55	
2025-01-10 11:32:53.87	165.96	7.57	
2025-01-10 11:32:54.07	165.96	7.58	
2025-01-10 11:32:54.28	165.96	7.60	
2025-01-10 11:32:54.48	165.96	7.62	
2025-01-10 11:32:54.69	165.97	7.64	
2025-01-10 11:32:54.89	165.97	7.65	
2025-01-10 11:32:55.10	165.97	7.67	
2025-01-10 11:32:55.30	165.98	7.69	
2025-01-10 11:32:55.51	165.98	7.70	
2025-01-10 11:32:55.71	165.98	7.72	
2025-01-10 11:32:55.91	165.99	7.74	
2025-01-10 11:32:56.12	165.99	7.76	
2025-01-10 11:32:56.32	165.99	7.77	
2025-01-10 11:32:56.53	166.00	7.79	
2025-01-10 11:32:56.74	166.00	7.81	
2025-01-10 11:32:56.94	166.00	7.83	
2025-01-10 11:32:57.14	166.01	7.84	
2025-01-10 11:32:57.35	166.01	7.86	
2025-01-10 11:32:57.55	166.01	7.88	
2025-01-10 11:32:57.76	166.02	7.89	
2025-01-10 11:32:57.96	166.02	7.91	
2025-01-10 11:32:58.17	166.02	7.93	
2025-01-10 11:32:58.37	166.03	7.95	
2025-01-10 11:32:58.58	166.03	7.96	
2025-01-10 11:32:58.78	166.03	7.98	
2025-01-10 11:32:58.99	166.04	8.00	
2025-01-10 11:32:59.19	166.04	8.02	
2025-01-10 11:32:59.40	166.04	8.03	
2025-01-10 11:32:59.61	166.04	8.05	
2025-01-10 11:32:59.81	166.05	8.07	
2025-01-10 11:33:00.02	166.05	8.09	
2025-01-10 11:33:00.22	166.05	8.10	
2025-01-10 11:33:00.42	166.06	8.12	
2025-01-10 11:33:00.63	166.06	8.14	
2025-01-10 11:33:00.83	166.06	8.16	
2025-01-10 11:33:01.04	166.07	8.17	
2025-01-10 11:33:01.24	166.07	8.19	
2025-01-10 11:33:01.45	166.07	8.21	
2025-01-10 11:33:01.65	166.08	8.23	
2025-01-10 11:33:01.86	166.08	8.25	
2025-01-10 11:33:02.06	166.08	8.26	
2025-01-10 11:33:02.28	166.09	8.28	
2025-01-10 11:33:02.49	166.09	8.30	
2025-01-10 11:33:02.69	166.09	8.32	
2025-01-10 11:33:02.90	166.10	8.34	
2025-01-10 11:33:03.11	166.10	8.35	
2025-01-10 11:33:03.31	166.10	8.37	
2025-01-10 11:33:03.52	166.11	8.39	
2025-01-10 11:33:03.72	166.11	8.41	
2025-01-10 11:33:03.93	166.11	8.42	
2025-01-10 11:33:04.13	166.12	8.44	
2025-01-10 11:33:04.34	166.12	8.46	
2025-01-10 11:33:04.54	166.12	8.48	
2025-01-10 11:33:04.75	166.13	8.50	
2025-01-10 11:33:04.95	166.13	8.51	
2025-01-10 11:33:05.16	166.13	8.53	
2025-01-10 11:33:05.36	166.14	8.55	
2025-01-10 11:33:05.57	166.14	8.57	
2025-01-10 11:33:05.77	166.14	8.58	
2025-01-10 11:33:05.98	166.15	8.60	
2025-01-10 11:33:06.18	166.15	8.62	
2025-01-10 11:33:06.40	166.15	8.64	
2025-01-10 11:33:06.62	166.16	8.66	
2025-01-10 11:33:06.82	166.16	8.68	
2025-01-10 11:33:07.03	166.16	8.70	
2025-01-10 11:33:07.24	166.17	8.71	
2025-01-10 11:33:07.44	166.17	8.73	
2025-01-10 11:33:07.65	166.17	8.75	
2025-01-10 11:33:07.85	166.18	8.77	
2025-01-10 11:33:08.05	166.18	8.79	
2025-01-10 11:33:08.26	166.18	8.80	
2025-01-10 11:33:08.46	166.19	8.82	
2025-01-10 11:33:08.67	166.19	8.84	
2025-01-10 11:33:08.87	166.19	8.86	
2025-01-10 11:33:09.08	166.20	8.88	
2025-01-10 11:33:09.28	166.20	8.89	
2025-01-10 11:33:09.49	166.21	8.91	
2025-01-10 11:33:09.69	166.21	8.93	
2025-01-10 11:33:09.90	166.21	8.95	
2025-01-10 11:33:10.10	166.22	8.97	
2025-01-10 11:33:10.31	166.22	8.99	
2025-01-10 11:33:10.51	166.22	9.00	
2025-01-10 11:33:10.72	166.23	9.02	
2025-01-10 11:33:10.92	166.23	9.04	
2025-01-10 11:33:11.13	166.23	9.06	
2025-01-10 11:33:11.33	166.24	9.08	
2025-01-10 11:33:11.54	166.24	9.10	
2025-01-10 11:33:11.74	166.24	9.11	
2025-01-10 11:33:11.95	166.25	9.13	
2025-01-10 11:33:12.15	166.25	9.15	
2025-01-10 11:33:12.36	166.25	9.17	
2025-01-10 11:33:12.56	166.26	9.19	
2025-01-10 11:33:12.77	166.26	9.21	
2025-01-10 11:33:12.99	166.26	9.23	
2025-01-10 11:33:13.19	166.27	9.24	
2025-01-10 11:33:13.40	166.27	9.26	
2025-01-10 11:33:13.60	166.27	9.28	
2025-01-10 11:33:13.81	166.28	9.30	
2025-01-10 11:33:14.01	166.28	9.32	
2025-01-10 11:33:14.22	166.28	9.34	
2025-01-10 11:33:14.42	166.29	9.35	
2025-01-10 11:33:14.63	166.29	9.37	
2025-01-10 11:33:14.84	166.30	9.39	
2025-01-10 11:33:15.04	166.30	9.41	
2025-01-10 11:33:15.24	166.30	9.43	
2025-01-10 11:33:15.45	166.31	9.45	
2025-01-10 11:33:15.65	166.31	9.47	
2025-01-10 11:33:15.86	166.31	9.49	
2025-01-10 11:33:16.07	166.32	9.50	
2025-01-10 11:33:16.29	166.32	9.52	
2025-01-10 11:33:16.49	166.32	9.54	
2025-01-10 11:33:16.69	166.33	9.56	
2025-01-10 11:33:16.90	166.33	9.58	
2025-01-10 11:33:17.11	166.33	9.60	
2025-01-10 11:33:17.31	166.34	9.62	
2025-01-10 11:33:17.52	166.34	9.64	
2025-01-10 11:33:17.72	166.35	9.66	
2025-01-10 11:33:17.93	166.35	9.67	
2025-01-10 11:33:18.13	166.35	9.69	
2025-01-10 11:33:18.34	166.36	9.71	
2025-01-10 11:33:18.55	166.36	9.73	
2025-01-10 11:33:18.75	166.36	9.75	
2025-01-10 11:33:18.96	166.37	9.77	
2025-01-10 11:33:19.16	166.37	9.79	
2025-01-10 11:33:19.37	166.37	9.81	
2025-01-10 11:33:19.57	166.38	9.83	
2025-01-10 11:33:19.78	166.38	9.85	
2025-01-10 11:33:19.98	166.38	9.86	
2025-01-10 11:33:20.19	166.39	9.88	
2025-01-10 11:33:20.40	166.39	9.90	
2025-01-10 11:33:20.60	166.40	9.92	
2025-01-10 11:33:20.80	166.40	9.94	
2025-01-10 11:33:21.01	166.40	9.96	
2025-01-10 11:33:21.21	166.41	9.98	
2025-01-10 11:33:21.42	166.41	10.00	
2025-01-10 11:33:21.62	166.41	10.02	
2025-01-10 11:33:21.83	166.42	10.04	
2025-01-10 11:33:22.03	166.42	10.05	
2025-01-10 11:33:22.25	166.43	10.08	
2025-01-10 11:33:22.46	166.43	10.09	
2025-01-10 11:33:22.67	166.43	10.11	
2025-01-10 11:33:22.88	166.44	10.13	
2025-01-10 11:33:23.08	166.44	10.15	
2025-01-10 11:33:23.29	166.44	10.17	
2025-01-10 11:33:23.49	166.45	10.19	
2025-01-10 11:33:23.70	166.45	10.21	
2025-01-10 11:33:23.90	166.45	10.23	
2025-01-10 11:33:24.11	166.46	10.25	
2025-01-10 11:33:24.31	166.46	10.27	
2025-01-10 11:33:24.52	166.47	10.29	
2025-01-10 11:33:24.72	166.47	10.31	
2025-01-10 11:33:24.93	166.47	10.33	
2025-01-10 11:33:25.13	166.48	10.35	
2025-01-10 11:33:25.34	166.48	10.37	
2025-01-10 11:33:25.54	166.48	10.38	
2025-01-10 11:33:25.75	166.49	10.40	
2025-01-10 11:33:25.95	166.49	10.42	
2025-01-10 11:33:26.16	166.50	10.44	
2025-01-10 11:33:26.36	166.50	10.46	
2025-01-10 11:33:26.57	166.50	10.48	
2025-01-10 11:33:26.77	166.51	10.50	
2025-01-10 11:33:26.98	166.51	10.52	
2025-01-10 11:33:27.18	166.51	10.54	
2025-01-10 11:33:27.39	166.52	10.56	
2025-01-10 11:33:27.59	166.52	10.58	
2025-01-10 11:33:27.80	166.53	10.60	
2025-01-10 11:33:28.00	166.53	10.62	
2025-01-10 11:33:28.21	166.53	10.64	
2025-01-10 11:33:28.41	166.54	10.66	
2025-01-10 11:33:28.62	166.54	10.68	
2025-01-10 11:33:28.82	166.54	10.70	
2025-01-10 11:33:29.03	166.55	10.72	
2025-01-10 11:33:29.23	166.55	10.74	
2025-01-10 11:33:29.44	166.56	10.76	
2025-01-10 11:33:29.64	166.56	10.78	
2025-01-10 11:33:29.85	166.56	10.80	
2025-01-10 11:33:30.05	166.57	10.82	
2025-01-10 11:33:30.26	166.57	10.84	
2025-01-10 11:33:30.46	166.58	10.86	
2025-01-10 11:33:30.67	166.58	10.88	
2025-01-10 11:33:30.87	166.58	10.90	
2025-01-10 11:33:31.07	166.59	10.92	
2025-01-10 11:33:31.28	166.59	10.94	
2025-01-10 11:33:31.48	166.59	10.96	
2025-01-10 11:33:31.69	166.60	10.98	
2025-01-10 11:33:31.89	166.60	11.00	
2025-01-10 11:33:32.10	166.61	11.02	
2025-01-10 11:33:32.30	166.61	11.04	
2025-01-10 11:33:32.51	166.61	11.06	
2025-01-10 11:33:32.71	166.62	11.08	
2025-01-10 11:33:32.92	166.62	11.10	
2025-01-10 11:33:33.12	166.63	11.12	
2025-01-10 11:33:33.33	166.63	11.14	
2025-01-10 11:33:33.53	166.63	11.16	
2025-01-10 11:33:33.74	166.64	11.18	
2025-01-10 11:33:33.94	166.64	11.20	
2025-01-10 11:33:34.15	166.65	11.22	
2025-01-10 11:33:34.35	166.65	11.24	
2025-01-10 11:33:34.56	166.65	11.26	
2025-01-10 11:33:34.77	166.66	11.28	
2025-01-10 11:33:34.97	166.66	11.30	
2025-01-10 11:33:35.18	166.67	11.32	
2025-01-10 11:33:35.38	166.67	11.34	
2025-01-10 11:33:35.59	166.67	11.36	
2025-01-10 11:33:35.79	166.68	11.38	
2025-01-10 11:33:36.00	166.68	11.40	
2025-01-10 11:33:36.21	166.69	11.42	
2025-01-10 11:33:36.41	166.69	11.44	
2025-01-10 11:33:36.63	166.69	11.46	
2025-01-10 11:33:36.83	166.70	11.48	
2025-01-10 11:33:37.04	166.70	11.50	
2025-01-10 11:33:37.24	166.71	11.52	
2025-01-10 11:33:37.45	166.71	11.54	
2025-01-10 11:33:37.67	166.71	11.57	
2025-01-10 11:33:37.87	166.72	11.59	
2025-01-10 11:33:38.08	166.72	11.61	
2025-01-10 11:33:38.28	166.73	11.63	
2025-01-10 11:33:38.49	166.73	11.65	
2025-01-10 11:33:38.69	166.73	11.67	
2025-01-10 11:33:38.90	166.74	11.69	
2025-01-10 11:33:39.10	166.74	11.71	
2025-01-10 11:33:39.31	166.75	11.73	
2025-01-10 11:33:39.51	166.75	11.75	
2025-01-10 11:33:39.72	166.75	11.77	
2025-01-10 11:33:39.92	166.76	11.79	
2025-01-10 11:33:40.13	166.76	11.81	
2025-01-10 11:33:40.33	166.77	11.83	
2025-01-10 11:33:40.54	166.77	11.85	
2025-01-10 11:33:40.75	166.77	11.88	
2025-01-10 11:33:40.95	166.78	11.90	
2025-01-10 11:33:41.15	166.78	11.92	
2025-01-10 11:33:41.36	166.79	11.94	
2025-01-10 11:33:41.56	166.79	11.96	
2025-01-10 11:33:41.77	166.79	11.98	
2025-01-10 11:33:41.99	166.80	12.00	
2025-01-10 11:33:42.19	166.80	12.02	
2025-01-10 11:33:42.40	166.81	12.04	
2025-01-10 11:33:42.60	166.81	12.06	
2025-01-10 11:33:42.81	166.82	12.09	
2025-01-10 11:33:43.01	166.82	12.11	
2025-01-10 11:33:43.22	166.82	12.13	
2025-01-10 11:33:43.42	166.83	12.15	
2025-01-10 11:33:43.63	166.83	12.17	
2025-01-10 11:33:43.84	166.84	12.19	
2025-01-10 11:33:44.04	166.84	12.21	
2025-01-10 11:33:44.24	166.84	12.23	
2025-01-10 11:33:44.45	166.85	12.25	
2025-01-10 11:33:44.65	166.85	12.27	
2025-01-10 11:33:44.86	166.86	12.30	
2025-01-10 11:33:45.06	166.86	12.32	
2025-01-10 11:33:45.27	166.87	12.34	
2025-01-10 11:33:45.47	166.87	12.36	
2025-01-10 11:33:45.68	166.87	12.38	
2025-01-10 11:33:45.88	166.88	12.40	
2025-01-10 11:33:46.09	166.88	12.42	
2025-01-10 11:33:46.29	166.89	12.44	
2025-01-10 11:33:46.50	166.89	12.47	
2025-01-10 11:33:46.70	166.90	12.49	
2025-01-10 11:33:46.90	166.90	12.51	
2025-01-10 11:33:47.11	166.90	12.53	
2025-01-10 11:33:47.32	166.91	12.55	
2025-01-10 11:33:47.52	166.91	12.57	
2025-01-10 11:33:47.73	166.92	12.59	
2025-01-10 11:33:47.93	166.92	12.62	
2025-01-10 11:33:48.14	166.93	12.64	
2025-01-10 11:33:48.34	166.93	12.66	
2025-01-10 11:33:48.55	166.93	12.68	
2025-01-10 11:33:48.75	166.94	12.70	
2025-01-10 11:33:48.96	166.94	12.72	
2025-01-10 11:33:49.16	166.95	12.75	
2025-01-10 11:33:49.37	166.95	12.77	
2025-01-10 11:33:49.58	166.96	12.79	
2025-01-10 11:33:49.78	166.96	12.81	
2025-01-10 11:33:49.99	166.96	12.83	
2025-01-10 11:33:50.19	166.97	12.85	
2025-01-10 11:33:50.40	166.97	12.88	
2025-01-10 11:33:50.60	166.98	12.90	
2025-01-10 11:33:50.81	166.98	12.92	
2025-01-10 11:33:51.02	166.99	12.94	
2025-01-10 11:33:51.23	166.99	12.96	
2025-01-10 11:33:51.43	166.99	12.99	
2025-01-10 11:33:51.63	167.00	13.01	
2025-01-10 11:33:51.84	167.00	13.03	
2025-01-10 11:33:52.05	167.01	13.05	
2025-01-10 11:33:52.25	167.01	13.07	
2025-01-10 11:33:52.46	167.02	13.10	
2025-01-10 11:33:52.68	167.02	13.12	
2025-01-10 11:33:52.88	167.03	13.14	
2025-01-10 11:33:53.09	167.03	13.16	
2025-01-10 11:33:53.29	167.03	13.19	
2025-01-10 11:33:53.50	167.04	13.21	
2025-01-10 11:33:53.70	167.04	13.23	
2025-01-10 11:33:53.91	167.05	13.25	
2025-01-10 11:33:54.12	167.05	13.27	
2025-01-10 11:33:54.32	167.06	13.30	
2025-01-10 11:33:54.53	167.06	13.32	
2025-01-10 11:33:54.73	167.07	13.34	
2025-01-10 11:33:54.93	167.07	13.36	
2025-01-10 11:33:55.14	167.08	13.39	
2025-01-10 11:33:55.34	167.08	13.41	
2025-01-10 11:33:55.55	167.08	13.43	
2025-01-10 11:33:55.76	167.09	13.45	
2025-01-10 11:33:55.96	167.09	13.47	
2025-01-10 11:33:56.17	167.10	13.50	
2025-01-10 11:33:56.37	167.10	13.52	
2025-01-10 11:33:56.58	167.11	13.54	
2025-01-10 11:33:56.78	167.11	13.56	
2025-01-10 11:33:56.99	167.12	13.59	
2025-01-10 11:33:57.19	167.12	13.61	
2025-01-10 11:33:57.40	167.12	13.63	
2025-01-10 11:33:57.60	167.13	13.65	
2025-01-10 11:33:57.81	167.13	13.68	
2025-01-10 11:33:58.01	167.14	13.70	
2025-01-10 11:33:58.21	167.14	13.72	
2025-01-10 11:33:58.42	167.15	13.74	
2025-01-10 11:33:58.62	167.15	13.77	
2025-01-10 11:33:58.83	167.16	13.79	
2025-01-10 11:33:59.03	167.16	13.81	
2025-01-10 11:33:59.24	167.17	13.83	
2025-01-10 11:33:59.45	167.17	13.86	
2025-01-10 11:33:59.65	167.18	13.88	
2025-01-10 11:33:59.86	167.18	13.90	
2025-01-10 11:34:00.06	167.18	13.93	
2025-01-10 11:34:00.26	167.19	13.95	
2025-01-10 11:34:00.47	167.19	13.97	
2025-01-10 11:34:00.68	167.20	13.99	
2025-01-10 11:34:00.88	167.20	14.02	
2025-01-10 11:34:01.09	167.21	14.04	
2025-01-10 11:34:01.29	167.21	14.06	
2025-01-10 11:34:01.49	167.22	14.09	
2025-01-10 11:34:01.70	167.22	14.11	
2025-01-10 11:34:01.91	167.23	14.13	
2025-01-10 11:34:02.11	167.23	14.16	
2025-01-10 11:34:02.33	167.24	14.18	
2025-01-10 11:34:02.54	167.24	14.20	
2025-01-10 11:34:02.75	167.25	14.23	
2025-01-10 11:34:02.95	167.25	14.25	
2025-01-10 11:34:03.16	167.26	14.27	
2025-01-10 11:34:03.36	167.26	14.30	
2025-01-10 11:34:03.57	167.27	14.32	
2025-01-10 11:34:03.77	167.27	14.34	
2025-01-10 11:34:03.97	167.27	14.37	
2025-01-10 11:34:04.18	167.28	14.39	
2025-01-10 11:34:04.38	167.28	14.41	
2025-01-10 11:34:04.59	167.29	14.44	
2025-01-10 11:34:04.79	167.29	14.46	
2025-01-10 11:34:05.00	167.30	14.48	
2025-01-10 11:34:05.21	167.30	14.51	
2025-01-10 11:34:05.41	167.31	14.53	
2025-01-10 11:34:05.62	167.31	14.55	
2025-01-10 11:34:05.82	167.32	14.58	
2025-01-10 11:34:06.03	167.32	14.60	
2025-01-10 11:34:06.24	167.33	14.62	
2025-01-10 11:34:06.44	167.33	14.65	
2025-01-10 11:34:06.64	167.34	14.67	
2025-01-10 11:34:06.85	167.34	14.69	
2025-01-10 11:34:07.05	167.35	14.72	
2025-01-10 11:34:07.26	167.35	14.74	
2025-01-10 11:34:07.46	167.36	14.76	
2025-01-10 11:34:07.67	167.36	14.79	
2025-01-10 11:34:07.87	167.37	14.81	
2025-01-10 11:34:08.08	167.37	14.84	
2025-01-10 11:34:08.28	167.38	14.86	
2025-01-10 11:34:08.49	167.38	14.88	
2025-01-10 11:34:08.69	167.39	14.91	
2025-01-10 11:34:08.90	167.39	14.93	
2025-01-10 11:34:09.10	167.40	14.96	
2025-01-10 11:34:09.31	167.40	14.98	
2025-01-10 11:34:09.52	167.41	15.00	
2025-01-10 11:34:09.72	167.41	15.03	
2025-01-10 11:34:09.92	167.42	15.05	
2025-01-10 11:34:10.13	167.42	15.08	
2025-01-10 11:34:10.34	167.43	15.10	
2025-01-10 11:34:10.54	167.43	15.12	
2025-01-10 11:34:10.75	167.44	15.15	
2025-01-10 11:34:10.95	167.44	15.17	
2025-01-10 11:34:11.16	167.45	15.20	
2025-01-10 11:34:11.36	167.45	15.22	
2025-01-10 11:34:11.57	167.46	15.24	
2025-01-10 11:34:11.77	167.46	15.27	
2025-01-10 11:34:11.99	167.47	15.29	
2025-01-10 11:34:12.20	167.47	15.32	
2025-01-10 11:34:12.40	167.48	15.34	
2025-01-10 11:34:12.61	167.48	15.37	
2025-01-10 11:34:12.81	167.49	15.39	
2025-01-10 11:34:13.03	167.49	15.42	
2025-01-10 11:34:13.23	167.50	15.44	
2025-01-10 11:34:13.44	167.50	15.47	
2025-01-10 11:34:13.64	167.51	15.49	
2025-01-10 11:34:13.85	167.51	15.52	
2025-01-10 11:34:14.05	167.52	15.54	
2025-01-10 11:34:14.26	167.52	15.56	
2025-01-10 11:34:14.46	167.53	15.59	
2025-01-10 11:34:14.67	167.53	15.61	
2025-01-10 11:34:14.88	167.54	15.64	
2025-01-10 11:34:15.08	167.54	15.66	
2025-01-10 11:34:15.28	167.55	15.69	
2025-01-10 11:34:15.49	167.55	15.71	
2025-01-10 11:34:15.70	167.56	15.74	
2025-01-10 11:34:15.90	167.56	15.76	
2025-01-10 11:34:16.10	167.57	15.79	
2025-01-10 11:34:16.31	167.57	15.81	
2025-01-10 11:34:16.52	167.58	15.84	
2025-01-10 11:34:16.72	167.58	15.86	
2025-01-10 11:34:16.93	167.59	15.89	
2025-01-10 11:34:17.13	167.60	15.91	
2025-01-10 11:34:17.34	167.60	15.94	
2025-01-10 11:34:17.54	167.61	15.96	
2025-01-10 11:34:17.75	167.61	15.99	
2025-01-10 11:34:17.95	167.62	16.01	
2025-01-10 11:34:18.16	167.62	16.04	
2025-01-10 11:34:18.36	167.63	16.06	
2025-01-10 11:34:18.57	167.63	16.09	
2025-01-10 11:34:18.77	167.64	16.11	
2025-01-10 11:34:18.98	167.64	16.14	
2025-01-10 11:34:19.19	167.65	16.16	
2025-01-10 11:34:19.39	167.65	16.19	
2025-01-10 11:34:19.59	167.66	16.21	
2025-01-10 11:34:19.80	167.66	16.24	
2025-01-10 11:34:20.00	167.67	16.26	
2025-01-10 11:34:20.21	167.68	16.29	
2025-01-10 11:34:20.41	167.68	16.31	
2025-01-10 11:34:20.62	167.69	16.34	
2025-01-10 11:34:20.82	167.69	16.36	
2025-01-10 11:34:21.03	167.70	16.39	
2025-01-10 11:34:21.23	167.70	16.42	
2025-01-10 11:34:21.44	167.71	16.44	
2025-01-10 11:34:21.64	167.71	16.47	
2025-01-10 11:34:21.85	167.72	16.49	
2025-01-10 11:34:22.06	167.72	16.52	
2025-01-10 11:34:22.26	167.73	16.54	
2025-01-10 11:34:22.47	167.73	16.57	
2025-01-10 11:34:22.67	167.74	16.60	
2025-01-10 11:34:22.88	167.75	16.62	
2025-01-10 11:34:23.08	167.75	16.65	
2025-01-10 11:34:23.29	167.76	16.67	
2025-01-10 11:34:23.49	167.76	16.70	
2025-01-10 11:34:23.71	167.77	16.73	
2025-01-10 11:34:23.91	167.77	16.75	
2025-01-10 11:34:24.12	167.78	16.78	
2025-01-10 11:34:24.32	167.78	16.80	
2025-01-10 11:34:24.53	167.79	16.83	
2025-01-10 11:34:24.73	167.80	16.86	
2025-01-10 11:34:24.94	167.80	16.88	
2025-01-10 11:34:25.14	167.81	16.91	
2025-01-10 11:34:25.35	167.81	16.93	
2025-01-10 11:34:25.56	167.82	16.96	
2025-01-10 11:34:25.76	167.82	16.99	
2025-01-10 11:34:25.96	167.83	17.01	
2025-01-10 11:34:26.17	167.84	17.04	
2025-01-10 11:34:26.38	167.84	17.07	
2025-01-10 11:34:26.58	167.85	17.09	
2025-01-10 11:34:26.78	167.85	17.12	
2025-01-10 11:34:26.99	167.86	17.14	
2025-01-10 11:34:27.20	167.86	17.17	
2025-01-10 11:34:27.40	167.87	17.20	
2025-01-10 11:34:27.61	167.87	17.22	
2025-01-10 11:34:27.81	167.88	17.25	
2025-01-10 11:34:28.02	167.89	17.28	
2025-01-10 11:34:28.22	167.89	17.30	
2025-01-10 11:34:28.43	167.90	17.33	
2025-01-10 11:34:28.64	167.90	17.36	
2025-01-10 11:34:28.84	167.91	17.38	
2025-01-10 11:34:29.05	167.92	17.41	
2025-01-10 11:34:29.25	167.92	17.44	
2025-01-10 11:34:29.46	167.93	17.46	
2025-01-10 11:34:29.66	167.93	17.49	
2025-01-10 11:34:29.87	167.94	17.52	
2025-01-10 11:34:30.07	167.94	17.54	
2025-01-10 11:34:30.28	167.95	17.57	
2025-01-10 11:34:30.48	167.96	17.60	
2025-01-10 11:34:30.69	167.96	17.63	
2025-01-10 11:34:30.89	167.97	17.65	
2025-01-10 11:34:31.10	167.97	17.68	
2025-01-10 11:34:31.30	167.98	17.71	
2025-01-10 11:34:31.51	167.98	17.73	
2025-01-10 11:34:31.71	167.99	17.76	
2025-01-10 11:34:31.92	168.00	17.79	
2025-01-10 11:34:32.12	168.00	17.81	
2025-01-10 11:34:32.33	168.01	17.84	
2025-01-10 11:34:32.54	168.01	17.87	
2025-01-10 11:34:32.74	168.02	17.90	
2025-01-10 11:34:32.95	168.03	17.92	
2025-01-10 11:34:33.15	168.03	17.95	
2025-01-10 11:34:33.36	168.04	17.98	
2025-01-10 11:34:33.56	168.04	18.01	
2025-01-10 11:34:33.77	168.05	18.03	
2025-01-10 11:34:33.97	168.06	18.06	
2025-01-10 11:34:34.18	168.06	18.09	
2025-01-10 11:34:34.38	168.07	18.12	
2025-01-10 11:34:34.59	168.07	18.14	
2025-01-10 11:34:34.79	168.08	18.17	
2025-01-10 11:34:35.00	168.09	18.20	
2025-01-10 11:34:35.21	168.09	18.23	
2025-01-10 11:34:35.41	168.10	18.25	
2025-01-10 11:34:35.61	168.10	18.28	
2025-01-10 11:34:35.82	168.11	18.31	
2025-01-10 11:34:36.03	168.12	18.34	
2025-01-10 11:34:36.23	168.12	18.37	
2025-01-10 11:34:36.44	168.13	18.39	
2025-01-10 11:34:36.64	168.13	18.42	
2025-01-10 11:34:36.84	168.14	18.45	
2025-01-10 11:34:37.05	168.15	18.48	
2025-01-10 11:34:37.25	168.15	18.50	
2025-01-10 11:34:37.46	168.16	18.53	
2025-01-10 11:34:37.66	168.17	18.56	
2025-01-10 11:34:37.87	168.17	18.59	
2025-01-10 11:34:38.07	168.18	18.62	
2025-01-10 11:34:38.28	168.18	18.65	
2025-01-10 11:34:38.48	168.19	18.67	
2025-01-10 11:34:38.69	168.20	18.70	
2025-01-10 11:34:38.89	168.20	18.73	
2025-01-10 11:34:39.10	168.21	18.76	
2025-01-10 11:34:39.30	168.22	18.79	
2025-01-10 11:34:39.51	168.22	18.81	
2025-01-10 11:34:39.71	168.23	18.84	
2025-01-10 11:34:39.92	168.23	18.87	
2025-01-10 11:34:40.12	168.24	18.90	
2025-01-10 11:34:40.33	168.25	18.93	
2025-01-10 11:34:40.54	168.25	18.96	
2025-01-10 11:34:40.74	168.26	18.99	
2025-01-10 11:34:40.95	168.27	19.02	
2025-01-10 11:34:41.15	168.27	19.04	
2025-01-10 11:34:41.36	168.28	19.07	
2025-01-10 11:34:41.56	168.29	19.10	
2025-01-10 11:34:41.76	168.29	19.13	
2025-01-10 11:34:41.97	168.30	19.16	
2025-01-10 11:34:42.17	168.30	19.19	
2025-01-10 11:34:42.38	168.31	19.22	
2025-01-10 11:34:42.59	168.32	19.25	
2025-01-10 11:34:42.79	168.32	19.27	
2025-01-10 11:34:43.00	168.33	19.30	
2025-01-10 11:34:43.20	168.34	19.33	
2025-01-10 11:34:43.41	168.34	19.36	
2025-01-10 11:34:43.62	168.35	19.39	
2025-01-10 11:34:43.82	168.36	19.42	
2025-01-10 11:34:44.02	168.36	19.45	
2025-01-10 11:34:44.23	168.37	19.48	
2025-01-10 11:34:44.43	168.38	19.51	
2025-01-10 11:34:44.64	168.38	19.54	
2025-01-10 11:34:44.85	168.39	19.57	
2025-01-10 11:34:45.05	168.40	19.60	
2025-01-10 11:34:45.26	168.40	19.63	
2025-01-10 11:34:45.46	168.41	19.65	
2025-01-10 11:34:45.67	168.42	19.68	
2025-01-10 11:34:45.87	168.42	19.71	
2025-01-10 11:34:46.09	168.43	19.74	
2025-01-10 11:34:46.29	168.44	19.77	
2025-01-10 11:34:46.50	168.44	19.80	
2025-01-10 11:34:46.71	168.45	19.83	
2025-01-10 11:34:46.91	168.46	19.86	
2025-01-10 11:34:47.12	168.46	19.89	
2025-01-10 11:34:47.32	168.47	19.92	
2025-01-10 11:34:47.53	168.48	19.95	
2025-01-10 11:34:47.73	168.48	19.98	
2025-01-10 11:34:47.94	168.49	20.01	
2025-01-10 11:34:48.14	168.50	20.04	
2025-01-10 11:34:48.35	168.50	20.07	
2025-01-10 11:34:48.55	168.51	20.10	
2025-01-10 11:34:48.76	168.52	20.13	
2025-01-10 11:34:48.97	168.52	20.16	
2025-01-10 11:34:49.17	168.53	20.19	
2025-01-10 11:34:49.38	168.54	20.22	
2025-01-10 11:34:49.58	168.54	20.25	
2025-01-10 11:34:49.78	168.55	20.28	
2025-01-10 11:34:49.99	168.56	20.31	
2025-01-10 11:34:50.20	168.56	20.35	
2025-01-10 11:34:50.40	168.57	20.37	
2025-01-10 11:34:50.61	168.58	20.41	
2025-01-10 11:34:50.81	168.59	20.44	
2025-01-10 11:34:51.02	168.59	20.47	
2025-01-10 11:34:51.22	168.60	20.50	
2025-01-10 11:34:51.43	168.61	20.53	
2025-01-10 11:34:51.63	168.61	20.56	
2025-01-10 11:34:51.84	168.62	20.59	
2025-01-10 11:34:52.04	168.63	20.62	
2025-01-10 11:34:52.25	168.63	20.65	
2025-01-10 11:34:52.45	168.64	20.68	
2025-01-10 11:34:52.66	168.65	20.71	
2025-01-10 11:34:52.86	168.66	20.74	
2025-01-10 11:34:53.07	168.66	20.77	
2025-01-10 11:34:53.27	168.67	20.80	
2025-01-10 11:34:53.48	168.68	20.84	
2025-01-10 11:34:53.68	168.68	20.87	
2025-01-10 11:34:53.89	168.69	20.90	
2025-01-10 11:34:54.09	168.70	20.93	
2025-01-10 11:34:54.30	168.71	20.96	
2025-01-10 11:34:54.50	168.71	20.99	
2025-01-10 11:34:54.71	168.72	21.02	
2025-01-10 11:34:54.91	168.73	21.05	
2025-01-10 11:34:55.12	168.73	21.09	
2025-01-10 11:34:55.33	168.74	21.12	
2025-01-10 11:34:55.53	168.75	21.15	
2025-01-10 11:34:55.74	168.76	21.18	
2025-01-10 11:34:55.94	168.76	21.21	
2025-01-10 11:34:56.15	168.77	21.24	
2025-01-10 11:34:56.35	168.78	21.27	
2025-01-10 11:34:56.56	168.79	21.31	
2025-01-10 11:34:56.76	168.79	21.34	
2025-01-10 11:34:56.97	168.80	21.37	
2025-01-10 11:34:57.18	168.81	21.40	
2025-01-10 11:34:57.38	168.81	21.43	
2025-01-10 11:34:57.59	168.82	21.47	
2025-01-10 11:34:57.79	168.83	21.50	
2025-01-10 11:34:57.99	168.84	21.53	
2025-01-10 11:34:58.20	168.84	21.56	
2025-01-10 11:34:58.41	168.85	21.59	
2025-01-10 11:34:58.61	168.86	21.62	
2025-01-10 11:34:58.81	168.87	21.66	
2025-01-10 11:34:59.02	168.87	21.69	
2025-01-10 11:34:59.23	168.88	21.72	
2025-01-10 11:34:59.43	168.89	21.75	
2025-01-10 11:34:59.63	168.90	21.78	
2025-01-10 11:34:59.84	168.90	21.82	
2025-01-10 11:35:00.04	168.91	21.85	
2025-01-10 11:35:00.26	168.92	21.88	
2025-01-10 11:35:00.47	168.93	21.92	
2025-01-10 11:35:00.67	168.94	21.95	
2025-01-10 11:35:00.88	168.94	21.98	
2025-01-10 11:35:01.09	168.95	22.02	
2025-01-10 11:35:01.29	168.96	22.05	
2025-01-10 11:35:01.50	168.97	22.08	
2025-01-10 11:35:01.70	168.97	22.11	
2025-01-10 11:35:01.91	168.98	22.15	
2025-01-10 11:35:02.11	168.99	22.18	
2025-01-10 11:35:02.32	169.00	22.21	
2025-01-10 11:35:02.52	169.00	22.24	
2025-01-10 11:35:02.73	169.01	22.28	
2025-01-10 11:35:02.94	169.02	22.31	
2025-01-10 11:35:03.14	169.03	22.34	
2025-01-10 11:35:03.35	169.04	22.38	
2025-01-10 11:35:03.55	169.04	22.41	
2025-01-10 11:35:03.76	169.05	22.44	
2025-01-10 11:35:03.96	169.06	22.48	
2025-01-10 11:35:04.16	169.07	22.51	
2025-01-10 11:35:04.37	169.08	22.54	
2025-01-10 11:35:04.58	169.08	22.58	
2025-01-10 11:35:04.78	169.09	22.61	
2025-01-10 11:35:04.99	169.10	22.64	
2025-01-10 11:35:05.19	169.11	22.68	
2025-01-10 11:35:05.40	169.11	22.71	
2025-01-10 11:35:05.61	169.12	22.75	
2025-01-10 11:35:05.81	169.13	22.78	
2025-01-10 11:35:06.02	169.14	22.81	
2025-01-10 11:35:06.22	169.15	22.85	
2025-01-10 11:35:06.43	169.16	22.88	
2025-01-10 11:35:06.63	169.16	22.91	
2025-01-10 11:35:06.84	169.17	22.95	
2025-01-10 11:35:07.05	169.18	22.98	
2025-01-10 11:35:07.25	169.19	23.02	
2025-01-10 11:35:07.46	169.20	23.05	
2025-01-10 11:35:07.66	169.20	23.08	
2025-01-10 11:35:07.87	169.21	23.12	
2025-01-10 11:35:08.07	169.22	23.15	
2025-01-10 11:35:08.28	169.23	23.19	
2025-01-10 11:35:08.48	169.24	23.22	
2025-01-10 11:35:08.69	169.25	23.26	
2025-01-10 11:35:08.89	169.25	23.29	
2025-01-10 11:35:09.10	169.26	23.32	
2025-01-10 11:35:09.30	169.27	23.36	
2025-01-10 11:35:09.51	169.28	23.39	
2025-01-10 11:35:09.71	169.29	23.43	
2025-01-10 11:35:09.92	169.29	23.46	
2025-01-10 11:35:10.12	169.30	23.50	
2025-01-10 11:35:10.33	169.31	23.53	
2025-01-10 11:35:10.53	169.32	23.57	
2025-01-10 11:35:10.74	169.33	23.60	
2025-01-10 11:35:10.94	169.34	23.64	
2025-01-10 11:35:11.15	169.35	23.67	
2025-01-10 11:35:11.35	169.35	23.71	
2025-01-10 11:35:11.56	169.36	23.74	
2025-01-10 11:35:11.76	169.37	23.78	
2025-01-10 11:35:11.97	169.38	23.81	
2025-01-10 11:35:12.17	169.39	23.85	
2025-01-10 11:35:12.38	169.40	23.88	
2025-01-10 11:35:12.58	169.40	23.92	
2025-01-10 11:35:12.79	169.41	23.95	
2025-01-10 11:35:13.00	169.42	23.99	
2025-01-10 11:35:13.20	169.43	24.02	
2025-01-10 11:35:13.41	169.44	24.06	
2025-01-10 11:35:13.61	169.45	24.09	
2025-01-10 11:35:13.82	169.46	24.13	
2025-01-10 11:35:14.02	169.47	24.17	
2025-01-10 11:35:14.23	169.47	24.20	
2025-01-10 11:35:14.43	169.48	24.24	
2025-01-10 11:35:14.64	169.49	24.27	
2025-01-10 11:35:14.84	169.50	24.31	
2025-01-10 11:35:15.05	169.51	24.35	
2025-01-10 11:35:15.25	169.52	24.38	
2025-01-10 11:35:15.46	169.53	24.42	
2025-01-10 11:35:15.66	169.54	24.45	
2025-01-10 11:35:15.87	169.54	24.49	
2025-01-10 11:35:16.07	169.55	24.52	
2025-01-10 11:35:16.28	169.56	24.56	
2025-01-10 11:35:16.49	169.57	24.60	
2025-01-10 11:35:16.69	169.58	24.63	
2025-01-10 11:35:16.90	169.59	24.67	
2025-01-10 11:35:17.10	169.60	24.71	
2025-01-10 11:35:17.31	169.61	24.74	
2025-01-10 11:35:17.51	169.62	24.78	
2025-01-10 11:35:17.72	169.63	24.82	
2025-01-10 11:35:17.93	169.64	24.86	
2025-01-10 11:35:18.13	169.64	24.89	
2025-01-10 11:35:18.34	169.65	24.93	
2025-01-10 11:35:18.54	169.66	24.96	
2025-01-10 11:35:18.75	169.67	25.00	
2025-01-10 11:35:18.95	169.68	25.04	
2025-01-10 11:35:19.16	169.69	25.08	
2025-01-10 11:35:19.37	169.70	25.11	
2025-01-10 11:35:19.57	169.71	25.15	
2025-01-10 11:35:19.78	169.72	25.19	
2025-01-10 11:35:19.98	169.73	25.22	
2025-01-10 11:35:20.18	169.74	25.26	
2025-01-10 11:35:20.39	169.75	25.30	
2025-01-10 11:35:20.60	169.76	25.34	
2025-01-10 11:35:20.80	169.76	25.37	
2025-01-10 11:35:21.01	169.77	25.41	
2025-01-10 11:35:21.21	169.78	25.45	
2025-01-10 11:35:21.42	169.79	25.49	
2025-01-10 11:35:21.63	169.80	25.53	
2025-01-10 11:35:21.83	169.81	25.56	
2025-01-10 11:35:22.04	169.82	25.60	
2025-01-10 11:35:22.24	169.83	25.64	
2025-01-10 11:35:22.45	169.84	25.68	
2025-01-10 11:35:22.65	169.85	25.71	
2025-01-10 11:35:22.86	169.86	25.75	
2025-01-10 11:35:23.06	169.87	25.79	
2025-01-10 11:35:23.27	169.88	25.83	
2025-01-10 11:35:23.47	169.89	25.87	
2025-01-10 11:35:23.68	169.90	25.91	
2025-01-10 11:35:23.88	169.91	25.94	
2025-01-10 11:35:24.09	169.92	25.98	
2025-01-10 11:35:24.29	169.93	26.02	
2025-01-10 11:35:24.50	169.94	26.06	
2025-01-10 11:35:24.70	169.95	26.10	
2025-01-10 11:35:24.91	169.96	26.14	
2025-01-10 11:35:25.11	169.97	26.17	
2025-01-10 11:35:25.32	169.98	26.21	
2025-01-10 11:35:25.54	169.99	26.25	
2025-01-10 11:35:25.74	170.00	26.29	
2025-01-10 11:35:25.95	170.01	26.33	
2025-01-10 11:35:26.16	170.02	26.37	
2025-01-10 11:35:26.36	170.03	26.41	
2025-01-10 11:35:26.57	170.04	26.45	
2025-01-10 11:35:26.77	170.05	26.49	
2025-01-10 11:35:26.98	170.06	26.53	
2025-01-10 11:35:27.18	170.07	26.57	
2025-01-10 11:35:27.39	170.08	26.61	
2025-01-10 11:35:27.59	170.09	26.65	
2025-01-10 11:35:27.80	170.10	26.69	
2025-01-10 11:35:28.00	170.11	26.72	
2025-01-10 11:35:28.21	170.12	26.77	
2025-01-10 11:35:28.41	170.13	26.80	
2025-01-10 11:35:28.62	170.14	26.84	
2025-01-10 11:35:28.82	170.15	26.88	
2025-01-10 11:35:29.03	170.16	26.92	
2025-01-10 11:35:29.23	170.17	26.96	
2025-01-10 11:35:29.44	170.18	27.00	
2025-01-10 11:35:29.64	170.19	27.04	
2025-01-10 11:35:29.85	170.20	27.08	
2025-01-10 11:35:30.05	170.21	27.12	
2025-01-10 11:35:30.25	170.22	27.16	
2025-01-10 11:35:30.46	170.23	27.20	
2025-01-10 11:35:30.66	170.24	27.24	
2025-01-10 11:35:30.87	170.25	27.28	
2025-01-10 11:35:31.07	170.26	27.32	
2025-01-10 11:35:31.28	170.27	27.36	
2025-01-10 11:35:31.48	170.28	27.40	
2025-01-10 11:35:31.69	170.30	27.45	
2025-01-10 11:35:31.89	170.31	27.49	
2025-01-10 11:35:32.10	170.32	27.53	
2025-01-10 11:35:32.30	170.33	27.57	
2025-01-10 11:35:32.51	170.34	27.61	
2025-01-10 11:35:32.71	170.35	27.65	
2025-01-10 11:35:32.92	170.36	27.69	
2025-01-10 11:35:33.12	170.37	27.73	
2025-01-10 11:35:33.33	170.38	27.77	
2025-01-10 11:35:33.53	170.39	27.81	
2025-01-10 11:35:33.74	170.40	27.86	
2025-01-10 11:35:33.94	170.41	27.90	
2025-01-10 11:35:34.15	170.42	27.94	
2025-01-10 11:35:34.35	170.44	27.98	
2025-01-10 11:35:34.56	170.45	28.02	
2025-01-10 11:35:34.77	170.46	28.06	
2025-01-10 11:35:34.97	170.47	28.10	
2025-01-10 11:35:35.18	170.48	28.15	
2025-01-10 11:35:35.38	170.49	28.19	
2025-01-10 11:35:35.59	170.50	28.23	
2025-01-10 11:35:35.80	170.51	28.27	
2025-01-10 11:35:36.00	170.52	28.31	
2025-01-10 11:35:36.22	170.54	28.36	
2025-01-10 11:35:36.42	170.55	28.40	
2025-01-10 11:35:36.63	170.56	28.44	
2025-01-10 11:35:36.84	170.57	28.49	
2025-01-10 11:35:37.04	170.58	28.53	
2025-01-10 11:35:37.24	170.59	28.57	
2025-01-10 11:35:37.45	170.60	28.61	
2025-01-10 11:35:37.66	170.62	28.66	
2025-01-10 11:35:37.86	170.63	28.70	
2025-01-10 11:35:38.07	170.64	28.74	
2025-01-10 11:35:38.27	170.65	28.78	
2025-01-10 11:35:38.48	170.66	28.83	
2025-01-10 11:35:38.68	170.67	28.87	
2025-01-10 11:35:38.88	170.69	28.91	
2025-01-10 11:35:39.09	170.70	28.95	
2025-01-10 11:35:39.30	170.71	29.00	
2025-01-10 11:35:39.50	170.72	29.04	
2025-01-10 11:35:39.71	170.73	29.09	
2025-01-10 11:35:39.91	170.74	29.13	
2025-01-10 11:35:40.12	170.76	29.17	
2025-01-10 11:35:40.32	170.77	29.21	
2025-01-10 11:35:40.52	170.78	29.26	
2025-01-10 11:35:40.73	170.79	29.30	
2025-01-10 11:35:40.93	170.80	29.34	
2025-01-10 11:35:41.14	170.82	29.39	
2025-01-10 11:35:41.34	170.83	29.43	
2025-01-10 11:35:41.55	170.84	29.48	
2025-01-10 11:35:41.75	170.85	29.52	
2025-01-10 11:35:41.96	170.86	29.56	
2025-01-10 11:35:42.16	170.88	29.61	
2025-01-10 11:35:42.37	170.89	29.65	
2025-01-10 11:35:42.57	170.90	29.70	
2025-01-10 11:35:42.78	170.91	29.74	
2025-01-10 11:35:42.99	170.92	29.79	
2025-01-10 11:35:43.19	170.94	29.83	
2025-01-10 11:35:43.40	170.95	29.88	
2025-01-10 11:35:43.61	170.96	29.92	
2025-01-10 11:35:43.81	170.97	29.96	
2025-01-10 11:35:44.02	170.99	30.01	
2025-01-10 11:35:44.22	171.00	30.05	
2025-01-10 11:35:44.43	171.01	30.10	
2025-01-10 11:35:44.63	171.02	30.14	
2025-01-10 11:35:44.83	171.04	30.19	
2025-01-10 11:35:45.04	171.05	30.23	
2025-01-10 11:35:45.25	171.06	30.28	
2025-01-10 11:35:45.45	171.07	30.32	
2025-01-10 11:35:45.66	171.09	30.37	
2025-01-10 11:35:45.86	171.10	30.41	
2025-01-10 11:35:46.07	171.11	30.46	
2025-01-10 11:35:46.27	171.12	30.51	
2025-01-10 11:35:46.48	171.14	30.55	
2025-01-10 11:35:46.69	171.15	30.60	
2025-01-10 11:35:46.89	171.16	30.64	
2025-01-10 11:35:47.09	171.18	30.69	
2025-01-10 11:35:47.30	171.19	30.74	
2025-01-10 11:35:47.51	171.20	30.78	
2025-01-10 11:35:47.71	171.22	30.83	
2025-01-10 11:35:47.92	171.23	30.88	
2025-01-10 11:35:48.13	171.24	30.92	
2025-01-10 11:35:48.33	171.25	30.97	
2025-01-10 11:35:48.54	171.27	31.02	
2025-01-10 11:35:48.74	171.28	31.06	
2025-01-10 11:35:48.95	171.29	31.11	
2025-01-10 11:35:49.15	171.31	31.15	
2025-01-10 11:35:49.36	171.32	31.20	
2025-01-10 11:35:49.56	171.33	31.25	
2025-01-10 11:35:49.76	171.35	31.29	
2025-01-10 11:35:49.97	171.36	31.34	
2025-01-10 11:35:50.17	171.37	31.39	
2025-01-10 11:35:50.38	171.39	31.43	
2025-01-10 11:35:50.59	171.40	31.48	
2025-01-10 11:35:50.79	171.42	31.53	
2025-01-10 11:35:50.99	171.43	31.58	
2025-01-10 11:35:51.21	171.44	31.63	
2025-01-10 11:35:51.42	171.46	31.67	
2025-01-10 11:35:51.62	171.47	31.72	
2025-01-10 11:35:51.83	171.48	31.77	
2025-01-10 11:35:52.03	171.50	31.82	
2025-01-10 11:35:52.23	171.51	31.86	
2025-01-10 11:35:52.44	171.53	31.91	
2025-01-10 11:35:52.65	171.54	31.96	
2025-01-10 11:35:52.85	171.55	32.01	
2025-01-10 11:35:53.06	171.57	32.06	
2025-01-10 11:35:53.26	171.58	32.10	
2025-01-10 11:35:53.47	171.60	32.15	
2025-01-10 11:35:53.68	171.61	32.20	
2025-01-10 11:35:53.88	171.62	32.25	
2025-01-10 11:35:54.09	171.64	32.30	
2025-01-10 11:35:54.29	171.65	32.35	
2025-01-10 11:35:54.50	171.67	32.40	
2025-01-10 11:35:54.70	171.68	32.45	
2025-01-10 11:35:54.91	171.70	32.50	
2025-01-10 11:35:55.11	171.71	32.54	
2025-01-10 11:35:55.32	171.73	32.59	
2025-01-10 11:35:55.52	171.74	32.64	
2025-01-10 11:35:55.73	171.75	32.69	
2025-01-10 11:35:55.93	171.77	32.74	
2025-01-10 11:35:56.14	171.78	32.79	
2025-01-10 11:35:56.35	171.80	32.84	
2025-01-10 11:35:56.55	171.81	32.89	
2025-01-10 11:35:56.75	171.83	32.94	
2025-01-10 11:35:56.96	171.84	32.99	
2025-01-10 11:35:57.17	171.86	33.04	
2025-01-10 11:35:57.37	171.87	33.09	
2025-01-10 11:35:57.58	171.89	33.14	
2025-01-10 11:35:57.78	171.90	33.19	
2025-01-10 11:35:57.99	171.92	33.24	
2025-01-10 11:35:58.19	171.93	33.29	
2025-01-10 11:35:58.40	171.95	33.34	
2025-01-10 11:35:58.60	171.96	33.39	
2025-01-10 11:35:58.80	171.98	33.44	
2025-01-10 11:35:59.01	171.99	33.49	
2025-01-10 11:35:59.22	172.01	33.54	
2025-01-10 11:35:59.42	172.02	33.59	
2025-01-10 11:35:59.63	172.04	33.64	
2025-01-10 11:35:59.83	172.06	33.69	
2025-01-10 11:36:00.04	172.07	33.75	
2025-01-10 11:36:00.24	172.09	33.80	
2025-01-10 11:36:00.45	172.10	33.85	
2025-01-10 11:36:00.66	172.12	33.90	
2025-01-10 11:36:00.86	172.13	33.95	
2025-01-10 11:36:01.07	172.15	34.00	
2025-01-10 11:36:01.27	172.17	34.05	
2025-01-10 11:36:01.48	172.18	34.11	
2025-01-10 11:36:01.68	172.20	34.16	
2025-01-10 11:36:01.89	172.21	34.21	
2025-01-10 11:36:02.09	172.23	34.26	
2025-01-10 11:36:02.30	172.25	34.31	
2025-01-10 11:36:02.50	172.26	34.37	
2025-01-10 11:36:02.71	172.28	34.42	
2025-01-10 11:36:02.93	172.30	34.47	
2025-01-10 11:36:03.13	172.31	34.53	
2025-01-10 11:36:03.33	172.33	34.58	
2025-01-10 11:36:03.54	172.34	34.63	
2025-01-10 11:36:03.75	172.36	34.68	
2025-01-10 11:36:03.95	172.38	34.74	
2025-01-10 11:36:04.16	172.39	34.79	
2025-01-10 11:36:04.36	172.41	34.84	
2025-01-10 11:36:04.57	172.43	34.90	
2025-01-10 11:36:04.77	172.44	34.95	
2025-01-10 11:36:04.98	172.46	35.00	
2025-01-10 11:36:05.18	172.48	35.05	
2025-01-10 11:36:05.39	172.49	35.11	
2025-01-10 11:36:05.59	172.51	35.16	
2025-01-10 11:36:05.80	172.53	35.22	
2025-01-10 11:36:06.00	172.54	35.27	
2025-01-10 11:36:06.22	172.56	35.33	
2025-01-10 11:36:06.43	172.58	35.38	
2025-01-10 11:36:06.63	172.60	35.43	
2025-01-10 11:36:06.84	172.61	35.49	
2025-01-10 11:36:07.04	172.63	35.54	
2025-01-10 11:36:07.25	172.65	35.60	
2025-01-10 11:36:07.45	172.67	35.65	
2025-01-10 11:36:07.65	172.68	35.70	
2025-01-10 11:36:07.86	172.70	35.76	
2025-01-10 11:36:08.06	172.72	35.81	
2025-01-10 11:36:08.27	172.74	35.87	
2025-01-10 11:36:08.47	172.75	35.92	
2025-01-10 11:36:08.68	172.77	35.98	
2025-01-10 11:36:08.88	172.79	36.03	
2025-01-10 11:36:09.09	172.81	36.09	
2025-01-10 11:36:09.29	172.82	36.14	
2025-01-10 11:36:09.49	172.84	36.20	
2025-01-10 11:36:09.70	172.86	36.25	
2025-01-10 11:36:09.91	172.88	36.31	
2025-01-10 11:36:10.11	172.90	36.36	
2025-01-10 11:36:10.32	172.92	36.42	
2025-01-10 11:36:10.54	172.93	36.48	
2025-01-10 11:36:10.74	172.95	36.54	
2025-01-10 11:36:10.95	172.97	36.59	
2025-01-10 11:36:11.15	172.99	36.65	
2025-01-10 11:36:11.36	173.01	36.70	
2025-01-10 11:36:11.56	173.03	36.76	
2025-01-10 11:36:11.77	173.05	36.82	
2025-01-10 11:36:11.98	173.06	36.88	
2025-01-10 11:36:12.18	173.08	36.93	
2025-01-10 11:36:12.39	173.10	36.99	
2025-01-10 11:36:12.61	173.12	37.05	
2025-01-10 11:36:12.81	173.14	37.10	
2025-01-10 11:36:13.02	173.16	37.16	
2025-01-10 11:36:13.22	173.18	37.22	
2025-01-10 11:36:13.43	173.20	37.28	
2025-01-10 11:36:13.63	173.22	37.33	
2025-01-10 11:36:13.84	173.24	37.39	
2025-01-10 11:36:14.04	173.26	37.45	
2025-01-10 11:36:14.25	173.28	37.51	
2025-01-10 11:36:14.46	173.30	37.57	
2025-01-10 11:36:14.66	173.32	37.62	
2025-01-10 11:36:14.86	173.33	37.68	
2025-01-10 11:36:15.07	173.35	37.74	
2025-01-10 11:36:15.27	173.37	37.80	
2025-01-10 11:36:15.48	173.39	37.85	
2025-01-10 11:36:15.68	173.41	37.91	
2025-01-10 11:36:15.89	173.43	37.97	
2025-01-10 11:36:16.09	173.45	38.03	
2025-01-10 11:36:16.30	173.47	38.09	
2025-01-10 11:36:16.50	173.49	38.15	
2025-01-10 11:36:16.71	173.52	38.21	
2025-01-10 11:36:16.91	173.53	38.26	
2025-01-10 11:36:17.12	173.56	38.32	
2025-01-10 11:36:17.32	173.58	38.38	
2025-01-10 11:36:17.53	173.60	38.44	
2025-01-10 11:36:17.73	173.62	38.50	
2025-01-10 11:36:17.94	173.64	38.56	
2025-01-10 11:36:18.15	173.66	38.62	
2025-01-10 11:36:18.35	173.68	38.68	
2025-01-10 11:36:18.56	173.70	38.74	
2025-01-10 11:36:18.76	173.72	38.80	
2025-01-10 11:36:18.97	173.74	38.86	
2025-01-10 11:36:19.17	173.76	38.92	
2025-01-10 11:36:19.38	173.79	38.98	
2025-01-10 11:36:19.59	173.81	39.04	
2025-01-10 11:36:19.79	173.83	39.10	
2025-01-10 11:36:20.00	173.85	39.16	
2025-01-10 11:36:20.20	173.87	39.22	
2025-01-10 11:36:20.41	173.89	39.29	
2025-01-10 11:36:20.61	173.91	39.35	
2025-01-10 11:36:20.81	173.94	39.40	
2025-01-10 11:36:21.02	173.96	39.47	
2025-01-10 11:36:21.22	173.98	39.53	
2025-01-10 11:36:21.43	174.00	39.59	
2025-01-10 11:36:21.63	174.02	39.65	
2025-01-10 11:36:21.84	174.05	39.71	
2025-01-10 11:36:22.04	174.07	39.77	
2025-01-10 11:36:22.26	174.09	39.84	
2025-01-10 11:36:22.47	174.12	39.90	
2025-01-10 11:36:22.67	174.14	39.96	
2025-01-10 11:36:22.88	174.16	40.03	
2025-01-10 11:36:23.09	174.18	40.09	
2025-01-10 11:36:23.29	174.21	40.15	
2025-01-10 11:36:23.49	174.23	40.21	
2025-01-10 11:36:23.70	174.25	40.28	
2025-01-10 11:36:23.91	174.28	40.34	
2025-01-10 11:36:24.11	174.30	40.40	
2025-01-10 11:36:24.33	174.32	40.47	
2025-01-10 11:36:24.53	174.35	40.53	
2025-01-10 11:36:24.74	174.37	40.59	
2025-01-10 11:36:24.95	174.39	40.66	
2025-01-10 11:36:25.15	174.42	40.72	
2025-01-10 11:36:25.36	174.44	40.79	
2025-01-10 11:36:25.56	174.46	40.85	
2025-01-10 11:36:25.77	174.49	40.91	
2025-01-10 11:36:25.97	174.51	40.98	
2025-01-10 11:36:26.18	174.54	41.04	
2025-01-10 11:36:26.38	174.56	41.10	
2025-01-10 11:36:26.59	174.59	41.17	
2025-01-10 11:36:26.79	174.61	41.23	
2025-01-10 11:36:27.00	174.63	41.30	
2025-01-10 11:36:27.20	174.66	41.36	
2025-01-10 11:36:27.41	174.68	41.43	
2025-01-10 11:36:27.61	174.71	41.49	
2025-01-10 11:36:27.82	174.73	41.56	
2025-01-10 11:36:28.02	174.76	41.62	
2025-01-10 11:36:28.23	174.78	41.69	
2025-01-10 11:36:28.44	174.81	41.75	
2025-01-10 11:36:28.65	174.83	41.82	
2025-01-10 11:36:28.86	174.86	41.89	
2025-01-10 11:36:29.06	174.89	41.95	
2025-01-10 11:36:29.27	174.91	42.02	
2025-01-10 11:36:29.47	174.94	42.08	
2025-01-10 11:36:29.68	174.96	42.15	
2025-01-10 11:36:29.89	174.99	42.22	
2025-01-10 11:36:30.09	175.01	42.28	
2025-01-10 11:36:30.30	175.04	42.35	
2025-01-10 11:36:30.50	175.07	42.41	
2025-01-10 11:36:30.71	175.09	42.48	
2025-01-10 11:36:30.91	175.12	42.55	
2025-01-10 11:36:31.12	175.15	42.61	
2025-01-10 11:36:31.32	175.17	42.68	
2025-01-10 11:36:31.53	175.20	42.75	
2025-01-10 11:36:31.73	175.23	42.81	
2025-01-10 11:36:31.94	175.25	42.88	
2025-01-10 11:36:32.14	175.28	42.95	
2025-01-10 11:36:32.35	175.31	43.02	
2025-01-10 11:36:32.56	175.34	43.09	
2025-01-10 11:36:32.76	175.36	43.15	
2025-01-10 11:36:32.97	175.39	43.22	
2025-01-10 11:36:33.17	175.42	43.29	
2025-01-10 11:36:33.38	175.45	43.36	
2025-01-10 11:36:33.58	175.47	43.42	
2025-01-10 11:36:33.79	175.50	43.49	
2025-01-10 11:36:33.99	175.53	43.56	
2025-01-10 11:36:34.20	175.56	43.63	
2025-01-10 11:36:34.40	175.59	43.70	
2025-01-10 11:36:34.61	175.61	43.77	
2025-01-10 11:36:34.81	175.64	43.83	
2025-01-10 11:36:35.02	175.67	43.90	
2025-01-10 11:36:35.23	175.70	43.98	
2025-01-10 11:36:35.43	175.73	44.04	
2025-01-10 11:36:35.64	175.76	44.11	
2025-01-10 11:36:35.84	175.79	44.18	
2025-01-10 11:36:36.04	175.82	44.25	
2025-01-10 11:36:36.25	175.85	44.32	
2025-01-10 11:36:36.46	175.88	44.39	
2025-01-10 11:36:36.66	175.91	44.46	
2025-01-10 11:36:36.87	175.94	44.53	
2025-01-10 11:36:37.07	175.97	44.60	
2025-01-10 11:36:37.27	175.99	44.67	
2025-01-10 11:36:37.48	176.03	44.74	
2025-01-10 11:36:37.68	176.05	44.81	
2025-01-10 11:36:37.89	176.09	44.88	
2025-01-10 11:36:38.10	176.12	44.96	
2025-01-10 11:36:38.30	176.15	45.02	
2025-01-10 11:36:38.50	176.18	45.09	
2025-01-10 11:36:38.71	176.21	45.17	
2025-01-10 11:36:38.91	176.24	45.24	
2025-01-10 11:36:39.12	176.27	45.31	
2025-01-10 11:36:39.32	176.30	45.38	
2025-01-10 11:36:39.53	176.33	45.45	
2025-01-10 11:36:39.73	176.37	45.52	
2025-01-10 11:36:39.94	176.40	45.60	
2025-01-10 11:36:40.14	176.43	45.67	
2025-01-10 11:36:40.35	176.46	45.74	
2025-01-10 11:36:40.55	176.49	45.81	
2025-01-10 11:36:40.76	176.53	45.88	
2025-01-10 11:36:40.96	176.56	45.96	
2025-01-10 11:36:41.17	176.59	46.03	
2025-01-10 11:36:41.37	176.62	46.10	
2025-01-10 11:36:41.58	176.66	46.18	
2025-01-10 11:36:41.79	176.69	46.25	
2025-01-10 11:36:41.99	176.72	46.32	
2025-01-10 11:36:42.20	176.76	46.40	
2025-01-10 11:36:42.40	176.79	46.47	
2025-01-10 11:36:42.61	176.83	46.54	
2025-01-10 11:36:42.81	176.86	46.62	
2025-01-10 11:36:43.02	176.89	46.69	
2025-01-10 11:36:43.22	176.93	46.76	
2025-01-10 11:36:43.43	176.96	46.84	
2025-01-10 11:36:43.64	177.00	46.91	
2025-01-10 11:36:43.85	177.03	46.99	
2025-01-10 11:36:44.05	177.07	47.06	
2025-01-10 11:36:44.26	177.10	47.14	
2025-01-10 11:36:44.47	177.14	47.22	
2025-01-10 11:36:44.67	177.17	47.29	
2025-01-10 11:36:44.88	177.21	47.37	
2025-01-10 11:36:45.08	177.25	47.44	
2025-01-10 11:36:45.29	177.28	47.52	
2025-01-10 11:36:45.49	177.32	47.59	
2025-01-10 11:36:45.69	177.35	47.66	
2025-01-10 11:36:45.90	177.39	47.74	
2025-01-10 11:36:46.11	177.43	47.82	
2025-01-10 11:36:46.31	177.46	47.89	
2025-01-10 11:36:46.52	177.50	47.97	
2025-01-10 11:36:46.72	177.54	48.04	
2025-01-10 11:36:46.93	177.58	48.12	
2025-01-10 11:36:47.13	177.61	48.20	
2025-01-10 11:36:47.34	177.65	48.27	
2025-01-10 11:36:47.55	177.69	48.35	
2025-01-10 11:36:47.75	177.73	48.43	
2025-01-10 11:36:47.95	177.77	48.50	
2025-01-10 11:36:48.16	177.80	48.58	
2025-01-10 11:36:48.36	177.84	48.66	
2025-01-10 11:36:48.57	177.88	48.74	
2025-01-10 11:36:48.77	177.92	48.81	
2025-01-10 11:36:48.98	177.96	48.89	
2025-01-10 11:36:49.19	178.00	48.97	
2025-01-10 11:36:49.39	178.04	49.05	
2025-01-10 11:36:49.60	178.08	49.13	
2025-01-10 11:36:49.80	178.12	49.20	
2025-01-10 11:36:50.01	178.16	49.28	
2025-01-10 11:36:50.21	178.20	49.36	
2025-01-10 11:36:50.42	178.24	49.44	
2025-01-10 11:36:50.62	178.28	49.51	
2025-01-10 11:36:50.83	178.32	49.60	
2025-01-10 11:36:51.05	178.37	49.68	
2025-01-10 11:36:51.25	178.41	49.76	
2025-01-10 11:36:51.46	178.45	49.84	
2025-01-10 11:36:51.67	178.49	49.92	
2025-01-10 11:36:51.87	178.53	50.00	
2025-01-10 11:36:52.09	178.58	50.08	
2025-01-10 11:36:52.29	178.62	50.16	
2025-01-10 11:36:52.50	178.67	50.24	
2025-01-10 11:36:52.70	178.71	50.32	
2025-01-10 11:36:52.91	178.75	50.40	
2025-01-10 11:36:53.11	178.79	50.48	
2025-01-10 11:36:53.32	178.84	50.56	
2025-01-10 11:36:53.52	178.88	50.64	
2025-01-10 11:36:53.73	178.93	50.72	
2025-01-10 11:36:53.93	178.97	50.80	
2025-01-10 11:36:54.14	179.02	50.88	
2025-01-10 11:36:54.34	179.06	50.96	
2025-01-10 11:36:54.55	179.11	51.04	
2025-01-10 11:36:54.75	179.15	51.12	
2025-01-10 11:36:54.96	179.20	51.21	
2025-01-10 11:36:55.17	179.24	51.29	
2025-01-10 11:36:55.38	179.29	51.37	
2025-01-10 11:36:55.58	179.34	51.45	
2025-01-10 11:36:55.79	179.38	51.54	
2025-01-10 11:36:56.00	179.43	51.62	
2025-01-10 11:36:56.20	179.48	51.70	
2025-01-10 11:36:56.40	179.52	51.78	
2025-01-10 11:36:56.61	179.57	51.86	
2025-01-10 11:36:56.82	179.62	51.95	
2025-01-10 11:36:57.02	179.67	52.03	
2025-01-10 11:36:57.23	179.72	52.11	
2025-01-10 11:36:57.43	179.77	52.19	
2025-01-10 11:36:57.64	179.82	52.28	
2025-01-10 11:36:57.84	179.87	52.36	
2025-01-10 11:36:58.05	179.92	52.45	
2025-01-10 11:36:58.26	179.97	52.53	
2025-01-10 11:36:58.46	180.02	52.61	
2025-01-10 11:36:58.66	180.06	52.69	
2025-01-10 11:36:58.87	180.12	52.78	
2025-01-10 11:36:59.08	180.17	52.86	
2025-01-10 11:36:59.28	180.22	52.95	
2025-01-10 11:36:59.48	180.27	53.03	
2025-01-10 11:36:59.69	180.32	53.11	
2025-01-10 11:36:59.89	180.37	53.20	
2025-01-10 11:37:00.10	180.43	53.28	
2025-01-10 11:37:00.30	180.48	53.37	
2025-01-10 11:37:00.51	180.53	53.45	
2025-01-10 11:37:00.71	180.58	53.53	
2025-01-10 11:37:00.92	180.64	53.62	
2025-01-10 11:37:01.12	180.69	53.70	
2025-01-10 11:37:01.33	180.75	53.79	
2025-01-10 11:37:01.53	180.80	53.87	
2025-01-10 11:37:01.75	180.86	53.97	
2025-01-10 11:37:01.95	180.91	54.05	
2025-01-10 11:37:02.16	180.97	54.14	
2025-01-10 11:37:02.37	181.03	54.23	
2025-01-10 11:37:02.57	181.08	54.31	
2025-01-10 11:37:02.78	181.14	54.40	
2025-01-10 11:37:02.98	181.20	54.48	
2025-01-10 11:37:03.19	181.26	54.57	
2025-01-10 11:37:03.39	181.31	54.65	
2025-01-10 11:37:03.60	181.37	54.74	
2025-01-10 11:37:03.80	181.43	54.83	
2025-01-10 11:37:04.01	181.49	54.91	
2025-01-10 11:37:04.21	181.55	55.00	
2025-01-10 11:37:04.42	181.61	55.09	
2025-01-10 11:37:04.62	181.66	55.17	
2025-01-10 11:37:04.83	181.73	55.26	
2025-01-10 11:37:05.03	181.79	55.35	
2025-01-10 11:37:05.24	181.85	55.44	
2025-01-10 11:37:05.44	181.91	55.52	
2025-01-10 11:37:05.65	181.97	55.61	
2025-01-10 11:37:05.85	182.03	55.70	
2025-01-10 11:37:06.06	182.09	55.79	
2025-01-10 11:37:06.26	182.16	55.87	
2025-01-10 11:37:06.47	182.22	55.96	
2025-01-10 11:37:06.67	182.28	56.05	
2025-01-10 11:37:06.88	182.35	56.14	
2025-01-10 11:37:07.08	182.41	56.23	
2025-01-10 11:37:07.29	182.48	56.32	
2025-01-10 11:37:07.49	182.54	56.40	
2025-01-10 11:37:07.70	182.61	56.49	
2025-01-10 11:37:07.90	182.67	56.58	
2025-01-10 11:37:08.11	182.74	56.67	
2025-01-10 11:37:08.31	182.81	56.76	
2025-01-10 11:37:08.52	182.87	56.85	
2025-01-10 11:37:08.72	182.94	56.94	
2025-01-10 11:37:08.93	183.01	57.03	
2025-01-10 11:37:09.14	183.08	57.12	
2025-01-10 11:37:09.34	183.15	57.21	
2025-01-10 11:37:09.54	183.22	57.30	
2025-01-10 11:37:09.75	183.29	57.39	
2025-01-10 11:37:09.96	183.36	57.48	
2025-01-10 11:37:10.16	183.43	57.57	
2025-01-10 11:37:10.37	183.50	57.66	
2025-01-10 11:37:10.57	183.57	57.75	
2025-01-10 11:37:10.78	183.65	57.84	
2025-01-10 11:37:10.98	183.72	57.93	
2025-01-10 11:37:11.19	183.79	58.02	
2025-01-10 11:37:11.39	183.86	58.11	
2025-01-10 11:37:11.60	183.94	58.20	
2025-01-10 11:37:11.80	184.01	58.29	
2025-01-10 11:37:12.01	184.09	58.38	
2025-01-10 11:37:12.22	184.17	58.48	
2025-01-10 11:37:12.42	184.24	58.57	
2025-01-10 11:37:12.63	184.32	58.66	
2025-01-10 11:37:12.83	184.40	58.75	
2025-01-10 11:37:13.03	184.47	58.84	
2025-01-10 11:37:13.24	184.55	58.93	
2025-01-10 11:37:13.44	184.63	59.02	
2025-01-10 11:37:13.65	184.71	59.12	
2025-01-10 11:37:13.86	184.79	59.21	
2025-01-10 11:37:14.06	184.87	59.30	
2025-01-10 11:37:14.27	184.96	59.39	
2025-01-10 11:37:14.47	185.04	59.48	
2025-01-10 11:37:14.68	185.12	59.58	
2025-01-10 11:37:14.88	185.20	59.67	
2025-01-10 11:37:15.09	185.29	59.76	
2025-01-10 11:37:15.29	185.37	59.85	
2025-01-10 11:37:15.50	185.46	59.95	
2025-01-10 11:37:15.70	185.54	60.04	
2025-01-10 11:37:15.91	185.63	60.13	
2025-01-10 11:37:16.11	185.71	60.22	
2025-01-10 11:37:16.32	185.80	60.32	
2025-01-10 11:37:16.52	185.89	60.41	
2025-01-10 11:37:16.73	185.98	60.50	
2025-01-10 11:37:16.93	186.07	60.60	
2025-01-10 11:37:17.14	186.16	60.69	
2025-01-10 11:37:17.34	186.25	60.78	
2025-01-10 11:37:17.55	186.34	60.88	
2025-01-10 11:37:17.75	186.43	60.97	
2025-01-10 11:37:17.96	186.52	61.06	
2025-01-10 11:37:18.17	186.62	61.16	
2025-01-10 11:37:18.37	186.71	61.25	
2025-01-10 11:37:18.58	186.81	61.35	
2025-01-10 11:37:18.78	186.90	61.44	
2025-01-10 11:37:18.98	186.99	61.53	
2025-01-10 11:37:19.19	187.09	61.63	
2025-01-10 11:37:19.39	187.19	61.72	
2025-01-10 11:37:19.60	187.29	61.81	
2025-01-10 11:37:19.81	187.39	61.91	
2025-01-10 11:37:20.01	187.49	62.00	
2025-01-10 11:37:20.22	187.59	62.10	
2025-01-10 11:37:20.42	187.69	62.19	
2025-01-10 11:37:20.63	187.79	62.29	
2025-01-10 11:37:20.83	187.89	62.38	
2025-01-10 11:37:21.05	188.01	62.48	
2025-01-10 11:37:21.25	188.11	62.57	
2025-01-10 11:37:21.46	188.22	62.67	
2025-01-10 11:37:21.66	188.32	62.76	
2025-01-10 11:37:21.87	188.43	62.86	
2025-01-10 11:37:22.07	188.53	62.95	
2025-01-10 11:37:22.28	188.65	63.05	
2025-01-10 11:37:22.49	188.76	63.15	
2025-01-10 11:37:22.69	188.87	63.24	
2025-01-10 11:37:22.90	188.98	63.34	
2025-01-10 11:37:23.10	189.09	63.43	
2025-01-10 11:37:23.31	189.21	63.53	
2025-01-10 11:37:23.52	189.32	63.62	
2025-01-10 11:37:23.72	189.43	63.72	
2025-01-10 11:37:23.92	189.55	63.81	
2025-01-10 11:37:24.13	189.67	63.91	
2025-01-10 11:37:24.33	189.78	64.00	
2025-01-10 11:37:24.54	189.90	64.10	
2025-01-10 11:37:24.75	190.03	64.20	
2025-01-10 11:37:24.95	190.14	64.29	
2025-01-10 11:37:25.16	190.27	64.39	
2025-01-10 11:37:25.36	190.39	64.48	
2025-01-10 11:37:25.57	190.52	64.58	
2025-01-10 11:37:25.78	190.64	64.67	
2025-01-10 11:37:25.98	190.77	64.77	
2025-01-10 11:37:26.19	190.90	64.86	
2025-01-10 11:37:26.39	191.02	64.96	
2025-01-10 11:37:26.60	191.15	65.06	
2025-01-10 11:37:26.80	191.28	65.15	
2025-01-10 11:37:27.01	191.42	65.25	
2025-01-10 11:37:27.22	191.55	65.34	
2025-01-10 11:37:27.42	191.68	65.44	
2025-01-10 11:37:27.63	191.82	65.54	
2025-01-10 11:37:27.83	191.95	65.63	
2025-01-10 11:37:28.04	192.09	65.73	
2025-01-10 11:37:28.25	192.24	65.82	
2025-01-10 11:37:28.45	192.37	65.92	
2025-01-10 11:37:28.65	192.51	66.01	
2025-01-10 11:37:28.86	192.66	66.11	
2025-01-10 11:37:29.07	192.80	66.21	
2025-01-10 11:37:29.27	192.94	66.30	
2025-01-10 11:37:29.48	193.09	66.40	
2025-01-10 11:37:29.68	193.24	66.49	
2025-01-10 11:37:29.89	193.39	66.59	
2025-01-10 11:37:30.10	193.54	66.68	
2025-01-10 11:37:30.30	193.69	66.78	
2025-01-10 11:37:30.51	193.85	66.87	
2025-01-10 11:37:30.72	194.00	66.97	
2025-01-10 11:37:30.93	194.16	67.07	
2025-01-10 11:37:31.13	194.32	67.16	
2025-01-10 11:37:31.34	194.48	67.26	
2025-01-10 11:37:31.54	194.63	67.35	
2025-01-10 11:37:31.75	194.80	67.45	
2025-01-10 11:37:31.95	194.96	67.54	
2025-01-10 11:37:32.16	195.13	67.64	
2025-01-10 11:37:32.37	195.30	67.74	
2025-01-10 11:37:32.57	195.46	67.83	
2025-01-10 11:37:32.77	195.62	67.92	
2025-01-10 11:37:32.98	195.80	68.02	
2025-01-10 11:37:33.18	195.97	68.11	
2025-01-10 11:37:33.39	196.14	68.21	
2025-01-10 11:37:33.60	196.32	68.30	
2025-01-10 11:37:33.80	196.50	68.40	
2025-01-10 11:37:34.01	196.68	68.49	
2025-01-10 11:37:34.21	196.85	68.58	
2025-01-10 11:37:34.42	197.04	68.68	
2025-01-10 11:37:34.62	197.22	68.77	
2025-01-10 11:37:34.83	197.41	68.87	
2025-01-10 11:37:35.04	197.60	68.96	
2025-01-10 11:37:35.25	197.80	69.06	
2025-01-10 11:37:35.45	197.98	69.15	
2025-01-10 11:37:35.66	198.18	69.25	
2025-01-10 11:37:35.86	198.37	69.34	
2025-01-10 11:37:36.07	198.57	69.43	
2025-01-10 11:37:36.27	198.76	69.52	
2025-01-10 11:37:36.48	198.97	69.62	
2025-01-10 11:37:36.69	199.18	69.71	
2025-01-10 11:37:36.89	199.38	69.80	
2025-01-10 11:37:37.10	199.59	69.90	
2025-01-10 11:37:37.30	199.79	69.99	
2025-01-10 11:37:37.51	200.01	70.08	
2025-01-10 11:37:37.72	200.22	70.18	
2025-01-10 11:37:37.92	200.43	70.27	
2025-01-10 11:37:38.13	200.66	70.36	
2025-01-10 11:37:38.33	200.87	70.45	
2025-01-10 11:37:38.54	201.10	70.54	
2025-01-10 11:37:38.74	201.31	70.63	
2025-01-10 11:37:38.95	201.54	70.72	
2025-01-10 11:37:39.15	201.77	70.81	
2025-01-10 11:37:39.35	201.99	70.90	
2025-01-10 11:37:39.56	202.23	70.99	
2025-01-10 11:37:39.77	202.47	71.09	
2025-01-10 11:37:39.97	202.70	71.17	
2025-01-10 11:37:40.18	202.95	71.26	
2025-01-10 11:37:40.38	203.18	71.35	
2025-01-10 11:37:40.59	203.43	71.44	
2025-01-10 11:37:40.79	203.68	71.53	
2025-01-10 11:37:41.00	203.93	71.62	
2025-01-10 11:37:41.21	204.19	71.71	
2025-01-10 11:37:41.42	204.45	71.80	
2025-01-10 11:37:41.63	204.71	71.89	
2025-01-10 11:37:41.84	204.98	71.98	
2025-01-10 11:37:42.04	205.24	72.07	
2025-01-10 11:37:42.25	205.51	72.15	
2025-01-10 11:37:42.45	205.77	72.24	
2025-01-10 11:37:42.66	206.05	72.33	
2025-01-10 11:37:42.86	206.32	72.41	
2025-01-10 11:37:43.07	206.60	72.50	
2025-01-10 11:37:43.27	206.87	72.58	
2025-01-10 11:37:43.49	207.18	72.67	
2025-01-10 11:37:43.70	207.47	72.76	
