passes_logs/2025/01/10/SPB_Silybum_02/SPB_Silybum_02__20250110_220800_SUOMI_NPP_rec.log

#Pass ID: 20250110_220800_SUOMI NPP
#Satellite: SUOMI NPP
#Configuration: NPP
#Start time: 2025-01-10 22:07:59

#Version: 2.0.20230423
#Station: SPB_Silybum_02
#Location: 30.233357 lon 59.946436 lat
#TLE: 1 37849U 11061A   25009.91542277  .00000197  00000+0  11407-3 0  9995
#TLE: 2 37849  98.7440 310.9686 0001842  48.7836 311.3498 14.19535939684207

#Time	Az	El	Level	Level2	SNR	BER	Gain	Gain2
2025-01-10 22:08:01.83	30.97	4.09	
2025-01-10 22:08:02.03	30.99	4.09	
2025-01-10 22:08:02.24	31.02	4.10	
2025-01-10 22:08:02.45	31.04	4.12	
2025-01-10 22:08:02.65	31.06	4.12	
2025-01-10 22:08:02.86	31.08	4.14	
2025-01-10 22:08:03.06	31.10	4.14	
2025-01-10 22:08:03.27	31.12	4.15	
2025-01-10 22:08:03.47	31.14	4.16	
2025-01-10 22:08:03.69	31.17	4.18	
2025-01-10 22:08:03.90	31.19	4.19	
2025-01-10 22:08:04.10	31.21	4.20	
2025-01-10 22:08:04.31	31.23	4.21	
2025-01-10 22:08:04.51	31.25	4.22	
2025-01-10 22:08:04.72	31.27	4.23	
2025-01-10 22:08:04.92	31.29	4.24	
2025-01-10 22:08:05.13	31.32	4.25	
2025-01-10 22:08:05.34	31.34	4.26	
2025-01-10 22:08:05.54	31.36	4.27	
2025-01-10 22:08:05.74	31.38	4.27	
2025-01-10 22:08:05.95	31.40	4.29	
2025-01-10 22:08:06.15	31.42	4.29	
2025-01-10 22:08:06.36	31.44	4.31	
2025-01-10 22:08:06.56	31.47	4.31	
2025-01-10 22:08:06.77	31.49	4.33	
2025-01-10 22:08:06.97	31.51	4.33	
2025-01-10 22:08:07.18	31.53	4.34	
2025-01-10 22:08:07.38	31.55	4.35	
2025-01-10 22:08:07.59	31.57	4.36	
2025-01-10 22:08:07.79	31.60	4.37	
2025-01-10 22:08:08.00	31.62	4.38	
2025-01-10 22:08:08.20	31.64	4.39	
2025-01-10 22:08:08.41	31.66	4.40	
2025-01-10 22:08:08.61	31.68	4.41	
2025-01-10 22:08:08.82	31.70	4.42	
2025-01-10 22:08:09.02	31.72	4.43	
2025-01-10 22:08:09.23	31.75	4.44	
2025-01-10 22:08:09.43	31.77	4.45	
2025-01-10 22:08:09.64	31.79	4.46	
2025-01-10 22:08:09.84	31.81	4.47	
2025-01-10 22:08:10.04	31.83	4.48	
2025-01-10 22:08:10.25	31.86	4.49	
2025-01-10 22:08:10.46	31.88	4.50	
2025-01-10 22:08:10.66	31.90	4.51	
2025-01-10 22:08:10.86	31.92	4.52	
2025-01-10 22:08:11.07	31.94	4.53	
2025-01-10 22:08:11.27	31.96	4.54	
2025-01-10 22:08:11.48	31.99	4.55	
2025-01-10 22:08:11.68	32.01	4.56	
2025-01-10 22:08:11.89	32.03	4.57	
2025-01-10 22:08:12.09	32.05	4.58	
2025-01-10 22:08:12.30	32.07	4.59	
2025-01-10 22:08:12.50	32.09	4.60	
2025-01-10 22:08:12.71	32.12	4.61	
2025-01-10 22:08:12.92	32.14	4.62	
2025-01-10 22:08:13.12	32.16	4.63	
2025-01-10 22:08:13.32	32.18	4.64	
2025-01-10 22:08:13.53	32.21	4.65	
2025-01-10 22:08:13.73	32.23	4.66	
2025-01-10 22:08:13.94	32.25	4.67	
2025-01-10 22:08:14.14	32.27	4.68	
2025-01-10 22:08:14.35	32.29	4.69	
2025-01-10 22:08:14.55	32.31	4.70	
2025-01-10 22:08:14.76	32.34	4.71	
2025-01-10 22:08:14.97	32.36	4.72	
2025-01-10 22:08:15.17	32.38	4.73	
2025-01-10 22:08:15.38	32.40	4.74	
2025-01-10 22:08:15.58	32.43	4.75	
2025-01-10 22:08:15.79	32.45	4.76	
2025-01-10 22:08:15.99	32.47	4.77	
2025-01-10 22:08:16.20	32.49	4.78	
2025-01-10 22:08:16.40	32.51	4.79	
2025-01-10 22:08:16.61	32.54	4.80	
2025-01-10 22:08:16.81	32.56	4.81	
2025-01-10 22:08:17.02	32.58	4.82	
2025-01-10 22:08:17.23	32.60	4.83	
2025-01-10 22:08:17.43	32.63	4.84	
2025-01-10 22:08:17.64	32.65	4.85	
2025-01-10 22:08:17.84	32.67	4.86	
2025-01-10 22:08:18.05	32.69	4.87	
2025-01-10 22:08:18.25	32.72	4.88	
2025-01-10 22:08:18.46	32.74	4.89	
2025-01-10 22:08:18.66	32.76	4.90	
2025-01-10 22:08:18.87	32.78	4.91	
2025-01-10 22:08:19.08	32.81	4.92	
2025-01-10 22:08:19.28	32.83	4.93	
2025-01-10 22:08:19.49	32.85	4.94	
2025-01-10 22:08:19.69	32.87	4.95	
2025-01-10 22:08:19.90	32.90	4.96	
2025-01-10 22:08:20.10	32.92	4.97	
2025-01-10 22:08:20.31	32.94	4.98	
2025-01-10 22:08:20.52	32.96	4.99	
2025-01-10 22:08:20.74	32.99	5.01	
2025-01-10 22:08:20.94	33.01	5.01	
2025-01-10 22:08:21.15	33.03	5.03	
2025-01-10 22:08:21.35	33.05	5.03	
2025-01-10 22:08:21.56	33.08	5.05	
2025-01-10 22:08:21.76	33.10	5.05	
2025-01-10 22:08:21.96	33.12	5.06	
2025-01-10 22:08:22.17	33.14	5.07	
2025-01-10 22:08:22.38	33.17	5.09	
2025-01-10 22:08:22.58	33.19	5.09	
2025-01-10 22:08:22.79	33.21	5.11	
2025-01-10 22:08:22.99	33.23	5.11	
2025-01-10 22:08:23.20	33.26	5.13	
2025-01-10 22:08:23.40	33.28	5.13	
2025-01-10 22:08:23.61	33.30	5.15	
2025-01-10 22:08:23.81	33.33	5.15	
2025-01-10 22:08:24.01	33.35	5.16	
2025-01-10 22:08:24.22	33.37	5.17	
2025-01-10 22:08:24.42	33.39	5.18	
2025-01-10 22:08:24.63	33.42	5.19	
2025-01-10 22:08:24.84	33.44	5.21	
2025-01-10 22:08:25.04	33.46	5.21	
2025-01-10 22:08:25.25	33.49	5.23	
2025-01-10 22:08:25.45	33.51	5.23	
2025-01-10 22:08:25.66	33.53	5.25	
2025-01-10 22:08:25.86	33.55	5.25	
2025-01-10 22:08:26.08	33.58	5.27	
2025-01-10 22:08:26.29	33.60	5.28	
2025-01-10 22:08:26.49	33.62	5.29	
2025-01-10 22:08:26.70	33.65	5.30	
2025-01-10 22:08:26.90	33.67	5.31	
2025-01-10 22:08:27.11	33.69	5.32	
2025-01-10 22:08:27.31	33.72	5.33	
2025-01-10 22:08:27.52	33.74	5.34	
2025-01-10 22:08:27.72	33.76	5.35	
2025-01-10 22:08:27.93	33.79	5.36	
2025-01-10 22:08:28.15	33.81	5.37	
2025-01-10 22:08:28.35	33.83	5.38	
2025-01-10 22:08:28.56	33.86	5.39	
2025-01-10 22:08:28.76	33.88	5.40	
2025-01-10 22:08:28.97	33.90	5.41	
2025-01-10 22:08:29.17	33.92	5.42	
2025-01-10 22:08:29.38	33.95	5.43	
2025-01-10 22:08:29.58	33.97	5.44	
2025-01-10 22:08:29.79	33.99	5.45	
2025-01-10 22:08:30.00	34.02	5.46	
2025-01-10 22:08:30.20	34.04	5.47	
2025-01-10 22:08:30.40	34.06	5.48	
2025-01-10 22:08:30.61	34.09	5.49	
2025-01-10 22:08:30.82	34.11	5.50	
2025-01-10 22:08:31.02	34.13	5.51	
2025-01-10 22:08:31.23	34.16	5.52	
2025-01-10 22:08:31.43	34.18	5.53	
2025-01-10 22:08:31.64	34.20	5.54	
2025-01-10 22:08:31.84	34.23	5.55	
2025-01-10 22:08:32.05	34.25	5.56	
2025-01-10 22:08:32.26	34.27	5.57	
2025-01-10 22:08:32.46	34.30	5.58	
2025-01-10 22:08:32.67	34.32	5.59	
2025-01-10 22:08:32.87	34.34	5.60	
2025-01-10 22:08:33.08	34.37	5.61	
2025-01-10 22:08:33.29	34.39	5.62	
2025-01-10 22:08:33.49	34.42	5.63	
2025-01-10 22:08:33.69	34.44	5.64	
2025-01-10 22:08:33.90	34.46	5.65	
2025-01-10 22:08:34.10	34.48	5.66	
2025-01-10 22:08:34.31	34.51	5.67	
2025-01-10 22:08:34.51	34.53	5.68	
2025-01-10 22:08:34.72	34.56	5.69	
2025-01-10 22:08:34.92	34.58	5.70	
2025-01-10 22:08:35.13	34.60	5.71	
2025-01-10 22:08:35.34	34.63	5.72	
2025-01-10 22:08:35.54	34.65	5.73	
2025-01-10 22:08:35.75	34.67	5.74	
2025-01-10 22:08:35.95	34.70	5.75	
2025-01-10 22:08:36.16	34.72	5.76	
2025-01-10 22:08:36.36	34.74	5.77	
2025-01-10 22:08:36.57	34.77	5.78	
2025-01-10 22:08:36.77	34.79	5.79	
2025-01-10 22:08:36.98	34.82	5.80	
2025-01-10 22:08:37.19	34.84	5.81	
2025-01-10 22:08:37.39	34.86	5.82	
2025-01-10 22:08:37.60	34.89	5.83	
2025-01-10 22:08:37.80	34.91	5.84	
2025-01-10 22:08:38.00	34.93	5.85	
2025-01-10 22:08:38.21	34.96	5.86	
2025-01-10 22:08:38.41	34.98	5.87	
2025-01-10 22:08:38.62	35.01	5.88	
2025-01-10 22:08:38.82	35.03	5.89	
2025-01-10 22:08:39.03	35.05	5.90	
2025-01-10 22:08:39.23	35.08	5.91	
2025-01-10 22:08:39.44	35.10	5.92	
2025-01-10 22:08:39.65	35.13	5.93	
2025-01-10 22:08:39.85	35.15	5.94	
2025-01-10 22:08:40.06	35.17	5.95	
2025-01-10 22:08:40.26	35.20	5.96	
2025-01-10 22:08:40.47	35.22	5.97	
2025-01-10 22:08:40.67	35.25	5.98	
2025-01-10 22:08:40.88	35.27	5.99	
2025-01-10 22:08:41.08	35.29	6.00	
2025-01-10 22:08:41.29	35.32	6.01	
2025-01-10 22:08:41.49	35.34	6.02	
2025-01-10 22:08:41.70	35.37	6.03	
2025-01-10 22:08:41.90	35.39	6.04	
2025-01-10 22:08:42.11	35.41	6.05	
2025-01-10 22:08:42.31	35.44	6.06	
2025-01-10 22:08:42.52	35.46	6.07	
2025-01-10 22:08:42.72	35.49	6.08	
2025-01-10 22:08:42.93	35.51	6.09	
2025-01-10 22:08:43.14	35.54	6.10	
2025-01-10 22:08:43.35	35.56	6.11	
2025-01-10 22:08:43.55	35.58	6.12	
2025-01-10 22:08:43.76	35.61	6.13	
2025-01-10 22:08:43.96	35.63	6.14	
2025-01-10 22:08:44.17	35.66	6.15	
2025-01-10 22:08:44.37	35.68	6.16	
2025-01-10 22:08:44.58	35.71	6.17	
2025-01-10 22:08:44.79	35.73	6.18	
2025-01-10 22:08:44.99	35.75	6.19	
2025-01-10 22:08:45.20	35.78	6.20	
2025-01-10 22:08:45.40	35.80	6.21	
2025-01-10 22:08:45.61	35.83	6.22	
2025-01-10 22:08:45.81	35.85	6.23	
2025-01-10 22:08:46.02	35.88	6.24	
2025-01-10 22:08:46.22	35.90	6.25	
2025-01-10 22:08:46.43	35.92	6.26	
2025-01-10 22:08:46.63	35.95	6.27	
2025-01-10 22:08:46.84	35.97	6.28	
2025-01-10 22:08:47.04	36.00	6.29	
2025-01-10 22:08:47.25	36.02	6.30	
2025-01-10 22:08:47.45	36.05	6.31	
2025-01-10 22:08:47.66	36.07	6.32	
2025-01-10 22:08:47.86	36.10	6.33	
2025-01-10 22:08:48.07	36.12	6.34	
2025-01-10 22:08:48.27	36.14	6.35	
2025-01-10 22:08:48.49	36.17	6.36	
2025-01-10 22:08:48.70	36.20	6.37	
2025-01-10 22:08:48.90	36.22	6.38	
2025-01-10 22:08:49.11	36.25	6.39	
2025-01-10 22:08:49.31	36.27	6.40	
2025-01-10 22:08:49.52	36.29	6.41	
2025-01-10 22:08:49.72	36.32	6.42	
2025-01-10 22:08:49.93	36.34	6.43	
2025-01-10 22:08:50.13	36.37	6.44	
2025-01-10 22:08:50.34	36.39	6.45	
2025-01-10 22:08:50.54	36.42	6.46	
2025-01-10 22:08:50.75	36.44	6.47	
2025-01-10 22:08:50.95	36.47	6.48	
2025-01-10 22:08:51.16	36.49	6.49	
2025-01-10 22:08:51.36	36.52	6.50	
2025-01-10 22:08:51.57	36.54	6.51	
2025-01-10 22:08:51.77	36.57	6.52	
2025-01-10 22:08:51.98	36.59	6.53	
2025-01-10 22:08:52.18	36.62	6.54	
2025-01-10 22:08:52.39	36.64	6.55	
2025-01-10 22:08:52.59	36.67	6.56	
2025-01-10 22:08:52.80	36.69	6.57	
2025-01-10 22:08:53.01	36.72	6.58	
2025-01-10 22:08:53.21	36.74	6.59	
2025-01-10 22:08:53.42	36.77	6.60	
2025-01-10 22:08:53.62	36.79	6.61	
2025-01-10 22:08:53.83	36.82	6.62	
2025-01-10 22:08:54.03	36.84	6.63	
2025-01-10 22:08:54.24	36.87	6.64	
2025-01-10 22:08:54.44	36.89	6.65	
2025-01-10 22:08:54.65	36.92	6.66	
2025-01-10 22:08:54.85	36.94	6.67	
2025-01-10 22:08:55.06	36.97	6.68	
2025-01-10 22:08:55.26	36.99	6.69	
2025-01-10 22:08:55.47	37.02	6.70	
2025-01-10 22:08:55.67	37.04	6.71	
2025-01-10 22:08:55.88	37.07	6.72	
2025-01-10 22:08:56.08	37.09	6.73	
2025-01-10 22:08:56.29	37.12	6.74	
2025-01-10 22:08:56.49	37.14	6.75	
2025-01-10 22:08:56.70	37.17	6.76	
2025-01-10 22:08:56.90	37.19	6.77	
2025-01-10 22:08:57.10	37.22	6.78	
2025-01-10 22:08:57.31	37.24	6.79	
2025-01-10 22:08:57.51	37.27	6.80	
2025-01-10 22:08:57.72	37.29	6.81	
2025-01-10 22:08:57.93	37.32	6.82	
2025-01-10 22:08:58.13	37.35	6.83	
2025-01-10 22:08:58.34	37.37	6.84	
2025-01-10 22:08:58.54	37.40	6.85	
2025-01-10 22:08:58.75	37.42	6.86	
2025-01-10 22:08:58.95	37.45	6.87	
2025-01-10 22:08:59.15	37.47	6.88	
2025-01-10 22:08:59.36	37.50	6.89	
2025-01-10 22:08:59.57	37.52	6.90	
2025-01-10 22:08:59.77	37.55	6.91	
2025-01-10 22:08:59.98	37.57	6.92	
2025-01-10 22:09:00.19	37.60	6.93	
2025-01-10 22:09:00.40	37.63	6.94	
2025-01-10 22:09:00.60	37.65	6.95	
2025-01-10 22:09:00.81	37.68	6.96	
2025-01-10 22:09:01.01	37.70	6.97	
2025-01-10 22:09:01.22	37.73	6.98	
2025-01-10 22:09:01.42	37.75	6.99	
2025-01-10 22:09:01.63	37.78	7.00	
2025-01-10 22:09:01.84	37.81	7.01	
2025-01-10 22:09:02.04	37.83	7.02	
2025-01-10 22:09:02.25	37.86	7.03	
2025-01-10 22:09:02.45	37.88	7.04	
2025-01-10 22:09:02.65	37.91	7.05	
2025-01-10 22:09:02.86	37.93	7.06	
2025-01-10 22:09:03.07	37.96	7.07	
2025-01-10 22:09:03.27	37.99	7.08	
2025-01-10 22:09:03.48	38.01	7.09	
2025-01-10 22:09:03.68	38.04	7.10	
2025-01-10 22:09:03.89	38.06	7.11	
2025-01-10 22:09:04.09	38.09	7.12	
2025-01-10 22:09:04.30	38.12	7.13	
2025-01-10 22:09:04.50	38.14	7.14	
2025-01-10 22:09:04.70	38.17	7.15	
2025-01-10 22:09:04.91	38.19	7.16	
2025-01-10 22:09:05.11	38.22	7.16	
2025-01-10 22:09:05.32	38.24	7.18	
2025-01-10 22:09:05.54	38.27	7.19	
2025-01-10 22:09:05.74	38.30	7.20	
2025-01-10 22:09:05.94	38.32	7.21	
2025-01-10 22:09:06.15	38.35	7.22	
2025-01-10 22:09:06.35	38.38	7.22	
2025-01-10 22:09:06.56	38.40	7.24	
2025-01-10 22:09:06.76	38.43	7.24	
2025-01-10 22:09:06.97	38.45	7.25	
2025-01-10 22:09:07.18	38.48	7.27	
2025-01-10 22:09:07.38	38.51	7.27	
2025-01-10 22:09:07.59	38.53	7.28	
2025-01-10 22:09:07.79	38.56	7.29	
2025-01-10 22:09:07.99	38.58	7.30	
2025-01-10 22:09:08.20	38.61	7.31	
2025-01-10 22:09:08.41	38.64	7.32	
2025-01-10 22:09:08.61	38.66	7.33	
2025-01-10 22:09:08.82	38.69	7.34	
2025-01-10 22:09:09.02	38.72	7.35	
2025-01-10 22:09:09.23	38.74	7.36	
2025-01-10 22:09:09.43	38.77	7.37	
2025-01-10 22:09:09.64	38.80	7.38	
2025-01-10 22:09:09.84	38.82	7.39	
2025-01-10 22:09:10.05	38.85	7.40	
2025-01-10 22:09:10.25	38.87	7.41	
2025-01-10 22:09:10.46	38.90	7.42	
2025-01-10 22:09:10.66	38.93	7.43	
2025-01-10 22:09:10.87	38.95	7.44	
2025-01-10 22:09:11.07	38.98	7.45	
2025-01-10 22:09:11.28	39.01	7.46	
2025-01-10 22:09:11.49	39.03	7.47	
2025-01-10 22:09:11.69	39.06	7.48	
2025-01-10 22:09:11.90	39.09	7.49	
2025-01-10 22:09:12.10	39.11	7.50	
2025-01-10 22:09:12.31	39.14	7.51	
2025-01-10 22:09:12.51	39.17	7.52	
2025-01-10 22:09:12.72	39.19	7.53	
2025-01-10 22:09:12.92	39.22	7.54	
2025-01-10 22:09:13.13	39.25	7.55	
2025-01-10 22:09:13.33	39.27	7.56	
2025-01-10 22:09:13.54	39.30	7.57	
2025-01-10 22:09:13.74	39.32	7.58	
2025-01-10 22:09:13.95	39.35	7.59	
2025-01-10 22:09:14.15	39.38	7.60	
2025-01-10 22:09:14.35	39.40	7.61	
2025-01-10 22:09:14.56	39.43	7.62	
2025-01-10 22:09:14.77	39.46	7.63	
2025-01-10 22:09:14.97	39.48	7.64	
2025-01-10 22:09:15.19	39.51	7.65	
2025-01-10 22:09:15.39	39.54	7.66	
2025-01-10 22:09:15.60	39.57	7.67	
2025-01-10 22:09:15.81	39.59	7.68	
2025-01-10 22:09:16.01	39.62	7.69	
2025-01-10 22:09:16.23	39.65	7.70	
2025-01-10 22:09:16.43	39.68	7.71	
2025-01-10 22:09:16.64	39.70	7.72	
2025-01-10 22:09:16.84	39.73	7.73	
2025-01-10 22:09:17.05	39.76	7.74	
2025-01-10 22:09:17.25	39.78	7.75	
2025-01-10 22:09:17.46	39.81	7.76	
2025-01-10 22:09:17.66	39.84	7.77	
2025-01-10 22:09:17.87	39.87	7.78	
2025-01-10 22:09:18.07	39.89	7.79	
2025-01-10 22:09:18.28	39.92	7.80	
2025-01-10 22:09:18.49	39.95	7.81	
2025-01-10 22:09:18.70	39.97	7.82	
2025-01-10 22:09:18.91	40.00	7.83	
2025-01-10 22:09:19.11	40.03	7.84	
2025-01-10 22:09:19.32	40.06	7.85	
2025-01-10 22:09:19.52	40.08	7.86	
2025-01-10 22:09:19.72	40.11	7.87	
2025-01-10 22:09:19.93	40.14	7.88	
2025-01-10 22:09:20.13	40.16	7.89	
2025-01-10 22:09:20.34	40.19	7.90	
2025-01-10 22:09:20.55	40.22	7.91	
2025-01-10 22:09:20.75	40.25	7.92	
2025-01-10 22:09:20.96	40.27	7.93	
2025-01-10 22:09:21.16	40.30	7.94	
2025-01-10 22:09:21.37	40.33	7.95	
2025-01-10 22:09:21.57	40.36	7.96	
2025-01-10 22:09:21.78	40.38	7.97	
2025-01-10 22:09:21.98	40.41	7.98	
2025-01-10 22:09:22.19	40.44	7.99	
2025-01-10 22:09:22.39	40.46	8.00	
2025-01-10 22:09:22.60	40.49	8.01	
2025-01-10 22:09:22.80	40.52	8.02	
2025-01-10 22:09:23.01	40.55	8.03	
2025-01-10 22:09:23.21	40.57	8.04	
2025-01-10 22:09:23.42	40.60	8.05	
2025-01-10 22:09:23.63	40.63	8.06	
2025-01-10 22:09:23.84	40.66	8.07	
2025-01-10 22:09:24.05	40.69	8.08	
2025-01-10 22:09:24.26	40.72	8.09	
2025-01-10 22:09:24.46	40.74	8.10	
2025-01-10 22:09:24.67	40.77	8.11	
2025-01-10 22:09:24.87	40.80	8.12	
2025-01-10 22:09:25.07	40.82	8.12	
2025-01-10 22:09:25.28	40.85	8.13	
2025-01-10 22:09:25.49	40.88	8.15	
2025-01-10 22:09:25.69	40.91	8.15	
2025-01-10 22:09:25.90	40.94	8.16	
2025-01-10 22:09:26.10	40.96	8.17	
2025-01-10 22:09:26.31	40.99	8.18	
2025-01-10 22:09:26.51	41.02	8.19	
2025-01-10 22:09:26.72	41.05	8.20	
2025-01-10 22:09:26.92	41.07	8.21	
2025-01-10 22:09:27.12	41.10	8.22	
2025-01-10 22:09:27.33	41.13	8.23	
2025-01-10 22:09:27.53	41.16	8.24	
2025-01-10 22:09:27.74	41.19	8.25	
2025-01-10 22:09:27.95	41.21	8.26	
2025-01-10 22:09:28.15	41.24	8.27	
2025-01-10 22:09:28.36	41.27	8.28	
2025-01-10 22:09:28.56	41.30	8.29	
2025-01-10 22:09:28.77	41.33	8.30	
2025-01-10 22:09:28.97	41.35	8.31	
2025-01-10 22:09:29.18	41.38	8.32	
2025-01-10 22:09:29.38	41.41	8.33	
2025-01-10 22:09:29.59	41.44	8.34	
2025-01-10 22:09:29.79	41.47	8.35	
2025-01-10 22:09:30.00	41.49	8.36	
2025-01-10 22:09:30.22	41.52	8.37	
2025-01-10 22:09:30.42	41.55	8.38	
2025-01-10 22:09:30.62	41.58	8.39	
2025-01-10 22:09:30.83	41.61	8.40	
2025-01-10 22:09:31.05	41.64	8.41	
2025-01-10 22:09:31.25	41.67	8.42	
2025-01-10 22:09:31.46	41.69	8.43	
2025-01-10 22:09:31.66	41.72	8.44	
2025-01-10 22:09:31.87	41.75	8.45	
2025-01-10 22:09:32.07	41.78	8.46	
2025-01-10 22:09:32.27	41.81	8.47	
2025-01-10 22:09:32.48	41.83	8.48	
2025-01-10 22:09:32.68	41.86	8.49	
2025-01-10 22:09:32.89	41.89	8.50	
2025-01-10 22:09:33.10	41.92	8.51	
2025-01-10 22:09:33.30	41.95	8.52	
2025-01-10 22:09:33.50	41.98	8.53	
2025-01-10 22:09:33.71	42.00	8.54	
2025-01-10 22:09:33.91	42.03	8.55	
2025-01-10 22:09:34.12	42.06	8.56	
2025-01-10 22:09:34.33	42.09	8.57	
2025-01-10 22:09:34.53	42.12	8.57	
2025-01-10 22:09:34.74	42.15	8.58	
2025-01-10 22:09:34.94	42.18	8.59	
2025-01-10 22:09:35.15	42.20	8.60	
2025-01-10 22:09:35.35	42.23	8.61	
2025-01-10 22:09:35.56	42.26	8.62	
2025-01-10 22:09:35.76	42.29	8.63	
2025-01-10 22:09:35.97	42.32	8.64	
2025-01-10 22:09:36.18	42.35	8.65	
2025-01-10 22:09:36.38	42.38	8.66	
2025-01-10 22:09:36.58	42.40	8.67	
2025-01-10 22:09:36.79	42.43	8.68	
2025-01-10 22:09:37.00	42.46	8.69	
2025-01-10 22:09:37.20	42.49	8.70	
2025-01-10 22:09:37.41	42.52	8.71	
2025-01-10 22:09:37.61	42.55	8.72	
2025-01-10 22:09:37.82	42.58	8.73	
2025-01-10 22:09:38.02	42.61	8.74	
2025-01-10 22:09:38.23	42.64	8.75	
2025-01-10 22:09:38.43	42.66	8.76	
2025-01-10 22:09:38.64	42.69	8.77	
2025-01-10 22:09:38.84	42.72	8.78	
2025-01-10 22:09:39.05	42.75	8.79	
2025-01-10 22:09:39.25	42.78	8.80	
2025-01-10 22:09:39.46	42.81	8.81	
2025-01-10 22:09:39.67	42.84	8.82	
2025-01-10 22:09:39.87	42.87	8.83	
2025-01-10 22:09:40.08	42.90	8.84	
2025-01-10 22:09:40.28	42.92	8.85	
2025-01-10 22:09:40.49	42.95	8.86	
2025-01-10 22:09:40.69	42.98	8.86	
2025-01-10 22:09:40.90	43.01	8.87	
2025-01-10 22:09:41.10	43.04	8.88	
2025-01-10 22:09:41.31	43.07	8.89	
2025-01-10 22:09:41.51	43.10	8.90	
2025-01-10 22:09:41.72	43.13	8.91	
2025-01-10 22:09:41.92	43.16	8.92	
2025-01-10 22:09:42.13	43.19	8.93	
2025-01-10 22:09:42.33	43.21	8.94	
2025-01-10 22:09:42.54	43.24	8.95	
2025-01-10 22:09:42.74	43.27	8.96	
2025-01-10 22:09:42.95	43.30	8.97	
2025-01-10 22:09:43.15	43.33	8.98	
2025-01-10 22:09:43.36	43.36	8.99	
2025-01-10 22:09:43.56	43.39	9.00	
2025-01-10 22:09:43.77	43.42	9.01	
2025-01-10 22:09:43.97	43.45	9.02	
2025-01-10 22:09:44.18	43.48	9.03	
2025-01-10 22:09:44.38	43.51	9.04	
2025-01-10 22:09:44.59	43.54	9.05	
2025-01-10 22:09:44.79	43.57	9.06	
2025-01-10 22:09:45.00	43.60	9.07	
2025-01-10 22:09:45.20	43.62	9.08	
2025-01-10 22:09:45.41	43.65	9.09	
2025-01-10 22:09:45.62	43.69	9.10	
2025-01-10 22:09:45.82	43.71	9.10	
2025-01-10 22:09:46.03	43.74	9.11	
2025-01-10 22:09:46.23	43.77	9.12	
2025-01-10 22:09:46.44	43.80	9.13	
2025-01-10 22:09:46.64	43.83	9.14	
2025-01-10 22:09:46.85	43.86	9.15	
2025-01-10 22:09:47.05	43.89	9.16	
2025-01-10 22:09:47.25	43.92	9.17	
2025-01-10 22:09:47.46	43.95	9.18	
2025-01-10 22:09:47.67	43.98	9.19	
2025-01-10 22:09:47.87	44.01	9.20	
2025-01-10 22:09:48.08	44.04	9.21	
2025-01-10 22:09:48.28	44.07	9.22	
2025-01-10 22:09:48.49	44.10	9.23	
2025-01-10 22:09:48.70	44.13	9.24	
2025-01-10 22:09:48.90	44.16	9.25	
2025-01-10 22:09:49.11	44.19	9.26	
2025-01-10 22:09:49.31	44.22	9.27	
2025-01-10 22:09:49.52	44.25	9.28	
2025-01-10 22:09:49.72	44.28	9.29	
2025-01-10 22:09:49.93	44.31	9.30	
2025-01-10 22:09:50.14	44.34	9.31	
2025-01-10 22:09:50.34	44.37	9.31	
2025-01-10 22:09:50.54	44.40	9.32	
2025-01-10 22:09:50.75	44.43	9.33	
2025-01-10 22:09:50.96	44.46	9.34	
2025-01-10 22:09:51.16	44.49	9.35	
2025-01-10 22:09:51.37	44.52	9.36	
2025-01-10 22:09:51.57	44.55	9.37	
2025-01-10 22:09:51.78	44.58	9.38	
2025-01-10 22:09:51.98	44.61	9.39	
2025-01-10 22:09:52.19	44.64	9.40	
2025-01-10 22:09:52.39	44.67	9.41	
2025-01-10 22:09:52.60	44.70	9.42	
2025-01-10 22:09:52.80	44.73	9.43	
2025-01-10 22:09:53.01	44.76	9.44	
2025-01-10 22:09:53.22	44.79	9.45	
2025-01-10 22:09:53.42	44.82	9.46	
2025-01-10 22:09:53.63	44.85	9.47	
2025-01-10 22:09:53.84	44.88	9.48	
2025-01-10 22:09:54.04	44.91	9.49	
2025-01-10 22:09:54.25	44.94	9.50	
2025-01-10 22:09:54.46	44.97	9.50	
2025-01-10 22:09:54.66	45.00	9.51	
2025-01-10 22:09:54.86	45.03	9.52	
2025-01-10 22:09:55.07	45.06	9.53	
2025-01-10 22:09:55.28	45.09	9.54	
2025-01-10 22:09:55.48	45.12	9.55	
2025-01-10 22:09:55.68	45.15	9.56	
2025-01-10 22:09:55.89	45.18	9.57	
2025-01-10 22:09:56.09	45.21	9.58	
2025-01-10 22:09:56.30	45.25	9.59	
2025-01-10 22:09:56.50	45.28	9.60	
2025-01-10 22:09:56.71	45.31	9.61	
2025-01-10 22:09:56.91	45.34	9.62	
2025-01-10 22:09:57.12	45.37	9.63	
2025-01-10 22:09:57.32	45.40	9.64	
2025-01-10 22:09:57.53	45.43	9.65	
2025-01-10 22:09:57.73	45.46	9.65	
2025-01-10 22:09:57.94	45.49	9.66	
2025-01-10 22:09:58.14	45.52	9.67	
2025-01-10 22:09:58.35	45.55	9.68	
2025-01-10 22:09:58.56	45.58	9.69	
2025-01-10 22:09:58.76	45.61	9.70	
2025-01-10 22:09:58.97	45.64	9.71	
2025-01-10 22:09:59.17	45.67	9.72	
2025-01-10 22:09:59.38	45.71	9.73	
2025-01-10 22:09:59.58	45.73	9.74	
2025-01-10 22:09:59.79	45.77	9.75	
2025-01-10 22:09:59.99	45.80	9.76	
2025-01-10 22:10:00.20	45.83	9.77	
2025-01-10 22:10:00.40	45.86	9.78	
2025-01-10 22:10:00.61	45.89	9.79	
2025-01-10 22:10:00.81	45.92	9.80	
2025-01-10 22:10:01.02	45.95	9.80	
2025-01-10 22:10:01.22	45.98	9.81	
2025-01-10 22:10:01.43	46.01	9.82	
2025-01-10 22:10:01.63	46.04	9.83	
2025-01-10 22:10:01.84	46.08	9.84	
2025-01-10 22:10:02.05	46.11	9.85	
2025-01-10 22:10:02.25	46.14	9.86	
2025-01-10 22:10:02.46	46.17	9.87	
2025-01-10 22:10:02.66	46.20	9.88	
2025-01-10 22:10:02.87	46.23	9.89	
2025-01-10 22:10:03.07	46.26	9.90	
2025-01-10 22:10:03.29	46.29	9.91	
2025-01-10 22:10:03.49	46.32	9.92	
2025-01-10 22:10:03.70	46.36	9.93	
2025-01-10 22:10:03.91	46.39	9.94	
2025-01-10 22:10:04.11	46.42	9.94	
2025-01-10 22:10:04.31	46.45	9.95	
2025-01-10 22:10:04.52	46.48	9.96	
2025-01-10 22:10:04.72	46.51	9.97	
2025-01-10 22:10:04.93	46.54	9.98	
2025-01-10 22:10:05.14	46.58	9.99	
2025-01-10 22:10:05.34	46.61	10.00	
2025-01-10 22:10:05.56	46.64	10.01	
2025-01-10 22:10:05.76	46.67	10.02	
2025-01-10 22:10:05.97	46.70	10.03	
2025-01-10 22:10:06.17	46.73	10.04	
2025-01-10 22:10:06.38	46.77	10.05	
2025-01-10 22:10:06.58	46.80	10.06	
2025-01-10 22:10:06.79	46.83	10.07	
2025-01-10 22:10:06.99	46.86	10.07	
2025-01-10 22:10:07.20	46.89	10.08	
2025-01-10 22:10:07.40	46.92	10.09	
2025-01-10 22:10:07.61	46.95	10.10	
2025-01-10 22:10:07.81	46.98	10.11	
2025-01-10 22:10:08.02	47.02	10.12	
2025-01-10 22:10:08.22	47.05	10.13	
2025-01-10 22:10:08.43	47.08	10.14	
2025-01-10 22:10:08.63	47.11	10.15	
2025-01-10 22:10:08.83	47.14	10.16	
2025-01-10 22:10:09.04	47.17	10.17	
2025-01-10 22:10:09.25	47.21	10.18	
2025-01-10 22:10:09.45	47.24	10.18	
2025-01-10 22:10:09.66	47.27	10.19	
2025-01-10 22:10:09.86	47.30	10.20	
2025-01-10 22:10:10.07	47.33	10.21	
2025-01-10 22:10:10.27	47.36	10.22	
2025-01-10 22:10:10.48	47.40	10.23	
2025-01-10 22:10:10.68	47.43	10.24	
2025-01-10 22:10:10.89	47.46	10.25	
2025-01-10 22:10:11.09	47.49	10.26	
2025-01-10 22:10:11.30	47.52	10.27	
2025-01-10 22:10:11.50	47.56	10.28	
2025-01-10 22:10:11.71	47.59	10.29	
2025-01-10 22:10:11.91	47.62	10.29	
2025-01-10 22:10:12.12	47.65	10.30	
2025-01-10 22:10:12.32	47.68	10.31	
2025-01-10 22:10:12.53	47.72	10.32	
2025-01-10 22:10:12.73	47.75	10.33	
2025-01-10 22:10:12.94	47.78	10.34	
2025-01-10 22:10:13.14	47.81	10.35	
2025-01-10 22:10:13.35	47.84	10.36	
2025-01-10 22:10:13.55	47.87	10.37	
2025-01-10 22:10:13.76	47.91	10.38	
2025-01-10 22:10:13.96	47.94	10.38	
2025-01-10 22:10:14.17	47.97	10.39	
2025-01-10 22:10:14.37	48.00	10.40	
2025-01-10 22:10:14.58	48.04	10.41	
2025-01-10 22:10:14.78	48.07	10.42	
2025-01-10 22:10:14.99	48.10	10.43	
2025-01-10 22:10:15.19	48.13	10.44	
2025-01-10 22:10:15.40	48.16	10.45	
2025-01-10 22:10:15.61	48.20	10.46	
2025-01-10 22:10:15.81	48.23	10.47	
2025-01-10 22:10:16.02	48.26	10.48	
2025-01-10 22:10:16.22	48.29	10.48	
2025-01-10 22:10:16.42	48.33	10.49	
2025-01-10 22:10:16.63	48.36	10.50	
2025-01-10 22:10:16.83	48.39	10.51	
2025-01-10 22:10:17.04	48.42	10.52	
2025-01-10 22:10:17.26	48.46	10.53	
2025-01-10 22:10:17.46	48.49	10.54	
2025-01-10 22:10:17.67	48.52	10.55	
2025-01-10 22:10:17.87	48.55	10.56	
2025-01-10 22:10:18.08	48.59	10.57	
2025-01-10 22:10:18.28	48.62	10.57	
2025-01-10 22:10:18.49	48.65	10.58	
2025-01-10 22:10:18.70	48.69	10.59	
2025-01-10 22:10:18.90	48.72	10.60	
2025-01-10 22:10:19.11	48.75	10.61	
2025-01-10 22:10:19.31	48.78	10.62	
2025-01-10 22:10:19.52	48.82	10.63	
2025-01-10 22:10:19.72	48.85	10.64	
2025-01-10 22:10:19.93	48.88	10.65	
2025-01-10 22:10:20.13	48.91	10.66	
2025-01-10 22:10:20.34	48.95	10.66	
2025-01-10 22:10:20.54	48.98	10.67	
2025-01-10 22:10:20.75	49.01	10.68	
2025-01-10 22:10:20.95	49.04	10.69	
2025-01-10 22:10:21.16	49.08	10.70	
2025-01-10 22:10:21.36	49.11	10.71	
2025-01-10 22:10:21.57	49.14	10.72	
2025-01-10 22:10:21.77	49.18	10.73	
2025-01-10 22:10:21.98	49.21	10.74	
2025-01-10 22:10:22.18	49.24	10.74	
2025-01-10 22:10:22.39	49.27	10.75	
2025-01-10 22:10:22.59	49.31	10.76	
2025-01-10 22:10:22.80	49.34	10.77	
2025-01-10 22:10:23.01	49.37	10.78	
2025-01-10 22:10:23.21	49.41	10.79	
2025-01-10 22:10:23.42	49.44	10.80	
2025-01-10 22:10:23.62	49.47	10.81	
2025-01-10 22:10:23.82	49.50	10.82	
2025-01-10 22:10:24.03	49.54	10.82	
2025-01-10 22:10:24.24	49.57	10.83	
2025-01-10 22:10:24.44	49.60	10.84	
2025-01-10 22:10:24.65	49.64	10.85	
2025-01-10 22:10:24.85	49.67	10.86	
2025-01-10 22:10:25.06	49.70	10.87	
2025-01-10 22:10:25.26	49.74	10.88	
2025-01-10 22:10:25.46	49.77	10.89	
2025-01-10 22:10:25.67	49.80	10.89	
2025-01-10 22:10:25.87	49.84	10.90	
2025-01-10 22:10:26.08	49.87	10.91	
2025-01-10 22:10:26.28	49.90	10.92	
2025-01-10 22:10:26.49	49.94	10.93	
2025-01-10 22:10:26.69	49.97	10.94	
2025-01-10 22:10:26.91	50.00	10.95	
2025-01-10 22:10:27.12	50.04	10.96	
2025-01-10 22:10:27.32	50.07	10.97	
2025-01-10 22:10:27.53	50.11	10.97	
2025-01-10 22:10:27.73	50.14	10.98	
2025-01-10 22:10:27.93	50.17	10.99	
2025-01-10 22:10:28.14	50.21	11.00	
2025-01-10 22:10:28.34	50.24	11.01	
2025-01-10 22:10:28.55	50.27	11.02	
2025-01-10 22:10:28.75	50.30	11.03	
2025-01-10 22:10:28.96	50.34	11.03	
2025-01-10 22:10:29.16	50.37	11.04	
2025-01-10 22:10:29.37	50.41	11.05	
2025-01-10 22:10:29.57	50.44	11.06	
2025-01-10 22:10:29.78	50.47	11.07	
2025-01-10 22:10:29.99	50.51	11.08	
2025-01-10 22:10:30.19	50.54	11.09	
2025-01-10 22:10:30.40	50.57	11.10	
2025-01-10 22:10:30.60	50.61	11.10	
2025-01-10 22:10:30.81	50.64	11.11	
2025-01-10 22:10:31.01	50.67	11.12	
2025-01-10 22:10:31.22	50.71	11.13	
2025-01-10 22:10:31.42	50.74	11.14	
2025-01-10 22:10:31.63	50.78	11.15	
2025-01-10 22:10:31.84	50.81	11.16	
2025-01-10 22:10:32.04	50.84	11.16	
2025-01-10 22:10:32.26	50.88	11.17	
2025-01-10 22:10:32.46	50.91	11.18	
2025-01-10 22:10:32.67	50.95	11.19	
2025-01-10 22:10:32.87	50.98	11.20	
2025-01-10 22:10:33.08	51.02	11.21	
2025-01-10 22:10:33.28	51.05	11.22	
2025-01-10 22:10:33.49	51.08	11.23	
2025-01-10 22:10:33.69	51.12	11.23	
2025-01-10 22:10:33.90	51.15	11.24	
2025-01-10 22:10:34.10	51.19	11.25	
2025-01-10 22:10:34.31	51.22	11.26	
2025-01-10 22:10:34.51	51.25	11.27	
2025-01-10 22:10:34.71	51.29	11.28	
2025-01-10 22:10:34.92	51.32	11.29	
2025-01-10 22:10:35.13	51.36	11.29	
2025-01-10 22:10:35.33	51.39	11.30	
2025-01-10 22:10:35.53	51.42	11.31	
2025-01-10 22:10:35.74	51.46	11.32	
2025-01-10 22:10:35.94	51.49	11.33	
2025-01-10 22:10:36.15	51.53	11.34	
2025-01-10 22:10:36.36	51.56	11.34	
2025-01-10 22:10:36.56	51.59	11.35	
2025-01-10 22:10:36.76	51.63	11.36	
2025-01-10 22:10:36.97	51.66	11.37	
2025-01-10 22:10:37.17	51.70	11.38	
2025-01-10 22:10:37.38	51.73	11.39	
2025-01-10 22:10:37.58	51.76	11.40	
2025-01-10 22:10:37.79	51.80	11.40	
2025-01-10 22:10:37.99	51.83	11.41	
2025-01-10 22:10:38.19	51.87	11.42	
2025-01-10 22:10:38.40	51.90	11.43	
2025-01-10 22:10:38.60	51.94	11.44	
2025-01-10 22:10:38.81	51.97	11.45	
2025-01-10 22:10:39.01	52.00	11.45	
2025-01-10 22:10:39.22	52.04	11.46	
2025-01-10 22:10:39.43	52.08	11.47	
2025-01-10 22:10:39.63	52.11	11.48	
2025-01-10 22:10:39.83	52.14	11.49	
2025-01-10 22:10:40.04	52.18	11.50	
2025-01-10 22:10:40.25	52.21	11.50	
2025-01-10 22:10:40.45	52.25	11.51	
2025-01-10 22:10:40.66	52.28	11.52	
2025-01-10 22:10:40.87	52.32	11.53	
2025-01-10 22:10:41.08	52.35	11.54	
2025-01-10 22:10:41.29	52.39	11.55	
2025-01-10 22:10:41.49	52.42	11.56	
2025-01-10 22:10:41.70	52.46	11.56	
2025-01-10 22:10:41.91	52.49	11.57	
2025-01-10 22:10:42.12	52.53	11.58	
2025-01-10 22:10:42.33	52.57	11.59	
2025-01-10 22:10:42.53	52.60	11.60	
2025-01-10 22:10:42.73	52.63	11.61	
2025-01-10 22:10:42.94	52.67	11.61	
2025-01-10 22:10:43.15	52.70	11.62	
2025-01-10 22:10:43.35	52.74	11.63	
2025-01-10 22:10:43.56	52.77	11.64	
2025-01-10 22:10:43.76	52.81	11.65	
2025-01-10 22:10:43.97	52.84	11.66	
2025-01-10 22:10:44.17	52.88	11.66	
2025-01-10 22:10:44.38	52.91	11.67	
2025-01-10 22:10:44.58	52.95	11.68	
2025-01-10 22:10:44.79	52.98	11.69	
2025-01-10 22:10:44.99	53.02	11.70	
2025-01-10 22:10:45.20	53.05	11.70	
2025-01-10 22:10:45.40	53.09	11.71	
2025-01-10 22:10:45.61	53.12	11.72	
2025-01-10 22:10:45.82	53.16	11.73	
2025-01-10 22:10:46.02	53.19	11.74	
2025-01-10 22:10:46.23	53.23	11.75	
2025-01-10 22:10:46.43	53.26	11.75	
2025-01-10 22:10:46.64	53.30	11.76	
2025-01-10 22:10:46.84	53.33	11.77	
2025-01-10 22:10:47.05	53.37	11.78	
2025-01-10 22:10:47.25	53.41	11.79	
2025-01-10 22:10:47.46	53.44	11.79	
2025-01-10 22:10:47.66	53.48	11.80	
2025-01-10 22:10:47.87	53.51	11.81	
2025-01-10 22:10:48.08	53.55	11.82	
2025-01-10 22:10:48.28	53.58	11.83	
2025-01-10 22:10:48.48	53.62	11.84	
2025-01-10 22:10:48.69	53.65	11.84	
2025-01-10 22:10:48.89	53.69	11.85	
2025-01-10 22:10:49.10	53.72	11.86	
2025-01-10 22:10:49.32	53.76	11.87	
2025-01-10 22:10:49.52	53.80	11.88	
2025-01-10 22:10:49.73	53.83	11.88	
2025-01-10 22:10:49.93	53.87	11.89	
2025-01-10 22:10:50.14	53.90	11.90	
2025-01-10 22:10:50.35	53.94	11.91	
2025-01-10 22:10:50.55	53.97	11.92	
2025-01-10 22:10:50.76	54.01	11.92	
2025-01-10 22:10:50.96	54.05	11.93	
2025-01-10 22:10:51.18	54.08	11.94	
2025-01-10 22:10:51.38	54.12	11.95	
2025-01-10 22:10:51.59	54.16	11.96	
2025-01-10 22:10:51.79	54.19	11.97	
2025-01-10 22:10:52.00	54.23	11.97	
2025-01-10 22:10:52.20	54.26	11.98	
2025-01-10 22:10:52.41	54.30	11.99	
2025-01-10 22:10:52.62	54.33	12.00	
2025-01-10 22:10:52.82	54.37	12.01	
2025-01-10 22:10:53.03	54.41	12.01	
2025-01-10 22:10:53.24	54.44	12.02	
2025-01-10 22:10:53.44	54.48	12.03	
2025-01-10 22:10:53.64	54.51	12.04	
2025-01-10 22:10:53.85	54.55	12.05	
2025-01-10 22:10:54.06	54.59	12.05	
2025-01-10 22:10:54.26	54.62	12.06	
2025-01-10 22:10:54.47	54.66	12.07	
2025-01-10 22:10:54.67	54.69	12.08	
2025-01-10 22:10:54.88	54.73	12.08	
2025-01-10 22:10:55.08	54.76	12.09	
2025-01-10 22:10:55.28	54.80	12.10	
2025-01-10 22:10:55.49	54.84	12.11	
2025-01-10 22:10:55.69	54.87	12.12	
2025-01-10 22:10:55.90	54.91	12.12	
2025-01-10 22:10:56.10	54.94	12.13	
2025-01-10 22:10:56.31	54.98	12.14	
2025-01-10 22:10:56.51	55.02	12.15	
2025-01-10 22:10:56.72	55.05	12.16	
2025-01-10 22:10:56.92	55.09	12.16	
2025-01-10 22:10:57.13	55.12	12.17	
2025-01-10 22:10:57.34	55.16	12.18	
2025-01-10 22:10:57.54	55.20	12.19	
2025-01-10 22:10:57.75	55.23	12.19	
2025-01-10 22:10:57.95	55.27	12.20	
2025-01-10 22:10:58.16	55.31	12.21	
2025-01-10 22:10:58.36	55.34	12.22	
2025-01-10 22:10:58.57	55.38	12.23	
2025-01-10 22:10:58.78	55.42	12.23	
2025-01-10 22:10:58.98	55.45	12.24	
2025-01-10 22:10:59.19	55.49	12.25	
2025-01-10 22:10:59.39	55.52	12.26	
2025-01-10 22:10:59.60	55.56	12.26	
2025-01-10 22:10:59.80	55.60	12.27	
2025-01-10 22:11:00.01	55.63	12.28	
2025-01-10 22:11:00.21	55.67	12.29	
2025-01-10 22:11:00.41	55.71	12.29	
2025-01-10 22:11:00.62	55.74	12.30	
2025-01-10 22:11:00.83	55.78	12.31	
2025-01-10 22:11:01.03	55.82	12.32	
2025-01-10 22:11:01.23	55.85	12.32	
2025-01-10 22:11:01.44	55.89	12.33	
2025-01-10 22:11:01.65	55.93	12.34	
2025-01-10 22:11:01.85	55.96	12.35	
2025-01-10 22:11:02.06	56.00	12.36	
2025-01-10 22:11:02.27	56.04	12.36	
2025-01-10 22:11:02.47	56.07	12.37	
2025-01-10 22:11:02.68	56.11	12.38	
2025-01-10 22:11:02.88	56.15	12.39	
2025-01-10 22:11:03.09	56.18	12.39	
2025-01-10 22:11:03.29	56.22	12.40	
2025-01-10 22:11:03.49	56.25	12.41	
2025-01-10 22:11:03.70	56.29	12.42	
2025-01-10 22:11:03.90	56.33	12.42	
2025-01-10 22:11:04.11	56.37	12.43	
2025-01-10 22:11:04.31	56.40	12.44	
2025-01-10 22:11:04.52	56.44	12.45	
2025-01-10 22:11:04.73	56.48	12.45	
2025-01-10 22:11:04.93	56.51	12.46	
2025-01-10 22:11:05.14	56.55	12.47	
2025-01-10 22:11:05.34	56.59	12.48	
2025-01-10 22:11:05.55	56.62	12.48	
2025-01-10 22:11:05.75	56.66	12.49	
2025-01-10 22:11:05.96	56.70	12.50	
2025-01-10 22:11:06.16	56.73	12.51	
2025-01-10 22:11:06.37	56.77	12.51	
2025-01-10 22:11:06.57	56.81	12.52	
2025-01-10 22:11:06.78	56.85	12.53	
2025-01-10 22:11:06.98	56.88	12.54	
2025-01-10 22:11:07.19	56.92	12.54	
2025-01-10 22:11:07.39	56.96	12.55	
2025-01-10 22:11:07.60	56.99	12.56	
2025-01-10 22:11:07.80	57.03	12.57	
2025-01-10 22:11:08.01	57.07	12.57	
2025-01-10 22:11:08.22	57.11	12.58	
2025-01-10 22:11:08.42	57.14	12.59	
2025-01-10 22:11:08.62	57.18	12.59	
2025-01-10 22:11:08.83	57.22	12.60	
2025-01-10 22:11:09.04	57.26	12.61	
2025-01-10 22:11:09.24	57.29	12.62	
2025-01-10 22:11:09.45	57.33	12.62	
2025-01-10 22:11:09.65	57.37	12.63	
2025-01-10 22:11:09.86	57.40	12.64	
2025-01-10 22:11:10.06	57.44	12.65	
2025-01-10 22:11:10.27	57.48	12.65	
2025-01-10 22:11:10.47	57.52	12.66	
2025-01-10 22:11:10.68	57.55	12.67	
2025-01-10 22:11:10.88	57.59	12.67	
2025-01-10 22:11:11.09	57.63	12.68	
2025-01-10 22:11:11.29	57.66	12.69	
2025-01-10 22:11:11.50	57.70	12.70	
2025-01-10 22:11:11.71	57.74	12.70	
2025-01-10 22:11:11.92	57.78	12.71	
2025-01-10 22:11:12.12	57.82	12.72	
2025-01-10 22:11:12.33	57.85	12.73	
2025-01-10 22:11:12.54	57.89	12.73	
2025-01-10 22:11:12.74	57.93	12.74	
2025-01-10 22:11:12.94	57.97	12.75	
2025-01-10 22:11:13.15	58.00	12.75	
2025-01-10 22:11:13.36	58.04	12.76	
2025-01-10 22:11:13.56	58.08	12.77	
2025-01-10 22:11:13.77	58.12	12.78	
2025-01-10 22:11:13.97	58.16	12.78	
2025-01-10 22:11:14.18	58.19	12.79	
2025-01-10 22:11:14.38	58.23	12.80	
2025-01-10 22:11:14.59	58.27	12.80	
2025-01-10 22:11:14.79	58.31	12.81	
2025-01-10 22:11:15.00	58.34	12.82	
2025-01-10 22:11:15.20	58.38	12.83	
2025-01-10 22:11:15.41	58.42	12.83	
2025-01-10 22:11:15.62	58.46	12.84	
2025-01-10 22:11:15.82	58.50	12.85	
2025-01-10 22:11:16.03	58.53	12.85	
2025-01-10 22:11:16.23	58.57	12.86	
2025-01-10 22:11:16.44	58.61	12.87	
2025-01-10 22:11:16.64	58.65	12.87	
2025-01-10 22:11:16.85	58.69	12.88	
2025-01-10 22:11:17.05	58.72	12.89	
2025-01-10 22:11:17.26	58.76	12.90	
2025-01-10 22:11:17.47	58.80	12.90	
2025-01-10 22:11:17.67	58.84	12.91	
2025-01-10 22:11:17.88	58.88	12.92	
2025-01-10 22:11:18.08	58.91	12.92	
2025-01-10 22:11:18.29	58.95	12.93	
2025-01-10 22:11:18.49	58.99	12.94	
2025-01-10 22:11:18.70	59.03	12.94	
2025-01-10 22:11:18.90	59.07	12.95	
2025-01-10 22:11:19.11	59.10	12.96	
2025-01-10 22:11:19.31	59.14	12.96	
2025-01-10 22:11:19.52	59.18	12.97	
2025-01-10 22:11:19.73	59.22	12.98	
2025-01-10 22:11:19.93	59.26	12.99	
2025-01-10 22:11:20.13	59.29	12.99	
2025-01-10 22:11:20.34	59.33	13.00	
2025-01-10 22:11:20.54	59.37	13.01	
2025-01-10 22:11:20.75	59.41	13.01	
2025-01-10 22:11:20.96	59.45	13.02	
2025-01-10 22:11:21.16	59.49	13.03	
2025-01-10 22:11:21.36	59.52	13.03	
2025-01-10 22:11:21.57	59.56	13.04	
2025-01-10 22:11:21.78	59.60	13.05	
2025-01-10 22:11:21.98	59.64	13.05	
2025-01-10 22:11:22.19	59.68	13.06	
2025-01-10 22:11:22.39	59.72	13.07	
2025-01-10 22:11:22.59	59.75	13.07	
2025-01-10 22:11:22.80	59.79	13.08	
2025-01-10 22:11:23.01	59.83	13.09	
2025-01-10 22:11:23.21	59.87	13.09	
2025-01-10 22:11:23.41	59.91	13.10	
2025-01-10 22:11:23.62	59.95	13.11	
2025-01-10 22:11:23.83	59.99	13.11	
2025-01-10 22:11:24.03	60.02	13.12	
2025-01-10 22:11:24.24	60.06	13.13	
2025-01-10 22:11:24.44	60.10	13.13	
2025-01-10 22:11:24.65	60.14	13.14	
2025-01-10 22:11:24.85	60.18	13.15	
2025-01-10 22:11:25.06	60.22	13.15	
2025-01-10 22:11:25.26	60.25	13.16	
2025-01-10 22:11:25.47	60.29	13.17	
2025-01-10 22:11:25.67	60.33	13.17	
2025-01-10 22:11:25.88	60.37	13.18	
2025-01-10 22:11:26.08	60.41	13.19	
2025-01-10 22:11:26.29	60.45	13.19	
2025-01-10 22:11:26.49	60.49	13.20	
2025-01-10 22:11:26.71	60.53	13.21	
2025-01-10 22:11:26.91	60.57	13.21	
2025-01-10 22:11:27.12	60.60	13.22	
2025-01-10 22:11:27.32	60.64	13.23	
2025-01-10 22:11:27.53	60.68	13.23	
2025-01-10 22:11:27.73	60.72	13.24	
2025-01-10 22:11:27.94	60.76	13.24	
2025-01-10 22:11:28.15	60.80	13.25	
2025-01-10 22:11:28.35	60.84	13.26	
2025-01-10 22:11:28.56	60.88	13.26	
2025-01-10 22:11:28.76	60.92	13.27	
2025-01-10 22:11:28.97	60.95	13.28	
2025-01-10 22:11:29.17	60.99	13.28	
2025-01-10 22:11:29.38	61.03	13.29	
2025-01-10 22:11:29.58	61.07	13.30	
2025-01-10 22:11:29.79	61.11	13.30	
2025-01-10 22:11:29.99	61.15	13.31	
2025-01-10 22:11:30.20	61.19	13.32	
2025-01-10 22:11:30.41	61.23	13.32	
2025-01-10 22:11:30.61	61.27	13.33	
2025-01-10 22:11:30.82	61.31	13.33	
2025-01-10 22:11:31.02	61.34	13.34	
2025-01-10 22:11:31.23	61.38	13.35	
2025-01-10 22:11:31.43	61.42	13.35	
2025-01-10 22:11:31.64	61.46	13.36	
2025-01-10 22:11:31.85	61.50	13.37	
2025-01-10 22:11:32.05	61.54	13.37	
2025-01-10 22:11:32.25	61.58	13.38	
2025-01-10 22:11:32.46	61.62	13.38	
2025-01-10 22:11:32.66	61.66	13.39	
2025-01-10 22:11:32.87	61.70	13.40	
2025-01-10 22:11:33.07	61.74	13.40	
2025-01-10 22:11:33.28	61.78	13.41	
2025-01-10 22:11:33.48	61.81	13.42	
2025-01-10 22:11:33.69	61.85	13.42	
2025-01-10 22:11:33.89	61.89	13.43	
2025-01-10 22:11:34.09	61.93	13.43	
2025-01-10 22:11:34.30	61.97	13.44	
2025-01-10 22:11:34.51	62.01	13.45	
2025-01-10 22:11:34.71	62.05	13.45	
2025-01-10 22:11:34.92	62.09	13.46	
2025-01-10 22:11:35.12	62.13	13.46	
2025-01-10 22:11:35.33	62.17	13.47	
2025-01-10 22:11:35.53	62.21	13.48	
2025-01-10 22:11:35.74	62.25	13.48	
2025-01-10 22:11:35.94	62.29	13.49	
2025-01-10 22:11:36.15	62.33	13.49	
2025-01-10 22:11:36.37	62.37	13.50	
2025-01-10 22:11:36.57	62.41	13.51	
2025-01-10 22:11:36.78	62.45	13.51	
2025-01-10 22:11:36.98	62.49	13.52	
2025-01-10 22:11:37.18	62.53	13.52	
2025-01-10 22:11:37.39	62.57	13.53	
2025-01-10 22:11:37.59	62.60	13.54	
2025-01-10 22:11:37.80	62.64	13.54	
2025-01-10 22:11:38.00	62.68	13.55	
2025-01-10 22:11:38.21	62.72	13.55	
2025-01-10 22:11:38.42	62.76	13.56	
2025-01-10 22:11:38.63	62.81	13.57	
2025-01-10 22:11:38.83	62.84	13.57	
2025-01-10 22:11:39.04	62.88	13.58	
2025-01-10 22:11:39.24	62.92	13.58	
2025-01-10 22:11:39.45	62.96	13.59	
2025-01-10 22:11:39.65	63.00	13.60	
2025-01-10 22:11:39.86	63.04	13.60	
2025-01-10 22:11:40.07	63.08	13.61	
2025-01-10 22:11:40.27	63.12	13.61	
2025-01-10 22:11:40.48	63.16	13.62	
2025-01-10 22:11:40.68	63.20	13.63	
2025-01-10 22:11:40.89	63.24	13.63	
2025-01-10 22:11:41.09	63.28	13.64	
2025-01-10 22:11:41.30	63.32	13.64	
2025-01-10 22:11:41.50	63.36	13.65	
2025-01-10 22:11:41.71	63.40	13.65	
2025-01-10 22:11:41.91	63.44	13.66	
2025-01-10 22:11:42.12	63.48	13.67	
2025-01-10 22:11:42.32	63.52	13.67	
2025-01-10 22:11:42.53	63.56	13.68	
2025-01-10 22:11:42.73	63.60	13.68	
2025-01-10 22:11:42.94	63.64	13.69	
2025-01-10 22:11:43.14	63.68	13.69	
2025-01-10 22:11:43.35	63.72	13.70	
2025-01-10 22:11:43.56	63.76	13.71	
2025-01-10 22:11:43.76	63.80	13.71	
2025-01-10 22:11:43.96	63.84	13.72	
2025-01-10 22:11:44.17	63.88	13.72	
2025-01-10 22:11:44.37	63.92	13.73	
2025-01-10 22:11:44.58	63.96	13.73	
2025-01-10 22:11:44.78	64.00	13.74	
2025-01-10 22:11:44.99	64.04	13.74	
2025-01-10 22:11:45.19	64.08	13.75	
2025-01-10 22:11:45.40	64.12	13.76	
2025-01-10 22:11:45.60	64.16	13.76	
2025-01-10 22:11:45.81	64.20	13.77	
2025-01-10 22:11:46.01	64.24	13.77	
2025-01-10 22:11:46.22	64.28	13.78	
2025-01-10 22:11:46.42	64.32	13.78	
2025-01-10 22:11:46.63	64.36	13.79	
2025-01-10 22:11:46.83	64.40	13.79	
2025-01-10 22:11:47.05	64.45	13.80	
2025-01-10 22:11:47.26	64.49	13.80	
2025-01-10 22:11:47.46	64.53	13.81	
2025-01-10 22:11:47.67	64.57	13.82	
2025-01-10 22:11:47.87	64.61	13.82	
2025-01-10 22:11:48.09	64.65	13.83	
2025-01-10 22:11:48.29	64.69	13.83	
2025-01-10 22:11:48.51	64.73	13.84	
2025-01-10 22:11:48.72	64.77	13.84	
2025-01-10 22:11:48.92	64.81	13.85	
2025-01-10 22:11:49.12	64.85	13.85	
2025-01-10 22:11:49.33	64.89	13.86	
2025-01-10 22:11:49.54	64.94	13.86	
2025-01-10 22:11:49.74	64.98	13.87	
2025-01-10 22:11:49.95	65.02	13.87	
2025-01-10 22:11:50.15	65.06	13.88	
2025-01-10 22:11:50.35	65.10	13.88	
2025-01-10 22:11:50.56	65.14	13.89	
2025-01-10 22:11:50.77	65.18	13.90	
2025-01-10 22:11:50.97	65.22	13.90	
2025-01-10 22:11:51.18	65.26	13.91	
2025-01-10 22:11:51.38	65.30	13.91	
2025-01-10 22:11:51.59	65.34	13.92	
2025-01-10 22:11:51.79	65.38	13.92	
2025-01-10 22:11:52.00	65.42	13.93	
2025-01-10 22:11:52.20	65.46	13.93	
2025-01-10 22:11:52.41	65.50	13.94	
2025-01-10 22:11:52.61	65.54	13.94	
2025-01-10 22:11:52.82	65.58	13.95	
2025-01-10 22:11:53.02	65.62	13.95	
2025-01-10 22:11:53.23	65.67	13.96	
2025-01-10 22:11:53.43	65.71	13.96	
2025-01-10 22:11:53.64	65.75	13.97	
2025-01-10 22:11:53.85	65.79	13.97	
2025-01-10 22:11:54.05	65.83	13.98	
2025-01-10 22:11:54.26	65.87	13.98	
2025-01-10 22:11:54.46	65.91	13.99	
2025-01-10 22:11:54.67	65.95	13.99	
2025-01-10 22:11:54.87	65.99	14.00	
2025-01-10 22:11:55.08	66.03	14.00	
2025-01-10 22:11:55.28	66.07	14.01	
2025-01-10 22:11:55.50	66.12	14.01	
2025-01-10 22:11:55.70	66.16	14.02	
2025-01-10 22:11:55.91	66.20	14.02	
2025-01-10 22:11:56.12	66.24	14.03	
2025-01-10 22:11:56.32	66.28	14.03	
2025-01-10 22:11:56.53	66.32	14.04	
2025-01-10 22:11:56.73	66.36	14.04	
2025-01-10 22:11:56.94	66.40	14.05	
2025-01-10 22:11:57.14	66.44	14.05	
2025-01-10 22:11:57.35	66.49	14.06	
2025-01-10 22:11:57.55	66.53	14.06	
2025-01-10 22:11:57.76	66.57	14.07	
2025-01-10 22:11:57.97	66.61	14.07	
2025-01-10 22:11:58.17	66.65	14.08	
2025-01-10 22:11:58.38	66.69	14.08	
2025-01-10 22:11:58.58	66.73	14.08	
2025-01-10 22:11:58.80	66.78	14.09	
2025-01-10 22:11:59.00	66.82	14.09	
2025-01-10 22:11:59.21	66.86	14.10	
2025-01-10 22:11:59.41	66.90	14.10	
2025-01-10 22:11:59.62	66.94	14.11	
2025-01-10 22:11:59.82	66.98	14.11	
2025-01-10 22:12:00.03	67.02	14.12	
2025-01-10 22:12:00.23	67.06	14.12	
2025-01-10 22:12:00.44	67.11	14.13	
2025-01-10 22:12:00.64	67.15	14.13	
2025-01-10 22:12:00.85	67.19	14.14	
2025-01-10 22:12:01.05	67.23	14.14	
2025-01-10 22:12:01.26	67.27	14.15	
2025-01-10 22:12:01.47	67.31	14.15	
2025-01-10 22:12:01.67	67.35	14.15	
2025-01-10 22:12:01.87	67.39	14.16	
2025-01-10 22:12:02.08	67.43	14.16	
2025-01-10 22:12:02.28	67.47	14.17	
2025-01-10 22:12:02.49	67.52	14.17	
2025-01-10 22:12:02.69	67.56	14.18	
2025-01-10 22:12:02.90	67.60	14.18	
2025-01-10 22:12:03.10	67.64	14.19	
2025-01-10 22:12:03.31	67.68	14.19	
2025-01-10 22:12:03.51	67.72	14.20	
2025-01-10 22:12:03.72	67.77	14.20	
2025-01-10 22:12:03.92	67.81	14.20	
2025-01-10 22:12:04.13	67.85	14.21	
2025-01-10 22:12:04.34	67.89	14.21	
2025-01-10 22:12:04.54	67.93	14.22	
2025-01-10 22:12:04.75	67.97	14.22	
2025-01-10 22:12:04.95	68.01	14.23	
2025-01-10 22:12:05.17	68.06	14.23	
2025-01-10 22:12:05.37	68.10	14.23	
2025-01-10 22:12:05.58	68.14	14.24	
2025-01-10 22:12:05.79	68.18	14.24	
2025-01-10 22:12:05.99	68.22	14.25	
2025-01-10 22:12:06.19	68.26	14.25	
2025-01-10 22:12:06.40	68.31	14.26	
2025-01-10 22:12:06.61	68.35	14.26	
2025-01-10 22:12:06.81	68.39	14.26	
2025-01-10 22:12:07.02	68.43	14.27	
2025-01-10 22:12:07.24	68.48	14.27	
2025-01-10 22:12:07.44	68.52	14.28	
2025-01-10 22:12:07.65	68.56	14.28	
2025-01-10 22:12:07.85	68.60	14.29	
2025-01-10 22:12:08.06	68.64	14.29	
2025-01-10 22:12:08.28	68.69	14.29	
2025-01-10 22:12:08.48	68.73	14.30	
2025-01-10 22:12:08.69	68.77	14.30	
2025-01-10 22:12:08.89	68.81	14.31	
2025-01-10 22:12:09.10	68.85	14.31	
2025-01-10 22:12:09.31	68.90	14.32	
2025-01-10 22:12:09.52	68.94	14.32	
2025-01-10 22:12:09.72	68.98	14.32	
2025-01-10 22:12:09.93	69.02	14.33	
2025-01-10 22:12:10.13	69.06	14.33	
2025-01-10 22:12:10.34	69.11	14.34	
2025-01-10 22:12:10.54	69.15	14.34	
2025-01-10 22:12:10.75	69.19	14.34	
2025-01-10 22:12:10.96	69.23	14.35	
2025-01-10 22:12:11.16	69.27	14.35	
2025-01-10 22:12:11.37	69.32	14.36	
2025-01-10 22:12:11.58	69.36	14.36	
2025-01-10 22:12:11.79	69.40	14.36	
2025-01-10 22:12:11.99	69.44	14.37	
2025-01-10 22:12:12.20	69.49	14.37	
2025-01-10 22:12:12.40	69.53	14.38	
2025-01-10 22:12:12.61	69.57	14.38	
2025-01-10 22:12:12.81	69.61	14.38	
2025-01-10 22:12:13.02	69.65	14.39	
2025-01-10 22:12:13.22	69.69	14.39	
2025-01-10 22:12:13.43	69.74	14.39	
2025-01-10 22:12:13.63	69.78	14.40	
2025-01-10 22:12:13.84	69.82	14.40	
2025-01-10 22:12:14.04	69.86	14.41	
2025-01-10 22:12:14.25	69.90	14.41	
2025-01-10 22:12:14.45	69.94	14.41	
2025-01-10 22:12:14.65	69.99	14.42	
2025-01-10 22:12:14.86	70.03	14.42	
2025-01-10 22:12:15.06	70.07	14.42	
2025-01-10 22:12:15.27	70.11	14.43	
2025-01-10 22:12:15.48	70.16	14.43	
2025-01-10 22:12:15.68	70.20	14.44	
2025-01-10 22:12:15.89	70.24	14.44	
2025-01-10 22:12:16.09	70.28	14.44	
2025-01-10 22:12:16.30	70.32	14.45	
2025-01-10 22:12:16.50	70.36	14.45	
2025-01-10 22:12:16.71	70.41	14.45	
2025-01-10 22:12:16.91	70.45	14.46	
2025-01-10 22:12:17.12	70.49	14.46	
2025-01-10 22:12:17.32	70.53	14.46	
2025-01-10 22:12:17.53	70.58	14.47	
2025-01-10 22:12:17.73	70.62	14.47	
2025-01-10 22:12:17.94	70.66	14.47	
2025-01-10 22:12:18.15	70.70	14.48	
2025-01-10 22:12:18.35	70.74	14.48	
2025-01-10 22:12:18.56	70.79	14.48	
2025-01-10 22:12:18.76	70.83	14.49	
2025-01-10 22:12:18.98	70.87	14.49	
2025-01-10 22:12:19.18	70.92	14.50	
2025-01-10 22:12:19.39	70.96	14.50	
2025-01-10 22:12:19.60	71.00	14.50	
2025-01-10 22:12:19.80	71.04	14.51	
2025-01-10 22:12:20.01	71.09	14.51	
2025-01-10 22:12:20.21	71.13	14.51	
2025-01-10 22:12:20.42	71.17	14.52	
2025-01-10 22:12:20.63	71.21	14.52	
2025-01-10 22:12:20.83	71.25	14.52	
2025-01-10 22:12:21.04	71.30	14.53	
2025-01-10 22:12:21.24	71.34	14.53	
2025-01-10 22:12:21.45	71.38	14.53	
2025-01-10 22:12:21.65	71.42	14.54	
2025-01-10 22:12:21.86	71.47	14.54	
2025-01-10 22:12:22.07	71.51	14.54	
2025-01-10 22:12:22.28	71.55	14.55	
2025-01-10 22:12:22.49	71.60	14.55	
2025-01-10 22:12:22.69	71.64	14.55	
2025-01-10 22:12:22.90	71.68	14.55	
2025-01-10 22:12:23.10	71.72	14.56	
2025-01-10 22:12:23.31	71.77	14.56	
2025-01-10 22:12:23.51	71.81	14.56	
2025-01-10 22:12:23.72	71.85	14.57	
2025-01-10 22:12:23.92	71.89	14.57	
2025-01-10 22:12:24.12	71.93	14.57	
2025-01-10 22:12:24.33	71.98	14.58	
2025-01-10 22:12:24.54	72.02	14.58	
2025-01-10 22:12:24.74	72.06	14.58	
2025-01-10 22:12:24.95	72.11	14.59	
2025-01-10 22:12:25.15	72.15	14.59	
2025-01-10 22:12:25.36	72.19	14.59	
2025-01-10 22:12:25.56	72.23	14.59	
2025-01-10 22:12:25.77	72.28	14.60	
2025-01-10 22:12:25.98	72.32	14.60	
2025-01-10 22:12:26.18	72.36	14.60	
2025-01-10 22:12:26.39	72.40	14.61	
2025-01-10 22:12:26.59	72.45	14.61	
2025-01-10 22:12:26.79	72.49	14.61	
2025-01-10 22:12:27.00	72.53	14.62	
2025-01-10 22:12:27.21	72.57	14.62	
2025-01-10 22:12:27.41	72.62	14.62	
2025-01-10 22:12:27.62	72.66	14.62	
2025-01-10 22:12:27.82	72.70	14.63	
2025-01-10 22:12:28.03	72.74	14.63	
2025-01-10 22:12:28.24	72.79	14.63	
2025-01-10 22:12:28.44	72.83	14.63	
2025-01-10 22:12:28.64	72.87	14.64	
2025-01-10 22:12:28.85	72.91	14.64	
2025-01-10 22:12:29.05	72.96	14.64	
2025-01-10 22:12:29.26	73.00	14.65	
2025-01-10 22:12:29.47	73.04	14.65	
2025-01-10 22:12:29.67	73.08	14.65	
2025-01-10 22:12:29.88	73.13	14.65	
2025-01-10 22:12:30.08	73.17	14.66	
2025-01-10 22:12:30.29	73.21	14.66	
2025-01-10 22:12:30.50	73.26	14.66	
2025-01-10 22:12:30.70	73.30	14.66	
2025-01-10 22:12:30.91	73.34	14.67	
2025-01-10 22:12:31.11	73.38	14.67	
2025-01-10 22:12:31.32	73.43	14.67	
2025-01-10 22:12:31.52	73.47	14.67	
2025-01-10 22:12:31.73	73.51	14.68	
2025-01-10 22:12:31.93	73.55	14.68	
2025-01-10 22:12:32.14	73.60	14.68	
2025-01-10 22:12:32.34	73.64	14.68	
2025-01-10 22:12:32.55	73.68	14.69	
2025-01-10 22:12:32.75	73.73	14.69	
2025-01-10 22:12:32.96	73.77	14.69	
2025-01-10 22:12:33.16	73.81	14.69	
2025-01-10 22:12:33.37	73.85	14.70	
2025-01-10 22:12:33.57	73.90	14.70	
2025-01-10 22:12:33.78	73.94	14.70	
2025-01-10 22:12:34.00	73.99	14.70	
2025-01-10 22:12:34.20	74.03	14.71	
2025-01-10 22:12:34.41	74.07	14.71	
2025-01-10 22:12:34.61	74.11	14.71	
2025-01-10 22:12:34.82	74.16	14.71	
2025-01-10 22:12:35.04	74.20	14.72	
2025-01-10 22:12:35.24	74.24	14.72	
2025-01-10 22:12:35.45	74.29	14.72	
2025-01-10 22:12:35.65	74.33	14.72	
2025-01-10 22:12:35.86	74.37	14.73	
2025-01-10 22:12:36.06	74.42	14.73	
2025-01-10 22:12:36.27	74.46	14.73	
2025-01-10 22:12:36.47	74.50	14.73	
2025-01-10 22:12:36.68	74.55	14.73	
2025-01-10 22:12:36.89	74.59	14.74	
2025-01-10 22:12:37.09	74.63	14.74	
2025-01-10 22:12:37.29	74.67	14.74	
2025-01-10 22:12:37.49	74.71	14.74	
2025-01-10 22:12:37.70	74.76	14.75	
2025-01-10 22:12:37.90	74.80	14.75	
2025-01-10 22:12:38.11	74.84	14.75	
2025-01-10 22:12:38.33	74.89	14.75	
2025-01-10 22:12:38.53	74.93	14.75	
2025-01-10 22:12:38.74	74.98	14.76	
2025-01-10 22:12:38.95	75.02	14.76	
2025-01-10 22:12:39.15	75.06	14.76	
2025-01-10 22:12:39.36	75.11	14.76	
2025-01-10 22:12:39.56	75.15	14.76	
2025-01-10 22:12:39.76	75.19	14.77	
2025-01-10 22:12:39.97	75.23	14.77	
2025-01-10 22:12:40.17	75.28	14.77	
2025-01-10 22:12:40.38	75.32	14.77	
2025-01-10 22:12:40.58	75.36	14.77	
2025-01-10 22:12:40.79	75.41	14.78	
2025-01-10 22:12:40.99	75.45	14.78	
2025-01-10 22:12:41.20	75.49	14.78	
2025-01-10 22:12:41.40	75.53	14.78	
2025-01-10 22:12:41.61	75.58	14.78	
2025-01-10 22:12:41.81	75.62	14.78	
2025-01-10 22:12:42.02	75.66	14.79	
2025-01-10 22:12:42.22	75.71	14.79	
2025-01-10 22:12:42.43	75.75	14.79	
2025-01-10 22:12:42.63	75.79	14.79	
2025-01-10 22:12:42.84	75.84	14.79	
2025-01-10 22:12:43.04	75.88	14.80	
2025-01-10 22:12:43.25	75.92	14.80	
2025-01-10 22:12:43.45	75.96	14.80	
2025-01-10 22:12:43.67	76.01	14.80	
2025-01-10 22:12:43.88	76.05	14.80	
2025-01-10 22:12:44.08	76.10	14.80	
2025-01-10 22:12:44.28	76.14	14.81	
2025-01-10 22:12:44.49	76.18	14.81	
2025-01-10 22:12:44.71	76.23	14.81	
2025-01-10 22:12:44.91	76.27	14.81	
2025-01-10 22:12:45.12	76.31	14.81	
2025-01-10 22:12:45.32	76.36	14.81	
2025-01-10 22:12:45.53	76.40	14.82	
2025-01-10 22:12:45.73	76.44	14.82	
2025-01-10 22:12:45.94	76.49	14.82	
2025-01-10 22:12:46.14	76.53	14.82	
2025-01-10 22:12:46.35	76.57	14.82	
2025-01-10 22:12:46.55	76.61	14.82	
2025-01-10 22:12:46.76	76.66	14.82	
2025-01-10 22:12:46.96	76.70	14.83	
2025-01-10 22:12:47.16	76.74	14.83	
2025-01-10 22:12:47.37	76.79	14.83	
2025-01-10 22:12:47.57	76.83	14.83	
2025-01-10 22:12:47.78	76.87	14.83	
2025-01-10 22:12:47.98	76.92	14.83	
2025-01-10 22:12:48.19	76.96	14.83	
2025-01-10 22:12:48.39	77.00	14.84	
2025-01-10 22:12:48.60	77.05	14.84	
2025-01-10 22:12:48.81	77.09	14.84	
2025-01-10 22:12:49.01	77.13	14.84	
2025-01-10 22:12:49.21	77.17	14.84	
2025-01-10 22:12:49.42	77.22	14.84	
2025-01-10 22:12:49.62	77.26	14.84	
2025-01-10 22:12:49.83	77.30	14.84	
2025-01-10 22:12:50.05	77.35	14.85	
2025-01-10 22:12:50.25	77.39	14.85	
2025-01-10 22:12:50.46	77.44	14.85	
2025-01-10 22:12:50.67	77.48	14.85	
2025-01-10 22:12:50.87	77.52	14.85	
2025-01-10 22:12:51.08	77.57	14.85	
2025-01-10 22:12:51.28	77.61	14.85	
2025-01-10 22:12:51.49	77.65	14.85	
2025-01-10 22:12:51.69	77.70	14.85	
2025-01-10 22:12:51.90	77.74	14.86	
2025-01-10 22:12:52.11	77.79	14.86	
2025-01-10 22:12:52.31	77.83	14.86	
2025-01-10 22:12:52.52	77.87	14.86	
2025-01-10 22:12:52.72	77.91	14.86	
2025-01-10 22:12:52.93	77.96	14.86	
2025-01-10 22:12:53.13	78.00	14.86	
2025-01-10 22:12:53.33	78.04	14.86	
2025-01-10 22:12:53.54	78.09	14.86	
2025-01-10 22:12:53.75	78.13	14.87	
2025-01-10 22:12:53.95	78.17	14.87	
2025-01-10 22:12:54.16	78.22	14.87	
2025-01-10 22:12:54.36	78.26	14.87	
2025-01-10 22:12:54.56	78.30	14.87	
2025-01-10 22:12:54.77	78.35	14.87	
2025-01-10 22:12:54.98	78.39	14.87	
2025-01-10 22:12:55.18	78.43	14.87	
2025-01-10 22:12:55.39	78.48	14.87	
2025-01-10 22:12:55.59	78.52	14.87	
2025-01-10 22:12:55.80	78.56	14.87	
2025-01-10 22:12:56.00	78.61	14.87	
2025-01-10 22:12:56.21	78.65	14.88	
2025-01-10 22:12:56.41	78.69	14.88	
2025-01-10 22:12:56.62	78.74	14.88	
2025-01-10 22:12:56.82	78.78	14.88	
2025-01-10 22:12:57.03	78.82	14.88	
2025-01-10 22:12:57.23	78.87	14.88	
2025-01-10 22:12:57.44	78.91	14.88	
2025-01-10 22:12:57.66	78.96	14.88	
2025-01-10 22:12:57.86	79.00	14.88	
2025-01-10 22:12:58.07	79.04	14.88	
2025-01-10 22:12:58.27	79.08	14.88	
2025-01-10 22:12:58.48	79.13	14.88	
2025-01-10 22:12:58.68	79.17	14.88	
2025-01-10 22:12:58.89	79.22	14.88	
2025-01-10 22:12:59.09	79.26	14.88	
2025-01-10 22:12:59.30	79.30	14.89	
2025-01-10 22:12:59.50	79.34	14.89	
2025-01-10 22:12:59.71	79.39	14.89	
2025-01-10 22:12:59.91	79.43	14.89	
2025-01-10 22:13:00.11	79.47	14.89	
2025-01-10 22:13:00.32	79.52	14.89	
2025-01-10 22:13:00.53	79.56	14.89	
2025-01-10 22:13:00.73	79.60	14.89	
2025-01-10 22:13:00.94	79.65	14.89	
2025-01-10 22:13:01.14	79.69	14.89	
2025-01-10 22:13:01.35	79.74	14.89	
2025-01-10 22:13:01.56	79.78	14.89	
2025-01-10 22:13:01.76	79.82	14.89	
2025-01-10 22:13:01.97	79.87	14.89	
2025-01-10 22:13:02.17	79.91	14.89	
2025-01-10 22:13:02.38	79.95	14.89	
2025-01-10 22:13:02.58	79.99	14.89	
2025-01-10 22:13:02.79	80.04	14.89	
2025-01-10 22:13:02.99	80.08	14.89	
2025-01-10 22:13:03.20	80.13	14.89	
2025-01-10 22:13:03.40	80.17	14.89	
2025-01-10 22:13:03.62	80.21	14.89	
2025-01-10 22:13:03.83	80.26	14.89	
2025-01-10 22:13:04.03	80.30	14.89	
2025-01-10 22:13:04.24	80.35	14.89	
2025-01-10 22:13:04.44	80.39	14.89	
2025-01-10 22:13:04.64	80.43	14.89	
2025-01-10 22:13:04.85	80.47	14.89	
2025-01-10 22:13:05.05	80.52	14.89	
2025-01-10 22:13:05.26	80.56	14.89	
2025-01-10 22:13:05.46	80.60	14.89	
2025-01-10 22:13:05.67	80.65	14.89	
2025-01-10 22:13:05.88	80.69	14.89	
2025-01-10 22:13:06.08	80.73	14.89	
2025-01-10 22:13:06.29	80.78	14.89	
2025-01-10 22:13:06.49	80.82	14.89	
2025-01-10 22:13:06.70	80.87	14.89	
2025-01-10 22:13:06.90	80.91	14.89	
2025-01-10 22:13:07.11	80.95	14.89	
2025-01-10 22:13:07.31	80.99	14.89	
2025-01-10 22:13:07.52	81.04	14.89	
2025-01-10 22:13:07.72	81.08	14.89	
2025-01-10 22:13:07.93	81.13	14.89	
2025-01-10 22:13:08.13	81.17	14.89	
2025-01-10 22:13:08.35	81.21	14.89	
2025-01-10 22:13:08.56	81.26	14.89	
2025-01-10 22:13:08.76	81.30	14.89	
2025-01-10 22:13:08.97	81.35	14.89	
2025-01-10 22:13:09.17	81.39	14.89	
2025-01-10 22:13:09.38	81.43	14.89	
2025-01-10 22:13:09.58	81.47	14.89	
2025-01-10 22:13:09.79	81.52	14.89	
2025-01-10 22:13:10.00	81.56	14.89	
2025-01-10 22:13:10.20	81.61	14.89	
2025-01-10 22:13:10.41	81.65	14.89	
2025-01-10 22:13:10.61	81.69	14.89	
2025-01-10 22:13:10.82	81.74	14.89	
2025-01-10 22:13:11.02	81.78	14.89	
2025-01-10 22:13:11.23	81.82	14.89	
2025-01-10 22:13:11.43	81.87	14.89	
2025-01-10 22:13:11.64	81.91	14.89	
2025-01-10 22:13:11.84	81.95	14.89	
2025-01-10 22:13:12.05	82.00	14.89	
2025-01-10 22:13:12.25	82.04	14.89	
2025-01-10 22:13:12.46	82.08	14.89	
2025-01-10 22:13:12.66	82.12	14.89	
2025-01-10 22:13:12.87	82.17	14.89	
2025-01-10 22:13:13.07	82.21	14.89	
2025-01-10 22:13:13.28	82.26	14.89	
2025-01-10 22:13:13.48	82.30	14.89	
2025-01-10 22:13:13.69	82.34	14.89	
2025-01-10 22:13:13.89	82.38	14.88	
2025-01-10 22:13:14.10	82.43	14.88	
2025-01-10 22:13:14.30	82.47	14.88	
2025-01-10 22:13:14.51	82.52	14.88	
2025-01-10 22:13:14.71	82.56	14.88	
2025-01-10 22:13:14.92	82.60	14.88	
2025-01-10 22:13:15.12	82.64	14.88	
2025-01-10 22:13:15.33	82.69	14.88	
2025-01-10 22:13:15.53	82.73	14.88	
2025-01-10 22:13:15.74	82.78	14.88	
2025-01-10 22:13:15.94	82.82	14.88	
2025-01-10 22:13:16.15	82.86	14.88	
2025-01-10 22:13:16.36	82.91	14.88	
2025-01-10 22:13:16.56	82.95	14.88	
2025-01-10 22:13:16.76	82.99	14.88	
2025-01-10 22:13:16.97	83.04	14.87	
2025-01-10 22:13:17.18	83.08	14.87	
2025-01-10 22:13:17.38	83.12	14.87	
2025-01-10 22:13:17.59	83.17	14.87	
2025-01-10 22:13:17.79	83.21	14.87	
2025-01-10 22:13:18.00	83.25	14.87	
2025-01-10 22:13:18.20	83.29	14.87	
2025-01-10 22:13:18.41	83.34	14.87	
2025-01-10 22:13:18.61	83.38	14.87	
2025-01-10 22:13:18.82	83.43	14.87	
2025-01-10 22:13:19.02	83.47	14.87	
2025-01-10 22:13:19.23	83.51	14.87	
2025-01-10 22:13:19.43	83.55	14.86	
2025-01-10 22:13:19.64	83.60	14.86	
2025-01-10 22:13:19.84	83.64	14.86	
2025-01-10 22:13:20.05	83.69	14.86	
2025-01-10 22:13:20.25	83.73	14.86	
2025-01-10 22:13:20.46	83.77	14.86	
2025-01-10 22:13:20.66	83.81	14.86	
2025-01-10 22:13:20.87	83.86	14.86	
2025-01-10 22:13:21.07	83.90	14.86	
2025-01-10 22:13:21.28	83.94	14.86	
2025-01-10 22:13:21.49	83.99	14.85	
2025-01-10 22:13:21.69	84.03	14.85	
2025-01-10 22:13:21.90	84.08	14.85	
2025-01-10 22:13:22.10	84.12	14.85	
2025-01-10 22:13:22.31	84.16	14.85	
2025-01-10 22:13:22.51	84.20	14.85	
2025-01-10 22:13:22.72	84.25	14.85	
2025-01-10 22:13:22.92	84.29	14.85	
2025-01-10 22:13:23.13	84.33	14.84	
2025-01-10 22:13:23.33	84.38	14.84	
2025-01-10 22:13:23.54	84.42	14.84	
2025-01-10 22:13:23.74	84.46	14.84	
2025-01-10 22:13:23.95	84.51	14.84	
2025-01-10 22:13:24.15	84.55	14.84	
2025-01-10 22:13:24.36	84.59	14.84	
2025-01-10 22:13:24.56	84.64	14.84	
2025-01-10 22:13:24.77	84.68	14.83	
2025-01-10 22:13:24.97	84.72	14.83	
2025-01-10 22:13:25.18	84.77	14.83	
2025-01-10 22:13:25.39	84.81	14.83	
2025-01-10 22:13:25.60	84.85	14.83	
2025-01-10 22:13:25.80	84.90	14.83	
2025-01-10 22:13:26.01	84.94	14.83	
2025-01-10 22:13:26.21	84.98	14.82	
2025-01-10 22:13:26.42	85.03	14.82	
2025-01-10 22:13:26.62	85.07	14.82	
2025-01-10 22:13:26.83	85.11	14.82	
2025-01-10 22:13:27.04	85.16	14.82	
2025-01-10 22:13:27.24	85.20	14.82	
2025-01-10 22:13:27.44	85.24	14.82	
2025-01-10 22:13:27.65	85.29	14.81	
2025-01-10 22:13:27.85	85.33	14.81	
2025-01-10 22:13:28.06	85.37	14.81	
2025-01-10 22:13:28.26	85.41	14.81	
2025-01-10 22:13:28.47	85.46	14.81	
2025-01-10 22:13:28.67	85.50	14.81	
2025-01-10 22:13:28.88	85.54	14.80	
2025-01-10 22:13:29.08	85.59	14.80	
2025-01-10 22:13:29.29	85.63	14.80	
2025-01-10 22:13:29.49	85.67	14.80	
2025-01-10 22:13:29.70	85.72	14.80	
2025-01-10 22:13:29.90	85.76	14.80	
2025-01-10 22:13:30.11	85.80	14.79	
2025-01-10 22:13:30.31	85.85	14.79	
2025-01-10 22:13:30.52	85.89	14.79	
2025-01-10 22:13:30.73	85.93	14.79	
2025-01-10 22:13:30.93	85.98	14.79	
2025-01-10 22:13:31.14	86.02	14.78	
2025-01-10 22:13:31.34	86.06	14.78	
2025-01-10 22:13:31.55	86.11	14.78	
2025-01-10 22:13:31.75	86.15	14.78	
2025-01-10 22:13:31.96	86.19	14.78	
2025-01-10 22:13:32.16	86.23	14.78	
2025-01-10 22:13:32.37	86.28	14.77	
2025-01-10 22:13:32.57	86.32	14.77	
2025-01-10 22:13:32.78	86.36	14.77	
2025-01-10 22:13:32.98	86.41	14.77	
2025-01-10 22:13:33.19	86.45	14.77	
2025-01-10 22:13:33.40	86.49	14.76	
2025-01-10 22:13:33.60	86.54	14.76	
2025-01-10 22:13:33.80	86.58	14.76	
2025-01-10 22:13:34.01	86.62	14.76	
2025-01-10 22:13:34.21	86.66	14.76	
2025-01-10 22:13:34.42	86.71	14.75	
2025-01-10 22:13:34.62	86.75	14.75	
2025-01-10 22:13:34.83	86.79	14.75	
2025-01-10 22:13:35.05	86.84	14.75	
2025-01-10 22:13:35.25	86.88	14.75	
2025-01-10 22:13:35.46	86.92	14.74	
2025-01-10 22:13:35.66	86.97	14.74	
2025-01-10 22:13:35.87	87.01	14.74	
2025-01-10 22:13:36.07	87.05	14.74	
2025-01-10 22:13:36.28	87.10	14.73	
2025-01-10 22:13:36.49	87.14	14.73	
2025-01-10 22:13:36.69	87.18	14.73	
2025-01-10 22:13:36.90	87.23	14.73	
2025-01-10 22:13:37.10	87.27	14.73	
2025-01-10 22:13:37.31	87.31	14.72	
2025-01-10 22:13:37.51	87.35	14.72	
2025-01-10 22:13:37.72	87.40	14.72	
2025-01-10 22:13:37.92	87.44	14.72	
2025-01-10 22:13:38.13	87.48	14.71	
2025-01-10 22:13:38.34	87.53	14.71	
2025-01-10 22:13:38.54	87.57	14.71	
2025-01-10 22:13:38.74	87.61	14.71	
2025-01-10 22:13:38.95	87.65	14.70	
2025-01-10 22:13:39.15	87.70	14.70	
2025-01-10 22:13:39.36	87.74	14.70	
2025-01-10 22:13:39.56	87.78	14.70	
2025-01-10 22:13:39.77	87.83	14.70	
2025-01-10 22:13:39.97	87.87	14.69	
2025-01-10 22:13:40.18	87.91	14.69	
2025-01-10 22:13:40.39	87.96	14.69	
2025-01-10 22:13:40.60	88.00	14.69	
2025-01-10 22:13:40.81	88.04	14.68	
2025-01-10 22:13:41.01	88.08	14.68	
2025-01-10 22:13:41.22	88.13	14.68	
2025-01-10 22:13:41.42	88.17	14.68	
2025-01-10 22:13:41.63	88.21	14.67	
2025-01-10 22:13:41.83	88.26	14.67	
2025-01-10 22:13:42.04	88.30	14.67	
2025-01-10 22:13:42.24	88.34	14.66	
2025-01-10 22:13:42.45	88.38	14.66	
2025-01-10 22:13:42.65	88.43	14.66	
2025-01-10 22:13:42.86	88.47	14.66	
2025-01-10 22:13:43.06	88.51	14.65	
2025-01-10 22:13:43.27	88.56	14.65	
2025-01-10 22:13:43.47	88.60	14.65	
2025-01-10 22:13:43.67	88.64	14.65	
2025-01-10 22:13:43.88	88.68	14.64	
2025-01-10 22:13:44.08	88.72	14.64	
2025-01-10 22:13:44.29	88.77	14.64	
2025-01-10 22:13:44.49	88.81	14.64	
2025-01-10 22:13:44.70	88.85	14.63	
2025-01-10 22:13:44.90	88.89	14.63	
2025-01-10 22:13:45.11	88.94	14.63	
2025-01-10 22:13:45.31	88.98	14.62	
