passes_logs/2025/01/10/SPB_Silybum_02/SPB_Silybum_02__20250110_014703_SUOMI_NPP_rec.log

#Pass ID: 20250110_014703_SUOMI NPP
#Satellite: SUOMI NPP
#Configuration: NPP
#Start time: 2025-01-10 01:47:02

#Version: 2.0.20230423
#Station: SPB_Silybum_02
#Location: 30.233357 lon 59.946436 lat
#TLE: 1 37849U 11061A   25009.14008564  .00000193  00000+0  11215-3 0  9999
#TLE: 2 37849  98.7440 310.2032 0001887  50.1400 309.9942 14.19535382684083

#Time	Az	El	Level	Level2	SNR	BER	Gain	Gain2
2025-01-10 01:47:04.37	14.69	4.02	
2025-01-10 01:47:04.58	14.68	4.04	
2025-01-10 01:47:04.78	14.67	4.05	
2025-01-10 01:47:04.98	14.65	4.06	
2025-01-10 01:47:05.19	14.64	4.07	
2025-01-10 01:47:05.39	14.63	4.09	
2025-01-10 01:47:05.60	14.62	4.10	
2025-01-10 01:47:05.81	14.61	4.11	
2025-01-10 01:47:06.02	14.59	4.13	
2025-01-10 01:47:06.23	14.58	4.14	
2025-01-10 01:47:06.44	14.57	4.15	
2025-01-10 01:47:06.64	14.56	4.17	
2025-01-10 01:47:06.85	14.55	4.18	
2025-01-10 01:47:07.05	14.54	4.19	
2025-01-10 01:47:07.26	14.52	4.21	
2025-01-10 01:47:07.47	14.51	4.22	
2025-01-10 01:47:07.67	14.50	4.23	
2025-01-10 01:47:07.88	14.49	4.24	
2025-01-10 01:47:08.09	14.48	4.26	
2025-01-10 01:47:08.30	14.46	4.27	
2025-01-10 01:47:08.50	14.45	4.28	
2025-01-10 01:47:08.71	14.44	4.30	
2025-01-10 01:47:08.91	14.43	4.31	
2025-01-10 01:47:09.12	14.42	4.32	
2025-01-10 01:47:09.32	14.40	4.34	
2025-01-10 01:47:09.53	14.39	4.35	
2025-01-10 01:47:09.74	14.38	4.36	
2025-01-10 01:47:09.94	14.37	4.38	
2025-01-10 01:47:10.14	14.36	4.39	
2025-01-10 01:47:10.35	14.34	4.40	
2025-01-10 01:47:10.56	14.33	4.42	
2025-01-10 01:47:10.76	14.32	4.43	
2025-01-10 01:47:10.97	14.31	4.44	
2025-01-10 01:47:11.17	14.30	4.45	
2025-01-10 01:47:11.38	14.28	4.47	
2025-01-10 01:47:11.58	14.27	4.48	
2025-01-10 01:47:11.78	14.26	4.49	
2025-01-10 01:47:11.99	14.25	4.51	
2025-01-10 01:47:12.20	14.24	4.52	
2025-01-10 01:47:12.40	14.22	4.53	
2025-01-10 01:47:12.61	14.21	4.55	
2025-01-10 01:47:12.82	14.20	4.56	
2025-01-10 01:47:13.02	14.19	4.57	
2025-01-10 01:47:13.23	14.18	4.59	
2025-01-10 01:47:13.43	14.16	4.60	
2025-01-10 01:47:13.63	14.15	4.61	
2025-01-10 01:47:13.84	14.14	4.63	
2025-01-10 01:47:14.04	14.13	4.64	
2025-01-10 01:47:14.25	14.12	4.65	
2025-01-10 01:47:14.45	14.10	4.67	
2025-01-10 01:47:14.66	14.09	4.68	
2025-01-10 01:47:14.87	14.08	4.69	
2025-01-10 01:47:15.07	14.07	4.71	
2025-01-10 01:47:15.28	14.05	4.72	
2025-01-10 01:47:15.48	14.04	4.73	
2025-01-10 01:47:15.69	14.03	4.75	
2025-01-10 01:47:15.90	14.02	4.76	
2025-01-10 01:47:16.10	14.00	4.77	
2025-01-10 01:47:16.30	13.99	4.78	
2025-01-10 01:47:16.51	13.98	4.80	
2025-01-10 01:47:16.71	13.97	4.81	
2025-01-10 01:47:16.92	13.96	4.82	
2025-01-10 01:47:17.13	13.94	4.84	
2025-01-10 01:47:17.33	13.93	4.85	
2025-01-10 01:47:17.54	13.92	4.86	
2025-01-10 01:47:17.74	13.91	4.88	
2025-01-10 01:47:17.94	13.89	4.89	
2025-01-10 01:47:18.14	13.88	4.90	
2025-01-10 01:47:18.36	13.87	4.92	
2025-01-10 01:47:18.57	13.86	4.93	
2025-01-10 01:47:18.77	13.84	4.94	
2025-01-10 01:47:18.98	13.83	4.96	
2025-01-10 01:47:19.18	13.82	4.97	
2025-01-10 01:47:19.39	13.81	4.99	
2025-01-10 01:47:19.59	13.79	5.00	
2025-01-10 01:47:19.80	13.78	5.01	
2025-01-10 01:47:20.00	13.77	5.02	
2025-01-10 01:47:20.21	13.76	5.04	
2025-01-10 01:47:20.41	13.74	5.05	
2025-01-10 01:47:20.62	13.73	5.07	
2025-01-10 01:47:20.83	13.72	5.08	
2025-01-10 01:47:21.03	13.71	5.09	
2025-01-10 01:47:21.24	13.69	5.11	
2025-01-10 01:47:21.44	13.68	5.12	
2025-01-10 01:47:21.65	13.67	5.13	
2025-01-10 01:47:21.85	13.66	5.15	
2025-01-10 01:47:22.06	13.64	5.16	
2025-01-10 01:47:22.26	13.63	5.17	
2025-01-10 01:47:22.47	13.62	5.19	
2025-01-10 01:47:22.67	13.61	5.20	
2025-01-10 01:47:22.88	13.59	5.21	
2025-01-10 01:47:23.08	13.58	5.23	
2025-01-10 01:47:23.29	13.57	5.24	
2025-01-10 01:47:23.49	13.55	5.25	
2025-01-10 01:47:23.70	13.54	5.27	
2025-01-10 01:47:23.90	13.53	5.28	
2025-01-10 01:47:24.11	13.52	5.29	
2025-01-10 01:47:24.31	13.50	5.31	
2025-01-10 01:47:24.52	13.49	5.32	
2025-01-10 01:47:24.73	13.48	5.33	
2025-01-10 01:47:24.93	13.46	5.35	
2025-01-10 01:47:25.14	13.45	5.36	
2025-01-10 01:47:25.34	13.44	5.37	
2025-01-10 01:47:25.54	13.43	5.39	
2025-01-10 01:47:25.75	13.41	5.40	
2025-01-10 01:47:25.95	13.40	5.41	
2025-01-10 01:47:26.16	13.39	5.43	
2025-01-10 01:47:26.36	13.38	5.44	
2025-01-10 01:47:26.57	13.36	5.46	
2025-01-10 01:47:26.77	13.35	5.47	
2025-01-10 01:47:26.98	13.34	5.48	
2025-01-10 01:47:27.18	13.32	5.50	
2025-01-10 01:47:27.39	13.31	5.51	
2025-01-10 01:47:27.59	13.30	5.52	
2025-01-10 01:47:27.80	13.28	5.54	
2025-01-10 01:47:28.00	13.27	5.55	
2025-01-10 01:47:28.21	13.26	5.56	
2025-01-10 01:47:28.41	13.25	5.58	
2025-01-10 01:47:28.61	13.23	5.59	
2025-01-10 01:47:28.82	13.22	5.60	
2025-01-10 01:47:29.02	13.21	5.62	
2025-01-10 01:47:29.23	13.19	5.63	
2025-01-10 01:47:29.44	13.18	5.65	
2025-01-10 01:47:29.64	13.17	5.66	
2025-01-10 01:47:29.85	13.15	5.67	
2025-01-10 01:47:30.05	13.14	5.69	
2025-01-10 01:47:30.26	13.13	5.70	
2025-01-10 01:47:30.46	13.11	5.71	
2025-01-10 01:47:30.67	13.10	5.73	
2025-01-10 01:47:30.87	13.09	5.74	
2025-01-10 01:47:31.08	13.07	5.75	
2025-01-10 01:47:31.29	13.06	5.77	
2025-01-10 01:47:31.49	13.05	5.78	
2025-01-10 01:47:31.70	13.03	5.80	
2025-01-10 01:47:31.90	13.02	5.81	
2025-01-10 01:47:32.11	13.01	5.82	
2025-01-10 01:47:32.31	13.00	5.84	
2025-01-10 01:47:32.52	12.98	5.85	
2025-01-10 01:47:32.73	12.97	5.86	
2025-01-10 01:47:32.94	12.95	5.88	
2025-01-10 01:47:33.14	12.94	5.89	
2025-01-10 01:47:33.35	12.93	5.91	
2025-01-10 01:47:33.56	12.91	5.92	
2025-01-10 01:47:33.76	12.90	5.93	
2025-01-10 01:47:33.97	12.89	5.95	
2025-01-10 01:47:34.17	12.87	5.96	
2025-01-10 01:47:34.38	12.86	5.97	
2025-01-10 01:47:34.58	12.85	5.99	
2025-01-10 01:47:34.79	12.83	6.00	
2025-01-10 01:47:34.99	12.82	6.02	
2025-01-10 01:47:35.20	12.81	6.03	
2025-01-10 01:47:35.40	12.79	6.04	
2025-01-10 01:47:35.61	12.78	6.06	
2025-01-10 01:47:35.81	12.77	6.07	
2025-01-10 01:47:36.02	12.75	6.08	
2025-01-10 01:47:36.23	12.74	6.10	
2025-01-10 01:47:36.43	12.73	6.11	
2025-01-10 01:47:36.64	12.71	6.13	
2025-01-10 01:47:36.84	12.70	6.14	
2025-01-10 01:47:37.05	12.69	6.15	
2025-01-10 01:47:37.25	12.67	6.17	
2025-01-10 01:47:37.46	12.66	6.18	
2025-01-10 01:47:37.66	12.64	6.20	
2025-01-10 01:47:37.87	12.63	6.21	
2025-01-10 01:47:38.07	12.62	6.22	
2025-01-10 01:47:38.28	12.60	6.24	
2025-01-10 01:47:38.48	12.59	6.25	
2025-01-10 01:47:38.69	12.58	6.26	
2025-01-10 01:47:38.89	12.56	6.28	
2025-01-10 01:47:39.11	12.55	6.29	
2025-01-10 01:47:39.32	12.53	6.31	
2025-01-10 01:47:39.52	12.52	6.32	
2025-01-10 01:47:39.74	12.51	6.34	
2025-01-10 01:47:39.95	12.49	6.35	
2025-01-10 01:47:40.15	12.48	6.36	
2025-01-10 01:47:40.36	12.46	6.38	
2025-01-10 01:47:40.56	12.45	6.39	
2025-01-10 01:47:40.77	12.44	6.41	
2025-01-10 01:47:40.97	12.42	6.42	
2025-01-10 01:47:41.18	12.41	6.43	
2025-01-10 01:47:41.39	12.39	6.45	
2025-01-10 01:47:41.59	12.38	6.46	
2025-01-10 01:47:41.80	12.37	6.48	
2025-01-10 01:47:42.00	12.35	6.49	
2025-01-10 01:47:42.21	12.34	6.50	
2025-01-10 01:47:42.41	12.33	6.52	
2025-01-10 01:47:42.61	12.31	6.53	
2025-01-10 01:47:42.82	12.30	6.54	
2025-01-10 01:47:43.02	12.28	6.56	
2025-01-10 01:47:43.23	12.27	6.57	
2025-01-10 01:47:43.43	12.26	6.59	
2025-01-10 01:47:43.64	12.24	6.60	
2025-01-10 01:47:43.84	12.23	6.61	
2025-01-10 01:47:44.05	12.21	6.63	
2025-01-10 01:47:44.25	12.20	6.64	
2025-01-10 01:47:44.46	12.19	6.66	
2025-01-10 01:47:44.66	12.17	6.67	
2025-01-10 01:47:44.87	12.16	6.69	
2025-01-10 01:47:45.07	12.14	6.70	
2025-01-10 01:47:45.28	12.13	6.71	
2025-01-10 01:47:45.48	12.11	6.73	
2025-01-10 01:47:45.68	12.10	6.74	
2025-01-10 01:47:45.89	12.09	6.75	
2025-01-10 01:47:46.10	12.07	6.77	
2025-01-10 01:47:46.30	12.06	6.78	
2025-01-10 01:47:46.51	12.04	6.80	
2025-01-10 01:47:46.71	12.03	6.81	
2025-01-10 01:47:46.92	12.02	6.83	
2025-01-10 01:47:47.12	12.00	6.84	
2025-01-10 01:47:47.33	11.99	6.85	
2025-01-10 01:47:47.53	11.97	6.87	
2025-01-10 01:47:47.74	11.96	6.88	
2025-01-10 01:47:47.94	11.94	6.90	
2025-01-10 01:47:48.15	11.93	6.91	
2025-01-10 01:47:48.35	11.92	6.92	
2025-01-10 01:47:48.56	11.90	6.94	
2025-01-10 01:47:48.76	11.89	6.95	
2025-01-10 01:47:48.97	11.87	6.97	
2025-01-10 01:47:49.17	11.86	6.98	
2025-01-10 01:47:49.38	11.84	7.00	
2025-01-10 01:47:49.58	11.83	7.01	
2025-01-10 01:47:49.79	11.81	7.02	
2025-01-10 01:47:49.99	11.80	7.04	
2025-01-10 01:47:50.20	11.79	7.05	
2025-01-10 01:47:50.40	11.77	7.07	
2025-01-10 01:47:50.61	11.76	7.08	
2025-01-10 01:47:50.81	11.74	7.09	
2025-01-10 01:47:51.02	11.73	7.11	
2025-01-10 01:47:51.22	11.71	7.12	
2025-01-10 01:47:51.43	11.70	7.14	
2025-01-10 01:47:51.64	11.68	7.15	
2025-01-10 01:47:51.84	11.67	7.17	
2025-01-10 01:47:52.05	11.65	7.18	
2025-01-10 01:47:52.25	11.64	7.19	
2025-01-10 01:47:52.46	11.62	7.21	
2025-01-10 01:47:52.66	11.61	7.22	
2025-01-10 01:47:52.87	11.60	7.24	
2025-01-10 01:47:53.07	11.58	7.25	
2025-01-10 01:47:53.28	11.57	7.27	
2025-01-10 01:47:53.48	11.55	7.28	
2025-01-10 01:47:53.69	11.54	7.29	
2025-01-10 01:47:53.89	11.52	7.31	
2025-01-10 01:47:54.10	11.51	7.32	
2025-01-10 01:47:54.30	11.49	7.34	
2025-01-10 01:47:54.51	11.48	7.35	
2025-01-10 01:47:54.72	11.46	7.37	
2025-01-10 01:47:54.92	11.45	7.38	
2025-01-10 01:47:55.12	11.43	7.39	
2025-01-10 01:47:55.33	11.42	7.41	
2025-01-10 01:47:55.53	11.40	7.42	
2025-01-10 01:47:55.74	11.39	7.44	
2025-01-10 01:47:55.95	11.37	7.45	
2025-01-10 01:47:56.15	11.36	7.47	
2025-01-10 01:47:56.36	11.34	7.48	
2025-01-10 01:47:56.56	11.33	7.49	
2025-01-10 01:47:56.77	11.31	7.51	
2025-01-10 01:47:56.97	11.30	7.52	
2025-01-10 01:47:57.18	11.28	7.54	
2025-01-10 01:47:57.38	11.27	7.55	
2025-01-10 01:47:57.59	11.25	7.57	
2025-01-10 01:47:57.79	11.24	7.58	
2025-01-10 01:47:58.00	11.22	7.60	
2025-01-10 01:47:58.21	11.21	7.61	
2025-01-10 01:47:58.41	11.19	7.62	
2025-01-10 01:47:58.61	11.18	7.64	
2025-01-10 01:47:58.82	11.16	7.65	
2025-01-10 01:47:59.03	11.15	7.67	
2025-01-10 01:47:59.23	11.13	7.68	
2025-01-10 01:47:59.43	11.12	7.70	
2025-01-10 01:47:59.64	11.10	7.71	
2025-01-10 01:47:59.84	11.09	7.73	
2025-01-10 01:48:00.05	11.07	7.74	
2025-01-10 01:48:00.27	11.05	7.76	
2025-01-10 01:48:00.48	11.04	7.77	
2025-01-10 01:48:00.68	11.02	7.79	
2025-01-10 01:48:00.89	11.01	7.80	
2025-01-10 01:48:01.09	10.99	7.81	
2025-01-10 01:48:01.30	10.98	7.83	
2025-01-10 01:48:01.50	10.96	7.84	
2025-01-10 01:48:01.71	10.95	7.86	
2025-01-10 01:48:01.91	10.93	7.87	
2025-01-10 01:48:02.12	10.92	7.89	
2025-01-10 01:48:02.32	10.90	7.90	
2025-01-10 01:48:02.53	10.89	7.92	
2025-01-10 01:48:02.73	10.87	7.93	
2025-01-10 01:48:02.94	10.85	7.95	
2025-01-10 01:48:03.14	10.84	7.96	
2025-01-10 01:48:03.35	10.82	7.97	
2025-01-10 01:48:03.56	10.81	7.99	
2025-01-10 01:48:03.76	10.79	8.00	
2025-01-10 01:48:03.96	10.78	8.02	
2025-01-10 01:48:04.17	10.76	8.03	
2025-01-10 01:48:04.38	10.75	8.05	
2025-01-10 01:48:04.58	10.73	8.06	
2025-01-10 01:48:04.79	10.71	8.08	
2025-01-10 01:48:05.00	10.70	8.09	
2025-01-10 01:48:05.21	10.68	8.11	
2025-01-10 01:48:05.42	10.67	8.12	
2025-01-10 01:48:05.62	10.65	8.14	
2025-01-10 01:48:05.82	10.64	8.15	
2025-01-10 01:48:06.03	10.62	8.17	
2025-01-10 01:48:06.24	10.60	8.18	
2025-01-10 01:48:06.44	10.59	8.20	
2025-01-10 01:48:06.65	10.57	8.21	
2025-01-10 01:48:06.85	10.56	8.22	
2025-01-10 01:48:07.06	10.54	8.24	
2025-01-10 01:48:07.27	10.52	8.25	
2025-01-10 01:48:07.47	10.51	8.27	
2025-01-10 01:48:07.68	10.49	8.28	
2025-01-10 01:48:07.88	10.48	8.30	
2025-01-10 01:48:08.09	10.46	8.31	
2025-01-10 01:48:08.29	10.45	8.33	
2025-01-10 01:48:08.50	10.43	8.34	
2025-01-10 01:48:08.71	10.41	8.36	
2025-01-10 01:48:08.91	10.40	8.37	
2025-01-10 01:48:09.12	10.38	8.39	
2025-01-10 01:48:09.32	10.37	8.40	
2025-01-10 01:48:09.53	10.35	8.42	
2025-01-10 01:48:09.73	10.33	8.43	
2025-01-10 01:48:09.94	10.32	8.45	
2025-01-10 01:48:10.16	10.30	8.46	
2025-01-10 01:48:10.36	10.28	8.48	
2025-01-10 01:48:10.57	10.27	8.49	
2025-01-10 01:48:10.77	10.25	8.51	
2025-01-10 01:48:10.98	10.24	8.52	
2025-01-10 01:48:11.18	10.22	8.54	
2025-01-10 01:48:11.39	10.20	8.55	
2025-01-10 01:48:11.59	10.19	8.57	
2025-01-10 01:48:11.80	10.17	8.58	
2025-01-10 01:48:12.01	10.15	8.60	
2025-01-10 01:48:12.21	10.14	8.61	
2025-01-10 01:48:12.41	10.12	8.63	
2025-01-10 01:48:12.62	10.11	8.64	
2025-01-10 01:48:12.83	10.09	8.66	
2025-01-10 01:48:13.03	10.07	8.67	
2025-01-10 01:48:13.24	10.06	8.69	
2025-01-10 01:48:13.44	10.04	8.70	
2025-01-10 01:48:13.65	10.02	8.72	
2025-01-10 01:48:13.85	10.01	8.73	
2025-01-10 01:48:14.06	9.99	8.75	
2025-01-10 01:48:14.26	9.98	8.76	
2025-01-10 01:48:14.47	9.96	8.78	
2025-01-10 01:48:14.67	9.94	8.79	
2025-01-10 01:48:14.88	9.93	8.80	
2025-01-10 01:48:15.08	9.91	8.82	
2025-01-10 01:48:15.29	9.89	8.83	
2025-01-10 01:48:15.50	9.88	8.85	
2025-01-10 01:48:15.70	9.86	8.86	
2025-01-10 01:48:15.90	9.84	8.88	
2025-01-10 01:48:16.11	9.83	8.89	
2025-01-10 01:48:16.32	9.81	8.91	
2025-01-10 01:48:16.52	9.79	8.92	
2025-01-10 01:48:16.73	9.78	8.94	
2025-01-10 01:48:16.93	9.76	8.95	
2025-01-10 01:48:17.14	9.74	8.97	
2025-01-10 01:48:17.34	9.73	8.98	
2025-01-10 01:48:17.56	9.71	9.00	
2025-01-10 01:48:17.77	9.69	9.02	
2025-01-10 01:48:17.97	9.68	9.03	
2025-01-10 01:48:18.18	9.66	9.05	
2025-01-10 01:48:18.38	9.64	9.06	
2025-01-10 01:48:18.60	9.62	9.08	
2025-01-10 01:48:18.80	9.61	9.09	
2025-01-10 01:48:19.01	9.59	9.11	
2025-01-10 01:48:19.22	9.57	9.12	
2025-01-10 01:48:19.42	9.56	9.14	
2025-01-10 01:48:19.62	9.54	9.15	
2025-01-10 01:48:19.83	9.52	9.17	
2025-01-10 01:48:20.04	9.51	9.18	
2025-01-10 01:48:20.24	9.49	9.20	
2025-01-10 01:48:20.45	9.47	9.21	
2025-01-10 01:48:20.66	9.46	9.23	
2025-01-10 01:48:20.86	9.44	9.24	
2025-01-10 01:48:21.07	9.42	9.26	
2025-01-10 01:48:21.27	9.40	9.27	
2025-01-10 01:48:21.48	9.39	9.29	
2025-01-10 01:48:21.69	9.37	9.31	
2025-01-10 01:48:21.89	9.35	9.32	
2025-01-10 01:48:22.09	9.34	9.33	
2025-01-10 01:48:22.30	9.32	9.35	
2025-01-10 01:48:22.51	9.30	9.37	
2025-01-10 01:48:22.71	9.28	9.38	
2025-01-10 01:48:22.92	9.27	9.40	
2025-01-10 01:48:23.12	9.25	9.41	
2025-01-10 01:48:23.33	9.23	9.43	
2025-01-10 01:48:23.53	9.22	9.44	
2025-01-10 01:48:23.74	9.20	9.46	
2025-01-10 01:48:23.94	9.18	9.47	
2025-01-10 01:48:24.15	9.16	9.49	
2025-01-10 01:48:24.35	9.15	9.50	
2025-01-10 01:48:24.56	9.13	9.52	
2025-01-10 01:48:24.77	9.11	9.53	
2025-01-10 01:48:24.97	9.09	9.55	
2025-01-10 01:48:25.18	9.08	9.56	
2025-01-10 01:48:25.38	9.06	9.58	
2025-01-10 01:48:25.59	9.04	9.59	
2025-01-10 01:48:25.79	9.03	9.61	
2025-01-10 01:48:26.00	9.01	9.63	
2025-01-10 01:48:26.20	8.99	9.64	
2025-01-10 01:48:26.41	8.97	9.66	
2025-01-10 01:48:26.61	8.96	9.67	
2025-01-10 01:48:26.82	8.94	9.69	
2025-01-10 01:48:27.03	8.92	9.70	
2025-01-10 01:48:27.23	8.90	9.72	
2025-01-10 01:48:27.44	8.88	9.73	
2025-01-10 01:48:27.64	8.87	9.75	
2025-01-10 01:48:27.85	8.85	9.76	
2025-01-10 01:48:28.05	8.83	9.78	
2025-01-10 01:48:28.26	8.81	9.79	
2025-01-10 01:48:28.46	8.80	9.81	
2025-01-10 01:48:28.67	8.78	9.83	
2025-01-10 01:48:28.87	8.76	9.84	
2025-01-10 01:48:29.08	8.74	9.86	
2025-01-10 01:48:29.28	8.73	9.87	
2025-01-10 01:48:29.49	8.71	9.89	
2025-01-10 01:48:29.70	8.69	9.90	
2025-01-10 01:48:29.90	8.67	9.92	
2025-01-10 01:48:30.11	8.65	9.93	
2025-01-10 01:48:30.31	8.64	9.95	
2025-01-10 01:48:30.52	8.62	9.96	
2025-01-10 01:48:30.72	8.60	9.98	
2025-01-10 01:48:30.93	8.58	10.00	
2025-01-10 01:48:31.13	8.56	10.01	
2025-01-10 01:48:31.34	8.55	10.03	
2025-01-10 01:48:31.54	8.53	10.04	
2025-01-10 01:48:31.75	8.51	10.06	
2025-01-10 01:48:31.95	8.49	10.07	
2025-01-10 01:48:32.16	8.47	10.09	
2025-01-10 01:48:32.36	8.46	10.10	
2025-01-10 01:48:32.57	8.44	10.12	
2025-01-10 01:48:32.77	8.42	10.13	
2025-01-10 01:48:32.98	8.40	10.15	
2025-01-10 01:48:33.19	8.38	10.17	
2025-01-10 01:48:33.39	8.37	10.18	
2025-01-10 01:48:33.60	8.35	10.20	
2025-01-10 01:48:33.80	8.33	10.21	
2025-01-10 01:48:34.01	8.31	10.23	
2025-01-10 01:48:34.21	8.29	10.24	
2025-01-10 01:48:34.42	8.27	10.26	
2025-01-10 01:48:34.62	8.26	10.28	
2025-01-10 01:48:34.83	8.24	10.29	
2025-01-10 01:48:35.04	8.22	10.31	
2025-01-10 01:48:35.24	8.20	10.32	
2025-01-10 01:48:35.45	8.18	10.34	
2025-01-10 01:48:35.65	8.16	10.35	
2025-01-10 01:48:35.86	8.15	10.37	
2025-01-10 01:48:36.06	8.13	10.38	
2025-01-10 01:48:36.27	8.11	10.40	
2025-01-10 01:48:36.47	8.09	10.42	
2025-01-10 01:48:36.68	8.07	10.43	
2025-01-10 01:48:36.88	8.05	10.45	
2025-01-10 01:48:37.09	8.04	10.46	
2025-01-10 01:48:37.29	8.02	10.48	
2025-01-10 01:48:37.50	8.00	10.50	
2025-01-10 01:48:37.70	7.98	10.51	
2025-01-10 01:48:37.91	7.96	10.53	
2025-01-10 01:48:38.11	7.94	10.54	
2025-01-10 01:48:38.32	7.92	10.56	
2025-01-10 01:48:38.52	7.91	10.57	
2025-01-10 01:48:38.73	7.89	10.59	
2025-01-10 01:48:38.93	7.87	10.60	
2025-01-10 01:48:39.14	7.85	10.62	
2025-01-10 01:48:39.34	7.83	10.64	
2025-01-10 01:48:39.55	7.81	10.65	
2025-01-10 01:48:39.76	7.79	10.67	
2025-01-10 01:48:39.96	7.77	10.68	
2025-01-10 01:48:40.16	7.76	10.70	
2025-01-10 01:48:40.37	7.74	10.72	
2025-01-10 01:48:40.58	7.72	10.73	
2025-01-10 01:48:40.78	7.70	10.75	
2025-01-10 01:48:40.98	7.68	10.76	
2025-01-10 01:48:41.19	7.66	10.78	
2025-01-10 01:48:41.39	7.64	10.79	
2025-01-10 01:48:41.60	7.62	10.81	
2025-01-10 01:48:41.80	7.60	10.83	
2025-01-10 01:48:42.01	7.58	10.84	
2025-01-10 01:48:42.21	7.57	10.86	
2025-01-10 01:48:42.42	7.55	10.87	
2025-01-10 01:48:42.62	7.53	10.89	
2025-01-10 01:48:42.83	7.51	10.91	
2025-01-10 01:48:43.04	7.49	10.92	
2025-01-10 01:48:43.24	7.47	10.94	
2025-01-10 01:48:43.45	7.45	10.95	
2025-01-10 01:48:43.65	7.43	10.97	
2025-01-10 01:48:43.86	7.41	10.99	
2025-01-10 01:48:44.07	7.39	11.00	
2025-01-10 01:48:44.28	7.37	11.02	
2025-01-10 01:48:44.49	7.35	11.03	
2025-01-10 01:48:44.70	7.33	11.05	
2025-01-10 01:48:44.90	7.31	11.07	
2025-01-10 01:48:45.11	7.29	11.08	
2025-01-10 01:48:45.31	7.28	11.10	
2025-01-10 01:48:45.52	7.26	11.11	
2025-01-10 01:48:45.72	7.24	11.13	
2025-01-10 01:48:45.93	7.22	11.15	
2025-01-10 01:48:46.13	7.20	11.16	
2025-01-10 01:48:46.34	7.18	11.18	
2025-01-10 01:48:46.54	7.16	11.19	
2025-01-10 01:48:46.75	7.14	11.21	
2025-01-10 01:48:46.96	7.12	11.23	
2025-01-10 01:48:47.16	7.10	11.24	
2025-01-10 01:48:47.37	7.08	11.26	
2025-01-10 01:48:47.59	7.06	11.28	
2025-01-10 01:48:47.79	7.04	11.29	
2025-01-10 01:48:48.00	7.02	11.31	
2025-01-10 01:48:48.20	7.00	11.32	
2025-01-10 01:48:48.41	6.98	11.34	
2025-01-10 01:48:48.61	6.96	11.36	
2025-01-10 01:48:48.82	6.94	11.37	
2025-01-10 01:48:49.02	6.92	11.39	
2025-01-10 01:48:49.23	6.90	11.40	
2025-01-10 01:48:49.44	6.88	11.42	
2025-01-10 01:48:49.64	6.86	11.44	
2025-01-10 01:48:49.85	6.84	11.45	
2025-01-10 01:48:50.05	6.82	11.47	
2025-01-10 01:48:50.25	6.80	11.48	
2025-01-10 01:48:50.46	6.78	11.50	
2025-01-10 01:48:50.66	6.76	11.52	
2025-01-10 01:48:50.87	6.74	11.53	
2025-01-10 01:48:51.07	6.72	11.55	
2025-01-10 01:48:51.28	6.70	11.57	
2025-01-10 01:48:51.48	6.68	11.58	
2025-01-10 01:48:51.69	6.66	11.60	
2025-01-10 01:48:51.89	6.64	11.61	
2025-01-10 01:48:52.10	6.62	11.63	
2025-01-10 01:48:52.31	6.60	11.65	
2025-01-10 01:48:52.51	6.58	11.66	
2025-01-10 01:48:52.71	6.56	11.68	
2025-01-10 01:48:52.93	6.54	11.70	
2025-01-10 01:48:53.14	6.52	11.71	
2025-01-10 01:48:53.34	6.50	11.73	
2025-01-10 01:48:53.55	6.48	11.75	
2025-01-10 01:48:53.75	6.46	11.76	
2025-01-10 01:48:53.96	6.44	11.78	
2025-01-10 01:48:54.16	6.42	11.79	
2025-01-10 01:48:54.37	6.40	11.81	
2025-01-10 01:48:54.58	6.38	11.83	
2025-01-10 01:48:54.78	6.36	11.84	
2025-01-10 01:48:54.99	6.34	11.86	
2025-01-10 01:48:55.19	6.32	11.88	
2025-01-10 01:48:55.40	6.30	11.89	
2025-01-10 01:48:55.60	6.28	11.91	
2025-01-10 01:48:55.81	6.25	11.93	
2025-01-10 01:48:56.01	6.23	11.94	
2025-01-10 01:48:56.22	6.21	11.96	
2025-01-10 01:48:56.42	6.19	11.97	
2025-01-10 01:48:56.63	6.17	11.99	
2025-01-10 01:48:56.83	6.15	12.01	
2025-01-10 01:48:57.04	6.13	12.02	
2025-01-10 01:48:57.24	6.11	12.04	
2025-01-10 01:48:57.45	6.09	12.06	
2025-01-10 01:48:57.65	6.07	12.07	
2025-01-10 01:48:57.86	6.05	12.09	
2025-01-10 01:48:58.06	6.03	12.10	
2025-01-10 01:48:58.27	6.01	12.12	
2025-01-10 01:48:58.47	5.99	12.14	
2025-01-10 01:48:58.68	5.96	12.15	
2025-01-10 01:48:58.88	5.94	12.17	
2025-01-10 01:48:59.09	5.92	12.19	
2025-01-10 01:48:59.29	5.90	12.20	
2025-01-10 01:48:59.50	5.88	12.22	
2025-01-10 01:48:59.70	5.86	12.24	
2025-01-10 01:48:59.91	5.84	12.25	
2025-01-10 01:49:00.11	5.82	12.27	
2025-01-10 01:49:00.32	5.80	12.29	
2025-01-10 01:49:00.52	5.78	12.30	
2025-01-10 01:49:00.73	5.75	12.32	
2025-01-10 01:49:00.93	5.73	12.34	
2025-01-10 01:49:01.14	5.71	12.35	
2025-01-10 01:49:01.35	5.69	12.37	
2025-01-10 01:49:01.55	5.67	12.39	
2025-01-10 01:49:01.76	5.65	12.40	
2025-01-10 01:49:01.96	5.63	12.42	
2025-01-10 01:49:02.17	5.61	12.44	
2025-01-10 01:49:02.37	5.58	12.45	
2025-01-10 01:49:02.58	5.56	12.47	
2025-01-10 01:49:02.79	5.54	12.49	
2025-01-10 01:49:02.99	5.52	12.50	
2025-01-10 01:49:03.20	5.50	12.52	
2025-01-10 01:49:03.40	5.48	12.53	
2025-01-10 01:49:03.60	5.46	12.55	
2025-01-10 01:49:03.81	5.43	12.57	
2025-01-10 01:49:04.02	5.41	12.58	
2025-01-10 01:49:04.22	5.39	12.60	
2025-01-10 01:49:04.43	5.37	12.62	
2025-01-10 01:49:04.63	5.35	12.63	
2025-01-10 01:49:04.84	5.33	12.65	
2025-01-10 01:49:05.04	5.31	12.67	
2025-01-10 01:49:05.25	5.28	12.68	
2025-01-10 01:49:05.46	5.26	12.70	
2025-01-10 01:49:05.66	5.24	12.72	
2025-01-10 01:49:05.86	5.22	12.73	
2025-01-10 01:49:06.07	5.20	12.75	
2025-01-10 01:49:06.27	5.18	12.77	
2025-01-10 01:49:06.48	5.15	12.78	
2025-01-10 01:49:06.68	5.13	12.80	
2025-01-10 01:49:06.89	5.11	12.82	
2025-01-10 01:49:07.10	5.09	12.84	
2025-01-10 01:49:07.30	5.07	12.85	
2025-01-10 01:49:07.51	5.04	12.87	
2025-01-10 01:49:07.71	5.02	12.89	
2025-01-10 01:49:07.91	5.00	12.90	
2025-01-10 01:49:08.12	4.98	12.92	
2025-01-10 01:49:08.32	4.96	12.94	
2025-01-10 01:49:08.53	4.93	12.95	
2025-01-10 01:49:08.73	4.91	12.97	
2025-01-10 01:49:08.94	4.89	12.99	
2025-01-10 01:49:09.14	4.87	13.00	
2025-01-10 01:49:09.35	4.84	13.02	
2025-01-10 01:49:09.55	4.82	13.04	
2025-01-10 01:49:09.76	4.80	13.05	
2025-01-10 01:49:09.96	4.78	13.07	
2025-01-10 01:49:10.17	4.76	13.09	
2025-01-10 01:49:10.37	4.73	13.10	
2025-01-10 01:49:10.58	4.71	13.12	
2025-01-10 01:49:10.78	4.69	13.14	
2025-01-10 01:49:10.99	4.67	13.15	
2025-01-10 01:49:11.19	4.64	13.17	
2025-01-10 01:49:11.40	4.62	13.19	
2025-01-10 01:49:11.60	4.60	13.20	
2025-01-10 01:49:11.81	4.58	13.22	
2025-01-10 01:49:12.01	4.55	13.24	
2025-01-10 01:49:12.22	4.53	13.26	
2025-01-10 01:49:12.42	4.51	13.27	
2025-01-10 01:49:12.63	4.49	13.29	
2025-01-10 01:49:12.84	4.46	13.31	
2025-01-10 01:49:13.04	4.44	13.32	
2025-01-10 01:49:13.24	4.42	13.34	
2025-01-10 01:49:13.45	4.40	13.36	
2025-01-10 01:49:13.66	4.37	13.37	
2025-01-10 01:49:13.86	4.35	13.39	
2025-01-10 01:49:14.07	4.33	13.41	
2025-01-10 01:49:14.27	4.30	13.42	
2025-01-10 01:49:14.48	4.28	13.44	
2025-01-10 01:49:14.68	4.26	13.46	
2025-01-10 01:49:14.89	4.24	13.48	
2025-01-10 01:49:15.09	4.21	13.49	
2025-01-10 01:49:15.30	4.19	13.51	
2025-01-10 01:49:15.50	4.17	13.53	
2025-01-10 01:49:15.71	4.14	13.54	
2025-01-10 01:49:15.91	4.12	13.56	
2025-01-10 01:49:16.12	4.10	13.58	
2025-01-10 01:49:16.32	4.08	13.60	
2025-01-10 01:49:16.54	4.05	13.61	
2025-01-10 01:49:16.74	4.03	13.63	
2025-01-10 01:49:16.95	4.00	13.65	
2025-01-10 01:49:17.15	3.98	13.66	
2025-01-10 01:49:17.36	3.96	13.68	
2025-01-10 01:49:17.57	3.93	13.70	
2025-01-10 01:49:17.77	3.91	13.72	
2025-01-10 01:49:17.98	3.89	13.73	
2025-01-10 01:49:18.18	3.86	13.75	
2025-01-10 01:49:18.39	3.84	13.77	
2025-01-10 01:49:18.59	3.82	13.78	
2025-01-10 01:49:18.80	3.79	13.80	
2025-01-10 01:49:19.00	3.77	13.82	
2025-01-10 01:49:19.21	3.75	13.84	
2025-01-10 01:49:19.41	3.72	13.85	
2025-01-10 01:49:19.63	3.70	13.87	
2025-01-10 01:49:19.84	3.68	13.89	
2025-01-10 01:49:20.04	3.65	13.91	
2025-01-10 01:49:20.25	3.63	13.92	
2025-01-10 01:49:20.45	3.60	13.94	
2025-01-10 01:49:20.66	3.58	13.96	
2025-01-10 01:49:20.86	3.56	13.97	
2025-01-10 01:49:21.07	3.53	13.99	
2025-01-10 01:49:21.27	3.51	14.01	
2025-01-10 01:49:21.48	3.49	14.03	
2025-01-10 01:49:21.69	3.46	14.04	
2025-01-10 01:49:21.89	3.44	14.06	
2025-01-10 01:49:22.10	3.41	14.08	
2025-01-10 01:49:22.30	3.39	14.10	
2025-01-10 01:49:22.51	3.37	14.11	
2025-01-10 01:49:22.71	3.34	14.13	
2025-01-10 01:49:22.92	3.32	14.15	
2025-01-10 01:49:23.12	3.29	14.16	
2025-01-10 01:49:23.33	3.27	14.18	
2025-01-10 01:49:23.53	3.25	14.20	
2025-01-10 01:49:23.74	3.22	14.22	
2025-01-10 01:49:23.94	3.20	14.23	
2025-01-10 01:49:24.15	3.17	14.25	
2025-01-10 01:49:24.36	3.15	14.27	
2025-01-10 01:49:24.56	3.13	14.29	
2025-01-10 01:49:24.77	3.10	14.30	
2025-01-10 01:49:24.97	3.08	14.32	
2025-01-10 01:49:25.18	3.05	14.34	
2025-01-10 01:49:25.38	3.03	14.36	
2025-01-10 01:49:25.59	3.00	14.37	
2025-01-10 01:49:25.80	2.98	14.39	
2025-01-10 01:49:26.00	2.95	14.41	
2025-01-10 01:49:26.20	2.93	14.43	
2025-01-10 01:49:26.41	2.91	14.44	
2025-01-10 01:49:26.62	2.88	14.46	
2025-01-10 01:49:26.82	2.86	14.48	
2025-01-10 01:49:27.03	2.83	14.50	
2025-01-10 01:49:27.23	2.81	14.51	
2025-01-10 01:49:27.44	2.78	14.53	
2025-01-10 01:49:27.64	2.76	14.55	
2025-01-10 01:49:27.85	2.73	14.57	
2025-01-10 01:49:28.07	2.71	14.58	
2025-01-10 01:49:28.27	2.68	14.60	
2025-01-10 01:49:28.48	2.66	14.62	
2025-01-10 01:49:28.68	2.63	14.64	
2025-01-10 01:49:28.89	2.61	14.65	
2025-01-10 01:49:29.11	2.58	14.67	
2025-01-10 01:49:29.31	2.56	14.69	
2025-01-10 01:49:29.52	2.53	14.71	
2025-01-10 01:49:29.72	2.51	14.73	
2025-01-10 01:49:29.93	2.48	14.74	
2025-01-10 01:49:30.13	2.46	14.76	
2025-01-10 01:49:30.34	2.43	14.78	
2025-01-10 01:49:30.54	2.41	14.80	
2025-01-10 01:49:30.75	2.38	14.81	
2025-01-10 01:49:30.96	2.35	14.83	
2025-01-10 01:49:31.16	2.33	14.85	
2025-01-10 01:49:31.36	2.31	14.87	
2025-01-10 01:49:31.57	2.28	14.88	
2025-01-10 01:49:31.78	2.25	14.90	
2025-01-10 01:49:31.98	2.23	14.92	
2025-01-10 01:49:32.19	2.20	14.94	
2025-01-10 01:49:32.39	2.18	14.95	
2025-01-10 01:49:32.60	2.15	14.97	
2025-01-10 01:49:32.81	2.13	14.99	
2025-01-10 01:49:33.01	2.10	15.01	
2025-01-10 01:49:33.22	2.08	15.03	
2025-01-10 01:49:33.44	2.05	15.04	
2025-01-10 01:49:33.64	2.02	15.06	
2025-01-10 01:49:33.85	2.00	15.08	
2025-01-10 01:49:34.05	1.97	15.10	
2025-01-10 01:49:34.26	1.95	15.11	
2025-01-10 01:49:34.46	1.92	15.13	
2025-01-10 01:49:34.67	1.89	15.15	
2025-01-10 01:49:34.87	1.87	15.17	
2025-01-10 01:49:35.08	1.84	15.19	
2025-01-10 01:49:35.29	1.82	15.20	
2025-01-10 01:49:35.50	1.79	15.22	
2025-01-10 01:49:35.70	1.76	15.24	
2025-01-10 01:49:35.91	1.74	15.26	
2025-01-10 01:49:36.12	1.71	15.28	
2025-01-10 01:49:36.32	1.69	15.29	
2025-01-10 01:49:36.53	1.66	15.31	
2025-01-10 01:49:36.73	1.63	15.33	
2025-01-10 01:49:36.94	1.61	15.35	
2025-01-10 01:49:37.14	1.58	15.36	
2025-01-10 01:49:37.35	1.56	15.38	
2025-01-10 01:49:37.56	1.53	15.40	
2025-01-10 01:49:37.76	1.50	15.42	
2025-01-10 01:49:37.97	1.48	15.44	
2025-01-10 01:49:38.17	1.45	15.45	
2025-01-10 01:49:38.38	1.42	15.47	
2025-01-10 01:49:38.58	1.40	15.49	
2025-01-10 01:49:38.80	1.37	15.51	
2025-01-10 01:49:39.01	1.34	15.53	
2025-01-10 01:49:39.21	1.32	15.54	
2025-01-10 01:49:39.42	1.29	15.56	
2025-01-10 01:49:39.62	1.26	15.58	
2025-01-10 01:49:39.83	1.24	15.60	
2025-01-10 01:49:40.03	1.21	15.62	
2025-01-10 01:49:40.24	1.18	15.63	
2025-01-10 01:49:40.44	1.16	15.65	
2025-01-10 01:49:40.65	1.13	15.67	
2025-01-10 01:49:40.85	1.10	15.69	
2025-01-10 01:49:41.06	1.08	15.71	
2025-01-10 01:49:41.26	1.05	15.72	
2025-01-10 01:49:41.47	1.02	15.74	
2025-01-10 01:49:41.67	1.00	15.76	
2025-01-10 01:49:41.88	0.97	15.78	
2025-01-10 01:49:42.08	0.94	15.79	
2025-01-10 01:49:42.29	0.92	15.81	
2025-01-10 01:49:42.50	0.89	15.83	
2025-01-10 01:49:42.70	0.86	15.85	
2025-01-10 01:49:42.91	0.84	15.87	
2025-01-10 01:49:43.11	0.81	15.88	
2025-01-10 01:49:43.32	0.78	15.90	
2025-01-10 01:49:43.52	0.75	15.92	
2025-01-10 01:49:43.73	0.73	15.94	
2025-01-10 01:49:43.93	0.70	15.96	
2025-01-10 01:49:44.14	0.67	15.97	
2025-01-10 01:49:44.34	0.65	15.99	
2025-01-10 01:49:44.55	0.62	16.01	
2025-01-10 01:49:44.75	0.59	16.03	
2025-01-10 01:49:44.96	0.56	16.05	
2025-01-10 01:49:45.16	0.54	16.06	
2025-01-10 01:49:45.37	0.51	16.08	
2025-01-10 01:49:45.58	0.48	16.10	
2025-01-10 01:49:45.78	0.45	16.12	
2025-01-10 01:49:45.99	0.43	16.14	
2025-01-10 01:49:46.19	0.40	16.16	
2025-01-10 01:49:46.40	0.37	16.17	
2025-01-10 01:49:46.60	0.34	16.19	
2025-01-10 01:49:46.80	0.32	16.21	
2025-01-10 01:49:47.01	0.29	16.23	
2025-01-10 01:49:47.21	0.26	16.25	
2025-01-10 01:49:47.42	0.23	16.26	
2025-01-10 01:49:47.63	0.20	16.28	
2025-01-10 01:49:47.83	0.18	16.30	
2025-01-10 01:49:48.04	0.15	16.32	
2025-01-10 01:49:48.25	0.12	16.34	
2025-01-10 01:49:48.45	0.09	16.35	
2025-01-10 01:49:48.66	0.06	16.37	
2025-01-10 01:49:48.86	0.04	16.39	
2025-01-10 01:49:49.07	0.01	16.41	
2025-01-10 01:49:49.27	359.98	16.43	
2025-01-10 01:49:49.49	359.95	16.45	
2025-01-10 01:49:49.70	359.92	16.47	
2025-01-10 01:49:49.90	359.89	16.48	
2025-01-10 01:49:50.11	359.87	16.50	
2025-01-10 01:49:50.31	359.84	16.52	
2025-01-10 01:49:50.52	359.81	16.54	
2025-01-10 01:49:50.72	359.78	16.56	
2025-01-10 01:49:50.93	359.75	16.57	
2025-01-10 01:49:51.13	359.72	16.59	
2025-01-10 01:49:51.34	359.70	16.61	
2025-01-10 01:49:51.56	359.67	16.63	
2025-01-10 01:49:51.76	359.64	16.65	
2025-01-10 01:49:51.97	359.61	16.67	
2025-01-10 01:49:52.17	359.58	16.69	
2025-01-10 01:49:52.38	359.55	16.70	
2025-01-10 01:49:52.58	359.52	16.72	
2025-01-10 01:49:52.79	359.49	16.74	
2025-01-10 01:49:52.99	359.47	16.76	
2025-01-10 01:49:53.20	359.44	16.78	
2025-01-10 01:49:53.41	359.41	16.80	
2025-01-10 01:49:53.61	359.38	16.81	
2025-01-10 01:49:53.82	359.35	16.83	
2025-01-10 01:49:54.02	359.32	16.85	
2025-01-10 01:49:54.23	359.29	16.87	
2025-01-10 01:49:54.43	359.26	16.89	
2025-01-10 01:49:54.64	359.23	16.91	
2025-01-10 01:49:54.84	359.21	16.92	
2025-01-10 01:49:55.05	359.18	16.94	
2025-01-10 01:49:55.25	359.15	16.96	
2025-01-10 01:49:55.46	359.12	16.98	
2025-01-10 01:49:55.66	359.09	17.00	
2025-01-10 01:49:55.87	359.06	17.02	
2025-01-10 01:49:56.07	359.03	17.03	
2025-01-10 01:49:56.28	359.00	17.05	
2025-01-10 01:49:56.48	358.97	17.07	
2025-01-10 01:49:56.69	358.94	17.09	
2025-01-10 01:49:56.91	358.91	17.11	
2025-01-10 01:49:57.11	358.88	17.13	
2025-01-10 01:49:57.32	358.85	17.15	
2025-01-10 01:49:57.52	358.82	17.16	
2025-01-10 01:49:57.73	358.79	17.18	
2025-01-10 01:49:57.93	358.76	17.20	
2025-01-10 01:49:58.14	358.73	17.22	
2025-01-10 01:49:58.35	358.70	17.24	
2025-01-10 01:49:58.55	358.67	17.26	
2025-01-10 01:49:58.76	358.64	17.28	
2025-01-10 01:49:58.96	358.61	17.29	
2025-01-10 01:49:59.17	358.58	17.31	
2025-01-10 01:49:59.38	358.55	17.33	
2025-01-10 01:49:59.58	358.52	17.35	
2025-01-10 01:49:59.78	358.50	17.37	
2025-01-10 01:49:59.99	358.46	17.39	
2025-01-10 01:50:00.19	358.44	17.40	
2025-01-10 01:50:00.40	358.40	17.42	
2025-01-10 01:50:00.60	358.38	17.44	
2025-01-10 01:50:00.81	358.34	17.46	
2025-01-10 01:50:01.01	358.32	17.48	
2025-01-10 01:50:01.22	358.28	17.50	
2025-01-10 01:50:01.42	358.25	17.52	
2025-01-10 01:50:01.63	358.22	17.53	
2025-01-10 01:50:01.83	358.19	17.55	
2025-01-10 01:50:02.04	358.16	17.57	
2025-01-10 01:50:02.24	358.13	17.59	
2025-01-10 01:50:02.45	358.10	17.61	
2025-01-10 01:50:02.65	358.07	17.63	
2025-01-10 01:50:02.86	358.04	17.65	
2025-01-10 01:50:03.06	358.01	17.66	
2025-01-10 01:50:03.27	357.98	17.68	
2025-01-10 01:50:03.47	357.95	17.70	
2025-01-10 01:50:03.68	357.92	17.72	
2025-01-10 01:50:03.88	357.89	17.74	
2025-01-10 01:50:04.09	357.86	17.76	
2025-01-10 01:50:04.29	357.83	17.78	
2025-01-10 01:50:04.50	357.80	17.79	
2025-01-10 01:50:04.70	357.77	17.81	
2025-01-10 01:50:04.91	357.73	17.83	
2025-01-10 01:50:05.11	357.70	17.85	
2025-01-10 01:50:05.32	357.67	17.87	
2025-01-10 01:50:05.52	357.64	17.89	
2025-01-10 01:50:05.73	357.61	17.91	
2025-01-10 01:50:05.94	357.58	17.93	
2025-01-10 01:50:06.14	357.55	17.94	
2025-01-10 01:50:06.35	357.52	17.96	
2025-01-10 01:50:06.55	357.49	17.98	
2025-01-10 01:50:06.75	357.46	18.00	
2025-01-10 01:50:06.96	357.42	18.02	
2025-01-10 01:50:07.16	357.39	18.04	
2025-01-10 01:50:07.37	357.36	18.06	
2025-01-10 01:50:07.57	357.33	18.07	
2025-01-10 01:50:07.78	357.30	18.09	
2025-01-10 01:50:07.98	357.27	18.11	
2025-01-10 01:50:08.19	357.24	18.13	
2025-01-10 01:50:08.40	357.20	18.15	
2025-01-10 01:50:08.60	357.17	18.17	
2025-01-10 01:50:08.81	357.14	18.19	
2025-01-10 01:50:09.01	357.11	18.20	
2025-01-10 01:50:09.22	357.08	18.22	
2025-01-10 01:50:09.42	357.05	18.24	
2025-01-10 01:50:09.63	357.01	18.26	
2025-01-10 01:50:09.83	356.98	18.28	
2025-01-10 01:50:10.04	356.95	18.30	
2025-01-10 01:50:10.24	356.92	18.32	
2025-01-10 01:50:10.45	356.89	18.34	
2025-01-10 01:50:10.65	356.85	18.35	
2025-01-10 01:50:10.86	356.82	18.37	
2025-01-10 01:50:11.06	356.79	18.39	
2025-01-10 01:50:11.27	356.76	18.41	
2025-01-10 01:50:11.48	356.73	18.43	
2025-01-10 01:50:11.68	356.69	18.45	
2025-01-10 01:50:11.88	356.66	18.47	
2025-01-10 01:50:12.09	356.63	18.49	
2025-01-10 01:50:12.30	356.60	18.51	
2025-01-10 01:50:12.50	356.56	18.52	
2025-01-10 01:50:12.71	356.53	18.54	
2025-01-10 01:50:12.91	356.50	18.56	
2025-01-10 01:50:13.12	356.47	18.58	
2025-01-10 01:50:13.32	356.44	18.60	
2025-01-10 01:50:13.53	356.40	18.62	
2025-01-10 01:50:13.73	356.37	18.64	
2025-01-10 01:50:13.94	356.34	18.66	
2025-01-10 01:50:14.14	356.30	18.68	
2025-01-10 01:50:14.35	356.27	18.69	
2025-01-10 01:50:14.55	356.24	18.71	
2025-01-10 01:50:14.76	356.21	18.73	
2025-01-10 01:50:14.97	356.17	18.75	
2025-01-10 01:50:15.17	356.14	18.77	
2025-01-10 01:50:15.37	356.11	18.79	
2025-01-10 01:50:15.58	356.07	18.81	
2025-01-10 01:50:15.79	356.04	18.83	
2025-01-10 01:50:15.99	356.01	18.85	
2025-01-10 01:50:16.20	355.97	18.86	
2025-01-10 01:50:16.40	355.94	18.88	
2025-01-10 01:50:16.60	355.91	18.90	
2025-01-10 01:50:16.81	355.88	18.92	
2025-01-10 01:50:17.02	355.84	18.94	
2025-01-10 01:50:17.22	355.81	18.96	
2025-01-10 01:50:17.42	355.78	18.98	
2025-01-10 01:50:17.63	355.74	19.00	
2025-01-10 01:50:17.83	355.71	19.02	
2025-01-10 01:50:18.04	355.68	19.03	
2025-01-10 01:50:18.24	355.64	19.05	
2025-01-10 01:50:18.46	355.61	19.07	
2025-01-10 01:50:18.67	355.57	19.09	
2025-01-10 01:50:18.87	355.54	19.11	
2025-01-10 01:50:19.08	355.51	19.13	
2025-01-10 01:50:19.28	355.47	19.15	
2025-01-10 01:50:19.49	355.44	19.17	
2025-01-10 01:50:19.69	355.40	19.19	
2025-01-10 01:50:19.90	355.37	19.21	
2025-01-10 01:50:20.10	355.34	19.22	
2025-01-10 01:50:20.31	355.30	19.24	
2025-01-10 01:50:20.51	355.27	19.26	
2025-01-10 01:50:20.72	355.23	19.28	
2025-01-10 01:50:20.92	355.20	19.30	
2025-01-10 01:50:21.13	355.17	19.32	
2025-01-10 01:50:21.33	355.13	19.34	
2025-01-10 01:50:21.54	355.10	19.36	
2025-01-10 01:50:21.75	355.06	19.38	
2025-01-10 01:50:21.95	355.03	19.40	
2025-01-10 01:50:22.16	354.99	19.42	
2025-01-10 01:50:22.36	354.96	19.43	
2025-01-10 01:50:22.57	354.93	19.45	
2025-01-10 01:50:22.77	354.89	19.47	
2025-01-10 01:50:22.98	354.86	19.49	
2025-01-10 01:50:23.18	354.82	19.51	
2025-01-10 01:50:23.39	354.79	19.53	
2025-01-10 01:50:23.60	354.75	19.55	
2025-01-10 01:50:23.80	354.72	19.57	
2025-01-10 01:50:24.01	354.68	19.59	
2025-01-10 01:50:24.21	354.65	19.61	
2025-01-10 01:50:24.42	354.61	19.63	
2025-01-10 01:50:24.62	354.58	19.64	
2025-01-10 01:50:24.83	354.54	19.66	
2025-01-10 01:50:25.04	354.51	19.68	
2025-01-10 01:50:25.24	354.47	19.70	
2025-01-10 01:50:25.45	354.44	19.72	
2025-01-10 01:50:25.65	354.40	19.74	
2025-01-10 01:50:25.86	354.37	19.76	
2025-01-10 01:50:26.06	354.33	19.78	
2025-01-10 01:50:26.27	354.30	19.80	
2025-01-10 01:50:26.48	354.26	19.82	
2025-01-10 01:50:26.68	354.23	19.84	
2025-01-10 01:50:26.88	354.19	19.85	
2025-01-10 01:50:27.09	354.16	19.87	
2025-01-10 01:50:27.30	354.12	19.89	
2025-01-10 01:50:27.50	354.08	19.91	
2025-01-10 01:50:27.71	354.05	19.93	
2025-01-10 01:50:27.91	354.01	19.95	
2025-01-10 01:50:28.12	353.98	19.97	
2025-01-10 01:50:28.32	353.94	19.99	
2025-01-10 01:50:28.53	353.91	20.01	
2025-01-10 01:50:28.73	353.87	20.03	
2025-01-10 01:50:28.94	353.83	20.05	
2025-01-10 01:50:29.14	353.80	20.07	
2025-01-10 01:50:29.35	353.76	20.08	
2025-01-10 01:50:29.55	353.73	20.10	
2025-01-10 01:50:29.76	353.69	20.12	
2025-01-10 01:50:29.96	353.66	20.14	
2025-01-10 01:50:30.17	353.62	20.16	
2025-01-10 01:50:30.37	353.58	20.18	
2025-01-10 01:50:30.58	353.55	20.20	
2025-01-10 01:50:30.78	353.51	20.22	
2025-01-10 01:50:30.99	353.47	20.24	
2025-01-10 01:50:31.20	353.44	20.26	
2025-01-10 01:50:31.40	353.40	20.28	
2025-01-10 01:50:31.61	353.36	20.30	
2025-01-10 01:50:31.81	353.33	20.31	
2025-01-10 01:50:32.02	353.29	20.33	
2025-01-10 01:50:32.22	353.26	20.35	
2025-01-10 01:50:32.43	353.22	20.37	
2025-01-10 01:50:32.63	353.18	20.39	
2025-01-10 01:50:32.84	353.15	20.41	
2025-01-10 01:50:33.04	353.11	20.43	
2025-01-10 01:50:33.25	353.07	20.45	
2025-01-10 01:50:33.45	353.04	20.47	
2025-01-10 01:50:33.66	353.00	20.49	
2025-01-10 01:50:33.87	352.96	20.51	
2025-01-10 01:50:34.07	352.92	20.53	
2025-01-10 01:50:34.28	352.89	20.55	
2025-01-10 01:50:34.48	352.85	20.56	
2025-01-10 01:50:34.69	352.81	20.58	
2025-01-10 01:50:34.89	352.78	20.60	
2025-01-10 01:50:35.10	352.74	20.62	
2025-01-10 01:50:35.30	352.70	20.64	
2025-01-10 01:50:35.50	352.67	20.66	
2025-01-10 01:50:35.71	352.63	20.68	
2025-01-10 01:50:35.92	352.59	20.70	
2025-01-10 01:50:36.12	352.55	20.72	
2025-01-10 01:50:36.33	352.51	20.74	
2025-01-10 01:50:36.53	352.48	20.76	
2025-01-10 01:50:36.74	352.44	20.78	
2025-01-10 01:50:36.94	352.40	20.79	
2025-01-10 01:50:37.15	352.36	20.81	
2025-01-10 01:50:37.36	352.32	20.83	
2025-01-10 01:50:37.56	352.29	20.85	
2025-01-10 01:50:37.76	352.25	20.87	
2025-01-10 01:50:37.97	352.21	20.89	
2025-01-10 01:50:38.17	352.18	20.91	
2025-01-10 01:50:38.38	352.14	20.93	
2025-01-10 01:50:38.58	352.10	20.95	
2025-01-10 01:50:38.79	352.06	20.97	
2025-01-10 01:50:39.00	352.02	20.99	
2025-01-10 01:50:39.20	351.98	21.01	
2025-01-10 01:50:39.41	351.95	21.03	
2025-01-10 01:50:39.61	351.91	21.04	
2025-01-10 01:50:39.82	351.87	21.06	
2025-01-10 01:50:40.02	351.83	21.08	
2025-01-10 01:50:40.23	351.79	21.10	
2025-01-10 01:50:40.43	351.75	21.12	
2025-01-10 01:50:40.64	351.72	21.14	
2025-01-10 01:50:40.84	351.68	21.16	
2025-01-10 01:50:41.05	351.64	21.18	
2025-01-10 01:50:41.26	351.60	21.20	
2025-01-10 01:50:41.46	351.56	21.22	
2025-01-10 01:50:41.67	351.52	21.24	
2025-01-10 01:50:41.87	351.48	21.26	
2025-01-10 01:50:42.08	351.44	21.28	
2025-01-10 01:50:42.29	351.40	21.30	
2025-01-10 01:50:42.49	351.37	21.31	
2025-01-10 01:50:42.70	351.33	21.33	
2025-01-10 01:50:42.90	351.29	21.35	
2025-01-10 01:50:43.10	351.25	21.37	
2025-01-10 01:50:43.31	351.21	21.39	
2025-01-10 01:50:43.52	351.17	21.41	
2025-01-10 01:50:43.72	351.13	21.43	
2025-01-10 01:50:43.92	351.09	21.45	
2025-01-10 01:50:44.13	351.05	21.47	
2025-01-10 01:50:44.34	351.01	21.49	
2025-01-10 01:50:44.54	350.97	21.51	
2025-01-10 01:50:44.75	350.93	21.53	
2025-01-10 01:50:44.95	350.89	21.55	
2025-01-10 01:50:45.16	350.85	21.57	
2025-01-10 01:50:45.36	350.82	21.58	
2025-01-10 01:50:45.57	350.78	21.60	
2025-01-10 01:50:45.78	350.73	21.62	
2025-01-10 01:50:45.98	350.70	21.64	
2025-01-10 01:50:46.18	350.66	21.66	
2025-01-10 01:50:46.39	350.62	21.68	
2025-01-10 01:50:46.59	350.58	21.70	
2025-01-10 01:50:46.80	350.54	21.72	
2025-01-10 01:50:47.01	350.50	21.74	
2025-01-10 01:50:47.21	350.46	21.76	
2025-01-10 01:50:47.42	350.42	21.78	
2025-01-10 01:50:47.62	350.38	21.80	
2025-01-10 01:50:47.83	350.33	21.82	
2025-01-10 01:50:48.04	350.29	21.84	
2025-01-10 01:50:48.24	350.25	21.85	
2025-01-10 01:50:48.44	350.21	21.87	
2025-01-10 01:50:48.65	350.17	21.89	
2025-01-10 01:50:48.86	350.13	21.91	
2025-01-10 01:50:49.06	350.09	21.93	
2025-01-10 01:50:49.26	350.05	21.95	
2025-01-10 01:50:49.47	350.01	21.97	
2025-01-10 01:50:49.68	349.97	21.99	
2025-01-10 01:50:49.88	349.93	22.01	
2025-01-10 01:50:50.09	349.89	22.03	
2025-01-10 01:50:50.29	349.85	22.05	
2025-01-10 01:50:50.50	349.81	22.07	
2025-01-10 01:50:50.70	349.77	22.09	
2025-01-10 01:50:50.91	349.72	22.10	
2025-01-10 01:50:51.12	349.68	22.12	
2025-01-10 01:50:51.32	349.64	22.14	
2025-01-10 01:50:51.52	349.60	22.16	
2025-01-10 01:50:51.73	349.56	22.18	
2025-01-10 01:50:51.94	349.52	22.20	
2025-01-10 01:50:52.14	349.48	22.22	
2025-01-10 01:50:52.35	349.43	22.24	
2025-01-10 01:50:52.55	349.39	22.26	
2025-01-10 01:50:52.76	349.35	22.28	
2025-01-10 01:50:52.96	349.31	22.30	
2025-01-10 01:50:53.17	349.27	22.32	
2025-01-10 01:50:53.37	349.23	22.34	
2025-01-10 01:50:53.58	349.19	22.35	
2025-01-10 01:50:53.78	349.15	22.37	
2025-01-10 01:50:53.99	349.10	22.39	
2025-01-10 01:50:54.20	349.06	22.41	
2025-01-10 01:50:54.40	349.02	22.43	
2025-01-10 01:50:54.60	348.98	22.45	
2025-01-10 01:50:54.81	348.93	22.47	
2025-01-10 01:50:55.01	348.89	22.49	
2025-01-10 01:50:55.22	348.85	22.51	
2025-01-10 01:50:55.43	348.81	22.53	
2025-01-10 01:50:55.63	348.77	22.55	
2025-01-10 01:50:55.84	348.72	22.57	
2025-01-10 01:50:56.04	348.68	22.59	
2025-01-10 01:50:56.25	348.64	22.60	
2025-01-10 01:50:56.45	348.60	22.62	
2025-01-10 01:50:56.66	348.55	22.64	
2025-01-10 01:50:56.86	348.51	22.66	
2025-01-10 01:50:57.07	348.47	22.68	
2025-01-10 01:50:57.27	348.43	22.70	
2025-01-10 01:50:57.48	348.38	22.72	
2025-01-10 01:50:57.70	348.34	22.74	
2025-01-10 01:50:57.90	348.30	22.76	
2025-01-10 01:50:58.11	348.25	22.78	
2025-01-10 01:50:58.31	348.21	22.80	
2025-01-10 01:50:58.52	348.17	22.82	
2025-01-10 01:50:58.72	348.12	22.84	
2025-01-10 01:50:58.93	348.08	22.86	
2025-01-10 01:50:59.13	348.04	22.87	
2025-01-10 01:50:59.34	347.99	22.89	
2025-01-10 01:50:59.54	347.95	22.91	
2025-01-10 01:50:59.75	347.91	22.93	
2025-01-10 01:50:59.96	347.86	22.95	
2025-01-10 01:51:00.16	347.82	22.97	
2025-01-10 01:51:00.36	347.78	22.99	
2025-01-10 01:51:00.57	347.73	23.01	
2025-01-10 01:51:00.77	347.69	23.03	
2025-01-10 01:51:00.98	347.65	23.05	
2025-01-10 01:51:01.18	347.60	23.06	
2025-01-10 01:51:01.39	347.56	23.08	
2025-01-10 01:51:01.59	347.52	23.10	
2025-01-10 01:51:01.80	347.47	23.12	
2025-01-10 01:51:02.00	347.43	23.14	
2025-01-10 01:51:02.21	347.38	23.16	
2025-01-10 01:51:02.41	347.34	23.18	
2025-01-10 01:51:02.62	347.30	23.20	
2025-01-10 01:51:02.83	347.25	23.22	
2025-01-10 01:51:03.03	347.21	23.24	
2025-01-10 01:51:03.24	347.16	23.26	
2025-01-10 01:51:03.44	347.12	23.27	
2025-01-10 01:51:03.65	347.07	23.29	
2025-01-10 01:51:03.85	347.03	23.31	
2025-01-10 01:51:04.06	346.99	23.33	
2025-01-10 01:51:04.26	346.94	23.35	
2025-01-10 01:51:04.47	346.90	23.37	
2025-01-10 01:51:04.67	346.85	23.39	
2025-01-10 01:51:04.88	346.81	23.41	
2025-01-10 01:51:05.09	346.76	23.43	
2025-01-10 01:51:05.29	346.72	23.45	
2025-01-10 01:51:05.50	346.67	23.47	
2025-01-10 01:51:05.70	346.63	23.48	
2025-01-10 01:51:05.91	346.58	23.50	
2025-01-10 01:51:06.11	346.54	23.52	
2025-01-10 01:51:06.32	346.49	23.54	
2025-01-10 01:51:06.54	346.44	23.56	
2025-01-10 01:51:06.74	346.40	23.58	
2025-01-10 01:51:06.95	346.35	23.60	
2025-01-10 01:51:07.16	346.31	23.62	
2025-01-10 01:51:07.36	346.26	23.64	
2025-01-10 01:51:07.56	346.22	23.66	
2025-01-10 01:51:07.77	346.17	23.68	
2025-01-10 01:51:07.98	346.13	23.70	
2025-01-10 01:51:08.18	346.08	23.71	
2025-01-10 01:51:08.39	346.03	23.73	
2025-01-10 01:51:08.59	345.99	23.75	
2025-01-10 01:51:08.79	345.95	23.77	
2025-01-10 01:51:09.00	345.90	23.79	
2025-01-10 01:51:09.21	345.85	23.81	
2025-01-10 01:51:09.41	345.81	23.83	
2025-01-10 01:51:09.61	345.76	23.85	
2025-01-10 01:51:09.82	345.72	23.87	
2025-01-10 01:51:10.03	345.67	23.88	
2025-01-10 01:51:10.23	345.62	23.90	
2025-01-10 01:51:10.44	345.58	23.92	
2025-01-10 01:51:10.65	345.53	23.94	
2025-01-10 01:51:10.86	345.48	23.96	
2025-01-10 01:51:11.07	345.43	23.98	
2025-01-10 01:51:11.27	345.39	24.00	
2025-01-10 01:51:11.48	345.34	24.02	
2025-01-10 01:51:11.68	345.30	24.04	
2025-01-10 01:51:11.89	345.25	24.06	
2025-01-10 01:51:12.09	345.20	24.07	
2025-01-10 01:51:12.30	345.15	24.09	
2025-01-10 01:51:12.50	345.11	24.11	
2025-01-10 01:51:12.71	345.06	24.13	
2025-01-10 01:51:12.91	345.02	24.15	
2025-01-10 01:51:13.12	344.97	24.17	
2025-01-10 01:51:13.32	344.92	24.19	
2025-01-10 01:51:13.53	344.87	24.21	
2025-01-10 01:51:13.73	344.83	24.22	
2025-01-10 01:51:13.94	344.78	24.24	
2025-01-10 01:51:14.14	344.73	24.26	
2025-01-10 01:51:14.35	344.69	24.28	
2025-01-10 01:51:14.55	344.64	24.30	
2025-01-10 01:51:14.76	344.59	24.32	
2025-01-10 01:51:14.96	344.54	24.34	
2025-01-10 01:51:15.17	344.50	24.36	
2025-01-10 01:51:15.37	344.45	24.37	
2025-01-10 01:51:15.58	344.40	24.39	
2025-01-10 01:51:15.79	344.35	24.41	
2025-01-10 01:51:15.99	344.31	24.43	
2025-01-10 01:51:16.20	344.26	24.45	
2025-01-10 01:51:16.40	344.21	24.47	
2025-01-10 01:51:16.61	344.16	24.49	
2025-01-10 01:51:16.81	344.11	24.50	
2025-01-10 01:51:17.02	344.07	24.52	
2025-01-10 01:51:17.22	344.02	24.54	
2025-01-10 01:51:17.43	343.97	24.56	
2025-01-10 01:51:17.63	343.92	24.58	
2025-01-10 01:51:17.84	343.87	24.60	
2025-01-10 01:51:18.05	343.82	24.62	
2025-01-10 01:51:18.25	343.78	24.64	
2025-01-10 01:51:18.46	343.73	24.65	
2025-01-10 01:51:18.66	343.68	24.67	
2025-01-10 01:51:18.87	343.63	24.69	
2025-01-10 01:51:19.08	343.58	24.71	
2025-01-10 01:51:19.28	343.53	24.73	
2025-01-10 01:51:19.49	343.48	24.75	
2025-01-10 01:51:19.69	343.44	24.77	
2025-01-10 01:51:19.90	343.39	24.78	
2025-01-10 01:51:20.11	343.34	24.80	
2025-01-10 01:51:20.31	343.29	24.82	
2025-01-10 01:51:20.52	343.24	24.84	
2025-01-10 01:51:20.72	343.19	24.86	
2025-01-10 01:51:20.93	343.14	24.88	
2025-01-10 01:51:21.13	343.09	24.90	
2025-01-10 01:51:21.34	343.04	24.91	
2025-01-10 01:51:21.54	342.99	24.93	
2025-01-10 01:51:21.75	342.94	24.95	
2025-01-10 01:51:21.95	342.89	24.97	
2025-01-10 01:51:22.16	342.84	24.99	
2025-01-10 01:51:22.36	342.80	25.01	
2025-01-10 01:51:22.57	342.75	25.02	
2025-01-10 01:51:22.77	342.70	25.04	
2025-01-10 01:51:22.98	342.65	25.06	
2025-01-10 01:51:23.19	342.59	25.08	
2025-01-10 01:51:23.39	342.55	25.10	
2025-01-10 01:51:23.60	342.50	25.12	
2025-01-10 01:51:23.80	342.45	25.13	
2025-01-10 01:51:24.00	342.40	25.15	
2025-01-10 01:51:24.21	342.35	25.17	
2025-01-10 01:51:24.42	342.30	25.19	
2025-01-10 01:51:24.62	342.25	25.21	
2025-01-10 01:51:24.83	342.20	25.23	
2025-01-10 01:51:25.03	342.15	25.24	
2025-01-10 01:51:25.24	342.09	25.26	
2025-01-10 01:51:25.44	342.05	25.28	
2025-01-10 01:51:25.65	341.99	25.30	
2025-01-10 01:51:25.85	341.94	25.32	
2025-01-10 01:51:26.06	341.89	25.33	
2025-01-10 01:51:26.27	341.84	25.35	
2025-01-10 01:51:26.47	341.79	25.37	
2025-01-10 01:51:26.68	341.74	25.39	
2025-01-10 01:51:26.88	341.69	25.41	
2025-01-10 01:51:27.09	341.64	25.43	
2025-01-10 01:51:27.29	341.59	25.44	
2025-01-10 01:51:27.50	341.54	25.46	
2025-01-10 01:51:27.70	341.49	25.48	
2025-01-10 01:51:27.92	341.43	25.50	
2025-01-10 01:51:28.12	341.38	25.52	
2025-01-10 01:51:28.33	341.33	25.54	
2025-01-10 01:51:28.53	341.28	25.55	
2025-01-10 01:51:28.74	341.23	25.57	
2025-01-10 01:51:28.95	341.17	25.59	
2025-01-10 01:51:29.17	341.12	25.61	
2025-01-10 01:51:29.38	341.07	25.63	
2025-01-10 01:51:29.58	341.02	25.64	
2025-01-10 01:51:29.79	340.96	25.66	
2025-01-10 01:51:29.99	340.91	25.68	
2025-01-10 01:51:30.19	340.86	25.70	
2025-01-10 01:51:30.40	340.81	25.72	
2025-01-10 01:51:30.61	340.76	25.73	
2025-01-10 01:51:30.81	340.71	25.75	
2025-01-10 01:51:31.02	340.65	25.77	
2025-01-10 01:51:31.22	340.60	25.79	
2025-01-10 01:51:31.43	340.55	25.81	
2025-01-10 01:51:31.63	340.50	25.82	
2025-01-10 01:51:31.84	340.44	25.84	
2025-01-10 01:51:32.04	340.39	25.86	
2025-01-10 01:51:32.25	340.34	25.88	
2025-01-10 01:51:32.45	340.29	25.89	
2025-01-10 01:51:32.66	340.24	25.91	
2025-01-10 01:51:32.87	340.18	25.93	
2025-01-10 01:51:33.07	340.13	25.95	
2025-01-10 01:51:33.28	340.08	25.97	
2025-01-10 01:51:33.48	340.02	25.98	
2025-01-10 01:51:33.69	339.97	26.00	
2025-01-10 01:51:33.89	339.92	26.02	
2025-01-10 01:51:34.10	339.87	26.04	
2025-01-10 01:51:34.32	339.81	26.06	
2025-01-10 01:51:34.52	339.76	26.07	
2025-01-10 01:51:34.73	339.70	26.09	
2025-01-10 01:51:34.93	339.65	26.11	
2025-01-10 01:51:35.14	339.60	26.13	
2025-01-10 01:51:35.34	339.54	26.14	
2025-01-10 01:51:35.55	339.49	26.16	
2025-01-10 01:51:35.75	339.44	26.18	
2025-01-10 01:51:35.96	339.38	26.20	
2025-01-10 01:51:36.17	339.33	26.21	
2025-01-10 01:51:36.37	339.28	26.23	
2025-01-10 01:51:36.58	339.22	26.25	
2025-01-10 01:51:36.78	339.17	26.27	
2025-01-10 01:51:36.99	339.11	26.28	
2025-01-10 01:51:37.19	339.06	26.30	
2025-01-10 01:51:37.39	339.01	26.32	
2025-01-10 01:51:37.60	338.95	26.34	
2025-01-10 01:51:37.81	338.90	26.35	
2025-01-10 01:51:38.01	338.85	26.37	
2025-01-10 01:51:38.22	338.79	26.39	
2025-01-10 01:51:38.42	338.74	26.40	
2025-01-10 01:51:38.63	338.68	26.42	
2025-01-10 01:51:38.83	338.63	26.44	
2025-01-10 01:51:39.04	338.57	26.46	
2025-01-10 01:51:39.24	338.52	26.47	
2025-01-10 01:51:39.45	338.47	26.49	
2025-01-10 01:51:39.65	338.41	26.51	
2025-01-10 01:51:39.86	338.36	26.53	
2025-01-10 01:51:40.06	338.30	26.54	
2025-01-10 01:51:40.27	338.25	26.56	
2025-01-10 01:51:40.47	338.19	26.58	
2025-01-10 01:51:40.68	338.14	26.59	
2025-01-10 01:51:40.88	338.08	26.61	
2025-01-10 01:51:41.09	338.03	26.63	
2025-01-10 01:51:41.29	337.97	26.64	
2025-01-10 01:51:41.50	337.92	26.66	
2025-01-10 01:51:41.70	337.86	26.68	
2025-01-10 01:51:41.91	337.81	26.70	
2025-01-10 01:51:42.11	337.75	26.71	
2025-01-10 01:51:42.32	337.70	26.73	
2025-01-10 01:51:42.52	337.64	26.75	
2025-01-10 01:51:42.73	337.59	26.76	
2025-01-10 01:51:42.93	337.53	26.78	
2025-01-10 01:51:43.14	337.48	26.80	
2025-01-10 01:51:43.34	337.42	26.81	
2025-01-10 01:51:43.55	337.36	26.83	
2025-01-10 01:51:43.76	337.31	26.85	
2025-01-10 01:51:43.96	337.25	26.86	
2025-01-10 01:51:44.16	337.20	26.88	
2025-01-10 01:51:44.37	337.14	26.90	
2025-01-10 01:51:44.58	337.08	26.92	
2025-01-10 01:51:44.78	337.03	26.93	
2025-01-10 01:51:44.99	336.97	26.95	
2025-01-10 01:51:45.19	336.92	26.97	
2025-01-10 01:51:45.40	336.86	26.98	
2025-01-10 01:51:45.60	336.81	27.00	
2025-01-10 01:51:45.81	336.75	27.02	
2025-01-10 01:51:46.01	336.69	27.03	
2025-01-10 01:51:46.22	336.64	27.05	
2025-01-10 01:51:46.42	336.58	27.06	
2025-01-10 01:51:46.63	336.52	27.08	
2025-01-10 01:51:46.83	336.47	27.10	
2025-01-10 01:51:47.04	336.41	27.11	
2025-01-10 01:51:47.24	336.35	27.13	
2025-01-10 01:51:47.45	336.30	27.15	
2025-01-10 01:51:47.66	336.24	27.16	
2025-01-10 01:51:47.86	336.18	27.18	
2025-01-10 01:51:48.06	336.13	27.20	
2025-01-10 01:51:48.27	336.07	27.21	
2025-01-10 01:51:48.48	336.01	27.23	
2025-01-10 01:51:48.68	335.95	27.25	
2025-01-10 01:51:48.89	335.90	27.26	
2025-01-10 01:51:49.09	335.84	27.28	
2025-01-10 01:51:49.30	335.78	27.30	
2025-01-10 01:51:49.50	335.73	27.31	
2025-01-10 01:51:49.71	335.67	27.33	
2025-01-10 01:51:49.92	335.61	27.34	
2025-01-10 01:51:50.12	335.55	27.36	
2025-01-10 01:51:50.32	335.50	27.38	
2025-01-10 01:51:50.53	335.44	27.39	
2025-01-10 01:51:50.74	335.38	27.41	
2025-01-10 01:51:50.94	335.32	27.42	
2025-01-10 01:51:51.15	335.26	27.44	
2025-01-10 01:51:51.35	335.21	27.46	
2025-01-10 01:51:51.56	335.15	27.47	
2025-01-10 01:51:51.76	335.09	27.49	
2025-01-10 01:51:51.97	335.03	27.50	
2025-01-10 01:51:52.18	334.97	27.52	
2025-01-10 01:51:52.38	334.91	27.54	
2025-01-10 01:51:52.59	334.85	27.55	
2025-01-10 01:51:52.79	334.80	27.57	
2025-01-10 01:51:53.00	334.74	27.58	
2025-01-10 01:51:53.20	334.68	27.60	
2025-01-10 01:51:53.41	334.62	27.62	
2025-01-10 01:51:53.61	334.56	27.63	
2025-01-10 01:51:53.82	334.50	27.65	
2025-01-10 01:51:54.02	334.45	27.66	
2025-01-10 01:51:54.23	334.39	27.68	
2025-01-10 01:51:54.43	334.33	27.69	
2025-01-10 01:51:54.64	334.27	27.71	
2025-01-10 01:51:54.84	334.21	27.73	
2025-01-10 01:51:55.05	334.15	27.74	
2025-01-10 01:51:55.25	334.09	27.76	
2025-01-10 01:51:55.46	334.03	27.77	
2025-01-10 01:51:55.66	333.98	27.79	
2025-01-10 01:51:55.87	333.92	27.80	
2025-01-10 01:51:56.07	333.86	27.82	
2025-01-10 01:51:56.28	333.80	27.83	
2025-01-10 01:51:56.48	333.74	27.85	
2025-01-10 01:51:56.69	333.68	27.87	
2025-01-10 01:51:56.89	333.62	27.88	
2025-01-10 01:51:57.10	333.56	27.90	
2025-01-10 01:51:57.31	333.50	27.91	
2025-01-10 01:51:57.51	333.44	27.93	
2025-01-10 01:51:57.73	333.38	27.94	
2025-01-10 01:51:57.93	333.32	27.96	
2025-01-10 01:51:58.14	333.26	27.97	
2025-01-10 01:51:58.34	333.20	27.99	
2025-01-10 01:51:58.55	333.14	28.00	
2025-01-10 01:51:58.77	333.07	28.02	
2025-01-10 01:51:58.97	333.01	28.03	
2025-01-10 01:51:59.18	332.95	28.05	
2025-01-10 01:51:59.38	332.89	28.06	
2025-01-10 01:51:59.59	332.83	28.08	
2025-01-10 01:51:59.79	332.77	28.09	
2025-01-10 01:52:00.00	332.71	28.11	
2025-01-10 01:52:00.20	332.65	28.12	
2025-01-10 01:52:00.41	332.59	28.14	
2025-01-10 01:52:00.61	332.53	28.15	
2025-01-10 01:52:00.82	332.47	28.17	
2025-01-10 01:52:01.02	332.41	28.18	
2025-01-10 01:52:01.23	332.35	28.20	
2025-01-10 01:52:01.43	332.29	28.21	
2025-01-10 01:52:01.64	332.23	28.23	
2025-01-10 01:52:01.85	332.17	28.24	
2025-01-10 01:52:02.05	332.11	28.26	
2025-01-10 01:52:02.26	332.04	28.27	
2025-01-10 01:52:02.46	331.98	28.29	
2025-01-10 01:52:02.67	331.92	28.30	
2025-01-10 01:52:02.87	331.86	28.32	
2025-01-10 01:52:03.08	331.80	28.33	
2025-01-10 01:52:03.28	331.74	28.35	
2025-01-10 01:52:03.49	331.68	28.36	
2025-01-10 01:52:03.69	331.62	28.37	
2025-01-10 01:52:03.90	331.55	28.39	
2025-01-10 01:52:04.10	331.50	28.40	
2025-01-10 01:52:04.31	331.43	28.42	
2025-01-10 01:52:04.51	331.37	28.43	
2025-01-10 01:52:04.72	331.31	28.45	
2025-01-10 01:52:04.92	331.25	28.46	
2025-01-10 01:52:05.13	331.19	28.48	
2025-01-10 01:52:05.33	331.13	28.49	
2025-01-10 01:52:05.54	331.06	28.50	
2025-01-10 01:52:05.74	331.00	28.52	
2025-01-10 01:52:05.95	330.94	28.53	
2025-01-10 01:52:06.15	330.88	28.55	
2025-01-10 01:52:06.36	330.81	28.56	
2025-01-10 01:52:06.56	330.75	28.57	
2025-01-10 01:52:06.77	330.69	28.59	
2025-01-10 01:52:06.97	330.63	28.60	
2025-01-10 01:52:07.18	330.57	28.62	
2025-01-10 01:52:07.38	330.51	28.63	
2025-01-10 01:52:07.59	330.44	28.64	
2025-01-10 01:52:07.79	330.38	28.66	
2025-01-10 01:52:08.00	330.32	28.67	
2025-01-10 01:52:08.21	330.25	28.69	
2025-01-10 01:52:08.41	330.19	28.70	
2025-01-10 01:52:08.61	330.13	28.71	
2025-01-10 01:52:08.82	330.07	28.73	
2025-01-10 01:52:09.02	330.00	28.74	
2025-01-10 01:52:09.23	329.94	28.75	
2025-01-10 01:52:09.43	329.88	28.77	
2025-01-10 01:52:09.64	329.81	28.78	
2025-01-10 01:52:09.84	329.75	28.79	
2025-01-10 01:52:10.05	329.69	28.81	
2025-01-10 01:52:10.26	329.62	28.82	
2025-01-10 01:52:10.46	329.56	28.84	
2025-01-10 01:52:10.67	329.50	28.85	
2025-01-10 01:52:10.87	329.44	28.86	
2025-01-10 01:52:11.08	329.37	28.88	
2025-01-10 01:52:11.29	329.31	28.89	
2025-01-10 01:52:11.49	329.24	28.90	
2025-01-10 01:52:11.70	329.18	28.92	
2025-01-10 01:52:11.90	329.12	28.93	
2025-01-10 01:52:12.11	329.05	28.94	
2025-01-10 01:52:12.31	328.99	28.96	
2025-01-10 01:52:12.52	328.93	28.97	
2025-01-10 01:52:12.72	328.86	28.98	
2025-01-10 01:52:12.93	328.80	28.99	
2025-01-10 01:52:13.13	328.74	29.01	
2025-01-10 01:52:13.34	328.67	29.02	
2025-01-10 01:52:13.55	328.61	29.03	
2025-01-10 01:52:13.76	328.54	29.05	
2025-01-10 01:52:13.97	328.47	29.06	
2025-01-10 01:52:14.17	328.41	29.07	
2025-01-10 01:52:14.38	328.35	29.09	
2025-01-10 01:52:14.59	328.28	29.10	
2025-01-10 01:52:14.79	328.22	29.11	
2025-01-10 01:52:15.00	328.15	29.12	
2025-01-10 01:52:15.20	328.09	29.14	
2025-01-10 01:52:15.41	328.02	29.15	
2025-01-10 01:52:15.61	327.96	29.16	
2025-01-10 01:52:15.83	327.89	29.18	
2025-01-10 01:52:16.03	327.83	29.19	
2025-01-10 01:52:16.24	327.76	29.20	
2025-01-10 01:52:16.44	327.70	29.21	
2025-01-10 01:52:16.65	327.63	29.23	
2025-01-10 01:52:16.85	327.57	29.24	
2025-01-10 01:52:17.06	327.50	29.25	
2025-01-10 01:52:17.26	327.44	29.26	
2025-01-10 01:52:17.47	327.37	29.27	
2025-01-10 01:52:17.67	327.31	29.29	
2025-01-10 01:52:17.88	327.24	29.30	
2025-01-10 01:52:18.10	327.17	29.31	
2025-01-10 01:52:18.30	327.11	29.32	
2025-01-10 01:52:18.51	327.04	29.34	
2025-01-10 01:52:18.71	326.98	29.35	
2025-01-10 01:52:18.92	326.91	29.36	
2025-01-10 01:52:19.14	326.84	29.37	
2025-01-10 01:52:19.34	326.78	29.39	
2025-01-10 01:52:19.55	326.71	29.40	
2025-01-10 01:52:19.75	326.65	29.41	
2025-01-10 01:52:19.96	326.58	29.42	
2025-01-10 01:52:20.16	326.52	29.43	
2025-01-10 01:52:20.37	326.45	29.44	
2025-01-10 01:52:20.57	326.39	29.46	
2025-01-10 01:52:20.78	326.32	29.47	
2025-01-10 01:52:20.99	326.25	29.48	
2025-01-10 01:52:21.19	326.19	29.49	
2025-01-10 01:52:21.39	326.12	29.50	
2025-01-10 01:52:21.60	326.06	29.51	
2025-01-10 01:52:21.81	325.99	29.53	
2025-01-10 01:52:22.01	325.92	29.54	
2025-01-10 01:52:22.22	325.86	29.55	
2025-01-10 01:52:22.42	325.79	29.56	
2025-01-10 01:52:22.63	325.72	29.57	
2025-01-10 01:52:22.84	325.66	29.58	
2025-01-10 01:52:23.04	325.59	29.59	
2025-01-10 01:52:23.24	325.53	29.61	
2025-01-10 01:52:23.45	325.46	29.62	
2025-01-10 01:52:23.65	325.39	29.63	
2025-01-10 01:52:23.86	325.33	29.64	
2025-01-10 01:52:24.06	325.26	29.65	
2025-01-10 01:52:24.27	325.19	29.66	
2025-01-10 01:52:24.47	325.13	29.67	
2025-01-10 01:52:24.68	325.06	29.68	
2025-01-10 01:52:24.88	325.00	29.69	
2025-01-10 01:52:25.09	324.93	29.71	
2025-01-10 01:52:25.29	324.86	29.72	
2025-01-10 01:52:25.50	324.79	29.73	
2025-01-10 01:52:25.70	324.73	29.74	
2025-01-10 01:52:25.91	324.66	29.75	
2025-01-10 01:52:26.11	324.59	29.76	
2025-01-10 01:52:26.32	324.53	29.77	
2025-01-10 01:52:26.52	324.46	29.78	
2025-01-10 01:52:26.73	324.39	29.79	
2025-01-10 01:52:26.94	324.32	29.80	
2025-01-10 01:52:27.14	324.26	29.81	
2025-01-10 01:52:27.35	324.19	29.82	
2025-01-10 01:52:27.55	324.12	29.83	
2025-01-10 01:52:27.76	324.06	29.84	
2025-01-10 01:52:27.96	323.99	29.85	
2025-01-10 01:52:28.17	323.92	29.86	
2025-01-10 01:52:28.37	323.85	29.87	
2025-01-10 01:52:28.58	323.79	29.88	
2025-01-10 01:52:28.78	323.72	29.89	
2025-01-10 01:52:28.99	323.65	29.90	
2025-01-10 01:52:29.20	323.58	29.91	
2025-01-10 01:52:29.40	323.52	29.92	
2025-01-10 01:52:29.61	323.45	29.93	
2025-01-10 01:52:29.81	323.38	29.94	
2025-01-10 01:52:30.02	323.31	29.95	
2025-01-10 01:52:30.22	323.24	29.96	
2025-01-10 01:52:30.43	323.18	29.97	
2025-01-10 01:52:30.63	323.11	29.98	
2025-01-10 01:52:30.84	323.04	29.99	
2025-01-10 01:52:31.04	322.97	30.00	
2025-01-10 01:52:31.25	322.90	30.01	
2025-01-10 01:52:31.46	322.83	30.02	
2025-01-10 01:52:31.66	322.77	30.03	
2025-01-10 01:52:31.87	322.70	30.04	
2025-01-10 01:52:32.07	322.63	30.05	
2025-01-10 01:52:32.28	322.56	30.06	
2025-01-10 01:52:32.49	322.49	30.07	
2025-01-10 01:52:32.69	322.43	30.08	
2025-01-10 01:52:32.90	322.36	30.09	
2025-01-10 01:52:33.10	322.29	30.10	
2025-01-10 01:52:33.31	322.22	30.11	
2025-01-10 01:52:33.51	322.15	30.12	
2025-01-10 01:52:33.72	322.08	30.13	
2025-01-10 01:52:33.93	322.01	30.14	
2025-01-10 01:52:34.13	321.94	30.14	
2025-01-10 01:52:34.33	321.88	30.15	
2025-01-10 01:52:34.54	321.81	30.16	
2025-01-10 01:52:34.75	321.74	30.17	
2025-01-10 01:52:34.95	321.67	30.18	
2025-01-10 01:52:35.16	321.60	30.19	
2025-01-10 01:52:35.36	321.53	30.20	
2025-01-10 01:52:35.57	321.46	30.21	
2025-01-10 01:52:35.77	321.40	30.22	
2025-01-10 01:52:35.98	321.32	30.22	
2025-01-10 01:52:36.18	321.26	30.23	
2025-01-10 01:52:36.39	321.19	30.24	
2025-01-10 01:52:36.59	321.12	30.25	
2025-01-10 01:52:36.80	321.05	30.26	
2025-01-10 01:52:37.00	320.98	30.27	
2025-01-10 01:52:37.21	320.91	30.28	
2025-01-10 01:52:37.41	320.84	30.28	
2025-01-10 01:52:37.62	320.77	30.29	
2025-01-10 01:52:37.82	320.70	30.30	
2025-01-10 01:52:38.03	320.63	30.31	
2025-01-10 01:52:38.24	320.56	30.32	
2025-01-10 01:52:38.44	320.50	30.32	
2025-01-10 01:52:38.65	320.42	30.33	
2025-01-10 01:52:38.85	320.36	30.34	
2025-01-10 01:52:39.06	320.29	30.35	
2025-01-10 01:52:39.26	320.22	30.36	
2025-01-10 01:52:39.47	320.15	30.37	
2025-01-10 01:52:39.67	320.08	30.37	
2025-01-10 01:52:39.88	320.01	30.38	
2025-01-10 01:52:40.08	319.94	30.39	
2025-01-10 01:52:40.29	319.87	30.40	
2025-01-10 01:52:40.49	319.80	30.40	
2025-01-10 01:52:40.70	319.73	30.41	
2025-01-10 01:52:40.90	319.66	30.42	
2025-01-10 01:52:41.11	319.59	30.43	
2025-01-10 01:52:41.32	319.52	30.43	
2025-01-10 01:52:41.53	319.45	30.44	
2025-01-10 01:52:41.74	319.37	30.45	
2025-01-10 01:52:41.94	319.31	30.46	
2025-01-10 01:52:42.15	319.23	30.46	
2025-01-10 01:52:42.36	319.16	30.47	
2025-01-10 01:52:42.56	319.10	30.48	
2025-01-10 01:52:42.77	319.02	30.49	
2025-01-10 01:52:42.97	318.95	30.49	
2025-01-10 01:52:43.18	318.88	30.50	
2025-01-10 01:52:43.38	318.81	30.51	
2025-01-10 01:52:43.58	318.75	30.51	
2025-01-10 01:52:43.79	318.67	30.52	
2025-01-10 01:52:43.99	318.61	30.53	
2025-01-10 01:52:44.20	318.53	30.53	
2025-01-10 01:52:44.41	318.46	30.54	
2025-01-10 01:52:44.61	318.39	30.55	
