passes_logs/2025/01/10/SPB_Silybum_02/SPB_Silybum_02__20250110_032728_SUOMI_NPP_rec.log

#Pass ID: 20250110_032728_SUOMI NPP
#Satellite: SUOMI NPP
#Configuration: NPP
#Start time: 2025-01-10 03:27:26

#Version: 2.0.20230423
#Station: SPB_Silybum_02
#Location: 30.233357 lon 59.946436 lat
#TLE: 1 37849U 11061A   25009.14008564  .00000193  00000+0  11215-3 0  9999
#TLE: 2 37849  98.7440 310.2032 0001887  50.1400 309.9942 14.19535382684083

#Time	Az	El	Level	Level2	SNR	BER	Gain	Gain2
2025-01-10 03:27:28.64	14.74	4.03	
2025-01-10 03:27:28.85	14.72	4.04	
2025-01-10 03:27:29.05	14.70	4.04	
2025-01-10 03:27:29.26	14.68	4.05	
2025-01-10 03:27:29.47	14.66	4.06	
2025-01-10 03:27:29.67	14.63	4.07	
2025-01-10 03:27:29.88	14.61	4.08	
2025-01-10 03:27:30.10	14.59	4.09	
2025-01-10 03:27:30.30	14.57	4.10	
2025-01-10 03:27:30.51	14.54	4.11	
2025-01-10 03:27:30.71	14.52	4.12	
2025-01-10 03:27:30.92	14.50	4.13	
2025-01-10 03:27:31.12	14.48	4.14	
2025-01-10 03:27:31.33	14.45	4.15	
2025-01-10 03:27:31.53	14.43	4.16	
2025-01-10 03:27:31.74	14.41	4.17	
2025-01-10 03:27:31.94	14.39	4.18	
2025-01-10 03:27:32.15	14.37	4.19	
2025-01-10 03:27:32.35	14.34	4.20	
2025-01-10 03:27:32.56	14.32	4.21	
2025-01-10 03:27:32.77	14.30	4.22	
2025-01-10 03:27:32.97	14.28	4.23	
2025-01-10 03:27:33.17	14.25	4.24	
2025-01-10 03:27:33.38	14.23	4.25	
2025-01-10 03:27:33.58	14.21	4.26	
2025-01-10 03:27:33.79	14.19	4.26	
2025-01-10 03:27:33.99	14.17	4.27	
2025-01-10 03:27:34.20	14.14	4.28	
2025-01-10 03:27:34.40	14.12	4.29	
2025-01-10 03:27:34.61	14.10	4.30	
2025-01-10 03:27:34.82	14.07	4.31	
2025-01-10 03:27:35.02	14.05	4.32	
2025-01-10 03:27:35.23	14.03	4.33	
2025-01-10 03:27:35.43	14.01	4.34	
2025-01-10 03:27:35.64	13.98	4.35	
2025-01-10 03:27:35.84	13.96	4.36	
2025-01-10 03:27:36.05	13.94	4.37	
2025-01-10 03:27:36.25	13.92	4.38	
2025-01-10 03:27:36.46	13.89	4.39	
2025-01-10 03:27:36.66	13.87	4.40	
2025-01-10 03:27:36.87	13.85	4.41	
2025-01-10 03:27:37.07	13.83	4.42	
2025-01-10 03:27:37.28	13.80	4.43	
2025-01-10 03:27:37.48	13.78	4.44	
2025-01-10 03:27:37.69	13.76	4.45	
2025-01-10 03:27:37.89	13.74	4.46	
2025-01-10 03:27:38.10	13.71	4.46	
2025-01-10 03:27:38.30	13.69	4.47	
2025-01-10 03:27:38.51	13.67	4.48	
2025-01-10 03:27:38.71	13.65	4.49	
2025-01-10 03:27:38.92	13.62	4.50	
2025-01-10 03:27:39.12	13.60	4.51	
2025-01-10 03:27:39.33	13.58	4.52	
2025-01-10 03:27:39.53	13.55	4.53	
2025-01-10 03:27:39.74	13.53	4.54	
2025-01-10 03:27:39.94	13.51	4.55	
2025-01-10 03:27:40.15	13.49	4.56	
2025-01-10 03:27:40.35	13.46	4.57	
2025-01-10 03:27:40.56	13.44	4.58	
2025-01-10 03:27:40.76	13.42	4.59	
2025-01-10 03:27:40.97	13.39	4.60	
2025-01-10 03:27:41.17	13.37	4.61	
2025-01-10 03:27:41.38	13.35	4.62	
2025-01-10 03:27:41.58	13.33	4.63	
2025-01-10 03:27:41.79	13.30	4.64	
2025-01-10 03:27:41.99	13.28	4.64	
2025-01-10 03:27:42.20	13.26	4.65	
2025-01-10 03:27:42.41	13.23	4.66	
2025-01-10 03:27:42.61	13.21	4.67	
2025-01-10 03:27:42.82	13.19	4.68	
2025-01-10 03:27:43.02	13.16	4.69	
2025-01-10 03:27:43.23	13.14	4.70	
2025-01-10 03:27:43.43	13.12	4.71	
2025-01-10 03:27:43.64	13.09	4.72	
2025-01-10 03:27:43.84	13.07	4.73	
2025-01-10 03:27:44.05	13.05	4.74	
2025-01-10 03:27:44.25	13.03	4.75	
2025-01-10 03:27:44.46	13.00	4.76	
2025-01-10 03:27:44.67	12.98	4.77	
2025-01-10 03:27:44.87	12.96	4.78	
2025-01-10 03:27:45.07	12.93	4.79	
2025-01-10 03:27:45.28	12.91	4.80	
2025-01-10 03:27:45.49	12.89	4.81	
2025-01-10 03:27:45.69	12.86	4.82	
2025-01-10 03:27:45.90	12.84	4.83	
2025-01-10 03:27:46.10	12.82	4.83	
2025-01-10 03:27:46.31	12.79	4.84	
2025-01-10 03:27:46.52	12.77	4.85	
2025-01-10 03:27:46.72	12.75	4.86	
2025-01-10 03:27:46.93	12.72	4.87	
2025-01-10 03:27:47.15	12.70	4.88	
2025-01-10 03:27:47.35	12.67	4.89	
2025-01-10 03:27:47.56	12.65	4.90	
2025-01-10 03:27:47.76	12.63	4.91	
2025-01-10 03:27:47.97	12.60	4.92	
2025-01-10 03:27:48.17	12.58	4.93	
2025-01-10 03:27:48.38	12.56	4.94	
2025-01-10 03:27:48.58	12.53	4.95	
2025-01-10 03:27:48.79	12.51	4.96	
2025-01-10 03:27:49.00	12.49	4.97	
2025-01-10 03:27:49.20	12.46	4.98	
2025-01-10 03:27:49.40	12.44	4.99	
2025-01-10 03:27:49.61	12.42	5.00	
2025-01-10 03:27:49.81	12.39	5.01	
2025-01-10 03:27:50.02	12.37	5.02	
2025-01-10 03:27:50.22	12.35	5.02	
2025-01-10 03:27:50.43	12.32	5.03	
2025-01-10 03:27:50.63	12.30	5.04	
2025-01-10 03:27:50.84	12.27	5.05	
2025-01-10 03:27:51.05	12.25	5.06	
2025-01-10 03:27:51.25	12.23	5.07	
2025-01-10 03:27:51.47	12.20	5.08	
2025-01-10 03:27:51.67	12.18	5.09	
2025-01-10 03:27:51.88	12.15	5.10	
2025-01-10 03:27:52.08	12.13	5.11	
2025-01-10 03:27:52.29	12.11	5.12	
2025-01-10 03:27:52.50	12.08	5.13	
2025-01-10 03:27:52.71	12.06	5.14	
2025-01-10 03:27:52.92	12.03	5.15	
2025-01-10 03:27:53.12	12.01	5.16	
2025-01-10 03:27:53.33	11.99	5.17	
2025-01-10 03:27:53.53	11.96	5.18	
2025-01-10 03:27:53.74	11.94	5.19	
2025-01-10 03:27:53.94	11.91	5.20	
2025-01-10 03:27:54.15	11.89	5.21	
2025-01-10 03:27:54.35	11.87	5.21	
2025-01-10 03:27:54.56	11.84	5.22	
2025-01-10 03:27:54.76	11.82	5.23	
2025-01-10 03:27:54.97	11.79	5.24	
2025-01-10 03:27:55.17	11.77	5.25	
2025-01-10 03:27:55.38	11.75	5.26	
2025-01-10 03:27:55.58	11.72	5.27	
2025-01-10 03:27:55.79	11.70	5.28	
2025-01-10 03:27:56.00	11.67	5.29	
2025-01-10 03:27:56.20	11.65	5.30	
2025-01-10 03:27:56.41	11.63	5.31	
2025-01-10 03:27:56.61	11.60	5.32	
2025-01-10 03:27:56.82	11.58	5.33	
2025-01-10 03:27:57.02	11.55	5.34	
2025-01-10 03:27:57.23	11.53	5.35	
2025-01-10 03:27:57.43	11.51	5.36	
2025-01-10 03:27:57.64	11.48	5.37	
2025-01-10 03:27:57.84	11.46	5.37	
2025-01-10 03:27:58.05	11.43	5.38	
2025-01-10 03:27:58.25	11.41	5.39	
2025-01-10 03:27:58.46	11.38	5.40	
2025-01-10 03:27:58.67	11.36	5.41	
2025-01-10 03:27:58.87	11.34	5.42	
2025-01-10 03:27:59.08	11.31	5.43	
2025-01-10 03:27:59.28	11.29	5.44	
2025-01-10 03:27:59.49	11.26	5.45	
2025-01-10 03:27:59.69	11.24	5.46	
2025-01-10 03:27:59.90	11.21	5.47	
2025-01-10 03:28:00.10	11.19	5.48	
2025-01-10 03:28:00.30	11.17	5.49	
2025-01-10 03:28:00.51	11.14	5.50	
2025-01-10 03:28:00.72	11.12	5.51	
2025-01-10 03:28:00.92	11.09	5.52	
2025-01-10 03:28:01.12	11.07	5.52	
2025-01-10 03:28:01.33	11.04	5.53	
2025-01-10 03:28:01.54	11.02	5.54	
2025-01-10 03:28:01.74	10.99	5.55	
2025-01-10 03:28:01.95	10.97	5.56	
2025-01-10 03:28:02.16	10.94	5.57	
2025-01-10 03:28:02.37	10.92	5.58	
2025-01-10 03:28:02.57	10.89	5.59	
2025-01-10 03:28:02.78	10.87	5.60	
2025-01-10 03:28:02.98	10.85	5.61	
2025-01-10 03:28:03.19	10.82	5.62	
2025-01-10 03:28:03.39	10.80	5.63	
2025-01-10 03:28:03.60	10.77	5.64	
2025-01-10 03:28:03.80	10.75	5.65	
2025-01-10 03:28:04.01	10.72	5.66	
2025-01-10 03:28:04.23	10.70	5.67	
2025-01-10 03:28:04.43	10.67	5.68	
2025-01-10 03:28:04.64	10.65	5.69	
2025-01-10 03:28:04.85	10.62	5.69	
2025-01-10 03:28:05.05	10.60	5.70	
2025-01-10 03:28:05.25	10.57	5.71	
2025-01-10 03:28:05.46	10.55	5.72	
2025-01-10 03:28:05.67	10.52	5.73	
2025-01-10 03:28:05.87	10.50	5.74	
2025-01-10 03:28:06.08	10.47	5.75	
2025-01-10 03:28:06.29	10.45	5.76	
2025-01-10 03:28:06.49	10.42	5.77	
2025-01-10 03:28:06.69	10.40	5.78	
2025-01-10 03:28:06.90	10.37	5.79	
2025-01-10 03:28:07.11	10.35	5.80	
2025-01-10 03:28:07.31	10.32	5.81	
2025-01-10 03:28:07.53	10.30	5.82	
2025-01-10 03:28:07.74	10.27	5.83	
2025-01-10 03:28:07.94	10.25	5.84	
2025-01-10 03:28:08.15	10.22	5.84	
2025-01-10 03:28:08.35	10.20	5.85	
2025-01-10 03:28:08.55	10.17	5.86	
2025-01-10 03:28:08.76	10.15	5.87	
2025-01-10 03:28:08.96	10.12	5.88	
2025-01-10 03:28:09.17	10.10	5.89	
2025-01-10 03:28:09.37	10.07	5.90	
2025-01-10 03:28:09.58	10.05	5.91	
2025-01-10 03:28:09.78	10.02	5.92	
2025-01-10 03:28:09.99	10.00	5.93	
2025-01-10 03:28:10.19	9.97	5.94	
2025-01-10 03:28:10.40	9.94	5.95	
2025-01-10 03:28:10.60	9.92	5.96	
2025-01-10 03:28:10.81	9.89	5.97	
2025-01-10 03:28:11.01	9.87	5.97	
2025-01-10 03:28:11.22	9.84	5.98	
2025-01-10 03:28:11.42	9.82	5.99	
2025-01-10 03:28:11.63	9.79	6.00	
2025-01-10 03:28:11.83	9.77	6.01	
2025-01-10 03:28:12.04	9.74	6.02	
2025-01-10 03:28:12.24	9.72	6.03	
2025-01-10 03:28:12.45	9.69	6.04	
2025-01-10 03:28:12.66	9.67	6.05	
2025-01-10 03:28:12.86	9.64	6.06	
2025-01-10 03:28:13.06	9.62	6.07	
2025-01-10 03:28:13.27	9.59	6.08	
2025-01-10 03:28:13.47	9.57	6.09	
2025-01-10 03:28:13.68	9.54	6.09	
2025-01-10 03:28:13.88	9.51	6.10	
2025-01-10 03:28:14.09	9.49	6.11	
2025-01-10 03:28:14.29	9.46	6.12	
2025-01-10 03:28:14.50	9.44	6.13	
2025-01-10 03:28:14.70	9.41	6.14	
2025-01-10 03:28:14.91	9.39	6.15	
2025-01-10 03:28:15.11	9.36	6.16	
2025-01-10 03:28:15.32	9.34	6.17	
2025-01-10 03:28:15.52	9.31	6.18	
2025-01-10 03:28:15.73	9.28	6.19	
2025-01-10 03:28:15.93	9.26	6.20	
2025-01-10 03:28:16.13	9.23	6.21	
2025-01-10 03:28:16.34	9.21	6.21	
2025-01-10 03:28:16.54	9.18	6.22	
2025-01-10 03:28:16.75	9.16	6.23	
2025-01-10 03:28:16.95	9.13	6.24	
2025-01-10 03:28:17.16	9.11	6.25	
2025-01-10 03:28:17.36	9.08	6.26	
2025-01-10 03:28:17.57	9.05	6.27	
2025-01-10 03:28:17.77	9.03	6.28	
2025-01-10 03:28:17.98	9.00	6.29	
2025-01-10 03:28:18.18	8.98	6.30	
2025-01-10 03:28:18.39	8.95	6.31	
2025-01-10 03:28:18.59	8.93	6.32	
2025-01-10 03:28:18.80	8.90	6.33	
2025-01-10 03:28:19.01	8.87	6.33	
2025-01-10 03:28:19.21	8.85	6.34	
2025-01-10 03:28:19.41	8.82	6.35	
2025-01-10 03:28:19.62	8.80	6.36	
2025-01-10 03:28:19.83	8.77	6.37	
2025-01-10 03:28:20.03	8.74	6.38	
2025-01-10 03:28:20.23	8.72	6.39	
2025-01-10 03:28:20.44	8.69	6.40	
2025-01-10 03:28:20.65	8.66	6.41	
2025-01-10 03:28:20.85	8.64	6.42	
2025-01-10 03:28:21.06	8.61	6.43	
2025-01-10 03:28:21.26	8.59	6.44	
2025-01-10 03:28:21.47	8.56	6.45	
2025-01-10 03:28:21.67	8.53	6.45	
2025-01-10 03:28:21.88	8.51	6.46	
2025-01-10 03:28:22.08	8.48	6.47	
2025-01-10 03:28:22.29	8.46	6.48	
2025-01-10 03:28:22.49	8.43	6.49	
2025-01-10 03:28:22.70	8.40	6.50	
2025-01-10 03:28:22.90	8.38	6.51	
2025-01-10 03:28:23.11	8.35	6.52	
2025-01-10 03:28:23.32	8.32	6.53	
2025-01-10 03:28:23.52	8.30	6.54	
2025-01-10 03:28:23.72	8.27	6.55	
2025-01-10 03:28:23.93	8.25	6.55	
2025-01-10 03:28:24.13	8.22	6.56	
2025-01-10 03:28:24.34	8.19	6.57	
2025-01-10 03:28:24.54	8.17	6.58	
2025-01-10 03:28:24.74	8.14	6.59	
2025-01-10 03:28:24.95	8.12	6.60	
2025-01-10 03:28:25.16	8.09	6.61	
2025-01-10 03:28:25.36	8.06	6.62	
2025-01-10 03:28:25.57	8.04	6.63	
2025-01-10 03:28:25.77	8.01	6.64	
2025-01-10 03:28:25.98	7.98	6.65	
2025-01-10 03:28:26.18	7.96	6.66	
2025-01-10 03:28:26.39	7.93	6.66	
2025-01-10 03:28:26.59	7.90	6.67	
2025-01-10 03:28:26.80	7.88	6.68	
2025-01-10 03:28:27.00	7.85	6.69	
2025-01-10 03:28:27.21	7.82	6.70	
2025-01-10 03:28:27.41	7.80	6.71	
2025-01-10 03:28:27.62	7.77	6.72	
2025-01-10 03:28:27.84	7.74	6.73	
2025-01-10 03:28:28.04	7.72	6.74	
2025-01-10 03:28:28.25	7.69	6.75	
2025-01-10 03:28:28.45	7.66	6.76	
2025-01-10 03:28:28.66	7.63	6.77	
2025-01-10 03:28:28.88	7.61	6.77	
2025-01-10 03:28:29.08	7.58	6.78	
2025-01-10 03:28:29.29	7.55	6.79	
2025-01-10 03:28:29.49	7.53	6.80	
2025-01-10 03:28:29.70	7.50	6.81	
2025-01-10 03:28:29.91	7.47	6.82	
2025-01-10 03:28:30.12	7.44	6.83	
2025-01-10 03:28:30.32	7.42	6.84	
2025-01-10 03:28:30.53	7.39	6.85	
2025-01-10 03:28:30.73	7.36	6.86	
2025-01-10 03:28:30.94	7.34	6.87	
2025-01-10 03:28:31.14	7.31	6.87	
2025-01-10 03:28:31.35	7.28	6.88	
2025-01-10 03:28:31.55	7.26	6.89	
2025-01-10 03:28:31.76	7.23	6.90	
2025-01-10 03:28:31.97	7.20	6.91	
2025-01-10 03:28:32.17	7.18	6.92	
2025-01-10 03:28:32.37	7.15	6.93	
2025-01-10 03:28:32.58	7.12	6.94	
2025-01-10 03:28:32.78	7.10	6.95	
2025-01-10 03:28:32.99	7.07	6.96	
2025-01-10 03:28:33.19	7.04	6.97	
2025-01-10 03:28:33.40	7.01	6.97	
2025-01-10 03:28:33.60	6.99	6.98	
2025-01-10 03:28:33.81	6.96	6.99	
2025-01-10 03:28:34.01	6.93	7.00	
2025-01-10 03:28:34.22	6.91	7.01	
2025-01-10 03:28:34.42	6.88	7.02	
2025-01-10 03:28:34.63	6.85	7.03	
2025-01-10 03:28:34.83	6.82	7.04	
2025-01-10 03:28:35.04	6.80	7.05	
2025-01-10 03:28:35.24	6.77	7.06	
2025-01-10 03:28:35.45	6.74	7.06	
2025-01-10 03:28:35.65	6.72	7.07	
2025-01-10 03:28:35.86	6.69	7.08	
2025-01-10 03:28:36.06	6.66	7.09	
2025-01-10 03:28:36.27	6.63	7.10	
2025-01-10 03:28:36.47	6.61	7.11	
2025-01-10 03:28:36.68	6.58	7.12	
2025-01-10 03:28:36.88	6.55	7.13	
2025-01-10 03:28:37.09	6.52	7.14	
2025-01-10 03:28:37.29	6.50	7.15	
2025-01-10 03:28:37.50	6.47	7.15	
2025-01-10 03:28:37.70	6.44	7.16	
2025-01-10 03:28:37.91	6.41	7.17	
2025-01-10 03:28:38.11	6.39	7.18	
2025-01-10 03:28:38.32	6.36	7.19	
2025-01-10 03:28:38.54	6.33	7.20	
2025-01-10 03:28:38.74	6.30	7.21	
2025-01-10 03:28:38.95	6.27	7.22	
2025-01-10 03:28:39.16	6.25	7.23	
2025-01-10 03:28:39.36	6.22	7.24	
2025-01-10 03:28:39.57	6.19	7.24	
2025-01-10 03:28:39.77	6.16	7.25	
2025-01-10 03:28:39.98	6.14	7.26	
2025-01-10 03:28:40.18	6.11	7.27	
2025-01-10 03:28:40.39	6.08	7.28	
2025-01-10 03:28:40.60	6.05	7.29	
2025-01-10 03:28:40.80	6.02	7.30	
2025-01-10 03:28:41.01	6.00	7.31	
2025-01-10 03:28:41.21	5.97	7.32	
2025-01-10 03:28:41.42	5.94	7.32	
2025-01-10 03:28:41.62	5.91	7.33	
2025-01-10 03:28:41.83	5.89	7.34	
2025-01-10 03:28:42.04	5.86	7.35	
2025-01-10 03:28:42.25	5.83	7.36	
2025-01-10 03:28:42.46	5.80	7.37	
2025-01-10 03:28:42.66	5.77	7.38	
2025-01-10 03:28:42.86	5.75	7.39	
2025-01-10 03:28:43.07	5.72	7.40	
2025-01-10 03:28:43.27	5.69	7.41	
2025-01-10 03:28:43.48	5.66	7.41	
2025-01-10 03:28:43.68	5.63	7.42	
2025-01-10 03:28:43.88	5.61	7.43	
2025-01-10 03:28:44.09	5.58	7.44	
2025-01-10 03:28:44.30	5.55	7.45	
2025-01-10 03:28:44.50	5.52	7.46	
2025-01-10 03:28:44.70	5.49	7.47	
2025-01-10 03:28:44.91	5.47	7.48	
2025-01-10 03:28:45.11	5.44	7.48	
2025-01-10 03:28:45.32	5.41	7.49	
2025-01-10 03:28:45.53	5.38	7.50	
2025-01-10 03:28:45.73	5.35	7.51	
2025-01-10 03:28:45.94	5.32	7.52	
2025-01-10 03:28:46.14	5.30	7.53	
2025-01-10 03:28:46.35	5.27	7.54	
2025-01-10 03:28:46.55	5.24	7.55	
2025-01-10 03:28:46.76	5.21	7.56	
2025-01-10 03:28:46.98	5.18	7.57	
2025-01-10 03:28:47.18	5.15	7.57	
2025-01-10 03:28:47.39	5.13	7.58	
2025-01-10 03:28:47.59	5.10	7.59	
2025-01-10 03:28:47.80	5.07	7.60	
2025-01-10 03:28:48.00	5.04	7.61	
2025-01-10 03:28:48.21	5.01	7.62	
2025-01-10 03:28:48.41	4.98	7.63	
2025-01-10 03:28:48.62	4.96	7.64	
2025-01-10 03:28:48.83	4.93	7.64	
2025-01-10 03:28:49.03	4.90	7.65	
2025-01-10 03:28:49.23	4.87	7.66	
2025-01-10 03:28:49.44	4.84	7.67	
2025-01-10 03:28:49.65	4.81	7.68	
2025-01-10 03:28:49.85	4.78	7.69	
2025-01-10 03:28:50.06	4.76	7.70	
2025-01-10 03:28:50.26	4.73	7.71	
2025-01-10 03:28:50.47	4.70	7.71	
2025-01-10 03:28:50.67	4.67	7.72	
2025-01-10 03:28:50.88	4.64	7.73	
2025-01-10 03:28:51.08	4.61	7.74	
2025-01-10 03:28:51.30	4.58	7.75	
2025-01-10 03:28:51.50	4.56	7.76	
2025-01-10 03:28:51.71	4.53	7.77	
2025-01-10 03:28:51.92	4.50	7.78	
2025-01-10 03:28:52.12	4.47	7.78	
2025-01-10 03:28:52.33	4.44	7.79	
2025-01-10 03:28:52.53	4.41	7.80	
2025-01-10 03:28:52.74	4.38	7.81	
2025-01-10 03:28:52.95	4.35	7.82	
2025-01-10 03:28:53.15	4.32	7.83	
2025-01-10 03:28:53.35	4.30	7.84	
2025-01-10 03:28:53.56	4.27	7.85	
2025-01-10 03:28:53.77	4.24	7.85	
2025-01-10 03:28:53.97	4.21	7.86	
2025-01-10 03:28:54.18	4.18	7.87	
2025-01-10 03:28:54.38	4.15	7.88	
2025-01-10 03:28:54.59	4.12	7.89	
2025-01-10 03:28:54.79	4.09	7.90	
2025-01-10 03:28:55.00	4.06	7.91	
2025-01-10 03:28:55.21	4.03	7.92	
2025-01-10 03:28:55.41	4.01	7.92	
2025-01-10 03:28:55.61	3.98	7.93	
2025-01-10 03:28:55.82	3.95	7.94	
2025-01-10 03:28:56.03	3.92	7.95	
2025-01-10 03:28:56.23	3.89	7.96	
2025-01-10 03:28:56.44	3.86	7.97	
2025-01-10 03:28:56.64	3.83	7.98	
2025-01-10 03:28:56.85	3.80	7.98	
2025-01-10 03:28:57.05	3.77	7.99	
2025-01-10 03:28:57.26	3.74	8.00	
2025-01-10 03:28:57.46	3.72	8.01	
2025-01-10 03:28:57.67	3.69	8.02	
2025-01-10 03:28:57.88	3.66	8.03	
2025-01-10 03:28:58.08	3.63	8.04	
2025-01-10 03:28:58.29	3.60	8.05	
2025-01-10 03:28:58.49	3.57	8.05	
2025-01-10 03:28:58.71	3.54	8.06	
2025-01-10 03:28:58.92	3.51	8.07	
2025-01-10 03:28:59.12	3.48	8.08	
2025-01-10 03:28:59.33	3.45	8.09	
2025-01-10 03:28:59.53	3.42	8.10	
2025-01-10 03:28:59.74	3.39	8.11	
2025-01-10 03:28:59.94	3.36	8.11	
2025-01-10 03:29:00.15	3.33	8.12	
2025-01-10 03:29:00.35	3.30	8.13	
2025-01-10 03:29:00.56	3.27	8.14	
2025-01-10 03:29:00.76	3.24	8.15	
2025-01-10 03:29:00.97	3.21	8.16	
2025-01-10 03:29:01.17	3.19	8.17	
2025-01-10 03:29:01.38	3.16	8.17	
2025-01-10 03:29:01.58	3.13	8.18	
2025-01-10 03:29:01.79	3.10	8.19	
2025-01-10 03:29:01.99	3.07	8.20	
2025-01-10 03:29:02.19	3.04	8.21	
2025-01-10 03:29:02.40	3.01	8.22	
2025-01-10 03:29:02.61	2.98	8.23	
2025-01-10 03:29:02.81	2.95	8.23	
2025-01-10 03:29:03.01	2.92	8.24	
2025-01-10 03:29:03.22	2.89	8.25	
2025-01-10 03:29:03.42	2.86	8.26	
2025-01-10 03:29:03.63	2.83	8.27	
2025-01-10 03:29:03.83	2.80	8.28	
2025-01-10 03:29:04.04	2.77	8.28	
2025-01-10 03:29:04.24	2.74	8.29	
2025-01-10 03:29:04.45	2.71	8.30	
2025-01-10 03:29:04.67	2.68	8.31	
2025-01-10 03:29:04.87	2.65	8.32	
2025-01-10 03:29:05.08	2.62	8.33	
2025-01-10 03:29:05.28	2.59	8.34	
2025-01-10 03:29:05.49	2.56	8.34	
2025-01-10 03:29:05.69	2.53	8.35	
2025-01-10 03:29:05.90	2.50	8.36	
2025-01-10 03:29:06.12	2.47	8.37	
2025-01-10 03:29:06.32	2.44	8.38	
2025-01-10 03:29:06.53	2.41	8.39	
2025-01-10 03:29:06.73	2.38	8.40	
2025-01-10 03:29:06.94	2.35	8.40	
2025-01-10 03:29:07.14	2.32	8.41	
2025-01-10 03:29:07.34	2.29	8.42	
2025-01-10 03:29:07.55	2.26	8.43	
2025-01-10 03:29:07.75	2.23	8.44	
2025-01-10 03:29:07.96	2.20	8.45	
2025-01-10 03:29:08.16	2.17	8.45	
2025-01-10 03:29:08.37	2.14	8.46	
2025-01-10 03:29:08.57	2.11	8.47	
2025-01-10 03:29:08.78	2.08	8.48	
2025-01-10 03:29:08.99	2.05	8.49	
2025-01-10 03:29:09.19	2.02	8.50	
2025-01-10 03:29:09.40	1.99	8.50	
2025-01-10 03:29:09.60	1.96	8.51	
2025-01-10 03:29:09.81	1.93	8.52	
2025-01-10 03:29:10.01	1.90	8.53	
2025-01-10 03:29:10.22	1.87	8.54	
2025-01-10 03:29:10.42	1.84	8.55	
2025-01-10 03:29:10.62	1.81	8.55	
2025-01-10 03:29:10.83	1.78	8.56	
2025-01-10 03:29:11.03	1.75	8.57	
2025-01-10 03:29:11.24	1.72	8.58	
2025-01-10 03:29:11.44	1.69	8.59	
2025-01-10 03:29:11.65	1.66	8.60	
2025-01-10 03:29:11.85	1.63	8.60	
2025-01-10 03:29:12.06	1.60	8.61	
2025-01-10 03:29:12.26	1.57	8.62	
2025-01-10 03:29:12.47	1.54	8.63	
2025-01-10 03:29:12.67	1.51	8.64	
2025-01-10 03:29:12.88	1.48	8.65	
2025-01-10 03:29:13.08	1.45	8.65	
2025-01-10 03:29:13.29	1.41	8.66	
2025-01-10 03:29:13.49	1.38	8.67	
2025-01-10 03:29:13.71	1.35	8.68	
2025-01-10 03:29:13.92	1.32	8.69	
2025-01-10 03:29:14.12	1.29	8.70	
2025-01-10 03:29:14.33	1.26	8.70	
2025-01-10 03:29:14.53	1.23	8.71	
2025-01-10 03:29:14.75	1.20	8.72	
2025-01-10 03:29:14.96	1.17	8.73	
2025-01-10 03:29:15.16	1.14	8.74	
2025-01-10 03:29:15.37	1.10	8.75	
2025-01-10 03:29:15.57	1.07	8.75	
2025-01-10 03:29:15.78	1.04	8.76	
2025-01-10 03:29:15.98	1.01	8.77	
2025-01-10 03:29:16.19	0.98	8.78	
2025-01-10 03:29:16.39	0.95	8.79	
2025-01-10 03:29:16.60	0.92	8.79	
2025-01-10 03:29:16.82	0.89	8.80	
2025-01-10 03:29:17.02	0.86	8.81	
2025-01-10 03:29:17.23	0.82	8.82	
2025-01-10 03:29:17.43	0.79	8.83	
2025-01-10 03:29:17.64	0.76	8.84	
2025-01-10 03:29:17.84	0.73	8.84	
2025-01-10 03:29:18.05	0.70	8.85	
2025-01-10 03:29:18.25	0.67	8.86	
2025-01-10 03:29:18.46	0.64	8.87	
2025-01-10 03:29:18.66	0.61	8.88	
2025-01-10 03:29:18.87	0.58	8.88	
2025-01-10 03:29:19.07	0.55	8.89	
2025-01-10 03:29:19.28	0.52	8.90	
2025-01-10 03:29:19.48	0.49	8.91	
2025-01-10 03:29:19.69	0.45	8.92	
2025-01-10 03:29:19.89	0.42	8.93	
2025-01-10 03:29:20.11	0.39	8.93	
2025-01-10 03:29:20.32	0.36	8.94	
2025-01-10 03:29:20.52	0.33	8.95	
2025-01-10 03:29:20.73	0.30	8.96	
2025-01-10 03:29:20.93	0.27	8.97	
2025-01-10 03:29:21.13	0.24	8.97	
2025-01-10 03:29:21.34	0.20	8.98	
2025-01-10 03:29:21.54	0.17	8.99	
2025-01-10 03:29:21.75	0.14	9.00	
2025-01-10 03:29:21.95	0.11	9.01	
2025-01-10 03:29:22.16	0.08	9.01	
2025-01-10 03:29:22.36	0.05	9.02	
2025-01-10 03:29:22.57	0.02	9.03	
2025-01-10 03:29:22.78	359.98	9.04	
2025-01-10 03:29:22.98	359.95	9.05	
2025-01-10 03:29:23.19	359.92	9.05	
2025-01-10 03:29:23.39	359.89	9.06	
2025-01-10 03:29:23.60	359.86	9.07	
2025-01-10 03:29:23.80	359.83	9.08	
2025-01-10 03:29:24.01	359.80	9.09	
2025-01-10 03:29:24.21	359.77	9.09	
2025-01-10 03:29:24.41	359.73	9.10	
2025-01-10 03:29:24.62	359.70	9.11	
2025-01-10 03:29:24.82	359.67	9.12	
2025-01-10 03:29:25.03	359.64	9.13	
2025-01-10 03:29:25.23	359.61	9.13	
2025-01-10 03:29:25.44	359.58	9.14	
2025-01-10 03:29:25.64	359.55	9.15	
2025-01-10 03:29:25.85	359.51	9.16	
2025-01-10 03:29:26.05	359.48	9.17	
2025-01-10 03:29:26.26	359.45	9.17	
2025-01-10 03:29:26.47	359.42	9.18	
2025-01-10 03:29:26.67	359.39	9.19	
2025-01-10 03:29:26.88	359.35	9.20	
2025-01-10 03:29:27.08	359.32	9.21	
2025-01-10 03:29:27.29	359.29	9.21	
2025-01-10 03:29:27.49	359.26	9.22	
2025-01-10 03:29:27.69	359.23	9.23	
2025-01-10 03:29:27.90	359.20	9.24	
2025-01-10 03:29:28.11	359.16	9.25	
2025-01-10 03:29:28.31	359.13	9.25	
2025-01-10 03:29:28.51	359.10	9.26	
2025-01-10 03:29:28.72	359.07	9.27	
2025-01-10 03:29:28.92	359.04	9.28	
2025-01-10 03:29:29.13	359.01	9.28	
2025-01-10 03:29:29.34	358.97	9.29	
2025-01-10 03:29:29.54	358.94	9.30	
2025-01-10 03:29:29.75	358.91	9.31	
2025-01-10 03:29:29.95	358.88	9.32	
2025-01-10 03:29:30.15	358.85	9.32	
2025-01-10 03:29:30.36	358.81	9.33	
2025-01-10 03:29:30.56	358.78	9.34	
2025-01-10 03:29:30.77	358.75	9.35	
2025-01-10 03:29:30.97	358.72	9.35	
2025-01-10 03:29:31.18	358.69	9.36	
2025-01-10 03:29:31.39	358.65	9.37	
2025-01-10 03:29:31.59	358.62	9.38	
2025-01-10 03:29:31.79	358.59	9.39	
2025-01-10 03:29:32.00	358.56	9.39	
2025-01-10 03:29:32.20	358.53	9.40	
2025-01-10 03:29:32.41	358.49	9.41	
2025-01-10 03:29:32.62	358.46	9.42	
2025-01-10 03:29:32.82	358.43	9.42	
2025-01-10 03:29:33.02	358.40	9.43	
2025-01-10 03:29:33.23	358.37	9.44	
2025-01-10 03:29:33.44	358.33	9.45	
2025-01-10 03:29:33.64	358.30	9.45	
2025-01-10 03:29:33.85	358.27	9.46	
2025-01-10 03:29:34.07	358.23	9.47	
2025-01-10 03:29:34.27	358.20	9.48	
2025-01-10 03:29:34.47	358.17	9.49	
2025-01-10 03:29:34.68	358.14	9.49	
2025-01-10 03:29:34.88	358.11	9.50	
2025-01-10 03:29:35.09	358.07	9.51	
2025-01-10 03:29:35.29	358.04	9.52	
2025-01-10 03:29:35.50	358.01	9.52	
2025-01-10 03:29:35.70	357.98	9.53	
2025-01-10 03:29:35.91	357.94	9.54	
2025-01-10 03:29:36.11	357.91	9.55	
2025-01-10 03:29:36.32	357.88	9.55	
2025-01-10 03:29:36.52	357.85	9.56	
2025-01-10 03:29:36.73	357.81	9.57	
2025-01-10 03:29:36.93	357.78	9.58	
2025-01-10 03:29:37.14	357.75	9.59	
2025-01-10 03:29:37.34	357.72	9.59	
2025-01-10 03:29:37.55	357.68	9.60	
2025-01-10 03:29:37.75	357.65	9.61	
2025-01-10 03:29:37.96	357.62	9.62	
2025-01-10 03:29:38.16	357.59	9.62	
2025-01-10 03:29:38.37	357.55	9.63	
2025-01-10 03:29:38.57	357.52	9.64	
2025-01-10 03:29:38.78	357.49	9.65	
2025-01-10 03:29:38.98	357.46	9.65	
2025-01-10 03:29:39.19	357.42	9.66	
2025-01-10 03:29:39.39	357.39	9.67	
2025-01-10 03:29:39.60	357.36	9.68	
2025-01-10 03:29:39.80	357.32	9.68	
2025-01-10 03:29:40.01	357.29	9.69	
2025-01-10 03:29:40.21	357.26	9.70	
2025-01-10 03:29:40.42	357.23	9.71	
2025-01-10 03:29:40.62	357.19	9.71	
2025-01-10 03:29:40.83	357.16	9.72	
2025-01-10 03:29:41.03	357.13	9.73	
2025-01-10 03:29:41.24	357.09	9.74	
2025-01-10 03:29:41.44	357.06	9.74	
2025-01-10 03:29:41.65	357.03	9.75	
2025-01-10 03:29:41.85	357.00	9.76	
2025-01-10 03:29:42.06	356.96	9.77	
2025-01-10 03:29:42.27	356.93	9.77	
2025-01-10 03:29:42.47	356.90	9.78	
2025-01-10 03:29:42.68	356.86	9.79	
2025-01-10 03:29:42.88	356.83	9.80	
2025-01-10 03:29:43.09	356.80	9.80	
2025-01-10 03:29:43.29	356.76	9.81	
2025-01-10 03:29:43.50	356.73	9.82	
2025-01-10 03:29:43.70	356.70	9.82	
2025-01-10 03:29:43.91	356.66	9.83	
2025-01-10 03:29:44.11	356.63	9.84	
2025-01-10 03:29:44.32	356.60	9.85	
2025-01-10 03:29:44.52	356.57	9.85	
2025-01-10 03:29:44.73	356.53	9.86	
2025-01-10 03:29:44.93	356.50	9.87	
2025-01-10 03:29:45.14	356.47	9.88	
2025-01-10 03:29:45.35	356.43	9.88	
2025-01-10 03:29:45.55	356.40	9.89	
2025-01-10 03:29:45.76	356.37	9.90	
2025-01-10 03:29:45.96	356.33	9.91	
2025-01-10 03:29:46.17	356.30	9.91	
2025-01-10 03:29:46.37	356.27	9.92	
2025-01-10 03:29:46.58	356.23	9.93	
2025-01-10 03:29:46.78	356.20	9.93	
2025-01-10 03:29:46.99	356.17	9.94	
2025-01-10 03:29:47.19	356.13	9.95	
2025-01-10 03:29:47.40	356.10	9.96	
2025-01-10 03:29:47.60	356.07	9.96	
2025-01-10 03:29:47.81	356.03	9.97	
2025-01-10 03:29:48.01	356.00	9.98	
2025-01-10 03:29:48.22	355.97	9.99	
2025-01-10 03:29:48.43	355.93	9.99	
2025-01-10 03:29:48.64	355.90	10.00	
2025-01-10 03:29:48.84	355.86	10.01	
2025-01-10 03:29:49.05	355.83	10.01	
2025-01-10 03:29:49.25	355.80	10.02	
2025-01-10 03:29:49.46	355.76	10.03	
2025-01-10 03:29:49.66	355.73	10.04	
2025-01-10 03:29:49.87	355.70	10.04	
2025-01-10 03:29:50.07	355.66	10.05	
2025-01-10 03:29:50.28	355.63	10.06	
2025-01-10 03:29:50.49	355.59	10.06	
2025-01-10 03:29:50.69	355.56	10.07	
2025-01-10 03:29:50.90	355.53	10.08	
2025-01-10 03:29:51.10	355.49	10.09	
2025-01-10 03:29:51.31	355.46	10.09	
2025-01-10 03:29:51.51	355.43	10.10	
2025-01-10 03:29:51.72	355.39	10.11	
2025-01-10 03:29:51.94	355.36	10.12	
2025-01-10 03:29:52.14	355.32	10.12	
2025-01-10 03:29:52.35	355.29	10.13	
2025-01-10 03:29:52.55	355.26	10.14	
2025-01-10 03:29:52.76	355.22	10.14	
2025-01-10 03:29:52.96	355.19	10.15	
2025-01-10 03:29:53.17	355.15	10.16	
2025-01-10 03:29:53.37	355.12	10.16	
2025-01-10 03:29:53.58	355.09	10.17	
2025-01-10 03:29:53.78	355.05	10.18	
2025-01-10 03:29:53.99	355.02	10.19	
2025-01-10 03:29:54.19	354.98	10.19	
2025-01-10 03:29:54.39	354.95	10.20	
2025-01-10 03:29:54.60	354.92	10.21	
2025-01-10 03:29:54.80	354.88	10.21	
2025-01-10 03:29:55.01	354.85	10.22	
2025-01-10 03:29:55.21	354.82	10.23	
2025-01-10 03:29:55.42	354.78	10.23	
2025-01-10 03:29:55.62	354.75	10.24	
2025-01-10 03:29:55.83	354.71	10.25	
2025-01-10 03:29:56.03	354.68	10.25	
2025-01-10 03:29:56.24	354.64	10.26	
2025-01-10 03:29:56.44	354.61	10.27	
2025-01-10 03:29:56.65	354.58	10.28	
2025-01-10 03:29:56.85	354.54	10.28	
2025-01-10 03:29:57.06	354.51	10.29	
2025-01-10 03:29:57.27	354.47	10.30	
2025-01-10 03:29:57.47	354.44	10.30	
2025-01-10 03:29:57.67	354.41	10.31	
2025-01-10 03:29:57.88	354.37	10.32	
2025-01-10 03:29:58.08	354.34	10.32	
2025-01-10 03:29:58.29	354.30	10.33	
2025-01-10 03:29:58.51	354.27	10.34	
2025-01-10 03:29:58.71	354.23	10.34	
2025-01-10 03:29:58.92	354.20	10.35	
2025-01-10 03:29:59.12	354.16	10.36	
2025-01-10 03:29:59.33	354.13	10.37	
2025-01-10 03:29:59.53	354.09	10.37	
2025-01-10 03:29:59.74	354.06	10.38	
2025-01-10 03:29:59.94	354.03	10.39	
2025-01-10 03:30:00.16	353.99	10.39	
2025-01-10 03:30:00.37	353.95	10.40	
2025-01-10 03:30:00.57	353.92	10.41	
2025-01-10 03:30:00.78	353.88	10.41	
2025-01-10 03:30:00.98	353.85	10.42	
2025-01-10 03:30:01.19	353.82	10.43	
2025-01-10 03:30:01.39	353.78	10.43	
2025-01-10 03:30:01.60	353.75	10.44	
2025-01-10 03:30:01.80	353.71	10.45	
2025-01-10 03:30:02.00	353.68	10.45	
2025-01-10 03:30:02.21	353.64	10.46	
2025-01-10 03:30:02.42	353.61	10.47	
2025-01-10 03:30:02.62	353.57	10.47	
2025-01-10 03:30:02.84	353.54	10.48	
2025-01-10 03:30:03.04	353.50	10.49	
2025-01-10 03:30:03.25	353.47	10.49	
2025-01-10 03:30:03.46	353.43	10.50	
2025-01-10 03:30:03.66	353.40	10.51	
2025-01-10 03:30:03.87	353.36	10.51	
2025-01-10 03:30:04.07	353.33	10.52	
2025-01-10 03:30:04.28	353.29	10.53	
2025-01-10 03:30:04.48	353.26	10.53	
2025-01-10 03:30:04.69	353.22	10.54	
2025-01-10 03:30:04.89	353.19	10.55	
2025-01-10 03:30:05.10	353.16	10.55	
2025-01-10 03:30:05.31	353.12	10.56	
2025-01-10 03:30:05.51	353.09	10.57	
2025-01-10 03:30:05.71	353.05	10.57	
2025-01-10 03:30:05.92	353.02	10.58	
2025-01-10 03:30:06.12	352.98	10.59	
2025-01-10 03:30:06.33	352.95	10.59	
2025-01-10 03:30:06.53	352.91	10.60	
2025-01-10 03:30:06.74	352.88	10.61	
2025-01-10 03:30:06.94	352.84	10.61	
2025-01-10 03:30:07.15	352.81	10.62	
2025-01-10 03:30:07.35	352.77	10.62	
2025-01-10 03:30:07.56	352.74	10.63	
2025-01-10 03:30:07.76	352.70	10.64	
2025-01-10 03:30:07.97	352.67	10.64	
2025-01-10 03:30:08.19	352.63	10.65	
2025-01-10 03:30:08.39	352.59	10.66	
2025-01-10 03:30:08.60	352.56	10.66	
2025-01-10 03:30:08.80	352.52	10.67	
2025-01-10 03:30:09.01	352.49	10.68	
2025-01-10 03:30:09.21	352.45	10.68	
2025-01-10 03:30:09.42	352.42	10.69	
2025-01-10 03:30:09.62	352.38	10.70	
2025-01-10 03:30:09.83	352.35	10.70	
2025-01-10 03:30:10.03	352.31	10.71	
2025-01-10 03:30:10.24	352.28	10.71	
2025-01-10 03:30:10.44	352.24	10.72	
2025-01-10 03:30:10.65	352.21	10.73	
2025-01-10 03:30:10.85	352.17	10.73	
2025-01-10 03:30:11.06	352.14	10.74	
2025-01-10 03:30:11.26	352.10	10.75	
2025-01-10 03:30:11.47	352.07	10.75	
2025-01-10 03:30:11.67	352.03	10.76	
2025-01-10 03:30:11.88	352.00	10.77	
2025-01-10 03:30:12.08	351.96	10.77	
2025-01-10 03:30:12.29	351.93	10.78	
2025-01-10 03:30:12.49	351.89	10.78	
2025-01-10 03:30:12.70	351.85	10.79	
2025-01-10 03:30:12.90	351.82	10.80	
2025-01-10 03:30:13.11	351.78	10.80	
2025-01-10 03:30:13.31	351.75	10.81	
2025-01-10 03:30:13.53	351.71	10.82	
2025-01-10 03:30:13.73	351.68	10.82	
2025-01-10 03:30:13.94	351.64	10.83	
2025-01-10 03:30:14.14	351.61	10.83	
2025-01-10 03:30:14.35	351.57	10.84	
2025-01-10 03:30:14.57	351.53	10.85	
2025-01-10 03:30:14.77	351.50	10.85	
2025-01-10 03:30:14.98	351.46	10.86	
2025-01-10 03:30:15.19	351.42	10.87	
2025-01-10 03:30:15.39	351.39	10.87	
2025-01-10 03:30:15.60	351.35	10.88	
2025-01-10 03:30:15.80	351.32	10.88	
2025-01-10 03:30:16.01	351.28	10.89	
2025-01-10 03:30:16.21	351.25	10.90	
2025-01-10 03:30:16.41	351.21	10.90	
2025-01-10 03:30:16.62	351.18	10.91	
2025-01-10 03:30:16.82	351.14	10.91	
2025-01-10 03:30:17.03	351.10	10.92	
2025-01-10 03:30:17.23	351.07	10.93	
2025-01-10 03:30:17.44	351.03	10.93	
2025-01-10 03:30:17.64	351.00	10.94	
2025-01-10 03:30:17.85	350.96	10.94	
2025-01-10 03:30:18.05	350.93	10.95	
2025-01-10 03:30:18.26	350.89	10.96	
2025-01-10 03:30:18.46	350.85	10.96	
2025-01-10 03:30:18.67	350.82	10.97	
2025-01-10 03:30:18.88	350.78	10.97	
2025-01-10 03:30:19.08	350.75	10.98	
2025-01-10 03:30:19.29	350.71	10.99	
2025-01-10 03:30:19.49	350.67	10.99	
2025-01-10 03:30:19.70	350.64	11.00	
2025-01-10 03:30:19.90	350.60	11.00	
2025-01-10 03:30:20.10	350.57	11.01	
2025-01-10 03:30:20.31	350.53	11.02	
2025-01-10 03:30:20.51	350.50	11.02	
2025-01-10 03:30:20.72	350.46	11.03	
2025-01-10 03:30:20.92	350.42	11.03	
2025-01-10 03:30:21.13	350.39	11.04	
2025-01-10 03:30:21.33	350.35	11.04	
2025-01-10 03:30:21.54	350.31	11.05	
2025-01-10 03:30:21.74	350.28	11.06	
2025-01-10 03:30:21.95	350.24	11.06	
2025-01-10 03:30:22.17	350.20	11.07	
2025-01-10 03:30:22.37	350.17	11.07	
2025-01-10 03:30:22.57	350.13	11.08	
2025-01-10 03:30:22.78	350.10	11.09	
2025-01-10 03:30:22.99	350.06	11.09	
2025-01-10 03:30:23.20	350.02	11.10	
2025-01-10 03:30:23.41	349.99	11.10	
2025-01-10 03:30:23.62	349.95	11.11	
2025-01-10 03:30:23.82	349.91	11.12	
2025-01-10 03:30:24.03	349.88	11.12	
2025-01-10 03:30:24.23	349.84	11.13	
2025-01-10 03:30:24.44	349.80	11.13	
2025-01-10 03:30:24.64	349.77	11.14	
2025-01-10 03:30:24.85	349.73	11.14	
2025-01-10 03:30:25.05	349.70	11.15	
2025-01-10 03:30:25.26	349.66	11.16	
2025-01-10 03:30:25.46	349.62	11.16	
2025-01-10 03:30:25.67	349.59	11.17	
2025-01-10 03:30:25.87	349.55	11.17	
2025-01-10 03:30:26.08	349.51	11.18	
2025-01-10 03:30:26.28	349.48	11.18	
2025-01-10 03:30:26.49	349.44	11.19	
2025-01-10 03:30:26.69	349.41	11.19	
2025-01-10 03:30:26.90	349.37	11.20	
2025-01-10 03:30:27.10	349.33	11.21	
2025-01-10 03:30:27.30	349.30	11.21	
2025-01-10 03:30:27.51	349.26	11.22	
2025-01-10 03:30:27.71	349.22	11.22	
2025-01-10 03:30:27.92	349.19	11.23	
2025-01-10 03:30:28.12	349.15	11.23	
2025-01-10 03:30:28.33	349.11	11.24	
2025-01-10 03:30:28.53	349.08	11.24	
2025-01-10 03:30:28.74	349.04	11.25	
2025-01-10 03:30:28.94	349.01	11.26	
2025-01-10 03:30:29.15	348.97	11.26	
2025-01-10 03:30:29.35	348.93	11.27	
2025-01-10 03:30:29.56	348.89	11.27	
2025-01-10 03:30:29.76	348.86	11.28	
2025-01-10 03:30:29.97	348.82	11.28	
2025-01-10 03:30:30.17	348.79	11.29	
2025-01-10 03:30:30.37	348.75	11.29	
2025-01-10 03:30:30.59	348.71	11.30	
2025-01-10 03:30:30.80	348.67	11.30	
2025-01-10 03:30:31.00	348.64	11.31	
2025-01-10 03:30:31.21	348.60	11.32	
2025-01-10 03:30:31.41	348.56	11.32	
2025-01-10 03:30:31.62	348.53	11.33	
2025-01-10 03:30:31.82	348.49	11.33	
2025-01-10 03:30:32.03	348.45	11.34	
2025-01-10 03:30:32.23	348.42	11.34	
2025-01-10 03:30:32.44	348.38	11.35	
2025-01-10 03:30:32.64	348.34	11.35	
2025-01-10 03:30:32.85	348.31	11.36	
2025-01-10 03:30:33.06	348.27	11.36	
2025-01-10 03:30:33.26	348.23	11.37	
2025-01-10 03:30:33.47	348.19	11.37	
2025-01-10 03:30:33.67	348.16	11.38	
2025-01-10 03:30:33.88	348.12	11.38	
2025-01-10 03:30:34.08	348.08	11.39	
2025-01-10 03:30:34.29	348.05	11.39	
2025-01-10 03:30:34.49	348.01	11.40	
2025-01-10 03:30:34.70	347.97	11.41	
2025-01-10 03:30:34.90	347.94	11.41	
2025-01-10 03:30:35.11	347.90	11.42	
2025-01-10 03:30:35.32	347.86	11.42	
2025-01-10 03:30:35.52	347.83	11.43	
2025-01-10 03:30:35.73	347.79	11.43	
2025-01-10 03:30:35.93	347.75	11.44	
2025-01-10 03:30:36.14	347.71	11.44	
2025-01-10 03:30:36.34	347.68	11.45	
2025-01-10 03:30:36.55	347.64	11.45	
2025-01-10 03:30:36.76	347.60	11.46	
2025-01-10 03:30:36.96	347.57	11.46	
2025-01-10 03:30:37.17	347.53	11.47	
2025-01-10 03:30:37.37	347.49	11.47	
2025-01-10 03:30:37.57	347.45	11.48	
2025-01-10 03:30:37.78	347.42	11.48	
2025-01-10 03:30:37.99	347.38	11.49	
2025-01-10 03:30:38.19	347.34	11.49	
2025-01-10 03:30:38.40	347.30	11.50	
2025-01-10 03:30:38.60	347.27	11.50	
2025-01-10 03:30:38.81	347.23	11.51	
2025-01-10 03:30:39.01	347.19	11.51	
2025-01-10 03:30:39.23	347.15	11.52	
2025-01-10 03:30:39.44	347.12	11.52	
2025-01-10 03:30:39.64	347.08	11.53	
2025-01-10 03:30:39.85	347.04	11.53	
2025-01-10 03:30:40.05	347.01	11.54	
2025-01-10 03:30:40.25	346.97	11.54	
2025-01-10 03:30:40.46	346.93	11.55	
2025-01-10 03:30:40.66	346.89	11.55	
2025-01-10 03:30:40.87	346.86	11.56	
2025-01-10 03:30:41.07	346.82	11.56	
2025-01-10 03:30:41.28	346.78	11.57	
2025-01-10 03:30:41.48	346.74	11.57	
2025-01-10 03:30:41.69	346.71	11.58	
2025-01-10 03:30:41.90	346.67	11.58	
2025-01-10 03:30:42.10	346.63	11.59	
2025-01-10 03:30:42.31	346.59	11.59	
2025-01-10 03:30:42.51	346.56	11.60	
2025-01-10 03:30:42.71	346.52	11.60	
2025-01-10 03:30:42.92	346.48	11.60	
2025-01-10 03:30:43.12	346.45	11.61	
2025-01-10 03:30:43.33	346.41	11.61	
2025-01-10 03:30:43.53	346.37	11.62	
2025-01-10 03:30:43.74	346.33	11.62	
2025-01-10 03:30:43.95	346.29	11.63	
2025-01-10 03:30:44.15	346.26	11.63	
2025-01-10 03:30:44.36	346.22	11.64	
2025-01-10 03:30:44.57	346.18	11.64	
2025-01-10 03:30:44.78	346.14	11.65	
2025-01-10 03:30:44.98	346.11	11.65	
2025-01-10 03:30:45.19	346.07	11.66	
2025-01-10 03:30:45.39	346.03	11.66	
2025-01-10 03:30:45.60	345.99	11.67	
2025-01-10 03:30:45.80	345.96	11.67	
2025-01-10 03:30:46.01	345.92	11.68	
2025-01-10 03:30:46.22	345.88	11.68	
2025-01-10 03:30:46.42	345.84	11.68	
2025-01-10 03:30:46.63	345.80	11.69	
2025-01-10 03:30:46.83	345.77	11.69	
2025-01-10 03:30:47.04	345.73	11.70	
2025-01-10 03:30:47.24	345.69	11.70	
2025-01-10 03:30:47.45	345.65	11.71	
2025-01-10 03:30:47.65	345.62	11.71	
2025-01-10 03:30:47.86	345.58	11.72	
2025-01-10 03:30:48.06	345.54	11.72	
2025-01-10 03:30:48.27	345.50	11.73	
2025-01-10 03:30:48.47	345.46	11.73	
2025-01-10 03:30:48.68	345.43	11.73	
2025-01-10 03:30:48.88	345.39	11.74	
2025-01-10 03:30:49.09	345.35	11.74	
2025-01-10 03:30:49.29	345.31	11.75	
2025-01-10 03:30:49.50	345.27	11.75	
2025-01-10 03:30:49.71	345.24	11.76	
2025-01-10 03:30:49.91	345.20	11.76	
2025-01-10 03:30:50.11	345.16	11.76	
2025-01-10 03:30:50.32	345.12	11.77	
2025-01-10 03:30:50.52	345.09	11.77	
2025-01-10 03:30:50.73	345.05	11.78	
2025-01-10 03:30:50.93	345.01	11.78	
2025-01-10 03:30:51.14	344.97	11.79	
2025-01-10 03:30:51.34	344.93	11.79	
2025-01-10 03:30:51.55	344.90	11.80	
2025-01-10 03:30:51.76	344.86	11.80	
2025-01-10 03:30:51.96	344.82	11.80	
2025-01-10 03:30:52.16	344.78	11.81	
2025-01-10 03:30:52.37	344.74	11.81	
2025-01-10 03:30:52.58	344.70	11.82	
2025-01-10 03:30:52.78	344.67	11.82	
2025-01-10 03:30:52.99	344.63	11.82	
2025-01-10 03:30:53.19	344.59	11.83	
2025-01-10 03:30:53.41	344.55	11.83	
2025-01-10 03:30:53.61	344.51	11.84	
2025-01-10 03:30:53.82	344.47	11.84	
2025-01-10 03:30:54.02	344.44	11.85	
2025-01-10 03:30:54.23	344.40	11.85	
2025-01-10 03:30:54.43	344.36	11.85	
2025-01-10 03:30:54.64	344.32	11.86	
2025-01-10 03:30:54.84	344.29	11.86	
2025-01-10 03:30:55.05	344.25	11.87	
2025-01-10 03:30:55.26	344.21	11.87	
2025-01-10 03:30:55.46	344.17	11.87	
2025-01-10 03:30:55.67	344.13	11.88	
2025-01-10 03:30:55.88	344.09	11.88	
2025-01-10 03:30:56.08	344.05	11.89	
2025-01-10 03:30:56.30	344.01	11.89	
2025-01-10 03:30:56.51	343.97	11.90	
2025-01-10 03:30:56.71	343.94	11.90	
2025-01-10 03:30:56.92	343.90	11.90	
2025-01-10 03:30:57.13	343.86	11.91	
2025-01-10 03:30:57.33	343.82	11.91	
2025-01-10 03:30:57.53	343.78	11.92	
2025-01-10 03:30:57.74	343.75	11.92	
2025-01-10 03:30:57.94	343.71	11.92	
2025-01-10 03:30:58.15	343.67	11.93	
2025-01-10 03:30:58.35	343.63	11.93	
2025-01-10 03:30:58.56	343.59	11.93	
2025-01-10 03:30:58.76	343.55	11.94	
2025-01-10 03:30:58.97	343.52	11.94	
2025-01-10 03:30:59.17	343.48	11.95	
2025-01-10 03:30:59.38	343.44	11.95	
2025-01-10 03:30:59.58	343.40	11.95	
2025-01-10 03:30:59.79	343.36	11.96	
2025-01-10 03:30:59.99	343.32	11.96	
2025-01-10 03:31:00.19	343.29	11.97	
2025-01-10 03:31:00.40	343.25	11.97	
2025-01-10 03:31:00.60	343.21	11.97	
2025-01-10 03:31:00.81	343.17	11.98	
2025-01-10 03:31:01.01	343.13	11.98	
2025-01-10 03:31:01.22	343.09	11.98	
2025-01-10 03:31:01.43	343.05	11.99	
2025-01-10 03:31:01.63	343.02	11.99	
2025-01-10 03:31:01.84	342.98	12.00	
2025-01-10 03:31:02.04	342.94	12.00	
2025-01-10 03:31:02.24	342.90	12.00	
2025-01-10 03:31:02.45	342.86	12.01	
2025-01-10 03:31:02.67	342.82	12.01	
2025-01-10 03:31:02.87	342.78	12.01	
2025-01-10 03:31:03.08	342.74	12.02	
2025-01-10 03:31:03.28	342.71	12.02	
2025-01-10 03:31:03.49	342.67	12.02	
2025-01-10 03:31:03.69	342.63	12.03	
2025-01-10 03:31:03.90	342.59	12.03	
2025-01-10 03:31:04.10	342.55	12.04	
2025-01-10 03:31:04.31	342.51	12.04	
2025-01-10 03:31:04.51	342.48	12.04	
2025-01-10 03:31:04.72	342.44	12.05	
2025-01-10 03:31:04.92	342.40	12.05	
2025-01-10 03:31:05.13	342.36	12.05	
2025-01-10 03:31:05.33	342.32	12.06	
2025-01-10 03:31:05.54	342.28	12.06	
2025-01-10 03:31:05.74	342.24	12.06	
2025-01-10 03:31:05.95	342.20	12.07	
2025-01-10 03:31:06.15	342.17	12.07	
2025-01-10 03:31:06.36	342.13	12.07	
2025-01-10 03:31:06.56	342.09	12.08	
2025-01-10 03:31:06.77	342.05	12.08	
2025-01-10 03:31:06.99	342.01	12.08	
2025-01-10 03:31:07.19	341.97	12.09	
2025-01-10 03:31:07.40	341.93	12.09	
2025-01-10 03:31:07.61	341.89	12.09	
2025-01-10 03:31:07.81	341.85	12.10	
2025-01-10 03:31:08.02	341.81	12.10	
2025-01-10 03:31:08.22	341.78	12.10	
2025-01-10 03:31:08.43	341.74	12.11	
2025-01-10 03:31:08.63	341.70	12.11	
2025-01-10 03:31:08.84	341.66	12.11	
2025-01-10 03:31:09.04	341.62	12.12	
2025-01-10 03:31:09.25	341.58	12.12	
2025-01-10 03:31:09.45	341.54	12.12	
2025-01-10 03:31:09.66	341.50	12.13	
2025-01-10 03:31:09.86	341.47	12.13	
2025-01-10 03:31:10.07	341.43	12.13	
2025-01-10 03:31:10.27	341.39	12.14	
2025-01-10 03:31:10.48	341.35	12.14	
2025-01-10 03:31:10.68	341.31	12.14	
2025-01-10 03:31:10.89	341.27	12.15	
2025-01-10 03:31:11.09	341.23	12.15	
2025-01-10 03:31:11.30	341.19	12.15	
2025-01-10 03:31:11.50	341.15	12.16	
2025-01-10 03:31:11.71	341.11	12.16	
2025-01-10 03:31:11.91	341.08	12.16	
2025-01-10 03:31:12.12	341.04	12.17	
2025-01-10 03:31:12.32	341.00	12.17	
2025-01-10 03:31:12.53	340.96	12.17	
2025-01-10 03:31:12.73	340.92	12.17	
2025-01-10 03:31:12.94	340.88	12.18	
2025-01-10 03:31:13.14	340.84	12.18	
2025-01-10 03:31:13.34	340.81	12.18	
2025-01-10 03:31:13.55	340.77	12.19	
2025-01-10 03:31:13.76	340.73	12.19	
2025-01-10 03:31:13.96	340.69	12.19	
2025-01-10 03:31:14.17	340.65	12.20	
2025-01-10 03:31:14.37	340.61	12.20	
2025-01-10 03:31:14.58	340.57	12.20	
2025-01-10 03:31:14.78	340.53	12.20	
2025-01-10 03:31:14.99	340.49	12.21	
2025-01-10 03:31:15.19	340.45	12.21	
2025-01-10 03:31:15.40	340.41	12.21	
2025-01-10 03:31:15.60	340.38	12.22	
2025-01-10 03:31:15.81	340.34	12.22	
2025-01-10 03:31:16.01	340.30	12.22	
2025-01-10 03:31:16.22	340.26	12.22	
2025-01-10 03:31:16.43	340.22	12.23	
2025-01-10 03:31:16.63	340.18	12.23	
2025-01-10 03:31:16.83	340.14	12.23	
2025-01-10 03:31:17.04	340.10	12.24	
2025-01-10 03:31:17.24	340.06	12.24	
2025-01-10 03:31:17.45	340.02	12.24	
2025-01-10 03:31:17.66	339.98	12.24	
2025-01-10 03:31:17.86	339.94	12.25	
2025-01-10 03:31:18.07	339.90	12.25	
2025-01-10 03:31:18.27	339.87	12.25	
2025-01-10 03:31:18.48	339.83	12.25	
2025-01-10 03:31:18.68	339.79	12.26	
2025-01-10 03:31:18.89	339.75	12.26	
2025-01-10 03:31:19.09	339.71	12.26	
2025-01-10 03:31:19.30	339.67	12.27	
2025-01-10 03:31:19.50	339.63	12.27	
2025-01-10 03:31:19.71	339.59	12.27	
2025-01-10 03:31:19.91	339.55	12.27	
2025-01-10 03:31:20.12	339.51	12.28	
2025-01-10 03:31:20.33	339.47	12.28	
2025-01-10 03:31:20.53	339.43	12.28	
2025-01-10 03:31:20.74	339.39	12.28	
2025-01-10 03:31:20.94	339.36	12.29	
2025-01-10 03:31:21.15	339.32	12.29	
2025-01-10 03:31:21.35	339.28	12.29	
2025-01-10 03:31:21.56	339.24	12.29	
2025-01-10 03:31:21.76	339.20	12.30	
2025-01-10 03:31:21.98	339.16	12.30	
2025-01-10 03:31:22.18	339.12	12.30	
2025-01-10 03:31:22.39	339.08	12.30	
2025-01-10 03:31:22.59	339.04	12.31	
2025-01-10 03:31:22.80	339.00	12.31	
2025-01-10 03:31:23.00	338.96	12.31	
2025-01-10 03:31:23.21	338.92	12.31	
2025-01-10 03:31:23.41	338.88	12.32	
2025-01-10 03:31:23.62	338.84	12.32	
2025-01-10 03:31:23.82	338.80	12.32	
2025-01-10 03:31:24.03	338.76	12.32	
2025-01-10 03:31:24.23	338.72	12.33	
2025-01-10 03:31:24.44	338.68	12.33	
2025-01-10 03:31:24.64	338.65	12.33	
2025-01-10 03:31:24.85	338.61	12.33	
2025-01-10 03:31:25.05	338.57	12.33	
2025-01-10 03:31:25.25	338.53	12.34	
2025-01-10 03:31:25.46	338.49	12.34	
2025-01-10 03:31:25.67	338.45	12.34	
2025-01-10 03:31:25.87	338.41	12.34	
2025-01-10 03:31:26.08	338.37	12.35	
2025-01-10 03:31:26.28	338.33	12.35	
2025-01-10 03:31:26.49	338.29	12.35	
2025-01-10 03:31:26.69	338.25	12.35	
2025-01-10 03:31:26.90	338.21	12.35	
2025-01-10 03:31:27.11	338.17	12.36	
2025-01-10 03:31:27.31	338.13	12.36	
2025-01-10 03:31:27.51	338.09	12.36	
2025-01-10 03:31:27.72	338.05	12.36	
2025-01-10 03:31:27.92	338.02	12.36	
2025-01-10 03:31:28.13	337.97	12.37	
2025-01-10 03:31:28.33	337.94	12.37	
2025-01-10 03:31:28.54	337.90	12.37	
2025-01-10 03:31:28.74	337.86	12.37	
2025-01-10 03:31:28.95	337.82	12.38	
2025-01-10 03:31:29.15	337.78	12.38	
2025-01-10 03:31:29.36	337.74	12.38	
2025-01-10 03:31:29.56	337.70	12.38	
2025-01-10 03:31:29.77	337.66	12.38	
2025-01-10 03:31:29.97	337.62	12.39	
2025-01-10 03:31:30.18	337.58	12.39	
2025-01-10 03:31:30.38	337.54	12.39	
2025-01-10 03:31:30.59	337.50	12.39	
2025-01-10 03:31:30.79	337.46	12.39	
2025-01-10 03:31:31.00	337.42	12.39	
2025-01-10 03:31:31.20	337.38	12.40	
2025-01-10 03:31:31.41	337.34	12.40	
2025-01-10 03:31:31.61	337.30	12.40	
2025-01-10 03:31:31.82	337.26	12.40	
2025-01-10 03:31:32.02	337.22	12.40	
2025-01-10 03:31:32.23	337.18	12.41	
2025-01-10 03:31:32.43	337.15	12.41	
2025-01-10 03:31:32.65	337.10	12.41	
2025-01-10 03:31:32.85	337.06	12.41	
2025-01-10 03:31:33.06	337.02	12.41	
2025-01-10 03:31:33.27	336.98	12.41	
2025-01-10 03:31:33.47	336.94	12.42	
2025-01-10 03:31:33.67	336.91	12.42	
2025-01-10 03:31:33.88	336.87	12.42	
2025-01-10 03:31:34.09	336.82	12.42	
2025-01-10 03:31:34.29	336.79	12.42	
2025-01-10 03:31:34.50	336.75	12.43	
2025-01-10 03:31:34.72	336.70	12.43	
2025-01-10 03:31:34.92	336.66	12.43	
2025-01-10 03:31:35.13	336.62	12.43	
2025-01-10 03:31:35.33	336.59	12.43	
2025-01-10 03:31:35.54	336.54	12.43	
2025-01-10 03:31:35.74	336.51	12.43	
2025-01-10 03:31:35.95	336.47	12.44	
2025-01-10 03:31:36.15	336.43	12.44	
2025-01-10 03:31:36.36	336.39	12.44	
2025-01-10 03:31:36.56	336.35	12.44	
2025-01-10 03:31:36.77	336.31	12.44	
2025-01-10 03:31:36.97	336.27	12.44	
2025-01-10 03:31:37.18	336.23	12.45	
2025-01-10 03:31:37.38	336.19	12.45	
2025-01-10 03:31:37.59	336.15	12.45	
2025-01-10 03:31:37.79	336.11	12.45	
2025-01-10 03:31:38.00	336.07	12.45	
2025-01-10 03:31:38.21	336.03	12.45	
2025-01-10 03:31:38.41	335.99	12.45	
2025-01-10 03:31:38.62	335.95	12.46	
2025-01-10 03:31:38.82	335.91	12.46	
2025-01-10 03:31:39.03	335.87	12.46	
2025-01-10 03:31:39.23	335.83	12.46	
2025-01-10 03:31:39.44	335.79	12.46	
2025-01-10 03:31:39.64	335.75	12.46	
2025-01-10 03:31:39.85	335.71	12.46	
2025-01-10 03:31:40.05	335.67	12.47	
2025-01-10 03:31:40.26	335.63	12.47	
2025-01-10 03:31:40.46	335.59	12.47	
2025-01-10 03:31:40.67	335.55	12.47	
2025-01-10 03:31:40.88	335.51	12.47	
2025-01-10 03:31:41.08	335.47	12.47	
2025-01-10 03:31:41.28	335.43	12.47	
2025-01-10 03:31:41.49	335.39	12.47	
2025-01-10 03:31:41.69	335.35	12.48	
2025-01-10 03:31:41.90	335.31	12.48	
2025-01-10 03:31:42.10	335.27	12.48	
2025-01-10 03:31:42.31	335.23	12.48	
2025-01-10 03:31:42.51	335.19	12.48	
2025-01-10 03:31:42.72	335.15	12.48	
2025-01-10 03:31:42.92	335.11	12.48	
2025-01-10 03:31:43.13	335.07	12.48	
2025-01-10 03:31:43.33	335.03	12.48	
2025-01-10 03:31:43.53	335.00	12.49	
2025-01-10 03:31:43.74	334.96	12.49	
2025-01-10 03:31:43.94	334.92	12.49	
2025-01-10 03:31:44.15	334.88	12.49	
2025-01-10 03:31:44.35	334.84	12.49	
2025-01-10 03:31:44.56	334.80	12.49	
2025-01-10 03:31:44.76	334.76	12.49	
2025-01-10 03:31:44.97	334.72	12.49	
2025-01-10 03:31:45.17	334.68	12.49	
2025-01-10 03:31:45.37	334.64	12.49	
2025-01-10 03:31:45.58	334.60	12.50	
2025-01-10 03:31:45.79	334.56	12.50	
2025-01-10 03:31:45.99	334.52	12.50	
2025-01-10 03:31:46.20	334.48	12.50	
2025-01-10 03:31:46.40	334.44	12.50	
2025-01-10 03:31:46.60	334.40	12.50	
2025-01-10 03:31:46.81	334.36	12.50	
2025-01-10 03:31:47.01	334.32	12.50	
2025-01-10 03:31:47.22	334.28	12.50	
2025-01-10 03:31:47.42	334.24	12.50	
2025-01-10 03:31:47.62	334.20	12.50	
2025-01-10 03:31:47.84	334.16	12.50	
2025-01-10 03:31:48.05	334.12	12.51	
2025-01-10 03:31:48.25	334.08	12.51	
2025-01-10 03:31:48.46	334.04	12.51	
2025-01-10 03:31:48.67	334.00	12.51	
2025-01-10 03:31:48.89	333.95	12.51	
2025-01-10 03:31:49.10	333.91	12.51	
2025-01-10 03:31:49.30	333.87	12.51	
2025-01-10 03:31:49.51	333.83	12.51	
2025-01-10 03:31:49.71	333.79	12.51	
2025-01-10 03:31:49.92	333.75	12.51	
2025-01-10 03:31:50.13	333.71	12.51	
2025-01-10 03:31:50.33	333.67	12.51	
2025-01-10 03:31:50.54	333.63	12.51	
2025-01-10 03:31:50.74	333.59	12.51	
2025-01-10 03:31:50.94	333.56	12.52	
2025-01-10 03:31:51.15	333.51	12.52	
2025-01-10 03:31:51.35	333.48	12.52	
2025-01-10 03:31:51.56	333.43	12.52	
2025-01-10 03:31:51.76	333.40	12.52	
2025-01-10 03:31:51.97	333.36	12.52	
2025-01-10 03:31:52.18	333.31	12.52	
2025-01-10 03:31:52.38	333.28	12.52	
2025-01-10 03:31:52.59	333.23	12.52	
2025-01-10 03:31:52.79	333.20	12.52	
2025-01-10 03:31:53.00	333.15	12.52	
2025-01-10 03:31:53.20	333.12	12.52	
2025-01-10 03:31:53.41	333.07	12.52	
2025-01-10 03:31:53.61	333.04	12.52	
2025-01-10 03:31:53.82	333.00	12.52	
2025-01-10 03:31:54.03	332.95	12.52	
2025-01-10 03:31:54.24	332.91	12.52	
2025-01-10 03:31:54.44	332.87	12.52	
2025-01-10 03:31:54.65	332.83	12.52	
2025-01-10 03:31:54.85	332.79	12.52	
2025-01-10 03:31:55.07	332.75	12.52	
2025-01-10 03:31:55.28	332.71	12.52	
2025-01-10 03:31:55.48	332.67	12.52	
2025-01-10 03:31:55.68	332.63	12.52	
2025-01-10 03:31:55.89	332.59	12.53	
2025-01-10 03:31:56.11	332.55	12.53	
2025-01-10 03:31:56.31	332.51	12.53	
2025-01-10 03:31:56.52	332.47	12.53	
2025-01-10 03:31:56.72	332.43	12.53	
2025-01-10 03:31:56.93	332.39	12.53	
2025-01-10 03:31:57.13	332.35	12.53	
2025-01-10 03:31:57.34	332.31	12.53	
2025-01-10 03:31:57.54	332.27	12.53	
2025-01-10 03:31:57.75	332.23	12.53	
2025-01-10 03:31:57.95	332.19	12.53	
2025-01-10 03:31:58.16	332.15	12.53	
2025-01-10 03:31:58.36	332.11	12.53	
2025-01-10 03:31:58.56	332.07	12.53	
2025-01-10 03:31:58.77	332.03	12.53	
2025-01-10 03:31:58.97	331.99	12.53	
2025-01-10 03:31:59.18	331.95	12.53	
2025-01-10 03:31:59.38	331.91	12.53	
2025-01-10 03:31:59.59	331.87	12.53	
2025-01-10 03:31:59.80	331.83	12.53	
2025-01-10 03:32:00.00	331.79	12.53	
2025-01-10 03:32:00.22	331.75	12.53	
2025-01-10 03:32:00.42	331.71	12.53	
2025-01-10 03:32:00.63	331.67	12.53	
2025-01-10 03:32:00.83	331.63	12.53	
2025-01-10 03:32:01.04	331.59	12.53	
2025-01-10 03:32:01.24	331.55	12.53	
2025-01-10 03:32:01.45	331.51	12.53	
2025-01-10 03:32:01.65	331.47	12.53	
2025-01-10 03:32:01.86	331.43	12.53	
2025-01-10 03:32:02.06	331.39	12.53	
2025-01-10 03:32:02.27	331.35	12.53	
2025-01-10 03:32:02.47	331.31	12.53	
2025-01-10 03:32:02.67	331.27	12.53	
2025-01-10 03:32:02.88	331.23	12.53	
2025-01-10 03:32:03.08	331.19	12.53	
2025-01-10 03:32:03.29	331.15	12.53	
2025-01-10 03:32:03.49	331.11	12.53	
2025-01-10 03:32:03.70	331.07	12.52	
2025-01-10 03:32:03.90	331.03	12.52	
2025-01-10 03:32:04.11	330.99	12.52	
2025-01-10 03:32:04.31	330.95	12.52	
2025-01-10 03:32:04.52	330.91	12.52	
2025-01-10 03:32:04.74	330.87	12.52	
2025-01-10 03:32:04.94	330.83	12.52	
2025-01-10 03:32:05.15	330.79	12.52	
2025-01-10 03:32:05.35	330.75	12.52	
2025-01-10 03:32:05.56	330.71	12.52	
2025-01-10 03:32:05.76	330.67	12.52	
2025-01-10 03:32:05.97	330.63	12.52	
2025-01-10 03:32:06.17	330.59	12.52	
2025-01-10 03:32:06.38	330.55	12.52	
2025-01-10 03:32:06.59	330.51	12.52	
2025-01-10 03:32:06.79	330.47	12.52	
2025-01-10 03:32:06.99	330.43	12.52	
2025-01-10 03:32:07.20	330.39	12.52	
2025-01-10 03:32:07.40	330.35	12.52	
2025-01-10 03:32:07.61	330.31	12.52	
2025-01-10 03:32:07.81	330.27	12.52	
2025-01-10 03:32:08.02	330.23	12.52	
2025-01-10 03:32:08.22	330.19	12.52	
2025-01-10 03:32:08.43	330.15	12.51	
2025-01-10 03:32:08.64	330.11	12.51	
2025-01-10 03:32:08.84	330.07	12.51	
2025-01-10 03:32:09.04	330.03	12.51	
2025-01-10 03:32:09.25	329.99	12.51	
2025-01-10 03:32:09.46	329.95	12.51	
2025-01-10 03:32:09.66	329.91	12.51	
2025-01-10 03:32:09.87	329.87	12.51	
2025-01-10 03:32:10.07	329.83	12.51	
2025-01-10 03:32:10.28	329.79	12.51	
2025-01-10 03:32:10.48	329.75	12.51	
2025-01-10 03:32:10.69	329.71	12.51	
2025-01-10 03:32:10.89	329.67	12.51	
2025-01-10 03:32:11.09	329.63	12.51	
2025-01-10 03:32:11.30	329.59	12.51	
2025-01-10 03:32:11.51	329.55	12.50	
2025-01-10 03:32:11.71	329.51	12.50	
2025-01-10 03:32:11.92	329.47	12.50	
2025-01-10 03:32:12.12	329.43	12.50	
2025-01-10 03:32:12.33	329.39	12.50	
2025-01-10 03:32:12.53	329.35	12.50	
2025-01-10 03:32:12.75	329.31	12.50	
2025-01-10 03:32:12.95	329.27	12.50	
2025-01-10 03:32:13.16	329.23	12.50	
2025-01-10 03:32:13.36	329.19	12.50	
2025-01-10 03:32:13.57	329.15	12.50	
2025-01-10 03:32:13.77	329.11	12.50	
2025-01-10 03:32:13.98	329.07	12.49	
2025-01-10 03:32:14.19	329.03	12.49	
2025-01-10 03:32:14.39	328.99	12.49	
2025-01-10 03:32:14.59	328.95	12.49	
2025-01-10 03:32:14.80	328.91	12.49	
2025-01-10 03:32:15.01	328.87	12.49	
2025-01-10 03:32:15.21	328.83	12.49	
2025-01-10 03:32:15.41	328.79	12.49	
2025-01-10 03:32:15.62	328.75	12.49	
2025-01-10 03:32:15.82	328.71	12.49	
2025-01-10 03:32:16.03	328.67	12.48	
2025-01-10 03:32:16.23	328.63	12.48	
2025-01-10 03:32:16.44	328.59	12.48	
2025-01-10 03:32:16.64	328.55	12.48	
2025-01-10 03:32:16.85	328.51	12.48	
2025-01-10 03:32:17.05	328.48	12.48	
2025-01-10 03:32:17.26	328.43	12.48	
2025-01-10 03:32:17.46	328.40	12.48	
2025-01-10 03:32:17.67	328.35	12.47	
2025-01-10 03:32:17.88	328.31	12.47	
2025-01-10 03:32:18.08	328.28	12.47	
2025-01-10 03:32:18.29	328.23	12.47	
2025-01-10 03:32:18.49	328.20	12.47	
2025-01-10 03:32:18.69	328.16	12.47	
2025-01-10 03:32:18.90	328.12	12.47	
2025-01-10 03:32:19.10	328.08	12.47	
2025-01-10 03:32:19.31	328.04	12.46	
2025-01-10 03:32:19.51	328.00	12.46	
2025-01-10 03:32:19.72	327.96	12.46	
2025-01-10 03:32:19.92	327.92	12.46	
2025-01-10 03:32:20.13	327.88	12.46	
2025-01-10 03:32:20.33	327.84	12.46	
2025-01-10 03:32:20.54	327.80	12.46	
2025-01-10 03:32:20.74	327.76	12.46	
2025-01-10 03:32:20.94	327.72	12.45	
2025-01-10 03:32:21.15	327.68	12.45	
2025-01-10 03:32:21.35	327.64	12.45	
2025-01-10 03:32:21.56	327.60	12.45	
2025-01-10 03:32:21.76	327.56	12.45	
2025-01-10 03:32:21.97	327.52	12.45	
2025-01-10 03:32:22.17	327.48	12.45	
2025-01-10 03:32:22.38	327.44	12.44	
2025-01-10 03:32:22.58	327.40	12.44	
2025-01-10 03:32:22.78	327.36	12.44	
2025-01-10 03:32:22.99	327.32	12.44	
2025-01-10 03:32:23.19	327.28	12.44	
2025-01-10 03:32:23.40	327.24	12.44	
2025-01-10 03:32:23.60	327.21	12.43	
2025-01-10 03:32:23.81	327.16	12.43	
2025-01-10 03:32:24.01	327.13	12.43	
2025-01-10 03:32:24.22	327.09	12.43	
2025-01-10 03:32:24.43	327.05	12.43	
2025-01-10 03:32:24.63	327.01	12.43	
2025-01-10 03:32:24.84	326.97	12.42	
2025-01-10 03:32:25.06	326.92	12.42	
2025-01-10 03:32:25.26	326.88	12.42	
2025-01-10 03:32:25.47	326.84	12.42	
2025-01-10 03:32:25.67	326.81	12.42	
2025-01-10 03:32:25.88	326.76	12.42	
2025-01-10 03:32:26.08	326.73	12.41	
2025-01-10 03:32:26.28	326.69	12.41	
2025-01-10 03:32:26.49	326.65	12.41	
2025-01-10 03:32:26.70	326.61	12.41	
2025-01-10 03:32:26.90	326.57	12.41	
2025-01-10 03:32:27.11	326.53	12.41	
2025-01-10 03:32:27.31	326.49	12.40	
2025-01-10 03:32:27.52	326.45	12.40	
2025-01-10 03:32:27.72	326.41	12.40	
2025-01-10 03:32:27.93	326.37	12.40	
2025-01-10 03:32:28.13	326.33	12.40	
2025-01-10 03:32:28.33	326.29	12.39	
2025-01-10 03:32:28.54	326.25	12.39	
2025-01-10 03:32:28.74	326.21	12.39	
2025-01-10 03:32:28.95	326.17	12.39	
2025-01-10 03:32:29.16	326.13	12.39	
2025-01-10 03:32:29.36	326.09	12.39	
2025-01-10 03:32:29.56	326.05	12.38	
2025-01-10 03:32:29.77	326.01	12.38	
2025-01-10 03:32:29.98	325.97	12.38	
2025-01-10 03:32:30.18	325.93	12.38	
2025-01-10 03:32:30.38	325.90	12.38	
2025-01-10 03:32:30.59	325.86	12.37	
2025-01-10 03:32:30.80	325.82	12.37	
2025-01-10 03:32:31.00	325.78	12.37	
2025-01-10 03:32:31.21	325.74	12.37	
2025-01-10 03:32:31.41	325.70	12.36	
2025-01-10 03:32:31.62	325.66	12.36	
2025-01-10 03:32:31.82	325.62	12.36	
2025-01-10 03:32:32.03	325.58	12.36	
2025-01-10 03:32:32.23	325.54	12.36	
2025-01-10 03:32:32.45	325.50	12.35	
2025-01-10 03:32:32.66	325.46	12.35	
2025-01-10 03:32:32.86	325.42	12.35	
2025-01-10 03:32:33.07	325.38	12.35	
2025-01-10 03:32:33.27	325.34	12.35	
2025-01-10 03:32:33.48	325.30	12.34	
2025-01-10 03:32:33.68	325.26	12.34	
2025-01-10 03:32:33.89	325.22	12.34	
2025-01-10 03:32:34.09	325.18	12.34	
2025-01-10 03:32:34.30	325.14	12.33	
2025-01-10 03:32:34.50	325.10	12.33	
2025-01-10 03:32:34.71	325.06	12.33	
2025-01-10 03:32:34.91	325.02	12.33	
2025-01-10 03:32:35.12	324.98	12.32	
2025-01-10 03:32:35.32	324.95	12.32	
2025-01-10 03:32:35.53	324.91	12.32	
2025-01-10 03:32:35.73	324.87	12.32	
2025-01-10 03:32:35.94	324.83	12.32	
2025-01-10 03:32:36.15	324.79	12.31	
2025-01-10 03:32:36.35	324.75	12.31	
2025-01-10 03:32:36.56	324.71	12.31	
2025-01-10 03:32:36.76	324.67	12.31	
2025-01-10 03:32:36.97	324.63	12.30	
2025-01-10 03:32:37.17	324.59	12.30	
2025-01-10 03:32:37.37	324.55	12.30	
2025-01-10 03:32:37.58	324.51	12.30	
2025-01-10 03:32:37.78	324.47	12.29	
2025-01-10 03:32:37.99	324.43	12.29	
2025-01-10 03:32:38.20	324.39	12.29	
2025-01-10 03:32:38.40	324.35	12.29	
2025-01-10 03:32:38.61	324.31	12.28	
2025-01-10 03:32:38.81	324.28	12.28	
2025-01-10 03:32:39.02	324.24	12.28	
2025-01-10 03:32:39.22	324.20	12.28	
2025-01-10 03:32:39.43	324.16	12.27	
2025-01-10 03:32:39.64	324.12	12.27	
2025-01-10 03:32:39.84	324.08	12.27	
2025-01-10 03:32:40.04	324.04	12.27	
2025-01-10 03:32:40.25	324.00	12.26	
2025-01-10 03:32:40.45	323.96	12.26	
2025-01-10 03:32:40.66	323.92	12.26	
2025-01-10 03:32:40.87	323.88	12.25	
2025-01-10 03:32:41.07	323.84	12.25	
2025-01-10 03:32:41.28	323.80	12.25	
2025-01-10 03:32:41.48	323.77	12.25	
2025-01-10 03:32:41.69	323.73	12.24	
2025-01-10 03:32:41.89	323.69	12.24	
2025-01-10 03:32:42.10	323.65	12.24	
2025-01-10 03:32:42.31	323.61	12.24	
2025-01-10 03:32:42.51	323.57	12.23	
2025-01-10 03:32:42.72	323.53	12.23	
2025-01-10 03:32:42.92	323.49	12.23	
2025-01-10 03:32:43.14	323.45	12.22	
2025-01-10 03:32:43.34	323.41	12.22	
2025-01-10 03:32:43.55	323.37	12.22	
2025-01-10 03:32:43.76	323.33	12.22	
2025-01-10 03:32:43.96	323.29	12.21	
2025-01-10 03:32:44.16	323.25	12.21	
2025-01-10 03:32:44.37	323.21	12.21	
2025-01-10 03:32:44.58	323.17	12.20	
2025-01-10 03:32:44.78	323.14	12.20	
2025-01-10 03:32:44.99	323.10	12.20	
2025-01-10 03:32:45.19	323.06	12.20	
2025-01-10 03:32:45.40	323.02	12.19	
2025-01-10 03:32:45.60	322.98	12.19	
2025-01-10 03:32:45.81	322.94	12.19	
2025-01-10 03:32:46.01	322.90	12.18	
2025-01-10 03:32:46.22	322.86	12.18	
2025-01-10 03:32:46.42	322.82	12.18	
2025-01-10 03:32:46.63	322.78	12.17	
2025-01-10 03:32:46.83	322.75	12.17	
2025-01-10 03:32:47.04	322.71	12.17	
2025-01-10 03:32:47.24	322.67	12.17	
2025-01-10 03:32:47.46	322.63	12.16	
2025-01-10 03:32:47.67	322.59	12.16	
2025-01-10 03:32:47.87	322.55	12.16	
2025-01-10 03:32:48.08	322.51	12.15	
2025-01-10 03:32:48.28	322.47	12.15	
2025-01-10 03:32:48.48	322.43	12.15	
2025-01-10 03:32:48.69	322.39	12.14	
2025-01-10 03:32:48.89	322.35	12.14	
2025-01-10 03:32:49.10	322.31	12.14	
2025-01-10 03:32:49.30	322.28	12.13	
2025-01-10 03:32:49.51	322.24	12.13	
2025-01-10 03:32:49.71	322.20	12.13	
2025-01-10 03:32:49.92	322.16	12.12	
2025-01-10 03:32:50.12	322.12	12.12	
2025-01-10 03:32:50.33	322.08	12.12	
2025-01-10 03:32:50.53	322.04	12.11	
2025-01-10 03:32:50.74	322.00	12.11	
2025-01-10 03:32:50.94	321.97	12.11	
2025-01-10 03:32:51.15	321.93	12.10	
2025-01-10 03:32:51.36	321.89	12.10	
2025-01-10 03:32:51.56	321.85	12.10	
2025-01-10 03:32:51.76	321.81	12.09	
2025-01-10 03:32:51.97	321.77	12.09	
2025-01-10 03:32:52.17	321.73	12.09	
2025-01-10 03:32:52.38	321.69	12.08	
2025-01-10 03:32:52.59	321.65	12.08	
2025-01-10 03:32:52.79	321.62	12.08	
2025-01-10 03:32:52.99	321.58	12.07	
2025-01-10 03:32:53.20	321.54	12.07	
2025-01-10 03:32:53.41	321.50	12.07	
2025-01-10 03:32:53.61	321.46	12.06	
2025-01-10 03:32:53.82	321.42	12.06	
2025-01-10 03:32:54.02	321.38	12.06	
2025-01-10 03:32:54.23	321.34	12.05	
2025-01-10 03:32:54.44	321.30	12.05	
2025-01-10 03:32:54.64	321.27	12.05	
2025-01-10 03:32:54.84	321.23	12.04	
2025-01-10 03:32:55.05	321.19	12.04	
2025-01-10 03:32:55.25	321.15	12.04	
2025-01-10 03:32:55.46	321.11	12.03	
2025-01-10 03:32:55.66	321.07	12.03	
2025-01-10 03:32:55.87	321.04	12.02	
2025-01-10 03:32:56.07	321.00	12.02	
2025-01-10 03:32:56.28	320.96	12.02	
2025-01-10 03:32:56.49	320.92	12.01	
2025-01-10 03:32:56.69	320.88	12.01	
2025-01-10 03:32:56.90	320.84	12.01	
2025-01-10 03:32:57.10	320.80	12.00	
2025-01-10 03:32:57.31	320.76	12.00	
2025-01-10 03:32:57.51	320.73	12.00	
2025-01-10 03:32:57.72	320.69	11.99	
2025-01-10 03:32:57.92	320.65	11.99	
2025-01-10 03:32:58.13	320.61	11.98	
2025-01-10 03:32:58.33	320.57	11.98	
2025-01-10 03:32:58.54	320.53	11.98	
2025-01-10 03:32:58.74	320.50	11.97	
2025-01-10 03:32:58.95	320.46	11.97	
2025-01-10 03:32:59.15	320.42	11.97	
2025-01-10 03:32:59.36	320.38	11.96	
2025-01-10 03:32:59.56	320.34	11.96	
2025-01-10 03:32:59.76	320.31	11.95	
2025-01-10 03:32:59.97	320.27	11.95	
2025-01-10 03:33:00.19	320.22	11.95	
2025-01-10 03:33:00.39	320.19	11.94	
2025-01-10 03:33:00.60	320.15	11.94	
2025-01-10 03:33:00.80	320.11	11.93	
2025-01-10 03:33:01.01	320.07	11.93	
2025-01-10 03:33:01.21	320.03	11.93	
2025-01-10 03:33:01.42	319.99	11.92	
2025-01-10 03:33:01.63	319.96	11.92	
2025-01-10 03:33:01.83	319.92	11.91	
2025-01-10 03:33:02.04	319.88	11.91	
2025-01-10 03:33:02.24	319.84	11.91	
2025-01-10 03:33:02.45	319.80	11.90	
2025-01-10 03:33:02.65	319.76	11.90	
2025-01-10 03:33:02.86	319.73	11.89	
2025-01-10 03:33:03.06	319.69	11.89	
2025-01-10 03:33:03.27	319.65	11.89	
2025-01-10 03:33:03.47	319.61	11.88	
2025-01-10 03:33:03.68	319.57	11.88	
2025-01-10 03:33:03.89	319.53	11.87	
2025-01-10 03:33:04.09	319.50	11.87	
2025-01-10 03:33:04.30	319.46	11.87	
2025-01-10 03:33:04.50	319.42	11.86	
2025-01-10 03:33:04.71	319.38	11.86	
2025-01-10 03:33:04.91	319.34	11.85	
2025-01-10 03:33:05.12	319.30	11.85	
2025-01-10 03:33:05.32	319.27	11.85	
2025-01-10 03:33:05.54	319.23	11.84	
2025-01-10 03:33:05.75	319.19	11.84	
2025-01-10 03:33:05.95	319.15	11.83	
2025-01-10 03:33:06.16	319.11	11.83	
2025-01-10 03:33:06.36	319.07	11.82	
2025-01-10 03:33:06.56	319.04	11.82	
2025-01-10 03:33:06.77	319.00	11.82	
2025-01-10 03:33:06.97	318.96	11.81	
2025-01-10 03:33:07.18	318.92	11.81	
2025-01-10 03:33:07.39	318.88	11.80	
2025-01-10 03:33:07.59	318.85	11.80	
2025-01-10 03:33:07.80	318.81	11.79	
2025-01-10 03:33:08.00	318.77	11.79	
2025-01-10 03:33:08.21	318.73	11.79	
