passes_logs/2025/01/10/SPB_Silybum_02/SPB_Silybum_02__20250110_015554_AQUA_rec.log

#Pass ID: 20250110_015554_AQUA
#Satellite: AQUA
#Configuration: AQUA
#Start time: 2025-01-10 01:59:27

#Version: 2.0.20230423
#Station: SPB_Silybum_02
#Location: 30.233357 lon 59.946436 lat
#TLE: 1 27424U 02022A   25009.18250328  .00001819  00000+0  38344-3 0  9993
#TLE: 2 27424  98.3576 325.7944 0001512 117.4139 299.3627 14.60660146206772

#Time	Az	El	Level	Level2	SNR	BER	Gain	Gain2
2025-01-10 01:59:29.07	359.14	27.53	
2025-01-10 01:59:29.27	359.11	27.57	
2025-01-10 01:59:29.48	359.07	27.60	
2025-01-10 01:59:29.68	359.04	27.64	
2025-01-10 01:59:29.89	359.00	27.68	
2025-01-10 01:59:30.10	358.97	27.71	
2025-01-10 01:59:30.30	358.93	27.75	
2025-01-10 01:59:30.51	358.90	27.79	
2025-01-10 01:59:30.71	358.86	27.82	
2025-01-10 01:59:30.91	358.83	27.86	
2025-01-10 01:59:31.12	358.79	27.90	
2025-01-10 01:59:31.33	358.76	27.93	
2025-01-10 01:59:31.53	358.72	27.97	
2025-01-10 01:59:31.74	358.69	28.01	
2025-01-10 01:59:31.94	358.65	28.04	
2025-01-10 01:59:32.15	358.61	28.08	
2025-01-10 01:59:32.35	358.58	28.12	
2025-01-10 01:59:32.56	358.54	28.16	
2025-01-10 01:59:32.77	358.51	28.19	
2025-01-10 01:59:32.97	358.47	28.23	
2025-01-10 01:59:33.17	358.44	28.27	
2025-01-10 01:59:33.38	358.40	28.31	
2025-01-10 01:59:33.59	358.36	28.34	
2025-01-10 01:59:33.79	358.33	28.38	
2025-01-10 01:59:34.00	358.29	28.42	
2025-01-10 01:59:34.20	358.25	28.46	
2025-01-10 01:59:34.41	358.21	28.49	
2025-01-10 01:59:34.61	358.18	28.53	
2025-01-10 01:59:34.82	358.14	28.57	
2025-01-10 01:59:35.02	358.10	28.61	
2025-01-10 01:59:35.23	358.07	28.64	
2025-01-10 01:59:35.43	358.03	28.68	
2025-01-10 01:59:35.64	357.99	28.72	
2025-01-10 01:59:35.84	357.96	28.76	
2025-01-10 01:59:36.05	357.92	28.80	
2025-01-10 01:59:36.25	357.88	28.83	
2025-01-10 01:59:36.46	357.84	28.87	
2025-01-10 01:59:36.66	357.81	28.91	
2025-01-10 01:59:36.87	357.77	28.95	
2025-01-10 01:59:37.08	357.73	28.99	
2025-01-10 01:59:37.28	357.69	29.02	
2025-01-10 01:59:37.48	357.65	29.06	
2025-01-10 01:59:37.69	357.61	29.10	
2025-01-10 01:59:37.90	357.58	29.14	
2025-01-10 01:59:38.10	357.54	29.18	
2025-01-10 01:59:38.32	357.50	29.22	
2025-01-10 01:59:38.53	357.46	29.26	
2025-01-10 01:59:38.73	357.42	29.29	
2025-01-10 01:59:38.94	357.38	29.33	
2025-01-10 01:59:39.14	357.34	29.37	
2025-01-10 01:59:39.36	357.30	29.41	
2025-01-10 01:59:39.57	357.26	29.45	
2025-01-10 01:59:39.77	357.22	29.49	
2025-01-10 01:59:39.98	357.18	29.53	
2025-01-10 01:59:40.18	357.14	29.57	
2025-01-10 01:59:40.39	357.10	29.61	
2025-01-10 01:59:40.59	357.06	29.64	
2025-01-10 01:59:40.80	357.02	29.68	
2025-01-10 01:59:41.01	356.98	29.72	
2025-01-10 01:59:41.21	356.94	29.76	
2025-01-10 01:59:41.42	356.90	29.80	
2025-01-10 01:59:41.62	356.86	29.84	
2025-01-10 01:59:41.83	356.82	29.88	
2025-01-10 01:59:42.03	356.78	29.92	
2025-01-10 01:59:42.24	356.74	29.96	
2025-01-10 01:59:42.44	356.70	30.00	
2025-01-10 01:59:42.65	356.66	30.04	
2025-01-10 01:59:42.86	356.62	30.08	
2025-01-10 01:59:43.06	356.58	30.11	
2025-01-10 01:59:43.27	356.54	30.15	
2025-01-10 01:59:43.47	356.50	30.19	
2025-01-10 01:59:43.68	356.46	30.23	
2025-01-10 01:59:43.88	356.41	30.27	
2025-01-10 01:59:44.09	356.37	30.31	
2025-01-10 01:59:44.30	356.33	30.35	
2025-01-10 01:59:44.50	356.29	30.39	
2025-01-10 01:59:44.71	356.25	30.43	
2025-01-10 01:59:44.91	356.21	30.47	
2025-01-10 01:59:45.12	356.16	30.51	
2025-01-10 01:59:45.32	356.12	30.55	
2025-01-10 01:59:45.53	356.08	30.59	
2025-01-10 01:59:45.75	356.03	30.63	
2025-01-10 01:59:45.95	355.99	30.67	
2025-01-10 01:59:46.16	355.95	30.71	
2025-01-10 01:59:46.36	355.91	30.75	
2025-01-10 01:59:46.57	355.86	30.79	
2025-01-10 01:59:46.77	355.82	30.83	
2025-01-10 01:59:46.98	355.78	30.87	
2025-01-10 01:59:47.18	355.74	30.91	
2025-01-10 01:59:47.39	355.69	30.95	
2025-01-10 01:59:47.59	355.65	30.99	
2025-01-10 01:59:47.80	355.61	31.03	
2025-01-10 01:59:48.00	355.56	31.07	
2025-01-10 01:59:48.21	355.52	31.11	
2025-01-10 01:59:48.41	355.48	31.15	
2025-01-10 01:59:48.62	355.43	31.19	
2025-01-10 01:59:48.82	355.39	31.23	
2025-01-10 01:59:49.03	355.34	31.28	
2025-01-10 01:59:49.23	355.30	31.31	
2025-01-10 01:59:49.44	355.26	31.36	
2025-01-10 01:59:49.65	355.21	31.40	
2025-01-10 01:59:49.85	355.17	31.44	
2025-01-10 01:59:50.05	355.12	31.48	
2025-01-10 01:59:50.26	355.08	31.52	
2025-01-10 01:59:50.47	355.03	31.56	
2025-01-10 01:59:50.67	354.99	31.60	
2025-01-10 01:59:50.88	354.94	31.64	
2025-01-10 01:59:51.08	354.90	31.68	
2025-01-10 01:59:51.29	354.85	31.72	
2025-01-10 01:59:51.50	354.80	31.77	
2025-01-10 01:59:51.70	354.76	31.81	
2025-01-10 01:59:51.91	354.71	31.85	
2025-01-10 01:59:52.12	354.67	31.89	
2025-01-10 01:59:52.33	354.62	31.93	
2025-01-10 01:59:52.53	354.57	31.97	
2025-01-10 01:59:52.74	354.53	32.01	
2025-01-10 01:59:52.94	354.48	32.05	
2025-01-10 01:59:53.15	354.43	32.10	
2025-01-10 01:59:53.35	354.39	32.14	
2025-01-10 01:59:53.56	354.34	32.18	
2025-01-10 01:59:53.76	354.30	32.22	
2025-01-10 01:59:53.97	354.25	32.26	
2025-01-10 01:59:54.18	354.20	32.31	
2025-01-10 01:59:54.38	354.15	32.35	
2025-01-10 01:59:54.59	354.10	32.39	
2025-01-10 01:59:54.79	354.06	32.43	
2025-01-10 01:59:55.00	354.01	32.47	
2025-01-10 01:59:55.20	353.96	32.51	
2025-01-10 01:59:55.42	353.91	32.56	
2025-01-10 01:59:55.62	353.87	32.60	
2025-01-10 01:59:55.83	353.82	32.64	
2025-01-10 01:59:56.04	353.77	32.68	
2025-01-10 01:59:56.24	353.72	32.72	
2025-01-10 01:59:56.45	353.67	32.77	
2025-01-10 01:59:56.65	353.62	32.81	
2025-01-10 01:59:56.86	353.57	32.85	
2025-01-10 01:59:57.06	353.53	32.89	
2025-01-10 01:59:57.27	353.48	32.94	
2025-01-10 01:59:57.49	353.42	32.98	
2025-01-10 01:59:57.69	353.37	33.02	
2025-01-10 01:59:57.90	353.32	33.06	
2025-01-10 01:59:58.11	353.27	33.11	
2025-01-10 01:59:58.31	353.22	33.15	
2025-01-10 01:59:58.52	353.17	33.19	
2025-01-10 01:59:58.72	353.13	33.23	
2025-01-10 01:59:58.93	353.07	33.28	
2025-01-10 01:59:59.13	353.02	33.32	
2025-01-10 01:59:59.34	352.97	33.36	
2025-01-10 01:59:59.54	352.92	33.40	
2025-01-10 01:59:59.75	352.87	33.45	
2025-01-10 01:59:59.96	352.82	33.49	
2025-01-10 02:00:00.16	352.77	33.53	
2025-01-10 02:00:00.37	352.72	33.58	
2025-01-10 02:00:00.57	352.67	33.62	
2025-01-10 02:00:00.78	352.62	33.66	
2025-01-10 02:00:00.98	352.57	33.70	
2025-01-10 02:00:01.19	352.51	33.75	
2025-01-10 02:00:01.40	352.46	33.79	
2025-01-10 02:00:01.61	352.41	33.84	
2025-01-10 02:00:01.81	352.36	33.88	
2025-01-10 02:00:02.02	352.30	33.92	
2025-01-10 02:00:02.22	352.25	33.96	
2025-01-10 02:00:02.43	352.20	34.01	
2025-01-10 02:00:02.64	352.14	34.05	
2025-01-10 02:00:02.84	352.09	34.09	
2025-01-10 02:00:03.04	352.04	34.14	
2025-01-10 02:00:03.25	351.99	34.18	
2025-01-10 02:00:03.45	351.94	34.22	
2025-01-10 02:00:03.66	351.88	34.27	
2025-01-10 02:00:03.86	351.83	34.31	
2025-01-10 02:00:04.07	351.77	34.35	
2025-01-10 02:00:04.28	351.72	34.40	
2025-01-10 02:00:04.48	351.67	34.44	
2025-01-10 02:00:04.69	351.61	34.48	
2025-01-10 02:00:04.89	351.56	34.53	
2025-01-10 02:00:05.10	351.50	34.57	
2025-01-10 02:00:05.30	351.45	34.61	
2025-01-10 02:00:05.51	351.39	34.66	
2025-01-10 02:00:05.72	351.34	34.70	
2025-01-10 02:00:05.92	351.28	34.75	
2025-01-10 02:00:06.13	351.23	34.79	
2025-01-10 02:00:06.33	351.17	34.83	
2025-01-10 02:00:06.54	351.12	34.88	
2025-01-10 02:00:06.74	351.06	34.92	
2025-01-10 02:00:06.95	351.00	34.97	
2025-01-10 02:00:07.16	350.95	35.01	
2025-01-10 02:00:07.36	350.89	35.05	
2025-01-10 02:00:07.57	350.84	35.10	
2025-01-10 02:00:07.77	350.78	35.14	
2025-01-10 02:00:07.98	350.72	35.19	
2025-01-10 02:00:08.18	350.67	35.23	
2025-01-10 02:00:08.39	350.61	35.27	
2025-01-10 02:00:08.59	350.55	35.32	
2025-01-10 02:00:08.80	350.49	35.36	
2025-01-10 02:00:09.00	350.44	35.41	
2025-01-10 02:00:09.21	350.38	35.45	
2025-01-10 02:00:09.41	350.32	35.49	
2025-01-10 02:00:09.62	350.26	35.54	
2025-01-10 02:00:09.82	350.21	35.58	
2025-01-10 02:00:10.03	350.15	35.63	
2025-01-10 02:00:10.23	350.09	35.67	
2025-01-10 02:00:10.44	350.03	35.72	
2025-01-10 02:00:10.64	349.97	35.76	
2025-01-10 02:00:10.85	349.91	35.81	
2025-01-10 02:00:11.05	349.86	35.85	
2025-01-10 02:00:11.26	349.80	35.89	
2025-01-10 02:00:11.48	349.73	35.94	
2025-01-10 02:00:11.68	349.67	35.99	
2025-01-10 02:00:11.89	349.61	36.03	
2025-01-10 02:00:12.09	349.55	36.07	
2025-01-10 02:00:12.30	349.49	36.12	
2025-01-10 02:00:12.50	349.43	36.16	
2025-01-10 02:00:12.71	349.37	36.21	
2025-01-10 02:00:12.91	349.31	36.25	
2025-01-10 02:00:13.12	349.25	36.30	
2025-01-10 02:00:13.32	349.19	36.34	
2025-01-10 02:00:13.53	349.13	36.39	
2025-01-10 02:00:13.73	349.07	36.43	
2025-01-10 02:00:13.94	349.01	36.48	
2025-01-10 02:00:14.14	348.95	36.52	
2025-01-10 02:00:14.35	348.88	36.57	
2025-01-10 02:00:14.55	348.82	36.61	
2025-01-10 02:00:14.76	348.76	36.66	
2025-01-10 02:00:14.96	348.70	36.70	
2025-01-10 02:00:15.17	348.64	36.75	
2025-01-10 02:00:15.38	348.57	36.80	
2025-01-10 02:00:15.58	348.51	36.84	
2025-01-10 02:00:15.78	348.45	36.88	
2025-01-10 02:00:15.99	348.38	36.93	
2025-01-10 02:00:16.20	348.32	36.98	
2025-01-10 02:00:16.40	348.26	37.02	
2025-01-10 02:00:16.61	348.19	37.07	
2025-01-10 02:00:16.82	348.13	37.11	
2025-01-10 02:00:17.03	348.06	37.16	
2025-01-10 02:00:17.24	348.00	37.21	
2025-01-10 02:00:17.44	347.93	37.25	
2025-01-10 02:00:17.65	347.87	37.30	
2025-01-10 02:00:17.85	347.80	37.34	
2025-01-10 02:00:18.06	347.74	37.39	
2025-01-10 02:00:18.26	347.67	37.43	
2025-01-10 02:00:18.47	347.61	37.48	
2025-01-10 02:00:18.67	347.54	37.52	
2025-01-10 02:00:18.88	347.47	37.57	
2025-01-10 02:00:19.08	347.41	37.61	
2025-01-10 02:00:19.28	347.35	37.66	
2025-01-10 02:00:19.49	347.28	37.71	
2025-01-10 02:00:19.69	347.21	37.75	
2025-01-10 02:00:19.90	347.14	37.80	
2025-01-10 02:00:20.10	347.08	37.84	
2025-01-10 02:00:20.31	347.01	37.89	
2025-01-10 02:00:20.51	346.95	37.93	
2025-01-10 02:00:20.72	346.88	37.98	
2025-01-10 02:00:20.92	346.81	38.02	
2025-01-10 02:00:21.13	346.74	38.07	
2025-01-10 02:00:21.33	346.67	38.12	
2025-01-10 02:00:21.54	346.60	38.16	
2025-01-10 02:00:21.75	346.53	38.21	
2025-01-10 02:00:21.95	346.47	38.25	
2025-01-10 02:00:22.15	346.40	38.30	
2025-01-10 02:00:22.36	346.33	38.35	
2025-01-10 02:00:22.57	346.26	38.39	
2025-01-10 02:00:22.77	346.19	38.44	
2025-01-10 02:00:22.98	346.12	38.49	
2025-01-10 02:00:23.18	346.05	38.53	
2025-01-10 02:00:23.39	345.98	38.58	
2025-01-10 02:00:23.59	345.91	38.62	
2025-01-10 02:00:23.80	345.84	38.67	
2025-01-10 02:00:24.00	345.77	38.71	
2025-01-10 02:00:24.21	345.70	38.76	
2025-01-10 02:00:24.41	345.63	38.81	
2025-01-10 02:00:24.62	345.55	38.85	
2025-01-10 02:00:24.83	345.48	38.90	
2025-01-10 02:00:25.03	345.41	38.95	
2025-01-10 02:00:25.24	345.34	38.99	
2025-01-10 02:00:25.44	345.27	39.04	
2025-01-10 02:00:25.65	345.19	39.09	
2025-01-10 02:00:25.85	345.12	39.13	
2025-01-10 02:00:26.06	345.05	39.18	
2025-01-10 02:00:26.27	344.97	39.23	
2025-01-10 02:00:26.48	344.90	39.27	
2025-01-10 02:00:26.69	344.82	39.32	
2025-01-10 02:00:26.90	344.75	39.37	
2025-01-10 02:00:27.10	344.68	39.41	
2025-01-10 02:00:27.31	344.60	39.46	
2025-01-10 02:00:27.52	344.52	39.51	
2025-01-10 02:00:27.73	344.45	39.56	
2025-01-10 02:00:27.94	344.37	39.60	
2025-01-10 02:00:28.14	344.30	39.65	
2025-01-10 02:00:28.34	344.22	39.69	
2025-01-10 02:00:28.55	344.15	39.74	
2025-01-10 02:00:28.76	344.07	39.79	
2025-01-10 02:00:28.96	343.99	39.83	
2025-01-10 02:00:29.17	343.92	39.88	
2025-01-10 02:00:29.37	343.84	39.93	
2025-01-10 02:00:29.58	343.76	39.97	
2025-01-10 02:00:29.78	343.69	40.02	
2025-01-10 02:00:29.99	343.61	40.07	
2025-01-10 02:00:30.19	343.53	40.11	
2025-01-10 02:00:30.40	343.46	40.16	
2025-01-10 02:00:30.60	343.38	40.20	
2025-01-10 02:00:30.81	343.30	40.25	
2025-01-10 02:00:31.01	343.22	40.30	
2025-01-10 02:00:31.22	343.14	40.34	
2025-01-10 02:00:31.42	343.07	40.39	
2025-01-10 02:00:31.63	342.99	40.44	
2025-01-10 02:00:31.83	342.91	40.48	
2025-01-10 02:00:32.03	342.83	40.53	
2025-01-10 02:00:32.24	342.75	40.58	
2025-01-10 02:00:32.45	342.67	40.62	
2025-01-10 02:00:32.65	342.59	40.67	
2025-01-10 02:00:32.86	342.51	40.72	
2025-01-10 02:00:33.06	342.43	40.76	
2025-01-10 02:00:33.27	342.35	40.81	
2025-01-10 02:00:33.48	342.26	40.86	
2025-01-10 02:00:33.69	342.18	40.90	
2025-01-10 02:00:33.91	342.09	40.95	
2025-01-10 02:00:34.11	342.01	41.00	
2025-01-10 02:00:34.32	341.93	41.05	
2025-01-10 02:00:34.53	341.85	41.09	
2025-01-10 02:00:34.73	341.77	41.14	
2025-01-10 02:00:34.94	341.68	41.19	
2025-01-10 02:00:35.14	341.60	41.23	
2025-01-10 02:00:35.35	341.51	41.28	
2025-01-10 02:00:35.55	341.43	41.33	
2025-01-10 02:00:35.76	341.35	41.37	
2025-01-10 02:00:35.98	341.26	41.42	
2025-01-10 02:00:36.18	341.18	41.47	
2025-01-10 02:00:36.39	341.09	41.52	
2025-01-10 02:00:36.59	341.01	41.56	
2025-01-10 02:00:36.80	340.92	41.61	
2025-01-10 02:00:37.00	340.84	41.65	
2025-01-10 02:00:37.21	340.75	41.70	
2025-01-10 02:00:37.41	340.66	41.75	
2025-01-10 02:00:37.62	340.58	41.79	
2025-01-10 02:00:37.83	340.49	41.84	
2025-01-10 02:00:38.03	340.40	41.89	
2025-01-10 02:00:38.24	340.32	41.93	
2025-01-10 02:00:38.44	340.23	41.98	
2025-01-10 02:00:38.65	340.14	42.03	
2025-01-10 02:00:38.85	340.06	42.07	
2025-01-10 02:00:39.06	339.97	42.12	
2025-01-10 02:00:39.26	339.88	42.16	
2025-01-10 02:00:39.47	339.79	42.21	
2025-01-10 02:00:39.68	339.70	42.26	
2025-01-10 02:00:39.88	339.61	42.30	
2025-01-10 02:00:40.10	339.52	42.35	
2025-01-10 02:00:40.30	339.43	42.40	
2025-01-10 02:00:40.50	339.34	42.44	
2025-01-10 02:00:40.71	339.25	42.49	
2025-01-10 02:00:40.92	339.16	42.54	
2025-01-10 02:00:41.12	339.07	42.58	
2025-01-10 02:00:41.32	338.98	42.63	
2025-01-10 02:00:41.53	338.89	42.68	
2025-01-10 02:00:41.74	338.80	42.72	
2025-01-10 02:00:41.94	338.71	42.77	
2025-01-10 02:00:42.15	338.61	42.81	
2025-01-10 02:00:42.35	338.52	42.86	
2025-01-10 02:00:42.56	338.43	42.91	
2025-01-10 02:00:42.76	338.34	42.95	
2025-01-10 02:00:42.97	338.24	43.00	
2025-01-10 02:00:43.18	338.15	43.05	
2025-01-10 02:00:43.38	338.06	43.09	
2025-01-10 02:00:43.59	337.96	43.14	
2025-01-10 02:00:43.79	337.87	43.18	
2025-01-10 02:00:44.00	337.77	43.23	
2025-01-10 02:00:44.21	337.68	43.28	
2025-01-10 02:00:44.41	337.58	43.32	
2025-01-10 02:00:44.61	337.49	43.36	
2025-01-10 02:00:44.82	337.39	43.41	
2025-01-10 02:00:45.03	337.30	43.46	
2025-01-10 02:00:45.23	337.20	43.50	
2025-01-10 02:00:45.44	337.10	43.55	
2025-01-10 02:00:45.64	337.01	43.59	
2025-01-10 02:00:45.85	336.91	43.64	
2025-01-10 02:00:46.05	336.82	43.68	
2025-01-10 02:00:46.26	336.72	43.73	
2025-01-10 02:00:46.46	336.62	43.78	
2025-01-10 02:00:46.67	336.52	43.82	
2025-01-10 02:00:46.87	336.43	43.87	
2025-01-10 02:00:47.08	336.32	43.91	
2025-01-10 02:00:47.29	336.22	43.96	
2025-01-10 02:00:47.49	336.13	44.00	
2025-01-10 02:00:47.69	336.03	44.05	
2025-01-10 02:00:47.90	335.93	44.09	
2025-01-10 02:00:48.11	335.83	44.14	
2025-01-10 02:00:48.31	335.73	44.18	
2025-01-10 02:00:48.52	335.63	44.23	
2025-01-10 02:00:48.72	335.53	44.27	
2025-01-10 02:00:48.93	335.42	44.32	
2025-01-10 02:00:49.13	335.33	44.36	
2025-01-10 02:00:49.34	335.22	44.41	
2025-01-10 02:00:49.55	335.12	44.45	
2025-01-10 02:00:49.75	335.02	44.50	
2025-01-10 02:00:49.96	334.91	44.54	
2025-01-10 02:00:50.16	334.81	44.59	
2025-01-10 02:00:50.37	334.71	44.63	
2025-01-10 02:00:50.57	334.61	44.68	
2025-01-10 02:00:50.78	334.50	44.72	
2025-01-10 02:00:50.98	334.40	44.77	
2025-01-10 02:00:51.19	334.29	44.81	
2025-01-10 02:00:51.39	334.19	44.85	
2025-01-10 02:00:51.60	334.08	44.90	
2025-01-10 02:00:51.80	333.98	44.94	
2025-01-10 02:00:52.01	333.87	44.99	
2025-01-10 02:00:52.21	333.77	45.03	
2025-01-10 02:00:52.42	333.66	45.08	
2025-01-10 02:00:52.62	333.56	45.12	
2025-01-10 02:00:52.83	333.45	45.16	
2025-01-10 02:00:53.03	333.34	45.21	
2025-01-10 02:00:53.24	333.23	45.25	
2025-01-10 02:00:53.44	333.13	45.29	
2025-01-10 02:00:53.65	333.02	45.34	
2025-01-10 02:00:53.86	332.91	45.38	
2025-01-10 02:00:54.06	332.80	45.43	
2025-01-10 02:00:54.27	332.69	45.47	
2025-01-10 02:00:54.47	332.58	45.51	
2025-01-10 02:00:54.68	332.47	45.56	
2025-01-10 02:00:54.88	332.36	45.60	
2025-01-10 02:00:55.09	332.25	45.64	
2025-01-10 02:00:55.29	332.14	45.69	
2025-01-10 02:00:55.50	332.03	45.73	
2025-01-10 02:00:55.70	331.92	45.77	
2025-01-10 02:00:55.91	331.81	45.82	
2025-01-10 02:00:56.11	331.70	45.86	
2025-01-10 02:00:56.32	331.59	45.90	
2025-01-10 02:00:56.52	331.48	45.94	
2025-01-10 02:00:56.73	331.36	45.99	
2025-01-10 02:00:56.93	331.25	46.03	
2025-01-10 02:00:57.14	331.14	46.07	
2025-01-10 02:00:57.34	331.02	46.11	
2025-01-10 02:00:57.55	330.91	46.16	
2025-01-10 02:00:57.75	330.80	46.20	
2025-01-10 02:00:57.96	330.68	46.24	
2025-01-10 02:00:58.17	330.56	46.29	
2025-01-10 02:00:58.38	330.45	46.33	
2025-01-10 02:00:58.59	330.33	46.37	
2025-01-10 02:00:58.79	330.21	46.41	
2025-01-10 02:00:59.00	330.10	46.46	
2025-01-10 02:00:59.21	329.98	46.50	
2025-01-10 02:00:59.41	329.86	46.54	
2025-01-10 02:00:59.61	329.75	46.58	
2025-01-10 02:00:59.82	329.63	46.62	
2025-01-10 02:01:00.03	329.51	46.66	
2025-01-10 02:01:00.23	329.39	46.70	
2025-01-10 02:01:00.44	329.27	46.75	
2025-01-10 02:01:00.64	329.16	46.79	
2025-01-10 02:01:00.85	329.04	46.83	
2025-01-10 02:01:01.05	328.92	46.87	
2025-01-10 02:01:01.26	328.80	46.91	
2025-01-10 02:01:01.46	328.68	46.95	
2025-01-10 02:01:01.67	328.56	46.99	
2025-01-10 02:01:01.87	328.44	47.03	
2025-01-10 02:01:02.08	328.32	47.07	
2025-01-10 02:01:02.28	328.20	47.11	
2025-01-10 02:01:02.49	328.07	47.15	
2025-01-10 02:01:02.71	327.94	47.20	
2025-01-10 02:01:02.91	327.82	47.24	
2025-01-10 02:01:03.12	327.70	47.28	
2025-01-10 02:01:03.32	327.58	47.32	
2025-01-10 02:01:03.53	327.45	47.36	
2025-01-10 02:01:03.73	327.33	47.40	
2025-01-10 02:01:03.94	327.21	47.44	
2025-01-10 02:01:04.14	327.09	47.47	
2025-01-10 02:01:04.35	326.96	47.51	
2025-01-10 02:01:04.55	326.84	47.55	
2025-01-10 02:01:04.76	326.71	47.59	
2025-01-10 02:01:04.96	326.59	47.63	
2025-01-10 02:01:05.17	326.46	47.67	
2025-01-10 02:01:05.37	326.34	47.71	
2025-01-10 02:01:05.58	326.21	47.75	
2025-01-10 02:01:05.78	326.08	47.79	
2025-01-10 02:01:05.99	325.95	47.83	
2025-01-10 02:01:06.19	325.83	47.86	
2025-01-10 02:01:06.40	325.70	47.90	
2025-01-10 02:01:06.60	325.58	47.94	
2025-01-10 02:01:06.81	325.44	47.98	
2025-01-10 02:01:07.01	325.32	48.02	
2025-01-10 02:01:07.22	325.19	48.05	
2025-01-10 02:01:07.42	325.06	48.09	
2025-01-10 02:01:07.63	324.93	48.13	
2025-01-10 02:01:07.84	324.80	48.17	
2025-01-10 02:01:08.05	324.66	48.21	
2025-01-10 02:01:08.26	324.53	48.24	
2025-01-10 02:01:08.48	324.39	48.28	
2025-01-10 02:01:08.68	324.26	48.32	
2025-01-10 02:01:08.89	324.13	48.36	
2025-01-10 02:01:09.11	323.99	48.40	
2025-01-10 02:01:09.31	323.86	48.43	
2025-01-10 02:01:09.52	323.72	48.47	
2025-01-10 02:01:09.72	323.59	48.50	
2025-01-10 02:01:09.93	323.46	48.54	
2025-01-10 02:01:10.14	323.32	48.58	
2025-01-10 02:01:10.35	323.18	48.61	
2025-01-10 02:01:10.56	323.05	48.65	
2025-01-10 02:01:10.76	322.92	48.69	
2025-01-10 02:01:10.97	322.78	48.72	
2025-01-10 02:01:11.17	322.65	48.76	
2025-01-10 02:01:11.38	322.51	48.79	
2025-01-10 02:01:11.59	322.37	48.83	
2025-01-10 02:01:11.79	322.24	48.86	
2025-01-10 02:01:12.00	322.10	48.90	
2025-01-10 02:01:12.20	321.96	48.93	
2025-01-10 02:01:12.40	321.83	48.96	
2025-01-10 02:01:12.61	321.69	49.00	
2025-01-10 02:01:12.82	321.55	49.03	
2025-01-10 02:01:13.02	321.42	49.07	
2025-01-10 02:01:13.23	321.27	49.10	
2025-01-10 02:01:13.43	321.14	49.14	
2025-01-10 02:01:13.64	321.00	49.17	
2025-01-10 02:01:13.84	320.86	49.20	
2025-01-10 02:01:14.05	320.72	49.24	
2025-01-10 02:01:14.26	320.58	49.27	
2025-01-10 02:01:14.46	320.44	49.30	
2025-01-10 02:01:14.67	320.30	49.34	
2025-01-10 02:01:14.87	320.16	49.37	
2025-01-10 02:01:15.08	320.02	49.40	
2025-01-10 02:01:15.28	319.88	49.43	
2025-01-10 02:01:15.49	319.73	49.46	
2025-01-10 02:01:15.69	319.60	49.50	
2025-01-10 02:01:15.90	319.45	49.53	
2025-01-10 02:01:16.10	319.31	49.56	
2025-01-10 02:01:16.31	319.17	49.59	
2025-01-10 02:01:16.51	319.03	49.62	
2025-01-10 02:01:16.72	318.88	49.65	
2025-01-10 02:01:16.92	318.74	49.68	
2025-01-10 02:01:17.13	318.59	49.72	
2025-01-10 02:01:17.34	318.45	49.75	
2025-01-10 02:01:17.54	318.31	49.78	
2025-01-10 02:01:17.74	318.16	49.81	
2025-01-10 02:01:17.95	318.02	49.84	
2025-01-10 02:01:18.16	317.87	49.87	
2025-01-10 02:01:18.36	317.73	49.90	
2025-01-10 02:01:18.57	317.58	49.93	
2025-01-10 02:01:18.78	317.43	49.96	
2025-01-10 02:01:18.99	317.28	49.99	
2025-01-10 02:01:19.19	317.13	50.01	
2025-01-10 02:01:19.40	316.98	50.04	
2025-01-10 02:01:19.61	316.83	50.07	
2025-01-10 02:01:19.81	316.69	50.10	
2025-01-10 02:01:20.02	316.54	50.13	
2025-01-10 02:01:20.22	316.39	50.16	
2025-01-10 02:01:20.43	316.24	50.19	
2025-01-10 02:01:20.64	316.09	50.21	
2025-01-10 02:01:20.84	315.94	50.24	
2025-01-10 02:01:21.05	315.79	50.27	
2025-01-10 02:01:21.25	315.65	50.30	
2025-01-10 02:01:21.46	315.49	50.32	
2025-01-10 02:01:21.66	315.35	50.35	
2025-01-10 02:01:21.87	315.19	50.38	
2025-01-10 02:01:22.08	315.04	50.40	
2025-01-10 02:01:22.28	314.89	50.43	
2025-01-10 02:01:22.49	314.74	50.46	
2025-01-10 02:01:22.69	314.59	50.48	
2025-01-10 02:01:22.90	314.43	50.51	
2025-01-10 02:01:23.10	314.29	50.53	
2025-01-10 02:01:23.31	314.13	50.56	
2025-01-10 02:01:23.52	313.97	50.58	
2025-01-10 02:01:23.72	313.83	50.61	
2025-01-10 02:01:23.93	313.67	50.63	
2025-01-10 02:01:24.13	313.52	50.66	
2025-01-10 02:01:24.34	313.36	50.68	
2025-01-10 02:01:24.54	313.21	50.71	
2025-01-10 02:01:24.75	313.05	50.73	
2025-01-10 02:01:24.95	312.90	50.75	
2025-01-10 02:01:25.16	312.75	50.78	
2025-01-10 02:01:25.36	312.60	50.80	
2025-01-10 02:01:25.57	312.44	50.82	
2025-01-10 02:01:25.78	312.28	50.85	
2025-01-10 02:01:25.99	312.12	50.87	
2025-01-10 02:01:26.19	311.97	50.89	
2025-01-10 02:01:26.40	311.81	50.91	
2025-01-10 02:01:26.61	311.65	50.94	
2025-01-10 02:01:26.81	311.50	50.96	
2025-01-10 02:01:27.02	311.34	50.98	
2025-01-10 02:01:27.22	311.18	51.00	
2025-01-10 02:01:27.43	311.02	51.02	
2025-01-10 02:01:27.63	310.87	51.04	
2025-01-10 02:01:27.84	310.71	51.06	
2025-01-10 02:01:28.05	310.55	51.08	
2025-01-10 02:01:28.25	310.39	51.10	
2025-01-10 02:01:28.47	310.22	51.13	
2025-01-10 02:01:28.67	310.07	51.15	
2025-01-10 02:01:28.88	309.91	51.17	
2025-01-10 02:01:29.09	309.74	51.18	
2025-01-10 02:01:29.29	309.59	51.20	
2025-01-10 02:01:29.50	309.43	51.22	
2025-01-10 02:01:29.70	309.27	51.24	
2025-01-10 02:01:29.91	309.11	51.26	
2025-01-10 02:01:30.11	308.95	51.28	
2025-01-10 02:01:30.32	308.79	51.30	
2025-01-10 02:01:30.52	308.63	51.31	
2025-01-10 02:01:30.73	308.47	51.33	
2025-01-10 02:01:30.93	308.31	51.35	
2025-01-10 02:01:31.14	308.15	51.37	
2025-01-10 02:01:31.34	307.99	51.38	
2025-01-10 02:01:31.54	307.83	51.40	
2025-01-10 02:01:31.75	307.67	51.42	
2025-01-10 02:01:31.96	307.50	51.43	
2025-01-10 02:01:32.16	307.34	51.45	
2025-01-10 02:01:32.37	307.18	51.46	
2025-01-10 02:01:32.57	307.02	51.48	
2025-01-10 02:01:32.78	306.85	51.49	
2025-01-10 02:01:32.98	306.70	51.51	
2025-01-10 02:01:33.19	306.53	51.52	
2025-01-10 02:01:33.39	306.37	51.54	
2025-01-10 02:01:33.60	306.20	51.55	
2025-01-10 02:01:33.80	306.05	51.57	
2025-01-10 02:01:34.01	305.88	51.58	
2025-01-10 02:01:34.21	305.72	51.59	
2025-01-10 02:01:34.42	305.55	51.61	
2025-01-10 02:01:34.62	305.39	51.62	
2025-01-10 02:01:34.83	305.23	51.63	
2025-01-10 02:01:35.03	305.07	51.65	
2025-01-10 02:01:35.24	304.90	51.66	
2025-01-10 02:01:35.44	304.74	51.67	
2025-01-10 02:01:35.65	304.57	51.68	
2025-01-10 02:01:35.85	304.41	51.69	
2025-01-10 02:01:36.06	304.24	51.71	
2025-01-10 02:01:36.26	304.08	51.72	
2025-01-10 02:01:36.47	303.91	51.73	
2025-01-10 02:01:36.67	303.75	51.74	
2025-01-10 02:01:36.88	303.58	51.75	
2025-01-10 02:01:37.08	303.42	51.76	
2025-01-10 02:01:37.29	303.25	51.77	
2025-01-10 02:01:37.49	303.09	51.78	
2025-01-10 02:01:37.70	302.92	51.79	
2025-01-10 02:01:37.91	302.75	51.80	
2025-01-10 02:01:38.11	302.59	51.81	
2025-01-10 02:01:38.32	302.42	51.82	
2025-01-10 02:01:38.52	302.26	51.83	
2025-01-10 02:01:38.73	302.09	51.83	
2025-01-10 02:01:38.93	301.93	51.84	
2025-01-10 02:01:39.14	301.76	51.85	
2025-01-10 02:01:39.34	301.59	51.86	
2025-01-10 02:01:39.55	301.42	51.86	
2025-01-10 02:01:39.76	301.25	51.87	
2025-01-10 02:01:39.96	301.09	51.88	
2025-01-10 02:01:40.16	300.93	51.88	
2025-01-10 02:01:40.37	300.76	51.89	
2025-01-10 02:01:40.58	300.59	51.90	
2025-01-10 02:01:40.78	300.42	51.90	
2025-01-10 02:01:40.99	300.25	51.91	
2025-01-10 02:01:41.21	300.07	51.91	
2025-01-10 02:01:41.42	299.90	51.92	
2025-01-10 02:01:41.62	299.74	51.92	
2025-01-10 02:01:41.83	299.57	51.93	
2025-01-10 02:01:42.03	299.41	51.93	
2025-01-10 02:01:42.24	299.24	51.94	
2025-01-10 02:01:42.45	299.06	51.94	
2025-01-10 02:01:42.66	298.89	51.94	
2025-01-10 02:01:42.86	298.73	51.95	
2025-01-10 02:01:43.06	298.57	51.95	
2025-01-10 02:01:43.26	298.40	51.95	
2025-01-10 02:01:43.47	298.23	51.96	
2025-01-10 02:01:43.67	298.07	51.96	
2025-01-10 02:01:43.88	297.90	51.96	
2025-01-10 02:01:44.09	297.73	51.96	
2025-01-10 02:01:44.29	297.56	51.96	
2025-01-10 02:01:44.50	297.39	51.96	
2025-01-10 02:01:44.70	297.23	51.97	
2025-01-10 02:01:44.91	297.06	51.97	
2025-01-10 02:01:45.11	296.89	51.97	
2025-01-10 02:01:45.32	296.72	51.97	
2025-01-10 02:01:45.52	296.56	51.97	
2025-01-10 02:01:45.73	296.39	51.97	
2025-01-10 02:01:45.93	296.22	51.97	
2025-01-10 02:01:46.14	296.05	51.97	
2025-01-10 02:01:46.34	295.89	51.96	
2025-01-10 02:01:46.56	295.71	51.96	
2025-01-10 02:01:46.77	295.54	51.96	
2025-01-10 02:01:46.97	295.37	51.96	
2025-01-10 02:01:47.18	295.20	51.96	
2025-01-10 02:01:47.38	295.04	51.96	
2025-01-10 02:01:47.60	294.86	51.95	
2025-01-10 02:01:47.81	294.69	51.95	
2025-01-10 02:01:48.01	294.52	51.95	
2025-01-10 02:01:48.22	294.35	51.94	
2025-01-10 02:01:48.42	294.19	51.94	
2025-01-10 02:01:48.64	294.01	51.94	
2025-01-10 02:01:48.85	293.84	51.93	
2025-01-10 02:01:49.05	293.68	51.93	
2025-01-10 02:01:49.26	293.50	51.92	
2025-01-10 02:01:49.46	293.34	51.92	
2025-01-10 02:01:49.67	293.17	51.91	
2025-01-10 02:01:49.87	293.01	51.91	
2025-01-10 02:01:50.08	292.84	51.90	
2025-01-10 02:01:50.28	292.67	51.90	
2025-01-10 02:01:50.49	292.50	51.89	
2025-01-10 02:01:50.69	292.34	51.88	
2025-01-10 02:01:50.89	292.18	51.88	
2025-01-10 02:01:51.10	292.01	51.87	
2025-01-10 02:01:51.31	291.84	51.86	
2025-01-10 02:01:51.51	291.68	51.86	
2025-01-10 02:01:51.72	291.51	51.85	
2025-01-10 02:01:51.92	291.34	51.84	
2025-01-10 02:01:52.13	291.17	51.83	
2025-01-10 02:01:52.33	291.01	51.82	
2025-01-10 02:01:52.54	290.84	51.81	
2025-01-10 02:01:52.74	290.68	51.81	
2025-01-10 02:01:52.95	290.51	51.80	
2025-01-10 02:01:53.15	290.35	51.79	
2025-01-10 02:01:53.36	290.18	51.78	
2025-01-10 02:01:53.56	290.02	51.77	
2025-01-10 02:01:53.77	289.85	51.76	
2025-01-10 02:01:53.99	289.67	51.75	
2025-01-10 02:01:54.19	289.51	51.74	
2025-01-10 02:01:54.40	289.34	51.73	
2025-01-10 02:01:54.61	289.17	51.71	
2025-01-10 02:01:54.81	289.01	51.70	
2025-01-10 02:01:55.02	288.84	51.69	
2025-01-10 02:01:55.22	288.68	51.68	
2025-01-10 02:01:55.43	288.51	51.67	
2025-01-10 02:01:55.64	288.35	51.65	
2025-01-10 02:01:55.84	288.19	51.64	
2025-01-10 02:01:56.04	288.03	51.63	
2025-01-10 02:01:56.25	287.86	51.62	
2025-01-10 02:01:56.46	287.69	51.60	
2025-01-10 02:01:56.66	287.53	51.59	
2025-01-10 02:01:56.87	287.37	51.58	
2025-01-10 02:01:57.07	287.21	51.56	
2025-01-10 02:01:57.27	287.05	51.55	
2025-01-10 02:01:57.48	286.88	51.53	
2025-01-10 02:01:57.69	286.71	51.52	
2025-01-10 02:01:57.89	286.56	51.50	
2025-01-10 02:01:58.09	286.40	51.49	
2025-01-10 02:01:58.31	286.22	51.47	
2025-01-10 02:01:58.52	286.06	51.46	
2025-01-10 02:01:58.72	285.90	51.44	
2025-01-10 02:01:58.93	285.73	51.43	
2025-01-10 02:01:59.13	285.58	51.41	
2025-01-10 02:01:59.35	285.40	51.39	
2025-01-10 02:01:59.56	285.24	51.37	
2025-01-10 02:01:59.76	285.08	51.36	
2025-01-10 02:01:59.97	284.92	51.34	
2025-01-10 02:02:00.17	284.76	51.32	
2025-01-10 02:02:00.38	284.60	51.31	
2025-01-10 02:02:00.58	284.44	51.29	
2025-01-10 02:02:00.79	284.28	51.27	
2025-01-10 02:02:00.99	284.12	51.25	
2025-01-10 02:02:01.20	283.96	51.23	
2025-01-10 02:02:01.40	283.80	51.21	
2025-01-10 02:02:01.61	283.64	51.19	
2025-01-10 02:02:01.81	283.48	51.18	
2025-01-10 02:02:02.02	283.32	51.16	
2025-01-10 02:02:02.22	283.17	51.14	
2025-01-10 02:02:02.43	283.00	51.12	
2025-01-10 02:02:02.63	282.85	51.10	
2025-01-10 02:02:02.84	282.69	51.08	
2025-01-10 02:02:03.04	282.53	51.06	
2025-01-10 02:02:03.25	282.37	51.03	
2025-01-10 02:02:03.45	282.22	51.01	
2025-01-10 02:02:03.66	282.06	50.99	
2025-01-10 02:02:03.86	281.91	50.97	
2025-01-10 02:02:04.07	281.75	50.95	
2025-01-10 02:02:04.28	281.59	50.93	
2025-01-10 02:02:04.48	281.43	50.91	
2025-01-10 02:02:04.69	281.27	50.88	
2025-01-10 02:02:04.89	281.12	50.86	
2025-01-10 02:02:05.10	280.96	50.84	
2025-01-10 02:02:05.31	280.80	50.81	
2025-01-10 02:02:05.51	280.65	50.79	
2025-01-10 02:02:05.71	280.50	50.77	
2025-01-10 02:02:05.92	280.34	50.74	
2025-01-10 02:02:06.12	280.19	50.72	
2025-01-10 02:02:06.33	280.04	50.70	
2025-01-10 02:02:06.54	279.88	50.67	
2025-01-10 02:02:06.76	279.71	50.65	
2025-01-10 02:02:06.96	279.56	50.62	
2025-01-10 02:02:07.17	279.41	50.60	
2025-01-10 02:02:07.37	279.26	50.57	
2025-01-10 02:02:07.58	279.10	50.55	
2025-01-10 02:02:07.78	278.95	50.52	
2025-01-10 02:02:07.99	278.80	50.50	
2025-01-10 02:02:08.19	278.65	50.47	
2025-01-10 02:02:08.40	278.50	50.44	
2025-01-10 02:02:08.61	278.34	50.42	
2025-01-10 02:02:08.81	278.19	50.39	
2025-01-10 02:02:09.02	278.04	50.36	
2025-01-10 02:02:09.22	277.89	50.34	
2025-01-10 02:02:09.43	277.74	50.31	
2025-01-10 02:02:09.63	277.59	50.28	
2025-01-10 02:02:09.84	277.44	50.26	
2025-01-10 02:02:10.04	277.29	50.23	
2025-01-10 02:02:10.25	277.14	50.20	
2025-01-10 02:02:10.45	277.00	50.17	
2025-01-10 02:02:10.66	276.84	50.15	
2025-01-10 02:02:10.88	276.69	50.11	
2025-01-10 02:02:11.10	276.53	50.08	
2025-01-10 02:02:11.30	276.38	50.06	
2025-01-10 02:02:11.51	276.23	50.03	
2025-01-10 02:02:11.72	276.08	50.00	
2025-01-10 02:02:11.92	275.94	49.97	
2025-01-10 02:02:12.12	275.80	49.94	
2025-01-10 02:02:12.33	275.65	49.91	
2025-01-10 02:02:12.54	275.50	49.88	
2025-01-10 02:02:12.74	275.35	49.85	
2025-01-10 02:02:12.95	275.21	49.82	
2025-01-10 02:02:13.15	275.06	49.79	
2025-01-10 02:02:13.36	274.92	49.76	
2025-01-10 02:02:13.56	274.78	49.73	
2025-01-10 02:02:13.77	274.63	49.70	
2025-01-10 02:02:13.97	274.49	49.67	
2025-01-10 02:02:14.18	274.34	49.64	
2025-01-10 02:02:14.38	274.20	49.61	
2025-01-10 02:02:14.59	274.05	49.57	
2025-01-10 02:02:14.80	273.91	49.54	
2025-01-10 02:02:15.00	273.77	49.51	
2025-01-10 02:02:15.21	273.62	49.48	
2025-01-10 02:02:15.41	273.49	49.45	
2025-01-10 02:02:15.62	273.34	49.41	
2025-01-10 02:02:15.82	273.20	49.38	
2025-01-10 02:02:16.03	273.06	49.35	
2025-01-10 02:02:16.23	272.92	49.32	
2025-01-10 02:02:16.44	272.78	49.28	
2025-01-10 02:02:16.64	272.64	49.25	
2025-01-10 02:02:16.85	272.50	49.22	
2025-01-10 02:02:17.05	272.36	49.18	
2025-01-10 02:02:17.26	272.22	49.15	
2025-01-10 02:02:17.46	272.09	49.12	
2025-01-10 02:02:17.67	271.94	49.08	
2025-01-10 02:02:17.87	271.81	49.05	
2025-01-10 02:02:18.08	271.67	49.01	
2025-01-10 02:02:18.28	271.53	48.98	
2025-01-10 02:02:18.49	271.39	48.95	
2025-01-10 02:02:18.69	271.26	48.91	
2025-01-10 02:02:18.90	271.12	48.88	
2025-01-10 02:02:19.10	270.99	48.84	
2025-01-10 02:02:19.31	270.85	48.81	
2025-01-10 02:02:19.51	270.72	48.77	
2025-01-10 02:02:19.72	270.58	48.74	
2025-01-10 02:02:19.92	270.45	48.70	
2025-01-10 02:02:20.13	270.31	48.67	
2025-01-10 02:02:20.33	270.18	48.63	
2025-01-10 02:02:20.54	270.04	48.59	
2025-01-10 02:02:20.74	269.91	48.56	
2025-01-10 02:02:20.95	269.77	48.52	
2025-01-10 02:02:21.15	269.64	48.49	
2025-01-10 02:02:21.36	269.51	48.45	
2025-01-10 02:02:21.56	269.38	48.41	
2025-01-10 02:02:21.77	269.24	48.38	
2025-01-10 02:02:21.97	269.12	48.34	
2025-01-10 02:02:22.18	268.98	48.30	
2025-01-10 02:02:22.38	268.85	48.27	
2025-01-10 02:02:22.59	268.72	48.23	
2025-01-10 02:02:22.80	268.59	48.19	
2025-01-10 02:02:23.01	268.45	48.15	
2025-01-10 02:02:23.21	268.33	48.12	
2025-01-10 02:02:23.42	268.19	48.08	
2025-01-10 02:02:23.62	268.07	48.04	
2025-01-10 02:02:23.84	267.93	48.00	
2025-01-10 02:02:24.04	267.80	47.96	
2025-01-10 02:02:24.25	267.67	47.92	
2025-01-10 02:02:24.45	267.55	47.89	
2025-01-10 02:02:24.66	267.42	47.85	
2025-01-10 02:02:24.86	267.29	47.81	
2025-01-10 02:02:25.07	267.16	47.77	
2025-01-10 02:02:25.27	267.04	47.73	
2025-01-10 02:02:25.48	266.91	47.69	
2025-01-10 02:02:25.69	266.78	47.65	
2025-01-10 02:02:25.89	266.66	47.61	
2025-01-10 02:02:26.10	266.53	47.57	
2025-01-10 02:02:26.30	266.41	47.54	
2025-01-10 02:02:26.51	266.28	47.50	
2025-01-10 02:02:26.71	266.16	47.46	
2025-01-10 02:02:26.92	266.03	47.42	
2025-01-10 02:02:27.12	265.91	47.38	
2025-01-10 02:02:27.33	265.78	47.34	
2025-01-10 02:02:27.53	265.66	47.30	
2025-01-10 02:02:27.74	265.54	47.26	
2025-01-10 02:02:27.94	265.42	47.22	
2025-01-10 02:02:28.16	265.29	47.17	
2025-01-10 02:02:28.36	265.17	47.14	
2025-01-10 02:02:28.57	265.04	47.09	
2025-01-10 02:02:28.78	264.92	47.05	
2025-01-10 02:02:28.98	264.80	47.01	
2025-01-10 02:02:29.19	264.68	46.97	
2025-01-10 02:02:29.39	264.56	46.93	
2025-01-10 02:02:29.60	264.44	46.89	
2025-01-10 02:02:29.80	264.32	46.85	
2025-01-10 02:02:30.01	264.20	46.81	
2025-01-10 02:02:30.21	264.08	46.77	
2025-01-10 02:02:30.42	263.96	46.72	
2025-01-10 02:02:30.62	263.85	46.68	
2025-01-10 02:02:30.83	263.73	46.64	
2025-01-10 02:02:31.04	263.61	46.60	
2025-01-10 02:02:31.24	263.49	46.56	
2025-01-10 02:02:31.44	263.38	46.52	
2025-01-10 02:02:31.65	263.26	46.48	
2025-01-10 02:02:31.86	263.14	46.43	
2025-01-10 02:02:32.06	263.03	46.39	
2025-01-10 02:02:32.27	262.91	46.35	
2025-01-10 02:02:32.47	262.79	46.31	
2025-01-10 02:02:32.68	262.68	46.26	
2025-01-10 02:02:32.88	262.56	46.22	
2025-01-10 02:02:33.09	262.45	46.18	
2025-01-10 02:02:33.29	262.34	46.14	
2025-01-10 02:02:33.49	262.22	46.10	
2025-01-10 02:02:33.70	262.11	46.05	
2025-01-10 02:02:33.91	261.99	46.01	
2025-01-10 02:02:34.11	261.88	45.97	
2025-01-10 02:02:34.32	261.77	45.92	
2025-01-10 02:02:34.52	261.66	45.88	
2025-01-10 02:02:34.73	261.54	45.84	
2025-01-10 02:02:34.93	261.43	45.80	
2025-01-10 02:02:35.14	261.32	45.75	
2025-01-10 02:02:35.35	261.21	45.71	
2025-01-10 02:02:35.56	261.09	45.66	
2025-01-10 02:02:35.77	260.98	45.62	
2025-01-10 02:02:35.97	260.87	45.58	
2025-01-10 02:02:36.18	260.76	45.53	
2025-01-10 02:02:36.39	260.65	45.49	
2025-01-10 02:02:36.59	260.54	45.44	
2025-01-10 02:02:36.80	260.43	45.40	
2025-01-10 02:02:37.00	260.32	45.36	
2025-01-10 02:02:37.21	260.21	45.31	
2025-01-10 02:02:37.41	260.11	45.27	
2025-01-10 02:02:37.62	260.00	45.22	
2025-01-10 02:02:37.82	259.89	45.18	
2025-01-10 02:02:38.03	259.78	45.14	
2025-01-10 02:02:38.23	259.68	45.09	
2025-01-10 02:02:38.44	259.57	45.05	
2025-01-10 02:02:38.64	259.46	45.00	
2025-01-10 02:02:38.84	259.36	44.96	
2025-01-10 02:02:39.05	259.25	44.92	
2025-01-10 02:02:39.26	259.15	44.87	
2025-01-10 02:02:39.46	259.04	44.83	
2025-01-10 02:02:39.67	258.94	44.78	
2025-01-10 02:02:39.89	258.82	44.73	
2025-01-10 02:02:40.09	258.72	44.69	
2025-01-10 02:02:40.30	258.62	44.64	
2025-01-10 02:02:40.50	258.52	44.60	
2025-01-10 02:02:40.71	258.41	44.55	
2025-01-10 02:02:40.91	258.31	44.51	
2025-01-10 02:02:41.12	258.20	44.47	
2025-01-10 02:02:41.32	258.10	44.42	
2025-01-10 02:02:41.53	258.00	44.38	
2025-01-10 02:02:41.73	257.90	44.33	
2025-01-10 02:02:41.94	257.80	44.29	
2025-01-10 02:02:42.14	257.70	44.24	
2025-01-10 02:02:42.35	257.59	44.19	
2025-01-10 02:02:42.55	257.50	44.15	
2025-01-10 02:02:42.76	257.39	44.10	
2025-01-10 02:02:42.96	257.30	44.06	
2025-01-10 02:02:43.17	257.19	44.01	
2025-01-10 02:02:43.37	257.10	43.97	
2025-01-10 02:02:43.58	257.00	43.92	
2025-01-10 02:02:43.79	256.89	43.88	
2025-01-10 02:02:43.99	256.80	43.83	
2025-01-10 02:02:44.20	256.70	43.79	
2025-01-10 02:02:44.40	256.60	43.74	
2025-01-10 02:02:44.62	256.50	43.69	
2025-01-10 02:02:44.83	256.40	43.65	
2025-01-10 02:02:45.03	256.30	43.60	
2025-01-10 02:02:45.24	256.20	43.55	
2025-01-10 02:02:45.44	256.11	43.51	
2025-01-10 02:02:45.65	256.01	43.46	
2025-01-10 02:02:45.85	255.92	43.42	
2025-01-10 02:02:46.06	255.82	43.37	
2025-01-10 02:02:46.28	255.72	43.32	
2025-01-10 02:02:46.48	255.62	43.28	
2025-01-10 02:02:46.69	255.53	43.23	
2025-01-10 02:02:46.90	255.43	43.18	
2025-01-10 02:02:47.10	255.34	43.14	
2025-01-10 02:02:47.30	255.25	43.09	
2025-01-10 02:02:47.51	255.15	43.05	
2025-01-10 02:02:47.72	255.06	43.00	
2025-01-10 02:02:47.92	254.96	42.95	
2025-01-10 02:02:48.13	254.87	42.91	
2025-01-10 02:02:48.33	254.78	42.86	
2025-01-10 02:02:48.54	254.68	42.81	
2025-01-10 02:02:48.74	254.59	42.77	
2025-01-10 02:02:48.95	254.50	42.72	
2025-01-10 02:02:49.16	254.41	42.68	
2025-01-10 02:02:49.36	254.32	42.63	
2025-01-10 02:02:49.58	254.22	42.58	
2025-01-10 02:02:49.79	254.13	42.53	
2025-01-10 02:02:49.99	254.04	42.49	
2025-01-10 02:02:50.20	253.95	42.44	
2025-01-10 02:02:50.41	253.85	42.39	
2025-01-10 02:02:50.61	253.77	42.35	
2025-01-10 02:02:50.81	253.68	42.30	
2025-01-10 02:02:51.02	253.59	42.26	
2025-01-10 02:02:51.23	253.50	42.21	
2025-01-10 02:02:51.43	253.41	42.16	
2025-01-10 02:02:51.63	253.32	42.12	
2025-01-10 02:02:51.84	253.23	42.07	
2025-01-10 02:02:52.04	253.15	42.02	
2025-01-10 02:02:52.25	253.06	41.98	
2025-01-10 02:02:52.46	252.97	41.93	
2025-01-10 02:02:52.66	252.88	41.88	
2025-01-10 02:02:52.86	252.80	41.84	
2025-01-10 02:02:53.07	252.71	41.79	
2025-01-10 02:02:53.28	252.62	41.74	
2025-01-10 02:02:53.48	252.54	41.70	
2025-01-10 02:02:53.69	252.45	41.65	
2025-01-10 02:02:53.89	252.37	41.60	
2025-01-10 02:02:54.10	252.28	41.56	
2025-01-10 02:02:54.30	252.20	41.51	
2025-01-10 02:02:54.51	252.11	41.46	
2025-01-10 02:02:54.71	252.03	41.42	
2025-01-10 02:02:54.92	251.94	41.37	
2025-01-10 02:02:55.13	251.86	41.32	
2025-01-10 02:02:55.33	251.77	41.28	
2025-01-10 02:02:55.54	251.69	41.23	
2025-01-10 02:02:55.74	251.61	41.18	
2025-01-10 02:02:55.95	251.52	41.14	
2025-01-10 02:02:56.15	251.44	41.09	
2025-01-10 02:02:56.36	251.36	41.04	
2025-01-10 02:02:56.56	251.28	41.00	
2025-01-10 02:02:56.77	251.19	40.95	
2025-01-10 02:02:56.97	251.11	40.90	
2025-01-10 02:02:57.18	251.03	40.86	
2025-01-10 02:02:57.38	250.95	40.81	
2025-01-10 02:02:57.59	250.87	40.76	
2025-01-10 02:02:57.79	250.79	40.72	
2025-01-10 02:02:58.00	250.70	40.67	
2025-01-10 02:02:58.20	250.63	40.62	
2025-01-10 02:02:58.41	250.54	40.58	
2025-01-10 02:02:58.62	250.46	40.53	
2025-01-10 02:02:58.82	250.38	40.48	
2025-01-10 02:02:59.03	250.30	40.44	
2025-01-10 02:02:59.23	250.23	40.39	
2025-01-10 02:02:59.44	250.14	40.34	
2025-01-10 02:02:59.64	250.07	40.30	
2025-01-10 02:02:59.85	249.99	40.25	
2025-01-10 02:03:00.06	249.91	40.20	
2025-01-10 02:03:00.27	249.83	40.15	
2025-01-10 02:03:00.48	249.75	40.11	
2025-01-10 02:03:00.69	249.67	40.06	
2025-01-10 02:03:00.89	249.59	40.01	
2025-01-10 02:03:01.10	249.51	39.96	
2025-01-10 02:03:01.30	249.44	39.92	
2025-01-10 02:03:01.51	249.36	39.87	
2025-01-10 02:03:01.71	249.29	39.83	
2025-01-10 02:03:01.92	249.21	39.78	
2025-01-10 02:03:02.12	249.13	39.73	
2025-01-10 02:03:02.34	249.05	39.68	
2025-01-10 02:03:02.55	248.97	39.64	
2025-01-10 02:03:02.75	248.90	39.59	
2025-01-10 02:03:02.96	248.82	39.54	
2025-01-10 02:03:03.16	248.75	39.50	
2025-01-10 02:03:03.36	248.68	39.45	
2025-01-10 02:03:03.57	248.60	39.40	
2025-01-10 02:03:03.78	248.53	39.36	
2025-01-10 02:03:03.98	248.45	39.31	
2025-01-10 02:03:04.19	248.38	39.26	
2025-01-10 02:03:04.39	248.31	39.22	
2025-01-10 02:03:04.60	248.23	39.17	
2025-01-10 02:03:04.80	248.16	39.12	
2025-01-10 02:03:05.01	248.09	39.08	
2025-01-10 02:03:05.22	248.01	39.03	
2025-01-10 02:03:05.42	247.94	38.98	
2025-01-10 02:03:05.63	247.87	38.94	
2025-01-10 02:03:05.83	247.80	38.89	
2025-01-10 02:03:06.04	247.72	38.84	
2025-01-10 02:03:06.25	247.65	38.80	
2025-01-10 02:03:06.45	247.58	38.75	
2025-01-10 02:03:06.66	247.51	38.70	
2025-01-10 02:03:06.86	247.44	38.66	
2025-01-10 02:03:07.07	247.36	38.61	
2025-01-10 02:03:07.28	247.29	38.56	
2025-01-10 02:03:07.48	247.22	38.52	
2025-01-10 02:03:07.70	247.15	38.47	
2025-01-10 02:03:07.90	247.08	38.42	
2025-01-10 02:03:08.11	247.01	38.38	
2025-01-10 02:03:08.31	246.94	38.33	
2025-01-10 02:03:08.52	246.87	38.29	
2025-01-10 02:03:08.72	246.80	38.24	
2025-01-10 02:03:08.93	246.73	38.19	
2025-01-10 02:03:09.14	246.66	38.15	
2025-01-10 02:03:09.34	246.59	38.10	
2025-01-10 02:03:09.55	246.52	38.05	
2025-01-10 02:03:09.75	246.46	38.01	
2025-01-10 02:03:09.96	246.39	37.96	
2025-01-10 02:03:10.16	246.32	37.92	
2025-01-10 02:03:10.37	246.25	37.87	
2025-01-10 02:03:10.58	246.18	37.82	
2025-01-10 02:03:10.78	246.12	37.78	
2025-01-10 02:03:10.98	246.05	37.73	
2025-01-10 02:03:11.19	245.98	37.69	
2025-01-10 02:03:11.40	245.92	37.64	
2025-01-10 02:03:11.60	245.85	37.59	
2025-01-10 02:03:11.81	245.78	37.55	
2025-01-10 02:03:12.01	245.72	37.50	
2025-01-10 02:03:12.22	245.65	37.46	
2025-01-10 02:03:12.42	245.59	37.41	
2025-01-10 02:03:12.63	245.52	37.36	
2025-01-10 02:03:12.83	245.46	37.32	
2025-01-10 02:03:13.05	245.39	37.27	
2025-01-10 02:03:13.26	245.32	37.22	
2025-01-10 02:03:13.46	245.26	37.18	
2025-01-10 02:03:13.67	245.19	37.13	
2025-01-10 02:03:13.87	245.13	37.09	
2025-01-10 02:03:14.08	245.06	37.04	
2025-01-10 02:03:14.28	245.00	37.00	
2025-01-10 02:03:14.49	244.93	36.95	
2025-01-10 02:03:14.69	244.87	36.91	
2025-01-10 02:03:14.90	244.81	36.86	
2025-01-10 02:03:15.10	244.75	36.82	
2025-01-10 02:03:15.30	244.68	36.77	
2025-01-10 02:03:15.51	244.62	36.73	
2025-01-10 02:03:15.72	244.55	36.68	
2025-01-10 02:03:15.92	244.49	36.64	
2025-01-10 02:03:16.13	244.43	36.59	
2025-01-10 02:03:16.33	244.37	36.54	
2025-01-10 02:03:16.54	244.31	36.50	
2025-01-10 02:03:16.74	244.25	36.45	
2025-01-10 02:03:16.95	244.18	36.41	
2025-01-10 02:03:17.16	244.12	36.36	
2025-01-10 02:03:17.36	244.06	36.32	
2025-01-10 02:03:17.57	244.00	36.27	
2025-01-10 02:03:17.77	243.94	36.23	
2025-01-10 02:03:17.98	243.88	36.18	
2025-01-10 02:03:18.18	243.82	36.14	
2025-01-10 02:03:18.40	243.75	36.09	
2025-01-10 02:03:18.61	243.69	36.04	
2025-01-10 02:03:18.81	243.63	36.00	
2025-01-10 02:03:19.02	243.57	35.95	
2025-01-10 02:03:19.23	243.51	35.91	
2025-01-10 02:03:19.44	243.45	35.86	
2025-01-10 02:03:19.65	243.39	35.82	
2025-01-10 02:03:19.86	243.33	35.77	
2025-01-10 02:03:20.06	243.27	35.73	
2025-01-10 02:03:20.27	243.21	35.68	
2025-01-10 02:03:20.47	243.15	35.64	
2025-01-10 02:03:20.68	243.09	35.59	
2025-01-10 02:03:20.88	243.03	35.55	
2025-01-10 02:03:21.09	242.97	35.50	
2025-01-10 02:03:21.30	242.91	35.46	
2025-01-10 02:03:21.50	242.86	35.41	
2025-01-10 02:03:21.70	242.80	35.37	
2025-01-10 02:03:21.91	242.74	35.33	
2025-01-10 02:03:22.11	242.69	35.28	
2025-01-10 02:03:22.32	242.63	35.24	
2025-01-10 02:03:22.52	242.57	35.19	
2025-01-10 02:03:22.73	242.51	35.15	
2025-01-10 02:03:22.93	242.46	35.11	
2025-01-10 02:03:23.14	242.40	35.06	
2025-01-10 02:03:23.34	242.35	35.02	
2025-01-10 02:03:23.55	242.29	34.97	
2025-01-10 02:03:23.75	242.23	34.93	
2025-01-10 02:03:23.96	242.18	34.88	
2025-01-10 02:03:24.16	242.12	34.84	
2025-01-10 02:03:24.37	242.06	34.80	
2025-01-10 02:03:24.57	242.01	34.75	
2025-01-10 02:03:24.78	241.95	34.71	
2025-01-10 02:03:24.98	241.90	34.66	
2025-01-10 02:03:25.19	241.84	34.62	
2025-01-10 02:03:25.40	241.79	34.58	
2025-01-10 02:03:25.60	241.73	34.53	
2025-01-10 02:03:25.81	241.68	34.49	
2025-01-10 02:03:26.01	241.63	34.45	
2025-01-10 02:03:26.22	241.57	34.40	
2025-01-10 02:03:26.42	241.52	34.36	
2025-01-10 02:03:26.63	241.46	34.31	
2025-01-10 02:03:26.83	241.41	34.27	
2025-01-10 02:03:27.05	241.35	34.22	
2025-01-10 02:03:27.26	241.30	34.18	
2025-01-10 02:03:27.46	241.24	34.14	
2025-01-10 02:03:27.67	241.19	34.09	
2025-01-10 02:03:27.87	241.14	34.05	
2025-01-10 02:03:28.08	241.08	34.01	
2025-01-10 02:03:28.28	241.03	33.96	
2025-01-10 02:03:28.49	240.98	33.92	
2025-01-10 02:03:28.69	240.93	33.88	
2025-01-10 02:03:28.90	240.87	33.83	
2025-01-10 02:03:29.12	240.82	33.79	
2025-01-10 02:03:29.32	240.77	33.74	
2025-01-10 02:03:29.53	240.71	33.70	
2025-01-10 02:03:29.73	240.66	33.66	
2025-01-10 02:03:29.94	240.61	33.61	
2025-01-10 02:03:30.14	240.56	33.57	
2025-01-10 02:03:30.35	240.51	33.53	
2025-01-10 02:03:30.56	240.45	33.48	
2025-01-10 02:03:30.77	240.40	33.44	
2025-01-10 02:03:30.98	240.35	33.40	
2025-01-10 02:03:31.18	240.30	33.36	
2025-01-10 02:03:31.39	240.25	33.31	
2025-01-10 02:03:31.59	240.20	33.27	
2025-01-10 02:03:31.80	240.15	33.23	
2025-01-10 02:03:32.00	240.10	33.18	
2025-01-10 02:03:32.21	240.05	33.14	
2025-01-10 02:03:32.41	240.00	33.10	
2025-01-10 02:03:32.62	239.95	33.06	
2025-01-10 02:03:32.82	239.90	33.01	
2025-01-10 02:03:33.03	239.85	32.97	
2025-01-10 02:03:33.23	239.80	32.93	
2025-01-10 02:03:33.44	239.75	32.89	
2025-01-10 02:03:33.65	239.70	32.84	
2025-01-10 02:03:33.85	239.65	32.80	
2025-01-10 02:03:34.06	239.60	32.76	
2025-01-10 02:03:34.26	239.55	32.72	
2025-01-10 02:03:34.47	239.50	32.67	
2025-01-10 02:03:34.67	239.46	32.63	
2025-01-10 02:03:34.88	239.41	32.59	
2025-01-10 02:03:35.09	239.36	32.55	
2025-01-10 02:03:35.29	239.31	32.51	
2025-01-10 02:03:35.50	239.26	32.46	
2025-01-10 02:03:35.70	239.21	32.42	
2025-01-10 02:03:35.91	239.17	32.38	
2025-01-10 02:03:36.11	239.12	32.34	
2025-01-10 02:03:36.32	239.07	32.30	
2025-01-10 02:03:36.52	239.02	32.26	
2025-01-10 02:03:36.73	238.98	32.21	
2025-01-10 02:03:36.93	238.93	32.17	
2025-01-10 02:03:37.14	238.88	32.13	
2025-01-10 02:03:37.35	238.83	32.09	
2025-01-10 02:03:37.56	238.79	32.04	
2025-01-10 02:03:37.76	238.74	32.00	
2025-01-10 02:03:37.97	238.69	31.96	
2025-01-10 02:03:38.17	238.65	31.92	
2025-01-10 02:03:38.38	238.60	31.88	
2025-01-10 02:03:38.59	238.55	31.84	
2025-01-10 02:03:38.79	238.51	31.80	
2025-01-10 02:03:39.00	238.46	31.75	
2025-01-10 02:03:39.20	238.42	31.71	
2025-01-10 02:03:39.41	238.37	31.67	
2025-01-10 02:03:39.61	238.33	31.63	
2025-01-10 02:03:39.82	238.28	31.59	
2025-01-10 02:03:40.02	238.23	31.55	
2025-01-10 02:03:40.23	238.19	31.51	
2025-01-10 02:03:40.43	238.14	31.47	
2025-01-10 02:03:40.64	238.10	31.43	
2025-01-10 02:03:40.84	238.05	31.39	
2025-01-10 02:03:41.06	238.01	31.34	
2025-01-10 02:03:41.26	237.96	31.30	
2025-01-10 02:03:41.47	237.92	31.26	
2025-01-10 02:03:41.68	237.87	31.22	
2025-01-10 02:03:41.88	237.83	31.18	
2025-01-10 02:03:42.08	237.79	31.14	
2025-01-10 02:03:42.29	237.74	31.10	
2025-01-10 02:03:42.49	237.70	31.06	
2025-01-10 02:03:42.70	237.65	31.02	
2025-01-10 02:03:42.90	237.61	30.98	
2025-01-10 02:03:43.10	237.57	30.94	
2025-01-10 02:03:43.31	237.52	30.90	
2025-01-10 02:03:43.52	237.48	30.86	
2025-01-10 02:03:43.72	237.44	30.82	
2025-01-10 02:03:43.93	237.39	30.78	
2025-01-10 02:03:44.13	237.35	30.74	
2025-01-10 02:03:44.34	237.31	30.69	
2025-01-10 02:03:44.54	237.27	30.66	
2025-01-10 02:03:44.75	237.22	30.61	
2025-01-10 02:03:44.95	237.18	30.58	
2025-01-10 02:03:45.16	237.14	30.53	
2025-01-10 02:03:45.37	237.09	30.49	
2025-01-10 02:03:45.57	237.05	30.45	
2025-01-10 02:03:45.78	237.01	30.41	
2025-01-10 02:03:45.98	236.97	30.37	
2025-01-10 02:03:46.20	236.92	30.33	
2025-01-10 02:03:46.40	236.88	30.29	
2025-01-10 02:03:46.61	236.84	30.25	
2025-01-10 02:03:46.82	236.80	30.21	
2025-01-10 02:03:47.02	236.76	30.17	
2025-01-10 02:03:47.23	236.72	30.13	
2025-01-10 02:03:47.43	236.68	30.09	
2025-01-10 02:03:47.64	236.63	30.05	
2025-01-10 02:03:47.84	236.59	30.02	
2025-01-10 02:03:48.05	236.55	29.98	
2025-01-10 02:03:48.25	236.51	29.94	
2025-01-10 02:03:48.46	236.47	29.90	
2025-01-10 02:03:48.66	236.43	29.86	
2025-01-10 02:03:48.87	236.39	29.82	
2025-01-10 02:03:49.07	236.35	29.78	
2025-01-10 02:03:49.28	236.31	29.74	
2025-01-10 02:03:49.48	236.27	29.70	
2025-01-10 02:03:49.69	236.23	29.66	
2025-01-10 02:03:49.89	236.19	29.62	
2025-01-10 02:03:50.10	236.15	29.58	
2025-01-10 02:03:50.31	236.11	29.54	
2025-01-10 02:03:50.51	236.07	29.51	
2025-01-10 02:03:50.71	236.03	29.47	
2025-01-10 02:03:50.92	235.99	29.43	
2025-01-10 02:03:51.12	235.95	29.39	
2025-01-10 02:03:51.33	235.91	29.35	
2025-01-10 02:03:51.54	235.87	29.31	
2025-01-10 02:03:51.74	235.83	29.27	
2025-01-10 02:03:51.95	235.79	29.23	
2025-01-10 02:03:52.15	235.75	29.20	
2025-01-10 02:03:52.36	235.71	29.16	
2025-01-10 02:03:52.56	235.68	29.12	
2025-01-10 02:03:52.77	235.64	29.08	
2025-01-10 02:03:52.97	235.60	29.04	
2025-01-10 02:03:53.18	235.56	29.00	
2025-01-10 02:03:53.38	235.52	28.97	
2025-01-10 02:03:53.59	235.48	28.93	
2025-01-10 02:03:53.79	235.45	28.89	
2025-01-10 02:03:54.00	235.41	28.85	
2025-01-10 02:03:54.20	235.37	28.81	
2025-01-10 02:03:54.41	235.33	28.77	
2025-01-10 02:03:54.61	235.30	28.74	
2025-01-10 02:03:54.81	235.26	28.70	
2025-01-10 02:03:55.02	235.22	28.66	
2025-01-10 02:03:55.22	235.18	28.62	
2025-01-10 02:03:55.43	235.15	28.58	
2025-01-10 02:03:55.64	235.11	28.55	
2025-01-10 02:03:55.84	235.07	28.51	
2025-01-10 02:03:56.05	235.03	28.47	
2025-01-10 02:03:56.25	235.00	28.43	
2025-01-10 02:03:56.46	234.96	28.39	
2025-01-10 02:03:56.67	234.92	28.36	
2025-01-10 02:03:56.87	234.89	28.32	
2025-01-10 02:03:57.08	234.85	28.28	
2025-01-10 02:03:57.28	234.81	28.24	
2025-01-10 02:03:57.49	234.77	28.21	
2025-01-10 02:03:57.69	234.74	28.17	
2025-01-10 02:03:57.90	234.70	28.13	
2025-01-10 02:03:58.10	234.67	28.09	
2025-01-10 02:03:58.31	234.63	28.06	
2025-01-10 02:03:58.51	234.59	28.02	
2025-01-10 02:03:58.72	234.56	27.98	
2025-01-10 02:03:58.92	234.52	27.95	
2025-01-10 02:03:59.13	234.49	27.91	
2025-01-10 02:03:59.33	234.45	27.87	
2025-01-10 02:03:59.54	234.42	27.83	
2025-01-10 02:03:59.74	234.38	27.80	
2025-01-10 02:03:59.95	234.34	27.76	
2025-01-10 02:04:00.16	234.31	27.72	
2025-01-10 02:04:00.37	234.27	27.68	
2025-01-10 02:04:00.58	234.24	27.65	
2025-01-10 02:04:00.78	234.20	27.61	
2025-01-10 02:04:00.99	234.17	27.57	
2025-01-10 02:04:01.19	234.13	27.54	
2025-01-10 02:04:01.40	234.10	27.50	
2025-01-10 02:04:01.61	234.06	27.46	
2025-01-10 02:04:01.81	234.03	27.43	
2025-01-10 02:04:02.02	233.99	27.39	
2025-01-10 02:04:02.24	233.95	27.35	
2025-01-10 02:04:02.44	233.92	27.31	
2025-01-10 02:04:02.65	233.89	27.28	
2025-01-10 02:04:02.85	233.85	27.24	
2025-01-10 02:04:03.06	233.82	27.20	
2025-01-10 02:04:03.26	233.78	27.17	
2025-01-10 02:04:03.47	233.75	27.13	
2025-01-10 02:04:03.68	233.71	27.09	
2025-01-10 02:04:03.88	233.68	27.06	
2025-01-10 02:04:04.09	233.65	27.02	
2025-01-10 02:04:04.29	233.61	26.99	
2025-01-10 02:04:04.50	233.58	26.95	
2025-01-10 02:04:04.70	233.55	26.91	
2025-01-10 02:04:04.91	233.51	26.88	
2025-01-10 02:04:05.11	233.48	26.84	
2025-01-10 02:04:05.32	233.45	26.81	
2025-01-10 02:04:05.52	233.41	26.77	
2025-01-10 02:04:05.73	233.38	26.73	
2025-01-10 02:04:05.93	233.35	26.70	
2025-01-10 02:04:06.14	233.31	26.66	
2025-01-10 02:04:06.34	233.28	26.63	
2025-01-10 02:04:06.56	233.25	26.59	
2025-01-10 02:04:06.77	233.21	26.55	
2025-01-10 02:04:06.97	233.18	26.52	
2025-01-10 02:04:07.18	233.15	26.48	
2025-01-10 02:04:07.38	233.12	26.45	
2025-01-10 02:04:07.59	233.08	26.41	
2025-01-10 02:04:07.79	233.05	26.38	
2025-01-10 02:04:08.00	233.02	26.34	
2025-01-10 02:04:08.20	232.99	26.31	
2025-01-10 02:04:08.41	232.95	26.27	
2025-01-10 02:04:08.61	232.92	26.23	
2025-01-10 02:04:08.82	232.89	26.20	
2025-01-10 02:04:09.02	232.86	26.16	
2025-01-10 02:04:09.23	232.83	26.13	
2025-01-10 02:04:09.43	232.80	26.09	
2025-01-10 02:04:09.64	232.76	26.06	
2025-01-10 02:04:09.84	232.73	26.02	
2025-01-10 02:04:10.05	232.70	25.99	
2025-01-10 02:04:10.26	232.67	25.95	
2025-01-10 02:04:10.46	232.64	25.92	
2025-01-10 02:04:10.67	232.61	25.88	
2025-01-10 02:04:10.87	232.58	25.85	
2025-01-10 02:04:11.08	232.54	25.81	
2025-01-10 02:04:11.28	232.51	25.78	
2025-01-10 02:04:11.49	232.48	25.74	
2025-01-10 02:04:11.69	232.45	25.71	
2025-01-10 02:04:11.90	232.42	25.67	
2025-01-10 02:04:12.10	232.39	25.64	
2025-01-10 02:04:12.31	232.36	25.61	
2025-01-10 02:04:12.51	232.33	25.57	
2025-01-10 02:04:12.72	232.30	25.54	
2025-01-10 02:04:12.92	232.27	25.50	
2025-01-10 02:04:13.13	232.24	25.47	
2025-01-10 02:04:13.34	232.21	25.43	
2025-01-10 02:04:13.55	232.17	25.40	
2025-01-10 02:04:13.76	232.14	25.36	
2025-01-10 02:04:13.96	232.11	25.33	
2025-01-10 02:04:14.17	232.08	25.29	
2025-01-10 02:04:14.37	232.05	25.26	
2025-01-10 02:04:14.58	232.02	25.23	
2025-01-10 02:04:14.78	231.99	25.19	
2025-01-10 02:04:14.99	231.96	25.16	
2025-01-10 02:04:15.20	231.93	25.12	
2025-01-10 02:04:15.40	231.90	25.09	
2025-01-10 02:04:15.61	231.87	25.05	
2025-01-10 02:04:15.81	231.85	25.02	
2025-01-10 02:04:16.02	231.81	24.99	
2025-01-10 02:04:16.22	231.79	24.95	
2025-01-10 02:04:16.43	231.76	24.92	
2025-01-10 02:04:16.63	231.73	24.89	
2025-01-10 02:04:16.84	231.70	24.85	
2025-01-10 02:04:17.04	231.67	24.82	
2025-01-10 02:04:17.25	231.64	24.78	
2025-01-10 02:04:17.45	231.61	24.75	
2025-01-10 02:04:17.66	231.58	24.72	
2025-01-10 02:04:17.86	231.55	24.68	
2025-01-10 02:04:18.06	231.53	24.65	
2025-01-10 02:04:18.27	231.50	24.62	
2025-01-10 02:04:18.47	231.47	24.59	
2025-01-10 02:04:18.68	231.44	24.55	
2025-01-10 02:04:18.89	231.41	24.52	
2025-01-10 02:04:19.09	231.38	24.48	
2025-01-10 02:04:19.29	231.35	24.45	
2025-01-10 02:04:19.50	231.32	24.42	
2025-01-10 02:04:19.71	231.30	24.38	
2025-01-10 02:04:19.91	231.27	24.35	
2025-01-10 02:04:20.12	231.24	24.32	
2025-01-10 02:04:20.32	231.21	24.29	
2025-01-10 02:04:20.53	231.18	24.25	
2025-01-10 02:04:20.74	231.15	24.22	
2025-01-10 02:04:20.94	231.13	24.19	
2025-01-10 02:04:21.15	231.10	24.15	
2025-01-10 02:04:21.35	231.07	24.12	
2025-01-10 02:04:21.57	231.04	24.09	
2025-01-10 02:04:21.78	231.01	24.05	
2025-01-10 02:04:21.98	230.99	24.02	
2025-01-10 02:04:22.19	230.96	23.99	
2025-01-10 02:04:22.39	230.93	23.95	
2025-01-10 02:04:22.60	230.90	23.92	
2025-01-10 02:04:22.80	230.88	23.89	
2025-01-10 02:04:23.01	230.85	23.86	
2025-01-10 02:04:23.22	230.82	23.82	
2025-01-10 02:04:23.42	230.79	23.79	
2025-01-10 02:04:23.63	230.77	23.76	
2025-01-10 02:04:23.83	230.74	23.73	
2025-01-10 02:04:24.03	230.71	23.69	
2025-01-10 02:04:24.24	230.69	23.66	
2025-01-10 02:04:24.45	230.66	23.63	
2025-01-10 02:04:24.65	230.63	23.60	
2025-01-10 02:04:24.86	230.61	23.56	
2025-01-10 02:04:25.06	230.58	23.53	
2025-01-10 02:04:25.27	230.55	23.50	
2025-01-10 02:04:25.47	230.53	23.47	
2025-01-10 02:04:25.68	230.50	23.44	
2025-01-10 02:04:25.88	230.47	23.40	
2025-01-10 02:04:26.09	230.45	23.37	
2025-01-10 02:04:26.30	230.42	23.34	
2025-01-10 02:04:26.50	230.39	23.31	
2025-01-10 02:04:26.70	230.37	23.28	
2025-01-10 02:04:26.91	230.34	23.24	
2025-01-10 02:04:27.11	230.32	23.21	
2025-01-10 02:04:27.32	230.29	23.18	
2025-01-10 02:04:27.52	230.26	23.15	
2025-01-10 02:04:27.73	230.24	23.12	
2025-01-10 02:04:27.93	230.21	23.09	
2025-01-10 02:04:28.14	230.19	23.05	
2025-01-10 02:04:28.34	230.16	23.02	
2025-01-10 02:04:28.55	230.13	22.99	
2025-01-10 02:04:28.76	230.11	22.96	
2025-01-10 02:04:28.96	230.08	22.93	
2025-01-10 02:04:29.16	230.06	22.90	
2025-01-10 02:04:29.37	230.03	22.86	
2025-01-10 02:04:29.58	230.01	22.83	
2025-01-10 02:04:29.78	229.98	22.80	
2025-01-10 02:04:29.99	229.95	22.77	
2025-01-10 02:04:30.19	229.93	22.74	
2025-01-10 02:04:30.40	229.90	22.71	
2025-01-10 02:04:30.60	229.88	22.68	
2025-01-10 02:04:30.81	229.85	22.64	
2025-01-10 02:04:31.01	229.83	22.61	
2025-01-10 02:04:31.22	229.80	22.58	
2025-01-10 02:04:31.43	229.78	22.55	
2025-01-10 02:04:31.63	229.75	22.52	
2025-01-10 02:04:31.84	229.73	22.49	
2025-01-10 02:04:32.04	229.70	22.46	
2025-01-10 02:04:32.25	229.68	22.43	
2025-01-10 02:04:32.45	229.65	22.40	
2025-01-10 02:04:32.66	229.63	22.36	
2025-01-10 02:04:32.87	229.60	22.33	
2025-01-10 02:04:33.07	229.58	22.30	
2025-01-10 02:04:33.27	229.56	22.27	
2025-01-10 02:04:33.48	229.53	22.24	
2025-01-10 02:04:33.69	229.51	22.21	
2025-01-10 02:04:33.89	229.48	22.18	
2025-01-10 02:04:34.10	229.46	22.15	
2025-01-10 02:04:34.30	229.43	22.12	
2025-01-10 02:04:34.51	229.41	22.09	
2025-01-10 02:04:34.71	229.39	22.06	
2025-01-10 02:04:34.92	229.36	22.03	
2025-01-10 02:04:35.12	229.34	22.00	
2025-01-10 02:04:35.33	229.31	21.97	
2025-01-10 02:04:35.53	229.29	21.94	
2025-01-10 02:04:35.74	229.27	21.91	
2025-01-10 02:04:35.94	229.24	21.88	
2025-01-10 02:04:36.15	229.22	21.85	
2025-01-10 02:04:36.35	229.19	21.82	
2025-01-10 02:04:36.56	229.17	21.78	
2025-01-10 02:04:36.76	229.15	21.76	
2025-01-10 02:04:36.97	229.12	21.72	
2025-01-10 02:04:37.18	229.10	21.69	
2025-01-10 02:04:37.38	229.08	21.66	
2025-01-10 02:04:37.59	229.05	21.63	
2025-01-10 02:04:37.79	229.03	21.60	
2025-01-10 02:04:38.00	229.01	21.57	
2025-01-10 02:04:38.20	228.98	21.54	
2025-01-10 02:04:38.41	228.96	21.51	
2025-01-10 02:04:38.61	228.94	21.48	
2025-01-10 02:04:38.82	228.91	21.45	
2025-01-10 02:04:39.02	228.89	21.42	
2025-01-10 02:04:39.23	228.87	21.39	
2025-01-10 02:04:39.44	228.84	21.36	
2025-01-10 02:04:39.64	228.82	21.33	
2025-01-10 02:04:39.85	228.80	21.30	
2025-01-10 02:04:40.05	228.77	21.28	
2025-01-10 02:04:40.26	228.75	21.25	
2025-01-10 02:04:40.47	228.73	21.22	
2025-01-10 02:04:40.68	228.70	21.18	
2025-01-10 02:04:40.88	228.68	21.16	
2025-01-10 02:04:41.09	228.66	21.13	
2025-01-10 02:04:41.29	228.64	21.10	
2025-01-10 02:04:41.50	228.61	21.07	
2025-01-10 02:04:41.70	228.59	21.04	
2025-01-10 02:04:41.91	228.57	21.01	
2025-01-10 02:04:42.11	228.55	20.98	
2025-01-10 02:04:42.32	228.52	20.95	
2025-01-10 02:04:42.53	228.50	20.92	
2025-01-10 02:04:42.73	228.48	20.89	
2025-01-10 02:04:42.93	228.46	20.86	
2025-01-10 02:04:43.14	228.44	20.83	
2025-01-10 02:04:43.34	228.41	20.80	
2025-01-10 02:04:43.55	228.39	20.77	
2025-01-10 02:04:43.76	228.37	20.75	
2025-01-10 02:04:43.96	228.35	20.72	
2025-01-10 02:04:44.17	228.32	20.69	
2025-01-10 02:04:44.37	228.30	20.66	
2025-01-10 02:04:44.58	228.28	20.63	
2025-01-10 02:04:44.78	228.26	20.60	
2025-01-10 02:04:44.99	228.24	20.57	
2025-01-10 02:04:45.19	228.22	20.54	
2025-01-10 02:04:45.40	228.19	20.51	
2025-01-10 02:04:45.60	228.17	20.49	
2025-01-10 02:04:45.81	228.15	20.46	
2025-01-10 02:04:46.01	228.13	20.43	
2025-01-10 02:04:46.22	228.11	20.40	
2025-01-10 02:04:46.42	228.09	20.37	
2025-01-10 02:04:46.63	228.06	20.34	
2025-01-10 02:04:46.84	228.04	20.31	
2025-01-10 02:04:47.05	228.02	20.28	
2025-01-10 02:04:47.26	228.00	20.25	
2025-01-10 02:04:47.46	227.98	20.23	
2025-01-10 02:04:47.67	227.96	20.20	
2025-01-10 02:04:47.87	227.94	20.17	
2025-01-10 02:04:48.08	227.91	20.14	
2025-01-10 02:04:48.28	227.89	20.11	
2025-01-10 02:04:48.49	227.87	20.08	
2025-01-10 02:04:48.69	227.85	20.06	
2025-01-10 02:04:48.90	227.83	20.03	
2025-01-10 02:04:49.10	227.81	20.00	
2025-01-10 02:04:49.31	227.79	19.97	
2025-01-10 02:04:49.51	227.77	19.94	
2025-01-10 02:04:49.72	227.75	19.91	
2025-01-10 02:04:49.93	227.73	19.89	
2025-01-10 02:04:50.13	227.71	19.86	
2025-01-10 02:04:50.33	227.69	19.83	
2025-01-10 02:04:50.54	227.66	19.80	
2025-01-10 02:04:50.75	227.64	19.77	
2025-01-10 02:04:50.95	227.62	19.75	
2025-01-10 02:04:51.16	227.60	19.72	
2025-01-10 02:04:51.36	227.58	19.69	
2025-01-10 02:04:51.57	227.56	19.66	
2025-01-10 02:04:51.78	227.54	19.63	
2025-01-10 02:04:51.98	227.52	19.61	
2025-01-10 02:04:52.19	227.50	19.58	
2025-01-10 02:04:52.39	227.48	19.55	
2025-01-10 02:04:52.60	227.46	19.52	
2025-01-10 02:04:52.80	227.44	19.50	
2025-01-10 02:04:53.01	227.42	19.47	
2025-01-10 02:04:53.21	227.40	19.44	
2025-01-10 02:04:53.42	227.38	19.41	
2025-01-10 02:04:53.62	227.36	19.39	
2025-01-10 02:04:53.83	227.34	19.36	
2025-01-10 02:04:54.03	227.32	19.33	
2025-01-10 02:04:54.24	227.30	19.30	
2025-01-10 02:04:54.44	227.28	19.28	
2025-01-10 02:04:54.65	227.26	19.25	
2025-01-10 02:04:54.85	227.24	19.22	
2025-01-10 02:04:55.06	227.22	19.19	
2025-01-10 02:04:55.26	227.20	19.17	
2025-01-10 02:04:55.47	227.18	19.14	
2025-01-10 02:04:55.68	227.16	19.11	
2025-01-10 02:04:55.88	227.14	19.08	
2025-01-10 02:04:56.09	227.12	19.06	
2025-01-10 02:04:56.29	227.10	19.03	
2025-01-10 02:04:56.50	227.08	19.00	
2025-01-10 02:04:56.70	227.06	18.98	
2025-01-10 02:04:56.91	227.04	18.95	
2025-01-10 02:04:57.12	227.02	18.92	
2025-01-10 02:04:57.32	227.00	18.89	
2025-01-10 02:04:57.53	226.98	18.87	
2025-01-10 02:04:57.74	226.96	18.84	
2025-01-10 02:04:57.95	226.94	18.81	
2025-01-10 02:04:58.16	226.93	18.78	
2025-01-10 02:04:58.36	226.91	18.76	
2025-01-10 02:04:58.57	226.89	18.73	
2025-01-10 02:04:58.77	226.87	18.70	
2025-01-10 02:04:58.98	226.85	18.68	
2025-01-10 02:04:59.18	226.83	18.65	
2025-01-10 02:04:59.39	226.81	18.62	
2025-01-10 02:04:59.59	226.79	18.60	
2025-01-10 02:04:59.80	226.77	18.57	
2025-01-10 02:05:00.00	226.75	18.54	
2025-01-10 02:05:00.20	226.74	18.52	
2025-01-10 02:05:00.41	226.72	18.49	
