passes_logs/2025/01/10/SPB_Silybum_02/SPB_Silybum_02__20250110_033348_AQUA_rec.log

#Pass ID: 20250110_033348_AQUA
#Satellite: AQUA
#Configuration: AQUA
#Start time: 2025-01-10 03:36:38

#Version: 2.0.20230423
#Station: SPB_Silybum_02
#Location: 30.233357 lon 59.946436 lat
#TLE: 1 27424U 02022A   25009.18250328  .00001819  00000+0  38344-3 0  9993
#TLE: 2 27424  98.3576 325.7944 0001512 117.4139 299.3627 14.60660146206772

#Time	Az	El	Level	Level2	SNR	BER	Gain	Gain2
2025-01-10 03:36:40.96	342.56	13.34	
2025-01-10 03:36:41.16	342.52	13.35	
2025-01-10 03:36:41.37	342.47	13.36	
2025-01-10 03:36:41.57	342.43	13.37	
2025-01-10 03:36:41.78	342.38	13.38	
2025-01-10 03:36:41.99	342.34	13.39	
2025-01-10 03:36:42.19	342.30	13.40	
2025-01-10 03:36:42.41	342.25	13.41	
2025-01-10 03:36:42.62	342.21	13.42	
2025-01-10 03:36:42.82	342.17	13.42	
2025-01-10 03:36:43.02	342.12	13.43	
2025-01-10 03:36:43.23	342.08	13.44	
2025-01-10 03:36:43.43	342.04	13.45	
2025-01-10 03:36:43.64	341.99	13.46	
2025-01-10 03:36:43.84	341.95	13.47	
2025-01-10 03:36:44.05	341.90	13.48	
2025-01-10 03:36:44.25	341.86	13.49	
2025-01-10 03:36:44.46	341.82	13.50	
2025-01-10 03:36:44.67	341.77	13.50	
2025-01-10 03:36:44.87	341.73	13.51	
2025-01-10 03:36:45.08	341.69	13.52	
2025-01-10 03:36:45.28	341.64	13.53	
2025-01-10 03:36:45.49	341.60	13.54	
2025-01-10 03:36:45.69	341.56	13.55	
2025-01-10 03:36:45.89	341.51	13.56	
2025-01-10 03:36:46.10	341.47	13.57	
2025-01-10 03:36:46.31	341.42	13.57	
2025-01-10 03:36:46.51	341.38	13.58	
2025-01-10 03:36:46.72	341.34	13.59	
2025-01-10 03:36:46.92	341.29	13.60	
2025-01-10 03:36:47.13	341.25	13.61	
2025-01-10 03:36:47.33	341.20	13.62	
2025-01-10 03:36:47.54	341.16	13.63	
2025-01-10 03:36:47.74	341.12	13.64	
2025-01-10 03:36:47.95	341.07	13.64	
2025-01-10 03:36:48.15	341.03	13.65	
2025-01-10 03:36:48.36	340.98	13.66	
2025-01-10 03:36:48.57	340.94	13.67	
2025-01-10 03:36:48.78	340.89	13.68	
2025-01-10 03:36:48.99	340.85	13.69	
2025-01-10 03:36:49.19	340.81	13.70	
2025-01-10 03:36:49.40	340.76	13.71	
2025-01-10 03:36:49.60	340.72	13.71	
2025-01-10 03:36:49.81	340.67	13.72	
2025-01-10 03:36:50.01	340.63	13.73	
2025-01-10 03:36:50.22	340.58	13.74	
2025-01-10 03:36:50.43	340.54	13.75	
2025-01-10 03:36:50.63	340.49	13.76	
2025-01-10 03:36:50.83	340.45	13.77	
2025-01-10 03:36:51.03	340.41	13.77	
2025-01-10 03:36:51.25	340.36	13.78	
2025-01-10 03:36:51.45	340.32	13.79	
2025-01-10 03:36:51.66	340.27	13.80	
2025-01-10 03:36:51.86	340.23	13.81	
2025-01-10 03:36:52.07	340.18	13.82	
2025-01-10 03:36:52.27	340.14	13.82	
2025-01-10 03:36:52.48	340.09	13.83	
2025-01-10 03:36:52.68	340.05	13.84	
2025-01-10 03:36:52.89	340.00	13.85	
2025-01-10 03:36:53.09	339.96	13.86	
2025-01-10 03:36:53.30	339.91	13.87	
2025-01-10 03:36:53.50	339.87	13.87	
2025-01-10 03:36:53.71	339.82	13.88	
2025-01-10 03:36:53.91	339.78	13.89	
2025-01-10 03:36:54.12	339.73	13.90	
2025-01-10 03:36:54.33	339.69	13.91	
2025-01-10 03:36:54.53	339.64	13.92	
2025-01-10 03:36:54.74	339.60	13.92	
2025-01-10 03:36:54.94	339.55	13.93	
2025-01-10 03:36:55.15	339.51	13.94	
2025-01-10 03:36:55.35	339.46	13.95	
2025-01-10 03:36:55.56	339.42	13.96	
2025-01-10 03:36:55.76	339.37	13.97	
2025-01-10 03:36:55.97	339.33	13.97	
2025-01-10 03:36:56.19	339.28	13.98	
2025-01-10 03:36:56.39	339.24	13.99	
2025-01-10 03:36:56.60	339.19	14.00	
2025-01-10 03:36:56.80	339.14	14.01	
2025-01-10 03:36:57.01	339.10	14.01	
2025-01-10 03:36:57.21	339.05	14.02	
2025-01-10 03:36:57.41	339.01	14.03	
2025-01-10 03:36:57.62	338.96	14.04	
2025-01-10 03:36:57.83	338.92	14.05	
2025-01-10 03:36:58.03	338.87	14.05	
2025-01-10 03:36:58.24	338.83	14.06	
2025-01-10 03:36:58.44	338.78	14.07	
2025-01-10 03:36:58.64	338.74	14.08	
2025-01-10 03:36:58.85	338.69	14.09	
2025-01-10 03:36:59.06	338.64	14.09	
2025-01-10 03:36:59.26	338.60	14.10	
2025-01-10 03:36:59.47	338.55	14.11	
2025-01-10 03:36:59.67	338.51	14.12	
2025-01-10 03:36:59.88	338.46	14.13	
2025-01-10 03:37:00.08	338.42	14.13	
2025-01-10 03:37:00.29	338.37	14.14	
2025-01-10 03:37:00.49	338.33	14.15	
2025-01-10 03:37:00.71	338.28	14.16	
2025-01-10 03:37:00.92	338.23	14.17	
2025-01-10 03:37:01.12	338.19	14.17	
2025-01-10 03:37:01.33	338.14	14.18	
2025-01-10 03:37:01.53	338.09	14.19	
2025-01-10 03:37:01.74	338.05	14.20	
2025-01-10 03:37:01.94	338.00	14.20	
2025-01-10 03:37:02.15	337.96	14.21	
2025-01-10 03:37:02.35	337.91	14.22	
2025-01-10 03:37:02.56	337.86	14.23	
2025-01-10 03:37:02.76	337.82	14.24	
2025-01-10 03:37:02.97	337.77	14.24	
2025-01-10 03:37:03.17	337.73	14.25	
2025-01-10 03:37:03.38	337.68	14.26	
2025-01-10 03:37:03.58	337.63	14.27	
2025-01-10 03:37:03.80	337.59	14.27	
2025-01-10 03:37:04.01	337.54	14.28	
2025-01-10 03:37:04.21	337.49	14.29	
2025-01-10 03:37:04.42	337.45	14.30	
2025-01-10 03:37:04.63	337.40	14.30	
2025-01-10 03:37:04.83	337.35	14.31	
2025-01-10 03:37:05.04	337.31	14.32	
2025-01-10 03:37:05.24	337.26	14.33	
2025-01-10 03:37:05.45	337.21	14.33	
2025-01-10 03:37:05.65	337.17	14.34	
2025-01-10 03:37:05.87	337.12	14.35	
2025-01-10 03:37:06.08	337.07	14.36	
2025-01-10 03:37:06.28	337.03	14.36	
2025-01-10 03:37:06.49	336.98	14.37	
2025-01-10 03:37:06.69	336.93	14.38	
2025-01-10 03:37:06.89	336.89	14.39	
2025-01-10 03:37:07.10	336.84	14.39	
2025-01-10 03:37:07.31	336.79	14.40	
2025-01-10 03:37:07.51	336.75	14.41	
2025-01-10 03:37:07.72	336.70	14.42	
2025-01-10 03:37:07.92	336.65	14.42	
2025-01-10 03:37:08.13	336.61	14.43	
2025-01-10 03:37:08.33	336.56	14.44	
2025-01-10 03:37:08.54	336.51	14.45	
2025-01-10 03:37:08.74	336.47	14.45	
2025-01-10 03:37:08.95	336.42	14.46	
2025-01-10 03:37:09.15	336.37	14.47	
2025-01-10 03:37:09.36	336.32	14.47	
2025-01-10 03:37:09.56	336.28	14.48	
2025-01-10 03:37:09.77	336.23	14.49	
2025-01-10 03:37:09.97	336.19	14.50	
2025-01-10 03:37:10.19	336.14	14.50	
2025-01-10 03:37:10.39	336.09	14.51	
2025-01-10 03:37:10.60	336.04	14.52	
2025-01-10 03:37:10.81	335.99	14.52	
2025-01-10 03:37:11.01	335.95	14.53	
2025-01-10 03:37:11.21	335.90	14.54	
2025-01-10 03:37:11.42	335.85	14.55	
2025-01-10 03:37:11.63	335.81	14.55	
2025-01-10 03:37:11.83	335.76	14.56	
2025-01-10 03:37:12.04	335.71	14.57	
2025-01-10 03:37:12.24	335.66	14.57	
2025-01-10 03:37:12.45	335.62	14.58	
2025-01-10 03:37:12.65	335.57	14.59	
2025-01-10 03:37:12.86	335.52	14.59	
2025-01-10 03:37:13.06	335.48	14.60	
2025-01-10 03:37:13.28	335.43	14.61	
2025-01-10 03:37:13.49	335.38	14.62	
2025-01-10 03:37:13.69	335.33	14.62	
2025-01-10 03:37:13.90	335.28	14.63	
2025-01-10 03:37:14.10	335.24	14.64	
2025-01-10 03:37:14.31	335.19	14.64	
2025-01-10 03:37:14.51	335.14	14.65	
2025-01-10 03:37:14.72	335.09	14.66	
2025-01-10 03:37:14.92	335.05	14.66	
2025-01-10 03:37:15.13	335.00	14.67	
2025-01-10 03:37:15.33	334.95	14.68	
2025-01-10 03:37:15.53	334.91	14.68	
2025-01-10 03:37:15.74	334.86	14.69	
2025-01-10 03:37:15.95	334.81	14.70	
2025-01-10 03:37:16.15	334.76	14.70	
2025-01-10 03:37:16.36	334.71	14.71	
2025-01-10 03:37:16.56	334.67	14.72	
2025-01-10 03:37:16.77	334.62	14.72	
2025-01-10 03:37:16.97	334.57	14.73	
2025-01-10 03:37:17.18	334.52	14.74	
2025-01-10 03:37:17.38	334.48	14.74	
2025-01-10 03:37:17.59	334.43	14.75	
2025-01-10 03:37:17.79	334.38	14.76	
2025-01-10 03:37:18.00	334.33	14.76	
2025-01-10 03:37:18.20	334.28	14.77	
2025-01-10 03:37:18.41	334.24	14.78	
2025-01-10 03:37:18.61	334.19	14.78	
2025-01-10 03:37:18.82	334.14	14.79	
2025-01-10 03:37:19.02	334.09	14.79	
2025-01-10 03:37:19.23	334.04	14.80	
2025-01-10 03:37:19.43	334.00	14.81	
2025-01-10 03:37:19.63	333.95	14.81	
2025-01-10 03:37:19.84	333.90	14.82	
2025-01-10 03:37:20.04	333.85	14.83	
2025-01-10 03:37:20.25	333.81	14.83	
2025-01-10 03:37:20.46	333.76	14.84	
2025-01-10 03:37:20.66	333.71	14.85	
2025-01-10 03:37:20.87	333.66	14.85	
2025-01-10 03:37:21.07	333.61	14.86	
2025-01-10 03:37:21.27	333.57	14.86	
2025-01-10 03:37:21.48	333.52	14.87	
2025-01-10 03:37:21.69	333.47	14.88	
2025-01-10 03:37:21.89	333.42	14.88	
2025-01-10 03:37:22.10	333.37	14.89	
2025-01-10 03:37:22.30	333.32	14.89	
2025-01-10 03:37:22.51	333.27	14.90	
2025-01-10 03:37:22.71	333.23	14.91	
2025-01-10 03:37:22.92	333.18	14.91	
2025-01-10 03:37:23.12	333.13	14.92	
2025-01-10 03:37:23.33	333.08	14.93	
2025-01-10 03:37:23.54	333.03	14.93	
2025-01-10 03:37:23.74	332.98	14.94	
2025-01-10 03:37:23.95	332.93	14.94	
2025-01-10 03:37:24.15	332.89	14.95	
2025-01-10 03:37:24.36	332.84	14.96	
2025-01-10 03:37:24.56	332.79	14.96	
2025-01-10 03:37:24.77	332.74	14.97	
2025-01-10 03:37:24.97	332.69	14.97	
2025-01-10 03:37:25.18	332.64	14.98	
2025-01-10 03:37:25.38	332.60	14.98	
2025-01-10 03:37:25.58	332.55	14.99	
2025-01-10 03:37:25.79	332.50	15.00	
2025-01-10 03:37:26.00	332.45	15.00	
2025-01-10 03:37:26.20	332.40	15.01	
2025-01-10 03:37:26.41	332.35	15.01	
2025-01-10 03:37:26.61	332.30	15.02	
2025-01-10 03:37:26.81	332.26	15.03	
2025-01-10 03:37:27.02	332.21	15.03	
2025-01-10 03:37:27.22	332.16	15.04	
2025-01-10 03:37:27.43	332.11	15.04	
2025-01-10 03:37:27.63	332.06	15.05	
2025-01-10 03:37:27.84	332.01	15.05	
2025-01-10 03:37:28.04	331.96	15.06	
2025-01-10 03:37:28.25	331.91	15.07	
2025-01-10 03:37:28.45	331.87	15.07	
2025-01-10 03:37:28.66	331.82	15.08	
2025-01-10 03:37:28.86	331.77	15.08	
2025-01-10 03:37:29.07	331.72	15.09	
2025-01-10 03:37:29.27	331.67	15.09	
2025-01-10 03:37:29.48	331.62	15.10	
2025-01-10 03:37:29.68	331.57	15.10	
2025-01-10 03:37:29.89	331.52	15.11	
2025-01-10 03:37:30.10	331.47	15.11	
2025-01-10 03:37:30.30	331.42	15.12	
2025-01-10 03:37:30.50	331.38	15.13	
2025-01-10 03:37:30.71	331.33	15.13	
2025-01-10 03:37:30.92	331.28	15.14	
2025-01-10 03:37:31.12	331.23	15.14	
2025-01-10 03:37:31.33	331.18	15.15	
2025-01-10 03:37:31.53	331.13	15.15	
2025-01-10 03:37:31.74	331.08	15.16	
2025-01-10 03:37:31.94	331.03	15.16	
2025-01-10 03:37:32.15	330.98	15.17	
2025-01-10 03:37:32.35	330.93	15.17	
2025-01-10 03:37:32.56	330.88	15.18	
2025-01-10 03:37:32.76	330.83	15.18	
2025-01-10 03:37:32.97	330.78	15.19	
2025-01-10 03:37:33.17	330.74	15.19	
2025-01-10 03:37:33.38	330.69	15.20	
2025-01-10 03:37:33.58	330.64	15.20	
2025-01-10 03:37:33.78	330.59	15.21	
2025-01-10 03:37:33.99	330.54	15.21	
2025-01-10 03:37:34.20	330.49	15.22	
2025-01-10 03:37:34.40	330.44	15.22	
2025-01-10 03:37:34.61	330.39	15.23	
2025-01-10 03:37:34.81	330.34	15.23	
2025-01-10 03:37:35.02	330.29	15.24	
2025-01-10 03:37:35.22	330.24	15.24	
2025-01-10 03:37:35.43	330.19	15.25	
2025-01-10 03:37:35.63	330.14	15.25	
2025-01-10 03:37:35.84	330.09	15.26	
2025-01-10 03:37:36.04	330.04	15.26	
2025-01-10 03:37:36.25	329.99	15.27	
2025-01-10 03:37:36.45	329.94	15.27	
2025-01-10 03:37:36.66	329.89	15.28	
2025-01-10 03:37:36.86	329.85	15.28	
2025-01-10 03:37:37.07	329.79	15.29	
2025-01-10 03:37:37.27	329.75	15.29	
2025-01-10 03:37:37.48	329.69	15.30	
2025-01-10 03:37:37.69	329.64	15.30	
2025-01-10 03:37:37.89	329.60	15.31	
2025-01-10 03:37:38.10	329.54	15.31	
2025-01-10 03:37:38.30	329.50	15.32	
2025-01-10 03:37:38.51	329.44	15.32	
2025-01-10 03:37:38.71	329.40	15.33	
2025-01-10 03:37:38.92	329.35	15.33	
2025-01-10 03:37:39.13	329.29	15.34	
2025-01-10 03:37:39.33	329.25	15.34	
2025-01-10 03:37:39.54	329.19	15.34	
2025-01-10 03:37:39.74	329.15	15.35	
2025-01-10 03:37:39.95	329.09	15.35	
2025-01-10 03:37:40.15	329.05	15.36	
2025-01-10 03:37:40.36	328.99	15.36	
2025-01-10 03:37:40.56	328.95	15.37	
2025-01-10 03:37:40.77	328.90	15.37	
2025-01-10 03:37:40.97	328.85	15.38	
2025-01-10 03:37:41.18	328.80	15.38	
2025-01-10 03:37:41.39	328.74	15.38	
2025-01-10 03:37:41.59	328.70	15.39	
2025-01-10 03:37:41.80	328.64	15.39	
2025-01-10 03:37:42.00	328.59	15.40	
2025-01-10 03:37:42.20	328.55	15.40	
2025-01-10 03:37:42.41	328.49	15.41	
2025-01-10 03:37:42.62	328.44	15.41	
2025-01-10 03:37:42.82	328.39	15.41	
2025-01-10 03:37:43.03	328.34	15.42	
2025-01-10 03:37:43.23	328.29	15.42	
2025-01-10 03:37:43.44	328.24	15.43	
2025-01-10 03:37:43.64	328.19	15.43	
2025-01-10 03:37:43.85	328.14	15.44	
2025-01-10 03:37:44.05	328.09	15.44	
2025-01-10 03:37:44.25	328.04	15.44	
2025-01-10 03:37:44.46	327.99	15.45	
2025-01-10 03:37:44.67	327.94	15.45	
2025-01-10 03:37:44.87	327.89	15.46	
2025-01-10 03:37:45.08	327.84	15.46	
2025-01-10 03:37:45.28	327.79	15.46	
2025-01-10 03:37:45.49	327.74	15.47	
2025-01-10 03:37:45.70	327.69	15.47	
2025-01-10 03:37:45.90	327.64	15.48	
2025-01-10 03:37:46.11	327.59	15.48	
2025-01-10 03:37:46.31	327.54	15.48	
2025-01-10 03:37:46.52	327.49	15.49	
2025-01-10 03:37:46.74	327.43	15.49	
2025-01-10 03:37:46.94	327.38	15.50	
2025-01-10 03:37:47.15	327.33	15.50	
2025-01-10 03:37:47.35	327.28	15.50	
2025-01-10 03:37:47.56	327.23	15.51	
2025-01-10 03:37:47.76	327.18	15.51	
2025-01-10 03:37:47.97	327.13	15.51	
2025-01-10 03:37:48.17	327.08	15.52	
2025-01-10 03:37:48.38	327.03	15.52	
2025-01-10 03:37:48.59	326.98	15.53	
2025-01-10 03:37:48.80	326.93	15.53	
2025-01-10 03:37:49.00	326.88	15.53	
2025-01-10 03:37:49.21	326.83	15.54	
2025-01-10 03:37:49.41	326.78	15.54	
2025-01-10 03:37:49.62	326.72	15.54	
2025-01-10 03:37:49.82	326.67	15.55	
2025-01-10 03:37:50.03	326.62	15.55	
2025-01-10 03:37:50.23	326.57	15.55	
2025-01-10 03:37:50.44	326.52	15.56	
2025-01-10 03:37:50.64	326.47	15.56	
2025-01-10 03:37:50.85	326.42	15.56	
2025-01-10 03:37:51.05	326.37	15.57	
2025-01-10 03:37:51.26	326.32	15.57	
2025-01-10 03:37:51.46	326.27	15.57	
2025-01-10 03:37:51.67	326.22	15.58	
2025-01-10 03:37:51.87	326.17	15.58	
2025-01-10 03:37:52.08	326.12	15.58	
2025-01-10 03:37:52.28	326.07	15.59	
2025-01-10 03:37:52.49	326.01	15.59	
2025-01-10 03:37:52.69	325.96	15.59	
2025-01-10 03:37:52.91	325.91	15.60	
2025-01-10 03:37:53.12	325.86	15.60	
2025-01-10 03:37:53.32	325.81	15.60	
2025-01-10 03:37:53.53	325.76	15.61	
2025-01-10 03:37:53.74	325.70	15.61	
2025-01-10 03:37:53.94	325.65	15.61	
2025-01-10 03:37:54.14	325.61	15.62	
2025-01-10 03:37:54.36	325.55	15.62	
2025-01-10 03:37:54.56	325.50	15.62	
2025-01-10 03:37:54.77	325.45	15.63	
2025-01-10 03:37:54.97	325.40	15.63	
2025-01-10 03:37:55.18	325.35	15.63	
2025-01-10 03:37:55.38	325.30	15.63	
2025-01-10 03:37:55.59	325.25	15.64	
2025-01-10 03:37:55.80	325.19	15.64	
2025-01-10 03:37:56.00	325.14	15.64	
2025-01-10 03:37:56.20	325.09	15.65	
2025-01-10 03:37:56.41	325.04	15.65	
2025-01-10 03:37:56.61	324.99	15.65	
2025-01-10 03:37:56.82	324.94	15.65	
2025-01-10 03:37:57.02	324.89	15.66	
2025-01-10 03:37:57.23	324.84	15.66	
2025-01-10 03:37:57.44	324.79	15.66	
2025-01-10 03:37:57.64	324.74	15.67	
2025-01-10 03:37:57.85	324.68	15.67	
2025-01-10 03:37:58.05	324.63	15.67	
2025-01-10 03:37:58.25	324.58	15.67	
2025-01-10 03:37:58.46	324.53	15.68	
2025-01-10 03:37:58.66	324.48	15.68	
2025-01-10 03:37:58.87	324.43	15.68	
2025-01-10 03:37:59.07	324.38	15.68	
2025-01-10 03:37:59.28	324.33	15.69	
2025-01-10 03:37:59.48	324.28	15.69	
2025-01-10 03:37:59.69	324.22	15.69	
2025-01-10 03:37:59.89	324.17	15.69	
2025-01-10 03:38:00.09	324.12	15.70	
2025-01-10 03:38:00.30	324.07	15.70	
2025-01-10 03:38:00.50	324.02	15.70	
2025-01-10 03:38:00.71	323.97	15.70	
2025-01-10 03:38:00.91	323.92	15.71	
2025-01-10 03:38:01.12	323.87	15.71	
2025-01-10 03:38:01.32	323.82	15.71	
2025-01-10 03:38:01.53	323.76	15.71	
2025-01-10 03:38:01.73	323.71	15.72	
2025-01-10 03:38:01.94	323.66	15.72	
2025-01-10 03:38:02.14	323.61	15.72	
2025-01-10 03:38:02.35	323.56	15.72	
2025-01-10 03:38:02.55	323.51	15.72	
2025-01-10 03:38:02.76	323.46	15.73	
2025-01-10 03:38:02.96	323.41	15.73	
2025-01-10 03:38:03.17	323.35	15.73	
2025-01-10 03:38:03.37	323.30	15.73	
2025-01-10 03:38:03.59	323.25	15.74	
2025-01-10 03:38:03.80	323.20	15.74	
2025-01-10 03:38:04.00	323.15	15.74	
2025-01-10 03:38:04.21	323.09	15.74	
2025-01-10 03:38:04.41	323.04	15.74	
2025-01-10 03:38:04.62	322.99	15.75	
2025-01-10 03:38:04.82	322.94	15.75	
2025-01-10 03:38:05.03	322.89	15.75	
2025-01-10 03:38:05.23	322.84	15.75	
2025-01-10 03:38:05.44	322.79	15.75	
2025-01-10 03:38:05.64	322.74	15.76	
2025-01-10 03:38:05.85	322.68	15.76	
2025-01-10 03:38:06.05	322.63	15.76	
2025-01-10 03:38:06.26	322.58	15.76	
2025-01-10 03:38:06.46	322.53	15.76	
2025-01-10 03:38:06.67	322.48	15.76	
2025-01-10 03:38:06.87	322.43	15.77	
2025-01-10 03:38:07.08	322.37	15.77	
2025-01-10 03:38:07.29	322.32	15.77	
2025-01-10 03:38:07.49	322.27	15.77	
2025-01-10 03:38:07.70	322.22	15.77	
2025-01-10 03:38:07.90	322.17	15.77	
2025-01-10 03:38:08.11	322.12	15.78	
2025-01-10 03:38:08.31	322.07	15.78	
2025-01-10 03:38:08.52	322.01	15.78	
2025-01-10 03:38:08.72	321.96	15.78	
2025-01-10 03:38:08.94	321.91	15.78	
2025-01-10 03:38:09.15	321.86	15.78	
2025-01-10 03:38:09.35	321.81	15.79	
2025-01-10 03:38:09.55	321.75	15.79	
2025-01-10 03:38:09.76	321.70	15.79	
2025-01-10 03:38:09.96	321.65	15.79	
2025-01-10 03:38:10.17	321.60	15.79	
2025-01-10 03:38:10.38	321.55	15.79	
2025-01-10 03:38:10.58	321.50	15.79	
2025-01-10 03:38:10.79	321.44	15.80	
2025-01-10 03:38:10.99	321.39	15.80	
2025-01-10 03:38:11.20	321.34	15.80	
2025-01-10 03:38:11.41	321.29	15.80	
2025-01-10 03:38:11.61	321.24	15.80	
2025-01-10 03:38:11.82	321.18	15.80	
2025-01-10 03:38:12.02	321.13	15.80	
2025-01-10 03:38:12.23	321.08	15.80	
2025-01-10 03:38:12.43	321.03	15.81	
2025-01-10 03:38:12.64	320.98	15.81	
2025-01-10 03:38:12.84	320.93	15.81	
2025-01-10 03:38:13.04	320.88	15.81	
2025-01-10 03:38:13.25	320.82	15.81	
2025-01-10 03:38:13.45	320.77	15.81	
2025-01-10 03:38:13.66	320.72	15.81	
2025-01-10 03:38:13.87	320.67	15.81	
2025-01-10 03:38:14.07	320.62	15.81	
2025-01-10 03:38:14.29	320.56	15.81	
2025-01-10 03:38:14.49	320.51	15.82	
2025-01-10 03:38:14.70	320.46	15.82	
2025-01-10 03:38:14.90	320.41	15.82	
2025-01-10 03:38:15.11	320.36	15.82	
2025-01-10 03:38:15.32	320.30	15.82	
2025-01-10 03:38:15.52	320.25	15.82	
2025-01-10 03:38:15.73	320.20	15.82	
2025-01-10 03:38:15.93	320.15	15.82	
2025-01-10 03:38:16.14	320.10	15.82	
2025-01-10 03:38:16.34	320.05	15.82	
2025-01-10 03:38:16.54	320.00	15.82	
2025-01-10 03:38:16.75	319.94	15.82	
2025-01-10 03:38:16.95	319.89	15.82	
2025-01-10 03:38:17.16	319.84	15.83	
2025-01-10 03:38:17.36	319.79	15.83	
2025-01-10 03:38:17.57	319.74	15.83	
2025-01-10 03:38:17.77	319.69	15.83	
2025-01-10 03:38:17.98	319.63	15.83	
2025-01-10 03:38:18.18	319.58	15.83	
2025-01-10 03:38:18.39	319.53	15.83	
2025-01-10 03:38:18.59	319.48	15.83	
2025-01-10 03:38:18.80	319.43	15.83	
2025-01-10 03:38:19.00	319.38	15.83	
2025-01-10 03:38:19.21	319.32	15.83	
2025-01-10 03:38:19.41	319.27	15.83	
2025-01-10 03:38:19.62	319.22	15.83	
2025-01-10 03:38:19.82	319.17	15.83	
2025-01-10 03:38:20.03	319.12	15.83	
2025-01-10 03:38:20.23	319.07	15.83	
2025-01-10 03:38:20.44	319.01	15.83	
2025-01-10 03:38:20.64	318.96	15.83	
2025-01-10 03:38:20.85	318.91	15.83	
2025-01-10 03:38:21.05	318.86	15.83	
2025-01-10 03:38:21.26	318.81	15.83	
2025-01-10 03:38:21.47	318.75	15.83	
2025-01-10 03:38:21.68	318.70	15.83	
2025-01-10 03:38:21.89	318.65	15.83	
2025-01-10 03:38:22.09	318.60	15.83	
2025-01-10 03:38:22.30	318.54	15.83	
2025-01-10 03:38:22.50	318.49	15.83	
2025-01-10 03:38:22.71	318.44	15.83	
2025-01-10 03:38:22.91	318.39	15.83	
2025-01-10 03:38:23.12	318.34	15.83	
2025-01-10 03:38:23.32	318.29	15.83	
2025-01-10 03:38:23.53	318.23	15.83	
2025-01-10 03:38:23.73	318.18	15.83	
2025-01-10 03:38:23.94	318.13	15.83	
2025-01-10 03:38:24.15	318.08	15.83	
2025-01-10 03:38:24.35	318.03	15.83	
2025-01-10 03:38:24.56	317.97	15.83	
2025-01-10 03:38:24.76	317.92	15.83	
2025-01-10 03:38:24.97	317.87	15.83	
2025-01-10 03:38:25.17	317.82	15.83	
2025-01-10 03:38:25.38	317.77	15.83	
2025-01-10 03:38:25.58	317.72	15.83	
2025-01-10 03:38:25.79	317.66	15.83	
2025-01-10 03:38:25.99	317.61	15.83	
2025-01-10 03:38:26.20	317.56	15.83	
2025-01-10 03:38:26.40	317.51	15.83	
2025-01-10 03:38:26.61	317.46	15.83	
2025-01-10 03:38:26.82	317.40	15.83	
2025-01-10 03:38:27.02	317.35	15.83	
2025-01-10 03:38:27.23	317.30	15.83	
2025-01-10 03:38:27.43	317.25	15.83	
2025-01-10 03:38:27.64	317.20	15.83	
2025-01-10 03:38:27.84	317.15	15.83	
2025-01-10 03:38:28.05	317.09	15.83	
2025-01-10 03:38:28.25	317.04	15.83	
2025-01-10 03:38:28.46	316.99	15.83	
2025-01-10 03:38:28.67	316.94	15.82	
2025-01-10 03:38:28.88	316.88	15.82	
2025-01-10 03:38:29.08	316.83	15.82	
2025-01-10 03:38:29.29	316.78	15.82	
2025-01-10 03:38:29.49	316.73	15.82	
2025-01-10 03:38:29.70	316.68	15.82	
2025-01-10 03:38:29.90	316.63	15.82	
2025-01-10 03:38:30.11	316.57	15.82	
2025-01-10 03:38:30.31	316.52	15.82	
2025-01-10 03:38:30.52	316.47	15.82	
2025-01-10 03:38:30.72	316.42	15.82	
2025-01-10 03:38:30.93	316.37	15.82	
2025-01-10 03:38:31.13	316.32	15.82	
2025-01-10 03:38:31.34	316.27	15.81	
2025-01-10 03:38:31.54	316.21	15.81	
2025-01-10 03:38:31.75	316.16	15.81	
2025-01-10 03:38:31.95	316.11	15.81	
2025-01-10 03:38:32.16	316.06	15.81	
2025-01-10 03:38:32.37	316.01	15.81	
2025-01-10 03:38:32.58	315.95	15.81	
2025-01-10 03:38:32.78	315.90	15.81	
2025-01-10 03:38:32.99	315.85	15.81	
2025-01-10 03:38:33.19	315.80	15.81	
2025-01-10 03:38:33.41	315.74	15.80	
2025-01-10 03:38:33.62	315.69	15.80	
2025-01-10 03:38:33.83	315.64	15.80	
2025-01-10 03:38:34.03	315.59	15.80	
2025-01-10 03:38:34.24	315.54	15.80	
2025-01-10 03:38:34.44	315.48	15.80	
2025-01-10 03:38:34.64	315.43	15.80	
2025-01-10 03:38:34.85	315.38	15.80	
2025-01-10 03:38:35.06	315.33	15.79	
2025-01-10 03:38:35.26	315.28	15.79	
2025-01-10 03:38:35.47	315.23	15.79	
2025-01-10 03:38:35.67	315.18	15.79	
2025-01-10 03:38:35.88	315.12	15.79	
2025-01-10 03:38:36.09	315.07	15.79	
2025-01-10 03:38:36.29	315.02	15.79	
2025-01-10 03:38:36.49	314.97	15.78	
2025-01-10 03:38:36.70	314.92	15.78	
2025-01-10 03:38:36.91	314.86	15.78	
2025-01-10 03:38:37.11	314.81	15.78	
2025-01-10 03:38:37.32	314.76	15.78	
2025-01-10 03:38:37.52	314.71	15.78	
2025-01-10 03:38:37.73	314.66	15.77	
2025-01-10 03:38:37.93	314.61	15.77	
2025-01-10 03:38:38.14	314.55	15.77	
2025-01-10 03:38:38.34	314.50	15.77	
2025-01-10 03:38:38.55	314.45	15.77	
2025-01-10 03:38:38.75	314.40	15.77	
2025-01-10 03:38:38.96	314.35	15.76	
2025-01-10 03:38:39.16	314.30	15.76	
2025-01-10 03:38:39.37	314.25	15.76	
2025-01-10 03:38:39.57	314.20	15.76	
2025-01-10 03:38:39.79	314.14	15.76	
2025-01-10 03:38:40.00	314.09	15.76	
2025-01-10 03:38:40.20	314.04	15.75	
2025-01-10 03:38:40.41	313.99	15.75	
2025-01-10 03:38:40.62	313.93	15.75	
2025-01-10 03:38:40.82	313.88	15.75	
2025-01-10 03:38:41.02	313.83	15.75	
2025-01-10 03:38:41.23	313.78	15.74	
2025-01-10 03:38:41.44	313.73	15.74	
2025-01-10 03:38:41.64	313.68	15.74	
2025-01-10 03:38:41.85	313.62	15.74	
2025-01-10 03:38:42.05	313.57	15.74	
2025-01-10 03:38:42.26	313.52	15.73	
2025-01-10 03:38:42.46	313.47	15.73	
2025-01-10 03:38:42.67	313.42	15.73	
2025-01-10 03:38:42.88	313.37	15.73	
2025-01-10 03:38:43.08	313.32	15.72	
2025-01-10 03:38:43.28	313.27	15.72	
2025-01-10 03:38:43.49	313.21	15.72	
2025-01-10 03:38:43.70	313.16	15.72	
2025-01-10 03:38:43.91	313.11	15.72	
2025-01-10 03:38:44.11	313.06	15.71	
2025-01-10 03:38:44.31	313.01	15.71	
2025-01-10 03:38:44.52	312.96	15.71	
2025-01-10 03:38:44.73	312.90	15.71	
2025-01-10 03:38:44.93	312.85	15.70	
2025-01-10 03:38:45.14	312.80	15.70	
2025-01-10 03:38:45.34	312.75	15.70	
2025-01-10 03:38:45.55	312.70	15.70	
2025-01-10 03:38:45.75	312.65	15.69	
2025-01-10 03:38:45.96	312.60	15.69	
2025-01-10 03:38:46.16	312.55	15.69	
2025-01-10 03:38:46.36	312.50	15.69	
2025-01-10 03:38:46.57	312.44	15.68	
2025-01-10 03:38:46.77	312.39	15.68	
2025-01-10 03:38:46.98	312.34	15.68	
2025-01-10 03:38:47.19	312.29	15.68	
2025-01-10 03:38:47.39	312.24	15.67	
2025-01-10 03:38:47.60	312.19	15.67	
2025-01-10 03:38:47.80	312.14	15.67	
2025-01-10 03:38:48.01	312.08	15.67	
2025-01-10 03:38:48.21	312.03	15.66	
2025-01-10 03:38:48.42	311.98	15.66	
2025-01-10 03:38:48.62	311.93	15.66	
2025-01-10 03:38:48.82	311.88	15.65	
2025-01-10 03:38:49.03	311.83	15.65	
2025-01-10 03:38:49.24	311.78	15.65	
2025-01-10 03:38:49.44	311.73	15.65	
2025-01-10 03:38:49.65	311.68	15.64	
2025-01-10 03:38:49.85	311.63	15.64	
2025-01-10 03:38:50.06	311.57	15.64	
2025-01-10 03:38:50.26	311.52	15.63	
2025-01-10 03:38:50.47	311.47	15.63	
2025-01-10 03:38:50.67	311.42	15.63	
2025-01-10 03:38:50.88	311.37	15.63	
2025-01-10 03:38:51.08	311.32	15.62	
2025-01-10 03:38:51.29	311.27	15.62	
2025-01-10 03:38:51.49	311.22	15.62	
2025-01-10 03:38:51.70	311.17	15.61	
2025-01-10 03:38:51.90	311.12	15.61	
2025-01-10 03:38:52.11	311.06	15.61	
2025-01-10 03:38:52.31	311.01	15.60	
2025-01-10 03:38:52.52	310.96	15.60	
2025-01-10 03:38:52.72	310.91	15.60	
2025-01-10 03:38:52.93	310.86	15.59	
2025-01-10 03:38:53.14	310.81	15.59	
2025-01-10 03:38:53.34	310.76	15.59	
2025-01-10 03:38:53.55	310.71	15.58	
2025-01-10 03:38:53.75	310.66	15.58	
2025-01-10 03:38:53.95	310.61	15.58	
2025-01-10 03:38:54.16	310.56	15.57	
2025-01-10 03:38:54.37	310.50	15.57	
2025-01-10 03:38:54.57	310.45	15.57	
2025-01-10 03:38:54.79	310.40	15.56	
2025-01-10 03:38:54.99	310.35	15.56	
2025-01-10 03:38:55.21	310.30	15.56	
2025-01-10 03:38:55.41	310.25	15.55	
2025-01-10 03:38:55.62	310.20	15.55	
2025-01-10 03:38:55.84	310.14	15.55	
2025-01-10 03:38:56.04	310.09	15.54	
2025-01-10 03:38:56.24	310.04	15.54	
2025-01-10 03:38:56.45	309.99	15.54	
2025-01-10 03:38:56.65	309.94	15.53	
2025-01-10 03:38:56.85	309.89	15.53	
2025-01-10 03:38:57.06	309.84	15.52	
2025-01-10 03:38:57.27	309.79	15.52	
2025-01-10 03:38:57.47	309.74	15.52	
2025-01-10 03:38:57.68	309.69	15.51	
2025-01-10 03:38:57.88	309.64	15.51	
2025-01-10 03:38:58.08	309.59	15.51	
2025-01-10 03:38:58.29	309.54	15.50	
2025-01-10 03:38:58.49	309.49	15.50	
2025-01-10 03:38:58.70	309.43	15.49	
2025-01-10 03:38:58.90	309.39	15.49	
2025-01-10 03:38:59.10	309.34	15.49	
2025-01-10 03:38:59.31	309.28	15.48	
2025-01-10 03:38:59.52	309.23	15.48	
2025-01-10 03:38:59.72	309.18	15.48	
2025-01-10 03:38:59.93	309.13	15.47	
2025-01-10 03:39:00.14	309.08	15.47	
2025-01-10 03:39:00.35	309.03	15.46	
2025-01-10 03:39:00.55	308.98	15.46	
2025-01-10 03:39:00.76	308.93	15.46	
2025-01-10 03:39:00.97	308.88	15.45	
2025-01-10 03:39:01.17	308.83	15.45	
2025-01-10 03:39:01.37	308.78	15.44	
2025-01-10 03:39:01.58	308.73	15.44	
2025-01-10 03:39:01.78	308.68	15.44	
2025-01-10 03:39:01.99	308.63	15.43	
2025-01-10 03:39:02.21	308.57	15.43	
2025-01-10 03:39:02.41	308.52	15.42	
2025-01-10 03:39:02.62	308.47	15.42	
2025-01-10 03:39:02.82	308.42	15.41	
2025-01-10 03:39:03.03	308.37	15.41	
2025-01-10 03:39:03.23	308.32	15.41	
2025-01-10 03:39:03.44	308.27	15.40	
2025-01-10 03:39:03.64	308.22	15.40	
2025-01-10 03:39:03.85	308.17	15.39	
2025-01-10 03:39:04.05	308.12	15.39	
2025-01-10 03:39:04.26	308.07	15.38	
2025-01-10 03:39:04.46	308.02	15.38	
2025-01-10 03:39:04.67	307.97	15.37	
2025-01-10 03:39:04.87	307.92	15.37	
2025-01-10 03:39:05.08	307.87	15.37	
2025-01-10 03:39:05.28	307.82	15.36	
2025-01-10 03:39:05.49	307.77	15.36	
2025-01-10 03:39:05.69	307.72	15.35	
2025-01-10 03:39:05.90	307.67	15.35	
2025-01-10 03:39:06.10	307.62	15.34	
2025-01-10 03:39:06.31	307.57	15.34	
2025-01-10 03:39:06.51	307.52	15.33	
2025-01-10 03:39:06.72	307.47	15.33	
2025-01-10 03:39:06.92	307.42	15.33	
2025-01-10 03:39:07.13	307.37	15.32	
2025-01-10 03:39:07.33	307.32	15.32	
2025-01-10 03:39:07.55	307.27	15.31	
2025-01-10 03:39:07.76	307.22	15.31	
2025-01-10 03:39:07.96	307.17	15.30	
2025-01-10 03:39:08.17	307.12	15.30	
2025-01-10 03:39:08.38	307.07	15.29	
2025-01-10 03:39:08.58	307.02	15.29	
2025-01-10 03:39:08.78	306.97	15.28	
2025-01-10 03:39:08.99	306.92	15.28	
2025-01-10 03:39:09.20	306.87	15.27	
2025-01-10 03:39:09.40	306.82	15.27	
2025-01-10 03:39:09.60	306.77	15.26	
2025-01-10 03:39:09.81	306.72	15.26	
2025-01-10 03:39:10.01	306.67	15.25	
2025-01-10 03:39:10.22	306.62	15.25	
2025-01-10 03:39:10.43	306.57	15.24	
2025-01-10 03:39:10.63	306.52	15.24	
2025-01-10 03:39:10.84	306.47	15.23	
2025-01-10 03:39:11.04	306.42	15.23	
2025-01-10 03:39:11.25	306.37	15.22	
2025-01-10 03:39:11.46	306.32	15.22	
2025-01-10 03:39:11.66	306.27	15.21	
2025-01-10 03:39:11.86	306.23	15.21	
2025-01-10 03:39:12.07	306.17	15.20	
2025-01-10 03:39:12.27	306.13	15.20	
2025-01-10 03:39:12.48	306.08	15.19	
2025-01-10 03:39:12.68	306.03	15.19	
2025-01-10 03:39:12.89	305.98	15.18	
2025-01-10 03:39:13.09	305.93	15.18	
2025-01-10 03:39:13.30	305.88	15.17	
2025-01-10 03:39:13.50	305.83	15.17	
2025-01-10 03:39:13.70	305.78	15.16	
2025-01-10 03:39:13.91	305.73	15.16	
2025-01-10 03:39:14.11	305.68	15.15	
2025-01-10 03:39:14.32	305.63	15.15	
2025-01-10 03:39:14.52	305.58	15.14	
2025-01-10 03:39:14.73	305.53	15.13	
2025-01-10 03:39:14.93	305.49	15.13	
2025-01-10 03:39:15.14	305.44	15.12	
2025-01-10 03:39:15.35	305.39	15.12	
2025-01-10 03:39:15.55	305.34	15.11	
2025-01-10 03:39:15.76	305.29	15.11	
2025-01-10 03:39:15.96	305.24	15.10	
2025-01-10 03:39:16.17	305.19	15.10	
2025-01-10 03:39:16.37	305.14	15.09	
2025-01-10 03:39:16.58	305.09	15.09	
2025-01-10 03:39:16.79	305.04	15.08	
2025-01-10 03:39:16.99	304.99	15.07	
2025-01-10 03:39:17.19	304.95	15.07	
2025-01-10 03:39:17.40	304.89	15.06	
2025-01-10 03:39:17.61	304.84	15.06	
2025-01-10 03:39:17.81	304.80	15.05	
2025-01-10 03:39:18.02	304.75	15.05	
2025-01-10 03:39:18.22	304.70	15.04	
2025-01-10 03:39:18.43	304.65	15.03	
2025-01-10 03:39:18.63	304.60	15.03	
2025-01-10 03:39:18.84	304.55	15.02	
2025-01-10 03:39:19.04	304.50	15.02	
2025-01-10 03:39:19.25	304.45	15.01	
2025-01-10 03:39:19.45	304.41	15.01	
2025-01-10 03:39:19.66	304.36	15.00	
2025-01-10 03:39:19.86	304.31	14.99	
2025-01-10 03:39:20.07	304.26	14.99	
2025-01-10 03:39:20.27	304.21	14.98	
2025-01-10 03:39:20.48	304.16	14.98	
2025-01-10 03:39:20.68	304.11	14.97	
2025-01-10 03:39:20.89	304.06	14.97	
2025-01-10 03:39:21.10	304.01	14.96	
2025-01-10 03:39:21.30	303.97	14.95	
2025-01-10 03:39:21.50	303.92	14.95	
2025-01-10 03:39:21.71	303.87	14.94	
2025-01-10 03:39:21.92	303.82	14.94	
2025-01-10 03:39:22.12	303.77	14.93	
2025-01-10 03:39:22.32	303.73	14.92	
2025-01-10 03:39:22.53	303.68	14.92	
2025-01-10 03:39:22.73	303.63	14.91	
2025-01-10 03:39:22.94	303.58	14.90	
2025-01-10 03:39:23.14	303.53	14.90	
2025-01-10 03:39:23.35	303.48	14.89	
2025-01-10 03:39:23.56	303.43	14.89	
2025-01-10 03:39:23.76	303.39	14.88	
2025-01-10 03:39:23.97	303.34	14.87	
2025-01-10 03:39:24.17	303.29	14.87	
2025-01-10 03:39:24.38	303.24	14.86	
2025-01-10 03:39:24.58	303.19	14.86	
2025-01-10 03:39:24.79	303.14	14.85	
2025-01-10 03:39:24.99	303.10	14.84	
2025-01-10 03:39:25.20	303.05	14.84	
2025-01-10 03:39:25.40	303.00	14.83	
2025-01-10 03:39:25.60	302.95	14.82	
2025-01-10 03:39:25.81	302.90	14.82	
2025-01-10 03:39:26.02	302.85	14.81	
2025-01-10 03:39:26.22	302.81	14.81	
2025-01-10 03:39:26.43	302.76	14.80	
2025-01-10 03:39:26.63	302.71	14.79	
2025-01-10 03:39:26.83	302.66	14.79	
2025-01-10 03:39:27.04	302.62	14.78	
2025-01-10 03:39:27.24	302.57	14.77	
2025-01-10 03:39:27.45	302.52	14.77	
2025-01-10 03:39:27.65	302.47	14.76	
2025-01-10 03:39:27.86	302.42	14.75	
2025-01-10 03:39:28.06	302.38	14.75	
2025-01-10 03:39:28.27	302.33	14.74	
2025-01-10 03:39:28.47	302.28	14.73	
2025-01-10 03:39:28.68	302.23	14.73	
2025-01-10 03:39:28.88	302.19	14.72	
2025-01-10 03:39:29.09	302.14	14.71	
2025-01-10 03:39:29.29	302.09	14.71	
2025-01-10 03:39:29.50	302.04	14.70	
2025-01-10 03:39:29.70	301.99	14.69	
2025-01-10 03:39:29.91	301.95	14.69	
2025-01-10 03:39:30.11	301.90	14.68	
2025-01-10 03:39:30.32	301.85	14.67	
2025-01-10 03:39:30.52	301.80	14.67	
2025-01-10 03:39:30.73	301.76	14.66	
2025-01-10 03:39:30.93	301.71	14.65	
2025-01-10 03:39:31.14	301.66	14.65	
2025-01-10 03:39:31.34	301.61	14.64	
2025-01-10 03:39:31.55	301.56	14.63	
2025-01-10 03:39:31.75	301.52	14.63	
2025-01-10 03:39:31.96	301.47	14.62	
2025-01-10 03:39:32.16	301.42	14.61	
2025-01-10 03:39:32.36	301.38	14.61	
2025-01-10 03:39:32.57	301.33	14.60	
2025-01-10 03:39:32.77	301.28	14.59	
2025-01-10 03:39:32.98	301.23	14.59	
2025-01-10 03:39:33.20	301.18	14.58	
2025-01-10 03:39:33.40	301.14	14.57	
2025-01-10 03:39:33.61	301.09	14.56	
2025-01-10 03:39:33.81	301.04	14.56	
2025-01-10 03:39:34.02	300.99	14.55	
2025-01-10 03:39:34.22	300.95	14.54	
2025-01-10 03:39:34.43	300.90	14.54	
2025-01-10 03:39:34.63	300.85	14.53	
2025-01-10 03:39:34.84	300.81	14.52	
2025-01-10 03:39:35.04	300.76	14.51	
2025-01-10 03:39:35.26	300.71	14.51	
2025-01-10 03:39:35.47	300.66	14.50	
2025-01-10 03:39:35.67	300.62	14.49	
2025-01-10 03:39:35.88	300.57	14.49	
2025-01-10 03:39:36.08	300.52	14.48	
2025-01-10 03:39:36.28	300.48	14.47	
2025-01-10 03:39:36.49	300.43	14.46	
2025-01-10 03:39:36.70	300.38	14.46	
2025-01-10 03:39:36.91	300.33	14.45	
2025-01-10 03:39:37.11	300.29	14.44	
2025-01-10 03:39:37.32	300.24	14.43	
2025-01-10 03:39:37.52	300.19	14.43	
2025-01-10 03:39:37.72	300.15	14.42	
2025-01-10 03:39:37.93	300.10	14.41	
2025-01-10 03:39:38.13	300.05	14.41	
2025-01-10 03:39:38.34	300.01	14.40	
2025-01-10 03:39:38.54	299.96	14.39	
2025-01-10 03:39:38.75	299.91	14.38	
2025-01-10 03:39:38.96	299.86	14.38	
2025-01-10 03:39:39.16	299.82	14.37	
2025-01-10 03:39:39.37	299.77	14.36	
2025-01-10 03:39:39.57	299.73	14.35	
2025-01-10 03:39:39.78	299.68	14.35	
2025-01-10 03:39:39.98	299.63	14.34	
2025-01-10 03:39:40.19	299.59	14.33	
2025-01-10 03:39:40.39	299.54	14.32	
2025-01-10 03:39:40.60	299.49	14.32	
2025-01-10 03:39:40.80	299.45	14.31	
2025-01-10 03:39:41.01	299.40	14.30	
2025-01-10 03:39:41.21	299.35	14.29	
2025-01-10 03:39:41.42	299.31	14.29	
2025-01-10 03:39:41.62	299.26	14.28	
2025-01-10 03:39:41.82	299.22	14.27	
2025-01-10 03:39:42.03	299.17	14.26	
2025-01-10 03:39:42.23	299.12	14.26	
2025-01-10 03:39:42.44	299.08	14.25	
2025-01-10 03:39:42.64	299.03	14.24	
2025-01-10 03:39:42.85	298.98	14.23	
2025-01-10 03:39:43.06	298.94	14.23	
2025-01-10 03:39:43.26	298.89	14.22	
2025-01-10 03:39:43.47	298.85	14.21	
2025-01-10 03:39:43.67	298.80	14.20	
2025-01-10 03:39:43.87	298.76	14.19	
2025-01-10 03:39:44.08	298.71	14.19	
2025-01-10 03:39:44.28	298.66	14.18	
2025-01-10 03:39:44.49	298.62	14.17	
2025-01-10 03:39:44.69	298.57	14.16	
2025-01-10 03:39:44.90	298.52	14.16	
2025-01-10 03:39:45.10	298.48	14.15	
2025-01-10 03:39:45.30	298.43	14.14	
2025-01-10 03:39:45.51	298.39	14.13	
2025-01-10 03:39:45.72	298.34	14.12	
2025-01-10 03:39:45.92	298.30	14.12	
2025-01-10 03:39:46.13	298.25	14.11	
2025-01-10 03:39:46.33	298.21	14.10	
2025-01-10 03:39:46.54	298.16	14.09	
2025-01-10 03:39:46.74	298.11	14.08	
2025-01-10 03:39:46.94	298.07	14.08	
2025-01-10 03:39:47.15	298.02	14.07	
2025-01-10 03:39:47.35	297.98	14.06	
2025-01-10 03:39:47.56	297.93	14.05	
2025-01-10 03:39:47.77	297.88	14.04	
2025-01-10 03:39:47.97	297.84	14.04	
2025-01-10 03:39:48.18	297.79	14.03	
2025-01-10 03:39:48.38	297.75	14.02	
2025-01-10 03:39:48.59	297.70	14.01	
2025-01-10 03:39:48.79	297.66	14.00	
2025-01-10 03:39:49.00	297.61	14.00	
2025-01-10 03:39:49.20	297.57	13.99	
2025-01-10 03:39:49.41	297.52	13.98	
2025-01-10 03:39:49.61	297.48	13.97	
2025-01-10 03:39:49.82	297.43	13.96	
2025-01-10 03:39:50.02	297.39	13.96	
2025-01-10 03:39:50.23	297.34	13.95	
2025-01-10 03:39:50.43	297.30	13.94	
2025-01-10 03:39:50.64	297.25	13.93	
2025-01-10 03:39:50.84	297.21	13.92	
2025-01-10 03:39:51.05	297.16	13.91	
2025-01-10 03:39:51.25	297.12	13.91	
2025-01-10 03:39:51.46	297.07	13.90	
2025-01-10 03:39:51.66	297.03	13.89	
2025-01-10 03:39:51.87	296.98	13.88	
2025-01-10 03:39:52.07	296.94	13.87	
2025-01-10 03:39:52.28	296.89	13.86	
2025-01-10 03:39:52.48	296.85	13.86	
2025-01-10 03:39:52.69	296.80	13.85	
2025-01-10 03:39:52.89	296.76	13.84	
2025-01-10 03:39:53.10	296.71	13.83	
2025-01-10 03:39:53.30	296.67	13.82	
2025-01-10 03:39:53.51	296.62	13.81	
2025-01-10 03:39:53.71	296.58	13.81	
2025-01-10 03:39:53.92	296.53	13.80	
2025-01-10 03:39:54.12	296.49	13.79	
2025-01-10 03:39:54.33	296.44	13.78	
2025-01-10 03:39:54.55	296.39	13.77	
2025-01-10 03:39:54.75	296.35	13.76	
2025-01-10 03:39:54.96	296.31	13.75	
2025-01-10 03:39:55.16	296.26	13.75	
2025-01-10 03:39:55.37	296.22	13.74	
2025-01-10 03:39:55.57	296.17	13.73	
2025-01-10 03:39:55.78	296.13	13.72	
2025-01-10 03:39:55.99	296.08	13.71	
2025-01-10 03:39:56.19	296.04	13.70	
2025-01-10 03:39:56.41	295.99	13.69	
2025-01-10 03:39:56.61	295.95	13.68	
2025-01-10 03:39:56.82	295.90	13.68	
2025-01-10 03:39:57.02	295.86	13.67	
2025-01-10 03:39:57.23	295.81	13.66	
2025-01-10 03:39:57.45	295.77	13.65	
2025-01-10 03:39:57.65	295.72	13.64	
2025-01-10 03:39:57.86	295.68	13.63	
2025-01-10 03:39:58.06	295.63	13.62	
2025-01-10 03:39:58.27	295.59	13.61	
2025-01-10 03:39:58.47	295.55	13.61	
2025-01-10 03:39:58.68	295.50	13.60	
2025-01-10 03:39:58.88	295.46	13.59	
2025-01-10 03:39:59.09	295.41	13.58	
2025-01-10 03:39:59.29	295.37	13.57	
2025-01-10 03:39:59.50	295.33	13.56	
2025-01-10 03:39:59.70	295.28	13.55	
2025-01-10 03:39:59.90	295.24	13.55	
2025-01-10 03:40:00.11	295.19	13.54	
2025-01-10 03:40:00.31	295.15	13.53	
2025-01-10 03:40:00.52	295.11	13.52	
2025-01-10 03:40:00.72	295.06	13.51	
2025-01-10 03:40:00.93	295.02	13.50	
2025-01-10 03:40:01.13	294.98	13.49	
2025-01-10 03:40:01.34	294.93	13.48	
2025-01-10 03:40:01.54	294.89	13.47	
2025-01-10 03:40:01.75	294.84	13.46	
2025-01-10 03:40:01.95	294.80	13.46	
2025-01-10 03:40:02.16	294.76	13.45	
2025-01-10 03:40:02.36	294.71	13.44	
2025-01-10 03:40:02.57	294.67	13.43	
2025-01-10 03:40:02.77	294.63	13.42	
2025-01-10 03:40:02.98	294.58	13.41	
2025-01-10 03:40:03.18	294.54	13.40	
2025-01-10 03:40:03.39	294.50	13.39	
2025-01-10 03:40:03.59	294.45	13.38	
2025-01-10 03:40:03.80	294.41	13.38	
2025-01-10 03:40:04.00	294.37	13.37	
2025-01-10 03:40:04.21	294.32	13.36	
2025-01-10 03:40:04.41	294.28	13.35	
2025-01-10 03:40:04.62	294.24	13.34	
2025-01-10 03:40:04.83	294.19	13.33	
2025-01-10 03:40:05.03	294.15	13.32	
2025-01-10 03:40:05.24	294.11	13.31	
2025-01-10 03:40:05.44	294.06	13.30	
2025-01-10 03:40:05.65	294.02	13.29	
2025-01-10 03:40:05.85	293.98	13.28	
2025-01-10 03:40:06.06	293.93	13.27	
2025-01-10 03:40:06.26	293.89	13.27	
2025-01-10 03:40:06.47	293.85	13.26	
2025-01-10 03:40:06.67	293.81	13.25	
2025-01-10 03:40:06.88	293.76	13.24	
2025-01-10 03:40:07.08	293.72	13.23	
2025-01-10 03:40:07.29	293.68	13.22	
2025-01-10 03:40:07.49	293.63	13.21	
2025-01-10 03:40:07.70	293.59	13.20	
2025-01-10 03:40:07.90	293.55	13.19	
2025-01-10 03:40:08.11	293.50	13.18	
2025-01-10 03:40:08.31	293.46	13.17	
2025-01-10 03:40:08.52	293.42	13.16	
2025-01-10 03:40:08.72	293.38	13.15	
2025-01-10 03:40:08.93	293.33	13.15	
2025-01-10 03:40:09.13	293.29	13.14	
2025-01-10 03:40:09.33	293.25	13.13	
2025-01-10 03:40:09.54	293.21	13.12	
2025-01-10 03:40:09.74	293.17	13.11	
2025-01-10 03:40:09.95	293.12	13.10	
2025-01-10 03:40:10.16	293.08	13.09	
2025-01-10 03:40:10.36	293.04	13.08	
2025-01-10 03:40:10.57	292.99	13.07	
2025-01-10 03:40:10.77	292.95	13.06	
2025-01-10 03:40:10.98	292.91	13.05	
2025-01-10 03:40:11.18	292.87	13.04	
2025-01-10 03:40:11.39	292.82	13.03	
2025-01-10 03:40:11.59	292.78	13.02	
2025-01-10 03:40:11.80	292.74	13.01	
2025-01-10 03:40:12.00	292.70	13.00	
2025-01-10 03:40:12.21	292.66	12.99	
2025-01-10 03:40:12.42	292.61	12.98	
2025-01-10 03:40:12.62	292.57	12.98	
2025-01-10 03:40:12.82	292.53	12.97	
2025-01-10 03:40:13.03	292.49	12.96	
2025-01-10 03:40:13.23	292.45	12.95	
2025-01-10 03:40:13.44	292.40	12.94	
2025-01-10 03:40:13.64	292.36	12.93	
2025-01-10 03:40:13.85	292.32	12.92	
2025-01-10 03:40:14.05	292.28	12.91	
2025-01-10 03:40:14.26	292.23	12.90	
2025-01-10 03:40:14.46	292.19	12.89	
2025-01-10 03:40:14.67	292.15	12.88	
2025-01-10 03:40:14.87	292.11	12.87	
2025-01-10 03:40:15.08	292.07	12.86	
2025-01-10 03:40:15.28	292.03	12.85	
2025-01-10 03:40:15.49	291.98	12.84	
2025-01-10 03:40:15.69	291.94	12.83	
2025-01-10 03:40:15.89	291.90	12.82	
2025-01-10 03:40:16.10	291.86	12.81	
2025-01-10 03:40:16.31	291.82	12.80	
2025-01-10 03:40:16.52	291.78	12.79	
2025-01-10 03:40:16.73	291.73	12.78	
2025-01-10 03:40:16.93	291.69	12.77	
2025-01-10 03:40:17.14	291.65	12.76	
2025-01-10 03:40:17.34	291.61	12.75	
2025-01-10 03:40:17.54	291.57	12.74	
2025-01-10 03:40:17.75	291.53	12.73	
2025-01-10 03:40:17.96	291.48	12.72	
2025-01-10 03:40:18.16	291.44	12.71	
2025-01-10 03:40:18.36	291.40	12.71	
2025-01-10 03:40:18.57	291.36	12.70	
2025-01-10 03:40:18.78	291.32	12.69	
2025-01-10 03:40:18.98	291.28	12.68	
2025-01-10 03:40:19.19	291.24	12.67	
2025-01-10 03:40:19.39	291.20	12.66	
2025-01-10 03:40:19.60	291.15	12.65	
2025-01-10 03:40:19.80	291.11	12.64	
2025-01-10 03:40:20.01	291.07	12.63	
2025-01-10 03:40:20.21	291.03	12.62	
2025-01-10 03:40:20.42	290.99	12.61	
2025-01-10 03:40:20.62	290.95	12.60	
2025-01-10 03:40:20.83	290.91	12.59	
2025-01-10 03:40:21.04	290.87	12.58	
2025-01-10 03:40:21.25	290.82	12.57	
2025-01-10 03:40:21.46	290.78	12.56	
2025-01-10 03:40:21.66	290.74	12.55	
2025-01-10 03:40:21.87	290.70	12.54	
2025-01-10 03:40:22.08	290.66	12.53	
2025-01-10 03:40:22.28	290.62	12.52	
2025-01-10 03:40:22.48	290.58	12.51	
2025-01-10 03:40:22.69	290.54	12.50	
2025-01-10 03:40:22.89	290.50	12.49	
2025-01-10 03:40:23.10	290.46	12.48	
2025-01-10 03:40:23.31	290.42	12.47	
2025-01-10 03:40:23.51	290.38	12.46	
2025-01-10 03:40:23.72	290.33	12.45	
2025-01-10 03:40:23.92	290.29	12.44	
2025-01-10 03:40:24.13	290.25	12.43	
2025-01-10 03:40:24.33	290.21	12.42	
2025-01-10 03:40:24.54	290.17	12.41	
2025-01-10 03:40:24.74	290.13	12.40	
2025-01-10 03:40:24.95	290.09	12.39	
2025-01-10 03:40:25.16	290.05	12.38	
2025-01-10 03:40:25.36	290.01	12.37	
2025-01-10 03:40:25.56	289.97	12.36	
2025-01-10 03:40:25.77	289.93	12.35	
2025-01-10 03:40:25.97	289.89	12.34	
2025-01-10 03:40:26.18	289.85	12.32	
2025-01-10 03:40:26.38	289.81	12.31	
2025-01-10 03:40:26.59	289.77	12.30	
2025-01-10 03:40:26.79	289.73	12.29	
2025-01-10 03:40:27.00	289.69	12.28	
2025-01-10 03:40:27.21	289.65	12.27	
2025-01-10 03:40:27.41	289.61	12.26	
2025-01-10 03:40:27.63	289.57	12.25	
2025-01-10 03:40:27.83	289.53	12.24	
2025-01-10 03:40:28.04	289.49	12.23	
2025-01-10 03:40:28.24	289.45	12.22	
2025-01-10 03:40:28.45	289.41	12.21	
2025-01-10 03:40:28.65	289.37	12.20	
2025-01-10 03:40:28.87	289.33	12.19	
2025-01-10 03:40:29.08	289.29	12.18	
2025-01-10 03:40:29.28	289.25	12.17	
2025-01-10 03:40:29.49	289.21	12.16	
2025-01-10 03:40:29.69	289.17	12.15	
2025-01-10 03:40:29.90	289.13	12.14	
2025-01-10 03:40:30.11	289.09	12.13	
2025-01-10 03:40:30.31	289.05	12.12	
2025-01-10 03:40:30.51	289.01	12.11	
2025-01-10 03:40:30.72	288.97	12.10	
2025-01-10 03:40:30.92	288.93	12.09	
2025-01-10 03:40:31.13	288.89	12.08	
2025-01-10 03:40:31.34	288.85	12.07	
2025-01-10 03:40:31.54	288.81	12.06	
2025-01-10 03:40:31.75	288.77	12.05	
2025-01-10 03:40:31.95	288.73	12.04	
2025-01-10 03:40:32.16	288.69	12.03	
2025-01-10 03:40:32.36	288.65	12.02	
2025-01-10 03:40:32.57	288.61	12.00	
2025-01-10 03:40:32.78	288.57	11.99	
2025-01-10 03:40:32.98	288.53	11.98	
2025-01-10 03:40:33.19	288.49	11.97	
2025-01-10 03:40:33.39	288.46	11.96	
2025-01-10 03:40:33.60	288.42	11.95	
2025-01-10 03:40:33.81	288.38	11.94	
2025-01-10 03:40:34.01	288.34	11.93	
2025-01-10 03:40:34.21	288.30	11.92	
2025-01-10 03:40:34.42	288.26	11.91	
2025-01-10 03:40:34.63	288.22	11.90	
2025-01-10 03:40:34.83	288.18	11.89	
2025-01-10 03:40:35.04	288.14	11.88	
2025-01-10 03:40:35.24	288.10	11.87	
2025-01-10 03:40:35.44	288.07	11.86	
2025-01-10 03:40:35.65	288.03	11.85	
2025-01-10 03:40:35.85	287.99	11.84	
2025-01-10 03:40:36.06	287.95	11.83	
2025-01-10 03:40:36.26	287.91	11.82	
2025-01-10 03:40:36.47	287.87	11.81	
2025-01-10 03:40:36.67	287.83	11.80	
2025-01-10 03:40:36.88	287.80	11.79	
2025-01-10 03:40:37.09	287.76	11.77	
2025-01-10 03:40:37.29	287.72	11.76	
2025-01-10 03:40:37.50	287.68	11.75	
2025-01-10 03:40:37.70	287.64	11.74	
2025-01-10 03:40:37.91	287.60	11.73	
2025-01-10 03:40:38.11	287.56	11.72	
2025-01-10 03:40:38.31	287.53	11.71	
2025-01-10 03:40:38.52	287.49	11.70	
2025-01-10 03:40:38.73	287.45	11.69	
2025-01-10 03:40:38.93	287.41	11.68	
2025-01-10 03:40:39.14	287.37	11.67	
2025-01-10 03:40:39.34	287.33	11.66	
2025-01-10 03:40:39.55	287.29	11.65	
2025-01-10 03:40:39.75	287.26	11.64	
2025-01-10 03:40:39.96	287.22	11.63	
2025-01-10 03:40:40.16	287.18	11.62	
2025-01-10 03:40:40.37	287.14	11.60	
2025-01-10 03:40:40.57	287.11	11.59	
2025-01-10 03:40:40.78	287.07	11.58	
2025-01-10 03:40:40.99	287.03	11.57	
2025-01-10 03:40:41.19	286.99	11.56	
2025-01-10 03:40:41.40	286.95	11.55	
2025-01-10 03:40:41.60	286.91	11.54	
2025-01-10 03:40:41.80	286.88	11.53	
2025-01-10 03:40:42.01	286.84	11.52	
2025-01-10 03:40:42.22	286.80	11.51	
2025-01-10 03:40:42.42	286.76	11.50	
2025-01-10 03:40:42.63	286.72	11.49	
2025-01-10 03:40:42.83	286.69	11.48	
2025-01-10 03:40:43.03	286.65	11.47	
2025-01-10 03:40:43.24	286.61	11.45	
2025-01-10 03:40:43.44	286.58	11.44	
2025-01-10 03:40:43.66	286.54	11.43	
2025-01-10 03:40:43.87	286.50	11.42	
2025-01-10 03:40:44.07	286.46	11.41	
2025-01-10 03:40:44.28	286.42	11.40	
2025-01-10 03:40:44.49	286.38	11.39	
2025-01-10 03:40:44.69	286.35	11.38	
2025-01-10 03:40:44.90	286.31	11.37	
2025-01-10 03:40:45.10	286.27	11.36	
2025-01-10 03:40:45.31	286.23	11.35	
2025-01-10 03:40:45.51	286.20	11.34	
2025-01-10 03:40:45.72	286.16	11.32	
2025-01-10 03:40:45.92	286.12	11.31	
2025-01-10 03:40:46.13	286.08	11.30	
2025-01-10 03:40:46.33	286.05	11.29	
2025-01-10 03:40:46.54	286.01	11.28	
2025-01-10 03:40:46.74	285.97	11.27	
2025-01-10 03:40:46.95	285.94	11.26	
2025-01-10 03:40:47.15	285.90	11.25	
2025-01-10 03:40:47.36	285.86	11.24	
2025-01-10 03:40:47.56	285.83	11.23	
2025-01-10 03:40:47.77	285.79	11.22	
2025-01-10 03:40:47.97	285.75	11.21	
2025-01-10 03:40:48.18	285.71	11.19	
2025-01-10 03:40:48.38	285.68	11.18	
2025-01-10 03:40:48.59	285.64	11.17	
2025-01-10 03:40:48.79	285.60	11.16	
2025-01-10 03:40:49.01	285.56	11.15	
2025-01-10 03:40:49.22	285.53	11.14	
2025-01-10 03:40:49.42	285.49	11.13	
2025-01-10 03:40:49.63	285.45	11.12	
2025-01-10 03:40:49.83	285.42	11.11	
2025-01-10 03:40:50.05	285.38	11.09	
2025-01-10 03:40:50.26	285.34	11.08	
2025-01-10 03:40:50.46	285.30	11.07	
2025-01-10 03:40:50.67	285.27	11.06	
2025-01-10 03:40:50.87	285.23	11.05	
2025-01-10 03:40:51.08	285.19	11.04	
2025-01-10 03:40:51.28	285.16	11.03	
2025-01-10 03:40:51.49	285.12	11.02	
2025-01-10 03:40:51.69	285.09	11.01	
2025-01-10 03:40:51.90	285.05	11.00	
2025-01-10 03:40:52.11	285.01	10.98	
2025-01-10 03:40:52.31	284.98	10.97	
2025-01-10 03:40:52.51	284.94	10.96	
2025-01-10 03:40:52.72	284.90	10.95	
2025-01-10 03:40:52.93	284.87	10.94	
2025-01-10 03:40:53.14	284.83	10.93	
2025-01-10 03:40:53.34	284.79	10.92	
2025-01-10 03:40:53.55	284.76	10.91	
2025-01-10 03:40:53.75	284.72	10.90	
2025-01-10 03:40:53.96	284.68	10.89	
2025-01-10 03:40:54.16	284.65	10.87	
2025-01-10 03:40:54.37	284.61	10.86	
2025-01-10 03:40:54.57	284.58	10.85	
2025-01-10 03:40:54.78	284.54	10.84	
2025-01-10 03:40:54.98	284.50	10.83	
2025-01-10 03:40:55.19	284.47	10.82	
2025-01-10 03:40:55.40	284.43	10.81	
2025-01-10 03:40:55.60	284.40	10.80	
2025-01-10 03:40:55.81	284.36	10.79	
2025-01-10 03:40:56.01	284.32	10.77	
2025-01-10 03:40:56.22	284.29	10.76	
2025-01-10 03:40:56.42	284.25	10.75	
2025-01-10 03:40:56.63	284.22	10.74	
2025-01-10 03:40:56.83	284.18	10.73	
2025-01-10 03:40:57.04	284.14	10.72	
2025-01-10 03:40:57.24	284.11	10.71	
2025-01-10 03:40:57.45	284.07	10.70	
2025-01-10 03:40:57.65	284.04	10.69	
2025-01-10 03:40:57.86	284.00	10.67	
2025-01-10 03:40:58.06	283.97	10.66	
2025-01-10 03:40:58.27	283.93	10.65	
2025-01-10 03:40:58.48	283.89	10.64	
2025-01-10 03:40:58.68	283.86	10.63	
2025-01-10 03:40:58.88	283.83	10.62	
2025-01-10 03:40:59.09	283.79	10.61	
2025-01-10 03:40:59.30	283.75	10.60	
2025-01-10 03:40:59.50	283.72	10.59	
2025-01-10 03:40:59.70	283.68	10.57	
2025-01-10 03:40:59.91	283.65	10.56	
2025-01-10 03:41:00.11	283.61	10.55	
2025-01-10 03:41:00.32	283.58	10.54	
2025-01-10 03:41:00.52	283.54	10.53	
2025-01-10 03:41:00.73	283.51	10.52	
2025-01-10 03:41:00.93	283.47	10.51	
2025-01-10 03:41:01.14	283.44	10.50	
2025-01-10 03:41:01.34	283.40	10.49	
2025-01-10 03:41:01.55	283.37	10.47	
2025-01-10 03:41:01.75	283.33	10.46	
2025-01-10 03:41:01.96	283.30	10.45	
2025-01-10 03:41:02.16	283.26	10.44	
2025-01-10 03:41:02.37	283.23	10.43	
2025-01-10 03:41:02.57	283.19	10.42	
2025-01-10 03:41:02.78	283.16	10.41	
2025-01-10 03:41:02.98	283.12	10.40	
2025-01-10 03:41:03.19	283.09	10.38	
2025-01-10 03:41:03.39	283.05	10.37	
2025-01-10 03:41:03.60	283.02	10.36	
2025-01-10 03:41:03.80	282.98	10.35	
2025-01-10 03:41:04.01	282.95	10.34	
2025-01-10 03:41:04.21	282.91	10.33	
2025-01-10 03:41:04.42	282.88	10.32	
2025-01-10 03:41:04.62	282.85	10.31	
2025-01-10 03:41:04.83	282.81	10.29	
2025-01-10 03:41:05.03	282.78	10.28	
2025-01-10 03:41:05.24	282.74	10.27	
2025-01-10 03:41:05.44	282.71	10.26	
2025-01-10 03:41:05.65	282.67	10.25	
2025-01-10 03:41:05.85	282.64	10.24	
2025-01-10 03:41:06.06	282.60	10.23	
2025-01-10 03:41:06.26	282.57	10.22	
2025-01-10 03:41:06.47	282.53	10.20	
2025-01-10 03:41:06.67	282.50	10.19	
2025-01-10 03:41:06.88	282.47	10.18	
2025-01-10 03:41:07.08	282.43	10.17	
2025-01-10 03:41:07.29	282.40	10.16	
2025-01-10 03:41:07.49	282.36	10.15	
2025-01-10 03:41:07.70	282.33	10.14	
2025-01-10 03:41:07.91	282.29	10.12	
2025-01-10 03:41:08.11	282.26	10.11	
2025-01-10 03:41:08.31	282.23	10.10	
2025-01-10 03:41:08.52	282.19	10.09	
2025-01-10 03:41:08.72	282.16	10.08	
2025-01-10 03:41:08.93	282.13	10.07	
2025-01-10 03:41:09.14	282.09	10.06	
2025-01-10 03:41:09.34	282.06	10.05	
2025-01-10 03:41:09.54	282.02	10.03	
2025-01-10 03:41:09.75	281.99	10.02	
2025-01-10 03:41:09.95	281.96	10.01	
2025-01-10 03:41:10.16	281.92	10.00	
2025-01-10 03:41:10.36	281.89	9.99	
2025-01-10 03:41:10.57	281.85	9.98	
2025-01-10 03:41:10.77	281.82	9.97	
2025-01-10 03:41:10.98	281.79	9.95	
2025-01-10 03:41:11.19	281.75	9.94	
2025-01-10 03:41:11.39	281.72	9.93	
2025-01-10 03:41:11.59	281.69	9.92	
2025-01-10 03:41:11.80	281.65	9.91	
2025-01-10 03:41:12.01	281.62	9.90	
2025-01-10 03:41:12.21	281.59	9.89	
2025-01-10 03:41:12.41	281.55	9.88	
2025-01-10 03:41:12.62	281.52	9.86	
2025-01-10 03:41:12.83	281.48	9.85	
2025-01-10 03:41:13.03	281.45	9.84	
2025-01-10 03:41:13.24	281.42	9.83	
2025-01-10 03:41:13.44	281.38	9.82	
2025-01-10 03:41:13.65	281.35	9.81	
2025-01-10 03:41:13.85	281.32	9.80	
2025-01-10 03:41:14.06	281.28	9.78	
2025-01-10 03:41:14.26	281.25	9.77	
2025-01-10 03:41:14.47	281.22	9.76	
2025-01-10 03:41:14.67	281.18	9.75	
2025-01-10 03:41:14.88	281.15	9.74	
2025-01-10 03:41:15.08	281.12	9.73	
2025-01-10 03:41:15.29	281.08	9.72	
2025-01-10 03:41:15.50	281.05	9.70	
2025-01-10 03:41:15.71	281.02	9.69	
2025-01-10 03:41:15.92	280.98	9.68	
2025-01-10 03:41:16.12	280.95	9.67	
2025-01-10 03:41:16.33	280.92	9.66	
2025-01-10 03:41:16.54	280.88	9.65	
2025-01-10 03:41:16.74	280.85	9.63	
2025-01-10 03:41:16.95	280.82	9.62	
2025-01-10 03:41:17.15	280.79	9.61	
2025-01-10 03:41:17.36	280.75	9.60	
2025-01-10 03:41:17.56	280.72	9.59	
2025-01-10 03:41:17.77	280.69	9.58	
2025-01-10 03:41:17.97	280.65	9.57	
2025-01-10 03:41:18.18	280.62	9.55	
2025-01-10 03:41:18.38	280.59	9.54	
2025-01-10 03:41:18.59	280.56	9.53	
2025-01-10 03:41:18.79	280.52	9.52	
2025-01-10 03:41:19.00	280.49	9.51	
2025-01-10 03:41:19.20	280.46	9.50	
2025-01-10 03:41:19.41	280.43	9.49	
2025-01-10 03:41:19.61	280.39	9.47	
2025-01-10 03:41:19.82	280.36	9.46	
2025-01-10 03:41:20.04	280.33	9.45	
2025-01-10 03:41:20.24	280.29	9.44	
2025-01-10 03:41:20.45	280.26	9.43	
2025-01-10 03:41:20.65	280.23	9.42	
2025-01-10 03:41:20.86	280.20	9.40	
2025-01-10 03:41:21.06	280.16	9.39	
2025-01-10 03:41:21.27	280.13	9.38	
2025-01-10 03:41:21.47	280.10	9.37	
2025-01-10 03:41:21.68	280.07	9.36	
2025-01-10 03:41:21.88	280.04	9.35	
2025-01-10 03:41:22.09	280.00	9.33	
2025-01-10 03:41:22.29	279.97	9.32	
2025-01-10 03:41:22.50	279.94	9.31	
2025-01-10 03:41:22.70	279.91	9.30	
2025-01-10 03:41:22.91	279.87	9.29	
2025-01-10 03:41:23.11	279.84	9.28	
2025-01-10 03:41:23.32	279.81	9.27	
2025-01-10 03:41:23.52	279.78	9.25	
2025-01-10 03:41:23.73	279.75	9.24	
2025-01-10 03:41:23.94	279.71	9.23	
2025-01-10 03:41:24.14	279.68	9.22	
2025-01-10 03:41:24.35	279.65	9.21	
2025-01-10 03:41:24.55	279.62	9.20	
2025-01-10 03:41:24.76	279.59	9.18	
2025-01-10 03:41:24.96	279.55	9.17	
2025-01-10 03:41:25.17	279.52	9.16	
2025-01-10 03:41:25.37	279.49	9.15	
2025-01-10 03:41:25.58	279.46	9.14	
2025-01-10 03:41:25.78	279.43	9.13	
2025-01-10 03:41:25.99	279.40	9.12	
2025-01-10 03:41:26.20	279.36	9.10	
2025-01-10 03:41:26.40	279.33	9.09	
2025-01-10 03:41:26.61	279.30	9.08	
2025-01-10 03:41:26.82	279.27	9.07	
2025-01-10 03:41:27.02	279.24	9.06	
2025-01-10 03:41:27.24	279.20	9.05	
2025-01-10 03:41:27.45	279.17	9.03	
2025-01-10 03:41:27.66	279.14	9.02	
2025-01-10 03:41:27.87	279.11	9.01	
2025-01-10 03:41:28.07	279.08	9.00	
2025-01-10 03:41:28.28	279.04	8.99	
2025-01-10 03:41:28.48	279.01	8.98	
2025-01-10 03:41:28.68	278.98	8.96	
2025-01-10 03:41:28.89	278.95	8.95	
2025-01-10 03:41:29.09	278.92	8.94	
2025-01-10 03:41:29.30	278.89	8.93	
2025-01-10 03:41:29.50	278.86	8.92	
2025-01-10 03:41:29.71	278.83	8.91	
2025-01-10 03:41:29.91	278.80	8.89	
2025-01-10 03:41:30.12	278.76	8.88	
2025-01-10 03:41:30.33	278.73	8.87	
2025-01-10 03:41:30.53	278.70	8.86	
2025-01-10 03:41:30.73	278.67	8.85	
2025-01-10 03:41:30.94	278.64	8.84	
2025-01-10 03:41:31.15	278.61	8.82	
2025-01-10 03:41:31.35	278.58	8.81	
2025-01-10 03:41:31.56	278.55	8.80	
2025-01-10 03:41:31.76	278.52	8.79	
2025-01-10 03:41:31.97	278.48	8.78	
2025-01-10 03:41:32.17	278.45	8.77	
2025-01-10 03:41:32.38	278.42	8.75	
2025-01-10 03:41:32.58	278.39	8.74	
2025-01-10 03:41:32.80	278.36	8.73	
2025-01-10 03:41:33.02	278.33	8.72	
2025-01-10 03:41:33.22	278.30	8.71	
2025-01-10 03:41:33.43	278.27	8.70	
2025-01-10 03:41:33.63	278.24	8.68	
2025-01-10 03:41:33.84	278.20	8.67	
2025-01-10 03:41:34.04	278.17	8.66	
2025-01-10 03:41:34.25	278.14	8.65	
2025-01-10 03:41:34.45	278.11	8.64	
2025-01-10 03:41:34.66	278.08	8.63	
2025-01-10 03:41:34.86	278.05	8.61	
2025-01-10 03:41:35.07	278.02	8.60	
2025-01-10 03:41:35.27	277.99	8.59	
2025-01-10 03:41:35.48	277.96	8.58	
2025-01-10 03:41:35.68	277.93	8.57	
2025-01-10 03:41:35.89	277.90	8.56	
2025-01-10 03:41:36.09	277.87	8.54	
2025-01-10 03:41:36.30	277.84	8.53	
2025-01-10 03:41:36.50	277.81	8.52	
2025-01-10 03:41:36.71	277.78	8.51	
2025-01-10 03:41:36.91	277.75	8.50	
2025-01-10 03:41:37.12	277.72	8.49	
2025-01-10 03:41:37.32	277.69	8.47	
2025-01-10 03:41:37.53	277.66	8.46	
2025-01-10 03:41:37.73	277.63	8.45	
2025-01-10 03:41:37.94	277.60	8.44	
2025-01-10 03:41:38.14	277.57	8.43	
2025-01-10 03:41:38.35	277.54	8.42	
2025-01-10 03:41:38.55	277.51	8.40	
2025-01-10 03:41:38.76	277.48	8.39	
2025-01-10 03:41:38.96	277.45	8.38	
2025-01-10 03:41:39.16	277.42	8.37	
2025-01-10 03:41:39.37	277.39	8.36	
2025-01-10 03:41:39.58	277.36	8.35	
2025-01-10 03:41:39.78	277.33	8.33	
2025-01-10 03:41:39.99	277.30	8.32	
2025-01-10 03:41:40.19	277.27	8.31	
2025-01-10 03:41:40.40	277.24	8.30	
2025-01-10 03:41:40.60	277.21	8.29	
2025-01-10 03:41:40.81	277.18	8.28	
2025-01-10 03:41:41.01	277.15	8.27	
2025-01-10 03:41:41.22	277.12	8.25	
2025-01-10 03:41:41.42	277.09	8.24	
2025-01-10 03:41:41.63	277.06	8.23	
2025-01-10 03:41:41.83	277.03	8.22	
2025-01-10 03:41:42.04	277.00	8.21	
2025-01-10 03:41:42.24	276.97	8.20	
2025-01-10 03:41:42.45	276.94	8.18	
2025-01-10 03:41:42.65	276.91	8.17	
2025-01-10 03:41:42.86	276.88	8.16	
2025-01-10 03:41:43.06	276.85	8.15	
2025-01-10 03:41:43.27	276.82	8.14	
2025-01-10 03:41:43.47	276.80	8.13	
2025-01-10 03:41:43.68	276.77	8.11	
2025-01-10 03:41:43.88	276.74	8.10	
2025-01-10 03:41:44.09	276.71	8.09	
2025-01-10 03:41:44.29	276.68	8.08	
2025-01-10 03:41:44.50	276.65	8.07	
2025-01-10 03:41:44.70	276.62	8.06	
2025-01-10 03:41:44.91	276.59	8.04	
2025-01-10 03:41:45.11	276.56	8.03	
2025-01-10 03:41:45.31	276.53	8.02	
2025-01-10 03:41:45.53	276.50	8.01	
2025-01-10 03:41:45.73	276.47	8.00	
2025-01-10 03:41:45.94	276.44	7.98	
2025-01-10 03:41:46.15	276.41	7.97	
2025-01-10 03:41:46.35	276.39	7.96	
2025-01-10 03:41:46.56	276.36	7.95	
2025-01-10 03:41:46.76	276.33	7.94	
2025-01-10 03:41:46.97	276.30	7.93	
2025-01-10 03:41:47.17	276.27	7.91	
2025-01-10 03:41:47.38	276.24	7.90	
2025-01-10 03:41:47.58	276.21	7.89	
2025-01-10 03:41:47.80	276.18	7.88	
2025-01-10 03:41:48.01	276.15	7.87	
2025-01-10 03:41:48.21	276.12	7.86	
2025-01-10 03:41:48.42	276.09	7.84	
2025-01-10 03:41:48.62	276.07	7.83	
2025-01-10 03:41:48.84	276.03	7.82	
2025-01-10 03:41:49.05	276.01	7.81	
2025-01-10 03:41:49.25	275.98	7.80	
2025-01-10 03:41:49.46	275.95	7.78	
2025-01-10 03:41:49.66	275.92	7.77	
2025-01-10 03:41:49.87	275.89	7.76	
2025-01-10 03:41:50.07	275.86	7.75	
2025-01-10 03:41:50.28	275.83	7.74	
2025-01-10 03:41:50.48	275.81	7.73	
2025-01-10 03:41:50.69	275.78	7.71	
2025-01-10 03:41:50.89	275.75	7.70	
2025-01-10 03:41:51.10	275.72	7.69	
2025-01-10 03:41:51.30	275.69	7.68	
2025-01-10 03:41:51.51	275.66	7.67	
2025-01-10 03:41:51.71	275.64	7.66	
2025-01-10 03:41:51.92	275.61	7.64	
2025-01-10 03:41:52.12	275.58	7.63	
2025-01-10 03:41:52.33	275.55	7.62	
2025-01-10 03:41:52.53	275.52	7.61	
2025-01-10 03:41:52.74	275.49	7.60	
2025-01-10 03:41:52.94	275.47	7.59	
2025-01-10 03:41:53.15	275.44	7.57	
2025-01-10 03:41:53.35	275.41	7.56	
2025-01-10 03:41:53.55	275.38	7.55	
2025-01-10 03:41:53.76	275.35	7.54	
2025-01-10 03:41:53.97	275.32	7.53	
2025-01-10 03:41:54.18	275.30	7.52	
2025-01-10 03:41:54.39	275.27	7.50	
2025-01-10 03:41:54.59	275.24	7.49	
2025-01-10 03:41:54.80	275.21	7.48	
2025-01-10 03:41:55.01	275.18	7.47	
2025-01-10 03:41:55.22	275.15	7.46	
2025-01-10 03:41:55.43	275.13	7.44	
2025-01-10 03:41:55.64	275.10	7.43	
2025-01-10 03:41:55.84	275.07	7.42	
2025-01-10 03:41:56.05	275.04	7.41	
2025-01-10 03:41:56.25	275.01	7.40	
2025-01-10 03:41:56.46	274.99	7.39	
2025-01-10 03:41:56.66	274.96	7.37	
2025-01-10 03:41:56.87	274.93	7.36	
2025-01-10 03:41:57.07	274.90	7.35	
2025-01-10 03:41:57.28	274.87	7.34	
2025-01-10 03:41:57.48	274.85	7.33	
2025-01-10 03:41:57.69	274.82	7.32	
2025-01-10 03:41:57.89	274.79	7.30	
2025-01-10 03:41:58.10	274.76	7.29	
2025-01-10 03:41:58.30	274.74	7.28	
2025-01-10 03:41:58.51	274.71	7.27	
2025-01-10 03:41:58.71	274.68	7.26	
2025-01-10 03:41:58.92	274.65	7.25	
2025-01-10 03:41:59.12	274.63	7.23	
2025-01-10 03:41:59.33	274.60	7.22	
2025-01-10 03:41:59.53	274.57	7.21	
2025-01-10 03:41:59.74	274.54	7.20	
2025-01-10 03:41:59.94	274.52	7.19	
2025-01-10 03:42:00.14	274.49	7.18	
2025-01-10 03:42:00.35	274.46	7.16	
2025-01-10 03:42:00.55	274.44	7.15	
2025-01-10 03:42:00.76	274.41	7.14	
2025-01-10 03:42:00.96	274.38	7.13	
2025-01-10 03:42:01.17	274.35	7.12	
2025-01-10 03:42:01.38	274.33	7.10	
2025-01-10 03:42:01.58	274.30	7.09	
2025-01-10 03:42:01.78	274.27	7.08	
2025-01-10 03:42:01.99	274.25	7.07	
2025-01-10 03:42:02.19	274.22	7.06	
2025-01-10 03:42:02.40	274.19	7.05	
2025-01-10 03:42:02.60	274.16	7.04	
2025-01-10 03:42:02.80	274.14	7.02	
2025-01-10 03:42:03.01	274.11	7.01	
2025-01-10 03:42:03.22	274.08	7.00	
2025-01-10 03:42:03.42	274.06	6.99	
2025-01-10 03:42:03.62	274.03	6.98	
2025-01-10 03:42:03.83	274.00	6.97	
2025-01-10 03:42:04.03	273.98	6.95	
2025-01-10 03:42:04.24	273.95	6.94	
2025-01-10 03:42:04.45	273.92	6.93	
2025-01-10 03:42:04.65	273.90	6.92	
2025-01-10 03:42:04.85	273.87	6.91	
2025-01-10 03:42:05.06	273.84	6.90	
2025-01-10 03:42:05.26	273.82	6.88	
2025-01-10 03:42:05.47	273.79	6.87	
2025-01-10 03:42:05.67	273.76	6.86	
2025-01-10 03:42:05.88	273.73	6.85	
2025-01-10 03:42:06.08	273.71	6.84	
2025-01-10 03:42:06.29	273.68	6.83	
2025-01-10 03:42:06.49	273.66	6.81	
2025-01-10 03:42:06.70	273.63	6.80	
2025-01-10 03:42:06.90	273.60	6.79	
2025-01-10 03:42:07.11	273.58	6.78	
2025-01-10 03:42:07.31	273.55	6.77	
2025-01-10 03:42:07.52	273.52	6.76	
2025-01-10 03:42:07.72	273.50	6.74	
2025-01-10 03:42:07.92	273.47	6.73	
2025-01-10 03:42:08.13	273.44	6.72	
2025-01-10 03:42:08.34	273.42	6.71	
2025-01-10 03:42:08.54	273.39	6.70	
2025-01-10 03:42:08.75	273.36	6.69	
2025-01-10 03:42:08.95	273.34	6.67	
2025-01-10 03:42:09.15	273.31	6.66	
2025-01-10 03:42:09.36	273.29	6.65	
2025-01-10 03:42:09.57	273.26	6.64	
2025-01-10 03:42:09.77	273.23	6.63	
2025-01-10 03:42:09.97	273.21	6.62	
2025-01-10 03:42:10.18	273.18	6.60	
2025-01-10 03:42:10.38	273.16	6.59	
2025-01-10 03:42:10.59	273.13	6.58	
2025-01-10 03:42:10.79	273.10	6.57	
2025-01-10 03:42:11.00	273.08	6.56	
2025-01-10 03:42:11.20	273.05	6.55	
2025-01-10 03:42:11.41	273.02	6.53	
2025-01-10 03:42:11.61	273.00	6.52	
2025-01-10 03:42:11.82	272.97	6.51	
2025-01-10 03:42:12.02	272.95	6.50	
2025-01-10 03:42:12.23	272.92	6.49	
2025-01-10 03:42:12.43	272.89	6.48	
2025-01-10 03:42:12.64	272.87	6.46	
2025-01-10 03:42:12.84	272.84	6.45	
2025-01-10 03:42:13.05	272.82	6.44	
2025-01-10 03:42:13.25	272.79	6.43	
2025-01-10 03:42:13.46	272.76	6.42	
