passes_logs/2025/01/10/SPB_Silybum_02/SPB_Silybum_02__20250110_001821_AQUA_rec.log

#Pass ID: 20250110_001821_AQUA
#Satellite: AQUA
#Configuration: AQUA
#Start time: 2025-01-10 00:20:08

#Version: 2.0.20230423
#Station: SPB_Silybum_02
#Location: 30.233357 lon 59.946436 lat
#TLE: 1 27424U 02022A   25009.18250328  .00001819  00000+0  38344-3 0  9993
#TLE: 2 27424  98.3576 325.7944 0001512 117.4139 299.3627 14.60660146206772

#Time	Az	El	Level	Level2	SNR	BER	Gain	Gain2
2025-01-10 00:20:10.89	32.26	12.45	
2025-01-10 00:20:11.09	32.28	12.47	
2025-01-10 00:20:11.29	32.30	12.49	
2025-01-10 00:20:11.49	32.33	12.51	
2025-01-10 00:20:11.70	32.35	12.53	
2025-01-10 00:20:11.90	32.37	12.55	
2025-01-10 00:20:12.11	32.39	12.56	
2025-01-10 00:20:12.33	32.42	12.58	
2025-01-10 00:20:12.54	32.44	12.60	
2025-01-10 00:20:12.76	32.47	12.62	
2025-01-10 00:20:12.96	32.49	12.64	
2025-01-10 00:20:13.16	32.51	12.66	
2025-01-10 00:20:13.37	32.53	12.68	
2025-01-10 00:20:13.58	32.56	12.70	
2025-01-10 00:20:13.78	32.58	12.72	
2025-01-10 00:20:13.98	32.60	12.73	
2025-01-10 00:20:14.18	32.62	12.75	
2025-01-10 00:20:14.39	32.65	12.77	
2025-01-10 00:20:14.59	32.67	12.79	
2025-01-10 00:20:14.79	32.69	12.81	
2025-01-10 00:20:14.99	32.71	12.83	
2025-01-10 00:20:15.20	32.74	12.85	
2025-01-10 00:20:15.41	32.76	12.86	
2025-01-10 00:20:15.63	32.79	12.88	
2025-01-10 00:20:15.83	32.81	12.90	
2025-01-10 00:20:16.04	32.83	12.92	
2025-01-10 00:20:16.24	32.86	12.94	
2025-01-10 00:20:16.45	32.88	12.96	
2025-01-10 00:20:16.65	32.90	12.98	
2025-01-10 00:20:16.86	32.93	13.00	
2025-01-10 00:20:17.06	32.95	13.02	
2025-01-10 00:20:17.27	32.97	13.04	
2025-01-10 00:20:17.48	33.00	13.05	
2025-01-10 00:20:17.68	33.02	13.07	
2025-01-10 00:20:17.89	33.04	13.09	
2025-01-10 00:20:18.09	33.07	13.11	
2025-01-10 00:20:18.29	33.09	13.13	
2025-01-10 00:20:18.49	33.11	13.15	
2025-01-10 00:20:18.70	33.14	13.17	
2025-01-10 00:20:18.90	33.16	13.19	
2025-01-10 00:20:19.10	33.18	13.20	
2025-01-10 00:20:19.31	33.21	13.22	
2025-01-10 00:20:19.51	33.23	13.24	
2025-01-10 00:20:19.71	33.25	13.26	
2025-01-10 00:20:19.91	33.28	13.28	
2025-01-10 00:20:20.12	33.30	13.30	
2025-01-10 00:20:20.33	33.32	13.32	
2025-01-10 00:20:20.53	33.35	13.34	
2025-01-10 00:20:20.74	33.37	13.36	
2025-01-10 00:20:20.94	33.39	13.38	
2025-01-10 00:20:21.15	33.42	13.39	
2025-01-10 00:20:21.36	33.44	13.41	
2025-01-10 00:20:21.56	33.47	13.43	
2025-01-10 00:20:21.77	33.49	13.45	
2025-01-10 00:20:21.97	33.51	13.47	
2025-01-10 00:20:22.18	33.54	13.49	
2025-01-10 00:20:22.38	33.56	13.51	
2025-01-10 00:20:22.59	33.59	13.53	
2025-01-10 00:20:22.80	33.61	13.55	
2025-01-10 00:20:23.00	33.64	13.57	
2025-01-10 00:20:23.21	33.66	13.59	
2025-01-10 00:20:23.42	33.69	13.61	
2025-01-10 00:20:23.62	33.71	13.63	
2025-01-10 00:20:23.83	33.73	13.65	
2025-01-10 00:20:24.04	33.76	13.67	
2025-01-10 00:20:24.25	33.78	13.69	
2025-01-10 00:20:24.45	33.81	13.70	
2025-01-10 00:20:24.66	33.83	13.72	
2025-01-10 00:20:24.87	33.86	13.74	
2025-01-10 00:20:25.08	33.88	13.76	
2025-01-10 00:20:25.29	33.91	13.78	
2025-01-10 00:20:25.49	33.93	13.80	
2025-01-10 00:20:25.70	33.96	13.82	
2025-01-10 00:20:25.90	33.98	13.84	
2025-01-10 00:20:26.11	34.01	13.86	
2025-01-10 00:20:26.31	34.03	13.88	
2025-01-10 00:20:26.52	34.06	13.90	
2025-01-10 00:20:26.73	34.08	13.92	
2025-01-10 00:20:26.93	34.11	13.94	
2025-01-10 00:20:27.13	34.13	13.96	
2025-01-10 00:20:27.34	34.16	13.98	
2025-01-10 00:20:27.54	34.18	14.00	
2025-01-10 00:20:27.75	34.21	14.02	
2025-01-10 00:20:27.95	34.23	14.04	
2025-01-10 00:20:28.16	34.26	14.06	
2025-01-10 00:20:28.38	34.28	14.08	
2025-01-10 00:20:28.58	34.31	14.10	
2025-01-10 00:20:28.78	34.33	14.11	
2025-01-10 00:20:28.99	34.36	14.13	
2025-01-10 00:20:29.19	34.38	14.15	
2025-01-10 00:20:29.40	34.41	14.17	
2025-01-10 00:20:29.60	34.43	14.19	
2025-01-10 00:20:29.80	34.46	14.21	
2025-01-10 00:20:30.01	34.48	14.23	
2025-01-10 00:20:30.21	34.51	14.25	
2025-01-10 00:20:30.41	34.53	14.27	
2025-01-10 00:20:30.62	34.56	14.29	
2025-01-10 00:20:30.83	34.58	14.31	
2025-01-10 00:20:31.03	34.61	14.33	
2025-01-10 00:20:31.23	34.63	14.35	
2025-01-10 00:20:31.45	34.66	14.37	
2025-01-10 00:20:31.65	34.69	14.39	
2025-01-10 00:20:31.86	34.71	14.41	
2025-01-10 00:20:32.06	34.74	14.43	
2025-01-10 00:20:32.26	34.76	14.45	
2025-01-10 00:20:32.47	34.79	14.47	
2025-01-10 00:20:32.67	34.81	14.49	
2025-01-10 00:20:32.87	34.84	14.51	
2025-01-10 00:20:33.07	34.87	14.53	
2025-01-10 00:20:33.28	34.89	14.55	
2025-01-10 00:20:33.49	34.92	14.57	
2025-01-10 00:20:33.69	34.94	14.59	
2025-01-10 00:20:33.89	34.97	14.61	
2025-01-10 00:20:34.10	35.00	14.63	
2025-01-10 00:20:34.31	35.02	14.65	
2025-01-10 00:20:34.51	35.05	14.67	
2025-01-10 00:20:34.72	35.07	14.69	
2025-01-10 00:20:34.92	35.10	14.71	
2025-01-10 00:20:35.13	35.13	14.73	
2025-01-10 00:20:35.33	35.15	14.75	
2025-01-10 00:20:35.54	35.18	14.77	
2025-01-10 00:20:35.74	35.21	14.79	
2025-01-10 00:20:35.95	35.23	14.81	
2025-01-10 00:20:36.15	35.26	14.83	
2025-01-10 00:20:36.36	35.28	14.85	
2025-01-10 00:20:36.56	35.31	14.87	
2025-01-10 00:20:36.77	35.34	14.89	
2025-01-10 00:20:36.97	35.36	14.91	
2025-01-10 00:20:37.18	35.39	14.93	
2025-01-10 00:20:37.39	35.42	14.95	
2025-01-10 00:20:37.59	35.44	14.97	
2025-01-10 00:20:37.80	35.47	14.99	
2025-01-10 00:20:38.02	35.50	15.01	
2025-01-10 00:20:38.22	35.53	15.03	
2025-01-10 00:20:38.43	35.55	15.05	
2025-01-10 00:20:38.63	35.58	15.07	
2025-01-10 00:20:38.84	35.61	15.09	
2025-01-10 00:20:39.06	35.64	15.11	
2025-01-10 00:20:39.26	35.66	15.13	
2025-01-10 00:20:39.47	35.69	15.15	
2025-01-10 00:20:39.67	35.72	15.17	
2025-01-10 00:20:39.88	35.74	15.19	
2025-01-10 00:20:40.08	35.77	15.21	
2025-01-10 00:20:40.29	35.80	15.23	
2025-01-10 00:20:40.50	35.83	15.25	
2025-01-10 00:20:40.70	35.85	15.27	
2025-01-10 00:20:40.91	35.88	15.30	
2025-01-10 00:20:41.11	35.91	15.32	
2025-01-10 00:20:41.32	35.94	15.34	
2025-01-10 00:20:41.53	35.96	15.36	
2025-01-10 00:20:41.73	35.99	15.38	
2025-01-10 00:20:41.94	36.02	15.40	
2025-01-10 00:20:42.14	36.05	15.42	
2025-01-10 00:20:42.35	36.07	15.44	
2025-01-10 00:20:42.55	36.10	15.46	
2025-01-10 00:20:42.76	36.13	15.48	
2025-01-10 00:20:42.97	36.16	15.50	
2025-01-10 00:20:43.17	36.18	15.52	
2025-01-10 00:20:43.38	36.21	15.54	
2025-01-10 00:20:43.58	36.24	15.56	
2025-01-10 00:20:43.79	36.27	15.58	
2025-01-10 00:20:43.99	36.30	15.60	
2025-01-10 00:20:44.20	36.32	15.62	
2025-01-10 00:20:44.40	36.35	15.64	
2025-01-10 00:20:44.61	36.38	15.66	
2025-01-10 00:20:44.81	36.41	15.69	
2025-01-10 00:20:45.02	36.44	15.71	
2025-01-10 00:20:45.23	36.46	15.73	
2025-01-10 00:20:45.43	36.49	15.75	
2025-01-10 00:20:45.63	36.52	15.77	
2025-01-10 00:20:45.84	36.55	15.79	
2025-01-10 00:20:46.04	36.58	15.81	
2025-01-10 00:20:46.25	36.60	15.83	
2025-01-10 00:20:46.45	36.63	15.85	
2025-01-10 00:20:46.66	36.66	15.87	
2025-01-10 00:20:46.87	36.69	15.89	
2025-01-10 00:20:47.07	36.72	15.91	
2025-01-10 00:20:47.28	36.75	15.93	
2025-01-10 00:20:47.48	36.78	15.95	
2025-01-10 00:20:47.69	36.80	15.98	
2025-01-10 00:20:47.89	36.83	16.00	
2025-01-10 00:20:48.10	36.86	16.02	
2025-01-10 00:20:48.30	36.89	16.04	
2025-01-10 00:20:48.51	36.92	16.06	
2025-01-10 00:20:48.71	36.95	16.08	
2025-01-10 00:20:48.92	36.98	16.10	
2025-01-10 00:20:49.12	37.00	16.12	
2025-01-10 00:20:49.33	37.03	16.14	
2025-01-10 00:20:49.53	37.06	16.16	
2025-01-10 00:20:49.74	37.09	16.18	
2025-01-10 00:20:49.94	37.12	16.20	
2025-01-10 00:20:50.15	37.15	16.23	
2025-01-10 00:20:50.35	37.18	16.25	
2025-01-10 00:20:50.56	37.21	16.27	
2025-01-10 00:20:50.76	37.24	16.29	
2025-01-10 00:20:50.97	37.27	16.31	
2025-01-10 00:20:51.17	37.30	16.33	
2025-01-10 00:20:51.38	37.33	16.35	
2025-01-10 00:20:51.59	37.36	16.37	
2025-01-10 00:20:51.79	37.38	16.39	
2025-01-10 00:20:52.00	37.41	16.42	
2025-01-10 00:20:52.20	37.44	16.44	
2025-01-10 00:20:52.41	37.47	16.46	
2025-01-10 00:20:52.62	37.50	16.48	
2025-01-10 00:20:52.82	37.53	16.50	
2025-01-10 00:20:53.03	37.56	16.52	
2025-01-10 00:20:53.23	37.59	16.54	
2025-01-10 00:20:53.44	37.62	16.56	
2025-01-10 00:20:53.64	37.65	16.58	
2025-01-10 00:20:53.85	37.68	16.61	
2025-01-10 00:20:54.05	37.71	16.63	
2025-01-10 00:20:54.26	37.74	16.65	
2025-01-10 00:20:54.46	37.77	16.67	
2025-01-10 00:20:54.67	37.80	16.69	
2025-01-10 00:20:54.88	37.83	16.71	
2025-01-10 00:20:55.08	37.86	16.73	
2025-01-10 00:20:55.28	37.89	16.75	
2025-01-10 00:20:55.49	37.92	16.78	
2025-01-10 00:20:55.70	37.95	16.80	
2025-01-10 00:20:55.90	37.98	16.82	
2025-01-10 00:20:56.11	38.01	16.84	
2025-01-10 00:20:56.31	38.04	16.86	
2025-01-10 00:20:56.53	38.08	16.88	
2025-01-10 00:20:56.73	38.11	16.91	
2025-01-10 00:20:56.94	38.14	16.93	
2025-01-10 00:20:57.14	38.17	16.95	
2025-01-10 00:20:57.35	38.20	16.97	
2025-01-10 00:20:57.55	38.23	16.99	
2025-01-10 00:20:57.76	38.26	17.01	
2025-01-10 00:20:57.96	38.29	17.03	
2025-01-10 00:20:58.17	38.32	17.06	
2025-01-10 00:20:58.37	38.35	17.08	
2025-01-10 00:20:58.58	38.38	17.10	
2025-01-10 00:20:58.78	38.41	17.12	
2025-01-10 00:20:58.99	38.44	17.14	
2025-01-10 00:20:59.19	38.47	17.16	
2025-01-10 00:20:59.40	38.51	17.18	
2025-01-10 00:20:59.60	38.54	17.21	
2025-01-10 00:20:59.81	38.57	17.23	
2025-01-10 00:21:00.01	38.60	17.25	
2025-01-10 00:21:00.22	38.63	17.27	
2025-01-10 00:21:00.42	38.66	17.29	
2025-01-10 00:21:00.63	38.69	17.31	
2025-01-10 00:21:00.83	38.72	17.34	
2025-01-10 00:21:01.04	38.76	17.36	
2025-01-10 00:21:01.24	38.79	17.38	
2025-01-10 00:21:01.44	38.82	17.40	
2025-01-10 00:21:01.65	38.85	17.42	
2025-01-10 00:21:01.86	38.88	17.44	
2025-01-10 00:21:02.06	38.91	17.47	
2025-01-10 00:21:02.27	38.95	17.49	
2025-01-10 00:21:02.47	38.98	17.51	
2025-01-10 00:21:02.68	39.01	17.53	
2025-01-10 00:21:02.88	39.04	17.55	
2025-01-10 00:21:03.09	39.07	17.57	
2025-01-10 00:21:03.29	39.10	17.60	
2025-01-10 00:21:03.50	39.14	17.62	
2025-01-10 00:21:03.70	39.17	17.64	
2025-01-10 00:21:03.91	39.20	17.66	
2025-01-10 00:21:04.11	39.23	17.68	
2025-01-10 00:21:04.32	39.26	17.71	
2025-01-10 00:21:04.53	39.30	17.73	
2025-01-10 00:21:04.73	39.33	17.75	
2025-01-10 00:21:04.94	39.36	17.77	
2025-01-10 00:21:05.14	39.39	17.79	
2025-01-10 00:21:05.35	39.43	17.82	
2025-01-10 00:21:05.55	39.46	17.84	
2025-01-10 00:21:05.75	39.49	17.86	
2025-01-10 00:21:05.96	39.52	17.88	
2025-01-10 00:21:06.16	39.56	17.90	
2025-01-10 00:21:06.37	39.59	17.92	
2025-01-10 00:21:06.58	39.62	17.95	
2025-01-10 00:21:06.78	39.65	17.97	
2025-01-10 00:21:06.99	39.69	17.99	
2025-01-10 00:21:07.19	39.72	18.01	
2025-01-10 00:21:07.40	39.75	18.04	
2025-01-10 00:21:07.60	39.79	18.06	
2025-01-10 00:21:07.80	39.82	18.08	
2025-01-10 00:21:08.01	39.85	18.10	
2025-01-10 00:21:08.22	39.89	18.12	
2025-01-10 00:21:08.42	39.92	18.15	
2025-01-10 00:21:08.63	39.95	18.17	
2025-01-10 00:21:08.83	39.98	18.19	
2025-01-10 00:21:09.03	40.02	18.21	
2025-01-10 00:21:09.24	40.05	18.23	
2025-01-10 00:21:09.45	40.09	18.26	
2025-01-10 00:21:09.65	40.12	18.28	
2025-01-10 00:21:09.86	40.15	18.30	
2025-01-10 00:21:10.06	40.18	18.32	
2025-01-10 00:21:10.26	40.22	18.34	
2025-01-10 00:21:10.47	40.25	18.37	
2025-01-10 00:21:10.68	40.29	18.39	
2025-01-10 00:21:10.88	40.32	18.41	
2025-01-10 00:21:11.09	40.35	18.44	
2025-01-10 00:21:11.29	40.39	18.46	
2025-01-10 00:21:11.50	40.42	18.48	
2025-01-10 00:21:11.71	40.46	18.50	
2025-01-10 00:21:11.91	40.49	18.52	
2025-01-10 00:21:12.12	40.52	18.55	
2025-01-10 00:21:12.32	40.56	18.57	
2025-01-10 00:21:12.53	40.59	18.59	
2025-01-10 00:21:12.73	40.63	18.61	
2025-01-10 00:21:12.94	40.66	18.64	
2025-01-10 00:21:13.14	40.69	18.66	
2025-01-10 00:21:13.35	40.73	18.68	
2025-01-10 00:21:13.55	40.76	18.70	
2025-01-10 00:21:13.76	40.80	18.73	
2025-01-10 00:21:13.96	40.83	18.75	
2025-01-10 00:21:14.17	40.87	18.77	
2025-01-10 00:21:14.37	40.90	18.79	
2025-01-10 00:21:14.58	40.94	18.82	
2025-01-10 00:21:14.78	40.97	18.84	
2025-01-10 00:21:14.99	41.01	18.86	
2025-01-10 00:21:15.19	41.04	18.88	
2025-01-10 00:21:15.40	41.08	18.91	
2025-01-10 00:21:15.60	41.11	18.93	
2025-01-10 00:21:15.81	41.15	18.95	
2025-01-10 00:21:16.01	41.18	18.97	
2025-01-10 00:21:16.22	41.22	19.00	
2025-01-10 00:21:16.42	41.25	19.02	
2025-01-10 00:21:16.63	41.29	19.04	
2025-01-10 00:21:16.83	41.32	19.06	
2025-01-10 00:21:17.04	41.36	19.09	
2025-01-10 00:21:17.25	41.39	19.11	
2025-01-10 00:21:17.45	41.43	19.13	
2025-01-10 00:21:17.66	41.46	19.16	
2025-01-10 00:21:17.86	41.50	19.18	
2025-01-10 00:21:18.07	41.53	19.20	
2025-01-10 00:21:18.27	41.57	19.22	
2025-01-10 00:21:18.48	41.61	19.25	
2025-01-10 00:21:18.68	41.64	19.27	
2025-01-10 00:21:18.89	41.68	19.29	
2025-01-10 00:21:19.09	41.71	19.32	
2025-01-10 00:21:19.30	41.75	19.34	
2025-01-10 00:21:19.50	41.78	19.36	
2025-01-10 00:21:19.71	41.82	19.38	
2025-01-10 00:21:19.91	41.86	19.41	
2025-01-10 00:21:20.12	41.89	19.43	
2025-01-10 00:21:20.32	41.93	19.45	
2025-01-10 00:21:20.53	41.97	19.48	
2025-01-10 00:21:20.73	42.00	19.50	
2025-01-10 00:21:20.94	42.04	19.52	
2025-01-10 00:21:21.14	42.07	19.54	
2025-01-10 00:21:21.35	42.11	19.57	
2025-01-10 00:21:21.56	42.15	19.59	
2025-01-10 00:21:21.76	42.18	19.61	
2025-01-10 00:21:21.96	42.22	19.64	
2025-01-10 00:21:22.17	42.26	19.66	
2025-01-10 00:21:22.37	42.29	19.68	
2025-01-10 00:21:22.59	42.33	19.71	
2025-01-10 00:21:22.79	42.37	19.73	
2025-01-10 00:21:23.00	42.41	19.75	
2025-01-10 00:21:23.21	42.44	19.78	
2025-01-10 00:21:23.41	42.48	19.80	
2025-01-10 00:21:23.62	42.52	19.82	
2025-01-10 00:21:23.82	42.56	19.84	
2025-01-10 00:21:24.02	42.59	19.87	
2025-01-10 00:21:24.23	42.63	19.89	
2025-01-10 00:21:24.44	42.67	19.91	
2025-01-10 00:21:24.64	42.70	19.94	
2025-01-10 00:21:24.85	42.74	19.96	
2025-01-10 00:21:25.07	42.78	19.99	
2025-01-10 00:21:25.27	42.82	20.01	
2025-01-10 00:21:25.48	42.86	20.03	
2025-01-10 00:21:25.69	42.90	20.06	
2025-01-10 00:21:25.89	42.93	20.08	
2025-01-10 00:21:26.11	42.97	20.10	
2025-01-10 00:21:26.31	43.01	20.13	
2025-01-10 00:21:26.52	43.05	20.15	
2025-01-10 00:21:26.73	43.09	20.17	
2025-01-10 00:21:26.93	43.13	20.20	
2025-01-10 00:21:27.15	43.17	20.22	
2025-01-10 00:21:27.36	43.21	20.25	
2025-01-10 00:21:27.56	43.24	20.27	
2025-01-10 00:21:27.77	43.28	20.29	
2025-01-10 00:21:27.97	43.32	20.31	
2025-01-10 00:21:28.18	43.36	20.34	
2025-01-10 00:21:28.38	43.40	20.36	
2025-01-10 00:21:28.59	43.44	20.39	
2025-01-10 00:21:28.79	43.47	20.41	
2025-01-10 00:21:28.99	43.51	20.43	
2025-01-10 00:21:29.20	43.55	20.45	
2025-01-10 00:21:29.41	43.59	20.48	
2025-01-10 00:21:29.61	43.63	20.50	
2025-01-10 00:21:29.82	43.67	20.53	
2025-01-10 00:21:30.02	43.71	20.55	
2025-01-10 00:21:30.23	43.75	20.57	
2025-01-10 00:21:30.43	43.78	20.60	
2025-01-10 00:21:30.64	43.82	20.62	
2025-01-10 00:21:30.84	43.86	20.64	
2025-01-10 00:21:31.05	43.90	20.67	
2025-01-10 00:21:31.25	43.94	20.69	
2025-01-10 00:21:31.46	43.98	20.71	
2025-01-10 00:21:31.66	44.02	20.74	
2025-01-10 00:21:31.87	44.06	20.76	
2025-01-10 00:21:32.07	44.10	20.78	
2025-01-10 00:21:32.28	44.14	20.81	
2025-01-10 00:21:32.48	44.18	20.83	
2025-01-10 00:21:32.69	44.22	20.86	
2025-01-10 00:21:32.90	44.26	20.88	
2025-01-10 00:21:33.10	44.30	20.90	
2025-01-10 00:21:33.31	44.34	20.93	
2025-01-10 00:21:33.51	44.38	20.95	
2025-01-10 00:21:33.72	44.42	20.97	
2025-01-10 00:21:33.92	44.46	21.00	
2025-01-10 00:21:34.13	44.50	21.02	
2025-01-10 00:21:34.34	44.54	21.05	
2025-01-10 00:21:34.54	44.58	21.07	
2025-01-10 00:21:34.74	44.62	21.09	
2025-01-10 00:21:34.95	44.66	21.12	
2025-01-10 00:21:35.15	44.70	21.14	
2025-01-10 00:21:35.36	44.74	21.16	
2025-01-10 00:21:35.56	44.78	21.19	
2025-01-10 00:21:35.77	44.82	21.21	
2025-01-10 00:21:35.97	44.86	21.23	
2025-01-10 00:21:36.18	44.91	21.26	
2025-01-10 00:21:36.38	44.94	21.28	
2025-01-10 00:21:36.59	44.99	21.31	
2025-01-10 00:21:36.79	45.03	21.33	
2025-01-10 00:21:37.00	45.07	21.35	
2025-01-10 00:21:37.21	45.11	21.38	
2025-01-10 00:21:37.41	45.15	21.40	
2025-01-10 00:21:37.62	45.19	21.43	
2025-01-10 00:21:37.82	45.23	21.45	
2025-01-10 00:21:38.03	45.28	21.47	
2025-01-10 00:21:38.23	45.32	21.50	
2025-01-10 00:21:38.44	45.36	21.52	
2025-01-10 00:21:38.64	45.40	21.54	
2025-01-10 00:21:38.85	45.44	21.57	
2025-01-10 00:21:39.05	45.48	21.59	
2025-01-10 00:21:39.26	45.53	21.62	
2025-01-10 00:21:39.46	45.57	21.64	
2025-01-10 00:21:39.67	45.61	21.67	
2025-01-10 00:21:39.87	45.65	21.69	
2025-01-10 00:21:40.08	45.69	21.71	
2025-01-10 00:21:40.28	45.74	21.74	
2025-01-10 00:21:40.49	45.78	21.76	
2025-01-10 00:21:40.69	45.82	21.78	
2025-01-10 00:21:40.89	45.86	21.81	
2025-01-10 00:21:41.10	45.90	21.83	
2025-01-10 00:21:41.30	45.95	21.86	
2025-01-10 00:21:41.51	45.99	21.88	
2025-01-10 00:21:41.71	46.03	21.90	
2025-01-10 00:21:41.92	46.07	21.93	
2025-01-10 00:21:42.12	46.12	21.95	
2025-01-10 00:21:42.33	46.16	21.98	
2025-01-10 00:21:42.54	46.20	22.00	
2025-01-10 00:21:42.74	46.25	22.02	
2025-01-10 00:21:42.95	46.29	22.05	
2025-01-10 00:21:43.15	46.33	22.07	
2025-01-10 00:21:43.35	46.37	22.10	
2025-01-10 00:21:43.56	46.42	22.12	
2025-01-10 00:21:43.77	46.46	22.15	
2025-01-10 00:21:43.97	46.50	22.17	
2025-01-10 00:21:44.17	46.55	22.19	
2025-01-10 00:21:44.38	46.59	22.22	
2025-01-10 00:21:44.59	46.64	22.24	
2025-01-10 00:21:44.79	46.68	22.27	
2025-01-10 00:21:45.00	46.72	22.29	
2025-01-10 00:21:45.20	46.77	22.31	
2025-01-10 00:21:45.41	46.81	22.34	
2025-01-10 00:21:45.61	46.85	22.36	
2025-01-10 00:21:45.82	46.90	22.39	
2025-01-10 00:21:46.03	46.94	22.41	
2025-01-10 00:21:46.23	46.99	22.44	
2025-01-10 00:21:46.43	47.03	22.46	
2025-01-10 00:21:46.64	47.08	22.49	
2025-01-10 00:21:46.84	47.12	22.51	
2025-01-10 00:21:47.05	47.16	22.53	
2025-01-10 00:21:47.25	47.21	22.56	
2025-01-10 00:21:47.46	47.25	22.58	
2025-01-10 00:21:47.66	47.30	22.61	
2025-01-10 00:21:47.87	47.34	22.63	
2025-01-10 00:21:48.07	47.39	22.65	
2025-01-10 00:21:48.28	47.43	22.68	
2025-01-10 00:21:48.48	47.48	22.70	
2025-01-10 00:21:48.69	47.52	22.73	
2025-01-10 00:21:48.89	47.57	22.75	
2025-01-10 00:21:49.10	47.61	22.78	
2025-01-10 00:21:49.30	47.66	22.80	
2025-01-10 00:21:49.51	47.70	22.83	
2025-01-10 00:21:49.71	47.75	22.85	
2025-01-10 00:21:49.92	47.79	22.87	
2025-01-10 00:21:50.13	47.84	22.90	
2025-01-10 00:21:50.33	47.89	22.92	
2025-01-10 00:21:50.54	47.93	22.95	
2025-01-10 00:21:50.74	47.98	22.97	
2025-01-10 00:21:50.95	48.02	23.00	
2025-01-10 00:21:51.15	48.07	23.02	
2025-01-10 00:21:51.36	48.12	23.05	
2025-01-10 00:21:51.57	48.16	23.07	
2025-01-10 00:21:51.77	48.21	23.10	
2025-01-10 00:21:51.97	48.25	23.12	
2025-01-10 00:21:52.18	48.30	23.14	
2025-01-10 00:21:52.39	48.35	23.17	
2025-01-10 00:21:52.59	48.39	23.19	
2025-01-10 00:21:52.80	48.44	23.22	
2025-01-10 00:21:53.00	48.49	23.24	
2025-01-10 00:21:53.21	48.53	23.27	
2025-01-10 00:21:53.41	48.58	23.29	
2025-01-10 00:21:53.62	48.63	23.32	
2025-01-10 00:21:53.82	48.67	23.34	
2025-01-10 00:21:54.03	48.72	23.37	
2025-01-10 00:21:54.23	48.77	23.39	
2025-01-10 00:21:54.44	48.81	23.41	
2025-01-10 00:21:54.65	48.86	23.44	
2025-01-10 00:21:54.85	48.91	23.46	
2025-01-10 00:21:55.05	48.95	23.49	
2025-01-10 00:21:55.26	49.00	23.51	
2025-01-10 00:21:55.47	49.05	23.54	
2025-01-10 00:21:55.67	49.10	23.56	
2025-01-10 00:21:55.87	49.14	23.59	
2025-01-10 00:21:56.08	49.19	23.61	
2025-01-10 00:21:56.28	49.24	23.64	
2025-01-10 00:21:56.49	49.29	23.66	
2025-01-10 00:21:56.69	49.34	23.68	
2025-01-10 00:21:56.90	49.38	23.71	
2025-01-10 00:21:57.10	49.43	23.73	
2025-01-10 00:21:57.31	49.48	23.76	
2025-01-10 00:21:57.52	49.53	23.78	
2025-01-10 00:21:57.72	49.58	23.81	
2025-01-10 00:21:57.93	49.63	23.83	
2025-01-10 00:21:58.13	49.67	23.86	
2025-01-10 00:21:58.34	49.72	23.88	
2025-01-10 00:21:58.54	49.77	23.91	
2025-01-10 00:21:58.75	49.82	23.93	
2025-01-10 00:21:58.95	49.87	23.96	
2025-01-10 00:21:59.16	49.92	23.98	
2025-01-10 00:21:59.36	49.97	24.01	
2025-01-10 00:21:59.57	50.02	24.03	
2025-01-10 00:21:59.77	50.06	24.06	
2025-01-10 00:21:59.98	50.11	24.08	
2025-01-10 00:22:00.19	50.17	24.11	
2025-01-10 00:22:00.40	50.22	24.13	
2025-01-10 00:22:00.60	50.26	24.16	
2025-01-10 00:22:00.81	50.31	24.18	
2025-01-10 00:22:01.02	50.37	24.21	
2025-01-10 00:22:01.22	50.41	24.23	
2025-01-10 00:22:01.42	50.46	24.25	
2025-01-10 00:22:01.63	50.51	24.28	
2025-01-10 00:22:01.83	50.56	24.30	
2025-01-10 00:22:02.04	50.61	24.33	
2025-01-10 00:22:02.25	50.66	24.36	
2025-01-10 00:22:02.46	50.72	24.38	
2025-01-10 00:22:02.67	50.77	24.41	
2025-01-10 00:22:02.87	50.82	24.43	
2025-01-10 00:22:03.08	50.87	24.46	
2025-01-10 00:22:03.29	50.92	24.48	
2025-01-10 00:22:03.49	50.97	24.50	
2025-01-10 00:22:03.70	51.02	24.53	
2025-01-10 00:22:03.90	51.07	24.55	
2025-01-10 00:22:04.11	51.12	24.58	
2025-01-10 00:22:04.31	51.17	24.60	
2025-01-10 00:22:04.52	51.22	24.63	
2025-01-10 00:22:04.73	51.28	24.65	
2025-01-10 00:22:04.93	51.33	24.68	
2025-01-10 00:22:05.14	51.38	24.70	
2025-01-10 00:22:05.34	51.43	24.73	
2025-01-10 00:22:05.55	51.48	24.75	
2025-01-10 00:22:05.75	51.53	24.78	
2025-01-10 00:22:05.96	51.58	24.80	
2025-01-10 00:22:06.16	51.63	24.83	
2025-01-10 00:22:06.37	51.69	24.85	
2025-01-10 00:22:06.57	51.74	24.88	
2025-01-10 00:22:06.78	51.79	24.90	
2025-01-10 00:22:06.98	51.84	24.93	
2025-01-10 00:22:07.19	51.90	24.95	
2025-01-10 00:22:07.39	51.95	24.98	
2025-01-10 00:22:07.60	52.00	25.00	
2025-01-10 00:22:07.82	52.06	25.03	
2025-01-10 00:22:08.02	52.11	25.05	
2025-01-10 00:22:08.23	52.16	25.08	
2025-01-10 00:22:08.43	52.21	25.10	
2025-01-10 00:22:08.64	52.27	25.13	
2025-01-10 00:22:08.84	52.32	25.15	
2025-01-10 00:22:09.05	52.37	25.18	
2025-01-10 00:22:09.25	52.42	25.20	
2025-01-10 00:22:09.46	52.48	25.23	
2025-01-10 00:22:09.66	52.53	25.25	
2025-01-10 00:22:09.88	52.59	25.28	
2025-01-10 00:22:10.08	52.64	25.30	
2025-01-10 00:22:10.29	52.69	25.33	
2025-01-10 00:22:10.50	52.75	25.35	
2025-01-10 00:22:10.70	52.80	25.38	
2025-01-10 00:22:10.91	52.85	25.40	
2025-01-10 00:22:11.11	52.91	25.43	
2025-01-10 00:22:11.32	52.96	25.45	
2025-01-10 00:22:11.52	53.01	25.48	
2025-01-10 00:22:11.73	53.07	25.50	
2025-01-10 00:22:11.93	53.12	25.53	
2025-01-10 00:22:12.14	53.18	25.55	
2025-01-10 00:22:12.34	53.23	25.58	
2025-01-10 00:22:12.55	53.29	25.60	
2025-01-10 00:22:12.75	53.34	25.63	
2025-01-10 00:22:12.96	53.39	25.65	
2025-01-10 00:22:13.16	53.45	25.68	
2025-01-10 00:22:13.37	53.50	25.70	
2025-01-10 00:22:13.57	53.56	25.73	
2025-01-10 00:22:13.78	53.61	25.75	
2025-01-10 00:22:13.98	53.67	25.78	
2025-01-10 00:22:14.19	53.72	25.80	
2025-01-10 00:22:14.39	53.78	25.83	
2025-01-10 00:22:14.60	53.83	25.85	
2025-01-10 00:22:14.81	53.89	25.88	
2025-01-10 00:22:15.01	53.94	25.90	
2025-01-10 00:22:15.22	54.00	25.93	
2025-01-10 00:22:15.42	54.05	25.95	
2025-01-10 00:22:15.63	54.11	25.98	
2025-01-10 00:22:15.83	54.17	26.00	
2025-01-10 00:22:16.04	54.22	26.03	
2025-01-10 00:22:16.26	54.28	26.05	
2025-01-10 00:22:16.46	54.34	26.08	
2025-01-10 00:22:16.67	54.39	26.10	
2025-01-10 00:22:16.88	54.45	26.13	
2025-01-10 00:22:17.08	54.51	26.15	
2025-01-10 00:22:17.29	54.56	26.18	
2025-01-10 00:22:17.49	54.62	26.20	
2025-01-10 00:22:17.70	54.68	26.23	
2025-01-10 00:22:17.90	54.73	26.25	
2025-01-10 00:22:18.11	54.79	26.28	
2025-01-10 00:22:18.31	54.85	26.30	
2025-01-10 00:22:18.52	54.90	26.33	
2025-01-10 00:22:18.72	54.96	26.35	
2025-01-10 00:22:18.93	55.02	26.37	
2025-01-10 00:22:19.13	55.07	26.40	
2025-01-10 00:22:19.34	55.13	26.42	
2025-01-10 00:22:19.54	55.19	26.45	
2025-01-10 00:22:19.74	55.24	26.47	
2025-01-10 00:22:19.95	55.30	26.50	
2025-01-10 00:22:20.16	55.36	26.52	
2025-01-10 00:22:20.36	55.42	26.55	
2025-01-10 00:22:20.56	55.47	26.57	
2025-01-10 00:22:20.77	55.53	26.60	
2025-01-10 00:22:20.98	55.59	26.62	
2025-01-10 00:22:21.18	55.65	26.65	
2025-01-10 00:22:21.39	55.71	26.67	
2025-01-10 00:22:21.59	55.77	26.70	
2025-01-10 00:22:21.79	55.82	26.72	
2025-01-10 00:22:22.00	55.88	26.75	
2025-01-10 00:22:22.21	55.94	26.77	
2025-01-10 00:22:22.41	56.00	26.79	
2025-01-10 00:22:22.62	56.06	26.82	
2025-01-10 00:22:22.82	56.12	26.84	
2025-01-10 00:22:23.03	56.18	26.87	
2025-01-10 00:22:23.23	56.24	26.89	
2025-01-10 00:22:23.44	56.30	26.92	
2025-01-10 00:22:23.64	56.35	26.94	
2025-01-10 00:22:23.86	56.42	26.97	
2025-01-10 00:22:24.06	56.48	26.99	
2025-01-10 00:22:24.27	56.54	27.02	
2025-01-10 00:22:24.47	56.59	27.04	
2025-01-10 00:22:24.68	56.66	27.07	
2025-01-10 00:22:24.88	56.71	27.09	
2025-01-10 00:22:25.09	56.77	27.12	
2025-01-10 00:22:25.29	56.83	27.14	
2025-01-10 00:22:25.50	56.89	27.17	
2025-01-10 00:22:25.70	56.95	27.19	
2025-01-10 00:22:25.91	57.02	27.22	
2025-01-10 00:22:26.11	57.07	27.24	
2025-01-10 00:22:26.32	57.14	27.26	
2025-01-10 00:22:26.52	57.19	27.29	
2025-01-10 00:22:26.73	57.26	27.31	
2025-01-10 00:22:26.93	57.32	27.34	
2025-01-10 00:22:27.14	57.38	27.36	
2025-01-10 00:22:27.35	57.44	27.39	
2025-01-10 00:22:27.55	57.50	27.41	
2025-01-10 00:22:27.75	57.56	27.44	
2025-01-10 00:22:27.96	57.62	27.46	
2025-01-10 00:22:28.16	57.68	27.48	
2025-01-10 00:22:28.37	57.74	27.51	
2025-01-10 00:22:28.57	57.80	27.53	
2025-01-10 00:22:28.78	57.87	27.56	
2025-01-10 00:22:28.99	57.93	27.58	
2025-01-10 00:22:29.19	57.99	27.61	
2025-01-10 00:22:29.40	58.05	27.63	
2025-01-10 00:22:29.60	58.11	27.66	
2025-01-10 00:22:29.81	58.18	27.68	
2025-01-10 00:22:30.01	58.24	27.70	
2025-01-10 00:22:30.22	58.30	27.73	
2025-01-10 00:22:30.42	58.36	27.75	
2025-01-10 00:22:30.62	58.42	27.78	
2025-01-10 00:22:30.83	58.49	27.80	
2025-01-10 00:22:31.04	58.55	27.83	
2025-01-10 00:22:31.24	58.61	27.85	
2025-01-10 00:22:31.45	58.68	27.88	
2025-01-10 00:22:31.66	58.74	27.90	
2025-01-10 00:22:31.87	58.81	27.93	
2025-01-10 00:22:32.08	58.87	27.95	
2025-01-10 00:22:32.28	58.93	27.97	
2025-01-10 00:22:32.49	59.00	28.00	
2025-01-10 00:22:32.69	59.06	28.02	
2025-01-10 00:22:32.90	59.13	28.05	
2025-01-10 00:22:33.11	59.19	28.07	
2025-01-10 00:22:33.31	59.25	28.10	
2025-01-10 00:22:33.51	59.31	28.12	
2025-01-10 00:22:33.72	59.38	28.14	
2025-01-10 00:22:33.93	59.45	28.17	
2025-01-10 00:22:34.13	59.51	28.19	
2025-01-10 00:22:34.34	59.57	28.22	
2025-01-10 00:22:34.54	59.64	28.24	
2025-01-10 00:22:34.75	59.70	28.26	
2025-01-10 00:22:34.95	59.77	28.29	
2025-01-10 00:22:35.16	59.83	28.31	
2025-01-10 00:22:35.37	59.90	28.34	
2025-01-10 00:22:35.57	59.96	28.36	
2025-01-10 00:22:35.78	60.03	28.39	
2025-01-10 00:22:35.98	60.09	28.41	
2025-01-10 00:22:36.19	60.16	28.43	
2025-01-10 00:22:36.39	60.22	28.46	
2025-01-10 00:22:36.61	60.29	28.48	
2025-01-10 00:22:36.82	60.36	28.51	
2025-01-10 00:22:37.02	60.42	28.53	
2025-01-10 00:22:37.23	60.49	28.55	
2025-01-10 00:22:37.44	60.56	28.58	
2025-01-10 00:22:37.64	60.62	28.60	
2025-01-10 00:22:37.85	60.69	28.63	
2025-01-10 00:22:38.05	60.75	28.65	
2025-01-10 00:22:38.26	60.82	28.67	
2025-01-10 00:22:38.46	60.88	28.70	
2025-01-10 00:22:38.67	60.95	28.72	
2025-01-10 00:22:38.88	61.02	28.75	
2025-01-10 00:22:39.08	61.09	28.77	
2025-01-10 00:22:39.29	61.15	28.79	
2025-01-10 00:22:39.49	61.22	28.82	
2025-01-10 00:22:39.70	61.29	28.84	
2025-01-10 00:22:39.92	61.36	28.87	
2025-01-10 00:22:40.12	61.42	28.89	
2025-01-10 00:22:40.33	61.49	28.91	
2025-01-10 00:22:40.53	61.56	28.94	
2025-01-10 00:22:40.74	61.63	28.96	
2025-01-10 00:22:40.94	61.69	28.98	
2025-01-10 00:22:41.15	61.76	29.01	
2025-01-10 00:22:41.35	61.83	29.03	
2025-01-10 00:22:41.56	61.90	29.05	
2025-01-10 00:22:41.76	61.96	29.08	
2025-01-10 00:22:41.97	62.03	29.10	
2025-01-10 00:22:42.17	62.10	29.12	
2025-01-10 00:22:42.38	62.17	29.15	
2025-01-10 00:22:42.58	62.24	29.17	
2025-01-10 00:22:42.79	62.31	29.20	
2025-01-10 00:22:42.99	62.37	29.22	
2025-01-10 00:22:43.20	62.44	29.24	
2025-01-10 00:22:43.41	62.51	29.27	
2025-01-10 00:22:43.61	62.58	29.29	
2025-01-10 00:22:43.82	62.65	29.31	
2025-01-10 00:22:44.02	62.72	29.33	
2025-01-10 00:22:44.23	62.79	29.36	
2025-01-10 00:22:44.43	62.86	29.38	
2025-01-10 00:22:44.64	62.93	29.41	
2025-01-10 00:22:44.84	62.99	29.43	
2025-01-10 00:22:45.05	63.07	29.45	
2025-01-10 00:22:45.25	63.13	29.47	
2025-01-10 00:22:45.46	63.20	29.50	
2025-01-10 00:22:45.66	63.27	29.52	
2025-01-10 00:22:45.87	63.34	29.54	
2025-01-10 00:22:46.08	63.42	29.57	
2025-01-10 00:22:46.28	63.48	29.59	
2025-01-10 00:22:46.48	63.55	29.61	
2025-01-10 00:22:46.69	63.62	29.64	
2025-01-10 00:22:46.90	63.70	29.66	
2025-01-10 00:22:47.10	63.77	29.68	
2025-01-10 00:22:47.31	63.84	29.70	
2025-01-10 00:22:47.51	63.91	29.73	
2025-01-10 00:22:47.72	63.98	29.75	
2025-01-10 00:22:47.92	64.05	29.77	
2025-01-10 00:22:48.13	64.12	29.80	
2025-01-10 00:22:48.33	64.19	29.82	
2025-01-10 00:22:48.54	64.26	29.84	
2025-01-10 00:22:48.74	64.33	29.86	
2025-01-10 00:22:48.95	64.41	29.89	
2025-01-10 00:22:49.15	64.48	29.91	
2025-01-10 00:22:49.37	64.55	29.93	
2025-01-10 00:22:49.57	64.62	29.95	
2025-01-10 00:22:49.77	64.69	29.98	
2025-01-10 00:22:49.98	64.77	30.00	
2025-01-10 00:22:50.19	64.84	30.02	
2025-01-10 00:22:50.39	64.91	30.04	
2025-01-10 00:22:50.59	64.98	30.07	
2025-01-10 00:22:50.80	65.05	30.09	
2025-01-10 00:22:51.01	65.13	30.11	
2025-01-10 00:22:51.21	65.20	30.13	
2025-01-10 00:22:51.42	65.27	30.16	
2025-01-10 00:22:51.62	65.34	30.18	
2025-01-10 00:22:51.83	65.42	30.20	
2025-01-10 00:22:52.03	65.49	30.22	
2025-01-10 00:22:52.24	65.57	30.25	
2025-01-10 00:22:52.44	65.64	30.27	
2025-01-10 00:22:52.65	65.71	30.29	
2025-01-10 00:22:52.85	65.78	30.31	
2025-01-10 00:22:53.06	65.86	30.33	
2025-01-10 00:22:53.27	65.93	30.36	
2025-01-10 00:22:53.47	66.01	30.38	
2025-01-10 00:22:53.68	66.08	30.40	
2025-01-10 00:22:53.88	66.15	30.42	
2025-01-10 00:22:54.09	66.23	30.44	
2025-01-10 00:22:54.29	66.30	30.47	
2025-01-10 00:22:54.50	66.38	30.49	
2025-01-10 00:22:54.70	66.45	30.51	
2025-01-10 00:22:54.91	66.53	30.53	
2025-01-10 00:22:55.11	66.60	30.55	
2025-01-10 00:22:55.32	66.67	30.57	
2025-01-10 00:22:55.52	66.75	30.60	
2025-01-10 00:22:55.73	66.82	30.62	
2025-01-10 00:22:55.93	66.90	30.64	
2025-01-10 00:22:56.14	66.97	30.66	
2025-01-10 00:22:56.35	67.05	30.68	
2025-01-10 00:22:56.55	67.12	30.70	
2025-01-10 00:22:56.76	67.20	30.73	
2025-01-10 00:22:56.96	67.27	30.75	
2025-01-10 00:22:57.17	67.35	30.77	
2025-01-10 00:22:57.37	67.43	30.79	
2025-01-10 00:22:57.58	67.50	30.81	
2025-01-10 00:22:57.78	67.58	30.83	
2025-01-10 00:22:57.99	67.65	30.85	
2025-01-10 00:22:58.19	67.73	30.88	
2025-01-10 00:22:58.40	67.81	30.90	
2025-01-10 00:22:58.60	67.88	30.92	
2025-01-10 00:22:58.81	67.96	30.94	
2025-01-10 00:22:59.01	68.03	30.96	
2025-01-10 00:22:59.22	68.11	30.98	
2025-01-10 00:22:59.42	68.19	31.00	
2025-01-10 00:22:59.63	68.27	31.02	
2025-01-10 00:22:59.83	68.34	31.04	
2025-01-10 00:23:00.04	68.42	31.06	
2025-01-10 00:23:00.25	68.50	31.09	
2025-01-10 00:23:00.45	68.57	31.11	
2025-01-10 00:23:00.66	68.65	31.13	
2025-01-10 00:23:00.86	68.73	31.15	
2025-01-10 00:23:01.06	68.80	31.17	
2025-01-10 00:23:01.27	68.88	31.19	
2025-01-10 00:23:01.47	68.96	31.21	
2025-01-10 00:23:01.67	69.03	31.23	
2025-01-10 00:23:01.88	69.11	31.25	
2025-01-10 00:23:02.09	69.19	31.27	
2025-01-10 00:23:02.29	69.27	31.29	
2025-01-10 00:23:02.49	69.35	31.31	
2025-01-10 00:23:02.70	69.43	31.33	
2025-01-10 00:23:02.90	69.50	31.35	
2025-01-10 00:23:03.11	69.58	31.37	
2025-01-10 00:23:03.31	69.66	31.39	
2025-01-10 00:23:03.52	69.74	31.41	
2025-01-10 00:23:03.72	69.82	31.43	
2025-01-10 00:23:03.93	69.90	31.45	
2025-01-10 00:23:04.14	69.98	31.47	
2025-01-10 00:23:04.34	70.06	31.49	
2025-01-10 00:23:04.55	70.14	31.51	
2025-01-10 00:23:04.75	70.21	31.53	
2025-01-10 00:23:04.96	70.29	31.55	
2025-01-10 00:23:05.16	70.37	31.57	
2025-01-10 00:23:05.37	70.45	31.59	
2025-01-10 00:23:05.57	70.53	31.61	
2025-01-10 00:23:05.78	70.61	31.63	
2025-01-10 00:23:05.98	70.69	31.65	
2025-01-10 00:23:06.19	70.77	31.67	
2025-01-10 00:23:06.39	70.85	31.69	
2025-01-10 00:23:06.60	70.93	31.71	
2025-01-10 00:23:06.80	71.01	31.73	
2025-01-10 00:23:07.01	71.09	31.75	
2025-01-10 00:23:07.21	71.17	31.77	
2025-01-10 00:23:07.42	71.25	31.79	
2025-01-10 00:23:07.62	71.33	31.81	
2025-01-10 00:23:07.83	71.42	31.83	
2025-01-10 00:23:08.03	71.49	31.85	
2025-01-10 00:23:08.24	71.58	31.87	
2025-01-10 00:23:08.45	71.66	31.88	
2025-01-10 00:23:08.65	71.74	31.90	
2025-01-10 00:23:08.86	71.82	31.92	
2025-01-10 00:23:09.06	71.90	31.94	
2025-01-10 00:23:09.27	71.98	31.96	
2025-01-10 00:23:09.47	72.06	31.98	
2025-01-10 00:23:09.67	72.14	32.00	
2025-01-10 00:23:09.88	72.23	32.02	
2025-01-10 00:23:10.09	72.31	32.04	
2025-01-10 00:23:10.29	72.39	32.05	
2025-01-10 00:23:10.50	72.48	32.07	
2025-01-10 00:23:10.70	72.56	32.09	
2025-01-10 00:23:10.91	72.64	32.11	
2025-01-10 00:23:11.12	72.72	32.13	
2025-01-10 00:23:11.32	72.80	32.15	
2025-01-10 00:23:11.53	72.89	32.17	
2025-01-10 00:23:11.73	72.97	32.18	
2025-01-10 00:23:11.94	73.05	32.20	
2025-01-10 00:23:12.14	73.13	32.22	
2025-01-10 00:23:12.35	73.22	32.24	
2025-01-10 00:23:12.55	73.30	32.26	
2025-01-10 00:23:12.76	73.38	32.27	
2025-01-10 00:23:12.96	73.47	32.29	
2025-01-10 00:23:13.17	73.55	32.31	
2025-01-10 00:23:13.37	73.63	32.33	
2025-01-10 00:23:13.58	73.72	32.35	
2025-01-10 00:23:13.79	73.80	32.36	
2025-01-10 00:23:13.99	73.88	32.38	
2025-01-10 00:23:14.20	73.97	32.40	
2025-01-10 00:23:14.40	74.05	32.42	
2025-01-10 00:23:14.61	74.14	32.44	
2025-01-10 00:23:14.81	74.22	32.45	
2025-01-10 00:23:15.02	74.31	32.47	
2025-01-10 00:23:15.22	74.39	32.49	
2025-01-10 00:23:15.43	74.47	32.51	
2025-01-10 00:23:15.63	74.56	32.52	
2025-01-10 00:23:15.84	74.64	32.54	
2025-01-10 00:23:16.04	74.73	32.56	
2025-01-10 00:23:16.24	74.81	32.57	
2025-01-10 00:23:16.45	74.89	32.59	
2025-01-10 00:23:16.66	74.98	32.61	
2025-01-10 00:23:16.86	75.06	32.62	
2025-01-10 00:23:17.07	75.15	32.64	
2025-01-10 00:23:17.27	75.23	32.66	
2025-01-10 00:23:17.48	75.32	32.68	
2025-01-10 00:23:17.69	75.41	32.69	
2025-01-10 00:23:17.89	75.49	32.71	
2025-01-10 00:23:18.10	75.58	32.73	
2025-01-10 00:23:18.32	75.67	32.74	
2025-01-10 00:23:18.52	75.75	32.76	
2025-01-10 00:23:18.73	75.84	32.78	
2025-01-10 00:23:18.93	75.93	32.79	
2025-01-10 00:23:19.14	76.01	32.81	
2025-01-10 00:23:19.36	76.11	32.83	
2025-01-10 00:23:19.56	76.19	32.84	
2025-01-10 00:23:19.77	76.28	32.86	
2025-01-10 00:23:19.98	76.37	32.88	
2025-01-10 00:23:20.18	76.45	32.89	
2025-01-10 00:23:20.39	76.54	32.91	
2025-01-10 00:23:20.59	76.62	32.92	
2025-01-10 00:23:20.80	76.71	32.94	
2025-01-10 00:23:21.01	76.80	32.96	
2025-01-10 00:23:21.21	76.89	32.97	
2025-01-10 00:23:21.41	76.97	32.99	
2025-01-10 00:23:21.62	77.06	33.00	
2025-01-10 00:23:21.82	77.14	33.02	
2025-01-10 00:23:22.03	77.23	33.03	
2025-01-10 00:23:22.23	77.32	33.05	
2025-01-10 00:23:22.44	77.41	33.06	
2025-01-10 00:23:22.64	77.49	33.08	
2025-01-10 00:23:22.85	77.58	33.09	
2025-01-10 00:23:23.05	77.67	33.11	
2025-01-10 00:23:23.26	77.76	33.12	
2025-01-10 00:23:23.46	77.84	33.14	
2025-01-10 00:23:23.66	77.93	33.15	
2025-01-10 00:23:23.87	78.02	33.17	
2025-01-10 00:23:24.07	78.10	33.18	
2025-01-10 00:23:24.28	78.19	33.20	
2025-01-10 00:23:24.49	78.28	33.21	
2025-01-10 00:23:24.69	78.37	33.23	
2025-01-10 00:23:24.90	78.46	33.24	
2025-01-10 00:23:25.10	78.55	33.26	
2025-01-10 00:23:25.31	78.64	33.27	
2025-01-10 00:23:25.51	78.72	33.29	
2025-01-10 00:23:25.72	78.81	33.30	
2025-01-10 00:23:25.93	78.90	33.32	
2025-01-10 00:23:26.13	78.99	33.33	
2025-01-10 00:23:26.34	79.08	33.34	
2025-01-10 00:23:26.54	79.17	33.36	
2025-01-10 00:23:26.74	79.26	33.37	
2025-01-10 00:23:26.95	79.35	33.38	
2025-01-10 00:23:27.16	79.44	33.40	
2025-01-10 00:23:27.36	79.53	33.41	
2025-01-10 00:23:27.57	79.62	33.43	
2025-01-10 00:23:27.77	79.70	33.44	
2025-01-10 00:23:27.98	79.80	33.45	
2025-01-10 00:23:28.18	79.88	33.47	
2025-01-10 00:23:28.39	79.97	33.48	
2025-01-10 00:23:28.59	80.06	33.49	
2025-01-10 00:23:28.80	80.15	33.51	
2025-01-10 00:23:29.00	80.24	33.52	
2025-01-10 00:23:29.21	80.33	33.53	
2025-01-10 00:23:29.41	80.42	33.55	
2025-01-10 00:23:29.62	80.51	33.56	
2025-01-10 00:23:29.83	80.61	33.57	
2025-01-10 00:23:30.03	80.69	33.59	
2025-01-10 00:23:30.24	80.79	33.60	
2025-01-10 00:23:30.44	80.87	33.61	
2025-01-10 00:23:30.65	80.97	33.62	
2025-01-10 00:23:30.85	81.05	33.64	
2025-01-10 00:23:31.06	81.15	33.65	
2025-01-10 00:23:31.26	81.24	33.66	
2025-01-10 00:23:31.47	81.33	33.67	
2025-01-10 00:23:31.67	81.42	33.69	
2025-01-10 00:23:31.88	81.51	33.70	
2025-01-10 00:23:32.09	81.60	33.71	
2025-01-10 00:23:32.29	81.69	33.72	
2025-01-10 00:23:32.50	81.78	33.74	
2025-01-10 00:23:32.71	81.88	33.75	
2025-01-10 00:23:32.91	81.97	33.76	
2025-01-10 00:23:33.12	82.06	33.77	
2025-01-10 00:23:33.32	82.15	33.78	
2025-01-10 00:23:33.53	82.24	33.79	
2025-01-10 00:23:33.73	82.33	33.81	
2025-01-10 00:23:33.94	82.43	33.82	
2025-01-10 00:23:34.15	82.52	33.83	
2025-01-10 00:23:34.36	82.61	33.84	
2025-01-10 00:23:34.57	82.71	33.85	
2025-01-10 00:23:34.78	82.80	33.86	
2025-01-10 00:23:34.98	82.89	33.87	
2025-01-10 00:23:35.19	82.98	33.89	
2025-01-10 00:23:35.39	83.07	33.90	
2025-01-10 00:23:35.60	83.17	33.91	
2025-01-10 00:23:35.80	83.26	33.92	
2025-01-10 00:23:36.01	83.35	33.93	
2025-01-10 00:23:36.21	83.44	33.94	
2025-01-10 00:23:36.42	83.54	33.95	
2025-01-10 00:23:36.63	83.63	33.96	
2025-01-10 00:23:36.83	83.72	33.97	
2025-01-10 00:23:37.04	83.82	33.98	
2025-01-10 00:23:37.24	83.91	33.99	
2025-01-10 00:23:37.45	84.00	34.00	
2025-01-10 00:23:37.65	84.09	34.01	
2025-01-10 00:23:37.86	84.19	34.02	
2025-01-10 00:23:38.06	84.28	34.03	
2025-01-10 00:23:38.27	84.37	34.04	
2025-01-10 00:23:38.47	84.46	34.05	
2025-01-10 00:23:38.68	84.56	34.06	
2025-01-10 00:23:38.89	84.65	34.07	
2025-01-10 00:23:39.09	84.74	34.08	
2025-01-10 00:23:39.30	84.84	34.09	
2025-01-10 00:23:39.50	84.93	34.10	
2025-01-10 00:23:39.72	85.03	34.11	
2025-01-10 00:23:39.93	85.13	34.12	
2025-01-10 00:23:40.13	85.22	34.13	
2025-01-10 00:23:40.34	85.31	34.14	
2025-01-10 00:23:40.55	85.41	34.15	
2025-01-10 00:23:40.75	85.50	34.16	
2025-01-10 00:23:40.95	85.59	34.17	
2025-01-10 00:23:41.16	85.69	34.17	
2025-01-10 00:23:41.37	85.78	34.18	
2025-01-10 00:23:41.57	85.87	34.19	
2025-01-10 00:23:41.77	85.96	34.20	
2025-01-10 00:23:41.98	86.06	34.21	
2025-01-10 00:23:42.19	86.16	34.22	
2025-01-10 00:23:42.39	86.25	34.23	
2025-01-10 00:23:42.60	86.34	34.23	
2025-01-10 00:23:42.80	86.44	34.24	
2025-01-10 00:23:43.01	86.53	34.25	
2025-01-10 00:23:43.21	86.62	34.26	
2025-01-10 00:23:43.42	86.72	34.27	
2025-01-10 00:23:43.63	86.82	34.27	
2025-01-10 00:23:43.83	86.91	34.28	
2025-01-10 00:23:44.03	87.00	34.29	
2025-01-10 00:23:44.24	87.10	34.30	
2025-01-10 00:23:44.45	87.19	34.30	
2025-01-10 00:23:44.65	87.29	34.31	
2025-01-10 00:23:44.86	87.38	34.32	
2025-01-10 00:23:45.06	87.48	34.33	
2025-01-10 00:23:45.27	87.57	34.33	
2025-01-10 00:23:45.47	87.66	34.34	
2025-01-10 00:23:45.67	87.76	34.35	
2025-01-10 00:23:45.88	87.85	34.35	
2025-01-10 00:23:46.08	87.95	34.36	
2025-01-10 00:23:46.29	88.04	34.37	
2025-01-10 00:23:46.49	88.14	34.37	
2025-01-10 00:23:46.70	88.23	34.38	
2025-01-10 00:23:46.91	88.33	34.39	
2025-01-10 00:23:47.11	88.42	34.39	
2025-01-10 00:23:47.32	88.52	34.40	
2025-01-10 00:23:47.52	88.61	34.41	
2025-01-10 00:23:47.73	88.71	34.41	
2025-01-10 00:23:47.94	88.81	34.42	
2025-01-10 00:23:48.14	88.90	34.43	
2025-01-10 00:23:48.35	89.00	34.43	
2025-01-10 00:23:48.55	89.09	34.44	
2025-01-10 00:23:48.76	89.19	34.44	
2025-01-10 00:23:48.96	89.28	34.45	
2025-01-10 00:23:49.17	89.38	34.45	
2025-01-10 00:23:49.37	89.47	34.46	
2025-01-10 00:23:49.58	89.57	34.47	
2025-01-10 00:23:49.78	89.66	34.47	
2025-01-10 00:23:49.99	89.76	34.48	
2025-01-10 00:23:50.19	89.85	34.48	
2025-01-10 00:23:50.41	89.95	34.49	
2025-01-10 00:23:50.62	90.05	34.49	
2025-01-10 00:23:50.82	90.14	34.50	
2025-01-10 00:23:51.03	90.24	34.50	
2025-01-10 00:23:51.23	90.34	34.51	
2025-01-10 00:23:51.44	90.43	34.51	
2025-01-10 00:23:51.64	90.53	34.52	
2025-01-10 00:23:51.85	90.62	34.52	
2025-01-10 00:23:52.05	90.72	34.52	
2025-01-10 00:23:52.26	90.82	34.53	
2025-01-10 00:23:52.46	90.91	34.53	
2025-01-10 00:23:52.66	91.00	34.54	
2025-01-10 00:23:52.87	91.10	34.54	
2025-01-10 00:23:53.08	91.20	34.55	
2025-01-10 00:23:53.28	91.29	34.55	
2025-01-10 00:23:53.50	91.40	34.55	
2025-01-10 00:23:53.70	91.49	34.56	
2025-01-10 00:23:53.91	91.59	34.56	
2025-01-10 00:23:54.11	91.68	34.56	
2025-01-10 00:23:54.32	91.78	34.57	
2025-01-10 00:23:54.52	91.87	34.57	
2025-01-10 00:23:54.73	91.97	34.57	
2025-01-10 00:23:54.93	92.06	34.58	
2025-01-10 00:23:55.14	92.16	34.58	
2025-01-10 00:23:55.34	92.26	34.58	
2025-01-10 00:23:55.55	92.36	34.59	
2025-01-10 00:23:55.75	92.45	34.59	
2025-01-10 00:23:55.96	92.55	34.59	
2025-01-10 00:23:56.17	92.65	34.59	
2025-01-10 00:23:56.37	92.74	34.60	
2025-01-10 00:23:56.58	92.84	34.60	
2025-01-10 00:23:56.78	92.93	34.60	
2025-01-10 00:23:56.99	93.03	34.60	
2025-01-10 00:23:57.19	93.12	34.61	
2025-01-10 00:23:57.40	93.22	34.61	
2025-01-10 00:23:57.60	93.32	34.61	
2025-01-10 00:23:57.81	93.41	34.61	
2025-01-10 00:23:58.01	93.51	34.61	
2025-01-10 00:23:58.22	93.61	34.62	
2025-01-10 00:23:58.43	93.71	34.62	
2025-01-10 00:23:58.63	93.80	34.62	
2025-01-10 00:23:58.83	93.89	34.62	
2025-01-10 00:23:59.05	94.00	34.62	
2025-01-10 00:23:59.26	94.10	34.62	
2025-01-10 00:23:59.46	94.19	34.63	
2025-01-10 00:23:59.67	94.29	34.63	
2025-01-10 00:23:59.87	94.38	34.63	
2025-01-10 00:24:00.08	94.48	34.63	
2025-01-10 00:24:00.28	94.57	34.63	
2025-01-10 00:24:00.49	94.67	34.63	
2025-01-10 00:24:00.69	94.77	34.63	
2025-01-10 00:24:00.90	94.87	34.63	
2025-01-10 00:24:01.10	94.96	34.63	
2025-01-10 00:24:01.31	95.06	34.63	
2025-01-10 00:24:01.52	95.16	34.63	
2025-01-10 00:24:01.72	95.25	34.63	
2025-01-10 00:24:01.93	95.35	34.63	
2025-01-10 00:24:02.13	95.44	34.63	
2025-01-10 00:24:02.33	95.54	34.63	
2025-01-10 00:24:02.54	95.64	34.63	
2025-01-10 00:24:02.74	95.73	34.63	
2025-01-10 00:24:02.95	95.83	34.63	
2025-01-10 00:24:03.16	95.93	34.63	
2025-01-10 00:24:03.36	96.02	34.63	
2025-01-10 00:24:03.57	96.12	34.63	
2025-01-10 00:24:03.77	96.22	34.63	
2025-01-10 00:24:03.98	96.31	34.63	
2025-01-10 00:24:04.18	96.41	34.63	
2025-01-10 00:24:04.39	96.51	34.63	
2025-01-10 00:24:04.59	96.60	34.63	
2025-01-10 00:24:04.80	96.70	34.63	
2025-01-10 00:24:05.01	96.80	34.63	
2025-01-10 00:24:05.21	96.89	34.63	
2025-01-10 00:24:05.42	96.99	34.63	
2025-01-10 00:24:05.62	97.08	34.62	
2025-01-10 00:24:05.83	97.18	34.62	
2025-01-10 00:24:06.03	97.28	34.62	
2025-01-10 00:24:06.24	97.38	34.62	
2025-01-10 00:24:06.44	97.47	34.62	
2025-01-10 00:24:06.65	97.57	34.62	
2025-01-10 00:24:06.85	97.66	34.61	
2025-01-10 00:24:07.06	97.76	34.61	
2025-01-10 00:24:07.26	97.85	34.61	
2025-01-10 00:24:07.47	97.95	34.61	
2025-01-10 00:24:07.67	98.05	34.61	
2025-01-10 00:24:07.88	98.15	34.60	
2025-01-10 00:24:08.09	98.24	34.60	
2025-01-10 00:24:08.29	98.34	34.60	
2025-01-10 00:24:08.50	98.44	34.60	
2025-01-10 00:24:08.70	98.53	34.59	
2025-01-10 00:24:08.91	98.63	34.59	
2025-01-10 00:24:09.11	98.72	34.59	
2025-01-10 00:24:09.32	98.82	34.58	
2025-01-10 00:24:09.54	98.92	34.58	
2025-01-10 00:24:09.75	99.02	34.58	
2025-01-10 00:24:09.96	99.12	34.57	
2025-01-10 00:24:10.16	99.21	34.57	
2025-01-10 00:24:10.36	99.31	34.57	
2025-01-10 00:24:10.57	99.41	34.56	
2025-01-10 00:24:10.78	99.50	34.56	
2025-01-10 00:24:10.98	99.60	34.56	
2025-01-10 00:24:11.19	99.70	34.55	
2025-01-10 00:24:11.39	99.79	34.55	
2025-01-10 00:24:11.60	99.89	34.55	
2025-01-10 00:24:11.80	99.98	34.54	
2025-01-10 00:24:12.01	100.08	34.54	
2025-01-10 00:24:12.21	100.17	34.53	
2025-01-10 00:24:12.42	100.27	34.53	
2025-01-10 00:24:12.62	100.37	34.53	
2025-01-10 00:24:12.83	100.46	34.52	
2025-01-10 00:24:13.03	100.56	34.52	
2025-01-10 00:24:13.24	100.65	34.51	
2025-01-10 00:24:13.44	100.75	34.51	
2025-01-10 00:24:13.65	100.85	34.50	
2025-01-10 00:24:13.85	100.94	34.50	
2025-01-10 00:24:14.06	101.04	34.49	
2025-01-10 00:24:14.27	101.13	34.49	
2025-01-10 00:24:14.47	101.23	34.48	
2025-01-10 00:24:14.68	101.33	34.48	
2025-01-10 00:24:14.88	101.42	34.47	
2025-01-10 00:24:15.09	101.52	34.47	
2025-01-10 00:24:15.29	101.61	34.46	
2025-01-10 00:24:15.50	101.71	34.46	
2025-01-10 00:24:15.70	101.80	34.45	
2025-01-10 00:24:15.92	101.90	34.45	
2025-01-10 00:24:16.13	102.00	34.44	
2025-01-10 00:24:16.33	102.09	34.43	
2025-01-10 00:24:16.54	102.19	34.43	
2025-01-10 00:24:16.74	102.28	34.42	
2025-01-10 00:24:16.95	102.38	34.42	
2025-01-10 00:24:17.15	102.47	34.41	
2025-01-10 00:24:17.36	102.57	34.40	
2025-01-10 00:24:17.57	102.67	34.40	
2025-01-10 00:24:17.77	102.76	34.39	
2025-01-10 00:24:17.98	102.86	34.38	
2025-01-10 00:24:18.18	102.95	34.38	
2025-01-10 00:24:18.39	103.05	34.37	
2025-01-10 00:24:18.59	103.14	34.36	
2025-01-10 00:24:18.80	103.24	34.36	
2025-01-10 00:24:19.00	103.33	34.35	
2025-01-10 00:24:19.21	103.43	34.34	
2025-01-10 00:24:19.41	103.52	34.34	
2025-01-10 00:24:19.62	103.62	34.33	
2025-01-10 00:24:19.82	103.71	34.32	
2025-01-10 00:24:20.03	103.81	34.31	
2025-01-10 00:24:20.24	103.90	34.31	
2025-01-10 00:24:20.45	104.00	34.30	
2025-01-10 00:24:20.66	104.10	34.29	
2025-01-10 00:24:20.86	104.19	34.28	
2025-01-10 00:24:21.07	104.28	34.28	
2025-01-10 00:24:21.27	104.38	34.27	
2025-01-10 00:24:21.48	104.47	34.26	
2025-01-10 00:24:21.69	104.57	34.25	
2025-01-10 00:24:21.89	104.66	34.24	
2025-01-10 00:24:22.09	104.75	34.24	
2025-01-10 00:24:22.30	104.85	34.23	
2025-01-10 00:24:22.51	104.95	34.22	
2025-01-10 00:24:22.71	105.04	34.21	
2025-01-10 00:24:22.92	105.13	34.20	
2025-01-10 00:24:23.12	105.22	34.19	
2025-01-10 00:24:23.33	105.32	34.18	
2025-01-10 00:24:23.53	105.41	34.18	
2025-01-10 00:24:23.74	105.51	34.17	
2025-01-10 00:24:23.94	105.60	34.16	
2025-01-10 00:24:24.15	105.70	34.15	
2025-01-10 00:24:24.35	105.79	34.14	
2025-01-10 00:24:24.56	105.88	34.13	
2025-01-10 00:24:24.76	105.97	34.12	
2025-01-10 00:24:24.97	106.07	34.11	
2025-01-10 00:24:25.18	106.17	34.10	
2025-01-10 00:24:25.38	106.26	34.09	
2025-01-10 00:24:25.59	106.35	34.08	
2025-01-10 00:24:25.79	106.44	34.07	
2025-01-10 00:24:26.00	106.54	34.06	
2025-01-10 00:24:26.20	106.63	34.06	
2025-01-10 00:24:26.41	106.72	34.05	
2025-01-10 00:24:26.63	106.82	34.03	
2025-01-10 00:24:26.83	106.91	34.02	
2025-01-10 00:24:27.04	107.01	34.01	
2025-01-10 00:24:27.24	107.10	34.00	
2025-01-10 00:24:27.45	107.19	33.99	
2025-01-10 00:24:27.65	107.29	33.98	
2025-01-10 00:24:27.86	107.38	33.97	
2025-01-10 00:24:28.07	107.47	33.96	
2025-01-10 00:24:28.27	107.56	33.95	
2025-01-10 00:24:28.48	107.66	33.94	
2025-01-10 00:24:28.68	107.75	33.93	
2025-01-10 00:24:28.89	107.84	33.92	
2025-01-10 00:24:29.09	107.93	33.91	
2025-01-10 00:24:29.30	108.03	33.90	
2025-01-10 00:24:29.50	108.12	33.89	
2025-01-10 00:24:29.71	108.21	33.88	
2025-01-10 00:24:29.91	108.30	33.87	
2025-01-10 00:24:30.12	108.40	33.85	
2025-01-10 00:24:30.32	108.49	33.84	
2025-01-10 00:24:30.53	108.58	33.83	
2025-01-10 00:24:30.73	108.67	33.82	
2025-01-10 00:24:30.94	108.76	33.81	
2025-01-10 00:24:31.14	108.85	33.80	
2025-01-10 00:24:31.35	108.95	33.79	
2025-01-10 00:24:31.56	109.04	33.77	
2025-01-10 00:24:31.76	109.13	33.76	
2025-01-10 00:24:31.98	109.23	33.75	
2025-01-10 00:24:32.19	109.32	33.74	
2025-01-10 00:24:32.39	109.41	33.72	
2025-01-10 00:24:32.60	109.50	33.71	
2025-01-10 00:24:32.80	109.59	33.70	
2025-01-10 00:24:33.01	109.69	33.69	
2025-01-10 00:24:33.21	109.77	33.68	
2025-01-10 00:24:33.42	109.87	33.66	
2025-01-10 00:24:33.62	109.96	33.65	
2025-01-10 00:24:33.83	110.05	33.64	
2025-01-10 00:24:34.03	110.14	33.63	
2025-01-10 00:24:34.24	110.23	33.61	
2025-01-10 00:24:34.44	110.32	33.60	
2025-01-10 00:24:34.65	110.41	33.59	
2025-01-10 00:24:34.85	110.50	33.57	
2025-01-10 00:24:35.06	110.59	33.56	
2025-01-10 00:24:35.26	110.68	33.55	
2025-01-10 00:24:35.47	110.77	33.54	
2025-01-10 00:24:35.68	110.86	33.52	
2025-01-10 00:24:35.88	110.95	33.51	
2025-01-10 00:24:36.08	111.04	33.50	
2025-01-10 00:24:36.30	111.14	33.48	
2025-01-10 00:24:36.51	111.23	33.47	
2025-01-10 00:24:36.71	111.32	33.45	
2025-01-10 00:24:36.92	111.41	33.44	
2025-01-10 00:24:37.12	111.49	33.43	
2025-01-10 00:24:37.33	111.59	33.41	
2025-01-10 00:24:37.53	111.67	33.40	
2025-01-10 00:24:37.74	111.76	33.39	
2025-01-10 00:24:37.94	111.85	33.37	
2025-01-10 00:24:38.15	111.94	33.36	
2025-01-10 00:24:38.35	112.03	33.34	
2025-01-10 00:24:38.56	112.12	33.33	
2025-01-10 00:24:38.76	112.21	33.32	
2025-01-10 00:24:38.97	112.30	33.30	
2025-01-10 00:24:39.18	112.39	33.29	
2025-01-10 00:24:39.38	112.48	33.27	
2025-01-10 00:24:39.59	112.57	33.26	
2025-01-10 00:24:39.79	112.65	33.24	
2025-01-10 00:24:40.00	112.74	33.23	
2025-01-10 00:24:40.20	112.83	33.21	
2025-01-10 00:24:40.41	112.92	33.20	
2025-01-10 00:24:40.62	113.01	33.18	
2025-01-10 00:24:40.82	113.10	33.17	
2025-01-10 00:24:41.03	113.19	33.15	
2025-01-10 00:24:41.23	113.27	33.14	
2025-01-10 00:24:41.44	113.36	33.12	
2025-01-10 00:24:41.64	113.45	33.11	
2025-01-10 00:24:41.85	113.54	33.09	
2025-01-10 00:24:42.05	113.62	33.08	
2025-01-10 00:24:42.26	113.71	33.06	
2025-01-10 00:24:42.46	113.80	33.05	
2025-01-10 00:24:42.67	113.89	33.03	
2025-01-10 00:24:42.87	113.97	33.02	
2025-01-10 00:24:43.08	114.06	33.00	
2025-01-10 00:24:43.29	114.15	32.98	
2025-01-10 00:24:43.49	114.24	32.97	
2025-01-10 00:24:43.70	114.33	32.95	
2025-01-10 00:24:43.90	114.41	32.94	
2025-01-10 00:24:44.11	114.50	32.92	
2025-01-10 00:24:44.31	114.58	32.91	
2025-01-10 00:24:44.52	114.67	32.89	
2025-01-10 00:24:44.72	114.76	32.87	
2025-01-10 00:24:44.93	114.85	32.86	
2025-01-10 00:24:45.13	114.93	32.84	
2025-01-10 00:24:45.34	115.02	32.83	
2025-01-10 00:24:45.54	115.10	32.81	
2025-01-10 00:24:45.75	115.19	32.79	
2025-01-10 00:24:45.95	115.27	32.78	
2025-01-10 00:24:46.16	115.36	32.76	
2025-01-10 00:24:46.36	115.45	32.74	
2025-01-10 00:24:46.57	115.53	32.73	
2025-01-10 00:24:46.77	115.62	32.71	
2025-01-10 00:24:46.98	115.71	32.69	
2025-01-10 00:24:47.18	115.79	32.68	
2025-01-10 00:24:47.39	115.88	32.66	
2025-01-10 00:24:47.59	115.96	32.64	
2025-01-10 00:24:47.80	116.05	32.63	
2025-01-10 00:24:48.00	116.13	32.61	
2025-01-10 00:24:48.21	116.22	32.59	
2025-01-10 00:24:48.41	116.30	32.57	
2025-01-10 00:24:48.62	116.39	32.56	
2025-01-10 00:24:48.82	116.47	32.54	
2025-01-10 00:24:49.03	116.56	32.52	
2025-01-10 00:24:49.24	116.64	32.50	
2025-01-10 00:24:49.44	116.72	32.49	
2025-01-10 00:24:49.64	116.81	32.47	
2025-01-10 00:24:49.85	116.89	32.45	
2025-01-10 00:24:50.05	116.98	32.44	
2025-01-10 00:24:50.26	117.06	32.42	
2025-01-10 00:24:50.47	117.15	32.40	
2025-01-10 00:24:50.67	117.23	32.38	
2025-01-10 00:24:50.88	117.32	32.36	
2025-01-10 00:24:51.08	117.40	32.35	
2025-01-10 00:24:51.29	117.48	32.33	
2025-01-10 00:24:51.49	117.56	32.31	
2025-01-10 00:24:51.70	117.65	32.29	
2025-01-10 00:24:51.91	117.74	32.27	
2025-01-10 00:24:52.11	117.82	32.26	
2025-01-10 00:24:52.32	117.90	32.24	
2025-01-10 00:24:52.52	117.98	32.22	
2025-01-10 00:24:52.73	118.07	32.20	
2025-01-10 00:24:52.93	118.15	32.18	
2025-01-10 00:24:53.14	118.23	32.16	
2025-01-10 00:24:53.34	118.31	32.15	
2025-01-10 00:24:53.55	118.40	32.13	
2025-01-10 00:24:53.75	118.48	32.11	
2025-01-10 00:24:53.96	118.56	32.09	
2025-01-10 00:24:54.16	118.64	32.07	
2025-01-10 00:24:54.37	118.73	32.05	
2025-01-10 00:24:54.57	118.81	32.03	
2025-01-10 00:24:54.77	118.89	32.02	
2025-01-10 00:24:54.98	118.97	32.00	
2025-01-10 00:24:55.19	119.06	31.98	
2025-01-10 00:24:55.39	119.14	31.96	
2025-01-10 00:24:55.59	119.22	31.94	
2025-01-10 00:24:55.80	119.30	31.92	
2025-01-10 00:24:56.01	119.38	31.90	
2025-01-10 00:24:56.21	119.46	31.88	
2025-01-10 00:24:56.42	119.54	31.86	
2025-01-10 00:24:56.62	119.62	31.84	
2025-01-10 00:24:56.83	119.71	31.82	
2025-01-10 00:24:57.03	119.79	31.81	
2025-01-10 00:24:57.24	119.87	31.79	
2025-01-10 00:24:57.44	119.95	31.77	
2025-01-10 00:24:57.65	120.03	31.75	
2025-01-10 00:24:57.85	120.11	31.73	
2025-01-10 00:24:58.06	120.19	31.71	
2025-01-10 00:24:58.26	120.27	31.69	
2025-01-10 00:24:58.46	120.35	31.67	
2025-01-10 00:24:58.67	120.43	31.65	
2025-01-10 00:24:58.87	120.51	31.63	
2025-01-10 00:24:59.08	120.59	31.61	
2025-01-10 00:24:59.28	120.67	31.59	
2025-01-10 00:24:59.49	120.75	31.57	
2025-01-10 00:24:59.69	120.83	31.55	
2025-01-10 00:24:59.90	120.91	31.53	
2025-01-10 00:25:00.10	120.99	31.51	
2025-01-10 00:25:00.31	121.07	31.49	
2025-01-10 00:25:00.51	121.15	31.47	
2025-01-10 00:25:00.72	121.23	31.45	
2025-01-10 00:25:00.92	121.30	31.43	
2025-01-10 00:25:01.13	121.38	31.41	
2025-01-10 00:25:01.33	121.46	31.39	
2025-01-10 00:25:01.54	121.54	31.37	
2025-01-10 00:25:01.75	121.62	31.35	
2025-01-10 00:25:01.95	121.70	31.33	
2025-01-10 00:25:02.15	121.78	31.31	
2025-01-10 00:25:02.36	121.86	31.29	
2025-01-10 00:25:02.56	121.93	31.27	
2025-01-10 00:25:02.77	122.01	31.25	
2025-01-10 00:25:02.98	122.09	31.23	
2025-01-10 00:25:03.19	122.17	31.20	
2025-01-10 00:25:03.40	122.25	31.18	
2025-01-10 00:25:03.60	122.33	31.16	
2025-01-10 00:25:03.81	122.41	31.14	
2025-01-10 00:25:04.03	122.49	31.12	
2025-01-10 00:25:04.23	122.57	31.10	
2025-01-10 00:25:04.44	122.65	31.08	
2025-01-10 00:25:04.64	122.72	31.06	
2025-01-10 00:25:04.85	122.80	31.04	
2025-01-10 00:25:05.05	122.88	31.02	
2025-01-10 00:25:05.26	122.95	30.99	
2025-01-10 00:25:05.46	123.03	30.97	
2025-01-10 00:25:05.67	123.11	30.95	
2025-01-10 00:25:05.88	123.19	30.93	
2025-01-10 00:25:06.09	123.27	30.91	
2025-01-10 00:25:06.30	123.34	30.89	
2025-01-10 00:25:06.50	123.42	30.87	
2025-01-10 00:25:06.71	123.50	30.84	
2025-01-10 00:25:06.92	123.57	30.82	
2025-01-10 00:25:07.12	123.65	30.80	
2025-01-10 00:25:07.33	123.73	30.78	
2025-01-10 00:25:07.53	123.80	30.76	
2025-01-10 00:25:07.74	123.88	30.74	
2025-01-10 00:25:07.94	123.95	30.72	
2025-01-10 00:25:08.15	124.03	30.69	
2025-01-10 00:25:08.35	124.10	30.67	
2025-01-10 00:25:08.56	124.18	30.65	
2025-01-10 00:25:08.77	124.26	30.63	
2025-01-10 00:25:08.97	124.33	30.61	
2025-01-10 00:25:09.18	124.41	30.58	
2025-01-10 00:25:09.38	124.48	30.56	
2025-01-10 00:25:09.59	124.56	30.54	
2025-01-10 00:25:09.79	124.63	30.52	
2025-01-10 00:25:10.00	124.71	30.50	
2025-01-10 00:25:10.20	124.78	30.48	
2025-01-10 00:25:10.42	124.86	30.45	
2025-01-10 00:25:10.63	124.93	30.43	
2025-01-10 00:25:10.83	125.01	30.41	
2025-01-10 00:25:11.04	125.08	30.39	
2025-01-10 00:25:11.25	125.16	30.36	
2025-01-10 00:25:11.45	125.23	30.34	
2025-01-10 00:25:11.66	125.31	30.32	
2025-01-10 00:25:11.86	125.38	30.30	
2025-01-10 00:25:12.07	125.45	30.27	
2025-01-10 00:25:12.27	125.53	30.25	
2025-01-10 00:25:12.49	125.60	30.23	
2025-01-10 00:25:12.69	125.68	30.21	
2025-01-10 00:25:12.90	125.75	30.18	
2025-01-10 00:25:13.10	125.82	30.16	
2025-01-10 00:25:13.31	125.90	30.14	
2025-01-10 00:25:13.51	125.97	30.12	
2025-01-10 00:25:13.72	126.04	30.09	
2025-01-10 00:25:13.93	126.12	30.07	
2025-01-10 00:25:14.13	126.19	30.05	
2025-01-10 00:25:14.34	126.26	30.03	
2025-01-10 00:25:14.54	126.33	30.00	
2025-01-10 00:25:14.75	126.41	29.98	
2025-01-10 00:25:14.95	126.48	29.96	
2025-01-10 00:25:15.16	126.55	29.94	
2025-01-10 00:25:15.36	126.62	29.91	
2025-01-10 00:25:15.57	126.69	29.89	
2025-01-10 00:25:15.79	126.77	29.87	
2025-01-10 00:25:15.99	126.84	29.84	
2025-01-10 00:25:16.20	126.91	29.82	
2025-01-10 00:25:16.40	126.98	29.80	
2025-01-10 00:25:16.61	127.06	29.77	
2025-01-10 00:25:16.83	127.13	29.75	
2025-01-10 00:25:17.03	127.20	29.73	
2025-01-10 00:25:17.24	127.28	29.70	
2025-01-10 00:25:17.44	127.34	29.68	
2025-01-10 00:25:17.65	127.42	29.66	
2025-01-10 00:25:17.85	127.49	29.64	
2025-01-10 00:25:18.05	127.56	29.61	
2025-01-10 00:25:18.26	127.63	29.59	
2025-01-10 00:25:18.47	127.70	29.57	
2025-01-10 00:25:18.67	127.77	29.54	
2025-01-10 00:25:18.88	127.84	29.52	
2025-01-10 00:25:19.08	127.91	29.50	
2025-01-10 00:25:19.29	127.98	29.47	
2025-01-10 00:25:19.49	128.05	29.45	
2025-01-10 00:25:19.70	128.12	29.43	
2025-01-10 00:25:19.91	128.19	29.40	
2025-01-10 00:25:20.11	128.26	29.38	
2025-01-10 00:25:20.32	128.33	29.36	
2025-01-10 00:25:20.52	128.40	29.33	
2025-01-10 00:25:20.73	128.47	29.31	
2025-01-10 00:25:20.93	128.54	29.29	
2025-01-10 00:25:21.14	128.61	29.26	
2025-01-10 00:25:21.34	128.67	29.24	
2025-01-10 00:25:21.55	128.74	29.22	
2025-01-10 00:25:21.75	128.81	29.19	
2025-01-10 00:25:21.96	128.88	29.17	
2025-01-10 00:25:22.16	128.95	29.15	
2025-01-10 00:25:22.37	129.02	29.12	
2025-01-10 00:25:22.57	129.09	29.10	
2025-01-10 00:25:22.78	129.16	29.08	
2025-01-10 00:25:22.99	129.23	29.05	
2025-01-10 00:25:23.19	129.29	29.03	
2025-01-10 00:25:23.40	129.36	29.00	
2025-01-10 00:25:23.60	129.43	28.98	
2025-01-10 00:25:23.81	129.50	28.96	
2025-01-10 00:25:24.01	129.56	28.93	
2025-01-10 00:25:24.21	129.63	28.91	
2025-01-10 00:25:24.42	129.70	28.89	
2025-01-10 00:25:24.63	129.77	28.86	
2025-01-10 00:25:24.83	129.83	28.84	
2025-01-10 00:25:25.04	129.90	28.81	
2025-01-10 00:25:25.25	129.97	28.79	
2025-01-10 00:25:25.45	130.03	28.77	
2025-01-10 00:25:25.66	130.10	28.74	
2025-01-10 00:25:25.86	130.17	28.72	
2025-01-10 00:25:26.07	130.24	28.69	
2025-01-10 00:25:26.27	130.30	28.67	
2025-01-10 00:25:26.48	130.37	28.65	
2025-01-10 00:25:26.68	130.43	28.62	
2025-01-10 00:25:26.89	130.50	28.60	
2025-01-10 00:25:27.10	130.57	28.57	
2025-01-10 00:25:27.30	130.63	28.55	
2025-01-10 00:25:27.51	130.70	28.53	
2025-01-10 00:25:27.71	130.77	28.50	
2025-01-10 00:25:27.92	130.83	28.48	
2025-01-10 00:25:28.12	130.90	28.45	
2025-01-10 00:25:28.33	130.96	28.43	
2025-01-10 00:25:28.53	131.03	28.41	
2025-01-10 00:25:28.74	131.10	28.38	
2025-01-10 00:25:28.94	131.16	28.36	
2025-01-10 00:25:29.15	131.23	28.33	
2025-01-10 00:25:29.35	131.29	28.31	
2025-01-10 00:25:29.56	131.36	28.28	
2025-01-10 00:25:29.76	131.42	28.26	
2025-01-10 00:25:29.97	131.48	28.24	
2025-01-10 00:25:30.18	131.55	28.21	
2025-01-10 00:25:30.38	131.61	28.19	
2025-01-10 00:25:30.59	131.68	28.16	
2025-01-10 00:25:30.79	131.74	28.14	
2025-01-10 00:25:31.00	131.81	28.11	
2025-01-10 00:25:31.20	131.87	28.09	
2025-01-10 00:25:31.41	131.94	28.07	
2025-01-10 00:25:31.62	132.00	28.04	
2025-01-10 00:25:31.82	132.06	28.02	
2025-01-10 00:25:32.02	132.13	27.99	
2025-01-10 00:25:32.23	132.19	27.97	
2025-01-10 00:25:32.43	132.25	27.94	
2025-01-10 00:25:32.63	132.32	27.92	
2025-01-10 00:25:32.83	132.38	27.90	
2025-01-10 00:25:33.04	132.44	27.87	
2025-01-10 00:25:33.24	132.50	27.85	
2025-01-10 00:25:33.45	132.57	27.82	
2025-01-10 00:25:33.65	132.63	27.80	
2025-01-10 00:25:33.86	132.69	27.77	
2025-01-10 00:25:34.06	132.76	27.75	
2025-01-10 00:25:34.27	132.82	27.73	
2025-01-10 00:25:34.47	132.88	27.70	
2025-01-10 00:25:34.68	132.94	27.68	
2025-01-10 00:25:34.88	133.01	27.65	
2025-01-10 00:25:35.09	133.07	27.63	
2025-01-10 00:25:35.30	133.13	27.60	
2025-01-10 00:25:35.50	133.19	27.58	
2025-01-10 00:25:35.71	133.26	27.55	
2025-01-10 00:25:35.91	133.32	27.53	
2025-01-10 00:25:36.12	133.38	27.50	
2025-01-10 00:25:36.32	133.44	27.48	
2025-01-10 00:25:36.53	133.50	27.45	
2025-01-10 00:25:36.74	133.57	27.43	
2025-01-10 00:25:36.94	133.63	27.40	
2025-01-10 00:25:37.14	133.69	27.38	
2025-01-10 00:25:37.35	133.75	27.36	
2025-01-10 00:25:37.56	133.81	27.33	
2025-01-10 00:25:37.76	133.87	27.31	
2025-01-10 00:25:37.97	133.93	27.28	
2025-01-10 00:25:38.18	134.00	27.26	
2025-01-10 00:25:38.38	134.06	27.23	
2025-01-10 00:25:38.59	134.12	27.21	
2025-01-10 00:25:38.80	134.18	27.18	
2025-01-10 00:25:39.00	134.24	27.16	
2025-01-10 00:25:39.20	134.30	27.13	
2025-01-10 00:25:39.41	134.36	27.11	
2025-01-10 00:25:39.62	134.42	27.08	
2025-01-10 00:25:39.82	134.48	27.06	
2025-01-10 00:25:40.03	134.54	27.03	
2025-01-10 00:25:40.23	134.60	27.01	
2025-01-10 00:25:40.44	134.66	26.98	
2025-01-10 00:25:40.64	134.72	26.96	
2025-01-10 00:25:40.85	134.78	26.93	
2025-01-10 00:25:41.05	134.84	26.91	
2025-01-10 00:25:41.26	134.90	26.88	
2025-01-10 00:25:41.46	134.96	26.86	
2025-01-10 00:25:41.67	135.02	26.83	
2025-01-10 00:25:41.87	135.07	26.81	
2025-01-10 00:25:42.08	135.13	26.78	
2025-01-10 00:25:42.28	135.19	26.76	
2025-01-10 00:25:42.49	135.25	26.73	
2025-01-10 00:25:42.69	135.31	26.71	
2025-01-10 00:25:42.90	135.37	26.68	
2025-01-10 00:25:43.10	135.43	26.66	
2025-01-10 00:25:43.31	135.49	26.63	
2025-01-10 00:25:43.53	135.55	26.61	
2025-01-10 00:25:43.73	135.61	26.58	
2025-01-10 00:25:43.94	135.67	26.56	
2025-01-10 00:25:44.15	135.73	26.53	
2025-01-10 00:25:44.35	135.78	26.51	
2025-01-10 00:25:44.55	135.84	26.48	
2025-01-10 00:25:44.76	135.90	26.46	
2025-01-10 00:25:44.96	135.95	26.43	
2025-01-10 00:25:45.17	136.01	26.41	
2025-01-10 00:25:45.38	136.07	26.38	
2025-01-10 00:25:45.58	136.13	26.36	
2025-01-10 00:25:45.78	136.18	26.33	
2025-01-10 00:25:45.99	136.24	26.31	
2025-01-10 00:25:46.19	136.30	26.28	
2025-01-10 00:25:46.40	136.36	26.26	
2025-01-10 00:25:46.60	136.41	26.23	
2025-01-10 00:25:46.81	136.47	26.21	
2025-01-10 00:25:47.01	136.53	26.18	
2025-01-10 00:25:47.22	136.58	26.16	
2025-01-10 00:25:47.43	136.64	26.13	
2025-01-10 00:25:47.63	136.70	26.11	
2025-01-10 00:25:47.83	136.75	26.08	
2025-01-10 00:25:48.04	136.81	26.06	
2025-01-10 00:25:48.25	136.87	26.03	
