passes_logs/2025/01/10/SPB_Silybum_02/SPB_Silybum_02__20250110_155904_TERRA_rec.log

#Pass ID: 20250110_155904_TERRA
#Satellite: TERRA
#Configuration: TERRA
#Start time: 2025-01-10 15:59:02

#Version: 2.0.20230423
#Station: SPB_Silybum_02
#Location: 30.233357 lon 59.946436 lat
#TLE: 1 25994U 99068A   25009.84464495  .00000861  00000+0  18726-3 0  9992
#TLE: 2 25994  98.0226  73.0387 0003560  82.8900 338.1382 14.60385144333325

#Time	Az	El	Level	Level2	SNR	BER	Gain	Gain2
2025-01-10 15:59:04.54	81.94	4.01	
2025-01-10 15:59:04.74	81.92	4.02	
2025-01-10 15:59:04.95	81.89	4.03	
2025-01-10 15:59:05.15	81.87	4.04	
2025-01-10 15:59:05.36	81.84	4.05	
2025-01-10 15:59:05.56	81.82	4.06	
2025-01-10 15:59:05.77	81.80	4.08	
2025-01-10 15:59:05.97	81.77	4.09	
2025-01-10 15:59:06.18	81.75	4.10	
2025-01-10 15:59:06.38	81.72	4.11	
2025-01-10 15:59:06.59	81.70	4.12	
2025-01-10 15:59:06.79	81.67	4.13	
2025-01-10 15:59:07.00	81.65	4.14	
2025-01-10 15:59:07.20	81.63	4.15	
2025-01-10 15:59:07.41	81.60	4.16	
2025-01-10 15:59:07.61	81.58	4.17	
2025-01-10 15:59:07.83	81.55	4.18	
2025-01-10 15:59:08.03	81.53	4.19	
2025-01-10 15:59:08.24	81.50	4.20	
2025-01-10 15:59:08.44	81.48	4.21	
2025-01-10 15:59:08.65	81.45	4.22	
2025-01-10 15:59:08.86	81.43	4.23	
2025-01-10 15:59:09.07	81.40	4.24	
2025-01-10 15:59:09.27	81.38	4.25	
2025-01-10 15:59:09.48	81.35	4.26	
2025-01-10 15:59:09.68	81.33	4.27	
2025-01-10 15:59:09.89	81.30	4.28	
2025-01-10 15:59:10.10	81.28	4.29	
2025-01-10 15:59:10.30	81.25	4.30	
2025-01-10 15:59:10.51	81.23	4.31	
2025-01-10 15:59:10.71	81.20	4.32	
2025-01-10 15:59:10.92	81.18	4.33	
2025-01-10 15:59:11.12	81.15	4.34	
2025-01-10 15:59:11.33	81.13	4.35	
2025-01-10 15:59:11.53	81.10	4.36	
2025-01-10 15:59:11.74	81.08	4.37	
2025-01-10 15:59:11.94	81.05	4.38	
2025-01-10 15:59:12.15	81.03	4.39	
2025-01-10 15:59:12.37	81.00	4.41	
2025-01-10 15:59:12.57	80.98	4.42	
2025-01-10 15:59:12.78	80.95	4.43	
2025-01-10 15:59:12.98	80.93	4.44	
2025-01-10 15:59:13.19	80.90	4.45	
2025-01-10 15:59:13.39	80.88	4.46	
2025-01-10 15:59:13.60	80.85	4.47	
2025-01-10 15:59:13.80	80.83	4.48	
2025-01-10 15:59:14.01	80.80	4.49	
2025-01-10 15:59:14.21	80.78	4.50	
2025-01-10 15:59:14.42	80.75	4.51	
2025-01-10 15:59:14.62	80.73	4.52	
2025-01-10 15:59:14.83	80.70	4.53	
2025-01-10 15:59:15.03	80.68	4.54	
2025-01-10 15:59:15.24	80.65	4.55	
2025-01-10 15:59:15.44	80.63	4.56	
2025-01-10 15:59:15.65	80.60	4.57	
2025-01-10 15:59:15.85	80.58	4.58	
2025-01-10 15:59:16.06	80.55	4.59	
2025-01-10 15:59:16.26	80.53	4.60	
2025-01-10 15:59:16.47	80.50	4.61	
2025-01-10 15:59:16.69	80.47	4.62	
2025-01-10 15:59:16.89	80.45	4.63	
2025-01-10 15:59:17.10	80.42	4.64	
2025-01-10 15:59:17.30	80.40	4.65	
2025-01-10 15:59:17.51	80.37	4.66	
2025-01-10 15:59:17.71	80.35	4.67	
2025-01-10 15:59:17.92	80.32	4.68	
2025-01-10 15:59:18.12	80.30	4.69	
2025-01-10 15:59:18.32	80.27	4.70	
2025-01-10 15:59:18.53	80.24	4.71	
2025-01-10 15:59:18.74	80.22	4.72	
2025-01-10 15:59:18.94	80.19	4.73	
2025-01-10 15:59:19.15	80.17	4.74	
2025-01-10 15:59:19.35	80.14	4.75	
2025-01-10 15:59:19.56	80.12	4.76	
2025-01-10 15:59:19.76	80.09	4.77	
2025-01-10 15:59:19.97	80.06	4.78	
2025-01-10 15:59:20.17	80.04	4.79	
2025-01-10 15:59:20.38	80.01	4.81	
2025-01-10 15:59:20.59	79.99	4.82	
2025-01-10 15:59:20.79	79.96	4.83	
2025-01-10 15:59:20.99	79.94	4.84	
2025-01-10 15:59:21.20	79.91	4.85	
2025-01-10 15:59:21.40	79.88	4.86	
2025-01-10 15:59:21.61	79.86	4.87	
2025-01-10 15:59:21.81	79.83	4.88	
2025-01-10 15:59:22.02	79.81	4.89	
2025-01-10 15:59:22.22	79.78	4.90	
2025-01-10 15:59:22.43	79.75	4.91	
2025-01-10 15:59:22.63	79.73	4.92	
2025-01-10 15:59:22.84	79.70	4.93	
2025-01-10 15:59:23.06	79.68	4.94	
2025-01-10 15:59:23.26	79.65	4.95	
2025-01-10 15:59:23.47	79.62	4.96	
2025-01-10 15:59:23.67	79.60	4.97	
2025-01-10 15:59:23.88	79.57	4.98	
2025-01-10 15:59:24.08	79.55	4.99	
2025-01-10 15:59:24.29	79.52	5.00	
2025-01-10 15:59:24.49	79.49	5.01	
2025-01-10 15:59:24.70	79.47	5.02	
2025-01-10 15:59:24.91	79.44	5.03	
2025-01-10 15:59:25.11	79.41	5.04	
2025-01-10 15:59:25.31	79.39	5.05	
2025-01-10 15:59:25.52	79.36	5.06	
2025-01-10 15:59:25.73	79.33	5.07	
2025-01-10 15:59:25.93	79.31	5.08	
2025-01-10 15:59:26.13	79.28	5.09	
2025-01-10 15:59:26.34	79.26	5.10	
2025-01-10 15:59:26.55	79.23	5.11	
2025-01-10 15:59:26.75	79.20	5.12	
2025-01-10 15:59:26.96	79.18	5.13	
2025-01-10 15:59:27.16	79.15	5.14	
2025-01-10 15:59:27.37	79.12	5.15	
2025-01-10 15:59:27.57	79.10	5.16	
2025-01-10 15:59:27.78	79.07	5.17	
2025-01-10 15:59:27.98	79.05	5.18	
2025-01-10 15:59:28.19	79.02	5.19	
2025-01-10 15:59:28.39	78.99	5.20	
2025-01-10 15:59:28.60	78.97	5.21	
2025-01-10 15:59:28.80	78.94	5.22	
2025-01-10 15:59:29.01	78.91	5.24	
2025-01-10 15:59:29.22	78.89	5.25	
2025-01-10 15:59:29.44	78.86	5.26	
2025-01-10 15:59:29.65	78.83	5.27	
2025-01-10 15:59:29.85	78.80	5.28	
2025-01-10 15:59:30.06	78.78	5.29	
2025-01-10 15:59:30.26	78.75	5.30	
2025-01-10 15:59:30.47	78.72	5.31	
2025-01-10 15:59:30.67	78.70	5.32	
2025-01-10 15:59:30.88	78.67	5.33	
2025-01-10 15:59:31.08	78.64	5.34	
2025-01-10 15:59:31.29	78.62	5.35	
2025-01-10 15:59:31.49	78.59	5.36	
2025-01-10 15:59:31.70	78.56	5.37	
2025-01-10 15:59:31.90	78.54	5.38	
2025-01-10 15:59:32.11	78.51	5.39	
2025-01-10 15:59:32.31	78.48	5.40	
2025-01-10 15:59:32.52	78.45	5.41	
2025-01-10 15:59:32.72	78.43	5.42	
2025-01-10 15:59:32.93	78.40	5.43	
2025-01-10 15:59:33.13	78.37	5.44	
2025-01-10 15:59:33.34	78.35	5.45	
2025-01-10 15:59:33.54	78.32	5.46	
2025-01-10 15:59:33.75	78.29	5.47	
2025-01-10 15:59:33.95	78.27	5.48	
2025-01-10 15:59:34.16	78.24	5.49	
2025-01-10 15:59:34.36	78.21	5.50	
2025-01-10 15:59:34.57	78.18	5.51	
2025-01-10 15:59:34.77	78.16	5.52	
2025-01-10 15:59:34.98	78.13	5.53	
2025-01-10 15:59:35.18	78.10	5.54	
2025-01-10 15:59:35.39	78.08	5.55	
2025-01-10 15:59:35.60	78.05	5.56	
2025-01-10 15:59:35.81	78.02	5.57	
2025-01-10 15:59:36.01	77.99	5.58	
2025-01-10 15:59:36.22	77.97	5.59	
2025-01-10 15:59:36.42	77.94	5.60	
2025-01-10 15:59:36.63	77.91	5.61	
2025-01-10 15:59:36.85	77.88	5.62	
2025-01-10 15:59:37.05	77.85	5.63	
2025-01-10 15:59:37.26	77.83	5.64	
2025-01-10 15:59:37.46	77.80	5.65	
2025-01-10 15:59:37.67	77.77	5.66	
2025-01-10 15:59:37.87	77.74	5.67	
2025-01-10 15:59:38.08	77.72	5.68	
2025-01-10 15:59:38.29	77.69	5.70	
2025-01-10 15:59:38.50	77.66	5.71	
2025-01-10 15:59:38.71	77.63	5.72	
2025-01-10 15:59:38.91	77.61	5.73	
2025-01-10 15:59:39.11	77.58	5.74	
2025-01-10 15:59:39.32	77.55	5.75	
2025-01-10 15:59:39.53	77.52	5.76	
2025-01-10 15:59:39.73	77.49	5.77	
2025-01-10 15:59:39.95	77.47	5.78	
2025-01-10 15:59:40.16	77.44	5.79	
2025-01-10 15:59:40.36	77.41	5.80	
2025-01-10 15:59:40.57	77.38	5.81	
2025-01-10 15:59:40.77	77.35	5.82	
2025-01-10 15:59:40.97	77.33	5.83	
2025-01-10 15:59:41.18	77.30	5.84	
2025-01-10 15:59:41.38	77.27	5.85	
2025-01-10 15:59:41.60	77.24	5.86	
2025-01-10 15:59:41.80	77.21	5.87	
2025-01-10 15:59:42.01	77.19	5.88	
2025-01-10 15:59:42.21	77.16	5.89	
2025-01-10 15:59:42.42	77.13	5.90	
2025-01-10 15:59:42.62	77.10	5.91	
2025-01-10 15:59:42.83	77.07	5.92	
2025-01-10 15:59:43.03	77.05	5.93	
2025-01-10 15:59:43.24	77.02	5.94	
2025-01-10 15:59:43.44	76.99	5.95	
2025-01-10 15:59:43.65	76.96	5.96	
2025-01-10 15:59:43.85	76.93	5.97	
2025-01-10 15:59:44.06	76.91	5.98	
2025-01-10 15:59:44.26	76.88	5.99	
2025-01-10 15:59:44.46	76.85	6.00	
2025-01-10 15:59:44.67	76.82	6.01	
2025-01-10 15:59:44.87	76.79	6.02	
2025-01-10 15:59:45.08	76.77	6.03	
2025-01-10 15:59:45.28	76.74	6.04	
2025-01-10 15:59:45.49	76.71	6.05	
2025-01-10 15:59:45.69	76.68	6.06	
2025-01-10 15:59:45.90	76.65	6.07	
2025-01-10 15:59:46.10	76.63	6.08	
2025-01-10 15:59:46.31	76.60	6.09	
2025-01-10 15:59:46.51	76.57	6.10	
2025-01-10 15:59:46.72	76.54	6.11	
2025-01-10 15:59:46.92	76.51	6.12	
2025-01-10 15:59:47.13	76.48	6.13	
2025-01-10 15:59:47.33	76.45	6.14	
2025-01-10 15:59:47.54	76.43	6.15	
2025-01-10 15:59:47.74	76.40	6.16	
2025-01-10 15:59:47.95	76.37	6.17	
2025-01-10 15:59:48.15	76.34	6.18	
2025-01-10 15:59:48.36	76.31	6.19	
2025-01-10 15:59:48.58	76.28	6.20	
2025-01-10 15:59:48.78	76.25	6.21	
2025-01-10 15:59:48.99	76.22	6.22	
2025-01-10 15:59:49.20	76.19	6.23	
2025-01-10 15:59:49.40	76.17	6.24	
2025-01-10 15:59:49.62	76.14	6.25	
2025-01-10 15:59:49.82	76.11	6.26	
2025-01-10 15:59:50.03	76.08	6.27	
2025-01-10 15:59:50.23	76.05	6.28	
2025-01-10 15:59:50.44	76.02	6.29	
2025-01-10 15:59:50.64	75.99	6.30	
2025-01-10 15:59:50.85	75.96	6.31	
2025-01-10 15:59:51.05	75.93	6.32	
2025-01-10 15:59:51.26	75.91	6.33	
2025-01-10 15:59:51.46	75.88	6.34	
2025-01-10 15:59:51.67	75.85	6.35	
2025-01-10 15:59:51.87	75.82	6.36	
2025-01-10 15:59:52.08	75.79	6.37	
2025-01-10 15:59:52.28	75.76	6.38	
2025-01-10 15:59:52.49	75.73	6.39	
2025-01-10 15:59:52.69	75.70	6.40	
2025-01-10 15:59:52.90	75.67	6.41	
2025-01-10 15:59:53.10	75.65	6.42	
2025-01-10 15:59:53.31	75.62	6.43	
2025-01-10 15:59:53.51	75.59	6.44	
2025-01-10 15:59:53.72	75.56	6.45	
2025-01-10 15:59:53.92	75.53	6.46	
2025-01-10 15:59:54.13	75.50	6.47	
2025-01-10 15:59:54.33	75.47	6.48	
2025-01-10 15:59:54.54	75.44	6.49	
2025-01-10 15:59:54.74	75.41	6.50	
2025-01-10 15:59:54.95	75.38	6.51	
2025-01-10 15:59:55.15	75.35	6.52	
2025-01-10 15:59:55.36	75.32	6.53	
2025-01-10 15:59:55.57	75.29	6.54	
2025-01-10 15:59:55.77	75.26	6.55	
2025-01-10 15:59:55.98	75.23	6.56	
2025-01-10 15:59:56.18	75.21	6.57	
2025-01-10 15:59:56.39	75.18	6.58	
2025-01-10 15:59:56.59	75.15	6.59	
2025-01-10 15:59:56.80	75.12	6.60	
2025-01-10 15:59:57.01	75.09	6.61	
2025-01-10 15:59:57.21	75.06	6.62	
2025-01-10 15:59:57.41	75.03	6.63	
2025-01-10 15:59:57.62	75.00	6.64	
2025-01-10 15:59:57.83	74.97	6.65	
2025-01-10 15:59:58.03	74.94	6.66	
2025-01-10 15:59:58.25	74.91	6.67	
2025-01-10 15:59:58.45	74.88	6.68	
2025-01-10 15:59:58.66	74.85	6.69	
2025-01-10 15:59:58.86	74.82	6.70	
2025-01-10 15:59:59.07	74.79	6.71	
2025-01-10 15:59:59.29	74.76	6.72	
2025-01-10 15:59:59.49	74.73	6.73	
2025-01-10 15:59:59.70	74.70	6.74	
2025-01-10 15:59:59.90	74.67	6.75	
2025-01-10 16:00:00.11	74.64	6.76	
2025-01-10 16:00:00.31	74.61	6.77	
2025-01-10 16:00:00.52	74.58	6.78	
2025-01-10 16:00:00.72	74.55	6.79	
2025-01-10 16:00:00.93	74.52	6.80	
2025-01-10 16:00:01.13	74.49	6.81	
2025-01-10 16:00:01.34	74.46	6.82	
2025-01-10 16:00:01.54	74.43	6.83	
2025-01-10 16:00:01.75	74.40	6.84	
2025-01-10 16:00:01.95	74.37	6.85	
2025-01-10 16:00:02.16	74.34	6.86	
2025-01-10 16:00:02.36	74.31	6.87	
2025-01-10 16:00:02.57	74.28	6.88	
2025-01-10 16:00:02.77	74.25	6.89	
2025-01-10 16:00:02.98	74.22	6.90	
2025-01-10 16:00:03.18	74.19	6.91	
2025-01-10 16:00:03.39	74.16	6.92	
2025-01-10 16:00:03.59	74.13	6.93	
2025-01-10 16:00:03.80	74.10	6.94	
2025-01-10 16:00:04.00	74.07	6.95	
2025-01-10 16:00:04.21	74.04	6.96	
2025-01-10 16:00:04.42	74.01	6.97	
2025-01-10 16:00:04.62	73.98	6.98	
2025-01-10 16:00:04.83	73.95	6.99	
2025-01-10 16:00:05.03	73.92	7.00	
2025-01-10 16:00:05.24	73.88	7.01	
2025-01-10 16:00:05.44	73.85	7.02	
2025-01-10 16:00:05.65	73.82	7.03	
2025-01-10 16:00:05.85	73.79	7.04	
2025-01-10 16:00:06.06	73.76	7.05	
2025-01-10 16:00:06.26	73.73	7.06	
2025-01-10 16:00:06.47	73.70	7.07	
2025-01-10 16:00:06.68	73.67	7.08	
2025-01-10 16:00:06.88	73.64	7.09	
2025-01-10 16:00:07.09	73.61	7.10	
2025-01-10 16:00:07.29	73.58	7.11	
2025-01-10 16:00:07.50	73.55	7.12	
2025-01-10 16:00:07.70	73.52	7.13	
2025-01-10 16:00:07.91	73.49	7.14	
2025-01-10 16:00:08.12	73.46	7.15	
2025-01-10 16:00:08.32	73.43	7.16	
2025-01-10 16:00:08.52	73.40	7.17	
2025-01-10 16:00:08.73	73.36	7.18	
2025-01-10 16:00:08.93	73.33	7.19	
2025-01-10 16:00:09.14	73.30	7.20	
2025-01-10 16:00:09.35	73.27	7.21	
2025-01-10 16:00:09.55	73.24	7.22	
2025-01-10 16:00:09.76	73.21	7.23	
2025-01-10 16:00:09.97	73.18	7.24	
2025-01-10 16:00:10.18	73.15	7.25	
2025-01-10 16:00:10.38	73.12	7.26	
2025-01-10 16:00:10.59	73.08	7.27	
2025-01-10 16:00:10.79	73.05	7.28	
2025-01-10 16:00:11.00	73.02	7.29	
2025-01-10 16:00:11.20	72.99	7.30	
2025-01-10 16:00:11.41	72.96	7.31	
2025-01-10 16:00:11.61	72.93	7.32	
2025-01-10 16:00:11.82	72.90	7.33	
2025-01-10 16:00:12.02	72.87	7.34	
2025-01-10 16:00:12.22	72.84	7.35	
2025-01-10 16:00:12.43	72.80	7.36	
2025-01-10 16:00:12.64	72.77	7.37	
2025-01-10 16:00:12.84	72.74	7.38	
2025-01-10 16:00:13.05	72.71	7.39	
2025-01-10 16:00:13.25	72.68	7.39	
2025-01-10 16:00:13.45	72.65	7.40	
2025-01-10 16:00:13.66	72.62	7.41	
2025-01-10 16:00:13.87	72.58	7.42	
2025-01-10 16:00:14.07	72.55	7.43	
2025-01-10 16:00:14.27	72.52	7.44	
2025-01-10 16:00:14.48	72.49	7.45	
2025-01-10 16:00:14.69	72.46	7.46	
2025-01-10 16:00:14.89	72.43	7.47	
2025-01-10 16:00:15.10	72.40	7.48	
2025-01-10 16:00:15.30	72.37	7.49	
2025-01-10 16:00:15.50	72.33	7.50	
2025-01-10 16:00:15.71	72.30	7.51	
2025-01-10 16:00:15.92	72.27	7.52	
2025-01-10 16:00:16.12	72.24	7.53	
2025-01-10 16:00:16.34	72.20	7.54	
2025-01-10 16:00:16.55	72.17	7.55	
2025-01-10 16:00:16.75	72.14	7.56	
2025-01-10 16:00:16.96	72.11	7.57	
2025-01-10 16:00:17.16	72.08	7.58	
2025-01-10 16:00:17.36	72.05	7.59	
2025-01-10 16:00:17.57	72.01	7.60	
2025-01-10 16:00:17.78	71.98	7.61	
2025-01-10 16:00:17.98	71.95	7.62	
2025-01-10 16:00:18.19	71.92	7.63	
2025-01-10 16:00:18.39	71.89	7.64	
2025-01-10 16:00:18.60	71.85	7.65	
2025-01-10 16:00:18.80	71.82	7.66	
2025-01-10 16:00:19.01	71.79	7.67	
2025-01-10 16:00:19.21	71.76	7.68	
2025-01-10 16:00:19.42	71.73	7.69	
2025-01-10 16:00:19.62	71.70	7.70	
2025-01-10 16:00:19.83	71.66	7.71	
2025-01-10 16:00:20.03	71.63	7.71	
2025-01-10 16:00:20.24	71.60	7.72	
2025-01-10 16:00:20.44	71.57	7.73	
2025-01-10 16:00:20.66	71.53	7.74	
2025-01-10 16:00:20.87	71.50	7.75	
2025-01-10 16:00:21.07	71.47	7.76	
2025-01-10 16:00:21.27	71.44	7.77	
2025-01-10 16:00:21.48	71.40	7.78	
2025-01-10 16:00:21.68	71.37	7.79	
2025-01-10 16:00:21.88	71.34	7.80	
2025-01-10 16:00:22.09	71.31	7.81	
2025-01-10 16:00:22.30	71.28	7.82	
2025-01-10 16:00:22.50	71.24	7.83	
2025-01-10 16:00:22.72	71.21	7.84	
2025-01-10 16:00:22.92	71.18	7.85	
2025-01-10 16:00:23.13	71.14	7.86	
2025-01-10 16:00:23.33	71.11	7.87	
2025-01-10 16:00:23.54	71.08	7.88	
2025-01-10 16:00:23.74	71.05	7.89	
2025-01-10 16:00:23.95	71.01	7.90	
2025-01-10 16:00:24.16	70.98	7.91	
2025-01-10 16:00:24.36	70.95	7.92	
2025-01-10 16:00:24.56	70.92	7.93	
2025-01-10 16:00:24.77	70.88	7.94	
2025-01-10 16:00:24.97	70.85	7.95	
2025-01-10 16:00:25.18	70.82	7.96	
2025-01-10 16:00:25.38	70.79	7.96	
2025-01-10 16:00:25.59	70.75	7.97	
2025-01-10 16:00:25.79	70.72	7.98	
2025-01-10 16:00:26.01	70.69	7.99	
2025-01-10 16:00:26.21	70.65	8.00	
2025-01-10 16:00:26.42	70.62	8.01	
2025-01-10 16:00:26.62	70.59	8.02	
2025-01-10 16:00:26.83	70.56	8.03	
2025-01-10 16:00:27.03	70.52	8.04	
2025-01-10 16:00:27.24	70.49	8.05	
2025-01-10 16:00:27.45	70.46	8.06	
2025-01-10 16:00:27.65	70.42	8.07	
2025-01-10 16:00:27.85	70.39	8.08	
2025-01-10 16:00:28.06	70.36	8.09	
2025-01-10 16:00:28.26	70.33	8.10	
2025-01-10 16:00:28.47	70.29	8.11	
2025-01-10 16:00:28.67	70.26	8.12	
2025-01-10 16:00:28.88	70.23	8.13	
2025-01-10 16:00:29.08	70.19	8.14	
2025-01-10 16:00:29.29	70.16	8.15	
2025-01-10 16:00:29.50	70.13	8.15	
2025-01-10 16:00:29.70	70.09	8.16	
2025-01-10 16:00:29.91	70.06	8.17	
2025-01-10 16:00:30.11	70.03	8.18	
2025-01-10 16:00:30.31	69.99	8.19	
2025-01-10 16:00:30.52	69.96	8.20	
2025-01-10 16:00:30.73	69.93	8.21	
2025-01-10 16:00:30.93	69.89	8.22	
2025-01-10 16:00:31.13	69.86	8.23	
2025-01-10 16:00:31.34	69.83	8.24	
2025-01-10 16:00:31.54	69.80	8.25	
2025-01-10 16:00:31.75	69.76	8.26	
2025-01-10 16:00:31.95	69.73	8.27	
2025-01-10 16:00:32.16	69.69	8.28	
2025-01-10 16:00:32.36	69.66	8.29	
2025-01-10 16:00:32.57	69.63	8.30	
2025-01-10 16:00:32.77	69.59	8.30	
2025-01-10 16:00:32.98	69.56	8.31	
2025-01-10 16:00:33.18	69.53	8.32	
2025-01-10 16:00:33.39	69.49	8.33	
2025-01-10 16:00:33.59	69.46	8.34	
2025-01-10 16:00:33.80	69.43	8.35	
2025-01-10 16:00:34.00	69.39	8.36	
2025-01-10 16:00:34.21	69.36	8.37	
2025-01-10 16:00:34.41	69.33	8.38	
2025-01-10 16:00:34.62	69.29	8.39	
2025-01-10 16:00:34.82	69.26	8.40	
2025-01-10 16:00:35.03	69.22	8.41	
2025-01-10 16:00:35.24	69.19	8.42	
2025-01-10 16:00:35.44	69.16	8.43	
2025-01-10 16:00:35.64	69.12	8.43	
2025-01-10 16:00:35.85	69.09	8.44	
2025-01-10 16:00:36.06	69.05	8.45	
2025-01-10 16:00:36.26	69.02	8.46	
2025-01-10 16:00:36.47	68.99	8.47	
2025-01-10 16:00:36.67	68.95	8.48	
2025-01-10 16:00:36.88	68.92	8.49	
2025-01-10 16:00:37.08	68.88	8.50	
2025-01-10 16:00:37.29	68.85	8.51	
2025-01-10 16:00:37.49	68.82	8.52	
2025-01-10 16:00:37.70	68.78	8.53	
2025-01-10 16:00:37.90	68.75	8.54	
2025-01-10 16:00:38.11	68.71	8.55	
2025-01-10 16:00:38.31	68.68	8.56	
2025-01-10 16:00:38.52	68.65	8.56	
2025-01-10 16:00:38.72	68.61	8.57	
2025-01-10 16:00:38.93	68.58	8.58	
2025-01-10 16:00:39.13	68.54	8.59	
2025-01-10 16:00:39.34	68.51	8.60	
2025-01-10 16:00:39.55	68.47	8.61	
2025-01-10 16:00:39.75	68.44	8.62	
2025-01-10 16:00:39.95	68.41	8.63	
2025-01-10 16:00:40.16	68.37	8.64	
2025-01-10 16:00:40.36	68.34	8.65	
2025-01-10 16:00:40.57	68.30	8.66	
2025-01-10 16:00:40.77	68.27	8.67	
2025-01-10 16:00:40.98	68.23	8.67	
2025-01-10 16:00:41.18	68.20	8.68	
2025-01-10 16:00:41.39	68.16	8.69	
2025-01-10 16:00:41.59	68.13	8.70	
2025-01-10 16:00:41.80	68.10	8.71	
2025-01-10 16:00:42.02	68.06	8.72	
2025-01-10 16:00:42.22	68.02	8.73	
2025-01-10 16:00:42.43	67.99	8.74	
2025-01-10 16:00:42.64	67.95	8.75	
2025-01-10 16:00:42.84	67.92	8.76	
2025-01-10 16:00:43.06	67.88	8.77	
2025-01-10 16:00:43.26	67.85	8.78	
2025-01-10 16:00:43.47	67.81	8.79	
2025-01-10 16:00:43.67	67.78	8.79	
2025-01-10 16:00:43.88	67.74	8.80	
2025-01-10 16:00:44.08	67.71	8.81	
2025-01-10 16:00:44.29	67.67	8.82	
2025-01-10 16:00:44.49	67.64	8.83	
2025-01-10 16:00:44.70	67.60	8.84	
2025-01-10 16:00:44.91	67.57	8.85	
2025-01-10 16:00:45.11	67.53	8.86	
2025-01-10 16:00:45.31	67.50	8.87	
2025-01-10 16:00:45.52	67.46	8.88	
2025-01-10 16:00:45.73	67.43	8.88	
2025-01-10 16:00:45.93	67.39	8.89	
2025-01-10 16:00:46.15	67.36	8.90	
2025-01-10 16:00:46.35	67.32	8.91	
2025-01-10 16:00:46.56	67.29	8.92	
2025-01-10 16:00:46.76	67.25	8.93	
2025-01-10 16:00:46.97	67.22	8.94	
2025-01-10 16:00:47.17	67.18	8.95	
2025-01-10 16:00:47.37	67.15	8.96	
2025-01-10 16:00:47.58	67.11	8.97	
2025-01-10 16:00:47.79	67.08	8.97	
2025-01-10 16:00:47.99	67.04	8.98	
2025-01-10 16:00:48.20	67.01	8.99	
2025-01-10 16:00:48.41	66.97	9.00	
2025-01-10 16:00:48.62	66.93	9.01	
2025-01-10 16:00:48.82	66.90	9.02	
2025-01-10 16:00:49.03	66.86	9.03	
2025-01-10 16:00:49.23	66.83	9.04	
2025-01-10 16:00:49.44	66.79	9.05	
2025-01-10 16:00:49.64	66.76	9.06	
2025-01-10 16:00:49.85	66.72	9.06	
2025-01-10 16:00:50.06	66.68	9.07	
2025-01-10 16:00:50.26	66.65	9.08	
2025-01-10 16:00:50.46	66.61	9.09	
2025-01-10 16:00:50.67	66.58	9.10	
2025-01-10 16:00:50.88	66.54	9.11	
2025-01-10 16:00:51.08	66.51	9.12	
2025-01-10 16:00:51.29	66.47	9.13	
2025-01-10 16:00:51.49	66.44	9.14	
2025-01-10 16:00:51.69	66.40	9.14	
2025-01-10 16:00:51.90	66.36	9.15	
2025-01-10 16:00:52.10	66.33	9.16	
2025-01-10 16:00:52.31	66.29	9.17	
2025-01-10 16:00:52.52	66.26	9.18	
2025-01-10 16:00:52.72	66.22	9.19	
2025-01-10 16:00:52.92	66.19	9.20	
2025-01-10 16:00:53.13	66.15	9.21	
2025-01-10 16:00:53.33	66.12	9.21	
2025-01-10 16:00:53.54	66.08	9.22	
2025-01-10 16:00:53.74	66.04	9.23	
2025-01-10 16:00:53.95	66.01	9.24	
2025-01-10 16:00:54.15	65.97	9.25	
2025-01-10 16:00:54.36	65.93	9.26	
2025-01-10 16:00:54.56	65.90	9.27	
2025-01-10 16:00:54.77	65.86	9.28	
2025-01-10 16:00:54.97	65.83	9.28	
2025-01-10 16:00:55.17	65.79	9.29	
2025-01-10 16:00:55.38	65.76	9.30	
2025-01-10 16:00:55.59	65.72	9.31	
2025-01-10 16:00:55.79	65.68	9.32	
2025-01-10 16:00:55.99	65.65	9.33	
2025-01-10 16:00:56.20	65.61	9.34	
2025-01-10 16:00:56.41	65.57	9.35	
2025-01-10 16:00:56.61	65.54	9.35	
2025-01-10 16:00:56.82	65.50	9.36	
2025-01-10 16:00:57.02	65.47	9.37	
2025-01-10 16:00:57.23	65.43	9.38	
2025-01-10 16:00:57.43	65.39	9.39	
2025-01-10 16:00:57.64	65.36	9.40	
2025-01-10 16:00:57.84	65.32	9.41	
2025-01-10 16:00:58.04	65.28	9.41	
2025-01-10 16:00:58.25	65.25	9.42	
2025-01-10 16:00:58.45	65.21	9.43	
2025-01-10 16:00:58.66	65.17	9.44	
2025-01-10 16:00:58.87	65.14	9.45	
2025-01-10 16:00:59.07	65.10	9.46	
2025-01-10 16:00:59.28	65.06	9.47	
2025-01-10 16:00:59.48	65.03	9.47	
2025-01-10 16:00:59.69	64.99	9.48	
2025-01-10 16:00:59.89	64.95	9.49	
2025-01-10 16:01:00.10	64.92	9.50	
2025-01-10 16:01:00.30	64.88	9.51	
2025-01-10 16:01:00.51	64.84	9.52	
2025-01-10 16:01:00.72	64.81	9.53	
2025-01-10 16:01:00.92	64.77	9.53	
2025-01-10 16:01:01.12	64.73	9.54	
2025-01-10 16:01:01.33	64.70	9.55	
2025-01-10 16:01:01.53	64.66	9.56	
2025-01-10 16:01:01.74	64.62	9.57	
2025-01-10 16:01:01.94	64.59	9.58	
2025-01-10 16:01:02.15	64.55	9.58	
2025-01-10 16:01:02.35	64.51	9.59	
2025-01-10 16:01:02.56	64.48	9.60	
2025-01-10 16:01:02.77	64.44	9.61	
2025-01-10 16:01:02.97	64.40	9.62	
2025-01-10 16:01:03.18	64.36	9.63	
2025-01-10 16:01:03.38	64.33	9.64	
2025-01-10 16:01:03.59	64.29	9.64	
2025-01-10 16:01:03.79	64.25	9.65	
2025-01-10 16:01:04.00	64.22	9.66	
2025-01-10 16:01:04.20	64.18	9.67	
2025-01-10 16:01:04.42	64.14	9.68	
2025-01-10 16:01:04.62	64.10	9.69	
2025-01-10 16:01:04.83	64.07	9.69	
2025-01-10 16:01:05.04	64.03	9.70	
2025-01-10 16:01:05.24	63.99	9.71	
2025-01-10 16:01:05.46	63.95	9.72	
2025-01-10 16:01:05.66	63.91	9.73	
2025-01-10 16:01:05.87	63.88	9.74	
2025-01-10 16:01:06.08	63.84	9.75	
2025-01-10 16:01:06.28	63.80	9.75	
2025-01-10 16:01:06.48	63.77	9.76	
2025-01-10 16:01:06.69	63.73	9.77	
2025-01-10 16:01:06.90	63.69	9.78	
2025-01-10 16:01:07.10	63.65	9.79	
2025-01-10 16:01:07.31	63.61	9.80	
2025-01-10 16:01:07.51	63.58	9.80	
2025-01-10 16:01:07.71	63.54	9.81	
2025-01-10 16:01:07.92	63.50	9.82	
2025-01-10 16:01:08.12	63.47	9.83	
2025-01-10 16:01:08.33	63.43	9.84	
2025-01-10 16:01:08.54	63.39	9.84	
2025-01-10 16:01:08.74	63.35	9.85	
2025-01-10 16:01:08.95	63.31	9.86	
2025-01-10 16:01:09.15	63.28	9.87	
2025-01-10 16:01:09.36	63.24	9.88	
2025-01-10 16:01:09.56	63.20	9.89	
2025-01-10 16:01:09.77	63.16	9.89	
2025-01-10 16:01:09.97	63.13	9.90	
2025-01-10 16:01:10.18	63.09	9.91	
2025-01-10 16:01:10.39	63.05	9.92	
2025-01-10 16:01:10.59	63.01	9.93	
2025-01-10 16:01:10.80	62.97	9.94	
2025-01-10 16:01:11.00	62.94	9.94	
2025-01-10 16:01:11.21	62.90	9.95	
2025-01-10 16:01:11.41	62.86	9.96	
2025-01-10 16:01:11.62	62.82	9.97	
2025-01-10 16:01:11.82	62.78	9.98	
2025-01-10 16:01:12.03	62.75	9.98	
2025-01-10 16:01:12.23	62.71	9.99	
2025-01-10 16:01:12.44	62.67	10.00	
2025-01-10 16:01:12.64	62.63	10.01	
2025-01-10 16:01:12.85	62.59	10.02	
2025-01-10 16:01:13.06	62.55	10.02	
2025-01-10 16:01:13.27	62.52	10.03	
2025-01-10 16:01:13.48	62.48	10.04	
2025-01-10 16:01:13.68	62.44	10.05	
2025-01-10 16:01:13.89	62.40	10.06	
2025-01-10 16:01:14.09	62.36	10.06	
2025-01-10 16:01:14.30	62.32	10.07	
2025-01-10 16:01:14.50	62.29	10.08	
2025-01-10 16:01:14.71	62.25	10.09	
2025-01-10 16:01:14.92	62.21	10.10	
2025-01-10 16:01:15.12	62.17	10.10	
2025-01-10 16:01:15.33	62.13	10.11	
2025-01-10 16:01:15.53	62.09	10.12	
2025-01-10 16:01:15.74	62.05	10.13	
2025-01-10 16:01:15.94	62.02	10.14	
2025-01-10 16:01:16.16	61.98	10.14	
2025-01-10 16:01:16.37	61.94	10.15	
2025-01-10 16:01:16.57	61.90	10.16	
2025-01-10 16:01:16.78	61.86	10.17	
2025-01-10 16:01:16.98	61.82	10.18	
2025-01-10 16:01:17.19	61.78	10.18	
2025-01-10 16:01:17.39	61.74	10.19	
2025-01-10 16:01:17.60	61.70	10.20	
2025-01-10 16:01:17.80	61.67	10.21	
2025-01-10 16:01:18.01	61.63	10.22	
2025-01-10 16:01:18.21	61.59	10.22	
2025-01-10 16:01:18.42	61.55	10.23	
2025-01-10 16:01:18.62	61.51	10.24	
2025-01-10 16:01:18.83	61.47	10.25	
2025-01-10 16:01:19.04	61.43	10.25	
2025-01-10 16:01:19.24	61.39	10.26	
2025-01-10 16:01:19.45	61.36	10.27	
2025-01-10 16:01:19.65	61.32	10.28	
2025-01-10 16:01:19.86	61.28	10.29	
2025-01-10 16:01:20.06	61.24	10.29	
2025-01-10 16:01:20.27	61.20	10.30	
2025-01-10 16:01:20.47	61.16	10.31	
2025-01-10 16:01:20.68	61.12	10.32	
2025-01-10 16:01:20.88	61.08	10.32	
2025-01-10 16:01:21.09	61.04	10.33	
2025-01-10 16:01:21.29	61.01	10.34	
2025-01-10 16:01:21.50	60.97	10.35	
2025-01-10 16:01:21.70	60.93	10.35	
2025-01-10 16:01:21.91	60.89	10.36	
2025-01-10 16:01:22.11	60.85	10.37	
2025-01-10 16:01:22.32	60.81	10.38	
2025-01-10 16:01:22.52	60.77	10.39	
2025-01-10 16:01:22.73	60.73	10.39	
2025-01-10 16:01:22.93	60.69	10.40	
2025-01-10 16:01:23.14	60.65	10.41	
2025-01-10 16:01:23.34	60.61	10.42	
2025-01-10 16:01:23.55	60.57	10.42	
2025-01-10 16:01:23.75	60.54	10.43	
2025-01-10 16:01:23.96	60.50	10.44	
2025-01-10 16:01:24.16	60.46	10.45	
2025-01-10 16:01:24.37	60.42	10.45	
2025-01-10 16:01:24.57	60.38	10.46	
2025-01-10 16:01:24.78	60.34	10.47	
2025-01-10 16:01:24.99	60.30	10.48	
2025-01-10 16:01:25.19	60.26	10.48	
2025-01-10 16:01:25.40	60.22	10.49	
2025-01-10 16:01:25.60	60.18	10.50	
2025-01-10 16:01:25.80	60.14	10.51	
2025-01-10 16:01:26.01	60.10	10.51	
2025-01-10 16:01:26.21	60.06	10.52	
2025-01-10 16:01:26.42	60.02	10.53	
2025-01-10 16:01:26.62	59.98	10.54	
2025-01-10 16:01:26.83	59.94	10.54	
2025-01-10 16:01:27.03	59.90	10.55	
2025-01-10 16:01:27.24	59.86	10.56	
2025-01-10 16:01:27.44	59.83	10.57	
2025-01-10 16:01:27.65	59.78	10.57	
2025-01-10 16:01:27.85	59.75	10.58	
2025-01-10 16:01:28.06	59.71	10.59	
2025-01-10 16:01:28.26	59.67	10.60	
2025-01-10 16:01:28.47	59.63	10.60	
2025-01-10 16:01:28.67	59.59	10.61	
2025-01-10 16:01:28.88	59.55	10.62	
2025-01-10 16:01:29.08	59.51	10.62	
2025-01-10 16:01:29.29	59.47	10.63	
2025-01-10 16:01:29.49	59.43	10.64	
2025-01-10 16:01:29.69	59.39	10.65	
2025-01-10 16:01:29.90	59.35	10.65	
2025-01-10 16:01:30.10	59.31	10.66	
2025-01-10 16:01:30.31	59.27	10.67	
2025-01-10 16:01:30.52	59.23	10.68	
2025-01-10 16:01:30.72	59.19	10.68	
2025-01-10 16:01:30.93	59.15	10.69	
2025-01-10 16:01:31.13	59.11	10.70	
2025-01-10 16:01:31.34	59.07	10.70	
2025-01-10 16:01:31.55	59.03	10.71	
2025-01-10 16:01:31.76	58.98	10.72	
2025-01-10 16:01:31.96	58.95	10.73	
2025-01-10 16:01:32.17	58.90	10.73	
2025-01-10 16:01:32.37	58.87	10.74	
2025-01-10 16:01:32.58	58.82	10.75	
2025-01-10 16:01:32.78	58.78	10.75	
2025-01-10 16:01:32.99	58.74	10.76	
2025-01-10 16:01:33.19	58.70	10.77	
2025-01-10 16:01:33.39	58.66	10.78	
2025-01-10 16:01:33.60	58.62	10.78	
2025-01-10 16:01:33.81	58.58	10.79	
2025-01-10 16:01:34.01	58.54	10.80	
2025-01-10 16:01:34.22	58.50	10.80	
2025-01-10 16:01:34.42	58.46	10.81	
2025-01-10 16:01:34.63	58.42	10.82	
2025-01-10 16:01:34.83	58.38	10.83	
2025-01-10 16:01:35.04	58.34	10.83	
2025-01-10 16:01:35.24	58.30	10.84	
2025-01-10 16:01:35.45	58.26	10.85	
2025-01-10 16:01:35.65	58.22	10.85	
2025-01-10 16:01:35.86	58.18	10.86	
2025-01-10 16:01:36.07	58.14	10.87	
2025-01-10 16:01:36.27	58.10	10.87	
2025-01-10 16:01:36.47	58.06	10.88	
2025-01-10 16:01:36.68	58.02	10.89	
2025-01-10 16:01:36.89	57.97	10.89	
2025-01-10 16:01:37.09	57.93	10.90	
2025-01-10 16:01:37.30	57.89	10.91	
2025-01-10 16:01:37.50	57.85	10.92	
2025-01-10 16:01:37.71	57.81	10.92	
2025-01-10 16:01:37.91	57.77	10.93	
2025-01-10 16:01:38.12	57.73	10.94	
2025-01-10 16:01:38.32	57.69	10.94	
2025-01-10 16:01:38.52	57.65	10.95	
2025-01-10 16:01:38.73	57.61	10.96	
2025-01-10 16:01:38.93	57.57	10.96	
2025-01-10 16:01:39.14	57.53	10.97	
2025-01-10 16:01:39.35	57.48	10.98	
2025-01-10 16:01:39.55	57.44	10.98	
2025-01-10 16:01:39.76	57.40	10.99	
2025-01-10 16:01:39.96	57.36	11.00	
2025-01-10 16:01:40.17	57.32	11.00	
2025-01-10 16:01:40.37	57.28	11.01	
2025-01-10 16:01:40.58	57.24	11.02	
2025-01-10 16:01:40.78	57.20	11.02	
2025-01-10 16:01:40.99	57.16	11.03	
2025-01-10 16:01:41.19	57.12	11.04	
2025-01-10 16:01:41.40	57.07	11.04	
2025-01-10 16:01:41.60	57.03	11.05	
2025-01-10 16:01:41.82	56.99	11.06	
2025-01-10 16:01:42.03	56.95	11.06	
2025-01-10 16:01:42.23	56.91	11.07	
2025-01-10 16:01:42.44	56.87	11.08	
2025-01-10 16:01:42.65	56.82	11.08	
2025-01-10 16:01:42.86	56.78	11.09	
2025-01-10 16:01:43.07	56.74	11.10	
2025-01-10 16:01:43.27	56.70	11.10	
2025-01-10 16:01:43.48	56.66	11.11	
2025-01-10 16:01:43.69	56.61	11.12	
2025-01-10 16:01:43.89	56.57	11.12	
2025-01-10 16:01:44.10	56.53	11.13	
2025-01-10 16:01:44.30	56.49	11.14	
2025-01-10 16:01:44.51	56.45	11.14	
2025-01-10 16:01:44.71	56.41	11.15	
2025-01-10 16:01:44.92	56.37	11.16	
2025-01-10 16:01:45.12	56.33	11.16	
2025-01-10 16:01:45.32	56.28	11.17	
2025-01-10 16:01:45.53	56.24	11.18	
2025-01-10 16:01:45.73	56.20	11.18	
2025-01-10 16:01:45.94	56.16	11.19	
2025-01-10 16:01:46.14	56.12	11.19	
2025-01-10 16:01:46.35	56.08	11.20	
2025-01-10 16:01:46.55	56.04	11.21	
2025-01-10 16:01:46.76	55.99	11.21	
2025-01-10 16:01:46.96	55.95	11.22	
2025-01-10 16:01:47.17	55.91	11.23	
2025-01-10 16:01:47.37	55.87	11.23	
2025-01-10 16:01:47.58	55.83	11.24	
2025-01-10 16:01:47.78	55.79	11.25	
2025-01-10 16:01:47.99	55.74	11.25	
2025-01-10 16:01:48.19	55.70	11.26	
2025-01-10 16:01:48.40	55.66	11.26	
2025-01-10 16:01:48.60	55.62	11.27	
2025-01-10 16:01:48.81	55.58	11.28	
2025-01-10 16:01:49.01	55.53	11.28	
2025-01-10 16:01:49.22	55.49	11.29	
2025-01-10 16:01:49.42	55.45	11.30	
2025-01-10 16:01:49.63	55.41	11.30	
2025-01-10 16:01:49.83	55.37	11.31	
2025-01-10 16:01:50.04	55.32	11.31	
2025-01-10 16:01:50.25	55.28	11.32	
2025-01-10 16:01:50.45	55.24	11.33	
2025-01-10 16:01:50.66	55.20	11.33	
2025-01-10 16:01:50.86	55.16	11.34	
2025-01-10 16:01:51.06	55.12	11.34	
2025-01-10 16:01:51.27	55.07	11.35	
2025-01-10 16:01:51.49	55.03	11.36	
2025-01-10 16:01:51.70	54.98	11.36	
2025-01-10 16:01:51.90	54.94	11.37	
2025-01-10 16:01:52.11	54.90	11.38	
2025-01-10 16:01:52.31	54.86	11.38	
2025-01-10 16:01:52.52	54.82	11.39	
2025-01-10 16:01:52.72	54.77	11.39	
2025-01-10 16:01:52.93	54.73	11.40	
2025-01-10 16:01:53.13	54.69	11.41	
2025-01-10 16:01:53.34	54.65	11.41	
2025-01-10 16:01:53.54	54.61	11.42	
2025-01-10 16:01:53.75	54.56	11.42	
2025-01-10 16:01:53.95	54.52	11.43	
2025-01-10 16:01:54.16	54.48	11.44	
2025-01-10 16:01:54.36	54.44	11.44	
2025-01-10 16:01:54.57	54.39	11.45	
2025-01-10 16:01:54.77	54.35	11.45	
2025-01-10 16:01:54.98	54.31	11.46	
2025-01-10 16:01:55.18	54.27	11.46	
2025-01-10 16:01:55.39	54.22	11.47	
2025-01-10 16:01:55.59	54.18	11.48	
2025-01-10 16:01:55.80	54.14	11.48	
2025-01-10 16:01:56.00	54.10	11.49	
2025-01-10 16:01:56.21	54.05	11.49	
2025-01-10 16:01:56.41	54.01	11.50	
2025-01-10 16:01:56.62	53.97	11.50	
2025-01-10 16:01:56.82	53.93	11.51	
2025-01-10 16:01:57.03	53.88	11.52	
2025-01-10 16:01:57.23	53.84	11.52	
2025-01-10 16:01:57.44	53.80	11.53	
2025-01-10 16:01:57.64	53.76	11.53	
2025-01-10 16:01:57.84	53.72	11.54	
2025-01-10 16:01:58.05	53.67	11.54	
2025-01-10 16:01:58.26	53.63	11.55	
2025-01-10 16:01:58.46	53.59	11.56	
2025-01-10 16:01:58.67	53.54	11.56	
2025-01-10 16:01:58.87	53.50	11.57	
2025-01-10 16:01:59.07	53.46	11.57	
2025-01-10 16:01:59.29	53.41	11.58	
2025-01-10 16:01:59.50	53.37	11.58	
2025-01-10 16:01:59.70	53.33	11.59	
2025-01-10 16:01:59.91	53.28	11.60	
2025-01-10 16:02:00.11	53.24	11.60	
2025-01-10 16:02:00.31	53.20	11.61	
2025-01-10 16:02:00.52	53.16	11.61	
2025-01-10 16:02:00.73	53.11	11.62	
2025-01-10 16:02:00.93	53.07	11.62	
2025-01-10 16:02:01.15	53.03	11.63	
2025-01-10 16:02:01.36	52.98	11.63	
2025-01-10 16:02:01.56	52.94	11.64	
2025-01-10 16:02:01.77	52.90	11.64	
2025-01-10 16:02:01.97	52.85	11.65	
2025-01-10 16:02:02.18	52.81	11.66	
2025-01-10 16:02:02.38	52.77	11.66	
2025-01-10 16:02:02.59	52.72	11.67	
2025-01-10 16:02:02.79	52.68	11.67	
2025-01-10 16:02:03.00	52.64	11.68	
2025-01-10 16:02:03.22	52.59	11.68	
2025-01-10 16:02:03.42	52.55	11.69	
2025-01-10 16:02:03.63	52.50	11.69	
2025-01-10 16:02:03.84	52.46	11.70	
2025-01-10 16:02:04.04	52.42	11.70	
2025-01-10 16:02:04.25	52.37	11.71	
2025-01-10 16:02:04.45	52.33	11.71	
2025-01-10 16:02:04.66	52.29	11.72	
2025-01-10 16:02:04.86	52.25	11.73	
2025-01-10 16:02:05.07	52.20	11.73	
2025-01-10 16:02:05.27	52.16	11.74	
2025-01-10 16:02:05.47	52.12	11.74	
2025-01-10 16:02:05.68	52.07	11.75	
2025-01-10 16:02:05.89	52.03	11.75	
2025-01-10 16:02:06.09	51.99	11.76	
2025-01-10 16:02:06.29	51.94	11.76	
2025-01-10 16:02:06.50	51.90	11.77	
2025-01-10 16:02:06.70	51.86	11.77	
2025-01-10 16:02:06.91	51.81	11.78	
2025-01-10 16:02:07.12	51.77	11.78	
2025-01-10 16:02:07.32	51.73	11.79	
2025-01-10 16:02:07.52	51.68	11.79	
2025-01-10 16:02:07.73	51.64	11.80	
2025-01-10 16:02:07.93	51.60	11.80	
2025-01-10 16:02:08.14	51.55	11.81	
2025-01-10 16:02:08.34	51.51	11.81	
2025-01-10 16:02:08.55	51.47	11.82	
2025-01-10 16:02:08.75	51.42	11.82	
2025-01-10 16:02:08.96	51.38	11.83	
2025-01-10 16:02:09.16	51.34	11.83	
2025-01-10 16:02:09.37	51.29	11.84	
2025-01-10 16:02:09.57	51.25	11.84	
2025-01-10 16:02:09.78	51.20	11.85	
2025-01-10 16:02:09.98	51.16	11.85	
2025-01-10 16:02:10.19	51.12	11.86	
2025-01-10 16:02:10.39	51.07	11.86	
2025-01-10 16:02:10.60	51.03	11.87	
2025-01-10 16:02:10.80	50.99	11.87	
2025-01-10 16:02:11.00	50.94	11.87	
2025-01-10 16:02:11.21	50.90	11.88	
2025-01-10 16:02:11.42	50.85	11.88	
2025-01-10 16:02:11.62	50.81	11.89	
2025-01-10 16:02:11.82	50.77	11.89	
2025-01-10 16:02:12.03	50.72	11.90	
2025-01-10 16:02:12.24	50.68	11.90	
2025-01-10 16:02:12.44	50.64	11.91	
2025-01-10 16:02:12.65	50.59	11.91	
2025-01-10 16:02:12.85	50.55	11.92	
2025-01-10 16:02:13.06	50.50	11.92	
2025-01-10 16:02:13.27	50.46	11.93	
2025-01-10 16:02:13.47	50.42	11.93	
2025-01-10 16:02:13.68	50.37	11.94	
2025-01-10 16:02:13.88	50.33	11.94	
2025-01-10 16:02:14.08	50.29	11.94	
2025-01-10 16:02:14.29	50.24	11.95	
2025-01-10 16:02:14.50	50.20	11.95	
2025-01-10 16:02:14.70	50.15	11.96	
2025-01-10 16:02:14.91	50.11	11.96	
2025-01-10 16:02:15.11	50.07	11.97	
2025-01-10 16:02:15.31	50.02	11.97	
2025-01-10 16:02:15.52	49.98	11.98	
2025-01-10 16:02:15.73	49.93	11.98	
2025-01-10 16:02:15.93	49.89	11.99	
2025-01-10 16:02:16.13	49.85	11.99	
2025-01-10 16:02:16.34	49.80	11.99	
2025-01-10 16:02:16.55	49.76	12.00	
2025-01-10 16:02:16.75	49.71	12.00	
2025-01-10 16:02:16.96	49.67	12.01	
2025-01-10 16:02:17.16	49.62	12.01	
2025-01-10 16:02:17.37	49.58	12.02	
2025-01-10 16:02:17.58	49.53	12.02	
2025-01-10 16:02:17.78	49.49	12.03	
2025-01-10 16:02:17.99	49.45	12.03	
2025-01-10 16:02:18.19	49.40	12.03	
2025-01-10 16:02:18.39	49.36	12.04	
2025-01-10 16:02:18.60	49.31	12.04	
2025-01-10 16:02:18.80	49.27	12.05	
2025-01-10 16:02:19.01	49.23	12.05	
2025-01-10 16:02:19.21	49.18	12.05	
2025-01-10 16:02:19.42	49.14	12.06	
2025-01-10 16:02:19.62	49.09	12.06	
2025-01-10 16:02:19.83	49.05	12.07	
2025-01-10 16:02:20.04	49.00	12.07	
2025-01-10 16:02:20.24	48.96	12.08	
2025-01-10 16:02:20.45	48.91	12.08	
2025-01-10 16:02:20.65	48.87	12.08	
2025-01-10 16:02:20.86	48.83	12.09	
2025-01-10 16:02:21.06	48.78	12.09	
2025-01-10 16:02:21.27	48.74	12.10	
2025-01-10 16:02:21.47	48.69	12.10	
2025-01-10 16:02:21.68	48.65	12.10	
2025-01-10 16:02:21.88	48.60	12.11	
2025-01-10 16:02:22.09	48.56	12.11	
2025-01-10 16:02:22.29	48.52	12.12	
2025-01-10 16:02:22.50	48.47	12.12	
2025-01-10 16:02:22.70	48.43	12.12	
2025-01-10 16:02:22.91	48.38	12.13	
2025-01-10 16:02:23.11	48.34	12.13	
2025-01-10 16:02:23.33	48.29	12.14	
2025-01-10 16:02:23.53	48.25	12.14	
2025-01-10 16:02:23.74	48.20	12.14	
2025-01-10 16:02:23.94	48.16	12.15	
2025-01-10 16:02:24.15	48.11	12.15	
2025-01-10 16:02:24.36	48.07	12.16	
2025-01-10 16:02:24.57	48.02	12.16	
2025-01-10 16:02:24.78	47.97	12.16	
2025-01-10 16:02:24.98	47.93	12.17	
2025-01-10 16:02:25.19	47.89	12.17	
2025-01-10 16:02:25.39	47.84	12.17	
2025-01-10 16:02:25.60	47.80	12.18	
2025-01-10 16:02:25.80	47.75	12.18	
2025-01-10 16:02:26.01	47.71	12.19	
2025-01-10 16:02:26.21	47.66	12.19	
2025-01-10 16:02:26.42	47.62	12.19	
2025-01-10 16:02:26.62	47.57	12.20	
2025-01-10 16:02:26.83	47.53	12.20	
2025-01-10 16:02:27.03	47.48	12.20	
2025-01-10 16:02:27.24	47.44	12.21	
2025-01-10 16:02:27.44	47.39	12.21	
2025-01-10 16:02:27.65	47.35	12.21	
2025-01-10 16:02:27.85	47.31	12.22	
2025-01-10 16:02:28.06	47.26	12.22	
2025-01-10 16:02:28.26	47.22	12.23	
2025-01-10 16:02:28.47	47.17	12.23	
2025-01-10 16:02:28.68	47.12	12.23	
2025-01-10 16:02:28.88	47.08	12.24	
2025-01-10 16:02:29.08	47.04	12.24	
2025-01-10 16:02:29.29	46.99	12.24	
2025-01-10 16:02:29.49	46.95	12.25	
2025-01-10 16:02:29.70	46.90	12.25	
2025-01-10 16:02:29.90	46.86	12.25	
2025-01-10 16:02:30.11	46.81	12.26	
2025-01-10 16:02:30.31	46.77	12.26	
2025-01-10 16:02:30.52	46.72	12.26	
2025-01-10 16:02:30.73	46.67	12.27	
2025-01-10 16:02:30.93	46.63	12.27	
2025-01-10 16:02:31.13	46.59	12.27	
2025-01-10 16:02:31.34	46.54	12.28	
2025-01-10 16:02:31.55	46.49	12.28	
2025-01-10 16:02:31.75	46.45	12.28	
2025-01-10 16:02:31.96	46.40	12.29	
2025-01-10 16:02:32.16	46.36	12.29	
2025-01-10 16:02:32.37	46.31	12.29	
2025-01-10 16:02:32.57	46.27	12.30	
2025-01-10 16:02:32.78	46.22	12.30	
2025-01-10 16:02:32.98	46.18	12.30	
2025-01-10 16:02:33.18	46.14	12.31	
2025-01-10 16:02:33.39	46.09	12.31	
2025-01-10 16:02:33.59	46.05	12.31	
2025-01-10 16:02:33.80	46.00	12.31	
2025-01-10 16:02:34.01	45.95	12.32	
2025-01-10 16:02:34.21	45.91	12.32	
2025-01-10 16:02:34.42	45.86	12.32	
2025-01-10 16:02:34.62	45.82	12.33	
2025-01-10 16:02:34.83	45.77	12.33	
2025-01-10 16:02:35.04	45.73	12.33	
2025-01-10 16:02:35.24	45.68	12.34	
2025-01-10 16:02:35.44	45.64	12.34	
2025-01-10 16:02:35.65	45.59	12.34	
2025-01-10 16:02:35.85	45.55	12.34	
2025-01-10 16:02:36.06	45.50	12.35	
2025-01-10 16:02:36.27	45.46	12.35	
2025-01-10 16:02:36.47	45.41	12.35	
2025-01-10 16:02:36.68	45.37	12.36	
2025-01-10 16:02:36.88	45.32	12.36	
2025-01-10 16:02:37.09	45.27	12.36	
2025-01-10 16:02:37.29	45.23	12.37	
2025-01-10 16:02:37.51	45.18	12.37	
2025-01-10 16:02:37.71	45.14	12.37	
2025-01-10 16:02:37.92	45.09	12.37	
2025-01-10 16:02:38.13	45.04	12.38	
2025-01-10 16:02:38.33	45.00	12.38	
2025-01-10 16:02:38.54	44.95	12.38	
2025-01-10 16:02:38.74	44.91	12.38	
2025-01-10 16:02:38.95	44.86	12.39	
2025-01-10 16:02:39.15	44.82	12.39	
2025-01-10 16:02:39.36	44.77	12.39	
2025-01-10 16:02:39.56	44.73	12.40	
2025-01-10 16:02:39.77	44.68	12.40	
2025-01-10 16:02:39.97	44.64	12.40	
2025-01-10 16:02:40.17	44.59	12.40	
2025-01-10 16:02:40.38	44.55	12.41	
2025-01-10 16:02:40.58	44.50	12.41	
2025-01-10 16:02:40.79	44.46	12.41	
2025-01-10 16:02:40.99	44.41	12.41	
2025-01-10 16:02:41.20	44.37	12.42	
2025-01-10 16:02:41.40	44.32	12.42	
2025-01-10 16:02:41.61	44.27	12.42	
2025-01-10 16:02:41.81	44.23	12.42	
2025-01-10 16:02:42.02	44.18	12.43	
2025-01-10 16:02:42.22	44.14	12.43	
2025-01-10 16:02:42.43	44.09	12.43	
2025-01-10 16:02:42.63	44.05	12.43	
2025-01-10 16:02:42.84	44.00	12.44	
2025-01-10 16:02:43.04	43.96	12.44	
2025-01-10 16:02:43.25	43.91	12.44	
2025-01-10 16:02:43.45	43.87	12.44	
2025-01-10 16:02:43.66	43.82	12.44	
2025-01-10 16:02:43.86	43.77	12.45	
2025-01-10 16:02:44.07	43.73	12.45	
2025-01-10 16:02:44.27	43.68	12.45	
2025-01-10 16:02:44.48	43.64	12.45	
2025-01-10 16:02:44.68	43.59	12.46	
2025-01-10 16:02:44.89	43.55	12.46	
2025-01-10 16:02:45.09	43.50	12.46	
2025-01-10 16:02:45.30	43.45	12.46	
2025-01-10 16:02:45.50	43.41	12.47	
2025-01-10 16:02:45.70	43.37	12.47	
2025-01-10 16:02:45.91	43.32	12.47	
2025-01-10 16:02:46.11	43.27	12.47	
2025-01-10 16:02:46.32	43.23	12.47	
2025-01-10 16:02:46.52	43.18	12.48	
2025-01-10 16:02:46.73	43.14	12.48	
2025-01-10 16:02:46.94	43.09	12.48	
2025-01-10 16:02:47.14	43.05	12.48	
2025-01-10 16:02:47.34	43.00	12.48	
2025-01-10 16:02:47.55	42.95	12.49	
2025-01-10 16:02:47.76	42.91	12.49	
2025-01-10 16:02:47.96	42.86	12.49	
2025-01-10 16:02:48.16	42.82	12.49	
2025-01-10 16:02:48.37	42.77	12.49	
2025-01-10 16:02:48.57	42.73	12.50	
2025-01-10 16:02:48.78	42.68	12.50	
2025-01-10 16:02:48.99	42.63	12.50	
2025-01-10 16:02:49.19	42.59	12.50	
2025-01-10 16:02:49.40	42.54	12.50	
2025-01-10 16:02:49.60	42.50	12.50	
2025-01-10 16:02:49.81	42.45	12.51	
2025-01-10 16:02:50.01	42.41	12.51	
2025-01-10 16:02:50.21	42.36	12.51	
2025-01-10 16:02:50.42	42.31	12.51	
2025-01-10 16:02:50.63	42.27	12.51	
2025-01-10 16:02:50.83	42.22	12.52	
2025-01-10 16:02:51.03	42.18	12.52	
2025-01-10 16:02:51.24	42.13	12.52	
2025-01-10 16:02:51.44	42.09	12.52	
2025-01-10 16:02:51.65	42.04	12.52	
2025-01-10 16:02:51.85	41.99	12.52	
2025-01-10 16:02:52.06	41.95	12.53	
2025-01-10 16:02:52.26	41.90	12.53	
2025-01-10 16:02:52.47	41.86	12.53	
2025-01-10 16:02:52.67	41.81	12.53	
2025-01-10 16:02:52.88	41.76	12.53	
2025-01-10 16:02:53.08	41.72	12.53	
2025-01-10 16:02:53.29	41.67	12.54	
2025-01-10 16:02:53.49	41.63	12.54	
2025-01-10 16:02:53.70	41.58	12.54	
2025-01-10 16:02:53.90	41.54	12.54	
2025-01-10 16:02:54.11	41.49	12.54	
2025-01-10 16:02:54.32	41.44	12.54	
2025-01-10 16:02:54.52	41.40	12.54	
2025-01-10 16:02:54.73	41.35	12.55	
2025-01-10 16:02:54.93	41.31	12.55	
2025-01-10 16:02:55.14	41.26	12.55	
2025-01-10 16:02:55.34	41.21	12.55	
2025-01-10 16:02:55.54	41.17	12.55	
2025-01-10 16:02:55.75	41.12	12.55	
2025-01-10 16:02:55.96	41.07	12.55	
2025-01-10 16:02:56.16	41.03	12.55	
2025-01-10 16:02:56.37	40.98	12.56	
2025-01-10 16:02:56.57	40.94	12.56	
2025-01-10 16:02:56.77	40.89	12.56	
2025-01-10 16:02:56.98	40.85	12.56	
2025-01-10 16:02:57.18	40.80	12.56	
2025-01-10 16:02:57.39	40.75	12.56	
2025-01-10 16:02:57.60	40.71	12.56	
2025-01-10 16:02:57.80	40.66	12.56	
2025-01-10 16:02:58.00	40.62	12.57	
2025-01-10 16:02:58.21	40.57	12.57	
2025-01-10 16:02:58.42	40.52	12.57	
2025-01-10 16:02:58.62	40.48	12.57	
2025-01-10 16:02:58.82	40.43	12.57	
2025-01-10 16:02:59.03	40.39	12.57	
2025-01-10 16:02:59.23	40.34	12.57	
2025-01-10 16:02:59.44	40.30	12.57	
2025-01-10 16:02:59.65	40.25	12.57	
2025-01-10 16:02:59.85	40.20	12.58	
2025-01-10 16:03:00.05	40.16	12.58	
2025-01-10 16:03:00.26	40.11	12.58	
2025-01-10 16:03:00.46	40.07	12.58	
2025-01-10 16:03:00.67	40.02	12.58	
2025-01-10 16:03:00.87	39.97	12.58	
2025-01-10 16:03:01.08	39.93	12.58	
2025-01-10 16:03:01.28	39.88	12.58	
2025-01-10 16:03:01.49	39.84	12.58	
2025-01-10 16:03:01.70	39.79	12.58	
2025-01-10 16:03:01.90	39.74	12.58	
2025-01-10 16:03:02.10	39.70	12.59	
2025-01-10 16:03:02.31	39.65	12.59	
2025-01-10 16:03:02.51	39.61	12.59	
2025-01-10 16:03:02.72	39.56	12.59	
2025-01-10 16:03:02.93	39.51	12.59	
2025-01-10 16:03:03.13	39.47	12.59	
2025-01-10 16:03:03.33	39.42	12.59	
2025-01-10 16:03:03.54	39.38	12.59	
2025-01-10 16:03:03.75	39.33	12.59	
2025-01-10 16:03:03.95	39.28	12.59	
2025-01-10 16:03:04.16	39.24	12.59	
2025-01-10 16:03:04.36	39.19	12.59	
2025-01-10 16:03:04.57	39.14	12.59	
2025-01-10 16:03:04.77	39.10	12.59	
2025-01-10 16:03:04.98	39.05	12.59	
2025-01-10 16:03:05.19	39.00	12.60	
2025-01-10 16:03:05.40	38.96	12.60	
2025-01-10 16:03:05.60	38.91	12.60	
2025-01-10 16:03:05.81	38.87	12.60	
2025-01-10 16:03:06.01	38.82	12.60	
2025-01-10 16:03:06.22	38.77	12.60	
2025-01-10 16:03:06.42	38.73	12.60	
2025-01-10 16:03:06.63	38.68	12.60	
2025-01-10 16:03:06.83	38.64	12.60	
2025-01-10 16:03:07.04	38.59	12.60	
2025-01-10 16:03:07.25	38.54	12.60	
2025-01-10 16:03:07.45	38.50	12.60	
2025-01-10 16:03:07.65	38.45	12.60	
2025-01-10 16:03:07.86	38.41	12.60	
2025-01-10 16:03:08.07	38.36	12.60	
2025-01-10 16:03:08.27	38.31	12.60	
2025-01-10 16:03:08.48	38.27	12.60	
2025-01-10 16:03:08.68	38.22	12.60	
2025-01-10 16:03:08.89	38.17	12.60	
2025-01-10 16:03:09.09	38.13	12.60	
2025-01-10 16:03:09.30	38.08	12.60	
2025-01-10 16:03:09.52	38.03	12.60	
2025-01-10 16:03:09.72	37.99	12.60	
2025-01-10 16:03:09.93	37.94	12.60	
2025-01-10 16:03:10.13	37.90	12.60	
2025-01-10 16:03:10.34	37.85	12.60	
2025-01-10 16:03:10.54	37.80	12.60	
2025-01-10 16:03:10.75	37.76	12.60	
2025-01-10 16:03:10.95	37.71	12.60	
2025-01-10 16:03:11.16	37.66	12.60	
2025-01-10 16:03:11.36	37.62	12.60	
2025-01-10 16:03:11.57	37.57	12.60	
2025-01-10 16:03:11.77	37.53	12.60	
2025-01-10 16:03:11.98	37.48	12.60	
2025-01-10 16:03:12.18	37.43	12.60	
2025-01-10 16:03:12.39	37.39	12.60	
2025-01-10 16:03:12.60	37.34	12.60	
2025-01-10 16:03:12.80	37.30	12.60	
2025-01-10 16:03:13.01	37.25	12.60	
2025-01-10 16:03:13.21	37.20	12.60	
2025-01-10 16:03:13.42	37.16	12.60	
2025-01-10 16:03:13.62	37.11	12.60	
2025-01-10 16:03:13.83	37.06	12.60	
2025-01-10 16:03:14.03	37.02	12.60	
2025-01-10 16:03:14.24	36.97	12.60	
2025-01-10 16:03:14.44	36.93	12.60	
2025-01-10 16:03:14.65	36.88	12.60	
2025-01-10 16:03:14.85	36.83	12.60	
2025-01-10 16:03:15.06	36.79	12.60	
2025-01-10 16:03:15.26	36.74	12.60	
2025-01-10 16:03:15.47	36.70	12.60	
2025-01-10 16:03:15.67	36.65	12.60	
2025-01-10 16:03:15.87	36.61	12.60	
2025-01-10 16:03:16.08	36.56	12.60	
2025-01-10 16:03:16.29	36.51	12.60	
2025-01-10 16:03:16.49	36.47	12.60	
2025-01-10 16:03:16.70	36.42	12.60	
2025-01-10 16:03:16.90	36.37	12.60	
2025-01-10 16:03:17.11	36.33	12.60	
2025-01-10 16:03:17.32	36.28	12.60	
2025-01-10 16:03:17.52	36.24	12.60	
2025-01-10 16:03:17.73	36.19	12.60	
2025-01-10 16:03:17.93	36.14	12.60	
2025-01-10 16:03:18.13	36.10	12.60	
2025-01-10 16:03:18.34	36.05	12.59	
2025-01-10 16:03:18.55	36.00	12.59	
2025-01-10 16:03:18.75	35.96	12.59	
2025-01-10 16:03:18.96	35.91	12.59	
2025-01-10 16:03:19.17	35.86	12.59	
2025-01-10 16:03:19.38	35.82	12.59	
2025-01-10 16:03:19.59	35.77	12.59	
2025-01-10 16:03:19.79	35.73	12.59	
2025-01-10 16:03:20.00	35.68	12.59	
2025-01-10 16:03:20.20	35.63	12.59	
2025-01-10 16:03:20.41	35.59	12.59	
2025-01-10 16:03:20.61	35.54	12.59	
2025-01-10 16:03:20.82	35.49	12.59	
2025-01-10 16:03:21.02	35.45	12.59	
2025-01-10 16:03:21.23	35.40	12.58	
2025-01-10 16:03:21.43	35.36	12.58	
2025-01-10 16:03:21.64	35.31	12.58	
2025-01-10 16:03:21.84	35.27	12.58	
2025-01-10 16:03:22.05	35.22	12.58	
2025-01-10 16:03:22.27	35.17	12.58	
2025-01-10 16:03:22.47	35.12	12.58	
2025-01-10 16:03:22.68	35.08	12.58	
2025-01-10 16:03:22.88	35.03	12.58	
2025-01-10 16:03:23.08	34.99	12.58	
2025-01-10 16:03:23.29	34.94	12.58	
2025-01-10 16:03:23.49	34.90	12.58	
2025-01-10 16:03:23.70	34.85	12.57	
2025-01-10 16:03:23.91	34.80	12.57	
2025-01-10 16:03:24.11	34.76	12.57	
2025-01-10 16:03:24.32	34.71	12.57	
2025-01-10 16:03:24.52	34.66	12.57	
2025-01-10 16:03:24.73	34.62	12.57	
2025-01-10 16:03:24.93	34.57	12.57	
2025-01-10 16:03:25.15	34.52	12.57	
2025-01-10 16:03:25.36	34.48	12.57	
2025-01-10 16:03:25.56	34.43	12.56	
2025-01-10 16:03:25.76	34.39	12.56	
2025-01-10 16:03:25.97	34.34	12.56	
2025-01-10 16:03:26.17	34.30	12.56	
2025-01-10 16:03:26.38	34.25	12.56	
2025-01-10 16:03:26.58	34.20	12.56	
2025-01-10 16:03:26.79	34.16	12.56	
2025-01-10 16:03:26.99	34.11	12.56	
2025-01-10 16:03:27.20	34.06	12.55	
2025-01-10 16:03:27.41	34.02	12.55	
2025-01-10 16:03:27.62	33.97	12.55	
2025-01-10 16:03:27.83	33.92	12.55	
2025-01-10 16:03:28.04	33.88	12.55	
2025-01-10 16:03:28.24	33.83	12.55	
2025-01-10 16:03:28.45	33.78	12.55	
2025-01-10 16:03:28.65	33.74	12.54	
2025-01-10 16:03:28.86	33.69	12.54	
2025-01-10 16:03:29.06	33.65	12.54	
2025-01-10 16:03:29.26	33.60	12.54	
2025-01-10 16:03:29.47	33.56	12.54	
2025-01-10 16:03:29.68	33.51	12.54	
2025-01-10 16:03:29.88	33.47	12.54	
2025-01-10 16:03:30.08	33.42	12.53	
2025-01-10 16:03:30.29	33.37	12.53	
2025-01-10 16:03:30.49	33.33	12.53	
2025-01-10 16:03:30.69	33.28	12.53	
2025-01-10 16:03:30.89	33.24	12.53	
2025-01-10 16:03:31.11	33.19	12.53	
2025-01-10 16:03:31.31	33.15	12.52	
2025-01-10 16:03:31.51	33.10	12.52	
2025-01-10 16:03:31.72	33.05	12.52	
2025-01-10 16:03:31.92	33.01	12.52	
2025-01-10 16:03:32.13	32.96	12.52	
2025-01-10 16:03:32.34	32.92	12.52	
2025-01-10 16:03:32.54	32.87	12.51	
2025-01-10 16:03:32.74	32.83	12.51	
2025-01-10 16:03:32.95	32.78	12.51	
2025-01-10 16:03:33.15	32.74	12.51	
2025-01-10 16:03:33.36	32.69	12.51	
2025-01-10 16:03:33.56	32.64	12.51	
2025-01-10 16:03:33.77	32.60	12.50	
2025-01-10 16:03:33.97	32.55	12.50	
2025-01-10 16:03:34.18	32.51	12.50	
2025-01-10 16:03:34.38	32.46	12.50	
2025-01-10 16:03:34.59	32.41	12.50	
2025-01-10 16:03:34.80	32.37	12.49	
2025-01-10 16:03:35.00	32.32	12.49	
2025-01-10 16:03:35.20	32.28	12.49	
2025-01-10 16:03:35.41	32.23	12.49	
2025-01-10 16:03:35.61	32.19	12.49	
2025-01-10 16:03:35.82	32.14	12.48	
2025-01-10 16:03:36.02	32.10	12.48	
2025-01-10 16:03:36.22	32.05	12.48	
2025-01-10 16:03:36.43	32.00	12.48	
2025-01-10 16:03:36.63	31.96	12.48	
2025-01-10 16:03:36.84	31.91	12.47	
2025-01-10 16:03:37.04	31.87	12.47	
2025-01-10 16:03:37.25	31.82	12.47	
2025-01-10 16:03:37.45	31.78	12.47	
2025-01-10 16:03:37.66	31.73	12.47	
2025-01-10 16:03:37.87	31.68	12.46	
2025-01-10 16:03:38.07	31.64	12.46	
2025-01-10 16:03:38.27	31.60	12.46	
2025-01-10 16:03:38.48	31.55	12.46	
2025-01-10 16:03:38.69	31.50	12.46	
2025-01-10 16:03:38.90	31.46	12.45	
2025-01-10 16:03:39.10	31.41	12.45	
2025-01-10 16:03:39.30	31.37	12.45	
2025-01-10 16:03:39.51	31.32	12.45	
2025-01-10 16:03:39.72	31.27	12.44	
2025-01-10 16:03:39.92	31.23	12.44	
2025-01-10 16:03:40.13	31.18	12.44	
2025-01-10 16:03:40.33	31.14	12.44	
2025-01-10 16:03:40.54	31.09	12.43	
2025-01-10 16:03:40.74	31.05	12.43	
2025-01-10 16:03:40.94	31.00	12.43	
2025-01-10 16:03:41.15	30.96	12.43	
2025-01-10 16:03:41.36	30.91	12.42	
2025-01-10 16:03:41.56	30.87	12.42	
2025-01-10 16:03:41.77	30.82	12.42	
2025-01-10 16:03:41.97	30.77	12.42	
2025-01-10 16:03:42.18	30.73	12.41	
2025-01-10 16:03:42.38	30.68	12.41	
2025-01-10 16:03:42.59	30.64	12.41	
2025-01-10 16:03:42.79	30.59	12.41	
2025-01-10 16:03:43.00	30.55	12.40	
2025-01-10 16:03:43.20	30.50	12.40	
2025-01-10 16:03:43.41	30.46	12.40	
2025-01-10 16:03:43.61	30.41	12.40	
2025-01-10 16:03:43.82	30.36	12.39	
2025-01-10 16:03:44.02	30.32	12.39	
2025-01-10 16:03:44.23	30.27	12.39	
2025-01-10 16:03:44.43	30.23	12.39	
2025-01-10 16:03:44.63	30.19	12.38	
2025-01-10 16:03:44.84	30.14	12.38	
2025-01-10 16:03:45.05	30.09	12.38	
2025-01-10 16:03:45.25	30.05	12.37	
2025-01-10 16:03:45.46	30.00	12.37	
2025-01-10 16:03:45.66	29.96	12.37	
2025-01-10 16:03:45.88	29.91	12.37	
2025-01-10 16:03:46.08	29.87	12.36	
2025-01-10 16:03:46.29	29.82	12.36	
2025-01-10 16:03:46.50	29.77	12.36	
2025-01-10 16:03:46.70	29.73	12.36	
2025-01-10 16:03:46.91	29.68	12.35	
2025-01-10 16:03:47.11	29.64	12.35	
2025-01-10 16:03:47.32	29.59	12.35	
2025-01-10 16:03:47.52	29.55	12.34	
2025-01-10 16:03:47.73	29.50	12.34	
2025-01-10 16:03:47.93	29.46	12.34	
2025-01-10 16:03:48.14	29.41	12.33	
2025-01-10 16:03:48.34	29.37	12.33	
2025-01-10 16:03:48.55	29.32	12.33	
2025-01-10 16:03:48.75	29.28	12.33	
2025-01-10 16:03:48.95	29.23	12.32	
2025-01-10 16:03:49.16	29.19	12.32	
2025-01-10 16:03:49.37	29.14	12.32	
2025-01-10 16:03:49.57	29.10	12.31	
2025-01-10 16:03:49.78	29.05	12.31	
2025-01-10 16:03:49.98	29.01	12.31	
2025-01-10 16:03:50.18	28.96	12.30	
2025-01-10 16:03:50.39	28.92	12.30	
2025-01-10 16:03:50.60	28.87	12.30	
2025-01-10 16:03:50.80	28.83	12.29	
2025-01-10 16:03:51.00	28.78	12.29	
2025-01-10 16:03:51.21	28.74	12.29	
2025-01-10 16:03:51.42	28.69	12.28	
2025-01-10 16:03:51.62	28.65	12.28	
2025-01-10 16:03:51.83	28.60	12.28	
2025-01-10 16:03:52.03	28.56	12.27	
2025-01-10 16:03:52.24	28.51	12.27	
2025-01-10 16:03:52.44	28.47	12.27	
2025-01-10 16:03:52.65	28.42	12.26	
2025-01-10 16:03:52.85	28.38	12.26	
2025-01-10 16:03:53.06	28.33	12.26	
2025-01-10 16:03:53.26	28.29	12.25	
2025-01-10 16:03:53.47	28.24	12.25	
2025-01-10 16:03:53.67	28.20	12.25	
2025-01-10 16:03:53.88	28.15	12.24	
2025-01-10 16:03:54.08	28.11	12.24	
2025-01-10 16:03:54.29	28.06	12.24	
2025-01-10 16:03:54.49	28.02	12.23	
2025-01-10 16:03:54.70	27.97	12.23	
2025-01-10 16:03:54.90	27.93	12.23	
2025-01-10 16:03:55.11	27.88	12.22	
2025-01-10 16:03:55.31	27.84	12.22	
2025-01-10 16:03:55.52	27.79	12.22	
2025-01-10 16:03:55.73	27.75	12.21	
2025-01-10 16:03:55.93	27.70	12.21	
2025-01-10 16:03:56.14	27.66	12.21	
2025-01-10 16:03:56.34	27.62	12.20	
2025-01-10 16:03:56.56	27.57	12.20	
2025-01-10 16:03:56.77	27.52	12.19	
2025-01-10 16:03:56.97	27.48	12.19	
2025-01-10 16:03:57.18	27.43	12.19	
2025-01-10 16:03:57.38	27.39	12.18	
2025-01-10 16:03:57.59	27.34	12.18	
2025-01-10 16:03:57.79	27.30	12.18	
2025-01-10 16:03:58.00	27.25	12.17	
2025-01-10 16:03:58.20	27.21	12.17	
2025-01-10 16:03:58.41	27.16	12.16	
2025-01-10 16:03:58.61	27.12	12.16	
2025-01-10 16:03:58.82	27.08	12.16	
2025-01-10 16:03:59.02	27.03	12.15	
2025-01-10 16:03:59.23	26.99	12.15	
2025-01-10 16:03:59.43	26.94	12.15	
2025-01-10 16:03:59.63	26.90	12.14	
2025-01-10 16:03:59.84	26.85	12.14	
2025-01-10 16:04:00.04	26.81	12.13	
2025-01-10 16:04:00.25	26.77	12.13	
2025-01-10 16:04:00.45	26.72	12.13	
2025-01-10 16:04:00.66	26.68	12.12	
2025-01-10 16:04:00.86	26.63	12.12	
2025-01-10 16:04:01.07	26.59	12.11	
2025-01-10 16:04:01.27	26.54	12.11	
2025-01-10 16:04:01.48	26.50	12.11	
2025-01-10 16:04:01.68	26.46	12.10	
2025-01-10 16:04:01.89	26.41	12.10	
2025-01-10 16:04:02.09	26.37	12.09	
2025-01-10 16:04:02.30	26.32	12.09	
2025-01-10 16:04:02.50	26.28	12.09	
2025-01-10 16:04:02.71	26.23	12.08	
2025-01-10 16:04:02.91	26.19	12.08	
2025-01-10 16:04:03.12	26.14	12.07	
2025-01-10 16:04:03.32	26.10	12.07	
2025-01-10 16:04:03.53	26.06	12.07	
2025-01-10 16:04:03.73	26.01	12.06	
2025-01-10 16:04:03.94	25.97	12.06	
2025-01-10 16:04:04.14	25.92	12.05	
2025-01-10 16:04:04.35	25.88	12.05	
2025-01-10 16:04:04.55	25.84	12.04	
2025-01-10 16:04:04.76	25.79	12.04	
2025-01-10 16:04:04.96	25.75	12.04	
2025-01-10 16:04:05.17	25.70	12.03	
2025-01-10 16:04:05.37	25.66	12.03	
2025-01-10 16:04:05.58	25.61	12.02	
2025-01-10 16:04:05.79	25.57	12.02	
2025-01-10 16:04:05.99	25.53	12.01	
2025-01-10 16:04:06.19	25.48	12.01	
2025-01-10 16:04:06.40	25.44	12.01	
2025-01-10 16:04:06.61	25.39	12.00	
2025-01-10 16:04:06.81	25.35	12.00	
2025-01-10 16:04:07.02	25.30	11.99	
2025-01-10 16:04:07.22	25.26	11.99	
2025-01-10 16:04:07.42	25.22	11.98	
2025-01-10 16:04:07.63	25.17	11.98	
2025-01-10 16:04:07.84	25.13	11.97	
2025-01-10 16:04:08.04	25.09	11.97	
2025-01-10 16:04:08.24	25.04	11.97	
2025-01-10 16:04:08.45	25.00	11.96	
2025-01-10 16:04:08.65	24.96	11.96	
2025-01-10 16:04:08.86	24.91	11.95	
2025-01-10 16:04:09.07	24.87	11.95	
2025-01-10 16:04:09.27	24.82	11.94	
2025-01-10 16:04:09.48	24.78	11.94	
2025-01-10 16:04:09.68	24.74	11.93	
2025-01-10 16:04:09.89	24.69	11.93	
2025-01-10 16:04:10.09	24.65	11.93	
2025-01-10 16:04:10.29	24.60	11.92	
2025-01-10 16:04:10.50	24.56	11.92	
2025-01-10 16:04:10.71	24.52	11.91	
2025-01-10 16:04:10.91	24.47	11.91	
2025-01-10 16:04:11.12	24.43	11.90	
2025-01-10 16:04:11.32	24.39	11.90	
2025-01-10 16:04:11.52	24.34	11.89	
2025-01-10 16:04:11.73	24.30	11.89	
2025-01-10 16:04:11.94	24.25	11.88	
2025-01-10 16:04:12.14	24.21	11.88	
2025-01-10 16:04:12.35	24.17	11.87	
2025-01-10 16:04:12.55	24.12	11.87	
2025-01-10 16:04:12.76	24.08	11.86	
2025-01-10 16:04:12.96	24.04	11.86	
2025-01-10 16:04:13.16	23.99	11.85	
2025-01-10 16:04:13.37	23.95	11.85	
2025-01-10 16:04:13.57	23.91	11.84	
2025-01-10 16:04:13.78	23.86	11.84	
2025-01-10 16:04:13.98	23.82	11.83	
2025-01-10 16:04:14.19	23.78	11.83	
2025-01-10 16:04:14.39	23.73	11.82	
2025-01-10 16:04:14.60	23.69	11.82	
2025-01-10 16:04:14.80	23.65	11.81	
2025-01-10 16:04:15.01	23.60	11.81	
2025-01-10 16:04:15.21	23.56	11.81	
2025-01-10 16:04:15.42	23.51	11.80	
2025-01-10 16:04:15.62	23.47	11.80	
2025-01-10 16:04:15.83	23.43	11.79	
2025-01-10 16:04:16.03	23.39	11.79	
2025-01-10 16:04:16.24	23.34	11.78	
2025-01-10 16:04:16.44	23.30	11.77	
2025-01-10 16:04:16.65	23.25	11.77	
2025-01-10 16:04:16.85	23.21	11.76	
2025-01-10 16:04:17.06	23.17	11.76	
2025-01-10 16:04:17.26	23.13	11.75	
2025-01-10 16:04:17.47	23.08	11.75	
2025-01-10 16:04:17.67	23.04	11.74	
2025-01-10 16:04:17.89	22.99	11.74	
2025-01-10 16:04:18.10	22.95	11.73	
2025-01-10 16:04:18.30	22.91	11.73	
2025-01-10 16:04:18.51	22.86	11.72	
2025-01-10 16:04:18.71	22.82	11.72	
2025-01-10 16:04:18.92	22.78	11.71	
2025-01-10 16:04:19.12	22.73	11.71	
2025-01-10 16:04:19.33	22.69	11.70	
2025-01-10 16:04:19.53	22.65	11.70	
2025-01-10 16:04:19.74	22.60	11.69	
2025-01-10 16:04:19.94	22.56	11.69	
2025-01-10 16:04:20.15	22.52	11.68	
2025-01-10 16:04:20.35	22.48	11.68	
2025-01-10 16:04:20.56	22.43	11.67	
2025-01-10 16:04:20.76	22.39	11.67	
2025-01-10 16:04:20.97	22.35	11.66	
2025-01-10 16:04:21.17	22.31	11.65	
2025-01-10 16:04:21.38	22.26	11.65	
2025-01-10 16:04:21.58	22.22	11.64	
2025-01-10 16:04:21.79	22.18	11.64	
2025-01-10 16:04:22.00	22.13	11.63	
2025-01-10 16:04:22.20	22.09	11.63	
2025-01-10 16:04:22.41	22.05	11.62	
2025-01-10 16:04:22.61	22.00	11.62	
2025-01-10 16:04:22.82	21.96	11.61	
2025-01-10 16:04:23.02	21.92	11.61	
2025-01-10 16:04:23.23	21.87	11.60	
2025-01-10 16:04:23.43	21.83	11.59	
2025-01-10 16:04:23.64	21.79	11.59	
2025-01-10 16:04:23.84	21.75	11.58	
2025-01-10 16:04:24.04	21.71	11.58	
2025-01-10 16:04:24.25	21.66	11.57	
2025-01-10 16:04:24.45	21.62	11.57	
2025-01-10 16:04:24.66	21.58	11.56	
2025-01-10 16:04:24.86	21.54	11.56	
2025-01-10 16:04:25.07	21.49	11.55	
2025-01-10 16:04:25.27	21.45	11.54	
2025-01-10 16:04:25.48	21.41	11.54	
2025-01-10 16:04:25.68	21.37	11.53	
2025-01-10 16:04:25.89	21.32	11.53	
2025-01-10 16:04:26.09	21.28	11.52	
2025-01-10 16:04:26.30	21.24	11.52	
2025-01-10 16:04:26.50	21.20	11.51	
2025-01-10 16:04:26.71	21.15	11.50	
2025-01-10 16:04:26.91	21.11	11.50	
2025-01-10 16:04:27.12	21.07	11.49	
2025-01-10 16:04:27.32	21.03	11.49	
2025-01-10 16:04:27.53	20.98	11.48	
2025-01-10 16:04:27.74	20.94	11.48	
2025-01-10 16:04:27.94	20.90	11.47	
2025-01-10 16:04:28.15	20.85	11.46	
2025-01-10 16:04:28.35	20.81	11.46	
2025-01-10 16:04:28.56	20.77	11.45	
2025-01-10 16:04:28.76	20.73	11.45	
2025-01-10 16:04:28.97	20.69	11.44	
2025-01-10 16:04:29.17	20.64	11.43	
2025-01-10 16:04:29.38	20.60	11.43	
2025-01-10 16:04:29.58	20.56	11.42	
2025-01-10 16:04:29.78	20.52	11.42	
2025-01-10 16:04:29.99	20.48	11.41	
2025-01-10 16:04:30.19	20.43	11.40	
2025-01-10 16:04:30.40	20.39	11.40	
2025-01-10 16:04:30.60	20.35	11.39	
2025-01-10 16:04:30.81	20.31	11.39	
2025-01-10 16:04:31.01	20.27	11.38	
2025-01-10 16:04:31.22	20.22	11.37	
2025-01-10 16:04:31.42	20.18	11.37	
2025-01-10 16:04:31.63	20.14	11.36	
2025-01-10 16:04:31.83	20.10	11.36	
2025-01-10 16:04:32.04	20.06	11.35	
2025-01-10 16:04:32.24	20.01	11.34	
2025-01-10 16:04:32.45	19.97	11.34	
2025-01-10 16:04:32.66	19.93	11.33	
2025-01-10 16:04:32.88	19.88	11.33	
2025-01-10 16:04:33.08	19.84	11.32	
2025-01-10 16:04:33.29	19.80	11.31	
2025-01-10 16:04:33.49	19.76	11.31	
2025-01-10 16:04:33.70	19.72	11.30	
2025-01-10 16:04:33.92	19.67	11.29	
2025-01-10 16:04:34.12	19.63	11.29	
2025-01-10 16:04:34.33	19.59	11.28	
2025-01-10 16:04:34.53	19.55	11.28	
2025-01-10 16:04:34.74	19.51	11.27	
2025-01-10 16:04:34.94	19.46	11.26	
2025-01-10 16:04:35.15	19.42	11.26	
2025-01-10 16:04:35.35	19.38	11.25	
2025-01-10 16:04:35.56	19.34	11.24	
2025-01-10 16:04:35.77	19.30	11.24	
2025-01-10 16:04:35.97	19.26	11.23	
2025-01-10 16:04:36.17	19.21	11.23	
2025-01-10 16:04:36.38	19.17	11.22	
2025-01-10 16:04:36.59	19.13	11.21	
2025-01-10 16:04:36.79	19.09	11.21	
2025-01-10 16:04:36.99	19.05	11.20	
2025-01-10 16:04:37.20	19.01	11.19	
2025-01-10 16:04:37.40	18.97	11.19	
2025-01-10 16:04:37.61	18.92	11.18	
2025-01-10 16:04:37.82	18.88	11.17	
2025-01-10 16:04:38.02	18.84	11.17	
2025-01-10 16:04:38.23	18.80	11.16	
2025-01-10 16:04:38.43	18.76	11.16	
2025-01-10 16:04:38.64	18.72	11.15	
2025-01-10 16:04:38.84	18.68	11.14	
2025-01-10 16:04:39.05	18.63	11.14	
2025-01-10 16:04:39.26	18.59	11.13	
2025-01-10 16:04:39.47	18.55	11.12	
2025-01-10 16:04:39.67	18.51	11.12	
2025-01-10 16:04:39.88	18.47	11.11	
2025-01-10 16:04:40.08	18.43	11.10	
2025-01-10 16:04:40.29	18.38	11.10	
2025-01-10 16:04:40.49	18.34	11.09	
2025-01-10 16:04:40.70	18.30	11.08	
2025-01-10 16:04:40.92	18.26	11.08	
2025-01-10 16:04:41.12	18.22	11.07	
2025-01-10 16:04:41.34	18.17	11.06	
2025-01-10 16:04:41.55	18.13	11.06	
2025-01-10 16:04:41.75	18.09	11.05	
2025-01-10 16:04:41.96	18.05	11.04	
2025-01-10 16:04:42.16	18.01	11.04	
2025-01-10 16:04:42.37	17.97	11.03	
2025-01-10 16:04:42.57	17.93	11.02	
2025-01-10 16:04:42.78	17.89	11.02	
2025-01-10 16:04:42.98	17.85	11.01	
2025-01-10 16:04:43.19	17.80	11.00	
2025-01-10 16:04:43.39	17.76	11.00	
2025-01-10 16:04:43.60	17.72	10.99	
2025-01-10 16:04:43.80	17.68	10.98	
2025-01-10 16:04:44.02	17.64	10.98	
2025-01-10 16:04:44.23	17.60	10.97	
2025-01-10 16:04:44.43	17.56	10.96	
2025-01-10 16:04:44.64	17.52	10.95	
2025-01-10 16:04:44.84	17.48	10.95	
2025-01-10 16:04:45.05	17.43	10.94	
2025-01-10 16:04:45.25	17.39	10.93	
2025-01-10 16:04:45.46	17.35	10.93	
2025-01-10 16:04:45.67	17.31	10.92	
2025-01-10 16:04:45.88	17.27	10.91	
2025-01-10 16:04:46.08	17.23	10.91	
2025-01-10 16:04:46.29	17.19	10.90	
2025-01-10 16:04:46.50	17.15	10.89	
2025-01-10 16:04:46.70	17.11	10.89	
2025-01-10 16:04:46.90	17.07	10.88	
2025-01-10 16:04:47.11	17.03	10.87	
2025-01-10 16:04:47.31	16.99	10.87	
2025-01-10 16:04:47.52	16.95	10.86	
2025-01-10 16:04:47.72	16.91	10.85	
2025-01-10 16:04:47.93	16.86	10.84	
2025-01-10 16:04:48.13	16.83	10.84	
