passes_logs/2025/01/10/SPB_Silybum_02/SPB_Silybum_02__20250110_173400_TERRA_rec.log

#Pass ID: 20250110_173400_TERRA
#Satellite: TERRA
#Configuration: TERRA
#Start time: 2025-01-10 17:34:00

#Version: 2.0.20230423
#Station: SPB_Silybum_02
#Location: 30.233357 lon 59.946436 lat
#TLE: 1 25994U 99068A   25009.84464495  .00000861  00000+0  18726-3 0  9992
#TLE: 2 25994  98.0226  73.0387 0003560  82.8900 338.1382 14.60385144333325

#Time	Az	El	Level	Level2	SNR	BER	Gain	Gain2
2025-01-10 17:34:02.80	131.68	4.15	
2025-01-10 17:34:03.01	131.67	4.17	
2025-01-10 17:34:03.21	131.66	4.18	
2025-01-10 17:34:03.42	131.65	4.20	
2025-01-10 17:34:03.62	131.64	4.21	
2025-01-10 17:34:03.83	131.63	4.23	
2025-01-10 17:34:04.04	131.62	4.24	
2025-01-10 17:34:04.24	131.61	4.25	
2025-01-10 17:34:04.44	131.60	4.27	
2025-01-10 17:34:04.65	131.59	4.28	
2025-01-10 17:34:04.86	131.58	4.30	
2025-01-10 17:34:05.06	131.57	4.31	
2025-01-10 17:34:05.27	131.56	4.33	
2025-01-10 17:34:05.47	131.55	4.34	
2025-01-10 17:34:05.68	131.54	4.35	
2025-01-10 17:34:05.88	131.53	4.37	
2025-01-10 17:34:06.09	131.52	4.38	
2025-01-10 17:34:06.29	131.51	4.40	
2025-01-10 17:34:06.50	131.50	4.41	
2025-01-10 17:34:06.70	131.49	4.43	
2025-01-10 17:34:06.91	131.48	4.44	
2025-01-10 17:34:07.11	131.47	4.45	
2025-01-10 17:34:07.32	131.46	4.47	
2025-01-10 17:34:07.52	131.45	4.48	
2025-01-10 17:34:07.73	131.44	4.50	
2025-01-10 17:34:07.94	131.43	4.51	
2025-01-10 17:34:08.14	131.42	4.53	
2025-01-10 17:34:08.35	131.41	4.54	
2025-01-10 17:34:08.55	131.40	4.56	
2025-01-10 17:34:08.76	131.39	4.57	
2025-01-10 17:34:08.96	131.38	4.58	
2025-01-10 17:34:09.17	131.37	4.60	
2025-01-10 17:34:09.37	131.36	4.61	
2025-01-10 17:34:09.59	131.35	4.63	
2025-01-10 17:34:09.80	131.34	4.64	
2025-01-10 17:34:10.00	131.33	4.66	
2025-01-10 17:34:10.21	131.32	4.67	
2025-01-10 17:34:10.42	131.30	4.69	
2025-01-10 17:34:10.63	131.29	4.70	
2025-01-10 17:34:10.83	131.28	4.72	
2025-01-10 17:34:11.04	131.27	4.73	
2025-01-10 17:34:11.24	131.26	4.75	
2025-01-10 17:34:11.45	131.25	4.76	
2025-01-10 17:34:11.65	131.24	4.77	
2025-01-10 17:34:11.85	131.23	4.79	
2025-01-10 17:34:12.06	131.22	4.80	
2025-01-10 17:34:12.27	131.21	4.82	
2025-01-10 17:34:12.47	131.20	4.83	
2025-01-10 17:34:12.68	131.19	4.85	
2025-01-10 17:34:12.88	131.18	4.86	
2025-01-10 17:34:13.09	131.17	4.88	
2025-01-10 17:34:13.29	131.16	4.89	
2025-01-10 17:34:13.50	131.15	4.91	
2025-01-10 17:34:13.70	131.14	4.92	
2025-01-10 17:34:13.91	131.13	4.94	
2025-01-10 17:34:14.11	131.12	4.95	
2025-01-10 17:34:14.32	131.11	4.97	
2025-01-10 17:34:14.52	131.10	4.98	
2025-01-10 17:34:14.73	131.08	4.99	
2025-01-10 17:34:14.93	131.07	5.01	
2025-01-10 17:34:15.14	131.06	5.02	
2025-01-10 17:34:15.35	131.05	5.04	
2025-01-10 17:34:15.55	131.04	5.05	
2025-01-10 17:34:15.75	131.03	5.07	
2025-01-10 17:34:15.97	131.02	5.08	
2025-01-10 17:34:16.18	131.01	5.10	
2025-01-10 17:34:16.38	131.00	5.11	
2025-01-10 17:34:16.59	130.99	5.13	
2025-01-10 17:34:16.80	130.98	5.14	
2025-01-10 17:34:17.00	130.97	5.16	
2025-01-10 17:34:17.21	130.96	5.17	
2025-01-10 17:34:17.41	130.95	5.19	
2025-01-10 17:34:17.62	130.93	5.20	
2025-01-10 17:34:17.83	130.92	5.22	
2025-01-10 17:34:18.03	130.91	5.23	
2025-01-10 17:34:18.23	130.90	5.25	
2025-01-10 17:34:18.44	130.89	5.26	
2025-01-10 17:34:18.65	130.88	5.28	
2025-01-10 17:34:18.85	130.87	5.29	
2025-01-10 17:34:19.06	130.86	5.31	
2025-01-10 17:34:19.26	130.85	5.32	
2025-01-10 17:34:19.47	130.84	5.34	
2025-01-10 17:34:19.68	130.83	5.35	
2025-01-10 17:34:19.88	130.82	5.37	
2025-01-10 17:34:20.09	130.80	5.38	
2025-01-10 17:34:20.29	130.79	5.40	
2025-01-10 17:34:20.50	130.78	5.41	
2025-01-10 17:34:20.70	130.77	5.43	
2025-01-10 17:34:20.90	130.76	5.44	
2025-01-10 17:34:21.11	130.75	5.46	
2025-01-10 17:34:21.31	130.74	5.47	
2025-01-10 17:34:21.52	130.73	5.49	
2025-01-10 17:34:21.72	130.72	5.50	
2025-01-10 17:34:21.93	130.71	5.52	
2025-01-10 17:34:22.14	130.69	5.53	
2025-01-10 17:34:22.34	130.68	5.55	
2025-01-10 17:34:22.54	130.67	5.56	
2025-01-10 17:34:22.75	130.66	5.58	
2025-01-10 17:34:22.95	130.65	5.59	
2025-01-10 17:34:23.16	130.64	5.61	
2025-01-10 17:34:23.36	130.63	5.62	
2025-01-10 17:34:23.56	130.62	5.63	
2025-01-10 17:34:23.77	130.61	5.65	
2025-01-10 17:34:23.98	130.60	5.67	
2025-01-10 17:34:24.18	130.58	5.68	
2025-01-10 17:34:24.39	130.57	5.70	
2025-01-10 17:34:24.59	130.56	5.71	
2025-01-10 17:34:24.80	130.55	5.73	
2025-01-10 17:34:25.01	130.54	5.74	
2025-01-10 17:34:25.21	130.53	5.76	
2025-01-10 17:34:25.42	130.52	5.77	
2025-01-10 17:34:25.62	130.51	5.79	
2025-01-10 17:34:25.83	130.49	5.80	
2025-01-10 17:34:26.03	130.48	5.82	
2025-01-10 17:34:26.24	130.47	5.83	
2025-01-10 17:34:26.45	130.46	5.85	
2025-01-10 17:34:26.65	130.45	5.86	
2025-01-10 17:34:26.86	130.44	5.88	
2025-01-10 17:34:27.06	130.43	5.89	
2025-01-10 17:34:27.27	130.41	5.91	
2025-01-10 17:34:27.47	130.40	5.92	
2025-01-10 17:34:27.68	130.39	5.94	
2025-01-10 17:34:27.88	130.38	5.95	
2025-01-10 17:34:28.09	130.37	5.97	
2025-01-10 17:34:28.29	130.36	5.98	
2025-01-10 17:34:28.50	130.35	6.00	
2025-01-10 17:34:28.70	130.33	6.01	
2025-01-10 17:34:28.91	130.32	6.03	
2025-01-10 17:34:29.11	130.31	6.04	
2025-01-10 17:34:29.32	130.30	6.06	
2025-01-10 17:34:29.53	130.29	6.08	
2025-01-10 17:34:29.73	130.28	6.09	
2025-01-10 17:34:29.93	130.27	6.11	
2025-01-10 17:34:30.14	130.25	6.12	
2025-01-10 17:34:30.34	130.24	6.14	
2025-01-10 17:34:30.55	130.23	6.15	
2025-01-10 17:34:30.75	130.22	6.17	
2025-01-10 17:34:30.95	130.21	6.18	
2025-01-10 17:34:31.16	130.20	6.20	
2025-01-10 17:34:31.36	130.19	6.21	
2025-01-10 17:34:31.57	130.17	6.23	
2025-01-10 17:34:31.77	130.16	6.24	
2025-01-10 17:34:31.98	130.15	6.26	
2025-01-10 17:34:32.18	130.14	6.27	
2025-01-10 17:34:32.39	130.13	6.29	
2025-01-10 17:34:32.59	130.12	6.31	
2025-01-10 17:34:32.80	130.10	6.32	
2025-01-10 17:34:33.00	130.09	6.34	
2025-01-10 17:34:33.21	130.08	6.35	
2025-01-10 17:34:33.42	130.07	6.37	
2025-01-10 17:34:33.62	130.06	6.38	
2025-01-10 17:34:33.83	130.04	6.40	
2025-01-10 17:34:34.03	130.03	6.41	
2025-01-10 17:34:34.24	130.02	6.43	
2025-01-10 17:34:34.44	130.01	6.44	
2025-01-10 17:34:34.65	130.00	6.46	
2025-01-10 17:34:34.85	129.99	6.48	
2025-01-10 17:34:35.06	129.97	6.49	
2025-01-10 17:34:35.26	129.96	6.51	
2025-01-10 17:34:35.47	129.95	6.52	
2025-01-10 17:34:35.67	129.94	6.54	
2025-01-10 17:34:35.88	129.93	6.55	
2025-01-10 17:34:36.09	129.91	6.57	
2025-01-10 17:34:36.29	129.90	6.59	
2025-01-10 17:34:36.49	129.89	6.60	
2025-01-10 17:34:36.70	129.88	6.62	
2025-01-10 17:34:36.91	129.87	6.63	
2025-01-10 17:34:37.11	129.85	6.65	
2025-01-10 17:34:37.33	129.84	6.66	
2025-01-10 17:34:37.53	129.83	6.68	
2025-01-10 17:34:37.74	129.82	6.70	
2025-01-10 17:34:37.95	129.80	6.71	
2025-01-10 17:34:38.15	129.79	6.73	
2025-01-10 17:34:38.36	129.78	6.74	
2025-01-10 17:34:38.56	129.77	6.76	
2025-01-10 17:34:38.77	129.76	6.77	
2025-01-10 17:34:38.97	129.74	6.79	
2025-01-10 17:34:39.18	129.73	6.81	
2025-01-10 17:34:39.38	129.72	6.82	
2025-01-10 17:34:39.58	129.71	6.84	
2025-01-10 17:34:39.79	129.69	6.85	
2025-01-10 17:34:40.00	129.68	6.87	
2025-01-10 17:34:40.20	129.67	6.88	
2025-01-10 17:34:40.41	129.66	6.90	
2025-01-10 17:34:40.61	129.65	6.92	
2025-01-10 17:34:40.81	129.63	6.93	
2025-01-10 17:34:41.02	129.62	6.95	
2025-01-10 17:34:41.22	129.61	6.96	
2025-01-10 17:34:41.43	129.60	6.98	
2025-01-10 17:34:41.63	129.58	6.99	
2025-01-10 17:34:41.84	129.57	7.01	
2025-01-10 17:34:42.04	129.56	7.03	
2025-01-10 17:34:42.24	129.55	7.04	
2025-01-10 17:34:42.45	129.53	7.06	
2025-01-10 17:34:42.67	129.52	7.08	
2025-01-10 17:34:42.87	129.51	7.09	
2025-01-10 17:34:43.08	129.50	7.11	
2025-01-10 17:34:43.29	129.48	7.12	
2025-01-10 17:34:43.49	129.47	7.14	
2025-01-10 17:34:43.70	129.46	7.16	
2025-01-10 17:34:43.90	129.45	7.17	
2025-01-10 17:34:44.10	129.43	7.19	
2025-01-10 17:34:44.31	129.42	7.20	
2025-01-10 17:34:44.51	129.41	7.22	
2025-01-10 17:34:44.72	129.40	7.23	
2025-01-10 17:34:44.92	129.38	7.25	
2025-01-10 17:34:45.13	129.37	7.27	
2025-01-10 17:34:45.33	129.36	7.28	
2025-01-10 17:34:45.54	129.35	7.30	
2025-01-10 17:34:45.75	129.33	7.32	
2025-01-10 17:34:45.95	129.32	7.33	
2025-01-10 17:34:46.15	129.31	7.35	
2025-01-10 17:34:46.36	129.30	7.36	
2025-01-10 17:34:46.56	129.28	7.38	
2025-01-10 17:34:46.77	129.27	7.39	
2025-01-10 17:34:46.97	129.26	7.41	
2025-01-10 17:34:47.18	129.24	7.43	
2025-01-10 17:34:47.39	129.23	7.44	
2025-01-10 17:34:47.59	129.22	7.46	
2025-01-10 17:34:47.80	129.21	7.48	
2025-01-10 17:34:48.00	129.19	7.49	
2025-01-10 17:34:48.20	129.18	7.51	
2025-01-10 17:34:48.41	129.17	7.52	
2025-01-10 17:34:48.62	129.15	7.54	
2025-01-10 17:34:48.82	129.14	7.56	
2025-01-10 17:34:49.03	129.13	7.57	
2025-01-10 17:34:49.23	129.12	7.59	
2025-01-10 17:34:49.44	129.10	7.61	
2025-01-10 17:34:49.64	129.09	7.62	
2025-01-10 17:34:49.85	129.08	7.64	
2025-01-10 17:34:50.05	129.06	7.65	
2025-01-10 17:34:50.26	129.05	7.67	
2025-01-10 17:34:50.46	129.04	7.69	
2025-01-10 17:34:50.67	129.02	7.70	
2025-01-10 17:34:50.87	129.01	7.72	
2025-01-10 17:34:51.08	129.00	7.74	
2025-01-10 17:34:51.28	128.99	7.75	
2025-01-10 17:34:51.49	128.97	7.77	
2025-01-10 17:34:51.69	128.96	7.78	
2025-01-10 17:34:51.90	128.95	7.80	
2025-01-10 17:34:52.10	128.93	7.82	
2025-01-10 17:34:52.32	128.92	7.83	
2025-01-10 17:34:52.53	128.90	7.85	
2025-01-10 17:34:52.73	128.89	7.87	
2025-01-10 17:34:52.94	128.88	7.88	
2025-01-10 17:34:53.14	128.87	7.90	
2025-01-10 17:34:53.34	128.85	7.92	
2025-01-10 17:34:53.55	128.84	7.93	
2025-01-10 17:34:53.75	128.83	7.95	
2025-01-10 17:34:53.96	128.81	7.97	
2025-01-10 17:34:54.17	128.80	7.98	
2025-01-10 17:34:54.37	128.79	8.00	
2025-01-10 17:34:54.58	128.77	8.02	
2025-01-10 17:34:54.78	128.76	8.03	
2025-01-10 17:34:54.99	128.75	8.05	
2025-01-10 17:34:55.19	128.73	8.06	
2025-01-10 17:34:55.39	128.72	8.08	
2025-01-10 17:34:55.60	128.71	8.10	
2025-01-10 17:34:55.80	128.69	8.11	
2025-01-10 17:34:56.01	128.68	8.13	
2025-01-10 17:34:56.22	128.66	8.15	
2025-01-10 17:34:56.42	128.65	8.16	
2025-01-10 17:34:56.63	128.64	8.18	
2025-01-10 17:34:56.83	128.62	8.20	
2025-01-10 17:34:57.04	128.61	8.21	
2025-01-10 17:34:57.24	128.60	8.23	
2025-01-10 17:34:57.45	128.58	8.25	
2025-01-10 17:34:57.66	128.57	8.26	
2025-01-10 17:34:57.86	128.56	8.28	
2025-01-10 17:34:58.07	128.54	8.30	
2025-01-10 17:34:58.28	128.53	8.31	
2025-01-10 17:34:58.48	128.51	8.33	
2025-01-10 17:34:58.68	128.50	8.35	
2025-01-10 17:34:58.89	128.49	8.36	
2025-01-10 17:34:59.10	128.47	8.38	
2025-01-10 17:34:59.30	128.46	8.40	
2025-01-10 17:34:59.51	128.45	8.41	
2025-01-10 17:34:59.71	128.43	8.43	
2025-01-10 17:34:59.92	128.42	8.45	
2025-01-10 17:35:00.12	128.40	8.46	
2025-01-10 17:35:00.32	128.39	8.48	
2025-01-10 17:35:00.53	128.38	8.50	
2025-01-10 17:35:00.74	128.36	8.52	
2025-01-10 17:35:00.94	128.35	8.53	
2025-01-10 17:35:01.15	128.33	8.55	
2025-01-10 17:35:01.35	128.32	8.57	
2025-01-10 17:35:01.56	128.31	8.58	
2025-01-10 17:35:01.76	128.29	8.60	
2025-01-10 17:35:01.96	128.28	8.62	
2025-01-10 17:35:02.17	128.26	8.63	
2025-01-10 17:35:02.38	128.25	8.65	
2025-01-10 17:35:02.58	128.24	8.67	
2025-01-10 17:35:02.79	128.22	8.68	
2025-01-10 17:35:03.00	128.21	8.70	
2025-01-10 17:35:03.21	128.19	8.72	
2025-01-10 17:35:03.41	128.18	8.74	
2025-01-10 17:35:03.62	128.16	8.75	
2025-01-10 17:35:03.82	128.15	8.77	
2025-01-10 17:35:04.03	128.14	8.79	
2025-01-10 17:35:04.24	128.12	8.80	
2025-01-10 17:35:04.44	128.11	8.82	
2025-01-10 17:35:04.64	128.09	8.84	
2025-01-10 17:35:04.85	128.08	8.85	
2025-01-10 17:35:05.05	128.07	8.87	
2025-01-10 17:35:05.26	128.05	8.89	
2025-01-10 17:35:05.47	128.04	8.91	
2025-01-10 17:35:05.67	128.02	8.92	
2025-01-10 17:35:05.88	128.01	8.94	
2025-01-10 17:35:06.08	127.99	8.96	
2025-01-10 17:35:06.29	127.98	8.97	
2025-01-10 17:35:06.49	127.96	8.99	
2025-01-10 17:35:06.70	127.95	9.01	
2025-01-10 17:35:06.90	127.94	9.03	
2025-01-10 17:35:07.11	127.92	9.04	
2025-01-10 17:35:07.31	127.91	9.06	
2025-01-10 17:35:07.52	127.89	9.08	
2025-01-10 17:35:07.73	127.88	9.09	
2025-01-10 17:35:07.93	127.86	9.11	
2025-01-10 17:35:08.13	127.85	9.13	
2025-01-10 17:35:08.34	127.83	9.15	
2025-01-10 17:35:08.55	127.82	9.16	
2025-01-10 17:35:08.75	127.80	9.18	
2025-01-10 17:35:08.96	127.79	9.20	
2025-01-10 17:35:09.16	127.78	9.21	
2025-01-10 17:35:09.38	127.76	9.23	
2025-01-10 17:35:09.59	127.74	9.25	
2025-01-10 17:35:09.79	127.73	9.27	
2025-01-10 17:35:10.00	127.71	9.29	
2025-01-10 17:35:10.20	127.70	9.30	
2025-01-10 17:35:10.41	127.69	9.32	
2025-01-10 17:35:10.61	127.67	9.34	
2025-01-10 17:35:10.82	127.66	9.36	
2025-01-10 17:35:11.02	127.64	9.37	
2025-01-10 17:35:11.23	127.63	9.39	
2025-01-10 17:35:11.44	127.61	9.41	
2025-01-10 17:35:11.64	127.60	9.42	
2025-01-10 17:35:11.85	127.58	9.44	
2025-01-10 17:35:12.05	127.57	9.46	
2025-01-10 17:35:12.26	127.55	9.48	
2025-01-10 17:35:12.46	127.54	9.49	
2025-01-10 17:35:12.67	127.52	9.51	
2025-01-10 17:35:12.87	127.51	9.53	
2025-01-10 17:35:13.08	127.49	9.55	
2025-01-10 17:35:13.28	127.48	9.56	
2025-01-10 17:35:13.48	127.46	9.58	
2025-01-10 17:35:13.69	127.45	9.60	
2025-01-10 17:35:13.89	127.43	9.62	
2025-01-10 17:35:14.10	127.42	9.63	
2025-01-10 17:35:14.30	127.40	9.65	
2025-01-10 17:35:14.51	127.39	9.67	
2025-01-10 17:35:14.71	127.37	9.69	
2025-01-10 17:35:14.91	127.36	9.70	
2025-01-10 17:35:15.12	127.34	9.72	
2025-01-10 17:35:15.33	127.32	9.74	
2025-01-10 17:35:15.53	127.31	9.76	
2025-01-10 17:35:15.74	127.29	9.78	
2025-01-10 17:35:15.94	127.28	9.79	
2025-01-10 17:35:16.15	127.26	9.81	
2025-01-10 17:35:16.35	127.25	9.83	
2025-01-10 17:35:16.56	127.23	9.85	
2025-01-10 17:35:16.76	127.22	9.86	
2025-01-10 17:35:16.97	127.20	9.88	
2025-01-10 17:35:17.17	127.19	9.90	
2025-01-10 17:35:17.38	127.17	9.92	
2025-01-10 17:35:17.58	127.16	9.93	
2025-01-10 17:35:17.79	127.14	9.95	
2025-01-10 17:35:17.99	127.12	9.97	
2025-01-10 17:35:18.20	127.11	9.99	
2025-01-10 17:35:18.40	127.09	10.00	
2025-01-10 17:35:18.61	127.08	10.02	
2025-01-10 17:35:18.81	127.06	10.04	
2025-01-10 17:35:19.01	127.05	10.06	
2025-01-10 17:35:19.22	127.03	10.08	
2025-01-10 17:35:19.42	127.02	10.09	
2025-01-10 17:35:19.63	127.00	10.11	
2025-01-10 17:35:19.83	126.98	10.13	
2025-01-10 17:35:20.04	126.97	10.15	
2025-01-10 17:35:20.25	126.95	10.17	
2025-01-10 17:35:20.45	126.94	10.18	
2025-01-10 17:35:20.66	126.92	10.20	
2025-01-10 17:35:20.86	126.90	10.22	
2025-01-10 17:35:21.06	126.89	10.24	
2025-01-10 17:35:21.27	126.87	10.26	
2025-01-10 17:35:21.47	126.86	10.27	
2025-01-10 17:35:21.68	126.84	10.29	
2025-01-10 17:35:21.88	126.83	10.31	
2025-01-10 17:35:22.09	126.81	10.33	
2025-01-10 17:35:22.29	126.79	10.34	
2025-01-10 17:35:22.50	126.78	10.36	
2025-01-10 17:35:22.71	126.76	10.38	
2025-01-10 17:35:22.91	126.75	10.40	
2025-01-10 17:35:23.11	126.73	10.42	
2025-01-10 17:35:23.32	126.71	10.44	
2025-01-10 17:35:23.53	126.70	10.45	
2025-01-10 17:35:23.73	126.68	10.47	
2025-01-10 17:35:23.94	126.66	10.49	
2025-01-10 17:35:24.14	126.65	10.51	
2025-01-10 17:35:24.35	126.63	10.53	
2025-01-10 17:35:24.55	126.62	10.54	
2025-01-10 17:35:24.76	126.60	10.56	
2025-01-10 17:35:24.96	126.58	10.58	
2025-01-10 17:35:25.17	126.57	10.60	
2025-01-10 17:35:25.37	126.55	10.62	
2025-01-10 17:35:25.58	126.53	10.64	
2025-01-10 17:35:25.78	126.52	10.65	
2025-01-10 17:35:25.99	126.50	10.67	
2025-01-10 17:35:26.19	126.49	10.69	
2025-01-10 17:35:26.41	126.47	10.71	
2025-01-10 17:35:26.62	126.45	10.73	
2025-01-10 17:35:26.82	126.43	10.75	
2025-01-10 17:35:27.03	126.42	10.77	
2025-01-10 17:35:27.23	126.40	10.78	
2025-01-10 17:35:27.44	126.38	10.80	
2025-01-10 17:35:27.64	126.37	10.82	
2025-01-10 17:35:27.85	126.35	10.84	
2025-01-10 17:35:28.05	126.34	10.86	
2025-01-10 17:35:28.26	126.32	10.88	
2025-01-10 17:35:28.46	126.30	10.89	
2025-01-10 17:35:28.67	126.28	10.91	
2025-01-10 17:35:28.88	126.27	10.93	
2025-01-10 17:35:29.08	126.25	10.95	
2025-01-10 17:35:29.29	126.23	10.97	
2025-01-10 17:35:29.49	126.22	10.99	
2025-01-10 17:35:29.70	126.20	11.01	
2025-01-10 17:35:29.90	126.18	11.02	
2025-01-10 17:35:30.10	126.17	11.04	
2025-01-10 17:35:30.31	126.15	11.06	
2025-01-10 17:35:30.51	126.13	11.08	
2025-01-10 17:35:30.72	126.12	11.10	
2025-01-10 17:35:30.93	126.10	11.12	
2025-01-10 17:35:31.13	126.08	11.13	
2025-01-10 17:35:31.34	126.07	11.15	
2025-01-10 17:35:31.54	126.05	11.17	
2025-01-10 17:35:31.74	126.03	11.19	
2025-01-10 17:35:31.95	126.01	11.21	
2025-01-10 17:35:32.15	126.00	11.23	
2025-01-10 17:35:32.36	125.98	11.25	
2025-01-10 17:35:32.56	125.96	11.26	
2025-01-10 17:35:32.77	125.95	11.28	
2025-01-10 17:35:32.97	125.93	11.30	
2025-01-10 17:35:33.18	125.91	11.32	
2025-01-10 17:35:33.38	125.89	11.34	
2025-01-10 17:35:33.59	125.88	11.36	
2025-01-10 17:35:33.79	125.86	11.38	
2025-01-10 17:35:34.00	125.84	11.40	
2025-01-10 17:35:34.20	125.83	11.41	
2025-01-10 17:35:34.41	125.81	11.43	
2025-01-10 17:35:34.61	125.79	11.45	
2025-01-10 17:35:34.82	125.77	11.47	
2025-01-10 17:35:35.02	125.76	11.49	
2025-01-10 17:35:35.23	125.74	11.51	
2025-01-10 17:35:35.44	125.72	11.53	
2025-01-10 17:35:35.64	125.70	11.55	
2025-01-10 17:35:35.85	125.69	11.57	
2025-01-10 17:35:36.05	125.67	11.58	
2025-01-10 17:35:36.25	125.65	11.60	
2025-01-10 17:35:36.46	125.63	11.62	
2025-01-10 17:35:36.67	125.61	11.64	
2025-01-10 17:35:36.87	125.60	11.66	
2025-01-10 17:35:37.08	125.58	11.68	
2025-01-10 17:35:37.28	125.56	11.70	
2025-01-10 17:35:37.49	125.54	11.72	
2025-01-10 17:35:37.69	125.53	11.74	
2025-01-10 17:35:37.90	125.51	11.76	
2025-01-10 17:35:38.10	125.49	11.77	
2025-01-10 17:35:38.31	125.47	11.79	
2025-01-10 17:35:38.51	125.46	11.81	
2025-01-10 17:35:38.72	125.44	11.83	
2025-01-10 17:35:38.92	125.42	11.85	
2025-01-10 17:35:39.14	125.40	11.87	
2025-01-10 17:35:39.35	125.38	11.89	
2025-01-10 17:35:39.55	125.36	11.91	
2025-01-10 17:35:39.76	125.35	11.93	
2025-01-10 17:35:39.96	125.33	11.95	
2025-01-10 17:35:40.16	125.31	11.97	
2025-01-10 17:35:40.37	125.29	11.99	
2025-01-10 17:35:40.58	125.27	12.01	
2025-01-10 17:35:40.78	125.26	12.02	
2025-01-10 17:35:40.99	125.24	12.04	
2025-01-10 17:35:41.19	125.22	12.06	
2025-01-10 17:35:41.40	125.20	12.08	
2025-01-10 17:35:41.60	125.18	12.10	
2025-01-10 17:35:41.81	125.16	12.12	
2025-01-10 17:35:42.01	125.15	12.14	
2025-01-10 17:35:42.22	125.13	12.16	
2025-01-10 17:35:42.44	125.11	12.18	
2025-01-10 17:35:42.64	125.09	12.20	
2025-01-10 17:35:42.85	125.07	12.22	
2025-01-10 17:35:43.05	125.05	12.24	
2025-01-10 17:35:43.26	125.03	12.26	
2025-01-10 17:35:43.46	125.02	12.28	
2025-01-10 17:35:43.67	125.00	12.30	
2025-01-10 17:35:43.87	124.98	12.32	
2025-01-10 17:35:44.08	124.96	12.34	
2025-01-10 17:35:44.28	124.94	12.36	
2025-01-10 17:35:44.49	124.92	12.38	
2025-01-10 17:35:44.69	124.90	12.39	
2025-01-10 17:35:44.90	124.89	12.41	
2025-01-10 17:35:45.10	124.87	12.43	
2025-01-10 17:35:45.31	124.85	12.45	
2025-01-10 17:35:45.51	124.83	12.47	
2025-01-10 17:35:45.72	124.81	12.49	
2025-01-10 17:35:45.92	124.79	12.51	
2025-01-10 17:35:46.13	124.77	12.53	
2025-01-10 17:35:46.33	124.75	12.55	
2025-01-10 17:35:46.54	124.73	12.57	
2025-01-10 17:35:46.74	124.72	12.59	
2025-01-10 17:35:46.95	124.70	12.61	
2025-01-10 17:35:47.15	124.68	12.63	
2025-01-10 17:35:47.36	124.66	12.65	
2025-01-10 17:35:47.57	124.64	12.67	
2025-01-10 17:35:47.77	124.62	12.69	
2025-01-10 17:35:47.98	124.60	12.71	
2025-01-10 17:35:48.18	124.58	12.73	
2025-01-10 17:35:48.39	124.56	12.75	
2025-01-10 17:35:48.59	124.54	12.77	
2025-01-10 17:35:48.79	124.53	12.79	
2025-01-10 17:35:49.00	124.51	12.81	
2025-01-10 17:35:49.20	124.49	12.83	
2025-01-10 17:35:49.41	124.47	12.85	
2025-01-10 17:35:49.61	124.45	12.87	
2025-01-10 17:35:49.82	124.43	12.89	
2025-01-10 17:35:50.02	124.41	12.91	
2025-01-10 17:35:50.23	124.39	12.93	
2025-01-10 17:35:50.43	124.37	12.95	
2025-01-10 17:35:50.64	124.35	12.97	
2025-01-10 17:35:50.84	124.33	12.99	
2025-01-10 17:35:51.05	124.31	13.01	
2025-01-10 17:35:51.25	124.29	13.03	
2025-01-10 17:35:51.46	124.27	13.05	
2025-01-10 17:35:51.67	124.25	13.07	
2025-01-10 17:35:51.87	124.23	13.09	
2025-01-10 17:35:52.07	124.21	13.11	
2025-01-10 17:35:52.28	124.19	13.13	
2025-01-10 17:35:52.48	124.17	13.15	
2025-01-10 17:35:52.69	124.15	13.17	
2025-01-10 17:35:52.90	124.13	13.19	
2025-01-10 17:35:53.10	124.11	13.21	
2025-01-10 17:35:53.30	124.10	13.23	
2025-01-10 17:35:53.51	124.07	13.25	
2025-01-10 17:35:53.71	124.06	13.27	
2025-01-10 17:35:53.92	124.03	13.29	
2025-01-10 17:35:54.12	124.02	13.31	
2025-01-10 17:35:54.33	123.99	13.33	
2025-01-10 17:35:54.53	123.98	13.35	
2025-01-10 17:35:54.74	123.95	13.37	
2025-01-10 17:35:54.94	123.94	13.39	
2025-01-10 17:35:55.15	123.91	13.41	
2025-01-10 17:35:55.35	123.89	13.43	
2025-01-10 17:35:55.56	123.87	13.45	
2025-01-10 17:35:55.77	123.85	13.47	
2025-01-10 17:35:55.97	123.83	13.49	
2025-01-10 17:35:56.18	123.81	13.51	
2025-01-10 17:35:56.38	123.79	13.53	
2025-01-10 17:35:56.59	123.77	13.55	
2025-01-10 17:35:56.79	123.75	13.57	
2025-01-10 17:35:57.00	123.73	13.59	
2025-01-10 17:35:57.20	123.71	13.61	
2025-01-10 17:35:57.41	123.69	13.63	
2025-01-10 17:35:57.61	123.67	13.65	
2025-01-10 17:35:57.82	123.65	13.67	
2025-01-10 17:35:58.02	123.63	13.69	
2025-01-10 17:35:58.23	123.61	13.71	
2025-01-10 17:35:58.43	123.59	13.73	
2025-01-10 17:35:58.64	123.57	13.76	
2025-01-10 17:35:58.84	123.55	13.78	
2025-01-10 17:35:59.05	123.53	13.80	
2025-01-10 17:35:59.25	123.51	13.82	
2025-01-10 17:35:59.47	123.48	13.84	
2025-01-10 17:35:59.67	123.46	13.86	
2025-01-10 17:35:59.88	123.44	13.88	
2025-01-10 17:36:00.08	123.42	13.90	
2025-01-10 17:36:00.29	123.40	13.92	
2025-01-10 17:36:00.49	123.38	13.94	
2025-01-10 17:36:00.70	123.36	13.96	
2025-01-10 17:36:00.92	123.34	13.99	
2025-01-10 17:36:01.12	123.31	14.01	
2025-01-10 17:36:01.33	123.29	14.03	
2025-01-10 17:36:01.53	123.27	14.05	
2025-01-10 17:36:01.74	123.25	14.07	
2025-01-10 17:36:01.94	123.23	14.09	
2025-01-10 17:36:02.15	123.21	14.11	
2025-01-10 17:36:02.35	123.19	14.13	
2025-01-10 17:36:02.55	123.17	14.15	
2025-01-10 17:36:02.76	123.15	14.17	
2025-01-10 17:36:02.97	123.12	14.19	
2025-01-10 17:36:03.17	123.10	14.21	
2025-01-10 17:36:03.38	123.08	14.23	
2025-01-10 17:36:03.58	123.06	14.26	
2025-01-10 17:36:03.79	123.04	14.28	
2025-01-10 17:36:03.99	123.02	14.30	
2025-01-10 17:36:04.19	123.00	14.32	
2025-01-10 17:36:04.40	122.97	14.34	
2025-01-10 17:36:04.61	122.95	14.36	
2025-01-10 17:36:04.82	122.93	14.38	
2025-01-10 17:36:05.03	122.91	14.40	
2025-01-10 17:36:05.24	122.89	14.42	
2025-01-10 17:36:05.44	122.86	14.45	
2025-01-10 17:36:05.65	122.84	14.47	
2025-01-10 17:36:05.85	122.82	14.49	
2025-01-10 17:36:06.06	122.80	14.51	
2025-01-10 17:36:06.26	122.78	14.53	
2025-01-10 17:36:06.47	122.75	14.55	
2025-01-10 17:36:06.67	122.73	14.57	
2025-01-10 17:36:06.88	122.71	14.59	
2025-01-10 17:36:07.08	122.69	14.61	
2025-01-10 17:36:07.29	122.67	14.64	
2025-01-10 17:36:07.49	122.64	14.66	
2025-01-10 17:36:07.70	122.62	14.68	
2025-01-10 17:36:07.92	122.60	14.70	
2025-01-10 17:36:08.12	122.58	14.72	
2025-01-10 17:36:08.33	122.55	14.74	
2025-01-10 17:36:08.53	122.53	14.76	
2025-01-10 17:36:08.74	122.51	14.79	
2025-01-10 17:36:08.96	122.49	14.81	
2025-01-10 17:36:09.16	122.46	14.83	
2025-01-10 17:36:09.37	122.44	14.85	
2025-01-10 17:36:09.58	122.42	14.87	
2025-01-10 17:36:09.78	122.40	14.89	
2025-01-10 17:36:09.98	122.37	14.92	
2025-01-10 17:36:10.19	122.35	14.94	
2025-01-10 17:36:10.40	122.33	14.96	
2025-01-10 17:36:10.60	122.31	14.98	
2025-01-10 17:36:10.81	122.28	15.00	
2025-01-10 17:36:11.01	122.26	15.02	
2025-01-10 17:36:11.22	122.24	15.05	
2025-01-10 17:36:11.42	122.22	15.07	
2025-01-10 17:36:11.63	122.19	15.09	
2025-01-10 17:36:11.83	122.17	15.11	
2025-01-10 17:36:12.04	122.15	15.13	
2025-01-10 17:36:12.26	122.12	15.15	
2025-01-10 17:36:12.46	122.10	15.18	
2025-01-10 17:36:12.67	122.08	15.20	
2025-01-10 17:36:12.88	122.05	15.22	
2025-01-10 17:36:13.08	122.03	15.24	
2025-01-10 17:36:13.29	122.01	15.26	
2025-01-10 17:36:13.49	121.98	15.28	
2025-01-10 17:36:13.70	121.96	15.31	
2025-01-10 17:36:13.90	121.94	15.33	
2025-01-10 17:36:14.11	121.91	15.35	
2025-01-10 17:36:14.32	121.89	15.37	
2025-01-10 17:36:14.53	121.87	15.40	
2025-01-10 17:36:14.73	121.84	15.42	
2025-01-10 17:36:14.94	121.82	15.44	
2025-01-10 17:36:15.14	121.80	15.46	
2025-01-10 17:36:15.35	121.77	15.48	
2025-01-10 17:36:15.55	121.75	15.50	
2025-01-10 17:36:15.76	121.73	15.53	
2025-01-10 17:36:15.96	121.70	15.55	
2025-01-10 17:36:16.17	121.68	15.57	
2025-01-10 17:36:16.37	121.66	15.59	
2025-01-10 17:36:16.58	121.63	15.61	
2025-01-10 17:36:16.78	121.61	15.64	
2025-01-10 17:36:16.99	121.58	15.66	
2025-01-10 17:36:17.19	121.56	15.68	
2025-01-10 17:36:17.40	121.54	15.70	
2025-01-10 17:36:17.60	121.51	15.72	
2025-01-10 17:36:17.81	121.49	15.75	
2025-01-10 17:36:18.02	121.46	15.77	
2025-01-10 17:36:18.22	121.44	15.79	
2025-01-10 17:36:18.43	121.42	15.81	
2025-01-10 17:36:18.63	121.39	15.83	
2025-01-10 17:36:18.84	121.37	15.86	
2025-01-10 17:36:19.04	121.34	15.88	
2025-01-10 17:36:19.25	121.32	15.90	
2025-01-10 17:36:19.45	121.30	15.92	
2025-01-10 17:36:19.66	121.27	15.95	
2025-01-10 17:36:19.86	121.25	15.97	
2025-01-10 17:36:20.07	121.22	15.99	
2025-01-10 17:36:20.27	121.20	16.01	
2025-01-10 17:36:20.48	121.17	16.03	
2025-01-10 17:36:20.68	121.15	16.06	
2025-01-10 17:36:20.89	121.12	16.08	
2025-01-10 17:36:21.09	121.10	16.10	
2025-01-10 17:36:21.30	121.08	16.12	
2025-01-10 17:36:21.50	121.05	16.15	
2025-01-10 17:36:21.71	121.03	16.17	
2025-01-10 17:36:21.91	121.00	16.19	
2025-01-10 17:36:22.12	120.98	16.21	
2025-01-10 17:36:22.32	120.95	16.24	
2025-01-10 17:36:22.53	120.93	16.26	
2025-01-10 17:36:22.74	120.90	16.28	
2025-01-10 17:36:22.96	120.88	16.31	
2025-01-10 17:36:23.16	120.85	16.33	
2025-01-10 17:36:23.37	120.83	16.35	
2025-01-10 17:36:23.57	120.80	16.37	
2025-01-10 17:36:23.78	120.78	16.40	
2025-01-10 17:36:23.98	120.75	16.42	
2025-01-10 17:36:24.19	120.73	16.44	
2025-01-10 17:36:24.39	120.70	16.46	
2025-01-10 17:36:24.60	120.67	16.49	
2025-01-10 17:36:24.80	120.65	16.51	
2025-01-10 17:36:25.01	120.62	16.53	
2025-01-10 17:36:25.21	120.60	16.55	
2025-01-10 17:36:25.42	120.57	16.58	
2025-01-10 17:36:25.62	120.55	16.60	
2025-01-10 17:36:25.83	120.52	16.62	
2025-01-10 17:36:26.03	120.50	16.64	
2025-01-10 17:36:26.24	120.47	16.67	
2025-01-10 17:36:26.44	120.45	16.69	
2025-01-10 17:36:26.65	120.42	16.71	
2025-01-10 17:36:26.85	120.40	16.74	
2025-01-10 17:36:27.06	120.37	16.76	
2025-01-10 17:36:27.26	120.34	16.78	
2025-01-10 17:36:27.47	120.32	16.80	
2025-01-10 17:36:27.67	120.29	16.83	
2025-01-10 17:36:27.88	120.27	16.85	
2025-01-10 17:36:28.08	120.24	16.87	
2025-01-10 17:36:28.28	120.22	16.89	
2025-01-10 17:36:28.49	120.19	16.92	
2025-01-10 17:36:28.69	120.16	16.94	
2025-01-10 17:36:28.90	120.14	16.96	
2025-01-10 17:36:29.10	120.11	16.99	
2025-01-10 17:36:29.31	120.08	17.01	
2025-01-10 17:36:29.52	120.06	17.03	
2025-01-10 17:36:29.73	120.03	17.06	
2025-01-10 17:36:29.93	120.01	17.08	
2025-01-10 17:36:30.14	119.98	17.10	
2025-01-10 17:36:30.34	119.95	17.13	
2025-01-10 17:36:30.55	119.93	17.15	
2025-01-10 17:36:30.75	119.90	17.17	
2025-01-10 17:36:30.96	119.87	17.20	
2025-01-10 17:36:31.16	119.85	17.22	
2025-01-10 17:36:31.37	119.82	17.24	
2025-01-10 17:36:31.57	119.79	17.27	
2025-01-10 17:36:31.77	119.77	17.29	
2025-01-10 17:36:31.98	119.74	17.31	
2025-01-10 17:36:32.19	119.71	17.34	
2025-01-10 17:36:32.39	119.69	17.36	
2025-01-10 17:36:32.59	119.66	17.38	
2025-01-10 17:36:32.80	119.63	17.41	
2025-01-10 17:36:33.01	119.60	17.43	
2025-01-10 17:36:33.21	119.58	17.45	
2025-01-10 17:36:33.41	119.55	17.47	
2025-01-10 17:36:33.62	119.52	17.50	
2025-01-10 17:36:33.82	119.50	17.52	
2025-01-10 17:36:34.03	119.47	17.55	
2025-01-10 17:36:34.23	119.44	17.57	
2025-01-10 17:36:34.44	119.42	17.59	
2025-01-10 17:36:34.64	119.39	17.62	
2025-01-10 17:36:34.85	119.36	17.64	
2025-01-10 17:36:35.05	119.33	17.66	
2025-01-10 17:36:35.26	119.31	17.69	
2025-01-10 17:36:35.47	119.28	17.71	
2025-01-10 17:36:35.67	119.25	17.73	
2025-01-10 17:36:35.87	119.22	17.76	
2025-01-10 17:36:36.08	119.20	17.78	
2025-01-10 17:36:36.29	119.17	17.81	
2025-01-10 17:36:36.49	119.14	17.83	
2025-01-10 17:36:36.70	119.11	17.85	
2025-01-10 17:36:36.90	119.08	17.88	
2025-01-10 17:36:37.11	119.06	17.90	
2025-01-10 17:36:37.31	119.03	17.92	
2025-01-10 17:36:37.52	119.00	17.95	
2025-01-10 17:36:37.72	118.97	17.97	
2025-01-10 17:36:37.93	118.94	18.00	
2025-01-10 17:36:38.13	118.92	18.02	
2025-01-10 17:36:38.34	118.89	18.04	
2025-01-10 17:36:38.54	118.86	18.07	
2025-01-10 17:36:38.75	118.83	18.09	
2025-01-10 17:36:38.95	118.80	18.11	
2025-01-10 17:36:39.16	118.77	18.14	
2025-01-10 17:36:39.36	118.75	18.16	
2025-01-10 17:36:39.57	118.72	18.19	
2025-01-10 17:36:39.77	118.69	18.21	
2025-01-10 17:36:39.98	118.66	18.23	
2025-01-10 17:36:40.18	118.63	18.26	
2025-01-10 17:36:40.39	118.60	18.28	
2025-01-10 17:36:40.59	118.58	18.31	
2025-01-10 17:36:40.80	118.55	18.33	
2025-01-10 17:36:41.00	118.52	18.35	
2025-01-10 17:36:41.22	118.49	18.38	
2025-01-10 17:36:41.42	118.46	18.40	
2025-01-10 17:36:41.63	118.43	18.43	
2025-01-10 17:36:41.83	118.40	18.45	
2025-01-10 17:36:42.05	118.37	18.48	
2025-01-10 17:36:42.26	118.34	18.50	
2025-01-10 17:36:42.46	118.31	18.53	
2025-01-10 17:36:42.67	118.28	18.55	
2025-01-10 17:36:42.87	118.25	18.57	
2025-01-10 17:36:43.08	118.22	18.60	
2025-01-10 17:36:43.28	118.19	18.62	
2025-01-10 17:36:43.49	118.16	18.65	
2025-01-10 17:36:43.69	118.14	18.67	
2025-01-10 17:36:43.90	118.11	18.70	
2025-01-10 17:36:44.11	118.07	18.72	
2025-01-10 17:36:44.32	118.04	18.75	
2025-01-10 17:36:44.53	118.01	18.77	
2025-01-10 17:36:44.73	117.99	18.79	
2025-01-10 17:36:44.94	117.95	18.82	
2025-01-10 17:36:45.16	117.92	18.85	
2025-01-10 17:36:45.36	117.89	18.87	
2025-01-10 17:36:45.57	117.86	18.90	
2025-01-10 17:36:45.77	117.83	18.92	
2025-01-10 17:36:45.98	117.80	18.94	
2025-01-10 17:36:46.18	117.77	18.97	
2025-01-10 17:36:46.39	117.74	18.99	
2025-01-10 17:36:46.59	117.71	19.02	
2025-01-10 17:36:46.80	117.68	19.04	
2025-01-10 17:36:47.00	117.65	19.07	
2025-01-10 17:36:47.21	117.62	19.09	
2025-01-10 17:36:47.41	117.59	19.12	
2025-01-10 17:36:47.62	117.56	19.14	
2025-01-10 17:36:47.82	117.53	19.17	
2025-01-10 17:36:48.03	117.50	19.19	
2025-01-10 17:36:48.23	117.47	19.21	
2025-01-10 17:36:48.45	117.44	19.24	
2025-01-10 17:36:48.65	117.41	19.27	
2025-01-10 17:36:48.86	117.38	19.29	
2025-01-10 17:36:49.06	117.35	19.31	
2025-01-10 17:36:49.27	117.31	19.34	
2025-01-10 17:36:49.49	117.28	19.37	
2025-01-10 17:36:49.70	117.25	19.39	
2025-01-10 17:36:49.90	117.22	19.42	
2025-01-10 17:36:50.11	117.19	19.44	
2025-01-10 17:36:50.31	117.16	19.47	
2025-01-10 17:36:50.51	117.13	19.49	
2025-01-10 17:36:50.72	117.09	19.52	
2025-01-10 17:36:50.93	117.06	19.54	
2025-01-10 17:36:51.13	117.03	19.57	
2025-01-10 17:36:51.34	117.00	19.59	
2025-01-10 17:36:51.55	116.97	19.62	
2025-01-10 17:36:51.76	116.94	19.64	
2025-01-10 17:36:51.96	116.90	19.67	
2025-01-10 17:36:52.17	116.87	19.69	
2025-01-10 17:36:52.37	116.84	19.72	
2025-01-10 17:36:52.58	116.81	19.74	
2025-01-10 17:36:52.80	116.77	19.77	
2025-01-10 17:36:53.00	116.74	19.80	
2025-01-10 17:36:53.21	116.71	19.82	
2025-01-10 17:36:53.41	116.68	19.85	
2025-01-10 17:36:53.62	116.65	19.87	
2025-01-10 17:36:53.82	116.62	19.90	
2025-01-10 17:36:54.03	116.58	19.92	
2025-01-10 17:36:54.23	116.55	19.95	
2025-01-10 17:36:54.44	116.52	19.97	
2025-01-10 17:36:54.64	116.49	20.00	
2025-01-10 17:36:54.85	116.45	20.02	
2025-01-10 17:36:55.05	116.42	20.05	
2025-01-10 17:36:55.26	116.39	20.07	
2025-01-10 17:36:55.46	116.36	20.10	
2025-01-10 17:36:55.67	116.32	20.12	
2025-01-10 17:36:55.89	116.29	20.15	
2025-01-10 17:36:56.09	116.26	20.18	
2025-01-10 17:36:56.30	116.22	20.20	
2025-01-10 17:36:56.50	116.19	20.23	
2025-01-10 17:36:56.71	116.16	20.25	
2025-01-10 17:36:56.91	116.12	20.28	
2025-01-10 17:36:57.12	116.09	20.30	
2025-01-10 17:36:57.33	116.06	20.33	
2025-01-10 17:36:57.53	116.02	20.36	
2025-01-10 17:36:57.74	115.99	20.38	
2025-01-10 17:36:57.94	115.96	20.41	
2025-01-10 17:36:58.15	115.92	20.43	
2025-01-10 17:36:58.35	115.89	20.46	
2025-01-10 17:36:58.56	115.86	20.48	
2025-01-10 17:36:58.76	115.82	20.51	
2025-01-10 17:36:58.97	115.79	20.54	
2025-01-10 17:36:59.17	115.76	20.56	
2025-01-10 17:36:59.38	115.72	20.59	
2025-01-10 17:36:59.58	115.69	20.61	
2025-01-10 17:36:59.79	115.66	20.64	
2025-01-10 17:36:59.99	115.62	20.66	
2025-01-10 17:37:00.20	115.59	20.69	
2025-01-10 17:37:00.40	115.56	20.72	
2025-01-10 17:37:00.61	115.52	20.74	
2025-01-10 17:37:00.82	115.49	20.77	
2025-01-10 17:37:01.02	115.45	20.79	
2025-01-10 17:37:01.23	115.42	20.82	
2025-01-10 17:37:01.43	115.38	20.85	
2025-01-10 17:37:01.64	115.35	20.87	
2025-01-10 17:37:01.84	115.31	20.90	
2025-01-10 17:37:02.05	115.28	20.92	
2025-01-10 17:37:02.25	115.25	20.95	
2025-01-10 17:37:02.46	115.21	20.98	
2025-01-10 17:37:02.66	115.18	21.00	
2025-01-10 17:37:02.87	115.14	21.03	
2025-01-10 17:37:03.07	115.11	21.05	
2025-01-10 17:37:03.28	115.07	21.08	
2025-01-10 17:37:03.48	115.04	21.11	
2025-01-10 17:37:03.69	115.00	21.13	
2025-01-10 17:37:03.89	114.97	21.16	
2025-01-10 17:37:04.10	114.93	21.19	
2025-01-10 17:37:04.30	114.90	21.21	
2025-01-10 17:37:04.51	114.86	21.24	
2025-01-10 17:37:04.71	114.83	21.26	
2025-01-10 17:37:04.92	114.79	21.29	
2025-01-10 17:37:05.13	114.75	21.32	
2025-01-10 17:37:05.33	114.72	21.34	
2025-01-10 17:37:05.53	114.69	21.37	
2025-01-10 17:37:05.74	114.65	21.40	
2025-01-10 17:37:05.95	114.61	21.42	
2025-01-10 17:37:06.15	114.58	21.45	
2025-01-10 17:37:06.36	114.54	21.48	
2025-01-10 17:37:06.56	114.51	21.50	
2025-01-10 17:37:06.77	114.47	21.53	
2025-01-10 17:37:06.97	114.43	21.55	
2025-01-10 17:37:07.18	114.40	21.58	
2025-01-10 17:37:07.39	114.36	21.61	
2025-01-10 17:37:07.60	114.32	21.64	
2025-01-10 17:37:07.81	114.29	21.66	
2025-01-10 17:37:08.02	114.25	21.69	
2025-01-10 17:37:08.22	114.21	21.72	
2025-01-10 17:37:08.43	114.18	21.74	
2025-01-10 17:37:08.63	114.14	21.77	
2025-01-10 17:37:08.83	114.10	21.79	
2025-01-10 17:37:09.04	114.07	21.82	
2025-01-10 17:37:09.24	114.03	21.85	
2025-01-10 17:37:09.45	113.99	21.88	
2025-01-10 17:37:09.65	113.96	21.90	
2025-01-10 17:37:09.86	113.92	21.93	
2025-01-10 17:37:10.07	113.88	21.96	
2025-01-10 17:37:10.27	113.85	21.98	
2025-01-10 17:37:10.48	113.81	22.01	
2025-01-10 17:37:10.68	113.77	22.04	
2025-01-10 17:37:10.89	113.73	22.06	
2025-01-10 17:37:11.10	113.70	22.09	
2025-01-10 17:37:11.30	113.66	22.12	
2025-01-10 17:37:11.51	113.62	22.14	
2025-01-10 17:37:11.71	113.58	22.17	
2025-01-10 17:37:11.92	113.55	22.20	
2025-01-10 17:37:12.12	113.51	22.22	
2025-01-10 17:37:12.33	113.47	22.25	
2025-01-10 17:37:12.53	113.43	22.28	
2025-01-10 17:37:12.74	113.39	22.31	
2025-01-10 17:37:12.94	113.36	22.33	
2025-01-10 17:37:13.15	113.32	22.36	
2025-01-10 17:37:13.35	113.28	22.39	
2025-01-10 17:37:13.56	113.24	22.41	
2025-01-10 17:37:13.76	113.20	22.44	
2025-01-10 17:37:13.97	113.17	22.47	
2025-01-10 17:37:14.17	113.13	22.49	
2025-01-10 17:37:14.38	113.09	22.52	
2025-01-10 17:37:14.58	113.05	22.55	
2025-01-10 17:37:14.79	113.01	22.58	
2025-01-10 17:37:14.99	112.97	22.60	
2025-01-10 17:37:15.20	112.93	22.63	
2025-01-10 17:37:15.40	112.90	22.66	
2025-01-10 17:37:15.61	112.86	22.68	
2025-01-10 17:37:15.82	112.82	22.71	
2025-01-10 17:37:16.02	112.78	22.74	
2025-01-10 17:37:16.22	112.74	22.77	
2025-01-10 17:37:16.43	112.70	22.79	
2025-01-10 17:37:16.63	112.66	22.82	
2025-01-10 17:37:16.83	112.62	22.85	
2025-01-10 17:37:17.04	112.58	22.87	
2025-01-10 17:37:17.25	112.54	22.90	
2025-01-10 17:37:17.45	112.50	22.93	
2025-01-10 17:37:17.66	112.46	22.96	
2025-01-10 17:37:17.86	112.43	22.98	
2025-01-10 17:37:18.07	112.38	23.01	
2025-01-10 17:37:18.28	112.34	23.04	
2025-01-10 17:37:18.49	112.30	23.07	
2025-01-10 17:37:18.69	112.26	23.09	
2025-01-10 17:37:18.90	112.22	23.12	
2025-01-10 17:37:19.10	112.18	23.15	
2025-01-10 17:37:19.31	112.14	23.18	
2025-01-10 17:37:19.51	112.10	23.20	
2025-01-10 17:37:19.72	112.06	23.23	
2025-01-10 17:37:19.92	112.02	23.26	
2025-01-10 17:37:20.13	111.98	23.29	
2025-01-10 17:37:20.35	111.94	23.32	
2025-01-10 17:37:20.55	111.90	23.34	
2025-01-10 17:37:20.75	111.86	23.37	
2025-01-10 17:37:20.96	111.82	23.40	
2025-01-10 17:37:21.16	111.78	23.43	
2025-01-10 17:37:21.37	111.74	23.46	
2025-01-10 17:37:21.57	111.70	23.48	
2025-01-10 17:37:21.78	111.65	23.51	
2025-01-10 17:37:21.99	111.61	23.54	
2025-01-10 17:37:22.19	111.57	23.57	
2025-01-10 17:37:22.40	111.53	23.59	
2025-01-10 17:37:22.62	111.48	23.62	
2025-01-10 17:37:22.82	111.44	23.65	
2025-01-10 17:37:23.03	111.40	23.68	
2025-01-10 17:37:23.23	111.36	23.71	
2025-01-10 17:37:23.43	111.32	23.73	
2025-01-10 17:37:23.64	111.28	23.76	
2025-01-10 17:37:23.84	111.24	23.79	
2025-01-10 17:37:24.05	111.19	23.82	
2025-01-10 17:37:24.25	111.15	23.85	
2025-01-10 17:37:24.46	111.11	23.87	
2025-01-10 17:37:24.66	111.07	23.90	
2025-01-10 17:37:24.87	111.02	23.93	
2025-01-10 17:37:25.07	110.98	23.96	
2025-01-10 17:37:25.28	110.94	23.99	
2025-01-10 17:37:25.49	110.90	24.01	
2025-01-10 17:37:25.69	110.85	24.04	
2025-01-10 17:37:25.89	110.81	24.07	
2025-01-10 17:37:26.10	110.77	24.10	
2025-01-10 17:37:26.31	110.73	24.13	
2025-01-10 17:37:26.51	110.68	24.15	
2025-01-10 17:37:26.71	110.64	24.18	
2025-01-10 17:37:26.92	110.60	24.21	
2025-01-10 17:37:27.12	110.56	24.24	
2025-01-10 17:37:27.33	110.51	24.27	
2025-01-10 17:37:27.53	110.47	24.29	
2025-01-10 17:37:27.74	110.42	24.32	
2025-01-10 17:37:27.94	110.38	24.35	
2025-01-10 17:37:28.15	110.34	24.38	
2025-01-10 17:37:28.36	110.29	24.41	
2025-01-10 17:37:28.56	110.25	24.44	
2025-01-10 17:37:28.77	110.21	24.47	
2025-01-10 17:37:28.97	110.16	24.49	
2025-01-10 17:37:29.18	110.12	24.52	
2025-01-10 17:37:29.38	110.07	24.55	
2025-01-10 17:37:29.59	110.03	24.58	
2025-01-10 17:37:29.79	109.99	24.61	
2025-01-10 17:37:30.00	109.94	24.63	
2025-01-10 17:37:30.20	109.90	24.66	
2025-01-10 17:37:30.41	109.85	24.69	
2025-01-10 17:37:30.61	109.81	24.72	
2025-01-10 17:37:30.82	109.76	24.75	
2025-01-10 17:37:31.04	109.71	24.78	
2025-01-10 17:37:31.24	109.67	24.81	
2025-01-10 17:37:31.45	109.62	24.84	
2025-01-10 17:37:31.65	109.58	24.86	
2025-01-10 17:37:31.86	109.53	24.89	
2025-01-10 17:37:32.06	109.49	24.92	
2025-01-10 17:37:32.26	109.45	24.95	
2025-01-10 17:37:32.47	109.40	24.98	
2025-01-10 17:37:32.67	109.36	25.01	
2025-01-10 17:37:32.88	109.31	25.03	
2025-01-10 17:37:33.08	109.26	25.06	
2025-01-10 17:37:33.29	109.22	25.09	
2025-01-10 17:37:33.49	109.17	25.12	
2025-01-10 17:37:33.70	109.13	25.15	
2025-01-10 17:37:33.90	109.08	25.18	
2025-01-10 17:37:34.11	109.03	25.21	
2025-01-10 17:37:34.33	108.98	25.24	
2025-01-10 17:37:34.53	108.94	25.26	
2025-01-10 17:37:34.74	108.89	25.29	
2025-01-10 17:37:34.95	108.84	25.32	
2025-01-10 17:37:35.15	108.80	25.35	
2025-01-10 17:37:35.36	108.75	25.38	
2025-01-10 17:37:35.56	108.71	25.41	
2025-01-10 17:37:35.77	108.66	25.44	
2025-01-10 17:37:35.97	108.61	25.47	
2025-01-10 17:37:36.18	108.56	25.50	
2025-01-10 17:37:36.38	108.52	25.52	
2025-01-10 17:37:36.58	108.47	25.55	
2025-01-10 17:37:36.79	108.42	25.58	
2025-01-10 17:37:37.00	108.38	25.61	
2025-01-10 17:37:37.20	108.33	25.64	
2025-01-10 17:37:37.40	108.28	25.67	
2025-01-10 17:37:37.61	108.24	25.70	
2025-01-10 17:37:37.81	108.19	25.73	
2025-01-10 17:37:38.02	108.14	25.75	
2025-01-10 17:37:38.23	108.09	25.78	
2025-01-10 17:37:38.43	108.04	25.81	
2025-01-10 17:37:38.63	108.00	25.84	
2025-01-10 17:37:38.84	107.95	25.87	
2025-01-10 17:37:39.05	107.90	25.90	
2025-01-10 17:37:39.25	107.85	25.93	
2025-01-10 17:37:39.46	107.80	25.96	
2025-01-10 17:37:39.66	107.75	25.99	
2025-01-10 17:37:39.87	107.71	26.02	
2025-01-10 17:37:40.07	107.66	26.04	
2025-01-10 17:37:40.28	107.61	26.07	
2025-01-10 17:37:40.48	107.56	26.10	
2025-01-10 17:37:40.69	107.51	26.13	
2025-01-10 17:37:40.89	107.46	26.16	
2025-01-10 17:37:41.10	107.41	26.19	
2025-01-10 17:37:41.30	107.36	26.22	
2025-01-10 17:37:41.51	107.31	26.25	
2025-01-10 17:37:41.71	107.27	26.28	
2025-01-10 17:37:41.92	107.21	26.31	
2025-01-10 17:37:42.13	107.16	26.34	
2025-01-10 17:37:42.33	107.12	26.36	
2025-01-10 17:37:42.53	107.07	26.39	
2025-01-10 17:37:42.74	107.02	26.42	
2025-01-10 17:37:42.94	106.97	26.45	
2025-01-10 17:37:43.15	106.92	26.48	
2025-01-10 17:37:43.36	106.86	26.51	
2025-01-10 17:37:43.56	106.82	26.54	
2025-01-10 17:37:43.77	106.76	26.57	
2025-01-10 17:37:43.97	106.71	26.60	
2025-01-10 17:37:44.17	106.66	26.63	
2025-01-10 17:37:44.38	106.61	26.66	
2025-01-10 17:37:44.59	106.56	26.69	
2025-01-10 17:37:44.79	106.51	26.71	
2025-01-10 17:37:44.99	106.46	26.74	
2025-01-10 17:37:45.20	106.41	26.77	
2025-01-10 17:37:45.41	106.36	26.80	
2025-01-10 17:37:45.61	106.31	26.83	
2025-01-10 17:37:45.82	106.25	26.86	
2025-01-10 17:37:46.02	106.20	26.89	
2025-01-10 17:37:46.23	106.15	26.92	
2025-01-10 17:37:46.43	106.10	26.95	
2025-01-10 17:37:46.64	106.05	26.98	
2025-01-10 17:37:46.84	106.00	27.01	
2025-01-10 17:37:47.05	105.94	27.04	
2025-01-10 17:37:47.25	105.89	27.07	
2025-01-10 17:37:47.46	105.84	27.10	
2025-01-10 17:37:47.66	105.79	27.13	
2025-01-10 17:37:47.87	105.74	27.16	
2025-01-10 17:37:48.07	105.68	27.18	
2025-01-10 17:37:48.28	105.63	27.21	
2025-01-10 17:37:48.49	105.58	27.24	
2025-01-10 17:37:48.69	105.53	27.27	
2025-01-10 17:37:48.90	105.47	27.30	
2025-01-10 17:37:49.10	105.42	27.33	
2025-01-10 17:37:49.31	105.37	27.36	
2025-01-10 17:37:49.52	105.31	27.39	
2025-01-10 17:37:49.72	105.26	27.42	
2025-01-10 17:37:49.93	105.20	27.45	
2025-01-10 17:37:50.13	105.15	27.48	
2025-01-10 17:37:50.33	105.10	27.51	
2025-01-10 17:37:50.54	105.05	27.54	
2025-01-10 17:37:50.74	104.99	27.57	
2025-01-10 17:37:50.95	104.94	27.60	
2025-01-10 17:37:51.16	104.88	27.63	
2025-01-10 17:37:51.37	104.83	27.66	
2025-01-10 17:37:51.58	104.77	27.69	
2025-01-10 17:37:51.78	104.72	27.72	
2025-01-10 17:37:51.99	104.66	27.75	
2025-01-10 17:37:52.20	104.61	27.78	
2025-01-10 17:37:52.40	104.55	27.81	
2025-01-10 17:37:52.61	104.50	27.84	
2025-01-10 17:37:52.81	104.44	27.87	
2025-01-10 17:37:53.02	104.39	27.90	
2025-01-10 17:37:53.22	104.33	27.92	
2025-01-10 17:37:53.43	104.28	27.95	
2025-01-10 17:37:53.63	104.22	27.98	
2025-01-10 17:37:53.84	104.17	28.01	
2025-01-10 17:37:54.04	104.11	28.04	
2025-01-10 17:37:54.25	104.06	28.07	
2025-01-10 17:37:54.46	104.00	28.10	
2025-01-10 17:37:54.66	103.94	28.13	
2025-01-10 17:37:54.87	103.89	28.16	
2025-01-10 17:37:55.07	103.83	28.19	
2025-01-10 17:37:55.28	103.78	28.22	
2025-01-10 17:37:55.48	103.72	28.25	
2025-01-10 17:37:55.69	103.66	28.28	
2025-01-10 17:37:55.89	103.61	28.31	
2025-01-10 17:37:56.10	103.55	28.34	
2025-01-10 17:37:56.30	103.49	28.37	
2025-01-10 17:37:56.51	103.44	28.40	
2025-01-10 17:37:56.71	103.38	28.43	
2025-01-10 17:37:56.92	103.32	28.46	
2025-01-10 17:37:57.12	103.27	28.49	
2025-01-10 17:37:57.33	103.21	28.52	
2025-01-10 17:37:57.53	103.15	28.55	
2025-01-10 17:37:57.74	103.09	28.58	
2025-01-10 17:37:57.94	103.04	28.61	
2025-01-10 17:37:58.15	102.98	28.64	
2025-01-10 17:37:58.36	102.92	28.67	
2025-01-10 17:37:58.56	102.86	28.70	
2025-01-10 17:37:58.77	102.80	28.73	
2025-01-10 17:37:58.97	102.75	28.76	
2025-01-10 17:37:59.18	102.69	28.79	
2025-01-10 17:37:59.38	102.63	28.81	
2025-01-10 17:37:59.59	102.57	28.85	
2025-01-10 17:37:59.79	102.51	28.87	
2025-01-10 17:37:59.99	102.46	28.90	
2025-01-10 17:38:00.20	102.40	28.93	
2025-01-10 17:38:00.40	102.34	28.96	
2025-01-10 17:38:00.61	102.28	28.99	
2025-01-10 17:38:00.81	102.22	29.02	
2025-01-10 17:38:01.02	102.16	29.05	
2025-01-10 17:38:01.22	102.10	29.08	
2025-01-10 17:38:01.43	102.04	29.11	
2025-01-10 17:38:01.63	101.98	29.14	
2025-01-10 17:38:01.84	101.92	29.17	
2025-01-10 17:38:02.06	101.86	29.20	
2025-01-10 17:38:02.26	101.80	29.23	
2025-01-10 17:38:02.47	101.74	29.26	
2025-01-10 17:38:02.67	101.68	29.29	
2025-01-10 17:38:02.88	101.62	29.32	
2025-01-10 17:38:03.08	101.56	29.35	
2025-01-10 17:38:03.29	101.50	29.38	
2025-01-10 17:38:03.49	101.44	29.41	
2025-01-10 17:38:03.70	101.38	29.44	
2025-01-10 17:38:03.90	101.32	29.47	
2025-01-10 17:38:04.11	101.25	29.50	
2025-01-10 17:38:04.31	101.19	29.53	
2025-01-10 17:38:04.52	101.13	29.56	
2025-01-10 17:38:04.73	101.07	29.59	
2025-01-10 17:38:04.93	101.01	29.62	
2025-01-10 17:38:05.14	100.95	29.65	
2025-01-10 17:38:05.34	100.89	29.68	
2025-01-10 17:38:05.55	100.82	29.71	
2025-01-10 17:38:05.75	100.76	29.74	
2025-01-10 17:38:05.96	100.70	29.77	
2025-01-10 17:38:06.17	100.64	29.80	
2025-01-10 17:38:06.37	100.57	29.83	
2025-01-10 17:38:06.58	100.51	29.86	
2025-01-10 17:38:06.78	100.45	29.89	
2025-01-10 17:38:06.99	100.39	29.92	
2025-01-10 17:38:07.19	100.32	29.94	
2025-01-10 17:38:07.40	100.26	29.97	
2025-01-10 17:38:07.60	100.20	30.00	
2025-01-10 17:38:07.81	100.13	30.03	
2025-01-10 17:38:08.01	100.07	30.06	
2025-01-10 17:38:08.22	100.01	30.09	
2025-01-10 17:38:08.42	99.95	30.12	
2025-01-10 17:38:08.62	99.88	30.15	
2025-01-10 17:38:08.83	99.82	30.18	
2025-01-10 17:38:09.03	99.76	30.21	
2025-01-10 17:38:09.24	99.69	30.24	
2025-01-10 17:38:09.44	99.63	30.27	
2025-01-10 17:38:09.65	99.56	30.30	
2025-01-10 17:38:09.86	99.50	30.33	
2025-01-10 17:38:10.06	99.43	30.36	
2025-01-10 17:38:10.27	99.37	30.39	
2025-01-10 17:38:10.47	99.30	30.42	
2025-01-10 17:38:10.68	99.24	30.45	
2025-01-10 17:38:10.88	99.18	30.48	
2025-01-10 17:38:11.09	99.11	30.51	
2025-01-10 17:38:11.29	99.05	30.53	
2025-01-10 17:38:11.50	98.98	30.57	
2025-01-10 17:38:11.70	98.91	30.59	
2025-01-10 17:38:11.91	98.85	30.62	
2025-01-10 17:38:12.11	98.78	30.65	
2025-01-10 17:38:12.32	98.72	30.68	
2025-01-10 17:38:12.52	98.65	30.71	
2025-01-10 17:38:12.73	98.58	30.74	
2025-01-10 17:38:12.93	98.52	30.77	
2025-01-10 17:38:13.14	98.45	30.80	
2025-01-10 17:38:13.34	98.39	30.83	
2025-01-10 17:38:13.55	98.32	30.86	
2025-01-10 17:38:13.75	98.25	30.89	
2025-01-10 17:38:13.96	98.19	30.92	
2025-01-10 17:38:14.16	98.12	30.95	
2025-01-10 17:38:14.37	98.05	30.98	
2025-01-10 17:38:14.57	97.99	31.01	
2025-01-10 17:38:14.78	97.92	31.04	
2025-01-10 17:38:14.98	97.85	31.06	
2025-01-10 17:38:15.19	97.78	31.09	
2025-01-10 17:38:15.39	97.72	31.12	
2025-01-10 17:38:15.60	97.65	31.15	
2025-01-10 17:38:15.80	97.58	31.18	
2025-01-10 17:38:16.01	97.51	31.21	
2025-01-10 17:38:16.21	97.44	31.24	
2025-01-10 17:38:16.42	97.38	31.27	
2025-01-10 17:38:16.62	97.31	31.30	
2025-01-10 17:38:16.83	97.24	31.33	
2025-01-10 17:38:17.05	97.16	31.36	
2025-01-10 17:38:17.25	97.10	31.39	
2025-01-10 17:38:17.46	97.03	31.42	
2025-01-10 17:38:17.66	96.96	31.45	
2025-01-10 17:38:17.87	96.89	31.47	
2025-01-10 17:38:18.07	96.82	31.50	
2025-01-10 17:38:18.28	96.75	31.53	
2025-01-10 17:38:18.48	96.68	31.56	
2025-01-10 17:38:18.69	96.61	31.59	
2025-01-10 17:38:18.89	96.54	31.62	
2025-01-10 17:38:19.10	96.47	31.65	
2025-01-10 17:38:19.30	96.40	31.68	
2025-01-10 17:38:19.51	96.33	31.71	
2025-01-10 17:38:19.72	96.26	31.74	
2025-01-10 17:38:19.92	96.19	31.76	
2025-01-10 17:38:20.12	96.12	31.79	
2025-01-10 17:38:20.33	96.05	31.82	
2025-01-10 17:38:20.54	95.98	31.85	
2025-01-10 17:38:20.74	95.91	31.88	
2025-01-10 17:38:20.94	95.84	31.91	
2025-01-10 17:38:21.15	95.76	31.94	
2025-01-10 17:38:21.35	95.70	31.97	
2025-01-10 17:38:21.56	95.62	32.00	
2025-01-10 17:38:21.76	95.55	32.02	
2025-01-10 17:38:21.97	95.48	32.05	
2025-01-10 17:38:22.18	95.40	32.08	
2025-01-10 17:38:22.38	95.33	32.11	
2025-01-10 17:38:22.59	95.26	32.14	
2025-01-10 17:38:22.79	95.19	32.17	
2025-01-10 17:38:23.00	95.12	32.20	
2025-01-10 17:38:23.20	95.05	32.23	
2025-01-10 17:38:23.41	94.97	32.25	
2025-01-10 17:38:23.61	94.90	32.28	
2025-01-10 17:38:23.82	94.82	32.31	
2025-01-10 17:38:24.02	94.75	32.34	
2025-01-10 17:38:24.23	94.68	32.37	
2025-01-10 17:38:24.43	94.61	32.40	
2025-01-10 17:38:24.64	94.53	32.43	
2025-01-10 17:38:24.84	94.46	32.45	
2025-01-10 17:38:25.05	94.38	32.48	
2025-01-10 17:38:25.25	94.31	32.51	
2025-01-10 17:38:25.46	94.24	32.54	
2025-01-10 17:38:25.66	94.16	32.57	
2025-01-10 17:38:25.87	94.09	32.60	
2025-01-10 17:38:26.07	94.02	32.62	
2025-01-10 17:38:26.28	93.94	32.65	
2025-01-10 17:38:26.48	93.87	32.68	
2025-01-10 17:38:26.69	93.79	32.71	
2025-01-10 17:38:26.89	93.72	32.74	
2025-01-10 17:38:27.09	93.64	32.76	
2025-01-10 17:38:27.30	93.57	32.79	
2025-01-10 17:38:27.51	93.49	32.82	
2025-01-10 17:38:27.71	93.42	32.85	
2025-01-10 17:38:27.92	93.34	32.88	
2025-01-10 17:38:28.12	93.26	32.90	
2025-01-10 17:38:28.33	93.19	32.93	
2025-01-10 17:38:28.53	93.11	32.96	
2025-01-10 17:38:28.74	93.03	32.99	
2025-01-10 17:38:28.94	92.96	33.02	
2025-01-10 17:38:29.15	92.88	33.04	
2025-01-10 17:38:29.35	92.81	33.07	
2025-01-10 17:38:29.56	92.73	33.10	
2025-01-10 17:38:29.76	92.65	33.13	
2025-01-10 17:38:29.97	92.57	33.16	
2025-01-10 17:38:30.17	92.50	33.18	
2025-01-10 17:38:30.38	92.42	33.21	
2025-01-10 17:38:30.58	92.35	33.24	
2025-01-10 17:38:30.79	92.27	33.27	
2025-01-10 17:38:30.99	92.19	33.29	
2025-01-10 17:38:31.20	92.11	33.32	
2025-01-10 17:38:31.40	92.03	33.35	
2025-01-10 17:38:31.61	91.95	33.38	
2025-01-10 17:38:31.82	91.87	33.40	
2025-01-10 17:38:32.02	91.80	33.43	
2025-01-10 17:38:32.22	91.72	33.46	
2025-01-10 17:38:32.43	91.64	33.49	
2025-01-10 17:38:32.64	91.56	33.51	
2025-01-10 17:38:32.84	91.48	33.54	
2025-01-10 17:38:33.06	91.40	33.57	
2025-01-10 17:38:33.27	91.32	33.60	
2025-01-10 17:38:33.47	91.24	33.62	
2025-01-10 17:38:33.68	91.16	33.65	
2025-01-10 17:38:33.88	91.08	33.68	
2025-01-10 17:38:34.09	91.00	33.71	
2025-01-10 17:38:34.29	90.92	33.73	
2025-01-10 17:38:34.50	90.84	33.76	
2025-01-10 17:38:34.71	90.76	33.79	
2025-01-10 17:38:34.91	90.68	33.81	
2025-01-10 17:38:35.11	90.60	33.84	
2025-01-10 17:38:35.32	90.52	33.87	
2025-01-10 17:38:35.52	90.44	33.89	
2025-01-10 17:38:35.73	90.36	33.92	
2025-01-10 17:38:35.94	90.27	33.95	
2025-01-10 17:38:36.14	90.20	33.98	
2025-01-10 17:38:36.34	90.12	34.00	
2025-01-10 17:38:36.55	90.03	34.03	
2025-01-10 17:38:36.76	89.95	34.06	
2025-01-10 17:38:36.96	89.87	34.08	
2025-01-10 17:38:37.17	89.79	34.11	
2025-01-10 17:38:37.37	89.71	34.13	
2025-01-10 17:38:37.58	89.62	34.16	
2025-01-10 17:38:37.78	89.54	34.19	
2025-01-10 17:38:37.99	89.46	34.21	
2025-01-10 17:38:38.19	89.38	34.24	
2025-01-10 17:38:38.40	89.29	34.27	
2025-01-10 17:38:38.60	89.21	34.29	
2025-01-10 17:38:38.81	89.13	34.32	
2025-01-10 17:38:39.01	89.05	34.34	
2025-01-10 17:38:39.22	88.96	34.37	
2025-01-10 17:38:39.42	88.88	34.40	
2025-01-10 17:38:39.62	88.80	34.42	
2025-01-10 17:38:39.83	88.71	34.45	
2025-01-10 17:38:40.03	88.63	34.47	
2025-01-10 17:38:40.24	88.55	34.50	
2025-01-10 17:38:40.44	88.46	34.53	
2025-01-10 17:38:40.65	88.38	34.55	
2025-01-10 17:38:40.85	88.30	34.58	
2025-01-10 17:38:41.05	88.21	34.60	
2025-01-10 17:38:41.26	88.13	34.63	
2025-01-10 17:38:41.48	88.04	34.66	
2025-01-10 17:38:41.68	87.95	34.68	
2025-01-10 17:38:41.88	87.87	34.71	
2025-01-10 17:38:42.09	87.78	34.73	
2025-01-10 17:38:42.29	87.70	34.76	
2025-01-10 17:38:42.50	87.61	34.78	
2025-01-10 17:38:42.70	87.53	34.81	
2025-01-10 17:38:42.91	87.44	34.83	
2025-01-10 17:38:43.11	87.36	34.86	
2025-01-10 17:38:43.32	87.27	34.88	
2025-01-10 17:38:43.52	87.19	34.91	
2025-01-10 17:38:43.73	87.10	34.93	
2025-01-10 17:38:43.93	87.01	34.96	
2025-01-10 17:38:44.14	86.93	34.98	
2025-01-10 17:38:44.34	86.84	35.01	
2025-01-10 17:38:44.55	86.75	35.03	
2025-01-10 17:38:44.75	86.67	35.06	
2025-01-10 17:38:44.96	86.58	35.08	
2025-01-10 17:38:45.16	86.49	35.11	
2025-01-10 17:38:45.37	86.40	35.13	
2025-01-10 17:38:45.57	86.32	35.16	
2025-01-10 17:38:45.78	86.23	35.18	
2025-01-10 17:38:45.98	86.14	35.20	
2025-01-10 17:38:46.19	86.05	35.23	
2025-01-10 17:38:46.39	85.97	35.25	
2025-01-10 17:38:46.60	85.88	35.28	
2025-01-10 17:38:46.80	85.79	35.30	
2025-01-10 17:38:47.01	85.70	35.33	
2025-01-10 17:38:47.21	85.62	35.35	
2025-01-10 17:38:47.42	85.53	35.37	
2025-01-10 17:38:47.62	85.44	35.40	
2025-01-10 17:38:47.83	85.35	35.42	
2025-01-10 17:38:48.03	85.26	35.45	
2025-01-10 17:38:48.24	85.17	35.47	
2025-01-10 17:38:48.44	85.08	35.49	
2025-01-10 17:38:48.65	84.99	35.52	
2025-01-10 17:38:48.85	84.90	35.54	
2025-01-10 17:38:49.07	84.81	35.57	
2025-01-10 17:38:49.27	84.72	35.59	
2025-01-10 17:38:49.48	84.63	35.61	
2025-01-10 17:38:49.68	84.54	35.64	
2025-01-10 17:38:49.89	84.45	35.66	
2025-01-10 17:38:50.09	84.36	35.68	
2025-01-10 17:38:50.30	84.27	35.71	
2025-01-10 17:38:50.50	84.18	35.73	
2025-01-10 17:38:50.71	84.09	35.75	
2025-01-10 17:38:50.92	83.99	35.78	
2025-01-10 17:38:51.12	83.90	35.80	
2025-01-10 17:38:51.33	83.81	35.82	
2025-01-10 17:38:51.53	83.72	35.84	
2025-01-10 17:38:51.74	83.63	35.87	
2025-01-10 17:38:51.94	83.54	35.89	
2025-01-10 17:38:52.14	83.45	35.91	
2025-01-10 17:38:52.35	83.36	35.94	
2025-01-10 17:38:52.56	83.26	35.96	
2025-01-10 17:38:52.76	83.17	35.98	
2025-01-10 17:38:52.97	83.08	36.00	
2025-01-10 17:38:53.17	82.99	36.03	
2025-01-10 17:38:53.39	82.89	36.05	
2025-01-10 17:38:53.59	82.80	36.07	
2025-01-10 17:38:53.80	82.70	36.09	
2025-01-10 17:38:54.00	82.61	36.11	
2025-01-10 17:38:54.21	82.52	36.14	
2025-01-10 17:38:54.43	82.42	36.16	
2025-01-10 17:38:54.63	82.33	36.18	
2025-01-10 17:38:54.84	82.23	36.20	
2025-01-10 17:38:55.04	82.14	36.23	
2025-01-10 17:38:55.25	82.05	36.25	
2025-01-10 17:38:55.45	81.95	36.27	
2025-01-10 17:38:55.66	81.86	36.29	
2025-01-10 17:38:55.86	81.77	36.31	
2025-01-10 17:38:56.07	81.67	36.33	
2025-01-10 17:38:56.28	81.57	36.36	
2025-01-10 17:38:56.48	81.48	36.38	
2025-01-10 17:38:56.68	81.39	36.40	
2025-01-10 17:38:56.89	81.29	36.42	
2025-01-10 17:38:57.09	81.20	36.44	
2025-01-10 17:38:57.30	81.10	36.46	
2025-01-10 17:38:57.50	81.01	36.48	
2025-01-10 17:38:57.71	80.91	36.50	
2025-01-10 17:38:57.91	80.82	36.52	
2025-01-10 17:38:58.12	80.72	36.54	
2025-01-10 17:38:58.32	80.63	36.56	
2025-01-10 17:38:58.53	80.53	36.58	
2025-01-10 17:38:58.73	80.44	36.60	
2025-01-10 17:38:58.94	80.34	36.62	
2025-01-10 17:38:59.15	80.24	36.65	
2025-01-10 17:38:59.35	80.15	36.67	
2025-01-10 17:38:59.55	80.06	36.68	
2025-01-10 17:38:59.76	79.96	36.71	
2025-01-10 17:38:59.96	79.86	36.72	
2025-01-10 17:39:00.16	79.77	36.74	
2025-01-10 17:39:00.37	79.67	36.76	
2025-01-10 17:39:00.57	79.58	36.78	
2025-01-10 17:39:00.78	79.48	36.80	
2025-01-10 17:39:00.98	79.38	36.82	
2025-01-10 17:39:01.19	79.28	36.84	
2025-01-10 17:39:01.39	79.19	36.86	
2025-01-10 17:39:01.60	79.09	36.88	
2025-01-10 17:39:01.80	78.99	36.90	
2025-01-10 17:39:02.01	78.89	36.92	
2025-01-10 17:39:02.21	78.80	36.94	
2025-01-10 17:39:02.42	78.70	36.96	
2025-01-10 17:39:02.62	78.60	36.98	
2025-01-10 17:39:02.83	78.50	37.00	
2025-01-10 17:39:03.03	78.41	37.01	
2025-01-10 17:39:03.24	78.30	37.03	
2025-01-10 17:39:03.45	78.20	37.05	
2025-01-10 17:39:03.65	78.11	37.07	
2025-01-10 17:39:03.86	78.01	37.09	
2025-01-10 17:39:04.06	77.91	37.11	
2025-01-10 17:39:04.27	77.81	37.13	
2025-01-10 17:39:04.47	77.71	37.14	
2025-01-10 17:39:04.68	77.61	37.16	
2025-01-10 17:39:04.88	77.51	37.18	
2025-01-10 17:39:05.10	77.41	37.20	
2025-01-10 17:39:05.31	77.31	37.22	
2025-01-10 17:39:05.51	77.21	37.23	
2025-01-10 17:39:05.72	77.11	37.25	
2025-01-10 17:39:05.92	77.01	37.27	
2025-01-10 17:39:06.13	76.91	37.29	
2025-01-10 17:39:06.34	76.81	37.30	
2025-01-10 17:39:06.55	76.70	37.32	
2025-01-10 17:39:06.75	76.60	37.34	
2025-01-10 17:39:06.96	76.50	37.36	
2025-01-10 17:39:07.16	76.40	37.37	
2025-01-10 17:39:07.36	76.31	37.39	
2025-01-10 17:39:07.57	76.20	37.41	
2025-01-10 17:39:07.78	76.10	37.42	
2025-01-10 17:39:07.98	76.00	37.44	
2025-01-10 17:39:08.19	75.90	37.46	
2025-01-10 17:39:08.39	75.80	37.47	
2025-01-10 17:39:08.60	75.70	37.49	
2025-01-10 17:39:08.80	75.60	37.51	
2025-01-10 17:39:09.01	75.49	37.52	
2025-01-10 17:39:09.21	75.39	37.54	
2025-01-10 17:39:09.42	75.29	37.55	
2025-01-10 17:39:09.62	75.19	37.57	
2025-01-10 17:39:09.83	75.09	37.59	
2025-01-10 17:39:10.03	74.99	37.60	
2025-01-10 17:39:10.24	74.88	37.62	
2025-01-10 17:39:10.44	74.78	37.63	
2025-01-10 17:39:10.65	74.68	37.65	
2025-01-10 17:39:10.85	74.58	37.66	
2025-01-10 17:39:11.06	74.48	37.68	
2025-01-10 17:39:11.26	74.38	37.69	
2025-01-10 17:39:11.47	74.27	37.71	
2025-01-10 17:39:11.67	74.17	37.72	
2025-01-10 17:39:11.88	74.06	37.74	
2025-01-10 17:39:12.09	73.96	37.75	
2025-01-10 17:39:12.29	73.86	37.77	
2025-01-10 17:39:12.50	73.75	37.78	
2025-01-10 17:39:12.70	73.65	37.80	
2025-01-10 17:39:12.91	73.55	37.81	
2025-01-10 17:39:13.11	73.45	37.83	
2025-01-10 17:39:13.32	73.34	37.84	
2025-01-10 17:39:13.52	73.24	37.85	
2025-01-10 17:39:13.73	73.13	37.87	
2025-01-10 17:39:13.93	73.03	37.88	
2025-01-10 17:39:14.14	72.93	37.90	
2025-01-10 17:39:14.34	72.83	37.91	
2025-01-10 17:39:14.55	72.72	37.92	
2025-01-10 17:39:14.76	72.61	37.94	
2025-01-10 17:39:14.97	72.51	37.95	
2025-01-10 17:39:15.18	72.40	37.96	
2025-01-10 17:39:15.38	72.30	37.98	
2025-01-10 17:39:15.58	72.20	37.99	
2025-01-10 17:39:15.79	72.09	38.00	
2025-01-10 17:39:16.00	71.98	38.02	
2025-01-10 17:39:16.20	71.88	38.03	
2025-01-10 17:39:16.41	71.77	38.04	
2025-01-10 17:39:16.61	71.67	38.05	
2025-01-10 17:39:16.83	71.56	38.07	
2025-01-10 17:39:17.04	71.45	38.08	
2025-01-10 17:39:17.24	71.35	38.09	
2025-01-10 17:39:17.45	71.24	38.11	
2025-01-10 17:39:17.65	71.14	38.12	
2025-01-10 17:39:17.85	71.03	38.13	
2025-01-10 17:39:18.06	70.93	38.14	
2025-01-10 17:39:18.27	70.82	38.15	
2025-01-10 17:39:18.47	70.72	38.16	
2025-01-10 17:39:18.68	70.61	38.18	
2025-01-10 17:39:18.88	70.50	38.19	
2025-01-10 17:39:19.08	70.40	38.20	
2025-01-10 17:39:19.29	70.29	38.21	
2025-01-10 17:39:19.50	70.18	38.22	
2025-01-10 17:39:19.70	70.08	38.23	
2025-01-10 17:39:19.91	69.97	38.24	
2025-01-10 17:39:20.11	69.87	38.25	
2025-01-10 17:39:20.32	69.76	38.26	
2025-01-10 17:39:20.52	69.66	38.27	
2025-01-10 17:39:20.73	69.55	38.29	
2025-01-10 17:39:20.93	69.44	38.30	
2025-01-10 17:39:21.14	69.34	38.31	
2025-01-10 17:39:21.34	69.23	38.32	
2025-01-10 17:39:21.55	69.12	38.33	
2025-01-10 17:39:21.75	69.02	38.34	
2025-01-10 17:39:21.96	68.91	38.35	
2025-01-10 17:39:22.16	68.80	38.36	
2025-01-10 17:39:22.37	68.70	38.37	
2025-01-10 17:39:22.57	68.59	38.37	
2025-01-10 17:39:22.78	68.48	38.38	
2025-01-10 17:39:22.98	68.38	38.39	
2025-01-10 17:39:23.19	68.27	38.40	
2025-01-10 17:39:23.39	68.16	38.41	
2025-01-10 17:39:23.60	68.05	38.42	
2025-01-10 17:39:23.80	67.95	38.43	
2025-01-10 17:39:24.01	67.84	38.44	
2025-01-10 17:39:24.21	67.73	38.45	
2025-01-10 17:39:24.42	67.62	38.46	
2025-01-10 17:39:24.62	67.52	38.46	
2025-01-10 17:39:24.83	67.41	38.47	
2025-01-10 17:39:25.03	67.30	38.48	
2025-01-10 17:39:25.23	67.20	38.49	
2025-01-10 17:39:25.44	67.09	38.50	
2025-01-10 17:39:25.65	66.98	38.50	
2025-01-10 17:39:25.85	66.87	38.51	
2025-01-10 17:39:26.06	66.76	38.52	
2025-01-10 17:39:26.26	66.66	38.53	
2025-01-10 17:39:26.47	66.55	38.53	
2025-01-10 17:39:26.68	66.44	38.54	
2025-01-10 17:39:26.88	66.33	38.55	
2025-01-10 17:39:27.09	66.22	38.56	
2025-01-10 17:39:27.29	66.11	38.56	
2025-01-10 17:39:27.50	66.00	38.57	
2025-01-10 17:39:27.70	65.90	38.58	
2025-01-10 17:39:27.91	65.79	38.58	
2025-01-10 17:39:28.11	65.68	38.59	
2025-01-10 17:39:28.32	65.57	38.60	
2025-01-10 17:39:28.52	65.46	38.60	
2025-01-10 17:39:28.73	65.35	38.61	
2025-01-10 17:39:28.93	65.25	38.61	
2025-01-10 17:39:29.14	65.14	38.62	
2025-01-10 17:39:29.34	65.03	38.63	
2025-01-10 17:39:29.55	64.92	38.63	
2025-01-10 17:39:29.75	64.81	38.64	
2025-01-10 17:39:29.96	64.70	38.64	
2025-01-10 17:39:30.16	64.60	38.65	
2025-01-10 17:39:30.37	64.48	38.65	
2025-01-10 17:39:30.58	64.37	38.66	
2025-01-10 17:39:30.78	64.27	38.66	
2025-01-10 17:39:30.99	64.16	38.67	
2025-01-10 17:39:31.19	64.05	38.67	
2025-01-10 17:39:31.40	63.94	38.68	
2025-01-10 17:39:31.62	63.82	38.68	
2025-01-10 17:39:31.82	63.71	38.69	
2025-01-10 17:39:32.03	63.60	38.69	
2025-01-10 17:39:32.23	63.50	38.70	
2025-01-10 17:39:32.44	63.38	38.70	
2025-01-10 17:39:32.64	63.28	38.70	
2025-01-10 17:39:32.84	63.17	38.71	
2025-01-10 17:39:33.05	63.06	38.71	
2025-01-10 17:39:33.26	62.95	38.72	
2025-01-10 17:39:33.46	62.84	38.72	
2025-01-10 17:39:33.67	62.73	38.72	
2025-01-10 17:39:33.87	62.62	38.73	
2025-01-10 17:39:34.08	62.51	38.73	
2025-01-10 17:39:34.28	62.40	38.73	
2025-01-10 17:39:34.49	62.29	38.74	
2025-01-10 17:39:34.69	62.19	38.74	
2025-01-10 17:39:34.90	62.07	38.74	
2025-01-10 17:39:35.10	61.97	38.74	
2025-01-10 17:39:35.31	61.85	38.75	
2025-01-10 17:39:35.51	61.75	38.75	
2025-01-10 17:39:35.72	61.64	38.75	
2025-01-10 17:39:35.92	61.53	38.75	
2025-01-10 17:39:36.13	61.42	38.75	
2025-01-10 17:39:36.33	61.31	38.76	
2025-01-10 17:39:36.54	61.20	38.76	
2025-01-10 17:39:36.74	61.09	38.76	
2025-01-10 17:39:36.95	60.98	38.76	
2025-01-10 17:39:37.15	60.87	38.76	
2025-01-10 17:39:37.36	60.76	38.76	
2025-01-10 17:39:37.56	60.65	38.77	
2025-01-10 17:39:37.77	60.54	38.77	
2025-01-10 17:39:37.98	60.43	38.77	
