passes_logs/2025/01/10/SPB_Silybum_02/SPB_Silybum_02__20250110_095925_SUOMI_NPP_rec.log

#Pass ID: 20250110_095925_SUOMI NPP
#Satellite: SUOMI NPP
#Configuration: NPP
#Start time: 2025-01-10 10:06:23

#Version: 2.0.20230423
#Station: SPB_Silybum_02
#Location: 30.233357 lon 59.946436 lat
#TLE: 1 37849U 11061A   25009.84493763  .00000180  00000+0  10621-3 0  9991
#TLE: 2 37849  98.7440 310.8990 0001846  48.8747 311.2588 14.19535791684182

#Time	Az	El	Level	Level2	SNR	BER	Gain	Gain2
2025-01-10 10:06:25.40	35.38	70.53	
2025-01-10 10:06:25.61	35.12	70.48	
2025-01-10 10:06:25.81	34.87	70.43	
2025-01-10 10:06:26.02	34.61	70.38	
2025-01-10 10:06:26.22	34.37	70.33	
2025-01-10 10:06:26.43	34.11	70.27	
2025-01-10 10:06:26.63	33.87	70.22	
2025-01-10 10:06:26.84	33.62	70.17	
2025-01-10 10:06:27.06	33.35	70.11	
2025-01-10 10:06:27.26	33.11	70.06	
2025-01-10 10:06:27.47	32.86	70.01	
2025-01-10 10:06:27.68	32.62	69.95	
2025-01-10 10:06:27.88	32.38	69.90	
2025-01-10 10:06:28.09	32.14	69.84	
2025-01-10 10:06:28.29	31.91	69.79	
2025-01-10 10:06:28.50	31.67	69.73	
2025-01-10 10:06:28.71	31.43	69.68	
2025-01-10 10:06:28.91	31.20	69.62	
2025-01-10 10:06:29.12	30.96	69.56	
2025-01-10 10:06:29.32	30.74	69.51	
2025-01-10 10:06:29.53	30.50	69.45	
2025-01-10 10:06:29.73	30.28	69.40	
2025-01-10 10:06:29.94	30.05	69.34	
2025-01-10 10:06:30.14	29.83	69.28	
2025-01-10 10:06:30.35	29.60	69.22	
2025-01-10 10:06:30.55	29.38	69.17	
2025-01-10 10:06:30.76	29.15	69.11	
2025-01-10 10:06:30.97	28.93	69.05	
2025-01-10 10:06:31.17	28.72	68.99	
2025-01-10 10:06:31.37	28.50	68.94	
2025-01-10 10:06:31.58	28.28	68.88	
2025-01-10 10:06:31.78	28.07	68.82	
2025-01-10 10:06:31.99	27.86	68.76	
2025-01-10 10:06:32.19	27.65	68.70	
2025-01-10 10:06:32.40	27.43	68.64	
2025-01-10 10:06:32.61	27.22	68.58	
2025-01-10 10:06:32.82	27.01	68.51	
2025-01-10 10:06:33.02	26.80	68.46	
2025-01-10 10:06:33.23	26.59	68.39	
2025-01-10 10:06:33.43	26.40	68.33	
2025-01-10 10:06:33.64	26.19	68.27	
2025-01-10 10:06:33.85	25.98	68.21	
2025-01-10 10:06:34.05	25.78	68.15	
2025-01-10 10:06:34.26	25.58	68.09	
2025-01-10 10:06:34.46	25.39	68.02	
2025-01-10 10:06:34.67	25.19	67.96	
2025-01-10 10:06:34.87	25.00	67.90	
2025-01-10 10:06:35.08	24.80	67.84	
2025-01-10 10:06:35.29	24.60	67.77	
2025-01-10 10:06:35.50	24.40	67.71	
2025-01-10 10:06:35.71	24.21	67.64	
2025-01-10 10:06:35.91	24.02	67.58	
2025-01-10 10:06:36.12	23.83	67.52	
2025-01-10 10:06:36.33	23.64	67.45	
2025-01-10 10:06:36.53	23.46	67.39	
2025-01-10 10:06:36.74	23.27	67.32	
2025-01-10 10:06:36.94	23.09	67.26	
2025-01-10 10:06:37.15	22.90	67.19	
2025-01-10 10:06:37.35	22.72	67.13	
2025-01-10 10:06:37.56	22.54	67.07	
2025-01-10 10:06:37.76	22.36	67.00	
2025-01-10 10:06:37.97	22.18	66.94	
2025-01-10 10:06:38.17	22.01	66.87	
2025-01-10 10:06:38.38	21.83	66.81	
2025-01-10 10:06:38.59	21.65	66.74	
2025-01-10 10:06:38.79	21.48	66.67	
2025-01-10 10:06:39.00	21.30	66.61	
2025-01-10 10:06:39.20	21.13	66.54	
2025-01-10 10:06:39.41	20.96	66.48	
2025-01-10 10:06:39.61	20.79	66.41	
2025-01-10 10:06:39.82	20.62	66.34	
2025-01-10 10:06:40.02	20.46	66.28	
2025-01-10 10:06:40.23	20.29	66.21	
2025-01-10 10:06:40.43	20.13	66.15	
2025-01-10 10:06:40.64	19.96	66.08	
2025-01-10 10:06:40.84	19.80	66.01	
2025-01-10 10:06:41.05	19.63	65.94	
2025-01-10 10:06:41.25	19.48	65.88	
2025-01-10 10:06:41.45	19.32	65.81	
2025-01-10 10:06:41.66	19.16	65.74	
2025-01-10 10:06:41.86	19.00	65.68	
2025-01-10 10:06:42.07	18.84	65.61	
2025-01-10 10:06:42.27	18.69	65.54	
2025-01-10 10:06:42.48	18.53	65.47	
2025-01-10 10:06:42.69	18.37	65.40	
2025-01-10 10:06:42.89	18.22	65.34	
2025-01-10 10:06:43.10	18.06	65.27	
2025-01-10 10:06:43.30	17.92	65.20	
2025-01-10 10:06:43.51	17.76	65.13	
2025-01-10 10:06:43.71	17.62	65.06	
2025-01-10 10:06:43.92	17.46	64.99	
2025-01-10 10:06:44.13	17.31	64.92	
2025-01-10 10:06:44.34	17.16	64.85	
2025-01-10 10:06:44.54	17.02	64.79	
2025-01-10 10:06:44.75	16.87	64.72	
2025-01-10 10:06:44.96	16.72	64.65	
2025-01-10 10:06:45.17	16.57	64.57	
2025-01-10 10:06:45.38	16.43	64.50	
2025-01-10 10:06:45.58	16.29	64.44	
2025-01-10 10:06:45.79	16.15	64.37	
2025-01-10 10:06:45.99	16.01	64.30	
2025-01-10 10:06:46.20	15.87	64.23	
2025-01-10 10:06:46.40	15.73	64.16	
2025-01-10 10:06:46.61	15.59	64.09	
2025-01-10 10:06:46.82	15.45	64.02	
2025-01-10 10:06:47.02	15.32	63.95	
2025-01-10 10:06:47.23	15.18	63.88	
2025-01-10 10:06:47.43	15.05	63.81	
2025-01-10 10:06:47.64	14.91	63.74	
2025-01-10 10:06:47.84	14.78	63.67	
2025-01-10 10:06:48.05	14.65	63.60	
2025-01-10 10:06:48.26	14.51	63.53	
2025-01-10 10:06:48.47	14.38	63.45	
2025-01-10 10:06:48.68	14.25	63.38	
2025-01-10 10:06:48.89	14.12	63.31	
2025-01-10 10:06:49.09	13.99	63.24	
2025-01-10 10:06:49.30	13.86	63.17	
2025-01-10 10:06:49.50	13.74	63.10	
2025-01-10 10:06:49.70	13.62	63.03	
2025-01-10 10:06:49.91	13.49	62.96	
2025-01-10 10:06:50.12	13.36	62.89	
2025-01-10 10:06:50.32	13.24	62.82	
2025-01-10 10:06:50.53	13.12	62.75	
2025-01-10 10:06:50.73	13.00	62.68	
2025-01-10 10:06:50.94	12.87	62.61	
2025-01-10 10:06:51.14	12.76	62.54	
2025-01-10 10:06:51.35	12.63	62.47	
2025-01-10 10:06:51.56	12.51	62.39	
2025-01-10 10:06:51.76	12.40	62.32	
2025-01-10 10:06:51.97	12.27	62.25	
2025-01-10 10:06:52.18	12.15	62.18	
2025-01-10 10:06:52.38	12.04	62.11	
2025-01-10 10:06:52.59	11.92	62.04	
2025-01-10 10:06:52.79	11.81	61.97	
2025-01-10 10:06:53.00	11.69	61.90	
2025-01-10 10:06:53.20	11.58	61.83	
2025-01-10 10:06:53.41	11.47	61.75	
2025-01-10 10:06:53.61	11.36	61.68	
2025-01-10 10:06:53.83	11.24	61.61	
2025-01-10 10:06:54.04	11.12	61.54	
2025-01-10 10:06:54.24	11.02	61.47	
2025-01-10 10:06:54.45	10.90	61.39	
2025-01-10 10:06:54.65	10.80	61.32	
2025-01-10 10:06:54.87	10.68	61.25	
2025-01-10 10:06:55.08	10.57	61.18	
2025-01-10 10:06:55.28	10.47	61.11	
2025-01-10 10:06:55.49	10.36	61.03	
2025-01-10 10:06:55.70	10.25	60.96	
2025-01-10 10:06:55.90	10.15	60.89	
2025-01-10 10:06:56.10	10.04	60.82	
2025-01-10 10:06:56.31	9.94	60.75	
2025-01-10 10:06:56.52	9.83	60.68	
2025-01-10 10:06:56.72	9.73	60.61	
2025-01-10 10:06:56.93	9.63	60.53	
2025-01-10 10:06:57.13	9.53	60.46	
2025-01-10 10:06:57.34	9.42	60.39	
2025-01-10 10:06:57.54	9.33	60.32	
2025-01-10 10:06:57.75	9.22	60.25	
2025-01-10 10:06:57.95	9.13	60.18	
2025-01-10 10:06:58.16	9.02	60.11	
2025-01-10 10:06:58.36	8.93	60.04	
2025-01-10 10:06:58.57	8.83	59.96	
2025-01-10 10:06:58.77	8.73	59.90	
2025-01-10 10:06:58.98	8.63	59.82	
2025-01-10 10:06:59.20	8.53	59.75	
2025-01-10 10:06:59.40	8.44	59.68	
2025-01-10 10:06:59.61	8.34	59.60	
2025-01-10 10:06:59.82	8.24	59.53	
2025-01-10 10:07:00.02	8.15	59.46	
2025-01-10 10:07:00.22	8.06	59.39	
2025-01-10 10:07:00.43	7.97	59.32	
2025-01-10 10:07:00.63	7.88	59.25	
2025-01-10 10:07:00.84	7.78	59.18	
2025-01-10 10:07:01.04	7.69	59.11	
2025-01-10 10:07:01.26	7.59	59.03	
2025-01-10 10:07:01.47	7.50	58.96	
2025-01-10 10:07:01.67	7.41	58.89	
2025-01-10 10:07:01.88	7.32	58.82	
2025-01-10 10:07:02.08	7.23	58.75	
2025-01-10 10:07:02.29	7.14	58.68	
2025-01-10 10:07:02.49	7.06	58.61	
2025-01-10 10:07:02.70	6.97	58.53	
2025-01-10 10:07:02.90	6.88	58.47	
2025-01-10 10:07:03.11	6.79	58.39	
2025-01-10 10:07:03.31	6.71	58.32	
2025-01-10 10:07:03.52	6.62	58.25	
2025-01-10 10:07:03.73	6.54	58.18	
2025-01-10 10:07:03.93	6.45	58.11	
2025-01-10 10:07:04.14	6.37	58.04	
2025-01-10 10:07:04.34	6.28	57.97	
2025-01-10 10:07:04.55	6.20	57.90	
2025-01-10 10:07:04.75	6.12	57.83	
2025-01-10 10:07:04.96	6.03	57.75	
2025-01-10 10:07:05.16	5.95	57.69	
2025-01-10 10:07:05.37	5.87	57.61	
2025-01-10 10:07:05.57	5.79	57.54	
2025-01-10 10:07:05.78	5.71	57.47	
2025-01-10 10:07:05.98	5.63	57.40	
2025-01-10 10:07:06.19	5.55	57.33	
2025-01-10 10:07:06.40	5.46	57.26	
2025-01-10 10:07:06.61	5.38	57.19	
2025-01-10 10:07:06.82	5.30	57.12	
2025-01-10 10:07:07.02	5.23	57.05	
2025-01-10 10:07:07.22	5.15	56.98	
2025-01-10 10:07:07.43	5.07	56.91	
2025-01-10 10:07:07.63	5.00	56.84	
2025-01-10 10:07:07.83	4.92	56.77	
2025-01-10 10:07:08.04	4.84	56.70	
2025-01-10 10:07:08.25	4.76	56.63	
2025-01-10 10:07:08.45	4.69	56.56	
2025-01-10 10:07:08.66	4.61	56.49	
2025-01-10 10:07:08.86	4.54	56.42	
2025-01-10 10:07:09.07	4.46	56.35	
2025-01-10 10:07:09.27	4.39	56.28	
2025-01-10 10:07:09.48	4.32	56.21	
2025-01-10 10:07:09.68	4.25	56.14	
2025-01-10 10:07:09.89	4.17	56.07	
2025-01-10 10:07:10.09	4.10	56.00	
2025-01-10 10:07:10.30	4.03	55.93	
2025-01-10 10:07:10.51	3.95	55.86	
2025-01-10 10:07:10.71	3.88	55.79	
2025-01-10 10:07:10.91	3.81	55.72	
2025-01-10 10:07:11.12	3.74	55.65	
2025-01-10 10:07:11.33	3.67	55.58	
2025-01-10 10:07:11.53	3.60	55.51	
2025-01-10 10:07:11.74	3.53	55.44	
2025-01-10 10:07:11.94	3.46	55.37	
2025-01-10 10:07:12.15	3.39	55.30	
2025-01-10 10:07:12.35	3.32	55.24	
2025-01-10 10:07:12.56	3.25	55.16	
2025-01-10 10:07:12.76	3.19	55.10	
2025-01-10 10:07:12.98	3.11	55.02	
2025-01-10 10:07:13.19	3.04	54.95	
2025-01-10 10:07:13.39	2.98	54.89	
2025-01-10 10:07:13.60	2.91	54.81	
2025-01-10 10:07:13.80	2.85	54.75	
2025-01-10 10:07:14.01	2.78	54.68	
2025-01-10 10:07:14.21	2.71	54.61	
2025-01-10 10:07:14.42	2.65	54.54	
2025-01-10 10:07:14.62	2.58	54.47	
2025-01-10 10:07:14.83	2.52	54.40	
2025-01-10 10:07:15.03	2.46	54.34	
2025-01-10 10:07:15.25	2.39	54.26	
2025-01-10 10:07:15.45	2.32	54.20	
2025-01-10 10:07:15.66	2.26	54.13	
2025-01-10 10:07:15.87	2.19	54.06	
2025-01-10 10:07:16.07	2.13	53.99	
2025-01-10 10:07:16.28	2.07	53.92	
2025-01-10 10:07:16.48	2.01	53.85	
2025-01-10 10:07:16.69	1.94	53.78	
2025-01-10 10:07:16.90	1.88	53.71	
2025-01-10 10:07:17.10	1.82	53.65	
2025-01-10 10:07:17.31	1.76	53.58	
2025-01-10 10:07:17.51	1.70	53.51	
2025-01-10 10:07:17.72	1.64	53.44	
2025-01-10 10:07:17.93	1.58	53.37	
2025-01-10 10:07:18.13	1.52	53.31	
2025-01-10 10:07:18.33	1.46	53.24	
2025-01-10 10:07:18.54	1.40	53.17	
2025-01-10 10:07:18.74	1.34	53.11	
2025-01-10 10:07:18.95	1.28	53.04	
2025-01-10 10:07:19.15	1.22	52.97	
2025-01-10 10:07:19.36	1.16	52.90	
2025-01-10 10:07:19.56	1.11	52.84	
2025-01-10 10:07:19.77	1.05	52.77	
2025-01-10 10:07:19.98	0.99	52.70	
2025-01-10 10:07:20.18	0.93	52.63	
2025-01-10 10:07:20.38	0.88	52.57	
2025-01-10 10:07:20.59	0.82	52.50	
2025-01-10 10:07:20.80	0.76	52.43	
2025-01-10 10:07:21.00	0.71	52.37	
2025-01-10 10:07:21.21	0.65	52.30	
2025-01-10 10:07:21.41	0.59	52.23	
2025-01-10 10:07:21.62	0.54	52.17	
2025-01-10 10:07:21.82	0.48	52.10	
2025-01-10 10:07:22.03	0.43	52.03	
2025-01-10 10:07:22.23	0.37	51.97	
2025-01-10 10:07:22.44	0.32	51.90	
2025-01-10 10:07:22.64	0.27	51.84	
2025-01-10 10:07:22.85	0.21	51.77	
2025-01-10 10:07:23.05	0.16	51.70	
2025-01-10 10:07:23.26	0.10	51.64	
2025-01-10 10:07:23.46	0.05	51.57	
2025-01-10 10:07:23.67	360.00	51.50	
2025-01-10 10:07:23.87	359.95	51.44	
2025-01-10 10:07:24.08	359.89	51.37	
2025-01-10 10:07:24.28	359.84	51.31	
2025-01-10 10:07:24.49	359.79	51.24	
2025-01-10 10:07:24.69	359.74	51.18	
2025-01-10 10:07:24.90	359.68	51.11	
2025-01-10 10:07:25.10	359.63	51.05	
2025-01-10 10:07:25.31	359.58	50.98	
2025-01-10 10:07:25.52	359.53	50.91	
2025-01-10 10:07:25.73	359.48	50.84	
2025-01-10 10:07:25.94	359.43	50.78	
2025-01-10 10:07:26.15	359.38	50.71	
2025-01-10 10:07:26.35	359.33	50.65	
2025-01-10 10:07:26.56	359.28	50.58	
2025-01-10 10:07:26.76	359.23	50.52	
2025-01-10 10:07:26.96	359.18	50.45	
2025-01-10 10:07:27.17	359.13	50.39	
2025-01-10 10:07:27.38	359.08	50.32	
2025-01-10 10:07:27.58	359.03	50.26	
2025-01-10 10:07:27.79	358.98	50.19	
2025-01-10 10:07:27.99	358.93	50.13	
2025-01-10 10:07:28.20	358.88	50.06	
2025-01-10 10:07:28.41	358.84	50.00	
2025-01-10 10:07:28.61	358.79	49.94	
2025-01-10 10:07:28.82	358.74	49.87	
2025-01-10 10:07:29.02	358.69	49.81	
2025-01-10 10:07:29.23	358.65	49.74	
2025-01-10 10:07:29.43	358.60	49.68	
2025-01-10 10:07:29.64	358.55	49.61	
2025-01-10 10:07:29.84	358.51	49.55	
2025-01-10 10:07:30.05	358.46	49.49	
2025-01-10 10:07:30.25	358.42	49.42	
2025-01-10 10:07:30.46	358.37	49.36	
2025-01-10 10:07:30.67	358.32	49.29	
2025-01-10 10:07:30.87	358.28	49.23	
2025-01-10 10:07:31.07	358.23	49.17	
2025-01-10 10:07:31.28	358.19	49.10	
2025-01-10 10:07:31.48	358.14	49.04	
2025-01-10 10:07:31.69	358.10	48.98	
2025-01-10 10:07:31.90	358.05	48.91	
2025-01-10 10:07:32.10	358.01	48.85	
2025-01-10 10:07:32.31	357.96	48.79	
2025-01-10 10:07:32.51	357.92	48.73	
2025-01-10 10:07:32.72	357.88	48.66	
2025-01-10 10:07:32.92	357.83	48.60	
2025-01-10 10:07:33.13	357.79	48.54	
2025-01-10 10:07:33.33	357.75	48.47	
2025-01-10 10:07:33.54	357.70	48.41	
2025-01-10 10:07:33.74	357.66	48.35	
2025-01-10 10:07:33.95	357.62	48.29	
2025-01-10 10:07:34.16	357.57	48.22	
2025-01-10 10:07:34.37	357.53	48.16	
2025-01-10 10:07:34.58	357.49	48.09	
2025-01-10 10:07:34.78	357.45	48.03	
2025-01-10 10:07:34.99	357.40	47.97	
2025-01-10 10:07:35.19	357.36	47.91	
2025-01-10 10:07:35.40	357.32	47.85	
2025-01-10 10:07:35.60	357.28	47.79	
2025-01-10 10:07:35.81	357.24	47.72	
2025-01-10 10:07:36.02	357.20	47.66	
2025-01-10 10:07:36.22	357.16	47.60	
2025-01-10 10:07:36.43	357.11	47.54	
2025-01-10 10:07:36.63	357.07	47.48	
2025-01-10 10:07:36.84	357.03	47.41	
2025-01-10 10:07:37.04	356.99	47.35	
2025-01-10 10:07:37.25	356.95	47.29	
2025-01-10 10:07:37.45	356.91	47.23	
2025-01-10 10:07:37.66	356.87	47.17	
2025-01-10 10:07:37.86	356.83	47.11	
2025-01-10 10:07:38.07	356.79	47.05	
2025-01-10 10:07:38.28	356.75	46.98	
2025-01-10 10:07:38.48	356.72	46.92	
2025-01-10 10:07:38.69	356.68	46.86	
2025-01-10 10:07:38.89	356.64	46.80	
2025-01-10 10:07:39.10	356.60	46.74	
2025-01-10 10:07:39.30	356.56	46.68	
2025-01-10 10:07:39.51	356.52	46.62	
2025-01-10 10:07:39.71	356.48	46.56	
2025-01-10 10:07:39.92	356.45	46.50	
2025-01-10 10:07:40.12	356.41	46.44	
2025-01-10 10:07:40.34	356.37	46.38	
2025-01-10 10:07:40.55	356.33	46.31	
2025-01-10 10:07:40.75	356.29	46.26	
2025-01-10 10:07:40.95	356.26	46.20	
2025-01-10 10:07:41.16	356.22	46.14	
2025-01-10 10:07:41.37	356.18	46.07	
2025-01-10 10:07:41.57	356.15	46.02	
2025-01-10 10:07:41.79	356.11	45.95	
2025-01-10 10:07:41.99	356.07	45.89	
2025-01-10 10:07:42.20	356.03	45.83	
2025-01-10 10:07:42.40	356.00	45.78	
2025-01-10 10:07:42.61	355.96	45.71	
2025-01-10 10:07:42.83	355.92	45.65	
2025-01-10 10:07:43.03	355.89	45.59	
2025-01-10 10:07:43.24	355.85	45.53	
2025-01-10 10:07:43.44	355.82	45.48	
2025-01-10 10:07:43.65	355.78	45.41	
2025-01-10 10:07:43.85	355.75	45.36	
2025-01-10 10:07:44.06	355.71	45.30	
2025-01-10 10:07:44.26	355.67	45.24	
2025-01-10 10:07:44.46	355.64	45.18	
2025-01-10 10:07:44.66	355.61	45.13	
2025-01-10 10:07:44.87	355.57	45.07	
2025-01-10 10:07:45.08	355.54	45.01	
2025-01-10 10:07:45.28	355.50	44.95	
2025-01-10 10:07:45.49	355.47	44.89	
2025-01-10 10:07:45.69	355.43	44.83	
2025-01-10 10:07:45.90	355.40	44.77	
2025-01-10 10:07:46.10	355.37	44.72	
2025-01-10 10:07:46.31	355.33	44.66	
2025-01-10 10:07:46.51	355.30	44.60	
2025-01-10 10:07:46.72	355.26	44.54	
2025-01-10 10:07:46.92	355.23	44.48	
2025-01-10 10:07:47.13	355.20	44.43	
2025-01-10 10:07:47.33	355.17	44.37	
2025-01-10 10:07:47.54	355.13	44.31	
2025-01-10 10:07:47.75	355.10	44.25	
2025-01-10 10:07:47.95	355.07	44.20	
2025-01-10 10:07:48.16	355.03	44.14	
2025-01-10 10:07:48.36	355.00	44.08	
2025-01-10 10:07:48.57	354.97	44.02	
2025-01-10 10:07:48.77	354.94	43.97	
2025-01-10 10:07:48.98	354.90	43.91	
2025-01-10 10:07:49.18	354.87	43.85	
2025-01-10 10:07:49.39	354.84	43.79	
2025-01-10 10:07:49.60	354.81	43.74	
2025-01-10 10:07:49.80	354.78	43.68	
2025-01-10 10:07:50.01	354.74	43.62	
2025-01-10 10:07:50.21	354.71	43.57	
2025-01-10 10:07:50.42	354.68	43.51	
2025-01-10 10:07:50.62	354.65	43.45	
2025-01-10 10:07:50.82	354.62	43.40	
2025-01-10 10:07:51.03	354.59	43.34	
2025-01-10 10:07:51.24	354.56	43.28	
2025-01-10 10:07:51.44	354.53	43.23	
2025-01-10 10:07:51.65	354.50	43.17	
2025-01-10 10:07:51.85	354.47	43.12	
2025-01-10 10:07:52.05	354.44	43.06	
2025-01-10 10:07:52.26	354.40	43.01	
2025-01-10 10:07:52.48	354.37	42.95	
2025-01-10 10:07:52.68	354.34	42.89	
2025-01-10 10:07:52.89	354.31	42.83	
2025-01-10 10:07:53.10	354.28	42.78	
2025-01-10 10:07:53.30	354.25	42.72	
2025-01-10 10:07:53.51	354.22	42.67	
2025-01-10 10:07:53.71	354.19	42.61	
2025-01-10 10:07:53.92	354.16	42.56	
2025-01-10 10:07:54.12	354.13	42.50	
2025-01-10 10:07:54.33	354.10	42.45	
2025-01-10 10:07:54.53	354.08	42.39	
2025-01-10 10:07:54.74	354.05	42.34	
2025-01-10 10:07:54.94	354.02	42.28	
2025-01-10 10:07:55.15	353.99	42.23	
2025-01-10 10:07:55.35	353.96	42.17	
2025-01-10 10:07:55.56	353.93	42.12	
2025-01-10 10:07:55.76	353.90	42.06	
2025-01-10 10:07:55.97	353.87	42.01	
2025-01-10 10:07:56.17	353.85	41.95	
2025-01-10 10:07:56.38	353.82	41.90	
2025-01-10 10:07:56.58	353.79	41.85	
2025-01-10 10:07:56.80	353.76	41.79	
2025-01-10 10:07:57.00	353.73	41.73	
2025-01-10 10:07:57.21	353.70	41.68	
2025-01-10 10:07:57.42	353.68	41.62	
2025-01-10 10:07:57.62	353.65	41.57	
2025-01-10 10:07:57.84	353.62	41.51	
2025-01-10 10:07:58.04	353.59	41.46	
2025-01-10 10:07:58.25	353.56	41.41	
2025-01-10 10:07:58.45	353.54	41.35	
2025-01-10 10:07:58.66	353.51	41.30	
2025-01-10 10:07:58.86	353.48	41.25	
2025-01-10 10:07:59.07	353.46	41.19	
2025-01-10 10:07:59.27	353.43	41.14	
2025-01-10 10:07:59.48	353.40	41.09	
2025-01-10 10:07:59.68	353.38	41.03	
2025-01-10 10:07:59.89	353.35	40.98	
2025-01-10 10:08:00.09	353.32	40.93	
2025-01-10 10:08:00.30	353.29	40.87	
2025-01-10 10:08:00.50	353.27	40.82	
2025-01-10 10:08:00.71	353.24	40.77	
2025-01-10 10:08:00.91	353.22	40.72	
2025-01-10 10:08:01.12	353.19	40.66	
2025-01-10 10:08:01.32	353.16	40.61	
2025-01-10 10:08:01.53	353.14	40.56	
2025-01-10 10:08:01.73	353.11	40.50	
2025-01-10 10:08:01.94	353.09	40.45	
2025-01-10 10:08:02.14	353.06	40.40	
2025-01-10 10:08:02.35	353.03	40.35	
2025-01-10 10:08:02.56	353.01	40.29	
2025-01-10 10:08:02.76	352.98	40.24	
2025-01-10 10:08:02.97	352.96	40.19	
2025-01-10 10:08:03.18	352.93	40.14	
2025-01-10 10:08:03.39	352.91	40.08	
2025-01-10 10:08:03.59	352.88	40.03	
2025-01-10 10:08:03.80	352.86	39.98	
2025-01-10 10:08:04.01	352.83	39.93	
2025-01-10 10:08:04.21	352.81	39.88	
2025-01-10 10:08:04.41	352.78	39.82	
2025-01-10 10:08:04.62	352.76	39.77	
2025-01-10 10:08:04.83	352.73	39.72	
2025-01-10 10:08:05.03	352.71	39.67	
2025-01-10 10:08:05.23	352.68	39.62	
2025-01-10 10:08:05.44	352.66	39.57	
2025-01-10 10:08:05.65	352.63	39.51	
2025-01-10 10:08:05.85	352.61	39.46	
2025-01-10 10:08:06.06	352.59	39.41	
2025-01-10 10:08:06.26	352.56	39.36	
2025-01-10 10:08:06.47	352.54	39.31	
2025-01-10 10:08:06.67	352.51	39.26	
2025-01-10 10:08:06.88	352.49	39.21	
2025-01-10 10:08:07.09	352.47	39.16	
2025-01-10 10:08:07.29	352.44	39.11	
2025-01-10 10:08:07.50	352.42	39.06	
2025-01-10 10:08:07.70	352.40	39.01	
2025-01-10 10:08:07.91	352.37	38.95	
2025-01-10 10:08:08.12	352.35	38.90	
2025-01-10 10:08:08.32	352.32	38.85	
2025-01-10 10:08:08.52	352.30	38.81	
2025-01-10 10:08:08.73	352.28	38.75	
2025-01-10 10:08:08.94	352.25	38.70	
2025-01-10 10:08:09.14	352.23	38.65	
2025-01-10 10:08:09.35	352.21	38.60	
2025-01-10 10:08:09.57	352.18	38.55	
2025-01-10 10:08:09.77	352.16	38.50	
2025-01-10 10:08:09.98	352.14	38.45	
2025-01-10 10:08:10.18	352.12	38.40	
2025-01-10 10:08:10.39	352.09	38.35	
2025-01-10 10:08:10.59	352.07	38.30	
2025-01-10 10:08:10.80	352.05	38.25	
2025-01-10 10:08:11.01	352.03	38.20	
2025-01-10 10:08:11.21	352.00	38.15	
2025-01-10 10:08:11.42	351.98	38.10	
2025-01-10 10:08:11.62	351.96	38.05	
2025-01-10 10:08:11.83	351.94	38.00	
2025-01-10 10:08:12.03	351.92	37.96	
2025-01-10 10:08:12.24	351.89	37.91	
2025-01-10 10:08:12.44	351.87	37.86	
2025-01-10 10:08:12.65	351.85	37.81	
2025-01-10 10:08:12.85	351.83	37.76	
2025-01-10 10:08:13.06	351.81	37.71	
2025-01-10 10:08:13.26	351.78	37.66	
2025-01-10 10:08:13.47	351.76	37.61	
2025-01-10 10:08:13.67	351.74	37.57	
2025-01-10 10:08:13.88	351.72	37.52	
2025-01-10 10:08:14.08	351.70	37.47	
2025-01-10 10:08:14.29	351.68	37.42	
2025-01-10 10:08:14.50	351.66	37.37	
2025-01-10 10:08:14.70	351.63	37.32	
2025-01-10 10:08:14.90	351.61	37.28	
2025-01-10 10:08:15.11	351.59	37.23	
2025-01-10 10:08:15.32	351.57	37.18	
2025-01-10 10:08:15.52	351.55	37.13	
2025-01-10 10:08:15.73	351.53	37.08	
2025-01-10 10:08:15.93	351.51	37.04	
2025-01-10 10:08:16.14	351.49	36.99	
2025-01-10 10:08:16.34	351.47	36.94	
2025-01-10 10:08:16.55	351.45	36.89	
2025-01-10 10:08:16.75	351.43	36.84	
2025-01-10 10:08:16.97	351.40	36.79	
2025-01-10 10:08:17.18	351.38	36.75	
2025-01-10 10:08:17.38	351.36	36.70	
2025-01-10 10:08:17.59	351.34	36.65	
2025-01-10 10:08:17.79	351.32	36.60	
2025-01-10 10:08:18.00	351.30	36.56	
2025-01-10 10:08:18.20	351.28	36.51	
2025-01-10 10:08:18.41	351.26	36.46	
2025-01-10 10:08:18.61	351.24	36.42	
2025-01-10 10:08:18.82	351.22	36.37	
2025-01-10 10:08:19.03	351.20	36.32	
2025-01-10 10:08:19.23	351.18	36.28	
2025-01-10 10:08:19.43	351.16	36.23	
2025-01-10 10:08:19.64	351.14	36.18	
2025-01-10 10:08:19.85	351.12	36.13	
2025-01-10 10:08:20.05	351.11	36.09	
2025-01-10 10:08:20.25	351.09	36.04	
2025-01-10 10:08:20.46	351.07	36.00	
2025-01-10 10:08:20.66	351.05	35.95	
2025-01-10 10:08:20.87	351.03	35.90	
2025-01-10 10:08:21.08	351.01	35.86	
2025-01-10 10:08:21.28	350.99	35.81	
2025-01-10 10:08:21.49	350.97	35.76	
2025-01-10 10:08:21.69	350.95	35.72	
2025-01-10 10:08:21.90	350.93	35.67	
2025-01-10 10:08:22.10	350.91	35.63	
2025-01-10 10:08:22.30	350.89	35.58	
2025-01-10 10:08:22.51	350.88	35.54	
2025-01-10 10:08:22.71	350.86	35.49	
2025-01-10 10:08:22.92	350.84	35.44	
2025-01-10 10:08:23.12	350.82	35.40	
2025-01-10 10:08:23.33	350.80	35.35	
2025-01-10 10:08:23.53	350.78	35.31	
2025-01-10 10:08:23.74	350.76	35.26	
2025-01-10 10:08:23.95	350.74	35.22	
2025-01-10 10:08:24.15	350.73	35.17	
2025-01-10 10:08:24.36	350.71	35.13	
2025-01-10 10:08:24.56	350.69	35.08	
2025-01-10 10:08:24.77	350.67	35.04	
2025-01-10 10:08:24.97	350.65	34.99	
2025-01-10 10:08:25.18	350.63	34.95	
2025-01-10 10:08:25.38	350.62	34.90	
2025-01-10 10:08:25.59	350.60	34.86	
2025-01-10 10:08:25.79	350.58	34.81	
2025-01-10 10:08:26.00	350.56	34.77	
2025-01-10 10:08:26.20	350.54	34.72	
2025-01-10 10:08:26.41	350.53	34.68	
2025-01-10 10:08:26.62	350.51	34.63	
2025-01-10 10:08:26.83	350.49	34.59	
2025-01-10 10:08:27.03	350.47	34.54	
2025-01-10 10:08:27.24	350.45	34.50	
2025-01-10 10:08:27.44	350.44	34.45	
2025-01-10 10:08:27.65	350.42	34.41	
2025-01-10 10:08:27.85	350.40	34.37	
2025-01-10 10:08:28.06	350.38	34.32	
2025-01-10 10:08:28.26	350.37	34.28	
2025-01-10 10:08:28.47	350.35	34.23	
2025-01-10 10:08:28.69	350.33	34.19	
2025-01-10 10:08:28.89	350.31	34.14	
2025-01-10 10:08:29.10	350.30	34.10	
2025-01-10 10:08:29.31	350.28	34.05	
2025-01-10 10:08:29.51	350.26	34.01	
2025-01-10 10:08:29.72	350.24	33.97	
2025-01-10 10:08:29.92	350.23	33.92	
2025-01-10 10:08:30.13	350.21	33.88	
2025-01-10 10:08:30.33	350.19	33.84	
2025-01-10 10:08:30.54	350.18	33.79	
2025-01-10 10:08:30.75	350.16	33.75	
2025-01-10 10:08:30.95	350.14	33.70	
2025-01-10 10:08:31.16	350.13	33.66	
2025-01-10 10:08:31.36	350.11	33.62	
2025-01-10 10:08:31.57	350.09	33.57	
2025-01-10 10:08:31.77	350.08	33.53	
2025-01-10 10:08:31.98	350.06	33.49	
2025-01-10 10:08:32.19	350.04	33.44	
2025-01-10 10:08:32.39	350.03	33.40	
2025-01-10 10:08:32.60	350.01	33.36	
2025-01-10 10:08:32.80	349.99	33.32	
2025-01-10 10:08:33.01	349.98	33.27	
2025-01-10 10:08:33.21	349.96	33.23	
2025-01-10 10:08:33.42	349.94	33.19	
2025-01-10 10:08:33.62	349.93	33.15	
2025-01-10 10:08:33.83	349.91	33.10	
2025-01-10 10:08:34.03	349.90	33.06	
2025-01-10 10:08:34.24	349.88	33.02	
2025-01-10 10:08:34.44	349.86	32.98	
2025-01-10 10:08:34.65	349.85	32.93	
2025-01-10 10:08:34.86	349.83	32.89	
2025-01-10 10:08:35.06	349.82	32.85	
2025-01-10 10:08:35.26	349.80	32.81	
2025-01-10 10:08:35.47	349.79	32.77	
2025-01-10 10:08:35.68	349.77	32.72	
2025-01-10 10:08:35.88	349.75	32.68	
2025-01-10 10:08:36.09	349.74	32.64	
2025-01-10 10:08:36.29	349.72	32.60	
2025-01-10 10:08:36.50	349.71	32.56	
2025-01-10 10:08:36.70	349.69	32.51	
2025-01-10 10:08:36.91	349.68	32.47	
2025-01-10 10:08:37.11	349.66	32.43	
2025-01-10 10:08:37.32	349.64	32.39	
2025-01-10 10:08:37.52	349.63	32.35	
2025-01-10 10:08:37.73	349.61	32.31	
2025-01-10 10:08:37.93	349.60	32.27	
2025-01-10 10:08:38.14	349.58	32.22	
2025-01-10 10:08:38.34	349.57	32.18	
2025-01-10 10:08:38.55	349.55	32.14	
2025-01-10 10:08:38.75	349.54	32.10	
2025-01-10 10:08:38.96	349.52	32.06	
2025-01-10 10:08:39.17	349.51	32.02	
2025-01-10 10:08:39.37	349.49	31.98	
2025-01-10 10:08:39.58	349.48	31.93	
2025-01-10 10:08:39.78	349.46	31.90	
2025-01-10 10:08:39.99	349.45	31.85	
2025-01-10 10:08:40.19	349.43	31.81	
2025-01-10 10:08:40.40	349.42	31.77	
2025-01-10 10:08:40.60	349.40	31.73	
2025-01-10 10:08:40.80	349.39	31.69	
2025-01-10 10:08:41.01	349.37	31.65	
2025-01-10 10:08:41.22	349.36	31.61	
2025-01-10 10:08:41.42	349.34	31.57	
2025-01-10 10:08:41.62	349.33	31.53	
2025-01-10 10:08:41.83	349.32	31.49	
2025-01-10 10:08:42.03	349.30	31.45	
2025-01-10 10:08:42.24	349.29	31.41	
2025-01-10 10:08:42.44	349.27	31.37	
2025-01-10 10:08:42.65	349.26	31.33	
2025-01-10 10:08:42.85	349.24	31.29	
2025-01-10 10:08:43.06	349.23	31.25	
2025-01-10 10:08:43.26	349.22	31.21	
2025-01-10 10:08:43.47	349.20	31.17	
2025-01-10 10:08:43.67	349.19	31.13	
2025-01-10 10:08:43.88	349.17	31.09	
2025-01-10 10:08:44.09	349.16	31.05	
2025-01-10 10:08:44.29	349.14	31.01	
2025-01-10 10:08:44.50	349.13	30.97	
2025-01-10 10:08:44.70	349.12	30.93	
2025-01-10 10:08:44.90	349.10	30.89	
2025-01-10 10:08:45.11	349.09	30.85	
2025-01-10 10:08:45.32	349.07	30.81	
2025-01-10 10:08:45.52	349.06	30.77	
2025-01-10 10:08:45.73	349.05	30.73	
2025-01-10 10:08:45.93	349.03	30.69	
2025-01-10 10:08:46.14	349.02	30.65	
2025-01-10 10:08:46.34	349.00	30.62	
2025-01-10 10:08:46.55	348.99	30.58	
2025-01-10 10:08:46.75	348.98	30.54	
2025-01-10 10:08:46.96	348.96	30.50	
2025-01-10 10:08:47.16	348.95	30.46	
2025-01-10 10:08:47.37	348.94	30.42	
2025-01-10 10:08:47.58	348.92	30.38	
2025-01-10 10:08:47.78	348.91	30.34	
2025-01-10 10:08:47.98	348.90	30.30	
2025-01-10 10:08:48.19	348.88	30.27	
2025-01-10 10:08:48.40	348.87	30.23	
2025-01-10 10:08:48.60	348.86	30.19	
2025-01-10 10:08:48.81	348.84	30.15	
2025-01-10 10:08:49.01	348.83	30.11	
2025-01-10 10:08:49.22	348.82	30.07	
2025-01-10 10:08:49.42	348.80	30.03	
2025-01-10 10:08:49.63	348.79	29.99	
2025-01-10 10:08:49.84	348.78	29.96	
2025-01-10 10:08:50.04	348.76	29.92	
2025-01-10 10:08:50.25	348.75	29.88	
2025-01-10 10:08:50.45	348.74	29.84	
2025-01-10 10:08:50.66	348.72	29.80	
2025-01-10 10:08:50.86	348.71	29.77	
2025-01-10 10:08:51.07	348.70	29.73	
2025-01-10 10:08:51.29	348.68	29.69	
2025-01-10 10:08:51.49	348.67	29.65	
2025-01-10 10:08:51.70	348.66	29.61	
2025-01-10 10:08:51.90	348.65	29.57	
2025-01-10 10:08:52.11	348.63	29.53	
2025-01-10 10:08:52.31	348.62	29.50	
2025-01-10 10:08:52.52	348.61	29.46	
2025-01-10 10:08:52.72	348.59	29.42	
2025-01-10 10:08:52.93	348.58	29.38	
2025-01-10 10:08:53.14	348.57	29.35	
2025-01-10 10:08:53.35	348.56	29.31	
2025-01-10 10:08:53.56	348.54	29.27	
2025-01-10 10:08:53.77	348.53	29.23	
2025-01-10 10:08:53.97	348.52	29.19	
2025-01-10 10:08:54.18	348.50	29.16	
2025-01-10 10:08:54.38	348.49	29.12	
2025-01-10 10:08:54.59	348.48	29.08	
2025-01-10 10:08:54.79	348.47	29.05	
2025-01-10 10:08:55.00	348.46	29.01	
2025-01-10 10:08:55.20	348.44	28.97	
2025-01-10 10:08:55.41	348.43	28.93	
2025-01-10 10:08:55.61	348.42	28.90	
2025-01-10 10:08:55.82	348.41	28.86	
2025-01-10 10:08:56.03	348.39	28.82	
2025-01-10 10:08:56.23	348.38	28.79	
2025-01-10 10:08:56.44	348.37	28.75	
2025-01-10 10:08:56.64	348.36	28.71	
2025-01-10 10:08:56.85	348.35	28.67	
2025-01-10 10:08:57.05	348.33	28.64	
2025-01-10 10:08:57.26	348.32	28.60	
2025-01-10 10:08:57.46	348.31	28.57	
2025-01-10 10:08:57.67	348.30	28.53	
2025-01-10 10:08:57.87	348.29	28.49	
2025-01-10 10:08:58.08	348.27	28.46	
2025-01-10 10:08:58.28	348.26	28.42	
2025-01-10 10:08:58.49	348.25	28.38	
2025-01-10 10:08:58.69	348.24	28.35	
2025-01-10 10:08:58.90	348.23	28.31	
2025-01-10 10:08:59.11	348.21	28.27	
2025-01-10 10:08:59.31	348.20	28.24	
2025-01-10 10:08:59.52	348.19	28.20	
2025-01-10 10:08:59.72	348.18	28.17	
2025-01-10 10:08:59.92	348.17	28.13	
2025-01-10 10:09:00.13	348.16	28.09	
2025-01-10 10:09:00.33	348.14	28.06	
2025-01-10 10:09:00.54	348.13	28.02	
2025-01-10 10:09:00.74	348.12	27.99	
2025-01-10 10:09:00.95	348.11	27.95	
2025-01-10 10:09:01.15	348.10	27.92	
2025-01-10 10:09:01.36	348.09	27.88	
2025-01-10 10:09:01.57	348.07	27.84	
2025-01-10 10:09:01.77	348.06	27.81	
2025-01-10 10:09:01.98	348.05	27.77	
2025-01-10 10:09:02.18	348.04	27.74	
2025-01-10 10:09:02.39	348.03	27.70	
2025-01-10 10:09:02.59	348.02	27.67	
2025-01-10 10:09:02.80	348.01	27.63	
2025-01-10 10:09:03.00	348.00	27.60	
2025-01-10 10:09:03.21	347.98	27.56	
2025-01-10 10:09:03.41	347.97	27.53	
2025-01-10 10:09:03.62	347.96	27.49	
2025-01-10 10:09:03.82	347.95	27.46	
2025-01-10 10:09:04.03	347.94	27.42	
2025-01-10 10:09:04.23	347.93	27.39	
2025-01-10 10:09:04.44	347.92	27.35	
2025-01-10 10:09:04.64	347.91	27.32	
2025-01-10 10:09:04.85	347.90	27.28	
2025-01-10 10:09:05.05	347.88	27.25	
2025-01-10 10:09:05.26	347.87	27.21	
2025-01-10 10:09:05.46	347.86	27.18	
2025-01-10 10:09:05.67	347.85	27.14	
2025-01-10 10:09:05.87	347.84	27.11	
2025-01-10 10:09:06.08	347.83	27.07	
2025-01-10 10:09:06.28	347.82	27.04	
2025-01-10 10:09:06.48	347.81	27.00	
2025-01-10 10:09:06.69	347.80	26.97	
2025-01-10 10:09:06.90	347.79	26.93	
2025-01-10 10:09:07.10	347.78	26.90	
2025-01-10 10:09:07.31	347.77	26.86	
2025-01-10 10:09:07.51	347.75	26.83	
2025-01-10 10:09:07.73	347.74	26.79	
2025-01-10 10:09:07.94	347.73	26.76	
2025-01-10 10:09:08.14	347.72	26.73	
2025-01-10 10:09:08.35	347.71	26.69	
2025-01-10 10:09:08.55	347.70	26.66	
2025-01-10 10:09:08.76	347.69	26.62	
2025-01-10 10:09:08.96	347.68	26.59	
2025-01-10 10:09:09.17	347.67	26.55	
2025-01-10 10:09:09.37	347.66	26.52	
2025-01-10 10:09:09.58	347.65	26.49	
2025-01-10 10:09:09.78	347.64	26.45	
2025-01-10 10:09:09.99	347.63	26.42	
2025-01-10 10:09:10.19	347.62	26.39	
2025-01-10 10:09:10.40	347.61	26.35	
2025-01-10 10:09:10.60	347.60	26.32	
2025-01-10 10:09:10.81	347.59	26.28	
2025-01-10 10:09:11.01	347.58	26.25	
2025-01-10 10:09:11.21	347.57	26.22	
2025-01-10 10:09:11.42	347.56	26.18	
2025-01-10 10:09:11.64	347.54	26.15	
2025-01-10 10:09:11.84	347.53	26.12	
2025-01-10 10:09:12.05	347.52	26.08	
2025-01-10 10:09:12.25	347.51	26.05	
2025-01-10 10:09:12.46	347.50	26.01	
2025-01-10 10:09:12.66	347.49	25.98	
2025-01-10 10:09:12.87	347.48	25.95	
2025-01-10 10:09:13.08	347.47	25.91	
2025-01-10 10:09:13.28	347.46	25.88	
2025-01-10 10:09:13.49	347.45	25.85	
2025-01-10 10:09:13.69	347.44	25.82	
2025-01-10 10:09:13.90	347.43	25.78	
2025-01-10 10:09:14.10	347.42	25.75	
2025-01-10 10:09:14.31	347.41	25.72	
2025-01-10 10:09:14.51	347.40	25.68	
2025-01-10 10:09:14.72	347.39	25.65	
2025-01-10 10:09:14.92	347.38	25.62	
2025-01-10 10:09:15.13	347.37	25.58	
2025-01-10 10:09:15.34	347.36	25.55	
2025-01-10 10:09:15.54	347.35	25.52	
2025-01-10 10:09:15.74	347.35	25.49	
2025-01-10 10:09:15.95	347.34	25.45	
2025-01-10 10:09:16.16	347.33	25.42	
2025-01-10 10:09:16.36	347.32	25.39	
2025-01-10 10:09:16.57	347.31	25.35	
2025-01-10 10:09:16.77	347.30	25.32	
2025-01-10 10:09:16.98	347.29	25.29	
2025-01-10 10:09:17.19	347.28	25.26	
2025-01-10 10:09:17.39	347.27	25.23	
2025-01-10 10:09:17.60	347.26	25.19	
2025-01-10 10:09:17.80	347.25	25.16	
2025-01-10 10:09:18.01	347.24	25.13	
2025-01-10 10:09:18.21	347.23	25.10	
2025-01-10 10:09:18.42	347.22	25.06	
2025-01-10 10:09:18.62	347.21	25.03	
2025-01-10 10:09:18.83	347.20	25.00	
2025-01-10 10:09:19.03	347.19	24.97	
2025-01-10 10:09:19.24	347.18	24.93	
2025-01-10 10:09:19.44	347.17	24.90	
2025-01-10 10:09:19.65	347.16	24.87	
2025-01-10 10:09:19.86	347.15	24.84	
2025-01-10 10:09:20.06	347.14	24.81	
2025-01-10 10:09:20.27	347.14	24.77	
2025-01-10 10:09:20.47	347.13	24.74	
2025-01-10 10:09:20.68	347.12	24.71	
2025-01-10 10:09:20.88	347.11	24.68	
2025-01-10 10:09:21.09	347.10	24.65	
2025-01-10 10:09:21.29	347.09	24.62	
2025-01-10 10:09:21.50	347.08	24.58	
2025-01-10 10:09:21.70	347.07	24.55	
2025-01-10 10:09:21.91	347.06	24.52	
2025-01-10 10:09:22.12	347.05	24.49	
2025-01-10 10:09:22.32	347.04	24.46	
2025-01-10 10:09:22.52	347.03	24.43	
2025-01-10 10:09:22.73	347.03	24.40	
2025-01-10 10:09:22.93	347.02	24.36	
2025-01-10 10:09:23.14	347.01	24.33	
2025-01-10 10:09:23.34	347.00	24.30	
2025-01-10 10:09:23.55	346.99	24.27	
2025-01-10 10:09:23.75	346.98	24.24	
2025-01-10 10:09:23.96	346.97	24.21	
2025-01-10 10:09:24.17	346.96	24.18	
2025-01-10 10:09:24.38	346.95	24.14	
2025-01-10 10:09:24.59	346.94	24.11	
2025-01-10 10:09:24.79	346.94	24.08	
2025-01-10 10:09:25.00	346.93	24.05	
2025-01-10 10:09:25.21	346.92	24.02	
2025-01-10 10:09:25.41	346.91	23.99	
2025-01-10 10:09:25.62	346.90	23.96	
2025-01-10 10:09:25.82	346.89	23.93	
2025-01-10 10:09:26.03	346.88	23.89	
2025-01-10 10:09:26.23	346.87	23.86	
2025-01-10 10:09:26.43	346.87	23.83	
2025-01-10 10:09:26.64	346.86	23.80	
2025-01-10 10:09:26.85	346.85	23.77	
2025-01-10 10:09:27.05	346.84	23.74	
2025-01-10 10:09:27.26	346.83	23.71	
2025-01-10 10:09:27.46	346.82	23.68	
2025-01-10 10:09:27.67	346.81	23.65	
2025-01-10 10:09:27.87	346.80	23.62	
2025-01-10 10:09:28.08	346.80	23.59	
2025-01-10 10:09:28.29	346.79	23.56	
2025-01-10 10:09:28.49	346.78	23.53	
2025-01-10 10:09:28.71	346.77	23.50	
2025-01-10 10:09:28.91	346.76	23.47	
2025-01-10 10:09:29.12	346.75	23.43	
2025-01-10 10:09:29.34	346.74	23.40	
2025-01-10 10:09:29.54	346.74	23.37	
2025-01-10 10:09:29.76	346.73	23.34	
2025-01-10 10:09:29.97	346.72	23.31	
2025-01-10 10:09:30.17	346.71	23.28	
2025-01-10 10:09:30.38	346.70	23.25	
2025-01-10 10:09:30.58	346.69	23.22	
2025-01-10 10:09:30.79	346.68	23.19	
2025-01-10 10:09:30.99	346.68	23.16	
2025-01-10 10:09:31.20	346.67	23.13	
2025-01-10 10:09:31.40	346.66	23.10	
2025-01-10 10:09:31.61	346.65	23.07	
2025-01-10 10:09:31.81	346.64	23.04	
2025-01-10 10:09:32.01	346.64	23.01	
2025-01-10 10:09:32.22	346.63	22.98	
2025-01-10 10:09:32.43	346.62	22.95	
2025-01-10 10:09:32.63	346.61	22.92	
2025-01-10 10:09:32.84	346.60	22.89	
2025-01-10 10:09:33.04	346.59	22.86	
2025-01-10 10:09:33.25	346.59	22.83	
2025-01-10 10:09:33.45	346.58	22.80	
2025-01-10 10:09:33.66	346.57	22.77	
2025-01-10 10:09:33.86	346.56	22.74	
2025-01-10 10:09:34.06	346.55	22.72	
2025-01-10 10:09:34.27	346.55	22.69	
2025-01-10 10:09:34.48	346.54	22.65	
2025-01-10 10:09:34.68	346.53	22.63	
2025-01-10 10:09:34.89	346.52	22.60	
2025-01-10 10:09:35.11	346.51	22.56	
2025-01-10 10:09:35.31	346.51	22.54	
2025-01-10 10:09:35.52	346.50	22.51	
2025-01-10 10:09:35.73	346.49	22.48	
2025-01-10 10:09:35.93	346.48	22.45	
2025-01-10 10:09:36.13	346.47	22.42	
2025-01-10 10:09:36.34	346.47	22.39	
2025-01-10 10:09:36.55	346.46	22.36	
2025-01-10 10:09:36.75	346.45	22.33	
2025-01-10 10:09:36.96	346.44	22.30	
2025-01-10 10:09:37.17	346.43	22.27	
2025-01-10 10:09:37.38	346.43	22.24	
2025-01-10 10:09:37.58	346.42	22.21	
2025-01-10 10:09:37.79	346.41	22.18	
2025-01-10 10:09:38.00	346.40	22.16	
2025-01-10 10:09:38.20	346.39	22.13	
2025-01-10 10:09:38.41	346.39	22.10	
2025-01-10 10:09:38.61	346.38	22.07	
2025-01-10 10:09:38.82	346.37	22.04	
2025-01-10 10:09:39.02	346.36	22.01	
2025-01-10 10:09:39.23	346.36	21.98	
2025-01-10 10:09:39.43	346.35	21.96	
2025-01-10 10:09:39.64	346.34	21.93	
2025-01-10 10:09:39.84	346.33	21.90	
2025-01-10 10:09:40.05	346.33	21.87	
2025-01-10 10:09:40.25	346.32	21.84	
2025-01-10 10:09:40.47	346.31	21.81	
2025-01-10 10:09:40.68	346.30	21.78	
2025-01-10 10:09:40.88	346.30	21.75	
2025-01-10 10:09:41.09	346.29	21.72	
2025-01-10 10:09:41.29	346.28	21.70	
2025-01-10 10:09:41.50	346.27	21.67	
2025-01-10 10:09:41.70	346.27	21.64	
2025-01-10 10:09:41.90	346.26	21.61	
2025-01-10 10:09:42.11	346.25	21.58	
2025-01-10 10:09:42.32	346.24	21.56	
2025-01-10 10:09:42.52	346.24	21.53	
2025-01-10 10:09:42.73	346.23	21.50	
2025-01-10 10:09:42.93	346.22	21.47	
2025-01-10 10:09:43.14	346.21	21.44	
2025-01-10 10:09:43.34	346.21	21.42	
2025-01-10 10:09:43.55	346.20	21.39	
2025-01-10 10:09:43.75	346.19	21.36	
2025-01-10 10:09:43.96	346.18	21.33	
2025-01-10 10:09:44.16	346.18	21.30	
2025-01-10 10:09:44.37	346.17	21.28	
2025-01-10 10:09:44.58	346.16	21.25	
2025-01-10 10:09:44.78	346.16	21.22	
2025-01-10 10:09:44.98	346.15	21.19	
2025-01-10 10:09:45.19	346.14	21.16	
2025-01-10 10:09:45.40	346.13	21.14	
2025-01-10 10:09:45.60	346.13	21.11	
2025-01-10 10:09:45.81	346.12	21.08	
2025-01-10 10:09:46.01	346.11	21.05	
2025-01-10 10:09:46.22	346.10	21.03	
2025-01-10 10:09:46.42	346.10	21.00	
2025-01-10 10:09:46.63	346.09	20.97	
2025-01-10 10:09:46.83	346.08	20.94	
2025-01-10 10:09:47.04	346.08	20.91	
2025-01-10 10:09:47.24	346.07	20.89	
2025-01-10 10:09:47.45	346.06	20.86	
2025-01-10 10:09:47.65	346.06	20.83	
2025-01-10 10:09:47.86	346.05	20.81	
2025-01-10 10:09:48.06	346.04	20.78	
2025-01-10 10:09:48.27	346.03	20.75	
2025-01-10 10:09:48.47	346.03	20.72	
2025-01-10 10:09:48.68	346.02	20.70	
2025-01-10 10:09:48.88	346.01	20.67	
2025-01-10 10:09:49.09	346.01	20.64	
2025-01-10 10:09:49.30	346.00	20.61	
2025-01-10 10:09:49.50	345.99	20.59	
2025-01-10 10:09:49.71	345.99	20.56	
2025-01-10 10:09:49.91	345.98	20.53	
2025-01-10 10:09:50.12	345.97	20.51	
2025-01-10 10:09:50.32	345.97	20.48	
2025-01-10 10:09:50.53	345.96	20.45	
2025-01-10 10:09:50.74	345.95	20.42	
2025-01-10 10:09:50.94	345.94	20.40	
2025-01-10 10:09:51.14	345.94	20.37	
2025-01-10 10:09:51.35	345.93	20.34	
2025-01-10 10:09:51.55	345.92	20.32	
2025-01-10 10:09:51.76	345.92	20.29	
2025-01-10 10:09:51.97	345.91	20.26	
2025-01-10 10:09:52.18	345.90	20.24	
2025-01-10 10:09:52.39	345.90	20.21	
2025-01-10 10:09:52.60	345.89	20.18	
2025-01-10 10:09:52.80	345.88	20.15	
2025-01-10 10:09:53.01	345.88	20.13	
2025-01-10 10:09:53.21	345.87	20.10	
2025-01-10 10:09:53.42	345.86	20.07	
2025-01-10 10:09:53.62	345.86	20.05	
2025-01-10 10:09:53.83	345.85	20.02	
2025-01-10 10:09:54.03	345.84	20.00	
2025-01-10 10:09:54.23	345.84	19.97	
2025-01-10 10:09:54.44	345.83	19.94	
2025-01-10 10:09:54.65	345.82	19.92	
2025-01-10 10:09:54.85	345.82	19.89	
2025-01-10 10:09:55.06	345.81	19.86	
2025-01-10 10:09:55.26	345.80	19.84	
2025-01-10 10:09:55.47	345.80	19.81	
2025-01-10 10:09:55.67	345.79	19.78	
2025-01-10 10:09:55.88	345.78	19.76	
2025-01-10 10:09:56.08	345.78	19.73	
2025-01-10 10:09:56.29	345.77	19.71	
2025-01-10 10:09:56.49	345.76	19.68	
2025-01-10 10:09:56.70	345.76	19.65	
2025-01-10 10:09:56.90	345.75	19.63	
2025-01-10 10:09:57.11	345.75	19.60	
2025-01-10 10:09:57.31	345.74	19.58	
2025-01-10 10:09:57.52	345.73	19.55	
2025-01-10 10:09:57.72	345.73	19.52	
2025-01-10 10:09:57.93	345.72	19.50	
2025-01-10 10:09:58.13	345.71	19.47	
2025-01-10 10:09:58.34	345.71	19.44	
2025-01-10 10:09:58.56	345.70	19.42	
2025-01-10 10:09:58.76	345.69	19.39	
2025-01-10 10:09:58.97	345.69	19.37	
2025-01-10 10:09:59.17	345.68	19.34	
2025-01-10 10:09:59.38	345.68	19.31	
2025-01-10 10:09:59.58	345.67	19.29	
2025-01-10 10:09:59.79	345.66	19.26	
2025-01-10 10:10:00.00	345.66	19.24	
2025-01-10 10:10:00.20	345.65	19.21	
2025-01-10 10:10:00.41	345.64	19.18	
2025-01-10 10:10:00.61	345.64	19.16	
2025-01-10 10:10:00.81	345.63	19.13	
2025-01-10 10:10:01.02	345.63	19.11	
2025-01-10 10:10:01.23	345.62	19.08	
2025-01-10 10:10:01.43	345.61	19.06	
2025-01-10 10:10:01.64	345.61	19.03	
2025-01-10 10:10:01.84	345.60	19.01	
2025-01-10 10:10:02.05	345.59	18.98	
2025-01-10 10:10:02.25	345.59	18.96	
2025-01-10 10:10:02.46	345.58	18.93	
2025-01-10 10:10:02.67	345.58	18.90	
2025-01-10 10:10:02.87	345.57	18.88	
2025-01-10 10:10:03.07	345.56	18.85	
2025-01-10 10:10:03.28	345.56	18.83	
2025-01-10 10:10:03.49	345.55	18.80	
2025-01-10 10:10:03.69	345.55	18.78	
2025-01-10 10:10:03.90	345.54	18.75	
2025-01-10 10:10:04.10	345.53	18.73	
2025-01-10 10:10:04.31	345.53	18.70	
2025-01-10 10:10:04.51	345.52	18.68	
2025-01-10 10:10:04.72	345.52	18.65	
2025-01-10 10:10:04.92	345.51	18.63	
2025-01-10 10:10:05.13	345.50	18.60	
2025-01-10 10:10:05.33	345.50	18.58	
2025-01-10 10:10:05.54	345.49	18.55	
2025-01-10 10:10:05.74	345.49	18.53	
2025-01-10 10:10:05.95	345.48	18.50	
2025-01-10 10:10:06.15	345.47	18.48	
2025-01-10 10:10:06.36	345.47	18.45	
2025-01-10 10:10:06.56	345.46	18.43	
2025-01-10 10:10:06.77	345.46	18.40	
2025-01-10 10:10:06.97	345.45	18.38	
2025-01-10 10:10:07.18	345.44	18.35	
2025-01-10 10:10:07.38	345.44	18.33	
2025-01-10 10:10:07.59	345.43	18.30	
2025-01-10 10:10:07.79	345.43	18.28	
2025-01-10 10:10:08.00	345.42	18.25	
2025-01-10 10:10:08.21	345.41	18.23	
2025-01-10 10:10:08.41	345.41	18.20	
2025-01-10 10:10:08.62	345.40	18.18	
2025-01-10 10:10:08.82	345.40	18.15	
2025-01-10 10:10:09.03	345.39	18.13	
2025-01-10 10:10:09.25	345.39	18.10	
2025-01-10 10:10:09.45	345.38	18.08	
2025-01-10 10:10:09.66	345.37	18.05	
2025-01-10 10:10:09.86	345.37	18.03	
2025-01-10 10:10:10.07	345.36	18.00	
2025-01-10 10:10:10.27	345.36	17.98	
2025-01-10 10:10:10.48	345.35	17.96	
2025-01-10 10:10:10.69	345.35	17.93	
2025-01-10 10:10:10.89	345.34	17.91	
2025-01-10 10:10:11.10	345.33	17.88	
2025-01-10 10:10:11.30	345.33	17.86	
2025-01-10 10:10:11.51	345.32	17.83	
2025-01-10 10:10:11.71	345.32	17.81	
2025-01-10 10:10:11.92	345.31	17.78	
2025-01-10 10:10:12.12	345.31	17.76	
2025-01-10 10:10:12.33	345.30	17.74	
2025-01-10 10:10:12.53	345.30	17.71	
2025-01-10 10:10:12.74	345.29	17.69	
2025-01-10 10:10:12.95	345.28	17.66	
2025-01-10 10:10:13.15	345.28	17.64	
2025-01-10 10:10:13.36	345.27	17.61	
2025-01-10 10:10:13.56	345.27	17.59	
2025-01-10 10:10:13.77	345.26	17.57	
2025-01-10 10:10:13.97	345.26	17.54	
2025-01-10 10:10:14.18	345.25	17.52	
2025-01-10 10:10:14.39	345.24	17.49	
2025-01-10 10:10:14.59	345.24	17.47	
2025-01-10 10:10:14.80	345.23	17.45	
2025-01-10 10:10:15.00	345.23	17.42	
2025-01-10 10:10:15.21	345.22	17.40	
2025-01-10 10:10:15.41	345.22	17.38	
2025-01-10 10:10:15.62	345.21	17.35	
2025-01-10 10:10:15.82	345.21	17.33	
2025-01-10 10:10:16.03	345.20	17.30	
2025-01-10 10:10:16.23	345.20	17.28	
2025-01-10 10:10:16.44	345.19	17.26	
2025-01-10 10:10:16.65	345.18	17.23	
2025-01-10 10:10:16.85	345.18	17.21	
2025-01-10 10:10:17.05	345.17	17.19	
2025-01-10 10:10:17.26	345.17	17.16	
2025-01-10 10:10:17.47	345.16	17.14	
2025-01-10 10:10:17.67	345.16	17.11	
2025-01-10 10:10:17.88	345.15	17.09	
2025-01-10 10:10:18.08	345.15	17.07	
2025-01-10 10:10:18.29	345.14	17.04	
2025-01-10 10:10:18.50	345.14	17.02	
2025-01-10 10:10:18.70	345.13	17.00	
2025-01-10 10:10:18.92	345.13	16.97	
2025-01-10 10:10:19.13	345.12	16.95	
2025-01-10 10:10:19.33	345.12	16.92	
2025-01-10 10:10:19.54	345.11	16.90	
2025-01-10 10:10:19.74	345.10	16.88	
2025-01-10 10:10:19.95	345.10	16.85	
2025-01-10 10:10:20.15	345.09	16.83	
2025-01-10 10:10:20.36	345.09	16.81	
2025-01-10 10:10:20.56	345.08	16.78	
2025-01-10 10:10:20.78	345.08	16.76	
2025-01-10 10:10:20.98	345.07	16.74	
2025-01-10 10:10:21.19	345.07	16.71	
2025-01-10 10:10:21.40	345.06	16.69	
2025-01-10 10:10:21.60	345.06	16.67	
2025-01-10 10:10:21.81	345.05	16.64	
2025-01-10 10:10:22.01	345.05	16.62	
2025-01-10 10:10:22.22	345.04	16.60	
2025-01-10 10:10:22.43	345.04	16.57	
2025-01-10 10:10:22.63	345.03	16.55	
2025-01-10 10:10:22.84	345.03	16.53	
2025-01-10 10:10:23.04	345.02	16.50	
2025-01-10 10:10:23.25	345.02	16.48	
2025-01-10 10:10:23.45	345.01	16.46	
2025-01-10 10:10:23.66	345.01	16.43	
2025-01-10 10:10:23.86	345.00	16.41	
2025-01-10 10:10:24.07	345.00	16.39	
2025-01-10 10:10:24.29	344.99	16.36	
2025-01-10 10:10:24.49	344.99	16.34	
2025-01-10 10:10:24.70	344.98	16.32	
2025-01-10 10:10:24.91	344.98	16.29	
2025-01-10 10:10:25.11	344.97	16.27	
2025-01-10 10:10:25.33	344.97	16.25	
2025-01-10 10:10:25.53	344.96	16.23	
2025-01-10 10:10:25.74	344.96	16.20	
2025-01-10 10:10:25.95	344.95	16.18	
2025-01-10 10:10:26.16	344.95	16.16	
2025-01-10 10:10:26.36	344.94	16.13	
2025-01-10 10:10:26.57	344.94	16.11	
2025-01-10 10:10:26.78	344.93	16.09	
2025-01-10 10:10:26.98	344.93	16.06	
2025-01-10 10:10:27.19	344.92	16.04	
2025-01-10 10:10:27.39	344.92	16.02	
2025-01-10 10:10:27.60	344.91	16.00	
2025-01-10 10:10:27.80	344.91	15.97	
2025-01-10 10:10:28.01	344.90	15.95	
2025-01-10 10:10:28.21	344.90	15.93	
2025-01-10 10:10:28.42	344.89	15.91	
2025-01-10 10:10:28.62	344.89	15.88	
2025-01-10 10:10:28.83	344.88	15.86	
2025-01-10 10:10:29.03	344.88	15.84	
2025-01-10 10:10:29.24	344.87	15.82	
2025-01-10 10:10:29.44	344.87	15.79	
2025-01-10 10:10:29.65	344.86	15.77	
2025-01-10 10:10:29.85	344.86	15.75	
2025-01-10 10:10:30.06	344.85	15.73	
2025-01-10 10:10:30.27	344.85	15.70	
2025-01-10 10:10:30.47	344.84	15.68	
2025-01-10 10:10:30.68	344.84	15.66	
2025-01-10 10:10:30.88	344.83	15.64	
2025-01-10 10:10:31.09	344.83	15.62	
2025-01-10 10:10:31.29	344.82	15.59	
2025-01-10 10:10:31.50	344.82	15.57	
2025-01-10 10:10:31.70	344.81	15.55	
2025-01-10 10:10:31.91	344.81	15.53	
2025-01-10 10:10:32.11	344.81	15.51	
2025-01-10 10:10:32.32	344.80	15.48	
2025-01-10 10:10:32.52	344.80	15.46	
2025-01-10 10:10:32.73	344.79	15.44	
2025-01-10 10:10:32.93	344.79	15.42	
2025-01-10 10:10:33.14	344.78	15.39	
2025-01-10 10:10:33.34	344.78	15.37	
2025-01-10 10:10:33.55	344.77	15.35	
2025-01-10 10:10:33.75	344.77	15.33	
2025-01-10 10:10:33.96	344.76	15.31	
2025-01-10 10:10:34.16	344.76	15.29	
2025-01-10 10:10:34.37	344.75	15.26	
2025-01-10 10:10:34.57	344.75	15.24	
2025-01-10 10:10:34.78	344.74	15.22	
2025-01-10 10:10:34.98	344.74	15.20	
2025-01-10 10:10:35.19	344.74	15.18	
2025-01-10 10:10:35.39	344.73	15.15	
2025-01-10 10:10:35.60	344.73	15.13	
2025-01-10 10:10:35.80	344.72	15.11	
2025-01-10 10:10:36.02	344.72	15.09	
2025-01-10 10:10:36.23	344.71	15.06	
2025-01-10 10:10:36.43	344.71	15.04	
2025-01-10 10:10:36.64	344.70	15.02	
2025-01-10 10:10:36.84	344.70	15.00	
2025-01-10 10:10:37.05	344.69	14.98	
2025-01-10 10:10:37.25	344.69	14.96	
2025-01-10 10:10:37.46	344.69	14.93	
2025-01-10 10:10:37.67	344.68	14.91	
2025-01-10 10:10:37.87	344.68	14.89	
2025-01-10 10:10:38.08	344.67	14.87	
2025-01-10 10:10:38.28	344.67	14.85	
2025-01-10 10:10:38.49	344.66	14.83	
2025-01-10 10:10:38.69	344.66	14.81	
2025-01-10 10:10:38.90	344.65	14.78	
2025-01-10 10:10:39.12	344.65	14.76	
2025-01-10 10:10:39.32	344.64	14.74	
2025-01-10 10:10:39.53	344.64	14.72	
2025-01-10 10:10:39.73	344.64	14.70	
2025-01-10 10:10:39.93	344.63	14.68	
2025-01-10 10:10:40.14	344.63	14.65	
2025-01-10 10:10:40.34	344.62	14.63	
2025-01-10 10:10:40.55	344.62	14.61	
2025-01-10 10:10:40.75	344.61	14.59	
2025-01-10 10:10:40.95	344.61	14.57	
2025-01-10 10:10:41.16	344.61	14.55	
2025-01-10 10:10:41.36	344.60	14.53	
2025-01-10 10:10:41.57	344.60	14.51	
2025-01-10 10:10:41.78	344.59	14.48	
2025-01-10 10:10:41.98	344.59	14.46	
2025-01-10 10:10:42.19	344.58	14.44	
2025-01-10 10:10:42.41	344.58	14.42	
2025-01-10 10:10:42.61	344.57	14.40	
2025-01-10 10:10:42.82	344.57	14.38	
2025-01-10 10:10:43.02	344.57	14.36	
2025-01-10 10:10:43.23	344.56	14.33	
2025-01-10 10:10:43.43	344.56	14.31	
2025-01-10 10:10:43.64	344.55	14.29	
2025-01-10 10:10:43.84	344.55	14.27	
2025-01-10 10:10:44.05	344.54	14.25	
2025-01-10 10:10:44.25	344.54	14.23	
2025-01-10 10:10:44.46	344.54	14.21	
2025-01-10 10:10:44.66	344.53	14.19	
2025-01-10 10:10:44.86	344.53	14.17	
2025-01-10 10:10:45.07	344.52	14.15	
2025-01-10 10:10:45.27	344.52	14.13	
2025-01-10 10:10:45.48	344.52	14.10	
2025-01-10 10:10:45.69	344.51	14.08	
2025-01-10 10:10:45.90	344.51	14.06	
2025-01-10 10:10:46.10	344.50	14.04	
2025-01-10 10:10:46.30	344.50	14.02	
2025-01-10 10:10:46.51	344.49	14.00	
2025-01-10 10:10:46.71	344.49	13.98	
2025-01-10 10:10:46.92	344.49	13.96	
2025-01-10 10:10:47.12	344.48	13.94	
2025-01-10 10:10:47.33	344.48	13.92	
2025-01-10 10:10:47.53	344.47	13.90	
2025-01-10 10:10:47.75	344.47	13.87	
2025-01-10 10:10:47.96	344.46	13.85	
2025-01-10 10:10:48.16	344.46	13.83	
2025-01-10 10:10:48.37	344.46	13.81	
2025-01-10 10:10:48.57	344.45	13.79	
2025-01-10 10:10:48.78	344.45	13.77	
2025-01-10 10:10:48.99	344.44	13.75	
2025-01-10 10:10:49.19	344.44	13.73	
2025-01-10 10:10:49.40	344.44	13.71	
2025-01-10 10:10:49.60	344.43	13.69	
2025-01-10 10:10:49.80	344.43	13.67	
2025-01-10 10:10:50.01	344.42	13.65	
2025-01-10 10:10:50.22	344.42	13.63	
2025-01-10 10:10:50.42	344.42	13.61	
2025-01-10 10:10:50.63	344.41	13.59	
2025-01-10 10:10:50.83	344.41	13.57	
2025-01-10 10:10:51.04	344.40	13.54	
2025-01-10 10:10:51.24	344.40	13.52	
2025-01-10 10:10:51.45	344.40	13.50	
2025-01-10 10:10:51.66	344.39	13.48	
2025-01-10 10:10:51.86	344.39	13.46	
2025-01-10 10:10:52.07	344.38	13.44	
2025-01-10 10:10:52.27	344.38	13.42	
2025-01-10 10:10:52.48	344.38	13.40	
2025-01-10 10:10:52.68	344.37	13.38	
2025-01-10 10:10:52.89	344.37	13.36	
2025-01-10 10:10:53.09	344.36	13.34	
2025-01-10 10:10:53.30	344.36	13.32	
2025-01-10 10:10:53.50	344.36	13.30	
2025-01-10 10:10:53.71	344.35	13.28	
2025-01-10 10:10:53.91	344.35	13.26	
2025-01-10 10:10:54.13	344.34	13.24	
2025-01-10 10:10:54.34	344.34	13.22	
2025-01-10 10:10:54.54	344.34	13.20	
2025-01-10 10:10:54.75	344.33	13.18	
2025-01-10 10:10:54.95	344.33	13.16	
2025-01-10 10:10:55.16	344.32	13.14	
2025-01-10 10:10:55.36	344.32	13.12	
2025-01-10 10:10:55.57	344.32	13.10	
2025-01-10 10:10:55.77	344.31	13.08	
2025-01-10 10:10:55.98	344.31	13.06	
2025-01-10 10:10:56.20	344.30	13.04	
2025-01-10 10:10:56.40	344.30	13.02	
2025-01-10 10:10:56.61	344.30	13.00	
2025-01-10 10:10:56.82	344.29	12.98	
2025-01-10 10:10:57.02	344.29	12.96	
2025-01-10 10:10:57.23	344.29	12.94	
2025-01-10 10:10:57.43	344.28	12.92	
2025-01-10 10:10:57.63	344.28	12.90	
2025-01-10 10:10:57.84	344.27	12.88	
2025-01-10 10:10:58.04	344.27	12.86	
2025-01-10 10:10:58.25	344.27	12.84	
2025-01-10 10:10:58.45	344.26	12.82	
2025-01-10 10:10:58.66	344.26	12.80	
2025-01-10 10:10:58.87	344.25	12.78	
2025-01-10 10:10:59.07	344.25	12.76	
2025-01-10 10:10:59.28	344.25	12.74	
2025-01-10 10:10:59.48	344.24	12.72	
2025-01-10 10:10:59.69	344.24	12.70	
2025-01-10 10:10:59.90	344.24	12.68	
2025-01-10 10:11:00.10	344.23	12.66	
2025-01-10 10:11:00.30	344.23	12.64	
2025-01-10 10:11:00.52	344.22	12.62	
2025-01-10 10:11:00.73	344.22	12.60	
2025-01-10 10:11:00.93	344.22	12.58	
2025-01-10 10:11:01.14	344.21	12.56	
2025-01-10 10:11:01.35	344.21	12.54	
2025-01-10 10:11:01.55	344.21	12.52	
2025-01-10 10:11:01.76	344.20	12.50	
2025-01-10 10:11:01.96	344.20	12.48	
2025-01-10 10:11:02.17	344.19	12.46	
2025-01-10 10:11:02.37	344.19	12.44	
2025-01-10 10:11:02.58	344.19	12.42	
2025-01-10 10:11:02.78	344.18	12.40	
2025-01-10 10:11:02.99	344.18	12.38	
2025-01-10 10:11:03.20	344.18	12.36	
2025-01-10 10:11:03.40	344.17	12.34	
2025-01-10 10:11:03.60	344.17	12.32	
2025-01-10 10:11:03.81	344.17	12.30	
2025-01-10 10:11:04.02	344.16	12.28	
2025-01-10 10:11:04.22	344.16	12.27	
2025-01-10 10:11:04.43	344.15	12.25	
2025-01-10 10:11:04.63	344.15	12.23	
2025-01-10 10:11:04.84	344.15	12.21	
2025-01-10 10:11:05.04	344.14	12.19	
2025-01-10 10:11:05.25	344.14	12.17	
2025-01-10 10:11:05.46	344.14	12.15	
2025-01-10 10:11:05.66	344.13	12.13	
2025-01-10 10:11:05.87	344.13	12.11	
2025-01-10 10:11:06.07	344.13	12.09	
2025-01-10 10:11:06.28	344.12	12.07	
2025-01-10 10:11:06.48	344.12	12.05	
2025-01-10 10:11:06.69	344.12	12.03	
2025-01-10 10:11:06.89	344.11	12.02	
2025-01-10 10:11:07.10	344.11	12.00	
2025-01-10 10:11:07.30	344.10	11.98	
2025-01-10 10:11:07.51	344.10	11.96	
2025-01-10 10:11:07.71	344.10	11.94	
2025-01-10 10:11:07.92	344.09	11.92	
2025-01-10 10:11:08.12	344.09	11.90	
2025-01-10 10:11:08.32	344.09	11.88	
2025-01-10 10:11:08.53	344.08	11.86	
2025-01-10 10:11:08.74	344.08	11.84	
2025-01-10 10:11:08.94	344.08	11.82	
2025-01-10 10:11:09.14	344.07	11.81	
2025-01-10 10:11:09.35	344.07	11.79	
2025-01-10 10:11:09.56	344.07	11.77	
2025-01-10 10:11:09.76	344.06	11.75	
2025-01-10 10:11:09.97	344.06	11.73	
2025-01-10 10:11:10.19	344.06	11.71	
2025-01-10 10:11:10.39	344.05	11.69	
2025-01-10 10:11:10.60	344.05	11.67	
2025-01-10 10:11:10.80	344.05	11.65	
2025-01-10 10:11:11.01	344.04	11.63	
2025-01-10 10:11:11.21	344.04	11.61	
2025-01-10 10:11:11.42	344.03	11.59	
2025-01-10 10:11:11.62	344.03	11.58	
2025-01-10 10:11:11.83	344.03	11.56	
2025-01-10 10:11:12.04	344.02	11.54	
2025-01-10 10:11:12.24	344.02	11.52	
2025-01-10 10:11:12.45	344.02	11.50	
2025-01-10 10:11:12.65	344.01	11.48	
2025-01-10 10:11:12.86	344.01	11.46	
2025-01-10 10:11:13.06	344.01	11.44	
2025-01-10 10:11:13.27	344.00	11.43	
2025-01-10 10:11:13.47	344.00	11.41	
2025-01-10 10:11:13.68	344.00	11.39	
2025-01-10 10:11:13.89	343.99	11.37	
2025-01-10 10:11:14.09	343.99	11.35	
2025-01-10 10:11:14.29	343.99	11.33	
2025-01-10 10:11:14.50	343.98	11.31	
2025-01-10 10:11:14.70	343.98	11.30	
2025-01-10 10:11:14.91	343.98	11.28	
2025-01-10 10:11:15.11	343.97	11.26	
2025-01-10 10:11:15.32	343.97	11.24	
2025-01-10 10:11:15.53	343.97	11.22	
2025-01-10 10:11:15.73	343.96	11.20	
2025-01-10 10:11:15.94	343.96	11.18	
2025-01-10 10:11:16.14	343.96	11.16	
2025-01-10 10:11:16.35	343.95	11.15	
2025-01-10 10:11:16.55	343.95	11.13	
2025-01-10 10:11:16.75	343.95	11.11	
2025-01-10 10:11:16.96	343.94	11.09	
2025-01-10 10:11:17.16	343.94	11.07	
2025-01-10 10:11:17.37	343.94	11.05	
2025-01-10 10:11:17.57	343.93	11.04	
2025-01-10 10:11:17.78	343.93	11.02	
2025-01-10 10:11:17.98	343.93	11.00	
2025-01-10 10:11:18.19	343.93	10.98	
2025-01-10 10:11:18.40	343.92	10.96	
2025-01-10 10:11:18.60	343.92	10.94	
2025-01-10 10:11:18.80	343.92	10.93	
2025-01-10 10:11:19.01	343.91	10.91	
2025-01-10 10:11:19.21	343.91	10.89	
2025-01-10 10:11:19.42	343.91	10.87	
2025-01-10 10:11:19.63	343.90	10.85	
2025-01-10 10:11:19.83	343.90	10.83	
2025-01-10 10:11:20.04	343.90	10.81	
2025-01-10 10:11:20.24	343.89	10.80	
2025-01-10 10:11:20.44	343.89	10.78	
2025-01-10 10:11:20.65	343.89	10.76	
2025-01-10 10:11:20.85	343.88	10.74	
2025-01-10 10:11:21.06	343.88	10.72	
2025-01-10 10:11:21.27	343.88	10.71	
2025-01-10 10:11:21.47	343.87	10.69	
2025-01-10 10:11:21.68	343.87	10.67	
2025-01-10 10:11:21.90	343.87	10.65	
2025-01-10 10:11:22.10	343.86	10.63	
2025-01-10 10:11:22.31	343.86	10.61	
2025-01-10 10:11:22.51	343.86	10.60	
2025-01-10 10:11:22.72	343.85	10.58	
2025-01-10 10:11:22.92	343.85	10.56	
2025-01-10 10:11:23.13	343.85	10.54	
2025-01-10 10:11:23.34	343.85	10.52	
2025-01-10 10:11:23.54	343.84	10.50	
2025-01-10 10:11:23.75	343.84	10.49	
2025-01-10 10:11:23.95	343.84	10.47	
2025-01-10 10:11:24.16	343.83	10.45	
2025-01-10 10:11:24.36	343.83	10.43	
2025-01-10 10:11:24.57	343.83	10.41	
2025-01-10 10:11:24.77	343.82	10.40	
2025-01-10 10:11:24.97	343.82	10.38	
2025-01-10 10:11:25.18	343.82	10.36	
2025-01-10 10:11:25.38	343.81	10.34	
2025-01-10 10:11:25.59	343.81	10.33	
2025-01-10 10:11:25.79	343.81	10.31	
2025-01-10 10:11:26.00	343.81	10.29	
2025-01-10 10:11:26.20	343.80	10.27	
2025-01-10 10:11:26.41	343.80	10.25	
2025-01-10 10:11:26.61	343.80	10.24	
2025-01-10 10:11:26.82	343.79	10.22	
2025-01-10 10:11:27.03	343.79	10.20	
2025-01-10 10:11:27.23	343.79	10.18	
2025-01-10 10:11:27.43	343.78	10.16	
2025-01-10 10:11:27.64	343.78	10.15	
2025-01-10 10:11:27.84	343.78	10.13	
2025-01-10 10:11:28.05	343.77	10.11	
2025-01-10 10:11:28.25	343.77	10.09	
2025-01-10 10:11:28.46	343.77	10.08	
2025-01-10 10:11:28.67	343.77	10.06	
2025-01-10 10:11:28.87	343.76	10.04	
2025-01-10 10:11:29.08	343.76	10.02	
2025-01-10 10:11:29.28	343.76	10.00	
2025-01-10 10:11:29.49	343.75	9.99	
2025-01-10 10:11:29.70	343.75	9.97	
2025-01-10 10:11:29.90	343.75	9.95	
2025-01-10 10:11:30.11	343.74	9.93	
2025-01-10 10:11:30.31	343.74	9.92	
2025-01-10 10:11:30.52	343.74	9.90	
2025-01-10 10:11:30.72	343.74	9.88	
2025-01-10 10:11:30.93	343.73	9.86	
2025-01-10 10:11:31.13	343.73	9.85	
2025-01-10 10:11:31.34	343.73	9.83	
2025-01-10 10:11:31.56	343.72	9.81	
2025-01-10 10:11:31.76	343.72	9.79	
2025-01-10 10:11:31.97	343.72	9.77	
2025-01-10 10:11:32.17	343.72	9.76	
2025-01-10 10:11:32.38	343.71	9.74	
2025-01-10 10:11:32.59	343.71	9.72	
2025-01-10 10:11:32.80	343.71	9.70	
2025-01-10 10:11:33.01	343.70	9.69	
2025-01-10 10:11:33.21	343.70	9.67	
2025-01-10 10:11:33.42	343.70	9.65	
2025-01-10 10:11:33.63	343.69	9.63	
2025-01-10 10:11:33.84	343.69	9.61	
2025-01-10 10:11:34.05	343.69	9.60	
2025-01-10 10:11:34.25	343.69	9.58	
2025-01-10 10:11:34.46	343.68	9.56	
2025-01-10 10:11:34.66	343.68	9.55	
2025-01-10 10:11:34.87	343.68	9.53	
2025-01-10 10:11:35.07	343.67	9.51	
2025-01-10 10:11:35.28	343.67	9.49	
2025-01-10 10:11:35.48	343.67	9.48	
2025-01-10 10:11:35.69	343.67	9.46	
2025-01-10 10:11:35.89	343.66	9.44	
2025-01-10 10:11:36.10	343.66	9.42	
2025-01-10 10:11:36.30	343.66	9.41	
2025-01-10 10:11:36.51	343.65	9.39	
2025-01-10 10:11:36.71	343.65	9.37	
2025-01-10 10:11:36.92	343.65	9.35	
2025-01-10 10:11:37.13	343.65	9.34	
2025-01-10 10:11:37.33	343.64	9.32	
2025-01-10 10:11:37.54	343.64	9.30	
2025-01-10 10:11:37.74	343.64	9.29	
2025-01-10 10:11:37.95	343.64	9.27	
2025-01-10 10:11:38.15	343.63	9.25	
2025-01-10 10:11:38.36	343.63	9.23	
2025-01-10 10:11:38.56	343.63	9.22	
2025-01-10 10:11:38.77	343.62	9.20	
2025-01-10 10:11:38.97	343.62	9.18	
2025-01-10 10:11:39.18	343.62	9.17	
2025-01-10 10:11:39.38	343.62	9.15	
2025-01-10 10:11:39.59	343.61	9.13	
2025-01-10 10:11:39.80	343.61	9.11	
2025-01-10 10:11:40.00	343.61	9.10	
2025-01-10 10:11:40.20	343.60	9.08	
2025-01-10 10:11:40.41	343.60	9.06	
2025-01-10 10:11:40.61	343.60	9.05	
2025-01-10 10:11:40.82	343.60	9.03	
2025-01-10 10:11:41.02	343.59	9.01	
2025-01-10 10:11:41.23	343.59	8.99	
2025-01-10 10:11:41.44	343.59	8.98	
2025-01-10 10:11:41.64	343.59	8.96	
2025-01-10 10:11:41.85	343.58	8.94	
2025-01-10 10:11:42.05	343.58	8.93	
2025-01-10 10:11:42.26	343.58	8.91	
2025-01-10 10:11:42.46	343.57	8.89	
2025-01-10 10:11:42.67	343.57	8.88	
2025-01-10 10:11:42.87	343.57	8.86	
2025-01-10 10:11:43.08	343.57	8.84	
2025-01-10 10:11:43.28	343.56	8.83	
2025-01-10 10:11:43.48	343.56	8.81	
2025-01-10 10:11:43.69	343.56	8.79	
2025-01-10 10:11:43.90	343.56	8.77	
2025-01-10 10:11:44.10	343.55	8.76	
2025-01-10 10:11:44.32	343.55	8.74	
2025-01-10 10:11:44.53	343.55	8.72	
2025-01-10 10:11:44.73	343.55	8.71	
2025-01-10 10:11:44.94	343.54	8.69	
2025-01-10 10:11:45.14	343.54	8.67	
2025-01-10 10:11:45.35	343.54	8.66	
2025-01-10 10:11:45.55	343.53	8.64	
2025-01-10 10:11:45.76	343.53	8.62	
2025-01-10 10:11:45.97	343.53	8.61	
2025-01-10 10:11:46.17	343.53	8.59	
2025-01-10 10:11:46.38	343.52	8.57	
2025-01-10 10:11:46.58	343.52	8.56	
2025-01-10 10:11:46.79	343.52	8.54	
2025-01-10 10:11:46.99	343.52	8.52	
2025-01-10 10:11:47.20	343.51	8.51	
2025-01-10 10:11:47.40	343.51	8.49	
2025-01-10 10:11:47.62	343.51	8.47	
2025-01-10 10:11:47.82	343.51	8.45	
2025-01-10 10:11:48.03	343.50	8.44	
2025-01-10 10:11:48.24	343.50	8.42	
2025-01-10 10:11:48.44	343.50	8.40	
2025-01-10 10:11:48.64	343.50	8.39	
2025-01-10 10:11:48.85	343.49	8.37	
2025-01-10 10:11:49.06	343.49	8.35	
2025-01-10 10:11:49.26	343.49	8.34	
2025-01-10 10:11:49.47	343.48	8.32	
2025-01-10 10:11:49.67	343.48	8.31	
2025-01-10 10:11:49.88	343.48	8.29	
2025-01-10 10:11:50.08	343.48	8.27	
2025-01-10 10:11:50.29	343.47	8.26	
2025-01-10 10:11:50.50	343.47	8.24	
2025-01-10 10:11:50.70	343.47	8.22	
2025-01-10 10:11:50.90	343.47	8.21	
2025-01-10 10:11:51.11	343.46	8.19	
2025-01-10 10:11:51.32	343.46	8.17	
2025-01-10 10:11:51.52	343.46	8.16	
2025-01-10 10:11:51.73	343.46	8.14	
2025-01-10 10:11:51.93	343.45	8.12	
2025-01-10 10:11:52.14	343.45	8.11	
2025-01-10 10:11:52.34	343.45	8.09	
2025-01-10 10:11:52.55	343.45	8.07	
2025-01-10 10:11:52.75	343.44	8.06	
2025-01-10 10:11:52.96	343.44	8.04	
2025-01-10 10:11:53.16	343.44	8.03	
2025-01-10 10:11:53.37	343.44	8.01	
2025-01-10 10:11:53.57	343.43	7.99	
2025-01-10 10:11:53.78	343.43	7.98	
2025-01-10 10:11:53.98	343.43	7.96	
2025-01-10 10:11:54.19	343.43	7.94	
2025-01-10 10:11:54.39	343.42	7.93	
2025-01-10 10:11:54.60	343.42	7.91	
2025-01-10 10:11:54.81	343.42	7.89	
2025-01-10 10:11:55.02	343.42	7.88	
2025-01-10 10:11:55.23	343.41	7.86	
2025-01-10 10:11:55.44	343.41	7.84	
2025-01-10 10:11:55.64	343.41	7.83	
2025-01-10 10:11:55.85	343.41	7.81	
2025-01-10 10:11:56.05	343.40	7.80	
2025-01-10 10:11:56.25	343.40	7.78	
2025-01-10 10:11:56.46	343.40	7.76	
2025-01-10 10:11:56.67	343.40	7.75	
2025-01-10 10:11:56.87	343.40	7.73	
2025-01-10 10:11:57.08	343.39	7.71	
2025-01-10 10:11:57.28	343.39	7.70	
2025-01-10 10:11:57.49	343.39	7.68	
2025-01-10 10:11:57.69	343.39	7.67	
2025-01-10 10:11:57.90	343.38	7.65	
2025-01-10 10:11:58.11	343.38	7.63	
2025-01-10 10:11:58.31	343.38	7.62	
2025-01-10 10:11:58.51	343.38	7.60	
2025-01-10 10:11:58.72	343.37	7.59	
2025-01-10 10:11:58.93	343.37	7.57	
2025-01-10 10:11:59.13	343.37	7.55	
2025-01-10 10:11:59.34	343.37	7.54	
2025-01-10 10:11:59.54	343.36	7.52	
2025-01-10 10:11:59.75	343.36	7.51	
