passes_logs/2025/01/10/SPB_Silybum_02/SPB_Silybum_02__20250110_093455_TERRA_rec.log

#Pass ID: 20250110_093455_TERRA
#Satellite: TERRA
#Configuration: TERRA
#Start time: 2025-01-10 09:34:55

#Version: 2.0.20230423
#Station: SPB_Silybum_02
#Location: 30.233357 lon 59.946436 lat
#TLE: 1 25994U 99068A   25009.84464495  .00000861  00000+0  18726-3 0  9992
#TLE: 2 25994  98.0226  73.0387 0003560  82.8900 338.1382 14.60385144333325

#Time	Az	El	Level	Level2	SNR	BER	Gain	Gain2
2025-01-10 09:34:57.43	11.31	4.13	
2025-01-10 09:34:57.64	11.30	4.14	
2025-01-10 09:34:57.84	11.29	4.15	
2025-01-10 09:34:58.05	11.28	4.17	
2025-01-10 09:34:58.25	11.26	4.18	
2025-01-10 09:34:58.47	11.25	4.20	
2025-01-10 09:34:58.68	11.24	4.21	
2025-01-10 09:34:58.89	11.23	4.22	
2025-01-10 09:34:59.09	11.21	4.24	
2025-01-10 09:34:59.30	11.20	4.25	
2025-01-10 09:34:59.50	11.19	4.27	
2025-01-10 09:34:59.71	11.18	4.28	
2025-01-10 09:34:59.91	11.16	4.29	
2025-01-10 09:35:00.12	11.15	4.31	
2025-01-10 09:35:00.32	11.14	4.32	
2025-01-10 09:35:00.53	11.13	4.34	
2025-01-10 09:35:00.73	11.12	4.35	
2025-01-10 09:35:00.94	11.10	4.36	
2025-01-10 09:35:01.14	11.09	4.38	
2025-01-10 09:35:01.35	11.08	4.39	
2025-01-10 09:35:01.55	11.07	4.40	
2025-01-10 09:35:01.76	11.05	4.42	
2025-01-10 09:35:01.96	11.04	4.43	
2025-01-10 09:35:02.17	11.03	4.45	
2025-01-10 09:35:02.37	11.02	4.46	
2025-01-10 09:35:02.58	11.00	4.47	
2025-01-10 09:35:02.78	10.99	4.49	
2025-01-10 09:35:02.99	10.98	4.50	
2025-01-10 09:35:03.19	10.97	4.52	
2025-01-10 09:35:03.40	10.95	4.53	
2025-01-10 09:35:03.61	10.94	4.54	
2025-01-10 09:35:03.81	10.93	4.56	
2025-01-10 09:35:04.01	10.92	4.57	
2025-01-10 09:35:04.22	10.90	4.59	
2025-01-10 09:35:04.43	10.89	4.60	
2025-01-10 09:35:04.63	10.88	4.61	
2025-01-10 09:35:04.85	10.86	4.63	
2025-01-10 09:35:05.06	10.85	4.64	
2025-01-10 09:35:05.26	10.84	4.66	
2025-01-10 09:35:05.47	10.83	4.67	
2025-01-10 09:35:05.67	10.81	4.68	
2025-01-10 09:35:05.88	10.80	4.70	
2025-01-10 09:35:06.08	10.79	4.71	
2025-01-10 09:35:06.30	10.78	4.73	
2025-01-10 09:35:06.51	10.76	4.74	
2025-01-10 09:35:06.71	10.75	4.76	
2025-01-10 09:35:06.92	10.74	4.77	
2025-01-10 09:35:07.12	10.72	4.78	
2025-01-10 09:35:07.33	10.71	4.80	
2025-01-10 09:35:07.53	10.70	4.81	
2025-01-10 09:35:07.74	10.69	4.83	
2025-01-10 09:35:07.94	10.67	4.84	
2025-01-10 09:35:08.14	10.66	4.85	
2025-01-10 09:35:08.35	10.65	4.87	
2025-01-10 09:35:08.56	10.63	4.88	
2025-01-10 09:35:08.76	10.62	4.90	
2025-01-10 09:35:08.97	10.61	4.91	
2025-01-10 09:35:09.17	10.60	4.92	
2025-01-10 09:35:09.38	10.58	4.94	
2025-01-10 09:35:09.58	10.57	4.95	
2025-01-10 09:35:09.79	10.56	4.97	
2025-01-10 09:35:09.99	10.54	4.98	
2025-01-10 09:35:10.20	10.53	5.00	
2025-01-10 09:35:10.40	10.52	5.01	
2025-01-10 09:35:10.61	10.50	5.02	
2025-01-10 09:35:10.82	10.49	5.04	
2025-01-10 09:35:11.02	10.48	5.05	
2025-01-10 09:35:11.22	10.47	5.07	
2025-01-10 09:35:11.43	10.45	5.08	
2025-01-10 09:35:11.64	10.44	5.10	
2025-01-10 09:35:11.84	10.43	5.11	
2025-01-10 09:35:12.05	10.41	5.12	
2025-01-10 09:35:12.25	10.40	5.14	
2025-01-10 09:35:12.45	10.39	5.15	
2025-01-10 09:35:12.66	10.37	5.17	
2025-01-10 09:35:12.87	10.36	5.18	
2025-01-10 09:35:13.07	10.35	5.19	
2025-01-10 09:35:13.28	10.33	5.21	
2025-01-10 09:35:13.48	10.32	5.22	
2025-01-10 09:35:13.69	10.31	5.24	
2025-01-10 09:35:13.90	10.29	5.25	
2025-01-10 09:35:14.10	10.28	5.27	
2025-01-10 09:35:14.31	10.27	5.28	
2025-01-10 09:35:14.51	10.25	5.30	
2025-01-10 09:35:14.72	10.24	5.31	
2025-01-10 09:35:14.92	10.23	5.32	
2025-01-10 09:35:15.13	10.21	5.34	
2025-01-10 09:35:15.34	10.20	5.35	
2025-01-10 09:35:15.54	10.19	5.37	
2025-01-10 09:35:15.74	10.17	5.38	
2025-01-10 09:35:15.95	10.16	5.40	
2025-01-10 09:35:16.16	10.15	5.41	
2025-01-10 09:35:16.36	10.13	5.42	
2025-01-10 09:35:16.56	10.12	5.44	
2025-01-10 09:35:16.77	10.11	5.45	
2025-01-10 09:35:16.98	10.09	5.47	
2025-01-10 09:35:17.18	10.08	5.48	
2025-01-10 09:35:17.39	10.07	5.50	
2025-01-10 09:35:17.59	10.05	5.51	
2025-01-10 09:35:17.80	10.04	5.53	
2025-01-10 09:35:18.00	10.03	5.54	
2025-01-10 09:35:18.21	10.01	5.55	
2025-01-10 09:35:18.41	10.00	5.57	
2025-01-10 09:35:18.61	9.99	5.58	
2025-01-10 09:35:18.82	9.97	5.60	
2025-01-10 09:35:19.02	9.96	5.61	
2025-01-10 09:35:19.23	9.94	5.63	
2025-01-10 09:35:19.44	9.93	5.64	
2025-01-10 09:35:19.64	9.92	5.66	
2025-01-10 09:35:19.85	9.90	5.67	
2025-01-10 09:35:20.05	9.89	5.68	
2025-01-10 09:35:20.26	9.88	5.70	
2025-01-10 09:35:20.46	9.86	5.71	
2025-01-10 09:35:20.67	9.85	5.73	
2025-01-10 09:35:20.87	9.84	5.74	
2025-01-10 09:35:21.08	9.82	5.76	
2025-01-10 09:35:21.28	9.81	5.77	
2025-01-10 09:35:21.49	9.79	5.79	
2025-01-10 09:35:21.70	9.78	5.80	
2025-01-10 09:35:21.90	9.77	5.82	
2025-01-10 09:35:22.11	9.75	5.83	
2025-01-10 09:35:22.31	9.74	5.84	
2025-01-10 09:35:22.52	9.72	5.86	
2025-01-10 09:35:22.72	9.71	5.87	
2025-01-10 09:35:22.93	9.70	5.89	
2025-01-10 09:35:23.13	9.68	5.90	
2025-01-10 09:35:23.34	9.67	5.92	
2025-01-10 09:35:23.54	9.65	5.93	
2025-01-10 09:35:23.75	9.64	5.95	
2025-01-10 09:35:23.95	9.63	5.96	
2025-01-10 09:35:24.16	9.61	5.98	
2025-01-10 09:35:24.36	9.60	5.99	
2025-01-10 09:35:24.57	9.58	6.01	
2025-01-10 09:35:24.77	9.57	6.02	
2025-01-10 09:35:24.98	9.56	6.04	
2025-01-10 09:35:25.19	9.54	6.05	
2025-01-10 09:35:25.40	9.53	6.07	
2025-01-10 09:35:25.60	9.51	6.08	
2025-01-10 09:35:25.81	9.50	6.09	
2025-01-10 09:35:26.01	9.49	6.11	
2025-01-10 09:35:26.22	9.47	6.12	
2025-01-10 09:35:26.42	9.46	6.14	
2025-01-10 09:35:26.63	9.44	6.15	
2025-01-10 09:35:26.83	9.43	6.17	
2025-01-10 09:35:27.04	9.41	6.18	
2025-01-10 09:35:27.24	9.40	6.20	
2025-01-10 09:35:27.45	9.39	6.21	
2025-01-10 09:35:27.65	9.37	6.23	
2025-01-10 09:35:27.86	9.36	6.24	
2025-01-10 09:35:28.07	9.34	6.26	
2025-01-10 09:35:28.27	9.33	6.27	
2025-01-10 09:35:28.47	9.31	6.29	
2025-01-10 09:35:28.68	9.30	6.30	
2025-01-10 09:35:28.89	9.28	6.32	
2025-01-10 09:35:29.09	9.27	6.33	
2025-01-10 09:35:29.30	9.26	6.35	
2025-01-10 09:35:29.50	9.24	6.36	
2025-01-10 09:35:29.71	9.23	6.38	
2025-01-10 09:35:29.91	9.21	6.39	
2025-01-10 09:35:30.11	9.20	6.41	
2025-01-10 09:35:30.32	9.18	6.42	
2025-01-10 09:35:30.52	9.17	6.44	
2025-01-10 09:35:30.73	9.15	6.45	
2025-01-10 09:35:30.94	9.14	6.47	
2025-01-10 09:35:31.14	9.13	6.48	
2025-01-10 09:35:31.35	9.11	6.50	
2025-01-10 09:35:31.55	9.10	6.51	
2025-01-10 09:35:31.76	9.08	6.53	
2025-01-10 09:35:31.96	9.07	6.54	
2025-01-10 09:35:32.17	9.05	6.56	
2025-01-10 09:35:32.37	9.04	6.57	
2025-01-10 09:35:32.59	9.02	6.59	
2025-01-10 09:35:32.79	9.01	6.60	
2025-01-10 09:35:33.00	8.99	6.62	
2025-01-10 09:35:33.20	8.98	6.63	
2025-01-10 09:35:33.41	8.96	6.65	
2025-01-10 09:35:33.61	8.95	6.66	
2025-01-10 09:35:33.82	8.93	6.68	
2025-01-10 09:35:34.03	8.92	6.69	
2025-01-10 09:35:34.23	8.90	6.71	
2025-01-10 09:35:34.44	8.89	6.72	
2025-01-10 09:35:34.64	8.87	6.74	
2025-01-10 09:35:34.84	8.86	6.75	
2025-01-10 09:35:35.05	8.84	6.77	
2025-01-10 09:35:35.25	8.83	6.78	
2025-01-10 09:35:35.46	8.81	6.80	
2025-01-10 09:35:35.66	8.80	6.81	
2025-01-10 09:35:35.87	8.78	6.83	
2025-01-10 09:35:36.07	8.77	6.84	
2025-01-10 09:35:36.28	8.75	6.86	
2025-01-10 09:35:36.49	8.74	6.87	
2025-01-10 09:35:36.69	8.72	6.89	
2025-01-10 09:35:36.89	8.71	6.90	
2025-01-10 09:35:37.10	8.69	6.92	
2025-01-10 09:35:37.31	8.68	6.93	
2025-01-10 09:35:37.51	8.66	6.95	
2025-01-10 09:35:37.73	8.65	6.96	
2025-01-10 09:35:37.93	8.63	6.98	
2025-01-10 09:35:38.14	8.62	6.99	
2025-01-10 09:35:38.35	8.60	7.01	
2025-01-10 09:35:38.55	8.59	7.02	
2025-01-10 09:35:38.76	8.57	7.04	
2025-01-10 09:35:38.96	8.56	7.06	
2025-01-10 09:35:39.17	8.54	7.07	
2025-01-10 09:35:39.37	8.53	7.09	
2025-01-10 09:35:39.58	8.51	7.10	
2025-01-10 09:35:39.78	8.50	7.12	
2025-01-10 09:35:39.99	8.48	7.13	
2025-01-10 09:35:40.19	8.46	7.15	
2025-01-10 09:35:40.40	8.45	7.16	
2025-01-10 09:35:40.60	8.43	7.18	
2025-01-10 09:35:40.81	8.42	7.19	
2025-01-10 09:35:41.01	8.40	7.21	
2025-01-10 09:35:41.22	8.39	7.22	
2025-01-10 09:35:41.42	8.37	7.24	
2025-01-10 09:35:41.63	8.36	7.25	
2025-01-10 09:35:41.83	8.34	7.27	
2025-01-10 09:35:42.04	8.32	7.28	
2025-01-10 09:35:42.24	8.31	7.30	
2025-01-10 09:35:42.45	8.29	7.32	
2025-01-10 09:35:42.66	8.28	7.33	
2025-01-10 09:35:42.87	8.26	7.35	
2025-01-10 09:35:43.07	8.25	7.36	
2025-01-10 09:35:43.28	8.23	7.38	
2025-01-10 09:35:43.48	8.22	7.39	
2025-01-10 09:35:43.69	8.20	7.41	
2025-01-10 09:35:43.89	8.18	7.42	
2025-01-10 09:35:44.10	8.17	7.44	
2025-01-10 09:35:44.30	8.15	7.45	
2025-01-10 09:35:44.51	8.14	7.47	
2025-01-10 09:35:44.71	8.12	7.49	
2025-01-10 09:35:44.92	8.10	7.50	
2025-01-10 09:35:45.13	8.09	7.52	
2025-01-10 09:35:45.33	8.07	7.53	
2025-01-10 09:35:45.55	8.06	7.55	
2025-01-10 09:35:45.75	8.04	7.56	
2025-01-10 09:35:45.96	8.02	7.58	
2025-01-10 09:35:46.16	8.01	7.59	
2025-01-10 09:35:46.37	7.99	7.61	
2025-01-10 09:35:46.57	7.98	7.63	
2025-01-10 09:35:46.78	7.96	7.64	
2025-01-10 09:35:46.99	7.94	7.66	
2025-01-10 09:35:47.19	7.93	7.67	
2025-01-10 09:35:47.40	7.91	7.69	
2025-01-10 09:35:47.60	7.90	7.70	
2025-01-10 09:35:47.81	7.88	7.72	
2025-01-10 09:35:48.01	7.86	7.74	
2025-01-10 09:35:48.22	7.85	7.75	
2025-01-10 09:35:48.42	7.83	7.77	
2025-01-10 09:35:48.63	7.82	7.78	
2025-01-10 09:35:48.83	7.80	7.80	
2025-01-10 09:35:49.04	7.78	7.81	
2025-01-10 09:35:49.24	7.77	7.83	
2025-01-10 09:35:49.45	7.75	7.84	
2025-01-10 09:35:49.65	7.73	7.86	
2025-01-10 09:35:49.86	7.72	7.88	
2025-01-10 09:35:50.07	7.70	7.89	
2025-01-10 09:35:50.27	7.69	7.91	
2025-01-10 09:35:50.48	7.67	7.92	
2025-01-10 09:35:50.69	7.65	7.94	
2025-01-10 09:35:50.89	7.64	7.96	
2025-01-10 09:35:51.10	7.62	7.97	
2025-01-10 09:35:51.30	7.60	7.99	
2025-01-10 09:35:51.51	7.59	8.00	
2025-01-10 09:35:51.71	7.57	8.02	
2025-01-10 09:35:51.91	7.55	8.03	
2025-01-10 09:35:52.12	7.54	8.05	
2025-01-10 09:35:52.33	7.52	8.07	
2025-01-10 09:35:52.53	7.50	8.08	
2025-01-10 09:35:52.74	7.49	8.10	
2025-01-10 09:35:52.94	7.47	8.11	
2025-01-10 09:35:53.15	7.45	8.13	
2025-01-10 09:35:53.35	7.44	8.14	
2025-01-10 09:35:53.56	7.42	8.16	
2025-01-10 09:35:53.77	7.40	8.18	
2025-01-10 09:35:53.97	7.39	8.19	
2025-01-10 09:35:54.18	7.37	8.21	
2025-01-10 09:35:54.38	7.35	8.22	
2025-01-10 09:35:54.59	7.34	8.24	
2025-01-10 09:35:54.79	7.32	8.26	
2025-01-10 09:35:55.00	7.30	8.27	
2025-01-10 09:35:55.20	7.29	8.29	
2025-01-10 09:35:55.41	7.27	8.30	
2025-01-10 09:35:55.61	7.25	8.32	
2025-01-10 09:35:55.82	7.24	8.34	
2025-01-10 09:35:56.03	7.22	8.35	
2025-01-10 09:35:56.23	7.20	8.37	
2025-01-10 09:35:56.44	7.19	8.38	
2025-01-10 09:35:56.64	7.17	8.40	
2025-01-10 09:35:56.85	7.15	8.42	
2025-01-10 09:35:57.05	7.13	8.43	
2025-01-10 09:35:57.26	7.12	8.45	
2025-01-10 09:35:57.46	7.10	8.46	
2025-01-10 09:35:57.67	7.08	8.48	
2025-01-10 09:35:57.87	7.07	8.50	
2025-01-10 09:35:58.08	7.05	8.51	
2025-01-10 09:35:58.28	7.03	8.53	
2025-01-10 09:35:58.49	7.01	8.54	
2025-01-10 09:35:58.69	7.00	8.56	
2025-01-10 09:35:58.90	6.98	8.58	
2025-01-10 09:35:59.11	6.96	8.59	
2025-01-10 09:35:59.31	6.95	8.61	
2025-01-10 09:35:59.52	6.93	8.62	
2025-01-10 09:35:59.72	6.91	8.64	
2025-01-10 09:35:59.93	6.89	8.66	
2025-01-10 09:36:00.13	6.88	8.67	
2025-01-10 09:36:00.33	6.86	8.69	
2025-01-10 09:36:00.54	6.84	8.70	
2025-01-10 09:36:00.75	6.82	8.72	
2025-01-10 09:36:00.95	6.81	8.74	
2025-01-10 09:36:01.16	6.79	8.75	
2025-01-10 09:36:01.36	6.77	8.77	
2025-01-10 09:36:01.57	6.75	8.79	
2025-01-10 09:36:01.77	6.74	8.80	
2025-01-10 09:36:01.97	6.72	8.82	
2025-01-10 09:36:02.18	6.70	8.83	
2025-01-10 09:36:02.39	6.68	8.85	
2025-01-10 09:36:02.59	6.67	8.87	
2025-01-10 09:36:02.80	6.65	8.88	
2025-01-10 09:36:03.00	6.63	8.90	
2025-01-10 09:36:03.21	6.61	8.92	
2025-01-10 09:36:03.41	6.60	8.93	
2025-01-10 09:36:03.61	6.58	8.95	
2025-01-10 09:36:03.82	6.56	8.96	
2025-01-10 09:36:04.03	6.54	8.98	
2025-01-10 09:36:04.23	6.53	9.00	
2025-01-10 09:36:04.44	6.51	9.01	
2025-01-10 09:36:04.64	6.49	9.03	
2025-01-10 09:36:04.84	6.47	9.04	
2025-01-10 09:36:05.05	6.46	9.06	
2025-01-10 09:36:05.25	6.44	9.08	
2025-01-10 09:36:05.46	6.42	9.09	
2025-01-10 09:36:05.67	6.40	9.11	
2025-01-10 09:36:05.87	6.38	9.13	
2025-01-10 09:36:06.08	6.37	9.14	
2025-01-10 09:36:06.28	6.35	9.16	
2025-01-10 09:36:06.49	6.33	9.18	
2025-01-10 09:36:06.69	6.31	9.19	
2025-01-10 09:36:06.90	6.29	9.21	
2025-01-10 09:36:07.10	6.28	9.23	
2025-01-10 09:36:07.31	6.26	9.24	
2025-01-10 09:36:07.52	6.24	9.26	
2025-01-10 09:36:07.72	6.22	9.28	
2025-01-10 09:36:07.93	6.20	9.29	
2025-01-10 09:36:08.13	6.18	9.31	
2025-01-10 09:36:08.33	6.17	9.32	
2025-01-10 09:36:08.54	6.15	9.34	
2025-01-10 09:36:08.75	6.13	9.36	
2025-01-10 09:36:08.95	6.11	9.37	
2025-01-10 09:36:09.15	6.09	9.39	
2025-01-10 09:36:09.36	6.08	9.41	
2025-01-10 09:36:09.56	6.06	9.42	
2025-01-10 09:36:09.77	6.04	9.44	
2025-01-10 09:36:09.98	6.02	9.46	
2025-01-10 09:36:10.18	6.00	9.47	
2025-01-10 09:36:10.39	5.98	9.49	
2025-01-10 09:36:10.59	5.96	9.51	
2025-01-10 09:36:10.80	5.95	9.52	
2025-01-10 09:36:11.00	5.93	9.54	
2025-01-10 09:36:11.21	5.91	9.56	
2025-01-10 09:36:11.41	5.89	9.57	
2025-01-10 09:36:11.62	5.87	9.59	
2025-01-10 09:36:11.82	5.85	9.61	
2025-01-10 09:36:12.03	5.83	9.62	
2025-01-10 09:36:12.24	5.82	9.64	
2025-01-10 09:36:12.44	5.80	9.66	
2025-01-10 09:36:12.65	5.78	9.67	
2025-01-10 09:36:12.85	5.76	9.69	
2025-01-10 09:36:13.06	5.74	9.71	
2025-01-10 09:36:13.26	5.72	9.72	
2025-01-10 09:36:13.46	5.70	9.74	
2025-01-10 09:36:13.67	5.68	9.76	
2025-01-10 09:36:13.88	5.67	9.77	
2025-01-10 09:36:14.08	5.65	9.79	
2025-01-10 09:36:14.29	5.63	9.81	
2025-01-10 09:36:14.49	5.61	9.82	
2025-01-10 09:36:14.70	5.59	9.84	
2025-01-10 09:36:14.90	5.57	9.86	
2025-01-10 09:36:15.11	5.55	9.87	
2025-01-10 09:36:15.31	5.53	9.89	
2025-01-10 09:36:15.52	5.51	9.91	
2025-01-10 09:36:15.73	5.49	9.93	
2025-01-10 09:36:15.93	5.48	9.94	
2025-01-10 09:36:16.14	5.46	9.96	
2025-01-10 09:36:16.34	5.44	9.98	
2025-01-10 09:36:16.55	5.42	9.99	
2025-01-10 09:36:16.75	5.40	10.01	
2025-01-10 09:36:16.96	5.38	10.03	
2025-01-10 09:36:17.16	5.36	10.04	
2025-01-10 09:36:17.37	5.34	10.06	
2025-01-10 09:36:17.57	5.32	10.08	
2025-01-10 09:36:17.78	5.30	10.09	
2025-01-10 09:36:17.98	5.28	10.11	
2025-01-10 09:36:18.19	5.26	10.13	
2025-01-10 09:36:18.40	5.24	10.15	
2025-01-10 09:36:18.60	5.22	10.16	
2025-01-10 09:36:18.80	5.21	10.18	
2025-01-10 09:36:19.01	5.19	10.20	
2025-01-10 09:36:19.22	5.17	10.21	
2025-01-10 09:36:19.42	5.15	10.23	
2025-01-10 09:36:19.63	5.13	10.25	
2025-01-10 09:36:19.83	5.11	10.26	
2025-01-10 09:36:20.04	5.09	10.28	
2025-01-10 09:36:20.24	5.07	10.30	
2025-01-10 09:36:20.45	5.05	10.32	
2025-01-10 09:36:20.65	5.03	10.33	
2025-01-10 09:36:20.86	5.01	10.35	
2025-01-10 09:36:21.07	4.99	10.37	
2025-01-10 09:36:21.27	4.97	10.38	
2025-01-10 09:36:21.48	4.95	10.40	
2025-01-10 09:36:21.68	4.93	10.42	
2025-01-10 09:36:21.88	4.91	10.43	
2025-01-10 09:36:22.09	4.89	10.45	
2025-01-10 09:36:22.30	4.87	10.47	
2025-01-10 09:36:22.50	4.85	10.49	
2025-01-10 09:36:22.70	4.83	10.50	
2025-01-10 09:36:22.92	4.81	10.52	
2025-01-10 09:36:23.13	4.79	10.54	
2025-01-10 09:36:23.33	4.77	10.56	
2025-01-10 09:36:23.54	4.75	10.57	
2025-01-10 09:36:23.75	4.73	10.59	
2025-01-10 09:36:23.97	4.71	10.61	
2025-01-10 09:36:24.17	4.69	10.63	
2025-01-10 09:36:24.38	4.67	10.64	
2025-01-10 09:36:24.58	4.65	10.66	
2025-01-10 09:36:24.79	4.63	10.68	
2025-01-10 09:36:24.99	4.61	10.70	
2025-01-10 09:36:25.20	4.59	10.71	
2025-01-10 09:36:25.40	4.57	10.73	
2025-01-10 09:36:25.61	4.55	10.75	
2025-01-10 09:36:25.81	4.53	10.76	
2025-01-10 09:36:26.02	4.50	10.78	
2025-01-10 09:36:26.22	4.48	10.80	
2025-01-10 09:36:26.43	4.46	10.82	
2025-01-10 09:36:26.63	4.44	10.83	
2025-01-10 09:36:26.84	4.42	10.85	
2025-01-10 09:36:27.04	4.40	10.87	
2025-01-10 09:36:27.24	4.38	10.89	
2025-01-10 09:36:27.45	4.36	10.90	
2025-01-10 09:36:27.66	4.34	10.92	
2025-01-10 09:36:27.86	4.32	10.94	
2025-01-10 09:36:28.07	4.30	10.96	
2025-01-10 09:36:28.27	4.28	10.97	
2025-01-10 09:36:28.48	4.26	10.99	
2025-01-10 09:36:28.68	4.24	11.01	
2025-01-10 09:36:28.89	4.22	11.03	
2025-01-10 09:36:29.09	4.20	11.04	
2025-01-10 09:36:29.30	4.18	11.06	
2025-01-10 09:36:29.50	4.16	11.08	
2025-01-10 09:36:29.71	4.13	11.10	
2025-01-10 09:36:29.91	4.11	11.11	
2025-01-10 09:36:30.12	4.09	11.13	
2025-01-10 09:36:30.32	4.07	11.15	
2025-01-10 09:36:30.53	4.05	11.17	
2025-01-10 09:36:30.73	4.03	11.18	
2025-01-10 09:36:30.94	4.01	11.20	
2025-01-10 09:36:31.15	3.99	11.22	
2025-01-10 09:36:31.35	3.97	11.24	
2025-01-10 09:36:31.56	3.94	11.25	
2025-01-10 09:36:31.76	3.92	11.27	
2025-01-10 09:36:31.97	3.90	11.29	
2025-01-10 09:36:32.17	3.88	11.31	
2025-01-10 09:36:32.38	3.86	11.32	
2025-01-10 09:36:32.58	3.84	11.34	
2025-01-10 09:36:32.79	3.82	11.36	
2025-01-10 09:36:32.99	3.80	11.38	
2025-01-10 09:36:33.20	3.77	11.40	
2025-01-10 09:36:33.41	3.75	11.41	
2025-01-10 09:36:33.61	3.73	11.43	
2025-01-10 09:36:33.82	3.71	11.45	
2025-01-10 09:36:34.02	3.69	11.47	
2025-01-10 09:36:34.23	3.67	11.48	
2025-01-10 09:36:34.43	3.65	11.50	
2025-01-10 09:36:34.64	3.62	11.52	
2025-01-10 09:36:34.84	3.60	11.54	
2025-01-10 09:36:35.05	3.58	11.56	
2025-01-10 09:36:35.25	3.56	11.57	
2025-01-10 09:36:35.46	3.54	11.59	
2025-01-10 09:36:35.66	3.52	11.61	
2025-01-10 09:36:35.87	3.49	11.63	
2025-01-10 09:36:36.08	3.47	11.65	
2025-01-10 09:36:36.28	3.45	11.66	
2025-01-10 09:36:36.49	3.43	11.68	
2025-01-10 09:36:36.69	3.41	11.70	
2025-01-10 09:36:36.89	3.39	11.72	
2025-01-10 09:36:37.10	3.36	11.73	
2025-01-10 09:36:37.30	3.34	11.75	
2025-01-10 09:36:37.51	3.32	11.77	
2025-01-10 09:36:37.71	3.30	11.79	
2025-01-10 09:36:37.92	3.28	11.81	
2025-01-10 09:36:38.12	3.25	11.82	
2025-01-10 09:36:38.33	3.23	11.84	
2025-01-10 09:36:38.54	3.21	11.86	
2025-01-10 09:36:38.74	3.19	11.88	
2025-01-10 09:36:38.96	3.16	11.90	
2025-01-10 09:36:39.16	3.14	11.91	
2025-01-10 09:36:39.37	3.12	11.93	
2025-01-10 09:36:39.57	3.10	11.95	
2025-01-10 09:36:39.78	3.07	11.97	
2025-01-10 09:36:39.98	3.05	11.99	
2025-01-10 09:36:40.19	3.03	12.00	
2025-01-10 09:36:40.40	3.01	12.02	
2025-01-10 09:36:40.60	2.99	12.04	
2025-01-10 09:36:40.81	2.96	12.06	
2025-01-10 09:36:41.01	2.94	12.08	
2025-01-10 09:36:41.22	2.92	12.10	
2025-01-10 09:36:41.42	2.90	12.11	
2025-01-10 09:36:41.63	2.87	12.13	
2025-01-10 09:36:41.83	2.85	12.15	
2025-01-10 09:36:42.04	2.83	12.17	
2025-01-10 09:36:42.24	2.81	12.19	
2025-01-10 09:36:42.45	2.78	12.20	
2025-01-10 09:36:42.66	2.76	12.22	
2025-01-10 09:36:42.86	2.74	12.24	
2025-01-10 09:36:43.07	2.71	12.26	
2025-01-10 09:36:43.27	2.69	12.28	
2025-01-10 09:36:43.48	2.67	12.30	
2025-01-10 09:36:43.68	2.65	12.31	
2025-01-10 09:36:43.89	2.62	12.33	
2025-01-10 09:36:44.09	2.60	12.35	
2025-01-10 09:36:44.29	2.58	12.37	
2025-01-10 09:36:44.50	2.55	12.39	
2025-01-10 09:36:44.71	2.53	12.41	
2025-01-10 09:36:44.92	2.51	12.42	
2025-01-10 09:36:45.13	2.48	12.44	
2025-01-10 09:36:45.33	2.46	12.46	
2025-01-10 09:36:45.53	2.44	12.48	
2025-01-10 09:36:45.74	2.41	12.50	
2025-01-10 09:36:45.94	2.39	12.51	
2025-01-10 09:36:46.15	2.37	12.53	
2025-01-10 09:36:46.35	2.34	12.55	
2025-01-10 09:36:46.56	2.32	12.57	
2025-01-10 09:36:46.76	2.30	12.59	
2025-01-10 09:36:46.97	2.27	12.61	
2025-01-10 09:36:47.18	2.25	12.63	
2025-01-10 09:36:47.38	2.23	12.64	
2025-01-10 09:36:47.59	2.20	12.66	
2025-01-10 09:36:47.79	2.18	12.68	
2025-01-10 09:36:48.00	2.16	12.70	
2025-01-10 09:36:48.21	2.13	12.72	
2025-01-10 09:36:48.41	2.11	12.74	
2025-01-10 09:36:48.62	2.08	12.76	
2025-01-10 09:36:48.82	2.06	12.77	
2025-01-10 09:36:49.03	2.04	12.79	
2025-01-10 09:36:49.23	2.01	12.81	
2025-01-10 09:36:49.44	1.99	12.83	
2025-01-10 09:36:49.64	1.97	12.85	
2025-01-10 09:36:49.85	1.94	12.87	
2025-01-10 09:36:50.05	1.92	12.88	
2025-01-10 09:36:50.25	1.90	12.90	
2025-01-10 09:36:50.46	1.87	12.92	
2025-01-10 09:36:50.66	1.85	12.94	
2025-01-10 09:36:50.87	1.82	12.96	
2025-01-10 09:36:51.08	1.80	12.98	
2025-01-10 09:36:51.28	1.78	13.00	
2025-01-10 09:36:51.49	1.75	13.02	
2025-01-10 09:36:51.70	1.73	13.03	
2025-01-10 09:36:51.91	1.70	13.05	
2025-01-10 09:36:52.11	1.68	13.07	
2025-01-10 09:36:52.32	1.65	13.09	
2025-01-10 09:36:52.53	1.63	13.11	
2025-01-10 09:36:52.73	1.60	13.13	
2025-01-10 09:36:52.93	1.58	13.15	
2025-01-10 09:36:53.14	1.56	13.17	
2025-01-10 09:36:53.35	1.53	13.19	
2025-01-10 09:36:53.55	1.51	13.20	
2025-01-10 09:36:53.75	1.48	13.22	
2025-01-10 09:36:53.97	1.46	13.24	
2025-01-10 09:36:54.18	1.43	13.26	
2025-01-10 09:36:54.38	1.41	13.28	
2025-01-10 09:36:54.59	1.38	13.30	
2025-01-10 09:36:54.79	1.36	13.32	
2025-01-10 09:36:55.00	1.33	13.34	
2025-01-10 09:36:55.21	1.31	13.36	
2025-01-10 09:36:55.41	1.28	13.37	
2025-01-10 09:36:55.61	1.26	13.39	
2025-01-10 09:36:55.82	1.23	13.41	
2025-01-10 09:36:56.02	1.21	13.43	
2025-01-10 09:36:56.23	1.18	13.45	
2025-01-10 09:36:56.43	1.16	13.47	
2025-01-10 09:36:56.64	1.13	13.49	
2025-01-10 09:36:56.85	1.11	13.51	
2025-01-10 09:36:57.05	1.08	13.53	
2025-01-10 09:36:57.26	1.06	13.54	
2025-01-10 09:36:57.46	1.03	13.56	
2025-01-10 09:36:57.67	1.01	13.58	
2025-01-10 09:36:57.87	0.98	13.60	
2025-01-10 09:36:58.08	0.96	13.62	
2025-01-10 09:36:58.28	0.93	13.64	
2025-01-10 09:36:58.49	0.91	13.66	
2025-01-10 09:36:58.69	0.88	13.68	
2025-01-10 09:36:58.90	0.86	13.70	
2025-01-10 09:36:59.10	0.83	13.72	
2025-01-10 09:36:59.31	0.81	13.73	
2025-01-10 09:36:59.51	0.78	13.75	
2025-01-10 09:36:59.72	0.76	13.77	
2025-01-10 09:36:59.93	0.73	13.79	
2025-01-10 09:37:00.14	0.70	13.81	
2025-01-10 09:37:00.35	0.68	13.83	
2025-01-10 09:37:00.55	0.65	13.85	
2025-01-10 09:37:00.76	0.63	13.87	
2025-01-10 09:37:00.96	0.60	13.89	
2025-01-10 09:37:01.17	0.57	13.91	
2025-01-10 09:37:01.37	0.55	13.93	
2025-01-10 09:37:01.58	0.52	13.95	
2025-01-10 09:37:01.78	0.50	13.97	
2025-01-10 09:37:01.99	0.47	13.98	
2025-01-10 09:37:02.19	0.45	14.00	
2025-01-10 09:37:02.40	0.42	14.02	
2025-01-10 09:37:02.60	0.39	14.04	
2025-01-10 09:37:02.81	0.37	14.06	
2025-01-10 09:37:03.02	0.34	14.08	
2025-01-10 09:37:03.22	0.31	14.10	
2025-01-10 09:37:03.43	0.29	14.12	
2025-01-10 09:37:03.63	0.26	14.14	
2025-01-10 09:37:03.84	0.24	14.16	
2025-01-10 09:37:04.04	0.21	14.18	
2025-01-10 09:37:04.25	0.18	14.20	
2025-01-10 09:37:04.45	0.16	14.22	
2025-01-10 09:37:04.66	0.13	14.24	
2025-01-10 09:37:04.86	0.10	14.25	
2025-01-10 09:37:05.07	0.08	14.27	
2025-01-10 09:37:05.28	0.05	14.29	
2025-01-10 09:37:05.48	0.02	14.31	
2025-01-10 09:37:05.69	360.00	14.33	
2025-01-10 09:37:05.89	359.97	14.35	
2025-01-10 09:37:06.10	359.94	14.37	
2025-01-10 09:37:06.30	359.92	14.39	
2025-01-10 09:37:06.51	359.89	14.41	
2025-01-10 09:37:06.71	359.86	14.43	
2025-01-10 09:37:06.92	359.84	14.45	
2025-01-10 09:37:07.12	359.81	14.47	
2025-01-10 09:37:07.33	359.78	14.49	
2025-01-10 09:37:07.53	359.76	14.51	
2025-01-10 09:37:07.74	359.73	14.53	
2025-01-10 09:37:07.94	359.70	14.55	
2025-01-10 09:37:08.15	359.67	14.57	
2025-01-10 09:37:08.36	359.65	14.59	
2025-01-10 09:37:08.56	359.62	14.61	
2025-01-10 09:37:08.76	359.59	14.63	
2025-01-10 09:37:08.97	359.57	14.65	
2025-01-10 09:37:09.18	359.54	14.67	
2025-01-10 09:37:09.38	359.51	14.68	
2025-01-10 09:37:09.59	359.48	14.70	
2025-01-10 09:37:09.79	359.46	14.72	
2025-01-10 09:37:10.00	359.43	14.74	
2025-01-10 09:37:10.20	359.40	14.76	
2025-01-10 09:37:10.41	359.37	14.78	
2025-01-10 09:37:10.61	359.35	14.80	
2025-01-10 09:37:10.82	359.32	14.82	
2025-01-10 09:37:11.04	359.29	14.84	
2025-01-10 09:37:11.24	359.26	14.86	
2025-01-10 09:37:11.45	359.23	14.88	
2025-01-10 09:37:11.66	359.21	14.90	
2025-01-10 09:37:11.86	359.18	14.92	
2025-01-10 09:37:12.08	359.15	14.94	
2025-01-10 09:37:12.29	359.12	14.96	
2025-01-10 09:37:12.49	359.09	14.98	
2025-01-10 09:37:12.69	359.07	15.00	
2025-01-10 09:37:12.90	359.04	15.02	
2025-01-10 09:37:13.10	359.01	15.04	
2025-01-10 09:37:13.31	358.98	15.06	
2025-01-10 09:37:13.51	358.95	15.08	
2025-01-10 09:37:13.72	358.93	15.10	
2025-01-10 09:37:13.93	358.90	15.12	
2025-01-10 09:37:14.13	358.87	15.14	
2025-01-10 09:37:14.33	358.84	15.16	
2025-01-10 09:37:14.54	358.81	15.18	
2025-01-10 09:37:14.74	358.78	15.20	
2025-01-10 09:37:14.94	358.76	15.22	
2025-01-10 09:37:15.15	358.73	15.24	
2025-01-10 09:37:15.35	358.70	15.26	
2025-01-10 09:37:15.56	358.67	15.28	
2025-01-10 09:37:15.77	358.64	15.30	
2025-01-10 09:37:15.97	358.61	15.32	
2025-01-10 09:37:16.18	358.58	15.34	
2025-01-10 09:37:16.39	358.56	15.36	
2025-01-10 09:37:16.60	358.53	15.38	
2025-01-10 09:37:16.81	358.50	15.40	
2025-01-10 09:37:17.01	358.47	15.42	
2025-01-10 09:37:17.22	358.44	15.44	
2025-01-10 09:37:17.42	358.41	15.46	
2025-01-10 09:37:17.63	358.38	15.48	
2025-01-10 09:37:17.83	358.35	15.50	
2025-01-10 09:37:18.04	358.32	15.52	
2025-01-10 09:37:18.25	358.29	15.54	
2025-01-10 09:37:18.45	358.27	15.56	
2025-01-10 09:37:18.65	358.24	15.58	
2025-01-10 09:37:18.86	358.21	15.60	
2025-01-10 09:37:19.06	358.18	15.62	
2025-01-10 09:37:19.27	358.15	15.64	
2025-01-10 09:37:19.47	358.12	15.66	
2025-01-10 09:37:19.68	358.09	15.68	
2025-01-10 09:37:19.88	358.06	15.70	
2025-01-10 09:37:20.09	358.03	15.72	
2025-01-10 09:37:20.30	358.00	15.74	
2025-01-10 09:37:20.50	357.97	15.76	
2025-01-10 09:37:20.70	357.94	15.78	
2025-01-10 09:37:20.91	357.91	15.80	
2025-01-10 09:37:21.11	357.88	15.82	
2025-01-10 09:37:21.32	357.85	15.85	
2025-01-10 09:37:21.53	357.82	15.87	
2025-01-10 09:37:21.73	357.79	15.89	
2025-01-10 09:37:21.94	357.76	15.91	
2025-01-10 09:37:22.14	357.73	15.93	
2025-01-10 09:37:22.35	357.70	15.95	
2025-01-10 09:37:22.55	357.67	15.97	
2025-01-10 09:37:22.77	357.64	15.99	
2025-01-10 09:37:22.98	357.61	16.01	
2025-01-10 09:37:23.18	357.58	16.03	
2025-01-10 09:37:23.39	357.55	16.05	
2025-01-10 09:37:23.59	357.52	16.07	
2025-01-10 09:37:23.80	357.49	16.09	
2025-01-10 09:37:24.00	357.46	16.11	
2025-01-10 09:37:24.21	357.43	16.13	
2025-01-10 09:37:24.41	357.40	16.15	
2025-01-10 09:37:24.62	357.37	16.17	
2025-01-10 09:37:24.82	357.34	16.19	
2025-01-10 09:37:25.03	357.31	16.21	
2025-01-10 09:37:25.23	357.28	16.23	
2025-01-10 09:37:25.44	357.25	16.25	
2025-01-10 09:37:25.65	357.22	16.28	
2025-01-10 09:37:25.85	357.19	16.30	
2025-01-10 09:37:26.06	357.16	16.32	
2025-01-10 09:37:26.26	357.13	16.34	
2025-01-10 09:37:26.47	357.09	16.36	
2025-01-10 09:37:26.68	357.06	16.38	
2025-01-10 09:37:26.88	357.03	16.40	
2025-01-10 09:37:27.08	357.00	16.42	
2025-01-10 09:37:27.29	356.97	16.44	
2025-01-10 09:37:27.50	356.94	16.46	
2025-01-10 09:37:27.70	356.91	16.48	
2025-01-10 09:37:27.91	356.88	16.50	
2025-01-10 09:37:28.11	356.85	16.52	
2025-01-10 09:37:28.32	356.81	16.54	
2025-01-10 09:37:28.52	356.78	16.56	
2025-01-10 09:37:28.73	356.75	16.58	
2025-01-10 09:37:28.93	356.72	16.60	
2025-01-10 09:37:29.13	356.69	16.62	
2025-01-10 09:37:29.34	356.66	16.65	
2025-01-10 09:37:29.55	356.63	16.67	
2025-01-10 09:37:29.75	356.59	16.69	
2025-01-10 09:37:29.96	356.56	16.71	
2025-01-10 09:37:30.16	356.53	16.73	
2025-01-10 09:37:30.37	356.50	16.75	
2025-01-10 09:37:30.57	356.47	16.77	
2025-01-10 09:37:30.78	356.44	16.79	
2025-01-10 09:37:30.99	356.40	16.81	
2025-01-10 09:37:31.19	356.37	16.83	
2025-01-10 09:37:31.41	356.34	16.86	
2025-01-10 09:37:31.62	356.30	16.88	
2025-01-10 09:37:31.82	356.27	16.90	
2025-01-10 09:37:32.03	356.24	16.92	
2025-01-10 09:37:32.23	356.21	16.94	
2025-01-10 09:37:32.44	356.18	16.96	
2025-01-10 09:37:32.64	356.14	16.98	
2025-01-10 09:37:32.85	356.11	17.00	
2025-01-10 09:37:33.05	356.08	17.02	
2025-01-10 09:37:33.26	356.05	17.04	
2025-01-10 09:37:33.46	356.02	17.06	
2025-01-10 09:37:33.67	355.98	17.09	
2025-01-10 09:37:33.87	355.95	17.11	
2025-01-10 09:37:34.08	355.92	17.13	
2025-01-10 09:37:34.28	355.89	17.15	
2025-01-10 09:37:34.48	355.85	17.17	
2025-01-10 09:37:34.69	355.82	17.19	
2025-01-10 09:37:34.90	355.79	17.21	
2025-01-10 09:37:35.10	355.75	17.23	
2025-01-10 09:37:35.31	355.72	17.25	
2025-01-10 09:37:35.51	355.69	17.27	
2025-01-10 09:37:35.72	355.65	17.29	
2025-01-10 09:37:35.92	355.62	17.32	
2025-01-10 09:37:36.13	355.59	17.34	
2025-01-10 09:37:36.33	355.56	17.36	
2025-01-10 09:37:36.54	355.52	17.38	
2025-01-10 09:37:36.74	355.49	17.40	
2025-01-10 09:37:36.95	355.46	17.42	
2025-01-10 09:37:37.15	355.42	17.44	
2025-01-10 09:37:37.36	355.39	17.46	
2025-01-10 09:37:37.57	355.36	17.48	
2025-01-10 09:37:37.79	355.32	17.51	
2025-01-10 09:37:37.99	355.29	17.53	
2025-01-10 09:37:38.20	355.25	17.55	
2025-01-10 09:37:38.41	355.22	17.57	
2025-01-10 09:37:38.61	355.19	17.59	
2025-01-10 09:37:38.81	355.15	17.61	
2025-01-10 09:37:39.01	355.12	17.63	
2025-01-10 09:37:39.23	355.08	17.66	
2025-01-10 09:37:39.43	355.05	17.68	
2025-01-10 09:37:39.64	355.02	17.70	
2025-01-10 09:37:39.84	354.98	17.72	
2025-01-10 09:37:40.05	354.95	17.74	
2025-01-10 09:37:40.26	354.91	17.76	
2025-01-10 09:37:40.46	354.88	17.78	
2025-01-10 09:37:40.67	354.84	17.80	
2025-01-10 09:37:40.87	354.81	17.83	
2025-01-10 09:37:41.08	354.78	17.85	
2025-01-10 09:37:41.28	354.74	17.87	
2025-01-10 09:37:41.49	354.71	17.89	
2025-01-10 09:37:41.70	354.67	17.91	
2025-01-10 09:37:41.90	354.64	17.93	
2025-01-10 09:37:42.11	354.60	17.95	
2025-01-10 09:37:42.31	354.57	17.98	
2025-01-10 09:37:42.51	354.53	18.00	
2025-01-10 09:37:42.72	354.50	18.02	
2025-01-10 09:37:42.92	354.47	18.04	
2025-01-10 09:37:43.13	354.43	18.06	
2025-01-10 09:37:43.33	354.40	18.08	
2025-01-10 09:37:43.54	354.36	18.10	
2025-01-10 09:37:43.75	354.32	18.13	
2025-01-10 09:37:43.95	354.29	18.15	
2025-01-10 09:37:44.15	354.26	18.17	
2025-01-10 09:37:44.37	354.22	18.19	
2025-01-10 09:37:44.58	354.18	18.21	
2025-01-10 09:37:44.78	354.15	18.23	
2025-01-10 09:37:44.99	354.11	18.26	
2025-01-10 09:37:45.19	354.08	18.28	
2025-01-10 09:37:45.40	354.04	18.30	
2025-01-10 09:37:45.61	354.00	18.32	
2025-01-10 09:37:45.81	353.97	18.34	
2025-01-10 09:37:46.02	353.93	18.36	
2025-01-10 09:37:46.22	353.90	18.38	
2025-01-10 09:37:46.43	353.86	18.41	
2025-01-10 09:37:46.64	353.83	18.43	
2025-01-10 09:37:46.84	353.79	18.45	
2025-01-10 09:37:47.05	353.75	18.47	
2025-01-10 09:37:47.25	353.72	18.49	
2025-01-10 09:37:47.46	353.68	18.51	
2025-01-10 09:37:47.66	353.65	18.54	
2025-01-10 09:37:47.87	353.61	18.56	
2025-01-10 09:37:48.07	353.57	18.58	
2025-01-10 09:37:48.28	353.54	18.60	
2025-01-10 09:37:48.48	353.50	18.62	
2025-01-10 09:37:48.69	353.47	18.64	
2025-01-10 09:37:48.89	353.43	18.67	
2025-01-10 09:37:49.10	353.39	18.69	
2025-01-10 09:37:49.31	353.36	18.71	
2025-01-10 09:37:49.52	353.32	18.73	
2025-01-10 09:37:49.73	353.28	18.75	
2025-01-10 09:37:49.94	353.24	18.78	
2025-01-10 09:37:50.14	353.21	18.80	
2025-01-10 09:37:50.35	353.17	18.82	
2025-01-10 09:37:50.55	353.13	18.84	
2025-01-10 09:37:50.76	353.10	18.86	
2025-01-10 09:37:50.97	353.06	18.89	
2025-01-10 09:37:51.17	353.02	18.91	
2025-01-10 09:37:51.38	352.98	18.93	
2025-01-10 09:37:51.58	352.95	18.95	
2025-01-10 09:37:51.79	352.91	18.97	
2025-01-10 09:37:52.00	352.87	18.99	
2025-01-10 09:37:52.20	352.84	19.02	
2025-01-10 09:37:52.41	352.80	19.04	
2025-01-10 09:37:52.62	352.76	19.06	
2025-01-10 09:37:52.82	352.72	19.08	
2025-01-10 09:37:53.03	352.68	19.10	
2025-01-10 09:37:53.24	352.65	19.13	
2025-01-10 09:37:53.44	352.61	19.15	
2025-01-10 09:37:53.64	352.57	19.17	
2025-01-10 09:37:53.85	352.53	19.19	
2025-01-10 09:37:54.05	352.50	19.21	
2025-01-10 09:37:54.26	352.46	19.24	
2025-01-10 09:37:54.46	352.42	19.26	
2025-01-10 09:37:54.67	352.38	19.28	
2025-01-10 09:37:54.87	352.35	19.30	
2025-01-10 09:37:55.08	352.31	19.32	
2025-01-10 09:37:55.29	352.27	19.35	
2025-01-10 09:37:55.49	352.23	19.37	
2025-01-10 09:37:55.70	352.19	19.39	
2025-01-10 09:37:55.92	352.15	19.41	
2025-01-10 09:37:56.12	352.11	19.43	
2025-01-10 09:37:56.33	352.07	19.46	
2025-01-10 09:37:56.53	352.04	19.48	
2025-01-10 09:37:56.74	352.00	19.50	
2025-01-10 09:37:56.94	351.96	19.52	
2025-01-10 09:37:57.15	351.92	19.54	
2025-01-10 09:37:57.35	351.88	19.57	
2025-01-10 09:37:57.56	351.84	19.59	
2025-01-10 09:37:57.77	351.80	19.61	
2025-01-10 09:37:57.97	351.76	19.63	
2025-01-10 09:37:58.17	351.73	19.65	
2025-01-10 09:37:58.38	351.69	19.68	
2025-01-10 09:37:58.59	351.65	19.70	
2025-01-10 09:37:58.79	351.61	19.72	
2025-01-10 09:37:59.00	351.57	19.74	
2025-01-10 09:37:59.20	351.53	19.76	
2025-01-10 09:37:59.41	351.49	19.79	
2025-01-10 09:37:59.61	351.45	19.81	
2025-01-10 09:37:59.82	351.41	19.83	
2025-01-10 09:38:00.02	351.37	19.85	
2025-01-10 09:38:00.22	351.33	19.87	
2025-01-10 09:38:00.43	351.29	19.90	
2025-01-10 09:38:00.64	351.25	19.92	
2025-01-10 09:38:00.84	351.21	19.94	
2025-01-10 09:38:01.05	351.17	19.96	
2025-01-10 09:38:01.25	351.13	19.99	
2025-01-10 09:38:01.46	351.09	20.01	
2025-01-10 09:38:01.66	351.05	20.03	
2025-01-10 09:38:01.87	351.01	20.05	
2025-01-10 09:38:02.07	350.97	20.07	
2025-01-10 09:38:02.28	350.93	20.10	
2025-01-10 09:38:02.48	350.89	20.12	
2025-01-10 09:38:02.69	350.85	20.14	
2025-01-10 09:38:02.89	350.81	20.16	
2025-01-10 09:38:03.10	350.77	20.19	
2025-01-10 09:38:03.30	350.73	20.21	
2025-01-10 09:38:03.51	350.69	20.23	
2025-01-10 09:38:03.71	350.65	20.25	
2025-01-10 09:38:03.92	350.61	20.27	
2025-01-10 09:38:04.12	350.57	20.30	
2025-01-10 09:38:04.33	350.53	20.32	
2025-01-10 09:38:04.53	350.49	20.34	
2025-01-10 09:38:04.74	350.44	20.36	
2025-01-10 09:38:04.94	350.40	20.39	
2025-01-10 09:38:05.15	350.36	20.41	
2025-01-10 09:38:05.36	350.32	20.43	
2025-01-10 09:38:05.56	350.28	20.45	
2025-01-10 09:38:05.77	350.24	20.48	
2025-01-10 09:38:05.97	350.20	20.50	
2025-01-10 09:38:06.18	350.16	20.52	
2025-01-10 09:38:06.38	350.12	20.54	
2025-01-10 09:38:06.59	350.07	20.57	
2025-01-10 09:38:06.80	350.03	20.59	
2025-01-10 09:38:07.00	349.99	20.61	
2025-01-10 09:38:07.21	349.95	20.63	
2025-01-10 09:38:07.41	349.91	20.65	
2025-01-10 09:38:07.62	349.86	20.68	
2025-01-10 09:38:07.82	349.82	20.70	
2025-01-10 09:38:08.03	349.78	20.72	
2025-01-10 09:38:08.23	349.74	20.74	
2025-01-10 09:38:08.44	349.70	20.77	
2025-01-10 09:38:08.64	349.65	20.79	
2025-01-10 09:38:08.85	349.61	20.81	
2025-01-10 09:38:09.05	349.57	20.83	
2025-01-10 09:38:09.26	349.53	20.86	
2025-01-10 09:38:09.46	349.48	20.88	
2025-01-10 09:38:09.67	349.44	20.90	
2025-01-10 09:38:09.88	349.40	20.92	
2025-01-10 09:38:10.08	349.36	20.95	
2025-01-10 09:38:10.29	349.31	20.97	
2025-01-10 09:38:10.49	349.27	20.99	
2025-01-10 09:38:10.70	349.23	21.01	
2025-01-10 09:38:10.90	349.18	21.04	
2025-01-10 09:38:11.11	349.14	21.06	
2025-01-10 09:38:11.32	349.10	21.08	
2025-01-10 09:38:11.52	349.05	21.10	
2025-01-10 09:38:11.73	349.01	21.13	
2025-01-10 09:38:11.93	348.97	21.15	
2025-01-10 09:38:12.14	348.92	21.17	
2025-01-10 09:38:12.34	348.88	21.19	
2025-01-10 09:38:12.55	348.84	21.22	
2025-01-10 09:38:12.76	348.79	21.24	
2025-01-10 09:38:12.96	348.75	21.26	
2025-01-10 09:38:13.17	348.71	21.28	
2025-01-10 09:38:13.37	348.66	21.31	
2025-01-10 09:38:13.59	348.62	21.33	
2025-01-10 09:38:13.79	348.57	21.35	
2025-01-10 09:38:14.00	348.53	21.38	
2025-01-10 09:38:14.20	348.49	21.40	
2025-01-10 09:38:14.41	348.44	21.42	
2025-01-10 09:38:14.61	348.40	21.44	
2025-01-10 09:38:14.82	348.35	21.47	
2025-01-10 09:38:15.02	348.31	21.49	
2025-01-10 09:38:15.23	348.26	21.51	
2025-01-10 09:38:15.43	348.22	21.53	
2025-01-10 09:38:15.64	348.17	21.56	
2025-01-10 09:38:15.84	348.13	21.58	
2025-01-10 09:38:16.05	348.09	21.60	
2025-01-10 09:38:16.25	348.04	21.62	
2025-01-10 09:38:16.46	348.00	21.65	
2025-01-10 09:38:16.66	347.95	21.67	
2025-01-10 09:38:16.87	347.91	21.69	
2025-01-10 09:38:17.08	347.86	21.71	
2025-01-10 09:38:17.28	347.82	21.74	
2025-01-10 09:38:17.48	347.77	21.76	
2025-01-10 09:38:17.69	347.73	21.78	
2025-01-10 09:38:17.89	347.68	21.80	
2025-01-10 09:38:18.10	347.64	21.83	
2025-01-10 09:38:18.30	347.59	21.85	
2025-01-10 09:38:18.51	347.55	21.87	
2025-01-10 09:38:18.71	347.50	21.89	
2025-01-10 09:38:18.92	347.45	21.92	
2025-01-10 09:38:19.12	347.41	21.94	
2025-01-10 09:38:19.33	347.36	21.96	
2025-01-10 09:38:19.53	347.32	21.99	
2025-01-10 09:38:19.74	347.27	22.01	
2025-01-10 09:38:19.94	347.23	22.03	
2025-01-10 09:38:20.15	347.18	22.05	
2025-01-10 09:38:20.35	347.13	22.08	
2025-01-10 09:38:20.56	347.09	22.10	
2025-01-10 09:38:20.77	347.04	22.12	
2025-01-10 09:38:20.97	346.99	22.14	
2025-01-10 09:38:21.18	346.95	22.17	
2025-01-10 09:38:21.38	346.90	22.19	
2025-01-10 09:38:21.59	346.85	22.21	
2025-01-10 09:38:21.79	346.81	22.23	
2025-01-10 09:38:22.00	346.76	22.26	
2025-01-10 09:38:22.20	346.72	22.28	
2025-01-10 09:38:22.41	346.67	22.30	
2025-01-10 09:38:22.61	346.62	22.33	
2025-01-10 09:38:22.82	346.57	22.35	
2025-01-10 09:38:23.03	346.53	22.37	
2025-01-10 09:38:23.23	346.48	22.39	
2025-01-10 09:38:23.44	346.43	22.42	
2025-01-10 09:38:23.64	346.39	22.44	
2025-01-10 09:38:23.85	346.34	22.46	
2025-01-10 09:38:24.05	346.29	22.48	
2025-01-10 09:38:24.26	346.24	22.51	
2025-01-10 09:38:24.47	346.19	22.53	
2025-01-10 09:38:24.67	346.15	22.55	
2025-01-10 09:38:24.88	346.10	22.58	
2025-01-10 09:38:25.08	346.05	22.60	
2025-01-10 09:38:25.29	346.00	22.62	
2025-01-10 09:38:25.50	345.95	22.65	
2025-01-10 09:38:25.70	345.91	22.67	
2025-01-10 09:38:25.91	345.86	22.69	
2025-01-10 09:38:26.11	345.81	22.71	
2025-01-10 09:38:26.32	345.76	22.74	
2025-01-10 09:38:26.52	345.71	22.76	
2025-01-10 09:38:26.73	345.66	22.78	
2025-01-10 09:38:26.94	345.62	22.80	
2025-01-10 09:38:27.15	345.57	22.83	
2025-01-10 09:38:27.36	345.52	22.85	
2025-01-10 09:38:27.58	345.46	22.88	
2025-01-10 09:38:27.78	345.42	22.90	
2025-01-10 09:38:27.99	345.37	22.92	
2025-01-10 09:38:28.19	345.32	22.94	
2025-01-10 09:38:28.40	345.27	22.97	
2025-01-10 09:38:28.60	345.22	22.99	
2025-01-10 09:38:28.81	345.17	23.01	
2025-01-10 09:38:29.01	345.12	23.03	
2025-01-10 09:38:29.22	345.07	23.06	
2025-01-10 09:38:29.42	345.02	23.08	
2025-01-10 09:38:29.63	344.97	23.10	
2025-01-10 09:38:29.83	344.92	23.12	
2025-01-10 09:38:30.04	344.87	23.15	
2025-01-10 09:38:30.24	344.83	23.17	
2025-01-10 09:38:30.45	344.77	23.19	
2025-01-10 09:38:30.66	344.72	23.22	
2025-01-10 09:38:30.86	344.67	23.24	
2025-01-10 09:38:31.07	344.62	23.26	
2025-01-10 09:38:31.27	344.57	23.28	
2025-01-10 09:38:31.48	344.52	23.31	
2025-01-10 09:38:31.69	344.47	23.33	
2025-01-10 09:38:31.90	344.42	23.35	
2025-01-10 09:38:32.11	344.37	23.38	
2025-01-10 09:38:32.31	344.32	23.40	
2025-01-10 09:38:32.52	344.27	23.42	
2025-01-10 09:38:32.72	344.22	23.44	
2025-01-10 09:38:32.92	344.17	23.47	
2025-01-10 09:38:33.13	344.12	23.49	
2025-01-10 09:38:33.33	344.07	23.51	
2025-01-10 09:38:33.54	344.02	23.53	
2025-01-10 09:38:33.74	343.97	23.56	
2025-01-10 09:38:33.95	343.91	23.58	
2025-01-10 09:38:34.16	343.86	23.60	
2025-01-10 09:38:34.36	343.81	23.63	
2025-01-10 09:38:34.56	343.76	23.65	
2025-01-10 09:38:34.77	343.71	23.67	
2025-01-10 09:38:34.98	343.66	23.69	
2025-01-10 09:38:35.18	343.61	23.72	
2025-01-10 09:38:35.39	343.55	23.74	
2025-01-10 09:38:35.59	343.50	23.76	
2025-01-10 09:38:35.80	343.45	23.78	
2025-01-10 09:38:36.00	343.40	23.81	
2025-01-10 09:38:36.21	343.35	23.83	
2025-01-10 09:38:36.41	343.30	23.85	
2025-01-10 09:38:36.62	343.24	23.88	
2025-01-10 09:38:36.82	343.19	23.90	
2025-01-10 09:38:37.02	343.14	23.92	
2025-01-10 09:38:37.23	343.09	23.94	
2025-01-10 09:38:37.44	343.03	23.97	
2025-01-10 09:38:37.65	342.98	23.99	
2025-01-10 09:38:37.86	342.93	24.01	
2025-01-10 09:38:38.07	342.87	24.04	
2025-01-10 09:38:38.27	342.82	24.06	
2025-01-10 09:38:38.48	342.77	24.08	
2025-01-10 09:38:38.70	342.71	24.10	
2025-01-10 09:38:38.90	342.66	24.13	
2025-01-10 09:38:39.11	342.60	24.15	
2025-01-10 09:38:39.31	342.55	24.17	
2025-01-10 09:38:39.52	342.50	24.20	
2025-01-10 09:38:39.72	342.45	24.22	
2025-01-10 09:38:39.93	342.39	24.24	
2025-01-10 09:38:40.14	342.34	24.26	
2025-01-10 09:38:40.34	342.28	24.29	
2025-01-10 09:38:40.55	342.23	24.31	
2025-01-10 09:38:40.75	342.18	24.33	
2025-01-10 09:38:40.96	342.12	24.35	
2025-01-10 09:38:41.17	342.07	24.38	
2025-01-10 09:38:41.37	342.01	24.40	
2025-01-10 09:38:41.58	341.96	24.42	
2025-01-10 09:38:41.78	341.91	24.44	
2025-01-10 09:38:41.99	341.85	24.47	
2025-01-10 09:38:42.19	341.80	24.49	
2025-01-10 09:38:42.40	341.74	24.51	
2025-01-10 09:38:42.60	341.69	24.53	
2025-01-10 09:38:42.81	341.63	24.56	
2025-01-10 09:38:43.01	341.58	24.58	
2025-01-10 09:38:43.22	341.52	24.60	
2025-01-10 09:38:43.42	341.47	24.62	
2025-01-10 09:38:43.63	341.41	24.65	
2025-01-10 09:38:43.83	341.36	24.67	
2025-01-10 09:38:44.04	341.30	24.69	
2025-01-10 09:38:44.24	341.25	24.71	
2025-01-10 09:38:44.45	341.19	24.74	
2025-01-10 09:38:44.65	341.14	24.76	
2025-01-10 09:38:44.86	341.08	24.78	
2025-01-10 09:38:45.06	341.03	24.80	
2025-01-10 09:38:45.27	340.97	24.83	
2025-01-10 09:38:45.47	340.92	24.85	
2025-01-10 09:38:45.68	340.86	24.87	
2025-01-10 09:38:45.89	340.80	24.89	
2025-01-10 09:38:46.09	340.75	24.92	
2025-01-10 09:38:46.29	340.70	24.94	
2025-01-10 09:38:46.50	340.64	24.96	
2025-01-10 09:38:46.71	340.58	24.98	
2025-01-10 09:38:46.91	340.53	25.00	
2025-01-10 09:38:47.11	340.47	25.03	
2025-01-10 09:38:47.32	340.41	25.05	
2025-01-10 09:38:47.53	340.36	25.07	
2025-01-10 09:38:47.73	340.30	25.09	
2025-01-10 09:38:47.94	340.24	25.12	
2025-01-10 09:38:48.14	340.19	25.14	
2025-01-10 09:38:48.35	340.13	25.16	
2025-01-10 09:38:48.55	340.07	25.18	
2025-01-10 09:38:48.76	340.02	25.21	
2025-01-10 09:38:48.96	339.96	25.23	
2025-01-10 09:38:49.17	339.90	25.25	
2025-01-10 09:38:49.38	339.84	25.27	
2025-01-10 09:38:49.58	339.79	25.29	
2025-01-10 09:38:49.79	339.73	25.32	
2025-01-10 09:38:49.99	339.67	25.34	
2025-01-10 09:38:50.20	339.61	25.36	
2025-01-10 09:38:50.40	339.56	25.38	
2025-01-10 09:38:50.61	339.50	25.41	
2025-01-10 09:38:50.81	339.44	25.43	
2025-01-10 09:38:51.02	339.38	25.45	
2025-01-10 09:38:51.22	339.33	25.47	
2025-01-10 09:38:51.43	339.27	25.49	
2025-01-10 09:38:51.63	339.21	25.52	
2025-01-10 09:38:51.84	339.15	25.54	
2025-01-10 09:38:52.04	339.09	25.56	
2025-01-10 09:38:52.25	339.03	25.58	
2025-01-10 09:38:52.47	338.97	25.61	
2025-01-10 09:38:52.67	338.91	25.63	
2025-01-10 09:38:52.88	338.85	25.65	
2025-01-10 09:38:53.08	338.80	25.67	
2025-01-10 09:38:53.29	338.74	25.69	
2025-01-10 09:38:53.50	338.68	25.72	
2025-01-10 09:38:53.70	338.62	25.74	
2025-01-10 09:38:53.91	338.56	25.76	
2025-01-10 09:38:54.11	338.50	25.78	
2025-01-10 09:38:54.32	338.44	25.81	
2025-01-10 09:38:54.52	338.38	25.83	
2025-01-10 09:38:54.74	338.32	25.85	
2025-01-10 09:38:54.95	338.26	25.87	
2025-01-10 09:38:55.15	338.20	25.89	
2025-01-10 09:38:55.36	338.14	25.92	
2025-01-10 09:38:55.57	338.08	25.94	
2025-01-10 09:38:55.77	338.02	25.96	
2025-01-10 09:38:55.98	337.96	25.98	
2025-01-10 09:38:56.18	337.90	26.00	
2025-01-10 09:38:56.39	337.84	26.03	
2025-01-10 09:38:56.59	337.78	26.05	
2025-01-10 09:38:56.80	337.72	26.07	
2025-01-10 09:38:57.00	337.66	26.09	
2025-01-10 09:38:57.21	337.60	26.11	
2025-01-10 09:38:57.41	337.54	26.13	
2025-01-10 09:38:57.62	337.47	26.16	
2025-01-10 09:38:57.82	337.41	26.18	
2025-01-10 09:38:58.03	337.35	26.20	
2025-01-10 09:38:58.23	337.29	26.22	
2025-01-10 09:38:58.44	337.23	26.24	
2025-01-10 09:38:58.64	337.17	26.26	
2025-01-10 09:38:58.85	337.11	26.29	
2025-01-10 09:38:59.05	337.05	26.31	
2025-01-10 09:38:59.26	336.99	26.33	
2025-01-10 09:38:59.46	336.93	26.35	
2025-01-10 09:38:59.67	336.86	26.37	
2025-01-10 09:38:59.87	336.80	26.39	
2025-01-10 09:39:00.08	336.74	26.42	
2025-01-10 09:39:00.28	336.68	26.44	
2025-01-10 09:39:00.49	336.62	26.46	
2025-01-10 09:39:00.69	336.56	26.48	
2025-01-10 09:39:00.90	336.49	26.50	
2025-01-10 09:39:01.12	336.43	26.52	
2025-01-10 09:39:01.32	336.36	26.55	
2025-01-10 09:39:01.53	336.30	26.57	
2025-01-10 09:39:01.73	336.24	26.59	
2025-01-10 09:39:01.94	336.18	26.61	
2025-01-10 09:39:02.14	336.12	26.63	
2025-01-10 09:39:02.35	336.05	26.65	
2025-01-10 09:39:02.55	335.99	26.67	
2025-01-10 09:39:02.76	335.93	26.70	
2025-01-10 09:39:02.96	335.86	26.72	
2025-01-10 09:39:03.17	335.80	26.74	
2025-01-10 09:39:03.38	335.74	26.76	
2025-01-10 09:39:03.59	335.67	26.78	
2025-01-10 09:39:03.79	335.61	26.80	
2025-01-10 09:39:04.00	335.54	26.82	
2025-01-10 09:39:04.20	335.48	26.84	
2025-01-10 09:39:04.41	335.42	26.87	
2025-01-10 09:39:04.61	335.35	26.89	
2025-01-10 09:39:04.82	335.29	26.91	
2025-01-10 09:39:05.03	335.22	26.93	
2025-01-10 09:39:05.23	335.16	26.95	
2025-01-10 09:39:05.44	335.10	26.97	
2025-01-10 09:39:05.64	335.03	26.99	
2025-01-10 09:39:05.85	334.97	27.01	
2025-01-10 09:39:06.06	334.90	27.04	
2025-01-10 09:39:06.26	334.84	27.06	
2025-01-10 09:39:06.47	334.77	27.08	
2025-01-10 09:39:06.67	334.71	27.10	
2025-01-10 09:39:06.88	334.64	27.12	
2025-01-10 09:39:07.08	334.58	27.14	
2025-01-10 09:39:07.29	334.51	27.16	
2025-01-10 09:39:07.49	334.45	27.18	
2025-01-10 09:39:07.70	334.39	27.20	
2025-01-10 09:39:07.90	334.32	27.22	
2025-01-10 09:39:08.11	334.25	27.24	
2025-01-10 09:39:08.32	334.19	27.26	
2025-01-10 09:39:08.52	334.12	27.29	
2025-01-10 09:39:08.73	334.06	27.31	
2025-01-10 09:39:08.93	333.99	27.33	
2025-01-10 09:39:09.14	333.93	27.35	
2025-01-10 09:39:09.34	333.86	27.37	
2025-01-10 09:39:09.55	333.79	27.39	
2025-01-10 09:39:09.75	333.73	27.41	
2025-01-10 09:39:09.96	333.66	27.43	
2025-01-10 09:39:10.16	333.60	27.45	
2025-01-10 09:39:10.37	333.53	27.47	
2025-01-10 09:39:10.57	333.47	27.49	
2025-01-10 09:39:10.78	333.40	27.51	
2025-01-10 09:39:10.98	333.33	27.53	
2025-01-10 09:39:11.19	333.27	27.55	
2025-01-10 09:39:11.40	333.20	27.57	
2025-01-10 09:39:11.60	333.13	27.59	
2025-01-10 09:39:11.82	333.06	27.62	
2025-01-10 09:39:12.03	332.99	27.64	
2025-01-10 09:39:12.23	332.93	27.66	
2025-01-10 09:39:12.44	332.86	27.68	
2025-01-10 09:39:12.64	332.79	27.70	
2025-01-10 09:39:12.84	332.73	27.72	
2025-01-10 09:39:13.05	332.66	27.74	
2025-01-10 09:39:13.25	332.59	27.76	
2025-01-10 09:39:13.46	332.52	27.78	
2025-01-10 09:39:13.67	332.45	27.80	
2025-01-10 09:39:13.87	332.39	27.82	
2025-01-10 09:39:14.07	332.32	27.84	
2025-01-10 09:39:14.28	332.25	27.86	
2025-01-10 09:39:14.49	332.18	27.88	
2025-01-10 09:39:14.69	332.12	27.90	
2025-01-10 09:39:14.90	332.05	27.92	
2025-01-10 09:39:15.10	331.98	27.94	
2025-01-10 09:39:15.31	331.91	27.96	
2025-01-10 09:39:15.51	331.84	27.98	
2025-01-10 09:39:15.72	331.77	28.00	
2025-01-10 09:39:15.92	331.71	28.02	
2025-01-10 09:39:16.13	331.64	28.04	
2025-01-10 09:39:16.33	331.57	28.05	
2025-01-10 09:39:16.54	331.50	28.08	
2025-01-10 09:39:16.74	331.43	28.09	
2025-01-10 09:39:16.95	331.36	28.11	
2025-01-10 09:39:17.15	331.29	28.13	
2025-01-10 09:39:17.36	331.22	28.15	
2025-01-10 09:39:17.56	331.16	28.17	
2025-01-10 09:39:17.77	331.09	28.19	
2025-01-10 09:39:17.98	331.01	28.21	
2025-01-10 09:39:18.18	330.95	28.23	
2025-01-10 09:39:18.39	330.88	28.25	
2025-01-10 09:39:18.59	330.81	28.27	
2025-01-10 09:39:18.80	330.74	28.29	
2025-01-10 09:39:19.00	330.67	28.31	
2025-01-10 09:39:19.21	330.60	28.33	
2025-01-10 09:39:19.41	330.53	28.35	
2025-01-10 09:39:19.62	330.46	28.37	
2025-01-10 09:39:19.82	330.39	28.39	
2025-01-10 09:39:20.03	330.32	28.41	
2025-01-10 09:39:20.24	330.24	28.42	
2025-01-10 09:39:20.44	330.17	28.44	
2025-01-10 09:39:20.65	330.10	28.46	
2025-01-10 09:39:20.85	330.03	28.48	
2025-01-10 09:39:21.06	329.96	28.50	
2025-01-10 09:39:21.26	329.89	28.52	
2025-01-10 09:39:21.48	329.82	28.54	
2025-01-10 09:39:21.69	329.74	28.56	
2025-01-10 09:39:21.89	329.67	28.58	
2025-01-10 09:39:22.10	329.60	28.60	
2025-01-10 09:39:22.30	329.53	28.62	
2025-01-10 09:39:22.52	329.45	28.64	
2025-01-10 09:39:22.73	329.38	28.65	
2025-01-10 09:39:22.94	329.31	28.67	
2025-01-10 09:39:23.14	329.24	28.69	
2025-01-10 09:39:23.35	329.17	28.71	
2025-01-10 09:39:23.55	329.10	28.73	
2025-01-10 09:39:23.76	329.02	28.75	
2025-01-10 09:39:23.96	328.95	28.77	
2025-01-10 09:39:24.17	328.88	28.78	
2025-01-10 09:39:24.38	328.80	28.80	
2025-01-10 09:39:24.58	328.73	28.82	
2025-01-10 09:39:24.79	328.66	28.84	
2025-01-10 09:39:24.99	328.59	28.86	
2025-01-10 09:39:25.20	328.51	28.88	
2025-01-10 09:39:25.40	328.44	28.89	
2025-01-10 09:39:25.61	328.37	28.91	
2025-01-10 09:39:25.81	328.30	28.93	
2025-01-10 09:39:26.02	328.22	28.95	
2025-01-10 09:39:26.22	328.15	28.97	
2025-01-10 09:39:26.43	328.08	28.99	
2025-01-10 09:39:26.63	328.01	29.00	
2025-01-10 09:39:26.84	327.93	29.02	
2025-01-10 09:39:27.04	327.86	29.04	
2025-01-10 09:39:27.25	327.78	29.06	
2025-01-10 09:39:27.45	327.71	29.07	
2025-01-10 09:39:27.66	327.64	29.09	
2025-01-10 09:39:27.86	327.57	29.11	
2025-01-10 09:39:28.07	327.49	29.13	
2025-01-10 09:39:28.27	327.42	29.15	
2025-01-10 09:39:28.48	327.34	29.16	
2025-01-10 09:39:28.68	327.27	29.18	
2025-01-10 09:39:28.89	327.20	29.20	
2025-01-10 09:39:29.09	327.12	29.22	
2025-01-10 09:39:29.30	327.05	29.23	
2025-01-10 09:39:29.50	326.97	29.25	
2025-01-10 09:39:29.71	326.90	29.27	
2025-01-10 09:39:29.91	326.83	29.29	
2025-01-10 09:39:30.12	326.75	29.30	
2025-01-10 09:39:30.32	326.68	29.32	
2025-01-10 09:39:30.53	326.60	29.34	
2025-01-10 09:39:30.73	326.53	29.35	
2025-01-10 09:39:30.94	326.45	29.37	
2025-01-10 09:39:31.14	326.38	29.39	
2025-01-10 09:39:31.35	326.30	29.41	
2025-01-10 09:39:31.56	326.22	29.42	
2025-01-10 09:39:31.76	326.15	29.44	
2025-01-10 09:39:31.97	326.07	29.46	
2025-01-10 09:39:32.17	326.00	29.47	
2025-01-10 09:39:32.38	325.92	29.49	
2025-01-10 09:39:32.58	325.85	29.51	
2025-01-10 09:39:32.79	325.77	29.53	
2025-01-10 09:39:33.00	325.69	29.54	
2025-01-10 09:39:33.20	325.62	29.56	
2025-01-10 09:39:33.41	325.54	29.58	
2025-01-10 09:39:33.61	325.47	29.59	
2025-01-10 09:39:33.82	325.39	29.61	
2025-01-10 09:39:34.02	325.32	29.63	
2025-01-10 09:39:34.23	325.24	29.64	
2025-01-10 09:39:34.44	325.16	29.66	
2025-01-10 09:39:34.64	325.09	29.67	
2025-01-10 09:39:34.85	325.01	29.69	
2025-01-10 09:39:35.06	324.93	29.71	
2025-01-10 09:39:35.26	324.85	29.72	
2025-01-10 09:39:35.46	324.78	29.74	
2025-01-10 09:39:35.67	324.70	29.76	
2025-01-10 09:39:35.87	324.63	29.77	
2025-01-10 09:39:36.08	324.55	29.79	
2025-01-10 09:39:36.29	324.47	29.81	
2025-01-10 09:39:36.49	324.39	29.82	
2025-01-10 09:39:36.70	324.31	29.84	
2025-01-10 09:39:36.90	324.24	29.85	
2025-01-10 09:39:37.11	324.16	29.87	
2025-01-10 09:39:37.32	324.08	29.88	
2025-01-10 09:39:37.52	324.00	29.90	
2025-01-10 09:39:37.72	323.93	29.92	
2025-01-10 09:39:37.93	323.85	29.93	
2025-01-10 09:39:38.13	323.77	29.95	
2025-01-10 09:39:38.34	323.69	29.96	
2025-01-10 09:39:38.54	323.62	29.98	
2025-01-10 09:39:38.75	323.54	29.99	
2025-01-10 09:39:38.96	323.46	30.01	
2025-01-10 09:39:39.16	323.38	30.02	
2025-01-10 09:39:39.37	323.30	30.04	
2025-01-10 09:39:39.59	323.22	30.06	
2025-01-10 09:39:39.79	323.14	30.07	
2025-01-10 09:39:40.00	323.06	30.09	
2025-01-10 09:39:40.21	322.98	30.10	
2025-01-10 09:39:40.41	322.90	30.12	
2025-01-10 09:39:40.61	322.83	30.13	
2025-01-10 09:39:40.82	322.75	30.15	
2025-01-10 09:39:41.03	322.67	30.16	
2025-01-10 09:39:41.23	322.59	30.18	
2025-01-10 09:39:41.44	322.51	30.19	
2025-01-10 09:39:41.64	322.43	30.21	
2025-01-10 09:39:41.85	322.35	30.22	
2025-01-10 09:39:42.05	322.27	30.23	
2025-01-10 09:39:42.26	322.19	30.25	
2025-01-10 09:39:42.46	322.11	30.26	
2025-01-10 09:39:42.67	322.03	30.28	
2025-01-10 09:39:42.87	321.96	30.29	
2025-01-10 09:39:43.08	321.87	30.31	
2025-01-10 09:39:43.28	321.80	30.32	
2025-01-10 09:39:43.49	321.72	30.34	
2025-01-10 09:39:43.70	321.63	30.35	
2025-01-10 09:39:43.90	321.56	30.36	
2025-01-10 09:39:44.10	321.48	30.38	
2025-01-10 09:39:44.31	321.40	30.39	
2025-01-10 09:39:44.52	321.31	30.41	
2025-01-10 09:39:44.72	321.24	30.42	
2025-01-10 09:39:44.93	321.15	30.43	
2025-01-10 09:39:45.13	321.08	30.45	
2025-01-10 09:39:45.34	320.99	30.46	
2025-01-10 09:39:45.54	320.91	30.48	
2025-01-10 09:39:45.75	320.83	30.49	
2025-01-10 09:39:45.95	320.75	30.50	
2025-01-10 09:39:46.16	320.67	30.52	
2025-01-10 09:39:46.36	320.59	30.53	
2025-01-10 09:39:46.57	320.51	30.54	
2025-01-10 09:39:46.78	320.43	30.56	
2025-01-10 09:39:46.98	320.35	30.57	
2025-01-10 09:39:47.19	320.27	30.58	
2025-01-10 09:39:47.39	320.19	30.60	
2025-01-10 09:39:47.60	320.10	30.61	
2025-01-10 09:39:47.80	320.02	30.62	
2025-01-10 09:39:48.01	319.94	30.64	
2025-01-10 09:39:48.21	319.86	30.65	
2025-01-10 09:39:48.42	319.78	30.66	
2025-01-10 09:39:48.62	319.70	30.67	
2025-01-10 09:39:48.83	319.62	30.69	
2025-01-10 09:39:49.03	319.54	30.70	
2025-01-10 09:39:49.24	319.45	30.71	
2025-01-10 09:39:49.44	319.37	30.73	
2025-01-10 09:39:49.65	319.29	30.74	
2025-01-10 09:39:49.85	319.21	30.75	
2025-01-10 09:39:50.06	319.12	30.76	
2025-01-10 09:39:50.26	319.04	30.78	
2025-01-10 09:39:50.47	318.96	30.79	
2025-01-10 09:39:50.67	318.88	30.80	
2025-01-10 09:39:50.88	318.80	30.81	
2025-01-10 09:39:51.09	318.71	30.83	
2025-01-10 09:39:51.29	318.63	30.84	
2025-01-10 09:39:51.50	318.55	30.85	
2025-01-10 09:39:51.70	318.47	30.86	
2025-01-10 09:39:51.91	318.38	30.87	
2025-01-10 09:39:52.11	318.30	30.89	
2025-01-10 09:39:52.32	318.22	30.90	
2025-01-10 09:39:52.52	318.14	30.91	
2025-01-10 09:39:52.73	318.05	30.92	
2025-01-10 09:39:52.94	317.97	30.93	
2025-01-10 09:39:53.14	317.89	30.94	
2025-01-10 09:39:53.35	317.80	30.96	
2025-01-10 09:39:53.55	317.72	30.97	
2025-01-10 09:39:53.76	317.64	30.98	
2025-01-10 09:39:53.97	317.55	30.99	
2025-01-10 09:39:54.17	317.47	31.00	
2025-01-10 09:39:54.38	317.38	31.01	
2025-01-10 09:39:54.60	317.29	31.02	
2025-01-10 09:39:54.80	317.21	31.04	
2025-01-10 09:39:55.01	317.13	31.05	
2025-01-10 09:39:55.21	317.05	31.06	
2025-01-10 09:39:55.42	316.96	31.07	
2025-01-10 09:39:55.62	316.88	31.08	
2025-01-10 09:39:55.83	316.79	31.09	
2025-01-10 09:39:56.04	316.71	31.10	
2025-01-10 09:39:56.24	316.63	31.11	
2025-01-10 09:39:56.45	316.54	31.12	
2025-01-10 09:39:56.65	316.46	31.13	
2025-01-10 09:39:56.86	316.37	31.14	
2025-01-10 09:39:57.06	316.29	31.15	
2025-01-10 09:39:57.27	316.20	31.16	
2025-01-10 09:39:57.48	316.12	31.17	
2025-01-10 09:39:57.68	316.04	31.18	
2025-01-10 09:39:57.89	315.95	31.19	
2025-01-10 09:39:58.09	315.87	31.20	
2025-01-10 09:39:58.30	315.78	31.21	
2025-01-10 09:39:58.51	315.69	31.22	
2025-01-10 09:39:58.71	315.61	31.23	
2025-01-10 09:39:58.92	315.53	31.24	
2025-01-10 09:39:59.12	315.44	31.25	
2025-01-10 09:39:59.33	315.36	31.26	
2025-01-10 09:39:59.53	315.27	31.27	
2025-01-10 09:39:59.74	315.19	31.28	
2025-01-10 09:39:59.94	315.10	31.29	
2025-01-10 09:40:00.15	315.02	31.30	
2025-01-10 09:40:00.35	314.94	31.31	
2025-01-10 09:40:00.56	314.85	31.32	
2025-01-10 09:40:00.76	314.77	31.33	
2025-01-10 09:40:00.97	314.68	31.34	
2025-01-10 09:40:01.17	314.60	31.35	
2025-01-10 09:40:01.38	314.51	31.36	
2025-01-10 09:40:01.58	314.43	31.37	
2025-01-10 09:40:01.79	314.34	31.37	
2025-01-10 09:40:01.99	314.25	31.38	
2025-01-10 09:40:02.20	314.17	31.39	
2025-01-10 09:40:02.40	314.08	31.40	
2025-01-10 09:40:02.61	314.00	31.41	
2025-01-10 09:40:02.81	313.91	31.42	
2025-01-10 09:40:03.02	313.83	31.43	
2025-01-10 09:40:03.22	313.74	31.43	
2025-01-10 09:40:03.43	313.65	31.44	
2025-01-10 09:40:03.63	313.57	31.45	
2025-01-10 09:40:03.84	313.48	31.46	
2025-01-10 09:40:04.05	313.40	31.47	
2025-01-10 09:40:04.27	313.30	31.48	
2025-01-10 09:40:04.47	313.22	31.48	
2025-01-10 09:40:04.68	313.13	31.49	
2025-01-10 09:40:04.88	313.05	31.50	
2025-01-10 09:40:05.09	312.96	31.51	
2025-01-10 09:40:05.30	312.87	31.52	
2025-01-10 09:40:05.51	312.78	31.52	
2025-01-10 09:40:05.71	312.70	31.53	
2025-01-10 09:40:05.92	312.61	31.54	
2025-01-10 09:40:06.12	312.53	31.55	
2025-01-10 09:40:06.33	312.44	31.55	
2025-01-10 09:40:06.54	312.35	31.56	
2025-01-10 09:40:06.74	312.27	31.57	
2025-01-10 09:40:06.95	312.18	31.58	
2025-01-10 09:40:07.15	312.09	31.58	
2025-01-10 09:40:07.36	312.01	31.59	
2025-01-10 09:40:07.56	311.92	31.60	
2025-01-10 09:40:07.77	311.83	31.60	
2025-01-10 09:40:07.98	311.74	31.61	
2025-01-10 09:40:08.18	311.66	31.62	
2025-01-10 09:40:08.39	311.57	31.62	
2025-01-10 09:40:08.59	311.49	31.63	
2025-01-10 09:40:08.79	311.40	31.64	
2025-01-10 09:40:09.00	311.31	31.64	
2025-01-10 09:40:09.21	311.22	31.65	
2025-01-10 09:40:09.41	311.14	31.66	
2025-01-10 09:40:09.61	311.05	31.66	
2025-01-10 09:40:09.82	310.97	31.67	
2025-01-10 09:40:10.02	310.88	31.67	
2025-01-10 09:40:10.23	310.79	31.68	
2025-01-10 09:40:10.43	310.71	31.69	
2025-01-10 09:40:10.63	310.62	31.69	
2025-01-10 09:40:10.84	310.53	31.70	
2025-01-10 09:40:11.05	310.44	31.70	
2025-01-10 09:40:11.25	310.36	31.71	
2025-01-10 09:40:11.46	310.27	31.72	
2025-01-10 09:40:11.66	310.18	31.72	
2025-01-10 09:40:11.87	310.10	31.73	
2025-01-10 09:40:12.07	310.01	31.73	
2025-01-10 09:40:12.28	309.92	31.74	
2025-01-10 09:40:12.49	309.83	31.74	
2025-01-10 09:40:12.69	309.75	31.75	
2025-01-10 09:40:12.89	309.66	31.75	
2025-01-10 09:40:13.10	309.57	31.76	
2025-01-10 09:40:13.31	309.48	31.76	
2025-01-10 09:40:13.51	309.40	31.77	
2025-01-10 09:40:13.72	309.31	31.77	
2025-01-10 09:40:13.92	309.22	31.78	
2025-01-10 09:40:14.13	309.13	31.78	
2025-01-10 09:40:14.33	309.05	31.79	
2025-01-10 09:40:14.54	308.96	31.79	
2025-01-10 09:40:14.75	308.87	31.80	
2025-01-10 09:40:14.95	308.78	31.80	
2025-01-10 09:40:15.15	308.70	31.80	
2025-01-10 09:40:15.36	308.61	31.81	
2025-01-10 09:40:15.57	308.52	31.81	
2025-01-10 09:40:15.77	308.43	31.82	
2025-01-10 09:40:15.97	308.35	31.82	
2025-01-10 09:40:16.18	308.26	31.82	
2025-01-10 09:40:16.38	308.17	31.83	
2025-01-10 09:40:16.59	308.08	31.83	
2025-01-10 09:40:16.80	307.99	31.84	
2025-01-10 09:40:17.00	307.91	31.84	
2025-01-10 09:40:17.20	307.82	31.84	
2025-01-10 09:40:17.41	307.73	31.85	
2025-01-10 09:40:17.61	307.64	31.85	
2025-01-10 09:40:17.82	307.55	31.85	
2025-01-10 09:40:18.02	307.47	31.86	
2025-01-10 09:40:18.23	307.38	31.86	
2025-01-10 09:40:18.43	307.29	31.86	
2025-01-10 09:40:18.64	307.20	31.87	
2025-01-10 09:40:18.84	307.12	31.87	
2025-01-10 09:40:19.05	307.03	31.87	
2025-01-10 09:40:19.25	306.94	31.87	
2025-01-10 09:40:19.46	306.85	31.88	
2025-01-10 09:40:19.66	306.76	31.88	
2025-01-10 09:40:19.87	306.67	31.88	
2025-01-10 09:40:20.08	306.58	31.88	
2025-01-10 09:40:20.28	306.50	31.89	
2025-01-10 09:40:20.48	306.41	31.89	
2025-01-10 09:40:20.69	306.32	31.89	
2025-01-10 09:40:20.90	306.23	31.89	
2025-01-10 09:40:21.10	306.15	31.90	
2025-01-10 09:40:21.31	306.06	31.90	
2025-01-10 09:40:21.51	305.97	31.90	
2025-01-10 09:40:21.72	305.88	31.90	
2025-01-10 09:40:21.93	305.79	31.90	
2025-01-10 09:40:22.13	305.70	31.91	
2025-01-10 09:40:22.33	305.62	31.91	
2025-01-10 09:40:22.54	305.53	31.91	
2025-01-10 09:40:22.75	305.44	31.91	
2025-01-10 09:40:22.95	305.35	31.91	
2025-01-10 09:40:23.16	305.26	31.91	
2025-01-10 09:40:23.36	305.17	31.92	
2025-01-10 09:40:23.57	305.08	31.92	
2025-01-10 09:40:23.78	304.99	31.92	
2025-01-10 09:40:23.99	304.90	31.92	
2025-01-10 09:40:24.19	304.82	31.92	
2025-01-10 09:40:24.40	304.73	31.92	
2025-01-10 09:40:24.60	304.64	31.92	
2025-01-10 09:40:24.81	304.55	31.92	
2025-01-10 09:40:25.01	304.46	31.92	
2025-01-10 09:40:25.22	304.37	31.92	
2025-01-10 09:40:25.43	304.28	31.92	
2025-01-10 09:40:25.63	304.20	31.92	
2025-01-10 09:40:25.84	304.10	31.93	
2025-01-10 09:40:26.04	304.02	31.93	
2025-01-10 09:40:26.25	303.93	31.93	
2025-01-10 09:40:26.45	303.84	31.93	
2025-01-10 09:40:26.66	303.75	31.93	
2025-01-10 09:40:26.87	303.66	31.93	
2025-01-10 09:40:27.07	303.57	31.93	
2025-01-10 09:40:27.28	303.48	31.93	
2025-01-10 09:40:27.48	303.40	31.93	
2025-01-10 09:40:27.69	303.31	31.93	
2025-01-10 09:40:27.89	303.22	31.93	
2025-01-10 09:40:28.10	303.13	31.92	
2025-01-10 09:40:28.30	303.04	31.92	
2025-01-10 09:40:28.51	302.95	31.92	
2025-01-10 09:40:28.71	302.87	31.92	
2025-01-10 09:40:28.92	302.78	31.92	
2025-01-10 09:40:29.13	302.69	31.92	
2025-01-10 09:40:29.33	302.60	31.92	
2025-01-10 09:40:29.54	302.51	31.92	
2025-01-10 09:40:29.74	302.42	31.92	
2025-01-10 09:40:29.96	302.33	31.92	
2025-01-10 09:40:30.17	302.24	31.92	
2025-01-10 09:40:30.38	302.15	31.92	
2025-01-10 09:40:30.58	302.06	31.91	
2025-01-10 09:40:30.79	301.97	31.91	
2025-01-10 09:40:31.01	301.88	31.91	
2025-01-10 09:40:31.21	301.79	31.91	
2025-01-10 09:40:31.42	301.70	31.91	
2025-01-10 09:40:31.62	301.61	31.91	
2025-01-10 09:40:31.83	301.52	31.90	
2025-01-10 09:40:32.03	301.44	31.90	
2025-01-10 09:40:32.24	301.35	31.90	
2025-01-10 09:40:32.44	301.26	31.90	
2025-01-10 09:40:32.65	301.17	31.90	
2025-01-10 09:40:32.85	301.09	31.89	
2025-01-10 09:40:33.06	301.00	31.89	
2025-01-10 09:40:33.26	300.91	31.89	
2025-01-10 09:40:33.47	300.82	31.89	
2025-01-10 09:40:33.68	300.73	31.89	
2025-01-10 09:40:33.88	300.64	31.88	
2025-01-10 09:40:34.09	300.55	31.88	
2025-01-10 09:40:34.29	300.47	31.88	
2025-01-10 09:40:34.50	300.38	31.87	
2025-01-10 09:40:34.70	300.29	31.87	
2025-01-10 09:40:34.91	300.20	31.87	
2025-01-10 09:40:35.11	300.11	31.87	
2025-01-10 09:40:35.32	300.02	31.86	
2025-01-10 09:40:35.52	299.94	31.86	
2025-01-10 09:40:35.73	299.85	31.86	
2025-01-10 09:40:35.93	299.76	31.85	
2025-01-10 09:40:36.14	299.67	31.85	
2025-01-10 09:40:36.34	299.59	31.85	
2025-01-10 09:40:36.55	299.50	31.84	
2025-01-10 09:40:36.75	299.41	31.84	
2025-01-10 09:40:36.96	299.32	31.84	
