passes_logs/2025/01/10/SPB_Silybum_02/SPB_Silybum_02__20250110_062008_TERRA_rec.log

#Pass ID: 20250110_062008_TERRA
#Satellite: TERRA
#Configuration: TERRA
#Start time: 2025-01-10 06:20:07

#Version: 2.0.20230423
#Station: SPB_Silybum_02
#Location: 30.233357 lon 59.946436 lat
#TLE: 1 25994U 99068A   25009.84464495  .00000861  00000+0  18726-3 0  9992
#TLE: 2 25994  98.0226  73.0387 0003560  82.8900 338.1382 14.60385144333325

#Time	Az	El	Level	Level2	SNR	BER	Gain	Gain2
2025-01-10 06:20:09.75	33.34	4.07	
2025-01-10 06:20:09.95	33.37	4.08	
2025-01-10 06:20:10.16	33.39	4.09	
2025-01-10 06:20:10.36	33.42	4.10	
2025-01-10 06:20:10.57	33.44	4.11	
2025-01-10 06:20:10.78	33.47	4.12	
2025-01-10 06:20:10.98	33.49	4.13	
2025-01-10 06:20:11.19	33.52	4.14	
2025-01-10 06:20:11.39	33.54	4.15	
2025-01-10 06:20:11.60	33.56	4.16	
2025-01-10 06:20:11.80	33.59	4.17	
2025-01-10 06:20:12.01	33.61	4.18	
2025-01-10 06:20:12.21	33.64	4.19	
2025-01-10 06:20:12.42	33.66	4.20	
2025-01-10 06:20:12.62	33.69	4.21	
2025-01-10 06:20:12.83	33.71	4.22	
2025-01-10 06:20:13.03	33.74	4.23	
2025-01-10 06:20:13.24	33.76	4.24	
2025-01-10 06:20:13.44	33.79	4.25	
2025-01-10 06:20:13.65	33.81	4.26	
2025-01-10 06:20:13.85	33.83	4.27	
2025-01-10 06:20:14.06	33.86	4.28	
2025-01-10 06:20:14.26	33.88	4.29	
2025-01-10 06:20:14.47	33.91	4.30	
2025-01-10 06:20:14.67	33.93	4.31	
2025-01-10 06:20:14.88	33.96	4.32	
2025-01-10 06:20:15.08	33.98	4.33	
2025-01-10 06:20:15.29	34.01	4.34	
2025-01-10 06:20:15.49	34.03	4.35	
2025-01-10 06:20:15.69	34.06	4.36	
2025-01-10 06:20:15.90	34.08	4.37	
2025-01-10 06:20:16.11	34.11	4.38	
2025-01-10 06:20:16.31	34.13	4.39	
2025-01-10 06:20:16.52	34.16	4.40	
2025-01-10 06:20:16.72	34.18	4.41	
2025-01-10 06:20:16.93	34.21	4.42	
2025-01-10 06:20:17.14	34.23	4.43	
2025-01-10 06:20:17.34	34.26	4.44	
2025-01-10 06:20:17.55	34.28	4.45	
2025-01-10 06:20:17.75	34.31	4.46	
2025-01-10 06:20:17.96	34.33	4.47	
2025-01-10 06:20:18.16	34.36	4.48	
2025-01-10 06:20:18.37	34.38	4.49	
2025-01-10 06:20:18.58	34.41	4.50	
2025-01-10 06:20:18.78	34.43	4.51	
2025-01-10 06:20:18.98	34.46	4.52	
2025-01-10 06:20:19.19	34.48	4.53	
2025-01-10 06:20:19.40	34.51	4.54	
2025-01-10 06:20:19.60	34.53	4.55	
2025-01-10 06:20:19.81	34.56	4.56	
2025-01-10 06:20:20.01	34.58	4.57	
2025-01-10 06:20:20.22	34.61	4.59	
2025-01-10 06:20:20.42	34.63	4.59	
2025-01-10 06:20:20.63	34.66	4.61	
2025-01-10 06:20:20.83	34.69	4.62	
2025-01-10 06:20:21.05	34.71	4.63	
2025-01-10 06:20:21.26	34.74	4.64	
2025-01-10 06:20:21.46	34.76	4.65	
2025-01-10 06:20:21.67	34.79	4.66	
2025-01-10 06:20:21.88	34.82	4.67	
2025-01-10 06:20:22.08	34.84	4.68	
2025-01-10 06:20:22.29	34.87	4.69	
2025-01-10 06:20:22.49	34.89	4.70	
2025-01-10 06:20:22.70	34.92	4.71	
2025-01-10 06:20:22.90	34.94	4.72	
2025-01-10 06:20:23.10	34.97	4.73	
2025-01-10 06:20:23.31	34.99	4.74	
2025-01-10 06:20:23.51	35.02	4.75	
2025-01-10 06:20:23.72	35.04	4.76	
2025-01-10 06:20:23.92	35.07	4.77	
2025-01-10 06:20:24.13	35.10	4.78	
2025-01-10 06:20:24.33	35.12	4.79	
2025-01-10 06:20:24.54	35.15	4.80	
2025-01-10 06:20:24.74	35.17	4.81	
2025-01-10 06:20:24.95	35.20	4.82	
2025-01-10 06:20:25.15	35.22	4.83	
2025-01-10 06:20:25.36	35.25	4.84	
2025-01-10 06:20:25.56	35.27	4.85	
2025-01-10 06:20:25.77	35.30	4.86	
2025-01-10 06:20:25.97	35.33	4.87	
2025-01-10 06:20:26.18	35.35	4.88	
2025-01-10 06:20:26.38	35.38	4.89	
2025-01-10 06:20:26.58	35.40	4.90	
2025-01-10 06:20:26.79	35.43	4.91	
2025-01-10 06:20:27.00	35.46	4.92	
2025-01-10 06:20:27.20	35.48	4.93	
2025-01-10 06:20:27.40	35.51	4.94	
2025-01-10 06:20:27.61	35.53	4.95	
2025-01-10 06:20:27.82	35.56	4.96	
2025-01-10 06:20:28.02	35.58	4.97	
2025-01-10 06:20:28.23	35.61	4.98	
2025-01-10 06:20:28.43	35.64	4.99	
2025-01-10 06:20:28.64	35.66	5.00	
2025-01-10 06:20:28.84	35.69	5.01	
2025-01-10 06:20:29.05	35.72	5.02	
2025-01-10 06:20:29.25	35.74	5.03	
2025-01-10 06:20:29.46	35.77	5.04	
2025-01-10 06:20:29.66	35.79	5.05	
2025-01-10 06:20:29.86	35.82	5.06	
2025-01-10 06:20:30.07	35.84	5.07	
2025-01-10 06:20:30.27	35.87	5.08	
2025-01-10 06:20:30.48	35.90	5.09	
2025-01-10 06:20:30.68	35.92	5.10	
2025-01-10 06:20:30.89	35.95	5.11	
2025-01-10 06:20:31.10	35.98	5.12	
2025-01-10 06:20:31.30	36.00	5.13	
2025-01-10 06:20:31.51	36.03	5.14	
2025-01-10 06:20:31.71	36.05	5.15	
2025-01-10 06:20:31.92	36.08	5.16	
2025-01-10 06:20:32.12	36.11	5.17	
2025-01-10 06:20:32.33	36.13	5.18	
2025-01-10 06:20:32.53	36.16	5.19	
2025-01-10 06:20:32.73	36.19	5.20	
2025-01-10 06:20:32.94	36.21	5.21	
2025-01-10 06:20:33.15	36.24	5.22	
2025-01-10 06:20:33.35	36.27	5.23	
2025-01-10 06:20:33.55	36.29	5.24	
2025-01-10 06:20:33.76	36.32	5.25	
2025-01-10 06:20:33.96	36.34	5.26	
2025-01-10 06:20:34.17	36.37	5.27	
2025-01-10 06:20:34.37	36.40	5.28	
2025-01-10 06:20:34.58	36.42	5.29	
2025-01-10 06:20:34.79	36.45	5.30	
2025-01-10 06:20:34.99	36.48	5.31	
2025-01-10 06:20:35.20	36.51	5.33	
2025-01-10 06:20:35.40	36.53	5.34	
2025-01-10 06:20:35.61	36.56	5.35	
2025-01-10 06:20:35.81	36.58	5.36	
2025-01-10 06:20:36.02	36.61	5.37	
2025-01-10 06:20:36.22	36.64	5.38	
2025-01-10 06:20:36.43	36.67	5.39	
2025-01-10 06:20:36.63	36.69	5.40	
2025-01-10 06:20:36.84	36.72	5.41	
2025-01-10 06:20:37.04	36.74	5.42	
2025-01-10 06:20:37.25	36.77	5.43	
2025-01-10 06:20:37.45	36.80	5.44	
2025-01-10 06:20:37.66	36.83	5.45	
2025-01-10 06:20:37.86	36.85	5.46	
2025-01-10 06:20:38.08	36.88	5.47	
2025-01-10 06:20:38.29	36.91	5.48	
2025-01-10 06:20:38.49	36.94	5.49	
2025-01-10 06:20:38.70	36.96	5.50	
2025-01-10 06:20:38.90	36.99	5.51	
2025-01-10 06:20:39.10	37.02	5.52	
2025-01-10 06:20:39.31	37.04	5.53	
2025-01-10 06:20:39.52	37.07	5.54	
2025-01-10 06:20:39.72	37.10	5.55	
2025-01-10 06:20:39.93	37.12	5.56	
2025-01-10 06:20:40.13	37.15	5.57	
2025-01-10 06:20:40.33	37.18	5.58	
2025-01-10 06:20:40.54	37.21	5.59	
2025-01-10 06:20:40.75	37.23	5.60	
2025-01-10 06:20:40.95	37.26	5.61	
2025-01-10 06:20:41.15	37.29	5.62	
2025-01-10 06:20:41.36	37.31	5.63	
2025-01-10 06:20:41.56	37.34	5.64	
2025-01-10 06:20:41.77	37.37	5.65	
2025-01-10 06:20:41.98	37.40	5.66	
2025-01-10 06:20:42.18	37.42	5.67	
2025-01-10 06:20:42.39	37.45	5.68	
2025-01-10 06:20:42.59	37.48	5.69	
2025-01-10 06:20:42.80	37.51	5.70	
2025-01-10 06:20:43.00	37.53	5.71	
2025-01-10 06:20:43.21	37.56	5.72	
2025-01-10 06:20:43.41	37.59	5.73	
2025-01-10 06:20:43.61	37.61	5.74	
2025-01-10 06:20:43.82	37.64	5.75	
2025-01-10 06:20:44.03	37.67	5.76	
2025-01-10 06:20:44.23	37.70	5.77	
2025-01-10 06:20:44.44	37.73	5.78	
2025-01-10 06:20:44.64	37.75	5.79	
2025-01-10 06:20:44.85	37.78	5.80	
2025-01-10 06:20:45.05	37.81	5.81	
2025-01-10 06:20:45.26	37.84	5.82	
2025-01-10 06:20:45.46	37.86	5.83	
2025-01-10 06:20:45.67	37.89	5.84	
2025-01-10 06:20:45.87	37.92	5.85	
2025-01-10 06:20:46.08	37.95	5.86	
2025-01-10 06:20:46.28	37.97	5.87	
2025-01-10 06:20:46.50	38.00	5.88	
2025-01-10 06:20:46.70	38.03	5.89	
2025-01-10 06:20:46.91	38.06	5.90	
2025-01-10 06:20:47.12	38.09	5.91	
2025-01-10 06:20:47.32	38.11	5.92	
2025-01-10 06:20:47.53	38.14	5.93	
2025-01-10 06:20:47.74	38.17	5.94	
2025-01-10 06:20:47.95	38.20	5.95	
2025-01-10 06:20:48.15	38.23	5.96	
2025-01-10 06:20:48.36	38.26	5.97	
2025-01-10 06:20:48.56	38.28	5.98	
2025-01-10 06:20:48.77	38.31	5.99	
2025-01-10 06:20:48.97	38.34	6.00	
2025-01-10 06:20:49.18	38.37	6.01	
2025-01-10 06:20:49.38	38.39	6.02	
2025-01-10 06:20:49.59	38.42	6.03	
2025-01-10 06:20:49.79	38.45	6.04	
2025-01-10 06:20:49.99	38.48	6.05	
2025-01-10 06:20:50.20	38.51	6.06	
2025-01-10 06:20:50.41	38.54	6.07	
2025-01-10 06:20:50.61	38.56	6.08	
2025-01-10 06:20:50.82	38.59	6.09	
2025-01-10 06:20:51.02	38.62	6.10	
2025-01-10 06:20:51.23	38.65	6.11	
2025-01-10 06:20:51.44	38.68	6.12	
2025-01-10 06:20:51.64	38.70	6.13	
2025-01-10 06:20:51.84	38.73	6.14	
2025-01-10 06:20:52.06	38.76	6.15	
2025-01-10 06:20:52.27	38.79	6.17	
2025-01-10 06:20:52.47	38.82	6.18	
2025-01-10 06:20:52.68	38.85	6.19	
2025-01-10 06:20:52.88	38.88	6.20	
2025-01-10 06:20:53.09	38.90	6.21	
2025-01-10 06:20:53.29	38.93	6.22	
2025-01-10 06:20:53.50	38.96	6.23	
2025-01-10 06:20:53.71	38.99	6.24	
2025-01-10 06:20:53.91	39.02	6.25	
2025-01-10 06:20:54.12	39.05	6.26	
2025-01-10 06:20:54.32	39.07	6.27	
2025-01-10 06:20:54.53	39.10	6.28	
2025-01-10 06:20:54.73	39.13	6.29	
2025-01-10 06:20:54.94	39.16	6.30	
2025-01-10 06:20:55.14	39.19	6.31	
2025-01-10 06:20:55.35	39.22	6.32	
2025-01-10 06:20:55.55	39.25	6.33	
2025-01-10 06:20:55.76	39.28	6.34	
2025-01-10 06:20:55.97	39.30	6.35	
2025-01-10 06:20:56.17	39.33	6.36	
2025-01-10 06:20:56.38	39.36	6.37	
2025-01-10 06:20:56.58	39.39	6.38	
2025-01-10 06:20:56.79	39.42	6.39	
2025-01-10 06:20:56.99	39.45	6.40	
2025-01-10 06:20:57.20	39.48	6.41	
2025-01-10 06:20:57.42	39.51	6.42	
2025-01-10 06:20:57.62	39.54	6.43	
2025-01-10 06:20:57.83	39.57	6.44	
2025-01-10 06:20:58.03	39.59	6.45	
2025-01-10 06:20:58.24	39.62	6.46	
2025-01-10 06:20:58.44	39.65	6.47	
2025-01-10 06:20:58.65	39.68	6.48	
2025-01-10 06:20:58.86	39.71	6.49	
2025-01-10 06:20:59.06	39.74	6.50	
2025-01-10 06:20:59.27	39.77	6.51	
2025-01-10 06:20:59.47	39.80	6.52	
2025-01-10 06:20:59.67	39.83	6.53	
2025-01-10 06:20:59.88	39.86	6.54	
2025-01-10 06:21:00.08	39.88	6.55	
2025-01-10 06:21:00.29	39.91	6.56	
2025-01-10 06:21:00.49	39.94	6.57	
2025-01-10 06:21:00.70	39.97	6.58	
2025-01-10 06:21:00.90	40.00	6.59	
2025-01-10 06:21:01.11	40.03	6.60	
2025-01-10 06:21:01.31	40.06	6.61	
2025-01-10 06:21:01.52	40.09	6.62	
2025-01-10 06:21:01.72	40.12	6.63	
2025-01-10 06:21:01.92	40.15	6.64	
2025-01-10 06:21:02.13	40.18	6.65	
2025-01-10 06:21:02.33	40.20	6.66	
2025-01-10 06:21:02.54	40.23	6.67	
2025-01-10 06:21:02.76	40.27	6.68	
2025-01-10 06:21:02.96	40.29	6.69	
2025-01-10 06:21:03.17	40.32	6.70	
2025-01-10 06:21:03.38	40.35	6.71	
2025-01-10 06:21:03.58	40.38	6.72	
2025-01-10 06:21:03.79	40.41	6.73	
2025-01-10 06:21:03.99	40.44	6.74	
2025-01-10 06:21:04.20	40.47	6.75	
2025-01-10 06:21:04.41	40.50	6.76	
2025-01-10 06:21:04.61	40.53	6.77	
2025-01-10 06:21:04.83	40.56	6.78	
2025-01-10 06:21:05.03	40.59	6.79	
2025-01-10 06:21:05.24	40.62	6.80	
2025-01-10 06:21:05.45	40.65	6.81	
2025-01-10 06:21:05.65	40.68	6.82	
2025-01-10 06:21:05.85	40.71	6.83	
2025-01-10 06:21:06.06	40.74	6.84	
2025-01-10 06:21:06.26	40.77	6.85	
2025-01-10 06:21:06.47	40.80	6.86	
2025-01-10 06:21:06.67	40.83	6.87	
2025-01-10 06:21:06.88	40.86	6.88	
2025-01-10 06:21:07.08	40.89	6.89	
2025-01-10 06:21:07.29	40.92	6.90	
2025-01-10 06:21:07.49	40.95	6.91	
2025-01-10 06:21:07.70	40.98	6.92	
2025-01-10 06:21:07.90	41.01	6.93	
2025-01-10 06:21:08.11	41.04	6.94	
2025-01-10 06:21:08.31	41.07	6.95	
2025-01-10 06:21:08.52	41.10	6.96	
2025-01-10 06:21:08.73	41.13	6.97	
2025-01-10 06:21:08.93	41.16	6.98	
2025-01-10 06:21:09.14	41.19	6.99	
2025-01-10 06:21:09.34	41.22	7.00	
2025-01-10 06:21:09.55	41.25	7.01	
2025-01-10 06:21:09.75	41.28	7.02	
2025-01-10 06:21:09.96	41.31	7.03	
2025-01-10 06:21:10.16	41.34	7.04	
2025-01-10 06:21:10.37	41.37	7.05	
2025-01-10 06:21:10.57	41.40	7.06	
2025-01-10 06:21:10.78	41.43	7.07	
2025-01-10 06:21:10.98	41.46	7.08	
2025-01-10 06:21:11.18	41.49	7.09	
2025-01-10 06:21:11.39	41.52	7.10	
2025-01-10 06:21:11.59	41.55	7.11	
2025-01-10 06:21:11.80	41.58	7.12	
2025-01-10 06:21:12.00	41.61	7.13	
2025-01-10 06:21:12.21	41.64	7.14	
2025-01-10 06:21:12.42	41.67	7.15	
2025-01-10 06:21:12.62	41.70	7.16	
2025-01-10 06:21:12.83	41.73	7.17	
2025-01-10 06:21:13.03	41.76	7.18	
2025-01-10 06:21:13.23	41.79	7.19	
2025-01-10 06:21:13.44	41.82	7.20	
2025-01-10 06:21:13.64	41.85	7.21	
2025-01-10 06:21:13.85	41.88	7.22	
2025-01-10 06:21:14.07	41.92	7.23	
2025-01-10 06:21:14.27	41.95	7.24	
2025-01-10 06:21:14.49	41.98	7.25	
2025-01-10 06:21:14.70	42.01	7.26	
2025-01-10 06:21:14.90	42.04	7.27	
2025-01-10 06:21:15.11	42.07	7.28	
2025-01-10 06:21:15.31	42.10	7.29	
2025-01-10 06:21:15.53	42.14	7.30	
2025-01-10 06:21:15.74	42.17	7.31	
2025-01-10 06:21:15.94	42.20	7.32	
2025-01-10 06:21:16.15	42.23	7.33	
2025-01-10 06:21:16.36	42.26	7.34	
2025-01-10 06:21:16.56	42.29	7.35	
2025-01-10 06:21:16.77	42.32	7.36	
2025-01-10 06:21:16.97	42.35	7.37	
2025-01-10 06:21:17.18	42.38	7.38	
2025-01-10 06:21:17.38	42.41	7.39	
2025-01-10 06:21:17.59	42.45	7.40	
2025-01-10 06:21:17.79	42.48	7.41	
2025-01-10 06:21:18.00	42.51	7.42	
2025-01-10 06:21:18.21	42.54	7.43	
2025-01-10 06:21:18.41	42.57	7.43	
2025-01-10 06:21:18.62	42.60	7.44	
2025-01-10 06:21:18.82	42.63	7.45	
2025-01-10 06:21:19.03	42.66	7.46	
2025-01-10 06:21:19.23	42.69	7.47	
2025-01-10 06:21:19.44	42.73	7.48	
2025-01-10 06:21:19.64	42.76	7.49	
2025-01-10 06:21:19.85	42.79	7.50	
2025-01-10 06:21:20.05	42.82	7.51	
2025-01-10 06:21:20.26	42.85	7.52	
2025-01-10 06:21:20.47	42.88	7.53	
2025-01-10 06:21:20.67	42.91	7.54	
2025-01-10 06:21:20.88	42.94	7.55	
2025-01-10 06:21:21.09	42.98	7.56	
2025-01-10 06:21:21.30	43.01	7.57	
2025-01-10 06:21:21.50	43.04	7.58	
2025-01-10 06:21:21.71	43.07	7.59	
2025-01-10 06:21:21.91	43.10	7.60	
2025-01-10 06:21:22.12	43.13	7.61	
2025-01-10 06:21:22.33	43.17	7.62	
2025-01-10 06:21:22.53	43.20	7.63	
2025-01-10 06:21:22.74	43.23	7.64	
2025-01-10 06:21:22.94	43.26	7.65	
2025-01-10 06:21:23.15	43.29	7.66	
2025-01-10 06:21:23.35	43.32	7.67	
2025-01-10 06:21:23.56	43.35	7.68	
2025-01-10 06:21:23.76	43.39	7.69	
2025-01-10 06:21:23.97	43.42	7.70	
2025-01-10 06:21:24.17	43.45	7.71	
2025-01-10 06:21:24.38	43.48	7.72	
2025-01-10 06:21:24.58	43.51	7.73	
2025-01-10 06:21:24.79	43.54	7.74	
2025-01-10 06:21:24.99	43.58	7.75	
2025-01-10 06:21:25.20	43.61	7.76	
2025-01-10 06:21:25.40	43.64	7.77	
2025-01-10 06:21:25.61	43.67	7.78	
2025-01-10 06:21:25.82	43.70	7.79	
2025-01-10 06:21:26.02	43.74	7.80	
2025-01-10 06:21:26.23	43.77	7.81	
2025-01-10 06:21:26.43	43.80	7.82	
2025-01-10 06:21:26.63	43.83	7.83	
2025-01-10 06:21:26.84	43.86	7.84	
2025-01-10 06:21:27.06	43.90	7.85	
2025-01-10 06:21:27.27	43.93	7.86	
2025-01-10 06:21:27.48	43.96	7.87	
2025-01-10 06:21:27.68	43.99	7.88	
2025-01-10 06:21:27.89	44.03	7.89	
2025-01-10 06:21:28.10	44.06	7.90	
2025-01-10 06:21:28.30	44.09	7.91	
2025-01-10 06:21:28.52	44.13	7.92	
2025-01-10 06:21:28.72	44.16	7.93	
2025-01-10 06:21:28.93	44.19	7.94	
2025-01-10 06:21:29.13	44.22	7.95	
2025-01-10 06:21:29.34	44.25	7.96	
2025-01-10 06:21:29.54	44.29	7.96	
2025-01-10 06:21:29.75	44.32	7.97	
2025-01-10 06:21:29.95	44.35	7.98	
2025-01-10 06:21:30.16	44.38	7.99	
2025-01-10 06:21:30.37	44.42	8.00	
2025-01-10 06:21:30.58	44.45	8.01	
2025-01-10 06:21:30.78	44.48	8.02	
2025-01-10 06:21:30.99	44.51	8.03	
2025-01-10 06:21:31.20	44.55	8.04	
2025-01-10 06:21:31.40	44.58	8.05	
2025-01-10 06:21:31.60	44.61	8.06	
2025-01-10 06:21:31.81	44.64	8.07	
2025-01-10 06:21:32.02	44.68	8.08	
2025-01-10 06:21:32.22	44.71	8.09	
2025-01-10 06:21:32.43	44.74	8.10	
2025-01-10 06:21:32.63	44.77	8.11	
2025-01-10 06:21:32.84	44.81	8.12	
2025-01-10 06:21:33.04	44.84	8.13	
2025-01-10 06:21:33.26	44.87	8.14	
2025-01-10 06:21:33.46	44.91	8.15	
2025-01-10 06:21:33.68	44.94	8.16	
2025-01-10 06:21:33.88	44.97	8.17	
2025-01-10 06:21:34.09	45.01	8.18	
2025-01-10 06:21:34.30	45.04	8.19	
2025-01-10 06:21:34.50	45.07	8.20	
2025-01-10 06:21:34.71	45.10	8.21	
2025-01-10 06:21:34.91	45.14	8.22	
2025-01-10 06:21:35.12	45.17	8.23	
2025-01-10 06:21:35.32	45.20	8.24	
2025-01-10 06:21:35.53	45.24	8.25	
2025-01-10 06:21:35.75	45.27	8.26	
2025-01-10 06:21:35.95	45.30	8.27	
2025-01-10 06:21:36.16	45.34	8.28	
2025-01-10 06:21:36.36	45.37	8.28	
2025-01-10 06:21:36.57	45.40	8.29	
2025-01-10 06:21:36.77	45.44	8.30	
2025-01-10 06:21:36.98	45.47	8.31	
2025-01-10 06:21:37.18	45.50	8.32	
2025-01-10 06:21:37.39	45.54	8.33	
2025-01-10 06:21:37.60	45.57	8.34	
2025-01-10 06:21:37.80	45.60	8.35	
2025-01-10 06:21:38.00	45.63	8.36	
2025-01-10 06:21:38.21	45.67	8.37	
2025-01-10 06:21:38.41	45.70	8.38	
2025-01-10 06:21:38.62	45.73	8.39	
2025-01-10 06:21:38.83	45.77	8.40	
2025-01-10 06:21:39.04	45.80	8.41	
2025-01-10 06:21:39.24	45.83	8.42	
2025-01-10 06:21:39.45	45.87	8.43	
2025-01-10 06:21:39.65	45.90	8.44	
2025-01-10 06:21:39.86	45.94	8.45	
2025-01-10 06:21:40.06	45.97	8.46	
2025-01-10 06:21:40.26	46.00	8.47	
2025-01-10 06:21:40.47	46.03	8.48	
2025-01-10 06:21:40.67	46.07	8.49	
2025-01-10 06:21:40.88	46.10	8.49	
2025-01-10 06:21:41.08	46.13	8.50	
2025-01-10 06:21:41.29	46.17	8.51	
2025-01-10 06:21:41.50	46.20	8.52	
2025-01-10 06:21:41.70	46.24	8.53	
2025-01-10 06:21:41.91	46.27	8.54	
2025-01-10 06:21:42.12	46.30	8.55	
2025-01-10 06:21:42.32	46.34	8.56	
2025-01-10 06:21:42.53	46.37	8.57	
2025-01-10 06:21:42.74	46.41	8.58	
2025-01-10 06:21:42.94	46.44	8.59	
2025-01-10 06:21:43.15	46.47	8.60	
2025-01-10 06:21:43.35	46.51	8.61	
2025-01-10 06:21:43.56	46.54	8.62	
2025-01-10 06:21:43.76	46.57	8.63	
2025-01-10 06:21:43.97	46.61	8.64	
2025-01-10 06:21:44.17	46.64	8.65	
2025-01-10 06:21:44.37	46.67	8.66	
2025-01-10 06:21:44.58	46.71	8.67	
2025-01-10 06:21:44.79	46.74	8.67	
2025-01-10 06:21:44.99	46.78	8.68	
2025-01-10 06:21:45.20	46.81	8.69	
2025-01-10 06:21:45.40	46.85	8.70	
2025-01-10 06:21:45.61	46.88	8.71	
2025-01-10 06:21:45.81	46.91	8.72	
2025-01-10 06:21:46.02	46.95	8.73	
2025-01-10 06:21:46.22	46.98	8.74	
2025-01-10 06:21:46.43	47.02	8.75	
2025-01-10 06:21:46.63	47.05	8.76	
2025-01-10 06:21:46.84	47.08	8.77	
2025-01-10 06:21:47.04	47.12	8.78	
2025-01-10 06:21:47.25	47.15	8.79	
2025-01-10 06:21:47.45	47.19	8.80	
2025-01-10 06:21:47.65	47.22	8.81	
2025-01-10 06:21:47.86	47.25	8.82	
2025-01-10 06:21:48.07	47.29	8.82	
2025-01-10 06:21:48.27	47.32	8.83	
2025-01-10 06:21:48.47	47.36	8.84	
2025-01-10 06:21:48.68	47.39	8.85	
2025-01-10 06:21:48.88	47.43	8.86	
2025-01-10 06:21:49.09	47.46	8.87	
2025-01-10 06:21:49.30	47.50	8.88	
2025-01-10 06:21:49.50	47.53	8.89	
2025-01-10 06:21:49.70	47.56	8.90	
2025-01-10 06:21:49.91	47.60	8.91	
2025-01-10 06:21:50.11	47.63	8.92	
2025-01-10 06:21:50.32	47.67	8.93	
2025-01-10 06:21:50.52	47.70	8.94	
2025-01-10 06:21:50.73	47.74	8.95	
2025-01-10 06:21:50.93	47.77	8.95	
2025-01-10 06:21:51.14	47.81	8.96	
2025-01-10 06:21:51.34	47.84	8.97	
2025-01-10 06:21:51.55	47.88	8.98	
2025-01-10 06:21:51.77	47.91	8.99	
2025-01-10 06:21:51.97	47.95	9.00	
2025-01-10 06:21:52.18	47.98	9.01	
2025-01-10 06:21:52.38	48.02	9.02	
2025-01-10 06:21:52.59	48.05	9.03	
2025-01-10 06:21:52.79	48.09	9.04	
2025-01-10 06:21:53.00	48.12	9.05	
2025-01-10 06:21:53.20	48.16	9.06	
2025-01-10 06:21:53.41	48.19	9.07	
2025-01-10 06:21:53.61	48.22	9.08	
2025-01-10 06:21:53.82	48.26	9.08	
2025-01-10 06:21:54.02	48.29	9.09	
2025-01-10 06:21:54.23	48.33	9.10	
2025-01-10 06:21:54.43	48.36	9.11	
2025-01-10 06:21:54.64	48.40	9.12	
2025-01-10 06:21:54.84	48.43	9.13	
2025-01-10 06:21:55.05	48.47	9.14	
2025-01-10 06:21:55.26	48.51	9.15	
2025-01-10 06:21:55.46	48.54	9.16	
2025-01-10 06:21:55.67	48.58	9.17	
2025-01-10 06:21:55.87	48.61	9.18	
2025-01-10 06:21:56.08	48.65	9.19	
2025-01-10 06:21:56.28	48.68	9.20	
2025-01-10 06:21:56.49	48.72	9.20	
2025-01-10 06:21:56.69	48.75	9.21	
2025-01-10 06:21:56.90	48.79	9.22	
2025-01-10 06:21:57.10	48.82	9.23	
2025-01-10 06:21:57.31	48.86	9.24	
2025-01-10 06:21:57.51	48.89	9.25	
2025-01-10 06:21:57.72	48.93	9.26	
2025-01-10 06:21:57.92	48.96	9.27	
2025-01-10 06:21:58.13	49.00	9.28	
2025-01-10 06:21:58.33	49.03	9.29	
2025-01-10 06:21:58.54	49.07	9.30	
2025-01-10 06:21:58.74	49.11	9.30	
2025-01-10 06:21:58.95	49.14	9.31	
2025-01-10 06:21:59.15	49.18	9.32	
2025-01-10 06:21:59.36	49.21	9.33	
2025-01-10 06:21:59.56	49.25	9.34	
2025-01-10 06:21:59.77	49.28	9.35	
2025-01-10 06:21:59.98	49.32	9.36	
2025-01-10 06:22:00.19	49.36	9.37	
2025-01-10 06:22:00.40	49.39	9.38	
2025-01-10 06:22:00.60	49.43	9.39	
2025-01-10 06:22:00.81	49.47	9.40	
2025-01-10 06:22:01.01	49.50	9.40	
2025-01-10 06:22:01.22	49.54	9.41	
2025-01-10 06:22:01.42	49.57	9.42	
2025-01-10 06:22:01.63	49.61	9.43	
2025-01-10 06:22:01.83	49.64	9.44	
2025-01-10 06:22:02.04	49.68	9.45	
2025-01-10 06:22:02.25	49.72	9.46	
2025-01-10 06:22:02.45	49.75	9.47	
2025-01-10 06:22:02.65	49.79	9.48	
2025-01-10 06:22:02.86	49.82	9.49	
2025-01-10 06:22:03.07	49.86	9.50	
2025-01-10 06:22:03.27	49.90	9.50	
2025-01-10 06:22:03.48	49.93	9.51	
2025-01-10 06:22:03.68	49.97	9.52	
2025-01-10 06:22:03.89	50.00	9.53	
2025-01-10 06:22:04.09	50.04	9.54	
2025-01-10 06:22:04.30	50.08	9.55	
2025-01-10 06:22:04.52	50.12	9.56	
2025-01-10 06:22:04.72	50.15	9.57	
2025-01-10 06:22:04.93	50.19	9.58	
2025-01-10 06:22:05.13	50.22	9.58	
2025-01-10 06:22:05.34	50.26	9.59	
2025-01-10 06:22:05.54	50.30	9.60	
2025-01-10 06:22:05.75	50.33	9.61	
2025-01-10 06:22:05.96	50.37	9.62	
2025-01-10 06:22:06.16	50.41	9.63	
2025-01-10 06:22:06.37	50.44	9.64	
2025-01-10 06:22:06.57	50.48	9.65	
2025-01-10 06:22:06.78	50.52	9.66	
2025-01-10 06:22:06.98	50.55	9.67	
2025-01-10 06:22:07.19	50.59	9.67	
2025-01-10 06:22:07.39	50.62	9.68	
2025-01-10 06:22:07.60	50.66	9.69	
2025-01-10 06:22:07.81	50.70	9.70	
2025-01-10 06:22:08.01	50.73	9.71	
2025-01-10 06:22:08.22	50.77	9.72	
2025-01-10 06:22:08.42	50.81	9.73	
2025-01-10 06:22:08.63	50.84	9.74	
2025-01-10 06:22:08.84	50.88	9.75	
2025-01-10 06:22:09.04	50.92	9.75	
2025-01-10 06:22:09.25	50.96	9.76	
2025-01-10 06:22:09.45	50.99	9.77	
2025-01-10 06:22:09.66	51.03	9.78	
2025-01-10 06:22:09.86	51.07	9.79	
2025-01-10 06:22:10.07	51.10	9.80	
2025-01-10 06:22:10.27	51.14	9.81	
2025-01-10 06:22:10.48	51.18	9.82	
2025-01-10 06:22:10.68	51.21	9.82	
2025-01-10 06:22:10.89	51.25	9.83	
2025-01-10 06:22:11.10	51.29	9.84	
2025-01-10 06:22:11.30	51.32	9.85	
2025-01-10 06:22:11.51	51.36	9.86	
2025-01-10 06:22:11.71	51.40	9.87	
2025-01-10 06:22:11.92	51.44	9.88	
2025-01-10 06:22:12.12	51.47	9.89	
2025-01-10 06:22:12.33	51.51	9.89	
2025-01-10 06:22:12.53	51.55	9.90	
2025-01-10 06:22:12.74	51.58	9.91	
2025-01-10 06:22:12.94	51.62	9.92	
2025-01-10 06:22:13.15	51.66	9.93	
2025-01-10 06:22:13.35	51.69	9.94	
2025-01-10 06:22:13.56	51.73	9.95	
2025-01-10 06:22:13.76	51.77	9.95	
2025-01-10 06:22:13.97	51.81	9.96	
2025-01-10 06:22:14.17	51.84	9.97	
2025-01-10 06:22:14.38	51.88	9.98	
2025-01-10 06:22:14.58	51.92	9.99	
2025-01-10 06:22:14.79	51.96	10.00	
2025-01-10 06:22:15.00	51.99	10.01	
2025-01-10 06:22:15.20	52.03	10.02	
2025-01-10 06:22:15.40	52.07	10.02	
2025-01-10 06:22:15.61	52.11	10.03	
2025-01-10 06:22:15.82	52.14	10.04	
2025-01-10 06:22:16.02	52.18	10.05	
2025-01-10 06:22:16.23	52.22	10.06	
2025-01-10 06:22:16.43	52.25	10.07	
2025-01-10 06:22:16.64	52.29	10.08	
2025-01-10 06:22:16.84	52.33	10.08	
2025-01-10 06:22:17.05	52.37	10.09	
2025-01-10 06:22:17.25	52.40	10.10	
2025-01-10 06:22:17.46	52.44	10.11	
2025-01-10 06:22:17.66	52.48	10.12	
2025-01-10 06:22:17.86	52.52	10.13	
2025-01-10 06:22:18.07	52.56	10.13	
2025-01-10 06:22:18.28	52.59	10.14	
2025-01-10 06:22:18.49	52.63	10.15	
2025-01-10 06:22:18.70	52.67	10.16	
2025-01-10 06:22:18.91	52.71	10.17	
2025-01-10 06:22:19.11	52.75	10.18	
2025-01-10 06:22:19.31	52.78	10.19	
2025-01-10 06:22:19.52	52.82	10.19	
2025-01-10 06:22:19.72	52.86	10.20	
2025-01-10 06:22:19.93	52.90	10.21	
2025-01-10 06:22:20.13	52.94	10.22	
2025-01-10 06:22:20.34	52.97	10.23	
2025-01-10 06:22:20.54	53.01	10.24	
2025-01-10 06:22:20.75	53.05	10.25	
2025-01-10 06:22:20.95	53.09	10.25	
2025-01-10 06:22:21.16	53.13	10.26	
2025-01-10 06:22:21.36	53.16	10.27	
2025-01-10 06:22:21.57	53.20	10.28	
2025-01-10 06:22:21.77	53.24	10.29	
2025-01-10 06:22:21.97	53.28	10.30	
2025-01-10 06:22:22.18	53.32	10.30	
2025-01-10 06:22:22.38	53.35	10.31	
2025-01-10 06:22:22.59	53.39	10.32	
2025-01-10 06:22:22.79	53.43	10.33	
2025-01-10 06:22:23.00	53.47	10.34	
2025-01-10 06:22:23.20	53.51	10.35	
2025-01-10 06:22:23.41	53.54	10.35	
2025-01-10 06:22:23.61	53.58	10.36	
2025-01-10 06:22:23.82	53.62	10.37	
2025-01-10 06:22:24.02	53.66	10.38	
2025-01-10 06:22:24.23	53.70	10.39	
2025-01-10 06:22:24.44	53.74	10.40	
2025-01-10 06:22:24.64	53.78	10.40	
2025-01-10 06:22:24.84	53.81	10.41	
2025-01-10 06:22:25.05	53.85	10.42	
2025-01-10 06:22:25.27	53.89	10.43	
2025-01-10 06:22:25.47	53.93	10.44	
2025-01-10 06:22:25.68	53.97	10.45	
2025-01-10 06:22:25.88	54.01	10.45	
2025-01-10 06:22:26.09	54.05	10.46	
2025-01-10 06:22:26.29	54.08	10.47	
2025-01-10 06:22:26.50	54.12	10.48	
2025-01-10 06:22:26.70	54.16	10.49	
2025-01-10 06:22:26.91	54.20	10.49	
2025-01-10 06:22:27.12	54.24	10.50	
2025-01-10 06:22:27.32	54.28	10.51	
2025-01-10 06:22:27.52	54.32	10.52	
2025-01-10 06:22:27.73	54.36	10.53	
2025-01-10 06:22:27.93	54.39	10.54	
2025-01-10 06:22:28.14	54.43	10.54	
2025-01-10 06:22:28.34	54.47	10.55	
2025-01-10 06:22:28.55	54.51	10.56	
2025-01-10 06:22:28.75	54.55	10.57	
2025-01-10 06:22:28.96	54.59	10.58	
2025-01-10 06:22:29.16	54.63	10.58	
2025-01-10 06:22:29.37	54.67	10.59	
2025-01-10 06:22:29.57	54.71	10.60	
2025-01-10 06:22:29.78	54.75	10.61	
2025-01-10 06:22:29.98	54.78	10.62	
2025-01-10 06:22:30.20	54.83	10.62	
2025-01-10 06:22:30.41	54.87	10.63	
2025-01-10 06:22:30.62	54.91	10.64	
2025-01-10 06:22:30.82	54.94	10.65	
2025-01-10 06:22:31.03	54.98	10.66	
2025-01-10 06:22:31.23	55.02	10.67	
2025-01-10 06:22:31.44	55.06	10.67	
2025-01-10 06:22:31.64	55.10	10.68	
2025-01-10 06:22:31.85	55.14	10.69	
2025-01-10 06:22:32.05	55.18	10.70	
2025-01-10 06:22:32.26	55.22	10.71	
2025-01-10 06:22:32.46	55.26	10.71	
2025-01-10 06:22:32.67	55.30	10.72	
2025-01-10 06:22:32.87	55.34	10.73	
2025-01-10 06:22:33.08	55.38	10.74	
2025-01-10 06:22:33.28	55.41	10.75	
2025-01-10 06:22:33.48	55.45	10.75	
2025-01-10 06:22:33.69	55.49	10.76	
2025-01-10 06:22:33.90	55.53	10.77	
2025-01-10 06:22:34.10	55.57	10.78	
2025-01-10 06:22:34.31	55.61	10.78	
2025-01-10 06:22:34.51	55.65	10.79	
2025-01-10 06:22:34.71	55.69	10.80	
2025-01-10 06:22:34.92	55.73	10.81	
2025-01-10 06:22:35.12	55.77	10.82	
2025-01-10 06:22:35.33	55.81	10.82	
2025-01-10 06:22:35.53	55.85	10.83	
2025-01-10 06:22:35.74	55.89	10.84	
2025-01-10 06:22:35.94	55.93	10.85	
2025-01-10 06:22:36.15	55.97	10.86	
2025-01-10 06:22:36.35	56.01	10.86	
2025-01-10 06:22:36.56	56.05	10.87	
2025-01-10 06:22:36.76	56.09	10.88	
2025-01-10 06:22:36.97	56.13	10.89	
2025-01-10 06:22:37.18	56.17	10.89	
2025-01-10 06:22:37.38	56.21	10.90	
2025-01-10 06:22:37.59	56.25	10.91	
2025-01-10 06:22:37.79	56.29	10.92	
2025-01-10 06:22:38.00	56.33	10.93	
2025-01-10 06:22:38.20	56.37	10.93	
2025-01-10 06:22:38.41	56.41	10.94	
2025-01-10 06:22:38.61	56.45	10.95	
2025-01-10 06:22:38.82	56.49	10.96	
2025-01-10 06:22:39.02	56.53	10.96	
2025-01-10 06:22:39.23	56.57	10.97	
2025-01-10 06:22:39.43	56.61	10.98	
2025-01-10 06:22:39.64	56.65	10.99	
2025-01-10 06:22:39.84	56.69	10.99	
2025-01-10 06:22:40.05	56.73	11.00	
2025-01-10 06:22:40.25	56.77	11.01	
2025-01-10 06:22:40.46	56.81	11.02	
2025-01-10 06:22:40.67	56.85	11.03	
2025-01-10 06:22:40.87	56.89	11.03	
2025-01-10 06:22:41.08	56.93	11.04	
2025-01-10 06:22:41.28	56.97	11.05	
2025-01-10 06:22:41.49	57.01	11.06	
2025-01-10 06:22:41.69	57.05	11.06	
2025-01-10 06:22:41.90	57.09	11.07	
2025-01-10 06:22:42.10	57.13	11.08	
2025-01-10 06:22:42.31	57.17	11.09	
2025-01-10 06:22:42.51	57.21	11.09	
2025-01-10 06:22:42.72	57.25	11.10	
2025-01-10 06:22:42.92	57.29	11.11	
2025-01-10 06:22:43.12	57.33	11.12	
2025-01-10 06:22:43.33	57.37	11.12	
2025-01-10 06:22:43.53	57.41	11.13	
2025-01-10 06:22:43.74	57.45	11.14	
2025-01-10 06:22:43.95	57.49	11.15	
2025-01-10 06:22:44.15	57.53	11.15	
2025-01-10 06:22:44.35	57.57	11.16	
2025-01-10 06:22:44.56	57.61	11.17	
2025-01-10 06:22:44.77	57.66	11.18	
2025-01-10 06:22:44.97	57.70	11.18	
2025-01-10 06:22:45.19	57.74	11.19	
2025-01-10 06:22:45.40	57.78	11.20	
2025-01-10 06:22:45.60	57.82	11.21	
2025-01-10 06:22:45.81	57.86	11.21	
2025-01-10 06:22:46.01	57.90	11.22	
2025-01-10 06:22:46.23	57.95	11.23	
2025-01-10 06:22:46.44	57.99	11.24	
2025-01-10 06:22:46.64	58.03	11.24	
2025-01-10 06:22:46.85	58.07	11.25	
2025-01-10 06:22:47.05	58.11	11.26	
2025-01-10 06:22:47.26	58.15	11.26	
2025-01-10 06:22:47.46	58.19	11.27	
2025-01-10 06:22:47.67	58.23	11.28	
2025-01-10 06:22:47.87	58.27	11.29	
2025-01-10 06:22:48.08	58.32	11.29	
2025-01-10 06:22:48.28	58.36	11.30	
2025-01-10 06:22:48.49	58.40	11.31	
2025-01-10 06:22:48.69	58.44	11.32	
2025-01-10 06:22:48.90	58.48	11.32	
2025-01-10 06:22:49.10	58.52	11.33	
2025-01-10 06:22:49.31	58.56	11.34	
2025-01-10 06:22:49.53	58.61	11.35	
2025-01-10 06:22:49.73	58.65	11.35	
2025-01-10 06:22:49.94	58.69	11.36	
2025-01-10 06:22:50.14	58.73	11.37	
2025-01-10 06:22:50.35	58.77	11.37	
2025-01-10 06:22:50.55	58.81	11.38	
2025-01-10 06:22:50.76	58.85	11.39	
2025-01-10 06:22:50.97	58.89	11.40	
2025-01-10 06:22:51.17	58.93	11.40	
2025-01-10 06:22:51.38	58.98	11.41	
2025-01-10 06:22:51.58	59.02	11.42	
2025-01-10 06:22:51.78	59.06	11.42	
2025-01-10 06:22:51.99	59.10	11.43	
2025-01-10 06:22:52.19	59.14	11.44	
2025-01-10 06:22:52.40	59.18	11.44	
2025-01-10 06:22:52.60	59.22	11.45	
2025-01-10 06:22:52.81	59.27	11.46	
2025-01-10 06:22:53.01	59.31	11.47	
2025-01-10 06:22:53.22	59.35	11.47	
2025-01-10 06:22:53.43	59.39	11.48	
2025-01-10 06:22:53.63	59.43	11.49	
2025-01-10 06:22:53.84	59.47	11.49	
2025-01-10 06:22:54.04	59.51	11.50	
2025-01-10 06:22:54.25	59.56	11.51	
2025-01-10 06:22:54.45	59.60	11.51	
2025-01-10 06:22:54.65	59.64	11.52	
2025-01-10 06:22:54.86	59.68	11.53	
2025-01-10 06:22:55.07	59.72	11.54	
2025-01-10 06:22:55.28	59.77	11.54	
2025-01-10 06:22:55.49	59.81	11.55	
2025-01-10 06:22:55.69	59.85	11.56	
2025-01-10 06:22:55.90	59.89	11.56	
2025-01-10 06:22:56.11	59.94	11.57	
2025-01-10 06:22:56.31	59.98	11.58	
2025-01-10 06:22:56.52	60.02	11.58	
2025-01-10 06:22:56.72	60.06	11.59	
2025-01-10 06:22:56.93	60.10	11.60	
2025-01-10 06:22:57.13	60.14	11.60	
2025-01-10 06:22:57.34	60.19	11.61	
2025-01-10 06:22:57.54	60.23	11.62	
2025-01-10 06:22:57.75	60.27	11.62	
2025-01-10 06:22:57.95	60.31	11.63	
2025-01-10 06:22:58.16	60.35	11.64	
2025-01-10 06:22:58.36	60.40	11.64	
2025-01-10 06:22:58.57	60.44	11.65	
2025-01-10 06:22:58.78	60.48	11.66	
2025-01-10 06:22:58.98	60.52	11.67	
2025-01-10 06:22:59.18	60.56	11.67	
2025-01-10 06:22:59.39	60.61	11.68	
2025-01-10 06:22:59.59	60.65	11.69	
2025-01-10 06:22:59.80	60.69	11.69	
2025-01-10 06:23:00.01	60.73	11.70	
2025-01-10 06:23:00.23	60.78	11.71	
2025-01-10 06:23:00.43	60.82	11.71	
2025-01-10 06:23:00.64	60.86	11.72	
2025-01-10 06:23:00.84	60.91	11.73	
2025-01-10 06:23:01.05	60.95	11.73	
2025-01-10 06:23:01.25	60.99	11.74	
2025-01-10 06:23:01.46	61.03	11.75	
2025-01-10 06:23:01.66	61.07	11.75	
2025-01-10 06:23:01.87	61.12	11.76	
2025-01-10 06:23:02.08	61.16	11.77	
2025-01-10 06:23:02.28	61.20	11.77	
2025-01-10 06:23:02.49	61.25	11.78	
2025-01-10 06:23:02.69	61.29	11.78	
2025-01-10 06:23:02.90	61.33	11.79	
2025-01-10 06:23:03.10	61.37	11.80	
2025-01-10 06:23:03.31	61.42	11.80	
2025-01-10 06:23:03.51	61.46	11.81	
2025-01-10 06:23:03.71	61.50	11.82	
2025-01-10 06:23:03.92	61.54	11.82	
2025-01-10 06:23:04.13	61.59	11.83	
2025-01-10 06:23:04.33	61.63	11.84	
2025-01-10 06:23:04.53	61.67	11.84	
2025-01-10 06:23:04.74	61.71	11.85	
2025-01-10 06:23:04.94	61.75	11.86	
2025-01-10 06:23:05.15	61.80	11.86	
2025-01-10 06:23:05.35	61.84	11.87	
2025-01-10 06:23:05.56	61.88	11.87	
2025-01-10 06:23:05.76	61.93	11.88	
2025-01-10 06:23:05.97	61.97	11.89	
2025-01-10 06:23:06.17	62.01	11.89	
2025-01-10 06:23:06.38	62.05	11.90	
2025-01-10 06:23:06.58	62.10	11.91	
2025-01-10 06:23:06.79	62.14	11.91	
2025-01-10 06:23:06.99	62.18	11.92	
2025-01-10 06:23:07.20	62.23	11.92	
2025-01-10 06:23:07.40	62.27	11.93	
2025-01-10 06:23:07.61	62.31	11.94	
2025-01-10 06:23:07.82	62.36	11.94	
2025-01-10 06:23:08.02	62.40	11.95	
2025-01-10 06:23:08.23	62.44	11.96	
2025-01-10 06:23:08.43	62.48	11.96	
2025-01-10 06:23:08.63	62.53	11.97	
2025-01-10 06:23:08.84	62.57	11.97	
2025-01-10 06:23:09.04	62.61	11.98	
2025-01-10 06:23:09.25	62.66	11.99	
2025-01-10 06:23:09.46	62.70	11.99	
2025-01-10 06:23:09.66	62.74	12.00	
2025-01-10 06:23:09.87	62.79	12.01	
2025-01-10 06:23:10.07	62.83	12.01	
2025-01-10 06:23:10.28	62.87	12.02	
2025-01-10 06:23:10.48	62.91	12.02	
2025-01-10 06:23:10.68	62.96	12.03	
2025-01-10 06:23:10.89	63.00	12.04	
2025-01-10 06:23:11.09	63.04	12.04	
2025-01-10 06:23:11.30	63.09	12.05	
2025-01-10 06:23:11.51	63.13	12.05	
2025-01-10 06:23:11.71	63.17	12.06	
2025-01-10 06:23:11.91	63.22	12.06	
2025-01-10 06:23:12.12	63.26	12.07	
2025-01-10 06:23:12.33	63.30	12.08	
2025-01-10 06:23:12.53	63.35	12.08	
2025-01-10 06:23:12.74	63.39	12.09	
2025-01-10 06:23:12.94	63.43	12.09	
2025-01-10 06:23:13.15	63.48	12.10	
2025-01-10 06:23:13.35	63.52	12.11	
2025-01-10 06:23:13.56	63.56	12.11	
2025-01-10 06:23:13.76	63.61	12.12	
2025-01-10 06:23:13.97	63.65	12.12	
2025-01-10 06:23:14.17	63.69	12.13	
2025-01-10 06:23:14.38	63.74	12.14	
2025-01-10 06:23:14.59	63.78	12.14	
2025-01-10 06:23:14.79	63.83	12.15	
2025-01-10 06:23:14.99	63.87	12.15	
2025-01-10 06:23:15.20	63.91	12.16	
2025-01-10 06:23:15.41	63.96	12.16	
2025-01-10 06:23:15.61	64.00	12.17	
2025-01-10 06:23:15.82	64.05	12.18	
2025-01-10 06:23:16.02	64.09	12.18	
2025-01-10 06:23:16.23	64.13	12.19	
2025-01-10 06:23:16.43	64.18	12.19	
2025-01-10 06:23:16.64	64.22	12.20	
2025-01-10 06:23:16.85	64.26	12.20	
2025-01-10 06:23:17.05	64.31	12.21	
2025-01-10 06:23:17.26	64.35	12.22	
2025-01-10 06:23:17.46	64.39	12.22	
2025-01-10 06:23:17.67	64.44	12.23	
2025-01-10 06:23:17.88	64.48	12.23	
2025-01-10 06:23:18.08	64.53	12.24	
2025-01-10 06:23:18.30	64.57	12.24	
2025-01-10 06:23:18.50	64.62	12.25	
2025-01-10 06:23:18.71	64.66	12.26	
2025-01-10 06:23:18.92	64.71	12.26	
2025-01-10 06:23:19.12	64.75	12.27	
2025-01-10 06:23:19.32	64.79	12.27	
2025-01-10 06:23:19.53	64.84	12.28	
2025-01-10 06:23:19.74	64.88	12.28	
2025-01-10 06:23:19.94	64.93	12.29	
2025-01-10 06:23:20.14	64.97	12.29	
2025-01-10 06:23:20.35	65.01	12.30	
2025-01-10 06:23:20.55	65.06	12.30	
2025-01-10 06:23:20.76	65.10	12.31	
2025-01-10 06:23:20.96	65.15	12.32	
2025-01-10 06:23:21.17	65.19	12.32	
2025-01-10 06:23:21.37	65.23	12.33	
2025-01-10 06:23:21.57	65.28	12.33	
2025-01-10 06:23:21.78	65.32	12.34	
2025-01-10 06:23:21.99	65.37	12.34	
2025-01-10 06:23:22.19	65.41	12.35	
2025-01-10 06:23:22.40	65.46	12.35	
2025-01-10 06:23:22.60	65.50	12.36	
2025-01-10 06:23:22.81	65.54	12.36	
2025-01-10 06:23:23.02	65.59	12.37	
2025-01-10 06:23:23.22	65.63	12.37	
2025-01-10 06:23:23.43	65.68	12.38	
2025-01-10 06:23:23.63	65.72	12.38	
2025-01-10 06:23:23.84	65.77	12.39	
2025-01-10 06:23:24.04	65.81	12.40	
2025-01-10 06:23:24.25	65.85	12.40	
2025-01-10 06:23:24.45	65.90	12.41	
2025-01-10 06:23:24.65	65.94	12.41	
2025-01-10 06:23:24.86	65.99	12.42	
2025-01-10 06:23:25.07	66.03	12.42	
2025-01-10 06:23:25.27	66.08	12.43	
2025-01-10 06:23:25.47	66.12	12.43	
2025-01-10 06:23:25.68	66.16	12.44	
2025-01-10 06:23:25.88	66.21	12.44	
2025-01-10 06:23:26.09	66.25	12.45	
2025-01-10 06:23:26.30	66.30	12.45	
2025-01-10 06:23:26.50	66.34	12.46	
2025-01-10 06:23:26.70	66.39	12.46	
2025-01-10 06:23:26.91	66.43	12.47	
2025-01-10 06:23:27.11	66.48	12.47	
2025-01-10 06:23:27.32	66.52	12.48	
2025-01-10 06:23:27.53	66.57	12.48	
2025-01-10 06:23:27.73	66.61	12.49	
2025-01-10 06:23:27.94	66.66	12.49	
2025-01-10 06:23:28.14	66.70	12.50	
2025-01-10 06:23:28.34	66.74	12.50	
2025-01-10 06:23:28.55	66.79	12.51	
2025-01-10 06:23:28.76	66.83	12.51	
2025-01-10 06:23:28.96	66.88	12.52	
2025-01-10 06:23:29.16	66.92	12.52	
2025-01-10 06:23:29.37	66.97	12.53	
2025-01-10 06:23:29.58	67.01	12.53	
2025-01-10 06:23:29.78	67.06	12.54	
2025-01-10 06:23:29.98	67.10	12.54	
2025-01-10 06:23:30.19	67.15	12.54	
2025-01-10 06:23:30.40	67.19	12.55	
2025-01-10 06:23:30.60	67.24	12.55	
2025-01-10 06:23:30.81	67.28	12.56	
2025-01-10 06:23:31.02	67.33	12.56	
2025-01-10 06:23:31.23	67.37	12.57	
2025-01-10 06:23:31.43	67.42	12.57	
2025-01-10 06:23:31.64	67.46	12.58	
2025-01-10 06:23:31.85	67.51	12.58	
2025-01-10 06:23:32.05	67.55	12.59	
2025-01-10 06:23:32.26	67.60	12.59	
2025-01-10 06:23:32.46	67.64	12.60	
2025-01-10 06:23:32.67	67.69	12.60	
2025-01-10 06:23:32.87	67.73	12.61	
2025-01-10 06:23:33.08	67.78	12.61	
2025-01-10 06:23:33.28	67.82	12.62	
2025-01-10 06:23:33.49	67.87	12.62	
2025-01-10 06:23:33.69	67.91	12.62	
2025-01-10 06:23:33.90	67.96	12.63	
2025-01-10 06:23:34.11	68.01	12.63	
2025-01-10 06:23:34.31	68.05	12.64	
2025-01-10 06:23:34.52	68.10	12.64	
2025-01-10 06:23:34.72	68.14	12.65	
2025-01-10 06:23:34.92	68.19	12.65	
2025-01-10 06:23:35.13	68.23	12.66	
2025-01-10 06:23:35.34	68.28	12.66	
2025-01-10 06:23:35.55	68.32	12.66	
2025-01-10 06:23:35.76	68.37	12.67	
2025-01-10 06:23:35.96	68.41	12.67	
2025-01-10 06:23:36.17	68.46	12.68	
2025-01-10 06:23:36.37	68.50	12.68	
2025-01-10 06:23:36.57	68.55	12.69	
2025-01-10 06:23:36.78	68.60	12.69	
2025-01-10 06:23:36.99	68.64	12.70	
2025-01-10 06:23:37.19	68.69	12.70	
2025-01-10 06:23:37.39	68.73	12.70	
2025-01-10 06:23:37.60	68.78	12.71	
2025-01-10 06:23:37.81	68.82	12.71	
2025-01-10 06:23:38.01	68.87	12.72	
2025-01-10 06:23:38.22	68.91	12.72	
2025-01-10 06:23:38.42	68.96	12.73	
2025-01-10 06:23:38.62	69.00	12.73	
2025-01-10 06:23:38.83	69.05	12.73	
2025-01-10 06:23:39.04	69.10	12.74	
2025-01-10 06:23:39.24	69.14	12.74	
2025-01-10 06:23:39.45	69.19	12.75	
2025-01-10 06:23:39.65	69.23	12.75	
2025-01-10 06:23:39.86	69.28	12.75	
2025-01-10 06:23:40.06	69.32	12.76	
2025-01-10 06:23:40.27	69.37	12.76	
2025-01-10 06:23:40.47	69.41	12.77	
2025-01-10 06:23:40.68	69.46	12.77	
2025-01-10 06:23:40.88	69.50	12.77	
2025-01-10 06:23:41.09	69.55	12.78	
2025-01-10 06:23:41.29	69.60	12.78	
2025-01-10 06:23:41.50	69.64	12.79	
2025-01-10 06:23:41.70	69.69	12.79	
2025-01-10 06:23:41.91	69.73	12.79	
2025-01-10 06:23:42.12	69.78	12.80	
2025-01-10 06:23:42.32	69.82	12.80	
2025-01-10 06:23:42.53	69.87	12.81	
2025-01-10 06:23:42.73	69.92	12.81	
2025-01-10 06:23:42.93	69.96	12.81	
2025-01-10 06:23:43.14	70.01	12.82	
2025-01-10 06:23:43.35	70.05	12.82	
2025-01-10 06:23:43.55	70.10	12.83	
2025-01-10 06:23:43.75	70.14	12.83	
2025-01-10 06:23:43.96	70.19	12.83	
2025-01-10 06:23:44.17	70.24	12.84	
2025-01-10 06:23:44.37	70.28	12.84	
2025-01-10 06:23:44.58	70.33	12.84	
2025-01-10 06:23:44.78	70.37	12.85	
2025-01-10 06:23:44.99	70.42	12.85	
2025-01-10 06:23:45.19	70.47	12.86	
2025-01-10 06:23:45.40	70.51	12.86	
2025-01-10 06:23:45.60	70.56	12.86	
2025-01-10 06:23:45.81	70.60	12.87	
2025-01-10 06:23:46.01	70.65	12.87	
2025-01-10 06:23:46.22	70.70	12.87	
2025-01-10 06:23:46.42	70.74	12.88	
2025-01-10 06:23:46.63	70.79	12.88	
2025-01-10 06:23:46.83	70.83	12.88	
2025-01-10 06:23:47.04	70.88	12.89	
2025-01-10 06:23:47.24	70.92	12.89	
2025-01-10 06:23:47.46	70.97	12.90	
2025-01-10 06:23:47.67	71.02	12.90	
2025-01-10 06:23:47.87	71.07	12.90	
2025-01-10 06:23:48.08	71.11	12.91	
2025-01-10 06:23:48.28	71.16	12.91	
2025-01-10 06:23:48.49	71.20	12.91	
2025-01-10 06:23:48.69	71.25	12.92	
2025-01-10 06:23:48.90	71.30	12.92	
2025-01-10 06:23:49.10	71.34	12.92	
2025-01-10 06:23:49.30	71.39	12.93	
2025-01-10 06:23:49.51	71.43	12.93	
2025-01-10 06:23:49.71	71.48	12.93	
2025-01-10 06:23:49.92	71.53	12.94	
2025-01-10 06:23:50.12	71.57	12.94	
2025-01-10 06:23:50.33	71.62	12.94	
2025-01-10 06:23:50.53	71.66	12.95	
2025-01-10 06:23:50.74	71.71	12.95	
2025-01-10 06:23:50.94	71.76	12.95	
2025-01-10 06:23:51.15	71.80	12.96	
2025-01-10 06:23:51.35	71.85	12.96	
2025-01-10 06:23:51.56	71.90	12.96	
2025-01-10 06:23:51.76	71.94	12.97	
2025-01-10 06:23:51.97	71.99	12.97	
2025-01-10 06:23:52.17	72.03	12.97	
2025-01-10 06:23:52.39	72.08	12.98	
2025-01-10 06:23:52.60	72.13	12.98	
2025-01-10 06:23:52.80	72.17	12.98	
2025-01-10 06:23:53.01	72.22	12.99	
2025-01-10 06:23:53.21	72.27	12.99	
2025-01-10 06:23:53.43	72.32	12.99	
2025-01-10 06:23:53.63	72.36	12.99	
2025-01-10 06:23:53.84	72.41	13.00	
2025-01-10 06:23:54.04	72.45	13.00	
2025-01-10 06:23:54.25	72.50	13.00	
2025-01-10 06:23:54.45	72.55	13.01	
2025-01-10 06:23:54.66	72.59	13.01	
2025-01-10 06:23:54.87	72.64	13.01	
2025-01-10 06:23:55.07	72.69	13.02	
2025-01-10 06:23:55.28	72.74	13.02	
2025-01-10 06:23:55.48	72.78	13.02	
2025-01-10 06:23:55.70	72.83	13.03	
2025-01-10 06:23:55.90	72.88	13.03	
2025-01-10 06:23:56.11	72.92	13.03	
2025-01-10 06:23:56.31	72.97	13.03	
2025-01-10 06:23:56.52	73.02	13.04	
2025-01-10 06:23:56.72	73.06	13.04	
2025-01-10 06:23:56.93	73.11	13.04	
2025-01-10 06:23:57.13	73.15	13.04	
2025-01-10 06:23:57.34	73.20	13.05	
2025-01-10 06:23:57.54	73.25	13.05	
2025-01-10 06:23:57.75	73.29	13.05	
2025-01-10 06:23:57.95	73.34	13.06	
2025-01-10 06:23:58.16	73.39	13.06	
2025-01-10 06:23:58.36	73.43	13.06	
2025-01-10 06:23:58.57	73.48	13.06	
2025-01-10 06:23:58.77	73.53	13.07	
2025-01-10 06:23:58.98	73.57	13.07	
2025-01-10 06:23:59.18	73.62	13.07	
2025-01-10 06:23:59.39	73.67	13.07	
2025-01-10 06:23:59.59	73.71	13.08	
2025-01-10 06:23:59.80	73.76	13.08	
2025-01-10 06:24:00.00	73.81	13.08	
2025-01-10 06:24:00.20	73.85	13.08	
2025-01-10 06:24:00.41	73.90	13.09	
2025-01-10 06:24:00.61	73.94	13.09	
2025-01-10 06:24:00.82	73.99	13.09	
2025-01-10 06:24:01.02	74.04	13.09	
2025-01-10 06:24:01.23	74.09	13.10	
2025-01-10 06:24:01.43	74.13	13.10	
2025-01-10 06:24:01.64	74.18	13.10	
2025-01-10 06:24:01.84	74.22	13.10	
2025-01-10 06:24:02.05	74.27	13.11	
2025-01-10 06:24:02.25	74.32	13.11	
2025-01-10 06:24:02.46	74.37	13.11	
2025-01-10 06:24:02.67	74.41	13.11	
2025-01-10 06:24:02.87	74.46	13.12	
2025-01-10 06:24:03.07	74.50	13.12	
2025-01-10 06:24:03.28	74.55	13.12	
2025-01-10 06:24:03.48	74.60	13.12	
2025-01-10 06:24:03.69	74.65	13.13	
2025-01-10 06:24:03.89	74.69	13.13	
2025-01-10 06:24:04.10	74.74	13.13	
2025-01-10 06:24:04.30	74.78	13.13	
2025-01-10 06:24:04.51	74.83	13.13	
2025-01-10 06:24:04.72	74.88	13.14	
2025-01-10 06:24:04.92	74.93	13.14	
2025-01-10 06:24:05.13	74.97	13.14	
2025-01-10 06:24:05.33	75.02	13.14	
2025-01-10 06:24:05.54	75.07	13.15	
2025-01-10 06:24:05.74	75.11	13.15	
2025-01-10 06:24:05.95	75.16	13.15	
2025-01-10 06:24:06.15	75.21	13.15	
2025-01-10 06:24:06.36	75.25	13.15	
2025-01-10 06:24:06.56	75.30	13.16	
2025-01-10 06:24:06.77	75.35	13.16	
2025-01-10 06:24:06.97	75.39	13.16	
2025-01-10 06:24:07.18	75.44	13.16	
2025-01-10 06:24:07.39	75.49	13.16	
2025-01-10 06:24:07.60	75.54	13.17	
2025-01-10 06:24:07.81	75.59	13.17	
2025-01-10 06:24:08.01	75.63	13.17	
2025-01-10 06:24:08.21	75.68	13.17	
2025-01-10 06:24:08.42	75.73	13.17	
2025-01-10 06:24:08.63	75.77	13.18	
2025-01-10 06:24:08.83	75.82	13.18	
2025-01-10 06:24:09.04	75.87	13.18	
2025-01-10 06:24:09.24	75.91	13.18	
2025-01-10 06:24:09.45	75.96	13.18	
2025-01-10 06:24:09.65	76.01	13.19	
2025-01-10 06:24:09.86	76.06	13.19	
2025-01-10 06:24:10.06	76.10	13.19	
2025-01-10 06:24:10.27	76.15	13.19	
2025-01-10 06:24:10.47	76.20	13.19	
2025-01-10 06:24:10.68	76.24	13.19	
2025-01-10 06:24:10.88	76.29	13.20	
2025-01-10 06:24:11.09	76.34	13.20	
2025-01-10 06:24:11.29	76.38	13.20	
2025-01-10 06:24:11.49	76.43	13.20	
2025-01-10 06:24:11.71	76.48	13.20	
2025-01-10 06:24:11.92	76.53	13.20	
2025-01-10 06:24:12.12	76.57	13.21	
2025-01-10 06:24:12.33	76.62	13.21	
2025-01-10 06:24:12.53	76.67	13.21	
2025-01-10 06:24:12.74	76.72	13.21	
2025-01-10 06:24:12.94	76.76	13.21	
2025-01-10 06:24:13.15	76.81	13.21	
2025-01-10 06:24:13.35	76.86	13.21	
2025-01-10 06:24:13.56	76.90	13.22	
2025-01-10 06:24:13.76	76.95	13.22	
2025-01-10 06:24:13.97	77.00	13.22	
2025-01-10 06:24:14.17	77.04	13.22	
2025-01-10 06:24:14.38	77.09	13.22	
2025-01-10 06:24:14.58	77.14	13.22	
2025-01-10 06:24:14.79	77.19	13.22	
2025-01-10 06:24:14.99	77.23	13.23	
2025-01-10 06:24:15.20	77.28	13.23	
2025-01-10 06:24:15.41	77.33	13.23	
2025-01-10 06:24:15.61	77.37	13.23	
2025-01-10 06:24:15.81	77.42	13.23	
2025-01-10 06:24:16.02	77.47	13.23	
2025-01-10 06:24:16.22	77.52	13.23	
2025-01-10 06:24:16.43	77.56	13.24	
2025-01-10 06:24:16.63	77.61	13.24	
2025-01-10 06:24:16.84	77.66	13.24	
2025-01-10 06:24:17.06	77.71	13.24	
2025-01-10 06:24:17.26	77.75	13.24	
2025-01-10 06:24:17.47	77.80	13.24	
2025-01-10 06:24:17.68	77.85	13.24	
2025-01-10 06:24:17.88	77.90	13.24	
2025-01-10 06:24:18.09	77.94	13.24	
2025-01-10 06:24:18.29	77.99	13.25	
2025-01-10 06:24:18.50	78.04	13.25	
2025-01-10 06:24:18.70	78.09	13.25	
2025-01-10 06:24:18.91	78.13	13.25	
2025-01-10 06:24:19.11	78.18	13.25	
2025-01-10 06:24:19.32	78.23	13.25	
2025-01-10 06:24:19.52	78.27	13.25	
2025-01-10 06:24:19.73	78.32	13.25	
2025-01-10 06:24:19.93	78.37	13.25	
2025-01-10 06:24:20.14	78.42	13.25	
2025-01-10 06:24:20.34	78.46	13.26	
2025-01-10 06:24:20.55	78.51	13.26	
2025-01-10 06:24:20.75	78.56	13.26	
2025-01-10 06:24:20.96	78.61	13.26	
2025-01-10 06:24:21.16	78.65	13.26	
2025-01-10 06:24:21.38	78.70	13.26	
2025-01-10 06:24:21.59	78.75	13.26	
2025-01-10 06:24:21.80	78.80	13.26	
2025-01-10 06:24:22.00	78.84	13.26	
2025-01-10 06:24:22.21	78.89	13.26	
2025-01-10 06:24:22.41	78.94	13.26	
2025-01-10 06:24:22.62	78.99	13.26	
2025-01-10 06:24:22.82	79.03	13.27	
2025-01-10 06:24:23.02	79.08	13.27	
2025-01-10 06:24:23.23	79.13	13.27	
2025-01-10 06:24:23.43	79.17	13.27	
2025-01-10 06:24:23.64	79.22	13.27	
2025-01-10 06:24:23.85	79.27	13.27	
2025-01-10 06:24:24.05	79.32	13.27	
2025-01-10 06:24:24.26	79.37	13.27	
2025-01-10 06:24:24.46	79.41	13.27	
2025-01-10 06:24:24.66	79.46	13.27	
2025-01-10 06:24:24.87	79.51	13.27	
2025-01-10 06:24:25.08	79.55	13.27	
2025-01-10 06:24:25.28	79.60	13.27	
2025-01-10 06:24:25.49	79.65	13.27	
2025-01-10 06:24:25.69	79.70	13.27	
2025-01-10 06:24:25.89	79.74	13.27	
2025-01-10 06:24:26.10	79.79	13.27	
2025-01-10 06:24:26.31	79.84	13.28	
2025-01-10 06:24:26.51	79.88	13.28	
2025-01-10 06:24:26.73	79.94	13.28	
2025-01-10 06:24:26.94	79.98	13.28	
2025-01-10 06:24:27.14	80.03	13.28	
2025-01-10 06:24:27.35	80.08	13.28	
2025-01-10 06:24:27.55	80.12	13.28	
2025-01-10 06:24:27.76	80.17	13.28	
2025-01-10 06:24:27.96	80.22	13.28	
2025-01-10 06:24:28.17	80.27	13.28	
2025-01-10 06:24:28.37	80.31	13.28	
2025-01-10 06:24:28.58	80.36	13.28	
2025-01-10 06:24:28.78	80.41	13.28	
2025-01-10 06:24:28.99	80.46	13.28	
2025-01-10 06:24:29.20	80.50	13.28	
2025-01-10 06:24:29.40	80.55	13.28	
2025-01-10 06:24:29.60	80.60	13.28	
2025-01-10 06:24:29.81	80.65	13.28	
2025-01-10 06:24:30.02	80.69	13.28	
2025-01-10 06:24:30.22	80.74	13.28	
2025-01-10 06:24:30.43	80.79	13.28	
2025-01-10 06:24:30.63	80.83	13.28	
2025-01-10 06:24:30.84	80.88	13.28	
2025-01-10 06:24:31.04	80.93	13.28	
2025-01-10 06:24:31.25	80.98	13.28	
2025-01-10 06:24:31.45	81.02	13.28	
2025-01-10 06:24:31.66	81.07	13.28	
2025-01-10 06:24:31.86	81.12	13.28	
2025-01-10 06:24:32.07	81.17	13.28	
2025-01-10 06:24:32.28	81.22	13.28	
2025-01-10 06:24:32.48	81.26	13.28	
2025-01-10 06:24:32.68	81.31	13.28	
2025-01-10 06:24:32.89	81.36	13.28	
2025-01-10 06:24:33.09	81.40	13.28	
2025-01-10 06:24:33.30	81.45	13.28	
2025-01-10 06:24:33.51	81.50	13.28	
2025-01-10 06:24:33.71	81.55	13.28	
2025-01-10 06:24:33.92	81.59	13.28	
2025-01-10 06:24:34.12	81.64	13.28	
2025-01-10 06:24:34.33	81.69	13.28	
2025-01-10 06:24:34.53	81.73	13.28	
2025-01-10 06:24:34.74	81.78	13.28	
2025-01-10 06:24:34.94	81.83	13.28	
2025-01-10 06:24:35.14	81.87	13.28	
2025-01-10 06:24:35.35	81.92	13.28	
2025-01-10 06:24:35.56	81.97	13.28	
2025-01-10 06:24:35.76	82.02	13.28	
2025-01-10 06:24:35.97	82.07	13.28	
2025-01-10 06:24:36.17	82.11	13.28	
2025-01-10 06:24:36.38	82.16	13.28	
2025-01-10 06:24:36.58	82.21	13.28	
2025-01-10 06:24:36.79	82.26	13.27	
2025-01-10 06:24:36.99	82.30	13.27	
2025-01-10 06:24:37.20	82.35	13.27	
2025-01-10 06:24:37.40	82.40	13.27	
2025-01-10 06:24:37.61	82.44	13.27	
2025-01-10 06:24:37.82	82.49	13.27	
2025-01-10 06:24:38.02	82.54	13.27	
2025-01-10 06:24:38.23	82.59	13.27	
2025-01-10 06:24:38.43	82.63	13.27	
2025-01-10 06:24:38.64	82.68	13.27	
2025-01-10 06:24:38.84	82.73	13.27	
2025-01-10 06:24:39.05	82.78	13.27	
2025-01-10 06:24:39.25	82.82	13.27	
2025-01-10 06:24:39.47	82.87	13.27	
2025-01-10 06:24:39.68	82.92	13.27	
2025-01-10 06:24:39.88	82.97	13.27	
2025-01-10 06:24:40.09	83.02	13.27	
2025-01-10 06:24:40.29	83.06	13.26	
2025-01-10 06:24:40.50	83.11	13.26	
2025-01-10 06:24:40.70	83.16	13.26	
2025-01-10 06:24:40.91	83.21	13.26	
2025-01-10 06:24:41.12	83.25	13.26	
2025-01-10 06:24:41.32	83.30	13.26	
2025-01-10 06:24:41.52	83.35	13.26	
2025-01-10 06:24:41.73	83.39	13.26	
2025-01-10 06:24:41.93	83.44	13.26	
2025-01-10 06:24:42.14	83.49	13.26	
2025-01-10 06:24:42.35	83.54	13.26	
2025-01-10 06:24:42.55	83.58	13.26	
2025-01-10 06:24:42.76	83.63	13.25	
2025-01-10 06:24:42.96	83.68	13.25	
2025-01-10 06:24:43.17	83.73	13.25	
2025-01-10 06:24:43.37	83.77	13.25	
2025-01-10 06:24:43.59	83.82	13.25	
2025-01-10 06:24:43.79	83.87	13.25	
2025-01-10 06:24:44.00	83.92	13.25	
2025-01-10 06:24:44.20	83.96	13.25	
2025-01-10 06:24:44.41	84.01	13.25	
2025-01-10 06:24:44.62	84.06	13.25	
2025-01-10 06:24:44.82	84.11	13.24	
2025-01-10 06:24:45.03	84.15	13.24	
2025-01-10 06:24:45.23	84.20	13.24	
2025-01-10 06:24:45.44	84.25	13.24	
2025-01-10 06:24:45.64	84.29	13.24	
2025-01-10 06:24:45.86	84.35	13.24	
2025-01-10 06:24:46.07	84.39	13.24	
2025-01-10 06:24:46.27	84.44	13.24	
2025-01-10 06:24:46.48	84.49	13.23	
2025-01-10 06:24:46.68	84.53	13.23	
2025-01-10 06:24:46.89	84.58	13.23	
2025-01-10 06:24:47.09	84.63	13.23	
2025-01-10 06:24:47.30	84.68	13.23	
2025-01-10 06:24:47.51	84.72	13.23	
2025-01-10 06:24:47.71	84.77	13.23	
2025-01-10 06:24:47.91	84.82	13.23	
2025-01-10 06:24:48.12	84.86	13.22	
2025-01-10 06:24:48.33	84.91	13.22	
2025-01-10 06:24:48.53	84.96	13.22	
2025-01-10 06:24:48.74	85.01	13.22	
2025-01-10 06:24:48.94	85.05	13.22	
2025-01-10 06:24:49.16	85.10	13.22	
2025-01-10 06:24:49.37	85.15	13.22	
2025-01-10 06:24:49.57	85.20	13.21	
2025-01-10 06:24:49.77	85.24	13.21	
2025-01-10 06:24:49.98	85.29	13.21	
2025-01-10 06:24:50.18	85.34	13.21	
2025-01-10 06:24:50.39	85.39	13.21	
2025-01-10 06:24:50.60	85.43	13.21	
2025-01-10 06:24:50.80	85.48	13.20	
2025-01-10 06:24:51.01	85.53	13.20	
2025-01-10 06:24:51.22	85.58	13.20	
2025-01-10 06:24:51.43	85.63	13.20	
2025-01-10 06:24:51.64	85.67	13.20	
2025-01-10 06:24:51.84	85.72	13.20	
2025-01-10 06:24:52.05	85.77	13.19	
2025-01-10 06:24:52.25	85.81	13.19	
2025-01-10 06:24:52.46	85.86	13.19	
2025-01-10 06:24:52.66	85.91	13.19	
2025-01-10 06:24:52.87	85.96	13.19	
2025-01-10 06:24:53.07	86.00	13.19	
2025-01-10 06:24:53.27	86.05	13.18	
2025-01-10 06:24:53.48	86.10	13.18	
2025-01-10 06:24:53.69	86.14	13.18	
2025-01-10 06:24:53.89	86.19	13.18	
2025-01-10 06:24:54.10	86.24	13.18	
2025-01-10 06:24:54.30	86.28	13.17	
2025-01-10 06:24:54.51	86.33	13.17	
2025-01-10 06:24:54.71	86.38	13.17	
2025-01-10 06:24:54.92	86.43	13.17	
2025-01-10 06:24:55.12	86.47	13.17	
2025-01-10 06:24:55.33	86.52	13.16	
2025-01-10 06:24:55.55	86.57	13.16	
2025-01-10 06:24:55.75	86.62	13.16	
2025-01-10 06:24:55.96	86.66	13.16	
2025-01-10 06:24:56.16	86.71	13.16	
2025-01-10 06:24:56.37	86.76	13.15	
2025-01-10 06:24:56.57	86.80	13.15	
2025-01-10 06:24:56.78	86.85	13.15	
2025-01-10 06:24:56.98	86.90	13.15	
2025-01-10 06:24:57.19	86.94	13.15	
2025-01-10 06:24:57.40	86.99	13.14	
2025-01-10 06:24:57.60	87.04	13.14	
2025-01-10 06:24:57.80	87.08	13.14	
2025-01-10 06:24:58.01	87.13	13.14	
2025-01-10 06:24:58.22	87.18	13.14	
2025-01-10 06:24:58.42	87.23	13.13	
2025-01-10 06:24:58.62	87.27	13.13	
2025-01-10 06:24:58.83	87.32	13.13	
2025-01-10 06:24:59.03	87.36	13.13	
2025-01-10 06:24:59.24	87.41	13.12	
2025-01-10 06:24:59.44	87.46	13.12	
2025-01-10 06:24:59.65	87.51	13.12	
2025-01-10 06:24:59.85	87.55	13.12	
2025-01-10 06:25:00.06	87.60	13.12	
2025-01-10 06:25:00.26	87.65	13.11	
2025-01-10 06:25:00.47	87.69	13.11	
2025-01-10 06:25:00.68	87.74	13.11	
2025-01-10 06:25:00.88	87.79	13.11	
2025-01-10 06:25:01.09	87.83	13.10	
2025-01-10 06:25:01.29	87.88	13.10	
2025-01-10 06:25:01.50	87.93	13.10	
2025-01-10 06:25:01.70	87.97	13.10	
2025-01-10 06:25:01.91	88.02	13.09	
2025-01-10 06:25:02.11	88.07	13.09	
2025-01-10 06:25:02.31	88.11	13.09	
2025-01-10 06:25:02.52	88.16	13.09	
2025-01-10 06:25:02.73	88.21	13.08	
2025-01-10 06:25:02.93	88.25	13.08	
2025-01-10 06:25:03.13	88.30	13.08	
2025-01-10 06:25:03.34	88.35	13.08	
2025-01-10 06:25:03.55	88.40	13.07	
2025-01-10 06:25:03.75	88.44	13.07	
2025-01-10 06:25:03.96	88.49	13.07	
2025-01-10 06:25:04.16	88.53	13.06	
2025-01-10 06:25:04.37	88.58	13.06	
2025-01-10 06:25:04.57	88.63	13.06	
2025-01-10 06:25:04.78	88.67	13.06	
2025-01-10 06:25:04.98	88.72	13.05	
2025-01-10 06:25:05.19	88.77	13.05	
2025-01-10 06:25:05.39	88.81	13.05	
2025-01-10 06:25:05.60	88.86	13.05	
2025-01-10 06:25:05.80	88.91	13.04	
2025-01-10 06:25:06.01	88.95	13.04	
2025-01-10 06:25:06.23	89.00	13.04	
2025-01-10 06:25:06.43	89.05	13.03	
2025-01-10 06:25:06.63	89.09	13.03	
2025-01-10 06:25:06.84	89.14	13.03	
2025-01-10 06:25:07.04	89.19	13.03	
2025-01-10 06:25:07.25	89.24	13.02	
2025-01-10 06:25:07.45	89.28	13.02	
2025-01-10 06:25:07.66	89.33	13.02	
2025-01-10 06:25:07.87	89.38	13.01	
2025-01-10 06:25:08.07	89.42	13.01	
2025-01-10 06:25:08.27	89.47	13.01	
2025-01-10 06:25:08.48	89.51	13.00	
2025-01-10 06:25:08.69	89.56	13.00	
2025-01-10 06:25:08.89	89.61	13.00	
2025-01-10 06:25:09.10	89.65	13.00	
2025-01-10 06:25:09.30	89.70	12.99	
2025-01-10 06:25:09.50	89.74	12.99	
2025-01-10 06:25:09.71	89.79	12.99	
2025-01-10 06:25:09.91	89.84	12.98	
2025-01-10 06:25:10.12	89.89	12.98	
2025-01-10 06:25:10.33	89.93	12.98	
2025-01-10 06:25:10.53	89.98	12.97	
2025-01-10 06:25:10.74	90.03	12.97	
2025-01-10 06:25:10.94	90.07	12.97	
2025-01-10 06:25:11.15	90.12	12.96	
2025-01-10 06:25:11.35	90.16	12.96	
2025-01-10 06:25:11.56	90.21	12.96	
2025-01-10 06:25:11.76	90.26	12.95	
2025-01-10 06:25:11.97	90.30	12.95	
2025-01-10 06:25:12.17	90.35	12.95	
2025-01-10 06:25:12.38	90.40	12.94	
2025-01-10 06:25:12.58	90.44	12.94	
2025-01-10 06:25:12.79	90.49	12.94	
2025-01-10 06:25:12.99	90.53	12.93	
2025-01-10 06:25:13.20	90.58	12.93	
2025-01-10 06:25:13.41	90.63	12.93	
2025-01-10 06:25:13.61	90.67	12.92	
2025-01-10 06:25:13.82	90.72	12.92	
2025-01-10 06:25:14.02	90.76	12.92	
2025-01-10 06:25:14.23	90.81	12.91	
2025-01-10 06:25:14.43	90.86	12.91	
2025-01-10 06:25:14.63	90.90	12.91	
2025-01-10 06:25:14.84	90.95	12.90	
2025-01-10 06:25:15.04	90.99	12.90	
2025-01-10 06:25:15.25	91.04	12.90	
2025-01-10 06:25:15.45	91.09	12.89	
2025-01-10 06:25:15.66	91.13	12.89	
2025-01-10 06:25:15.86	91.18	12.89	
2025-01-10 06:25:16.07	91.23	12.88	
2025-01-10 06:25:16.27	91.27	12.88	
2025-01-10 06:25:16.48	91.32	12.87	
2025-01-10 06:25:16.68	91.36	12.87	
2025-01-10 06:25:16.89	91.41	12.87	
2025-01-10 06:25:17.09	91.45	12.86	
2025-01-10 06:25:17.30	91.50	12.86	
2025-01-10 06:25:17.50	91.55	12.86	
2025-01-10 06:25:17.71	91.59	12.85	
2025-01-10 06:25:17.91	91.64	12.85	
2025-01-10 06:25:18.12	91.69	12.85	
2025-01-10 06:25:18.32	91.73	12.84	
2025-01-10 06:25:18.53	91.78	12.84	
2025-01-10 06:25:18.73	91.82	12.83	
2025-01-10 06:25:18.93	91.87	12.83	
2025-01-10 06:25:19.14	91.91	12.83	
2025-01-10 06:25:19.34	91.96	12.82	
2025-01-10 06:25:19.55	92.01	12.82	
2025-01-10 06:25:19.75	92.05	12.82	
2025-01-10 06:25:19.96	92.10	12.81	
2025-01-10 06:25:20.16	92.14	12.81	
2025-01-10 06:25:20.37	92.19	12.80	
2025-01-10 06:25:20.58	92.24	12.80	
2025-01-10 06:25:20.78	92.28	12.80	
2025-01-10 06:25:20.99	92.33	12.79	
2025-01-10 06:25:21.19	92.37	12.79	
2025-01-10 06:25:21.40	92.42	12.78	
2025-01-10 06:25:21.60	92.46	12.78	
2025-01-10 06:25:21.81	92.51	12.78	
2025-01-10 06:25:22.01	92.55	12.77	
2025-01-10 06:25:22.23	92.60	12.77	
2025-01-10 06:25:22.43	92.65	12.76	
2025-01-10 06:25:22.64	92.69	12.76	
2025-01-10 06:25:22.84	92.74	12.75	
2025-01-10 06:25:23.05	92.79	12.75	
2025-01-10 06:25:23.25	92.83	12.75	
2025-01-10 06:25:23.46	92.88	12.74	
2025-01-10 06:25:23.67	92.92	12.74	
2025-01-10 06:25:23.87	92.97	12.73	
2025-01-10 06:25:24.07	93.01	12.73	
2025-01-10 06:25:24.28	93.06	12.73	
2025-01-10 06:25:24.48	93.10	12.72	
2025-01-10 06:25:24.69	93.15	12.72	
2025-01-10 06:25:24.89	93.19	12.71	
2025-01-10 06:25:25.10	93.24	12.71	
2025-01-10 06:25:25.30	93.29	12.70	
2025-01-10 06:25:25.51	93.33	12.70	
2025-01-10 06:25:25.71	93.38	12.70	
2025-01-10 06:25:25.92	93.42	12.69	
2025-01-10 06:25:26.12	93.47	12.69	
2025-01-10 06:25:26.32	93.51	12.68	
2025-01-10 06:25:26.53	93.56	12.68	
2025-01-10 06:25:26.74	93.60	12.67	
2025-01-10 06:25:26.94	93.65	12.67	
2025-01-10 06:25:27.15	93.69	12.67	
2025-01-10 06:25:27.35	93.74	12.66	
2025-01-10 06:25:27.56	93.79	12.66	
2025-01-10 06:25:27.77	93.83	12.65	
2025-01-10 06:25:27.98	93.88	12.65	
2025-01-10 06:25:28.18	93.92	12.64	
2025-01-10 06:25:28.38	93.97	12.64	
2025-01-10 06:25:28.59	94.01	12.63	
2025-01-10 06:25:28.79	94.06	12.63	
2025-01-10 06:25:29.00	94.10	12.62	
2025-01-10 06:25:29.20	94.15	12.62	
2025-01-10 06:25:29.41	94.19	12.62	
2025-01-10 06:25:29.61	94.24	12.61	
2025-01-10 06:25:29.82	94.28	12.61	
2025-01-10 06:25:30.02	94.33	12.60	
2025-01-10 06:25:30.23	94.37	12.60	
2025-01-10 06:25:30.43	94.42	12.59	
2025-01-10 06:25:30.63	94.46	12.59	
2025-01-10 06:25:30.84	94.51	12.58	
2025-01-10 06:25:31.04	94.55	12.58	
2025-01-10 06:25:31.25	94.60	12.57	
2025-01-10 06:25:31.46	94.64	12.57	
2025-01-10 06:25:31.66	94.69	12.56	
2025-01-10 06:25:31.86	94.73	12.56	
2025-01-10 06:25:32.07	94.78	12.56	
2025-01-10 06:25:32.27	94.82	12.55	
2025-01-10 06:25:32.48	94.87	12.55	
2025-01-10 06:25:32.68	94.91	12.54	
2025-01-10 06:25:32.89	94.96	12.54	
2025-01-10 06:25:33.09	95.00	12.53	
2025-01-10 06:25:33.30	95.05	12.53	
2025-01-10 06:25:33.51	95.09	12.52	
2025-01-10 06:25:33.71	95.14	12.52	
2025-01-10 06:25:33.93	95.19	12.51	
2025-01-10 06:25:34.14	95.23	12.51	
2025-01-10 06:25:34.34	95.28	12.50	
2025-01-10 06:25:34.55	95.32	12.50	
2025-01-10 06:25:34.75	95.37	12.49	
2025-01-10 06:25:34.97	95.41	12.49	
2025-01-10 06:25:35.18	95.46	12.48	
2025-01-10 06:25:35.38	95.50	12.48	
2025-01-10 06:25:35.59	95.55	12.47	
2025-01-10 06:25:35.79	95.59	12.47	
2025-01-10 06:25:36.01	95.64	12.46	
2025-01-10 06:25:36.22	95.69	12.46	
2025-01-10 06:25:36.42	95.73	12.45	
2025-01-10 06:25:36.63	95.78	12.45	
2025-01-10 06:25:36.83	95.82	12.44	
2025-01-10 06:25:37.04	95.86	12.44	
2025-01-10 06:25:37.24	95.91	12.43	
2025-01-10 06:25:37.45	95.95	12.43	
2025-01-10 06:25:37.66	96.00	12.42	
2025-01-10 06:25:37.86	96.04	12.42	
2025-01-10 06:25:38.06	96.09	12.41	
2025-01-10 06:25:38.27	96.13	12.40	
2025-01-10 06:25:38.48	96.18	12.40	
2025-01-10 06:25:38.68	96.22	12.39	
2025-01-10 06:25:38.89	96.27	12.39	
2025-01-10 06:25:39.09	96.31	12.38	
2025-01-10 06:25:39.30	96.36	12.38	
2025-01-10 06:25:39.50	96.40	12.37	
2025-01-10 06:25:39.71	96.44	12.37	
2025-01-10 06:25:39.91	96.49	12.36	
2025-01-10 06:25:40.12	96.53	12.36	
2025-01-10 06:25:40.34	96.58	12.35	
2025-01-10 06:25:40.54	96.62	12.35	
2025-01-10 06:25:40.75	96.67	12.34	
2025-01-10 06:25:40.95	96.71	12.34	
2025-01-10 06:25:41.17	96.76	12.33	
2025-01-10 06:25:41.37	96.80	12.32	
2025-01-10 06:25:41.58	96.85	12.32	
2025-01-10 06:25:41.79	96.89	12.31	
2025-01-10 06:25:41.99	96.94	12.31	
2025-01-10 06:25:42.20	96.98	12.30	
2025-01-10 06:25:42.42	97.03	12.30	
2025-01-10 06:25:42.62	97.07	12.29	
2025-01-10 06:25:42.82	97.12	12.29	
2025-01-10 06:25:43.03	97.16	12.28	
2025-01-10 06:25:43.24	97.21	12.28	
2025-01-10 06:25:43.44	97.25	12.27	
2025-01-10 06:25:43.65	97.29	12.26	
2025-01-10 06:25:43.85	97.34	12.26	
2025-01-10 06:25:44.06	97.38	12.25	
2025-01-10 06:25:44.26	97.43	12.25	
2025-01-10 06:25:44.46	97.47	12.24	
2025-01-10 06:25:44.67	97.51	12.24	
2025-01-10 06:25:44.88	97.56	12.23	
2025-01-10 06:25:45.08	97.60	12.23	
2025-01-10 06:25:45.29	97.65	12.22	
2025-01-10 06:25:45.49	97.69	12.21	
2025-01-10 06:25:45.70	97.73	12.21	
2025-01-10 06:25:45.90	97.78	12.20	
2025-01-10 06:25:46.11	97.82	12.20	
2025-01-10 06:25:46.31	97.87	12.19	
2025-01-10 06:25:46.52	97.91	12.19	
2025-01-10 06:25:46.72	97.95	12.18	
2025-01-10 06:25:46.93	98.00	12.17	
2025-01-10 06:25:47.13	98.04	12.17	
2025-01-10 06:25:47.34	98.09	12.16	
2025-01-10 06:25:47.55	98.13	12.16	
2025-01-10 06:25:47.75	98.17	12.15	
2025-01-10 06:25:47.96	98.22	12.14	
2025-01-10 06:25:48.16	98.26	12.14	
2025-01-10 06:25:48.37	98.30	12.13	
2025-01-10 06:25:48.57	98.35	12.13	
2025-01-10 06:25:48.77	98.39	12.12	
2025-01-10 06:25:48.98	98.43	12.12	
2025-01-10 06:25:49.19	98.48	12.11	
2025-01-10 06:25:49.39	98.52	12.10	
2025-01-10 06:25:49.60	98.57	12.10	
2025-01-10 06:25:49.80	98.61	12.09	
2025-01-10 06:25:50.01	98.65	12.09	
2025-01-10 06:25:50.21	98.70	12.08	
2025-01-10 06:25:50.42	98.74	12.07	
2025-01-10 06:25:50.63	98.79	12.07	
2025-01-10 06:25:50.83	98.83	12.06	
2025-01-10 06:25:51.04	98.87	12.06	
2025-01-10 06:25:51.24	98.91	12.05	
2025-01-10 06:25:51.45	98.96	12.04	
2025-01-10 06:25:51.65	99.00	12.04	
2025-01-10 06:25:51.86	99.05	12.03	
2025-01-10 06:25:52.06	99.09	12.03	
2025-01-10 06:25:52.27	99.13	12.02	
2025-01-10 06:25:52.47	99.17	12.01	
2025-01-10 06:25:52.68	99.22	12.01	
2025-01-10 06:25:52.88	99.26	12.00	
2025-01-10 06:25:53.09	99.31	12.00	
2025-01-10 06:25:53.30	99.35	11.99	
