passes_logs/2025/01/06/SPB_Silybum_02/SPB_Silybum_02__20250106_163457_TERRA_rec.log

#Pass ID: 20250106_163457_TERRA
#Satellite: TERRA
#Configuration: TERRA
#Start time: 2025-01-06 16:34:56

#Version: 2.0.20230423
#Station: SPB_Silybum_02
#Location: 30.233357 lon 59.946436 lat
#TLE: 1 25994U 99068A   25005.80302029  .00001467  00000+0  31252-3 0  9990
#TLE: 2 25994  98.0232  69.1253 0003583  90.8779 334.4790 14.60375524332735

#Time	Az	El	Level	Level2	SNR	BER	Gain	Gain2
2025-01-06 16:34:58.61	100.88	4.07	
2025-01-06 16:34:58.81	100.86	4.08	
2025-01-06 16:34:59.02	100.84	4.09	
2025-01-06 16:34:59.23	100.82	4.10	
2025-01-06 16:34:59.43	100.80	4.12	
2025-01-06 16:34:59.63	100.78	4.13	
2025-01-06 16:34:59.84	100.76	4.14	
2025-01-06 16:35:00.04	100.74	4.15	
2025-01-06 16:35:00.25	100.72	4.16	
2025-01-06 16:35:00.45	100.70	4.18	
2025-01-06 16:35:00.66	100.68	4.19	
2025-01-06 16:35:00.86	100.66	4.20	
2025-01-06 16:35:01.06	100.65	4.21	
2025-01-06 16:35:01.27	100.63	4.23	
2025-01-06 16:35:01.48	100.61	4.24	
2025-01-06 16:35:01.68	100.59	4.25	
2025-01-06 16:35:01.89	100.57	4.26	
2025-01-06 16:35:02.09	100.55	4.27	
2025-01-06 16:35:02.30	100.53	4.29	
2025-01-06 16:35:02.50	100.51	4.30	
2025-01-06 16:35:02.72	100.49	4.31	
2025-01-06 16:35:02.93	100.47	4.32	
2025-01-06 16:35:03.13	100.45	4.34	
2025-01-06 16:35:03.34	100.43	4.35	
2025-01-06 16:35:03.54	100.41	4.36	
2025-01-06 16:35:03.75	100.39	4.37	
2025-01-06 16:35:03.95	100.37	4.38	
2025-01-06 16:35:04.16	100.35	4.40	
2025-01-06 16:35:04.36	100.33	4.41	
2025-01-06 16:35:04.57	100.31	4.42	
2025-01-06 16:35:04.77	100.29	4.43	
2025-01-06 16:35:04.98	100.27	4.45	
2025-01-06 16:35:05.18	100.25	4.46	
2025-01-06 16:35:05.39	100.23	4.47	
2025-01-06 16:35:05.60	100.21	4.48	
2025-01-06 16:35:05.80	100.19	4.49	
2025-01-06 16:35:06.01	100.17	4.51	
2025-01-06 16:35:06.21	100.15	4.52	
2025-01-06 16:35:06.42	100.12	4.53	
2025-01-06 16:35:06.62	100.11	4.54	
2025-01-06 16:35:06.82	100.09	4.55	
2025-01-06 16:35:07.03	100.06	4.57	
2025-01-06 16:35:07.23	100.04	4.58	
2025-01-06 16:35:07.44	100.02	4.59	
2025-01-06 16:35:07.64	100.00	4.60	
2025-01-06 16:35:07.85	99.98	4.62	
2025-01-06 16:35:08.07	99.96	4.63	
2025-01-06 16:35:08.27	99.94	4.64	
2025-01-06 16:35:08.47	99.92	4.65	
2025-01-06 16:35:08.68	99.90	4.67	
2025-01-06 16:35:08.89	99.88	4.68	
2025-01-06 16:35:09.10	99.86	4.69	
2025-01-06 16:35:09.31	99.84	4.70	
2025-01-06 16:35:09.52	99.82	4.72	
2025-01-06 16:35:09.72	99.80	4.73	
2025-01-06 16:35:09.93	99.78	4.74	
2025-01-06 16:35:10.13	99.76	4.75	
2025-01-06 16:35:10.34	99.74	4.77	
2025-01-06 16:35:10.54	99.72	4.78	
2025-01-06 16:35:10.75	99.69	4.79	
2025-01-06 16:35:10.95	99.67	4.80	
2025-01-06 16:35:11.16	99.65	4.81	
2025-01-06 16:35:11.36	99.63	4.83	
2025-01-06 16:35:11.57	99.61	4.84	
2025-01-06 16:35:11.77	99.59	4.85	
2025-01-06 16:35:11.98	99.57	4.86	
2025-01-06 16:35:12.18	99.55	4.88	
2025-01-06 16:35:12.39	99.53	4.89	
2025-01-06 16:35:12.59	99.51	4.90	
2025-01-06 16:35:12.80	99.49	4.91	
2025-01-06 16:35:13.00	99.47	4.92	
2025-01-06 16:35:13.21	99.45	4.94	
2025-01-06 16:35:13.41	99.43	4.95	
2025-01-06 16:35:13.62	99.40	4.96	
2025-01-06 16:35:13.82	99.38	4.97	
2025-01-06 16:35:14.03	99.36	4.99	
2025-01-06 16:35:14.23	99.34	5.00	
2025-01-06 16:35:14.45	99.32	5.01	
2025-01-06 16:35:14.66	99.30	5.02	
2025-01-06 16:35:14.86	99.28	5.04	
2025-01-06 16:35:15.07	99.26	5.05	
2025-01-06 16:35:15.27	99.24	5.06	
2025-01-06 16:35:15.48	99.21	5.07	
2025-01-06 16:35:15.68	99.19	5.09	
2025-01-06 16:35:15.89	99.17	5.10	
2025-01-06 16:35:16.09	99.15	5.11	
2025-01-06 16:35:16.30	99.13	5.12	
2025-01-06 16:35:16.50	99.11	5.14	
2025-01-06 16:35:16.71	99.09	5.15	
2025-01-06 16:35:16.91	99.07	5.16	
2025-01-06 16:35:17.12	99.05	5.17	
2025-01-06 16:35:17.32	99.03	5.18	
2025-01-06 16:35:17.53	99.00	5.20	
2025-01-06 16:35:17.73	98.98	5.21	
2025-01-06 16:35:17.94	98.96	5.22	
2025-01-06 16:35:18.14	98.94	5.23	
2025-01-06 16:35:18.35	98.92	5.25	
2025-01-06 16:35:18.55	98.90	5.26	
2025-01-06 16:35:18.75	98.88	5.27	
2025-01-06 16:35:18.96	98.85	5.28	
2025-01-06 16:35:19.17	98.83	5.30	
2025-01-06 16:35:19.37	98.81	5.31	
2025-01-06 16:35:19.58	98.79	5.32	
2025-01-06 16:35:19.78	98.77	5.33	
2025-01-06 16:35:19.99	98.75	5.35	
2025-01-06 16:35:20.19	98.73	5.36	
2025-01-06 16:35:20.40	98.70	5.37	
2025-01-06 16:35:20.60	98.68	5.38	
2025-01-06 16:35:20.81	98.66	5.40	
2025-01-06 16:35:21.01	98.64	5.41	
2025-01-06 16:35:21.22	98.62	5.42	
2025-01-06 16:35:21.43	98.60	5.43	
2025-01-06 16:35:21.63	98.58	5.45	
2025-01-06 16:35:21.83	98.55	5.46	
2025-01-06 16:35:22.04	98.53	5.47	
2025-01-06 16:35:22.25	98.51	5.48	
2025-01-06 16:35:22.45	98.49	5.50	
2025-01-06 16:35:22.66	98.47	5.51	
2025-01-06 16:35:22.86	98.44	5.52	
2025-01-06 16:35:23.07	98.42	5.53	
2025-01-06 16:35:23.27	98.40	5.55	
2025-01-06 16:35:23.48	98.38	5.56	
2025-01-06 16:35:23.68	98.36	5.57	
2025-01-06 16:35:23.89	98.34	5.58	
2025-01-06 16:35:24.09	98.31	5.59	
2025-01-06 16:35:24.30	98.29	5.61	
2025-01-06 16:35:24.50	98.27	5.62	
2025-01-06 16:35:24.71	98.25	5.63	
2025-01-06 16:35:24.91	98.23	5.64	
2025-01-06 16:35:25.12	98.20	5.66	
2025-01-06 16:35:25.32	98.18	5.67	
2025-01-06 16:35:25.53	98.16	5.68	
2025-01-06 16:35:25.73	98.14	5.69	
2025-01-06 16:35:25.94	98.12	5.71	
2025-01-06 16:35:26.14	98.09	5.72	
2025-01-06 16:35:26.35	98.07	5.73	
2025-01-06 16:35:26.55	98.05	5.74	
2025-01-06 16:35:26.76	98.03	5.76	
2025-01-06 16:35:26.96	98.01	5.77	
2025-01-06 16:35:27.17	97.98	5.78	
2025-01-06 16:35:27.37	97.96	5.79	
2025-01-06 16:35:27.58	97.94	5.81	
2025-01-06 16:35:27.78	97.92	5.82	
2025-01-06 16:35:27.99	97.89	5.83	
2025-01-06 16:35:28.19	97.87	5.84	
2025-01-06 16:35:28.40	97.85	5.86	
2025-01-06 16:35:28.60	97.83	5.87	
2025-01-06 16:35:28.81	97.80	5.88	
2025-01-06 16:35:29.01	97.78	5.90	
2025-01-06 16:35:29.22	97.76	5.91	
2025-01-06 16:35:29.42	97.74	5.92	
2025-01-06 16:35:29.63	97.72	5.93	
2025-01-06 16:35:29.83	97.69	5.95	
2025-01-06 16:35:30.04	97.67	5.96	
2025-01-06 16:35:30.24	97.65	5.97	
2025-01-06 16:35:30.45	97.63	5.98	
2025-01-06 16:35:30.65	97.60	6.00	
2025-01-06 16:35:30.86	97.58	6.01	
2025-01-06 16:35:31.06	97.56	6.02	
2025-01-06 16:35:31.27	97.53	6.03	
2025-01-06 16:35:31.47	97.51	6.05	
2025-01-06 16:35:31.68	97.49	6.06	
2025-01-06 16:35:31.88	97.47	6.07	
2025-01-06 16:35:32.09	97.44	6.08	
2025-01-06 16:35:32.29	97.42	6.10	
2025-01-06 16:35:32.50	97.40	6.11	
2025-01-06 16:35:32.70	97.38	6.12	
2025-01-06 16:35:32.91	97.35	6.13	
2025-01-06 16:35:33.11	97.33	6.15	
2025-01-06 16:35:33.32	97.31	6.16	
2025-01-06 16:35:33.53	97.28	6.17	
2025-01-06 16:35:33.73	97.26	6.18	
2025-01-06 16:35:33.93	97.24	6.20	
2025-01-06 16:35:34.14	97.22	6.21	
2025-01-06 16:35:34.34	97.19	6.22	
2025-01-06 16:35:34.55	97.17	6.23	
2025-01-06 16:35:34.75	97.15	6.25	
2025-01-06 16:35:34.96	97.12	6.26	
2025-01-06 16:35:35.17	97.10	6.27	
2025-01-06 16:35:35.37	97.08	6.29	
2025-01-06 16:35:35.58	97.05	6.30	
2025-01-06 16:35:35.78	97.03	6.31	
2025-01-06 16:35:35.98	97.01	6.32	
2025-01-06 16:35:36.19	96.99	6.34	
2025-01-06 16:35:36.39	96.96	6.35	
2025-01-06 16:35:36.60	96.94	6.36	
2025-01-06 16:35:36.80	96.92	6.37	
2025-01-06 16:35:37.01	96.89	6.39	
2025-01-06 16:35:37.21	96.87	6.40	
2025-01-06 16:35:37.42	96.85	6.41	
2025-01-06 16:35:37.63	96.82	6.42	
2025-01-06 16:35:37.83	96.80	6.44	
2025-01-06 16:35:38.04	96.78	6.45	
2025-01-06 16:35:38.24	96.75	6.46	
2025-01-06 16:35:38.44	96.73	6.47	
2025-01-06 16:35:38.65	96.71	6.49	
2025-01-06 16:35:38.85	96.68	6.50	
2025-01-06 16:35:39.07	96.66	6.51	
2025-01-06 16:35:39.27	96.64	6.53	
2025-01-06 16:35:39.48	96.61	6.54	
2025-01-06 16:35:39.68	96.59	6.55	
2025-01-06 16:35:39.89	96.56	6.56	
2025-01-06 16:35:40.11	96.54	6.58	
2025-01-06 16:35:40.31	96.52	6.59	
2025-01-06 16:35:40.52	96.49	6.60	
2025-01-06 16:35:40.73	96.47	6.62	
2025-01-06 16:35:40.93	96.44	6.63	
2025-01-06 16:35:41.15	96.42	6.64	
2025-01-06 16:35:41.35	96.40	6.65	
2025-01-06 16:35:41.56	96.37	6.67	
2025-01-06 16:35:41.78	96.35	6.68	
2025-01-06 16:35:41.98	96.32	6.69	
2025-01-06 16:35:42.20	96.30	6.71	
2025-01-06 16:35:42.40	96.27	6.72	
2025-01-06 16:35:42.61	96.25	6.73	
2025-01-06 16:35:42.82	96.23	6.75	
2025-01-06 16:35:43.02	96.20	6.76	
2025-01-06 16:35:43.24	96.18	6.77	
2025-01-06 16:35:43.44	96.15	6.78	
2025-01-06 16:35:43.65	96.13	6.80	
2025-01-06 16:35:43.86	96.10	6.81	
2025-01-06 16:35:44.06	96.08	6.82	
2025-01-06 16:35:44.27	96.06	6.84	
2025-01-06 16:35:44.47	96.03	6.85	
2025-01-06 16:35:44.68	96.01	6.86	
2025-01-06 16:35:44.88	95.98	6.87	
2025-01-06 16:35:45.09	95.96	6.89	
2025-01-06 16:35:45.29	95.94	6.90	
2025-01-06 16:35:45.50	95.91	6.91	
2025-01-06 16:35:45.70	95.89	6.93	
2025-01-06 16:35:45.91	95.86	6.94	
2025-01-06 16:35:46.11	95.84	6.95	
2025-01-06 16:35:46.31	95.82	6.96	
2025-01-06 16:35:46.52	95.79	6.98	
2025-01-06 16:35:46.72	95.77	6.99	
2025-01-06 16:35:46.93	95.74	7.00	
2025-01-06 16:35:47.13	95.72	7.01	
2025-01-06 16:35:47.34	95.69	7.03	
2025-01-06 16:35:47.56	95.67	7.04	
2025-01-06 16:35:47.76	95.64	7.05	
2025-01-06 16:35:47.97	95.62	7.07	
2025-01-06 16:35:48.17	95.59	7.08	
2025-01-06 16:35:48.38	95.57	7.09	
2025-01-06 16:35:48.58	95.54	7.10	
2025-01-06 16:35:48.79	95.52	7.12	
2025-01-06 16:35:48.99	95.50	7.13	
2025-01-06 16:35:49.20	95.47	7.14	
2025-01-06 16:35:49.40	95.45	7.16	
2025-01-06 16:35:49.61	95.42	7.17	
2025-01-06 16:35:49.81	95.40	7.18	
2025-01-06 16:35:50.02	95.37	7.19	
2025-01-06 16:35:50.22	95.35	7.21	
2025-01-06 16:35:50.43	95.32	7.22	
2025-01-06 16:35:50.63	95.30	7.23	
2025-01-06 16:35:50.84	95.27	7.25	
2025-01-06 16:35:51.04	95.25	7.26	
2025-01-06 16:35:51.25	95.22	7.27	
2025-01-06 16:35:51.45	95.20	7.28	
2025-01-06 16:35:51.66	95.17	7.30	
2025-01-06 16:35:51.86	95.15	7.31	
2025-01-06 16:35:52.07	95.12	7.32	
2025-01-06 16:35:52.27	95.10	7.34	
2025-01-06 16:35:52.48	95.07	7.35	
2025-01-06 16:35:52.68	95.05	7.36	
2025-01-06 16:35:52.89	95.02	7.37	
2025-01-06 16:35:53.09	95.00	7.39	
2025-01-06 16:35:53.30	94.97	7.40	
2025-01-06 16:35:53.50	94.95	7.41	
2025-01-06 16:35:53.71	94.92	7.43	
2025-01-06 16:35:53.91	94.90	7.44	
2025-01-06 16:35:54.12	94.87	7.45	
2025-01-06 16:35:54.32	94.85	7.46	
2025-01-06 16:35:54.53	94.82	7.48	
2025-01-06 16:35:54.73	94.80	7.49	
2025-01-06 16:35:54.94	94.77	7.50	
2025-01-06 16:35:55.14	94.75	7.52	
2025-01-06 16:35:55.35	94.72	7.53	
2025-01-06 16:35:55.55	94.70	7.54	
2025-01-06 16:35:55.76	94.67	7.55	
2025-01-06 16:35:55.97	94.64	7.57	
2025-01-06 16:35:56.17	94.62	7.58	
2025-01-06 16:35:56.37	94.59	7.59	
2025-01-06 16:35:56.58	94.57	7.61	
2025-01-06 16:35:56.79	94.54	7.62	
2025-01-06 16:35:56.99	94.52	7.63	
2025-01-06 16:35:57.20	94.49	7.64	
2025-01-06 16:35:57.40	94.47	7.66	
2025-01-06 16:35:57.61	94.44	7.67	
2025-01-06 16:35:57.81	94.42	7.68	
2025-01-06 16:35:58.02	94.39	7.70	
2025-01-06 16:35:58.22	94.36	7.71	
2025-01-06 16:35:58.43	94.34	7.72	
2025-01-06 16:35:58.64	94.31	7.74	
2025-01-06 16:35:58.84	94.29	7.75	
2025-01-06 16:35:59.04	94.26	7.76	
2025-01-06 16:35:59.25	94.23	7.77	
2025-01-06 16:35:59.45	94.21	7.79	
2025-01-06 16:35:59.66	94.18	7.80	
2025-01-06 16:35:59.86	94.16	7.81	
2025-01-06 16:36:00.07	94.13	7.83	
2025-01-06 16:36:00.27	94.11	7.84	
2025-01-06 16:36:00.48	94.08	7.85	
2025-01-06 16:36:00.68	94.05	7.86	
2025-01-06 16:36:00.89	94.03	7.88	
2025-01-06 16:36:01.10	94.00	7.89	
2025-01-06 16:36:01.30	93.97	7.90	
2025-01-06 16:36:01.51	93.95	7.92	
2025-01-06 16:36:01.71	93.92	7.93	
2025-01-06 16:36:01.92	93.90	7.94	
2025-01-06 16:36:02.12	93.87	7.95	
2025-01-06 16:36:02.33	93.84	7.97	
2025-01-06 16:36:02.55	93.82	7.98	
2025-01-06 16:36:02.75	93.79	7.99	
2025-01-06 16:36:02.96	93.76	8.01	
2025-01-06 16:36:03.17	93.74	8.02	
2025-01-06 16:36:03.37	93.71	8.03	
2025-01-06 16:36:03.58	93.68	8.05	
2025-01-06 16:36:03.78	93.66	8.06	
2025-01-06 16:36:03.99	93.63	8.07	
2025-01-06 16:36:04.19	93.60	8.09	
2025-01-06 16:36:04.40	93.58	8.10	
2025-01-06 16:36:04.60	93.55	8.11	
2025-01-06 16:36:04.81	93.52	8.12	
2025-01-06 16:36:05.02	93.50	8.14	
2025-01-06 16:36:05.22	93.47	8.15	
2025-01-06 16:36:05.43	93.44	8.16	
2025-01-06 16:36:05.63	93.42	8.18	
2025-01-06 16:36:05.83	93.39	8.19	
2025-01-06 16:36:06.04	93.37	8.20	
2025-01-06 16:36:06.25	93.34	8.22	
2025-01-06 16:36:06.45	93.31	8.23	
2025-01-06 16:36:06.66	93.28	8.24	
2025-01-06 16:36:06.86	93.26	8.25	
2025-01-06 16:36:07.07	93.23	8.27	
2025-01-06 16:36:07.28	93.20	8.28	
2025-01-06 16:36:07.48	93.18	8.29	
2025-01-06 16:36:07.68	93.15	8.31	
2025-01-06 16:36:07.89	93.12	8.32	
2025-01-06 16:36:08.09	93.10	8.33	
2025-01-06 16:36:08.30	93.07	8.35	
2025-01-06 16:36:08.50	93.04	8.36	
2025-01-06 16:36:08.71	93.02	8.37	
2025-01-06 16:36:08.91	92.99	8.38	
2025-01-06 16:36:09.12	92.96	8.40	
2025-01-06 16:36:09.32	92.93	8.41	
2025-01-06 16:36:09.53	92.91	8.42	
2025-01-06 16:36:09.73	92.88	8.44	
2025-01-06 16:36:09.94	92.85	8.45	
2025-01-06 16:36:10.14	92.83	8.46	
2025-01-06 16:36:10.35	92.80	8.48	
2025-01-06 16:36:10.55	92.77	8.49	
2025-01-06 16:36:10.76	92.74	8.50	
2025-01-06 16:36:10.96	92.72	8.51	
2025-01-06 16:36:11.17	92.69	8.53	
2025-01-06 16:36:11.38	92.66	8.54	
2025-01-06 16:36:11.58	92.63	8.55	
2025-01-06 16:36:11.79	92.61	8.57	
2025-01-06 16:36:11.99	92.58	8.58	
2025-01-06 16:36:12.20	92.55	8.59	
2025-01-06 16:36:12.40	92.52	8.61	
2025-01-06 16:36:12.61	92.50	8.62	
2025-01-06 16:36:12.81	92.47	8.63	
2025-01-06 16:36:13.02	92.44	8.65	
2025-01-06 16:36:13.22	92.41	8.66	
2025-01-06 16:36:13.43	92.39	8.67	
2025-01-06 16:36:13.63	92.36	8.68	
2025-01-06 16:36:13.84	92.33	8.70	
2025-01-06 16:36:14.04	92.30	8.71	
2025-01-06 16:36:14.26	92.27	8.72	
2025-01-06 16:36:14.47	92.25	8.74	
2025-01-06 16:36:14.67	92.22	8.75	
2025-01-06 16:36:14.88	92.19	8.76	
2025-01-06 16:36:15.08	92.16	8.78	
2025-01-06 16:36:15.29	92.13	8.79	
2025-01-06 16:36:15.49	92.11	8.80	
2025-01-06 16:36:15.70	92.08	8.82	
2025-01-06 16:36:15.90	92.05	8.83	
2025-01-06 16:36:16.11	92.02	8.84	
2025-01-06 16:36:16.31	92.00	8.85	
2025-01-06 16:36:16.51	91.97	8.87	
2025-01-06 16:36:16.72	91.94	8.88	
2025-01-06 16:36:16.92	91.91	8.89	
2025-01-06 16:36:17.13	91.88	8.91	
2025-01-06 16:36:17.33	91.86	8.92	
2025-01-06 16:36:17.54	91.83	8.93	
2025-01-06 16:36:17.74	91.80	8.95	
2025-01-06 16:36:17.95	91.77	8.96	
2025-01-06 16:36:18.15	91.74	8.97	
2025-01-06 16:36:18.36	91.71	8.99	
2025-01-06 16:36:18.56	91.69	9.00	
2025-01-06 16:36:18.77	91.66	9.01	
2025-01-06 16:36:18.97	91.63	9.02	
2025-01-06 16:36:19.18	91.60	9.04	
2025-01-06 16:36:19.38	91.57	9.05	
2025-01-06 16:36:19.59	91.54	9.06	
2025-01-06 16:36:19.79	91.52	9.08	
2025-01-06 16:36:19.99	91.49	9.09	
2025-01-06 16:36:20.20	91.46	9.10	
2025-01-06 16:36:20.41	91.43	9.12	
2025-01-06 16:36:20.61	91.40	9.13	
2025-01-06 16:36:20.81	91.37	9.14	
2025-01-06 16:36:21.02	91.34	9.16	
2025-01-06 16:36:21.23	91.31	9.17	
2025-01-06 16:36:21.43	91.29	9.18	
2025-01-06 16:36:21.65	91.26	9.20	
2025-01-06 16:36:21.85	91.23	9.21	
2025-01-06 16:36:22.06	91.20	9.22	
2025-01-06 16:36:22.26	91.17	9.23	
2025-01-06 16:36:22.47	91.14	9.25	
2025-01-06 16:36:22.67	91.11	9.26	
2025-01-06 16:36:22.88	91.08	9.27	
2025-01-06 16:36:23.08	91.05	9.29	
2025-01-06 16:36:23.29	91.03	9.30	
2025-01-06 16:36:23.49	91.00	9.31	
2025-01-06 16:36:23.70	90.97	9.33	
2025-01-06 16:36:23.90	90.94	9.34	
2025-01-06 16:36:24.11	90.91	9.35	
2025-01-06 16:36:24.31	90.88	9.37	
2025-01-06 16:36:24.52	90.85	9.38	
2025-01-06 16:36:24.72	90.82	9.39	
2025-01-06 16:36:24.93	90.79	9.41	
2025-01-06 16:36:25.13	90.76	9.42	
2025-01-06 16:36:25.34	90.73	9.43	
2025-01-06 16:36:25.55	90.70	9.44	
2025-01-06 16:36:25.75	90.68	9.46	
2025-01-06 16:36:25.95	90.65	9.47	
2025-01-06 16:36:26.16	90.62	9.48	
2025-01-06 16:36:26.36	90.59	9.50	
2025-01-06 16:36:26.57	90.56	9.51	
2025-01-06 16:36:26.78	90.53	9.52	
2025-01-06 16:36:26.99	90.50	9.54	
2025-01-06 16:36:27.20	90.47	9.55	
2025-01-06 16:36:27.40	90.44	9.56	
2025-01-06 16:36:27.61	90.41	9.58	
2025-01-06 16:36:27.81	90.38	9.59	
2025-01-06 16:36:28.03	90.35	9.60	
2025-01-06 16:36:28.24	90.32	9.62	
2025-01-06 16:36:28.45	90.29	9.63	
2025-01-06 16:36:28.65	90.26	9.64	
2025-01-06 16:36:28.86	90.23	9.66	
2025-01-06 16:36:29.07	90.20	9.67	
2025-01-06 16:36:29.28	90.17	9.68	
2025-01-06 16:36:29.48	90.14	9.70	
2025-01-06 16:36:29.69	90.11	9.71	
2025-01-06 16:36:29.89	90.08	9.72	
2025-01-06 16:36:30.10	90.05	9.74	
2025-01-06 16:36:30.30	90.02	9.75	
2025-01-06 16:36:30.51	89.99	9.76	
2025-01-06 16:36:30.71	89.96	9.78	
2025-01-06 16:36:30.92	89.93	9.79	
2025-01-06 16:36:31.13	89.90	9.80	
2025-01-06 16:36:31.33	89.87	9.81	
2025-01-06 16:36:31.53	89.84	9.83	
2025-01-06 16:36:31.74	89.81	9.84	
2025-01-06 16:36:31.94	89.78	9.85	
2025-01-06 16:36:32.15	89.75	9.87	
2025-01-06 16:36:32.35	89.72	9.88	
2025-01-06 16:36:32.56	89.69	9.89	
2025-01-06 16:36:32.77	89.65	9.91	
2025-01-06 16:36:32.97	89.62	9.92	
2025-01-06 16:36:33.18	89.59	9.93	
2025-01-06 16:36:33.38	89.56	9.95	
2025-01-06 16:36:33.59	89.53	9.96	
2025-01-06 16:36:33.79	89.50	9.97	
2025-01-06 16:36:34.00	89.47	9.99	
2025-01-06 16:36:34.20	89.44	10.00	
2025-01-06 16:36:34.41	89.41	10.01	
2025-01-06 16:36:34.61	89.38	10.02	
2025-01-06 16:36:34.82	89.35	10.04	
2025-01-06 16:36:35.02	89.32	10.05	
2025-01-06 16:36:35.23	89.29	10.06	
2025-01-06 16:36:35.43	89.26	10.08	
2025-01-06 16:36:35.64	89.23	10.09	
2025-01-06 16:36:35.84	89.20	10.10	
2025-01-06 16:36:36.05	89.17	10.12	
2025-01-06 16:36:36.25	89.14	10.13	
2025-01-06 16:36:36.46	89.10	10.14	
2025-01-06 16:36:36.66	89.07	10.16	
2025-01-06 16:36:36.87	89.04	10.17	
2025-01-06 16:36:37.07	89.01	10.18	
2025-01-06 16:36:37.28	88.98	10.20	
2025-01-06 16:36:37.48	88.95	10.21	
2025-01-06 16:36:37.69	88.92	10.22	
2025-01-06 16:36:37.89	88.89	10.24	
2025-01-06 16:36:38.10	88.86	10.25	
2025-01-06 16:36:38.31	88.82	10.26	
2025-01-06 16:36:38.51	88.79	10.28	
2025-01-06 16:36:38.72	88.76	10.29	
2025-01-06 16:36:38.92	88.73	10.30	
2025-01-06 16:36:39.13	88.70	10.31	
2025-01-06 16:36:39.33	88.67	10.33	
2025-01-06 16:36:39.54	88.64	10.34	
2025-01-06 16:36:39.74	88.61	10.35	
2025-01-06 16:36:39.95	88.57	10.37	
2025-01-06 16:36:40.15	88.54	10.38	
2025-01-06 16:36:40.36	88.51	10.39	
2025-01-06 16:36:40.57	88.48	10.41	
2025-01-06 16:36:40.77	88.45	10.42	
2025-01-06 16:36:40.97	88.42	10.43	
2025-01-06 16:36:41.18	88.38	10.45	
2025-01-06 16:36:41.39	88.35	10.46	
2025-01-06 16:36:41.59	88.32	10.47	
2025-01-06 16:36:41.80	88.29	10.49	
2025-01-06 16:36:42.00	88.26	10.50	
2025-01-06 16:36:42.21	88.23	10.51	
2025-01-06 16:36:42.42	88.19	10.53	
2025-01-06 16:36:42.62	88.16	10.54	
2025-01-06 16:36:42.83	88.13	10.55	
2025-01-06 16:36:43.03	88.10	10.56	
2025-01-06 16:36:43.23	88.07	10.58	
2025-01-06 16:36:43.44	88.03	10.59	
2025-01-06 16:36:43.65	88.00	10.60	
2025-01-06 16:36:43.85	87.97	10.62	
2025-01-06 16:36:44.06	87.94	10.63	
2025-01-06 16:36:44.26	87.91	10.64	
2025-01-06 16:36:44.47	87.87	10.66	
2025-01-06 16:36:44.67	87.84	10.67	
2025-01-06 16:36:44.88	87.81	10.68	
2025-01-06 16:36:45.08	87.78	10.70	
2025-01-06 16:36:45.29	87.75	10.71	
2025-01-06 16:36:45.50	87.71	10.72	
2025-01-06 16:36:45.70	87.68	10.74	
2025-01-06 16:36:45.91	87.65	10.75	
2025-01-06 16:36:46.11	87.62	10.76	
2025-01-06 16:36:46.32	87.58	10.78	
2025-01-06 16:36:46.52	87.55	10.79	
2025-01-06 16:36:46.73	87.52	10.80	
2025-01-06 16:36:46.93	87.49	10.81	
2025-01-06 16:36:47.14	87.45	10.83	
2025-01-06 16:36:47.36	87.42	10.84	
2025-01-06 16:36:47.56	87.39	10.86	
2025-01-06 16:36:47.77	87.35	10.87	
2025-01-06 16:36:47.97	87.32	10.88	
2025-01-06 16:36:48.18	87.29	10.89	
2025-01-06 16:36:48.38	87.26	10.91	
2025-01-06 16:36:48.59	87.22	10.92	
2025-01-06 16:36:48.80	87.19	10.93	
2025-01-06 16:36:49.00	87.16	10.95	
2025-01-06 16:36:49.21	87.12	10.96	
2025-01-06 16:36:49.41	87.09	10.97	
2025-01-06 16:36:49.62	87.06	10.99	
2025-01-06 16:36:49.82	87.03	11.00	
2025-01-06 16:36:50.03	86.99	11.01	
2025-01-06 16:36:50.23	86.96	11.03	
2025-01-06 16:36:50.44	86.93	11.04	
2025-01-06 16:36:50.64	86.89	11.05	
2025-01-06 16:36:50.85	86.86	11.07	
2025-01-06 16:36:51.05	86.83	11.08	
2025-01-06 16:36:51.26	86.79	11.09	
2025-01-06 16:36:51.46	86.76	11.10	
2025-01-06 16:36:51.67	86.73	11.12	
2025-01-06 16:36:51.87	86.70	11.13	
2025-01-06 16:36:52.08	86.66	11.14	
2025-01-06 16:36:52.29	86.63	11.16	
2025-01-06 16:36:52.49	86.59	11.17	
2025-01-06 16:36:52.69	86.56	11.18	
2025-01-06 16:36:52.90	86.53	11.20	
2025-01-06 16:36:53.11	86.49	11.21	
2025-01-06 16:36:53.31	86.46	11.22	
2025-01-06 16:36:53.52	86.43	11.24	
2025-01-06 16:36:53.72	86.39	11.25	
2025-01-06 16:36:53.93	86.36	11.26	
2025-01-06 16:36:54.14	86.33	11.28	
2025-01-06 16:36:54.34	86.29	11.29	
2025-01-06 16:36:54.55	86.26	11.30	
2025-01-06 16:36:54.75	86.23	11.32	
2025-01-06 16:36:54.96	86.19	11.33	
2025-01-06 16:36:55.17	86.16	11.34	
2025-01-06 16:36:55.37	86.12	11.35	
2025-01-06 16:36:55.58	86.09	11.37	
2025-01-06 16:36:55.78	86.06	11.38	
2025-01-06 16:36:55.99	86.02	11.39	
2025-01-06 16:36:56.19	85.99	11.41	
2025-01-06 16:36:56.40	85.95	11.42	
2025-01-06 16:36:56.60	85.92	11.43	
2025-01-06 16:36:56.81	85.89	11.45	
2025-01-06 16:36:57.01	85.85	11.46	
2025-01-06 16:36:57.22	85.82	11.47	
2025-01-06 16:36:57.42	85.78	11.49	
2025-01-06 16:36:57.63	85.75	11.50	
2025-01-06 16:36:57.83	85.72	11.51	
2025-01-06 16:36:58.04	85.68	11.53	
2025-01-06 16:36:58.24	85.65	11.54	
2025-01-06 16:36:58.45	85.61	11.55	
2025-01-06 16:36:58.65	85.58	11.56	
2025-01-06 16:36:58.86	85.54	11.58	
2025-01-06 16:36:59.06	85.51	11.59	
2025-01-06 16:36:59.27	85.47	11.60	
2025-01-06 16:36:59.48	85.44	11.62	
2025-01-06 16:36:59.68	85.41	11.63	
2025-01-06 16:36:59.88	85.37	11.64	
2025-01-06 16:37:00.09	85.34	11.66	
2025-01-06 16:37:00.29	85.30	11.67	
2025-01-06 16:37:00.50	85.27	11.68	
2025-01-06 16:37:00.71	85.23	11.70	
2025-01-06 16:37:00.91	85.20	11.71	
2025-01-06 16:37:01.11	85.16	11.72	
2025-01-06 16:37:01.32	85.13	11.73	
2025-01-06 16:37:01.53	85.09	11.75	
2025-01-06 16:37:01.73	85.06	11.76	
2025-01-06 16:37:01.94	85.02	11.77	
2025-01-06 16:37:02.14	84.99	11.79	
2025-01-06 16:37:02.35	84.95	11.80	
2025-01-06 16:37:02.55	84.92	11.81	
2025-01-06 16:37:02.76	84.88	11.83	
2025-01-06 16:37:02.96	84.85	11.84	
2025-01-06 16:37:03.17	84.81	11.85	
2025-01-06 16:37:03.37	84.78	11.86	
2025-01-06 16:37:03.58	84.74	11.88	
2025-01-06 16:37:03.78	84.71	11.89	
2025-01-06 16:37:03.99	84.67	11.90	
2025-01-06 16:37:04.20	84.64	11.92	
2025-01-06 16:37:04.40	84.60	11.93	
2025-01-06 16:37:04.61	84.57	11.94	
2025-01-06 16:37:04.81	84.53	11.96	
2025-01-06 16:37:05.01	84.50	11.97	
2025-01-06 16:37:05.22	84.46	11.98	
2025-01-06 16:37:05.44	84.42	12.00	
2025-01-06 16:37:05.64	84.39	12.01	
2025-01-06 16:37:05.85	84.35	12.02	
2025-01-06 16:37:06.05	84.32	12.03	
2025-01-06 16:37:06.26	84.28	12.05	
2025-01-06 16:37:06.46	84.25	12.06	
2025-01-06 16:37:06.67	84.21	12.07	
2025-01-06 16:37:06.87	84.18	12.09	
2025-01-06 16:37:07.08	84.14	12.10	
2025-01-06 16:37:07.28	84.10	12.11	
2025-01-06 16:37:07.48	84.07	12.12	
2025-01-06 16:37:07.69	84.03	12.14	
2025-01-06 16:37:07.90	84.00	12.15	
2025-01-06 16:37:08.10	83.96	12.16	
2025-01-06 16:37:08.31	83.92	12.18	
2025-01-06 16:37:08.51	83.89	12.19	
2025-01-06 16:37:08.73	83.85	12.20	
2025-01-06 16:37:08.94	83.81	12.22	
2025-01-06 16:37:09.14	83.78	12.23	
2025-01-06 16:37:09.35	83.74	12.24	
2025-01-06 16:37:09.55	83.71	12.26	
2025-01-06 16:37:09.76	83.67	12.27	
2025-01-06 16:37:09.96	83.63	12.28	
2025-01-06 16:37:10.17	83.60	12.29	
2025-01-06 16:37:10.37	83.56	12.31	
2025-01-06 16:37:10.58	83.53	12.32	
2025-01-06 16:37:10.78	83.49	12.33	
2025-01-06 16:37:10.99	83.45	12.35	
2025-01-06 16:37:11.19	83.42	12.36	
2025-01-06 16:37:11.40	83.38	12.37	
2025-01-06 16:37:11.61	83.34	12.39	
2025-01-06 16:37:11.81	83.31	12.40	
2025-01-06 16:37:12.02	83.27	12.41	
2025-01-06 16:37:12.22	83.23	12.42	
2025-01-06 16:37:12.43	83.20	12.44	
2025-01-06 16:37:12.64	83.16	12.45	
2025-01-06 16:37:12.84	83.12	12.46	
2025-01-06 16:37:13.04	83.09	12.48	
2025-01-06 16:37:13.25	83.05	12.49	
2025-01-06 16:37:13.46	83.01	12.50	
2025-01-06 16:37:13.66	82.98	12.51	
2025-01-06 16:37:13.87	82.94	12.53	
2025-01-06 16:37:14.07	82.90	12.54	
2025-01-06 16:37:14.27	82.87	12.55	
2025-01-06 16:37:14.48	82.83	12.57	
2025-01-06 16:37:14.69	82.79	12.58	
2025-01-06 16:37:14.89	82.75	12.59	
2025-01-06 16:37:15.11	82.72	12.61	
2025-01-06 16:37:15.31	82.68	12.62	
2025-01-06 16:37:15.52	82.64	12.63	
2025-01-06 16:37:15.73	82.60	12.64	
2025-01-06 16:37:15.93	82.57	12.66	
2025-01-06 16:37:16.14	82.53	12.67	
2025-01-06 16:37:16.34	82.49	12.68	
2025-01-06 16:37:16.55	82.45	12.70	
2025-01-06 16:37:16.75	82.42	12.71	
2025-01-06 16:37:16.96	82.38	12.72	
2025-01-06 16:37:17.16	82.34	12.73	
2025-01-06 16:37:17.36	82.31	12.75	
2025-01-06 16:37:17.57	82.27	12.76	
2025-01-06 16:37:17.78	82.23	12.77	
2025-01-06 16:37:17.98	82.19	12.79	
2025-01-06 16:37:18.19	82.15	12.80	
2025-01-06 16:37:18.39	82.12	12.81	
2025-01-06 16:37:18.60	82.08	12.82	
2025-01-06 16:37:18.80	82.04	12.84	
2025-01-06 16:37:19.01	82.00	12.85	
2025-01-06 16:37:19.21	81.97	12.86	
2025-01-06 16:37:19.42	81.93	12.87	
2025-01-06 16:37:19.62	81.89	12.89	
2025-01-06 16:37:19.83	81.85	12.90	
2025-01-06 16:37:20.03	81.82	12.91	
2025-01-06 16:37:20.24	81.78	12.93	
2025-01-06 16:37:20.44	81.74	12.94	
2025-01-06 16:37:20.65	81.70	12.95	
2025-01-06 16:37:20.85	81.66	12.96	
2025-01-06 16:37:21.06	81.63	12.98	
2025-01-06 16:37:21.26	81.59	12.99	
2025-01-06 16:37:21.48	81.55	13.00	
2025-01-06 16:37:21.68	81.51	13.02	
2025-01-06 16:37:21.89	81.47	13.03	
2025-01-06 16:37:22.09	81.43	13.04	
2025-01-06 16:37:22.30	81.39	13.05	
2025-01-06 16:37:22.50	81.36	13.07	
2025-01-06 16:37:22.71	81.32	13.08	
2025-01-06 16:37:22.91	81.28	13.09	
2025-01-06 16:37:23.12	81.24	13.10	
2025-01-06 16:37:23.32	81.20	13.12	
2025-01-06 16:37:23.53	81.16	13.13	
2025-01-06 16:37:23.73	81.13	13.14	
2025-01-06 16:37:23.94	81.09	13.16	
2025-01-06 16:37:24.14	81.05	13.17	
2025-01-06 16:37:24.35	81.01	13.18	
2025-01-06 16:37:24.55	80.97	13.19	
2025-01-06 16:37:24.76	80.93	13.21	
2025-01-06 16:37:24.96	80.89	13.22	
2025-01-06 16:37:25.17	80.85	13.23	
2025-01-06 16:37:25.37	80.82	13.24	
2025-01-06 16:37:25.58	80.78	13.26	
2025-01-06 16:37:25.78	80.74	13.27	
2025-01-06 16:37:25.99	80.70	13.28	
2025-01-06 16:37:26.19	80.66	13.29	
2025-01-06 16:37:26.40	80.62	13.31	
2025-01-06 16:37:26.60	80.58	13.32	
2025-01-06 16:37:26.81	80.54	13.33	
2025-01-06 16:37:27.01	80.51	13.34	
2025-01-06 16:37:27.22	80.47	13.36	
2025-01-06 16:37:27.43	80.43	13.37	
2025-01-06 16:37:27.63	80.39	13.38	
2025-01-06 16:37:27.83	80.35	13.39	
2025-01-06 16:37:28.04	80.31	13.41	
2025-01-06 16:37:28.25	80.27	13.42	
2025-01-06 16:37:28.45	80.23	13.43	
2025-01-06 16:37:28.66	80.19	13.45	
2025-01-06 16:37:28.86	80.15	13.46	
2025-01-06 16:37:29.07	80.11	13.47	
2025-01-06 16:37:29.27	80.07	13.48	
2025-01-06 16:37:29.48	80.03	13.50	
2025-01-06 16:37:29.68	79.99	13.51	
2025-01-06 16:37:29.89	79.95	13.52	
2025-01-06 16:37:30.09	79.91	13.53	
2025-01-06 16:37:30.30	79.87	13.55	
2025-01-06 16:37:30.50	79.83	13.56	
2025-01-06 16:37:30.71	79.79	13.57	
2025-01-06 16:37:30.92	79.75	13.58	
2025-01-06 16:37:31.12	79.71	13.60	
2025-01-06 16:37:31.32	79.68	13.61	
2025-01-06 16:37:31.53	79.63	13.62	
2025-01-06 16:37:31.74	79.59	13.63	
2025-01-06 16:37:31.94	79.55	13.65	
2025-01-06 16:37:32.15	79.51	13.66	
2025-01-06 16:37:32.35	79.47	13.67	
2025-01-06 16:37:32.56	79.43	13.68	
2025-01-06 16:37:32.77	79.39	13.70	
2025-01-06 16:37:32.97	79.35	13.71	
2025-01-06 16:37:33.18	79.31	13.72	
2025-01-06 16:37:33.38	79.27	13.73	
2025-01-06 16:37:33.59	79.23	13.75	
2025-01-06 16:37:33.79	79.19	13.76	
2025-01-06 16:37:34.00	79.15	13.77	
2025-01-06 16:37:34.20	79.11	13.78	
2025-01-06 16:37:34.41	79.07	13.80	
2025-01-06 16:37:34.61	79.03	13.81	
2025-01-06 16:37:34.82	78.99	13.82	
2025-01-06 16:37:35.02	78.95	13.83	
2025-01-06 16:37:35.23	78.91	13.84	
2025-01-06 16:37:35.43	78.87	13.86	
2025-01-06 16:37:35.64	78.83	13.87	
2025-01-06 16:37:35.85	78.79	13.88	
2025-01-06 16:37:36.05	78.75	13.89	
2025-01-06 16:37:36.26	78.70	13.91	
2025-01-06 16:37:36.46	78.66	13.92	
2025-01-06 16:37:36.67	78.62	13.93	
2025-01-06 16:37:36.87	78.58	13.94	
2025-01-06 16:37:37.08	78.54	13.96	
2025-01-06 16:37:37.28	78.50	13.97	
2025-01-06 16:37:37.49	78.46	13.98	
2025-01-06 16:37:37.69	78.42	13.99	
2025-01-06 16:37:37.90	78.38	14.01	
2025-01-06 16:37:38.10	78.34	14.02	
2025-01-06 16:37:38.31	78.29	14.03	
2025-01-06 16:37:38.53	78.25	14.04	
2025-01-06 16:37:38.73	78.21	14.05	
2025-01-06 16:37:38.94	78.17	14.07	
2025-01-06 16:37:39.14	78.13	14.08	
2025-01-06 16:37:39.35	78.09	14.09	
2025-01-06 16:37:39.55	78.05	14.10	
2025-01-06 16:37:39.76	78.00	14.12	
2025-01-06 16:37:39.96	77.96	14.13	
2025-01-06 16:37:40.17	77.92	14.14	
2025-01-06 16:37:40.37	77.88	14.15	
2025-01-06 16:37:40.57	77.84	14.16	
2025-01-06 16:37:40.78	77.80	14.18	
2025-01-06 16:37:40.98	77.76	14.19	
2025-01-06 16:37:41.19	77.71	14.20	
2025-01-06 16:37:41.39	77.67	14.21	
2025-01-06 16:37:41.60	77.63	14.23	
2025-01-06 16:37:41.81	77.59	14.24	
2025-01-06 16:37:42.01	77.55	14.25	
2025-01-06 16:37:42.22	77.50	14.26	
2025-01-06 16:37:42.42	77.46	14.27	
2025-01-06 16:37:42.63	77.42	14.29	
2025-01-06 16:37:42.85	77.38	14.30	
2025-01-06 16:37:43.05	77.33	14.31	
2025-01-06 16:37:43.26	77.29	14.32	
2025-01-06 16:37:43.46	77.25	14.33	
2025-01-06 16:37:43.67	77.21	14.35	
2025-01-06 16:37:43.87	77.17	14.36	
2025-01-06 16:37:44.07	77.13	14.37	
2025-01-06 16:37:44.28	77.08	14.38	
2025-01-06 16:37:44.49	77.04	14.40	
2025-01-06 16:37:44.69	77.00	14.41	
2025-01-06 16:37:44.89	76.96	14.42	
2025-01-06 16:37:45.10	76.91	14.43	
2025-01-06 16:37:45.31	76.87	14.44	
2025-01-06 16:37:45.51	76.83	14.46	
2025-01-06 16:37:45.71	76.79	14.47	
2025-01-06 16:37:45.92	76.74	14.48	
2025-01-06 16:37:46.12	76.70	14.49	
2025-01-06 16:37:46.33	76.66	14.50	
2025-01-06 16:37:46.54	76.62	14.52	
2025-01-06 16:37:46.74	76.57	14.53	
2025-01-06 16:37:46.94	76.53	14.54	
2025-01-06 16:37:47.15	76.49	14.55	
2025-01-06 16:37:47.35	76.45	14.56	
2025-01-06 16:37:47.56	76.40	14.57	
2025-01-06 16:37:47.76	76.36	14.59	
2025-01-06 16:37:47.97	76.32	14.60	
2025-01-06 16:37:48.17	76.28	14.61	
2025-01-06 16:37:48.38	76.23	14.62	
2025-01-06 16:37:48.58	76.19	14.63	
2025-01-06 16:37:48.79	76.15	14.65	
2025-01-06 16:37:49.00	76.10	14.66	
2025-01-06 16:37:49.21	76.06	14.67	
2025-01-06 16:37:49.42	76.01	14.68	
2025-01-06 16:37:49.63	75.97	14.69	
2025-01-06 16:37:49.83	75.93	14.71	
2025-01-06 16:37:50.04	75.88	14.72	
2025-01-06 16:37:50.24	75.84	14.73	
2025-01-06 16:37:50.45	75.80	14.74	
2025-01-06 16:37:50.65	75.75	14.75	
2025-01-06 16:37:50.86	75.71	14.76	
2025-01-06 16:37:51.06	75.67	14.78	
2025-01-06 16:37:51.26	75.63	14.79	
2025-01-06 16:37:51.47	75.58	14.80	
2025-01-06 16:37:51.68	75.54	14.81	
2025-01-06 16:37:51.88	75.49	14.82	
2025-01-06 16:37:52.09	75.45	14.84	
2025-01-06 16:37:52.29	75.41	14.85	
2025-01-06 16:37:52.50	75.36	14.86	
2025-01-06 16:37:52.70	75.32	14.87	
2025-01-06 16:37:52.91	75.27	14.88	
2025-01-06 16:37:53.11	75.23	14.89	
2025-01-06 16:37:53.32	75.19	14.91	
2025-01-06 16:37:53.52	75.14	14.92	
2025-01-06 16:37:53.72	75.10	14.93	
2025-01-06 16:37:53.93	75.06	14.94	
2025-01-06 16:37:54.14	75.01	14.95	
2025-01-06 16:37:54.34	74.97	14.96	
2025-01-06 16:37:54.54	74.93	14.97	
2025-01-06 16:37:54.75	74.88	14.99	
2025-01-06 16:37:54.95	74.84	15.00	
2025-01-06 16:37:55.16	74.79	15.01	
2025-01-06 16:37:55.37	74.75	15.02	
2025-01-06 16:37:55.57	74.70	15.03	
2025-01-06 16:37:55.77	74.66	15.04	
2025-01-06 16:37:55.98	74.62	15.06	
2025-01-06 16:37:56.19	74.57	15.07	
2025-01-06 16:37:56.39	74.53	15.08	
2025-01-06 16:37:56.59	74.48	15.09	
2025-01-06 16:37:56.80	74.44	15.10	
2025-01-06 16:37:57.01	74.39	15.11	
2025-01-06 16:37:57.21	74.35	15.12	
2025-01-06 16:37:57.42	74.30	15.14	
2025-01-06 16:37:57.62	74.26	15.15	
2025-01-06 16:37:57.83	74.21	15.16	
2025-01-06 16:37:58.03	74.17	15.17	
2025-01-06 16:37:58.24	74.13	15.18	
2025-01-06 16:37:58.45	74.08	15.19	
2025-01-06 16:37:58.65	74.04	15.20	
2025-01-06 16:37:58.87	73.99	15.22	
2025-01-06 16:37:59.07	73.94	15.23	
2025-01-06 16:37:59.28	73.90	15.24	
2025-01-06 16:37:59.48	73.85	15.25	
2025-01-06 16:37:59.69	73.81	15.26	
2025-01-06 16:37:59.89	73.76	15.27	
2025-01-06 16:38:00.09	73.72	15.28	
2025-01-06 16:38:00.30	73.67	15.30	
2025-01-06 16:38:00.50	73.63	15.31	
2025-01-06 16:38:00.71	73.58	15.32	
2025-01-06 16:38:00.91	73.54	15.33	
2025-01-06 16:38:01.12	73.49	15.34	
2025-01-06 16:38:01.32	73.45	15.35	
2025-01-06 16:38:01.53	73.40	15.36	
2025-01-06 16:38:01.73	73.36	15.37	
2025-01-06 16:38:01.94	73.31	15.39	
2025-01-06 16:38:02.14	73.27	15.40	
2025-01-06 16:38:02.35	73.22	15.41	
2025-01-06 16:38:02.55	73.18	15.42	
2025-01-06 16:38:02.76	73.13	15.43	
2025-01-06 16:38:02.96	73.09	15.44	
2025-01-06 16:38:03.17	73.04	15.45	
2025-01-06 16:38:03.37	73.00	15.46	
2025-01-06 16:38:03.58	72.95	15.47	
2025-01-06 16:38:03.78	72.90	15.48	
2025-01-06 16:38:03.99	72.86	15.50	
2025-01-06 16:38:04.19	72.81	15.51	
2025-01-06 16:38:04.40	72.77	15.52	
2025-01-06 16:38:04.60	72.72	15.53	
2025-01-06 16:38:04.81	72.68	15.54	
2025-01-06 16:38:05.02	72.63	15.55	
2025-01-06 16:38:05.22	72.58	15.56	
2025-01-06 16:38:05.42	72.54	15.57	
2025-01-06 16:38:05.63	72.49	15.58	
2025-01-06 16:38:05.84	72.44	15.60	
2025-01-06 16:38:06.04	72.40	15.61	
2025-01-06 16:38:06.24	72.35	15.62	
2025-01-06 16:38:06.45	72.31	15.63	
2025-01-06 16:38:06.65	72.26	15.64	
2025-01-06 16:38:06.86	72.21	15.65	
2025-01-06 16:38:07.06	72.17	15.66	
2025-01-06 16:38:07.27	72.12	15.67	
2025-01-06 16:38:07.47	72.08	15.68	
2025-01-06 16:38:07.68	72.03	15.69	
2025-01-06 16:38:07.89	71.98	15.70	
2025-01-06 16:38:08.09	71.94	15.72	
2025-01-06 16:38:08.30	71.89	15.73	
2025-01-06 16:38:08.51	71.84	15.74	
2025-01-06 16:38:08.72	71.79	15.75	
2025-01-06 16:38:08.92	71.75	15.76	
2025-01-06 16:38:09.13	71.70	15.77	
2025-01-06 16:38:09.34	71.65	15.78	
2025-01-06 16:38:09.56	71.60	15.79	
2025-01-06 16:38:09.76	71.56	15.80	
2025-01-06 16:38:09.96	71.51	15.81	
2025-01-06 16:38:10.17	71.46	15.82	
2025-01-06 16:38:10.38	71.42	15.84	
2025-01-06 16:38:10.58	71.37	15.85	
2025-01-06 16:38:10.79	71.32	15.86	
2025-01-06 16:38:10.99	71.28	15.87	
2025-01-06 16:38:11.20	71.23	15.88	
2025-01-06 16:38:11.40	71.18	15.89	
2025-01-06 16:38:11.61	71.14	15.90	
2025-01-06 16:38:11.81	71.09	15.91	
2025-01-06 16:38:12.02	71.04	15.92	
2025-01-06 16:38:12.22	70.99	15.93	
2025-01-06 16:38:12.43	70.95	15.94	
2025-01-06 16:38:12.63	70.90	15.95	
2025-01-06 16:38:12.84	70.85	15.96	
2025-01-06 16:38:13.04	70.81	15.97	
2025-01-06 16:38:13.25	70.76	15.98	
2025-01-06 16:38:13.45	70.71	15.99	
2025-01-06 16:38:13.66	70.66	16.00	
2025-01-06 16:38:13.87	70.61	16.02	
2025-01-06 16:38:14.07	70.57	16.03	
2025-01-06 16:38:14.28	70.52	16.04	
2025-01-06 16:38:14.48	70.47	16.05	
2025-01-06 16:38:14.69	70.42	16.06	
2025-01-06 16:38:14.89	70.38	16.07	
2025-01-06 16:38:15.10	70.33	16.08	
2025-01-06 16:38:15.30	70.28	16.09	
2025-01-06 16:38:15.50	70.24	16.10	
2025-01-06 16:38:15.71	70.19	16.11	
2025-01-06 16:38:15.91	70.14	16.12	
2025-01-06 16:38:16.12	70.09	16.13	
2025-01-06 16:38:16.32	70.05	16.14	
2025-01-06 16:38:16.53	70.00	16.15	
2025-01-06 16:38:16.73	69.95	16.16	
2025-01-06 16:38:16.95	69.90	16.17	
2025-01-06 16:38:17.16	69.85	16.18	
2025-01-06 16:38:17.36	69.80	16.19	
2025-01-06 16:38:17.57	69.75	16.20	
2025-01-06 16:38:17.77	69.71	16.21	
2025-01-06 16:38:17.99	69.65	16.22	
2025-01-06 16:38:18.19	69.61	16.23	
2025-01-06 16:38:18.40	69.56	16.24	
2025-01-06 16:38:18.60	69.51	16.25	
2025-01-06 16:38:18.81	69.46	16.26	
2025-01-06 16:38:19.01	69.41	16.27	
2025-01-06 16:38:19.22	69.37	16.28	
2025-01-06 16:38:19.42	69.32	16.29	
2025-01-06 16:38:19.63	69.27	16.30	
2025-01-06 16:38:19.83	69.22	16.31	
2025-01-06 16:38:20.04	69.17	16.32	
2025-01-06 16:38:20.24	69.12	16.33	
2025-01-06 16:38:20.45	69.07	16.34	
2025-01-06 16:38:20.65	69.03	16.35	
2025-01-06 16:38:20.86	68.98	16.36	
2025-01-06 16:38:21.06	68.93	16.37	
2025-01-06 16:38:21.27	68.88	16.38	
2025-01-06 16:38:21.47	68.83	16.39	
2025-01-06 16:38:21.68	68.78	16.40	
2025-01-06 16:38:21.88	68.74	16.41	
2025-01-06 16:38:22.09	68.69	16.42	
2025-01-06 16:38:22.31	68.63	16.43	
2025-01-06 16:38:22.51	68.59	16.44	
2025-01-06 16:38:22.71	68.54	16.45	
2025-01-06 16:38:22.92	68.49	16.46	
2025-01-06 16:38:23.13	68.44	16.47	
2025-01-06 16:38:23.34	68.39	16.48	
2025-01-06 16:38:23.55	68.34	16.49	
2025-01-06 16:38:23.75	68.29	16.50	
2025-01-06 16:38:23.95	68.24	16.51	
2025-01-06 16:38:24.16	68.19	16.52	
2025-01-06 16:38:24.36	68.14	16.53	
2025-01-06 16:38:24.57	68.09	16.54	
2025-01-06 16:38:24.77	68.04	16.55	
2025-01-06 16:38:24.98	67.99	16.56	
2025-01-06 16:38:25.19	67.94	16.57	
2025-01-06 16:38:25.39	67.90	16.58	
2025-01-06 16:38:25.59	67.85	16.59	
2025-01-06 16:38:25.80	67.80	16.60	
2025-01-06 16:38:26.01	67.75	16.61	
2025-01-06 16:38:26.21	67.70	16.62	
2025-01-06 16:38:26.42	67.65	16.63	
2025-01-06 16:38:26.62	67.60	16.64	
2025-01-06 16:38:26.82	67.55	16.64	
2025-01-06 16:38:27.03	67.50	16.65	
2025-01-06 16:38:27.24	67.45	16.66	
2025-01-06 16:38:27.44	67.40	16.67	
2025-01-06 16:38:27.64	67.35	16.68	
2025-01-06 16:38:27.85	67.30	16.69	
2025-01-06 16:38:28.05	67.25	16.70	
2025-01-06 16:38:28.26	67.20	16.71	
2025-01-06 16:38:28.46	67.15	16.72	
2025-01-06 16:38:28.67	67.10	16.73	
2025-01-06 16:38:28.87	67.05	16.74	
2025-01-06 16:38:29.08	67.00	16.75	
2025-01-06 16:38:29.28	66.95	16.76	
2025-01-06 16:38:29.49	66.90	16.77	
2025-01-06 16:38:29.70	66.85	16.78	
2025-01-06 16:38:29.91	66.80	16.79	
2025-01-06 16:38:30.12	66.75	16.80	
2025-01-06 16:38:30.32	66.70	16.80	
2025-01-06 16:38:30.53	66.65	16.81	
2025-01-06 16:38:30.73	66.60	16.82	
2025-01-06 16:38:30.93	66.55	16.83	
2025-01-06 16:38:31.15	66.50	16.84	
2025-01-06 16:38:31.35	66.45	16.85	
2025-01-06 16:38:31.56	66.40	16.86	
2025-01-06 16:38:31.76	66.35	16.87	
2025-01-06 16:38:31.96	66.30	16.88	
2025-01-06 16:38:32.17	66.25	16.89	
2025-01-06 16:38:32.37	66.20	16.90	
2025-01-06 16:38:32.58	66.14	16.90	
2025-01-06 16:38:32.78	66.09	16.91	
2025-01-06 16:38:32.99	66.04	16.92	
2025-01-06 16:38:33.19	65.99	16.93	
2025-01-06 16:38:33.40	65.94	16.94	
2025-01-06 16:38:33.61	65.89	16.95	
2025-01-06 16:38:33.81	65.84	16.96	
2025-01-06 16:38:34.01	65.79	16.97	
2025-01-06 16:38:34.22	65.74	16.98	
2025-01-06 16:38:34.42	65.69	16.98	
2025-01-06 16:38:34.63	65.64	16.99	
2025-01-06 16:38:34.84	65.59	17.00	
2025-01-06 16:38:35.05	65.53	17.01	
2025-01-06 16:38:35.26	65.48	17.02	
2025-01-06 16:38:35.47	65.43	17.03	
2025-01-06 16:38:35.67	65.38	17.04	
2025-01-06 16:38:35.88	65.33	17.05	
2025-01-06 16:38:36.08	65.28	17.05	
2025-01-06 16:38:36.28	65.23	17.06	
2025-01-06 16:38:36.49	65.18	17.07	
2025-01-06 16:38:36.69	65.13	17.08	
2025-01-06 16:38:36.90	65.07	17.09	
2025-01-06 16:38:37.10	65.02	17.10	
2025-01-06 16:38:37.31	64.97	17.11	
2025-01-06 16:38:37.51	64.92	17.11	
2025-01-06 16:38:37.72	64.87	17.12	
2025-01-06 16:38:37.93	64.82	17.13	
2025-01-06 16:38:38.13	64.77	17.14	
2025-01-06 16:38:38.33	64.72	17.15	
2025-01-06 16:38:38.54	64.66	17.16	
2025-01-06 16:38:38.74	64.61	17.17	
2025-01-06 16:38:38.95	64.56	17.17	
2025-01-06 16:38:39.16	64.51	17.18	
2025-01-06 16:38:39.36	64.46	17.19	
2025-01-06 16:38:39.57	64.40	17.20	
2025-01-06 16:38:39.77	64.35	17.21	
2025-01-06 16:38:39.98	64.30	17.22	
2025-01-06 16:38:40.19	64.25	17.22	
2025-01-06 16:38:40.39	64.20	17.23	
2025-01-06 16:38:40.60	64.14	17.24	
2025-01-06 16:38:40.80	64.09	17.25	
2025-01-06 16:38:41.01	64.04	17.26	
2025-01-06 16:38:41.21	63.99	17.27	
2025-01-06 16:38:41.42	63.94	17.27	
2025-01-06 16:38:41.62	63.89	17.28	
2025-01-06 16:38:41.83	63.83	17.29	
2025-01-06 16:38:42.03	63.78	17.30	
2025-01-06 16:38:42.24	63.73	17.31	
2025-01-06 16:38:42.44	63.68	17.31	
2025-01-06 16:38:42.65	63.63	17.32	
2025-01-06 16:38:42.85	63.58	17.33	
2025-01-06 16:38:43.06	63.52	17.34	
2025-01-06 16:38:43.26	63.47	17.35	
2025-01-06 16:38:43.47	63.42	17.35	
2025-01-06 16:38:43.68	63.36	17.36	
2025-01-06 16:38:43.88	63.31	17.37	
2025-01-06 16:38:44.09	63.26	17.38	
2025-01-06 16:38:44.29	63.21	17.39	
2025-01-06 16:38:44.50	63.16	17.39	
2025-01-06 16:38:44.70	63.10	17.40	
2025-01-06 16:38:44.91	63.05	17.41	
2025-01-06 16:38:45.11	63.00	17.42	
2025-01-06 16:38:45.32	62.95	17.43	
2025-01-06 16:38:45.52	62.89	17.43	
2025-01-06 16:38:45.73	62.84	17.44	
2025-01-06 16:38:45.93	62.79	17.45	
2025-01-06 16:38:46.14	62.74	17.46	
2025-01-06 16:38:46.35	62.68	17.46	
2025-01-06 16:38:46.55	62.63	17.47	
2025-01-06 16:38:46.75	62.58	17.48	
2025-01-06 16:38:46.96	62.53	17.49	
2025-01-06 16:38:47.17	62.47	17.50	
2025-01-06 16:38:47.37	62.42	17.50	
2025-01-06 16:38:47.58	62.37	17.51	
2025-01-06 16:38:47.78	62.32	17.52	
2025-01-06 16:38:47.98	62.26	17.53	
2025-01-06 16:38:48.19	62.21	17.53	
2025-01-06 16:38:48.40	62.16	17.54	
2025-01-06 16:38:48.60	62.10	17.55	
2025-01-06 16:38:48.81	62.05	17.56	
2025-01-06 16:38:49.01	62.00	17.56	
2025-01-06 16:38:49.22	61.94	17.57	
2025-01-06 16:38:49.42	61.89	17.58	
2025-01-06 16:38:49.63	61.84	17.58	
2025-01-06 16:38:49.83	61.79	17.59	
2025-01-06 16:38:50.04	61.73	17.60	
2025-01-06 16:38:50.24	61.68	17.61	
2025-01-06 16:38:50.45	61.63	17.61	
2025-01-06 16:38:50.66	61.57	17.62	
2025-01-06 16:38:50.86	61.52	17.63	
2025-01-06 16:38:51.06	61.47	17.64	
2025-01-06 16:38:51.27	61.41	17.64	
2025-01-06 16:38:51.48	61.36	17.65	
2025-01-06 16:38:51.68	61.31	17.66	
2025-01-06 16:38:51.89	61.25	17.66	
2025-01-06 16:38:52.09	61.20	17.67	
2025-01-06 16:38:52.30	61.15	17.68	
2025-01-06 16:38:52.50	61.09	17.69	
2025-01-06 16:38:52.71	61.04	17.69	
2025-01-06 16:38:52.91	60.99	17.70	
2025-01-06 16:38:53.12	60.93	17.71	
2025-01-06 16:38:53.32	60.88	17.71	
2025-01-06 16:38:53.53	60.83	17.72	
2025-01-06 16:38:53.73	60.77	17.73	
2025-01-06 16:38:53.94	60.72	17.73	
2025-01-06 16:38:54.14	60.67	17.74	
2025-01-06 16:38:54.35	60.61	17.75	
2025-01-06 16:38:54.55	60.56	17.75	
2025-01-06 16:38:54.76	60.50	17.76	
2025-01-06 16:38:54.96	60.45	17.77	
2025-01-06 16:38:55.17	60.40	17.77	
2025-01-06 16:38:55.37	60.34	17.78	
2025-01-06 16:38:55.58	60.29	17.79	
2025-01-06 16:38:55.78	60.24	17.79	
2025-01-06 16:38:55.99	60.18	17.80	
2025-01-06 16:38:56.19	60.13	17.81	
2025-01-06 16:38:56.41	60.07	17.82	
2025-01-06 16:38:56.62	60.02	17.82	
2025-01-06 16:38:56.82	59.96	17.83	
2025-01-06 16:38:57.03	59.91	17.84	
2025-01-06 16:38:57.23	59.86	17.84	
2025-01-06 16:38:57.44	59.80	17.85	
2025-01-06 16:38:57.64	59.75	17.85	
2025-01-06 16:38:57.85	59.69	17.86	
2025-01-06 16:38:58.05	59.64	17.87	
2025-01-06 16:38:58.26	59.59	17.87	
2025-01-06 16:38:58.46	59.53	17.88	
2025-01-06 16:38:58.67	59.48	17.89	
2025-01-06 16:38:58.87	59.42	17.89	
2025-01-06 16:38:59.08	59.37	17.90	
2025-01-06 16:38:59.29	59.31	17.91	
2025-01-06 16:38:59.49	59.26	17.91	
2025-01-06 16:38:59.70	59.20	17.92	
2025-01-06 16:38:59.90	59.15	17.92	
2025-01-06 16:39:00.10	59.10	17.93	
2025-01-06 16:39:00.31	59.04	17.94	
2025-01-06 16:39:00.52	58.99	17.94	
2025-01-06 16:39:00.72	58.93	17.95	
2025-01-06 16:39:00.93	58.88	17.95	
2025-01-06 16:39:01.13	58.83	17.96	
2025-01-06 16:39:01.34	58.77	17.97	
2025-01-06 16:39:01.54	58.72	17.97	
2025-01-06 16:39:01.75	58.66	17.98	
2025-01-06 16:39:01.95	58.61	17.98	
2025-01-06 16:39:02.16	58.55	17.99	
2025-01-06 16:39:02.36	58.50	18.00	
2025-01-06 16:39:02.57	58.44	18.00	
2025-01-06 16:39:02.77	58.39	18.01	
2025-01-06 16:39:02.98	58.33	18.01	
2025-01-06 16:39:03.18	58.28	18.02	
2025-01-06 16:39:03.39	58.23	18.03	
2025-01-06 16:39:03.59	58.17	18.03	
2025-01-06 16:39:03.79	58.12	18.04	
2025-01-06 16:39:04.00	58.06	18.04	
2025-01-06 16:39:04.20	58.01	18.05	
2025-01-06 16:39:04.41	57.95	18.05	
2025-01-06 16:39:04.61	57.90	18.06	
2025-01-06 16:39:04.82	57.84	18.07	
2025-01-06 16:39:05.03	57.79	18.07	
2025-01-06 16:39:05.23	57.73	18.08	
2025-01-06 16:39:05.44	57.68	18.08	
2025-01-06 16:39:05.64	57.62	18.09	
2025-01-06 16:39:05.85	57.57	18.09	
2025-01-06 16:39:06.05	57.51	18.10	
2025-01-06 16:39:06.25	57.46	18.10	
2025-01-06 16:39:06.46	57.40	18.11	
2025-01-06 16:39:06.67	57.35	18.12	
2025-01-06 16:39:06.87	57.29	18.12	
2025-01-06 16:39:07.08	57.24	18.13	
2025-01-06 16:39:07.28	57.18	18.13	
2025-01-06 16:39:07.49	57.13	18.14	
2025-01-06 16:39:07.69	57.07	18.14	
2025-01-06 16:39:07.90	57.02	18.15	
2025-01-06 16:39:08.10	56.96	18.15	
2025-01-06 16:39:08.31	56.91	18.16	
2025-01-06 16:39:08.51	56.85	18.16	
2025-01-06 16:39:08.72	56.80	18.17	
2025-01-06 16:39:08.92	56.74	18.17	
2025-01-06 16:39:09.13	56.69	18.18	
2025-01-06 16:39:09.33	56.63	18.18	
2025-01-06 16:39:09.54	56.58	18.19	
2025-01-06 16:39:09.74	56.52	18.19	
2025-01-06 16:39:09.95	56.47	18.20	
2025-01-06 16:39:10.15	56.41	18.20	
2025-01-06 16:39:10.36	56.36	18.21	
2025-01-06 16:39:10.56	56.30	18.21	
2025-01-06 16:39:10.77	56.24	18.22	
2025-01-06 16:39:10.97	56.19	18.22	
2025-01-06 16:39:11.18	56.13	18.23	
2025-01-06 16:39:11.38	56.08	18.23	
2025-01-06 16:39:11.59	56.02	18.24	
2025-01-06 16:39:11.79	55.97	18.24	
2025-01-06 16:39:12.00	55.91	18.25	
2025-01-06 16:39:12.20	55.86	18.25	
2025-01-06 16:39:12.42	55.80	18.26	
2025-01-06 16:39:12.63	55.74	18.26	
2025-01-06 16:39:12.83	55.69	18.27	
2025-01-06 16:39:13.04	55.63	18.27	
2025-01-06 16:39:13.24	55.58	18.28	
2025-01-06 16:39:13.45	55.52	18.28	
2025-01-06 16:39:13.65	55.47	18.29	
2025-01-06 16:39:13.86	55.41	18.29	
2025-01-06 16:39:14.06	55.35	18.29	
2025-01-06 16:39:14.27	55.30	18.30	
2025-01-06 16:39:14.47	55.24	18.30	
2025-01-06 16:39:14.68	55.19	18.31	
2025-01-06 16:39:14.88	55.13	18.31	
2025-01-06 16:39:15.09	55.07	18.32	
2025-01-06 16:39:15.29	55.02	18.32	
2025-01-06 16:39:15.50	54.96	18.33	
2025-01-06 16:39:15.70	54.91	18.33	
2025-01-06 16:39:15.91	54.85	18.33	
2025-01-06 16:39:16.11	54.80	18.34	
2025-01-06 16:39:16.32	54.74	18.34	
2025-01-06 16:39:16.52	54.68	18.35	
2025-01-06 16:39:16.73	54.63	18.35	
2025-01-06 16:39:16.93	54.57	18.35	
2025-01-06 16:39:17.14	54.52	18.36	
2025-01-06 16:39:17.34	54.46	18.36	
2025-01-06 16:39:17.55	54.40	18.37	
2025-01-06 16:39:17.75	54.35	18.37	
2025-01-06 16:39:17.96	54.29	18.38	
2025-01-06 16:39:18.17	54.23	18.38	
2025-01-06 16:39:18.37	54.18	18.38	
2025-01-06 16:39:18.58	54.12	18.39	
2025-01-06 16:39:18.78	54.07	18.39	
2025-01-06 16:39:18.99	54.01	18.39	
2025-01-06 16:39:19.19	53.96	18.40	
2025-01-06 16:39:19.40	53.90	18.40	
2025-01-06 16:39:19.61	53.84	18.41	
2025-01-06 16:39:19.81	53.79	18.41	
2025-01-06 16:39:20.02	53.73	18.41	
2025-01-06 16:39:20.22	53.67	18.42	
2025-01-06 16:39:20.43	53.62	18.42	
2025-01-06 16:39:20.63	53.56	18.43	
2025-01-06 16:39:20.83	53.51	18.43	
2025-01-06 16:39:21.04	53.45	18.43	
2025-01-06 16:39:21.24	53.39	18.44	
2025-01-06 16:39:21.45	53.34	18.44	
2025-01-06 16:39:21.65	53.28	18.44	
2025-01-06 16:39:21.85	53.23	18.45	
2025-01-06 16:39:22.06	53.17	18.45	
2025-01-06 16:39:22.27	53.11	18.45	
2025-01-06 16:39:22.47	53.06	18.46	
2025-01-06 16:39:22.67	53.00	18.46	
2025-01-06 16:39:22.88	52.94	18.46	
2025-01-06 16:39:23.10	52.88	18.47	
2025-01-06 16:39:23.30	52.83	18.47	
2025-01-06 16:39:23.51	52.77	18.47	
2025-01-06 16:39:23.71	52.72	18.48	
2025-01-06 16:39:23.92	52.66	18.48	
2025-01-06 16:39:24.14	52.60	18.48	
2025-01-06 16:39:24.34	52.54	18.49	
2025-01-06 16:39:24.55	52.49	18.49	
2025-01-06 16:39:24.76	52.43	18.49	
2025-01-06 16:39:24.96	52.37	18.50	
2025-01-06 16:39:25.16	52.32	18.50	
2025-01-06 16:39:25.37	52.26	18.50	
2025-01-06 16:39:25.57	52.20	18.51	
2025-01-06 16:39:25.78	52.15	18.51	
2025-01-06 16:39:25.98	52.09	18.51	
2025-01-06 16:39:26.19	52.03	18.51	
2025-01-06 16:39:26.39	51.98	18.52	
2025-01-06 16:39:26.60	51.92	18.52	
2025-01-06 16:39:26.81	51.86	18.52	
2025-01-06 16:39:27.01	51.81	18.53	
2025-01-06 16:39:27.21	51.75	18.53	
2025-01-06 16:39:27.42	51.69	18.53	
2025-01-06 16:39:27.62	51.64	18.53	
2025-01-06 16:39:27.83	51.58	18.54	
2025-01-06 16:39:28.03	51.53	18.54	
2025-01-06 16:39:28.24	51.47	18.54	
2025-01-06 16:39:28.44	51.41	18.54	
2025-01-06 16:39:28.65	51.35	18.55	
2025-01-06 16:39:28.85	51.30	18.55	
2025-01-06 16:39:29.06	51.24	18.55	
2025-01-06 16:39:29.26	51.19	18.56	
2025-01-06 16:39:29.48	51.13	18.56	
2025-01-06 16:39:29.68	51.07	18.56	
2025-01-06 16:39:29.89	51.01	18.56	
2025-01-06 16:39:30.09	50.96	18.57	
2025-01-06 16:39:30.30	50.90	18.57	
2025-01-06 16:39:30.50	50.84	18.57	
2025-01-06 16:39:30.71	50.78	18.57	
2025-01-06 16:39:30.91	50.73	18.57	
2025-01-06 16:39:31.12	50.67	18.58	
2025-01-06 16:39:31.33	50.61	18.58	
2025-01-06 16:39:31.53	50.56	18.58	
2025-01-06 16:39:31.73	50.50	18.58	
2025-01-06 16:39:31.94	50.44	18.59	
2025-01-06 16:39:32.14	50.39	18.59	
2025-01-06 16:39:32.35	50.33	18.59	
2025-01-06 16:39:32.55	50.28	18.59	
2025-01-06 16:39:32.76	50.22	18.59	
2025-01-06 16:39:32.96	50.16	18.60	
2025-01-06 16:39:33.17	50.10	18.60	
2025-01-06 16:39:33.37	50.05	18.60	
2025-01-06 16:39:33.58	49.99	18.60	
2025-01-06 16:39:33.80	49.93	18.60	
2025-01-06 16:39:34.00	49.87	18.61	
2025-01-06 16:39:34.20	49.82	18.61	
2025-01-06 16:39:34.41	49.76	18.61	
2025-01-06 16:39:34.62	49.70	18.61	
2025-01-06 16:39:34.83	49.64	18.61	
2025-01-06 16:39:35.04	49.58	18.62	
2025-01-06 16:39:35.25	49.53	18.62	
2025-01-06 16:39:35.45	49.47	18.62	
2025-01-06 16:39:35.66	49.41	18.62	
2025-01-06 16:39:35.86	49.36	18.62	
2025-01-06 16:39:36.07	49.30	18.62	
2025-01-06 16:39:36.27	49.24	18.62	
2025-01-06 16:39:36.47	49.19	18.63	
2025-01-06 16:39:36.68	49.13	18.63	
2025-01-06 16:39:36.88	49.07	18.63	
2025-01-06 16:39:37.09	49.02	18.63	
2025-01-06 16:39:37.29	48.96	18.63	
2025-01-06 16:39:37.49	48.90	18.63	
2025-01-06 16:39:37.70	48.85	18.64	
2025-01-06 16:39:37.92	48.78	18.64	
2025-01-06 16:39:38.12	48.73	18.64	
2025-01-06 16:39:38.33	48.67	18.64	
2025-01-06 16:39:38.53	48.62	18.64	
2025-01-06 16:39:38.74	48.56	18.64	
2025-01-06 16:39:38.94	48.50	18.64	
2025-01-06 16:39:39.14	48.45	18.64	
2025-01-06 16:39:39.35	48.39	18.65	
2025-01-06 16:39:39.55	48.33	18.65	
2025-01-06 16:39:39.76	48.27	18.65	
2025-01-06 16:39:39.96	48.22	18.65	
2025-01-06 16:39:40.17	48.16	18.65	
2025-01-06 16:39:40.37	48.10	18.65	
2025-01-06 16:39:40.58	48.04	18.65	
2025-01-06 16:39:40.78	47.99	18.65	
2025-01-06 16:39:40.99	47.93	18.65	
2025-01-06 16:39:41.19	47.88	18.65	
2025-01-06 16:39:41.39	47.82	18.66	
2025-01-06 16:39:41.60	47.76	18.66	
2025-01-06 16:39:41.80	47.71	18.66	
2025-01-06 16:39:42.01	47.65	18.66	
2025-01-06 16:39:42.21	47.59	18.66	
2025-01-06 16:39:42.42	47.53	18.66	
2025-01-06 16:39:42.62	47.48	18.66	
2025-01-06 16:39:42.83	47.42	18.66	
2025-01-06 16:39:43.03	47.36	18.66	
2025-01-06 16:39:43.23	47.31	18.66	
2025-01-06 16:39:43.44	47.25	18.66	
2025-01-06 16:39:43.65	47.19	18.66	
2025-01-06 16:39:43.85	47.13	18.66	
2025-01-06 16:39:44.06	47.08	18.66	
2025-01-06 16:39:44.26	47.02	18.66	
2025-01-06 16:39:44.47	46.96	18.67	
2025-01-06 16:39:44.67	46.91	18.67	
2025-01-06 16:39:44.88	46.85	18.67	
2025-01-06 16:39:45.09	46.79	18.67	
2025-01-06 16:39:45.29	46.73	18.67	
2025-01-06 16:39:45.50	46.68	18.67	
2025-01-06 16:39:45.70	46.62	18.67	
2025-01-06 16:39:45.91	46.56	18.67	
2025-01-06 16:39:46.11	46.51	18.67	
2025-01-06 16:39:46.32	46.45	18.67	
2025-01-06 16:39:46.52	46.39	18.67	
2025-01-06 16:39:46.73	46.33	18.67	
2025-01-06 16:39:46.93	46.28	18.67	
2025-01-06 16:39:47.14	46.22	18.67	
2025-01-06 16:39:47.34	46.16	18.67	
2025-01-06 16:39:47.55	46.10	18.67	
2025-01-06 16:39:47.75	46.05	18.67	
2025-01-06 16:39:47.96	45.99	18.67	
2025-01-06 16:39:48.16	45.93	18.67	
2025-01-06 16:39:48.37	45.88	18.67	
2025-01-06 16:39:48.57	45.82	18.67	
2025-01-06 16:39:48.78	45.76	18.67	
2025-01-06 16:39:48.98	45.71	18.67	
2025-01-06 16:39:49.19	45.65	18.67	
2025-01-06 16:39:49.39	45.59	18.67	
2025-01-06 16:39:49.60	45.53	18.67	
2025-01-06 16:39:49.80	45.48	18.67	
2025-01-06 16:39:50.01	45.42	18.67	
2025-01-06 16:39:50.22	45.36	18.67	
2025-01-06 16:39:50.42	45.30	18.67	
2025-01-06 16:39:50.63	45.25	18.67	
2025-01-06 16:39:50.83	45.19	18.67	
2025-01-06 16:39:51.04	45.13	18.67	
2025-01-06 16:39:51.24	45.08	18.66	
2025-01-06 16:39:51.45	45.02	18.66	
2025-01-06 16:39:51.65	44.96	18.66	
2025-01-06 16:39:51.87	44.90	18.66	
2025-01-06 16:39:52.08	44.84	18.66	
2025-01-06 16:39:52.28	44.79	18.66	
2025-01-06 16:39:52.49	44.73	18.66	
2025-01-06 16:39:52.69	44.67	18.66	
2025-01-06 16:39:52.91	44.61	18.66	
2025-01-06 16:39:53.12	44.55	18.66	
2025-01-06 16:39:53.32	44.50	18.66	
2025-01-06 16:39:53.53	44.44	18.66	
2025-01-06 16:39:53.73	44.38	18.66	
2025-01-06 16:39:53.94	44.32	18.66	
2025-01-06 16:39:54.14	44.27	18.65	
2025-01-06 16:39:54.35	44.21	18.65	
2025-01-06 16:39:54.55	44.16	18.65	
2025-01-06 16:39:54.76	44.10	18.65	
2025-01-06 16:39:54.96	44.04	18.65	
2025-01-06 16:39:55.17	43.98	18.65	
2025-01-06 16:39:55.37	43.93	18.65	
2025-01-06 16:39:55.57	43.87	18.65	
2025-01-06 16:39:55.78	43.81	18.65	
2025-01-06 16:39:55.98	43.76	18.65	
2025-01-06 16:39:56.20	43.70	18.64	
2025-01-06 16:39:56.41	43.64	18.64	
2025-01-06 16:39:56.61	43.58	18.64	
2025-01-06 16:39:56.82	43.52	18.64	
2025-01-06 16:39:57.02	43.47	18.64	
2025-01-06 16:39:57.23	43.41	18.64	
2025-01-06 16:39:57.43	43.35	18.64	
2025-01-06 16:39:57.64	43.30	18.64	
2025-01-06 16:39:57.84	43.24	18.63	
2025-01-06 16:39:58.05	43.18	18.63	
2025-01-06 16:39:58.25	43.13	18.63	
2025-01-06 16:39:58.45	43.07	18.63	
2025-01-06 16:39:58.66	43.01	18.63	
2025-01-06 16:39:58.87	42.95	18.63	
2025-01-06 16:39:59.07	42.90	18.63	
2025-01-06 16:39:59.28	42.84	18.62	
2025-01-06 16:39:59.48	42.78	18.62	
2025-01-06 16:39:59.68	42.73	18.62	
2025-01-06 16:39:59.89	42.67	18.62	
2025-01-06 16:40:00.09	42.62	18.62	
2025-01-06 16:40:00.30	42.56	18.62	
2025-01-06 16:40:00.50	42.50	18.61	
2025-01-06 16:40:00.71	42.44	18.61	
2025-01-06 16:40:00.92	42.39	18.61	
2025-01-06 16:40:01.12	42.33	18.61	
2025-01-06 16:40:01.33	42.27	18.61	
2025-01-06 16:40:01.53	42.22	18.61	
2025-01-06 16:40:01.73	42.16	18.60	
2025-01-06 16:40:01.94	42.10	18.60	
2025-01-06 16:40:02.15	42.04	18.60	
2025-01-06 16:40:02.35	41.99	18.60	
2025-01-06 16:40:02.55	41.93	18.60	
2025-01-06 16:40:02.76	41.88	18.59	
2025-01-06 16:40:02.97	41.82	18.59	
2025-01-06 16:40:03.17	41.76	18.59	
2025-01-06 16:40:03.38	41.70	18.59	
2025-01-06 16:40:03.58	41.65	18.58	
2025-01-06 16:40:03.79	41.59	18.58	
2025-01-06 16:40:04.00	41.53	18.58	
2025-01-06 16:40:04.20	41.48	18.58	
2025-01-06 16:40:04.41	41.42	18.58	
2025-01-06 16:40:04.61	41.36	18.57	
2025-01-06 16:40:04.82	41.31	18.57	
2025-01-06 16:40:05.02	41.25	18.57	
2025-01-06 16:40:05.23	41.19	18.57	
2025-01-06 16:40:05.43	41.14	18.56	
2025-01-06 16:40:05.64	41.08	18.56	
2025-01-06 16:40:05.84	41.02	18.56	
2025-01-06 16:40:06.04	40.97	18.56	
2025-01-06 16:40:06.25	40.91	18.55	
2025-01-06 16:40:06.46	40.85	18.55	
2025-01-06 16:40:06.66	40.80	18.55	
2025-01-06 16:40:06.88	40.74	18.55	
2025-01-06 16:40:07.08	40.68	18.54	
2025-01-06 16:40:07.29	40.62	18.54	
2025-01-06 16:40:07.50	40.57	18.54	
2025-01-06 16:40:07.70	40.51	18.54	
2025-01-06 16:40:07.91	40.45	18.53	
2025-01-06 16:40:08.12	40.39	18.53	
2025-01-06 16:40:08.33	40.34	18.53	
2025-01-06 16:40:08.54	40.28	18.52	
2025-01-06 16:40:08.74	40.22	18.52	
2025-01-06 16:40:08.95	40.17	18.52	
2025-01-06 16:40:09.15	40.11	18.52	
2025-01-06 16:40:09.36	40.05	18.51	
2025-01-06 16:40:09.56	40.00	18.51	
2025-01-06 16:40:09.77	39.94	18.51	
2025-01-06 16:40:09.99	39.88	18.50	
2025-01-06 16:40:10.19	39.82	18.50	
2025-01-06 16:40:10.40	39.77	18.50	
2025-01-06 16:40:10.60	39.71	18.49	
2025-01-06 16:40:10.81	39.65	18.49	
2025-01-06 16:40:11.01	39.60	18.49	
2025-01-06 16:40:11.22	39.54	18.49	
2025-01-06 16:40:11.42	39.49	18.48	
2025-01-06 16:40:11.63	39.43	18.48	
2025-01-06 16:40:11.83	39.37	18.48	
2025-01-06 16:40:12.04	39.32	18.47	
2025-01-06 16:40:12.24	39.26	18.47	
2025-01-06 16:40:12.45	39.20	18.47	
2025-01-06 16:40:12.65	39.15	18.46	
2025-01-06 16:40:12.86	39.09	18.46	
2025-01-06 16:40:13.06	39.04	18.46	
2025-01-06 16:40:13.27	38.98	18.45	
2025-01-06 16:40:13.47	38.92	18.45	
2025-01-06 16:40:13.68	38.87	18.44	
2025-01-06 16:40:13.88	38.81	18.44	
2025-01-06 16:40:14.09	38.75	18.44	
2025-01-06 16:40:14.29	38.70	18.43	
2025-01-06 16:40:14.50	38.64	18.43	
2025-01-06 16:40:14.71	38.58	18.43	
2025-01-06 16:40:14.91	38.53	18.42	
2025-01-06 16:40:15.11	38.47	18.42	
2025-01-06 16:40:15.31	38.42	18.42	
2025-01-06 16:40:15.52	38.36	18.41	
2025-01-06 16:40:15.73	38.30	18.41	
2025-01-06 16:40:15.93	38.25	18.40	
2025-01-06 16:40:16.14	38.19	18.40	
2025-01-06 16:40:16.34	38.14	18.40	
2025-01-06 16:40:16.55	38.08	18.39	
2025-01-06 16:40:16.75	38.03	18.39	
2025-01-06 16:40:16.96	37.97	18.39	
2025-01-06 16:40:17.17	37.91	18.38	
2025-01-06 16:40:17.37	37.86	18.38	
2025-01-06 16:40:17.57	37.80	18.37	
2025-01-06 16:40:17.78	37.74	18.37	
2025-01-06 16:40:17.99	37.69	18.37	
2025-01-06 16:40:18.19	37.63	18.36	
2025-01-06 16:40:18.40	37.58	18.36	
2025-01-06 16:40:18.60	37.52	18.35	
2025-01-06 16:40:18.80	37.47	18.35	
2025-01-06 16:40:19.01	37.41	18.34	
2025-01-06 16:40:19.22	37.35	18.34	
2025-01-06 16:40:19.42	37.30	18.34	
2025-01-06 16:40:19.64	37.24	18.33	
2025-01-06 16:40:19.84	37.18	18.33	
2025-01-06 16:40:20.05	37.13	18.32	
2025-01-06 16:40:20.25	37.07	18.32	
2025-01-06 16:40:20.46	37.02	18.31	
2025-01-06 16:40:20.66	36.96	18.31	
2025-01-06 16:40:20.87	36.90	18.31	
2025-01-06 16:40:21.08	36.85	18.30	
2025-01-06 16:40:21.28	36.79	18.30	
2025-01-06 16:40:21.49	36.74	18.29	
2025-01-06 16:40:21.69	36.68	18.29	
2025-01-06 16:40:21.90	36.62	18.28	
2025-01-06 16:40:22.10	36.57	18.28	
2025-01-06 16:40:22.31	36.51	18.27	
2025-01-06 16:40:22.51	36.46	18.27	
2025-01-06 16:40:22.72	36.40	18.26	
2025-01-06 16:40:22.92	36.35	18.26	
2025-01-06 16:40:23.13	36.29	18.26	
2025-01-06 16:40:23.33	36.24	18.25	
2025-01-06 16:40:23.54	36.18	18.25	
2025-01-06 16:40:23.75	36.12	18.24	
2025-01-06 16:40:23.96	36.07	18.24	
2025-01-06 16:40:24.17	36.01	18.23	
2025-01-06 16:40:24.37	35.96	18.23	
2025-01-06 16:40:24.57	35.90	18.22	
2025-01-06 16:40:24.78	35.85	18.22	
2025-01-06 16:40:24.98	35.79	18.21	
2025-01-06 16:40:25.19	35.74	18.21	
2025-01-06 16:40:25.40	35.68	18.20	
2025-01-06 16:40:25.60	35.63	18.20	
2025-01-06 16:40:25.81	35.57	18.19	
2025-01-06 16:40:26.01	35.52	18.19	
2025-01-06 16:40:26.22	35.46	18.18	
2025-01-06 16:40:26.42	35.40	18.18	
2025-01-06 16:40:26.63	35.35	18.17	
2025-01-06 16:40:26.83	35.29	18.17	
2025-01-06 16:40:27.04	35.24	18.16	
2025-01-06 16:40:27.24	35.18	18.16	
2025-01-06 16:40:27.45	35.13	18.15	
2025-01-06 16:40:27.66	35.07	18.15	
2025-01-06 16:40:27.86	35.02	18.14	
2025-01-06 16:40:28.06	34.96	18.13	
2025-01-06 16:40:28.27	34.91	18.13	
2025-01-06 16:40:28.48	34.85	18.12	
2025-01-06 16:40:28.68	34.80	18.12	
2025-01-06 16:40:28.89	34.74	18.11	
2025-01-06 16:40:29.09	34.69	18.11	
2025-01-06 16:40:29.30	34.63	18.10	
2025-01-06 16:40:29.50	34.58	18.10	
2025-01-06 16:40:29.71	34.52	18.09	
2025-01-06 16:40:29.91	34.47	18.09	
2025-01-06 16:40:30.12	34.41	18.08	
2025-01-06 16:40:30.32	34.36	18.07	
2025-01-06 16:40:30.53	34.30	18.07	
2025-01-06 16:40:30.73	34.25	18.06	
2025-01-06 16:40:30.94	34.19	18.06	
2025-01-06 16:40:31.14	34.14	18.05	
2025-01-06 16:40:31.35	34.09	18.05	
2025-01-06 16:40:31.55	34.03	18.04	
2025-01-06 16:40:31.76	33.98	18.04	
2025-01-06 16:40:31.96	33.92	18.03	
2025-01-06 16:40:32.16	33.87	18.02	
2025-01-06 16:40:32.37	33.81	18.02	
2025-01-06 16:40:32.57	33.76	18.01	
2025-01-06 16:40:32.78	33.70	18.01	
2025-01-06 16:40:32.99	33.65	18.00	
2025-01-06 16:40:33.19	33.60	17.99	
2025-01-06 16:40:33.39	33.54	17.99	
2025-01-06 16:40:33.60	33.49	17.98	
2025-01-06 16:40:33.81	33.43	17.98	
2025-01-06 16:40:34.01	33.38	17.97	
2025-01-06 16:40:34.22	33.32	17.96	
2025-01-06 16:40:34.42	33.27	17.96	
2025-01-06 16:40:34.63	33.21	17.95	
2025-01-06 16:40:34.83	33.16	17.95	
2025-01-06 16:40:35.04	33.11	17.94	
2025-01-06 16:40:35.24	33.05	17.93	
2025-01-06 16:40:35.45	33.00	17.93	
2025-01-06 16:40:35.65	32.94	17.92	
2025-01-06 16:40:35.86	32.89	17.92	
2025-01-06 16:40:36.06	32.84	17.91	
2025-01-06 16:40:36.27	32.78	17.90	
2025-01-06 16:40:36.47	32.73	17.90	
2025-01-06 16:40:36.68	32.67	17.89	
2025-01-06 16:40:36.88	32.62	17.88	
2025-01-06 16:40:37.08	32.57	17.88	
2025-01-06 16:40:37.29	32.51	17.87	
2025-01-06 16:40:37.49	32.46	17.86	
2025-01-06 16:40:37.70	32.40	17.86	
2025-01-06 16:40:37.90	32.35	17.85	
2025-01-06 16:40:38.11	32.30	17.85	
2025-01-06 16:40:38.32	32.24	17.84	
2025-01-06 16:40:38.52	32.19	17.83	
2025-01-06 16:40:38.72	32.14	17.83	
2025-01-06 16:40:38.93	32.08	17.82	
2025-01-06 16:40:39.14	32.03	17.81	
2025-01-06 16:40:39.35	31.97	17.81	
2025-01-06 16:40:39.55	31.92	17.80	
2025-01-06 16:40:39.76	31.86	17.79	
2025-01-06 16:40:39.96	31.81	17.79	
2025-01-06 16:40:40.16	31.76	17.78	
2025-01-06 16:40:40.37	31.70	17.77	
2025-01-06 16:40:40.57	31.65	17.77	
2025-01-06 16:40:40.78	31.60	17.76	
2025-01-06 16:40:41.00	31.54	17.75	
