passes_logs/2025/01/06/SPB_Silybum_02/SPB_Silybum_02__20250106_181044_TERRA_rec.log

#Pass ID: 20250106_181044_TERRA
#Satellite: TERRA
#Configuration: TERRA
#Start time: 2025-01-06 18:10:44

#Version: 2.0.20230423
#Station: SPB_Silybum_02
#Location: 30.233357 lon 59.946436 lat
#TLE: 1 25994U 99068A   25005.80302029  .00001467  00000+0  31252-3 0  9990
#TLE: 2 25994  98.0232  69.1253 0003583  90.8779 334.4790 14.60375524332735

#Time	Az	El	Level	Level2	SNR	BER	Gain	Gain2
2025-01-06 18:10:46.06	150.44	4.08	
2025-01-06 18:10:46.27	150.43	4.09	
2025-01-06 18:10:46.48	150.43	4.11	
2025-01-06 18:10:46.68	150.43	4.12	
2025-01-06 18:10:46.89	150.43	4.14	
2025-01-06 18:10:47.09	150.42	4.15	
2025-01-06 18:10:47.30	150.42	4.17	
2025-01-06 18:10:47.50	150.42	4.18	
2025-01-06 18:10:47.71	150.41	4.20	
2025-01-06 18:10:47.91	150.41	4.21	
2025-01-06 18:10:48.13	150.41	4.23	
2025-01-06 18:10:48.34	150.40	4.24	
2025-01-06 18:10:48.54	150.40	4.26	
2025-01-06 18:10:48.74	150.40	4.27	
2025-01-06 18:10:48.95	150.39	4.29	
2025-01-06 18:10:49.15	150.39	4.30	
2025-01-06 18:10:49.36	150.39	4.32	
2025-01-06 18:10:49.56	150.38	4.33	
2025-01-06 18:10:49.77	150.38	4.35	
2025-01-06 18:10:49.97	150.38	4.36	
2025-01-06 18:10:50.18	150.37	4.38	
2025-01-06 18:10:50.38	150.37	4.39	
2025-01-06 18:10:50.59	150.37	4.41	
2025-01-06 18:10:50.79	150.36	4.42	
2025-01-06 18:10:51.00	150.36	4.44	
2025-01-06 18:10:51.20	150.36	4.45	
2025-01-06 18:10:51.41	150.35	4.47	
2025-01-06 18:10:51.61	150.35	4.48	
2025-01-06 18:10:51.82	150.35	4.50	
2025-01-06 18:10:52.02	150.34	4.51	
2025-01-06 18:10:52.23	150.34	4.53	
2025-01-06 18:10:52.43	150.34	4.54	
2025-01-06 18:10:52.64	150.33	4.56	
2025-01-06 18:10:52.84	150.33	4.57	
2025-01-06 18:10:53.05	150.33	4.59	
2025-01-06 18:10:53.25	150.32	4.60	
2025-01-06 18:10:53.47	150.32	4.62	
2025-01-06 18:10:53.67	150.32	4.63	
2025-01-06 18:10:53.88	150.31	4.65	
2025-01-06 18:10:54.08	150.31	4.66	
2025-01-06 18:10:54.29	150.31	4.68	
2025-01-06 18:10:54.49	150.30	4.69	
2025-01-06 18:10:54.70	150.30	4.71	
2025-01-06 18:10:54.91	150.30	4.72	
2025-01-06 18:10:55.11	150.29	4.74	
2025-01-06 18:10:55.32	150.29	4.75	
2025-01-06 18:10:55.52	150.29	4.77	
2025-01-06 18:10:55.72	150.28	4.78	
2025-01-06 18:10:55.93	150.28	4.80	
2025-01-06 18:10:56.14	150.28	4.82	
2025-01-06 18:10:56.34	150.27	4.83	
2025-01-06 18:10:56.55	150.27	4.85	
2025-01-06 18:10:56.75	150.27	4.86	
2025-01-06 18:10:56.96	150.26	4.88	
2025-01-06 18:10:57.16	150.26	4.89	
2025-01-06 18:10:57.37	150.26	4.91	
2025-01-06 18:10:57.57	150.25	4.92	
2025-01-06 18:10:57.78	150.25	4.94	
2025-01-06 18:10:57.98	150.25	4.95	
2025-01-06 18:10:58.19	150.24	4.97	
2025-01-06 18:10:58.39	150.24	4.98	
2025-01-06 18:10:58.60	150.24	5.00	
2025-01-06 18:10:58.80	150.23	5.01	
2025-01-06 18:10:59.01	150.23	5.03	
2025-01-06 18:10:59.21	150.22	5.04	
2025-01-06 18:10:59.42	150.22	5.06	
2025-01-06 18:10:59.62	150.22	5.07	
2025-01-06 18:10:59.83	150.21	5.09	
2025-01-06 18:11:00.03	150.21	5.11	
2025-01-06 18:11:00.23	150.21	5.12	
2025-01-06 18:11:00.44	150.20	5.14	
2025-01-06 18:11:00.64	150.20	5.15	
2025-01-06 18:11:00.84	150.20	5.17	
2025-01-06 18:11:01.05	150.19	5.18	
2025-01-06 18:11:01.25	150.19	5.20	
2025-01-06 18:11:01.46	150.19	5.21	
2025-01-06 18:11:01.66	150.18	5.23	
2025-01-06 18:11:01.87	150.18	5.24	
2025-01-06 18:11:02.08	150.18	5.26	
2025-01-06 18:11:02.28	150.17	5.28	
2025-01-06 18:11:02.49	150.17	5.29	
2025-01-06 18:11:02.69	150.17	5.31	
2025-01-06 18:11:02.90	150.16	5.32	
2025-01-06 18:11:03.10	150.16	5.34	
2025-01-06 18:11:03.31	150.15	5.35	
2025-01-06 18:11:03.51	150.15	5.37	
2025-01-06 18:11:03.72	150.15	5.38	
2025-01-06 18:11:03.92	150.14	5.40	
2025-01-06 18:11:04.13	150.14	5.42	
2025-01-06 18:11:04.33	150.14	5.43	
2025-01-06 18:11:04.54	150.13	5.45	
2025-01-06 18:11:04.74	150.13	5.46	
2025-01-06 18:11:04.95	150.13	5.48	
2025-01-06 18:11:05.17	150.12	5.49	
2025-01-06 18:11:05.37	150.12	5.51	
2025-01-06 18:11:05.58	150.11	5.53	
2025-01-06 18:11:05.78	150.11	5.54	
2025-01-06 18:11:05.99	150.11	5.56	
2025-01-06 18:11:06.19	150.10	5.57	
2025-01-06 18:11:06.40	150.10	5.59	
2025-01-06 18:11:06.60	150.10	5.60	
2025-01-06 18:11:06.81	150.09	5.62	
2025-01-06 18:11:07.01	150.09	5.64	
2025-01-06 18:11:07.22	150.09	5.65	
2025-01-06 18:11:07.42	150.08	5.67	
2025-01-06 18:11:07.63	150.08	5.68	
2025-01-06 18:11:07.83	150.07	5.70	
2025-01-06 18:11:08.04	150.07	5.71	
2025-01-06 18:11:08.24	150.07	5.73	
2025-01-06 18:11:08.44	150.06	5.75	
2025-01-06 18:11:08.65	150.06	5.76	
2025-01-06 18:11:08.86	150.06	5.78	
2025-01-06 18:11:09.06	150.05	5.79	
2025-01-06 18:11:09.27	150.05	5.81	
2025-01-06 18:11:09.47	150.05	5.83	
2025-01-06 18:11:09.67	150.04	5.84	
2025-01-06 18:11:09.88	150.04	5.86	
2025-01-06 18:11:10.09	150.03	5.87	
2025-01-06 18:11:10.29	150.03	5.89	
2025-01-06 18:11:10.50	150.03	5.91	
2025-01-06 18:11:10.70	150.02	5.92	
2025-01-06 18:11:10.91	150.02	5.94	
2025-01-06 18:11:11.11	150.02	5.95	
2025-01-06 18:11:11.32	150.01	5.97	
2025-01-06 18:11:11.52	150.01	5.98	
2025-01-06 18:11:11.73	150.00	6.00	
2025-01-06 18:11:11.93	150.00	6.02	
2025-01-06 18:11:12.14	150.00	6.03	
2025-01-06 18:11:12.34	149.99	6.05	
2025-01-06 18:11:12.55	149.99	6.06	
2025-01-06 18:11:12.75	149.98	6.08	
2025-01-06 18:11:12.96	149.98	6.10	
2025-01-06 18:11:13.16	149.98	6.11	
2025-01-06 18:11:13.37	149.97	6.13	
2025-01-06 18:11:13.58	149.97	6.15	
2025-01-06 18:11:13.79	149.97	6.16	
2025-01-06 18:11:14.00	149.96	6.18	
2025-01-06 18:11:14.21	149.96	6.19	
2025-01-06 18:11:14.41	149.95	6.21	
2025-01-06 18:11:14.62	149.95	6.23	
2025-01-06 18:11:14.84	149.95	6.24	
2025-01-06 18:11:15.04	149.94	6.26	
2025-01-06 18:11:15.25	149.94	6.28	
2025-01-06 18:11:15.45	149.93	6.29	
2025-01-06 18:11:15.66	149.93	6.31	
2025-01-06 18:11:15.88	149.93	6.33	
2025-01-06 18:11:16.08	149.92	6.34	
2025-01-06 18:11:16.29	149.92	6.36	
2025-01-06 18:11:16.49	149.91	6.37	
2025-01-06 18:11:16.70	149.91	6.39	
2025-01-06 18:11:16.92	149.91	6.41	
2025-01-06 18:11:17.12	149.90	6.42	
2025-01-06 18:11:17.33	149.90	6.44	
2025-01-06 18:11:17.54	149.89	6.46	
2025-01-06 18:11:17.74	149.89	6.47	
2025-01-06 18:11:17.94	149.89	6.49	
2025-01-06 18:11:18.15	149.88	6.51	
2025-01-06 18:11:18.36	149.88	6.52	
2025-01-06 18:11:18.56	149.88	6.54	
2025-01-06 18:11:18.77	149.87	6.56	
2025-01-06 18:11:18.97	149.87	6.57	
2025-01-06 18:11:19.18	149.86	6.59	
2025-01-06 18:11:19.38	149.86	6.60	
2025-01-06 18:11:19.59	149.86	6.62	
2025-01-06 18:11:19.79	149.85	6.64	
2025-01-06 18:11:20.00	149.85	6.65	
2025-01-06 18:11:20.20	149.84	6.67	
2025-01-06 18:11:20.41	149.84	6.69	
2025-01-06 18:11:20.61	149.84	6.70	
2025-01-06 18:11:20.82	149.83	6.72	
2025-01-06 18:11:21.02	149.83	6.74	
2025-01-06 18:11:21.23	149.82	6.75	
2025-01-06 18:11:21.43	149.82	6.77	
2025-01-06 18:11:21.64	149.82	6.79	
2025-01-06 18:11:21.84	149.81	6.80	
2025-01-06 18:11:22.05	149.81	6.82	
2025-01-06 18:11:22.26	149.80	6.84	
2025-01-06 18:11:22.47	149.80	6.85	
2025-01-06 18:11:22.68	149.79	6.87	
2025-01-06 18:11:22.88	149.79	6.89	
2025-01-06 18:11:23.09	149.79	6.90	
2025-01-06 18:11:23.29	149.78	6.92	
2025-01-06 18:11:23.50	149.78	6.94	
2025-01-06 18:11:23.70	149.77	6.95	
2025-01-06 18:11:23.91	149.77	6.97	
2025-01-06 18:11:24.11	149.77	6.99	
2025-01-06 18:11:24.32	149.76	7.00	
2025-01-06 18:11:24.52	149.76	7.02	
2025-01-06 18:11:24.73	149.75	7.04	
2025-01-06 18:11:24.94	149.75	7.05	
2025-01-06 18:11:25.14	149.75	7.07	
2025-01-06 18:11:25.34	149.74	7.09	
2025-01-06 18:11:25.55	149.74	7.10	
2025-01-06 18:11:25.75	149.73	7.12	
2025-01-06 18:11:25.96	149.73	7.14	
2025-01-06 18:11:26.16	149.72	7.15	
2025-01-06 18:11:26.37	149.72	7.17	
2025-01-06 18:11:26.57	149.72	7.19	
2025-01-06 18:11:26.78	149.71	7.20	
2025-01-06 18:11:26.98	149.71	7.22	
2025-01-06 18:11:27.19	149.70	7.24	
2025-01-06 18:11:27.39	149.70	7.25	
2025-01-06 18:11:27.60	149.70	7.27	
2025-01-06 18:11:27.80	149.69	7.29	
2025-01-06 18:11:28.01	149.69	7.31	
2025-01-06 18:11:28.21	149.68	7.32	
2025-01-06 18:11:28.42	149.68	7.34	
2025-01-06 18:11:28.64	149.67	7.36	
2025-01-06 18:11:28.84	149.67	7.37	
2025-01-06 18:11:29.05	149.67	7.39	
2025-01-06 18:11:29.25	149.66	7.41	
2025-01-06 18:11:29.46	149.66	7.43	
2025-01-06 18:11:29.66	149.65	7.44	
2025-01-06 18:11:29.87	149.65	7.46	
2025-01-06 18:11:30.07	149.64	7.48	
2025-01-06 18:11:30.28	149.64	7.49	
2025-01-06 18:11:30.48	149.64	7.51	
2025-01-06 18:11:30.69	149.63	7.53	
2025-01-06 18:11:30.89	149.63	7.54	
2025-01-06 18:11:31.09	149.62	7.56	
2025-01-06 18:11:31.30	149.62	7.58	
2025-01-06 18:11:31.51	149.61	7.60	
2025-01-06 18:11:31.71	149.61	7.61	
2025-01-06 18:11:31.93	149.61	7.63	
2025-01-06 18:11:32.14	149.60	7.65	
2025-01-06 18:11:32.34	149.60	7.67	
2025-01-06 18:11:32.55	149.59	7.68	
2025-01-06 18:11:32.75	149.59	7.70	
2025-01-06 18:11:32.96	149.58	7.72	
2025-01-06 18:11:33.16	149.58	7.73	
2025-01-06 18:11:33.37	149.57	7.75	
2025-01-06 18:11:33.57	149.57	7.77	
2025-01-06 18:11:33.78	149.57	7.79	
2025-01-06 18:11:33.98	149.56	7.80	
2025-01-06 18:11:34.19	149.56	7.82	
2025-01-06 18:11:34.39	149.55	7.84	
2025-01-06 18:11:34.60	149.55	7.86	
2025-01-06 18:11:34.80	149.54	7.87	
2025-01-06 18:11:35.00	149.54	7.89	
2025-01-06 18:11:35.21	149.54	7.91	
2025-01-06 18:11:35.41	149.53	7.92	
2025-01-06 18:11:35.62	149.53	7.94	
2025-01-06 18:11:35.82	149.52	7.96	
2025-01-06 18:11:36.03	149.52	7.98	
2025-01-06 18:11:36.23	149.51	7.99	
2025-01-06 18:11:36.44	149.51	8.01	
2025-01-06 18:11:36.64	149.50	8.03	
2025-01-06 18:11:36.85	149.50	8.05	
2025-01-06 18:11:37.05	149.50	8.06	
2025-01-06 18:11:37.26	149.49	8.08	
2025-01-06 18:11:37.46	149.49	8.10	
2025-01-06 18:11:37.67	149.48	8.12	
2025-01-06 18:11:37.88	149.48	8.13	
2025-01-06 18:11:38.08	149.47	8.15	
2025-01-06 18:11:38.30	149.47	8.17	
2025-01-06 18:11:38.50	149.46	8.19	
2025-01-06 18:11:38.71	149.46	8.20	
2025-01-06 18:11:38.92	149.45	8.22	
2025-01-06 18:11:39.12	149.45	8.24	
2025-01-06 18:11:39.32	149.45	8.26	
2025-01-06 18:11:39.53	149.44	8.28	
2025-01-06 18:11:39.73	149.44	8.29	
2025-01-06 18:11:39.94	149.43	8.31	
2025-01-06 18:11:40.14	149.43	8.33	
2025-01-06 18:11:40.36	149.42	8.35	
2025-01-06 18:11:40.56	149.42	8.36	
2025-01-06 18:11:40.77	149.41	8.38	
2025-01-06 18:11:40.97	149.41	8.40	
2025-01-06 18:11:41.18	149.40	8.42	
2025-01-06 18:11:41.40	149.40	8.44	
2025-01-06 18:11:41.60	149.39	8.45	
2025-01-06 18:11:41.81	149.39	8.47	
2025-01-06 18:11:42.01	149.38	8.49	
2025-01-06 18:11:42.22	149.38	8.51	
2025-01-06 18:11:42.42	149.38	8.53	
2025-01-06 18:11:42.63	149.37	8.54	
2025-01-06 18:11:42.84	149.37	8.56	
2025-01-06 18:11:43.04	149.36	8.58	
2025-01-06 18:11:43.25	149.36	8.60	
2025-01-06 18:11:43.45	149.35	8.61	
2025-01-06 18:11:43.65	149.35	8.63	
2025-01-06 18:11:43.86	149.34	8.65	
2025-01-06 18:11:44.07	149.34	8.67	
2025-01-06 18:11:44.27	149.33	8.69	
2025-01-06 18:11:44.48	149.33	8.70	
2025-01-06 18:11:44.68	149.32	8.72	
2025-01-06 18:11:44.89	149.32	8.74	
2025-01-06 18:11:45.09	149.31	8.76	
2025-01-06 18:11:45.30	149.31	8.78	
2025-01-06 18:11:45.50	149.30	8.79	
2025-01-06 18:11:45.71	149.30	8.81	
2025-01-06 18:11:45.91	149.29	8.83	
2025-01-06 18:11:46.12	149.29	8.85	
2025-01-06 18:11:46.32	149.29	8.87	
2025-01-06 18:11:46.53	149.28	8.89	
2025-01-06 18:11:46.73	149.28	8.90	
2025-01-06 18:11:46.94	149.27	8.92	
2025-01-06 18:11:47.14	149.27	8.94	
2025-01-06 18:11:47.35	149.26	8.96	
2025-01-06 18:11:47.55	149.26	8.98	
2025-01-06 18:11:47.77	149.25	9.00	
2025-01-06 18:11:47.97	149.25	9.01	
2025-01-06 18:11:48.18	149.24	9.03	
2025-01-06 18:11:48.38	149.24	9.05	
2025-01-06 18:11:48.59	149.23	9.07	
2025-01-06 18:11:48.79	149.23	9.09	
2025-01-06 18:11:49.00	149.22	9.10	
2025-01-06 18:11:49.20	149.22	9.12	
2025-01-06 18:11:49.41	149.21	9.14	
2025-01-06 18:11:49.61	149.21	9.16	
2025-01-06 18:11:49.82	149.20	9.18	
2025-01-06 18:11:50.02	149.20	9.20	
2025-01-06 18:11:50.23	149.19	9.21	
2025-01-06 18:11:50.43	149.19	9.23	
2025-01-06 18:11:50.64	149.18	9.25	
2025-01-06 18:11:50.84	149.18	9.27	
2025-01-06 18:11:51.05	149.17	9.29	
2025-01-06 18:11:51.25	149.17	9.31	
2025-01-06 18:11:51.46	149.16	9.32	
2025-01-06 18:11:51.66	149.16	9.34	
2025-01-06 18:11:51.87	149.15	9.36	
2025-01-06 18:11:52.07	149.15	9.38	
2025-01-06 18:11:52.28	149.14	9.40	
2025-01-06 18:11:52.48	149.14	9.42	
2025-01-06 18:11:52.69	149.13	9.44	
2025-01-06 18:11:52.89	149.13	9.45	
2025-01-06 18:11:53.10	149.12	9.47	
2025-01-06 18:11:53.30	149.12	9.49	
2025-01-06 18:11:53.51	149.11	9.51	
2025-01-06 18:11:53.71	149.11	9.53	
2025-01-06 18:11:53.92	149.10	9.55	
2025-01-06 18:11:54.13	149.10	9.57	
2025-01-06 18:11:54.33	149.09	9.58	
2025-01-06 18:11:54.53	149.09	9.60	
2025-01-06 18:11:54.74	149.08	9.62	
2025-01-06 18:11:54.95	149.08	9.64	
2025-01-06 18:11:55.15	149.07	9.66	
2025-01-06 18:11:55.35	149.07	9.68	
2025-01-06 18:11:55.56	149.06	9.70	
2025-01-06 18:11:55.77	149.06	9.72	
2025-01-06 18:11:55.97	149.05	9.73	
2025-01-06 18:11:56.18	149.05	9.75	
2025-01-06 18:11:56.38	149.04	9.77	
2025-01-06 18:11:56.59	149.04	9.79	
2025-01-06 18:11:56.79	149.03	9.81	
2025-01-06 18:11:57.00	149.02	9.83	
2025-01-06 18:11:57.20	149.02	9.85	
2025-01-06 18:11:57.40	149.01	9.87	
2025-01-06 18:11:57.61	149.01	9.89	
2025-01-06 18:11:57.81	149.00	9.90	
2025-01-06 18:11:58.02	149.00	9.92	
2025-01-06 18:11:58.23	148.99	9.94	
2025-01-06 18:11:58.43	148.99	9.96	
2025-01-06 18:11:58.64	148.98	9.98	
2025-01-06 18:11:58.84	148.98	10.00	
2025-01-06 18:11:59.04	148.97	10.02	
2025-01-06 18:11:59.25	148.97	10.04	
2025-01-06 18:11:59.45	148.96	10.06	
2025-01-06 18:11:59.66	148.96	10.08	
2025-01-06 18:11:59.86	148.95	10.09	
2025-01-06 18:12:00.08	148.95	10.11	
2025-01-06 18:12:00.29	148.94	10.13	
2025-01-06 18:12:00.49	148.94	10.15	
2025-01-06 18:12:00.69	148.93	10.17	
2025-01-06 18:12:00.90	148.92	10.19	
2025-01-06 18:12:01.11	148.92	10.21	
2025-01-06 18:12:01.31	148.91	10.23	
2025-01-06 18:12:01.52	148.91	10.25	
2025-01-06 18:12:01.73	148.90	10.27	
2025-01-06 18:12:01.93	148.90	10.29	
2025-01-06 18:12:02.14	148.89	10.31	
2025-01-06 18:12:02.34	148.89	10.33	
2025-01-06 18:12:02.55	148.88	10.35	
2025-01-06 18:12:02.75	148.88	10.36	
2025-01-06 18:12:02.96	148.87	10.38	
2025-01-06 18:12:03.16	148.86	10.40	
2025-01-06 18:12:03.37	148.86	10.42	
2025-01-06 18:12:03.57	148.85	10.44	
2025-01-06 18:12:03.78	148.85	10.46	
2025-01-06 18:12:03.98	148.84	10.48	
2025-01-06 18:12:04.19	148.84	10.50	
2025-01-06 18:12:04.39	148.83	10.52	
2025-01-06 18:12:04.60	148.83	10.54	
2025-01-06 18:12:04.80	148.82	10.56	
2025-01-06 18:12:05.00	148.82	10.58	
2025-01-06 18:12:05.21	148.81	10.60	
2025-01-06 18:12:05.41	148.80	10.62	
2025-01-06 18:12:05.62	148.80	10.64	
2025-01-06 18:12:05.82	148.79	10.66	
2025-01-06 18:12:06.03	148.79	10.68	
2025-01-06 18:12:06.23	148.78	10.70	
2025-01-06 18:12:06.44	148.78	10.72	
2025-01-06 18:12:06.64	148.77	10.73	
2025-01-06 18:12:06.85	148.77	10.75	
2025-01-06 18:12:07.05	148.76	10.77	
2025-01-06 18:12:07.26	148.75	10.79	
2025-01-06 18:12:07.46	148.75	10.81	
2025-01-06 18:12:07.67	148.74	10.83	
2025-01-06 18:12:07.88	148.74	10.85	
2025-01-06 18:12:08.09	148.73	10.87	
2025-01-06 18:12:08.30	148.73	10.89	
2025-01-06 18:12:08.51	148.72	10.91	
2025-01-06 18:12:08.71	148.71	10.93	
2025-01-06 18:12:08.92	148.71	10.95	
2025-01-06 18:12:09.12	148.70	10.97	
2025-01-06 18:12:09.33	148.70	10.99	
2025-01-06 18:12:09.53	148.69	11.01	
2025-01-06 18:12:09.74	148.69	11.03	
2025-01-06 18:12:09.94	148.68	11.05	
2025-01-06 18:12:10.15	148.67	11.07	
2025-01-06 18:12:10.35	148.67	11.09	
2025-01-06 18:12:10.56	148.66	11.11	
2025-01-06 18:12:10.76	148.66	11.13	
2025-01-06 18:12:10.97	148.65	11.15	
2025-01-06 18:12:11.17	148.65	11.17	
2025-01-06 18:12:11.38	148.64	11.19	
2025-01-06 18:12:11.58	148.63	11.21	
2025-01-06 18:12:11.79	148.63	11.23	
2025-01-06 18:12:11.99	148.62	11.25	
2025-01-06 18:12:12.20	148.62	11.27	
2025-01-06 18:12:12.40	148.61	11.29	
2025-01-06 18:12:12.61	148.60	11.31	
2025-01-06 18:12:12.81	148.60	11.33	
2025-01-06 18:12:13.02	148.59	11.35	
2025-01-06 18:12:13.23	148.59	11.37	
2025-01-06 18:12:13.43	148.58	11.39	
2025-01-06 18:12:13.63	148.57	11.41	
2025-01-06 18:12:13.84	148.57	11.43	
2025-01-06 18:12:14.05	148.56	11.46	
2025-01-06 18:12:14.25	148.56	11.48	
2025-01-06 18:12:14.46	148.55	11.50	
2025-01-06 18:12:14.66	148.54	11.52	
2025-01-06 18:12:14.87	148.54	11.54	
2025-01-06 18:12:15.07	148.53	11.56	
2025-01-06 18:12:15.28	148.53	11.58	
2025-01-06 18:12:15.49	148.52	11.60	
2025-01-06 18:12:15.69	148.51	11.62	
2025-01-06 18:12:15.90	148.51	11.64	
2025-01-06 18:12:16.10	148.50	11.66	
2025-01-06 18:12:16.31	148.50	11.68	
2025-01-06 18:12:16.51	148.49	11.70	
2025-01-06 18:12:16.72	148.48	11.72	
2025-01-06 18:12:16.92	148.48	11.74	
2025-01-06 18:12:17.13	148.47	11.76	
2025-01-06 18:12:17.34	148.47	11.78	
2025-01-06 18:12:17.54	148.46	11.80	
2025-01-06 18:12:17.75	148.45	11.82	
2025-01-06 18:12:17.95	148.45	11.84	
2025-01-06 18:12:18.16	148.44	11.87	
2025-01-06 18:12:18.36	148.44	11.89	
2025-01-06 18:12:18.57	148.43	11.91	
2025-01-06 18:12:18.78	148.42	11.93	
2025-01-06 18:12:18.99	148.42	11.95	
2025-01-06 18:12:19.19	148.41	11.97	
2025-01-06 18:12:19.40	148.40	11.99	
2025-01-06 18:12:19.61	148.40	12.01	
2025-01-06 18:12:19.81	148.39	12.03	
2025-01-06 18:12:20.01	148.39	12.05	
2025-01-06 18:12:20.22	148.38	12.07	
2025-01-06 18:12:20.42	148.37	12.10	
2025-01-06 18:12:20.63	148.37	12.12	
2025-01-06 18:12:20.83	148.36	12.14	
2025-01-06 18:12:21.04	148.35	12.16	
2025-01-06 18:12:21.24	148.35	12.18	
2025-01-06 18:12:21.45	148.34	12.20	
2025-01-06 18:12:21.65	148.34	12.22	
2025-01-06 18:12:21.86	148.33	12.24	
2025-01-06 18:12:22.06	148.32	12.26	
2025-01-06 18:12:22.27	148.32	12.28	
2025-01-06 18:12:22.47	148.31	12.30	
2025-01-06 18:12:22.68	148.30	12.33	
2025-01-06 18:12:22.88	148.30	12.35	
2025-01-06 18:12:23.10	148.29	12.37	
2025-01-06 18:12:23.31	148.28	12.39	
2025-01-06 18:12:23.51	148.28	12.41	
2025-01-06 18:12:23.72	148.27	12.43	
2025-01-06 18:12:23.93	148.26	12.46	
2025-01-06 18:12:24.13	148.26	12.48	
2025-01-06 18:12:24.33	148.25	12.50	
2025-01-06 18:12:24.54	148.25	12.52	
2025-01-06 18:12:24.75	148.24	12.54	
2025-01-06 18:12:24.95	148.23	12.56	
2025-01-06 18:12:25.15	148.23	12.58	
2025-01-06 18:12:25.36	148.22	12.60	
2025-01-06 18:12:25.57	148.21	12.63	
2025-01-06 18:12:25.77	148.21	12.65	
2025-01-06 18:12:25.98	148.20	12.67	
2025-01-06 18:12:26.18	148.19	12.69	
2025-01-06 18:12:26.38	148.19	12.71	
2025-01-06 18:12:26.59	148.18	12.73	
2025-01-06 18:12:26.80	148.17	12.75	
2025-01-06 18:12:27.00	148.17	12.78	
2025-01-06 18:12:27.21	148.16	12.80	
2025-01-06 18:12:27.41	148.15	12.82	
2025-01-06 18:12:27.62	148.15	12.84	
2025-01-06 18:12:27.82	148.14	12.86	
2025-01-06 18:12:28.03	148.13	12.88	
2025-01-06 18:12:28.23	148.13	12.90	
2025-01-06 18:12:28.44	148.12	12.93	
2025-01-06 18:12:28.64	148.11	12.95	
2025-01-06 18:12:28.85	148.11	12.97	
2025-01-06 18:12:29.05	148.10	12.99	
2025-01-06 18:12:29.26	148.09	13.01	
2025-01-06 18:12:29.46	148.09	13.03	
2025-01-06 18:12:29.66	148.08	13.06	
2025-01-06 18:12:29.87	148.07	13.08	
2025-01-06 18:12:30.08	148.07	13.10	
2025-01-06 18:12:30.28	148.06	13.12	
2025-01-06 18:12:30.49	148.05	13.14	
2025-01-06 18:12:30.69	148.05	13.17	
2025-01-06 18:12:30.90	148.04	13.19	
2025-01-06 18:12:31.10	148.03	13.21	
2025-01-06 18:12:31.31	148.03	13.23	
2025-01-06 18:12:31.51	148.02	13.25	
2025-01-06 18:12:31.71	148.01	13.27	
2025-01-06 18:12:31.92	148.01	13.30	
2025-01-06 18:12:32.12	148.00	13.32	
2025-01-06 18:12:32.33	147.99	13.34	
2025-01-06 18:12:32.53	147.99	13.36	
2025-01-06 18:12:32.74	147.98	13.39	
2025-01-06 18:12:32.94	147.97	13.41	
2025-01-06 18:12:33.15	147.96	13.43	
2025-01-06 18:12:33.35	147.96	13.45	
2025-01-06 18:12:33.56	147.95	13.47	
2025-01-06 18:12:33.76	147.94	13.50	
2025-01-06 18:12:33.96	147.94	13.52	
2025-01-06 18:12:34.17	147.93	13.54	
2025-01-06 18:12:34.38	147.92	13.56	
2025-01-06 18:12:34.58	147.92	13.59	
2025-01-06 18:12:34.78	147.91	13.61	
2025-01-06 18:12:34.99	147.90	13.63	
2025-01-06 18:12:35.19	147.89	13.65	
2025-01-06 18:12:35.40	147.89	13.67	
2025-01-06 18:12:35.60	147.88	13.70	
2025-01-06 18:12:35.81	147.87	13.72	
2025-01-06 18:12:36.01	147.87	13.74	
2025-01-06 18:12:36.22	147.86	13.76	
2025-01-06 18:12:36.42	147.85	13.79	
2025-01-06 18:12:36.63	147.84	13.81	
2025-01-06 18:12:36.83	147.84	13.83	
2025-01-06 18:12:37.05	147.83	13.86	
2025-01-06 18:12:37.26	147.82	13.88	
2025-01-06 18:12:37.46	147.82	13.90	
2025-01-06 18:12:37.67	147.81	13.92	
2025-01-06 18:12:37.87	147.80	13.95	
2025-01-06 18:12:38.07	147.79	13.97	
2025-01-06 18:12:38.28	147.79	13.99	
2025-01-06 18:12:38.49	147.78	14.01	
2025-01-06 18:12:38.69	147.77	14.04	
2025-01-06 18:12:38.90	147.76	14.06	
2025-01-06 18:12:39.11	147.76	14.08	
2025-01-06 18:12:39.32	147.75	14.11	
2025-01-06 18:12:39.52	147.74	14.13	
2025-01-06 18:12:39.73	147.74	14.15	
2025-01-06 18:12:39.93	147.73	14.17	
2025-01-06 18:12:40.14	147.72	14.20	
2025-01-06 18:12:40.34	147.71	14.22	
2025-01-06 18:12:40.55	147.71	14.24	
2025-01-06 18:12:40.75	147.70	14.27	
2025-01-06 18:12:40.96	147.69	14.29	
2025-01-06 18:12:41.16	147.68	14.31	
2025-01-06 18:12:41.36	147.68	14.34	
2025-01-06 18:12:41.57	147.67	14.36	
2025-01-06 18:12:41.78	147.66	14.38	
2025-01-06 18:12:41.98	147.65	14.40	
2025-01-06 18:12:42.19	147.65	14.43	
2025-01-06 18:12:42.41	147.64	14.45	
2025-01-06 18:12:42.61	147.63	14.48	
2025-01-06 18:12:42.82	147.62	14.50	
2025-01-06 18:12:43.02	147.62	14.52	
2025-01-06 18:12:43.23	147.61	14.55	
2025-01-06 18:12:43.43	147.60	14.57	
2025-01-06 18:12:43.64	147.59	14.59	
2025-01-06 18:12:43.84	147.59	14.62	
2025-01-06 18:12:44.05	147.58	14.64	
2025-01-06 18:12:44.25	147.57	14.66	
2025-01-06 18:12:44.45	147.56	14.69	
2025-01-06 18:12:44.66	147.55	14.71	
2025-01-06 18:12:44.86	147.55	14.73	
2025-01-06 18:12:45.07	147.54	14.76	
2025-01-06 18:12:45.27	147.53	14.78	
2025-01-06 18:12:45.48	147.52	14.80	
2025-01-06 18:12:45.68	147.52	14.83	
2025-01-06 18:12:45.89	147.51	14.85	
2025-01-06 18:12:46.09	147.50	14.87	
2025-01-06 18:12:46.30	147.49	14.90	
2025-01-06 18:12:46.50	147.49	14.92	
2025-01-06 18:12:46.71	147.48	14.95	
2025-01-06 18:12:46.91	147.47	14.97	
2025-01-06 18:12:47.12	147.46	14.99	
2025-01-06 18:12:47.32	147.45	15.02	
2025-01-06 18:12:47.53	147.45	15.04	
2025-01-06 18:12:47.73	147.44	15.06	
2025-01-06 18:12:47.94	147.43	15.09	
2025-01-06 18:12:48.15	147.42	15.11	
2025-01-06 18:12:48.35	147.41	15.14	
2025-01-06 18:12:48.56	147.41	15.16	
2025-01-06 18:12:48.76	147.40	15.18	
2025-01-06 18:12:48.97	147.39	15.21	
2025-01-06 18:12:49.17	147.38	15.23	
2025-01-06 18:12:49.38	147.37	15.26	
2025-01-06 18:12:49.58	147.37	15.28	
2025-01-06 18:12:49.79	147.36	15.30	
2025-01-06 18:12:49.99	147.35	15.33	
2025-01-06 18:12:50.20	147.34	15.35	
2025-01-06 18:12:50.40	147.33	15.38	
2025-01-06 18:12:50.61	147.33	15.40	
2025-01-06 18:12:50.81	147.32	15.42	
2025-01-06 18:12:51.02	147.31	15.45	
2025-01-06 18:12:51.22	147.30	15.47	
2025-01-06 18:12:51.43	147.29	15.50	
2025-01-06 18:12:51.63	147.29	15.52	
2025-01-06 18:12:51.83	147.28	15.54	
2025-01-06 18:12:52.04	147.27	15.57	
2025-01-06 18:12:52.25	147.26	15.59	
2025-01-06 18:12:52.45	147.25	15.62	
2025-01-06 18:12:52.66	147.24	15.64	
2025-01-06 18:12:52.86	147.24	15.67	
2025-01-06 18:12:53.06	147.23	15.69	
2025-01-06 18:12:53.27	147.22	15.72	
2025-01-06 18:12:53.47	147.21	15.74	
2025-01-06 18:12:53.68	147.20	15.77	
2025-01-06 18:12:53.89	147.19	15.79	
2025-01-06 18:12:54.10	147.19	15.82	
2025-01-06 18:12:54.31	147.18	15.84	
2025-01-06 18:12:54.52	147.17	15.87	
2025-01-06 18:12:54.72	147.16	15.89	
2025-01-06 18:12:54.93	147.15	15.92	
2025-01-06 18:12:55.13	147.14	15.94	
2025-01-06 18:12:55.34	147.14	15.97	
2025-01-06 18:12:55.54	147.13	15.99	
2025-01-06 18:12:55.75	147.12	16.02	
2025-01-06 18:12:55.96	147.11	16.04	
2025-01-06 18:12:56.16	147.10	16.06	
2025-01-06 18:12:56.37	147.09	16.09	
2025-01-06 18:12:56.57	147.08	16.11	
2025-01-06 18:12:56.78	147.08	16.14	
2025-01-06 18:12:56.98	147.07	16.16	
2025-01-06 18:12:57.19	147.06	16.19	
2025-01-06 18:12:57.39	147.05	16.21	
2025-01-06 18:12:57.60	147.04	16.24	
2025-01-06 18:12:57.80	147.03	16.26	
2025-01-06 18:12:58.00	147.02	16.29	
2025-01-06 18:12:58.21	147.02	16.32	
2025-01-06 18:12:58.41	147.01	16.34	
2025-01-06 18:12:58.62	147.00	16.37	
2025-01-06 18:12:58.83	146.99	16.39	
2025-01-06 18:12:59.03	146.98	16.42	
2025-01-06 18:12:59.24	146.97	16.44	
2025-01-06 18:12:59.44	146.96	16.47	
2025-01-06 18:12:59.65	146.95	16.49	
2025-01-06 18:12:59.85	146.95	16.52	
2025-01-06 18:13:00.05	146.94	16.54	
2025-01-06 18:13:00.26	146.93	16.57	
2025-01-06 18:13:00.46	146.92	16.59	
2025-01-06 18:13:00.67	146.91	16.62	
2025-01-06 18:13:00.87	146.90	16.64	
2025-01-06 18:13:01.08	146.89	16.67	
2025-01-06 18:13:01.28	146.88	16.70	
2025-01-06 18:13:01.49	146.87	16.72	
2025-01-06 18:13:01.69	146.87	16.75	
2025-01-06 18:13:01.90	146.86	16.77	
2025-01-06 18:13:02.10	146.85	16.80	
2025-01-06 18:13:02.31	146.84	16.82	
2025-01-06 18:13:02.51	146.83	16.85	
2025-01-06 18:13:02.72	146.82	16.88	
2025-01-06 18:13:02.92	146.81	16.90	
2025-01-06 18:13:03.13	146.80	16.93	
2025-01-06 18:13:03.33	146.79	16.95	
2025-01-06 18:13:03.55	146.78	16.98	
2025-01-06 18:13:03.75	146.78	17.01	
2025-01-06 18:13:03.96	146.77	17.03	
2025-01-06 18:13:04.17	146.76	17.06	
2025-01-06 18:13:04.37	146.75	17.08	
2025-01-06 18:13:04.58	146.74	17.11	
2025-01-06 18:13:04.78	146.73	17.14	
2025-01-06 18:13:04.99	146.72	17.16	
2025-01-06 18:13:05.19	146.71	17.19	
2025-01-06 18:13:05.40	146.70	17.22	
2025-01-06 18:13:05.60	146.69	17.24	
2025-01-06 18:13:05.81	146.68	17.27	
2025-01-06 18:13:06.01	146.67	17.29	
2025-01-06 18:13:06.21	146.66	17.32	
2025-01-06 18:13:06.42	146.65	17.35	
2025-01-06 18:13:06.62	146.65	17.37	
2025-01-06 18:13:06.82	146.64	17.40	
2025-01-06 18:13:07.03	146.63	17.43	
2025-01-06 18:13:07.23	146.62	17.45	
2025-01-06 18:13:07.44	146.61	17.48	
2025-01-06 18:13:07.64	146.60	17.50	
2025-01-06 18:13:07.85	146.59	17.53	
2025-01-06 18:13:08.05	146.58	17.56	
2025-01-06 18:13:08.26	146.57	17.58	
2025-01-06 18:13:08.46	146.56	17.61	
2025-01-06 18:13:08.67	146.55	17.64	
2025-01-06 18:13:08.87	146.54	17.66	
2025-01-06 18:13:09.08	146.53	17.69	
2025-01-06 18:13:09.28	146.52	17.72	
2025-01-06 18:13:09.49	146.51	17.74	
2025-01-06 18:13:09.69	146.50	17.77	
2025-01-06 18:13:09.89	146.49	17.80	
2025-01-06 18:13:10.10	146.48	17.82	
2025-01-06 18:13:10.30	146.47	17.85	
2025-01-06 18:13:10.51	146.46	17.88	
2025-01-06 18:13:10.71	146.45	17.90	
2025-01-06 18:13:10.92	146.44	17.93	
2025-01-06 18:13:11.12	146.44	17.96	
2025-01-06 18:13:11.33	146.42	17.99	
2025-01-06 18:13:11.53	146.42	18.01	
2025-01-06 18:13:11.74	146.41	18.04	
2025-01-06 18:13:11.94	146.40	18.07	
2025-01-06 18:13:12.15	146.39	18.10	
2025-01-06 18:13:12.35	146.38	18.12	
2025-01-06 18:13:12.56	146.37	18.15	
2025-01-06 18:13:12.76	146.36	18.18	
2025-01-06 18:13:12.97	146.35	18.20	
2025-01-06 18:13:13.17	146.34	18.23	
2025-01-06 18:13:13.37	146.33	18.26	
2025-01-06 18:13:13.58	146.32	18.29	
2025-01-06 18:13:13.78	146.31	18.31	
2025-01-06 18:13:13.99	146.30	18.34	
2025-01-06 18:13:14.20	146.29	18.37	
2025-01-06 18:13:14.40	146.28	18.40	
2025-01-06 18:13:14.61	146.27	18.42	
2025-01-06 18:13:14.81	146.26	18.45	
2025-01-06 18:13:15.02	146.24	18.48	
2025-01-06 18:13:15.22	146.23	18.51	
2025-01-06 18:13:15.43	146.22	18.53	
2025-01-06 18:13:15.63	146.21	18.56	
2025-01-06 18:13:15.84	146.20	18.59	
2025-01-06 18:13:16.05	146.19	18.62	
2025-01-06 18:13:16.25	146.18	18.65	
2025-01-06 18:13:16.47	146.17	18.68	
2025-01-06 18:13:16.67	146.16	18.70	
2025-01-06 18:13:16.88	146.15	18.73	
2025-01-06 18:13:17.08	146.14	18.76	
2025-01-06 18:13:17.29	146.13	18.79	
2025-01-06 18:13:17.51	146.12	18.82	
2025-01-06 18:13:17.72	146.11	18.85	
2025-01-06 18:13:17.92	146.10	18.87	
2025-01-06 18:13:18.13	146.09	18.90	
2025-01-06 18:13:18.33	146.08	18.93	
2025-01-06 18:13:18.55	146.07	18.96	
2025-01-06 18:13:18.76	146.06	18.99	
2025-01-06 18:13:18.96	146.05	19.02	
2025-01-06 18:13:19.17	146.03	19.05	
2025-01-06 18:13:19.38	146.02	19.08	
2025-01-06 18:13:19.58	146.01	19.10	
2025-01-06 18:13:19.78	146.00	19.13	
2025-01-06 18:13:19.99	145.99	19.16	
2025-01-06 18:13:20.20	145.98	19.19	
2025-01-06 18:13:20.40	145.97	19.22	
2025-01-06 18:13:20.60	145.96	19.24	
2025-01-06 18:13:20.81	145.95	19.27	
2025-01-06 18:13:21.02	145.94	19.30	
2025-01-06 18:13:21.22	145.93	19.33	
2025-01-06 18:13:21.43	145.92	19.36	
2025-01-06 18:13:21.63	145.91	19.39	
2025-01-06 18:13:21.83	145.89	19.42	
2025-01-06 18:13:22.04	145.88	19.45	
2025-01-06 18:13:22.25	145.87	19.48	
2025-01-06 18:13:22.45	145.86	19.50	
2025-01-06 18:13:22.66	145.85	19.53	
2025-01-06 18:13:22.86	145.84	19.56	
2025-01-06 18:13:23.07	145.83	19.59	
2025-01-06 18:13:23.27	145.82	19.62	
2025-01-06 18:13:23.48	145.81	19.65	
2025-01-06 18:13:23.68	145.80	19.68	
2025-01-06 18:13:23.89	145.78	19.71	
2025-01-06 18:13:24.09	145.77	19.74	
2025-01-06 18:13:24.30	145.76	19.77	
2025-01-06 18:13:24.50	145.75	19.80	
2025-01-06 18:13:24.71	145.74	19.83	
2025-01-06 18:13:24.91	145.73	19.85	
2025-01-06 18:13:25.11	145.72	19.88	
2025-01-06 18:13:25.32	145.71	19.91	
2025-01-06 18:13:25.52	145.69	19.94	
2025-01-06 18:13:25.73	145.68	19.97	
2025-01-06 18:13:25.93	145.67	20.00	
2025-01-06 18:13:26.14	145.66	20.03	
2025-01-06 18:13:26.34	145.65	20.06	
2025-01-06 18:13:26.55	145.64	20.09	
2025-01-06 18:13:26.75	145.63	20.12	
2025-01-06 18:13:26.96	145.61	20.15	
2025-01-06 18:13:27.16	145.60	20.18	
2025-01-06 18:13:27.37	145.59	20.21	
2025-01-06 18:13:27.57	145.58	20.24	
2025-01-06 18:13:27.78	145.57	20.27	
2025-01-06 18:13:27.98	145.56	20.30	
2025-01-06 18:13:28.20	145.54	20.33	
2025-01-06 18:13:28.40	145.53	20.36	
2025-01-06 18:13:28.61	145.52	20.39	
2025-01-06 18:13:28.81	145.51	20.42	
2025-01-06 18:13:29.03	145.50	20.45	
2025-01-06 18:13:29.23	145.49	20.48	
2025-01-06 18:13:29.44	145.47	20.51	
2025-01-06 18:13:29.64	145.46	20.54	
2025-01-06 18:13:29.85	145.45	20.57	
2025-01-06 18:13:30.05	145.44	20.60	
2025-01-06 18:13:30.26	145.43	20.63	
2025-01-06 18:13:30.46	145.41	20.66	
2025-01-06 18:13:30.67	145.40	20.69	
2025-01-06 18:13:30.87	145.39	20.72	
2025-01-06 18:13:31.08	145.38	20.75	
2025-01-06 18:13:31.28	145.37	20.78	
2025-01-06 18:13:31.49	145.35	20.82	
2025-01-06 18:13:31.69	145.34	20.85	
2025-01-06 18:13:31.90	145.33	20.88	
2025-01-06 18:13:32.10	145.32	20.91	
2025-01-06 18:13:32.31	145.31	20.94	
2025-01-06 18:13:32.53	145.29	20.97	
2025-01-06 18:13:32.73	145.28	21.00	
2025-01-06 18:13:32.94	145.27	21.03	
2025-01-06 18:13:33.14	145.26	21.06	
2025-01-06 18:13:33.35	145.24	21.09	
2025-01-06 18:13:33.55	145.23	21.12	
2025-01-06 18:13:33.75	145.22	21.15	
2025-01-06 18:13:33.96	145.21	21.19	
2025-01-06 18:13:34.16	145.19	21.22	
2025-01-06 18:13:34.37	145.18	21.25	
2025-01-06 18:13:34.59	145.17	21.28	
2025-01-06 18:13:34.79	145.16	21.31	
2025-01-06 18:13:35.00	145.14	21.34	
2025-01-06 18:13:35.20	145.13	21.37	
2025-01-06 18:13:35.41	145.12	21.41	
2025-01-06 18:13:35.61	145.11	21.44	
2025-01-06 18:13:35.82	145.09	21.47	
2025-01-06 18:13:36.02	145.08	21.50	
2025-01-06 18:13:36.23	145.07	21.53	
2025-01-06 18:13:36.44	145.06	21.56	
2025-01-06 18:13:36.64	145.04	21.60	
2025-01-06 18:13:36.84	145.03	21.63	
2025-01-06 18:13:37.05	145.02	21.66	
2025-01-06 18:13:37.25	145.00	21.69	
2025-01-06 18:13:37.46	144.99	21.72	
2025-01-06 18:13:37.66	144.98	21.75	
2025-01-06 18:13:37.87	144.97	21.79	
2025-01-06 18:13:38.08	144.95	21.82	
2025-01-06 18:13:38.29	144.94	21.85	
2025-01-06 18:13:38.50	144.93	21.88	
2025-01-06 18:13:38.70	144.91	21.92	
2025-01-06 18:13:38.90	144.90	21.95	
2025-01-06 18:13:39.11	144.89	21.98	
2025-01-06 18:13:39.32	144.87	22.01	
2025-01-06 18:13:39.52	144.86	22.04	
2025-01-06 18:13:39.73	144.85	22.08	
2025-01-06 18:13:39.93	144.83	22.11	
2025-01-06 18:13:40.14	144.82	22.14	
2025-01-06 18:13:40.34	144.81	22.17	
2025-01-06 18:13:40.55	144.79	22.21	
2025-01-06 18:13:40.76	144.78	22.24	
2025-01-06 18:13:40.96	144.77	22.27	
2025-01-06 18:13:41.16	144.75	22.30	
2025-01-06 18:13:41.37	144.74	22.34	
2025-01-06 18:13:41.58	144.73	22.37	
2025-01-06 18:13:41.78	144.71	22.40	
2025-01-06 18:13:41.99	144.70	22.43	
2025-01-06 18:13:42.19	144.69	22.47	
2025-01-06 18:13:42.39	144.67	22.50	
2025-01-06 18:13:42.60	144.66	22.53	
2025-01-06 18:13:42.80	144.65	22.56	
2025-01-06 18:13:43.01	144.63	22.60	
2025-01-06 18:13:43.21	144.62	22.63	
2025-01-06 18:13:43.42	144.60	22.66	
2025-01-06 18:13:43.62	144.59	22.70	
2025-01-06 18:13:43.83	144.58	22.73	
2025-01-06 18:13:44.04	144.56	22.76	
2025-01-06 18:13:44.24	144.55	22.80	
2025-01-06 18:13:44.44	144.54	22.83	
2025-01-06 18:13:44.65	144.52	22.86	
2025-01-06 18:13:44.86	144.51	22.90	
2025-01-06 18:13:45.06	144.49	22.93	
2025-01-06 18:13:45.26	144.48	22.96	
2025-01-06 18:13:45.47	144.47	23.00	
2025-01-06 18:13:45.68	144.45	23.03	
2025-01-06 18:13:45.88	144.44	23.06	
2025-01-06 18:13:46.09	144.42	23.10	
2025-01-06 18:13:46.29	144.41	23.13	
2025-01-06 18:13:46.50	144.39	23.16	
2025-01-06 18:13:46.70	144.38	23.20	
2025-01-06 18:13:46.91	144.37	23.23	
2025-01-06 18:13:47.11	144.35	23.26	
2025-01-06 18:13:47.32	144.34	23.30	
2025-01-06 18:13:47.52	144.32	23.33	
2025-01-06 18:13:47.73	144.31	23.37	
2025-01-06 18:13:47.93	144.29	23.40	
2025-01-06 18:13:48.14	144.28	23.43	
2025-01-06 18:13:48.35	144.26	23.47	
2025-01-06 18:13:48.55	144.25	23.50	
2025-01-06 18:13:48.76	144.24	23.54	
2025-01-06 18:13:48.96	144.22	23.57	
2025-01-06 18:13:49.17	144.21	23.61	
2025-01-06 18:13:49.37	144.19	23.64	
2025-01-06 18:13:49.58	144.18	23.67	
2025-01-06 18:13:49.78	144.16	23.71	
2025-01-06 18:13:49.98	144.15	23.74	
2025-01-06 18:13:50.19	144.13	23.78	
2025-01-06 18:13:50.39	144.12	23.81	
2025-01-06 18:13:50.60	144.10	23.85	
2025-01-06 18:13:50.80	144.09	23.88	
2025-01-06 18:13:51.01	144.07	23.92	
2025-01-06 18:13:51.21	144.06	23.95	
2025-01-06 18:13:51.42	144.04	23.99	
2025-01-06 18:13:51.62	144.03	24.02	
2025-01-06 18:13:51.83	144.01	24.05	
2025-01-06 18:13:52.03	144.00	24.09	
2025-01-06 18:13:52.24	143.98	24.12	
2025-01-06 18:13:52.45	143.97	24.16	
2025-01-06 18:13:52.65	143.95	24.19	
2025-01-06 18:13:52.85	143.94	24.23	
2025-01-06 18:13:53.06	143.92	24.26	
2025-01-06 18:13:53.27	143.91	24.30	
2025-01-06 18:13:53.47	143.89	24.34	
2025-01-06 18:13:53.68	143.88	24.37	
2025-01-06 18:13:53.89	143.86	24.41	
2025-01-06 18:13:54.10	143.84	24.44	
2025-01-06 18:13:54.31	143.83	24.48	
2025-01-06 18:13:54.51	143.81	24.51	
2025-01-06 18:13:54.72	143.80	24.55	
2025-01-06 18:13:54.92	143.78	24.59	
2025-01-06 18:13:55.13	143.76	24.62	
2025-01-06 18:13:55.33	143.75	24.66	
2025-01-06 18:13:55.54	143.73	24.69	
2025-01-06 18:13:55.74	143.72	24.73	
2025-01-06 18:13:55.95	143.70	24.77	
2025-01-06 18:13:56.15	143.69	24.80	
2025-01-06 18:13:56.36	143.67	24.84	
2025-01-06 18:13:56.56	143.65	24.87	
2025-01-06 18:13:56.77	143.64	24.91	
2025-01-06 18:13:56.97	143.62	24.94	
2025-01-06 18:13:57.18	143.61	24.98	
2025-01-06 18:13:57.38	143.59	25.02	
2025-01-06 18:13:57.59	143.57	25.05	
2025-01-06 18:13:57.79	143.56	25.09	
2025-01-06 18:13:58.00	143.54	25.13	
2025-01-06 18:13:58.22	143.52	25.17	
2025-01-06 18:13:58.42	143.51	25.20	
2025-01-06 18:13:58.63	143.49	25.24	
2025-01-06 18:13:58.83	143.47	25.27	
2025-01-06 18:13:59.04	143.46	25.31	
2025-01-06 18:13:59.24	143.44	25.35	
2025-01-06 18:13:59.45	143.42	25.39	
2025-01-06 18:13:59.65	143.41	25.42	
2025-01-06 18:13:59.86	143.39	25.46	
2025-01-06 18:14:00.06	143.37	25.50	
2025-01-06 18:14:00.28	143.36	25.53	
2025-01-06 18:14:00.48	143.34	25.57	
2025-01-06 18:14:00.69	143.32	25.61	
2025-01-06 18:14:00.89	143.31	25.65	
2025-01-06 18:14:01.10	143.29	25.68	
2025-01-06 18:14:01.30	143.27	25.72	
2025-01-06 18:14:01.51	143.26	25.76	
2025-01-06 18:14:01.71	143.24	25.79	
2025-01-06 18:14:01.92	143.22	25.83	
2025-01-06 18:14:02.12	143.20	25.87	
2025-01-06 18:14:02.33	143.19	25.91	
2025-01-06 18:14:02.53	143.17	25.94	
2025-01-06 18:14:02.74	143.15	25.98	
2025-01-06 18:14:02.94	143.14	26.02	
2025-01-06 18:14:03.15	143.12	26.06	
2025-01-06 18:14:03.36	143.10	26.10	
2025-01-06 18:14:03.56	143.08	26.13	
2025-01-06 18:14:03.76	143.07	26.17	
2025-01-06 18:14:03.97	143.05	26.21	
2025-01-06 18:14:04.17	143.03	26.25	
2025-01-06 18:14:04.38	143.01	26.28	
2025-01-06 18:14:04.58	143.00	26.32	
2025-01-06 18:14:04.79	142.98	26.36	
2025-01-06 18:14:04.99	142.96	26.40	
2025-01-06 18:14:05.20	142.94	26.44	
2025-01-06 18:14:05.41	142.92	26.48	
2025-01-06 18:14:05.61	142.91	26.51	
2025-01-06 18:14:05.82	142.89	26.55	
2025-01-06 18:14:06.02	142.87	26.59	
2025-01-06 18:14:06.23	142.85	26.63	
2025-01-06 18:14:06.43	142.83	26.67	
2025-01-06 18:14:06.64	142.82	26.71	
2025-01-06 18:14:06.84	142.80	26.75	
2025-01-06 18:14:07.05	142.78	26.79	
2025-01-06 18:14:07.25	142.76	26.82	
2025-01-06 18:14:07.46	142.74	26.86	
2025-01-06 18:14:07.66	142.73	26.90	
2025-01-06 18:14:07.87	142.71	26.94	
2025-01-06 18:14:08.07	142.69	26.98	
2025-01-06 18:14:08.28	142.67	27.02	
2025-01-06 18:14:08.49	142.65	27.06	
2025-01-06 18:14:08.69	142.63	27.10	
2025-01-06 18:14:08.90	142.61	27.14	
2025-01-06 18:14:09.10	142.59	27.18	
2025-01-06 18:14:09.31	142.58	27.22	
2025-01-06 18:14:09.51	142.56	27.25	
2025-01-06 18:14:09.72	142.54	27.29	
2025-01-06 18:14:09.94	142.52	27.34	
2025-01-06 18:14:10.14	142.50	27.38	
2025-01-06 18:14:10.35	142.48	27.42	
2025-01-06 18:14:10.55	142.46	27.46	
2025-01-06 18:14:10.76	142.44	27.50	
2025-01-06 18:14:10.96	142.42	27.53	
2025-01-06 18:14:11.17	142.40	27.58	
2025-01-06 18:14:11.38	142.38	27.62	
2025-01-06 18:14:11.58	142.36	27.66	
2025-01-06 18:14:11.79	142.34	27.70	
2025-01-06 18:14:11.99	142.33	27.74	
2025-01-06 18:14:12.20	142.31	27.78	
2025-01-06 18:14:12.40	142.29	27.82	
2025-01-06 18:14:12.61	142.27	27.86	
2025-01-06 18:14:12.81	142.25	27.90	
2025-01-06 18:14:13.01	142.23	27.94	
2025-01-06 18:14:13.22	142.21	27.98	
2025-01-06 18:14:13.43	142.19	28.02	
2025-01-06 18:14:13.63	142.17	28.06	
2025-01-06 18:14:13.84	142.15	28.10	
2025-01-06 18:14:14.04	142.13	28.14	
2025-01-06 18:14:14.25	142.11	28.18	
2025-01-06 18:14:14.46	142.09	28.22	
2025-01-06 18:14:14.66	142.07	28.26	
2025-01-06 18:14:14.86	142.05	28.30	
2025-01-06 18:14:15.07	142.03	28.35	
2025-01-06 18:14:15.29	142.01	28.39	
2025-01-06 18:14:15.49	141.99	28.43	
2025-01-06 18:14:15.70	141.97	28.47	
2025-01-06 18:14:15.90	141.95	28.51	
2025-01-06 18:14:16.11	141.92	28.56	
2025-01-06 18:14:16.31	141.90	28.60	
2025-01-06 18:14:16.52	141.88	28.64	
2025-01-06 18:14:16.72	141.86	28.68	
2025-01-06 18:14:16.93	141.84	28.72	
2025-01-06 18:14:17.13	141.82	28.76	
2025-01-06 18:14:17.34	141.80	28.80	
2025-01-06 18:14:17.54	141.78	28.85	
2025-01-06 18:14:17.75	141.76	28.89	
2025-01-06 18:14:17.95	141.74	28.93	
2025-01-06 18:14:18.16	141.72	28.97	
2025-01-06 18:14:18.36	141.70	29.01	
2025-01-06 18:14:18.57	141.67	29.06	
2025-01-06 18:14:18.78	141.65	29.10	
2025-01-06 18:14:18.98	141.63	29.14	
2025-01-06 18:14:19.18	141.61	29.18	
2025-01-06 18:14:19.39	141.59	29.23	
2025-01-06 18:14:19.59	141.57	29.27	
2025-01-06 18:14:19.80	141.55	29.31	
2025-01-06 18:14:20.00	141.53	29.35	
2025-01-06 18:14:20.21	141.50	29.40	
2025-01-06 18:14:20.42	141.48	29.44	
2025-01-06 18:14:20.62	141.46	29.48	
2025-01-06 18:14:20.83	141.44	29.52	
2025-01-06 18:14:21.03	141.42	29.57	
2025-01-06 18:14:21.24	141.39	29.61	
2025-01-06 18:14:21.45	141.37	29.65	
2025-01-06 18:14:21.66	141.35	29.70	
2025-01-06 18:14:21.87	141.33	29.74	
2025-01-06 18:14:22.08	141.30	29.79	
2025-01-06 18:14:22.28	141.28	29.83	
2025-01-06 18:14:22.49	141.26	29.87	
2025-01-06 18:14:22.70	141.24	29.92	
2025-01-06 18:14:22.91	141.21	29.96	
2025-01-06 18:14:23.13	141.19	30.01	
2025-01-06 18:14:23.33	141.17	30.05	
2025-01-06 18:14:23.54	141.14	30.10	
2025-01-06 18:14:23.74	141.12	30.14	
2025-01-06 18:14:23.95	141.10	30.18	
2025-01-06 18:14:24.16	141.07	30.23	
2025-01-06 18:14:24.36	141.05	30.27	
2025-01-06 18:14:24.57	141.03	30.32	
2025-01-06 18:14:24.77	141.01	30.36	
2025-01-06 18:14:24.97	140.98	30.40	
2025-01-06 18:14:25.18	140.96	30.45	
2025-01-06 18:14:25.39	140.93	30.49	
2025-01-06 18:14:25.59	140.91	30.54	
2025-01-06 18:14:25.79	140.89	30.58	
2025-01-06 18:14:26.00	140.87	30.63	
2025-01-06 18:14:26.21	140.84	30.67	
2025-01-06 18:14:26.41	140.82	30.71	
2025-01-06 18:14:26.62	140.79	30.76	
2025-01-06 18:14:26.82	140.77	30.80	
2025-01-06 18:14:27.03	140.75	30.85	
2025-01-06 18:14:27.23	140.72	30.89	
2025-01-06 18:14:27.44	140.70	30.94	
2025-01-06 18:14:27.65	140.67	30.99	
2025-01-06 18:14:27.85	140.65	31.03	
2025-01-06 18:14:28.06	140.63	31.08	
2025-01-06 18:14:28.26	140.60	31.12	
2025-01-06 18:14:28.47	140.58	31.17	
2025-01-06 18:14:28.67	140.55	31.21	
2025-01-06 18:14:28.88	140.53	31.26	
2025-01-06 18:14:29.08	140.50	31.30	
2025-01-06 18:14:29.28	140.48	31.35	
2025-01-06 18:14:29.49	140.46	31.39	
2025-01-06 18:14:29.69	140.43	31.44	
2025-01-06 18:14:29.90	140.41	31.48	
2025-01-06 18:14:30.12	140.38	31.53	
2025-01-06 18:14:30.32	140.35	31.58	
2025-01-06 18:14:30.53	140.33	31.63	
2025-01-06 18:14:30.73	140.30	31.67	
2025-01-06 18:14:30.94	140.28	31.72	
2025-01-06 18:14:31.14	140.25	31.76	
2025-01-06 18:14:31.35	140.23	31.81	
2025-01-06 18:14:31.56	140.20	31.86	
2025-01-06 18:14:31.76	140.18	31.90	
2025-01-06 18:14:31.97	140.15	31.95	
2025-01-06 18:14:32.17	140.13	32.00	
2025-01-06 18:14:32.38	140.10	32.04	
2025-01-06 18:14:32.58	140.07	32.09	
2025-01-06 18:14:32.79	140.05	32.14	
2025-01-06 18:14:32.99	140.02	32.18	
2025-01-06 18:14:33.20	140.00	32.23	
2025-01-06 18:14:33.40	139.97	32.28	
2025-01-06 18:14:33.60	139.94	32.32	
2025-01-06 18:14:33.81	139.92	32.37	
2025-01-06 18:14:34.02	139.89	32.42	
2025-01-06 18:14:34.22	139.86	32.47	
2025-01-06 18:14:34.42	139.84	32.51	
2025-01-06 18:14:34.63	139.81	32.56	
2025-01-06 18:14:34.83	139.79	32.61	
2025-01-06 18:14:35.04	139.76	32.65	
2025-01-06 18:14:35.25	139.73	32.70	
2025-01-06 18:14:35.45	139.70	32.75	
2025-01-06 18:14:35.65	139.68	32.80	
2025-01-06 18:14:35.86	139.65	32.85	
2025-01-06 18:14:36.06	139.62	32.89	
2025-01-06 18:14:36.27	139.60	32.94	
2025-01-06 18:14:36.47	139.57	32.99	
2025-01-06 18:14:36.68	139.54	33.04	
2025-01-06 18:14:36.88	139.51	33.08	
2025-01-06 18:14:37.09	139.49	33.13	
2025-01-06 18:14:37.30	139.46	33.18	
2025-01-06 18:14:37.50	139.43	33.23	
2025-01-06 18:14:37.70	139.40	33.28	
2025-01-06 18:14:37.91	139.37	33.33	
2025-01-06 18:14:38.12	139.35	33.38	
2025-01-06 18:14:38.32	139.32	33.43	
2025-01-06 18:14:38.53	139.29	33.48	
2025-01-06 18:14:38.73	139.26	33.52	
2025-01-06 18:14:38.93	139.23	33.57	
2025-01-06 18:14:39.14	139.20	33.62	
2025-01-06 18:14:39.35	139.18	33.67	
2025-01-06 18:14:39.55	139.15	33.72	
2025-01-06 18:14:39.77	139.12	33.77	
2025-01-06 18:14:39.97	139.09	33.82	
2025-01-06 18:14:40.18	139.06	33.87	
2025-01-06 18:14:40.38	139.03	33.92	
2025-01-06 18:14:40.59	139.00	33.97	
2025-01-06 18:14:40.79	138.97	34.02	
2025-01-06 18:14:41.00	138.94	34.07	
2025-01-06 18:14:41.21	138.91	34.12	
2025-01-06 18:14:41.41	138.88	34.17	
2025-01-06 18:14:41.61	138.85	34.22	
2025-01-06 18:14:41.82	138.82	34.27	
2025-01-06 18:14:42.02	138.79	34.32	
2025-01-06 18:14:42.23	138.76	34.37	
2025-01-06 18:14:42.43	138.74	34.42	
2025-01-06 18:14:42.64	138.70	34.47	
2025-01-06 18:14:42.84	138.67	34.52	
2025-01-06 18:14:43.05	138.64	34.57	
2025-01-06 18:14:43.25	138.61	34.62	
2025-01-06 18:14:43.46	138.58	34.67	
2025-01-06 18:14:43.67	138.55	34.72	
2025-01-06 18:14:43.87	138.52	34.77	
2025-01-06 18:14:44.07	138.49	34.82	
2025-01-06 18:14:44.28	138.46	34.88	
2025-01-06 18:14:44.49	138.43	34.93	
2025-01-06 18:14:44.69	138.40	34.98	
2025-01-06 18:14:44.90	138.37	35.03	
2025-01-06 18:14:45.11	138.33	35.08	
2025-01-06 18:14:45.32	138.30	35.14	
2025-01-06 18:14:45.53	138.27	35.19	
2025-01-06 18:14:45.73	138.24	35.24	
2025-01-06 18:14:45.94	138.21	35.29	
2025-01-06 18:14:46.14	138.18	35.34	
2025-01-06 18:14:46.34	138.14	35.39	
2025-01-06 18:14:46.55	138.11	35.45	
2025-01-06 18:14:46.76	138.08	35.50	
2025-01-06 18:14:46.96	138.05	35.55	
2025-01-06 18:14:47.16	138.02	35.60	
2025-01-06 18:14:47.37	137.98	35.65	
2025-01-06 18:14:47.57	137.95	35.70	
2025-01-06 18:14:47.78	137.92	35.76	
2025-01-06 18:14:47.99	137.88	35.81	
2025-01-06 18:14:48.19	137.85	35.86	
2025-01-06 18:14:48.40	137.82	35.92	
2025-01-06 18:14:48.60	137.79	35.97	
2025-01-06 18:14:48.81	137.75	36.02	
2025-01-06 18:14:49.01	137.72	36.07	
2025-01-06 18:14:49.22	137.68	36.13	
2025-01-06 18:14:49.42	137.65	36.18	
2025-01-06 18:14:49.63	137.62	36.23	
2025-01-06 18:14:49.83	137.58	36.29	
2025-01-06 18:14:50.04	137.55	36.34	
2025-01-06 18:14:50.25	137.51	36.39	
2025-01-06 18:14:50.46	137.48	36.45	
2025-01-06 18:14:50.67	137.44	36.50	
2025-01-06 18:14:50.87	137.41	36.56	
2025-01-06 18:14:51.08	137.38	36.61	
2025-01-06 18:14:51.29	137.34	36.67	
2025-01-06 18:14:51.50	137.30	36.72	
2025-01-06 18:14:51.71	137.27	36.78	
2025-01-06 18:14:51.91	137.23	36.83	
2025-01-06 18:14:52.12	137.20	36.88	
2025-01-06 18:14:52.33	137.16	36.94	
2025-01-06 18:14:52.53	137.13	36.99	
2025-01-06 18:14:52.74	137.09	37.05	
2025-01-06 18:14:52.94	137.06	37.10	
2025-01-06 18:14:53.15	137.02	37.16	
2025-01-06 18:14:53.35	136.99	37.21	
2025-01-06 18:14:53.56	136.95	37.27	
2025-01-06 18:14:53.76	136.91	37.32	
2025-01-06 18:14:53.97	136.88	37.38	
2025-01-06 18:14:54.17	136.84	37.43	
2025-01-06 18:14:54.38	136.80	37.49	
2025-01-06 18:14:54.58	136.77	37.54	
2025-01-06 18:14:54.79	136.73	37.60	
2025-01-06 18:14:54.99	136.69	37.65	
2025-01-06 18:14:55.20	136.66	37.71	
2025-01-06 18:14:55.40	136.62	37.76	
2025-01-06 18:14:55.61	136.58	37.82	
2025-01-06 18:14:55.81	136.55	37.87	
2025-01-06 18:14:56.01	136.51	37.93	
2025-01-06 18:14:56.22	136.47	37.98	
2025-01-06 18:14:56.42	136.43	38.04	
2025-01-06 18:14:56.63	136.40	38.09	
2025-01-06 18:14:56.83	136.36	38.15	
2025-01-06 18:14:57.03	136.32	38.20	
2025-01-06 18:14:57.24	136.28	38.26	
2025-01-06 18:14:57.44	136.24	38.32	
2025-01-06 18:14:57.65	136.20	38.37	
2025-01-06 18:14:57.85	136.17	38.43	
2025-01-06 18:14:58.06	136.13	38.49	
2025-01-06 18:14:58.26	136.09	38.54	
2025-01-06 18:14:58.47	136.05	38.60	
2025-01-06 18:14:58.67	136.01	38.65	
2025-01-06 18:14:58.88	135.97	38.71	
2025-01-06 18:14:59.08	135.93	38.77	
2025-01-06 18:14:59.29	135.89	38.83	
2025-01-06 18:14:59.49	135.85	38.88	
2025-01-06 18:14:59.70	135.81	38.94	
2025-01-06 18:14:59.90	135.77	39.00	
2025-01-06 18:15:00.10	135.73	39.05	
2025-01-06 18:15:00.31	135.69	39.11	
2025-01-06 18:15:00.52	135.65	39.17	
2025-01-06 18:15:00.72	135.61	39.23	
2025-01-06 18:15:00.93	135.57	39.28	
2025-01-06 18:15:01.13	135.53	39.34	
2025-01-06 18:15:01.34	135.49	39.40	
2025-01-06 18:15:01.54	135.45	39.46	
2025-01-06 18:15:01.74	135.41	39.51	
2025-01-06 18:15:01.95	135.36	39.57	
2025-01-06 18:15:02.15	135.32	39.63	
2025-01-06 18:15:02.36	135.28	39.69	
2025-01-06 18:15:02.56	135.24	39.75	
2025-01-06 18:15:02.77	135.19	39.81	
2025-01-06 18:15:02.97	135.15	39.86	
2025-01-06 18:15:03.18	135.11	39.92	
2025-01-06 18:15:03.39	135.07	39.98	
2025-01-06 18:15:03.60	135.02	40.04	
2025-01-06 18:15:03.80	134.98	40.10	
2025-01-06 18:15:04.01	134.94	40.16	
2025-01-06 18:15:04.21	134.89	40.22	
2025-01-06 18:15:04.42	134.85	40.28	
2025-01-06 18:15:04.62	134.81	40.34	
2025-01-06 18:15:04.83	134.76	40.40	
2025-01-06 18:15:05.03	134.72	40.45	
2025-01-06 18:15:05.23	134.68	40.51	
2025-01-06 18:15:05.44	134.63	40.57	
2025-01-06 18:15:05.64	134.59	40.63	
2025-01-06 18:15:05.85	134.54	40.69	
2025-01-06 18:15:06.06	134.49	40.75	
2025-01-06 18:15:06.26	134.45	40.81	
2025-01-06 18:15:06.46	134.41	40.87	
2025-01-06 18:15:06.67	134.36	40.93	
2025-01-06 18:15:06.88	134.31	40.99	
2025-01-06 18:15:07.08	134.27	41.05	
2025-01-06 18:15:07.29	134.22	41.11	
2025-01-06 18:15:07.49	134.18	41.17	
2025-01-06 18:15:07.70	134.13	41.23	
2025-01-06 18:15:07.90	134.08	41.29	
2025-01-06 18:15:08.11	134.04	41.36	
2025-01-06 18:15:08.31	133.99	41.41	
2025-01-06 18:15:08.52	133.94	41.48	
2025-01-06 18:15:08.72	133.90	41.54	
2025-01-06 18:15:08.93	133.85	41.60	
2025-01-06 18:15:09.14	133.80	41.66	
2025-01-06 18:15:09.34	133.75	41.72	
2025-01-06 18:15:09.55	133.70	41.78	
2025-01-06 18:15:09.75	133.66	41.84	
2025-01-06 18:15:09.97	133.61	41.91	
2025-01-06 18:15:10.17	133.56	41.97	
2025-01-06 18:15:10.38	133.51	42.03	
2025-01-06 18:15:10.58	133.46	42.09	
2025-01-06 18:15:10.79	133.41	42.16	
2025-01-06 18:15:10.99	133.36	42.22	
2025-01-06 18:15:11.20	133.31	42.28	
2025-01-06 18:15:11.40	133.26	42.34	
2025-01-06 18:15:11.61	133.21	42.40	
2025-01-06 18:15:11.81	133.16	42.46	
2025-01-06 18:15:12.02	133.11	42.53	
2025-01-06 18:15:12.22	133.06	42.59	
2025-01-06 18:15:12.43	133.01	42.65	
2025-01-06 18:15:12.63	132.96	42.71	
2025-01-06 18:15:12.84	132.91	42.78	
2025-01-06 18:15:13.04	132.86	42.84	
2025-01-06 18:15:13.25	132.81	42.90	
2025-01-06 18:15:13.45	132.76	42.96	
2025-01-06 18:15:13.66	132.70	43.03	
2025-01-06 18:15:13.86	132.65	43.09	
2025-01-06 18:15:14.06	132.60	43.15	
2025-01-06 18:15:14.27	132.55	43.21	
2025-01-06 18:15:14.48	132.49	43.28	
2025-01-06 18:15:14.68	132.44	43.34	
2025-01-06 18:15:14.89	132.39	43.41	
2025-01-06 18:15:15.09	132.34	43.47	
2025-01-06 18:15:15.30	132.28	43.53	
2025-01-06 18:15:15.50	132.23	43.60	
2025-01-06 18:15:15.71	132.17	43.66	
2025-01-06 18:15:15.91	132.12	43.72	
2025-01-06 18:15:16.11	132.07	43.78	
2025-01-06 18:15:16.32	132.01	43.85	
2025-01-06 18:15:16.53	131.95	43.92	
2025-01-06 18:15:16.73	131.90	43.98	
2025-01-06 18:15:16.94	131.84	44.04	
2025-01-06 18:15:17.16	131.78	44.11	
2025-01-06 18:15:17.36	131.73	44.18	
2025-01-06 18:15:17.57	131.67	44.24	
2025-01-06 18:15:17.77	131.62	44.30	
2025-01-06 18:15:17.98	131.56	44.37	
2025-01-06 18:15:18.18	131.50	44.43	
2025-01-06 18:15:18.39	131.45	44.50	
2025-01-06 18:15:18.59	131.39	44.56	
2025-01-06 18:15:18.80	131.33	44.63	
2025-01-06 18:15:19.00	131.28	44.69	
2025-01-06 18:15:19.21	131.22	44.76	
2025-01-06 18:15:19.41	131.16	44.82	
2025-01-06 18:15:19.62	131.10	44.89	
2025-01-06 18:15:19.82	131.04	44.95	
2025-01-06 18:15:20.03	130.98	45.02	
2025-01-06 18:15:20.23	130.92	45.08	
2025-01-06 18:15:20.43	130.87	45.15	
2025-01-06 18:15:20.64	130.81	45.22	
2025-01-06 18:15:20.85	130.74	45.28	
2025-01-06 18:15:21.05	130.68	45.35	
2025-01-06 18:15:21.27	130.62	45.42	
2025-01-06 18:15:21.47	130.56	45.48	
2025-01-06 18:15:21.68	130.50	45.55	
2025-01-06 18:15:21.88	130.44	45.61	
2025-01-06 18:15:22.09	130.38	45.68	
2025-01-06 18:15:22.29	130.32	45.75	
2025-01-06 18:15:22.50	130.25	45.81	
2025-01-06 18:15:22.70	130.19	45.88	
2025-01-06 18:15:22.91	130.13	45.95	
2025-01-06 18:15:23.11	130.07	46.01	
2025-01-06 18:15:23.32	130.00	46.08	
2025-01-06 18:15:23.54	129.93	46.15	
2025-01-06 18:15:23.74	129.87	46.22	
2025-01-06 18:15:23.95	129.81	46.29	
2025-01-06 18:15:24.15	129.74	46.35	
2025-01-06 18:15:24.36	129.68	46.42	
2025-01-06 18:15:24.56	129.61	46.48	
2025-01-06 18:15:24.76	129.55	46.55	
2025-01-06 18:15:24.97	129.48	46.62	
2025-01-06 18:15:25.18	129.42	46.69	
2025-01-06 18:15:25.38	129.35	46.75	
2025-01-06 18:15:25.59	129.28	46.82	
2025-01-06 18:15:25.79	129.22	46.89	
2025-01-06 18:15:26.00	129.15	46.96	
2025-01-06 18:15:26.21	129.08	47.03	
2025-01-06 18:15:26.41	129.02	47.09	
2025-01-06 18:15:26.62	128.95	47.16	
2025-01-06 18:15:26.83	128.88	47.23	
2025-01-06 18:15:27.04	128.81	47.30	
2025-01-06 18:15:27.24	128.74	47.37	
2025-01-06 18:15:27.45	128.67	47.44	
2025-01-06 18:15:27.66	128.60	47.51	
2025-01-06 18:15:27.86	128.53	47.57	
2025-01-06 18:15:28.06	128.46	47.64	
2025-01-06 18:15:28.27	128.39	47.71	
2025-01-06 18:15:28.47	128.32	47.78	
2025-01-06 18:15:28.68	128.25	47.85	
2025-01-06 18:15:28.88	128.18	47.91	
2025-01-06 18:15:29.08	128.11	47.98	
2025-01-06 18:15:29.29	128.04	48.05	
2025-01-06 18:15:29.50	127.96	48.12	
2025-01-06 18:15:29.70	127.89	48.19	
2025-01-06 18:15:29.91	127.82	48.26	
2025-01-06 18:15:30.11	127.75	48.33	
2025-01-06 18:15:30.31	127.68	48.39	
2025-01-06 18:15:30.52	127.60	48.46	
2025-01-06 18:15:30.73	127.52	48.54	
2025-01-06 18:15:30.93	127.45	48.60	
2025-01-06 18:15:31.14	127.37	48.67	
2025-01-06 18:15:31.34	127.30	48.74	
2025-01-06 18:15:31.55	127.22	48.81	
2025-01-06 18:15:31.75	127.15	48.88	
2025-01-06 18:15:31.96	127.07	48.95	
2025-01-06 18:15:32.16	127.00	49.02	
2025-01-06 18:15:32.37	126.92	49.09	
2025-01-06 18:15:32.57	126.84	49.16	
2025-01-06 18:15:32.77	126.77	49.23	
2025-01-06 18:15:32.98	126.69	49.30	
2025-01-06 18:15:33.18	126.61	49.37	
2025-01-06 18:15:33.39	126.53	49.44	
2025-01-06 18:15:33.59	126.45	49.51	
2025-01-06 18:15:33.80	126.37	49.58	
2025-01-06 18:15:34.00	126.30	49.65	
2025-01-06 18:15:34.21	126.21	49.72	
2025-01-06 18:15:34.41	126.13	49.79	
2025-01-06 18:15:34.62	126.05	49.86	
2025-01-06 18:15:34.82	125.97	49.93	
2025-01-06 18:15:35.03	125.89	50.00	
2025-01-06 18:15:35.23	125.81	50.07	
2025-01-06 18:15:35.44	125.72	50.14	
2025-01-06 18:15:35.64	125.64	50.21	
2025-01-06 18:15:35.85	125.56	50.28	
2025-01-06 18:15:36.05	125.48	50.35	
2025-01-06 18:15:36.26	125.39	50.42	
2025-01-06 18:15:36.46	125.31	50.49	
2025-01-06 18:15:36.67	125.22	50.56	
2025-01-06 18:15:36.87	125.14	50.63	
2025-01-06 18:15:37.08	125.05	50.70	
2025-01-06 18:15:37.29	124.96	50.78	
2025-01-06 18:15:37.49	124.88	50.85	
2025-01-06 18:15:37.69	124.79	50.91	
2025-01-06 18:15:37.90	124.70	50.99	
2025-01-06 18:15:38.11	124.62	51.06	
2025-01-06 18:15:38.31	124.53	51.13	
2025-01-06 18:15:38.53	124.43	51.21	
2025-01-06 18:15:38.73	124.35	51.27	
2025-01-06 18:15:38.94	124.26	51.35	
2025-01-06 18:15:39.15	124.16	51.42	
2025-01-06 18:15:39.35	124.08	51.49	
2025-01-06 18:15:39.56	123.98	51.56	
2025-01-06 18:15:39.76	123.89	51.63	
2025-01-06 18:15:39.97	123.80	51.71	
2025-01-06 18:15:40.17	123.71	51.78	
2025-01-06 18:15:40.38	123.62	51.85	
2025-01-06 18:15:40.58	123.52	51.92	
2025-01-06 18:15:40.79	123.43	51.99	
2025-01-06 18:15:40.99	123.34	52.06	
2025-01-06 18:15:41.20	123.24	52.13	
2025-01-06 18:15:41.41	123.14	52.21	
2025-01-06 18:15:41.61	123.05	52.28	
2025-01-06 18:15:41.81	122.96	52.35	
2025-01-06 18:15:42.02	122.86	52.42	
2025-01-06 18:15:42.22	122.76	52.49	
2025-01-06 18:15:42.43	122.67	52.56	
2025-01-06 18:15:42.64	122.57	52.64	
2025-01-06 18:15:42.85	122.47	52.71	
2025-01-06 18:15:43.06	122.36	52.78	
2025-01-06 18:15:43.27	122.26	52.86	
2025-01-06 18:15:43.47	122.17	52.93	
2025-01-06 18:15:43.68	122.06	53.00	
2025-01-06 18:15:43.89	121.96	53.07	
2025-01-06 18:15:44.10	121.86	53.15	
2025-01-06 18:15:44.31	121.75	53.22	
2025-01-06 18:15:44.51	121.65	53.29	
2025-01-06 18:15:44.72	121.55	53.37	
2025-01-06 18:15:44.92	121.45	53.44	
2025-01-06 18:15:45.12	121.35	53.51	
2025-01-06 18:15:45.33	121.24	53.58	
2025-01-06 18:15:45.53	121.14	53.65	
2025-01-06 18:15:45.74	121.03	53.72	
2025-01-06 18:15:45.94	120.93	53.79	
2025-01-06 18:15:46.15	120.82	53.87	
2025-01-06 18:15:46.35	120.71	53.94	
2025-01-06 18:15:46.56	120.60	54.01	
2025-01-06 18:15:46.76	120.50	54.08	
2025-01-06 18:15:46.97	120.39	54.16	
2025-01-06 18:15:47.17	120.28	54.23	
2025-01-06 18:15:47.38	120.17	54.30	
2025-01-06 18:15:47.58	120.06	54.37	
2025-01-06 18:15:47.79	119.95	54.44	
2025-01-06 18:15:48.00	119.83	54.52	
2025-01-06 18:15:48.20	119.72	54.59	
2025-01-06 18:15:48.41	119.61	54.66	
2025-01-06 18:15:48.61	119.50	54.73	
2025-01-06 18:15:48.82	119.38	54.80	
2025-01-06 18:15:49.02	119.27	54.87	
2025-01-06 18:15:49.24	119.15	54.95	
2025-01-06 18:15:49.45	119.03	55.03	
2025-01-06 18:15:49.65	118.92	55.10	
2025-01-06 18:15:49.86	118.80	55.17	
2025-01-06 18:15:50.06	118.68	55.24	
2025-01-06 18:15:50.27	118.56	55.31	
2025-01-06 18:15:50.47	118.45	55.38	
2025-01-06 18:15:50.68	118.32	55.46	
2025-01-06 18:15:50.88	118.21	55.53	
2025-01-06 18:15:51.09	118.08	55.60	
2025-01-06 18:15:51.29	117.97	55.67	
2025-01-06 18:15:51.50	117.84	55.74	
2025-01-06 18:15:51.71	117.72	55.82	
2025-01-06 18:15:51.91	117.60	55.89	
2025-01-06 18:15:52.12	117.47	55.96	
2025-01-06 18:15:52.32	117.35	56.03	
2025-01-06 18:15:52.53	117.22	56.10	
2025-01-06 18:15:52.74	117.09	56.18	
2025-01-06 18:15:52.95	116.96	56.25	
2025-01-06 18:15:53.15	116.84	56.32	
2025-01-06 18:15:53.36	116.71	56.39	
2025-01-06 18:15:53.56	116.59	56.46	
2025-01-06 18:15:53.77	116.45	56.53	
2025-01-06 18:15:53.97	116.33	56.60	
2025-01-06 18:15:54.18	116.19	56.68	
2025-01-06 18:15:54.38	116.07	56.75	
2025-01-06 18:15:54.58	115.94	56.82	
2025-01-06 18:15:54.79	115.80	56.89	
2025-01-06 18:15:54.99	115.67	56.96	
2025-01-06 18:15:55.20	115.54	57.03	
2025-01-06 18:15:55.40	115.41	57.10	
2025-01-06 18:15:55.61	115.27	57.17	
2025-01-06 18:15:55.81	115.14	57.24	
2025-01-06 18:15:56.02	115.00	57.31	
2025-01-06 18:15:56.23	114.86	57.39	
2025-01-06 18:15:56.43	114.72	57.45	
2025-01-06 18:15:56.64	114.58	57.53	
2025-01-06 18:15:56.84	114.44	57.59	
2025-01-06 18:15:57.05	114.30	57.67	
2025-01-06 18:15:57.25	114.16	57.74	
2025-01-06 18:15:57.46	114.02	57.81	
2025-01-06 18:15:57.66	113.88	57.88	
2025-01-06 18:15:57.86	113.74	57.94	
2025-01-06 18:15:58.07	113.59	58.02	
2025-01-06 18:15:58.28	113.45	58.09	
2025-01-06 18:15:58.48	113.30	58.16	
2025-01-06 18:15:58.68	113.16	58.22	
2025-01-06 18:15:58.89	113.01	58.29	
2025-01-06 18:15:59.10	112.86	58.37	
2025-01-06 18:15:59.30	112.72	58.43	
2025-01-06 18:15:59.51	112.56	58.50	
2025-01-06 18:15:59.71	112.42	58.57	
2025-01-06 18:15:59.91	112.27	58.64	
2025-01-06 18:16:00.12	112.12	58.71	
2025-01-06 18:16:00.32	111.97	58.78	
2025-01-06 18:16:00.53	111.81	58.85	
2025-01-06 18:16:00.73	111.66	58.91	
2025-01-06 18:16:00.94	111.50	58.98	
2025-01-06 18:16:01.14	111.35	59.05	
2025-01-06 18:16:01.35	111.19	59.12	
2025-01-06 18:16:01.55	111.04	59.19	
2025-01-06 18:16:01.76	110.88	59.26	
2025-01-06 18:16:01.96	110.72	59.32	
2025-01-06 18:16:02.17	110.56	59.39	
2025-01-06 18:16:02.37	110.40	59.46	
2025-01-06 18:16:02.58	110.24	59.53	
2025-01-06 18:16:02.78	110.08	59.59	
2025-01-06 18:16:02.99	109.91	59.66	
2025-01-06 18:16:03.19	109.75	59.73	
2025-01-06 18:16:03.40	109.58	59.80	
2025-01-06 18:16:03.61	109.41	59.87	
2025-01-06 18:16:03.81	109.25	59.93	
2025-01-06 18:16:04.01	109.09	60.00	
2025-01-06 18:16:04.22	108.92	60.06	
2025-01-06 18:16:04.42	108.75	60.13	
2025-01-06 18:16:04.63	108.58	60.20	
2025-01-06 18:16:04.83	108.41	60.26	
2025-01-06 18:16:05.04	108.23	60.33	
2025-01-06 18:16:05.24	108.07	60.39	
2025-01-06 18:16:05.45	107.89	60.46	
2025-01-06 18:16:05.65	107.72	60.52	
2025-01-06 18:16:05.86	107.54	60.59	
2025-01-06 18:16:06.06	107.37	60.65	
2025-01-06 18:16:06.27	107.19	60.72	
2025-01-06 18:16:06.47	107.01	60.78	
2025-01-06 18:16:06.68	106.83	60.85	
2025-01-06 18:16:06.88	106.65	60.91	
2025-01-06 18:16:07.09	106.47	60.98	
2025-01-06 18:16:07.29	106.29	61.04	
2025-01-06 18:16:07.50	106.10	61.11	
2025-01-06 18:16:07.71	105.92	61.17	
2025-01-06 18:16:07.91	105.74	61.23	
2025-01-06 18:16:08.11	105.56	61.30	
2025-01-06 18:16:08.32	105.37	61.36	
2025-01-06 18:16:08.52	105.18	61.42	
2025-01-06 18:16:08.73	104.99	61.49	
2025-01-06 18:16:08.93	104.81	61.55	
2025-01-06 18:16:09.14	104.61	61.61	
2025-01-06 18:16:09.34	104.42	61.67	
2025-01-06 18:16:09.55	104.23	61.73	
2025-01-06 18:16:09.75	104.04	61.79	
2025-01-06 18:16:09.96	103.84	61.86	
2025-01-06 18:16:10.17	103.64	61.92	
2025-01-06 18:16:10.37	103.45	61.98	
2025-01-06 18:16:10.57	103.26	62.04	
2025-01-06 18:16:10.78	103.05	62.10	
2025-01-06 18:16:10.99	102.85	62.16	
2025-01-06 18:16:11.19	102.66	62.22	
2025-01-06 18:16:11.40	102.45	62.28	
2025-01-06 18:16:11.60	102.25	62.34	
2025-01-06 18:16:11.81	102.05	62.40	
2025-01-06 18:16:12.01	101.85	62.46	
2025-01-06 18:16:12.22	101.64	62.52	
2025-01-06 18:16:12.42	101.44	62.57	
2025-01-06 18:16:12.62	101.23	62.63	
2025-01-06 18:16:12.83	101.02	62.69	
2025-01-06 18:16:13.04	100.81	62.75	
2025-01-06 18:16:13.24	100.60	62.80	
2025-01-06 18:16:13.45	100.39	62.86	
2025-01-06 18:16:13.65	100.18	62.92	
2025-01-06 18:16:13.86	99.96	62.98	
2025-01-06 18:16:14.06	99.75	63.03	
2025-01-06 18:16:14.27	99.53	63.09	
2025-01-06 18:16:14.47	99.32	63.14	
2025-01-06 18:16:14.67	99.11	63.20	
2025-01-06 18:16:14.88	98.89	63.25	
2025-01-06 18:16:15.08	98.67	63.31	
2025-01-06 18:16:15.29	98.45	63.36	
2025-01-06 18:16:15.49	98.23	63.41	
2025-01-06 18:16:15.70	98.00	63.47	
2025-01-06 18:16:15.90	97.79	63.52	
2025-01-06 18:16:16.11	97.56	63.58	
2025-01-06 18:16:16.31	97.34	63.63	
2025-01-06 18:16:16.52	97.11	63.68	
2025-01-06 18:16:16.72	96.88	63.73	
2025-01-06 18:16:16.94	96.64	63.79	
2025-01-06 18:16:17.15	96.41	63.84	
2025-01-06 18:16:17.35	96.18	63.89	
2025-01-06 18:16:17.56	95.94	63.94	
2025-01-06 18:16:17.77	95.71	63.99	
2025-01-06 18:16:17.97	95.48	64.04	
2025-01-06 18:16:18.17	95.25	64.09	
2025-01-06 18:16:18.38	95.01	64.14	
2025-01-06 18:16:18.59	94.77	64.19	
2025-01-06 18:16:18.79	94.53	64.24	
2025-01-06 18:16:18.99	94.30	64.29	
