passes_logs/2025/01/06/SPB_Silybum_02/SPB_Silybum_02__20250106_214320_SUOMI_NPP_rec.log

#Pass ID: 20250106_214320_SUOMI NPP
#Satellite: SUOMI NPP
#Configuration: NPP
#Start time: 2025-01-06 21:43:20

#Version: 2.0.20230423
#Station: SPB_Silybum_02
#Location: 30.233357 lon 59.946436 lat
#TLE: 1 37849U 11061A   25006.17970494  .00000315  00000+0  17023-3 0  9998
#TLE: 2 37849  98.7437 307.2805 0001982  54.5030 305.6331 14.19533747683667

#Time	Az	El	Level	Level2	SNR	BER	Gain	Gain2
2025-01-06 21:43:22.07	36.58	4.05	
2025-01-06 21:43:22.28	36.60	4.06	
2025-01-06 21:43:22.49	36.63	4.07	
2025-01-06 21:43:22.69	36.65	4.07	
2025-01-06 21:43:22.90	36.68	4.08	
2025-01-06 21:43:23.10	36.70	4.09	
2025-01-06 21:43:23.31	36.73	4.10	
2025-01-06 21:43:23.51	36.75	4.10	
2025-01-06 21:43:23.72	36.78	4.11	
2025-01-06 21:43:23.92	36.80	4.12	
2025-01-06 21:43:24.13	36.83	4.13	
2025-01-06 21:43:24.33	36.85	4.14	
2025-01-06 21:43:24.54	36.88	4.14	
2025-01-06 21:43:24.74	36.90	4.15	
2025-01-06 21:43:24.95	36.93	4.16	
2025-01-06 21:43:25.15	36.95	4.17	
2025-01-06 21:43:25.36	36.98	4.18	
2025-01-06 21:43:25.56	37.00	4.18	
2025-01-06 21:43:25.77	37.03	4.19	
2025-01-06 21:43:25.97	37.05	4.20	
2025-01-06 21:43:26.17	37.08	4.21	
2025-01-06 21:43:26.38	37.10	4.21	
2025-01-06 21:43:26.59	37.13	4.22	
2025-01-06 21:43:26.79	37.15	4.23	
2025-01-06 21:43:27.00	37.18	4.24	
2025-01-06 21:43:27.20	37.20	4.25	
2025-01-06 21:43:27.40	37.23	4.25	
2025-01-06 21:43:27.61	37.25	4.26	
2025-01-06 21:43:27.81	37.28	4.27	
2025-01-06 21:43:28.02	37.30	4.28	
2025-01-06 21:43:28.23	37.33	4.29	
2025-01-06 21:43:28.43	37.35	4.29	
2025-01-06 21:43:28.64	37.38	4.30	
2025-01-06 21:43:28.84	37.40	4.31	
2025-01-06 21:43:29.05	37.43	4.32	
2025-01-06 21:43:29.25	37.45	4.32	
2025-01-06 21:43:29.47	37.48	4.33	
2025-01-06 21:43:29.68	37.51	4.34	
2025-01-06 21:43:29.88	37.53	4.35	
2025-01-06 21:43:30.09	37.56	4.36	
2025-01-06 21:43:30.30	37.58	4.36	
2025-01-06 21:43:30.50	37.61	4.37	
2025-01-06 21:43:30.71	37.63	4.38	
2025-01-06 21:43:30.91	37.66	4.39	
2025-01-06 21:43:31.12	37.69	4.40	
2025-01-06 21:43:31.32	37.71	4.40	
2025-01-06 21:43:31.53	37.74	4.41	
2025-01-06 21:43:31.74	37.76	4.42	
2025-01-06 21:43:31.94	37.79	4.43	
2025-01-06 21:43:32.15	37.81	4.43	
2025-01-06 21:43:32.35	37.84	4.44	
2025-01-06 21:43:32.56	37.86	4.45	
2025-01-06 21:43:32.76	37.89	4.46	
2025-01-06 21:43:32.97	37.91	4.47	
2025-01-06 21:43:33.17	37.94	4.47	
2025-01-06 21:43:33.38	37.97	4.48	
2025-01-06 21:43:33.58	37.99	4.49	
2025-01-06 21:43:33.80	38.02	4.50	
2025-01-06 21:43:34.00	38.04	4.51	
2025-01-06 21:43:34.21	38.07	4.51	
2025-01-06 21:43:34.42	38.09	4.52	
2025-01-06 21:43:34.62	38.12	4.53	
2025-01-06 21:43:34.83	38.15	4.54	
2025-01-06 21:43:35.03	38.17	4.54	
2025-01-06 21:43:35.24	38.20	4.55	
2025-01-06 21:43:35.44	38.22	4.56	
2025-01-06 21:43:35.65	38.25	4.57	
2025-01-06 21:43:35.85	38.27	4.58	
2025-01-06 21:43:36.06	38.30	4.58	
2025-01-06 21:43:36.26	38.32	4.59	
2025-01-06 21:43:36.46	38.35	4.60	
2025-01-06 21:43:36.67	38.38	4.61	
2025-01-06 21:43:36.87	38.40	4.61	
2025-01-06 21:43:37.08	38.43	4.62	
2025-01-06 21:43:37.29	38.45	4.63	
2025-01-06 21:43:37.49	38.48	4.64	
2025-01-06 21:43:37.70	38.51	4.64	
2025-01-06 21:43:37.91	38.53	4.65	
2025-01-06 21:43:38.11	38.56	4.66	
2025-01-06 21:43:38.32	38.58	4.67	
2025-01-06 21:43:38.52	38.61	4.68	
2025-01-06 21:43:38.73	38.63	4.68	
2025-01-06 21:43:38.93	38.66	4.69	
2025-01-06 21:43:39.15	38.69	4.70	
2025-01-06 21:43:39.36	38.71	4.71	
2025-01-06 21:43:39.56	38.74	4.71	
2025-01-06 21:43:39.77	38.77	4.72	
2025-01-06 21:43:39.97	38.79	4.73	
2025-01-06 21:43:40.18	38.82	4.74	
2025-01-06 21:43:40.38	38.84	4.75	
2025-01-06 21:43:40.59	38.87	4.75	
2025-01-06 21:43:40.79	38.90	4.76	
2025-01-06 21:43:41.00	38.92	4.77	
2025-01-06 21:43:41.20	38.95	4.78	
2025-01-06 21:43:41.41	38.97	4.78	
2025-01-06 21:43:41.61	39.00	4.79	
2025-01-06 21:43:41.82	39.03	4.80	
2025-01-06 21:43:42.03	39.05	4.81	
2025-01-06 21:43:42.23	39.08	4.81	
2025-01-06 21:43:42.44	39.10	4.82	
2025-01-06 21:43:42.64	39.13	4.83	
2025-01-06 21:43:42.85	39.16	4.84	
2025-01-06 21:43:43.05	39.18	4.85	
2025-01-06 21:43:43.26	39.21	4.85	
2025-01-06 21:43:43.46	39.23	4.86	
2025-01-06 21:43:43.67	39.26	4.87	
2025-01-06 21:43:43.87	39.29	4.88	
2025-01-06 21:43:44.08	39.31	4.88	
2025-01-06 21:43:44.28	39.34	4.89	
2025-01-06 21:43:44.49	39.37	4.90	
2025-01-06 21:43:44.70	39.39	4.91	
2025-01-06 21:43:44.90	39.42	4.91	
2025-01-06 21:43:45.11	39.45	4.92	
2025-01-06 21:43:45.31	39.47	4.93	
2025-01-06 21:43:45.52	39.50	4.94	
2025-01-06 21:43:45.72	39.52	4.94	
2025-01-06 21:43:45.93	39.55	4.95	
2025-01-06 21:43:46.14	39.58	4.96	
2025-01-06 21:43:46.34	39.60	4.97	
2025-01-06 21:43:46.55	39.63	4.98	
2025-01-06 21:43:46.75	39.66	4.98	
2025-01-06 21:43:46.96	39.68	4.99	
2025-01-06 21:43:47.16	39.71	5.00	
2025-01-06 21:43:47.37	39.74	5.01	
2025-01-06 21:43:47.58	39.76	5.01	
2025-01-06 21:43:47.78	39.79	5.02	
2025-01-06 21:43:47.99	39.81	5.03	
2025-01-06 21:43:48.19	39.84	5.04	
2025-01-06 21:43:48.40	39.87	5.04	
2025-01-06 21:43:48.61	39.89	5.05	
2025-01-06 21:43:48.81	39.92	5.06	
2025-01-06 21:43:49.01	39.95	5.07	
2025-01-06 21:43:49.22	39.97	5.07	
2025-01-06 21:43:49.43	40.00	5.08	
2025-01-06 21:43:49.63	40.03	5.09	
2025-01-06 21:43:49.84	40.05	5.10	
2025-01-06 21:43:50.04	40.08	5.10	
2025-01-06 21:43:50.25	40.11	5.11	
2025-01-06 21:43:50.45	40.13	5.12	
2025-01-06 21:43:50.66	40.16	5.13	
2025-01-06 21:43:50.86	40.19	5.13	
2025-01-06 21:43:51.07	40.21	5.14	
2025-01-06 21:43:51.28	40.24	5.15	
2025-01-06 21:43:51.48	40.27	5.16	
2025-01-06 21:43:51.69	40.29	5.17	
2025-01-06 21:43:51.89	40.32	5.17	
2025-01-06 21:43:52.10	40.35	5.18	
2025-01-06 21:43:52.30	40.37	5.19	
2025-01-06 21:43:52.51	40.40	5.20	
2025-01-06 21:43:52.71	40.43	5.20	
2025-01-06 21:43:52.92	40.45	5.21	
2025-01-06 21:43:53.12	40.48	5.22	
2025-01-06 21:43:53.33	40.51	5.23	
2025-01-06 21:43:53.53	40.53	5.23	
2025-01-06 21:43:53.74	40.56	5.24	
2025-01-06 21:43:53.94	40.59	5.25	
2025-01-06 21:43:54.16	40.62	5.26	
2025-01-06 21:43:54.37	40.64	5.26	
2025-01-06 21:43:54.57	40.67	5.27	
2025-01-06 21:43:54.78	40.70	5.28	
2025-01-06 21:43:54.99	40.72	5.29	
2025-01-06 21:43:55.19	40.75	5.29	
2025-01-06 21:43:55.40	40.78	5.30	
2025-01-06 21:43:55.60	40.80	5.31	
2025-01-06 21:43:55.81	40.83	5.32	
2025-01-06 21:43:56.01	40.86	5.32	
2025-01-06 21:43:56.22	40.89	5.33	
2025-01-06 21:43:56.42	40.91	5.34	
2025-01-06 21:43:56.63	40.94	5.35	
2025-01-06 21:43:56.84	40.97	5.35	
2025-01-06 21:43:57.04	40.99	5.36	
2025-01-06 21:43:57.25	41.02	5.37	
2025-01-06 21:43:57.45	41.05	5.38	
2025-01-06 21:43:57.66	41.08	5.38	
2025-01-06 21:43:57.86	41.10	5.39	
2025-01-06 21:43:58.07	41.13	5.40	
2025-01-06 21:43:58.27	41.16	5.41	
2025-01-06 21:43:58.47	41.18	5.41	
2025-01-06 21:43:58.68	41.21	5.42	
2025-01-06 21:43:58.89	41.24	5.43	
2025-01-06 21:43:59.09	41.26	5.44	
2025-01-06 21:43:59.30	41.29	5.44	
2025-01-06 21:43:59.50	41.32	5.45	
2025-01-06 21:43:59.71	41.35	5.46	
2025-01-06 21:43:59.91	41.37	5.47	
2025-01-06 21:44:00.12	41.40	5.47	
2025-01-06 21:44:00.33	41.43	5.48	
2025-01-06 21:44:00.53	41.46	5.49	
2025-01-06 21:44:00.74	41.48	5.50	
2025-01-06 21:44:00.94	41.51	5.50	
2025-01-06 21:44:01.15	41.54	5.51	
2025-01-06 21:44:01.35	41.57	5.52	
2025-01-06 21:44:01.56	41.59	5.52	
2025-01-06 21:44:01.76	41.62	5.53	
2025-01-06 21:44:01.97	41.65	5.54	
2025-01-06 21:44:02.17	41.67	5.55	
2025-01-06 21:44:02.38	41.70	5.55	
2025-01-06 21:44:02.58	41.73	5.56	
2025-01-06 21:44:02.79	41.76	5.57	
2025-01-06 21:44:02.99	41.78	5.58	
2025-01-06 21:44:03.20	41.81	5.58	
2025-01-06 21:44:03.41	41.84	5.59	
2025-01-06 21:44:03.61	41.87	5.60	
2025-01-06 21:44:03.81	41.89	5.61	
2025-01-06 21:44:04.02	41.92	5.61	
2025-01-06 21:44:04.23	41.95	5.62	
2025-01-06 21:44:04.43	41.98	5.63	
2025-01-06 21:44:04.64	42.00	5.64	
2025-01-06 21:44:04.84	42.03	5.64	
2025-01-06 21:44:05.05	42.06	5.65	
2025-01-06 21:44:05.25	42.09	5.66	
2025-01-06 21:44:05.46	42.11	5.66	
2025-01-06 21:44:05.66	42.14	5.67	
2025-01-06 21:44:05.87	42.17	5.68	
2025-01-06 21:44:06.07	42.20	5.69	
2025-01-06 21:44:06.28	42.23	5.69	
2025-01-06 21:44:06.48	42.25	5.70	
2025-01-06 21:44:06.69	42.28	5.71	
2025-01-06 21:44:06.90	42.31	5.72	
2025-01-06 21:44:07.10	42.34	5.72	
2025-01-06 21:44:07.31	42.36	5.73	
2025-01-06 21:44:07.51	42.39	5.74	
2025-01-06 21:44:07.72	42.42	5.75	
2025-01-06 21:44:07.93	42.45	5.75	
2025-01-06 21:44:08.13	42.47	5.76	
2025-01-06 21:44:08.34	42.50	5.77	
2025-01-06 21:44:08.54	42.53	5.77	
2025-01-06 21:44:08.75	42.56	5.78	
2025-01-06 21:44:08.95	42.59	5.79	
2025-01-06 21:44:09.16	42.61	5.80	
2025-01-06 21:44:09.36	42.64	5.80	
2025-01-06 21:44:09.57	42.67	5.81	
2025-01-06 21:44:09.78	42.70	5.82	
2025-01-06 21:44:09.98	42.73	5.83	
2025-01-06 21:44:10.18	42.75	5.83	
2025-01-06 21:44:10.39	42.78	5.84	
2025-01-06 21:44:10.59	42.81	5.85	
2025-01-06 21:44:10.80	42.84	5.85	
2025-01-06 21:44:11.01	42.87	5.86	
2025-01-06 21:44:11.21	42.89	5.87	
2025-01-06 21:44:11.42	42.92	5.88	
2025-01-06 21:44:11.62	42.95	5.88	
2025-01-06 21:44:11.83	42.98	5.89	
2025-01-06 21:44:12.03	43.00	5.90	
2025-01-06 21:44:12.24	43.03	5.91	
2025-01-06 21:44:12.44	43.06	5.91	
2025-01-06 21:44:12.65	43.09	5.92	
2025-01-06 21:44:12.85	43.12	5.93	
2025-01-06 21:44:13.06	43.15	5.93	
2025-01-06 21:44:13.27	43.17	5.94	
2025-01-06 21:44:13.47	43.20	5.95	
2025-01-06 21:44:13.68	43.23	5.96	
2025-01-06 21:44:13.88	43.26	5.96	
2025-01-06 21:44:14.09	43.29	5.97	
2025-01-06 21:44:14.29	43.31	5.98	
2025-01-06 21:44:14.50	43.34	5.98	
2025-01-06 21:44:14.70	43.37	5.99	
2025-01-06 21:44:14.91	43.40	6.00	
2025-01-06 21:44:15.11	43.43	6.01	
2025-01-06 21:44:15.32	43.46	6.01	
2025-01-06 21:44:15.52	43.48	6.02	
2025-01-06 21:44:15.73	43.51	6.03	
2025-01-06 21:44:15.94	43.54	6.03	
2025-01-06 21:44:16.14	43.57	6.04	
2025-01-06 21:44:16.35	43.60	6.05	
2025-01-06 21:44:16.55	43.62	6.06	
2025-01-06 21:44:16.76	43.65	6.06	
2025-01-06 21:44:16.96	43.68	6.07	
2025-01-06 21:44:17.17	43.71	6.08	
2025-01-06 21:44:17.37	43.74	6.08	
2025-01-06 21:44:17.58	43.77	6.09	
2025-01-06 21:44:17.78	43.79	6.10	
2025-01-06 21:44:17.99	43.82	6.11	
2025-01-06 21:44:18.19	43.85	6.11	
2025-01-06 21:44:18.40	43.88	6.12	
2025-01-06 21:44:18.61	43.91	6.13	
2025-01-06 21:44:18.82	43.94	6.13	
2025-01-06 21:44:19.03	43.97	6.14	
2025-01-06 21:44:19.24	44.00	6.15	
2025-01-06 21:44:19.44	44.02	6.16	
2025-01-06 21:44:19.65	44.05	6.16	
2025-01-06 21:44:19.85	44.08	6.17	
2025-01-06 21:44:20.06	44.11	6.18	
2025-01-06 21:44:20.27	44.14	6.18	
2025-01-06 21:44:20.47	44.17	6.19	
2025-01-06 21:44:20.68	44.20	6.20	
2025-01-06 21:44:20.88	44.23	6.21	
2025-01-06 21:44:21.09	44.25	6.21	
2025-01-06 21:44:21.29	44.28	6.22	
2025-01-06 21:44:21.50	44.31	6.23	
2025-01-06 21:44:21.70	44.34	6.23	
2025-01-06 21:44:21.91	44.37	6.24	
2025-01-06 21:44:22.11	44.40	6.25	
2025-01-06 21:44:22.32	44.43	6.26	
2025-01-06 21:44:22.52	44.45	6.26	
2025-01-06 21:44:22.73	44.48	6.27	
2025-01-06 21:44:22.93	44.51	6.28	
2025-01-06 21:44:23.13	44.54	6.28	
2025-01-06 21:44:23.34	44.57	6.29	
2025-01-06 21:44:23.55	44.60	6.30	
2025-01-06 21:44:23.75	44.63	6.30	
2025-01-06 21:44:23.96	44.66	6.31	
2025-01-06 21:44:24.16	44.68	6.32	
2025-01-06 21:44:24.37	44.71	6.33	
2025-01-06 21:44:24.58	44.74	6.33	
2025-01-06 21:44:24.78	44.77	6.34	
2025-01-06 21:44:24.99	44.80	6.35	
2025-01-06 21:44:25.19	44.83	6.35	
2025-01-06 21:44:25.40	44.86	6.36	
2025-01-06 21:44:25.60	44.89	6.37	
2025-01-06 21:44:25.81	44.92	6.37	
2025-01-06 21:44:26.02	44.95	6.38	
2025-01-06 21:44:26.22	44.97	6.39	
2025-01-06 21:44:26.42	45.00	6.40	
2025-01-06 21:44:26.63	45.03	6.40	
2025-01-06 21:44:26.84	45.06	6.41	
2025-01-06 21:44:27.04	45.09	6.42	
2025-01-06 21:44:27.24	45.12	6.42	
2025-01-06 21:44:27.45	45.15	6.43	
2025-01-06 21:44:27.66	45.18	6.44	
2025-01-06 21:44:27.86	45.21	6.44	
2025-01-06 21:44:28.07	45.24	6.45	
2025-01-06 21:44:28.27	45.26	6.46	
2025-01-06 21:44:28.48	45.29	6.46	
2025-01-06 21:44:28.68	45.32	6.47	
2025-01-06 21:44:28.89	45.35	6.48	
2025-01-06 21:44:29.09	45.38	6.49	
2025-01-06 21:44:29.30	45.41	6.49	
2025-01-06 21:44:29.50	45.44	6.50	
2025-01-06 21:44:29.71	45.47	6.51	
2025-01-06 21:44:29.91	45.50	6.51	
2025-01-06 21:44:30.12	45.53	6.52	
2025-01-06 21:44:30.33	45.56	6.53	
2025-01-06 21:44:30.53	45.58	6.53	
2025-01-06 21:44:30.74	45.61	6.54	
2025-01-06 21:44:30.94	45.64	6.55	
2025-01-06 21:44:31.15	45.67	6.55	
2025-01-06 21:44:31.36	45.70	6.56	
2025-01-06 21:44:31.56	45.73	6.57	
2025-01-06 21:44:31.77	45.76	6.57	
2025-01-06 21:44:31.97	45.79	6.58	
2025-01-06 21:44:32.18	45.82	6.59	
2025-01-06 21:44:32.38	45.85	6.60	
2025-01-06 21:44:32.60	45.88	6.60	
2025-01-06 21:44:32.80	45.91	6.61	
2025-01-06 21:44:33.01	45.94	6.62	
2025-01-06 21:44:33.21	45.97	6.62	
2025-01-06 21:44:33.42	46.00	6.63	
2025-01-06 21:44:33.63	46.03	6.64	
2025-01-06 21:44:33.83	46.06	6.64	
2025-01-06 21:44:34.04	46.09	6.65	
2025-01-06 21:44:34.24	46.11	6.66	
2025-01-06 21:44:34.45	46.14	6.66	
2025-01-06 21:44:34.65	46.17	6.67	
2025-01-06 21:44:34.86	46.20	6.68	
2025-01-06 21:44:35.06	46.23	6.68	
2025-01-06 21:44:35.27	46.26	6.69	
2025-01-06 21:44:35.48	46.29	6.70	
2025-01-06 21:44:35.68	46.32	6.70	
2025-01-06 21:44:35.88	46.35	6.71	
2025-01-06 21:44:36.09	46.38	6.72	
2025-01-06 21:44:36.30	46.41	6.72	
2025-01-06 21:44:36.50	46.44	6.73	
2025-01-06 21:44:36.71	46.47	6.74	
2025-01-06 21:44:36.91	46.50	6.74	
2025-01-06 21:44:37.12	46.53	6.75	
2025-01-06 21:44:37.32	46.56	6.76	
2025-01-06 21:44:37.53	46.59	6.76	
2025-01-06 21:44:37.73	46.62	6.77	
2025-01-06 21:44:37.94	46.65	6.78	
2025-01-06 21:44:38.14	46.68	6.78	
2025-01-06 21:44:38.35	46.71	6.79	
2025-01-06 21:44:38.55	46.74	6.80	
2025-01-06 21:44:38.76	46.77	6.81	
2025-01-06 21:44:38.96	46.80	6.81	
2025-01-06 21:44:39.17	46.83	6.82	
2025-01-06 21:44:39.37	46.86	6.82	
2025-01-06 21:44:39.58	46.89	6.83	
2025-01-06 21:44:39.79	46.92	6.84	
2025-01-06 21:44:39.99	46.95	6.85	
2025-01-06 21:44:40.19	46.97	6.85	
2025-01-06 21:44:40.40	47.01	6.86	
2025-01-06 21:44:40.61	47.04	6.87	
2025-01-06 21:44:40.81	47.06	6.87	
2025-01-06 21:44:41.01	47.09	6.88	
2025-01-06 21:44:41.22	47.12	6.88	
2025-01-06 21:44:41.42	47.15	6.89	
2025-01-06 21:44:41.63	47.18	6.90	
2025-01-06 21:44:41.84	47.21	6.90	
2025-01-06 21:44:42.04	47.24	6.91	
2025-01-06 21:44:42.25	47.27	6.92	
2025-01-06 21:44:42.45	47.30	6.92	
2025-01-06 21:44:42.66	47.33	6.93	
2025-01-06 21:44:42.87	47.37	6.94	
2025-01-06 21:44:43.07	47.39	6.94	
2025-01-06 21:44:43.27	47.42	6.95	
2025-01-06 21:44:43.48	47.45	6.96	
2025-01-06 21:44:43.68	47.48	6.96	
2025-01-06 21:44:43.89	47.51	6.97	
2025-01-06 21:44:44.09	47.54	6.98	
2025-01-06 21:44:44.30	47.57	6.98	
2025-01-06 21:44:44.50	47.60	6.99	
2025-01-06 21:44:44.71	47.64	7.00	
2025-01-06 21:44:44.91	47.66	7.00	
2025-01-06 21:44:45.12	47.70	7.01	
2025-01-06 21:44:45.32	47.72	7.02	
2025-01-06 21:44:45.54	47.76	7.02	
2025-01-06 21:44:45.74	47.79	7.03	
2025-01-06 21:44:45.95	47.82	7.04	
2025-01-06 21:44:46.15	47.85	7.04	
2025-01-06 21:44:46.36	47.88	7.05	
2025-01-06 21:44:46.56	47.91	7.06	
2025-01-06 21:44:46.77	47.94	7.06	
2025-01-06 21:44:46.97	47.97	7.07	
2025-01-06 21:44:47.18	48.00	7.08	
2025-01-06 21:44:47.39	48.03	7.08	
2025-01-06 21:44:47.59	48.06	7.09	
2025-01-06 21:44:47.80	48.09	7.09	
2025-01-06 21:44:48.00	48.12	7.10	
2025-01-06 21:44:48.21	48.15	7.11	
2025-01-06 21:44:48.42	48.18	7.11	
2025-01-06 21:44:48.62	48.21	7.12	
2025-01-06 21:44:48.83	48.24	7.13	
2025-01-06 21:44:49.03	48.27	7.13	
2025-01-06 21:44:49.24	48.30	7.14	
2025-01-06 21:44:49.44	48.33	7.15	
2025-01-06 21:44:49.65	48.36	7.15	
2025-01-06 21:44:49.85	48.39	7.16	
2025-01-06 21:44:50.06	48.43	7.17	
2025-01-06 21:44:50.26	48.45	7.17	
2025-01-06 21:44:50.47	48.49	7.18	
2025-01-06 21:44:50.67	48.52	7.18	
2025-01-06 21:44:50.88	48.55	7.19	
2025-01-06 21:44:51.08	48.58	7.20	
2025-01-06 21:44:51.29	48.61	7.20	
2025-01-06 21:44:51.50	48.64	7.21	
2025-01-06 21:44:51.70	48.67	7.22	
2025-01-06 21:44:51.92	48.70	7.22	
2025-01-06 21:44:52.13	48.73	7.23	
2025-01-06 21:44:52.33	48.76	7.24	
2025-01-06 21:44:52.54	48.79	7.24	
2025-01-06 21:44:52.74	48.82	7.25	
2025-01-06 21:44:52.96	48.86	7.26	
2025-01-06 21:44:53.17	48.89	7.26	
2025-01-06 21:44:53.37	48.92	7.27	
2025-01-06 21:44:53.59	48.95	7.28	
2025-01-06 21:44:53.80	48.98	7.28	
2025-01-06 21:44:54.01	49.01	7.29	
2025-01-06 21:44:54.22	49.05	7.29	
2025-01-06 21:44:54.42	49.08	7.30	
2025-01-06 21:44:54.63	49.11	7.31	
2025-01-06 21:44:54.84	49.14	7.31	
2025-01-06 21:44:55.04	49.17	7.32	
2025-01-06 21:44:55.25	49.20	7.33	
2025-01-06 21:44:55.45	49.23	7.33	
2025-01-06 21:44:55.66	49.26	7.34	
2025-01-06 21:44:55.86	49.29	7.34	
2025-01-06 21:44:56.07	49.32	7.35	
2025-01-06 21:44:56.27	49.35	7.36	
2025-01-06 21:44:56.48	49.38	7.36	
2025-01-06 21:44:56.69	49.42	7.37	
2025-01-06 21:44:56.89	49.45	7.38	
2025-01-06 21:44:57.10	49.48	7.38	
2025-01-06 21:44:57.30	49.51	7.39	
2025-01-06 21:44:57.51	49.54	7.39	
2025-01-06 21:44:57.71	49.57	7.40	
2025-01-06 21:44:57.92	49.60	7.41	
2025-01-06 21:44:58.13	49.63	7.41	
2025-01-06 21:44:58.33	49.66	7.42	
2025-01-06 21:44:58.53	49.69	7.43	
2025-01-06 21:44:58.74	49.73	7.43	
2025-01-06 21:44:58.95	49.76	7.44	
2025-01-06 21:44:59.15	49.79	7.44	
2025-01-06 21:44:59.36	49.82	7.45	
2025-01-06 21:44:59.56	49.85	7.46	
2025-01-06 21:44:59.77	49.88	7.46	
2025-01-06 21:44:59.97	49.91	7.47	
2025-01-06 21:45:00.17	49.94	7.47	
2025-01-06 21:45:00.38	49.97	7.48	
2025-01-06 21:45:00.58	50.00	7.49	
2025-01-06 21:45:00.79	50.04	7.49	
2025-01-06 21:45:01.00	50.07	7.50	
2025-01-06 21:45:01.20	50.10	7.51	
2025-01-06 21:45:01.40	50.13	7.51	
2025-01-06 21:45:01.61	50.16	7.52	
2025-01-06 21:45:01.82	50.19	7.52	
2025-01-06 21:45:02.02	50.22	7.53	
2025-01-06 21:45:02.23	50.26	7.54	
2025-01-06 21:45:02.44	50.29	7.54	
2025-01-06 21:45:02.65	50.32	7.55	
2025-01-06 21:45:02.86	50.35	7.55	
2025-01-06 21:45:03.06	50.38	7.56	
2025-01-06 21:45:03.27	50.41	7.57	
2025-01-06 21:45:03.48	50.45	7.57	
2025-01-06 21:45:03.69	50.48	7.58	
2025-01-06 21:45:03.90	50.51	7.59	
2025-01-06 21:45:04.10	50.54	7.59	
2025-01-06 21:45:04.31	50.57	7.60	
2025-01-06 21:45:04.51	50.60	7.60	
2025-01-06 21:45:04.72	50.64	7.61	
2025-01-06 21:45:04.92	50.67	7.62	
2025-01-06 21:45:05.13	50.70	7.62	
2025-01-06 21:45:05.33	50.73	7.63	
2025-01-06 21:45:05.54	50.76	7.63	
2025-01-06 21:45:05.76	50.79	7.64	
2025-01-06 21:45:05.96	50.82	7.65	
2025-01-06 21:45:06.17	50.86	7.65	
2025-01-06 21:45:06.37	50.89	7.66	
2025-01-06 21:45:06.58	50.92	7.66	
2025-01-06 21:45:06.78	50.95	7.67	
2025-01-06 21:45:06.99	50.98	7.68	
2025-01-06 21:45:07.20	51.02	7.68	
2025-01-06 21:45:07.40	51.05	7.69	
2025-01-06 21:45:07.61	51.08	7.69	
2025-01-06 21:45:07.81	51.11	7.70	
2025-01-06 21:45:08.02	51.14	7.71	
2025-01-06 21:45:08.22	51.17	7.71	
2025-01-06 21:45:08.43	51.20	7.72	
2025-01-06 21:45:08.64	51.24	7.72	
2025-01-06 21:45:08.84	51.27	7.73	
2025-01-06 21:45:09.05	51.30	7.74	
2025-01-06 21:45:09.25	51.33	7.74	
2025-01-06 21:45:09.45	51.36	7.75	
2025-01-06 21:45:09.66	51.39	7.75	
2025-01-06 21:45:09.87	51.43	7.76	
2025-01-06 21:45:10.07	51.46	7.76	
2025-01-06 21:45:10.27	51.49	7.77	
2025-01-06 21:45:10.48	51.52	7.78	
2025-01-06 21:45:10.69	51.55	7.78	
2025-01-06 21:45:10.89	51.58	7.79	
2025-01-06 21:45:11.10	51.62	7.79	
2025-01-06 21:45:11.30	51.65	7.80	
2025-01-06 21:45:11.51	51.68	7.81	
2025-01-06 21:45:11.71	51.71	7.81	
2025-01-06 21:45:11.92	51.74	7.82	
2025-01-06 21:45:12.12	51.78	7.82	
2025-01-06 21:45:12.33	51.81	7.83	
2025-01-06 21:45:12.53	51.84	7.83	
2025-01-06 21:45:12.74	51.87	7.84	
2025-01-06 21:45:12.95	51.90	7.85	
2025-01-06 21:45:13.15	51.94	7.85	
2025-01-06 21:45:13.36	51.97	7.86	
2025-01-06 21:45:13.56	52.00	7.86	
2025-01-06 21:45:13.76	52.03	7.87	
2025-01-06 21:45:13.97	52.06	7.87	
2025-01-06 21:45:14.17	52.09	7.88	
2025-01-06 21:45:14.38	52.13	7.89	
2025-01-06 21:45:14.59	52.16	7.89	
2025-01-06 21:45:14.79	52.19	7.90	
2025-01-06 21:45:15.00	52.22	7.90	
2025-01-06 21:45:15.20	52.25	7.91	
2025-01-06 21:45:15.41	52.29	7.92	
2025-01-06 21:45:15.61	52.32	7.92	
2025-01-06 21:45:15.82	52.35	7.93	
2025-01-06 21:45:16.02	52.38	7.93	
2025-01-06 21:45:16.23	52.42	7.94	
2025-01-06 21:45:16.43	52.45	7.94	
2025-01-06 21:45:16.64	52.48	7.95	
2025-01-06 21:45:16.84	52.51	7.95	
2025-01-06 21:45:17.05	52.54	7.96	
2025-01-06 21:45:17.26	52.58	7.97	
2025-01-06 21:45:17.46	52.61	7.97	
2025-01-06 21:45:17.66	52.64	7.98	
2025-01-06 21:45:17.87	52.67	7.98	
2025-01-06 21:45:18.08	52.71	7.99	
2025-01-06 21:45:18.28	52.74	7.99	
2025-01-06 21:45:18.49	52.77	8.00	
2025-01-06 21:45:18.69	52.80	8.01	
2025-01-06 21:45:18.90	52.83	8.01	
2025-01-06 21:45:19.10	52.87	8.02	
2025-01-06 21:45:19.31	52.90	8.02	
2025-01-06 21:45:19.51	52.93	8.03	
2025-01-06 21:45:19.72	52.96	8.03	
2025-01-06 21:45:19.92	52.99	8.04	
2025-01-06 21:45:20.13	53.03	8.04	
2025-01-06 21:45:20.34	53.06	8.05	
2025-01-06 21:45:20.54	53.09	8.06	
2025-01-06 21:45:20.75	53.12	8.06	
2025-01-06 21:45:20.95	53.16	8.07	
2025-01-06 21:45:21.16	53.19	8.07	
2025-01-06 21:45:21.36	53.22	8.08	
2025-01-06 21:45:21.57	53.25	8.08	
2025-01-06 21:45:21.77	53.29	8.09	
2025-01-06 21:45:21.98	53.32	8.09	
2025-01-06 21:45:22.18	53.35	8.10	
2025-01-06 21:45:22.39	53.38	8.11	
2025-01-06 21:45:22.59	53.42	8.11	
2025-01-06 21:45:22.80	53.45	8.12	
2025-01-06 21:45:23.00	53.48	8.12	
2025-01-06 21:45:23.21	53.51	8.13	
2025-01-06 21:45:23.42	53.55	8.13	
2025-01-06 21:45:23.62	53.58	8.14	
2025-01-06 21:45:23.83	53.61	8.14	
2025-01-06 21:45:24.03	53.64	8.15	
2025-01-06 21:45:24.24	53.68	8.15	
2025-01-06 21:45:24.44	53.71	8.16	
2025-01-06 21:45:24.65	53.74	8.17	
2025-01-06 21:45:24.85	53.77	8.17	
2025-01-06 21:45:25.06	53.81	8.18	
2025-01-06 21:45:25.26	53.84	8.18	
2025-01-06 21:45:25.47	53.87	8.19	
2025-01-06 21:45:25.67	53.90	8.19	
2025-01-06 21:45:25.88	53.94	8.20	
2025-01-06 21:45:26.10	53.97	8.20	
2025-01-06 21:45:26.30	54.00	8.21	
2025-01-06 21:45:26.51	54.04	8.21	
2025-01-06 21:45:26.72	54.07	8.22	
2025-01-06 21:45:26.92	54.10	8.22	
2025-01-06 21:45:27.13	54.14	8.23	
2025-01-06 21:45:27.33	54.17	8.24	
2025-01-06 21:45:27.54	54.20	8.24	
2025-01-06 21:45:27.74	54.23	8.25	
2025-01-06 21:45:27.95	54.27	8.25	
2025-01-06 21:45:28.15	54.30	8.26	
2025-01-06 21:45:28.36	54.33	8.26	
2025-01-06 21:45:28.56	54.36	8.27	
2025-01-06 21:45:28.77	54.40	8.27	
2025-01-06 21:45:28.98	54.43	8.28	
2025-01-06 21:45:29.18	54.46	8.28	
2025-01-06 21:45:29.38	54.50	8.29	
2025-01-06 21:45:29.59	54.53	8.29	
2025-01-06 21:45:29.79	54.56	8.30	
2025-01-06 21:45:30.00	54.60	8.30	
2025-01-06 21:45:30.21	54.63	8.31	
2025-01-06 21:45:30.42	54.66	8.31	
2025-01-06 21:45:30.63	54.70	8.32	
2025-01-06 21:45:30.83	54.73	8.33	
2025-01-06 21:45:31.04	54.76	8.33	
2025-01-06 21:45:31.24	54.79	8.34	
2025-01-06 21:45:31.45	54.83	8.34	
2025-01-06 21:45:31.65	54.86	8.35	
2025-01-06 21:45:31.86	54.89	8.35	
2025-01-06 21:45:32.06	54.93	8.36	
2025-01-06 21:45:32.27	54.96	8.36	
2025-01-06 21:45:32.47	54.99	8.37	
2025-01-06 21:45:32.68	55.03	8.37	
2025-01-06 21:45:32.88	55.06	8.38	
2025-01-06 21:45:33.09	55.09	8.38	
2025-01-06 21:45:33.29	55.12	8.39	
2025-01-06 21:45:33.50	55.16	8.39	
2025-01-06 21:45:33.70	55.19	8.40	
2025-01-06 21:45:33.91	55.22	8.40	
2025-01-06 21:45:34.12	55.26	8.41	
2025-01-06 21:45:34.32	55.29	8.41	
2025-01-06 21:45:34.53	55.32	8.42	
2025-01-06 21:45:34.75	55.36	8.42	
2025-01-06 21:45:34.95	55.39	8.43	
2025-01-06 21:45:35.16	55.43	8.43	
2025-01-06 21:45:35.36	55.46	8.44	
2025-01-06 21:45:35.57	55.49	8.44	
2025-01-06 21:45:35.79	55.53	8.45	
2025-01-06 21:45:35.99	55.56	8.45	
2025-01-06 21:45:36.20	55.59	8.46	
2025-01-06 21:45:36.41	55.63	8.46	
2025-01-06 21:45:36.61	55.66	8.47	
2025-01-06 21:45:36.82	55.69	8.47	
2025-01-06 21:45:37.02	55.73	8.48	
2025-01-06 21:45:37.23	55.76	8.48	
2025-01-06 21:45:37.43	55.79	8.49	
2025-01-06 21:45:37.64	55.83	8.49	
2025-01-06 21:45:37.84	55.86	8.50	
2025-01-06 21:45:38.04	55.89	8.50	
2025-01-06 21:45:38.25	55.93	8.51	
2025-01-06 21:45:38.46	55.96	8.51	
2025-01-06 21:45:38.66	55.99	8.52	
2025-01-06 21:45:38.87	56.03	8.52	
2025-01-06 21:45:39.07	56.06	8.53	
2025-01-06 21:45:39.28	56.09	8.53	
2025-01-06 21:45:39.49	56.13	8.54	
2025-01-06 21:45:39.69	56.16	8.54	
2025-01-06 21:45:39.90	56.19	8.55	
2025-01-06 21:45:40.10	56.23	8.55	
2025-01-06 21:45:40.31	56.26	8.56	
2025-01-06 21:45:40.51	56.29	8.56	
2025-01-06 21:45:40.72	56.33	8.57	
2025-01-06 21:45:40.92	56.36	8.57	
2025-01-06 21:45:41.13	56.40	8.58	
2025-01-06 21:45:41.33	56.43	8.58	
2025-01-06 21:45:41.54	56.46	8.59	
2025-01-06 21:45:41.74	56.49	8.59	
2025-01-06 21:45:41.95	56.53	8.60	
2025-01-06 21:45:42.15	56.56	8.60	
2025-01-06 21:45:42.36	56.60	8.61	
2025-01-06 21:45:42.57	56.63	8.61	
2025-01-06 21:45:42.77	56.66	8.62	
2025-01-06 21:45:42.98	56.70	8.62	
2025-01-06 21:45:43.18	56.73	8.63	
2025-01-06 21:45:43.38	56.76	8.63	
2025-01-06 21:45:43.59	56.80	8.63	
2025-01-06 21:45:43.80	56.83	8.64	
2025-01-06 21:45:44.00	56.86	8.64	
2025-01-06 21:45:44.21	56.90	8.65	
2025-01-06 21:45:44.41	56.93	8.65	
2025-01-06 21:45:44.62	56.97	8.66	
2025-01-06 21:45:44.82	57.00	8.66	
2025-01-06 21:45:45.03	57.03	8.67	
2025-01-06 21:45:45.24	57.07	8.67	
2025-01-06 21:45:45.44	57.10	8.68	
2025-01-06 21:45:45.65	57.14	8.68	
2025-01-06 21:45:45.85	57.17	8.69	
2025-01-06 21:45:46.06	57.20	8.69	
2025-01-06 21:45:46.26	57.24	8.70	
2025-01-06 21:45:46.47	57.27	8.70	
2025-01-06 21:45:46.67	57.30	8.71	
2025-01-06 21:45:46.88	57.34	8.71	
2025-01-06 21:45:47.09	57.37	8.71	
2025-01-06 21:45:47.29	57.41	8.72	
2025-01-06 21:45:47.49	57.44	8.72	
2025-01-06 21:45:47.70	57.47	8.73	
2025-01-06 21:45:47.90	57.51	8.73	
2025-01-06 21:45:48.11	57.54	8.74	
2025-01-06 21:45:48.31	57.57	8.74	
2025-01-06 21:45:48.52	57.61	8.75	
2025-01-06 21:45:48.72	57.64	8.75	
2025-01-06 21:45:48.93	57.68	8.76	
2025-01-06 21:45:49.13	57.71	8.76	
2025-01-06 21:45:49.34	57.74	8.76	
2025-01-06 21:45:49.54	57.78	8.77	
2025-01-06 21:45:49.75	57.81	8.77	
2025-01-06 21:45:49.95	57.84	8.78	
2025-01-06 21:45:50.16	57.88	8.78	
2025-01-06 21:45:50.37	57.91	8.79	
2025-01-06 21:45:50.57	57.95	8.79	
2025-01-06 21:45:50.78	57.98	8.80	
2025-01-06 21:45:50.98	58.01	8.80	
2025-01-06 21:45:51.19	58.05	8.81	
2025-01-06 21:45:51.39	58.08	8.81	
2025-01-06 21:45:51.60	58.12	8.81	
2025-01-06 21:45:51.80	58.15	8.82	
2025-01-06 21:45:52.01	58.19	8.82	
2025-01-06 21:45:52.22	58.22	8.83	
2025-01-06 21:45:52.42	58.25	8.83	
2025-01-06 21:45:52.63	58.29	8.84	
2025-01-06 21:45:52.83	58.32	8.84	
2025-01-06 21:45:53.04	58.36	8.85	
2025-01-06 21:45:53.24	58.39	8.85	
2025-01-06 21:45:53.45	58.42	8.85	
2025-01-06 21:45:53.66	58.46	8.86	
2025-01-06 21:45:53.86	58.49	8.86	
2025-01-06 21:45:54.07	58.53	8.87	
2025-01-06 21:45:54.27	58.56	8.87	
2025-01-06 21:45:54.48	58.60	8.88	
2025-01-06 21:45:54.68	58.63	8.88	
2025-01-06 21:45:54.88	58.66	8.88	
2025-01-06 21:45:55.09	58.70	8.89	
2025-01-06 21:45:55.30	58.73	8.89	
2025-01-06 21:45:55.50	58.77	8.90	
2025-01-06 21:45:55.71	58.80	8.90	
2025-01-06 21:45:55.91	58.83	8.91	
2025-01-06 21:45:56.12	58.87	8.91	
2025-01-06 21:45:56.32	58.90	8.91	
2025-01-06 21:45:56.53	58.94	8.92	
2025-01-06 21:45:56.73	58.97	8.92	
2025-01-06 21:45:56.94	59.01	8.93	
2025-01-06 21:45:57.16	59.04	8.93	
2025-01-06 21:45:57.36	59.08	8.94	
2025-01-06 21:45:57.57	59.11	8.94	
2025-01-06 21:45:57.77	59.15	8.94	
2025-01-06 21:45:57.98	59.18	8.95	
2025-01-06 21:45:58.18	59.21	8.95	
2025-01-06 21:45:58.39	59.25	8.96	
2025-01-06 21:45:58.59	59.28	8.96	
2025-01-06 21:45:58.80	59.32	8.97	
2025-01-06 21:45:59.00	59.35	8.97	
2025-01-06 21:45:59.21	59.39	8.97	
2025-01-06 21:45:59.41	59.42	8.98	
2025-01-06 21:45:59.62	59.46	8.98	
2025-01-06 21:45:59.82	59.49	8.99	
2025-01-06 21:46:00.03	59.52	8.99	
2025-01-06 21:46:00.25	59.56	8.99	
2025-01-06 21:46:00.45	59.59	9.00	
2025-01-06 21:46:00.66	59.63	9.00	
2025-01-06 21:46:00.86	59.66	9.01	
2025-01-06 21:46:01.07	59.70	9.01	
2025-01-06 21:46:01.28	59.73	9.02	
2025-01-06 21:46:01.48	59.77	9.02	
2025-01-06 21:46:01.69	59.80	9.02	
2025-01-06 21:46:01.89	59.84	9.03	
2025-01-06 21:46:02.10	59.87	9.03	
2025-01-06 21:46:02.31	59.91	9.04	
2025-01-06 21:46:02.51	59.94	9.04	
2025-01-06 21:46:02.72	59.98	9.04	
2025-01-06 21:46:02.92	60.01	9.05	
2025-01-06 21:46:03.13	60.05	9.05	
2025-01-06 21:46:03.33	60.08	9.06	
2025-01-06 21:46:03.54	60.11	9.06	
2025-01-06 21:46:03.74	60.15	9.06	
2025-01-06 21:46:03.95	60.18	9.07	
2025-01-06 21:46:04.15	60.22	9.07	
2025-01-06 21:46:04.36	60.25	9.08	
2025-01-06 21:46:04.56	60.29	9.08	
2025-01-06 21:46:04.77	60.32	9.08	
2025-01-06 21:46:04.97	60.36	9.09	
2025-01-06 21:46:05.18	60.39	9.09	
2025-01-06 21:46:05.38	60.42	9.09	
2025-01-06 21:46:05.59	60.46	9.10	
2025-01-06 21:46:05.79	60.49	9.10	
2025-01-06 21:46:06.00	60.53	9.11	
2025-01-06 21:46:06.20	60.56	9.11	
2025-01-06 21:46:06.41	60.60	9.11	
2025-01-06 21:46:06.61	60.63	9.12	
2025-01-06 21:46:06.82	60.67	9.12	
2025-01-06 21:46:07.02	60.70	9.13	
2025-01-06 21:46:07.23	60.74	9.13	
2025-01-06 21:46:07.44	60.77	9.13	
2025-01-06 21:46:07.64	60.81	9.14	
2025-01-06 21:46:07.84	60.84	9.14	
2025-01-06 21:46:08.05	60.88	9.14	
2025-01-06 21:46:08.26	60.91	9.15	
2025-01-06 21:46:08.46	60.95	9.15	
2025-01-06 21:46:08.67	60.98	9.16	
2025-01-06 21:46:08.88	61.02	9.16	
2025-01-06 21:46:09.09	61.05	9.16	
2025-01-06 21:46:09.30	61.09	9.17	
2025-01-06 21:46:09.50	61.12	9.17	
2025-01-06 21:46:09.71	61.16	9.17	
2025-01-06 21:46:09.91	61.19	9.18	
2025-01-06 21:46:10.12	61.23	9.18	
2025-01-06 21:46:10.32	61.26	9.19	
2025-01-06 21:46:10.53	61.30	9.19	
2025-01-06 21:46:10.73	61.33	9.19	
2025-01-06 21:46:10.94	61.37	9.20	
2025-01-06 21:46:11.14	61.40	9.20	
2025-01-06 21:46:11.35	61.44	9.20	
2025-01-06 21:46:11.55	61.47	9.21	
2025-01-06 21:46:11.76	61.51	9.21	
2025-01-06 21:46:11.96	61.54	9.22	
2025-01-06 21:46:12.17	61.58	9.22	
2025-01-06 21:46:12.37	61.61	9.22	
2025-01-06 21:46:12.58	61.65	9.23	
2025-01-06 21:46:12.78	61.68	9.23	
2025-01-06 21:46:12.99	61.72	9.23	
2025-01-06 21:46:13.19	61.75	9.24	
2025-01-06 21:46:13.40	61.79	9.24	
2025-01-06 21:46:13.60	61.82	9.24	
2025-01-06 21:46:13.81	61.86	9.25	
2025-01-06 21:46:14.01	61.89	9.25	
2025-01-06 21:46:14.22	61.93	9.25	
2025-01-06 21:46:14.43	61.96	9.26	
2025-01-06 21:46:14.63	62.00	9.26	
2025-01-06 21:46:14.83	62.03	9.27	
2025-01-06 21:46:15.04	62.07	9.27	
2025-01-06 21:46:15.25	62.10	9.27	
2025-01-06 21:46:15.45	62.14	9.28	
2025-01-06 21:46:15.66	62.17	9.28	
2025-01-06 21:46:15.86	62.21	9.28	
2025-01-06 21:46:16.07	62.24	9.29	
2025-01-06 21:46:16.27	62.28	9.29	
2025-01-06 21:46:16.48	62.31	9.29	
2025-01-06 21:46:16.69	62.35	9.30	
2025-01-06 21:46:16.89	62.38	9.30	
2025-01-06 21:46:17.10	62.42	9.30	
2025-01-06 21:46:17.30	62.45	9.31	
2025-01-06 21:46:17.51	62.49	9.31	
2025-01-06 21:46:17.71	62.52	9.31	
2025-01-06 21:46:17.92	62.56	9.32	
2025-01-06 21:46:18.12	62.59	9.32	
2025-01-06 21:46:18.33	62.63	9.32	
2025-01-06 21:46:18.53	62.66	9.33	
2025-01-06 21:46:18.74	62.70	9.33	
2025-01-06 21:46:18.95	62.74	9.33	
2025-01-06 21:46:19.15	62.77	9.34	
2025-01-06 21:46:19.36	62.81	9.34	
2025-01-06 21:46:19.58	62.84	9.34	
2025-01-06 21:46:19.78	62.88	9.35	
2025-01-06 21:46:19.99	62.92	9.35	
2025-01-06 21:46:20.19	62.95	9.35	
2025-01-06 21:46:20.40	62.99	9.36	
2025-01-06 21:46:20.60	63.02	9.36	
2025-01-06 21:46:20.81	63.06	9.36	
2025-01-06 21:46:21.01	63.09	9.37	
2025-01-06 21:46:21.22	63.13	9.37	
2025-01-06 21:46:21.43	63.16	9.37	
2025-01-06 21:46:21.63	63.20	9.38	
2025-01-06 21:46:21.84	63.23	9.38	
2025-01-06 21:46:22.04	63.27	9.38	
2025-01-06 21:46:22.25	63.30	9.39	
2025-01-06 21:46:22.45	63.34	9.39	
2025-01-06 21:46:22.66	63.37	9.39	
2025-01-06 21:46:22.86	63.41	9.40	
2025-01-06 21:46:23.07	63.45	9.40	
2025-01-06 21:46:23.27	63.48	9.40	
2025-01-06 21:46:23.48	63.52	9.40	
2025-01-06 21:46:23.68	63.55	9.41	
2025-01-06 21:46:23.89	63.59	9.41	
2025-01-06 21:46:24.09	63.62	9.41	
2025-01-06 21:46:24.30	63.66	9.42	
2025-01-06 21:46:24.50	63.69	9.42	
2025-01-06 21:46:24.71	63.73	9.42	
2025-01-06 21:46:24.93	63.77	9.43	
2025-01-06 21:46:25.13	63.80	9.43	
2025-01-06 21:46:25.33	63.84	9.43	
2025-01-06 21:46:25.54	63.87	9.44	
2025-01-06 21:46:25.74	63.91	9.44	
2025-01-06 21:46:25.95	63.94	9.44	
2025-01-06 21:46:26.16	63.98	9.44	
2025-01-06 21:46:26.36	64.01	9.45	
2025-01-06 21:46:26.57	64.05	9.45	
2025-01-06 21:46:26.77	64.08	9.45	
2025-01-06 21:46:26.97	64.12	9.46	
2025-01-06 21:46:27.18	64.16	9.46	
2025-01-06 21:46:27.39	64.19	9.46	
2025-01-06 21:46:27.59	64.23	9.47	
2025-01-06 21:46:27.80	64.26	9.47	
2025-01-06 21:46:28.00	64.30	9.47	
2025-01-06 21:46:28.21	64.33	9.47	
2025-01-06 21:46:28.41	64.37	9.48	
2025-01-06 21:46:28.62	64.41	9.48	
2025-01-06 21:46:28.83	64.44	9.48	
2025-01-06 21:46:29.03	64.48	9.49	
2025-01-06 21:46:29.23	64.51	9.49	
2025-01-06 21:46:29.44	64.55	9.49	
2025-01-06 21:46:29.64	64.58	9.49	
2025-01-06 21:46:29.85	64.62	9.50	
2025-01-06 21:46:30.05	64.65	9.50	
2025-01-06 21:46:30.26	64.69	9.50	
2025-01-06 21:46:30.46	64.72	9.51	
2025-01-06 21:46:30.67	64.76	9.51	
2025-01-06 21:46:30.88	64.80	9.51	
2025-01-06 21:46:31.08	64.83	9.51	
2025-01-06 21:46:31.29	64.87	9.52	
2025-01-06 21:46:31.49	64.90	9.52	
2025-01-06 21:46:31.70	64.94	9.52	
2025-01-06 21:46:31.90	64.97	9.53	
2025-01-06 21:46:32.11	65.01	9.53	
2025-01-06 21:46:32.31	65.05	9.53	
2025-01-06 21:46:32.51	65.08	9.53	
2025-01-06 21:46:32.72	65.12	9.54	
2025-01-06 21:46:32.93	65.15	9.54	
2025-01-06 21:46:33.13	65.19	9.54	
2025-01-06 21:46:33.34	65.23	9.54	
2025-01-06 21:46:33.54	65.26	9.55	
2025-01-06 21:46:33.75	65.30	9.55	
2025-01-06 21:46:33.95	65.33	9.55	
2025-01-06 21:46:34.16	65.37	9.56	
2025-01-06 21:46:34.36	65.40	9.56	
2025-01-06 21:46:34.58	65.44	9.56	
2025-01-06 21:46:34.78	65.48	9.56	
2025-01-06 21:46:34.99	65.51	9.57	
2025-01-06 21:46:35.20	65.55	9.57	
2025-01-06 21:46:35.40	65.58	9.57	
2025-01-06 21:46:35.60	65.62	9.57	
2025-01-06 21:46:35.81	65.66	9.58	
2025-01-06 21:46:36.02	65.69	9.58	
2025-01-06 21:46:36.22	65.73	9.58	
2025-01-06 21:46:36.43	65.76	9.58	
2025-01-06 21:46:36.63	65.80	9.59	
2025-01-06 21:46:36.84	65.84	9.59	
2025-01-06 21:46:37.05	65.87	9.59	
2025-01-06 21:46:37.25	65.91	9.59	
2025-01-06 21:46:37.46	65.94	9.60	
2025-01-06 21:46:37.66	65.98	9.60	
2025-01-06 21:46:37.87	66.02	9.60	
2025-01-06 21:46:38.07	66.05	9.60	
2025-01-06 21:46:38.28	66.09	9.61	
2025-01-06 21:46:38.49	66.12	9.61	
2025-01-06 21:46:38.69	66.16	9.61	
2025-01-06 21:46:38.89	66.19	9.61	
2025-01-06 21:46:39.10	66.23	9.62	
2025-01-06 21:46:39.31	66.27	9.62	
2025-01-06 21:46:39.51	66.30	9.62	
2025-01-06 21:46:39.72	66.34	9.62	
2025-01-06 21:46:39.92	66.37	9.63	
2025-01-06 21:46:40.13	66.41	9.63	
2025-01-06 21:46:40.34	66.45	9.63	
2025-01-06 21:46:40.54	66.48	9.63	
2025-01-06 21:46:40.75	66.52	9.64	
2025-01-06 21:46:40.95	66.56	9.64	
2025-01-06 21:46:41.15	66.59	9.64	
2025-01-06 21:46:41.36	66.63	9.64	
2025-01-06 21:46:41.57	66.66	9.64	
2025-01-06 21:46:41.77	66.70	9.65	
2025-01-06 21:46:41.97	66.73	9.65	
2025-01-06 21:46:42.18	66.77	9.65	
2025-01-06 21:46:42.38	66.81	9.65	
2025-01-06 21:46:42.59	66.84	9.66	
2025-01-06 21:46:42.79	66.88	9.66	
2025-01-06 21:46:43.00	66.91	9.66	
2025-01-06 21:46:43.20	66.95	9.66	
2025-01-06 21:46:43.41	66.99	9.66	
2025-01-06 21:46:43.62	67.02	9.67	
2025-01-06 21:46:43.82	67.06	9.67	
2025-01-06 21:46:44.03	67.10	9.67	
2025-01-06 21:46:44.23	67.13	9.67	
2025-01-06 21:46:44.44	67.17	9.68	
2025-01-06 21:46:44.65	67.20	9.68	
2025-01-06 21:46:44.85	67.24	9.68	
2025-01-06 21:46:45.06	67.28	9.68	
2025-01-06 21:46:45.27	67.31	9.68	
2025-01-06 21:46:45.48	67.35	9.69	
2025-01-06 21:46:45.68	67.39	9.69	
2025-01-06 21:46:45.88	67.42	9.69	
2025-01-06 21:46:46.09	67.46	9.69	
2025-01-06 21:46:46.29	67.49	9.69	
2025-01-06 21:46:46.50	67.53	9.70	
2025-01-06 21:46:46.71	67.57	9.70	
2025-01-06 21:46:46.91	67.60	9.70	
2025-01-06 21:46:47.12	67.64	9.70	
2025-01-06 21:46:47.32	67.67	9.70	
2025-01-06 21:46:47.53	67.71	9.71	
2025-01-06 21:46:47.73	67.75	9.71	
2025-01-06 21:46:47.94	67.78	9.71	
2025-01-06 21:46:48.14	67.82	9.71	
2025-01-06 21:46:48.35	67.86	9.72	
2025-01-06 21:46:48.55	67.89	9.72	
2025-01-06 21:46:48.76	67.93	9.72	
2025-01-06 21:46:48.97	67.97	9.72	
2025-01-06 21:46:49.17	68.00	9.72	
2025-01-06 21:46:49.38	68.04	9.72	
2025-01-06 21:46:49.58	68.07	9.73	
2025-01-06 21:46:49.79	68.11	9.73	
2025-01-06 21:46:49.99	68.14	9.73	
2025-01-06 21:46:50.20	68.18	9.73	
2025-01-06 21:46:50.40	68.22	9.73	
2025-01-06 21:46:50.61	68.25	9.74	
2025-01-06 21:46:50.81	68.29	9.74	
2025-01-06 21:46:51.02	68.33	9.74	
2025-01-06 21:46:51.23	68.36	9.74	
2025-01-06 21:46:51.43	68.40	9.74	
2025-01-06 21:46:51.64	68.44	9.75	
2025-01-06 21:46:51.84	68.47	9.75	
2025-01-06 21:46:52.05	68.51	9.75	
2025-01-06 21:46:52.26	68.55	9.75	
2025-01-06 21:46:52.46	68.58	9.75	
2025-01-06 21:46:52.66	68.62	9.75	
2025-01-06 21:46:52.87	68.65	9.76	
2025-01-06 21:46:53.08	68.69	9.76	
2025-01-06 21:46:53.28	68.73	9.76	
2025-01-06 21:46:53.49	68.76	9.76	
2025-01-06 21:46:53.69	68.80	9.76	
2025-01-06 21:46:53.90	68.84	9.76	
2025-01-06 21:46:54.10	68.87	9.77	
2025-01-06 21:46:54.31	68.91	9.77	
2025-01-06 21:46:54.51	68.94	9.77	
2025-01-06 21:46:54.72	68.98	9.77	
2025-01-06 21:46:54.92	69.02	9.77	
2025-01-06 21:46:55.13	69.05	9.78	
2025-01-06 21:46:55.33	69.09	9.78	
2025-01-06 21:46:55.54	69.13	9.78	
2025-01-06 21:46:55.74	69.16	9.78	
2025-01-06 21:46:55.95	69.20	9.78	
2025-01-06 21:46:56.16	69.24	9.78	
2025-01-06 21:46:56.36	69.27	9.78	
2025-01-06 21:46:56.57	69.31	9.79	
2025-01-06 21:46:56.77	69.34	9.79	
2025-01-06 21:46:56.99	69.38	9.79	
2025-01-06 21:46:57.19	69.42	9.79	
2025-01-06 21:46:57.40	69.45	9.79	
2025-01-06 21:46:57.61	69.49	9.79	
2025-01-06 21:46:57.81	69.53	9.80	
2025-01-06 21:46:58.02	69.56	9.80	
2025-01-06 21:46:58.22	69.60	9.80	
2025-01-06 21:46:58.43	69.64	9.80	
2025-01-06 21:46:58.63	69.67	9.80	
2025-01-06 21:46:58.84	69.71	9.80	
2025-01-06 21:46:59.04	69.75	9.80	
2025-01-06 21:46:59.25	69.78	9.81	
2025-01-06 21:46:59.45	69.82	9.81	
2025-01-06 21:46:59.66	69.86	9.81	
2025-01-06 21:46:59.86	69.89	9.81	
2025-01-06 21:47:00.07	69.93	9.81	
2025-01-06 21:47:00.27	69.96	9.81	
2025-01-06 21:47:00.48	70.00	9.81	
2025-01-06 21:47:00.68	70.04	9.82	
2025-01-06 21:47:00.89	70.07	9.82	
2025-01-06 21:47:01.09	70.11	9.82	
2025-01-06 21:47:01.30	70.15	9.82	
2025-01-06 21:47:01.51	70.18	9.82	
2025-01-06 21:47:01.71	70.22	9.82	
2025-01-06 21:47:01.92	70.26	9.82	
2025-01-06 21:47:02.13	70.29	9.83	
2025-01-06 21:47:02.33	70.33	9.83	
2025-01-06 21:47:02.54	70.37	9.83	
2025-01-06 21:47:02.74	70.40	9.83	
2025-01-06 21:47:02.95	70.44	9.83	
2025-01-06 21:47:03.15	70.47	9.83	
2025-01-06 21:47:03.35	70.51	9.83	
2025-01-06 21:47:03.56	70.55	9.83	
2025-01-06 21:47:03.77	70.59	9.84	
2025-01-06 21:47:03.97	70.62	9.84	
2025-01-06 21:47:04.18	70.66	9.84	
2025-01-06 21:47:04.38	70.69	9.84	
2025-01-06 21:47:04.59	70.73	9.84	
2025-01-06 21:47:04.79	70.77	9.84	
2025-01-06 21:47:05.00	70.80	9.84	
2025-01-06 21:47:05.21	70.84	9.84	
2025-01-06 21:47:05.41	70.88	9.85	
2025-01-06 21:47:05.61	70.91	9.85	
2025-01-06 21:47:05.82	70.95	9.85	
2025-01-06 21:47:06.03	70.99	9.85	
2025-01-06 21:47:06.23	71.02	9.85	
2025-01-06 21:47:06.44	71.06	9.85	
2025-01-06 21:47:06.64	71.10	9.85	
2025-01-06 21:47:06.85	71.13	9.85	
2025-01-06 21:47:07.05	71.17	9.85	
2025-01-06 21:47:07.26	71.21	9.86	
2025-01-06 21:47:07.47	71.24	9.86	
2025-01-06 21:47:07.67	71.28	9.86	
2025-01-06 21:47:07.88	71.32	9.86	
2025-01-06 21:47:08.08	71.35	9.86	
2025-01-06 21:47:08.29	71.39	9.86	
2025-01-06 21:47:08.49	71.42	9.86	
2025-01-06 21:47:08.70	71.46	9.86	
2025-01-06 21:47:08.90	71.50	9.86	
2025-01-06 21:47:09.11	71.53	9.86	
2025-01-06 21:47:09.32	71.57	9.87	
2025-01-06 21:47:09.52	71.61	9.87	
2025-01-06 21:47:09.72	71.64	9.87	
2025-01-06 21:47:09.93	71.68	9.87	
2025-01-06 21:47:10.13	71.72	9.87	
2025-01-06 21:47:10.34	71.75	9.87	
2025-01-06 21:47:10.55	71.79	9.87	
2025-01-06 21:47:10.75	71.83	9.87	
2025-01-06 21:47:10.95	71.86	9.87	
2025-01-06 21:47:11.16	71.90	9.87	
2025-01-06 21:47:11.36	71.94	9.87	
2025-01-06 21:47:11.57	71.97	9.88	
2025-01-06 21:47:11.77	72.01	9.88	
2025-01-06 21:47:11.97	72.04	9.88	
2025-01-06 21:47:12.18	72.08	9.88	
2025-01-06 21:47:12.38	72.12	9.88	
2025-01-06 21:47:12.59	72.15	9.88	
2025-01-06 21:47:12.80	72.19	9.88	
2025-01-06 21:47:13.01	72.23	9.88	
2025-01-06 21:47:13.22	72.27	9.88	
2025-01-06 21:47:13.43	72.30	9.88	
2025-01-06 21:47:13.63	72.34	9.88	
2025-01-06 21:47:13.84	72.38	9.88	
2025-01-06 21:47:14.04	72.41	9.88	
2025-01-06 21:47:14.25	72.45	9.89	
2025-01-06 21:47:14.45	72.49	9.89	
2025-01-06 21:47:14.66	72.52	9.89	
2025-01-06 21:47:14.86	72.56	9.89	
2025-01-06 21:47:15.07	72.60	9.89	
2025-01-06 21:47:15.27	72.63	9.89	
2025-01-06 21:47:15.48	72.67	9.89	
2025-01-06 21:47:15.69	72.71	9.89	
2025-01-06 21:47:15.89	72.74	9.89	
2025-01-06 21:47:16.09	72.78	9.89	
2025-01-06 21:47:16.30	72.82	9.89	
2025-01-06 21:47:16.51	72.85	9.89	
2025-01-06 21:47:16.71	72.89	9.89	
2025-01-06 21:47:16.92	72.93	9.89	
2025-01-06 21:47:17.12	72.96	9.89	
2025-01-06 21:47:17.33	73.00	9.90	
2025-01-06 21:47:17.53	73.04	9.90	
2025-01-06 21:47:17.74	73.07	9.90	
2025-01-06 21:47:17.95	73.11	9.90	
2025-01-06 21:47:18.15	73.15	9.90	
2025-01-06 21:47:18.36	73.18	9.90	
2025-01-06 21:47:18.56	73.22	9.90	
2025-01-06 21:47:18.77	73.26	9.90	
2025-01-06 21:47:18.98	73.29	9.90	
2025-01-06 21:47:19.18	73.33	9.90	
2025-01-06 21:47:19.38	73.37	9.90	
2025-01-06 21:47:19.59	73.40	9.90	
2025-01-06 21:47:19.79	73.44	9.90	
2025-01-06 21:47:20.00	73.48	9.90	
2025-01-06 21:47:20.20	73.51	9.90	
2025-01-06 21:47:20.41	73.55	9.90	
2025-01-06 21:47:20.61	73.59	9.90	
2025-01-06 21:47:20.82	73.62	9.90	
2025-01-06 21:47:21.02	73.66	9.90	
2025-01-06 21:47:21.23	73.70	9.90	
2025-01-06 21:47:21.43	73.73	9.90	
2025-01-06 21:47:21.63	73.77	9.90	
2025-01-06 21:47:21.84	73.80	9.91	
2025-01-06 21:47:22.05	73.84	9.91	
2025-01-06 21:47:22.25	73.88	9.91	
2025-01-06 21:47:22.46	73.92	9.91	
2025-01-06 21:47:22.66	73.95	9.91	
2025-01-06 21:47:22.87	73.99	9.91	
2025-01-06 21:47:23.07	74.02	9.91	
2025-01-06 21:47:23.28	74.06	9.91	
2025-01-06 21:47:23.49	74.10	9.91	
2025-01-06 21:47:23.69	74.14	9.91	
2025-01-06 21:47:23.89	74.17	9.91	
2025-01-06 21:47:24.10	74.21	9.91	
2025-01-06 21:47:24.31	74.25	9.91	
2025-01-06 21:47:24.51	74.28	9.91	
2025-01-06 21:47:24.73	74.32	9.91	
2025-01-06 21:47:24.93	74.36	9.91	
2025-01-06 21:47:25.14	74.39	9.91	
2025-01-06 21:47:25.35	74.43	9.91	
2025-01-06 21:47:25.55	74.47	9.91	
2025-01-06 21:47:25.76	74.50	9.91	
2025-01-06 21:47:25.96	74.54	9.91	
2025-01-06 21:47:26.17	74.58	9.91	
2025-01-06 21:47:26.37	74.61	9.91	
2025-01-06 21:47:26.58	74.65	9.91	
2025-01-06 21:47:26.78	74.69	9.91	
2025-01-06 21:47:26.99	74.72	9.91	
2025-01-06 21:47:27.19	74.76	9.91	
2025-01-06 21:47:27.40	74.80	9.91	
2025-01-06 21:47:27.60	74.83	9.91	
2025-01-06 21:47:27.81	74.87	9.91	
2025-01-06 21:47:28.01	74.91	9.91	
2025-01-06 21:47:28.22	74.94	9.91	
2025-01-06 21:47:28.42	74.98	9.91	
2025-01-06 21:47:28.63	75.02	9.91	
2025-01-06 21:47:28.83	75.05	9.91	
2025-01-06 21:47:29.04	75.09	9.91	
2025-01-06 21:47:29.24	75.13	9.91	
2025-01-06 21:47:29.45	75.16	9.91	
2025-01-06 21:47:29.65	75.20	9.91	
2025-01-06 21:47:29.86	75.24	9.91	
2025-01-06 21:47:30.06	75.27	9.91	
2025-01-06 21:47:30.27	75.31	9.91	
2025-01-06 21:47:30.48	75.35	9.91	
2025-01-06 21:47:30.68	75.38	9.91	
2025-01-06 21:47:30.89	75.42	9.91	
2025-01-06 21:47:31.09	75.46	9.91	
2025-01-06 21:47:31.30	75.49	9.91	
2025-01-06 21:47:31.50	75.53	9.91	
2025-01-06 21:47:31.71	75.57	9.91	
2025-01-06 21:47:31.91	75.60	9.91	
2025-01-06 21:47:32.12	75.64	9.91	
2025-01-06 21:47:32.32	75.68	9.91	
2025-01-06 21:47:32.53	75.71	9.91	
2025-01-06 21:47:32.73	75.75	9.91	
2025-01-06 21:47:32.94	75.79	9.91	
2025-01-06 21:47:33.14	75.82	9.91	
2025-01-06 21:47:33.35	75.86	9.91	
2025-01-06 21:47:33.55	75.90	9.91	
2025-01-06 21:47:33.76	75.93	9.91	
2025-01-06 21:47:33.97	75.97	9.91	
2025-01-06 21:47:34.17	76.01	9.91	
2025-01-06 21:47:34.39	76.05	9.91	
2025-01-06 21:47:34.59	76.08	9.91	
2025-01-06 21:47:34.80	76.12	9.91	
2025-01-06 21:47:35.01	76.16	9.91	
2025-01-06 21:47:35.21	76.19	9.91	
2025-01-06 21:47:35.42	76.23	9.90	
2025-01-06 21:47:35.62	76.27	9.90	
2025-01-06 21:47:35.83	76.30	9.90	
2025-01-06 21:47:36.04	76.34	9.90	
2025-01-06 21:47:36.24	76.38	9.90	
2025-01-06 21:47:36.45	76.41	9.90	
2025-01-06 21:47:36.65	76.45	9.90	
2025-01-06 21:47:36.86	76.49	9.90	
2025-01-06 21:47:37.06	76.52	9.90	
2025-01-06 21:47:37.27	76.56	9.90	
2025-01-06 21:47:37.47	76.60	9.90	
2025-01-06 21:47:37.68	76.63	9.90	
2025-01-06 21:47:37.88	76.67	9.90	
2025-01-06 21:47:38.09	76.71	9.90	
2025-01-06 21:47:38.30	76.74	9.90	
2025-01-06 21:47:38.50	76.78	9.90	
2025-01-06 21:47:38.71	76.82	9.90	
2025-01-06 21:47:38.91	76.85	9.90	
2025-01-06 21:47:39.12	76.89	9.90	
2025-01-06 21:47:39.32	76.93	9.90	
2025-01-06 21:47:39.54	76.97	9.90	
2025-01-06 21:47:39.74	77.00	9.90	
2025-01-06 21:47:39.95	77.04	9.89	
2025-01-06 21:47:40.16	77.08	9.89	
2025-01-06 21:47:40.36	77.11	9.89	
2025-01-06 21:47:40.57	77.15	9.89	
2025-01-06 21:47:40.77	77.19	9.89	
2025-01-06 21:47:40.98	77.22	9.89	
2025-01-06 21:47:41.18	77.26	9.89	
2025-01-06 21:47:41.39	77.30	9.89	
2025-01-06 21:47:41.60	77.33	9.89	
2025-01-06 21:47:41.81	77.37	9.89	
2025-01-06 21:47:42.02	77.41	9.89	
2025-01-06 21:47:42.23	77.45	9.89	
2025-01-06 21:47:42.43	77.48	9.89	
2025-01-06 21:47:42.64	77.52	9.89	
2025-01-06 21:47:42.84	77.55	9.89	
2025-01-06 21:47:43.05	77.59	9.89	
2025-01-06 21:47:43.25	77.63	9.88	
2025-01-06 21:47:43.46	77.67	9.88	
2025-01-06 21:47:43.66	77.70	9.88	
2025-01-06 21:47:43.87	77.74	9.88	
2025-01-06 21:47:44.07	77.77	9.88	
2025-01-06 21:47:44.28	77.81	9.88	
2025-01-06 21:47:44.49	77.85	9.88	
2025-01-06 21:47:44.69	77.88	9.88	
2025-01-06 21:47:44.90	77.92	9.88	
2025-01-06 21:47:45.10	77.96	9.88	
2025-01-06 21:47:45.31	78.00	9.88	
2025-01-06 21:47:45.51	78.03	9.88	
2025-01-06 21:47:45.72	78.07	9.87	
2025-01-06 21:47:45.92	78.10	9.87	
2025-01-06 21:47:46.13	78.14	9.87	
2025-01-06 21:47:46.33	78.18	9.87	
2025-01-06 21:47:46.54	78.21	9.87	
2025-01-06 21:47:46.74	78.25	9.87	
2025-01-06 21:47:46.95	78.29	9.87	
2025-01-06 21:47:47.15	78.32	9.87	
2025-01-06 21:47:47.36	78.36	9.87	
2025-01-06 21:47:47.57	78.40	9.87	
2025-01-06 21:47:47.77	78.43	9.87	
2025-01-06 21:47:47.98	78.47	9.86	
2025-01-06 21:47:48.18	78.51	9.86	
2025-01-06 21:47:48.39	78.54	9.86	
2025-01-06 21:47:48.59	78.58	9.86	
2025-01-06 21:47:48.80	78.62	9.86	
2025-01-06 21:47:49.01	78.65	9.86	
2025-01-06 21:47:49.21	78.69	9.86	
2025-01-06 21:47:49.42	78.73	9.86	
2025-01-06 21:47:49.62	78.76	9.86	
2025-01-06 21:47:49.83	78.80	9.86	
2025-01-06 21:47:50.03	78.84	9.85	
2025-01-06 21:47:50.23	78.87	9.85	
2025-01-06 21:47:50.44	78.91	9.85	
2025-01-06 21:47:50.64	78.95	9.85	
2025-01-06 21:47:50.85	78.98	9.85	
2025-01-06 21:47:51.05	79.02	9.85	
2025-01-06 21:47:51.26	79.06	9.85	
2025-01-06 21:47:51.46	79.09	9.85	
2025-01-06 21:47:51.67	79.13	9.85	
2025-01-06 21:47:51.88	79.17	9.84	
2025-01-06 21:47:52.08	79.20	9.84	
2025-01-06 21:47:52.29	79.24	9.84	
2025-01-06 21:47:52.49	79.27	9.84	
2025-01-06 21:47:52.70	79.31	9.84	
2025-01-06 21:47:52.90	79.35	9.84	
2025-01-06 21:47:53.11	79.38	9.84	
2025-01-06 21:47:53.31	79.42	9.84	
2025-01-06 21:47:53.52	79.46	9.83	
2025-01-06 21:47:53.72	79.49	9.83	
2025-01-06 21:47:53.93	79.53	9.83	
2025-01-06 21:47:54.13	79.57	9.83	
2025-01-06 21:47:54.34	79.60	9.83	
2025-01-06 21:47:54.54	79.64	9.83	
2025-01-06 21:47:54.75	79.68	9.83	
2025-01-06 21:47:54.96	79.71	9.83	
2025-01-06 21:47:55.16	79.75	9.82	
2025-01-06 21:47:55.37	79.79	9.82	
2025-01-06 21:47:55.57	79.82	9.82	
2025-01-06 21:47:55.78	79.86	9.82	
2025-01-06 21:47:55.98	79.89	9.82	
2025-01-06 21:47:56.19	79.93	9.82	
2025-01-06 21:47:56.39	79.97	9.82	
2025-01-06 21:47:56.60	80.00	9.82	
2025-01-06 21:47:56.82	80.04	9.81	
2025-01-06 21:47:57.02	80.08	9.81	
2025-01-06 21:47:57.23	80.12	9.81	
2025-01-06 21:47:57.43	80.15	9.81	
2025-01-06 21:47:57.64	80.19	9.81	
2025-01-06 21:47:57.84	80.22	9.81	
2025-01-06 21:47:58.04	80.26	9.81	
2025-01-06 21:47:58.25	80.30	9.80	
2025-01-06 21:47:58.46	80.33	9.80	
2025-01-06 21:47:58.66	80.37	9.80	
2025-01-06 21:47:58.87	80.41	9.80	
2025-01-06 21:47:59.07	80.44	9.80	
2025-01-06 21:47:59.28	80.48	9.80	
2025-01-06 21:47:59.48	80.52	9.79	
2025-01-06 21:47:59.69	80.55	9.79	
2025-01-06 21:47:59.89	80.59	9.79	
2025-01-06 21:48:00.10	80.63	9.79	
2025-01-06 21:48:00.30	80.66	9.79	
2025-01-06 21:48:00.51	80.70	9.79	
2025-01-06 21:48:00.71	80.73	9.79	
2025-01-06 21:48:00.93	80.77	9.78	
2025-01-06 21:48:01.14	80.81	9.78	
2025-01-06 21:48:01.34	80.85	9.78	
2025-01-06 21:48:01.55	80.88	9.78	
2025-01-06 21:48:01.75	80.92	9.78	
2025-01-06 21:48:01.95	80.95	9.78	
2025-01-06 21:48:02.16	80.99	9.77	
2025-01-06 21:48:02.36	81.03	9.77	
2025-01-06 21:48:02.57	81.06	9.77	
2025-01-06 21:48:02.77	81.10	9.77	
2025-01-06 21:48:02.98	81.14	9.77	
2025-01-06 21:48:03.19	81.17	9.77	
2025-01-06 21:48:03.39	81.21	9.76	
2025-01-06 21:48:03.60	81.25	9.76	
2025-01-06 21:48:03.80	81.28	9.76	
2025-01-06 21:48:04.01	81.32	9.76	
2025-01-06 21:48:04.21	81.35	9.76	
2025-01-06 21:48:04.42	81.39	9.75	
2025-01-06 21:48:04.62	81.43	9.75	
2025-01-06 21:48:04.83	81.46	9.75	
2025-01-06 21:48:05.04	81.50	9.75	
2025-01-06 21:48:05.24	81.54	9.75	
2025-01-06 21:48:05.45	81.57	9.75	
2025-01-06 21:48:05.65	81.61	9.74	
2025-01-06 21:48:05.86	81.65	9.74	
2025-01-06 21:48:06.06	81.68	9.74	
2025-01-06 21:48:06.27	81.72	9.74	
2025-01-06 21:48:06.48	81.76	9.74	
2025-01-06 21:48:06.69	81.79	9.73	
2025-01-06 21:48:06.89	81.83	9.73	
2025-01-06 21:48:07.10	81.86	9.73	
2025-01-06 21:48:07.31	81.90	9.73	
2025-01-06 21:48:07.51	81.94	9.73	
2025-01-06 21:48:07.71	81.97	9.73	
2025-01-06 21:48:07.92	82.01	9.72	
2025-01-06 21:48:08.13	82.05	9.72	
2025-01-06 21:48:08.33	82.08	9.72	
2025-01-06 21:48:08.54	82.12	9.72	
2025-01-06 21:48:08.74	82.15	9.72	
2025-01-06 21:48:08.95	82.19	9.71	
2025-01-06 21:48:09.15	82.23	9.71	
2025-01-06 21:48:09.36	82.26	9.71	
2025-01-06 21:48:09.56	82.30	9.71	
2025-01-06 21:48:09.77	82.34	9.71	
2025-01-06 21:48:09.98	82.37	9.70	
2025-01-06 21:48:10.18	82.41	9.70	
2025-01-06 21:48:10.39	82.45	9.70	
2025-01-06 21:48:10.59	82.48	9.70	
2025-01-06 21:48:10.80	82.52	9.69	
2025-01-06 21:48:11.00	82.55	9.69	
2025-01-06 21:48:11.21	82.59	9.69	
2025-01-06 21:48:11.41	82.63	9.69	
2025-01-06 21:48:11.62	82.66	9.69	
2025-01-06 21:48:11.82	82.70	9.68	
2025-01-06 21:48:12.03	82.73	9.68	
2025-01-06 21:48:12.24	82.77	9.68	
2025-01-06 21:48:12.44	82.81	9.68	
2025-01-06 21:48:12.65	82.84	9.68	
2025-01-06 21:48:12.85	82.88	9.67	
2025-01-06 21:48:13.06	82.92	9.67	
2025-01-06 21:48:13.26	82.95	9.67	
2025-01-06 21:48:13.47	82.99	9.67	
2025-01-06 21:48:13.67	83.02	9.66	
2025-01-06 21:48:13.89	83.06	9.66	
2025-01-06 21:48:14.10	83.10	9.66	
2025-01-06 21:48:14.30	83.13	9.66	
2025-01-06 21:48:14.51	83.17	9.66	
2025-01-06 21:48:14.71	83.21	9.65	
2025-01-06 21:48:14.92	83.24	9.65	
2025-01-06 21:48:15.12	83.28	9.65	
2025-01-06 21:48:15.33	83.31	9.65	
2025-01-06 21:48:15.53	83.35	9.64	
2025-01-06 21:48:15.74	83.39	9.64	
2025-01-06 21:48:15.94	83.42	9.64	
2025-01-06 21:48:16.15	83.46	9.64	
2025-01-06 21:48:16.36	83.50	9.64	
2025-01-06 21:48:16.56	83.53	9.63	
2025-01-06 21:48:16.77	83.57	9.63	
2025-01-06 21:48:16.97	83.60	9.63	
2025-01-06 21:48:17.18	83.64	9.63	
2025-01-06 21:48:17.39	83.68	9.62	
2025-01-06 21:48:17.59	83.71	9.62	
2025-01-06 21:48:17.80	83.75	9.62	
2025-01-06 21:48:18.00	83.78	9.62	
2025-01-06 21:48:18.21	83.82	9.61	
2025-01-06 21:48:18.41	83.86	9.61	
2025-01-06 21:48:18.62	83.89	9.61	
2025-01-06 21:48:18.82	83.93	9.61	
2025-01-06 21:48:19.03	83.96	9.60	
2025-01-06 21:48:19.23	84.00	9.60	
2025-01-06 21:48:19.44	84.04	9.60	
2025-01-06 21:48:19.64	84.07	9.60	
2025-01-06 21:48:19.85	84.11	9.59	
2025-01-06 21:48:20.06	84.14	9.59	
2025-01-06 21:48:20.26	84.18	9.59	
2025-01-06 21:48:20.46	84.21	9.59	
2025-01-06 21:48:20.67	84.25	9.58	
2025-01-06 21:48:20.88	84.29	9.58	
2025-01-06 21:48:21.08	84.32	9.58	
2025-01-06 21:48:21.28	84.36	9.58	
2025-01-06 21:48:21.49	84.39	9.57	
2025-01-06 21:48:21.70	84.43	9.57	
2025-01-06 21:48:21.90	84.47	9.57	
2025-01-06 21:48:22.11	84.50	9.57	
2025-01-06 21:48:22.31	84.54	9.56	
2025-01-06 21:48:22.52	84.57	9.56	
2025-01-06 21:48:22.72	84.61	9.56	
2025-01-06 21:48:22.93	84.65	9.56	
2025-01-06 21:48:23.13	84.68	9.55	
2025-01-06 21:48:23.34	84.72	9.55	
2025-01-06 21:48:23.55	84.75	9.55	
2025-01-06 21:48:23.76	84.79	9.54	
2025-01-06 21:48:23.97	84.83	9.54	
2025-01-06 21:48:24.17	84.86	9.54	
2025-01-06 21:48:24.38	84.90	9.54	
2025-01-06 21:48:24.58	84.93	9.53	
2025-01-06 21:48:24.79	84.97	9.53	
2025-01-06 21:48:24.99	85.01	9.53	
2025-01-06 21:48:25.20	85.04	9.53	
2025-01-06 21:48:25.40	85.08	9.52	
2025-01-06 21:48:25.61	85.11	9.52	
2025-01-06 21:48:25.81	85.15	9.52	
2025-01-06 21:48:26.02	85.18	9.51	
2025-01-06 21:48:26.22	85.22	9.51	
2025-01-06 21:48:26.43	85.26	9.51	
2025-01-06 21:48:26.65	85.29	9.51	
2025-01-06 21:48:26.85	85.33	9.50	
2025-01-06 21:48:27.06	85.37	9.50	
2025-01-06 21:48:27.27	85.40	9.50	
2025-01-06 21:48:27.47	85.44	9.49	
2025-01-06 21:48:27.68	85.47	9.49	
2025-01-06 21:48:27.88	85.51	9.49	
2025-01-06 21:48:28.09	85.55	9.49	
2025-01-06 21:48:28.29	85.58	9.48	
2025-01-06 21:48:28.50	85.62	9.48	
2025-01-06 21:48:28.70	85.65	9.48	
2025-01-06 21:48:28.90	85.69	9.47	
2025-01-06 21:48:29.11	85.72	9.47	
2025-01-06 21:48:29.32	85.76	9.47	
2025-01-06 21:48:29.52	85.79	9.47	
2025-01-06 21:48:29.73	85.83	9.46	
2025-01-06 21:48:29.93	85.86	9.46	
2025-01-06 21:48:30.14	85.90	9.46	
2025-01-06 21:48:30.34	85.94	9.45	
2025-01-06 21:48:30.55	85.97	9.45	
2025-01-06 21:48:30.76	86.01	9.45	
2025-01-06 21:48:30.97	86.05	9.44	
2025-01-06 21:48:31.18	86.08	9.44	
2025-01-06 21:48:31.38	86.12	9.44	
2025-01-06 21:48:31.59	86.15	9.43	
2025-01-06 21:48:31.79	86.19	9.43	
2025-01-06 21:48:32.00	86.22	9.43	
2025-01-06 21:48:32.20	86.26	9.43	
2025-01-06 21:48:32.41	86.29	9.42	
2025-01-06 21:48:32.61	86.33	9.42	
2025-01-06 21:48:32.82	86.37	9.42	
2025-01-06 21:48:33.02	86.40	9.41	
2025-01-06 21:48:33.23	86.44	9.41	
2025-01-06 21:48:33.43	86.47	9.41	
2025-01-06 21:48:33.64	86.51	9.40	
2025-01-06 21:48:33.84	86.54	9.40	
2025-01-06 21:48:34.05	86.58	9.40	
2025-01-06 21:48:34.25	86.61	9.39	
2025-01-06 21:48:34.46	86.65	9.39	
2025-01-06 21:48:34.66	86.68	9.39	
2025-01-06 21:48:34.87	86.72	9.39	
2025-01-06 21:48:35.08	86.76	9.38	
2025-01-06 21:48:35.30	86.79	9.38	
2025-01-06 21:48:35.50	86.83	9.38	
2025-01-06 21:48:35.71	86.87	9.37	
2025-01-06 21:48:35.91	86.90	9.37	
2025-01-06 21:48:36.12	86.94	9.37	
2025-01-06 21:48:36.34	86.97	9.36	
2025-01-06 21:48:36.54	87.01	9.36	
2025-01-06 21:48:36.75	87.04	9.36	
2025-01-06 21:48:36.95	87.08	9.35	
2025-01-06 21:48:37.16	87.12	9.35	
2025-01-06 21:48:37.36	87.15	9.35	
2025-01-06 21:48:37.57	87.19	9.34	
2025-01-06 21:48:37.78	87.22	9.34	
2025-01-06 21:48:37.98	87.26	9.34	
2025-01-06 21:48:38.19	87.29	9.33	
2025-01-06 21:48:38.39	87.33	9.33	
2025-01-06 21:48:38.60	87.36	9.33	
2025-01-06 21:48:38.80	87.40	9.32	
2025-01-06 21:48:39.01	87.43	9.32	
2025-01-06 21:48:39.22	87.47	9.32	
2025-01-06 21:48:39.42	87.50	9.31	
2025-01-06 21:48:39.63	87.54	9.31	
2025-01-06 21:48:39.83	87.57	9.31	
2025-01-06 21:48:40.05	87.61	9.30	
2025-01-06 21:48:40.25	87.65	9.30	
2025-01-06 21:48:40.46	87.68	9.29	
2025-01-06 21:48:40.66	87.72	9.29	
2025-01-06 21:48:40.87	87.75	9.29	
2025-01-06 21:48:41.07	87.79	9.28	
2025-01-06 21:48:41.29	87.83	9.28	
2025-01-06 21:48:41.50	87.86	9.28	
2025-01-06 21:48:41.72	87.90	9.27	
2025-01-06 21:48:41.92	87.93	9.27	
2025-01-06 21:48:42.13	87.97	9.27	
2025-01-06 21:48:42.33	88.00	9.26	
2025-01-06 21:48:42.54	88.04	9.26	
2025-01-06 21:48:42.74	88.07	9.26	
2025-01-06 21:48:42.95	88.11	9.25	
2025-01-06 21:48:43.15	88.14	9.25	
2025-01-06 21:48:43.36	88.18	9.25	
2025-01-06 21:48:43.57	88.22	9.24	
2025-01-06 21:48:43.77	88.25	9.24	
2025-01-06 21:48:43.98	88.29	9.23	
2025-01-06 21:48:44.18	88.32	9.23	
2025-01-06 21:48:44.39	88.36	9.23	
2025-01-06 21:48:44.59	88.39	9.22	
2025-01-06 21:48:44.79	88.42	9.22	
2025-01-06 21:48:45.00	88.46	9.22	
2025-01-06 21:48:45.21	88.50	9.21	
2025-01-06 21:48:45.41	88.53	9.21	
2025-01-06 21:48:45.62	88.57	9.21	
2025-01-06 21:48:45.82	88.60	9.20	
2025-01-06 21:48:46.03	88.64	9.20	
2025-01-06 21:48:46.23	88.67	9.19	
2025-01-06 21:48:46.44	88.71	9.19	
2025-01-06 21:48:46.64	88.74	9.19	
2025-01-06 21:48:46.85	88.78	9.18	
2025-01-06 21:48:47.06	88.81	9.18	
2025-01-06 21:48:47.26	88.85	9.18	
2025-01-06 21:48:47.47	88.88	9.17	
2025-01-06 21:48:47.67	88.92	9.17	
2025-01-06 21:48:47.88	88.95	9.16	
2025-01-06 21:48:48.08	88.99	9.16	
2025-01-06 21:48:48.29	89.02	9.16	
2025-01-06 21:48:48.49	89.06	9.15	
2025-01-06 21:48:48.70	89.09	9.15	
2025-01-06 21:48:48.90	89.12	9.15	
2025-01-06 21:48:49.11	89.16	9.14	
2025-01-06 21:48:49.31	89.19	9.14	
2025-01-06 21:48:49.52	89.23	9.13	
2025-01-06 21:48:49.72	89.26	9.13	
2025-01-06 21:48:49.93	89.30	9.13	
2025-01-06 21:48:50.13	89.33	9.12	
2025-01-06 21:48:50.34	89.37	9.12	
2025-01-06 21:48:50.54	89.40	9.12	
2025-01-06 21:48:50.75	89.44	9.11	
2025-01-06 21:48:50.95	89.47	9.11	
2025-01-06 21:48:51.16	89.51	9.10	
2025-01-06 21:48:51.36	89.54	9.10	
2025-01-06 21:48:51.57	89.58	9.10	
2025-01-06 21:48:51.77	89.61	9.09	
2025-01-06 21:48:51.98	89.65	9.09	
2025-01-06 21:48:52.19	89.68	9.08	
2025-01-06 21:48:52.39	89.72	9.08	
2025-01-06 21:48:52.60	89.75	9.08	
2025-01-06 21:48:52.80	89.79	9.07	
2025-01-06 21:48:53.01	89.82	9.07	
2025-01-06 21:48:53.21	89.86	9.06	
2025-01-06 21:48:53.42	89.89	9.06	
2025-01-06 21:48:53.62	89.93	9.06	
2025-01-06 21:48:53.83	89.96	9.05	
2025-01-06 21:48:54.03	89.99	9.05	
2025-01-06 21:48:54.24	90.03	9.04	
2025-01-06 21:48:54.45	90.07	9.04	
2025-01-06 21:48:54.65	90.10	9.04	
2025-01-06 21:48:54.86	90.13	9.03	
2025-01-06 21:48:55.06	90.17	9.03	
2025-01-06 21:48:55.27	90.20	9.02	
2025-01-06 21:48:55.47	90.24	9.02	
2025-01-06 21:48:55.67	90.27	9.02	
2025-01-06 21:48:55.88	90.31	9.01	
2025-01-06 21:48:56.08	90.34	9.01	
2025-01-06 21:48:56.29	90.38	9.00	
2025-01-06 21:48:56.50	90.41	9.00	
2025-01-06 21:48:56.70	90.44	9.00	
2025-01-06 21:48:56.91	90.48	8.99	
2025-01-06 21:48:57.11	90.51	8.99	
2025-01-06 21:48:57.32	90.55	8.98	
2025-01-06 21:48:57.53	90.58	8.98	
2025-01-06 21:48:57.73	90.62	8.97	
2025-01-06 21:48:57.93	90.65	8.97	
2025-01-06 21:48:58.14	90.69	8.97	
2025-01-06 21:48:58.34	90.72	8.96	
2025-01-06 21:48:58.55	90.76	8.96	
2025-01-06 21:48:58.75	90.79	8.95	
2025-01-06 21:48:58.96	90.82	8.95	
2025-01-06 21:48:59.17	90.86	8.95	
2025-01-06 21:48:59.37	90.89	8.94	
2025-01-06 21:48:59.58	90.93	8.94	
2025-01-06 21:48:59.78	90.96	8.93	
2025-01-06 21:48:59.99	91.00	8.93	
2025-01-06 21:49:00.21	91.03	8.92	
2025-01-06 21:49:00.41	91.07	8.92	
2025-01-06 21:49:00.62	91.10	8.91	
2025-01-06 21:49:00.82	91.14	8.91	
2025-01-06 21:49:01.03	91.17	8.91	
2025-01-06 21:49:01.23	91.21	8.90	
2025-01-06 21:49:01.44	91.24	8.90	
2025-01-06 21:49:01.64	91.27	8.89	
2025-01-06 21:49:01.85	91.31	8.89	
2025-01-06 21:49:02.05	91.34	8.88	
2025-01-06 21:49:02.26	91.38	8.88	
2025-01-06 21:49:02.46	91.41	8.88	
2025-01-06 21:49:02.67	91.45	8.87	
2025-01-06 21:49:02.87	91.48	8.87	
2025-01-06 21:49:03.08	91.51	8.86	
2025-01-06 21:49:03.28	91.55	8.86	
2025-01-06 21:49:03.49	91.58	8.85	
2025-01-06 21:49:03.70	91.62	8.85	
2025-01-06 21:49:03.90	91.65	8.85	
2025-01-06 21:49:04.12	91.69	8.84	
2025-01-06 21:49:04.32	91.72	8.84	
2025-01-06 21:49:04.53	91.76	8.83	
2025-01-06 21:49:04.74	91.79	8.83	
2025-01-06 21:49:04.94	91.82	8.82	
2025-01-06 21:49:05.14	91.86	8.82	
2025-01-06 21:49:05.35	91.89	8.81	
2025-01-06 21:49:05.55	91.93	8.81	
2025-01-06 21:49:05.76	91.96	8.81	
2025-01-06 21:49:05.97	92.00	8.80	
2025-01-06 21:49:06.19	92.03	8.80	
2025-01-06 21:49:06.40	92.07	8.79	
2025-01-06 21:49:06.60	92.10	8.79	
2025-01-06 21:49:06.81	92.14	8.78	
2025-01-06 21:49:07.01	92.17	8.78	
2025-01-06 21:49:07.22	92.20	8.77	
2025-01-06 21:49:07.42	92.24	8.77	
2025-01-06 21:49:07.63	92.27	8.76	
2025-01-06 21:49:07.83	92.30	8.76	
2025-01-06 21:49:08.04	92.34	8.75	
2025-01-06 21:49:08.24	92.37	8.75	
2025-01-06 21:49:08.45	92.41	8.75	
2025-01-06 21:49:08.66	92.44	8.74	
2025-01-06 21:49:08.86	92.47	8.74	
2025-01-06 21:49:09.06	92.51	8.73	
2025-01-06 21:49:09.27	92.54	8.73	
2025-01-06 21:49:09.47	92.58	8.72	
2025-01-06 21:49:09.68	92.61	8.72	
2025-01-06 21:49:09.88	92.64	8.71	
2025-01-06 21:49:10.09	92.68	8.71	
2025-01-06 21:49:10.29	92.71	8.70	
2025-01-06 21:49:10.51	92.75	8.70	
2025-01-06 21:49:10.72	92.78	8.69	
2025-01-06 21:49:10.92	92.82	8.69	
2025-01-06 21:49:11.13	92.85	8.69	
2025-01-06 21:49:11.33	92.88	8.68	
2025-01-06 21:49:11.54	92.92	8.68	
2025-01-06 21:49:11.74	92.95	8.67	
2025-01-06 21:49:11.94	92.98	8.67	
