passes_logs/2025/01/06/SPB_Silybum_02/SPB_Silybum_02__20250106_194912_TERRA_rec.log

#Pass ID: 20250106_194912_TERRA
#Satellite: TERRA
#Configuration: TERRA
#Start time: 2025-01-06 19:49:10

#Version: 2.0.20230423
#Station: SPB_Silybum_02
#Location: 30.233357 lon 59.946436 lat
#TLE: 1 25994U 99068A   25005.80302029  .00001467  00000+0  31252-3 0  9990
#TLE: 2 25994  98.0232  69.1253 0003583  90.8779 334.4790 14.60375524332735

#Time	Az	El	Level	Level2	SNR	BER	Gain	Gain2
2025-01-06 19:49:12.44	202.52	4.01	
2025-01-06 19:49:12.66	202.54	4.02	
2025-01-06 19:49:12.86	202.55	4.03	
2025-01-06 19:49:13.07	202.57	4.05	
2025-01-06 19:49:13.28	202.59	4.06	
2025-01-06 19:49:13.48	202.60	4.07	
2025-01-06 19:49:13.69	202.62	4.09	
2025-01-06 19:49:13.89	202.63	4.10	
2025-01-06 19:49:14.10	202.65	4.11	
2025-01-06 19:49:14.30	202.67	4.12	
2025-01-06 19:49:14.51	202.68	4.14	
2025-01-06 19:49:14.73	202.70	4.15	
2025-01-06 19:49:14.93	202.71	4.16	
2025-01-06 19:49:15.14	202.73	4.18	
2025-01-06 19:49:15.34	202.75	4.19	
2025-01-06 19:49:15.55	202.76	4.20	
2025-01-06 19:49:15.75	202.78	4.22	
2025-01-06 19:49:15.96	202.79	4.23	
2025-01-06 19:49:16.16	202.81	4.24	
2025-01-06 19:49:16.37	202.83	4.26	
2025-01-06 19:49:16.58	202.84	4.27	
2025-01-06 19:49:16.78	202.86	4.28	
2025-01-06 19:49:16.98	202.87	4.30	
2025-01-06 19:49:17.19	202.89	4.31	
2025-01-06 19:49:17.40	202.91	4.32	
2025-01-06 19:49:17.60	202.92	4.34	
2025-01-06 19:49:17.81	202.94	4.35	
2025-01-06 19:49:18.01	202.95	4.36	
2025-01-06 19:49:18.22	202.97	4.38	
2025-01-06 19:49:18.42	202.99	4.39	
2025-01-06 19:49:18.62	203.00	4.40	
2025-01-06 19:49:18.83	203.02	4.42	
2025-01-06 19:49:19.04	203.03	4.43	
2025-01-06 19:49:19.24	203.05	4.44	
2025-01-06 19:49:19.45	203.07	4.46	
2025-01-06 19:49:19.65	203.08	4.47	
2025-01-06 19:49:19.86	203.10	4.48	
2025-01-06 19:49:20.06	203.12	4.50	
2025-01-06 19:49:20.27	203.13	4.51	
2025-01-06 19:49:20.47	203.15	4.52	
2025-01-06 19:49:20.68	203.16	4.54	
2025-01-06 19:49:20.88	203.18	4.55	
2025-01-06 19:49:21.09	203.20	4.56	
2025-01-06 19:49:21.29	203.21	4.58	
2025-01-06 19:49:21.50	203.23	4.59	
2025-01-06 19:49:21.71	203.25	4.60	
2025-01-06 19:49:21.91	203.26	4.62	
2025-01-06 19:49:22.12	203.28	4.63	
2025-01-06 19:49:22.32	203.30	4.64	
2025-01-06 19:49:22.53	203.31	4.66	
2025-01-06 19:49:22.73	203.33	4.67	
2025-01-06 19:49:22.94	203.34	4.68	
2025-01-06 19:49:23.15	203.36	4.70	
2025-01-06 19:49:23.35	203.38	4.71	
2025-01-06 19:49:23.56	203.39	4.72	
2025-01-06 19:49:23.76	203.41	4.74	
2025-01-06 19:49:23.98	203.43	4.75	
2025-01-06 19:49:24.18	203.44	4.76	
2025-01-06 19:49:24.39	203.46	4.78	
2025-01-06 19:49:24.59	203.48	4.79	
2025-01-06 19:49:24.80	203.49	4.81	
2025-01-06 19:49:25.00	203.51	4.82	
2025-01-06 19:49:25.21	203.53	4.83	
2025-01-06 19:49:25.41	203.54	4.85	
2025-01-06 19:49:25.62	203.56	4.86	
2025-01-06 19:49:25.82	203.58	4.87	
2025-01-06 19:49:26.03	203.59	4.89	
2025-01-06 19:49:26.24	203.61	4.90	
2025-01-06 19:49:26.44	203.63	4.91	
2025-01-06 19:49:26.65	203.65	4.93	
2025-01-06 19:49:26.85	203.66	4.94	
2025-01-06 19:49:27.06	203.68	4.95	
2025-01-06 19:49:27.26	203.69	4.97	
2025-01-06 19:49:27.47	203.71	4.98	
2025-01-06 19:49:27.67	203.73	4.99	
2025-01-06 19:49:27.87	203.74	5.01	
2025-01-06 19:49:28.08	203.76	5.02	
2025-01-06 19:49:28.28	203.78	5.03	
2025-01-06 19:49:28.49	203.80	5.05	
2025-01-06 19:49:28.69	203.81	5.06	
2025-01-06 19:49:28.90	203.83	5.08	
2025-01-06 19:49:29.11	203.85	5.09	
2025-01-06 19:49:29.31	203.86	5.10	
2025-01-06 19:49:29.52	203.88	5.12	
2025-01-06 19:49:29.72	203.90	5.13	
2025-01-06 19:49:29.93	203.91	5.14	
2025-01-06 19:49:30.14	203.93	5.16	
2025-01-06 19:49:30.34	203.95	5.17	
2025-01-06 19:49:30.55	203.97	5.18	
2025-01-06 19:49:30.75	203.98	5.20	
2025-01-06 19:49:30.96	204.00	5.21	
2025-01-06 19:49:31.16	204.02	5.23	
2025-01-06 19:49:31.37	204.03	5.24	
2025-01-06 19:49:31.58	204.05	5.25	
2025-01-06 19:49:31.78	204.07	5.27	
2025-01-06 19:49:31.98	204.09	5.28	
2025-01-06 19:49:32.19	204.10	5.29	
2025-01-06 19:49:32.39	204.12	5.31	
2025-01-06 19:49:32.60	204.14	5.32	
2025-01-06 19:49:32.81	204.16	5.34	
2025-01-06 19:49:33.01	204.17	5.35	
2025-01-06 19:49:33.22	204.19	5.36	
2025-01-06 19:49:33.42	204.21	5.38	
2025-01-06 19:49:33.63	204.22	5.39	
2025-01-06 19:49:33.84	204.24	5.40	
2025-01-06 19:49:34.05	204.26	5.42	
2025-01-06 19:49:34.26	204.28	5.43	
2025-01-06 19:49:34.47	204.30	5.45	
2025-01-06 19:49:34.67	204.31	5.46	
2025-01-06 19:49:34.88	204.33	5.47	
2025-01-06 19:49:35.08	204.35	5.49	
2025-01-06 19:49:35.29	204.37	5.50	
2025-01-06 19:49:35.49	204.38	5.51	
2025-01-06 19:49:35.70	204.40	5.53	
2025-01-06 19:49:35.90	204.42	5.54	
2025-01-06 19:49:36.11	204.43	5.56	
2025-01-06 19:49:36.31	204.45	5.57	
2025-01-06 19:49:36.52	204.47	5.58	
2025-01-06 19:49:36.72	204.49	5.60	
2025-01-06 19:49:36.93	204.51	5.61	
2025-01-06 19:49:37.13	204.52	5.62	
2025-01-06 19:49:37.34	204.54	5.64	
2025-01-06 19:49:37.54	204.56	5.65	
2025-01-06 19:49:37.75	204.58	5.67	
2025-01-06 19:49:37.96	204.59	5.68	
2025-01-06 19:49:38.16	204.61	5.69	
2025-01-06 19:49:38.37	204.63	5.71	
2025-01-06 19:49:38.57	204.65	5.72	
2025-01-06 19:49:38.78	204.66	5.74	
2025-01-06 19:49:38.99	204.68	5.75	
2025-01-06 19:49:39.19	204.70	5.76	
2025-01-06 19:49:39.41	204.72	5.78	
2025-01-06 19:49:39.61	204.74	5.79	
2025-01-06 19:49:39.82	204.75	5.81	
2025-01-06 19:49:40.02	204.77	5.82	
2025-01-06 19:49:40.23	204.79	5.83	
2025-01-06 19:49:40.43	204.81	5.85	
2025-01-06 19:49:40.64	204.83	5.86	
2025-01-06 19:49:40.84	204.84	5.88	
2025-01-06 19:49:41.05	204.86	5.89	
2025-01-06 19:49:41.26	204.88	5.90	
2025-01-06 19:49:41.46	204.90	5.92	
2025-01-06 19:49:41.67	204.92	5.93	
2025-01-06 19:49:41.88	204.93	5.95	
2025-01-06 19:49:42.08	204.95	5.96	
2025-01-06 19:49:42.29	204.97	5.97	
2025-01-06 19:49:42.49	204.99	5.99	
2025-01-06 19:49:42.70	205.01	6.00	
2025-01-06 19:49:42.90	205.02	6.02	
2025-01-06 19:49:43.11	205.04	6.03	
2025-01-06 19:49:43.32	205.06	6.04	
2025-01-06 19:49:43.52	205.08	6.06	
2025-01-06 19:49:43.73	205.10	6.07	
2025-01-06 19:49:43.93	205.12	6.09	
2025-01-06 19:49:44.14	205.13	6.10	
2025-01-06 19:49:44.34	205.15	6.11	
2025-01-06 19:49:44.55	205.17	6.13	
2025-01-06 19:49:44.75	205.19	6.14	
2025-01-06 19:49:44.96	205.21	6.16	
2025-01-06 19:49:45.16	205.22	6.17	
2025-01-06 19:49:45.37	205.24	6.18	
2025-01-06 19:49:45.58	205.26	6.20	
2025-01-06 19:49:45.78	205.28	6.21	
2025-01-06 19:49:45.98	205.30	6.23	
2025-01-06 19:49:46.19	205.32	6.24	
2025-01-06 19:49:46.40	205.34	6.25	
2025-01-06 19:49:46.60	205.35	6.27	
2025-01-06 19:49:46.81	205.37	6.28	
2025-01-06 19:49:47.01	205.39	6.30	
2025-01-06 19:49:47.22	205.41	6.31	
2025-01-06 19:49:47.42	205.43	6.32	
2025-01-06 19:49:47.63	205.45	6.34	
2025-01-06 19:49:47.83	205.46	6.35	
2025-01-06 19:49:48.04	205.48	6.37	
2025-01-06 19:49:48.24	205.50	6.38	
2025-01-06 19:49:48.45	205.52	6.40	
2025-01-06 19:49:48.65	205.54	6.41	
2025-01-06 19:49:48.86	205.56	6.42	
2025-01-06 19:49:49.06	205.58	6.44	
2025-01-06 19:49:49.27	205.60	6.45	
2025-01-06 19:49:49.47	205.61	6.47	
2025-01-06 19:49:49.68	205.63	6.48	
2025-01-06 19:49:49.88	205.65	6.49	
2025-01-06 19:49:50.08	205.67	6.51	
2025-01-06 19:49:50.29	205.69	6.52	
2025-01-06 19:49:50.50	205.71	6.54	
2025-01-06 19:49:50.70	205.73	6.55	
2025-01-06 19:49:50.91	205.75	6.57	
2025-01-06 19:49:51.11	205.76	6.58	
2025-01-06 19:49:51.32	205.78	6.59	
2025-01-06 19:49:51.52	205.80	6.61	
2025-01-06 19:49:51.73	205.82	6.62	
2025-01-06 19:49:51.93	205.84	6.64	
2025-01-06 19:49:52.14	205.86	6.65	
2025-01-06 19:49:52.34	205.88	6.66	
2025-01-06 19:49:52.55	205.90	6.68	
2025-01-06 19:49:52.75	205.91	6.69	
2025-01-06 19:49:52.96	205.93	6.71	
2025-01-06 19:49:53.16	205.95	6.72	
2025-01-06 19:49:53.37	205.97	6.74	
2025-01-06 19:49:53.57	205.99	6.75	
2025-01-06 19:49:53.78	206.01	6.77	
2025-01-06 19:49:53.99	206.03	6.78	
2025-01-06 19:49:54.19	206.05	6.79	
2025-01-06 19:49:54.39	206.07	6.81	
2025-01-06 19:49:54.60	206.09	6.82	
2025-01-06 19:49:54.81	206.11	6.84	
2025-01-06 19:49:55.01	206.13	6.85	
2025-01-06 19:49:55.22	206.15	6.87	
2025-01-06 19:49:55.42	206.16	6.88	
2025-01-06 19:49:55.63	206.18	6.89	
2025-01-06 19:49:55.83	206.20	6.91	
2025-01-06 19:49:56.04	206.22	6.92	
2025-01-06 19:49:56.24	206.24	6.94	
2025-01-06 19:49:56.45	206.26	6.95	
2025-01-06 19:49:56.65	206.28	6.97	
2025-01-06 19:49:56.86	206.30	6.98	
2025-01-06 19:49:57.07	206.32	7.00	
2025-01-06 19:49:57.27	206.34	7.01	
2025-01-06 19:49:57.47	206.36	7.02	
2025-01-06 19:49:57.68	206.38	7.04	
2025-01-06 19:49:57.89	206.40	7.05	
2025-01-06 19:49:58.09	206.42	7.07	
2025-01-06 19:49:58.30	206.44	7.08	
2025-01-06 19:49:58.50	206.46	7.10	
2025-01-06 19:49:58.71	206.48	7.11	
2025-01-06 19:49:58.91	206.49	7.12	
2025-01-06 19:49:59.12	206.51	7.14	
2025-01-06 19:49:59.32	206.53	7.15	
2025-01-06 19:49:59.53	206.55	7.17	
2025-01-06 19:49:59.73	206.57	7.18	
2025-01-06 19:49:59.94	206.59	7.20	
2025-01-06 19:50:00.14	206.61	7.21	
2025-01-06 19:50:00.35	206.63	7.23	
2025-01-06 19:50:00.55	206.65	7.24	
2025-01-06 19:50:00.76	206.67	7.26	
2025-01-06 19:50:00.96	206.69	7.27	
2025-01-06 19:50:01.17	206.71	7.28	
2025-01-06 19:50:01.37	206.73	7.30	
2025-01-06 19:50:01.58	206.75	7.31	
2025-01-06 19:50:01.78	206.77	7.33	
2025-01-06 19:50:01.99	206.79	7.34	
2025-01-06 19:50:02.19	206.81	7.36	
2025-01-06 19:50:02.40	206.83	7.37	
2025-01-06 19:50:02.61	206.85	7.39	
2025-01-06 19:50:02.81	206.87	7.40	
2025-01-06 19:50:03.01	206.89	7.42	
2025-01-06 19:50:03.22	206.91	7.43	
2025-01-06 19:50:03.43	206.93	7.45	
2025-01-06 19:50:03.63	206.95	7.46	
2025-01-06 19:50:03.84	206.97	7.47	
2025-01-06 19:50:04.04	206.99	7.49	
2025-01-06 19:50:04.25	207.01	7.50	
2025-01-06 19:50:04.45	207.03	7.52	
2025-01-06 19:50:04.66	207.05	7.53	
2025-01-06 19:50:04.86	207.07	7.55	
2025-01-06 19:50:05.07	207.09	7.56	
2025-01-06 19:50:05.27	207.11	7.58	
2025-01-06 19:50:05.48	207.13	7.59	
2025-01-06 19:50:05.68	207.15	7.61	
2025-01-06 19:50:05.89	207.17	7.62	
2025-01-06 19:50:06.09	207.19	7.64	
2025-01-06 19:50:06.30	207.21	7.65	
2025-01-06 19:50:06.51	207.23	7.67	
2025-01-06 19:50:06.71	207.25	7.68	
2025-01-06 19:50:06.92	207.28	7.69	
2025-01-06 19:50:07.12	207.30	7.71	
2025-01-06 19:50:07.33	207.32	7.72	
2025-01-06 19:50:07.53	207.34	7.74	
2025-01-06 19:50:07.74	207.36	7.75	
2025-01-06 19:50:07.95	207.38	7.77	
2025-01-06 19:50:08.15	207.40	7.78	
2025-01-06 19:50:08.35	207.42	7.80	
2025-01-06 19:50:08.56	207.44	7.81	
2025-01-06 19:50:08.76	207.46	7.83	
2025-01-06 19:50:08.97	207.48	7.84	
2025-01-06 19:50:09.17	207.50	7.86	
2025-01-06 19:50:09.38	207.52	7.87	
2025-01-06 19:50:09.59	207.54	7.89	
2025-01-06 19:50:09.79	207.56	7.90	
2025-01-06 19:50:10.00	207.58	7.92	
2025-01-06 19:50:10.20	207.60	7.93	
2025-01-06 19:50:10.40	207.62	7.95	
2025-01-06 19:50:10.61	207.65	7.96	
2025-01-06 19:50:10.82	207.67	7.98	
2025-01-06 19:50:11.02	207.69	7.99	
2025-01-06 19:50:11.23	207.71	8.01	
2025-01-06 19:50:11.43	207.73	8.02	
2025-01-06 19:50:11.64	207.75	8.04	
2025-01-06 19:50:11.84	207.77	8.05	
2025-01-06 19:50:12.05	207.79	8.07	
2025-01-06 19:50:12.25	207.81	8.08	
2025-01-06 19:50:12.46	207.83	8.09	
2025-01-06 19:50:12.66	207.86	8.11	
2025-01-06 19:50:12.87	207.88	8.12	
2025-01-06 19:50:13.07	207.90	8.14	
2025-01-06 19:50:13.28	207.92	8.15	
2025-01-06 19:50:13.50	207.94	8.17	
2025-01-06 19:50:13.70	207.96	8.19	
2025-01-06 19:50:13.91	207.98	8.20	
2025-01-06 19:50:14.12	208.01	8.22	
2025-01-06 19:50:14.32	208.03	8.23	
2025-01-06 19:50:14.53	208.05	8.25	
2025-01-06 19:50:14.73	208.07	8.26	
2025-01-06 19:50:14.94	208.09	8.28	
2025-01-06 19:50:15.14	208.11	8.29	
2025-01-06 19:50:15.35	208.13	8.31	
2025-01-06 19:50:15.56	208.15	8.32	
2025-01-06 19:50:15.77	208.18	8.34	
2025-01-06 19:50:15.98	208.20	8.35	
2025-01-06 19:50:16.18	208.22	8.37	
2025-01-06 19:50:16.39	208.24	8.38	
2025-01-06 19:50:16.59	208.26	8.40	
2025-01-06 19:50:16.79	208.28	8.41	
2025-01-06 19:50:17.00	208.31	8.43	
2025-01-06 19:50:17.21	208.33	8.44	
2025-01-06 19:50:17.42	208.35	8.46	
2025-01-06 19:50:17.62	208.37	8.47	
2025-01-06 19:50:17.82	208.39	8.49	
2025-01-06 19:50:18.03	208.41	8.50	
2025-01-06 19:50:18.24	208.44	8.52	
2025-01-06 19:50:18.44	208.46	8.53	
2025-01-06 19:50:18.65	208.48	8.55	
2025-01-06 19:50:18.85	208.50	8.56	
2025-01-06 19:50:19.06	208.52	8.58	
2025-01-06 19:50:19.26	208.54	8.59	
2025-01-06 19:50:19.47	208.57	8.61	
2025-01-06 19:50:19.68	208.59	8.62	
2025-01-06 19:50:19.88	208.61	8.64	
2025-01-06 19:50:20.09	208.63	8.65	
2025-01-06 19:50:20.29	208.65	8.67	
2025-01-06 19:50:20.50	208.68	8.68	
2025-01-06 19:50:20.70	208.70	8.70	
2025-01-06 19:50:20.90	208.72	8.71	
2025-01-06 19:50:21.11	208.74	8.73	
2025-01-06 19:50:21.32	208.76	8.74	
2025-01-06 19:50:21.53	208.79	8.76	
2025-01-06 19:50:21.74	208.81	8.78	
2025-01-06 19:50:21.95	208.83	8.79	
2025-01-06 19:50:22.16	208.85	8.81	
2025-01-06 19:50:22.36	208.88	8.82	
2025-01-06 19:50:22.57	208.90	8.84	
2025-01-06 19:50:22.78	208.92	8.85	
2025-01-06 19:50:22.98	208.94	8.87	
2025-01-06 19:50:23.19	208.96	8.88	
2025-01-06 19:50:23.39	208.99	8.90	
2025-01-06 19:50:23.60	209.01	8.91	
2025-01-06 19:50:23.81	209.03	8.93	
2025-01-06 19:50:24.01	209.05	8.94	
2025-01-06 19:50:24.22	209.08	8.96	
2025-01-06 19:50:24.42	209.10	8.98	
2025-01-06 19:50:24.63	209.12	8.99	
2025-01-06 19:50:24.83	209.14	9.01	
2025-01-06 19:50:25.04	209.17	9.02	
2025-01-06 19:50:25.26	209.19	9.04	
2025-01-06 19:50:25.46	209.21	9.05	
2025-01-06 19:50:25.67	209.24	9.07	
2025-01-06 19:50:25.87	209.26	9.08	
2025-01-06 19:50:26.08	209.28	9.10	
2025-01-06 19:50:26.28	209.30	9.11	
2025-01-06 19:50:26.49	209.33	9.13	
2025-01-06 19:50:26.69	209.35	9.15	
2025-01-06 19:50:26.90	209.37	9.16	
2025-01-06 19:50:27.10	209.39	9.18	
2025-01-06 19:50:27.31	209.42	9.19	
2025-01-06 19:50:27.51	209.44	9.21	
2025-01-06 19:50:27.72	209.46	9.22	
2025-01-06 19:50:27.92	209.48	9.24	
2025-01-06 19:50:28.13	209.51	9.25	
2025-01-06 19:50:28.35	209.53	9.27	
2025-01-06 19:50:28.55	209.55	9.28	
2025-01-06 19:50:28.76	209.58	9.30	
2025-01-06 19:50:28.96	209.60	9.32	
2025-01-06 19:50:29.17	209.62	9.33	
2025-01-06 19:50:29.39	209.65	9.35	
2025-01-06 19:50:29.59	209.67	9.36	
2025-01-06 19:50:29.80	209.69	9.38	
2025-01-06 19:50:30.00	209.72	9.39	
2025-01-06 19:50:30.21	209.74	9.41	
2025-01-06 19:50:30.41	209.76	9.43	
2025-01-06 19:50:30.62	209.79	9.44	
2025-01-06 19:50:30.82	209.81	9.46	
2025-01-06 19:50:31.03	209.83	9.47	
2025-01-06 19:50:31.24	209.86	9.49	
2025-01-06 19:50:31.44	209.88	9.50	
2025-01-06 19:50:31.65	209.90	9.52	
2025-01-06 19:50:31.85	209.93	9.53	
2025-01-06 19:50:32.06	209.95	9.55	
2025-01-06 19:50:32.26	209.97	9.57	
2025-01-06 19:50:32.47	210.00	9.58	
2025-01-06 19:50:32.67	210.02	9.60	
2025-01-06 19:50:32.88	210.04	9.61	
2025-01-06 19:50:33.08	210.07	9.63	
2025-01-06 19:50:33.29	210.09	9.64	
2025-01-06 19:50:33.50	210.11	9.66	
2025-01-06 19:50:33.70	210.14	9.67	
2025-01-06 19:50:33.91	210.16	9.69	
2025-01-06 19:50:34.11	210.18	9.71	
2025-01-06 19:50:34.32	210.21	9.72	
2025-01-06 19:50:34.52	210.23	9.74	
2025-01-06 19:50:34.73	210.25	9.75	
2025-01-06 19:50:34.93	210.28	9.77	
2025-01-06 19:50:35.14	210.30	9.78	
2025-01-06 19:50:35.34	210.33	9.80	
2025-01-06 19:50:35.55	210.35	9.82	
2025-01-06 19:50:35.75	210.37	9.83	
2025-01-06 19:50:35.96	210.40	9.85	
2025-01-06 19:50:36.16	210.42	9.86	
2025-01-06 19:50:36.37	210.44	9.88	
2025-01-06 19:50:36.57	210.47	9.89	
2025-01-06 19:50:36.78	210.49	9.91	
2025-01-06 19:50:36.98	210.52	9.93	
2025-01-06 19:50:37.19	210.54	9.94	
2025-01-06 19:50:37.39	210.56	9.96	
2025-01-06 19:50:37.60	210.59	9.97	
2025-01-06 19:50:37.80	210.61	9.99	
2025-01-06 19:50:38.01	210.64	10.00	
2025-01-06 19:50:38.21	210.66	10.02	
2025-01-06 19:50:38.41	210.68	10.04	
2025-01-06 19:50:38.62	210.71	10.05	
2025-01-06 19:50:38.82	210.73	10.07	
2025-01-06 19:50:39.04	210.76	10.08	
2025-01-06 19:50:39.26	210.78	10.10	
2025-01-06 19:50:39.47	210.81	10.12	
2025-01-06 19:50:39.67	210.83	10.13	
2025-01-06 19:50:39.88	210.86	10.15	
2025-01-06 19:50:40.08	210.88	10.16	
2025-01-06 19:50:40.29	210.91	10.18	
2025-01-06 19:50:40.50	210.93	10.20	
2025-01-06 19:50:40.70	210.95	10.21	
2025-01-06 19:50:40.91	210.98	10.23	
2025-01-06 19:50:41.11	211.00	10.24	
2025-01-06 19:50:41.31	211.03	10.26	
2025-01-06 19:50:41.52	211.05	10.28	
2025-01-06 19:50:41.73	211.08	10.29	
2025-01-06 19:50:41.93	211.10	10.31	
2025-01-06 19:50:42.14	211.13	10.32	
2025-01-06 19:50:42.34	211.15	10.34	
2025-01-06 19:50:42.55	211.18	10.36	
2025-01-06 19:50:42.75	211.20	10.37	
2025-01-06 19:50:42.96	211.23	10.39	
2025-01-06 19:50:43.17	211.25	10.40	
2025-01-06 19:50:43.37	211.27	10.42	
2025-01-06 19:50:43.58	211.30	10.44	
2025-01-06 19:50:43.78	211.32	10.45	
2025-01-06 19:50:43.99	211.35	10.47	
2025-01-06 19:50:44.19	211.37	10.48	
2025-01-06 19:50:44.40	211.40	10.50	
2025-01-06 19:50:44.60	211.42	10.51	
2025-01-06 19:50:44.81	211.45	10.53	
2025-01-06 19:50:45.02	211.48	10.55	
2025-01-06 19:50:45.22	211.50	10.56	
2025-01-06 19:50:45.42	211.52	10.58	
2025-01-06 19:50:45.63	211.55	10.59	
2025-01-06 19:50:45.83	211.57	10.61	
2025-01-06 19:50:46.04	211.60	10.63	
2025-01-06 19:50:46.25	211.63	10.64	
2025-01-06 19:50:46.45	211.65	10.66	
2025-01-06 19:50:46.66	211.68	10.68	
2025-01-06 19:50:46.86	211.70	10.69	
2025-01-06 19:50:47.07	211.73	10.71	
2025-01-06 19:50:47.27	211.75	10.72	
2025-01-06 19:50:47.48	211.78	10.74	
2025-01-06 19:50:47.68	211.80	10.76	
2025-01-06 19:50:47.89	211.83	10.77	
2025-01-06 19:50:48.09	211.85	10.79	
2025-01-06 19:50:48.30	211.88	10.80	
2025-01-06 19:50:48.50	211.90	10.82	
2025-01-06 19:50:48.71	211.93	10.84	
2025-01-06 19:50:48.91	211.95	10.85	
2025-01-06 19:50:49.12	211.98	10.87	
2025-01-06 19:50:49.32	212.01	10.88	
2025-01-06 19:50:49.53	212.03	10.90	
2025-01-06 19:50:49.73	212.06	10.92	
2025-01-06 19:50:49.94	212.08	10.93	
2025-01-06 19:50:50.14	212.11	10.95	
2025-01-06 19:50:50.35	212.14	10.97	
2025-01-06 19:50:50.55	212.16	10.98	
2025-01-06 19:50:50.76	212.19	11.00	
2025-01-06 19:50:50.96	212.21	11.01	
2025-01-06 19:50:51.17	212.24	11.03	
2025-01-06 19:50:51.38	212.27	11.05	
2025-01-06 19:50:51.58	212.29	11.06	
2025-01-06 19:50:51.78	212.32	11.08	
2025-01-06 19:50:51.99	212.34	11.10	
2025-01-06 19:50:52.19	212.37	11.11	
2025-01-06 19:50:52.40	212.39	11.13	
2025-01-06 19:50:52.61	212.42	11.14	
2025-01-06 19:50:52.81	212.45	11.16	
2025-01-06 19:50:53.01	212.47	11.18	
2025-01-06 19:50:53.22	212.50	11.19	
2025-01-06 19:50:53.42	212.52	11.21	
2025-01-06 19:50:53.63	212.55	11.23	
2025-01-06 19:50:53.83	212.58	11.24	
2025-01-06 19:50:54.04	212.60	11.26	
2025-01-06 19:50:54.24	212.63	11.27	
2025-01-06 19:50:54.45	212.66	11.29	
2025-01-06 19:50:54.66	212.68	11.31	
2025-01-06 19:50:54.86	212.71	11.32	
2025-01-06 19:50:55.07	212.74	11.34	
2025-01-06 19:50:55.27	212.76	11.36	
2025-01-06 19:50:55.48	212.79	11.37	
2025-01-06 19:50:55.68	212.82	11.39	
2025-01-06 19:50:55.89	212.84	11.41	
2025-01-06 19:50:56.09	212.87	11.42	
2025-01-06 19:50:56.30	212.90	11.44	
2025-01-06 19:50:56.50	212.92	11.45	
2025-01-06 19:50:56.71	212.95	11.47	
2025-01-06 19:50:56.92	212.98	11.49	
2025-01-06 19:50:57.12	213.00	11.50	
2025-01-06 19:50:57.32	213.03	11.52	
2025-01-06 19:50:57.53	213.06	11.54	
2025-01-06 19:50:57.73	213.08	11.55	
2025-01-06 19:50:57.94	213.11	11.57	
2025-01-06 19:50:58.15	213.14	11.59	
2025-01-06 19:50:58.36	213.16	11.60	
2025-01-06 19:50:58.57	213.19	11.62	
2025-01-06 19:50:58.77	213.22	11.64	
2025-01-06 19:50:58.98	213.25	11.65	
2025-01-06 19:50:59.19	213.27	11.67	
2025-01-06 19:50:59.39	213.30	11.69	
2025-01-06 19:50:59.59	213.33	11.70	
2025-01-06 19:50:59.80	213.36	11.72	
2025-01-06 19:51:00.01	213.38	11.74	
2025-01-06 19:51:00.21	213.41	11.75	
2025-01-06 19:51:00.41	213.44	11.77	
2025-01-06 19:51:00.62	213.46	11.78	
2025-01-06 19:51:00.82	213.49	11.80	
2025-01-06 19:51:01.03	213.52	11.82	
2025-01-06 19:51:01.23	213.55	11.83	
2025-01-06 19:51:01.44	213.57	11.85	
2025-01-06 19:51:01.64	213.60	11.87	
2025-01-06 19:51:01.85	213.63	11.88	
2025-01-06 19:51:02.05	213.66	11.90	
2025-01-06 19:51:02.26	213.68	11.92	
2025-01-06 19:51:02.46	213.71	11.93	
2025-01-06 19:51:02.67	213.74	11.95	
2025-01-06 19:51:02.87	213.77	11.97	
2025-01-06 19:51:03.08	213.79	11.98	
2025-01-06 19:51:03.28	213.82	12.00	
2025-01-06 19:51:03.49	213.85	12.02	
2025-01-06 19:51:03.69	213.88	12.03	
2025-01-06 19:51:03.90	213.91	12.05	
2025-01-06 19:51:04.10	213.93	12.07	
2025-01-06 19:51:04.31	213.96	12.08	
2025-01-06 19:51:04.52	213.99	12.10	
2025-01-06 19:51:04.73	214.02	12.12	
2025-01-06 19:51:04.94	214.05	12.13	
2025-01-06 19:51:05.14	214.07	12.15	
2025-01-06 19:51:05.35	214.10	12.17	
2025-01-06 19:51:05.56	214.13	12.18	
2025-01-06 19:51:05.76	214.16	12.20	
2025-01-06 19:51:05.97	214.19	12.22	
2025-01-06 19:51:06.17	214.22	12.23	
2025-01-06 19:51:06.38	214.24	12.25	
2025-01-06 19:51:06.58	214.27	12.27	
2025-01-06 19:51:06.79	214.30	12.29	
2025-01-06 19:51:06.99	214.33	12.30	
2025-01-06 19:51:07.20	214.36	12.32	
2025-01-06 19:51:07.40	214.38	12.33	
2025-01-06 19:51:07.61	214.41	12.35	
2025-01-06 19:51:07.82	214.44	12.37	
2025-01-06 19:51:08.02	214.47	12.39	
2025-01-06 19:51:08.23	214.50	12.40	
2025-01-06 19:51:08.43	214.53	12.42	
2025-01-06 19:51:08.64	214.56	12.44	
2025-01-06 19:51:08.84	214.59	12.45	
2025-01-06 19:51:09.05	214.61	12.47	
2025-01-06 19:51:09.25	214.64	12.49	
2025-01-06 19:51:09.46	214.67	12.50	
2025-01-06 19:51:09.67	214.70	12.52	
2025-01-06 19:51:09.87	214.73	12.54	
2025-01-06 19:51:10.07	214.76	12.55	
2025-01-06 19:51:10.28	214.79	12.57	
2025-01-06 19:51:10.48	214.82	12.59	
2025-01-06 19:51:10.69	214.84	12.60	
2025-01-06 19:51:10.89	214.87	12.62	
2025-01-06 19:51:11.10	214.90	12.64	
2025-01-06 19:51:11.30	214.93	12.65	
2025-01-06 19:51:11.50	214.96	12.67	
2025-01-06 19:51:11.71	214.99	12.69	
2025-01-06 19:51:11.92	215.02	12.71	
2025-01-06 19:51:12.12	215.05	12.72	
2025-01-06 19:51:12.32	215.08	12.74	
2025-01-06 19:51:12.53	215.11	12.76	
2025-01-06 19:51:12.73	215.13	12.77	
2025-01-06 19:51:12.94	215.16	12.79	
2025-01-06 19:51:13.15	215.19	12.81	
2025-01-06 19:51:13.35	215.22	12.82	
2025-01-06 19:51:13.56	215.25	12.84	
2025-01-06 19:51:13.76	215.28	12.86	
2025-01-06 19:51:13.97	215.31	12.88	
2025-01-06 19:51:14.18	215.34	12.89	
2025-01-06 19:51:14.38	215.37	12.91	
2025-01-06 19:51:14.59	215.40	12.93	
2025-01-06 19:51:14.79	215.43	12.94	
2025-01-06 19:51:15.00	215.46	12.96	
2025-01-06 19:51:15.20	215.49	12.98	
2025-01-06 19:51:15.41	215.52	12.99	
2025-01-06 19:51:15.61	215.55	13.01	
2025-01-06 19:51:15.82	215.58	13.03	
2025-01-06 19:51:16.03	215.61	13.05	
2025-01-06 19:51:16.23	215.64	13.06	
2025-01-06 19:51:16.44	215.67	13.08	
2025-01-06 19:51:16.64	215.70	13.10	
2025-01-06 19:51:16.85	215.73	13.11	
2025-01-06 19:51:17.05	215.76	13.13	
2025-01-06 19:51:17.26	215.79	13.15	
2025-01-06 19:51:17.46	215.82	13.16	
2025-01-06 19:51:17.66	215.85	13.18	
2025-01-06 19:51:17.87	215.88	13.20	
2025-01-06 19:51:18.07	215.91	13.22	
2025-01-06 19:51:18.28	215.94	13.23	
2025-01-06 19:51:18.49	215.97	13.25	
2025-01-06 19:51:18.69	216.00	13.27	
2025-01-06 19:51:18.90	216.03	13.29	
2025-01-06 19:51:19.10	216.06	13.30	
2025-01-06 19:51:19.31	216.09	13.32	
2025-01-06 19:51:19.51	216.12	13.34	
2025-01-06 19:51:19.72	216.15	13.35	
2025-01-06 19:51:19.93	216.18	13.37	
2025-01-06 19:51:20.13	216.21	13.39	
2025-01-06 19:51:20.34	216.25	13.41	
2025-01-06 19:51:20.54	216.28	13.42	
2025-01-06 19:51:20.75	216.31	13.44	
2025-01-06 19:51:20.96	216.34	13.46	
2025-01-06 19:51:21.16	216.37	13.47	
2025-01-06 19:51:21.37	216.40	13.49	
2025-01-06 19:51:21.57	216.43	13.51	
2025-01-06 19:51:21.77	216.46	13.53	
2025-01-06 19:51:21.98	216.49	13.54	
2025-01-06 19:51:22.19	216.52	13.56	
2025-01-06 19:51:22.39	216.55	13.58	
2025-01-06 19:51:22.60	216.59	13.60	
2025-01-06 19:51:22.80	216.62	13.61	
2025-01-06 19:51:23.01	216.65	13.63	
2025-01-06 19:51:23.21	216.68	13.65	
2025-01-06 19:51:23.42	216.71	13.66	
2025-01-06 19:51:23.62	216.74	13.68	
2025-01-06 19:51:23.83	216.77	13.70	
2025-01-06 19:51:24.03	216.80	13.72	
2025-01-06 19:51:24.24	216.83	13.73	
2025-01-06 19:51:24.45	216.87	13.75	
2025-01-06 19:51:24.65	216.90	13.77	
2025-01-06 19:51:24.86	216.93	13.79	
2025-01-06 19:51:25.06	216.96	13.80	
2025-01-06 19:51:25.27	216.99	13.82	
2025-01-06 19:51:25.47	217.02	13.84	
2025-01-06 19:51:25.68	217.06	13.85	
2025-01-06 19:51:25.89	217.09	13.87	
2025-01-06 19:51:26.09	217.12	13.89	
2025-01-06 19:51:26.30	217.15	13.91	
2025-01-06 19:51:26.50	217.18	13.92	
2025-01-06 19:51:26.71	217.21	13.94	
2025-01-06 19:51:26.91	217.25	13.96	
2025-01-06 19:51:27.12	217.28	13.98	
2025-01-06 19:51:27.32	217.31	13.99	
2025-01-06 19:51:27.53	217.34	14.01	
2025-01-06 19:51:27.74	217.38	14.03	
2025-01-06 19:51:27.94	217.41	14.05	
2025-01-06 19:51:28.15	217.44	14.06	
2025-01-06 19:51:28.35	217.47	14.08	
2025-01-06 19:51:28.56	217.50	14.10	
2025-01-06 19:51:28.76	217.53	14.12	
2025-01-06 19:51:28.97	217.57	14.13	
2025-01-06 19:51:29.17	217.60	14.15	
2025-01-06 19:51:29.37	217.63	14.17	
2025-01-06 19:51:29.58	217.66	14.19	
2025-01-06 19:51:29.78	217.70	14.20	
2025-01-06 19:51:29.99	217.73	14.22	
2025-01-06 19:51:30.20	217.76	14.24	
2025-01-06 19:51:30.40	217.79	14.26	
2025-01-06 19:51:30.60	217.82	14.27	
2025-01-06 19:51:30.81	217.86	14.29	
2025-01-06 19:51:31.02	217.89	14.31	
2025-01-06 19:51:31.22	217.92	14.33	
2025-01-06 19:51:31.43	217.96	14.34	
2025-01-06 19:51:31.63	217.99	14.36	
2025-01-06 19:51:31.84	218.02	14.38	
2025-01-06 19:51:32.04	218.05	14.40	
2025-01-06 19:51:32.24	218.09	14.41	
2025-01-06 19:51:32.45	218.12	14.43	
2025-01-06 19:51:32.65	218.15	14.45	
2025-01-06 19:51:32.86	218.19	14.47	
2025-01-06 19:51:33.06	218.22	14.48	
2025-01-06 19:51:33.27	218.25	14.50	
2025-01-06 19:51:33.47	218.28	14.52	
2025-01-06 19:51:33.67	218.32	14.53	
2025-01-06 19:51:33.88	218.35	14.55	
2025-01-06 19:51:34.08	218.38	14.57	
2025-01-06 19:51:34.29	218.42	14.59	
2025-01-06 19:51:34.50	218.45	14.61	
2025-01-06 19:51:34.70	218.48	14.62	
2025-01-06 19:51:34.90	218.52	14.64	
2025-01-06 19:51:35.11	218.55	14.66	
2025-01-06 19:51:35.32	218.58	14.68	
2025-01-06 19:51:35.52	218.62	14.69	
2025-01-06 19:51:35.73	218.65	14.71	
2025-01-06 19:51:35.93	218.68	14.73	
2025-01-06 19:51:36.14	218.72	14.75	
2025-01-06 19:51:36.35	218.75	14.76	
2025-01-06 19:51:36.55	218.79	14.78	
2025-01-06 19:51:36.77	218.82	14.80	
2025-01-06 19:51:36.97	218.85	14.82	
2025-01-06 19:51:37.18	218.89	14.84	
2025-01-06 19:51:37.38	218.92	14.85	
2025-01-06 19:51:37.60	218.96	14.87	
2025-01-06 19:51:37.81	218.99	14.89	
2025-01-06 19:51:38.01	219.03	14.91	
2025-01-06 19:51:38.22	219.06	14.93	
2025-01-06 19:51:38.42	219.09	14.94	
2025-01-06 19:51:38.63	219.13	14.96	
2025-01-06 19:51:38.83	219.16	14.98	
2025-01-06 19:51:39.03	219.20	15.00	
2025-01-06 19:51:39.24	219.23	15.01	
2025-01-06 19:51:39.44	219.27	15.03	
2025-01-06 19:51:39.65	219.30	15.05	
2025-01-06 19:51:39.85	219.33	15.07	
2025-01-06 19:51:40.06	219.37	15.08	
2025-01-06 19:51:40.26	219.40	15.10	
2025-01-06 19:51:40.47	219.44	15.12	
2025-01-06 19:51:40.68	219.47	15.14	
2025-01-06 19:51:40.88	219.51	15.16	
2025-01-06 19:51:41.09	219.54	15.17	
2025-01-06 19:51:41.29	219.58	15.19	
2025-01-06 19:51:41.50	219.61	15.21	
2025-01-06 19:51:41.70	219.65	15.23	
2025-01-06 19:51:41.91	219.68	15.24	
2025-01-06 19:51:42.11	219.72	15.26	
2025-01-06 19:51:42.32	219.75	15.28	
2025-01-06 19:51:42.52	219.78	15.30	
2025-01-06 19:51:42.73	219.82	15.32	
2025-01-06 19:51:42.94	219.86	15.33	
2025-01-06 19:51:43.14	219.89	15.35	
2025-01-06 19:51:43.35	219.93	15.37	
2025-01-06 19:51:43.55	219.96	15.39	
2025-01-06 19:51:43.76	220.00	15.41	
2025-01-06 19:51:43.96	220.03	15.42	
2025-01-06 19:51:44.17	220.07	15.44	
2025-01-06 19:51:44.37	220.10	15.46	
2025-01-06 19:51:44.58	220.14	15.48	
2025-01-06 19:51:44.78	220.17	15.49	
2025-01-06 19:51:44.99	220.21	15.51	
2025-01-06 19:51:45.19	220.24	15.53	
2025-01-06 19:51:45.40	220.28	15.55	
2025-01-06 19:51:45.60	220.31	15.57	
2025-01-06 19:51:45.80	220.35	15.58	
2025-01-06 19:51:46.01	220.39	15.60	
2025-01-06 19:51:46.22	220.42	15.62	
2025-01-06 19:51:46.42	220.46	15.64	
2025-01-06 19:51:46.63	220.49	15.65	
2025-01-06 19:51:46.83	220.53	15.67	
2025-01-06 19:51:47.04	220.57	15.69	
2025-01-06 19:51:47.24	220.60	15.71	
2025-01-06 19:51:47.46	220.64	15.73	
2025-01-06 19:51:47.67	220.68	15.75	
2025-01-06 19:51:47.87	220.71	15.76	
2025-01-06 19:51:48.08	220.75	15.78	
2025-01-06 19:51:48.28	220.78	15.80	
2025-01-06 19:51:48.49	220.82	15.82	
2025-01-06 19:51:48.69	220.86	15.83	
2025-01-06 19:51:48.90	220.89	15.85	
2025-01-06 19:51:49.10	220.93	15.87	
2025-01-06 19:51:49.31	220.97	15.89	
2025-01-06 19:51:49.51	221.00	15.91	
2025-01-06 19:51:49.72	221.04	15.92	
2025-01-06 19:51:49.92	221.07	15.94	
2025-01-06 19:51:50.13	221.11	15.96	
2025-01-06 19:51:50.33	221.15	15.98	
2025-01-06 19:51:50.54	221.18	16.00	
2025-01-06 19:51:50.76	221.22	16.02	
2025-01-06 19:51:50.96	221.26	16.03	
2025-01-06 19:51:51.17	221.30	16.05	
2025-01-06 19:51:51.37	221.33	16.07	
2025-01-06 19:51:51.58	221.37	16.09	
2025-01-06 19:51:51.78	221.41	16.11	
2025-01-06 19:51:51.99	221.45	16.12	
2025-01-06 19:51:52.20	221.48	16.14	
2025-01-06 19:51:52.40	221.52	16.16	
2025-01-06 19:51:52.61	221.56	16.18	
2025-01-06 19:51:52.82	221.60	16.20	
2025-01-06 19:51:53.03	221.63	16.22	
2025-01-06 19:51:53.23	221.67	16.23	
2025-01-06 19:51:53.44	221.71	16.25	
2025-01-06 19:51:53.64	221.74	16.27	
2025-01-06 19:51:53.86	221.78	16.29	
2025-01-06 19:51:54.07	221.82	16.31	
2025-01-06 19:51:54.27	221.86	16.32	
2025-01-06 19:51:54.48	221.90	16.34	
2025-01-06 19:51:54.68	221.93	16.36	
2025-01-06 19:51:54.89	221.97	16.38	
2025-01-06 19:51:55.09	222.01	16.40	
2025-01-06 19:51:55.30	222.05	16.41	
2025-01-06 19:51:55.50	222.09	16.43	
2025-01-06 19:51:55.71	222.12	16.45	
2025-01-06 19:51:55.91	222.16	16.47	
2025-01-06 19:51:56.12	222.20	16.49	
2025-01-06 19:51:56.32	222.24	16.50	
2025-01-06 19:51:56.53	222.28	16.52	
2025-01-06 19:51:56.73	222.31	16.54	
2025-01-06 19:51:56.94	222.35	16.56	
2025-01-06 19:51:57.14	222.39	16.58	
2025-01-06 19:51:57.35	222.43	16.60	
2025-01-06 19:51:57.55	222.47	16.61	
2025-01-06 19:51:57.76	222.50	16.63	
2025-01-06 19:51:57.97	222.54	16.65	
2025-01-06 19:51:58.17	222.58	16.67	
2025-01-06 19:51:58.37	222.62	16.69	
2025-01-06 19:51:58.58	222.66	16.70	
2025-01-06 19:51:58.78	222.70	16.72	
2025-01-06 19:51:58.99	222.74	16.74	
2025-01-06 19:51:59.20	222.77	16.76	
2025-01-06 19:51:59.41	222.81	16.78	
2025-01-06 19:51:59.61	222.85	16.79	
2025-01-06 19:51:59.82	222.89	16.81	
2025-01-06 19:52:00.02	222.93	16.83	
2025-01-06 19:52:00.22	222.97	16.85	
2025-01-06 19:52:00.43	223.01	16.87	
2025-01-06 19:52:00.64	223.05	16.89	
2025-01-06 19:52:00.84	223.09	16.90	
2025-01-06 19:52:01.04	223.12	16.92	
2025-01-06 19:52:01.25	223.16	16.94	
2025-01-06 19:52:01.45	223.20	16.96	
2025-01-06 19:52:01.66	223.24	16.98	
2025-01-06 19:52:01.87	223.28	16.99	
2025-01-06 19:52:02.07	223.32	17.01	
2025-01-06 19:52:02.28	223.36	17.03	
2025-01-06 19:52:02.48	223.40	17.05	
2025-01-06 19:52:02.68	223.44	17.07	
2025-01-06 19:52:02.89	223.48	17.08	
2025-01-06 19:52:03.09	223.52	17.10	
2025-01-06 19:52:03.30	223.56	17.12	
2025-01-06 19:52:03.50	223.60	17.14	
2025-01-06 19:52:03.71	223.64	17.16	
2025-01-06 19:52:03.91	223.68	17.18	
2025-01-06 19:52:04.12	223.72	17.19	
2025-01-06 19:52:04.32	223.75	17.21	
2025-01-06 19:52:04.54	223.80	17.23	
2025-01-06 19:52:04.75	223.84	17.25	
2025-01-06 19:52:04.96	223.88	17.27	
2025-01-06 19:52:05.16	223.92	17.29	
2025-01-06 19:52:05.37	223.96	17.30	
2025-01-06 19:52:05.57	224.00	17.32	
2025-01-06 19:52:05.78	224.04	17.34	
2025-01-06 19:52:05.98	224.08	17.36	
2025-01-06 19:52:06.19	224.12	17.38	
2025-01-06 19:52:06.39	224.16	17.39	
2025-01-06 19:52:06.60	224.20	17.41	
2025-01-06 19:52:06.80	224.24	17.43	
2025-01-06 19:52:07.01	224.28	17.45	
2025-01-06 19:52:07.21	224.32	17.47	
2025-01-06 19:52:07.42	224.36	17.49	
2025-01-06 19:52:07.62	224.40	17.50	
2025-01-06 19:52:07.83	224.44	17.52	
2025-01-06 19:52:08.03	224.48	17.54	
2025-01-06 19:52:08.24	224.53	17.56	
2025-01-06 19:52:08.45	224.57	17.58	
2025-01-06 19:52:08.65	224.61	17.60	
2025-01-06 19:52:08.85	224.65	17.61	
2025-01-06 19:52:09.06	224.69	17.63	
2025-01-06 19:52:09.27	224.73	17.65	
2025-01-06 19:52:09.47	224.77	17.67	
2025-01-06 19:52:09.68	224.81	17.69	
2025-01-06 19:52:09.88	224.85	17.70	
2025-01-06 19:52:10.09	224.90	17.72	
2025-01-06 19:52:10.29	224.94	17.74	
2025-01-06 19:52:10.50	224.98	17.76	
2025-01-06 19:52:10.71	225.02	17.78	
2025-01-06 19:52:10.91	225.06	17.80	
2025-01-06 19:52:11.12	225.10	17.81	
2025-01-06 19:52:11.32	225.14	17.83	
2025-01-06 19:52:11.53	225.19	17.85	
2025-01-06 19:52:11.73	225.23	17.87	
2025-01-06 19:52:11.94	225.27	17.89	
2025-01-06 19:52:12.15	225.31	17.91	
2025-01-06 19:52:12.35	225.35	17.92	
2025-01-06 19:52:12.56	225.40	17.94	
2025-01-06 19:52:12.77	225.44	17.96	
2025-01-06 19:52:12.97	225.48	17.98	
2025-01-06 19:52:13.17	225.52	18.00	
2025-01-06 19:52:13.38	225.56	18.02	
2025-01-06 19:52:13.59	225.61	18.03	
2025-01-06 19:52:13.79	225.65	18.05	
2025-01-06 19:52:14.00	225.69	18.07	
2025-01-06 19:52:14.20	225.73	18.09	
2025-01-06 19:52:14.41	225.78	18.11	
2025-01-06 19:52:14.61	225.82	18.13	
2025-01-06 19:52:14.82	225.86	18.14	
2025-01-06 19:52:15.03	225.91	18.16	
2025-01-06 19:52:15.23	225.95	18.18	
2025-01-06 19:52:15.44	225.99	18.20	
2025-01-06 19:52:15.64	226.03	18.22	
2025-01-06 19:52:15.85	226.08	18.24	
2025-01-06 19:52:16.05	226.12	18.25	
2025-01-06 19:52:16.26	226.16	18.27	
2025-01-06 19:52:16.46	226.20	18.29	
2025-01-06 19:52:16.67	226.25	18.31	
2025-01-06 19:52:16.87	226.29	18.33	
2025-01-06 19:52:17.08	226.33	18.34	
2025-01-06 19:52:17.30	226.38	18.36	
2025-01-06 19:52:17.50	226.42	18.38	
2025-01-06 19:52:17.71	226.47	18.40	
2025-01-06 19:52:17.91	226.51	18.42	
2025-01-06 19:52:18.12	226.55	18.44	
2025-01-06 19:52:18.32	226.59	18.46	
2025-01-06 19:52:18.53	226.64	18.47	
2025-01-06 19:52:18.73	226.68	18.49	
2025-01-06 19:52:18.94	226.73	18.51	
2025-01-06 19:52:19.14	226.77	18.53	
2025-01-06 19:52:19.35	226.81	18.55	
2025-01-06 19:52:19.55	226.86	18.56	
2025-01-06 19:52:19.76	226.90	18.58	
2025-01-06 19:52:19.97	226.95	18.60	
2025-01-06 19:52:20.17	226.99	18.62	
2025-01-06 19:52:20.38	227.03	18.64	
2025-01-06 19:52:20.59	227.08	18.66	
2025-01-06 19:52:20.80	227.12	18.68	
2025-01-06 19:52:21.00	227.17	18.69	
2025-01-06 19:52:21.21	227.21	18.71	
2025-01-06 19:52:21.42	227.26	18.73	
2025-01-06 19:52:21.62	227.30	18.75	
2025-01-06 19:52:21.83	227.35	18.77	
2025-01-06 19:52:22.03	227.39	18.78	
2025-01-06 19:52:22.24	227.43	18.80	
2025-01-06 19:52:22.44	227.48	18.82	
2025-01-06 19:52:22.65	227.52	18.84	
2025-01-06 19:52:22.85	227.57	18.86	
2025-01-06 19:52:23.06	227.61	18.88	
2025-01-06 19:52:23.26	227.66	18.89	
2025-01-06 19:52:23.47	227.70	18.91	
2025-01-06 19:52:23.67	227.74	18.93	
2025-01-06 19:52:23.88	227.79	18.95	
2025-01-06 19:52:24.08	227.83	18.97	
2025-01-06 19:52:24.29	227.88	18.99	
2025-01-06 19:52:24.49	227.92	19.00	
2025-01-06 19:52:24.70	227.97	19.02	
2025-01-06 19:52:24.90	228.01	19.04	
2025-01-06 19:52:25.11	228.06	19.06	
2025-01-06 19:52:25.31	228.10	19.08	
2025-01-06 19:52:25.52	228.15	19.09	
2025-01-06 19:52:25.72	228.20	19.11	
2025-01-06 19:52:25.93	228.24	19.13	
2025-01-06 19:52:26.13	228.29	19.15	
2025-01-06 19:52:26.34	228.33	19.17	
2025-01-06 19:52:26.54	228.38	19.18	
2025-01-06 19:52:26.75	228.42	19.20	
2025-01-06 19:52:26.96	228.47	19.22	
2025-01-06 19:52:27.16	228.52	19.24	
2025-01-06 19:52:27.37	228.56	19.26	
2025-01-06 19:52:27.57	228.61	19.28	
2025-01-06 19:52:27.78	228.65	19.29	
2025-01-06 19:52:27.99	228.70	19.31	
2025-01-06 19:52:28.20	228.75	19.33	
2025-01-06 19:52:28.41	228.80	19.35	
2025-01-06 19:52:28.61	228.84	19.37	
2025-01-06 19:52:28.82	228.89	19.39	
2025-01-06 19:52:29.02	228.93	19.40	
2025-01-06 19:52:29.23	228.98	19.42	
2025-01-06 19:52:29.43	229.03	19.44	
2025-01-06 19:52:29.64	229.07	19.46	
2025-01-06 19:52:29.85	229.12	19.48	
2025-01-06 19:52:30.05	229.17	19.50	
2025-01-06 19:52:30.25	229.21	19.51	
2025-01-06 19:52:30.46	229.26	19.53	
2025-01-06 19:52:30.67	229.31	19.55	
2025-01-06 19:52:30.87	229.35	19.57	
2025-01-06 19:52:31.08	229.40	19.59	
2025-01-06 19:52:31.28	229.45	19.60	
2025-01-06 19:52:31.49	229.49	19.62	
2025-01-06 19:52:31.69	229.54	19.64	
2025-01-06 19:52:31.90	229.59	19.66	
2025-01-06 19:52:32.10	229.63	19.68	
2025-01-06 19:52:32.31	229.68	19.69	
2025-01-06 19:52:32.51	229.73	19.71	
2025-01-06 19:52:32.72	229.78	19.73	
2025-01-06 19:52:32.92	229.82	19.75	
2025-01-06 19:52:33.13	229.87	19.77	
2025-01-06 19:52:33.33	229.92	19.78	
2025-01-06 19:52:33.54	229.97	19.80	
2025-01-06 19:52:33.74	230.01	19.82	
2025-01-06 19:52:33.95	230.06	19.84	
2025-01-06 19:52:34.15	230.11	19.86	
2025-01-06 19:52:34.35	230.15	19.87	
2025-01-06 19:52:34.56	230.20	19.89	
2025-01-06 19:52:34.76	230.25	19.91	
2025-01-06 19:52:34.97	230.30	19.93	
2025-01-06 19:52:35.17	230.35	19.95	
2025-01-06 19:52:35.38	230.39	19.97	
2025-01-06 19:52:35.58	230.44	19.98	
2025-01-06 19:52:35.79	230.49	20.00	
2025-01-06 19:52:36.01	230.54	20.02	
2025-01-06 19:52:36.21	230.59	20.04	
2025-01-06 19:52:36.42	230.64	20.06	
2025-01-06 19:52:36.62	230.69	20.07	
2025-01-06 19:52:36.83	230.74	20.09	
2025-01-06 19:52:37.03	230.78	20.11	
2025-01-06 19:52:37.24	230.83	20.13	
2025-01-06 19:52:37.44	230.88	20.15	
2025-01-06 19:52:37.65	230.93	20.16	
2025-01-06 19:52:37.85	230.98	20.18	
2025-01-06 19:52:38.06	231.03	20.20	
2025-01-06 19:52:38.27	231.08	20.22	
2025-01-06 19:52:38.47	231.13	20.24	
2025-01-06 19:52:38.68	231.18	20.25	
2025-01-06 19:52:38.88	231.22	20.27	
2025-01-06 19:52:39.09	231.27	20.29	
2025-01-06 19:52:39.29	231.32	20.31	
2025-01-06 19:52:39.50	231.37	20.33	
2025-01-06 19:52:39.70	231.42	20.34	
2025-01-06 19:52:39.91	231.47	20.36	
2025-01-06 19:52:40.12	231.52	20.38	
2025-01-06 19:52:40.32	231.57	20.40	
2025-01-06 19:52:40.53	231.62	20.42	
2025-01-06 19:52:40.73	231.67	20.43	
2025-01-06 19:52:40.94	231.72	20.45	
2025-01-06 19:52:41.14	231.77	20.47	
2025-01-06 19:52:41.35	231.82	20.49	
2025-01-06 19:52:41.56	231.87	20.51	
2025-01-06 19:52:41.76	231.92	20.52	
2025-01-06 19:52:41.96	231.97	20.54	
2025-01-06 19:52:42.17	232.02	20.56	
2025-01-06 19:52:42.38	232.07	20.58	
2025-01-06 19:52:42.58	232.12	20.59	
2025-01-06 19:52:42.79	232.17	20.61	
2025-01-06 19:52:42.99	232.22	20.63	
2025-01-06 19:52:43.20	232.27	20.65	
2025-01-06 19:52:43.40	232.32	20.67	
2025-01-06 19:52:43.61	232.37	20.68	
2025-01-06 19:52:43.81	232.42	20.70	
2025-01-06 19:52:44.02	232.47	20.72	
2025-01-06 19:52:44.22	232.52	20.74	
2025-01-06 19:52:44.43	232.57	20.75	
2025-01-06 19:52:44.63	232.62	20.77	
2025-01-06 19:52:44.84	232.67	20.79	
2025-01-06 19:52:45.04	232.72	20.81	
2025-01-06 19:52:45.24	232.77	20.82	
2025-01-06 19:52:45.45	232.82	20.84	
2025-01-06 19:52:45.66	232.88	20.86	
2025-01-06 19:52:45.86	232.93	20.88	
2025-01-06 19:52:46.07	232.98	20.90	
2025-01-06 19:52:46.27	233.03	20.91	
2025-01-06 19:52:46.48	233.08	20.93	
2025-01-06 19:52:46.68	233.13	20.95	
2025-01-06 19:52:46.89	233.18	20.97	
2025-01-06 19:52:47.09	233.23	20.98	
2025-01-06 19:52:47.31	233.29	21.00	
2025-01-06 19:52:47.52	233.34	21.02	
2025-01-06 19:52:47.72	233.39	21.04	
2025-01-06 19:52:47.93	233.44	21.06	
2025-01-06 19:52:48.13	233.50	21.07	
2025-01-06 19:52:48.34	233.55	21.09	
2025-01-06 19:52:48.54	233.60	21.11	
2025-01-06 19:52:48.75	233.65	21.13	
2025-01-06 19:52:48.96	233.70	21.14	
2025-01-06 19:52:49.16	233.76	21.16	
2025-01-06 19:52:49.37	233.81	21.18	
2025-01-06 19:52:49.57	233.86	21.20	
2025-01-06 19:52:49.78	233.91	21.21	
2025-01-06 19:52:49.98	233.96	21.23	
2025-01-06 19:52:50.19	234.02	21.25	
2025-01-06 19:52:50.39	234.07	21.27	
2025-01-06 19:52:50.60	234.12	21.28	
2025-01-06 19:52:50.81	234.18	21.30	
2025-01-06 19:52:51.01	234.23	21.32	
2025-01-06 19:52:51.22	234.28	21.34	
2025-01-06 19:52:51.43	234.34	21.35	
2025-01-06 19:52:51.63	234.39	21.37	
2025-01-06 19:52:51.84	234.44	21.39	
2025-01-06 19:52:52.04	234.49	21.41	
2025-01-06 19:52:52.25	234.55	21.42	
2025-01-06 19:52:52.45	234.60	21.44	
2025-01-06 19:52:52.66	234.65	21.46	
2025-01-06 19:52:52.86	234.70	21.48	
2025-01-06 19:52:53.07	234.76	21.49	
2025-01-06 19:52:53.28	234.81	21.51	
2025-01-06 19:52:53.48	234.87	21.53	
2025-01-06 19:52:53.68	234.92	21.55	
2025-01-06 19:52:53.89	234.97	21.56	
2025-01-06 19:52:54.10	235.03	21.58	
2025-01-06 19:52:54.30	235.08	21.60	
2025-01-06 19:52:54.51	235.13	21.62	
2025-01-06 19:52:54.71	235.19	21.63	
2025-01-06 19:52:54.91	235.24	21.65	
2025-01-06 19:52:55.12	235.29	21.67	
2025-01-06 19:52:55.33	235.35	21.68	
2025-01-06 19:52:55.53	235.40	21.70	
2025-01-06 19:52:55.74	235.46	21.72	
2025-01-06 19:52:55.95	235.51	21.74	
2025-01-06 19:52:56.15	235.56	21.75	
2025-01-06 19:52:56.36	235.62	21.77	
2025-01-06 19:52:56.57	235.68	21.79	
2025-01-06 19:52:56.77	235.73	21.80	
2025-01-06 19:52:56.97	235.78	21.82	
2025-01-06 19:52:57.18	235.84	21.84	
2025-01-06 19:52:57.38	235.89	21.86	
2025-01-06 19:52:57.59	235.95	21.87	
2025-01-06 19:52:57.80	236.00	21.89	
2025-01-06 19:52:58.00	236.05	21.91	
2025-01-06 19:52:58.21	236.11	21.92	
2025-01-06 19:52:58.41	236.16	21.94	
2025-01-06 19:52:58.62	236.22	21.96	
2025-01-06 19:52:58.83	236.28	21.98	
2025-01-06 19:52:59.03	236.33	21.99	
2025-01-06 19:52:59.24	236.39	22.01	
2025-01-06 19:52:59.44	236.44	22.03	
2025-01-06 19:52:59.65	236.50	22.04	
2025-01-06 19:52:59.85	236.55	22.06	
2025-01-06 19:53:00.07	236.61	22.08	
2025-01-06 19:53:00.28	236.67	22.10	
2025-01-06 19:53:00.48	236.72	22.11	
2025-01-06 19:53:00.69	236.78	22.13	
2025-01-06 19:53:00.89	236.83	22.15	
2025-01-06 19:53:01.10	236.89	22.16	
2025-01-06 19:53:01.30	236.94	22.18	
2025-01-06 19:53:01.51	237.00	22.20	
2025-01-06 19:53:01.71	237.05	22.21	
2025-01-06 19:53:01.92	237.11	22.23	
2025-01-06 19:53:02.13	237.17	22.25	
2025-01-06 19:53:02.34	237.23	22.26	
2025-01-06 19:53:02.55	237.28	22.28	
2025-01-06 19:53:02.76	237.34	22.30	
2025-01-06 19:53:02.96	237.39	22.32	
2025-01-06 19:53:03.17	237.45	22.33	
2025-01-06 19:53:03.37	237.51	22.35	
2025-01-06 19:53:03.58	237.57	22.37	
2025-01-06 19:53:03.78	237.62	22.38	
2025-01-06 19:53:03.99	237.68	22.40	
2025-01-06 19:53:04.19	237.73	22.42	
2025-01-06 19:53:04.40	237.79	22.43	
2025-01-06 19:53:04.60	237.85	22.45	
2025-01-06 19:53:04.81	237.90	22.47	
2025-01-06 19:53:05.01	237.96	22.48	
2025-01-06 19:53:05.22	238.02	22.50	
2025-01-06 19:53:05.42	238.07	22.51	
2025-01-06 19:53:05.63	238.13	22.53	
2025-01-06 19:53:05.83	238.19	22.55	
2025-01-06 19:53:06.04	238.25	22.56	
2025-01-06 19:53:06.25	238.30	22.58	
2025-01-06 19:53:06.45	238.36	22.60	
2025-01-06 19:53:06.66	238.42	22.61	
2025-01-06 19:53:06.86	238.47	22.63	
2025-01-06 19:53:07.07	238.53	22.65	
2025-01-06 19:53:07.27	238.59	22.66	
2025-01-06 19:53:07.48	238.65	22.68	
2025-01-06 19:53:07.68	238.70	22.70	
2025-01-06 19:53:07.89	238.76	22.71	
2025-01-06 19:53:08.09	238.82	22.73	
2025-01-06 19:53:08.30	238.88	22.75	
2025-01-06 19:53:08.51	238.94	22.76	
2025-01-06 19:53:08.72	239.00	22.78	
2025-01-06 19:53:08.93	239.06	22.80	
2025-01-06 19:53:09.13	239.11	22.81	
2025-01-06 19:53:09.34	239.17	22.83	
2025-01-06 19:53:09.54	239.23	22.84	
2025-01-06 19:53:09.75	239.29	22.86	
2025-01-06 19:53:09.95	239.34	22.88	
2025-01-06 19:53:10.16	239.40	22.89	
2025-01-06 19:53:10.36	239.46	22.91	
2025-01-06 19:53:10.57	239.52	22.92	
2025-01-06 19:53:10.77	239.58	22.94	
2025-01-06 19:53:10.98	239.64	22.96	
2025-01-06 19:53:11.19	239.70	22.97	
2025-01-06 19:53:11.39	239.76	22.99	
2025-01-06 19:53:11.60	239.82	23.01	
2025-01-06 19:53:11.80	239.87	23.02	
2025-01-06 19:53:12.01	239.93	23.04	
2025-01-06 19:53:12.21	239.99	23.05	
2025-01-06 19:53:12.42	240.05	23.07	
2025-01-06 19:53:12.62	240.11	23.08	
2025-01-06 19:53:12.83	240.17	23.10	
2025-01-06 19:53:13.03	240.23	23.12	
2025-01-06 19:53:13.24	240.29	23.13	
2025-01-06 19:53:13.44	240.35	23.15	
2025-01-06 19:53:13.65	240.41	23.16	
2025-01-06 19:53:13.85	240.46	23.18	
2025-01-06 19:53:14.06	240.52	23.20	
2025-01-06 19:53:14.26	240.58	23.21	
2025-01-06 19:53:14.47	240.64	23.23	
2025-01-06 19:53:14.68	240.70	23.24	
2025-01-06 19:53:14.88	240.76	23.26	
2025-01-06 19:53:15.09	240.82	23.27	
2025-01-06 19:53:15.29	240.88	23.29	
2025-01-06 19:53:15.50	240.94	23.31	
2025-01-06 19:53:15.70	241.00	23.32	
2025-01-06 19:53:15.91	241.06	23.34	
2025-01-06 19:53:16.13	241.13	23.35	
2025-01-06 19:53:16.33	241.19	23.37	
2025-01-06 19:53:16.54	241.25	23.38	
2025-01-06 19:53:16.75	241.31	23.40	
2025-01-06 19:53:16.95	241.37	23.42	
2025-01-06 19:53:17.17	241.43	23.43	
2025-01-06 19:53:17.37	241.49	23.45	
2025-01-06 19:53:17.58	241.56	23.46	
2025-01-06 19:53:17.79	241.62	23.48	
2025-01-06 19:53:17.99	241.68	23.49	
2025-01-06 19:53:18.20	241.74	23.51	
2025-01-06 19:53:18.41	241.80	23.53	
2025-01-06 19:53:18.61	241.86	23.54	
2025-01-06 19:53:18.82	241.92	23.56	
2025-01-06 19:53:19.02	241.98	23.57	
2025-01-06 19:53:19.24	242.05	23.59	
2025-01-06 19:53:19.45	242.11	23.60	
2025-01-06 19:53:19.65	242.17	23.62	
2025-01-06 19:53:19.86	242.23	23.63	
2025-01-06 19:53:20.06	242.29	23.65	
2025-01-06 19:53:20.27	242.35	23.66	
2025-01-06 19:53:20.47	242.41	23.68	
2025-01-06 19:53:20.68	242.48	23.69	
2025-01-06 19:53:20.88	242.54	23.71	
2025-01-06 19:53:21.09	242.60	23.72	
2025-01-06 19:53:21.30	242.66	23.74	
2025-01-06 19:53:21.50	242.72	23.75	
2025-01-06 19:53:21.70	242.78	23.77	
2025-01-06 19:53:21.91	242.85	23.78	
2025-01-06 19:53:22.11	242.91	23.80	
2025-01-06 19:53:22.32	242.97	23.81	
2025-01-06 19:53:22.53	243.03	23.83	
2025-01-06 19:53:22.73	243.09	23.84	
2025-01-06 19:53:22.94	243.16	23.86	
2025-01-06 19:53:23.14	243.22	23.87	
2025-01-06 19:53:23.35	243.28	23.89	
2025-01-06 19:53:23.55	243.34	23.90	
2025-01-06 19:53:23.75	243.40	23.92	
2025-01-06 19:53:23.96	243.47	23.93	
2025-01-06 19:53:24.17	243.53	23.95	
2025-01-06 19:53:24.37	243.59	23.96	
2025-01-06 19:53:24.59	243.66	23.98	
2025-01-06 19:53:24.79	243.72	23.99	
2025-01-06 19:53:25.00	243.79	24.01	
2025-01-06 19:53:25.21	243.85	24.02	
2025-01-06 19:53:25.41	243.91	24.03	
2025-01-06 19:53:25.62	243.97	24.05	
2025-01-06 19:53:25.82	244.04	24.06	
2025-01-06 19:53:26.02	244.10	24.08	
2025-01-06 19:53:26.23	244.16	24.09	
2025-01-06 19:53:26.44	244.23	24.11	
2025-01-06 19:53:26.64	244.29	24.12	
2025-01-06 19:53:26.85	244.35	24.14	
2025-01-06 19:53:27.05	244.41	24.15	
2025-01-06 19:53:27.26	244.48	24.16	
2025-01-06 19:53:27.47	244.54	24.18	
2025-01-06 19:53:27.67	244.61	24.19	
2025-01-06 19:53:27.87	244.67	24.21	
2025-01-06 19:53:28.08	244.73	24.22	
2025-01-06 19:53:28.29	244.80	24.24	
2025-01-06 19:53:28.49	244.86	24.25	
2025-01-06 19:53:28.70	244.93	24.26	
2025-01-06 19:53:28.90	244.99	24.28	
2025-01-06 19:53:29.11	245.05	24.29	
2025-01-06 19:53:29.31	245.12	24.31	
2025-01-06 19:53:29.52	245.18	24.32	
2025-01-06 19:53:29.73	245.25	24.33	
2025-01-06 19:53:29.93	245.31	24.35	
2025-01-06 19:53:30.14	245.38	24.36	
2025-01-06 19:53:30.34	245.44	24.38	
2025-01-06 19:53:30.55	245.50	24.39	
2025-01-06 19:53:30.75	245.57	24.40	
2025-01-06 19:53:30.96	245.63	24.42	
2025-01-06 19:53:31.16	245.70	24.43	
2025-01-06 19:53:31.37	245.76	24.44	
2025-01-06 19:53:31.57	245.82	24.46	
2025-01-06 19:53:31.78	245.89	24.47	
2025-01-06 19:53:31.98	245.95	24.49	
2025-01-06 19:53:32.19	246.02	24.50	
2025-01-06 19:53:32.39	246.08	24.51	
2025-01-06 19:53:32.60	246.15	24.53	
2025-01-06 19:53:32.80	246.21	24.54	
2025-01-06 19:53:33.01	246.28	24.55	
2025-01-06 19:53:33.21	246.34	24.57	
2025-01-06 19:53:33.42	246.41	24.58	
2025-01-06 19:53:33.62	246.47	24.59	
2025-01-06 19:53:33.83	246.54	24.61	
2025-01-06 19:53:34.03	246.60	24.62	
2025-01-06 19:53:34.24	246.67	24.63	
2025-01-06 19:53:34.44	246.73	24.65	
2025-01-06 19:53:34.65	246.80	24.66	
2025-01-06 19:53:34.85	246.86	24.67	
2025-01-06 19:53:35.06	246.93	24.69	
2025-01-06 19:53:35.28	247.00	24.70	
2025-01-06 19:53:35.49	247.07	24.71	
2025-01-06 19:53:35.69	247.13	24.73	
2025-01-06 19:53:35.90	247.20	24.74	
2025-01-06 19:53:36.11	247.27	24.75	
2025-01-06 19:53:36.31	247.33	24.77	
2025-01-06 19:53:36.51	247.40	24.78	
2025-01-06 19:53:36.72	247.46	24.79	
2025-01-06 19:53:36.93	247.53	24.81	
2025-01-06 19:53:37.13	247.60	24.82	
2025-01-06 19:53:37.33	247.66	24.83	
2025-01-06 19:53:37.54	247.73	24.84	
2025-01-06 19:53:37.75	247.80	24.86	
2025-01-06 19:53:37.95	247.86	24.87	
2025-01-06 19:53:38.16	247.93	24.88	
2025-01-06 19:53:38.36	247.99	24.89	
2025-01-06 19:53:38.57	248.06	24.91	
2025-01-06 19:53:38.77	248.13	24.92	
2025-01-06 19:53:38.98	248.19	24.93	
2025-01-06 19:53:39.18	248.26	24.94	
2025-01-06 19:53:39.39	248.33	24.96	
2025-01-06 19:53:39.60	248.40	24.97	
2025-01-06 19:53:39.81	248.46	24.98	
2025-01-06 19:53:40.02	248.53	25.00	
2025-01-06 19:53:40.22	248.60	25.01	
2025-01-06 19:53:40.43	248.67	25.02	
2025-01-06 19:53:40.63	248.73	25.03	
2025-01-06 19:53:40.84	248.80	25.05	
2025-01-06 19:53:41.04	248.87	25.06	
2025-01-06 19:53:41.25	248.94	25.07	
2025-01-06 19:53:41.45	249.00	25.08	
2025-01-06 19:53:41.66	249.07	25.09	
2025-01-06 19:53:41.86	249.14	25.11	
2025-01-06 19:53:42.07	249.20	25.12	
2025-01-06 19:53:42.28	249.27	25.13	
2025-01-06 19:53:42.48	249.34	25.14	
2025-01-06 19:53:42.69	249.41	25.15	
2025-01-06 19:53:42.89	249.47	25.17	
2025-01-06 19:53:43.10	249.54	25.18	
2025-01-06 19:53:43.30	249.61	25.19	
2025-01-06 19:53:43.51	249.68	25.20	
2025-01-06 19:53:43.71	249.75	25.21	
2025-01-06 19:53:43.92	249.81	25.23	
2025-01-06 19:53:44.13	249.88	25.24	
2025-01-06 19:53:44.33	249.95	25.25	
2025-01-06 19:53:44.54	250.02	25.26	
2025-01-06 19:53:44.74	250.09	25.27	
2025-01-06 19:53:44.95	250.16	25.28	
2025-01-06 19:53:45.15	250.22	25.30	
2025-01-06 19:53:45.35	250.29	25.31	
2025-01-06 19:53:45.56	250.36	25.32	
2025-01-06 19:53:45.77	250.43	25.33	
2025-01-06 19:53:45.98	250.50	25.34	
2025-01-06 19:53:46.19	250.57	25.35	
2025-01-06 19:53:46.40	250.64	25.37	
2025-01-06 19:53:46.60	250.71	25.38	
2025-01-06 19:53:46.81	250.78	25.39	
2025-01-06 19:53:47.03	250.85	25.40	
2025-01-06 19:53:47.23	250.92	25.41	
2025-01-06 19:53:47.44	250.99	25.42	
2025-01-06 19:53:47.64	251.05	25.43	
2025-01-06 19:53:47.85	251.12	25.44	
2025-01-06 19:53:48.05	251.19	25.46	
2025-01-06 19:53:48.26	251.26	25.47	
2025-01-06 19:53:48.46	251.33	25.48	
2025-01-06 19:53:48.67	251.40	25.49	
2025-01-06 19:53:48.88	251.47	25.50	
2025-01-06 19:53:49.08	251.54	25.51	
2025-01-06 19:53:49.29	251.61	25.52	
2025-01-06 19:53:49.50	251.68	25.53	
2025-01-06 19:53:49.70	251.75	25.54	
2025-01-06 19:53:49.91	251.82	25.55	
2025-01-06 19:53:50.11	251.89	25.56	
2025-01-06 19:53:50.32	251.96	25.57	
2025-01-06 19:53:50.52	252.02	25.59	
2025-01-06 19:53:50.73	252.10	25.60	
2025-01-06 19:53:50.93	252.16	25.61	
2025-01-06 19:53:51.14	252.24	25.62	
2025-01-06 19:53:51.34	252.30	25.63	
2025-01-06 19:53:51.55	252.37	25.64	
2025-01-06 19:53:51.76	252.45	25.65	
2025-01-06 19:53:51.96	252.51	25.66	
2025-01-06 19:53:52.17	252.59	25.67	
2025-01-06 19:53:52.37	252.65	25.68	
2025-01-06 19:53:52.58	252.72	25.69	
2025-01-06 19:53:52.78	252.79	25.70	
2025-01-06 19:53:52.99	252.86	25.71	
2025-01-06 19:53:53.20	252.94	25.72	
2025-01-06 19:53:53.40	253.00	25.73	
2025-01-06 19:53:53.61	253.08	25.74	
2025-01-06 19:53:53.82	253.15	25.75	
2025-01-06 19:53:54.03	253.22	25.76	
2025-01-06 19:53:54.23	253.29	25.77	
2025-01-06 19:53:54.44	253.36	25.78	
2025-01-06 19:53:54.64	253.43	25.79	
2025-01-06 19:53:54.85	253.50	25.80	
2025-01-06 19:53:55.05	253.57	25.81	
2025-01-06 19:53:55.26	253.64	25.82	
2025-01-06 19:53:55.46	253.71	25.83	
2025-01-06 19:53:55.67	253.78	25.84	
2025-01-06 19:53:55.87	253.85	25.85	
2025-01-06 19:53:56.08	253.92	25.86	
2025-01-06 19:53:56.29	254.00	25.87	
2025-01-06 19:53:56.49	254.07	25.88	
2025-01-06 19:53:56.70	254.14	25.89	
2025-01-06 19:53:56.90	254.21	25.90	
2025-01-06 19:53:57.11	254.28	25.90	
2025-01-06 19:53:57.31	254.35	25.91	
2025-01-06 19:53:57.52	254.42	25.92	
2025-01-06 19:53:57.72	254.49	25.93	
2025-01-06 19:53:57.93	254.56	25.94	
2025-01-06 19:53:58.13	254.63	25.95	
2025-01-06 19:53:58.34	254.71	25.96	
2025-01-06 19:53:58.55	254.78	25.97	
2025-01-06 19:53:58.75	254.85	25.98	
2025-01-06 19:53:58.95	254.92	25.99	
2025-01-06 19:53:59.16	254.99	26.00	
2025-01-06 19:53:59.36	255.06	26.00	
2025-01-06 19:53:59.57	255.13	26.01	
2025-01-06 19:53:59.77	255.20	26.02	
2025-01-06 19:53:59.98	255.28	26.03	
2025-01-06 19:54:00.20	255.35	26.04	
2025-01-06 19:54:00.40	255.42	26.05	
2025-01-06 19:54:00.61	255.50	26.06	
2025-01-06 19:54:00.81	255.57	26.07	
2025-01-06 19:54:01.02	255.64	26.07	
2025-01-06 19:54:01.22	255.71	26.08	
2025-01-06 19:54:01.43	255.78	26.09	
2025-01-06 19:54:01.63	255.85	26.10	
2025-01-06 19:54:01.84	255.93	26.11	
2025-01-06 19:54:02.05	256.00	26.12	
2025-01-06 19:54:02.25	256.07	26.13	
2025-01-06 19:54:02.46	256.14	26.13	
2025-01-06 19:54:02.67	256.22	26.14	
2025-01-06 19:54:02.87	256.29	26.15	
2025-01-06 19:54:03.09	256.36	26.16	
2025-01-06 19:54:03.29	256.44	26.17	
2025-01-06 19:54:03.50	256.51	26.17	
2025-01-06 19:54:03.70	256.58	26.18	
2025-01-06 19:54:03.91	256.65	26.19	
2025-01-06 19:54:04.11	256.72	26.20	
2025-01-06 19:54:04.32	256.80	26.21	
2025-01-06 19:54:04.52	256.87	26.21	
2025-01-06 19:54:04.73	256.94	26.22	
2025-01-06 19:54:04.93	257.01	26.23	
2025-01-06 19:54:05.14	257.09	26.24	
2025-01-06 19:54:05.34	257.16	26.24	
2025-01-06 19:54:05.55	257.23	26.25	
2025-01-06 19:54:05.75	257.30	26.26	
2025-01-06 19:54:05.96	257.38	26.27	
2025-01-06 19:54:06.16	257.45	26.27	
2025-01-06 19:54:06.37	257.52	26.28	
2025-01-06 19:54:06.58	257.60	26.29	
2025-01-06 19:54:06.78	257.67	26.30	
2025-01-06 19:54:06.99	257.74	26.30	
2025-01-06 19:54:07.19	257.81	26.31	
2025-01-06 19:54:07.40	257.89	26.32	
2025-01-06 19:54:07.60	257.96	26.33	
2025-01-06 19:54:07.81	258.03	26.33	
2025-01-06 19:54:08.01	258.10	26.34	
2025-01-06 19:54:08.22	258.18	26.35	
2025-01-06 19:54:08.42	258.25	26.35	
2025-01-06 19:54:08.63	258.32	26.36	
2025-01-06 19:54:08.83	258.40	26.37	
2025-01-06 19:54:09.04	258.47	26.37	
2025-01-06 19:54:09.24	258.54	26.38	
2025-01-06 19:54:09.45	258.62	26.39	
2025-01-06 19:54:09.65	258.69	26.39	
2025-01-06 19:54:09.86	258.76	26.40	
2025-01-06 19:54:10.06	258.83	26.41	
2025-01-06 19:54:10.27	258.91	26.41	
2025-01-06 19:54:10.47	258.98	26.42	
2025-01-06 19:54:10.68	259.06	26.43	
2025-01-06 19:54:10.88	259.13	26.43	
2025-01-06 19:54:11.09	259.20	26.44	
2025-01-06 19:54:11.30	259.28	26.45	
2025-01-06 19:54:11.50	259.35	26.45	
2025-01-06 19:54:11.71	259.42	26.46	
2025-01-06 19:54:11.91	259.50	26.46	
2025-01-06 19:54:12.12	259.57	26.47	
2025-01-06 19:54:12.32	259.64	26.48	
2025-01-06 19:54:12.53	259.72	26.48	
2025-01-06 19:54:12.73	259.79	26.49	
2025-01-06 19:54:12.94	259.86	26.49	
2025-01-06 19:54:13.14	259.94	26.50	
2025-01-06 19:54:13.35	260.01	26.51	
2025-01-06 19:54:13.55	260.08	26.51	
2025-01-06 19:54:13.76	260.16	26.52	
2025-01-06 19:54:13.96	260.23	26.52	
2025-01-06 19:54:14.17	260.31	26.53	
2025-01-06 19:54:14.37	260.38	26.53	
2025-01-06 19:54:14.58	260.45	26.54	
2025-01-06 19:54:14.80	260.53	26.55	
2025-01-06 19:54:15.00	260.61	26.55	
2025-01-06 19:54:15.21	260.68	26.56	
2025-01-06 19:54:15.41	260.75	26.56	
2025-01-06 19:54:15.62	260.83	26.57	
2025-01-06 19:54:15.82	260.90	26.57	
2025-01-06 19:54:16.03	260.98	26.58	
2025-01-06 19:54:16.24	261.05	26.58	
2025-01-06 19:54:16.44	261.12	26.59	
2025-01-06 19:54:16.64	261.20	26.59	
2025-01-06 19:54:16.86	261.28	26.60	
2025-01-06 19:54:17.07	261.35	26.60	
2025-01-06 19:54:17.27	261.42	26.61	
2025-01-06 19:54:17.48	261.50	26.61	
2025-01-06 19:54:17.68	261.57	26.62	
2025-01-06 19:54:17.88	261.65	26.62	
2025-01-06 19:54:18.09	261.72	26.63	
2025-01-06 19:54:18.30	261.80	26.63	
2025-01-06 19:54:18.50	261.87	26.64	
2025-01-06 19:54:18.71	261.95	26.64	
2025-01-06 19:54:18.91	262.02	26.65	
2025-01-06 19:54:19.12	262.09	26.65	
2025-01-06 19:54:19.32	262.17	26.65	
2025-01-06 19:54:19.53	262.24	26.66	
2025-01-06 19:54:19.74	262.32	26.66	
2025-01-06 19:54:19.94	262.39	26.67	
2025-01-06 19:54:20.15	262.47	26.67	
2025-01-06 19:54:20.35	262.54	26.68	
2025-01-06 19:54:20.56	262.62	26.68	
2025-01-06 19:54:20.77	262.69	26.68	
2025-01-06 19:54:20.97	262.77	26.69	
2025-01-06 19:54:21.19	262.85	26.69	
2025-01-06 19:54:21.39	262.92	26.70	
2025-01-06 19:54:21.60	262.99	26.70	
2025-01-06 19:54:21.80	263.07	26.70	
2025-01-06 19:54:22.01	263.14	26.71	
2025-01-06 19:54:22.23	263.22	26.71	
2025-01-06 19:54:22.43	263.30	26.72	
2025-01-06 19:54:22.64	263.37	26.72	
2025-01-06 19:54:22.84	263.45	26.72	
2025-01-06 19:54:23.05	263.52	26.73	
2025-01-06 19:54:23.25	263.60	26.73	
2025-01-06 19:54:23.46	263.67	26.73	
2025-01-06 19:54:23.66	263.74	26.74	
2025-01-06 19:54:23.87	263.82	26.74	
2025-01-06 19:54:24.07	263.89	26.74	
2025-01-06 19:54:24.28	263.97	26.75	
2025-01-06 19:54:24.48	264.04	26.75	
2025-01-06 19:54:24.69	264.12	26.75	
2025-01-06 19:54:24.89	264.19	26.76	
2025-01-06 19:54:25.10	264.27	26.76	
2025-01-06 19:54:25.31	264.35	26.76	
2025-01-06 19:54:25.51	264.42	26.76	
2025-01-06 19:54:25.71	264.49	26.77	
2025-01-06 19:54:25.92	264.57	26.77	
2025-01-06 19:54:26.12	264.64	26.77	
2025-01-06 19:54:26.33	264.72	26.78	
2025-01-06 19:54:26.53	264.79	26.78	
2025-01-06 19:54:26.74	264.87	26.78	
2025-01-06 19:54:26.95	264.95	26.78	
2025-01-06 19:54:27.15	265.02	26.79	
2025-01-06 19:54:27.35	265.09	26.79	
2025-01-06 19:54:27.56	265.17	26.79	
2025-01-06 19:54:27.77	265.25	26.79	
2025-01-06 19:54:27.97	265.32	26.80	
2025-01-06 19:54:28.18	265.40	26.80	
2025-01-06 19:54:28.38	265.47	26.80	
2025-01-06 19:54:28.59	265.55	26.80	
2025-01-06 19:54:28.79	265.62	26.81	
2025-01-06 19:54:29.00	265.70	26.81	
2025-01-06 19:54:29.20	265.77	26.81	
2025-01-06 19:54:29.41	265.85	26.81	
2025-01-06 19:54:29.61	265.92	26.81	
2025-01-06 19:54:29.82	266.00	26.82	
2025-01-06 19:54:30.02	266.07	26.82	
2025-01-06 19:54:30.23	266.15	26.82	
2025-01-06 19:54:30.44	266.22	26.82	
2025-01-06 19:54:30.64	266.30	26.82	
2025-01-06 19:54:30.84	266.37	26.82	
2025-01-06 19:54:31.05	266.45	26.83	
2025-01-06 19:54:31.26	266.52	26.83	
2025-01-06 19:54:31.46	266.60	26.83	
2025-01-06 19:54:31.67	266.67	26.83	
2025-01-06 19:54:31.89	266.75	26.83	
2025-01-06 19:54:32.09	266.83	26.83	
2025-01-06 19:54:32.30	266.90	26.83	
2025-01-06 19:54:32.50	266.98	26.84	
2025-01-06 19:54:32.71	267.05	26.84	
2025-01-06 19:54:32.91	267.13	26.84	
2025-01-06 19:54:33.12	267.21	26.84	
2025-01-06 19:54:33.33	267.28	26.84	
2025-01-06 19:54:33.53	267.36	26.84	
2025-01-06 19:54:33.74	267.43	26.84	
2025-01-06 19:54:33.94	267.51	26.84	
2025-01-06 19:54:34.15	267.58	26.84	
2025-01-06 19:54:34.35	267.66	26.84	
2025-01-06 19:54:34.56	267.73	26.84	
2025-01-06 19:54:34.76	267.81	26.85	
2025-01-06 19:54:34.97	267.88	26.85	
2025-01-06 19:54:35.17	267.96	26.85	
2025-01-06 19:54:35.38	268.03	26.85	
2025-01-06 19:54:35.58	268.11	26.85	
2025-01-06 19:54:35.79	268.18	26.85	
2025-01-06 19:54:36.00	268.26	26.85	
2025-01-06 19:54:36.20	268.34	26.85	
2025-01-06 19:54:36.40	268.41	26.85	
2025-01-06 19:54:36.61	268.49	26.85	
2025-01-06 19:54:36.82	268.56	26.85	
2025-01-06 19:54:37.02	268.64	26.85	
2025-01-06 19:54:37.23	268.71	26.85	
2025-01-06 19:54:37.43	268.79	26.85	
2025-01-06 19:54:37.64	268.86	26.85	
2025-01-06 19:54:37.84	268.94	26.85	
2025-01-06 19:54:38.05	269.01	26.85	
2025-01-06 19:54:38.26	269.09	26.85	
2025-01-06 19:54:38.47	269.17	26.85	
2025-01-06 19:54:38.67	269.24	26.85	
2025-01-06 19:54:38.88	269.32	26.85	
2025-01-06 19:54:39.08	269.39	26.85	
2025-01-06 19:54:39.29	269.47	26.85	
2025-01-06 19:54:39.49	269.54	26.85	
2025-01-06 19:54:39.70	269.62	26.85	
2025-01-06 19:54:39.91	269.70	26.85	
2025-01-06 19:54:40.11	269.77	26.84	
2025-01-06 19:54:40.31	269.84	26.84	
2025-01-06 19:54:40.52	269.92	26.84	
2025-01-06 19:54:40.72	269.99	26.84	
2025-01-06 19:54:40.93	270.07	26.84	
2025-01-06 19:54:41.13	270.14	26.84	
2025-01-06 19:54:41.34	270.22	26.84	
2025-01-06 19:54:41.54	270.29	26.84	
2025-01-06 19:54:41.75	270.37	26.84	
2025-01-06 19:54:41.95	270.44	26.84	
2025-01-06 19:54:42.16	270.52	26.84	
2025-01-06 19:54:42.37	270.60	26.83	
2025-01-06 19:54:42.57	270.67	26.83	
2025-01-06 19:54:42.78	270.75	26.83	
2025-01-06 19:54:42.98	270.82	26.83	
2025-01-06 19:54:43.19	270.90	26.83	
2025-01-06 19:54:43.39	270.97	26.83	
2025-01-06 19:54:43.60	271.05	26.83	
2025-01-06 19:54:43.80	271.12	26.82	
2025-01-06 19:54:44.00	271.20	26.82	
2025-01-06 19:54:44.21	271.27	26.82	
2025-01-06 19:54:44.42	271.35	26.82	
2025-01-06 19:54:44.62	271.42	26.82	
2025-01-06 19:54:44.82	271.50	26.82	
2025-01-06 19:54:45.03	271.57	26.81	
2025-01-06 19:54:45.24	271.65	26.81	
2025-01-06 19:54:45.44	271.72	26.81	
2025-01-06 19:54:45.64	271.80	26.81	
2025-01-06 19:54:45.85	271.87	26.81	
