passes_logs/2025/01/06/SPB_Silybum_02/SPB_Silybum_02__20250106_235820_AQUA_rec.log

#Pass ID: 20250106_235820_AQUA
#Satellite: AQUA
#Configuration: AQUA
#Start time: 2025-01-06 23:58:18

#Version: 2.0.20230423
#Station: SPB_Silybum_02
#Location: 30.233357 lon 59.946436 lat
#TLE: 1 27424U 02022A   25006.18177887  .00003054  00000+0  63725-3 0  9992
#TLE: 2 27424  98.3578 322.7671 0001358 119.7965   7.4247 14.60646386206336

#Time	Az	El	Level	Level2	SNR	BER	Gain	Gain2
2025-01-06 23:58:20.49	26.03	4.03	
2025-01-06 23:58:20.70	26.04	4.04	
2025-01-06 23:58:20.90	26.06	4.06	
2025-01-06 23:58:21.11	26.07	4.07	
2025-01-06 23:58:21.31	26.09	4.08	
2025-01-06 23:58:21.52	26.11	4.09	
2025-01-06 23:58:21.72	26.12	4.11	
2025-01-06 23:58:21.93	26.14	4.12	
2025-01-06 23:58:22.13	26.16	4.13	
2025-01-06 23:58:22.34	26.17	4.15	
2025-01-06 23:58:22.54	26.19	4.16	
2025-01-06 23:58:22.75	26.21	4.17	
2025-01-06 23:58:22.95	26.22	4.18	
2025-01-06 23:58:23.16	26.24	4.20	
2025-01-06 23:58:23.37	26.25	4.21	
2025-01-06 23:58:23.57	26.27	4.22	
2025-01-06 23:58:23.77	26.29	4.24	
2025-01-06 23:58:23.98	26.30	4.25	
2025-01-06 23:58:24.18	26.32	4.26	
2025-01-06 23:58:24.39	26.34	4.27	
2025-01-06 23:58:24.60	26.35	4.29	
2025-01-06 23:58:24.80	26.37	4.30	
2025-01-06 23:58:25.01	26.39	4.31	
2025-01-06 23:58:25.21	26.40	4.33	
2025-01-06 23:58:25.42	26.42	4.34	
2025-01-06 23:58:25.62	26.44	4.35	
2025-01-06 23:58:25.82	26.45	4.36	
2025-01-06 23:58:26.03	26.47	4.38	
2025-01-06 23:58:26.23	26.49	4.39	
2025-01-06 23:58:26.44	26.50	4.40	
2025-01-06 23:58:26.64	26.52	4.42	
2025-01-06 23:58:26.85	26.54	4.43	
2025-01-06 23:58:27.06	26.55	4.44	
2025-01-06 23:58:27.26	26.57	4.46	
2025-01-06 23:58:27.47	26.59	4.47	
2025-01-06 23:58:27.67	26.60	4.48	
2025-01-06 23:58:27.88	26.62	4.50	
2025-01-06 23:58:28.08	26.64	4.51	
2025-01-06 23:58:28.28	26.65	4.52	
2025-01-06 23:58:28.49	26.67	4.53	
2025-01-06 23:58:28.70	26.69	4.55	
2025-01-06 23:58:28.90	26.70	4.56	
2025-01-06 23:58:29.11	26.72	4.57	
2025-01-06 23:58:29.31	26.74	4.59	
2025-01-06 23:58:29.52	26.75	4.60	
2025-01-06 23:58:29.72	26.77	4.61	
2025-01-06 23:58:29.93	26.79	4.63	
2025-01-06 23:58:30.13	26.81	4.64	
2025-01-06 23:58:30.35	26.82	4.65	
2025-01-06 23:58:30.56	26.84	4.67	
2025-01-06 23:58:30.76	26.86	4.68	
2025-01-06 23:58:30.97	26.87	4.69	
2025-01-06 23:58:31.17	26.89	4.70	
2025-01-06 23:58:31.38	26.91	4.72	
2025-01-06 23:58:31.58	26.93	4.73	
2025-01-06 23:58:31.79	26.94	4.74	
2025-01-06 23:58:31.99	26.96	4.76	
2025-01-06 23:58:32.20	26.98	4.77	
2025-01-06 23:58:32.40	26.99	4.78	
2025-01-06 23:58:32.61	27.01	4.80	
2025-01-06 23:58:32.81	27.03	4.81	
2025-01-06 23:58:33.02	27.05	4.82	
2025-01-06 23:58:33.23	27.06	4.84	
2025-01-06 23:58:33.43	27.08	4.85	
2025-01-06 23:58:33.63	27.10	4.86	
2025-01-06 23:58:33.84	27.11	4.88	
2025-01-06 23:58:34.05	27.13	4.89	
2025-01-06 23:58:34.25	27.15	4.90	
2025-01-06 23:58:34.46	27.17	4.92	
2025-01-06 23:58:34.66	27.18	4.93	
2025-01-06 23:58:34.87	27.20	4.94	
2025-01-06 23:58:35.07	27.22	4.95	
2025-01-06 23:58:35.28	27.24	4.97	
2025-01-06 23:58:35.49	27.25	4.98	
2025-01-06 23:58:35.69	27.27	4.99	
2025-01-06 23:58:35.90	27.29	5.01	
2025-01-06 23:58:36.10	27.31	5.02	
2025-01-06 23:58:36.31	27.32	5.03	
2025-01-06 23:58:36.51	27.34	5.05	
2025-01-06 23:58:36.72	27.36	5.06	
2025-01-06 23:58:36.92	27.37	5.07	
2025-01-06 23:58:37.13	27.39	5.09	
2025-01-06 23:58:37.34	27.41	5.10	
2025-01-06 23:58:37.54	27.43	5.11	
2025-01-06 23:58:37.75	27.45	5.13	
2025-01-06 23:58:37.95	27.46	5.14	
2025-01-06 23:58:38.16	27.48	5.15	
2025-01-06 23:58:38.36	27.50	5.17	
2025-01-06 23:58:38.57	27.52	5.18	
2025-01-06 23:58:38.77	27.53	5.19	
2025-01-06 23:58:38.97	27.55	5.21	
2025-01-06 23:58:39.18	27.57	5.22	
2025-01-06 23:58:39.39	27.59	5.23	
2025-01-06 23:58:39.59	27.60	5.25	
2025-01-06 23:58:39.79	27.62	5.26	
2025-01-06 23:58:40.00	27.64	5.27	
2025-01-06 23:58:40.21	27.66	5.29	
2025-01-06 23:58:40.41	27.67	5.30	
2025-01-06 23:58:40.62	27.69	5.31	
2025-01-06 23:58:40.82	27.71	5.33	
2025-01-06 23:58:41.03	27.73	5.34	
2025-01-06 23:58:41.23	27.75	5.35	
2025-01-06 23:58:41.44	27.76	5.37	
2025-01-06 23:58:41.64	27.78	5.38	
2025-01-06 23:58:41.85	27.80	5.39	
2025-01-06 23:58:42.05	27.82	5.41	
2025-01-06 23:58:42.26	27.84	5.42	
2025-01-06 23:58:42.46	27.85	5.43	
2025-01-06 23:58:42.67	27.87	5.45	
2025-01-06 23:58:42.87	27.89	5.46	
2025-01-06 23:58:43.08	27.91	5.47	
2025-01-06 23:58:43.28	27.92	5.49	
2025-01-06 23:58:43.49	27.94	5.50	
2025-01-06 23:58:43.69	27.96	5.51	
2025-01-06 23:58:43.90	27.98	5.53	
2025-01-06 23:58:44.10	28.00	5.54	
2025-01-06 23:58:44.31	28.02	5.56	
2025-01-06 23:58:44.51	28.03	5.57	
2025-01-06 23:58:44.72	28.05	5.58	
2025-01-06 23:58:44.92	28.07	5.60	
2025-01-06 23:58:45.13	28.09	5.61	
2025-01-06 23:58:45.33	28.11	5.62	
2025-01-06 23:58:45.54	28.12	5.64	
2025-01-06 23:58:45.74	28.14	5.65	
2025-01-06 23:58:45.95	28.16	5.66	
2025-01-06 23:58:46.16	28.18	5.68	
2025-01-06 23:58:46.36	28.20	5.69	
2025-01-06 23:58:46.57	28.22	5.70	
2025-01-06 23:58:46.77	28.23	5.72	
2025-01-06 23:58:46.98	28.25	5.73	
2025-01-06 23:58:47.18	28.27	5.74	
2025-01-06 23:58:47.38	28.29	5.76	
2025-01-06 23:58:47.59	28.31	5.77	
2025-01-06 23:58:47.80	28.33	5.78	
2025-01-06 23:58:48.00	28.34	5.80	
2025-01-06 23:58:48.21	28.36	5.81	
2025-01-06 23:58:48.41	28.38	5.83	
2025-01-06 23:58:48.62	28.40	5.84	
2025-01-06 23:58:48.82	28.42	5.85	
2025-01-06 23:58:49.03	28.44	5.87	
2025-01-06 23:58:49.23	28.45	5.88	
2025-01-06 23:58:49.44	28.47	5.89	
2025-01-06 23:58:49.64	28.49	5.91	
2025-01-06 23:58:49.85	28.51	5.92	
2025-01-06 23:58:50.05	28.53	5.93	
2025-01-06 23:58:50.26	28.55	5.95	
2025-01-06 23:58:50.47	28.57	5.96	
2025-01-06 23:58:50.67	28.58	5.97	
2025-01-06 23:58:50.88	28.60	5.99	
2025-01-06 23:58:51.09	28.62	6.00	
2025-01-06 23:58:51.29	28.64	6.02	
2025-01-06 23:58:51.50	28.66	6.03	
2025-01-06 23:58:51.70	28.68	6.04	
2025-01-06 23:58:51.90	28.70	6.06	
2025-01-06 23:58:52.11	28.72	6.07	
2025-01-06 23:58:52.32	28.73	6.08	
2025-01-06 23:58:52.52	28.75	6.10	
2025-01-06 23:58:52.73	28.77	6.11	
2025-01-06 23:58:52.93	28.79	6.13	
2025-01-06 23:58:53.14	28.81	6.14	
2025-01-06 23:58:53.34	28.83	6.15	
2025-01-06 23:58:53.55	28.85	6.17	
2025-01-06 23:58:53.75	28.87	6.18	
2025-01-06 23:58:53.96	28.89	6.19	
2025-01-06 23:58:54.16	28.90	6.21	
2025-01-06 23:58:54.37	28.92	6.22	
2025-01-06 23:58:54.58	28.94	6.24	
2025-01-06 23:58:54.78	28.96	6.25	
2025-01-06 23:58:54.99	28.98	6.26	
2025-01-06 23:58:55.19	29.00	6.28	
2025-01-06 23:58:55.40	29.02	6.29	
2025-01-06 23:58:55.61	29.04	6.30	
2025-01-06 23:58:55.81	29.06	6.32	
2025-01-06 23:58:56.01	29.08	6.33	
2025-01-06 23:58:56.22	29.09	6.35	
2025-01-06 23:58:56.43	29.11	6.36	
2025-01-06 23:58:56.63	29.13	6.37	
2025-01-06 23:58:56.84	29.15	6.39	
2025-01-06 23:58:57.04	29.17	6.40	
2025-01-06 23:58:57.24	29.19	6.41	
2025-01-06 23:58:57.45	29.21	6.43	
2025-01-06 23:58:57.65	29.23	6.44	
2025-01-06 23:58:57.86	29.25	6.46	
2025-01-06 23:58:58.06	29.27	6.47	
2025-01-06 23:58:58.27	29.29	6.48	
2025-01-06 23:58:58.48	29.31	6.50	
2025-01-06 23:58:58.68	29.33	6.51	
2025-01-06 23:58:58.89	29.35	6.53	
2025-01-06 23:58:59.09	29.36	6.54	
2025-01-06 23:58:59.30	29.38	6.55	
2025-01-06 23:58:59.50	29.40	6.57	
2025-01-06 23:58:59.71	29.42	6.58	
2025-01-06 23:58:59.92	29.44	6.59	
2025-01-06 23:59:00.12	29.46	6.61	
2025-01-06 23:59:00.33	29.48	6.62	
2025-01-06 23:59:00.55	29.50	6.64	
2025-01-06 23:59:00.75	29.52	6.65	
2025-01-06 23:59:00.96	29.54	6.67	
2025-01-06 23:59:01.16	29.56	6.68	
2025-01-06 23:59:01.37	29.58	6.69	
2025-01-06 23:59:01.57	29.60	6.71	
2025-01-06 23:59:01.78	29.62	6.72	
2025-01-06 23:59:01.98	29.64	6.73	
2025-01-06 23:59:02.19	29.66	6.75	
2025-01-06 23:59:02.39	29.68	6.76	
2025-01-06 23:59:02.60	29.70	6.78	
2025-01-06 23:59:02.80	29.72	6.79	
2025-01-06 23:59:03.01	29.74	6.80	
2025-01-06 23:59:03.22	29.76	6.82	
2025-01-06 23:59:03.42	29.78	6.83	
2025-01-06 23:59:03.62	29.80	6.85	
2025-01-06 23:59:03.83	29.82	6.86	
2025-01-06 23:59:04.03	29.84	6.87	
2025-01-06 23:59:04.24	29.86	6.89	
2025-01-06 23:59:04.44	29.88	6.90	
2025-01-06 23:59:04.65	29.90	6.92	
2025-01-06 23:59:04.85	29.92	6.93	
2025-01-06 23:59:05.06	29.94	6.94	
2025-01-06 23:59:05.26	29.96	6.96	
2025-01-06 23:59:05.46	29.98	6.97	
2025-01-06 23:59:05.67	30.00	6.99	
2025-01-06 23:59:05.88	30.02	7.00	
2025-01-06 23:59:06.08	30.04	7.01	
2025-01-06 23:59:06.29	30.06	7.03	
2025-01-06 23:59:06.49	30.08	7.04	
2025-01-06 23:59:06.70	30.10	7.06	
2025-01-06 23:59:06.90	30.12	7.07	
2025-01-06 23:59:07.11	30.14	7.08	
2025-01-06 23:59:07.31	30.16	7.10	
2025-01-06 23:59:07.52	30.18	7.11	
2025-01-06 23:59:07.72	30.20	7.13	
2025-01-06 23:59:07.93	30.22	7.14	
2025-01-06 23:59:08.13	30.24	7.16	
2025-01-06 23:59:08.34	30.26	7.17	
2025-01-06 23:59:08.55	30.28	7.18	
2025-01-06 23:59:08.76	30.30	7.20	
2025-01-06 23:59:08.97	30.32	7.21	
2025-01-06 23:59:09.17	30.34	7.23	
2025-01-06 23:59:09.38	30.36	7.24	
2025-01-06 23:59:09.58	30.38	7.25	
2025-01-06 23:59:09.79	30.40	7.27	
2025-01-06 23:59:09.99	30.42	7.28	
2025-01-06 23:59:10.20	30.44	7.30	
2025-01-06 23:59:10.40	30.46	7.31	
2025-01-06 23:59:10.61	30.48	7.33	
2025-01-06 23:59:10.83	30.51	7.34	
2025-01-06 23:59:11.03	30.53	7.36	
2025-01-06 23:59:11.24	30.55	7.37	
2025-01-06 23:59:11.44	30.57	7.38	
2025-01-06 23:59:11.65	30.59	7.40	
2025-01-06 23:59:11.85	30.61	7.41	
2025-01-06 23:59:12.06	30.63	7.43	
2025-01-06 23:59:12.26	30.65	7.44	
2025-01-06 23:59:12.47	30.67	7.45	
2025-01-06 23:59:12.67	30.69	7.47	
2025-01-06 23:59:12.88	30.71	7.48	
2025-01-06 23:59:13.08	30.73	7.50	
2025-01-06 23:59:13.29	30.75	7.51	
2025-01-06 23:59:13.50	30.77	7.53	
2025-01-06 23:59:13.70	30.79	7.54	
2025-01-06 23:59:13.91	30.82	7.56	
2025-01-06 23:59:14.11	30.84	7.57	
2025-01-06 23:59:14.32	30.86	7.58	
2025-01-06 23:59:14.52	30.88	7.60	
2025-01-06 23:59:14.73	30.90	7.61	
2025-01-06 23:59:14.93	30.92	7.63	
2025-01-06 23:59:15.14	30.94	7.64	
2025-01-06 23:59:15.34	30.96	7.65	
2025-01-06 23:59:15.55	30.98	7.67	
2025-01-06 23:59:15.75	31.00	7.68	
2025-01-06 23:59:15.96	31.03	7.70	
2025-01-06 23:59:16.16	31.05	7.71	
2025-01-06 23:59:16.37	31.07	7.73	
2025-01-06 23:59:16.58	31.09	7.74	
2025-01-06 23:59:16.78	31.11	7.76	
2025-01-06 23:59:16.99	31.13	7.77	
2025-01-06 23:59:17.19	31.15	7.78	
2025-01-06 23:59:17.40	31.17	7.80	
2025-01-06 23:59:17.61	31.20	7.81	
2025-01-06 23:59:17.81	31.22	7.83	
2025-01-06 23:59:18.02	31.24	7.84	
2025-01-06 23:59:18.22	31.26	7.86	
2025-01-06 23:59:18.42	31.28	7.87	
2025-01-06 23:59:18.63	31.30	7.89	
2025-01-06 23:59:18.83	31.32	7.90	
2025-01-06 23:59:19.04	31.34	7.91	
2025-01-06 23:59:19.24	31.36	7.93	
2025-01-06 23:59:19.44	31.39	7.94	
2025-01-06 23:59:19.65	31.41	7.96	
2025-01-06 23:59:19.86	31.43	7.97	
2025-01-06 23:59:20.06	31.45	7.99	
2025-01-06 23:59:20.27	31.47	8.00	
2025-01-06 23:59:20.47	31.49	8.01	
2025-01-06 23:59:20.68	31.52	8.03	
2025-01-06 23:59:20.88	31.54	8.04	
2025-01-06 23:59:21.09	31.56	8.06	
2025-01-06 23:59:21.29	31.58	8.07	
2025-01-06 23:59:21.50	31.60	8.09	
2025-01-06 23:59:21.70	31.62	8.10	
2025-01-06 23:59:21.91	31.64	8.12	
2025-01-06 23:59:22.12	31.67	8.13	
2025-01-06 23:59:22.32	31.69	8.15	
2025-01-06 23:59:22.53	31.71	8.16	
2025-01-06 23:59:22.73	31.73	8.17	
2025-01-06 23:59:22.94	31.75	8.19	
2025-01-06 23:59:23.14	31.78	8.20	
2025-01-06 23:59:23.35	31.80	8.22	
2025-01-06 23:59:23.56	31.82	8.23	
2025-01-06 23:59:23.77	31.84	8.25	
2025-01-06 23:59:23.98	31.86	8.26	
2025-01-06 23:59:24.19	31.89	8.28	
2025-01-06 23:59:24.39	31.91	8.29	
2025-01-06 23:59:24.60	31.93	8.31	
2025-01-06 23:59:24.80	31.95	8.32	
2025-01-06 23:59:25.01	31.97	8.34	
2025-01-06 23:59:25.22	32.00	8.35	
2025-01-06 23:59:25.42	32.02	8.37	
2025-01-06 23:59:25.63	32.04	8.38	
2025-01-06 23:59:25.84	32.06	8.40	
2025-01-06 23:59:26.05	32.09	8.41	
2025-01-06 23:59:26.25	32.11	8.43	
2025-01-06 23:59:26.46	32.13	8.44	
2025-01-06 23:59:26.67	32.15	8.46	
2025-01-06 23:59:26.87	32.18	8.47	
2025-01-06 23:59:27.08	32.20	8.48	
2025-01-06 23:59:27.28	32.22	8.50	
2025-01-06 23:59:27.49	32.24	8.51	
2025-01-06 23:59:27.70	32.27	8.53	
2025-01-06 23:59:27.90	32.29	8.54	
2025-01-06 23:59:28.11	32.31	8.56	
2025-01-06 23:59:28.31	32.33	8.57	
2025-01-06 23:59:28.52	32.36	8.59	
2025-01-06 23:59:28.72	32.38	8.60	
2025-01-06 23:59:28.93	32.40	8.62	
2025-01-06 23:59:29.13	32.42	8.63	
2025-01-06 23:59:29.34	32.45	8.65	
2025-01-06 23:59:29.54	32.47	8.66	
2025-01-06 23:59:29.75	32.49	8.68	
2025-01-06 23:59:29.96	32.51	8.69	
2025-01-06 23:59:30.17	32.54	8.71	
2025-01-06 23:59:30.38	32.56	8.72	
2025-01-06 23:59:30.59	32.58	8.74	
2025-01-06 23:59:30.79	32.60	8.75	
2025-01-06 23:59:31.00	32.63	8.77	
2025-01-06 23:59:31.20	32.65	8.78	
2025-01-06 23:59:31.41	32.67	8.80	
2025-01-06 23:59:31.61	32.70	8.81	
2025-01-06 23:59:31.82	32.72	8.83	
2025-01-06 23:59:32.02	32.74	8.84	
2025-01-06 23:59:32.23	32.76	8.85	
2025-01-06 23:59:32.43	32.79	8.87	
2025-01-06 23:59:32.64	32.81	8.88	
2025-01-06 23:59:32.84	32.83	8.90	
2025-01-06 23:59:33.05	32.86	8.91	
2025-01-06 23:59:33.25	32.88	8.93	
2025-01-06 23:59:33.46	32.90	8.94	
2025-01-06 23:59:33.67	32.93	8.96	
2025-01-06 23:59:33.87	32.95	8.97	
2025-01-06 23:59:34.08	32.97	8.99	
2025-01-06 23:59:34.28	32.99	9.00	
2025-01-06 23:59:34.49	33.02	9.02	
2025-01-06 23:59:34.69	33.04	9.03	
2025-01-06 23:59:34.90	33.06	9.05	
2025-01-06 23:59:35.11	33.09	9.06	
2025-01-06 23:59:35.31	33.11	9.08	
2025-01-06 23:59:35.52	33.13	9.09	
2025-01-06 23:59:35.72	33.16	9.11	
2025-01-06 23:59:35.93	33.18	9.12	
2025-01-06 23:59:36.13	33.20	9.14	
2025-01-06 23:59:36.34	33.23	9.15	
2025-01-06 23:59:36.54	33.25	9.17	
2025-01-06 23:59:36.75	33.27	9.18	
2025-01-06 23:59:36.96	33.30	9.20	
2025-01-06 23:59:37.16	33.32	9.21	
2025-01-06 23:59:37.37	33.34	9.23	
2025-01-06 23:59:37.57	33.37	9.24	
2025-01-06 23:59:37.78	33.39	9.26	
2025-01-06 23:59:37.98	33.41	9.27	
2025-01-06 23:59:38.19	33.44	9.29	
2025-01-06 23:59:38.39	33.46	9.30	
2025-01-06 23:59:38.60	33.49	9.32	
2025-01-06 23:59:38.80	33.51	9.33	
2025-01-06 23:59:39.01	33.53	9.35	
2025-01-06 23:59:39.21	33.56	9.36	
2025-01-06 23:59:39.42	33.58	9.38	
2025-01-06 23:59:39.63	33.60	9.39	
2025-01-06 23:59:39.83	33.63	9.41	
2025-01-06 23:59:40.03	33.65	9.42	
2025-01-06 23:59:40.24	33.68	9.44	
2025-01-06 23:59:40.44	33.70	9.45	
2025-01-06 23:59:40.65	33.72	9.47	
2025-01-06 23:59:40.85	33.75	9.48	
2025-01-06 23:59:41.06	33.77	9.50	
2025-01-06 23:59:41.26	33.79	9.51	
2025-01-06 23:59:41.47	33.82	9.53	
2025-01-06 23:59:41.67	33.84	9.54	
2025-01-06 23:59:41.88	33.87	9.56	
2025-01-06 23:59:42.08	33.89	9.57	
2025-01-06 23:59:42.29	33.91	9.59	
2025-01-06 23:59:42.49	33.94	9.60	
2025-01-06 23:59:42.70	33.96	9.62	
2025-01-06 23:59:42.90	33.99	9.63	
2025-01-06 23:59:43.11	34.01	9.65	
2025-01-06 23:59:43.31	34.03	9.66	
2025-01-06 23:59:43.52	34.06	9.68	
2025-01-06 23:59:43.72	34.08	9.70	
2025-01-06 23:59:43.93	34.11	9.71	
2025-01-06 23:59:44.14	34.13	9.73	
2025-01-06 23:59:44.34	34.16	9.74	
2025-01-06 23:59:44.55	34.18	9.76	
2025-01-06 23:59:44.75	34.21	9.77	
2025-01-06 23:59:44.96	34.23	9.79	
2025-01-06 23:59:45.16	34.25	9.80	
2025-01-06 23:59:45.37	34.28	9.82	
2025-01-06 23:59:45.57	34.30	9.83	
2025-01-06 23:59:45.78	34.33	9.85	
2025-01-06 23:59:45.98	34.35	9.86	
2025-01-06 23:59:46.18	34.38	9.88	
2025-01-06 23:59:46.39	34.40	9.89	
2025-01-06 23:59:46.59	34.43	9.91	
2025-01-06 23:59:46.80	34.45	9.92	
2025-01-06 23:59:47.01	34.48	9.94	
2025-01-06 23:59:47.21	34.50	9.95	
2025-01-06 23:59:47.42	34.53	9.97	
2025-01-06 23:59:47.62	34.55	9.98	
2025-01-06 23:59:47.83	34.57	10.00	
2025-01-06 23:59:48.04	34.60	10.02	
2025-01-06 23:59:48.24	34.62	10.03	
2025-01-06 23:59:48.45	34.65	10.05	
2025-01-06 23:59:48.65	34.67	10.06	
2025-01-06 23:59:48.86	34.70	10.08	
2025-01-06 23:59:49.06	34.72	10.09	
2025-01-06 23:59:49.28	34.75	10.11	
2025-01-06 23:59:49.49	34.78	10.12	
2025-01-06 23:59:49.69	34.80	10.14	
2025-01-06 23:59:49.90	34.83	10.16	
2025-01-06 23:59:50.10	34.85	10.17	
2025-01-06 23:59:50.31	34.88	10.19	
2025-01-06 23:59:50.51	34.90	10.20	
2025-01-06 23:59:50.72	34.93	10.22	
2025-01-06 23:59:50.93	34.95	10.23	
2025-01-06 23:59:51.13	34.98	10.25	
2025-01-06 23:59:51.34	35.00	10.26	
2025-01-06 23:59:51.54	35.03	10.28	
2025-01-06 23:59:51.75	35.05	10.29	
2025-01-06 23:59:51.95	35.08	10.31	
2025-01-06 23:59:52.16	35.10	10.32	
2025-01-06 23:59:52.36	35.13	10.34	
2025-01-06 23:59:52.57	35.15	10.36	
2025-01-06 23:59:52.77	35.18	10.37	
2025-01-06 23:59:52.98	35.21	10.39	
2025-01-06 23:59:53.18	35.23	10.40	
2025-01-06 23:59:53.39	35.26	10.42	
2025-01-06 23:59:53.59	35.28	10.43	
2025-01-06 23:59:53.80	35.31	10.45	
2025-01-06 23:59:54.01	35.33	10.46	
2025-01-06 23:59:54.21	35.36	10.48	
2025-01-06 23:59:54.42	35.39	10.50	
2025-01-06 23:59:54.62	35.41	10.51	
2025-01-06 23:59:54.83	35.44	10.53	
2025-01-06 23:59:55.04	35.46	10.54	
2025-01-06 23:59:55.24	35.49	10.56	
2025-01-06 23:59:55.45	35.51	10.57	
2025-01-06 23:59:55.65	35.54	10.59	
2025-01-06 23:59:55.86	35.57	10.60	
2025-01-06 23:59:56.06	35.59	10.62	
2025-01-06 23:59:56.27	35.62	10.64	
2025-01-06 23:59:56.47	35.64	10.65	
2025-01-06 23:59:56.68	35.67	10.67	
2025-01-06 23:59:56.88	35.70	10.68	
2025-01-06 23:59:57.09	35.72	10.70	
2025-01-06 23:59:57.29	35.75	10.71	
2025-01-06 23:59:57.50	35.77	10.73	
2025-01-06 23:59:57.70	35.80	10.74	
2025-01-06 23:59:57.90	35.82	10.76	
2025-01-06 23:59:58.11	35.85	10.77	
2025-01-06 23:59:58.32	35.88	10.79	
2025-01-06 23:59:58.52	35.90	10.81	
2025-01-06 23:59:58.73	35.93	10.82	
2025-01-06 23:59:58.93	35.96	10.84	
2025-01-06 23:59:59.14	35.98	10.85	
2025-01-06 23:59:59.34	36.01	10.87	
2025-01-06 23:59:59.55	36.04	10.88	
2025-01-06 23:59:59.76	36.06	10.90	
2025-01-06 23:59:59.96	36.09	10.92	
2025-01-07 00:00:00.16	36.11	10.93	
2025-01-07 00:00:00.37	36.14	10.95	
2025-01-07 00:00:00.58	36.17	10.96	
2025-01-07 00:00:00.78	36.19	10.98	
2025-01-07 00:00:00.99	36.22	10.99	
2025-01-07 00:00:01.19	36.25	11.01	
2025-01-07 00:00:01.40	36.28	11.03	
2025-01-07 00:00:01.61	36.30	11.04	
2025-01-07 00:00:01.81	36.33	11.06	
2025-01-07 00:00:02.01	36.35	11.07	
2025-01-07 00:00:02.23	36.38	11.09	
2025-01-07 00:00:02.44	36.41	11.11	
2025-01-07 00:00:02.64	36.44	11.12	
2025-01-07 00:00:02.85	36.46	11.14	
2025-01-07 00:00:03.06	36.49	11.15	
2025-01-07 00:00:03.26	36.52	11.17	
2025-01-07 00:00:03.47	36.55	11.18	
2025-01-07 00:00:03.67	36.57	11.20	
2025-01-07 00:00:03.88	36.60	11.22	
2025-01-07 00:00:04.08	36.63	11.23	
2025-01-07 00:00:04.28	36.65	11.25	
2025-01-07 00:00:04.49	36.68	11.26	
2025-01-07 00:00:04.70	36.71	11.28	
2025-01-07 00:00:04.90	36.73	11.29	
2025-01-07 00:00:05.11	36.76	11.31	
2025-01-07 00:00:05.31	36.79	11.33	
2025-01-07 00:00:05.53	36.82	11.34	
2025-01-07 00:00:05.73	36.84	11.36	
2025-01-07 00:00:05.94	36.87	11.38	
2025-01-07 00:00:06.15	36.90	11.39	
2025-01-07 00:00:06.35	36.93	11.41	
2025-01-07 00:00:06.56	36.96	11.42	
2025-01-07 00:00:06.76	36.98	11.44	
2025-01-07 00:00:06.97	37.01	11.45	
2025-01-07 00:00:07.18	37.04	11.47	
2025-01-07 00:00:07.38	37.07	11.49	
2025-01-07 00:00:07.60	37.09	11.50	
2025-01-07 00:00:07.80	37.12	11.52	
2025-01-07 00:00:08.01	37.15	11.54	
2025-01-07 00:00:08.22	37.18	11.55	
2025-01-07 00:00:08.42	37.21	11.57	
2025-01-07 00:00:08.62	37.23	11.58	
2025-01-07 00:00:08.83	37.26	11.60	
2025-01-07 00:00:09.04	37.29	11.62	
2025-01-07 00:00:09.24	37.32	11.63	
2025-01-07 00:00:09.45	37.34	11.65	
2025-01-07 00:00:09.65	37.37	11.66	
2025-01-07 00:00:09.86	37.40	11.68	
2025-01-07 00:00:10.06	37.43	11.69	
2025-01-07 00:00:10.27	37.46	11.71	
2025-01-07 00:00:10.48	37.49	11.73	
2025-01-07 00:00:10.68	37.51	11.74	
2025-01-07 00:00:10.88	37.54	11.76	
2025-01-07 00:00:11.09	37.57	11.77	
2025-01-07 00:00:11.30	37.60	11.79	
2025-01-07 00:00:11.50	37.62	11.81	
2025-01-07 00:00:11.71	37.65	11.82	
2025-01-07 00:00:11.91	37.68	11.84	
2025-01-07 00:00:12.12	37.71	11.85	
2025-01-07 00:00:12.32	37.74	11.87	
2025-01-07 00:00:12.53	37.77	11.89	
2025-01-07 00:00:12.73	37.79	11.90	
2025-01-07 00:00:12.94	37.82	11.92	
2025-01-07 00:00:13.14	37.85	11.93	
2025-01-07 00:00:13.35	37.88	11.95	
2025-01-07 00:00:13.55	37.91	11.97	
2025-01-07 00:00:13.76	37.94	11.98	
2025-01-07 00:00:13.96	37.96	12.00	
2025-01-07 00:00:14.17	37.99	12.02	
2025-01-07 00:00:14.37	38.02	12.03	
2025-01-07 00:00:14.58	38.05	12.05	
2025-01-07 00:00:14.79	38.08	12.06	
2025-01-07 00:00:14.99	38.11	12.08	
2025-01-07 00:00:15.21	38.14	12.10	
2025-01-07 00:00:15.41	38.17	12.11	
2025-01-07 00:00:15.62	38.20	12.13	
2025-01-07 00:00:15.83	38.23	12.15	
2025-01-07 00:00:16.03	38.25	12.16	
2025-01-07 00:00:16.23	38.28	12.18	
2025-01-07 00:00:16.44	38.31	12.19	
2025-01-07 00:00:16.65	38.34	12.21	
2025-01-07 00:00:16.85	38.37	12.23	
2025-01-07 00:00:17.06	38.40	12.24	
2025-01-07 00:00:17.26	38.43	12.26	
2025-01-07 00:00:17.47	38.46	12.27	
2025-01-07 00:00:17.67	38.49	12.29	
2025-01-07 00:00:17.88	38.52	12.31	
2025-01-07 00:00:18.09	38.55	12.32	
2025-01-07 00:00:18.29	38.57	12.34	
2025-01-07 00:00:18.49	38.60	12.36	
2025-01-07 00:00:18.70	38.63	12.37	
2025-01-07 00:00:18.91	38.66	12.39	
2025-01-07 00:00:19.11	38.69	12.40	
2025-01-07 00:00:19.32	38.72	12.42	
2025-01-07 00:00:19.52	38.75	12.44	
2025-01-07 00:00:19.73	38.78	12.45	
2025-01-07 00:00:19.93	38.81	12.47	
2025-01-07 00:00:20.14	38.84	12.49	
2025-01-07 00:00:20.34	38.87	12.50	
2025-01-07 00:00:20.55	38.90	12.52	
2025-01-07 00:00:20.75	38.93	12.53	
2025-01-07 00:00:20.96	38.96	12.55	
2025-01-07 00:00:21.16	38.99	12.57	
2025-01-07 00:00:21.37	39.02	12.58	
2025-01-07 00:00:21.57	39.05	12.60	
2025-01-07 00:00:21.78	39.08	12.62	
2025-01-07 00:00:21.98	39.11	12.63	
2025-01-07 00:00:22.19	39.14	12.65	
2025-01-07 00:00:22.39	39.17	12.66	
2025-01-07 00:00:22.61	39.20	12.68	
2025-01-07 00:00:22.82	39.23	12.70	
2025-01-07 00:00:23.02	39.26	12.71	
2025-01-07 00:00:23.23	39.29	12.73	
2025-01-07 00:00:23.43	39.32	12.75	
2025-01-07 00:00:23.64	39.35	12.76	
2025-01-07 00:00:23.84	39.38	12.78	
2025-01-07 00:00:24.05	39.41	12.80	
2025-01-07 00:00:24.25	39.44	12.81	
2025-01-07 00:00:24.46	39.47	12.83	
2025-01-07 00:00:24.66	39.50	12.84	
2025-01-07 00:00:24.87	39.53	12.86	
2025-01-07 00:00:25.08	39.56	12.88	
2025-01-07 00:00:25.28	39.59	12.89	
2025-01-07 00:00:25.48	39.62	12.91	
2025-01-07 00:00:25.69	39.65	12.93	
2025-01-07 00:00:25.89	39.68	12.94	
2025-01-07 00:00:26.10	39.71	12.96	
2025-01-07 00:00:26.30	39.74	12.98	
2025-01-07 00:00:26.51	39.77	12.99	
2025-01-07 00:00:26.71	39.80	13.01	
2025-01-07 00:00:26.92	39.84	13.03	
2025-01-07 00:00:27.12	39.87	13.04	
2025-01-07 00:00:27.33	39.90	13.06	
2025-01-07 00:00:27.53	39.93	13.07	
2025-01-07 00:00:27.74	39.96	13.09	
2025-01-07 00:00:27.94	39.99	13.11	
2025-01-07 00:00:28.15	40.02	13.12	
2025-01-07 00:00:28.35	40.05	13.14	
2025-01-07 00:00:28.56	40.08	13.16	
2025-01-07 00:00:28.76	40.11	13.17	
2025-01-07 00:00:28.97	40.14	13.19	
2025-01-07 00:00:29.18	40.18	13.21	
2025-01-07 00:00:29.39	40.21	13.22	
2025-01-07 00:00:29.59	40.24	13.24	
2025-01-07 00:00:29.80	40.27	13.26	
2025-01-07 00:00:30.00	40.30	13.27	
2025-01-07 00:00:30.21	40.33	13.29	
2025-01-07 00:00:30.41	40.36	13.31	
2025-01-07 00:00:30.62	40.40	13.32	
2025-01-07 00:00:30.82	40.43	13.34	
2025-01-07 00:00:31.03	40.46	13.36	
2025-01-07 00:00:31.23	40.49	13.37	
2025-01-07 00:00:31.44	40.52	13.39	
2025-01-07 00:00:31.65	40.55	13.41	
2025-01-07 00:00:31.85	40.58	13.42	
2025-01-07 00:00:32.05	40.61	13.44	
2025-01-07 00:00:32.26	40.65	13.45	
2025-01-07 00:00:32.47	40.68	13.47	
2025-01-07 00:00:32.67	40.71	13.49	
2025-01-07 00:00:32.88	40.74	13.50	
2025-01-07 00:00:33.08	40.77	13.52	
2025-01-07 00:00:33.29	40.81	13.54	
2025-01-07 00:00:33.49	40.84	13.55	
2025-01-07 00:00:33.70	40.87	13.57	
2025-01-07 00:00:33.90	40.90	13.59	
2025-01-07 00:00:34.11	40.93	13.60	
2025-01-07 00:00:34.31	40.97	13.62	
2025-01-07 00:00:34.52	41.00	13.64	
2025-01-07 00:00:34.72	41.03	13.65	
2025-01-07 00:00:34.93	41.06	13.67	
2025-01-07 00:00:35.14	41.10	13.69	
2025-01-07 00:00:35.34	41.13	13.70	
2025-01-07 00:00:35.55	41.16	13.72	
2025-01-07 00:00:35.75	41.19	13.74	
2025-01-07 00:00:35.96	41.22	13.75	
2025-01-07 00:00:36.16	41.26	13.77	
2025-01-07 00:00:36.37	41.29	13.79	
2025-01-07 00:00:36.57	41.32	13.80	
2025-01-07 00:00:36.78	41.35	13.82	
2025-01-07 00:00:36.98	41.39	13.84	
2025-01-07 00:00:37.19	41.42	13.85	
2025-01-07 00:00:37.39	41.45	13.87	
2025-01-07 00:00:37.60	41.48	13.89	
2025-01-07 00:00:37.80	41.52	13.90	
2025-01-07 00:00:38.01	41.55	13.92	
2025-01-07 00:00:38.21	41.58	13.94	
2025-01-07 00:00:38.42	41.61	13.95	
2025-01-07 00:00:38.62	41.65	13.97	
2025-01-07 00:00:38.83	41.68	13.99	
2025-01-07 00:00:39.03	41.71	14.00	
2025-01-07 00:00:39.24	41.75	14.02	
2025-01-07 00:00:39.44	41.78	14.04	
2025-01-07 00:00:39.65	41.81	14.05	
2025-01-07 00:00:39.85	41.84	14.07	
2025-01-07 00:00:40.06	41.88	14.09	
2025-01-07 00:00:40.26	41.91	14.10	
2025-01-07 00:00:40.47	41.94	14.12	
2025-01-07 00:00:40.67	41.98	14.14	
2025-01-07 00:00:40.88	42.01	14.15	
2025-01-07 00:00:41.09	42.04	14.17	
2025-01-07 00:00:41.29	42.08	14.19	
2025-01-07 00:00:41.49	42.11	14.20	
2025-01-07 00:00:41.70	42.14	14.22	
2025-01-07 00:00:41.90	42.18	14.24	
2025-01-07 00:00:42.11	42.21	14.26	
2025-01-07 00:00:42.31	42.24	14.27	
2025-01-07 00:00:42.52	42.28	14.29	
2025-01-07 00:00:42.72	42.31	14.31	
2025-01-07 00:00:42.93	42.34	14.32	
2025-01-07 00:00:43.13	42.38	14.34	
2025-01-07 00:00:43.34	42.41	14.36	
2025-01-07 00:00:43.55	42.45	14.37	
2025-01-07 00:00:43.75	42.48	14.39	
2025-01-07 00:00:43.95	42.51	14.41	
2025-01-07 00:00:44.16	42.55	14.42	
2025-01-07 00:00:44.37	42.58	14.44	
2025-01-07 00:00:44.57	42.61	14.46	
2025-01-07 00:00:44.78	42.65	14.47	
2025-01-07 00:00:44.98	42.68	14.49	
2025-01-07 00:00:45.19	42.72	14.51	
2025-01-07 00:00:45.39	42.75	14.52	
2025-01-07 00:00:45.60	42.79	14.54	
2025-01-07 00:00:45.80	42.82	14.56	
2025-01-07 00:00:46.01	42.85	14.58	
2025-01-07 00:00:46.21	42.89	14.59	
2025-01-07 00:00:46.42	42.92	14.61	
2025-01-07 00:00:46.63	42.96	14.63	
2025-01-07 00:00:46.83	42.99	14.64	
2025-01-07 00:00:47.05	43.03	14.66	
2025-01-07 00:00:47.26	43.06	14.68	
2025-01-07 00:00:47.46	43.10	14.69	
2025-01-07 00:00:47.67	43.13	14.71	
2025-01-07 00:00:47.87	43.17	14.73	
2025-01-07 00:00:48.08	43.20	14.75	
2025-01-07 00:00:48.28	43.23	14.76	
2025-01-07 00:00:48.49	43.27	14.78	
2025-01-07 00:00:48.69	43.30	14.80	
2025-01-07 00:00:48.90	43.34	14.81	
2025-01-07 00:00:49.10	43.37	14.83	
2025-01-07 00:00:49.31	43.41	14.85	
2025-01-07 00:00:49.51	43.44	14.86	
2025-01-07 00:00:49.72	43.48	14.88	
2025-01-07 00:00:49.92	43.51	14.90	
2025-01-07 00:00:50.13	43.55	14.91	
2025-01-07 00:00:50.33	43.58	14.93	
2025-01-07 00:00:50.54	43.62	14.95	
2025-01-07 00:00:50.75	43.66	14.97	
2025-01-07 00:00:50.95	43.69	14.98	
2025-01-07 00:00:51.16	43.73	15.00	
2025-01-07 00:00:51.36	43.76	15.02	
2025-01-07 00:00:51.57	43.80	15.03	
2025-01-07 00:00:51.78	43.83	15.05	
2025-01-07 00:00:51.98	43.87	15.07	
2025-01-07 00:00:52.18	43.90	15.08	
2025-01-07 00:00:52.39	43.94	15.10	
2025-01-07 00:00:52.59	43.97	15.12	
2025-01-07 00:00:52.80	44.01	15.14	
2025-01-07 00:00:53.00	44.04	15.15	
2025-01-07 00:00:53.21	44.08	15.17	
2025-01-07 00:00:53.41	44.11	15.19	
2025-01-07 00:00:53.62	44.15	15.20	
2025-01-07 00:00:53.82	44.19	15.22	
2025-01-07 00:00:54.03	44.22	15.24	
2025-01-07 00:00:54.24	44.26	15.25	
2025-01-07 00:00:54.44	44.29	15.27	
2025-01-07 00:00:54.64	44.33	15.29	
2025-01-07 00:00:54.85	44.37	15.31	
2025-01-07 00:00:55.05	44.40	15.32	
2025-01-07 00:00:55.26	44.44	15.34	
2025-01-07 00:00:55.46	44.47	15.36	
2025-01-07 00:00:55.67	44.51	15.37	
2025-01-07 00:00:55.87	44.55	15.39	
2025-01-07 00:00:56.08	44.58	15.41	
2025-01-07 00:00:56.28	44.62	15.42	
2025-01-07 00:00:56.49	44.66	15.44	
2025-01-07 00:00:56.69	44.69	15.46	
2025-01-07 00:00:56.90	44.73	15.48	
2025-01-07 00:00:57.10	44.76	15.49	
2025-01-07 00:00:57.31	44.80	15.51	
2025-01-07 00:00:57.51	44.84	15.53	
2025-01-07 00:00:57.72	44.87	15.54	
2025-01-07 00:00:57.92	44.91	15.56	
2025-01-07 00:00:58.13	44.95	15.58	
2025-01-07 00:00:58.33	44.98	15.59	
2025-01-07 00:00:58.54	45.02	15.61	
2025-01-07 00:00:58.74	45.06	15.63	
2025-01-07 00:00:58.95	45.09	15.65	
2025-01-07 00:00:59.15	45.13	15.66	
2025-01-07 00:00:59.36	45.17	15.68	
2025-01-07 00:00:59.56	45.20	15.70	
2025-01-07 00:00:59.77	45.24	15.71	
2025-01-07 00:00:59.97	45.28	15.73	
2025-01-07 00:01:00.17	45.31	15.75	
2025-01-07 00:01:00.38	45.35	15.77	
2025-01-07 00:01:00.59	45.39	15.78	
2025-01-07 00:01:00.80	45.43	15.80	
2025-01-07 00:01:01.00	45.47	15.82	
2025-01-07 00:01:01.21	45.50	15.83	
2025-01-07 00:01:01.41	45.54	15.85	
2025-01-07 00:01:01.63	45.58	15.87	
2025-01-07 00:01:01.84	45.62	15.89	
2025-01-07 00:01:02.04	45.65	15.90	
2025-01-07 00:01:02.25	45.69	15.92	
2025-01-07 00:01:02.45	45.73	15.94	
2025-01-07 00:01:02.66	45.77	15.96	
2025-01-07 00:01:02.86	45.81	15.97	
2025-01-07 00:01:03.08	45.85	15.99	
2025-01-07 00:01:03.29	45.88	16.01	
2025-01-07 00:01:03.49	45.92	16.02	
2025-01-07 00:01:03.70	45.96	16.04	
2025-01-07 00:01:03.90	46.00	16.06	
2025-01-07 00:01:04.11	46.04	16.08	
2025-01-07 00:01:04.31	46.07	16.09	
2025-01-07 00:01:04.52	46.11	16.11	
2025-01-07 00:01:04.72	46.15	16.13	
2025-01-07 00:01:04.93	46.19	16.15	
2025-01-07 00:01:05.13	46.23	16.16	
2025-01-07 00:01:05.34	46.26	16.18	
2025-01-07 00:01:05.54	46.30	16.20	
2025-01-07 00:01:05.75	46.34	16.21	
2025-01-07 00:01:05.95	46.38	16.23	
2025-01-07 00:01:06.16	46.42	16.25	
2025-01-07 00:01:06.36	46.46	16.26	
2025-01-07 00:01:06.56	46.49	16.28	
2025-01-07 00:01:06.77	46.53	16.30	
2025-01-07 00:01:06.98	46.57	16.32	
2025-01-07 00:01:07.18	46.61	16.33	
2025-01-07 00:01:07.39	46.65	16.35	
2025-01-07 00:01:07.60	46.69	16.37	
2025-01-07 00:01:07.81	46.73	16.39	
2025-01-07 00:01:08.01	46.77	16.40	
2025-01-07 00:01:08.22	46.81	16.42	
2025-01-07 00:01:08.44	46.85	16.44	
2025-01-07 00:01:08.64	46.89	16.46	
2025-01-07 00:01:08.85	46.93	16.47	
2025-01-07 00:01:09.05	46.96	16.49	
2025-01-07 00:01:09.26	47.00	16.51	
2025-01-07 00:01:09.46	47.04	16.52	
2025-01-07 00:01:09.67	47.08	16.54	
2025-01-07 00:01:09.87	47.12	16.56	
2025-01-07 00:01:10.08	47.16	16.58	
2025-01-07 00:01:10.29	47.20	16.59	
2025-01-07 00:01:10.49	47.24	16.61	
2025-01-07 00:01:10.70	47.28	16.63	
2025-01-07 00:01:10.90	47.32	16.65	
2025-01-07 00:01:11.11	47.36	16.66	
2025-01-07 00:01:11.31	47.40	16.68	
2025-01-07 00:01:11.52	47.44	16.70	
2025-01-07 00:01:11.72	47.48	16.71	
2025-01-07 00:01:11.93	47.52	16.73	
2025-01-07 00:01:12.13	47.56	16.75	
2025-01-07 00:01:12.34	47.60	16.77	
2025-01-07 00:01:12.55	47.64	16.78	
2025-01-07 00:01:12.75	47.68	16.80	
2025-01-07 00:01:12.96	47.72	16.82	
2025-01-07 00:01:13.16	47.76	16.83	
2025-01-07 00:01:13.37	47.80	16.85	
2025-01-07 00:01:13.57	47.84	16.87	
2025-01-07 00:01:13.78	47.88	16.89	
2025-01-07 00:01:13.98	47.92	16.90	
2025-01-07 00:01:14.19	47.96	16.92	
2025-01-07 00:01:14.39	48.00	16.94	
2025-01-07 00:01:14.60	48.04	16.96	
2025-01-07 00:01:14.80	48.08	16.97	
2025-01-07 00:01:15.01	48.12	16.99	
2025-01-07 00:01:15.21	48.16	17.01	
2025-01-07 00:01:15.42	48.20	17.02	
2025-01-07 00:01:15.62	48.24	17.04	
2025-01-07 00:01:15.83	48.28	17.06	
2025-01-07 00:01:16.03	48.32	17.08	
2025-01-07 00:01:16.24	48.36	17.09	
2025-01-07 00:01:16.45	48.40	17.11	
2025-01-07 00:01:16.65	48.44	17.13	
2025-01-07 00:01:16.86	48.49	17.14	
2025-01-07 00:01:17.07	48.53	17.16	
2025-01-07 00:01:17.28	48.57	17.18	
2025-01-07 00:01:17.49	48.61	17.20	
2025-01-07 00:01:17.69	48.65	17.21	
2025-01-07 00:01:17.90	48.69	17.23	
2025-01-07 00:01:18.10	48.73	17.25	
2025-01-07 00:01:18.31	48.78	17.27	
2025-01-07 00:01:18.51	48.82	17.28	
2025-01-07 00:01:18.72	48.86	17.30	
2025-01-07 00:01:18.92	48.90	17.32	
2025-01-07 00:01:19.13	48.94	17.34	
2025-01-07 00:01:19.33	48.98	17.35	
2025-01-07 00:01:19.54	49.02	17.37	
2025-01-07 00:01:19.74	49.07	17.39	
2025-01-07 00:01:19.95	49.11	17.40	
2025-01-07 00:01:20.15	49.15	17.42	
2025-01-07 00:01:20.36	49.19	17.44	
2025-01-07 00:01:20.56	49.23	17.46	
2025-01-07 00:01:20.77	49.27	17.47	
2025-01-07 00:01:20.98	49.32	17.49	
2025-01-07 00:01:21.18	49.36	17.51	
2025-01-07 00:01:21.39	49.40	17.52	
2025-01-07 00:01:21.59	49.44	17.54	
2025-01-07 00:01:21.80	49.49	17.56	
2025-01-07 00:01:22.00	49.53	17.58	
2025-01-07 00:01:22.21	49.57	17.59	
2025-01-07 00:01:22.41	49.61	17.61	
2025-01-07 00:01:22.62	49.65	17.63	
2025-01-07 00:01:22.82	49.70	17.64	
2025-01-07 00:01:23.03	49.74	17.66	
2025-01-07 00:01:23.23	49.78	17.68	
2025-01-07 00:01:23.44	49.82	17.70	
2025-01-07 00:01:23.64	49.86	17.71	
2025-01-07 00:01:23.85	49.91	17.73	
2025-01-07 00:01:24.05	49.95	17.75	
2025-01-07 00:01:24.26	49.99	17.77	
2025-01-07 00:01:24.46	50.04	17.78	
2025-01-07 00:01:24.67	50.08	17.80	
2025-01-07 00:01:24.87	50.12	17.82	
2025-01-07 00:01:25.08	50.16	17.83	
2025-01-07 00:01:25.29	50.21	17.85	
2025-01-07 00:01:25.50	50.25	17.87	
2025-01-07 00:01:25.71	50.30	17.89	
2025-01-07 00:01:25.91	50.34	17.90	
2025-01-07 00:01:26.12	50.38	17.92	
2025-01-07 00:01:26.32	50.42	17.94	
2025-01-07 00:01:26.53	50.47	17.96	
2025-01-07 00:01:26.73	50.51	17.97	
2025-01-07 00:01:26.94	50.56	17.99	
2025-01-07 00:01:27.15	50.60	18.01	
2025-01-07 00:01:27.35	50.64	18.02	
2025-01-07 00:01:27.56	50.69	18.04	
2025-01-07 00:01:27.76	50.73	18.06	
2025-01-07 00:01:27.96	50.77	18.08	
2025-01-07 00:01:28.17	50.82	18.09	
2025-01-07 00:01:28.38	50.86	18.11	
2025-01-07 00:01:28.58	50.90	18.13	
2025-01-07 00:01:28.78	50.95	18.14	
2025-01-07 00:01:28.99	50.99	18.16	
2025-01-07 00:01:29.20	51.04	18.18	
2025-01-07 00:01:29.40	51.08	18.20	
2025-01-07 00:01:29.61	51.12	18.21	
2025-01-07 00:01:29.81	51.17	18.23	
2025-01-07 00:01:30.02	51.21	18.25	
2025-01-07 00:01:30.22	51.25	18.26	
2025-01-07 00:01:30.43	51.30	18.28	
2025-01-07 00:01:30.63	51.34	18.30	
2025-01-07 00:01:30.84	51.39	18.32	
2025-01-07 00:01:31.04	51.43	18.33	
2025-01-07 00:01:31.25	51.48	18.35	
2025-01-07 00:01:31.45	51.52	18.37	
2025-01-07 00:01:31.66	51.57	18.38	
2025-01-07 00:01:31.86	51.61	18.40	
2025-01-07 00:01:32.07	51.66	18.42	
2025-01-07 00:01:32.27	51.70	18.44	
2025-01-07 00:01:32.48	51.74	18.45	
2025-01-07 00:01:32.68	51.79	18.47	
2025-01-07 00:01:32.89	51.83	18.49	
2025-01-07 00:01:33.09	51.88	18.50	
2025-01-07 00:01:33.30	51.92	18.52	
2025-01-07 00:01:33.50	51.97	18.54	
2025-01-07 00:01:33.71	52.01	18.56	
2025-01-07 00:01:33.91	52.06	18.57	
2025-01-07 00:01:34.13	52.11	18.59	
2025-01-07 00:01:34.34	52.15	18.61	
2025-01-07 00:01:34.54	52.20	18.62	
2025-01-07 00:01:34.75	52.24	18.64	
2025-01-07 00:01:34.95	52.29	18.66	
2025-01-07 00:01:35.16	52.33	18.68	
2025-01-07 00:01:35.36	52.38	18.69	
2025-01-07 00:01:35.57	52.42	18.71	
2025-01-07 00:01:35.77	52.47	18.73	
2025-01-07 00:01:35.98	52.52	18.74	
2025-01-07 00:01:36.18	52.56	18.76	
2025-01-07 00:01:36.39	52.61	18.78	
2025-01-07 00:01:36.60	52.65	18.80	
2025-01-07 00:01:36.80	52.70	18.81	
2025-01-07 00:01:37.01	52.74	18.83	
2025-01-07 00:01:37.21	52.79	18.85	
2025-01-07 00:01:37.42	52.84	18.86	
2025-01-07 00:01:37.62	52.88	18.88	
2025-01-07 00:01:37.83	52.93	18.90	
2025-01-07 00:01:38.03	52.97	18.91	
2025-01-07 00:01:38.24	53.02	18.93	
2025-01-07 00:01:38.44	53.07	18.95	
2025-01-07 00:01:38.65	53.11	18.97	
2025-01-07 00:01:38.85	53.16	18.98	
2025-01-07 00:01:39.06	53.21	19.00	
2025-01-07 00:01:39.26	53.25	19.02	
2025-01-07 00:01:39.46	53.30	19.03	
2025-01-07 00:01:39.67	53.34	19.05	
2025-01-07 00:01:39.88	53.39	19.07	
2025-01-07 00:01:40.08	53.44	19.08	
2025-01-07 00:01:40.29	53.49	19.10	
2025-01-07 00:01:40.49	53.53	19.12	
2025-01-07 00:01:40.70	53.58	19.14	
2025-01-07 00:01:40.90	53.62	19.15	
2025-01-07 00:01:41.11	53.67	19.17	
2025-01-07 00:01:41.31	53.72	19.19	
2025-01-07 00:01:41.52	53.77	19.20	
2025-01-07 00:01:41.72	53.81	19.22	
2025-01-07 00:01:41.93	53.86	19.24	
2025-01-07 00:01:42.13	53.91	19.25	
2025-01-07 00:01:42.34	53.96	19.27	
2025-01-07 00:01:42.54	54.00	19.29	
2025-01-07 00:01:42.75	54.05	19.30	
2025-01-07 00:01:42.95	54.10	19.32	
2025-01-07 00:01:43.16	54.14	19.34	
2025-01-07 00:01:43.36	54.19	19.35	
2025-01-07 00:01:43.57	54.24	19.37	
2025-01-07 00:01:43.77	54.29	19.39	
2025-01-07 00:01:43.98	54.33	19.41	
2025-01-07 00:01:44.19	54.38	19.42	
2025-01-07 00:01:44.39	54.43	19.44	
2025-01-07 00:01:44.60	54.48	19.46	
2025-01-07 00:01:44.80	54.53	19.47	
2025-01-07 00:01:45.01	54.58	19.49	
2025-01-07 00:01:45.22	54.62	19.51	
2025-01-07 00:01:45.42	54.67	19.52	
2025-01-07 00:01:45.63	54.72	19.54	
2025-01-07 00:01:45.85	54.77	19.56	
2025-01-07 00:01:46.05	54.82	19.57	
2025-01-07 00:01:46.26	54.87	19.59	
2025-01-07 00:01:46.46	54.92	19.61	
2025-01-07 00:01:46.67	54.97	19.63	
2025-01-07 00:01:46.87	55.01	19.64	
2025-01-07 00:01:47.08	55.06	19.66	
2025-01-07 00:01:47.28	55.11	19.68	
2025-01-07 00:01:47.49	55.16	19.69	
2025-01-07 00:01:47.69	55.21	19.71	
2025-01-07 00:01:47.90	55.26	19.73	
2025-01-07 00:01:48.10	55.30	19.74	
2025-01-07 00:01:48.31	55.35	19.76	
2025-01-07 00:01:48.51	55.40	19.78	
2025-01-07 00:01:48.72	55.45	19.79	
2025-01-07 00:01:48.92	55.50	19.81	
2025-01-07 00:01:49.13	55.55	19.83	
2025-01-07 00:01:49.33	55.60	19.84	
2025-01-07 00:01:49.54	55.65	19.86	
2025-01-07 00:01:49.75	55.70	19.88	
2025-01-07 00:01:49.95	55.75	19.89	
2025-01-07 00:01:50.16	55.80	19.91	
2025-01-07 00:01:50.37	55.85	19.93	
2025-01-07 00:01:50.57	55.90	19.94	
2025-01-07 00:01:50.78	55.95	19.96	
2025-01-07 00:01:50.99	56.00	19.98	
2025-01-07 00:01:51.19	56.05	19.99	
2025-01-07 00:01:51.39	56.09	20.01	
2025-01-07 00:01:51.60	56.15	20.03	
2025-01-07 00:01:51.81	56.20	20.04	
2025-01-07 00:01:52.01	56.24	20.06	
2025-01-07 00:01:52.23	56.30	20.08	
2025-01-07 00:01:52.44	56.35	20.09	
2025-01-07 00:01:52.64	56.40	20.11	
2025-01-07 00:01:52.85	56.45	20.13	
2025-01-07 00:01:53.05	56.50	20.14	
2025-01-07 00:01:53.26	56.55	20.16	
2025-01-07 00:01:53.46	56.60	20.18	
2025-01-07 00:01:53.67	56.65	20.19	
2025-01-07 00:01:53.88	56.70	20.21	
2025-01-07 00:01:54.08	56.75	20.23	
2025-01-07 00:01:54.28	56.80	20.24	
2025-01-07 00:01:54.49	56.85	20.26	
2025-01-07 00:01:54.70	56.90	20.28	
2025-01-07 00:01:54.90	56.95	20.29	
2025-01-07 00:01:55.11	57.00	20.31	
2025-01-07 00:01:55.31	57.05	20.32	
2025-01-07 00:01:55.52	57.11	20.34	
2025-01-07 00:01:55.72	57.16	20.36	
2025-01-07 00:01:55.93	57.21	20.37	
2025-01-07 00:01:56.14	57.26	20.39	
2025-01-07 00:01:56.34	57.31	20.41	
2025-01-07 00:01:56.56	57.36	20.42	
2025-01-07 00:01:56.76	57.41	20.44	
2025-01-07 00:01:56.97	57.47	20.46	
2025-01-07 00:01:57.18	57.52	20.47	
2025-01-07 00:01:57.38	57.57	20.49	
2025-01-07 00:01:57.59	57.62	20.51	
2025-01-07 00:01:57.79	57.67	20.52	
2025-01-07 00:01:58.00	57.72	20.54	
2025-01-07 00:01:58.20	57.78	20.56	
2025-01-07 00:01:58.41	57.83	20.57	
2025-01-07 00:01:58.61	57.88	20.59	
2025-01-07 00:01:58.82	57.93	20.60	
2025-01-07 00:01:59.02	57.98	20.62	
2025-01-07 00:01:59.23	58.03	20.64	
2025-01-07 00:01:59.43	58.09	20.65	
2025-01-07 00:01:59.64	58.14	20.67	
2025-01-07 00:01:59.84	58.19	20.68	
2025-01-07 00:02:00.05	58.24	20.70	
2025-01-07 00:02:00.27	58.30	20.72	
2025-01-07 00:02:00.47	58.35	20.73	
2025-01-07 00:02:00.67	58.40	20.75	
2025-01-07 00:02:00.88	58.45	20.77	
2025-01-07 00:02:01.09	58.51	20.78	
2025-01-07 00:02:01.30	58.56	20.80	
2025-01-07 00:02:01.50	58.61	20.82	
2025-01-07 00:02:01.70	58.66	20.83	
2025-01-07 00:02:01.91	58.72	20.85	
2025-01-07 00:02:02.11	58.77	20.86	
2025-01-07 00:02:02.32	58.82	20.88	
2025-01-07 00:02:02.53	58.88	20.90	
2025-01-07 00:02:02.73	58.93	20.91	
2025-01-07 00:02:02.95	58.98	20.93	
2025-01-07 00:02:03.15	59.04	20.94	
2025-01-07 00:02:03.36	59.09	20.96	
2025-01-07 00:02:03.56	59.14	20.98	
2025-01-07 00:02:03.76	59.19	20.99	
2025-01-07 00:02:03.97	59.25	21.01	
2025-01-07 00:02:04.17	59.30	21.02	
2025-01-07 00:02:04.38	59.35	21.04	
2025-01-07 00:02:04.58	59.41	21.06	
2025-01-07 00:02:04.79	59.46	21.07	
2025-01-07 00:02:04.99	59.51	21.09	
2025-01-07 00:02:05.20	59.57	21.10	
2025-01-07 00:02:05.40	59.62	21.12	
2025-01-07 00:02:05.61	59.67	21.14	
2025-01-07 00:02:05.81	59.73	21.15	
2025-01-07 00:02:06.02	59.78	21.17	
2025-01-07 00:02:06.22	59.83	21.18	
2025-01-07 00:02:06.43	59.89	21.20	
2025-01-07 00:02:06.64	59.94	21.21	
2025-01-07 00:02:06.84	60.00	21.23	
2025-01-07 00:02:07.04	60.05	21.25	
2025-01-07 00:02:07.25	60.11	21.26	
2025-01-07 00:02:07.45	60.16	21.28	
2025-01-07 00:02:07.66	60.21	21.29	
2025-01-07 00:02:07.86	60.27	21.31	
2025-01-07 00:02:08.07	60.32	21.32	
2025-01-07 00:02:08.27	60.37	21.34	
2025-01-07 00:02:08.48	60.43	21.36	
2025-01-07 00:02:08.68	60.48	21.37	
2025-01-07 00:02:08.89	60.54	21.39	
2025-01-07 00:02:09.09	60.59	21.40	
2025-01-07 00:02:09.31	60.65	21.42	
2025-01-07 00:02:09.52	60.71	21.44	
2025-01-07 00:02:09.72	60.76	21.45	
2025-01-07 00:02:09.93	60.82	21.47	
2025-01-07 00:02:10.13	60.87	21.48	
2025-01-07 00:02:10.35	60.93	21.50	
2025-01-07 00:02:10.56	60.99	21.51	
2025-01-07 00:02:10.76	61.04	21.53	
2025-01-07 00:02:10.97	61.10	21.54	
2025-01-07 00:02:11.17	61.15	21.56	
2025-01-07 00:02:11.38	61.21	21.58	
2025-01-07 00:02:11.58	61.26	21.59	
2025-01-07 00:02:11.79	61.32	21.61	
2025-01-07 00:02:11.99	61.37	21.62	
2025-01-07 00:02:12.20	61.43	21.64	
2025-01-07 00:02:12.40	61.48	21.65	
2025-01-07 00:02:12.61	61.54	21.67	
2025-01-07 00:02:12.81	61.59	21.68	
2025-01-07 00:02:13.02	61.65	21.70	
2025-01-07 00:02:13.23	61.71	21.71	
2025-01-07 00:02:13.43	61.76	21.73	
2025-01-07 00:02:13.65	61.82	21.75	
2025-01-07 00:02:13.85	61.87	21.76	
2025-01-07 00:02:14.06	61.93	21.78	
2025-01-07 00:02:14.26	61.99	21.79	
2025-01-07 00:02:14.47	62.04	21.81	
2025-01-07 00:02:14.69	62.10	21.82	
2025-01-07 00:02:14.89	62.16	21.84	
2025-01-07 00:02:15.10	62.22	21.85	
2025-01-07 00:02:15.31	62.27	21.87	
2025-01-07 00:02:15.51	62.33	21.88	
2025-01-07 00:02:15.73	62.39	21.90	
2025-01-07 00:02:15.93	62.44	21.91	
2025-01-07 00:02:16.14	62.50	21.93	
2025-01-07 00:02:16.34	62.56	21.94	
2025-01-07 00:02:16.55	62.62	21.96	
2025-01-07 00:02:16.75	62.67	21.97	
2025-01-07 00:02:16.96	62.73	21.99	
2025-01-07 00:02:17.16	62.78	22.00	
2025-01-07 00:02:17.37	62.84	22.02	
2025-01-07 00:02:17.57	62.90	22.03	
2025-01-07 00:02:17.78	62.96	22.05	
2025-01-07 00:02:17.98	63.01	22.06	
2025-01-07 00:02:18.19	63.07	22.08	
2025-01-07 00:02:18.39	63.13	22.09	
2025-01-07 00:02:18.60	63.18	22.11	
2025-01-07 00:02:18.80	63.24	22.12	
2025-01-07 00:02:19.01	63.30	22.14	
2025-01-07 00:02:19.22	63.36	22.15	
2025-01-07 00:02:19.42	63.41	22.17	
2025-01-07 00:02:19.63	63.47	22.18	
2025-01-07 00:02:19.83	63.53	22.20	
2025-01-07 00:02:20.03	63.58	22.21	
2025-01-07 00:02:20.24	63.64	22.23	
2025-01-07 00:02:20.44	63.70	22.24	
2025-01-07 00:02:20.65	63.76	22.26	
2025-01-07 00:02:20.85	63.82	22.27	
2025-01-07 00:02:21.06	63.87	22.29	
2025-01-07 00:02:21.26	63.93	22.30	
2025-01-07 00:02:21.47	63.99	22.32	
2025-01-07 00:02:21.68	64.05	22.33	
2025-01-07 00:02:21.88	64.11	22.34	
2025-01-07 00:02:22.10	64.17	22.36	
2025-01-07 00:02:22.31	64.23	22.37	
2025-01-07 00:02:22.51	64.29	22.39	
2025-01-07 00:02:22.72	64.34	22.40	
2025-01-07 00:02:22.92	64.40	22.42	
2025-01-07 00:02:23.14	64.46	22.43	
2025-01-07 00:02:23.35	64.52	22.45	
2025-01-07 00:02:23.55	64.58	22.46	
2025-01-07 00:02:23.76	64.64	22.48	
2025-01-07 00:02:23.96	64.70	22.49	
2025-01-07 00:02:24.17	64.76	22.51	
2025-01-07 00:02:24.37	64.82	22.52	
2025-01-07 00:02:24.58	64.88	22.53	
2025-01-07 00:02:24.78	64.93	22.55	
2025-01-07 00:02:24.99	64.99	22.56	
2025-01-07 00:02:25.19	65.05	22.58	
2025-01-07 00:02:25.40	65.11	22.59	
2025-01-07 00:02:25.61	65.17	22.61	
2025-01-07 00:02:25.81	65.23	22.62	
2025-01-07 00:02:26.03	65.29	22.63	
2025-01-07 00:02:26.24	65.35	22.65	
2025-01-07 00:02:26.44	65.41	22.66	
2025-01-07 00:02:26.65	65.47	22.68	
2025-01-07 00:02:26.85	65.53	22.69	
2025-01-07 00:02:27.06	65.59	22.71	
2025-01-07 00:02:27.27	65.65	22.72	
2025-01-07 00:02:27.47	65.71	22.73	
2025-01-07 00:02:27.68	65.77	22.75	
2025-01-07 00:02:27.88	65.83	22.76	
2025-01-07 00:02:28.09	65.89	22.78	
2025-01-07 00:02:28.29	65.95	22.79	
2025-01-07 00:02:28.50	66.01	22.80	
2025-01-07 00:02:28.70	66.07	22.82	
2025-01-07 00:02:28.91	66.13	22.83	
2025-01-07 00:02:29.11	66.19	22.84	
2025-01-07 00:02:29.32	66.25	22.86	
2025-01-07 00:02:29.52	66.31	22.87	
2025-01-07 00:02:29.73	66.37	22.89	
2025-01-07 00:02:29.94	66.43	22.90	
2025-01-07 00:02:30.14	66.49	22.91	
2025-01-07 00:02:30.35	66.55	22.93	
2025-01-07 00:02:30.55	66.61	22.94	
2025-01-07 00:02:30.76	66.67	22.95	
2025-01-07 00:02:30.96	66.73	22.97	
2025-01-07 00:02:31.17	66.80	22.98	
2025-01-07 00:02:31.37	66.85	22.99	
2025-01-07 00:02:31.58	66.92	23.01	
2025-01-07 00:02:31.78	66.98	23.02	
2025-01-07 00:02:31.99	67.04	23.04	
2025-01-07 00:02:32.20	67.10	23.05	
2025-01-07 00:02:32.40	67.16	23.06	
2025-01-07 00:02:32.61	67.22	23.08	
2025-01-07 00:02:32.81	67.28	23.09	
2025-01-07 00:02:33.02	67.34	23.10	
2025-01-07 00:02:33.22	67.40	23.12	
2025-01-07 00:02:33.43	67.47	23.13	
2025-01-07 00:02:33.63	67.53	23.14	
2025-01-07 00:02:33.84	67.59	23.16	
2025-01-07 00:02:34.04	67.65	23.17	
2025-01-07 00:02:34.25	67.71	23.18	
2025-01-07 00:02:34.46	67.78	23.20	
2025-01-07 00:02:34.66	67.84	23.21	
2025-01-07 00:02:34.88	67.90	23.22	
2025-01-07 00:02:35.08	67.96	23.24	
2025-01-07 00:02:35.29	68.02	23.25	
2025-01-07 00:02:35.50	68.09	23.26	
2025-01-07 00:02:35.70	68.15	23.28	
2025-01-07 00:02:35.90	68.21	23.29	
2025-01-07 00:02:36.11	68.27	23.30	
2025-01-07 00:02:36.32	68.34	23.31	
2025-01-07 00:02:36.52	68.40	23.33	
2025-01-07 00:02:36.73	68.46	23.34	
2025-01-07 00:02:36.93	68.52	23.35	
2025-01-07 00:02:37.14	68.58	23.37	
2025-01-07 00:02:37.34	68.64	23.38	
2025-01-07 00:02:37.55	68.71	23.39	
2025-01-07 00:02:37.75	68.77	23.40	
2025-01-07 00:02:37.96	68.83	23.42	
2025-01-07 00:02:38.16	68.89	23.43	
2025-01-07 00:02:38.37	68.96	23.44	
2025-01-07 00:02:38.57	69.02	23.45	
2025-01-07 00:02:38.78	69.08	23.47	
2025-01-07 00:02:38.99	69.15	23.48	
2025-01-07 00:02:39.19	69.21	23.49	
2025-01-07 00:02:39.39	69.27	23.51	
2025-01-07 00:02:39.60	69.33	23.52	
2025-01-07 00:02:39.81	69.40	23.53	
2025-01-07 00:02:40.01	69.46	23.54	
2025-01-07 00:02:40.22	69.52	23.56	
2025-01-07 00:02:40.42	69.58	23.57	
2025-01-07 00:02:40.63	69.65	23.58	
2025-01-07 00:02:40.83	69.71	23.59	
2025-01-07 00:02:41.04	69.78	23.61	
2025-01-07 00:02:41.24	69.84	23.62	
2025-01-07 00:02:41.44	69.90	23.63	
2025-01-07 00:02:41.65	69.96	23.64	
2025-01-07 00:02:41.86	70.03	23.65	
2025-01-07 00:02:42.06	70.09	23.67	
2025-01-07 00:02:42.27	70.15	23.68	
2025-01-07 00:02:42.47	70.22	23.69	
2025-01-07 00:02:42.68	70.28	23.70	
2025-01-07 00:02:42.88	70.34	23.71	
2025-01-07 00:02:43.09	70.41	23.73	
2025-01-07 00:02:43.30	70.47	23.74	
2025-01-07 00:02:43.50	70.54	23.75	
2025-01-07 00:02:43.71	70.60	23.76	
2025-01-07 00:02:43.91	70.66	23.77	
2025-01-07 00:02:44.12	70.73	23.79	
2025-01-07 00:02:44.32	70.79	23.80	
2025-01-07 00:02:44.54	70.86	23.81	
2025-01-07 00:02:44.74	70.92	23.82	
2025-01-07 00:02:44.95	70.99	23.83	
2025-01-07 00:02:45.15	71.05	23.85	
2025-01-07 00:02:45.36	71.12	23.86	
2025-01-07 00:02:45.56	71.18	23.87	
2025-01-07 00:02:45.77	71.25	23.88	
2025-01-07 00:02:45.97	71.31	23.89	
2025-01-07 00:02:46.18	71.37	23.90	
2025-01-07 00:02:46.39	71.44	23.92	
2025-01-07 00:02:46.59	71.50	23.93	
2025-01-07 00:02:46.79	71.57	23.94	
2025-01-07 00:02:47.00	71.63	23.95	
2025-01-07 00:02:47.20	71.70	23.96	
2025-01-07 00:02:47.41	71.76	23.97	
2025-01-07 00:02:47.61	71.82	23.98	
2025-01-07 00:02:47.82	71.89	24.00	
2025-01-07 00:02:48.02	71.95	24.01	
2025-01-07 00:02:48.23	72.02	24.02	
2025-01-07 00:02:48.43	72.08	24.03	
2025-01-07 00:02:48.64	72.15	24.04	
2025-01-07 00:02:48.84	72.21	24.05	
2025-01-07 00:02:49.04	72.28	24.06	
2025-01-07 00:02:49.25	72.34	24.07	
2025-01-07 00:02:49.46	72.41	24.09	
2025-01-07 00:02:49.66	72.47	24.10	
2025-01-07 00:02:49.88	72.54	24.11	
2025-01-07 00:02:50.08	72.61	24.12	
2025-01-07 00:02:50.29	72.68	24.13	
2025-01-07 00:02:50.50	72.74	24.14	
2025-01-07 00:02:50.70	72.81	24.15	
2025-01-07 00:02:50.91	72.87	24.16	
2025-01-07 00:02:51.11	72.94	24.17	
2025-01-07 00:02:51.32	73.00	24.19	
2025-01-07 00:02:51.53	73.07	24.20	
2025-01-07 00:02:51.73	73.14	24.21	
2025-01-07 00:02:51.94	73.20	24.22	
2025-01-07 00:02:52.14	73.27	24.23	
2025-01-07 00:02:52.35	73.33	24.24	
2025-01-07 00:02:52.56	73.40	24.25	
2025-01-07 00:02:52.76	73.47	24.26	
2025-01-07 00:02:52.96	73.53	24.27	
2025-01-07 00:02:53.17	73.60	24.28	
2025-01-07 00:02:53.37	73.66	24.29	
2025-01-07 00:02:53.58	73.73	24.30	
2025-01-07 00:02:53.78	73.80	24.31	
2025-01-07 00:02:53.99	73.86	24.32	
2025-01-07 00:02:54.19	73.93	24.33	
2025-01-07 00:02:54.40	74.00	24.34	
2025-01-07 00:02:54.61	74.06	24.35	
2025-01-07 00:02:54.81	74.13	24.36	
2025-01-07 00:02:55.02	74.20	24.37	
2025-01-07 00:02:55.22	74.26	24.38	
2025-01-07 00:02:55.43	74.33	24.39	
2025-01-07 00:02:55.63	74.39	24.40	
2025-01-07 00:02:55.84	74.46	24.42	
2025-01-07 00:02:56.04	74.53	24.42	
2025-01-07 00:02:56.26	74.60	24.44	
2025-01-07 00:02:56.47	74.67	24.45	
2025-01-07 00:02:56.67	74.73	24.46	
2025-01-07 00:02:56.88	74.80	24.47	
2025-01-07 00:02:57.08	74.87	24.48	
2025-01-07 00:02:57.29	74.93	24.49	
2025-01-07 00:02:57.49	75.00	24.49	
2025-01-07 00:02:57.70	75.07	24.50	
2025-01-07 00:02:57.90	75.13	24.51	
2025-01-07 00:02:58.11	75.20	24.52	
2025-01-07 00:02:58.31	75.27	24.53	
2025-01-07 00:02:58.52	75.34	24.54	
2025-01-07 00:02:58.72	75.40	24.55	
2025-01-07 00:02:58.93	75.47	24.56	
2025-01-07 00:02:59.14	75.54	24.57	
2025-01-07 00:02:59.34	75.61	24.58	
2025-01-07 00:02:59.54	75.67	24.59	
2025-01-07 00:02:59.75	75.74	24.60	
2025-01-07 00:02:59.96	75.81	24.61	
2025-01-07 00:03:00.16	75.88	24.62	
2025-01-07 00:03:00.37	75.94	24.63	
2025-01-07 00:03:00.57	76.01	24.64	
2025-01-07 00:03:00.78	76.08	24.65	
2025-01-07 00:03:00.98	76.15	24.66	
2025-01-07 00:03:01.19	76.22	24.67	
2025-01-07 00:03:01.39	76.28	24.67	
2025-01-07 00:03:01.59	76.35	24.68	
2025-01-07 00:03:01.80	76.42	24.69	
2025-01-07 00:03:02.01	76.49	24.70	
2025-01-07 00:03:02.21	76.55	24.71	
2025-01-07 00:03:02.42	76.62	24.72	
2025-01-07 00:03:02.62	76.69	24.73	
2025-01-07 00:03:02.83	76.76	24.74	
2025-01-07 00:03:03.03	76.82	24.75	
2025-01-07 00:03:03.24	76.89	24.75	
2025-01-07 00:03:03.44	76.96	24.76	
2025-01-07 00:03:03.65	77.03	24.77	
2025-01-07 00:03:03.85	77.10	24.78	
2025-01-07 00:03:04.06	77.17	24.79	
2025-01-07 00:03:04.26	77.23	24.80	
2025-01-07 00:03:04.47	77.30	24.81	
2025-01-07 00:03:04.67	77.37	24.81	
2025-01-07 00:03:04.88	77.44	24.82	
2025-01-07 00:03:05.09	77.51	24.83	
2025-01-07 00:03:05.29	77.58	24.84	
2025-01-07 00:03:05.50	77.65	24.85	
2025-01-07 00:03:05.70	77.71	24.86	
2025-01-07 00:03:05.92	77.79	24.87	
2025-01-07 00:03:06.13	77.86	24.87	
2025-01-07 00:03:06.33	77.93	24.88	
2025-01-07 00:03:06.54	78.00	24.89	
2025-01-07 00:03:06.74	78.06	24.90	
2025-01-07 00:03:06.95	78.13	24.91	
2025-01-07 00:03:07.15	78.20	24.91	
2025-01-07 00:03:07.36	78.27	24.92	
2025-01-07 00:03:07.56	78.34	24.93	
2025-01-07 00:03:07.77	78.41	24.94	
2025-01-07 00:03:07.97	78.48	24.95	
2025-01-07 00:03:08.18	78.55	24.95	
2025-01-07 00:03:08.38	78.61	24.96	
2025-01-07 00:03:08.59	78.68	24.97	
2025-01-07 00:03:08.79	78.75	24.98	
2025-01-07 00:03:09.00	78.82	24.99	
2025-01-07 00:03:09.20	78.89	24.99	
2025-01-07 00:03:09.41	78.96	25.00	
2025-01-07 00:03:09.61	79.03	25.01	
2025-01-07 00:03:09.82	79.10	25.02	
2025-01-07 00:03:10.02	79.17	25.02	
2025-01-07 00:03:10.22	79.24	25.03	
2025-01-07 00:03:10.43	79.31	25.04	
2025-01-07 00:03:10.63	79.37	25.04	
2025-01-07 00:03:10.84	79.44	25.05	
2025-01-07 00:03:11.05	79.52	25.06	
2025-01-07 00:03:11.25	79.58	25.07	
2025-01-07 00:03:11.45	79.65	25.07	
2025-01-07 00:03:11.66	79.72	25.08	
2025-01-07 00:03:11.87	79.79	25.09	
2025-01-07 00:03:12.07	79.86	25.10	
2025-01-07 00:03:12.28	79.93	25.10	
2025-01-07 00:03:12.48	80.00	25.11	
2025-01-07 00:03:12.69	80.07	25.12	
2025-01-07 00:03:12.89	80.14	25.12	
2025-01-07 00:03:13.10	80.21	25.13	
2025-01-07 00:03:13.30	80.28	25.14	
2025-01-07 00:03:13.51	80.35	25.14	
2025-01-07 00:03:13.71	80.42	25.15	
2025-01-07 00:03:13.92	80.49	25.16	
2025-01-07 00:03:14.13	80.56	25.16	
2025-01-07 00:03:14.33	80.63	25.17	
2025-01-07 00:03:14.54	80.70	25.18	
2025-01-07 00:03:14.74	80.77	25.18	
2025-01-07 00:03:14.95	80.84	25.19	
2025-01-07 00:03:15.15	80.91	25.20	
2025-01-07 00:03:15.36	80.98	25.20	
2025-01-07 00:03:15.56	81.05	25.21	
2025-01-07 00:03:15.77	81.12	25.22	
2025-01-07 00:03:15.97	81.19	25.22	
2025-01-07 00:03:16.18	81.27	25.23	
2025-01-07 00:03:16.38	81.33	25.23	
2025-01-07 00:03:16.59	81.41	25.24	
2025-01-07 00:03:16.79	81.47	25.25	
2025-01-07 00:03:17.00	81.55	25.25	
2025-01-07 00:03:17.20	81.62	25.26	
2025-01-07 00:03:17.41	81.69	25.27	
2025-01-07 00:03:17.61	81.76	25.27	
2025-01-07 00:03:17.82	81.83	25.28	
2025-01-07 00:03:18.02	81.90	25.28	
2025-01-07 00:03:18.23	81.97	25.29	
2025-01-07 00:03:18.44	82.04	25.30	
2025-01-07 00:03:18.64	82.11	25.30	
2025-01-07 00:03:18.85	82.18	25.31	
2025-01-07 00:03:19.05	82.25	25.31	
2025-01-07 00:03:19.26	82.32	25.32	
2025-01-07 00:03:19.47	82.40	25.32	
2025-01-07 00:03:19.67	82.47	25.33	
2025-01-07 00:03:19.88	82.54	25.33	
2025-01-07 00:03:20.08	82.61	25.34	
2025-01-07 00:03:20.29	82.68	25.35	
2025-01-07 00:03:20.49	82.75	25.35	
2025-01-07 00:03:20.70	82.82	25.36	
2025-01-07 00:03:20.90	82.89	25.36	
2025-01-07 00:03:21.11	82.96	25.37	
2025-01-07 00:03:21.32	83.04	25.37	
2025-01-07 00:03:21.52	83.10	25.38	
2025-01-07 00:03:21.73	83.18	25.38	
2025-01-07 00:03:21.95	83.25	25.39	
2025-01-07 00:03:22.15	83.32	25.39	
2025-01-07 00:03:22.36	83.40	25.40	
2025-01-07 00:03:22.56	83.47	25.40	
2025-01-07 00:03:22.76	83.53	25.41	
2025-01-07 00:03:22.97	83.61	25.41	
2025-01-07 00:03:23.17	83.68	25.42	
2025-01-07 00:03:23.38	83.75	25.42	
2025-01-07 00:03:23.59	83.82	25.43	
2025-01-07 00:03:23.79	83.89	25.43	
2025-01-07 00:03:24.00	83.97	25.44	
2025-01-07 00:03:24.20	84.03	25.44	
2025-01-07 00:03:24.41	84.11	25.44	
2025-01-07 00:03:24.61	84.18	25.45	
2025-01-07 00:03:24.82	84.25	25.45	
2025-01-07 00:03:25.02	84.32	25.46	
2025-01-07 00:03:25.23	84.39	25.46	
2025-01-07 00:03:25.43	84.46	25.47	
2025-01-07 00:03:25.64	84.54	25.47	
2025-01-07 00:03:25.84	84.61	25.48	
2025-01-07 00:03:26.05	84.68	25.48	
2025-01-07 00:03:26.25	84.75	25.48	
2025-01-07 00:03:26.46	84.82	25.49	
2025-01-07 00:03:26.66	84.89	25.49	
2025-01-07 00:03:26.87	84.96	25.50	
2025-01-07 00:03:27.08	85.04	25.50	
2025-01-07 00:03:27.28	85.11	25.50	
2025-01-07 00:03:27.48	85.18	25.51	
2025-01-07 00:03:27.69	85.25	25.51	
2025-01-07 00:03:27.90	85.32	25.52	
2025-01-07 00:03:28.10	85.39	25.52	
2025-01-07 00:03:28.31	85.47	25.52	
2025-01-07 00:03:28.51	85.54	25.53	
2025-01-07 00:03:28.72	85.61	25.53	
2025-01-07 00:03:28.92	85.68	25.53	
2025-01-07 00:03:29.13	85.75	25.54	
2025-01-07 00:03:29.33	85.82	25.54	
2025-01-07 00:03:29.54	85.90	25.54	
2025-01-07 00:03:29.74	85.97	25.55	
2025-01-07 00:03:29.95	86.04	25.55	
2025-01-07 00:03:30.15	86.11	25.55	
2025-01-07 00:03:30.36	86.18	25.56	
2025-01-07 00:03:30.58	86.26	25.56	
2025-01-07 00:03:30.79	86.34	25.56	
2025-01-07 00:03:30.99	86.41	25.57	
2025-01-07 00:03:31.20	86.48	25.57	
2025-01-07 00:03:31.40	86.55	25.57	
2025-01-07 00:03:31.61	86.62	25.58	
2025-01-07 00:03:31.81	86.69	25.58	
2025-01-07 00:03:32.02	86.77	25.58	
2025-01-07 00:03:32.22	86.84	25.58	
2025-01-07 00:03:32.43	86.91	25.59	
2025-01-07 00:03:32.64	86.98	25.59	
2025-01-07 00:03:32.85	87.06	25.59	
2025-01-07 00:03:33.05	87.13	25.60	
2025-01-07 00:03:33.26	87.20	25.60	
2025-01-07 00:03:33.46	87.27	25.60	
2025-01-07 00:03:33.67	87.35	25.60	
2025-01-07 00:03:33.87	87.42	25.61	
2025-01-07 00:03:34.08	87.49	25.61	
2025-01-07 00:03:34.28	87.56	25.61	
2025-01-07 00:03:34.48	87.63	25.61	
2025-01-07 00:03:34.69	87.70	25.61	
2025-01-07 00:03:34.90	87.78	25.62	
2025-01-07 00:03:35.10	87.85	25.62	
2025-01-07 00:03:35.30	87.92	25.62	
2025-01-07 00:03:35.51	87.99	25.62	
2025-01-07 00:03:35.71	88.06	25.63	
2025-01-07 00:03:35.92	88.14	25.63	
2025-01-07 00:03:36.12	88.21	25.63	
2025-01-07 00:03:36.33	88.28	25.63	
2025-01-07 00:03:36.53	88.35	25.63	
2025-01-07 00:03:36.74	88.43	25.63	
2025-01-07 00:03:36.94	88.50	25.64	
2025-01-07 00:03:37.15	88.57	25.64	
2025-01-07 00:03:37.35	88.64	25.64	
2025-01-07 00:03:37.56	88.71	25.64	
2025-01-07 00:03:37.76	88.79	25.64	
2025-01-07 00:03:37.97	88.86	25.64	
2025-01-07 00:03:38.17	88.93	25.65	
2025-01-07 00:03:38.38	89.00	25.65	
2025-01-07 00:03:38.58	89.07	25.65	
2025-01-07 00:03:38.79	89.15	25.65	
2025-01-07 00:03:38.99	89.22	25.65	
2025-01-07 00:03:39.20	89.29	25.65	
2025-01-07 00:03:39.40	89.36	25.65	
2025-01-07 00:03:39.61	89.44	25.66	
2025-01-07 00:03:39.81	89.51	25.66	
2025-01-07 00:03:40.02	89.58	25.66	
2025-01-07 00:03:40.22	89.65	25.66	
2025-01-07 00:03:40.43	89.73	25.66	
2025-01-07 00:03:40.63	89.80	25.66	
2025-01-07 00:03:40.84	89.87	25.66	
2025-01-07 00:03:41.04	89.94	25.66	
2025-01-07 00:03:41.26	90.02	25.66	
2025-01-07 00:03:41.47	90.09	25.66	
2025-01-07 00:03:41.67	90.16	25.66	
2025-01-07 00:03:41.88	90.24	25.67	
2025-01-07 00:03:42.09	90.31	25.67	
2025-01-07 00:03:42.30	90.39	25.67	
2025-01-07 00:03:42.51	90.46	25.67	
2025-01-07 00:03:42.71	90.53	25.67	
2025-01-07 00:03:42.92	90.61	25.67	
2025-01-07 00:03:43.12	90.68	25.67	
2025-01-07 00:03:43.33	90.75	25.67	
2025-01-07 00:03:43.53	90.82	25.67	
2025-01-07 00:03:43.74	90.89	25.67	
2025-01-07 00:03:43.94	90.97	25.67	
2025-01-07 00:03:44.15	91.04	25.67	
2025-01-07 00:03:44.35	91.11	25.67	
2025-01-07 00:03:44.56	91.18	25.67	
2025-01-07 00:03:44.77	91.26	25.67	
2025-01-07 00:03:44.97	91.33	25.67	
2025-01-07 00:03:45.18	91.40	25.67	
2025-01-07 00:03:45.38	91.47	25.67	
2025-01-07 00:03:45.59	91.55	25.67	
2025-01-07 00:03:45.79	91.62	25.67	
2025-01-07 00:03:46.00	91.69	25.67	
2025-01-07 00:03:46.21	91.77	25.67	
2025-01-07 00:03:46.41	91.84	25.67	
2025-01-07 00:03:46.61	91.91	25.67	
2025-01-07 00:03:46.82	91.98	25.67	
2025-01-07 00:03:47.02	92.05	25.67	
2025-01-07 00:03:47.23	92.13	25.67	
2025-01-07 00:03:47.44	92.20	25.67	
2025-01-07 00:03:47.64	92.27	25.66	
2025-01-07 00:03:47.85	92.35	25.66	
2025-01-07 00:03:48.05	92.42	25.66	
2025-01-07 00:03:48.26	92.49	25.66	
2025-01-07 00:03:48.46	92.56	25.66	
2025-01-07 00:03:48.67	92.64	25.66	
2025-01-07 00:03:48.87	92.71	25.66	
2025-01-07 00:03:49.08	92.78	25.66	
2025-01-07 00:03:49.29	92.85	25.66	
2025-01-07 00:03:49.49	92.92	25.66	
2025-01-07 00:03:49.70	93.00	25.66	
2025-01-07 00:03:49.90	93.07	25.65	
2025-01-07 00:03:50.11	93.14	25.65	
2025-01-07 00:03:50.31	93.21	25.65	
2025-01-07 00:03:50.52	93.29	25.65	
2025-01-07 00:03:50.72	93.36	25.65	
2025-01-07 00:03:50.93	93.43	25.65	
2025-01-07 00:03:51.13	93.50	25.65	
2025-01-07 00:03:51.34	93.58	25.65	
2025-01-07 00:03:51.55	93.65	25.64	
2025-01-07 00:03:51.75	93.72	25.64	
2025-01-07 00:03:51.96	93.80	25.64	
2025-01-07 00:03:52.16	93.87	25.64	
2025-01-07 00:03:52.36	93.94	25.64	
2025-01-07 00:03:52.57	94.01	25.64	
2025-01-07 00:03:52.78	94.08	25.63	
2025-01-07 00:03:52.99	94.16	25.63	
2025-01-07 00:03:53.20	94.23	25.63	
2025-01-07 00:03:53.40	94.30	25.63	
2025-01-07 00:03:53.61	94.38	25.63	
2025-01-07 00:03:53.82	94.45	25.62	
2025-01-07 00:03:54.04	94.53	25.62	
2025-01-07 00:03:54.24	94.60	25.62	
2025-01-07 00:03:54.45	94.67	25.62	
2025-01-07 00:03:54.65	94.74	25.61	
2025-01-07 00:03:54.86	94.82	25.61	
2025-01-07 00:03:55.06	94.89	25.61	
2025-01-07 00:03:55.27	94.96	25.61	
2025-01-07 00:03:55.47	95.03	25.61	
2025-01-07 00:03:55.68	95.11	25.60	
2025-01-07 00:03:55.88	95.18	25.60	
2025-01-07 00:03:56.09	95.25	25.60	
2025-01-07 00:03:56.29	95.32	25.60	
2025-01-07 00:03:56.50	95.39	25.59	
2025-01-07 00:03:56.70	95.46	25.59	
2025-01-07 00:03:56.91	95.54	25.59	
2025-01-07 00:03:57.11	95.61	25.58	
2025-01-07 00:03:57.32	95.68	25.58	
2025-01-07 00:03:57.52	95.75	25.58	
2025-01-07 00:03:57.73	95.83	25.58	
2025-01-07 00:03:57.94	95.90	25.57	
2025-01-07 00:03:58.14	95.97	25.57	
2025-01-07 00:03:58.34	96.04	25.57	
2025-01-07 00:03:58.55	96.11	25.56	
2025-01-07 00:03:58.76	96.19	25.56	
2025-01-07 00:03:58.96	96.26	25.56	
2025-01-07 00:03:59.17	96.33	25.55	
2025-01-07 00:03:59.39	96.41	25.55	
2025-01-07 00:03:59.59	96.48	25.55	
2025-01-07 00:03:59.80	96.55	25.54	
2025-01-07 00:04:00.00	96.62	25.54	
2025-01-07 00:04:00.21	96.70	25.54	
2025-01-07 00:04:00.41	96.77	25.53	
2025-01-07 00:04:00.62	96.84	25.53	
2025-01-07 00:04:00.82	96.91	25.53	
2025-01-07 00:04:01.03	96.98	25.52	
2025-01-07 00:04:01.24	97.06	25.52	
2025-01-07 00:04:01.45	97.13	25.52	
2025-01-07 00:04:01.66	97.20	25.51	
2025-01-07 00:04:01.86	97.27	25.51	
2025-01-07 00:04:02.07	97.35	25.50	
2025-01-07 00:04:02.28	97.42	25.50	
2025-01-07 00:04:02.48	97.49	25.50	
2025-01-07 00:04:02.68	97.56	25.49	
2025-01-07 00:04:02.89	97.63	25.49	
2025-01-07 00:04:03.10	97.71	25.48	
