passes_logs/2025/01/06/SPB_Silybum_02/SPB_Silybum_02__20250106_232241_SUOMI_NPP_rec.log

#Pass ID: 20250106_232241_SUOMI NPP
#Satellite: SUOMI NPP
#Configuration: NPP
#Start time: 2025-01-06 23:22:42

#Version: 2.0.20230423
#Station: SPB_Silybum_02
#Location: 30.233357 lon 59.946436 lat
#TLE: 1 37849U 11061A   25006.17970494  .00000315  00000+0  17023-3 0  9998
#TLE: 2 37849  98.7437 307.2805 0001982  54.5030 305.6331 14.19533747683667

#Time	Az	El	Level	Level2	SNR	BER	Gain	Gain2
2025-01-06 23:22:44.34	21.79	4.18	
2025-01-06 23:22:44.54	21.80	4.19	
2025-01-06 23:22:44.74	21.81	4.21	
2025-01-06 23:22:44.95	21.82	4.22	
2025-01-06 23:22:45.15	21.83	4.23	
2025-01-06 23:22:45.36	21.84	4.25	
2025-01-06 23:22:45.57	21.85	4.26	
2025-01-06 23:22:45.77	21.86	4.27	
2025-01-06 23:22:45.98	21.87	4.29	
2025-01-06 23:22:46.18	21.88	4.30	
2025-01-06 23:22:46.39	21.89	4.31	
2025-01-06 23:22:46.60	21.90	4.33	
2025-01-06 23:22:46.80	21.91	4.34	
2025-01-06 23:22:47.00	21.92	4.35	
2025-01-06 23:22:47.21	21.93	4.37	
2025-01-06 23:22:47.41	21.93	4.38	
2025-01-06 23:22:47.62	21.94	4.39	
2025-01-06 23:22:47.82	21.95	4.41	
2025-01-06 23:22:48.03	21.96	4.42	
2025-01-06 23:22:48.23	21.97	4.43	
2025-01-06 23:22:48.44	21.98	4.45	
2025-01-06 23:22:48.65	21.99	4.46	
2025-01-06 23:22:48.85	22.00	4.48	
2025-01-06 23:22:49.06	22.01	4.49	
2025-01-06 23:22:49.26	22.02	4.50	
2025-01-06 23:22:49.47	22.03	4.52	
2025-01-06 23:22:49.67	22.04	4.53	
2025-01-06 23:22:49.88	22.05	4.54	
2025-01-06 23:22:50.09	22.06	4.56	
2025-01-06 23:22:50.29	22.07	4.57	
2025-01-06 23:22:50.50	22.08	4.58	
2025-01-06 23:22:50.70	22.09	4.60	
2025-01-06 23:22:50.91	22.10	4.61	
2025-01-06 23:22:51.11	22.11	4.62	
2025-01-06 23:22:51.32	22.12	4.64	
2025-01-06 23:22:51.53	22.13	4.65	
2025-01-06 23:22:51.73	22.14	4.67	
2025-01-06 23:22:51.94	22.15	4.68	
2025-01-06 23:22:52.14	22.16	4.69	
2025-01-06 23:22:52.35	22.17	4.71	
2025-01-06 23:22:52.55	22.18	4.72	
2025-01-06 23:22:52.76	22.19	4.73	
2025-01-06 23:22:52.96	22.20	4.75	
2025-01-06 23:22:53.17	22.21	4.76	
2025-01-06 23:22:53.37	22.22	4.78	
2025-01-06 23:22:53.58	22.23	4.79	
2025-01-06 23:22:53.78	22.24	4.80	
2025-01-06 23:22:53.99	22.25	4.82	
2025-01-06 23:22:54.20	22.26	4.83	
2025-01-06 23:22:54.40	22.27	4.84	
2025-01-06 23:22:54.61	22.28	4.86	
2025-01-06 23:22:54.81	22.29	4.87	
2025-01-06 23:22:55.02	22.30	4.89	
2025-01-06 23:22:55.22	22.31	4.90	
2025-01-06 23:22:55.43	22.32	4.91	
2025-01-06 23:22:55.63	22.33	4.93	
2025-01-06 23:22:55.84	22.34	4.94	
2025-01-06 23:22:56.04	22.35	4.95	
2025-01-06 23:22:56.25	22.36	4.97	
2025-01-06 23:22:56.45	22.37	4.98	
2025-01-06 23:22:56.66	22.38	5.00	
2025-01-06 23:22:56.87	22.39	5.01	
2025-01-06 23:22:57.07	22.40	5.02	
2025-01-06 23:22:57.28	22.42	5.04	
2025-01-06 23:22:57.49	22.43	5.05	
2025-01-06 23:22:57.70	22.44	5.07	
2025-01-06 23:22:57.91	22.45	5.08	
2025-01-06 23:22:58.11	22.46	5.09	
2025-01-06 23:22:58.31	22.47	5.11	
2025-01-06 23:22:58.52	22.48	5.12	
2025-01-06 23:22:58.72	22.49	5.13	
2025-01-06 23:22:58.93	22.50	5.15	
2025-01-06 23:22:59.14	22.51	5.16	
2025-01-06 23:22:59.34	22.52	5.18	
2025-01-06 23:22:59.55	22.53	5.19	
2025-01-06 23:22:59.75	22.54	5.20	
2025-01-06 23:22:59.96	22.55	5.22	
2025-01-06 23:23:00.16	22.56	5.23	
2025-01-06 23:23:00.37	22.57	5.25	
2025-01-06 23:23:00.57	22.58	5.26	
2025-01-06 23:23:00.78	22.59	5.27	
2025-01-06 23:23:00.98	22.60	5.29	
2025-01-06 23:23:01.19	22.61	5.30	
2025-01-06 23:23:01.40	22.62	5.32	
2025-01-06 23:23:01.60	22.63	5.33	
2025-01-06 23:23:01.82	22.64	5.34	
2025-01-06 23:23:02.03	22.65	5.36	
2025-01-06 23:23:02.23	22.66	5.37	
2025-01-06 23:23:02.44	22.67	5.39	
2025-01-06 23:23:02.64	22.68	5.40	
2025-01-06 23:23:02.85	22.69	5.41	
2025-01-06 23:23:03.05	22.71	5.43	
2025-01-06 23:23:03.26	22.72	5.44	
2025-01-06 23:23:03.46	22.73	5.46	
2025-01-06 23:23:03.67	22.74	5.47	
2025-01-06 23:23:03.87	22.75	5.48	
2025-01-06 23:23:04.08	22.76	5.50	
2025-01-06 23:23:04.28	22.77	5.51	
2025-01-06 23:23:04.49	22.78	5.53	
2025-01-06 23:23:04.69	22.79	5.54	
2025-01-06 23:23:04.90	22.80	5.55	
2025-01-06 23:23:05.10	22.81	5.57	
2025-01-06 23:23:05.31	22.82	5.58	
2025-01-06 23:23:05.51	22.83	5.60	
2025-01-06 23:23:05.72	22.84	5.61	
2025-01-06 23:23:05.93	22.85	5.62	
2025-01-06 23:23:06.13	22.86	5.64	
2025-01-06 23:23:06.34	22.87	5.65	
2025-01-06 23:23:06.54	22.88	5.67	
2025-01-06 23:23:06.75	22.89	5.68	
2025-01-06 23:23:06.95	22.91	5.69	
2025-01-06 23:23:07.16	22.92	5.71	
2025-01-06 23:23:07.36	22.93	5.72	
2025-01-06 23:23:07.57	22.94	5.74	
2025-01-06 23:23:07.77	22.95	5.75	
2025-01-06 23:23:07.99	22.96	5.77	
2025-01-06 23:23:08.19	22.97	5.78	
2025-01-06 23:23:08.40	22.98	5.79	
2025-01-06 23:23:08.60	22.99	5.81	
2025-01-06 23:23:08.81	23.00	5.82	
2025-01-06 23:23:09.02	23.01	5.84	
2025-01-06 23:23:09.22	23.02	5.85	
2025-01-06 23:23:09.42	23.03	5.86	
2025-01-06 23:23:09.63	23.04	5.88	
2025-01-06 23:23:09.84	23.06	5.89	
2025-01-06 23:23:10.04	23.07	5.91	
2025-01-06 23:23:10.25	23.08	5.92	
2025-01-06 23:23:10.45	23.09	5.94	
2025-01-06 23:23:10.66	23.10	5.95	
2025-01-06 23:23:10.86	23.11	5.96	
2025-01-06 23:23:11.07	23.12	5.98	
2025-01-06 23:23:11.27	23.13	5.99	
2025-01-06 23:23:11.48	23.14	6.01	
2025-01-06 23:23:11.68	23.15	6.02	
2025-01-06 23:23:11.89	23.16	6.04	
2025-01-06 23:23:12.09	23.17	6.05	
2025-01-06 23:23:12.30	23.19	6.06	
2025-01-06 23:23:12.52	23.20	6.08	
2025-01-06 23:23:12.72	23.21	6.09	
2025-01-06 23:23:12.93	23.22	6.11	
2025-01-06 23:23:13.13	23.23	6.12	
2025-01-06 23:23:13.34	23.24	6.14	
2025-01-06 23:23:13.54	23.25	6.15	
2025-01-06 23:23:13.75	23.26	6.17	
2025-01-06 23:23:13.95	23.27	6.18	
2025-01-06 23:23:14.16	23.28	6.19	
2025-01-06 23:23:14.36	23.29	6.21	
2025-01-06 23:23:14.57	23.31	6.22	
2025-01-06 23:23:14.77	23.32	6.24	
2025-01-06 23:23:14.98	23.33	6.25	
2025-01-06 23:23:15.19	23.34	6.27	
2025-01-06 23:23:15.39	23.35	6.28	
2025-01-06 23:23:15.60	23.36	6.30	
2025-01-06 23:23:15.80	23.37	6.31	
2025-01-06 23:23:16.01	23.38	6.32	
2025-01-06 23:23:16.21	23.39	6.34	
2025-01-06 23:23:16.42	23.41	6.35	
2025-01-06 23:23:16.62	23.42	6.37	
2025-01-06 23:23:16.83	23.43	6.38	
2025-01-06 23:23:17.03	23.44	6.40	
2025-01-06 23:23:17.24	23.45	6.41	
2025-01-06 23:23:17.45	23.46	6.43	
2025-01-06 23:23:17.65	23.47	6.44	
2025-01-06 23:23:17.86	23.48	6.45	
2025-01-06 23:23:18.06	23.49	6.47	
2025-01-06 23:23:18.27	23.51	6.48	
2025-01-06 23:23:18.47	23.52	6.50	
2025-01-06 23:23:18.68	23.53	6.51	
2025-01-06 23:23:18.88	23.54	6.53	
2025-01-06 23:23:19.09	23.55	6.54	
2025-01-06 23:23:19.30	23.56	6.56	
2025-01-06 23:23:19.50	23.57	6.57	
2025-01-06 23:23:19.71	23.58	6.59	
2025-01-06 23:23:19.91	23.59	6.60	
2025-01-06 23:23:20.12	23.61	6.61	
2025-01-06 23:23:20.32	23.62	6.63	
2025-01-06 23:23:20.53	23.63	6.64	
2025-01-06 23:23:20.73	23.64	6.66	
2025-01-06 23:23:20.94	23.65	6.67	
2025-01-06 23:23:21.16	23.66	6.69	
2025-01-06 23:23:21.36	23.67	6.70	
2025-01-06 23:23:21.57	23.69	6.72	
2025-01-06 23:23:21.78	23.70	6.73	
2025-01-06 23:23:21.98	23.71	6.75	
2025-01-06 23:23:22.18	23.72	6.76	
2025-01-06 23:23:22.39	23.73	6.78	
2025-01-06 23:23:22.60	23.74	6.79	
2025-01-06 23:23:22.80	23.75	6.81	
2025-01-06 23:23:23.01	23.77	6.82	
2025-01-06 23:23:23.21	23.78	6.83	
2025-01-06 23:23:23.42	23.79	6.85	
2025-01-06 23:23:23.62	23.80	6.86	
2025-01-06 23:23:23.83	23.81	6.88	
2025-01-06 23:23:24.03	23.82	6.89	
2025-01-06 23:23:24.23	23.83	6.91	
2025-01-06 23:23:24.44	23.85	6.92	
2025-01-06 23:23:24.65	23.86	6.94	
2025-01-06 23:23:24.85	23.87	6.95	
2025-01-06 23:23:25.06	23.88	6.97	
2025-01-06 23:23:25.26	23.89	6.98	
2025-01-06 23:23:25.47	23.90	7.00	
2025-01-06 23:23:25.67	23.91	7.01	
2025-01-06 23:23:25.88	23.93	7.03	
2025-01-06 23:23:26.08	23.94	7.04	
2025-01-06 23:23:26.29	23.95	7.06	
2025-01-06 23:23:26.49	23.96	7.07	
2025-01-06 23:23:26.70	23.97	7.09	
2025-01-06 23:23:26.90	23.98	7.10	
2025-01-06 23:23:27.11	24.00	7.12	
2025-01-06 23:23:27.31	24.01	7.13	
2025-01-06 23:23:27.53	24.02	7.15	
2025-01-06 23:23:27.74	24.03	7.16	
2025-01-06 23:23:27.94	24.04	7.18	
2025-01-06 23:23:28.15	24.05	7.19	
2025-01-06 23:23:28.35	24.07	7.21	
2025-01-06 23:23:28.56	24.08	7.22	
2025-01-06 23:23:28.76	24.09	7.23	
2025-01-06 23:23:28.97	24.10	7.25	
2025-01-06 23:23:29.17	24.11	7.26	
2025-01-06 23:23:29.38	24.12	7.28	
2025-01-06 23:23:29.58	24.14	7.29	
2025-01-06 23:23:29.79	24.15	7.31	
2025-01-06 23:23:30.00	24.16	7.33	
2025-01-06 23:23:30.20	24.17	7.34	
2025-01-06 23:23:30.41	24.18	7.35	
2025-01-06 23:23:30.61	24.19	7.37	
2025-01-06 23:23:30.82	24.21	7.38	
2025-01-06 23:23:31.02	24.22	7.40	
2025-01-06 23:23:31.23	24.23	7.41	
2025-01-06 23:23:31.44	24.24	7.43	
2025-01-06 23:23:31.64	24.25	7.44	
2025-01-06 23:23:31.85	24.27	7.46	
2025-01-06 23:23:32.05	24.28	7.47	
2025-01-06 23:23:32.26	24.29	7.49	
2025-01-06 23:23:32.46	24.30	7.50	
2025-01-06 23:23:32.67	24.31	7.52	
2025-01-06 23:23:32.89	24.33	7.54	
2025-01-06 23:23:33.09	24.34	7.55	
2025-01-06 23:23:33.30	24.35	7.57	
2025-01-06 23:23:33.51	24.36	7.58	
2025-01-06 23:23:33.71	24.37	7.60	
2025-01-06 23:23:33.92	24.39	7.61	
2025-01-06 23:23:34.12	24.40	7.63	
2025-01-06 23:23:34.33	24.41	7.64	
2025-01-06 23:23:34.53	24.42	7.66	
2025-01-06 23:23:34.74	24.43	7.67	
2025-01-06 23:23:34.94	24.45	7.69	
2025-01-06 23:23:35.15	24.46	7.70	
2025-01-06 23:23:35.35	24.47	7.72	
2025-01-06 23:23:35.56	24.48	7.73	
2025-01-06 23:23:35.76	24.49	7.75	
2025-01-06 23:23:35.97	24.51	7.76	
2025-01-06 23:23:36.17	24.52	7.78	
2025-01-06 23:23:36.38	24.53	7.79	
2025-01-06 23:23:36.59	24.54	7.81	
2025-01-06 23:23:36.79	24.56	7.82	
2025-01-06 23:23:37.00	24.57	7.84	
2025-01-06 23:23:37.20	24.58	7.85	
2025-01-06 23:23:37.41	24.59	7.87	
2025-01-06 23:23:37.61	24.60	7.88	
2025-01-06 23:23:37.82	24.62	7.90	
2025-01-06 23:23:38.02	24.63	7.92	
2025-01-06 23:23:38.24	24.64	7.93	
2025-01-06 23:23:38.45	24.65	7.95	
2025-01-06 23:23:38.65	24.67	7.96	
2025-01-06 23:23:38.86	24.68	7.98	
2025-01-06 23:23:39.06	24.69	7.99	
2025-01-06 23:23:39.28	24.70	8.01	
2025-01-06 23:23:39.48	24.72	8.02	
2025-01-06 23:23:39.69	24.73	8.04	
2025-01-06 23:23:39.89	24.74	8.05	
2025-01-06 23:23:40.10	24.75	8.07	
2025-01-06 23:23:40.30	24.76	8.09	
2025-01-06 23:23:40.51	24.78	8.10	
2025-01-06 23:23:40.72	24.79	8.12	
2025-01-06 23:23:40.92	24.80	8.13	
2025-01-06 23:23:41.13	24.81	8.15	
2025-01-06 23:23:41.33	24.83	8.16	
2025-01-06 23:23:41.54	24.84	8.18	
2025-01-06 23:23:41.74	24.85	8.19	
2025-01-06 23:23:41.95	24.86	8.21	
2025-01-06 23:23:42.15	24.88	8.22	
2025-01-06 23:23:42.37	24.89	8.24	
2025-01-06 23:23:42.57	24.90	8.26	
2025-01-06 23:23:42.78	24.91	8.27	
2025-01-06 23:23:42.98	24.93	8.29	
2025-01-06 23:23:43.19	24.94	8.30	
2025-01-06 23:23:43.40	24.95	8.32	
2025-01-06 23:23:43.61	24.96	8.33	
2025-01-06 23:23:43.82	24.98	8.35	
2025-01-06 23:23:44.03	24.99	8.37	
2025-01-06 23:23:44.23	25.00	8.38	
2025-01-06 23:23:44.44	25.02	8.40	
2025-01-06 23:23:44.64	25.03	8.41	
2025-01-06 23:23:44.84	25.04	8.43	
2025-01-06 23:23:45.05	25.05	8.44	
2025-01-06 23:23:45.26	25.07	8.46	
2025-01-06 23:23:45.46	25.08	8.47	
2025-01-06 23:23:45.67	25.09	8.49	
2025-01-06 23:23:45.87	25.10	8.50	
2025-01-06 23:23:46.08	25.12	8.52	
2025-01-06 23:23:46.28	25.13	8.54	
2025-01-06 23:23:46.49	25.14	8.55	
2025-01-06 23:23:46.69	25.15	8.57	
2025-01-06 23:23:46.89	25.17	8.58	
2025-01-06 23:23:47.10	25.18	8.60	
2025-01-06 23:23:47.30	25.19	8.61	
2025-01-06 23:23:47.51	25.21	8.63	
2025-01-06 23:23:47.71	25.22	8.64	
2025-01-06 23:23:47.92	25.23	8.66	
2025-01-06 23:23:48.12	25.24	8.68	
2025-01-06 23:23:48.33	25.26	8.69	
2025-01-06 23:23:48.53	25.27	8.71	
2025-01-06 23:23:48.74	25.28	8.72	
2025-01-06 23:23:48.96	25.30	8.74	
2025-01-06 23:23:49.16	25.31	8.76	
2025-01-06 23:23:49.37	25.32	8.77	
2025-01-06 23:23:49.57	25.33	8.79	
2025-01-06 23:23:49.78	25.35	8.80	
2025-01-06 23:23:49.98	25.36	8.82	
2025-01-06 23:23:50.19	25.37	8.83	
2025-01-06 23:23:50.40	25.39	8.85	
2025-01-06 23:23:50.60	25.40	8.87	
2025-01-06 23:23:50.81	25.41	8.88	
2025-01-06 23:23:51.01	25.42	8.90	
2025-01-06 23:23:51.22	25.44	8.91	
2025-01-06 23:23:51.42	25.45	8.93	
2025-01-06 23:23:51.63	25.46	8.95	
2025-01-06 23:23:51.83	25.48	8.96	
2025-01-06 23:23:52.04	25.49	8.98	
2025-01-06 23:23:52.24	25.50	8.99	
2025-01-06 23:23:52.45	25.52	9.01	
2025-01-06 23:23:52.66	25.53	9.02	
2025-01-06 23:23:52.86	25.54	9.04	
2025-01-06 23:23:53.07	25.56	9.06	
2025-01-06 23:23:53.27	25.57	9.07	
2025-01-06 23:23:53.48	25.58	9.09	
2025-01-06 23:23:53.68	25.60	9.10	
2025-01-06 23:23:53.89	25.61	9.12	
2025-01-06 23:23:54.09	25.62	9.14	
2025-01-06 23:23:54.30	25.63	9.15	
2025-01-06 23:23:54.51	25.65	9.17	
2025-01-06 23:23:54.71	25.66	9.18	
2025-01-06 23:23:54.92	25.67	9.20	
2025-01-06 23:23:55.12	25.69	9.22	
2025-01-06 23:23:55.32	25.70	9.23	
2025-01-06 23:23:55.53	25.71	9.25	
2025-01-06 23:23:55.74	25.73	9.26	
2025-01-06 23:23:55.94	25.74	9.28	
2025-01-06 23:23:56.15	25.75	9.30	
2025-01-06 23:23:56.35	25.77	9.31	
2025-01-06 23:23:56.56	25.78	9.33	
2025-01-06 23:23:56.76	25.79	9.34	
2025-01-06 23:23:56.97	25.81	9.36	
2025-01-06 23:23:57.17	25.82	9.38	
2025-01-06 23:23:57.38	25.83	9.39	
2025-01-06 23:23:57.58	25.85	9.41	
2025-01-06 23:23:57.79	25.86	9.42	
2025-01-06 23:23:57.99	25.87	9.44	
2025-01-06 23:23:58.20	25.89	9.46	
2025-01-06 23:23:58.41	25.90	9.47	
2025-01-06 23:23:58.61	25.92	9.49	
2025-01-06 23:23:58.82	25.93	9.51	
2025-01-06 23:23:59.02	25.94	9.52	
2025-01-06 23:23:59.23	25.96	9.54	
2025-01-06 23:23:59.43	25.97	9.55	
2025-01-06 23:23:59.64	25.98	9.57	
2025-01-06 23:23:59.84	26.00	9.59	
2025-01-06 23:24:00.05	26.01	9.60	
2025-01-06 23:24:00.25	26.02	9.62	
2025-01-06 23:24:00.46	26.04	9.63	
2025-01-06 23:24:00.67	26.05	9.65	
2025-01-06 23:24:00.87	26.06	9.67	
2025-01-06 23:24:01.08	26.08	9.68	
2025-01-06 23:24:01.28	26.09	9.70	
2025-01-06 23:24:01.49	26.11	9.72	
2025-01-06 23:24:01.69	26.12	9.73	
2025-01-06 23:24:01.90	26.13	9.75	
2025-01-06 23:24:02.10	26.15	9.76	
2025-01-06 23:24:02.31	26.16	9.78	
2025-01-06 23:24:02.51	26.17	9.80	
2025-01-06 23:24:02.71	26.19	9.81	
2025-01-06 23:24:02.92	26.20	9.83	
2025-01-06 23:24:03.13	26.22	9.85	
2025-01-06 23:24:03.33	26.23	9.86	
2025-01-06 23:24:03.54	26.24	9.88	
2025-01-06 23:24:03.74	26.26	9.89	
2025-01-06 23:24:03.95	26.27	9.91	
2025-01-06 23:24:04.15	26.28	9.93	
2025-01-06 23:24:04.36	26.30	9.94	
2025-01-06 23:24:04.57	26.31	9.96	
2025-01-06 23:24:04.77	26.33	9.98	
2025-01-06 23:24:04.97	26.34	9.99	
2025-01-06 23:24:05.18	26.35	10.01	
2025-01-06 23:24:05.39	26.37	10.03	
2025-01-06 23:24:05.59	26.38	10.04	
2025-01-06 23:24:05.80	26.40	10.06	
2025-01-06 23:24:06.00	26.41	10.08	
2025-01-06 23:24:06.21	26.42	10.09	
2025-01-06 23:24:06.41	26.44	10.11	
2025-01-06 23:24:06.62	26.45	10.13	
2025-01-06 23:24:06.82	26.47	10.14	
2025-01-06 23:24:07.03	26.48	10.16	
2025-01-06 23:24:07.23	26.49	10.17	
2025-01-06 23:24:07.44	26.51	10.19	
2025-01-06 23:24:07.64	26.52	10.21	
2025-01-06 23:24:07.85	26.54	10.22	
2025-01-06 23:24:08.05	26.55	10.24	
2025-01-06 23:24:08.26	26.57	10.26	
2025-01-06 23:24:08.46	26.58	10.27	
2025-01-06 23:24:08.67	26.59	10.29	
2025-01-06 23:24:08.88	26.61	10.31	
2025-01-06 23:24:09.08	26.62	10.32	
2025-01-06 23:24:09.29	26.64	10.34	
2025-01-06 23:24:09.49	26.65	10.36	
2025-01-06 23:24:09.70	26.66	10.37	
2025-01-06 23:24:09.90	26.68	10.39	
2025-01-06 23:24:10.11	26.69	10.41	
2025-01-06 23:24:10.31	26.71	10.42	
2025-01-06 23:24:10.52	26.72	10.44	
2025-01-06 23:24:10.72	26.74	10.46	
2025-01-06 23:24:10.93	26.75	10.47	
2025-01-06 23:24:11.13	26.76	10.49	
2025-01-06 23:24:11.34	26.78	10.51	
2025-01-06 23:24:11.54	26.79	10.52	
2025-01-06 23:24:11.75	26.81	10.54	
2025-01-06 23:24:11.95	26.82	10.56	
2025-01-06 23:24:12.16	26.84	10.57	
2025-01-06 23:24:12.36	26.85	10.59	
2025-01-06 23:24:12.57	26.87	10.61	
2025-01-06 23:24:12.77	26.88	10.62	
2025-01-06 23:24:12.98	26.89	10.64	
2025-01-06 23:24:13.19	26.91	10.66	
2025-01-06 23:24:13.39	26.92	10.67	
2025-01-06 23:24:13.60	26.94	10.69	
2025-01-06 23:24:13.80	26.95	10.71	
2025-01-06 23:24:14.01	26.97	10.73	
2025-01-06 23:24:14.22	26.98	10.74	
2025-01-06 23:24:14.42	27.00	10.76	
2025-01-06 23:24:14.62	27.01	10.78	
2025-01-06 23:24:14.83	27.03	10.79	
2025-01-06 23:24:15.04	27.04	10.81	
2025-01-06 23:24:15.24	27.06	10.83	
2025-01-06 23:24:15.45	27.07	10.84	
2025-01-06 23:24:15.65	27.08	10.86	
2025-01-06 23:24:15.86	27.10	10.88	
2025-01-06 23:24:16.06	27.11	10.89	
2025-01-06 23:24:16.27	27.13	10.91	
2025-01-06 23:24:16.48	27.14	10.93	
2025-01-06 23:24:16.69	27.16	10.95	
2025-01-06 23:24:16.90	27.17	10.96	
2025-01-06 23:24:17.10	27.19	10.98	
2025-01-06 23:24:17.31	27.20	11.00	
2025-01-06 23:24:17.52	27.22	11.02	
2025-01-06 23:24:17.72	27.23	11.03	
2025-01-06 23:24:17.93	27.25	11.05	
2025-01-06 23:24:18.13	27.26	11.07	
2025-01-06 23:24:18.34	27.28	11.08	
2025-01-06 23:24:18.55	27.29	11.10	
2025-01-06 23:24:18.75	27.31	11.12	
2025-01-06 23:24:18.96	27.32	11.14	
2025-01-06 23:24:19.16	27.34	11.15	
2025-01-06 23:24:19.37	27.35	11.17	
2025-01-06 23:24:19.57	27.37	11.19	
2025-01-06 23:24:19.78	27.38	11.20	
2025-01-06 23:24:19.98	27.40	11.22	
2025-01-06 23:24:20.19	27.41	11.24	
2025-01-06 23:24:20.39	27.43	11.25	
2025-01-06 23:24:20.60	27.44	11.27	
2025-01-06 23:24:20.80	27.46	11.29	
2025-01-06 23:24:21.00	27.47	11.31	
2025-01-06 23:24:21.21	27.49	11.32	
2025-01-06 23:24:21.42	27.51	11.34	
2025-01-06 23:24:21.62	27.52	11.36	
2025-01-06 23:24:21.83	27.54	11.38	
2025-01-06 23:24:22.03	27.55	11.39	
2025-01-06 23:24:22.24	27.57	11.41	
2025-01-06 23:24:22.44	27.58	11.43	
2025-01-06 23:24:22.65	27.60	11.44	
2025-01-06 23:24:22.85	27.61	11.46	
2025-01-06 23:24:23.06	27.63	11.48	
2025-01-06 23:24:23.26	27.64	11.50	
2025-01-06 23:24:23.47	27.66	11.51	
2025-01-06 23:24:23.67	27.67	11.53	
2025-01-06 23:24:23.88	27.69	11.55	
2025-01-06 23:24:24.08	27.70	11.57	
2025-01-06 23:24:24.29	27.72	11.58	
2025-01-06 23:24:24.49	27.73	11.60	
2025-01-06 23:24:24.70	27.75	11.62	
2025-01-06 23:24:24.90	27.77	11.63	
2025-01-06 23:24:25.11	27.78	11.65	
2025-01-06 23:24:25.31	27.80	11.67	
2025-01-06 23:24:25.52	27.81	11.69	
2025-01-06 23:24:25.73	27.83	11.71	
2025-01-06 23:24:25.93	27.84	11.72	
2025-01-06 23:24:26.14	27.86	11.74	
2025-01-06 23:24:26.34	27.87	11.76	
2025-01-06 23:24:26.55	27.89	11.77	
2025-01-06 23:24:26.75	27.91	11.79	
2025-01-06 23:24:26.96	27.92	11.81	
2025-01-06 23:24:27.16	27.94	11.83	
2025-01-06 23:24:27.37	27.95	11.84	
2025-01-06 23:24:27.57	27.97	11.86	
2025-01-06 23:24:27.77	27.98	11.88	
2025-01-06 23:24:27.98	28.00	11.90	
2025-01-06 23:24:28.19	28.02	11.92	
2025-01-06 23:24:28.39	28.03	11.93	
2025-01-06 23:24:28.60	28.05	11.95	
2025-01-06 23:24:28.80	28.06	11.97	
2025-01-06 23:24:29.01	28.08	11.99	
2025-01-06 23:24:29.22	28.09	12.00	
2025-01-06 23:24:29.43	28.11	12.02	
2025-01-06 23:24:29.64	28.13	12.04	
2025-01-06 23:24:29.84	28.14	12.06	
2025-01-06 23:24:30.05	28.16	12.07	
2025-01-06 23:24:30.26	28.17	12.09	
2025-01-06 23:24:30.46	28.19	12.11	
2025-01-06 23:24:30.67	28.21	12.13	
2025-01-06 23:24:30.87	28.22	12.15	
2025-01-06 23:24:31.08	28.24	12.16	
2025-01-06 23:24:31.28	28.25	12.18	
2025-01-06 23:24:31.49	28.27	12.20	
2025-01-06 23:24:31.69	28.29	12.22	
2025-01-06 23:24:31.90	28.30	12.23	
2025-01-06 23:24:32.10	28.32	12.25	
2025-01-06 23:24:32.31	28.33	12.27	
2025-01-06 23:24:32.51	28.35	12.29	
2025-01-06 23:24:32.72	28.37	12.31	
2025-01-06 23:24:32.92	28.38	12.32	
2025-01-06 23:24:33.13	28.40	12.34	
2025-01-06 23:24:33.33	28.42	12.36	
2025-01-06 23:24:33.54	28.43	12.38	
2025-01-06 23:24:33.74	28.45	12.39	
2025-01-06 23:24:33.95	28.46	12.41	
2025-01-06 23:24:34.15	28.48	12.43	
2025-01-06 23:24:34.36	28.50	12.45	
2025-01-06 23:24:34.57	28.51	12.47	
2025-01-06 23:24:34.77	28.53	12.48	
2025-01-06 23:24:34.97	28.55	12.50	
2025-01-06 23:24:35.18	28.56	12.52	
2025-01-06 23:24:35.39	28.58	12.54	
2025-01-06 23:24:35.59	28.59	12.56	
2025-01-06 23:24:35.79	28.61	12.57	
2025-01-06 23:24:36.00	28.63	12.59	
2025-01-06 23:24:36.21	28.64	12.61	
2025-01-06 23:24:36.41	28.66	12.63	
2025-01-06 23:24:36.62	28.68	12.65	
2025-01-06 23:24:36.82	28.69	12.66	
2025-01-06 23:24:37.02	28.71	12.68	
2025-01-06 23:24:37.23	28.73	12.70	
2025-01-06 23:24:37.44	28.74	12.72	
2025-01-06 23:24:37.64	28.76	12.74	
2025-01-06 23:24:37.86	28.78	12.76	
2025-01-06 23:24:38.06	28.79	12.77	
2025-01-06 23:24:38.27	28.81	12.79	
2025-01-06 23:24:38.48	28.83	12.81	
2025-01-06 23:24:38.68	28.84	12.83	
2025-01-06 23:24:38.89	28.86	12.85	
2025-01-06 23:24:39.09	28.88	12.86	
2025-01-06 23:24:39.30	28.89	12.88	
2025-01-06 23:24:39.50	28.91	12.90	
2025-01-06 23:24:39.71	28.93	12.92	
2025-01-06 23:24:39.91	28.94	12.94	
2025-01-06 23:24:40.12	28.96	12.96	
2025-01-06 23:24:40.32	28.98	12.97	
2025-01-06 23:24:40.53	29.00	12.99	
2025-01-06 23:24:40.73	29.01	13.01	
2025-01-06 23:24:40.94	29.03	13.03	
2025-01-06 23:24:41.14	29.05	13.05	
2025-01-06 23:24:41.35	29.06	13.07	
2025-01-06 23:24:41.55	29.08	13.08	
2025-01-06 23:24:41.76	29.10	13.10	
2025-01-06 23:24:41.97	29.11	13.12	
2025-01-06 23:24:42.17	29.13	13.14	
2025-01-06 23:24:42.38	29.15	13.16	
2025-01-06 23:24:42.58	29.16	13.17	
2025-01-06 23:24:42.79	29.18	13.19	
2025-01-06 23:24:42.99	29.20	13.21	
2025-01-06 23:24:43.20	29.22	13.23	
2025-01-06 23:24:43.40	29.23	13.25	
2025-01-06 23:24:43.61	29.25	13.27	
2025-01-06 23:24:43.81	29.27	13.29	
2025-01-06 23:24:44.02	29.28	13.30	
2025-01-06 23:24:44.22	29.30	13.32	
2025-01-06 23:24:44.44	29.32	13.34	
2025-01-06 23:24:44.64	29.34	13.36	
2025-01-06 23:24:44.85	29.35	13.38	
2025-01-06 23:24:45.05	29.37	13.40	
2025-01-06 23:24:45.26	29.39	13.42	
2025-01-06 23:24:45.46	29.41	13.43	
2025-01-06 23:24:45.67	29.42	13.45	
2025-01-06 23:24:45.88	29.44	13.47	
2025-01-06 23:24:46.08	29.46	13.49	
2025-01-06 23:24:46.29	29.48	13.51	
2025-01-06 23:24:46.49	29.49	13.53	
2025-01-06 23:24:46.69	29.51	13.55	
2025-01-06 23:24:46.90	29.53	13.56	
2025-01-06 23:24:47.10	29.55	13.58	
2025-01-06 23:24:47.31	29.56	13.60	
2025-01-06 23:24:47.51	29.58	13.62	
2025-01-06 23:24:47.72	29.60	13.64	
2025-01-06 23:24:47.92	29.62	13.66	
2025-01-06 23:24:48.13	29.63	13.68	
2025-01-06 23:24:48.33	29.65	13.69	
2025-01-06 23:24:48.54	29.67	13.71	
2025-01-06 23:24:48.74	29.69	13.73	
2025-01-06 23:24:48.95	29.70	13.75	
2025-01-06 23:24:49.15	29.72	13.77	
2025-01-06 23:24:49.36	29.74	13.79	
2025-01-06 23:24:49.56	29.76	13.81	
2025-01-06 23:24:49.77	29.78	13.83	
2025-01-06 23:24:49.97	29.79	13.84	
2025-01-06 23:24:50.18	29.81	13.86	
2025-01-06 23:24:50.39	29.83	13.88	
2025-01-06 23:24:50.59	29.85	13.90	
2025-01-06 23:24:50.79	29.86	13.92	
2025-01-06 23:24:51.00	29.88	13.94	
2025-01-06 23:24:51.21	29.90	13.96	
2025-01-06 23:24:51.41	29.92	13.98	
2025-01-06 23:24:51.62	29.94	14.00	
2025-01-06 23:24:51.82	29.95	14.01	
2025-01-06 23:24:52.03	29.97	14.03	
2025-01-06 23:24:52.23	29.99	14.05	
2025-01-06 23:24:52.44	30.01	14.07	
2025-01-06 23:24:52.64	30.03	14.09	
2025-01-06 23:24:52.85	30.04	14.11	
2025-01-06 23:24:53.07	30.06	14.13	
2025-01-06 23:24:53.28	30.08	14.15	
2025-01-06 23:24:53.48	30.10	14.17	
2025-01-06 23:24:53.69	30.12	14.19	
2025-01-06 23:24:53.89	30.14	14.21	
2025-01-06 23:24:54.10	30.16	14.22	
2025-01-06 23:24:54.30	30.17	14.24	
2025-01-06 23:24:54.51	30.19	14.26	
2025-01-06 23:24:54.71	30.21	14.28	
2025-01-06 23:24:54.92	30.23	14.30	
2025-01-06 23:24:55.12	30.25	14.32	
2025-01-06 23:24:55.33	30.27	14.34	
2025-01-06 23:24:55.53	30.28	14.36	
2025-01-06 23:24:55.74	30.30	14.38	
2025-01-06 23:24:55.94	30.32	14.40	
2025-01-06 23:24:56.14	30.34	14.41	
2025-01-06 23:24:56.35	30.36	14.43	
2025-01-06 23:24:56.56	30.38	14.45	
2025-01-06 23:24:56.76	30.39	14.47	
2025-01-06 23:24:56.97	30.41	14.49	
2025-01-06 23:24:57.17	30.43	14.51	
2025-01-06 23:24:57.38	30.45	14.53	
2025-01-06 23:24:57.58	30.47	14.55	
2025-01-06 23:24:57.79	30.49	14.57	
2025-01-06 23:24:58.00	30.51	14.59	
2025-01-06 23:24:58.20	30.52	14.61	
2025-01-06 23:24:58.41	30.54	14.63	
2025-01-06 23:24:58.61	30.56	14.65	
2025-01-06 23:24:58.82	30.58	14.67	
2025-01-06 23:24:59.02	30.60	14.69	
2025-01-06 23:24:59.23	30.62	14.71	
2025-01-06 23:24:59.43	30.64	14.72	
2025-01-06 23:24:59.64	30.66	14.74	
2025-01-06 23:24:59.84	30.67	14.76	
2025-01-06 23:25:00.05	30.69	14.78	
2025-01-06 23:25:00.25	30.71	14.80	
2025-01-06 23:25:00.46	30.73	14.82	
2025-01-06 23:25:00.66	30.75	14.84	
2025-01-06 23:25:00.87	30.77	14.86	
2025-01-06 23:25:01.07	30.79	14.88	
2025-01-06 23:25:01.28	30.81	14.90	
2025-01-06 23:25:01.48	30.83	14.92	
2025-01-06 23:25:01.69	30.85	14.94	
2025-01-06 23:25:01.89	30.86	14.96	
2025-01-06 23:25:02.09	30.88	14.98	
2025-01-06 23:25:02.30	30.90	15.00	
2025-01-06 23:25:02.50	30.92	15.02	
2025-01-06 23:25:02.71	30.94	15.04	
2025-01-06 23:25:02.91	30.96	15.05	
2025-01-06 23:25:03.12	30.98	15.07	
2025-01-06 23:25:03.33	31.00	15.09	
2025-01-06 23:25:03.53	31.02	15.11	
2025-01-06 23:25:03.73	31.04	15.13	
2025-01-06 23:25:03.94	31.06	15.15	
2025-01-06 23:25:04.14	31.08	15.17	
2025-01-06 23:25:04.35	31.10	15.19	
2025-01-06 23:25:04.56	31.12	15.21	
2025-01-06 23:25:04.76	31.13	15.23	
2025-01-06 23:25:04.96	31.15	15.25	
2025-01-06 23:25:05.17	31.17	15.27	
2025-01-06 23:25:05.37	31.19	15.29	
2025-01-06 23:25:05.58	31.21	15.31	
2025-01-06 23:25:05.78	31.23	15.33	
2025-01-06 23:25:05.99	31.25	15.35	
2025-01-06 23:25:06.19	31.27	15.37	
2025-01-06 23:25:06.40	31.29	15.39	
2025-01-06 23:25:06.60	31.31	15.41	
2025-01-06 23:25:06.81	31.33	15.43	
2025-01-06 23:25:07.01	31.35	15.45	
2025-01-06 23:25:07.22	31.37	15.47	
2025-01-06 23:25:07.43	31.39	15.49	
2025-01-06 23:25:07.63	31.41	15.51	
2025-01-06 23:25:07.84	31.43	15.53	
2025-01-06 23:25:08.04	31.45	15.55	
2025-01-06 23:25:08.25	31.47	15.57	
2025-01-06 23:25:08.45	31.49	15.59	
2025-01-06 23:25:08.66	31.51	15.61	
2025-01-06 23:25:08.87	31.53	15.63	
2025-01-06 23:25:09.07	31.55	15.65	
2025-01-06 23:25:09.27	31.57	15.67	
2025-01-06 23:25:09.48	31.59	15.69	
2025-01-06 23:25:09.69	31.61	15.71	
2025-01-06 23:25:09.89	31.63	15.73	
2025-01-06 23:25:10.10	31.65	15.75	
2025-01-06 23:25:10.30	31.67	15.77	
2025-01-06 23:25:10.51	31.69	15.79	
2025-01-06 23:25:10.71	31.71	15.81	
2025-01-06 23:25:10.92	31.73	15.83	
2025-01-06 23:25:11.12	31.75	15.85	
2025-01-06 23:25:11.33	31.77	15.87	
2025-01-06 23:25:11.53	31.79	15.89	
2025-01-06 23:25:11.74	31.81	15.91	
2025-01-06 23:25:11.94	31.83	15.93	
2025-01-06 23:25:12.15	31.85	15.95	
2025-01-06 23:25:12.35	31.87	15.97	
2025-01-06 23:25:12.56	31.89	15.99	
2025-01-06 23:25:12.76	31.91	16.01	
2025-01-06 23:25:12.97	31.93	16.03	
2025-01-06 23:25:13.17	31.95	16.05	
2025-01-06 23:25:13.39	31.97	16.07	
2025-01-06 23:25:13.60	32.00	16.09	
2025-01-06 23:25:13.80	32.02	16.11	
2025-01-06 23:25:14.01	32.04	16.13	
2025-01-06 23:25:14.21	32.06	16.15	
2025-01-06 23:25:14.41	32.08	16.17	
2025-01-06 23:25:14.62	32.10	16.19	
2025-01-06 23:25:14.83	32.12	16.21	
2025-01-06 23:25:15.03	32.14	16.23	
2025-01-06 23:25:15.24	32.16	16.26	
2025-01-06 23:25:15.45	32.18	16.28	
2025-01-06 23:25:15.66	32.20	16.30	
2025-01-06 23:25:15.87	32.23	16.32	
2025-01-06 23:25:16.07	32.25	16.34	
2025-01-06 23:25:16.28	32.27	16.36	
2025-01-06 23:25:16.48	32.29	16.38	
2025-01-06 23:25:16.69	32.31	16.40	
2025-01-06 23:25:16.89	32.33	16.42	
2025-01-06 23:25:17.10	32.35	16.44	
2025-01-06 23:25:17.30	32.37	16.46	
2025-01-06 23:25:17.51	32.39	16.48	
2025-01-06 23:25:17.71	32.41	16.50	
2025-01-06 23:25:17.92	32.43	16.52	
2025-01-06 23:25:18.12	32.46	16.54	
2025-01-06 23:25:18.33	32.48	16.56	
2025-01-06 23:25:18.54	32.50	16.59	
2025-01-06 23:25:18.75	32.52	16.61	
2025-01-06 23:25:18.95	32.54	16.63	
2025-01-06 23:25:19.16	32.56	16.65	
2025-01-06 23:25:19.37	32.58	16.67	
2025-01-06 23:25:19.57	32.61	16.69	
2025-01-06 23:25:19.78	32.63	16.71	
2025-01-06 23:25:19.98	32.65	16.73	
2025-01-06 23:25:20.19	32.67	16.75	
2025-01-06 23:25:20.39	32.69	16.77	
2025-01-06 23:25:20.60	32.71	16.79	
2025-01-06 23:25:20.80	32.73	16.81	
2025-01-06 23:25:21.01	32.76	16.83	
2025-01-06 23:25:21.22	32.78	16.86	
2025-01-06 23:25:21.42	32.80	16.88	
2025-01-06 23:25:21.63	32.82	16.90	
2025-01-06 23:25:21.83	32.84	16.92	
2025-01-06 23:25:22.04	32.86	16.94	
2025-01-06 23:25:22.24	32.89	16.96	
2025-01-06 23:25:22.45	32.91	16.98	
2025-01-06 23:25:22.65	32.93	17.00	
2025-01-06 23:25:22.86	32.95	17.02	
2025-01-06 23:25:23.06	32.97	17.04	
2025-01-06 23:25:23.27	33.00	17.06	
2025-01-06 23:25:23.47	33.02	17.08	
2025-01-06 23:25:23.68	33.04	17.11	
2025-01-06 23:25:23.89	33.06	17.13	
2025-01-06 23:25:24.09	33.08	17.15	
2025-01-06 23:25:24.30	33.11	17.17	
2025-01-06 23:25:24.50	33.13	17.19	
2025-01-06 23:25:24.71	33.15	17.21	
2025-01-06 23:25:24.91	33.17	17.23	
2025-01-06 23:25:25.12	33.19	17.25	
2025-01-06 23:25:25.32	33.22	17.27	
2025-01-06 23:25:25.53	33.24	17.30	
2025-01-06 23:25:25.73	33.26	17.32	
2025-01-06 23:25:25.94	33.28	17.34	
2025-01-06 23:25:26.14	33.30	17.36	
2025-01-06 23:25:26.35	33.33	17.38	
2025-01-06 23:25:26.55	33.35	17.40	
2025-01-06 23:25:26.76	33.37	17.42	
2025-01-06 23:25:26.96	33.39	17.44	
2025-01-06 23:25:27.17	33.42	17.46	
2025-01-06 23:25:27.37	33.44	17.49	
2025-01-06 23:25:27.58	33.46	17.51	
2025-01-06 23:25:27.78	33.48	17.53	
2025-01-06 23:25:27.99	33.51	17.55	
2025-01-06 23:25:28.19	33.53	17.57	
2025-01-06 23:25:28.40	33.55	17.59	
2025-01-06 23:25:28.60	33.57	17.61	
2025-01-06 23:25:28.81	33.60	17.63	
2025-01-06 23:25:29.01	33.62	17.66	
2025-01-06 23:25:29.22	33.64	17.68	
2025-01-06 23:25:29.42	33.66	17.70	
2025-01-06 23:25:29.63	33.69	17.72	
2025-01-06 23:25:29.83	33.71	17.74	
2025-01-06 23:25:30.04	33.73	17.76	
2025-01-06 23:25:30.26	33.76	17.79	
2025-01-06 23:25:30.47	33.78	17.81	
2025-01-06 23:25:30.68	33.80	17.83	
2025-01-06 23:25:30.88	33.83	17.85	
2025-01-06 23:25:31.09	33.85	17.87	
2025-01-06 23:25:31.30	33.87	17.89	
2025-01-06 23:25:31.50	33.90	17.92	
2025-01-06 23:25:31.71	33.92	17.94	
2025-01-06 23:25:31.91	33.94	17.96	
2025-01-06 23:25:32.12	33.97	17.98	
2025-01-06 23:25:32.32	33.99	18.00	
2025-01-06 23:25:32.52	34.01	18.02	
2025-01-06 23:25:32.73	34.04	18.04	
2025-01-06 23:25:32.94	34.06	18.07	
2025-01-06 23:25:33.14	34.08	18.09	
2025-01-06 23:25:33.35	34.11	18.11	
2025-01-06 23:25:33.55	34.13	18.13	
2025-01-06 23:25:33.76	34.15	18.15	
2025-01-06 23:25:33.96	34.18	18.17	
2025-01-06 23:25:34.17	34.20	18.20	
2025-01-06 23:25:34.38	34.22	18.22	
2025-01-06 23:25:34.58	34.25	18.24	
2025-01-06 23:25:34.78	34.27	18.26	
2025-01-06 23:25:34.99	34.29	18.28	
2025-01-06 23:25:35.20	34.32	18.31	
2025-01-06 23:25:35.40	34.34	18.33	
2025-01-06 23:25:35.61	34.36	18.35	
2025-01-06 23:25:35.81	34.39	18.37	
2025-01-06 23:25:36.02	34.41	18.39	
2025-01-06 23:25:36.23	34.44	18.42	
2025-01-06 23:25:36.43	34.46	18.44	
2025-01-06 23:25:36.64	34.48	18.46	
2025-01-06 23:25:36.84	34.51	18.48	
2025-01-06 23:25:37.04	34.53	18.50	
2025-01-06 23:25:37.26	34.56	18.53	
2025-01-06 23:25:37.47	34.58	18.55	
2025-01-06 23:25:37.67	34.60	18.57	
2025-01-06 23:25:37.88	34.63	18.59	
2025-01-06 23:25:38.08	34.65	18.61	
2025-01-06 23:25:38.29	34.68	18.64	
2025-01-06 23:25:38.49	34.70	18.66	
2025-01-06 23:25:38.70	34.73	18.68	
2025-01-06 23:25:38.90	34.75	18.70	
2025-01-06 23:25:39.11	34.77	18.72	
2025-01-06 23:25:39.32	34.80	18.75	
2025-01-06 23:25:39.52	34.82	18.77	
2025-01-06 23:25:39.73	34.85	18.79	
2025-01-06 23:25:39.93	34.87	18.81	
2025-01-06 23:25:40.14	34.90	18.83	
2025-01-06 23:25:40.35	34.92	18.86	
2025-01-06 23:25:40.55	34.95	18.88	
2025-01-06 23:25:40.76	34.97	18.90	
2025-01-06 23:25:40.96	34.99	18.92	
2025-01-06 23:25:41.17	35.02	18.95	
2025-01-06 23:25:41.37	35.04	18.97	
2025-01-06 23:25:41.58	35.07	18.99	
2025-01-06 23:25:41.78	35.09	19.01	
2025-01-06 23:25:41.99	35.12	19.04	
2025-01-06 23:25:42.20	35.14	19.06	
2025-01-06 23:25:42.41	35.17	19.08	
2025-01-06 23:25:42.61	35.19	19.10	
2025-01-06 23:25:42.82	35.22	19.13	
2025-01-06 23:25:43.03	35.24	19.15	
2025-01-06 23:25:43.23	35.27	19.17	
2025-01-06 23:25:43.43	35.29	19.19	
2025-01-06 23:25:43.64	35.32	19.21	
2025-01-06 23:25:43.84	35.34	19.24	
2025-01-06 23:25:44.05	35.37	19.26	
2025-01-06 23:25:44.25	35.39	19.28	
2025-01-06 23:25:44.46	35.42	19.30	
2025-01-06 23:25:44.66	35.44	19.33	
2025-01-06 23:25:44.87	35.47	19.35	
2025-01-06 23:25:45.07	35.49	19.37	
2025-01-06 23:25:45.28	35.52	19.39	
2025-01-06 23:25:45.48	35.55	19.42	
2025-01-06 23:25:45.69	35.57	19.44	
2025-01-06 23:25:45.89	35.60	19.46	
2025-01-06 23:25:46.10	35.62	19.48	
2025-01-06 23:25:46.30	35.65	19.51	
2025-01-06 23:25:46.51	35.67	19.53	
2025-01-06 23:25:46.71	35.70	19.55	
2025-01-06 23:25:46.92	35.72	19.57	
2025-01-06 23:25:47.12	35.75	19.60	
2025-01-06 23:25:47.33	35.78	19.62	
2025-01-06 23:25:47.53	35.80	19.64	
2025-01-06 23:25:47.74	35.83	19.67	
2025-01-06 23:25:47.94	35.85	19.69	
2025-01-06 23:25:48.15	35.88	19.71	
2025-01-06 23:25:48.35	35.90	19.73	
2025-01-06 23:25:48.56	35.93	19.76	
2025-01-06 23:25:48.76	35.96	19.78	
2025-01-06 23:25:48.97	35.98	19.80	
2025-01-06 23:25:49.17	36.01	19.82	
2025-01-06 23:25:49.38	36.03	19.85	
2025-01-06 23:25:49.60	36.06	19.87	
2025-01-06 23:25:49.80	36.09	19.89	
2025-01-06 23:25:50.01	36.11	19.92	
2025-01-06 23:25:50.21	36.14	19.94	
2025-01-06 23:25:50.42	36.17	19.96	
2025-01-06 23:25:50.62	36.19	19.99	
2025-01-06 23:25:50.83	36.22	20.01	
2025-01-06 23:25:51.04	36.25	20.03	
2025-01-06 23:25:51.24	36.27	20.05	
2025-01-06 23:25:51.45	36.30	20.08	
2025-01-06 23:25:51.65	36.32	20.10	
2025-01-06 23:25:51.86	36.35	20.12	
2025-01-06 23:25:52.06	36.38	20.15	
2025-01-06 23:25:52.27	36.40	20.17	
2025-01-06 23:25:52.47	36.43	20.19	
2025-01-06 23:25:52.68	36.46	20.22	
2025-01-06 23:25:52.89	36.49	20.24	
2025-01-06 23:25:53.09	36.51	20.26	
2025-01-06 23:25:53.30	36.54	20.29	
2025-01-06 23:25:53.50	36.57	20.31	
2025-01-06 23:25:53.71	36.59	20.33	
2025-01-06 23:25:53.93	36.62	20.36	
2025-01-06 23:25:54.13	36.65	20.38	
2025-01-06 23:25:54.34	36.68	20.40	
2025-01-06 23:25:54.55	36.70	20.43	
2025-01-06 23:25:54.75	36.73	20.45	
2025-01-06 23:25:54.95	36.76	20.47	
2025-01-06 23:25:55.16	36.78	20.50	
2025-01-06 23:25:55.36	36.81	20.52	
2025-01-06 23:25:55.57	36.84	20.54	
2025-01-06 23:25:55.78	36.87	20.57	
2025-01-06 23:25:55.98	36.89	20.59	
2025-01-06 23:25:56.19	36.92	20.61	
2025-01-06 23:25:56.39	36.95	20.64	
2025-01-06 23:25:56.60	36.98	20.66	
2025-01-06 23:25:56.80	37.00	20.68	
2025-01-06 23:25:57.01	37.03	20.71	
2025-01-06 23:25:57.21	37.06	20.73	
2025-01-06 23:25:57.42	37.09	20.75	
2025-01-06 23:25:57.62	37.11	20.78	
2025-01-06 23:25:57.83	37.14	20.80	
2025-01-06 23:25:58.03	37.17	20.82	
2025-01-06 23:25:58.25	37.20	20.85	
2025-01-06 23:25:58.46	37.23	20.87	
2025-01-06 23:25:58.66	37.25	20.90	
2025-01-06 23:25:58.87	37.28	20.92	
2025-01-06 23:25:59.07	37.31	20.94	
2025-01-06 23:25:59.29	37.34	20.97	
2025-01-06 23:25:59.50	37.37	20.99	
2025-01-06 23:25:59.70	37.39	21.01	
2025-01-06 23:25:59.91	37.42	21.04	
2025-01-06 23:26:00.11	37.45	21.06	
2025-01-06 23:26:00.32	37.48	21.09	
2025-01-06 23:26:00.53	37.51	21.11	
2025-01-06 23:26:00.73	37.54	21.13	
2025-01-06 23:26:00.94	37.56	21.16	
2025-01-06 23:26:01.14	37.59	21.18	
2025-01-06 23:26:01.34	37.62	21.20	
2025-01-06 23:26:01.55	37.65	21.23	
2025-01-06 23:26:01.75	37.68	21.25	
2025-01-06 23:26:01.96	37.71	21.28	
2025-01-06 23:26:02.16	37.73	21.30	
2025-01-06 23:26:02.37	37.76	21.32	
2025-01-06 23:26:02.57	37.79	21.35	
2025-01-06 23:26:02.78	37.82	21.37	
2025-01-06 23:26:02.98	37.85	21.39	
2025-01-06 23:26:03.19	37.88	21.42	
2025-01-06 23:26:03.39	37.91	21.44	
2025-01-06 23:26:03.60	37.94	21.47	
2025-01-06 23:26:03.80	37.96	21.49	
2025-01-06 23:26:04.01	37.99	21.51	
2025-01-06 23:26:04.21	38.02	21.54	
2025-01-06 23:26:04.42	38.05	21.56	
2025-01-06 23:26:04.62	38.08	21.59	
2025-01-06 23:26:04.83	38.11	21.61	
2025-01-06 23:26:05.03	38.14	21.63	
2025-01-06 23:26:05.24	38.17	21.66	
2025-01-06 23:26:05.45	38.20	21.68	
2025-01-06 23:26:05.65	38.23	21.71	
2025-01-06 23:26:05.86	38.26	21.73	
2025-01-06 23:26:06.06	38.28	21.75	
2025-01-06 23:26:06.27	38.31	21.78	
2025-01-06 23:26:06.47	38.34	21.80	
2025-01-06 23:26:06.68	38.37	21.83	
2025-01-06 23:26:06.88	38.40	21.85	
2025-01-06 23:26:07.09	38.43	21.88	
2025-01-06 23:26:07.29	38.46	21.90	
2025-01-06 23:26:07.50	38.49	21.92	
2025-01-06 23:26:07.70	38.52	21.95	
2025-01-06 23:26:07.91	38.55	21.97	
2025-01-06 23:26:08.12	38.58	22.00	
2025-01-06 23:26:08.32	38.61	22.02	
2025-01-06 23:26:08.53	38.64	22.05	
2025-01-06 23:26:08.73	38.67	22.07	
2025-01-06 23:26:08.94	38.70	22.09	
2025-01-06 23:26:09.14	38.73	22.12	
2025-01-06 23:26:09.35	38.76	22.14	
2025-01-06 23:26:09.55	38.79	22.17	
2025-01-06 23:26:09.76	38.82	22.19	
2025-01-06 23:26:09.96	38.85	22.21	
2025-01-06 23:26:10.17	38.88	22.24	
2025-01-06 23:26:10.37	38.91	22.26	
2025-01-06 23:26:10.58	38.94	22.29	
2025-01-06 23:26:10.79	38.97	22.31	
2025-01-06 23:26:10.99	39.00	22.34	
2025-01-06 23:26:11.19	39.03	22.36	
2025-01-06 23:26:11.40	39.06	22.39	
2025-01-06 23:26:11.61	39.10	22.41	
2025-01-06 23:26:11.81	39.13	22.44	
2025-01-06 23:26:12.01	39.16	22.46	
2025-01-06 23:26:12.22	39.19	22.48	
2025-01-06 23:26:12.42	39.22	22.51	
2025-01-06 23:26:12.63	39.25	22.53	
2025-01-06 23:26:12.84	39.28	22.56	
2025-01-06 23:26:13.04	39.31	22.58	
2025-01-06 23:26:13.25	39.34	22.61	
2025-01-06 23:26:13.45	39.37	22.63	
2025-01-06 23:26:13.66	39.40	22.66	
2025-01-06 23:26:13.86	39.43	22.68	
2025-01-06 23:26:14.07	39.47	22.71	
2025-01-06 23:26:14.27	39.50	22.73	
2025-01-06 23:26:14.48	39.53	22.76	
2025-01-06 23:26:14.68	39.56	22.78	
2025-01-06 23:26:14.89	39.59	22.81	
2025-01-06 23:26:15.10	39.62	22.83	
2025-01-06 23:26:15.30	39.65	22.85	
2025-01-06 23:26:15.51	39.69	22.88	
2025-01-06 23:26:15.71	39.72	22.90	
2025-01-06 23:26:15.92	39.75	22.93	
2025-01-06 23:26:16.12	39.78	22.95	
2025-01-06 23:26:16.34	39.81	22.98	
2025-01-06 23:26:16.55	39.85	23.01	
2025-01-06 23:26:16.75	39.88	23.03	
2025-01-06 23:26:16.96	39.91	23.06	
2025-01-06 23:26:17.17	39.94	23.08	
2025-01-06 23:26:17.37	39.97	23.11	
2025-01-06 23:26:17.58	40.01	23.13	
2025-01-06 23:26:17.78	40.04	23.16	
2025-01-06 23:26:17.99	40.07	23.18	
2025-01-06 23:26:18.19	40.10	23.21	
2025-01-06 23:26:18.39	40.13	23.23	
2025-01-06 23:26:18.60	40.17	23.26	
2025-01-06 23:26:18.81	40.20	23.28	
2025-01-06 23:26:19.01	40.23	23.31	
2025-01-06 23:26:19.22	40.26	23.33	
2025-01-06 23:26:19.42	40.30	23.36	
2025-01-06 23:26:19.62	40.33	23.38	
2025-01-06 23:26:19.83	40.36	23.41	
2025-01-06 23:26:20.04	40.39	23.43	
2025-01-06 23:26:20.24	40.43	23.46	
2025-01-06 23:26:20.46	40.46	23.48	
2025-01-06 23:26:20.66	40.49	23.51	
2025-01-06 23:26:20.87	40.53	23.53	
2025-01-06 23:26:21.07	40.56	23.56	
2025-01-06 23:26:21.28	40.59	23.58	
2025-01-06 23:26:21.49	40.63	23.61	
2025-01-06 23:26:21.69	40.66	23.63	
2025-01-06 23:26:21.90	40.69	23.66	
2025-01-06 23:26:22.10	40.72	23.68	
2025-01-06 23:26:22.31	40.76	23.71	
2025-01-06 23:26:22.52	40.79	23.74	
2025-01-06 23:26:22.72	40.82	23.76	
2025-01-06 23:26:22.93	40.86	23.79	
2025-01-06 23:26:23.13	40.89	23.81	
2025-01-06 23:26:23.34	40.93	23.84	
2025-01-06 23:26:23.54	40.96	23.86	
2025-01-06 23:26:23.75	40.99	23.89	
2025-01-06 23:26:23.95	41.03	23.91	
2025-01-06 23:26:24.16	41.06	23.94	
2025-01-06 23:26:24.37	41.09	23.97	
2025-01-06 23:26:24.57	41.13	23.99	
2025-01-06 23:26:24.78	41.16	24.02	
2025-01-06 23:26:24.98	41.19	24.04	
2025-01-06 23:26:25.19	41.23	24.07	
2025-01-06 23:26:25.39	41.26	24.09	
2025-01-06 23:26:25.60	41.30	24.12	
2025-01-06 23:26:25.80	41.33	24.14	
2025-01-06 23:26:26.02	41.37	24.17	
2025-01-06 23:26:26.22	41.40	24.20	
2025-01-06 23:26:26.43	41.44	24.22	
2025-01-06 23:26:26.63	41.47	24.25	
2025-01-06 23:26:26.84	41.50	24.27	
2025-01-06 23:26:27.05	41.54	24.30	
2025-01-06 23:26:27.25	41.57	24.32	
2025-01-06 23:26:27.45	41.61	24.35	
2025-01-06 23:26:27.66	41.64	24.38	
2025-01-06 23:26:27.86	41.68	24.40	
2025-01-06 23:26:28.07	41.71	24.43	
2025-01-06 23:26:28.27	41.74	24.45	
2025-01-06 23:26:28.48	41.78	24.48	
2025-01-06 23:26:28.69	41.82	24.51	
2025-01-06 23:26:28.89	41.85	24.53	
2025-01-06 23:26:29.09	41.88	24.56	
2025-01-06 23:26:29.30	41.92	24.58	
2025-01-06 23:26:29.50	41.95	24.61	
2025-01-06 23:26:29.71	41.99	24.63	
2025-01-06 23:26:29.92	42.03	24.66	
2025-01-06 23:26:30.12	42.06	24.69	
2025-01-06 23:26:30.33	42.10	24.71	
2025-01-06 23:26:30.53	42.13	24.74	
2025-01-06 23:26:30.73	42.17	24.76	
2025-01-06 23:26:30.94	42.20	24.79	
2025-01-06 23:26:31.15	42.24	24.82	
2025-01-06 23:26:31.35	42.27	24.84	
2025-01-06 23:26:31.56	42.31	24.87	
2025-01-06 23:26:31.76	42.34	24.89	
2025-01-06 23:26:31.97	42.38	24.92	
2025-01-06 23:26:32.18	42.42	24.95	
2025-01-06 23:26:32.38	42.45	24.97	
2025-01-06 23:26:32.59	42.49	25.00	
2025-01-06 23:26:32.79	42.52	25.02	
2025-01-06 23:26:33.00	42.56	25.05	
2025-01-06 23:26:33.20	42.60	25.08	
2025-01-06 23:26:33.40	42.63	25.10	
2025-01-06 23:26:33.62	42.67	25.13	
2025-01-06 23:26:33.83	42.71	25.16	
2025-01-06 23:26:34.03	42.74	25.18	
2025-01-06 23:26:34.24	42.78	25.21	
2025-01-06 23:26:34.45	42.82	25.23	
2025-01-06 23:26:34.66	42.85	25.26	
2025-01-06 23:26:34.87	42.89	25.29	
2025-01-06 23:26:35.08	42.93	25.32	
2025-01-06 23:26:35.28	42.97	25.34	
2025-01-06 23:26:35.49	43.00	25.37	
2025-01-06 23:26:35.69	43.04	25.39	
2025-01-06 23:26:35.90	43.08	25.42	
2025-01-06 23:26:36.10	43.11	25.45	
2025-01-06 23:26:36.31	43.15	25.47	
2025-01-06 23:26:36.52	43.19	25.50	
2025-01-06 23:26:36.72	43.22	25.53	
2025-01-06 23:26:36.93	43.26	25.55	
2025-01-06 23:26:37.13	43.30	25.58	
2025-01-06 23:26:37.34	43.34	25.60	
2025-01-06 23:26:37.54	43.37	25.63	
2025-01-06 23:26:37.75	43.41	25.66	
2025-01-06 23:26:37.95	43.45	25.68	
2025-01-06 23:26:38.16	43.49	25.71	
2025-01-06 23:26:38.37	43.52	25.74	
2025-01-06 23:26:38.57	43.56	25.76	
2025-01-06 23:26:38.78	43.60	25.79	
2025-01-06 23:26:38.98	43.64	25.82	
2025-01-06 23:26:39.19	43.68	25.84	
2025-01-06 23:26:39.39	43.71	25.87	
2025-01-06 23:26:39.60	43.75	25.90	
2025-01-06 23:26:39.80	43.79	25.92	
2025-01-06 23:26:40.01	43.83	25.95	
2025-01-06 23:26:40.22	43.87	25.98	
2025-01-06 23:26:40.43	43.91	26.00	
2025-01-06 23:26:40.64	43.94	26.03	
2025-01-06 23:26:40.84	43.98	26.06	
2025-01-06 23:26:41.04	44.02	26.08	
2025-01-06 23:26:41.25	44.06	26.11	
2025-01-06 23:26:41.46	44.10	26.14	
2025-01-06 23:26:41.66	44.14	26.16	
2025-01-06 23:26:41.87	44.18	26.19	
2025-01-06 23:26:42.07	44.21	26.22	
2025-01-06 23:26:42.28	44.25	26.24	
2025-01-06 23:26:42.48	44.29	26.27	
2025-01-06 23:26:42.69	44.33	26.30	
2025-01-06 23:26:42.89	44.37	26.32	
2025-01-06 23:26:43.10	44.41	26.35	
2025-01-06 23:26:43.30	44.45	26.38	
2025-01-06 23:26:43.50	44.48	26.40	
2025-01-06 23:26:43.71	44.53	26.43	
2025-01-06 23:26:43.92	44.57	26.46	
2025-01-06 23:26:44.12	44.60	26.48	
2025-01-06 23:26:44.32	44.64	26.51	
2025-01-06 23:26:44.53	44.68	26.54	
2025-01-06 23:26:44.73	44.72	26.56	
2025-01-06 23:26:44.94	44.76	26.59	
2025-01-06 23:26:45.15	44.80	26.62	
2025-01-06 23:26:45.35	44.84	26.65	
2025-01-06 23:26:45.55	44.88	26.67	
2025-01-06 23:26:45.76	44.92	26.70	
2025-01-06 23:26:45.97	44.96	26.73	
2025-01-06 23:26:46.17	45.00	26.75	
2025-01-06 23:26:46.38	45.04	26.78	
2025-01-06 23:26:46.58	45.08	26.81	
2025-01-06 23:26:46.79	45.12	26.83	
2025-01-06 23:26:46.99	45.16	26.86	
2025-01-06 23:26:47.20	45.20	26.89	
2025-01-06 23:26:47.42	45.25	26.92	
2025-01-06 23:26:47.62	45.29	26.94	
2025-01-06 23:26:47.83	45.33	26.97	
2025-01-06 23:26:48.03	45.37	27.00	
2025-01-06 23:26:48.24	45.41	27.03	
2025-01-06 23:26:48.44	45.45	27.05	
2025-01-06 23:26:48.65	45.49	27.08	
2025-01-06 23:26:48.85	45.53	27.11	
2025-01-06 23:26:49.06	45.57	27.13	
2025-01-06 23:26:49.27	45.61	27.16	
2025-01-06 23:26:49.47	45.65	27.19	
2025-01-06 23:26:49.68	45.70	27.22	
2025-01-06 23:26:49.88	45.74	27.24	
2025-01-06 23:26:50.09	45.78	27.27	
2025-01-06 23:26:50.29	45.82	27.30	
2025-01-06 23:26:50.49	45.86	27.32	
2025-01-06 23:26:50.70	45.90	27.35	
2025-01-06 23:26:50.90	45.94	27.38	
2025-01-06 23:26:51.11	45.98	27.41	
2025-01-06 23:26:51.31	46.02	27.43	
2025-01-06 23:26:51.52	46.07	27.46	
2025-01-06 23:26:51.72	46.11	27.49	
2025-01-06 23:26:51.93	46.15	27.51	
2025-01-06 23:26:52.13	46.19	27.54	
2025-01-06 23:26:52.34	46.24	27.57	
2025-01-06 23:26:52.54	46.28	27.60	
2025-01-06 23:26:52.75	46.32	27.62	
2025-01-06 23:26:52.95	46.36	27.65	
2025-01-06 23:26:53.16	46.40	27.68	
2025-01-06 23:26:53.37	46.45	27.71	
2025-01-06 23:26:53.57	46.49	27.73	
2025-01-06 23:26:53.78	46.53	27.76	
2025-01-06 23:26:53.98	46.57	27.79	
2025-01-06 23:26:54.19	46.62	27.82	
2025-01-06 23:26:54.39	46.66	27.84	
2025-01-06 23:26:54.60	46.70	27.87	
2025-01-06 23:26:54.80	46.75	27.90	
2025-01-06 23:26:55.01	46.79	27.93	
2025-01-06 23:26:55.21	46.83	27.95	
2025-01-06 23:26:55.42	46.88	27.98	
2025-01-06 23:26:55.63	46.92	28.01	
2025-01-06 23:26:55.83	46.96	28.04	
2025-01-06 23:26:56.04	47.01	28.06	
2025-01-06 23:26:56.24	47.05	28.09	
2025-01-06 23:26:56.45	47.09	28.12	
2025-01-06 23:26:56.65	47.14	28.14	
2025-01-06 23:26:56.86	47.18	28.17	
2025-01-06 23:26:57.07	47.22	28.20	
2025-01-06 23:26:57.28	47.27	28.23	
2025-01-06 23:26:57.49	47.31	28.26	
2025-01-06 23:26:57.69	47.36	28.28	
2025-01-06 23:26:57.90	47.40	28.31	
2025-01-06 23:26:58.10	47.45	28.34	
2025-01-06 23:26:58.30	47.49	28.37	
2025-01-06 23:26:58.51	47.53	28.39	
2025-01-06 23:26:58.71	47.58	28.42	
2025-01-06 23:26:58.92	47.62	28.45	
2025-01-06 23:26:59.12	47.67	28.48	
2025-01-06 23:26:59.33	47.71	28.51	
2025-01-06 23:26:59.53	47.75	28.53	
2025-01-06 23:26:59.74	47.80	28.56	
2025-01-06 23:26:59.94	47.84	28.59	
2025-01-06 23:27:00.15	47.89	28.62	
2025-01-06 23:27:00.35	47.93	28.64	
2025-01-06 23:27:00.56	47.98	28.67	
2025-01-06 23:27:00.77	48.03	28.70	
2025-01-06 23:27:00.97	48.07	28.73	
2025-01-06 23:27:01.18	48.12	28.76	
2025-01-06 23:27:01.38	48.16	28.78	
2025-01-06 23:27:01.59	48.21	28.81	
2025-01-06 23:27:01.79	48.25	28.84	
2025-01-06 23:27:02.00	48.30	28.87	
2025-01-06 23:27:02.20	48.34	28.89	
2025-01-06 23:27:02.41	48.39	28.92	
2025-01-06 23:27:02.62	48.44	28.95	
2025-01-06 23:27:02.82	48.48	28.98	
2025-01-06 23:27:03.03	48.53	29.01	
2025-01-06 23:27:03.23	48.57	29.03	
2025-01-06 23:27:03.43	48.62	29.06	
2025-01-06 23:27:03.64	48.66	29.09	
2025-01-06 23:27:03.85	48.71	29.12	
2025-01-06 23:27:04.05	48.76	29.14	
2025-01-06 23:27:04.26	48.80	29.17	
2025-01-06 23:27:04.46	48.85	29.20	
2025-01-06 23:27:04.67	48.90	29.23	
2025-01-06 23:27:04.87	48.94	29.26	
2025-01-06 23:27:05.08	48.99	29.28	
2025-01-06 23:27:05.28	49.04	29.31	
2025-01-06 23:27:05.49	49.08	29.34	
2025-01-06 23:27:05.69	49.13	29.37	
2025-01-06 23:27:05.90	49.18	29.40	
2025-01-06 23:27:06.10	49.22	29.42	
2025-01-06 23:27:06.31	49.27	29.45	
2025-01-06 23:27:06.51	49.32	29.48	
2025-01-06 23:27:06.72	49.37	29.51	
2025-01-06 23:27:06.92	49.41	29.53	
2025-01-06 23:27:07.13	49.46	29.56	
2025-01-06 23:27:07.33	49.51	29.59	
2025-01-06 23:27:07.54	49.56	29.62	
2025-01-06 23:27:07.74	49.60	29.65	
2025-01-06 23:27:07.95	49.65	29.68	
2025-01-06 23:27:08.15	49.70	29.70	
2025-01-06 23:27:08.36	49.75	29.73	
2025-01-06 23:27:08.56	49.80	29.76	
2025-01-06 23:27:08.78	49.85	29.79	
2025-01-06 23:27:08.99	49.90	29.82	
2025-01-06 23:27:09.20	49.95	29.85	
2025-01-06 23:27:09.40	49.99	29.87	
2025-01-06 23:27:09.61	50.04	29.90	
2025-01-06 23:27:09.81	50.09	29.93	
2025-01-06 23:27:10.02	50.14	29.96	
2025-01-06 23:27:10.22	50.19	29.99	
2025-01-06 23:27:10.43	50.24	30.01	
2025-01-06 23:27:10.64	50.29	30.04	
2025-01-06 23:27:10.84	50.33	30.07	
2025-01-06 23:27:11.04	50.38	30.10	
2025-01-06 23:27:11.25	50.43	30.13	
2025-01-06 23:27:11.46	50.48	30.16	
2025-01-06 23:27:11.66	50.53	30.18	
2025-01-06 23:27:11.86	50.58	30.21	
2025-01-06 23:27:12.07	50.63	30.24	
2025-01-06 23:27:12.28	50.68	30.27	
2025-01-06 23:27:12.48	50.73	30.29	
2025-01-06 23:27:12.69	50.78	30.32	
2025-01-06 23:27:12.89	50.83	30.35	
2025-01-06 23:27:13.10	50.88	30.38	
2025-01-06 23:27:13.30	50.93	30.41	
2025-01-06 23:27:13.51	50.98	30.44	
2025-01-06 23:27:13.71	51.03	30.46	
2025-01-06 23:27:13.92	51.08	30.49	
2025-01-06 23:27:14.12	51.13	30.52	
2025-01-06 23:27:14.33	51.18	30.55	
2025-01-06 23:27:14.54	51.23	30.58	
2025-01-06 23:27:14.74	51.28	30.60	
2025-01-06 23:27:14.95	51.33	30.63	
2025-01-06 23:27:15.17	51.39	30.66	
2025-01-06 23:27:15.37	51.44	30.69	
2025-01-06 23:27:15.58	51.49	30.72	
2025-01-06 23:27:15.78	51.54	30.75	
2025-01-06 23:27:15.99	51.59	30.78	
2025-01-06 23:27:16.19	51.64	30.80	
2025-01-06 23:27:16.40	51.70	30.83	
2025-01-06 23:27:16.60	51.75	30.86	
2025-01-06 23:27:16.81	51.80	30.89	
2025-01-06 23:27:17.02	51.85	30.92	
2025-01-06 23:27:17.22	51.90	30.95	
2025-01-06 23:27:17.43	51.95	30.97	
2025-01-06 23:27:17.63	52.00	31.00	
2025-01-06 23:27:17.84	52.06	31.03	
2025-01-06 23:27:18.05	52.11	31.06	
2025-01-06 23:27:18.25	52.16	31.09	
2025-01-06 23:27:18.46	52.22	31.12	
2025-01-06 23:27:18.66	52.27	31.14	
2025-01-06 23:27:18.87	52.32	31.17	
2025-01-06 23:27:19.08	52.37	31.20	
2025-01-06 23:27:19.28	52.42	31.23	
2025-01-06 23:27:19.49	52.48	31.26	
2025-01-06 23:27:19.69	52.53	31.29	
2025-01-06 23:27:19.90	52.58	31.31	
2025-01-06 23:27:20.10	52.64	31.34	
2025-01-06 23:27:20.31	52.69	31.37	
2025-01-06 23:27:20.53	52.75	31.40	
2025-01-06 23:27:20.73	52.80	31.43	
2025-01-06 23:27:20.94	52.85	31.46	
2025-01-06 23:27:21.14	52.91	31.48	
2025-01-06 23:27:21.35	52.96	31.51	
2025-01-06 23:27:21.55	53.01	31.54	
2025-01-06 23:27:21.76	53.07	31.57	
2025-01-06 23:27:21.96	53.12	31.60	
2025-01-06 23:27:22.17	53.17	31.63	
2025-01-06 23:27:22.38	53.23	31.66	
2025-01-06 23:27:22.58	53.28	31.68	
2025-01-06 23:27:22.79	53.34	31.71	
2025-01-06 23:27:22.99	53.39	31.74	
2025-01-06 23:27:23.20	53.45	31.77	
2025-01-06 23:27:23.40	53.50	31.80	
2025-01-06 23:27:23.60	53.55	31.82	
2025-01-06 23:27:23.81	53.61	31.85	
2025-01-06 23:27:24.02	53.66	31.88	
2025-01-06 23:27:24.22	53.72	31.91	
2025-01-06 23:27:24.43	53.77	31.94	
2025-01-06 23:27:24.63	53.83	31.97	
2025-01-06 23:27:24.85	53.89	32.00	
2025-01-06 23:27:25.06	53.94	32.02	
2025-01-06 23:27:25.26	54.00	32.05	
2025-01-06 23:27:25.47	54.05	32.08	
2025-01-06 23:27:25.67	54.11	32.11	
2025-01-06 23:27:25.87	54.16	32.14	
2025-01-06 23:27:26.08	54.22	32.16	
2025-01-06 23:27:26.28	54.27	32.19	
2025-01-06 23:27:26.49	54.33	32.22	
2025-01-06 23:27:26.69	54.39	32.25	
2025-01-06 23:27:26.90	54.44	32.28	
2025-01-06 23:27:27.11	54.50	32.31	
2025-01-06 23:27:27.31	54.55	32.33	
2025-01-06 23:27:27.51	54.61	32.36	
2025-01-06 23:27:27.72	54.67	32.39	
2025-01-06 23:27:27.92	54.72	32.42	
2025-01-06 23:27:28.13	54.78	32.45	
2025-01-06 23:27:28.33	54.84	32.47	
2025-01-06 23:27:28.54	54.89	32.50	
2025-01-06 23:27:28.74	54.95	32.53	
2025-01-06 23:27:28.95	55.01	32.56	
2025-01-06 23:27:29.15	55.06	32.59	
2025-01-06 23:27:29.36	55.12	32.62	
2025-01-06 23:27:29.57	55.18	32.64	
2025-01-06 23:27:29.77	55.24	32.67	
2025-01-06 23:27:29.98	55.30	32.70	
2025-01-06 23:27:30.18	55.35	32.73	
2025-01-06 23:27:30.39	55.41	32.76	
2025-01-06 23:27:30.59	55.47	32.78	
2025-01-06 23:27:30.80	55.53	32.81	
2025-01-06 23:27:31.01	55.59	32.84	
2025-01-06 23:27:31.21	55.64	32.87	
2025-01-06 23:27:31.41	55.70	32.90	
2025-01-06 23:27:31.62	55.76	32.93	
2025-01-06 23:27:31.83	55.82	32.95	
2025-01-06 23:27:32.03	55.87	32.98	
2025-01-06 23:27:32.24	55.93	33.01	
2025-01-06 23:27:32.44	55.99	33.04	
2025-01-06 23:27:32.65	56.05	33.07	
2025-01-06 23:27:32.85	56.11	33.09	
2025-01-06 23:27:33.06	56.17	33.12	
2025-01-06 23:27:33.26	56.23	33.15	
2025-01-06 23:27:33.47	56.29	33.18	
2025-01-06 23:27:33.67	56.35	33.21	
2025-01-06 23:27:33.88	56.41	33.23	
2025-01-06 23:27:34.09	56.47	33.26	
2025-01-06 23:27:34.29	56.53	33.29	
2025-01-06 23:27:34.50	56.59	33.32	
2025-01-06 23:27:34.70	56.64	33.35	
2025-01-06 23:27:34.91	56.71	33.38	
2025-01-06 23:27:35.11	56.76	33.40	
2025-01-06 23:27:35.32	56.83	33.43	
2025-01-06 23:27:35.52	56.88	33.46	
2025-01-06 23:27:35.73	56.95	33.49	
2025-01-06 23:27:35.93	57.01	33.51	
2025-01-06 23:27:36.14	57.07	33.54	
2025-01-06 23:27:36.34	57.13	33.57	
2025-01-06 23:27:36.55	57.19	33.60	
2025-01-06 23:27:36.75	57.25	33.63	
2025-01-06 23:27:36.96	57.31	33.65	
2025-01-06 23:27:37.16	57.37	33.68	
2025-01-06 23:27:37.37	57.43	33.71	
2025-01-06 23:27:37.57	57.49	33.74	
2025-01-06 23:27:37.78	57.55	33.77	
2025-01-06 23:27:37.98	57.61	33.79	
2025-01-06 23:27:38.19	57.68	33.82	
2025-01-06 23:27:38.40	57.74	33.85	
2025-01-06 23:27:38.60	57.80	33.88	
2025-01-06 23:27:38.81	57.86	33.91	
2025-01-06 23:27:39.01	57.92	33.93	
2025-01-06 23:27:39.22	57.99	33.96	
2025-01-06 23:27:39.42	58.05	33.99	
2025-01-06 23:27:39.63	58.11	34.02	
2025-01-06 23:27:39.83	58.17	34.04	
2025-01-06 23:27:40.04	58.24	34.07	
2025-01-06 23:27:40.25	58.30	34.10	
2025-01-06 23:27:40.45	58.36	34.13	
2025-01-06 23:27:40.66	58.43	34.16	
2025-01-06 23:27:40.86	58.49	34.18	
2025-01-06 23:27:41.07	58.55	34.21	
2025-01-06 23:27:41.28	58.62	34.24	
2025-01-06 23:27:41.48	58.68	34.27	
2025-01-06 23:27:41.69	58.74	34.30	
2025-01-06 23:27:41.89	58.80	34.32	
2025-01-06 23:27:42.09	58.87	34.35	
2025-01-06 23:27:42.30	58.93	34.38	
2025-01-06 23:27:42.51	59.00	34.41	
2025-01-06 23:27:42.71	59.06	34.43	
2025-01-06 23:27:42.91	59.12	34.46	
2025-01-06 23:27:43.12	59.19	34.49	
2025-01-06 23:27:43.33	59.25	34.52	
2025-01-06 23:27:43.53	59.32	34.54	
2025-01-06 23:27:43.74	59.38	34.57	
2025-01-06 23:27:43.94	59.44	34.60	
2025-01-06 23:27:44.15	59.51	34.63	
2025-01-06 23:27:44.35	59.57	34.65	
2025-01-06 23:27:44.56	59.64	34.68	
2025-01-06 23:27:44.76	59.70	34.71	
2025-01-06 23:27:44.97	59.77	34.74	
2025-01-06 23:27:45.17	59.83	34.76	
2025-01-06 23:27:45.38	59.90	34.79	
2025-01-06 23:27:45.59	59.97	34.82	
2025-01-06 23:27:45.79	60.03	34.84	
2025-01-06 23:27:46.00	60.10	34.87	
2025-01-06 23:27:46.20	60.16	34.90	
2025-01-06 23:27:46.41	60.23	34.93	
2025-01-06 23:27:46.61	60.29	34.95	
2025-01-06 23:27:46.82	60.36	34.98	
2025-01-06 23:27:47.02	60.42	35.01	
2025-01-06 23:27:47.23	60.49	35.04	
2025-01-06 23:27:47.43	60.56	35.06	
2025-01-06 23:27:47.64	60.63	35.09	
2025-01-06 23:27:47.84	60.69	35.12	
2025-01-06 23:27:48.05	60.76	35.14	
2025-01-06 23:27:48.26	60.83	35.17	
2025-01-06 23:27:48.46	60.89	35.20	
2025-01-06 23:27:48.67	60.96	35.23	
2025-01-06 23:27:48.87	61.03	35.25	
2025-01-06 23:27:49.08	61.09	35.28	
2025-01-06 23:27:49.30	61.17	35.31	
2025-01-06 23:27:49.50	61.23	35.34	
2025-01-06 23:27:49.71	61.30	35.36	
2025-01-06 23:27:49.92	61.37	35.39	
2025-01-06 23:27:50.12	61.44	35.42	
2025-01-06 23:27:50.32	61.50	35.44	
2025-01-06 23:27:50.53	61.57	35.47	
2025-01-06 23:27:50.74	61.64	35.50	
2025-01-06 23:27:50.94	61.71	35.53	
2025-01-06 23:27:51.15	61.78	35.55	
2025-01-06 23:27:51.35	61.85	35.58	
2025-01-06 23:27:51.55	61.91	35.60	
2025-01-06 23:27:51.76	61.98	35.63	
2025-01-06 23:27:51.96	62.05	35.66	
2025-01-06 23:27:52.17	62.12	35.69	
2025-01-06 23:27:52.37	62.19	35.71	
2025-01-06 23:27:52.58	62.26	35.74	
2025-01-06 23:27:52.78	62.33	35.77	
2025-01-06 23:27:52.99	62.40	35.79	
2025-01-06 23:27:53.19	62.46	35.82	
2025-01-06 23:27:53.40	62.54	35.85	
2025-01-06 23:27:53.60	62.60	35.87	
2025-01-06 23:27:53.81	62.67	35.90	
2025-01-06 23:27:54.02	62.75	35.93	
2025-01-06 23:27:54.22	62.81	35.95	
2025-01-06 23:27:54.43	62.89	35.98	
2025-01-06 23:27:54.63	62.95	36.00	
2025-01-06 23:27:54.84	63.03	36.03	
2025-01-06 23:27:55.05	63.10	36.06	
2025-01-06 23:27:55.25	63.17	36.08	
2025-01-06 23:27:55.46	63.24	36.11	
2025-01-06 23:27:55.67	63.31	36.14	
2025-01-06 23:27:55.88	63.38	36.17	
2025-01-06 23:27:56.09	63.46	36.19	
2025-01-06 23:27:56.29	63.53	36.22	
2025-01-06 23:27:56.50	63.60	36.24	
2025-01-06 23:27:56.70	63.67	36.27	
2025-01-06 23:27:56.91	63.74	36.30	
2025-01-06 23:27:57.11	63.81	36.32	
2025-01-06 23:27:57.32	63.89	36.35	
2025-01-06 23:27:57.53	63.96	36.38	
2025-01-06 23:27:57.73	64.03	36.40	
2025-01-06 23:27:57.93	64.10	36.43	
2025-01-06 23:27:58.14	64.17	36.45	
2025-01-06 23:27:58.35	64.25	36.48	
2025-01-06 23:27:58.55	64.32	36.50	
2025-01-06 23:27:58.76	64.39	36.53	
2025-01-06 23:27:58.96	64.46	36.56	
2025-01-06 23:27:59.17	64.54	36.58	
2025-01-06 23:27:59.37	64.61	36.61	
2025-01-06 23:27:59.58	64.68	36.63	
2025-01-06 23:27:59.78	64.75	36.66	
2025-01-06 23:27:59.99	64.83	36.69	
2025-01-06 23:28:00.20	64.90	36.71	
2025-01-06 23:28:00.41	64.98	36.74	
2025-01-06 23:28:00.61	65.05	36.76	
2025-01-06 23:28:00.82	65.13	36.79	
2025-01-06 23:28:01.02	65.20	36.81	
2025-01-06 23:28:01.23	65.27	36.84	
2025-01-06 23:28:01.44	65.35	36.87	
2025-01-06 23:28:01.64	65.42	36.89	
2025-01-06 23:28:01.85	65.50	36.92	
2025-01-06 23:28:02.05	65.57	36.94	
2025-01-06 23:28:02.26	65.65	36.97	
2025-01-06 23:28:02.46	65.72	36.99	
2025-01-06 23:28:02.67	65.80	37.02	
2025-01-06 23:28:02.88	65.87	37.04	
2025-01-06 23:28:03.08	65.95	37.07	
2025-01-06 23:28:03.28	66.02	37.09	
2025-01-06 23:28:03.49	66.10	37.12	
2025-01-06 23:28:03.70	66.17	37.15	
2025-01-06 23:28:03.90	66.25	37.17	
2025-01-06 23:28:04.11	66.32	37.20	
2025-01-06 23:28:04.31	66.40	37.22	
2025-01-06 23:28:04.51	66.47	37.24	
2025-01-06 23:28:04.72	66.55	37.27	
2025-01-06 23:28:04.93	66.63	37.30	
2025-01-06 23:28:05.13	66.70	37.32	
2025-01-06 23:28:05.33	66.77	37.34	
2025-01-06 23:28:05.54	66.85	37.37	
2025-01-06 23:28:05.74	66.93	37.39	
2025-01-06 23:28:05.95	67.00	37.42	
2025-01-06 23:28:06.16	67.08	37.44	
2025-01-06 23:28:06.36	67.16	37.47	
2025-01-06 23:28:06.57	67.24	37.49	
2025-01-06 23:28:06.77	67.31	37.52	
2025-01-06 23:28:06.98	67.39	37.54	
2025-01-06 23:28:07.18	67.47	37.57	
2025-01-06 23:28:07.39	67.55	37.59	
2025-01-06 23:28:07.59	67.62	37.62	
2025-01-06 23:28:07.80	67.70	37.64	
2025-01-06 23:28:08.01	67.78	37.66	
2025-01-06 23:28:08.21	67.86	37.69	
2025-01-06 23:28:08.42	67.93	37.71	
2025-01-06 23:28:08.62	68.01	37.74	
2025-01-06 23:28:08.83	68.09	37.76	
2025-01-06 23:28:09.03	68.17	37.79	
2025-01-06 23:28:09.24	68.25	37.81	
2025-01-06 23:28:09.45	68.33	37.83	
2025-01-06 23:28:09.65	68.40	37.86	
2025-01-06 23:28:09.85	68.48	37.88	
2025-01-06 23:28:10.06	68.56	37.91	
2025-01-06 23:28:10.26	68.64	37.93	
2025-01-06 23:28:10.47	68.72	37.95	
2025-01-06 23:28:10.69	68.80	37.98	
2025-01-06 23:28:10.90	68.89	38.00	
2025-01-06 23:28:11.10	68.96	38.03	
2025-01-06 23:28:11.30	69.04	38.05	
2025-01-06 23:28:11.51	69.12	38.07	
2025-01-06 23:28:11.71	69.20	38.10	
2025-01-06 23:28:11.92	69.28	38.12	
2025-01-06 23:28:12.13	69.36	38.14	
2025-01-06 23:28:12.33	69.44	38.17	
2025-01-06 23:28:12.54	69.52	38.19	
2025-01-06 23:28:12.74	69.60	38.21	
2025-01-06 23:28:12.96	69.69	38.24	
2025-01-06 23:28:13.16	69.77	38.26	
2025-01-06 23:28:13.37	69.85	38.29	
2025-01-06 23:28:13.57	69.93	38.31	
2025-01-06 23:28:13.78	70.01	38.33	
2025-01-06 23:28:13.98	70.09	38.35	
2025-01-06 23:28:14.19	70.17	38.38	
2025-01-06 23:28:14.39	70.25	38.40	
2025-01-06 23:28:14.60	70.33	38.42	
2025-01-06 23:28:14.80	70.41	38.45	
2025-01-06 23:28:15.01	70.50	38.47	
2025-01-06 23:28:15.21	70.58	38.49	
2025-01-06 23:28:15.42	70.66	38.52	
2025-01-06 23:28:15.62	70.74	38.54	
2025-01-06 23:28:15.83	70.82	38.56	
2025-01-06 23:28:16.03	70.90	38.58	
2025-01-06 23:28:16.24	70.99	38.61	
2025-01-06 23:28:16.44	71.07	38.63	
2025-01-06 23:28:16.65	71.15	38.65	
2025-01-06 23:28:16.85	71.23	38.67	
2025-01-06 23:28:17.06	71.32	38.70	
2025-01-06 23:28:17.26	71.40	38.72	
2025-01-06 23:28:17.47	71.48	38.74	
2025-01-06 23:28:17.67	71.57	38.76	
2025-01-06 23:28:17.88	71.65	38.78	
2025-01-06 23:28:18.08	71.73	38.81	
2025-01-06 23:28:18.29	71.82	38.83	
2025-01-06 23:28:18.49	71.90	38.85	
2025-01-06 23:28:18.70	71.98	38.87	
2025-01-06 23:28:18.91	72.07	38.89	
2025-01-06 23:28:19.11	72.15	38.92	
2025-01-06 23:28:19.31	72.23	38.94	
2025-01-06 23:28:19.52	72.32	38.96	
2025-01-06 23:28:19.72	72.40	38.98	
2025-01-06 23:28:19.93	72.49	39.00	
2025-01-06 23:28:20.14	72.57	39.02	
2025-01-06 23:28:20.34	72.66	39.05	
2025-01-06 23:28:20.54	72.74	39.07	
2025-01-06 23:28:20.75	72.82	39.09	
2025-01-06 23:28:20.96	72.91	39.11	
2025-01-06 23:28:21.16	72.99	39.13	
2025-01-06 23:28:21.37	73.08	39.15	
2025-01-06 23:28:21.57	73.16	39.17	
2025-01-06 23:28:21.78	73.25	39.19	
2025-01-06 23:28:21.98	73.34	39.22	
2025-01-06 23:28:22.19	73.42	39.24	
2025-01-06 23:28:22.41	73.51	39.26	
2025-01-06 23:28:22.61	73.60	39.28	
2025-01-06 23:28:22.82	73.69	39.30	
2025-01-06 23:28:23.02	73.77	39.32	
2025-01-06 23:28:23.23	73.86	39.34	
2025-01-06 23:28:23.43	73.94	39.36	
2025-01-06 23:28:23.64	74.03	39.38	
2025-01-06 23:28:23.84	74.11	39.40	
2025-01-06 23:28:24.04	74.20	39.42	
2025-01-06 23:28:24.25	74.29	39.44	
2025-01-06 23:28:24.46	74.38	39.46	
2025-01-06 23:28:24.68	74.47	39.49	
2025-01-06 23:28:24.88	74.55	39.51	
2025-01-06 23:28:25.09	74.64	39.53	
2025-01-06 23:28:25.29	74.73	39.55	
2025-01-06 23:28:25.50	74.82	39.57	
2025-01-06 23:28:25.70	74.90	39.59	
2025-01-06 23:28:25.91	74.99	39.61	
2025-01-06 23:28:26.12	75.08	39.63	
2025-01-06 23:28:26.32	75.17	39.65	
2025-01-06 23:28:26.53	75.26	39.67	
2025-01-06 23:28:26.73	75.34	39.69	
