passes_logs/2025/01/06/SPB_Silybum_02/SPB_Silybum_02__20250106_135148_AQUA_rec.log

#Pass ID: 20250106_135148_AQUA
#Satellite: AQUA
#Configuration: AQUA
#Start time: 2025-01-06 13:51:48

#Version: 2.0.20230423
#Station: SPB_Silybum_02
#Location: 30.233357 lon 59.946436 lat
#TLE: 1 27424U 02022A   25005.82080434  .00002926  00000+0  61100-3 0  9995
#TLE: 2 27424  98.3578 322.4029 0001351 120.4633 269.7583 14.60643938206284

#Time	Az	El	Level	Level2	SNR	BER	Gain	Gain2
2025-01-06 13:51:50.77	247.94	4.08	
2025-01-06 13:51:50.99	247.97	4.09	
2025-01-06 13:51:51.19	248.00	4.10	
2025-01-06 13:51:51.40	248.03	4.11	
2025-01-06 13:51:51.61	248.06	4.12	
2025-01-06 13:51:51.81	248.09	4.12	
2025-01-06 13:51:52.01	248.11	4.13	
2025-01-06 13:51:52.22	248.14	4.14	
2025-01-06 13:51:52.42	248.17	4.15	
2025-01-06 13:51:52.63	248.20	4.15	
2025-01-06 13:51:52.83	248.23	4.16	
2025-01-06 13:51:53.04	248.26	4.17	
2025-01-06 13:51:53.24	248.29	4.18	
2025-01-06 13:51:53.45	248.32	4.19	
2025-01-06 13:51:53.65	248.34	4.19	
2025-01-06 13:51:53.86	248.37	4.20	
2025-01-06 13:51:54.06	248.40	4.21	
2025-01-06 13:51:54.27	248.43	4.22	
2025-01-06 13:51:54.48	248.46	4.22	
2025-01-06 13:51:54.68	248.49	4.23	
2025-01-06 13:51:54.89	248.52	4.24	
2025-01-06 13:51:55.09	248.55	4.25	
2025-01-06 13:51:55.30	248.58	4.26	
2025-01-06 13:51:55.50	248.60	4.26	
2025-01-06 13:51:55.71	248.63	4.27	
2025-01-06 13:51:55.92	248.66	4.28	
2025-01-06 13:51:56.12	248.69	4.29	
2025-01-06 13:51:56.32	248.72	4.30	
2025-01-06 13:51:56.53	248.75	4.30	
2025-01-06 13:51:56.73	248.78	4.31	
2025-01-06 13:51:56.94	248.81	4.32	
2025-01-06 13:51:57.14	248.84	4.33	
2025-01-06 13:51:57.35	248.87	4.33	
2025-01-06 13:51:57.55	248.90	4.34	
2025-01-06 13:51:57.76	248.93	4.35	
2025-01-06 13:51:57.96	248.95	4.36	
2025-01-06 13:51:58.16	248.98	4.37	
2025-01-06 13:51:58.37	249.01	4.37	
2025-01-06 13:51:58.57	249.04	4.38	
2025-01-06 13:51:58.78	249.07	4.39	
2025-01-06 13:51:58.99	249.10	4.40	
2025-01-06 13:51:59.19	249.13	4.40	
2025-01-06 13:51:59.39	249.16	4.41	
2025-01-06 13:51:59.60	249.19	4.42	
2025-01-06 13:51:59.81	249.22	4.43	
2025-01-06 13:52:00.01	249.25	4.44	
2025-01-06 13:52:00.21	249.28	4.44	
2025-01-06 13:52:00.42	249.31	4.45	
2025-01-06 13:52:00.62	249.33	4.46	
2025-01-06 13:52:00.83	249.37	4.47	
2025-01-06 13:52:01.04	249.40	4.47	
2025-01-06 13:52:01.24	249.42	4.48	
2025-01-06 13:52:01.45	249.45	4.49	
2025-01-06 13:52:01.65	249.48	4.50	
2025-01-06 13:52:01.86	249.51	4.50	
2025-01-06 13:52:02.06	249.54	4.51	
2025-01-06 13:52:02.27	249.57	4.52	
2025-01-06 13:52:02.47	249.60	4.53	
2025-01-06 13:52:02.68	249.63	4.54	
2025-01-06 13:52:02.88	249.66	4.54	
2025-01-06 13:52:03.09	249.69	4.55	
2025-01-06 13:52:03.30	249.72	4.56	
2025-01-06 13:52:03.50	249.75	4.57	
2025-01-06 13:52:03.70	249.78	4.57	
2025-01-06 13:52:03.91	249.81	4.58	
2025-01-06 13:52:04.11	249.84	4.59	
2025-01-06 13:52:04.32	249.87	4.60	
2025-01-06 13:52:04.52	249.90	4.60	
2025-01-06 13:52:04.73	249.93	4.61	
2025-01-06 13:52:04.93	249.96	4.62	
2025-01-06 13:52:05.13	249.99	4.63	
2025-01-06 13:52:05.34	250.02	4.64	
2025-01-06 13:52:05.55	250.05	4.64	
2025-01-06 13:52:05.75	250.08	4.65	
2025-01-06 13:52:05.96	250.11	4.66	
2025-01-06 13:52:06.16	250.14	4.67	
2025-01-06 13:52:06.37	250.17	4.67	
2025-01-06 13:52:06.57	250.20	4.68	
2025-01-06 13:52:06.78	250.23	4.69	
2025-01-06 13:52:06.98	250.26	4.70	
2025-01-06 13:52:07.18	250.29	4.70	
2025-01-06 13:52:07.39	250.32	4.71	
2025-01-06 13:52:07.60	250.35	4.72	
2025-01-06 13:52:07.82	250.38	4.73	
2025-01-06 13:52:08.02	250.41	4.74	
2025-01-06 13:52:08.23	250.44	4.74	
2025-01-06 13:52:08.43	250.47	4.75	
2025-01-06 13:52:08.64	250.50	4.76	
2025-01-06 13:52:08.84	250.53	4.77	
2025-01-06 13:52:09.05	250.56	4.77	
2025-01-06 13:52:09.25	250.59	4.78	
2025-01-06 13:52:09.46	250.62	4.79	
2025-01-06 13:52:09.67	250.65	4.80	
2025-01-06 13:52:09.87	250.68	4.80	
2025-01-06 13:52:10.07	250.71	4.81	
2025-01-06 13:52:10.28	250.74	4.82	
2025-01-06 13:52:10.48	250.77	4.83	
2025-01-06 13:52:10.69	250.80	4.83	
2025-01-06 13:52:10.89	250.83	4.84	
2025-01-06 13:52:11.10	250.86	4.85	
2025-01-06 13:52:11.30	250.89	4.86	
2025-01-06 13:52:11.51	250.92	4.86	
2025-01-06 13:52:11.71	250.95	4.87	
2025-01-06 13:52:11.92	250.98	4.88	
2025-01-06 13:52:12.13	251.01	4.89	
2025-01-06 13:52:12.34	251.04	4.89	
2025-01-06 13:52:12.54	251.07	4.90	
2025-01-06 13:52:12.75	251.11	4.91	
2025-01-06 13:52:12.96	251.14	4.92	
2025-01-06 13:52:13.16	251.17	4.92	
2025-01-06 13:52:13.37	251.20	4.93	
2025-01-06 13:52:13.57	251.23	4.94	
2025-01-06 13:52:13.78	251.26	4.95	
2025-01-06 13:52:13.99	251.29	4.95	
2025-01-06 13:52:14.19	251.32	4.96	
2025-01-06 13:52:14.40	251.35	4.97	
2025-01-06 13:52:14.60	251.38	4.98	
2025-01-06 13:52:14.81	251.41	4.98	
2025-01-06 13:52:15.01	251.44	4.99	
2025-01-06 13:52:15.22	251.47	5.00	
2025-01-06 13:52:15.42	251.50	5.01	
2025-01-06 13:52:15.63	251.53	5.01	
2025-01-06 13:52:15.83	251.56	5.02	
2025-01-06 13:52:16.04	251.60	5.03	
2025-01-06 13:52:16.24	251.63	5.04	
2025-01-06 13:52:16.45	251.66	5.04	
2025-01-06 13:52:16.65	251.69	5.05	
2025-01-06 13:52:16.86	251.72	5.06	
2025-01-06 13:52:17.06	251.75	5.07	
2025-01-06 13:52:17.27	251.78	5.07	
2025-01-06 13:52:17.47	251.81	5.08	
2025-01-06 13:52:17.68	251.84	5.09	
2025-01-06 13:52:17.88	251.87	5.10	
2025-01-06 13:52:18.09	251.90	5.10	
2025-01-06 13:52:18.29	251.93	5.11	
2025-01-06 13:52:18.50	251.96	5.12	
2025-01-06 13:52:18.70	251.99	5.13	
2025-01-06 13:52:18.91	252.03	5.13	
2025-01-06 13:52:19.11	252.06	5.14	
2025-01-06 13:52:19.32	252.09	5.15	
2025-01-06 13:52:19.52	252.12	5.16	
2025-01-06 13:52:19.73	252.15	5.16	
2025-01-06 13:52:19.93	252.18	5.17	
2025-01-06 13:52:20.14	252.21	5.18	
2025-01-06 13:52:20.34	252.24	5.19	
2025-01-06 13:52:20.55	252.27	5.19	
2025-01-06 13:52:20.75	252.30	5.20	
2025-01-06 13:52:20.96	252.34	5.21	
2025-01-06 13:52:21.16	252.37	5.21	
2025-01-06 13:52:21.37	252.40	5.22	
2025-01-06 13:52:21.57	252.43	5.23	
2025-01-06 13:52:21.78	252.46	5.24	
2025-01-06 13:52:21.98	252.49	5.24	
2025-01-06 13:52:22.19	252.52	5.25	
2025-01-06 13:52:22.39	252.55	5.26	
2025-01-06 13:52:22.60	252.58	5.27	
2025-01-06 13:52:22.82	252.62	5.27	
2025-01-06 13:52:23.02	252.65	5.28	
2025-01-06 13:52:23.24	252.68	5.29	
2025-01-06 13:52:23.44	252.71	5.30	
2025-01-06 13:52:23.65	252.74	5.30	
2025-01-06 13:52:23.87	252.78	5.31	
2025-01-06 13:52:24.07	252.81	5.32	
2025-01-06 13:52:24.28	252.84	5.33	
2025-01-06 13:52:24.48	252.87	5.33	
2025-01-06 13:52:24.69	252.90	5.34	
2025-01-06 13:52:24.89	252.93	5.35	
2025-01-06 13:52:25.10	252.97	5.35	
2025-01-06 13:52:25.30	253.00	5.36	
2025-01-06 13:52:25.51	253.03	5.37	
2025-01-06 13:52:25.72	253.06	5.38	
2025-01-06 13:52:25.92	253.09	5.38	
2025-01-06 13:52:26.13	253.12	5.39	
2025-01-06 13:52:26.33	253.16	5.40	
2025-01-06 13:52:26.54	253.19	5.41	
2025-01-06 13:52:26.74	253.22	5.41	
2025-01-06 13:52:26.95	253.25	5.42	
2025-01-06 13:52:27.15	253.28	5.43	
2025-01-06 13:52:27.36	253.31	5.43	
2025-01-06 13:52:27.56	253.34	5.44	
2025-01-06 13:52:27.77	253.38	5.45	
2025-01-06 13:52:27.97	253.41	5.46	
2025-01-06 13:52:28.18	253.44	5.46	
2025-01-06 13:52:28.38	253.47	5.47	
2025-01-06 13:52:28.59	253.50	5.48	
2025-01-06 13:52:28.80	253.54	5.49	
2025-01-06 13:52:29.00	253.57	5.49	
2025-01-06 13:52:29.21	253.60	5.50	
2025-01-06 13:52:29.41	253.63	5.51	
2025-01-06 13:52:29.61	253.66	5.51	
2025-01-06 13:52:29.82	253.69	5.52	
2025-01-06 13:52:30.03	253.73	5.53	
2025-01-06 13:52:30.23	253.76	5.54	
2025-01-06 13:52:30.44	253.79	5.54	
2025-01-06 13:52:30.64	253.82	5.55	
2025-01-06 13:52:30.85	253.85	5.56	
2025-01-06 13:52:31.05	253.88	5.56	
2025-01-06 13:52:31.25	253.92	5.57	
2025-01-06 13:52:31.46	253.95	5.58	
2025-01-06 13:52:31.67	253.98	5.59	
2025-01-06 13:52:31.87	254.01	5.59	
2025-01-06 13:52:32.08	254.04	5.60	
2025-01-06 13:52:32.28	254.08	5.61	
2025-01-06 13:52:32.48	254.11	5.61	
2025-01-06 13:52:32.69	254.14	5.62	
2025-01-06 13:52:32.90	254.17	5.63	
2025-01-06 13:52:33.10	254.20	5.63	
2025-01-06 13:52:33.31	254.24	5.64	
2025-01-06 13:52:33.51	254.27	5.65	
2025-01-06 13:52:33.71	254.30	5.66	
2025-01-06 13:52:33.92	254.33	5.66	
2025-01-06 13:52:34.12	254.36	5.67	
2025-01-06 13:52:34.33	254.40	5.68	
2025-01-06 13:52:34.55	254.43	5.68	
2025-01-06 13:52:34.75	254.46	5.69	
2025-01-06 13:52:34.96	254.50	5.70	
2025-01-06 13:52:35.16	254.53	5.71	
2025-01-06 13:52:35.37	254.56	5.71	
2025-01-06 13:52:35.57	254.59	5.72	
2025-01-06 13:52:35.78	254.62	5.73	
2025-01-06 13:52:35.98	254.66	5.73	
2025-01-06 13:52:36.19	254.69	5.74	
2025-01-06 13:52:36.39	254.72	5.75	
2025-01-06 13:52:36.60	254.75	5.75	
2025-01-06 13:52:36.80	254.78	5.76	
2025-01-06 13:52:37.01	254.82	5.77	
2025-01-06 13:52:37.21	254.85	5.78	
2025-01-06 13:52:37.42	254.88	5.78	
2025-01-06 13:52:37.62	254.91	5.79	
2025-01-06 13:52:37.82	254.95	5.80	
2025-01-06 13:52:38.03	254.98	5.80	
2025-01-06 13:52:38.23	255.01	5.81	
2025-01-06 13:52:38.44	255.04	5.82	
2025-01-06 13:52:38.64	255.08	5.82	
2025-01-06 13:52:38.85	255.11	5.83	
2025-01-06 13:52:39.05	255.14	5.84	
2025-01-06 13:52:39.26	255.17	5.85	
2025-01-06 13:52:39.46	255.21	5.85	
2025-01-06 13:52:39.67	255.24	5.86	
2025-01-06 13:52:39.87	255.27	5.87	
2025-01-06 13:52:40.08	255.30	5.87	
2025-01-06 13:52:40.28	255.34	5.88	
2025-01-06 13:52:40.49	255.37	5.89	
2025-01-06 13:52:40.69	255.40	5.89	
2025-01-06 13:52:40.90	255.43	5.90	
2025-01-06 13:52:41.10	255.47	5.91	
2025-01-06 13:52:41.31	255.50	5.91	
2025-01-06 13:52:41.51	255.53	5.92	
2025-01-06 13:52:41.72	255.57	5.93	
2025-01-06 13:52:41.92	255.60	5.93	
2025-01-06 13:52:42.13	255.63	5.94	
2025-01-06 13:52:42.34	255.66	5.95	
2025-01-06 13:52:42.54	255.70	5.96	
2025-01-06 13:52:42.75	255.73	5.96	
2025-01-06 13:52:42.95	255.76	5.97	
2025-01-06 13:52:43.15	255.79	5.98	
2025-01-06 13:52:43.36	255.83	5.98	
2025-01-06 13:52:43.57	255.86	5.99	
2025-01-06 13:52:43.77	255.89	6.00	
2025-01-06 13:52:43.98	255.93	6.00	
2025-01-06 13:52:44.18	255.96	6.01	
2025-01-06 13:52:44.38	255.99	6.02	
2025-01-06 13:52:44.59	256.02	6.02	
2025-01-06 13:52:44.80	256.06	6.03	
2025-01-06 13:52:45.00	256.09	6.04	
2025-01-06 13:52:45.21	256.12	6.04	
2025-01-06 13:52:45.41	256.16	6.05	
2025-01-06 13:52:45.62	256.19	6.06	
2025-01-06 13:52:45.82	256.22	6.06	
2025-01-06 13:52:46.03	256.26	6.07	
2025-01-06 13:52:46.23	256.29	6.08	
2025-01-06 13:52:46.44	256.32	6.08	
2025-01-06 13:52:46.64	256.36	6.09	
2025-01-06 13:52:46.85	256.39	6.10	
2025-01-06 13:52:47.06	256.42	6.10	
2025-01-06 13:52:47.26	256.46	6.11	
2025-01-06 13:52:47.47	256.49	6.12	
2025-01-06 13:52:47.67	256.52	6.12	
2025-01-06 13:52:47.88	256.56	6.13	
2025-01-06 13:52:48.08	256.59	6.14	
2025-01-06 13:52:48.29	256.62	6.14	
2025-01-06 13:52:48.50	256.66	6.15	
2025-01-06 13:52:48.70	256.69	6.16	
2025-01-06 13:52:48.91	256.72	6.16	
2025-01-06 13:52:49.11	256.76	6.17	
2025-01-06 13:52:49.32	256.79	6.18	
2025-01-06 13:52:49.52	256.82	6.18	
2025-01-06 13:52:49.72	256.85	6.19	
2025-01-06 13:52:49.93	256.89	6.20	
2025-01-06 13:52:50.13	256.92	6.20	
2025-01-06 13:52:50.34	256.96	6.21	
2025-01-06 13:52:50.54	256.99	6.22	
2025-01-06 13:52:50.75	257.02	6.22	
2025-01-06 13:52:50.95	257.05	6.23	
2025-01-06 13:52:51.16	257.09	6.24	
2025-01-06 13:52:51.37	257.12	6.24	
2025-01-06 13:52:51.57	257.16	6.25	
2025-01-06 13:52:51.77	257.19	6.26	
2025-01-06 13:52:51.98	257.22	6.26	
2025-01-06 13:52:52.19	257.26	6.27	
2025-01-06 13:52:52.39	257.29	6.28	
2025-01-06 13:52:52.60	257.32	6.28	
2025-01-06 13:52:52.80	257.36	6.29	
2025-01-06 13:52:53.01	257.39	6.30	
2025-01-06 13:52:53.21	257.42	6.30	
2025-01-06 13:52:53.42	257.46	6.31	
2025-01-06 13:52:53.62	257.49	6.32	
2025-01-06 13:52:53.82	257.52	6.32	
2025-01-06 13:52:54.03	257.56	6.33	
2025-01-06 13:52:54.24	257.59	6.34	
2025-01-06 13:52:54.44	257.63	6.34	
2025-01-06 13:52:54.65	257.66	6.35	
2025-01-06 13:52:54.85	257.69	6.36	
2025-01-06 13:52:55.05	257.73	6.36	
2025-01-06 13:52:55.26	257.76	6.37	
2025-01-06 13:52:55.46	257.79	6.37	
2025-01-06 13:52:55.67	257.83	6.38	
2025-01-06 13:52:55.87	257.86	6.39	
2025-01-06 13:52:56.08	257.90	6.39	
2025-01-06 13:52:56.29	257.93	6.40	
2025-01-06 13:52:56.49	257.96	6.41	
2025-01-06 13:52:56.70	258.00	6.41	
2025-01-06 13:52:56.90	258.03	6.42	
2025-01-06 13:52:57.11	258.07	6.43	
2025-01-06 13:52:57.31	258.10	6.43	
2025-01-06 13:52:57.52	258.13	6.44	
2025-01-06 13:52:57.73	258.17	6.45	
2025-01-06 13:52:57.93	258.20	6.45	
2025-01-06 13:52:58.14	258.24	6.46	
2025-01-06 13:52:58.34	258.27	6.47	
2025-01-06 13:52:58.55	258.30	6.47	
2025-01-06 13:52:58.75	258.34	6.48	
2025-01-06 13:52:58.95	258.37	6.48	
2025-01-06 13:52:59.16	258.41	6.49	
2025-01-06 13:52:59.37	258.44	6.50	
2025-01-06 13:52:59.57	258.47	6.50	
2025-01-06 13:52:59.78	258.51	6.51	
2025-01-06 13:52:59.98	258.54	6.52	
2025-01-06 13:53:00.19	258.58	6.52	
2025-01-06 13:53:00.41	258.61	6.53	
2025-01-06 13:53:00.61	258.65	6.54	
2025-01-06 13:53:00.82	258.68	6.54	
2025-01-06 13:53:01.02	258.72	6.55	
2025-01-06 13:53:01.23	258.75	6.55	
2025-01-06 13:53:01.43	258.78	6.56	
2025-01-06 13:53:01.64	258.82	6.57	
2025-01-06 13:53:01.84	258.85	6.57	
2025-01-06 13:53:02.05	258.89	6.58	
2025-01-06 13:53:02.25	258.92	6.59	
2025-01-06 13:53:02.46	258.96	6.59	
2025-01-06 13:53:02.66	258.99	6.60	
2025-01-06 13:53:02.87	259.03	6.60	
2025-01-06 13:53:03.08	259.06	6.61	
2025-01-06 13:53:03.28	259.09	6.62	
2025-01-06 13:53:03.49	259.13	6.62	
2025-01-06 13:53:03.69	259.16	6.63	
2025-01-06 13:53:03.90	259.20	6.64	
2025-01-06 13:53:04.10	259.23	6.64	
2025-01-06 13:53:04.31	259.27	6.65	
2025-01-06 13:53:04.51	259.30	6.65	
2025-01-06 13:53:04.72	259.34	6.66	
2025-01-06 13:53:04.92	259.37	6.67	
2025-01-06 13:53:05.13	259.40	6.67	
2025-01-06 13:53:05.33	259.44	6.68	
2025-01-06 13:53:05.55	259.48	6.69	
2025-01-06 13:53:05.76	259.51	6.69	
2025-01-06 13:53:05.97	259.55	6.70	
2025-01-06 13:53:06.18	259.58	6.70	
2025-01-06 13:53:06.39	259.62	6.71	
2025-01-06 13:53:06.59	259.65	6.72	
2025-01-06 13:53:06.80	259.69	6.72	
2025-01-06 13:53:07.00	259.72	6.73	
2025-01-06 13:53:07.21	259.76	6.74	
2025-01-06 13:53:07.41	259.79	6.74	
2025-01-06 13:53:07.62	259.83	6.75	
2025-01-06 13:53:07.82	259.86	6.75	
2025-01-06 13:53:08.03	259.89	6.76	
2025-01-06 13:53:08.23	259.93	6.77	
2025-01-06 13:53:08.44	259.96	6.77	
2025-01-06 13:53:08.64	260.00	6.78	
2025-01-06 13:53:08.85	260.03	6.78	
2025-01-06 13:53:09.05	260.07	6.79	
2025-01-06 13:53:09.26	260.10	6.80	
2025-01-06 13:53:09.47	260.14	6.80	
2025-01-06 13:53:09.67	260.17	6.81	
2025-01-06 13:53:09.88	260.21	6.81	
2025-01-06 13:53:10.08	260.24	6.82	
2025-01-06 13:53:10.29	260.28	6.83	
2025-01-06 13:53:10.50	260.31	6.83	
2025-01-06 13:53:10.70	260.35	6.84	
2025-01-06 13:53:10.90	260.38	6.84	
2025-01-06 13:53:11.11	260.42	6.85	
2025-01-06 13:53:11.31	260.45	6.86	
2025-01-06 13:53:11.52	260.49	6.86	
2025-01-06 13:53:11.74	260.53	6.87	
2025-01-06 13:53:11.96	260.56	6.87	
2025-01-06 13:53:12.17	260.60	6.88	
2025-01-06 13:53:12.37	260.63	6.89	
2025-01-06 13:53:12.58	260.67	6.89	
2025-01-06 13:53:12.78	260.70	6.90	
2025-01-06 13:53:12.99	260.74	6.90	
2025-01-06 13:53:13.19	260.77	6.91	
2025-01-06 13:53:13.40	260.81	6.92	
2025-01-06 13:53:13.60	260.84	6.92	
2025-01-06 13:53:13.81	260.88	6.93	
2025-01-06 13:53:14.01	260.91	6.93	
2025-01-06 13:53:14.22	260.95	6.94	
2025-01-06 13:53:14.42	260.98	6.95	
2025-01-06 13:53:14.63	261.02	6.95	
2025-01-06 13:53:14.83	261.05	6.96	
2025-01-06 13:53:15.04	261.09	6.96	
2025-01-06 13:53:15.24	261.13	6.97	
2025-01-06 13:53:15.45	261.16	6.97	
2025-01-06 13:53:15.65	261.20	6.98	
2025-01-06 13:53:15.86	261.23	6.99	
2025-01-06 13:53:16.06	261.27	6.99	
2025-01-06 13:53:16.27	261.30	7.00	
2025-01-06 13:53:16.47	261.34	7.00	
2025-01-06 13:53:16.68	261.37	7.01	
2025-01-06 13:53:16.89	261.41	7.02	
2025-01-06 13:53:17.09	261.44	7.02	
2025-01-06 13:53:17.30	261.48	7.03	
2025-01-06 13:53:17.50	261.51	7.03	
2025-01-06 13:53:17.71	261.55	7.04	
2025-01-06 13:53:17.91	261.59	7.04	
2025-01-06 13:53:18.12	261.62	7.05	
2025-01-06 13:53:18.32	261.66	7.06	
2025-01-06 13:53:18.53	261.69	7.06	
2025-01-06 13:53:18.73	261.73	7.07	
2025-01-06 13:53:18.94	261.76	7.07	
2025-01-06 13:53:19.15	261.80	7.08	
2025-01-06 13:53:19.36	261.84	7.08	
2025-01-06 13:53:19.57	261.87	7.09	
2025-01-06 13:53:19.77	261.91	7.10	
2025-01-06 13:53:19.98	261.94	7.10	
2025-01-06 13:53:20.19	261.98	7.11	
2025-01-06 13:53:20.40	262.02	7.11	
2025-01-06 13:53:20.61	262.05	7.12	
2025-01-06 13:53:20.82	262.09	7.12	
2025-01-06 13:53:21.02	262.13	7.13	
2025-01-06 13:53:21.23	262.16	7.14	
2025-01-06 13:53:21.43	262.20	7.14	
2025-01-06 13:53:21.64	262.23	7.15	
2025-01-06 13:53:21.84	262.27	7.15	
2025-01-06 13:53:22.05	262.30	7.16	
2025-01-06 13:53:22.25	262.34	7.16	
2025-01-06 13:53:22.46	262.38	7.17	
2025-01-06 13:53:22.66	262.41	7.18	
2025-01-06 13:53:22.87	262.45	7.18	
2025-01-06 13:53:23.08	262.48	7.19	
2025-01-06 13:53:23.28	262.52	7.19	
2025-01-06 13:53:23.49	262.56	7.20	
2025-01-06 13:53:23.69	262.59	7.20	
2025-01-06 13:53:23.89	262.63	7.21	
2025-01-06 13:53:24.10	262.66	7.21	
2025-01-06 13:53:24.31	262.70	7.22	
2025-01-06 13:53:24.51	262.73	7.22	
2025-01-06 13:53:24.72	262.77	7.23	
2025-01-06 13:53:24.92	262.81	7.24	
2025-01-06 13:53:25.13	262.84	7.24	
2025-01-06 13:53:25.33	262.88	7.25	
2025-01-06 13:53:25.54	262.91	7.25	
2025-01-06 13:53:25.74	262.95	7.26	
2025-01-06 13:53:25.95	262.99	7.26	
2025-01-06 13:53:26.15	263.02	7.27	
2025-01-06 13:53:26.36	263.06	7.27	
2025-01-06 13:53:26.56	263.09	7.28	
2025-01-06 13:53:26.77	263.13	7.28	
2025-01-06 13:53:26.97	263.17	7.29	
2025-01-06 13:53:27.17	263.20	7.30	
2025-01-06 13:53:27.38	263.24	7.30	
2025-01-06 13:53:27.58	263.27	7.31	
2025-01-06 13:53:27.79	263.31	7.31	
2025-01-06 13:53:27.99	263.35	7.32	
2025-01-06 13:53:28.20	263.38	7.32	
2025-01-06 13:53:28.40	263.42	7.33	
2025-01-06 13:53:28.61	263.46	7.33	
2025-01-06 13:53:28.81	263.49	7.34	
2025-01-06 13:53:29.02	263.53	7.34	
2025-01-06 13:53:29.22	263.56	7.35	
2025-01-06 13:53:29.43	263.60	7.35	
2025-01-06 13:53:29.63	263.64	7.36	
2025-01-06 13:53:29.84	263.67	7.36	
2025-01-06 13:53:30.04	263.71	7.37	
2025-01-06 13:53:30.25	263.75	7.38	
2025-01-06 13:53:30.45	263.78	7.38	
2025-01-06 13:53:30.66	263.82	7.39	
2025-01-06 13:53:30.86	263.85	7.39	
2025-01-06 13:53:31.08	263.89	7.40	
2025-01-06 13:53:31.29	263.93	7.40	
2025-01-06 13:53:31.49	263.96	7.41	
2025-01-06 13:53:31.70	264.00	7.41	
2025-01-06 13:53:31.90	264.04	7.42	
2025-01-06 13:53:32.11	264.08	7.42	
2025-01-06 13:53:32.31	264.11	7.43	
2025-01-06 13:53:32.52	264.15	7.43	
2025-01-06 13:53:32.72	264.18	7.44	
2025-01-06 13:53:32.93	264.22	7.44	
2025-01-06 13:53:33.13	264.26	7.45	
2025-01-06 13:53:33.34	264.29	7.45	
2025-01-06 13:53:33.55	264.33	7.46	
2025-01-06 13:53:33.75	264.37	7.46	
2025-01-06 13:53:33.96	264.40	7.47	
2025-01-06 13:53:34.16	264.44	7.47	
2025-01-06 13:53:34.37	264.48	7.48	
2025-01-06 13:53:34.57	264.51	7.48	
2025-01-06 13:53:34.78	264.55	7.49	
2025-01-06 13:53:34.99	264.59	7.49	
2025-01-06 13:53:35.19	264.62	7.50	
2025-01-06 13:53:35.40	264.66	7.51	
2025-01-06 13:53:35.60	264.70	7.51	
2025-01-06 13:53:35.81	264.73	7.52	
2025-01-06 13:53:36.01	264.77	7.52	
2025-01-06 13:53:36.22	264.81	7.53	
2025-01-06 13:53:36.42	264.84	7.53	
2025-01-06 13:53:36.63	264.88	7.54	
2025-01-06 13:53:36.84	264.92	7.54	
2025-01-06 13:53:37.04	264.95	7.55	
2025-01-06 13:53:37.25	264.99	7.55	
2025-01-06 13:53:37.45	265.03	7.56	
2025-01-06 13:53:37.65	265.06	7.56	
2025-01-06 13:53:37.86	265.10	7.57	
2025-01-06 13:53:38.07	265.14	7.57	
2025-01-06 13:53:38.27	265.18	7.58	
2025-01-06 13:53:38.48	265.21	7.58	
2025-01-06 13:53:38.68	265.25	7.58	
2025-01-06 13:53:38.88	265.29	7.59	
2025-01-06 13:53:39.09	265.32	7.59	
2025-01-06 13:53:39.30	265.36	7.60	
2025-01-06 13:53:39.50	265.40	7.60	
2025-01-06 13:53:39.71	265.43	7.61	
2025-01-06 13:53:39.91	265.47	7.61	
2025-01-06 13:53:40.12	265.51	7.62	
2025-01-06 13:53:40.32	265.54	7.62	
2025-01-06 13:53:40.53	265.58	7.63	
2025-01-06 13:53:40.73	265.62	7.63	
2025-01-06 13:53:40.94	265.66	7.64	
2025-01-06 13:53:41.14	265.69	7.64	
2025-01-06 13:53:41.35	265.73	7.65	
2025-01-06 13:53:41.56	265.77	7.65	
2025-01-06 13:53:41.76	265.80	7.66	
2025-01-06 13:53:41.96	265.84	7.66	
2025-01-06 13:53:42.17	265.88	7.67	
2025-01-06 13:53:42.38	265.92	7.67	
2025-01-06 13:53:42.58	265.95	7.68	
2025-01-06 13:53:42.78	265.99	7.68	
2025-01-06 13:53:42.99	266.03	7.69	
2025-01-06 13:53:43.19	266.06	7.69	
2025-01-06 13:53:43.40	266.10	7.70	
2025-01-06 13:53:43.61	266.14	7.70	
2025-01-06 13:53:43.81	266.18	7.71	
2025-01-06 13:53:44.01	266.21	7.71	
2025-01-06 13:53:44.22	266.25	7.71	
2025-01-06 13:53:44.42	266.29	7.72	
2025-01-06 13:53:44.63	266.32	7.72	
2025-01-06 13:53:44.83	266.36	7.73	
2025-01-06 13:53:45.04	266.40	7.73	
2025-01-06 13:53:45.24	266.43	7.74	
2025-01-06 13:53:45.45	266.47	7.74	
2025-01-06 13:53:45.65	266.51	7.75	
2025-01-06 13:53:45.86	266.55	7.75	
2025-01-06 13:53:46.06	266.58	7.76	
2025-01-06 13:53:46.27	266.62	7.76	
2025-01-06 13:53:46.47	266.66	7.77	
2025-01-06 13:53:46.68	266.70	7.77	
2025-01-06 13:53:46.88	266.73	7.77	
2025-01-06 13:53:47.08	266.77	7.78	
2025-01-06 13:53:47.29	266.81	7.78	
2025-01-06 13:53:47.50	266.85	7.79	
2025-01-06 13:53:47.70	266.88	7.79	
2025-01-06 13:53:47.91	266.92	7.80	
2025-01-06 13:53:48.11	266.96	7.80	
2025-01-06 13:53:48.32	267.00	7.81	
2025-01-06 13:53:48.52	267.03	7.81	
2025-01-06 13:53:48.73	267.07	7.82	
2025-01-06 13:53:48.93	267.11	7.82	
2025-01-06 13:53:49.14	267.15	7.82	
2025-01-06 13:53:49.34	267.18	7.83	
2025-01-06 13:53:49.55	267.22	7.83	
2025-01-06 13:53:49.75	267.26	7.84	
2025-01-06 13:53:49.96	267.30	7.84	
2025-01-06 13:53:50.16	267.33	7.85	
2025-01-06 13:53:50.36	267.37	7.85	
2025-01-06 13:53:50.57	267.41	7.86	
2025-01-06 13:53:50.77	267.44	7.86	
2025-01-06 13:53:50.98	267.48	7.86	
2025-01-06 13:53:51.18	267.52	7.87	
2025-01-06 13:53:51.40	267.56	7.87	
2025-01-06 13:53:51.61	267.60	7.88	
2025-01-06 13:53:51.81	267.63	7.88	
2025-01-06 13:53:52.02	267.67	7.89	
2025-01-06 13:53:52.22	267.71	7.89	
2025-01-06 13:53:52.44	267.75	7.90	
2025-01-06 13:53:52.65	267.79	7.90	
2025-01-06 13:53:52.86	267.83	7.90	
2025-01-06 13:53:53.07	267.87	7.91	
2025-01-06 13:53:53.28	267.90	7.91	
2025-01-06 13:53:53.48	267.94	7.92	
2025-01-06 13:53:53.68	267.98	7.92	
2025-01-06 13:53:53.89	268.02	7.93	
2025-01-06 13:53:54.09	268.05	7.93	
2025-01-06 13:53:54.30	268.09	7.93	
2025-01-06 13:53:54.50	268.13	7.94	
2025-01-06 13:53:54.71	268.17	7.94	
2025-01-06 13:53:54.92	268.21	7.95	
2025-01-06 13:53:55.12	268.24	7.95	
2025-01-06 13:53:55.33	268.28	7.96	
2025-01-06 13:53:55.53	268.32	7.96	
2025-01-06 13:53:55.73	268.36	7.96	
2025-01-06 13:53:55.94	268.40	7.97	
2025-01-06 13:53:56.15	268.43	7.97	
2025-01-06 13:53:56.35	268.47	7.98	
2025-01-06 13:53:56.56	268.51	7.98	
2025-01-06 13:53:56.76	268.55	7.98	
2025-01-06 13:53:56.97	268.59	7.99	
2025-01-06 13:53:57.17	268.62	7.99	
2025-01-06 13:53:57.38	268.66	8.00	
2025-01-06 13:53:57.58	268.70	8.00	
2025-01-06 13:53:57.79	268.74	8.01	
2025-01-06 13:53:57.99	268.77	8.01	
2025-01-06 13:53:58.20	268.81	8.01	
2025-01-06 13:53:58.41	268.85	8.02	
2025-01-06 13:53:58.61	268.89	8.02	
2025-01-06 13:53:58.82	268.93	8.03	
2025-01-06 13:53:59.02	268.97	8.03	
2025-01-06 13:53:59.23	269.00	8.03	
2025-01-06 13:53:59.43	269.04	8.04	
2025-01-06 13:53:59.64	269.08	8.04	
2025-01-06 13:53:59.84	269.12	8.05	
2025-01-06 13:54:00.04	269.15	8.05	
2025-01-06 13:54:00.25	269.19	8.05	
2025-01-06 13:54:00.45	269.23	8.06	
2025-01-06 13:54:00.66	269.27	8.06	
2025-01-06 13:54:00.86	269.31	8.07	
2025-01-06 13:54:01.07	269.35	8.07	
2025-01-06 13:54:01.27	269.38	8.07	
2025-01-06 13:54:01.48	269.42	8.08	
2025-01-06 13:54:01.69	269.46	8.08	
2025-01-06 13:54:01.89	269.50	8.08	
2025-01-06 13:54:02.10	269.54	8.09	
2025-01-06 13:54:02.30	269.58	8.09	
2025-01-06 13:54:02.51	269.61	8.10	
2025-01-06 13:54:02.72	269.65	8.10	
2025-01-06 13:54:02.92	269.69	8.10	
2025-01-06 13:54:03.12	269.73	8.11	
2025-01-06 13:54:03.33	269.77	8.11	
2025-01-06 13:54:03.53	269.80	8.12	
2025-01-06 13:54:03.74	269.84	8.12	
2025-01-06 13:54:03.94	269.88	8.12	
2025-01-06 13:54:04.15	269.92	8.13	
2025-01-06 13:54:04.35	269.96	8.13	
2025-01-06 13:54:04.56	270.00	8.13	
2025-01-06 13:54:04.77	270.04	8.14	
2025-01-06 13:54:04.97	270.07	8.14	
2025-01-06 13:54:05.18	270.11	8.15	
2025-01-06 13:54:05.38	270.15	8.15	
2025-01-06 13:54:05.59	270.19	8.15	
2025-01-06 13:54:05.79	270.23	8.16	
2025-01-06 13:54:06.00	270.27	8.16	
2025-01-06 13:54:06.20	270.30	8.16	
2025-01-06 13:54:06.40	270.34	8.17	
2025-01-06 13:54:06.61	270.38	8.17	
2025-01-06 13:54:06.81	270.42	8.18	
2025-01-06 13:54:07.02	270.46	8.18	
2025-01-06 13:54:07.22	270.50	8.18	
2025-01-06 13:54:07.42	270.53	8.19	
2025-01-06 13:54:07.63	270.57	8.19	
2025-01-06 13:54:07.84	270.61	8.19	
2025-01-06 13:54:08.04	270.65	8.20	
2025-01-06 13:54:08.25	270.69	8.20	
2025-01-06 13:54:08.45	270.73	8.20	
2025-01-06 13:54:08.65	270.76	8.21	
2025-01-06 13:54:08.86	270.80	8.21	
2025-01-06 13:54:09.06	270.84	8.21	
2025-01-06 13:54:09.27	270.88	8.22	
2025-01-06 13:54:09.47	270.92	8.22	
2025-01-06 13:54:09.68	270.96	8.23	
2025-01-06 13:54:09.88	271.00	8.23	
2025-01-06 13:54:10.09	271.03	8.23	
2025-01-06 13:54:10.29	271.07	8.24	
2025-01-06 13:54:10.50	271.11	8.24	
2025-01-06 13:54:10.70	271.15	8.24	
2025-01-06 13:54:10.91	271.19	8.25	
2025-01-06 13:54:11.11	271.23	8.25	
2025-01-06 13:54:11.32	271.27	8.25	
2025-01-06 13:54:11.52	271.30	8.26	
2025-01-06 13:54:11.73	271.34	8.26	
2025-01-06 13:54:11.94	271.38	8.26	
2025-01-06 13:54:12.14	271.42	8.27	
2025-01-06 13:54:12.35	271.46	8.27	
2025-01-06 13:54:12.55	271.50	8.27	
2025-01-06 13:54:12.77	271.54	8.28	
2025-01-06 13:54:12.97	271.58	8.28	
2025-01-06 13:54:13.18	271.62	8.28	
2025-01-06 13:54:13.39	271.66	8.29	
2025-01-06 13:54:13.59	271.69	8.29	
2025-01-06 13:54:13.81	271.74	8.29	
2025-01-06 13:54:14.02	271.78	8.30	
2025-01-06 13:54:14.22	271.81	8.30	
2025-01-06 13:54:14.43	271.85	8.30	
2025-01-06 13:54:14.63	271.89	8.31	
2025-01-06 13:54:14.83	271.93	8.31	
2025-01-06 13:54:15.04	271.97	8.31	
2025-01-06 13:54:15.25	272.01	8.32	
2025-01-06 13:54:15.45	272.05	8.32	
2025-01-06 13:54:15.66	272.09	8.32	
2025-01-06 13:54:15.88	272.13	8.33	
2025-01-06 13:54:16.08	272.17	8.33	
2025-01-06 13:54:16.29	272.21	8.33	
2025-01-06 13:54:16.49	272.24	8.34	
2025-01-06 13:54:16.70	272.28	8.34	
2025-01-06 13:54:16.90	272.32	8.34	
2025-01-06 13:54:17.11	272.36	8.35	
2025-01-06 13:54:17.33	272.40	8.35	
2025-01-06 13:54:17.53	272.44	8.35	
2025-01-06 13:54:17.73	272.48	8.36	
2025-01-06 13:54:17.93	272.52	8.36	
2025-01-06 13:54:18.14	272.56	8.36	
2025-01-06 13:54:18.35	272.60	8.36	
2025-01-06 13:54:18.55	272.63	8.37	
2025-01-06 13:54:18.76	272.67	8.37	
2025-01-06 13:54:18.96	272.71	8.37	
2025-01-06 13:54:19.17	272.75	8.38	
2025-01-06 13:54:19.37	272.79	8.38	
2025-01-06 13:54:19.58	272.83	8.38	
2025-01-06 13:54:19.78	272.87	8.39	
2025-01-06 13:54:19.99	272.91	8.39	
2025-01-06 13:54:20.19	272.95	8.39	
2025-01-06 13:54:20.40	272.99	8.40	
2025-01-06 13:54:20.60	273.02	8.40	
2025-01-06 13:54:20.81	273.06	8.40	
2025-01-06 13:54:21.02	273.10	8.40	
2025-01-06 13:54:21.22	273.14	8.41	
2025-01-06 13:54:21.42	273.18	8.41	
2025-01-06 13:54:21.63	273.22	8.41	
2025-01-06 13:54:21.83	273.26	8.42	
2025-01-06 13:54:22.04	273.30	8.42	
2025-01-06 13:54:22.24	273.34	8.42	
2025-01-06 13:54:22.45	273.38	8.42	
2025-01-06 13:54:22.66	273.42	8.43	
2025-01-06 13:54:22.87	273.46	8.43	
2025-01-06 13:54:23.08	273.50	8.43	
2025-01-06 13:54:23.28	273.54	8.44	
2025-01-06 13:54:23.49	273.58	8.44	
2025-01-06 13:54:23.69	273.61	8.44	
2025-01-06 13:54:23.90	273.65	8.44	
2025-01-06 13:54:24.10	273.69	8.45	
2025-01-06 13:54:24.31	273.73	8.45	
2025-01-06 13:54:24.51	273.77	8.45	
2025-01-06 13:54:24.72	273.81	8.46	
2025-01-06 13:54:24.93	273.85	8.46	
2025-01-06 13:54:25.13	273.89	8.46	
2025-01-06 13:54:25.34	273.93	8.46	
2025-01-06 13:54:25.54	273.97	8.47	
2025-01-06 13:54:25.74	274.01	8.47	
2025-01-06 13:54:25.95	274.05	8.47	
2025-01-06 13:54:26.16	274.09	8.47	
2025-01-06 13:54:26.36	274.12	8.48	
2025-01-06 13:54:26.57	274.17	8.48	
2025-01-06 13:54:26.77	274.20	8.48	
2025-01-06 13:54:26.98	274.24	8.49	
2025-01-06 13:54:27.19	274.28	8.49	
2025-01-06 13:54:27.39	274.32	8.49	
2025-01-06 13:54:27.59	274.36	8.49	
2025-01-06 13:54:27.80	274.40	8.50	
2025-01-06 13:54:28.01	274.44	8.50	
2025-01-06 13:54:28.21	274.48	8.50	
2025-01-06 13:54:28.42	274.52	8.50	
2025-01-06 13:54:28.62	274.56	8.51	
2025-01-06 13:54:28.83	274.60	8.51	
2025-01-06 13:54:29.03	274.64	8.51	
2025-01-06 13:54:29.24	274.68	8.51	
2025-01-06 13:54:29.45	274.72	8.52	
2025-01-06 13:54:29.65	274.76	8.52	
2025-01-06 13:54:29.86	274.80	8.52	
2025-01-06 13:54:30.07	274.84	8.52	
2025-01-06 13:54:30.27	274.88	8.53	
2025-01-06 13:54:30.48	274.92	8.53	
2025-01-06 13:54:30.68	274.95	8.53	
2025-01-06 13:54:30.89	274.99	8.53	
2025-01-06 13:54:31.09	275.03	8.54	
2025-01-06 13:54:31.30	275.07	8.54	
2025-01-06 13:54:31.50	275.11	8.54	
2025-01-06 13:54:31.71	275.15	8.54	
2025-01-06 13:54:31.91	275.19	8.55	
2025-01-06 13:54:32.12	275.23	8.55	
2025-01-06 13:54:32.32	275.27	8.55	
2025-01-06 13:54:32.53	275.31	8.55	
2025-01-06 13:54:32.73	275.35	8.55	
2025-01-06 13:54:32.93	275.39	8.56	
2025-01-06 13:54:33.14	275.43	8.56	
2025-01-06 13:54:33.35	275.47	8.56	
2025-01-06 13:54:33.55	275.51	8.56	
2025-01-06 13:54:33.76	275.55	8.57	
2025-01-06 13:54:33.96	275.59	8.57	
2025-01-06 13:54:34.17	275.63	8.57	
2025-01-06 13:54:34.37	275.66	8.57	
2025-01-06 13:54:34.58	275.70	8.58	
2025-01-06 13:54:34.78	275.74	8.58	
2025-01-06 13:54:34.99	275.78	8.58	
2025-01-06 13:54:35.19	275.82	8.58	
2025-01-06 13:54:35.40	275.86	8.58	
2025-01-06 13:54:35.60	275.90	8.59	
2025-01-06 13:54:35.81	275.94	8.59	
2025-01-06 13:54:36.01	275.98	8.59	
2025-01-06 13:54:36.22	276.02	8.59	
2025-01-06 13:54:36.43	276.06	8.60	
2025-01-06 13:54:36.63	276.10	8.60	
2025-01-06 13:54:36.84	276.14	8.60	
2025-01-06 13:54:37.04	276.18	8.60	
2025-01-06 13:54:37.25	276.22	8.60	
2025-01-06 13:54:37.45	276.26	8.61	
2025-01-06 13:54:37.66	276.30	8.61	
2025-01-06 13:54:37.86	276.34	8.61	
2025-01-06 13:54:38.07	276.38	8.61	
2025-01-06 13:54:38.27	276.42	8.61	
2025-01-06 13:54:38.48	276.46	8.62	
2025-01-06 13:54:38.68	276.50	8.62	
2025-01-06 13:54:38.89	276.54	8.62	
2025-01-06 13:54:39.10	276.58	8.62	
2025-01-06 13:54:39.30	276.62	8.62	
2025-01-06 13:54:39.51	276.66	8.63	
2025-01-06 13:54:39.71	276.70	8.63	
2025-01-06 13:54:39.92	276.74	8.63	
2025-01-06 13:54:40.12	276.78	8.63	
2025-01-06 13:54:40.33	276.82	8.63	
2025-01-06 13:54:40.53	276.85	8.64	
2025-01-06 13:54:40.74	276.90	8.64	
2025-01-06 13:54:40.94	276.93	8.64	
2025-01-06 13:54:41.15	276.97	8.64	
2025-01-06 13:54:41.36	277.02	8.64	
2025-01-06 13:54:41.56	277.05	8.64	
2025-01-06 13:54:41.76	277.09	8.65	
2025-01-06 13:54:41.97	277.13	8.65	
2025-01-06 13:54:42.17	277.17	8.65	
2025-01-06 13:54:42.38	277.21	8.65	
2025-01-06 13:54:42.58	277.25	8.65	
2025-01-06 13:54:42.79	277.29	8.66	
2025-01-06 13:54:42.99	277.33	8.66	
2025-01-06 13:54:43.21	277.37	8.66	
2025-01-06 13:54:43.41	277.41	8.66	
2025-01-06 13:54:43.62	277.45	8.66	
2025-01-06 13:54:43.82	277.49	8.66	
2025-01-06 13:54:44.03	277.53	8.67	
2025-01-06 13:54:44.23	277.57	8.67	
2025-01-06 13:54:44.44	277.61	8.67	
2025-01-06 13:54:44.64	277.65	8.67	
2025-01-06 13:54:44.85	277.69	8.67	
2025-01-06 13:54:45.05	277.73	8.67	
2025-01-06 13:54:45.26	277.77	8.68	
2025-01-06 13:54:45.47	277.81	8.68	
2025-01-06 13:54:45.67	277.85	8.68	
2025-01-06 13:54:45.87	277.89	8.68	
2025-01-06 13:54:46.08	277.93	8.68	
2025-01-06 13:54:46.28	277.97	8.68	
2025-01-06 13:54:46.49	278.01	8.69	
2025-01-06 13:54:46.70	278.05	8.69	
2025-01-06 13:54:46.90	278.09	8.69	
2025-01-06 13:54:47.10	278.13	8.69	
2025-01-06 13:54:47.31	278.17	8.69	
2025-01-06 13:54:47.51	278.21	8.69	
2025-01-06 13:54:47.72	278.25	8.70	
2025-01-06 13:54:47.94	278.29	8.70	
2025-01-06 13:54:48.14	278.33	8.70	
2025-01-06 13:54:48.35	278.37	8.70	
2025-01-06 13:54:48.55	278.41	8.70	
2025-01-06 13:54:48.76	278.45	8.70	
2025-01-06 13:54:48.96	278.49	8.70	
2025-01-06 13:54:49.16	278.53	8.71	
2025-01-06 13:54:49.37	278.57	8.71	
2025-01-06 13:54:49.58	278.61	8.71	
2025-01-06 13:54:49.78	278.65	8.71	
2025-01-06 13:54:49.99	278.69	8.71	
2025-01-06 13:54:50.19	278.73	8.71	
2025-01-06 13:54:50.40	278.77	8.71	
2025-01-06 13:54:50.60	278.81	8.72	
2025-01-06 13:54:50.81	278.85	8.72	
2025-01-06 13:54:51.01	278.89	8.72	
2025-01-06 13:54:51.22	278.93	8.72	
2025-01-06 13:54:51.43	278.97	8.72	
2025-01-06 13:54:51.63	279.01	8.72	
2025-01-06 13:54:51.84	279.05	8.72	
2025-01-06 13:54:52.04	279.09	8.73	
2025-01-06 13:54:52.25	279.13	8.73	
2025-01-06 13:54:52.45	279.17	8.73	
2025-01-06 13:54:52.66	279.21	8.73	
2025-01-06 13:54:52.86	279.25	8.73	
2025-01-06 13:54:53.07	279.29	8.73	
2025-01-06 13:54:53.27	279.33	8.73	
2025-01-06 13:54:53.48	279.37	8.73	
2025-01-06 13:54:53.68	279.41	8.73	
2025-01-06 13:54:53.89	279.45	8.74	
2025-01-06 13:54:54.10	279.49	8.74	
2025-01-06 13:54:54.30	279.53	8.74	
2025-01-06 13:54:54.50	279.57	8.74	
2025-01-06 13:54:54.71	279.61	8.74	
2025-01-06 13:54:54.92	279.65	8.74	
2025-01-06 13:54:55.12	279.69	8.74	
2025-01-06 13:54:55.33	279.73	8.74	
2025-01-06 13:54:55.53	279.77	8.75	
2025-01-06 13:54:55.74	279.81	8.75	
2025-01-06 13:54:55.94	279.85	8.75	
2025-01-06 13:54:56.15	279.89	8.75	
2025-01-06 13:54:56.35	279.93	8.75	
2025-01-06 13:54:56.56	279.97	8.75	
2025-01-06 13:54:56.76	280.01	8.75	
2025-01-06 13:54:56.97	280.05	8.75	
2025-01-06 13:54:57.18	280.09	8.75	
2025-01-06 13:54:57.38	280.13	8.75	
2025-01-06 13:54:57.60	280.18	8.76	
2025-01-06 13:54:57.80	280.21	8.76	
2025-01-06 13:54:58.01	280.26	8.76	
2025-01-06 13:54:58.21	280.29	8.76	
2025-01-06 13:54:58.42	280.34	8.76	
2025-01-06 13:54:58.62	280.38	8.76	
2025-01-06 13:54:58.83	280.42	8.76	
2025-01-06 13:54:59.03	280.46	8.76	
2025-01-06 13:54:59.24	280.50	8.76	
2025-01-06 13:54:59.45	280.54	8.76	
2025-01-06 13:54:59.66	280.58	8.76	
2025-01-06 13:54:59.87	280.62	8.77	
2025-01-06 13:55:00.07	280.66	8.77	
2025-01-06 13:55:00.28	280.70	8.77	
2025-01-06 13:55:00.49	280.74	8.77	
2025-01-06 13:55:00.69	280.78	8.77	
2025-01-06 13:55:00.89	280.82	8.77	
2025-01-06 13:55:01.10	280.86	8.77	
2025-01-06 13:55:01.31	280.90	8.77	
2025-01-06 13:55:01.51	280.94	8.77	
2025-01-06 13:55:01.72	280.98	8.77	
2025-01-06 13:55:01.92	281.02	8.77	
2025-01-06 13:55:02.13	281.06	8.77	
2025-01-06 13:55:02.33	281.10	8.77	
2025-01-06 13:55:02.54	281.14	8.78	
2025-01-06 13:55:02.74	281.18	8.78	
2025-01-06 13:55:02.95	281.22	8.78	
2025-01-06 13:55:03.15	281.26	8.78	
2025-01-06 13:55:03.36	281.30	8.78	
2025-01-06 13:55:03.56	281.34	8.78	
2025-01-06 13:55:03.77	281.38	8.78	
2025-01-06 13:55:03.97	281.42	8.78	
2025-01-06 13:55:04.18	281.46	8.78	
2025-01-06 13:55:04.39	281.50	8.78	
2025-01-06 13:55:04.59	281.54	8.78	
2025-01-06 13:55:04.80	281.58	8.78	
2025-01-06 13:55:05.00	281.62	8.78	
2025-01-06 13:55:05.21	281.66	8.78	
2025-01-06 13:55:05.41	281.70	8.78	
2025-01-06 13:55:05.62	281.74	8.78	
2025-01-06 13:55:05.82	281.78	8.79	
2025-01-06 13:55:06.03	281.82	8.79	
2025-01-06 13:55:06.23	281.86	8.79	
2025-01-06 13:55:06.44	281.90	8.79	
2025-01-06 13:55:06.64	281.94	8.79	
2025-01-06 13:55:06.85	281.98	8.79	
2025-01-06 13:55:07.05	282.02	8.79	
2025-01-06 13:55:07.26	282.06	8.79	
2025-01-06 13:55:07.46	282.10	8.79	
2025-01-06 13:55:07.67	282.14	8.79	
2025-01-06 13:55:07.88	282.19	8.79	
2025-01-06 13:55:08.08	282.22	8.79	
2025-01-06 13:55:08.29	282.27	8.79	
2025-01-06 13:55:08.49	282.31	8.79	
2025-01-06 13:55:08.70	282.35	8.79	
2025-01-06 13:55:08.90	282.39	8.79	
2025-01-06 13:55:09.11	282.43	8.79	
2025-01-06 13:55:09.31	282.47	8.79	
2025-01-06 13:55:09.52	282.51	8.79	
2025-01-06 13:55:09.73	282.55	8.79	
2025-01-06 13:55:09.93	282.59	8.79	
2025-01-06 13:55:10.14	282.63	8.79	
2025-01-06 13:55:10.34	282.67	8.79	
2025-01-06 13:55:10.55	282.71	8.79	
2025-01-06 13:55:10.75	282.75	8.79	
2025-01-06 13:55:10.96	282.79	8.79	
2025-01-06 13:55:11.16	282.83	8.79	
2025-01-06 13:55:11.37	282.87	8.79	
2025-01-06 13:55:11.57	282.91	8.79	
2025-01-06 13:55:11.78	282.95	8.79	
2025-01-06 13:55:11.98	282.99	8.80	
2025-01-06 13:55:12.19	283.03	8.80	
2025-01-06 13:55:12.41	283.07	8.80	
2025-01-06 13:55:12.61	283.11	8.80	
2025-01-06 13:55:12.82	283.15	8.80	
2025-01-06 13:55:13.02	283.19	8.80	
2025-01-06 13:55:13.23	283.23	8.80	
2025-01-06 13:55:13.45	283.28	8.80	
2025-01-06 13:55:13.65	283.32	8.80	
2025-01-06 13:55:13.86	283.36	8.80	
2025-01-06 13:55:14.06	283.40	8.80	
2025-01-06 13:55:14.27	283.44	8.80	
2025-01-06 13:55:14.47	283.48	8.80	
2025-01-06 13:55:14.68	283.52	8.80	
2025-01-06 13:55:14.88	283.56	8.80	
2025-01-06 13:55:15.09	283.60	8.80	
2025-01-06 13:55:15.29	283.64	8.80	
2025-01-06 13:55:15.50	283.68	8.80	
2025-01-06 13:55:15.72	283.72	8.80	
2025-01-06 13:55:15.92	283.76	8.80	
2025-01-06 13:55:16.13	283.80	8.80	
2025-01-06 13:55:16.33	283.84	8.80	
2025-01-06 13:55:16.54	283.88	8.80	
2025-01-06 13:55:16.76	283.92	8.80	
2025-01-06 13:55:16.96	283.96	8.80	
2025-01-06 13:55:17.17	284.00	8.80	
2025-01-06 13:55:17.37	284.04	8.80	
2025-01-06 13:55:17.58	284.08	8.80	
2025-01-06 13:55:17.78	284.12	8.80	
2025-01-06 13:55:17.99	284.16	8.79	
2025-01-06 13:55:18.19	284.20	8.79	
2025-01-06 13:55:18.40	284.25	8.79	
2025-01-06 13:55:18.60	284.28	8.79	
2025-01-06 13:55:18.81	284.33	8.79	
2025-01-06 13:55:19.01	284.36	8.79	
2025-01-06 13:55:19.22	284.41	8.79	
2025-01-06 13:55:19.43	284.45	8.79	
2025-01-06 13:55:19.63	284.49	8.79	
2025-01-06 13:55:19.83	284.52	8.79	
2025-01-06 13:55:20.04	284.57	8.79	
2025-01-06 13:55:20.25	284.61	8.79	
2025-01-06 13:55:20.45	284.65	8.79	
2025-01-06 13:55:20.66	284.69	8.79	
2025-01-06 13:55:20.86	284.73	8.79	
2025-01-06 13:55:21.07	284.77	8.79	
2025-01-06 13:55:21.27	284.81	8.79	
2025-01-06 13:55:21.48	284.85	8.79	
2025-01-06 13:55:21.68	284.89	8.79	
2025-01-06 13:55:21.89	284.93	8.79	
2025-01-06 13:55:22.09	284.97	8.79	
2025-01-06 13:55:22.30	285.01	8.79	
2025-01-06 13:55:22.50	285.05	8.79	
2025-01-06 13:55:22.71	285.09	8.79	
2025-01-06 13:55:22.92	285.13	8.79	
2025-01-06 13:55:23.12	285.17	8.79	
2025-01-06 13:55:23.33	285.21	8.79	
2025-01-06 13:55:23.53	285.25	8.79	
2025-01-06 13:55:23.73	285.29	8.79	
2025-01-06 13:55:23.94	285.33	8.78	
2025-01-06 13:55:24.14	285.37	8.78	
2025-01-06 13:55:24.35	285.41	8.78	
2025-01-06 13:55:24.56	285.45	8.78	
2025-01-06 13:55:24.76	285.49	8.78	
2025-01-06 13:55:24.97	285.53	8.78	
2025-01-06 13:55:25.17	285.57	8.78	
2025-01-06 13:55:25.38	285.61	8.78	
2025-01-06 13:55:25.58	285.65	8.78	
2025-01-06 13:55:25.79	285.69	8.78	
2025-01-06 13:55:25.99	285.73	8.78	
2025-01-06 13:55:26.20	285.77	8.78	
2025-01-06 13:55:26.40	285.81	8.78	
2025-01-06 13:55:26.61	285.85	8.78	
2025-01-06 13:55:26.81	285.89	8.78	
2025-01-06 13:55:27.02	285.93	8.78	
2025-01-06 13:55:27.23	285.97	8.78	
2025-01-06 13:55:27.43	286.01	8.77	
2025-01-06 13:55:27.64	286.05	8.77	
2025-01-06 13:55:27.84	286.09	8.77	
2025-01-06 13:55:28.05	286.13	8.77	
2025-01-06 13:55:28.25	286.17	8.77	
2025-01-06 13:55:28.47	286.21	8.77	
2025-01-06 13:55:28.67	286.25	8.77	
2025-01-06 13:55:28.88	286.29	8.77	
2025-01-06 13:55:29.09	286.34	8.77	
2025-01-06 13:55:29.29	286.37	8.77	
2025-01-06 13:55:29.50	286.42	8.77	
2025-01-06 13:55:29.70	286.45	8.77	
2025-01-06 13:55:29.91	286.50	8.76	
2025-01-06 13:55:30.11	286.53	8.76	
2025-01-06 13:55:30.32	286.58	8.76	
2025-01-06 13:55:30.52	286.61	8.76	
2025-01-06 13:55:30.73	286.66	8.76	
2025-01-06 13:55:30.93	286.69	8.76	
2025-01-06 13:55:31.14	286.74	8.76	
2025-01-06 13:55:31.34	286.77	8.76	
2025-01-06 13:55:31.55	286.82	8.76	
2025-01-06 13:55:31.75	286.85	8.76	
2025-01-06 13:55:31.96	286.90	8.76	
2025-01-06 13:55:32.16	286.93	8.75	
2025-01-06 13:55:32.37	286.98	8.75	
2025-01-06 13:55:32.58	287.02	8.75	
2025-01-06 13:55:32.79	287.06	8.75	
2025-01-06 13:55:33.00	287.10	8.75	
2025-01-06 13:55:33.21	287.14	8.75	
2025-01-06 13:55:33.41	287.18	8.75	
2025-01-06 13:55:33.62	287.22	8.75	
2025-01-06 13:55:33.82	287.26	8.75	
2025-01-06 13:55:34.03	287.30	8.75	
2025-01-06 13:55:34.23	287.34	8.74	
2025-01-06 13:55:34.44	287.38	8.74	
2025-01-06 13:55:34.64	287.42	8.74	
2025-01-06 13:55:34.85	287.46	8.74	
2025-01-06 13:55:35.05	287.50	8.74	
2025-01-06 13:55:35.26	287.54	8.74	
2025-01-06 13:55:35.46	287.58	8.74	
2025-01-06 13:55:35.67	287.62	8.74	
2025-01-06 13:55:35.88	287.66	8.74	
2025-01-06 13:55:36.08	287.70	8.73	
2025-01-06 13:55:36.29	287.74	8.73	
2025-01-06 13:55:36.49	287.78	8.73	
2025-01-06 13:55:36.70	287.82	8.73	
2025-01-06 13:55:36.90	287.86	8.73	
2025-01-06 13:55:37.10	287.90	8.73	
2025-01-06 13:55:37.31	287.94	8.73	
2025-01-06 13:55:37.52	287.98	8.73	
2025-01-06 13:55:37.72	288.02	8.72	
2025-01-06 13:55:37.93	288.06	8.72	
2025-01-06 13:55:38.13	288.10	8.72	
2025-01-06 13:55:38.34	288.14	8.72	
2025-01-06 13:55:38.54	288.18	8.72	
2025-01-06 13:55:38.75	288.22	8.72	
2025-01-06 13:55:38.95	288.26	8.72	
2025-01-06 13:55:39.15	288.30	8.72	
2025-01-06 13:55:39.36	288.34	8.71	
2025-01-06 13:55:39.57	288.38	8.71	
2025-01-06 13:55:39.77	288.42	8.71	
2025-01-06 13:55:39.98	288.46	8.71	
2025-01-06 13:55:40.18	288.50	8.71	
2025-01-06 13:55:40.39	288.54	8.71	
2025-01-06 13:55:40.59	288.58	8.71	
2025-01-06 13:55:40.80	288.62	8.70	
2025-01-06 13:55:41.00	288.66	8.70	
2025-01-06 13:55:41.21	288.70	8.70	
2025-01-06 13:55:41.41	288.74	8.70	
2025-01-06 13:55:41.62	288.78	8.70	
2025-01-06 13:55:41.82	288.82	8.70	
2025-01-06 13:55:42.03	288.86	8.69	
2025-01-06 13:55:42.23	288.90	8.69	
2025-01-06 13:55:42.44	288.94	8.69	
2025-01-06 13:55:42.65	288.98	8.69	
2025-01-06 13:55:42.85	289.02	8.69	
2025-01-06 13:55:43.06	289.06	8.69	
2025-01-06 13:55:43.26	289.10	8.69	
2025-01-06 13:55:43.46	289.13	8.68	
2025-01-06 13:55:43.67	289.17	8.68	
2025-01-06 13:55:43.88	289.22	8.68	
2025-01-06 13:55:44.08	289.25	8.68	
2025-01-06 13:55:44.29	289.29	8.68	
2025-01-06 13:55:44.49	289.33	8.68	
2025-01-06 13:55:44.70	289.37	8.67	
2025-01-06 13:55:44.90	289.41	8.67	
2025-01-06 13:55:45.11	289.45	8.67	
2025-01-06 13:55:45.31	289.49	8.67	
2025-01-06 13:55:45.52	289.53	8.67	
2025-01-06 13:55:45.72	289.57	8.67	
2025-01-06 13:55:45.93	289.61	8.66	
2025-01-06 13:55:46.13	289.65	8.66	
2025-01-06 13:55:46.34	289.69	8.66	
2025-01-06 13:55:46.54	289.73	8.66	
2025-01-06 13:55:46.74	289.77	8.66	
2025-01-06 13:55:46.95	289.81	8.66	
2025-01-06 13:55:47.15	289.85	8.65	
2025-01-06 13:55:47.36	289.89	8.65	
2025-01-06 13:55:47.57	289.93	8.65	
2025-01-06 13:55:47.77	289.97	8.65	
2025-01-06 13:55:47.98	290.01	8.65	
2025-01-06 13:55:48.18	290.05	8.64	
2025-01-06 13:55:48.39	290.09	8.64	
2025-01-06 13:55:48.59	290.13	8.64	
2025-01-06 13:55:48.80	290.17	8.64	
2025-01-06 13:55:49.00	290.21	8.64	
2025-01-06 13:55:49.21	290.25	8.63	
2025-01-06 13:55:49.41	290.29	8.63	
2025-01-06 13:55:49.62	290.33	8.63	
2025-01-06 13:55:49.82	290.37	8.63	
2025-01-06 13:55:50.03	290.41	8.63	
2025-01-06 13:55:50.23	290.44	8.63	
2025-01-06 13:55:50.44	290.49	8.62	
2025-01-06 13:55:50.64	290.52	8.62	
2025-01-06 13:55:50.85	290.56	8.62	
2025-01-06 13:55:51.05	290.60	8.62	
2025-01-06 13:55:51.26	290.64	8.62	
2025-01-06 13:55:51.46	290.68	8.61	
2025-01-06 13:55:51.67	290.72	8.61	
2025-01-06 13:55:51.87	290.76	8.61	
2025-01-06 13:55:52.08	290.80	8.61	
2025-01-06 13:55:52.29	290.84	8.60	
2025-01-06 13:55:52.49	290.88	8.60	
2025-01-06 13:55:52.70	290.92	8.60	
2025-01-06 13:55:52.90	290.96	8.60	
2025-01-06 13:55:53.11	291.00	8.60	
2025-01-06 13:55:53.31	291.04	8.59	
2025-01-06 13:55:53.52	291.08	8.59	
2025-01-06 13:55:53.72	291.12	8.59	
2025-01-06 13:55:53.93	291.16	8.59	
2025-01-06 13:55:54.13	291.20	8.59	
2025-01-06 13:55:54.34	291.24	8.58	
2025-01-06 13:55:54.54	291.28	8.58	
2025-01-06 13:55:54.75	291.32	8.58	
2025-01-06 13:55:54.95	291.36	8.58	
2025-01-06 13:55:55.16	291.40	8.57	
2025-01-06 13:55:55.36	291.43	8.57	
2025-01-06 13:55:55.57	291.47	8.57	
2025-01-06 13:55:55.77	291.51	8.57	
2025-01-06 13:55:55.98	291.55	8.57	
2025-01-06 13:55:56.18	291.59	8.56	
2025-01-06 13:55:56.39	291.63	8.56	
2025-01-06 13:55:56.59	291.67	8.56	
2025-01-06 13:55:56.80	291.71	8.56	
2025-01-06 13:55:57.00	291.75	8.55	
2025-01-06 13:55:57.21	291.79	8.55	
2025-01-06 13:55:57.41	291.83	8.55	
2025-01-06 13:55:57.62	291.87	8.55	
2025-01-06 13:55:57.83	291.91	8.54	
2025-01-06 13:55:58.03	291.95	8.54	
2025-01-06 13:55:58.23	291.99	8.54	
2025-01-06 13:55:58.44	292.03	8.54	
2025-01-06 13:55:58.65	292.07	8.54	
2025-01-06 13:55:58.85	292.10	8.53	
2025-01-06 13:55:59.06	292.15	8.53	
2025-01-06 13:55:59.27	292.19	8.53	
2025-01-06 13:55:59.48	292.23	8.53	
2025-01-06 13:55:59.68	292.26	8.52	
2025-01-06 13:55:59.89	292.30	8.52	
2025-01-06 13:56:00.09	292.34	8.52	
2025-01-06 13:56:00.29	292.38	8.52	
2025-01-06 13:56:00.50	292.42	8.51	
2025-01-06 13:56:00.70	292.46	8.51	
2025-01-06 13:56:00.91	292.50	8.51	
2025-01-06 13:56:01.11	292.54	8.51	
2025-01-06 13:56:01.32	292.58	8.50	
2025-01-06 13:56:01.52	292.62	8.50	
2025-01-06 13:56:01.73	292.66	8.50	
2025-01-06 13:56:01.93	292.69	8.50	
2025-01-06 13:56:02.14	292.74	8.49	
2025-01-06 13:56:02.34	292.77	8.49	
2025-01-06 13:56:02.55	292.81	8.49	
2025-01-06 13:56:02.75	292.85	8.48	
2025-01-06 13:56:02.96	292.89	8.48	
2025-01-06 13:56:03.16	292.93	8.48	
2025-01-06 13:56:03.37	292.97	8.48	
2025-01-06 13:56:03.59	293.01	8.47	
2025-01-06 13:56:03.80	293.05	8.47	
2025-01-06 13:56:04.00	293.09	8.47	
2025-01-06 13:56:04.21	293.13	8.47	
2025-01-06 13:56:04.41	293.17	8.46	
2025-01-06 13:56:04.61	293.21	8.46	
2025-01-06 13:56:04.82	293.25	8.46	
2025-01-06 13:56:05.02	293.29	8.45	
2025-01-06 13:56:05.23	293.33	8.45	
2025-01-06 13:56:05.44	293.37	8.45	
2025-01-06 13:56:05.64	293.40	8.45	
2025-01-06 13:56:05.84	293.44	8.44	
2025-01-06 13:56:06.05	293.48	8.44	
2025-01-06 13:56:06.25	293.52	8.44	
2025-01-06 13:56:06.46	293.56	8.44	
2025-01-06 13:56:06.66	293.60	8.43	
2025-01-06 13:56:06.87	293.64	8.43	
2025-01-06 13:56:07.07	293.68	8.43	
2025-01-06 13:56:07.28	293.72	8.42	
2025-01-06 13:56:07.48	293.75	8.42	
2025-01-06 13:56:07.69	293.79	8.42	
2025-01-06 13:56:07.89	293.83	8.42	
2025-01-06 13:56:08.10	293.87	8.41	
2025-01-06 13:56:08.30	293.91	8.41	
2025-01-06 13:56:08.51	293.95	8.41	
2025-01-06 13:56:08.72	293.99	8.40	
2025-01-06 13:56:08.92	294.03	8.40	
2025-01-06 13:56:09.12	294.07	8.40	
2025-01-06 13:56:09.33	294.11	8.39	
2025-01-06 13:56:09.54	294.15	8.39	
2025-01-06 13:56:09.74	294.18	8.39	
2025-01-06 13:56:09.94	294.22	8.39	
2025-01-06 13:56:10.15	294.26	8.38	
2025-01-06 13:56:10.36	294.30	8.38	
2025-01-06 13:56:10.56	294.34	8.38	
2025-01-06 13:56:10.77	294.38	8.37	
2025-01-06 13:56:10.97	294.42	8.37	
2025-01-06 13:56:11.18	294.46	8.37	
2025-01-06 13:56:11.40	294.50	8.36	
2025-01-06 13:56:11.60	294.54	8.36	
2025-01-06 13:56:11.81	294.58	8.36	
2025-01-06 13:56:12.01	294.61	8.36	
2025-01-06 13:56:12.22	294.65	8.35	
2025-01-06 13:56:12.42	294.69	8.35	
2025-01-06 13:56:12.63	294.73	8.35	
2025-01-06 13:56:12.83	294.77	8.34	
2025-01-06 13:56:13.04	294.81	8.34	
2025-01-06 13:56:13.24	294.85	8.34	
2025-01-06 13:56:13.45	294.89	8.33	
2025-01-06 13:56:13.65	294.92	8.33	
2025-01-06 13:56:13.86	294.96	8.33	
2025-01-06 13:56:14.06	295.00	8.32	
2025-01-06 13:56:14.27	295.04	8.32	
2025-01-06 13:56:14.47	295.08	8.32	
2025-01-06 13:56:14.68	295.12	8.31	
2025-01-06 13:56:14.88	295.16	8.31	
2025-01-06 13:56:15.09	295.20	8.31	
2025-01-06 13:56:15.29	295.23	8.30	
2025-01-06 13:56:15.49	295.27	8.30	
2025-01-06 13:56:15.70	295.31	8.30	
2025-01-06 13:56:15.90	295.35	8.29	
2025-01-06 13:56:16.11	295.39	8.29	
2025-01-06 13:56:16.31	295.43	8.29	
2025-01-06 13:56:16.51	295.46	8.28	
2025-01-06 13:56:16.72	295.50	8.28	
2025-01-06 13:56:16.93	295.54	8.28	
2025-01-06 13:56:17.13	295.58	8.27	
2025-01-06 13:56:17.34	295.62	8.27	
2025-01-06 13:56:17.54	295.66	8.27	
2025-01-06 13:56:17.74	295.70	8.26	
2025-01-06 13:56:17.95	295.74	8.26	
2025-01-06 13:56:18.15	295.77	8.26	
2025-01-06 13:56:18.36	295.81	8.25	
2025-01-06 13:56:18.58	295.85	8.25	
2025-01-06 13:56:18.78	295.89	8.25	
2025-01-06 13:56:18.99	295.93	8.24	
2025-01-06 13:56:19.19	295.97	8.24	
2025-01-06 13:56:19.40	296.01	8.24	
2025-01-06 13:56:19.60	296.05	8.23	
2025-01-06 13:56:19.81	296.08	8.23	
2025-01-06 13:56:20.01	296.12	8.23	
2025-01-06 13:56:20.22	296.16	8.22	
2025-01-06 13:56:20.42	296.20	8.22	
2025-01-06 13:56:20.63	296.24	8.22	
2025-01-06 13:56:20.83	296.28	8.21	
2025-01-06 13:56:21.04	296.32	8.21	
2025-01-06 13:56:21.24	296.35	8.21	
2025-01-06 13:56:21.45	296.39	8.20	
2025-01-06 13:56:21.65	296.43	8.20	
2025-01-06 13:56:21.86	296.47	8.19	
2025-01-06 13:56:22.06	296.51	8.19	
2025-01-06 13:56:22.27	296.55	8.19	
2025-01-06 13:56:22.48	296.58	8.18	
2025-01-06 13:56:22.68	296.62	8.18	
2025-01-06 13:56:22.88	296.66	8.18	
2025-01-06 13:56:23.09	296.70	8.17	
2025-01-06 13:56:23.29	296.74	8.17	
2025-01-06 13:56:23.50	296.78	8.17	
2025-01-06 13:56:23.70	296.81	8.16	
2025-01-06 13:56:23.91	296.85	8.16	
2025-01-06 13:56:24.11	296.89	8.15	
2025-01-06 13:56:24.32	296.93	8.15	
2025-01-06 13:56:24.52	296.97	8.15	
2025-01-06 13:56:24.73	297.00	8.14	
2025-01-06 13:56:24.93	297.04	8.14	
2025-01-06 13:56:25.14	297.08	8.14	
2025-01-06 13:56:25.34	297.12	8.13	
2025-01-06 13:56:25.55	297.16	8.13	
2025-01-06 13:56:25.76	297.20	8.12	
2025-01-06 13:56:25.96	297.23	8.12	
2025-01-06 13:56:26.16	297.27	8.12	
2025-01-06 13:56:26.37	297.31	8.11	
2025-01-06 13:56:26.57	297.35	8.11	
2025-01-06 13:56:26.78	297.39	8.11	
2025-01-06 13:56:26.98	297.42	8.10	
2025-01-06 13:56:27.19	297.46	8.10	
2025-01-06 13:56:27.39	297.50	8.09	
2025-01-06 13:56:27.60	297.54	8.09	
2025-01-06 13:56:27.80	297.58	8.09	
2025-01-06 13:56:28.01	297.62	8.08	
2025-01-06 13:56:28.21	297.65	8.08	
2025-01-06 13:56:28.42	297.69	8.07	
2025-01-06 13:56:28.63	297.73	8.07	
2025-01-06 13:56:28.83	297.77	8.07	
2025-01-06 13:56:29.04	297.81	8.06	
2025-01-06 13:56:29.24	297.84	8.06	
2025-01-06 13:56:29.45	297.88	8.05	
2025-01-06 13:56:29.65	297.92	8.05	
2025-01-06 13:56:29.86	297.96	8.05	
2025-01-06 13:56:30.06	298.00	8.04	
2025-01-06 13:56:30.27	298.03	8.04	
2025-01-06 13:56:30.47	298.07	8.04	
2025-01-06 13:56:30.68	298.11	8.03	
2025-01-06 13:56:30.88	298.15	8.03	
2025-01-06 13:56:31.09	298.19	8.02	
2025-01-06 13:56:31.29	298.22	8.02	
2025-01-06 13:56:31.50	298.26	8.01	
2025-01-06 13:56:31.70	298.30	8.01	
2025-01-06 13:56:31.91	298.34	8.01	
2025-01-06 13:56:32.12	298.38	8.00	
2025-01-06 13:56:32.32	298.41	8.00	
2025-01-06 13:56:32.52	298.45	7.99	
2025-01-06 13:56:32.73	298.49	7.99	
2025-01-06 13:56:32.93	298.53	7.99	
2025-01-06 13:56:33.14	298.56	7.98	
2025-01-06 13:56:33.34	298.60	7.98	
2025-01-06 13:56:33.56	298.64	7.97	
2025-01-06 13:56:33.77	298.68	7.97	
2025-01-06 13:56:33.97	298.72	7.97	
2025-01-06 13:56:34.18	298.76	7.96	
2025-01-06 13:56:34.38	298.79	7.96	
2025-01-06 13:56:34.59	298.83	7.95	
2025-01-06 13:56:34.79	298.87	7.95	
2025-01-06 13:56:35.00	298.91	7.94	
2025-01-06 13:56:35.20	298.94	7.94	
2025-01-06 13:56:35.41	298.98	7.94	
2025-01-06 13:56:35.63	299.02	7.93	
2025-01-06 13:56:35.83	299.06	7.93	
2025-01-06 13:56:36.04	299.10	7.92	
2025-01-06 13:56:36.24	299.13	7.92	
2025-01-06 13:56:36.45	299.17	7.91	
2025-01-06 13:56:36.65	299.21	7.91	
2025-01-06 13:56:36.85	299.25	7.91	
2025-01-06 13:56:37.06	299.28	7.90	
2025-01-06 13:56:37.27	299.32	7.90	
2025-01-06 13:56:37.47	299.36	7.89	
2025-01-06 13:56:37.68	299.40	7.89	
2025-01-06 13:56:37.88	299.43	7.88	
2025-01-06 13:56:38.09	299.47	7.88	
2025-01-06 13:56:38.29	299.51	7.88	
2025-01-06 13:56:38.50	299.55	7.87	
2025-01-06 13:56:38.71	299.59	7.87	
2025-01-06 13:56:38.91	299.62	7.86	
2025-01-06 13:56:39.11	299.66	7.86	
2025-01-06 13:56:39.32	299.70	7.85	
2025-01-06 13:56:39.52	299.73	7.85	
2025-01-06 13:56:39.73	299.77	7.85	
2025-01-06 13:56:39.93	299.81	7.84	
2025-01-06 13:56:40.14	299.85	7.84	
2025-01-06 13:56:40.34	299.88	7.83	
2025-01-06 13:56:40.55	299.92	7.83	
2025-01-06 13:56:40.75	299.96	7.82	
2025-01-06 13:56:40.97	300.00	7.82	
2025-01-06 13:56:41.18	300.04	7.81	
2025-01-06 13:56:41.38	300.07	7.81	
2025-01-06 13:56:41.59	300.11	7.80	
2025-01-06 13:56:41.79	300.15	7.80	
2025-01-06 13:56:42.00	300.19	7.80	
2025-01-06 13:56:42.20	300.22	7.79	
2025-01-06 13:56:42.41	300.26	7.79	
2025-01-06 13:56:42.61	300.30	7.78	
2025-01-06 13:56:42.82	300.33	7.78	
2025-01-06 13:56:43.02	300.37	7.77	
2025-01-06 13:56:43.23	300.41	7.77	
2025-01-06 13:56:43.43	300.45	7.76	
2025-01-06 13:56:43.64	300.48	7.76	
2025-01-06 13:56:43.85	300.52	7.75	
2025-01-06 13:56:44.05	300.56	7.75	
2025-01-06 13:56:44.25	300.59	7.75	
2025-01-06 13:56:44.46	300.63	7.74	
2025-01-06 13:56:44.67	300.67	7.74	
2025-01-06 13:56:44.87	300.71	7.73	
2025-01-06 13:56:45.08	300.74	7.73	
2025-01-06 13:56:45.28	300.78	7.72	
2025-01-06 13:56:45.48	300.82	7.72	
2025-01-06 13:56:45.69	300.85	7.71	
2025-01-06 13:56:45.90	300.89	7.71	
2025-01-06 13:56:46.10	300.93	7.70	
2025-01-06 13:56:46.30	300.96	7.70	
2025-01-06 13:56:46.51	301.00	7.69	
2025-01-06 13:56:46.72	301.04	7.69	
2025-01-06 13:56:46.92	301.08	7.68	
2025-01-06 13:56:47.13	301.11	7.68	
2025-01-06 13:56:47.33	301.15	7.68	
2025-01-06 13:56:47.54	301.19	7.67	
2025-01-06 13:56:47.74	301.22	7.67	
2025-01-06 13:56:47.95	301.26	7.66	
2025-01-06 13:56:48.15	301.30	7.66	
2025-01-06 13:56:48.36	301.34	7.65	
2025-01-06 13:56:48.56	301.37	7.65	
2025-01-06 13:56:48.77	301.41	7.64	
2025-01-06 13:56:48.97	301.45	7.64	
2025-01-06 13:56:49.18	301.48	7.63	
2025-01-06 13:56:49.39	301.52	7.63	
2025-01-06 13:56:49.59	301.56	7.62	
2025-01-06 13:56:49.80	301.59	7.62	
2025-01-06 13:56:50.00	301.63	7.61	
2025-01-06 13:56:50.21	301.67	7.61	
2025-01-06 13:56:50.41	301.70	7.60	
2025-01-06 13:56:50.62	301.74	7.60	
2025-01-06 13:56:50.83	301.78	7.59	
2025-01-06 13:56:51.04	301.82	7.59	
2025-01-06 13:56:51.25	301.85	7.58	
2025-01-06 13:56:51.45	301.89	7.58	
2025-01-06 13:56:51.67	301.93	7.57	
2025-01-06 13:56:51.88	301.97	7.57	
2025-01-06 13:56:52.08	302.00	7.56	
2025-01-06 13:56:52.29	302.04	7.56	
2025-01-06 13:56:52.49	302.08	7.55	
2025-01-06 13:56:52.70	302.11	7.55	
2025-01-06 13:56:52.90	302.15	7.54	
2025-01-06 13:56:53.11	302.19	7.54	
2025-01-06 13:56:53.31	302.22	7.53	
2025-01-06 13:56:53.52	302.26	7.53	
2025-01-06 13:56:53.72	302.30	7.52	
2025-01-06 13:56:53.92	302.33	7.52	
2025-01-06 13:56:54.13	302.37	7.51	
2025-01-06 13:56:54.33	302.40	7.51	
2025-01-06 13:56:54.54	302.44	7.50	
2025-01-06 13:56:54.75	302.48	7.50	
2025-01-06 13:56:54.95	302.51	7.49	
2025-01-06 13:56:55.16	302.55	7.49	
2025-01-06 13:56:55.36	302.59	7.48	
2025-01-06 13:56:55.57	302.62	7.48	
2025-01-06 13:56:55.77	302.66	7.47	
2025-01-06 13:56:55.99	302.70	7.47	
2025-01-06 13:56:56.19	302.73	7.46	
2025-01-06 13:56:56.40	302.77	7.46	
2025-01-06 13:56:56.60	302.81	7.45	
2025-01-06 13:56:56.81	302.84	7.45	
2025-01-06 13:56:57.02	302.88	7.44	
2025-01-06 13:56:57.22	302.92	7.44	
2025-01-06 13:56:57.43	302.95	7.43	
2025-01-06 13:56:57.63	302.99	7.43	
2025-01-06 13:56:57.84	303.03	7.42	
2025-01-06 13:56:58.04	303.06	7.42	
2025-01-06 13:56:58.25	303.10	7.41	
2025-01-06 13:56:58.45	303.13	7.41	
2025-01-06 13:56:58.66	303.17	7.40	
2025-01-06 13:56:58.87	303.21	7.40	
2025-01-06 13:56:59.07	303.24	7.39	
2025-01-06 13:56:59.28	303.28	7.38	
2025-01-06 13:56:59.48	303.32	7.38	
2025-01-06 13:56:59.69	303.35	7.37	
2025-01-06 13:56:59.89	303.39	7.37	
2025-01-06 13:57:00.11	303.43	7.36	
2025-01-06 13:57:00.33	303.47	7.36	
2025-01-06 13:57:00.53	303.50	7.35	
2025-01-06 13:57:00.74	303.54	7.35	
2025-01-06 13:57:00.94	303.57	7.34	
2025-01-06 13:57:01.15	303.61	7.34	
2025-01-06 13:57:01.35	303.65	7.33	
2025-01-06 13:57:01.56	303.68	7.33	
2025-01-06 13:57:01.76	303.72	7.32	
2025-01-06 13:57:01.97	303.75	7.32	
2025-01-06 13:57:02.18	303.79	7.31	
2025-01-06 13:57:02.38	303.83	7.31	
2025-01-06 13:57:02.58	303.86	7.30	
2025-01-06 13:57:02.79	303.90	7.29	
2025-01-06 13:57:03.00	303.93	7.29	
2025-01-06 13:57:03.20	303.97	7.28	
2025-01-06 13:57:03.40	304.00	7.28	
2025-01-06 13:57:03.61	304.04	7.27	
2025-01-06 13:57:03.82	304.08	7.27	
2025-01-06 13:57:04.02	304.11	7.26	
2025-01-06 13:57:04.23	304.15	7.26	
2025-01-06 13:57:04.43	304.18	7.25	
2025-01-06 13:57:04.64	304.22	7.25	
2025-01-06 13:57:04.84	304.26	7.24	
2025-01-06 13:57:05.05	304.29	7.23	
2025-01-06 13:57:05.25	304.33	7.23	
2025-01-06 13:57:05.46	304.36	7.22	
2025-01-06 13:57:05.66	304.40	7.22	
2025-01-06 13:57:05.87	304.44	7.21	
2025-01-06 13:57:06.07	304.47	7.21	
2025-01-06 13:57:06.28	304.51	7.20	
2025-01-06 13:57:06.48	304.54	7.20	
2025-01-06 13:57:06.70	304.58	7.19	
2025-01-06 13:57:06.90	304.62	7.19	
2025-01-06 13:57:07.11	304.65	7.18	
2025-01-06 13:57:07.31	304.69	7.17	
2025-01-06 13:57:07.52	304.72	7.17	
2025-01-06 13:57:07.72	304.76	7.16	
2025-01-06 13:57:07.93	304.79	7.16	
2025-01-06 13:57:08.13	304.83	7.15	
2025-01-06 13:57:08.34	304.87	7.15	
2025-01-06 13:57:08.54	304.90	7.14	
2025-01-06 13:57:08.75	304.94	7.14	
2025-01-06 13:57:08.95	304.97	7.13	
2025-01-06 13:57:09.16	305.01	7.12	
2025-01-06 13:57:09.36	305.04	7.12	
2025-01-06 13:57:09.57	305.08	7.11	
2025-01-06 13:57:09.77	305.11	7.11	
2025-01-06 13:57:09.98	305.15	7.10	
2025-01-06 13:57:10.18	305.18	7.10	
2025-01-06 13:57:10.39	305.22	7.09	
2025-01-06 13:57:10.60	305.26	7.08	
2025-01-06 13:57:10.80	305.29	7.08	
2025-01-06 13:57:11.01	305.33	7.07	
2025-01-06 13:57:11.21	305.36	7.07	
2025-01-06 13:57:11.42	305.40	7.06	
2025-01-06 13:57:11.62	305.43	7.06	
2025-01-06 13:57:11.83	305.47	7.05	
2025-01-06 13:57:12.03	305.50	7.05	
2025-01-06 13:57:12.23	305.54	7.04	
2025-01-06 13:57:12.45	305.57	7.03	
2025-01-06 13:57:12.65	305.61	7.03	
2025-01-06 13:57:12.86	305.65	7.02	
2025-01-06 13:57:13.08	305.68	7.02	
2025-01-06 13:57:13.28	305.72	7.01	
2025-01-06 13:57:13.49	305.75	7.00	
2025-01-06 13:57:13.70	305.79	7.00	
2025-01-06 13:57:13.90	305.82	6.99	
2025-01-06 13:57:14.11	305.86	6.99	
2025-01-06 13:57:14.31	305.89	6.98	
2025-01-06 13:57:14.52	305.93	6.98	
2025-01-06 13:57:14.72	305.96	6.97	
2025-01-06 13:57:14.93	306.00	6.96	
2025-01-06 13:57:15.13	306.03	6.96	
2025-01-06 13:57:15.34	306.07	6.95	
2025-01-06 13:57:15.54	306.10	6.95	
2025-01-06 13:57:15.75	306.14	6.94	
2025-01-06 13:57:15.96	306.18	6.93	
2025-01-06 13:57:16.16	306.21	6.93	
2025-01-06 13:57:16.37	306.25	6.92	
2025-01-06 13:57:16.57	306.28	6.92	
2025-01-06 13:57:16.78	306.32	6.91	
2025-01-06 13:57:16.98	306.35	6.91	
2025-01-06 13:57:17.19	306.39	6.90	
2025-01-06 13:57:17.39	306.42	6.89	
2025-01-06 13:57:17.60	306.46	6.89	
2025-01-06 13:57:17.80	306.49	6.88	
2025-01-06 13:57:18.01	306.53	6.88	
2025-01-06 13:57:18.22	306.56	6.87	
2025-01-06 13:57:18.42	306.59	6.86	
2025-01-06 13:57:18.63	306.63	6.86	
2025-01-06 13:57:18.83	306.66	6.85	
2025-01-06 13:57:19.03	306.70	6.85	
2025-01-06 13:57:19.24	306.73	6.84	
2025-01-06 13:57:19.44	306.77	6.83	
2025-01-06 13:57:19.65	306.80	6.83	
2025-01-06 13:57:19.86	306.84	6.82	
2025-01-06 13:57:20.06	306.87	6.82	
2025-01-06 13:57:20.27	306.91	6.81	
2025-01-06 13:57:20.47	306.94	6.80	
2025-01-06 13:57:20.68	306.98	6.80	
2025-01-06 13:57:20.88	307.01	6.79	
2025-01-06 13:57:21.09	307.05	6.79	
2025-01-06 13:57:21.30	307.08	6.78	
2025-01-06 13:57:21.50	307.12	6.77	
2025-01-06 13:57:21.71	307.15	6.77	
2025-01-06 13:57:21.91	307.19	6.76	
2025-01-06 13:57:22.11	307.22	6.76	
2025-01-06 13:57:22.32	307.25	6.75	
2025-01-06 13:57:22.53	307.29	6.74	
2025-01-06 13:57:22.73	307.32	6.74	
2025-01-06 13:57:22.93	307.36	6.73	
2025-01-06 13:57:23.14	307.39	6.73	
2025-01-06 13:57:23.35	307.43	6.72	
2025-01-06 13:57:23.55	307.46	6.71	
2025-01-06 13:57:23.76	307.50	6.71	
2025-01-06 13:57:23.96	307.53	6.70	
2025-01-06 13:57:24.17	307.57	6.70	
2025-01-06 13:57:24.37	307.60	6.69	
2025-01-06 13:57:24.58	307.63	6.68	
2025-01-06 13:57:24.78	307.67	6.68	
2025-01-06 13:57:24.99	307.70	6.67	
2025-01-06 13:57:25.19	307.74	6.67	
2025-01-06 13:57:25.40	307.77	6.66	
2025-01-06 13:57:25.60	307.80	6.65	
2025-01-06 13:57:25.81	307.84	6.65	
2025-01-06 13:57:26.01	307.87	6.64	
2025-01-06 13:57:26.22	307.91	6.63	
2025-01-06 13:57:26.42	307.94	6.63	
2025-01-06 13:57:26.63	307.98	6.62	
2025-01-06 13:57:26.83	308.01	6.62	
2025-01-06 13:57:27.04	308.05	6.61	
2025-01-06 13:57:27.24	308.08	6.60	
2025-01-06 13:57:27.45	308.11	6.60	
2025-01-06 13:57:27.65	308.15	6.59	
2025-01-06 13:57:27.86	308.18	6.58	
2025-01-06 13:57:28.06	308.22	6.58	
2025-01-06 13:57:28.27	308.25	6.57	
2025-01-06 13:57:28.47	308.28	6.57	
2025-01-06 13:57:28.68	308.32	6.56	
2025-01-06 13:57:28.88	308.35	6.55	
2025-01-06 13:57:29.10	308.39	6.55	
2025-01-06 13:57:29.31	308.42	6.54	
2025-01-06 13:57:29.51	308.46	6.53	
2025-01-06 13:57:29.72	308.49	6.53	
2025-01-06 13:57:29.92	308.52	6.52	
2025-01-06 13:57:30.13	308.56	6.52	
2025-01-06 13:57:30.33	308.59	6.51	
2025-01-06 13:57:30.54	308.63	6.50	
2025-01-06 13:57:30.74	308.66	6.50	
