passes_logs/2025/01/15/PPK-1/PPK-1__20250115_002915_TY-39_rec.log

#Pass ID: 20250115_002915_TY-39
#Satellite: TY-39
#Configuration: TY-39
#almurnet v.1.7.20230919.trace
#Start time: 2025-01-15 00:29:15

#Version: 2.2.20231116
#Station: PPK-1
#Location: 158.6 lon 53.06666 lat
#TLE: 1 51832U 22019J   25014.20860346  .00003365  00000+0  17376-3 0  9997
#TLE: 2 51832  97.4100  84.4310 0007929 236.2562 123.7917 15.16959776159028

#Time	Az	El	Level	Level2	SNR	BER	BlckErr	Temp	State
2025-01-15 00:29:15.47	5.43	8.00	-66.5	-71.9	3.4	0.00e+00	0	46	0
2025-01-15 00:29:16.37	5.38	8.08	-66.5	-71.9	3.7	0.00e+00	0	46	104
2025-01-15 00:29:17.36	5.33	8.17	-66.3	-71.3	3.4	0.00e+00	0	46	104
2025-01-15 00:29:18.27	5.28	8.25	-66.0	-70.6	3.5	0.00e+00	0	46	104
2025-01-15 00:29:19.26	5.23	8.35	-66.0	-70.6	3.4	0.00e+00	0	46	104
2025-01-15 00:29:20.17	5.18	8.43	-66.2	-71.1	3.5	0.00e+00	0	46	104
2025-01-15 00:29:21.15	5.12	8.52	-66.2	-71.0	3.7	0.00e+00	0	47	104
2025-01-15 00:29:22.06	5.07	8.60	-66.1	-70.8	3.4	0.00e+00	0	47	104
2025-01-15 00:29:23.05	5.02	8.70	-66.2	-70.8	3.7	0.00e+00	0	47	104
2025-01-15 00:29:23.96	4.97	8.78	-66.2	-71.0	3.4	0.00e+00	0	47	104
2025-01-15 00:29:24.95	4.91	8.87	-66.3	-71.2	3.6	0.00e+00	0	47	104
2025-01-15 00:29:25.86	4.86	8.96	-66.5	-71.6	3.4	0.00e+00	0	47	104
2025-01-15 00:29:26.85	4.80	9.05	-66.5	-71.8	3.5	0.00e+00	0	48	104
2025-01-15 00:29:27.76	4.75	9.14	-66.7	-72.1	3.7	0.00e+00	0	48	104
2025-01-15 00:29:28.75	4.69	9.24	-66.8	-72.4	3.5	0.00e+00	0	48	104
2025-01-15 00:29:29.65	4.64	9.32	-66.9	-72.2	3.7	0.00e+00	0	48	104
2025-01-15 00:29:30.64	4.58	9.42	-66.9	-72.3	3.6	0.00e+00	0	48	104
2025-01-15 00:29:31.55	4.53	9.51	-67.0	-72.4	3.6	0.00e+00	0	48	104
2025-01-15 00:29:32.54	4.47	9.60	-67.0	-72.5	3.7	0.00e+00	0	49	104
2025-01-15 00:29:33.45	4.41	9.69	-67.0	-72.5	3.6	0.00e+00	0	49	104
2025-01-15 00:29:34.44	4.35	9.79	-67.1	-72.7	3.7	0.00e+00	0	49	104
2025-01-15 00:29:35.35	4.29	9.88	-67.2	-72.9	3.6	0.00e+00	0	49	104
2025-01-15 00:29:36.34	4.23	9.98	-67.3	-72.7	3.6	0.00e+00	0	49	104
2025-01-15 00:29:37.25	4.18	10.07	-67.4	-72.9	3.6	0.00e+00	0	49	104
2025-01-15 00:29:38.24	4.11	10.17	-67.5	-73.2	3.6	0.00e+00	0	49	104
2025-01-15 00:29:39.14	4.06	10.26	-67.5	-73.3	3.7	0.00e+00	0	50	104
2025-01-15 00:29:40.14	3.99	10.36	-67.5	-73.4	3.6	0.00e+00	0	50	104
2025-01-15 00:29:41.04	3.93	10.45	-67.5	-73.4	3.7	0.00e+00	0	50	104
2025-01-15 00:29:42.04	3.87	10.55	-67.5	-73.4	3.6	0.00e+00	0	50	104
2025-01-15 00:29:42.94	3.81	10.65	-67.5	-73.3	3.6	0.00e+00	0	50	104
2025-01-15 00:29:43.94	3.74	10.75	-67.4	-73.2	3.7	0.00e+00	0	50	104
2025-01-15 00:29:44.84	3.68	10.84	-67.3	-73.0	3.6	0.00e+00	0	50	104
2025-01-15 00:29:45.84	3.61	10.95	-67.3	-72.8	3.7	0.00e+00	0	50	104
2025-01-15 00:29:46.74	3.55	11.04	-67.2	-72.5	3.6	0.00e+00	0	51	104
2025-01-15 00:29:47.74	3.48	11.15	-67.1	-72.3	3.6	0.00e+00	0	51	104
2025-01-15 00:29:48.64	3.42	11.24	-67.1	-72.2	3.6	0.00e+00	0	51	104
2025-01-15 00:29:49.64	3.35	11.35	-67.1	-72.2	3.5	0.00e+00	0	51	104
2025-01-15 00:29:50.54	3.29	11.45	-67.1	-72.4	3.7	0.00e+00	0	51	104
2025-01-15 00:29:51.53	3.22	11.55	-67.3	-72.6	3.6	0.00e+00	0	52	104
2025-01-15 00:29:52.43	3.15	11.65	-67.4	-72.9	3.7	0.00e+00	0	51	104
2025-01-15 00:29:53.43	3.08	11.76	-67.5	-73.3	3.6	0.00e+00	0	52	104
2025-01-15 00:29:54.33	3.01	11.86	-67.6	-73.5	3.6	0.00e+00	0	52	104
2025-01-15 00:29:55.33	2.94	11.97	-67.7	-73.7	3.7	0.00e+00	0	52	104
2025-01-15 00:29:56.23	2.87	12.07	-67.7	-73.7	3.6	0.00e+00	0	52	104
2025-01-15 00:29:57.23	2.80	12.18	-67.6	-73.6	3.7	0.00e+00	0	52	104
2025-01-15 00:29:58.13	2.73	12.28	-67.5	-73.3	3.6	0.00e+00	0	52	104
2025-01-15 00:29:59.13	2.65	12.39	-67.4	-73.1	3.6	0.00e+00	0	52	104
2025-01-15 00:30:00.03	2.58	12.49	-67.3	-72.8	3.6	0.00e+00	0	53	104
2025-01-15 00:30:01.03	2.50	12.60	-67.3	-72.5	3.6	0.00e+00	0	53	104
2025-01-15 00:30:01.93	2.43	12.71	-67.2	-72.4	3.7	0.00e+00	0	53	104
2025-01-15 00:30:02.93	2.35	12.82	-67.2	-72.4	3.5	0.00e+00	0	53	104
2025-01-15 00:30:03.83	2.28	12.92	-67.3	-72.5	3.7	0.00e+00	0	53	104
2025-01-15 00:30:04.83	2.20	13.04	-67.4	-72.8	3.5	0.00e+00	0	53	104
2025-01-15 00:30:05.73	2.12	13.14	-67.4	-72.9	3.6	0.00e+00	0	53	104
2025-01-15 00:30:06.73	2.04	13.26	-67.5	-73.0	3.7	0.00e+00	0	54	104
2025-01-15 00:30:07.63	1.97	13.37	-67.4	-73.0	3.6	0.00e+00	0	54	104
2025-01-15 00:30:08.63	1.88	13.49	-67.4	-72.9	3.7	0.00e+00	0	54	104
2025-01-15 00:30:09.53	1.81	13.59	-67.3	-72.6	3.5	0.00e+00	0	54	104
2025-01-15 00:30:10.53	1.72	13.71	-67.3	-72.4	3.6	0.00e+00	0	54	104
2025-01-15 00:30:11.43	1.64	13.82	-67.2	-72.2	3.5	0.00e+00	0	54	104
2025-01-15 00:30:12.43	1.56	13.94	-67.1	-72.0	3.5	0.00e+00	0	54	104
2025-01-15 00:30:13.33	1.48	14.05	-67.1	-72.0	3.7	0.00e+00	0	54	104
2025-01-15 00:30:14.32	1.39	14.17	-67.1	-72.1	3.5	0.00e+00	0	54	104
2025-01-15 00:30:15.22	1.31	14.28	-53.7	-56.1	11.2	0.00e+00	312	55	104
2025-01-15 00:30:16.22	1.22	14.41	-53.5	-56.3	10.1	1.99e-03	0	55	0
2025-01-15 00:30:17.12	1.13	14.52	-52.5	-55.3	10.5	7.11e-03	0	55	0
2025-01-15 00:30:18.12	1.04	14.64	-53.4	-56.5	13.0	6.31e-04	0	55	0
2025-01-15 00:30:19.02	0.96	14.76	-54.6	-57.9	12.2	6.24e-05	0	55	0
2025-01-15 00:30:20.02	0.86	14.88	-53.8	-56.4	12.7	1.25e-04	0	55	0
2025-01-15 00:30:20.92	0.78	15.00	-52.3	-54.7	13.6	1.38e-05	0	56	0
2025-01-15 00:30:21.91	0.68	15.12	-52.7	-55.6	13.4	0.00e+00	0	56	0
2025-01-15 00:30:22.81	0.59	15.24	-52.1	-54.4	13.7	6.90e-06	0	56	0
2025-01-15 00:30:23.80	0.50	15.37	-51.8	-54.3	13.7	6.90e-06	0	56	0
2025-01-15 00:30:24.71	0.41	15.49	-51.5	-54.2	14.0	0.00e+00	0	56	0
2025-01-15 00:30:25.69	0.31	15.62	-51.4	-53.9	14.2	0.00e+00	0	56	0
2025-01-15 00:30:26.60	0.22	15.74	-51.4	-54.0	14.2	0.00e+00	0	56	0
2025-01-15 00:30:27.58	0.12	15.87	-51.4	-53.9	14.2	0.00e+00	0	56	0
2025-01-15 00:30:28.49	0.02	15.99	-51.4	-53.9	14.2	0.00e+00	0	56	0
2025-01-15 00:30:29.48	359.92	16.12	-51.3	-53.9	14.2	0.00e+00	0	57	0
2025-01-15 00:30:30.38	359.82	16.24	-51.3	-53.9	14.2	0.00e+00	0	57	0
2025-01-15 00:30:31.38	359.72	16.38	-51.3	-53.7	14.3	0.00e+00	0	57	0
2025-01-15 00:30:32.28	359.62	16.50	-51.3	-53.7	14.4	0.00e+00	0	57	0
2025-01-15 00:30:33.28	359.51	16.64	-51.3	-53.7	14.5	0.00e+00	0	57	0
2025-01-15 00:30:34.18	359.41	16.76	-51.2	-53.6	14.6	0.00e+00	0	57	0
2025-01-15 00:30:35.17	359.30	16.90	-51.1	-53.4	14.6	0.00e+00	0	57	0
2025-01-15 00:30:36.07	359.20	17.03	-51.1	-53.9	14.5	0.00e+00	0	57	0
2025-01-15 00:30:37.07	359.09	17.17	-51.1	-53.9	14.5	0.00e+00	0	58	0
2025-01-15 00:30:37.97	358.98	17.30	-51.0	-53.7	14.4	0.00e+00	0	58	0
2025-01-15 00:30:38.97	358.87	17.44	-51.0	-53.6	14.3	0.00e+00	0	58	0
2025-01-15 00:30:39.87	358.76	17.57	-50.9	-53.5	14.3	0.00e+00	0	58	0
2025-01-15 00:30:40.86	358.65	17.71	-50.8	-53.4	14.3	0.00e+00	0	58	0
2025-01-15 00:30:41.77	358.54	17.84	-50.8	-53.3	14.5	0.00e+00	0	58	0
2025-01-15 00:30:42.75	358.42	17.99	-50.7	-53.2	14.6	0.00e+00	0	58	0
2025-01-15 00:30:43.66	358.31	18.12	-50.7	-53.2	14.7	0.00e+00	0	58	0
2025-01-15 00:30:44.65	358.18	18.27	-50.7	-53.1	14.8	0.00e+00	0	59	0
2025-01-15 00:30:45.55	358.07	18.40	-50.7	-53.1	14.8	0.00e+00	0	59	0
2025-01-15 00:30:46.55	357.94	18.55	-50.7	-53.0	14.8	0.00e+00	0	59	0
2025-01-15 00:30:47.45	357.83	18.69	-50.6	-53.0	14.8	0.00e+00	0	59	0
2025-01-15 00:30:48.44	357.70	18.84	-50.6	-52.9	14.8	0.00e+00	0	59	0
2025-01-15 00:30:49.34	357.58	18.98	-50.6	-52.9	14.8	0.00e+00	0	59	0
2025-01-15 00:30:50.34	357.45	19.13	-50.6	-53.3	14.8	0.00e+00	0	59	0
2025-01-15 00:30:51.24	357.33	19.27	-50.5	-53.2	14.8	0.00e+00	0	59	0
2025-01-15 00:30:52.23	357.20	19.43	-50.4	-53.1	14.9	0.00e+00	0	59	0
2025-01-15 00:30:53.14	357.07	19.57	-50.4	-53.0	14.9	0.00e+00	0	59	0
2025-01-15 00:30:54.12	356.94	19.73	-50.3	-52.8	14.9	0.00e+00	0	59	0
2025-01-15 00:30:55.03	356.81	19.87	-50.2	-52.7	15.0	0.00e+00	0	59	0
2025-01-15 00:30:56.02	356.67	20.03	-50.2	-52.6	15.0	0.00e+00	0	60	0
2025-01-15 00:30:56.93	356.54	20.18	-50.2	-52.6	15.0	0.00e+00	0	60	0
2025-01-15 00:30:57.92	356.40	20.34	-50.2	-52.5	15.0	0.00e+00	0	60	0
2025-01-15 00:30:58.83	356.26	20.49	-50.1	-52.4	15.0	0.00e+00	0	60	0
2025-01-15 00:30:59.82	356.12	20.65	-50.0	-52.8	15.0	0.00e+00	0	60	0
2025-01-15 00:31:00.73	355.98	20.80	-50.0	-52.7	15.0	0.00e+00	0	60	0
2025-01-15 00:31:01.72	355.83	20.97	-50.0	-52.7	15.1	0.00e+00	0	60	0
2025-01-15 00:31:02.63	355.69	21.12	-49.9	-52.6	15.1	0.00e+00	0	60	0
2025-01-15 00:31:03.62	355.53	21.29	-49.9	-52.5	15.2	0.00e+00	0	60	0
2025-01-15 00:31:04.53	355.39	21.44	-49.9	-52.4	15.2	0.00e+00	0	60	0
2025-01-15 00:31:05.52	355.23	21.61	-49.8	-52.3	15.2	0.00e+00	0	60	0
2025-01-15 00:31:06.42	355.09	21.77	-49.8	-52.3	15.2	0.00e+00	0	61	0
2025-01-15 00:31:07.42	354.92	21.94	-49.7	-52.1	15.3	0.00e+00	0	61	0
2025-01-15 00:31:08.32	354.78	22.10	-49.7	-52.0	15.3	0.00e+00	0	61	0
2025-01-15 00:31:09.31	354.61	22.28	-49.6	-52.0	15.4	0.00e+00	0	61	0
2025-01-15 00:31:10.21	354.46	22.43	-49.6	-51.9	15.4	0.00e+00	0	61	0
2025-01-15 00:31:11.21	354.29	22.61	-49.6	-52.3	15.4	0.00e+00	0	61	0
2025-01-15 00:31:12.11	354.13	22.78	-49.6	-52.3	15.4	0.00e+00	0	62	0
2025-01-15 00:31:13.11	353.95	22.96	-49.5	-52.2	15.4	0.00e+00	0	61	0
2025-01-15 00:31:14.01	353.79	23.12	-49.4	-52.1	15.5	0.00e+00	0	61	0
2025-01-15 00:31:15.01	353.61	23.30	-49.3	-51.9	15.5	0.00e+00	0	62	0
2025-01-15 00:31:15.91	353.45	23.47	-49.3	-51.8	15.5	0.00e+00	0	62	0
2025-01-15 00:31:16.91	353.26	23.66	-49.3	-51.7	15.5	0.00e+00	0	62	0
2025-01-15 00:31:17.81	353.09	23.83	-49.2	-51.7	15.5	0.00e+00	0	62	0
2025-01-15 00:31:18.81	352.90	24.02	-49.2	-51.6	15.5	0.00e+00	0	62	0
2025-01-15 00:31:19.71	352.73	24.19	-49.1	-51.4	15.5	0.00e+00	0	62	0
2025-01-15 00:31:20.71	352.54	24.38	-49.1	-51.4	15.5	0.00e+00	0	62	0
2025-01-15 00:31:21.61	352.36	24.55	-47.9	-50.6	15.4	0.00e+00	0	62	0
2025-01-15 00:31:22.61	352.16	24.75	-48.0	-50.6	15.3	0.00e+00	0	62	0
2025-01-15 00:31:23.51	351.98	24.92	-48.0	-50.7	15.3	0.00e+00	0	62	0
2025-01-15 00:31:24.51	351.77	25.12	-48.0	-50.6	15.3	0.00e+00	0	62	0
2025-01-15 00:31:25.41	351.58	25.30	-47.9	-50.5	15.4	0.00e+00	0	62	0
2025-01-15 00:31:26.41	351.37	25.50	-47.9	-50.4	15.4	0.00e+00	0	62	0
2025-01-15 00:31:27.31	351.18	25.68	-47.8	-50.3	15.4	0.00e+00	0	62	0
2025-01-15 00:31:28.31	350.96	25.88	-47.7	-50.0	15.4	0.00e+00	0	62	0
2025-01-15 00:31:29.21	350.76	26.06	-47.6	-50.0	15.4	0.00e+00	0	62	0
2025-01-15 00:31:30.20	350.54	26.26	-47.6	-49.9	15.4	0.00e+00	0	62	0
2025-01-15 00:31:31.10	350.34	26.45	-47.5	-50.2	15.4	0.00e+00	0	62	0
2025-01-15 00:31:32.10	350.11	26.66	-47.5	-50.1	15.4	0.00e+00	0	62	0
2025-01-15 00:31:33.00	349.90	26.85	-47.5	-50.2	15.5	0.00e+00	0	62	0
2025-01-15 00:31:34.00	349.67	27.06	-47.5	-50.1	15.6	0.00e+00	0	62	0
2025-01-15 00:31:34.90	349.45	27.25	-47.5	-50.1	15.5	0.00e+00	0	62	0
2025-01-15 00:31:35.90	349.21	27.46	-47.5	-50.2	15.5	0.00e+00	0	63	0
2025-01-15 00:31:36.80	348.99	27.65	-47.5	-50.1	15.5	0.00e+00	0	63	0
2025-01-15 00:31:37.80	348.74	27.87	-47.5	-50.1	15.5	0.00e+00	0	63	0
2025-01-15 00:31:38.70	348.51	28.06	-47.4	-50.0	15.5	0.00e+00	0	63	0
2025-01-15 00:31:39.70	348.25	28.28	-47.3	-49.7	15.6	0.00e+00	0	63	0
2025-01-15 00:31:40.60	348.02	28.48	-47.2	-49.5	15.5	0.00e+00	0	63	0
2025-01-15 00:31:41.59	347.76	28.70	-47.2	-49.5	15.4	0.00e+00	0	63	0
2025-01-15 00:31:42.50	347.52	28.90	-47.1	-49.3	15.4	0.00e+00	0	63	0
2025-01-15 00:31:43.49	347.25	29.12	-47.0	-49.6	15.5	0.00e+00	0	63	0
2025-01-15 00:31:44.40	347.00	29.33	-47.0	-49.7	15.6	0.00e+00	0	63	0
2025-01-15 00:31:45.39	346.72	29.55	-47.0	-49.7	15.6	0.00e+00	0	63	0
2025-01-15 00:31:46.30	346.46	29.76	-47.1	-49.8	15.6	0.00e+00	0	63	0
2025-01-15 00:31:47.29	346.18	29.99	-47.1	-49.9	15.6	0.00e+00	0	63	0
2025-01-15 00:31:48.20	345.91	30.20	-47.2	-50.1	15.6	0.00e+00	0	64	0
2025-01-15 00:31:49.19	345.62	30.43	-47.2	-50.0	15.6	0.00e+00	0	64	0
2025-01-15 00:31:50.10	345.34	30.64	-46.9	-49.5	15.7	0.00e+00	0	64	0
2025-01-15 00:31:51.09	345.04	30.87	-46.8	-49.2	15.7	0.00e+00	0	64	0
2025-01-15 00:31:51.99	344.76	31.09	-46.7	-49.2	15.7	0.00e+00	0	64	0
2025-01-15 00:31:52.98	344.45	31.32	-46.6	-48.9	15.8	0.00e+00	0	64	0
2025-01-15 00:31:53.89	344.16	31.54	-46.7	-49.0	15.8	0.00e+00	0	64	0
2025-01-15 00:31:54.88	343.84	31.78	-46.7	-49.0	15.8	0.00e+00	0	64	0
2025-01-15 00:31:55.79	343.54	32.00	-46.7	-49.1	15.7	0.00e+00	0	64	0
2025-01-15 00:31:56.78	343.20	32.24	-46.9	-49.4	15.6	0.00e+00	0	64	0
2025-01-15 00:31:57.69	342.89	32.46	-46.9	-49.4	15.6	0.00e+00	0	64	0
2025-01-15 00:31:58.67	342.56	32.70	-47.0	-49.6	15.6	0.00e+00	0	64	0
2025-01-15 00:31:59.58	342.24	32.92	-46.8	-49.4	15.6	0.00e+00	0	64	0
2025-01-15 00:32:00.57	341.88	33.17	-46.6	-48.9	15.7	0.00e+00	0	64	0
2025-01-15 00:32:01.48	341.56	33.39	-46.5	-49.3	15.7	0.00e+00	0	65	0
2025-01-15 00:32:02.47	341.19	33.64	-46.4	-49.0	15.8	0.00e+00	0	64	0
2025-01-15 00:32:03.38	340.85	33.87	-46.4	-48.9	15.8	0.00e+00	0	65	0
2025-01-15 00:32:04.37	340.48	34.12	-46.4	-48.9	15.7	0.00e+00	0	65	0
2025-01-15 00:32:05.28	340.13	34.34	-46.4	-49.0	15.6	0.00e+00	0	65	0
2025-01-15 00:32:06.27	339.74	34.60	-46.6	-49.3	15.8	0.00e+00	0	65	0
2025-01-15 00:32:07.18	339.38	34.83	-46.6	-49.4	15.9	0.00e+00	0	65	0
2025-01-15 00:32:08.17	338.98	35.08	-46.6	-49.3	15.9	0.00e+00	0	65	0
2025-01-15 00:32:09.08	338.60	35.31	-46.5	-49.2	15.9	0.00e+00	0	65	0
2025-01-15 00:32:10.07	338.19	35.57	-46.4	-48.9	16.0	0.00e+00	0	65	0
2025-01-15 00:32:10.98	337.80	35.80	-46.2	-48.6	16.0	0.00e+00	0	65	0
2025-01-15 00:32:11.97	337.38	36.05	-46.0	-48.8	16.0	0.00e+00	0	65	0
2025-01-15 00:32:12.88	336.98	36.29	-46.0	-48.7	16.0	0.00e+00	0	65	0
2025-01-15 00:32:13.87	336.54	36.55	-46.1	-48.8	16.0	0.00e+00	0	65	0
2025-01-15 00:32:14.77	336.13	36.78	-46.1	-48.9	16.0	0.00e+00	0	65	0
2025-01-15 00:32:15.77	335.67	37.04	-46.2	-49.0	16.0	0.00e+00	0	65	0
2025-01-15 00:32:16.67	335.25	37.27	-46.3	-49.3	16.0	0.00e+00	0	65	0
2025-01-15 00:32:17.66	334.78	37.53	-46.3	-49.2	15.9	0.00e+00	0	65	0
2025-01-15 00:32:18.56	334.35	37.76	-46.3	-49.3	15.9	0.00e+00	0	66	0
2025-01-15 00:32:19.56	333.86	38.02	-46.2	-49.0	16.0	0.00e+00	0	66	0
2025-01-15 00:32:20.46	333.41	38.26	-46.0	-48.6	16.1	0.00e+00	0	66	0
2025-01-15 00:32:21.46	332.91	38.52	-45.9	-48.6	16.1	0.00e+00	0	66	0
2025-01-15 00:32:22.36	332.44	38.75	-45.9	-48.4	16.1	0.00e+00	0	66	0
2025-01-15 00:32:23.36	331.92	39.01	-45.9	-48.4	15.9	0.00e+00	0	66	0
2025-01-15 00:32:24.26	331.45	39.25	-45.4	-48.0	16.0	0.00e+00	0	66	0
2025-01-15 00:32:25.26	330.91	39.50	-45.4	-48.0	16.0	0.00e+00	0	66	0
2025-01-15 00:32:26.16	330.41	39.74	-45.5	-48.1	16.0	0.00e+00	0	66	0
2025-01-15 00:32:27.16	329.86	39.99	-45.5	-48.2	16.0	0.00e+00	0	66	0
2025-01-15 00:32:28.06	329.35	40.23	-45.6	-48.4	16.0	0.00e+00	0	66	0
2025-01-15 00:32:29.06	328.77	40.48	-45.4	-48.0	16.1	0.00e+00	0	66	0
2025-01-15 00:32:29.96	328.25	40.71	-45.4	-47.9	16.1	0.00e+00	0	66	0
2025-01-15 00:32:30.96	327.66	40.96	-45.4	-48.0	16.1	0.00e+00	0	66	0
2025-01-15 00:32:31.86	327.11	41.19	-45.6	-48.3	16.1	0.00e+00	0	66	0
2025-01-15 00:32:32.86	326.50	41.44	-45.4	-48.1	16.1	0.00e+00	0	66	0
2025-01-15 00:32:33.76	325.94	41.67	-45.3	-47.8	16.1	0.00e+00	0	67	0
2025-01-15 00:32:34.76	325.31	41.91	-45.4	-48.0	16.1	0.00e+00	0	66	0
2025-01-15 00:32:35.66	324.74	42.14	-45.5	-48.2	16.1	0.00e+00	0	66	0
2025-01-15 00:32:36.66	324.09	42.38	-45.4	-47.9	16.0	0.00e+00	0	66	0
2025-01-15 00:32:37.56	323.49	42.60	-45.2	-47.6	16.1	0.00e+00	0	66	0
2025-01-15 00:32:38.55	322.83	42.83	-45.3	-47.8	16.1	0.00e+00	0	66	0
2025-01-15 00:32:39.45	322.22	43.05	-45.5	-48.1	16.0	0.00e+00	0	67	0
2025-01-15 00:32:40.45	321.53	43.28	-45.4	-47.9	16.1	0.00e+00	0	66	0
2025-01-15 00:32:41.35	320.90	43.49	-45.3	-47.8	16.1	0.00e+00	0	67	0
2025-01-15 00:32:42.35	320.19	43.72	-45.4	-48.0	16.1	0.00e+00	0	67	0
2025-01-15 00:32:43.25	319.54	43.92	-45.6	-48.4	16.1	0.00e+00	0	66	0
2025-01-15 00:32:44.25	318.81	44.14	-45.5	-48.1	16.1	0.00e+00	0	67	0
2025-01-15 00:32:45.15	318.14	44.34	-45.5	-48.1	16.1	0.00e+00	0	67	0
2025-01-15 00:32:46.15	317.40	44.55	-45.6	-48.3	16.0	0.00e+00	0	67	0
2025-01-15 00:32:47.05	316.71	44.74	-45.5	-48.1	16.0	0.00e+00	0	67	0
2025-01-15 00:32:48.05	315.94	44.95	-45.4	-48.0	16.0	0.00e+00	0	67	0
2025-01-15 00:32:48.95	315.24	45.13	-45.4	-48.1	16.0	0.00e+00	0	67	0
2025-01-15 00:32:49.95	314.45	45.33	-45.7	-48.5	16.0	0.00e+00	0	67	0
2025-01-15 00:32:50.85	313.73	45.50	-45.4	-48.0	16.2	0.00e+00	0	67	0
2025-01-15 00:32:51.85	312.92	45.69	-45.5	-48.1	16.2	0.00e+00	0	67	0
2025-01-15 00:32:52.75	312.19	45.86	-45.8	-48.7	16.0	0.00e+00	0	67	0
2025-01-15 00:32:53.75	311.36	46.04	-45.5	-48.1	16.1	0.00e+00	0	67	0
2025-01-15 00:32:54.65	310.61	46.19	-45.8	-48.8	16.1	0.00e+00	0	67	0
2025-01-15 00:32:55.65	309.76	46.36	-46.1	-49.3	15.9	0.00e+00	0	67	0
2025-01-15 00:32:56.55	308.99	46.50	-45.7	-48.6	16.1	0.00e+00	0	67	0
2025-01-15 00:32:57.55	308.13	46.66	-46.0	-49.1	16.1	0.00e+00	0	67	0
2025-01-15 00:32:58.45	307.34	46.80	-46.1	-49.5	16.0	0.00e+00	0	67	0
2025-01-15 00:32:59.44	306.47	46.94	-45.8	-48.8	16.0	0.00e+00	0	67	0
2025-01-15 00:33:00.34	305.67	47.06	-46.1	-49.4	16.0	0.00e+00	0	68	0
2025-01-15 00:33:01.34	304.78	47.19	-46.4	-49.4	16.0	0.00e+00	0	68	0
2025-01-15 00:33:02.24	303.97	47.30	-46.0	-48.7	16.1	0.00e+00	0	67	0
2025-01-15 00:33:03.24	303.06	47.42	-46.1	-49.0	16.0	0.00e+00	0	67	0
2025-01-15 00:33:04.14	302.23	47.52	-46.4	-49.5	15.9	0.00e+00	0	68	0
2025-01-15 00:33:05.14	301.31	47.62	-46.2	-49.0	15.9	0.00e+00	0	68	0
2025-01-15 00:33:06.04	300.48	47.71	-46.1	-48.9	16.0	0.00e+00	0	68	0
2025-01-15 00:33:07.04	299.54	47.80	-46.3	-49.3	16.0	0.00e+00	0	68	0
2025-01-15 00:33:07.94	298.70	47.87	-46.3	-49.3	15.9	0.00e+00	0	68	0
2025-01-15 00:33:08.93	297.76	47.94	-46.3	-49.3	15.8	0.00e+00	0	68	0
2025-01-15 00:33:09.84	296.90	48.00	-46.3	-49.3	15.9	0.00e+00	0	68	0
2025-01-15 00:33:10.83	295.96	48.06	-46.4	-49.6	15.9	0.00e+00	0	68	0
2025-01-15 00:33:11.74	295.09	48.11	-46.8	-50.2	15.7	0.00e+00	0	68	0
2025-01-15 00:33:12.73	294.14	48.15	-46.5	-49.2	15.7	0.00e+00	0	68	0
2025-01-15 00:33:13.64	293.27	48.18	-46.7	-49.5	15.6	0.00e+00	0	68	0
2025-01-15 00:33:14.63	292.32	48.21	-46.9	-49.9	15.6	0.00e+00	0	68	0
2025-01-15 00:33:15.54	291.44	48.22	-46.4	-49.0	15.9	0.00e+00	0	68	0
2025-01-15 00:33:16.53	290.49	48.23	-46.6	-49.3	15.7	0.00e+00	0	68	0
2025-01-15 00:33:17.44	289.61	48.23	-46.8	-49.8	15.7	0.00e+00	0	68	0
2025-01-15 00:33:18.43	288.66	48.23	-46.6	-49.5	15.7	0.00e+00	0	68	0
2025-01-15 00:33:19.34	287.78	48.21	-46.7	-49.5	15.6	0.00e+00	0	68	0
2025-01-15 00:33:20.33	286.83	48.19	-46.5	-49.2	15.7	0.00e+00	0	68	0
2025-01-15 00:33:21.23	285.96	48.16	-46.6	-49.4	15.7	0.00e+00	0	68	0
2025-01-15 00:33:22.22	285.01	48.13	-46.8	-49.7	15.6	0.00e+00	0	68	0
2025-01-15 00:33:23.13	284.14	48.08	-46.4	-48.9	15.8	0.00e+00	0	68	0
2025-01-15 00:33:24.12	283.20	48.03	-46.4	-49.1	15.8	0.00e+00	0	68	0
2025-01-15 00:33:25.03	282.33	47.97	-46.6	-49.4	15.8	0.00e+00	0	68	0
2025-01-15 00:33:26.01	281.41	47.90	-46.2	-48.7	15.8	0.00e+00	0	68	0
2025-01-15 00:33:26.92	280.55	47.83	-46.5	-49.2	15.7	0.00e+00	0	68	0
2025-01-15 00:33:27.91	279.62	47.75	-46.6	-49.5	15.7	0.00e+00	0	69	0
2025-01-15 00:33:28.82	278.77	47.66	-46.6	-49.3	15.8	0.00e+00	0	69	0
2025-01-15 00:33:29.81	277.86	47.57	-46.7	-49.5	15.8	0.00e+00	0	69	0
2025-01-15 00:33:30.72	277.02	47.47	-46.7	-49.6	15.7	0.00e+00	0	69	0
2025-01-15 00:33:31.71	276.11	47.35	-46.7	-49.6	15.8	0.00e+00	0	69	0
2025-01-15 00:33:32.62	275.29	47.24	-46.7	-49.7	15.8	0.00e+00	0	69	0
2025-01-15 00:33:33.61	274.40	47.12	-46.6	-49.4	15.8	0.00e+00	0	69	0
2025-01-15 00:33:34.52	273.58	46.99	-46.7	-49.6	15.8	0.00e+00	0	69	0
2025-01-15 00:33:35.51	272.71	46.85	-46.7	-49.7	15.8	0.00e+00	0	69	0
2025-01-15 00:33:36.42	271.91	46.72	-46.6	-49.4	15.8	0.00e+00	0	69	0
2025-01-15 00:33:37.41	271.05	46.57	-46.4	-49.0	15.9	0.00e+00	0	69	0
2025-01-15 00:33:38.32	270.27	46.42	-46.6	-49.3	15.9	0.00e+00	0	69	0
2025-01-15 00:33:39.31	269.42	46.26	-46.5	-49.2	15.9	0.00e+00	0	69	0
2025-01-15 00:33:40.22	268.66	46.10	-46.2	-48.7	16.0	0.00e+00	0	69	0
2025-01-15 00:33:41.21	267.83	45.93	-46.2	-48.6	15.9	0.00e+00	0	69	0
2025-01-15 00:33:42.12	267.08	45.76	-46.0	-48.7	16.0	0.00e+00	0	69	0
2025-01-15 00:33:43.11	266.27	45.57	-45.9	-48.4	16.0	0.00e+00	0	69	0
2025-01-15 00:33:44.01	265.55	45.40	-46.0	-48.7	16.0	0.00e+00	0	69	0
2025-01-15 00:33:45.01	264.75	45.20	-46.2	-49.1	16.0	0.00e+00	0	69	0
2025-01-15 00:33:45.91	264.04	45.02	-45.9	-48.4	16.1	0.00e+00	0	69	0
2025-01-15 00:33:46.90	263.27	44.82	-46.1	-48.9	16.1	0.00e+00	0	69	0
2025-01-15 00:33:47.80	262.58	44.63	-46.3	-49.4	15.9	0.00e+00	0	69	0
2025-01-15 00:33:48.80	261.83	44.42	-46.3	-49.2	16.0	0.00e+00	0	69	0
2025-01-15 00:33:49.70	261.15	44.22	-46.3	-49.4	15.9	0.00e+00	0	69	0
2025-01-15 00:33:50.70	260.42	44.00	-46.4	-49.5	15.9	0.00e+00	0	69	0
2025-01-15 00:33:51.60	259.76	43.80	-46.3	-49.3	16.0	0.00e+00	0	69	0
2025-01-15 00:33:52.60	259.04	43.57	-45.9	-48.4	16.1	0.00e+00	0	69	0
2025-01-15 00:33:53.50	258.41	43.36	-45.9	-48.6	16.0	0.00e+00	0	69	0
2025-01-15 00:33:54.50	257.71	43.13	-46.0	-48.6	16.1	0.00e+00	0	69	0
2025-01-15 00:33:55.40	257.09	42.91	-46.0	-48.7	16.2	0.00e+00	0	69	0
2025-01-15 00:33:56.40	256.42	42.67	-46.0	-48.6	16.1	0.00e+00	0	70	0
2025-01-15 00:33:57.30	255.82	42.45	-46.1	-49.0	16.0	0.00e+00	0	70	0
2025-01-15 00:33:58.30	255.16	42.21	-46.4	-49.5	15.9	0.00e+00	0	70	0
2025-01-15 00:33:59.20	254.58	41.99	-46.5	-49.8	15.9	0.00e+00	0	70	0
2025-01-15 00:34:00.20	253.94	41.74	-46.3	-49.4	16.0	0.00e+00	0	70	0
2025-01-15 00:34:01.10	253.37	41.52	-46.4	-49.5	16.0	0.00e+00	0	70	0
2025-01-15 00:34:02.10	252.76	41.26	-46.3	-49.2	16.0	0.00e+00	0	70	0
2025-01-15 00:34:03.00	252.21	41.04	-46.2	-49.0	15.9	0.00e+00	0	70	0
2025-01-15 00:34:04.00	251.61	40.78	-46.0	-48.6	16.0	0.00e+00	0	70	0
2025-01-15 00:34:04.90	251.08	40.55	-45.9	-48.5	16.0	0.00e+00	0	70	0
2025-01-15 00:34:05.90	250.50	40.29	-46.1	-48.9	16.0	0.00e+00	0	70	0
2025-01-15 00:34:06.80	249.98	40.06	-46.2	-49.1	15.9	0.00e+00	0	70	0
2025-01-15 00:34:07.79	249.42	39.80	-46.4	-49.4	15.9	0.00e+00	0	70	0
2025-01-15 00:34:08.69	248.92	39.57	-46.5	-49.6	15.9	0.00e+00	0	70	0
2025-01-15 00:34:09.69	248.38	39.31	-46.5	-49.7	15.9	0.00e+00	0	70	0
2025-01-15 00:34:10.59	247.90	39.07	-46.5	-49.7	15.8	0.00e+00	0	70	0
2025-01-15 00:34:11.59	247.37	38.81	-46.4	-49.5	15.8	0.00e+00	0	70	0
2025-01-15 00:34:12.49	246.90	38.58	-46.2	-49.1	15.9	0.00e+00	0	70	0
2025-01-15 00:34:13.49	246.39	38.32	-46.2	-49.0	15.9	0.00e+00	0	70	0
2025-01-15 00:34:14.39	245.93	38.08	-46.2	-49.1	15.9	0.00e+00	0	70	0
2025-01-15 00:34:15.39	245.44	37.82	-46.4	-49.5	15.8	0.00e+00	0	70	0
2025-01-15 00:34:16.29	245.00	37.58	-46.4	-49.5	15.8	0.00e+00	0	70	0
2025-01-15 00:34:17.29	244.52	37.32	-46.5	-49.7	15.7	0.00e+00	0	70	0
2025-01-15 00:34:18.19	244.10	37.08	-46.6	-50.0	15.7	0.00e+00	0	70	0
2025-01-15 00:34:19.19	243.63	36.82	-46.6	-49.8	15.8	0.00e+00	0	70	0
2025-01-15 00:34:20.09	243.22	36.59	-46.8	-50.2	15.8	0.00e+00	0	70	0
2025-01-15 00:34:21.09	242.77	36.33	-46.9	-50.0	15.7	0.00e+00	0	70	0
2025-01-15 00:34:21.99	242.37	36.09	-46.8	-49.7	15.7	0.00e+00	0	70	0
2025-01-15 00:34:22.99	241.94	35.83	-46.6	-49.3	15.7	0.00e+00	0	70	0
2025-01-15 00:34:23.89	241.55	35.60	-46.6	-49.4	15.7	0.00e+00	0	70	0
2025-01-15 00:34:24.89	241.13	35.34	-46.6	-49.5	15.7	0.00e+00	0	70	0
2025-01-15 00:34:25.79	240.75	35.11	-46.7	-49.6	15.7	0.00e+00	0	70	0
2025-01-15 00:34:26.79	240.34	34.85	-46.9	-50.0	15.6	0.00e+00	0	70	0
2025-01-15 00:34:27.69	239.98	34.62	-47.1	-50.4	15.5	0.00e+00	0	70	0
2025-01-15 00:34:28.68	239.59	34.37	-47.2	-50.6	15.4	0.00e+00	0	70	0
2025-01-15 00:34:29.58	239.24	34.14	-47.2	-50.6	15.4	0.00e+00	0	70	0
2025-01-15 00:34:30.58	238.86	33.88	-47.1	-50.5	15.5	0.00e+00	0	70	0
2025-01-15 00:34:31.48	238.52	33.66	-47.0	-50.2	15.6	0.00e+00	0	70	0
2025-01-15 00:34:32.48	238.14	33.40	-47.0	-50.2	15.6	0.00e+00	0	70	0
2025-01-15 00:34:33.38	237.81	33.18	-47.0	-50.3	15.6	0.00e+00	0	71	0
2025-01-15 00:34:34.38	237.45	32.93	-47.1	-50.5	15.5	0.00e+00	0	70	0
2025-01-15 00:34:35.28	237.13	32.71	-47.1	-50.5	15.5	0.00e+00	0	71	0
2025-01-15 00:34:36.27	236.79	32.46	-47.2	-50.6	15.5	0.00e+00	0	70	0
2025-01-15 00:34:37.18	236.48	32.24	-47.4	-50.4	15.5	0.00e+00	0	70	0
2025-01-15 00:34:38.17	236.14	31.99	-47.6	-50.8	15.4	0.00e+00	0	70	0
2025-01-15 00:34:39.08	235.84	31.77	-47.6	-51.0	15.4	0.00e+00	0	70	0
2025-01-15 00:34:40.07	235.51	31.53	-47.7	-51.1	15.3	0.00e+00	0	71	0
2025-01-15 00:34:40.98	235.22	31.31	-47.7	-51.1	15.3	0.00e+00	0	71	0
2025-01-15 00:34:41.97	234.90	31.07	-47.6	-50.8	15.3	0.00e+00	0	71	0
2025-01-15 00:34:42.88	234.62	30.86	-47.6	-50.8	15.3	0.00e+00	0	71	0
2025-01-15 00:34:43.87	234.31	30.62	-47.6	-50.8	15.3	0.00e+00	0	71	0
2025-01-15 00:34:44.78	234.03	30.41	-47.6	-50.9	15.4	0.00e+00	0	71	0
2025-01-15 00:34:45.77	233.74	30.18	-47.6	-51.0	15.4	0.00e+00	0	71	0
2025-01-15 00:34:46.68	233.47	29.96	-47.8	-51.2	15.3	0.00e+00	0	71	0
2025-01-15 00:34:47.67	233.18	29.73	-48.0	-51.1	15.2	0.00e+00	0	71	0
2025-01-15 00:34:48.58	232.92	29.52	-48.2	-51.6	15.1	0.00e+00	0	71	0
2025-01-15 00:34:49.57	232.64	29.30	-48.3	-51.2	15.1	0.00e+00	0	71	0
2025-01-15 00:34:50.47	232.39	29.09	-48.4	-51.5	15.1	0.00e+00	0	71	0
2025-01-15 00:34:51.46	232.11	28.87	-48.4	-51.5	15.1	0.00e+00	0	71	0
2025-01-15 00:34:52.37	231.87	28.66	-48.3	-51.2	15.2	0.00e+00	0	71	0
2025-01-15 00:34:53.36	231.60	28.44	-48.2	-51.1	15.2	0.00e+00	0	71	0
2025-01-15 00:34:54.26	231.37	28.24	-48.1	-50.8	15.3	0.00e+00	0	71	0
2025-01-15 00:34:55.25	231.11	28.02	-48.1	-50.9	15.3	0.00e+00	0	71	0
2025-01-15 00:34:56.16	230.88	27.82	-48.1	-50.9	15.3	0.00e+00	0	71	0
2025-01-15 00:34:57.15	230.63	27.61	-48.2	-51.1	15.3	0.00e+00	0	71	0
2025-01-15 00:34:58.06	230.40	27.41	-48.3	-51.4	15.2	0.00e+00	0	71	0
2025-01-15 00:34:59.05	230.16	27.20	-48.6	-51.9	15.1	0.00e+00	0	71	0
2025-01-15 00:34:59.96	229.94	27.00	-48.7	-52.0	15.2	0.00e+00	0	71	0
2025-01-15 00:35:00.95	229.70	26.79	-48.6	-51.9	15.1	0.00e+00	0	71	0
2025-01-15 00:35:01.86	229.49	26.60	-48.7	-52.0	15.0	0.00e+00	0	71	0
2025-01-15 00:35:02.85	229.26	26.39	-48.7	-52.0	14.9	0.00e+00	0	71	0
2025-01-15 00:35:03.76	229.05	26.20	-48.6	-51.9	14.9	0.00e+00	0	71	0
2025-01-15 00:35:04.75	228.83	26.00	-48.4	-51.5	15.0	0.00e+00	0	71	0
2025-01-15 00:35:05.66	228.63	25.81	-48.5	-51.7	15.0	0.00e+00	0	71	0
2025-01-15 00:35:06.65	228.41	25.61	-48.5	-51.7	15.1	0.00e+00	0	71	0
2025-01-15 00:35:07.56	228.21	25.42	-48.6	-51.8	15.2	0.00e+00	0	71	0
2025-01-15 00:35:08.55	228.00	25.22	-48.7	-52.0	15.2	0.00e+00	0	71	0
2025-01-15 00:35:09.46	227.81	25.04	-48.7	-52.2	15.2	0.00e+00	0	71	0
2025-01-15 00:35:10.45	227.60	24.85	-49.0	-52.1	15.1	0.00e+00	0	71	0
2025-01-15 00:35:11.35	227.42	24.67	-49.0	-52.3	15.1	0.00e+00	0	71	0
2025-01-15 00:35:12.35	227.22	24.47	-49.1	-52.3	15.0	0.00e+00	0	71	0
2025-01-15 00:35:13.25	227.04	24.30	-49.0	-52.2	15.0	0.00e+00	0	71	0
2025-01-15 00:35:14.25	226.84	24.10	-49.2	-52.6	14.9	0.00e+00	0	71	0
2025-01-15 00:35:15.15	226.66	23.93	-49.2	-52.5	14.9	0.00e+00	0	71	0
2025-01-15 00:35:16.14	226.47	23.74	-49.1	-52.3	15.0	0.00e+00	0	72	0
2025-01-15 00:35:17.04	226.30	23.57	-49.0	-52.1	15.1	0.00e+00	0	71	0
2025-01-15 00:35:18.04	226.12	23.38	-49.0	-52.2	15.0	0.00e+00	0	71	0
2025-01-15 00:35:18.94	225.95	23.21	-49.0	-52.2	14.9	0.00e+00	0	72	0
2025-01-15 00:35:19.94	225.77	23.03	-49.0	-52.2	14.9	0.00e+00	0	72	0
2025-01-15 00:35:20.84	225.60	22.86	-49.0	-52.3	14.9	0.00e+00	0	72	0
2025-01-15 00:35:21.84	225.43	22.68	-49.1	-52.4	14.8	0.00e+00	0	71	0
2025-01-15 00:35:22.74	225.27	22.52	-49.2	-52.7	14.8	0.00e+00	0	71	0
2025-01-15 00:35:23.74	225.09	22.34	-49.4	-52.6	14.7	0.00e+00	0	72	0
2025-01-15 00:35:24.64	224.94	22.17	-49.5	-52.8	14.6	0.00e+00	0	72	0
2025-01-15 00:35:25.64	224.77	22.00	-49.5	-52.8	14.7	0.00e+00	0	71	0
2025-01-15 00:35:26.54	224.62	21.84	-49.7	-53.1	14.6	0.00e+00	0	72	0
2025-01-15 00:35:27.54	224.46	21.66	-51.0	-54.2	14.9	0.00e+00	0	72	0
2025-01-15 00:35:28.44	224.31	21.50	-50.9	-54.1	14.9	0.00e+00	0	72	0
2025-01-15 00:35:29.44	224.15	21.33	-50.8	-53.9	14.9	0.00e+00	0	72	0
2025-01-15 00:35:30.34	224.00	21.18	-50.7	-53.6	14.9	0.00e+00	0	72	0
2025-01-15 00:35:31.34	223.85	21.01	-50.6	-53.3	14.9	0.00e+00	0	72	0
2025-01-15 00:35:32.24	223.71	20.85	-50.6	-53.4	14.9	0.00e+00	0	72	0
2025-01-15 00:35:33.24	223.55	20.68	-50.7	-53.5	14.8	0.00e+00	0	72	0
2025-01-15 00:35:34.14	223.42	20.53	-50.7	-53.6	14.7	0.00e+00	0	72	0
2025-01-15 00:35:35.14	223.27	20.37	-50.8	-53.8	14.7	0.00e+00	0	72	0
2025-01-15 00:35:36.04	223.13	20.22	-50.8	-53.9	14.7	0.00e+00	0	72	0
2025-01-15 00:35:37.03	222.99	20.05	-51.0	-54.2	14.6	0.00e+00	0	72	0
2025-01-15 00:35:37.93	222.86	19.91	-51.1	-54.4	14.6	0.00e+00	0	72	0
2025-01-15 00:35:38.93	222.71	19.75	-51.3	-54.7	14.6	0.00e+00	0	72	0
2025-01-15 00:35:39.83	222.59	19.60	-51.3	-54.3	14.5	0.00e+00	0	72	0
2025-01-15 00:35:40.83	222.45	19.44	-51.4	-54.5	14.5	0.00e+00	0	72	0
2025-01-15 00:35:41.73	222.32	19.30	-51.4	-54.4	14.4	0.00e+00	0	72	0
2025-01-15 00:35:42.73	222.18	19.14	-51.5	-54.8	14.3	0.00e+00	0	72	0
2025-01-15 00:35:43.63	222.06	19.00	-51.5	-54.7	14.4	0.00e+00	0	72	0
2025-01-15 00:35:44.63	221.93	18.84	-51.4	-54.5	14.5	0.00e+00	0	72	0
2025-01-15 00:35:45.53	221.81	18.70	-51.3	-54.4	14.5	0.00e+00	0	72	0
2025-01-15 00:35:46.53	221.68	18.55	-51.3	-54.3	14.6	0.00e+00	0	72	0
2025-01-15 00:35:47.43	221.56	18.41	-51.3	-54.2	14.6	0.00e+00	0	72	0
2025-01-15 00:35:48.43	221.43	18.26	-51.3	-54.3	14.6	0.00e+00	0	72	0
2025-01-15 00:35:49.33	221.32	18.13	-51.3	-54.3	14.7	0.00e+00	0	72	0
2025-01-15 00:35:50.33	221.20	17.98	-51.4	-54.4	14.6	0.00e+00	0	72	0
2025-01-15 00:35:51.23	221.08	17.84	-51.4	-54.6	14.6	0.00e+00	0	72	0
2025-01-15 00:35:52.23	220.96	17.69	-51.5	-54.7	14.5	0.00e+00	0	72	0
2025-01-15 00:35:53.13	220.85	17.56	-51.6	-55.0	14.3	0.00e+00	0	72	0
2025-01-15 00:35:54.13	220.73	17.42	-51.7	-55.1	14.3	0.00e+00	0	72	0
2025-01-15 00:35:55.03	220.63	17.29	-51.8	-55.3	14.3	0.00e+00	0	72	0
2025-01-15 00:35:56.03	220.51	17.14	-52.0	-55.2	14.1	0.00e+00	0	72	0
2025-01-15 00:35:56.93	220.40	17.01	-52.0	-55.3	14.2	0.00e+00	0	72	0
2025-01-15 00:35:57.92	220.29	16.87	-52.1	-55.5	14.1	0.00e+00	0	72	0
2025-01-15 00:35:58.82	220.19	16.74	-52.1	-55.4	14.1	0.00e+00	0	72	0
2025-01-15 00:35:59.82	220.08	16.60	-52.2	-55.6	14.1	0.00e+00	0	72	0
2025-01-15 00:36:00.72	219.98	16.48	-52.1	-55.5	14.1	0.00e+00	0	72	0
2025-01-15 00:36:01.72	219.87	16.34	-52.0	-55.2	14.1	0.00e+00	0	72	0
2025-01-15 00:36:02.62	219.77	16.22	-51.8	-54.9	14.2	0.00e+00	0	72	0
2025-01-15 00:36:03.61	219.66	16.08	-51.8	-54.7	14.3	0.00e+00	0	72	0
2025-01-15 00:36:04.52	219.56	15.96	-51.9	-55.1	14.2	0.00e+00	0	72	0
2025-01-15 00:36:05.51	219.46	15.82	-52.0	-55.3	14.1	0.00e+00	0	72	0
2025-01-15 00:36:06.42	219.36	15.70	-52.0	-55.3	14.1	0.00e+00	0	72	0
2025-01-15 00:36:07.41	219.26	15.57	-52.1	-55.4	14.1	0.00e+00	0	72	0
2025-01-15 00:36:08.32	219.17	15.45	-52.1	-55.5	14.0	0.00e+00	0	72	0
2025-01-15 00:36:09.31	219.07	15.32	-52.3	-55.8	14.0	0.00e+00	0	72	0
2025-01-15 00:36:10.22	218.98	15.20	-52.3	-55.4	13.9	0.00e+00	0	72	0
2025-01-15 00:36:11.21	218.88	15.07	-52.6	-55.9	13.8	0.00e+00	0	72	0
2025-01-15 00:36:12.12	218.79	14.95	-52.5	-55.8	13.8	6.90e-06	0	72	0
2025-01-15 00:36:13.11	218.69	14.82	-52.6	-56.0	13.8	0.00e+00	0	72	0
2025-01-15 00:36:14.02	218.60	14.70	-52.9	-56.0	13.7	1.38e-05	0	72	0
2025-01-15 00:36:15.01	218.51	14.58	-52.9	-56.0	13.7	0.00e+00	0	72	0
2025-01-15 00:36:15.92	218.42	14.46	-53.0	-56.3	13.6	0.00e+00	0	73	0
2025-01-15 00:36:16.91	218.33	14.34	-53.1	-56.4	13.5	6.90e-06	0	72	0
2025-01-15 00:36:17.82	218.24	14.22	-53.0	-56.3	13.5	0.00e+00	0	72	0
2025-01-15 00:36:18.81	218.15	14.10	-53.0	-56.3	13.5	1.38e-05	0	73	0
2025-01-15 00:36:19.72	218.07	13.99	-52.9	-56.1	13.6	0.00e+00	0	72	0
2025-01-15 00:36:20.70	217.98	13.87	-52.8	-55.9	13.6	0.00e+00	0	73	0
2025-01-15 00:36:21.61	217.90	13.75	-52.7	-55.7	13.7	0.00e+00	0	73	0
2025-01-15 00:36:22.60	217.81	13.63	-52.7	-55.6	13.8	0.00e+00	0	72	0
2025-01-15 00:36:23.50	217.73	13.52	-52.7	-55.7	13.7	0.00e+00	0	73	0
2025-01-15 00:36:24.49	217.65	13.41	-52.6	-55.4	13.8	0.00e+00	0	73	0
2025-01-15 00:36:25.40	217.57	13.30	-52.7	-55.7	13.8	0.00e+00	0	73	0
2025-01-15 00:36:26.39	217.49	13.18	-67.6	-73.4	3.6	0.00e+00	0	72	104
2025-01-15 00:36:27.30	217.41	13.07	-67.6	-73.4	3.7	0.00e+00	0	72	104
2025-01-15 00:36:28.29	217.33	12.95	-67.6	-73.5	3.6	0.00e+00	0	72	104
2025-01-15 00:36:29.20	217.25	12.85	-67.7	-73.7	3.7	0.00e+00	0	72	104
2025-01-15 00:36:30.19	217.17	12.73	-67.7	-73.8	3.6	0.00e+00	0	72	104
2025-01-15 00:36:31.10	217.09	12.63	-67.7	-73.7	3.6	0.00e+00	0	72	104
2025-01-15 00:36:32.09	217.01	12.51	-67.7	-73.7	3.7	0.00e+00	0	72	104
2025-01-15 00:36:33.00	216.94	12.41	-67.6	-73.6	3.6	0.00e+00	0	72	104
2025-01-15 00:36:33.99	216.86	12.30	-67.7	-73.6	3.7	0.00e+00	0	72	104
2025-01-15 00:36:34.90	216.79	12.19	-67.6	-73.5	3.6	0.00e+00	0	72	104
2025-01-15 00:36:35.89	216.71	12.08	-67.7	-73.6	3.6	0.00e+00	0	72	104
2025-01-15 00:36:36.80	216.64	11.98	-67.7	-73.7	3.6	0.00e+00	0	72	104
2025-01-15 00:36:37.79	216.57	11.87	-67.7	-73.8	3.6	0.00e+00	0	72	104
2025-01-15 00:36:38.69	216.50	11.77	-67.7	-73.8	3.7	0.00e+00	0	72	104
2025-01-15 00:36:39.69	216.43	11.66	-67.7	-73.8	3.6	0.00e+00	0	72	104
2025-01-15 00:36:40.59	216.36	11.56	-67.7	-73.8	3.7	0.00e+00	0	72	104
2025-01-15 00:36:41.59	216.28	11.45	-67.6	-73.6	3.6	0.00e+00	0	72	104
2025-01-15 00:36:42.49	216.22	11.35	-67.6	-73.6	3.6	0.00e+00	0	72	104
2025-01-15 00:36:43.49	216.15	11.24	-67.6	-73.4	3.7	0.00e+00	0	72	104
2025-01-15 00:36:44.39	216.08	11.15	-67.6	-73.4	3.6	0.00e+00	0	72	104
2025-01-15 00:36:45.38	216.01	11.04	-67.6	-73.4	3.7	0.00e+00	0	72	104
2025-01-15 00:36:46.28	215.95	10.94	-67.6	-73.4	3.6	0.00e+00	0	72	104
2025-01-15 00:36:47.28	215.88	10.84	-67.6	-73.4	3.6	0.00e+00	0	72	104
2025-01-15 00:36:48.18	215.81	10.74	-67.6	-73.4	3.6	0.00e+00	0	72	104
2025-01-15 00:36:49.18	215.75	10.64	-67.6	-73.6	3.6	0.00e+00	0	72	104
2025-01-15 00:36:50.08	215.68	10.54	-67.7	-73.6	3.7	0.00e+00	0	72	104
2025-01-15 00:36:51.08	215.62	10.44	-67.7	-73.6	3.6	0.00e+00	0	72	104
2025-01-15 00:36:51.98	215.56	10.35	-67.7	-73.7	3.7	0.00e+00	0	72	104
2025-01-15 00:36:52.98	215.49	10.24	-67.7	-73.7	3.6	0.00e+00	0	72	104
2025-01-15 00:36:53.88	215.43	10.15	-67.7	-73.6	3.6	0.00e+00	0	72	104
2025-01-15 00:36:54.88	215.36	10.05	-67.6	-73.6	3.7	0.00e+00	0	72	104
2025-01-15 00:36:55.78	215.31	9.96	-67.6	-73.6	3.6	0.00e+00	0	72	104
2025-01-15 00:36:56.78	215.24	9.86	-67.6	-73.7	3.7	0.00e+00	0	72	104
2025-01-15 00:36:57.68	215.18	9.77	-67.6	-73.6	3.6	0.00e+00	0	72	104
2025-01-15 00:36:58.68	215.12	9.67	-67.6	-73.6	3.6	0.00e+00	0	72	104
2025-01-15 00:36:59.58	215.06	9.58	-67.6	-73.7	3.6	0.00e+00	0	72	104
2025-01-15 00:37:00.58	215.00	9.48	-67.6	-73.8	3.6	0.00e+00	0	72	104
2025-01-15 00:37:01.48	214.95	9.39	-67.7	-73.8	3.7	0.00e+00	0	72	104
2025-01-15 00:37:02.48	214.88	9.29	-67.7	-73.8	3.6	0.00e+00	0	72	104
2025-01-15 00:37:03.38	214.83	9.20	-67.7	-73.8	3.7	0.00e+00	0	72	104
2025-01-15 00:37:04.38	214.77	9.11	-67.7	-73.8	3.6	0.00e+00	0	72	104
2025-01-15 00:37:05.28	214.72	9.02	-67.6	-73.7	3.6	0.00e+00	0	72	104
2025-01-15 00:37:06.27	214.66	8.92	-67.6	-73.7	3.7	0.00e+00	0	72	104
2025-01-15 00:37:07.17	214.60	8.84	-67.6	-73.7	3.6	0.00e+00	0	72	104
2025-01-15 00:37:08.17	214.55	8.74	-67.6	-73.7	3.7	0.00e+00	0	72	104
2025-01-15 00:37:09.07	214.49	8.66	-67.6	-73.5	3.6	0.00e+00	0	72	104
2025-01-15 00:37:10.07	214.44	8.56	-67.6	-73.6	3.7	0.00e+00	0	72	104
2025-01-15 00:37:10.97	214.38	8.48	-67.5	-73.5	3.6	0.00e+00	0	72	104
2025-01-15 00:37:11.97	214.33	8.38	-67.6	-73.6	3.6	0.00e+00	0	72	104
2025-01-15 00:37:12.87	214.28	8.30	-67.6	-73.5	3.7	0.00e+00	0	72	104
2025-01-15 00:37:13.86	214.22	8.21	-67.6	-73.6	3.7	0.00e+00	0	72	104
2025-01-15 00:37:14.77	214.17	8.12	-67.6	-73.5	3.7	0.00e+00	0	72	104
2025-01-15 00:37:15.76	214.12	8.03	-67.4	-73.3	3.6	0.00e+00	0	72	104

#Closed at: 2025-01-15 00:37:16
#Recorded file [27774 MB]: D:/data/31015_250115_123625.dat