passes_logs/2026/01/07/PlanumMoscow/PlanumMoscow__20260107_010921_METEOR-M2_4_rec.log

#Pass ID: 20260107_010921_METEOR-M2 4
#Satellite: METEOR-M2 4
#Configuration: METEOR-M2 4
#Start time: 2026-01-07 01:09:26.993758

#LorettStation: 1.0.0 05.05.2024
#Station: PlanumMoscow
#Location: 37.6253844 lon 55.6713361 lat
#TLE: 1 59051U 24039A   25293.94737965  .00000087  00000+0  58459-4 0  9998
#TLE: 2 59051  98.6671 251.7071 0007726 135.4772 224.7028 14.22388966 85257

#Time	Az	El	Level	SNR
2026-01-07 01:13:05.459921	12.8	29.3	-60.9	7.7
2026-01-07 01:13:06.583175	12.8	29.5	-62.6	9.1
2026-01-07 01:13:07.704940	12.7	29.7	-62.9	9.8
2026-01-07 01:13:08.827696	12.7	29.9	-63.1	8.6
2026-01-07 01:13:09.948491	12.7	30.1	-62.4	8.0
2026-01-07 01:13:11.070743	12.6	30.3	-63.0	9.2
2026-01-07 01:13:12.192996	12.6	30.6	-63.2	9.6
2026-01-07 01:13:13.312752	12.6	30.8	-63.0	9.7
2026-01-07 01:13:14.429012	12.5	31.0	-63.2	9.8
2026-01-07 01:13:15.551264	12.5	31.2	-62.0	8.3
2026-01-07 01:13:16.673021	12.4	31.4	-62.6	9.5
2026-01-07 01:13:17.795274	12.4	31.7	-63.2	9.9
2026-01-07 01:13:18.917031	12.4	31.9	-62.8	10.7
2026-01-07 01:13:20.039283	12.3	32.1	-62.6	9.9
2026-01-07 01:13:21.161536	12.3	32.3	-63.2	10.5
2026-01-07 01:13:22.283293	12.2	32.6	-62.7	8.9
2026-01-07 01:13:23.403057	12.2	32.8	-62.5	9.7
2026-01-07 01:13:24.523318	12.2	33.0	-62.6	11.1
2026-01-07 01:13:25.641074	12.1	33.3	-61.8	8.5
2026-01-07 01:13:26.757326	12.1	33.5	-62.7	10.1
2026-01-07 01:13:27.876578	12.0	33.8	-63.1	9.4
2026-01-07 01:13:28.993838	12.0	34.0	-63.2	10.0
2026-01-07 01:13:30.112098	11.9	34.2	-61.6	8.4
2026-01-07 01:13:31.229853	11.9	34.5	-60.5	6.1
2026-01-07 01:13:32.347105	11.8	34.7	-63.3	11.2
2026-01-07 01:13:33.462870	11.8	35.0	-62.7	11.1
2026-01-07 01:13:34.580626	11.7	35.2	-63.3	10.7
2026-01-07 01:13:35.698381	11.7	35.5	-62.0	8.1
2026-01-07 01:13:36.815633	11.6	35.8	-62.9	8.7
2026-01-07 01:13:37.933389	11.6	36.0	-63.2	9.7
2026-01-07 01:13:39.049641	11.5	36.3	-62.8	10.3
2026-01-07 01:13:40.167893	11.5	36.5	-62.0	7.0
2026-01-07 01:13:41.283648	11.4	36.8	-63.3	10.0
2026-01-07 01:13:42.399403	11.3	37.1	-63.8	9.9
2026-01-07 01:13:43.517655	11.3	37.3	-62.1	7.4
2026-01-07 01:13:44.637411	11.2	37.6	-63.3	9.5
2026-01-07 01:13:45.754670	11.2	37.9	-63.4	9.1
2026-01-07 01:13:46.871425	11.1	38.2	-63.1	8.9
2026-01-07 01:13:47.988693	11.0	38.4	-63.7	9.9
2026-01-07 01:13:49.106457	11.0	38.7	-63.8	10.3
2026-01-07 01:13:50.226709	10.9	39.0	-62.1	6.7
2026-01-07 01:13:51.343465	10.8	39.3	-63.6	9.6
2026-01-07 01:13:52.460717	10.8	39.6	-64.1	10.1
2026-01-07 01:13:53.580977	10.7	39.9	-63.5	10.3
2026-01-07 01:13:54.698237	10.6	40.1	-61.2	7.4
2026-01-07 01:13:55.815994	10.6	40.4	-62.9	8.9
2026-01-07 01:13:56.934254	10.5	40.7	-61.9	8.0
2026-01-07 01:13:58.052515	10.4	41.0	-60.3	6.4
2026-01-07 01:13:59.170767	10.3	41.3	-63.4	10.8
2026-01-07 01:14:00.291020	10.3	41.6	-62.0	8.5
2026-01-07 01:14:01.406280	10.2	41.9	-63.1	8.1
2026-01-07 01:14:02.523531	10.1	42.2	-63.6	10.3
2026-01-07 01:14:03.645287	10.0	42.6	-61.5	5.8
2026-01-07 01:14:04.762044	9.9	42.9	-62.4	7.4
2026-01-07 01:14:05.880799	9.9	43.2	-63.4	9.7
2026-01-07 01:14:06.999051	9.8	43.5	-63.2	9.5
2026-01-07 01:14:08.116311	9.7	43.8	-64.3	9.7
2026-01-07 01:14:09.231066	9.6	44.2	-64.3	9.5
2026-01-07 01:14:10.349325	9.5	44.5	-63.9	10.4
2026-01-07 01:14:11.467576	9.4	44.8	-64.5	9.8
2026-01-07 01:14:12.582339	9.3	45.1	-64.0	9.7
2026-01-07 01:14:13.703097	9.2	45.5	-63.7	9.0
2026-01-07 01:14:14.821357	9.1	45.8	-63.5	8.5
2026-01-07 01:14:15.939617	9.0	46.2	-64.0	10.0
2026-01-07 01:14:17.056373	8.9	46.5	-63.7	9.3
2026-01-07 01:14:18.172624	8.8	46.8	-64.2	8.9
2026-01-07 01:14:19.290876	8.7	47.2	-64.2	10.3
2026-01-07 01:14:20.408127	8.6	47.5	-64.9	9.8
2026-01-07 01:14:21.526379	8.4	47.9	-64.5	8.7
2026-01-07 01:14:22.644136	8.3	48.2	-64.3	8.9
2026-01-07 01:14:23.766904	8.2	48.6	-64.7	9.3
2026-01-07 01:14:24.888165	8.1	49.0	-64.7	8.8
2026-01-07 01:14:26.009922	8.0	49.3	-64.8	9.7
2026-01-07 01:14:27.132182	7.8	49.7	-64.8	9.1
2026-01-07 01:14:28.254940	7.7	50.1	-64.1	8.8
2026-01-07 01:14:29.376697	7.5	50.5	-64.9	9.6
2026-01-07 01:14:30.498949	7.4	50.8	-65.0	8.8
2026-01-07 01:14:31.620707	7.3	51.2	-64.6	8.1
2026-01-07 01:14:32.741473	7.1	51.6	-64.7	7.4
2026-01-07 01:14:33.863726	7.0	52.0	-65.2	8.6
2026-01-07 01:14:34.982987	6.8	52.4	-65.2	8.4
2026-01-07 01:14:36.102743	6.6	52.8	-65.0	7.4
2026-01-07 01:14:37.224995	6.5	53.2	-65.2	8.1
2026-01-07 01:14:38.346257	6.3	53.6	-65.5	7.4
2026-01-07 01:14:39.468013	6.1	54.0	-65.4	8.0
2026-01-07 01:14:40.587769	5.9	54.4	-65.3	7.9
2026-01-07 01:14:41.703028	5.8	54.8	-65.5	8.1
2026-01-07 01:14:42.821785	5.6	55.2	-65.6	8.7
2026-01-07 01:14:43.941037	5.4	55.6	-65.4	8.5
2026-01-07 01:14:45.058793	5.2	56.0	-65.2	8.2
2026-01-07 01:14:46.178044	5.0	56.4	-65.5	8.3
2026-01-07 01:14:47.294296	4.7	56.8	-65.6	8.4
2026-01-07 01:14:48.411052	4.5	57.3	-65.6	9.0
2026-01-07 01:14:49.529807	4.3	57.7	-65.5	8.6
2026-01-07 01:14:50.646059	4.0	58.1	-65.7	8.9
2026-01-07 01:14:51.761814	3.8	58.5	-65.4	8.5
2026-01-07 01:14:52.879065	3.5	59.0	-65.0	8.2
2026-01-07 01:14:53.995317	3.3	59.4	-65.7	8.9
2026-01-07 01:14:55.112073	3.0	59.9	-65.4	8.6
2026-01-07 01:14:56.226828	2.7	60.3	-65.3	9.1
2026-01-07 01:14:57.341583	2.4	60.7	-65.2	9.1
2026-01-07 01:14:58.457834	2.1	61.2	-65.5	9.1
2026-01-07 01:14:59.573590	1.8	61.6	-65.7	8.9
2026-01-07 01:15:00.689346	1.5	62.1	-65.7	8.4
2026-01-07 01:15:01.809102	1.2	62.5	-65.6	7.9
2026-01-07 01:15:02.924858	0.8	63.0	-65.7	8.2
2026-01-07 01:15:04.041110	0.5	63.4	-65.8	7.8
2026-01-07 01:15:05.157361	0.1	63.9	-65.9	6.5
2026-01-07 01:15:06.271612	359.7	64.4	-66.0	8.4
2026-01-07 01:15:07.386863	359.3	64.8	-66.1	8.3
2026-01-07 01:15:08.503115	358.9	65.3	-66.0	8.3
2026-01-07 01:15:09.619366	358.4	65.7	-66.4	8.6
2026-01-07 01:15:10.735617	357.9	66.2	-66.1	7.6
2026-01-07 01:15:11.852387	357.5	66.7	-66.1	8.1
2026-01-07 01:15:12.968151	356.9	67.1	-66.1	8.4
2026-01-07 01:15:14.082401	356.4	67.6	-66.0	9.5
2026-01-07 01:15:15.198660	355.9	68.1	-65.7	9.7
2026-01-07 01:15:16.314912	355.3	68.6	-65.7	10.2
2026-01-07 01:15:17.429667	354.7	69.0	-65.5	10.2
2026-01-07 01:15:18.546918	354.0	69.5	-65.7	10.8
2026-01-07 01:15:19.663170	353.4	70.0	-65.7	11.0
2026-01-07 01:15:20.782926	352.6	70.4	-65.8	11.2
2026-01-07 01:15:21.899682	351.9	70.9	-65.6	11.1
2026-01-07 01:15:23.018934	351.1	71.4	-65.7	11.4
2026-01-07 01:15:24.135185	350.3	71.8	-65.9	11.3
2026-01-07 01:15:25.252941	349.4	72.3	-65.9	11.3
2026-01-07 01:15:26.371193	348.5	72.8	-66.0	11.0
2026-01-07 01:15:27.487444	347.5	73.2	-66.2	11.1
2026-01-07 01:15:28.605201	346.5	73.7	-66.1	10.7
2026-01-07 01:15:29.720956	345.4	74.1	-66.2	11.3
2026-01-07 01:15:30.839208	344.2	74.6	-66.2	11.5
2026-01-07 01:15:31.958964	342.9	75.0	-66.2	11.6
2026-01-07 01:15:33.081721	341.6	75.5	-66.2	11.7
2026-01-07 01:15:34.197475	340.2	75.9	-66.3	11.9
2026-01-07 01:15:35.312727	338.7	76.3	-66.5	11.8
2026-01-07 01:15:36.428978	337.1	76.8	-66.5	12.5
2026-01-07 01:15:37.545229	335.4	77.2	-66.3	12.8
2026-01-07 01:15:38.660489	333.6	77.6	-66.1	13.2
2026-01-07 01:15:39.776741	331.6	77.9	-66.0	13.3
2026-01-07 01:15:40.892496	329.6	78.3	-65.9	13.6
2026-01-07 01:15:42.009747	327.4	78.7	-65.9	12.7
2026-01-07 01:15:43.126999	325.0	79.0	-66.3	12.9
2026-01-07 01:15:44.244259	322.5	79.3	-66.6	13.4
2026-01-07 01:15:45.361519	319.9	79.6	-66.5	13.4
2026-01-07 01:15:46.483276	317.1	79.9	-66.9	12.9
2026-01-07 01:15:47.605032	314.1	80.2	-66.9	12.9
2026-01-07 01:15:48.726790	311.0	80.4	-67.3	12.6
2026-01-07 01:15:49.848547	307.7	80.6	-67.2	12.3
2026-01-07 01:15:50.970304	304.3	80.7	-67.4	12.4
2026-01-07 01:15:52.091564	300.8	80.9	-67.6	12.3
2026-01-07 01:15:53.214321	297.2	81.0	-67.4	13.1
2026-01-07 01:15:54.336077	293.6	81.0	-67.2	13.5
2026-01-07 01:15:55.457347	289.9	81.1	-66.8	13.2
2026-01-07 01:15:56.579105	286.2	81.0	-66.7	13.7
2026-01-07 01:15:57.700861	282.5	81.0	-66.9	14.1
2026-01-07 01:15:58.822619	278.9	80.9	-66.9	14.2
2026-01-07 01:15:59.941375	275.3	80.8	-66.9	14.2
2026-01-07 01:16:01.061634	271.9	80.6	-66.7	14.5
2026-01-07 01:16:02.176885	268.6	80.5	-66.6	14.8
2026-01-07 01:16:03.295650	265.4	80.2	-66.8	14.6
2026-01-07 01:16:04.413902	262.4	80.0	-66.9	14.7
2026-01-07 01:16:05.533154	259.6	79.7	-67.3	14.2
2026-01-07 01:16:06.650910	256.9	79.4	-67.4	13.8
2026-01-07 01:16:07.769162	254.3	79.1	-67.6	14.2
2026-01-07 01:16:08.885917	251.9	78.8	-67.3	14.2
2026-01-07 01:16:10.008674	249.6	78.4	-67.2	14.3
2026-01-07 01:16:11.127926	247.5	78.1	-67.4	14.4
2026-01-07 01:16:12.244178	245.5	77.7	-67.4	14.0
2026-01-07 01:16:13.361934	243.6	77.3	-67.5	14.1
2026-01-07 01:16:14.478185	241.9	76.9	-67.3	14.9
2026-01-07 01:16:15.595948	240.3	76.5	-67.2	14.8
2026-01-07 01:16:16.714200	238.7	76.1	-67.3	15.1
2026-01-07 01:16:17.832459	237.3	75.6	-67.4	15.1
2026-01-07 01:16:18.950224	235.9	75.2	-67.6	14.9
2026-01-07 01:16:20.068475	234.6	74.8	-67.4	14.8
2026-01-07 01:16:21.184727	233.4	74.3	-67.4	15.4
2026-01-07 01:16:22.301979	232.3	73.9	-67.4	15.1
2026-01-07 01:16:23.420239	231.3	73.4	-67.6	15.4
2026-01-07 01:16:24.537491	230.2	72.9	-67.6	15.4
2026-01-07 01:16:25.656751	229.3	72.5	-67.5	14.8
2026-01-07 01:16:26.774507	228.4	72.0	-67.8	14.8
2026-01-07 01:16:27.891758	227.6	71.5	-67.8	14.6
2026-01-07 01:16:29.010515	226.8	71.1	-67.9	14.8
2026-01-07 01:16:30.127776	226.0	70.6	-67.9	15.5
2026-01-07 01:16:31.244027	225.3	70.1	-68.0	15.4
2026-01-07 01:16:32.360783	224.6	69.7	-67.8	15.0
2026-01-07 01:16:33.478035	223.9	69.2	-67.8	15.5
2026-01-07 01:16:34.594286	223.3	68.7	-68.1	15.4
2026-01-07 01:16:35.712538	222.7	68.2	-67.8	16.0
2026-01-07 01:16:36.830790	222.1	67.8	-67.6	15.6
2026-01-07 01:16:37.947041	221.6	67.3	-67.0	14.8
2026-01-07 01:16:39.066302	221.1	66.8	-67.2	15.3
2026-01-07 01:16:40.181553	220.6	66.3	-67.5	15.6
2026-01-07 01:16:41.298805	220.1	65.9	-67.8	15.4
2026-01-07 01:16:42.413560	219.7	65.4	-68.0	14.7
2026-01-07 01:16:43.529811	219.2	64.9	-68.0	14.8
2026-01-07 01:16:44.645567	218.8	64.5	-68.2	14.3
2026-01-07 01:16:45.761819	218.4	64.0	-68.0	14.6
2026-01-07 01:16:46.878070	218.0	63.6	-68.3	14.3
2026-01-07 01:16:47.995321	217.7	63.1	-68.4	13.5
2026-01-07 01:16:49.112581	217.3	62.6	-68.4	14.0
2026-01-07 01:16:50.231338	217.0	62.2	-68.3	13.5
2026-01-07 01:16:51.344597	216.6	61.7	-68.2	13.9
2026-01-07 01:16:52.460360	216.3	61.3	-68.5	13.5
2026-01-07 01:16:53.575115	216.0	60.8	-68.7	13.0
2026-01-07 01:16:54.689373	215.7	60.4	-68.4	13.4
2026-01-07 01:16:55.806137	215.4	60.0	-68.3	13.5
2026-01-07 01:16:56.922893	215.2	59.5	-68.4	12.8
2026-01-07 01:16:58.039649	214.9	59.1	-68.4	12.6
2026-01-07 01:16:59.155404	214.6	58.6	-68.2	12.2
2026-01-07 01:17:00.272655	214.4	58.2	-68.5	12.1
2026-01-07 01:17:01.393924	214.2	57.8	-68.6	11.9
2026-01-07 01:17:02.511680	213.9	57.4	-68.6	11.7
2026-01-07 01:17:03.634933	213.7	56.9	-68.7	11.6
2026-01-07 01:17:04.756214	213.5	56.5	-68.4	11.5
2026-01-07 01:17:05.878001	213.3	56.1	-68.8	11.1
2026-01-07 01:17:06.999758	213.1	55.7	-68.8	11.9
2026-01-07 01:17:08.122010	212.9	55.2	-68.7	11.1
2026-01-07 01:17:09.243767	212.7	54.8	-68.4	9.9
2026-01-07 01:17:10.365524	212.5	54.4	-68.6	10.0
2026-01-07 01:17:11.487777	212.3	54.0	-68.6	10.4
2026-01-07 01:17:12.609534	212.1	53.6	-67.8	8.5
2026-01-07 01:17:13.731787	211.9	53.2	-68.2	11.0
2026-01-07 01:17:14.854040	211.8	52.8	-68.2	10.9
2026-01-07 01:17:15.976301	211.6	52.4	-67.6	10.6
2026-01-07 01:17:17.098059	211.4	52.0	-68.0	11.2
2026-01-07 01:17:18.219319	211.3	51.6	-68.4	11.4
2026-01-07 01:17:19.338571	211.1	51.3	-67.9	10.8
2026-01-07 01:17:20.459328	211.0	50.9	-68.2	11.0
2026-01-07 01:17:21.579085	210.8	50.5	-67.9	10.7
2026-01-07 01:17:22.698345	210.7	50.1	-68.0	11.2
2026-01-07 01:17:23.815605	210.6	49.7	-67.3	10.1
2026-01-07 01:17:24.933857	210.4	49.4	-67.4	9.1
2026-01-07 01:17:26.053109	210.3	49.0	-67.3	8.6
2026-01-07 01:17:27.167360	210.2	48.6	-67.4	10.9
2026-01-07 01:17:28.284620	210.1	48.3	-67.9	10.4
2026-01-07 01:17:29.401871	209.9	47.9	-67.7	11.5
2026-01-07 01:17:30.520123	209.8	47.6	-67.5	10.8
2026-01-07 01:17:31.638375	209.7	47.2	-67.1	10.5
2026-01-07 01:17:32.757627	209.6	46.9	-67.3	12.0
2026-01-07 01:17:33.874383	209.5	46.5	-66.4	11.5
2026-01-07 01:17:34.992634	209.4	46.2	-67.2	11.6
2026-01-07 01:17:36.109895	209.3	45.8	-66.9	11.1
2026-01-07 01:17:37.226650	209.2	45.5	-66.6	11.3
2026-01-07 01:17:38.344406	209.1	45.1	-67.0	11.6
2026-01-07 01:17:39.459657	209.0	44.8	-67.3	12.2
2026-01-07 01:17:40.576909	208.9	44.5	-67.0	12.7
2026-01-07 01:17:41.692160	208.8	44.1	-67.0	11.0
2026-01-07 01:17:42.810916	208.7	43.8	-66.7	12.3
2026-01-07 01:17:43.926672	208.6	43.5	-66.2	12.5
2026-01-07 01:17:45.043932	208.5	43.2	-67.0	12.9
2026-01-07 01:17:46.159687	208.4	42.9	-67.0	12.6
2026-01-07 01:17:47.276451	208.3	42.5	-67.2	13.0
2026-01-07 01:17:48.395207	208.3	42.2	-66.6	12.8
2026-01-07 01:17:49.512459	208.2	41.9	-67.2	12.4
2026-01-07 01:17:50.629224	208.1	41.6	-65.5	7.6
2026-01-07 01:17:51.747476	208.0	41.3	-67.0	11.8
2026-01-07 01:17:52.864231	207.9	41.0	-67.1	11.8
2026-01-07 01:17:53.981483	207.9	40.7	-66.1	11.8
2026-01-07 01:17:55.097734	207.8	40.4	-66.6	11.5
2026-01-07 01:17:56.212986	207.7	40.1	-66.4	12.8
2026-01-07 01:17:57.329741	207.7	39.8	-66.2	12.6
2026-01-07 01:17:58.446000	207.6	39.5	-66.5	13.4
2026-01-07 01:17:59.563252	207.5	39.2	-66.3	13.6
2026-01-07 01:18:00.681007	207.4	39.0	-66.4	13.4
2026-01-07 01:18:01.797267	207.4	38.7	-66.3	13.4
2026-01-07 01:18:02.914527	207.3	38.4	-65.4	11.2
2026-01-07 01:18:04.031779	207.3	38.1	-66.0	12.9
2026-01-07 01:18:05.147535	207.2	37.8	-65.6	12.7
2026-01-07 01:18:06.263291	207.1	37.6	-66.3	12.7
2026-01-07 01:18:07.380046	207.1	37.3	-66.1	13.3
2026-01-07 01:18:08.497298	207.0	37.0	-66.3	13.9
2026-01-07 01:18:09.615566	207.0	36.7	-65.2	12.2
2026-01-07 01:18:10.734817	206.9	36.5	-66.0	12.8
2026-01-07 01:18:11.852069	206.8	36.2	-65.5	12.1
2026-01-07 01:18:12.969329	206.8	36.0	-65.5	13.1
2026-01-07 01:18:14.085580	206.7	35.7	-65.3	12.3
2026-01-07 01:18:15.202832	206.7	35.4	-64.8	13.1
2026-01-07 01:18:16.318588	206.6	35.2	-65.5	13.3
2026-01-07 01:18:17.434839	206.6	34.9	-65.4	13.5
2026-01-07 01:18:18.555603	206.5	34.7	-65.6	13.4
2026-01-07 01:18:19.670854	206.5	34.4	-65.6	13.4
2026-01-07 01:18:20.787609	206.4	34.2	-65.2	13.4
2026-01-07 01:18:21.903861	206.4	33.9	-65.2	12.1
2026-01-07 01:18:23.019112	206.3	33.7	-62.3	11.6
2026-01-07 01:18:24.135364	206.3	33.4	-65.5	12.4
2026-01-07 01:18:25.255616	206.2	33.2	-65.1	12.7
2026-01-07 01:18:26.376879	206.2	33.0	-65.5	11.1
2026-01-07 01:18:27.499638	206.1	32.7	-65.7	12.4
2026-01-07 01:18:28.624404	206.1	32.5	-65.7	12.3
2026-01-07 01:18:29.745674	206.1	32.3	-64.9	12.8
2026-01-07 01:18:30.867927	206.0	32.0	-65.8	12.4
2026-01-07 01:18:31.989188	206.0	31.8	-65.4	10.5
2026-01-07 01:18:33.110448	205.9	31.6	-65.6	12.6
2026-01-07 01:18:34.231710	205.9	31.3	-64.9	12.8
2026-01-07 01:18:35.353963	205.8	31.1	-65.6	12.7
2026-01-07 01:18:36.474719	205.8	30.9	-65.6	12.2
2026-01-07 01:18:37.596476	205.8	30.7	-65.5	13.3
2026-01-07 01:18:38.718729	205.7	30.5	-64.0	8.3
2026-01-07 01:18:39.840486	205.7	30.2	-65.6	12.9
2026-01-07 01:18:40.960738	205.7	30.0	-64.1	9.0
2026-01-07 01:18:42.076493	205.6	29.8	-65.0	11.1
2026-01-07 01:18:43.193257	205.6	29.6	-64.5	11.0
2026-01-07 01:18:44.309020	205.5	29.4	-65.5	12.6
2026-01-07 01:18:45.427775	205.5	29.2	-65.1	10.7
2026-01-07 01:18:46.544027	205.5	29.0	-65.3	13.5
2026-01-07 01:18:47.659781	205.4	28.8	-64.5	10.5
2026-01-07 01:18:48.776537	205.4	28.6	-65.0	12.7
2026-01-07 01:18:49.891788	205.4	28.4	-65.1	11.7
2026-01-07 01:18:51.010040	205.3	28.2	-65.5	13.5
2026-01-07 01:18:52.126796	205.3	28.0	-66.2	13.0
2026-01-07 01:18:53.246048	205.3	27.8	-65.1	12.8
2026-01-07 01:18:54.363300	205.2	27.6	-65.8	12.6
2026-01-07 01:18:55.481565	205.2	27.4	-64.9	11.9
2026-01-07 01:18:56.597817	205.2	27.2	-65.0	12.5
2026-01-07 01:18:57.714572	205.2	27.0	-65.0	11.3
2026-01-07 01:18:58.831824	205.1	26.8	-65.3	13.1
2026-01-07 01:18:59.947083	205.1	26.6	-65.5	11.3
2026-01-07 01:19:01.067335	205.1	26.4	-65.9	12.8
2026-01-07 01:19:02.183595	205.0	26.2	-66.2	13.0
2026-01-07 01:19:03.299846	205.0	26.0	-66.4	13.3
2026-01-07 01:19:04.417603	205.0	25.8	-66.2	13.2
2026-01-07 01:19:05.539855	205.0	25.7	-65.5	11.5
2026-01-07 01:19:06.655115	204.9	25.5	-66.3	13.0
2026-01-07 01:19:07.772871	204.9	25.3	-66.2	14.1
2026-01-07 01:19:08.889122	204.9	25.1	-66.0	13.4
2026-01-07 01:19:10.007374	204.8	24.9	-65.7	14.3
2026-01-07 01:19:11.125138	204.8	24.8	-65.7	14.9
2026-01-07 01:19:12.243390	204.8	24.6	-65.5	14.0
2026-01-07 01:19:13.360146	204.8	24.4	-65.0	13.8
2026-01-07 01:19:14.475397	204.7	24.2	-65.8	12.9
2026-01-07 01:19:15.595154	204.7	24.1	-63.8	12.9
2026-01-07 01:19:16.710405	204.7	23.9	-66.1	14.4
2026-01-07 01:19:17.826656	204.7	23.7	-64.3	8.0
2026-01-07 01:19:18.944916	204.6	23.5	-66.1	13.0
2026-01-07 01:19:20.064168	204.6	23.4	-65.7	13.6
2026-01-07 01:19:21.179924	204.6	23.2	-63.1	8.3
2026-01-07 01:19:22.298680	204.6	23.0	-65.5	13.4
2026-01-07 01:19:23.414941	204.6	22.9	-65.0	8.1
2026-01-07 01:19:24.532696	204.5	22.7	-62.2	5.5
2026-01-07 01:19:25.648956	204.5	22.5	-66.0	13.3
2026-01-07 01:19:26.766224	204.5	22.4	-65.6	12.9
2026-01-07 01:19:27.883476	204.5	22.2	-66.5	13.6
2026-01-07 01:19:28.999727	204.4	22.1	-66.3	14.4
2026-01-07 01:19:30.117979	204.4	21.9	-66.3	13.8
2026-01-07 01:19:31.234239	204.4	21.7	-66.2	14.5
2026-01-07 01:19:32.351491	204.4	21.6	-66.2	13.1
2026-01-07 01:19:33.467742	204.4	21.4	-66.2	14.0
2026-01-07 01:19:34.583994	204.3	21.3	-66.1	12.9
2026-01-07 01:19:35.706246	204.3	21.1	-65.6	11.7
2026-01-07 01:19:36.821497	204.3	21.0	-65.7	11.5
2026-01-07 01:19:37.939749	204.3	20.8	-66.2	12.9
2026-01-07 01:19:39.056001	204.3	20.7	-65.9	13.7
2026-01-07 01:19:40.176253	204.2	20.5	-66.0	12.1
2026-01-07 01:19:41.293505	204.2	20.4	-63.3	10.2
2026-01-07 01:19:42.412756	204.2	20.2	-64.7	12.9
2026-01-07 01:19:43.532009	204.2	20.1	-64.1	8.4
2026-01-07 01:19:44.655262	204.2	19.9	-64.4	12.2
2026-01-07 01:19:45.777019	204.2	19.8	-63.0	6.6
2026-01-07 01:19:46.899272	204.1	19.6	-64.3	12.6
2026-01-07 01:19:48.021030	204.1	19.5	-65.8	12.1
2026-01-07 01:19:49.143282	204.1	19.3	-64.5	11.9
2026-01-07 01:19:50.264544	204.1	19.2	-65.8	9.7
2026-01-07 01:19:51.386797	204.1	19.0	-64.6	11.1
2026-01-07 01:19:52.508058	204.1	18.9	-66.7	12.5
2026-01-07 01:19:53.633311	204.0	18.8	-64.7	7.3
2026-01-07 01:19:54.754571	204.0	18.6	-65.9	11.7
2026-01-07 01:19:55.876824	204.0	18.5	-64.6	9.3
2026-01-07 01:19:56.996590	204.0	18.3	-65.6	11.3
2026-01-07 01:19:58.114841	204.0	18.2	-65.3	8.3
2026-01-07 01:19:59.234102	204.0	18.1	-65.0	7.3
2026-01-07 01:20:00.355859	203.9	17.9	-63.2	7.3
2026-01-07 01:20:01.478120	203.9	17.8	-64.7	9.7
2026-01-07 01:20:02.600373	203.9	17.7	-64.7	11.4
2026-01-07 01:20:03.722626	203.9	17.5	-65.5	9.7
2026-01-07 01:20:04.845383	203.9	17.4	-66.3	10.8
2026-01-07 01:20:05.965139	203.9	17.3	-64.0	4.9
2026-01-07 01:20:07.082895	203.9	17.1	-65.1	12.0
2026-01-07 01:20:08.201659	203.8	17.0	-66.0	12.9
2026-01-07 01:20:09.320424	203.8	16.9	-65.5	11.5
2026-01-07 01:20:10.440180	203.8	16.7	-65.3	11.1
2026-01-07 01:20:11.559433	203.8	16.6	-64.5	12.7
2026-01-07 01:20:12.681702	203.8	16.5	-65.4	11.4
2026-01-07 01:20:13.800467	203.8	16.3	-65.2	7.2
2026-01-07 01:20:14.921727	203.8	16.2	-65.6	11.5
2026-01-07 01:20:16.041491	203.7	16.1	-65.2	12.3
2026-01-07 01:20:17.159247	203.7	16.0	-62.9	4.3
2026-01-07 01:20:18.282500	203.7	15.8	-62.4	10.2
2026-01-07 01:20:19.398759	203.7	15.7	-64.5	5.1
2026-01-07 01:20:20.517011	203.7	15.6	-65.4	11.9
2026-01-07 01:20:21.634766	203.7	15.5	-65.4	12.0
2026-01-07 01:20:22.751522	203.7	15.3	-65.6	10.8
2026-01-07 01:20:23.868277	203.6	15.2	-65.3	10.7
2026-01-07 01:20:24.985529	203.6	15.1	-65.3	10.4
2026-01-07 01:20:26.103781	203.6	15.0	-66.2	10.5
2026-01-07 01:20:27.219032	203.6	14.9	-65.3	5.2
2026-01-07 01:20:28.337795	203.6	14.7	-65.2	10.6
2026-01-07 01:20:29.455056	203.6	14.6	-66.2	11.5
2026-01-07 01:20:30.573308	203.6	14.5	-66.5	11.9
2026-01-07 01:20:31.694568	203.6	14.4	-63.6	5.9
2026-01-07 01:20:32.812323	203.6	14.3	-65.9	11.2
2026-01-07 01:20:33.930575	203.5	14.2	-64.6	10.1
2026-01-07 01:20:35.047330	203.5	14.0	-63.4	9.4
2026-01-07 01:20:36.164591	203.5	13.9	-65.0	10.0
2026-01-07 01:20:37.280345	203.5	13.8	-64.3	10.3
2026-01-07 01:20:38.403103	203.5	13.7	-62.4	0.0
2026-01-07 01:20:39.520354	203.5	13.6	-63.7	7.0
2026-01-07 01:20:40.637109	203.5	13.5	-61.6	0.0
2026-01-07 01:20:41.753864	203.5	13.4	-65.5	10.5
2026-01-07 01:20:42.871620	203.5	13.2	-65.4	10.3
2026-01-07 01:20:43.988872	203.4	13.1	-64.8	5.9
2026-01-07 01:20:45.107124	203.4	13.0	-64.9	7.5
2026-01-07 01:20:46.222881	203.4	12.9	-65.6	9.7
2026-01-07 01:20:47.339647	203.4	12.8	-64.7	8.4
2026-01-07 01:20:48.461404	203.4	12.7	-61.7	4.3
2026-01-07 01:20:49.576655	203.4	12.6	-64.9	9.3
2026-01-07 01:20:50.693411	203.4	12.5	-64.6	4.5
2026-01-07 01:20:51.809662	203.4	12.4	-66.0	7.2
2026-01-07 01:20:52.928914	203.4	12.3	-66.0	10.4
2026-01-07 01:20:54.046174	203.4	12.2	-66.6	8.3
2026-01-07 01:20:55.162930	203.3	12.0	-65.7	8.7
2026-01-07 01:20:56.279181	203.3	11.9	-66.8	5.2
2026-01-07 01:20:57.395944	203.3	11.8	-65.4	8.0
2026-01-07 01:20:58.513708	203.3	11.7	-64.4	8.2
2026-01-07 01:20:59.630464	203.3	11.6	-66.1	8.1
2026-01-07 01:21:00.746715	203.3	11.5	-64.5	4.5
2026-01-07 01:21:01.863472	203.3	11.4	-64.8	7.1
2026-01-07 01:21:02.980228	203.3	11.3	-63.5	6.6
2026-01-07 01:21:04.097985	203.3	11.2	-66.0	9.6
2026-01-07 01:21:05.213740	203.3	11.1	-66.3	8.7
2026-01-07 01:21:06.332513	203.3	11.0	-65.3	9.5
2026-01-07 01:21:07.454271	203.2	10.9	-65.5	8.6
2026-01-07 01:21:08.576531	203.2	10.8	-65.3	9.7
2026-01-07 01:21:09.698784	203.2	10.7	-64.6	9.9
2026-01-07 01:21:10.820037	203.2	10.6	-65.1	9.8
2026-01-07 01:21:11.942289	203.2	10.5	-65.6	8.8
2026-01-07 01:21:13.064542	203.2	10.4	-63.0	6.3
2026-01-07 01:21:14.185802	203.2	10.3	-64.5	7.1
2026-01-07 01:21:15.307558	203.2	10.2	-65.2	7.8
2026-01-07 01:21:16.429811	203.2	10.1	-65.3	3.5
2026-01-07 01:21:17.551568	203.2	10.0	-64.0	5.6
2026-01-07 01:21:18.673325	203.2	9.9	-66.1	7.3
2026-01-07 01:21:19.795082	203.2	9.8	-63.1	6.2
2026-01-07 01:21:20.917335	203.2	9.7	-63.7	2.1
2026-01-07 01:21:22.033586	203.1	9.6	-64.7	7.8
2026-01-07 01:21:23.154343	203.1	9.5	-57.4	0.0
2026-01-07 01:21:24.269602	203.1	9.4	-65.7	2.0
2026-01-07 01:21:25.386358	203.1	9.3	-66.5	7.2
2026-01-07 01:21:26.503112	203.1	9.2	-64.4	3.5
2026-01-07 01:21:27.619364	203.1	9.1	-66.3	1.0
2026-01-07 01:21:28.736615	203.1	9.0	-66.0	6.4
2026-01-07 01:21:29.853867	203.1	8.9	-66.2	8.3
2026-01-07 01:21:30.970118	203.1	8.9	-65.8	7.6
2026-01-07 01:21:32.084882	203.1	8.8	-66.2	7.3
2026-01-07 01:21:33.204142	203.1	8.7	-65.8	8.7
2026-01-07 01:21:34.319906	203.1	8.6	-64.8	7.6
2026-01-07 01:21:35.434661	203.1	8.5	-64.4	5.8
2026-01-07 01:21:36.549416	203.1	8.4	-65.2	7.7
2026-01-07 01:21:37.665172	203.0	8.3	-63.1	4.3
2026-01-07 01:21:38.781424	203.0	8.2	-63.8	0.0
2026-01-07 01:21:39.896683	203.0	8.1	-62.0	0.0
2026-01-07 01:21:41.012935	203.0	8.0	-61.1	3.0
2026-01-07 01:21:42.129187	203.0	7.9	-62.4	0.0
2026-01-07 01:21:43.245446	203.0	7.8	-64.6	6.7
2026-01-07 01:21:44.363698	203.0	7.8	-65.4	5.7
2026-01-07 01:21:45.481958	203.0	7.7	-65.3	7.0
2026-01-07 01:21:46.598714	203.0	7.6	-61.7	1.1
2026-01-07 01:21:47.716966	203.0	7.5	-65.2	6.6
2026-01-07 01:21:48.836730	203.0	7.4	-65.2	5.5
2026-01-07 01:21:49.952981	203.0	7.3	-65.0	6.0
2026-01-07 01:21:51.071241	203.0	7.2	-63.8	5.7
2026-01-07 01:21:52.187997	203.0	7.1	-58.5	0.0
2026-01-07 01:21:53.305752	203.0	7.0	-62.8	0.0
2026-01-07 01:21:54.422003	203.0	7.0	-64.1	0.8
2026-01-07 01:21:55.541264	202.9	6.9	-64.7	0.2
2026-01-07 01:21:56.658525	202.9	6.8	-63.0	1.6
2026-01-07 01:21:57.777280	202.9	6.7	-63.9	6.0
2026-01-07 01:21:58.896533	202.9	6.6	-62.4	3.6
2026-01-07 01:22:00.015289	202.9	6.5	-63.8	0.0
2026-01-07 01:22:01.131540	202.9	6.4	-65.0	6.3
2026-01-07 01:22:02.247792	202.9	6.4	-65.3	6.0
2026-01-07 01:22:03.365547	202.9	6.3	-65.3	6.2
2026-01-07 01:22:04.487808	202.9	6.2	-65.2	3.4
2026-01-07 01:22:05.605564	202.9	6.1	-65.1	6.7
2026-01-07 01:22:06.720815	202.9	6.0	-64.2	4.4
2026-01-07 01:22:07.838075	202.9	5.9	-66.7	5.8
2026-01-07 01:22:08.954838	202.9	5.9	-65.9	0.0
2026-01-07 01:22:10.071090	202.9	5.8	-67.9	0.0
2026-01-07 01:22:11.187341	202.9	5.7	-70.5	0.0
2026-01-07 01:22:12.302096	202.9	5.6	-70.4	0.0
2026-01-07 01:22:13.417356	202.9	5.5	-71.3	0.0
2026-01-07 01:22:14.535111	202.9	5.4	-71.6	0.0
2026-01-07 01:22:15.654866	202.9	5.4	-72.6	0.0
2026-01-07 01:22:16.769622	202.8	5.3	-73.2	0.0
2026-01-07 01:22:17.885874	202.8	5.2	-72.3	0.0
2026-01-07 01:22:19.002133	202.8	5.1	-71.7	0.0
2026-01-07 01:22:20.118889	202.8	5.0	-72.1	0.0
#Closed at: 2026-01-07 01:09:21.994563