passes_logs/2026/01/07/PlanumMoscow/PlanumMoscow__20260107_165358_METOP-B_rec.log

#Pass ID: 20260107_165358_METOP-B
#Satellite: METOP-B
#Configuration: METOP-B
#Start time: 2026-01-07 16:54:03.476952

#LorettStation: 1.0.0 05.05.2024
#Station: PlanumMoscow
#Location: 37.6253844 lon 55.6713361 lat
#TLE: 1 38771U 12049A   25293.92766658  .00000266  00000+0  14193-3 0  9996
#TLE: 2 38771  98.6882 344.7603 0001609 341.5209  18.5909 14.21379342679275

#Time	Az	El	Level	SNR
2026-01-07 16:57:41.911655	126.2	27.8	-63.3	9.8
2026-01-07 16:57:43.031908	126.1	27.9	-63.2	9.0
2026-01-07 16:57:44.147663	125.9	28.1	-63.6	8.6
2026-01-07 16:57:45.265419	125.7	28.3	-63.7	8.4
2026-01-07 16:57:46.382671	125.5	28.5	-63.6	8.7
2026-01-07 16:57:47.501427	125.4	28.7	-63.3	7.3
2026-01-07 16:57:48.619183	125.2	28.8	-62.9	9.0
2026-01-07 16:57:49.738947	125.0	29.0	-63.7	8.9
2026-01-07 16:57:50.856703	124.8	29.2	-63.1	8.0
2026-01-07 16:57:51.974955	124.6	29.4	-62.9	8.9
2026-01-07 16:57:53.091710	124.5	29.6	-63.3	8.0
2026-01-07 16:57:54.209963	124.3	29.8	-63.1	9.7
2026-01-07 16:57:55.328222	124.1	29.9	-63.3	8.4
2026-01-07 16:57:56.447978	123.9	30.1	-63.7	8.3
2026-01-07 16:57:57.567274	123.7	30.3	-63.4	6.3
2026-01-07 16:57:58.685525	123.5	30.5	-63.5	8.2
2026-01-07 16:57:59.804785	123.3	30.7	-63.2	6.7
2026-01-07 16:58:00.921054	123.1	30.9	-63.5	8.9
2026-01-07 16:58:02.040819	122.9	31.1	-63.2	8.1
2026-01-07 16:58:03.157574	122.7	31.3	-63.6	9.6
2026-01-07 16:58:04.274826	122.5	31.5	-63.2	9.5
2026-01-07 16:58:05.390077	122.2	31.7	-63.6	10.2
2026-01-07 16:58:06.510329	122.0	31.8	-63.1	9.7
2026-01-07 16:58:07.629589	121.8	32.0	-61.9	9.0
2026-01-07 16:58:08.747841	121.6	32.2	-63.0	10.0
2026-01-07 16:58:09.868101	121.4	32.4	-63.4	10.9
2026-01-07 16:58:10.986366	121.1	32.6	-63.5	10.0
2026-01-07 16:58:12.103625	120.9	32.8	-63.4	9.5
2026-01-07 16:58:13.221381	120.7	33.0	-63.3	10.2
2026-01-07 16:58:14.342633	120.4	33.2	-63.1	9.7
2026-01-07 16:58:15.464390	120.2	33.4	-63.1	9.1
2026-01-07 16:58:16.585651	120.0	33.6	-62.5	8.2
2026-01-07 16:58:17.706415	119.7	33.8	-62.2	9.7
2026-01-07 16:58:18.828172	119.5	34.0	-63.0	10.4
2026-01-07 16:58:19.949937	119.2	34.3	-63.1	9.5
2026-01-07 16:58:21.072190	119.0	34.5	-63.4	11.2
2026-01-07 16:58:22.193946	118.7	34.7	-63.0	9.9
2026-01-07 16:58:23.312703	118.4	34.9	-63.2	9.5
2026-01-07 16:58:24.434459	118.2	35.1	-62.9	8.8
2026-01-07 16:58:25.556712	117.9	35.3	-63.1	10.2
2026-01-07 16:58:26.677973	117.6	35.5	-62.6	8.8
2026-01-07 16:58:27.797749	117.4	35.7	-62.6	8.9
2026-01-07 16:58:28.919010	117.1	35.9	-62.8	10.1
2026-01-07 16:58:30.039774	116.8	36.1	-62.7	10.1
2026-01-07 16:58:31.162027	116.5	36.3	-62.5	9.8
2026-01-07 16:58:32.281791	116.2	36.5	-62.7	8.3
2026-01-07 16:58:33.400590	115.9	36.8	-62.8	10.1
2026-01-07 16:58:34.519842	115.6	37.0	-63.3	10.2
2026-01-07 16:58:35.638159	115.3	37.2	-63.3	9.8
2026-01-07 16:58:36.755915	115.0	37.4	-63.2	10.0
2026-01-07 16:58:37.874175	114.7	37.6	-63.6	9.1
2026-01-07 16:58:38.991959	114.4	37.8	-63.2	9.5
2026-01-07 16:58:40.111220	114.1	38.0	-63.5	9.3
2026-01-07 16:58:41.229022	113.8	38.3	-63.6	8.9
2026-01-07 16:58:42.348274	113.4	38.5	-63.9	9.2
2026-01-07 16:58:43.464030	113.1	38.7	-64.3	9.5
2026-01-07 16:58:44.581786	112.8	38.9	-63.8	9.8
2026-01-07 16:58:45.701037	112.4	39.1	-62.8	9.9
2026-01-07 16:58:46.818830	112.1	39.3	-63.7	10.6
2026-01-07 16:58:47.937081	111.7	39.5	-63.4	9.7
2026-01-07 16:58:49.054837	111.4	39.8	-63.1	8.7
2026-01-07 16:58:50.173593	111.0	40.0	-63.0	9.6
2026-01-07 16:58:51.291845	110.7	40.2	-63.5	10.0
2026-01-07 16:58:52.410097	110.3	40.4	-63.9	9.5
2026-01-07 16:58:53.529853	109.9	40.6	-63.7	9.0
2026-01-07 16:58:54.650124	109.6	40.8	-63.5	9.4
2026-01-07 16:58:55.768880	109.2	41.1	-64.2	10.3
2026-01-07 16:58:56.887636	108.8	41.3	-63.6	9.7
2026-01-07 16:58:58.007896	108.4	41.5	-63.6	10.2
2026-01-07 16:58:59.126148	108.0	41.7	-64.1	9.1
2026-01-07 16:59:00.244904	107.6	41.9	-64.1	9.2
2026-01-07 16:59:01.363668	107.2	42.1	-63.9	9.8
2026-01-07 16:59:02.483425	106.8	42.3	-63.7	10.0
2026-01-07 16:59:03.603685	106.4	42.6	-63.9	9.7
2026-01-07 16:59:04.720945	105.9	42.8	-63.6	9.1
2026-01-07 16:59:05.837196	105.5	43.0	-63.2	8.8
2026-01-07 16:59:06.956953	105.1	43.2	-62.2	6.0
2026-01-07 16:59:08.077709	104.6	43.4	-63.3	9.8
2026-01-07 16:59:09.196464	104.2	43.6	-63.4	9.8
2026-01-07 16:59:10.318717	103.7	43.8	-63.2	9.0
2026-01-07 16:59:11.436978	103.3	44.0	-63.2	9.0
2026-01-07 16:59:12.558735	102.8	44.3	-63.0	8.6
2026-01-07 16:59:13.677490	102.3	44.5	-63.6	10.3
2026-01-07 16:59:14.797743	101.8	44.7	-62.8	8.3
2026-01-07 16:59:15.916508	101.3	44.9	-63.4	9.2
2026-01-07 16:59:17.034760	100.9	45.1	-63.3	10.5
2026-01-07 16:59:18.153020	100.4	45.3	-63.2	9.4
2026-01-07 16:59:19.270776	99.9	45.5	-62.9	9.0
2026-01-07 16:59:20.390532	99.3	45.7	-63.2	10.5
2026-01-07 16:59:21.508783	98.8	45.9	-62.9	10.5
2026-01-07 16:59:22.629035	98.3	46.1	-63.1	10.0
2026-01-07 16:59:23.749288	97.8	46.3	-62.9	8.1
2026-01-07 16:59:24.867043	97.2	46.5	-63.5	11.5
2026-01-07 16:59:25.983295	96.7	46.6	-63.3	9.4
2026-01-07 16:59:27.101547	96.1	46.8	-63.2	9.1
2026-01-07 16:59:28.221800	95.6	47.0	-63.0	8.5
2026-01-07 16:59:29.341556	95.0	47.2	-63.1	10.5
2026-01-07 16:59:30.460313	94.5	47.4	-62.9	9.4
2026-01-07 16:59:31.578069	93.9	47.6	-62.8	9.4
2026-01-07 16:59:32.699826	93.3	47.7	-63.1	8.7
2026-01-07 16:59:33.821589	92.7	47.9	-62.8	9.5
2026-01-07 16:59:34.942880	92.1	48.1	-62.7	9.5
2026-01-07 16:59:36.064637	91.5	48.3	-62.4	9.8
2026-01-07 16:59:37.185942	90.9	48.4	-63.2	10.1
2026-01-07 16:59:38.308195	90.3	48.6	-62.6	8.1
2026-01-07 16:59:39.429952	89.6	48.7	-62.5	9.8
2026-01-07 16:59:40.551709	89.0	48.9	-62.8	9.8
2026-01-07 16:59:41.673961	88.4	49.1	-62.9	10.3
2026-01-07 16:59:42.795717	87.7	49.2	-62.2	9.1
2026-01-07 16:59:43.917473	87.1	49.4	-62.1	9.3
2026-01-07 16:59:45.037743	86.4	49.5	-62.3	7.3
2026-01-07 16:59:46.159500	85.8	49.6	-62.6	8.8
2026-01-07 16:59:47.281753	85.1	49.8	-62.9	9.3
2026-01-07 16:59:48.402509	84.4	49.9	-61.8	8.5
2026-01-07 16:59:49.521265	83.7	50.0	-62.0	7.6
2026-01-07 16:59:50.643518	83.1	50.2	-62.9	8.6
2026-01-07 16:59:51.761273	82.4	50.3	-61.8	6.6
2026-01-07 16:59:52.882030	81.7	50.4	-62.5	7.7
2026-01-07 16:59:54.002787	81.0	50.5	-61.7	8.5
2026-01-07 16:59:55.123543	80.3	50.6	-62.0	10.1
2026-01-07 16:59:56.241795	79.6	50.7	-62.2	10.3
2026-01-07 16:59:57.362047	78.8	50.8	-61.6	7.1
2026-01-07 16:59:58.482300	78.1	50.9	-61.8	8.5
2026-01-07 16:59:59.601551	77.4	51.0	-61.7	7.7
2026-01-07 17:00:00.724309	76.7	51.1	-60.6	5.4
2026-01-07 17:00:01.843570	75.9	51.2	-61.7	6.4
2026-01-07 17:00:02.951067	75.2	51.2	-61.9	8.2
2026-01-07 17:00:04.070319	74.5	51.3	-61.9	7.0
2026-01-07 17:00:05.189076	73.7	51.4	-62.2	6.4
2026-01-07 17:00:06.307831	73.0	51.4	-61.8	7.8
2026-01-07 17:00:07.426595	72.2	51.5	-61.7	8.9
2026-01-07 17:00:08.545861	71.5	51.5	-62.2	8.9
2026-01-07 17:00:09.667114	70.7	51.6	-61.4	7.1
2026-01-07 17:00:10.786870	70.0	51.6	-61.5	6.9
2026-01-07 17:00:11.906627	69.2	51.7	-62.0	7.9
2026-01-07 17:00:13.025383	68.4	51.7	-61.2	6.6
2026-01-07 17:00:14.145635	67.7	51.7	-61.1	6.5
2026-01-07 17:00:15.265392	66.9	51.7	-60.2	6.4
2026-01-07 17:00:16.386644	66.2	51.8	-60.5	5.2
2026-01-07 17:00:17.504400	65.4	51.8	-61.1	5.5
2026-01-07 17:00:18.623163	64.6	51.8	-61.3	8.0
2026-01-07 17:00:19.744920	63.9	51.8	-60.5	4.2
2026-01-07 17:00:20.866173	63.1	51.8	-60.1	3.8
2026-01-07 17:00:21.982432	62.3	51.7	-58.2	1.7
2026-01-07 17:00:23.099684	61.6	51.7	-59.5	5.9
2026-01-07 17:00:24.218944	60.8	51.7	-58.2	3.3
2026-01-07 17:00:25.338196	60.1	51.7	-60.2	5.2
2026-01-07 17:00:26.458448	59.3	51.6	-60.3	6.4
2026-01-07 17:00:27.579205	58.5	51.6	-59.7	5.5
2026-01-07 17:00:28.698466	57.8	51.6	-59.7	2.5
2026-01-07 17:00:29.815726	57.0	51.5	-59.5	6.3
2026-01-07 17:00:30.930977	56.3	51.5	-59.5	4.3
2026-01-07 17:00:32.049742	55.5	51.4	-59.2	3.4
2026-01-07 17:00:33.166994	54.8	51.3	-59.0	3.7
2026-01-07 17:00:34.284245	54.1	51.3	-59.9	5.3
2026-01-07 17:00:35.399496	53.3	51.2	-61.5	6.9
2026-01-07 17:00:36.517748	52.6	51.1	-59.1	2.4
2026-01-07 17:00:37.640001	51.9	51.0	-60.0	5.5
2026-01-07 17:00:38.756757	51.1	50.9	-59.0	3.4
2026-01-07 17:00:39.872008	50.4	50.8	-58.0	1.0
2026-01-07 17:00:40.989260	49.7	50.7	-58.6	3.1
2026-01-07 17:00:42.109520	49.0	50.6	-58.9	3.3
2026-01-07 17:00:43.224771	48.3	50.5	-59.2	5.0
2026-01-07 17:00:44.339526	47.6	50.4	-58.0	1.0
2026-01-07 17:00:45.454777	46.9	50.3	-57.8	0.8
2026-01-07 17:00:46.569532	46.2	50.2	-58.5	2.1
2026-01-07 17:00:47.689298	45.5	50.1	-58.3	1.3
2026-01-07 17:00:48.806549	44.8	49.9	-59.4	3.4
2026-01-07 17:00:49.924801	44.2	49.8	-59.8	4.7
2026-01-07 17:00:51.042061	43.5	49.7	-60.3	5.3
2026-01-07 17:00:52.157816	42.8	49.5	-59.1	2.7
2026-01-07 17:00:53.274067	42.2	49.4	-60.1	3.5
2026-01-07 17:00:54.391823	41.5	49.3	-58.8	2.3
2026-01-07 17:00:55.511580	40.9	49.1	-58.1	0.8
2026-01-07 17:00:56.633833	40.3	49.0	-60.2	5.8
2026-01-07 17:00:57.754099	39.6	48.8	-59.3	4.7
2026-01-07 17:00:58.875360	39.0	48.6	-58.4	3.6
2026-01-07 17:00:59.997117	38.4	48.5	-60.4	5.3
2026-01-07 17:01:01.118381	37.8	48.3	-61.2	6.1
2026-01-07 17:01:02.239641	37.2	48.1	-60.1	4.6
2026-01-07 17:01:03.361894	36.6	48.0	-60.4	5.6
2026-01-07 17:01:04.484147	36.0	47.8	-58.4	1.4
2026-01-07 17:01:05.608408	35.4	47.6	-59.7	3.8
2026-01-07 17:01:06.729165	34.8	47.4	-58.8	3.2
2026-01-07 17:01:07.851417	34.2	47.3	-60.2	5.5
2026-01-07 17:01:08.973174	33.7	47.1	-58.4	0.3
2026-01-07 17:01:10.094435	33.1	46.9	-60.7	6.9
2026-01-07 17:01:11.216192	32.6	46.7	-59.7	3.0
2026-01-07 17:01:12.337949	32.0	46.5	-60.9	6.3
2026-01-07 17:01:13.456705	31.5	46.3	-60.2	6.5
2026-01-07 17:01:14.576974	30.9	46.1	-59.4	3.4
2026-01-07 17:01:15.697731	30.4	45.9	-60.8	7.6
2026-01-07 17:01:16.817983	29.9	45.7	-60.0	5.4
2026-01-07 17:01:17.938235	29.4	45.5	-60.5	6.7
2026-01-07 17:01:19.057497	28.9	45.3	-59.7	5.2
2026-01-07 17:01:20.176749	28.4	45.1	-61.3	4.8
2026-01-07 17:01:21.297504	27.9	44.9	-59.7	0.0
2026-01-07 17:01:22.417757	27.4	44.7	-61.1	2.5
2026-01-07 17:01:23.537513	26.9	44.5	-61.2	4.6
2026-01-07 17:01:24.658774	26.5	44.3	-59.4	0.0
2026-01-07 17:01:25.779026	26.0	44.1	-61.6	5.1
2026-01-07 17:01:26.896294	25.5	43.9	-61.4	5.7
2026-01-07 17:01:28.016058	25.1	43.7	-60.5	0.0
2026-01-07 17:01:29.134815	24.6	43.5	-60.4	1.9
2026-01-07 17:01:30.253571	24.2	43.3	-59.8	0.0
2026-01-07 17:01:31.370823	23.7	43.1	-60.4	1.1
2026-01-07 17:01:32.492580	23.3	42.9	-60.4	2.7
2026-01-07 17:01:33.612336	22.9	42.7	-61.9	3.2
2026-01-07 17:01:34.732588	22.5	42.4	-61.1	4.4
2026-01-07 17:01:35.854841	22.0	42.2	-60.4	2.3
2026-01-07 17:01:36.972597	21.6	42.0	-60.7	5.9
2026-01-07 17:01:38.087857	21.2	41.8	-61.3	4.7
2026-01-07 17:01:39.205612	20.8	41.6	-58.7	1.7
2026-01-07 17:01:40.323864	20.4	41.4	-60.3	3.8
2026-01-07 17:01:41.439620	20.1	41.2	-59.9	2.0
2026-01-07 17:01:42.558376	19.7	40.9	-59.9	5.9
2026-01-07 17:01:43.674132	19.3	40.7	-60.3	0.8
2026-01-07 17:01:44.791383	18.9	40.5	-58.7	0.8
2026-01-07 17:01:45.909635	18.6	40.3	-58.4	0.0
2026-01-07 17:01:47.025398	18.2	40.1	-60.8	6.0
2026-01-07 17:01:48.143153	17.8	39.9	-60.4	3.3
2026-01-07 17:01:49.259909	17.5	39.6	-60.1	2.0
2026-01-07 17:01:50.376161	17.1	39.4	-59.8	2.8
2026-01-07 17:01:51.493412	16.8	39.2	-60.6	5.8
2026-01-07 17:01:52.610664	16.5	39.0	-59.4	4.9
2026-01-07 17:01:53.725924	16.1	38.8	-60.5	3.7
2026-01-07 17:01:54.846176	15.8	38.6	-60.2	5.1
2026-01-07 17:01:55.963939	15.5	38.4	-61.9	6.3
2026-01-07 17:01:57.081694	15.1	38.1	-61.1	4.0
2026-01-07 17:01:58.199946	14.8	37.9	-61.6	6.9
2026-01-07 17:01:59.314713	14.5	37.7	-60.7	0.2
2026-01-07 17:02:00.431972	14.2	37.5	-61.9	5.5
2026-01-07 17:02:01.549728	13.9	37.3	-60.7	2.2
2026-01-07 17:02:02.664979	13.6	37.1	-61.6	7.9
2026-01-07 17:02:03.783735	13.3	36.9	-60.3	4.0
2026-01-07 17:02:04.901987	13.0	36.7	-61.3	4.5
2026-01-07 17:02:06.017742	12.7	36.5	-61.1	6.2
2026-01-07 17:02:07.134497	12.4	36.2	-61.1	5.0
2026-01-07 17:02:08.256751	12.2	36.0	-61.2	8.1
2026-01-07 17:02:09.382516	11.9	35.8	-59.6	2.7
2026-01-07 17:02:10.503776	11.6	35.6	-60.1	4.4
2026-01-07 17:02:11.622540	11.3	35.4	-61.1	3.2
2026-01-07 17:02:12.744793	11.1	35.2	-60.9	4.6
2026-01-07 17:02:13.867045	10.8	35.0	-61.1	5.3
2026-01-07 17:02:14.988802	10.5	34.8	-60.9	5.5
2026-01-07 17:02:16.110063	10.3	34.6	-62.4	5.7
2026-01-07 17:02:17.232316	10.0	34.4	-60.3	2.6
2026-01-07 17:02:18.354569	9.8	34.2	-60.1	3.4
2026-01-07 17:02:19.475830	9.5	34.0	-59.1	3.8
2026-01-07 17:02:20.597091	9.3	33.8	-59.8	1.5
2026-01-07 17:02:21.719344	9.0	33.6	-59.7	3.6
2026-01-07 17:02:22.841597	8.8	33.4	-61.7	4.3
2026-01-07 17:02:23.960849	8.6	33.2	-60.8	6.3
2026-01-07 17:02:25.082605	8.3	33.0	-61.6	7.1
2026-01-07 17:02:26.204362	8.1	32.8	-61.4	5.1
2026-01-07 17:02:27.326615	7.9	32.6	-61.2	4.9
2026-01-07 17:02:28.447382	7.6	32.4	-61.7	4.9
2026-01-07 17:02:29.568634	7.4	32.2	-61.1	3.8
2026-01-07 17:02:30.688887	7.2	32.0	-61.1	3.0
2026-01-07 17:02:31.808643	7.0	31.8	-61.8	5.4
2026-01-07 17:02:32.924399	6.8	31.6	-62.0	3.7
2026-01-07 17:02:34.042172	6.6	31.4	-60.4	4.4
2026-01-07 17:02:35.161425	6.4	31.2	-61.5	3.9
2026-01-07 17:02:36.280685	6.1	31.0	-62.3	7.7
2026-01-07 17:02:37.399953	5.9	30.8	-61.1	6.6
2026-01-07 17:02:38.517204	5.7	30.6	-60.8	4.6
2026-01-07 17:02:39.638457	5.5	30.4	-62.1	6.2
2026-01-07 17:02:40.757213	5.3	30.3	-62.8	4.7
2026-01-07 17:02:41.874977	5.2	30.1	-62.1	3.8
2026-01-07 17:02:42.992732	5.0	29.9	-62.5	6.2
2026-01-07 17:02:44.110488	4.8	29.7	-61.4	5.2
2026-01-07 17:02:45.229741	4.6	29.5	-61.6	4.8
2026-01-07 17:02:46.346500	4.4	29.3	-62.2	3.4
2026-01-07 17:02:47.466252	4.2	29.2	-61.7	5.1
2026-01-07 17:02:48.587009	4.0	29.0	-62.0	3.9
2026-01-07 17:02:49.705261	3.9	28.8	-60.8	3.2
2026-01-07 17:02:50.823520	3.7	28.6	-61.9	2.8
2026-01-07 17:02:51.941276	3.5	28.4	-62.2	4.4
2026-01-07 17:02:53.060032	3.3	28.3	-63.9	6.7
2026-01-07 17:02:54.177788	3.2	28.1	-61.2	2.8
2026-01-07 17:02:55.298040	3.0	27.9	-62.8	4.4
2026-01-07 17:02:56.417796	2.8	27.7	-63.6	7.5
2026-01-07 17:02:57.537561	2.7	27.5	-63.0	6.8
2026-01-07 17:02:58.655813	2.5	27.4	-61.7	2.6
2026-01-07 17:02:59.774065	2.3	27.2	-60.0	2.0
2026-01-07 17:03:00.895318	2.2	27.0	-60.9	3.5
2026-01-07 17:03:02.013073	2.0	26.9	-61.9	4.3
2026-01-07 17:03:03.132325	1.9	26.7	-62.6	7.7
2026-01-07 17:03:04.251585	1.7	26.5	-60.7	3.5
2026-01-07 17:03:05.371837	1.6	26.3	-60.4	0.8
2026-01-07 17:03:06.491594	1.4	26.2	-62.4	7.2
2026-01-07 17:03:07.613351	1.3	26.0	-62.5	6.2
2026-01-07 17:03:08.731619	1.1	25.8	-61.3	3.3
2026-01-07 17:03:09.851871	1.0	25.7	-61.0	2.6
2026-01-07 17:03:10.970628	0.8	25.5	-62.6	5.1
2026-01-07 17:03:12.089880	0.7	25.4	-62.6	4.0
2026-01-07 17:03:13.208132	0.5	25.2	-62.3	6.2
2026-01-07 17:03:14.326887	0.4	25.0	-62.0	4.8
2026-01-07 17:03:15.445138	0.3	24.9	-62.2	4.9
2026-01-07 17:03:16.563399	0.1	24.7	-62.4	2.4
2026-01-07 17:03:17.682659	360.0	24.5	-63.1	5.6
2026-01-07 17:03:18.797414	359.8	24.4	-61.3	4.2
2026-01-07 17:03:19.917171	359.7	24.2	-61.5	1.4
2026-01-07 17:03:21.036423	359.6	24.1	-63.5	5.2
2026-01-07 17:03:22.156179	359.4	23.9	-63.1	3.2
2026-01-07 17:03:23.273431	359.3	23.8	-62.9	2.6
2026-01-07 17:03:24.392187	359.2	23.6	-61.6	1.5
2026-01-07 17:03:25.512439	359.1	23.4	-61.8	2.8
2026-01-07 17:03:26.629699	358.9	23.3	-61.6	1.6
2026-01-07 17:03:27.748456	358.8	23.1	-63.0	4.2
2026-01-07 17:03:28.869220	358.7	23.0	-61.9	3.1
2026-01-07 17:03:29.990480	358.6	22.8	-63.2	6.1
2026-01-07 17:03:31.111750	358.5	22.7	-61.7	4.2
2026-01-07 17:03:32.233011	358.3	22.5	-62.1	2.3
2026-01-07 17:03:33.353775	358.2	22.4	-61.7	2.3
2026-01-07 17:03:34.476540	358.1	22.2	-61.5	1.7
2026-01-07 17:03:35.597801	358.0	22.1	-61.8	3.8
2026-01-07 17:03:36.719557	357.9	21.9	-61.1	0.7
2026-01-07 17:03:37.840322	357.8	21.8	-62.6	2.2
2026-01-07 17:03:38.962583	357.6	21.7	-60.8	0.0
2026-01-07 17:03:40.084836	357.5	21.5	-60.8	0.0
2026-01-07 17:03:41.207089	357.4	21.4	-61.5	3.5
2026-01-07 17:03:42.328846	357.3	21.2	-62.7	2.2
2026-01-07 17:03:43.450601	357.2	21.1	-62.4	5.3
2026-01-07 17:03:44.569860	357.1	20.9	-62.2	7.2
2026-01-07 17:03:45.691618	357.0	20.8	-61.5	3.7
2026-01-07 17:03:46.810870	356.9	20.7	-62.4	3.9
2026-01-07 17:03:47.929129	356.8	20.5	-62.7	2.5
2026-01-07 17:03:49.046381	356.7	20.4	-61.6	0.5
2026-01-07 17:03:50.166145	356.6	20.2	-61.6	1.8
2026-01-07 17:03:51.284908	356.5	20.1	-63.2	4.0
2026-01-07 17:03:52.405161	356.4	20.0	-62.9	2.1
2026-01-07 17:03:53.523412	356.3	19.8	-63.9	2.2
2026-01-07 17:03:54.640664	356.2	19.7	-62.0	0.0
2026-01-07 17:03:55.760420	356.1	19.6	-62.4	1.4
2026-01-07 17:03:56.876672	356.0	19.4	-61.3	0.7
2026-01-07 17:03:57.992923	355.9	19.3	-61.9	0.5
2026-01-07 17:03:59.110175	355.8	19.2	-61.5	0.2
2026-01-07 17:04:00.227426	355.7	19.0	-62.0	2.3
2026-01-07 17:04:01.350695	355.6	18.9	-62.8	5.6
2026-01-07 17:04:02.471948	355.5	18.8	-62.7	4.4
2026-01-07 17:04:03.592200	355.4	18.6	-61.9	3.5
2026-01-07 17:04:04.709964	355.3	18.5	-61.8	3.5
2026-01-07 17:04:05.831720	355.2	18.4	-62.0	4.2
2026-01-07 17:04:06.950981	355.2	18.2	-61.2	0.8
2026-01-07 17:04:08.070241	355.1	18.1	-62.4	1.9
2026-01-07 17:04:09.187996	355.0	18.0	-61.2	0.0
2026-01-07 17:04:10.307249	354.9	17.9	-63.0	3.5
2026-01-07 17:04:11.427005	354.8	17.7	-62.9	3.0
2026-01-07 17:04:12.549257	354.7	17.6	-63.3	2.1
2026-01-07 17:04:13.666524	354.6	17.5	-62.8	0.1
2026-01-07 17:04:14.786281	354.6	17.3	-62.5	0.0
2026-01-07 17:04:15.905532	354.5	17.2	-63.0	1.4
2026-01-07 17:04:17.024785	354.4	17.1	-63.0	0.0
2026-01-07 17:04:18.145045	354.3	17.0	-64.1	4.8
2026-01-07 17:04:19.263297	354.2	16.9	-62.9	1.6
2026-01-07 17:04:20.381556	354.1	16.7	-62.9	2.7
2026-01-07 17:04:21.498311	354.1	16.6	-62.7	1.5
2026-01-07 17:04:22.618068	354.0	16.5	-63.3	2.0
2026-01-07 17:04:23.738320	353.9	16.4	-63.6	3.6
2026-01-07 17:04:24.858077	353.8	16.3	-63.1	2.3
2026-01-07 17:04:25.975328	353.8	16.1	-61.2	0.0
2026-01-07 17:04:27.094588	353.7	16.0	-63.1	2.6
2026-01-07 17:04:28.215345	353.6	15.9	-63.1	3.8
2026-01-07 17:04:29.336110	353.5	15.8	-63.4	2.2
2026-01-07 17:04:30.454361	353.5	15.7	-63.2	2.7
2026-01-07 17:04:31.572622	353.4	15.5	-63.4	2.6
2026-01-07 17:04:32.690377	353.3	15.4	-63.7	4.6
2026-01-07 17:04:33.808134	353.2	15.3	-63.2	2.0
2026-01-07 17:04:34.925890	353.2	15.2	-62.7	1.5
2026-01-07 17:04:36.043646	353.1	15.1	-63.7	1.4
2026-01-07 17:04:37.160401	353.0	15.0	-64.0	0.0
2026-01-07 17:04:38.277660	353.0	14.9	-63.8	1.9
2026-01-07 17:04:39.393920	352.9	14.7	-62.8	0.0
2026-01-07 17:04:40.513676	352.8	14.6	-63.5	1.7
2026-01-07 17:04:41.632431	352.7	14.5	-61.7	0.0
2026-01-07 17:04:42.751186	352.7	14.4	-62.5	0.0
2026-01-07 17:04:43.871447	352.6	14.3	-63.3	0.0
2026-01-07 17:04:44.987698	352.5	14.2	-63.7	0.0
2026-01-07 17:04:46.104959	352.5	14.1	-64.1	0.1
2026-01-07 17:04:47.223210	352.4	14.0	-64.4	1.1
2026-01-07 17:04:48.340470	352.4	13.9	-64.2	0.0
2026-01-07 17:04:49.459722	352.3	13.7	-63.2	0.0
2026-01-07 17:04:50.575974	352.2	13.6	-64.1	0.0
2026-01-07 17:04:51.691233	352.2	13.5	-63.7	0.0
2026-01-07 17:04:52.812486	352.1	13.4	-63.5	0.0
2026-01-07 17:04:53.934739	352.0	13.3	-64.3	0.0
2026-01-07 17:04:55.056000	352.0	13.2	-63.9	1.7
2026-01-07 17:04:56.178252	351.9	13.1	-63.8	2.2
2026-01-07 17:04:57.300008	351.8	13.0	-62.9	1.1
2026-01-07 17:04:58.421765	351.8	12.9	-63.9	2.6
2026-01-07 17:04:59.544523	351.7	12.8	-62.5	0.0
2026-01-07 17:05:00.666280	351.7	12.7	-64.1	2.7
2026-01-07 17:05:01.788533	351.6	12.6	-63.3	0.6
2026-01-07 17:05:02.909793	351.5	12.5	-63.7	2.8
2026-01-07 17:05:04.032046	351.5	12.4	-63.8	2.8
2026-01-07 17:05:05.153298	351.4	12.3	-64.4	2.1
2026-01-07 17:05:06.269557	351.4	12.2	-63.5	1.5
2026-01-07 17:05:07.387809	351.3	12.1	-64.6	3.4
2026-01-07 17:05:08.506060	351.3	12.0	-64.0	3.6
2026-01-07 17:05:09.624322	351.2	11.9	-63.8	3.1
2026-01-07 17:05:10.746078	351.1	11.8	-63.3	2.0
2026-01-07 17:05:11.867339	351.1	11.7	-64.0	1.6
2026-01-07 17:05:12.989592	351.0	11.6	-63.7	2.3
2026-01-07 17:05:14.111349	351.0	11.5	-63.9	2.8
2026-01-07 17:05:15.233105	350.9	11.4	-63.8	1.9
2026-01-07 17:05:16.351357	350.9	11.3	-64.4	0.8
2026-01-07 17:05:17.469122	350.8	11.2	-64.3	3.3
2026-01-07 17:05:18.588879	350.8	11.1	-64.1	2.3
2026-01-07 17:05:19.709644	350.7	11.0	-64.0	0.0
2026-01-07 17:05:20.828896	350.7	10.9	-62.9	0.0
2026-01-07 17:05:21.946156	350.6	10.8	-64.5	1.2
2026-01-07 17:05:23.064415	350.6	10.7	-61.9	0.0
2026-01-07 17:05:24.181667	350.5	10.6	-63.5	0.0
2026-01-07 17:05:25.300927	350.5	10.5	-63.7	0.0
2026-01-07 17:05:26.418684	350.4	10.4	-63.3	0.0
2026-01-07 17:05:27.538448	350.4	10.3	-64.1	0.0
2026-01-07 17:05:28.657203	350.3	10.2	-62.8	0.0
2026-01-07 17:05:29.774455	350.3	10.1	-64.3	0.0
2026-01-07 17:05:30.894707	350.2	10.0	-63.6	0.0
2026-01-07 17:05:32.012463	350.2	9.9	-63.7	0.0
2026-01-07 17:05:33.134220	350.1	9.8	-64.2	0.0
2026-01-07 17:05:34.250975	350.1	9.7	-64.5	0.0
2026-01-07 17:05:35.369731	350.0	9.6	-64.4	0.0
2026-01-07 17:05:36.488488	350.0	9.5	-64.1	0.0
2026-01-07 17:05:37.607748	349.9	9.4	-64.6	0.0
2026-01-07 17:05:38.730009	349.9	9.3	-65.2	0.0
2026-01-07 17:05:39.849765	349.8	9.3	-63.8	0.0
2026-01-07 17:05:40.970522	349.8	9.2	-64.5	0.0
2026-01-07 17:05:42.090775	349.7	9.1	-63.7	0.0
2026-01-07 17:05:43.210035	349.7	9.0	-63.9	0.0
2026-01-07 17:05:44.330287	349.6	8.9	-64.1	0.0
2026-01-07 17:05:45.449540	349.6	8.8	-64.5	0.0
2026-01-07 17:05:46.571800	349.6	8.7	-63.8	0.0
2026-01-07 17:05:47.689052	349.5	8.6	-64.2	0.0
2026-01-07 17:05:48.808312	349.5	8.5	-63.1	0.0
2026-01-07 17:05:49.923067	349.4	8.4	-64.4	0.0
2026-01-07 17:05:51.040823	349.4	8.4	-64.8	0.0
2026-01-07 17:05:52.156074	349.3	8.3	-65.1	0.0
2026-01-07 17:05:53.271830	349.3	8.2	-64.2	0.0
2026-01-07 17:05:54.390585	349.3	8.1	-65.1	0.0
2026-01-07 17:05:55.510342	349.2	8.0	-65.1	0.0
2026-01-07 17:05:56.628098	349.2	7.9	-65.6	0.0
2026-01-07 17:05:57.748351	349.1	7.8	-65.5	0.0
2026-01-07 17:05:58.869116	349.1	7.7	-65.6	0.0
2026-01-07 17:05:59.985367	349.0	7.7	-65.3	0.0
2026-01-07 17:06:01.104619	349.0	7.6	-65.2	0.0
2026-01-07 17:06:02.221375	349.0	7.5	-66.1	0.0
2026-01-07 17:06:03.339636	348.9	7.4	-64.6	0.0
2026-01-07 17:06:04.457888	348.9	7.3	-65.5	0.0
2026-01-07 17:06:05.577644	348.8	7.2	-65.4	0.0
2026-01-07 17:06:06.693399	348.8	7.1	-65.6	0.0
2026-01-07 17:06:07.813155	348.8	7.1	-65.8	0.0
2026-01-07 17:06:08.931911	348.7	7.0	-64.9	0.0
2026-01-07 17:06:10.048171	348.7	6.9	-66.4	0.0
2026-01-07 17:06:11.164423	348.6	6.8	-65.9	0.0
2026-01-07 17:06:12.279682	348.6	6.7	-65.8	0.0
2026-01-07 17:06:13.394933	348.6	6.6	-65.5	0.0
2026-01-07 17:06:14.512688	348.5	6.6	-64.4	0.0
2026-01-07 17:06:15.635446	348.5	6.5	-65.2	0.0
2026-01-07 17:06:16.757698	348.5	6.4	-65.3	0.0
2026-01-07 17:06:17.878958	348.4	6.3	-65.3	0.0
2026-01-07 17:06:19.001218	348.4	6.2	-65.2	0.0
2026-01-07 17:06:20.117469	348.3	6.2	-65.9	0.0
2026-01-07 17:06:21.233225	348.3	6.1	-65.0	0.0
2026-01-07 17:06:22.351485	348.3	6.0	-66.1	0.0
2026-01-07 17:06:23.476746	348.2	5.9	-68.7	0.0
2026-01-07 17:06:24.598007	348.2	5.8	-69.8	0.0
2026-01-07 17:06:25.719268	348.2	5.7	-69.7	0.0
2026-01-07 17:06:26.841024	348.1	5.7	-68.3	0.0
2026-01-07 17:06:27.963277	348.1	5.6	-69.3	0.0
2026-01-07 17:06:29.085034	348.1	5.5	-70.4	0.0
2026-01-07 17:06:30.207287	348.0	5.4	-68.8	0.0
2026-01-07 17:06:31.329052	348.0	5.3	-70.7	0.0
2026-01-07 17:06:32.451304	348.0	5.3	-69.8	0.0
2026-01-07 17:06:33.573061	347.9	5.2	-70.2	0.0
2026-01-07 17:06:34.692324	347.9	5.1	-72.2	0.0
2026-01-07 17:06:35.810576	347.9	5.0	-72.7	0.0
#Closed at: 2026-01-07 16:53:58.478485