passes_logs/2026/01/07/PlanumMoscow/PlanumMoscow__20260107_105845_METEOR-M2_4_rec.log

#Pass ID: 20260107_105845_METEOR-M2 4
#Satellite: METEOR-M2 4
#Configuration: METEOR-M2 4
#Start time: 2026-01-07 10:58:50.312697

#LorettStation: 1.0.0 05.05.2024
#Station: PlanumMoscow
#Location: 37.6253844 lon 55.6713361 lat
#TLE: 1 59051U 24039A   25293.94737965  .00000087  00000+0  58459-4 0  9998
#TLE: 2 59051  98.6671 251.7071 0007726 135.4772 224.7028 14.22388966 85257

#Time	Az	El	Level	SNR
2026-01-07 11:02:28.730481	142.1	29.2	-63.8	12.8
2026-01-07 11:02:29.846237	142.0	29.4	-64.0	12.7
2026-01-07 11:02:30.963000	141.9	29.6	-64.1	13.8
2026-01-07 11:02:32.079252	141.8	29.8	-64.8	14.1
2026-01-07 11:02:33.197056	141.7	30.1	-64.0	12.2
2026-01-07 11:02:34.313812	141.6	30.3	-64.8	13.5
2026-01-07 11:02:35.434064	141.5	30.5	-64.4	13.1
2026-01-07 11:02:36.553326	141.4	30.7	-63.7	13.6
2026-01-07 11:02:37.674083	141.3	30.9	-63.9	12.5
2026-01-07 11:02:38.795335	141.2	31.1	-64.1	12.3
2026-01-07 11:02:39.917092	141.1	31.3	-64.7	13.3
2026-01-07 11:02:41.034848	141.0	31.5	-64.4	13.0
2026-01-07 11:02:42.153100	140.9	31.8	-64.1	11.3
2026-01-07 11:02:43.272352	140.7	32.0	-64.0	12.2
2026-01-07 11:02:44.391613	140.6	32.2	-63.6	11.3
2026-01-07 11:02:45.518370	140.5	32.4	-64.2	12.9
2026-01-07 11:02:46.640623	140.4	32.7	-65.4	13.4
2026-01-07 11:02:47.762380	140.3	32.9	-64.2	11.6
2026-01-07 11:02:48.884137	140.1	33.1	-64.7	12.6
2026-01-07 11:02:50.006389	140.0	33.3	-64.9	12.0
2026-01-07 11:02:51.128146	139.9	33.6	-64.9	13.3
2026-01-07 11:02:52.250399	139.7	33.8	-64.8	12.1
2026-01-07 11:02:53.372652	139.6	34.0	-64.6	11.2
2026-01-07 11:02:54.493417	139.5	34.3	-65.2	12.7
2026-01-07 11:02:55.614690	139.3	34.5	-64.7	11.9
2026-01-07 11:02:56.735447	139.2	34.8	-64.4	11.1
2026-01-07 11:02:57.856708	139.0	35.0	-65.1	12.4
2026-01-07 11:02:58.978960	138.9	35.2	-65.2	11.8
2026-01-07 11:03:00.101213	138.8	35.5	-65.6	13.9
2026-01-07 11:03:01.222474	138.6	35.7	-64.8	10.9
2026-01-07 11:03:02.338726	138.5	36.0	-65.2	14.0
2026-01-07 11:03:03.458491	138.3	36.2	-65.1	13.3
2026-01-07 11:03:04.576743	138.2	36.5	-65.2	11.9
2026-01-07 11:03:05.696996	138.0	36.7	-65.4	11.3
2026-01-07 11:03:06.816257	137.8	37.0	-65.6	11.8
2026-01-07 11:03:07.936014	137.7	37.3	-64.7	12.3
2026-01-07 11:03:09.061771	137.5	37.5	-64.9	10.8
2026-01-07 11:03:10.180023	137.3	37.8	-65.2	11.2
2026-01-07 11:03:11.296275	137.2	38.0	-65.6	13.4
2026-01-07 11:03:12.415527	137.0	38.3	-64.9	13.6
2026-01-07 11:03:13.535779	136.8	38.6	-65.2	12.8
2026-01-07 11:03:14.655535	136.6	38.8	-65.3	12.2
2026-01-07 11:03:15.774795	136.5	39.1	-65.1	13.3
2026-01-07 11:03:16.893552	136.3	39.4	-64.7	11.5
2026-01-07 11:03:18.014309	136.1	39.6	-65.2	12.6
2026-01-07 11:03:19.134066	135.9	39.9	-65.0	12.7
2026-01-07 11:03:20.252822	135.7	40.2	-65.0	12.4
2026-01-07 11:03:21.371083	135.5	40.5	-64.3	12.3
2026-01-07 11:03:22.488839	135.3	40.7	-64.3	12.0
2026-01-07 11:03:23.609091	135.1	41.0	-64.4	14.4
2026-01-07 11:03:24.728847	134.9	41.3	-65.2	13.6
2026-01-07 11:03:25.849100	134.7	41.6	-65.2	12.9
2026-01-07 11:03:26.968856	134.4	41.9	-64.4	12.0
2026-01-07 11:03:28.087612	134.2	42.2	-65.7	14.2
2026-01-07 11:03:29.206368	134.0	42.5	-64.6	11.9
2026-01-07 11:03:30.326124	133.8	42.8	-65.5	13.8
2026-01-07 11:03:31.445881	133.5	43.0	-65.3	13.9
2026-01-07 11:03:32.565637	133.3	43.3	-64.3	12.1
2026-01-07 11:03:33.686394	133.0	43.6	-65.6	13.3
2026-01-07 11:03:34.804646	132.8	43.9	-66.0	14.8
2026-01-07 11:03:35.923918	132.5	44.2	-66.1	14.2
2026-01-07 11:03:37.042178	132.3	44.5	-64.8	12.4
2026-01-07 11:03:38.159430	132.0	44.8	-65.9	14.2
2026-01-07 11:03:39.277690	131.8	45.1	-65.4	11.4
2026-01-07 11:03:40.394950	131.5	45.5	-65.9	11.9
2026-01-07 11:03:41.513211	131.2	45.8	-65.4	10.5
2026-01-07 11:03:42.631463	130.9	46.1	-66.1	11.5
2026-01-07 11:03:43.751715	130.6	46.4	-65.4	9.6
2026-01-07 11:03:44.868967	130.4	46.7	-66.0	11.8
2026-01-07 11:03:45.987227	130.0	47.0	-66.2	9.7
2026-01-07 11:03:47.105479	129.7	47.3	-67.1	12.7
2026-01-07 11:03:48.221731	129.4	47.6	-66.7	11.4
2026-01-07 11:03:49.340496	129.1	48.0	-66.5	11.3
2026-01-07 11:03:50.457260	128.8	48.3	-66.1	10.4
2026-01-07 11:03:51.575016	128.5	48.6	-66.7	12.4
2026-01-07 11:03:52.692772	128.1	48.9	-65.8	10.3
2026-01-07 11:03:53.813024	127.8	49.2	-66.4	10.5
2026-01-07 11:03:54.929276	127.4	49.6	-66.1	8.8
2026-01-07 11:03:56.048536	127.0	49.9	-65.3	8.7
2026-01-07 11:03:57.165797	126.7	50.2	-66.4	11.5
2026-01-07 11:03:58.284048	126.3	50.6	-66.0	11.7
2026-01-07 11:03:59.400300	125.9	50.9	-66.1	12.4
2026-01-07 11:04:00.518570	125.5	51.2	-66.4	11.9
2026-01-07 11:04:01.640327	125.1	51.5	-66.6	12.8
2026-01-07 11:04:02.762580	124.7	51.9	-66.5	12.8
2026-01-07 11:04:03.884337	124.3	52.2	-66.3	12.6
2026-01-07 11:04:05.005102	123.8	52.5	-66.7	13.7
2026-01-07 11:04:06.126364	123.4	52.9	-65.0	9.6
2026-01-07 11:04:07.248121	122.9	53.2	-65.8	11.9
2026-01-07 11:04:08.370374	122.5	53.5	-66.1	11.0
2026-01-07 11:04:09.492131	122.0	53.9	-66.3	12.0
2026-01-07 11:04:10.613888	121.5	54.2	-66.3	10.2
2026-01-07 11:04:11.734654	121.0	54.6	-66.9	10.9
2026-01-07 11:04:12.856411	120.5	54.9	-66.8	10.7
2026-01-07 11:04:13.978664	120.0	55.2	-66.2	9.1
2026-01-07 11:04:15.100421	119.4	55.6	-67.1	10.4
2026-01-07 11:04:16.222674	118.9	55.9	-66.7	9.7
2026-01-07 11:04:17.339437	118.3	56.2	-66.5	10.3
2026-01-07 11:04:18.457689	117.8	56.6	-67.0	10.5
2026-01-07 11:04:19.576950	117.2	56.9	-66.4	9.9
2026-01-07 11:04:20.696202	116.6	57.2	-66.0	9.5
2026-01-07 11:04:21.815462	116.0	57.6	-66.3	9.7
2026-01-07 11:04:22.933218	115.3	57.9	-67.0	10.2
2026-01-07 11:04:24.052470	114.7	58.2	-66.6	10.9
2026-01-07 11:04:25.169730	114.0	58.5	-66.9	10.9
2026-01-07 11:04:26.287486	113.3	58.9	-66.4	10.9
2026-01-07 11:04:27.402241	112.6	59.2	-66.6	10.2
2026-01-07 11:04:28.521998	111.9	59.5	-66.6	10.9
2026-01-07 11:04:29.639257	111.2	59.8	-66.8	10.5
2026-01-07 11:04:30.755509	110.4	60.1	-65.6	8.8
2026-01-07 11:04:31.872769	109.7	60.4	-65.9	8.7
2026-01-07 11:04:32.989030	108.9	60.7	-67.1	10.0
2026-01-07 11:04:34.109291	108.1	61.0	-67.3	9.2
2026-01-07 11:04:35.226047	107.3	61.3	-67.5	8.5
2026-01-07 11:04:36.342803	106.4	61.6	-67.2	8.6
2026-01-07 11:04:37.458064	105.5	61.9	-67.5	7.7
2026-01-07 11:04:38.576315	104.7	62.2	-67.6	7.6
2026-01-07 11:04:39.693567	103.7	62.5	-66.9	7.7
2026-01-07 11:04:40.810323	102.8	62.8	-67.1	7.8
2026-01-07 11:04:41.931575	101.9	63.0	-67.9	8.5
2026-01-07 11:04:43.048827	100.9	63.3	-67.5	8.4
2026-01-07 11:04:44.166079	99.9	63.6	-67.7	8.7
2026-01-07 11:04:45.282330	98.9	63.8	-67.3	9.0
2026-01-07 11:04:46.399094	97.9	64.1	-67.1	8.1
2026-01-07 11:04:47.516346	96.8	64.3	-66.7	10.1
2026-01-07 11:04:48.634102	95.7	64.5	-66.9	9.8
2026-01-07 11:04:49.751354	94.6	64.8	-66.5	10.6
2026-01-07 11:04:50.869613	93.5	65.0	-66.1	10.1
2026-01-07 11:04:51.987371	92.3	65.2	-66.7	11.5
2026-01-07 11:04:53.102622	91.2	65.4	-66.1	11.5
2026-01-07 11:04:54.221874	90.0	65.6	-66.9	12.0
2026-01-07 11:04:55.338134	88.8	65.7	-66.7	11.7
2026-01-07 11:04:56.454385	87.5	65.9	-66.7	11.4
2026-01-07 11:04:57.569140	86.3	66.1	-66.3	10.6
2026-01-07 11:04:58.685401	85.0	66.2	-66.7	11.3
2026-01-07 11:04:59.802652	83.8	66.4	-66.8	11.0
2026-01-07 11:05:00.920913	82.5	66.5	-66.7	10.0
2026-01-07 11:05:02.040165	81.1	66.6	-67.1	10.9
2026-01-07 11:05:03.156417	79.8	66.7	-67.7	11.1
2026-01-07 11:05:04.273685	78.5	66.8	-67.2	10.3
2026-01-07 11:05:05.390945	77.1	66.9	-66.3	8.6
2026-01-07 11:05:06.507701	75.8	67.0	-67.5	10.8
2026-01-07 11:05:07.626457	74.4	67.0	-67.2	9.8
2026-01-07 11:05:08.745213	73.0	67.1	-67.0	10.2
2026-01-07 11:05:09.861969	71.6	67.1	-67.3	10.8
2026-01-07 11:05:10.981221	70.2	67.2	-66.7	10.2
2026-01-07 11:05:12.101473	68.8	67.2	-66.9	10.6
2026-01-07 11:05:13.221725	67.5	67.2	-66.4	10.1
2026-01-07 11:05:14.339986	66.1	67.2	-67.2	10.8
2026-01-07 11:05:15.457238	64.7	67.1	-66.7	10.5
2026-01-07 11:05:16.575490	63.3	67.1	-66.6	10.1
2026-01-07 11:05:17.697247	61.9	67.0	-66.8	8.3
2026-01-07 11:05:18.819500	60.5	67.0	-66.3	10.7
2026-01-07 11:05:19.941256	59.2	66.9	-66.8	10.4
2026-01-07 11:05:21.063509	57.8	66.8	-66.6	10.3
2026-01-07 11:05:22.185266	56.5	66.7	-66.0	9.0
2026-01-07 11:05:23.307022	55.1	66.6	-66.4	9.7
2026-01-07 11:05:24.429275	53.8	66.5	-66.1	9.2
2026-01-07 11:05:25.551528	52.5	66.4	-66.1	8.9
2026-01-07 11:05:26.672791	51.2	66.2	-66.4	8.3
2026-01-07 11:05:27.792564	50.0	66.1	-66.5	6.9
2026-01-07 11:05:28.915321	48.7	65.9	-66.1	7.7
2026-01-07 11:05:30.037573	47.5	65.7	-66.7	10.0
2026-01-07 11:05:31.159330	46.3	65.6	-66.2	9.0
2026-01-07 11:05:32.277590	45.1	65.4	-66.6	9.1
2026-01-07 11:05:33.395347	43.9	65.2	-64.5	7.1
2026-01-07 11:05:34.516104	42.8	65.0	-66.3	9.8
2026-01-07 11:05:35.634355	41.7	64.7	-66.9	10.3
2026-01-07 11:05:36.753112	40.6	64.5	-66.5	10.9
2026-01-07 11:05:37.871363	39.5	64.3	-66.1	10.3
2026-01-07 11:05:38.990120	38.4	64.1	-67.1	11.3
2026-01-07 11:05:40.106371	37.4	63.8	-66.7	10.2
2026-01-07 11:05:41.225127	36.4	63.6	-65.3	8.5
2026-01-07 11:05:42.343388	35.4	63.3	-66.6	8.8
2026-01-07 11:05:43.462640	34.4	63.0	-66.7	9.2
2026-01-07 11:05:44.580396	33.5	62.8	-67.4	9.4
2026-01-07 11:05:45.705657	32.5	62.5	-66.7	7.7
2026-01-07 11:05:46.824918	31.6	62.2	-65.3	6.2
2026-01-07 11:05:47.942673	30.7	61.9	-66.5	7.4
2026-01-07 11:05:49.062430	29.9	61.6	-66.3	7.0
2026-01-07 11:05:50.180682	29.0	61.3	-65.8	5.7
2026-01-07 11:05:51.298933	28.2	61.0	-66.1	6.7
2026-01-07 11:05:52.414689	27.4	60.7	-66.3	5.8
2026-01-07 11:05:53.534445	26.6	60.4	-66.6	8.4
2026-01-07 11:05:54.654201	25.9	60.1	-66.3	5.8
2026-01-07 11:05:55.769957	25.1	59.8	-66.1	8.1
2026-01-07 11:05:56.890714	24.4	59.5	-65.4	8.4
2026-01-07 11:05:58.009470	23.7	59.2	-65.3	6.8
2026-01-07 11:05:59.129234	23.0	58.8	-64.1	7.9
2026-01-07 11:06:00.247486	22.3	58.5	-65.8	8.6
2026-01-07 11:06:01.367243	21.6	58.2	-64.3	6.3
2026-01-07 11:06:02.484495	21.0	57.9	-64.7	5.8
2026-01-07 11:06:03.602746	20.4	57.6	-64.7	4.4
2026-01-07 11:06:04.721006	19.7	57.2	-63.3	2.5
2026-01-07 11:06:05.838258	19.1	56.9	-63.1	5.7
2026-01-07 11:06:06.956014	18.6	56.6	-65.6	4.7
2026-01-07 11:06:08.074770	18.0	56.2	-64.8	3.8
2026-01-07 11:06:09.194022	17.4	55.9	-64.9	4.9
2026-01-07 11:06:10.311778	16.9	55.6	-63.8	4.7
2026-01-07 11:06:11.431031	16.3	55.2	-64.3	6.2
2026-01-07 11:06:12.549795	15.8	54.9	-65.0	5.8
2026-01-07 11:06:13.672065	15.3	54.6	-64.5	4.9
2026-01-07 11:06:14.790317	14.8	54.2	-64.8	5.1
2026-01-07 11:06:15.909073	14.3	53.9	-64.9	5.2
2026-01-07 11:06:17.027829	13.9	53.6	-63.4	3.5
2026-01-07 11:06:18.147082	13.4	53.2	-64.0	7.2
2026-01-07 11:06:19.265333	13.0	52.9	-65.1	6.5
2026-01-07 11:06:20.384585	12.5	52.6	-63.5	5.7
2026-01-07 11:06:21.503342	12.1	52.2	-63.0	4.9
2026-01-07 11:06:22.626099	11.7	51.9	-63.1	6.5
2026-01-07 11:06:23.744350	11.2	51.6	-64.2	6.1
2026-01-07 11:06:24.860602	10.8	51.2	-63.9	4.8
2026-01-07 11:06:25.979358	10.4	50.9	-63.3	4.3
2026-01-07 11:06:27.098115	10.1	50.6	-62.4	3.3
2026-01-07 11:06:28.214366	9.7	50.3	-64.5	4.3
2026-01-07 11:06:29.333618	9.3	49.9	-63.0	0.8
2026-01-07 11:06:30.450891	9.0	49.6	-61.9	4.1
2026-01-07 11:06:31.569156	8.6	49.3	-60.8	0.5
2026-01-07 11:06:32.687921	8.3	49.0	-62.5	0.8
2026-01-07 11:06:33.806677	7.9	48.6	-63.0	2.6
2026-01-07 11:06:34.923929	7.6	48.3	-64.0	4.8
2026-01-07 11:06:36.043181	7.3	48.0	-64.6	4.4
2026-01-07 11:06:37.158937	6.9	47.7	-63.1	3.5
2026-01-07 11:06:38.275189	6.6	47.4	-64.0	3.1
2026-01-07 11:06:39.396441	6.3	47.1	-63.4	2.6
2026-01-07 11:06:40.518198	6.0	46.8	-66.0	6.2
2026-01-07 11:06:41.639955	5.7	46.4	-63.3	2.4
2026-01-07 11:06:42.761721	5.4	46.1	-63.1	3.4
2026-01-07 11:06:43.882486	5.2	45.8	-62.2	1.4
2026-01-07 11:06:45.003253	4.9	45.5	-60.8	0.1
2026-01-07 11:06:46.124513	4.6	45.2	-61.8	2.7
2026-01-07 11:06:47.246270	4.3	44.9	-62.2	1.7
2026-01-07 11:06:48.368028	4.1	44.6	-61.7	1.5
2026-01-07 11:06:49.488794	3.8	44.3	-63.3	2.9
2026-01-07 11:06:50.611055	3.6	44.0	-63.0	3.4
2026-01-07 11:06:51.732812	3.3	43.7	-64.0	5.1
2026-01-07 11:06:52.853082	3.1	43.4	-63.1	3.5
2026-01-07 11:06:53.974343	2.8	43.1	-63.4	6.3
2026-01-07 11:06:55.094595	2.6	42.8	-63.7	4.6
2026-01-07 11:06:56.211847	2.4	42.5	-62.8	3.6
2026-01-07 11:06:57.329603	2.2	42.2	-63.3	6.5
2026-01-07 11:06:58.448368	1.9	42.0	-65.0	8.0
2026-01-07 11:06:59.565628	1.7	41.7	-63.1	4.7
2026-01-07 11:07:00.683880	1.5	41.4	-65.6	9.4
2026-01-07 11:07:01.802132	1.3	41.1	-64.0	7.9
2026-01-07 11:07:02.919383	1.1	40.8	-65.4	8.0
2026-01-07 11:07:04.035139	0.9	40.6	-65.1	10.5
2026-01-07 11:07:05.154400	0.7	40.3	-65.4	8.9
2026-01-07 11:07:06.270661	0.5	40.0	-65.1	8.6
2026-01-07 11:07:07.387417	0.3	39.7	-64.4	9.3
2026-01-07 11:07:08.506173	0.1	39.5	-64.3	8.3
2026-01-07 11:07:09.625425	359.9	39.2	-63.3	6.0
2026-01-07 11:07:10.741180	359.8	38.9	-63.0	7.3
2026-01-07 11:07:11.858936	359.6	38.7	-64.4	4.2
2026-01-07 11:07:12.975203	359.4	38.4	-63.2	7.0
2026-01-07 11:07:14.092463	359.2	38.1	-62.4	4.9
2026-01-07 11:07:15.210715	359.1	37.9	-63.2	4.3
2026-01-07 11:07:16.326975	358.9	37.6	-63.5	7.4
2026-01-07 11:07:17.443731	358.7	37.4	-63.2	7.7
2026-01-07 11:07:18.563487	358.6	37.1	-64.8	10.7
2026-01-07 11:07:19.686253	358.4	36.8	-63.8	9.8
2026-01-07 11:07:20.804504	358.3	36.6	-64.8	10.6
2026-01-07 11:07:21.923757	358.1	36.3	-64.2	9.5
2026-01-07 11:07:23.039512	357.9	36.1	-63.9	9.0
2026-01-07 11:07:24.157267	357.8	35.9	-62.9	6.2
2026-01-07 11:07:25.274023	357.6	35.6	-64.8	9.7
2026-01-07 11:07:26.392275	357.5	35.4	-64.2	7.7
2026-01-07 11:07:27.509031	357.4	35.1	-65.3	10.4
2026-01-07 11:07:28.626787	357.2	34.9	-64.6	8.6
2026-01-07 11:07:29.746048	357.1	34.6	-64.3	9.3
2026-01-07 11:07:30.863307	356.9	34.4	-64.4	9.4
2026-01-07 11:07:31.981568	356.8	34.2	-62.9	6.9
2026-01-07 11:07:33.098323	356.7	33.9	-63.9	8.3
2026-01-07 11:07:34.214079	356.5	33.7	-63.4	7.7
2026-01-07 11:07:35.330835	356.4	33.5	-64.3	8.6
2026-01-07 11:07:36.447086	356.3	33.3	-63.6	8.0
2026-01-07 11:07:37.565850	356.2	33.0	-64.4	8.2
2026-01-07 11:07:38.681614	356.0	32.8	-63.9	7.5
2026-01-07 11:07:39.800874	355.9	32.6	-63.5	6.9
2026-01-07 11:07:40.917631	355.8	32.4	-63.2	6.0
2026-01-07 11:07:42.035882	355.7	32.1	-62.5	6.2
2026-01-07 11:07:43.152134	355.6	31.9	-63.4	8.6
2026-01-07 11:07:44.268889	355.5	31.7	-63.7	7.0
2026-01-07 11:07:45.386141	355.3	31.5	-61.9	5.3
2026-01-07 11:07:46.502897	355.2	31.3	-63.4	6.2
2026-01-07 11:07:47.620653	355.1	31.1	-63.0	8.8
2026-01-07 11:07:48.743922	355.0	30.8	-65.0	9.5
2026-01-07 11:07:49.863182	354.9	30.6	-64.7	10.9
2026-01-07 11:07:50.980434	354.8	30.4	-65.3	11.7
2026-01-07 11:07:52.097685	354.7	30.2	-64.4	12.0
2026-01-07 11:07:53.215937	354.6	30.0	-64.1	9.3
2026-01-07 11:07:54.333189	354.5	29.8	-63.1	5.0
2026-01-07 11:07:55.453441	354.4	29.6	-64.7	9.0
2026-01-07 11:07:56.572198	354.3	29.4	-63.6	6.9
2026-01-07 11:07:57.695459	354.2	29.2	-64.1	6.6
2026-01-07 11:07:58.817712	354.1	29.0	-64.0	7.4
2026-01-07 11:07:59.938973	354.0	28.8	-64.3	8.5
2026-01-07 11:08:01.060234	353.9	28.6	-63.7	7.5
2026-01-07 11:08:02.181992	353.8	28.4	-64.0	8.5
2026-01-07 11:08:03.303749	353.7	28.2	-64.7	10.7
2026-01-07 11:08:04.426002	353.6	28.0	-65.7	11.7
2026-01-07 11:08:05.548777	353.5	27.8	-63.8	7.5
2026-01-07 11:08:06.670544	353.4	27.6	-64.8	9.6
2026-01-07 11:08:07.792796	353.4	27.4	-63.5	7.3
2026-01-07 11:08:08.912049	353.3	27.2	-63.7	8.5
2026-01-07 11:08:10.032805	353.2	27.1	-63.5	7.9
2026-01-07 11:08:11.154562	353.1	26.9	-64.6	9.1
2026-01-07 11:08:12.276328	353.0	26.7	-63.4	8.1
2026-01-07 11:08:13.398093	352.9	26.5	-64.1	10.3
2026-01-07 11:08:14.520346	352.9	26.3	-64.2	8.8
2026-01-07 11:08:15.640598	352.8	26.1	-63.4	5.6
2026-01-07 11:08:16.759859	352.7	26.0	-61.9	5.1
2026-01-07 11:08:17.877110	352.6	25.8	-64.1	8.8
2026-01-07 11:08:18.996371	352.5	25.6	-64.4	9.0
2026-01-07 11:08:20.117128	352.5	25.4	-63.8	7.6
2026-01-07 11:08:21.236380	352.4	25.2	-63.0	6.2
2026-01-07 11:08:22.356137	352.3	25.1	-64.9	9.5
2026-01-07 11:08:23.474893	352.2	24.9	-64.3	6.1
2026-01-07 11:08:24.595145	352.2	24.7	-63.7	7.9
2026-01-07 11:08:25.715407	352.1	24.6	-63.5	5.8
2026-01-07 11:08:26.837164	352.0	24.4	-62.7	6.0
2026-01-07 11:08:27.956424	352.0	24.2	-65.1	9.5
2026-01-07 11:08:29.076180	351.9	24.1	-64.6	8.3
2026-01-07 11:08:30.197939	351.8	23.9	-64.3	7.8
2026-01-07 11:08:31.319199	351.7	23.7	-64.6	7.4
2026-01-07 11:08:32.439451	351.7	23.6	-64.7	7.4
2026-01-07 11:08:33.559703	351.6	23.4	-64.3	8.8
2026-01-07 11:08:34.679964	351.5	23.2	-64.9	8.7
2026-01-07 11:08:35.800225	351.5	23.1	-65.2	8.6
2026-01-07 11:08:36.919485	351.4	22.9	-64.2	7.0
2026-01-07 11:08:38.039242	351.4	22.7	-64.4	7.8
2026-01-07 11:08:39.158998	351.3	22.6	-64.4	7.6
2026-01-07 11:08:40.276754	351.2	22.4	-65.2	8.3
2026-01-07 11:08:41.395015	351.2	22.3	-63.3	6.6
2026-01-07 11:08:42.512276	351.1	22.1	-64.4	7.3
2026-01-07 11:08:43.632033	351.0	22.0	-64.5	7.5
2026-01-07 11:08:44.750285	351.0	21.8	-64.0	8.0
2026-01-07 11:08:45.870537	350.9	21.6	-65.1	8.2
2026-01-07 11:08:46.991799	350.9	21.5	-65.2	8.2
2026-01-07 11:08:48.109060	350.8	21.3	-64.4	8.1
2026-01-07 11:08:49.225815	350.8	21.2	-64.5	8.3
2026-01-07 11:08:50.344067	350.7	21.0	-65.0	8.6
2026-01-07 11:08:51.463327	350.6	20.9	-64.9	8.3
2026-01-07 11:08:52.581579	350.6	20.7	-64.5	7.5
2026-01-07 11:08:53.696838	350.5	20.6	-65.5	7.1
2026-01-07 11:08:54.814090	350.5	20.5	-65.4	8.8
2026-01-07 11:08:55.931855	350.4	20.3	-65.7	8.1
2026-01-07 11:08:57.047114	350.4	20.2	-63.2	5.0
2026-01-07 11:08:58.162366	350.3	20.0	-64.6	8.2
2026-01-07 11:08:59.278121	350.3	19.9	-65.1	8.8
2026-01-07 11:09:00.396878	350.2	19.7	-65.1	8.7
2026-01-07 11:09:01.515138	350.2	19.6	-64.5	6.1
2026-01-07 11:09:02.632902	350.1	19.5	-65.1	8.3
2026-01-07 11:09:03.750154	350.1	19.3	-65.4	8.9
2026-01-07 11:09:04.867406	350.0	19.2	-65.4	7.8
2026-01-07 11:09:05.984666	350.0	19.0	-64.6	7.3
2026-01-07 11:09:07.103927	349.9	18.9	-64.0	4.3
2026-01-07 11:09:08.221178	349.9	18.8	-65.5	8.5
2026-01-07 11:09:09.337934	349.8	18.6	-64.9	8.0
2026-01-07 11:09:10.456186	349.8	18.5	-64.9	7.5
2026-01-07 11:09:11.575438	349.7	18.4	-63.3	3.5
2026-01-07 11:09:12.694690	349.7	18.2	-64.5	6.9
2026-01-07 11:09:13.811446	349.6	18.1	-62.5	4.2
2026-01-07 11:09:14.931212	349.6	18.0	-63.2	5.3
2026-01-07 11:09:16.049978	349.5	17.8	-64.5	7.4
2026-01-07 11:09:17.169247	349.5	17.7	-65.4	8.4
2026-01-07 11:09:18.289499	349.5	17.6	-64.9	7.2
2026-01-07 11:09:19.411256	349.4	17.4	-65.1	8.3
2026-01-07 11:09:20.533508	349.4	17.3	-63.6	7.5
2026-01-07 11:09:21.657762	349.3	17.2	-64.5	7.9
2026-01-07 11:09:22.779518	349.3	17.0	-65.7	7.6
2026-01-07 11:09:23.901771	349.2	16.9	-63.9	5.7
2026-01-07 11:09:25.022537	349.2	16.8	-65.4	8.6
2026-01-07 11:09:26.144293	349.2	16.7	-65.4	7.2
2026-01-07 11:09:27.265058	349.1	16.5	-64.3	5.8
2026-01-07 11:09:28.387311	349.1	16.4	-65.0	6.4
2026-01-07 11:09:29.509068	349.0	16.3	-64.6	5.9
2026-01-07 11:09:30.629825	349.0	16.2	-64.8	5.5
2026-01-07 11:09:31.751583	349.0	16.0	-65.2	7.4
2026-01-07 11:09:32.872347	348.9	15.9	-63.8	5.7
2026-01-07 11:09:33.992112	348.9	15.8	-65.3	6.7
2026-01-07 11:09:35.109868	348.8	15.7	-65.2	6.9
2026-01-07 11:09:36.230120	348.8	15.6	-63.6	4.4
2026-01-07 11:09:37.347372	348.8	15.4	-64.4	5.2
2026-01-07 11:09:38.467624	348.7	15.3	-63.6	5.1
2026-01-07 11:09:39.587877	348.7	15.2	-64.6	5.3
2026-01-07 11:09:40.709129	348.7	15.1	-64.8	6.9
2026-01-07 11:09:41.828390	348.6	15.0	-64.2	4.9
2026-01-07 11:09:42.947642	348.6	14.8	-64.7	5.3
2026-01-07 11:09:44.065894	348.5	14.7	-64.7	5.2
2026-01-07 11:09:45.182650	348.5	14.6	-65.2	6.3
2026-01-07 11:09:46.303903	348.5	14.5	-64.3	6.0
2026-01-07 11:09:47.424660	348.4	14.4	-65.4	6.7
2026-01-07 11:09:48.546913	348.4	14.3	-65.2	6.2
2026-01-07 11:09:49.665669	348.4	14.1	-65.0	6.6
2026-01-07 11:09:50.788930	348.3	14.0	-64.0	4.4
2026-01-07 11:09:51.909192	348.3	13.9	-62.7	4.8
2026-01-07 11:09:53.026444	348.3	13.8	-64.5	6.4
2026-01-07 11:09:54.147208	348.2	13.7	-64.3	6.0
2026-01-07 11:09:55.266460	348.2	13.6	-65.6	7.4
2026-01-07 11:09:56.386216	348.2	13.5	-63.0	2.3
2026-01-07 11:09:57.503972	348.1	13.4	-62.9	0.0
2026-01-07 11:09:58.621728	348.1	13.3	-63.9	3.4
2026-01-07 11:09:59.742981	348.1	13.1	-64.5	6.8
2026-01-07 11:10:00.861232	348.0	13.0	-63.8	5.4
2026-01-07 11:10:01.979484	348.0	12.9	-64.6	5.3
2026-01-07 11:10:03.095249	348.0	12.8	-63.3	3.3
2026-01-07 11:10:04.213501	348.0	12.7	-64.1	6.8
2026-01-07 11:10:05.331257	347.9	12.6	-62.5	2.1
2026-01-07 11:10:06.450014	347.9	12.5	-63.5	3.0
2026-01-07 11:10:07.569266	347.9	12.4	-64.7	6.2
2026-01-07 11:10:08.692024	347.8	12.3	-64.2	5.3
2026-01-07 11:10:09.810275	347.8	12.2	-65.3	7.4
2026-01-07 11:10:10.930032	347.8	12.1	-64.8	6.7
2026-01-07 11:10:12.049788	347.7	12.0	-64.0	6.1
2026-01-07 11:10:13.168040	347.7	11.9	-65.2	6.5
2026-01-07 11:10:14.289292	347.7	11.8	-64.8	6.2
2026-01-07 11:10:15.407048	347.7	11.7	-64.8	6.5
2026-01-07 11:10:16.525300	347.6	11.6	-65.1	6.2
2026-01-07 11:10:17.644057	347.6	11.5	-64.3	4.6
2026-01-07 11:10:18.762309	347.6	11.4	-65.5	7.4
2026-01-07 11:10:19.882561	347.5	11.3	-65.4	7.3
2026-01-07 11:10:21.003814	347.5	11.2	-64.6	4.0
2026-01-07 11:10:22.121075	347.5	11.1	-63.5	3.9
2026-01-07 11:10:23.239327	347.5	11.0	-64.2	6.4
2026-01-07 11:10:24.357578	347.4	10.9	-63.6	4.1
2026-01-07 11:10:25.476838	347.4	10.8	-64.0	4.6
2026-01-07 11:10:26.597595	347.4	10.7	-63.5	4.6
2026-01-07 11:10:27.717351	347.4	10.6	-64.4	3.5
2026-01-07 11:10:28.835612	347.3	10.5	-64.4	4.0
2026-01-07 11:10:29.954376	347.3	10.4	-63.2	0.0
2026-01-07 11:10:31.074133	347.3	10.3	-64.9	4.7
2026-01-07 11:10:32.191385	347.3	10.2	-64.4	3.6
2026-01-07 11:10:33.310141	347.2	10.1	-62.8	2.4
2026-01-07 11:10:34.435403	347.2	10.0	-65.2	3.7
2026-01-07 11:10:35.554159	347.2	9.9	-65.4	4.6
2026-01-07 11:10:36.675916	347.2	9.8	-64.2	3.3
2026-01-07 11:10:37.798169	347.1	9.7	-64.8	2.7
2026-01-07 11:10:38.919926	347.1	9.6	-64.5	0.5
2026-01-07 11:10:40.041187	347.1	9.5	-63.9	1.7
2026-01-07 11:10:41.163440	347.1	9.4	-64.2	0.3
2026-01-07 11:10:42.284206	347.0	9.3	-62.9	0.2
2026-01-07 11:10:43.405467	347.0	9.2	-65.4	3.7
2026-01-07 11:10:44.525736	347.0	9.1	-64.8	3.2
2026-01-07 11:10:45.647997	347.0	9.0	-63.6	0.6
2026-01-07 11:10:46.770754	347.0	8.9	-64.8	0.4
2026-01-07 11:10:47.892511	346.9	8.8	-64.0	0.0
2026-01-07 11:10:49.010763	346.9	8.8	-65.8	0.8
2026-01-07 11:10:50.132533	346.9	8.7	-66.6	2.6
2026-01-07 11:10:51.254785	346.9	8.6	-66.3	1.1
2026-01-07 11:10:52.377038	346.8	8.5	-65.1	0.0
2026-01-07 11:10:53.497299	346.8	8.4	-64.3	0.0
2026-01-07 11:10:54.616056	346.8	8.3	-65.2	0.0
2026-01-07 11:10:55.734820	346.8	8.2	-64.0	0.0
2026-01-07 11:10:56.854081	346.8	8.1	-65.6	1.0
2026-01-07 11:10:57.972845	346.7	8.0	-65.6	0.2
2026-01-07 11:10:59.098603	346.7	7.9	-65.4	1.6
2026-01-07 11:11:00.218855	346.7	7.9	-64.4	0.0
2026-01-07 11:11:01.340108	346.7	7.8	-65.5	0.7
2026-01-07 11:11:02.457359	346.7	7.7	-65.0	0.0
2026-01-07 11:11:03.575611	346.6	7.6	-64.9	1.4
2026-01-07 11:11:04.694863	346.6	7.5	-64.5	0.0
2026-01-07 11:11:05.813125	346.6	7.4	-64.4	0.1
2026-01-07 11:11:06.933377	346.6	7.3	-64.9	0.7
2026-01-07 11:11:08.051629	346.6	7.2	-64.7	2.7
2026-01-07 11:11:09.170890	346.5	7.2	-63.4	0.0
2026-01-07 11:11:10.289646	346.5	7.1	-64.3	0.0
2026-01-07 11:11:11.411899	346.5	7.0	-62.9	0.0
2026-01-07 11:11:12.531656	346.5	6.9	-63.2	0.0
2026-01-07 11:11:13.650412	346.5	6.8	-64.0	3.0
2026-01-07 11:11:14.770672	346.4	6.7	-63.5	0.0
2026-01-07 11:11:15.892442	346.4	6.6	-63.5	0.9
2026-01-07 11:11:17.013198	346.4	6.6	-63.0	0.5
2026-01-07 11:11:18.128954	346.4	6.5	-62.5	0.7
2026-01-07 11:11:19.249215	346.4	6.4	-63.9	1.2
2026-01-07 11:11:20.368475	346.3	6.3	-64.7	2.4
2026-01-07 11:11:21.489751	346.3	6.2	-63.6	0.0
2026-01-07 11:11:22.610516	346.3	6.1	-65.5	1.9
2026-01-07 11:11:23.736770	346.3	6.1	-65.3	2.2
2026-01-07 11:11:24.857030	346.3	6.0	-64.5	3.4
2026-01-07 11:11:25.976786	346.3	5.9	-67.5	0.8
2026-01-07 11:11:27.097543	346.2	5.8	-69.1	0.0
2026-01-07 11:11:28.214795	346.2	5.7	-69.4	0.0
2026-01-07 11:11:29.333046	346.2	5.6	-67.1	0.0
2026-01-07 11:11:30.450803	346.2	5.6	-69.5	0.0
2026-01-07 11:11:31.571063	346.2	5.5	-70.1	0.0
2026-01-07 11:11:32.687818	346.2	5.4	-69.4	0.0
2026-01-07 11:11:33.808079	346.1	5.3	-70.5	0.0
2026-01-07 11:11:34.924330	346.1	5.2	-71.5	0.0
2026-01-07 11:11:36.042095	346.1	5.2	-71.4	0.0
2026-01-07 11:11:37.159347	346.1	5.1	-72.5	0.0
2026-01-07 11:11:38.275598	346.1	5.0	-72.8	0.0
#Closed at: 2026-01-07 10:58:45.313524