passes_logs/2025/01/20/SPB_Silybum_02/SPB_Silybum_02__20250120_101200_SUOMI_NPP_rec.log

#Pass ID: 20250120_101200_SUOMI NPP
#Satellite: SUOMI NPP
#Configuration: NPP
#Start time: 2025-01-20 10:12:01

#Version: 2.0.20230423
#Station: SPB_Silybum_02
#Location: 30.233357 lon 59.946436 lat
#TLE: 1 37849U 11061A   25019.85382012  .00000269  00000+0  14855-3 0  9998
#TLE: 2 37849  98.7451 320.7810 0001479  33.1387 326.9881 14.19541038685602

#Time	Az	El	Level	Level2	SNR	BER	Gain	Gain2
2025-01-20 10:12:03.46	157.11	4.19	
2025-01-20 10:12:03.66	157.11	4.20	
2025-01-20 10:12:03.87	157.11	4.22	
2025-01-20 10:12:04.07	157.11	4.23	
2025-01-20 10:12:04.27	157.11	4.24	
2025-01-20 10:12:04.48	157.11	4.26	
2025-01-20 10:12:04.68	157.11	4.27	
2025-01-20 10:12:04.88	157.11	4.29	
2025-01-20 10:12:05.09	157.11	4.30	
2025-01-20 10:12:05.29	157.11	4.32	
2025-01-20 10:12:05.49	157.11	4.33	
2025-01-20 10:12:05.70	157.11	4.34	
2025-01-20 10:12:05.90	157.11	4.36	
2025-01-20 10:12:06.10	157.11	4.37	
2025-01-20 10:12:06.30	157.11	4.39	
2025-01-20 10:12:06.51	157.11	4.40	
2025-01-20 10:12:06.71	157.11	4.41	
2025-01-20 10:12:06.91	157.11	4.43	
2025-01-20 10:12:07.12	157.11	4.44	
2025-01-20 10:12:07.32	157.11	4.46	
2025-01-20 10:12:07.52	157.11	4.47	
2025-01-20 10:12:07.73	157.11	4.49	
2025-01-20 10:12:07.93	157.11	4.50	
2025-01-20 10:12:08.13	157.11	4.51	
2025-01-20 10:12:08.34	157.11	4.53	
2025-01-20 10:12:08.54	157.11	4.54	
2025-01-20 10:12:08.74	157.11	4.56	
2025-01-20 10:12:08.94	157.11	4.57	
2025-01-20 10:12:09.15	157.11	4.59	
2025-01-20 10:12:09.35	157.11	4.60	
2025-01-20 10:12:09.55	157.11	4.62	
2025-01-20 10:12:09.76	157.11	4.63	
2025-01-20 10:12:09.96	157.11	4.64	
2025-01-20 10:12:10.16	157.11	4.66	
2025-01-20 10:12:10.37	157.11	4.67	
2025-01-20 10:12:10.57	157.11	4.69	
2025-01-20 10:12:10.77	157.11	4.70	
2025-01-20 10:12:10.98	157.11	4.72	
2025-01-20 10:12:11.18	157.11	4.73	
2025-01-20 10:12:11.38	157.11	4.74	
2025-01-20 10:12:11.58	157.11	4.76	
2025-01-20 10:12:11.79	157.11	4.77	
2025-01-20 10:12:11.99	157.11	4.79	
2025-01-20 10:12:12.19	157.11	4.80	
2025-01-20 10:12:12.40	157.11	4.82	
2025-01-20 10:12:12.60	157.11	4.83	
2025-01-20 10:12:12.80	157.11	4.85	
2025-01-20 10:12:13.01	157.11	4.86	
2025-01-20 10:12:13.21	157.11	4.88	
2025-01-20 10:12:13.41	157.11	4.89	
2025-01-20 10:12:13.62	157.11	4.90	
2025-01-20 10:12:13.82	157.11	4.92	
2025-01-20 10:12:14.02	157.11	4.93	
2025-01-20 10:12:14.22	157.11	4.95	
2025-01-20 10:12:14.43	157.11	4.96	
2025-01-20 10:12:14.63	157.11	4.98	
2025-01-20 10:12:14.83	157.11	4.99	
2025-01-20 10:12:15.04	157.11	5.01	
2025-01-20 10:12:15.24	157.11	5.02	
2025-01-20 10:12:15.44	157.11	5.04	
2025-01-20 10:12:15.65	157.11	5.05	
2025-01-20 10:12:15.85	157.11	5.06	
2025-01-20 10:12:16.05	157.11	5.08	
2025-01-20 10:12:16.26	157.11	5.09	
2025-01-20 10:12:16.46	157.11	5.11	
2025-01-20 10:12:16.66	157.11	5.12	
2025-01-20 10:12:16.86	157.11	5.14	
2025-01-20 10:12:17.07	157.11	5.15	
2025-01-20 10:12:17.27	157.11	5.17	
2025-01-20 10:12:17.47	157.11	5.18	
2025-01-20 10:12:17.68	157.11	5.20	
2025-01-20 10:12:17.88	157.11	5.21	
2025-01-20 10:12:18.08	157.11	5.23	
2025-01-20 10:12:18.29	157.11	5.24	
2025-01-20 10:12:18.49	157.11	5.26	
2025-01-20 10:12:18.69	157.11	5.27	
2025-01-20 10:12:18.90	157.11	5.29	
2025-01-20 10:12:19.10	157.11	5.30	
2025-01-20 10:12:19.30	157.11	5.31	
2025-01-20 10:12:19.50	157.11	5.33	
2025-01-20 10:12:19.71	157.11	5.34	
2025-01-20 10:12:19.91	157.11	5.36	
2025-01-20 10:12:20.11	157.11	5.37	
2025-01-20 10:12:20.32	157.11	5.39	
2025-01-20 10:12:20.52	157.11	5.40	
2025-01-20 10:12:20.72	157.11	5.42	
2025-01-20 10:12:20.93	157.11	5.43	
2025-01-20 10:12:21.13	157.11	5.45	
2025-01-20 10:12:21.33	157.11	5.46	
2025-01-20 10:12:21.54	157.11	5.48	
2025-01-20 10:12:21.74	157.11	5.49	
2025-01-20 10:12:21.94	157.11	5.51	
2025-01-20 10:12:22.14	157.11	5.52	
2025-01-20 10:12:22.35	157.11	5.54	
2025-01-20 10:12:22.55	157.11	5.55	
2025-01-20 10:12:22.75	157.11	5.57	
2025-01-20 10:12:22.96	157.11	5.58	
2025-01-20 10:12:23.16	157.11	5.60	
2025-01-20 10:12:23.36	157.11	5.61	
2025-01-20 10:12:23.57	157.11	5.63	
2025-01-20 10:12:23.77	157.11	5.64	
2025-01-20 10:12:23.97	157.11	5.66	
2025-01-20 10:12:24.18	157.11	5.67	
2025-01-20 10:12:24.38	157.11	5.69	
2025-01-20 10:12:24.58	157.11	5.70	
2025-01-20 10:12:24.78	157.11	5.72	
2025-01-20 10:12:24.99	157.11	5.73	
2025-01-20 10:12:25.19	157.11	5.75	
2025-01-20 10:12:25.39	157.11	5.76	
2025-01-20 10:12:25.60	157.11	5.78	
2025-01-20 10:12:25.80	157.11	5.79	
2025-01-20 10:12:26.00	157.11	5.81	
2025-01-20 10:12:26.21	157.11	5.82	
2025-01-20 10:12:26.41	157.11	5.84	
2025-01-20 10:12:26.61	157.11	5.85	
2025-01-20 10:12:26.82	157.11	5.87	
2025-01-20 10:12:27.02	157.11	5.88	
2025-01-20 10:12:27.22	157.11	5.90	
2025-01-20 10:12:27.42	157.11	5.91	
2025-01-20 10:12:27.63	157.10	5.93	
2025-01-20 10:12:27.83	157.10	5.94	
2025-01-20 10:12:28.03	157.10	5.96	
2025-01-20 10:12:28.24	157.10	5.97	
2025-01-20 10:12:28.44	157.10	5.99	
2025-01-20 10:12:28.64	157.10	6.00	
2025-01-20 10:12:28.85	157.10	6.02	
2025-01-20 10:12:29.05	157.10	6.03	
2025-01-20 10:12:29.25	157.10	6.05	
2025-01-20 10:12:29.46	157.10	6.06	
2025-01-20 10:12:29.66	157.10	6.08	
2025-01-20 10:12:29.86	157.10	6.09	
2025-01-20 10:12:30.06	157.10	6.11	
2025-01-20 10:12:30.27	157.10	6.12	
2025-01-20 10:12:30.47	157.10	6.14	
2025-01-20 10:12:30.67	157.10	6.15	
2025-01-20 10:12:30.88	157.10	6.17	
2025-01-20 10:12:31.08	157.10	6.18	
2025-01-20 10:12:31.28	157.10	6.20	
2025-01-20 10:12:31.49	157.10	6.22	
2025-01-20 10:12:31.69	157.10	6.23	
2025-01-20 10:12:31.89	157.10	6.25	
2025-01-20 10:12:32.10	157.10	6.26	
2025-01-20 10:12:32.30	157.10	6.28	
2025-01-20 10:12:32.50	157.10	6.29	
2025-01-20 10:12:32.70	157.10	6.31	
2025-01-20 10:12:32.91	157.10	6.32	
2025-01-20 10:12:33.11	157.10	6.34	
2025-01-20 10:12:33.31	157.10	6.35	
2025-01-20 10:12:33.52	157.10	6.37	
2025-01-20 10:12:33.72	157.10	6.38	
2025-01-20 10:12:33.92	157.10	6.40	
2025-01-20 10:12:34.13	157.10	6.41	
2025-01-20 10:12:34.33	157.10	6.43	
2025-01-20 10:12:34.53	157.10	6.44	
2025-01-20 10:12:34.74	157.10	6.46	
2025-01-20 10:12:34.94	157.10	6.48	
2025-01-20 10:12:35.14	157.10	6.49	
2025-01-20 10:12:35.34	157.10	6.51	
2025-01-20 10:12:35.55	157.10	6.52	
2025-01-20 10:12:35.75	157.10	6.54	
2025-01-20 10:12:35.95	157.10	6.55	
2025-01-20 10:12:36.16	157.10	6.57	
2025-01-20 10:12:36.36	157.10	6.58	
2025-01-20 10:12:36.56	157.10	6.60	
2025-01-20 10:12:36.77	157.10	6.62	
2025-01-20 10:12:36.97	157.10	6.63	
2025-01-20 10:12:37.17	157.10	6.65	
2025-01-20 10:12:37.38	157.10	6.66	
2025-01-20 10:12:37.58	157.10	6.68	
2025-01-20 10:12:37.78	157.10	6.69	
2025-01-20 10:12:37.98	157.10	6.71	
2025-01-20 10:12:38.19	157.10	6.72	
2025-01-20 10:12:38.39	157.10	6.74	
2025-01-20 10:12:38.59	157.10	6.75	
2025-01-20 10:12:38.80	157.10	6.77	
2025-01-20 10:12:39.00	157.10	6.79	
2025-01-20 10:12:39.20	157.10	6.80	
2025-01-20 10:12:39.41	157.10	6.82	
2025-01-20 10:12:39.61	157.10	6.83	
2025-01-20 10:12:39.81	157.10	6.85	
2025-01-20 10:12:40.02	157.10	6.86	
2025-01-20 10:12:40.22	157.10	6.88	
2025-01-20 10:12:40.42	157.10	6.90	
2025-01-20 10:12:40.62	157.10	6.91	
2025-01-20 10:12:40.83	157.10	6.93	
2025-01-20 10:12:41.03	157.10	6.94	
2025-01-20 10:12:41.23	157.10	6.96	
2025-01-20 10:12:41.44	157.10	6.97	
2025-01-20 10:12:41.64	157.10	6.99	
2025-01-20 10:12:41.84	157.10	7.01	
2025-01-20 10:12:42.05	157.10	7.02	
2025-01-20 10:12:42.25	157.10	7.04	
2025-01-20 10:12:42.45	157.10	7.05	
2025-01-20 10:12:42.66	157.10	7.07	
2025-01-20 10:12:42.86	157.10	7.08	
2025-01-20 10:12:43.06	157.09	7.10	
2025-01-20 10:12:43.26	157.09	7.12	
2025-01-20 10:12:43.47	157.09	7.13	
2025-01-20 10:12:43.67	157.09	7.15	
2025-01-20 10:12:43.87	157.09	7.16	
2025-01-20 10:12:44.08	157.09	7.18	
2025-01-20 10:12:44.28	157.09	7.20	
2025-01-20 10:12:44.48	157.09	7.21	
2025-01-20 10:12:44.69	157.09	7.23	
2025-01-20 10:12:44.89	157.09	7.24	
2025-01-20 10:12:45.09	157.09	7.26	
2025-01-20 10:12:45.30	157.09	7.28	
2025-01-20 10:12:45.50	157.09	7.29	
2025-01-20 10:12:45.70	157.09	7.31	
2025-01-20 10:12:45.90	157.09	7.32	
2025-01-20 10:12:46.11	157.09	7.34	
2025-01-20 10:12:46.31	157.09	7.35	
2025-01-20 10:12:46.51	157.09	7.37	
2025-01-20 10:12:46.72	157.09	7.39	
2025-01-20 10:12:46.92	157.09	7.40	
2025-01-20 10:12:47.12	157.09	7.42	
2025-01-20 10:12:47.33	157.09	7.43	
2025-01-20 10:12:47.53	157.09	7.45	
2025-01-20 10:12:47.73	157.09	7.47	
2025-01-20 10:12:47.94	157.09	7.48	
2025-01-20 10:12:48.14	157.09	7.50	
2025-01-20 10:12:48.34	157.09	7.51	
2025-01-20 10:12:48.54	157.09	7.53	
2025-01-20 10:12:48.75	157.09	7.55	
2025-01-20 10:12:48.95	157.09	7.56	
2025-01-20 10:12:49.15	157.09	7.58	
2025-01-20 10:12:49.36	157.09	7.60	
2025-01-20 10:12:49.56	157.09	7.61	
2025-01-20 10:12:49.76	157.09	7.63	
2025-01-20 10:12:49.97	157.09	7.64	
2025-01-20 10:12:50.17	157.09	7.66	
2025-01-20 10:12:50.37	157.09	7.68	
2025-01-20 10:12:50.58	157.09	7.69	
2025-01-20 10:12:50.78	157.09	7.71	
2025-01-20 10:12:50.98	157.09	7.72	
2025-01-20 10:12:51.18	157.09	7.74	
2025-01-20 10:12:51.39	157.09	7.76	
2025-01-20 10:12:51.59	157.09	7.77	
2025-01-20 10:12:51.79	157.09	7.79	
2025-01-20 10:12:52.00	157.09	7.81	
2025-01-20 10:12:52.20	157.09	7.82	
2025-01-20 10:12:52.40	157.09	7.84	
2025-01-20 10:12:52.61	157.09	7.85	
2025-01-20 10:12:52.81	157.09	7.87	
2025-01-20 10:12:53.01	157.09	7.89	
2025-01-20 10:12:53.22	157.09	7.90	
2025-01-20 10:12:53.42	157.09	7.92	
2025-01-20 10:12:53.62	157.09	7.94	
2025-01-20 10:12:53.82	157.09	7.95	
2025-01-20 10:12:54.03	157.09	7.97	
2025-01-20 10:12:54.23	157.08	7.98	
2025-01-20 10:12:54.43	157.08	8.00	
2025-01-20 10:12:54.64	157.08	8.02	
2025-01-20 10:12:54.84	157.08	8.03	
2025-01-20 10:12:55.04	157.08	8.05	
2025-01-20 10:12:55.25	157.08	8.07	
2025-01-20 10:12:55.45	157.08	8.08	
2025-01-20 10:12:55.65	157.08	8.10	
2025-01-20 10:12:55.86	157.08	8.12	
2025-01-20 10:12:56.06	157.08	8.13	
2025-01-20 10:12:56.26	157.08	8.15	
2025-01-20 10:12:56.46	157.08	8.17	
2025-01-20 10:12:56.67	157.08	8.18	
2025-01-20 10:12:56.87	157.08	8.20	
2025-01-20 10:12:57.07	157.08	8.21	
2025-01-20 10:12:57.28	157.08	8.23	
2025-01-20 10:12:57.48	157.08	8.25	
2025-01-20 10:12:57.68	157.08	8.26	
2025-01-20 10:12:57.89	157.08	8.28	
2025-01-20 10:12:58.09	157.08	8.30	
2025-01-20 10:12:58.29	157.08	8.31	
2025-01-20 10:12:58.50	157.08	8.33	
2025-01-20 10:12:58.70	157.08	8.35	
2025-01-20 10:12:58.90	157.08	8.36	
2025-01-20 10:12:59.10	157.08	8.38	
2025-01-20 10:12:59.31	157.08	8.40	
2025-01-20 10:12:59.51	157.08	8.41	
2025-01-20 10:12:59.71	157.08	8.43	
2025-01-20 10:12:59.92	157.08	8.45	
2025-01-20 10:13:00.12	157.08	8.46	
2025-01-20 10:13:00.32	157.08	8.48	
2025-01-20 10:13:00.53	157.08	8.50	
2025-01-20 10:13:00.73	157.08	8.51	
2025-01-20 10:13:00.93	157.08	8.53	
2025-01-20 10:13:01.14	157.08	8.55	
2025-01-20 10:13:01.34	157.08	8.56	
2025-01-20 10:13:01.54	157.08	8.58	
2025-01-20 10:13:01.74	157.08	8.60	
2025-01-20 10:13:01.95	157.08	8.61	
2025-01-20 10:13:02.15	157.08	8.63	
2025-01-20 10:13:02.35	157.08	8.65	
2025-01-20 10:13:02.56	157.08	8.67	
2025-01-20 10:13:02.76	157.08	8.68	
2025-01-20 10:13:02.96	157.08	8.70	
2025-01-20 10:13:03.17	157.07	8.72	
2025-01-20 10:13:03.37	157.07	8.73	
2025-01-20 10:13:03.57	157.07	8.75	
2025-01-20 10:13:03.78	157.07	8.77	
2025-01-20 10:13:03.98	157.07	8.78	
2025-01-20 10:13:04.18	157.07	8.80	
2025-01-20 10:13:04.38	157.07	8.82	
2025-01-20 10:13:04.59	157.07	8.83	
2025-01-20 10:13:04.79	157.07	8.85	
2025-01-20 10:13:04.99	157.07	8.87	
2025-01-20 10:13:05.20	157.07	8.89	
2025-01-20 10:13:05.40	157.07	8.90	
2025-01-20 10:13:05.60	157.07	8.92	
2025-01-20 10:13:05.81	157.07	8.94	
2025-01-20 10:13:06.01	157.07	8.95	
2025-01-20 10:13:06.21	157.07	8.97	
2025-01-20 10:13:06.42	157.07	8.99	
2025-01-20 10:13:06.62	157.07	9.00	
2025-01-20 10:13:06.82	157.07	9.02	
2025-01-20 10:13:07.02	157.07	9.04	
2025-01-20 10:13:07.23	157.07	9.06	
2025-01-20 10:13:07.43	157.07	9.07	
2025-01-20 10:13:07.63	157.07	9.09	
2025-01-20 10:13:07.84	157.07	9.11	
2025-01-20 10:13:08.04	157.07	9.12	
2025-01-20 10:13:08.24	157.07	9.14	
2025-01-20 10:13:08.45	157.07	9.16	
2025-01-20 10:13:08.65	157.07	9.17	
2025-01-20 10:13:08.85	157.07	9.19	
2025-01-20 10:13:09.06	157.07	9.21	
2025-01-20 10:13:09.26	157.07	9.23	
2025-01-20 10:13:09.46	157.07	9.24	
2025-01-20 10:13:09.66	157.07	9.26	
2025-01-20 10:13:09.87	157.07	9.28	
2025-01-20 10:13:10.07	157.07	9.30	
2025-01-20 10:13:10.27	157.07	9.31	
2025-01-20 10:13:10.48	157.07	9.33	
2025-01-20 10:13:10.68	157.07	9.35	
2025-01-20 10:13:10.88	157.06	9.36	
2025-01-20 10:13:11.09	157.06	9.38	
2025-01-20 10:13:11.29	157.06	9.40	
2025-01-20 10:13:11.49	157.06	9.42	
2025-01-20 10:13:11.70	157.06	9.43	
2025-01-20 10:13:11.90	157.06	9.45	
2025-01-20 10:13:12.10	157.06	9.47	
2025-01-20 10:13:12.30	157.06	9.49	
2025-01-20 10:13:12.51	157.06	9.50	
2025-01-20 10:13:12.71	157.06	9.52	
2025-01-20 10:13:12.91	157.06	9.54	
2025-01-20 10:13:13.12	157.06	9.56	
2025-01-20 10:13:13.32	157.06	9.57	
2025-01-20 10:13:13.52	157.06	9.59	
2025-01-20 10:13:13.73	157.06	9.61	
2025-01-20 10:13:13.93	157.06	9.63	
2025-01-20 10:13:14.13	157.06	9.64	
2025-01-20 10:13:14.34	157.06	9.66	
2025-01-20 10:13:14.54	157.06	9.68	
2025-01-20 10:13:14.74	157.06	9.70	
2025-01-20 10:13:14.94	157.06	9.71	
2025-01-20 10:13:15.15	157.06	9.73	
2025-01-20 10:13:15.35	157.06	9.75	
2025-01-20 10:13:15.55	157.06	9.77	
2025-01-20 10:13:15.76	157.06	9.78	
2025-01-20 10:13:15.96	157.06	9.80	
2025-01-20 10:13:16.16	157.06	9.82	
2025-01-20 10:13:16.37	157.06	9.84	
2025-01-20 10:13:16.57	157.06	9.85	
2025-01-20 10:13:16.77	157.06	9.87	
2025-01-20 10:13:16.98	157.06	9.89	
2025-01-20 10:13:17.18	157.06	9.91	
2025-01-20 10:13:17.38	157.06	9.92	
2025-01-20 10:13:17.58	157.05	9.94	
2025-01-20 10:13:17.79	157.05	9.96	
2025-01-20 10:13:17.99	157.05	9.98	
2025-01-20 10:13:18.19	157.05	9.99	
2025-01-20 10:13:18.40	157.05	10.01	
2025-01-20 10:13:18.60	157.05	10.03	
2025-01-20 10:13:18.80	157.05	10.05	
2025-01-20 10:13:19.01	157.05	10.07	
2025-01-20 10:13:19.21	157.05	10.08	
2025-01-20 10:13:19.41	157.05	10.10	
2025-01-20 10:13:19.62	157.05	10.12	
2025-01-20 10:13:19.82	157.05	10.14	
2025-01-20 10:13:20.02	157.05	10.16	
2025-01-20 10:13:20.22	157.05	10.17	
2025-01-20 10:13:20.43	157.05	10.19	
2025-01-20 10:13:20.63	157.05	10.21	
2025-01-20 10:13:20.83	157.05	10.23	
2025-01-20 10:13:21.04	157.05	10.24	
2025-01-20 10:13:21.24	157.05	10.26	
2025-01-20 10:13:21.44	157.05	10.28	
2025-01-20 10:13:21.65	157.05	10.30	
2025-01-20 10:13:21.85	157.05	10.32	
2025-01-20 10:13:22.05	157.05	10.33	
2025-01-20 10:13:22.26	157.05	10.35	
2025-01-20 10:13:22.46	157.05	10.37	
2025-01-20 10:13:22.66	157.05	10.39	
2025-01-20 10:13:22.86	157.05	10.41	
2025-01-20 10:13:23.07	157.05	10.42	
2025-01-20 10:13:23.27	157.05	10.44	
2025-01-20 10:13:23.47	157.05	10.46	
2025-01-20 10:13:23.68	157.04	10.48	
2025-01-20 10:13:23.88	157.04	10.50	
2025-01-20 10:13:24.08	157.04	10.51	
2025-01-20 10:13:24.29	157.04	10.53	
2025-01-20 10:13:24.49	157.04	10.55	
2025-01-20 10:13:24.69	157.04	10.57	
2025-01-20 10:13:24.90	157.04	10.59	
2025-01-20 10:13:25.10	157.04	10.61	
2025-01-20 10:13:25.30	157.04	10.62	
2025-01-20 10:13:25.50	157.04	10.64	
2025-01-20 10:13:25.71	157.04	10.66	
2025-01-20 10:13:25.91	157.04	10.68	
2025-01-20 10:13:26.11	157.04	10.70	
2025-01-20 10:13:26.32	157.04	10.72	
2025-01-20 10:13:26.52	157.04	10.73	
2025-01-20 10:13:26.72	157.04	10.75	
2025-01-20 10:13:26.93	157.04	10.77	
2025-01-20 10:13:27.13	157.04	10.79	
2025-01-20 10:13:27.33	157.04	10.81	
2025-01-20 10:13:27.54	157.04	10.83	
2025-01-20 10:13:27.74	157.04	10.84	
2025-01-20 10:13:27.94	157.04	10.86	
2025-01-20 10:13:28.14	157.04	10.88	
2025-01-20 10:13:28.35	157.04	10.90	
2025-01-20 10:13:28.55	157.04	10.92	
2025-01-20 10:13:28.75	157.04	10.93	
2025-01-20 10:13:28.96	157.04	10.95	
2025-01-20 10:13:29.16	157.03	10.97	
2025-01-20 10:13:29.36	157.03	10.99	
2025-01-20 10:13:29.57	157.03	11.01	
2025-01-20 10:13:29.77	157.03	11.03	
2025-01-20 10:13:29.97	157.03	11.05	
2025-01-20 10:13:30.18	157.03	11.07	
2025-01-20 10:13:30.38	157.03	11.08	
2025-01-20 10:13:30.58	157.03	11.10	
2025-01-20 10:13:30.78	157.03	11.12	
2025-01-20 10:13:30.99	157.03	11.14	
2025-01-20 10:13:31.19	157.03	11.16	
2025-01-20 10:13:31.39	157.03	11.18	
2025-01-20 10:13:31.60	157.03	11.20	
2025-01-20 10:13:31.80	157.03	11.21	
2025-01-20 10:13:32.00	157.03	11.23	
2025-01-20 10:13:32.21	157.03	11.25	
2025-01-20 10:13:32.41	157.03	11.27	
2025-01-20 10:13:32.61	157.03	11.29	
2025-01-20 10:13:32.81	157.03	11.31	
2025-01-20 10:13:33.02	157.03	11.33	
2025-01-20 10:13:33.22	157.03	11.34	
2025-01-20 10:13:33.42	157.03	11.36	
2025-01-20 10:13:33.63	157.03	11.38	
2025-01-20 10:13:33.83	157.03	11.40	
2025-01-20 10:13:34.03	157.03	11.42	
2025-01-20 10:13:34.24	157.02	11.44	
2025-01-20 10:13:34.44	157.02	11.46	
2025-01-20 10:13:34.64	157.02	11.48	
2025-01-20 10:13:34.85	157.02	11.49	
2025-01-20 10:13:35.05	157.02	11.51	
2025-01-20 10:13:35.25	157.02	11.53	
2025-01-20 10:13:35.45	157.02	11.55	
2025-01-20 10:13:35.66	157.02	11.57	
2025-01-20 10:13:35.86	157.02	11.59	
2025-01-20 10:13:36.06	157.02	11.61	
2025-01-20 10:13:36.27	157.02	11.63	
2025-01-20 10:13:36.47	157.02	11.65	
2025-01-20 10:13:36.67	157.02	11.66	
2025-01-20 10:13:36.88	157.02	11.68	
2025-01-20 10:13:37.08	157.02	11.70	
2025-01-20 10:13:37.28	157.02	11.72	
2025-01-20 10:13:37.49	157.02	11.74	
2025-01-20 10:13:37.69	157.02	11.76	
2025-01-20 10:13:37.89	157.02	11.78	
2025-01-20 10:13:38.09	157.02	11.80	
2025-01-20 10:13:38.30	157.02	11.82	
2025-01-20 10:13:38.50	157.02	11.84	
2025-01-20 10:13:38.70	157.02	11.86	
2025-01-20 10:13:38.91	157.01	11.87	
2025-01-20 10:13:39.11	157.01	11.89	
2025-01-20 10:13:39.31	157.01	11.91	
2025-01-20 10:13:39.52	157.01	11.93	
2025-01-20 10:13:39.72	157.01	11.95	
2025-01-20 10:13:39.92	157.01	11.97	
2025-01-20 10:13:40.13	157.01	11.99	
2025-01-20 10:13:40.33	157.01	12.01	
2025-01-20 10:13:40.53	157.01	12.03	
2025-01-20 10:13:40.73	157.01	12.05	
2025-01-20 10:13:40.94	157.01	12.07	
2025-01-20 10:13:41.14	157.01	12.09	
2025-01-20 10:13:41.34	157.01	12.11	
2025-01-20 10:13:41.55	157.01	12.13	
2025-01-20 10:13:41.75	157.01	12.14	
2025-01-20 10:13:41.95	157.01	12.16	
2025-01-20 10:13:42.16	157.01	12.18	
2025-01-20 10:13:42.36	157.01	12.20	
2025-01-20 10:13:42.56	157.01	12.22	
2025-01-20 10:13:42.77	157.01	12.24	
2025-01-20 10:13:42.97	157.01	12.26	
2025-01-20 10:13:43.17	157.00	12.28	
2025-01-20 10:13:43.37	157.00	12.30	
2025-01-20 10:13:43.58	157.00	12.32	
2025-01-20 10:13:43.78	157.00	12.34	
2025-01-20 10:13:43.98	157.00	12.36	
2025-01-20 10:13:44.19	157.00	12.38	
2025-01-20 10:13:44.39	157.00	12.40	
2025-01-20 10:13:44.59	157.00	12.42	
2025-01-20 10:13:44.80	157.00	12.44	
2025-01-20 10:13:45.00	157.00	12.46	
2025-01-20 10:13:45.20	157.00	12.48	
2025-01-20 10:13:45.41	157.00	12.50	
2025-01-20 10:13:45.61	157.00	12.52	
2025-01-20 10:13:45.81	157.00	12.53	
2025-01-20 10:13:46.01	157.00	12.55	
2025-01-20 10:13:46.22	157.00	12.57	
2025-01-20 10:13:46.42	157.00	12.59	
2025-01-20 10:13:46.62	157.00	12.61	
2025-01-20 10:13:46.83	157.00	12.63	
2025-01-20 10:13:47.03	157.00	12.65	
2025-01-20 10:13:47.23	157.00	12.67	
2025-01-20 10:13:47.44	156.99	12.69	
2025-01-20 10:13:47.64	156.99	12.71	
2025-01-20 10:13:47.84	156.99	12.73	
2025-01-20 10:13:48.05	156.99	12.75	
2025-01-20 10:13:48.25	156.99	12.77	
2025-01-20 10:13:48.45	156.99	12.79	
2025-01-20 10:13:48.65	156.99	12.81	
2025-01-20 10:13:48.86	156.99	12.83	
2025-01-20 10:13:49.06	156.99	12.85	
2025-01-20 10:13:49.26	156.99	12.87	
2025-01-20 10:13:49.47	156.99	12.89	
2025-01-20 10:13:49.67	156.99	12.91	
2025-01-20 10:13:49.87	156.99	12.93	
2025-01-20 10:13:50.08	156.99	12.95	
2025-01-20 10:13:50.28	156.99	12.97	
2025-01-20 10:13:50.48	156.99	12.99	
2025-01-20 10:13:50.69	156.99	13.01	
2025-01-20 10:13:50.89	156.99	13.03	
2025-01-20 10:13:51.09	156.99	13.05	
2025-01-20 10:13:51.29	156.98	13.07	
2025-01-20 10:13:51.50	156.98	13.09	
2025-01-20 10:13:51.70	156.98	13.11	
2025-01-20 10:13:51.90	156.98	13.13	
2025-01-20 10:13:52.11	156.98	13.15	
2025-01-20 10:13:52.31	156.98	13.17	
2025-01-20 10:13:52.51	156.98	13.19	
2025-01-20 10:13:52.72	156.98	13.21	
2025-01-20 10:13:52.92	156.98	13.23	
2025-01-20 10:13:53.12	156.98	13.25	
2025-01-20 10:13:53.33	156.98	13.27	
2025-01-20 10:13:53.53	156.98	13.29	
2025-01-20 10:13:53.73	156.98	13.31	
2025-01-20 10:13:53.93	156.98	13.33	
2025-01-20 10:13:54.14	156.98	13.36	
2025-01-20 10:13:54.34	156.98	13.38	
2025-01-20 10:13:54.54	156.98	13.40	
2025-01-20 10:13:54.75	156.98	13.42	
2025-01-20 10:13:54.95	156.97	13.44	
2025-01-20 10:13:55.15	156.97	13.46	
2025-01-20 10:13:55.36	156.97	13.48	
2025-01-20 10:13:55.56	156.97	13.50	
2025-01-20 10:13:55.76	156.97	13.52	
2025-01-20 10:13:55.97	156.97	13.54	
2025-01-20 10:13:56.17	156.97	13.56	
2025-01-20 10:13:56.37	156.97	13.58	
2025-01-20 10:13:56.57	156.97	13.60	
2025-01-20 10:13:56.78	156.97	13.62	
2025-01-20 10:13:56.98	156.97	13.64	
2025-01-20 10:13:57.18	156.97	13.66	
2025-01-20 10:13:57.39	156.97	13.68	
2025-01-20 10:13:57.59	156.97	13.70	
2025-01-20 10:13:57.79	156.97	13.72	
2025-01-20 10:13:58.00	156.97	13.75	
2025-01-20 10:13:58.20	156.97	13.77	
2025-01-20 10:13:58.40	156.96	13.79	
2025-01-20 10:13:58.61	156.96	13.81	
2025-01-20 10:13:58.81	156.96	13.83	
2025-01-20 10:13:59.01	156.96	13.85	
2025-01-20 10:13:59.21	156.96	13.87	
2025-01-20 10:13:59.42	156.96	13.89	
2025-01-20 10:13:59.62	156.96	13.91	
2025-01-20 10:13:59.82	156.96	13.93	
2025-01-20 10:14:00.03	156.96	13.95	
2025-01-20 10:14:00.23	156.96	13.97	
2025-01-20 10:14:00.43	156.96	13.99	
2025-01-20 10:14:00.64	156.96	14.02	
2025-01-20 10:14:00.84	156.96	14.04	
2025-01-20 10:14:01.04	156.96	14.06	
2025-01-20 10:14:01.25	156.96	14.08	
2025-01-20 10:14:01.45	156.96	14.10	
2025-01-20 10:14:01.65	156.96	14.12	
2025-01-20 10:14:01.85	156.95	14.14	
2025-01-20 10:14:02.06	156.95	14.16	
2025-01-20 10:14:02.26	156.95	14.18	
2025-01-20 10:14:02.46	156.95	14.20	
2025-01-20 10:14:02.67	156.95	14.23	
2025-01-20 10:14:02.87	156.95	14.25	
2025-01-20 10:14:03.07	156.95	14.27	
2025-01-20 10:14:03.28	156.95	14.29	
2025-01-20 10:14:03.48	156.95	14.31	
2025-01-20 10:14:03.68	156.95	14.33	
2025-01-20 10:14:03.89	156.95	14.35	
2025-01-20 10:14:04.09	156.95	14.37	
2025-01-20 10:14:04.29	156.95	14.39	
2025-01-20 10:14:04.49	156.95	14.42	
2025-01-20 10:14:04.70	156.95	14.44	
2025-01-20 10:14:04.90	156.94	14.46	
2025-01-20 10:14:05.10	156.94	14.48	
2025-01-20 10:14:05.31	156.94	14.50	
2025-01-20 10:14:05.51	156.94	14.52	
2025-01-20 10:14:05.71	156.94	14.54	
2025-01-20 10:14:05.92	156.94	14.57	
2025-01-20 10:14:06.12	156.94	14.59	
2025-01-20 10:14:06.32	156.94	14.61	
2025-01-20 10:14:06.53	156.94	14.63	
2025-01-20 10:14:06.73	156.94	14.65	
2025-01-20 10:14:06.93	156.94	14.67	
2025-01-20 10:14:07.13	156.94	14.69	
2025-01-20 10:14:07.34	156.94	14.72	
2025-01-20 10:14:07.54	156.94	14.74	
2025-01-20 10:14:07.74	156.94	14.76	
2025-01-20 10:14:07.95	156.93	14.78	
2025-01-20 10:14:08.15	156.93	14.80	
2025-01-20 10:14:08.35	156.93	14.82	
2025-01-20 10:14:08.56	156.93	14.85	
2025-01-20 10:14:08.76	156.93	14.87	
2025-01-20 10:14:08.96	156.93	14.89	
2025-01-20 10:14:09.17	156.93	14.91	
2025-01-20 10:14:09.37	156.93	14.93	
2025-01-20 10:14:09.57	156.93	14.95	
2025-01-20 10:14:09.77	156.93	14.98	
2025-01-20 10:14:09.98	156.93	15.00	
2025-01-20 10:14:10.18	156.93	15.02	
2025-01-20 10:14:10.38	156.93	15.04	
2025-01-20 10:14:10.59	156.93	15.06	
2025-01-20 10:14:10.79	156.93	15.08	
2025-01-20 10:14:10.99	156.92	15.11	
2025-01-20 10:14:11.20	156.92	15.13	
2025-01-20 10:14:11.40	156.92	15.15	
2025-01-20 10:14:11.60	156.92	15.17	
2025-01-20 10:14:11.81	156.92	15.19	
2025-01-20 10:14:12.01	156.92	15.22	
2025-01-20 10:14:12.21	156.92	15.24	
2025-01-20 10:14:12.41	156.92	15.26	
2025-01-20 10:14:12.62	156.92	15.28	
2025-01-20 10:14:12.82	156.92	15.30	
2025-01-20 10:14:13.02	156.92	15.33	
2025-01-20 10:14:13.23	156.92	15.35	
2025-01-20 10:14:13.43	156.92	15.37	
2025-01-20 10:14:13.63	156.92	15.39	
2025-01-20 10:14:13.84	156.91	15.42	
2025-01-20 10:14:14.04	156.91	15.44	
2025-01-20 10:14:14.24	156.91	15.46	
2025-01-20 10:14:14.45	156.91	15.48	
2025-01-20 10:14:14.65	156.91	15.50	
2025-01-20 10:14:14.85	156.91	15.53	
2025-01-20 10:14:15.05	156.91	15.55	
2025-01-20 10:14:15.26	156.91	15.57	
2025-01-20 10:14:15.46	156.91	15.59	
2025-01-20 10:14:15.66	156.91	15.61	
2025-01-20 10:14:15.87	156.91	15.64	
2025-01-20 10:14:16.07	156.91	15.66	
2025-01-20 10:14:16.27	156.91	15.68	
2025-01-20 10:14:16.48	156.90	15.71	
2025-01-20 10:14:16.68	156.90	15.73	
2025-01-20 10:14:16.88	156.90	15.75	
2025-01-20 10:14:17.09	156.90	15.77	
2025-01-20 10:14:17.29	156.90	15.79	
2025-01-20 10:14:17.49	156.90	15.82	
2025-01-20 10:14:17.69	156.90	15.84	
2025-01-20 10:14:17.90	156.90	15.86	
2025-01-20 10:14:18.10	156.90	15.88	
2025-01-20 10:14:18.30	156.90	15.91	
2025-01-20 10:14:18.51	156.90	15.93	
2025-01-20 10:14:18.71	156.90	15.95	
2025-01-20 10:14:18.91	156.90	15.97	
2025-01-20 10:14:19.12	156.89	16.00	
2025-01-20 10:14:19.32	156.89	16.02	
2025-01-20 10:14:19.52	156.89	16.04	
2025-01-20 10:14:19.73	156.89	16.07	
2025-01-20 10:14:19.93	156.89	16.09	
2025-01-20 10:14:20.13	156.89	16.11	
2025-01-20 10:14:20.33	156.89	16.13	
2025-01-20 10:14:20.54	156.89	16.16	
2025-01-20 10:14:20.74	156.89	16.18	
2025-01-20 10:14:20.94	156.89	16.20	
2025-01-20 10:14:21.15	156.89	16.23	
2025-01-20 10:14:21.35	156.89	16.25	
2025-01-20 10:14:21.55	156.89	16.27	
2025-01-20 10:14:21.76	156.88	16.30	
2025-01-20 10:14:21.96	156.88	16.32	
2025-01-20 10:14:22.16	156.88	16.34	
2025-01-20 10:14:22.37	156.88	16.36	
2025-01-20 10:14:22.57	156.88	16.39	
2025-01-20 10:14:22.77	156.88	16.41	
2025-01-20 10:14:22.97	156.88	16.43	
2025-01-20 10:14:23.18	156.88	16.46	
2025-01-20 10:14:23.38	156.88	16.48	
2025-01-20 10:14:23.58	156.88	16.50	
2025-01-20 10:14:23.79	156.88	16.53	
2025-01-20 10:14:23.99	156.88	16.55	
2025-01-20 10:14:24.19	156.87	16.57	
2025-01-20 10:14:24.40	156.87	16.60	
2025-01-20 10:14:24.60	156.87	16.62	
2025-01-20 10:14:24.80	156.87	16.64	
2025-01-20 10:14:25.01	156.87	16.67	
2025-01-20 10:14:25.21	156.87	16.69	
2025-01-20 10:14:25.41	156.87	16.71	
2025-01-20 10:14:25.61	156.87	16.73	
2025-01-20 10:14:25.82	156.87	16.76	
2025-01-20 10:14:26.02	156.87	16.78	
2025-01-20 10:14:26.22	156.87	16.81	
2025-01-20 10:14:26.43	156.87	16.83	
2025-01-20 10:14:26.63	156.86	16.85	
2025-01-20 10:14:26.83	156.86	16.88	
2025-01-20 10:14:27.04	156.86	16.90	
2025-01-20 10:14:27.24	156.86	16.92	
2025-01-20 10:14:27.44	156.86	16.95	
2025-01-20 10:14:27.65	156.86	16.97	
2025-01-20 10:14:27.85	156.86	16.99	
2025-01-20 10:14:28.05	156.86	17.02	
2025-01-20 10:14:28.25	156.86	17.04	
2025-01-20 10:14:28.46	156.86	17.07	
2025-01-20 10:14:28.66	156.86	17.09	
2025-01-20 10:14:28.86	156.85	17.11	
2025-01-20 10:14:29.07	156.85	17.14	
2025-01-20 10:14:29.27	156.85	17.16	
2025-01-20 10:14:29.47	156.85	17.18	
2025-01-20 10:14:29.68	156.85	17.21	
2025-01-20 10:14:29.88	156.85	17.23	
2025-01-20 10:14:30.08	156.85	17.26	
2025-01-20 10:14:30.29	156.85	17.28	
2025-01-20 10:14:30.49	156.85	17.30	
2025-01-20 10:14:30.69	156.85	17.33	
2025-01-20 10:14:30.89	156.85	17.35	
2025-01-20 10:14:31.10	156.84	17.38	
2025-01-20 10:14:31.30	156.84	17.40	
2025-01-20 10:14:31.50	156.84	17.42	
2025-01-20 10:14:31.71	156.84	17.45	
2025-01-20 10:14:31.91	156.84	17.47	
2025-01-20 10:14:32.11	156.84	17.50	
2025-01-20 10:14:32.32	156.84	17.52	
2025-01-20 10:14:32.52	156.84	17.54	
2025-01-20 10:14:32.72	156.84	17.57	
2025-01-20 10:14:32.93	156.84	17.59	
2025-01-20 10:14:33.13	156.84	17.62	
2025-01-20 10:14:33.33	156.83	17.64	
2025-01-20 10:14:33.53	156.83	17.66	
2025-01-20 10:14:33.74	156.83	17.69	
2025-01-20 10:14:33.94	156.83	17.71	
2025-01-20 10:14:34.14	156.83	17.74	
2025-01-20 10:14:34.35	156.83	17.76	
2025-01-20 10:14:34.55	156.83	17.79	
2025-01-20 10:14:34.75	156.83	17.81	
2025-01-20 10:14:34.96	156.83	17.84	
2025-01-20 10:14:35.16	156.83	17.86	
2025-01-20 10:14:35.36	156.82	17.88	
2025-01-20 10:14:35.57	156.82	17.91	
2025-01-20 10:14:35.77	156.82	17.93	
2025-01-20 10:14:35.97	156.82	17.96	
2025-01-20 10:14:36.17	156.82	17.98	
2025-01-20 10:14:36.38	156.82	18.01	
2025-01-20 10:14:36.58	156.82	18.03	
2025-01-20 10:14:36.78	156.82	18.06	
2025-01-20 10:14:36.99	156.82	18.08	
2025-01-20 10:14:37.19	156.82	18.11	
2025-01-20 10:14:37.39	156.81	18.13	
2025-01-20 10:14:37.60	156.81	18.16	
2025-01-20 10:14:37.80	156.81	18.18	
2025-01-20 10:14:38.00	156.81	18.21	
2025-01-20 10:14:38.21	156.81	18.23	
2025-01-20 10:14:38.41	156.81	18.26	
2025-01-20 10:14:38.61	156.81	18.28	
2025-01-20 10:14:38.81	156.81	18.30	
2025-01-20 10:14:39.02	156.81	18.33	
2025-01-20 10:14:39.22	156.81	18.35	
2025-01-20 10:14:39.42	156.80	18.38	
2025-01-20 10:14:39.63	156.80	18.41	
2025-01-20 10:14:39.83	156.80	18.43	
2025-01-20 10:14:40.03	156.80	18.45	
2025-01-20 10:14:40.24	156.80	18.48	
2025-01-20 10:14:40.44	156.80	18.51	
2025-01-20 10:14:40.64	156.80	18.53	
2025-01-20 10:14:40.85	156.80	18.56	
2025-01-20 10:14:41.05	156.80	18.58	
2025-01-20 10:14:41.25	156.80	18.61	
2025-01-20 10:14:41.45	156.79	18.63	
2025-01-20 10:14:41.66	156.79	18.66	
2025-01-20 10:14:41.86	156.79	18.68	
2025-01-20 10:14:42.06	156.79	18.71	
2025-01-20 10:14:42.27	156.79	18.73	
2025-01-20 10:14:42.47	156.79	18.76	
2025-01-20 10:14:42.67	156.79	18.78	
2025-01-20 10:14:42.88	156.79	18.81	
2025-01-20 10:14:43.08	156.79	18.83	
2025-01-20 10:14:43.28	156.78	18.86	
2025-01-20 10:14:43.49	156.78	18.89	
2025-01-20 10:14:43.69	156.78	18.91	
2025-01-20 10:14:43.89	156.78	18.94	
2025-01-20 10:14:44.09	156.78	18.96	
2025-01-20 10:14:44.30	156.78	18.99	
2025-01-20 10:14:44.50	156.78	19.01	
2025-01-20 10:14:44.70	156.78	19.04	
2025-01-20 10:14:44.91	156.78	19.07	
2025-01-20 10:14:45.11	156.77	19.09	
2025-01-20 10:14:45.31	156.77	19.12	
2025-01-20 10:14:45.52	156.77	19.14	
2025-01-20 10:14:45.72	156.77	19.17	
2025-01-20 10:14:45.92	156.77	19.19	
2025-01-20 10:14:46.13	156.77	19.22	
2025-01-20 10:14:46.33	156.77	19.25	
2025-01-20 10:14:46.53	156.77	19.27	
2025-01-20 10:14:46.73	156.77	19.30	
2025-01-20 10:14:46.94	156.76	19.32	
2025-01-20 10:14:47.14	156.76	19.35	
2025-01-20 10:14:47.34	156.76	19.37	
2025-01-20 10:14:47.55	156.76	19.40	
2025-01-20 10:14:47.75	156.76	19.43	
2025-01-20 10:14:47.95	156.76	19.45	
2025-01-20 10:14:48.16	156.76	19.48	
2025-01-20 10:14:48.36	156.76	19.51	
2025-01-20 10:14:48.56	156.76	19.53	
2025-01-20 10:14:48.77	156.75	19.56	
2025-01-20 10:14:48.97	156.75	19.58	
2025-01-20 10:14:49.17	156.75	19.61	
2025-01-20 10:14:49.37	156.75	19.64	
2025-01-20 10:14:49.58	156.75	19.66	
2025-01-20 10:14:49.78	156.75	19.69	
2025-01-20 10:14:49.98	156.75	19.72	
2025-01-20 10:14:50.19	156.75	19.74	
2025-01-20 10:14:50.39	156.75	19.77	
2025-01-20 10:14:50.59	156.74	19.80	
2025-01-20 10:14:50.80	156.74	19.82	
2025-01-20 10:14:51.00	156.74	19.85	
2025-01-20 10:14:51.20	156.74	19.87	
2025-01-20 10:14:51.41	156.74	19.90	
2025-01-20 10:14:51.61	156.74	19.93	
2025-01-20 10:14:51.81	156.74	19.95	
2025-01-20 10:14:52.01	156.74	19.98	
2025-01-20 10:14:52.22	156.73	20.01	
2025-01-20 10:14:52.42	156.73	20.03	
2025-01-20 10:14:52.62	156.73	20.06	
2025-01-20 10:14:52.83	156.73	20.09	
2025-01-20 10:14:53.03	156.73	20.12	
2025-01-20 10:14:53.23	156.73	20.14	
2025-01-20 10:14:53.44	156.73	20.17	
2025-01-20 10:14:53.64	156.73	20.20	
2025-01-20 10:14:53.84	156.72	20.22	
2025-01-20 10:14:54.05	156.72	20.25	
2025-01-20 10:14:54.25	156.72	20.28	
2025-01-20 10:14:54.45	156.72	20.30	
2025-01-20 10:14:54.65	156.72	20.33	
2025-01-20 10:14:54.86	156.72	20.36	
2025-01-20 10:14:55.06	156.72	20.39	
2025-01-20 10:14:55.26	156.72	20.41	
2025-01-20 10:14:55.47	156.71	20.44	
2025-01-20 10:14:55.67	156.71	20.47	
2025-01-20 10:14:55.87	156.71	20.49	
2025-01-20 10:14:56.08	156.71	20.52	
2025-01-20 10:14:56.28	156.71	20.55	
2025-01-20 10:14:56.48	156.71	20.58	
2025-01-20 10:14:56.69	156.71	20.60	
2025-01-20 10:14:56.89	156.71	20.63	
2025-01-20 10:14:57.09	156.70	20.66	
2025-01-20 10:14:57.29	156.70	20.68	
2025-01-20 10:14:57.50	156.70	20.71	
2025-01-20 10:14:57.70	156.70	20.74	
2025-01-20 10:14:57.90	156.70	20.77	
2025-01-20 10:14:58.11	156.70	20.80	
2025-01-20 10:14:58.31	156.70	20.82	
2025-01-20 10:14:58.51	156.70	20.85	
2025-01-20 10:14:58.72	156.69	20.88	
2025-01-20 10:14:58.92	156.69	20.91	
2025-01-20 10:14:59.12	156.69	20.93	
2025-01-20 10:14:59.33	156.69	20.96	
2025-01-20 10:14:59.53	156.69	20.99	
2025-01-20 10:14:59.73	156.69	21.02	
2025-01-20 10:14:59.93	156.69	21.04	
2025-01-20 10:15:00.14	156.68	21.07	
2025-01-20 10:15:00.34	156.68	21.10	
2025-01-20 10:15:00.54	156.68	21.13	
2025-01-20 10:15:00.75	156.68	21.16	
2025-01-20 10:15:00.95	156.68	21.18	
2025-01-20 10:15:01.15	156.68	21.21	
2025-01-20 10:15:01.36	156.68	21.24	
2025-01-20 10:15:01.56	156.68	21.27	
2025-01-20 10:15:01.76	156.67	21.30	
2025-01-20 10:15:01.97	156.67	21.33	
2025-01-20 10:15:02.17	156.67	21.35	
2025-01-20 10:15:02.37	156.67	21.38	
2025-01-20 10:15:02.57	156.67	21.41	
2025-01-20 10:15:02.78	156.67	21.44	
2025-01-20 10:15:02.98	156.67	21.47	
2025-01-20 10:15:03.18	156.66	21.49	
2025-01-20 10:15:03.39	156.66	21.52	
2025-01-20 10:15:03.59	156.66	21.55	
2025-01-20 10:15:03.79	156.66	21.58	
2025-01-20 10:15:04.00	156.66	21.61	
2025-01-20 10:15:04.20	156.66	21.64	
2025-01-20 10:15:04.40	156.66	21.66	
2025-01-20 10:15:04.61	156.65	21.69	
2025-01-20 10:15:04.81	156.65	21.72	
2025-01-20 10:15:05.01	156.65	21.75	
2025-01-20 10:15:05.21	156.65	21.78	
2025-01-20 10:15:05.42	156.65	21.81	
2025-01-20 10:15:05.62	156.65	21.84	
2025-01-20 10:15:05.82	156.65	21.86	
2025-01-20 10:15:06.03	156.64	21.89	
2025-01-20 10:15:06.23	156.64	21.92	
2025-01-20 10:15:06.43	156.64	21.95	
2025-01-20 10:15:06.64	156.64	21.98	
2025-01-20 10:15:06.84	156.64	22.01	
2025-01-20 10:15:07.04	156.64	22.04	
2025-01-20 10:15:07.25	156.64	22.07	
2025-01-20 10:15:07.45	156.63	22.10	
2025-01-20 10:15:07.65	156.63	22.13	
2025-01-20 10:15:07.85	156.63	22.15	
2025-01-20 10:15:08.06	156.63	22.18	
2025-01-20 10:15:08.26	156.63	22.21	
2025-01-20 10:15:08.46	156.63	22.24	
2025-01-20 10:15:08.67	156.62	22.27	
2025-01-20 10:15:08.87	156.62	22.30	
2025-01-20 10:15:09.07	156.62	22.33	
2025-01-20 10:15:09.28	156.62	22.36	
2025-01-20 10:15:09.48	156.62	22.39	
2025-01-20 10:15:09.68	156.62	22.42	
2025-01-20 10:15:09.89	156.62	22.45	
2025-01-20 10:15:10.09	156.61	22.48	
2025-01-20 10:15:10.29	156.61	22.51	
2025-01-20 10:15:10.49	156.61	22.53	
2025-01-20 10:15:10.70	156.61	22.57	
2025-01-20 10:15:10.90	156.61	22.59	
2025-01-20 10:15:11.10	156.61	22.62	
2025-01-20 10:15:11.31	156.61	22.65	
2025-01-20 10:15:11.51	156.60	22.68	
2025-01-20 10:15:11.71	156.60	22.71	
2025-01-20 10:15:11.92	156.60	22.74	
2025-01-20 10:15:12.12	156.60	22.77	
2025-01-20 10:15:12.32	156.60	22.80	
2025-01-20 10:15:12.53	156.60	22.83	
2025-01-20 10:15:12.73	156.59	22.86	
2025-01-20 10:15:12.93	156.59	22.89	
2025-01-20 10:15:13.13	156.59	22.92	
2025-01-20 10:15:13.34	156.59	22.95	
2025-01-20 10:15:13.54	156.59	22.98	
2025-01-20 10:15:13.74	156.59	23.01	
2025-01-20 10:15:13.95	156.58	23.04	
2025-01-20 10:15:14.15	156.58	23.07	
2025-01-20 10:15:14.35	156.58	23.10	
2025-01-20 10:15:14.56	156.58	23.13	
2025-01-20 10:15:14.76	156.58	23.16	
2025-01-20 10:15:14.96	156.58	23.19	
2025-01-20 10:15:15.17	156.57	23.22	
2025-01-20 10:15:15.37	156.57	23.25	
2025-01-20 10:15:15.57	156.57	23.28	
2025-01-20 10:15:15.77	156.57	23.31	
2025-01-20 10:15:15.98	156.57	23.35	
2025-01-20 10:15:16.18	156.57	23.38	
2025-01-20 10:15:16.38	156.56	23.41	
2025-01-20 10:15:16.59	156.56	23.44	
2025-01-20 10:15:16.79	156.56	23.47	
2025-01-20 10:15:16.99	156.56	23.50	
2025-01-20 10:15:17.20	156.56	23.53	
2025-01-20 10:15:17.40	156.56	23.56	
2025-01-20 10:15:17.60	156.55	23.59	
2025-01-20 10:15:17.81	156.55	23.62	
2025-01-20 10:15:18.01	156.55	23.65	
2025-01-20 10:15:18.21	156.55	23.68	
2025-01-20 10:15:18.41	156.55	23.71	
2025-01-20 10:15:18.62	156.55	23.74	
2025-01-20 10:15:18.82	156.54	23.78	
2025-01-20 10:15:19.02	156.54	23.81	
2025-01-20 10:15:19.23	156.54	23.84	
2025-01-20 10:15:19.43	156.54	23.87	
2025-01-20 10:15:19.63	156.54	23.90	
2025-01-20 10:15:19.84	156.54	23.93	
2025-01-20 10:15:20.04	156.53	23.96	
2025-01-20 10:15:20.24	156.53	23.99	
2025-01-20 10:15:20.45	156.53	24.03	
2025-01-20 10:15:20.65	156.53	24.06	
2025-01-20 10:15:20.85	156.53	24.09	
2025-01-20 10:15:21.05	156.53	24.12	
2025-01-20 10:15:21.26	156.52	24.15	
2025-01-20 10:15:21.46	156.52	24.18	
2025-01-20 10:15:21.66	156.52	24.21	
2025-01-20 10:15:21.87	156.52	24.24	
2025-01-20 10:15:22.07	156.52	24.28	
2025-01-20 10:15:22.27	156.51	24.31	
2025-01-20 10:15:22.48	156.51	24.34	
2025-01-20 10:15:22.68	156.51	24.37	
2025-01-20 10:15:22.88	156.51	24.40	
2025-01-20 10:15:23.09	156.51	24.43	
2025-01-20 10:15:23.29	156.51	24.47	
2025-01-20 10:15:23.49	156.50	24.50	
2025-01-20 10:15:23.69	156.50	24.53	
2025-01-20 10:15:23.90	156.50	24.56	
2025-01-20 10:15:24.10	156.50	24.59	
2025-01-20 10:15:24.30	156.50	24.62	
2025-01-20 10:15:24.51	156.49	24.66	
2025-01-20 10:15:24.71	156.49	24.69	
2025-01-20 10:15:24.91	156.49	24.72	
2025-01-20 10:15:25.12	156.49	24.75	
2025-01-20 10:15:25.32	156.49	24.79	
2025-01-20 10:15:25.52	156.49	24.82	
2025-01-20 10:15:25.73	156.48	24.85	
2025-01-20 10:15:25.93	156.48	24.88	
2025-01-20 10:15:26.13	156.48	24.91	
2025-01-20 10:15:26.33	156.48	24.95	
2025-01-20 10:15:26.54	156.48	24.98	
2025-01-20 10:15:26.74	156.47	25.01	
2025-01-20 10:15:26.94	156.47	25.04	
2025-01-20 10:15:27.15	156.47	25.08	
2025-01-20 10:15:27.35	156.47	25.11	
2025-01-20 10:15:27.55	156.47	25.14	
2025-01-20 10:15:27.76	156.46	25.18	
2025-01-20 10:15:27.96	156.46	25.21	
2025-01-20 10:15:28.16	156.46	25.24	
2025-01-20 10:15:28.37	156.46	25.27	
2025-01-20 10:15:28.57	156.46	25.31	
2025-01-20 10:15:28.77	156.45	25.34	
2025-01-20 10:15:28.97	156.45	25.37	
2025-01-20 10:15:29.18	156.45	25.41	
2025-01-20 10:15:29.38	156.45	25.44	
2025-01-20 10:15:29.58	156.45	25.47	
2025-01-20 10:15:29.79	156.44	25.50	
2025-01-20 10:15:29.99	156.44	25.54	
2025-01-20 10:15:30.19	156.44	25.57	
2025-01-20 10:15:30.40	156.44	25.60	
2025-01-20 10:15:30.60	156.44	25.64	
2025-01-20 10:15:30.80	156.43	25.67	
2025-01-20 10:15:31.01	156.43	25.70	
2025-01-20 10:15:31.21	156.43	25.74	
2025-01-20 10:15:31.41	156.43	25.77	
2025-01-20 10:15:31.61	156.43	25.80	
2025-01-20 10:15:31.82	156.42	25.84	
2025-01-20 10:15:32.02	156.42	25.87	
2025-01-20 10:15:32.22	156.42	25.90	
2025-01-20 10:15:32.43	156.42	25.94	
2025-01-20 10:15:32.63	156.42	25.97	
2025-01-20 10:15:32.83	156.41	26.00	
2025-01-20 10:15:33.04	156.41	26.04	
2025-01-20 10:15:33.24	156.41	26.07	
2025-01-20 10:15:33.44	156.41	26.11	
2025-01-20 10:15:33.65	156.41	26.14	
2025-01-20 10:15:33.85	156.40	26.17	
2025-01-20 10:15:34.05	156.40	26.21	
2025-01-20 10:15:34.25	156.40	26.24	
2025-01-20 10:15:34.46	156.40	26.28	
2025-01-20 10:15:34.66	156.40	26.31	
2025-01-20 10:15:34.86	156.39	26.34	
2025-01-20 10:15:35.07	156.39	26.38	
2025-01-20 10:15:35.27	156.39	26.41	
2025-01-20 10:15:35.47	156.39	26.45	
2025-01-20 10:15:35.68	156.38	26.48	
2025-01-20 10:15:35.88	156.38	26.52	
2025-01-20 10:15:36.08	156.38	26.55	
2025-01-20 10:15:36.29	156.38	26.58	
2025-01-20 10:15:36.49	156.38	26.62	
2025-01-20 10:15:36.69	156.37	26.65	
2025-01-20 10:15:36.89	156.37	26.69	
2025-01-20 10:15:37.10	156.37	26.72	
2025-01-20 10:15:37.30	156.37	26.76	
2025-01-20 10:15:37.50	156.37	26.79	
2025-01-20 10:15:37.71	156.36	26.83	
2025-01-20 10:15:37.91	156.36	26.86	
2025-01-20 10:15:38.11	156.36	26.90	
2025-01-20 10:15:38.32	156.36	26.93	
2025-01-20 10:15:38.52	156.35	26.97	
2025-01-20 10:15:38.72	156.35	27.00	
2025-01-20 10:15:38.93	156.35	27.04	
2025-01-20 10:15:39.13	156.35	27.07	
2025-01-20 10:15:39.33	156.35	27.11	
2025-01-20 10:15:39.53	156.34	27.14	
2025-01-20 10:15:39.74	156.34	27.18	
2025-01-20 10:15:39.94	156.34	27.21	
2025-01-20 10:15:40.14	156.34	27.25	
2025-01-20 10:15:40.35	156.33	27.28	
2025-01-20 10:15:40.55	156.33	27.32	
2025-01-20 10:15:40.75	156.33	27.35	
2025-01-20 10:15:40.96	156.33	27.39	
2025-01-20 10:15:41.16	156.32	27.42	
2025-01-20 10:15:41.36	156.32	27.46	
2025-01-20 10:15:41.57	156.32	27.50	
2025-01-20 10:15:41.77	156.32	27.53	
2025-01-20 10:15:41.97	156.31	27.57	
2025-01-20 10:15:42.17	156.31	27.60	
2025-01-20 10:15:42.38	156.31	27.64	
2025-01-20 10:15:42.58	156.31	27.67	
2025-01-20 10:15:42.78	156.31	27.71	
2025-01-20 10:15:42.99	156.30	27.75	
2025-01-20 10:15:43.19	156.30	27.78	
2025-01-20 10:15:43.39	156.30	27.82	
2025-01-20 10:15:43.60	156.30	27.85	
2025-01-20 10:15:43.80	156.29	27.89	
2025-01-20 10:15:44.00	156.29	27.92	
2025-01-20 10:15:44.21	156.29	27.96	
2025-01-20 10:15:44.41	156.29	28.00	
2025-01-20 10:15:44.61	156.28	28.03	
2025-01-20 10:15:44.81	156.28	28.07	
2025-01-20 10:15:45.02	156.28	28.11	
2025-01-20 10:15:45.22	156.28	28.14	
2025-01-20 10:15:45.42	156.27	28.18	
2025-01-20 10:15:45.63	156.27	28.22	
2025-01-20 10:15:45.83	156.27	28.25	
2025-01-20 10:15:46.03	156.27	28.29	
2025-01-20 10:15:46.24	156.26	28.33	
2025-01-20 10:15:46.44	156.26	28.36	
2025-01-20 10:15:46.64	156.26	28.40	
2025-01-20 10:15:46.85	156.26	28.44	
2025-01-20 10:15:47.05	156.25	28.47	
2025-01-20 10:15:47.25	156.25	28.51	
2025-01-20 10:15:47.45	156.25	28.55	
2025-01-20 10:15:47.66	156.25	28.58	
2025-01-20 10:15:47.86	156.24	28.62	
2025-01-20 10:15:48.06	156.24	28.66	
2025-01-20 10:15:48.27	156.24	28.70	
2025-01-20 10:15:48.47	156.24	28.73	
2025-01-20 10:15:48.67	156.23	28.77	
2025-01-20 10:15:48.88	156.23	28.81	
2025-01-20 10:15:49.08	156.23	28.84	
2025-01-20 10:15:49.28	156.23	28.88	
2025-01-20 10:15:49.49	156.22	28.92	
2025-01-20 10:15:49.69	156.22	28.96	
2025-01-20 10:15:49.89	156.22	28.99	
2025-01-20 10:15:50.09	156.22	29.03	
2025-01-20 10:15:50.30	156.21	29.07	
2025-01-20 10:15:50.50	156.21	29.11	
2025-01-20 10:15:50.70	156.21	29.14	
2025-01-20 10:15:50.91	156.20	29.18	
2025-01-20 10:15:51.11	156.20	29.22	
2025-01-20 10:15:51.31	156.20	29.26	
2025-01-20 10:15:51.52	156.20	29.30	
2025-01-20 10:15:51.72	156.19	29.34	
2025-01-20 10:15:51.92	156.19	29.37	
2025-01-20 10:15:52.13	156.19	29.41	
2025-01-20 10:15:52.33	156.19	29.45	
2025-01-20 10:15:52.53	156.18	29.49	
2025-01-20 10:15:52.73	156.18	29.52	
2025-01-20 10:15:52.94	156.18	29.56	
2025-01-20 10:15:53.14	156.17	29.60	
2025-01-20 10:15:53.34	156.17	29.64	
2025-01-20 10:15:53.55	156.17	29.68	
2025-01-20 10:15:53.75	156.17	29.72	
2025-01-20 10:15:53.95	156.16	29.76	
2025-01-20 10:15:54.16	156.16	29.80	
2025-01-20 10:15:54.36	156.16	29.83	
2025-01-20 10:15:54.56	156.16	29.87	
2025-01-20 10:15:54.77	156.15	29.91	
2025-01-20 10:15:54.97	156.15	29.95	
2025-01-20 10:15:55.17	156.15	29.99	
2025-01-20 10:15:55.37	156.14	30.03	
2025-01-20 10:15:55.58	156.14	30.07	
2025-01-20 10:15:55.78	156.14	30.11	
2025-01-20 10:15:55.98	156.14	30.14	
2025-01-20 10:15:56.19	156.13	30.18	
2025-01-20 10:15:56.39	156.13	30.22	
2025-01-20 10:15:56.59	156.13	30.26	
2025-01-20 10:15:56.80	156.12	30.30	
2025-01-20 10:15:57.00	156.12	30.34	
2025-01-20 10:15:57.20	156.12	30.38	
2025-01-20 10:15:57.41	156.12	30.42	
2025-01-20 10:15:57.61	156.11	30.46	
2025-01-20 10:15:57.81	156.11	30.50	
2025-01-20 10:15:58.01	156.11	30.54	
2025-01-20 10:15:58.22	156.10	30.58	
2025-01-20 10:15:58.42	156.10	30.62	
2025-01-20 10:15:58.62	156.10	30.66	
2025-01-20 10:15:58.83	156.09	30.70	
2025-01-20 10:15:59.03	156.09	30.74	
2025-01-20 10:15:59.23	156.09	30.78	
2025-01-20 10:15:59.44	156.09	30.82	
2025-01-20 10:15:59.64	156.08	30.86	
2025-01-20 10:15:59.84	156.08	30.90	
2025-01-20 10:16:00.05	156.08	30.94	
2025-01-20 10:16:00.25	156.07	30.98	
2025-01-20 10:16:00.45	156.07	31.02	
2025-01-20 10:16:00.65	156.07	31.06	
2025-01-20 10:16:00.86	156.06	31.10	
2025-01-20 10:16:01.06	156.06	31.14	
2025-01-20 10:16:01.26	156.06	31.18	
2025-01-20 10:16:01.47	156.05	31.22	
2025-01-20 10:16:01.67	156.05	31.26	
2025-01-20 10:16:01.87	156.05	31.30	
2025-01-20 10:16:02.08	156.05	31.34	
2025-01-20 10:16:02.28	156.04	31.38	
2025-01-20 10:16:02.48	156.04	31.42	
2025-01-20 10:16:02.69	156.04	31.47	
2025-01-20 10:16:02.89	156.03	31.51	
2025-01-20 10:16:03.09	156.03	31.55	
2025-01-20 10:16:03.29	156.03	31.59	
2025-01-20 10:16:03.50	156.02	31.63	
2025-01-20 10:16:03.70	156.02	31.67	
2025-01-20 10:16:03.90	156.02	31.71	
2025-01-20 10:16:04.11	156.01	31.75	
2025-01-20 10:16:04.31	156.01	31.80	
2025-01-20 10:16:04.51	156.01	31.84	
2025-01-20 10:16:04.72	156.00	31.88	
2025-01-20 10:16:04.92	156.00	31.92	
2025-01-20 10:16:05.12	156.00	31.96	
2025-01-20 10:16:05.33	155.99	32.00	
2025-01-20 10:16:05.53	155.99	32.05	
2025-01-20 10:16:05.73	155.99	32.09	
2025-01-20 10:16:05.93	155.98	32.13	
2025-01-20 10:16:06.14	155.98	32.17	
2025-01-20 10:16:06.34	155.98	32.21	
2025-01-20 10:16:06.54	155.97	32.25	
2025-01-20 10:16:06.75	155.97	32.30	
2025-01-20 10:16:06.95	155.97	32.34	
2025-01-20 10:16:07.15	155.96	32.38	
2025-01-20 10:16:07.36	155.96	32.42	
2025-01-20 10:16:07.56	155.96	32.47	
2025-01-20 10:16:07.76	155.95	32.51	
2025-01-20 10:16:07.97	155.95	32.55	
2025-01-20 10:16:08.17	155.95	32.59	
2025-01-20 10:16:08.37	155.94	32.64	
2025-01-20 10:16:08.57	155.94	32.68	
2025-01-20 10:16:08.78	155.94	32.72	
2025-01-20 10:16:08.98	155.93	32.76	
2025-01-20 10:16:09.18	155.93	32.81	
2025-01-20 10:16:09.39	155.93	32.85	
2025-01-20 10:16:09.59	155.92	32.89	
2025-01-20 10:16:09.79	155.92	32.93	
2025-01-20 10:16:10.00	155.91	32.98	
2025-01-20 10:16:10.20	155.91	33.02	
2025-01-20 10:16:10.40	155.91	33.06	
2025-01-20 10:16:10.61	155.90	33.11	
2025-01-20 10:16:10.81	155.90	33.15	
2025-01-20 10:16:11.01	155.90	33.19	
2025-01-20 10:16:11.21	155.89	33.24	
2025-01-20 10:16:11.42	155.89	33.28	
2025-01-20 10:16:11.62	155.89	33.32	
2025-01-20 10:16:11.82	155.88	33.37	
2025-01-20 10:16:12.03	155.88	33.41	
2025-01-20 10:16:12.23	155.88	33.46	
2025-01-20 10:16:12.43	155.87	33.50	
2025-01-20 10:16:12.64	155.87	33.54	
2025-01-20 10:16:12.84	155.86	33.59	
2025-01-20 10:16:13.04	155.86	33.63	
2025-01-20 10:16:13.25	155.86	33.68	
2025-01-20 10:16:13.45	155.85	33.72	
2025-01-20 10:16:13.65	155.85	33.76	
2025-01-20 10:16:13.85	155.85	33.81	
2025-01-20 10:16:14.06	155.84	33.85	
2025-01-20 10:16:14.26	155.84	33.90	
2025-01-20 10:16:14.46	155.83	33.94	
2025-01-20 10:16:14.67	155.83	33.99	
2025-01-20 10:16:14.87	155.83	34.03	
2025-01-20 10:16:15.07	155.82	34.07	
2025-01-20 10:16:15.28	155.82	34.12	
2025-01-20 10:16:15.48	155.82	34.16	
2025-01-20 10:16:15.68	155.81	34.21	
2025-01-20 10:16:15.89	155.81	34.25	
2025-01-20 10:16:16.09	155.80	34.30	
2025-01-20 10:16:16.29	155.80	34.34	
2025-01-20 10:16:16.49	155.80	34.39	
2025-01-20 10:16:16.70	155.79	34.43	
2025-01-20 10:16:16.90	155.79	34.48	
2025-01-20 10:16:17.10	155.78	34.52	
2025-01-20 10:16:17.31	155.78	34.57	
2025-01-20 10:16:17.51	155.78	34.62	
2025-01-20 10:16:17.71	155.77	34.66	
2025-01-20 10:16:17.92	155.77	34.71	
2025-01-20 10:16:18.12	155.76	34.75	
2025-01-20 10:16:18.32	155.76	34.80	
2025-01-20 10:16:18.53	155.76	34.84	
2025-01-20 10:16:18.73	155.75	34.89	
2025-01-20 10:16:18.93	155.75	34.93	
2025-01-20 10:16:19.13	155.74	34.98	
2025-01-20 10:16:19.34	155.74	35.03	
2025-01-20 10:16:19.54	155.74	35.07	
2025-01-20 10:16:19.74	155.73	35.12	
2025-01-20 10:16:19.95	155.73	35.17	
2025-01-20 10:16:20.15	155.72	35.21	
2025-01-20 10:16:20.35	155.72	35.26	
2025-01-20 10:16:20.56	155.71	35.30	
2025-01-20 10:16:20.76	155.71	35.35	
2025-01-20 10:16:20.96	155.71	35.40	
2025-01-20 10:16:21.17	155.70	35.44	
2025-01-20 10:16:21.37	155.70	35.49	
2025-01-20 10:16:21.57	155.69	35.54	
2025-01-20 10:16:21.77	155.69	35.58	
2025-01-20 10:16:21.98	155.68	35.63	
2025-01-20 10:16:22.18	155.68	35.68	
2025-01-20 10:16:22.38	155.68	35.72	
2025-01-20 10:16:22.59	155.67	35.77	
2025-01-20 10:16:22.79	155.67	35.82	
2025-01-20 10:16:22.99	155.66	35.87	
2025-01-20 10:16:23.20	155.66	35.91	
2025-01-20 10:16:23.40	155.65	35.96	
2025-01-20 10:16:23.60	155.65	36.01	
2025-01-20 10:16:23.80	155.65	36.05	
2025-01-20 10:16:24.01	155.64	36.10	
2025-01-20 10:16:24.21	155.64	36.15	
2025-01-20 10:16:24.41	155.63	36.20	
2025-01-20 10:16:24.62	155.63	36.25	
2025-01-20 10:16:24.82	155.62	36.29	
2025-01-20 10:16:25.02	155.62	36.34	
2025-01-20 10:16:25.23	155.61	36.39	
2025-01-20 10:16:25.43	155.61	36.44	
2025-01-20 10:16:25.63	155.61	36.49	
2025-01-20 10:16:25.84	155.60	36.54	
2025-01-20 10:16:26.04	155.60	36.58	
2025-01-20 10:16:26.24	155.59	36.63	
2025-01-20 10:16:26.44	155.59	36.68	
2025-01-20 10:16:26.65	155.58	36.73	
2025-01-20 10:16:26.85	155.58	36.78	
2025-01-20 10:16:27.05	155.57	36.82	
2025-01-20 10:16:27.26	155.57	36.87	
2025-01-20 10:16:27.46	155.56	36.92	
2025-01-20 10:16:27.66	155.56	36.97	
2025-01-20 10:16:27.87	155.55	37.02	
2025-01-20 10:16:28.07	155.55	37.07	
2025-01-20 10:16:28.27	155.54	37.12	
2025-01-20 10:16:28.48	155.54	37.17	
2025-01-20 10:16:28.68	155.54	37.22	
2025-01-20 10:16:28.88	155.53	37.27	
2025-01-20 10:16:29.08	155.53	37.31	
2025-01-20 10:16:29.29	155.52	37.37	
2025-01-20 10:16:29.49	155.52	37.41	
2025-01-20 10:16:29.69	155.51	37.46	
2025-01-20 10:16:29.90	155.51	37.51	
2025-01-20 10:16:30.10	155.50	37.56	
2025-01-20 10:16:30.30	155.50	37.61	
2025-01-20 10:16:30.51	155.49	37.66	
2025-01-20 10:16:30.71	155.49	37.71	
2025-01-20 10:16:30.91	155.48	37.76	
2025-01-20 10:16:31.12	155.48	37.81	
2025-01-20 10:16:31.32	155.47	37.86	
2025-01-20 10:16:31.52	155.47	37.91	
2025-01-20 10:16:31.72	155.46	37.96	
2025-01-20 10:16:31.93	155.46	38.01	
2025-01-20 10:16:32.13	155.45	38.06	
2025-01-20 10:16:32.33	155.45	38.11	
2025-01-20 10:16:32.54	155.44	38.17	
2025-01-20 10:16:32.74	155.44	38.22	
2025-01-20 10:16:32.94	155.43	38.27	
2025-01-20 10:16:33.15	155.43	38.32	
2025-01-20 10:16:33.35	155.42	38.37	
2025-01-20 10:16:33.55	155.42	38.42	
2025-01-20 10:16:33.76	155.41	38.47	
2025-01-20 10:16:33.96	155.40	38.52	
2025-01-20 10:16:34.16	155.40	38.57	
2025-01-20 10:16:34.36	155.39	38.62	
2025-01-20 10:16:34.57	155.39	38.68	
2025-01-20 10:16:34.77	155.38	38.73	
2025-01-20 10:16:34.97	155.38	38.78	
2025-01-20 10:16:35.18	155.37	38.83	
2025-01-20 10:16:35.38	155.37	38.88	
2025-01-20 10:16:35.58	155.36	38.93	
2025-01-20 10:16:35.79	155.36	38.99	
2025-01-20 10:16:35.99	155.35	39.04	
2025-01-20 10:16:36.19	155.35	39.09	
2025-01-20 10:16:36.40	155.34	39.14	
2025-01-20 10:16:36.60	155.34	39.19	
2025-01-20 10:16:36.80	155.33	39.25	
2025-01-20 10:16:37.00	155.32	39.30	
2025-01-20 10:16:37.21	155.32	39.35	
2025-01-20 10:16:37.41	155.31	39.40	
2025-01-20 10:16:37.61	155.31	39.45	
2025-01-20 10:16:37.82	155.30	39.51	
2025-01-20 10:16:38.02	155.30	39.56	
2025-01-20 10:16:38.22	155.29	39.61	
2025-01-20 10:16:38.43	155.28	39.67	
2025-01-20 10:16:38.63	155.28	39.72	
2025-01-20 10:16:38.83	155.27	39.77	
2025-01-20 10:16:39.04	155.27	39.83	
2025-01-20 10:16:39.24	155.26	39.88	
2025-01-20 10:16:39.44	155.26	39.93	
2025-01-20 10:16:39.64	155.25	39.98	
2025-01-20 10:16:39.85	155.24	40.04	
2025-01-20 10:16:40.05	155.24	40.09	
2025-01-20 10:16:40.25	155.23	40.15	
2025-01-20 10:16:40.46	155.23	40.20	
2025-01-20 10:16:40.66	155.22	40.25	
2025-01-20 10:16:40.86	155.22	40.31	
2025-01-20 10:16:41.07	155.21	40.36	
2025-01-20 10:16:41.27	155.20	40.42	
2025-01-20 10:16:41.47	155.20	40.47	
2025-01-20 10:16:41.68	155.19	40.52	
2025-01-20 10:16:41.88	155.19	40.58	
2025-01-20 10:16:42.08	155.18	40.63	
2025-01-20 10:16:42.28	155.17	40.69	
2025-01-20 10:16:42.49	155.17	40.74	
2025-01-20 10:16:42.69	155.16	40.80	
2025-01-20 10:16:42.89	155.16	40.85	
2025-01-20 10:16:43.10	155.15	40.91	
2025-01-20 10:16:43.30	155.14	40.96	
2025-01-20 10:16:43.50	155.14	41.01	
2025-01-20 10:16:43.71	155.13	41.07	
2025-01-20 10:16:43.91	155.12	41.12	
2025-01-20 10:16:44.11	155.12	41.18	
2025-01-20 10:16:44.32	155.11	41.24	
2025-01-20 10:16:44.52	155.10	41.29	
2025-01-20 10:16:44.72	155.10	41.35	
2025-01-20 10:16:44.92	155.09	41.40	
2025-01-20 10:16:45.13	155.09	41.46	
2025-01-20 10:16:45.33	155.08	41.51	
2025-01-20 10:16:45.53	155.07	41.57	
2025-01-20 10:16:45.74	155.07	41.62	
2025-01-20 10:16:45.94	155.06	41.68	
2025-01-20 10:16:46.14	155.05	41.74	
2025-01-20 10:16:46.35	155.05	41.79	
2025-01-20 10:16:46.55	155.04	41.85	
2025-01-20 10:16:46.75	155.03	41.90	
2025-01-20 10:16:46.96	155.03	41.96	
2025-01-20 10:16:47.16	155.02	42.02	
2025-01-20 10:16:47.36	155.01	42.07	
2025-01-20 10:16:47.56	155.01	42.13	
2025-01-20 10:16:47.77	155.00	42.19	
2025-01-20 10:16:47.97	154.99	42.24	
2025-01-20 10:16:48.17	154.99	42.30	
2025-01-20 10:16:48.38	154.98	42.36	
2025-01-20 10:16:48.58	154.97	42.41	
2025-01-20 10:16:48.78	154.97	42.47	
2025-01-20 10:16:48.99	154.96	42.53	
2025-01-20 10:16:49.19	154.95	42.59	
2025-01-20 10:16:49.39	154.95	42.64	
2025-01-20 10:16:49.60	154.94	42.70	
2025-01-20 10:16:49.80	154.93	42.76	
2025-01-20 10:16:50.00	154.92	42.82	
2025-01-20 10:16:50.20	154.92	42.87	
2025-01-20 10:16:50.41	154.91	42.93	
2025-01-20 10:16:50.61	154.90	42.99	
2025-01-20 10:16:50.81	154.90	43.05	
2025-01-20 10:16:51.02	154.89	43.11	
2025-01-20 10:16:51.22	154.88	43.16	
2025-01-20 10:16:51.42	154.87	43.22	
2025-01-20 10:16:51.63	154.87	43.28	
2025-01-20 10:16:51.83	154.86	43.34	
2025-01-20 10:16:52.03	154.85	43.40	
2025-01-20 10:16:52.24	154.85	43.46	
2025-01-20 10:16:52.44	154.84	43.52	
2025-01-20 10:16:52.64	154.83	43.57	
2025-01-20 10:16:52.84	154.82	43.63	
2025-01-20 10:16:53.05	154.82	43.69	
2025-01-20 10:16:53.25	154.81	43.75	
2025-01-20 10:16:53.45	154.80	43.81	
2025-01-20 10:16:53.66	154.79	43.87	
2025-01-20 10:16:53.86	154.79	43.93	
2025-01-20 10:16:54.06	154.78	43.99	
2025-01-20 10:16:54.27	154.77	44.05	
2025-01-20 10:16:54.47	154.76	44.11	
2025-01-20 10:16:54.67	154.76	44.17	
2025-01-20 10:16:54.88	154.75	44.23	
2025-01-20 10:16:55.08	154.74	44.29	
2025-01-20 10:16:55.28	154.73	44.35	
2025-01-20 10:16:55.48	154.72	44.40	
2025-01-20 10:16:55.69	154.72	44.47	
2025-01-20 10:16:55.89	154.71	44.53	
2025-01-20 10:16:56.09	154.70	44.59	
2025-01-20 10:16:56.30	154.69	44.65	
2025-01-20 10:16:56.50	154.68	44.71	
2025-01-20 10:16:56.70	154.68	44.77	
2025-01-20 10:16:56.91	154.67	44.83	
2025-01-20 10:16:57.11	154.66	44.89	
2025-01-20 10:16:57.31	154.65	44.95	
2025-01-20 10:16:57.52	154.64	45.01	
2025-01-20 10:16:57.72	154.64	45.07	
2025-01-20 10:16:57.92	154.63	45.13	
2025-01-20 10:16:58.12	154.62	45.19	
2025-01-20 10:16:58.33	154.61	45.26	
2025-01-20 10:16:58.53	154.60	45.32	
2025-01-20 10:16:58.73	154.59	45.38	
2025-01-20 10:16:58.94	154.59	45.44	
2025-01-20 10:16:59.14	154.58	45.50	
2025-01-20 10:16:59.34	154.57	45.56	
2025-01-20 10:16:59.55	154.56	45.63	
2025-01-20 10:16:59.75	154.55	45.69	
2025-01-20 10:16:59.95	154.54	45.75	
2025-01-20 10:17:00.16	154.53	45.81	
2025-01-20 10:17:00.36	154.53	45.87	
2025-01-20 10:17:00.56	154.52	45.94	
2025-01-20 10:17:00.76	154.51	46.00	
2025-01-20 10:17:00.97	154.50	46.06	
2025-01-20 10:17:01.17	154.49	46.12	
2025-01-20 10:17:01.37	154.48	46.19	
2025-01-20 10:17:01.58	154.47	46.25	
2025-01-20 10:17:01.78	154.46	46.31	
2025-01-20 10:17:01.98	154.46	46.38	
2025-01-20 10:17:02.19	154.45	46.44	
2025-01-20 10:17:02.39	154.44	46.50	
2025-01-20 10:17:02.59	154.43	46.57	
2025-01-20 10:17:02.80	154.42	46.63	
2025-01-20 10:17:03.00	154.41	46.69	
2025-01-20 10:17:03.20	154.40	46.76	
2025-01-20 10:17:03.40	154.39	46.82	
2025-01-20 10:17:03.61	154.38	46.88	
2025-01-20 10:17:03.81	154.37	46.95	
2025-01-20 10:17:04.01	154.36	47.01	
2025-01-20 10:17:04.22	154.35	47.08	
2025-01-20 10:17:04.42	154.35	47.14	
2025-01-20 10:17:04.62	154.34	47.20	
2025-01-20 10:17:04.83	154.33	47.27	
2025-01-20 10:17:05.03	154.32	47.33	
2025-01-20 10:17:05.23	154.31	47.40	
2025-01-20 10:17:05.44	154.30	47.46	
2025-01-20 10:17:05.64	154.29	47.53	
2025-01-20 10:17:05.84	154.28	47.59	
2025-01-20 10:17:06.04	154.27	47.66	
2025-01-20 10:17:06.25	154.26	47.72	
2025-01-20 10:17:06.45	154.25	47.79	
2025-01-20 10:17:06.65	154.24	47.85	
2025-01-20 10:17:06.86	154.23	47.92	
2025-01-20 10:17:07.06	154.22	47.98	
2025-01-20 10:17:07.26	154.21	48.05	
2025-01-20 10:17:07.47	154.20	48.12	
2025-01-20 10:17:07.67	154.19	48.18	
2025-01-20 10:17:07.87	154.18	48.25	
2025-01-20 10:17:08.08	154.17	48.31	
2025-01-20 10:17:08.28	154.16	48.38	
2025-01-20 10:17:08.48	154.15	48.44	
2025-01-20 10:17:08.68	154.14	48.51	
2025-01-20 10:17:08.89	154.13	48.58	
2025-01-20 10:17:09.09	154.12	48.64	
2025-01-20 10:17:09.29	154.11	48.71	
2025-01-20 10:17:09.50	154.10	48.78	
2025-01-20 10:17:09.70	154.08	48.84	
2025-01-20 10:17:09.90	154.07	48.91	
2025-01-20 10:17:10.11	154.06	48.98	
2025-01-20 10:17:10.31	154.05	49.04	
2025-01-20 10:17:10.51	154.04	49.11	
2025-01-20 10:17:10.72	154.03	49.18	
2025-01-20 10:17:10.92	154.02	49.25	
2025-01-20 10:17:11.12	154.01	49.31	
2025-01-20 10:17:11.32	154.00	49.38	
2025-01-20 10:17:11.53	153.99	49.45	
2025-01-20 10:17:11.73	153.98	49.52	
2025-01-20 10:17:11.93	153.97	49.58	
2025-01-20 10:17:12.14	153.95	49.65	
2025-01-20 10:17:12.34	153.94	49.72	
2025-01-20 10:17:12.54	153.93	49.79	
2025-01-20 10:17:12.75	153.92	49.86	
2025-01-20 10:17:12.95	153.91	49.92	
2025-01-20 10:17:13.15	153.90	49.99	
2025-01-20 10:17:13.36	153.89	50.06	
2025-01-20 10:17:13.56	153.87	50.13	
2025-01-20 10:17:13.76	153.86	50.20	
2025-01-20 10:17:13.96	153.85	50.27	
2025-01-20 10:17:14.17	153.84	50.34	
2025-01-20 10:17:14.37	153.83	50.41	
2025-01-20 10:17:14.57	153.82	50.47	
2025-01-20 10:17:14.78	153.80	50.55	
2025-01-20 10:17:14.98	153.79	50.61	
2025-01-20 10:17:15.18	153.78	50.68	
2025-01-20 10:17:15.39	153.77	50.75	
2025-01-20 10:17:15.59	153.75	50.82	
2025-01-20 10:17:15.79	153.74	50.89	
2025-01-20 10:17:16.00	153.73	50.96	
2025-01-20 10:17:16.20	153.72	51.03	
2025-01-20 10:17:16.40	153.71	51.10	
2025-01-20 10:17:16.60	153.69	51.17	
2025-01-20 10:17:16.81	153.68	51.24	
2025-01-20 10:17:17.01	153.67	51.31	
2025-01-20 10:17:17.21	153.66	51.38	
2025-01-20 10:17:17.42	153.64	51.46	
2025-01-20 10:17:17.62	153.63	51.52	
2025-01-20 10:17:17.82	153.62	51.59	
2025-01-20 10:17:18.03	153.60	51.67	
2025-01-20 10:17:18.23	153.59	51.74	
2025-01-20 10:17:18.43	153.58	51.81	
2025-01-20 10:17:18.64	153.56	51.88	
2025-01-20 10:17:18.84	153.55	51.95	
2025-01-20 10:17:19.04	153.54	52.02	
2025-01-20 10:17:19.24	153.53	52.09	
2025-01-20 10:17:19.45	153.51	52.17	
2025-01-20 10:17:19.65	153.50	52.24	
2025-01-20 10:17:19.85	153.49	52.31	
2025-01-20 10:17:20.06	153.47	52.38	
2025-01-20 10:17:20.26	153.46	52.45	
2025-01-20 10:17:20.46	153.44	52.52	
2025-01-20 10:17:20.67	153.43	52.60	
2025-01-20 10:17:20.87	153.42	52.67	
2025-01-20 10:17:21.07	153.40	52.74	
2025-01-20 10:17:21.28	153.39	52.82	
2025-01-20 10:17:21.48	153.37	52.89	
2025-01-20 10:17:21.68	153.36	52.96	
2025-01-20 10:17:21.88	153.35	53.03	
2025-01-20 10:17:22.09	153.33	53.11	
2025-01-20 10:17:22.29	153.32	53.18	
2025-01-20 10:17:22.49	153.30	53.25	
2025-01-20 10:17:22.70	153.29	53.33	
2025-01-20 10:17:22.90	153.27	53.40	
2025-01-20 10:17:23.10	153.26	53.47	
2025-01-20 10:17:23.31	153.24	53.55	
2025-01-20 10:17:23.51	153.23	53.62	
2025-01-20 10:17:23.71	153.22	53.69	
2025-01-20 10:17:23.92	153.20	53.77	
2025-01-20 10:17:24.12	153.18	53.84	
2025-01-20 10:17:24.32	153.17	53.92	
2025-01-20 10:17:24.52	153.16	53.99	
2025-01-20 10:17:24.73	153.14	54.07	
2025-01-20 10:17:24.93	153.12	54.14	
2025-01-20 10:17:25.13	153.11	54.21	
2025-01-20 10:17:25.34	153.09	54.29	
2025-01-20 10:17:25.54	153.08	54.36	
2025-01-20 10:17:25.74	153.06	54.44	
2025-01-20 10:17:25.95	153.05	54.51	
2025-01-20 10:17:26.15	153.03	54.59	
2025-01-20 10:17:26.35	153.01	54.66	
2025-01-20 10:17:26.56	153.00	54.74	
2025-01-20 10:17:26.76	152.98	54.81	
2025-01-20 10:17:26.96	152.97	54.89	
2025-01-20 10:17:27.16	152.95	54.96	
2025-01-20 10:17:27.37	152.93	55.04	
2025-01-20 10:17:27.57	152.92	55.12	
2025-01-20 10:17:27.77	152.90	55.19	
2025-01-20 10:17:27.98	152.88	55.27	
2025-01-20 10:17:28.18	152.87	55.34	
2025-01-20 10:17:28.38	152.85	55.42	
2025-01-20 10:17:28.59	152.83	55.50	
2025-01-20 10:17:28.79	152.81	55.57	
2025-01-20 10:17:28.99	152.80	55.65	
2025-01-20 10:17:29.20	152.78	55.73	
2025-01-20 10:17:29.40	152.76	55.80	
2025-01-20 10:17:29.60	152.75	55.88	
2025-01-20 10:17:29.80	152.73	55.96	
2025-01-20 10:17:30.01	152.71	56.04	
2025-01-20 10:17:30.21	152.69	56.11	
2025-01-20 10:17:30.41	152.68	56.19	
2025-01-20 10:17:30.62	152.66	56.27	
2025-01-20 10:17:30.82	152.64	56.34	
2025-01-20 10:17:31.02	152.62	56.42	
2025-01-20 10:17:31.23	152.60	56.50	
2025-01-20 10:17:31.43	152.58	56.58	
2025-01-20 10:17:31.63	152.57	56.65	
2025-01-20 10:17:31.84	152.55	56.73	
2025-01-20 10:17:32.04	152.53	56.81	
2025-01-20 10:17:32.24	152.51	56.89	
