passes_logs/2025/01/20/SPB_Silybum_02/SPB_Silybum_02__20250120_111736_TERRA_rec.log

#Pass ID: 20250120_111736_TERRA
#Satellite: TERRA
#Configuration: TERRA
#Start time: 2025-01-20 11:17:36

#Version: 2.0.20230423
#Station: SPB_Silybum_02
#Location: 30.233357 lon 59.946436 lat
#TLE: 1 25994U 99068A   25019.78905911  .00001081  00000+0  23261-3 0  9994
#TLE: 2 25994  98.0208  82.6669 0003303  62.5205  49.3311 14.60406058334773

#Time	Az	El	Level	Level2	SNR	BER	Gain	Gain2
2025-01-20 11:17:38.78	5.46	4.10	
2025-01-20 11:17:38.98	5.43	4.11	
2025-01-20 11:17:39.18	5.41	4.12	
2025-01-20 11:17:39.39	5.38	4.13	
2025-01-20 11:17:39.59	5.35	4.14	
2025-01-20 11:17:39.79	5.33	4.15	
2025-01-20 11:17:40.00	5.30	4.16	
2025-01-20 11:17:40.20	5.27	4.16	
2025-01-20 11:17:40.40	5.25	4.17	
2025-01-20 11:17:40.60	5.22	4.18	
2025-01-20 11:17:40.81	5.19	4.19	
2025-01-20 11:17:41.01	5.17	4.20	
2025-01-20 11:17:41.21	5.14	4.21	
2025-01-20 11:17:41.42	5.12	4.22	
2025-01-20 11:17:41.62	5.09	4.23	
2025-01-20 11:17:41.82	5.06	4.24	
2025-01-20 11:17:42.03	5.04	4.25	
2025-01-20 11:17:42.23	5.01	4.25	
2025-01-20 11:17:42.43	4.98	4.26	
2025-01-20 11:17:42.64	4.96	4.27	
2025-01-20 11:17:42.84	4.93	4.28	
2025-01-20 11:17:43.04	4.90	4.29	
2025-01-20 11:17:43.24	4.88	4.30	
2025-01-20 11:17:43.45	4.85	4.31	
2025-01-20 11:17:43.65	4.82	4.32	
2025-01-20 11:17:43.85	4.80	4.33	
2025-01-20 11:17:44.06	4.77	4.33	
2025-01-20 11:17:44.26	4.74	4.34	
2025-01-20 11:17:44.46	4.72	4.35	
2025-01-20 11:17:44.67	4.69	4.36	
2025-01-20 11:17:44.87	4.66	4.37	
2025-01-20 11:17:45.07	4.64	4.38	
2025-01-20 11:17:45.28	4.61	4.39	
2025-01-20 11:17:45.48	4.58	4.40	
2025-01-20 11:17:45.68	4.56	4.41	
2025-01-20 11:17:45.89	4.53	4.42	
2025-01-20 11:17:46.09	4.50	4.42	
2025-01-20 11:17:46.29	4.48	4.43	
2025-01-20 11:17:46.49	4.45	4.44	
2025-01-20 11:17:46.70	4.42	4.45	
2025-01-20 11:17:46.90	4.40	4.46	
2025-01-20 11:17:47.10	4.37	4.47	
2025-01-20 11:17:47.31	4.34	4.48	
2025-01-20 11:17:47.51	4.31	4.49	
2025-01-20 11:17:47.71	4.29	4.50	
2025-01-20 11:17:47.92	4.26	4.50	
2025-01-20 11:17:48.12	4.23	4.51	
2025-01-20 11:17:48.32	4.21	4.52	
2025-01-20 11:17:48.53	4.18	4.53	
2025-01-20 11:17:48.73	4.15	4.54	
2025-01-20 11:17:48.93	4.13	4.55	
2025-01-20 11:17:49.13	4.10	4.56	
2025-01-20 11:17:49.34	4.07	4.57	
2025-01-20 11:17:49.54	4.04	4.58	
2025-01-20 11:17:49.74	4.02	4.58	
2025-01-20 11:17:49.95	3.99	4.59	
2025-01-20 11:17:50.15	3.96	4.60	
2025-01-20 11:17:50.35	3.94	4.61	
2025-01-20 11:17:50.56	3.91	4.62	
2025-01-20 11:17:50.76	3.88	4.63	
2025-01-20 11:17:50.96	3.85	4.64	
2025-01-20 11:17:51.17	3.82	4.65	
2025-01-20 11:17:51.37	3.80	4.66	
2025-01-20 11:17:51.57	3.77	4.66	
2025-01-20 11:17:51.78	3.74	4.67	
2025-01-20 11:17:51.98	3.72	4.68	
2025-01-20 11:17:52.18	3.69	4.69	
2025-01-20 11:17:52.38	3.66	4.70	
2025-01-20 11:17:52.59	3.63	4.71	
2025-01-20 11:17:52.79	3.61	4.72	
2025-01-20 11:17:52.99	3.58	4.73	
2025-01-20 11:17:53.20	3.55	4.74	
2025-01-20 11:17:53.40	3.52	4.74	
2025-01-20 11:17:53.60	3.50	4.75	
2025-01-20 11:17:53.81	3.47	4.76	
2025-01-20 11:17:54.01	3.44	4.77	
2025-01-20 11:17:54.21	3.41	4.78	
2025-01-20 11:17:54.42	3.39	4.79	
2025-01-20 11:17:54.62	3.36	4.80	
2025-01-20 11:17:54.82	3.33	4.81	
2025-01-20 11:17:55.02	3.30	4.81	
2025-01-20 11:17:55.23	3.28	4.82	
2025-01-20 11:17:55.43	3.25	4.83	
2025-01-20 11:17:55.63	3.22	4.84	
2025-01-20 11:17:55.84	3.19	4.85	
2025-01-20 11:17:56.04	3.16	4.86	
2025-01-20 11:17:56.24	3.14	4.87	
2025-01-20 11:17:56.45	3.11	4.88	
2025-01-20 11:17:56.65	3.08	4.88	
2025-01-20 11:17:56.85	3.05	4.89	
2025-01-20 11:17:57.06	3.02	4.90	
2025-01-20 11:17:57.26	3.00	4.91	
2025-01-20 11:17:57.46	2.97	4.92	
2025-01-20 11:17:57.67	2.94	4.93	
2025-01-20 11:17:57.87	2.91	4.94	
2025-01-20 11:17:58.07	2.89	4.95	
2025-01-20 11:17:58.27	2.86	4.95	
2025-01-20 11:17:58.48	2.83	4.96	
2025-01-20 11:17:58.68	2.80	4.97	
2025-01-20 11:17:58.88	2.77	4.98	
2025-01-20 11:17:59.09	2.75	4.99	
2025-01-20 11:17:59.29	2.72	5.00	
2025-01-20 11:17:59.49	2.69	5.01	
2025-01-20 11:17:59.70	2.66	5.02	
2025-01-20 11:17:59.90	2.63	5.03	
2025-01-20 11:18:00.10	2.61	5.03	
2025-01-20 11:18:00.31	2.58	5.04	
2025-01-20 11:18:00.51	2.55	5.05	
2025-01-20 11:18:00.71	2.52	5.06	
2025-01-20 11:18:00.91	2.49	5.07	
2025-01-20 11:18:01.12	2.46	5.08	
2025-01-20 11:18:01.32	2.44	5.09	
2025-01-20 11:18:01.52	2.41	5.10	
2025-01-20 11:18:01.73	2.38	5.10	
2025-01-20 11:18:01.93	2.35	5.11	
2025-01-20 11:18:02.13	2.32	5.12	
2025-01-20 11:18:02.34	2.29	5.13	
2025-01-20 11:18:02.54	2.27	5.14	
2025-01-20 11:18:02.74	2.24	5.15	
2025-01-20 11:18:02.95	2.21	5.16	
2025-01-20 11:18:03.15	2.18	5.17	
2025-01-20 11:18:03.35	2.15	5.17	
2025-01-20 11:18:03.56	2.12	5.18	
2025-01-20 11:18:03.76	2.10	5.19	
2025-01-20 11:18:03.96	2.07	5.20	
2025-01-20 11:18:04.16	2.04	5.21	
2025-01-20 11:18:04.37	2.01	5.22	
2025-01-20 11:18:04.57	1.98	5.23	
2025-01-20 11:18:04.77	1.95	5.23	
2025-01-20 11:18:04.98	1.92	5.24	
2025-01-20 11:18:05.18	1.90	5.25	
2025-01-20 11:18:05.38	1.87	5.26	
2025-01-20 11:18:05.59	1.84	5.27	
2025-01-20 11:18:05.79	1.81	5.28	
2025-01-20 11:18:05.99	1.78	5.29	
2025-01-20 11:18:06.20	1.75	5.30	
2025-01-20 11:18:06.40	1.72	5.30	
2025-01-20 11:18:06.60	1.70	5.31	
2025-01-20 11:18:06.80	1.67	5.32	
2025-01-20 11:18:07.01	1.64	5.33	
2025-01-20 11:18:07.21	1.61	5.34	
2025-01-20 11:18:07.41	1.58	5.35	
2025-01-20 11:18:07.62	1.55	5.36	
2025-01-20 11:18:07.82	1.52	5.36	
2025-01-20 11:18:08.02	1.49	5.37	
2025-01-20 11:18:08.23	1.46	5.38	
2025-01-20 11:18:08.43	1.44	5.39	
2025-01-20 11:18:08.63	1.41	5.40	
2025-01-20 11:18:08.84	1.38	5.41	
2025-01-20 11:18:09.04	1.35	5.42	
2025-01-20 11:18:09.24	1.32	5.42	
2025-01-20 11:18:09.45	1.29	5.43	
2025-01-20 11:18:09.65	1.26	5.44	
2025-01-20 11:18:09.85	1.23	5.45	
2025-01-20 11:18:10.05	1.20	5.46	
2025-01-20 11:18:10.26	1.17	5.47	
2025-01-20 11:18:10.46	1.15	5.48	
2025-01-20 11:18:10.66	1.12	5.48	
2025-01-20 11:18:10.87	1.09	5.49	
2025-01-20 11:18:11.07	1.06	5.50	
2025-01-20 11:18:11.27	1.03	5.51	
2025-01-20 11:18:11.48	1.00	5.52	
2025-01-20 11:18:11.68	0.97	5.53	
2025-01-20 11:18:11.88	0.94	5.54	
2025-01-20 11:18:12.09	0.91	5.55	
2025-01-20 11:18:12.29	0.88	5.55	
2025-01-20 11:18:12.49	0.85	5.56	
2025-01-20 11:18:12.69	0.82	5.57	
2025-01-20 11:18:12.90	0.79	5.58	
2025-01-20 11:18:13.10	0.77	5.59	
2025-01-20 11:18:13.30	0.74	5.60	
2025-01-20 11:18:13.51	0.71	5.61	
2025-01-20 11:18:13.71	0.68	5.61	
2025-01-20 11:18:13.91	0.65	5.62	
2025-01-20 11:18:14.12	0.62	5.63	
2025-01-20 11:18:14.32	0.59	5.64	
2025-01-20 11:18:14.52	0.56	5.65	
2025-01-20 11:18:14.73	0.53	5.66	
2025-01-20 11:18:14.93	0.50	5.66	
2025-01-20 11:18:15.13	0.47	5.67	
2025-01-20 11:18:15.34	0.44	5.68	
2025-01-20 11:18:15.54	0.41	5.69	
2025-01-20 11:18:15.74	0.38	5.70	
2025-01-20 11:18:15.94	0.35	5.71	
2025-01-20 11:18:16.15	0.32	5.72	
2025-01-20 11:18:16.35	0.29	5.72	
2025-01-20 11:18:16.55	0.26	5.73	
2025-01-20 11:18:16.76	0.23	5.74	
2025-01-20 11:18:16.96	0.20	5.75	
2025-01-20 11:18:17.16	0.17	5.76	
2025-01-20 11:18:17.37	0.14	5.77	
2025-01-20 11:18:17.57	0.11	5.78	
2025-01-20 11:18:17.77	0.08	5.78	
2025-01-20 11:18:17.98	0.05	5.79	
2025-01-20 11:18:18.18	0.02	5.80	
2025-01-20 11:18:18.38	360.00	5.81	
2025-01-20 11:18:18.58	359.97	5.82	
2025-01-20 11:18:18.79	359.94	5.83	
2025-01-20 11:18:18.99	359.91	5.83	
2025-01-20 11:18:19.19	359.88	5.84	
2025-01-20 11:18:19.40	359.85	5.85	
2025-01-20 11:18:19.60	359.82	5.86	
2025-01-20 11:18:19.80	359.79	5.87	
2025-01-20 11:18:20.01	359.76	5.88	
2025-01-20 11:18:20.21	359.73	5.88	
2025-01-20 11:18:20.41	359.70	5.89	
2025-01-20 11:18:20.62	359.66	5.90	
2025-01-20 11:18:20.82	359.64	5.91	
2025-01-20 11:18:21.02	359.61	5.92	
2025-01-20 11:18:21.23	359.57	5.93	
2025-01-20 11:18:21.43	359.54	5.94	
2025-01-20 11:18:21.63	359.52	5.94	
2025-01-20 11:18:21.83	359.49	5.95	
2025-01-20 11:18:22.04	359.45	5.96	
2025-01-20 11:18:22.24	359.42	5.97	
2025-01-20 11:18:22.44	359.39	5.98	
2025-01-20 11:18:22.65	359.36	5.99	
2025-01-20 11:18:22.85	359.33	5.99	
2025-01-20 11:18:23.05	359.30	6.00	
2025-01-20 11:18:23.26	359.27	6.01	
2025-01-20 11:18:23.46	359.24	6.02	
2025-01-20 11:18:23.66	359.21	6.03	
2025-01-20 11:18:23.87	359.18	6.04	
2025-01-20 11:18:24.07	359.15	6.04	
2025-01-20 11:18:24.27	359.12	6.05	
2025-01-20 11:18:24.47	359.09	6.06	
2025-01-20 11:18:24.68	359.06	6.07	
2025-01-20 11:18:24.88	359.03	6.08	
2025-01-20 11:18:25.08	359.00	6.09	
2025-01-20 11:18:25.29	358.97	6.09	
2025-01-20 11:18:25.49	358.94	6.10	
2025-01-20 11:18:25.69	358.91	6.11	
2025-01-20 11:18:25.90	358.88	6.12	
2025-01-20 11:18:26.10	358.85	6.13	
2025-01-20 11:18:26.30	358.82	6.14	
2025-01-20 11:18:26.51	358.78	6.14	
2025-01-20 11:18:26.71	358.75	6.15	
2025-01-20 11:18:26.91	358.72	6.16	
2025-01-20 11:18:27.12	358.69	6.17	
2025-01-20 11:18:27.32	358.66	6.18	
2025-01-20 11:18:27.52	358.63	6.19	
2025-01-20 11:18:27.72	358.60	6.19	
2025-01-20 11:18:27.93	358.57	6.20	
2025-01-20 11:18:28.13	358.54	6.21	
2025-01-20 11:18:28.33	358.51	6.22	
2025-01-20 11:18:28.54	358.48	6.23	
2025-01-20 11:18:28.74	358.45	6.23	
2025-01-20 11:18:28.94	358.42	6.24	
2025-01-20 11:18:29.15	358.38	6.25	
2025-01-20 11:18:29.35	358.35	6.26	
2025-01-20 11:18:29.55	358.32	6.27	
2025-01-20 11:18:29.76	358.29	6.28	
2025-01-20 11:18:29.96	358.26	6.28	
2025-01-20 11:18:30.16	358.23	6.29	
2025-01-20 11:18:30.36	358.20	6.30	
2025-01-20 11:18:30.57	358.17	6.31	
2025-01-20 11:18:30.77	358.14	6.32	
2025-01-20 11:18:30.97	358.11	6.33	
2025-01-20 11:18:31.18	358.07	6.33	
2025-01-20 11:18:31.38	358.04	6.34	
2025-01-20 11:18:31.58	358.01	6.35	
2025-01-20 11:18:31.79	357.98	6.36	
2025-01-20 11:18:31.99	357.95	6.37	
2025-01-20 11:18:32.19	357.92	6.37	
2025-01-20 11:18:32.40	357.89	6.38	
2025-01-20 11:18:32.60	357.86	6.39	
2025-01-20 11:18:32.80	357.83	6.40	
2025-01-20 11:18:33.01	357.79	6.41	
2025-01-20 11:18:33.21	357.76	6.42	
2025-01-20 11:18:33.41	357.73	6.42	
2025-01-20 11:18:33.61	357.70	6.43	
2025-01-20 11:18:33.82	357.67	6.44	
2025-01-20 11:18:34.02	357.64	6.45	
2025-01-20 11:18:34.22	357.61	6.46	
2025-01-20 11:18:34.43	357.58	6.46	
2025-01-20 11:18:34.63	357.54	6.47	
2025-01-20 11:18:34.83	357.51	6.48	
2025-01-20 11:18:35.04	357.48	6.49	
2025-01-20 11:18:35.24	357.45	6.50	
2025-01-20 11:18:35.44	357.42	6.50	
2025-01-20 11:18:35.65	357.39	6.51	
2025-01-20 11:18:35.85	357.36	6.52	
2025-01-20 11:18:36.05	357.32	6.53	
2025-01-20 11:18:36.25	357.29	6.54	
2025-01-20 11:18:36.46	357.26	6.54	
2025-01-20 11:18:36.66	357.23	6.55	
2025-01-20 11:18:36.86	357.20	6.56	
2025-01-20 11:18:37.07	357.17	6.57	
2025-01-20 11:18:37.27	357.13	6.58	
2025-01-20 11:18:37.47	357.10	6.59	
2025-01-20 11:18:37.68	357.07	6.59	
2025-01-20 11:18:37.88	357.04	6.60	
2025-01-20 11:18:38.08	357.01	6.61	
2025-01-20 11:18:38.29	356.97	6.62	
2025-01-20 11:18:38.49	356.94	6.63	
2025-01-20 11:18:38.69	356.91	6.63	
2025-01-20 11:18:38.90	356.88	6.64	
2025-01-20 11:18:39.10	356.85	6.65	
2025-01-20 11:18:39.30	356.82	6.66	
2025-01-20 11:18:39.50	356.79	6.67	
2025-01-20 11:18:39.71	356.75	6.67	
2025-01-20 11:18:39.91	356.72	6.68	
2025-01-20 11:18:40.11	356.69	6.69	
2025-01-20 11:18:40.32	356.66	6.70	
2025-01-20 11:18:40.52	356.62	6.71	
2025-01-20 11:18:40.72	356.59	6.71	
2025-01-20 11:18:40.93	356.56	6.72	
2025-01-20 11:18:41.13	356.53	6.73	
2025-01-20 11:18:41.33	356.50	6.74	
2025-01-20 11:18:41.54	356.46	6.75	
2025-01-20 11:18:41.74	356.43	6.75	
2025-01-20 11:18:41.94	356.40	6.76	
2025-01-20 11:18:42.14	356.37	6.77	
2025-01-20 11:18:42.35	356.34	6.78	
2025-01-20 11:18:42.55	356.30	6.78	
2025-01-20 11:18:42.75	356.27	6.79	
2025-01-20 11:18:42.96	356.24	6.80	
2025-01-20 11:18:43.16	356.21	6.81	
2025-01-20 11:18:43.36	356.18	6.82	
2025-01-20 11:18:43.57	356.14	6.82	
2025-01-20 11:18:43.77	356.11	6.83	
2025-01-20 11:18:43.97	356.08	6.84	
2025-01-20 11:18:44.18	356.05	6.85	
2025-01-20 11:18:44.38	356.01	6.86	
2025-01-20 11:18:44.58	355.98	6.86	
2025-01-20 11:18:44.79	355.95	6.87	
2025-01-20 11:18:44.99	355.92	6.88	
2025-01-20 11:18:45.19	355.88	6.89	
2025-01-20 11:18:45.39	355.85	6.89	
2025-01-20 11:18:45.60	355.82	6.90	
2025-01-20 11:18:45.80	355.79	6.91	
2025-01-20 11:18:46.00	355.76	6.92	
2025-01-20 11:18:46.21	355.72	6.93	
2025-01-20 11:18:46.41	355.69	6.93	
2025-01-20 11:18:46.61	355.66	6.94	
2025-01-20 11:18:46.82	355.62	6.95	
2025-01-20 11:18:47.02	355.59	6.96	
2025-01-20 11:18:47.22	355.56	6.97	
2025-01-20 11:18:47.43	355.53	6.97	
2025-01-20 11:18:47.63	355.49	6.98	
2025-01-20 11:18:47.83	355.46	6.99	
2025-01-20 11:18:48.03	355.43	7.00	
2025-01-20 11:18:48.24	355.40	7.00	
2025-01-20 11:18:48.44	355.36	7.01	
2025-01-20 11:18:48.64	355.33	7.02	
2025-01-20 11:18:48.85	355.30	7.03	
2025-01-20 11:18:49.05	355.26	7.04	
2025-01-20 11:18:49.25	355.23	7.04	
2025-01-20 11:18:49.46	355.20	7.05	
2025-01-20 11:18:49.66	355.17	7.06	
2025-01-20 11:18:49.86	355.13	7.07	
2025-01-20 11:18:50.07	355.10	7.07	
2025-01-20 11:18:50.27	355.07	7.08	
2025-01-20 11:18:50.47	355.04	7.09	
2025-01-20 11:18:50.68	355.00	7.10	
2025-01-20 11:18:50.88	354.97	7.10	
2025-01-20 11:18:51.08	354.94	7.11	
2025-01-20 11:18:51.28	354.90	7.12	
2025-01-20 11:18:51.49	354.87	7.13	
2025-01-20 11:18:51.69	354.84	7.14	
2025-01-20 11:18:51.89	354.80	7.14	
2025-01-20 11:18:52.10	354.77	7.15	
2025-01-20 11:18:52.30	354.74	7.16	
2025-01-20 11:18:52.50	354.71	7.17	
2025-01-20 11:18:52.71	354.67	7.17	
2025-01-20 11:18:52.91	354.64	7.18	
2025-01-20 11:18:53.11	354.61	7.19	
2025-01-20 11:18:53.32	354.57	7.20	
2025-01-20 11:18:53.52	354.54	7.20	
2025-01-20 11:18:53.72	354.51	7.21	
2025-01-20 11:18:53.92	354.47	7.22	
2025-01-20 11:18:54.13	354.44	7.23	
2025-01-20 11:18:54.33	354.41	7.23	
2025-01-20 11:18:54.53	354.37	7.24	
2025-01-20 11:18:54.74	354.34	7.25	
2025-01-20 11:18:54.94	354.31	7.26	
2025-01-20 11:18:55.14	354.27	7.26	
2025-01-20 11:18:55.35	354.24	7.27	
2025-01-20 11:18:55.55	354.21	7.28	
2025-01-20 11:18:55.75	354.17	7.29	
2025-01-20 11:18:55.96	354.14	7.30	
2025-01-20 11:18:56.16	354.11	7.30	
2025-01-20 11:18:56.36	354.07	7.31	
2025-01-20 11:18:56.57	354.04	7.32	
2025-01-20 11:18:56.77	354.00	7.33	
2025-01-20 11:18:56.97	353.97	7.33	
2025-01-20 11:18:57.17	353.94	7.34	
2025-01-20 11:18:57.38	353.90	7.35	
2025-01-20 11:18:57.58	353.87	7.36	
2025-01-20 11:18:57.78	353.84	7.36	
2025-01-20 11:18:57.99	353.80	7.37	
2025-01-20 11:18:58.19	353.77	7.38	
2025-01-20 11:18:58.39	353.74	7.38	
2025-01-20 11:18:58.60	353.70	7.39	
2025-01-20 11:18:58.80	353.67	7.40	
2025-01-20 11:18:59.00	353.64	7.41	
2025-01-20 11:18:59.21	353.60	7.42	
2025-01-20 11:18:59.41	353.57	7.42	
2025-01-20 11:18:59.61	353.53	7.43	
2025-01-20 11:18:59.81	353.50	7.44	
2025-01-20 11:19:00.02	353.47	7.44	
2025-01-20 11:19:00.22	353.43	7.45	
2025-01-20 11:19:00.42	353.40	7.46	
2025-01-20 11:19:00.63	353.36	7.47	
2025-01-20 11:19:00.83	353.33	7.47	
2025-01-20 11:19:01.03	353.30	7.48	
2025-01-20 11:19:01.24	353.26	7.49	
2025-01-20 11:19:01.44	353.23	7.50	
2025-01-20 11:19:01.64	353.20	7.50	
2025-01-20 11:19:01.85	353.16	7.51	
2025-01-20 11:19:02.05	353.13	7.52	
2025-01-20 11:19:02.25	353.09	7.53	
2025-01-20 11:19:02.46	353.06	7.53	
2025-01-20 11:19:02.66	353.02	7.54	
2025-01-20 11:19:02.86	352.99	7.55	
2025-01-20 11:19:03.06	352.96	7.55	
2025-01-20 11:19:03.27	352.92	7.56	
2025-01-20 11:19:03.47	352.89	7.57	
2025-01-20 11:19:03.67	352.85	7.58	
2025-01-20 11:19:03.88	352.82	7.58	
2025-01-20 11:19:04.08	352.79	7.59	
2025-01-20 11:19:04.28	352.75	7.60	
2025-01-20 11:19:04.49	352.72	7.61	
2025-01-20 11:19:04.69	352.68	7.61	
2025-01-20 11:19:04.89	352.65	7.62	
2025-01-20 11:19:05.10	352.61	7.63	
2025-01-20 11:19:05.30	352.58	7.64	
2025-01-20 11:19:05.50	352.55	7.64	
2025-01-20 11:19:05.70	352.51	7.65	
2025-01-20 11:19:05.91	352.48	7.66	
2025-01-20 11:19:06.11	352.44	7.66	
2025-01-20 11:19:06.31	352.41	7.67	
2025-01-20 11:19:06.52	352.37	7.68	
2025-01-20 11:19:06.72	352.34	7.69	
2025-01-20 11:19:06.92	352.31	7.69	
2025-01-20 11:19:07.13	352.27	7.70	
2025-01-20 11:19:07.33	352.24	7.71	
2025-01-20 11:19:07.53	352.20	7.71	
2025-01-20 11:19:07.74	352.17	7.72	
2025-01-20 11:19:07.94	352.13	7.73	
2025-01-20 11:19:08.14	352.10	7.74	
2025-01-20 11:19:08.35	352.06	7.74	
2025-01-20 11:19:08.55	352.03	7.75	
2025-01-20 11:19:08.75	351.99	7.76	
2025-01-20 11:19:08.95	351.96	7.76	
2025-01-20 11:19:09.16	351.92	7.77	
2025-01-20 11:19:09.36	351.89	7.78	
2025-01-20 11:19:09.56	351.86	7.79	
2025-01-20 11:19:09.77	351.82	7.79	
2025-01-20 11:19:09.97	351.79	7.80	
2025-01-20 11:19:10.17	351.75	7.81	
2025-01-20 11:19:10.38	351.72	7.81	
2025-01-20 11:19:10.58	351.68	7.82	
2025-01-20 11:19:10.78	351.65	7.83	
2025-01-20 11:19:10.99	351.61	7.84	
2025-01-20 11:19:11.19	351.58	7.84	
2025-01-20 11:19:11.39	351.54	7.85	
2025-01-20 11:19:11.59	351.51	7.86	
2025-01-20 11:19:11.80	351.47	7.86	
2025-01-20 11:19:12.00	351.44	7.87	
2025-01-20 11:19:12.20	351.40	7.88	
2025-01-20 11:19:12.41	351.37	7.88	
2025-01-20 11:19:12.61	351.33	7.89	
2025-01-20 11:19:12.81	351.30	7.90	
2025-01-20 11:19:13.02	351.26	7.91	
2025-01-20 11:19:13.22	351.23	7.91	
2025-01-20 11:19:13.42	351.19	7.92	
2025-01-20 11:19:13.63	351.16	7.93	
2025-01-20 11:19:13.83	351.12	7.93	
2025-01-20 11:19:14.03	351.09	7.94	
2025-01-20 11:19:14.24	351.05	7.95	
2025-01-20 11:19:14.44	351.02	7.95	
2025-01-20 11:19:14.64	350.98	7.96	
2025-01-20 11:19:14.84	350.95	7.97	
2025-01-20 11:19:15.05	350.91	7.97	
2025-01-20 11:19:15.25	350.88	7.98	
2025-01-20 11:19:15.45	350.84	7.99	
2025-01-20 11:19:15.66	350.80	8.00	
2025-01-20 11:19:15.86	350.77	8.00	
2025-01-20 11:19:16.06	350.74	8.01	
2025-01-20 11:19:16.27	350.70	8.02	
2025-01-20 11:19:16.47	350.66	8.02	
2025-01-20 11:19:16.67	350.63	8.03	
2025-01-20 11:19:16.88	350.59	8.04	
2025-01-20 11:19:17.08	350.56	8.04	
2025-01-20 11:19:17.28	350.52	8.05	
2025-01-20 11:19:17.48	350.49	8.06	
2025-01-20 11:19:17.69	350.45	8.06	
2025-01-20 11:19:17.89	350.42	8.07	
2025-01-20 11:19:18.09	350.38	8.08	
2025-01-20 11:19:18.30	350.34	8.08	
2025-01-20 11:19:18.50	350.31	8.09	
2025-01-20 11:19:18.70	350.27	8.10	
2025-01-20 11:19:18.91	350.24	8.10	
2025-01-20 11:19:19.11	350.20	8.11	
2025-01-20 11:19:19.31	350.17	8.12	
2025-01-20 11:19:19.52	350.13	8.12	
2025-01-20 11:19:19.72	350.10	8.13	
2025-01-20 11:19:19.92	350.06	8.14	
2025-01-20 11:19:20.13	350.02	8.14	
2025-01-20 11:19:20.33	349.99	8.15	
2025-01-20 11:19:20.53	349.95	8.16	
2025-01-20 11:19:20.73	349.92	8.16	
2025-01-20 11:19:20.94	349.88	8.17	
2025-01-20 11:19:21.14	349.85	8.18	
2025-01-20 11:19:21.34	349.81	8.18	
2025-01-20 11:19:21.55	349.77	8.19	
2025-01-20 11:19:21.75	349.74	8.20	
2025-01-20 11:19:21.95	349.70	8.20	
2025-01-20 11:19:22.16	349.67	8.21	
2025-01-20 11:19:22.36	349.63	8.22	
2025-01-20 11:19:22.56	349.60	8.22	
2025-01-20 11:19:22.77	349.56	8.23	
2025-01-20 11:19:22.97	349.52	8.24	
2025-01-20 11:19:23.17	349.49	8.24	
2025-01-20 11:19:23.37	349.45	8.25	
2025-01-20 11:19:23.58	349.42	8.26	
2025-01-20 11:19:23.78	349.38	8.26	
2025-01-20 11:19:23.98	349.34	8.27	
2025-01-20 11:19:24.19	349.31	8.28	
2025-01-20 11:19:24.39	349.27	8.28	
2025-01-20 11:19:24.59	349.24	8.29	
2025-01-20 11:19:24.80	349.20	8.30	
2025-01-20 11:19:25.00	349.16	8.30	
2025-01-20 11:19:25.20	349.13	8.31	
2025-01-20 11:19:25.41	349.09	8.32	
2025-01-20 11:19:25.61	349.06	8.32	
2025-01-20 11:19:25.81	349.02	8.33	
2025-01-20 11:19:26.02	348.98	8.34	
2025-01-20 11:19:26.22	348.95	8.34	
2025-01-20 11:19:26.42	348.91	8.35	
2025-01-20 11:19:26.62	348.88	8.35	
2025-01-20 11:19:26.83	348.84	8.36	
2025-01-20 11:19:27.03	348.80	8.37	
2025-01-20 11:19:27.23	348.77	8.37	
2025-01-20 11:19:27.44	348.73	8.38	
2025-01-20 11:19:27.64	348.69	8.39	
2025-01-20 11:19:27.84	348.66	8.39	
2025-01-20 11:19:28.05	348.62	8.40	
2025-01-20 11:19:28.25	348.58	8.41	
2025-01-20 11:19:28.45	348.55	8.41	
2025-01-20 11:19:28.66	348.51	8.42	
2025-01-20 11:19:28.86	348.47	8.43	
2025-01-20 11:19:29.06	348.44	8.43	
2025-01-20 11:19:29.26	348.40	8.44	
2025-01-20 11:19:29.47	348.36	8.44	
2025-01-20 11:19:29.67	348.33	8.45	
2025-01-20 11:19:29.87	348.29	8.46	
2025-01-20 11:19:30.08	348.26	8.46	
2025-01-20 11:19:30.28	348.22	8.47	
2025-01-20 11:19:30.48	348.18	8.48	
2025-01-20 11:19:30.69	348.15	8.48	
2025-01-20 11:19:30.89	348.11	8.49	
2025-01-20 11:19:31.09	348.07	8.49	
2025-01-20 11:19:31.30	348.04	8.50	
2025-01-20 11:19:31.50	348.00	8.51	
2025-01-20 11:19:31.70	347.96	8.51	
2025-01-20 11:19:31.91	347.93	8.52	
2025-01-20 11:19:32.11	347.89	8.53	
2025-01-20 11:19:32.31	347.85	8.53	
2025-01-20 11:19:32.51	347.82	8.54	
2025-01-20 11:19:32.72	347.78	8.54	
2025-01-20 11:19:32.92	347.74	8.55	
2025-01-20 11:19:33.12	347.71	8.56	
2025-01-20 11:19:33.33	347.67	8.56	
2025-01-20 11:19:33.53	347.63	8.57	
2025-01-20 11:19:33.73	347.60	8.58	
2025-01-20 11:19:33.94	347.56	8.58	
2025-01-20 11:19:34.14	347.52	8.59	
2025-01-20 11:19:34.34	347.48	8.59	
2025-01-20 11:19:34.55	347.45	8.60	
2025-01-20 11:19:34.75	347.41	8.61	
2025-01-20 11:19:34.95	347.37	8.61	
2025-01-20 11:19:35.15	347.34	8.62	
2025-01-20 11:19:35.36	347.30	8.62	
2025-01-20 11:19:35.56	347.26	8.63	
2025-01-20 11:19:35.76	347.23	8.64	
2025-01-20 11:19:35.97	347.19	8.64	
2025-01-20 11:19:36.17	347.15	8.65	
2025-01-20 11:19:36.37	347.12	8.65	
2025-01-20 11:19:36.58	347.08	8.66	
2025-01-20 11:19:36.78	347.04	8.67	
2025-01-20 11:19:36.98	347.00	8.67	
2025-01-20 11:19:37.19	346.97	8.68	
2025-01-20 11:19:37.39	346.93	8.68	
2025-01-20 11:19:37.59	346.89	8.69	
2025-01-20 11:19:37.80	346.85	8.70	
2025-01-20 11:19:38.00	346.82	8.70	
2025-01-20 11:19:38.20	346.78	8.71	
2025-01-20 11:19:38.40	346.74	8.71	
2025-01-20 11:19:38.61	346.71	8.72	
2025-01-20 11:19:38.81	346.67	8.73	
2025-01-20 11:19:39.01	346.63	8.73	
2025-01-20 11:19:39.22	346.59	8.74	
2025-01-20 11:19:39.42	346.56	8.74	
2025-01-20 11:19:39.62	346.52	8.75	
2025-01-20 11:19:39.83	346.48	8.76	
2025-01-20 11:19:40.03	346.44	8.76	
2025-01-20 11:19:40.23	346.41	8.77	
2025-01-20 11:19:40.44	346.37	8.77	
2025-01-20 11:19:40.64	346.33	8.78	
2025-01-20 11:19:40.84	346.29	8.78	
2025-01-20 11:19:41.04	346.26	8.79	
2025-01-20 11:19:41.25	346.22	8.80	
2025-01-20 11:19:41.45	346.18	8.80	
2025-01-20 11:19:41.65	346.15	8.81	
2025-01-20 11:19:41.86	346.11	8.81	
2025-01-20 11:19:42.06	346.07	8.82	
2025-01-20 11:19:42.26	346.03	8.82	
2025-01-20 11:19:42.47	345.99	8.83	
2025-01-20 11:19:42.67	345.96	8.84	
2025-01-20 11:19:42.87	345.92	8.84	
2025-01-20 11:19:43.08	345.88	8.85	
2025-01-20 11:19:43.28	345.84	8.85	
2025-01-20 11:19:43.48	345.81	8.86	
2025-01-20 11:19:43.69	345.77	8.87	
2025-01-20 11:19:43.89	345.73	8.87	
2025-01-20 11:19:44.09	345.69	8.88	
2025-01-20 11:19:44.29	345.66	8.88	
2025-01-20 11:19:44.50	345.62	8.89	
2025-01-20 11:19:44.70	345.58	8.89	
2025-01-20 11:19:44.90	345.54	8.90	
2025-01-20 11:19:45.11	345.50	8.90	
2025-01-20 11:19:45.31	345.47	8.91	
2025-01-20 11:19:45.51	345.43	8.92	
2025-01-20 11:19:45.72	345.39	8.92	
2025-01-20 11:19:45.92	345.35	8.93	
2025-01-20 11:19:46.12	345.32	8.93	
2025-01-20 11:19:46.33	345.28	8.94	
2025-01-20 11:19:46.53	345.24	8.94	
2025-01-20 11:19:46.73	345.20	8.95	
2025-01-20 11:19:46.93	345.16	8.95	
2025-01-20 11:19:47.14	345.13	8.96	
2025-01-20 11:19:47.34	345.09	8.97	
2025-01-20 11:19:47.54	345.05	8.97	
2025-01-20 11:19:47.75	345.01	8.98	
2025-01-20 11:19:47.95	344.97	8.98	
2025-01-20 11:19:48.15	344.94	8.99	
2025-01-20 11:19:48.36	344.90	8.99	
2025-01-20 11:19:48.56	344.86	9.00	
2025-01-20 11:19:48.76	344.82	9.00	
2025-01-20 11:19:48.97	344.78	9.01	
2025-01-20 11:19:49.17	344.75	9.01	
2025-01-20 11:19:49.37	344.71	9.02	
2025-01-20 11:19:49.58	344.67	9.03	
2025-01-20 11:19:49.78	344.63	9.03	
2025-01-20 11:19:49.98	344.59	9.04	
2025-01-20 11:19:50.18	344.56	9.04	
2025-01-20 11:19:50.39	344.52	9.05	
2025-01-20 11:19:50.59	344.48	9.05	
2025-01-20 11:19:50.79	344.44	9.06	
2025-01-20 11:19:51.00	344.40	9.06	
2025-01-20 11:19:51.20	344.36	9.07	
2025-01-20 11:19:51.40	344.33	9.07	
2025-01-20 11:19:51.61	344.29	9.08	
2025-01-20 11:19:51.81	344.25	9.08	
2025-01-20 11:19:52.01	344.21	9.09	
2025-01-20 11:19:52.22	344.17	9.10	
2025-01-20 11:19:52.42	344.13	9.10	
2025-01-20 11:19:52.62	344.10	9.11	
2025-01-20 11:19:52.82	344.06	9.11	
2025-01-20 11:19:53.03	344.02	9.12	
2025-01-20 11:19:53.23	343.98	9.12	
2025-01-20 11:19:53.43	343.94	9.13	
2025-01-20 11:19:53.64	343.90	9.13	
2025-01-20 11:19:53.84	343.87	9.14	
2025-01-20 11:19:54.04	343.83	9.14	
2025-01-20 11:19:54.25	343.79	9.15	
2025-01-20 11:19:54.45	343.75	9.15	
2025-01-20 11:19:54.65	343.71	9.16	
2025-01-20 11:19:54.86	343.67	9.16	
2025-01-20 11:19:55.06	343.63	9.17	
2025-01-20 11:19:55.26	343.60	9.17	
2025-01-20 11:19:55.47	343.56	9.18	
2025-01-20 11:19:55.67	343.52	9.18	
2025-01-20 11:19:55.87	343.48	9.19	
2025-01-20 11:19:56.07	343.44	9.19	
2025-01-20 11:19:56.28	343.40	9.20	
2025-01-20 11:19:56.48	343.36	9.20	
2025-01-20 11:19:56.68	343.33	9.21	
2025-01-20 11:19:56.89	343.29	9.21	
2025-01-20 11:19:57.09	343.25	9.22	
2025-01-20 11:19:57.29	343.21	9.22	
2025-01-20 11:19:57.50	343.17	9.23	
2025-01-20 11:19:57.70	343.13	9.23	
2025-01-20 11:19:57.90	343.09	9.24	
2025-01-20 11:19:58.11	343.05	9.24	
2025-01-20 11:19:58.31	343.02	9.25	
2025-01-20 11:19:58.51	342.98	9.25	
2025-01-20 11:19:58.71	342.94	9.26	
2025-01-20 11:19:58.92	342.90	9.26	
2025-01-20 11:19:59.12	342.86	9.27	
2025-01-20 11:19:59.32	342.82	9.27	
2025-01-20 11:19:59.53	342.78	9.28	
2025-01-20 11:19:59.73	342.74	9.28	
2025-01-20 11:19:59.93	342.71	9.29	
2025-01-20 11:20:00.14	342.67	9.29	
2025-01-20 11:20:00.34	342.63	9.30	
2025-01-20 11:20:00.54	342.59	9.30	
2025-01-20 11:20:00.75	342.55	9.31	
2025-01-20 11:20:00.95	342.51	9.31	
2025-01-20 11:20:01.15	342.47	9.32	
2025-01-20 11:20:01.36	342.43	9.32	
2025-01-20 11:20:01.56	342.39	9.33	
2025-01-20 11:20:01.76	342.35	9.33	
2025-01-20 11:20:01.96	342.32	9.34	
2025-01-20 11:20:02.17	342.28	9.34	
2025-01-20 11:20:02.37	342.24	9.35	
2025-01-20 11:20:02.57	342.20	9.35	
2025-01-20 11:20:02.78	342.16	9.35	
2025-01-20 11:20:02.98	342.12	9.36	
2025-01-20 11:20:03.18	342.08	9.36	
2025-01-20 11:20:03.39	342.04	9.37	
2025-01-20 11:20:03.59	342.00	9.37	
2025-01-20 11:20:03.79	341.96	9.38	
2025-01-20 11:20:04.00	341.92	9.38	
2025-01-20 11:20:04.20	341.89	9.39	
2025-01-20 11:20:04.40	341.85	9.39	
2025-01-20 11:20:04.60	341.81	9.40	
2025-01-20 11:20:04.81	341.77	9.40	
2025-01-20 11:20:05.01	341.73	9.41	
2025-01-20 11:20:05.21	341.69	9.41	
2025-01-20 11:20:05.42	341.65	9.41	
2025-01-20 11:20:05.62	341.61	9.42	
2025-01-20 11:20:05.82	341.57	9.42	
2025-01-20 11:20:06.03	341.53	9.43	
2025-01-20 11:20:06.23	341.49	9.43	
2025-01-20 11:20:06.43	341.45	9.44	
2025-01-20 11:20:06.64	341.41	9.44	
2025-01-20 11:20:06.84	341.37	9.45	
2025-01-20 11:20:07.04	341.34	9.45	
2025-01-20 11:20:07.25	341.30	9.46	
2025-01-20 11:20:07.45	341.26	9.46	
2025-01-20 11:20:07.65	341.22	9.46	
2025-01-20 11:20:07.85	341.18	9.47	
2025-01-20 11:20:08.06	341.14	9.47	
2025-01-20 11:20:08.26	341.10	9.48	
2025-01-20 11:20:08.46	341.06	9.48	
2025-01-20 11:20:08.67	341.02	9.49	
2025-01-20 11:20:08.87	340.98	9.49	
2025-01-20 11:20:09.07	340.94	9.50	
2025-01-20 11:20:09.28	340.90	9.50	
2025-01-20 11:20:09.48	340.86	9.50	
2025-01-20 11:20:09.68	340.82	9.51	
2025-01-20 11:20:09.89	340.78	9.51	
2025-01-20 11:20:10.09	340.74	9.52	
2025-01-20 11:20:10.29	340.70	9.52	
2025-01-20 11:20:10.49	340.67	9.53	
2025-01-20 11:20:10.70	340.62	9.53	
2025-01-20 11:20:10.90	340.59	9.53	
2025-01-20 11:20:11.10	340.55	9.54	
2025-01-20 11:20:11.31	340.51	9.54	
2025-01-20 11:20:11.51	340.47	9.55	
2025-01-20 11:20:11.71	340.43	9.55	
2025-01-20 11:20:11.92	340.39	9.56	
2025-01-20 11:20:12.12	340.35	9.56	
2025-01-20 11:20:12.32	340.31	9.56	
2025-01-20 11:20:12.53	340.27	9.57	
2025-01-20 11:20:12.73	340.23	9.57	
2025-01-20 11:20:12.93	340.19	9.58	
2025-01-20 11:20:13.14	340.15	9.58	
2025-01-20 11:20:13.34	340.11	9.58	
2025-01-20 11:20:13.54	340.07	9.59	
2025-01-20 11:20:13.74	340.03	9.59	
2025-01-20 11:20:13.95	339.99	9.60	
2025-01-20 11:20:14.15	339.95	9.60	
2025-01-20 11:20:14.35	339.91	9.60	
2025-01-20 11:20:14.56	339.87	9.61	
2025-01-20 11:20:14.76	339.83	9.61	
2025-01-20 11:20:14.96	339.79	9.62	
2025-01-20 11:20:15.17	339.75	9.62	
2025-01-20 11:20:15.37	339.71	9.63	
2025-01-20 11:20:15.57	339.67	9.63	
2025-01-20 11:20:15.78	339.63	9.63	
2025-01-20 11:20:15.98	339.59	9.64	
2025-01-20 11:20:16.18	339.55	9.64	
2025-01-20 11:20:16.38	339.51	9.64	
2025-01-20 11:20:16.59	339.47	9.65	
2025-01-20 11:20:16.79	339.43	9.65	
2025-01-20 11:20:16.99	339.39	9.66	
2025-01-20 11:20:17.20	339.35	9.66	
2025-01-20 11:20:17.40	339.31	9.66	
2025-01-20 11:20:17.60	339.27	9.67	
2025-01-20 11:20:17.81	339.23	9.67	
2025-01-20 11:20:18.01	339.19	9.68	
2025-01-20 11:20:18.21	339.15	9.68	
2025-01-20 11:20:18.42	339.11	9.68	
2025-01-20 11:20:18.62	339.07	9.69	
2025-01-20 11:20:18.82	339.03	9.69	
2025-01-20 11:20:19.03	338.99	9.70	
2025-01-20 11:20:19.23	338.95	9.70	
2025-01-20 11:20:19.43	338.91	9.70	
2025-01-20 11:20:19.63	338.87	9.71	
2025-01-20 11:20:19.84	338.83	9.71	
2025-01-20 11:20:20.04	338.79	9.71	
2025-01-20 11:20:20.24	338.75	9.72	
2025-01-20 11:20:20.45	338.71	9.72	
2025-01-20 11:20:20.65	338.67	9.73	
2025-01-20 11:20:20.85	338.63	9.73	
2025-01-20 11:20:21.06	338.59	9.73	
2025-01-20 11:20:21.26	338.55	9.74	
2025-01-20 11:20:21.46	338.51	9.74	
2025-01-20 11:20:21.67	338.47	9.74	
2025-01-20 11:20:21.87	338.43	9.75	
2025-01-20 11:20:22.07	338.39	9.75	
2025-01-20 11:20:22.27	338.35	9.75	
2025-01-20 11:20:22.48	338.31	9.76	
2025-01-20 11:20:22.68	338.27	9.76	
2025-01-20 11:20:22.88	338.23	9.76	
2025-01-20 11:20:23.09	338.19	9.77	
2025-01-20 11:20:23.29	338.15	9.77	
2025-01-20 11:20:23.49	338.11	9.78	
2025-01-20 11:20:23.70	338.06	9.78	
2025-01-20 11:20:23.90	338.02	9.78	
2025-01-20 11:20:24.10	337.98	9.79	
2025-01-20 11:20:24.31	337.94	9.79	
2025-01-20 11:20:24.51	337.90	9.79	
2025-01-20 11:20:24.71	337.86	9.80	
2025-01-20 11:20:24.92	337.82	9.80	
2025-01-20 11:20:25.12	337.78	9.80	
2025-01-20 11:20:25.32	337.74	9.81	
2025-01-20 11:20:25.52	337.70	9.81	
2025-01-20 11:20:25.73	337.66	9.81	
2025-01-20 11:20:25.93	337.62	9.82	
2025-01-20 11:20:26.13	337.58	9.82	
2025-01-20 11:20:26.34	337.54	9.82	
2025-01-20 11:20:26.54	337.50	9.83	
2025-01-20 11:20:26.74	337.46	9.83	
2025-01-20 11:20:26.95	337.42	9.83	
2025-01-20 11:20:27.15	337.38	9.84	
2025-01-20 11:20:27.35	337.34	9.84	
2025-01-20 11:20:27.56	337.30	9.84	
2025-01-20 11:20:27.76	337.26	9.85	
2025-01-20 11:20:27.96	337.22	9.85	
2025-01-20 11:20:28.16	337.18	9.85	
2025-01-20 11:20:28.37	337.13	9.86	
2025-01-20 11:20:28.57	337.09	9.86	
2025-01-20 11:20:28.77	337.05	9.86	
2025-01-20 11:20:28.98	337.01	9.87	
2025-01-20 11:20:29.18	336.97	9.87	
2025-01-20 11:20:29.38	336.93	9.87	
2025-01-20 11:20:29.59	336.89	9.88	
2025-01-20 11:20:29.79	336.85	9.88	
2025-01-20 11:20:29.99	336.81	9.88	
2025-01-20 11:20:30.20	336.77	9.89	
2025-01-20 11:20:30.40	336.73	9.89	
2025-01-20 11:20:30.60	336.69	9.89	
2025-01-20 11:20:30.81	336.64	9.89	
2025-01-20 11:20:31.01	336.60	9.90	
2025-01-20 11:20:31.21	336.56	9.90	
2025-01-20 11:20:31.41	336.52	9.90	
2025-01-20 11:20:31.62	336.48	9.91	
2025-01-20 11:20:31.82	336.44	9.91	
2025-01-20 11:20:32.02	336.40	9.91	
2025-01-20 11:20:32.23	336.36	9.92	
2025-01-20 11:20:32.43	336.32	9.92	
2025-01-20 11:20:32.63	336.28	9.92	
2025-01-20 11:20:32.84	336.24	9.92	
2025-01-20 11:20:33.04	336.20	9.93	
2025-01-20 11:20:33.24	336.16	9.93	
2025-01-20 11:20:33.45	336.11	9.93	
2025-01-20 11:20:33.65	336.07	9.94	
2025-01-20 11:20:33.85	336.03	9.94	
2025-01-20 11:20:34.05	335.99	9.94	
2025-01-20 11:20:34.26	335.95	9.94	
2025-01-20 11:20:34.46	335.91	9.95	
2025-01-20 11:20:34.66	335.87	9.95	
2025-01-20 11:20:34.87	335.83	9.95	
2025-01-20 11:20:35.07	335.79	9.96	
2025-01-20 11:20:35.27	335.75	9.96	
2025-01-20 11:20:35.48	335.71	9.96	
2025-01-20 11:20:35.68	335.67	9.96	
2025-01-20 11:20:35.88	335.63	9.97	
2025-01-20 11:20:36.09	335.58	9.97	
2025-01-20 11:20:36.29	335.54	9.97	
2025-01-20 11:20:36.49	335.50	9.98	
2025-01-20 11:20:36.70	335.46	9.98	
2025-01-20 11:20:36.90	335.42	9.98	
2025-01-20 11:20:37.10	335.38	9.98	
2025-01-20 11:20:37.30	335.34	9.99	
2025-01-20 11:20:37.51	335.30	9.99	
2025-01-20 11:20:37.71	335.26	9.99	
2025-01-20 11:20:37.91	335.22	9.99	
2025-01-20 11:20:38.12	335.17	10.00	
2025-01-20 11:20:38.32	335.13	10.00	
2025-01-20 11:20:38.52	335.09	10.00	
2025-01-20 11:20:38.73	335.05	10.00	
2025-01-20 11:20:38.93	335.01	10.01	
2025-01-20 11:20:39.13	334.97	10.01	
2025-01-20 11:20:39.34	334.93	10.01	
2025-01-20 11:20:39.54	334.89	10.01	
2025-01-20 11:20:39.74	334.85	10.02	
2025-01-20 11:20:39.94	334.81	10.02	
2025-01-20 11:20:40.15	334.76	10.02	
2025-01-20 11:20:40.35	334.72	10.02	
2025-01-20 11:20:40.55	334.68	10.03	
2025-01-20 11:20:40.76	334.64	10.03	
2025-01-20 11:20:40.96	334.60	10.03	
2025-01-20 11:20:41.16	334.56	10.03	
2025-01-20 11:20:41.37	334.52	10.04	
2025-01-20 11:20:41.57	334.48	10.04	
2025-01-20 11:20:41.77	334.43	10.04	
2025-01-20 11:20:41.98	334.39	10.04	
2025-01-20 11:20:42.18	334.35	10.05	
2025-01-20 11:20:42.38	334.31	10.05	
2025-01-20 11:20:42.59	334.27	10.05	
2025-01-20 11:20:42.79	334.23	10.05	
2025-01-20 11:20:42.99	334.19	10.06	
2025-01-20 11:20:43.19	334.15	10.06	
2025-01-20 11:20:43.40	334.10	10.06	
2025-01-20 11:20:43.60	334.06	10.06	
2025-01-20 11:20:43.80	334.02	10.06	
2025-01-20 11:20:44.01	333.98	10.07	
2025-01-20 11:20:44.21	333.94	10.07	
2025-01-20 11:20:44.41	333.90	10.07	
2025-01-20 11:20:44.62	333.86	10.07	
2025-01-20 11:20:44.82	333.82	10.08	
2025-01-20 11:20:45.02	333.78	10.08	
2025-01-20 11:20:45.23	333.73	10.08	
2025-01-20 11:20:45.43	333.69	10.08	
2025-01-20 11:20:45.63	333.65	10.08	
2025-01-20 11:20:45.83	333.61	10.09	
2025-01-20 11:20:46.04	333.57	10.09	
2025-01-20 11:20:46.24	333.53	10.09	
2025-01-20 11:20:46.44	333.49	10.09	
2025-01-20 11:20:46.65	333.44	10.10	
2025-01-20 11:20:46.85	333.40	10.10	
2025-01-20 11:20:47.05	333.36	10.10	
2025-01-20 11:20:47.26	333.32	10.10	
2025-01-20 11:20:47.46	333.28	10.10	
2025-01-20 11:20:47.66	333.24	10.11	
2025-01-20 11:20:47.87	333.20	10.11	
2025-01-20 11:20:48.07	333.15	10.11	
2025-01-20 11:20:48.27	333.11	10.11	
2025-01-20 11:20:48.48	333.07	10.11	
2025-01-20 11:20:48.68	333.03	10.12	
2025-01-20 11:20:48.88	332.99	10.12	
2025-01-20 11:20:49.08	332.95	10.12	
2025-01-20 11:20:49.29	332.91	10.12	
2025-01-20 11:20:49.49	332.87	10.12	
2025-01-20 11:20:49.69	332.82	10.12	
2025-01-20 11:20:49.90	332.78	10.13	
2025-01-20 11:20:50.10	332.74	10.13	
2025-01-20 11:20:50.30	332.70	10.13	
2025-01-20 11:20:50.51	332.66	10.13	
2025-01-20 11:20:50.71	332.62	10.13	
2025-01-20 11:20:50.91	332.58	10.14	
2025-01-20 11:20:51.12	332.53	10.14	
2025-01-20 11:20:51.32	332.49	10.14	
2025-01-20 11:20:51.52	332.45	10.14	
2025-01-20 11:20:51.72	332.41	10.14	
2025-01-20 11:20:51.93	332.37	10.14	
2025-01-20 11:20:52.13	332.33	10.15	
2025-01-20 11:20:52.33	332.29	10.15	
2025-01-20 11:20:52.54	332.24	10.15	
2025-01-20 11:20:52.74	332.20	10.15	
2025-01-20 11:20:52.94	332.16	10.15	
2025-01-20 11:20:53.15	332.12	10.15	
2025-01-20 11:20:53.35	332.08	10.16	
2025-01-20 11:20:53.55	332.04	10.16	
2025-01-20 11:20:53.76	331.99	10.16	
2025-01-20 11:20:53.96	331.95	10.16	
2025-01-20 11:20:54.16	331.91	10.16	
2025-01-20 11:20:54.37	331.87	10.16	
2025-01-20 11:20:54.57	331.83	10.17	
2025-01-20 11:20:54.77	331.79	10.17	
2025-01-20 11:20:54.97	331.75	10.17	
2025-01-20 11:20:55.18	331.70	10.17	
2025-01-20 11:20:55.38	331.66	10.17	
2025-01-20 11:20:55.58	331.62	10.17	
2025-01-20 11:20:55.79	331.58	10.17	
2025-01-20 11:20:55.99	331.54	10.18	
2025-01-20 11:20:56.19	331.50	10.18	
2025-01-20 11:20:56.40	331.45	10.18	
2025-01-20 11:20:56.60	331.41	10.18	
2025-01-20 11:20:56.80	331.37	10.18	
2025-01-20 11:20:57.01	331.33	10.18	
2025-01-20 11:20:57.21	331.29	10.18	
2025-01-20 11:20:57.41	331.25	10.19	
2025-01-20 11:20:57.61	331.20	10.19	
2025-01-20 11:20:57.82	331.16	10.19	
2025-01-20 11:20:58.02	331.12	10.19	
2025-01-20 11:20:58.22	331.08	10.19	
2025-01-20 11:20:58.43	331.04	10.19	
2025-01-20 11:20:58.63	331.00	10.19	
2025-01-20 11:20:58.83	330.95	10.19	
2025-01-20 11:20:59.04	330.91	10.20	
2025-01-20 11:20:59.24	330.87	10.20	
2025-01-20 11:20:59.44	330.83	10.20	
2025-01-20 11:20:59.65	330.79	10.20	
2025-01-20 11:20:59.85	330.75	10.20	
2025-01-20 11:21:00.05	330.70	10.20	
2025-01-20 11:21:00.26	330.66	10.20	
2025-01-20 11:21:00.46	330.62	10.20	
2025-01-20 11:21:00.66	330.58	10.21	
2025-01-20 11:21:00.86	330.54	10.21	
2025-01-20 11:21:01.07	330.50	10.21	
2025-01-20 11:21:01.27	330.45	10.21	
2025-01-20 11:21:01.47	330.41	10.21	
2025-01-20 11:21:01.68	330.37	10.21	
2025-01-20 11:21:01.88	330.33	10.21	
2025-01-20 11:21:02.08	330.29	10.21	
2025-01-20 11:21:02.29	330.24	10.21	
2025-01-20 11:21:02.49	330.20	10.21	
2025-01-20 11:21:02.69	330.16	10.22	
2025-01-20 11:21:02.90	330.12	10.22	
2025-01-20 11:21:03.10	330.08	10.22	
2025-01-20 11:21:03.30	330.04	10.22	
2025-01-20 11:21:03.50	330.00	10.22	
2025-01-20 11:21:03.71	329.95	10.22	
2025-01-20 11:21:03.91	329.91	10.22	
2025-01-20 11:21:04.11	329.87	10.22	
2025-01-20 11:21:04.32	329.83	10.22	
2025-01-20 11:21:04.52	329.79	10.22	
2025-01-20 11:21:04.72	329.75	10.23	
2025-01-20 11:21:04.93	329.70	10.23	
2025-01-20 11:21:05.13	329.66	10.23	
2025-01-20 11:21:05.33	329.62	10.23	
2025-01-20 11:21:05.54	329.58	10.23	
2025-01-20 11:21:05.74	329.54	10.23	
2025-01-20 11:21:05.94	329.49	10.23	
2025-01-20 11:21:06.15	329.45	10.23	
2025-01-20 11:21:06.35	329.41	10.23	
2025-01-20 11:21:06.55	329.37	10.23	
2025-01-20 11:21:06.75	329.33	10.23	
2025-01-20 11:21:06.96	329.28	10.23	
2025-01-20 11:21:07.16	329.24	10.23	
2025-01-20 11:21:07.36	329.20	10.24	
2025-01-20 11:21:07.57	329.16	10.24	
2025-01-20 11:21:07.77	329.12	10.24	
2025-01-20 11:21:07.97	329.08	10.24	
2025-01-20 11:21:08.18	329.03	10.24	
2025-01-20 11:21:08.38	328.99	10.24	
2025-01-20 11:21:08.58	328.95	10.24	
2025-01-20 11:21:08.79	328.91	10.24	
2025-01-20 11:21:08.99	328.87	10.24	
2025-01-20 11:21:09.19	328.83	10.24	
2025-01-20 11:21:09.39	328.78	10.24	
2025-01-20 11:21:09.60	328.74	10.24	
2025-01-20 11:21:09.80	328.70	10.24	
2025-01-20 11:21:10.00	328.66	10.24	
2025-01-20 11:21:10.21	328.62	10.24	
2025-01-20 11:21:10.41	328.57	10.24	
2025-01-20 11:21:10.61	328.53	10.24	
2025-01-20 11:21:10.82	328.49	10.24	
2025-01-20 11:21:11.02	328.45	10.25	
2025-01-20 11:21:11.22	328.41	10.25	
2025-01-20 11:21:11.43	328.36	10.25	
2025-01-20 11:21:11.63	328.32	10.25	
2025-01-20 11:21:11.83	328.28	10.25	
2025-01-20 11:21:12.04	328.24	10.25	
2025-01-20 11:21:12.24	328.20	10.25	
2025-01-20 11:21:12.44	328.16	10.25	
2025-01-20 11:21:12.64	328.12	10.25	
2025-01-20 11:21:12.85	328.07	10.25	
2025-01-20 11:21:13.05	328.03	10.25	
2025-01-20 11:21:13.25	327.99	10.25	
2025-01-20 11:21:13.46	327.95	10.25	
2025-01-20 11:21:13.66	327.91	10.25	
2025-01-20 11:21:13.86	327.86	10.25	
2025-01-20 11:21:14.07	327.82	10.25	
2025-01-20 11:21:14.27	327.78	10.25	
2025-01-20 11:21:14.47	327.74	10.25	
2025-01-20 11:21:14.68	327.70	10.25	
2025-01-20 11:21:14.88	327.65	10.25	
2025-01-20 11:21:15.08	327.61	10.25	
2025-01-20 11:21:15.28	327.57	10.25	
2025-01-20 11:21:15.49	327.53	10.25	
2025-01-20 11:21:15.69	327.49	10.25	
2025-01-20 11:21:15.89	327.45	10.25	
2025-01-20 11:21:16.10	327.40	10.25	
2025-01-20 11:21:16.30	327.36	10.25	
2025-01-20 11:21:16.50	327.32	10.25	
2025-01-20 11:21:16.71	327.28	10.25	
2025-01-20 11:21:16.91	327.24	10.25	
2025-01-20 11:21:17.11	327.20	10.25	
2025-01-20 11:21:17.32	327.15	10.25	
2025-01-20 11:21:17.52	327.11	10.25	
2025-01-20 11:21:17.72	327.07	10.25	
2025-01-20 11:21:17.93	327.03	10.25	
2025-01-20 11:21:18.13	326.98	10.25	
2025-01-20 11:21:18.33	326.94	10.25	
2025-01-20 11:21:18.53	326.90	10.25	
2025-01-20 11:21:18.74	326.86	10.25	
2025-01-20 11:21:18.94	326.82	10.25	
2025-01-20 11:21:19.14	326.78	10.25	
2025-01-20 11:21:19.35	326.73	10.25	
2025-01-20 11:21:19.55	326.69	10.25	
2025-01-20 11:21:19.75	326.65	10.25	
2025-01-20 11:21:19.96	326.61	10.25	
2025-01-20 11:21:20.16	326.57	10.25	
2025-01-20 11:21:20.36	326.53	10.25	
2025-01-20 11:21:20.57	326.48	10.25	
2025-01-20 11:21:20.77	326.44	10.25	
2025-01-20 11:21:20.97	326.40	10.25	
2025-01-20 11:21:21.17	326.36	10.25	
2025-01-20 11:21:21.38	326.32	10.25	
2025-01-20 11:21:21.58	326.27	10.25	
2025-01-20 11:21:21.78	326.23	10.25	
2025-01-20 11:21:21.99	326.19	10.25	
2025-01-20 11:21:22.19	326.15	10.25	
2025-01-20 11:21:22.39	326.11	10.25	
2025-01-20 11:21:22.60	326.06	10.25	
2025-01-20 11:21:22.80	326.02	10.25	
2025-01-20 11:21:23.00	325.98	10.25	
2025-01-20 11:21:23.21	325.94	10.25	
2025-01-20 11:21:23.41	325.90	10.25	
2025-01-20 11:21:23.61	325.86	10.25	
2025-01-20 11:21:23.82	325.81	10.24	
2025-01-20 11:21:24.02	325.77	10.24	
2025-01-20 11:21:24.22	325.73	10.24	
2025-01-20 11:21:24.42	325.69	10.24	
2025-01-20 11:21:24.63	325.65	10.24	
2025-01-20 11:21:24.83	325.61	10.24	
2025-01-20 11:21:25.03	325.56	10.24	
2025-01-20 11:21:25.24	325.52	10.24	
2025-01-20 11:21:25.44	325.48	10.24	
2025-01-20 11:21:25.64	325.44	10.24	
2025-01-20 11:21:25.85	325.40	10.24	
2025-01-20 11:21:26.05	325.35	10.24	
2025-01-20 11:21:26.25	325.31	10.24	
2025-01-20 11:21:26.46	325.27	10.24	
2025-01-20 11:21:26.66	325.23	10.24	
2025-01-20 11:21:26.86	325.19	10.24	
2025-01-20 11:21:27.06	325.15	10.24	
2025-01-20 11:21:27.27	325.10	10.24	
2025-01-20 11:21:27.47	325.06	10.23	
2025-01-20 11:21:27.67	325.02	10.23	
2025-01-20 11:21:27.88	324.98	10.23	
2025-01-20 11:21:28.08	324.94	10.23	
2025-01-20 11:21:28.28	324.90	10.23	
2025-01-20 11:21:28.49	324.85	10.23	
2025-01-20 11:21:28.69	324.81	10.23	
2025-01-20 11:21:28.89	324.77	10.23	
2025-01-20 11:21:29.10	324.73	10.23	
2025-01-20 11:21:29.30	324.69	10.23	
2025-01-20 11:21:29.50	324.64	10.23	
2025-01-20 11:21:29.71	324.60	10.23	
2025-01-20 11:21:29.91	324.56	10.23	
2025-01-20 11:21:30.11	324.52	10.22	
2025-01-20 11:21:30.31	324.48	10.22	
2025-01-20 11:21:30.52	324.43	10.22	
2025-01-20 11:21:30.72	324.39	10.22	
2025-01-20 11:21:30.92	324.35	10.22	
2025-01-20 11:21:31.13	324.31	10.22	
2025-01-20 11:21:31.33	324.27	10.22	
2025-01-20 11:21:31.53	324.23	10.22	
2025-01-20 11:21:31.74	324.18	10.22	
2025-01-20 11:21:31.94	324.14	10.22	
2025-01-20 11:21:32.14	324.10	10.21	
2025-01-20 11:21:32.35	324.06	10.21	
2025-01-20 11:21:32.55	324.02	10.21	
2025-01-20 11:21:32.75	323.98	10.21	
2025-01-20 11:21:32.95	323.94	10.21	
2025-01-20 11:21:33.16	323.89	10.21	
2025-01-20 11:21:33.36	323.85	10.21	
2025-01-20 11:21:33.56	323.81	10.21	
2025-01-20 11:21:33.77	323.77	10.21	
2025-01-20 11:21:33.97	323.73	10.21	
2025-01-20 11:21:34.17	323.68	10.20	
2025-01-20 11:21:34.38	323.64	10.20	
2025-01-20 11:21:34.58	323.60	10.20	
2025-01-20 11:21:34.78	323.56	10.20	
2025-01-20 11:21:34.99	323.52	10.20	
2025-01-20 11:21:35.19	323.48	10.20	
2025-01-20 11:21:35.39	323.43	10.20	
2025-01-20 11:21:35.60	323.39	10.20	
2025-01-20 11:21:35.80	323.35	10.19	
2025-01-20 11:21:36.00	323.31	10.19	
2025-01-20 11:21:36.20	323.27	10.19	
2025-01-20 11:21:36.41	323.23	10.19	
2025-01-20 11:21:36.61	323.18	10.19	
2025-01-20 11:21:36.81	323.14	10.19	
2025-01-20 11:21:37.02	323.10	10.19	
2025-01-20 11:21:37.22	323.06	10.19	
2025-01-20 11:21:37.42	323.02	10.18	
2025-01-20 11:21:37.63	322.97	10.18	
2025-01-20 11:21:37.83	322.93	10.18	
2025-01-20 11:21:38.03	322.89	10.18	
2025-01-20 11:21:38.24	322.85	10.18	
2025-01-20 11:21:38.44	322.81	10.18	
2025-01-20 11:21:38.64	322.77	10.18	
2025-01-20 11:21:38.84	322.73	10.17	
2025-01-20 11:21:39.05	322.68	10.17	
2025-01-20 11:21:39.25	322.64	10.17	
2025-01-20 11:21:39.45	322.60	10.17	
2025-01-20 11:21:39.66	322.56	10.17	
2025-01-20 11:21:39.86	322.52	10.17	
2025-01-20 11:21:40.06	322.48	10.17	
2025-01-20 11:21:40.27	322.43	10.16	
2025-01-20 11:21:40.47	322.39	10.16	
2025-01-20 11:21:40.67	322.35	10.16	
2025-01-20 11:21:40.88	322.31	10.16	
2025-01-20 11:21:41.08	322.27	10.16	
2025-01-20 11:21:41.28	322.23	10.16	
2025-01-20 11:21:41.48	322.19	10.15	
2025-01-20 11:21:41.69	322.14	10.15	
2025-01-20 11:21:41.89	322.10	10.15	
2025-01-20 11:21:42.09	322.06	10.15	
2025-01-20 11:21:42.30	322.02	10.15	
2025-01-20 11:21:42.50	321.98	10.15	
2025-01-20 11:21:42.70	321.94	10.14	
2025-01-20 11:21:42.91	321.89	10.14	
2025-01-20 11:21:43.11	321.85	10.14	
2025-01-20 11:21:43.31	321.81	10.14	
2025-01-20 11:21:43.52	321.77	10.14	
2025-01-20 11:21:43.72	321.73	10.14	
2025-01-20 11:21:43.92	321.69	10.13	
2025-01-20 11:21:44.13	321.64	10.13	
2025-01-20 11:21:44.33	321.60	10.13	
2025-01-20 11:21:44.53	321.56	10.13	
2025-01-20 11:21:44.73	321.52	10.13	
2025-01-20 11:21:44.94	321.48	10.12	
2025-01-20 11:21:45.14	321.44	10.12	
2025-01-20 11:21:45.34	321.40	10.12	
2025-01-20 11:21:45.55	321.36	10.12	
2025-01-20 11:21:45.75	321.31	10.12	
2025-01-20 11:21:45.95	321.27	10.11	
2025-01-20 11:21:46.16	321.23	10.11	
2025-01-20 11:21:46.36	321.19	10.11	
2025-01-20 11:21:46.56	321.15	10.11	
2025-01-20 11:21:46.77	321.11	10.11	
2025-01-20 11:21:46.97	321.07	10.11	
2025-01-20 11:21:47.17	321.02	10.10	
2025-01-20 11:21:47.38	320.98	10.10	
2025-01-20 11:21:47.58	320.94	10.10	
2025-01-20 11:21:47.78	320.90	10.10	
2025-01-20 11:21:47.98	320.86	10.10	
2025-01-20 11:21:48.19	320.82	10.09	
2025-01-20 11:21:48.39	320.78	10.09	
2025-01-20 11:21:48.59	320.74	10.09	
2025-01-20 11:21:48.80	320.69	10.09	
2025-01-20 11:21:49.00	320.65	10.08	
2025-01-20 11:21:49.20	320.61	10.08	
2025-01-20 11:21:49.41	320.57	10.08	
2025-01-20 11:21:49.61	320.53	10.08	
2025-01-20 11:21:49.81	320.49	10.08	
2025-01-20 11:21:50.02	320.44	10.07	
2025-01-20 11:21:50.22	320.40	10.07	
2025-01-20 11:21:50.42	320.36	10.07	
2025-01-20 11:21:50.62	320.32	10.07	
2025-01-20 11:21:50.83	320.28	10.06	
2025-01-20 11:21:51.03	320.24	10.06	
2025-01-20 11:21:51.23	320.20	10.06	
2025-01-20 11:21:51.44	320.16	10.06	
2025-01-20 11:21:51.64	320.12	10.06	
2025-01-20 11:21:51.84	320.07	10.05	
2025-01-20 11:21:52.05	320.03	10.05	
2025-01-20 11:21:52.25	319.99	10.05	
2025-01-20 11:21:52.45	319.95	10.05	
2025-01-20 11:21:52.66	319.91	10.04	
2025-01-20 11:21:52.86	319.87	10.04	
2025-01-20 11:21:53.06	319.83	10.04	
2025-01-20 11:21:53.26	319.79	10.04	
2025-01-20 11:21:53.47	319.74	10.03	
2025-01-20 11:21:53.67	319.70	10.03	
2025-01-20 11:21:53.87	319.66	10.03	
2025-01-20 11:21:54.08	319.62	10.03	
2025-01-20 11:21:54.28	319.58	10.02	
2025-01-20 11:21:54.48	319.54	10.02	
2025-01-20 11:21:54.69	319.50	10.02	
2025-01-20 11:21:54.89	319.46	10.02	
2025-01-20 11:21:55.09	319.42	10.01	
2025-01-20 11:21:55.30	319.37	10.01	
2025-01-20 11:21:55.50	319.33	10.01	
2025-01-20 11:21:55.70	319.29	10.01	
2025-01-20 11:21:55.91	319.25	10.00	
2025-01-20 11:21:56.11	319.21	10.00	
2025-01-20 11:21:56.31	319.17	10.00	
2025-01-20 11:21:56.51	319.13	10.00	
2025-01-20 11:21:56.72	319.09	9.99	
2025-01-20 11:21:56.92	319.05	9.99	
2025-01-20 11:21:57.12	319.01	9.99	
2025-01-20 11:21:57.33	318.96	9.99	
2025-01-20 11:21:57.53	318.92	9.98	
2025-01-20 11:21:57.73	318.88	9.98	
2025-01-20 11:21:57.94	318.84	9.98	
2025-01-20 11:21:58.14	318.80	9.98	
2025-01-20 11:21:58.34	318.76	9.97	
2025-01-20 11:21:58.55	318.72	9.97	
2025-01-20 11:21:58.75	318.68	9.97	
2025-01-20 11:21:58.95	318.64	9.96	
2025-01-20 11:21:59.16	318.59	9.96	
2025-01-20 11:21:59.36	318.55	9.96	
2025-01-20 11:21:59.56	318.51	9.96	
2025-01-20 11:21:59.76	318.47	9.95	
2025-01-20 11:21:59.97	318.43	9.95	
2025-01-20 11:22:00.17	318.39	9.95	
2025-01-20 11:22:00.37	318.35	9.94	
2025-01-20 11:22:00.58	318.31	9.94	
2025-01-20 11:22:00.78	318.27	9.94	
2025-01-20 11:22:00.98	318.23	9.94	
2025-01-20 11:22:01.19	318.18	9.93	
2025-01-20 11:22:01.39	318.14	9.93	
2025-01-20 11:22:01.59	318.10	9.93	
2025-01-20 11:22:01.80	318.06	9.92	
2025-01-20 11:22:02.00	318.02	9.92	
2025-01-20 11:22:02.20	317.98	9.92	
2025-01-20 11:22:02.40	317.94	9.92	
2025-01-20 11:22:02.61	317.90	9.91	
2025-01-20 11:22:02.81	317.86	9.91	
2025-01-20 11:22:03.01	317.82	9.91	
2025-01-20 11:22:03.22	317.78	9.90	
2025-01-20 11:22:03.42	317.74	9.90	
2025-01-20 11:22:03.62	317.70	9.90	
2025-01-20 11:22:03.83	317.65	9.89	
2025-01-20 11:22:04.03	317.61	9.89	
2025-01-20 11:22:04.23	317.57	9.89	
2025-01-20 11:22:04.44	317.53	9.88	
2025-01-20 11:22:04.64	317.49	9.88	
2025-01-20 11:22:04.84	317.45	9.88	
2025-01-20 11:22:05.05	317.41	9.88	
2025-01-20 11:22:05.25	317.37	9.87	
2025-01-20 11:22:05.45	317.33	9.87	
2025-01-20 11:22:05.65	317.29	9.87	
2025-01-20 11:22:05.86	317.25	9.86	
2025-01-20 11:22:06.06	317.21	9.86	
2025-01-20 11:22:06.26	317.17	9.86	
2025-01-20 11:22:06.47	317.12	9.85	
2025-01-20 11:22:06.67	317.08	9.85	
2025-01-20 11:22:06.87	317.04	9.85	
2025-01-20 11:22:07.08	317.00	9.84	
2025-01-20 11:22:07.28	316.96	9.84	
2025-01-20 11:22:07.48	316.92	9.84	
2025-01-20 11:22:07.69	316.88	9.83	
2025-01-20 11:22:07.89	316.84	9.83	
2025-01-20 11:22:08.09	316.80	9.83	
2025-01-20 11:22:08.29	316.76	9.82	
2025-01-20 11:22:08.50	316.72	9.82	
2025-01-20 11:22:08.70	316.68	9.82	
2025-01-20 11:22:08.90	316.64	9.81	
2025-01-20 11:22:09.11	316.60	9.81	
2025-01-20 11:22:09.31	316.56	9.81	
2025-01-20 11:22:09.51	316.52	9.80	
2025-01-20 11:22:09.72	316.48	9.80	
2025-01-20 11:22:09.92	316.44	9.80	
2025-01-20 11:22:10.12	316.40	9.79	
2025-01-20 11:22:10.33	316.35	9.79	
2025-01-20 11:22:10.53	316.31	9.79	
2025-01-20 11:22:10.73	316.27	9.78	
2025-01-20 11:22:10.94	316.23	9.78	
2025-01-20 11:22:11.14	316.19	9.78	
2025-01-20 11:22:11.34	316.15	9.77	
2025-01-20 11:22:11.54	316.11	9.77	
2025-01-20 11:22:11.75	316.07	9.76	
2025-01-20 11:22:11.95	316.03	9.76	
2025-01-20 11:22:12.15	315.99	9.76	
2025-01-20 11:22:12.36	315.95	9.75	
2025-01-20 11:22:12.56	315.91	9.75	
2025-01-20 11:22:12.76	315.87	9.75	
2025-01-20 11:22:12.97	315.83	9.74	
2025-01-20 11:22:13.17	315.79	9.74	
2025-01-20 11:22:13.37	315.75	9.74	
2025-01-20 11:22:13.58	315.71	9.73	
2025-01-20 11:22:13.78	315.67	9.73	
2025-01-20 11:22:13.98	315.63	9.72	
2025-01-20 11:22:14.18	315.59	9.72	
2025-01-20 11:22:14.39	315.55	9.72	
2025-01-20 11:22:14.59	315.51	9.71	
2025-01-20 11:22:14.79	315.47	9.71	
2025-01-20 11:22:15.00	315.43	9.71	
2025-01-20 11:22:15.20	315.39	9.70	
2025-01-20 11:22:15.40	315.35	9.70	
2025-01-20 11:22:15.61	315.31	9.69	
2025-01-20 11:22:15.81	315.27	9.69	
2025-01-20 11:22:16.01	315.23	9.69	
2025-01-20 11:22:16.22	315.19	9.68	
2025-01-20 11:22:16.42	315.15	9.68	
2025-01-20 11:22:16.62	315.11	9.68	
2025-01-20 11:22:16.83	315.07	9.67	
2025-01-20 11:22:17.03	315.03	9.67	
2025-01-20 11:22:17.23	314.99	9.66	
2025-01-20 11:22:17.43	314.95	9.66	
2025-01-20 11:22:17.64	314.91	9.66	
2025-01-20 11:22:17.84	314.87	9.65	
2025-01-20 11:22:18.04	314.83	9.65	
2025-01-20 11:22:18.25	314.79	9.64	
2025-01-20 11:22:18.45	314.75	9.64	
2025-01-20 11:22:18.65	314.71	9.64	
2025-01-20 11:22:18.86	314.67	9.63	
2025-01-20 11:22:19.06	314.63	9.63	
2025-01-20 11:22:19.26	314.59	9.62	
2025-01-20 11:22:19.47	314.55	9.62	
2025-01-20 11:22:19.67	314.51	9.62	
2025-01-20 11:22:19.87	314.47	9.61	
2025-01-20 11:22:20.07	314.43	9.61	
2025-01-20 11:22:20.28	314.39	9.60	
2025-01-20 11:22:20.48	314.35	9.60	
2025-01-20 11:22:20.68	314.31	9.60	
2025-01-20 11:22:20.89	314.27	9.59	
2025-01-20 11:22:21.09	314.23	9.59	
2025-01-20 11:22:21.29	314.19	9.58	
2025-01-20 11:22:21.50	314.15	9.58	
2025-01-20 11:22:21.70	314.11	9.58	
2025-01-20 11:22:21.90	314.07	9.57	
2025-01-20 11:22:22.11	314.03	9.57	
2025-01-20 11:22:22.31	313.99	9.56	
2025-01-20 11:22:22.51	313.95	9.56	
2025-01-20 11:22:22.72	313.91	9.55	
2025-01-20 11:22:22.92	313.87	9.55	
2025-01-20 11:22:23.12	313.83	9.55	
2025-01-20 11:22:23.32	313.79	9.54	
2025-01-20 11:22:23.53	313.75	9.54	
2025-01-20 11:22:23.73	313.71	9.53	
2025-01-20 11:22:23.93	313.67	9.53	
2025-01-20 11:22:24.14	313.63	9.53	
2025-01-20 11:22:24.34	313.59	9.52	
2025-01-20 11:22:24.54	313.55	9.52	
2025-01-20 11:22:24.75	313.51	9.51	
2025-01-20 11:22:24.95	313.47	9.51	
2025-01-20 11:22:25.15	313.43	9.50	
2025-01-20 11:22:25.36	313.39	9.50	
2025-01-20 11:22:25.56	313.35	9.49	
2025-01-20 11:22:25.76	313.31	9.49	
2025-01-20 11:22:25.96	313.28	9.49	
2025-01-20 11:22:26.17	313.23	9.48	
2025-01-20 11:22:26.37	313.20	9.48	
2025-01-20 11:22:26.57	313.16	9.47	
2025-01-20 11:22:26.78	313.12	9.47	
2025-01-20 11:22:26.98	313.08	9.46	
2025-01-20 11:22:27.18	313.04	9.46	
2025-01-20 11:22:27.39	313.00	9.45	
2025-01-20 11:22:27.59	312.96	9.45	
2025-01-20 11:22:27.79	312.92	9.45	
2025-01-20 11:22:28.00	312.88	9.44	
2025-01-20 11:22:28.20	312.84	9.44	
2025-01-20 11:22:28.40	312.80	9.43	
2025-01-20 11:22:28.61	312.76	9.43	
2025-01-20 11:22:28.81	312.72	9.42	
2025-01-20 11:22:29.01	312.68	9.42	
2025-01-20 11:22:29.21	312.64	9.41	
2025-01-20 11:22:29.42	312.60	9.41	
2025-01-20 11:22:29.62	312.57	9.41	
2025-01-20 11:22:29.82	312.53	9.40	
2025-01-20 11:22:30.03	312.49	9.40	
2025-01-20 11:22:30.23	312.45	9.39	
2025-01-20 11:22:30.43	312.41	9.39	
2025-01-20 11:22:30.64	312.37	9.38	
2025-01-20 11:22:30.84	312.33	9.38	
2025-01-20 11:22:31.04	312.29	9.37	
2025-01-20 11:22:31.25	312.25	9.37	
2025-01-20 11:22:31.45	312.21	9.36	
2025-01-20 11:22:31.65	312.17	9.36	
2025-01-20 11:22:31.85	312.13	9.35	
2025-01-20 11:22:32.06	312.09	9.35	
2025-01-20 11:22:32.26	312.06	9.34	
2025-01-20 11:22:32.46	312.02	9.34	
2025-01-20 11:22:32.67	311.98	9.33	
2025-01-20 11:22:32.87	311.94	9.33	
2025-01-20 11:22:33.07	311.90	9.33	
2025-01-20 11:22:33.28	311.86	9.32	
2025-01-20 11:22:33.48	311.82	9.32	
2025-01-20 11:22:33.68	311.78	9.31	
2025-01-20 11:22:33.89	311.74	9.31	
2025-01-20 11:22:34.09	311.70	9.30	
2025-01-20 11:22:34.29	311.67	9.30	
2025-01-20 11:22:34.50	311.63	9.29	
2025-01-20 11:22:34.70	311.59	9.29	
2025-01-20 11:22:34.90	311.55	9.28	
2025-01-20 11:22:35.10	311.51	9.28	
2025-01-20 11:22:35.31	311.47	9.27	
2025-01-20 11:22:35.51	311.43	9.27	
2025-01-20 11:22:35.71	311.39	9.26	
2025-01-20 11:22:35.92	311.35	9.26	
2025-01-20 11:22:36.12	311.31	9.25	
2025-01-20 11:22:36.32	311.28	9.25	
2025-01-20 11:22:36.53	311.24	9.24	
2025-01-20 11:22:36.73	311.20	9.24	
2025-01-20 11:22:36.93	311.16	9.23	
2025-01-20 11:22:37.14	311.12	9.23	
2025-01-20 11:22:37.34	311.08	9.22	
2025-01-20 11:22:37.54	311.04	9.22	
2025-01-20 11:22:37.74	311.01	9.21	
2025-01-20 11:22:37.95	310.97	9.21	
2025-01-20 11:22:38.15	310.93	9.20	
2025-01-20 11:22:38.35	310.89	9.20	
2025-01-20 11:22:38.56	310.85	9.19	
2025-01-20 11:22:38.76	310.81	9.19	
2025-01-20 11:22:38.96	310.77	9.18	
2025-01-20 11:22:39.17	310.73	9.18	
2025-01-20 11:22:39.37	310.69	9.17	
2025-01-20 11:22:39.57	310.66	9.17	
2025-01-20 11:22:39.78	310.62	9.16	
2025-01-20 11:22:39.98	310.58	9.16	
2025-01-20 11:22:40.18	310.54	9.15	
2025-01-20 11:22:40.39	310.50	9.15	
2025-01-20 11:22:40.59	310.46	9.14	
2025-01-20 11:22:40.79	310.43	9.14	
2025-01-20 11:22:40.99	310.39	9.13	
2025-01-20 11:22:41.20	310.35	9.13	
2025-01-20 11:22:41.40	310.31	9.12	
2025-01-20 11:22:41.60	310.27	9.12	
2025-01-20 11:22:41.81	310.23	9.11	
2025-01-20 11:22:42.01	310.19	9.10	
2025-01-20 11:22:42.21	310.16	9.10	
2025-01-20 11:22:42.42	310.12	9.09	
2025-01-20 11:22:42.62	310.08	9.09	
2025-01-20 11:22:42.82	310.04	9.08	
2025-01-20 11:22:43.03	310.00	9.08	
2025-01-20 11:22:43.23	309.96	9.07	
2025-01-20 11:22:43.43	309.93	9.07	
2025-01-20 11:22:43.63	309.89	9.06	
2025-01-20 11:22:43.84	309.85	9.06	
2025-01-20 11:22:44.04	309.81	9.05	
2025-01-20 11:22:44.24	309.77	9.05	
2025-01-20 11:22:44.45	309.73	9.04	
2025-01-20 11:22:44.65	309.70	9.04	
2025-01-20 11:22:44.85	309.66	9.03	
2025-01-20 11:22:45.06	309.62	9.02	
2025-01-20 11:22:45.26	309.58	9.02	
2025-01-20 11:22:45.46	309.54	9.01	
2025-01-20 11:22:45.67	309.50	9.01	
2025-01-20 11:22:45.87	309.47	9.00	
2025-01-20 11:22:46.07	309.43	9.00	
2025-01-20 11:22:46.28	309.39	8.99	
2025-01-20 11:22:46.48	309.35	8.99	
2025-01-20 11:22:46.68	309.31	8.98	
2025-01-20 11:22:46.88	309.28	8.98	
2025-01-20 11:22:47.09	309.24	8.97	
2025-01-20 11:22:47.29	309.20	8.96	
2025-01-20 11:22:47.49	309.16	8.96	
2025-01-20 11:22:47.70	309.12	8.95	
2025-01-20 11:22:47.90	309.09	8.95	
2025-01-20 11:22:48.10	309.05	8.94	
2025-01-20 11:22:48.31	309.01	8.94	
2025-01-20 11:22:48.51	308.97	8.93	
2025-01-20 11:22:48.71	308.93	8.93	
2025-01-20 11:22:48.92	308.90	8.92	
2025-01-20 11:22:49.12	308.86	8.91	
2025-01-20 11:22:49.32	308.82	8.91	
2025-01-20 11:22:49.52	308.78	8.90	
2025-01-20 11:22:49.73	308.74	8.90	
2025-01-20 11:22:49.93	308.71	8.89	
2025-01-20 11:22:50.13	308.67	8.89	
2025-01-20 11:22:50.34	308.63	8.88	
2025-01-20 11:22:50.54	308.59	8.88	
2025-01-20 11:22:50.74	308.56	8.87	
2025-01-20 11:22:50.95	308.52	8.86	
2025-01-20 11:22:51.15	308.48	8.86	
2025-01-20 11:22:51.35	308.44	8.85	
2025-01-20 11:22:51.56	308.40	8.85	
2025-01-20 11:22:51.76	308.37	8.84	
2025-01-20 11:22:51.96	308.33	8.84	
2025-01-20 11:22:52.17	308.29	8.83	
2025-01-20 11:22:52.37	308.25	8.82	
2025-01-20 11:22:52.57	308.22	8.82	
2025-01-20 11:22:52.77	308.18	8.81	
2025-01-20 11:22:52.98	308.14	8.81	
2025-01-20 11:22:53.18	308.10	8.80	
2025-01-20 11:22:53.38	308.07	8.80	
2025-01-20 11:22:53.59	308.03	8.79	
2025-01-20 11:22:53.79	307.99	8.78	
2025-01-20 11:22:53.99	307.95	8.78	
2025-01-20 11:22:54.20	307.92	8.77	
2025-01-20 11:22:54.40	307.88	8.77	
2025-01-20 11:22:54.60	307.84	8.76	
2025-01-20 11:22:54.81	307.80	8.75	
2025-01-20 11:22:55.01	307.77	8.75	
2025-01-20 11:22:55.21	307.73	8.74	
2025-01-20 11:22:55.41	307.69	8.74	
2025-01-20 11:22:55.62	307.65	8.73	
2025-01-20 11:22:55.82	307.62	8.72	
2025-01-20 11:22:56.02	307.58	8.72	
2025-01-20 11:22:56.23	307.54	8.71	
2025-01-20 11:22:56.43	307.50	8.71	
2025-01-20 11:22:56.63	307.47	8.70	
2025-01-20 11:22:56.84	307.43	8.69	
2025-01-20 11:22:57.04	307.39	8.69	
2025-01-20 11:22:57.24	307.36	8.68	
2025-01-20 11:22:57.45	307.32	8.68	
2025-01-20 11:22:57.65	307.28	8.67	
2025-01-20 11:22:57.85	307.24	8.67	
2025-01-20 11:22:58.06	307.21	8.66	
2025-01-20 11:22:58.26	307.17	8.65	
2025-01-20 11:22:58.46	307.13	8.65	
2025-01-20 11:22:58.66	307.10	8.64	
2025-01-20 11:22:58.87	307.06	8.63	
2025-01-20 11:22:59.07	307.02	8.63	
2025-01-20 11:22:59.27	306.98	8.62	
2025-01-20 11:22:59.48	306.95	8.62	
2025-01-20 11:22:59.68	306.91	8.61	
2025-01-20 11:22:59.88	306.87	8.60	
2025-01-20 11:23:00.09	306.84	8.60	
2025-01-20 11:23:00.29	306.80	8.59	
2025-01-20 11:23:00.49	306.76	8.59	
2025-01-20 11:23:00.70	306.72	8.58	
2025-01-20 11:23:00.90	306.69	8.57	
2025-01-20 11:23:01.10	306.65	8.57	
2025-01-20 11:23:01.30	306.61	8.56	
2025-01-20 11:23:01.51	306.58	8.56	
2025-01-20 11:23:01.71	306.54	8.55	
2025-01-20 11:23:01.91	306.50	8.54	
2025-01-20 11:23:02.12	306.47	8.54	
2025-01-20 11:23:02.32	306.43	8.53	
2025-01-20 11:23:02.52	306.39	8.52	
2025-01-20 11:23:02.73	306.36	8.52	
2025-01-20 11:23:02.93	306.32	8.51	
2025-01-20 11:23:03.13	306.28	8.51	
2025-01-20 11:23:03.34	306.25	8.50	
2025-01-20 11:23:03.54	306.21	8.49	
2025-01-20 11:23:03.74	306.17	8.49	
2025-01-20 11:23:03.95	306.13	8.48	
2025-01-20 11:23:04.15	306.10	8.47	
2025-01-20 11:23:04.35	306.06	8.47	
2025-01-20 11:23:04.55	306.03	8.46	
2025-01-20 11:23:04.76	305.99	8.46	
2025-01-20 11:23:04.96	305.95	8.45	
2025-01-20 11:23:05.16	305.92	8.44	
2025-01-20 11:23:05.37	305.88	8.44	
2025-01-20 11:23:05.57	305.84	8.43	
2025-01-20 11:23:05.77	305.81	8.42	
2025-01-20 11:23:05.98	305.77	8.42	
2025-01-20 11:23:06.18	305.73	8.41	
2025-01-20 11:23:06.38	305.70	8.40	
2025-01-20 11:23:06.59	305.66	8.40	
2025-01-20 11:23:06.79	305.62	8.39	
2025-01-20 11:23:06.99	305.59	8.39	
2025-01-20 11:23:07.19	305.55	8.38	
2025-01-20 11:23:07.40	305.51	8.37	
2025-01-20 11:23:07.60	305.48	8.37	
2025-01-20 11:23:07.80	305.44	8.36	
2025-01-20 11:23:08.01	305.41	8.35	
2025-01-20 11:23:08.21	305.37	8.35	
2025-01-20 11:23:08.41	305.33	8.34	
2025-01-20 11:23:08.62	305.30	8.33	
2025-01-20 11:23:08.82	305.26	8.33	
2025-01-20 11:23:09.02	305.22	8.32	
2025-01-20 11:23:09.23	305.19	8.31	
2025-01-20 11:23:09.43	305.15	8.31	
2025-01-20 11:23:09.63	305.12	8.30	
2025-01-20 11:23:09.84	305.08	8.29	
2025-01-20 11:23:10.04	305.04	8.29	
2025-01-20 11:23:10.24	305.01	8.28	
2025-01-20 11:23:10.44	304.97	8.28	
2025-01-20 11:23:10.65	304.93	8.27	
2025-01-20 11:23:10.85	304.90	8.26	
2025-01-20 11:23:11.05	304.86	8.26	
2025-01-20 11:23:11.26	304.83	8.25	
2025-01-20 11:23:11.46	304.79	8.24	
2025-01-20 11:23:11.66	304.76	8.24	
2025-01-20 11:23:11.87	304.72	8.23	
2025-01-20 11:23:12.07	304.68	8.22	
2025-01-20 11:23:12.27	304.65	8.22	
2025-01-20 11:23:12.48	304.61	8.21	
2025-01-20 11:23:12.68	304.57	8.20	
2025-01-20 11:23:12.88	304.54	8.20	
2025-01-20 11:23:13.08	304.50	8.19	
2025-01-20 11:23:13.29	304.47	8.18	
2025-01-20 11:23:13.49	304.43	8.18	
2025-01-20 11:23:13.69	304.40	8.17	
2025-01-20 11:23:13.90	304.36	8.16	
2025-01-20 11:23:14.10	304.32	8.16	
2025-01-20 11:23:14.30	304.29	8.15	
2025-01-20 11:23:14.51	304.25	8.14	
2025-01-20 11:23:14.71	304.22	8.14	
