passes_logs/2025/01/20/SPB_Silybum_02/SPB_Silybum_02__20250120_080145_TERRA_rec.log

#Pass ID: 20250120_080145_TERRA
#Satellite: TERRA
#Configuration: TERRA
#Start time: 2025-01-20 08:01:45

#Version: 2.0.20230423
#Station: SPB_Silybum_02
#Location: 30.233357 lon 59.946436 lat
#TLE: 1 25994U 99068A   25019.78905911  .00001081  00000+0  23261-3 0  9994
#TLE: 2 25994  98.0208  82.6669 0003303  62.5205  49.3311 14.60406058334773

#Time	Az	El	Level	Level2	SNR	BER	Gain	Gain2
2025-01-20 08:01:47.23	18.44	4.14	
2025-01-20 08:01:47.43	18.45	4.15	
2025-01-20 08:01:47.63	18.45	4.17	
2025-01-20 08:01:47.84	18.46	4.18	
2025-01-20 08:01:48.04	18.46	4.20	
2025-01-20 08:01:48.24	18.47	4.21	
2025-01-20 08:01:48.44	18.47	4.22	
2025-01-20 08:01:48.65	18.48	4.24	
2025-01-20 08:01:48.85	18.48	4.25	
2025-01-20 08:01:49.05	18.49	4.27	
2025-01-20 08:01:49.26	18.49	4.28	
2025-01-20 08:01:49.46	18.50	4.30	
2025-01-20 08:01:49.66	18.50	4.31	
2025-01-20 08:01:49.87	18.50	4.33	
2025-01-20 08:01:50.07	18.51	4.34	
2025-01-20 08:01:50.27	18.51	4.35	
2025-01-20 08:01:50.48	18.52	4.37	
2025-01-20 08:01:50.68	18.52	4.38	
2025-01-20 08:01:50.88	18.53	4.40	
2025-01-20 08:01:51.08	18.53	4.41	
2025-01-20 08:01:51.29	18.54	4.43	
2025-01-20 08:01:51.49	18.54	4.44	
2025-01-20 08:01:51.69	18.55	4.46	
2025-01-20 08:01:51.90	18.55	4.47	
2025-01-20 08:01:52.10	18.56	4.49	
2025-01-20 08:01:52.30	18.56	4.50	
2025-01-20 08:01:52.51	18.57	4.52	
2025-01-20 08:01:52.71	18.57	4.53	
2025-01-20 08:01:52.91	18.58	4.54	
2025-01-20 08:01:53.12	18.58	4.56	
2025-01-20 08:01:53.32	18.59	4.57	
2025-01-20 08:01:53.52	18.59	4.59	
2025-01-20 08:01:53.73	18.60	4.60	
2025-01-20 08:01:53.93	18.60	4.62	
2025-01-20 08:01:54.13	18.61	4.63	
2025-01-20 08:01:54.33	18.61	4.65	
2025-01-20 08:01:54.54	18.61	4.66	
2025-01-20 08:01:54.74	18.62	4.68	
2025-01-20 08:01:54.94	18.62	4.69	
2025-01-20 08:01:55.15	18.63	4.71	
2025-01-20 08:01:55.35	18.63	4.72	
2025-01-20 08:01:55.55	18.64	4.74	
2025-01-20 08:01:55.76	18.64	4.75	
2025-01-20 08:01:55.96	18.65	4.77	
2025-01-20 08:01:56.16	18.65	4.78	
2025-01-20 08:01:56.37	18.66	4.80	
2025-01-20 08:01:56.57	18.66	4.81	
2025-01-20 08:01:56.77	18.67	4.83	
2025-01-20 08:01:56.97	18.67	4.84	
2025-01-20 08:01:57.18	18.68	4.86	
2025-01-20 08:01:57.38	18.68	4.87	
2025-01-20 08:01:57.58	18.69	4.89	
2025-01-20 08:01:57.79	18.69	4.90	
2025-01-20 08:01:57.99	18.70	4.92	
2025-01-20 08:01:58.19	18.70	4.93	
2025-01-20 08:01:58.40	18.71	4.95	
2025-01-20 08:01:58.60	18.71	4.96	
2025-01-20 08:01:58.80	18.72	4.97	
2025-01-20 08:01:59.01	18.72	4.99	
2025-01-20 08:01:59.21	18.73	5.00	
2025-01-20 08:01:59.41	18.73	5.02	
2025-01-20 08:01:59.61	18.74	5.03	
2025-01-20 08:01:59.82	18.74	5.05	
2025-01-20 08:02:00.02	18.75	5.06	
2025-01-20 08:02:00.22	18.75	5.08	
2025-01-20 08:02:00.43	18.76	5.09	
2025-01-20 08:02:00.63	18.76	5.11	
2025-01-20 08:02:00.83	18.77	5.12	
2025-01-20 08:02:01.04	18.77	5.14	
2025-01-20 08:02:01.24	18.78	5.15	
2025-01-20 08:02:01.44	18.78	5.17	
2025-01-20 08:02:01.65	18.79	5.19	
2025-01-20 08:02:01.85	18.79	5.20	
2025-01-20 08:02:02.05	18.80	5.22	
2025-01-20 08:02:02.25	18.80	5.23	
2025-01-20 08:02:02.46	18.81	5.25	
2025-01-20 08:02:02.66	18.81	5.26	
2025-01-20 08:02:02.86	18.82	5.28	
2025-01-20 08:02:03.07	18.82	5.29	
2025-01-20 08:02:03.27	18.83	5.31	
2025-01-20 08:02:03.47	18.83	5.32	
2025-01-20 08:02:03.68	18.84	5.34	
2025-01-20 08:02:03.88	18.84	5.35	
2025-01-20 08:02:04.08	18.85	5.37	
2025-01-20 08:02:04.29	18.85	5.38	
2025-01-20 08:02:04.49	18.86	5.40	
2025-01-20 08:02:04.69	18.86	5.41	
2025-01-20 08:02:04.89	18.87	5.43	
2025-01-20 08:02:05.10	18.87	5.44	
2025-01-20 08:02:05.30	18.88	5.46	
2025-01-20 08:02:05.50	18.88	5.47	
2025-01-20 08:02:05.71	18.89	5.49	
2025-01-20 08:02:05.91	18.89	5.50	
2025-01-20 08:02:06.11	18.90	5.52	
2025-01-20 08:02:06.32	18.90	5.53	
2025-01-20 08:02:06.52	18.91	5.55	
2025-01-20 08:02:06.72	18.91	5.56	
2025-01-20 08:02:06.93	18.92	5.58	
2025-01-20 08:02:07.13	18.92	5.60	
2025-01-20 08:02:07.33	18.93	5.61	
2025-01-20 08:02:07.53	18.93	5.63	
2025-01-20 08:02:07.74	18.94	5.64	
2025-01-20 08:02:07.94	18.94	5.66	
2025-01-20 08:02:08.14	18.95	5.67	
2025-01-20 08:02:08.35	18.95	5.69	
2025-01-20 08:02:08.55	18.96	5.70	
2025-01-20 08:02:08.75	18.96	5.72	
2025-01-20 08:02:08.96	18.97	5.73	
2025-01-20 08:02:09.16	18.98	5.75	
2025-01-20 08:02:09.36	18.98	5.76	
2025-01-20 08:02:09.57	18.99	5.78	
2025-01-20 08:02:09.77	18.99	5.80	
2025-01-20 08:02:09.97	19.00	5.81	
2025-01-20 08:02:10.17	19.00	5.83	
2025-01-20 08:02:10.38	19.01	5.84	
2025-01-20 08:02:10.58	19.01	5.86	
2025-01-20 08:02:10.78	19.02	5.87	
2025-01-20 08:02:10.99	19.02	5.89	
2025-01-20 08:02:11.19	19.03	5.90	
2025-01-20 08:02:11.39	19.03	5.92	
2025-01-20 08:02:11.60	19.04	5.94	
2025-01-20 08:02:11.80	19.04	5.95	
2025-01-20 08:02:12.00	19.05	5.97	
2025-01-20 08:02:12.21	19.05	5.98	
2025-01-20 08:02:12.41	19.06	6.00	
2025-01-20 08:02:12.61	19.06	6.01	
2025-01-20 08:02:12.81	19.07	6.03	
2025-01-20 08:02:13.02	19.07	6.04	
2025-01-20 08:02:13.22	19.08	6.06	
2025-01-20 08:02:13.42	19.08	6.08	
2025-01-20 08:02:13.63	19.09	6.09	
2025-01-20 08:02:13.83	19.10	6.11	
2025-01-20 08:02:14.03	19.10	6.12	
2025-01-20 08:02:14.24	19.11	6.14	
2025-01-20 08:02:14.44	19.11	6.15	
2025-01-20 08:02:14.64	19.12	6.17	
2025-01-20 08:02:14.85	19.12	6.19	
2025-01-20 08:02:15.05	19.13	6.20	
2025-01-20 08:02:15.25	19.13	6.22	
2025-01-20 08:02:15.45	19.14	6.23	
2025-01-20 08:02:15.66	19.14	6.25	
2025-01-20 08:02:15.86	19.15	6.26	
2025-01-20 08:02:16.06	19.15	6.28	
2025-01-20 08:02:16.27	19.16	6.30	
2025-01-20 08:02:16.47	19.16	6.31	
2025-01-20 08:02:16.67	19.17	6.33	
2025-01-20 08:02:16.88	19.18	6.34	
2025-01-20 08:02:17.08	19.18	6.36	
2025-01-20 08:02:17.28	19.19	6.37	
2025-01-20 08:02:17.49	19.19	6.39	
2025-01-20 08:02:17.69	19.20	6.41	
2025-01-20 08:02:17.89	19.20	6.42	
2025-01-20 08:02:18.10	19.21	6.44	
2025-01-20 08:02:18.30	19.21	6.45	
2025-01-20 08:02:18.50	19.22	6.47	
2025-01-20 08:02:18.70	19.22	6.49	
2025-01-20 08:02:18.91	19.23	6.50	
2025-01-20 08:02:19.11	19.23	6.52	
2025-01-20 08:02:19.31	19.24	6.53	
2025-01-20 08:02:19.52	19.25	6.55	
2025-01-20 08:02:19.72	19.25	6.57	
2025-01-20 08:02:19.92	19.26	6.58	
2025-01-20 08:02:20.13	19.26	6.60	
2025-01-20 08:02:20.33	19.27	6.61	
2025-01-20 08:02:20.53	19.27	6.63	
2025-01-20 08:02:20.74	19.28	6.65	
2025-01-20 08:02:20.94	19.28	6.66	
2025-01-20 08:02:21.14	19.29	6.68	
2025-01-20 08:02:21.34	19.29	6.69	
2025-01-20 08:02:21.55	19.30	6.71	
2025-01-20 08:02:21.75	19.31	6.73	
2025-01-20 08:02:21.95	19.31	6.74	
2025-01-20 08:02:22.16	19.32	6.76	
2025-01-20 08:02:22.36	19.32	6.77	
2025-01-20 08:02:22.56	19.33	6.79	
2025-01-20 08:02:22.77	19.33	6.81	
2025-01-20 08:02:22.97	19.34	6.82	
2025-01-20 08:02:23.17	19.34	6.84	
2025-01-20 08:02:23.38	19.35	6.86	
2025-01-20 08:02:23.58	19.36	6.87	
2025-01-20 08:02:23.78	19.36	6.89	
2025-01-20 08:02:23.98	19.37	6.90	
2025-01-20 08:02:24.19	19.37	6.92	
2025-01-20 08:02:24.39	19.38	6.94	
2025-01-20 08:02:24.59	19.38	6.95	
2025-01-20 08:02:24.80	19.39	6.97	
2025-01-20 08:02:25.00	19.39	6.99	
2025-01-20 08:02:25.20	19.40	7.00	
2025-01-20 08:02:25.41	19.41	7.02	
2025-01-20 08:02:25.61	19.41	7.03	
2025-01-20 08:02:25.81	19.42	7.05	
2025-01-20 08:02:26.02	19.42	7.07	
2025-01-20 08:02:26.22	19.43	7.08	
2025-01-20 08:02:26.42	19.43	7.10	
2025-01-20 08:02:26.62	19.44	7.12	
2025-01-20 08:02:26.83	19.44	7.13	
2025-01-20 08:02:27.03	19.45	7.15	
2025-01-20 08:02:27.23	19.46	7.16	
2025-01-20 08:02:27.44	19.46	7.18	
2025-01-20 08:02:27.64	19.47	7.20	
2025-01-20 08:02:27.84	19.47	7.21	
2025-01-20 08:02:28.05	19.48	7.23	
2025-01-20 08:02:28.25	19.48	7.25	
2025-01-20 08:02:28.45	19.49	7.26	
2025-01-20 08:02:28.66	19.50	7.28	
2025-01-20 08:02:28.86	19.50	7.30	
2025-01-20 08:02:29.06	19.51	7.31	
2025-01-20 08:02:29.26	19.51	7.33	
2025-01-20 08:02:29.47	19.52	7.35	
2025-01-20 08:02:29.67	19.52	7.36	
2025-01-20 08:02:29.87	19.53	7.38	
2025-01-20 08:02:30.08	19.54	7.40	
2025-01-20 08:02:30.28	19.54	7.41	
2025-01-20 08:02:30.48	19.55	7.43	
2025-01-20 08:02:30.69	19.55	7.45	
2025-01-20 08:02:30.89	19.56	7.46	
2025-01-20 08:02:31.09	19.56	7.48	
2025-01-20 08:02:31.30	19.57	7.50	
2025-01-20 08:02:31.50	19.58	7.51	
2025-01-20 08:02:31.70	19.58	7.53	
2025-01-20 08:02:31.90	19.59	7.54	
2025-01-20 08:02:32.11	19.59	7.56	
2025-01-20 08:02:32.31	19.60	7.58	
2025-01-20 08:02:32.51	19.60	7.59	
2025-01-20 08:02:32.72	19.61	7.61	
2025-01-20 08:02:32.92	19.62	7.63	
2025-01-20 08:02:33.12	19.62	7.64	
2025-01-20 08:02:33.33	19.63	7.66	
2025-01-20 08:02:33.53	19.63	7.68	
2025-01-20 08:02:33.73	19.64	7.70	
2025-01-20 08:02:33.94	19.65	7.71	
2025-01-20 08:02:34.14	19.65	7.73	
2025-01-20 08:02:34.34	19.66	7.75	
2025-01-20 08:02:34.54	19.66	7.76	
2025-01-20 08:02:34.75	19.67	7.78	
2025-01-20 08:02:34.95	19.67	7.80	
2025-01-20 08:02:35.15	19.68	7.81	
2025-01-20 08:02:35.36	19.69	7.83	
2025-01-20 08:02:35.56	19.69	7.85	
2025-01-20 08:02:35.76	19.70	7.86	
2025-01-20 08:02:35.97	19.70	7.88	
2025-01-20 08:02:36.17	19.71	7.90	
2025-01-20 08:02:36.37	19.72	7.91	
2025-01-20 08:02:36.58	19.72	7.93	
2025-01-20 08:02:36.78	19.73	7.95	
2025-01-20 08:02:36.98	19.73	7.97	
2025-01-20 08:02:37.18	19.74	7.98	
2025-01-20 08:02:37.39	19.75	8.00	
2025-01-20 08:02:37.59	19.75	8.02	
2025-01-20 08:02:37.79	19.76	8.03	
2025-01-20 08:02:38.00	19.76	8.05	
2025-01-20 08:02:38.20	19.77	8.07	
2025-01-20 08:02:38.40	19.78	8.08	
2025-01-20 08:02:38.61	19.78	8.10	
2025-01-20 08:02:38.81	19.79	8.12	
2025-01-20 08:02:39.01	19.79	8.14	
2025-01-20 08:02:39.22	19.80	8.15	
2025-01-20 08:02:39.42	19.81	8.17	
2025-01-20 08:02:39.62	19.81	8.19	
2025-01-20 08:02:39.83	19.82	8.20	
2025-01-20 08:02:40.03	19.82	8.22	
2025-01-20 08:02:40.23	19.83	8.24	
2025-01-20 08:02:40.43	19.84	8.26	
2025-01-20 08:02:40.64	19.84	8.27	
2025-01-20 08:02:40.84	19.85	8.29	
2025-01-20 08:02:41.04	19.85	8.31	
2025-01-20 08:02:41.25	19.86	8.32	
2025-01-20 08:02:41.45	19.87	8.34	
2025-01-20 08:02:41.65	19.87	8.36	
2025-01-20 08:02:41.86	19.88	8.38	
2025-01-20 08:02:42.06	19.88	8.39	
2025-01-20 08:02:42.26	19.89	8.41	
2025-01-20 08:02:42.47	19.90	8.43	
2025-01-20 08:02:42.67	19.90	8.45	
2025-01-20 08:02:42.87	19.91	8.46	
2025-01-20 08:02:43.07	19.92	8.48	
2025-01-20 08:02:43.28	19.92	8.50	
2025-01-20 08:02:43.48	19.93	8.51	
2025-01-20 08:02:43.68	19.93	8.53	
2025-01-20 08:02:43.89	19.94	8.55	
2025-01-20 08:02:44.09	19.95	8.57	
2025-01-20 08:02:44.29	19.95	8.58	
2025-01-20 08:02:44.50	19.96	8.60	
2025-01-20 08:02:44.70	19.96	8.62	
2025-01-20 08:02:44.90	19.97	8.64	
2025-01-20 08:02:45.11	19.98	8.65	
2025-01-20 08:02:45.31	19.98	8.67	
2025-01-20 08:02:45.51	19.99	8.69	
2025-01-20 08:02:45.71	20.00	8.71	
2025-01-20 08:02:45.92	20.00	8.72	
2025-01-20 08:02:46.12	20.01	8.74	
2025-01-20 08:02:46.32	20.01	8.76	
2025-01-20 08:02:46.53	20.02	8.78	
2025-01-20 08:02:46.73	20.03	8.79	
2025-01-20 08:02:46.93	20.03	8.81	
2025-01-20 08:02:47.14	20.04	8.83	
2025-01-20 08:02:47.34	20.05	8.85	
2025-01-20 08:02:47.54	20.05	8.86	
2025-01-20 08:02:47.75	20.06	8.88	
2025-01-20 08:02:47.95	20.06	8.90	
2025-01-20 08:02:48.15	20.07	8.92	
2025-01-20 08:02:48.35	20.08	8.94	
2025-01-20 08:02:48.56	20.08	8.95	
2025-01-20 08:02:48.76	20.09	8.97	
2025-01-20 08:02:48.96	20.10	8.99	
2025-01-20 08:02:49.17	20.10	9.01	
2025-01-20 08:02:49.37	20.11	9.02	
2025-01-20 08:02:49.57	20.12	9.04	
2025-01-20 08:02:49.78	20.12	9.06	
2025-01-20 08:02:49.98	20.13	9.08	
2025-01-20 08:02:50.18	20.13	9.10	
2025-01-20 08:02:50.39	20.14	9.11	
2025-01-20 08:02:50.59	20.15	9.13	
2025-01-20 08:02:50.79	20.15	9.15	
2025-01-20 08:02:50.99	20.16	9.17	
2025-01-20 08:02:51.20	20.17	9.19	
2025-01-20 08:02:51.40	20.17	9.20	
2025-01-20 08:02:51.60	20.18	9.22	
2025-01-20 08:02:51.81	20.19	9.24	
2025-01-20 08:02:52.01	20.19	9.26	
2025-01-20 08:02:52.21	20.20	9.27	
2025-01-20 08:02:52.42	20.20	9.29	
2025-01-20 08:02:52.62	20.21	9.31	
2025-01-20 08:02:52.82	20.22	9.33	
2025-01-20 08:02:53.03	20.22	9.35	
2025-01-20 08:02:53.23	20.23	9.36	
2025-01-20 08:02:53.43	20.24	9.38	
2025-01-20 08:02:53.63	20.24	9.40	
2025-01-20 08:02:53.84	20.25	9.42	
2025-01-20 08:02:54.04	20.26	9.44	
2025-01-20 08:02:54.24	20.26	9.45	
2025-01-20 08:02:54.45	20.27	9.47	
2025-01-20 08:02:54.65	20.28	9.49	
2025-01-20 08:02:54.85	20.28	9.51	
2025-01-20 08:02:55.06	20.29	9.53	
2025-01-20 08:02:55.26	20.30	9.55	
2025-01-20 08:02:55.46	20.30	9.56	
2025-01-20 08:02:55.67	20.31	9.58	
2025-01-20 08:02:55.87	20.32	9.60	
2025-01-20 08:02:56.07	20.32	9.62	
2025-01-20 08:02:56.27	20.33	9.64	
2025-01-20 08:02:56.48	20.34	9.66	
2025-01-20 08:02:56.68	20.34	9.67	
2025-01-20 08:02:56.88	20.35	9.69	
2025-01-20 08:02:57.09	20.36	9.71	
2025-01-20 08:02:57.29	20.36	9.73	
2025-01-20 08:02:57.49	20.37	9.75	
2025-01-20 08:02:57.70	20.38	9.77	
2025-01-20 08:02:57.90	20.38	9.78	
2025-01-20 08:02:58.10	20.39	9.80	
2025-01-20 08:02:58.31	20.40	9.82	
2025-01-20 08:02:58.51	20.40	9.84	
2025-01-20 08:02:58.71	20.41	9.86	
2025-01-20 08:02:58.91	20.42	9.87	
2025-01-20 08:02:59.12	20.42	9.89	
2025-01-20 08:02:59.32	20.43	9.91	
2025-01-20 08:02:59.52	20.44	9.93	
2025-01-20 08:02:59.73	20.44	9.95	
2025-01-20 08:02:59.93	20.45	9.97	
2025-01-20 08:03:00.13	20.46	9.99	
2025-01-20 08:03:00.34	20.46	10.01	
2025-01-20 08:03:00.54	20.47	10.02	
2025-01-20 08:03:00.74	20.48	10.04	
2025-01-20 08:03:00.95	20.48	10.06	
2025-01-20 08:03:01.15	20.49	10.08	
2025-01-20 08:03:01.35	20.50	10.10	
2025-01-20 08:03:01.56	20.50	10.12	
2025-01-20 08:03:01.76	20.51	10.14	
2025-01-20 08:03:01.96	20.52	10.15	
2025-01-20 08:03:02.16	20.52	10.17	
2025-01-20 08:03:02.37	20.53	10.19	
2025-01-20 08:03:02.57	20.54	10.21	
2025-01-20 08:03:02.77	20.54	10.23	
2025-01-20 08:03:02.98	20.55	10.25	
2025-01-20 08:03:03.18	20.56	10.27	
2025-01-20 08:03:03.38	20.56	10.28	
2025-01-20 08:03:03.59	20.57	10.30	
2025-01-20 08:03:03.79	20.58	10.32	
2025-01-20 08:03:03.99	20.59	10.34	
2025-01-20 08:03:04.20	20.59	10.36	
2025-01-20 08:03:04.40	20.60	10.38	
2025-01-20 08:03:04.60	20.61	10.40	
2025-01-20 08:03:04.80	20.61	10.42	
2025-01-20 08:03:05.01	20.62	10.44	
2025-01-20 08:03:05.21	20.63	10.45	
2025-01-20 08:03:05.41	20.63	10.47	
2025-01-20 08:03:05.62	20.64	10.49	
2025-01-20 08:03:05.82	20.65	10.51	
2025-01-20 08:03:06.02	20.66	10.53	
2025-01-20 08:03:06.23	20.66	10.55	
2025-01-20 08:03:06.43	20.67	10.57	
2025-01-20 08:03:06.63	20.68	10.59	
2025-01-20 08:03:06.84	20.68	10.61	
2025-01-20 08:03:07.04	20.69	10.63	
2025-01-20 08:03:07.24	20.70	10.64	
2025-01-20 08:03:07.44	20.70	10.66	
2025-01-20 08:03:07.65	20.71	10.68	
2025-01-20 08:03:07.85	20.72	10.70	
2025-01-20 08:03:08.05	20.73	10.72	
2025-01-20 08:03:08.26	20.73	10.74	
2025-01-20 08:03:08.46	20.74	10.76	
2025-01-20 08:03:08.66	20.75	10.78	
2025-01-20 08:03:08.87	20.75	10.80	
2025-01-20 08:03:09.07	20.76	10.82	
2025-01-20 08:03:09.27	20.77	10.84	
2025-01-20 08:03:09.48	20.78	10.86	
2025-01-20 08:03:09.68	20.78	10.87	
2025-01-20 08:03:09.88	20.79	10.89	
2025-01-20 08:03:10.08	20.80	10.91	
2025-01-20 08:03:10.29	20.80	10.93	
2025-01-20 08:03:10.49	20.81	10.95	
2025-01-20 08:03:10.69	20.82	10.97	
2025-01-20 08:03:10.90	20.83	10.99	
2025-01-20 08:03:11.10	20.83	11.01	
2025-01-20 08:03:11.30	20.84	11.03	
2025-01-20 08:03:11.51	20.85	11.05	
2025-01-20 08:03:11.71	20.85	11.07	
2025-01-20 08:03:11.91	20.86	11.09	
2025-01-20 08:03:12.12	20.87	11.11	
2025-01-20 08:03:12.32	20.88	11.13	
2025-01-20 08:03:12.52	20.88	11.15	
2025-01-20 08:03:12.72	20.89	11.17	
2025-01-20 08:03:12.93	20.90	11.19	
2025-01-20 08:03:13.13	20.91	11.20	
2025-01-20 08:03:13.33	20.91	11.22	
2025-01-20 08:03:13.54	20.92	11.24	
2025-01-20 08:03:13.74	20.93	11.26	
2025-01-20 08:03:13.94	20.93	11.28	
2025-01-20 08:03:14.15	20.94	11.30	
2025-01-20 08:03:14.35	20.95	11.32	
2025-01-20 08:03:14.55	20.96	11.34	
2025-01-20 08:03:14.76	20.96	11.36	
2025-01-20 08:03:14.96	20.97	11.38	
2025-01-20 08:03:15.16	20.98	11.40	
2025-01-20 08:03:15.36	20.99	11.42	
2025-01-20 08:03:15.57	20.99	11.44	
2025-01-20 08:03:15.77	21.00	11.46	
2025-01-20 08:03:15.97	21.01	11.48	
2025-01-20 08:03:16.18	21.02	11.50	
2025-01-20 08:03:16.38	21.02	11.52	
2025-01-20 08:03:16.58	21.03	11.54	
2025-01-20 08:03:16.79	21.04	11.56	
2025-01-20 08:03:16.99	21.05	11.58	
2025-01-20 08:03:17.19	21.05	11.60	
2025-01-20 08:03:17.40	21.06	11.62	
2025-01-20 08:03:17.60	21.07	11.64	
2025-01-20 08:03:17.80	21.08	11.66	
2025-01-20 08:03:18.00	21.08	11.68	
2025-01-20 08:03:18.21	21.09	11.70	
2025-01-20 08:03:18.41	21.10	11.72	
2025-01-20 08:03:18.61	21.11	11.74	
2025-01-20 08:03:18.82	21.11	11.76	
2025-01-20 08:03:19.02	21.12	11.78	
2025-01-20 08:03:19.22	21.13	11.80	
2025-01-20 08:03:19.43	21.14	11.82	
2025-01-20 08:03:19.63	21.14	11.84	
2025-01-20 08:03:19.83	21.15	11.86	
2025-01-20 08:03:20.04	21.16	11.88	
2025-01-20 08:03:20.24	21.17	11.90	
2025-01-20 08:03:20.44	21.17	11.92	
2025-01-20 08:03:20.64	21.18	11.94	
2025-01-20 08:03:20.85	21.19	11.96	
2025-01-20 08:03:21.05	21.20	11.98	
2025-01-20 08:03:21.25	21.21	12.00	
2025-01-20 08:03:21.46	21.21	12.02	
2025-01-20 08:03:21.66	21.22	12.04	
2025-01-20 08:03:21.86	21.23	12.06	
2025-01-20 08:03:22.07	21.24	12.08	
2025-01-20 08:03:22.27	21.24	12.10	
2025-01-20 08:03:22.47	21.25	12.12	
2025-01-20 08:03:22.68	21.26	12.14	
2025-01-20 08:03:22.88	21.27	12.16	
2025-01-20 08:03:23.08	21.27	12.18	
2025-01-20 08:03:23.28	21.28	12.20	
2025-01-20 08:03:23.49	21.29	12.23	
2025-01-20 08:03:23.69	21.30	12.25	
2025-01-20 08:03:23.89	21.31	12.27	
2025-01-20 08:03:24.10	21.31	12.29	
2025-01-20 08:03:24.30	21.32	12.31	
2025-01-20 08:03:24.50	21.33	12.33	
2025-01-20 08:03:24.71	21.34	12.35	
2025-01-20 08:03:24.91	21.35	12.37	
2025-01-20 08:03:25.11	21.35	12.39	
2025-01-20 08:03:25.32	21.36	12.41	
2025-01-20 08:03:25.52	21.37	12.43	
2025-01-20 08:03:25.72	21.38	12.45	
2025-01-20 08:03:25.93	21.39	12.47	
2025-01-20 08:03:26.13	21.39	12.49	
2025-01-20 08:03:26.33	21.40	12.51	
2025-01-20 08:03:26.53	21.41	12.53	
2025-01-20 08:03:26.74	21.42	12.56	
2025-01-20 08:03:26.94	21.42	12.58	
2025-01-20 08:03:27.14	21.43	12.60	
2025-01-20 08:03:27.35	21.44	12.62	
2025-01-20 08:03:27.55	21.45	12.64	
2025-01-20 08:03:27.75	21.46	12.66	
2025-01-20 08:03:27.96	21.46	12.68	
2025-01-20 08:03:28.16	21.47	12.70	
2025-01-20 08:03:28.36	21.48	12.72	
2025-01-20 08:03:28.57	21.49	12.74	
2025-01-20 08:03:28.77	21.50	12.76	
2025-01-20 08:03:28.97	21.50	12.79	
2025-01-20 08:03:29.17	21.51	12.81	
2025-01-20 08:03:29.38	21.52	12.83	
2025-01-20 08:03:29.58	21.53	12.85	
2025-01-20 08:03:29.78	21.54	12.87	
2025-01-20 08:03:29.99	21.55	12.89	
2025-01-20 08:03:30.19	21.55	12.91	
2025-01-20 08:03:30.39	21.56	12.93	
2025-01-20 08:03:30.60	21.57	12.95	
2025-01-20 08:03:30.80	21.58	12.98	
2025-01-20 08:03:31.00	21.59	13.00	
2025-01-20 08:03:31.21	21.59	13.02	
2025-01-20 08:03:31.41	21.60	13.04	
2025-01-20 08:03:31.61	21.61	13.06	
2025-01-20 08:03:31.81	21.62	13.08	
2025-01-20 08:03:32.02	21.63	13.10	
2025-01-20 08:03:32.22	21.64	13.12	
2025-01-20 08:03:32.42	21.64	13.15	
2025-01-20 08:03:32.63	21.65	13.17	
2025-01-20 08:03:32.83	21.66	13.19	
2025-01-20 08:03:33.03	21.67	13.21	
2025-01-20 08:03:33.24	21.68	13.23	
2025-01-20 08:03:33.44	21.69	13.25	
2025-01-20 08:03:33.64	21.69	13.27	
2025-01-20 08:03:33.85	21.70	13.30	
2025-01-20 08:03:34.05	21.71	13.32	
2025-01-20 08:03:34.25	21.72	13.34	
2025-01-20 08:03:34.45	21.73	13.36	
2025-01-20 08:03:34.66	21.74	13.38	
2025-01-20 08:03:34.86	21.74	13.40	
2025-01-20 08:03:35.06	21.75	13.42	
2025-01-20 08:03:35.27	21.76	13.45	
2025-01-20 08:03:35.47	21.77	13.47	
2025-01-20 08:03:35.67	21.78	13.49	
2025-01-20 08:03:35.88	21.79	13.51	
2025-01-20 08:03:36.08	21.80	13.53	
2025-01-20 08:03:36.28	21.80	13.55	
2025-01-20 08:03:36.49	21.81	13.58	
2025-01-20 08:03:36.69	21.82	13.60	
2025-01-20 08:03:36.89	21.83	13.62	
2025-01-20 08:03:37.09	21.84	13.64	
2025-01-20 08:03:37.30	21.85	13.66	
2025-01-20 08:03:37.50	21.85	13.69	
2025-01-20 08:03:37.70	21.86	13.71	
2025-01-20 08:03:37.91	21.87	13.73	
2025-01-20 08:03:38.11	21.88	13.75	
2025-01-20 08:03:38.31	21.89	13.77	
2025-01-20 08:03:38.52	21.90	13.80	
2025-01-20 08:03:38.72	21.91	13.82	
2025-01-20 08:03:38.92	21.92	13.84	
2025-01-20 08:03:39.13	21.92	13.86	
2025-01-20 08:03:39.33	21.93	13.88	
2025-01-20 08:03:39.53	21.94	13.90	
2025-01-20 08:03:39.73	21.95	13.93	
2025-01-20 08:03:39.94	21.96	13.95	
2025-01-20 08:03:40.14	21.97	13.97	
2025-01-20 08:03:40.34	21.98	13.99	
2025-01-20 08:03:40.55	21.99	14.02	
2025-01-20 08:03:40.75	21.99	14.04	
2025-01-20 08:03:40.95	22.00	14.06	
2025-01-20 08:03:41.16	22.01	14.08	
2025-01-20 08:03:41.36	22.02	14.10	
2025-01-20 08:03:41.56	22.03	14.13	
2025-01-20 08:03:41.77	22.04	14.15	
2025-01-20 08:03:41.97	22.05	14.17	
2025-01-20 08:03:42.17	22.06	14.19	
2025-01-20 08:03:42.37	22.06	14.22	
2025-01-20 08:03:42.58	22.07	14.24	
2025-01-20 08:03:42.78	22.08	14.26	
2025-01-20 08:03:42.98	22.09	14.28	
2025-01-20 08:03:43.19	22.10	14.31	
2025-01-20 08:03:43.39	22.11	14.33	
2025-01-20 08:03:43.59	22.12	14.35	
2025-01-20 08:03:43.80	22.13	14.37	
2025-01-20 08:03:44.00	22.14	14.40	
2025-01-20 08:03:44.20	22.14	14.42	
2025-01-20 08:03:44.41	22.15	14.44	
2025-01-20 08:03:44.61	22.16	14.46	
2025-01-20 08:03:44.81	22.17	14.49	
2025-01-20 08:03:45.01	22.18	14.51	
2025-01-20 08:03:45.22	22.19	14.53	
2025-01-20 08:03:45.42	22.20	14.55	
2025-01-20 08:03:45.62	22.21	14.58	
2025-01-20 08:03:45.83	22.22	14.60	
2025-01-20 08:03:46.03	22.23	14.62	
2025-01-20 08:03:46.23	22.24	14.65	
2025-01-20 08:03:46.44	22.24	14.67	
2025-01-20 08:03:46.64	22.25	14.69	
2025-01-20 08:03:46.84	22.26	14.71	
2025-01-20 08:03:47.05	22.27	14.74	
2025-01-20 08:03:47.25	22.28	14.76	
2025-01-20 08:03:47.45	22.29	14.78	
2025-01-20 08:03:47.66	22.30	14.81	
2025-01-20 08:03:47.86	22.31	14.83	
2025-01-20 08:03:48.06	22.32	14.85	
2025-01-20 08:03:48.26	22.33	14.87	
2025-01-20 08:03:48.47	22.34	14.90	
2025-01-20 08:03:48.67	22.35	14.92	
2025-01-20 08:03:48.87	22.35	14.94	
2025-01-20 08:03:49.08	22.36	14.97	
2025-01-20 08:03:49.28	22.37	14.99	
2025-01-20 08:03:49.48	22.38	15.01	
2025-01-20 08:03:49.69	22.39	15.04	
2025-01-20 08:03:49.89	22.40	15.06	
2025-01-20 08:03:50.09	22.41	15.08	
2025-01-20 08:03:50.30	22.42	15.11	
2025-01-20 08:03:50.50	22.43	15.13	
2025-01-20 08:03:50.70	22.44	15.15	
2025-01-20 08:03:50.90	22.45	15.18	
2025-01-20 08:03:51.11	22.46	15.20	
2025-01-20 08:03:51.31	22.47	15.22	
2025-01-20 08:03:51.51	22.48	15.25	
2025-01-20 08:03:51.72	22.49	15.27	
2025-01-20 08:03:51.92	22.50	15.29	
2025-01-20 08:03:52.12	22.51	15.32	
2025-01-20 08:03:52.33	22.52	15.34	
2025-01-20 08:03:52.53	22.52	15.36	
2025-01-20 08:03:52.73	22.53	15.39	
2025-01-20 08:03:52.94	22.54	15.41	
2025-01-20 08:03:53.14	22.55	15.43	
2025-01-20 08:03:53.34	22.56	15.46	
2025-01-20 08:03:53.54	22.57	15.48	
2025-01-20 08:03:53.75	22.58	15.51	
2025-01-20 08:03:53.95	22.59	15.53	
2025-01-20 08:03:54.15	22.60	15.55	
2025-01-20 08:03:54.36	22.61	15.58	
2025-01-20 08:03:54.56	22.62	15.60	
2025-01-20 08:03:54.76	22.63	15.62	
2025-01-20 08:03:54.97	22.64	15.65	
2025-01-20 08:03:55.17	22.65	15.67	
2025-01-20 08:03:55.37	22.66	15.70	
2025-01-20 08:03:55.58	22.67	15.72	
2025-01-20 08:03:55.78	22.68	15.74	
2025-01-20 08:03:55.98	22.69	15.77	
2025-01-20 08:03:56.18	22.70	15.79	
2025-01-20 08:03:56.39	22.71	15.82	
2025-01-20 08:03:56.59	22.72	15.84	
2025-01-20 08:03:56.79	22.73	15.86	
2025-01-20 08:03:57.00	22.74	15.89	
2025-01-20 08:03:57.20	22.75	15.91	
2025-01-20 08:03:57.40	22.76	15.94	
2025-01-20 08:03:57.61	22.77	15.96	
2025-01-20 08:03:57.81	22.78	15.98	
2025-01-20 08:03:58.01	22.79	16.01	
2025-01-20 08:03:58.22	22.80	16.03	
2025-01-20 08:03:58.42	22.81	16.06	
2025-01-20 08:03:58.62	22.82	16.08	
2025-01-20 08:03:58.82	22.83	16.11	
2025-01-20 08:03:59.03	22.84	16.13	
2025-01-20 08:03:59.23	22.85	16.15	
2025-01-20 08:03:59.43	22.86	16.18	
2025-01-20 08:03:59.64	22.87	16.20	
2025-01-20 08:03:59.84	22.88	16.23	
2025-01-20 08:04:00.04	22.89	16.25	
2025-01-20 08:04:00.25	22.90	16.28	
2025-01-20 08:04:00.45	22.91	16.30	
2025-01-20 08:04:00.65	22.92	16.33	
2025-01-20 08:04:00.86	22.93	16.35	
2025-01-20 08:04:01.06	22.94	16.38	
2025-01-20 08:04:01.26	22.95	16.40	
2025-01-20 08:04:01.46	22.96	16.42	
2025-01-20 08:04:01.67	22.97	16.45	
2025-01-20 08:04:01.87	22.98	16.47	
2025-01-20 08:04:02.07	22.99	16.50	
2025-01-20 08:04:02.28	23.00	16.52	
2025-01-20 08:04:02.48	23.01	16.55	
2025-01-20 08:04:02.68	23.02	16.57	
2025-01-20 08:04:02.89	23.03	16.60	
2025-01-20 08:04:03.09	23.04	16.62	
2025-01-20 08:04:03.29	23.05	16.65	
2025-01-20 08:04:03.50	23.06	16.67	
2025-01-20 08:04:03.70	23.07	16.70	
2025-01-20 08:04:03.90	23.08	16.72	
2025-01-20 08:04:04.10	23.09	16.75	
2025-01-20 08:04:04.31	23.11	16.77	
2025-01-20 08:04:04.51	23.12	16.80	
2025-01-20 08:04:04.71	23.13	16.82	
2025-01-20 08:04:04.92	23.14	16.85	
2025-01-20 08:04:05.12	23.15	16.87	
2025-01-20 08:04:05.32	23.16	16.90	
2025-01-20 08:04:05.53	23.17	16.92	
2025-01-20 08:04:05.73	23.18	16.95	
2025-01-20 08:04:05.93	23.19	16.97	
2025-01-20 08:04:06.14	23.20	17.00	
2025-01-20 08:04:06.34	23.21	17.02	
2025-01-20 08:04:06.54	23.22	17.05	
2025-01-20 08:04:06.74	23.23	17.07	
2025-01-20 08:04:06.95	23.24	17.10	
2025-01-20 08:04:07.15	23.25	17.13	
2025-01-20 08:04:07.35	23.26	17.15	
2025-01-20 08:04:07.56	23.28	17.18	
2025-01-20 08:04:07.76	23.29	17.20	
2025-01-20 08:04:07.96	23.30	17.23	
2025-01-20 08:04:08.17	23.31	17.25	
2025-01-20 08:04:08.37	23.32	17.28	
2025-01-20 08:04:08.57	23.33	17.30	
2025-01-20 08:04:08.78	23.34	17.33	
2025-01-20 08:04:08.98	23.35	17.36	
2025-01-20 08:04:09.18	23.36	17.38	
2025-01-20 08:04:09.39	23.37	17.41	
2025-01-20 08:04:09.59	23.38	17.43	
2025-01-20 08:04:09.79	23.39	17.46	
2025-01-20 08:04:09.99	23.41	17.48	
2025-01-20 08:04:10.20	23.42	17.51	
2025-01-20 08:04:10.40	23.43	17.54	
2025-01-20 08:04:10.60	23.44	17.56	
2025-01-20 08:04:10.81	23.45	17.59	
2025-01-20 08:04:11.01	23.46	17.62	
2025-01-20 08:04:11.21	23.47	17.64	
2025-01-20 08:04:11.42	23.48	17.67	
2025-01-20 08:04:11.62	23.49	17.69	
2025-01-20 08:04:11.82	23.50	17.72	
2025-01-20 08:04:12.03	23.52	17.75	
2025-01-20 08:04:12.23	23.53	17.77	
2025-01-20 08:04:12.43	23.54	17.80	
2025-01-20 08:04:12.63	23.55	17.82	
2025-01-20 08:04:12.84	23.56	17.85	
2025-01-20 08:04:13.04	23.57	17.88	
2025-01-20 08:04:13.24	23.58	17.90	
2025-01-20 08:04:13.45	23.59	17.93	
2025-01-20 08:04:13.65	23.61	17.96	
2025-01-20 08:04:13.85	23.62	17.98	
2025-01-20 08:04:14.06	23.63	18.01	
2025-01-20 08:04:14.26	23.64	18.03	
2025-01-20 08:04:14.46	23.65	18.06	
2025-01-20 08:04:14.67	23.66	18.09	
2025-01-20 08:04:14.87	23.67	18.11	
2025-01-20 08:04:15.07	23.69	18.14	
2025-01-20 08:04:15.27	23.70	18.17	
2025-01-20 08:04:15.48	23.71	18.19	
2025-01-20 08:04:15.68	23.72	18.22	
2025-01-20 08:04:15.88	23.73	18.25	
2025-01-20 08:04:16.09	23.74	18.27	
2025-01-20 08:04:16.29	23.75	18.30	
2025-01-20 08:04:16.49	23.77	18.33	
2025-01-20 08:04:16.70	23.78	18.36	
2025-01-20 08:04:16.90	23.79	18.38	
2025-01-20 08:04:17.10	23.80	18.41	
2025-01-20 08:04:17.31	23.81	18.44	
2025-01-20 08:04:17.51	23.82	18.46	
2025-01-20 08:04:17.71	23.84	18.49	
2025-01-20 08:04:17.91	23.85	18.52	
2025-01-20 08:04:18.12	23.86	18.54	
2025-01-20 08:04:18.32	23.87	18.57	
2025-01-20 08:04:18.52	23.88	18.60	
2025-01-20 08:04:18.73	23.89	18.63	
2025-01-20 08:04:18.93	23.91	18.65	
2025-01-20 08:04:19.13	23.92	18.68	
2025-01-20 08:04:19.34	23.93	18.71	
2025-01-20 08:04:19.54	23.94	18.73	
2025-01-20 08:04:19.74	23.95	18.76	
2025-01-20 08:04:19.95	23.97	18.79	
2025-01-20 08:04:20.15	23.98	18.82	
2025-01-20 08:04:20.35	23.99	18.84	
2025-01-20 08:04:20.55	24.00	18.87	
2025-01-20 08:04:20.76	24.01	18.90	
2025-01-20 08:04:20.96	24.03	18.93	
2025-01-20 08:04:21.16	24.04	18.95	
2025-01-20 08:04:21.37	24.05	18.98	
2025-01-20 08:04:21.57	24.06	19.01	
2025-01-20 08:04:21.77	24.07	19.04	
2025-01-20 08:04:21.98	24.09	19.06	
2025-01-20 08:04:22.18	24.10	19.09	
2025-01-20 08:04:22.38	24.11	19.12	
2025-01-20 08:04:22.59	24.12	19.15	
2025-01-20 08:04:22.79	24.13	19.17	
2025-01-20 08:04:22.99	24.15	19.20	
2025-01-20 08:04:23.19	24.16	19.23	
2025-01-20 08:04:23.40	24.17	19.26	
2025-01-20 08:04:23.60	24.18	19.29	
2025-01-20 08:04:23.80	24.20	19.31	
2025-01-20 08:04:24.01	24.21	19.34	
2025-01-20 08:04:24.21	24.22	19.37	
2025-01-20 08:04:24.41	24.23	19.40	
2025-01-20 08:04:24.62	24.25	19.43	
2025-01-20 08:04:24.82	24.26	19.45	
2025-01-20 08:04:25.02	24.27	19.48	
2025-01-20 08:04:25.23	24.28	19.51	
2025-01-20 08:04:25.43	24.30	19.54	
2025-01-20 08:04:25.63	24.31	19.57	
2025-01-20 08:04:25.83	24.32	19.59	
2025-01-20 08:04:26.04	24.33	19.62	
2025-01-20 08:04:26.24	24.35	19.65	
2025-01-20 08:04:26.44	24.36	19.68	
2025-01-20 08:04:26.65	24.37	19.71	
2025-01-20 08:04:26.85	24.38	19.74	
2025-01-20 08:04:27.05	24.40	19.77	
2025-01-20 08:04:27.26	24.41	19.80	
2025-01-20 08:04:27.46	24.42	19.82	
2025-01-20 08:04:27.66	24.43	19.85	
2025-01-20 08:04:27.87	24.45	19.88	
2025-01-20 08:04:28.07	24.46	19.91	
2025-01-20 08:04:28.27	24.47	19.94	
2025-01-20 08:04:28.47	24.49	19.97	
2025-01-20 08:04:28.68	24.50	20.00	
2025-01-20 08:04:28.88	24.51	20.02	
2025-01-20 08:04:29.08	24.52	20.05	
2025-01-20 08:04:29.29	24.54	20.08	
2025-01-20 08:04:29.49	24.55	20.11	
2025-01-20 08:04:29.69	24.56	20.14	
2025-01-20 08:04:29.90	24.58	20.17	
2025-01-20 08:04:30.10	24.59	20.20	
2025-01-20 08:04:30.30	24.60	20.23	
2025-01-20 08:04:30.51	24.62	20.26	
2025-01-20 08:04:30.71	24.63	20.29	
2025-01-20 08:04:30.91	24.64	20.31	
2025-01-20 08:04:31.12	24.66	20.34	
2025-01-20 08:04:31.32	24.67	20.37	
2025-01-20 08:04:31.52	24.68	20.40	
2025-01-20 08:04:31.72	24.69	20.43	
2025-01-20 08:04:31.93	24.71	20.46	
2025-01-20 08:04:32.13	24.72	20.49	
2025-01-20 08:04:32.33	24.73	20.52	
2025-01-20 08:04:32.54	24.75	20.55	
2025-01-20 08:04:32.74	24.76	20.58	
2025-01-20 08:04:32.94	24.77	20.61	
2025-01-20 08:04:33.15	24.79	20.64	
2025-01-20 08:04:33.35	24.80	20.67	
2025-01-20 08:04:33.55	24.81	20.70	
2025-01-20 08:04:33.76	24.83	20.73	
2025-01-20 08:04:33.96	24.84	20.76	
2025-01-20 08:04:34.16	24.86	20.79	
2025-01-20 08:04:34.36	24.87	20.82	
2025-01-20 08:04:34.57	24.88	20.85	
2025-01-20 08:04:34.77	24.90	20.88	
2025-01-20 08:04:34.97	24.91	20.90	
2025-01-20 08:04:35.18	24.92	20.94	
2025-01-20 08:04:35.38	24.94	20.97	
2025-01-20 08:04:35.58	24.95	21.00	
2025-01-20 08:04:35.79	24.97	21.03	
2025-01-20 08:04:35.99	24.98	21.06	
2025-01-20 08:04:36.19	24.99	21.09	
2025-01-20 08:04:36.40	25.01	21.12	
2025-01-20 08:04:36.60	25.02	21.15	
2025-01-20 08:04:36.80	25.03	21.18	
2025-01-20 08:04:37.00	25.05	21.21	
2025-01-20 08:04:37.21	25.06	21.24	
2025-01-20 08:04:37.41	25.08	21.27	
2025-01-20 08:04:37.61	25.09	21.30	
2025-01-20 08:04:37.82	25.10	21.33	
2025-01-20 08:04:38.02	25.12	21.36	
2025-01-20 08:04:38.22	25.13	21.39	
2025-01-20 08:04:38.43	25.15	21.42	
2025-01-20 08:04:38.63	25.16	21.45	
2025-01-20 08:04:38.83	25.17	21.48	
2025-01-20 08:04:39.04	25.19	21.51	
2025-01-20 08:04:39.24	25.20	21.54	
2025-01-20 08:04:39.44	25.22	21.57	
2025-01-20 08:04:39.64	25.23	21.60	
2025-01-20 08:04:39.85	25.25	21.64	
2025-01-20 08:04:40.05	25.26	21.67	
2025-01-20 08:04:40.25	25.27	21.70	
2025-01-20 08:04:40.46	25.29	21.73	
2025-01-20 08:04:40.66	25.30	21.76	
2025-01-20 08:04:40.86	25.32	21.79	
2025-01-20 08:04:41.07	25.33	21.82	
2025-01-20 08:04:41.27	25.35	21.85	
2025-01-20 08:04:41.47	25.36	21.88	
2025-01-20 08:04:41.68	25.38	21.91	
2025-01-20 08:04:41.88	25.39	21.95	
2025-01-20 08:04:42.08	25.40	21.98	
2025-01-20 08:04:42.28	25.42	22.01	
2025-01-20 08:04:42.49	25.43	22.04	
2025-01-20 08:04:42.69	25.45	22.07	
2025-01-20 08:04:42.89	25.46	22.10	
2025-01-20 08:04:43.10	25.48	22.13	
2025-01-20 08:04:43.30	25.49	22.17	
2025-01-20 08:04:43.50	25.51	22.20	
2025-01-20 08:04:43.71	25.52	22.23	
2025-01-20 08:04:43.91	25.54	22.26	
2025-01-20 08:04:44.11	25.55	22.29	
2025-01-20 08:04:44.32	25.57	22.32	
2025-01-20 08:04:44.52	25.58	22.36	
2025-01-20 08:04:44.72	25.60	22.39	
2025-01-20 08:04:44.92	25.61	22.42	
2025-01-20 08:04:45.13	25.63	22.45	
2025-01-20 08:04:45.33	25.64	22.48	
2025-01-20 08:04:45.53	25.66	22.51	
2025-01-20 08:04:45.74	25.67	22.55	
2025-01-20 08:04:45.94	25.69	22.58	
2025-01-20 08:04:46.14	25.70	22.61	
2025-01-20 08:04:46.35	25.72	22.64	
2025-01-20 08:04:46.55	25.73	22.67	
2025-01-20 08:04:46.75	25.75	22.71	
2025-01-20 08:04:46.96	25.76	22.74	
2025-01-20 08:04:47.16	25.78	22.77	
2025-01-20 08:04:47.36	25.79	22.80	
2025-01-20 08:04:47.56	25.81	22.84	
2025-01-20 08:04:47.77	25.83	22.87	
2025-01-20 08:04:47.97	25.84	22.90	
2025-01-20 08:04:48.17	25.86	22.93	
2025-01-20 08:04:48.38	25.87	22.97	
2025-01-20 08:04:48.58	25.89	23.00	
2025-01-20 08:04:48.78	25.90	23.03	
2025-01-20 08:04:48.99	25.92	23.06	
2025-01-20 08:04:49.19	25.94	23.10	
2025-01-20 08:04:49.39	25.95	23.13	
2025-01-20 08:04:49.60	25.97	23.16	
2025-01-20 08:04:49.80	25.98	23.20	
2025-01-20 08:04:50.00	26.00	23.23	
2025-01-20 08:04:50.20	26.01	23.26	
2025-01-20 08:04:50.41	26.03	23.29	
2025-01-20 08:04:50.61	26.05	23.33	
2025-01-20 08:04:50.81	26.06	23.36	
2025-01-20 08:04:51.02	26.08	23.39	
2025-01-20 08:04:51.22	26.09	23.43	
2025-01-20 08:04:51.42	26.11	23.46	
2025-01-20 08:04:51.63	26.13	23.49	
2025-01-20 08:04:51.83	26.14	23.53	
2025-01-20 08:04:52.03	26.16	23.56	
2025-01-20 08:04:52.24	26.17	23.59	
2025-01-20 08:04:52.44	26.19	23.63	
2025-01-20 08:04:52.64	26.21	23.66	
2025-01-20 08:04:52.84	26.22	23.69	
2025-01-20 08:04:53.05	26.24	23.73	
2025-01-20 08:04:53.25	26.26	23.76	
2025-01-20 08:04:53.45	26.27	23.79	
2025-01-20 08:04:53.66	26.29	23.83	
2025-01-20 08:04:53.86	26.31	23.86	
2025-01-20 08:04:54.06	26.32	23.90	
2025-01-20 08:04:54.27	26.34	23.93	
2025-01-20 08:04:54.47	26.35	23.96	
2025-01-20 08:04:54.67	26.37	24.00	
2025-01-20 08:04:54.88	26.39	24.03	
2025-01-20 08:04:55.08	26.40	24.07	
2025-01-20 08:04:55.28	26.42	24.10	
2025-01-20 08:04:55.49	26.44	24.13	
2025-01-20 08:04:55.69	26.45	24.17	
2025-01-20 08:04:55.89	26.47	24.20	
2025-01-20 08:04:56.09	26.49	24.24	
2025-01-20 08:04:56.30	26.51	24.27	
2025-01-20 08:04:56.50	26.52	24.30	
2025-01-20 08:04:56.70	26.54	24.34	
2025-01-20 08:04:56.91	26.56	24.37	
2025-01-20 08:04:57.11	26.57	24.41	
2025-01-20 08:04:57.31	26.59	24.44	
2025-01-20 08:04:57.52	26.61	24.48	
2025-01-20 08:04:57.72	26.62	24.51	
2025-01-20 08:04:57.92	26.64	24.55	
2025-01-20 08:04:58.13	26.66	24.58	
2025-01-20 08:04:58.33	26.68	24.62	
2025-01-20 08:04:58.53	26.69	24.65	
2025-01-20 08:04:58.73	26.71	24.69	
2025-01-20 08:04:58.94	26.73	24.72	
2025-01-20 08:04:59.14	26.75	24.76	
2025-01-20 08:04:59.34	26.76	24.79	
2025-01-20 08:04:59.55	26.78	24.83	
2025-01-20 08:04:59.75	26.80	24.86	
2025-01-20 08:04:59.95	26.82	24.90	
2025-01-20 08:05:00.16	26.83	24.93	
2025-01-20 08:05:00.36	26.85	24.97	
2025-01-20 08:05:00.56	26.87	25.00	
2025-01-20 08:05:00.77	26.89	25.04	
2025-01-20 08:05:00.97	26.90	25.07	
2025-01-20 08:05:01.17	26.92	25.11	
2025-01-20 08:05:01.37	26.94	25.14	
2025-01-20 08:05:01.58	26.96	25.18	
2025-01-20 08:05:01.78	26.98	25.21	
2025-01-20 08:05:01.98	26.99	25.25	
2025-01-20 08:05:02.19	27.01	25.29	
2025-01-20 08:05:02.39	27.03	25.32	
2025-01-20 08:05:02.59	27.05	25.36	
2025-01-20 08:05:02.80	27.07	25.39	
2025-01-20 08:05:03.00	27.08	25.43	
2025-01-20 08:05:03.20	27.10	25.47	
2025-01-20 08:05:03.41	27.12	25.50	
2025-01-20 08:05:03.61	27.14	25.54	
2025-01-20 08:05:03.81	27.16	25.57	
2025-01-20 08:05:04.01	27.18	25.61	
2025-01-20 08:05:04.22	27.19	25.65	
2025-01-20 08:05:04.42	27.21	25.68	
2025-01-20 08:05:04.62	27.23	25.72	
2025-01-20 08:05:04.83	27.25	25.76	
2025-01-20 08:05:05.03	27.27	25.79	
2025-01-20 08:05:05.23	27.29	25.83	
2025-01-20 08:05:05.44	27.31	25.86	
2025-01-20 08:05:05.64	27.32	25.90	
2025-01-20 08:05:05.84	27.34	25.94	
2025-01-20 08:05:06.05	27.36	25.97	
2025-01-20 08:05:06.25	27.38	26.01	
2025-01-20 08:05:06.45	27.40	26.05	
2025-01-20 08:05:06.65	27.42	26.08	
2025-01-20 08:05:06.86	27.44	26.12	
2025-01-20 08:05:07.06	27.46	26.16	
2025-01-20 08:05:07.26	27.47	26.19	
2025-01-20 08:05:07.47	27.49	26.23	
2025-01-20 08:05:07.67	27.51	26.27	
2025-01-20 08:05:07.87	27.53	26.31	
2025-01-20 08:05:08.08	27.55	26.34	
2025-01-20 08:05:08.28	27.57	26.38	
2025-01-20 08:05:08.48	27.59	26.42	
2025-01-20 08:05:08.69	27.61	26.46	
2025-01-20 08:05:08.89	27.63	26.49	
2025-01-20 08:05:09.09	27.65	26.53	
2025-01-20 08:05:09.29	27.67	26.57	
2025-01-20 08:05:09.50	27.69	26.61	
2025-01-20 08:05:09.70	27.71	26.64	
2025-01-20 08:05:09.90	27.73	26.68	
2025-01-20 08:05:10.11	27.75	26.72	
2025-01-20 08:05:10.31	27.77	26.76	
2025-01-20 08:05:10.51	27.79	26.79	
2025-01-20 08:05:10.72	27.81	26.83	
2025-01-20 08:05:10.92	27.83	26.87	
2025-01-20 08:05:11.12	27.85	26.91	
2025-01-20 08:05:11.33	27.87	26.95	
2025-01-20 08:05:11.53	27.89	26.98	
2025-01-20 08:05:11.73	27.91	27.02	
2025-01-20 08:05:11.93	27.93	27.06	
2025-01-20 08:05:12.14	27.95	27.10	
2025-01-20 08:05:12.34	27.97	27.14	
2025-01-20 08:05:12.54	27.99	27.17	
2025-01-20 08:05:12.75	28.01	27.21	
2025-01-20 08:05:12.95	28.03	27.25	
2025-01-20 08:05:13.15	28.05	27.29	
2025-01-20 08:05:13.36	28.07	27.33	
2025-01-20 08:05:13.56	28.09	27.37	
2025-01-20 08:05:13.76	28.11	27.41	
2025-01-20 08:05:13.97	28.13	27.45	
2025-01-20 08:05:14.17	28.15	27.48	
2025-01-20 08:05:14.37	28.17	27.52	
2025-01-20 08:05:14.57	28.19	27.56	
2025-01-20 08:05:14.78	28.21	27.60	
2025-01-20 08:05:14.98	28.23	27.64	
2025-01-20 08:05:15.18	28.25	27.68	
2025-01-20 08:05:15.39	28.28	27.72	
2025-01-20 08:05:15.59	28.30	27.76	
2025-01-20 08:05:15.79	28.32	27.80	
2025-01-20 08:05:16.00	28.34	27.84	
2025-01-20 08:05:16.20	28.36	27.87	
2025-01-20 08:05:16.40	28.38	27.91	
2025-01-20 08:05:16.61	28.40	27.95	
2025-01-20 08:05:16.81	28.42	27.99	
2025-01-20 08:05:17.01	28.44	28.03	
2025-01-20 08:05:17.21	28.47	28.07	
2025-01-20 08:05:17.42	28.49	28.11	
2025-01-20 08:05:17.62	28.51	28.15	
2025-01-20 08:05:17.82	28.53	28.19	
2025-01-20 08:05:18.03	28.55	28.23	
2025-01-20 08:05:18.23	28.57	28.27	
2025-01-20 08:05:18.43	28.60	28.31	
2025-01-20 08:05:18.64	28.62	28.35	
2025-01-20 08:05:18.84	28.64	28.39	
2025-01-20 08:05:19.04	28.66	28.43	
2025-01-20 08:05:19.25	28.68	28.47	
2025-01-20 08:05:19.45	28.71	28.51	
2025-01-20 08:05:19.65	28.73	28.55	
2025-01-20 08:05:19.86	28.75	28.59	
2025-01-20 08:05:20.06	28.77	28.63	
2025-01-20 08:05:20.26	28.79	28.67	
2025-01-20 08:05:20.46	28.82	28.71	
2025-01-20 08:05:20.67	28.84	28.76	
2025-01-20 08:05:20.87	28.86	28.80	
2025-01-20 08:05:21.07	28.88	28.84	
2025-01-20 08:05:21.28	28.91	28.88	
2025-01-20 08:05:21.48	28.93	28.92	
2025-01-20 08:05:21.68	28.95	28.96	
2025-01-20 08:05:21.89	28.97	29.00	
2025-01-20 08:05:22.09	29.00	29.04	
2025-01-20 08:05:22.29	29.02	29.08	
2025-01-20 08:05:22.50	29.04	29.12	
2025-01-20 08:05:22.70	29.07	29.16	
2025-01-20 08:05:22.90	29.09	29.21	
2025-01-20 08:05:23.10	29.11	29.25	
2025-01-20 08:05:23.31	29.13	29.29	
2025-01-20 08:05:23.51	29.16	29.33	
2025-01-20 08:05:23.71	29.18	29.37	
2025-01-20 08:05:23.92	29.20	29.41	
2025-01-20 08:05:24.12	29.23	29.45	
2025-01-20 08:05:24.32	29.25	29.50	
2025-01-20 08:05:24.53	29.27	29.54	
2025-01-20 08:05:24.73	29.30	29.58	
2025-01-20 08:05:24.93	29.32	29.62	
2025-01-20 08:05:25.14	29.35	29.66	
2025-01-20 08:05:25.34	29.37	29.71	
2025-01-20 08:05:25.54	29.39	29.75	
2025-01-20 08:05:25.74	29.42	29.79	
2025-01-20 08:05:25.95	29.44	29.83	
2025-01-20 08:05:26.15	29.46	29.87	
2025-01-20 08:05:26.35	29.49	29.92	
2025-01-20 08:05:26.56	29.51	29.96	
2025-01-20 08:05:26.76	29.54	30.00	
2025-01-20 08:05:26.96	29.56	30.04	
2025-01-20 08:05:27.17	29.58	30.09	
2025-01-20 08:05:27.37	29.61	30.13	
2025-01-20 08:05:27.57	29.63	30.17	
2025-01-20 08:05:27.78	29.66	30.22	
2025-01-20 08:05:27.98	29.68	30.26	
2025-01-20 08:05:28.18	29.71	30.30	
2025-01-20 08:05:28.38	29.73	30.34	
2025-01-20 08:05:28.59	29.76	30.39	
2025-01-20 08:05:28.79	29.78	30.43	
2025-01-20 08:05:28.99	29.81	30.47	
2025-01-20 08:05:29.20	29.83	30.52	
2025-01-20 08:05:29.40	29.86	30.56	
2025-01-20 08:05:29.60	29.88	30.60	
2025-01-20 08:05:29.81	29.91	30.65	
2025-01-20 08:05:30.01	29.93	30.69	
2025-01-20 08:05:30.21	29.96	30.73	
2025-01-20 08:05:30.42	29.98	30.78	
2025-01-20 08:05:30.62	30.01	30.82	
2025-01-20 08:05:30.82	30.03	30.86	
2025-01-20 08:05:31.02	30.06	30.91	
2025-01-20 08:05:31.23	30.08	30.95	
2025-01-20 08:05:31.43	30.11	31.00	
2025-01-20 08:05:31.63	30.13	31.04	
2025-01-20 08:05:31.84	30.16	31.08	
2025-01-20 08:05:32.04	30.19	31.13	
2025-01-20 08:05:32.24	30.21	31.17	
2025-01-20 08:05:32.45	30.24	31.22	
2025-01-20 08:05:32.65	30.26	31.26	
2025-01-20 08:05:32.85	30.29	31.30	
2025-01-20 08:05:33.06	30.32	31.35	
2025-01-20 08:05:33.26	30.34	31.39	
2025-01-20 08:05:33.46	30.37	31.44	
2025-01-20 08:05:33.66	30.40	31.48	
2025-01-20 08:05:33.87	30.42	31.53	
2025-01-20 08:05:34.07	30.45	31.57	
2025-01-20 08:05:34.27	30.48	31.62	
2025-01-20 08:05:34.48	30.50	31.66	
2025-01-20 08:05:34.68	30.53	31.71	
2025-01-20 08:05:34.88	30.56	31.75	
2025-01-20 08:05:35.09	30.58	31.80	
2025-01-20 08:05:35.29	30.61	31.84	
2025-01-20 08:05:35.49	30.64	31.89	
2025-01-20 08:05:35.70	30.67	31.93	
2025-01-20 08:05:35.90	30.69	31.98	
2025-01-20 08:05:36.10	30.72	32.02	
2025-01-20 08:05:36.30	30.75	32.07	
2025-01-20 08:05:36.51	30.77	32.12	
2025-01-20 08:05:36.71	30.80	32.16	
2025-01-20 08:05:36.91	30.83	32.21	
2025-01-20 08:05:37.12	30.86	32.25	
2025-01-20 08:05:37.32	30.88	32.30	
2025-01-20 08:05:37.52	30.91	32.34	
2025-01-20 08:05:37.73	30.94	32.39	
2025-01-20 08:05:37.93	30.97	32.44	
2025-01-20 08:05:38.13	31.00	32.48	
2025-01-20 08:05:38.34	31.03	32.53	
2025-01-20 08:05:38.54	31.05	32.58	
2025-01-20 08:05:38.74	31.08	32.62	
2025-01-20 08:05:38.95	31.11	32.67	
2025-01-20 08:05:39.15	31.14	32.71	
2025-01-20 08:05:39.35	31.17	32.76	
2025-01-20 08:05:39.55	31.20	32.81	
2025-01-20 08:05:39.76	31.22	32.85	
2025-01-20 08:05:39.96	31.25	32.90	
2025-01-20 08:05:40.16	31.28	32.95	
2025-01-20 08:05:40.37	31.31	33.00	
2025-01-20 08:05:40.57	31.34	33.04	
2025-01-20 08:05:40.77	31.37	33.09	
2025-01-20 08:05:40.98	31.40	33.14	
2025-01-20 08:05:41.18	31.43	33.18	
2025-01-20 08:05:41.38	31.46	33.23	
2025-01-20 08:05:41.59	31.49	33.28	
2025-01-20 08:05:41.79	31.52	33.33	
2025-01-20 08:05:41.99	31.55	33.37	
2025-01-20 08:05:42.19	31.58	33.42	
2025-01-20 08:05:42.40	31.61	33.47	
2025-01-20 08:05:42.60	31.64	33.52	
2025-01-20 08:05:42.80	31.67	33.56	
2025-01-20 08:05:43.01	31.70	33.61	
2025-01-20 08:05:43.21	31.73	33.66	
2025-01-20 08:05:43.41	31.76	33.71	
2025-01-20 08:05:43.62	31.79	33.76	
2025-01-20 08:05:43.82	31.82	33.80	
2025-01-20 08:05:44.02	31.85	33.85	
2025-01-20 08:05:44.23	31.88	33.90	
2025-01-20 08:05:44.43	31.91	33.95	
2025-01-20 08:05:44.63	31.94	34.00	
2025-01-20 08:05:44.83	31.97	34.04	
2025-01-20 08:05:45.04	32.00	34.09	
2025-01-20 08:05:45.24	32.03	34.14	
2025-01-20 08:05:45.44	32.06	34.19	
2025-01-20 08:05:45.65	32.10	34.24	
2025-01-20 08:05:45.85	32.13	34.29	
2025-01-20 08:05:46.05	32.16	34.34	
2025-01-20 08:05:46.26	32.19	34.39	
2025-01-20 08:05:46.46	32.22	34.44	
2025-01-20 08:05:46.66	32.25	34.48	
2025-01-20 08:05:46.87	32.29	34.53	
2025-01-20 08:05:47.07	32.32	34.58	
2025-01-20 08:05:47.27	32.35	34.63	
2025-01-20 08:05:47.47	32.38	34.68	
2025-01-20 08:05:47.68	32.41	34.73	
2025-01-20 08:05:47.88	32.45	34.78	
2025-01-20 08:05:48.08	32.48	34.83	
2025-01-20 08:05:48.29	32.51	34.88	
2025-01-20 08:05:48.49	32.54	34.93	
2025-01-20 08:05:48.69	32.58	34.98	
2025-01-20 08:05:48.90	32.61	35.03	
2025-01-20 08:05:49.10	32.64	35.08	
2025-01-20 08:05:49.30	32.68	35.13	
2025-01-20 08:05:49.51	32.71	35.18	
2025-01-20 08:05:49.71	32.74	35.23	
2025-01-20 08:05:49.91	32.78	35.28	
2025-01-20 08:05:50.11	32.81	35.33	
2025-01-20 08:05:50.32	32.84	35.38	
2025-01-20 08:05:50.52	32.88	35.43	
2025-01-20 08:05:50.72	32.91	35.48	
2025-01-20 08:05:50.93	32.94	35.53	
2025-01-20 08:05:51.13	32.98	35.58	
2025-01-20 08:05:51.33	33.01	35.63	
2025-01-20 08:05:51.54	33.05	35.69	
2025-01-20 08:05:51.74	33.08	35.74	
2025-01-20 08:05:51.94	33.11	35.79	
2025-01-20 08:05:52.15	33.15	35.84	
2025-01-20 08:05:52.35	33.18	35.89	
2025-01-20 08:05:52.55	33.22	35.94	
2025-01-20 08:05:52.75	33.25	35.99	
2025-01-20 08:05:52.96	33.29	36.04	
2025-01-20 08:05:53.16	33.32	36.10	
2025-01-20 08:05:53.36	33.36	36.15	
2025-01-20 08:05:53.57	33.39	36.20	
2025-01-20 08:05:53.77	33.43	36.25	
2025-01-20 08:05:53.97	33.46	36.30	
2025-01-20 08:05:54.18	33.50	36.36	
2025-01-20 08:05:54.38	33.54	36.41	
2025-01-20 08:05:54.58	33.57	36.46	
2025-01-20 08:05:54.79	33.61	36.51	
2025-01-20 08:05:54.99	33.64	36.56	
2025-01-20 08:05:55.19	33.68	36.61	
2025-01-20 08:05:55.39	33.72	36.67	
2025-01-20 08:05:55.60	33.75	36.72	
2025-01-20 08:05:55.80	33.79	36.77	
2025-01-20 08:05:56.00	33.83	36.82	
2025-01-20 08:05:56.21	33.86	36.88	
2025-01-20 08:05:56.41	33.90	36.93	
2025-01-20 08:05:56.61	33.94	36.98	
2025-01-20 08:05:56.82	33.98	37.04	
2025-01-20 08:05:57.02	34.01	37.09	
2025-01-20 08:05:57.22	34.05	37.14	
2025-01-20 08:05:57.43	34.09	37.20	
2025-01-20 08:05:57.63	34.12	37.25	
2025-01-20 08:05:57.83	34.16	37.30	
2025-01-20 08:05:58.03	34.20	37.35	
2025-01-20 08:05:58.24	34.24	37.41	
2025-01-20 08:05:58.44	34.28	37.46	
2025-01-20 08:05:58.64	34.31	37.51	
2025-01-20 08:05:58.85	34.35	37.57	
2025-01-20 08:05:59.05	34.39	37.62	
2025-01-20 08:05:59.25	34.43	37.68	
2025-01-20 08:05:59.46	34.47	37.73	
2025-01-20 08:05:59.66	34.51	37.78	
2025-01-20 08:05:59.86	34.55	37.84	
2025-01-20 08:06:00.07	34.59	37.89	
2025-01-20 08:06:00.27	34.63	37.95	
2025-01-20 08:06:00.47	34.66	38.00	
2025-01-20 08:06:00.67	34.70	38.05	
2025-01-20 08:06:00.88	34.74	38.11	
2025-01-20 08:06:01.08	34.78	38.16	
2025-01-20 08:06:01.28	34.82	38.22	
2025-01-20 08:06:01.49	34.86	38.28	
2025-01-20 08:06:01.69	34.90	38.33	
2025-01-20 08:06:01.89	34.94	38.38	
2025-01-20 08:06:02.10	34.99	38.44	
2025-01-20 08:06:02.30	35.03	38.49	
2025-01-20 08:06:02.50	35.07	38.55	
2025-01-20 08:06:02.71	35.11	38.61	
2025-01-20 08:06:02.91	35.15	38.66	
2025-01-20 08:06:03.11	35.19	38.71	
2025-01-20 08:06:03.32	35.23	38.77	
2025-01-20 08:06:03.52	35.27	38.83	
2025-01-20 08:06:03.72	35.31	38.88	
2025-01-20 08:06:03.92	35.35	38.94	
2025-01-20 08:06:04.13	35.40	38.99	
2025-01-20 08:06:04.33	35.44	39.05	
2025-01-20 08:06:04.53	35.48	39.10	
2025-01-20 08:06:04.74	35.52	39.16	
2025-01-20 08:06:04.94	35.57	39.22	
2025-01-20 08:06:05.14	35.61	39.27	
2025-01-20 08:06:05.35	35.65	39.33	
2025-01-20 08:06:05.55	35.69	39.39	
2025-01-20 08:06:05.75	35.74	39.44	
2025-01-20 08:06:05.96	35.78	39.50	
2025-01-20 08:06:06.16	35.82	39.56	
2025-01-20 08:06:06.36	35.87	39.61	
2025-01-20 08:06:06.56	35.91	39.67	
2025-01-20 08:06:06.77	35.96	39.73	
2025-01-20 08:06:06.97	36.00	39.78	
2025-01-20 08:06:07.17	36.04	39.84	
2025-01-20 08:06:07.38	36.09	39.90	
2025-01-20 08:06:07.58	36.13	39.95	
2025-01-20 08:06:07.78	36.18	40.01	
2025-01-20 08:06:07.99	36.22	40.07	
2025-01-20 08:06:08.19	36.27	40.12	
2025-01-20 08:06:08.39	36.31	40.18	
2025-01-20 08:06:08.60	36.36	40.24	
2025-01-20 08:06:08.80	36.40	40.30	
2025-01-20 08:06:09.00	36.45	40.35	
2025-01-20 08:06:09.20	36.49	40.41	
2025-01-20 08:06:09.41	36.54	40.47	
2025-01-20 08:06:09.61	36.58	40.53	
2025-01-20 08:06:09.81	36.63	40.58	
2025-01-20 08:06:10.02	36.68	40.64	
2025-01-20 08:06:10.22	36.72	40.70	
2025-01-20 08:06:10.42	36.77	40.76	
2025-01-20 08:06:10.63	36.82	40.82	
2025-01-20 08:06:10.83	36.86	40.88	
2025-01-20 08:06:11.03	36.91	40.93	
2025-01-20 08:06:11.24	36.96	41.00	
2025-01-20 08:06:11.44	37.01	41.05	
2025-01-20 08:06:11.64	37.05	41.11	
2025-01-20 08:06:11.84	37.10	41.17	
2025-01-20 08:06:12.05	37.15	41.23	
2025-01-20 08:06:12.25	37.20	41.29	
2025-01-20 08:06:12.45	37.25	41.35	
2025-01-20 08:06:12.66	37.30	41.41	
2025-01-20 08:06:12.86	37.34	41.47	
2025-01-20 08:06:13.06	37.39	41.52	
2025-01-20 08:06:13.27	37.44	41.58	
2025-01-20 08:06:13.47	37.49	41.64	
2025-01-20 08:06:13.67	37.54	41.70	
2025-01-20 08:06:13.88	37.59	41.76	
2025-01-20 08:06:14.08	37.64	41.82	
2025-01-20 08:06:14.28	37.69	41.88	
2025-01-20 08:06:14.48	37.74	41.94	
2025-01-20 08:06:14.69	37.79	42.00	
2025-01-20 08:06:14.89	37.84	42.06	
2025-01-20 08:06:15.09	37.89	42.12	
2025-01-20 08:06:15.30	37.94	42.18	
2025-01-20 08:06:15.50	37.99	42.24	
2025-01-20 08:06:15.70	38.05	42.30	
2025-01-20 08:06:15.91	38.10	42.36	
2025-01-20 08:06:16.11	38.15	42.42	
2025-01-20 08:06:16.31	38.20	42.48	
2025-01-20 08:06:16.52	38.25	42.55	
2025-01-20 08:06:16.72	38.31	42.60	
2025-01-20 08:06:16.92	38.36	42.66	
2025-01-20 08:06:17.12	38.41	42.72	
2025-01-20 08:06:17.33	38.46	42.79	
2025-01-20 08:06:17.53	38.52	42.85	
2025-01-20 08:06:17.73	38.57	42.91	
2025-01-20 08:06:17.94	38.62	42.97	
2025-01-20 08:06:18.14	38.68	43.03	
2025-01-20 08:06:18.34	38.73	43.09	
2025-01-20 08:06:18.55	38.79	43.16	
2025-01-20 08:06:18.75	38.84	43.22	
2025-01-20 08:06:18.95	38.89	43.28	
2025-01-20 08:06:19.16	38.95	43.34	
2025-01-20 08:06:19.36	39.00	43.40	
2025-01-20 08:06:19.56	39.06	43.46	
2025-01-20 08:06:19.76	39.11	43.52	
2025-01-20 08:06:19.97	39.17	43.59	
2025-01-20 08:06:20.17	39.23	43.65	
2025-01-20 08:06:20.37	39.28	43.71	
2025-01-20 08:06:20.58	39.34	43.77	
2025-01-20 08:06:20.78	39.40	43.83	
2025-01-20 08:06:20.98	39.45	43.90	
2025-01-20 08:06:21.19	39.51	43.96	
2025-01-20 08:06:21.39	39.57	44.02	
2025-01-20 08:06:21.59	39.62	44.08	
2025-01-20 08:06:21.80	39.68	44.15	
2025-01-20 08:06:22.00	39.74	44.21	
2025-01-20 08:06:22.20	39.80	44.27	
2025-01-20 08:06:22.40	39.85	44.33	
2025-01-20 08:06:22.61	39.91	44.40	
2025-01-20 08:06:22.81	39.97	44.46	
2025-01-20 08:06:23.01	40.03	44.52	
2025-01-20 08:06:23.22	40.09	44.59	
2025-01-20 08:06:23.42	40.15	44.65	
2025-01-20 08:06:23.62	40.21	44.71	
2025-01-20 08:06:23.83	40.27	44.78	
2025-01-20 08:06:24.03	40.33	44.84	
2025-01-20 08:06:24.23	40.39	44.90	
2025-01-20 08:06:24.44	40.45	44.97	
2025-01-20 08:06:24.64	40.51	45.03	
2025-01-20 08:06:24.84	40.57	45.09	
2025-01-20 08:06:25.05	40.64	45.16	
2025-01-20 08:06:25.25	40.70	45.22	
2025-01-20 08:06:25.45	40.76	45.29	
2025-01-20 08:06:25.65	40.82	45.35	
2025-01-20 08:06:25.86	40.88	45.41	
2025-01-20 08:06:26.06	40.95	45.48	
2025-01-20 08:06:26.26	41.01	45.54	
2025-01-20 08:06:26.47	41.07	45.61	
2025-01-20 08:06:26.67	41.14	45.67	
2025-01-20 08:06:26.87	41.20	45.73	
2025-01-20 08:06:27.08	41.26	45.80	
2025-01-20 08:06:27.28	41.33	45.86	
2025-01-20 08:06:27.48	41.39	45.93	
2025-01-20 08:06:27.69	41.46	45.99	
2025-01-20 08:06:27.89	41.52	46.06	
2025-01-20 08:06:28.09	41.59	46.12	
2025-01-20 08:06:28.29	41.65	46.19	
2025-01-20 08:06:28.50	41.72	46.25	
2025-01-20 08:06:28.70	41.78	46.32	
2025-01-20 08:06:28.90	41.85	46.38	
2025-01-20 08:06:29.11	41.92	46.45	
2025-01-20 08:06:29.31	41.98	46.51	
2025-01-20 08:06:29.51	42.05	46.58	
2025-01-20 08:06:29.72	42.12	46.65	
2025-01-20 08:06:29.92	42.19	46.71	
2025-01-20 08:06:30.12	42.25	46.77	
2025-01-20 08:06:30.33	42.32	46.84	
2025-01-20 08:06:30.53	42.39	46.91	
2025-01-20 08:06:30.73	42.46	46.97	
2025-01-20 08:06:30.93	42.53	47.04	
2025-01-20 08:06:31.14	42.60	47.10	
2025-01-20 08:06:31.34	42.67	47.17	
2025-01-20 08:06:31.54	42.74	47.23	
2025-01-20 08:06:31.75	42.81	47.30	
2025-01-20 08:06:31.95	42.88	47.37	
2025-01-20 08:06:32.15	42.95	47.43	
2025-01-20 08:06:32.36	43.02	47.50	
2025-01-20 08:06:32.56	43.09	47.57	
2025-01-20 08:06:32.76	43.17	47.63	
2025-01-20 08:06:32.97	43.24	47.70	
2025-01-20 08:06:33.17	43.31	47.77	
2025-01-20 08:06:33.37	43.38	47.83	
2025-01-20 08:06:33.57	43.45	47.90	
2025-01-20 08:06:33.78	43.53	47.97	
2025-01-20 08:06:33.98	43.60	48.03	
2025-01-20 08:06:34.18	43.68	48.10	
2025-01-20 08:06:34.39	43.75	48.17	
2025-01-20 08:06:34.59	43.83	48.23	
2025-01-20 08:06:34.79	43.90	48.30	
2025-01-20 08:06:35.00	43.98	48.37	
2025-01-20 08:06:35.20	44.05	48.43	
2025-01-20 08:06:35.40	44.13	48.50	
2025-01-20 08:06:35.61	44.21	48.57	
2025-01-20 08:06:35.81	44.28	48.63	
2025-01-20 08:06:36.01	44.36	48.70	
2025-01-20 08:06:36.21	44.43	48.77	
2025-01-20 08:06:36.42	44.51	48.84	
2025-01-20 08:06:36.62	44.59	48.90	
2025-01-20 08:06:36.82	44.67	48.97	
2025-01-20 08:06:37.03	44.75	49.04	
2025-01-20 08:06:37.23	44.83	49.11	
2025-01-20 08:06:37.43	44.91	49.17	
2025-01-20 08:06:37.64	44.99	49.24	
2025-01-20 08:06:37.84	45.07	49.31	
2025-01-20 08:06:38.04	45.15	49.38	
2025-01-20 08:06:38.25	45.23	49.45	
2025-01-20 08:06:38.45	45.31	49.51	
2025-01-20 08:06:38.65	45.39	49.58	
2025-01-20 08:06:38.85	45.47	49.65	
2025-01-20 08:06:39.06	45.56	49.72	
2025-01-20 08:06:39.26	45.64	49.78	
2025-01-20 08:06:39.46	45.72	49.85	
2025-01-20 08:06:39.67	45.81	49.92	
2025-01-20 08:06:39.87	45.89	49.99	
2025-01-20 08:06:40.07	45.97	50.06	
2025-01-20 08:06:40.28	46.06	50.13	
2025-01-20 08:06:40.48	46.14	50.19	
2025-01-20 08:06:40.68	46.23	50.26	
2025-01-20 08:06:40.89	46.32	50.33	
2025-01-20 08:06:41.09	46.40	50.40	
2025-01-20 08:06:41.29	46.49	50.47	
2025-01-20 08:06:41.49	46.57	50.53	
2025-01-20 08:06:41.70	46.66	50.61	
2025-01-20 08:06:41.90	46.75	50.67	
2025-01-20 08:06:42.10	46.83	50.74	
2025-01-20 08:06:42.31	46.93	50.81	
2025-01-20 08:06:42.51	47.01	50.88	
2025-01-20 08:06:42.71	47.10	50.95	
2025-01-20 08:06:42.92	47.19	51.02	
2025-01-20 08:06:43.12	47.28	51.09	
2025-01-20 08:06:43.32	47.37	51.15	
2025-01-20 08:06:43.53	47.47	51.22	
2025-01-20 08:06:43.73	47.56	51.29	
2025-01-20 08:06:43.93	47.65	51.36	
2025-01-20 08:06:44.13	47.74	51.43	
2025-01-20 08:06:44.34	47.83	51.50	
2025-01-20 08:06:44.54	47.92	51.57	
2025-01-20 08:06:44.74	48.02	51.64	
2025-01-20 08:06:44.95	48.11	51.71	
2025-01-20 08:06:45.15	48.21	51.78	
2025-01-20 08:06:45.35	48.30	51.84	
2025-01-20 08:06:45.56	48.40	51.92	
2025-01-20 08:06:45.76	48.49	51.98	
2025-01-20 08:06:45.96	48.59	52.05	
2025-01-20 08:06:46.17	48.69	52.12	
2025-01-20 08:06:46.37	48.78	52.19	
2025-01-20 08:06:46.57	48.88	52.26	
2025-01-20 08:06:46.77	48.98	52.33	
2025-01-20 08:06:46.98	49.08	52.40	
2025-01-20 08:06:47.18	49.17	52.47	
2025-01-20 08:06:47.38	49.27	52.54	
2025-01-20 08:06:47.59	49.38	52.61	
2025-01-20 08:06:47.79	49.47	52.68	
2025-01-20 08:06:47.99	49.57	52.74	
2025-01-20 08:06:48.20	49.68	52.82	
2025-01-20 08:06:48.40	49.78	52.88	
2025-01-20 08:06:48.60	49.88	52.95	
2025-01-20 08:06:48.81	49.99	53.02	
2025-01-20 08:06:49.01	50.09	53.09	
2025-01-20 08:06:49.21	50.19	53.16	
2025-01-20 08:06:49.42	50.30	53.23	
2025-01-20 08:06:49.62	50.40	53.30	
2025-01-20 08:06:49.82	50.50	53.37	
2025-01-20 08:06:50.02	50.61	53.44	
2025-01-20 08:06:50.23	50.72	53.51	
2025-01-20 08:06:50.43	50.82	53.58	
2025-01-20 08:06:50.63	50.93	53.65	
2025-01-20 08:06:50.84	51.04	53.72	
2025-01-20 08:06:51.04	51.15	53.79	
2025-01-20 08:06:51.24	51.25	53.86	
2025-01-20 08:06:51.45	51.37	53.93	
2025-01-20 08:06:51.65	51.47	54.00	
2025-01-20 08:06:51.85	51.58	54.06	
2025-01-20 08:06:52.06	51.70	54.14	
2025-01-20 08:06:52.26	51.81	54.20	
2025-01-20 08:06:52.46	51.92	54.27	
2025-01-20 08:06:52.66	52.03	54.34	
2025-01-20 08:06:52.87	52.15	54.41	
2025-01-20 08:06:53.07	52.26	54.48	
2025-01-20 08:06:53.27	52.37	54.55	
2025-01-20 08:06:53.48	52.49	54.62	
2025-01-20 08:06:53.68	52.60	54.69	
2025-01-20 08:06:53.88	52.72	54.76	
2025-01-20 08:06:54.09	52.84	54.83	
2025-01-20 08:06:54.29	52.95	54.90	
2025-01-20 08:06:54.49	53.07	54.97	
2025-01-20 08:06:54.70	53.19	55.04	
2025-01-20 08:06:54.90	53.31	55.11	
2025-01-20 08:06:55.10	53.42	55.17	
2025-01-20 08:06:55.30	53.54	55.24	
2025-01-20 08:06:55.51	53.67	55.31	
2025-01-20 08:06:55.71	53.79	55.38	
2025-01-20 08:06:55.91	53.90	55.45	
2025-01-20 08:06:56.12	54.03	55.52	
2025-01-20 08:06:56.32	54.15	55.59	
2025-01-20 08:06:56.52	54.27	55.66	
2025-01-20 08:06:56.73	54.40	55.73	
2025-01-20 08:06:56.93	54.52	55.80	
2025-01-20 08:06:57.13	54.65	55.86	
2025-01-20 08:06:57.34	54.78	55.94	
2025-01-20 08:06:57.54	54.90	56.00	
2025-01-20 08:06:57.74	55.03	56.07	
2025-01-20 08:06:57.94	55.15	56.14	
2025-01-20 08:06:58.15	55.29	56.21	
2025-01-20 08:06:58.35	55.41	56.28	
2025-01-20 08:06:58.55	55.54	56.35	
2025-01-20 08:06:58.76	55.68	56.42	
2025-01-20 08:06:58.96	55.81	56.48	
2025-01-20 08:06:59.16	55.93	56.55	
2025-01-20 08:06:59.37	56.07	56.62	
2025-01-20 08:06:59.57	56.20	56.69	
2025-01-20 08:06:59.77	56.33	56.76	
2025-01-20 08:06:59.98	56.47	56.83	
2025-01-20 08:07:00.18	56.61	56.89	
2025-01-20 08:07:00.38	56.74	56.96	
2025-01-20 08:07:00.58	56.87	57.03	
2025-01-20 08:07:00.79	57.02	57.10	
2025-01-20 08:07:00.99	57.15	57.16	
2025-01-20 08:07:01.19	57.29	57.23	
2025-01-20 08:07:01.40	57.43	57.30	
2025-01-20 08:07:01.60	57.57	57.37	
2025-01-20 08:07:01.80	57.71	57.43	
2025-01-20 08:07:02.01	57.85	57.50	
2025-01-20 08:07:02.21	57.99	57.57	
2025-01-20 08:07:02.41	58.13	57.64	
2025-01-20 08:07:02.62	58.28	57.71	
2025-01-20 08:07:02.82	58.42	57.77	
2025-01-20 08:07:03.02	58.56	57.84	
2025-01-20 08:07:03.22	58.71	57.90	
2025-01-20 08:07:03.43	58.86	57.97	
2025-01-20 08:07:03.63	59.00	58.04	
2025-01-20 08:07:03.83	59.15	58.11	
2025-01-20 08:07:04.04	59.30	58.17	
2025-01-20 08:07:04.24	59.45	58.24	
2025-01-20 08:07:04.44	59.60	58.30	
2025-01-20 08:07:04.65	59.75	58.37	
2025-01-20 08:07:04.85	59.90	58.44	
2025-01-20 08:07:05.05	60.05	58.50	
2025-01-20 08:07:05.26	60.21	58.57	
2025-01-20 08:07:05.46	60.36	58.64	
2025-01-20 08:07:05.66	60.51	58.70	
2025-01-20 08:07:05.86	60.67	58.77	
2025-01-20 08:07:06.07	60.83	58.83	
2025-01-20 08:07:06.27	60.98	58.90	
2025-01-20 08:07:06.47	61.14	58.96	
2025-01-20 08:07:06.68	61.30	59.03	
2025-01-20 08:07:06.88	61.46	59.09	
2025-01-20 08:07:07.08	61.61	59.16	
2025-01-20 08:07:07.29	61.78	59.22	
2025-01-20 08:07:07.49	61.94	59.29	
2025-01-20 08:07:07.69	62.10	59.35	
2025-01-20 08:07:07.90	62.27	59.42	
2025-01-20 08:07:08.10	62.43	59.48	
2025-01-20 08:07:08.30	62.59	59.55	
2025-01-20 08:07:08.50	62.75	59.61	
2025-01-20 08:07:08.71	62.92	59.67	
2025-01-20 08:07:08.91	63.09	59.74	
2025-01-20 08:07:09.11	63.25	59.80	
2025-01-20 08:07:09.32	63.43	59.86	
2025-01-20 08:07:09.52	63.60	59.93	
2025-01-20 08:07:09.72	63.76	59.99	
2025-01-20 08:07:09.93	63.94	60.05	
2025-01-20 08:07:10.13	64.11	60.12	
2025-01-20 08:07:10.33	64.28	60.18	
2025-01-20 08:07:10.54	64.46	60.24	
2025-01-20 08:07:10.74	64.63	60.30	
2025-01-20 08:07:10.94	64.80	60.36	
2025-01-20 08:07:11.14	64.98	60.43	
2025-01-20 08:07:11.35	65.16	60.49	
2025-01-20 08:07:11.55	65.34	60.55	
2025-01-20 08:07:11.75	65.51	60.61	
2025-01-20 08:07:11.96	65.70	60.67	
2025-01-20 08:07:12.16	65.88	60.73	
2025-01-20 08:07:12.36	66.06	60.79	
2025-01-20 08:07:12.57	66.24	60.86	
2025-01-20 08:07:12.77	66.42	60.92	
2025-01-20 08:07:12.97	66.61	60.97	
2025-01-20 08:07:13.18	66.80	61.04	
2025-01-20 08:07:13.38	66.98	61.10	
2025-01-20 08:07:13.58	67.16	61.15	
2025-01-20 08:07:13.79	67.36	61.22	
2025-01-20 08:07:13.99	67.54	61.27	
2025-01-20 08:07:14.19	67.73	61.33	
2025-01-20 08:07:14.39	67.92	61.39	
2025-01-20 08:07:14.60	68.12	61.45	
2025-01-20 08:07:14.80	68.30	61.51	
2025-01-20 08:07:15.00	68.49	61.57	
2025-01-20 08:07:15.21	68.70	61.63	
2025-01-20 08:07:15.41	68.89	61.68	
2025-01-20 08:07:15.61	69.08	61.74	
2025-01-20 08:07:15.82	69.28	61.80	
2025-01-20 08:07:16.02	69.48	61.85	
2025-01-20 08:07:16.22	69.67	61.91	
2025-01-20 08:07:16.43	69.88	61.97	
2025-01-20 08:07:16.63	70.08	62.02	
2025-01-20 08:07:16.83	70.28	62.08	
2025-01-20 08:07:17.03	70.47	62.13	
2025-01-20 08:07:17.24	70.68	62.19	
2025-01-20 08:07:17.44	70.89	62.24	
2025-01-20 08:07:17.64	71.09	62.30	
2025-01-20 08:07:17.85	71.30	62.36	
2025-01-20 08:07:18.05	71.50	62.41	
2025-01-20 08:07:18.25	71.71	62.46	
2025-01-20 08:07:18.46	71.92	62.52	
2025-01-20 08:07:18.66	72.13	62.57	
2025-01-20 08:07:18.86	72.34	62.62	
2025-01-20 08:07:19.07	72.56	62.68	
2025-01-20 08:07:19.27	72.77	62.73	
2025-01-20 08:07:19.47	72.98	62.78	
2025-01-20 08:07:19.67	73.19	62.83	
2025-01-20 08:07:19.88	73.41	62.89	
2025-01-20 08:07:20.08	73.62	62.94	
2025-01-20 08:07:20.28	73.84	62.99	
2025-01-20 08:07:20.49	74.06	63.04	
2025-01-20 08:07:20.69	74.28	63.09	
2025-01-20 08:07:20.89	74.49	63.14	
2025-01-20 08:07:21.10	74.72	63.19	
2025-01-20 08:07:21.30	74.94	63.24	
2025-01-20 08:07:21.50	75.16	63.29	
2025-01-20 08:07:21.71	75.39	63.34	
2025-01-20 08:07:21.91	75.61	63.39	
2025-01-20 08:07:22.11	75.84	63.44	
2025-01-20 08:07:22.31	76.06	63.48	
2025-01-20 08:07:22.52	76.29	63.53	
2025-01-20 08:07:22.72	76.52	63.58	
2025-01-20 08:07:22.92	76.74	63.63	
2025-01-20 08:07:23.13	76.98	63.68	
2025-01-20 08:07:23.33	77.21	63.72	
2025-01-20 08:07:23.53	77.44	63.77	
2025-01-20 08:07:23.74	77.68	63.81	
2025-01-20 08:07:23.94	77.91	63.86	
2025-01-20 08:07:24.14	78.14	63.90	
2025-01-20 08:07:24.35	78.38	63.95	
2025-01-20 08:07:24.55	78.62	63.99	
2025-01-20 08:07:24.75	78.85	64.04	
2025-01-20 08:07:24.95	79.08	64.08	
2025-01-20 08:07:25.16	79.33	64.12	
