passes_logs/2025/01/20/SPB_Silybum_02/SPB_Silybum_02__20250120_095721_AQUA_rec.log

#Pass ID: 20250120_095721_AQUA
#Satellite: AQUA
#Configuration: AQUA
#Start time: 2025-01-20 09:57:19

#Version: 2.0.20230423
#Station: SPB_Silybum_02
#Location: 30.233357 lon 59.946436 lat
#TLE: 1 27424U 02022A   25019.86270051  .00002463  00000+0  51518-3 0  9998
#TLE: 2 27424  98.3596 336.5709 0001915 106.8361 278.0854 14.60706016208336

#Time	Az	El	Level	Level2	SNR	BER	Gain	Gain2
2025-01-20 09:57:21.72	116.30	4.04	
2025-01-20 09:57:21.92	116.29	4.05	
2025-01-20 09:57:22.12	116.27	4.06	
2025-01-20 09:57:22.33	116.26	4.08	
2025-01-20 09:57:22.53	116.25	4.09	
2025-01-20 09:57:22.73	116.23	4.10	
2025-01-20 09:57:22.94	116.22	4.12	
2025-01-20 09:57:23.14	116.20	4.13	
2025-01-20 09:57:23.34	116.19	4.14	
2025-01-20 09:57:23.55	116.17	4.16	
2025-01-20 09:57:23.75	116.16	4.17	
2025-01-20 09:57:23.95	116.14	4.18	
2025-01-20 09:57:24.16	116.13	4.20	
2025-01-20 09:57:24.36	116.11	4.21	
2025-01-20 09:57:24.56	116.10	4.22	
2025-01-20 09:57:24.76	116.08	4.23	
2025-01-20 09:57:24.97	116.07	4.25	
2025-01-20 09:57:25.17	116.06	4.26	
2025-01-20 09:57:25.37	116.04	4.27	
2025-01-20 09:57:25.58	116.03	4.29	
2025-01-20 09:57:25.78	116.01	4.30	
2025-01-20 09:57:25.98	116.00	4.31	
2025-01-20 09:57:26.19	115.98	4.33	
2025-01-20 09:57:26.39	115.97	4.34	
2025-01-20 09:57:26.59	115.95	4.35	
2025-01-20 09:57:26.80	115.94	4.37	
2025-01-20 09:57:27.00	115.92	4.38	
2025-01-20 09:57:27.20	115.91	4.39	
2025-01-20 09:57:27.40	115.89	4.41	
2025-01-20 09:57:27.61	115.88	4.42	
2025-01-20 09:57:27.81	115.86	4.44	
2025-01-20 09:57:28.01	115.85	4.45	
2025-01-20 09:57:28.22	115.83	4.46	
2025-01-20 09:57:28.42	115.82	4.48	
2025-01-20 09:57:28.62	115.80	4.49	
2025-01-20 09:57:28.83	115.79	4.50	
2025-01-20 09:57:29.03	115.77	4.52	
2025-01-20 09:57:29.23	115.76	4.53	
2025-01-20 09:57:29.44	115.74	4.54	
2025-01-20 09:57:29.64	115.73	4.56	
2025-01-20 09:57:29.84	115.71	4.57	
2025-01-20 09:57:30.04	115.70	4.58	
2025-01-20 09:57:30.25	115.68	4.60	
2025-01-20 09:57:30.45	115.67	4.61	
2025-01-20 09:57:30.65	115.65	4.62	
2025-01-20 09:57:30.86	115.64	4.64	
2025-01-20 09:57:31.06	115.62	4.65	
2025-01-20 09:57:31.26	115.61	4.66	
2025-01-20 09:57:31.47	115.59	4.68	
2025-01-20 09:57:31.67	115.58	4.69	
2025-01-20 09:57:31.87	115.56	4.70	
2025-01-20 09:57:32.08	115.54	4.72	
2025-01-20 09:57:32.28	115.53	4.73	
2025-01-20 09:57:32.48	115.51	4.74	
2025-01-20 09:57:32.68	115.50	4.76	
2025-01-20 09:57:32.89	115.48	4.77	
2025-01-20 09:57:33.09	115.47	4.78	
2025-01-20 09:57:33.29	115.45	4.80	
2025-01-20 09:57:33.50	115.44	4.81	
2025-01-20 09:57:33.70	115.42	4.83	
2025-01-20 09:57:33.90	115.41	4.84	
2025-01-20 09:57:34.11	115.39	4.85	
2025-01-20 09:57:34.31	115.38	4.87	
2025-01-20 09:57:34.51	115.36	4.88	
2025-01-20 09:57:34.72	115.35	4.89	
2025-01-20 09:57:34.92	115.33	4.91	
2025-01-20 09:57:35.12	115.31	4.92	
2025-01-20 09:57:35.32	115.30	4.93	
2025-01-20 09:57:35.53	115.28	4.95	
2025-01-20 09:57:35.73	115.27	4.96	
2025-01-20 09:57:35.93	115.25	4.97	
2025-01-20 09:57:36.14	115.24	4.99	
2025-01-20 09:57:36.34	115.22	5.00	
2025-01-20 09:57:36.54	115.21	5.02	
2025-01-20 09:57:36.75	115.19	5.03	
2025-01-20 09:57:36.95	115.17	5.04	
2025-01-20 09:57:37.15	115.16	5.06	
2025-01-20 09:57:37.36	115.14	5.07	
2025-01-20 09:57:37.56	115.13	5.08	
2025-01-20 09:57:37.76	115.11	5.10	
2025-01-20 09:57:37.96	115.10	5.11	
2025-01-20 09:57:38.17	115.08	5.13	
2025-01-20 09:57:38.37	115.06	5.14	
2025-01-20 09:57:38.57	115.05	5.15	
2025-01-20 09:57:38.78	115.03	5.17	
2025-01-20 09:57:38.98	115.02	5.18	
2025-01-20 09:57:39.18	115.00	5.19	
2025-01-20 09:57:39.39	114.98	5.21	
2025-01-20 09:57:39.59	114.97	5.22	
2025-01-20 09:57:39.79	114.95	5.23	
2025-01-20 09:57:40.00	114.94	5.25	
2025-01-20 09:57:40.20	114.92	5.26	
2025-01-20 09:57:40.40	114.91	5.28	
2025-01-20 09:57:40.60	114.89	5.29	
2025-01-20 09:57:40.81	114.87	5.30	
2025-01-20 09:57:41.01	114.86	5.32	
2025-01-20 09:57:41.21	114.84	5.33	
2025-01-20 09:57:41.42	114.83	5.34	
2025-01-20 09:57:41.62	114.81	5.36	
2025-01-20 09:57:41.82	114.79	5.37	
2025-01-20 09:57:42.03	114.78	5.39	
2025-01-20 09:57:42.23	114.76	5.40	
2025-01-20 09:57:42.43	114.75	5.41	
2025-01-20 09:57:42.64	114.73	5.43	
2025-01-20 09:57:42.84	114.71	5.44	
2025-01-20 09:57:43.04	114.70	5.45	
2025-01-20 09:57:43.24	114.68	5.47	
2025-01-20 09:57:43.45	114.66	5.48	
2025-01-20 09:57:43.65	114.65	5.50	
2025-01-20 09:57:43.85	114.63	5.51	
2025-01-20 09:57:44.06	114.62	5.52	
2025-01-20 09:57:44.26	114.60	5.54	
2025-01-20 09:57:44.46	114.58	5.55	
2025-01-20 09:57:44.67	114.57	5.57	
2025-01-20 09:57:44.87	114.55	5.58	
2025-01-20 09:57:45.07	114.53	5.59	
2025-01-20 09:57:45.28	114.52	5.61	
2025-01-20 09:57:45.48	114.50	5.62	
2025-01-20 09:57:45.68	114.49	5.63	
2025-01-20 09:57:45.88	114.47	5.65	
2025-01-20 09:57:46.09	114.45	5.66	
2025-01-20 09:57:46.29	114.44	5.68	
2025-01-20 09:57:46.49	114.42	5.69	
2025-01-20 09:57:46.70	114.40	5.70	
2025-01-20 09:57:46.90	114.39	5.72	
2025-01-20 09:57:47.10	114.37	5.73	
2025-01-20 09:57:47.31	114.35	5.75	
2025-01-20 09:57:47.51	114.34	5.76	
2025-01-20 09:57:47.71	114.32	5.77	
2025-01-20 09:57:47.92	114.30	5.79	
2025-01-20 09:57:48.12	114.29	5.80	
2025-01-20 09:57:48.32	114.27	5.82	
2025-01-20 09:57:48.52	114.25	5.83	
2025-01-20 09:57:48.73	114.24	5.84	
2025-01-20 09:57:48.93	114.22	5.86	
2025-01-20 09:57:49.13	114.20	5.87	
2025-01-20 09:57:49.34	114.19	5.89	
2025-01-20 09:57:49.54	114.17	5.90	
2025-01-20 09:57:49.74	114.15	5.91	
2025-01-20 09:57:49.95	114.14	5.93	
2025-01-20 09:57:50.15	114.12	5.94	
2025-01-20 09:57:50.35	114.10	5.96	
2025-01-20 09:57:50.56	114.09	5.97	
2025-01-20 09:57:50.76	114.07	5.98	
2025-01-20 09:57:50.96	114.05	6.00	
2025-01-20 09:57:51.16	114.04	6.01	
2025-01-20 09:57:51.37	114.02	6.03	
2025-01-20 09:57:51.57	114.00	6.04	
2025-01-20 09:57:51.77	113.99	6.05	
2025-01-20 09:57:51.98	113.97	6.07	
2025-01-20 09:57:52.18	113.95	6.08	
2025-01-20 09:57:52.38	113.94	6.10	
2025-01-20 09:57:52.59	113.92	6.11	
2025-01-20 09:57:52.79	113.90	6.13	
2025-01-20 09:57:52.99	113.88	6.14	
2025-01-20 09:57:53.20	113.87	6.15	
2025-01-20 09:57:53.40	113.85	6.17	
2025-01-20 09:57:53.60	113.83	6.18	
2025-01-20 09:57:53.80	113.82	6.20	
2025-01-20 09:57:54.01	113.80	6.21	
2025-01-20 09:57:54.21	113.78	6.22	
2025-01-20 09:57:54.41	113.77	6.24	
2025-01-20 09:57:54.62	113.75	6.25	
2025-01-20 09:57:54.82	113.73	6.27	
2025-01-20 09:57:55.02	113.71	6.28	
2025-01-20 09:57:55.23	113.70	6.30	
2025-01-20 09:57:55.43	113.68	6.31	
2025-01-20 09:57:55.63	113.66	6.32	
2025-01-20 09:57:55.84	113.64	6.34	
2025-01-20 09:57:56.04	113.63	6.35	
2025-01-20 09:57:56.24	113.61	6.37	
2025-01-20 09:57:56.44	113.59	6.38	
2025-01-20 09:57:56.65	113.57	6.39	
2025-01-20 09:57:56.85	113.56	6.41	
2025-01-20 09:57:57.05	113.54	6.42	
2025-01-20 09:57:57.26	113.52	6.44	
2025-01-20 09:57:57.46	113.51	6.45	
2025-01-20 09:57:57.66	113.49	6.47	
2025-01-20 09:57:57.87	113.47	6.48	
2025-01-20 09:57:58.07	113.45	6.49	
2025-01-20 09:57:58.27	113.44	6.51	
2025-01-20 09:57:58.48	113.42	6.52	
2025-01-20 09:57:58.68	113.40	6.54	
2025-01-20 09:57:58.88	113.38	6.55	
2025-01-20 09:57:59.08	113.37	6.57	
2025-01-20 09:57:59.29	113.35	6.58	
2025-01-20 09:57:59.49	113.33	6.59	
2025-01-20 09:57:59.69	113.31	6.61	
2025-01-20 09:57:59.90	113.29	6.62	
2025-01-20 09:58:00.10	113.28	6.64	
2025-01-20 09:58:00.30	113.26	6.65	
2025-01-20 09:58:00.51	113.24	6.67	
2025-01-20 09:58:00.71	113.22	6.68	
2025-01-20 09:58:00.91	113.21	6.69	
2025-01-20 09:58:01.12	113.19	6.71	
2025-01-20 09:58:01.32	113.17	6.72	
2025-01-20 09:58:01.52	113.15	6.74	
2025-01-20 09:58:01.72	113.14	6.75	
2025-01-20 09:58:01.93	113.12	6.77	
2025-01-20 09:58:02.13	113.10	6.78	
2025-01-20 09:58:02.33	113.08	6.80	
2025-01-20 09:58:02.54	113.06	6.81	
2025-01-20 09:58:02.74	113.05	6.82	
2025-01-20 09:58:02.94	113.03	6.84	
2025-01-20 09:58:03.15	113.01	6.85	
2025-01-20 09:58:03.35	112.99	6.87	
2025-01-20 09:58:03.55	112.97	6.88	
2025-01-20 09:58:03.76	112.95	6.90	
2025-01-20 09:58:03.96	112.94	6.91	
2025-01-20 09:58:04.16	112.92	6.93	
2025-01-20 09:58:04.36	112.90	6.94	
2025-01-20 09:58:04.57	112.88	6.95	
2025-01-20 09:58:04.77	112.86	6.97	
2025-01-20 09:58:04.97	112.85	6.98	
2025-01-20 09:58:05.18	112.83	7.00	
2025-01-20 09:58:05.38	112.81	7.01	
2025-01-20 09:58:05.58	112.79	7.03	
2025-01-20 09:58:05.79	112.77	7.04	
2025-01-20 09:58:05.99	112.76	7.06	
2025-01-20 09:58:06.19	112.74	7.07	
2025-01-20 09:58:06.40	112.72	7.09	
2025-01-20 09:58:06.60	112.70	7.10	
2025-01-20 09:58:06.80	112.68	7.11	
2025-01-20 09:58:07.00	112.66	7.13	
2025-01-20 09:58:07.21	112.65	7.14	
2025-01-20 09:58:07.41	112.63	7.16	
2025-01-20 09:58:07.61	112.61	7.17	
2025-01-20 09:58:07.82	112.59	7.19	
2025-01-20 09:58:08.02	112.57	7.20	
2025-01-20 09:58:08.22	112.55	7.22	
2025-01-20 09:58:08.43	112.53	7.23	
2025-01-20 09:58:08.63	112.52	7.25	
2025-01-20 09:58:08.83	112.50	7.26	
2025-01-20 09:58:09.04	112.48	7.27	
2025-01-20 09:58:09.24	112.46	7.29	
2025-01-20 09:58:09.44	112.44	7.30	
2025-01-20 09:58:09.64	112.42	7.32	
2025-01-20 09:58:09.85	112.40	7.33	
2025-01-20 09:58:10.05	112.39	7.35	
2025-01-20 09:58:10.25	112.37	7.36	
2025-01-20 09:58:10.46	112.35	7.38	
2025-01-20 09:58:10.66	112.33	7.39	
2025-01-20 09:58:10.86	112.31	7.41	
2025-01-20 09:58:11.07	112.29	7.42	
2025-01-20 09:58:11.27	112.27	7.44	
2025-01-20 09:58:11.47	112.25	7.45	
2025-01-20 09:58:11.68	112.24	7.47	
2025-01-20 09:58:11.88	112.22	7.48	
2025-01-20 09:58:12.08	112.20	7.49	
2025-01-20 09:58:12.28	112.18	7.51	
2025-01-20 09:58:12.49	112.16	7.52	
2025-01-20 09:58:12.69	112.14	7.54	
2025-01-20 09:58:12.89	112.12	7.55	
2025-01-20 09:58:13.10	112.10	7.57	
2025-01-20 09:58:13.30	112.08	7.58	
2025-01-20 09:58:13.50	112.07	7.60	
2025-01-20 09:58:13.71	112.05	7.61	
2025-01-20 09:58:13.91	112.03	7.63	
2025-01-20 09:58:14.11	112.01	7.64	
2025-01-20 09:58:14.32	111.99	7.66	
2025-01-20 09:58:14.52	111.97	7.67	
2025-01-20 09:58:14.72	111.95	7.69	
2025-01-20 09:58:14.92	111.93	7.70	
2025-01-20 09:58:15.13	111.91	7.72	
2025-01-20 09:58:15.33	111.89	7.73	
2025-01-20 09:58:15.53	111.87	7.75	
2025-01-20 09:58:15.74	111.85	7.76	
2025-01-20 09:58:15.94	111.83	7.78	
2025-01-20 09:58:16.14	111.82	7.79	
2025-01-20 09:58:16.35	111.80	7.81	
2025-01-20 09:58:16.55	111.78	7.82	
2025-01-20 09:58:16.75	111.76	7.83	
2025-01-20 09:58:16.96	111.74	7.85	
2025-01-20 09:58:17.16	111.72	7.87	
2025-01-20 09:58:17.36	111.70	7.88	
2025-01-20 09:58:17.56	111.68	7.89	
2025-01-20 09:58:17.77	111.66	7.91	
2025-01-20 09:58:17.97	111.64	7.92	
2025-01-20 09:58:18.17	111.62	7.94	
2025-01-20 09:58:18.38	111.60	7.95	
2025-01-20 09:58:18.58	111.58	7.97	
2025-01-20 09:58:18.78	111.56	7.98	
2025-01-20 09:58:18.99	111.54	8.00	
2025-01-20 09:58:19.19	111.52	8.01	
2025-01-20 09:58:19.39	111.50	8.03	
2025-01-20 09:58:19.60	111.48	8.04	
2025-01-20 09:58:19.80	111.46	8.06	
2025-01-20 09:58:20.00	111.44	8.07	
2025-01-20 09:58:20.20	111.43	8.09	
2025-01-20 09:58:20.41	111.40	8.10	
2025-01-20 09:58:20.61	111.39	8.12	
2025-01-20 09:58:20.81	111.37	8.13	
2025-01-20 09:58:21.02	111.35	8.15	
2025-01-20 09:58:21.22	111.33	8.16	
2025-01-20 09:58:21.42	111.31	8.18	
2025-01-20 09:58:21.63	111.29	8.19	
2025-01-20 09:58:21.83	111.27	8.21	
2025-01-20 09:58:22.03	111.25	8.22	
2025-01-20 09:58:22.24	111.23	8.24	
2025-01-20 09:58:22.44	111.21	8.25	
2025-01-20 09:58:22.64	111.19	8.27	
2025-01-20 09:58:22.84	111.17	8.28	
2025-01-20 09:58:23.05	111.15	8.30	
2025-01-20 09:58:23.25	111.13	8.31	
2025-01-20 09:58:23.45	111.11	8.33	
2025-01-20 09:58:23.66	111.08	8.35	
2025-01-20 09:58:23.86	111.07	8.36	
2025-01-20 09:58:24.06	111.05	8.38	
2025-01-20 09:58:24.27	111.02	8.39	
2025-01-20 09:58:24.47	111.00	8.41	
2025-01-20 09:58:24.67	110.98	8.42	
2025-01-20 09:58:24.88	110.96	8.44	
2025-01-20 09:58:25.08	110.94	8.45	
2025-01-20 09:58:25.28	110.92	8.47	
2025-01-20 09:58:25.48	110.90	8.48	
2025-01-20 09:58:25.69	110.88	8.50	
2025-01-20 09:58:25.89	110.86	8.51	
2025-01-20 09:58:26.09	110.84	8.53	
2025-01-20 09:58:26.30	110.82	8.54	
2025-01-20 09:58:26.50	110.80	8.56	
2025-01-20 09:58:26.70	110.78	8.57	
2025-01-20 09:58:26.91	110.76	8.59	
2025-01-20 09:58:27.11	110.74	8.60	
2025-01-20 09:58:27.31	110.72	8.62	
2025-01-20 09:58:27.52	110.70	8.63	
2025-01-20 09:58:27.72	110.68	8.65	
2025-01-20 09:58:27.92	110.66	8.66	
2025-01-20 09:58:28.12	110.64	8.68	
2025-01-20 09:58:28.33	110.62	8.69	
2025-01-20 09:58:28.53	110.59	8.71	
2025-01-20 09:58:28.73	110.57	8.72	
2025-01-20 09:58:28.94	110.55	8.74	
2025-01-20 09:58:29.14	110.53	8.76	
2025-01-20 09:58:29.34	110.51	8.77	
2025-01-20 09:58:29.55	110.49	8.79	
2025-01-20 09:58:29.75	110.47	8.80	
2025-01-20 09:58:29.95	110.45	8.82	
2025-01-20 09:58:30.16	110.43	8.83	
2025-01-20 09:58:30.36	110.41	8.85	
2025-01-20 09:58:30.56	110.39	8.86	
2025-01-20 09:58:30.76	110.37	8.88	
2025-01-20 09:58:30.97	110.34	8.89	
2025-01-20 09:58:31.17	110.32	8.91	
2025-01-20 09:58:31.37	110.30	8.92	
2025-01-20 09:58:31.58	110.28	8.94	
2025-01-20 09:58:31.78	110.26	8.96	
2025-01-20 09:58:31.98	110.24	8.97	
2025-01-20 09:58:32.19	110.22	8.99	
2025-01-20 09:58:32.39	110.20	9.00	
2025-01-20 09:58:32.59	110.18	9.02	
2025-01-20 09:58:32.79	110.15	9.03	
2025-01-20 09:58:33.00	110.13	9.05	
2025-01-20 09:58:33.20	110.11	9.06	
2025-01-20 09:58:33.40	110.09	9.08	
2025-01-20 09:58:33.61	110.07	9.09	
2025-01-20 09:58:33.81	110.05	9.11	
2025-01-20 09:58:34.01	110.03	9.12	
2025-01-20 09:58:34.22	110.00	9.14	
2025-01-20 09:58:34.42	109.98	9.16	
2025-01-20 09:58:34.62	109.96	9.17	
2025-01-20 09:58:34.83	109.94	9.19	
2025-01-20 09:58:35.03	109.92	9.20	
2025-01-20 09:58:35.23	109.90	9.22	
2025-01-20 09:58:35.44	109.88	9.23	
2025-01-20 09:58:35.64	109.85	9.25	
2025-01-20 09:58:35.84	109.83	9.26	
2025-01-20 09:58:36.04	109.81	9.28	
2025-01-20 09:58:36.25	109.79	9.30	
2025-01-20 09:58:36.45	109.77	9.31	
2025-01-20 09:58:36.65	109.75	9.33	
2025-01-20 09:58:36.86	109.72	9.34	
2025-01-20 09:58:37.06	109.70	9.36	
2025-01-20 09:58:37.26	109.68	9.37	
2025-01-20 09:58:37.47	109.66	9.39	
2025-01-20 09:58:37.67	109.64	9.40	
2025-01-20 09:58:37.87	109.62	9.42	
2025-01-20 09:58:38.08	109.59	9.44	
2025-01-20 09:58:38.28	109.57	9.45	
2025-01-20 09:58:38.48	109.55	9.47	
2025-01-20 09:58:38.68	109.53	9.48	
2025-01-20 09:58:38.89	109.51	9.50	
2025-01-20 09:58:39.09	109.48	9.51	
2025-01-20 09:58:39.29	109.46	9.53	
2025-01-20 09:58:39.50	109.44	9.55	
2025-01-20 09:58:39.70	109.42	9.56	
2025-01-20 09:58:39.90	109.40	9.58	
2025-01-20 09:58:40.11	109.37	9.59	
2025-01-20 09:58:40.31	109.35	9.61	
2025-01-20 09:58:40.51	109.33	9.62	
2025-01-20 09:58:40.72	109.31	9.64	
2025-01-20 09:58:40.92	109.28	9.65	
2025-01-20 09:58:41.12	109.26	9.67	
2025-01-20 09:58:41.32	109.24	9.69	
2025-01-20 09:58:41.53	109.22	9.70	
2025-01-20 09:58:41.73	109.19	9.72	
2025-01-20 09:58:41.93	109.17	9.73	
2025-01-20 09:58:42.14	109.15	9.75	
2025-01-20 09:58:42.34	109.13	9.76	
2025-01-20 09:58:42.54	109.11	9.78	
2025-01-20 09:58:42.75	109.08	9.80	
2025-01-20 09:58:42.95	109.06	9.81	
2025-01-20 09:58:43.15	109.04	9.83	
2025-01-20 09:58:43.36	109.01	9.84	
2025-01-20 09:58:43.56	108.99	9.86	
2025-01-20 09:58:43.76	108.97	9.88	
2025-01-20 09:58:43.96	108.95	9.89	
2025-01-20 09:58:44.17	108.92	9.91	
2025-01-20 09:58:44.37	108.90	9.92	
2025-01-20 09:58:44.57	108.88	9.94	
2025-01-20 09:58:44.78	108.86	9.95	
2025-01-20 09:58:44.98	108.83	9.97	
2025-01-20 09:58:45.18	108.81	9.99	
2025-01-20 09:58:45.39	108.79	10.00	
2025-01-20 09:58:45.59	108.76	10.02	
2025-01-20 09:58:45.79	108.74	10.03	
2025-01-20 09:58:46.00	108.72	10.05	
2025-01-20 09:58:46.20	108.70	10.07	
2025-01-20 09:58:46.40	108.67	10.08	
2025-01-20 09:58:46.60	108.65	10.10	
2025-01-20 09:58:46.81	108.63	10.11	
2025-01-20 09:58:47.01	108.60	10.13	
2025-01-20 09:58:47.21	108.58	10.14	
2025-01-20 09:58:47.42	108.56	10.16	
2025-01-20 09:58:47.62	108.53	10.18	
2025-01-20 09:58:47.82	108.51	10.19	
2025-01-20 09:58:48.03	108.49	10.21	
2025-01-20 09:58:48.23	108.46	10.22	
2025-01-20 09:58:48.43	108.44	10.24	
2025-01-20 09:58:48.63	108.42	10.26	
2025-01-20 09:58:48.84	108.39	10.27	
2025-01-20 09:58:49.04	108.37	10.29	
2025-01-20 09:58:49.24	108.35	10.30	
2025-01-20 09:58:49.45	108.32	10.32	
2025-01-20 09:58:49.65	108.30	10.34	
2025-01-20 09:58:49.85	108.28	10.35	
2025-01-20 09:58:50.06	108.25	10.37	
2025-01-20 09:58:50.26	108.23	10.38	
2025-01-20 09:58:50.46	108.21	10.40	
2025-01-20 09:58:50.67	108.18	10.42	
2025-01-20 09:58:50.87	108.16	10.43	
2025-01-20 09:58:51.07	108.14	10.45	
2025-01-20 09:58:51.28	108.11	10.47	
2025-01-20 09:58:51.48	108.09	10.48	
2025-01-20 09:58:51.68	108.07	10.50	
2025-01-20 09:58:51.88	108.04	10.51	
2025-01-20 09:58:52.09	108.02	10.53	
2025-01-20 09:58:52.29	107.99	10.55	
2025-01-20 09:58:52.49	107.97	10.56	
2025-01-20 09:58:52.70	107.95	10.58	
2025-01-20 09:58:52.90	107.92	10.59	
2025-01-20 09:58:53.10	107.90	10.61	
2025-01-20 09:58:53.31	107.87	10.63	
2025-01-20 09:58:53.51	107.85	10.64	
2025-01-20 09:58:53.71	107.83	10.66	
2025-01-20 09:58:53.92	107.80	10.68	
2025-01-20 09:58:54.12	107.78	10.69	
2025-01-20 09:58:54.32	107.76	10.71	
2025-01-20 09:58:54.52	107.73	10.72	
2025-01-20 09:58:54.73	107.71	10.74	
2025-01-20 09:58:54.93	107.68	10.76	
2025-01-20 09:58:55.13	107.66	10.77	
2025-01-20 09:58:55.34	107.63	10.79	
2025-01-20 09:58:55.54	107.61	10.80	
2025-01-20 09:58:55.74	107.59	10.82	
2025-01-20 09:58:55.95	107.56	10.84	
2025-01-20 09:58:56.15	107.54	10.85	
2025-01-20 09:58:56.35	107.51	10.87	
2025-01-20 09:58:56.56	107.49	10.89	
2025-01-20 09:58:56.76	107.46	10.90	
2025-01-20 09:58:56.96	107.44	10.92	
2025-01-20 09:58:57.16	107.42	10.93	
2025-01-20 09:58:57.37	107.39	10.95	
2025-01-20 09:58:57.57	107.37	10.97	
2025-01-20 09:58:57.77	107.34	10.98	
2025-01-20 09:58:57.98	107.32	11.00	
2025-01-20 09:58:58.18	107.29	11.02	
2025-01-20 09:58:58.38	107.27	11.03	
2025-01-20 09:58:58.59	107.24	11.05	
2025-01-20 09:58:58.79	107.22	11.06	
2025-01-20 09:58:58.99	107.19	11.08	
2025-01-20 09:58:59.20	107.17	11.10	
2025-01-20 09:58:59.40	107.14	11.11	
2025-01-20 09:58:59.60	107.12	11.13	
2025-01-20 09:58:59.80	107.09	11.15	
2025-01-20 09:59:00.01	107.07	11.16	
2025-01-20 09:59:00.21	107.04	11.18	
2025-01-20 09:59:00.41	107.02	11.20	
2025-01-20 09:59:00.62	106.99	11.21	
2025-01-20 09:59:00.82	106.97	11.23	
2025-01-20 09:59:01.02	106.94	11.24	
2025-01-20 09:59:01.23	106.92	11.26	
2025-01-20 09:59:01.43	106.89	11.28	
2025-01-20 09:59:01.63	106.87	11.29	
2025-01-20 09:59:01.84	106.84	11.31	
2025-01-20 09:59:02.04	106.82	11.33	
2025-01-20 09:59:02.24	106.79	11.34	
2025-01-20 09:59:02.44	106.77	11.36	
2025-01-20 09:59:02.65	106.74	11.38	
2025-01-20 09:59:02.85	106.72	11.39	
2025-01-20 09:59:03.05	106.69	11.41	
2025-01-20 09:59:03.26	106.67	11.43	
2025-01-20 09:59:03.46	106.64	11.44	
2025-01-20 09:59:03.66	106.61	11.46	
2025-01-20 09:59:03.87	106.59	11.48	
2025-01-20 09:59:04.07	106.56	11.49	
2025-01-20 09:59:04.27	106.54	11.51	
2025-01-20 09:59:04.48	106.51	11.53	
2025-01-20 09:59:04.68	106.49	11.54	
2025-01-20 09:59:04.88	106.46	11.56	
2025-01-20 09:59:05.08	106.44	11.57	
2025-01-20 09:59:05.29	106.41	11.59	
2025-01-20 09:59:05.49	106.38	11.61	
2025-01-20 09:59:05.69	106.36	11.62	
2025-01-20 09:59:05.90	106.33	11.64	
2025-01-20 09:59:06.10	106.31	11.66	
2025-01-20 09:59:06.30	106.28	11.67	
2025-01-20 09:59:06.51	106.25	11.69	
2025-01-20 09:59:06.71	106.23	11.71	
2025-01-20 09:59:06.91	106.20	11.72	
2025-01-20 09:59:07.11	106.18	11.74	
2025-01-20 09:59:07.32	106.15	11.76	
2025-01-20 09:59:07.52	106.12	11.77	
2025-01-20 09:59:07.72	106.10	11.79	
2025-01-20 09:59:07.93	106.07	11.81	
2025-01-20 09:59:08.13	106.05	11.82	
2025-01-20 09:59:08.33	106.02	11.84	
2025-01-20 09:59:08.54	105.99	11.86	
2025-01-20 09:59:08.74	105.97	11.87	
2025-01-20 09:59:08.94	105.94	11.89	
2025-01-20 09:59:09.15	105.91	11.91	
2025-01-20 09:59:09.35	105.89	11.92	
2025-01-20 09:59:09.55	105.86	11.94	
2025-01-20 09:59:09.75	105.84	11.96	
2025-01-20 09:59:09.96	105.81	11.97	
2025-01-20 09:59:10.16	105.78	11.99	
2025-01-20 09:59:10.36	105.76	12.01	
2025-01-20 09:59:10.57	105.73	12.02	
2025-01-20 09:59:10.77	105.70	12.04	
2025-01-20 09:59:10.97	105.68	12.06	
2025-01-20 09:59:11.18	105.65	12.07	
2025-01-20 09:59:11.38	105.62	12.09	
2025-01-20 09:59:11.58	105.60	12.11	
2025-01-20 09:59:11.79	105.57	12.12	
2025-01-20 09:59:11.99	105.54	12.14	
2025-01-20 09:59:12.19	105.52	12.16	
2025-01-20 09:59:12.39	105.49	12.17	
2025-01-20 09:59:12.60	105.46	12.19	
2025-01-20 09:59:12.80	105.43	12.21	
2025-01-20 09:59:13.00	105.41	12.22	
2025-01-20 09:59:13.21	105.38	12.24	
2025-01-20 09:59:13.41	105.35	12.26	
2025-01-20 09:59:13.61	105.33	12.28	
2025-01-20 09:59:13.82	105.30	12.29	
2025-01-20 09:59:14.02	105.27	12.31	
2025-01-20 09:59:14.22	105.25	12.33	
2025-01-20 09:59:14.43	105.22	12.34	
2025-01-20 09:59:14.63	105.19	12.36	
2025-01-20 09:59:14.83	105.16	12.38	
2025-01-20 09:59:15.03	105.14	12.39	
2025-01-20 09:59:15.24	105.11	12.41	
2025-01-20 09:59:15.44	105.08	12.43	
2025-01-20 09:59:15.64	105.05	12.44	
2025-01-20 09:59:15.85	105.03	12.46	
2025-01-20 09:59:16.05	105.00	12.48	
2025-01-20 09:59:16.25	104.97	12.49	
2025-01-20 09:59:16.46	104.94	12.51	
2025-01-20 09:59:16.66	104.92	12.53	
2025-01-20 09:59:16.86	104.89	12.55	
2025-01-20 09:59:17.07	104.86	12.56	
2025-01-20 09:59:17.27	104.83	12.58	
2025-01-20 09:59:17.47	104.81	12.60	
2025-01-20 09:59:17.67	104.78	12.61	
2025-01-20 09:59:17.88	104.75	12.63	
2025-01-20 09:59:18.08	104.72	12.65	
2025-01-20 09:59:18.28	104.70	12.66	
2025-01-20 09:59:18.49	104.67	12.68	
2025-01-20 09:59:18.69	104.64	12.70	
2025-01-20 09:59:18.89	104.61	12.72	
2025-01-20 09:59:19.10	104.58	12.73	
2025-01-20 09:59:19.30	104.55	12.75	
2025-01-20 09:59:19.50	104.53	12.77	
2025-01-20 09:59:19.71	104.50	12.78	
2025-01-20 09:59:19.91	104.47	12.80	
2025-01-20 09:59:20.11	104.44	12.82	
2025-01-20 09:59:20.31	104.41	12.83	
2025-01-20 09:59:20.52	104.39	12.85	
2025-01-20 09:59:20.72	104.36	12.87	
2025-01-20 09:59:20.92	104.33	12.89	
2025-01-20 09:59:21.13	104.30	12.90	
2025-01-20 09:59:21.33	104.27	12.92	
2025-01-20 09:59:21.53	104.24	12.94	
2025-01-20 09:59:21.74	104.22	12.96	
2025-01-20 09:59:21.94	104.19	12.97	
2025-01-20 09:59:22.14	104.16	12.99	
2025-01-20 09:59:22.35	104.13	13.01	
2025-01-20 09:59:22.55	104.10	13.02	
2025-01-20 09:59:22.75	104.07	13.04	
2025-01-20 09:59:22.95	104.04	13.06	
2025-01-20 09:59:23.16	104.01	13.08	
2025-01-20 09:59:23.36	103.99	13.09	
2025-01-20 09:59:23.56	103.96	13.11	
2025-01-20 09:59:23.77	103.93	13.13	
2025-01-20 09:59:23.97	103.90	13.14	
2025-01-20 09:59:24.17	103.87	13.16	
2025-01-20 09:59:24.38	103.84	13.18	
2025-01-20 09:59:24.58	103.81	13.20	
2025-01-20 09:59:24.78	103.78	13.21	
2025-01-20 09:59:24.99	103.75	13.23	
2025-01-20 09:59:25.19	103.73	13.25	
2025-01-20 09:59:25.39	103.70	13.26	
2025-01-20 09:59:25.59	103.67	13.28	
2025-01-20 09:59:25.80	103.64	13.30	
2025-01-20 09:59:26.00	103.61	13.32	
2025-01-20 09:59:26.20	103.58	13.33	
2025-01-20 09:59:26.41	103.55	13.35	
2025-01-20 09:59:26.61	103.52	13.37	
2025-01-20 09:59:26.81	103.49	13.38	
2025-01-20 09:59:27.02	103.46	13.40	
2025-01-20 09:59:27.22	103.43	13.42	
2025-01-20 09:59:27.42	103.40	13.44	
2025-01-20 09:59:27.63	103.37	13.45	
2025-01-20 09:59:27.83	103.34	13.47	
2025-01-20 09:59:28.03	103.32	13.49	
2025-01-20 09:59:28.23	103.29	13.51	
2025-01-20 09:59:28.44	103.26	13.52	
2025-01-20 09:59:28.64	103.23	13.54	
2025-01-20 09:59:28.84	103.20	13.56	
2025-01-20 09:59:29.05	103.17	13.58	
2025-01-20 09:59:29.25	103.14	13.59	
2025-01-20 09:59:29.45	103.11	13.61	
2025-01-20 09:59:29.66	103.08	13.63	
2025-01-20 09:59:29.86	103.05	13.64	
2025-01-20 09:59:30.06	103.02	13.66	
2025-01-20 09:59:30.27	102.99	13.68	
2025-01-20 09:59:30.47	102.96	13.70	
2025-01-20 09:59:30.67	102.93	13.71	
2025-01-20 09:59:30.87	102.90	13.73	
2025-01-20 09:59:31.08	102.87	13.75	
2025-01-20 09:59:31.28	102.84	13.77	
2025-01-20 09:59:31.48	102.81	13.78	
2025-01-20 09:59:31.69	102.78	13.80	
2025-01-20 09:59:31.89	102.75	13.82	
2025-01-20 09:59:32.09	102.72	13.84	
2025-01-20 09:59:32.30	102.68	13.85	
2025-01-20 09:59:32.50	102.65	13.87	
2025-01-20 09:59:32.70	102.62	13.89	
2025-01-20 09:59:32.91	102.59	13.91	
2025-01-20 09:59:33.11	102.56	13.92	
2025-01-20 09:59:33.31	102.53	13.94	
2025-01-20 09:59:33.51	102.50	13.96	
2025-01-20 09:59:33.72	102.47	13.98	
2025-01-20 09:59:33.92	102.44	13.99	
2025-01-20 09:59:34.12	102.41	14.01	
2025-01-20 09:59:34.33	102.38	14.03	
2025-01-20 09:59:34.53	102.35	14.05	
2025-01-20 09:59:34.73	102.32	14.06	
2025-01-20 09:59:34.94	102.29	14.08	
2025-01-20 09:59:35.14	102.25	14.10	
2025-01-20 09:59:35.34	102.22	14.12	
2025-01-20 09:59:35.55	102.19	14.13	
2025-01-20 09:59:35.75	102.16	14.15	
2025-01-20 09:59:35.95	102.13	14.17	
2025-01-20 09:59:36.15	102.10	14.19	
2025-01-20 09:59:36.36	102.07	14.20	
2025-01-20 09:59:36.56	102.04	14.22	
2025-01-20 09:59:36.76	102.01	14.24	
2025-01-20 09:59:36.97	101.97	14.26	
2025-01-20 09:59:37.17	101.94	14.27	
2025-01-20 09:59:37.37	101.91	14.29	
2025-01-20 09:59:37.58	101.88	14.31	
2025-01-20 09:59:37.78	101.85	14.33	
2025-01-20 09:59:37.98	101.82	14.34	
2025-01-20 09:59:38.19	101.78	14.36	
2025-01-20 09:59:38.39	101.75	14.38	
2025-01-20 09:59:38.59	101.72	14.40	
2025-01-20 09:59:38.79	101.69	14.41	
2025-01-20 09:59:39.00	101.66	14.43	
2025-01-20 09:59:39.20	101.63	14.45	
2025-01-20 09:59:39.40	101.60	14.47	
2025-01-20 09:59:39.61	101.56	14.49	
2025-01-20 09:59:39.81	101.53	14.50	
2025-01-20 09:59:40.01	101.50	14.52	
2025-01-20 09:59:40.22	101.47	14.54	
2025-01-20 09:59:40.42	101.44	14.56	
2025-01-20 09:59:40.62	101.40	14.57	
2025-01-20 09:59:40.83	101.37	14.59	
2025-01-20 09:59:41.03	101.34	14.61	
2025-01-20 09:59:41.23	101.31	14.63	
2025-01-20 09:59:41.43	101.28	14.64	
2025-01-20 09:59:41.64	101.24	14.66	
2025-01-20 09:59:41.84	101.21	14.68	
2025-01-20 09:59:42.04	101.18	14.70	
2025-01-20 09:59:42.25	101.15	14.72	
2025-01-20 09:59:42.45	101.11	14.73	
2025-01-20 09:59:42.65	101.08	14.75	
2025-01-20 09:59:42.86	101.05	14.77	
2025-01-20 09:59:43.06	101.02	14.79	
2025-01-20 09:59:43.26	100.98	14.80	
2025-01-20 09:59:43.47	100.95	14.82	
2025-01-20 09:59:43.67	100.92	14.84	
2025-01-20 09:59:43.87	100.89	14.86	
2025-01-20 09:59:44.07	100.85	14.88	
2025-01-20 09:59:44.28	100.82	14.89	
2025-01-20 09:59:44.48	100.79	14.91	
2025-01-20 09:59:44.68	100.75	14.93	
2025-01-20 09:59:44.89	100.72	14.95	
2025-01-20 09:59:45.09	100.69	14.96	
2025-01-20 09:59:45.29	100.66	14.98	
2025-01-20 09:59:45.50	100.62	15.00	
2025-01-20 09:59:45.70	100.59	15.02	
2025-01-20 09:59:45.90	100.56	15.04	
2025-01-20 09:59:46.11	100.52	15.05	
2025-01-20 09:59:46.31	100.49	15.07	
2025-01-20 09:59:46.51	100.46	15.09	
2025-01-20 09:59:46.71	100.42	15.11	
2025-01-20 09:59:46.92	100.39	15.13	
2025-01-20 09:59:47.12	100.36	15.14	
2025-01-20 09:59:47.32	100.32	15.16	
2025-01-20 09:59:47.53	100.29	15.18	
2025-01-20 09:59:47.73	100.26	15.20	
2025-01-20 09:59:47.93	100.22	15.21	
2025-01-20 09:59:48.14	100.19	15.23	
2025-01-20 09:59:48.34	100.15	15.25	
2025-01-20 09:59:48.54	100.12	15.27	
2025-01-20 09:59:48.75	100.09	15.29	
2025-01-20 09:59:48.95	100.05	15.30	
2025-01-20 09:59:49.15	100.02	15.32	
2025-01-20 09:59:49.35	99.99	15.34	
2025-01-20 09:59:49.56	99.95	15.36	
2025-01-20 09:59:49.76	99.92	15.38	
2025-01-20 09:59:49.96	99.88	15.39	
2025-01-20 09:59:50.17	99.85	15.41	
2025-01-20 09:59:50.37	99.82	15.43	
2025-01-20 09:59:50.57	99.78	15.45	
2025-01-20 09:59:50.78	99.75	15.47	
2025-01-20 09:59:50.98	99.71	15.48	
2025-01-20 09:59:51.18	99.68	15.50	
2025-01-20 09:59:51.39	99.64	15.52	
2025-01-20 09:59:51.59	99.61	15.54	
2025-01-20 09:59:51.79	99.58	15.56	
2025-01-20 09:59:51.99	99.54	15.57	
2025-01-20 09:59:52.20	99.51	15.59	
2025-01-20 09:59:52.40	99.47	15.61	
2025-01-20 09:59:52.60	99.44	15.63	
2025-01-20 09:59:52.81	99.40	15.65	
2025-01-20 09:59:53.01	99.37	15.66	
2025-01-20 09:59:53.21	99.33	15.68	
2025-01-20 09:59:53.42	99.30	15.70	
2025-01-20 09:59:53.62	99.26	15.72	
2025-01-20 09:59:53.82	99.23	15.73	
2025-01-20 09:59:54.03	99.19	15.75	
2025-01-20 09:59:54.23	99.16	15.77	
2025-01-20 09:59:54.43	99.13	15.79	
2025-01-20 09:59:54.63	99.09	15.81	
2025-01-20 09:59:54.84	99.05	15.83	
2025-01-20 09:59:55.04	99.02	15.84	
2025-01-20 09:59:55.24	98.99	15.86	
2025-01-20 09:59:55.45	98.95	15.88	
2025-01-20 09:59:55.65	98.91	15.90	
2025-01-20 09:59:55.85	98.88	15.92	
2025-01-20 09:59:56.06	98.84	15.93	
2025-01-20 09:59:56.26	98.81	15.95	
2025-01-20 09:59:56.46	98.77	15.97	
2025-01-20 09:59:56.67	98.74	15.99	
2025-01-20 09:59:56.87	98.70	16.01	
2025-01-20 09:59:57.07	98.67	16.02	
2025-01-20 09:59:57.27	98.63	16.04	
2025-01-20 09:59:57.48	98.59	16.06	
2025-01-20 09:59:57.68	98.56	16.08	
2025-01-20 09:59:57.88	98.52	16.10	
2025-01-20 09:59:58.09	98.49	16.11	
2025-01-20 09:59:58.29	98.45	16.13	
2025-01-20 09:59:58.49	98.42	16.15	
2025-01-20 09:59:58.70	98.38	16.17	
2025-01-20 09:59:58.90	98.34	16.19	
2025-01-20 09:59:59.10	98.31	16.20	
2025-01-20 09:59:59.31	98.27	16.22	
2025-01-20 09:59:59.51	98.24	16.24	
2025-01-20 09:59:59.71	98.20	16.26	
2025-01-20 09:59:59.91	98.16	16.28	
2025-01-20 10:00:00.12	98.13	16.30	
2025-01-20 10:00:00.32	98.09	16.31	
2025-01-20 10:00:00.52	98.05	16.33	
2025-01-20 10:00:00.73	98.02	16.35	
2025-01-20 10:00:00.93	97.98	16.37	
2025-01-20 10:00:01.13	97.95	16.39	
2025-01-20 10:00:01.34	97.91	16.41	
2025-01-20 10:00:01.54	97.87	16.42	
2025-01-20 10:00:01.74	97.84	16.44	
2025-01-20 10:00:01.95	97.80	16.46	
2025-01-20 10:00:02.15	97.76	16.48	
2025-01-20 10:00:02.35	97.72	16.50	
2025-01-20 10:00:02.55	97.69	16.51	
2025-01-20 10:00:02.76	97.65	16.53	
2025-01-20 10:00:02.96	97.61	16.55	
2025-01-20 10:00:03.16	97.58	16.57	
2025-01-20 10:00:03.37	97.54	16.59	
2025-01-20 10:00:03.57	97.50	16.60	
2025-01-20 10:00:03.77	97.47	16.62	
2025-01-20 10:00:03.98	97.43	16.64	
2025-01-20 10:00:04.18	97.39	16.66	
2025-01-20 10:00:04.38	97.35	16.68	
2025-01-20 10:00:04.59	97.32	16.70	
2025-01-20 10:00:04.79	97.28	16.71	
2025-01-20 10:00:04.99	97.24	16.73	
2025-01-20 10:00:05.19	97.21	16.75	
2025-01-20 10:00:05.40	97.17	16.77	
2025-01-20 10:00:05.60	97.13	16.79	
2025-01-20 10:00:05.80	97.09	16.80	
2025-01-20 10:00:06.01	97.05	16.82	
2025-01-20 10:00:06.21	97.02	16.84	
2025-01-20 10:00:06.41	96.98	16.86	
2025-01-20 10:00:06.62	96.94	16.88	
2025-01-20 10:00:06.82	96.90	16.90	
2025-01-20 10:00:07.02	96.87	16.91	
2025-01-20 10:00:07.23	96.83	16.93	
2025-01-20 10:00:07.43	96.79	16.95	
2025-01-20 10:00:07.63	96.75	16.97	
2025-01-20 10:00:07.83	96.71	16.99	
2025-01-20 10:00:08.04	96.67	17.01	
2025-01-20 10:00:08.24	96.64	17.02	
2025-01-20 10:00:08.44	96.60	17.04	
2025-01-20 10:00:08.65	96.56	17.06	
2025-01-20 10:00:08.85	96.52	17.08	
2025-01-20 10:00:09.05	96.48	17.10	
2025-01-20 10:00:09.26	96.44	17.12	
2025-01-20 10:00:09.46	96.41	17.13	
2025-01-20 10:00:09.66	96.37	17.15	
2025-01-20 10:00:09.87	96.33	17.17	
2025-01-20 10:00:10.07	96.29	17.19	
2025-01-20 10:00:10.27	96.25	17.21	
2025-01-20 10:00:10.47	96.21	17.22	
2025-01-20 10:00:10.68	96.17	17.24	
2025-01-20 10:00:10.88	96.14	17.26	
2025-01-20 10:00:11.08	96.10	17.28	
2025-01-20 10:00:11.29	96.06	17.30	
2025-01-20 10:00:11.49	96.02	17.32	
2025-01-20 10:00:11.69	95.98	17.33	
2025-01-20 10:00:11.90	95.94	17.35	
2025-01-20 10:00:12.10	95.90	17.37	
2025-01-20 10:00:12.30	95.86	17.39	
2025-01-20 10:00:12.51	95.82	17.41	
2025-01-20 10:00:12.71	95.78	17.43	
2025-01-20 10:00:12.91	95.74	17.44	
2025-01-20 10:00:13.11	95.71	17.46	
2025-01-20 10:00:13.32	95.66	17.48	
2025-01-20 10:00:13.52	95.63	17.50	
2025-01-20 10:00:13.72	95.59	17.52	
2025-01-20 10:00:13.93	95.55	17.54	
2025-01-20 10:00:14.13	95.51	17.55	
2025-01-20 10:00:14.33	95.47	17.57	
2025-01-20 10:00:14.54	95.43	17.59	
2025-01-20 10:00:14.74	95.39	17.61	
2025-01-20 10:00:14.94	95.35	17.63	
2025-01-20 10:00:15.15	95.31	17.65	
2025-01-20 10:00:15.35	95.27	17.66	
2025-01-20 10:00:15.55	95.23	17.68	
2025-01-20 10:00:15.75	95.19	17.70	
2025-01-20 10:00:15.96	95.15	17.72	
2025-01-20 10:00:16.16	95.11	17.74	
2025-01-20 10:00:16.36	95.07	17.76	
2025-01-20 10:00:16.57	95.03	17.78	
2025-01-20 10:00:16.77	94.99	17.79	
2025-01-20 10:00:16.97	94.95	17.81	
2025-01-20 10:00:17.18	94.90	17.83	
2025-01-20 10:00:17.38	94.86	17.85	
2025-01-20 10:00:17.58	94.82	17.87	
2025-01-20 10:00:17.79	94.78	17.89	
2025-01-20 10:00:17.99	94.74	17.90	
2025-01-20 10:00:18.19	94.70	17.92	
2025-01-20 10:00:18.39	94.66	17.94	
2025-01-20 10:00:18.60	94.62	17.96	
2025-01-20 10:00:18.80	94.58	17.98	
2025-01-20 10:00:19.00	94.54	17.99	
2025-01-20 10:00:19.21	94.50	18.01	
2025-01-20 10:00:19.41	94.46	18.03	
2025-01-20 10:00:19.61	94.42	18.05	
2025-01-20 10:00:19.82	94.37	18.07	
2025-01-20 10:00:20.02	94.33	18.09	
2025-01-20 10:00:20.22	94.29	18.10	
2025-01-20 10:00:20.43	94.25	18.12	
2025-01-20 10:00:20.63	94.21	18.14	
2025-01-20 10:00:20.83	94.17	18.16	
2025-01-20 10:00:21.03	94.13	18.18	
2025-01-20 10:00:21.24	94.08	18.20	
2025-01-20 10:00:21.44	94.04	18.22	
2025-01-20 10:00:21.64	94.00	18.23	
2025-01-20 10:00:21.85	93.96	18.25	
2025-01-20 10:00:22.05	93.92	18.27	
2025-01-20 10:00:22.25	93.88	18.29	
2025-01-20 10:00:22.46	93.83	18.31	
2025-01-20 10:00:22.66	93.79	18.33	
2025-01-20 10:00:22.86	93.75	18.34	
2025-01-20 10:00:23.07	93.71	18.36	
2025-01-20 10:00:23.27	93.67	18.38	
2025-01-20 10:00:23.47	93.63	18.40	
2025-01-20 10:00:23.67	93.58	18.42	
2025-01-20 10:00:23.88	93.54	18.44	
2025-01-20 10:00:24.08	93.50	18.45	
2025-01-20 10:00:24.28	93.46	18.47	
2025-01-20 10:00:24.49	93.41	18.49	
2025-01-20 10:00:24.69	93.37	18.51	
2025-01-20 10:00:24.89	93.33	18.53	
2025-01-20 10:00:25.10	93.29	18.55	
2025-01-20 10:00:25.30	93.24	18.56	
2025-01-20 10:00:25.50	93.20	18.58	
2025-01-20 10:00:25.71	93.16	18.60	
2025-01-20 10:00:25.91	93.12	18.62	
2025-01-20 10:00:26.11	93.07	18.64	
2025-01-20 10:00:26.31	93.03	18.66	
2025-01-20 10:00:26.52	92.99	18.67	
2025-01-20 10:00:26.72	92.94	18.69	
2025-01-20 10:00:26.92	92.90	18.71	
2025-01-20 10:00:27.13	92.86	18.73	
2025-01-20 10:00:27.33	92.81	18.75	
2025-01-20 10:00:27.53	92.77	18.77	
2025-01-20 10:00:27.74	92.73	18.78	
2025-01-20 10:00:27.94	92.68	18.80	
2025-01-20 10:00:28.14	92.64	18.82	
2025-01-20 10:00:28.35	92.60	18.84	
2025-01-20 10:00:28.55	92.55	18.86	
2025-01-20 10:00:28.75	92.51	18.88	
2025-01-20 10:00:28.95	92.47	18.89	
2025-01-20 10:00:29.16	92.42	18.91	
2025-01-20 10:00:29.36	92.38	18.93	
2025-01-20 10:00:29.56	92.34	18.95	
2025-01-20 10:00:29.77	92.29	18.97	
2025-01-20 10:00:29.97	92.25	18.99	
2025-01-20 10:00:30.17	92.21	19.00	
2025-01-20 10:00:30.38	92.16	19.02	
2025-01-20 10:00:30.58	92.12	19.04	
2025-01-20 10:00:30.78	92.07	19.06	
2025-01-20 10:00:30.99	92.03	19.08	
2025-01-20 10:00:31.19	91.98	19.10	
2025-01-20 10:00:31.39	91.94	19.11	
2025-01-20 10:00:31.59	91.90	19.13	
2025-01-20 10:00:31.80	91.85	19.15	
2025-01-20 10:00:32.00	91.81	19.17	
2025-01-20 10:00:32.20	91.76	19.19	
2025-01-20 10:00:32.41	91.72	19.21	
2025-01-20 10:00:32.61	91.67	19.22	
2025-01-20 10:00:32.81	91.63	19.24	
2025-01-20 10:00:33.02	91.58	19.26	
2025-01-20 10:00:33.22	91.54	19.28	
2025-01-20 10:00:33.42	91.50	19.30	
2025-01-20 10:00:33.63	91.45	19.31	
2025-01-20 10:00:33.83	91.40	19.33	
2025-01-20 10:00:34.03	91.36	19.35	
2025-01-20 10:00:34.23	91.32	19.37	
2025-01-20 10:00:34.44	91.27	19.39	
2025-01-20 10:00:34.64	91.22	19.41	
2025-01-20 10:00:34.84	91.18	19.42	
2025-01-20 10:00:35.05	91.13	19.44	
2025-01-20 10:00:35.25	91.09	19.46	
2025-01-20 10:00:35.45	91.04	19.48	
2025-01-20 10:00:35.66	91.00	19.50	
2025-01-20 10:00:35.86	90.95	19.52	
2025-01-20 10:00:36.06	90.91	19.53	
2025-01-20 10:00:36.27	90.86	19.55	
2025-01-20 10:00:36.47	90.82	19.57	
2025-01-20 10:00:36.67	90.77	19.59	
2025-01-20 10:00:36.87	90.72	19.61	
2025-01-20 10:00:37.08	90.68	19.62	
2025-01-20 10:00:37.28	90.63	19.64	
2025-01-20 10:00:37.48	90.59	19.66	
2025-01-20 10:00:37.69	90.54	19.68	
2025-01-20 10:00:37.89	90.49	19.70	
2025-01-20 10:00:38.09	90.45	19.72	
2025-01-20 10:00:38.30	90.40	19.73	
2025-01-20 10:00:38.50	90.36	19.75	
2025-01-20 10:00:38.70	90.31	19.77	
2025-01-20 10:00:38.91	90.26	19.79	
2025-01-20 10:00:39.11	90.22	19.81	
2025-01-20 10:00:39.31	90.17	19.82	
2025-01-20 10:00:39.51	90.12	19.84	
2025-01-20 10:00:39.72	90.08	19.86	
2025-01-20 10:00:39.92	90.03	19.88	
2025-01-20 10:00:40.12	89.98	19.90	
2025-01-20 10:00:40.33	89.94	19.92	
2025-01-20 10:00:40.53	89.89	19.93	
2025-01-20 10:00:40.73	89.84	19.95	
2025-01-20 10:00:40.94	89.79	19.97	
2025-01-20 10:00:41.14	89.75	19.99	
2025-01-20 10:00:41.34	89.70	20.01	
2025-01-20 10:00:41.55	89.65	20.02	
2025-01-20 10:00:41.75	89.61	20.04	
2025-01-20 10:00:41.95	89.56	20.06	
2025-01-20 10:00:42.15	89.51	20.08	
2025-01-20 10:00:42.36	89.46	20.10	
2025-01-20 10:00:42.56	89.42	20.11	
2025-01-20 10:00:42.76	89.37	20.13	
2025-01-20 10:00:42.97	89.32	20.15	
2025-01-20 10:00:43.17	89.28	20.17	
2025-01-20 10:00:43.37	89.23	20.19	
2025-01-20 10:00:43.58	89.18	20.21	
2025-01-20 10:00:43.78	89.13	20.22	
2025-01-20 10:00:43.98	89.08	20.24	
2025-01-20 10:00:44.19	89.04	20.26	
2025-01-20 10:00:44.39	88.99	20.28	
2025-01-20 10:00:44.59	88.94	20.30	
2025-01-20 10:00:44.79	88.89	20.31	
2025-01-20 10:00:45.00	88.84	20.33	
2025-01-20 10:00:45.20	88.80	20.35	
2025-01-20 10:00:45.40	88.75	20.37	
2025-01-20 10:00:45.61	88.70	20.39	
2025-01-20 10:00:45.81	88.65	20.40	
2025-01-20 10:00:46.01	88.60	20.42	
2025-01-20 10:00:46.22	88.55	20.44	
2025-01-20 10:00:46.42	88.51	20.46	
2025-01-20 10:00:46.62	88.46	20.47	
2025-01-20 10:00:46.83	88.41	20.49	
2025-01-20 10:00:47.03	88.36	20.51	
2025-01-20 10:00:47.23	88.31	20.53	
2025-01-20 10:00:47.43	88.26	20.55	
2025-01-20 10:00:47.64	88.21	20.56	
2025-01-20 10:00:47.84	88.16	20.58	
2025-01-20 10:00:48.04	88.12	20.60	
2025-01-20 10:00:48.25	88.06	20.62	
2025-01-20 10:00:48.45	88.02	20.64	
2025-01-20 10:00:48.65	87.97	20.65	
2025-01-20 10:00:48.86	87.92	20.67	
2025-01-20 10:00:49.06	87.87	20.69	
2025-01-20 10:00:49.26	87.82	20.71	
2025-01-20 10:00:49.47	87.77	20.73	
2025-01-20 10:00:49.67	87.72	20.74	
2025-01-20 10:00:49.87	87.67	20.76	
2025-01-20 10:00:50.07	87.62	20.78	
2025-01-20 10:00:50.28	87.57	20.80	
2025-01-20 10:00:50.48	87.52	20.81	
2025-01-20 10:00:50.68	87.47	20.83	
2025-01-20 10:00:50.89	87.42	20.85	
2025-01-20 10:00:51.09	87.37	20.87	
2025-01-20 10:00:51.29	87.32	20.89	
2025-01-20 10:00:51.50	87.27	20.90	
2025-01-20 10:00:51.70	87.22	20.92	
2025-01-20 10:00:51.90	87.17	20.94	
2025-01-20 10:00:52.11	87.12	20.96	
2025-01-20 10:00:52.31	87.07	20.97	
2025-01-20 10:00:52.51	87.02	20.99	
2025-01-20 10:00:52.71	86.97	21.01	
2025-01-20 10:00:52.92	86.92	21.03	
2025-01-20 10:00:53.12	86.87	21.05	
2025-01-20 10:00:53.32	86.82	21.06	
2025-01-20 10:00:53.53	86.77	21.08	
2025-01-20 10:00:53.73	86.72	21.10	
2025-01-20 10:00:53.93	86.67	21.12	
2025-01-20 10:00:54.14	86.61	21.13	
2025-01-20 10:00:54.34	86.56	21.15	
2025-01-20 10:00:54.54	86.51	21.17	
2025-01-20 10:00:54.75	86.46	21.19	
2025-01-20 10:00:54.95	86.41	21.20	
2025-01-20 10:00:55.15	86.36	21.22	
2025-01-20 10:00:55.35	86.31	21.24	
2025-01-20 10:00:55.56	86.26	21.26	
2025-01-20 10:00:55.76	86.21	21.27	
2025-01-20 10:00:55.96	86.16	21.29	
2025-01-20 10:00:56.17	86.10	21.31	
2025-01-20 10:00:56.37	86.05	21.33	
2025-01-20 10:00:56.57	86.00	21.34	
2025-01-20 10:00:56.78	85.95	21.36	
2025-01-20 10:00:56.98	85.90	21.38	
2025-01-20 10:00:57.18	85.84	21.40	
2025-01-20 10:00:57.39	85.79	21.42	
2025-01-20 10:00:57.59	85.74	21.43	
2025-01-20 10:00:57.79	85.69	21.45	
2025-01-20 10:00:57.99	85.64	21.47	
2025-01-20 10:00:58.20	85.58	21.49	
2025-01-20 10:00:58.40	85.53	21.50	
2025-01-20 10:00:58.60	85.48	21.52	
2025-01-20 10:00:58.81	85.43	21.54	
2025-01-20 10:00:59.01	85.38	21.55	
2025-01-20 10:00:59.21	85.32	21.57	
2025-01-20 10:00:59.42	85.27	21.59	
2025-01-20 10:00:59.62	85.22	21.61	
2025-01-20 10:00:59.82	85.17	21.62	
2025-01-20 10:01:00.03	85.11	21.64	
2025-01-20 10:01:00.23	85.06	21.66	
2025-01-20 10:01:00.43	85.01	21.68	
2025-01-20 10:01:00.63	84.96	21.69	
2025-01-20 10:01:00.84	84.90	21.71	
2025-01-20 10:01:01.04	84.85	21.73	
2025-01-20 10:01:01.24	84.80	21.75	
2025-01-20 10:01:01.45	84.74	21.76	
2025-01-20 10:01:01.65	84.69	21.78	
2025-01-20 10:01:01.85	84.64	21.80	
2025-01-20 10:01:02.06	84.58	21.81	
2025-01-20 10:01:02.26	84.53	21.83	
2025-01-20 10:01:02.46	84.48	21.85	
2025-01-20 10:01:02.67	84.42	21.87	
2025-01-20 10:01:02.87	84.37	21.88	
2025-01-20 10:01:03.07	84.32	21.90	
2025-01-20 10:01:03.27	84.26	21.92	
2025-01-20 10:01:03.48	84.21	21.93	
2025-01-20 10:01:03.68	84.15	21.95	
2025-01-20 10:01:03.88	84.10	21.97	
2025-01-20 10:01:04.09	84.05	21.99	
2025-01-20 10:01:04.29	83.99	22.00	
2025-01-20 10:01:04.49	83.94	22.02	
2025-01-20 10:01:04.70	83.88	22.04	
2025-01-20 10:01:04.90	83.83	22.05	
2025-01-20 10:01:05.10	83.78	22.07	
2025-01-20 10:01:05.31	83.72	22.09	
2025-01-20 10:01:05.51	83.67	22.11	
2025-01-20 10:01:05.71	83.61	22.12	
2025-01-20 10:01:05.91	83.56	22.14	
2025-01-20 10:01:06.12	83.50	22.16	
2025-01-20 10:01:06.32	83.45	22.17	
2025-01-20 10:01:06.52	83.40	22.19	
2025-01-20 10:01:06.73	83.34	22.21	
2025-01-20 10:01:06.93	83.28	22.22	
2025-01-20 10:01:07.13	83.23	22.24	
2025-01-20 10:01:07.34	83.17	22.26	
2025-01-20 10:01:07.54	83.12	22.27	
2025-01-20 10:01:07.74	83.07	22.29	
2025-01-20 10:01:07.95	83.01	22.31	
2025-01-20 10:01:08.15	82.95	22.32	
2025-01-20 10:01:08.35	82.90	22.34	
2025-01-20 10:01:08.55	82.85	22.36	
2025-01-20 10:01:08.76	82.79	22.38	
2025-01-20 10:01:08.96	82.73	22.39	
2025-01-20 10:01:09.16	82.68	22.41	
2025-01-20 10:01:09.37	82.62	22.43	
2025-01-20 10:01:09.57	82.57	22.44	
2025-01-20 10:01:09.77	82.51	22.46	
2025-01-20 10:01:09.98	82.45	22.48	
2025-01-20 10:01:10.18	82.40	22.49	
2025-01-20 10:01:10.38	82.34	22.51	
2025-01-20 10:01:10.59	82.29	22.53	
2025-01-20 10:01:10.79	82.23	22.54	
2025-01-20 10:01:10.99	82.18	22.56	
2025-01-20 10:01:11.19	82.12	22.57	
2025-01-20 10:01:11.40	82.06	22.59	
2025-01-20 10:01:11.60	82.01	22.61	
2025-01-20 10:01:11.80	81.95	22.62	
2025-01-20 10:01:12.01	81.89	22.64	
2025-01-20 10:01:12.21	81.84	22.66	
2025-01-20 10:01:12.41	81.78	22.67	
2025-01-20 10:01:12.62	81.72	22.69	
2025-01-20 10:01:12.82	81.67	22.71	
2025-01-20 10:01:13.02	81.61	22.72	
2025-01-20 10:01:13.23	81.55	22.74	
2025-01-20 10:01:13.43	81.50	22.76	
2025-01-20 10:01:13.63	81.44	22.77	
2025-01-20 10:01:13.83	81.39	22.79	
2025-01-20 10:01:14.04	81.33	22.80	
2025-01-20 10:01:14.24	81.27	22.82	
2025-01-20 10:01:14.44	81.21	22.84	
2025-01-20 10:01:14.65	81.16	22.85	
2025-01-20 10:01:14.85	81.10	22.87	
2025-01-20 10:01:15.05	81.04	22.89	
2025-01-20 10:01:15.26	80.98	22.90	
2025-01-20 10:01:15.46	80.93	22.92	
2025-01-20 10:01:15.66	80.87	22.93	
2025-01-20 10:01:15.87	80.81	22.95	
2025-01-20 10:01:16.07	80.75	22.97	
2025-01-20 10:01:16.27	80.70	22.98	
2025-01-20 10:01:16.47	80.64	23.00	
2025-01-20 10:01:16.68	80.58	23.02	
2025-01-20 10:01:16.88	80.52	23.03	
2025-01-20 10:01:17.08	80.47	23.05	
2025-01-20 10:01:17.29	80.41	23.06	
2025-01-20 10:01:17.49	80.35	23.08	
2025-01-20 10:01:17.69	80.29	23.09	
2025-01-20 10:01:17.90	80.23	23.11	
2025-01-20 10:01:18.10	80.17	23.13	
2025-01-20 10:01:18.30	80.12	23.14	
2025-01-20 10:01:18.51	80.06	23.16	
2025-01-20 10:01:18.71	80.00	23.17	
2025-01-20 10:01:18.91	79.94	23.19	
2025-01-20 10:01:19.11	79.88	23.21	
2025-01-20 10:01:19.32	79.82	23.22	
2025-01-20 10:01:19.52	79.77	23.24	
2025-01-20 10:01:19.72	79.71	23.25	
2025-01-20 10:01:19.93	79.65	23.27	
2025-01-20 10:01:20.13	79.59	23.29	
2025-01-20 10:01:20.33	79.53	23.30	
2025-01-20 10:01:20.54	79.47	23.32	
2025-01-20 10:01:20.74	79.41	23.33	
2025-01-20 10:01:20.94	79.35	23.35	
2025-01-20 10:01:21.15	79.29	23.36	
2025-01-20 10:01:21.35	79.23	23.38	
2025-01-20 10:01:21.55	79.18	23.39	
2025-01-20 10:01:21.75	79.12	23.41	
2025-01-20 10:01:21.96	79.06	23.43	
2025-01-20 10:01:22.16	79.00	23.44	
2025-01-20 10:01:22.36	78.94	23.46	
2025-01-20 10:01:22.57	78.88	23.47	
2025-01-20 10:01:22.77	78.82	23.49	
2025-01-20 10:01:22.97	78.76	23.50	
2025-01-20 10:01:23.18	78.70	23.52	
2025-01-20 10:01:23.38	78.64	23.53	
2025-01-20 10:01:23.58	78.58	23.55	
2025-01-20 10:01:23.79	78.52	23.57	
2025-01-20 10:01:23.99	78.46	23.58	
2025-01-20 10:01:24.19	78.40	23.60	
2025-01-20 10:01:24.39	78.34	23.61	
2025-01-20 10:01:24.60	78.28	23.63	
2025-01-20 10:01:24.80	78.22	23.64	
2025-01-20 10:01:25.00	78.16	23.66	
2025-01-20 10:01:25.21	78.10	23.67	
2025-01-20 10:01:25.41	78.04	23.69	
2025-01-20 10:01:25.61	77.98	23.70	
2025-01-20 10:01:25.82	77.91	23.72	
2025-01-20 10:01:26.02	77.86	23.73	
2025-01-20 10:01:26.22	77.80	23.75	
2025-01-20 10:01:26.43	77.73	23.76	
2025-01-20 10:01:26.63	77.67	23.78	
2025-01-20 10:01:26.83	77.61	23.79	
2025-01-20 10:01:27.03	77.55	23.81	
2025-01-20 10:01:27.24	77.49	23.82	
2025-01-20 10:01:27.44	77.43	23.84	
2025-01-20 10:01:27.64	77.37	23.85	
2025-01-20 10:01:27.85	77.31	23.87	
2025-01-20 10:01:28.05	77.25	23.88	
2025-01-20 10:01:28.25	77.19	23.90	
2025-01-20 10:01:28.46	77.12	23.91	
2025-01-20 10:01:28.66	77.06	23.93	
2025-01-20 10:01:28.86	77.00	23.94	
2025-01-20 10:01:29.07	76.94	23.96	
2025-01-20 10:01:29.27	76.88	23.97	
2025-01-20 10:01:29.47	76.82	23.98	
2025-01-20 10:01:29.67	76.75	24.00	
2025-01-20 10:01:29.88	76.69	24.01	
2025-01-20 10:01:30.08	76.63	24.03	
2025-01-20 10:01:30.28	76.57	24.04	
2025-01-20 10:01:30.49	76.50	24.06	
2025-01-20 10:01:30.69	76.44	24.07	
2025-01-20 10:01:30.89	76.38	24.09	
2025-01-20 10:01:31.10	76.32	24.10	
2025-01-20 10:01:31.30	76.26	24.12	
2025-01-20 10:01:31.50	76.20	24.13	
2025-01-20 10:01:31.71	76.13	24.14	
2025-01-20 10:01:31.91	76.07	24.16	
2025-01-20 10:01:32.11	76.01	24.17	
2025-01-20 10:01:32.31	75.95	24.19	
2025-01-20 10:01:32.52	75.88	24.20	
2025-01-20 10:01:32.72	75.82	24.22	
2025-01-20 10:01:32.92	75.76	24.23	
2025-01-20 10:01:33.13	75.69	24.24	
2025-01-20 10:01:33.33	75.63	24.26	
2025-01-20 10:01:33.53	75.57	24.27	
2025-01-20 10:01:33.74	75.50	24.29	
2025-01-20 10:01:33.94	75.44	24.30	
2025-01-20 10:01:34.14	75.38	24.31	
2025-01-20 10:01:34.34	75.32	24.33	
2025-01-20 10:01:34.55	75.25	24.34	
2025-01-20 10:01:34.75	75.19	24.36	
2025-01-20 10:01:34.95	75.13	24.37	
2025-01-20 10:01:35.16	75.06	24.38	
2025-01-20 10:01:35.36	75.00	24.40	
2025-01-20 10:01:35.56	74.94	24.41	
2025-01-20 10:01:35.77	74.87	24.43	
2025-01-20 10:01:35.97	74.81	24.44	
2025-01-20 10:01:36.17	74.75	24.45	
2025-01-20 10:01:36.38	74.68	24.47	
2025-01-20 10:01:36.58	74.62	24.48	
2025-01-20 10:01:36.78	74.56	24.49	
2025-01-20 10:01:36.99	74.49	24.51	
2025-01-20 10:01:37.19	74.43	24.52	
2025-01-20 10:01:37.39	74.36	24.53	
2025-01-20 10:01:37.59	74.30	24.55	
2025-01-20 10:01:37.80	74.23	24.56	
2025-01-20 10:01:38.00	74.17	24.58	
2025-01-20 10:01:38.20	74.11	24.59	
2025-01-20 10:01:38.41	74.04	24.60	
2025-01-20 10:01:38.61	73.98	24.62	
2025-01-20 10:01:38.81	73.92	24.63	
2025-01-20 10:01:39.02	73.85	24.64	
2025-01-20 10:01:39.22	73.79	24.66	
2025-01-20 10:01:39.42	73.72	24.67	
2025-01-20 10:01:39.63	73.65	24.68	
2025-01-20 10:01:39.83	73.59	24.70	
2025-01-20 10:01:40.03	73.53	24.71	
2025-01-20 10:01:40.23	73.46	24.72	
2025-01-20 10:01:40.44	73.40	24.73	
2025-01-20 10:01:40.64	73.33	24.75	
2025-01-20 10:01:40.84	73.27	24.76	
2025-01-20 10:01:41.05	73.20	24.77	
2025-01-20 10:01:41.25	73.14	24.79	
2025-01-20 10:01:41.45	73.07	24.80	
2025-01-20 10:01:41.66	73.01	24.81	
2025-01-20 10:01:41.86	72.94	24.83	
2025-01-20 10:01:42.06	72.88	24.84	
2025-01-20 10:01:42.27	72.81	24.85	
2025-01-20 10:01:42.47	72.75	24.86	
2025-01-20 10:01:42.67	72.68	24.88	
2025-01-20 10:01:42.87	72.62	24.89	
2025-01-20 10:01:43.08	72.55	24.90	
2025-01-20 10:01:43.28	72.48	24.91	
2025-01-20 10:01:43.48	72.42	24.93	
2025-01-20 10:01:43.69	72.35	24.94	
2025-01-20 10:01:43.89	72.29	24.95	
2025-01-20 10:01:44.09	72.22	24.96	
2025-01-20 10:01:44.30	72.15	24.98	
2025-01-20 10:01:44.50	72.09	24.99	
2025-01-20 10:01:44.70	72.02	25.00	
2025-01-20 10:01:44.91	71.96	25.01	
2025-01-20 10:01:45.11	71.89	25.03	
2025-01-20 10:01:45.31	71.83	25.04	
2025-01-20 10:01:45.51	71.76	25.05	
2025-01-20 10:01:45.72	71.69	25.06	
2025-01-20 10:01:45.92	71.63	25.08	
2025-01-20 10:01:46.12	71.56	25.09	
2025-01-20 10:01:46.33	71.49	25.10	
2025-01-20 10:01:46.53	71.43	25.11	
2025-01-20 10:01:46.73	71.36	25.12	
2025-01-20 10:01:46.94	71.29	25.14	
2025-01-20 10:01:47.14	71.23	25.15	
2025-01-20 10:01:47.34	71.16	25.16	
2025-01-20 10:01:47.55	71.09	25.17	
2025-01-20 10:01:47.75	71.03	25.18	
2025-01-20 10:01:47.95	70.96	25.20	
2025-01-20 10:01:48.15	70.89	25.21	
2025-01-20 10:01:48.36	70.83	25.22	
2025-01-20 10:01:48.56	70.76	25.23	
2025-01-20 10:01:48.76	70.69	25.24	
2025-01-20 10:01:48.97	70.62	25.26	
2025-01-20 10:01:49.17	70.56	25.27	
2025-01-20 10:01:49.37	70.49	25.28	
2025-01-20 10:01:49.58	70.42	25.29	
2025-01-20 10:01:49.78	70.36	25.30	
2025-01-20 10:01:49.98	70.29	25.31	
2025-01-20 10:01:50.19	70.22	25.32	
2025-01-20 10:01:50.39	70.15	25.34	
2025-01-20 10:01:50.59	70.09	25.35	
2025-01-20 10:01:50.79	70.02	25.36	
2025-01-20 10:01:51.00	69.95	25.37	
2025-01-20 10:01:51.20	69.88	25.38	
2025-01-20 10:01:51.40	69.82	25.39	
2025-01-20 10:01:51.61	69.75	25.40	
2025-01-20 10:01:51.81	69.68	25.41	
2025-01-20 10:01:52.01	69.61	25.43	
2025-01-20 10:01:52.22	69.54	25.44	
2025-01-20 10:01:52.42	69.48	25.45	
2025-01-20 10:01:52.62	69.41	25.46	
2025-01-20 10:01:52.83	69.34	25.47	
2025-01-20 10:01:53.03	69.27	25.48	
2025-01-20 10:01:53.23	69.20	25.49	
2025-01-20 10:01:53.43	69.14	25.50	
2025-01-20 10:01:53.64	69.07	25.51	
2025-01-20 10:01:53.84	69.00	25.52	
2025-01-20 10:01:54.04	68.93	25.54	
2025-01-20 10:01:54.25	68.86	25.55	
2025-01-20 10:01:54.45	68.79	25.56	
2025-01-20 10:01:54.65	68.73	25.57	
2025-01-20 10:01:54.86	68.66	25.58	
2025-01-20 10:01:55.06	68.59	25.59	
2025-01-20 10:01:55.26	68.52	25.60	
2025-01-20 10:01:55.47	68.45	25.61	
2025-01-20 10:01:55.67	68.38	25.62	
2025-01-20 10:01:55.87	68.31	25.63	
2025-01-20 10:01:56.07	68.25	25.64	
2025-01-20 10:01:56.28	68.18	25.65	
2025-01-20 10:01:56.48	68.11	25.66	
2025-01-20 10:01:56.68	68.04	25.67	
2025-01-20 10:01:56.89	67.97	25.68	
2025-01-20 10:01:57.09	67.90	25.69	
2025-01-20 10:01:57.29	67.83	25.70	
2025-01-20 10:01:57.50	67.76	25.71	
2025-01-20 10:01:57.70	67.69	25.72	
2025-01-20 10:01:57.90	67.62	25.73	
2025-01-20 10:01:58.10	67.56	25.74	
2025-01-20 10:01:58.31	67.48	25.75	
2025-01-20 10:01:58.51	67.42	25.76	
2025-01-20 10:01:58.71	67.35	25.77	
2025-01-20 10:01:58.92	67.28	25.78	
2025-01-20 10:01:59.12	67.21	25.79	
2025-01-20 10:01:59.32	67.14	25.80	
2025-01-20 10:01:59.53	67.07	25.81	
2025-01-20 10:01:59.73	67.00	25.82	
2025-01-20 10:01:59.93	66.93	25.83	
2025-01-20 10:02:00.14	66.86	25.84	
2025-01-20 10:02:00.34	66.79	25.85	
2025-01-20 10:02:00.54	66.72	25.86	
2025-01-20 10:02:00.74	66.65	25.87	
2025-01-20 10:02:00.95	66.58	25.88	
2025-01-20 10:02:01.15	66.51	25.89	
2025-01-20 10:02:01.35	66.44	25.90	
2025-01-20 10:02:01.56	66.37	25.91	
2025-01-20 10:02:01.76	66.30	25.91	
2025-01-20 10:02:01.96	66.23	25.92	
2025-01-20 10:02:02.17	66.16	25.93	
2025-01-20 10:02:02.37	66.09	25.94	
2025-01-20 10:02:02.57	66.02	25.95	
2025-01-20 10:02:02.78	65.95	25.96	
2025-01-20 10:02:02.98	65.88	25.97	
2025-01-20 10:02:03.18	65.81	25.98	
2025-01-20 10:02:03.38	65.74	25.99	
2025-01-20 10:02:03.59	65.67	26.00	
2025-01-20 10:02:03.79	65.60	26.00	
2025-01-20 10:02:03.99	65.53	26.01	
2025-01-20 10:02:04.20	65.46	26.02	
2025-01-20 10:02:04.40	65.39	26.03	
2025-01-20 10:02:04.60	65.32	26.04	
2025-01-20 10:02:04.81	65.24	26.05	
2025-01-20 10:02:05.01	65.17	26.06	
2025-01-20 10:02:05.21	65.10	26.06	
2025-01-20 10:02:05.42	65.03	26.07	
2025-01-20 10:02:05.62	64.96	26.08	
2025-01-20 10:02:05.82	64.89	26.09	
2025-01-20 10:02:06.02	64.82	26.10	
2025-01-20 10:02:06.23	64.75	26.11	
2025-01-20 10:02:06.43	64.68	26.11	
2025-01-20 10:02:06.63	64.61	26.12	
2025-01-20 10:02:06.84	64.53	26.13	
2025-01-20 10:02:07.04	64.46	26.14	
2025-01-20 10:02:07.24	64.39	26.15	
2025-01-20 10:02:07.45	64.32	26.16	
2025-01-20 10:02:07.65	64.25	26.16	
2025-01-20 10:02:07.85	64.18	26.17	
2025-01-20 10:02:08.06	64.11	26.18	
2025-01-20 10:02:08.26	64.04	26.19	
2025-01-20 10:02:08.46	63.97	26.19	
2025-01-20 10:02:08.66	63.90	26.20	
2025-01-20 10:02:08.87	63.82	26.21	
2025-01-20 10:02:09.07	63.75	26.22	
2025-01-20 10:02:09.27	63.68	26.23	
2025-01-20 10:02:09.48	63.61	26.23	
2025-01-20 10:02:09.68	63.54	26.24	
2025-01-20 10:02:09.88	63.47	26.25	
2025-01-20 10:02:10.09	63.39	26.26	
2025-01-20 10:02:10.29	63.32	26.26	
2025-01-20 10:02:10.49	63.25	26.27	
2025-01-20 10:02:10.70	63.18	26.28	
2025-01-20 10:02:10.90	63.11	26.28	
2025-01-20 10:02:11.10	63.03	26.29	
2025-01-20 10:02:11.30	62.96	26.30	
2025-01-20 10:02:11.51	62.89	26.31	
2025-01-20 10:02:11.71	62.82	26.31	
2025-01-20 10:02:11.91	62.75	26.32	
2025-01-20 10:02:12.12	62.67	26.33	
2025-01-20 10:02:12.32	62.60	26.33	
2025-01-20 10:02:12.52	62.53	26.34	
2025-01-20 10:02:12.73	62.46	26.35	
2025-01-20 10:02:12.93	62.39	26.35	
2025-01-20 10:02:13.13	62.32	26.36	
2025-01-20 10:02:13.34	62.24	26.37	
2025-01-20 10:02:13.54	62.17	26.37	
2025-01-20 10:02:13.74	62.10	26.38	
2025-01-20 10:02:13.94	62.03	26.39	
2025-01-20 10:02:14.15	61.95	26.39	
2025-01-20 10:02:14.35	61.88	26.40	
2025-01-20 10:02:14.55	61.81	26.41	
2025-01-20 10:02:14.76	61.74	26.41	
2025-01-20 10:02:14.96	61.66	26.42	
2025-01-20 10:02:15.16	61.59	26.43	
2025-01-20 10:02:15.37	61.52	26.43	
2025-01-20 10:02:15.57	61.45	26.44	
2025-01-20 10:02:15.77	61.37	26.44	
2025-01-20 10:02:15.98	61.30	26.45	
2025-01-20 10:02:16.18	61.23	26.46	
2025-01-20 10:02:16.38	61.16	26.46	
2025-01-20 10:02:16.58	61.08	26.47	
2025-01-20 10:02:16.79	61.01	26.47	
2025-01-20 10:02:16.99	60.94	26.48	
2025-01-20 10:02:17.19	60.87	26.49	
2025-01-20 10:02:17.40	60.79	26.49	
2025-01-20 10:02:17.60	60.72	26.50	
2025-01-20 10:02:17.80	60.65	26.50	
2025-01-20 10:02:18.01	60.57	26.51	
2025-01-20 10:02:18.21	60.50	26.51	
2025-01-20 10:02:18.41	60.43	26.52	
2025-01-20 10:02:18.62	60.35	26.53	
2025-01-20 10:02:18.82	60.28	26.53	
2025-01-20 10:02:19.02	60.21	26.54	
2025-01-20 10:02:19.22	60.14	26.54	
2025-01-20 10:02:19.43	60.06	26.55	
2025-01-20 10:02:19.63	59.99	26.55	
2025-01-20 10:02:19.83	59.92	26.56	
2025-01-20 10:02:20.04	59.84	26.56	
2025-01-20 10:02:20.24	59.77	26.57	
2025-01-20 10:02:20.44	59.70	26.57	
2025-01-20 10:02:20.65	59.62	26.58	
2025-01-20 10:02:20.85	59.55	26.58	
2025-01-20 10:02:21.05	59.48	26.59	
2025-01-20 10:02:21.26	59.40	26.59	
2025-01-20 10:02:21.46	59.33	26.60	
2025-01-20 10:02:21.66	59.26	26.60	
2025-01-20 10:02:21.86	59.19	26.61	
2025-01-20 10:02:22.07	59.11	26.61	
2025-01-20 10:02:22.27	59.04	26.62	
2025-01-20 10:02:22.47	58.97	26.62	
2025-01-20 10:02:22.68	58.89	26.62	
2025-01-20 10:02:22.88	58.82	26.63	
2025-01-20 10:02:23.08	58.75	26.63	
2025-01-20 10:02:23.29	58.67	26.64	
2025-01-20 10:02:23.49	58.60	26.64	
2025-01-20 10:02:23.69	58.53	26.65	
2025-01-20 10:02:23.90	58.45	26.65	
2025-01-20 10:02:24.10	58.38	26.65	
2025-01-20 10:02:24.30	58.30	26.66	
2025-01-20 10:02:24.50	58.23	26.66	
2025-01-20 10:02:24.71	58.16	26.67	
2025-01-20 10:02:24.91	58.08	26.67	
2025-01-20 10:02:25.11	58.01	26.67	
2025-01-20 10:02:25.32	57.93	26.68	
2025-01-20 10:02:25.52	57.86	26.68	
2025-01-20 10:02:25.72	57.79	26.69	
2025-01-20 10:02:25.93	57.71	26.69	
2025-01-20 10:02:26.13	57.64	26.69	
2025-01-20 10:02:26.33	57.57	26.70	
2025-01-20 10:02:26.54	57.49	26.70	
2025-01-20 10:02:26.74	57.42	26.70	
2025-01-20 10:02:26.94	57.35	26.71	
2025-01-20 10:02:27.14	57.27	26.71	
2025-01-20 10:02:27.35	57.20	26.71	
2025-01-20 10:02:27.55	57.12	26.72	
2025-01-20 10:02:27.75	57.05	26.72	
2025-01-20 10:02:27.96	56.98	26.72	
2025-01-20 10:02:28.16	56.90	26.73	
2025-01-20 10:02:28.36	56.83	26.73	
2025-01-20 10:02:28.57	56.75	26.73	
2025-01-20 10:02:28.77	56.68	26.74	
2025-01-20 10:02:28.97	56.61	26.74	
2025-01-20 10:02:29.18	56.53	26.74	
2025-01-20 10:02:29.38	56.46	26.74	
2025-01-20 10:02:29.58	56.39	26.75	
2025-01-20 10:02:29.78	56.31	26.75	
2025-01-20 10:02:29.99	56.24	26.75	
2025-01-20 10:02:30.19	56.16	26.76	
2025-01-20 10:02:30.39	56.09	26.76	
2025-01-20 10:02:30.60	56.01	26.76	
2025-01-20 10:02:30.80	55.94	26.76	
2025-01-20 10:02:31.00	55.87	26.77	
2025-01-20 10:02:31.21	55.79	26.77	
2025-01-20 10:02:31.41	55.72	26.77	
2025-01-20 10:02:31.61	55.65	26.77	
2025-01-20 10:02:31.82	55.57	26.77	
2025-01-20 10:02:32.02	55.50	26.78	
2025-01-20 10:02:32.22	55.42	26.78	
2025-01-20 10:02:32.42	55.35	26.78	
2025-01-20 10:02:32.63	55.27	26.78	
2025-01-20 10:02:32.83	55.20	26.79	
2025-01-20 10:02:33.03	55.13	26.79	
2025-01-20 10:02:33.24	55.05	26.79	
2025-01-20 10:02:33.44	54.98	26.79	
2025-01-20 10:02:33.64	54.90	26.79	
2025-01-20 10:02:33.85	54.83	26.79	
2025-01-20 10:02:34.05	54.75	26.80	
2025-01-20 10:02:34.25	54.68	26.80	
2025-01-20 10:02:34.46	54.60	26.80	
2025-01-20 10:02:34.66	54.53	26.80	
2025-01-20 10:02:34.86	54.46	26.80	
2025-01-20 10:02:35.06	54.39	26.80	
2025-01-20 10:02:35.27	54.31	26.80	
2025-01-20 10:02:35.47	54.24	26.81	
2025-01-20 10:02:35.67	54.16	26.81	
2025-01-20 10:02:35.88	54.09	26.81	
2025-01-20 10:02:36.08	54.01	26.81	
2025-01-20 10:02:36.28	53.94	26.81	
2025-01-20 10:02:36.49	53.86	26.81	
2025-01-20 10:02:36.69	53.79	26.81	
2025-01-20 10:02:36.89	53.72	26.81	
2025-01-20 10:02:37.10	53.64	26.81	
2025-01-20 10:02:37.30	53.57	26.82	
2025-01-20 10:02:37.50	53.49	26.82	
2025-01-20 10:02:37.70	53.42	26.82	
2025-01-20 10:02:37.91	53.34	26.82	
2025-01-20 10:02:38.11	53.27	26.82	
2025-01-20 10:02:38.31	53.20	26.82	
2025-01-20 10:02:38.52	53.12	26.82	
2025-01-20 10:02:38.72	53.05	26.82	
2025-01-20 10:02:38.92	52.97	26.82	
2025-01-20 10:02:39.13	52.90	26.82	
2025-01-20 10:02:39.33	52.82	26.82	
2025-01-20 10:02:39.53	52.75	26.82	
2025-01-20 10:02:39.74	52.67	26.82	
2025-01-20 10:02:39.94	52.60	26.82	
2025-01-20 10:02:40.14	52.53	26.82	
2025-01-20 10:02:40.34	52.45	26.82	
2025-01-20 10:02:40.55	52.38	26.82	
2025-01-20 10:02:40.75	52.30	26.82	
2025-01-20 10:02:40.95	52.23	26.82	
2025-01-20 10:02:41.16	52.15	26.82	
2025-01-20 10:02:41.36	52.08	26.82	
2025-01-20 10:02:41.56	52.01	26.82	
2025-01-20 10:02:41.77	51.93	26.82	
2025-01-20 10:02:41.97	51.86	26.82	
2025-01-20 10:02:42.17	51.78	26.82	
2025-01-20 10:02:42.38	51.71	26.82	
2025-01-20 10:02:42.58	51.63	26.82	
2025-01-20 10:02:42.78	51.56	26.82	
2025-01-20 10:02:42.98	51.49	26.82	
2025-01-20 10:02:43.19	51.41	26.82	
2025-01-20 10:02:43.39	51.34	26.82	
2025-01-20 10:02:43.59	51.26	26.82	
2025-01-20 10:02:43.80	51.19	26.81	
2025-01-20 10:02:44.00	51.11	26.81	
2025-01-20 10:02:44.20	51.04	26.81	
2025-01-20 10:02:44.41	50.96	26.81	
2025-01-20 10:02:44.61	50.89	26.81	
2025-01-20 10:02:44.81	50.82	26.81	
2025-01-20 10:02:45.02	50.74	26.81	
2025-01-20 10:02:45.22	50.67	26.81	
2025-01-20 10:02:45.42	50.60	26.81	
2025-01-20 10:02:45.62	50.52	26.81	
2025-01-20 10:02:45.83	50.45	26.80	
2025-01-20 10:02:46.03	50.37	26.80	
2025-01-20 10:02:46.23	50.30	26.80	
2025-01-20 10:02:46.44	50.22	26.80	
2025-01-20 10:02:46.64	50.15	26.80	
2025-01-20 10:02:46.84	50.08	26.80	
2025-01-20 10:02:47.05	50.00	26.79	
2025-01-20 10:02:47.25	49.93	26.79	
2025-01-20 10:02:47.45	49.85	26.79	
2025-01-20 10:02:47.66	49.78	26.79	
2025-01-20 10:02:47.86	49.70	26.79	
2025-01-20 10:02:48.06	49.63	26.79	
2025-01-20 10:02:48.26	49.56	26.78	
2025-01-20 10:02:48.47	49.48	26.78	
2025-01-20 10:02:48.67	49.41	26.78	
2025-01-20 10:02:48.87	49.34	26.78	
2025-01-20 10:02:49.08	49.26	26.78	
2025-01-20 10:02:49.28	49.19	26.77	
2025-01-20 10:02:49.48	49.11	26.77	
2025-01-20 10:02:49.69	49.04	26.77	
2025-01-20 10:02:49.89	48.96	26.77	
2025-01-20 10:02:50.09	48.89	26.76	
2025-01-20 10:02:50.30	48.81	26.76	
2025-01-20 10:02:50.50	48.74	26.76	
2025-01-20 10:02:50.70	48.67	26.76	
2025-01-20 10:02:50.90	48.59	26.75	
2025-01-20 10:02:51.11	48.52	26.75	
2025-01-20 10:02:51.31	48.45	26.75	
2025-01-20 10:02:51.51	48.37	26.75	
2025-01-20 10:02:51.72	48.30	26.74	
2025-01-20 10:02:51.92	48.22	26.74	
2025-01-20 10:02:52.12	48.15	26.74	
2025-01-20 10:02:52.33	48.07	26.73	
2025-01-20 10:02:52.53	48.00	26.73	
2025-01-20 10:02:52.73	47.93	26.73	
2025-01-20 10:02:52.94	47.85	26.73	
2025-01-20 10:02:53.14	47.78	26.72	
2025-01-20 10:02:53.34	47.71	26.72	
2025-01-20 10:02:53.54	47.63	26.72	
2025-01-20 10:02:53.75	47.56	26.71	
2025-01-20 10:02:53.95	47.49	26.71	
2025-01-20 10:02:54.15	47.41	26.71	
2025-01-20 10:02:54.36	47.34	26.70	
2025-01-20 10:02:54.56	47.26	26.70	
2025-01-20 10:02:54.76	47.19	26.70	
2025-01-20 10:02:54.97	47.12	26.69	
2025-01-20 10:02:55.17	47.04	26.69	
2025-01-20 10:02:55.37	46.97	26.68	
2025-01-20 10:02:55.58	46.89	26.68	
2025-01-20 10:02:55.78	46.82	26.68	
2025-01-20 10:02:55.98	46.75	26.67	
