passes_logs/2025/01/20/SPB_Silybum_02/SPB_Silybum_02__20250120_062440_TERRA_rec.log

#Pass ID: 20250120_062440_TERRA
#Satellite: TERRA
#Configuration: TERRA
#Start time: 2025-01-20 06:24:41

#Version: 2.0.20230423
#Station: SPB_Silybum_02
#Location: 30.233357 lon 59.946436 lat
#TLE: 1 25994U 99068A   25019.78905911  .00001081  00000+0  23261-3 0  9994
#TLE: 2 25994  98.0208  82.6669 0003303  62.5205  49.3311 14.60406058334773

#Time	Az	El	Level	Level2	SNR	BER	Gain	Gain2
2025-01-20 06:24:43.13	32.25	4.14	
2025-01-20 06:24:43.33	32.27	4.15	
2025-01-20 06:24:43.54	32.29	4.16	
2025-01-20 06:24:43.74	32.32	4.17	
2025-01-20 06:24:43.94	32.34	4.18	
2025-01-20 06:24:44.15	32.36	4.19	
2025-01-20 06:24:44.35	32.39	4.20	
2025-01-20 06:24:44.55	32.41	4.21	
2025-01-20 06:24:44.75	32.43	4.22	
2025-01-20 06:24:44.96	32.46	4.23	
2025-01-20 06:24:45.16	32.48	4.24	
2025-01-20 06:24:45.36	32.50	4.25	
2025-01-20 06:24:45.57	32.53	4.27	
2025-01-20 06:24:45.77	32.55	4.28	
2025-01-20 06:24:45.97	32.57	4.29	
2025-01-20 06:24:46.17	32.60	4.30	
2025-01-20 06:24:46.38	32.62	4.31	
2025-01-20 06:24:46.58	32.65	4.32	
2025-01-20 06:24:46.78	32.67	4.33	
2025-01-20 06:24:46.99	32.69	4.34	
2025-01-20 06:24:47.19	32.72	4.35	
2025-01-20 06:24:47.39	32.74	4.36	
2025-01-20 06:24:47.60	32.76	4.37	
2025-01-20 06:24:47.80	32.79	4.38	
2025-01-20 06:24:48.00	32.81	4.39	
2025-01-20 06:24:48.20	32.83	4.40	
2025-01-20 06:24:48.41	32.86	4.41	
2025-01-20 06:24:48.61	32.88	4.42	
2025-01-20 06:24:48.81	32.90	4.43	
2025-01-20 06:24:49.02	32.93	4.44	
2025-01-20 06:24:49.22	32.95	4.45	
2025-01-20 06:24:49.42	32.98	4.46	
2025-01-20 06:24:49.62	33.00	4.47	
2025-01-20 06:24:49.83	33.02	4.49	
2025-01-20 06:24:50.03	33.05	4.50	
2025-01-20 06:24:50.23	33.07	4.51	
2025-01-20 06:24:50.44	33.10	4.52	
2025-01-20 06:24:50.64	33.12	4.53	
2025-01-20 06:24:50.84	33.14	4.54	
2025-01-20 06:24:51.05	33.17	4.55	
2025-01-20 06:24:51.25	33.19	4.56	
2025-01-20 06:24:51.45	33.21	4.57	
2025-01-20 06:24:51.65	33.24	4.58	
2025-01-20 06:24:51.86	33.26	4.59	
2025-01-20 06:24:52.06	33.29	4.60	
2025-01-20 06:24:52.26	33.31	4.61	
2025-01-20 06:24:52.47	33.34	4.62	
2025-01-20 06:24:52.67	33.36	4.63	
2025-01-20 06:24:52.87	33.38	4.64	
2025-01-20 06:24:53.07	33.41	4.65	
2025-01-20 06:24:53.28	33.43	4.66	
2025-01-20 06:24:53.48	33.45	4.67	
2025-01-20 06:24:53.68	33.48	4.68	
2025-01-20 06:24:53.89	33.50	4.70	
2025-01-20 06:24:54.09	33.53	4.71	
2025-01-20 06:24:54.29	33.55	4.72	
2025-01-20 06:24:54.50	33.58	4.73	
2025-01-20 06:24:54.70	33.60	4.74	
2025-01-20 06:24:54.90	33.62	4.75	
2025-01-20 06:24:55.10	33.65	4.76	
2025-01-20 06:24:55.31	33.67	4.77	
2025-01-20 06:24:55.51	33.70	4.78	
2025-01-20 06:24:55.71	33.72	4.79	
2025-01-20 06:24:55.92	33.75	4.80	
2025-01-20 06:24:56.12	33.77	4.81	
2025-01-20 06:24:56.32	33.79	4.82	
2025-01-20 06:24:56.53	33.82	4.83	
2025-01-20 06:24:56.73	33.84	4.84	
2025-01-20 06:24:56.93	33.87	4.85	
2025-01-20 06:24:57.13	33.89	4.86	
2025-01-20 06:24:57.34	33.92	4.87	
2025-01-20 06:24:57.54	33.94	4.88	
2025-01-20 06:24:57.74	33.97	4.89	
2025-01-20 06:24:57.95	33.99	4.91	
2025-01-20 06:24:58.15	34.01	4.92	
2025-01-20 06:24:58.35	34.04	4.93	
2025-01-20 06:24:58.55	34.06	4.94	
2025-01-20 06:24:58.76	34.09	4.95	
2025-01-20 06:24:58.96	34.11	4.96	
2025-01-20 06:24:59.16	34.14	4.97	
2025-01-20 06:24:59.37	34.16	4.98	
2025-01-20 06:24:59.57	34.19	4.99	
2025-01-20 06:24:59.77	34.21	5.00	
2025-01-20 06:24:59.98	34.24	5.01	
2025-01-20 06:25:00.18	34.26	5.02	
2025-01-20 06:25:00.38	34.29	5.03	
2025-01-20 06:25:00.58	34.31	5.04	
2025-01-20 06:25:00.79	34.34	5.05	
2025-01-20 06:25:00.99	34.36	5.06	
2025-01-20 06:25:01.19	34.38	5.07	
2025-01-20 06:25:01.40	34.41	5.08	
2025-01-20 06:25:01.60	34.43	5.09	
2025-01-20 06:25:01.80	34.46	5.11	
2025-01-20 06:25:02.01	34.48	5.12	
2025-01-20 06:25:02.21	34.51	5.13	
2025-01-20 06:25:02.41	34.53	5.14	
2025-01-20 06:25:02.61	34.56	5.15	
2025-01-20 06:25:02.82	34.58	5.16	
2025-01-20 06:25:03.02	34.61	5.17	
2025-01-20 06:25:03.22	34.63	5.18	
2025-01-20 06:25:03.43	34.66	5.19	
2025-01-20 06:25:03.63	34.68	5.20	
2025-01-20 06:25:03.83	34.71	5.21	
2025-01-20 06:25:04.03	34.73	5.22	
2025-01-20 06:25:04.24	34.76	5.23	
2025-01-20 06:25:04.44	34.78	5.24	
2025-01-20 06:25:04.64	34.81	5.25	
2025-01-20 06:25:04.85	34.83	5.26	
2025-01-20 06:25:05.05	34.86	5.27	
2025-01-20 06:25:05.25	34.88	5.28	
2025-01-20 06:25:05.46	34.91	5.30	
2025-01-20 06:25:05.66	34.94	5.31	
2025-01-20 06:25:05.86	34.96	5.32	
2025-01-20 06:25:06.06	34.99	5.33	
2025-01-20 06:25:06.27	35.01	5.34	
2025-01-20 06:25:06.47	35.04	5.35	
2025-01-20 06:25:06.67	35.06	5.36	
2025-01-20 06:25:06.88	35.09	5.37	
2025-01-20 06:25:07.08	35.11	5.38	
2025-01-20 06:25:07.28	35.14	5.39	
2025-01-20 06:25:07.49	35.16	5.40	
2025-01-20 06:25:07.69	35.19	5.41	
2025-01-20 06:25:07.89	35.21	5.42	
2025-01-20 06:25:08.09	35.24	5.43	
2025-01-20 06:25:08.30	35.27	5.44	
2025-01-20 06:25:08.50	35.29	5.45	
2025-01-20 06:25:08.70	35.32	5.46	
2025-01-20 06:25:08.91	35.34	5.47	
2025-01-20 06:25:09.11	35.37	5.48	
2025-01-20 06:25:09.31	35.39	5.50	
2025-01-20 06:25:09.51	35.42	5.51	
2025-01-20 06:25:09.72	35.44	5.52	
2025-01-20 06:25:09.92	35.47	5.53	
2025-01-20 06:25:10.12	35.49	5.54	
2025-01-20 06:25:10.33	35.52	5.55	
2025-01-20 06:25:10.53	35.55	5.56	
2025-01-20 06:25:10.73	35.57	5.57	
2025-01-20 06:25:10.94	35.60	5.58	
2025-01-20 06:25:11.14	35.62	5.59	
2025-01-20 06:25:11.34	35.65	5.60	
2025-01-20 06:25:11.54	35.67	5.61	
2025-01-20 06:25:11.75	35.70	5.62	
2025-01-20 06:25:11.95	35.73	5.63	
2025-01-20 06:25:12.15	35.75	5.64	
2025-01-20 06:25:12.36	35.78	5.65	
2025-01-20 06:25:12.56	35.80	5.66	
2025-01-20 06:25:12.76	35.83	5.67	
2025-01-20 06:25:12.96	35.86	5.68	
2025-01-20 06:25:13.17	35.88	5.70	
2025-01-20 06:25:13.37	35.91	5.71	
2025-01-20 06:25:13.57	35.93	5.72	
2025-01-20 06:25:13.78	35.96	5.73	
2025-01-20 06:25:13.98	35.99	5.74	
2025-01-20 06:25:14.18	36.01	5.75	
2025-01-20 06:25:14.39	36.04	5.76	
2025-01-20 06:25:14.59	36.06	5.77	
2025-01-20 06:25:14.79	36.09	5.78	
2025-01-20 06:25:14.99	36.12	5.79	
2025-01-20 06:25:15.20	36.14	5.80	
2025-01-20 06:25:15.40	36.17	5.81	
2025-01-20 06:25:15.61	36.20	5.82	
2025-01-20 06:25:15.82	36.22	5.83	
2025-01-20 06:25:16.02	36.25	5.84	
2025-01-20 06:25:16.22	36.27	5.85	
2025-01-20 06:25:16.43	36.30	5.87	
2025-01-20 06:25:16.63	36.33	5.88	
2025-01-20 06:25:16.83	36.35	5.89	
2025-01-20 06:25:17.03	36.38	5.90	
2025-01-20 06:25:17.24	36.41	5.91	
2025-01-20 06:25:17.44	36.43	5.92	
2025-01-20 06:25:17.64	36.46	5.93	
2025-01-20 06:25:17.85	36.49	5.94	
2025-01-20 06:25:18.05	36.51	5.95	
2025-01-20 06:25:18.25	36.54	5.96	
2025-01-20 06:25:18.45	36.56	5.97	
2025-01-20 06:25:18.66	36.59	5.98	
2025-01-20 06:25:18.86	36.62	5.99	
2025-01-20 06:25:19.06	36.64	6.00	
2025-01-20 06:25:19.27	36.67	6.01	
2025-01-20 06:25:19.47	36.70	6.02	
2025-01-20 06:25:19.67	36.72	6.03	
2025-01-20 06:25:19.88	36.75	6.04	
2025-01-20 06:25:20.08	36.78	6.05	
2025-01-20 06:25:20.28	36.80	6.07	
2025-01-20 06:25:20.48	36.83	6.08	
2025-01-20 06:25:20.69	36.86	6.09	
2025-01-20 06:25:20.89	36.88	6.10	
2025-01-20 06:25:21.09	36.91	6.11	
2025-01-20 06:25:21.30	36.94	6.12	
2025-01-20 06:25:21.50	36.96	6.13	
2025-01-20 06:25:21.70	36.99	6.14	
2025-01-20 06:25:21.90	37.02	6.15	
2025-01-20 06:25:22.11	37.05	6.16	
2025-01-20 06:25:22.31	37.07	6.17	
2025-01-20 06:25:22.51	37.10	6.18	
2025-01-20 06:25:22.72	37.13	6.19	
2025-01-20 06:25:22.92	37.15	6.20	
2025-01-20 06:25:23.12	37.18	6.21	
2025-01-20 06:25:23.33	37.21	6.22	
2025-01-20 06:25:23.53	37.23	6.23	
2025-01-20 06:25:23.73	37.26	6.24	
2025-01-20 06:25:23.93	37.29	6.26	
2025-01-20 06:25:24.14	37.31	6.27	
2025-01-20 06:25:24.34	37.34	6.28	
2025-01-20 06:25:24.54	37.37	6.29	
2025-01-20 06:25:24.75	37.40	6.30	
2025-01-20 06:25:24.95	37.42	6.31	
2025-01-20 06:25:25.15	37.45	6.32	
2025-01-20 06:25:25.36	37.48	6.33	
2025-01-20 06:25:25.56	37.50	6.34	
2025-01-20 06:25:25.76	37.53	6.35	
2025-01-20 06:25:25.96	37.56	6.36	
2025-01-20 06:25:26.17	37.59	6.37	
2025-01-20 06:25:26.37	37.61	6.38	
2025-01-20 06:25:26.57	37.64	6.39	
2025-01-20 06:25:26.78	37.67	6.40	
2025-01-20 06:25:26.98	37.69	6.41	
2025-01-20 06:25:27.18	37.72	6.42	
2025-01-20 06:25:27.38	37.75	6.43	
2025-01-20 06:25:27.59	37.78	6.45	
2025-01-20 06:25:27.79	37.80	6.46	
2025-01-20 06:25:27.99	37.83	6.47	
2025-01-20 06:25:28.20	37.86	6.48	
2025-01-20 06:25:28.40	37.89	6.49	
2025-01-20 06:25:28.60	37.91	6.50	
2025-01-20 06:25:28.81	37.94	6.51	
2025-01-20 06:25:29.01	37.97	6.52	
2025-01-20 06:25:29.21	38.00	6.53	
2025-01-20 06:25:29.41	38.02	6.54	
2025-01-20 06:25:29.62	38.05	6.55	
2025-01-20 06:25:29.82	38.08	6.56	
2025-01-20 06:25:30.02	38.11	6.57	
2025-01-20 06:25:30.23	38.14	6.58	
2025-01-20 06:25:30.43	38.16	6.59	
2025-01-20 06:25:30.63	38.19	6.60	
2025-01-20 06:25:30.84	38.22	6.61	
2025-01-20 06:25:31.04	38.25	6.62	
2025-01-20 06:25:31.24	38.27	6.63	
2025-01-20 06:25:31.44	38.30	6.65	
2025-01-20 06:25:31.65	38.33	6.66	
2025-01-20 06:25:31.85	38.36	6.67	
2025-01-20 06:25:32.05	38.38	6.68	
2025-01-20 06:25:32.26	38.41	6.69	
2025-01-20 06:25:32.46	38.44	6.70	
2025-01-20 06:25:32.66	38.47	6.71	
2025-01-20 06:25:32.86	38.50	6.72	
2025-01-20 06:25:33.07	38.52	6.73	
2025-01-20 06:25:33.27	38.55	6.74	
2025-01-20 06:25:33.47	38.58	6.75	
2025-01-20 06:25:33.68	38.61	6.76	
2025-01-20 06:25:33.88	38.64	6.77	
2025-01-20 06:25:34.08	38.66	6.78	
2025-01-20 06:25:34.29	38.69	6.79	
2025-01-20 06:25:34.49	38.72	6.80	
2025-01-20 06:25:34.69	38.75	6.81	
2025-01-20 06:25:34.89	38.78	6.82	
2025-01-20 06:25:35.10	38.80	6.84	
2025-01-20 06:25:35.30	38.83	6.85	
2025-01-20 06:25:35.50	38.86	6.86	
2025-01-20 06:25:35.71	38.89	6.87	
2025-01-20 06:25:35.91	38.92	6.88	
2025-01-20 06:25:36.11	38.95	6.89	
2025-01-20 06:25:36.31	38.97	6.90	
2025-01-20 06:25:36.52	39.00	6.91	
2025-01-20 06:25:36.72	39.03	6.92	
2025-01-20 06:25:36.92	39.06	6.93	
2025-01-20 06:25:37.13	39.09	6.94	
2025-01-20 06:25:37.33	39.12	6.95	
2025-01-20 06:25:37.53	39.14	6.96	
2025-01-20 06:25:37.74	39.17	6.97	
2025-01-20 06:25:37.94	39.20	6.98	
2025-01-20 06:25:38.14	39.23	6.99	
2025-01-20 06:25:38.34	39.26	7.00	
2025-01-20 06:25:38.55	39.29	7.01	
2025-01-20 06:25:38.75	39.32	7.02	
2025-01-20 06:25:38.95	39.34	7.03	
2025-01-20 06:25:39.16	39.37	7.05	
2025-01-20 06:25:39.36	39.40	7.06	
2025-01-20 06:25:39.56	39.43	7.07	
2025-01-20 06:25:39.77	39.46	7.08	
2025-01-20 06:25:39.97	39.49	7.09	
2025-01-20 06:25:40.17	39.52	7.10	
2025-01-20 06:25:40.37	39.54	7.11	
2025-01-20 06:25:40.58	39.57	7.12	
2025-01-20 06:25:40.78	39.60	7.13	
2025-01-20 06:25:40.98	39.63	7.14	
2025-01-20 06:25:41.19	39.66	7.15	
2025-01-20 06:25:41.39	39.69	7.16	
2025-01-20 06:25:41.59	39.72	7.17	
2025-01-20 06:25:41.79	39.75	7.18	
2025-01-20 06:25:42.00	39.78	7.19	
2025-01-20 06:25:42.20	39.80	7.20	
2025-01-20 06:25:42.40	39.83	7.21	
2025-01-20 06:25:42.61	39.86	7.22	
2025-01-20 06:25:42.81	39.89	7.23	
2025-01-20 06:25:43.01	39.92	7.24	
2025-01-20 06:25:43.22	39.95	7.26	
2025-01-20 06:25:43.42	39.98	7.27	
2025-01-20 06:25:43.62	40.01	7.28	
2025-01-20 06:25:43.82	40.04	7.29	
2025-01-20 06:25:44.03	40.07	7.30	
2025-01-20 06:25:44.23	40.09	7.31	
2025-01-20 06:25:44.43	40.12	7.32	
2025-01-20 06:25:44.64	40.15	7.33	
2025-01-20 06:25:44.84	40.18	7.34	
2025-01-20 06:25:45.04	40.21	7.35	
2025-01-20 06:25:45.24	40.24	7.36	
2025-01-20 06:25:45.45	40.27	7.37	
2025-01-20 06:25:45.65	40.30	7.38	
2025-01-20 06:25:45.85	40.33	7.39	
2025-01-20 06:25:46.06	40.36	7.40	
2025-01-20 06:25:46.26	40.39	7.41	
2025-01-20 06:25:46.46	40.42	7.42	
2025-01-20 06:25:46.67	40.45	7.43	
2025-01-20 06:25:46.87	40.48	7.44	
2025-01-20 06:25:47.07	40.50	7.45	
2025-01-20 06:25:47.27	40.53	7.46	
2025-01-20 06:25:47.48	40.56	7.48	
2025-01-20 06:25:47.68	40.59	7.49	
2025-01-20 06:25:47.88	40.62	7.50	
2025-01-20 06:25:48.09	40.65	7.51	
2025-01-20 06:25:48.29	40.68	7.52	
2025-01-20 06:25:48.49	40.71	7.53	
2025-01-20 06:25:48.70	40.74	7.54	
2025-01-20 06:25:48.90	40.77	7.55	
2025-01-20 06:25:49.10	40.80	7.56	
2025-01-20 06:25:49.30	40.83	7.57	
2025-01-20 06:25:49.51	40.86	7.58	
2025-01-20 06:25:49.71	40.89	7.59	
2025-01-20 06:25:49.91	40.92	7.60	
2025-01-20 06:25:50.12	40.95	7.61	
2025-01-20 06:25:50.32	40.98	7.62	
2025-01-20 06:25:50.52	41.01	7.63	
2025-01-20 06:25:50.72	41.04	7.64	
2025-01-20 06:25:50.93	41.07	7.65	
2025-01-20 06:25:51.13	41.10	7.66	
2025-01-20 06:25:51.33	41.13	7.67	
2025-01-20 06:25:51.54	41.16	7.68	
2025-01-20 06:25:51.74	41.19	7.69	
2025-01-20 06:25:51.94	41.22	7.71	
2025-01-20 06:25:52.15	41.25	7.72	
2025-01-20 06:25:52.35	41.28	7.73	
2025-01-20 06:25:52.55	41.31	7.74	
2025-01-20 06:25:52.75	41.34	7.75	
2025-01-20 06:25:52.96	41.37	7.76	
2025-01-20 06:25:53.16	41.40	7.77	
2025-01-20 06:25:53.36	41.43	7.78	
2025-01-20 06:25:53.57	41.46	7.79	
2025-01-20 06:25:53.77	41.49	7.80	
2025-01-20 06:25:53.97	41.52	7.81	
2025-01-20 06:25:54.17	41.55	7.82	
2025-01-20 06:25:54.38	41.58	7.83	
2025-01-20 06:25:54.58	41.61	7.84	
2025-01-20 06:25:54.78	41.64	7.85	
2025-01-20 06:25:54.99	41.67	7.86	
2025-01-20 06:25:55.19	41.70	7.87	
2025-01-20 06:25:55.39	41.73	7.88	
2025-01-20 06:25:55.60	41.76	7.89	
2025-01-20 06:25:55.80	41.79	7.90	
2025-01-20 06:25:56.00	41.82	7.91	
2025-01-20 06:25:56.20	41.85	7.92	
2025-01-20 06:25:56.41	41.88	7.93	
2025-01-20 06:25:56.61	41.91	7.94	
2025-01-20 06:25:56.81	41.94	7.96	
2025-01-20 06:25:57.02	41.98	7.97	
2025-01-20 06:25:57.22	42.01	7.98	
2025-01-20 06:25:57.42	42.04	7.99	
2025-01-20 06:25:57.63	42.07	8.00	
2025-01-20 06:25:57.83	42.10	8.01	
2025-01-20 06:25:58.03	42.13	8.02	
2025-01-20 06:25:58.23	42.16	8.03	
2025-01-20 06:25:58.44	42.19	8.04	
2025-01-20 06:25:58.64	42.22	8.05	
2025-01-20 06:25:58.84	42.25	8.06	
2025-01-20 06:25:59.05	42.28	8.07	
2025-01-20 06:25:59.25	42.31	8.08	
2025-01-20 06:25:59.45	42.34	8.09	
2025-01-20 06:25:59.65	42.37	8.10	
2025-01-20 06:25:59.86	42.41	8.11	
2025-01-20 06:26:00.06	42.44	8.12	
2025-01-20 06:26:00.26	42.47	8.13	
2025-01-20 06:26:00.47	42.50	8.14	
2025-01-20 06:26:00.67	42.53	8.15	
2025-01-20 06:26:00.87	42.56	8.16	
2025-01-20 06:26:01.08	42.59	8.17	
2025-01-20 06:26:01.28	42.62	8.18	
2025-01-20 06:26:01.48	42.65	8.19	
2025-01-20 06:26:01.68	42.68	8.20	
2025-01-20 06:26:01.89	42.72	8.21	
2025-01-20 06:26:02.09	42.75	8.23	
2025-01-20 06:26:02.29	42.78	8.24	
2025-01-20 06:26:02.50	42.81	8.25	
2025-01-20 06:26:02.70	42.84	8.26	
2025-01-20 06:26:02.90	42.87	8.27	
2025-01-20 06:26:03.11	42.90	8.28	
2025-01-20 06:26:03.31	42.93	8.29	
2025-01-20 06:26:03.51	42.96	8.30	
2025-01-20 06:26:03.71	43.00	8.31	
2025-01-20 06:26:03.92	43.03	8.32	
2025-01-20 06:26:04.12	43.06	8.33	
2025-01-20 06:26:04.32	43.09	8.34	
2025-01-20 06:26:04.53	43.12	8.35	
2025-01-20 06:26:04.73	43.15	8.36	
2025-01-20 06:26:04.93	43.18	8.37	
2025-01-20 06:26:05.13	43.21	8.38	
2025-01-20 06:26:05.34	43.25	8.39	
2025-01-20 06:26:05.54	43.28	8.40	
2025-01-20 06:26:05.74	43.31	8.41	
2025-01-20 06:26:05.95	43.34	8.42	
2025-01-20 06:26:06.15	43.37	8.43	
2025-01-20 06:26:06.35	43.40	8.44	
2025-01-20 06:26:06.56	43.44	8.45	
2025-01-20 06:26:06.76	43.47	8.46	
2025-01-20 06:26:06.96	43.50	8.47	
2025-01-20 06:26:07.16	43.53	8.48	
2025-01-20 06:26:07.37	43.56	8.49	
2025-01-20 06:26:07.57	43.60	8.50	
2025-01-20 06:26:07.77	43.63	8.51	
2025-01-20 06:26:07.98	43.66	8.52	
2025-01-20 06:26:08.18	43.69	8.53	
2025-01-20 06:26:08.38	43.72	8.54	
2025-01-20 06:26:08.58	43.75	8.55	
2025-01-20 06:26:08.79	43.79	8.57	
2025-01-20 06:26:08.99	43.82	8.58	
2025-01-20 06:26:09.19	43.85	8.59	
2025-01-20 06:26:09.40	43.88	8.60	
2025-01-20 06:26:09.60	43.91	8.61	
2025-01-20 06:26:09.80	43.95	8.62	
2025-01-20 06:26:10.01	43.98	8.63	
2025-01-20 06:26:10.21	44.01	8.64	
2025-01-20 06:26:10.41	44.04	8.65	
2025-01-20 06:26:10.61	44.07	8.66	
2025-01-20 06:26:10.82	44.11	8.67	
2025-01-20 06:26:11.02	44.14	8.68	
2025-01-20 06:26:11.22	44.17	8.69	
2025-01-20 06:26:11.43	44.20	8.70	
2025-01-20 06:26:11.63	44.24	8.71	
2025-01-20 06:26:11.83	44.27	8.72	
2025-01-20 06:26:12.04	44.30	8.73	
2025-01-20 06:26:12.24	44.33	8.74	
2025-01-20 06:26:12.44	44.36	8.75	
2025-01-20 06:26:12.64	44.40	8.76	
2025-01-20 06:26:12.85	44.43	8.77	
2025-01-20 06:26:13.05	44.46	8.78	
2025-01-20 06:26:13.25	44.49	8.79	
2025-01-20 06:26:13.46	44.53	8.80	
2025-01-20 06:26:13.66	44.56	8.81	
2025-01-20 06:26:13.86	44.59	8.82	
2025-01-20 06:26:14.06	44.62	8.83	
2025-01-20 06:26:14.27	44.66	8.84	
2025-01-20 06:26:14.47	44.69	8.85	
2025-01-20 06:26:14.67	44.72	8.86	
2025-01-20 06:26:14.88	44.75	8.87	
2025-01-20 06:26:15.08	44.79	8.88	
2025-01-20 06:26:15.28	44.82	8.89	
2025-01-20 06:26:15.49	44.85	8.90	
2025-01-20 06:26:15.69	44.89	8.91	
2025-01-20 06:26:15.89	44.92	8.92	
2025-01-20 06:26:16.09	44.95	8.93	
2025-01-20 06:26:16.30	44.98	8.94	
2025-01-20 06:26:16.50	45.02	8.95	
2025-01-20 06:26:16.70	45.05	8.96	
2025-01-20 06:26:16.91	45.08	8.97	
2025-01-20 06:26:17.11	45.11	8.98	
2025-01-20 06:26:17.31	45.15	8.99	
2025-01-20 06:26:17.52	45.18	9.01	
2025-01-20 06:26:17.72	45.21	9.02	
2025-01-20 06:26:17.92	45.25	9.03	
2025-01-20 06:26:18.12	45.28	9.04	
2025-01-20 06:26:18.33	45.31	9.05	
2025-01-20 06:26:18.53	45.35	9.06	
2025-01-20 06:26:18.73	45.38	9.07	
2025-01-20 06:26:18.94	45.41	9.08	
2025-01-20 06:26:19.14	45.44	9.09	
2025-01-20 06:26:19.34	45.48	9.10	
2025-01-20 06:26:19.54	45.51	9.11	
2025-01-20 06:26:19.75	45.54	9.12	
2025-01-20 06:26:19.95	45.58	9.13	
2025-01-20 06:26:20.15	45.61	9.14	
2025-01-20 06:26:20.36	45.64	9.15	
2025-01-20 06:26:20.56	45.68	9.16	
2025-01-20 06:26:20.76	45.71	9.17	
2025-01-20 06:26:20.97	45.74	9.18	
2025-01-20 06:26:21.17	45.78	9.19	
2025-01-20 06:26:21.37	45.81	9.20	
2025-01-20 06:26:21.57	45.84	9.21	
2025-01-20 06:26:21.78	45.88	9.22	
2025-01-20 06:26:21.98	45.91	9.23	
2025-01-20 06:26:22.18	45.94	9.24	
2025-01-20 06:26:22.39	45.98	9.25	
2025-01-20 06:26:22.59	46.01	9.26	
2025-01-20 06:26:22.79	46.04	9.27	
2025-01-20 06:26:22.99	46.08	9.28	
2025-01-20 06:26:23.20	46.11	9.29	
2025-01-20 06:26:23.40	46.15	9.30	
2025-01-20 06:26:23.60	46.18	9.31	
2025-01-20 06:26:23.81	46.21	9.32	
2025-01-20 06:26:24.01	46.25	9.33	
2025-01-20 06:26:24.21	46.28	9.34	
2025-01-20 06:26:24.42	46.32	9.35	
2025-01-20 06:26:24.62	46.35	9.36	
2025-01-20 06:26:24.82	46.38	9.37	
2025-01-20 06:26:25.02	46.41	9.38	
2025-01-20 06:26:25.23	46.45	9.39	
2025-01-20 06:26:25.43	46.48	9.40	
2025-01-20 06:26:25.63	46.52	9.41	
2025-01-20 06:26:25.84	46.55	9.42	
2025-01-20 06:26:26.04	46.59	9.43	
2025-01-20 06:26:26.24	46.62	9.44	
2025-01-20 06:26:26.44	46.65	9.45	
2025-01-20 06:26:26.65	46.69	9.46	
2025-01-20 06:26:26.85	46.72	9.47	
2025-01-20 06:26:27.05	46.75	9.48	
2025-01-20 06:26:27.26	46.79	9.49	
2025-01-20 06:26:27.46	46.82	9.50	
2025-01-20 06:26:27.66	46.86	9.51	
2025-01-20 06:26:27.87	46.89	9.52	
2025-01-20 06:26:28.07	46.93	9.53	
2025-01-20 06:26:28.27	46.96	9.54	
2025-01-20 06:26:28.47	46.99	9.55	
2025-01-20 06:26:28.68	47.03	9.56	
2025-01-20 06:26:28.88	47.06	9.57	
2025-01-20 06:26:29.08	47.10	9.58	
2025-01-20 06:26:29.29	47.13	9.59	
2025-01-20 06:26:29.49	47.17	9.60	
2025-01-20 06:26:29.69	47.20	9.61	
2025-01-20 06:26:29.90	47.24	9.62	
2025-01-20 06:26:30.10	47.27	9.63	
2025-01-20 06:26:30.30	47.30	9.64	
2025-01-20 06:26:30.50	47.34	9.65	
2025-01-20 06:26:30.71	47.37	9.66	
2025-01-20 06:26:30.91	47.41	9.67	
2025-01-20 06:26:31.11	47.44	9.68	
2025-01-20 06:26:31.32	47.48	9.69	
2025-01-20 06:26:31.52	47.51	9.70	
2025-01-20 06:26:31.72	47.55	9.71	
2025-01-20 06:26:31.92	47.58	9.72	
2025-01-20 06:26:32.13	47.62	9.73	
2025-01-20 06:26:32.33	47.65	9.74	
2025-01-20 06:26:32.53	47.68	9.75	
2025-01-20 06:26:32.74	47.72	9.76	
2025-01-20 06:26:32.94	47.75	9.77	
2025-01-20 06:26:33.14	47.79	9.78	
2025-01-20 06:26:33.35	47.82	9.79	
2025-01-20 06:26:33.55	47.86	9.80	
2025-01-20 06:26:33.75	47.89	9.81	
2025-01-20 06:26:33.95	47.93	9.82	
2025-01-20 06:26:34.16	47.96	9.83	
2025-01-20 06:26:34.36	48.00	9.84	
2025-01-20 06:26:34.56	48.03	9.85	
2025-01-20 06:26:34.77	48.07	9.86	
2025-01-20 06:26:34.97	48.10	9.86	
2025-01-20 06:26:35.17	48.14	9.87	
2025-01-20 06:26:35.38	48.17	9.88	
2025-01-20 06:26:35.58	48.21	9.89	
2025-01-20 06:26:35.78	48.24	9.90	
2025-01-20 06:26:35.98	48.28	9.91	
2025-01-20 06:26:36.19	48.31	9.92	
2025-01-20 06:26:36.39	48.35	9.93	
2025-01-20 06:26:36.59	48.38	9.94	
2025-01-20 06:26:36.80	48.42	9.95	
2025-01-20 06:26:37.00	48.46	9.96	
2025-01-20 06:26:37.20	48.49	9.97	
2025-01-20 06:26:37.40	48.52	9.98	
2025-01-20 06:26:37.61	48.56	9.99	
2025-01-20 06:26:37.81	48.60	10.00	
2025-01-20 06:26:38.01	48.63	10.01	
2025-01-20 06:26:38.22	48.67	10.02	
2025-01-20 06:26:38.42	48.70	10.03	
2025-01-20 06:26:38.62	48.74	10.04	
2025-01-20 06:26:38.83	48.77	10.05	
2025-01-20 06:26:39.03	48.81	10.06	
2025-01-20 06:26:39.23	48.84	10.07	
2025-01-20 06:26:39.43	48.88	10.08	
2025-01-20 06:26:39.64	48.92	10.09	
2025-01-20 06:26:39.84	48.95	10.10	
2025-01-20 06:26:40.04	48.99	10.11	
2025-01-20 06:26:40.25	49.02	10.12	
2025-01-20 06:26:40.45	49.06	10.13	
2025-01-20 06:26:40.65	49.09	10.14	
2025-01-20 06:26:40.86	49.13	10.15	
2025-01-20 06:26:41.06	49.17	10.16	
2025-01-20 06:26:41.26	49.20	10.17	
2025-01-20 06:26:41.46	49.24	10.18	
2025-01-20 06:26:41.67	49.27	10.19	
2025-01-20 06:26:41.87	49.31	10.20	
2025-01-20 06:26:42.07	49.34	10.21	
2025-01-20 06:26:42.28	49.38	10.22	
2025-01-20 06:26:42.48	49.42	10.23	
2025-01-20 06:26:42.68	49.45	10.23	
2025-01-20 06:26:42.88	49.49	10.24	
2025-01-20 06:26:43.09	49.53	10.25	
2025-01-20 06:26:43.29	49.56	10.26	
2025-01-20 06:26:43.49	49.60	10.27	
2025-01-20 06:26:43.70	49.63	10.28	
2025-01-20 06:26:43.90	49.67	10.29	
2025-01-20 06:26:44.10	49.70	10.30	
2025-01-20 06:26:44.31	49.74	10.31	
2025-01-20 06:26:44.51	49.78	10.32	
2025-01-20 06:26:44.71	49.81	10.33	
2025-01-20 06:26:44.91	49.85	10.34	
2025-01-20 06:26:45.12	49.89	10.35	
2025-01-20 06:26:45.32	49.92	10.36	
2025-01-20 06:26:45.52	49.96	10.37	
2025-01-20 06:26:45.73	50.00	10.38	
2025-01-20 06:26:45.93	50.03	10.39	
2025-01-20 06:26:46.13	50.07	10.40	
2025-01-20 06:26:46.33	50.10	10.41	
2025-01-20 06:26:46.54	50.14	10.42	
2025-01-20 06:26:46.74	50.18	10.43	
2025-01-20 06:26:46.94	50.21	10.44	
2025-01-20 06:26:47.15	50.25	10.45	
2025-01-20 06:26:47.35	50.29	10.46	
2025-01-20 06:26:47.55	50.32	10.46	
2025-01-20 06:26:47.76	50.36	10.47	
2025-01-20 06:26:47.96	50.40	10.48	
2025-01-20 06:26:48.16	50.43	10.49	
2025-01-20 06:26:48.36	50.47	10.50	
2025-01-20 06:26:48.57	50.51	10.51	
2025-01-20 06:26:48.77	50.54	10.52	
2025-01-20 06:26:48.97	50.58	10.53	
2025-01-20 06:26:49.18	50.62	10.54	
2025-01-20 06:26:49.38	50.65	10.55	
2025-01-20 06:26:49.58	50.69	10.56	
2025-01-20 06:26:49.79	50.73	10.57	
2025-01-20 06:26:49.99	50.77	10.58	
2025-01-20 06:26:50.19	50.80	10.59	
2025-01-20 06:26:50.39	50.84	10.60	
2025-01-20 06:26:50.60	50.88	10.61	
2025-01-20 06:26:50.80	50.91	10.62	
2025-01-20 06:26:51.00	50.95	10.63	
2025-01-20 06:26:51.21	50.99	10.64	
2025-01-20 06:26:51.41	51.02	10.64	
2025-01-20 06:26:51.61	51.06	10.65	
2025-01-20 06:26:51.81	51.10	10.66	
2025-01-20 06:26:52.02	51.14	10.67	
2025-01-20 06:26:52.22	51.17	10.68	
2025-01-20 06:26:52.42	51.21	10.69	
2025-01-20 06:26:52.63	51.25	10.70	
2025-01-20 06:26:52.83	51.28	10.71	
2025-01-20 06:26:53.03	51.32	10.72	
2025-01-20 06:26:53.24	51.36	10.73	
2025-01-20 06:26:53.44	51.40	10.74	
2025-01-20 06:26:53.64	51.43	10.75	
2025-01-20 06:26:53.84	51.47	10.76	
2025-01-20 06:26:54.05	51.51	10.77	
2025-01-20 06:26:54.25	51.54	10.78	
2025-01-20 06:26:54.45	51.58	10.78	
2025-01-20 06:26:54.66	51.62	10.79	
2025-01-20 06:26:54.86	51.66	10.80	
2025-01-20 06:26:55.06	51.69	10.81	
2025-01-20 06:26:55.26	51.73	10.82	
2025-01-20 06:26:55.47	51.77	10.83	
2025-01-20 06:26:55.67	51.81	10.84	
2025-01-20 06:26:55.87	51.84	10.85	
2025-01-20 06:26:56.08	51.88	10.86	
2025-01-20 06:26:56.28	51.92	10.87	
2025-01-20 06:26:56.48	51.96	10.88	
2025-01-20 06:26:56.69	52.00	10.89	
2025-01-20 06:26:56.89	52.03	10.90	
2025-01-20 06:26:57.09	52.07	10.91	
2025-01-20 06:26:57.29	52.11	10.91	
2025-01-20 06:26:57.50	52.15	10.92	
2025-01-20 06:26:57.70	52.18	10.93	
2025-01-20 06:26:57.90	52.22	10.94	
2025-01-20 06:26:58.11	52.26	10.95	
2025-01-20 06:26:58.31	52.30	10.96	
2025-01-20 06:26:58.51	52.34	10.97	
2025-01-20 06:26:58.72	52.37	10.98	
2025-01-20 06:26:58.92	52.41	10.99	
2025-01-20 06:26:59.12	52.45	11.00	
2025-01-20 06:26:59.32	52.49	11.01	
2025-01-20 06:26:59.53	52.53	11.02	
2025-01-20 06:26:59.73	52.56	11.02	
2025-01-20 06:26:59.93	52.60	11.03	
2025-01-20 06:27:00.14	52.64	11.04	
2025-01-20 06:27:00.34	52.68	11.05	
2025-01-20 06:27:00.54	52.72	11.06	
2025-01-20 06:27:00.74	52.75	11.07	
2025-01-20 06:27:00.95	52.79	11.08	
2025-01-20 06:27:01.15	52.83	11.09	
2025-01-20 06:27:01.35	52.87	11.10	
2025-01-20 06:27:01.56	52.91	11.11	
2025-01-20 06:27:01.76	52.95	11.12	
2025-01-20 06:27:01.96	52.98	11.12	
2025-01-20 06:27:02.17	53.02	11.13	
2025-01-20 06:27:02.37	53.06	11.14	
2025-01-20 06:27:02.57	53.10	11.15	
2025-01-20 06:27:02.77	53.14	11.16	
2025-01-20 06:27:02.98	53.18	11.17	
2025-01-20 06:27:03.18	53.22	11.18	
2025-01-20 06:27:03.38	53.25	11.19	
2025-01-20 06:27:03.59	53.29	11.20	
2025-01-20 06:27:03.79	53.33	11.21	
2025-01-20 06:27:03.99	53.37	11.22	
2025-01-20 06:27:04.19	53.41	11.22	
2025-01-20 06:27:04.40	53.45	11.23	
2025-01-20 06:27:04.60	53.49	11.24	
2025-01-20 06:27:04.80	53.52	11.25	
2025-01-20 06:27:05.01	53.56	11.26	
2025-01-20 06:27:05.21	53.60	11.27	
2025-01-20 06:27:05.41	53.64	11.28	
2025-01-20 06:27:05.62	53.68	11.29	
2025-01-20 06:27:05.82	53.72	11.30	
2025-01-20 06:27:06.02	53.76	11.30	
2025-01-20 06:27:06.22	53.80	11.31	
2025-01-20 06:27:06.43	53.84	11.32	
2025-01-20 06:27:06.63	53.87	11.33	
2025-01-20 06:27:06.83	53.91	11.34	
2025-01-20 06:27:07.04	53.95	11.35	
2025-01-20 06:27:07.24	53.99	11.36	
2025-01-20 06:27:07.44	54.03	11.37	
2025-01-20 06:27:07.65	54.07	11.38	
2025-01-20 06:27:07.85	54.11	11.38	
2025-01-20 06:27:08.05	54.15	11.39	
2025-01-20 06:27:08.25	54.19	11.40	
2025-01-20 06:27:08.46	54.23	11.41	
2025-01-20 06:27:08.66	54.26	11.42	
2025-01-20 06:27:08.86	54.30	11.43	
2025-01-20 06:27:09.07	54.34	11.44	
2025-01-20 06:27:09.27	54.38	11.45	
2025-01-20 06:27:09.47	54.42	11.46	
2025-01-20 06:27:09.67	54.46	11.46	
2025-01-20 06:27:09.88	54.50	11.47	
2025-01-20 06:27:10.08	54.54	11.48	
2025-01-20 06:27:10.28	54.58	11.49	
2025-01-20 06:27:10.49	54.62	11.50	
2025-01-20 06:27:10.69	54.66	11.51	
2025-01-20 06:27:10.89	54.70	11.52	
2025-01-20 06:27:11.10	54.74	11.53	
2025-01-20 06:27:11.30	54.78	11.53	
2025-01-20 06:27:11.50	54.82	11.54	
2025-01-20 06:27:11.70	54.85	11.55	
2025-01-20 06:27:11.91	54.89	11.56	
2025-01-20 06:27:12.11	54.93	11.57	
2025-01-20 06:27:12.31	54.97	11.58	
2025-01-20 06:27:12.52	55.01	11.59	
2025-01-20 06:27:12.72	55.05	11.59	
2025-01-20 06:27:12.92	55.09	11.60	
2025-01-20 06:27:13.13	55.13	11.61	
2025-01-20 06:27:13.33	55.17	11.62	
2025-01-20 06:27:13.53	55.21	11.63	
2025-01-20 06:27:13.73	55.25	11.64	
2025-01-20 06:27:13.94	55.29	11.65	
2025-01-20 06:27:14.14	55.33	11.66	
2025-01-20 06:27:14.34	55.37	11.66	
2025-01-20 06:27:14.55	55.41	11.67	
2025-01-20 06:27:14.76	55.45	11.68	
2025-01-20 06:27:14.98	55.50	11.69	
2025-01-20 06:27:15.19	55.54	11.70	
2025-01-20 06:27:15.39	55.58	11.71	
2025-01-20 06:27:15.59	55.62	11.72	
2025-01-20 06:27:15.79	55.66	11.72	
2025-01-20 06:27:16.00	55.70	11.73	
2025-01-20 06:27:16.20	55.74	11.74	
2025-01-20 06:27:16.40	55.78	11.75	
2025-01-20 06:27:16.61	55.82	11.76	
2025-01-20 06:27:16.81	55.86	11.77	
2025-01-20 06:27:17.01	55.90	11.78	
2025-01-20 06:27:17.22	55.94	11.78	
2025-01-20 06:27:17.42	55.98	11.79	
2025-01-20 06:27:17.62	56.02	11.80	
2025-01-20 06:27:17.82	56.06	11.81	
2025-01-20 06:27:18.03	56.10	11.82	
2025-01-20 06:27:18.23	56.14	11.83	
2025-01-20 06:27:18.43	56.18	11.84	
2025-01-20 06:27:18.64	56.22	11.84	
2025-01-20 06:27:18.84	56.26	11.85	
2025-01-20 06:27:19.04	56.30	11.86	
2025-01-20 06:27:19.24	56.34	11.87	
2025-01-20 06:27:19.45	56.38	11.88	
2025-01-20 06:27:19.65	56.42	11.89	
2025-01-20 06:27:19.85	56.46	11.89	
2025-01-20 06:27:20.06	56.50	11.90	
2025-01-20 06:27:20.26	56.54	11.91	
2025-01-20 06:27:20.46	56.58	11.92	
2025-01-20 06:27:20.67	56.63	11.93	
2025-01-20 06:27:20.87	56.67	11.94	
2025-01-20 06:27:21.07	56.71	11.94	
2025-01-20 06:27:21.27	56.75	11.95	
2025-01-20 06:27:21.48	56.79	11.96	
2025-01-20 06:27:21.68	56.83	11.97	
2025-01-20 06:27:21.88	56.87	11.98	
2025-01-20 06:27:22.09	56.91	11.99	
2025-01-20 06:27:22.29	56.95	11.99	
2025-01-20 06:27:22.49	56.99	12.00	
2025-01-20 06:27:22.70	57.03	12.01	
2025-01-20 06:27:22.90	57.07	12.02	
2025-01-20 06:27:23.10	57.11	12.03	
2025-01-20 06:27:23.30	57.15	12.03	
2025-01-20 06:27:23.51	57.20	12.04	
2025-01-20 06:27:23.71	57.24	12.05	
2025-01-20 06:27:23.91	57.28	12.06	
2025-01-20 06:27:24.12	57.32	12.07	
2025-01-20 06:27:24.32	57.36	12.08	
2025-01-20 06:27:24.52	57.40	12.08	
2025-01-20 06:27:24.72	57.44	12.09	
2025-01-20 06:27:24.93	57.48	12.10	
2025-01-20 06:27:25.13	57.53	12.11	
2025-01-20 06:27:25.33	57.57	12.12	
2025-01-20 06:27:25.54	57.61	12.12	
2025-01-20 06:27:25.74	57.65	12.13	
2025-01-20 06:27:25.94	57.69	12.14	
2025-01-20 06:27:26.15	57.73	12.15	
2025-01-20 06:27:26.35	57.77	12.16	
2025-01-20 06:27:26.55	57.81	12.16	
2025-01-20 06:27:26.75	57.85	12.17	
2025-01-20 06:27:26.96	57.90	12.18	
2025-01-20 06:27:27.16	57.94	12.19	
2025-01-20 06:27:27.36	57.98	12.20	
2025-01-20 06:27:27.57	58.02	12.20	
2025-01-20 06:27:27.77	58.06	12.21	
2025-01-20 06:27:27.97	58.10	12.22	
2025-01-20 06:27:28.18	58.15	12.23	
2025-01-20 06:27:28.38	58.19	12.24	
2025-01-20 06:27:28.58	58.23	12.24	
2025-01-20 06:27:28.78	58.27	12.25	
2025-01-20 06:27:28.99	58.31	12.26	
2025-01-20 06:27:29.19	58.35	12.27	
2025-01-20 06:27:29.39	58.39	12.28	
2025-01-20 06:27:29.60	58.44	12.28	
2025-01-20 06:27:29.80	58.48	12.29	
2025-01-20 06:27:30.00	58.52	12.30	
2025-01-20 06:27:30.20	58.56	12.31	
2025-01-20 06:27:30.41	58.60	12.32	
2025-01-20 06:27:30.61	58.65	12.32	
2025-01-20 06:27:30.81	58.69	12.33	
2025-01-20 06:27:31.02	58.73	12.34	
2025-01-20 06:27:31.22	58.77	12.35	
2025-01-20 06:27:31.42	58.81	12.35	
2025-01-20 06:27:31.63	58.86	12.36	
2025-01-20 06:27:31.83	58.90	12.37	
2025-01-20 06:27:32.03	58.94	12.38	
2025-01-20 06:27:32.23	58.98	12.39	
2025-01-20 06:27:32.44	59.02	12.39	
2025-01-20 06:27:32.64	59.06	12.40	
2025-01-20 06:27:32.84	59.11	12.41	
2025-01-20 06:27:33.05	59.15	12.42	
2025-01-20 06:27:33.25	59.19	12.42	
2025-01-20 06:27:33.45	59.23	12.43	
2025-01-20 06:27:33.65	59.27	12.44	
2025-01-20 06:27:33.86	59.32	12.45	
2025-01-20 06:27:34.06	59.36	12.46	
2025-01-20 06:27:34.26	59.40	12.46	
2025-01-20 06:27:34.47	59.44	12.47	
2025-01-20 06:27:34.67	59.49	12.48	
2025-01-20 06:27:34.87	59.53	12.49	
2025-01-20 06:27:35.08	59.57	12.49	
2025-01-20 06:27:35.28	59.61	12.50	
2025-01-20 06:27:35.48	59.66	12.51	
2025-01-20 06:27:35.68	59.70	12.52	
2025-01-20 06:27:35.89	59.74	12.52	
2025-01-20 06:27:36.09	59.78	12.53	
2025-01-20 06:27:36.29	59.82	12.54	
2025-01-20 06:27:36.50	59.87	12.55	
2025-01-20 06:27:36.70	59.91	12.55	
2025-01-20 06:27:36.90	59.95	12.56	
2025-01-20 06:27:37.11	60.00	12.57	
2025-01-20 06:27:37.31	60.04	12.58	
2025-01-20 06:27:37.51	60.08	12.58	
2025-01-20 06:27:37.71	60.12	12.59	
2025-01-20 06:27:37.92	60.17	12.60	
2025-01-20 06:27:38.12	60.21	12.61	
2025-01-20 06:27:38.32	60.25	12.61	
2025-01-20 06:27:38.53	60.29	12.62	
2025-01-20 06:27:38.73	60.34	12.63	
2025-01-20 06:27:38.93	60.38	12.64	
2025-01-20 06:27:39.13	60.42	12.64	
2025-01-20 06:27:39.34	60.46	12.65	
2025-01-20 06:27:39.54	60.51	12.66	
2025-01-20 06:27:39.74	60.55	12.67	
2025-01-20 06:27:39.95	60.59	12.67	
2025-01-20 06:27:40.15	60.64	12.68	
2025-01-20 06:27:40.35	60.68	12.69	
2025-01-20 06:27:40.56	60.72	12.70	
2025-01-20 06:27:40.76	60.76	12.70	
2025-01-20 06:27:40.96	60.81	12.71	
2025-01-20 06:27:41.16	60.85	12.72	
2025-01-20 06:27:41.37	60.89	12.72	
2025-01-20 06:27:41.57	60.94	12.73	
2025-01-20 06:27:41.77	60.98	12.74	
2025-01-20 06:27:41.98	61.02	12.75	
2025-01-20 06:27:42.18	61.07	12.75	
2025-01-20 06:27:42.38	61.11	12.76	
2025-01-20 06:27:42.58	61.15	12.77	
2025-01-20 06:27:42.79	61.20	12.77	
2025-01-20 06:27:42.99	61.24	12.78	
2025-01-20 06:27:43.19	61.28	12.79	
2025-01-20 06:27:43.40	61.33	12.80	
2025-01-20 06:27:43.60	61.37	12.80	
2025-01-20 06:27:43.80	61.41	12.81	
2025-01-20 06:27:44.01	61.46	12.82	
2025-01-20 06:27:44.21	61.50	12.82	
2025-01-20 06:27:44.41	61.54	12.83	
2025-01-20 06:27:44.61	61.58	12.84	
2025-01-20 06:27:44.82	61.63	12.85	
2025-01-20 06:27:45.02	61.67	12.85	
2025-01-20 06:27:45.22	61.71	12.86	
2025-01-20 06:27:45.43	61.76	12.87	
2025-01-20 06:27:45.63	61.80	12.87	
2025-01-20 06:27:45.83	61.84	12.88	
2025-01-20 06:27:46.04	61.89	12.89	
2025-01-20 06:27:46.24	61.93	12.90	
2025-01-20 06:27:46.44	61.98	12.90	
2025-01-20 06:27:46.64	62.02	12.91	
2025-01-20 06:27:46.85	62.06	12.92	
2025-01-20 06:27:47.05	62.11	12.92	
2025-01-20 06:27:47.25	62.15	12.93	
2025-01-20 06:27:47.46	62.19	12.94	
2025-01-20 06:27:47.66	62.24	12.94	
2025-01-20 06:27:47.86	62.28	12.95	
2025-01-20 06:27:48.06	62.32	12.96	
2025-01-20 06:27:48.27	62.37	12.96	
2025-01-20 06:27:48.47	62.41	12.97	
2025-01-20 06:27:48.67	62.46	12.98	
2025-01-20 06:27:48.88	62.50	12.98	
2025-01-20 06:27:49.08	62.54	12.99	
2025-01-20 06:27:49.28	62.59	13.00	
2025-01-20 06:27:49.49	62.63	13.01	
2025-01-20 06:27:49.69	62.68	13.01	
2025-01-20 06:27:49.89	62.72	13.02	
2025-01-20 06:27:50.09	62.76	13.03	
2025-01-20 06:27:50.30	62.81	13.03	
2025-01-20 06:27:50.50	62.85	13.04	
2025-01-20 06:27:50.70	62.89	13.05	
2025-01-20 06:27:50.91	62.94	13.05	
2025-01-20 06:27:51.11	62.98	13.06	
2025-01-20 06:27:51.31	63.03	13.07	
2025-01-20 06:27:51.52	63.07	13.07	
2025-01-20 06:27:51.72	63.12	13.08	
2025-01-20 06:27:51.92	63.16	13.09	
2025-01-20 06:27:52.12	63.20	13.09	
2025-01-20 06:27:52.33	63.25	13.10	
2025-01-20 06:27:52.53	63.29	13.11	
2025-01-20 06:27:52.73	63.34	13.11	
2025-01-20 06:27:52.94	63.38	13.12	
2025-01-20 06:27:53.14	63.43	13.13	
2025-01-20 06:27:53.34	63.47	13.13	
2025-01-20 06:27:53.54	63.51	13.14	
2025-01-20 06:27:53.75	63.56	13.14	
2025-01-20 06:27:53.95	63.60	13.15	
2025-01-20 06:27:54.15	63.65	13.16	
2025-01-20 06:27:54.36	63.69	13.16	
2025-01-20 06:27:54.56	63.74	13.17	
2025-01-20 06:27:54.76	63.78	13.18	
2025-01-20 06:27:54.97	63.83	13.18	
2025-01-20 06:27:55.17	63.87	13.19	
2025-01-20 06:27:55.37	63.91	13.20	
2025-01-20 06:27:55.57	63.96	13.20	
2025-01-20 06:27:55.78	64.00	13.21	
2025-01-20 06:27:55.98	64.05	13.22	
2025-01-20 06:27:56.18	64.09	13.22	
2025-01-20 06:27:56.39	64.14	13.23	
2025-01-20 06:27:56.59	64.18	13.23	
2025-01-20 06:27:56.79	64.22	13.24	
2025-01-20 06:27:56.99	64.27	13.25	
2025-01-20 06:27:57.20	64.32	13.25	
2025-01-20 06:27:57.40	64.36	13.26	
2025-01-20 06:27:57.60	64.40	13.27	
2025-01-20 06:27:57.81	64.45	13.27	
2025-01-20 06:27:58.01	64.49	13.28	
2025-01-20 06:27:58.21	64.54	13.28	
2025-01-20 06:27:58.42	64.58	13.29	
2025-01-20 06:27:58.62	64.63	13.30	
2025-01-20 06:27:58.82	64.67	13.30	
2025-01-20 06:27:59.02	64.72	13.31	
2025-01-20 06:27:59.23	64.76	13.32	
2025-01-20 06:27:59.43	64.81	13.32	
2025-01-20 06:27:59.63	64.85	13.33	
2025-01-20 06:27:59.84	64.90	13.33	
2025-01-20 06:28:00.04	64.94	13.34	
2025-01-20 06:28:00.24	64.99	13.35	
2025-01-20 06:28:00.45	65.03	13.35	
2025-01-20 06:28:00.65	65.08	13.36	
2025-01-20 06:28:00.85	65.12	13.36	
2025-01-20 06:28:01.05	65.17	13.37	
2025-01-20 06:28:01.26	65.21	13.38	
2025-01-20 06:28:01.46	65.26	13.38	
2025-01-20 06:28:01.66	65.30	13.39	
2025-01-20 06:28:01.87	65.35	13.40	
2025-01-20 06:28:02.07	65.39	13.40	
2025-01-20 06:28:02.27	65.44	13.41	
2025-01-20 06:28:02.47	65.48	13.41	
2025-01-20 06:28:02.68	65.53	13.42	
2025-01-20 06:28:02.88	65.57	13.42	
2025-01-20 06:28:03.08	65.62	13.43	
2025-01-20 06:28:03.29	65.66	13.44	
2025-01-20 06:28:03.49	65.71	13.44	
2025-01-20 06:28:03.69	65.75	13.45	
2025-01-20 06:28:03.90	65.80	13.45	
2025-01-20 06:28:04.10	65.85	13.46	
2025-01-20 06:28:04.30	65.89	13.47	
2025-01-20 06:28:04.50	65.93	13.47	
2025-01-20 06:28:04.71	65.98	13.48	
2025-01-20 06:28:04.91	66.03	13.48	
2025-01-20 06:28:05.11	66.07	13.49	
2025-01-20 06:28:05.32	66.12	13.49	
2025-01-20 06:28:05.52	66.16	13.50	
2025-01-20 06:28:05.72	66.21	13.51	
2025-01-20 06:28:05.92	66.25	13.51	
2025-01-20 06:28:06.13	66.30	13.52	
2025-01-20 06:28:06.33	66.34	13.52	
2025-01-20 06:28:06.53	66.39	13.53	
2025-01-20 06:28:06.74	66.44	13.53	
2025-01-20 06:28:06.94	66.48	13.54	
2025-01-20 06:28:07.14	66.53	13.55	
2025-01-20 06:28:07.35	66.57	13.55	
2025-01-20 06:28:07.55	66.62	13.56	
2025-01-20 06:28:07.75	66.66	13.56	
2025-01-20 06:28:07.95	66.71	13.57	
2025-01-20 06:28:08.16	66.76	13.57	
2025-01-20 06:28:08.36	66.80	13.58	
2025-01-20 06:28:08.56	66.85	13.58	
2025-01-20 06:28:08.77	66.89	13.59	
2025-01-20 06:28:08.97	66.94	13.60	
2025-01-20 06:28:09.17	66.98	13.60	
2025-01-20 06:28:09.38	67.03	13.61	
2025-01-20 06:28:09.58	67.08	13.61	
2025-01-20 06:28:09.78	67.12	13.62	
2025-01-20 06:28:09.98	67.17	13.62	
2025-01-20 06:28:10.19	67.21	13.63	
2025-01-20 06:28:10.39	67.26	13.63	
2025-01-20 06:28:10.59	67.30	13.64	
2025-01-20 06:28:10.80	67.35	13.64	
2025-01-20 06:28:11.00	67.40	13.65	
2025-01-20 06:28:11.20	67.44	13.65	
2025-01-20 06:28:11.40	67.49	13.66	
2025-01-20 06:28:11.61	67.54	13.67	
2025-01-20 06:28:11.81	67.58	13.67	
2025-01-20 06:28:12.01	67.63	13.68	
2025-01-20 06:28:12.22	67.67	13.68	
2025-01-20 06:28:12.42	67.72	13.69	
2025-01-20 06:28:12.62	67.76	13.69	
2025-01-20 06:28:12.83	67.81	13.70	
2025-01-20 06:28:13.03	67.86	13.70	
2025-01-20 06:28:13.23	67.90	13.71	
2025-01-20 06:28:13.43	67.95	13.71	
2025-01-20 06:28:13.64	68.00	13.72	
2025-01-20 06:28:13.84	68.04	13.72	
2025-01-20 06:28:14.04	68.09	13.73	
2025-01-20 06:28:14.25	68.14	13.73	
2025-01-20 06:28:14.45	68.18	13.74	
2025-01-20 06:28:14.65	68.23	13.74	
2025-01-20 06:28:14.86	68.27	13.75	
2025-01-20 06:28:15.06	68.32	13.75	
2025-01-20 06:28:15.26	68.37	13.76	
2025-01-20 06:28:15.46	68.41	13.76	
2025-01-20 06:28:15.67	68.46	13.77	
2025-01-20 06:28:15.87	68.50	13.77	
2025-01-20 06:28:16.07	68.55	13.78	
2025-01-20 06:28:16.28	68.60	13.78	
2025-01-20 06:28:16.48	68.64	13.79	
2025-01-20 06:28:16.68	68.69	13.79	
2025-01-20 06:28:16.88	68.74	13.80	
2025-01-20 06:28:17.09	68.78	13.80	
2025-01-20 06:28:17.29	68.83	13.81	
2025-01-20 06:28:17.49	68.88	13.81	
2025-01-20 06:28:17.70	68.92	13.82	
2025-01-20 06:28:17.90	68.97	13.82	
2025-01-20 06:28:18.10	69.02	13.83	
2025-01-20 06:28:18.31	69.06	13.83	
2025-01-20 06:28:18.51	69.11	13.84	
2025-01-20 06:28:18.71	69.16	13.84	
2025-01-20 06:28:18.91	69.20	13.85	
2025-01-20 06:28:19.12	69.25	13.85	
2025-01-20 06:28:19.32	69.30	13.86	
2025-01-20 06:28:19.52	69.34	13.86	
2025-01-20 06:28:19.73	69.39	13.87	
2025-01-20 06:28:19.93	69.44	13.87	
2025-01-20 06:28:20.13	69.48	13.87	
2025-01-20 06:28:20.33	69.53	13.88	
2025-01-20 06:28:20.54	69.58	13.88	
2025-01-20 06:28:20.74	69.62	13.89	
2025-01-20 06:28:20.94	69.67	13.89	
2025-01-20 06:28:21.15	69.72	13.90	
2025-01-20 06:28:21.35	69.76	13.90	
2025-01-20 06:28:21.55	69.81	13.91	
2025-01-20 06:28:21.76	69.86	13.91	
2025-01-20 06:28:21.96	69.90	13.92	
2025-01-20 06:28:22.16	69.95	13.92	
2025-01-20 06:28:22.36	70.00	13.92	
2025-01-20 06:28:22.57	70.04	13.93	
2025-01-20 06:28:22.77	70.09	13.93	
2025-01-20 06:28:22.97	70.14	13.94	
2025-01-20 06:28:23.18	70.19	13.94	
2025-01-20 06:28:23.38	70.23	13.95	
2025-01-20 06:28:23.58	70.28	13.95	
2025-01-20 06:28:23.79	70.33	13.96	
2025-01-20 06:28:23.99	70.37	13.96	
2025-01-20 06:28:24.19	70.42	13.96	
2025-01-20 06:28:24.39	70.47	13.97	
2025-01-20 06:28:24.60	70.51	13.97	
2025-01-20 06:28:24.80	70.56	13.98	
2025-01-20 06:28:25.00	70.61	13.98	
2025-01-20 06:28:25.21	70.66	13.99	
2025-01-20 06:28:25.41	70.70	13.99	
2025-01-20 06:28:25.61	70.75	13.99	
2025-01-20 06:28:25.81	70.79	14.00	
2025-01-20 06:28:26.02	70.84	14.00	
2025-01-20 06:28:26.22	70.89	14.01	
2025-01-20 06:28:26.42	70.94	14.01	
2025-01-20 06:28:26.63	70.98	14.01	
2025-01-20 06:28:26.83	71.03	14.02	
2025-01-20 06:28:27.03	71.08	14.02	
2025-01-20 06:28:27.24	71.13	14.03	
2025-01-20 06:28:27.44	71.17	14.03	
2025-01-20 06:28:27.64	71.22	14.04	
2025-01-20 06:28:27.84	71.27	14.04	
2025-01-20 06:28:28.05	71.32	14.04	
2025-01-20 06:28:28.25	71.36	14.05	
2025-01-20 06:28:28.45	71.41	14.05	
2025-01-20 06:28:28.66	71.46	14.06	
2025-01-20 06:28:28.86	71.50	14.06	
2025-01-20 06:28:29.06	71.55	14.06	
2025-01-20 06:28:29.26	71.60	14.07	
2025-01-20 06:28:29.47	71.65	14.07	
2025-01-20 06:28:29.67	71.69	14.07	
2025-01-20 06:28:29.87	71.74	14.08	
2025-01-20 06:28:30.08	71.79	14.08	
2025-01-20 06:28:30.28	71.84	14.09	
2025-01-20 06:28:30.48	71.88	14.09	
2025-01-20 06:28:30.69	71.93	14.09	
2025-01-20 06:28:30.89	71.98	14.10	
2025-01-20 06:28:31.09	72.02	14.10	
2025-01-20 06:28:31.29	72.07	14.11	
2025-01-20 06:28:31.50	72.12	14.11	
2025-01-20 06:28:31.70	72.17	14.11	
2025-01-20 06:28:31.90	72.21	14.12	
2025-01-20 06:28:32.11	72.26	14.12	
2025-01-20 06:28:32.31	72.31	14.12	
2025-01-20 06:28:32.51	72.36	14.13	
2025-01-20 06:28:32.72	72.41	14.13	
2025-01-20 06:28:32.92	72.45	14.14	
2025-01-20 06:28:33.12	72.50	14.14	
2025-01-20 06:28:33.32	72.55	14.14	
2025-01-20 06:28:33.53	72.60	14.15	
2025-01-20 06:28:33.73	72.64	14.15	
2025-01-20 06:28:33.93	72.69	14.15	
2025-01-20 06:28:34.14	72.74	14.16	
2025-01-20 06:28:34.34	72.79	14.16	
2025-01-20 06:28:34.54	72.83	14.16	
2025-01-20 06:28:34.74	72.88	14.17	
2025-01-20 06:28:34.95	72.93	14.17	
2025-01-20 06:28:35.15	72.98	14.17	
2025-01-20 06:28:35.35	73.02	14.18	
2025-01-20 06:28:35.56	73.07	14.18	
2025-01-20 06:28:35.76	73.12	14.18	
2025-01-20 06:28:35.96	73.17	14.19	
2025-01-20 06:28:36.17	73.22	14.19	
2025-01-20 06:28:36.37	73.26	14.19	
2025-01-20 06:28:36.57	73.31	14.20	
2025-01-20 06:28:36.77	73.36	14.20	
2025-01-20 06:28:36.98	73.41	14.20	
2025-01-20 06:28:37.18	73.45	14.21	
2025-01-20 06:28:37.38	73.50	14.21	
2025-01-20 06:28:37.59	73.55	14.21	
2025-01-20 06:28:37.79	73.60	14.22	
2025-01-20 06:28:37.99	73.65	14.22	
2025-01-20 06:28:38.20	73.69	14.22	
2025-01-20 06:28:38.40	73.74	14.23	
2025-01-20 06:28:38.60	73.79	14.23	
2025-01-20 06:28:38.80	73.84	14.23	
2025-01-20 06:28:39.01	73.89	14.24	
2025-01-20 06:28:39.21	73.93	14.24	
2025-01-20 06:28:39.41	73.98	14.24	
2025-01-20 06:28:39.62	74.03	14.25	
2025-01-20 06:28:39.82	74.08	14.25	
2025-01-20 06:28:40.02	74.12	14.25	
2025-01-20 06:28:40.22	74.17	14.25	
2025-01-20 06:28:40.43	74.22	14.26	
2025-01-20 06:28:40.63	74.27	14.26	
2025-01-20 06:28:40.83	74.32	14.26	
2025-01-20 06:28:41.04	74.37	14.27	
2025-01-20 06:28:41.24	74.41	14.27	
2025-01-20 06:28:41.44	74.46	14.27	
2025-01-20 06:28:41.65	74.51	14.27	
2025-01-20 06:28:41.85	74.56	14.28	
2025-01-20 06:28:42.05	74.61	14.28	
2025-01-20 06:28:42.25	74.65	14.28	
2025-01-20 06:28:42.46	74.70	14.29	
2025-01-20 06:28:42.66	74.75	14.29	
2025-01-20 06:28:42.86	74.80	14.29	
2025-01-20 06:28:43.07	74.85	14.29	
2025-01-20 06:28:43.27	74.89	14.30	
2025-01-20 06:28:43.47	74.94	14.30	
2025-01-20 06:28:43.67	74.99	14.30	
2025-01-20 06:28:43.88	75.04	14.31	
2025-01-20 06:28:44.08	75.09	14.31	
2025-01-20 06:28:44.28	75.13	14.31	
2025-01-20 06:28:44.49	75.18	14.31	
2025-01-20 06:28:44.69	75.23	14.32	
2025-01-20 06:28:44.89	75.28	14.32	
2025-01-20 06:28:45.10	75.33	14.32	
2025-01-20 06:28:45.30	75.38	14.32	
2025-01-20 06:28:45.50	75.42	14.33	
2025-01-20 06:28:45.70	75.47	14.33	
2025-01-20 06:28:45.91	75.52	14.33	
2025-01-20 06:28:46.11	75.57	14.33	
2025-01-20 06:28:46.31	75.62	14.34	
2025-01-20 06:28:46.52	75.67	14.34	
2025-01-20 06:28:46.72	75.71	14.34	
2025-01-20 06:28:46.92	75.76	14.34	
2025-01-20 06:28:47.13	75.81	14.35	
2025-01-20 06:28:47.33	75.86	14.35	
2025-01-20 06:28:47.53	75.91	14.35	
2025-01-20 06:28:47.73	75.95	14.35	
2025-01-20 06:28:47.94	76.00	14.36	
2025-01-20 06:28:48.14	76.05	14.36	
2025-01-20 06:28:48.34	76.10	14.36	
2025-01-20 06:28:48.55	76.15	14.36	
2025-01-20 06:28:48.75	76.20	14.36	
2025-01-20 06:28:48.95	76.24	14.37	
2025-01-20 06:28:49.15	76.29	14.37	
2025-01-20 06:28:49.36	76.34	14.37	
2025-01-20 06:28:49.56	76.39	14.37	
2025-01-20 06:28:49.76	76.44	14.38	
2025-01-20 06:28:49.97	76.49	14.38	
2025-01-20 06:28:50.17	76.54	14.38	
2025-01-20 06:28:50.37	76.58	14.38	
2025-01-20 06:28:50.58	76.63	14.38	
2025-01-20 06:28:50.78	76.68	14.39	
2025-01-20 06:28:50.98	76.73	14.39	
2025-01-20 06:28:51.18	76.78	14.39	
2025-01-20 06:28:51.39	76.83	14.39	
2025-01-20 06:28:51.59	76.87	14.39	
2025-01-20 06:28:51.79	76.92	14.40	
2025-01-20 06:28:52.00	76.97	14.40	
2025-01-20 06:28:52.20	77.02	14.40	
2025-01-20 06:28:52.40	77.07	14.40	
2025-01-20 06:28:52.60	77.12	14.40	
2025-01-20 06:28:52.81	77.17	14.41	
2025-01-20 06:28:53.01	77.21	14.41	
2025-01-20 06:28:53.21	77.26	14.41	
2025-01-20 06:28:53.42	77.31	14.41	
2025-01-20 06:28:53.62	77.36	14.41	
2025-01-20 06:28:53.82	77.41	14.42	
2025-01-20 06:28:54.03	77.46	14.42	
2025-01-20 06:28:54.23	77.51	14.42	
2025-01-20 06:28:54.43	77.55	14.42	
2025-01-20 06:28:54.63	77.60	14.42	
2025-01-20 06:28:54.84	77.65	14.42	
2025-01-20 06:28:55.04	77.70	14.43	
2025-01-20 06:28:55.24	77.75	14.43	
2025-01-20 06:28:55.45	77.80	14.43	
2025-01-20 06:28:55.65	77.85	14.43	
2025-01-20 06:28:55.85	77.89	14.43	
2025-01-20 06:28:56.06	77.94	14.43	
2025-01-20 06:28:56.26	77.99	14.44	
2025-01-20 06:28:56.46	78.04	14.44	
2025-01-20 06:28:56.66	78.09	14.44	
2025-01-20 06:28:56.87	78.14	14.44	
2025-01-20 06:28:57.07	78.19	14.44	
2025-01-20 06:28:57.27	78.23	14.44	
2025-01-20 06:28:57.48	78.28	14.45	
2025-01-20 06:28:57.68	78.33	14.45	
2025-01-20 06:28:57.88	78.38	14.45	
2025-01-20 06:28:58.08	78.43	14.45	
2025-01-20 06:28:58.29	78.48	14.45	
2025-01-20 06:28:58.49	78.53	14.45	
2025-01-20 06:28:58.69	78.57	14.45	
2025-01-20 06:28:58.90	78.62	14.46	
2025-01-20 06:28:59.10	78.67	14.46	
2025-01-20 06:28:59.30	78.72	14.46	
2025-01-20 06:28:59.51	78.77	14.46	
2025-01-20 06:28:59.71	78.82	14.46	
2025-01-20 06:28:59.91	78.87	14.46	
2025-01-20 06:29:00.11	78.92	14.46	
2025-01-20 06:29:00.32	78.97	14.46	
2025-01-20 06:29:00.52	79.01	14.47	
2025-01-20 06:29:00.72	79.06	14.47	
2025-01-20 06:29:00.93	79.11	14.47	
2025-01-20 06:29:01.13	79.16	14.47	
2025-01-20 06:29:01.33	79.21	14.47	
2025-01-20 06:29:01.54	79.26	14.47	
2025-01-20 06:29:01.74	79.31	14.47	
2025-01-20 06:29:01.94	79.35	14.47	
2025-01-20 06:29:02.14	79.40	14.47	
2025-01-20 06:29:02.35	79.45	14.48	
2025-01-20 06:29:02.55	79.50	14.48	
2025-01-20 06:29:02.75	79.55	14.48	
2025-01-20 06:29:02.96	79.60	14.48	
2025-01-20 06:29:03.16	79.65	14.48	
2025-01-20 06:29:03.36	79.70	14.48	
2025-01-20 06:29:03.56	79.74	14.48	
2025-01-20 06:29:03.77	79.79	14.48	
2025-01-20 06:29:03.97	79.84	14.48	
2025-01-20 06:29:04.17	79.89	14.48	
2025-01-20 06:29:04.38	79.94	14.49	
2025-01-20 06:29:04.58	79.99	14.49	
2025-01-20 06:29:04.78	80.04	14.49	
2025-01-20 06:29:04.99	80.09	14.49	
2025-01-20 06:29:05.19	80.14	14.49	
2025-01-20 06:29:05.39	80.18	14.49	
2025-01-20 06:29:05.59	80.23	14.49	
2025-01-20 06:29:05.80	80.28	14.49	
2025-01-20 06:29:06.00	80.33	14.49	
2025-01-20 06:29:06.20	80.38	14.49	
2025-01-20 06:29:06.41	80.43	14.49	
2025-01-20 06:29:06.61	80.48	14.49	
2025-01-20 06:29:06.81	80.53	14.49	
2025-01-20 06:29:07.01	80.57	14.50	
2025-01-20 06:29:07.22	80.62	14.50	
2025-01-20 06:29:07.42	80.67	14.50	
2025-01-20 06:29:07.62	80.72	14.50	
2025-01-20 06:29:07.83	80.77	14.50	
2025-01-20 06:29:08.03	80.82	14.50	
2025-01-20 06:29:08.23	80.87	14.50	
2025-01-20 06:29:08.44	80.92	14.50	
2025-01-20 06:29:08.64	80.97	14.50	
2025-01-20 06:29:08.84	81.01	14.50	
2025-01-20 06:29:09.04	81.06	14.50	
2025-01-20 06:29:09.25	81.11	14.50	
2025-01-20 06:29:09.45	81.16	14.50	
2025-01-20 06:29:09.65	81.21	14.50	
2025-01-20 06:29:09.86	81.26	14.50	
2025-01-20 06:29:10.06	81.31	14.50	
2025-01-20 06:29:10.26	81.36	14.50	
2025-01-20 06:29:10.47	81.41	14.50	
2025-01-20 06:29:10.67	81.45	14.50	
2025-01-20 06:29:10.87	81.50	14.50	
2025-01-20 06:29:11.07	81.55	14.50	
2025-01-20 06:29:11.28	81.60	14.50	
2025-01-20 06:29:11.48	81.65	14.50	
2025-01-20 06:29:11.68	81.70	14.50	
2025-01-20 06:29:11.89	81.75	14.50	
2025-01-20 06:29:12.09	81.80	14.51	
2025-01-20 06:29:12.29	81.84	14.51	
2025-01-20 06:29:12.49	81.89	14.51	
2025-01-20 06:29:12.70	81.94	14.51	
2025-01-20 06:29:12.90	81.99	14.51	
2025-01-20 06:29:13.10	82.04	14.51	
2025-01-20 06:29:13.31	82.09	14.51	
2025-01-20 06:29:13.51	82.14	14.51	
2025-01-20 06:29:13.71	82.19	14.51	
2025-01-20 06:29:13.92	82.24	14.51	
2025-01-20 06:29:14.12	82.29	14.51	
2025-01-20 06:29:14.32	82.33	14.51	
2025-01-20 06:29:14.52	82.38	14.51	
2025-01-20 06:29:14.73	82.43	14.51	
2025-01-20 06:29:14.93	82.48	14.51	
2025-01-20 06:29:15.13	82.53	14.51	
2025-01-20 06:29:15.34	82.58	14.51	
2025-01-20 06:29:15.54	82.63	14.51	
2025-01-20 06:29:15.74	82.68	14.51	
2025-01-20 06:29:15.94	82.72	14.50	
2025-01-20 06:29:16.15	82.77	14.50	
2025-01-20 06:29:16.35	82.82	14.50	
2025-01-20 06:29:16.55	82.87	14.50	
2025-01-20 06:29:16.76	82.92	14.50	
2025-01-20 06:29:16.96	82.97	14.50	
2025-01-20 06:29:17.16	83.02	14.50	
2025-01-20 06:29:17.37	83.07	14.50	
2025-01-20 06:29:17.57	83.12	14.50	
2025-01-20 06:29:17.77	83.16	14.50	
2025-01-20 06:29:17.97	83.21	14.50	
2025-01-20 06:29:18.18	83.26	14.50	
2025-01-20 06:29:18.38	83.31	14.50	
2025-01-20 06:29:18.58	83.36	14.50	
2025-01-20 06:29:18.79	83.41	14.50	
2025-01-20 06:29:18.99	83.46	14.50	
2025-01-20 06:29:19.19	83.51	14.50	
2025-01-20 06:29:19.40	83.56	14.50	
2025-01-20 06:29:19.60	83.61	14.50	
2025-01-20 06:29:19.80	83.65	14.50	
2025-01-20 06:29:20.00	83.70	14.50	
2025-01-20 06:29:20.21	83.75	14.50	
2025-01-20 06:29:20.41	83.80	14.50	
2025-01-20 06:29:20.61	83.85	14.50	
2025-01-20 06:29:20.82	83.90	14.49	
2025-01-20 06:29:21.02	83.95	14.49	
2025-01-20 06:29:21.22	84.00	14.49	
2025-01-20 06:29:21.42	84.04	14.49	
2025-01-20 06:29:21.63	84.09	14.49	
2025-01-20 06:29:21.83	84.14	14.49	
2025-01-20 06:29:22.03	84.19	14.49	
2025-01-20 06:29:22.24	84.24	14.49	
2025-01-20 06:29:22.44	84.29	14.49	
2025-01-20 06:29:22.64	84.34	14.49	
2025-01-20 06:29:22.85	84.39	14.49	
2025-01-20 06:29:23.05	84.44	14.49	
2025-01-20 06:29:23.25	84.48	14.49	
2025-01-20 06:29:23.45	84.53	14.49	
2025-01-20 06:29:23.66	84.58	14.48	
2025-01-20 06:29:23.86	84.63	14.48	
2025-01-20 06:29:24.06	84.68	14.48	
2025-01-20 06:29:24.27	84.73	14.48	
2025-01-20 06:29:24.47	84.78	14.48	
2025-01-20 06:29:24.67	84.82	14.48	
2025-01-20 06:29:24.87	84.87	14.48	
2025-01-20 06:29:25.08	84.92	14.48	
2025-01-20 06:29:25.28	84.97	14.48	
2025-01-20 06:29:25.48	85.02	14.48	
2025-01-20 06:29:25.69	85.07	14.47	
2025-01-20 06:29:25.89	85.12	14.47	
2025-01-20 06:29:26.09	85.17	14.47	
2025-01-20 06:29:26.30	85.22	14.47	
2025-01-20 06:29:26.50	85.26	14.47	
2025-01-20 06:29:26.70	85.31	14.47	
2025-01-20 06:29:26.90	85.36	14.47	
2025-01-20 06:29:27.11	85.41	14.47	
2025-01-20 06:29:27.31	85.46	14.47	
2025-01-20 06:29:27.51	85.51	14.46	
2025-01-20 06:29:27.72	85.56	14.46	
2025-01-20 06:29:27.92	85.61	14.46	
2025-01-20 06:29:28.12	85.65	14.46	
2025-01-20 06:29:28.33	85.70	14.46	
2025-01-20 06:29:28.53	85.75	14.46	
2025-01-20 06:29:28.73	85.80	14.46	
2025-01-20 06:29:28.93	85.85	14.45	
2025-01-20 06:29:29.14	85.90	14.45	
2025-01-20 06:29:29.34	85.95	14.45	
2025-01-20 06:29:29.54	85.99	14.45	
2025-01-20 06:29:29.75	86.05	14.45	
2025-01-20 06:29:29.95	86.09	14.45	
2025-01-20 06:29:30.15	86.14	14.45	
2025-01-20 06:29:30.35	86.19	14.44	
2025-01-20 06:29:30.56	86.24	14.44	
2025-01-20 06:29:30.76	86.29	14.44	
2025-01-20 06:29:30.96	86.34	14.44	
2025-01-20 06:29:31.17	86.39	14.44	
2025-01-20 06:29:31.37	86.43	14.44	
2025-01-20 06:29:31.57	86.48	14.44	
2025-01-20 06:29:31.78	86.53	14.43	
2025-01-20 06:29:31.98	86.58	14.43	
2025-01-20 06:29:32.18	86.63	14.43	
2025-01-20 06:29:32.38	86.68	14.43	
2025-01-20 06:29:32.59	86.73	14.43	
2025-01-20 06:29:32.79	86.77	14.43	
2025-01-20 06:29:32.99	86.82	14.42	
2025-01-20 06:29:33.20	86.87	14.42	
2025-01-20 06:29:33.40	86.92	14.42	
2025-01-20 06:29:33.60	86.97	14.42	
2025-01-20 06:29:33.81	87.02	14.42	
2025-01-20 06:29:34.01	87.07	14.41	
2025-01-20 06:29:34.21	87.11	14.41	
2025-01-20 06:29:34.41	87.16	14.41	
2025-01-20 06:29:34.62	87.21	14.41	
2025-01-20 06:29:34.82	87.26	14.41	
2025-01-20 06:29:35.02	87.31	14.41	
2025-01-20 06:29:35.23	87.36	14.40	
2025-01-20 06:29:35.43	87.41	14.40	
2025-01-20 06:29:35.63	87.45	14.40	
2025-01-20 06:29:35.83	87.50	14.40	
2025-01-20 06:29:36.04	87.55	14.40	
2025-01-20 06:29:36.24	87.60	14.39	
2025-01-20 06:29:36.44	87.65	14.39	
2025-01-20 06:29:36.65	87.70	14.39	
2025-01-20 06:29:36.85	87.75	14.39	
2025-01-20 06:29:37.05	87.79	14.39	
2025-01-20 06:29:37.26	87.84	14.38	
2025-01-20 06:29:37.46	87.89	14.38	
2025-01-20 06:29:37.66	87.94	14.38	
2025-01-20 06:29:37.86	87.99	14.38	
2025-01-20 06:29:38.07	88.04	14.37	
2025-01-20 06:29:38.27	88.09	14.37	
2025-01-20 06:29:38.47	88.13	14.37	
2025-01-20 06:29:38.68	88.18	14.37	
2025-01-20 06:29:38.88	88.23	14.37	
2025-01-20 06:29:39.08	88.28	14.36	
2025-01-20 06:29:39.28	88.33	14.36	
2025-01-20 06:29:39.49	88.38	14.36	
2025-01-20 06:29:39.69	88.42	14.36	
2025-01-20 06:29:39.89	88.47	14.35	
2025-01-20 06:29:40.10	88.52	14.35	
2025-01-20 06:29:40.30	88.57	14.35	
2025-01-20 06:29:40.50	88.62	14.35	
2025-01-20 06:29:40.71	88.67	14.34	
2025-01-20 06:29:40.91	88.71	14.34	
2025-01-20 06:29:41.11	88.76	14.34	
2025-01-20 06:29:41.31	88.81	14.34	
2025-01-20 06:29:41.52	88.86	14.34	
2025-01-20 06:29:41.72	88.91	14.33	
2025-01-20 06:29:41.92	88.96	14.33	
2025-01-20 06:29:42.13	89.01	14.33	
2025-01-20 06:29:42.33	89.05	14.32	
2025-01-20 06:29:42.53	89.10	14.32	
2025-01-20 06:29:42.74	89.15	14.32	
2025-01-20 06:29:42.94	89.20	14.32	
2025-01-20 06:29:43.14	89.25	14.31	
2025-01-20 06:29:43.34	89.29	14.31	
2025-01-20 06:29:43.55	89.34	14.31	
2025-01-20 06:29:43.75	89.39	14.31	
2025-01-20 06:29:43.95	89.44	14.30	
2025-01-20 06:29:44.16	89.49	14.30	
2025-01-20 06:29:44.36	89.54	14.30	
2025-01-20 06:29:44.56	89.58	14.30	
2025-01-20 06:29:44.76	89.63	14.29	
2025-01-20 06:29:44.97	89.68	14.29	
2025-01-20 06:29:45.17	89.73	14.29	
2025-01-20 06:29:45.37	89.78	14.28	
2025-01-20 06:29:45.58	89.82	14.28	
2025-01-20 06:29:45.78	89.87	14.28	
2025-01-20 06:29:45.98	89.92	14.28	
2025-01-20 06:29:46.19	89.97	14.27	
2025-01-20 06:29:46.39	90.02	14.27	
2025-01-20 06:29:46.59	90.06	14.27	
2025-01-20 06:29:46.79	90.11	14.26	
2025-01-20 06:29:47.00	90.16	14.26	
2025-01-20 06:29:47.20	90.21	14.26	
2025-01-20 06:29:47.40	90.26	14.26	
2025-01-20 06:29:47.61	90.31	14.25	
2025-01-20 06:29:47.81	90.35	14.25	
2025-01-20 06:29:48.01	90.40	14.25	
2025-01-20 06:29:48.22	90.45	14.24	
2025-01-20 06:29:48.42	90.50	14.24	
2025-01-20 06:29:48.62	90.55	14.24	
2025-01-20 06:29:48.82	90.59	14.23	
2025-01-20 06:29:49.03	90.64	14.23	
2025-01-20 06:29:49.23	90.69	14.23	
2025-01-20 06:29:49.43	90.74	14.22	
2025-01-20 06:29:49.64	90.79	14.22	
2025-01-20 06:29:49.84	90.83	14.22	
2025-01-20 06:29:50.04	90.88	14.21	
2025-01-20 06:29:50.24	90.93	14.21	
2025-01-20 06:29:50.45	90.98	14.21	
2025-01-20 06:29:50.65	91.02	14.21	
2025-01-20 06:29:50.85	91.07	14.20	
2025-01-20 06:29:51.06	91.12	14.20	
2025-01-20 06:29:51.26	91.17	14.20	
2025-01-20 06:29:51.46	91.22	14.19	
2025-01-20 06:29:51.67	91.27	14.19	
2025-01-20 06:29:51.87	91.31	14.19	
2025-01-20 06:29:52.07	91.36	14.18	
2025-01-20 06:29:52.27	91.41	14.18	
2025-01-20 06:29:52.48	91.46	14.17	
2025-01-20 06:29:52.68	91.50	14.17	
2025-01-20 06:29:52.88	91.55	14.17	
2025-01-20 06:29:53.09	91.60	14.16	
2025-01-20 06:29:53.29	91.65	14.16	
2025-01-20 06:29:53.49	91.69	14.16	
2025-01-20 06:29:53.69	91.74	14.15	
2025-01-20 06:29:53.90	91.79	14.15	
2025-01-20 06:29:54.10	91.84	14.15	
2025-01-20 06:29:54.30	91.88	14.14	
2025-01-20 06:29:54.51	91.93	14.14	
2025-01-20 06:29:54.71	91.98	14.14	
2025-01-20 06:29:54.91	92.03	14.13	
2025-01-20 06:29:55.12	92.08	14.13	
2025-01-20 06:29:55.32	92.12	14.13	
2025-01-20 06:29:55.52	92.17	14.12	
2025-01-20 06:29:55.72	92.22	14.12	
2025-01-20 06:29:55.93	92.27	14.11	
2025-01-20 06:29:56.13	92.31	14.11	
2025-01-20 06:29:56.33	92.36	14.11	
2025-01-20 06:29:56.54	92.41	14.10	
2025-01-20 06:29:56.74	92.46	14.10	
2025-01-20 06:29:56.94	92.50	14.10	
2025-01-20 06:29:57.15	92.55	14.09	
2025-01-20 06:29:57.35	92.60	14.09	
2025-01-20 06:29:57.55	92.65	14.08	
2025-01-20 06:29:57.75	92.69	14.08	
2025-01-20 06:29:57.96	92.74	14.08	
2025-01-20 06:29:58.16	92.79	14.07	
2025-01-20 06:29:58.36	92.84	14.07	
2025-01-20 06:29:58.57	92.89	14.06	
2025-01-20 06:29:58.77	92.93	14.06	
2025-01-20 06:29:58.97	92.98	14.06	
2025-01-20 06:29:59.17	93.03	14.05	
2025-01-20 06:29:59.38	93.07	14.05	
2025-01-20 06:29:59.58	93.12	14.04	
2025-01-20 06:29:59.78	93.17	14.04	
2025-01-20 06:29:59.99	93.22	14.04	
2025-01-20 06:30:00.19	93.26	14.03	
2025-01-20 06:30:00.39	93.31	14.03	
2025-01-20 06:30:00.60	93.36	14.02	
2025-01-20 06:30:00.80	93.41	14.02	
2025-01-20 06:30:01.00	93.45	14.02	
2025-01-20 06:30:01.20	93.50	14.01	
2025-01-20 06:30:01.41	93.55	14.01	
2025-01-20 06:30:01.61	93.59	14.00	
2025-01-20 06:30:01.81	93.64	14.00	
2025-01-20 06:30:02.02	93.69	13.99	
2025-01-20 06:30:02.22	93.74	13.99	
2025-01-20 06:30:02.42	93.78	13.99	
2025-01-20 06:30:02.62	93.83	13.98	
2025-01-20 06:30:02.83	93.88	13.98	
2025-01-20 06:30:03.03	93.92	13.97	
2025-01-20 06:30:03.23	93.97	13.97	
2025-01-20 06:30:03.44	94.02	13.96	
2025-01-20 06:30:03.64	94.07	13.96	
2025-01-20 06:30:03.84	94.11	13.96	
2025-01-20 06:30:04.05	94.16	13.95	
2025-01-20 06:30:04.25	94.21	13.95	
2025-01-20 06:30:04.45	94.25	13.94	
2025-01-20 06:30:04.65	94.30	13.94	
2025-01-20 06:30:04.86	94.35	13.93	
2025-01-20 06:30:05.06	94.40	13.93	
2025-01-20 06:30:05.26	94.44	13.93	
2025-01-20 06:30:05.47	94.49	13.92	
2025-01-20 06:30:05.67	94.54	13.92	
2025-01-20 06:30:05.87	94.58	13.91	
2025-01-20 06:30:06.08	94.63	13.91	
2025-01-20 06:30:06.28	94.68	13.90	
2025-01-20 06:30:06.48	94.72	13.90	
2025-01-20 06:30:06.68	94.77	13.89	
2025-01-20 06:30:06.89	94.82	13.89	
2025-01-20 06:30:07.09	94.86	13.88	
2025-01-20 06:30:07.29	94.91	13.88	
2025-01-20 06:30:07.50	94.96	13.88	
2025-01-20 06:30:07.70	95.01	13.87	
2025-01-20 06:30:07.90	95.05	13.87	
2025-01-20 06:30:08.10	95.10	13.86	
2025-01-20 06:30:08.31	95.15	13.86	
2025-01-20 06:30:08.51	95.19	13.85	
2025-01-20 06:30:08.71	95.24	13.85	
2025-01-20 06:30:08.92	95.29	13.84	
2025-01-20 06:30:09.12	95.33	13.84	
2025-01-20 06:30:09.32	95.38	13.83	
2025-01-20 06:30:09.53	95.43	13.83	
2025-01-20 06:30:09.73	95.47	13.82	
2025-01-20 06:30:09.93	95.52	13.82	
2025-01-20 06:30:10.13	95.56	13.81	
2025-01-20 06:30:10.34	95.61	13.81	
2025-01-20 06:30:10.54	95.66	13.80	
2025-01-20 06:30:10.74	95.70	13.80	
2025-01-20 06:30:10.95	95.75	13.79	
2025-01-20 06:30:11.15	95.80	13.79	
2025-01-20 06:30:11.35	95.84	13.78	
2025-01-20 06:30:11.56	95.89	13.78	
2025-01-20 06:30:11.76	95.94	13.77	
2025-01-20 06:30:11.96	95.98	13.77	
2025-01-20 06:30:12.16	96.03	13.76	
2025-01-20 06:30:12.37	96.08	13.76	
2025-01-20 06:30:12.57	96.12	13.75	
2025-01-20 06:30:12.77	96.17	13.75	
2025-01-20 06:30:12.98	96.22	13.74	
2025-01-20 06:30:13.18	96.26	13.74	
2025-01-20 06:30:13.38	96.31	13.73	
2025-01-20 06:30:13.58	96.35	13.73	
2025-01-20 06:30:13.79	96.40	13.72	
2025-01-20 06:30:13.99	96.45	13.72	
2025-01-20 06:30:14.19	96.49	13.71	
2025-01-20 06:30:14.40	96.54	13.71	
2025-01-20 06:30:14.60	96.59	13.70	
2025-01-20 06:30:14.80	96.63	13.70	
2025-01-20 06:30:15.01	96.68	13.69	
2025-01-20 06:30:15.21	96.73	13.69	
2025-01-20 06:30:15.41	96.77	13.68	
2025-01-20 06:30:15.61	96.82	13.68	
2025-01-20 06:30:15.82	96.87	13.67	
2025-01-20 06:30:16.02	96.91	13.67	
2025-01-20 06:30:16.22	96.96	13.66	
2025-01-20 06:30:16.43	97.00	13.66	
2025-01-20 06:30:16.63	97.05	13.65	
2025-01-20 06:30:16.83	97.09	13.64	
2025-01-20 06:30:17.03	97.14	13.64	
2025-01-20 06:30:17.24	97.19	13.63	
2025-01-20 06:30:17.44	97.23	13.63	
2025-01-20 06:30:17.64	97.28	13.62	
2025-01-20 06:30:17.85	97.33	13.62	
2025-01-20 06:30:18.05	97.37	13.61	
2025-01-20 06:30:18.25	97.42	13.61	
2025-01-20 06:30:18.46	97.46	13.60	
2025-01-20 06:30:18.66	97.51	13.60	
2025-01-20 06:30:18.86	97.55	13.59	
2025-01-20 06:30:19.06	97.60	13.58	
2025-01-20 06:30:19.27	97.65	13.58	
2025-01-20 06:30:19.47	97.69	13.57	
2025-01-20 06:30:19.67	97.74	13.57	
2025-01-20 06:30:19.88	97.78	13.56	
2025-01-20 06:30:20.08	97.83	13.56	
2025-01-20 06:30:20.28	97.88	13.55	
2025-01-20 06:30:20.49	97.92	13.55	
2025-01-20 06:30:20.69	97.97	13.54	
2025-01-20 06:30:20.89	98.01	13.53	
2025-01-20 06:30:21.09	98.06	13.53	
2025-01-20 06:30:21.30	98.10	13.52	
2025-01-20 06:30:21.50	98.15	13.52	
2025-01-20 06:30:21.70	98.19	13.51	
2025-01-20 06:30:21.91	98.24	13.51	
2025-01-20 06:30:22.11	98.29	13.50	
