passes_logs/2025/01/20/SPB_Silybum_02/SPB_Silybum_02__20250120_093933_TERRA_rec.log

#Pass ID: 20250120_093933_TERRA
#Satellite: TERRA
#Configuration: TERRA
#Start time: 2025-01-20 09:39:34

#Version: 2.0.20230423
#Station: SPB_Silybum_02
#Location: 30.233357 lon 59.946436 lat
#TLE: 1 25994U 99068A   25019.78905911  .00001081  00000+0  23261-3 0  9994
#TLE: 2 25994  98.0208  82.6669 0003303  62.5205  49.3311 14.60406058334773

#Time	Az	El	Level	Level2	SNR	BER	Gain	Gain2
2025-01-20 09:39:36.45	10.91	4.19	
2025-01-20 09:39:36.65	10.90	4.20	
2025-01-20 09:39:36.86	10.89	4.22	
2025-01-20 09:39:37.06	10.88	4.23	
2025-01-20 09:39:37.26	10.86	4.24	
2025-01-20 09:39:37.47	10.85	4.26	
2025-01-20 09:39:37.67	10.84	4.27	
2025-01-20 09:39:37.87	10.82	4.28	
2025-01-20 09:39:38.08	10.81	4.30	
2025-01-20 09:39:38.28	10.80	4.31	
2025-01-20 09:39:38.48	10.78	4.33	
2025-01-20 09:39:38.68	10.77	4.34	
2025-01-20 09:39:38.89	10.76	4.35	
2025-01-20 09:39:39.09	10.75	4.37	
2025-01-20 09:39:39.29	10.73	4.38	
2025-01-20 09:39:39.50	10.72	4.39	
2025-01-20 09:39:39.70	10.71	4.41	
2025-01-20 09:39:39.90	10.69	4.42	
2025-01-20 09:39:40.11	10.68	4.43	
2025-01-20 09:39:40.31	10.67	4.45	
2025-01-20 09:39:40.51	10.65	4.46	
2025-01-20 09:39:40.72	10.64	4.48	
2025-01-20 09:39:40.92	10.63	4.49	
2025-01-20 09:39:41.12	10.61	4.50	
2025-01-20 09:39:41.32	10.60	4.52	
2025-01-20 09:39:41.53	10.59	4.53	
2025-01-20 09:39:41.73	10.57	4.54	
2025-01-20 09:39:41.93	10.56	4.56	
2025-01-20 09:39:42.14	10.55	4.57	
2025-01-20 09:39:42.34	10.53	4.58	
2025-01-20 09:39:42.54	10.52	4.60	
2025-01-20 09:39:42.75	10.51	4.61	
2025-01-20 09:39:42.95	10.49	4.63	
2025-01-20 09:39:43.15	10.48	4.64	
2025-01-20 09:39:43.36	10.47	4.65	
2025-01-20 09:39:43.56	10.45	4.67	
2025-01-20 09:39:43.76	10.44	4.68	
2025-01-20 09:39:43.96	10.43	4.69	
2025-01-20 09:39:44.17	10.41	4.71	
2025-01-20 09:39:44.37	10.40	4.72	
2025-01-20 09:39:44.57	10.39	4.73	
2025-01-20 09:39:44.78	10.37	4.75	
2025-01-20 09:39:44.98	10.36	4.76	
2025-01-20 09:39:45.18	10.35	4.78	
2025-01-20 09:39:45.39	10.33	4.79	
2025-01-20 09:39:45.59	10.32	4.80	
2025-01-20 09:39:45.79	10.30	4.82	
2025-01-20 09:39:46.00	10.29	4.83	
2025-01-20 09:39:46.20	10.28	4.84	
2025-01-20 09:39:46.40	10.26	4.86	
2025-01-20 09:39:46.60	10.25	4.87	
2025-01-20 09:39:46.81	10.24	4.89	
2025-01-20 09:39:47.01	10.22	4.90	
2025-01-20 09:39:47.21	10.21	4.91	
2025-01-20 09:39:47.42	10.20	4.93	
2025-01-20 09:39:47.62	10.18	4.94	
2025-01-20 09:39:47.82	10.17	4.96	
2025-01-20 09:39:48.03	10.15	4.97	
2025-01-20 09:39:48.23	10.14	4.98	
2025-01-20 09:39:48.43	10.13	5.00	
2025-01-20 09:39:48.64	10.11	5.01	
2025-01-20 09:39:48.84	10.10	5.02	
2025-01-20 09:39:49.04	10.09	5.04	
2025-01-20 09:39:49.24	10.07	5.05	
2025-01-20 09:39:49.45	10.06	5.07	
2025-01-20 09:39:49.65	10.04	5.08	
2025-01-20 09:39:49.85	10.03	5.09	
2025-01-20 09:39:50.06	10.02	5.11	
2025-01-20 09:39:50.26	10.00	5.12	
2025-01-20 09:39:50.46	9.99	5.14	
2025-01-20 09:39:50.67	9.97	5.15	
2025-01-20 09:39:50.87	9.96	5.16	
2025-01-20 09:39:51.07	9.95	5.18	
2025-01-20 09:39:51.28	9.93	5.19	
2025-01-20 09:39:51.48	9.92	5.21	
2025-01-20 09:39:51.68	9.90	5.22	
2025-01-20 09:39:51.88	9.89	5.23	
2025-01-20 09:39:52.09	9.88	5.25	
2025-01-20 09:39:52.29	9.86	5.26	
2025-01-20 09:39:52.49	9.85	5.28	
2025-01-20 09:39:52.70	9.83	5.29	
2025-01-20 09:39:52.90	9.82	5.30	
2025-01-20 09:39:53.10	9.81	5.32	
2025-01-20 09:39:53.31	9.79	5.33	
2025-01-20 09:39:53.51	9.78	5.35	
2025-01-20 09:39:53.71	9.76	5.36	
2025-01-20 09:39:53.92	9.75	5.37	
2025-01-20 09:39:54.12	9.73	5.39	
2025-01-20 09:39:54.32	9.72	5.40	
2025-01-20 09:39:54.52	9.71	5.42	
2025-01-20 09:39:54.73	9.69	5.43	
2025-01-20 09:39:54.93	9.68	5.44	
2025-01-20 09:39:55.13	9.66	5.46	
2025-01-20 09:39:55.34	9.65	5.47	
2025-01-20 09:39:55.54	9.64	5.49	
2025-01-20 09:39:55.74	9.62	5.50	
2025-01-20 09:39:55.95	9.61	5.51	
2025-01-20 09:39:56.15	9.59	5.53	
2025-01-20 09:39:56.35	9.58	5.54	
2025-01-20 09:39:56.56	9.56	5.56	
2025-01-20 09:39:56.76	9.55	5.57	
2025-01-20 09:39:56.96	9.53	5.58	
2025-01-20 09:39:57.16	9.52	5.60	
2025-01-20 09:39:57.37	9.51	5.61	
2025-01-20 09:39:57.57	9.49	5.63	
2025-01-20 09:39:57.77	9.48	5.64	
2025-01-20 09:39:57.98	9.46	5.66	
2025-01-20 09:39:58.18	9.45	5.67	
2025-01-20 09:39:58.38	9.43	5.68	
2025-01-20 09:39:58.59	9.42	5.70	
2025-01-20 09:39:58.79	9.40	5.71	
2025-01-20 09:39:58.99	9.39	5.73	
2025-01-20 09:39:59.19	9.38	5.74	
2025-01-20 09:39:59.40	9.36	5.75	
2025-01-20 09:39:59.60	9.35	5.77	
2025-01-20 09:39:59.80	9.33	5.78	
2025-01-20 09:40:00.01	9.32	5.80	
2025-01-20 09:40:00.21	9.30	5.81	
2025-01-20 09:40:00.41	9.29	5.83	
2025-01-20 09:40:00.62	9.27	5.84	
2025-01-20 09:40:00.82	9.26	5.85	
2025-01-20 09:40:01.02	9.24	5.87	
2025-01-20 09:40:01.23	9.23	5.88	
2025-01-20 09:40:01.43	9.21	5.90	
2025-01-20 09:40:01.63	9.20	5.91	
2025-01-20 09:40:01.84	9.18	5.93	
2025-01-20 09:40:02.04	9.17	5.94	
2025-01-20 09:40:02.24	9.15	5.95	
2025-01-20 09:40:02.44	9.14	5.97	
2025-01-20 09:40:02.65	9.12	5.98	
2025-01-20 09:40:02.85	9.11	6.00	
2025-01-20 09:40:03.05	9.09	6.01	
2025-01-20 09:40:03.26	9.08	6.03	
2025-01-20 09:40:03.46	9.06	6.04	
2025-01-20 09:40:03.66	9.05	6.05	
2025-01-20 09:40:03.87	9.03	6.07	
2025-01-20 09:40:04.07	9.02	6.08	
2025-01-20 09:40:04.27	9.00	6.10	
2025-01-20 09:40:04.48	8.99	6.11	
2025-01-20 09:40:04.68	8.97	6.13	
2025-01-20 09:40:04.88	8.96	6.14	
2025-01-20 09:40:05.08	8.94	6.16	
2025-01-20 09:40:05.29	8.93	6.17	
2025-01-20 09:40:05.49	8.91	6.18	
2025-01-20 09:40:05.69	8.90	6.20	
2025-01-20 09:40:05.90	8.88	6.21	
2025-01-20 09:40:06.10	8.87	6.23	
2025-01-20 09:40:06.30	8.85	6.24	
2025-01-20 09:40:06.51	8.84	6.26	
2025-01-20 09:40:06.71	8.82	6.27	
2025-01-20 09:40:06.91	8.81	6.29	
2025-01-20 09:40:07.12	8.79	6.30	
2025-01-20 09:40:07.32	8.78	6.31	
2025-01-20 09:40:07.52	8.76	6.33	
2025-01-20 09:40:07.72	8.75	6.34	
2025-01-20 09:40:07.93	8.73	6.36	
2025-01-20 09:40:08.13	8.72	6.37	
2025-01-20 09:40:08.33	8.70	6.39	
2025-01-20 09:40:08.54	8.68	6.40	
2025-01-20 09:40:08.74	8.67	6.42	
2025-01-20 09:40:08.94	8.65	6.43	
2025-01-20 09:40:09.15	8.64	6.45	
2025-01-20 09:40:09.35	8.62	6.46	
2025-01-20 09:40:09.55	8.61	6.47	
2025-01-20 09:40:09.76	8.59	6.49	
2025-01-20 09:40:09.96	8.58	6.50	
2025-01-20 09:40:10.16	8.56	6.52	
2025-01-20 09:40:10.36	8.55	6.53	
2025-01-20 09:40:10.57	8.53	6.55	
2025-01-20 09:40:10.77	8.51	6.56	
2025-01-20 09:40:10.97	8.50	6.58	
2025-01-20 09:40:11.18	8.48	6.59	
2025-01-20 09:40:11.38	8.47	6.61	
2025-01-20 09:40:11.58	8.45	6.62	
2025-01-20 09:40:11.79	8.44	6.64	
2025-01-20 09:40:11.99	8.42	6.65	
2025-01-20 09:40:12.19	8.41	6.66	
2025-01-20 09:40:12.40	8.39	6.68	
2025-01-20 09:40:12.60	8.37	6.69	
2025-01-20 09:40:12.80	8.36	6.71	
2025-01-20 09:40:13.00	8.34	6.72	
2025-01-20 09:40:13.21	8.33	6.74	
2025-01-20 09:40:13.41	8.31	6.75	
2025-01-20 09:40:13.61	8.30	6.77	
2025-01-20 09:40:13.82	8.28	6.78	
2025-01-20 09:40:14.02	8.26	6.80	
2025-01-20 09:40:14.22	8.25	6.81	
2025-01-20 09:40:14.43	8.23	6.83	
2025-01-20 09:40:14.63	8.22	6.84	
2025-01-20 09:40:14.83	8.20	6.86	
2025-01-20 09:40:15.04	8.18	6.87	
2025-01-20 09:40:15.24	8.17	6.89	
2025-01-20 09:40:15.44	8.15	6.90	
2025-01-20 09:40:15.64	8.14	6.91	
2025-01-20 09:40:15.85	8.12	6.93	
2025-01-20 09:40:16.05	8.10	6.94	
2025-01-20 09:40:16.25	8.09	6.96	
2025-01-20 09:40:16.46	8.07	6.97	
2025-01-20 09:40:16.66	8.06	6.99	
2025-01-20 09:40:16.86	8.04	7.00	
2025-01-20 09:40:17.07	8.02	7.02	
2025-01-20 09:40:17.27	8.01	7.03	
2025-01-20 09:40:17.47	7.99	7.05	
2025-01-20 09:40:17.68	7.97	7.06	
2025-01-20 09:40:17.88	7.96	7.08	
2025-01-20 09:40:18.08	7.94	7.09	
2025-01-20 09:40:18.28	7.93	7.11	
2025-01-20 09:40:18.49	7.91	7.12	
2025-01-20 09:40:18.69	7.89	7.14	
2025-01-20 09:40:18.89	7.88	7.15	
2025-01-20 09:40:19.10	7.86	7.17	
2025-01-20 09:40:19.30	7.84	7.18	
2025-01-20 09:40:19.50	7.83	7.20	
2025-01-20 09:40:19.71	7.81	7.21	
2025-01-20 09:40:19.91	7.79	7.23	
2025-01-20 09:40:20.11	7.78	7.24	
2025-01-20 09:40:20.32	7.76	7.26	
2025-01-20 09:40:20.52	7.75	7.27	
2025-01-20 09:40:20.72	7.73	7.29	
2025-01-20 09:40:20.92	7.71	7.30	
2025-01-20 09:40:21.13	7.70	7.32	
2025-01-20 09:40:21.33	7.68	7.33	
2025-01-20 09:40:21.53	7.66	7.35	
2025-01-20 09:40:21.74	7.65	7.36	
2025-01-20 09:40:21.94	7.63	7.38	
2025-01-20 09:40:22.14	7.61	7.39	
2025-01-20 09:40:22.35	7.60	7.41	
2025-01-20 09:40:22.55	7.58	7.42	
2025-01-20 09:40:22.75	7.56	7.44	
2025-01-20 09:40:22.95	7.55	7.45	
2025-01-20 09:40:23.16	7.53	7.47	
2025-01-20 09:40:23.36	7.51	7.48	
2025-01-20 09:40:23.56	7.50	7.50	
2025-01-20 09:40:23.77	7.48	7.51	
2025-01-20 09:40:23.97	7.46	7.53	
2025-01-20 09:40:24.17	7.45	7.54	
2025-01-20 09:40:24.38	7.43	7.56	
2025-01-20 09:40:24.58	7.41	7.57	
2025-01-20 09:40:24.78	7.40	7.59	
2025-01-20 09:40:24.99	7.38	7.60	
2025-01-20 09:40:25.19	7.36	7.62	
2025-01-20 09:40:25.39	7.34	7.63	
2025-01-20 09:40:25.60	7.33	7.65	
2025-01-20 09:40:25.80	7.31	7.66	
2025-01-20 09:40:26.00	7.29	7.68	
2025-01-20 09:40:26.20	7.28	7.69	
2025-01-20 09:40:26.41	7.26	7.71	
2025-01-20 09:40:26.61	7.24	7.72	
2025-01-20 09:40:26.81	7.23	7.74	
2025-01-20 09:40:27.02	7.21	7.75	
2025-01-20 09:40:27.22	7.19	7.77	
2025-01-20 09:40:27.42	7.17	7.78	
2025-01-20 09:40:27.63	7.16	7.80	
2025-01-20 09:40:27.83	7.14	7.82	
2025-01-20 09:40:28.03	7.12	7.83	
2025-01-20 09:40:28.23	7.11	7.85	
2025-01-20 09:40:28.44	7.09	7.86	
2025-01-20 09:40:28.64	7.07	7.88	
2025-01-20 09:40:28.84	7.05	7.89	
2025-01-20 09:40:29.05	7.04	7.91	
2025-01-20 09:40:29.25	7.02	7.92	
2025-01-20 09:40:29.45	7.00	7.94	
2025-01-20 09:40:29.66	6.98	7.95	
2025-01-20 09:40:29.86	6.97	7.97	
2025-01-20 09:40:30.06	6.95	7.98	
2025-01-20 09:40:30.27	6.93	8.00	
2025-01-20 09:40:30.47	6.91	8.01	
2025-01-20 09:40:30.67	6.90	8.03	
2025-01-20 09:40:30.87	6.88	8.04	
2025-01-20 09:40:31.08	6.86	8.06	
2025-01-20 09:40:31.28	6.85	8.08	
2025-01-20 09:40:31.48	6.83	8.09	
2025-01-20 09:40:31.69	6.81	8.11	
2025-01-20 09:40:31.89	6.79	8.12	
2025-01-20 09:40:32.09	6.77	8.14	
2025-01-20 09:40:32.30	6.76	8.15	
2025-01-20 09:40:32.50	6.74	8.17	
2025-01-20 09:40:32.70	6.72	8.18	
2025-01-20 09:40:32.91	6.70	8.20	
2025-01-20 09:40:33.11	6.69	8.21	
2025-01-20 09:40:33.31	6.67	8.23	
2025-01-20 09:40:33.51	6.65	8.24	
2025-01-20 09:40:33.72	6.63	8.26	
2025-01-20 09:40:33.92	6.62	8.28	
2025-01-20 09:40:34.12	6.60	8.29	
2025-01-20 09:40:34.33	6.58	8.31	
2025-01-20 09:40:34.53	6.56	8.32	
2025-01-20 09:40:34.73	6.54	8.34	
2025-01-20 09:40:34.94	6.53	8.35	
2025-01-20 09:40:35.14	6.51	8.37	
2025-01-20 09:40:35.34	6.49	8.38	
2025-01-20 09:40:35.55	6.47	8.40	
2025-01-20 09:40:35.75	6.45	8.42	
2025-01-20 09:40:35.95	6.44	8.43	
2025-01-20 09:40:36.15	6.42	8.45	
2025-01-20 09:40:36.36	6.40	8.46	
2025-01-20 09:40:36.56	6.38	8.48	
2025-01-20 09:40:36.76	6.36	8.49	
2025-01-20 09:40:36.97	6.35	8.51	
2025-01-20 09:40:37.17	6.33	8.52	
2025-01-20 09:40:37.37	6.31	8.54	
2025-01-20 09:40:37.58	6.29	8.56	
2025-01-20 09:40:37.78	6.27	8.57	
2025-01-20 09:40:37.98	6.25	8.59	
2025-01-20 09:40:38.19	6.24	8.60	
2025-01-20 09:40:38.39	6.22	8.62	
2025-01-20 09:40:38.59	6.20	8.63	
2025-01-20 09:40:38.79	6.18	8.65	
2025-01-20 09:40:39.00	6.16	8.67	
2025-01-20 09:40:39.20	6.14	8.68	
2025-01-20 09:40:39.40	6.13	8.70	
2025-01-20 09:40:39.61	6.11	8.71	
2025-01-20 09:40:39.81	6.09	8.73	
2025-01-20 09:40:40.01	6.07	8.74	
2025-01-20 09:40:40.22	6.05	8.76	
2025-01-20 09:40:40.42	6.03	8.78	
2025-01-20 09:40:40.62	6.02	8.79	
2025-01-20 09:40:40.83	6.00	8.81	
2025-01-20 09:40:41.03	5.98	8.82	
2025-01-20 09:40:41.23	5.96	8.84	
2025-01-20 09:40:41.43	5.94	8.85	
2025-01-20 09:40:41.64	5.92	8.87	
2025-01-20 09:40:41.84	5.90	8.89	
2025-01-20 09:40:42.04	5.89	8.90	
2025-01-20 09:40:42.25	5.87	8.92	
2025-01-20 09:40:42.45	5.85	8.93	
2025-01-20 09:40:42.65	5.83	8.95	
2025-01-20 09:40:42.86	5.81	8.97	
2025-01-20 09:40:43.06	5.79	8.98	
2025-01-20 09:40:43.26	5.77	9.00	
2025-01-20 09:40:43.47	5.75	9.01	
2025-01-20 09:40:43.67	5.73	9.03	
2025-01-20 09:40:43.87	5.72	9.04	
2025-01-20 09:40:44.07	5.70	9.06	
2025-01-20 09:40:44.28	5.68	9.08	
2025-01-20 09:40:44.48	5.66	9.09	
2025-01-20 09:40:44.68	5.64	9.11	
2025-01-20 09:40:44.89	5.62	9.12	
2025-01-20 09:40:45.09	5.60	9.14	
2025-01-20 09:40:45.29	5.58	9.16	
2025-01-20 09:40:45.50	5.56	9.17	
2025-01-20 09:40:45.70	5.55	9.19	
2025-01-20 09:40:45.90	5.53	9.20	
2025-01-20 09:40:46.11	5.51	9.22	
2025-01-20 09:40:46.31	5.49	9.24	
2025-01-20 09:40:46.51	5.47	9.25	
2025-01-20 09:40:46.71	5.45	9.27	
2025-01-20 09:40:46.92	5.43	9.28	
2025-01-20 09:40:47.12	5.41	9.30	
2025-01-20 09:40:47.32	5.39	9.32	
2025-01-20 09:40:47.53	5.37	9.33	
2025-01-20 09:40:47.73	5.35	9.35	
2025-01-20 09:40:47.93	5.33	9.36	
2025-01-20 09:40:48.14	5.31	9.38	
2025-01-20 09:40:48.34	5.29	9.40	
2025-01-20 09:40:48.54	5.28	9.41	
2025-01-20 09:40:48.75	5.26	9.43	
2025-01-20 09:40:48.95	5.24	9.44	
2025-01-20 09:40:49.15	5.22	9.46	
2025-01-20 09:40:49.35	5.20	9.48	
2025-01-20 09:40:49.56	5.18	9.49	
2025-01-20 09:40:49.76	5.16	9.51	
2025-01-20 09:40:49.96	5.14	9.52	
2025-01-20 09:40:50.17	5.12	9.54	
2025-01-20 09:40:50.37	5.10	9.56	
2025-01-20 09:40:50.57	5.08	9.57	
2025-01-20 09:40:50.78	5.06	9.59	
2025-01-20 09:40:50.98	5.04	9.61	
2025-01-20 09:40:51.18	5.02	9.62	
2025-01-20 09:40:51.39	5.00	9.64	
2025-01-20 09:40:51.59	4.98	9.65	
2025-01-20 09:40:51.79	4.96	9.67	
2025-01-20 09:40:51.99	4.94	9.69	
2025-01-20 09:40:52.20	4.92	9.70	
2025-01-20 09:40:52.40	4.90	9.72	
2025-01-20 09:40:52.60	4.88	9.73	
2025-01-20 09:40:52.81	4.86	9.75	
2025-01-20 09:40:53.01	4.84	9.77	
2025-01-20 09:40:53.21	4.82	9.78	
2025-01-20 09:40:53.42	4.80	9.80	
2025-01-20 09:40:53.62	4.78	9.82	
2025-01-20 09:40:53.82	4.76	9.83	
2025-01-20 09:40:54.03	4.74	9.85	
2025-01-20 09:40:54.23	4.72	9.87	
2025-01-20 09:40:54.43	4.70	9.88	
2025-01-20 09:40:54.63	4.68	9.90	
2025-01-20 09:40:54.84	4.66	9.91	
2025-01-20 09:40:55.04	4.64	9.93	
2025-01-20 09:40:55.24	4.62	9.95	
2025-01-20 09:40:55.45	4.60	9.96	
2025-01-20 09:40:55.65	4.58	9.98	
2025-01-20 09:40:55.85	4.56	10.00	
2025-01-20 09:40:56.06	4.54	10.01	
2025-01-20 09:40:56.26	4.52	10.03	
2025-01-20 09:40:56.46	4.50	10.04	
2025-01-20 09:40:56.67	4.48	10.06	
2025-01-20 09:40:56.87	4.46	10.08	
2025-01-20 09:40:57.07	4.44	10.09	
2025-01-20 09:40:57.27	4.42	10.11	
2025-01-20 09:40:57.48	4.40	10.13	
2025-01-20 09:40:57.68	4.38	10.14	
2025-01-20 09:40:57.88	4.36	10.16	
2025-01-20 09:40:58.09	4.33	10.18	
2025-01-20 09:40:58.29	4.31	10.19	
2025-01-20 09:40:58.49	4.29	10.21	
2025-01-20 09:40:58.70	4.27	10.23	
2025-01-20 09:40:58.90	4.25	10.24	
2025-01-20 09:40:59.10	4.23	10.26	
2025-01-20 09:40:59.31	4.21	10.28	
2025-01-20 09:40:59.51	4.19	10.29	
2025-01-20 09:40:59.71	4.17	10.31	
2025-01-20 09:40:59.91	4.15	10.32	
2025-01-20 09:41:00.12	4.13	10.34	
2025-01-20 09:41:00.32	4.11	10.36	
2025-01-20 09:41:00.52	4.09	10.37	
2025-01-20 09:41:00.73	4.06	10.39	
2025-01-20 09:41:00.93	4.04	10.41	
2025-01-20 09:41:01.13	4.02	10.42	
2025-01-20 09:41:01.34	4.00	10.44	
2025-01-20 09:41:01.54	3.98	10.46	
2025-01-20 09:41:01.74	3.96	10.47	
2025-01-20 09:41:01.95	3.94	10.49	
2025-01-20 09:41:02.15	3.92	10.51	
2025-01-20 09:41:02.35	3.90	10.52	
2025-01-20 09:41:02.55	3.88	10.54	
2025-01-20 09:41:02.76	3.85	10.56	
2025-01-20 09:41:02.96	3.83	10.57	
2025-01-20 09:41:03.16	3.81	10.59	
2025-01-20 09:41:03.37	3.79	10.61	
2025-01-20 09:41:03.57	3.77	10.62	
2025-01-20 09:41:03.77	3.75	10.64	
2025-01-20 09:41:03.98	3.73	10.66	
2025-01-20 09:41:04.18	3.70	10.67	
2025-01-20 09:41:04.38	3.68	10.69	
2025-01-20 09:41:04.59	3.66	10.71	
2025-01-20 09:41:04.79	3.64	10.72	
2025-01-20 09:41:04.99	3.62	10.74	
2025-01-20 09:41:05.19	3.60	10.76	
2025-01-20 09:41:05.40	3.57	10.78	
2025-01-20 09:41:05.60	3.55	10.79	
2025-01-20 09:41:05.80	3.53	10.81	
2025-01-20 09:41:06.01	3.51	10.83	
2025-01-20 09:41:06.21	3.49	10.84	
2025-01-20 09:41:06.41	3.47	10.86	
2025-01-20 09:41:06.62	3.44	10.88	
2025-01-20 09:41:06.82	3.42	10.89	
2025-01-20 09:41:07.02	3.40	10.91	
2025-01-20 09:41:07.23	3.38	10.93	
2025-01-20 09:41:07.43	3.36	10.94	
2025-01-20 09:41:07.63	3.34	10.96	
2025-01-20 09:41:07.83	3.31	10.98	
2025-01-20 09:41:08.04	3.29	10.99	
2025-01-20 09:41:08.24	3.27	11.01	
2025-01-20 09:41:08.44	3.25	11.03	
2025-01-20 09:41:08.65	3.23	11.05	
2025-01-20 09:41:08.85	3.20	11.06	
2025-01-20 09:41:09.05	3.18	11.08	
2025-01-20 09:41:09.26	3.16	11.10	
2025-01-20 09:41:09.46	3.14	11.11	
2025-01-20 09:41:09.66	3.12	11.13	
2025-01-20 09:41:09.87	3.09	11.15	
2025-01-20 09:41:10.07	3.07	11.16	
2025-01-20 09:41:10.27	3.05	11.18	
2025-01-20 09:41:10.47	3.03	11.20	
2025-01-20 09:41:10.68	3.00	11.21	
2025-01-20 09:41:10.88	2.98	11.23	
2025-01-20 09:41:11.08	2.96	11.25	
2025-01-20 09:41:11.29	2.94	11.27	
2025-01-20 09:41:11.49	2.92	11.28	
2025-01-20 09:41:11.69	2.89	11.30	
2025-01-20 09:41:11.90	2.87	11.32	
2025-01-20 09:41:12.10	2.85	11.33	
2025-01-20 09:41:12.30	2.83	11.35	
2025-01-20 09:41:12.51	2.80	11.37	
2025-01-20 09:41:12.71	2.78	11.39	
2025-01-20 09:41:12.91	2.76	11.40	
2025-01-20 09:41:13.11	2.74	11.42	
2025-01-20 09:41:13.32	2.71	11.44	
2025-01-20 09:41:13.52	2.69	11.45	
2025-01-20 09:41:13.72	2.67	11.47	
2025-01-20 09:41:13.93	2.64	11.49	
2025-01-20 09:41:14.13	2.62	11.51	
2025-01-20 09:41:14.33	2.60	11.52	
2025-01-20 09:41:14.54	2.58	11.54	
2025-01-20 09:41:14.74	2.55	11.56	
2025-01-20 09:41:14.94	2.53	11.57	
2025-01-20 09:41:15.15	2.51	11.59	
2025-01-20 09:41:15.35	2.48	11.61	
2025-01-20 09:41:15.55	2.46	11.63	
2025-01-20 09:41:15.75	2.44	11.64	
2025-01-20 09:41:15.96	2.41	11.66	
2025-01-20 09:41:16.16	2.39	11.68	
2025-01-20 09:41:16.36	2.37	11.69	
2025-01-20 09:41:16.57	2.35	11.71	
2025-01-20 09:41:16.77	2.32	11.73	
2025-01-20 09:41:16.97	2.30	11.75	
2025-01-20 09:41:17.18	2.28	11.76	
2025-01-20 09:41:17.38	2.25	11.78	
2025-01-20 09:41:17.58	2.23	11.80	
2025-01-20 09:41:17.79	2.21	11.82	
2025-01-20 09:41:17.99	2.18	11.83	
2025-01-20 09:41:18.19	2.16	11.85	
2025-01-20 09:41:18.39	2.14	11.87	
2025-01-20 09:41:18.60	2.11	11.89	
2025-01-20 09:41:18.80	2.09	11.90	
2025-01-20 09:41:19.00	2.07	11.92	
2025-01-20 09:41:19.21	2.04	11.94	
2025-01-20 09:41:19.41	2.02	11.96	
2025-01-20 09:41:19.61	1.99	11.97	
2025-01-20 09:41:19.82	1.97	11.99	
2025-01-20 09:41:20.02	1.95	12.01	
2025-01-20 09:41:20.22	1.92	12.02	
2025-01-20 09:41:20.43	1.90	12.04	
2025-01-20 09:41:20.63	1.88	12.06	
2025-01-20 09:41:20.83	1.85	12.08	
2025-01-20 09:41:21.03	1.83	12.09	
2025-01-20 09:41:21.24	1.80	12.11	
2025-01-20 09:41:21.44	1.78	12.13	
2025-01-20 09:41:21.64	1.76	12.15	
2025-01-20 09:41:21.85	1.73	12.17	
2025-01-20 09:41:22.05	1.71	12.18	
2025-01-20 09:41:22.25	1.69	12.20	
2025-01-20 09:41:22.46	1.66	12.22	
2025-01-20 09:41:22.66	1.64	12.24	
2025-01-20 09:41:22.86	1.61	12.25	
2025-01-20 09:41:23.07	1.59	12.27	
2025-01-20 09:41:23.27	1.56	12.29	
2025-01-20 09:41:23.47	1.54	12.31	
2025-01-20 09:41:23.67	1.52	12.32	
2025-01-20 09:41:23.88	1.49	12.34	
2025-01-20 09:41:24.08	1.47	12.36	
2025-01-20 09:41:24.28	1.44	12.38	
2025-01-20 09:41:24.49	1.42	12.39	
2025-01-20 09:41:24.69	1.39	12.41	
2025-01-20 09:41:24.89	1.37	12.43	
2025-01-20 09:41:25.10	1.34	12.45	
2025-01-20 09:41:25.30	1.32	12.46	
2025-01-20 09:41:25.50	1.30	12.48	
2025-01-20 09:41:25.71	1.27	12.50	
2025-01-20 09:41:25.91	1.25	12.52	
2025-01-20 09:41:26.11	1.22	12.53	
2025-01-20 09:41:26.31	1.20	12.55	
2025-01-20 09:41:26.52	1.17	12.57	
2025-01-20 09:41:26.72	1.15	12.59	
2025-01-20 09:41:26.92	1.12	12.61	
2025-01-20 09:41:27.13	1.10	12.62	
2025-01-20 09:41:27.33	1.07	12.64	
2025-01-20 09:41:27.53	1.05	12.66	
2025-01-20 09:41:27.74	1.02	12.68	
2025-01-20 09:41:27.94	1.00	12.69	
2025-01-20 09:41:28.14	0.97	12.71	
2025-01-20 09:41:28.35	0.95	12.73	
2025-01-20 09:41:28.55	0.92	12.75	
2025-01-20 09:41:28.75	0.90	12.77	
2025-01-20 09:41:28.95	0.87	12.78	
2025-01-20 09:41:29.16	0.85	12.80	
2025-01-20 09:41:29.36	0.82	12.82	
2025-01-20 09:41:29.56	0.80	12.84	
2025-01-20 09:41:29.77	0.77	12.86	
2025-01-20 09:41:29.97	0.75	12.87	
2025-01-20 09:41:30.17	0.72	12.89	
2025-01-20 09:41:30.38	0.70	12.91	
2025-01-20 09:41:30.58	0.67	12.93	
2025-01-20 09:41:30.78	0.65	12.94	
2025-01-20 09:41:30.99	0.62	12.96	
2025-01-20 09:41:31.19	0.60	12.98	
2025-01-20 09:41:31.39	0.57	13.00	
2025-01-20 09:41:31.59	0.55	13.02	
2025-01-20 09:41:31.80	0.52	13.03	
2025-01-20 09:41:32.00	0.49	13.05	
2025-01-20 09:41:32.20	0.47	13.07	
2025-01-20 09:41:32.41	0.44	13.09	
2025-01-20 09:41:32.61	0.42	13.11	
2025-01-20 09:41:32.81	0.39	13.12	
2025-01-20 09:41:33.02	0.37	13.14	
2025-01-20 09:41:33.22	0.34	13.16	
2025-01-20 09:41:33.42	0.31	13.18	
2025-01-20 09:41:33.63	0.29	13.20	
2025-01-20 09:41:33.83	0.26	13.21	
2025-01-20 09:41:34.03	0.24	13.23	
2025-01-20 09:41:34.23	0.21	13.25	
2025-01-20 09:41:34.44	0.18	13.27	
2025-01-20 09:41:34.64	0.16	13.29	
2025-01-20 09:41:34.84	0.13	13.30	
2025-01-20 09:41:35.05	0.11	13.32	
2025-01-20 09:41:35.25	0.08	13.34	
2025-01-20 09:41:35.45	0.05	13.36	
2025-01-20 09:41:35.66	0.03	13.38	
2025-01-20 09:41:35.86	0.00	13.40	
2025-01-20 09:41:36.06	359.98	13.41	
2025-01-20 09:41:36.27	359.95	13.43	
2025-01-20 09:41:36.47	359.92	13.45	
2025-01-20 09:41:36.67	359.90	13.47	
2025-01-20 09:41:36.87	359.87	13.49	
2025-01-20 09:41:37.08	359.84	13.51	
2025-01-20 09:41:37.28	359.82	13.52	
2025-01-20 09:41:37.48	359.79	13.54	
2025-01-20 09:41:37.69	359.76	13.56	
2025-01-20 09:41:37.89	359.74	13.58	
2025-01-20 09:41:38.09	359.71	13.60	
2025-01-20 09:41:38.30	359.68	13.61	
2025-01-20 09:41:38.50	359.66	13.63	
2025-01-20 09:41:38.70	359.63	13.65	
2025-01-20 09:41:38.91	359.60	13.67	
2025-01-20 09:41:39.11	359.58	13.69	
2025-01-20 09:41:39.31	359.55	13.71	
2025-01-20 09:41:39.51	359.52	13.72	
2025-01-20 09:41:39.72	359.50	13.74	
2025-01-20 09:41:39.92	359.47	13.76	
2025-01-20 09:41:40.12	359.44	13.78	
2025-01-20 09:41:40.33	359.41	13.80	
2025-01-20 09:41:40.53	359.39	13.82	
2025-01-20 09:41:40.73	359.36	13.83	
2025-01-20 09:41:40.94	359.33	13.85	
2025-01-20 09:41:41.14	359.31	13.87	
2025-01-20 09:41:41.34	359.28	13.89	
2025-01-20 09:41:41.55	359.25	13.91	
2025-01-20 09:41:41.75	359.22	13.93	
2025-01-20 09:41:41.95	359.20	13.94	
2025-01-20 09:41:42.15	359.17	13.96	
2025-01-20 09:41:42.36	359.14	13.98	
2025-01-20 09:41:42.56	359.11	14.00	
2025-01-20 09:41:42.76	359.09	14.02	
2025-01-20 09:41:42.97	359.06	14.04	
2025-01-20 09:41:43.17	359.03	14.06	
2025-01-20 09:41:43.37	359.00	14.07	
2025-01-20 09:41:43.58	358.98	14.09	
2025-01-20 09:41:43.78	358.95	14.11	
2025-01-20 09:41:43.98	358.92	14.13	
2025-01-20 09:41:44.19	358.89	14.15	
2025-01-20 09:41:44.39	358.87	14.17	
2025-01-20 09:41:44.59	358.84	14.19	
2025-01-20 09:41:44.79	358.81	14.20	
2025-01-20 09:41:45.00	358.78	14.22	
2025-01-20 09:41:45.20	358.75	14.24	
2025-01-20 09:41:45.40	358.73	14.26	
2025-01-20 09:41:45.61	358.70	14.28	
2025-01-20 09:41:45.81	358.67	14.30	
2025-01-20 09:41:46.01	358.64	14.32	
2025-01-20 09:41:46.22	358.61	14.33	
2025-01-20 09:41:46.42	358.59	14.35	
2025-01-20 09:41:46.62	358.56	14.37	
2025-01-20 09:41:46.83	358.53	14.39	
2025-01-20 09:41:47.03	358.50	14.41	
2025-01-20 09:41:47.23	358.47	14.43	
2025-01-20 09:41:47.43	358.44	14.45	
2025-01-20 09:41:47.64	358.42	14.46	
2025-01-20 09:41:47.84	358.39	14.48	
2025-01-20 09:41:48.04	358.36	14.50	
2025-01-20 09:41:48.25	358.33	14.52	
2025-01-20 09:41:48.45	358.30	14.54	
2025-01-20 09:41:48.65	358.27	14.56	
2025-01-20 09:41:48.86	358.24	14.58	
2025-01-20 09:41:49.06	358.22	14.60	
2025-01-20 09:41:49.26	358.19	14.61	
2025-01-20 09:41:49.47	358.16	14.63	
2025-01-20 09:41:49.67	358.13	14.65	
2025-01-20 09:41:49.87	358.10	14.67	
2025-01-20 09:41:50.07	358.07	14.69	
2025-01-20 09:41:50.28	358.04	14.71	
2025-01-20 09:41:50.48	358.01	14.73	
2025-01-20 09:41:50.68	357.99	14.75	
2025-01-20 09:41:50.89	357.96	14.77	
2025-01-20 09:41:51.09	357.93	14.78	
2025-01-20 09:41:51.29	357.90	14.80	
2025-01-20 09:41:51.50	357.87	14.82	
2025-01-20 09:41:51.70	357.84	14.84	
2025-01-20 09:41:51.90	357.81	14.86	
2025-01-20 09:41:52.11	357.78	14.88	
2025-01-20 09:41:52.31	357.75	14.90	
2025-01-20 09:41:52.51	357.72	14.92	
2025-01-20 09:41:52.71	357.69	14.93	
2025-01-20 09:41:52.92	357.66	14.95	
2025-01-20 09:41:53.12	357.63	14.97	
2025-01-20 09:41:53.32	357.60	14.99	
2025-01-20 09:41:53.53	357.57	15.01	
2025-01-20 09:41:53.73	357.54	15.03	
2025-01-20 09:41:53.93	357.52	15.05	
2025-01-20 09:41:54.14	357.48	15.07	
2025-01-20 09:41:54.34	357.46	15.09	
2025-01-20 09:41:54.54	357.43	15.11	
2025-01-20 09:41:54.75	357.40	15.12	
2025-01-20 09:41:54.95	357.37	15.14	
2025-01-20 09:41:55.15	357.34	15.16	
2025-01-20 09:41:55.35	357.31	15.18	
2025-01-20 09:41:55.56	357.28	15.20	
2025-01-20 09:41:55.76	357.25	15.22	
2025-01-20 09:41:55.96	357.22	15.24	
2025-01-20 09:41:56.17	357.19	15.26	
2025-01-20 09:41:56.37	357.16	15.28	
2025-01-20 09:41:56.57	357.13	15.30	
2025-01-20 09:41:56.78	357.10	15.32	
2025-01-20 09:41:56.98	357.07	15.33	
2025-01-20 09:41:57.18	357.04	15.35	
2025-01-20 09:41:57.39	357.00	15.37	
2025-01-20 09:41:57.59	356.97	15.39	
2025-01-20 09:41:57.79	356.94	15.41	
2025-01-20 09:41:57.99	356.91	15.43	
2025-01-20 09:41:58.20	356.88	15.45	
2025-01-20 09:41:58.40	356.85	15.47	
2025-01-20 09:41:58.60	356.82	15.49	
2025-01-20 09:41:58.81	356.79	15.51	
2025-01-20 09:41:59.01	356.76	15.53	
2025-01-20 09:41:59.21	356.73	15.54	
2025-01-20 09:41:59.42	356.70	15.56	
2025-01-20 09:41:59.62	356.67	15.58	
2025-01-20 09:41:59.82	356.64	15.60	
2025-01-20 09:42:00.03	356.61	15.62	
2025-01-20 09:42:00.23	356.57	15.64	
2025-01-20 09:42:00.43	356.54	15.66	
2025-01-20 09:42:00.63	356.51	15.68	
2025-01-20 09:42:00.84	356.48	15.70	
2025-01-20 09:42:01.04	356.45	15.72	
2025-01-20 09:42:01.24	356.42	15.74	
2025-01-20 09:42:01.45	356.39	15.76	
2025-01-20 09:42:01.65	356.36	15.78	
2025-01-20 09:42:01.85	356.33	15.79	
2025-01-20 09:42:02.06	356.29	15.81	
2025-01-20 09:42:02.26	356.26	15.83	
2025-01-20 09:42:02.46	356.23	15.85	
2025-01-20 09:42:02.67	356.20	15.87	
2025-01-20 09:42:02.87	356.17	15.89	
2025-01-20 09:42:03.07	356.14	15.91	
2025-01-20 09:42:03.27	356.11	15.93	
2025-01-20 09:42:03.48	356.07	15.95	
2025-01-20 09:42:03.68	356.04	15.97	
2025-01-20 09:42:03.88	356.01	15.99	
2025-01-20 09:42:04.09	355.98	16.01	
2025-01-20 09:42:04.29	355.95	16.03	
2025-01-20 09:42:04.49	355.92	16.05	
2025-01-20 09:42:04.70	355.88	16.07	
2025-01-20 09:42:04.90	355.85	16.09	
2025-01-20 09:42:05.10	355.82	16.10	
2025-01-20 09:42:05.31	355.79	16.12	
2025-01-20 09:42:05.51	355.75	16.14	
2025-01-20 09:42:05.71	355.72	16.16	
2025-01-20 09:42:05.91	355.69	16.18	
2025-01-20 09:42:06.12	355.66	16.20	
2025-01-20 09:42:06.32	355.63	16.22	
2025-01-20 09:42:06.52	355.59	16.24	
2025-01-20 09:42:06.73	355.56	16.26	
2025-01-20 09:42:06.93	355.53	16.28	
2025-01-20 09:42:07.13	355.50	16.30	
2025-01-20 09:42:07.34	355.46	16.32	
2025-01-20 09:42:07.54	355.43	16.34	
2025-01-20 09:42:07.74	355.40	16.36	
2025-01-20 09:42:07.95	355.36	16.38	
2025-01-20 09:42:08.15	355.33	16.40	
2025-01-20 09:42:08.35	355.30	16.42	
2025-01-20 09:42:08.55	355.27	16.44	
2025-01-20 09:42:08.76	355.23	16.46	
2025-01-20 09:42:08.96	355.20	16.48	
2025-01-20 09:42:09.16	355.17	16.49	
2025-01-20 09:42:09.37	355.14	16.52	
2025-01-20 09:42:09.57	355.10	16.53	
2025-01-20 09:42:09.77	355.07	16.55	
2025-01-20 09:42:09.98	355.04	16.57	
2025-01-20 09:42:10.18	355.00	16.59	
2025-01-20 09:42:10.38	354.97	16.61	
2025-01-20 09:42:10.59	354.94	16.63	
2025-01-20 09:42:10.79	354.90	16.65	
2025-01-20 09:42:10.99	354.87	16.67	
2025-01-20 09:42:11.19	354.84	16.69	
2025-01-20 09:42:11.40	354.80	16.71	
2025-01-20 09:42:11.60	354.77	16.73	
2025-01-20 09:42:11.80	354.74	16.75	
2025-01-20 09:42:12.01	354.70	16.77	
2025-01-20 09:42:12.21	354.67	16.79	
2025-01-20 09:42:12.41	354.64	16.81	
2025-01-20 09:42:12.62	354.60	16.83	
2025-01-20 09:42:12.82	354.57	16.85	
2025-01-20 09:42:13.02	354.53	16.87	
2025-01-20 09:42:13.23	354.50	16.89	
2025-01-20 09:42:13.43	354.47	16.91	
2025-01-20 09:42:13.63	354.43	16.93	
2025-01-20 09:42:13.83	354.40	16.95	
2025-01-20 09:42:14.04	354.36	16.97	
2025-01-20 09:42:14.24	354.33	16.99	
2025-01-20 09:42:14.44	354.30	17.01	
2025-01-20 09:42:14.65	354.26	17.03	
2025-01-20 09:42:14.85	354.23	17.05	
2025-01-20 09:42:15.05	354.19	17.07	
2025-01-20 09:42:15.26	354.16	17.09	
2025-01-20 09:42:15.46	354.12	17.11	
2025-01-20 09:42:15.66	354.09	17.13	
2025-01-20 09:42:15.87	354.05	17.15	
2025-01-20 09:42:16.07	354.02	17.17	
2025-01-20 09:42:16.27	353.99	17.19	
2025-01-20 09:42:16.47	353.95	17.21	
2025-01-20 09:42:16.68	353.92	17.23	
2025-01-20 09:42:16.88	353.88	17.25	
2025-01-20 09:42:17.08	353.85	17.27	
2025-01-20 09:42:17.29	353.81	17.29	
2025-01-20 09:42:17.49	353.78	17.31	
2025-01-20 09:42:17.69	353.74	17.33	
2025-01-20 09:42:17.90	353.71	17.35	
2025-01-20 09:42:18.10	353.67	17.37	
2025-01-20 09:42:18.30	353.64	17.39	
2025-01-20 09:42:18.51	353.60	17.41	
2025-01-20 09:42:18.71	353.57	17.43	
2025-01-20 09:42:18.91	353.53	17.45	
2025-01-20 09:42:19.11	353.50	17.46	
2025-01-20 09:42:19.32	353.46	17.49	
2025-01-20 09:42:19.52	353.43	17.51	
2025-01-20 09:42:19.72	353.39	17.52	
2025-01-20 09:42:19.93	353.35	17.55	
2025-01-20 09:42:20.13	353.32	17.57	
2025-01-20 09:42:20.33	353.28	17.58	
2025-01-20 09:42:20.54	353.25	17.61	
2025-01-20 09:42:20.74	353.21	17.63	
2025-01-20 09:42:20.94	353.18	17.65	
2025-01-20 09:42:21.15	353.14	17.67	
2025-01-20 09:42:21.35	353.10	17.69	
2025-01-20 09:42:21.55	353.07	17.71	
2025-01-20 09:42:21.75	353.03	17.73	
2025-01-20 09:42:21.96	353.00	17.75	
2025-01-20 09:42:22.16	352.96	17.77	
2025-01-20 09:42:22.36	352.92	17.79	
2025-01-20 09:42:22.57	352.89	17.81	
2025-01-20 09:42:22.77	352.85	17.83	
2025-01-20 09:42:22.97	352.82	17.85	
2025-01-20 09:42:23.18	352.78	17.87	
2025-01-20 09:42:23.38	352.74	17.89	
2025-01-20 09:42:23.58	352.71	17.91	
2025-01-20 09:42:23.79	352.67	17.93	
2025-01-20 09:42:23.99	352.63	17.95	
2025-01-20 09:42:24.19	352.60	17.97	
2025-01-20 09:42:24.39	352.56	17.99	
2025-01-20 09:42:24.60	352.52	18.01	
2025-01-20 09:42:24.80	352.49	18.03	
2025-01-20 09:42:25.00	352.45	18.05	
2025-01-20 09:42:25.21	352.41	18.07	
2025-01-20 09:42:25.41	352.38	18.09	
2025-01-20 09:42:25.61	352.34	18.11	
2025-01-20 09:42:25.82	352.30	18.13	
2025-01-20 09:42:26.02	352.26	18.15	
2025-01-20 09:42:26.22	352.23	18.17	
2025-01-20 09:42:26.43	352.19	18.19	
2025-01-20 09:42:26.63	352.15	18.21	
2025-01-20 09:42:26.83	352.12	18.23	
2025-01-20 09:42:27.03	352.08	18.25	
2025-01-20 09:42:27.24	352.04	18.27	
2025-01-20 09:42:27.44	352.00	18.29	
2025-01-20 09:42:27.64	351.97	18.31	
2025-01-20 09:42:27.85	351.93	18.33	
2025-01-20 09:42:28.05	351.89	18.35	
2025-01-20 09:42:28.25	351.85	18.37	
2025-01-20 09:42:28.46	351.81	18.39	
2025-01-20 09:42:28.66	351.78	18.41	
2025-01-20 09:42:28.86	351.74	18.43	
2025-01-20 09:42:29.07	351.70	18.45	
2025-01-20 09:42:29.27	351.66	18.47	
2025-01-20 09:42:29.47	351.63	18.49	
2025-01-20 09:42:29.67	351.59	18.51	
2025-01-20 09:42:29.88	351.55	18.53	
2025-01-20 09:42:30.08	351.51	18.55	
2025-01-20 09:42:30.28	351.47	18.57	
2025-01-20 09:42:30.49	351.43	18.59	
2025-01-20 09:42:30.69	351.40	18.61	
2025-01-20 09:42:30.89	351.36	18.63	
2025-01-20 09:42:31.10	351.32	18.66	
2025-01-20 09:42:31.30	351.28	18.68	
2025-01-20 09:42:31.50	351.24	18.70	
2025-01-20 09:42:31.71	351.20	18.72	
2025-01-20 09:42:31.91	351.17	18.74	
2025-01-20 09:42:32.11	351.13	18.76	
2025-01-20 09:42:32.31	351.09	18.78	
2025-01-20 09:42:32.52	351.05	18.80	
2025-01-20 09:42:32.72	351.01	18.82	
2025-01-20 09:42:32.92	350.97	18.84	
2025-01-20 09:42:33.13	350.93	18.86	
2025-01-20 09:42:33.33	350.89	18.88	
2025-01-20 09:42:33.53	350.86	18.90	
2025-01-20 09:42:33.74	350.81	18.92	
2025-01-20 09:42:33.94	350.78	18.94	
2025-01-20 09:42:34.14	350.74	18.96	
2025-01-20 09:42:34.35	350.70	18.98	
2025-01-20 09:42:34.55	350.66	19.00	
2025-01-20 09:42:34.75	350.62	19.02	
2025-01-20 09:42:34.95	350.58	19.04	
2025-01-20 09:42:35.16	350.54	19.06	
2025-01-20 09:42:35.36	350.50	19.08	
2025-01-20 09:42:35.56	350.46	19.10	
2025-01-20 09:42:35.77	350.42	19.12	
2025-01-20 09:42:35.97	350.38	19.15	
2025-01-20 09:42:36.17	350.34	19.17	
2025-01-20 09:42:36.38	350.30	19.19	
2025-01-20 09:42:36.58	350.26	19.21	
2025-01-20 09:42:36.78	350.22	19.23	
2025-01-20 09:42:36.99	350.18	19.25	
2025-01-20 09:42:37.19	350.14	19.27	
2025-01-20 09:42:37.39	350.10	19.29	
2025-01-20 09:42:37.59	350.06	19.31	
2025-01-20 09:42:37.80	350.02	19.33	
2025-01-20 09:42:38.00	349.98	19.35	
2025-01-20 09:42:38.20	349.94	19.37	
2025-01-20 09:42:38.41	349.90	19.39	
2025-01-20 09:42:38.61	349.86	19.41	
2025-01-20 09:42:38.81	349.82	19.43	
2025-01-20 09:42:39.02	349.78	19.45	
2025-01-20 09:42:39.22	349.74	19.47	
2025-01-20 09:42:39.42	349.70	19.49	
2025-01-20 09:42:39.63	349.65	19.51	
2025-01-20 09:42:39.83	349.61	19.53	
2025-01-20 09:42:40.03	349.57	19.56	
2025-01-20 09:42:40.23	349.53	19.58	
2025-01-20 09:42:40.44	349.49	19.60	
2025-01-20 09:42:40.64	349.45	19.62	
2025-01-20 09:42:40.84	349.41	19.64	
2025-01-20 09:42:41.05	349.37	19.66	
2025-01-20 09:42:41.25	349.33	19.68	
2025-01-20 09:42:41.45	349.29	19.70	
2025-01-20 09:42:41.66	349.24	19.72	
2025-01-20 09:42:41.86	349.20	19.74	
2025-01-20 09:42:42.06	349.16	19.76	
2025-01-20 09:42:42.27	349.12	19.78	
2025-01-20 09:42:42.47	349.08	19.80	
2025-01-20 09:42:42.67	349.04	19.82	
2025-01-20 09:42:42.87	349.00	19.84	
2025-01-20 09:42:43.08	348.95	19.86	
2025-01-20 09:42:43.28	348.91	19.88	
2025-01-20 09:42:43.48	348.87	19.90	
2025-01-20 09:42:43.69	348.83	19.93	
2025-01-20 09:42:43.89	348.78	19.95	
2025-01-20 09:42:44.09	348.74	19.97	
2025-01-20 09:42:44.30	348.70	19.99	
2025-01-20 09:42:44.50	348.66	20.01	
2025-01-20 09:42:44.70	348.62	20.03	
2025-01-20 09:42:44.91	348.57	20.05	
2025-01-20 09:42:45.11	348.53	20.07	
2025-01-20 09:42:45.31	348.49	20.09	
2025-01-20 09:42:45.51	348.45	20.11	
2025-01-20 09:42:45.72	348.40	20.13	
2025-01-20 09:42:45.92	348.36	20.15	
2025-01-20 09:42:46.12	348.32	20.17	
2025-01-20 09:42:46.33	348.27	20.19	
2025-01-20 09:42:46.53	348.23	20.21	
2025-01-20 09:42:46.73	348.19	20.24	
2025-01-20 09:42:46.94	348.15	20.26	
2025-01-20 09:42:47.14	348.10	20.28	
2025-01-20 09:42:47.34	348.06	20.30	
2025-01-20 09:42:47.55	348.02	20.32	
2025-01-20 09:42:47.75	347.97	20.34	
2025-01-20 09:42:47.95	347.93	20.36	
2025-01-20 09:42:48.15	347.89	20.38	
2025-01-20 09:42:48.36	347.84	20.40	
2025-01-20 09:42:48.56	347.80	20.42	
2025-01-20 09:42:48.76	347.76	20.44	
2025-01-20 09:42:48.97	347.71	20.46	
2025-01-20 09:42:49.17	347.67	20.48	
2025-01-20 09:42:49.37	347.63	20.50	
2025-01-20 09:42:49.58	347.58	20.53	
2025-01-20 09:42:49.78	347.54	20.55	
2025-01-20 09:42:49.98	347.49	20.57	
2025-01-20 09:42:50.19	347.45	20.59	
2025-01-20 09:42:50.39	347.41	20.61	
2025-01-20 09:42:50.59	347.36	20.63	
2025-01-20 09:42:50.79	347.32	20.65	
2025-01-20 09:42:51.00	347.27	20.67	
2025-01-20 09:42:51.20	347.23	20.69	
2025-01-20 09:42:51.40	347.19	20.71	
2025-01-20 09:42:51.61	347.14	20.73	
2025-01-20 09:42:51.81	347.10	20.75	
2025-01-20 09:42:52.01	347.05	20.77	
2025-01-20 09:42:52.22	347.01	20.79	
2025-01-20 09:42:52.42	346.96	20.81	
2025-01-20 09:42:52.62	346.92	20.83	
2025-01-20 09:42:52.83	346.87	20.86	
2025-01-20 09:42:53.03	346.83	20.88	
2025-01-20 09:42:53.23	346.78	20.90	
2025-01-20 09:42:53.43	346.74	20.92	
2025-01-20 09:42:53.64	346.69	20.94	
2025-01-20 09:42:53.84	346.65	20.96	
2025-01-20 09:42:54.04	346.60	20.98	
2025-01-20 09:42:54.25	346.56	21.00	
2025-01-20 09:42:54.45	346.51	21.02	
2025-01-20 09:42:54.65	346.47	21.04	
2025-01-20 09:42:54.86	346.42	21.06	
2025-01-20 09:42:55.06	346.37	21.08	
2025-01-20 09:42:55.26	346.33	21.10	
2025-01-20 09:42:55.47	346.28	21.13	
2025-01-20 09:42:55.67	346.24	21.15	
2025-01-20 09:42:55.87	346.19	21.17	
2025-01-20 09:42:56.07	346.15	21.19	
2025-01-20 09:42:56.28	346.10	21.21	
2025-01-20 09:42:56.48	346.05	21.23	
2025-01-20 09:42:56.68	346.01	21.25	
2025-01-20 09:42:56.89	345.96	21.27	
2025-01-20 09:42:57.09	345.92	21.29	
2025-01-20 09:42:57.29	345.87	21.31	
2025-01-20 09:42:57.50	345.82	21.33	
2025-01-20 09:42:57.70	345.78	21.35	
2025-01-20 09:42:57.90	345.73	21.37	
2025-01-20 09:42:58.11	345.68	21.39	
2025-01-20 09:42:58.31	345.64	21.41	
2025-01-20 09:42:58.51	345.59	21.44	
2025-01-20 09:42:58.71	345.55	21.46	
2025-01-20 09:42:58.92	345.50	21.48	
2025-01-20 09:42:59.12	345.45	21.50	
2025-01-20 09:42:59.32	345.40	21.52	
2025-01-20 09:42:59.53	345.36	21.54	
2025-01-20 09:42:59.73	345.31	21.56	
2025-01-20 09:42:59.93	345.26	21.58	
2025-01-20 09:43:00.14	345.21	21.60	
2025-01-20 09:43:00.34	345.17	21.62	
2025-01-20 09:43:00.54	345.12	21.64	
2025-01-20 09:43:00.75	345.07	21.66	
2025-01-20 09:43:00.95	345.03	21.68	
2025-01-20 09:43:01.15	344.98	21.70	
2025-01-20 09:43:01.35	344.93	21.72	
2025-01-20 09:43:01.56	344.88	21.75	
2025-01-20 09:43:01.76	344.84	21.77	
2025-01-20 09:43:01.96	344.79	21.79	
2025-01-20 09:43:02.17	344.74	21.81	
2025-01-20 09:43:02.37	344.69	21.83	
2025-01-20 09:43:02.57	344.64	21.85	
2025-01-20 09:43:02.78	344.59	21.87	
2025-01-20 09:43:02.98	344.55	21.89	
2025-01-20 09:43:03.18	344.50	21.91	
2025-01-20 09:43:03.39	344.45	21.93	
2025-01-20 09:43:03.59	344.40	21.95	
2025-01-20 09:43:03.79	344.35	21.97	
2025-01-20 09:43:03.99	344.31	21.99	
2025-01-20 09:43:04.20	344.26	22.01	
2025-01-20 09:43:04.40	344.21	22.03	
2025-01-20 09:43:04.60	344.16	22.06	
2025-01-20 09:43:04.81	344.11	22.08	
2025-01-20 09:43:05.01	344.06	22.10	
2025-01-20 09:43:05.21	344.01	22.12	
2025-01-20 09:43:05.42	343.96	22.14	
2025-01-20 09:43:05.62	343.92	22.16	
2025-01-20 09:43:05.82	343.87	22.18	
2025-01-20 09:43:06.03	343.82	22.20	
2025-01-20 09:43:06.23	343.77	22.22	
2025-01-20 09:43:06.43	343.72	22.24	
2025-01-20 09:43:06.63	343.67	22.26	
2025-01-20 09:43:06.84	343.62	22.28	
2025-01-20 09:43:07.04	343.57	22.30	
2025-01-20 09:43:07.24	343.52	22.32	
2025-01-20 09:43:07.45	343.47	22.34	
2025-01-20 09:43:07.65	343.42	22.36	
2025-01-20 09:43:07.85	343.37	22.38	
2025-01-20 09:43:08.06	343.32	22.41	
2025-01-20 09:43:08.26	343.27	22.43	
2025-01-20 09:43:08.46	343.22	22.45	
2025-01-20 09:43:08.67	343.17	22.47	
2025-01-20 09:43:08.87	343.12	22.49	
2025-01-20 09:43:09.07	343.07	22.51	
2025-01-20 09:43:09.27	343.02	22.53	
2025-01-20 09:43:09.48	342.97	22.55	
2025-01-20 09:43:09.68	342.92	22.57	
2025-01-20 09:43:09.88	342.87	22.59	
2025-01-20 09:43:10.09	342.82	22.61	
2025-01-20 09:43:10.29	342.77	22.63	
2025-01-20 09:43:10.49	342.72	22.65	
2025-01-20 09:43:10.70	342.67	22.67	
2025-01-20 09:43:10.90	342.62	22.69	
2025-01-20 09:43:11.10	342.57	22.71	
2025-01-20 09:43:11.31	342.51	22.73	
2025-01-20 09:43:11.51	342.46	22.75	
2025-01-20 09:43:11.71	342.41	22.77	
2025-01-20 09:43:11.91	342.36	22.80	
2025-01-20 09:43:12.12	342.31	22.82	
2025-01-20 09:43:12.32	342.26	22.84	
2025-01-20 09:43:12.52	342.21	22.86	
2025-01-20 09:43:12.73	342.16	22.88	
2025-01-20 09:43:12.93	342.10	22.90	
2025-01-20 09:43:13.13	342.05	22.92	
2025-01-20 09:43:13.34	342.00	22.94	
2025-01-20 09:43:13.54	341.95	22.96	
2025-01-20 09:43:13.74	341.90	22.98	
2025-01-20 09:43:13.95	341.84	23.00	
2025-01-20 09:43:14.15	341.79	23.02	
2025-01-20 09:43:14.35	341.74	23.04	
2025-01-20 09:43:14.55	341.69	23.06	
2025-01-20 09:43:14.76	341.64	23.08	
2025-01-20 09:43:14.96	341.59	23.10	
2025-01-20 09:43:15.16	341.53	23.12	
2025-01-20 09:43:15.37	341.48	23.14	
2025-01-20 09:43:15.57	341.43	23.16	
2025-01-20 09:43:15.77	341.38	23.18	
2025-01-20 09:43:15.98	341.32	23.20	
2025-01-20 09:43:16.18	341.27	23.22	
2025-01-20 09:43:16.38	341.22	23.24	
2025-01-20 09:43:16.59	341.16	23.26	
2025-01-20 09:43:16.79	341.11	23.28	
2025-01-20 09:43:16.99	341.06	23.30	
2025-01-20 09:43:17.19	341.01	23.32	
2025-01-20 09:43:17.40	340.95	23.35	
2025-01-20 09:43:17.60	340.90	23.37	
2025-01-20 09:43:17.80	340.85	23.39	
2025-01-20 09:43:18.01	340.79	23.41	
2025-01-20 09:43:18.21	340.74	23.43	
2025-01-20 09:43:18.41	340.69	23.45	
2025-01-20 09:43:18.62	340.63	23.47	
2025-01-20 09:43:18.82	340.58	23.49	
2025-01-20 09:43:19.02	340.53	23.51	
2025-01-20 09:43:19.22	340.47	23.53	
2025-01-20 09:43:19.43	340.42	23.55	
2025-01-20 09:43:19.63	340.36	23.57	
2025-01-20 09:43:19.83	340.31	23.59	
2025-01-20 09:43:20.04	340.25	23.61	
2025-01-20 09:43:20.24	340.20	23.63	
2025-01-20 09:43:20.44	340.15	23.65	
2025-01-20 09:43:20.65	340.09	23.67	
2025-01-20 09:43:20.85	340.04	23.69	
2025-01-20 09:43:21.05	339.98	23.71	
2025-01-20 09:43:21.26	339.93	23.73	
2025-01-20 09:43:21.46	339.87	23.75	
2025-01-20 09:43:21.66	339.82	23.77	
2025-01-20 09:43:21.87	339.76	23.79	
2025-01-20 09:43:22.07	339.71	23.81	
2025-01-20 09:43:22.27	339.66	23.83	
2025-01-20 09:43:22.47	339.60	23.85	
2025-01-20 09:43:22.68	339.54	23.87	
2025-01-20 09:43:22.88	339.49	23.89	
2025-01-20 09:43:23.08	339.44	23.91	
2025-01-20 09:43:23.29	339.38	23.93	
2025-01-20 09:43:23.49	339.32	23.95	
2025-01-20 09:43:23.69	339.27	23.97	
2025-01-20 09:43:23.90	339.21	23.99	
2025-01-20 09:43:24.10	339.16	24.01	
2025-01-20 09:43:24.30	339.10	24.03	
2025-01-20 09:43:24.51	339.05	24.05	
2025-01-20 09:43:24.71	338.99	24.07	
2025-01-20 09:43:24.91	338.94	24.09	
2025-01-20 09:43:25.11	338.88	24.11	
2025-01-20 09:43:25.32	338.82	24.13	
2025-01-20 09:43:25.52	338.77	24.15	
2025-01-20 09:43:25.72	338.71	24.17	
2025-01-20 09:43:25.93	338.65	24.19	
2025-01-20 09:43:26.13	338.60	24.21	
2025-01-20 09:43:26.33	338.54	24.23	
2025-01-20 09:43:26.54	338.48	24.25	
2025-01-20 09:43:26.74	338.43	24.27	
2025-01-20 09:43:26.94	338.37	24.29	
2025-01-20 09:43:27.14	338.32	24.31	
2025-01-20 09:43:27.35	338.26	24.33	
2025-01-20 09:43:27.55	338.20	24.35	
2025-01-20 09:43:27.75	338.15	24.37	
2025-01-20 09:43:27.96	338.09	24.39	
2025-01-20 09:43:28.16	338.03	24.41	
2025-01-20 09:43:28.36	337.97	24.42	
2025-01-20 09:43:28.57	337.92	24.45	
2025-01-20 09:43:28.77	337.86	24.46	
2025-01-20 09:43:28.97	337.80	24.48	
2025-01-20 09:43:29.18	337.74	24.50	
2025-01-20 09:43:29.38	337.69	24.52	
2025-01-20 09:43:29.58	337.63	24.54	
2025-01-20 09:43:29.78	337.57	24.56	
2025-01-20 09:43:29.99	337.51	24.58	
2025-01-20 09:43:30.19	337.46	24.60	
2025-01-20 09:43:30.39	337.40	24.62	
2025-01-20 09:43:30.60	337.34	24.64	
2025-01-20 09:43:30.80	337.28	24.66	
2025-01-20 09:43:31.00	337.22	24.68	
2025-01-20 09:43:31.21	337.16	24.70	
2025-01-20 09:43:31.41	337.11	24.72	
2025-01-20 09:43:31.61	337.05	24.74	
2025-01-20 09:43:31.82	336.99	24.76	
2025-01-20 09:43:32.02	336.93	24.78	
2025-01-20 09:43:32.22	336.87	24.80	
2025-01-20 09:43:32.42	336.82	24.82	
2025-01-20 09:43:32.63	336.76	24.84	
2025-01-20 09:43:32.83	336.70	24.85	
2025-01-20 09:43:33.03	336.64	24.87	
2025-01-20 09:43:33.24	336.58	24.89	
2025-01-20 09:43:33.44	336.52	24.91	
2025-01-20 09:43:33.64	336.46	24.93	
2025-01-20 09:43:33.85	336.40	24.95	
2025-01-20 09:43:34.05	336.34	24.97	
2025-01-20 09:43:34.25	336.28	24.99	
2025-01-20 09:43:34.46	336.22	25.01	
2025-01-20 09:43:34.66	336.16	25.03	
2025-01-20 09:43:34.86	336.11	25.05	
2025-01-20 09:43:35.06	336.05	25.07	
2025-01-20 09:43:35.27	335.98	25.09	
2025-01-20 09:43:35.47	335.93	25.10	
2025-01-20 09:43:35.67	335.87	25.12	
2025-01-20 09:43:35.88	335.81	25.14	
2025-01-20 09:43:36.08	335.75	25.16	
2025-01-20 09:43:36.28	335.69	25.18	
2025-01-20 09:43:36.49	335.62	25.20	
2025-01-20 09:43:36.69	335.57	25.22	
2025-01-20 09:43:36.89	335.51	25.24	
2025-01-20 09:43:37.10	335.44	25.26	
2025-01-20 09:43:37.30	335.38	25.28	
2025-01-20 09:43:37.50	335.32	25.29	
2025-01-20 09:43:37.70	335.26	25.31	
2025-01-20 09:43:37.91	335.20	25.33	
2025-01-20 09:43:38.11	335.14	25.35	
2025-01-20 09:43:38.31	335.08	25.37	
2025-01-20 09:43:38.52	335.02	25.39	
2025-01-20 09:43:38.72	334.96	25.41	
2025-01-20 09:43:38.92	334.90	25.43	
2025-01-20 09:43:39.13	334.84	25.45	
2025-01-20 09:43:39.33	334.77	25.46	
2025-01-20 09:43:39.53	334.71	25.48	
2025-01-20 09:43:39.74	334.65	25.50	
2025-01-20 09:43:39.94	334.59	25.52	
2025-01-20 09:43:40.14	334.53	25.54	
2025-01-20 09:43:40.34	334.47	25.56	
2025-01-20 09:43:40.55	334.41	25.58	
2025-01-20 09:43:40.75	334.34	25.59	
2025-01-20 09:43:40.95	334.28	25.61	
2025-01-20 09:43:41.16	334.22	25.63	
2025-01-20 09:43:41.36	334.16	25.65	
2025-01-20 09:43:41.56	334.10	25.67	
2025-01-20 09:43:41.77	334.03	25.69	
2025-01-20 09:43:41.97	333.97	25.71	
2025-01-20 09:43:42.17	333.91	25.72	
2025-01-20 09:43:42.38	333.85	25.74	
2025-01-20 09:43:42.58	333.78	25.76	
2025-01-20 09:43:42.78	333.72	25.78	
2025-01-20 09:43:42.98	333.66	25.80	
2025-01-20 09:43:43.19	333.60	25.82	
2025-01-20 09:43:43.39	333.53	25.83	
2025-01-20 09:43:43.59	333.47	25.85	
2025-01-20 09:43:43.80	333.41	25.87	
2025-01-20 09:43:44.00	333.35	25.89	
2025-01-20 09:43:44.20	333.28	25.91	
2025-01-20 09:43:44.41	333.22	25.93	
2025-01-20 09:43:44.61	333.16	25.94	
2025-01-20 09:43:44.81	333.09	25.96	
2025-01-20 09:43:45.02	333.03	25.98	
2025-01-20 09:43:45.22	332.97	26.00	
2025-01-20 09:43:45.42	332.90	26.02	
2025-01-20 09:43:45.62	332.84	26.03	
2025-01-20 09:43:45.83	332.77	26.05	
2025-01-20 09:43:46.03	332.71	26.07	
2025-01-20 09:43:46.23	332.65	26.09	
2025-01-20 09:43:46.44	332.58	26.11	
2025-01-20 09:43:46.64	332.52	26.12	
2025-01-20 09:43:46.84	332.46	26.14	
2025-01-20 09:43:47.05	332.39	26.16	
2025-01-20 09:43:47.25	332.33	26.18	
2025-01-20 09:43:47.45	332.26	26.20	
2025-01-20 09:43:47.66	332.20	26.21	
2025-01-20 09:43:47.86	332.13	26.23	
2025-01-20 09:43:48.06	332.07	26.25	
2025-01-20 09:43:48.26	332.01	26.27	
2025-01-20 09:43:48.47	331.94	26.28	
2025-01-20 09:43:48.67	331.88	26.30	
2025-01-20 09:43:48.87	331.81	26.32	
2025-01-20 09:43:49.08	331.74	26.34	
2025-01-20 09:43:49.28	331.68	26.35	
2025-01-20 09:43:49.48	331.62	26.37	
2025-01-20 09:43:49.69	331.55	26.39	
2025-01-20 09:43:49.89	331.48	26.41	
2025-01-20 09:43:50.09	331.42	26.42	
2025-01-20 09:43:50.30	331.35	26.44	
2025-01-20 09:43:50.50	331.29	26.46	
2025-01-20 09:43:50.70	331.22	26.48	
2025-01-20 09:43:50.90	331.16	26.49	
2025-01-20 09:43:51.11	331.09	26.51	
2025-01-20 09:43:51.31	331.03	26.53	
2025-01-20 09:43:51.51	330.96	26.55	
2025-01-20 09:43:51.72	330.89	26.56	
2025-01-20 09:43:51.92	330.83	26.58	
2025-01-20 09:43:52.12	330.76	26.60	
2025-01-20 09:43:52.33	330.70	26.62	
2025-01-20 09:43:52.53	330.63	26.63	
2025-01-20 09:43:52.73	330.57	26.65	
2025-01-20 09:43:52.94	330.50	26.67	
2025-01-20 09:43:53.14	330.43	26.68	
2025-01-20 09:43:53.34	330.37	26.70	
2025-01-20 09:43:53.54	330.30	26.72	
2025-01-20 09:43:53.75	330.23	26.74	
2025-01-20 09:43:53.95	330.17	26.75	
2025-01-20 09:43:54.15	330.10	26.77	
2025-01-20 09:43:54.36	330.03	26.79	
2025-01-20 09:43:54.56	329.96	26.80	
2025-01-20 09:43:54.76	329.90	26.82	
2025-01-20 09:43:54.97	329.83	26.84	
2025-01-20 09:43:55.17	329.76	26.85	
2025-01-20 09:43:55.37	329.70	26.87	
2025-01-20 09:43:55.58	329.63	26.89	
2025-01-20 09:43:55.78	329.56	26.90	
2025-01-20 09:43:55.98	329.49	26.92	
2025-01-20 09:43:56.18	329.43	26.94	
2025-01-20 09:43:56.39	329.36	26.95	
2025-01-20 09:43:56.59	329.29	26.97	
2025-01-20 09:43:56.79	329.22	26.99	
2025-01-20 09:43:57.00	329.15	27.00	
2025-01-20 09:43:57.20	329.09	27.02	
2025-01-20 09:43:57.40	329.02	27.03	
2025-01-20 09:43:57.61	328.95	27.05	
2025-01-20 09:43:57.81	328.88	27.07	
2025-01-20 09:43:58.01	328.82	27.08	
2025-01-20 09:43:58.22	328.75	27.10	
2025-01-20 09:43:58.42	328.68	27.12	
2025-01-20 09:43:58.62	328.61	27.13	
2025-01-20 09:43:58.82	328.54	27.15	
2025-01-20 09:43:59.03	328.47	27.17	
2025-01-20 09:43:59.23	328.41	27.18	
2025-01-20 09:43:59.43	328.34	27.20	
2025-01-20 09:43:59.64	328.27	27.21	
2025-01-20 09:43:59.84	328.20	27.23	
2025-01-20 09:44:00.04	328.13	27.25	
2025-01-20 09:44:00.25	328.06	27.26	
2025-01-20 09:44:00.45	327.99	27.28	
2025-01-20 09:44:00.65	327.92	27.29	
2025-01-20 09:44:00.86	327.85	27.31	
2025-01-20 09:44:01.06	327.78	27.32	
2025-01-20 09:44:01.26	327.72	27.34	
2025-01-20 09:44:01.46	327.65	27.36	
2025-01-20 09:44:01.67	327.58	27.37	
2025-01-20 09:44:01.87	327.51	27.39	
2025-01-20 09:44:02.07	327.44	27.40	
2025-01-20 09:44:02.28	327.37	27.42	
2025-01-20 09:44:02.48	327.30	27.43	
2025-01-20 09:44:02.68	327.23	27.45	
2025-01-20 09:44:02.89	327.16	27.47	
2025-01-20 09:44:03.09	327.09	27.48	
2025-01-20 09:44:03.29	327.02	27.50	
2025-01-20 09:44:03.50	326.95	27.51	
2025-01-20 09:44:03.70	326.88	27.53	
2025-01-20 09:44:03.90	326.81	27.54	
2025-01-20 09:44:04.10	326.74	27.56	
2025-01-20 09:44:04.31	326.67	27.57	
2025-01-20 09:44:04.51	326.60	27.59	
2025-01-20 09:44:04.71	326.53	27.60	
2025-01-20 09:44:04.92	326.45	27.62	
2025-01-20 09:44:05.12	326.38	27.63	
2025-01-20 09:44:05.32	326.31	27.65	
2025-01-20 09:44:05.53	326.24	27.66	
2025-01-20 09:44:05.73	326.17	27.68	
2025-01-20 09:44:05.93	326.10	27.69	
2025-01-20 09:44:06.14	326.03	27.71	
2025-01-20 09:44:06.34	325.96	27.72	
2025-01-20 09:44:06.54	325.89	27.74	
2025-01-20 09:44:06.74	325.82	27.75	
2025-01-20 09:44:06.95	325.74	27.77	
2025-01-20 09:44:07.15	325.67	27.78	
2025-01-20 09:44:07.35	325.60	27.80	
2025-01-20 09:44:07.56	325.53	27.81	
2025-01-20 09:44:07.76	325.46	27.83	
2025-01-20 09:44:07.96	325.39	27.84	
2025-01-20 09:44:08.17	325.31	27.85	
2025-01-20 09:44:08.37	325.24	27.87	
2025-01-20 09:44:08.57	325.17	27.88	
2025-01-20 09:44:08.78	325.10	27.90	
2025-01-20 09:44:08.98	325.03	27.91	
2025-01-20 09:44:09.18	324.96	27.93	
2025-01-20 09:44:09.38	324.89	27.94	
2025-01-20 09:44:09.59	324.81	27.95	
2025-01-20 09:44:09.79	324.74	27.97	
2025-01-20 09:44:09.99	324.67	27.98	
2025-01-20 09:44:10.20	324.59	28.00	
2025-01-20 09:44:10.40	324.52	28.01	
2025-01-20 09:44:10.60	324.45	28.02	
2025-01-20 09:44:10.81	324.38	28.04	
2025-01-20 09:44:11.01	324.30	28.05	
2025-01-20 09:44:11.21	324.23	28.07	
2025-01-20 09:44:11.42	324.16	28.08	
2025-01-20 09:44:11.62	324.09	28.09	
2025-01-20 09:44:11.82	324.01	28.11	
2025-01-20 09:44:12.02	323.94	28.12	
2025-01-20 09:44:12.23	323.87	28.14	
2025-01-20 09:44:12.43	323.79	28.15	
2025-01-20 09:44:12.63	323.72	28.16	
2025-01-20 09:44:12.84	323.65	28.18	
2025-01-20 09:44:13.04	323.57	28.19	
2025-01-20 09:44:13.24	323.50	28.20	
2025-01-20 09:44:13.45	323.43	28.22	
2025-01-20 09:44:13.65	323.35	28.23	
2025-01-20 09:44:13.85	323.28	28.24	
2025-01-20 09:44:14.06	323.20	28.26	
2025-01-20 09:44:14.26	323.13	28.27	
2025-01-20 09:44:14.46	323.06	28.28	
2025-01-20 09:44:14.66	322.99	28.30	
2025-01-20 09:44:14.87	322.91	28.31	
2025-01-20 09:44:15.07	322.84	28.32	
2025-01-20 09:44:15.27	322.76	28.33	
2025-01-20 09:44:15.48	322.69	28.35	
2025-01-20 09:44:15.68	322.62	28.36	
2025-01-20 09:44:15.88	322.54	28.37	
2025-01-20 09:44:16.09	322.47	28.39	
2025-01-20 09:44:16.29	322.39	28.40	
2025-01-20 09:44:16.49	322.32	28.41	
2025-01-20 09:44:16.70	322.24	28.42	
2025-01-20 09:44:16.90	322.17	28.44	
2025-01-20 09:44:17.10	322.10	28.45	
2025-01-20 09:44:17.30	322.02	28.46	
2025-01-20 09:44:17.51	321.94	28.47	
2025-01-20 09:44:17.71	321.87	28.49	
2025-01-20 09:44:17.91	321.80	28.50	
2025-01-20 09:44:18.12	321.72	28.51	
2025-01-20 09:44:18.32	321.65	28.52	
2025-01-20 09:44:18.52	321.57	28.54	
2025-01-20 09:44:18.73	321.49	28.55	
2025-01-20 09:44:18.93	321.42	28.56	
2025-01-20 09:44:19.13	321.35	28.57	
2025-01-20 09:44:19.34	321.27	28.58	
2025-01-20 09:44:19.54	321.19	28.60	
2025-01-20 09:44:19.74	321.12	28.61	
2025-01-20 09:44:19.94	321.05	28.62	
2025-01-20 09:44:20.15	320.97	28.63	
2025-01-20 09:44:20.35	320.89	28.64	
2025-01-20 09:44:20.55	320.82	28.66	
2025-01-20 09:44:20.76	320.74	28.67	
2025-01-20 09:44:20.96	320.67	28.68	
2025-01-20 09:44:21.16	320.59	28.69	
2025-01-20 09:44:21.37	320.51	28.70	
2025-01-20 09:44:21.57	320.44	28.71	
2025-01-20 09:44:21.77	320.36	28.73	
2025-01-20 09:44:21.98	320.29	28.74	
2025-01-20 09:44:22.18	320.21	28.75	
2025-01-20 09:44:22.38	320.14	28.76	
2025-01-20 09:44:22.58	320.06	28.77	
2025-01-20 09:44:22.79	319.98	28.78	
2025-01-20 09:44:22.99	319.91	28.79	
2025-01-20 09:44:23.19	319.83	28.80	
2025-01-20 09:44:23.40	319.75	28.82	
2025-01-20 09:44:23.60	319.68	28.83	
2025-01-20 09:44:23.80	319.60	28.84	
2025-01-20 09:44:24.01	319.52	28.85	
2025-01-20 09:44:24.21	319.45	28.86	
2025-01-20 09:44:24.41	319.37	28.87	
2025-01-20 09:44:24.62	319.29	28.88	
2025-01-20 09:44:24.82	319.22	28.89	
2025-01-20 09:44:25.02	319.14	28.90	
2025-01-20 09:44:25.22	319.07	28.91	
2025-01-20 09:44:25.43	318.99	28.92	
2025-01-20 09:44:25.63	318.91	28.93	
2025-01-20 09:44:25.83	318.83	28.94	
2025-01-20 09:44:26.04	318.75	28.95	
2025-01-20 09:44:26.24	318.68	28.97	
2025-01-20 09:44:26.44	318.60	28.98	
2025-01-20 09:44:26.65	318.52	28.99	
2025-01-20 09:44:26.85	318.45	29.00	
2025-01-20 09:44:27.05	318.37	29.01	
2025-01-20 09:44:27.26	318.29	29.02	
2025-01-20 09:44:27.46	318.21	29.03	
2025-01-20 09:44:27.66	318.14	29.04	
2025-01-20 09:44:27.86	318.06	29.05	
2025-01-20 09:44:28.07	317.98	29.06	
2025-01-20 09:44:28.27	317.90	29.07	
2025-01-20 09:44:28.47	317.83	29.08	
2025-01-20 09:44:28.68	317.75	29.09	
2025-01-20 09:44:28.88	317.67	29.09	
2025-01-20 09:44:29.08	317.59	29.10	
2025-01-20 09:44:29.29	317.51	29.11	
2025-01-20 09:44:29.49	317.44	29.12	
2025-01-20 09:44:29.69	317.36	29.13	
2025-01-20 09:44:29.90	317.28	29.14	
2025-01-20 09:44:30.10	317.20	29.15	
2025-01-20 09:44:30.30	317.13	29.16	
2025-01-20 09:44:30.50	317.05	29.17	
2025-01-20 09:44:30.71	316.97	29.18	
2025-01-20 09:44:30.91	316.89	29.19	
2025-01-20 09:44:31.11	316.81	29.20	
2025-01-20 09:44:31.32	316.73	29.21	
2025-01-20 09:44:31.52	316.66	29.22	
2025-01-20 09:44:31.72	316.58	29.22	
2025-01-20 09:44:31.93	316.50	29.23	
2025-01-20 09:44:32.13	316.42	29.24	
2025-01-20 09:44:32.33	316.34	29.25	
2025-01-20 09:44:32.54	316.26	29.26	
2025-01-20 09:44:32.74	316.18	29.27	
2025-01-20 09:44:32.94	316.11	29.28	
2025-01-20 09:44:33.14	316.03	29.29	
2025-01-20 09:44:33.35	315.95	29.29	
2025-01-20 09:44:33.55	315.87	29.30	
2025-01-20 09:44:33.75	315.79	29.31	
2025-01-20 09:44:33.96	315.71	29.32	
2025-01-20 09:44:34.16	315.63	29.33	
2025-01-20 09:44:34.36	315.56	29.34	
2025-01-20 09:44:34.57	315.47	29.34	
2025-01-20 09:44:34.77	315.40	29.35	
2025-01-20 09:44:34.97	315.32	29.36	
2025-01-20 09:44:35.18	315.24	29.37	
2025-01-20 09:44:35.38	315.16	29.38	
2025-01-20 09:44:35.58	315.08	29.38	
2025-01-20 09:44:35.78	315.00	29.39	
2025-01-20 09:44:35.99	314.92	29.40	
2025-01-20 09:44:36.19	314.84	29.41	
2025-01-20 09:44:36.39	314.76	29.41	
2025-01-20 09:44:36.60	314.68	29.42	
2025-01-20 09:44:36.80	314.60	29.43	
2025-01-20 09:44:37.00	314.52	29.44	
2025-01-20 09:44:37.21	314.44	29.44	
2025-01-20 09:44:37.41	314.36	29.45	
2025-01-20 09:44:37.61	314.29	29.46	
2025-01-20 09:44:37.82	314.20	29.47	
2025-01-20 09:44:38.02	314.12	29.47	
2025-01-20 09:44:38.22	314.05	29.48	
2025-01-20 09:44:38.42	313.97	29.49	
2025-01-20 09:44:38.63	313.88	29.49	
2025-01-20 09:44:38.83	313.81	29.50	
2025-01-20 09:44:39.03	313.73	29.51	
2025-01-20 09:44:39.24	313.64	29.51	
2025-01-20 09:44:39.44	313.57	29.52	
2025-01-20 09:44:39.64	313.49	29.53	
2025-01-20 09:44:39.85	313.40	29.53	
2025-01-20 09:44:40.05	313.33	29.54	
2025-01-20 09:44:40.25	313.25	29.55	
2025-01-20 09:44:40.46	313.16	29.55	
2025-01-20 09:44:40.66	313.08	29.56	
2025-01-20 09:44:40.86	313.01	29.57	
2025-01-20 09:44:41.06	312.93	29.57	
2025-01-20 09:44:41.27	312.84	29.58	
2025-01-20 09:44:41.47	312.76	29.58	
2025-01-20 09:44:41.67	312.69	29.59	
2025-01-20 09:44:41.88	312.60	29.60	
2025-01-20 09:44:42.08	312.52	29.60	
2025-01-20 09:44:42.28	312.44	29.61	
2025-01-20 09:44:42.49	312.36	29.61	
2025-01-20 09:44:42.69	312.28	29.62	
2025-01-20 09:44:42.89	312.20	29.63	
2025-01-20 09:44:43.10	312.12	29.63	
2025-01-20 09:44:43.30	312.04	29.64	
2025-01-20 09:44:43.50	311.96	29.64	
2025-01-20 09:44:43.70	311.88	29.65	
2025-01-20 09:44:43.91	311.80	29.65	
2025-01-20 09:44:44.11	311.72	29.66	
2025-01-20 09:44:44.31	311.64	29.66	
2025-01-20 09:44:44.52	311.55	29.67	
2025-01-20 09:44:44.72	311.48	29.67	
2025-01-20 09:44:44.92	311.40	29.68	
2025-01-20 09:44:45.13	311.31	29.68	
2025-01-20 09:44:45.33	311.23	29.69	
2025-01-20 09:44:45.53	311.15	29.69	
2025-01-20 09:44:45.74	311.07	29.70	
2025-01-20 09:44:45.94	310.99	29.70	
2025-01-20 09:44:46.14	310.91	29.71	
2025-01-20 09:44:46.34	310.83	29.71	
2025-01-20 09:44:46.55	310.75	29.72	
2025-01-20 09:44:46.75	310.67	29.72	
2025-01-20 09:44:46.95	310.59	29.73	
2025-01-20 09:44:47.16	310.50	29.73	
2025-01-20 09:44:47.36	310.42	29.74	
2025-01-20 09:44:47.56	310.34	29.74	
2025-01-20 09:44:47.77	310.26	29.74	
2025-01-20 09:44:47.97	310.18	29.75	
2025-01-20 09:44:48.17	310.10	29.75	
2025-01-20 09:44:48.38	310.01	29.76	
2025-01-20 09:44:48.58	309.93	29.76	
2025-01-20 09:44:48.78	309.85	29.76	
2025-01-20 09:44:48.98	309.77	29.77	
2025-01-20 09:44:49.19	309.69	29.77	
2025-01-20 09:44:49.39	309.61	29.78	
2025-01-20 09:44:49.59	309.53	29.78	
2025-01-20 09:44:49.80	309.45	29.78	
2025-01-20 09:44:50.00	309.37	29.79	
2025-01-20 09:44:50.20	309.29	29.79	
2025-01-20 09:44:50.41	309.20	29.79	
2025-01-20 09:44:50.61	309.12	29.80	
2025-01-20 09:44:50.81	309.04	29.80	
2025-01-20 09:44:51.02	308.96	29.80	
2025-01-20 09:44:51.22	308.88	29.81	
2025-01-20 09:44:51.42	308.80	29.81	
2025-01-20 09:44:51.62	308.72	29.81	
2025-01-20 09:44:51.83	308.63	29.82	
2025-01-20 09:44:52.03	308.55	29.82	
2025-01-20 09:44:52.23	308.47	29.82	
2025-01-20 09:44:52.44	308.39	29.83	
2025-01-20 09:44:52.64	308.31	29.83	
2025-01-20 09:44:52.84	308.23	29.83	
2025-01-20 09:44:53.05	308.14	29.83	
2025-01-20 09:44:53.25	308.06	29.84	
2025-01-20 09:44:53.45	307.98	29.84	
2025-01-20 09:44:53.66	307.90	29.84	
2025-01-20 09:44:53.86	307.82	29.84	
2025-01-20 09:44:54.06	307.74	29.85	
2025-01-20 09:44:54.26	307.66	29.85	
2025-01-20 09:44:54.47	307.57	29.85	
2025-01-20 09:44:54.67	307.49	29.85	
2025-01-20 09:44:54.87	307.41	29.85	
2025-01-20 09:44:55.08	307.33	29.86	
2025-01-20 09:44:55.28	307.24	29.86	
2025-01-20 09:44:55.48	307.16	29.86	
2025-01-20 09:44:55.69	307.08	29.86	
2025-01-20 09:44:55.89	307.00	29.86	
2025-01-20 09:44:56.09	306.92	29.86	
2025-01-20 09:44:56.30	306.83	29.87	
2025-01-20 09:44:56.50	306.75	29.87	
2025-01-20 09:44:56.70	306.67	29.87	
2025-01-20 09:44:56.90	306.59	29.87	
2025-01-20 09:44:57.11	306.51	29.87	
2025-01-20 09:44:57.31	306.43	29.87	
2025-01-20 09:44:57.51	306.35	29.87	
2025-01-20 09:44:57.72	306.26	29.88	
2025-01-20 09:44:57.92	306.18	29.88	
2025-01-20 09:44:58.12	306.10	29.88	
2025-01-20 09:44:58.33	306.02	29.88	
2025-01-20 09:44:58.53	305.93	29.88	
2025-01-20 09:44:58.73	305.85	29.88	
2025-01-20 09:44:58.94	305.77	29.88	
2025-01-20 09:44:59.14	305.69	29.88	
2025-01-20 09:44:59.34	305.61	29.88	
2025-01-20 09:44:59.54	305.53	29.88	
2025-01-20 09:44:59.75	305.44	29.88	
2025-01-20 09:44:59.95	305.36	29.88	
2025-01-20 09:45:00.15	305.28	29.88	
2025-01-20 09:45:00.36	305.20	29.88	
2025-01-20 09:45:00.56	305.12	29.89	
2025-01-20 09:45:00.76	305.04	29.89	
2025-01-20 09:45:00.97	304.95	29.89	
2025-01-20 09:45:01.17	304.87	29.89	
2025-01-20 09:45:01.37	304.79	29.89	
2025-01-20 09:45:01.58	304.70	29.89	
2025-01-20 09:45:01.78	304.62	29.89	
2025-01-20 09:45:01.98	304.54	29.89	
2025-01-20 09:45:02.18	304.46	29.88	
2025-01-20 09:45:02.39	304.38	29.88	
2025-01-20 09:45:02.59	304.30	29.88	
2025-01-20 09:45:02.79	304.22	29.88	
2025-01-20 09:45:03.00	304.13	29.88	
2025-01-20 09:45:03.20	304.05	29.88	
2025-01-20 09:45:03.40	303.97	29.88	
2025-01-20 09:45:03.61	303.89	29.88	
2025-01-20 09:45:03.81	303.80	29.88	
2025-01-20 09:45:04.01	303.72	29.88	
2025-01-20 09:45:04.22	303.64	29.88	
2025-01-20 09:45:04.42	303.56	29.88	
2025-01-20 09:45:04.62	303.48	29.88	
2025-01-20 09:45:04.82	303.40	29.88	
2025-01-20 09:45:05.03	303.31	29.87	
2025-01-20 09:45:05.23	303.23	29.87	
2025-01-20 09:45:05.43	303.15	29.87	
2025-01-20 09:45:05.64	303.07	29.87	
2025-01-20 09:45:05.84	302.99	29.87	
2025-01-20 09:45:06.04	302.91	29.87	
2025-01-20 09:45:06.25	302.82	29.87	
2025-01-20 09:45:06.45	302.74	29.86	
2025-01-20 09:45:06.65	302.66	29.86	
2025-01-20 09:45:06.86	302.58	29.86	
2025-01-20 09:45:07.06	302.49	29.86	
2025-01-20 09:45:07.26	302.41	29.86	
2025-01-20 09:45:07.46	302.33	29.86	
2025-01-20 09:45:07.67	302.25	29.85	
2025-01-20 09:45:07.87	302.17	29.85	
2025-01-20 09:45:08.07	302.09	29.85	
2025-01-20 09:45:08.28	302.00	29.85	
2025-01-20 09:45:08.48	301.92	29.85	
2025-01-20 09:45:08.68	301.84	29.84	
2025-01-20 09:45:08.89	301.76	29.84	
2025-01-20 09:45:09.09	301.68	29.84	
2025-01-20 09:45:09.29	301.60	29.84	
2025-01-20 09:45:09.50	301.51	29.83	
2025-01-20 09:45:09.70	301.43	29.83	
2025-01-20 09:45:09.90	301.35	29.83	
2025-01-20 09:45:10.10	301.27	29.83	
2025-01-20 09:45:10.31	301.19	29.82	
2025-01-20 09:45:10.51	301.11	29.82	
2025-01-20 09:45:10.71	301.03	29.82	
2025-01-20 09:45:10.92	300.94	29.81	
2025-01-20 09:45:11.12	300.86	29.81	
2025-01-20 09:45:11.32	300.78	29.81	
2025-01-20 09:45:11.53	300.70	29.80	
