passes_logs/2025/01/20/SPB_Silybum_02/SPB_Silybum_02__20250120_033534_AQUA_rec.log

#Pass ID: 20250120_033534_AQUA
#Satellite: AQUA
#Configuration: AQUA
#Start time: 2025-01-20 03:35:32

#Version: 2.0.20230423
#Station: SPB_Silybum_02
#Location: 30.233357 lon 59.946436 lat
#TLE: 1 27424U 02022A   25019.18388060  .00002377  00000+0  49769-3 0  9992
#TLE: 2 27424  98.3597 335.8858 0001894 107.4419 309.9907 14.60702162208231

#Time	Az	El	Level	Level2	SNR	BER	Gain	Gain2
2025-01-20 03:35:34.86	8.74	4.04	
2025-01-20 03:35:35.06	8.72	4.05	
2025-01-20 03:35:35.27	8.70	4.07	
2025-01-20 03:35:35.47	8.68	4.08	
2025-01-20 03:35:35.67	8.66	4.09	
2025-01-20 03:35:35.88	8.64	4.10	
2025-01-20 03:35:36.08	8.62	4.11	
2025-01-20 03:35:36.28	8.59	4.12	
2025-01-20 03:35:36.49	8.57	4.13	
2025-01-20 03:35:36.69	8.55	4.14	
2025-01-20 03:35:36.89	8.53	4.16	
2025-01-20 03:35:37.09	8.51	4.17	
2025-01-20 03:35:37.30	8.49	4.18	
2025-01-20 03:35:37.50	8.47	4.19	
2025-01-20 03:35:37.70	8.44	4.20	
2025-01-20 03:35:37.91	8.42	4.21	
2025-01-20 03:35:38.11	8.40	4.22	
2025-01-20 03:35:38.31	8.38	4.23	
2025-01-20 03:35:38.52	8.36	4.25	
2025-01-20 03:35:38.72	8.34	4.26	
2025-01-20 03:35:38.92	8.32	4.27	
2025-01-20 03:35:39.12	8.29	4.28	
2025-01-20 03:35:39.33	8.27	4.29	
2025-01-20 03:35:39.53	8.25	4.30	
2025-01-20 03:35:39.73	8.23	4.31	
2025-01-20 03:35:39.94	8.21	4.32	
2025-01-20 03:35:40.14	8.19	4.34	
2025-01-20 03:35:40.34	8.16	4.35	
2025-01-20 03:35:40.54	8.14	4.36	
2025-01-20 03:35:40.75	8.12	4.37	
2025-01-20 03:35:40.95	8.10	4.38	
2025-01-20 03:35:41.15	8.08	4.39	
2025-01-20 03:35:41.36	8.05	4.40	
2025-01-20 03:35:41.56	8.03	4.41	
2025-01-20 03:35:41.76	8.01	4.42	
2025-01-20 03:35:41.97	7.99	4.44	
2025-01-20 03:35:42.17	7.97	4.45	
2025-01-20 03:35:42.37	7.95	4.46	
2025-01-20 03:35:42.57	7.92	4.47	
2025-01-20 03:35:42.78	7.90	4.48	
2025-01-20 03:35:42.98	7.88	4.49	
2025-01-20 03:35:43.18	7.86	4.50	
2025-01-20 03:35:43.39	7.84	4.52	
2025-01-20 03:35:43.59	7.81	4.53	
2025-01-20 03:35:43.79	7.79	4.54	
2025-01-20 03:35:43.99	7.77	4.55	
2025-01-20 03:35:44.20	7.75	4.56	
2025-01-20 03:35:44.40	7.73	4.57	
2025-01-20 03:35:44.60	7.70	4.58	
2025-01-20 03:35:44.81	7.68	4.59	
2025-01-20 03:35:45.01	7.66	4.61	
2025-01-20 03:35:45.21	7.64	4.62	
2025-01-20 03:35:45.42	7.61	4.63	
2025-01-20 03:35:45.62	7.59	4.64	
2025-01-20 03:35:45.82	7.57	4.65	
2025-01-20 03:35:46.02	7.55	4.66	
2025-01-20 03:35:46.23	7.53	4.67	
2025-01-20 03:35:46.43	7.50	4.68	
2025-01-20 03:35:46.63	7.48	4.70	
2025-01-20 03:35:46.84	7.46	4.71	
2025-01-20 03:35:47.04	7.44	4.72	
2025-01-20 03:35:47.24	7.42	4.73	
2025-01-20 03:35:47.45	7.39	4.74	
2025-01-20 03:35:47.65	7.37	4.75	
2025-01-20 03:35:47.85	7.35	4.76	
2025-01-20 03:35:48.05	7.33	4.77	
2025-01-20 03:35:48.26	7.30	4.79	
2025-01-20 03:35:48.46	7.28	4.80	
2025-01-20 03:35:48.66	7.26	4.81	
2025-01-20 03:35:48.87	7.24	4.82	
2025-01-20 03:35:49.07	7.21	4.83	
2025-01-20 03:35:49.27	7.19	4.84	
2025-01-20 03:35:49.47	7.17	4.85	
2025-01-20 03:35:49.68	7.15	4.86	
2025-01-20 03:35:49.88	7.12	4.88	
2025-01-20 03:35:50.08	7.10	4.89	
2025-01-20 03:35:50.29	7.08	4.90	
2025-01-20 03:35:50.49	7.05	4.91	
2025-01-20 03:35:50.69	7.03	4.92	
2025-01-20 03:35:50.90	7.01	4.93	
2025-01-20 03:35:51.10	6.99	4.94	
2025-01-20 03:35:51.30	6.96	4.96	
2025-01-20 03:35:51.50	6.94	4.97	
2025-01-20 03:35:51.71	6.92	4.98	
2025-01-20 03:35:51.91	6.90	4.99	
2025-01-20 03:35:52.11	6.87	5.00	
2025-01-20 03:35:52.32	6.85	5.01	
2025-01-20 03:35:52.52	6.83	5.02	
2025-01-20 03:35:52.72	6.80	5.03	
2025-01-20 03:35:52.92	6.78	5.05	
2025-01-20 03:35:53.13	6.76	5.06	
2025-01-20 03:35:53.33	6.74	5.07	
2025-01-20 03:35:53.53	6.71	5.08	
2025-01-20 03:35:53.74	6.69	5.09	
2025-01-20 03:35:53.94	6.67	5.10	
2025-01-20 03:35:54.14	6.64	5.11	
2025-01-20 03:35:54.35	6.62	5.13	
2025-01-20 03:35:54.55	6.60	5.14	
2025-01-20 03:35:54.75	6.57	5.15	
2025-01-20 03:35:54.95	6.55	5.16	
2025-01-20 03:35:55.16	6.53	5.17	
2025-01-20 03:35:55.36	6.51	5.18	
2025-01-20 03:35:55.56	6.48	5.19	
2025-01-20 03:35:55.77	6.46	5.20	
2025-01-20 03:35:55.97	6.44	5.22	
2025-01-20 03:35:56.17	6.41	5.23	
2025-01-20 03:35:56.38	6.39	5.24	
2025-01-20 03:35:56.58	6.37	5.25	
2025-01-20 03:35:56.78	6.34	5.26	
2025-01-20 03:35:56.98	6.32	5.27	
2025-01-20 03:35:57.19	6.30	5.28	
2025-01-20 03:35:57.39	6.27	5.30	
2025-01-20 03:35:57.59	6.25	5.31	
2025-01-20 03:35:57.80	6.23	5.32	
2025-01-20 03:35:58.00	6.20	5.33	
2025-01-20 03:35:58.20	6.18	5.34	
2025-01-20 03:35:58.40	6.16	5.35	
2025-01-20 03:35:58.61	6.13	5.36	
2025-01-20 03:35:58.81	6.11	5.37	
2025-01-20 03:35:59.01	6.09	5.39	
2025-01-20 03:35:59.22	6.06	5.40	
2025-01-20 03:35:59.42	6.04	5.41	
2025-01-20 03:35:59.62	6.02	5.42	
2025-01-20 03:35:59.83	5.99	5.43	
2025-01-20 03:36:00.03	5.97	5.44	
2025-01-20 03:36:00.23	5.94	5.45	
2025-01-20 03:36:00.43	5.92	5.47	
2025-01-20 03:36:00.64	5.90	5.48	
2025-01-20 03:36:00.84	5.87	5.49	
2025-01-20 03:36:01.04	5.85	5.50	
2025-01-20 03:36:01.25	5.83	5.51	
2025-01-20 03:36:01.45	5.80	5.52	
2025-01-20 03:36:01.65	5.78	5.53	
2025-01-20 03:36:01.86	5.75	5.55	
2025-01-20 03:36:02.06	5.73	5.56	
2025-01-20 03:36:02.26	5.71	5.57	
2025-01-20 03:36:02.46	5.68	5.58	
2025-01-20 03:36:02.67	5.66	5.59	
2025-01-20 03:36:02.87	5.64	5.60	
2025-01-20 03:36:03.07	5.61	5.61	
2025-01-20 03:36:03.28	5.59	5.63	
2025-01-20 03:36:03.48	5.56	5.64	
2025-01-20 03:36:03.68	5.54	5.65	
2025-01-20 03:36:03.88	5.52	5.66	
2025-01-20 03:36:04.09	5.49	5.67	
2025-01-20 03:36:04.29	5.47	5.68	
2025-01-20 03:36:04.49	5.44	5.69	
2025-01-20 03:36:04.70	5.42	5.70	
2025-01-20 03:36:04.90	5.39	5.72	
2025-01-20 03:36:05.10	5.37	5.73	
2025-01-20 03:36:05.31	5.35	5.74	
2025-01-20 03:36:05.51	5.32	5.75	
2025-01-20 03:36:05.71	5.30	5.76	
2025-01-20 03:36:05.91	5.27	5.77	
2025-01-20 03:36:06.12	5.25	5.78	
2025-01-20 03:36:06.32	5.23	5.80	
2025-01-20 03:36:06.52	5.20	5.81	
2025-01-20 03:36:06.73	5.18	5.82	
2025-01-20 03:36:06.93	5.15	5.83	
2025-01-20 03:36:07.13	5.13	5.84	
2025-01-20 03:36:07.33	5.10	5.85	
2025-01-20 03:36:07.54	5.08	5.86	
2025-01-20 03:36:07.74	5.06	5.88	
2025-01-20 03:36:07.94	5.03	5.89	
2025-01-20 03:36:08.15	5.01	5.90	
2025-01-20 03:36:08.35	4.98	5.91	
2025-01-20 03:36:08.55	4.96	5.92	
2025-01-20 03:36:08.76	4.93	5.93	
2025-01-20 03:36:08.96	4.91	5.94	
2025-01-20 03:36:09.16	4.88	5.96	
2025-01-20 03:36:09.36	4.86	5.97	
2025-01-20 03:36:09.57	4.83	5.98	
2025-01-20 03:36:09.77	4.81	5.99	
2025-01-20 03:36:09.97	4.79	6.00	
2025-01-20 03:36:10.18	4.76	6.01	
2025-01-20 03:36:10.38	4.74	6.02	
2025-01-20 03:36:10.58	4.71	6.04	
2025-01-20 03:36:10.79	4.69	6.05	
2025-01-20 03:36:10.99	4.66	6.06	
2025-01-20 03:36:11.19	4.64	6.07	
2025-01-20 03:36:11.39	4.61	6.08	
2025-01-20 03:36:11.60	4.59	6.09	
2025-01-20 03:36:11.80	4.56	6.10	
2025-01-20 03:36:12.00	4.54	6.12	
2025-01-20 03:36:12.21	4.51	6.13	
2025-01-20 03:36:12.41	4.49	6.14	
2025-01-20 03:36:12.61	4.46	6.15	
2025-01-20 03:36:12.81	4.44	6.16	
2025-01-20 03:36:13.02	4.41	6.17	
2025-01-20 03:36:13.22	4.39	6.18	
2025-01-20 03:36:13.42	4.36	6.20	
2025-01-20 03:36:13.63	4.34	6.21	
2025-01-20 03:36:13.83	4.31	6.22	
2025-01-20 03:36:14.03	4.29	6.23	
2025-01-20 03:36:14.24	4.26	6.24	
2025-01-20 03:36:14.44	4.24	6.25	
2025-01-20 03:36:14.64	4.21	6.26	
2025-01-20 03:36:14.84	4.19	6.28	
2025-01-20 03:36:15.05	4.16	6.29	
2025-01-20 03:36:15.25	4.14	6.30	
2025-01-20 03:36:15.45	4.11	6.31	
2025-01-20 03:36:15.66	4.09	6.32	
2025-01-20 03:36:15.86	4.06	6.33	
2025-01-20 03:36:16.06	4.04	6.34	
2025-01-20 03:36:16.26	4.01	6.36	
2025-01-20 03:36:16.47	3.99	6.37	
2025-01-20 03:36:16.67	3.96	6.38	
2025-01-20 03:36:16.87	3.94	6.39	
2025-01-20 03:36:17.08	3.91	6.40	
2025-01-20 03:36:17.28	3.88	6.41	
2025-01-20 03:36:17.48	3.86	6.42	
2025-01-20 03:36:17.69	3.83	6.44	
2025-01-20 03:36:17.89	3.81	6.45	
2025-01-20 03:36:18.09	3.78	6.46	
2025-01-20 03:36:18.29	3.76	6.47	
2025-01-20 03:36:18.50	3.73	6.48	
2025-01-20 03:36:18.70	3.71	6.49	
2025-01-20 03:36:18.90	3.68	6.50	
2025-01-20 03:36:19.11	3.65	6.52	
2025-01-20 03:36:19.31	3.63	6.53	
2025-01-20 03:36:19.51	3.60	6.54	
2025-01-20 03:36:19.72	3.58	6.55	
2025-01-20 03:36:19.92	3.55	6.56	
2025-01-20 03:36:20.12	3.53	6.57	
2025-01-20 03:36:20.32	3.50	6.58	
2025-01-20 03:36:20.53	3.47	6.60	
2025-01-20 03:36:20.73	3.45	6.61	
2025-01-20 03:36:20.93	3.42	6.62	
2025-01-20 03:36:21.14	3.40	6.63	
2025-01-20 03:36:21.34	3.37	6.64	
2025-01-20 03:36:21.54	3.34	6.65	
2025-01-20 03:36:21.74	3.32	6.66	
2025-01-20 03:36:21.95	3.29	6.68	
2025-01-20 03:36:22.15	3.27	6.69	
2025-01-20 03:36:22.35	3.24	6.70	
2025-01-20 03:36:22.56	3.21	6.71	
2025-01-20 03:36:22.76	3.19	6.72	
2025-01-20 03:36:22.96	3.16	6.73	
2025-01-20 03:36:23.17	3.14	6.74	
2025-01-20 03:36:23.37	3.11	6.76	
2025-01-20 03:36:23.57	3.08	6.77	
2025-01-20 03:36:23.77	3.06	6.78	
2025-01-20 03:36:23.98	3.03	6.79	
2025-01-20 03:36:24.18	3.01	6.80	
2025-01-20 03:36:24.38	2.98	6.81	
2025-01-20 03:36:24.59	2.95	6.83	
2025-01-20 03:36:24.79	2.93	6.84	
2025-01-20 03:36:24.99	2.90	6.85	
2025-01-20 03:36:25.19	2.88	6.86	
2025-01-20 03:36:25.40	2.85	6.87	
2025-01-20 03:36:25.60	2.82	6.88	
2025-01-20 03:36:25.80	2.80	6.89	
2025-01-20 03:36:26.01	2.77	6.91	
2025-01-20 03:36:26.21	2.74	6.92	
2025-01-20 03:36:26.41	2.72	6.93	
2025-01-20 03:36:26.62	2.69	6.94	
2025-01-20 03:36:26.82	2.66	6.95	
2025-01-20 03:36:27.02	2.64	6.96	
2025-01-20 03:36:27.22	2.61	6.97	
2025-01-20 03:36:27.43	2.58	6.99	
2025-01-20 03:36:27.63	2.56	7.00	
2025-01-20 03:36:27.83	2.53	7.01	
2025-01-20 03:36:28.04	2.50	7.02	
2025-01-20 03:36:28.24	2.48	7.03	
2025-01-20 03:36:28.44	2.45	7.04	
2025-01-20 03:36:28.65	2.42	7.05	
2025-01-20 03:36:28.85	2.40	7.07	
2025-01-20 03:36:29.05	2.37	7.08	
2025-01-20 03:36:29.25	2.34	7.09	
2025-01-20 03:36:29.46	2.32	7.10	
2025-01-20 03:36:29.66	2.29	7.11	
2025-01-20 03:36:29.86	2.26	7.12	
2025-01-20 03:36:30.07	2.24	7.13	
2025-01-20 03:36:30.27	2.21	7.15	
2025-01-20 03:36:30.47	2.18	7.16	
2025-01-20 03:36:30.67	2.16	7.17	
2025-01-20 03:36:30.88	2.13	7.18	
2025-01-20 03:36:31.08	2.10	7.19	
2025-01-20 03:36:31.28	2.07	7.20	
2025-01-20 03:36:31.49	2.05	7.21	
2025-01-20 03:36:31.69	2.02	7.23	
2025-01-20 03:36:31.89	1.99	7.24	
2025-01-20 03:36:32.10	1.97	7.25	
2025-01-20 03:36:32.30	1.94	7.26	
2025-01-20 03:36:32.50	1.91	7.27	
2025-01-20 03:36:32.70	1.88	7.28	
2025-01-20 03:36:32.91	1.86	7.30	
2025-01-20 03:36:33.11	1.83	7.31	
2025-01-20 03:36:33.31	1.80	7.32	
2025-01-20 03:36:33.52	1.77	7.33	
2025-01-20 03:36:33.72	1.75	7.34	
2025-01-20 03:36:33.92	1.72	7.35	
2025-01-20 03:36:34.13	1.69	7.36	
2025-01-20 03:36:34.33	1.67	7.38	
2025-01-20 03:36:34.53	1.64	7.39	
2025-01-20 03:36:34.73	1.61	7.40	
2025-01-20 03:36:34.94	1.58	7.41	
2025-01-20 03:36:35.14	1.56	7.42	
2025-01-20 03:36:35.34	1.53	7.43	
2025-01-20 03:36:35.55	1.50	7.44	
2025-01-20 03:36:35.75	1.47	7.46	
2025-01-20 03:36:35.95	1.45	7.47	
2025-01-20 03:36:36.15	1.42	7.48	
2025-01-20 03:36:36.36	1.39	7.49	
2025-01-20 03:36:36.56	1.36	7.50	
2025-01-20 03:36:36.76	1.34	7.51	
2025-01-20 03:36:36.97	1.31	7.52	
2025-01-20 03:36:37.17	1.28	7.54	
2025-01-20 03:36:37.37	1.25	7.55	
2025-01-20 03:36:37.58	1.22	7.56	
2025-01-20 03:36:37.78	1.20	7.57	
2025-01-20 03:36:37.98	1.17	7.58	
2025-01-20 03:36:38.18	1.14	7.59	
2025-01-20 03:36:38.39	1.11	7.60	
2025-01-20 03:36:38.59	1.09	7.62	
2025-01-20 03:36:38.79	1.06	7.63	
2025-01-20 03:36:39.00	1.03	7.64	
2025-01-20 03:36:39.20	1.00	7.65	
2025-01-20 03:36:39.40	0.97	7.66	
2025-01-20 03:36:39.60	0.95	7.67	
2025-01-20 03:36:39.81	0.92	7.68	
2025-01-20 03:36:40.01	0.89	7.70	
2025-01-20 03:36:40.21	0.86	7.71	
2025-01-20 03:36:40.42	0.83	7.72	
2025-01-20 03:36:40.62	0.81	7.73	
2025-01-20 03:36:40.82	0.78	7.74	
2025-01-20 03:36:41.03	0.75	7.75	
2025-01-20 03:36:41.23	0.72	7.76	
2025-01-20 03:36:41.43	0.69	7.78	
2025-01-20 03:36:41.63	0.66	7.79	
2025-01-20 03:36:41.84	0.64	7.80	
2025-01-20 03:36:42.04	0.61	7.81	
2025-01-20 03:36:42.24	0.58	7.82	
2025-01-20 03:36:42.45	0.55	7.83	
2025-01-20 03:36:42.65	0.52	7.84	
2025-01-20 03:36:42.85	0.49	7.86	
2025-01-20 03:36:43.05	0.47	7.87	
2025-01-20 03:36:43.26	0.44	7.88	
2025-01-20 03:36:43.46	0.41	7.89	
2025-01-20 03:36:43.66	0.38	7.90	
2025-01-20 03:36:43.87	0.35	7.91	
2025-01-20 03:36:44.07	0.32	7.93	
2025-01-20 03:36:44.27	0.30	7.94	
2025-01-20 03:36:44.48	0.27	7.95	
2025-01-20 03:36:44.68	0.24	7.96	
2025-01-20 03:36:44.88	0.21	7.97	
2025-01-20 03:36:45.08	0.18	7.98	
2025-01-20 03:36:45.29	0.15	7.99	
2025-01-20 03:36:45.49	0.12	8.01	
2025-01-20 03:36:45.69	0.09	8.02	
2025-01-20 03:36:45.90	0.06	8.03	
2025-01-20 03:36:46.10	0.04	8.04	
2025-01-20 03:36:46.30	0.01	8.05	
2025-01-20 03:36:46.51	359.98	8.06	
2025-01-20 03:36:46.71	359.95	8.07	
2025-01-20 03:36:46.91	359.92	8.09	
2025-01-20 03:36:47.11	359.89	8.10	
2025-01-20 03:36:47.32	359.86	8.11	
2025-01-20 03:36:47.52	359.83	8.12	
2025-01-20 03:36:47.72	359.81	8.13	
2025-01-20 03:36:47.93	359.78	8.14	
2025-01-20 03:36:48.13	359.75	8.15	
2025-01-20 03:36:48.33	359.72	8.17	
2025-01-20 03:36:48.53	359.69	8.18	
2025-01-20 03:36:48.74	359.66	8.19	
2025-01-20 03:36:48.94	359.63	8.20	
2025-01-20 03:36:49.14	359.60	8.21	
2025-01-20 03:36:49.35	359.57	8.22	
2025-01-20 03:36:49.55	359.54	8.23	
2025-01-20 03:36:49.75	359.51	8.25	
2025-01-20 03:36:49.96	359.48	8.26	
2025-01-20 03:36:50.16	359.45	8.27	
2025-01-20 03:36:50.36	359.43	8.28	
2025-01-20 03:36:50.56	359.40	8.29	
2025-01-20 03:36:50.77	359.37	8.30	
2025-01-20 03:36:50.97	359.34	8.31	
2025-01-20 03:36:51.17	359.31	8.32	
2025-01-20 03:36:51.38	359.28	8.34	
2025-01-20 03:36:51.58	359.25	8.35	
2025-01-20 03:36:51.78	359.22	8.36	
2025-01-20 03:36:51.99	359.19	8.37	
2025-01-20 03:36:52.19	359.16	8.38	
2025-01-20 03:36:52.39	359.13	8.39	
2025-01-20 03:36:52.59	359.10	8.40	
2025-01-20 03:36:52.80	359.07	8.42	
2025-01-20 03:36:53.00	359.04	8.43	
2025-01-20 03:36:53.20	359.01	8.44	
2025-01-20 03:36:53.41	358.98	8.45	
2025-01-20 03:36:53.61	358.95	8.46	
2025-01-20 03:36:53.81	358.92	8.47	
2025-01-20 03:36:54.01	358.89	8.48	
2025-01-20 03:36:54.22	358.86	8.50	
2025-01-20 03:36:54.42	358.83	8.51	
2025-01-20 03:36:54.62	358.80	8.52	
2025-01-20 03:36:54.83	358.77	8.53	
2025-01-20 03:36:55.03	358.74	8.54	
2025-01-20 03:36:55.23	358.71	8.55	
2025-01-20 03:36:55.44	358.68	8.56	
2025-01-20 03:36:55.64	358.65	8.58	
2025-01-20 03:36:55.84	358.62	8.59	
2025-01-20 03:36:56.04	358.59	8.60	
2025-01-20 03:36:56.25	358.56	8.61	
2025-01-20 03:36:56.45	358.53	8.62	
2025-01-20 03:36:56.65	358.50	8.63	
2025-01-20 03:36:56.86	358.47	8.64	
2025-01-20 03:36:57.06	358.44	8.66	
2025-01-20 03:36:57.26	358.41	8.67	
2025-01-20 03:36:57.47	358.38	8.68	
2025-01-20 03:36:57.67	358.35	8.69	
2025-01-20 03:36:57.87	358.32	8.70	
2025-01-20 03:36:58.07	358.29	8.71	
2025-01-20 03:36:58.28	358.26	8.72	
2025-01-20 03:36:58.48	358.23	8.74	
2025-01-20 03:36:58.68	358.20	8.75	
2025-01-20 03:36:58.89	358.17	8.76	
2025-01-20 03:36:59.09	358.14	8.77	
2025-01-20 03:36:59.29	358.11	8.78	
2025-01-20 03:36:59.49	358.08	8.79	
2025-01-20 03:36:59.70	358.05	8.80	
2025-01-20 03:36:59.90	358.02	8.81	
2025-01-20 03:37:00.10	357.99	8.83	
2025-01-20 03:37:00.31	357.96	8.84	
2025-01-20 03:37:00.51	357.93	8.85	
2025-01-20 03:37:00.71	357.90	8.86	
2025-01-20 03:37:00.92	357.86	8.87	
2025-01-20 03:37:01.12	357.83	8.88	
2025-01-20 03:37:01.32	357.80	8.89	
2025-01-20 03:37:01.52	357.77	8.91	
2025-01-20 03:37:01.73	357.74	8.92	
2025-01-20 03:37:01.93	357.71	8.93	
2025-01-20 03:37:02.13	357.68	8.94	
2025-01-20 03:37:02.34	357.65	8.95	
2025-01-20 03:37:02.54	357.62	8.96	
2025-01-20 03:37:02.74	357.59	8.97	
2025-01-20 03:37:02.94	357.56	8.98	
2025-01-20 03:37:03.15	357.53	9.00	
2025-01-20 03:37:03.35	357.49	9.01	
2025-01-20 03:37:03.55	357.46	9.02	
2025-01-20 03:37:03.76	357.43	9.03	
2025-01-20 03:37:03.96	357.40	9.04	
2025-01-20 03:37:04.16	357.37	9.05	
2025-01-20 03:37:04.36	357.34	9.06	
2025-01-20 03:37:04.57	357.31	9.08	
2025-01-20 03:37:04.77	357.28	9.09	
2025-01-20 03:37:04.97	357.25	9.10	
2025-01-20 03:37:05.18	357.21	9.11	
2025-01-20 03:37:05.38	357.18	9.12	
2025-01-20 03:37:05.58	357.15	9.13	
2025-01-20 03:37:05.79	357.12	9.14	
2025-01-20 03:37:05.99	357.09	9.15	
2025-01-20 03:37:06.19	357.06	9.17	
2025-01-20 03:37:06.39	357.03	9.18	
2025-01-20 03:37:06.60	356.99	9.19	
2025-01-20 03:37:06.80	356.96	9.20	
2025-01-20 03:37:07.00	356.93	9.21	
2025-01-20 03:37:07.21	356.90	9.22	
2025-01-20 03:37:07.41	356.87	9.23	
2025-01-20 03:37:07.61	356.84	9.25	
2025-01-20 03:37:07.81	356.81	9.26	
2025-01-20 03:37:08.02	356.77	9.27	
2025-01-20 03:37:08.22	356.74	9.28	
2025-01-20 03:37:08.42	356.71	9.29	
2025-01-20 03:37:08.63	356.68	9.30	
2025-01-20 03:37:08.83	356.65	9.31	
2025-01-20 03:37:09.03	356.62	9.32	
2025-01-20 03:37:09.24	356.58	9.34	
2025-01-20 03:37:09.44	356.55	9.35	
2025-01-20 03:37:09.64	356.52	9.36	
2025-01-20 03:37:09.84	356.49	9.37	
2025-01-20 03:37:10.05	356.46	9.38	
2025-01-20 03:37:10.25	356.42	9.39	
2025-01-20 03:37:10.45	356.39	9.40	
2025-01-20 03:37:10.66	356.36	9.41	
2025-01-20 03:37:10.86	356.33	9.43	
2025-01-20 03:37:11.06	356.30	9.44	
2025-01-20 03:37:11.27	356.26	9.45	
2025-01-20 03:37:11.47	356.23	9.46	
2025-01-20 03:37:11.67	356.20	9.47	
2025-01-20 03:37:11.87	356.17	9.48	
2025-01-20 03:37:12.08	356.14	9.49	
2025-01-20 03:37:12.28	356.10	9.50	
2025-01-20 03:37:12.48	356.07	9.52	
2025-01-20 03:37:12.69	356.04	9.53	
2025-01-20 03:37:12.89	356.01	9.54	
2025-01-20 03:37:13.09	355.98	9.55	
2025-01-20 03:37:13.29	355.94	9.56	
2025-01-20 03:37:13.50	355.91	9.57	
2025-01-20 03:37:13.70	355.88	9.58	
2025-01-20 03:37:13.90	355.85	9.59	
2025-01-20 03:37:14.11	355.81	9.61	
2025-01-20 03:37:14.31	355.78	9.62	
2025-01-20 03:37:14.51	355.75	9.63	
2025-01-20 03:37:14.72	355.71	9.64	
2025-01-20 03:37:14.92	355.68	9.65	
2025-01-20 03:37:15.12	355.65	9.66	
2025-01-20 03:37:15.32	355.62	9.67	
2025-01-20 03:37:15.53	355.58	9.68	
2025-01-20 03:37:15.73	355.55	9.69	
2025-01-20 03:37:15.93	355.52	9.71	
2025-01-20 03:37:16.14	355.49	9.72	
2025-01-20 03:37:16.34	355.45	9.73	
2025-01-20 03:37:16.54	355.42	9.74	
2025-01-20 03:37:16.74	355.39	9.75	
2025-01-20 03:37:16.95	355.36	9.76	
2025-01-20 03:37:17.15	355.32	9.77	
2025-01-20 03:37:17.35	355.29	9.78	
2025-01-20 03:37:17.56	355.26	9.80	
2025-01-20 03:37:17.76	355.22	9.81	
2025-01-20 03:37:17.96	355.19	9.82	
2025-01-20 03:37:18.17	355.16	9.83	
2025-01-20 03:37:18.37	355.13	9.84	
2025-01-20 03:37:18.57	355.09	9.85	
2025-01-20 03:37:18.77	355.06	9.86	
2025-01-20 03:37:18.98	355.03	9.87	
2025-01-20 03:37:19.18	354.99	9.88	
2025-01-20 03:37:19.38	354.96	9.90	
2025-01-20 03:37:19.59	354.93	9.91	
2025-01-20 03:37:19.79	354.89	9.92	
2025-01-20 03:37:19.99	354.86	9.93	
2025-01-20 03:37:20.20	354.83	9.94	
2025-01-20 03:37:20.40	354.79	9.95	
2025-01-20 03:37:20.60	354.76	9.96	
2025-01-20 03:37:20.80	354.73	9.97	
2025-01-20 03:37:21.01	354.69	9.98	
2025-01-20 03:37:21.21	354.66	10.00	
2025-01-20 03:37:21.41	354.63	10.01	
2025-01-20 03:37:21.62	354.59	10.02	
2025-01-20 03:37:21.82	354.56	10.03	
2025-01-20 03:37:22.02	354.53	10.04	
2025-01-20 03:37:22.22	354.49	10.05	
2025-01-20 03:37:22.43	354.46	10.06	
2025-01-20 03:37:22.63	354.43	10.07	
2025-01-20 03:37:22.83	354.39	10.08	
2025-01-20 03:37:23.04	354.36	10.10	
2025-01-20 03:37:23.24	354.32	10.11	
2025-01-20 03:37:23.44	354.29	10.12	
2025-01-20 03:37:23.65	354.26	10.13	
2025-01-20 03:37:23.85	354.22	10.14	
2025-01-20 03:37:24.05	354.19	10.15	
2025-01-20 03:37:24.25	354.16	10.16	
2025-01-20 03:37:24.46	354.12	10.17	
2025-01-20 03:37:24.66	354.09	10.18	
2025-01-20 03:37:24.86	354.05	10.19	
2025-01-20 03:37:25.07	354.02	10.21	
2025-01-20 03:37:25.27	353.99	10.22	
2025-01-20 03:37:25.47	353.95	10.23	
2025-01-20 03:37:25.67	353.92	10.24	
2025-01-20 03:37:25.88	353.88	10.25	
2025-01-20 03:37:26.08	353.85	10.26	
2025-01-20 03:37:26.28	353.82	10.27	
2025-01-20 03:37:26.49	353.78	10.28	
2025-01-20 03:37:26.69	353.75	10.29	
2025-01-20 03:37:26.89	353.71	10.30	
2025-01-20 03:37:27.10	353.68	10.32	
2025-01-20 03:37:27.30	353.64	10.33	
2025-01-20 03:37:27.50	353.61	10.34	
2025-01-20 03:37:27.70	353.58	10.35	
2025-01-20 03:37:27.91	353.54	10.36	
2025-01-20 03:37:28.11	353.51	10.37	
2025-01-20 03:37:28.31	353.47	10.38	
2025-01-20 03:37:28.52	353.44	10.39	
2025-01-20 03:37:28.72	353.40	10.40	
2025-01-20 03:37:28.92	353.37	10.41	
2025-01-20 03:37:29.13	353.33	10.43	
2025-01-20 03:37:29.33	353.30	10.44	
2025-01-20 03:37:29.53	353.27	10.45	
2025-01-20 03:37:29.73	353.23	10.46	
2025-01-20 03:37:29.94	353.20	10.47	
2025-01-20 03:37:30.14	353.16	10.48	
2025-01-20 03:37:30.34	353.13	10.49	
2025-01-20 03:37:30.55	353.09	10.50	
2025-01-20 03:37:30.75	353.06	10.51	
2025-01-20 03:37:30.95	353.02	10.52	
2025-01-20 03:37:31.15	352.99	10.53	
2025-01-20 03:37:31.36	352.95	10.55	
2025-01-20 03:37:31.56	352.92	10.56	
2025-01-20 03:37:31.76	352.88	10.57	
2025-01-20 03:37:31.97	352.85	10.58	
2025-01-20 03:37:32.17	352.81	10.59	
2025-01-20 03:37:32.37	352.78	10.60	
2025-01-20 03:37:32.58	352.74	10.61	
2025-01-20 03:37:32.78	352.71	10.62	
2025-01-20 03:37:32.98	352.67	10.63	
2025-01-20 03:37:33.18	352.64	10.64	
2025-01-20 03:37:33.39	352.60	10.65	
2025-01-20 03:37:33.59	352.57	10.67	
2025-01-20 03:37:33.79	352.53	10.68	
2025-01-20 03:37:34.00	352.50	10.69	
2025-01-20 03:37:34.20	352.46	10.70	
2025-01-20 03:37:34.40	352.43	10.71	
2025-01-20 03:37:34.60	352.39	10.72	
2025-01-20 03:37:34.81	352.36	10.73	
2025-01-20 03:37:35.01	352.32	10.74	
2025-01-20 03:37:35.21	352.29	10.75	
2025-01-20 03:37:35.42	352.25	10.76	
2025-01-20 03:37:35.62	352.22	10.77	
2025-01-20 03:37:35.82	352.18	10.78	
2025-01-20 03:37:36.03	352.14	10.80	
2025-01-20 03:37:36.23	352.11	10.81	
2025-01-20 03:37:36.43	352.07	10.82	
2025-01-20 03:37:36.63	352.04	10.83	
2025-01-20 03:37:36.84	352.00	10.84	
2025-01-20 03:37:37.04	351.97	10.85	
2025-01-20 03:37:37.24	351.93	10.86	
2025-01-20 03:37:37.45	351.90	10.87	
2025-01-20 03:37:37.65	351.86	10.88	
2025-01-20 03:37:37.85	351.83	10.89	
2025-01-20 03:37:38.06	351.79	10.90	
2025-01-20 03:37:38.26	351.75	10.91	
2025-01-20 03:37:38.46	351.72	10.92	
2025-01-20 03:37:38.66	351.68	10.94	
2025-01-20 03:37:38.87	351.65	10.95	
2025-01-20 03:37:39.07	351.61	10.96	
2025-01-20 03:37:39.27	351.57	10.97	
2025-01-20 03:37:39.48	351.54	10.98	
2025-01-20 03:37:39.68	351.50	10.99	
2025-01-20 03:37:39.88	351.47	11.00	
2025-01-20 03:37:40.08	351.43	11.01	
2025-01-20 03:37:40.29	351.39	11.02	
2025-01-20 03:37:40.49	351.36	11.03	
2025-01-20 03:37:40.69	351.32	11.04	
2025-01-20 03:37:40.90	351.28	11.05	
2025-01-20 03:37:41.10	351.25	11.06	
2025-01-20 03:37:41.30	351.21	11.07	
2025-01-20 03:37:41.51	351.18	11.09	
2025-01-20 03:37:41.71	351.14	11.10	
2025-01-20 03:37:41.91	351.10	11.11	
2025-01-20 03:37:42.11	351.07	11.12	
2025-01-20 03:37:42.32	351.03	11.13	
2025-01-20 03:37:42.52	350.99	11.14	
2025-01-20 03:37:42.72	350.96	11.15	
2025-01-20 03:37:42.93	350.92	11.16	
2025-01-20 03:37:43.13	350.89	11.17	
2025-01-20 03:37:43.33	350.85	11.18	
2025-01-20 03:37:43.54	350.81	11.19	
2025-01-20 03:37:43.74	350.78	11.20	
2025-01-20 03:37:43.94	350.74	11.21	
2025-01-20 03:37:44.14	350.70	11.22	
2025-01-20 03:37:44.35	350.67	11.23	
2025-01-20 03:37:44.55	350.63	11.24	
2025-01-20 03:37:44.75	350.59	11.26	
2025-01-20 03:37:44.96	350.55	11.27	
2025-01-20 03:37:45.16	350.52	11.28	
2025-01-20 03:37:45.36	350.48	11.29	
2025-01-20 03:37:45.56	350.45	11.30	
2025-01-20 03:37:45.77	350.41	11.31	
2025-01-20 03:37:45.97	350.37	11.32	
2025-01-20 03:37:46.17	350.34	11.33	
2025-01-20 03:37:46.38	350.30	11.34	
2025-01-20 03:37:46.58	350.26	11.35	
2025-01-20 03:37:46.78	350.22	11.36	
2025-01-20 03:37:46.99	350.19	11.37	
2025-01-20 03:37:47.19	350.15	11.38	
2025-01-20 03:37:47.39	350.11	11.39	
2025-01-20 03:37:47.59	350.08	11.40	
2025-01-20 03:37:47.80	350.04	11.41	
2025-01-20 03:37:48.00	350.00	11.42	
2025-01-20 03:37:48.20	349.96	11.43	
2025-01-20 03:37:48.41	349.93	11.44	
2025-01-20 03:37:48.61	349.89	11.46	
2025-01-20 03:37:48.81	349.85	11.47	
2025-01-20 03:37:49.01	349.82	11.48	
2025-01-20 03:37:49.22	349.78	11.49	
2025-01-20 03:37:49.42	349.74	11.50	
2025-01-20 03:37:49.62	349.70	11.51	
2025-01-20 03:37:49.83	349.66	11.52	
2025-01-20 03:37:50.03	349.63	11.53	
2025-01-20 03:37:50.23	349.59	11.54	
2025-01-20 03:37:50.44	349.55	11.55	
2025-01-20 03:37:50.64	349.51	11.56	
2025-01-20 03:37:50.84	349.48	11.57	
2025-01-20 03:37:51.04	349.44	11.58	
2025-01-20 03:37:51.25	349.40	11.59	
2025-01-20 03:37:51.45	349.36	11.60	
2025-01-20 03:37:51.65	349.33	11.61	
2025-01-20 03:37:51.86	349.29	11.62	
2025-01-20 03:37:52.06	349.25	11.63	
2025-01-20 03:37:52.26	349.21	11.64	
2025-01-20 03:37:52.47	349.17	11.65	
2025-01-20 03:37:52.67	349.14	11.66	
2025-01-20 03:37:52.87	349.10	11.67	
2025-01-20 03:37:53.07	349.06	11.68	
2025-01-20 03:37:53.28	349.02	11.69	
2025-01-20 03:37:53.48	348.99	11.70	
2025-01-20 03:37:53.68	348.95	11.71	
2025-01-20 03:37:53.89	348.91	11.73	
2025-01-20 03:37:54.09	348.87	11.74	
2025-01-20 03:37:54.29	348.83	11.75	
2025-01-20 03:37:54.49	348.80	11.76	
2025-01-20 03:37:54.70	348.76	11.77	
2025-01-20 03:37:54.90	348.72	11.78	
2025-01-20 03:37:55.10	348.68	11.79	
2025-01-20 03:37:55.31	348.64	11.80	
2025-01-20 03:37:55.51	348.60	11.81	
2025-01-20 03:37:55.71	348.57	11.82	
2025-01-20 03:37:55.92	348.53	11.83	
2025-01-20 03:37:56.12	348.49	11.84	
2025-01-20 03:37:56.32	348.45	11.85	
2025-01-20 03:37:56.52	348.41	11.86	
2025-01-20 03:37:56.73	348.37	11.87	
2025-01-20 03:37:56.93	348.34	11.88	
2025-01-20 03:37:57.13	348.30	11.89	
2025-01-20 03:37:57.34	348.26	11.90	
2025-01-20 03:37:57.54	348.22	11.91	
2025-01-20 03:37:57.74	348.18	11.92	
2025-01-20 03:37:57.94	348.14	11.93	
2025-01-20 03:37:58.15	348.10	11.94	
2025-01-20 03:37:58.35	348.07	11.95	
2025-01-20 03:37:58.55	348.03	11.96	
2025-01-20 03:37:58.76	347.99	11.97	
2025-01-20 03:37:58.96	347.95	11.98	
2025-01-20 03:37:59.16	347.91	11.99	
2025-01-20 03:37:59.37	347.87	12.00	
2025-01-20 03:37:59.57	347.83	12.01	
2025-01-20 03:37:59.77	347.79	12.02	
2025-01-20 03:37:59.97	347.76	12.03	
2025-01-20 03:38:00.18	347.72	12.04	
2025-01-20 03:38:00.38	347.68	12.05	
2025-01-20 03:38:00.58	347.64	12.06	
2025-01-20 03:38:00.79	347.60	12.07	
2025-01-20 03:38:00.99	347.56	12.08	
2025-01-20 03:38:01.19	347.52	12.09	
2025-01-20 03:38:01.40	347.48	12.10	
2025-01-20 03:38:01.60	347.44	12.11	
2025-01-20 03:38:01.80	347.40	12.12	
2025-01-20 03:38:02.00	347.37	12.13	
2025-01-20 03:38:02.21	347.32	12.14	
2025-01-20 03:38:02.41	347.29	12.15	
2025-01-20 03:38:02.61	347.25	12.16	
2025-01-20 03:38:02.82	347.21	12.17	
2025-01-20 03:38:03.02	347.17	12.18	
2025-01-20 03:38:03.22	347.13	12.19	
2025-01-20 03:38:03.42	347.09	12.20	
2025-01-20 03:38:03.63	347.05	12.21	
2025-01-20 03:38:03.83	347.01	12.22	
2025-01-20 03:38:04.03	346.97	12.23	
2025-01-20 03:38:04.24	346.93	12.24	
2025-01-20 03:38:04.44	346.89	12.25	
2025-01-20 03:38:04.64	346.85	12.26	
2025-01-20 03:38:04.85	346.81	12.27	
2025-01-20 03:38:05.05	346.77	12.28	
2025-01-20 03:38:05.25	346.73	12.29	
2025-01-20 03:38:05.45	346.69	12.30	
2025-01-20 03:38:05.66	346.65	12.31	
2025-01-20 03:38:05.86	346.61	12.32	
2025-01-20 03:38:06.06	346.58	12.33	
2025-01-20 03:38:06.27	346.53	12.34	
2025-01-20 03:38:06.47	346.49	12.35	
2025-01-20 03:38:06.67	346.46	12.36	
2025-01-20 03:38:06.87	346.42	12.37	
2025-01-20 03:38:07.08	346.37	12.38	
2025-01-20 03:38:07.28	346.34	12.39	
2025-01-20 03:38:07.48	346.30	12.40	
2025-01-20 03:38:07.69	346.25	12.41	
2025-01-20 03:38:07.89	346.22	12.42	
2025-01-20 03:38:08.09	346.18	12.43	
2025-01-20 03:38:08.30	346.13	12.44	
2025-01-20 03:38:08.50	346.09	12.45	
2025-01-20 03:38:08.70	346.05	12.46	
2025-01-20 03:38:08.90	346.02	12.47	
2025-01-20 03:38:09.11	345.97	12.48	
2025-01-20 03:38:09.31	345.93	12.49	
2025-01-20 03:38:09.51	345.89	12.49	
2025-01-20 03:38:09.72	345.85	12.50	
2025-01-20 03:38:09.92	345.81	12.51	
2025-01-20 03:38:10.12	345.77	12.52	
2025-01-20 03:38:10.33	345.73	12.53	
2025-01-20 03:38:10.53	345.69	12.54	
2025-01-20 03:38:10.73	345.65	12.55	
2025-01-20 03:38:10.93	345.61	12.56	
2025-01-20 03:38:11.14	345.57	12.57	
2025-01-20 03:38:11.34	345.53	12.58	
2025-01-20 03:38:11.54	345.49	12.59	
2025-01-20 03:38:11.75	345.45	12.60	
2025-01-20 03:38:11.95	345.41	12.61	
2025-01-20 03:38:12.15	345.37	12.62	
2025-01-20 03:38:12.35	345.33	12.63	
2025-01-20 03:38:12.56	345.29	12.64	
2025-01-20 03:38:12.76	345.25	12.65	
2025-01-20 03:38:12.96	345.21	12.66	
2025-01-20 03:38:13.17	345.16	12.67	
2025-01-20 03:38:13.37	345.12	12.68	
2025-01-20 03:38:13.57	345.08	12.69	
2025-01-20 03:38:13.78	345.04	12.70	
2025-01-20 03:38:13.98	345.00	12.71	
2025-01-20 03:38:14.18	344.96	12.72	
2025-01-20 03:38:14.38	344.92	12.72	
2025-01-20 03:38:14.59	344.88	12.73	
2025-01-20 03:38:14.79	344.84	12.74	
2025-01-20 03:38:14.99	344.80	12.75	
2025-01-20 03:38:15.20	344.75	12.76	
2025-01-20 03:38:15.40	344.71	12.77	
2025-01-20 03:38:15.60	344.67	12.78	
2025-01-20 03:38:15.81	344.63	12.79	
2025-01-20 03:38:16.01	344.59	12.80	
2025-01-20 03:38:16.21	344.55	12.81	
2025-01-20 03:38:16.41	344.51	12.82	
2025-01-20 03:38:16.62	344.47	12.83	
2025-01-20 03:38:16.82	344.42	12.84	
2025-01-20 03:38:17.02	344.38	12.85	
2025-01-20 03:38:17.23	344.34	12.86	
2025-01-20 03:38:17.43	344.30	12.87	
2025-01-20 03:38:17.63	344.26	12.87	
2025-01-20 03:38:17.83	344.22	12.88	
2025-01-20 03:38:18.04	344.18	12.89	
2025-01-20 03:38:18.24	344.13	12.90	
2025-01-20 03:38:18.44	344.09	12.91	
2025-01-20 03:38:18.65	344.05	12.92	
2025-01-20 03:38:18.85	344.01	12.93	
2025-01-20 03:38:19.05	343.97	12.94	
2025-01-20 03:38:19.26	343.93	12.95	
2025-01-20 03:38:19.46	343.88	12.96	
2025-01-20 03:38:19.66	343.84	12.97	
2025-01-20 03:38:19.86	343.80	12.98	
2025-01-20 03:38:20.07	343.76	12.99	
2025-01-20 03:38:20.27	343.72	12.99	
2025-01-20 03:38:20.47	343.68	13.00	
2025-01-20 03:38:20.68	343.63	13.01	
2025-01-20 03:38:20.88	343.59	13.02	
2025-01-20 03:38:21.08	343.55	13.03	
2025-01-20 03:38:21.29	343.51	13.04	
2025-01-20 03:38:21.49	343.47	13.05	
2025-01-20 03:38:21.69	343.42	13.06	
2025-01-20 03:38:21.89	343.38	13.07	
2025-01-20 03:38:22.10	343.34	13.08	
2025-01-20 03:38:22.30	343.30	13.09	
2025-01-20 03:38:22.50	343.26	13.10	
2025-01-20 03:38:22.71	343.21	13.10	
2025-01-20 03:38:22.91	343.17	13.11	
2025-01-20 03:38:23.11	343.13	13.12	
2025-01-20 03:38:23.31	343.09	13.13	
2025-01-20 03:38:23.52	343.05	13.14	
2025-01-20 03:38:23.72	343.00	13.15	
2025-01-20 03:38:23.92	342.96	13.16	
2025-01-20 03:38:24.13	342.92	13.17	
2025-01-20 03:38:24.33	342.88	13.18	
2025-01-20 03:38:24.53	342.83	13.19	
2025-01-20 03:38:24.74	342.79	13.19	
2025-01-20 03:38:24.94	342.75	13.20	
2025-01-20 03:38:25.14	342.71	13.21	
2025-01-20 03:38:25.34	342.66	13.22	
2025-01-20 03:38:25.55	342.62	13.23	
2025-01-20 03:38:25.75	342.58	13.24	
2025-01-20 03:38:25.95	342.54	13.25	
2025-01-20 03:38:26.16	342.49	13.26	
2025-01-20 03:38:26.36	342.45	13.27	
2025-01-20 03:38:26.56	342.41	13.27	
2025-01-20 03:38:26.76	342.37	13.28	
2025-01-20 03:38:26.97	342.32	13.29	
2025-01-20 03:38:27.17	342.28	13.30	
2025-01-20 03:38:27.37	342.24	13.31	
2025-01-20 03:38:27.58	342.19	13.32	
2025-01-20 03:38:27.78	342.15	13.33	
2025-01-20 03:38:27.98	342.11	13.34	
2025-01-20 03:38:28.19	342.07	13.34	
2025-01-20 03:38:28.39	342.02	13.35	
2025-01-20 03:38:28.59	341.98	13.36	
2025-01-20 03:38:28.79	341.94	13.37	
2025-01-20 03:38:29.00	341.89	13.38	
2025-01-20 03:38:29.20	341.85	13.39	
2025-01-20 03:38:29.40	341.81	13.40	
2025-01-20 03:38:29.61	341.76	13.41	
2025-01-20 03:38:29.81	341.72	13.41	
2025-01-20 03:38:30.01	341.68	13.42	
2025-01-20 03:38:30.22	341.63	13.43	
2025-01-20 03:38:30.42	341.59	13.44	
2025-01-20 03:38:30.62	341.55	13.45	
2025-01-20 03:38:30.82	341.51	13.46	
2025-01-20 03:38:31.03	341.46	13.47	
2025-01-20 03:38:31.23	341.42	13.47	
2025-01-20 03:38:31.43	341.38	13.48	
2025-01-20 03:38:31.64	341.33	13.49	
2025-01-20 03:38:31.84	341.29	13.50	
2025-01-20 03:38:32.04	341.25	13.51	
2025-01-20 03:38:32.24	341.20	13.52	
2025-01-20 03:38:32.45	341.16	13.53	
2025-01-20 03:38:32.65	341.12	13.53	
2025-01-20 03:38:32.85	341.07	13.54	
2025-01-20 03:38:33.06	341.03	13.55	
2025-01-20 03:38:33.26	340.99	13.56	
2025-01-20 03:38:33.46	340.94	13.57	
2025-01-20 03:38:33.67	340.90	13.58	
2025-01-20 03:38:33.87	340.85	13.58	
2025-01-20 03:38:34.07	340.81	13.59	
2025-01-20 03:38:34.27	340.77	13.60	
2025-01-20 03:38:34.48	340.72	13.61	
2025-01-20 03:38:34.68	340.68	13.62	
2025-01-20 03:38:34.88	340.64	13.63	
2025-01-20 03:38:35.09	340.59	13.63	
2025-01-20 03:38:35.29	340.55	13.64	
2025-01-20 03:38:35.49	340.50	13.65	
2025-01-20 03:38:35.69	340.46	13.66	
2025-01-20 03:38:35.90	340.42	13.67	
2025-01-20 03:38:36.10	340.37	13.68	
2025-01-20 03:38:36.30	340.33	13.68	
2025-01-20 03:38:36.51	340.28	13.69	
2025-01-20 03:38:36.71	340.24	13.70	
2025-01-20 03:38:36.91	340.20	13.71	
2025-01-20 03:38:37.12	340.15	13.72	
2025-01-20 03:38:37.32	340.11	13.73	
2025-01-20 03:38:37.52	340.06	13.73	
2025-01-20 03:38:37.72	340.02	13.74	
2025-01-20 03:38:37.93	339.98	13.75	
2025-01-20 03:38:38.13	339.93	13.76	
2025-01-20 03:38:38.33	339.89	13.77	
2025-01-20 03:38:38.54	339.84	13.77	
2025-01-20 03:38:38.74	339.80	13.78	
2025-01-20 03:38:38.94	339.76	13.79	
2025-01-20 03:38:39.15	339.71	13.80	
2025-01-20 03:38:39.35	339.67	13.81	
2025-01-20 03:38:39.55	339.62	13.81	
2025-01-20 03:38:39.75	339.58	13.82	
2025-01-20 03:38:39.96	339.53	13.83	
2025-01-20 03:38:40.16	339.49	13.84	
2025-01-20 03:38:40.36	339.44	13.85	
2025-01-20 03:38:40.57	339.40	13.86	
2025-01-20 03:38:40.77	339.35	13.86	
2025-01-20 03:38:40.97	339.31	13.87	
2025-01-20 03:38:41.17	339.27	13.88	
2025-01-20 03:38:41.38	339.22	13.89	
2025-01-20 03:38:41.58	339.18	13.89	
2025-01-20 03:38:41.78	339.13	13.90	
2025-01-20 03:38:41.99	339.09	13.91	
2025-01-20 03:38:42.19	339.04	13.92	
2025-01-20 03:38:42.39	339.00	13.93	
2025-01-20 03:38:42.60	338.95	13.93	
2025-01-20 03:38:42.80	338.91	13.94	
2025-01-20 03:38:43.00	338.86	13.95	
2025-01-20 03:38:43.20	338.82	13.96	
2025-01-20 03:38:43.41	338.77	13.97	
2025-01-20 03:38:43.61	338.73	13.97	
2025-01-20 03:38:43.81	338.68	13.98	
2025-01-20 03:38:44.02	338.64	13.99	
2025-01-20 03:38:44.22	338.59	14.00	
2025-01-20 03:38:44.42	338.55	14.00	
2025-01-20 03:38:44.62	338.50	14.01	
2025-01-20 03:38:44.83	338.46	14.02	
2025-01-20 03:38:45.03	338.41	14.03	
2025-01-20 03:38:45.23	338.37	14.03	
2025-01-20 03:38:45.44	338.32	14.04	
2025-01-20 03:38:45.64	338.28	14.05	
2025-01-20 03:38:45.84	338.23	14.06	
2025-01-20 03:38:46.05	338.19	14.07	
2025-01-20 03:38:46.25	338.14	14.07	
2025-01-20 03:38:46.45	338.10	14.08	
2025-01-20 03:38:46.65	338.05	14.09	
2025-01-20 03:38:46.86	338.01	14.10	
2025-01-20 03:38:47.06	337.96	14.10	
2025-01-20 03:38:47.26	337.92	14.11	
2025-01-20 03:38:47.47	337.87	14.12	
2025-01-20 03:38:47.67	337.82	14.13	
2025-01-20 03:38:47.87	337.78	14.13	
2025-01-20 03:38:48.08	337.73	14.14	
2025-01-20 03:38:48.28	337.69	14.15	
2025-01-20 03:38:48.48	337.64	14.16	
2025-01-20 03:38:48.68	337.60	14.16	
2025-01-20 03:38:48.89	337.55	14.17	
2025-01-20 03:38:49.09	337.51	14.18	
2025-01-20 03:38:49.29	337.46	14.19	
2025-01-20 03:38:49.50	337.41	14.19	
2025-01-20 03:38:49.70	337.37	14.20	
2025-01-20 03:38:49.90	337.32	14.21	
2025-01-20 03:38:50.10	337.28	14.21	
2025-01-20 03:38:50.31	337.23	14.22	
2025-01-20 03:38:50.51	337.19	14.23	
2025-01-20 03:38:50.71	337.14	14.24	
2025-01-20 03:38:50.92	337.09	14.24	
2025-01-20 03:38:51.12	337.05	14.25	
2025-01-20 03:38:51.32	337.00	14.26	
2025-01-20 03:38:51.53	336.96	14.27	
2025-01-20 03:38:51.73	336.91	14.27	
2025-01-20 03:38:51.93	336.87	14.28	
2025-01-20 03:38:52.13	336.82	14.29	
2025-01-20 03:38:52.34	336.77	14.29	
2025-01-20 03:38:52.54	336.73	14.30	
2025-01-20 03:38:52.74	336.68	14.31	
2025-01-20 03:38:52.95	336.63	14.32	
2025-01-20 03:38:53.15	336.59	14.32	
2025-01-20 03:38:53.35	336.54	14.33	
2025-01-20 03:38:53.56	336.50	14.34	
2025-01-20 03:38:53.76	336.45	14.34	
2025-01-20 03:38:53.96	336.40	14.35	
2025-01-20 03:38:54.16	336.36	14.36	
2025-01-20 03:38:54.37	336.31	14.36	
2025-01-20 03:38:54.57	336.27	14.37	
2025-01-20 03:38:54.77	336.22	14.38	
2025-01-20 03:38:54.98	336.17	14.39	
2025-01-20 03:38:55.18	336.13	14.39	
2025-01-20 03:38:55.38	336.08	14.40	
2025-01-20 03:38:55.58	336.04	14.41	
2025-01-20 03:38:55.79	335.99	14.41	
2025-01-20 03:38:55.99	335.94	14.42	
2025-01-20 03:38:56.19	335.90	14.43	
2025-01-20 03:38:56.40	335.85	14.43	
2025-01-20 03:38:56.60	335.80	14.44	
2025-01-20 03:38:56.80	335.76	14.45	
2025-01-20 03:38:57.01	335.71	14.45	
2025-01-20 03:38:57.21	335.66	14.46	
2025-01-20 03:38:57.41	335.62	14.47	
2025-01-20 03:38:57.61	335.57	14.47	
2025-01-20 03:38:57.82	335.52	14.48	
2025-01-20 03:38:58.02	335.48	14.49	
2025-01-20 03:38:58.22	335.43	14.49	
2025-01-20 03:38:58.43	335.38	14.50	
2025-01-20 03:38:58.63	335.34	14.51	
2025-01-20 03:38:58.83	335.29	14.51	
2025-01-20 03:38:59.03	335.24	14.52	
2025-01-20 03:38:59.24	335.20	14.53	
2025-01-20 03:38:59.44	335.15	14.53	
2025-01-20 03:38:59.64	335.10	14.54	
2025-01-20 03:38:59.85	335.05	14.55	
2025-01-20 03:39:00.05	335.01	14.55	
2025-01-20 03:39:00.25	334.96	14.56	
2025-01-20 03:39:00.46	334.91	14.57	
2025-01-20 03:39:00.66	334.87	14.57	
2025-01-20 03:39:00.86	334.82	14.58	
2025-01-20 03:39:01.06	334.77	14.59	
2025-01-20 03:39:01.27	334.73	14.59	
2025-01-20 03:39:01.47	334.68	14.60	
2025-01-20 03:39:01.67	334.63	14.61	
2025-01-20 03:39:01.88	334.58	14.61	
2025-01-20 03:39:02.08	334.54	14.62	
2025-01-20 03:39:02.28	334.49	14.63	
2025-01-20 03:39:02.49	334.44	14.63	
2025-01-20 03:39:02.69	334.40	14.64	
2025-01-20 03:39:02.89	334.35	14.64	
2025-01-20 03:39:03.09	334.30	14.65	
2025-01-20 03:39:03.30	334.25	14.66	
2025-01-20 03:39:03.50	334.21	14.66	
2025-01-20 03:39:03.70	334.16	14.67	
2025-01-20 03:39:03.91	334.11	14.68	
2025-01-20 03:39:04.11	334.07	14.68	
2025-01-20 03:39:04.31	334.02	14.69	
2025-01-20 03:39:04.51	333.97	14.69	
2025-01-20 03:39:04.72	333.92	14.70	
2025-01-20 03:39:04.92	333.88	14.71	
2025-01-20 03:39:05.12	333.83	14.71	
2025-01-20 03:39:05.33	333.78	14.72	
2025-01-20 03:39:05.53	333.73	14.73	
2025-01-20 03:39:05.73	333.69	14.73	
2025-01-20 03:39:05.94	333.64	14.74	
2025-01-20 03:39:06.14	333.59	14.74	
2025-01-20 03:39:06.34	333.54	14.75	
2025-01-20 03:39:06.54	333.50	14.76	
2025-01-20 03:39:06.75	333.45	14.76	
2025-01-20 03:39:06.95	333.40	14.77	
2025-01-20 03:39:07.15	333.36	14.77	
2025-01-20 03:39:07.36	333.31	14.78	
2025-01-20 03:39:07.56	333.26	14.79	
2025-01-20 03:39:07.76	333.21	14.79	
2025-01-20 03:39:07.96	333.16	14.80	
2025-01-20 03:39:08.17	333.12	14.80	
2025-01-20 03:39:08.37	333.07	14.81	
2025-01-20 03:39:08.57	333.02	14.82	
2025-01-20 03:39:08.78	332.97	14.82	
2025-01-20 03:39:08.98	332.92	14.83	
2025-01-20 03:39:09.18	332.88	14.83	
2025-01-20 03:39:09.39	332.83	14.84	
2025-01-20 03:39:09.59	332.78	14.84	
2025-01-20 03:39:09.79	332.73	14.85	
2025-01-20 03:39:09.99	332.69	14.86	
2025-01-20 03:39:10.20	332.64	14.86	
2025-01-20 03:39:10.40	332.59	14.87	
2025-01-20 03:39:10.60	332.54	14.87	
2025-01-20 03:39:10.81	332.49	14.88	
2025-01-20 03:39:11.01	332.45	14.88	
2025-01-20 03:39:11.21	332.40	14.89	
2025-01-20 03:39:11.42	332.35	14.90	
2025-01-20 03:39:11.62	332.30	14.90	
2025-01-20 03:39:11.82	332.25	14.91	
2025-01-20 03:39:12.02	332.21	14.91	
2025-01-20 03:39:12.23	332.16	14.92	
2025-01-20 03:39:12.43	332.11	14.92	
2025-01-20 03:39:12.63	332.06	14.93	
2025-01-20 03:39:12.84	332.01	14.93	
2025-01-20 03:39:13.04	331.96	14.94	
2025-01-20 03:39:13.24	331.92	14.94	
2025-01-20 03:39:13.44	331.87	14.95	
2025-01-20 03:39:13.65	331.82	14.96	
2025-01-20 03:39:13.85	331.77	14.96	
2025-01-20 03:39:14.05	331.72	14.97	
2025-01-20 03:39:14.26	331.67	14.97	
2025-01-20 03:39:14.46	331.63	14.98	
2025-01-20 03:39:14.66	331.58	14.98	
2025-01-20 03:39:14.87	331.53	14.99	
2025-01-20 03:39:15.07	331.48	14.99	
2025-01-20 03:39:15.27	331.43	15.00	
2025-01-20 03:39:15.47	331.39	15.00	
2025-01-20 03:39:15.68	331.34	15.01	
2025-01-20 03:39:15.88	331.29	15.01	
2025-01-20 03:39:16.08	331.24	15.02	
2025-01-20 03:39:16.29	331.19	15.02	
2025-01-20 03:39:16.49	331.14	15.03	
2025-01-20 03:39:16.69	331.09	15.03	
2025-01-20 03:39:16.90	331.04	15.04	
2025-01-20 03:39:17.10	331.00	15.05	
2025-01-20 03:39:17.30	330.95	15.05	
2025-01-20 03:39:17.50	330.90	15.06	
2025-01-20 03:39:17.71	330.85	15.06	
2025-01-20 03:39:17.91	330.80	15.07	
2025-01-20 03:39:18.11	330.75	15.07	
2025-01-20 03:39:18.32	330.70	15.08	
2025-01-20 03:39:18.52	330.66	15.08	
2025-01-20 03:39:18.72	330.61	15.09	
2025-01-20 03:39:18.92	330.56	15.09	
2025-01-20 03:39:19.13	330.51	15.10	
2025-01-20 03:39:19.33	330.46	15.10	
2025-01-20 03:39:19.53	330.41	15.10	
2025-01-20 03:39:19.74	330.36	15.11	
2025-01-20 03:39:19.94	330.31	15.11	
2025-01-20 03:39:20.14	330.27	15.12	
2025-01-20 03:39:20.35	330.22	15.12	
2025-01-20 03:39:20.55	330.17	15.13	
2025-01-20 03:39:20.75	330.12	15.13	
2025-01-20 03:39:20.95	330.07	15.14	
2025-01-20 03:39:21.16	330.02	15.14	
2025-01-20 03:39:21.36	329.97	15.15	
2025-01-20 03:39:21.56	329.92	15.15	
2025-01-20 03:39:21.77	329.87	15.16	
2025-01-20 03:39:21.97	329.83	15.16	
2025-01-20 03:39:22.17	329.78	15.17	
2025-01-20 03:39:22.37	329.73	15.17	
2025-01-20 03:39:22.58	329.68	15.18	
2025-01-20 03:39:22.78	329.63	15.18	
2025-01-20 03:39:22.98	329.58	15.18	
2025-01-20 03:39:23.19	329.53	15.19	
2025-01-20 03:39:23.39	329.48	15.19	
2025-01-20 03:39:23.59	329.43	15.20	
2025-01-20 03:39:23.80	329.38	15.20	
2025-01-20 03:39:24.00	329.33	15.21	
2025-01-20 03:39:24.20	329.29	15.21	
2025-01-20 03:39:24.40	329.24	15.22	
2025-01-20 03:39:24.61	329.19	15.22	
2025-01-20 03:39:24.81	329.14	15.22	
2025-01-20 03:39:25.01	329.09	15.23	
2025-01-20 03:39:25.22	329.04	15.23	
2025-01-20 03:39:25.42	328.99	15.24	
2025-01-20 03:39:25.62	328.94	15.24	
2025-01-20 03:39:25.83	328.89	15.25	
2025-01-20 03:39:26.03	328.84	15.25	
2025-01-20 03:39:26.23	328.79	15.26	
2025-01-20 03:39:26.43	328.74	15.26	
2025-01-20 03:39:26.64	328.69	15.26	
2025-01-20 03:39:26.84	328.64	15.27	
2025-01-20 03:39:27.04	328.60	15.27	
2025-01-20 03:39:27.25	328.54	15.28	
2025-01-20 03:39:27.45	328.50	15.28	
2025-01-20 03:39:27.65	328.45	15.28	
2025-01-20 03:39:27.85	328.40	15.29	
2025-01-20 03:39:28.06	328.35	15.29	
2025-01-20 03:39:28.26	328.30	15.30	
2025-01-20 03:39:28.46	328.25	15.30	
2025-01-20 03:39:28.67	328.20	15.30	
2025-01-20 03:39:28.87	328.15	15.31	
2025-01-20 03:39:29.07	328.10	15.31	
2025-01-20 03:39:29.28	328.05	15.32	
2025-01-20 03:39:29.48	328.00	15.32	
2025-01-20 03:39:29.68	327.95	15.32	
2025-01-20 03:39:29.88	327.90	15.33	
2025-01-20 03:39:30.09	327.85	15.33	
2025-01-20 03:39:30.29	327.80	15.34	
2025-01-20 03:39:30.49	327.75	15.34	
2025-01-20 03:39:30.70	327.70	15.34	
2025-01-20 03:39:30.90	327.65	15.35	
2025-01-20 03:39:31.10	327.60	15.35	
2025-01-20 03:39:31.30	327.56	15.35	
2025-01-20 03:39:31.51	327.50	15.36	
2025-01-20 03:39:31.71	327.46	15.36	
2025-01-20 03:39:31.91	327.41	15.37	
2025-01-20 03:39:32.12	327.36	15.37	
2025-01-20 03:39:32.32	327.31	15.37	
2025-01-20 03:39:32.52	327.26	15.38	
2025-01-20 03:39:32.73	327.21	15.38	
2025-01-20 03:39:32.93	327.16	15.38	
2025-01-20 03:39:33.13	327.11	15.39	
2025-01-20 03:39:33.33	327.06	15.39	
2025-01-20 03:39:33.54	327.01	15.39	
2025-01-20 03:39:33.74	326.96	15.40	
2025-01-20 03:39:33.94	326.91	15.40	
2025-01-20 03:39:34.15	326.86	15.41	
2025-01-20 03:39:34.35	326.81	15.41	
2025-01-20 03:39:34.55	326.76	15.41	
2025-01-20 03:39:34.76	326.71	15.42	
2025-01-20 03:39:34.96	326.66	15.42	
2025-01-20 03:39:35.16	326.61	15.42	
2025-01-20 03:39:35.36	326.56	15.43	
2025-01-20 03:39:35.57	326.51	15.43	
2025-01-20 03:39:35.77	326.46	15.43	
2025-01-20 03:39:35.97	326.41	15.44	
2025-01-20 03:39:36.18	326.36	15.44	
2025-01-20 03:39:36.38	326.31	15.44	
2025-01-20 03:39:36.58	326.26	15.45	
2025-01-20 03:39:36.78	326.21	15.45	
2025-01-20 03:39:36.99	326.16	15.45	
2025-01-20 03:39:37.19	326.11	15.46	
2025-01-20 03:39:37.39	326.06	15.46	
2025-01-20 03:39:37.60	326.01	15.46	
2025-01-20 03:39:37.80	325.96	15.46	
2025-01-20 03:39:38.00	325.91	15.47	
2025-01-20 03:39:38.21	325.86	15.47	
2025-01-20 03:39:38.41	325.81	15.47	
2025-01-20 03:39:38.61	325.76	15.48	
2025-01-20 03:39:38.81	325.71	15.48	
2025-01-20 03:39:39.02	325.66	15.48	
2025-01-20 03:39:39.22	325.61	15.49	
2025-01-20 03:39:39.42	325.56	15.49	
2025-01-20 03:39:39.63	325.51	15.49	
2025-01-20 03:39:39.83	325.46	15.49	
2025-01-20 03:39:40.03	325.41	15.50	
2025-01-20 03:39:40.24	325.35	15.50	
2025-01-20 03:39:40.44	325.31	15.50	
2025-01-20 03:39:40.64	325.26	15.51	
2025-01-20 03:39:40.84	325.21	15.51	
2025-01-20 03:39:41.05	325.15	15.51	
2025-01-20 03:39:41.25	325.10	15.51	
2025-01-20 03:39:41.45	325.06	15.52	
2025-01-20 03:39:41.66	325.00	15.52	
2025-01-20 03:39:41.86	324.95	15.52	
2025-01-20 03:39:42.06	324.90	15.52	
2025-01-20 03:39:42.26	324.85	15.53	
2025-01-20 03:39:42.47	324.80	15.53	
2025-01-20 03:39:42.67	324.75	15.53	
2025-01-20 03:39:42.87	324.70	15.54	
2025-01-20 03:39:43.08	324.65	15.54	
2025-01-20 03:39:43.28	324.60	15.54	
2025-01-20 03:39:43.48	324.55	15.54	
2025-01-20 03:39:43.69	324.50	15.55	
2025-01-20 03:39:43.89	324.45	15.55	
2025-01-20 03:39:44.09	324.40	15.55	
2025-01-20 03:39:44.29	324.35	15.55	
2025-01-20 03:39:44.50	324.30	15.56	
2025-01-20 03:39:44.70	324.25	15.56	
2025-01-20 03:39:44.90	324.20	15.56	
2025-01-20 03:39:45.11	324.15	15.56	
2025-01-20 03:39:45.31	324.10	15.56	
2025-01-20 03:39:45.51	324.05	15.57	
2025-01-20 03:39:45.71	324.00	15.57	
2025-01-20 03:39:45.92	323.95	15.57	
2025-01-20 03:39:46.12	323.90	15.57	
2025-01-20 03:39:46.32	323.85	15.58	
2025-01-20 03:39:46.53	323.79	15.58	
2025-01-20 03:39:46.73	323.74	15.58	
2025-01-20 03:39:46.93	323.69	15.58	
2025-01-20 03:39:47.14	323.64	15.59	
2025-01-20 03:39:47.34	323.59	15.59	
2025-01-20 03:39:47.54	323.54	15.59	
2025-01-20 03:39:47.74	323.49	15.59	
2025-01-20 03:39:47.95	323.44	15.59	
2025-01-20 03:39:48.15	323.39	15.60	
2025-01-20 03:39:48.35	323.34	15.60	
2025-01-20 03:39:48.56	323.29	15.60	
2025-01-20 03:39:48.76	323.24	15.60	
2025-01-20 03:39:48.96	323.19	15.60	
2025-01-20 03:39:49.17	323.14	15.61	
2025-01-20 03:39:49.37	323.09	15.61	
2025-01-20 03:39:49.57	323.04	15.61	
2025-01-20 03:39:49.77	322.99	15.61	
2025-01-20 03:39:49.98	322.93	15.61	
2025-01-20 03:39:50.18	322.88	15.61	
2025-01-20 03:39:50.38	322.83	15.62	
2025-01-20 03:39:50.59	322.78	15.62	
2025-01-20 03:39:50.79	322.73	15.62	
2025-01-20 03:39:50.99	322.68	15.62	
2025-01-20 03:39:51.19	322.63	15.62	
2025-01-20 03:39:51.40	322.58	15.63	
2025-01-20 03:39:51.60	322.53	15.63	
2025-01-20 03:39:51.80	322.48	15.63	
2025-01-20 03:39:52.01	322.43	15.63	
2025-01-20 03:39:52.21	322.38	15.63	
2025-01-20 03:39:52.41	322.33	15.63	
2025-01-20 03:39:52.62	322.27	15.63	
2025-01-20 03:39:52.82	322.22	15.64	
2025-01-20 03:39:53.02	322.17	15.64	
2025-01-20 03:39:53.22	322.12	15.64	
2025-01-20 03:39:53.43	322.07	15.64	
2025-01-20 03:39:53.63	322.02	15.64	
2025-01-20 03:39:53.83	321.97	15.64	
2025-01-20 03:39:54.04	321.92	15.65	
2025-01-20 03:39:54.24	321.87	15.65	
2025-01-20 03:39:54.44	321.82	15.65	
2025-01-20 03:39:54.64	321.77	15.65	
2025-01-20 03:39:54.85	321.72	15.65	
2025-01-20 03:39:55.05	321.67	15.65	
2025-01-20 03:39:55.25	321.62	15.65	
2025-01-20 03:39:55.46	321.56	15.65	
2025-01-20 03:39:55.66	321.51	15.66	
2025-01-20 03:39:55.86	321.46	15.66	
2025-01-20 03:39:56.07	321.41	15.66	
2025-01-20 03:39:56.27	321.36	15.66	
2025-01-20 03:39:56.47	321.31	15.66	
2025-01-20 03:39:56.67	321.26	15.66	
2025-01-20 03:39:56.88	321.21	15.66	
2025-01-20 03:39:57.08	321.16	15.66	
2025-01-20 03:39:57.28	321.11	15.67	
2025-01-20 03:39:57.49	321.06	15.67	
2025-01-20 03:39:57.69	321.01	15.67	
2025-01-20 03:39:57.89	320.96	15.67	
2025-01-20 03:39:58.10	320.90	15.67	
2025-01-20 03:39:58.30	320.85	15.67	
2025-01-20 03:39:58.50	320.80	15.67	
2025-01-20 03:39:58.70	320.75	15.67	
2025-01-20 03:39:58.91	320.70	15.67	
2025-01-20 03:39:59.11	320.65	15.67	
2025-01-20 03:39:59.31	320.60	15.67	
2025-01-20 03:39:59.52	320.55	15.68	
2025-01-20 03:39:59.72	320.50	15.68	
2025-01-20 03:39:59.92	320.45	15.68	
2025-01-20 03:40:00.12	320.40	15.68	
2025-01-20 03:40:00.33	320.34	15.68	
2025-01-20 03:40:00.53	320.29	15.68	
2025-01-20 03:40:00.73	320.24	15.68	
2025-01-20 03:40:00.94	320.19	15.68	
2025-01-20 03:40:01.14	320.14	15.68	
2025-01-20 03:40:01.34	320.09	15.68	
2025-01-20 03:40:01.55	320.04	15.68	
2025-01-20 03:40:01.75	319.99	15.68	
2025-01-20 03:40:01.95	319.94	15.68	
2025-01-20 03:40:02.15	319.89	15.68	
2025-01-20 03:40:02.36	319.83	15.69	
2025-01-20 03:40:02.56	319.78	15.69	
2025-01-20 03:40:02.76	319.73	15.69	
2025-01-20 03:40:02.97	319.68	15.69	
2025-01-20 03:40:03.17	319.63	15.69	
2025-01-20 03:40:03.37	319.58	15.69	
2025-01-20 03:40:03.58	319.53	15.69	
2025-01-20 03:40:03.78	319.48	15.69	
2025-01-20 03:40:03.98	319.43	15.69	
2025-01-20 03:40:04.18	319.38	15.69	
2025-01-20 03:40:04.39	319.33	15.69	
2025-01-20 03:40:04.59	319.28	15.69	
2025-01-20 03:40:04.79	319.22	15.69	
2025-01-20 03:40:05.00	319.17	15.69	
2025-01-20 03:40:05.20	319.12	15.69	
2025-01-20 03:40:05.40	319.07	15.69	
2025-01-20 03:40:05.60	319.02	15.69	
2025-01-20 03:40:05.81	318.97	15.69	
2025-01-20 03:40:06.01	318.92	15.69	
2025-01-20 03:40:06.21	318.87	15.69	
2025-01-20 03:40:06.42	318.82	15.69	
2025-01-20 03:40:06.62	318.77	15.69	
2025-01-20 03:40:06.82	318.72	15.69	
2025-01-20 03:40:07.03	318.66	15.69	
2025-01-20 03:40:07.23	318.61	15.69	
2025-01-20 03:40:07.43	318.56	15.69	
2025-01-20 03:40:07.63	318.51	15.69	
2025-01-20 03:40:07.84	318.46	15.69	
2025-01-20 03:40:08.04	318.41	15.69	
2025-01-20 03:40:08.24	318.36	15.69	
2025-01-20 03:40:08.45	318.31	15.69	
2025-01-20 03:40:08.65	318.26	15.69	
2025-01-20 03:40:08.85	318.21	15.69	
2025-01-20 03:40:09.05	318.16	15.69	
2025-01-20 03:40:09.26	318.10	15.69	
2025-01-20 03:40:09.46	318.05	15.69	
2025-01-20 03:40:09.66	318.00	15.69	
2025-01-20 03:40:09.87	317.95	15.69	
2025-01-20 03:40:10.07	317.90	15.69	
2025-01-20 03:40:10.27	317.85	15.69	
2025-01-20 03:40:10.48	317.80	15.69	
2025-01-20 03:40:10.68	317.75	15.69	
2025-01-20 03:40:10.88	317.70	15.69	
2025-01-20 03:40:11.08	317.65	15.69	
2025-01-20 03:40:11.29	317.59	15.69	
2025-01-20 03:40:11.49	317.54	15.69	
2025-01-20 03:40:11.69	317.49	15.69	
2025-01-20 03:40:11.90	317.44	15.69	
2025-01-20 03:40:12.10	317.39	15.69	
2025-01-20 03:40:12.30	317.34	15.68	
2025-01-20 03:40:12.50	317.29	15.68	
2025-01-20 03:40:12.71	317.24	15.68	
2025-01-20 03:40:12.91	317.19	15.68	
2025-01-20 03:40:13.11	317.14	15.68	
2025-01-20 03:40:13.32	317.08	15.68	
2025-01-20 03:40:13.52	317.03	15.68	
2025-01-20 03:40:13.72	316.98	15.68	
2025-01-20 03:40:13.93	316.93	15.68	
2025-01-20 03:40:14.13	316.88	15.68	
2025-01-20 03:40:14.33	316.83	15.68	
2025-01-20 03:40:14.53	316.78	15.68	
2025-01-20 03:40:14.74	316.73	15.68	
2025-01-20 03:40:14.94	316.68	15.68	
2025-01-20 03:40:15.14	316.63	15.68	
2025-01-20 03:40:15.35	316.57	15.67	
2025-01-20 03:40:15.55	316.52	15.67	
2025-01-20 03:40:15.75	316.47	15.67	
2025-01-20 03:40:15.96	316.42	15.67	
2025-01-20 03:40:16.16	316.37	15.67	
2025-01-20 03:40:16.36	316.32	15.67	
2025-01-20 03:40:16.56	316.27	15.67	
2025-01-20 03:40:16.77	316.22	15.67	
2025-01-20 03:40:16.97	316.17	15.67	
2025-01-20 03:40:17.17	316.12	15.67	
2025-01-20 03:40:17.38	316.07	15.66	
2025-01-20 03:40:17.58	316.02	15.66	
2025-01-20 03:40:17.78	315.97	15.66	
2025-01-20 03:40:17.98	315.92	15.66	
2025-01-20 03:40:18.19	315.86	15.66	
2025-01-20 03:40:18.39	315.81	15.66	
2025-01-20 03:40:18.59	315.76	15.66	
2025-01-20 03:40:18.80	315.71	15.66	
2025-01-20 03:40:19.00	315.66	15.66	
2025-01-20 03:40:19.20	315.61	15.65	
2025-01-20 03:40:19.41	315.56	15.65	
2025-01-20 03:40:19.61	315.51	15.65	
2025-01-20 03:40:19.81	315.46	15.65	
2025-01-20 03:40:20.01	315.41	15.65	
2025-01-20 03:40:20.22	315.35	15.65	
2025-01-20 03:40:20.42	315.30	15.65	
2025-01-20 03:40:20.62	315.25	15.64	
2025-01-20 03:40:20.83	315.20	15.64	
2025-01-20 03:40:21.03	315.15	15.64	
2025-01-20 03:40:21.23	315.10	15.64	
2025-01-20 03:40:21.44	315.05	15.64	
2025-01-20 03:40:21.64	315.00	15.64	
2025-01-20 03:40:21.84	314.95	15.64	
2025-01-20 03:40:22.04	314.90	15.63	
2025-01-20 03:40:22.25	314.85	15.63	
2025-01-20 03:40:22.45	314.80	15.63	
2025-01-20 03:40:22.65	314.75	15.63	
2025-01-20 03:40:22.86	314.69	15.63	
2025-01-20 03:40:23.06	314.64	15.63	
2025-01-20 03:40:23.26	314.59	15.62	
2025-01-20 03:40:23.46	314.54	15.62	
2025-01-20 03:40:23.67	314.49	15.62	
2025-01-20 03:40:23.87	314.44	15.62	
2025-01-20 03:40:24.07	314.39	15.62	
2025-01-20 03:40:24.28	314.34	15.62	
2025-01-20 03:40:24.48	314.29	15.61	
2025-01-20 03:40:24.68	314.24	15.61	
2025-01-20 03:40:24.89	314.19	15.61	
2025-01-20 03:40:25.09	314.14	15.61	
2025-01-20 03:40:25.29	314.09	15.61	
2025-01-20 03:40:25.49	314.04	15.60	
2025-01-20 03:40:25.70	313.98	15.60	
2025-01-20 03:40:25.90	313.94	15.60	
2025-01-20 03:40:26.10	313.89	15.60	
2025-01-20 03:40:26.31	313.83	15.60	
2025-01-20 03:40:26.51	313.78	15.59	
2025-01-20 03:40:26.71	313.73	15.59	
2025-01-20 03:40:26.92	313.68	15.59	
2025-01-20 03:40:27.12	313.63	15.59	
2025-01-20 03:40:27.32	313.58	15.59	
2025-01-20 03:40:27.52	313.53	15.58	
2025-01-20 03:40:27.73	313.48	15.58	
2025-01-20 03:40:27.93	313.43	15.58	
2025-01-20 03:40:28.13	313.38	15.58	
2025-01-20 03:40:28.34	313.33	15.57	
2025-01-20 03:40:28.54	313.28	15.57	
2025-01-20 03:40:28.74	313.23	15.57	
2025-01-20 03:40:28.94	313.18	15.57	
2025-01-20 03:40:29.15	313.13	15.57	
2025-01-20 03:40:29.35	313.08	15.56	
2025-01-20 03:40:29.55	313.03	15.56	
2025-01-20 03:40:29.76	312.97	15.56	
2025-01-20 03:40:29.96	312.92	15.56	
2025-01-20 03:40:30.16	312.87	15.55	
2025-01-20 03:40:30.37	312.82	15.55	
2025-01-20 03:40:30.57	312.77	15.55	
2025-01-20 03:40:30.77	312.72	15.55	
2025-01-20 03:40:30.97	312.67	15.54	
2025-01-20 03:40:31.18	312.62	15.54	
2025-01-20 03:40:31.38	312.57	15.54	
2025-01-20 03:40:31.58	312.52	15.54	
2025-01-20 03:40:31.79	312.47	15.53	
2025-01-20 03:40:31.99	312.42	15.53	
2025-01-20 03:40:32.19	312.37	15.53	
2025-01-20 03:40:32.39	312.32	15.53	
2025-01-20 03:40:32.60	312.27	15.52	
2025-01-20 03:40:32.80	312.22	15.52	
2025-01-20 03:40:33.00	312.17	15.52	
2025-01-20 03:40:33.21	312.12	15.52	
2025-01-20 03:40:33.41	312.07	15.51	
2025-01-20 03:40:33.61	312.02	15.51	
2025-01-20 03:40:33.82	311.97	15.51	
2025-01-20 03:40:34.02	311.92	15.50	
2025-01-20 03:40:34.22	311.87	15.50	
2025-01-20 03:40:34.42	311.82	15.50	
2025-01-20 03:40:34.63	311.76	15.50	
2025-01-20 03:40:34.83	311.72	15.49	
2025-01-20 03:40:35.03	311.67	15.49	
2025-01-20 03:40:35.24	311.61	15.49	
2025-01-20 03:40:35.44	311.56	15.48	
2025-01-20 03:40:35.64	311.51	15.48	
2025-01-20 03:40:35.85	311.46	15.48	
2025-01-20 03:40:36.05	311.41	15.47	
2025-01-20 03:40:36.25	311.36	15.47	
2025-01-20 03:40:36.45	311.31	15.47	
2025-01-20 03:40:36.66	311.26	15.47	
2025-01-20 03:40:36.86	311.21	15.46	
2025-01-20 03:40:37.06	311.16	15.46	
2025-01-20 03:40:37.27	311.11	15.46	
2025-01-20 03:40:37.47	311.06	15.45	
2025-01-20 03:40:37.67	311.01	15.45	
2025-01-20 03:40:37.87	310.96	15.45	
2025-01-20 03:40:38.08	310.91	15.44	
2025-01-20 03:40:38.28	310.86	15.44	
2025-01-20 03:40:38.48	310.81	15.44	
2025-01-20 03:40:38.69	310.76	15.43	
2025-01-20 03:40:38.89	310.71	15.43	
2025-01-20 03:40:39.09	310.66	15.43	
2025-01-20 03:40:39.30	310.61	15.42	
2025-01-20 03:40:39.50	310.56	15.42	
2025-01-20 03:40:39.70	310.51	15.42	
2025-01-20 03:40:39.90	310.46	15.41	
2025-01-20 03:40:40.11	310.41	15.41	
2025-01-20 03:40:40.31	310.36	15.41	
2025-01-20 03:40:40.51	310.31	15.40	
2025-01-20 03:40:40.72	310.26	15.40	
2025-01-20 03:40:40.92	310.21	15.40	
2025-01-20 03:40:41.12	310.16	15.39	
2025-01-20 03:40:41.32	310.11	15.39	
2025-01-20 03:40:41.53	310.06	15.39	
2025-01-20 03:40:41.73	310.01	15.38	
2025-01-20 03:40:41.93	309.96	15.38	
2025-01-20 03:40:42.14	309.91	15.37	
2025-01-20 03:40:42.34	309.86	15.37	
2025-01-20 03:40:42.54	309.81	15.37	
2025-01-20 03:40:42.75	309.76	15.36	
2025-01-20 03:40:42.95	309.71	15.36	
2025-01-20 03:40:43.15	309.66	15.36	
2025-01-20 03:40:43.35	309.62	15.35	
2025-01-20 03:40:43.56	309.56	15.35	
2025-01-20 03:40:43.76	309.52	15.35	
2025-01-20 03:40:43.96	309.47	15.34	
2025-01-20 03:40:44.17	309.41	15.34	
2025-01-20 03:40:44.37	309.37	15.33	
2025-01-20 03:40:44.57	309.32	15.33	
2025-01-20 03:40:44.78	309.27	15.33	
2025-01-20 03:40:44.98	309.22	15.32	
2025-01-20 03:40:45.18	309.17	15.32	
2025-01-20 03:40:45.38	309.12	15.31	
2025-01-20 03:40:45.59	309.07	15.31	
2025-01-20 03:40:45.79	309.02	15.31	
2025-01-20 03:40:45.99	308.97	15.30	
2025-01-20 03:40:46.20	308.92	15.30	
2025-01-20 03:40:46.40	308.87	15.29	
2025-01-20 03:40:46.60	308.82	15.29	
2025-01-20 03:40:46.80	308.77	15.29	
2025-01-20 03:40:47.01	308.72	15.28	
2025-01-20 03:40:47.21	308.67	15.28	
2025-01-20 03:40:47.41	308.62	15.27	
2025-01-20 03:40:47.62	308.57	15.27	
2025-01-20 03:40:47.82	308.52	15.27	
2025-01-20 03:40:48.02	308.47	15.26	
2025-01-20 03:40:48.23	308.42	15.26	
2025-01-20 03:40:48.43	308.37	15.25	
2025-01-20 03:40:48.63	308.33	15.25	
2025-01-20 03:40:48.83	308.28	15.24	
2025-01-20 03:40:49.04	308.23	15.24	
2025-01-20 03:40:49.24	308.18	15.24	
2025-01-20 03:40:49.44	308.13	15.23	
2025-01-20 03:40:49.65	308.08	15.23	
2025-01-20 03:40:49.85	308.03	15.22	
2025-01-20 03:40:50.05	307.98	15.22	
2025-01-20 03:40:50.26	307.93	15.21	
2025-01-20 03:40:50.46	307.88	15.21	
2025-01-20 03:40:50.66	307.83	15.20	
2025-01-20 03:40:50.86	307.78	15.20	
2025-01-20 03:40:51.07	307.73	15.20	
2025-01-20 03:40:51.27	307.68	15.19	
2025-01-20 03:40:51.47	307.64	15.19	
2025-01-20 03:40:51.68	307.59	15.18	
2025-01-20 03:40:51.88	307.54	15.18	
2025-01-20 03:40:52.08	307.49	15.17	
2025-01-20 03:40:52.28	307.44	15.17	
2025-01-20 03:40:52.49	307.39	15.16	
2025-01-20 03:40:52.69	307.34	15.16	
2025-01-20 03:40:52.89	307.29	15.15	
2025-01-20 03:40:53.10	307.24	15.15	
2025-01-20 03:40:53.30	307.19	15.14	
2025-01-20 03:40:53.50	307.15	15.14	
2025-01-20 03:40:53.71	307.09	15.14	
2025-01-20 03:40:53.91	307.05	15.13	
2025-01-20 03:40:54.11	307.00	15.13	
2025-01-20 03:40:54.31	306.95	15.12	
2025-01-20 03:40:54.52	306.90	15.12	
2025-01-20 03:40:54.72	306.85	15.11	
2025-01-20 03:40:54.92	306.80	15.11	
2025-01-20 03:40:55.13	306.75	15.10	
2025-01-20 03:40:55.33	306.70	15.10	
2025-01-20 03:40:55.53	306.66	15.09	
2025-01-20 03:40:55.73	306.61	15.09	
2025-01-20 03:40:55.94	306.56	15.08	
2025-01-20 03:40:56.14	306.51	15.08	
2025-01-20 03:40:56.34	306.46	15.07	
2025-01-20 03:40:56.55	306.41	15.07	
2025-01-20 03:40:56.75	306.36	15.06	
2025-01-20 03:40:56.95	306.31	15.06	
2025-01-20 03:40:57.16	306.26	15.05	
2025-01-20 03:40:57.36	306.22	15.05	
2025-01-20 03:40:57.56	306.17	15.04	
2025-01-20 03:40:57.76	306.12	15.04	
2025-01-20 03:40:57.97	306.07	15.03	
2025-01-20 03:40:58.17	306.02	15.03	
2025-01-20 03:40:58.37	305.97	15.02	
2025-01-20 03:40:58.58	305.92	15.02	
2025-01-20 03:40:58.78	305.88	15.01	
2025-01-20 03:40:58.98	305.83	15.01	
2025-01-20 03:40:59.19	305.78	15.00	
2025-01-20 03:40:59.39	305.73	14.99	
2025-01-20 03:40:59.59	305.68	14.99	
2025-01-20 03:40:59.79	305.63	14.98	
2025-01-20 03:41:00.00	305.58	14.98	
2025-01-20 03:41:00.20	305.54	14.97	
2025-01-20 03:41:00.40	305.49	14.97	
2025-01-20 03:41:00.61	305.44	14.96	
2025-01-20 03:41:00.81	305.39	14.96	
2025-01-20 03:41:01.01	305.34	14.95	
2025-01-20 03:41:01.21	305.30	14.95	
2025-01-20 03:41:01.42	305.25	14.94	
2025-01-20 03:41:01.62	305.20	14.94	
2025-01-20 03:41:01.82	305.15	14.93	
2025-01-20 03:41:02.03	305.10	14.92	
2025-01-20 03:41:02.23	305.05	14.92	
2025-01-20 03:41:02.43	305.01	14.91	
2025-01-20 03:41:02.64	304.96	14.91	
2025-01-20 03:41:02.84	304.91	14.90	
2025-01-20 03:41:03.04	304.86	14.90	
2025-01-20 03:41:03.24	304.81	14.89	
2025-01-20 03:41:03.45	304.76	14.89	
2025-01-20 03:41:03.65	304.72	14.88	
2025-01-20 03:41:03.85	304.67	14.87	
2025-01-20 03:41:04.06	304.62	14.87	
2025-01-20 03:41:04.26	304.57	14.86	
2025-01-20 03:41:04.46	304.52	14.86	
2025-01-20 03:41:04.66	304.48	14.85	
2025-01-20 03:41:04.87	304.43	14.85	
2025-01-20 03:41:05.07	304.38	14.84	
2025-01-20 03:41:05.27	304.33	14.83	
2025-01-20 03:41:05.48	304.28	14.83	
2025-01-20 03:41:05.68	304.24	14.82	
2025-01-20 03:41:05.88	304.19	14.82	
2025-01-20 03:41:06.09	304.14	14.81	
2025-01-20 03:41:06.29	304.09	14.80	
2025-01-20 03:41:06.49	304.04	14.80	
2025-01-20 03:41:06.69	304.00	14.79	
2025-01-20 03:41:06.90	303.95	14.79	
2025-01-20 03:41:07.10	303.90	14.78	
2025-01-20 03:41:07.30	303.85	14.78	
2025-01-20 03:41:07.51	303.80	14.77	
2025-01-20 03:41:07.71	303.76	14.76	
2025-01-20 03:41:07.91	303.71	14.76	
2025-01-20 03:41:08.12	303.66	14.75	
2025-01-20 03:41:08.32	303.61	14.75	
