passes_logs/2025/01/20/SPB_Silybum_02/SPB_Silybum_02__20250120_113352_AQUA_rec.log

#Pass ID: 20250120_113352_AQUA
#Satellite: AQUA
#Configuration: AQUA
#Start time: 2025-01-20 11:33:51

#Version: 2.0.20230423
#Station: SPB_Silybum_02
#Location: 30.233357 lon 59.946436 lat
#TLE: 1 27424U 02022A   25019.86270051  .00002463  00000+0  51518-3 0  9998
#TLE: 2 27424  98.3596 336.5709 0001915 106.8361 278.0854 14.60706016208336

#Time	Az	El	Level	Level2	SNR	BER	Gain	Gain2
2025-01-20 11:33:53.13	165.75	4.05	
2025-01-20 11:33:53.34	165.75	4.06	
2025-01-20 11:33:53.54	165.75	4.08	
2025-01-20 11:33:53.74	165.76	4.09	
2025-01-20 11:33:53.94	165.76	4.11	
2025-01-20 11:33:54.15	165.76	4.12	
2025-01-20 11:33:54.35	165.77	4.14	
2025-01-20 11:33:54.55	165.77	4.15	
2025-01-20 11:33:54.76	165.77	4.16	
2025-01-20 11:33:54.96	165.77	4.18	
2025-01-20 11:33:55.16	165.78	4.19	
2025-01-20 11:33:55.37	165.78	4.21	
2025-01-20 11:33:55.57	165.78	4.22	
2025-01-20 11:33:55.77	165.78	4.24	
2025-01-20 11:33:55.98	165.79	4.25	
2025-01-20 11:33:56.18	165.79	4.27	
2025-01-20 11:33:56.38	165.79	4.28	
2025-01-20 11:33:56.59	165.80	4.30	
2025-01-20 11:33:56.79	165.80	4.31	
2025-01-20 11:33:56.99	165.80	4.33	
2025-01-20 11:33:57.19	165.80	4.34	
2025-01-20 11:33:57.40	165.81	4.36	
2025-01-20 11:33:57.60	165.81	4.37	
2025-01-20 11:33:57.80	165.81	4.39	
2025-01-20 11:33:58.01	165.81	4.40	
2025-01-20 11:33:58.21	165.82	4.42	
2025-01-20 11:33:58.41	165.82	4.43	
2025-01-20 11:33:58.62	165.82	4.45	
2025-01-20 11:33:58.82	165.83	4.46	
2025-01-20 11:33:59.02	165.83	4.48	
2025-01-20 11:33:59.23	165.83	4.49	
2025-01-20 11:33:59.43	165.83	4.51	
2025-01-20 11:33:59.63	165.84	4.52	
2025-01-20 11:33:59.83	165.84	4.53	
2025-01-20 11:34:00.04	165.84	4.55	
2025-01-20 11:34:00.24	165.85	4.57	
2025-01-20 11:34:00.44	165.85	4.58	
2025-01-20 11:34:00.65	165.85	4.60	
2025-01-20 11:34:00.85	165.85	4.61	
2025-01-20 11:34:01.05	165.86	4.62	
2025-01-20 11:34:01.26	165.86	4.64	
2025-01-20 11:34:01.46	165.86	4.65	
2025-01-20 11:34:01.66	165.86	4.67	
2025-01-20 11:34:01.87	165.87	4.69	
2025-01-20 11:34:02.07	165.87	4.70	
2025-01-20 11:34:02.27	165.87	4.71	
2025-01-20 11:34:02.48	165.88	4.73	
2025-01-20 11:34:02.68	165.88	4.75	
2025-01-20 11:34:02.88	165.88	4.76	
2025-01-20 11:34:03.08	165.88	4.77	
2025-01-20 11:34:03.29	165.89	4.79	
2025-01-20 11:34:03.49	165.89	4.81	
2025-01-20 11:34:03.69	165.89	4.82	
2025-01-20 11:34:03.90	165.90	4.84	
2025-01-20 11:34:04.10	165.90	4.85	
2025-01-20 11:34:04.30	165.90	4.87	
2025-01-20 11:34:04.51	165.90	4.88	
2025-01-20 11:34:04.71	165.91	4.90	
2025-01-20 11:34:04.91	165.91	4.91	
2025-01-20 11:34:05.12	165.91	4.93	
2025-01-20 11:34:05.32	165.92	4.94	
2025-01-20 11:34:05.52	165.92	4.96	
2025-01-20 11:34:05.72	165.92	4.97	
2025-01-20 11:34:05.93	165.92	4.99	
2025-01-20 11:34:06.13	165.93	5.00	
2025-01-20 11:34:06.33	165.93	5.02	
2025-01-20 11:34:06.54	165.93	5.03	
2025-01-20 11:34:06.74	165.94	5.05	
2025-01-20 11:34:06.94	165.94	5.06	
2025-01-20 11:34:07.15	165.94	5.08	
2025-01-20 11:34:07.35	165.94	5.09	
2025-01-20 11:34:07.55	165.95	5.11	
2025-01-20 11:34:07.76	165.95	5.12	
2025-01-20 11:34:07.96	165.95	5.14	
2025-01-20 11:34:08.16	165.96	5.16	
2025-01-20 11:34:08.37	165.96	5.17	
2025-01-20 11:34:08.57	165.96	5.19	
2025-01-20 11:34:08.77	165.96	5.20	
2025-01-20 11:34:08.97	165.97	5.22	
2025-01-20 11:34:09.18	165.97	5.23	
2025-01-20 11:34:09.38	165.97	5.25	
2025-01-20 11:34:09.58	165.98	5.26	
2025-01-20 11:34:09.79	165.98	5.28	
2025-01-20 11:34:09.99	165.98	5.29	
2025-01-20 11:34:10.19	165.98	5.31	
2025-01-20 11:34:10.40	165.99	5.32	
2025-01-20 11:34:10.60	165.99	5.34	
2025-01-20 11:34:10.80	165.99	5.36	
2025-01-20 11:34:11.01	166.00	5.37	
2025-01-20 11:34:11.21	166.00	5.39	
2025-01-20 11:34:11.41	166.00	5.40	
2025-01-20 11:34:11.61	166.00	5.42	
2025-01-20 11:34:11.82	166.01	5.43	
2025-01-20 11:34:12.02	166.01	5.45	
2025-01-20 11:34:12.22	166.01	5.46	
2025-01-20 11:34:12.43	166.02	5.48	
2025-01-20 11:34:12.63	166.02	5.49	
2025-01-20 11:34:12.83	166.02	5.51	
2025-01-20 11:34:13.04	166.03	5.53	
2025-01-20 11:34:13.24	166.03	5.54	
2025-01-20 11:34:13.44	166.03	5.56	
2025-01-20 11:34:13.65	166.03	5.57	
2025-01-20 11:34:13.85	166.04	5.59	
2025-01-20 11:34:14.05	166.04	5.60	
2025-01-20 11:34:14.26	166.04	5.62	
2025-01-20 11:34:14.46	166.05	5.64	
2025-01-20 11:34:14.66	166.05	5.65	
2025-01-20 11:34:14.86	166.05	5.67	
2025-01-20 11:34:15.07	166.05	5.68	
2025-01-20 11:34:15.27	166.06	5.70	
2025-01-20 11:34:15.47	166.06	5.71	
2025-01-20 11:34:15.68	166.06	5.73	
2025-01-20 11:34:15.88	166.07	5.74	
2025-01-20 11:34:16.08	166.07	5.76	
2025-01-20 11:34:16.29	166.07	5.78	
2025-01-20 11:34:16.49	166.08	5.79	
2025-01-20 11:34:16.69	166.08	5.81	
2025-01-20 11:34:16.90	166.08	5.82	
2025-01-20 11:34:17.10	166.08	5.84	
2025-01-20 11:34:17.30	166.09	5.85	
2025-01-20 11:34:17.50	166.09	5.87	
2025-01-20 11:34:17.71	166.09	5.89	
2025-01-20 11:34:17.91	166.10	5.90	
2025-01-20 11:34:18.11	166.10	5.92	
2025-01-20 11:34:18.32	166.10	5.93	
2025-01-20 11:34:18.52	166.11	5.95	
2025-01-20 11:34:18.72	166.11	5.97	
2025-01-20 11:34:18.93	166.11	5.98	
2025-01-20 11:34:19.13	166.11	6.00	
2025-01-20 11:34:19.33	166.12	6.01	
2025-01-20 11:34:19.54	166.12	6.03	
2025-01-20 11:34:19.74	166.12	6.05	
2025-01-20 11:34:19.94	166.13	6.06	
2025-01-20 11:34:20.15	166.13	6.08	
2025-01-20 11:34:20.35	166.13	6.09	
2025-01-20 11:34:20.55	166.14	6.11	
2025-01-20 11:34:20.75	166.14	6.12	
2025-01-20 11:34:20.96	166.14	6.14	
2025-01-20 11:34:21.16	166.14	6.16	
2025-01-20 11:34:21.36	166.15	6.17	
2025-01-20 11:34:21.57	166.15	6.19	
2025-01-20 11:34:21.77	166.15	6.20	
2025-01-20 11:34:21.97	166.16	6.22	
2025-01-20 11:34:22.18	166.16	6.24	
2025-01-20 11:34:22.38	166.16	6.25	
2025-01-20 11:34:22.58	166.17	6.27	
2025-01-20 11:34:22.79	166.17	6.29	
2025-01-20 11:34:22.99	166.17	6.30	
2025-01-20 11:34:23.19	166.18	6.32	
2025-01-20 11:34:23.39	166.18	6.33	
2025-01-20 11:34:23.60	166.18	6.35	
2025-01-20 11:34:23.80	166.18	6.37	
2025-01-20 11:34:24.00	166.19	6.38	
2025-01-20 11:34:24.21	166.19	6.40	
2025-01-20 11:34:24.41	166.19	6.41	
2025-01-20 11:34:24.61	166.20	6.43	
2025-01-20 11:34:24.82	166.20	6.45	
2025-01-20 11:34:25.02	166.20	6.46	
2025-01-20 11:34:25.22	166.21	6.48	
2025-01-20 11:34:25.43	166.21	6.50	
2025-01-20 11:34:25.63	166.21	6.51	
2025-01-20 11:34:25.83	166.22	6.53	
2025-01-20 11:34:26.04	166.22	6.54	
2025-01-20 11:34:26.24	166.22	6.56	
2025-01-20 11:34:26.44	166.23	6.58	
2025-01-20 11:34:26.64	166.23	6.59	
2025-01-20 11:34:26.85	166.23	6.61	
2025-01-20 11:34:27.05	166.23	6.62	
2025-01-20 11:34:27.25	166.24	6.64	
2025-01-20 11:34:27.46	166.24	6.66	
2025-01-20 11:34:27.66	166.24	6.67	
2025-01-20 11:34:27.86	166.25	6.69	
2025-01-20 11:34:28.07	166.25	6.71	
2025-01-20 11:34:28.27	166.25	6.72	
2025-01-20 11:34:28.47	166.26	6.74	
2025-01-20 11:34:28.68	166.26	6.76	
2025-01-20 11:34:28.88	166.26	6.77	
2025-01-20 11:34:29.08	166.27	6.79	
2025-01-20 11:34:29.28	166.27	6.80	
2025-01-20 11:34:29.49	166.27	6.82	
2025-01-20 11:34:29.69	166.28	6.84	
2025-01-20 11:34:29.89	166.28	6.85	
2025-01-20 11:34:30.10	166.28	6.87	
2025-01-20 11:34:30.30	166.29	6.89	
2025-01-20 11:34:30.50	166.29	6.90	
2025-01-20 11:34:30.71	166.29	6.92	
2025-01-20 11:34:30.91	166.29	6.94	
2025-01-20 11:34:31.11	166.30	6.95	
2025-01-20 11:34:31.32	166.30	6.97	
2025-01-20 11:34:31.52	166.30	6.99	
2025-01-20 11:34:31.72	166.31	7.00	
2025-01-20 11:34:31.93	166.31	7.02	
2025-01-20 11:34:32.13	166.31	7.04	
2025-01-20 11:34:32.33	166.32	7.05	
2025-01-20 11:34:32.53	166.32	7.07	
2025-01-20 11:34:32.74	166.32	7.09	
2025-01-20 11:34:32.94	166.33	7.10	
2025-01-20 11:34:33.14	166.33	7.12	
2025-01-20 11:34:33.35	166.33	7.14	
2025-01-20 11:34:33.55	166.34	7.15	
2025-01-20 11:34:33.75	166.34	7.17	
2025-01-20 11:34:33.96	166.34	7.19	
2025-01-20 11:34:34.16	166.35	7.20	
2025-01-20 11:34:34.36	166.35	7.22	
2025-01-20 11:34:34.57	166.35	7.24	
2025-01-20 11:34:34.77	166.36	7.25	
2025-01-20 11:34:34.97	166.36	7.27	
2025-01-20 11:34:35.17	166.36	7.29	
2025-01-20 11:34:35.38	166.37	7.30	
2025-01-20 11:34:35.58	166.37	7.32	
2025-01-20 11:34:35.78	166.37	7.34	
2025-01-20 11:34:35.99	166.38	7.35	
2025-01-20 11:34:36.19	166.38	7.37	
2025-01-20 11:34:36.39	166.38	7.39	
2025-01-20 11:34:36.60	166.39	7.40	
2025-01-20 11:34:36.80	166.39	7.42	
2025-01-20 11:34:37.00	166.39	7.44	
2025-01-20 11:34:37.21	166.40	7.46	
2025-01-20 11:34:37.41	166.40	7.47	
2025-01-20 11:34:37.61	166.40	7.49	
2025-01-20 11:34:37.82	166.41	7.51	
2025-01-20 11:34:38.02	166.41	7.52	
2025-01-20 11:34:38.22	166.41	7.54	
2025-01-20 11:34:38.42	166.42	7.56	
2025-01-20 11:34:38.63	166.42	7.57	
2025-01-20 11:34:38.83	166.42	7.59	
2025-01-20 11:34:39.03	166.43	7.61	
2025-01-20 11:34:39.24	166.43	7.62	
2025-01-20 11:34:39.44	166.43	7.64	
2025-01-20 11:34:39.64	166.44	7.66	
2025-01-20 11:34:39.85	166.44	7.68	
2025-01-20 11:34:40.05	166.44	7.69	
2025-01-20 11:34:40.25	166.45	7.71	
2025-01-20 11:34:40.46	166.45	7.73	
2025-01-20 11:34:40.66	166.45	7.74	
2025-01-20 11:34:40.86	166.46	7.76	
2025-01-20 11:34:41.06	166.46	7.78	
2025-01-20 11:34:41.27	166.46	7.80	
2025-01-20 11:34:41.47	166.47	7.81	
2025-01-20 11:34:41.67	166.47	7.83	
2025-01-20 11:34:41.88	166.47	7.85	
2025-01-20 11:34:42.08	166.48	7.86	
2025-01-20 11:34:42.28	166.48	7.88	
2025-01-20 11:34:42.49	166.48	7.90	
2025-01-20 11:34:42.69	166.49	7.92	
2025-01-20 11:34:42.89	166.49	7.93	
2025-01-20 11:34:43.10	166.49	7.95	
2025-01-20 11:34:43.30	166.50	7.97	
2025-01-20 11:34:43.50	166.50	7.98	
2025-01-20 11:34:43.71	166.50	8.00	
2025-01-20 11:34:43.91	166.51	8.02	
2025-01-20 11:34:44.11	166.51	8.04	
2025-01-20 11:34:44.31	166.51	8.05	
2025-01-20 11:34:44.52	166.52	8.07	
2025-01-20 11:34:44.72	166.52	8.09	
2025-01-20 11:34:44.92	166.52	8.11	
2025-01-20 11:34:45.13	166.53	8.12	
2025-01-20 11:34:45.33	166.53	8.14	
2025-01-20 11:34:45.53	166.53	8.16	
2025-01-20 11:34:45.74	166.54	8.18	
2025-01-20 11:34:45.94	166.54	8.19	
2025-01-20 11:34:46.14	166.54	8.21	
2025-01-20 11:34:46.35	166.55	8.23	
2025-01-20 11:34:46.55	166.55	8.25	
2025-01-20 11:34:46.75	166.55	8.26	
2025-01-20 11:34:46.95	166.56	8.28	
2025-01-20 11:34:47.16	166.56	8.30	
2025-01-20 11:34:47.36	166.56	8.32	
2025-01-20 11:34:47.56	166.57	8.33	
2025-01-20 11:34:47.77	166.57	8.35	
2025-01-20 11:34:47.97	166.58	8.37	
2025-01-20 11:34:48.17	166.58	8.39	
2025-01-20 11:34:48.38	166.58	8.40	
2025-01-20 11:34:48.58	166.59	8.42	
2025-01-20 11:34:48.78	166.59	8.44	
2025-01-20 11:34:48.99	166.59	8.46	
2025-01-20 11:34:49.19	166.60	8.47	
2025-01-20 11:34:49.39	166.60	8.49	
2025-01-20 11:34:49.60	166.60	8.51	
2025-01-20 11:34:49.80	166.61	8.53	
2025-01-20 11:34:50.00	166.61	8.55	
2025-01-20 11:34:50.20	166.61	8.56	
2025-01-20 11:34:50.41	166.62	8.58	
2025-01-20 11:34:50.61	166.62	8.60	
2025-01-20 11:34:50.81	166.62	8.62	
2025-01-20 11:34:51.02	166.63	8.63	
2025-01-20 11:34:51.22	166.63	8.65	
2025-01-20 11:34:51.42	166.64	8.67	
2025-01-20 11:34:51.63	166.64	8.69	
2025-01-20 11:34:51.83	166.64	8.71	
2025-01-20 11:34:52.03	166.65	8.72	
2025-01-20 11:34:52.24	166.65	8.74	
2025-01-20 11:34:52.44	166.65	8.76	
2025-01-20 11:34:52.64	166.66	8.78	
2025-01-20 11:34:52.84	166.66	8.79	
2025-01-20 11:34:53.05	166.66	8.81	
2025-01-20 11:34:53.25	166.67	8.83	
2025-01-20 11:34:53.45	166.67	8.85	
2025-01-20 11:34:53.66	166.67	8.87	
2025-01-20 11:34:53.86	166.68	8.89	
2025-01-20 11:34:54.06	166.68	8.90	
2025-01-20 11:34:54.27	166.69	8.92	
2025-01-20 11:34:54.47	166.69	8.94	
2025-01-20 11:34:54.67	166.69	8.96	
2025-01-20 11:34:54.88	166.70	8.98	
2025-01-20 11:34:55.08	166.70	8.99	
2025-01-20 11:34:55.28	166.70	9.01	
2025-01-20 11:34:55.49	166.71	9.03	
2025-01-20 11:34:55.69	166.71	9.05	
2025-01-20 11:34:55.89	166.71	9.07	
2025-01-20 11:34:56.09	166.72	9.08	
2025-01-20 11:34:56.30	166.72	9.10	
2025-01-20 11:34:56.50	166.73	9.12	
2025-01-20 11:34:56.70	166.73	9.14	
2025-01-20 11:34:56.91	166.73	9.16	
2025-01-20 11:34:57.11	166.74	9.18	
2025-01-20 11:34:57.31	166.74	9.19	
2025-01-20 11:34:57.52	166.74	9.21	
2025-01-20 11:34:57.72	166.75	9.23	
2025-01-20 11:34:57.92	166.75	9.25	
2025-01-20 11:34:58.13	166.75	9.27	
2025-01-20 11:34:58.33	166.76	9.28	
2025-01-20 11:34:58.53	166.76	9.30	
2025-01-20 11:34:58.73	166.77	9.32	
2025-01-20 11:34:58.94	166.77	9.34	
2025-01-20 11:34:59.14	166.77	9.36	
2025-01-20 11:34:59.34	166.78	9.38	
2025-01-20 11:34:59.55	166.78	9.40	
2025-01-20 11:34:59.75	166.78	9.41	
2025-01-20 11:34:59.95	166.79	9.43	
2025-01-20 11:35:00.16	166.79	9.45	
2025-01-20 11:35:00.36	166.80	9.47	
2025-01-20 11:35:00.56	166.80	9.49	
2025-01-20 11:35:00.77	166.80	9.51	
2025-01-20 11:35:00.97	166.81	9.52	
2025-01-20 11:35:01.17	166.81	9.54	
2025-01-20 11:35:01.38	166.81	9.56	
2025-01-20 11:35:01.58	166.82	9.58	
2025-01-20 11:35:01.78	166.82	9.60	
2025-01-20 11:35:01.98	166.83	9.62	
2025-01-20 11:35:02.19	166.83	9.64	
2025-01-20 11:35:02.39	166.83	9.65	
2025-01-20 11:35:02.59	166.84	9.67	
2025-01-20 11:35:02.80	166.84	9.69	
2025-01-20 11:35:03.00	166.84	9.71	
2025-01-20 11:35:03.20	166.85	9.73	
2025-01-20 11:35:03.41	166.85	9.75	
2025-01-20 11:35:03.61	166.86	9.77	
2025-01-20 11:35:03.81	166.86	9.78	
2025-01-20 11:35:04.02	166.86	9.80	
2025-01-20 11:35:04.22	166.87	9.82	
2025-01-20 11:35:04.42	166.87	9.84	
2025-01-20 11:35:04.62	166.87	9.86	
2025-01-20 11:35:04.83	166.88	9.88	
2025-01-20 11:35:05.03	166.88	9.90	
2025-01-20 11:35:05.23	166.89	9.92	
2025-01-20 11:35:05.44	166.89	9.94	
2025-01-20 11:35:05.64	166.89	9.95	
2025-01-20 11:35:05.84	166.90	9.97	
2025-01-20 11:35:06.05	166.90	9.99	
2025-01-20 11:35:06.25	166.91	10.01	
2025-01-20 11:35:06.45	166.91	10.03	
2025-01-20 11:35:06.66	166.91	10.05	
2025-01-20 11:35:06.86	166.92	10.07	
2025-01-20 11:35:07.06	166.92	10.09	
2025-01-20 11:35:07.27	166.92	10.11	
2025-01-20 11:35:07.47	166.93	10.13	
2025-01-20 11:35:07.67	166.93	10.14	
2025-01-20 11:35:07.87	166.94	10.16	
2025-01-20 11:35:08.08	166.94	10.18	
2025-01-20 11:35:08.28	166.94	10.20	
2025-01-20 11:35:08.48	166.95	10.22	
2025-01-20 11:35:08.69	166.95	10.24	
2025-01-20 11:35:08.89	166.96	10.26	
2025-01-20 11:35:09.09	166.96	10.28	
2025-01-20 11:35:09.30	166.96	10.30	
2025-01-20 11:35:09.50	166.97	10.32	
2025-01-20 11:35:09.70	166.97	10.33	
2025-01-20 11:35:09.91	166.98	10.35	
2025-01-20 11:35:10.11	166.98	10.37	
2025-01-20 11:35:10.31	166.98	10.39	
2025-01-20 11:35:10.51	166.99	10.41	
2025-01-20 11:35:10.72	166.99	10.43	
2025-01-20 11:35:10.92	167.00	10.45	
2025-01-20 11:35:11.12	167.00	10.47	
2025-01-20 11:35:11.33	167.00	10.49	
2025-01-20 11:35:11.53	167.01	10.51	
2025-01-20 11:35:11.73	167.01	10.53	
2025-01-20 11:35:11.94	167.02	10.55	
2025-01-20 11:35:12.14	167.02	10.57	
2025-01-20 11:35:12.34	167.02	10.59	
2025-01-20 11:35:12.55	167.03	10.61	
2025-01-20 11:35:12.75	167.03	10.63	
2025-01-20 11:35:12.95	167.04	10.64	
2025-01-20 11:35:13.16	167.04	10.66	
2025-01-20 11:35:13.36	167.04	10.68	
2025-01-20 11:35:13.56	167.05	10.70	
2025-01-20 11:35:13.76	167.05	10.72	
2025-01-20 11:35:13.97	167.06	10.74	
2025-01-20 11:35:14.17	167.06	10.76	
2025-01-20 11:35:14.37	167.06	10.78	
2025-01-20 11:35:14.58	167.07	10.80	
2025-01-20 11:35:14.78	167.07	10.82	
2025-01-20 11:35:14.98	167.08	10.84	
2025-01-20 11:35:15.19	167.08	10.86	
2025-01-20 11:35:15.39	167.08	10.88	
2025-01-20 11:35:15.59	167.09	10.90	
2025-01-20 11:35:15.80	167.09	10.92	
2025-01-20 11:35:16.00	167.10	10.94	
2025-01-20 11:35:16.20	167.10	10.96	
2025-01-20 11:35:16.40	167.10	10.98	
2025-01-20 11:35:16.61	167.11	11.00	
2025-01-20 11:35:16.81	167.11	11.02	
2025-01-20 11:35:17.01	167.12	11.04	
2025-01-20 11:35:17.22	167.12	11.06	
2025-01-20 11:35:17.42	167.12	11.08	
2025-01-20 11:35:17.62	167.13	11.10	
2025-01-20 11:35:17.83	167.13	11.12	
2025-01-20 11:35:18.03	167.14	11.14	
2025-01-20 11:35:18.23	167.14	11.16	
2025-01-20 11:35:18.44	167.15	11.18	
2025-01-20 11:35:18.64	167.15	11.20	
2025-01-20 11:35:18.84	167.15	11.22	
2025-01-20 11:35:19.05	167.16	11.24	
2025-01-20 11:35:19.25	167.16	11.26	
2025-01-20 11:35:19.45	167.17	11.28	
2025-01-20 11:35:19.65	167.17	11.30	
2025-01-20 11:35:19.86	167.17	11.32	
2025-01-20 11:35:20.06	167.18	11.34	
2025-01-20 11:35:20.26	167.18	11.36	
2025-01-20 11:35:20.47	167.19	11.38	
2025-01-20 11:35:20.67	167.19	11.40	
2025-01-20 11:35:20.87	167.20	11.42	
2025-01-20 11:35:21.08	167.20	11.44	
2025-01-20 11:35:21.28	167.20	11.46	
2025-01-20 11:35:21.48	167.21	11.48	
2025-01-20 11:35:21.69	167.21	11.50	
2025-01-20 11:35:21.89	167.22	11.52	
2025-01-20 11:35:22.09	167.22	11.54	
2025-01-20 11:35:22.29	167.23	11.56	
2025-01-20 11:35:22.50	167.23	11.58	
2025-01-20 11:35:22.70	167.23	11.60	
2025-01-20 11:35:22.90	167.24	11.62	
2025-01-20 11:35:23.11	167.24	11.64	
2025-01-20 11:35:23.31	167.25	11.66	
2025-01-20 11:35:23.51	167.25	11.68	
2025-01-20 11:35:23.72	167.26	11.70	
2025-01-20 11:35:23.92	167.26	11.72	
2025-01-20 11:35:24.12	167.26	11.74	
2025-01-20 11:35:24.33	167.27	11.76	
2025-01-20 11:35:24.53	167.27	11.78	
2025-01-20 11:35:24.73	167.28	11.80	
2025-01-20 11:35:24.94	167.28	11.82	
2025-01-20 11:35:25.14	167.29	11.85	
2025-01-20 11:35:25.34	167.29	11.87	
2025-01-20 11:35:25.54	167.29	11.89	
2025-01-20 11:35:25.75	167.30	11.91	
2025-01-20 11:35:25.95	167.30	11.93	
2025-01-20 11:35:26.15	167.31	11.95	
2025-01-20 11:35:26.36	167.31	11.97	
2025-01-20 11:35:26.56	167.32	11.99	
2025-01-20 11:35:26.76	167.32	12.01	
2025-01-20 11:35:26.97	167.32	12.03	
2025-01-20 11:35:27.17	167.33	12.05	
2025-01-20 11:35:27.37	167.33	12.07	
2025-01-20 11:35:27.58	167.34	12.09	
2025-01-20 11:35:27.78	167.34	12.11	
2025-01-20 11:35:27.98	167.35	12.13	
2025-01-20 11:35:28.18	167.35	12.15	
2025-01-20 11:35:28.39	167.36	12.18	
2025-01-20 11:35:28.59	167.36	12.20	
2025-01-20 11:35:28.79	167.36	12.22	
2025-01-20 11:35:29.00	167.37	12.24	
2025-01-20 11:35:29.20	167.37	12.26	
2025-01-20 11:35:29.40	167.38	12.28	
2025-01-20 11:35:29.61	167.38	12.30	
2025-01-20 11:35:29.81	167.39	12.32	
2025-01-20 11:35:30.01	167.39	12.34	
2025-01-20 11:35:30.22	167.40	12.37	
2025-01-20 11:35:30.42	167.40	12.39	
2025-01-20 11:35:30.62	167.40	12.41	
2025-01-20 11:35:30.83	167.41	12.43	
2025-01-20 11:35:31.03	167.41	12.45	
2025-01-20 11:35:31.23	167.42	12.47	
2025-01-20 11:35:31.43	167.42	12.49	
2025-01-20 11:35:31.64	167.43	12.51	
2025-01-20 11:35:31.84	167.43	12.53	
2025-01-20 11:35:32.04	167.44	12.55	
2025-01-20 11:35:32.25	167.44	12.58	
2025-01-20 11:35:32.45	167.44	12.60	
2025-01-20 11:35:32.65	167.45	12.62	
2025-01-20 11:35:32.86	167.45	12.64	
2025-01-20 11:35:33.06	167.46	12.66	
2025-01-20 11:35:33.26	167.46	12.68	
2025-01-20 11:35:33.47	167.47	12.70	
2025-01-20 11:35:33.67	167.47	12.73	
2025-01-20 11:35:33.87	167.48	12.75	
2025-01-20 11:35:34.07	167.48	12.77	
2025-01-20 11:35:34.28	167.49	12.79	
2025-01-20 11:35:34.48	167.49	12.81	
2025-01-20 11:35:34.68	167.49	12.83	
2025-01-20 11:35:34.89	167.50	12.85	
2025-01-20 11:35:35.09	167.50	12.88	
2025-01-20 11:35:35.29	167.51	12.90	
2025-01-20 11:35:35.50	167.51	12.92	
2025-01-20 11:35:35.70	167.52	12.94	
2025-01-20 11:35:35.90	167.52	12.96	
2025-01-20 11:35:36.11	167.53	12.98	
2025-01-20 11:35:36.31	167.53	13.01	
2025-01-20 11:35:36.51	167.54	13.03	
2025-01-20 11:35:36.72	167.54	13.05	
2025-01-20 11:35:36.92	167.55	13.07	
2025-01-20 11:35:37.12	167.55	13.09	
2025-01-20 11:35:37.32	167.56	13.11	
2025-01-20 11:35:37.53	167.56	13.14	
2025-01-20 11:35:37.73	167.56	13.16	
2025-01-20 11:35:37.93	167.57	13.18	
2025-01-20 11:35:38.14	167.57	13.20	
2025-01-20 11:35:38.34	167.58	13.22	
2025-01-20 11:35:38.54	167.58	13.24	
2025-01-20 11:35:38.75	167.59	13.27	
2025-01-20 11:35:38.95	167.59	13.29	
2025-01-20 11:35:39.15	167.60	13.31	
2025-01-20 11:35:39.36	167.60	13.33	
2025-01-20 11:35:39.56	167.61	13.36	
2025-01-20 11:35:39.76	167.61	13.38	
2025-01-20 11:35:39.96	167.62	13.40	
2025-01-20 11:35:40.17	167.62	13.42	
2025-01-20 11:35:40.37	167.63	13.44	
2025-01-20 11:35:40.57	167.63	13.46	
2025-01-20 11:35:40.78	167.64	13.49	
2025-01-20 11:35:40.98	167.64	13.51	
2025-01-20 11:35:41.18	167.65	13.53	
2025-01-20 11:35:41.39	167.65	13.55	
2025-01-20 11:35:41.59	167.65	13.58	
2025-01-20 11:35:41.79	167.66	13.60	
2025-01-20 11:35:42.00	167.66	13.62	
2025-01-20 11:35:42.20	167.67	13.64	
2025-01-20 11:35:42.40	167.67	13.66	
2025-01-20 11:35:42.61	167.68	13.69	
2025-01-20 11:35:42.81	167.68	13.71	
2025-01-20 11:35:43.01	167.69	13.73	
2025-01-20 11:35:43.21	167.69	13.75	
2025-01-20 11:35:43.42	167.70	13.78	
2025-01-20 11:35:43.62	167.70	13.80	
2025-01-20 11:35:43.82	167.71	13.82	
2025-01-20 11:35:44.03	167.71	13.84	
2025-01-20 11:35:44.23	167.72	13.87	
2025-01-20 11:35:44.43	167.72	13.89	
2025-01-20 11:35:44.64	167.73	13.91	
2025-01-20 11:35:44.84	167.73	13.93	
2025-01-20 11:35:45.04	167.74	13.96	
2025-01-20 11:35:45.25	167.74	13.98	
2025-01-20 11:35:45.45	167.75	14.00	
2025-01-20 11:35:45.65	167.75	14.03	
2025-01-20 11:35:45.85	167.76	14.05	
2025-01-20 11:35:46.06	167.76	14.07	
2025-01-20 11:35:46.26	167.77	14.09	
2025-01-20 11:35:46.46	167.77	14.12	
2025-01-20 11:35:46.67	167.78	14.14	
2025-01-20 11:35:46.87	167.78	14.16	
2025-01-20 11:35:47.07	167.79	14.18	
2025-01-20 11:35:47.28	167.79	14.21	
2025-01-20 11:35:47.48	167.80	14.23	
2025-01-20 11:35:47.68	167.80	14.25	
2025-01-20 11:35:47.89	167.81	14.28	
2025-01-20 11:35:48.09	167.81	14.30	
2025-01-20 11:35:48.29	167.82	14.32	
2025-01-20 11:35:48.50	167.82	14.35	
2025-01-20 11:35:48.70	167.83	14.37	
2025-01-20 11:35:48.90	167.83	14.39	
2025-01-20 11:35:49.10	167.84	14.41	
2025-01-20 11:35:49.31	167.84	14.44	
2025-01-20 11:35:49.51	167.85	14.46	
2025-01-20 11:35:49.71	167.85	14.48	
2025-01-20 11:35:49.92	167.86	14.51	
2025-01-20 11:35:50.12	167.86	14.53	
2025-01-20 11:35:50.32	167.87	14.55	
2025-01-20 11:35:50.53	167.87	14.58	
2025-01-20 11:35:50.73	167.88	14.60	
2025-01-20 11:35:50.93	167.88	14.62	
2025-01-20 11:35:51.14	167.89	14.65	
2025-01-20 11:35:51.34	167.89	14.67	
2025-01-20 11:35:51.54	167.90	14.69	
2025-01-20 11:35:51.74	167.90	14.72	
2025-01-20 11:35:51.95	167.91	14.74	
2025-01-20 11:35:52.15	167.91	14.76	
2025-01-20 11:35:52.35	167.92	14.79	
2025-01-20 11:35:52.56	167.93	14.81	
2025-01-20 11:35:52.76	167.93	14.83	
2025-01-20 11:35:52.96	167.94	14.86	
2025-01-20 11:35:53.17	167.94	14.88	
2025-01-20 11:35:53.37	167.95	14.90	
2025-01-20 11:35:53.57	167.95	14.93	
2025-01-20 11:35:53.78	167.96	14.95	
2025-01-20 11:35:53.98	167.96	14.98	
2025-01-20 11:35:54.18	167.97	15.00	
2025-01-20 11:35:54.39	167.97	15.02	
2025-01-20 11:35:54.59	167.98	15.05	
2025-01-20 11:35:54.79	167.98	15.07	
2025-01-20 11:35:54.99	167.99	15.09	
2025-01-20 11:35:55.20	167.99	15.12	
2025-01-20 11:35:55.40	168.00	15.14	
2025-01-20 11:35:55.60	168.00	15.17	
2025-01-20 11:35:55.81	168.01	15.19	
2025-01-20 11:35:56.01	168.01	15.21	
2025-01-20 11:35:56.21	168.02	15.24	
2025-01-20 11:35:56.42	168.03	15.26	
2025-01-20 11:35:56.62	168.03	15.29	
2025-01-20 11:35:56.82	168.04	15.31	
2025-01-20 11:35:57.03	168.04	15.33	
2025-01-20 11:35:57.23	168.05	15.36	
2025-01-20 11:35:57.43	168.05	15.38	
2025-01-20 11:35:57.63	168.06	15.41	
2025-01-20 11:35:57.84	168.06	15.43	
2025-01-20 11:35:58.04	168.07	15.45	
2025-01-20 11:35:58.24	168.07	15.48	
2025-01-20 11:35:58.45	168.08	15.50	
2025-01-20 11:35:58.65	168.08	15.53	
2025-01-20 11:35:58.85	168.09	15.55	
2025-01-20 11:35:59.06	168.10	15.58	
2025-01-20 11:35:59.26	168.10	15.60	
2025-01-20 11:35:59.46	168.11	15.62	
2025-01-20 11:35:59.67	168.11	15.65	
2025-01-20 11:35:59.87	168.12	15.67	
2025-01-20 11:36:00.07	168.12	15.70	
2025-01-20 11:36:00.28	168.13	15.72	
2025-01-20 11:36:00.48	168.13	15.75	
2025-01-20 11:36:00.68	168.14	15.77	
2025-01-20 11:36:00.88	168.15	15.80	
2025-01-20 11:36:01.09	168.15	15.82	
2025-01-20 11:36:01.29	168.16	15.84	
2025-01-20 11:36:01.49	168.16	15.87	
2025-01-20 11:36:01.70	168.17	15.89	
2025-01-20 11:36:01.90	168.17	15.92	
2025-01-20 11:36:02.10	168.18	15.94	
2025-01-20 11:36:02.31	168.18	15.97	
2025-01-20 11:36:02.51	168.19	15.99	
2025-01-20 11:36:02.71	168.20	16.02	
2025-01-20 11:36:02.92	168.20	16.04	
2025-01-20 11:36:03.12	168.21	16.07	
2025-01-20 11:36:03.32	168.21	16.09	
2025-01-20 11:36:03.52	168.22	16.12	
2025-01-20 11:36:03.73	168.22	16.14	
2025-01-20 11:36:03.93	168.23	16.17	
2025-01-20 11:36:04.13	168.23	16.19	
2025-01-20 11:36:04.35	168.24	16.22	
2025-01-20 11:36:04.56	168.25	16.25	
2025-01-20 11:36:04.76	168.25	16.27	
2025-01-20 11:36:04.96	168.26	16.29	
2025-01-20 11:36:05.17	168.26	16.32	
2025-01-20 11:36:05.37	168.27	16.35	
2025-01-20 11:36:05.57	168.28	16.37	
2025-01-20 11:36:05.77	168.28	16.39	
2025-01-20 11:36:05.98	168.29	16.42	
2025-01-20 11:36:06.18	168.29	16.45	
2025-01-20 11:36:06.38	168.30	16.47	
2025-01-20 11:36:06.59	168.30	16.50	
2025-01-20 11:36:06.79	168.31	16.52	
2025-01-20 11:36:06.99	168.32	16.55	
2025-01-20 11:36:07.20	168.32	16.57	
2025-01-20 11:36:07.40	168.33	16.60	
2025-01-20 11:36:07.60	168.33	16.62	
2025-01-20 11:36:07.81	168.34	16.65	
2025-01-20 11:36:08.01	168.34	16.68	
2025-01-20 11:36:08.21	168.35	16.70	
2025-01-20 11:36:08.41	168.36	16.73	
2025-01-20 11:36:08.62	168.36	16.75	
2025-01-20 11:36:08.82	168.37	16.78	
2025-01-20 11:36:09.02	168.37	16.80	
2025-01-20 11:36:09.23	168.38	16.83	
2025-01-20 11:36:09.43	168.39	16.85	
2025-01-20 11:36:09.63	168.39	16.88	
2025-01-20 11:36:09.84	168.40	16.91	
2025-01-20 11:36:10.04	168.40	16.93	
2025-01-20 11:36:10.24	168.41	16.96	
2025-01-20 11:36:10.45	168.42	16.98	
2025-01-20 11:36:10.65	168.42	17.01	
2025-01-20 11:36:10.85	168.43	17.04	
2025-01-20 11:36:11.06	168.43	17.06	
2025-01-20 11:36:11.26	168.44	17.09	
2025-01-20 11:36:11.46	168.45	17.11	
2025-01-20 11:36:11.66	168.45	17.14	
2025-01-20 11:36:11.87	168.46	17.17	
2025-01-20 11:36:12.07	168.46	17.19	
2025-01-20 11:36:12.27	168.47	17.22	
2025-01-20 11:36:12.48	168.48	17.24	
2025-01-20 11:36:12.68	168.48	17.27	
2025-01-20 11:36:12.88	168.49	17.30	
2025-01-20 11:36:13.09	168.49	17.32	
2025-01-20 11:36:13.29	168.50	17.35	
2025-01-20 11:36:13.49	168.51	17.38	
2025-01-20 11:36:13.70	168.51	17.40	
2025-01-20 11:36:13.90	168.52	17.43	
2025-01-20 11:36:14.10	168.52	17.46	
2025-01-20 11:36:14.30	168.53	17.48	
2025-01-20 11:36:14.51	168.54	17.51	
2025-01-20 11:36:14.71	168.54	17.53	
2025-01-20 11:36:14.91	168.55	17.56	
2025-01-20 11:36:15.12	168.56	17.59	
2025-01-20 11:36:15.32	168.56	17.61	
2025-01-20 11:36:15.52	168.57	17.64	
2025-01-20 11:36:15.73	168.57	17.67	
2025-01-20 11:36:15.93	168.58	17.69	
2025-01-20 11:36:16.13	168.59	17.72	
2025-01-20 11:36:16.34	168.59	17.75	
2025-01-20 11:36:16.54	168.60	17.78	
2025-01-20 11:36:16.74	168.60	17.80	
2025-01-20 11:36:16.95	168.61	17.83	
2025-01-20 11:36:17.15	168.62	17.86	
2025-01-20 11:36:17.35	168.62	17.88	
2025-01-20 11:36:17.55	168.63	17.91	
2025-01-20 11:36:17.76	168.64	17.94	
2025-01-20 11:36:17.96	168.64	17.96	
2025-01-20 11:36:18.16	168.65	17.99	
2025-01-20 11:36:18.37	168.66	18.02	
2025-01-20 11:36:18.57	168.66	18.05	
2025-01-20 11:36:18.77	168.67	18.07	
2025-01-20 11:36:18.98	168.67	18.10	
2025-01-20 11:36:19.18	168.68	18.13	
2025-01-20 11:36:19.38	168.69	18.15	
2025-01-20 11:36:19.59	168.69	18.18	
2025-01-20 11:36:19.79	168.70	18.21	
2025-01-20 11:36:19.99	168.71	18.24	
2025-01-20 11:36:20.19	168.71	18.26	
2025-01-20 11:36:20.40	168.72	18.29	
2025-01-20 11:36:20.60	168.73	18.32	
2025-01-20 11:36:20.80	168.73	18.35	
2025-01-20 11:36:21.01	168.74	18.37	
2025-01-20 11:36:21.21	168.75	18.40	
2025-01-20 11:36:21.41	168.75	18.43	
2025-01-20 11:36:21.62	168.76	18.46	
2025-01-20 11:36:21.82	168.77	18.48	
2025-01-20 11:36:22.02	168.77	18.51	
2025-01-20 11:36:22.23	168.78	18.54	
2025-01-20 11:36:22.43	168.78	18.57	
2025-01-20 11:36:22.63	168.79	18.59	
2025-01-20 11:36:22.84	168.80	18.62	
2025-01-20 11:36:23.04	168.80	18.65	
2025-01-20 11:36:23.24	168.81	18.68	
2025-01-20 11:36:23.44	168.82	18.71	
2025-01-20 11:36:23.65	168.82	18.74	
2025-01-20 11:36:23.85	168.83	18.76	
2025-01-20 11:36:24.05	168.84	18.79	
2025-01-20 11:36:24.26	168.84	18.82	
2025-01-20 11:36:24.46	168.85	18.85	
2025-01-20 11:36:24.66	168.86	18.87	
2025-01-20 11:36:24.87	168.86	18.90	
2025-01-20 11:36:25.07	168.87	18.93	
2025-01-20 11:36:25.27	168.88	18.96	
2025-01-20 11:36:25.48	168.88	18.99	
2025-01-20 11:36:25.68	168.89	19.02	
2025-01-20 11:36:25.88	168.90	19.04	
2025-01-20 11:36:26.08	168.90	19.07	
2025-01-20 11:36:26.29	168.91	19.10	
2025-01-20 11:36:26.49	168.92	19.13	
2025-01-20 11:36:26.69	168.93	19.16	
2025-01-20 11:36:26.90	168.93	19.19	
2025-01-20 11:36:27.10	168.94	19.22	
2025-01-20 11:36:27.30	168.95	19.24	
2025-01-20 11:36:27.51	168.95	19.27	
2025-01-20 11:36:27.71	168.96	19.30	
2025-01-20 11:36:27.91	168.97	19.33	
2025-01-20 11:36:28.12	168.97	19.36	
2025-01-20 11:36:28.32	168.98	19.39	
2025-01-20 11:36:28.52	168.99	19.42	
2025-01-20 11:36:28.73	168.99	19.45	
2025-01-20 11:36:28.93	169.00	19.48	
2025-01-20 11:36:29.13	169.01	19.50	
2025-01-20 11:36:29.33	169.02	19.53	
2025-01-20 11:36:29.54	169.02	19.56	
2025-01-20 11:36:29.74	169.03	19.59	
2025-01-20 11:36:29.94	169.04	19.62	
2025-01-20 11:36:30.15	169.04	19.65	
2025-01-20 11:36:30.35	169.05	19.68	
2025-01-20 11:36:30.55	169.06	19.71	
2025-01-20 11:36:30.76	169.06	19.74	
2025-01-20 11:36:30.96	169.07	19.77	
2025-01-20 11:36:31.16	169.08	19.80	
2025-01-20 11:36:31.37	169.09	19.83	
2025-01-20 11:36:31.57	169.09	19.85	
2025-01-20 11:36:31.77	169.10	19.88	
2025-01-20 11:36:31.97	169.11	19.91	
2025-01-20 11:36:32.18	169.11	19.94	
2025-01-20 11:36:32.38	169.12	19.97	
2025-01-20 11:36:32.58	169.13	20.00	
2025-01-20 11:36:32.79	169.14	20.03	
2025-01-20 11:36:32.99	169.14	20.06	
2025-01-20 11:36:33.19	169.15	20.09	
2025-01-20 11:36:33.40	169.16	20.12	
2025-01-20 11:36:33.60	169.16	20.15	
2025-01-20 11:36:33.80	169.17	20.18	
2025-01-20 11:36:34.01	169.18	20.21	
2025-01-20 11:36:34.21	169.19	20.24	
2025-01-20 11:36:34.41	169.19	20.27	
2025-01-20 11:36:34.62	169.20	20.30	
2025-01-20 11:36:34.82	169.21	20.33	
2025-01-20 11:36:35.02	169.22	20.36	
2025-01-20 11:36:35.22	169.22	20.39	
2025-01-20 11:36:35.43	169.23	20.42	
2025-01-20 11:36:35.63	169.24	20.45	
2025-01-20 11:36:35.83	169.25	20.48	
2025-01-20 11:36:36.04	169.25	20.51	
2025-01-20 11:36:36.24	169.26	20.54	
2025-01-20 11:36:36.44	169.27	20.57	
2025-01-20 11:36:36.65	169.28	20.60	
2025-01-20 11:36:36.85	169.28	20.63	
2025-01-20 11:36:37.05	169.29	20.66	
2025-01-20 11:36:37.26	169.30	20.69	
2025-01-20 11:36:37.46	169.31	20.72	
2025-01-20 11:36:37.66	169.31	20.75	
2025-01-20 11:36:37.86	169.32	20.78	
2025-01-20 11:36:38.07	169.33	20.82	
2025-01-20 11:36:38.27	169.34	20.85	
2025-01-20 11:36:38.47	169.34	20.88	
2025-01-20 11:36:38.68	169.35	20.91	
2025-01-20 11:36:38.88	169.36	20.94	
2025-01-20 11:36:39.08	169.37	20.97	
2025-01-20 11:36:39.29	169.37	21.00	
2025-01-20 11:36:39.49	169.38	21.03	
2025-01-20 11:36:39.69	169.39	21.06	
2025-01-20 11:36:39.90	169.40	21.09	
2025-01-20 11:36:40.10	169.40	21.12	
2025-01-20 11:36:40.30	169.41	21.15	
2025-01-20 11:36:40.51	169.42	21.19	
2025-01-20 11:36:40.71	169.43	21.22	
2025-01-20 11:36:40.91	169.44	21.25	
2025-01-20 11:36:41.11	169.44	21.28	
2025-01-20 11:36:41.32	169.45	21.31	
2025-01-20 11:36:41.52	169.46	21.34	
2025-01-20 11:36:41.72	169.47	21.37	
2025-01-20 11:36:41.93	169.47	21.41	
2025-01-20 11:36:42.13	169.48	21.44	
2025-01-20 11:36:42.33	169.49	21.47	
2025-01-20 11:36:42.54	169.50	21.50	
2025-01-20 11:36:42.74	169.51	21.53	
2025-01-20 11:36:42.94	169.51	21.56	
2025-01-20 11:36:43.15	169.52	21.60	
2025-01-20 11:36:43.35	169.53	21.63	
2025-01-20 11:36:43.55	169.54	21.66	
2025-01-20 11:36:43.75	169.55	21.69	
2025-01-20 11:36:43.96	169.55	21.72	
2025-01-20 11:36:44.16	169.56	21.75	
2025-01-20 11:36:44.36	169.57	21.78	
2025-01-20 11:36:44.57	169.58	21.82	
2025-01-20 11:36:44.77	169.59	21.85	
2025-01-20 11:36:44.97	169.59	21.88	
2025-01-20 11:36:45.18	169.60	21.91	
2025-01-20 11:36:45.38	169.61	21.95	
2025-01-20 11:36:45.58	169.62	21.98	
2025-01-20 11:36:45.79	169.63	22.01	
2025-01-20 11:36:45.99	169.63	22.04	
2025-01-20 11:36:46.19	169.64	22.07	
2025-01-20 11:36:46.40	169.65	22.11	
2025-01-20 11:36:46.60	169.66	22.14	
2025-01-20 11:36:46.80	169.67	22.17	
2025-01-20 11:36:47.00	169.67	22.20	
2025-01-20 11:36:47.21	169.68	22.24	
2025-01-20 11:36:47.41	169.69	22.27	
2025-01-20 11:36:47.61	169.70	22.30	
2025-01-20 11:36:47.82	169.71	22.34	
2025-01-20 11:36:48.02	169.72	22.37	
2025-01-20 11:36:48.22	169.72	22.40	
2025-01-20 11:36:48.43	169.73	22.43	
2025-01-20 11:36:48.63	169.74	22.47	
2025-01-20 11:36:48.83	169.75	22.50	
2025-01-20 11:36:49.04	169.76	22.53	
2025-01-20 11:36:49.24	169.77	22.57	
2025-01-20 11:36:49.44	169.78	22.60	
2025-01-20 11:36:49.64	169.78	22.63	
2025-01-20 11:36:49.85	169.79	22.66	
2025-01-20 11:36:50.05	169.80	22.70	
2025-01-20 11:36:50.25	169.81	22.73	
2025-01-20 11:36:50.46	169.82	22.76	
2025-01-20 11:36:50.66	169.83	22.80	
2025-01-20 11:36:50.86	169.83	22.83	
2025-01-20 11:36:51.07	169.84	22.86	
2025-01-20 11:36:51.27	169.85	22.90	
2025-01-20 11:36:51.47	169.86	22.93	
2025-01-20 11:36:51.68	169.87	22.97	
2025-01-20 11:36:51.88	169.88	23.00	
2025-01-20 11:36:52.08	169.89	23.03	
2025-01-20 11:36:52.29	169.90	23.07	
2025-01-20 11:36:52.49	169.90	23.10	
2025-01-20 11:36:52.69	169.91	23.13	
2025-01-20 11:36:52.89	169.92	23.17	
2025-01-20 11:36:53.10	169.93	23.20	
2025-01-20 11:36:53.30	169.94	23.23	
2025-01-20 11:36:53.50	169.95	23.27	
2025-01-20 11:36:53.71	169.96	23.30	
2025-01-20 11:36:53.91	169.97	23.34	
2025-01-20 11:36:54.11	169.97	23.37	
2025-01-20 11:36:54.32	169.98	23.41	
2025-01-20 11:36:54.52	169.99	23.44	
2025-01-20 11:36:54.72	170.00	23.47	
2025-01-20 11:36:54.93	170.01	23.51	
2025-01-20 11:36:55.13	170.02	23.54	
2025-01-20 11:36:55.33	170.03	23.58	
2025-01-20 11:36:55.53	170.04	23.61	
2025-01-20 11:36:55.74	170.05	23.65	
2025-01-20 11:36:55.94	170.05	23.68	
2025-01-20 11:36:56.14	170.06	23.71	
2025-01-20 11:36:56.35	170.07	23.75	
2025-01-20 11:36:56.55	170.08	23.78	
2025-01-20 11:36:56.75	170.09	23.82	
2025-01-20 11:36:56.96	170.10	23.85	
2025-01-20 11:36:57.16	170.11	23.89	
2025-01-20 11:36:57.36	170.12	23.92	
2025-01-20 11:36:57.57	170.13	23.96	
2025-01-20 11:36:57.77	170.14	23.99	
2025-01-20 11:36:57.97	170.15	24.03	
2025-01-20 11:36:58.18	170.16	24.07	
2025-01-20 11:36:58.38	170.16	24.10	
2025-01-20 11:36:58.58	170.17	24.13	
2025-01-20 11:36:58.78	170.18	24.17	
2025-01-20 11:36:58.99	170.19	24.21	
2025-01-20 11:36:59.19	170.20	24.24	
2025-01-20 11:36:59.39	170.21	24.28	
2025-01-20 11:36:59.60	170.22	24.31	
2025-01-20 11:36:59.80	170.23	24.35	
2025-01-20 11:37:00.00	170.24	24.38	
2025-01-20 11:37:00.21	170.25	24.42	
2025-01-20 11:37:00.41	170.26	24.45	
2025-01-20 11:37:00.61	170.27	24.49	
2025-01-20 11:37:00.82	170.28	24.53	
2025-01-20 11:37:01.02	170.29	24.56	
2025-01-20 11:37:01.22	170.30	24.60	
2025-01-20 11:37:01.42	170.31	24.63	
2025-01-20 11:37:01.63	170.32	24.67	
2025-01-20 11:37:01.83	170.32	24.70	
2025-01-20 11:37:02.03	170.33	24.74	
2025-01-20 11:37:02.24	170.34	24.78	
2025-01-20 11:37:02.44	170.35	24.81	
2025-01-20 11:37:02.64	170.36	24.85	
2025-01-20 11:37:02.85	170.37	24.89	
2025-01-20 11:37:03.05	170.38	24.92	
2025-01-20 11:37:03.25	170.39	24.96	
2025-01-20 11:37:03.46	170.40	25.00	
2025-01-20 11:37:03.66	170.41	25.03	
2025-01-20 11:37:03.86	170.42	25.07	
2025-01-20 11:37:04.07	170.43	25.11	
2025-01-20 11:37:04.27	170.44	25.14	
2025-01-20 11:37:04.47	170.45	25.18	
2025-01-20 11:37:04.67	170.46	25.21	
2025-01-20 11:37:04.88	170.47	25.25	
2025-01-20 11:37:05.08	170.48	25.29	
2025-01-20 11:37:05.28	170.49	25.33	
2025-01-20 11:37:05.49	170.50	25.36	
2025-01-20 11:37:05.69	170.51	25.40	
2025-01-20 11:37:05.89	170.52	25.44	
2025-01-20 11:37:06.10	170.53	25.48	
2025-01-20 11:37:06.30	170.54	25.51	
2025-01-20 11:37:06.50	170.55	25.55	
2025-01-20 11:37:06.71	170.56	25.59	
2025-01-20 11:37:06.91	170.57	25.62	
2025-01-20 11:37:07.11	170.58	25.66	
2025-01-20 11:37:07.31	170.59	25.70	
2025-01-20 11:37:07.52	170.60	25.74	
2025-01-20 11:37:07.72	170.61	25.77	
2025-01-20 11:37:07.92	170.62	25.81	
2025-01-20 11:37:08.13	170.63	25.85	
2025-01-20 11:37:08.33	170.64	25.89	
2025-01-20 11:37:08.53	170.65	25.92	
2025-01-20 11:37:08.74	170.66	25.96	
2025-01-20 11:37:08.94	170.67	26.00	
2025-01-20 11:37:09.14	170.68	26.04	
2025-01-20 11:37:09.35	170.70	26.08	
2025-01-20 11:37:09.55	170.71	26.12	
2025-01-20 11:37:09.75	170.72	26.15	
2025-01-20 11:37:09.96	170.73	26.19	
2025-01-20 11:37:10.16	170.74	26.23	
2025-01-20 11:37:10.36	170.75	26.27	
2025-01-20 11:37:10.56	170.76	26.31	
2025-01-20 11:37:10.77	170.77	26.35	
2025-01-20 11:37:10.97	170.78	26.38	
2025-01-20 11:37:11.17	170.79	26.42	
2025-01-20 11:37:11.38	170.80	26.46	
2025-01-20 11:37:11.58	170.81	26.50	
2025-01-20 11:37:11.78	170.82	26.54	
2025-01-20 11:37:11.99	170.83	26.58	
2025-01-20 11:37:12.19	170.84	26.62	
2025-01-20 11:37:12.39	170.85	26.65	
2025-01-20 11:37:12.60	170.87	26.70	
2025-01-20 11:37:12.80	170.88	26.73	
2025-01-20 11:37:13.00	170.89	26.77	
2025-01-20 11:37:13.20	170.90	26.81	
2025-01-20 11:37:13.41	170.91	26.85	
2025-01-20 11:37:13.61	170.92	26.89	
2025-01-20 11:37:13.81	170.93	26.93	
2025-01-20 11:37:14.02	170.94	26.97	
2025-01-20 11:37:14.22	170.95	27.01	
2025-01-20 11:37:14.42	170.96	27.05	
2025-01-20 11:37:14.63	170.98	27.09	
2025-01-20 11:37:14.83	170.99	27.13	
2025-01-20 11:37:15.03	171.00	27.17	
2025-01-20 11:37:15.24	171.01	27.21	
2025-01-20 11:37:15.44	171.02	27.25	
2025-01-20 11:37:15.64	171.03	27.29	
2025-01-20 11:37:15.85	171.04	27.33	
2025-01-20 11:37:16.05	171.05	27.37	
2025-01-20 11:37:16.25	171.06	27.41	
2025-01-20 11:37:16.45	171.08	27.45	
2025-01-20 11:37:16.66	171.09	27.49	
2025-01-20 11:37:16.86	171.10	27.53	
2025-01-20 11:37:17.06	171.11	27.57	
2025-01-20 11:37:17.27	171.12	27.61	
2025-01-20 11:37:17.47	171.13	27.65	
2025-01-20 11:37:17.67	171.14	27.69	
2025-01-20 11:37:17.88	171.16	27.73	
2025-01-20 11:37:18.08	171.17	27.77	
2025-01-20 11:37:18.28	171.18	27.81	
2025-01-20 11:37:18.49	171.19	27.85	
2025-01-20 11:37:18.69	171.20	27.89	
2025-01-20 11:37:18.89	171.21	27.93	
2025-01-20 11:37:19.09	171.23	27.97	
2025-01-20 11:37:19.30	171.24	28.02	
2025-01-20 11:37:19.50	171.25	28.06	
2025-01-20 11:37:19.70	171.26	28.10	
2025-01-20 11:37:19.91	171.27	28.14	
2025-01-20 11:37:20.11	171.29	28.18	
2025-01-20 11:37:20.31	171.30	28.22	
2025-01-20 11:37:20.52	171.31	28.26	
2025-01-20 11:37:20.72	171.32	28.31	
2025-01-20 11:37:20.92	171.33	28.35	
2025-01-20 11:37:21.13	171.35	28.39	
2025-01-20 11:37:21.33	171.36	28.43	
2025-01-20 11:37:21.53	171.37	28.47	
2025-01-20 11:37:21.74	171.38	28.52	
2025-01-20 11:37:21.94	171.39	28.56	
2025-01-20 11:37:22.14	171.41	28.60	
2025-01-20 11:37:22.34	171.42	28.64	
2025-01-20 11:37:22.55	171.43	28.68	
2025-01-20 11:37:22.75	171.44	28.72	
2025-01-20 11:37:22.95	171.45	28.77	
2025-01-20 11:37:23.16	171.47	28.81	
2025-01-20 11:37:23.36	171.48	28.85	
2025-01-20 11:37:23.56	171.49	28.89	
2025-01-20 11:37:23.77	171.50	28.94	
2025-01-20 11:37:23.97	171.52	28.98	
2025-01-20 11:37:24.17	171.53	29.02	
2025-01-20 11:37:24.38	171.54	29.07	
2025-01-20 11:37:24.58	171.55	29.11	
2025-01-20 11:37:24.78	171.57	29.15	
2025-01-20 11:37:24.98	171.58	29.19	
2025-01-20 11:37:25.19	171.59	29.24	
2025-01-20 11:37:25.39	171.60	29.28	
2025-01-20 11:37:25.59	171.62	29.32	
2025-01-20 11:37:25.80	171.63	29.37	
2025-01-20 11:37:26.00	171.64	29.41	
2025-01-20 11:37:26.20	171.66	29.45	
2025-01-20 11:37:26.41	171.67	29.50	
2025-01-20 11:37:26.61	171.68	29.54	
2025-01-20 11:37:26.81	171.69	29.58	
2025-01-20 11:37:27.02	171.71	29.63	
2025-01-20 11:37:27.22	171.72	29.67	
2025-01-20 11:37:27.42	171.73	29.71	
2025-01-20 11:37:27.63	171.75	29.76	
2025-01-20 11:37:27.83	171.76	29.80	
2025-01-20 11:37:28.03	171.77	29.84	
2025-01-20 11:37:28.23	171.79	29.89	
2025-01-20 11:37:28.44	171.80	29.93	
2025-01-20 11:37:28.64	171.81	29.98	
2025-01-20 11:37:28.84	171.82	30.02	
2025-01-20 11:37:29.05	171.84	30.07	
2025-01-20 11:37:29.25	171.85	30.11	
2025-01-20 11:37:29.45	171.86	30.15	
2025-01-20 11:37:29.66	171.88	30.20	
2025-01-20 11:37:29.86	171.89	30.24	
2025-01-20 11:37:30.06	171.91	30.29	
2025-01-20 11:37:30.27	171.92	30.33	
2025-01-20 11:37:30.47	171.93	30.38	
2025-01-20 11:37:30.67	171.95	30.42	
2025-01-20 11:37:30.87	171.96	30.47	
2025-01-20 11:37:31.08	171.97	30.51	
2025-01-20 11:37:31.28	171.99	30.56	
2025-01-20 11:37:31.48	172.00	30.60	
2025-01-20 11:37:31.69	172.01	30.65	
2025-01-20 11:37:31.89	172.03	30.69	
2025-01-20 11:37:32.09	172.04	30.74	
2025-01-20 11:37:32.30	172.06	30.79	
2025-01-20 11:37:32.50	172.07	30.83	
2025-01-20 11:37:32.70	172.08	30.88	
2025-01-20 11:37:32.91	172.10	30.92	
2025-01-20 11:37:33.11	172.11	30.97	
2025-01-20 11:37:33.31	172.13	31.01	
2025-01-20 11:37:33.52	172.14	31.06	
2025-01-20 11:37:33.72	172.15	31.11	
2025-01-20 11:37:33.92	172.17	31.15	
2025-01-20 11:37:34.12	172.18	31.20	
2025-01-20 11:37:34.33	172.20	31.25	
2025-01-20 11:37:34.53	172.21	31.29	
2025-01-20 11:37:34.73	172.23	31.34	
2025-01-20 11:37:34.94	172.24	31.38	
2025-01-20 11:37:35.14	172.25	31.43	
2025-01-20 11:37:35.34	172.27	31.48	
2025-01-20 11:37:35.55	172.28	31.52	
2025-01-20 11:37:35.75	172.30	31.57	
2025-01-20 11:37:35.95	172.31	31.62	
2025-01-20 11:37:36.16	172.33	31.67	
2025-01-20 11:37:36.36	172.34	31.71	
2025-01-20 11:37:36.56	172.36	31.76	
2025-01-20 11:37:36.76	172.37	31.80	
2025-01-20 11:37:36.97	172.39	31.85	
2025-01-20 11:37:37.17	172.40	31.90	
2025-01-20 11:37:37.37	172.42	31.95	
2025-01-20 11:37:37.58	172.43	32.00	
2025-01-20 11:37:37.78	172.45	32.04	
2025-01-20 11:37:37.98	172.46	32.09	
2025-01-20 11:37:38.19	172.48	32.14	
2025-01-20 11:37:38.39	172.49	32.19	
2025-01-20 11:37:38.59	172.51	32.23	
2025-01-20 11:37:38.80	172.52	32.28	
2025-01-20 11:37:39.00	172.54	32.33	
2025-01-20 11:37:39.20	172.55	32.38	
2025-01-20 11:37:39.41	172.57	32.43	
2025-01-20 11:37:39.61	172.58	32.48	
2025-01-20 11:37:39.81	172.60	32.52	
2025-01-20 11:37:40.01	172.61	32.57	
2025-01-20 11:37:40.22	172.63	32.62	
2025-01-20 11:37:40.42	172.64	32.67	
2025-01-20 11:37:40.62	172.66	32.72	
2025-01-20 11:37:40.83	172.68	32.77	
2025-01-20 11:37:41.03	172.69	32.82	
2025-01-20 11:37:41.23	172.71	32.86	
2025-01-20 11:37:41.44	172.72	32.91	
2025-01-20 11:37:41.64	172.74	32.96	
2025-01-20 11:37:41.84	172.75	33.01	
2025-01-20 11:37:42.05	172.77	33.06	
2025-01-20 11:37:42.25	172.79	33.11	
2025-01-20 11:37:42.45	172.80	33.16	
2025-01-20 11:37:42.65	172.82	33.21	
2025-01-20 11:37:42.86	172.83	33.26	
2025-01-20 11:37:43.06	172.85	33.31	
2025-01-20 11:37:43.26	172.87	33.36	
2025-01-20 11:37:43.47	172.88	33.41	
2025-01-20 11:37:43.67	172.90	33.46	
2025-01-20 11:37:43.87	172.92	33.51	
2025-01-20 11:37:44.08	172.93	33.56	
2025-01-20 11:37:44.28	172.95	33.61	
2025-01-20 11:37:44.48	172.96	33.66	
2025-01-20 11:37:44.69	172.98	33.71	
2025-01-20 11:37:44.89	173.00	33.76	
2025-01-20 11:37:45.09	173.01	33.81	
2025-01-20 11:37:45.30	173.03	33.86	
2025-01-20 11:37:45.50	173.05	33.91	
2025-01-20 11:37:45.70	173.06	33.96	
2025-01-20 11:37:45.90	173.08	34.01	
2025-01-20 11:37:46.11	173.10	34.06	
2025-01-20 11:37:46.31	173.12	34.12	
2025-01-20 11:37:46.51	173.13	34.17	
2025-01-20 11:37:46.72	173.15	34.22	
2025-01-20 11:37:46.92	173.17	34.27	
2025-01-20 11:37:47.12	173.18	34.32	
2025-01-20 11:37:47.33	173.20	34.37	
2025-01-20 11:37:47.53	173.22	34.42	
2025-01-20 11:37:47.73	173.24	34.47	
2025-01-20 11:37:47.94	173.25	34.53	
2025-01-20 11:37:48.14	173.27	34.58	
2025-01-20 11:37:48.34	173.29	34.63	
2025-01-20 11:37:48.54	173.31	34.68	
2025-01-20 11:37:48.75	173.32	34.74	
2025-01-20 11:37:48.95	173.34	34.79	
2025-01-20 11:37:49.15	173.36	34.84	
2025-01-20 11:37:49.36	173.38	34.89	
2025-01-20 11:37:49.56	173.39	34.94	
2025-01-20 11:37:49.76	173.41	35.00	
2025-01-20 11:37:49.97	173.43	35.05	
2025-01-20 11:37:50.17	173.45	35.10	
2025-01-20 11:37:50.37	173.47	35.15	
2025-01-20 11:37:50.58	173.48	35.21	
2025-01-20 11:37:50.78	173.50	35.26	
2025-01-20 11:37:50.98	173.52	35.31	
2025-01-20 11:37:51.19	173.54	35.37	
2025-01-20 11:37:51.39	173.56	35.42	
2025-01-20 11:37:51.59	173.58	35.47	
2025-01-20 11:37:51.79	173.59	35.53	
2025-01-20 11:37:52.00	173.61	35.58	
2025-01-20 11:37:52.20	173.63	35.63	
2025-01-20 11:37:52.40	173.65	35.69	
2025-01-20 11:37:52.61	173.67	35.74	
2025-01-20 11:37:52.81	173.69	35.80	
2025-01-20 11:37:53.01	173.71	35.85	
2025-01-20 11:37:53.22	173.73	35.91	
2025-01-20 11:37:53.42	173.74	35.96	
2025-01-20 11:37:53.62	173.76	36.01	
2025-01-20 11:37:53.83	173.78	36.07	
2025-01-20 11:37:54.03	173.80	36.12	
2025-01-20 11:37:54.23	173.82	36.18	
2025-01-20 11:37:54.43	173.84	36.23	
2025-01-20 11:37:54.64	173.86	36.29	
2025-01-20 11:37:54.84	173.88	36.34	
2025-01-20 11:37:55.04	173.90	36.40	
2025-01-20 11:37:55.25	173.92	36.45	
2025-01-20 11:37:55.45	173.94	36.51	
2025-01-20 11:37:55.65	173.96	36.56	
2025-01-20 11:37:55.86	173.98	36.62	
2025-01-20 11:37:56.06	174.00	36.67	
2025-01-20 11:37:56.26	174.02	36.73	
2025-01-20 11:37:56.47	174.04	36.79	
2025-01-20 11:37:56.67	174.06	36.84	
2025-01-20 11:37:56.87	174.08	36.89	
2025-01-20 11:37:57.08	174.10	36.95	
2025-01-20 11:37:57.28	174.12	37.01	
2025-01-20 11:37:57.48	174.14	37.06	
2025-01-20 11:37:57.68	174.16	37.12	
2025-01-20 11:37:57.89	174.18	37.18	
2025-01-20 11:37:58.09	174.20	37.23	
2025-01-20 11:37:58.29	174.22	37.29	
2025-01-20 11:37:58.50	174.24	37.35	
2025-01-20 11:37:58.70	174.26	37.40	
2025-01-20 11:37:58.90	174.28	37.46	
2025-01-20 11:37:59.11	174.30	37.52	
2025-01-20 11:37:59.31	174.32	37.57	
2025-01-20 11:37:59.51	174.34	37.63	
2025-01-20 11:37:59.72	174.36	37.69	
2025-01-20 11:37:59.92	174.38	37.75	
2025-01-20 11:38:00.12	174.41	37.80	
2025-01-20 11:38:00.32	174.43	37.86	
2025-01-20 11:38:00.53	174.45	37.92	
2025-01-20 11:38:00.73	174.47	37.98	
2025-01-20 11:38:00.93	174.49	38.03	
2025-01-20 11:38:01.14	174.51	38.09	
2025-01-20 11:38:01.34	174.53	38.15	
2025-01-20 11:38:01.54	174.56	38.21	
2025-01-20 11:38:01.75	174.58	38.27	
2025-01-20 11:38:01.95	174.60	38.32	
2025-01-20 11:38:02.15	174.62	38.38	
2025-01-20 11:38:02.36	174.64	38.44	
2025-01-20 11:38:02.56	174.67	38.50	
2025-01-20 11:38:02.76	174.69	38.56	
2025-01-20 11:38:02.97	174.71	38.62	
2025-01-20 11:38:03.17	174.73	38.68	
2025-01-20 11:38:03.37	174.75	38.73	
2025-01-20 11:38:03.57	174.78	38.79	
2025-01-20 11:38:03.78	174.80	38.85	
2025-01-20 11:38:03.98	174.82	38.91	
2025-01-20 11:38:04.18	174.84	38.97	
2025-01-20 11:38:04.39	174.87	39.03	
2025-01-20 11:38:04.59	174.89	39.09	
2025-01-20 11:38:04.79	174.91	39.15	
2025-01-20 11:38:05.00	174.94	39.21	
2025-01-20 11:38:05.20	174.96	39.27	
2025-01-20 11:38:05.40	174.98	39.33	
2025-01-20 11:38:05.61	175.01	39.39	
2025-01-20 11:38:05.81	175.03	39.45	
2025-01-20 11:38:06.01	175.05	39.51	
2025-01-20 11:38:06.21	175.08	39.57	
2025-01-20 11:38:06.42	175.10	39.63	
2025-01-20 11:38:06.62	175.12	39.69	
2025-01-20 11:38:06.82	175.15	39.75	
2025-01-20 11:38:07.03	175.17	39.82	
2025-01-20 11:38:07.23	175.20	39.88	
2025-01-20 11:38:07.43	175.22	39.94	
2025-01-20 11:38:07.64	175.24	40.00	
2025-01-20 11:38:07.84	175.27	40.06	
2025-01-20 11:38:08.04	175.29	40.12	
2025-01-20 11:38:08.25	175.32	40.19	
2025-01-20 11:38:08.45	175.34	40.25	
2025-01-20 11:38:08.65	175.37	40.31	
2025-01-20 11:38:08.86	175.39	40.37	
2025-01-20 11:38:09.06	175.42	40.43	
2025-01-20 11:38:09.26	175.44	40.49	
2025-01-20 11:38:09.46	175.47	40.55	
2025-01-20 11:38:09.67	175.49	40.62	
2025-01-20 11:38:09.87	175.52	40.68	
2025-01-20 11:38:10.07	175.54	40.74	
2025-01-20 11:38:10.28	175.57	40.81	
2025-01-20 11:38:10.48	175.59	40.87	
2025-01-20 11:38:10.68	175.62	40.93	
2025-01-20 11:38:10.89	175.64	41.00	
2025-01-20 11:38:11.09	175.67	41.06	
2025-01-20 11:38:11.29	175.70	41.12	
2025-01-20 11:38:11.50	175.72	41.19	
2025-01-20 11:38:11.70	175.75	41.25	
2025-01-20 11:38:11.90	175.77	41.31	
2025-01-20 11:38:12.10	175.80	41.37	
2025-01-20 11:38:12.31	175.83	41.44	
2025-01-20 11:38:12.51	175.85	41.50	
2025-01-20 11:38:12.71	175.88	41.56	
2025-01-20 11:38:12.92	175.91	41.63	
2025-01-20 11:38:13.12	175.93	41.69	
2025-01-20 11:38:13.32	175.96	41.76	
2025-01-20 11:38:13.53	175.99	41.82	
2025-01-20 11:38:13.73	176.01	41.89	
2025-01-20 11:38:13.93	176.04	41.95	
2025-01-20 11:38:14.14	176.07	42.02	
2025-01-20 11:38:14.34	176.10	42.08	
2025-01-20 11:38:14.54	176.12	42.15	
2025-01-20 11:38:14.75	176.15	42.21	
2025-01-20 11:38:14.95	176.18	42.28	
2025-01-20 11:38:15.15	176.21	42.34	
2025-01-20 11:38:15.35	176.23	42.41	
2025-01-20 11:38:15.56	176.26	42.47	
2025-01-20 11:38:15.76	176.29	42.54	
2025-01-20 11:38:15.96	176.32	42.60	
2025-01-20 11:38:16.17	176.35	42.67	
2025-01-20 11:38:16.37	176.38	42.74	
2025-01-20 11:38:16.57	176.40	42.80	
2025-01-20 11:38:16.78	176.43	42.87	
2025-01-20 11:38:16.98	176.46	42.94	
2025-01-20 11:38:17.18	176.49	43.00	
2025-01-20 11:38:17.39	176.52	43.07	
2025-01-20 11:38:17.59	176.55	43.14	
2025-01-20 11:38:17.79	176.58	43.20	
2025-01-20 11:38:17.99	176.61	43.27	
2025-01-20 11:38:18.20	176.64	43.34	
2025-01-20 11:38:18.40	176.67	43.40	
2025-01-20 11:38:18.60	176.70	43.47	
2025-01-20 11:38:18.81	176.73	43.54	
2025-01-20 11:38:19.01	176.76	43.61	
2025-01-20 11:38:19.21	176.79	43.67	
2025-01-20 11:38:19.42	176.82	43.74	
2025-01-20 11:38:19.62	176.85	43.81	
2025-01-20 11:38:19.82	176.88	43.88	
2025-01-20 11:38:20.03	176.91	43.95	
2025-01-20 11:38:20.23	176.94	44.01	
2025-01-20 11:38:20.43	176.97	44.08	
2025-01-20 11:38:20.64	177.01	44.15	
2025-01-20 11:38:20.84	177.04	44.22	
2025-01-20 11:38:21.04	177.07	44.29	
2025-01-20 11:38:21.24	177.10	44.35	
2025-01-20 11:38:21.45	177.13	44.43	
2025-01-20 11:38:21.65	177.16	44.49	
2025-01-20 11:38:21.85	177.19	44.56	
2025-01-20 11:38:22.06	177.23	44.63	
2025-01-20 11:38:22.26	177.26	44.70	
2025-01-20 11:38:22.46	177.29	44.77	
2025-01-20 11:38:22.67	177.32	44.84	
2025-01-20 11:38:22.87	177.36	44.91	
2025-01-20 11:38:23.07	177.39	44.98	
2025-01-20 11:38:23.28	177.42	45.05	
2025-01-20 11:38:23.48	177.46	45.12	
2025-01-20 11:38:23.68	177.49	45.19	
2025-01-20 11:38:23.88	177.52	45.26	
2025-01-20 11:38:24.09	177.56	45.33	
2025-01-20 11:38:24.29	177.59	45.40	
2025-01-20 11:38:24.49	177.62	45.47	
2025-01-20 11:38:24.70	177.66	45.55	
2025-01-20 11:38:24.90	177.69	45.62	
2025-01-20 11:38:25.10	177.72	45.69	
2025-01-20 11:38:25.31	177.76	45.76	
2025-01-20 11:38:25.51	177.79	45.83	
2025-01-20 11:38:25.71	177.83	45.90	
2025-01-20 11:38:25.92	177.86	45.97	
2025-01-20 11:38:26.12	177.90	46.04	
2025-01-20 11:38:26.32	177.93	46.11	
2025-01-20 11:38:26.53	177.97	46.19	
2025-01-20 11:38:26.73	178.01	46.26	
2025-01-20 11:38:26.93	178.04	46.33	
2025-01-20 11:38:27.13	178.08	46.40	
2025-01-20 11:38:27.34	178.11	46.48	
2025-01-20 11:38:27.54	178.15	46.55	
2025-01-20 11:38:27.74	178.18	46.62	
2025-01-20 11:38:27.95	178.22	46.69	
2025-01-20 11:38:28.15	178.26	46.77	
2025-01-20 11:38:28.35	178.30	46.84	
2025-01-20 11:38:28.56	178.33	46.91	
2025-01-20 11:38:28.76	178.37	46.99	
2025-01-20 11:38:28.96	178.41	47.06	
2025-01-20 11:38:29.17	178.45	47.13	
2025-01-20 11:38:29.37	178.48	47.21	
2025-01-20 11:38:29.57	178.52	47.28	
2025-01-20 11:38:29.77	178.56	47.35	
2025-01-20 11:38:29.98	178.60	47.43	
2025-01-20 11:38:30.18	178.64	47.50	
2025-01-20 11:38:30.38	178.67	47.57	
2025-01-20 11:38:30.59	178.71	47.65	
2025-01-20 11:38:30.79	178.75	47.72	
2025-01-20 11:38:30.99	178.79	47.80	
2025-01-20 11:38:31.20	178.83	47.88	
2025-01-20 11:38:31.40	178.87	47.95	
2025-01-20 11:38:31.60	178.91	48.02	
2025-01-20 11:38:31.81	178.95	48.10	
2025-01-20 11:38:32.01	178.99	48.17	
2025-01-20 11:38:32.21	179.03	48.25	
2025-01-20 11:38:32.42	179.07	48.33	
2025-01-20 11:38:32.62	179.11	48.40	
2025-01-20 11:38:32.82	179.15	48.48	
2025-01-20 11:38:33.02	179.19	48.55	
2025-01-20 11:38:33.23	179.24	48.63	
2025-01-20 11:38:33.43	179.28	48.70	
2025-01-20 11:38:33.63	179.32	48.78	
2025-01-20 11:38:33.84	179.36	48.86	
2025-01-20 11:38:34.04	179.40	48.93	
2025-01-20 11:38:34.24	179.44	49.01	
2025-01-20 11:38:34.45	179.49	49.09	
2025-01-20 11:38:34.65	179.53	49.16	
2025-01-20 11:38:34.85	179.57	49.24	
2025-01-20 11:38:35.06	179.62	49.32	
2025-01-20 11:38:35.26	179.66	49.39	
2025-01-20 11:38:35.46	179.70	49.47	
2025-01-20 11:38:35.66	179.75	49.55	
2025-01-20 11:38:35.87	179.79	49.63	
2025-01-20 11:38:36.07	179.84	49.70	
2025-01-20 11:38:36.27	179.88	49.78	
2025-01-20 11:38:36.48	179.93	49.86	
2025-01-20 11:38:36.68	179.97	49.94	
2025-01-20 11:38:36.88	180.01	50.01	
2025-01-20 11:38:37.09	180.06	50.09	
2025-01-20 11:38:37.29	180.11	50.17	
2025-01-20 11:38:37.49	180.15	50.25	
2025-01-20 11:38:37.70	180.20	50.33	
2025-01-20 11:38:37.90	180.24	50.41	
2025-01-20 11:38:38.10	180.29	50.49	
2025-01-20 11:38:38.31	180.34	50.57	
2025-01-20 11:38:38.51	180.39	50.64	
2025-01-20 11:38:38.71	180.43	50.72	
2025-01-20 11:38:38.91	180.48	50.80	
2025-01-20 11:38:39.12	180.53	50.88	
2025-01-20 11:38:39.32	180.58	50.96	
2025-01-20 11:38:39.52	180.62	51.04	
2025-01-20 11:38:39.73	180.67	51.12	
2025-01-20 11:38:39.93	180.72	51.20	
2025-01-20 11:38:40.13	180.77	51.28	
2025-01-20 11:38:40.34	180.82	51.36	
2025-01-20 11:38:40.54	180.87	51.44	
2025-01-20 11:38:40.74	180.92	51.52	
2025-01-20 11:38:40.95	180.97	51.60	
2025-01-20 11:38:41.15	181.02	51.68	
2025-01-20 11:38:41.35	181.07	51.76	
2025-01-20 11:38:41.55	181.12	51.84	
2025-01-20 11:38:41.76	181.17	51.93	
2025-01-20 11:38:41.96	181.22	52.01	
2025-01-20 11:38:42.16	181.28	52.09	
2025-01-20 11:38:42.37	181.33	52.17	
2025-01-20 11:38:42.57	181.38	52.25	
2025-01-20 11:38:42.77	181.43	52.33	
2025-01-20 11:38:42.98	181.49	52.41	
2025-01-20 11:38:43.18	181.54	52.50	
2025-01-20 11:38:43.38	181.59	52.58	
2025-01-20 11:38:43.59	181.65	52.66	
2025-01-20 11:38:43.79	181.70	52.74	
2025-01-20 11:38:43.99	181.76	52.82	
2025-01-20 11:38:44.20	181.81	52.91	
2025-01-20 11:38:44.40	181.87	52.99	
2025-01-20 11:38:44.60	181.92	53.07	
2025-01-20 11:38:44.80	181.98	53.15	
2025-01-20 11:38:45.01	182.03	53.24	
2025-01-20 11:38:45.21	182.09	53.32	
2025-01-20 11:38:45.41	182.15	53.40	
2025-01-20 11:38:45.62	182.20	53.49	
2025-01-20 11:38:45.82	182.26	53.57	
2025-01-20 11:38:46.02	182.32	53.65	
2025-01-20 11:38:46.23	182.38	53.74	
2025-01-20 11:38:46.43	182.43	53.82	
2025-01-20 11:38:46.63	182.49	53.90	
2025-01-20 11:38:46.84	182.55	53.99	
2025-01-20 11:38:47.04	182.61	54.07	
2025-01-20 11:38:47.24	182.67	54.15	
2025-01-20 11:38:47.44	182.73	54.24	
2025-01-20 11:38:47.65	182.79	54.33	
2025-01-20 11:38:47.85	182.85	54.41	
2025-01-20 11:38:48.05	182.91	54.49	
2025-01-20 11:38:48.26	182.98	54.58	
2025-01-20 11:38:48.46	183.04	54.66	
2025-01-20 11:38:48.66	183.10	54.75	
2025-01-20 11:38:48.87	183.16	54.83	
2025-01-20 11:38:49.07	183.22	54.92	
2025-01-20 11:38:49.27	183.29	55.00	
2025-01-20 11:38:49.48	183.35	55.09	
2025-01-20 11:38:49.68	183.42	55.17	
2025-01-20 11:38:49.88	183.48	55.26	
2025-01-20 11:38:50.09	183.55	55.35	
2025-01-20 11:38:50.29	183.61	55.43	
2025-01-20 11:38:50.49	183.67	55.52	
2025-01-20 11:38:50.69	183.74	55.60	
2025-01-20 11:38:50.90	183.81	55.69	
2025-01-20 11:38:51.10	183.87	55.77	
2025-01-20 11:38:51.30	183.94	55.86	
2025-01-20 11:38:51.51	184.01	55.95	
2025-01-20 11:38:51.71	184.08	56.03	
2025-01-20 11:38:51.91	184.14	56.12	
2025-01-20 11:38:52.12	184.22	56.21	
2025-01-20 11:38:52.32	184.28	56.29	
2025-01-20 11:38:52.52	184.35	56.38	
2025-01-20 11:38:52.73	184.43	56.47	
2025-01-20 11:38:52.93	184.49	56.56	
2025-01-20 11:38:53.13	184.56	56.64	
2025-01-20 11:38:53.33	184.64	56.73	
2025-01-20 11:38:53.54	184.71	56.82	
2025-01-20 11:38:53.74	184.78	56.90	
2025-01-20 11:38:53.94	184.85	56.99	
2025-01-20 11:38:54.15	184.93	57.08	
2025-01-20 11:38:54.35	185.00	57.17	
2025-01-20 11:38:54.55	185.07	57.25	
2025-01-20 11:38:54.76	185.15	57.34	
2025-01-20 11:38:54.96	185.23	57.43	
2025-01-20 11:38:55.16	185.30	57.52	
2025-01-20 11:38:55.37	185.38	57.61	
2025-01-20 11:38:55.57	185.46	57.70	
2025-01-20 11:38:55.77	185.53	57.78	
2025-01-20 11:38:55.98	185.61	57.87	
2025-01-20 11:38:56.18	185.69	57.96	
2025-01-20 11:38:56.38	185.77	58.05	
2025-01-20 11:38:56.58	185.84	58.14	
2025-01-20 11:38:56.79	185.93	58.23	
2025-01-20 11:38:56.99	186.01	58.32	
2025-01-20 11:38:57.19	186.09	58.40	
2025-01-20 11:38:57.40	186.17	58.50	
2025-01-20 11:38:57.60	186.25	58.58	
2025-01-20 11:38:57.80	186.33	58.67	
2025-01-20 11:38:58.01	186.42	58.76	
2025-01-20 11:38:58.21	186.50	58.85	
2025-01-20 11:38:58.41	186.58	58.94	
2025-01-20 11:38:58.62	186.67	59.03	
2025-01-20 11:38:58.82	186.75	59.12	
2025-01-20 11:38:59.02	186.84	59.21	
2025-01-20 11:38:59.22	186.92	59.30	
2025-01-20 11:38:59.43	187.01	59.39	
2025-01-20 11:38:59.63	187.10	59.48	
2025-01-20 11:38:59.83	187.19	59.57	
2025-01-20 11:39:00.04	187.28	59.66	
2025-01-20 11:39:00.24	187.37	59.75	
2025-01-20 11:39:00.44	187.46	59.84	
2025-01-20 11:39:00.65	187.55	59.93	
2025-01-20 11:39:00.85	187.64	60.02	
2025-01-20 11:39:01.05	187.73	60.11	
2025-01-20 11:39:01.26	187.83	60.21	
2025-01-20 11:39:01.46	187.92	60.29	
2025-01-20 11:39:01.66	188.01	60.38	
2025-01-20 11:39:01.87	188.11	60.48	
2025-01-20 11:39:02.07	188.20	60.57	
2025-01-20 11:39:02.27	188.30	60.66	
2025-01-20 11:39:02.47	188.39	60.75	
2025-01-20 11:39:02.68	188.49	60.84	
2025-01-20 11:39:02.88	188.59	60.93	
2025-01-20 11:39:03.08	188.69	61.02	
2025-01-20 11:39:03.29	188.79	61.11	
2025-01-20 11:39:03.49	188.89	61.20	
2025-01-20 11:39:03.69	188.99	61.29	
2025-01-20 11:39:03.90	189.10	61.39	
2025-01-20 11:39:04.11	189.20	61.48	
2025-01-20 11:39:04.32	189.31	61.58	
2025-01-20 11:39:04.52	189.41	61.67	
2025-01-20 11:39:04.72	189.51	61.76	
2025-01-20 11:39:04.93	189.62	61.85	
2025-01-20 11:39:05.13	189.73	61.94	
2025-01-20 11:39:05.33	189.83	62.03	
2025-01-20 11:39:05.54	189.95	62.13	
2025-01-20 11:39:05.74	190.05	62.22	
2025-01-20 11:39:05.94	190.16	62.31	
2025-01-20 11:39:06.15	190.28	62.41	
2025-01-20 11:39:06.35	190.39	62.50	
2025-01-20 11:39:06.55	190.50	62.59	
2025-01-20 11:39:06.76	190.61	62.68	
2025-01-20 11:39:06.96	190.73	62.77	
2025-01-20 11:39:07.16	190.84	62.86	
2025-01-20 11:39:07.36	190.95	62.95	
2025-01-20 11:39:07.57	191.07	63.05	
2025-01-20 11:39:07.77	191.19	63.14	
2025-01-20 11:39:07.97	191.30	63.23	
2025-01-20 11:39:08.18	191.43	63.33	
2025-01-20 11:39:08.38	191.55	63.42	
2025-01-20 11:39:08.58	191.67	63.51	
2025-01-20 11:39:08.79	191.79	63.60	
2025-01-20 11:39:08.99	191.91	63.69	
2025-01-20 11:39:09.19	192.04	63.78	
2025-01-20 11:39:09.40	192.17	63.88	
2025-01-20 11:39:09.60	192.29	63.97	
2025-01-20 11:39:09.80	192.41	64.06	
2025-01-20 11:39:10.00	192.54	64.15	
2025-01-20 11:39:10.21	192.67	64.25	
2025-01-20 11:39:10.41	192.80	64.34	
2025-01-20 11:39:10.61	192.93	64.43	
2025-01-20 11:39:10.82	193.07	64.53	
2025-01-20 11:39:11.02	193.20	64.62	
2025-01-20 11:39:11.22	193.33	64.71	
2025-01-20 11:39:11.43	193.47	64.80	
2025-01-20 11:39:11.63	193.61	64.89	
2025-01-20 11:39:11.83	193.74	64.99	
2025-01-20 11:39:12.04	193.89	65.08	
2025-01-20 11:39:12.24	194.02	65.17	
2025-01-20 11:39:12.44	194.16	65.26	
2025-01-20 11:39:12.65	194.31	65.36	
2025-01-20 11:39:12.85	194.45	65.45	
2025-01-20 11:39:13.05	194.59	65.54	
2025-01-20 11:39:13.25	194.74	65.63	
2025-01-20 11:39:13.46	194.89	65.73	
2025-01-20 11:39:13.66	195.04	65.82	
2025-01-20 11:39:13.86	195.18	65.91	
2025-01-20 11:39:14.07	195.34	66.00	
2025-01-20 11:39:14.27	195.49	66.09	
2025-01-20 11:39:14.47	195.64	66.18	
2025-01-20 11:39:14.68	195.80	66.28	
2025-01-20 11:39:14.88	195.95	66.37	
2025-01-20 11:39:15.08	196.11	66.46	
2025-01-20 11:39:15.29	196.27	66.55	
2025-01-20 11:39:15.49	196.43	66.64	
2025-01-20 11:39:15.69	196.59	66.73	
2025-01-20 11:39:15.89	196.75	66.82	
2025-01-20 11:39:16.10	196.92	66.92	
2025-01-20 11:39:16.30	197.08	67.01	
2025-01-20 11:39:16.50	197.25	67.10	
2025-01-20 11:39:16.71	197.42	67.19	
2025-01-20 11:39:16.91	197.59	67.28	
2025-01-20 11:39:17.11	197.76	67.37	
2025-01-20 11:39:17.32	197.94	67.47	
2025-01-20 11:39:17.52	198.11	67.56	
2025-01-20 11:39:17.72	198.28	67.65	
2025-01-20 11:39:17.93	198.47	67.74	
2025-01-20 11:39:18.13	198.65	67.83	
2025-01-20 11:39:18.33	198.82	67.92	
2025-01-20 11:39:18.54	199.01	68.01	
2025-01-20 11:39:18.74	199.19	68.10	
2025-01-20 11:39:18.94	199.38	68.19	
2025-01-20 11:39:19.14	199.56	68.28	
2025-01-20 11:39:19.35	199.76	68.37	
2025-01-20 11:39:19.55	199.95	68.46	
2025-01-20 11:39:19.75	200.14	68.55	
2025-01-20 11:39:19.96	200.34	68.64	
2025-01-20 11:39:20.16	200.53	68.73	
2025-01-20 11:39:20.36	200.72	68.82	
2025-01-20 11:39:20.57	200.93	68.91	
2025-01-20 11:39:20.77	201.13	69.00	
2025-01-20 11:39:20.97	201.33	69.08	
2025-01-20 11:39:21.18	201.54	69.18	
2025-01-20 11:39:21.38	201.75	69.26	
2025-01-20 11:39:21.58	201.95	69.35	
2025-01-20 11:39:21.78	202.16	69.44	
2025-01-20 11:39:21.99	202.38	69.53	
