passes_logs/2025/01/20/SPB_Silybum_02/SPB_Silybum_02__20250120_001914_SUOMI_NPP_rec.log

#Pass ID: 20250120_001914_SUOMI NPP
#Satellite: SUOMI NPP
#Configuration: NPP
#Start time: 2025-01-20 00:19:13

#Version: 2.0.20230423
#Station: SPB_Silybum_02
#Location: 30.233357 lon 59.946436 lat
#TLE: 1 37849U 11061A   25019.14897053  .00000245  00000+0  13701-3 0  9999
#TLE: 2 37849  98.7451 320.0850 0001518  34.7008 325.4267 14.19540506685500

#Time	Az	El	Level	Level2	SNR	BER	Gain	Gain2
2025-01-20 00:19:15.08	17.92	4.04	
2025-01-20 00:19:15.28	17.92	4.05	
2025-01-20 00:19:15.48	17.92	4.07	
2025-01-20 00:19:15.69	17.92	4.08	
2025-01-20 00:19:15.89	17.92	4.09	
2025-01-20 00:19:16.09	17.93	4.11	
2025-01-20 00:19:16.29	17.93	4.12	
2025-01-20 00:19:16.50	17.93	4.14	
2025-01-20 00:19:16.70	17.93	4.15	
2025-01-20 00:19:16.90	17.93	4.16	
2025-01-20 00:19:17.11	17.93	4.18	
2025-01-20 00:19:17.31	17.93	4.19	
2025-01-20 00:19:17.51	17.93	4.21	
2025-01-20 00:19:17.72	17.93	4.22	
2025-01-20 00:19:17.92	17.93	4.23	
2025-01-20 00:19:18.12	17.93	4.25	
2025-01-20 00:19:18.33	17.93	4.26	
2025-01-20 00:19:18.53	17.94	4.28	
2025-01-20 00:19:18.73	17.94	4.29	
2025-01-20 00:19:18.94	17.94	4.31	
2025-01-20 00:19:19.14	17.94	4.32	
2025-01-20 00:19:19.34	17.94	4.33	
2025-01-20 00:19:19.54	17.94	4.35	
2025-01-20 00:19:19.75	17.94	4.36	
2025-01-20 00:19:19.95	17.94	4.38	
2025-01-20 00:19:20.15	17.94	4.39	
2025-01-20 00:19:20.36	17.94	4.40	
2025-01-20 00:19:20.56	17.94	4.42	
2025-01-20 00:19:20.76	17.94	4.43	
2025-01-20 00:19:20.97	17.94	4.45	
2025-01-20 00:19:21.17	17.95	4.46	
2025-01-20 00:19:21.37	17.95	4.47	
2025-01-20 00:19:21.58	17.95	4.49	
2025-01-20 00:19:21.78	17.95	4.50	
2025-01-20 00:19:21.98	17.95	4.52	
2025-01-20 00:19:22.19	17.95	4.53	
2025-01-20 00:19:22.39	17.95	4.55	
2025-01-20 00:19:22.59	17.95	4.56	
2025-01-20 00:19:22.79	17.95	4.57	
2025-01-20 00:19:23.00	17.95	4.59	
2025-01-20 00:19:23.20	17.95	4.60	
2025-01-20 00:19:23.40	17.95	4.62	
2025-01-20 00:19:23.61	17.95	4.63	
2025-01-20 00:19:23.81	17.96	4.64	
2025-01-20 00:19:24.01	17.96	4.66	
2025-01-20 00:19:24.22	17.96	4.67	
2025-01-20 00:19:24.42	17.96	4.69	
2025-01-20 00:19:24.62	17.96	4.70	
2025-01-20 00:19:24.83	17.96	4.72	
2025-01-20 00:19:25.03	17.96	4.73	
2025-01-20 00:19:25.23	17.96	4.74	
2025-01-20 00:19:25.43	17.96	4.76	
2025-01-20 00:19:25.64	17.96	4.77	
2025-01-20 00:19:25.84	17.96	4.79	
2025-01-20 00:19:26.04	17.96	4.80	
2025-01-20 00:19:26.25	17.96	4.82	
2025-01-20 00:19:26.45	17.97	4.83	
2025-01-20 00:19:26.65	17.97	4.84	
2025-01-20 00:19:26.86	17.97	4.86	
2025-01-20 00:19:27.07	17.97	4.87	
2025-01-20 00:19:27.27	17.97	4.89	
2025-01-20 00:19:27.48	17.97	4.90	
2025-01-20 00:19:27.68	17.97	4.92	
2025-01-20 00:19:27.88	17.97	4.93	
2025-01-20 00:19:28.09	17.97	4.95	
2025-01-20 00:19:28.29	17.97	4.96	
2025-01-20 00:19:28.49	17.97	4.97	
2025-01-20 00:19:28.70	17.97	4.99	
2025-01-20 00:19:28.90	17.98	5.00	
2025-01-20 00:19:29.10	17.98	5.02	
2025-01-20 00:19:29.31	17.98	5.03	
2025-01-20 00:19:29.51	17.98	5.05	
2025-01-20 00:19:29.71	17.98	5.06	
2025-01-20 00:19:29.92	17.98	5.08	
2025-01-20 00:19:30.12	17.98	5.09	
2025-01-20 00:19:30.32	17.98	5.11	
2025-01-20 00:19:30.52	17.98	5.12	
2025-01-20 00:19:30.73	17.98	5.13	
2025-01-20 00:19:30.93	17.98	5.15	
2025-01-20 00:19:31.13	17.98	5.16	
2025-01-20 00:19:31.34	17.98	5.18	
2025-01-20 00:19:31.54	17.99	5.19	
2025-01-20 00:19:31.74	17.99	5.21	
2025-01-20 00:19:31.95	17.99	5.22	
2025-01-20 00:19:32.15	17.99	5.24	
2025-01-20 00:19:32.35	17.99	5.25	
2025-01-20 00:19:32.56	17.99	5.27	
2025-01-20 00:19:32.76	17.99	5.28	
2025-01-20 00:19:32.96	17.99	5.29	
2025-01-20 00:19:33.16	17.99	5.31	
2025-01-20 00:19:33.37	17.99	5.32	
2025-01-20 00:19:33.57	17.99	5.34	
2025-01-20 00:19:33.77	17.99	5.35	
2025-01-20 00:19:33.98	17.99	5.37	
2025-01-20 00:19:34.18	18.00	5.38	
2025-01-20 00:19:34.38	18.00	5.40	
2025-01-20 00:19:34.59	18.00	5.41	
2025-01-20 00:19:34.79	18.00	5.43	
2025-01-20 00:19:34.99	18.00	5.44	
2025-01-20 00:19:35.20	18.00	5.46	
2025-01-20 00:19:35.40	18.00	5.47	
2025-01-20 00:19:35.60	18.00	5.48	
2025-01-20 00:19:35.81	18.00	5.50	
2025-01-20 00:19:36.01	18.00	5.51	
2025-01-20 00:19:36.21	18.00	5.53	
2025-01-20 00:19:36.41	18.00	5.54	
2025-01-20 00:19:36.62	18.00	5.56	
2025-01-20 00:19:36.82	18.01	5.57	
2025-01-20 00:19:37.02	18.01	5.59	
2025-01-20 00:19:37.23	18.01	5.60	
2025-01-20 00:19:37.43	18.01	5.62	
2025-01-20 00:19:37.63	18.01	5.63	
2025-01-20 00:19:37.84	18.01	5.65	
2025-01-20 00:19:38.04	18.01	5.66	
2025-01-20 00:19:38.24	18.01	5.68	
2025-01-20 00:19:38.45	18.01	5.69	
2025-01-20 00:19:38.65	18.01	5.71	
2025-01-20 00:19:38.85	18.01	5.72	
2025-01-20 00:19:39.06	18.01	5.74	
2025-01-20 00:19:39.26	18.01	5.75	
2025-01-20 00:19:39.46	18.02	5.77	
2025-01-20 00:19:39.66	18.02	5.78	
2025-01-20 00:19:39.87	18.02	5.80	
2025-01-20 00:19:40.07	18.02	5.81	
2025-01-20 00:19:40.27	18.02	5.83	
2025-01-20 00:19:40.48	18.02	5.84	
2025-01-20 00:19:40.68	18.02	5.86	
2025-01-20 00:19:40.88	18.02	5.87	
2025-01-20 00:19:41.09	18.02	5.89	
2025-01-20 00:19:41.29	18.02	5.90	
2025-01-20 00:19:41.49	18.02	5.91	
2025-01-20 00:19:41.70	18.02	5.93	
2025-01-20 00:19:41.90	18.02	5.94	
2025-01-20 00:19:42.10	18.03	5.96	
2025-01-20 00:19:42.31	18.03	5.98	
2025-01-20 00:19:42.51	18.03	5.99	
2025-01-20 00:19:42.71	18.03	6.00	
2025-01-20 00:19:42.91	18.03	6.02	
2025-01-20 00:19:43.12	18.03	6.03	
2025-01-20 00:19:43.32	18.03	6.05	
2025-01-20 00:19:43.52	18.03	6.06	
2025-01-20 00:19:43.73	18.03	6.08	
2025-01-20 00:19:43.93	18.03	6.09	
2025-01-20 00:19:44.13	18.03	6.11	
2025-01-20 00:19:44.34	18.03	6.13	
2025-01-20 00:19:44.54	18.03	6.14	
2025-01-20 00:19:44.74	18.04	6.15	
2025-01-20 00:19:44.95	18.04	6.17	
2025-01-20 00:19:45.15	18.04	6.19	
2025-01-20 00:19:45.35	18.04	6.20	
2025-01-20 00:19:45.56	18.04	6.22	
2025-01-20 00:19:45.76	18.04	6.23	
2025-01-20 00:19:45.96	18.04	6.25	
2025-01-20 00:19:46.16	18.04	6.26	
2025-01-20 00:19:46.37	18.04	6.28	
2025-01-20 00:19:46.57	18.04	6.29	
2025-01-20 00:19:46.77	18.04	6.31	
2025-01-20 00:19:46.98	18.04	6.32	
2025-01-20 00:19:47.18	18.04	6.34	
2025-01-20 00:19:47.38	18.05	6.35	
2025-01-20 00:19:47.59	18.05	6.37	
2025-01-20 00:19:47.79	18.05	6.38	
2025-01-20 00:19:47.99	18.05	6.40	
2025-01-20 00:19:48.20	18.05	6.41	
2025-01-20 00:19:48.40	18.05	6.43	
2025-01-20 00:19:48.60	18.05	6.44	
2025-01-20 00:19:48.80	18.05	6.46	
2025-01-20 00:19:49.01	18.05	6.47	
2025-01-20 00:19:49.21	18.05	6.49	
2025-01-20 00:19:49.41	18.05	6.50	
2025-01-20 00:19:49.62	18.05	6.52	
2025-01-20 00:19:49.82	18.05	6.54	
2025-01-20 00:19:50.02	18.06	6.55	
2025-01-20 00:19:50.23	18.06	6.57	
2025-01-20 00:19:50.43	18.06	6.58	
2025-01-20 00:19:50.63	18.06	6.60	
2025-01-20 00:19:50.84	18.06	6.61	
2025-01-20 00:19:51.04	18.06	6.63	
2025-01-20 00:19:51.24	18.06	6.64	
2025-01-20 00:19:51.45	18.06	6.66	
2025-01-20 00:19:51.65	18.06	6.67	
2025-01-20 00:19:51.85	18.06	6.69	
2025-01-20 00:19:52.05	18.06	6.70	
2025-01-20 00:19:52.26	18.06	6.72	
2025-01-20 00:19:52.46	18.06	6.73	
2025-01-20 00:19:52.66	18.07	6.75	
2025-01-20 00:19:52.87	18.07	6.77	
2025-01-20 00:19:53.07	18.07	6.78	
2025-01-20 00:19:53.27	18.07	6.80	
2025-01-20 00:19:53.48	18.07	6.81	
2025-01-20 00:19:53.68	18.07	6.83	
2025-01-20 00:19:53.88	18.07	6.84	
2025-01-20 00:19:54.09	18.07	6.86	
2025-01-20 00:19:54.29	18.07	6.87	
2025-01-20 00:19:54.49	18.07	6.89	
2025-01-20 00:19:54.70	18.07	6.91	
2025-01-20 00:19:54.90	18.07	6.92	
2025-01-20 00:19:55.10	18.07	6.94	
2025-01-20 00:19:55.30	18.08	6.95	
2025-01-20 00:19:55.51	18.08	6.97	
2025-01-20 00:19:55.71	18.08	6.98	
2025-01-20 00:19:55.91	18.08	7.00	
2025-01-20 00:19:56.12	18.08	7.01	
2025-01-20 00:19:56.32	18.08	7.03	
2025-01-20 00:19:56.52	18.08	7.05	
2025-01-20 00:19:56.73	18.08	7.06	
2025-01-20 00:19:56.93	18.08	7.08	
2025-01-20 00:19:57.13	18.08	7.09	
2025-01-20 00:19:57.34	18.08	7.11	
2025-01-20 00:19:57.54	18.08	7.12	
2025-01-20 00:19:57.74	18.08	7.14	
2025-01-20 00:19:57.95	18.09	7.16	
2025-01-20 00:19:58.15	18.09	7.17	
2025-01-20 00:19:58.35	18.09	7.19	
2025-01-20 00:19:58.55	18.09	7.20	
2025-01-20 00:19:58.76	18.09	7.22	
2025-01-20 00:19:58.96	18.09	7.23	
2025-01-20 00:19:59.16	18.09	7.25	
2025-01-20 00:19:59.37	18.09	7.27	
2025-01-20 00:19:59.57	18.09	7.28	
2025-01-20 00:19:59.77	18.09	7.30	
2025-01-20 00:19:59.98	18.09	7.31	
2025-01-20 00:20:00.18	18.09	7.33	
2025-01-20 00:20:00.38	18.09	7.34	
2025-01-20 00:20:00.59	18.10	7.36	
2025-01-20 00:20:00.79	18.10	7.38	
2025-01-20 00:20:00.99	18.10	7.39	
2025-01-20 00:20:01.20	18.10	7.41	
2025-01-20 00:20:01.40	18.10	7.42	
2025-01-20 00:20:01.60	18.10	7.44	
2025-01-20 00:20:01.80	18.10	7.45	
2025-01-20 00:20:02.01	18.10	7.47	
2025-01-20 00:20:02.21	18.10	7.49	
2025-01-20 00:20:02.41	18.10	7.50	
2025-01-20 00:20:02.62	18.10	7.52	
2025-01-20 00:20:02.82	18.10	7.53	
2025-01-20 00:20:03.02	18.10	7.55	
2025-01-20 00:20:03.23	18.11	7.57	
2025-01-20 00:20:03.43	18.11	7.58	
2025-01-20 00:20:03.63	18.11	7.60	
2025-01-20 00:20:03.84	18.11	7.61	
2025-01-20 00:20:04.04	18.11	7.63	
2025-01-20 00:20:04.24	18.11	7.65	
2025-01-20 00:20:04.44	18.11	7.66	
2025-01-20 00:20:04.65	18.11	7.68	
2025-01-20 00:20:04.85	18.11	7.69	
2025-01-20 00:20:05.05	18.11	7.71	
2025-01-20 00:20:05.26	18.11	7.73	
2025-01-20 00:20:05.46	18.11	7.74	
2025-01-20 00:20:05.66	18.11	7.76	
2025-01-20 00:20:05.87	18.11	7.77	
2025-01-20 00:20:06.07	18.12	7.79	
2025-01-20 00:20:06.27	18.12	7.81	
2025-01-20 00:20:06.48	18.12	7.82	
2025-01-20 00:20:06.68	18.12	7.84	
2025-01-20 00:20:06.88	18.12	7.85	
2025-01-20 00:20:07.09	18.12	7.87	
2025-01-20 00:20:07.29	18.12	7.89	
2025-01-20 00:20:07.49	18.12	7.90	
2025-01-20 00:20:07.69	18.12	7.92	
2025-01-20 00:20:07.90	18.12	7.94	
2025-01-20 00:20:08.10	18.12	7.95	
2025-01-20 00:20:08.30	18.12	7.97	
2025-01-20 00:20:08.51	18.12	7.98	
2025-01-20 00:20:08.71	18.13	8.00	
2025-01-20 00:20:08.91	18.13	8.02	
2025-01-20 00:20:09.12	18.13	8.03	
2025-01-20 00:20:09.32	18.13	8.05	
2025-01-20 00:20:09.52	18.13	8.06	
2025-01-20 00:20:09.73	18.13	8.08	
2025-01-20 00:20:09.93	18.13	8.10	
2025-01-20 00:20:10.13	18.13	8.11	
2025-01-20 00:20:10.34	18.13	8.13	
2025-01-20 00:20:10.54	18.13	8.15	
2025-01-20 00:20:10.74	18.13	8.16	
2025-01-20 00:20:10.94	18.13	8.18	
2025-01-20 00:20:11.15	18.13	8.20	
2025-01-20 00:20:11.35	18.14	8.21	
2025-01-20 00:20:11.55	18.14	8.23	
2025-01-20 00:20:11.76	18.14	8.24	
2025-01-20 00:20:11.96	18.14	8.26	
2025-01-20 00:20:12.16	18.14	8.28	
2025-01-20 00:20:12.37	18.14	8.29	
2025-01-20 00:20:12.57	18.14	8.31	
2025-01-20 00:20:12.77	18.14	8.33	
2025-01-20 00:20:12.98	18.14	8.34	
2025-01-20 00:20:13.18	18.14	8.36	
2025-01-20 00:20:13.38	18.14	8.38	
2025-01-20 00:20:13.59	18.14	8.39	
2025-01-20 00:20:13.79	18.14	8.41	
2025-01-20 00:20:13.99	18.15	8.43	
2025-01-20 00:20:14.19	18.15	8.44	
2025-01-20 00:20:14.40	18.15	8.46	
2025-01-20 00:20:14.60	18.15	8.47	
2025-01-20 00:20:14.80	18.15	8.49	
2025-01-20 00:20:15.01	18.15	8.51	
2025-01-20 00:20:15.21	18.15	8.52	
2025-01-20 00:20:15.41	18.15	8.54	
2025-01-20 00:20:15.62	18.15	8.56	
2025-01-20 00:20:15.82	18.15	8.57	
2025-01-20 00:20:16.02	18.15	8.59	
2025-01-20 00:20:16.23	18.15	8.61	
2025-01-20 00:20:16.43	18.15	8.62	
2025-01-20 00:20:16.63	18.15	8.64	
2025-01-20 00:20:16.83	18.16	8.66	
2025-01-20 00:20:17.04	18.16	8.67	
2025-01-20 00:20:17.24	18.16	8.69	
2025-01-20 00:20:17.44	18.16	8.71	
2025-01-20 00:20:17.65	18.16	8.72	
2025-01-20 00:20:17.85	18.16	8.74	
2025-01-20 00:20:18.05	18.16	8.76	
2025-01-20 00:20:18.26	18.16	8.77	
2025-01-20 00:20:18.46	18.16	8.79	
2025-01-20 00:20:18.66	18.16	8.81	
2025-01-20 00:20:18.87	18.16	8.82	
2025-01-20 00:20:19.07	18.16	8.84	
2025-01-20 00:20:19.27	18.16	8.86	
2025-01-20 00:20:19.48	18.17	8.87	
2025-01-20 00:20:19.68	18.17	8.89	
2025-01-20 00:20:19.88	18.17	8.91	
2025-01-20 00:20:20.08	18.17	8.92	
2025-01-20 00:20:20.29	18.17	8.94	
2025-01-20 00:20:20.49	18.17	8.96	
2025-01-20 00:20:20.69	18.17	8.98	
2025-01-20 00:20:20.90	18.17	8.99	
2025-01-20 00:20:21.10	18.17	9.01	
2025-01-20 00:20:21.32	18.17	9.03	
2025-01-20 00:20:21.52	18.17	9.04	
2025-01-20 00:20:21.73	18.17	9.06	
2025-01-20 00:20:21.93	18.17	9.08	
2025-01-20 00:20:22.13	18.18	9.09	
2025-01-20 00:20:22.33	18.18	9.11	
2025-01-20 00:20:22.54	18.18	9.13	
2025-01-20 00:20:22.74	18.18	9.15	
2025-01-20 00:20:22.94	18.18	9.16	
2025-01-20 00:20:23.15	18.18	9.18	
2025-01-20 00:20:23.35	18.18	9.20	
2025-01-20 00:20:23.55	18.18	9.21	
2025-01-20 00:20:23.76	18.18	9.23	
2025-01-20 00:20:23.96	18.18	9.25	
2025-01-20 00:20:24.16	18.18	9.26	
2025-01-20 00:20:24.37	18.18	9.28	
2025-01-20 00:20:24.57	18.18	9.30	
2025-01-20 00:20:24.77	18.18	9.32	
2025-01-20 00:20:24.98	18.19	9.33	
2025-01-20 00:20:25.18	18.19	9.35	
2025-01-20 00:20:25.38	18.19	9.37	
2025-01-20 00:20:25.58	18.19	9.38	
2025-01-20 00:20:25.79	18.19	9.40	
2025-01-20 00:20:25.99	18.19	9.42	
2025-01-20 00:20:26.19	18.19	9.44	
2025-01-20 00:20:26.40	18.19	9.45	
2025-01-20 00:20:26.60	18.19	9.47	
2025-01-20 00:20:26.80	18.19	9.49	
2025-01-20 00:20:27.01	18.19	9.51	
2025-01-20 00:20:27.21	18.19	9.52	
2025-01-20 00:20:27.41	18.19	9.54	
2025-01-20 00:20:27.62	18.20	9.56	
2025-01-20 00:20:27.82	18.20	9.57	
2025-01-20 00:20:28.02	18.20	9.59	
2025-01-20 00:20:28.23	18.20	9.61	
2025-01-20 00:20:28.43	18.20	9.63	
2025-01-20 00:20:28.63	18.20	9.64	
2025-01-20 00:20:28.83	18.20	9.66	
2025-01-20 00:20:29.04	18.20	9.68	
2025-01-20 00:20:29.24	18.20	9.70	
2025-01-20 00:20:29.44	18.20	9.71	
2025-01-20 00:20:29.65	18.20	9.73	
2025-01-20 00:20:29.85	18.20	9.75	
2025-01-20 00:20:30.05	18.20	9.76	
2025-01-20 00:20:30.26	18.20	9.78	
2025-01-20 00:20:30.46	18.21	9.80	
2025-01-20 00:20:30.66	18.21	9.82	
2025-01-20 00:20:30.87	18.21	9.83	
2025-01-20 00:20:31.07	18.21	9.85	
2025-01-20 00:20:31.27	18.21	9.87	
2025-01-20 00:20:31.47	18.21	9.89	
2025-01-20 00:20:31.68	18.21	9.90	
2025-01-20 00:20:31.88	18.21	9.92	
2025-01-20 00:20:32.08	18.21	9.94	
2025-01-20 00:20:32.29	18.21	9.96	
2025-01-20 00:20:32.49	18.21	9.97	
2025-01-20 00:20:32.69	18.21	9.99	
2025-01-20 00:20:32.90	18.21	10.01	
2025-01-20 00:20:33.10	18.21	10.03	
2025-01-20 00:20:33.30	18.22	10.04	
2025-01-20 00:20:33.51	18.22	10.06	
2025-01-20 00:20:33.71	18.22	10.08	
2025-01-20 00:20:33.91	18.22	10.10	
2025-01-20 00:20:34.12	18.22	10.12	
2025-01-20 00:20:34.32	18.22	10.13	
2025-01-20 00:20:34.52	18.22	10.15	
2025-01-20 00:20:34.72	18.22	10.17	
2025-01-20 00:20:34.93	18.22	10.19	
2025-01-20 00:20:35.13	18.22	10.20	
2025-01-20 00:20:35.33	18.22	10.22	
2025-01-20 00:20:35.54	18.22	10.24	
2025-01-20 00:20:35.74	18.22	10.26	
2025-01-20 00:20:35.94	18.23	10.27	
2025-01-20 00:20:36.15	18.23	10.29	
2025-01-20 00:20:36.35	18.23	10.31	
2025-01-20 00:20:36.55	18.23	10.33	
2025-01-20 00:20:36.76	18.23	10.35	
2025-01-20 00:20:36.96	18.23	10.36	
2025-01-20 00:20:37.16	18.23	10.38	
2025-01-20 00:20:37.37	18.23	10.40	
2025-01-20 00:20:37.57	18.23	10.42	
2025-01-20 00:20:37.77	18.23	10.43	
2025-01-20 00:20:37.97	18.23	10.45	
2025-01-20 00:20:38.18	18.23	10.47	
2025-01-20 00:20:38.38	18.23	10.49	
2025-01-20 00:20:38.58	18.23	10.51	
2025-01-20 00:20:38.79	18.24	10.52	
2025-01-20 00:20:38.99	18.24	10.54	
2025-01-20 00:20:39.19	18.24	10.56	
2025-01-20 00:20:39.40	18.24	10.58	
2025-01-20 00:20:39.60	18.24	10.60	
2025-01-20 00:20:39.80	18.24	10.61	
2025-01-20 00:20:40.01	18.24	10.63	
2025-01-20 00:20:40.21	18.24	10.65	
2025-01-20 00:20:40.41	18.24	10.67	
2025-01-20 00:20:40.62	18.24	10.69	
2025-01-20 00:20:40.82	18.24	10.70	
2025-01-20 00:20:41.02	18.24	10.72	
2025-01-20 00:20:41.22	18.24	10.74	
2025-01-20 00:20:41.43	18.24	10.76	
2025-01-20 00:20:41.63	18.25	10.78	
2025-01-20 00:20:41.83	18.25	10.79	
2025-01-20 00:20:42.04	18.25	10.81	
2025-01-20 00:20:42.24	18.25	10.83	
2025-01-20 00:20:42.44	18.25	10.85	
2025-01-20 00:20:42.65	18.25	10.87	
2025-01-20 00:20:42.85	18.25	10.89	
2025-01-20 00:20:43.05	18.25	10.90	
2025-01-20 00:20:43.26	18.25	10.92	
2025-01-20 00:20:43.46	18.25	10.94	
2025-01-20 00:20:43.66	18.25	10.96	
2025-01-20 00:20:43.87	18.25	10.98	
2025-01-20 00:20:44.07	18.25	11.00	
2025-01-20 00:20:44.27	18.26	11.01	
2025-01-20 00:20:44.47	18.26	11.03	
2025-01-20 00:20:44.68	18.26	11.05	
2025-01-20 00:20:44.88	18.26	11.07	
2025-01-20 00:20:45.08	18.26	11.09	
2025-01-20 00:20:45.29	18.26	11.11	
2025-01-20 00:20:45.49	18.26	11.12	
2025-01-20 00:20:45.69	18.26	11.14	
2025-01-20 00:20:45.90	18.26	11.16	
2025-01-20 00:20:46.10	18.26	11.18	
2025-01-20 00:20:46.30	18.26	11.20	
2025-01-20 00:20:46.51	18.26	11.22	
2025-01-20 00:20:46.71	18.26	11.23	
2025-01-20 00:20:46.91	18.26	11.25	
2025-01-20 00:20:47.11	18.27	11.27	
2025-01-20 00:20:47.32	18.27	11.29	
2025-01-20 00:20:47.52	18.27	11.31	
2025-01-20 00:20:47.72	18.27	11.33	
2025-01-20 00:20:47.93	18.27	11.35	
2025-01-20 00:20:48.13	18.27	11.36	
2025-01-20 00:20:48.33	18.27	11.38	
2025-01-20 00:20:48.54	18.27	11.40	
2025-01-20 00:20:48.74	18.27	11.42	
2025-01-20 00:20:48.94	18.27	11.44	
2025-01-20 00:20:49.15	18.27	11.46	
2025-01-20 00:20:49.35	18.27	11.48	
2025-01-20 00:20:49.55	18.27	11.49	
2025-01-20 00:20:49.76	18.27	11.51	
2025-01-20 00:20:49.96	18.28	11.53	
2025-01-20 00:20:50.16	18.28	11.55	
2025-01-20 00:20:50.36	18.28	11.57	
2025-01-20 00:20:50.57	18.28	11.59	
2025-01-20 00:20:50.77	18.28	11.61	
2025-01-20 00:20:50.97	18.28	11.63	
2025-01-20 00:20:51.18	18.28	11.64	
2025-01-20 00:20:51.38	18.28	11.66	
2025-01-20 00:20:51.58	18.28	11.68	
2025-01-20 00:20:51.79	18.28	11.70	
2025-01-20 00:20:51.99	18.28	11.72	
2025-01-20 00:20:52.19	18.28	11.74	
2025-01-20 00:20:52.40	18.28	11.76	
2025-01-20 00:20:52.60	18.28	11.78	
2025-01-20 00:20:52.80	18.29	11.79	
2025-01-20 00:20:53.01	18.29	11.81	
2025-01-20 00:20:53.21	18.29	11.83	
2025-01-20 00:20:53.41	18.29	11.85	
2025-01-20 00:20:53.61	18.29	11.87	
2025-01-20 00:20:53.82	18.29	11.89	
2025-01-20 00:20:54.02	18.29	11.91	
2025-01-20 00:20:54.22	18.29	11.93	
2025-01-20 00:20:54.43	18.29	11.95	
2025-01-20 00:20:54.63	18.29	11.97	
2025-01-20 00:20:54.83	18.29	11.98	
2025-01-20 00:20:55.04	18.29	12.00	
2025-01-20 00:20:55.24	18.29	12.02	
2025-01-20 00:20:55.44	18.29	12.04	
2025-01-20 00:20:55.65	18.30	12.06	
2025-01-20 00:20:55.85	18.30	12.08	
2025-01-20 00:20:56.05	18.30	12.10	
2025-01-20 00:20:56.25	18.30	12.12	
2025-01-20 00:20:56.46	18.30	12.14	
2025-01-20 00:20:56.66	18.30	12.16	
2025-01-20 00:20:56.86	18.30	12.18	
2025-01-20 00:20:57.07	18.30	12.20	
2025-01-20 00:20:57.27	18.30	12.21	
2025-01-20 00:20:57.47	18.30	12.23	
2025-01-20 00:20:57.68	18.30	12.25	
2025-01-20 00:20:57.88	18.30	12.27	
2025-01-20 00:20:58.08	18.30	12.29	
2025-01-20 00:20:58.29	18.30	12.31	
2025-01-20 00:20:58.49	18.31	12.33	
2025-01-20 00:20:58.69	18.31	12.35	
2025-01-20 00:20:58.90	18.31	12.37	
2025-01-20 00:20:59.10	18.31	12.39	
2025-01-20 00:20:59.30	18.31	12.41	
2025-01-20 00:20:59.50	18.31	12.43	
2025-01-20 00:20:59.71	18.31	12.45	
2025-01-20 00:20:59.91	18.31	12.47	
2025-01-20 00:21:00.11	18.31	12.48	
2025-01-20 00:21:00.32	18.31	12.51	
2025-01-20 00:21:00.52	18.31	12.52	
2025-01-20 00:21:00.72	18.31	12.54	
2025-01-20 00:21:00.93	18.31	12.56	
2025-01-20 00:21:01.13	18.31	12.58	
2025-01-20 00:21:01.33	18.32	12.60	
2025-01-20 00:21:01.54	18.32	12.62	
2025-01-20 00:21:01.74	18.32	12.64	
2025-01-20 00:21:01.94	18.32	12.66	
2025-01-20 00:21:02.15	18.32	12.68	
2025-01-20 00:21:02.35	18.32	12.70	
2025-01-20 00:21:02.55	18.32	12.72	
2025-01-20 00:21:02.75	18.32	12.74	
2025-01-20 00:21:02.96	18.32	12.76	
2025-01-20 00:21:03.16	18.32	12.78	
2025-01-20 00:21:03.36	18.32	12.80	
2025-01-20 00:21:03.57	18.32	12.82	
2025-01-20 00:21:03.77	18.32	12.84	
2025-01-20 00:21:03.97	18.32	12.86	
2025-01-20 00:21:04.18	18.33	12.88	
2025-01-20 00:21:04.38	18.33	12.90	
2025-01-20 00:21:04.58	18.33	12.92	
2025-01-20 00:21:04.79	18.33	12.94	
2025-01-20 00:21:04.99	18.33	12.96	
2025-01-20 00:21:05.19	18.33	12.98	
2025-01-20 00:21:05.40	18.33	13.00	
2025-01-20 00:21:05.60	18.33	13.02	
2025-01-20 00:21:05.80	18.33	13.04	
2025-01-20 00:21:06.00	18.33	13.06	
2025-01-20 00:21:06.21	18.33	13.08	
2025-01-20 00:21:06.41	18.33	13.10	
2025-01-20 00:21:06.61	18.33	13.12	
2025-01-20 00:21:06.82	18.33	13.14	
2025-01-20 00:21:07.02	18.34	13.16	
2025-01-20 00:21:07.22	18.34	13.18	
2025-01-20 00:21:07.43	18.34	13.20	
2025-01-20 00:21:07.63	18.34	13.22	
2025-01-20 00:21:07.83	18.34	13.24	
2025-01-20 00:21:08.04	18.34	13.26	
2025-01-20 00:21:08.24	18.34	13.28	
2025-01-20 00:21:08.44	18.34	13.30	
2025-01-20 00:21:08.65	18.34	13.32	
2025-01-20 00:21:08.85	18.34	13.34	
2025-01-20 00:21:09.05	18.34	13.36	
2025-01-20 00:21:09.25	18.34	13.38	
2025-01-20 00:21:09.46	18.34	13.40	
2025-01-20 00:21:09.66	18.34	13.42	
2025-01-20 00:21:09.86	18.35	13.44	
2025-01-20 00:21:10.07	18.35	13.46	
2025-01-20 00:21:10.27	18.35	13.48	
2025-01-20 00:21:10.47	18.35	13.50	
2025-01-20 00:21:10.68	18.35	13.52	
2025-01-20 00:21:10.88	18.35	13.54	
2025-01-20 00:21:11.08	18.35	13.56	
2025-01-20 00:21:11.29	18.35	13.58	
2025-01-20 00:21:11.49	18.35	13.60	
2025-01-20 00:21:11.69	18.35	13.62	
2025-01-20 00:21:11.90	18.35	13.64	
2025-01-20 00:21:12.10	18.35	13.66	
2025-01-20 00:21:12.30	18.35	13.68	
2025-01-20 00:21:12.50	18.35	13.70	
2025-01-20 00:21:12.71	18.35	13.72	
2025-01-20 00:21:12.91	18.36	13.74	
2025-01-20 00:21:13.11	18.36	13.76	
2025-01-20 00:21:13.32	18.36	13.78	
2025-01-20 00:21:13.52	18.36	13.80	
2025-01-20 00:21:13.72	18.36	13.82	
2025-01-20 00:21:13.93	18.36	13.85	
2025-01-20 00:21:14.13	18.36	13.87	
2025-01-20 00:21:14.33	18.36	13.89	
2025-01-20 00:21:14.54	18.36	13.91	
2025-01-20 00:21:14.74	18.36	13.93	
2025-01-20 00:21:14.94	18.36	13.95	
2025-01-20 00:21:15.14	18.36	13.97	
2025-01-20 00:21:15.35	18.36	13.99	
2025-01-20 00:21:15.55	18.36	14.01	
2025-01-20 00:21:15.75	18.37	14.03	
2025-01-20 00:21:15.96	18.37	14.05	
2025-01-20 00:21:16.16	18.37	14.07	
2025-01-20 00:21:16.36	18.37	14.09	
2025-01-20 00:21:16.57	18.37	14.11	
2025-01-20 00:21:16.77	18.37	14.13	
2025-01-20 00:21:16.97	18.37	14.16	
2025-01-20 00:21:17.18	18.37	14.18	
2025-01-20 00:21:17.38	18.37	14.20	
2025-01-20 00:21:17.58	18.37	14.22	
2025-01-20 00:21:17.79	18.37	14.24	
2025-01-20 00:21:17.99	18.37	14.26	
2025-01-20 00:21:18.19	18.37	14.28	
2025-01-20 00:21:18.39	18.37	14.30	
2025-01-20 00:21:18.60	18.37	14.32	
2025-01-20 00:21:18.80	18.38	14.34	
2025-01-20 00:21:19.00	18.38	14.36	
2025-01-20 00:21:19.21	18.38	14.39	
2025-01-20 00:21:19.41	18.38	14.41	
2025-01-20 00:21:19.61	18.38	14.43	
2025-01-20 00:21:19.82	18.38	14.45	
2025-01-20 00:21:20.02	18.38	14.47	
2025-01-20 00:21:20.22	18.38	14.49	
2025-01-20 00:21:20.43	18.38	14.51	
2025-01-20 00:21:20.63	18.38	14.53	
2025-01-20 00:21:20.83	18.38	14.55	
2025-01-20 00:21:21.04	18.38	14.58	
2025-01-20 00:21:21.24	18.38	14.60	
2025-01-20 00:21:21.44	18.38	14.62	
2025-01-20 00:21:21.64	18.39	14.64	
2025-01-20 00:21:21.85	18.39	14.66	
2025-01-20 00:21:22.05	18.39	14.68	
2025-01-20 00:21:22.25	18.39	14.70	
2025-01-20 00:21:22.46	18.39	14.72	
2025-01-20 00:21:22.66	18.39	14.75	
2025-01-20 00:21:22.86	18.39	14.77	
2025-01-20 00:21:23.07	18.39	14.79	
2025-01-20 00:21:23.27	18.39	14.81	
2025-01-20 00:21:23.47	18.39	14.83	
2025-01-20 00:21:23.68	18.39	14.85	
2025-01-20 00:21:23.88	18.39	14.87	
2025-01-20 00:21:24.08	18.39	14.90	
2025-01-20 00:21:24.29	18.39	14.92	
2025-01-20 00:21:24.49	18.39	14.94	
2025-01-20 00:21:24.69	18.40	14.96	
2025-01-20 00:21:24.89	18.40	14.98	
2025-01-20 00:21:25.10	18.40	15.00	
2025-01-20 00:21:25.30	18.40	15.02	
2025-01-20 00:21:25.50	18.40	15.05	
2025-01-20 00:21:25.71	18.40	15.07	
2025-01-20 00:21:25.91	18.40	15.09	
2025-01-20 00:21:26.11	18.40	15.11	
2025-01-20 00:21:26.32	18.40	15.13	
2025-01-20 00:21:26.52	18.40	15.15	
2025-01-20 00:21:26.72	18.40	15.18	
2025-01-20 00:21:26.93	18.40	15.20	
2025-01-20 00:21:27.13	18.40	15.22	
2025-01-20 00:21:27.33	18.40	15.24	
2025-01-20 00:21:27.53	18.41	15.26	
2025-01-20 00:21:27.74	18.41	15.29	
2025-01-20 00:21:27.94	18.41	15.31	
2025-01-20 00:21:28.14	18.41	15.33	
2025-01-20 00:21:28.35	18.41	15.35	
2025-01-20 00:21:28.55	18.41	15.37	
2025-01-20 00:21:28.75	18.41	15.39	
2025-01-20 00:21:28.96	18.41	15.42	
2025-01-20 00:21:29.16	18.41	15.44	
2025-01-20 00:21:29.36	18.41	15.46	
2025-01-20 00:21:29.57	18.41	15.48	
2025-01-20 00:21:29.77	18.41	15.50	
2025-01-20 00:21:29.97	18.41	15.53	
2025-01-20 00:21:30.18	18.41	15.55	
2025-01-20 00:21:30.38	18.41	15.57	
2025-01-20 00:21:30.58	18.42	15.59	
2025-01-20 00:21:30.78	18.42	15.61	
2025-01-20 00:21:30.99	18.42	15.64	
2025-01-20 00:21:31.19	18.42	15.66	
2025-01-20 00:21:31.39	18.42	15.68	
2025-01-20 00:21:31.60	18.42	15.70	
2025-01-20 00:21:31.80	18.42	15.73	
2025-01-20 00:21:32.00	18.42	15.75	
2025-01-20 00:21:32.21	18.42	15.77	
2025-01-20 00:21:32.41	18.42	15.79	
2025-01-20 00:21:32.61	18.42	15.81	
2025-01-20 00:21:32.82	18.42	15.84	
2025-01-20 00:21:33.02	18.42	15.86	
2025-01-20 00:21:33.22	18.42	15.88	
2025-01-20 00:21:33.43	18.42	15.90	
2025-01-20 00:21:33.63	18.43	15.93	
2025-01-20 00:21:33.83	18.43	15.95	
2025-01-20 00:21:34.03	18.43	15.97	
2025-01-20 00:21:34.24	18.43	15.99	
2025-01-20 00:21:34.44	18.43	16.02	
2025-01-20 00:21:34.64	18.43	16.04	
2025-01-20 00:21:34.85	18.43	16.06	
2025-01-20 00:21:35.05	18.43	16.08	
2025-01-20 00:21:35.25	18.43	16.11	
2025-01-20 00:21:35.46	18.43	16.13	
2025-01-20 00:21:35.66	18.43	16.15	
2025-01-20 00:21:35.86	18.43	16.17	
2025-01-20 00:21:36.07	18.43	16.20	
2025-01-20 00:21:36.27	18.43	16.22	
2025-01-20 00:21:36.47	18.43	16.24	
2025-01-20 00:21:36.68	18.44	16.27	
2025-01-20 00:21:36.88	18.44	16.29	
2025-01-20 00:21:37.08	18.44	16.31	
2025-01-20 00:21:37.28	18.44	16.33	
2025-01-20 00:21:37.49	18.44	16.36	
2025-01-20 00:21:37.69	18.44	16.38	
2025-01-20 00:21:37.89	18.44	16.40	
2025-01-20 00:21:38.10	18.44	16.43	
2025-01-20 00:21:38.30	18.44	16.45	
2025-01-20 00:21:38.50	18.44	16.47	
2025-01-20 00:21:38.71	18.44	16.49	
2025-01-20 00:21:38.91	18.44	16.52	
2025-01-20 00:21:39.11	18.44	16.54	
2025-01-20 00:21:39.32	18.44	16.56	
2025-01-20 00:21:39.52	18.44	16.59	
2025-01-20 00:21:39.72	18.45	16.61	
2025-01-20 00:21:39.93	18.45	16.63	
2025-01-20 00:21:40.13	18.45	16.65	
2025-01-20 00:21:40.33	18.45	16.68	
2025-01-20 00:21:40.53	18.45	16.70	
2025-01-20 00:21:40.74	18.45	16.72	
2025-01-20 00:21:40.94	18.45	16.75	
2025-01-20 00:21:41.14	18.45	16.77	
2025-01-20 00:21:41.35	18.45	16.79	
2025-01-20 00:21:41.55	18.45	16.82	
2025-01-20 00:21:41.75	18.45	16.84	
2025-01-20 00:21:41.96	18.45	16.86	
2025-01-20 00:21:42.16	18.45	16.89	
2025-01-20 00:21:42.36	18.45	16.91	
2025-01-20 00:21:42.57	18.45	16.93	
2025-01-20 00:21:42.77	18.46	16.96	
2025-01-20 00:21:42.97	18.46	16.98	
2025-01-20 00:21:43.18	18.46	17.00	
2025-01-20 00:21:43.38	18.46	17.03	
2025-01-20 00:21:43.58	18.46	17.05	
2025-01-20 00:21:43.78	18.46	17.07	
2025-01-20 00:21:43.99	18.46	17.10	
2025-01-20 00:21:44.19	18.46	17.12	
2025-01-20 00:21:44.39	18.46	17.14	
2025-01-20 00:21:44.60	18.46	17.17	
2025-01-20 00:21:44.80	18.46	17.19	
2025-01-20 00:21:45.00	18.46	17.21	
2025-01-20 00:21:45.21	18.46	17.24	
2025-01-20 00:21:45.41	18.46	17.26	
2025-01-20 00:21:45.61	18.46	17.29	
2025-01-20 00:21:45.82	18.47	17.31	
2025-01-20 00:21:46.02	18.47	17.33	
2025-01-20 00:21:46.22	18.47	17.36	
2025-01-20 00:21:46.42	18.47	17.38	
2025-01-20 00:21:46.63	18.47	17.41	
2025-01-20 00:21:46.83	18.47	17.43	
2025-01-20 00:21:47.03	18.47	17.45	
2025-01-20 00:21:47.24	18.47	17.48	
2025-01-20 00:21:47.44	18.47	17.50	
2025-01-20 00:21:47.64	18.47	17.52	
2025-01-20 00:21:47.85	18.47	17.55	
2025-01-20 00:21:48.05	18.47	17.57	
2025-01-20 00:21:48.25	18.47	17.60	
2025-01-20 00:21:48.46	18.47	17.62	
2025-01-20 00:21:48.66	18.47	17.64	
2025-01-20 00:21:48.86	18.48	17.67	
2025-01-20 00:21:49.07	18.48	17.69	
2025-01-20 00:21:49.27	18.48	17.72	
2025-01-20 00:21:49.47	18.48	17.74	
2025-01-20 00:21:49.67	18.48	17.76	
2025-01-20 00:21:49.88	18.48	17.79	
2025-01-20 00:21:50.08	18.48	17.81	
2025-01-20 00:21:50.28	18.48	17.84	
2025-01-20 00:21:50.49	18.48	17.86	
2025-01-20 00:21:50.69	18.48	17.89	
2025-01-20 00:21:50.89	18.48	17.91	
2025-01-20 00:21:51.10	18.48	17.93	
2025-01-20 00:21:51.30	18.48	17.96	
2025-01-20 00:21:51.50	18.48	17.98	
2025-01-20 00:21:51.71	18.48	18.01	
2025-01-20 00:21:51.91	18.49	18.03	
2025-01-20 00:21:52.11	18.49	18.06	
2025-01-20 00:21:52.32	18.49	18.08	
2025-01-20 00:21:52.52	18.49	18.11	
2025-01-20 00:21:52.72	18.49	18.13	
2025-01-20 00:21:52.92	18.49	18.15	
2025-01-20 00:21:53.13	18.49	18.18	
2025-01-20 00:21:53.33	18.49	18.20	
2025-01-20 00:21:53.53	18.49	18.23	
2025-01-20 00:21:53.74	18.49	18.25	
2025-01-20 00:21:53.94	18.49	18.28	
2025-01-20 00:21:54.14	18.49	18.30	
2025-01-20 00:21:54.35	18.49	18.33	
2025-01-20 00:21:54.55	18.49	18.35	
2025-01-20 00:21:54.75	18.49	18.38	
2025-01-20 00:21:54.96	18.49	18.40	
2025-01-20 00:21:55.16	18.50	18.43	
2025-01-20 00:21:55.36	18.50	18.45	
2025-01-20 00:21:55.57	18.50	18.48	
2025-01-20 00:21:55.77	18.50	18.50	
2025-01-20 00:21:55.97	18.50	18.53	
2025-01-20 00:21:56.17	18.50	18.55	
2025-01-20 00:21:56.38	18.50	18.58	
2025-01-20 00:21:56.58	18.50	18.60	
2025-01-20 00:21:56.78	18.50	18.62	
2025-01-20 00:21:56.99	18.50	18.65	
2025-01-20 00:21:57.19	18.50	18.68	
2025-01-20 00:21:57.39	18.50	18.70	
2025-01-20 00:21:57.60	18.50	18.73	
2025-01-20 00:21:57.80	18.50	18.75	
2025-01-20 00:21:58.00	18.50	18.78	
2025-01-20 00:21:58.21	18.50	18.80	
2025-01-20 00:21:58.41	18.51	18.83	
2025-01-20 00:21:58.61	18.51	18.85	
2025-01-20 00:21:58.81	18.51	18.88	
2025-01-20 00:21:59.02	18.51	18.90	
2025-01-20 00:21:59.22	18.51	18.93	
2025-01-20 00:21:59.42	18.51	18.95	
2025-01-20 00:21:59.63	18.51	18.98	
2025-01-20 00:21:59.83	18.51	19.00	
2025-01-20 00:22:00.03	18.51	19.03	
2025-01-20 00:22:00.25	18.51	19.06	
2025-01-20 00:22:00.46	18.51	19.08	
2025-01-20 00:22:00.66	18.51	19.11	
2025-01-20 00:22:00.86	18.51	19.13	
2025-01-20 00:22:01.06	18.51	19.16	
2025-01-20 00:22:01.27	18.51	19.18	
2025-01-20 00:22:01.47	18.52	19.21	
2025-01-20 00:22:01.67	18.52	19.23	
2025-01-20 00:22:01.88	18.52	19.26	
2025-01-20 00:22:02.08	18.52	19.29	
2025-01-20 00:22:02.28	18.52	19.31	
2025-01-20 00:22:02.49	18.52	19.34	
2025-01-20 00:22:02.69	18.52	19.36	
2025-01-20 00:22:02.89	18.52	19.39	
2025-01-20 00:22:03.10	18.52	19.42	
2025-01-20 00:22:03.30	18.52	19.44	
2025-01-20 00:22:03.50	18.52	19.47	
2025-01-20 00:22:03.71	18.52	19.49	
2025-01-20 00:22:03.91	18.52	19.52	
2025-01-20 00:22:04.11	18.52	19.54	
2025-01-20 00:22:04.31	18.52	19.57	
2025-01-20 00:22:04.52	18.52	19.60	
2025-01-20 00:22:04.72	18.53	19.62	
2025-01-20 00:22:04.92	18.53	19.65	
2025-01-20 00:22:05.13	18.53	19.68	
2025-01-20 00:22:05.33	18.53	19.70	
2025-01-20 00:22:05.53	18.53	19.73	
2025-01-20 00:22:05.74	18.53	19.75	
2025-01-20 00:22:05.94	18.53	19.78	
2025-01-20 00:22:06.14	18.53	19.81	
2025-01-20 00:22:06.35	18.53	19.83	
2025-01-20 00:22:06.55	18.53	19.86	
2025-01-20 00:22:06.75	18.53	19.88	
2025-01-20 00:22:06.96	18.53	19.91	
2025-01-20 00:22:07.16	18.53	19.94	
2025-01-20 00:22:07.36	18.53	19.96	
2025-01-20 00:22:07.56	18.53	19.99	
2025-01-20 00:22:07.77	18.53	20.02	
2025-01-20 00:22:07.97	18.54	20.04	
2025-01-20 00:22:08.17	18.54	20.07	
2025-01-20 00:22:08.38	18.54	20.10	
2025-01-20 00:22:08.58	18.54	20.12	
2025-01-20 00:22:08.78	18.54	20.15	
2025-01-20 00:22:08.99	18.54	20.18	
2025-01-20 00:22:09.19	18.54	20.20	
2025-01-20 00:22:09.39	18.54	20.23	
2025-01-20 00:22:09.60	18.54	20.26	
2025-01-20 00:22:09.80	18.54	20.28	
2025-01-20 00:22:10.00	18.54	20.31	
2025-01-20 00:22:10.21	18.54	20.34	
2025-01-20 00:22:10.41	18.54	20.36	
2025-01-20 00:22:10.61	18.54	20.39	
2025-01-20 00:22:10.81	18.54	20.42	
2025-01-20 00:22:11.02	18.54	20.44	
2025-01-20 00:22:11.22	18.55	20.47	
2025-01-20 00:22:11.42	18.55	20.50	
2025-01-20 00:22:11.63	18.55	20.53	
2025-01-20 00:22:11.83	18.55	20.55	
2025-01-20 00:22:12.03	18.55	20.58	
2025-01-20 00:22:12.24	18.55	20.61	
2025-01-20 00:22:12.44	18.55	20.63	
2025-01-20 00:22:12.64	18.55	20.66	
2025-01-20 00:22:12.85	18.55	20.69	
2025-01-20 00:22:13.05	18.55	20.72	
2025-01-20 00:22:13.25	18.55	20.74	
2025-01-20 00:22:13.45	18.55	20.77	
2025-01-20 00:22:13.66	18.55	20.80	
2025-01-20 00:22:13.86	18.55	20.82	
2025-01-20 00:22:14.06	18.55	20.85	
2025-01-20 00:22:14.27	18.55	20.88	
2025-01-20 00:22:14.47	18.56	20.91	
2025-01-20 00:22:14.67	18.56	20.93	
2025-01-20 00:22:14.88	18.56	20.96	
2025-01-20 00:22:15.08	18.56	20.99	
2025-01-20 00:22:15.28	18.56	21.02	
2025-01-20 00:22:15.49	18.56	21.04	
2025-01-20 00:22:15.69	18.56	21.07	
2025-01-20 00:22:15.89	18.56	21.10	
2025-01-20 00:22:16.10	18.56	21.13	
2025-01-20 00:22:16.30	18.56	21.15	
2025-01-20 00:22:16.50	18.56	21.18	
2025-01-20 00:22:16.70	18.56	21.21	
2025-01-20 00:22:16.91	18.56	21.24	
2025-01-20 00:22:17.11	18.56	21.27	
2025-01-20 00:22:17.31	18.56	21.29	
2025-01-20 00:22:17.52	18.56	21.32	
2025-01-20 00:22:17.72	18.56	21.35	
2025-01-20 00:22:17.92	18.57	21.38	
2025-01-20 00:22:18.13	18.57	21.41	
2025-01-20 00:22:18.33	18.57	21.43	
2025-01-20 00:22:18.53	18.57	21.46	
2025-01-20 00:22:18.74	18.57	21.49	
2025-01-20 00:22:18.94	18.57	21.52	
2025-01-20 00:22:19.14	18.57	21.55	
2025-01-20 00:22:19.35	18.57	21.57	
2025-01-20 00:22:19.55	18.57	21.60	
2025-01-20 00:22:19.75	18.57	21.63	
2025-01-20 00:22:19.95	18.57	21.66	
2025-01-20 00:22:20.16	18.57	21.69	
2025-01-20 00:22:20.36	18.57	21.71	
2025-01-20 00:22:20.56	18.57	21.74	
2025-01-20 00:22:20.77	18.57	21.77	
2025-01-20 00:22:20.97	18.57	21.80	
2025-01-20 00:22:21.17	18.57	21.83	
2025-01-20 00:22:21.38	18.58	21.86	
2025-01-20 00:22:21.58	18.58	21.89	
2025-01-20 00:22:21.78	18.58	21.91	
2025-01-20 00:22:21.99	18.58	21.94	
2025-01-20 00:22:22.19	18.58	21.97	
2025-01-20 00:22:22.39	18.58	22.00	
2025-01-20 00:22:22.60	18.58	22.03	
2025-01-20 00:22:22.80	18.58	22.06	
2025-01-20 00:22:23.00	18.58	22.09	
2025-01-20 00:22:23.20	18.58	22.11	
2025-01-20 00:22:23.41	18.58	22.14	
2025-01-20 00:22:23.61	18.58	22.17	
2025-01-20 00:22:23.81	18.58	22.20	
2025-01-20 00:22:24.02	18.58	22.23	
2025-01-20 00:22:24.22	18.58	22.26	
2025-01-20 00:22:24.42	18.58	22.29	
2025-01-20 00:22:24.63	18.59	22.32	
2025-01-20 00:22:24.83	18.59	22.35	
2025-01-20 00:22:25.03	18.59	22.37	
2025-01-20 00:22:25.24	18.59	22.40	
2025-01-20 00:22:25.44	18.59	22.43	
2025-01-20 00:22:25.64	18.59	22.46	
2025-01-20 00:22:25.85	18.59	22.49	
2025-01-20 00:22:26.05	18.59	22.52	
2025-01-20 00:22:26.25	18.59	22.55	
2025-01-20 00:22:26.45	18.59	22.58	
2025-01-20 00:22:26.66	18.59	22.61	
2025-01-20 00:22:26.86	18.59	22.64	
2025-01-20 00:22:27.06	18.59	22.67	
2025-01-20 00:22:27.27	18.59	22.70	
2025-01-20 00:22:27.47	18.59	22.73	
2025-01-20 00:22:27.67	18.59	22.76	
2025-01-20 00:22:27.88	18.59	22.79	
2025-01-20 00:22:28.08	18.59	22.82	
2025-01-20 00:22:28.28	18.60	22.84	
2025-01-20 00:22:28.49	18.60	22.87	
2025-01-20 00:22:28.69	18.60	22.90	
2025-01-20 00:22:28.89	18.60	22.93	
2025-01-20 00:22:29.09	18.60	22.96	
2025-01-20 00:22:29.30	18.60	22.99	
2025-01-20 00:22:29.50	18.60	23.02	
2025-01-20 00:22:29.70	18.60	23.05	
2025-01-20 00:22:29.91	18.60	23.08	
2025-01-20 00:22:30.11	18.60	23.11	
2025-01-20 00:22:30.31	18.60	23.14	
2025-01-20 00:22:30.52	18.60	23.17	
2025-01-20 00:22:30.72	18.60	23.20	
2025-01-20 00:22:30.92	18.60	23.23	
2025-01-20 00:22:31.13	18.60	23.26	
2025-01-20 00:22:31.33	18.60	23.29	
2025-01-20 00:22:31.53	18.60	23.32	
2025-01-20 00:22:31.74	18.61	23.35	
2025-01-20 00:22:31.94	18.61	23.38	
2025-01-20 00:22:32.14	18.61	23.41	
2025-01-20 00:22:32.34	18.61	23.44	
2025-01-20 00:22:32.55	18.61	23.47	
2025-01-20 00:22:32.75	18.61	23.50	
2025-01-20 00:22:32.95	18.61	23.53	
2025-01-20 00:22:33.16	18.61	23.57	
2025-01-20 00:22:33.36	18.61	23.60	
2025-01-20 00:22:33.56	18.61	23.63	
2025-01-20 00:22:33.77	18.61	23.66	
2025-01-20 00:22:33.97	18.61	23.69	
2025-01-20 00:22:34.17	18.61	23.72	
2025-01-20 00:22:34.38	18.61	23.75	
2025-01-20 00:22:34.58	18.61	23.78	
2025-01-20 00:22:34.78	18.61	23.81	
2025-01-20 00:22:34.99	18.61	23.84	
2025-01-20 00:22:35.19	18.62	23.87	
2025-01-20 00:22:35.39	18.62	23.90	
2025-01-20 00:22:35.59	18.62	23.93	
2025-01-20 00:22:35.80	18.62	23.96	
2025-01-20 00:22:36.00	18.62	24.00	
2025-01-20 00:22:36.20	18.62	24.03	
2025-01-20 00:22:36.41	18.62	24.06	
2025-01-20 00:22:36.61	18.62	24.09	
2025-01-20 00:22:36.81	18.62	24.12	
2025-01-20 00:22:37.02	18.62	24.15	
2025-01-20 00:22:37.22	18.62	24.18	
2025-01-20 00:22:37.42	18.62	24.21	
2025-01-20 00:22:37.63	18.62	24.24	
2025-01-20 00:22:37.83	18.62	24.28	
2025-01-20 00:22:38.03	18.62	24.31	
2025-01-20 00:22:38.24	18.62	24.34	
2025-01-20 00:22:38.44	18.62	24.37	
2025-01-20 00:22:38.64	18.62	24.40	
2025-01-20 00:22:38.84	18.63	24.43	
2025-01-20 00:22:39.05	18.63	24.46	
2025-01-20 00:22:39.25	18.63	24.50	
2025-01-20 00:22:39.45	18.63	24.53	
2025-01-20 00:22:39.66	18.63	24.56	
2025-01-20 00:22:39.86	18.63	24.59	
2025-01-20 00:22:40.06	18.63	24.62	
2025-01-20 00:22:40.27	18.63	24.65	
2025-01-20 00:22:40.47	18.63	24.69	
2025-01-20 00:22:40.67	18.63	24.72	
2025-01-20 00:22:40.88	18.63	24.75	
2025-01-20 00:22:41.08	18.63	24.78	
2025-01-20 00:22:41.28	18.63	24.81	
2025-01-20 00:22:41.49	18.63	24.85	
2025-01-20 00:22:41.69	18.63	24.88	
2025-01-20 00:22:41.89	18.63	24.91	
2025-01-20 00:22:42.09	18.63	24.94	
2025-01-20 00:22:42.30	18.63	24.97	
2025-01-20 00:22:42.50	18.64	25.01	
2025-01-20 00:22:42.70	18.64	25.04	
2025-01-20 00:22:42.91	18.64	25.07	
2025-01-20 00:22:43.11	18.64	25.10	
2025-01-20 00:22:43.31	18.64	25.13	
2025-01-20 00:22:43.52	18.64	25.17	
2025-01-20 00:22:43.72	18.64	25.20	
2025-01-20 00:22:43.92	18.64	25.23	
2025-01-20 00:22:44.13	18.64	25.27	
2025-01-20 00:22:44.33	18.64	25.30	
2025-01-20 00:22:44.53	18.64	25.33	
2025-01-20 00:22:44.73	18.64	25.36	
2025-01-20 00:22:44.94	18.64	25.40	
2025-01-20 00:22:45.14	18.64	25.43	
2025-01-20 00:22:45.34	18.64	25.46	
2025-01-20 00:22:45.55	18.64	25.49	
2025-01-20 00:22:45.75	18.64	25.53	
2025-01-20 00:22:45.95	18.64	25.56	
2025-01-20 00:22:46.16	18.64	25.59	
2025-01-20 00:22:46.36	18.65	25.62	
2025-01-20 00:22:46.56	18.65	25.66	
2025-01-20 00:22:46.77	18.65	25.69	
2025-01-20 00:22:46.97	18.65	25.72	
2025-01-20 00:22:47.17	18.65	25.76	
2025-01-20 00:22:47.38	18.65	25.79	
2025-01-20 00:22:47.58	18.65	25.82	
2025-01-20 00:22:47.78	18.65	25.86	
2025-01-20 00:22:47.98	18.65	25.89	
2025-01-20 00:22:48.19	18.65	25.92	
2025-01-20 00:22:48.39	18.65	25.96	
2025-01-20 00:22:48.59	18.65	25.99	
2025-01-20 00:22:48.80	18.65	26.02	
2025-01-20 00:22:49.00	18.65	26.06	
2025-01-20 00:22:49.20	18.65	26.09	
2025-01-20 00:22:49.41	18.65	26.12	
2025-01-20 00:22:49.61	18.65	26.16	
2025-01-20 00:22:49.81	18.65	26.19	
2025-01-20 00:22:50.02	18.65	26.23	
2025-01-20 00:22:50.22	18.66	26.26	
2025-01-20 00:22:50.42	18.66	26.29	
2025-01-20 00:22:50.63	18.66	26.33	
2025-01-20 00:22:50.83	18.66	26.36	
2025-01-20 00:22:51.03	18.66	26.39	
2025-01-20 00:22:51.23	18.66	26.43	
2025-01-20 00:22:51.44	18.66	26.46	
2025-01-20 00:22:51.64	18.66	26.50	
2025-01-20 00:22:51.84	18.66	26.53	
2025-01-20 00:22:52.05	18.66	26.56	
2025-01-20 00:22:52.25	18.66	26.60	
2025-01-20 00:22:52.45	18.66	26.63	
2025-01-20 00:22:52.66	18.66	26.67	
2025-01-20 00:22:52.86	18.66	26.70	
2025-01-20 00:22:53.06	18.66	26.73	
2025-01-20 00:22:53.27	18.66	26.77	
2025-01-20 00:22:53.47	18.66	26.80	
2025-01-20 00:22:53.67	18.66	26.84	
2025-01-20 00:22:53.88	18.66	26.87	
2025-01-20 00:22:54.08	18.67	26.91	
2025-01-20 00:22:54.28	18.67	26.94	
2025-01-20 00:22:54.48	18.67	26.98	
2025-01-20 00:22:54.69	18.67	27.01	
2025-01-20 00:22:54.89	18.67	27.05	
2025-01-20 00:22:55.09	18.67	27.08	
2025-01-20 00:22:55.30	18.67	27.12	
2025-01-20 00:22:55.50	18.67	27.15	
2025-01-20 00:22:55.70	18.67	27.18	
2025-01-20 00:22:55.91	18.67	27.22	
2025-01-20 00:22:56.11	18.67	27.25	
2025-01-20 00:22:56.31	18.67	27.29	
2025-01-20 00:22:56.52	18.67	27.33	
2025-01-20 00:22:56.72	18.67	27.36	
2025-01-20 00:22:56.92	18.67	27.39	
2025-01-20 00:22:57.12	18.67	27.43	
2025-01-20 00:22:57.33	18.67	27.47	
2025-01-20 00:22:57.53	18.67	27.50	
2025-01-20 00:22:57.73	18.67	27.54	
2025-01-20 00:22:57.94	18.68	27.57	
2025-01-20 00:22:58.14	18.68	27.61	
2025-01-20 00:22:58.34	18.68	27.64	
2025-01-20 00:22:58.55	18.68	27.68	
2025-01-20 00:22:58.75	18.68	27.71	
2025-01-20 00:22:58.95	18.68	27.75	
2025-01-20 00:22:59.16	18.68	27.79	
2025-01-20 00:22:59.36	18.68	27.82	
2025-01-20 00:22:59.56	18.68	27.86	
2025-01-20 00:22:59.77	18.68	27.89	
2025-01-20 00:22:59.97	18.68	27.93	
2025-01-20 00:23:00.17	18.68	27.96	
2025-01-20 00:23:00.37	18.68	28.00	
2025-01-20 00:23:00.58	18.68	28.04	
2025-01-20 00:23:00.78	18.68	28.07	
2025-01-20 00:23:00.98	18.68	28.11	
2025-01-20 00:23:01.19	18.68	28.15	
2025-01-20 00:23:01.39	18.68	28.18	
2025-01-20 00:23:01.59	18.68	28.22	
2025-01-20 00:23:01.80	18.68	28.25	
2025-01-20 00:23:02.00	18.68	28.29	
2025-01-20 00:23:02.20	18.69	28.33	
2025-01-20 00:23:02.41	18.69	28.36	
2025-01-20 00:23:02.61	18.69	28.40	
2025-01-20 00:23:02.81	18.69	28.44	
2025-01-20 00:23:03.02	18.69	28.47	
2025-01-20 00:23:03.22	18.69	28.51	
2025-01-20 00:23:03.42	18.69	28.55	
2025-01-20 00:23:03.62	18.69	28.58	
2025-01-20 00:23:03.83	18.69	28.62	
2025-01-20 00:23:04.03	18.69	28.66	
2025-01-20 00:23:04.23	18.69	28.69	
2025-01-20 00:23:04.44	18.69	28.73	
2025-01-20 00:23:04.64	18.69	28.77	
2025-01-20 00:23:04.84	18.69	28.80	
2025-01-20 00:23:05.05	18.69	28.84	
2025-01-20 00:23:05.25	18.69	28.88	
2025-01-20 00:23:05.45	18.69	28.91	
2025-01-20 00:23:05.66	18.69	28.95	
2025-01-20 00:23:05.86	18.69	28.99	
2025-01-20 00:23:06.06	18.69	29.03	
2025-01-20 00:23:06.27	18.69	29.06	
2025-01-20 00:23:06.47	18.70	29.10	
2025-01-20 00:23:06.67	18.70	29.14	
2025-01-20 00:23:06.87	18.70	29.18	
2025-01-20 00:23:07.08	18.70	29.21	
2025-01-20 00:23:07.28	18.70	29.25	
2025-01-20 00:23:07.48	18.70	29.29	
2025-01-20 00:23:07.69	18.70	29.33	
2025-01-20 00:23:07.89	18.70	29.36	
2025-01-20 00:23:08.09	18.70	29.40	
2025-01-20 00:23:08.30	18.70	29.44	
2025-01-20 00:23:08.50	18.70	29.48	
2025-01-20 00:23:08.70	18.70	29.52	
2025-01-20 00:23:08.91	18.70	29.55	
2025-01-20 00:23:09.11	18.70	29.59	
2025-01-20 00:23:09.31	18.70	29.63	
2025-01-20 00:23:09.52	18.70	29.67	
2025-01-20 00:23:09.72	18.70	29.71	
2025-01-20 00:23:09.92	18.70	29.74	
2025-01-20 00:23:10.12	18.70	29.78	
2025-01-20 00:23:10.33	18.70	29.82	
2025-01-20 00:23:10.53	18.70	29.86	
2025-01-20 00:23:10.73	18.71	29.90	
2025-01-20 00:23:10.94	18.71	29.94	
2025-01-20 00:23:11.14	18.71	29.98	
2025-01-20 00:23:11.34	18.71	30.01	
2025-01-20 00:23:11.55	18.71	30.05	
2025-01-20 00:23:11.75	18.71	30.09	
2025-01-20 00:23:11.95	18.71	30.13	
2025-01-20 00:23:12.16	18.71	30.17	
2025-01-20 00:23:12.36	18.71	30.21	
2025-01-20 00:23:12.56	18.71	30.25	
2025-01-20 00:23:12.76	18.71	30.29	
2025-01-20 00:23:12.97	18.71	30.33	
2025-01-20 00:23:13.17	18.71	30.36	
2025-01-20 00:23:13.37	18.71	30.40	
2025-01-20 00:23:13.58	18.71	30.44	
2025-01-20 00:23:13.78	18.71	30.48	
2025-01-20 00:23:13.98	18.71	30.52	
2025-01-20 00:23:14.19	18.71	30.56	
2025-01-20 00:23:14.39	18.71	30.60	
2025-01-20 00:23:14.59	18.71	30.64	
2025-01-20 00:23:14.80	18.71	30.68	
2025-01-20 00:23:15.00	18.71	30.72	
2025-01-20 00:23:15.20	18.71	30.76	
2025-01-20 00:23:15.41	18.72	30.80	
2025-01-20 00:23:15.61	18.72	30.84	
2025-01-20 00:23:15.81	18.72	30.88	
2025-01-20 00:23:16.01	18.72	30.92	
2025-01-20 00:23:16.22	18.72	30.96	
2025-01-20 00:23:16.42	18.72	31.00	
2025-01-20 00:23:16.62	18.72	31.04	
2025-01-20 00:23:16.83	18.72	31.08	
2025-01-20 00:23:17.03	18.72	31.12	
2025-01-20 00:23:17.23	18.72	31.16	
2025-01-20 00:23:17.44	18.72	31.20	
2025-01-20 00:23:17.64	18.72	31.24	
2025-01-20 00:23:17.84	18.72	31.28	
2025-01-20 00:23:18.05	18.72	31.32	
2025-01-20 00:23:18.25	18.72	31.36	
2025-01-20 00:23:18.45	18.72	31.40	
2025-01-20 00:23:18.66	18.72	31.44	
2025-01-20 00:23:18.86	18.72	31.48	
2025-01-20 00:23:19.06	18.72	31.52	
2025-01-20 00:23:19.26	18.72	31.56	
2025-01-20 00:23:19.47	18.72	31.60	
2025-01-20 00:23:19.67	18.72	31.64	
2025-01-20 00:23:19.87	18.72	31.68	
2025-01-20 00:23:20.08	18.73	31.73	
2025-01-20 00:23:20.28	18.73	31.77	
2025-01-20 00:23:20.48	18.73	31.81	
2025-01-20 00:23:20.69	18.73	31.85	
2025-01-20 00:23:20.89	18.73	31.89	
2025-01-20 00:23:21.09	18.73	31.93	
2025-01-20 00:23:21.30	18.73	31.97	
2025-01-20 00:23:21.50	18.73	32.02	
2025-01-20 00:23:21.70	18.73	32.06	
2025-01-20 00:23:21.91	18.73	32.10	
2025-01-20 00:23:22.11	18.73	32.14	
2025-01-20 00:23:22.31	18.73	32.18	
2025-01-20 00:23:22.51	18.73	32.22	
2025-01-20 00:23:22.72	18.73	32.27	
2025-01-20 00:23:22.92	18.73	32.31	
2025-01-20 00:23:23.12	18.73	32.35	
2025-01-20 00:23:23.33	18.73	32.39	
2025-01-20 00:23:23.53	18.73	32.43	
2025-01-20 00:23:23.73	18.73	32.47	
2025-01-20 00:23:23.94	18.73	32.52	
2025-01-20 00:23:24.14	18.73	32.56	
2025-01-20 00:23:24.34	18.73	32.60	
2025-01-20 00:23:24.55	18.73	32.64	
2025-01-20 00:23:24.75	18.73	32.69	
2025-01-20 00:23:24.95	18.73	32.73	
2025-01-20 00:23:25.16	18.74	32.77	
2025-01-20 00:23:25.36	18.74	32.81	
2025-01-20 00:23:25.56	18.74	32.86	
2025-01-20 00:23:25.76	18.74	32.90	
2025-01-20 00:23:25.97	18.74	32.94	
2025-01-20 00:23:26.17	18.74	32.98	
2025-01-20 00:23:26.37	18.74	33.03	
2025-01-20 00:23:26.58	18.74	33.07	
2025-01-20 00:23:26.78	18.74	33.11	
2025-01-20 00:23:26.98	18.74	33.15	
2025-01-20 00:23:27.19	18.74	33.20	
2025-01-20 00:23:27.39	18.74	33.24	
2025-01-20 00:23:27.59	18.74	33.28	
2025-01-20 00:23:27.80	18.74	33.33	
2025-01-20 00:23:28.00	18.74	33.37	
2025-01-20 00:23:28.20	18.74	33.41	
2025-01-20 00:23:28.40	18.74	33.46	
2025-01-20 00:23:28.61	18.74	33.50	
2025-01-20 00:23:28.81	18.74	33.54	
2025-01-20 00:23:29.01	18.74	33.59	
2025-01-20 00:23:29.22	18.74	33.63	
2025-01-20 00:23:29.42	18.74	33.68	
2025-01-20 00:23:29.62	18.74	33.72	
2025-01-20 00:23:29.83	18.74	33.76	
2025-01-20 00:23:30.03	18.74	33.81	
2025-01-20 00:23:30.23	18.74	33.85	
2025-01-20 00:23:30.44	18.74	33.90	
2025-01-20 00:23:30.64	18.75	33.94	
2025-01-20 00:23:30.84	18.75	33.98	
2025-01-20 00:23:31.05	18.75	34.03	
2025-01-20 00:23:31.25	18.75	34.07	
2025-01-20 00:23:31.45	18.75	34.12	
2025-01-20 00:23:31.65	18.75	34.16	
2025-01-20 00:23:31.86	18.75	34.21	
2025-01-20 00:23:32.06	18.75	34.25	
2025-01-20 00:23:32.26	18.75	34.29	
2025-01-20 00:23:32.47	18.75	34.34	
2025-01-20 00:23:32.67	18.75	34.38	
2025-01-20 00:23:32.87	18.75	34.43	
2025-01-20 00:23:33.08	18.75	34.48	
2025-01-20 00:23:33.28	18.75	34.52	
2025-01-20 00:23:33.48	18.75	34.56	
2025-01-20 00:23:33.69	18.75	34.61	
2025-01-20 00:23:33.89	18.75	34.65	
2025-01-20 00:23:34.09	18.75	34.70	
2025-01-20 00:23:34.30	18.75	34.75	
2025-01-20 00:23:34.50	18.75	34.79	
2025-01-20 00:23:34.70	18.75	34.84	
2025-01-20 00:23:34.90	18.75	34.88	
2025-01-20 00:23:35.11	18.75	34.93	
2025-01-20 00:23:35.31	18.75	34.97	
2025-01-20 00:23:35.51	18.75	35.02	
2025-01-20 00:23:35.72	18.75	35.06	
2025-01-20 00:23:35.92	18.75	35.11	
2025-01-20 00:23:36.12	18.75	35.15	
2025-01-20 00:23:36.33	18.75	35.20	
2025-01-20 00:23:36.53	18.75	35.25	
2025-01-20 00:23:36.73	18.76	35.29	
2025-01-20 00:23:36.94	18.76	35.34	
2025-01-20 00:23:37.14	18.76	35.39	
2025-01-20 00:23:37.34	18.76	35.43	
2025-01-20 00:23:37.54	18.76	35.48	
2025-01-20 00:23:37.75	18.76	35.53	
2025-01-20 00:23:37.95	18.76	35.57	
2025-01-20 00:23:38.15	18.76	35.62	
2025-01-20 00:23:38.36	18.76	35.67	
2025-01-20 00:23:38.56	18.76	35.71	
2025-01-20 00:23:38.76	18.76	35.76	
2025-01-20 00:23:38.97	18.76	35.81	
2025-01-20 00:23:39.17	18.76	35.85	
2025-01-20 00:23:39.37	18.76	35.90	
2025-01-20 00:23:39.58	18.76	35.95	
2025-01-20 00:23:39.78	18.76	35.99	
2025-01-20 00:23:39.98	18.76	36.04	
2025-01-20 00:23:40.19	18.76	36.09	
2025-01-20 00:23:40.39	18.76	36.14	
2025-01-20 00:23:40.59	18.76	36.18	
2025-01-20 00:23:40.79	18.76	36.23	
2025-01-20 00:23:41.00	18.76	36.28	
2025-01-20 00:23:41.20	18.76	36.32	
2025-01-20 00:23:41.40	18.76	36.37	
2025-01-20 00:23:41.61	18.76	36.42	
2025-01-20 00:23:41.81	18.76	36.47	
2025-01-20 00:23:42.01	18.76	36.51	
2025-01-20 00:23:42.22	18.76	36.56	
2025-01-20 00:23:42.42	18.76	36.61	
2025-01-20 00:23:42.62	18.76	36.66	
2025-01-20 00:23:42.83	18.76	36.71	
2025-01-20 00:23:43.03	18.76	36.76	
2025-01-20 00:23:43.23	18.76	36.80	
2025-01-20 00:23:43.44	18.76	36.85	
2025-01-20 00:23:43.64	18.77	36.90	
2025-01-20 00:23:43.84	18.77	36.95	
2025-01-20 00:23:44.04	18.77	37.00	
2025-01-20 00:23:44.25	18.77	37.05	
2025-01-20 00:23:44.45	18.77	37.10	
2025-01-20 00:23:44.65	18.77	37.14	
2025-01-20 00:23:44.86	18.77	37.19	
2025-01-20 00:23:45.06	18.77	37.24	
2025-01-20 00:23:45.26	18.77	37.29	
2025-01-20 00:23:45.47	18.77	37.34	
2025-01-20 00:23:45.67	18.77	37.39	
2025-01-20 00:23:45.87	18.77	37.44	
2025-01-20 00:23:46.08	18.77	37.49	
2025-01-20 00:23:46.28	18.77	37.54	
2025-01-20 00:23:46.48	18.77	37.59	
2025-01-20 00:23:46.69	18.77	37.64	
2025-01-20 00:23:46.89	18.77	37.69	
2025-01-20 00:23:47.09	18.77	37.74	
2025-01-20 00:23:47.29	18.77	37.78	
2025-01-20 00:23:47.50	18.77	37.84	
2025-01-20 00:23:47.70	18.77	37.89	
2025-01-20 00:23:47.90	18.77	37.93	
2025-01-20 00:23:48.11	18.77	37.99	
2025-01-20 00:23:48.31	18.77	38.04	
2025-01-20 00:23:48.51	18.77	38.09	
2025-01-20 00:23:48.72	18.77	38.14	
2025-01-20 00:23:48.92	18.77	38.19	
2025-01-20 00:23:49.12	18.77	38.24	
2025-01-20 00:23:49.33	18.77	38.29	
2025-01-20 00:23:49.53	18.77	38.34	
2025-01-20 00:23:49.73	18.77	38.39	
2025-01-20 00:23:49.94	18.77	38.44	
2025-01-20 00:23:50.14	18.77	38.49	
2025-01-20 00:23:50.34	18.77	38.54	
2025-01-20 00:23:50.54	18.77	38.59	
2025-01-20 00:23:50.75	18.77	38.64	
2025-01-20 00:23:50.95	18.77	38.69	
2025-01-20 00:23:51.15	18.77	38.74	
2025-01-20 00:23:51.36	18.77	38.80	
2025-01-20 00:23:51.56	18.77	38.85	
2025-01-20 00:23:51.76	18.77	38.90	
2025-01-20 00:23:51.97	18.77	38.95	
2025-01-20 00:23:52.17	18.77	39.00	
2025-01-20 00:23:52.37	18.78	39.05	
2025-01-20 00:23:52.58	18.78	39.11	
2025-01-20 00:23:52.78	18.78	39.16	
2025-01-20 00:23:52.98	18.78	39.21	
2025-01-20 00:23:53.19	18.78	39.26	
2025-01-20 00:23:53.39	18.78	39.31	
2025-01-20 00:23:53.59	18.78	39.37	
2025-01-20 00:23:53.79	18.78	39.42	
2025-01-20 00:23:54.00	18.78	39.47	
2025-01-20 00:23:54.20	18.78	39.52	
2025-01-20 00:23:54.40	18.78	39.57	
2025-01-20 00:23:54.61	18.78	39.63	
2025-01-20 00:23:54.81	18.78	39.68	
2025-01-20 00:23:55.01	18.78	39.73	
2025-01-20 00:23:55.22	18.78	39.79	
2025-01-20 00:23:55.42	18.78	39.84	
2025-01-20 00:23:55.62	18.78	39.89	
2025-01-20 00:23:55.83	18.78	39.95	
2025-01-20 00:23:56.03	18.78	40.00	
2025-01-20 00:23:56.23	18.78	40.05	
2025-01-20 00:23:56.43	18.78	40.10	
2025-01-20 00:23:56.64	18.78	40.16	
2025-01-20 00:23:56.84	18.78	40.21	
2025-01-20 00:23:57.04	18.78	40.26	
2025-01-20 00:23:57.25	18.78	40.32	
2025-01-20 00:23:57.45	18.78	40.37	
2025-01-20 00:23:57.65	18.78	40.42	
2025-01-20 00:23:57.86	18.78	40.48	
2025-01-20 00:23:58.06	18.78	40.53	
2025-01-20 00:23:58.26	18.78	40.59	
2025-01-20 00:23:58.47	18.78	40.64	
2025-01-20 00:23:58.67	18.78	40.70	
2025-01-20 00:23:58.87	18.78	40.75	
2025-01-20 00:23:59.08	18.78	40.81	
2025-01-20 00:23:59.28	18.78	40.86	
2025-01-20 00:23:59.48	18.78	40.91	
2025-01-20 00:23:59.68	18.78	40.97	
2025-01-20 00:23:59.89	18.78	41.02	
2025-01-20 00:24:00.09	18.78	41.08	
2025-01-20 00:24:00.29	18.78	41.13	
2025-01-20 00:24:00.50	18.78	41.19	
2025-01-20 00:24:00.70	18.78	41.24	
2025-01-20 00:24:00.90	18.78	41.30	
2025-01-20 00:24:01.11	18.78	41.35	
2025-01-20 00:24:01.31	18.78	41.41	
2025-01-20 00:24:01.51	18.78	41.46	
2025-01-20 00:24:01.72	18.78	41.52	
2025-01-20 00:24:01.92	18.78	41.57	
2025-01-20 00:24:02.12	18.78	41.63	
2025-01-20 00:24:02.33	18.78	41.69	
2025-01-20 00:24:02.53	18.78	41.74	
2025-01-20 00:24:02.73	18.78	41.80	
2025-01-20 00:24:02.93	18.78	41.85	
2025-01-20 00:24:03.14	18.78	41.91	
2025-01-20 00:24:03.34	18.78	41.96	
2025-01-20 00:24:03.54	18.78	42.02	
2025-01-20 00:24:03.75	18.78	42.08	
2025-01-20 00:24:03.95	18.78	42.13	
2025-01-20 00:24:04.15	18.78	42.19	
2025-01-20 00:24:04.36	18.78	42.25	
2025-01-20 00:24:04.56	18.78	42.30	
2025-01-20 00:24:04.76	18.78	42.36	
2025-01-20 00:24:04.97	18.78	42.42	
2025-01-20 00:24:05.17	18.78	42.47	
2025-01-20 00:24:05.37	18.78	42.53	
2025-01-20 00:24:05.58	18.78	42.59	
2025-01-20 00:24:05.78	18.78	42.64	
2025-01-20 00:24:05.98	18.78	42.70	
2025-01-20 00:24:06.18	18.78	42.76	
2025-01-20 00:24:06.39	18.78	42.82	
2025-01-20 00:24:06.59	18.78	42.87	
2025-01-20 00:24:06.79	18.78	42.93	
2025-01-20 00:24:07.00	18.78	42.99	
2025-01-20 00:24:07.20	18.78	43.05	
2025-01-20 00:24:07.40	18.78	43.10	
2025-01-20 00:24:07.61	18.78	43.16	
2025-01-20 00:24:07.81	18.78	43.22	
2025-01-20 00:24:08.01	18.78	43.28	
2025-01-20 00:24:08.22	18.78	43.34	
2025-01-20 00:24:08.42	18.78	43.39	
2025-01-20 00:24:08.62	18.78	43.45	
2025-01-20 00:24:08.83	18.78	43.51	
2025-01-20 00:24:09.03	18.78	43.57	
2025-01-20 00:24:09.23	18.78	43.63	
2025-01-20 00:24:09.43	18.78	43.69	
2025-01-20 00:24:09.64	18.78	43.75	
2025-01-20 00:24:09.84	18.78	43.80	
2025-01-20 00:24:10.04	18.78	43.86	
2025-01-20 00:24:10.25	18.78	43.92	
2025-01-20 00:24:10.45	18.78	43.98	
2025-01-20 00:24:10.65	18.78	44.04	
2025-01-20 00:24:10.86	18.78	44.10	
2025-01-20 00:24:11.06	18.78	44.16	
2025-01-20 00:24:11.26	18.78	44.22	
2025-01-20 00:24:11.47	18.78	44.28	
2025-01-20 00:24:11.67	18.78	44.34	
2025-01-20 00:24:11.87	18.78	44.40	
2025-01-20 00:24:12.07	18.78	44.46	
2025-01-20 00:24:12.28	18.78	44.52	
2025-01-20 00:24:12.48	18.78	44.58	
2025-01-20 00:24:12.68	18.78	44.64	
2025-01-20 00:24:12.89	18.78	44.70	
2025-01-20 00:24:13.09	18.78	44.76	
2025-01-20 00:24:13.29	18.78	44.82	
2025-01-20 00:24:13.50	18.78	44.88	
2025-01-20 00:24:13.70	18.78	44.94	
2025-01-20 00:24:13.90	18.78	45.00	
2025-01-20 00:24:14.11	18.78	45.06	
2025-01-20 00:24:14.31	18.78	45.12	
2025-01-20 00:24:14.51	18.78	45.18	
2025-01-20 00:24:14.72	18.78	45.25	
2025-01-20 00:24:14.92	18.78	45.31	
2025-01-20 00:24:15.12	18.78	45.37	
2025-01-20 00:24:15.32	18.78	45.43	
2025-01-20 00:24:15.53	18.78	45.49	
2025-01-20 00:24:15.73	18.78	45.55	
2025-01-20 00:24:15.93	18.78	45.61	
2025-01-20 00:24:16.14	18.78	45.68	
2025-01-20 00:24:16.34	18.78	45.74	
2025-01-20 00:24:16.54	18.78	45.80	
2025-01-20 00:24:16.75	18.78	45.86	
2025-01-20 00:24:16.95	18.78	45.92	
2025-01-20 00:24:17.15	18.78	45.99	
2025-01-20 00:24:17.36	18.78	46.05	
2025-01-20 00:24:17.56	18.78	46.11	
2025-01-20 00:24:17.76	18.78	46.17	
2025-01-20 00:24:17.97	18.78	46.24	
2025-01-20 00:24:18.17	18.78	46.30	
2025-01-20 00:24:18.37	18.78	46.36	
2025-01-20 00:24:18.57	18.78	46.42	
2025-01-20 00:24:18.78	18.78	46.49	
2025-01-20 00:24:18.98	18.78	46.55	
2025-01-20 00:24:19.18	18.78	46.61	
2025-01-20 00:24:19.39	18.78	46.68	
2025-01-20 00:24:19.59	18.78	46.74	
2025-01-20 00:24:19.79	18.78	46.80	
2025-01-20 00:24:20.00	18.78	46.87	
2025-01-20 00:24:20.20	18.78	46.93	
2025-01-20 00:24:20.40	18.78	46.99	
2025-01-20 00:24:20.61	18.78	47.06	
2025-01-20 00:24:20.81	18.78	47.12	
2025-01-20 00:24:21.01	18.78	47.19	
2025-01-20 00:24:21.22	18.78	47.25	
2025-01-20 00:24:21.42	18.78	47.32	
2025-01-20 00:24:21.62	18.78	47.38	
2025-01-20 00:24:21.82	18.78	47.44	
2025-01-20 00:24:22.03	18.78	47.51	
2025-01-20 00:24:22.23	18.78	47.57	
2025-01-20 00:24:22.43	18.78	47.64	
2025-01-20 00:24:22.64	18.78	47.70	
2025-01-20 00:24:22.84	18.78	47.77	
2025-01-20 00:24:23.04	18.78	47.83	
2025-01-20 00:24:23.25	18.78	47.90	
2025-01-20 00:24:23.45	18.78	47.96	
2025-01-20 00:24:23.65	18.78	48.03	
2025-01-20 00:24:23.86	18.78	48.10	
2025-01-20 00:24:24.06	18.78	48.16	
2025-01-20 00:24:24.26	18.78	48.23	
2025-01-20 00:24:24.46	18.77	48.29	
2025-01-20 00:24:24.67	18.77	48.36	
2025-01-20 00:24:24.87	18.77	48.42	
2025-01-20 00:24:25.07	18.77	48.49	
2025-01-20 00:24:25.28	18.77	48.56	
2025-01-20 00:24:25.48	18.77	48.62	
2025-01-20 00:24:25.68	18.77	48.69	
2025-01-20 00:24:25.89	18.77	48.76	
2025-01-20 00:24:26.09	18.77	48.82	
2025-01-20 00:24:26.29	18.77	48.89	
2025-01-20 00:24:26.50	18.77	48.96	
2025-01-20 00:24:26.70	18.77	49.02	
2025-01-20 00:24:26.90	18.77	49.09	
2025-01-20 00:24:27.11	18.77	49.16	
2025-01-20 00:24:27.31	18.77	49.22	
2025-01-20 00:24:27.51	18.77	49.29	
2025-01-20 00:24:27.71	18.77	49.36	
2025-01-20 00:24:27.92	18.77	49.43	
2025-01-20 00:24:28.12	18.77	49.49	
2025-01-20 00:24:28.32	18.77	49.56	
2025-01-20 00:24:28.53	18.77	49.63	
2025-01-20 00:24:28.73	18.77	49.70	
2025-01-20 00:24:28.93	18.77	49.76	
2025-01-20 00:24:29.14	18.77	49.83	
2025-01-20 00:24:29.35	18.77	49.90	
2025-01-20 00:24:29.55	18.77	49.97	
2025-01-20 00:24:29.75	18.77	50.04	
2025-01-20 00:24:29.96	18.77	50.11	
2025-01-20 00:24:30.16	18.77	50.18	
2025-01-20 00:24:30.36	18.77	50.24	
2025-01-20 00:24:30.57	18.76	50.32	
2025-01-20 00:24:30.77	18.76	50.38	
2025-01-20 00:24:30.97	18.76	50.45	
2025-01-20 00:24:31.17	18.76	50.52	
2025-01-20 00:24:31.38	18.76	50.59	
2025-01-20 00:24:31.58	18.76	50.66	
2025-01-20 00:24:31.78	18.76	50.73	
2025-01-20 00:24:31.99	18.76	50.80	
2025-01-20 00:24:32.19	18.76	50.87	
2025-01-20 00:24:32.39	18.76	50.94	
2025-01-20 00:24:32.60	18.76	51.01	
2025-01-20 00:24:32.80	18.76	51.08	
2025-01-20 00:24:33.00	18.76	51.15	
2025-01-20 00:24:33.21	18.76	51.22	
2025-01-20 00:24:33.41	18.76	51.29	
2025-01-20 00:24:33.61	18.76	51.36	
2025-01-20 00:24:33.82	18.76	51.43	
2025-01-20 00:24:34.02	18.76	51.50	
2025-01-20 00:24:34.22	18.76	51.57	
2025-01-20 00:24:34.42	18.76	51.64	
2025-01-20 00:24:34.63	18.76	51.71	
2025-01-20 00:24:34.83	18.76	51.78	
2025-01-20 00:24:35.03	18.75	51.85	
2025-01-20 00:24:35.24	18.75	51.93	
2025-01-20 00:24:35.44	18.75	52.00	
2025-01-20 00:24:35.64	18.75	52.07	
2025-01-20 00:24:35.85	18.75	52.14	
2025-01-20 00:24:36.05	18.75	52.21	
2025-01-20 00:24:36.25	18.75	52.28	
2025-01-20 00:24:36.46	18.75	52.36	
2025-01-20 00:24:36.66	18.75	52.43	
2025-01-20 00:24:36.86	18.75	52.50	
2025-01-20 00:24:37.07	18.75	52.57	
2025-01-20 00:24:37.27	18.75	52.64	
2025-01-20 00:24:37.47	18.75	52.72	
2025-01-20 00:24:37.67	18.75	52.79	
2025-01-20 00:24:37.88	18.75	52.86	
2025-01-20 00:24:38.08	18.75	52.93	
2025-01-20 00:24:38.28	18.75	53.00	
2025-01-20 00:24:38.49	18.74	53.08	
2025-01-20 00:24:38.69	18.74	53.15	
2025-01-20 00:24:38.89	18.74	53.22	
2025-01-20 00:24:39.10	18.74	53.30	
2025-01-20 00:24:39.30	18.74	53.37	
2025-01-20 00:24:39.50	18.74	53.44	
2025-01-20 00:24:39.71	18.74	53.52	
2025-01-20 00:24:39.91	18.74	53.59	
2025-01-20 00:24:40.11	18.74	53.67	
2025-01-20 00:24:40.32	18.74	53.74	
2025-01-20 00:24:40.52	18.74	53.82	
2025-01-20 00:24:40.72	18.74	53.89	
2025-01-20 00:24:40.92	18.74	53.96	
2025-01-20 00:24:41.13	18.74	54.04	
2025-01-20 00:24:41.33	18.73	54.11	
2025-01-20 00:24:41.53	18.73	54.18	
2025-01-20 00:24:41.74	18.73	54.26	
2025-01-20 00:24:41.94	18.73	54.34	
2025-01-20 00:24:42.14	18.73	54.41	
2025-01-20 00:24:42.35	18.73	54.49	
2025-01-20 00:24:42.55	18.73	54.56	
2025-01-20 00:24:42.75	18.73	54.63	
2025-01-20 00:24:42.96	18.73	54.71	
2025-01-20 00:24:43.16	18.73	54.79	
2025-01-20 00:24:43.36	18.73	54.86	
2025-01-20 00:24:43.56	18.73	54.94	
2025-01-20 00:24:43.77	18.73	55.01	
2025-01-20 00:24:43.97	18.72	55.09	
2025-01-20 00:24:44.17	18.72	55.16	
2025-01-20 00:24:44.38	18.72	55.24	
2025-01-20 00:24:44.58	18.72	55.32	
2025-01-20 00:24:44.78	18.72	55.39	
2025-01-20 00:24:44.99	18.72	55.47	
2025-01-20 00:24:45.19	18.72	55.55	
2025-01-20 00:24:45.39	18.72	55.62	
2025-01-20 00:24:45.60	18.72	55.70	
2025-01-20 00:24:45.80	18.72	55.78	
2025-01-20 00:24:46.00	18.72	55.85	
2025-01-20 00:24:46.21	18.71	55.93	
2025-01-20 00:24:46.41	18.71	56.01	
2025-01-20 00:24:46.61	18.71	56.08	
2025-01-20 00:24:46.81	18.71	56.16	
2025-01-20 00:24:47.02	18.71	56.24	
2025-01-20 00:24:47.22	18.71	56.32	
2025-01-20 00:24:47.42	18.71	56.39	
2025-01-20 00:24:47.63	18.71	56.47	
2025-01-20 00:24:47.83	18.71	56.55	
2025-01-20 00:24:48.03	18.71	56.63	
2025-01-20 00:24:48.24	18.70	56.71	
2025-01-20 00:24:48.44	18.70	56.79	
2025-01-20 00:24:48.64	18.70	56.86	
2025-01-20 00:24:48.85	18.70	56.94	
2025-01-20 00:24:49.05	18.70	57.02	
2025-01-20 00:24:49.25	18.70	57.10	
2025-01-20 00:24:49.46	18.70	57.18	
2025-01-20 00:24:49.66	18.70	57.26	
2025-01-20 00:24:49.86	18.70	57.34	
2025-01-20 00:24:50.06	18.69	57.41	
2025-01-20 00:24:50.27	18.69	57.50	
2025-01-20 00:24:50.47	18.69	57.57	
2025-01-20 00:24:50.67	18.69	57.65	
2025-01-20 00:24:50.88	18.69	57.73	
2025-01-20 00:24:51.08	18.69	57.81	
2025-01-20 00:24:51.28	18.69	57.89	
2025-01-20 00:24:51.49	18.69	57.97	
2025-01-20 00:24:51.69	18.68	58.05	
2025-01-20 00:24:51.89	18.68	58.13	
2025-01-20 00:24:52.10	18.68	58.21	
2025-01-20 00:24:52.30	18.68	58.29	
2025-01-20 00:24:52.50	18.68	58.37	
2025-01-20 00:24:52.71	18.68	58.46	
2025-01-20 00:24:52.91	18.68	58.53	
2025-01-20 00:24:53.11	18.68	58.61	
2025-01-20 00:24:53.31	18.67	58.69	
