passes_logs/2025/01/20/SPB_Silybum_02/SPB_Silybum_02__20250120_065610_SUOMI_NPP_rec.log

#Pass ID: 20250120_065610_SUOMI NPP
#Satellite: SUOMI NPP
#Configuration: NPP
#Start time: 2025-01-20 06:56:09

#Version: 2.0.20230423
#Station: SPB_Silybum_02
#Location: 30.233357 lon 59.946436 lat
#TLE: 1 37849U 11061A   25019.85382012  .00000269  00000+0  14855-3 0  9998
#TLE: 2 37849  98.7451 320.7810 0001479  33.1387 326.9881 14.19541038685602

#Time	Az	El	Level	Level2	SNR	BER	Gain	Gain2
2025-01-20 06:56:11.84	63.70	4.08	
2025-01-20 06:56:12.04	63.67	4.09	
2025-01-20 06:56:12.24	63.65	4.10	
2025-01-20 06:56:12.45	63.63	4.11	
2025-01-20 06:56:12.65	63.60	4.12	
2025-01-20 06:56:12.87	63.58	4.12	
2025-01-20 06:56:13.07	63.56	4.13	
2025-01-20 06:56:13.27	63.53	4.14	
2025-01-20 06:56:13.48	63.51	4.15	
2025-01-20 06:56:13.68	63.49	4.16	
2025-01-20 06:56:13.88	63.46	4.17	
2025-01-20 06:56:14.09	63.44	4.18	
2025-01-20 06:56:14.29	63.42	4.19	
2025-01-20 06:56:14.49	63.39	4.19	
2025-01-20 06:56:14.69	63.37	4.20	
2025-01-20 06:56:14.90	63.35	4.21	
2025-01-20 06:56:15.10	63.32	4.22	
2025-01-20 06:56:15.30	63.30	4.23	
2025-01-20 06:56:15.51	63.28	4.24	
2025-01-20 06:56:15.71	63.25	4.25	
2025-01-20 06:56:15.91	63.23	4.26	
2025-01-20 06:56:16.12	63.21	4.27	
2025-01-20 06:56:16.32	63.18	4.27	
2025-01-20 06:56:16.52	63.16	4.28	
2025-01-20 06:56:16.72	63.14	4.29	
2025-01-20 06:56:16.93	63.11	4.30	
2025-01-20 06:56:17.13	63.09	4.31	
2025-01-20 06:56:17.33	63.07	4.32	
2025-01-20 06:56:17.54	63.04	4.33	
2025-01-20 06:56:17.74	63.02	4.34	
2025-01-20 06:56:17.94	63.00	4.34	
2025-01-20 06:56:18.14	62.97	4.35	
2025-01-20 06:56:18.35	62.95	4.36	
2025-01-20 06:56:18.55	62.92	4.37	
2025-01-20 06:56:18.75	62.90	4.38	
2025-01-20 06:56:18.96	62.88	4.39	
2025-01-20 06:56:19.16	62.85	4.40	
2025-01-20 06:56:19.36	62.83	4.41	
2025-01-20 06:56:19.57	62.81	4.41	
2025-01-20 06:56:19.77	62.78	4.42	
2025-01-20 06:56:19.97	62.76	4.43	
2025-01-20 06:56:20.17	62.74	4.44	
2025-01-20 06:56:20.38	62.71	4.45	
2025-01-20 06:56:20.58	62.69	4.46	
2025-01-20 06:56:20.78	62.66	4.47	
2025-01-20 06:56:20.99	62.64	4.48	
2025-01-20 06:56:21.19	62.62	4.48	
2025-01-20 06:56:21.39	62.59	4.49	
2025-01-20 06:56:21.60	62.57	4.50	
2025-01-20 06:56:21.80	62.54	4.51	
2025-01-20 06:56:22.00	62.52	4.52	
2025-01-20 06:56:22.20	62.50	4.53	
2025-01-20 06:56:22.41	62.47	4.54	
2025-01-20 06:56:22.61	62.45	4.55	
2025-01-20 06:56:22.81	62.43	4.55	
2025-01-20 06:56:23.02	62.40	4.56	
2025-01-20 06:56:23.22	62.38	4.57	
2025-01-20 06:56:23.42	62.35	4.58	
2025-01-20 06:56:23.62	62.33	4.59	
2025-01-20 06:56:23.83	62.31	4.60	
2025-01-20 06:56:24.03	62.28	4.61	
2025-01-20 06:56:24.23	62.26	4.61	
2025-01-20 06:56:24.44	62.23	4.62	
2025-01-20 06:56:24.64	62.21	4.63	
2025-01-20 06:56:24.84	62.19	4.64	
2025-01-20 06:56:25.05	62.16	4.65	
2025-01-20 06:56:25.25	62.14	4.66	
2025-01-20 06:56:25.45	62.11	4.67	
2025-01-20 06:56:25.65	62.09	4.68	
2025-01-20 06:56:25.86	62.07	4.68	
2025-01-20 06:56:26.06	62.04	4.69	
2025-01-20 06:56:26.26	62.02	4.70	
2025-01-20 06:56:26.47	61.99	4.71	
2025-01-20 06:56:26.67	61.97	4.72	
2025-01-20 06:56:26.87	61.94	4.73	
2025-01-20 06:56:27.07	61.92	4.74	
2025-01-20 06:56:27.28	61.90	4.75	
2025-01-20 06:56:27.48	61.87	4.75	
2025-01-20 06:56:27.68	61.85	4.76	
2025-01-20 06:56:27.89	61.82	4.77	
2025-01-20 06:56:28.09	61.80	4.78	
2025-01-20 06:56:28.29	61.78	4.79	
2025-01-20 06:56:28.50	61.75	4.80	
2025-01-20 06:56:28.70	61.73	4.81	
2025-01-20 06:56:28.90	61.70	4.81	
2025-01-20 06:56:29.10	61.68	4.82	
2025-01-20 06:56:29.31	61.65	4.83	
2025-01-20 06:56:29.51	61.63	4.84	
2025-01-20 06:56:29.71	61.60	4.85	
2025-01-20 06:56:29.92	61.58	4.86	
2025-01-20 06:56:30.12	61.56	4.87	
2025-01-20 06:56:30.32	61.53	4.88	
2025-01-20 06:56:30.53	61.51	4.88	
2025-01-20 06:56:30.73	61.48	4.89	
2025-01-20 06:56:30.93	61.46	4.90	
2025-01-20 06:56:31.13	61.43	4.91	
2025-01-20 06:56:31.34	61.41	4.92	
2025-01-20 06:56:31.54	61.38	4.93	
2025-01-20 06:56:31.74	61.36	4.94	
2025-01-20 06:56:31.95	61.33	4.94	
2025-01-20 06:56:32.15	61.31	4.95	
2025-01-20 06:56:32.35	61.29	4.96	
2025-01-20 06:56:32.55	61.26	4.97	
2025-01-20 06:56:32.76	61.24	4.98	
2025-01-20 06:56:32.96	61.21	4.99	
2025-01-20 06:56:33.16	61.19	5.00	
2025-01-20 06:56:33.37	61.16	5.01	
2025-01-20 06:56:33.57	61.14	5.01	
2025-01-20 06:56:33.77	61.11	5.02	
2025-01-20 06:56:33.98	61.09	5.03	
2025-01-20 06:56:34.18	61.06	5.04	
2025-01-20 06:56:34.38	61.04	5.05	
2025-01-20 06:56:34.58	61.01	5.06	
2025-01-20 06:56:34.79	60.99	5.07	
2025-01-20 06:56:34.99	60.96	5.07	
2025-01-20 06:56:35.19	60.94	5.08	
2025-01-20 06:56:35.40	60.91	5.09	
2025-01-20 06:56:35.60	60.89	5.10	
2025-01-20 06:56:35.80	60.87	5.11	
2025-01-20 06:56:36.00	60.84	5.12	
2025-01-20 06:56:36.21	60.82	5.13	
2025-01-20 06:56:36.41	60.79	5.13	
2025-01-20 06:56:36.61	60.77	5.14	
2025-01-20 06:56:36.82	60.74	5.15	
2025-01-20 06:56:37.02	60.72	5.16	
2025-01-20 06:56:37.22	60.69	5.17	
2025-01-20 06:56:37.43	60.67	5.18	
2025-01-20 06:56:37.63	60.64	5.19	
2025-01-20 06:56:37.83	60.62	5.19	
2025-01-20 06:56:38.03	60.59	5.20	
2025-01-20 06:56:38.24	60.57	5.21	
2025-01-20 06:56:38.44	60.54	5.22	
2025-01-20 06:56:38.64	60.52	5.23	
2025-01-20 06:56:38.85	60.49	5.24	
2025-01-20 06:56:39.05	60.47	5.25	
2025-01-20 06:56:39.25	60.44	5.25	
2025-01-20 06:56:39.46	60.42	5.26	
2025-01-20 06:56:39.66	60.39	5.27	
2025-01-20 06:56:39.86	60.37	5.28	
2025-01-20 06:56:40.06	60.34	5.29	
2025-01-20 06:56:40.27	60.31	5.30	
2025-01-20 06:56:40.47	60.29	5.31	
2025-01-20 06:56:40.67	60.27	5.31	
2025-01-20 06:56:40.88	60.24	5.32	
2025-01-20 06:56:41.08	60.21	5.33	
2025-01-20 06:56:41.28	60.19	5.34	
2025-01-20 06:56:41.48	60.16	5.35	
2025-01-20 06:56:41.69	60.14	5.36	
2025-01-20 06:56:41.89	60.11	5.37	
2025-01-20 06:56:42.09	60.09	5.37	
2025-01-20 06:56:42.30	60.06	5.38	
2025-01-20 06:56:42.50	60.04	5.39	
2025-01-20 06:56:42.70	60.01	5.40	
2025-01-20 06:56:42.91	59.99	5.41	
2025-01-20 06:56:43.11	59.96	5.42	
2025-01-20 06:56:43.31	59.94	5.42	
2025-01-20 06:56:43.51	59.91	5.43	
2025-01-20 06:56:43.72	59.88	5.44	
2025-01-20 06:56:43.92	59.86	5.45	
2025-01-20 06:56:44.12	59.83	5.46	
2025-01-20 06:56:44.33	59.81	5.47	
2025-01-20 06:56:44.53	59.78	5.48	
2025-01-20 06:56:44.73	59.76	5.48	
2025-01-20 06:56:44.94	59.73	5.49	
2025-01-20 06:56:45.14	59.71	5.50	
2025-01-20 06:56:45.34	59.68	5.51	
2025-01-20 06:56:45.54	59.66	5.52	
2025-01-20 06:56:45.75	59.63	5.53	
2025-01-20 06:56:45.95	59.60	5.54	
2025-01-20 06:56:46.15	59.58	5.54	
2025-01-20 06:56:46.36	59.55	5.55	
2025-01-20 06:56:46.56	59.53	5.56	
2025-01-20 06:56:46.76	59.50	5.57	
2025-01-20 06:56:46.96	59.48	5.58	
2025-01-20 06:56:47.17	59.45	5.59	
2025-01-20 06:56:47.37	59.42	5.59	
2025-01-20 06:56:47.57	59.40	5.60	
2025-01-20 06:56:47.78	59.37	5.61	
2025-01-20 06:56:47.98	59.35	5.62	
2025-01-20 06:56:48.18	59.32	5.63	
2025-01-20 06:56:48.39	59.30	5.64	
2025-01-20 06:56:48.59	59.27	5.65	
2025-01-20 06:56:48.79	59.24	5.65	
2025-01-20 06:56:48.99	59.22	5.66	
2025-01-20 06:56:49.20	59.19	5.67	
2025-01-20 06:56:49.40	59.17	5.68	
2025-01-20 06:56:49.60	59.14	5.69	
2025-01-20 06:56:49.81	59.11	5.70	
2025-01-20 06:56:50.01	59.09	5.70	
2025-01-20 06:56:50.21	59.06	5.71	
2025-01-20 06:56:50.41	59.04	5.72	
2025-01-20 06:56:50.62	59.01	5.73	
2025-01-20 06:56:50.82	58.99	5.74	
2025-01-20 06:56:51.02	58.96	5.75	
2025-01-20 06:56:51.23	58.93	5.76	
2025-01-20 06:56:51.43	58.91	5.76	
2025-01-20 06:56:51.63	58.88	5.77	
2025-01-20 06:56:51.84	58.85	5.78	
2025-01-20 06:56:52.04	58.83	5.79	
2025-01-20 06:56:52.24	58.80	5.80	
2025-01-20 06:56:52.44	58.78	5.81	
2025-01-20 06:56:52.65	58.75	5.81	
2025-01-20 06:56:52.85	58.72	5.82	
2025-01-20 06:56:53.05	58.70	5.83	
2025-01-20 06:56:53.26	58.67	5.84	
2025-01-20 06:56:53.46	58.65	5.85	
2025-01-20 06:56:53.66	58.62	5.86	
2025-01-20 06:56:53.87	58.59	5.86	
2025-01-20 06:56:54.07	58.57	5.87	
2025-01-20 06:56:54.27	58.54	5.88	
2025-01-20 06:56:54.47	58.52	5.89	
2025-01-20 06:56:54.68	58.49	5.90	
2025-01-20 06:56:54.88	58.46	5.91	
2025-01-20 06:56:55.08	58.44	5.91	
2025-01-20 06:56:55.29	58.41	5.92	
2025-01-20 06:56:55.49	58.38	5.93	
2025-01-20 06:56:55.69	58.36	5.94	
2025-01-20 06:56:55.89	58.33	5.95	
2025-01-20 06:56:56.10	58.30	5.96	
2025-01-20 06:56:56.30	58.28	5.96	
2025-01-20 06:56:56.50	58.25	5.97	
2025-01-20 06:56:56.71	58.23	5.98	
2025-01-20 06:56:56.91	58.20	5.99	
2025-01-20 06:56:57.11	58.17	6.00	
2025-01-20 06:56:57.32	58.15	6.01	
2025-01-20 06:56:57.52	58.12	6.01	
2025-01-20 06:56:57.72	58.09	6.02	
2025-01-20 06:56:57.92	58.07	6.03	
2025-01-20 06:56:58.13	58.04	6.04	
2025-01-20 06:56:58.33	58.01	6.05	
2025-01-20 06:56:58.53	57.99	6.06	
2025-01-20 06:56:58.74	57.96	6.06	
2025-01-20 06:56:58.94	57.93	6.07	
2025-01-20 06:56:59.14	57.91	6.08	
2025-01-20 06:56:59.34	57.88	6.09	
2025-01-20 06:56:59.55	57.85	6.10	
2025-01-20 06:56:59.75	57.83	6.11	
2025-01-20 06:56:59.95	57.80	6.11	
2025-01-20 06:57:00.16	57.77	6.12	
2025-01-20 06:57:00.36	57.75	6.13	
2025-01-20 06:57:00.56	57.72	6.14	
2025-01-20 06:57:00.77	57.69	6.15	
2025-01-20 06:57:00.97	57.67	6.16	
2025-01-20 06:57:01.17	57.64	6.16	
2025-01-20 06:57:01.37	57.61	6.17	
2025-01-20 06:57:01.58	57.59	6.18	
2025-01-20 06:57:01.78	57.56	6.19	
2025-01-20 06:57:01.98	57.53	6.20	
2025-01-20 06:57:02.19	57.51	6.20	
2025-01-20 06:57:02.39	57.48	6.21	
2025-01-20 06:57:02.59	57.45	6.22	
2025-01-20 06:57:02.80	57.43	6.23	
2025-01-20 06:57:03.00	57.40	6.24	
2025-01-20 06:57:03.20	57.37	6.25	
2025-01-20 06:57:03.40	57.35	6.25	
2025-01-20 06:57:03.61	57.32	6.26	
2025-01-20 06:57:03.81	57.29	6.27	
2025-01-20 06:57:04.01	57.27	6.28	
2025-01-20 06:57:04.22	57.24	6.29	
2025-01-20 06:57:04.42	57.21	6.30	
2025-01-20 06:57:04.62	57.18	6.30	
2025-01-20 06:57:04.82	57.16	6.31	
2025-01-20 06:57:05.03	57.13	6.32	
2025-01-20 06:57:05.23	57.10	6.33	
2025-01-20 06:57:05.43	57.08	6.34	
2025-01-20 06:57:05.64	57.05	6.34	
2025-01-20 06:57:05.84	57.02	6.35	
2025-01-20 06:57:06.04	56.99	6.36	
2025-01-20 06:57:06.25	56.97	6.37	
2025-01-20 06:57:06.45	56.94	6.38	
2025-01-20 06:57:06.65	56.91	6.39	
2025-01-20 06:57:06.85	56.89	6.39	
2025-01-20 06:57:07.06	56.86	6.40	
2025-01-20 06:57:07.26	56.83	6.41	
2025-01-20 06:57:07.46	56.80	6.42	
2025-01-20 06:57:07.67	56.78	6.43	
2025-01-20 06:57:07.87	56.75	6.43	
2025-01-20 06:57:08.07	56.72	6.44	
2025-01-20 06:57:08.28	56.69	6.45	
2025-01-20 06:57:08.48	56.67	6.46	
2025-01-20 06:57:08.68	56.64	6.47	
2025-01-20 06:57:08.88	56.61	6.47	
2025-01-20 06:57:09.09	56.59	6.48	
2025-01-20 06:57:09.29	56.56	6.49	
2025-01-20 06:57:09.49	56.53	6.50	
2025-01-20 06:57:09.70	56.50	6.51	
2025-01-20 06:57:09.90	56.48	6.52	
2025-01-20 06:57:10.10	56.45	6.52	
2025-01-20 06:57:10.30	56.42	6.53	
2025-01-20 06:57:10.51	56.39	6.54	
2025-01-20 06:57:10.71	56.37	6.55	
2025-01-20 06:57:10.91	56.34	6.56	
2025-01-20 06:57:11.12	56.31	6.56	
2025-01-20 06:57:11.32	56.28	6.57	
2025-01-20 06:57:11.52	56.26	6.58	
2025-01-20 06:57:11.73	56.23	6.59	
2025-01-20 06:57:11.93	56.20	6.60	
2025-01-20 06:57:12.13	56.17	6.60	
2025-01-20 06:57:12.33	56.15	6.61	
2025-01-20 06:57:12.54	56.12	6.62	
2025-01-20 06:57:12.74	56.09	6.63	
2025-01-20 06:57:12.94	56.06	6.64	
2025-01-20 06:57:13.15	56.04	6.65	
2025-01-20 06:57:13.35	56.01	6.65	
2025-01-20 06:57:13.55	55.98	6.66	
2025-01-20 06:57:13.77	55.95	6.67	
2025-01-20 06:57:13.97	55.92	6.68	
2025-01-20 06:57:14.18	55.89	6.69	
2025-01-20 06:57:14.38	55.87	6.69	
2025-01-20 06:57:14.58	55.84	6.70	
2025-01-20 06:57:14.79	55.81	6.71	
2025-01-20 06:57:14.99	55.78	6.72	
2025-01-20 06:57:15.19	55.76	6.73	
2025-01-20 06:57:15.39	55.73	6.73	
2025-01-20 06:57:15.60	55.70	6.74	
2025-01-20 06:57:15.80	55.67	6.75	
2025-01-20 06:57:16.00	55.65	6.76	
2025-01-20 06:57:16.21	55.62	6.77	
2025-01-20 06:57:16.41	55.59	6.77	
2025-01-20 06:57:16.61	55.56	6.78	
2025-01-20 06:57:16.81	55.53	6.79	
2025-01-20 06:57:17.02	55.50	6.80	
2025-01-20 06:57:17.22	55.48	6.81	
2025-01-20 06:57:17.42	55.45	6.81	
2025-01-20 06:57:17.63	55.42	6.82	
2025-01-20 06:57:17.83	55.39	6.83	
2025-01-20 06:57:18.03	55.37	6.84	
2025-01-20 06:57:18.24	55.34	6.85	
2025-01-20 06:57:18.44	55.31	6.85	
2025-01-20 06:57:18.64	55.28	6.86	
2025-01-20 06:57:18.84	55.25	6.87	
2025-01-20 06:57:19.05	55.22	6.88	
2025-01-20 06:57:19.25	55.20	6.89	
2025-01-20 06:57:19.45	55.17	6.89	
2025-01-20 06:57:19.66	55.14	6.90	
2025-01-20 06:57:19.86	55.11	6.91	
2025-01-20 06:57:20.06	55.08	6.92	
2025-01-20 06:57:20.26	55.06	6.92	
2025-01-20 06:57:20.47	55.03	6.93	
2025-01-20 06:57:20.67	55.00	6.94	
2025-01-20 06:57:20.87	54.97	6.95	
2025-01-20 06:57:21.08	54.94	6.96	
2025-01-20 06:57:21.28	54.91	6.96	
2025-01-20 06:57:21.48	54.89	6.97	
2025-01-20 06:57:21.69	54.86	6.98	
2025-01-20 06:57:21.89	54.83	6.99	
2025-01-20 06:57:22.09	54.80	7.00	
2025-01-20 06:57:22.29	54.77	7.00	
2025-01-20 06:57:22.50	54.74	7.01	
2025-01-20 06:57:22.70	54.72	7.02	
2025-01-20 06:57:22.90	54.69	7.03	
2025-01-20 06:57:23.11	54.66	7.04	
2025-01-20 06:57:23.31	54.63	7.04	
2025-01-20 06:57:23.51	54.60	7.05	
2025-01-20 06:57:23.72	54.57	7.06	
2025-01-20 06:57:23.92	54.55	7.07	
2025-01-20 06:57:24.12	54.52	7.07	
2025-01-20 06:57:24.32	54.49	7.08	
2025-01-20 06:57:24.53	54.46	7.09	
2025-01-20 06:57:24.73	54.43	7.10	
2025-01-20 06:57:24.93	54.40	7.11	
2025-01-20 06:57:25.14	54.37	7.11	
2025-01-20 06:57:25.34	54.35	7.12	
2025-01-20 06:57:25.54	54.32	7.13	
2025-01-20 06:57:25.74	54.29	7.14	
2025-01-20 06:57:25.95	54.26	7.15	
2025-01-20 06:57:26.15	54.23	7.15	
2025-01-20 06:57:26.35	54.20	7.16	
2025-01-20 06:57:26.56	54.17	7.17	
2025-01-20 06:57:26.76	54.14	7.18	
2025-01-20 06:57:26.96	54.12	7.18	
2025-01-20 06:57:27.17	54.09	7.19	
2025-01-20 06:57:27.37	54.06	7.20	
2025-01-20 06:57:27.57	54.03	7.21	
2025-01-20 06:57:27.77	54.00	7.22	
2025-01-20 06:57:27.98	53.97	7.22	
2025-01-20 06:57:28.18	53.94	7.23	
2025-01-20 06:57:28.38	53.92	7.24	
2025-01-20 06:57:28.59	53.89	7.25	
2025-01-20 06:57:28.79	53.86	7.25	
2025-01-20 06:57:28.99	53.83	7.26	
2025-01-20 06:57:29.20	53.80	7.27	
2025-01-20 06:57:29.40	53.77	7.28	
2025-01-20 06:57:29.60	53.74	7.28	
2025-01-20 06:57:29.80	53.71	7.29	
2025-01-20 06:57:30.01	53.68	7.30	
2025-01-20 06:57:30.21	53.65	7.31	
2025-01-20 06:57:30.41	53.63	7.32	
2025-01-20 06:57:30.62	53.60	7.32	
2025-01-20 06:57:30.82	53.57	7.33	
2025-01-20 06:57:31.02	53.54	7.34	
2025-01-20 06:57:31.22	53.51	7.35	
2025-01-20 06:57:31.43	53.48	7.35	
2025-01-20 06:57:31.63	53.45	7.36	
2025-01-20 06:57:31.83	53.42	7.37	
2025-01-20 06:57:32.04	53.39	7.38	
2025-01-20 06:57:32.24	53.36	7.38	
2025-01-20 06:57:32.44	53.34	7.39	
2025-01-20 06:57:32.65	53.31	7.40	
2025-01-20 06:57:32.85	53.28	7.41	
2025-01-20 06:57:33.05	53.25	7.42	
2025-01-20 06:57:33.25	53.22	7.42	
2025-01-20 06:57:33.46	53.19	7.43	
2025-01-20 06:57:33.66	53.16	7.44	
2025-01-20 06:57:33.86	53.13	7.45	
2025-01-20 06:57:34.07	53.10	7.45	
2025-01-20 06:57:34.27	53.07	7.46	
2025-01-20 06:57:34.47	53.04	7.47	
2025-01-20 06:57:34.67	53.01	7.48	
2025-01-20 06:57:34.88	52.98	7.48	
2025-01-20 06:57:35.08	52.95	7.49	
2025-01-20 06:57:35.28	52.93	7.50	
2025-01-20 06:57:35.49	52.90	7.51	
2025-01-20 06:57:35.69	52.87	7.51	
2025-01-20 06:57:35.89	52.84	7.52	
2025-01-20 06:57:36.10	52.81	7.53	
2025-01-20 06:57:36.30	52.78	7.54	
2025-01-20 06:57:36.50	52.75	7.54	
2025-01-20 06:57:36.70	52.72	7.55	
2025-01-20 06:57:36.91	52.69	7.56	
2025-01-20 06:57:37.11	52.66	7.57	
2025-01-20 06:57:37.31	52.63	7.57	
2025-01-20 06:57:37.52	52.60	7.58	
2025-01-20 06:57:37.72	52.57	7.59	
2025-01-20 06:57:37.92	52.54	7.60	
2025-01-20 06:57:38.13	52.51	7.61	
2025-01-20 06:57:38.33	52.48	7.61	
2025-01-20 06:57:38.53	52.45	7.62	
2025-01-20 06:57:38.73	52.42	7.63	
2025-01-20 06:57:38.94	52.39	7.64	
2025-01-20 06:57:39.14	52.36	7.64	
2025-01-20 06:57:39.34	52.34	7.65	
2025-01-20 06:57:39.55	52.30	7.66	
2025-01-20 06:57:39.75	52.28	7.67	
2025-01-20 06:57:39.95	52.25	7.67	
2025-01-20 06:57:40.15	52.22	7.68	
2025-01-20 06:57:40.36	52.19	7.69	
2025-01-20 06:57:40.56	52.16	7.69	
2025-01-20 06:57:40.76	52.13	7.70	
2025-01-20 06:57:40.97	52.10	7.71	
2025-01-20 06:57:41.17	52.07	7.72	
2025-01-20 06:57:41.37	52.04	7.72	
2025-01-20 06:57:41.58	52.01	7.73	
2025-01-20 06:57:41.78	51.98	7.74	
2025-01-20 06:57:41.98	51.95	7.75	
2025-01-20 06:57:42.18	51.92	7.75	
2025-01-20 06:57:42.39	51.89	7.76	
2025-01-20 06:57:42.59	51.86	7.77	
2025-01-20 06:57:42.79	51.83	7.78	
2025-01-20 06:57:43.00	51.80	7.78	
2025-01-20 06:57:43.20	51.77	7.79	
2025-01-20 06:57:43.40	51.74	7.80	
2025-01-20 06:57:43.61	51.71	7.81	
2025-01-20 06:57:43.81	51.68	7.81	
2025-01-20 06:57:44.01	51.65	7.82	
2025-01-20 06:57:44.21	51.62	7.83	
2025-01-20 06:57:44.42	51.59	7.84	
2025-01-20 06:57:44.62	51.56	7.84	
2025-01-20 06:57:44.82	51.53	7.85	
2025-01-20 06:57:45.03	51.50	7.86	
2025-01-20 06:57:45.23	51.47	7.87	
2025-01-20 06:57:45.43	51.44	7.87	
2025-01-20 06:57:45.63	51.41	7.88	
2025-01-20 06:57:45.84	51.38	7.89	
2025-01-20 06:57:46.04	51.35	7.89	
2025-01-20 06:57:46.24	51.32	7.90	
2025-01-20 06:57:46.45	51.29	7.91	
2025-01-20 06:57:46.65	51.26	7.92	
2025-01-20 06:57:46.85	51.23	7.92	
2025-01-20 06:57:47.06	51.20	7.93	
2025-01-20 06:57:47.26	51.17	7.94	
2025-01-20 06:57:47.46	51.14	7.95	
2025-01-20 06:57:47.66	51.11	7.95	
2025-01-20 06:57:47.87	51.07	7.96	
2025-01-20 06:57:48.07	51.04	7.97	
2025-01-20 06:57:48.27	51.01	7.97	
2025-01-20 06:57:48.48	50.98	7.98	
2025-01-20 06:57:48.68	50.95	7.99	
2025-01-20 06:57:48.88	50.92	8.00	
2025-01-20 06:57:49.08	50.89	8.00	
2025-01-20 06:57:49.29	50.86	8.01	
2025-01-20 06:57:49.49	50.83	8.02	
2025-01-20 06:57:49.69	50.80	8.03	
2025-01-20 06:57:49.90	50.77	8.03	
2025-01-20 06:57:50.10	50.74	8.04	
2025-01-20 06:57:50.30	50.71	8.05	
2025-01-20 06:57:50.51	50.68	8.05	
2025-01-20 06:57:50.71	50.65	8.06	
2025-01-20 06:57:50.91	50.62	8.07	
2025-01-20 06:57:51.11	50.59	8.08	
2025-01-20 06:57:51.32	50.56	8.08	
2025-01-20 06:57:51.52	50.53	8.09	
2025-01-20 06:57:51.72	50.50	8.10	
2025-01-20 06:57:51.93	50.46	8.10	
2025-01-20 06:57:52.13	50.43	8.11	
2025-01-20 06:57:52.33	50.40	8.12	
2025-01-20 06:57:52.53	50.37	8.13	
2025-01-20 06:57:52.74	50.34	8.13	
2025-01-20 06:57:52.94	50.31	8.14	
2025-01-20 06:57:53.14	50.28	8.15	
2025-01-20 06:57:53.35	50.25	8.15	
2025-01-20 06:57:53.55	50.22	8.16	
2025-01-20 06:57:53.75	50.19	8.17	
2025-01-20 06:57:53.96	50.16	8.18	
2025-01-20 06:57:54.16	50.13	8.18	
2025-01-20 06:57:54.36	50.10	8.19	
2025-01-20 06:57:54.56	50.07	8.20	
2025-01-20 06:57:54.77	50.03	8.20	
2025-01-20 06:57:54.97	50.00	8.21	
2025-01-20 06:57:55.17	49.97	8.22	
2025-01-20 06:57:55.38	49.94	8.23	
2025-01-20 06:57:55.58	49.91	8.23	
2025-01-20 06:57:55.78	49.88	8.24	
2025-01-20 06:57:55.99	49.85	8.25	
2025-01-20 06:57:56.19	49.82	8.25	
2025-01-20 06:57:56.39	49.79	8.26	
2025-01-20 06:57:56.59	49.76	8.27	
2025-01-20 06:57:56.80	49.73	8.27	
2025-01-20 06:57:57.00	49.70	8.28	
2025-01-20 06:57:57.20	49.66	8.29	
2025-01-20 06:57:57.41	49.63	8.30	
2025-01-20 06:57:57.61	49.60	8.30	
2025-01-20 06:57:57.81	49.57	8.31	
2025-01-20 06:57:58.01	49.54	8.32	
2025-01-20 06:57:58.22	49.51	8.32	
2025-01-20 06:57:58.42	49.48	8.33	
2025-01-20 06:57:58.62	49.45	8.34	
2025-01-20 06:57:58.83	49.41	8.34	
2025-01-20 06:57:59.03	49.38	8.35	
2025-01-20 06:57:59.23	49.35	8.36	
2025-01-20 06:57:59.44	49.32	8.37	
2025-01-20 06:57:59.64	49.29	8.37	
2025-01-20 06:57:59.84	49.26	8.38	
2025-01-20 06:58:00.04	49.23	8.39	
2025-01-20 06:58:00.25	49.20	8.39	
2025-01-20 06:58:00.45	49.17	8.40	
2025-01-20 06:58:00.65	49.13	8.41	
2025-01-20 06:58:00.86	49.10	8.41	
2025-01-20 06:58:01.06	49.07	8.42	
2025-01-20 06:58:01.26	49.04	8.43	
2025-01-20 06:58:01.47	49.01	8.43	
2025-01-20 06:58:01.67	48.98	8.44	
2025-01-20 06:58:01.87	48.95	8.45	
2025-01-20 06:58:02.07	48.92	8.45	
2025-01-20 06:58:02.28	48.88	8.46	
2025-01-20 06:58:02.48	48.85	8.47	
2025-01-20 06:58:02.68	48.82	8.48	
2025-01-20 06:58:02.89	48.79	8.48	
2025-01-20 06:58:03.09	48.76	8.49	
2025-01-20 06:58:03.29	48.73	8.50	
2025-01-20 06:58:03.49	48.70	8.50	
2025-01-20 06:58:03.70	48.66	8.51	
2025-01-20 06:58:03.90	48.63	8.52	
2025-01-20 06:58:04.10	48.60	8.52	
2025-01-20 06:58:04.31	48.57	8.53	
2025-01-20 06:58:04.51	48.54	8.54	
2025-01-20 06:58:04.71	48.51	8.54	
2025-01-20 06:58:04.92	48.47	8.55	
2025-01-20 06:58:05.12	48.44	8.56	
2025-01-20 06:58:05.32	48.41	8.56	
2025-01-20 06:58:05.52	48.38	8.57	
2025-01-20 06:58:05.73	48.35	8.58	
2025-01-20 06:58:05.93	48.32	8.58	
2025-01-20 06:58:06.13	48.28	8.59	
2025-01-20 06:58:06.34	48.25	8.60	
2025-01-20 06:58:06.54	48.22	8.60	
2025-01-20 06:58:06.74	48.19	8.61	
2025-01-20 06:58:06.95	48.16	8.62	
2025-01-20 06:58:07.15	48.13	8.62	
2025-01-20 06:58:07.35	48.09	8.63	
2025-01-20 06:58:07.55	48.06	8.64	
2025-01-20 06:58:07.76	48.03	8.64	
2025-01-20 06:58:07.96	48.00	8.65	
2025-01-20 06:58:08.16	47.97	8.66	
2025-01-20 06:58:08.37	47.93	8.66	
2025-01-20 06:58:08.57	47.90	8.67	
2025-01-20 06:58:08.77	47.87	8.68	
2025-01-20 06:58:08.97	47.84	8.68	
2025-01-20 06:58:09.18	47.81	8.69	
2025-01-20 06:58:09.38	47.78	8.70	
2025-01-20 06:58:09.58	47.74	8.70	
2025-01-20 06:58:09.79	47.71	8.71	
2025-01-20 06:58:09.99	47.68	8.72	
2025-01-20 06:58:10.19	47.65	8.72	
2025-01-20 06:58:10.40	47.62	8.73	
2025-01-20 06:58:10.60	47.58	8.74	
2025-01-20 06:58:10.80	47.55	8.74	
2025-01-20 06:58:11.00	47.52	8.75	
2025-01-20 06:58:11.21	47.49	8.76	
2025-01-20 06:58:11.41	47.46	8.76	
2025-01-20 06:58:11.61	47.42	8.77	
2025-01-20 06:58:11.82	47.39	8.78	
2025-01-20 06:58:12.02	47.36	8.78	
2025-01-20 06:58:12.22	47.33	8.79	
2025-01-20 06:58:12.42	47.30	8.80	
2025-01-20 06:58:12.63	47.26	8.80	
2025-01-20 06:58:12.83	47.23	8.81	
2025-01-20 06:58:13.03	47.20	8.82	
2025-01-20 06:58:13.24	47.17	8.82	
2025-01-20 06:58:13.44	47.13	8.83	
2025-01-20 06:58:13.64	47.10	8.84	
2025-01-20 06:58:13.85	47.07	8.84	
2025-01-20 06:58:14.05	47.04	8.85	
2025-01-20 06:58:14.25	47.01	8.85	
2025-01-20 06:58:14.45	46.97	8.86	
2025-01-20 06:58:14.66	46.94	8.87	
2025-01-20 06:58:14.86	46.91	8.87	
2025-01-20 06:58:15.06	46.88	8.88	
2025-01-20 06:58:15.27	46.84	8.89	
2025-01-20 06:58:15.47	46.81	8.89	
2025-01-20 06:58:15.67	46.78	8.90	
2025-01-20 06:58:15.88	46.75	8.91	
2025-01-20 06:58:16.08	46.71	8.91	
2025-01-20 06:58:16.28	46.68	8.92	
2025-01-20 06:58:16.48	46.65	8.93	
2025-01-20 06:58:16.69	46.62	8.93	
2025-01-20 06:58:16.89	46.58	8.94	
2025-01-20 06:58:17.09	46.55	8.94	
2025-01-20 06:58:17.30	46.52	8.95	
2025-01-20 06:58:17.50	46.49	8.96	
2025-01-20 06:58:17.70	46.46	8.96	
2025-01-20 06:58:17.90	46.42	8.97	
2025-01-20 06:58:18.11	46.39	8.98	
2025-01-20 06:58:18.31	46.36	8.98	
2025-01-20 06:58:18.51	46.33	8.99	
2025-01-20 06:58:18.72	46.29	9.00	
2025-01-20 06:58:18.92	46.26	9.00	
2025-01-20 06:58:19.12	46.23	9.01	
2025-01-20 06:58:19.33	46.19	9.01	
2025-01-20 06:58:19.53	46.16	9.02	
2025-01-20 06:58:19.73	46.13	9.03	
2025-01-20 06:58:19.93	46.10	9.03	
2025-01-20 06:58:20.14	46.06	9.04	
2025-01-20 06:58:20.34	46.03	9.05	
2025-01-20 06:58:20.54	46.00	9.05	
2025-01-20 06:58:20.75	45.96	9.06	
2025-01-20 06:58:20.95	45.93	9.06	
2025-01-20 06:58:21.15	45.90	9.07	
2025-01-20 06:58:21.35	45.87	9.08	
2025-01-20 06:58:21.56	45.83	9.08	
2025-01-20 06:58:21.76	45.80	9.09	
2025-01-20 06:58:21.96	45.77	9.09	
2025-01-20 06:58:22.17	45.74	9.10	
2025-01-20 06:58:22.37	45.70	9.11	
2025-01-20 06:58:22.57	45.67	9.11	
2025-01-20 06:58:22.78	45.64	9.12	
2025-01-20 06:58:22.98	45.60	9.13	
2025-01-20 06:58:23.18	45.57	9.13	
2025-01-20 06:58:23.38	45.54	9.14	
2025-01-20 06:58:23.59	45.51	9.14	
2025-01-20 06:58:23.79	45.47	9.15	
2025-01-20 06:58:23.99	45.44	9.16	
2025-01-20 06:58:24.20	45.41	9.16	
2025-01-20 06:58:24.40	45.37	9.17	
2025-01-20 06:58:24.60	45.34	9.17	
2025-01-20 06:58:24.81	45.31	9.18	
2025-01-20 06:58:25.01	45.27	9.19	
2025-01-20 06:58:25.21	45.24	9.19	
2025-01-20 06:58:25.41	45.21	9.20	
2025-01-20 06:58:25.62	45.18	9.21	
2025-01-20 06:58:25.82	45.14	9.21	
2025-01-20 06:58:26.02	45.11	9.22	
2025-01-20 06:58:26.23	45.08	9.22	
2025-01-20 06:58:26.43	45.04	9.23	
2025-01-20 06:58:26.63	45.01	9.24	
2025-01-20 06:58:26.83	44.98	9.24	
2025-01-20 06:58:27.04	44.94	9.25	
2025-01-20 06:58:27.24	44.91	9.25	
2025-01-20 06:58:27.44	44.88	9.26	
2025-01-20 06:58:27.65	44.84	9.27	
2025-01-20 06:58:27.85	44.81	9.27	
2025-01-20 06:58:28.05	44.78	9.28	
2025-01-20 06:58:28.26	44.74	9.28	
2025-01-20 06:58:28.46	44.71	9.29	
2025-01-20 06:58:28.66	44.68	9.30	
2025-01-20 06:58:28.86	44.65	9.30	
2025-01-20 06:58:29.07	44.61	9.31	
2025-01-20 06:58:29.27	44.58	9.31	
2025-01-20 06:58:29.47	44.55	9.32	
2025-01-20 06:58:29.68	44.51	9.32	
2025-01-20 06:58:29.88	44.48	9.33	
2025-01-20 06:58:30.08	44.45	9.34	
2025-01-20 06:58:30.29	44.41	9.34	
2025-01-20 06:58:30.49	44.38	9.35	
2025-01-20 06:58:30.69	44.35	9.35	
2025-01-20 06:58:30.89	44.31	9.36	
2025-01-20 06:58:31.10	44.28	9.37	
2025-01-20 06:58:31.30	44.24	9.37	
2025-01-20 06:58:31.50	44.21	9.38	
2025-01-20 06:58:31.71	44.18	9.38	
2025-01-20 06:58:31.91	44.14	9.39	
2025-01-20 06:58:32.11	44.11	9.39	
2025-01-20 06:58:32.31	44.08	9.40	
2025-01-20 06:58:32.52	44.04	9.41	
2025-01-20 06:58:32.72	44.01	9.41	
2025-01-20 06:58:32.92	43.98	9.42	
2025-01-20 06:58:33.13	43.94	9.42	
2025-01-20 06:58:33.33	43.91	9.43	
2025-01-20 06:58:33.53	43.88	9.44	
2025-01-20 06:58:33.74	43.84	9.44	
2025-01-20 06:58:33.94	43.81	9.45	
2025-01-20 06:58:34.14	43.78	9.45	
2025-01-20 06:58:34.34	43.74	9.46	
2025-01-20 06:58:34.55	43.71	9.46	
2025-01-20 06:58:34.75	43.67	9.47	
2025-01-20 06:58:34.95	43.64	9.48	
2025-01-20 06:58:35.16	43.61	9.48	
2025-01-20 06:58:35.36	43.57	9.49	
2025-01-20 06:58:35.56	43.54	9.49	
2025-01-20 06:58:35.76	43.51	9.50	
2025-01-20 06:58:35.97	43.47	9.50	
2025-01-20 06:58:36.17	43.44	9.51	
2025-01-20 06:58:36.37	43.41	9.51	
2025-01-20 06:58:36.58	43.37	9.52	
2025-01-20 06:58:36.78	43.34	9.53	
2025-01-20 06:58:36.98	43.30	9.53	
2025-01-20 06:58:37.19	43.27	9.54	
2025-01-20 06:58:37.39	43.24	9.54	
2025-01-20 06:58:37.59	43.20	9.55	
2025-01-20 06:58:37.79	43.17	9.55	
2025-01-20 06:58:38.00	43.13	9.56	
2025-01-20 06:58:38.20	43.10	9.57	
2025-01-20 06:58:38.40	43.07	9.57	
2025-01-20 06:58:38.61	43.03	9.58	
2025-01-20 06:58:38.81	43.00	9.58	
2025-01-20 06:58:39.01	42.96	9.59	
2025-01-20 06:58:39.22	42.93	9.59	
2025-01-20 06:58:39.42	42.90	9.60	
2025-01-20 06:58:39.62	42.86	9.60	
2025-01-20 06:58:39.82	42.83	9.61	
2025-01-20 06:58:40.03	42.79	9.61	
2025-01-20 06:58:40.23	42.76	9.62	
2025-01-20 06:58:40.43	42.73	9.63	
2025-01-20 06:58:40.64	42.69	9.63	
2025-01-20 06:58:40.84	42.66	9.64	
2025-01-20 06:58:41.04	42.62	9.64	
2025-01-20 06:58:41.24	42.59	9.65	
2025-01-20 06:58:41.45	42.56	9.65	
2025-01-20 06:58:41.65	42.52	9.66	
2025-01-20 06:58:41.85	42.49	9.66	
2025-01-20 06:58:42.06	42.45	9.67	
2025-01-20 06:58:42.26	42.42	9.67	
2025-01-20 06:58:42.46	42.39	9.68	
2025-01-20 06:58:42.67	42.35	9.69	
2025-01-20 06:58:42.87	42.32	9.69	
2025-01-20 06:58:43.07	42.28	9.70	
2025-01-20 06:58:43.27	42.25	9.70	
2025-01-20 06:58:43.48	42.21	9.71	
2025-01-20 06:58:43.68	42.18	9.71	
2025-01-20 06:58:43.88	42.15	9.72	
2025-01-20 06:58:44.09	42.11	9.72	
2025-01-20 06:58:44.29	42.08	9.73	
2025-01-20 06:58:44.49	42.04	9.73	
2025-01-20 06:58:44.69	42.01	9.74	
2025-01-20 06:58:44.90	41.97	9.74	
2025-01-20 06:58:45.10	41.94	9.75	
2025-01-20 06:58:45.30	41.91	9.75	
2025-01-20 06:58:45.51	41.87	9.76	
2025-01-20 06:58:45.71	41.84	9.76	
2025-01-20 06:58:45.91	41.80	9.77	
2025-01-20 06:58:46.12	41.77	9.78	
2025-01-20 06:58:46.32	41.73	9.78	
2025-01-20 06:58:46.52	41.70	9.79	
2025-01-20 06:58:46.72	41.67	9.79	
2025-01-20 06:58:46.93	41.63	9.80	
2025-01-20 06:58:47.13	41.60	9.80	
2025-01-20 06:58:47.33	41.56	9.81	
2025-01-20 06:58:47.54	41.53	9.81	
2025-01-20 06:58:47.74	41.49	9.82	
2025-01-20 06:58:47.94	41.46	9.82	
2025-01-20 06:58:48.15	41.42	9.83	
2025-01-20 06:58:48.35	41.39	9.83	
2025-01-20 06:58:48.55	41.35	9.84	
2025-01-20 06:58:48.75	41.32	9.84	
2025-01-20 06:58:48.96	41.29	9.85	
2025-01-20 06:58:49.16	41.25	9.85	
2025-01-20 06:58:49.36	41.22	9.86	
2025-01-20 06:58:49.57	41.18	9.86	
2025-01-20 06:58:49.77	41.15	9.87	
2025-01-20 06:58:49.97	41.11	9.87	
2025-01-20 06:58:50.17	41.08	9.88	
2025-01-20 06:58:50.38	41.04	9.88	
2025-01-20 06:58:50.58	41.01	9.89	
2025-01-20 06:58:50.78	40.97	9.89	
2025-01-20 06:58:50.99	40.94	9.90	
2025-01-20 06:58:51.19	40.90	9.90	
2025-01-20 06:58:51.39	40.87	9.91	
2025-01-20 06:58:51.60	40.83	9.91	
2025-01-20 06:58:51.80	40.80	9.92	
2025-01-20 06:58:52.00	40.77	9.92	
2025-01-20 06:58:52.20	40.73	9.93	
2025-01-20 06:58:52.41	40.70	9.93	
2025-01-20 06:58:52.61	40.66	9.94	
2025-01-20 06:58:52.81	40.63	9.94	
2025-01-20 06:58:53.02	40.59	9.95	
2025-01-20 06:58:53.22	40.56	9.95	
2025-01-20 06:58:53.42	40.52	9.96	
2025-01-20 06:58:53.63	40.49	9.96	
2025-01-20 06:58:53.83	40.45	9.97	
2025-01-20 06:58:54.03	40.42	9.97	
2025-01-20 06:58:54.23	40.38	9.98	
2025-01-20 06:58:54.44	40.35	9.98	
2025-01-20 06:58:54.64	40.31	9.99	
2025-01-20 06:58:54.84	40.28	9.99	
2025-01-20 06:58:55.05	40.24	10.00	
2025-01-20 06:58:55.25	40.21	10.00	
2025-01-20 06:58:55.45	40.17	10.01	
2025-01-20 06:58:55.65	40.14	10.01	
2025-01-20 06:58:55.86	40.10	10.02	
2025-01-20 06:58:56.06	40.07	10.02	
2025-01-20 06:58:56.26	40.03	10.03	
2025-01-20 06:58:56.47	40.00	10.03	
2025-01-20 06:58:56.67	39.96	10.03	
2025-01-20 06:58:56.87	39.93	10.04	
2025-01-20 06:58:57.08	39.89	10.04	
2025-01-20 06:58:57.28	39.86	10.05	
2025-01-20 06:58:57.48	39.82	10.05	
2025-01-20 06:58:57.68	39.79	10.06	
2025-01-20 06:58:57.89	39.75	10.06	
2025-01-20 06:58:58.09	39.72	10.07	
2025-01-20 06:58:58.29	39.68	10.07	
2025-01-20 06:58:58.50	39.65	10.08	
2025-01-20 06:58:58.70	39.61	10.08	
2025-01-20 06:58:58.90	39.58	10.09	
2025-01-20 06:58:59.10	39.54	10.09	
2025-01-20 06:58:59.31	39.51	10.10	
2025-01-20 06:58:59.51	39.47	10.10	
2025-01-20 06:58:59.71	39.44	10.10	
2025-01-20 06:58:59.92	39.40	10.11	
2025-01-20 06:59:00.12	39.37	10.11	
2025-01-20 06:59:00.32	39.33	10.12	
2025-01-20 06:59:00.53	39.30	10.12	
2025-01-20 06:59:00.73	39.26	10.13	
2025-01-20 06:59:00.93	39.23	10.13	
2025-01-20 06:59:01.13	39.19	10.14	
2025-01-20 06:59:01.34	39.15	10.14	
2025-01-20 06:59:01.54	39.12	10.15	
2025-01-20 06:59:01.74	39.09	10.15	
2025-01-20 06:59:01.95	39.05	10.16	
2025-01-20 06:59:02.15	39.01	10.16	
2025-01-20 06:59:02.35	38.98	10.16	
2025-01-20 06:59:02.56	38.94	10.17	
2025-01-20 06:59:02.76	38.91	10.17	
2025-01-20 06:59:02.96	38.87	10.18	
2025-01-20 06:59:03.16	38.84	10.18	
2025-01-20 06:59:03.37	38.80	10.19	
2025-01-20 06:59:03.57	38.77	10.19	
2025-01-20 06:59:03.77	38.73	10.20	
2025-01-20 06:59:03.98	38.70	10.20	
2025-01-20 06:59:04.18	38.66	10.20	
2025-01-20 06:59:04.38	38.63	10.21	
2025-01-20 06:59:04.58	38.59	10.21	
2025-01-20 06:59:04.79	38.55	10.22	
2025-01-20 06:59:04.99	38.52	10.22	
2025-01-20 06:59:05.19	38.48	10.23	
2025-01-20 06:59:05.40	38.45	10.23	
2025-01-20 06:59:05.60	38.41	10.23	
2025-01-20 06:59:05.80	38.38	10.24	
2025-01-20 06:59:06.01	38.34	10.24	
2025-01-20 06:59:06.21	38.31	10.25	
2025-01-20 06:59:06.41	38.27	10.25	
2025-01-20 06:59:06.61	38.24	10.26	
2025-01-20 06:59:06.82	38.20	10.26	
2025-01-20 06:59:07.02	38.16	10.26	
2025-01-20 06:59:07.22	38.13	10.27	
2025-01-20 06:59:07.43	38.09	10.27	
2025-01-20 06:59:07.63	38.06	10.28	
2025-01-20 06:59:07.83	38.02	10.28	
2025-01-20 06:59:08.03	37.99	10.29	
2025-01-20 06:59:08.24	37.95	10.29	
2025-01-20 06:59:08.44	37.91	10.29	
2025-01-20 06:59:08.64	37.88	10.30	
2025-01-20 06:59:08.85	37.84	10.30	
2025-01-20 06:59:09.05	37.81	10.31	
2025-01-20 06:59:09.25	37.77	10.31	
2025-01-20 06:59:09.46	37.74	10.32	
2025-01-20 06:59:09.66	37.70	10.32	
2025-01-20 06:59:09.86	37.66	10.32	
2025-01-20 06:59:10.06	37.63	10.33	
2025-01-20 06:59:10.27	37.59	10.33	
2025-01-20 06:59:10.47	37.56	10.34	
2025-01-20 06:59:10.67	37.52	10.34	
2025-01-20 06:59:10.88	37.49	10.34	
2025-01-20 06:59:11.08	37.45	10.35	
2025-01-20 06:59:11.28	37.41	10.35	
2025-01-20 06:59:11.49	37.38	10.36	
2025-01-20 06:59:11.69	37.34	10.36	
2025-01-20 06:59:11.89	37.31	10.36	
2025-01-20 06:59:12.09	37.27	10.37	
2025-01-20 06:59:12.30	37.23	10.37	
2025-01-20 06:59:12.50	37.20	10.38	
2025-01-20 06:59:12.70	37.16	10.38	
2025-01-20 06:59:12.91	37.13	10.38	
2025-01-20 06:59:13.11	37.09	10.39	
2025-01-20 06:59:13.31	37.06	10.39	
2025-01-20 06:59:13.51	37.02	10.40	
2025-01-20 06:59:13.72	36.98	10.40	
2025-01-20 06:59:13.92	36.95	10.40	
2025-01-20 06:59:14.12	36.91	10.41	
2025-01-20 06:59:14.33	36.88	10.41	
2025-01-20 06:59:14.53	36.84	10.42	
2025-01-20 06:59:14.73	36.80	10.42	
2025-01-20 06:59:14.94	36.77	10.42	
2025-01-20 06:59:15.14	36.73	10.43	
2025-01-20 06:59:15.34	36.70	10.43	
2025-01-20 06:59:15.54	36.66	10.43	
2025-01-20 06:59:15.75	36.62	10.44	
2025-01-20 06:59:15.95	36.59	10.44	
2025-01-20 06:59:16.15	36.55	10.45	
2025-01-20 06:59:16.36	36.52	10.45	
2025-01-20 06:59:16.56	36.48	10.45	
2025-01-20 06:59:16.76	36.44	10.46	
2025-01-20 06:59:16.97	36.41	10.46	
2025-01-20 06:59:17.17	36.37	10.46	
2025-01-20 06:59:17.37	36.34	10.47	
2025-01-20 06:59:17.57	36.30	10.47	
2025-01-20 06:59:17.78	36.26	10.48	
2025-01-20 06:59:17.98	36.23	10.48	
2025-01-20 06:59:18.18	36.19	10.48	
2025-01-20 06:59:18.39	36.15	10.49	
2025-01-20 06:59:18.59	36.12	10.49	
2025-01-20 06:59:18.79	36.08	10.49	
2025-01-20 06:59:18.99	36.05	10.50	
2025-01-20 06:59:19.20	36.01	10.50	
2025-01-20 06:59:19.40	35.98	10.51	
2025-01-20 06:59:19.60	35.94	10.51	
2025-01-20 06:59:19.81	35.90	10.51	
2025-01-20 06:59:20.01	35.87	10.52	
2025-01-20 06:59:20.21	35.83	10.52	
2025-01-20 06:59:20.42	35.79	10.52	
2025-01-20 06:59:20.62	35.76	10.53	
2025-01-20 06:59:20.82	35.72	10.53	
2025-01-20 06:59:21.02	35.69	10.53	
2025-01-20 06:59:21.23	35.65	10.54	
2025-01-20 06:59:21.43	35.61	10.54	
2025-01-20 06:59:21.63	35.58	10.54	
2025-01-20 06:59:21.84	35.54	10.55	
2025-01-20 06:59:22.04	35.50	10.55	
2025-01-20 06:59:22.24	35.47	10.56	
2025-01-20 06:59:22.44	35.43	10.56	
2025-01-20 06:59:22.65	35.39	10.56	
2025-01-20 06:59:22.85	35.36	10.57	
2025-01-20 06:59:23.05	35.32	10.57	
2025-01-20 06:59:23.26	35.29	10.57	
2025-01-20 06:59:23.46	35.25	10.58	
2025-01-20 06:59:23.66	35.21	10.58	
2025-01-20 06:59:23.87	35.18	10.58	
2025-01-20 06:59:24.07	35.14	10.59	
2025-01-20 06:59:24.27	35.10	10.59	
2025-01-20 06:59:24.47	35.07	10.59	
2025-01-20 06:59:24.68	35.03	10.60	
2025-01-20 06:59:24.88	35.00	10.60	
2025-01-20 06:59:25.08	34.96	10.60	
2025-01-20 06:59:25.29	34.92	10.61	
2025-01-20 06:59:25.49	34.89	10.61	
2025-01-20 06:59:25.69	34.85	10.61	
2025-01-20 06:59:25.90	34.81	10.62	
2025-01-20 06:59:26.10	34.78	10.62	
2025-01-20 06:59:26.30	34.74	10.62	
2025-01-20 06:59:26.50	34.70	10.63	
2025-01-20 06:59:26.71	34.67	10.63	
2025-01-20 06:59:26.91	34.63	10.63	
2025-01-20 06:59:27.11	34.59	10.64	
2025-01-20 06:59:27.32	34.56	10.64	
2025-01-20 06:59:27.52	34.52	10.64	
2025-01-20 06:59:27.72	34.49	10.65	
2025-01-20 06:59:27.92	34.45	10.65	
2025-01-20 06:59:28.13	34.41	10.65	
2025-01-20 06:59:28.33	34.38	10.66	
2025-01-20 06:59:28.53	34.34	10.66	
2025-01-20 06:59:28.74	34.30	10.66	
2025-01-20 06:59:28.94	34.27	10.66	
2025-01-20 06:59:29.14	34.23	10.67	
2025-01-20 06:59:29.35	34.19	10.67	
2025-01-20 06:59:29.55	34.16	10.67	
2025-01-20 06:59:29.75	34.12	10.68	
2025-01-20 06:59:29.95	34.08	10.68	
2025-01-20 06:59:30.16	34.05	10.68	
2025-01-20 06:59:30.36	34.01	10.69	
2025-01-20 06:59:30.56	33.97	10.69	
2025-01-20 06:59:30.77	33.94	10.69	
2025-01-20 06:59:30.97	33.90	10.70	
2025-01-20 06:59:31.17	33.86	10.70	
2025-01-20 06:59:31.37	33.83	10.70	
2025-01-20 06:59:31.58	33.79	10.70	
2025-01-20 06:59:31.78	33.75	10.71	
2025-01-20 06:59:31.98	33.72	10.71	
2025-01-20 06:59:32.19	33.68	10.71	
2025-01-20 06:59:32.39	33.64	10.72	
2025-01-20 06:59:32.59	33.61	10.72	
2025-01-20 06:59:32.80	33.57	10.72	
2025-01-20 06:59:33.00	33.53	10.73	
2025-01-20 06:59:33.20	33.50	10.73	
2025-01-20 06:59:33.40	33.46	10.73	
2025-01-20 06:59:33.61	33.42	10.73	
2025-01-20 06:59:33.81	33.39	10.74	
2025-01-20 06:59:34.01	33.35	10.74	
2025-01-20 06:59:34.22	33.31	10.74	
2025-01-20 06:59:34.42	33.28	10.75	
2025-01-20 06:59:34.62	33.24	10.75	
2025-01-20 06:59:34.83	33.20	10.75	
2025-01-20 06:59:35.03	33.16	10.75	
2025-01-20 06:59:35.23	33.13	10.76	
2025-01-20 06:59:35.43	33.09	10.76	
2025-01-20 06:59:35.64	33.05	10.76	
2025-01-20 06:59:35.84	33.02	10.77	
2025-01-20 06:59:36.04	32.98	10.77	
2025-01-20 06:59:36.25	32.94	10.77	
2025-01-20 06:59:36.45	32.91	10.77	
2025-01-20 06:59:36.65	32.87	10.78	
2025-01-20 06:59:36.85	32.83	10.78	
2025-01-20 06:59:37.06	32.80	10.78	
2025-01-20 06:59:37.26	32.76	10.78	
2025-01-20 06:59:37.46	32.72	10.79	
2025-01-20 06:59:37.67	32.69	10.79	
2025-01-20 06:59:37.87	32.65	10.79	
2025-01-20 06:59:38.07	32.61	10.79	
2025-01-20 06:59:38.28	32.57	10.80	
2025-01-20 06:59:38.48	32.54	10.80	
2025-01-20 06:59:38.68	32.50	10.80	
2025-01-20 06:59:38.88	32.47	10.81	
2025-01-20 06:59:39.09	32.43	10.81	
2025-01-20 06:59:39.29	32.39	10.81	
2025-01-20 06:59:39.49	32.35	10.81	
2025-01-20 06:59:39.70	32.32	10.82	
2025-01-20 06:59:39.90	32.28	10.82	
2025-01-20 06:59:40.10	32.24	10.82	
2025-01-20 06:59:40.31	32.21	10.82	
2025-01-20 06:59:40.51	32.17	10.83	
2025-01-20 06:59:40.71	32.13	10.83	
2025-01-20 06:59:40.91	32.10	10.83	
2025-01-20 06:59:41.12	32.06	10.83	
2025-01-20 06:59:41.32	32.02	10.84	
2025-01-20 06:59:41.52	31.98	10.84	
2025-01-20 06:59:41.73	31.95	10.84	
2025-01-20 06:59:41.93	31.91	10.84	
2025-01-20 06:59:42.13	31.87	10.85	
2025-01-20 06:59:42.33	31.84	10.85	
2025-01-20 06:59:42.54	31.80	10.85	
2025-01-20 06:59:42.74	31.76	10.85	
2025-01-20 06:59:42.94	31.73	10.85	
2025-01-20 06:59:43.15	31.69	10.86	
2025-01-20 06:59:43.35	31.65	10.86	
2025-01-20 06:59:43.55	31.61	10.86	
2025-01-20 06:59:43.76	31.58	10.86	
2025-01-20 06:59:43.96	31.54	10.87	
2025-01-20 06:59:44.16	31.50	10.87	
2025-01-20 06:59:44.36	31.47	10.87	
2025-01-20 06:59:44.57	31.43	10.87	
2025-01-20 06:59:44.77	31.39	10.88	
2025-01-20 06:59:44.97	31.36	10.88	
2025-01-20 06:59:45.18	31.32	10.88	
2025-01-20 06:59:45.38	31.28	10.88	
2025-01-20 06:59:45.58	31.24	10.88	
2025-01-20 06:59:45.78	31.21	10.89	
2025-01-20 06:59:45.99	31.17	10.89	
2025-01-20 06:59:46.19	31.13	10.89	
2025-01-20 06:59:46.39	31.10	10.89	
2025-01-20 06:59:46.60	31.06	10.90	
2025-01-20 06:59:46.80	31.02	10.90	
2025-01-20 06:59:47.00	30.98	10.90	
2025-01-20 06:59:47.21	30.95	10.90	
2025-01-20 06:59:47.41	30.91	10.90	
2025-01-20 06:59:47.61	30.87	10.91	
2025-01-20 06:59:47.81	30.84	10.91	
2025-01-20 06:59:48.02	30.80	10.91	
2025-01-20 06:59:48.22	30.76	10.91	
2025-01-20 06:59:48.42	30.72	10.91	
2025-01-20 06:59:48.63	30.69	10.92	
2025-01-20 06:59:48.83	30.65	10.92	
2025-01-20 06:59:49.03	30.61	10.92	
2025-01-20 06:59:49.24	30.57	10.92	
2025-01-20 06:59:49.44	30.54	10.92	
2025-01-20 06:59:49.64	30.50	10.93	
2025-01-20 06:59:49.84	30.46	10.93	
2025-01-20 06:59:50.05	30.42	10.93	
2025-01-20 06:59:50.25	30.39	10.93	
2025-01-20 06:59:50.45	30.35	10.93	
2025-01-20 06:59:50.66	30.31	10.94	
2025-01-20 06:59:50.86	30.28	10.94	
2025-01-20 06:59:51.06	30.24	10.94	
2025-01-20 06:59:51.26	30.20	10.94	
2025-01-20 06:59:51.47	30.16	10.94	
2025-01-20 06:59:51.67	30.13	10.95	
2025-01-20 06:59:51.87	30.09	10.95	
2025-01-20 06:59:52.08	30.05	10.95	
2025-01-20 06:59:52.28	30.02	10.95	
2025-01-20 06:59:52.48	29.98	10.95	
2025-01-20 06:59:52.69	29.94	10.96	
2025-01-20 06:59:52.89	29.90	10.96	
2025-01-20 06:59:53.09	29.87	10.96	
2025-01-20 06:59:53.29	29.83	10.96	
2025-01-20 06:59:53.50	29.79	10.96	
2025-01-20 06:59:53.70	29.75	10.96	
2025-01-20 06:59:53.90	29.72	10.97	
2025-01-20 06:59:54.11	29.68	10.97	
2025-01-20 06:59:54.31	29.64	10.97	
2025-01-20 06:59:54.51	29.61	10.97	
2025-01-20 06:59:54.71	29.57	10.97	
2025-01-20 06:59:54.92	29.53	10.97	
2025-01-20 06:59:55.12	29.49	10.98	
2025-01-20 06:59:55.32	29.46	10.98	
2025-01-20 06:59:55.53	29.42	10.98	
2025-01-20 06:59:55.73	29.38	10.98	
2025-01-20 06:59:55.93	29.34	10.98	
2025-01-20 06:59:56.14	29.31	10.98	
2025-01-20 06:59:56.34	29.27	10.99	
2025-01-20 06:59:56.54	29.23	10.99	
2025-01-20 06:59:56.74	29.19	10.99	
2025-01-20 06:59:56.95	29.16	10.99	
2025-01-20 06:59:57.15	29.12	10.99	
2025-01-20 06:59:57.35	29.08	10.99	
2025-01-20 06:59:57.56	29.04	11.00	
2025-01-20 06:59:57.76	29.01	11.00	
2025-01-20 06:59:57.96	28.97	11.00	
2025-01-20 06:59:58.17	28.93	11.00	
2025-01-20 06:59:58.37	28.89	11.00	
2025-01-20 06:59:58.57	28.86	11.00	
2025-01-20 06:59:58.77	28.82	11.00	
2025-01-20 06:59:58.98	28.78	11.01	
2025-01-20 06:59:59.18	28.75	11.01	
2025-01-20 06:59:59.38	28.71	11.01	
2025-01-20 06:59:59.59	28.67	11.01	
2025-01-20 06:59:59.79	28.63	11.01	
2025-01-20 06:59:59.99	28.60	11.01	
2025-01-20 07:00:00.19	28.56	11.01	
2025-01-20 07:00:00.40	28.52	11.02	
2025-01-20 07:00:00.60	28.48	11.02	
2025-01-20 07:00:00.80	28.45	11.02	
2025-01-20 07:00:01.01	28.41	11.02	
2025-01-20 07:00:01.21	28.37	11.02	
2025-01-20 07:00:01.41	28.33	11.02	
2025-01-20 07:00:01.62	28.29	11.02	
2025-01-20 07:00:01.82	28.26	11.03	
2025-01-20 07:00:02.02	28.22	11.03	
2025-01-20 07:00:02.22	28.18	11.03	
2025-01-20 07:00:02.43	28.15	11.03	
2025-01-20 07:00:02.63	28.11	11.03	
2025-01-20 07:00:02.83	28.07	11.03	
2025-01-20 07:00:03.04	28.03	11.03	
2025-01-20 07:00:03.24	28.00	11.03	
2025-01-20 07:00:03.44	27.96	11.04	
2025-01-20 07:00:03.64	27.92	11.04	
2025-01-20 07:00:03.85	27.88	11.04	
2025-01-20 07:00:04.05	27.85	11.04	
2025-01-20 07:00:04.25	27.81	11.04	
2025-01-20 07:00:04.46	27.77	11.04	
2025-01-20 07:00:04.66	27.73	11.04	
2025-01-20 07:00:04.86	27.70	11.04	
2025-01-20 07:00:05.07	27.66	11.04	
2025-01-20 07:00:05.27	27.62	11.05	
2025-01-20 07:00:05.47	27.58	11.05	
2025-01-20 07:00:05.67	27.55	11.05	
2025-01-20 07:00:05.88	27.51	11.05	
2025-01-20 07:00:06.08	27.47	11.05	
2025-01-20 07:00:06.28	27.43	11.05	
2025-01-20 07:00:06.49	27.39	11.05	
2025-01-20 07:00:06.69	27.36	11.05	
2025-01-20 07:00:06.89	27.32	11.05	
2025-01-20 07:00:07.10	27.28	11.06	
2025-01-20 07:00:07.30	27.24	11.06	
2025-01-20 07:00:07.50	27.21	11.06	
2025-01-20 07:00:07.70	27.17	11.06	
2025-01-20 07:00:07.91	27.13	11.06	
2025-01-20 07:00:08.11	27.09	11.06	
2025-01-20 07:00:08.31	27.06	11.06	
2025-01-20 07:00:08.52	27.02	11.06	
2025-01-20 07:00:08.72	26.98	11.06	
2025-01-20 07:00:08.92	26.95	11.06	
2025-01-20 07:00:09.12	26.91	11.06	
2025-01-20 07:00:09.33	26.87	11.07	
2025-01-20 07:00:09.53	26.83	11.07	
2025-01-20 07:00:09.73	26.80	11.07	
2025-01-20 07:00:09.94	26.76	11.07	
2025-01-20 07:00:10.14	26.72	11.07	
2025-01-20 07:00:10.34	26.68	11.07	
2025-01-20 07:00:10.55	26.64	11.07	
2025-01-20 07:00:10.75	26.61	11.07	
2025-01-20 07:00:10.95	26.57	11.07	
2025-01-20 07:00:11.15	26.53	11.07	
2025-01-20 07:00:11.36	26.49	11.07	
2025-01-20 07:00:11.56	26.46	11.07	
2025-01-20 07:00:11.76	26.42	11.07	
2025-01-20 07:00:11.97	26.38	11.08	
2025-01-20 07:00:12.17	26.34	11.08	
2025-01-20 07:00:12.37	26.31	11.08	
2025-01-20 07:00:12.58	26.27	11.08	
2025-01-20 07:00:12.78	26.23	11.08	
2025-01-20 07:00:12.98	26.19	11.08	
2025-01-20 07:00:13.18	26.16	11.08	
2025-01-20 07:00:13.39	26.12	11.08	
2025-01-20 07:00:13.59	26.08	11.08	
2025-01-20 07:00:13.79	26.04	11.08	
2025-01-20 07:00:14.00	26.00	11.08	
2025-01-20 07:00:14.20	25.97	11.08	
2025-01-20 07:00:14.40	25.93	11.08	
2025-01-20 07:00:14.60	25.89	11.08	
2025-01-20 07:00:14.81	25.85	11.08	
2025-01-20 07:00:15.01	25.82	11.08	
2025-01-20 07:00:15.21	25.78	11.08	
2025-01-20 07:00:15.42	25.74	11.09	
2025-01-20 07:00:15.62	25.70	11.09	
2025-01-20 07:00:15.82	25.67	11.09	
2025-01-20 07:00:16.03	25.63	11.09	
2025-01-20 07:00:16.23	25.59	11.09	
2025-01-20 07:00:16.43	25.55	11.09	
2025-01-20 07:00:16.63	25.52	11.09	
2025-01-20 07:00:16.84	25.48	11.09	
2025-01-20 07:00:17.04	25.44	11.09	
2025-01-20 07:00:17.24	25.40	11.09	
2025-01-20 07:00:17.45	25.36	11.09	
2025-01-20 07:00:17.65	25.33	11.09	
2025-01-20 07:00:17.85	25.29	11.09	
2025-01-20 07:00:18.05	25.25	11.09	
2025-01-20 07:00:18.26	25.21	11.09	
2025-01-20 07:00:18.46	25.18	11.09	
2025-01-20 07:00:18.66	25.14	11.09	
2025-01-20 07:00:18.87	25.10	11.09	
2025-01-20 07:00:19.07	25.06	11.09	
2025-01-20 07:00:19.27	25.03	11.09	
2025-01-20 07:00:19.48	24.99	11.09	
2025-01-20 07:00:19.68	24.95	11.09	
2025-01-20 07:00:19.88	24.91	11.09	
2025-01-20 07:00:20.08	24.88	11.09	
2025-01-20 07:00:20.29	24.84	11.09	
2025-01-20 07:00:20.49	24.80	11.09	
2025-01-20 07:00:20.69	24.76	11.09	
2025-01-20 07:00:20.90	24.72	11.09	
2025-01-20 07:00:21.10	24.69	11.09	
2025-01-20 07:00:21.30	24.65	11.09	
2025-01-20 07:00:21.50	24.61	11.09	
2025-01-20 07:00:21.71	24.57	11.09	
2025-01-20 07:00:21.91	24.54	11.10	
2025-01-20 07:00:22.11	24.50	11.10	
2025-01-20 07:00:22.32	24.46	11.10	
2025-01-20 07:00:22.52	24.42	11.10	
2025-01-20 07:00:22.72	24.39	11.10	
2025-01-20 07:00:22.93	24.35	11.10	
2025-01-20 07:00:23.13	24.31	11.10	
2025-01-20 07:00:23.33	24.27	11.10	
2025-01-20 07:00:23.53	24.24	11.10	
2025-01-20 07:00:23.74	24.20	11.10	
2025-01-20 07:00:23.94	24.16	11.10	
2025-01-20 07:00:24.14	24.12	11.10	
2025-01-20 07:00:24.35	24.08	11.10	
2025-01-20 07:00:24.55	24.05	11.10	
2025-01-20 07:00:24.75	24.01	11.10	
2025-01-20 07:00:24.96	23.97	11.10	
2025-01-20 07:00:25.16	23.93	11.10	
2025-01-20 07:00:25.36	23.90	11.10	
2025-01-20 07:00:25.56	23.86	11.10	
2025-01-20 07:00:25.77	23.82	11.10	
2025-01-20 07:00:25.97	23.78	11.09	
2025-01-20 07:00:26.17	23.75	11.09	
2025-01-20 07:00:26.38	23.71	11.09	
2025-01-20 07:00:26.58	23.67	11.09	
2025-01-20 07:00:26.78	23.63	11.09	
2025-01-20 07:00:26.98	23.60	11.09	
2025-01-20 07:00:27.19	23.56	11.09	
2025-01-20 07:00:27.39	23.52	11.09	
2025-01-20 07:00:27.59	23.48	11.09	
2025-01-20 07:00:27.80	23.44	11.09	
2025-01-20 07:00:28.00	23.41	11.09	
2025-01-20 07:00:28.20	23.37	11.09	
2025-01-20 07:00:28.41	23.33	11.09	
2025-01-20 07:00:28.61	23.29	11.09	
2025-01-20 07:00:28.81	23.26	11.09	
2025-01-20 07:00:29.01	23.22	11.09	
2025-01-20 07:00:29.22	23.18	11.09	
2025-01-20 07:00:29.42	23.14	11.09	
2025-01-20 07:00:29.62	23.11	11.09	
2025-01-20 07:00:29.83	23.07	11.09	
2025-01-20 07:00:30.03	23.03	11.09	
2025-01-20 07:00:30.23	22.99	11.09	
2025-01-20 07:00:30.43	22.96	11.09	
2025-01-20 07:00:30.64	22.92	11.09	
2025-01-20 07:00:30.84	22.88	11.09	
2025-01-20 07:00:31.04	22.84	11.09	
2025-01-20 07:00:31.25	22.80	11.09	
2025-01-20 07:00:31.45	22.77	11.09	
2025-01-20 07:00:31.65	22.73	11.09	
2025-01-20 07:00:31.86	22.69	11.09	
2025-01-20 07:00:32.06	22.65	11.09	
2025-01-20 07:00:32.26	22.62	11.09	
2025-01-20 07:00:32.46	22.58	11.08	
2025-01-20 07:00:32.67	22.54	11.08	
2025-01-20 07:00:32.87	22.50	11.08	
2025-01-20 07:00:33.07	22.47	11.08	
2025-01-20 07:00:33.28	22.43	11.08	
2025-01-20 07:00:33.48	22.39	11.08	
2025-01-20 07:00:33.68	22.35	11.08	
2025-01-20 07:00:33.89	22.32	11.08	
2025-01-20 07:00:34.09	22.28	11.08	
2025-01-20 07:00:34.29	22.24	11.08	
2025-01-20 07:00:34.49	22.20	11.08	
2025-01-20 07:00:34.70	22.17	11.08	
2025-01-20 07:00:34.90	22.13	11.08	
2025-01-20 07:00:35.10	22.09	11.08	
2025-01-20 07:00:35.31	22.05	11.08	
2025-01-20 07:00:35.51	22.02	11.08	
2025-01-20 07:00:35.71	21.98	11.07	
2025-01-20 07:00:35.91	21.94	11.07	
2025-01-20 07:00:36.12	21.90	11.07	
2025-01-20 07:00:36.32	21.87	11.07	
2025-01-20 07:00:36.52	21.83	11.07	
2025-01-20 07:00:36.73	21.79	11.07	
2025-01-20 07:00:36.93	21.75	11.07	
2025-01-20 07:00:37.13	21.72	11.07	
2025-01-20 07:00:37.34	21.68	11.07	
2025-01-20 07:00:37.54	21.64	11.07	
2025-01-20 07:00:37.74	21.60	11.07	
2025-01-20 07:00:37.94	21.57	11.07	
2025-01-20 07:00:38.15	21.53	11.07	
2025-01-20 07:00:38.35	21.49	11.06	
2025-01-20 07:00:38.55	21.45	11.06	
2025-01-20 07:00:38.76	21.41	11.06	
2025-01-20 07:00:38.96	21.38	11.06	
2025-01-20 07:00:39.16	21.34	11.06	
2025-01-20 07:00:39.37	21.30	11.06	
2025-01-20 07:00:39.57	21.26	11.06	
2025-01-20 07:00:39.77	21.23	11.06	
2025-01-20 07:00:39.97	21.19	11.06	
2025-01-20 07:00:40.18	21.15	11.06	
2025-01-20 07:00:40.38	21.11	11.06	
2025-01-20 07:00:40.58	21.08	11.05	
2025-01-20 07:00:40.79	21.04	11.05	
2025-01-20 07:00:40.99	21.00	11.05	
2025-01-20 07:00:41.19	20.96	11.05	
2025-01-20 07:00:41.39	20.93	11.05	
2025-01-20 07:00:41.60	20.89	11.05	
2025-01-20 07:00:41.80	20.85	11.05	
2025-01-20 07:00:42.00	20.81	11.05	
2025-01-20 07:00:42.21	20.78	11.05	
2025-01-20 07:00:42.41	20.74	11.05	
2025-01-20 07:00:42.61	20.70	11.04	
2025-01-20 07:00:42.82	20.66	11.04	
2025-01-20 07:00:43.02	20.63	11.04	
2025-01-20 07:00:43.22	20.59	11.04	
2025-01-20 07:00:43.42	20.55	11.04	
2025-01-20 07:00:43.63	20.51	11.04	
2025-01-20 07:00:43.83	20.48	11.04	
2025-01-20 07:00:44.03	20.44	11.04	
2025-01-20 07:00:44.24	20.40	11.03	
2025-01-20 07:00:44.44	20.36	11.03	
2025-01-20 07:00:44.64	20.33	11.03	
2025-01-20 07:00:44.84	20.29	11.03	
2025-01-20 07:00:45.05	20.25	11.03	
2025-01-20 07:00:45.25	20.21	11.03	
2025-01-20 07:00:45.45	20.18	11.03	
2025-01-20 07:00:45.66	20.14	11.03	
2025-01-20 07:00:45.86	20.10	11.03	
2025-01-20 07:00:46.06	20.06	11.02	
2025-01-20 07:00:46.27	20.03	11.02	
2025-01-20 07:00:46.47	19.99	11.02	
2025-01-20 07:00:46.67	19.95	11.02	
2025-01-20 07:00:46.87	19.92	11.02	
2025-01-20 07:00:47.08	19.88	11.02	
2025-01-20 07:00:47.28	19.84	11.02	
2025-01-20 07:00:47.48	19.80	11.01	
2025-01-20 07:00:47.69	19.76	11.01	
2025-01-20 07:00:47.89	19.73	11.01	
2025-01-20 07:00:48.09	19.69	11.01	
2025-01-20 07:00:48.30	19.65	11.01	
2025-01-20 07:00:48.50	19.61	11.01	
2025-01-20 07:00:48.70	19.58	11.01	
2025-01-20 07:00:48.90	19.54	11.00	
2025-01-20 07:00:49.11	19.50	11.00	
2025-01-20 07:00:49.31	19.47	11.00	
2025-01-20 07:00:49.51	19.43	11.00	
2025-01-20 07:00:49.72	19.39	11.00	
2025-01-20 07:00:49.92	19.35	11.00	
2025-01-20 07:00:50.12	19.32	11.00	
2025-01-20 07:00:50.32	19.28	10.99	
2025-01-20 07:00:50.53	19.24	10.99	
2025-01-20 07:00:50.73	19.20	10.99	
2025-01-20 07:00:50.93	19.17	10.99	
2025-01-20 07:00:51.14	19.13	10.99	
2025-01-20 07:00:51.34	19.09	10.99	
2025-01-20 07:00:51.54	19.05	10.98	
2025-01-20 07:00:51.75	19.02	10.98	
2025-01-20 07:00:51.95	18.98	10.98	
2025-01-20 07:00:52.15	18.94	10.98	
2025-01-20 07:00:52.35	18.91	10.98	
2025-01-20 07:00:52.56	18.87	10.98	
2025-01-20 07:00:52.76	18.83	10.97	
2025-01-20 07:00:52.96	18.79	10.97	
2025-01-20 07:00:53.17	18.75	10.97	
2025-01-20 07:00:53.37	18.72	10.97	
2025-01-20 07:00:53.57	18.68	10.97	
2025-01-20 07:00:53.77	18.64	10.97	
2025-01-20 07:00:53.98	18.61	10.96	
2025-01-20 07:00:54.18	18.57	10.96	
2025-01-20 07:00:54.38	18.53	10.96	
2025-01-20 07:00:54.59	18.49	10.96	
2025-01-20 07:00:54.79	18.46	10.96	
2025-01-20 07:00:54.99	18.42	10.95	
2025-01-20 07:00:55.20	18.38	10.95	
2025-01-20 07:00:55.40	18.35	10.95	
2025-01-20 07:00:55.60	18.31	10.95	
2025-01-20 07:00:55.80	18.27	10.95	
2025-01-20 07:00:56.01	18.23	10.95	
2025-01-20 07:00:56.21	18.20	10.94	
2025-01-20 07:00:56.41	18.16	10.94	
2025-01-20 07:00:56.62	18.12	10.94	
2025-01-20 07:00:56.82	18.08	10.94	
2025-01-20 07:00:57.02	18.05	10.94	
2025-01-20 07:00:57.23	18.01	10.93	
2025-01-20 07:00:57.43	17.97	10.93	
2025-01-20 07:00:57.63	17.94	10.93	
2025-01-20 07:00:57.83	17.90	10.93	
2025-01-20 07:00:58.04	17.86	10.93	
2025-01-20 07:00:58.24	17.82	10.92	
2025-01-20 07:00:58.44	17.79	10.92	
2025-01-20 07:00:58.65	17.75	10.92	
2025-01-20 07:00:58.85	17.71	10.92	
2025-01-20 07:00:59.05	17.68	10.92	
2025-01-20 07:00:59.25	17.64	10.91	
2025-01-20 07:00:59.46	17.60	10.91	
2025-01-20 07:00:59.66	17.56	10.91	
2025-01-20 07:00:59.86	17.53	10.91	
2025-01-20 07:01:00.07	17.49	10.91	
2025-01-20 07:01:00.27	17.45	10.90	
2025-01-20 07:01:00.47	17.42	10.90	
2025-01-20 07:01:00.68	17.38	10.90	
2025-01-20 07:01:00.88	17.34	10.90	
2025-01-20 07:01:01.08	17.30	10.90	
2025-01-20 07:01:01.28	17.27	10.89	
2025-01-20 07:01:01.49	17.23	10.89	
2025-01-20 07:01:01.69	17.19	10.89	
2025-01-20 07:01:01.89	17.16	10.89	
2025-01-20 07:01:02.10	17.12	10.88	
2025-01-20 07:01:02.30	17.08	10.88	
2025-01-20 07:01:02.50	17.04	10.88	
2025-01-20 07:01:02.71	17.01	10.88	
2025-01-20 07:01:02.91	16.97	10.88	
2025-01-20 07:01:03.11	16.93	10.87	
2025-01-20 07:01:03.31	16.90	10.87	
2025-01-20 07:01:03.52	16.86	10.87	
2025-01-20 07:01:03.72	16.82	10.87	
2025-01-20 07:01:03.92	16.79	10.86	
2025-01-20 07:01:04.13	16.75	10.86	
2025-01-20 07:01:04.33	16.71	10.86	
2025-01-20 07:01:04.53	16.67	10.86	
2025-01-20 07:01:04.73	16.64	10.85	
2025-01-20 07:01:04.94	16.60	10.85	
2025-01-20 07:01:05.14	16.56	10.85	
2025-01-20 07:01:05.34	16.53	10.85	
2025-01-20 07:01:05.55	16.49	10.84	
2025-01-20 07:01:05.75	16.45	10.84	
2025-01-20 07:01:05.95	16.42	10.84	
2025-01-20 07:01:06.16	16.38	10.84	
2025-01-20 07:01:06.36	16.34	10.83	
2025-01-20 07:01:06.56	16.30	10.83	
2025-01-20 07:01:06.76	16.27	10.83	
2025-01-20 07:01:06.97	16.23	10.83	
2025-01-20 07:01:07.17	16.19	10.82	
2025-01-20 07:01:07.37	16.16	10.82	
2025-01-20 07:01:07.58	16.12	10.82	
2025-01-20 07:01:07.78	16.08	10.82	
2025-01-20 07:01:07.98	16.05	10.81	
2025-01-20 07:01:08.18	16.01	10.81	
2025-01-20 07:01:08.39	15.97	10.81	
2025-01-20 07:01:08.59	15.93	10.81	
2025-01-20 07:01:08.79	15.90	10.80	
2025-01-20 07:01:09.00	15.86	10.80	
2025-01-20 07:01:09.20	15.82	10.80	
2025-01-20 07:01:09.40	15.79	10.80	
2025-01-20 07:01:09.61	15.75	10.79	
2025-01-20 07:01:09.81	15.71	10.79	
2025-01-20 07:01:10.01	15.68	10.79	
2025-01-20 07:01:10.21	15.64	10.79	
2025-01-20 07:01:10.42	15.60	10.78	
2025-01-20 07:01:10.62	15.57	10.78	
2025-01-20 07:01:10.82	15.53	10.78	
2025-01-20 07:01:11.03	15.49	10.78	
2025-01-20 07:01:11.23	15.46	10.77	
2025-01-20 07:01:11.43	15.42	10.77	
2025-01-20 07:01:11.64	15.38	10.77	
2025-01-20 07:01:11.84	15.35	10.76	
2025-01-20 07:01:12.04	15.31	10.76	
2025-01-20 07:01:12.24	15.27	10.76	
2025-01-20 07:01:12.45	15.23	10.76	
2025-01-20 07:01:12.65	15.20	10.75	
2025-01-20 07:01:12.85	15.16	10.75	
2025-01-20 07:01:13.06	15.12	10.75	
2025-01-20 07:01:13.26	15.09	10.74	
2025-01-20 07:01:13.46	15.05	10.74	
2025-01-20 07:01:13.66	15.02	10.74	
2025-01-20 07:01:13.87	14.98	10.74	
2025-01-20 07:01:14.07	14.94	10.73	
2025-01-20 07:01:14.27	14.91	10.73	
2025-01-20 07:01:14.48	14.87	10.73	
2025-01-20 07:01:14.68	14.83	10.72	
2025-01-20 07:01:14.88	14.80	10.72	
2025-01-20 07:01:15.09	14.76	10.72	
2025-01-20 07:01:15.29	14.72	10.72	
2025-01-20 07:01:15.49	14.68	10.71	
2025-01-20 07:01:15.69	14.65	10.71	
2025-01-20 07:01:15.90	14.61	10.71	
2025-01-20 07:01:16.10	14.57	10.70	
2025-01-20 07:01:16.30	14.54	10.70	
2025-01-20 07:01:16.51	14.50	10.70	
2025-01-20 07:01:16.71	14.46	10.69	
2025-01-20 07:01:16.91	14.43	10.69	
2025-01-20 07:01:17.11	14.39	10.69	
2025-01-20 07:01:17.32	14.35	10.69	
2025-01-20 07:01:17.52	14.32	10.68	
2025-01-20 07:01:17.72	14.28	10.68	
2025-01-20 07:01:17.93	14.24	10.68	
2025-01-20 07:01:18.13	14.21	10.67	
2025-01-20 07:01:18.33	14.17	10.67	
2025-01-20 07:01:18.54	14.14	10.67	
2025-01-20 07:01:18.74	14.10	10.66	
2025-01-20 07:01:18.94	14.06	10.66	
2025-01-20 07:01:19.14	14.03	10.66	
2025-01-20 07:01:19.35	13.99	10.65	
2025-01-20 07:01:19.55	13.95	10.65	
2025-01-20 07:01:19.75	13.92	10.65	
2025-01-20 07:01:19.96	13.88	10.64	
2025-01-20 07:01:20.16	13.84	10.64	
2025-01-20 07:01:20.36	13.81	10.64	
2025-01-20 07:01:20.57	13.77	10.64	
2025-01-20 07:01:20.77	13.73	10.63	
2025-01-20 07:01:20.97	13.70	10.63	
2025-01-20 07:01:21.17	13.66	10.63	
2025-01-20 07:01:21.38	13.62	10.62	
2025-01-20 07:01:21.58	13.59	10.62	
2025-01-20 07:01:21.78	13.55	10.62	
2025-01-20 07:01:21.99	13.52	10.61	
2025-01-20 07:01:22.19	13.48	10.61	
2025-01-20 07:01:22.39	13.44	10.61	
2025-01-20 07:01:22.59	13.41	10.60	
2025-01-20 07:01:22.80	13.37	10.60	
2025-01-20 07:01:23.00	13.33	10.60	
2025-01-20 07:01:23.20	13.30	10.59	
2025-01-20 07:01:23.41	13.26	10.59	
2025-01-20 07:01:23.61	13.23	10.59	
2025-01-20 07:01:23.81	13.19	10.58	
2025-01-20 07:01:24.02	13.15	10.58	
2025-01-20 07:01:24.22	13.12	10.58	
2025-01-20 07:01:24.42	13.08	10.57	
2025-01-20 07:01:24.62	13.04	10.57	
2025-01-20 07:01:24.83	13.01	10.56	
2025-01-20 07:01:25.03	12.97	10.56	
2025-01-20 07:01:25.23	12.94	10.56	
2025-01-20 07:01:25.44	12.90	10.55	
2025-01-20 07:01:25.64	12.86	10.55	
2025-01-20 07:01:25.84	12.83	10.55	
2025-01-20 07:01:26.04	12.79	10.54	
2025-01-20 07:01:26.25	12.75	10.54	
2025-01-20 07:01:26.45	12.72	10.54	
2025-01-20 07:01:26.65	12.68	10.53	
2025-01-20 07:01:26.86	12.64	10.53	
2025-01-20 07:01:27.06	12.61	10.53	
2025-01-20 07:01:27.26	12.57	10.52	
2025-01-20 07:01:27.47	12.54	10.52	
2025-01-20 07:01:27.67	12.50	10.52	
2025-01-20 07:01:27.87	12.46	10.51	
2025-01-20 07:01:28.07	12.43	10.51	
2025-01-20 07:01:28.28	12.39	10.50	
2025-01-20 07:01:28.48	12.36	10.50	
2025-01-20 07:01:28.68	12.32	10.50	
2025-01-20 07:01:28.89	12.28	10.49	
2025-01-20 07:01:29.09	12.25	10.49	
2025-01-20 07:01:29.29	12.21	10.49	
2025-01-20 07:01:29.50	12.17	10.48	
2025-01-20 07:01:29.70	12.14	10.48	
2025-01-20 07:01:29.90	12.10	10.48	
2025-01-20 07:01:30.10	12.07	10.47	
2025-01-20 07:01:30.31	12.03	10.47	
2025-01-20 07:01:30.51	12.00	10.46	
2025-01-20 07:01:30.71	11.96	10.46	
2025-01-20 07:01:30.92	11.92	10.46	
2025-01-20 07:01:31.12	11.89	10.45	
2025-01-20 07:01:31.32	11.85	10.45	
2025-01-20 07:01:31.52	11.82	10.45	
2025-01-20 07:01:31.73	11.78	10.44	
2025-01-20 07:01:31.93	11.74	10.44	
2025-01-20 07:01:32.13	11.71	10.43	
2025-01-20 07:01:32.34	11.67	10.43	
2025-01-20 07:01:32.54	11.64	10.43	
2025-01-20 07:01:32.74	11.60	10.42	
2025-01-20 07:01:32.95	11.56	10.42	
2025-01-20 07:01:33.15	11.53	10.41	
2025-01-20 07:01:33.35	11.49	10.41	
2025-01-20 07:01:33.55	11.46	10.41	
2025-01-20 07:01:33.76	11.42	10.40	
2025-01-20 07:01:33.96	11.38	10.40	
2025-01-20 07:01:34.16	11.35	10.39	
2025-01-20 07:01:34.37	11.31	10.39	
2025-01-20 07:01:34.57	11.28	10.39	
2025-01-20 07:01:34.77	11.24	10.38	
2025-01-20 07:01:34.98	11.20	10.38	
2025-01-20 07:01:35.18	11.17	10.37	
2025-01-20 07:01:35.38	11.13	10.37	
2025-01-20 07:01:35.58	11.10	10.37	
2025-01-20 07:01:35.79	11.06	10.36	
2025-01-20 07:01:35.99	11.03	10.36	
2025-01-20 07:01:36.19	10.99	10.35	
2025-01-20 07:01:36.40	10.95	10.35	
2025-01-20 07:01:36.60	10.92	10.35	
2025-01-20 07:01:36.80	10.88	10.34	
2025-01-20 07:01:37.00	10.85	10.34	
2025-01-20 07:01:37.21	10.81	10.33	
2025-01-20 07:01:37.41	10.78	10.33	
2025-01-20 07:01:37.61	10.74	10.33	
2025-01-20 07:01:37.82	10.70	10.32	
2025-01-20 07:01:38.02	10.67	10.32	
2025-01-20 07:01:38.22	10.63	10.31	
2025-01-20 07:01:38.43	10.60	10.31	
2025-01-20 07:01:38.63	10.56	10.31	
2025-01-20 07:01:38.83	10.53	10.30	
2025-01-20 07:01:39.03	10.49	10.30	
2025-01-20 07:01:39.24	10.46	10.29	
2025-01-20 07:01:39.44	10.42	10.29	
2025-01-20 07:01:39.64	10.39	10.28	
2025-01-20 07:01:39.85	10.35	10.28	
2025-01-20 07:01:40.05	10.31	10.28	
2025-01-20 07:01:40.25	10.28	10.27	
2025-01-20 07:01:40.45	10.24	10.27	
2025-01-20 07:01:40.66	10.21	10.26	
2025-01-20 07:01:40.86	10.17	10.26	
2025-01-20 07:01:41.06	10.14	10.26	
2025-01-20 07:01:41.27	10.10	10.25	
2025-01-20 07:01:41.47	10.07	10.25	
2025-01-20 07:01:41.67	10.03	10.24	
2025-01-20 07:01:41.88	9.99	10.24	
2025-01-20 07:01:42.08	9.96	10.23	
2025-01-20 07:01:42.28	9.92	10.23	
2025-01-20 07:01:42.48	9.89	10.23	
2025-01-20 07:01:42.69	9.85	10.22	
2025-01-20 07:01:42.89	9.82	10.22	
2025-01-20 07:01:43.09	9.78	10.21	
2025-01-20 07:01:43.30	9.75	10.21	
2025-01-20 07:01:43.50	9.71	10.20	
2025-01-20 07:01:43.70	9.68	10.20	
2025-01-20 07:01:43.91	9.64	10.19	
2025-01-20 07:01:44.11	9.60	10.19	
2025-01-20 07:01:44.31	9.57	10.19	
2025-01-20 07:01:44.51	9.53	10.18	
2025-01-20 07:01:44.72	9.50	10.18	
2025-01-20 07:01:44.92	9.46	10.17	
2025-01-20 07:01:45.12	9.43	10.17	
2025-01-20 07:01:45.33	9.39	10.16	
2025-01-20 07:01:45.53	9.36	10.16	
2025-01-20 07:01:45.73	9.32	10.15	
2025-01-20 07:01:45.93	9.29	10.15	
2025-01-20 07:01:46.14	9.25	10.15	
2025-01-20 07:01:46.34	9.22	10.14	
2025-01-20 07:01:46.54	9.18	10.14	
2025-01-20 07:01:46.75	9.15	10.13	
2025-01-20 07:01:46.95	9.11	10.13	
2025-01-20 07:01:47.15	9.08	10.12	
2025-01-20 07:01:47.36	9.04	10.12	
2025-01-20 07:01:47.56	9.01	10.11	
2025-01-20 07:01:47.76	8.97	10.11	
2025-01-20 07:01:47.96	8.94	10.10	
2025-01-20 07:01:48.17	8.90	10.10	
2025-01-20 07:01:48.37	8.87	10.09	
2025-01-20 07:01:48.57	8.83	10.09	
2025-01-20 07:01:48.78	8.79	10.09	
2025-01-20 07:01:48.98	8.76	10.08	
2025-01-20 07:01:49.18	8.73	10.08	
2025-01-20 07:01:49.38	8.69	10.07	
2025-01-20 07:01:49.59	8.65	10.07	
2025-01-20 07:01:49.79	8.62	10.06	
2025-01-20 07:01:49.99	8.59	10.06	
2025-01-20 07:01:50.20	8.55	10.05	
2025-01-20 07:01:50.40	8.51	10.05	
2025-01-20 07:01:50.60	8.48	10.04	
2025-01-20 07:01:50.81	8.44	10.04	
2025-01-20 07:01:51.01	8.41	10.03	
2025-01-20 07:01:51.21	8.38	10.03	
2025-01-20 07:01:51.41	8.34	10.02	
2025-01-20 07:01:51.62	8.30	10.02	
2025-01-20 07:01:51.82	8.27	10.01	
2025-01-20 07:01:52.02	8.24	10.01	
2025-01-20 07:01:52.23	8.20	10.01	
2025-01-20 07:01:52.43	8.17	10.00	
