passes_logs/2025/01/20/SPB_Silybum_02/SPB_Silybum_02__20250120_082301_AQUA_rec.log

#Pass ID: 20250120_082301_AQUA
#Satellite: AQUA
#Configuration: AQUA
#Start time: 2025-01-20 08:23:02

#Version: 2.0.20230423
#Station: SPB_Silybum_02
#Location: 30.233357 lon 59.946436 lat
#TLE: 1 27424U 02022A   25019.86270051  .00002463  00000+0  51518-3 0  9998
#TLE: 2 27424  98.3596 336.5709 0001915 106.8361 278.0854 14.60706016208336

#Time	Az	El	Level	Level2	SNR	BER	Gain	Gain2
2025-01-20 08:23:04.42	66.26	4.11	
2025-01-20 08:23:04.62	66.24	4.12	
2025-01-20 08:23:04.83	66.21	4.13	
2025-01-20 08:23:05.03	66.18	4.13	
2025-01-20 08:23:05.23	66.16	4.14	
2025-01-20 08:23:05.44	66.13	4.15	
2025-01-20 08:23:05.64	66.10	4.16	
2025-01-20 08:23:05.84	66.07	4.17	
2025-01-20 08:23:06.05	66.05	4.18	
2025-01-20 08:23:06.25	66.02	4.19	
2025-01-20 08:23:06.45	65.99	4.19	
2025-01-20 08:23:06.65	65.97	4.20	
2025-01-20 08:23:06.86	65.94	4.21	
2025-01-20 08:23:07.06	65.91	4.22	
2025-01-20 08:23:07.26	65.88	4.23	
2025-01-20 08:23:07.47	65.85	4.24	
2025-01-20 08:23:07.67	65.83	4.25	
2025-01-20 08:23:07.87	65.80	4.25	
2025-01-20 08:23:08.08	65.77	4.26	
2025-01-20 08:23:08.28	65.75	4.27	
2025-01-20 08:23:08.48	65.72	4.28	
2025-01-20 08:23:08.69	65.69	4.29	
2025-01-20 08:23:08.89	65.66	4.30	
2025-01-20 08:23:09.09	65.64	4.31	
2025-01-20 08:23:09.29	65.61	4.31	
2025-01-20 08:23:09.50	65.58	4.32	
2025-01-20 08:23:09.70	65.55	4.33	
2025-01-20 08:23:09.90	65.53	4.34	
2025-01-20 08:23:10.11	65.50	4.35	
2025-01-20 08:23:10.31	65.47	4.36	
2025-01-20 08:23:10.51	65.44	4.37	
2025-01-20 08:23:10.72	65.41	4.37	
2025-01-20 08:23:10.92	65.39	4.38	
2025-01-20 08:23:11.12	65.36	4.39	
2025-01-20 08:23:11.33	65.33	4.40	
2025-01-20 08:23:11.53	65.30	4.41	
2025-01-20 08:23:11.73	65.28	4.42	
2025-01-20 08:23:11.93	65.25	4.42	
2025-01-20 08:23:12.14	65.22	4.43	
2025-01-20 08:23:12.34	65.19	4.44	
2025-01-20 08:23:12.54	65.17	4.45	
2025-01-20 08:23:12.75	65.14	4.46	
2025-01-20 08:23:12.95	65.11	4.47	
2025-01-20 08:23:13.15	65.08	4.48	
2025-01-20 08:23:13.36	65.05	4.48	
2025-01-20 08:23:13.56	65.03	4.49	
2025-01-20 08:23:13.76	65.00	4.50	
2025-01-20 08:23:13.97	64.97	4.51	
2025-01-20 08:23:14.17	64.94	4.52	
2025-01-20 08:23:14.37	64.92	4.53	
2025-01-20 08:23:14.57	64.89	4.53	
2025-01-20 08:23:14.78	64.86	4.54	
2025-01-20 08:23:14.98	64.83	4.55	
2025-01-20 08:23:15.18	64.80	4.56	
2025-01-20 08:23:15.39	64.77	4.57	
2025-01-20 08:23:15.59	64.75	4.58	
2025-01-20 08:23:15.79	64.72	4.59	
2025-01-20 08:23:16.00	64.69	4.59	
2025-01-20 08:23:16.20	64.66	4.60	
2025-01-20 08:23:16.40	64.63	4.61	
2025-01-20 08:23:16.61	64.61	4.62	
2025-01-20 08:23:16.81	64.58	4.63	
2025-01-20 08:23:17.01	64.55	4.64	
2025-01-20 08:23:17.22	64.52	4.64	
2025-01-20 08:23:17.42	64.49	4.65	
2025-01-20 08:23:17.62	64.47	4.66	
2025-01-20 08:23:17.82	64.44	4.67	
2025-01-20 08:23:18.03	64.41	4.68	
2025-01-20 08:23:18.23	64.38	4.69	
2025-01-20 08:23:18.43	64.35	4.70	
2025-01-20 08:23:18.64	64.32	4.70	
2025-01-20 08:23:18.84	64.30	4.71	
2025-01-20 08:23:19.04	64.27	4.72	
2025-01-20 08:23:19.25	64.24	4.73	
2025-01-20 08:23:19.45	64.21	4.74	
2025-01-20 08:23:19.65	64.18	4.75	
2025-01-20 08:23:19.86	64.15	4.75	
2025-01-20 08:23:20.06	64.12	4.76	
2025-01-20 08:23:20.26	64.10	4.77	
2025-01-20 08:23:20.46	64.07	4.78	
2025-01-20 08:23:20.67	64.04	4.79	
2025-01-20 08:23:20.87	64.01	4.80	
2025-01-20 08:23:21.07	63.98	4.80	
2025-01-20 08:23:21.28	63.95	4.81	
2025-01-20 08:23:21.48	63.93	4.82	
2025-01-20 08:23:21.68	63.90	4.83	
2025-01-20 08:23:21.89	63.87	4.84	
2025-01-20 08:23:22.09	63.84	4.85	
2025-01-20 08:23:22.29	63.81	4.85	
2025-01-20 08:23:22.50	63.78	4.86	
2025-01-20 08:23:22.70	63.75	4.87	
2025-01-20 08:23:22.90	63.72	4.88	
2025-01-20 08:23:23.10	63.70	4.89	
2025-01-20 08:23:23.31	63.67	4.90	
2025-01-20 08:23:23.51	63.64	4.90	
2025-01-20 08:23:23.71	63.61	4.91	
2025-01-20 08:23:23.92	63.58	4.92	
2025-01-20 08:23:24.12	63.55	4.93	
2025-01-20 08:23:24.32	63.52	4.94	
2025-01-20 08:23:24.53	63.49	4.95	
2025-01-20 08:23:24.73	63.47	4.95	
2025-01-20 08:23:24.93	63.44	4.96	
2025-01-20 08:23:25.14	63.41	4.97	
2025-01-20 08:23:25.34	63.38	4.98	
2025-01-20 08:23:25.54	63.35	4.99	
2025-01-20 08:23:25.74	63.32	5.00	
2025-01-20 08:23:25.95	63.29	5.00	
2025-01-20 08:23:26.15	63.26	5.01	
2025-01-20 08:23:26.35	63.23	5.02	
2025-01-20 08:23:26.56	63.20	5.03	
2025-01-20 08:23:26.76	63.18	5.04	
2025-01-20 08:23:26.96	63.15	5.05	
2025-01-20 08:23:27.17	63.12	5.05	
2025-01-20 08:23:27.37	63.09	5.06	
2025-01-20 08:23:27.57	63.06	5.07	
2025-01-20 08:23:27.78	63.03	5.08	
2025-01-20 08:23:27.98	63.00	5.09	
2025-01-20 08:23:28.18	62.97	5.09	
2025-01-20 08:23:28.38	62.94	5.10	
2025-01-20 08:23:28.59	62.91	5.11	
2025-01-20 08:23:28.79	62.88	5.12	
2025-01-20 08:23:28.99	62.86	5.13	
2025-01-20 08:23:29.20	62.82	5.14	
2025-01-20 08:23:29.40	62.80	5.14	
2025-01-20 08:23:29.60	62.77	5.15	
2025-01-20 08:23:29.81	62.74	5.16	
2025-01-20 08:23:30.01	62.71	5.17	
2025-01-20 08:23:30.21	62.68	5.18	
2025-01-20 08:23:30.42	62.65	5.19	
2025-01-20 08:23:30.62	62.62	5.19	
2025-01-20 08:23:30.82	62.59	5.20	
2025-01-20 08:23:31.02	62.56	5.21	
2025-01-20 08:23:31.23	62.53	5.22	
2025-01-20 08:23:31.43	62.50	5.23	
2025-01-20 08:23:31.63	62.47	5.23	
2025-01-20 08:23:31.84	62.44	5.24	
2025-01-20 08:23:32.04	62.41	5.25	
2025-01-20 08:23:32.24	62.38	5.26	
2025-01-20 08:23:32.45	62.35	5.27	
2025-01-20 08:23:32.65	62.32	5.28	
2025-01-20 08:23:32.85	62.30	5.28	
2025-01-20 08:23:33.06	62.27	5.29	
2025-01-20 08:23:33.26	62.24	5.30	
2025-01-20 08:23:33.46	62.21	5.31	
2025-01-20 08:23:33.66	62.18	5.32	
2025-01-20 08:23:33.87	62.15	5.32	
2025-01-20 08:23:34.07	62.12	5.33	
2025-01-20 08:23:34.27	62.09	5.34	
2025-01-20 08:23:34.48	62.06	5.35	
2025-01-20 08:23:34.68	62.03	5.36	
2025-01-20 08:23:34.88	62.00	5.36	
2025-01-20 08:23:35.09	61.97	5.37	
2025-01-20 08:23:35.29	61.94	5.38	
2025-01-20 08:23:35.49	61.91	5.39	
2025-01-20 08:23:35.70	61.88	5.40	
2025-01-20 08:23:35.90	61.85	5.41	
2025-01-20 08:23:36.10	61.82	5.41	
2025-01-20 08:23:36.30	61.79	5.42	
2025-01-20 08:23:36.51	61.76	5.43	
2025-01-20 08:23:36.71	61.73	5.44	
2025-01-20 08:23:36.91	61.70	5.45	
2025-01-20 08:23:37.12	61.67	5.45	
2025-01-20 08:23:37.32	61.64	5.46	
2025-01-20 08:23:37.52	61.61	5.47	
2025-01-20 08:23:37.73	61.58	5.48	
2025-01-20 08:23:37.93	61.55	5.49	
2025-01-20 08:23:38.13	61.52	5.49	
2025-01-20 08:23:38.34	61.49	5.50	
2025-01-20 08:23:38.54	61.46	5.51	
2025-01-20 08:23:38.74	61.43	5.52	
2025-01-20 08:23:38.94	61.40	5.53	
2025-01-20 08:23:39.15	61.37	5.53	
2025-01-20 08:23:39.35	61.34	5.54	
2025-01-20 08:23:39.55	61.31	5.55	
2025-01-20 08:23:39.76	61.28	5.56	
2025-01-20 08:23:39.96	61.25	5.57	
2025-01-20 08:23:40.16	61.22	5.57	
2025-01-20 08:23:40.37	61.19	5.58	
2025-01-20 08:23:40.57	61.16	5.59	
2025-01-20 08:23:40.77	61.13	5.60	
2025-01-20 08:23:40.98	61.10	5.61	
2025-01-20 08:23:41.18	61.07	5.61	
2025-01-20 08:23:41.38	61.04	5.62	
2025-01-20 08:23:41.59	61.00	5.63	
2025-01-20 08:23:41.79	60.97	5.64	
2025-01-20 08:23:41.99	60.94	5.65	
2025-01-20 08:23:42.19	60.91	5.65	
2025-01-20 08:23:42.40	60.88	5.66	
2025-01-20 08:23:42.60	60.85	5.67	
2025-01-20 08:23:42.80	60.82	5.68	
2025-01-20 08:23:43.01	60.79	5.69	
2025-01-20 08:23:43.21	60.76	5.69	
2025-01-20 08:23:43.41	60.73	5.70	
2025-01-20 08:23:43.62	60.70	5.71	
2025-01-20 08:23:43.82	60.67	5.72	
2025-01-20 08:23:44.02	60.64	5.73	
2025-01-20 08:23:44.23	60.61	5.73	
2025-01-20 08:23:44.43	60.58	5.74	
2025-01-20 08:23:44.63	60.55	5.75	
2025-01-20 08:23:44.83	60.52	5.76	
2025-01-20 08:23:45.04	60.49	5.77	
2025-01-20 08:23:45.24	60.45	5.77	
2025-01-20 08:23:45.44	60.42	5.78	
2025-01-20 08:23:45.65	60.39	5.79	
2025-01-20 08:23:45.85	60.36	5.80	
2025-01-20 08:23:46.05	60.33	5.80	
2025-01-20 08:23:46.26	60.30	5.81	
2025-01-20 08:23:46.46	60.27	5.82	
2025-01-20 08:23:46.66	60.24	5.83	
2025-01-20 08:23:46.87	60.21	5.84	
2025-01-20 08:23:47.07	60.18	5.84	
2025-01-20 08:23:47.27	60.15	5.85	
2025-01-20 08:23:47.47	60.12	5.86	
2025-01-20 08:23:47.68	60.08	5.87	
2025-01-20 08:23:47.88	60.05	5.88	
2025-01-20 08:23:48.08	60.02	5.88	
2025-01-20 08:23:48.29	59.99	5.89	
2025-01-20 08:23:48.49	59.96	5.90	
2025-01-20 08:23:48.69	59.93	5.91	
2025-01-20 08:23:48.90	59.90	5.91	
2025-01-20 08:23:49.10	59.87	5.92	
2025-01-20 08:23:49.30	59.84	5.93	
2025-01-20 08:23:49.51	59.80	5.94	
2025-01-20 08:23:49.71	59.77	5.95	
2025-01-20 08:23:49.91	59.74	5.95	
2025-01-20 08:23:50.11	59.71	5.96	
2025-01-20 08:23:50.32	59.68	5.97	
2025-01-20 08:23:50.52	59.65	5.98	
2025-01-20 08:23:50.72	59.62	5.98	
2025-01-20 08:23:50.93	59.59	5.99	
2025-01-20 08:23:51.13	59.56	6.00	
2025-01-20 08:23:51.33	59.53	6.01	
2025-01-20 08:23:51.54	59.49	6.02	
2025-01-20 08:23:51.74	59.46	6.02	
2025-01-20 08:23:51.94	59.43	6.03	
2025-01-20 08:23:52.15	59.40	6.04	
2025-01-20 08:23:52.35	59.37	6.05	
2025-01-20 08:23:52.55	59.34	6.05	
2025-01-20 08:23:52.75	59.31	6.06	
2025-01-20 08:23:52.96	59.27	6.07	
2025-01-20 08:23:53.16	59.24	6.08	
2025-01-20 08:23:53.36	59.21	6.09	
2025-01-20 08:23:53.57	59.18	6.09	
2025-01-20 08:23:53.77	59.15	6.10	
2025-01-20 08:23:53.97	59.12	6.11	
2025-01-20 08:23:54.18	59.08	6.12	
2025-01-20 08:23:54.38	59.05	6.12	
2025-01-20 08:23:54.58	59.02	6.13	
2025-01-20 08:23:54.79	58.99	6.14	
2025-01-20 08:23:54.99	58.96	6.15	
2025-01-20 08:23:55.19	58.93	6.15	
2025-01-20 08:23:55.39	58.90	6.16	
2025-01-20 08:23:55.60	58.86	6.17	
2025-01-20 08:23:55.80	58.83	6.18	
2025-01-20 08:23:56.00	58.80	6.18	
2025-01-20 08:23:56.21	58.77	6.19	
2025-01-20 08:23:56.41	58.74	6.20	
2025-01-20 08:23:56.61	58.71	6.21	
2025-01-20 08:23:56.82	58.67	6.22	
2025-01-20 08:23:57.02	58.64	6.22	
2025-01-20 08:23:57.22	58.61	6.23	
2025-01-20 08:23:57.43	58.58	6.24	
2025-01-20 08:23:57.63	58.55	6.25	
2025-01-20 08:23:57.83	58.51	6.25	
2025-01-20 08:23:58.03	58.48	6.26	
2025-01-20 08:23:58.24	58.45	6.27	
2025-01-20 08:23:58.44	58.42	6.28	
2025-01-20 08:23:58.64	58.39	6.28	
2025-01-20 08:23:58.85	58.35	6.29	
2025-01-20 08:23:59.05	58.32	6.30	
2025-01-20 08:23:59.25	58.29	6.31	
2025-01-20 08:23:59.46	58.26	6.31	
2025-01-20 08:23:59.66	58.23	6.32	
2025-01-20 08:23:59.86	58.19	6.33	
2025-01-20 08:24:00.07	58.16	6.34	
2025-01-20 08:24:00.27	58.13	6.34	
2025-01-20 08:24:00.47	58.10	6.35	
2025-01-20 08:24:00.67	58.07	6.36	
2025-01-20 08:24:00.88	58.03	6.37	
2025-01-20 08:24:01.08	58.00	6.37	
2025-01-20 08:24:01.28	57.97	6.38	
2025-01-20 08:24:01.49	57.94	6.39	
2025-01-20 08:24:01.69	57.91	6.40	
2025-01-20 08:24:01.89	57.87	6.40	
2025-01-20 08:24:02.10	57.84	6.41	
2025-01-20 08:24:02.30	57.81	6.42	
2025-01-20 08:24:02.50	57.78	6.43	
2025-01-20 08:24:02.71	57.74	6.43	
2025-01-20 08:24:02.91	57.71	6.44	
2025-01-20 08:24:03.11	57.68	6.45	
2025-01-20 08:24:03.32	57.65	6.46	
2025-01-20 08:24:03.52	57.61	6.46	
2025-01-20 08:24:03.72	57.58	6.47	
2025-01-20 08:24:03.92	57.55	6.48	
2025-01-20 08:24:04.13	57.52	6.49	
2025-01-20 08:24:04.33	57.48	6.49	
2025-01-20 08:24:04.53	57.45	6.50	
2025-01-20 08:24:04.74	57.42	6.51	
2025-01-20 08:24:04.94	57.39	6.52	
2025-01-20 08:24:05.14	57.36	6.52	
2025-01-20 08:24:05.35	57.32	6.53	
2025-01-20 08:24:05.55	57.29	6.54	
2025-01-20 08:24:05.75	57.26	6.55	
2025-01-20 08:24:05.96	57.22	6.55	
2025-01-20 08:24:06.16	57.19	6.56	
2025-01-20 08:24:06.36	57.16	6.57	
2025-01-20 08:24:06.56	57.13	6.58	
2025-01-20 08:24:06.77	57.09	6.58	
2025-01-20 08:24:06.97	57.06	6.59	
2025-01-20 08:24:07.17	57.03	6.60	
2025-01-20 08:24:07.38	57.00	6.60	
2025-01-20 08:24:07.58	56.96	6.61	
2025-01-20 08:24:07.78	56.93	6.62	
2025-01-20 08:24:07.99	56.90	6.63	
2025-01-20 08:24:08.19	56.86	6.63	
2025-01-20 08:24:08.39	56.83	6.64	
2025-01-20 08:24:08.60	56.80	6.65	
2025-01-20 08:24:08.80	56.77	6.66	
2025-01-20 08:24:09.00	56.73	6.66	
2025-01-20 08:24:09.20	56.70	6.67	
2025-01-20 08:24:09.41	56.67	6.68	
2025-01-20 08:24:09.61	56.64	6.68	
2025-01-20 08:24:09.81	56.60	6.69	
2025-01-20 08:24:10.02	56.57	6.70	
2025-01-20 08:24:10.22	56.54	6.71	
2025-01-20 08:24:10.42	56.50	6.71	
2025-01-20 08:24:10.63	56.47	6.72	
2025-01-20 08:24:10.83	56.44	6.73	
2025-01-20 08:24:11.03	56.40	6.74	
2025-01-20 08:24:11.24	56.37	6.74	
2025-01-20 08:24:11.44	56.34	6.75	
2025-01-20 08:24:11.64	56.31	6.76	
2025-01-20 08:24:11.84	56.27	6.76	
2025-01-20 08:24:12.05	56.24	6.77	
2025-01-20 08:24:12.25	56.21	6.78	
2025-01-20 08:24:12.45	56.17	6.79	
2025-01-20 08:24:12.66	56.14	6.79	
2025-01-20 08:24:12.86	56.11	6.80	
2025-01-20 08:24:13.06	56.07	6.81	
2025-01-20 08:24:13.27	56.04	6.81	
2025-01-20 08:24:13.47	56.01	6.82	
2025-01-20 08:24:13.67	55.97	6.83	
2025-01-20 08:24:13.88	55.94	6.84	
2025-01-20 08:24:14.08	55.91	6.84	
2025-01-20 08:24:14.28	55.87	6.85	
2025-01-20 08:24:14.48	55.84	6.86	
2025-01-20 08:24:14.69	55.81	6.86	
2025-01-20 08:24:14.89	55.77	6.87	
2025-01-20 08:24:15.09	55.74	6.88	
2025-01-20 08:24:15.30	55.71	6.89	
2025-01-20 08:24:15.50	55.67	6.89	
2025-01-20 08:24:15.70	55.64	6.90	
2025-01-20 08:24:15.91	55.60	6.91	
2025-01-20 08:24:16.11	55.57	6.91	
2025-01-20 08:24:16.31	55.54	6.92	
2025-01-20 08:24:16.52	55.50	6.93	
2025-01-20 08:24:16.72	55.47	6.94	
2025-01-20 08:24:16.92	55.44	6.94	
2025-01-20 08:24:17.12	55.41	6.95	
2025-01-20 08:24:17.33	55.37	6.96	
2025-01-20 08:24:17.53	55.34	6.96	
2025-01-20 08:24:17.73	55.30	6.97	
2025-01-20 08:24:17.94	55.27	6.98	
2025-01-20 08:24:18.14	55.24	6.98	
2025-01-20 08:24:18.34	55.20	6.99	
2025-01-20 08:24:18.55	55.17	7.00	
2025-01-20 08:24:18.75	55.13	7.01	
2025-01-20 08:24:18.95	55.10	7.01	
2025-01-20 08:24:19.16	55.07	7.02	
2025-01-20 08:24:19.36	55.03	7.03	
2025-01-20 08:24:19.56	55.00	7.03	
2025-01-20 08:24:19.76	54.97	7.04	
2025-01-20 08:24:19.97	54.93	7.05	
2025-01-20 08:24:20.17	54.90	7.05	
2025-01-20 08:24:20.37	54.87	7.06	
2025-01-20 08:24:20.58	54.83	7.07	
2025-01-20 08:24:20.78	54.80	7.08	
2025-01-20 08:24:20.98	54.76	7.08	
2025-01-20 08:24:21.19	54.73	7.09	
2025-01-20 08:24:21.39	54.69	7.10	
2025-01-20 08:24:21.59	54.66	7.10	
2025-01-20 08:24:21.80	54.63	7.11	
2025-01-20 08:24:22.00	54.59	7.12	
2025-01-20 08:24:22.20	54.56	7.12	
2025-01-20 08:24:22.40	54.53	7.13	
2025-01-20 08:24:22.61	54.49	7.14	
2025-01-20 08:24:22.81	54.46	7.14	
2025-01-20 08:24:23.01	54.42	7.15	
2025-01-20 08:24:23.22	54.39	7.16	
2025-01-20 08:24:23.42	54.35	7.16	
2025-01-20 08:24:23.62	54.32	7.17	
2025-01-20 08:24:23.83	54.29	7.18	
2025-01-20 08:24:24.03	54.25	7.18	
2025-01-20 08:24:24.23	54.22	7.19	
2025-01-20 08:24:24.44	54.18	7.20	
2025-01-20 08:24:24.64	54.15	7.21	
2025-01-20 08:24:24.84	54.12	7.21	
2025-01-20 08:24:25.05	54.08	7.22	
2025-01-20 08:24:25.25	54.05	7.23	
2025-01-20 08:24:25.45	54.01	7.23	
2025-01-20 08:24:25.65	53.98	7.24	
2025-01-20 08:24:25.86	53.94	7.25	
2025-01-20 08:24:26.06	53.91	7.25	
2025-01-20 08:24:26.26	53.88	7.26	
2025-01-20 08:24:26.47	53.84	7.27	
2025-01-20 08:24:26.67	53.81	7.27	
2025-01-20 08:24:26.87	53.77	7.28	
2025-01-20 08:24:27.08	53.74	7.29	
2025-01-20 08:24:27.28	53.70	7.29	
2025-01-20 08:24:27.48	53.67	7.30	
2025-01-20 08:24:27.69	53.63	7.31	
2025-01-20 08:24:27.89	53.60	7.31	
2025-01-20 08:24:28.09	53.56	7.32	
2025-01-20 08:24:28.29	53.53	7.33	
2025-01-20 08:24:28.50	53.50	7.33	
2025-01-20 08:24:28.70	53.46	7.34	
2025-01-20 08:24:28.90	53.43	7.35	
2025-01-20 08:24:29.11	53.39	7.35	
2025-01-20 08:24:29.31	53.36	7.36	
2025-01-20 08:24:29.51	53.32	7.37	
2025-01-20 08:24:29.72	53.29	7.37	
2025-01-20 08:24:29.92	53.25	7.38	
2025-01-20 08:24:30.12	53.22	7.39	
2025-01-20 08:24:30.33	53.18	7.39	
2025-01-20 08:24:30.53	53.15	7.40	
2025-01-20 08:24:30.73	53.11	7.41	
2025-01-20 08:24:30.93	53.08	7.41	
2025-01-20 08:24:31.14	53.04	7.42	
2025-01-20 08:24:31.34	53.01	7.43	
2025-01-20 08:24:31.54	52.98	7.43	
2025-01-20 08:24:31.75	52.94	7.44	
2025-01-20 08:24:31.95	52.91	7.44	
2025-01-20 08:24:32.15	52.87	7.45	
2025-01-20 08:24:32.36	52.83	7.46	
2025-01-20 08:24:32.56	52.80	7.46	
2025-01-20 08:24:32.76	52.77	7.47	
2025-01-20 08:24:32.97	52.73	7.48	
2025-01-20 08:24:33.17	52.70	7.48	
2025-01-20 08:24:33.37	52.66	7.49	
2025-01-20 08:24:33.57	52.63	7.50	
2025-01-20 08:24:33.78	52.59	7.50	
2025-01-20 08:24:33.98	52.56	7.51	
2025-01-20 08:24:34.18	52.52	7.52	
2025-01-20 08:24:34.39	52.49	7.52	
2025-01-20 08:24:34.59	52.45	7.53	
2025-01-20 08:24:34.79	52.42	7.54	
2025-01-20 08:24:35.00	52.38	7.54	
2025-01-20 08:24:35.20	52.35	7.55	
2025-01-20 08:24:35.40	52.31	7.55	
2025-01-20 08:24:35.61	52.27	7.56	
2025-01-20 08:24:35.81	52.24	7.57	
2025-01-20 08:24:36.01	52.20	7.57	
2025-01-20 08:24:36.21	52.17	7.58	
2025-01-20 08:24:36.42	52.13	7.59	
2025-01-20 08:24:36.62	52.10	7.59	
2025-01-20 08:24:36.82	52.06	7.60	
2025-01-20 08:24:37.03	52.03	7.61	
2025-01-20 08:24:37.23	51.99	7.61	
2025-01-20 08:24:37.43	51.96	7.62	
2025-01-20 08:24:37.64	51.92	7.62	
2025-01-20 08:24:37.84	51.89	7.63	
2025-01-20 08:24:38.04	51.85	7.64	
2025-01-20 08:24:38.25	51.82	7.64	
2025-01-20 08:24:38.45	51.78	7.65	
2025-01-20 08:24:38.65	51.75	7.66	
2025-01-20 08:24:38.85	51.71	7.66	
2025-01-20 08:24:39.06	51.67	7.67	
2025-01-20 08:24:39.26	51.64	7.67	
2025-01-20 08:24:39.46	51.60	7.68	
2025-01-20 08:24:39.67	51.57	7.69	
2025-01-20 08:24:39.87	51.53	7.69	
2025-01-20 08:24:40.07	51.50	7.70	
2025-01-20 08:24:40.28	51.46	7.71	
2025-01-20 08:24:40.48	51.43	7.71	
2025-01-20 08:24:40.68	51.39	7.72	
2025-01-20 08:24:40.89	51.35	7.72	
2025-01-20 08:24:41.09	51.32	7.73	
2025-01-20 08:24:41.29	51.28	7.74	
2025-01-20 08:24:41.49	51.25	7.74	
2025-01-20 08:24:41.70	51.21	7.75	
2025-01-20 08:24:41.90	51.18	7.76	
2025-01-20 08:24:42.10	51.14	7.76	
2025-01-20 08:24:42.31	51.10	7.77	
2025-01-20 08:24:42.51	51.07	7.77	
2025-01-20 08:24:42.71	51.03	7.78	
2025-01-20 08:24:42.92	51.00	7.79	
2025-01-20 08:24:43.12	50.96	7.79	
2025-01-20 08:24:43.32	50.93	7.80	
2025-01-20 08:24:43.53	50.89	7.80	
2025-01-20 08:24:43.73	50.85	7.81	
2025-01-20 08:24:43.93	50.82	7.82	
2025-01-20 08:24:44.13	50.78	7.82	
2025-01-20 08:24:44.34	50.75	7.83	
2025-01-20 08:24:44.54	50.71	7.83	
2025-01-20 08:24:44.74	50.68	7.84	
2025-01-20 08:24:44.95	50.64	7.85	
2025-01-20 08:24:45.15	50.60	7.85	
2025-01-20 08:24:45.35	50.57	7.86	
2025-01-20 08:24:45.56	50.53	7.86	
2025-01-20 08:24:45.76	50.50	7.87	
2025-01-20 08:24:45.96	50.46	7.88	
2025-01-20 08:24:46.17	50.42	7.88	
2025-01-20 08:24:46.37	50.39	7.89	
2025-01-20 08:24:46.57	50.35	7.89	
2025-01-20 08:24:46.77	50.32	7.90	
2025-01-20 08:24:46.98	50.28	7.91	
2025-01-20 08:24:47.18	50.24	7.91	
2025-01-20 08:24:47.38	50.21	7.92	
2025-01-20 08:24:47.59	50.17	7.92	
2025-01-20 08:24:47.79	50.13	7.93	
2025-01-20 08:24:47.99	50.10	7.94	
2025-01-20 08:24:48.20	50.06	7.94	
2025-01-20 08:24:48.40	50.03	7.95	
2025-01-20 08:24:48.60	49.99	7.95	
2025-01-20 08:24:48.81	49.95	7.96	
2025-01-20 08:24:49.01	49.92	7.97	
2025-01-20 08:24:49.21	49.88	7.97	
2025-01-20 08:24:49.42	49.84	7.98	
2025-01-20 08:24:49.62	49.81	7.98	
2025-01-20 08:24:49.82	49.77	7.99	
2025-01-20 08:24:50.02	49.74	7.99	
2025-01-20 08:24:50.23	49.70	8.00	
2025-01-20 08:24:50.43	49.66	8.01	
2025-01-20 08:24:50.63	49.63	8.01	
2025-01-20 08:24:50.84	49.59	8.02	
2025-01-20 08:24:51.04	49.55	8.02	
2025-01-20 08:24:51.24	49.52	8.03	
2025-01-20 08:24:51.45	49.48	8.03	
2025-01-20 08:24:51.65	49.44	8.04	
2025-01-20 08:24:51.85	49.41	8.05	
2025-01-20 08:24:52.06	49.37	8.05	
2025-01-20 08:24:52.26	49.33	8.06	
2025-01-20 08:24:52.46	49.30	8.06	
2025-01-20 08:24:52.66	49.26	8.07	
2025-01-20 08:24:52.87	49.23	8.07	
2025-01-20 08:24:53.07	49.19	8.08	
2025-01-20 08:24:53.27	49.15	8.09	
2025-01-20 08:24:53.48	49.12	8.09	
2025-01-20 08:24:53.68	49.08	8.10	
2025-01-20 08:24:53.88	49.04	8.10	
2025-01-20 08:24:54.09	49.01	8.11	
2025-01-20 08:24:54.29	48.97	8.11	
2025-01-20 08:24:54.49	48.93	8.12	
2025-01-20 08:24:54.70	48.90	8.13	
2025-01-20 08:24:54.90	48.86	8.13	
2025-01-20 08:24:55.10	48.82	8.14	
2025-01-20 08:24:55.30	48.79	8.14	
2025-01-20 08:24:55.51	48.75	8.15	
2025-01-20 08:24:55.71	48.71	8.15	
2025-01-20 08:24:55.91	48.68	8.16	
2025-01-20 08:24:56.12	48.64	8.16	
2025-01-20 08:24:56.32	48.60	8.17	
2025-01-20 08:24:56.52	48.57	8.18	
2025-01-20 08:24:56.73	48.53	8.18	
2025-01-20 08:24:56.93	48.49	8.19	
2025-01-20 08:24:57.13	48.45	8.19	
2025-01-20 08:24:57.34	48.42	8.20	
2025-01-20 08:24:57.54	48.38	8.20	
2025-01-20 08:24:57.74	48.34	8.21	
2025-01-20 08:24:57.94	48.31	8.21	
2025-01-20 08:24:58.15	48.27	8.22	
2025-01-20 08:24:58.35	48.23	8.22	
2025-01-20 08:24:58.55	48.20	8.23	
2025-01-20 08:24:58.76	48.16	8.24	
2025-01-20 08:24:58.96	48.12	8.24	
2025-01-20 08:24:59.16	48.09	8.25	
2025-01-20 08:24:59.37	48.05	8.25	
2025-01-20 08:24:59.57	48.01	8.26	
2025-01-20 08:24:59.77	47.97	8.26	
2025-01-20 08:24:59.98	47.94	8.27	
2025-01-20 08:25:00.18	47.90	8.27	
2025-01-20 08:25:00.38	47.86	8.28	
2025-01-20 08:25:00.58	47.83	8.28	
2025-01-20 08:25:00.79	47.79	8.29	
2025-01-20 08:25:00.99	47.75	8.29	
2025-01-20 08:25:01.19	47.71	8.30	
2025-01-20 08:25:01.40	47.68	8.31	
2025-01-20 08:25:01.60	47.64	8.31	
2025-01-20 08:25:01.80	47.60	8.32	
2025-01-20 08:25:02.01	47.56	8.32	
2025-01-20 08:25:02.21	47.53	8.33	
2025-01-20 08:25:02.41	47.49	8.33	
2025-01-20 08:25:02.62	47.45	8.34	
2025-01-20 08:25:02.82	47.42	8.34	
2025-01-20 08:25:03.02	47.38	8.35	
2025-01-20 08:25:03.22	47.34	8.35	
2025-01-20 08:25:03.43	47.30	8.36	
2025-01-20 08:25:03.63	47.27	8.36	
2025-01-20 08:25:03.83	47.23	8.37	
2025-01-20 08:25:04.04	47.19	8.37	
2025-01-20 08:25:04.24	47.15	8.38	
2025-01-20 08:25:04.44	47.12	8.38	
2025-01-20 08:25:04.65	47.08	8.39	
2025-01-20 08:25:04.85	47.04	8.39	
2025-01-20 08:25:05.05	47.01	8.40	
2025-01-20 08:25:05.26	46.97	8.40	
2025-01-20 08:25:05.46	46.93	8.41	
2025-01-20 08:25:05.66	46.89	8.41	
2025-01-20 08:25:05.86	46.86	8.42	
2025-01-20 08:25:06.07	46.82	8.42	
2025-01-20 08:25:06.27	46.78	8.43	
2025-01-20 08:25:06.47	46.74	8.43	
2025-01-20 08:25:06.68	46.70	8.44	
2025-01-20 08:25:06.88	46.67	8.44	
2025-01-20 08:25:07.08	46.63	8.45	
2025-01-20 08:25:07.29	46.59	8.45	
2025-01-20 08:25:07.49	46.55	8.46	
2025-01-20 08:25:07.69	46.52	8.46	
2025-01-20 08:25:07.90	46.48	8.47	
2025-01-20 08:25:08.10	46.44	8.47	
2025-01-20 08:25:08.30	46.40	8.48	
2025-01-20 08:25:08.50	46.37	8.48	
2025-01-20 08:25:08.71	46.33	8.49	
2025-01-20 08:25:08.91	46.29	8.49	
2025-01-20 08:25:09.11	46.25	8.50	
2025-01-20 08:25:09.32	46.21	8.50	
2025-01-20 08:25:09.52	46.18	8.51	
2025-01-20 08:25:09.72	46.14	8.51	
2025-01-20 08:25:09.93	46.10	8.52	
2025-01-20 08:25:10.13	46.06	8.52	
2025-01-20 08:25:10.33	46.03	8.53	
2025-01-20 08:25:10.54	45.99	8.53	
2025-01-20 08:25:10.74	45.95	8.54	
2025-01-20 08:25:10.94	45.91	8.54	
2025-01-20 08:25:11.15	45.87	8.55	
2025-01-20 08:25:11.35	45.84	8.55	
2025-01-20 08:25:11.55	45.80	8.56	
2025-01-20 08:25:11.75	45.76	8.56	
2025-01-20 08:25:11.96	45.72	8.57	
2025-01-20 08:25:12.16	45.69	8.57	
2025-01-20 08:25:12.36	45.65	8.58	
2025-01-20 08:25:12.57	45.61	8.58	
2025-01-20 08:25:12.77	45.57	8.59	
2025-01-20 08:25:12.97	45.53	8.59	
2025-01-20 08:25:13.18	45.49	8.60	
2025-01-20 08:25:13.38	45.46	8.60	
2025-01-20 08:25:13.58	45.42	8.60	
2025-01-20 08:25:13.79	45.38	8.61	
2025-01-20 08:25:13.99	45.34	8.61	
2025-01-20 08:25:14.19	45.31	8.62	
2025-01-20 08:25:14.39	45.27	8.62	
2025-01-20 08:25:14.60	45.23	8.63	
2025-01-20 08:25:14.80	45.19	8.63	
2025-01-20 08:25:15.00	45.15	8.64	
2025-01-20 08:25:15.21	45.11	8.64	
2025-01-20 08:25:15.41	45.08	8.65	
2025-01-20 08:25:15.61	45.04	8.65	
2025-01-20 08:25:15.82	45.00	8.66	
2025-01-20 08:25:16.02	44.96	8.66	
2025-01-20 08:25:16.22	44.92	8.67	
2025-01-20 08:25:16.43	44.88	8.67	
2025-01-20 08:25:16.63	44.85	8.67	
2025-01-20 08:25:16.83	44.81	8.68	
2025-01-20 08:25:17.03	44.77	8.68	
2025-01-20 08:25:17.24	44.73	8.69	
2025-01-20 08:25:17.44	44.69	8.69	
2025-01-20 08:25:17.64	44.66	8.70	
2025-01-20 08:25:17.85	44.62	8.70	
2025-01-20 08:25:18.05	44.58	8.71	
2025-01-20 08:25:18.25	44.54	8.71	
2025-01-20 08:25:18.46	44.50	8.71	
2025-01-20 08:25:18.66	44.46	8.72	
2025-01-20 08:25:18.86	44.43	8.72	
2025-01-20 08:25:19.07	44.39	8.73	
2025-01-20 08:25:19.27	44.35	8.73	
2025-01-20 08:25:19.47	44.31	8.74	
2025-01-20 08:25:19.67	44.27	8.74	
2025-01-20 08:25:19.88	44.23	8.75	
2025-01-20 08:25:20.08	44.20	8.75	
2025-01-20 08:25:20.28	44.16	8.75	
2025-01-20 08:25:20.49	44.12	8.76	
2025-01-20 08:25:20.69	44.08	8.76	
2025-01-20 08:25:20.89	44.04	8.77	
2025-01-20 08:25:21.10	44.00	8.77	
2025-01-20 08:25:21.30	43.96	8.78	
2025-01-20 08:25:21.50	43.93	8.78	
2025-01-20 08:25:21.71	43.89	8.78	
2025-01-20 08:25:21.91	43.85	8.79	
2025-01-20 08:25:22.11	43.81	8.79	
2025-01-20 08:25:22.31	43.77	8.80	
2025-01-20 08:25:22.52	43.73	8.80	
2025-01-20 08:25:22.72	43.69	8.81	
2025-01-20 08:25:22.92	43.66	8.81	
2025-01-20 08:25:23.13	43.62	8.81	
2025-01-20 08:25:23.33	43.58	8.82	
2025-01-20 08:25:23.53	43.54	8.82	
2025-01-20 08:25:23.74	43.50	8.83	
2025-01-20 08:25:23.94	43.46	8.83	
2025-01-20 08:25:24.14	43.42	8.83	
2025-01-20 08:25:24.35	43.38	8.84	
2025-01-20 08:25:24.55	43.35	8.84	
2025-01-20 08:25:24.75	43.31	8.85	
2025-01-20 08:25:24.95	43.27	8.85	
2025-01-20 08:25:25.16	43.23	8.86	
2025-01-20 08:25:25.36	43.19	8.86	
2025-01-20 08:25:25.56	43.15	8.86	
2025-01-20 08:25:25.77	43.11	8.87	
2025-01-20 08:25:25.97	43.08	8.87	
2025-01-20 08:25:26.17	43.04	8.88	
2025-01-20 08:25:26.38	43.00	8.88	
2025-01-20 08:25:26.58	42.96	8.88	
2025-01-20 08:25:26.78	42.92	8.89	
2025-01-20 08:25:26.99	42.88	8.89	
2025-01-20 08:25:27.19	42.84	8.90	
2025-01-20 08:25:27.39	42.80	8.90	
2025-01-20 08:25:27.59	42.77	8.90	
2025-01-20 08:25:27.80	42.73	8.91	
2025-01-20 08:25:28.00	42.69	8.91	
2025-01-20 08:25:28.20	42.65	8.92	
2025-01-20 08:25:28.41	42.61	8.92	
2025-01-20 08:25:28.61	42.57	8.92	
2025-01-20 08:25:28.81	42.53	8.93	
2025-01-20 08:25:29.02	42.49	8.93	
2025-01-20 08:25:29.22	42.45	8.94	
2025-01-20 08:25:29.42	42.41	8.94	
2025-01-20 08:25:29.63	42.37	8.94	
2025-01-20 08:25:29.83	42.34	8.95	
2025-01-20 08:25:30.03	42.30	8.95	
2025-01-20 08:25:30.23	42.26	8.95	
2025-01-20 08:25:30.44	42.22	8.96	
2025-01-20 08:25:30.64	42.18	8.96	
2025-01-20 08:25:30.84	42.14	8.97	
2025-01-20 08:25:31.05	42.10	8.97	
2025-01-20 08:25:31.25	42.06	8.97	
2025-01-20 08:25:31.45	42.02	8.98	
2025-01-20 08:25:31.66	41.98	8.98	
2025-01-20 08:25:31.86	41.95	8.98	
2025-01-20 08:25:32.06	41.91	8.99	
2025-01-20 08:25:32.27	41.87	8.99	
2025-01-20 08:25:32.47	41.83	9.00	
2025-01-20 08:25:32.67	41.79	9.00	
2025-01-20 08:25:32.87	41.75	9.00	
2025-01-20 08:25:33.08	41.71	9.01	
2025-01-20 08:25:33.28	41.67	9.01	
2025-01-20 08:25:33.48	41.63	9.01	
2025-01-20 08:25:33.69	41.59	9.02	
2025-01-20 08:25:33.90	41.55	9.02	
2025-01-20 08:25:34.11	41.51	9.03	
2025-01-20 08:25:34.31	41.47	9.03	
2025-01-20 08:25:34.51	41.43	9.03	
2025-01-20 08:25:34.71	41.39	9.04	
2025-01-20 08:25:34.92	41.35	9.04	
2025-01-20 08:25:35.12	41.32	9.04	
2025-01-20 08:25:35.32	41.28	9.05	
2025-01-20 08:25:35.53	41.24	9.05	
2025-01-20 08:25:35.73	41.20	9.05	
2025-01-20 08:25:35.93	41.16	9.06	
2025-01-20 08:25:36.14	41.12	9.06	
2025-01-20 08:25:36.34	41.08	9.06	
2025-01-20 08:25:36.54	41.04	9.07	
2025-01-20 08:25:36.75	41.00	9.07	
2025-01-20 08:25:36.95	40.96	9.07	
2025-01-20 08:25:37.15	40.92	9.08	
2025-01-20 08:25:37.35	40.88	9.08	
2025-01-20 08:25:37.56	40.84	9.08	
2025-01-20 08:25:37.76	40.80	9.09	
2025-01-20 08:25:37.96	40.77	9.09	
2025-01-20 08:25:38.17	40.72	9.09	
2025-01-20 08:25:38.37	40.69	9.10	
2025-01-20 08:25:38.57	40.65	9.10	
2025-01-20 08:25:38.78	40.61	9.10	
2025-01-20 08:25:38.98	40.57	9.11	
2025-01-20 08:25:39.18	40.53	9.11	
2025-01-20 08:25:39.39	40.49	9.11	
2025-01-20 08:25:39.59	40.45	9.12	
2025-01-20 08:25:39.79	40.41	9.12	
2025-01-20 08:25:39.99	40.37	9.12	
2025-01-20 08:25:40.20	40.33	9.13	
2025-01-20 08:25:40.40	40.29	9.13	
2025-01-20 08:25:40.60	40.25	9.13	
2025-01-20 08:25:40.81	40.21	9.14	
2025-01-20 08:25:41.01	40.17	9.14	
2025-01-20 08:25:41.21	40.13	9.14	
2025-01-20 08:25:41.42	40.09	9.15	
2025-01-20 08:25:41.62	40.05	9.15	
2025-01-20 08:25:41.82	40.01	9.15	
2025-01-20 08:25:42.03	39.97	9.16	
2025-01-20 08:25:42.23	39.93	9.16	
2025-01-20 08:25:42.43	39.89	9.16	
2025-01-20 08:25:42.63	39.86	9.17	
2025-01-20 08:25:42.84	39.81	9.17	
2025-01-20 08:25:43.04	39.78	9.17	
2025-01-20 08:25:43.24	39.74	9.18	
2025-01-20 08:25:43.45	39.70	9.18	
2025-01-20 08:25:43.65	39.66	9.18	
2025-01-20 08:25:43.85	39.62	9.18	
2025-01-20 08:25:44.06	39.58	9.19	
2025-01-20 08:25:44.26	39.54	9.19	
2025-01-20 08:25:44.46	39.50	9.19	
2025-01-20 08:25:44.67	39.46	9.20	
2025-01-20 08:25:44.87	39.42	9.20	
2025-01-20 08:25:45.07	39.38	9.20	
2025-01-20 08:25:45.27	39.34	9.21	
2025-01-20 08:25:45.48	39.30	9.21	
2025-01-20 08:25:45.68	39.26	9.21	
2025-01-20 08:25:45.88	39.22	9.21	
2025-01-20 08:25:46.09	39.18	9.22	
2025-01-20 08:25:46.29	39.14	9.22	
2025-01-20 08:25:46.49	39.10	9.22	
2025-01-20 08:25:46.70	39.06	9.23	
2025-01-20 08:25:46.90	39.02	9.23	
2025-01-20 08:25:47.10	38.98	9.23	
2025-01-20 08:25:47.31	38.94	9.23	
2025-01-20 08:25:47.51	38.90	9.24	
2025-01-20 08:25:47.71	38.86	9.24	
2025-01-20 08:25:47.91	38.82	9.24	
2025-01-20 08:25:48.12	38.78	9.25	
2025-01-20 08:25:48.32	38.74	9.25	
2025-01-20 08:25:48.52	38.70	9.25	
2025-01-20 08:25:48.73	38.66	9.25	
2025-01-20 08:25:48.93	38.62	9.26	
2025-01-20 08:25:49.13	38.58	9.26	
2025-01-20 08:25:49.34	38.54	9.26	
2025-01-20 08:25:49.54	38.50	9.26	
2025-01-20 08:25:49.74	38.46	9.27	
2025-01-20 08:25:49.95	38.42	9.27	
2025-01-20 08:25:50.15	38.38	9.27	
2025-01-20 08:25:50.35	38.34	9.28	
2025-01-20 08:25:50.56	38.30	9.28	
2025-01-20 08:25:50.76	38.26	9.28	
2025-01-20 08:25:50.96	38.22	9.28	
2025-01-20 08:25:51.16	38.18	9.29	
2025-01-20 08:25:51.37	38.14	9.29	
2025-01-20 08:25:51.57	38.10	9.29	
2025-01-20 08:25:51.77	38.06	9.29	
2025-01-20 08:25:51.98	38.02	9.30	
2025-01-20 08:25:52.18	37.98	9.30	
2025-01-20 08:25:52.38	37.94	9.30	
2025-01-20 08:25:52.59	37.90	9.30	
2025-01-20 08:25:52.79	37.86	9.31	
2025-01-20 08:25:52.99	37.82	9.31	
2025-01-20 08:25:53.19	37.78	9.31	
2025-01-20 08:25:53.40	37.74	9.31	
2025-01-20 08:25:53.60	37.70	9.32	
2025-01-20 08:25:53.80	37.66	9.32	
2025-01-20 08:25:54.01	37.62	9.32	
2025-01-20 08:25:54.21	37.58	9.32	
2025-01-20 08:25:54.41	37.54	9.33	
2025-01-20 08:25:54.62	37.50	9.33	
2025-01-20 08:25:54.82	37.46	9.33	
2025-01-20 08:25:55.02	37.42	9.33	
2025-01-20 08:25:55.23	37.38	9.34	
2025-01-20 08:25:55.43	37.34	9.34	
2025-01-20 08:25:55.63	37.30	9.34	
2025-01-20 08:25:55.84	37.26	9.34	
2025-01-20 08:25:56.04	37.22	9.34	
2025-01-20 08:25:56.24	37.18	9.35	
2025-01-20 08:25:56.44	37.14	9.35	
2025-01-20 08:25:56.65	37.10	9.35	
2025-01-20 08:25:56.85	37.06	9.35	
2025-01-20 08:25:57.05	37.02	9.36	
2025-01-20 08:25:57.26	36.98	9.36	
2025-01-20 08:25:57.46	36.94	9.36	
2025-01-20 08:25:57.66	36.90	9.36	
2025-01-20 08:25:57.87	36.86	9.37	
2025-01-20 08:25:58.07	36.82	9.37	
2025-01-20 08:25:58.27	36.78	9.37	
2025-01-20 08:25:58.48	36.73	9.37	
2025-01-20 08:25:58.68	36.70	9.37	
2025-01-20 08:25:58.88	36.66	9.38	
2025-01-20 08:25:59.08	36.62	9.38	
2025-01-20 08:25:59.29	36.57	9.38	
2025-01-20 08:25:59.49	36.53	9.38	
2025-01-20 08:25:59.69	36.49	9.38	
2025-01-20 08:25:59.90	36.45	9.39	
2025-01-20 08:26:00.10	36.41	9.39	
2025-01-20 08:26:00.30	36.37	9.39	
2025-01-20 08:26:00.51	36.33	9.39	
2025-01-20 08:26:00.71	36.29	9.39	
2025-01-20 08:26:00.91	36.25	9.40	
2025-01-20 08:26:01.12	36.21	9.40	
2025-01-20 08:26:01.32	36.17	9.40	
2025-01-20 08:26:01.52	36.13	9.40	
2025-01-20 08:26:01.72	36.09	9.40	
2025-01-20 08:26:01.93	36.05	9.41	
2025-01-20 08:26:02.13	36.01	9.41	
2025-01-20 08:26:02.33	35.97	9.41	
2025-01-20 08:26:02.54	35.93	9.41	
2025-01-20 08:26:02.74	35.89	9.41	
2025-01-20 08:26:02.94	35.85	9.42	
2025-01-20 08:26:03.15	35.81	9.42	
2025-01-20 08:26:03.35	35.77	9.42	
2025-01-20 08:26:03.55	35.73	9.42	
2025-01-20 08:26:03.76	35.69	9.42	
2025-01-20 08:26:03.96	35.65	9.43	
2025-01-20 08:26:04.16	35.61	9.43	
2025-01-20 08:26:04.36	35.57	9.43	
2025-01-20 08:26:04.57	35.52	9.43	
2025-01-20 08:26:04.77	35.48	9.43	
2025-01-20 08:26:04.97	35.44	9.43	
2025-01-20 08:26:05.18	35.40	9.44	
2025-01-20 08:26:05.38	35.36	9.44	
2025-01-20 08:26:05.58	35.32	9.44	
2025-01-20 08:26:05.79	35.28	9.44	
2025-01-20 08:26:05.99	35.24	9.44	
2025-01-20 08:26:06.19	35.20	9.44	
2025-01-20 08:26:06.40	35.16	9.45	
2025-01-20 08:26:06.60	35.12	9.45	
2025-01-20 08:26:06.80	35.08	9.45	
2025-01-20 08:26:07.00	35.04	9.45	
2025-01-20 08:26:07.21	35.00	9.45	
2025-01-20 08:26:07.41	34.96	9.45	
2025-01-20 08:26:07.61	34.92	9.46	
2025-01-20 08:26:07.82	34.88	9.46	
2025-01-20 08:26:08.02	34.84	9.46	
2025-01-20 08:26:08.22	34.80	9.46	
2025-01-20 08:26:08.43	34.75	9.46	
2025-01-20 08:26:08.63	34.71	9.46	
2025-01-20 08:26:08.83	34.68	9.47	
2025-01-20 08:26:09.04	34.63	9.47	
2025-01-20 08:26:09.24	34.59	9.47	
2025-01-20 08:26:09.44	34.55	9.47	
2025-01-20 08:26:09.64	34.51	9.47	
2025-01-20 08:26:09.85	34.47	9.47	
2025-01-20 08:26:10.05	34.43	9.47	
2025-01-20 08:26:10.25	34.39	9.48	
2025-01-20 08:26:10.46	34.35	9.48	
2025-01-20 08:26:10.66	34.31	9.48	
2025-01-20 08:26:10.86	34.27	9.48	
2025-01-20 08:26:11.07	34.23	9.48	
2025-01-20 08:26:11.27	34.19	9.48	
2025-01-20 08:26:11.47	34.15	9.48	
2025-01-20 08:26:11.68	34.11	9.49	
2025-01-20 08:26:11.88	34.07	9.49	
2025-01-20 08:26:12.08	34.03	9.49	
2025-01-20 08:26:12.29	33.98	9.49	
2025-01-20 08:26:12.49	33.94	9.49	
2025-01-20 08:26:12.69	33.90	9.49	
2025-01-20 08:26:12.89	33.86	9.49	
2025-01-20 08:26:13.10	33.82	9.49	
2025-01-20 08:26:13.30	33.78	9.50	
2025-01-20 08:26:13.50	33.74	9.50	
2025-01-20 08:26:13.71	33.70	9.50	
2025-01-20 08:26:13.91	33.66	9.50	
2025-01-20 08:26:14.11	33.62	9.50	
2025-01-20 08:26:14.32	33.58	9.50	
2025-01-20 08:26:14.52	33.54	9.50	
2025-01-20 08:26:14.72	33.50	9.50	
2025-01-20 08:26:14.93	33.46	9.50	
2025-01-20 08:26:15.13	33.42	9.51	
2025-01-20 08:26:15.33	33.38	9.51	
2025-01-20 08:26:15.53	33.34	9.51	
2025-01-20 08:26:15.74	33.29	9.51	
2025-01-20 08:26:15.94	33.25	9.51	
2025-01-20 08:26:16.14	33.21	9.51	
2025-01-20 08:26:16.35	33.17	9.51	
2025-01-20 08:26:16.55	33.13	9.51	
2025-01-20 08:26:16.75	33.09	9.51	
2025-01-20 08:26:16.96	33.05	9.52	
2025-01-20 08:26:17.16	33.01	9.52	
2025-01-20 08:26:17.36	32.97	9.52	
2025-01-20 08:26:17.57	32.93	9.52	
2025-01-20 08:26:17.77	32.89	9.52	
2025-01-20 08:26:17.97	32.85	9.52	
2025-01-20 08:26:18.17	32.81	9.52	
2025-01-20 08:26:18.38	32.76	9.52	
2025-01-20 08:26:18.58	32.72	9.52	
2025-01-20 08:26:18.78	32.68	9.52	
2025-01-20 08:26:18.99	32.64	9.52	
2025-01-20 08:26:19.19	32.60	9.53	
2025-01-20 08:26:19.39	32.56	9.53	
2025-01-20 08:26:19.60	32.52	9.53	
2025-01-20 08:26:19.80	32.48	9.53	
2025-01-20 08:26:20.00	32.44	9.53	
2025-01-20 08:26:20.21	32.40	9.53	
2025-01-20 08:26:20.41	32.36	9.53	
2025-01-20 08:26:20.61	32.32	9.53	
2025-01-20 08:26:20.81	32.28	9.53	
2025-01-20 08:26:21.02	32.23	9.53	
2025-01-20 08:26:21.22	32.19	9.53	
2025-01-20 08:26:21.42	32.15	9.53	
2025-01-20 08:26:21.63	32.11	9.53	
2025-01-20 08:26:21.83	32.07	9.54	
2025-01-20 08:26:22.03	32.03	9.54	
2025-01-20 08:26:22.24	31.99	9.54	
2025-01-20 08:26:22.44	31.95	9.54	
2025-01-20 08:26:22.64	31.91	9.54	
2025-01-20 08:26:22.85	31.87	9.54	
2025-01-20 08:26:23.05	31.83	9.54	
2025-01-20 08:26:23.25	31.79	9.54	
2025-01-20 08:26:23.45	31.75	9.54	
2025-01-20 08:26:23.66	31.70	9.54	
2025-01-20 08:26:23.86	31.66	9.54	
2025-01-20 08:26:24.06	31.62	9.54	
2025-01-20 08:26:24.27	31.58	9.54	
2025-01-20 08:26:24.47	31.54	9.54	
2025-01-20 08:26:24.67	31.50	9.54	
2025-01-20 08:26:24.88	31.46	9.54	
2025-01-20 08:26:25.08	31.42	9.54	
2025-01-20 08:26:25.28	31.38	9.55	
2025-01-20 08:26:25.49	31.34	9.55	
2025-01-20 08:26:25.69	31.30	9.55	
2025-01-20 08:26:25.89	31.26	9.55	
2025-01-20 08:26:26.09	31.22	9.55	
2025-01-20 08:26:26.30	31.17	9.55	
2025-01-20 08:26:26.50	31.13	9.55	
2025-01-20 08:26:26.70	31.09	9.55	
2025-01-20 08:26:26.91	31.05	9.55	
2025-01-20 08:26:27.11	31.01	9.55	
2025-01-20 08:26:27.31	30.97	9.55	
2025-01-20 08:26:27.52	30.93	9.55	
2025-01-20 08:26:27.72	30.89	9.55	
2025-01-20 08:26:27.92	30.85	9.55	
2025-01-20 08:26:28.13	30.81	9.55	
2025-01-20 08:26:28.33	30.77	9.55	
2025-01-20 08:26:28.53	30.73	9.55	
2025-01-20 08:26:28.73	30.69	9.55	
2025-01-20 08:26:28.94	30.64	9.55	
2025-01-20 08:26:29.14	30.60	9.55	
2025-01-20 08:26:29.34	30.56	9.55	
2025-01-20 08:26:29.55	30.52	9.55	
2025-01-20 08:26:29.75	30.48	9.55	
2025-01-20 08:26:29.95	30.44	9.55	
2025-01-20 08:26:30.16	30.40	9.55	
2025-01-20 08:26:30.36	30.36	9.55	
2025-01-20 08:26:30.56	30.32	9.55	
2025-01-20 08:26:30.77	30.28	9.55	
2025-01-20 08:26:30.97	30.24	9.55	
2025-01-20 08:26:31.17	30.20	9.55	
2025-01-20 08:26:31.37	30.16	9.55	
2025-01-20 08:26:31.58	30.11	9.55	
2025-01-20 08:26:31.78	30.07	9.55	
2025-01-20 08:26:31.98	30.03	9.55	
2025-01-20 08:26:32.19	29.99	9.55	
2025-01-20 08:26:32.39	29.95	9.55	
2025-01-20 08:26:32.59	29.91	9.55	
2025-01-20 08:26:32.80	29.87	9.55	
2025-01-20 08:26:33.00	29.83	9.55	
2025-01-20 08:26:33.20	29.79	9.55	
2025-01-20 08:26:33.41	29.75	9.55	
2025-01-20 08:26:33.61	29.71	9.55	
2025-01-20 08:26:33.81	29.67	9.55	
2025-01-20 08:26:34.01	29.63	9.55	
2025-01-20 08:26:34.22	29.58	9.55	
2025-01-20 08:26:34.42	29.54	9.55	
2025-01-20 08:26:34.62	29.50	9.55	
2025-01-20 08:26:34.83	29.46	9.55	
2025-01-20 08:26:35.03	29.42	9.55	
2025-01-20 08:26:35.23	29.38	9.55	
2025-01-20 08:26:35.44	29.34	9.55	
2025-01-20 08:26:35.64	29.30	9.55	
2025-01-20 08:26:35.84	29.26	9.55	
2025-01-20 08:26:36.05	29.22	9.55	
2025-01-20 08:26:36.25	29.18	9.55	
2025-01-20 08:26:36.45	29.14	9.55	
2025-01-20 08:26:36.66	29.09	9.55	
2025-01-20 08:26:36.86	29.05	9.55	
2025-01-20 08:26:37.06	29.01	9.55	
2025-01-20 08:26:37.26	28.97	9.55	
2025-01-20 08:26:37.47	28.93	9.55	
2025-01-20 08:26:37.67	28.89	9.55	
2025-01-20 08:26:37.87	28.85	9.55	
2025-01-20 08:26:38.08	28.81	9.55	
2025-01-20 08:26:38.28	28.77	9.55	
2025-01-20 08:26:38.48	28.73	9.55	
2025-01-20 08:26:38.69	28.69	9.55	
2025-01-20 08:26:38.89	28.65	9.55	
2025-01-20 08:26:39.09	28.60	9.55	
2025-01-20 08:26:39.30	28.56	9.55	
2025-01-20 08:26:39.50	28.52	9.55	
2025-01-20 08:26:39.70	28.48	9.55	
2025-01-20 08:26:39.90	28.44	9.54	
2025-01-20 08:26:40.11	28.40	9.54	
2025-01-20 08:26:40.31	28.36	9.54	
2025-01-20 08:26:40.51	28.32	9.54	
2025-01-20 08:26:40.72	28.28	9.54	
2025-01-20 08:26:40.92	28.24	9.54	
2025-01-20 08:26:41.12	28.20	9.54	
2025-01-20 08:26:41.33	28.16	9.54	
2025-01-20 08:26:41.53	28.12	9.54	
2025-01-20 08:26:41.73	28.07	9.54	
2025-01-20 08:26:41.94	28.03	9.54	
2025-01-20 08:26:42.14	27.99	9.54	
2025-01-20 08:26:42.34	27.95	9.54	
2025-01-20 08:26:42.54	27.91	9.54	
2025-01-20 08:26:42.75	27.87	9.54	
2025-01-20 08:26:42.95	27.83	9.54	
2025-01-20 08:26:43.15	27.79	9.54	
2025-01-20 08:26:43.36	27.75	9.53	
2025-01-20 08:26:43.56	27.71	9.53	
2025-01-20 08:26:43.76	27.67	9.53	
2025-01-20 08:26:43.97	27.63	9.53	
2025-01-20 08:26:44.17	27.59	9.53	
2025-01-20 08:26:44.37	27.55	9.53	
2025-01-20 08:26:44.58	27.50	9.53	
2025-01-20 08:26:44.78	27.46	9.53	
2025-01-20 08:26:44.98	27.42	9.53	
2025-01-20 08:26:45.18	27.38	9.53	
2025-01-20 08:26:45.39	27.34	9.53	
2025-01-20 08:26:45.59	27.30	9.53	
2025-01-20 08:26:45.79	27.26	9.53	
2025-01-20 08:26:46.00	27.22	9.52	
2025-01-20 08:26:46.20	27.18	9.52	
2025-01-20 08:26:46.40	27.14	9.52	
2025-01-20 08:26:46.61	27.10	9.52	
2025-01-20 08:26:46.81	27.06	9.52	
2025-01-20 08:26:47.01	27.02	9.52	
2025-01-20 08:26:47.22	26.97	9.52	
2025-01-20 08:26:47.42	26.93	9.52	
2025-01-20 08:26:47.62	26.89	9.52	
2025-01-20 08:26:47.82	26.85	9.52	
2025-01-20 08:26:48.03	26.81	9.52	
2025-01-20 08:26:48.23	26.77	9.51	
2025-01-20 08:26:48.43	26.73	9.51	
2025-01-20 08:26:48.64	26.69	9.51	
2025-01-20 08:26:48.84	26.65	9.51	
2025-01-20 08:26:49.04	26.61	9.51	
2025-01-20 08:26:49.25	26.57	9.51	
2025-01-20 08:26:49.45	26.53	9.51	
2025-01-20 08:26:49.65	26.49	9.51	
2025-01-20 08:26:49.86	26.45	9.51	
2025-01-20 08:26:50.06	26.41	9.50	
2025-01-20 08:26:50.26	26.37	9.50	
2025-01-20 08:26:50.46	26.33	9.50	
2025-01-20 08:26:50.67	26.28	9.50	
2025-01-20 08:26:50.87	26.24	9.50	
2025-01-20 08:26:51.07	26.20	9.50	
2025-01-20 08:26:51.28	26.16	9.50	
2025-01-20 08:26:51.48	26.12	9.50	
2025-01-20 08:26:51.68	26.08	9.50	
2025-01-20 08:26:51.89	26.04	9.49	
2025-01-20 08:26:52.09	26.00	9.49	
2025-01-20 08:26:52.29	25.96	9.49	
2025-01-20 08:26:52.50	25.92	9.49	
2025-01-20 08:26:52.70	25.88	9.49	
2025-01-20 08:26:52.90	25.84	9.49	
2025-01-20 08:26:53.10	25.80	9.49	
2025-01-20 08:26:53.31	25.76	9.48	
2025-01-20 08:26:53.51	25.72	9.48	
2025-01-20 08:26:53.71	25.68	9.48	
2025-01-20 08:26:53.92	25.63	9.48	
2025-01-20 08:26:54.12	25.59	9.48	
2025-01-20 08:26:54.32	25.55	9.48	
2025-01-20 08:26:54.53	25.51	9.48	
2025-01-20 08:26:54.73	25.47	9.48	
2025-01-20 08:26:54.93	25.43	9.47	
2025-01-20 08:26:55.14	25.39	9.47	
2025-01-20 08:26:55.34	25.35	9.47	
2025-01-20 08:26:55.54	25.31	9.47	
2025-01-20 08:26:55.74	25.27	9.47	
2025-01-20 08:26:55.95	25.23	9.47	
2025-01-20 08:26:56.15	25.19	9.47	
2025-01-20 08:26:56.35	25.15	9.46	
2025-01-20 08:26:56.56	25.11	9.46	
2025-01-20 08:26:56.76	25.07	9.46	
2025-01-20 08:26:56.96	25.03	9.46	
2025-01-20 08:26:57.17	24.98	9.46	
2025-01-20 08:26:57.37	24.94	9.46	
2025-01-20 08:26:57.57	24.90	9.45	
2025-01-20 08:26:57.78	24.86	9.45	
2025-01-20 08:26:57.98	24.82	9.45	
2025-01-20 08:26:58.18	24.78	9.45	
2025-01-20 08:26:58.39	24.74	9.45	
2025-01-20 08:26:58.59	24.70	9.45	
2025-01-20 08:26:58.79	24.66	9.44	
2025-01-20 08:26:58.99	24.62	9.44	
2025-01-20 08:26:59.20	24.58	9.44	
2025-01-20 08:26:59.40	24.54	9.44	
2025-01-20 08:26:59.60	24.50	9.44	
2025-01-20 08:26:59.81	24.46	9.44	
2025-01-20 08:27:00.01	24.42	9.43	
2025-01-20 08:27:00.21	24.38	9.43	
2025-01-20 08:27:00.42	24.34	9.43	
2025-01-20 08:27:00.62	24.30	9.43	
2025-01-20 08:27:00.82	24.26	9.43	
2025-01-20 08:27:01.03	24.22	9.43	
2025-01-20 08:27:01.23	24.18	9.42	
2025-01-20 08:27:01.43	24.14	9.42	
2025-01-20 08:27:01.63	24.10	9.42	
2025-01-20 08:27:01.84	24.05	9.42	
2025-01-20 08:27:02.04	24.01	9.42	
2025-01-20 08:27:02.24	23.97	9.41	
2025-01-20 08:27:02.45	23.93	9.41	
2025-01-20 08:27:02.65	23.89	9.41	
2025-01-20 08:27:02.85	23.85	9.41	
2025-01-20 08:27:03.06	23.81	9.41	
2025-01-20 08:27:03.26	23.77	9.40	
2025-01-20 08:27:03.46	23.73	9.40	
2025-01-20 08:27:03.67	23.69	9.40	
2025-01-20 08:27:03.87	23.65	9.40	
2025-01-20 08:27:04.07	23.61	9.40	
2025-01-20 08:27:04.27	23.57	9.39	
2025-01-20 08:27:04.48	23.53	9.39	
2025-01-20 08:27:04.68	23.49	9.39	
2025-01-20 08:27:04.88	23.45	9.39	
2025-01-20 08:27:05.09	23.41	9.39	
2025-01-20 08:27:05.29	23.37	9.38	
2025-01-20 08:27:05.49	23.33	9.38	
2025-01-20 08:27:05.70	23.29	9.38	
2025-01-20 08:27:05.90	23.25	9.38	
2025-01-20 08:27:06.10	23.21	9.38	
2025-01-20 08:27:06.31	23.17	9.37	
2025-01-20 08:27:06.51	23.13	9.37	
2025-01-20 08:27:06.71	23.09	9.37	
2025-01-20 08:27:06.91	23.05	9.37	
2025-01-20 08:27:07.12	23.01	9.36	
2025-01-20 08:27:07.32	22.97	9.36	
2025-01-20 08:27:07.52	22.93	9.36	
2025-01-20 08:27:07.73	22.89	9.36	
2025-01-20 08:27:07.93	22.85	9.36	
2025-01-20 08:27:08.13	22.81	9.35	
2025-01-20 08:27:08.34	22.77	9.35	
2025-01-20 08:27:08.54	22.73	9.35	
2025-01-20 08:27:08.74	22.69	9.35	
2025-01-20 08:27:08.95	22.64	9.34	
2025-01-20 08:27:09.15	22.60	9.34	
2025-01-20 08:27:09.35	22.57	9.34	
2025-01-20 08:27:09.55	22.53	9.34	
2025-01-20 08:27:09.76	22.48	9.34	
2025-01-20 08:27:09.96	22.44	9.33	
2025-01-20 08:27:10.16	22.41	9.33	
2025-01-20 08:27:10.37	22.36	9.33	
2025-01-20 08:27:10.57	22.32	9.33	
2025-01-20 08:27:10.77	22.28	9.32	
2025-01-20 08:27:10.98	22.24	9.32	
2025-01-20 08:27:11.18	22.20	9.32	
2025-01-20 08:27:11.38	22.16	9.32	
2025-01-20 08:27:11.59	22.12	9.31	
2025-01-20 08:27:11.79	22.08	9.31	
2025-01-20 08:27:11.99	22.04	9.31	
2025-01-20 08:27:12.19	22.00	9.31	
2025-01-20 08:27:12.40	21.96	9.30	
2025-01-20 08:27:12.60	21.92	9.30	
2025-01-20 08:27:12.80	21.88	9.30	
2025-01-20 08:27:13.01	21.84	9.30	
2025-01-20 08:27:13.21	21.80	9.29	
2025-01-20 08:27:13.41	21.76	9.29	
2025-01-20 08:27:13.62	21.72	9.29	
2025-01-20 08:27:13.82	21.68	9.29	
2025-01-20 08:27:14.02	21.64	9.28	
2025-01-20 08:27:14.23	21.60	9.28	
2025-01-20 08:27:14.43	21.56	9.28	
2025-01-20 08:27:14.63	21.52	9.28	
2025-01-20 08:27:14.83	21.48	9.27	
2025-01-20 08:27:15.04	21.44	9.27	
2025-01-20 08:27:15.24	21.40	9.27	
2025-01-20 08:27:15.44	21.37	9.26	
2025-01-20 08:27:15.65	21.32	9.26	
2025-01-20 08:27:15.85	21.28	9.26	
2025-01-20 08:27:16.05	21.25	9.26	
2025-01-20 08:27:16.26	21.20	9.25	
2025-01-20 08:27:16.46	21.16	9.25	
2025-01-20 08:27:16.66	21.13	9.25	
2025-01-20 08:27:16.87	21.08	9.25	
2025-01-20 08:27:17.07	21.04	9.24	
2025-01-20 08:27:17.27	21.01	9.24	
2025-01-20 08:27:17.47	20.97	9.24	
2025-01-20 08:27:17.68	20.93	9.23	
2025-01-20 08:27:17.88	20.89	9.23	
2025-01-20 08:27:18.08	20.85	9.23	
2025-01-20 08:27:18.29	20.81	9.23	
2025-01-20 08:27:18.49	20.77	9.22	
2025-01-20 08:27:18.69	20.73	9.22	
2025-01-20 08:27:18.90	20.69	9.22	
2025-01-20 08:27:19.10	20.65	9.21	
2025-01-20 08:27:19.30	20.61	9.21	
2025-01-20 08:27:19.51	20.57	9.21	
2025-01-20 08:27:19.71	20.53	9.21	
2025-01-20 08:27:19.91	20.49	9.20	
2025-01-20 08:27:20.11	20.45	9.20	
2025-01-20 08:27:20.32	20.41	9.20	
2025-01-20 08:27:20.52	20.37	9.19	
2025-01-20 08:27:20.72	20.33	9.19	
2025-01-20 08:27:20.93	20.29	9.19	
2025-01-20 08:27:21.13	20.25	9.18	
2025-01-20 08:27:21.33	20.21	9.18	
2025-01-20 08:27:21.54	20.17	9.18	
2025-01-20 08:27:21.74	20.13	9.18	
2025-01-20 08:27:21.94	20.09	9.17	
2025-01-20 08:27:22.15	20.05	9.17	
2025-01-20 08:27:22.35	20.01	9.17	
2025-01-20 08:27:22.55	19.97	9.16	
2025-01-20 08:27:22.76	19.93	9.16	
2025-01-20 08:27:22.96	19.89	9.16	
2025-01-20 08:27:23.16	19.85	9.15	
2025-01-20 08:27:23.36	19.82	9.15	
2025-01-20 08:27:23.57	19.77	9.15	
2025-01-20 08:27:23.77	19.74	9.14	
2025-01-20 08:27:23.97	19.70	9.14	
2025-01-20 08:27:24.18	19.66	9.14	
2025-01-20 08:27:24.38	19.62	9.13	
2025-01-20 08:27:24.58	19.58	9.13	
2025-01-20 08:27:24.79	19.54	9.13	
2025-01-20 08:27:24.99	19.50	9.12	
2025-01-20 08:27:25.19	19.46	9.12	
2025-01-20 08:27:25.40	19.42	9.12	
2025-01-20 08:27:25.60	19.38	9.11	
2025-01-20 08:27:25.80	19.34	9.11	
2025-01-20 08:27:26.00	19.30	9.11	
2025-01-20 08:27:26.21	19.26	9.10	
2025-01-20 08:27:26.41	19.22	9.10	
2025-01-20 08:27:26.61	19.18	9.10	
2025-01-20 08:27:26.82	19.14	9.09	
2025-01-20 08:27:27.02	19.10	9.09	
2025-01-20 08:27:27.22	19.06	9.09	
2025-01-20 08:27:27.43	19.02	9.08	
2025-01-20 08:27:27.63	18.99	9.08	
2025-01-20 08:27:27.83	18.95	9.08	
2025-01-20 08:27:28.04	18.91	9.07	
2025-01-20 08:27:28.24	18.87	9.07	
2025-01-20 08:27:28.44	18.83	9.07	
2025-01-20 08:27:28.64	18.79	9.06	
2025-01-20 08:27:28.85	18.75	9.06	
2025-01-20 08:27:29.05	18.71	9.06	
2025-01-20 08:27:29.25	18.67	9.05	
2025-01-20 08:27:29.46	18.63	9.05	
2025-01-20 08:27:29.66	18.59	9.05	
2025-01-20 08:27:29.86	18.55	9.04	
2025-01-20 08:27:30.07	18.51	9.04	
2025-01-20 08:27:30.27	18.47	9.04	
2025-01-20 08:27:30.47	18.44	9.03	
2025-01-20 08:27:30.68	18.40	9.03	
2025-01-20 08:27:30.88	18.36	9.03	
2025-01-20 08:27:31.08	18.32	9.02	
2025-01-20 08:27:31.28	18.28	9.02	
2025-01-20 08:27:31.49	18.24	9.01	
2025-01-20 08:27:31.69	18.20	9.01	
2025-01-20 08:27:31.89	18.16	9.01	
2025-01-20 08:27:32.10	18.12	9.00	
2025-01-20 08:27:32.30	18.08	9.00	
2025-01-20 08:27:32.50	18.04	9.00	
2025-01-20 08:27:32.71	18.00	8.99	
2025-01-20 08:27:32.91	17.97	8.99	
2025-01-20 08:27:33.11	17.93	8.99	
2025-01-20 08:27:33.32	17.89	8.98	
2025-01-20 08:27:33.52	17.85	8.98	
2025-01-20 08:27:33.72	17.81	8.97	
2025-01-20 08:27:33.92	17.77	8.97	
2025-01-20 08:27:34.13	17.73	8.97	
2025-01-20 08:27:34.33	17.69	8.96	
2025-01-20 08:27:34.53	17.65	8.96	
2025-01-20 08:27:34.74	17.61	8.95	
2025-01-20 08:27:34.94	17.58	8.95	
2025-01-20 08:27:35.14	17.54	8.95	
2025-01-20 08:27:35.35	17.50	8.94	
2025-01-20 08:27:35.55	17.46	8.94	
2025-01-20 08:27:35.75	17.42	8.94	
2025-01-20 08:27:35.96	17.38	8.93	
2025-01-20 08:27:36.16	17.34	8.93	
2025-01-20 08:27:36.36	17.30	8.92	
2025-01-20 08:27:36.56	17.26	8.92	
2025-01-20 08:27:36.77	17.22	8.92	
2025-01-20 08:27:36.97	17.19	8.91	
2025-01-20 08:27:37.17	17.15	8.91	
2025-01-20 08:27:37.38	17.11	8.90	
2025-01-20 08:27:37.58	17.07	8.90	
2025-01-20 08:27:37.78	17.03	8.90	
2025-01-20 08:27:37.99	16.99	8.89	
2025-01-20 08:27:38.19	16.95	8.89	
2025-01-20 08:27:38.39	16.91	8.88	
2025-01-20 08:27:38.60	16.87	8.88	
2025-01-20 08:27:38.80	16.84	8.88	
2025-01-20 08:27:39.00	16.80	8.87	
2025-01-20 08:27:39.20	16.76	8.87	
2025-01-20 08:27:39.41	16.72	8.86	
2025-01-20 08:27:39.61	16.68	8.86	
2025-01-20 08:27:39.81	16.64	8.86	
2025-01-20 08:27:40.02	16.60	8.85	
2025-01-20 08:27:40.22	16.57	8.85	
2025-01-20 08:27:40.42	16.53	8.84	
2025-01-20 08:27:40.63	16.49	8.84	
2025-01-20 08:27:40.83	16.45	8.84	
2025-01-20 08:27:41.03	16.41	8.83	
2025-01-20 08:27:41.24	16.37	8.83	
2025-01-20 08:27:41.44	16.33	8.82	
2025-01-20 08:27:41.64	16.30	8.82	
2025-01-20 08:27:41.84	16.26	8.81	
2025-01-20 08:27:42.05	16.22	8.81	
2025-01-20 08:27:42.25	16.18	8.81	
2025-01-20 08:27:42.45	16.14	8.80	
2025-01-20 08:27:42.66	16.10	8.80	
2025-01-20 08:27:42.86	16.06	8.79	
2025-01-20 08:27:43.06	16.03	8.79	
2025-01-20 08:27:43.27	15.99	8.79	
2025-01-20 08:27:43.47	15.95	8.78	
2025-01-20 08:27:43.67	15.91	8.78	
2025-01-20 08:27:43.88	15.87	8.77	
2025-01-20 08:27:44.08	15.83	8.77	
2025-01-20 08:27:44.28	15.80	8.76	
2025-01-20 08:27:44.49	15.76	8.76	
2025-01-20 08:27:44.69	15.72	8.75	
2025-01-20 08:27:44.89	15.68	8.75	
2025-01-20 08:27:45.09	15.64	8.75	
2025-01-20 08:27:45.30	15.60	8.74	
2025-01-20 08:27:45.50	15.56	8.74	
2025-01-20 08:27:45.70	15.53	8.73	
2025-01-20 08:27:45.91	15.49	8.73	
2025-01-20 08:27:46.11	15.45	8.72	
2025-01-20 08:27:46.31	15.41	8.72	
2025-01-20 08:27:46.52	15.37	8.72	
2025-01-20 08:27:46.72	15.33	8.71	
2025-01-20 08:27:46.92	15.30	8.71	
2025-01-20 08:27:47.13	15.26	8.70	
2025-01-20 08:27:47.33	15.22	8.70	
2025-01-20 08:27:47.53	15.18	8.69	
2025-01-20 08:27:47.73	15.14	8.69	
2025-01-20 08:27:47.94	15.10	8.68	
2025-01-20 08:27:48.14	15.07	8.68	
2025-01-20 08:27:48.34	15.03	8.68	
2025-01-20 08:27:48.55	14.99	8.67	
2025-01-20 08:27:48.75	14.95	8.67	
2025-01-20 08:27:48.95	14.91	8.66	
2025-01-20 08:27:49.16	14.88	8.66	
2025-01-20 08:27:49.36	14.84	8.65	
2025-01-20 08:27:49.56	14.80	8.65	
2025-01-20 08:27:49.77	14.76	8.64	
2025-01-20 08:27:49.97	14.72	8.64	
2025-01-20 08:27:50.17	14.69	8.63	
2025-01-20 08:27:50.37	14.65	8.63	
2025-01-20 08:27:50.58	14.61	8.62	
2025-01-20 08:27:50.78	14.57	8.62	
2025-01-20 08:27:50.98	14.53	8.62	
2025-01-20 08:27:51.19	14.50	8.61	
2025-01-20 08:27:51.39	14.46	8.61	
2025-01-20 08:27:51.59	14.42	8.60	
2025-01-20 08:27:51.80	14.38	8.60	
2025-01-20 08:27:52.00	14.34	8.59	
2025-01-20 08:27:52.20	14.31	8.59	
2025-01-20 08:27:52.41	14.27	8.58	
2025-01-20 08:27:52.61	14.23	8.58	
2025-01-20 08:27:52.81	14.19	8.57	
2025-01-20 08:27:53.01	14.16	8.57	
2025-01-20 08:27:53.22	14.12	8.56	
2025-01-20 08:27:53.42	14.08	8.56	
2025-01-20 08:27:53.62	14.04	8.55	
2025-01-20 08:27:53.83	14.00	8.55	
2025-01-20 08:27:54.03	13.97	8.54	
2025-01-20 08:27:54.23	13.93	8.54	
2025-01-20 08:27:54.44	13.89	8.53	
2025-01-20 08:27:54.64	13.85	8.53	
2025-01-20 08:27:54.84	13.81	8.52	
2025-01-20 08:27:55.05	13.78	8.52	
2025-01-20 08:27:55.25	13.74	8.51	
2025-01-20 08:27:55.45	13.70	8.51	
2025-01-20 08:27:55.65	13.66	8.51	
2025-01-20 08:27:55.86	13.63	8.50	
2025-01-20 08:27:56.06	13.59	8.50	
2025-01-20 08:27:56.26	13.55	8.49	
2025-01-20 08:27:56.47	13.51	8.49	
2025-01-20 08:27:56.67	13.48	8.48	
2025-01-20 08:27:56.87	13.44	8.48	
2025-01-20 08:27:57.08	13.40	8.47	
2025-01-20 08:27:57.28	13.36	8.47	
2025-01-20 08:27:57.48	13.33	8.46	
2025-01-20 08:27:57.69	13.29	8.46	
2025-01-20 08:27:57.89	13.25	8.45	
2025-01-20 08:27:58.09	13.21	8.45	
2025-01-20 08:27:58.29	13.18	8.44	
2025-01-20 08:27:58.50	13.14	8.44	
2025-01-20 08:27:58.70	13.10	8.43	
2025-01-20 08:27:58.90	13.06	8.43	
2025-01-20 08:27:59.11	13.02	8.42	
2025-01-20 08:27:59.31	12.99	8.42	
2025-01-20 08:27:59.51	12.95	8.41	
2025-01-20 08:27:59.72	12.91	8.40	
2025-01-20 08:27:59.92	12.88	8.40	
2025-01-20 08:28:00.12	12.84	8.39	
2025-01-20 08:28:00.33	12.80	8.39	
2025-01-20 08:28:00.53	12.76	8.38	
2025-01-20 08:28:00.73	12.73	8.38	
2025-01-20 08:28:00.93	12.69	8.37	
2025-01-20 08:28:01.14	12.65	8.37	
2025-01-20 08:28:01.34	12.61	8.36	
2025-01-20 08:28:01.54	12.58	8.36	
2025-01-20 08:28:01.75	12.54	8.35	
2025-01-20 08:28:01.95	12.50	8.35	
2025-01-20 08:28:02.15	12.47	8.34	
2025-01-20 08:28:02.36	12.43	8.34	
2025-01-20 08:28:02.56	12.39	8.33	
2025-01-20 08:28:02.76	12.35	8.33	
2025-01-20 08:28:02.97	12.32	8.32	
2025-01-20 08:28:03.17	12.28	8.32	
2025-01-20 08:28:03.37	12.24	8.31	
2025-01-20 08:28:03.57	12.21	8.31	
2025-01-20 08:28:03.78	12.17	8.30	
2025-01-20 08:28:03.98	12.13	8.30	
2025-01-20 08:28:04.18	12.09	8.29	
2025-01-20 08:28:04.39	12.06	8.28	
2025-01-20 08:28:04.59	12.02	8.28	
2025-01-20 08:28:04.79	11.98	8.27	
2025-01-20 08:28:05.00	11.94	8.27	
2025-01-20 08:28:05.20	11.91	8.26	
2025-01-20 08:28:05.40	11.87	8.26	
2025-01-20 08:28:05.61	11.83	8.25	
2025-01-20 08:28:05.81	11.80	8.25	
2025-01-20 08:28:06.01	11.76	8.24	
2025-01-20 08:28:06.22	11.72	8.24	
2025-01-20 08:28:06.42	11.69	8.23	
2025-01-20 08:28:06.62	11.65	8.23	
2025-01-20 08:28:06.82	11.61	8.22	
2025-01-20 08:28:07.03	11.58	8.21	
2025-01-20 08:28:07.23	11.54	8.21	
2025-01-20 08:28:07.43	11.50	8.20	
2025-01-20 08:28:07.64	11.46	8.20	
2025-01-20 08:28:07.84	11.43	8.19	
2025-01-20 08:28:08.04	11.39	8.19	
2025-01-20 08:28:08.25	11.35	8.18	
2025-01-20 08:28:08.45	11.32	8.18	
2025-01-20 08:28:08.65	11.28	8.17	
2025-01-20 08:28:08.86	11.24	8.17	
2025-01-20 08:28:09.06	11.21	8.16	
2025-01-20 08:28:09.26	11.17	8.15	
2025-01-20 08:28:09.46	11.14	8.15	
2025-01-20 08:28:09.67	11.10	8.14	
2025-01-20 08:28:09.87	11.06	8.14	
2025-01-20 08:28:10.07	11.03	8.13	
2025-01-20 08:28:10.28	10.99	8.13	
2025-01-20 08:28:10.48	10.95	8.12	
2025-01-20 08:28:10.68	10.92	8.12	
2025-01-20 08:28:10.89	10.88	8.11	
2025-01-20 08:28:11.09	10.84	8.10	
2025-01-20 08:28:11.29	10.81	8.10	
2025-01-20 08:28:11.50	10.77	8.09	
2025-01-20 08:28:11.70	10.73	8.09	
2025-01-20 08:28:11.90	10.70	8.08	
2025-01-20 08:28:12.10	10.66	8.08	
2025-01-20 08:28:12.31	10.62	8.07	
2025-01-20 08:28:12.51	10.59	8.06	
2025-01-20 08:28:12.71	10.55	8.06	
2025-01-20 08:28:12.92	10.51	8.05	
2025-01-20 08:28:13.12	10.48	8.05	
2025-01-20 08:28:13.32	10.44	8.04	
2025-01-20 08:28:13.53	10.40	8.04	
2025-01-20 08:28:13.73	10.37	8.03	
2025-01-20 08:28:13.93	10.33	8.02	
2025-01-20 08:28:14.14	10.29	8.02	
2025-01-20 08:28:14.34	10.26	8.01	
2025-01-20 08:28:14.54	10.22	8.01	
2025-01-20 08:28:14.74	10.19	8.00	
2025-01-20 08:28:14.95	10.15	8.00	
2025-01-20 08:28:15.15	10.11	7.99	
2025-01-20 08:28:15.35	10.08	7.98	
2025-01-20 08:28:15.56	10.04	7.98	
2025-01-20 08:28:15.76	10.01	7.97	
2025-01-20 08:28:15.96	9.97	7.97	
2025-01-20 08:28:16.17	9.93	7.96	
2025-01-20 08:28:16.37	9.90	7.96	
2025-01-20 08:28:16.57	9.86	7.95	
2025-01-20 08:28:16.78	9.82	7.94	
2025-01-20 08:28:16.98	9.79	7.94	
2025-01-20 08:28:17.18	9.75	7.93	
2025-01-20 08:28:17.38	9.72	7.93	
2025-01-20 08:28:17.59	9.68	7.92	
2025-01-20 08:28:17.79	9.64	7.91	
2025-01-20 08:28:17.99	9.61	7.91	
2025-01-20 08:28:18.20	9.57	7.90	
2025-01-20 08:28:18.40	9.54	7.90	
2025-01-20 08:28:18.60	9.50	7.89	
2025-01-20 08:28:18.81	9.46	7.88	
2025-01-20 08:28:19.01	9.43	7.88	
2025-01-20 08:28:19.21	9.39	7.87	
2025-01-20 08:28:19.42	9.36	7.87	
2025-01-20 08:28:19.62	9.32	7.86	
2025-01-20 08:28:19.82	9.29	7.85	
2025-01-20 08:28:20.02	9.25	7.85	
2025-01-20 08:28:20.23	9.21	7.84	
2025-01-20 08:28:20.43	9.18	7.84	
2025-01-20 08:28:20.63	9.14	7.83	
2025-01-20 08:28:20.84	9.11	7.82	
2025-01-20 08:28:21.04	9.07	7.82	
2025-01-20 08:28:21.24	9.03	7.81	
2025-01-20 08:28:21.45	9.00	7.81	
2025-01-20 08:28:21.65	8.96	7.80	
2025-01-20 08:28:21.85	8.93	7.79	
2025-01-20 08:28:22.06	8.89	7.79	
2025-01-20 08:28:22.26	8.86	7.78	
2025-01-20 08:28:22.46	8.82	7.78	
2025-01-20 08:28:22.66	8.79	7.77	
2025-01-20 08:28:22.87	8.75	7.76	
2025-01-20 08:28:23.07	8.71	7.76	
2025-01-20 08:28:23.27	8.68	7.75	
2025-01-20 08:28:23.48	8.64	7.74	
2025-01-20 08:28:23.68	8.61	7.74	
2025-01-20 08:28:23.88	8.57	7.73	
2025-01-20 08:28:24.09	8.53	7.73	
2025-01-20 08:28:24.29	8.50	7.72	
2025-01-20 08:28:24.49	8.46	7.71	
2025-01-20 08:28:24.70	8.43	7.71	
2025-01-20 08:28:24.90	8.39	7.70	
2025-01-20 08:28:25.10	8.36	7.70	
2025-01-20 08:28:25.30	8.32	7.69	
2025-01-20 08:28:25.51	8.29	7.68	
2025-01-20 08:28:25.71	8.25	7.68	
2025-01-20 08:28:25.91	8.22	7.67	
2025-01-20 08:28:26.12	8.18	7.66	
2025-01-20 08:28:26.32	8.15	7.66	
2025-01-20 08:28:26.52	8.11	7.65	
2025-01-20 08:28:26.73	8.07	7.65	
2025-01-20 08:28:26.93	8.04	7.64	
2025-01-20 08:28:27.13	8.00	7.63	
2025-01-20 08:28:27.34	7.97	7.63	
2025-01-20 08:28:27.54	7.93	7.62	
2025-01-20 08:28:27.74	7.90	7.61	
2025-01-20 08:28:27.94	7.86	7.61	
2025-01-20 08:28:28.15	7.83	7.60	
2025-01-20 08:28:28.35	7.79	7.60	
2025-01-20 08:28:28.55	7.76	7.59	
2025-01-20 08:28:28.76	7.72	7.58	
2025-01-20 08:28:28.96	7.69	7.58	
2025-01-20 08:28:29.16	7.65	7.57	
2025-01-20 08:28:29.37	7.62	7.56	
2025-01-20 08:28:29.57	7.58	7.56	
2025-01-20 08:28:29.77	7.55	7.55	
2025-01-20 08:28:29.98	7.51	7.54	
2025-01-20 08:28:30.18	7.48	7.54	
2025-01-20 08:28:30.38	7.44	7.53	
2025-01-20 08:28:30.59	7.41	7.52	
2025-01-20 08:28:30.79	7.37	7.52	
2025-01-20 08:28:30.99	7.34	7.51	
2025-01-20 08:28:31.19	7.30	7.51	
2025-01-20 08:28:31.40	7.27	7.50	
2025-01-20 08:28:31.60	7.23	7.49	
2025-01-20 08:28:31.80	7.20	7.49	
2025-01-20 08:28:32.01	7.16	7.48	
2025-01-20 08:28:32.21	7.13	7.47	
2025-01-20 08:28:32.41	7.09	7.47	
2025-01-20 08:28:32.62	7.06	7.46	
2025-01-20 08:28:32.82	7.02	7.45	
2025-01-20 08:28:33.02	6.99	7.45	
2025-01-20 08:28:33.23	6.95	7.44	
2025-01-20 08:28:33.43	6.92	7.43	
2025-01-20 08:28:33.63	6.88	7.43	
2025-01-20 08:28:33.83	6.85	7.42	
2025-01-20 08:28:34.04	6.81	7.41	
2025-01-20 08:28:34.24	6.78	7.41	
2025-01-20 08:28:34.44	6.75	7.40	
2025-01-20 08:28:34.65	6.71	7.39	
2025-01-20 08:28:34.85	6.68	7.39	
2025-01-20 08:28:35.05	6.64	7.38	
2025-01-20 08:28:35.26	6.61	7.38	
2025-01-20 08:28:35.46	6.57	7.37	
2025-01-20 08:28:35.66	6.54	7.36	
2025-01-20 08:28:35.87	6.50	7.36	
2025-01-20 08:28:36.07	6.47	7.35	
2025-01-20 08:28:36.27	6.43	7.34	
2025-01-20 08:28:36.47	6.40	7.34	
2025-01-20 08:28:36.68	6.37	7.33	
2025-01-20 08:28:36.88	6.33	7.32	
2025-01-20 08:28:37.08	6.30	7.32	
2025-01-20 08:28:37.29	6.26	7.31	
2025-01-20 08:28:37.49	6.23	7.30	
2025-01-20 08:28:37.69	6.19	7.30	
2025-01-20 08:28:37.90	6.16	7.29	
2025-01-20 08:28:38.10	6.12	7.28	
2025-01-20 08:28:38.30	6.09	7.28	
2025-01-20 08:28:38.51	6.06	7.27	
2025-01-20 08:28:38.71	6.02	7.26	
2025-01-20 08:28:38.91	5.99	7.26	
2025-01-20 08:28:39.11	5.95	7.25	
2025-01-20 08:28:39.32	5.92	7.24	
2025-01-20 08:28:39.52	5.88	7.24	
2025-01-20 08:28:39.72	5.85	7.23	
2025-01-20 08:28:39.93	5.82	7.22	
2025-01-20 08:28:40.13	5.78	7.21	
2025-01-20 08:28:40.33	5.75	7.21	
2025-01-20 08:28:40.54	5.71	7.20	
2025-01-20 08:28:40.74	5.68	7.19	
2025-01-20 08:28:40.94	5.65	7.19	
2025-01-20 08:28:41.15	5.61	7.18	
2025-01-20 08:28:41.35	5.58	7.17	
2025-01-20 08:28:41.55	5.54	7.17	
2025-01-20 08:28:41.75	5.51	7.16	
2025-01-20 08:28:41.96	5.48	7.15	
2025-01-20 08:28:42.16	5.44	7.15	
2025-01-20 08:28:42.36	5.41	7.14	
2025-01-20 08:28:42.57	5.37	7.13	
2025-01-20 08:28:42.77	5.34	7.13	
2025-01-20 08:28:42.97	5.31	7.12	
2025-01-20 08:28:43.18	5.27	7.11	
2025-01-20 08:28:43.38	5.24	7.11	
2025-01-20 08:28:43.58	5.20	7.10	
2025-01-20 08:28:43.79	5.17	7.09	
2025-01-20 08:28:43.99	5.14	7.08	
2025-01-20 08:28:44.19	5.10	7.08	
2025-01-20 08:28:44.39	5.07	7.07	
2025-01-20 08:28:44.60	5.03	7.06	
2025-01-20 08:28:44.80	5.00	7.06	
2025-01-20 08:28:45.00	4.97	7.05	
2025-01-20 08:28:45.21	4.93	7.04	
2025-01-20 08:28:45.41	4.90	7.04	
2025-01-20 08:28:45.61	4.87	7.03	
2025-01-20 08:28:45.82	4.83	7.02	
2025-01-20 08:28:46.02	4.80	7.02	
2025-01-20 08:28:46.22	4.77	7.01	
2025-01-20 08:28:46.43	4.73	7.00	
2025-01-20 08:28:46.63	4.70	6.99	
2025-01-20 08:28:46.83	4.66	6.99	
2025-01-20 08:28:47.03	4.63	6.98	
2025-01-20 08:28:47.24	4.60	6.97	
2025-01-20 08:28:47.44	4.56	6.97	
2025-01-20 08:28:47.64	4.53	6.96	
2025-01-20 08:28:47.85	4.50	6.95	
2025-01-20 08:28:48.05	4.46	6.95	
2025-01-20 08:28:48.25	4.43	6.94	
2025-01-20 08:28:48.46	4.40	6.93	
2025-01-20 08:28:48.66	4.36	6.92	
2025-01-20 08:28:48.86	4.33	6.92	
2025-01-20 08:28:49.07	4.30	6.91	
2025-01-20 08:28:49.27	4.26	6.90	
2025-01-20 08:28:49.47	4.23	6.90	
2025-01-20 08:28:49.67	4.20	6.89	
2025-01-20 08:28:49.88	4.16	6.88	
2025-01-20 08:28:50.08	4.13	6.88	
2025-01-20 08:28:50.28	4.10	6.87	
2025-01-20 08:28:50.49	4.06	6.86	
2025-01-20 08:28:50.69	4.03	6.85	
2025-01-20 08:28:50.89	4.00	6.85	
2025-01-20 08:28:51.10	3.96	6.84	
