passes_logs/2025/01/20/SPB_Silybum_02/SPB_Silybum_02__20250120_015740_AQUA_rec.log

#Pass ID: 20250120_015740_AQUA
#Satellite: AQUA
#Configuration: AQUA
#Start time: 2025-01-20 01:57:39

#Version: 2.0.20230423
#Station: SPB_Silybum_02
#Location: 30.233357 lon 59.946436 lat
#TLE: 1 27424U 02022A   25019.18388060  .00002377  00000+0  49769-3 0  9992
#TLE: 2 27424  98.3597 335.8858 0001894 107.4419 309.9907 14.60702162208231

#Time	Az	El	Level	Level2	SNR	BER	Gain	Gain2
2025-01-20 01:57:41.48	14.40	4.09	
2025-01-20 01:57:41.68	14.39	4.11	
2025-01-20 01:57:41.88	14.39	4.12	
2025-01-20 01:57:42.09	14.38	4.14	
2025-01-20 01:57:42.29	14.38	4.15	
2025-01-20 01:57:42.49	14.37	4.16	
2025-01-20 01:57:42.70	14.36	4.18	
2025-01-20 01:57:42.90	14.36	4.19	
2025-01-20 01:57:43.10	14.35	4.21	
2025-01-20 01:57:43.30	14.35	4.22	
2025-01-20 01:57:43.51	14.34	4.24	
2025-01-20 01:57:43.71	14.33	4.25	
2025-01-20 01:57:43.91	14.33	4.27	
2025-01-20 01:57:44.12	14.32	4.28	
2025-01-20 01:57:44.32	14.32	4.29	
2025-01-20 01:57:44.52	14.31	4.31	
2025-01-20 01:57:44.72	14.30	4.32	
2025-01-20 01:57:44.93	14.30	4.34	
2025-01-20 01:57:45.13	14.29	4.35	
2025-01-20 01:57:45.33	14.28	4.37	
2025-01-20 01:57:45.54	14.28	4.38	
2025-01-20 01:57:45.74	14.27	4.40	
2025-01-20 01:57:45.94	14.27	4.41	
2025-01-20 01:57:46.15	14.26	4.42	
2025-01-20 01:57:46.35	14.25	4.44	
2025-01-20 01:57:46.55	14.25	4.45	
2025-01-20 01:57:46.75	14.24	4.47	
2025-01-20 01:57:46.96	14.23	4.48	
2025-01-20 01:57:47.16	14.23	4.50	
2025-01-20 01:57:47.36	14.22	4.51	
2025-01-20 01:57:47.57	14.22	4.53	
2025-01-20 01:57:47.77	14.21	4.54	
2025-01-20 01:57:47.97	14.20	4.56	
2025-01-20 01:57:48.18	14.20	4.57	
2025-01-20 01:57:48.38	14.19	4.58	
2025-01-20 01:57:48.58	14.18	4.60	
2025-01-20 01:57:48.78	14.18	4.61	
2025-01-20 01:57:48.99	14.17	4.63	
2025-01-20 01:57:49.19	14.17	4.64	
2025-01-20 01:57:49.39	14.16	4.66	
2025-01-20 01:57:49.60	14.15	4.67	
2025-01-20 01:57:49.80	14.15	4.69	
2025-01-20 01:57:50.00	14.14	4.70	
2025-01-20 01:57:50.20	14.13	4.72	
2025-01-20 01:57:50.41	14.13	4.73	
2025-01-20 01:57:50.61	14.12	4.75	
2025-01-20 01:57:50.81	14.12	4.76	
2025-01-20 01:57:51.02	14.11	4.78	
2025-01-20 01:57:51.22	14.10	4.79	
2025-01-20 01:57:51.42	14.10	4.80	
2025-01-20 01:57:51.63	14.09	4.82	
2025-01-20 01:57:51.83	14.08	4.83	
2025-01-20 01:57:52.03	14.08	4.85	
2025-01-20 01:57:52.23	14.07	4.86	
2025-01-20 01:57:52.44	14.06	4.88	
2025-01-20 01:57:52.64	14.06	4.89	
2025-01-20 01:57:52.84	14.05	4.91	
2025-01-20 01:57:53.05	14.04	4.92	
2025-01-20 01:57:53.25	14.04	4.94	
2025-01-20 01:57:53.45	14.03	4.95	
2025-01-20 01:57:53.66	14.02	4.97	
2025-01-20 01:57:53.86	14.02	4.98	
2025-01-20 01:57:54.06	14.01	5.00	
2025-01-20 01:57:54.26	14.01	5.01	
2025-01-20 01:57:54.47	14.00	5.03	
2025-01-20 01:57:54.67	13.99	5.04	
2025-01-20 01:57:54.87	13.99	5.06	
2025-01-20 01:57:55.08	13.98	5.07	
2025-01-20 01:57:55.28	13.97	5.09	
2025-01-20 01:57:55.48	13.97	5.10	
2025-01-20 01:57:55.68	13.96	5.12	
2025-01-20 01:57:55.89	13.95	5.13	
2025-01-20 01:57:56.09	13.95	5.15	
2025-01-20 01:57:56.29	13.94	5.16	
2025-01-20 01:57:56.50	13.93	5.18	
2025-01-20 01:57:56.70	13.93	5.19	
2025-01-20 01:57:56.90	13.92	5.21	
2025-01-20 01:57:57.11	13.91	5.22	
2025-01-20 01:57:57.31	13.91	5.24	
2025-01-20 01:57:57.51	13.90	5.25	
2025-01-20 01:57:57.71	13.89	5.26	
2025-01-20 01:57:57.92	13.89	5.28	
2025-01-20 01:57:58.12	13.88	5.30	
2025-01-20 01:57:58.32	13.87	5.31	
2025-01-20 01:57:58.53	13.87	5.33	
2025-01-20 01:57:58.73	13.86	5.34	
2025-01-20 01:57:58.93	13.85	5.36	
2025-01-20 01:57:59.13	13.85	5.37	
2025-01-20 01:57:59.34	13.84	5.39	
2025-01-20 01:57:59.54	13.83	5.40	
2025-01-20 01:57:59.74	13.83	5.42	
2025-01-20 01:57:59.95	13.82	5.43	
2025-01-20 01:58:00.15	13.81	5.45	
2025-01-20 01:58:00.35	13.81	5.46	
2025-01-20 01:58:00.56	13.80	5.48	
2025-01-20 01:58:00.76	13.79	5.49	
2025-01-20 01:58:00.96	13.79	5.51	
2025-01-20 01:58:01.16	13.78	5.52	
2025-01-20 01:58:01.37	13.77	5.54	
2025-01-20 01:58:01.57	13.77	5.55	
2025-01-20 01:58:01.77	13.76	5.57	
2025-01-20 01:58:01.98	13.75	5.58	
2025-01-20 01:58:02.18	13.75	5.60	
2025-01-20 01:58:02.38	13.74	5.61	
2025-01-20 01:58:02.59	13.73	5.63	
2025-01-20 01:58:02.79	13.72	5.64	
2025-01-20 01:58:02.99	13.72	5.66	
2025-01-20 01:58:03.19	13.71	5.67	
2025-01-20 01:58:03.40	13.70	5.69	
2025-01-20 01:58:03.60	13.70	5.70	
2025-01-20 01:58:03.80	13.69	5.72	
2025-01-20 01:58:04.01	13.68	5.74	
2025-01-20 01:58:04.21	13.68	5.75	
2025-01-20 01:58:04.41	13.67	5.77	
2025-01-20 01:58:04.61	13.66	5.78	
2025-01-20 01:58:04.82	13.66	5.80	
2025-01-20 01:58:05.02	13.65	5.81	
2025-01-20 01:58:05.22	13.64	5.83	
2025-01-20 01:58:05.43	13.63	5.84	
2025-01-20 01:58:05.63	13.63	5.86	
2025-01-20 01:58:05.83	13.62	5.87	
2025-01-20 01:58:06.04	13.61	5.89	
2025-01-20 01:58:06.24	13.61	5.90	
2025-01-20 01:58:06.44	13.60	5.92	
2025-01-20 01:58:06.64	13.59	5.93	
2025-01-20 01:58:06.85	13.59	5.95	
2025-01-20 01:58:07.05	13.58	5.97	
2025-01-20 01:58:07.25	13.57	5.98	
2025-01-20 01:58:07.46	13.56	6.00	
2025-01-20 01:58:07.66	13.56	6.01	
2025-01-20 01:58:07.86	13.55	6.03	
2025-01-20 01:58:08.06	13.54	6.04	
2025-01-20 01:58:08.27	13.54	6.06	
2025-01-20 01:58:08.47	13.53	6.07	
2025-01-20 01:58:08.67	13.52	6.09	
2025-01-20 01:58:08.88	13.51	6.10	
2025-01-20 01:58:09.08	13.51	6.12	
2025-01-20 01:58:09.28	13.50	6.14	
2025-01-20 01:58:09.49	13.49	6.15	
2025-01-20 01:58:09.69	13.49	6.17	
2025-01-20 01:58:09.89	13.48	6.18	
2025-01-20 01:58:10.09	13.47	6.20	
2025-01-20 01:58:10.30	13.46	6.21	
2025-01-20 01:58:10.50	13.46	6.23	
2025-01-20 01:58:10.70	13.45	6.24	
2025-01-20 01:58:10.91	13.44	6.26	
2025-01-20 01:58:11.11	13.44	6.28	
2025-01-20 01:58:11.31	13.43	6.29	
2025-01-20 01:58:11.51	13.42	6.31	
2025-01-20 01:58:11.72	13.41	6.32	
2025-01-20 01:58:11.92	13.41	6.34	
2025-01-20 01:58:12.12	13.40	6.35	
2025-01-20 01:58:12.33	13.39	6.37	
2025-01-20 01:58:12.53	13.38	6.39	
2025-01-20 01:58:12.73	13.38	6.40	
2025-01-20 01:58:12.94	13.37	6.42	
2025-01-20 01:58:13.14	13.36	6.43	
2025-01-20 01:58:13.34	13.36	6.45	
2025-01-20 01:58:13.54	13.35	6.46	
2025-01-20 01:58:13.75	13.34	6.48	
2025-01-20 01:58:13.95	13.33	6.50	
2025-01-20 01:58:14.15	13.33	6.51	
2025-01-20 01:58:14.36	13.32	6.53	
2025-01-20 01:58:14.56	13.31	6.54	
2025-01-20 01:58:14.76	13.30	6.56	
2025-01-20 01:58:14.97	13.30	6.57	
2025-01-20 01:58:15.17	13.29	6.59	
2025-01-20 01:58:15.37	13.28	6.61	
2025-01-20 01:58:15.57	13.27	6.62	
2025-01-20 01:58:15.78	13.27	6.64	
2025-01-20 01:58:15.98	13.26	6.65	
2025-01-20 01:58:16.18	13.25	6.67	
2025-01-20 01:58:16.39	13.24	6.69	
2025-01-20 01:58:16.59	13.24	6.70	
2025-01-20 01:58:16.79	13.23	6.72	
2025-01-20 01:58:16.99	13.22	6.73	
2025-01-20 01:58:17.20	13.21	6.75	
2025-01-20 01:58:17.40	13.21	6.77	
2025-01-20 01:58:17.60	13.20	6.78	
2025-01-20 01:58:17.81	13.19	6.80	
2025-01-20 01:58:18.01	13.18	6.81	
2025-01-20 01:58:18.21	13.18	6.83	
2025-01-20 01:58:18.42	13.17	6.85	
2025-01-20 01:58:18.62	13.16	6.86	
2025-01-20 01:58:18.82	13.15	6.88	
2025-01-20 01:58:19.02	13.15	6.89	
2025-01-20 01:58:19.23	13.14	6.91	
2025-01-20 01:58:19.43	13.13	6.93	
2025-01-20 01:58:19.63	13.12	6.94	
2025-01-20 01:58:19.84	13.11	6.96	
2025-01-20 01:58:20.04	13.11	6.97	
2025-01-20 01:58:20.24	13.10	6.99	
2025-01-20 01:58:20.45	13.09	7.01	
2025-01-20 01:58:20.65	13.08	7.02	
2025-01-20 01:58:20.85	13.08	7.04	
2025-01-20 01:58:21.05	13.07	7.05	
2025-01-20 01:58:21.26	13.06	7.07	
2025-01-20 01:58:21.46	13.05	7.09	
2025-01-20 01:58:21.66	13.05	7.10	
2025-01-20 01:58:21.87	13.04	7.12	
2025-01-20 01:58:22.07	13.03	7.13	
2025-01-20 01:58:22.27	13.02	7.15	
2025-01-20 01:58:22.47	13.01	7.17	
2025-01-20 01:58:22.68	13.01	7.18	
2025-01-20 01:58:22.88	13.00	7.20	
2025-01-20 01:58:23.08	12.99	7.22	
2025-01-20 01:58:23.29	12.98	7.23	
2025-01-20 01:58:23.49	12.98	7.25	
2025-01-20 01:58:23.69	12.97	7.26	
2025-01-20 01:58:23.90	12.96	7.28	
2025-01-20 01:58:24.10	12.95	7.30	
2025-01-20 01:58:24.30	12.94	7.31	
2025-01-20 01:58:24.50	12.94	7.33	
2025-01-20 01:58:24.71	12.93	7.35	
2025-01-20 01:58:24.91	12.92	7.36	
2025-01-20 01:58:25.11	12.91	7.38	
2025-01-20 01:58:25.32	12.90	7.40	
2025-01-20 01:58:25.52	12.90	7.41	
2025-01-20 01:58:25.72	12.89	7.43	
2025-01-20 01:58:25.93	12.88	7.44	
2025-01-20 01:58:26.13	12.87	7.46	
2025-01-20 01:58:26.33	12.86	7.48	
2025-01-20 01:58:26.53	12.86	7.49	
2025-01-20 01:58:26.74	12.85	7.51	
2025-01-20 01:58:26.94	12.84	7.53	
2025-01-20 01:58:27.14	12.83	7.54	
2025-01-20 01:58:27.35	12.82	7.56	
2025-01-20 01:58:27.55	12.82	7.58	
2025-01-20 01:58:27.75	12.81	7.59	
2025-01-20 01:58:27.95	12.80	7.61	
2025-01-20 01:58:28.16	12.79	7.63	
2025-01-20 01:58:28.36	12.78	7.64	
2025-01-20 01:58:28.56	12.78	7.66	
2025-01-20 01:58:28.77	12.77	7.68	
2025-01-20 01:58:28.97	12.76	7.69	
2025-01-20 01:58:29.17	12.75	7.71	
2025-01-20 01:58:29.38	12.74	7.73	
2025-01-20 01:58:29.58	12.74	7.74	
2025-01-20 01:58:29.78	12.73	7.76	
2025-01-20 01:58:29.98	12.72	7.77	
2025-01-20 01:58:30.19	12.71	7.79	
2025-01-20 01:58:30.39	12.70	7.81	
2025-01-20 01:58:30.59	12.69	7.82	
2025-01-20 01:58:30.80	12.69	7.84	
2025-01-20 01:58:31.00	12.68	7.86	
2025-01-20 01:58:31.20	12.67	7.87	
2025-01-20 01:58:31.40	12.66	7.89	
2025-01-20 01:58:31.61	12.65	7.91	
2025-01-20 01:58:31.81	12.64	7.92	
2025-01-20 01:58:32.01	12.64	7.94	
2025-01-20 01:58:32.22	12.63	7.96	
2025-01-20 01:58:32.42	12.62	7.97	
2025-01-20 01:58:32.62	12.61	7.99	
2025-01-20 01:58:32.83	12.60	8.01	
2025-01-20 01:58:33.03	12.59	8.03	
2025-01-20 01:58:33.23	12.59	8.04	
2025-01-20 01:58:33.43	12.58	8.06	
2025-01-20 01:58:33.64	12.57	8.08	
2025-01-20 01:58:33.84	12.56	8.09	
2025-01-20 01:58:34.04	12.55	8.11	
2025-01-20 01:58:34.25	12.54	8.13	
2025-01-20 01:58:34.45	12.54	8.14	
2025-01-20 01:58:34.65	12.53	8.16	
2025-01-20 01:58:34.86	12.52	8.18	
2025-01-20 01:58:35.06	12.51	8.19	
2025-01-20 01:58:35.26	12.50	8.21	
2025-01-20 01:58:35.46	12.49	8.23	
2025-01-20 01:58:35.67	12.48	8.24	
2025-01-20 01:58:35.87	12.48	8.26	
2025-01-20 01:58:36.07	12.47	8.28	
2025-01-20 01:58:36.28	12.46	8.30	
2025-01-20 01:58:36.48	12.45	8.31	
2025-01-20 01:58:36.68	12.44	8.33	
2025-01-20 01:58:36.88	12.43	8.35	
2025-01-20 01:58:37.09	12.42	8.36	
2025-01-20 01:58:37.29	12.42	8.38	
2025-01-20 01:58:37.49	12.41	8.40	
2025-01-20 01:58:37.70	12.40	8.42	
2025-01-20 01:58:37.90	12.39	8.43	
2025-01-20 01:58:38.10	12.38	8.45	
2025-01-20 01:58:38.31	12.37	8.47	
2025-01-20 01:58:38.51	12.36	8.48	
2025-01-20 01:58:38.71	12.36	8.50	
2025-01-20 01:58:38.91	12.35	8.52	
2025-01-20 01:58:39.12	12.34	8.54	
2025-01-20 01:58:39.32	12.33	8.55	
2025-01-20 01:58:39.52	12.32	8.57	
2025-01-20 01:58:39.73	12.31	8.59	
2025-01-20 01:58:39.93	12.30	8.60	
2025-01-20 01:58:40.13	12.29	8.62	
2025-01-20 01:58:40.34	12.29	8.64	
2025-01-20 01:58:40.54	12.28	8.66	
2025-01-20 01:58:40.74	12.27	8.67	
2025-01-20 01:58:40.94	12.26	8.69	
2025-01-20 01:58:41.15	12.25	8.71	
2025-01-20 01:58:41.35	12.24	8.72	
2025-01-20 01:58:41.55	12.23	8.74	
2025-01-20 01:58:41.76	12.22	8.76	
2025-01-20 01:58:41.96	12.21	8.78	
2025-01-20 01:58:42.16	12.21	8.79	
2025-01-20 01:58:42.36	12.20	8.81	
2025-01-20 01:58:42.57	12.19	8.83	
2025-01-20 01:58:42.77	12.18	8.85	
2025-01-20 01:58:42.97	12.17	8.86	
2025-01-20 01:58:43.18	12.16	8.88	
2025-01-20 01:58:43.38	12.15	8.90	
2025-01-20 01:58:43.58	12.14	8.92	
2025-01-20 01:58:43.79	12.13	8.93	
2025-01-20 01:58:43.99	12.13	8.95	
2025-01-20 01:58:44.19	12.12	8.97	
2025-01-20 01:58:44.39	12.11	8.98	
2025-01-20 01:58:44.60	12.10	9.00	
2025-01-20 01:58:44.80	12.09	9.02	
2025-01-20 01:58:45.00	12.08	9.04	
2025-01-20 01:58:45.21	12.07	9.06	
2025-01-20 01:58:45.41	12.06	9.07	
2025-01-20 01:58:45.61	12.05	9.09	
2025-01-20 01:58:45.81	12.04	9.11	
2025-01-20 01:58:46.02	12.03	9.13	
2025-01-20 01:58:46.22	12.03	9.14	
2025-01-20 01:58:46.42	12.02	9.16	
2025-01-20 01:58:46.63	12.01	9.18	
2025-01-20 01:58:46.83	12.00	9.20	
2025-01-20 01:58:47.03	11.99	9.21	
2025-01-20 01:58:47.24	11.98	9.23	
2025-01-20 01:58:47.44	11.97	9.25	
2025-01-20 01:58:47.64	11.96	9.27	
2025-01-20 01:58:47.84	11.95	9.28	
2025-01-20 01:58:48.05	11.94	9.30	
2025-01-20 01:58:48.25	11.93	9.32	
2025-01-20 01:58:48.45	11.92	9.34	
2025-01-20 01:58:48.66	11.91	9.36	
2025-01-20 01:58:48.86	11.91	9.37	
2025-01-20 01:58:49.06	11.90	9.39	
2025-01-20 01:58:49.27	11.89	9.41	
2025-01-20 01:58:49.47	11.88	9.43	
2025-01-20 01:58:49.67	11.87	9.44	
2025-01-20 01:58:49.87	11.86	9.46	
2025-01-20 01:58:50.08	11.85	9.48	
2025-01-20 01:58:50.28	11.84	9.50	
2025-01-20 01:58:50.48	11.83	9.52	
2025-01-20 01:58:50.69	11.82	9.53	
2025-01-20 01:58:50.89	11.81	9.55	
2025-01-20 01:58:51.09	11.80	9.57	
2025-01-20 01:58:51.29	11.79	9.59	
2025-01-20 01:58:51.50	11.78	9.61	
2025-01-20 01:58:51.70	11.77	9.62	
2025-01-20 01:58:51.90	11.76	9.64	
2025-01-20 01:58:52.11	11.75	9.66	
2025-01-20 01:58:52.31	11.74	9.68	
2025-01-20 01:58:52.51	11.74	9.70	
2025-01-20 01:58:52.72	11.73	9.71	
2025-01-20 01:58:52.92	11.72	9.73	
2025-01-20 01:58:53.12	11.71	9.75	
2025-01-20 01:58:53.32	11.70	9.77	
2025-01-20 01:58:53.53	11.69	9.79	
2025-01-20 01:58:53.73	11.68	9.80	
2025-01-20 01:58:53.93	11.67	9.82	
2025-01-20 01:58:54.14	11.66	9.84	
2025-01-20 01:58:54.34	11.65	9.86	
2025-01-20 01:58:54.54	11.64	9.88	
2025-01-20 01:58:54.74	11.63	9.89	
2025-01-20 01:58:54.95	11.62	9.91	
2025-01-20 01:58:55.15	11.61	9.93	
2025-01-20 01:58:55.35	11.60	9.95	
2025-01-20 01:58:55.56	11.59	9.97	
2025-01-20 01:58:55.76	11.58	9.99	
2025-01-20 01:58:55.96	11.57	10.00	
2025-01-20 01:58:56.17	11.56	10.02	
2025-01-20 01:58:56.37	11.55	10.04	
2025-01-20 01:58:56.57	11.54	10.06	
2025-01-20 01:58:56.77	11.53	10.08	
2025-01-20 01:58:56.98	11.52	10.10	
2025-01-20 01:58:57.18	11.51	10.11	
2025-01-20 01:58:57.38	11.50	10.13	
2025-01-20 01:58:57.59	11.49	10.15	
2025-01-20 01:58:57.79	11.48	10.17	
2025-01-20 01:58:57.99	11.47	10.19	
2025-01-20 01:58:58.20	11.46	10.21	
2025-01-20 01:58:58.40	11.45	10.22	
2025-01-20 01:58:58.60	11.44	10.24	
2025-01-20 01:58:58.80	11.43	10.26	
2025-01-20 01:58:59.01	11.42	10.28	
2025-01-20 01:58:59.21	11.41	10.30	
2025-01-20 01:58:59.41	11.40	10.32	
2025-01-20 01:58:59.62	11.39	10.34	
2025-01-20 01:58:59.82	11.38	10.35	
2025-01-20 01:59:00.02	11.37	10.37	
2025-01-20 01:59:00.22	11.36	10.39	
2025-01-20 01:59:00.43	11.35	10.41	
2025-01-20 01:59:00.63	11.34	10.43	
2025-01-20 01:59:00.83	11.33	10.45	
2025-01-20 01:59:01.04	11.32	10.47	
2025-01-20 01:59:01.24	11.31	10.48	
2025-01-20 01:59:01.44	11.30	10.50	
2025-01-20 01:59:01.65	11.29	10.52	
2025-01-20 01:59:01.85	11.28	10.54	
2025-01-20 01:59:02.05	11.27	10.56	
2025-01-20 01:59:02.25	11.26	10.58	
2025-01-20 01:59:02.46	11.25	10.60	
2025-01-20 01:59:02.66	11.24	10.61	
2025-01-20 01:59:02.86	11.23	10.63	
2025-01-20 01:59:03.07	11.22	10.65	
2025-01-20 01:59:03.27	11.21	10.67	
2025-01-20 01:59:03.47	11.20	10.69	
2025-01-20 01:59:03.68	11.19	10.71	
2025-01-20 01:59:03.88	11.18	10.73	
2025-01-20 01:59:04.08	11.17	10.75	
2025-01-20 01:59:04.28	11.16	10.76	
2025-01-20 01:59:04.49	11.14	10.78	
2025-01-20 01:59:04.69	11.13	10.80	
2025-01-20 01:59:04.89	11.12	10.82	
2025-01-20 01:59:05.10	11.11	10.84	
2025-01-20 01:59:05.30	11.10	10.86	
2025-01-20 01:59:05.50	11.09	10.88	
2025-01-20 01:59:05.70	11.08	10.90	
2025-01-20 01:59:05.91	11.07	10.92	
2025-01-20 01:59:06.11	11.06	10.94	
2025-01-20 01:59:06.31	11.05	10.95	
2025-01-20 01:59:06.52	11.04	10.97	
2025-01-20 01:59:06.72	11.03	10.99	
2025-01-20 01:59:06.92	11.02	11.01	
2025-01-20 01:59:07.13	11.01	11.03	
2025-01-20 01:59:07.33	11.00	11.05	
2025-01-20 01:59:07.53	10.99	11.07	
2025-01-20 01:59:07.73	10.98	11.09	
2025-01-20 01:59:07.94	10.96	11.11	
2025-01-20 01:59:08.14	10.95	11.13	
2025-01-20 01:59:08.34	10.94	11.15	
2025-01-20 01:59:08.55	10.93	11.17	
2025-01-20 01:59:08.75	10.92	11.18	
2025-01-20 01:59:08.95	10.91	11.20	
2025-01-20 01:59:09.15	10.90	11.22	
2025-01-20 01:59:09.36	10.89	11.24	
2025-01-20 01:59:09.56	10.88	11.26	
2025-01-20 01:59:09.76	10.87	11.28	
2025-01-20 01:59:09.97	10.86	11.30	
2025-01-20 01:59:10.17	10.85	11.32	
2025-01-20 01:59:10.37	10.84	11.34	
2025-01-20 01:59:10.58	10.82	11.36	
2025-01-20 01:59:10.78	10.81	11.38	
2025-01-20 01:59:10.98	10.80	11.40	
2025-01-20 01:59:11.18	10.79	11.42	
2025-01-20 01:59:11.39	10.78	11.44	
2025-01-20 01:59:11.59	10.77	11.45	
2025-01-20 01:59:11.79	10.76	11.47	
2025-01-20 01:59:12.00	10.75	11.49	
2025-01-20 01:59:12.20	10.74	11.51	
2025-01-20 01:59:12.40	10.73	11.53	
2025-01-20 01:59:12.61	10.71	11.55	
2025-01-20 01:59:12.81	10.70	11.57	
2025-01-20 01:59:13.01	10.69	11.59	
2025-01-20 01:59:13.21	10.68	11.61	
2025-01-20 01:59:13.42	10.67	11.63	
2025-01-20 01:59:13.62	10.66	11.65	
2025-01-20 01:59:13.82	10.65	11.67	
2025-01-20 01:59:14.03	10.64	11.69	
2025-01-20 01:59:14.23	10.62	11.71	
2025-01-20 01:59:14.43	10.61	11.73	
2025-01-20 01:59:14.63	10.60	11.75	
2025-01-20 01:59:14.84	10.59	11.77	
2025-01-20 01:59:15.04	10.58	11.79	
2025-01-20 01:59:15.24	10.57	11.81	
2025-01-20 01:59:15.45	10.56	11.83	
2025-01-20 01:59:15.65	10.55	11.85	
2025-01-20 01:59:15.85	10.53	11.87	
2025-01-20 01:59:16.06	10.52	11.89	
2025-01-20 01:59:16.26	10.51	11.91	
2025-01-20 01:59:16.46	10.50	11.93	
2025-01-20 01:59:16.66	10.49	11.94	
2025-01-20 01:59:16.87	10.48	11.97	
2025-01-20 01:59:17.07	10.47	11.98	
2025-01-20 01:59:17.27	10.45	12.00	
2025-01-20 01:59:17.48	10.44	12.02	
2025-01-20 01:59:17.68	10.43	12.04	
2025-01-20 01:59:17.88	10.42	12.06	
2025-01-20 01:59:18.08	10.41	12.08	
2025-01-20 01:59:18.29	10.40	12.10	
2025-01-20 01:59:18.49	10.39	12.12	
2025-01-20 01:59:18.69	10.37	12.14	
2025-01-20 01:59:18.90	10.36	12.16	
2025-01-20 01:59:19.10	10.35	12.18	
2025-01-20 01:59:19.30	10.34	12.20	
2025-01-20 01:59:19.51	10.33	12.22	
2025-01-20 01:59:19.71	10.32	12.24	
2025-01-20 01:59:19.91	10.30	12.26	
2025-01-20 01:59:20.11	10.29	12.28	
2025-01-20 01:59:20.32	10.28	12.31	
2025-01-20 01:59:20.52	10.27	12.32	
2025-01-20 01:59:20.72	10.26	12.34	
2025-01-20 01:59:20.93	10.24	12.37	
2025-01-20 01:59:21.13	10.23	12.39	
2025-01-20 01:59:21.33	10.22	12.41	
2025-01-20 01:59:21.54	10.21	12.43	
2025-01-20 01:59:21.74	10.20	12.45	
2025-01-20 01:59:21.94	10.19	12.47	
2025-01-20 01:59:22.14	10.17	12.49	
2025-01-20 01:59:22.35	10.16	12.51	
2025-01-20 01:59:22.55	10.15	12.53	
2025-01-20 01:59:22.75	10.14	12.55	
2025-01-20 01:59:22.96	10.13	12.57	
2025-01-20 01:59:23.16	10.11	12.59	
2025-01-20 01:59:23.36	10.10	12.61	
2025-01-20 01:59:23.56	10.09	12.63	
2025-01-20 01:59:23.77	10.08	12.65	
2025-01-20 01:59:23.97	10.07	12.67	
2025-01-20 01:59:24.17	10.05	12.69	
2025-01-20 01:59:24.38	10.04	12.71	
2025-01-20 01:59:24.58	10.03	12.73	
2025-01-20 01:59:24.78	10.02	12.75	
2025-01-20 01:59:24.99	10.00	12.77	
2025-01-20 01:59:25.19	9.99	12.79	
2025-01-20 01:59:25.39	9.98	12.81	
2025-01-20 01:59:25.59	9.97	12.83	
2025-01-20 01:59:25.80	9.96	12.86	
2025-01-20 01:59:26.00	9.94	12.88	
2025-01-20 01:59:26.20	9.93	12.90	
2025-01-20 01:59:26.41	9.92	12.92	
2025-01-20 01:59:26.61	9.91	12.94	
2025-01-20 01:59:26.81	9.89	12.96	
2025-01-20 01:59:27.01	9.88	12.98	
2025-01-20 01:59:27.22	9.87	13.00	
2025-01-20 01:59:27.42	9.86	13.02	
2025-01-20 01:59:27.62	9.84	13.04	
2025-01-20 01:59:27.83	9.83	13.06	
2025-01-20 01:59:28.03	9.82	13.08	
2025-01-20 01:59:28.23	9.81	13.10	
2025-01-20 01:59:28.44	9.79	13.12	
2025-01-20 01:59:28.64	9.78	13.15	
2025-01-20 01:59:28.84	9.77	13.17	
2025-01-20 01:59:29.04	9.76	13.19	
2025-01-20 01:59:29.25	9.74	13.21	
2025-01-20 01:59:29.45	9.73	13.23	
2025-01-20 01:59:29.65	9.72	13.25	
2025-01-20 01:59:29.86	9.71	13.27	
2025-01-20 01:59:30.06	9.69	13.29	
2025-01-20 01:59:30.26	9.68	13.31	
2025-01-20 01:59:30.47	9.67	13.33	
2025-01-20 01:59:30.67	9.65	13.36	
2025-01-20 01:59:30.87	9.64	13.38	
2025-01-20 01:59:31.07	9.63	13.40	
2025-01-20 01:59:31.28	9.62	13.42	
2025-01-20 01:59:31.48	9.60	13.44	
2025-01-20 01:59:31.68	9.59	13.46	
2025-01-20 01:59:31.89	9.58	13.48	
2025-01-20 01:59:32.09	9.56	13.50	
2025-01-20 01:59:32.29	9.55	13.52	
2025-01-20 01:59:32.49	9.54	13.54	
2025-01-20 01:59:32.70	9.53	13.57	
2025-01-20 01:59:32.90	9.51	13.59	
2025-01-20 01:59:33.10	9.50	13.61	
2025-01-20 01:59:33.31	9.49	13.63	
2025-01-20 01:59:33.51	9.47	13.65	
2025-01-20 01:59:33.71	9.46	13.67	
2025-01-20 01:59:33.92	9.45	13.69	
2025-01-20 01:59:34.12	9.43	13.72	
2025-01-20 01:59:34.32	9.42	13.74	
2025-01-20 01:59:34.52	9.41	13.76	
2025-01-20 01:59:34.73	9.40	13.78	
2025-01-20 01:59:34.93	9.38	13.80	
2025-01-20 01:59:35.13	9.37	13.82	
2025-01-20 01:59:35.34	9.36	13.84	
2025-01-20 01:59:35.54	9.34	13.87	
2025-01-20 01:59:35.74	9.33	13.89	
2025-01-20 01:59:35.95	9.32	13.91	
2025-01-20 01:59:36.15	9.30	13.93	
2025-01-20 01:59:36.35	9.29	13.95	
2025-01-20 01:59:36.55	9.28	13.97	
2025-01-20 01:59:36.76	9.26	14.00	
2025-01-20 01:59:36.96	9.25	14.02	
2025-01-20 01:59:37.16	9.24	14.04	
2025-01-20 01:59:37.37	9.22	14.06	
2025-01-20 01:59:37.57	9.21	14.08	
2025-01-20 01:59:37.77	9.20	14.10	
2025-01-20 01:59:37.97	9.18	14.12	
2025-01-20 01:59:38.18	9.17	14.15	
2025-01-20 01:59:38.38	9.15	14.17	
2025-01-20 01:59:38.58	9.14	14.19	
2025-01-20 01:59:38.79	9.13	14.21	
2025-01-20 01:59:38.99	9.11	14.23	
2025-01-20 01:59:39.19	9.10	14.26	
2025-01-20 01:59:39.40	9.09	14.28	
2025-01-20 01:59:39.60	9.07	14.30	
2025-01-20 01:59:39.80	9.06	14.32	
2025-01-20 01:59:40.00	9.05	14.34	
2025-01-20 01:59:40.21	9.03	14.37	
2025-01-20 01:59:40.41	9.02	14.39	
2025-01-20 01:59:40.61	9.00	14.41	
2025-01-20 01:59:40.82	8.99	14.43	
2025-01-20 01:59:41.02	8.98	14.45	
2025-01-20 01:59:41.22	8.96	14.48	
2025-01-20 01:59:41.42	8.95	14.50	
2025-01-20 01:59:41.63	8.93	14.52	
2025-01-20 01:59:41.83	8.92	14.54	
2025-01-20 01:59:42.03	8.91	14.56	
2025-01-20 01:59:42.24	8.89	14.59	
2025-01-20 01:59:42.44	8.88	14.61	
2025-01-20 01:59:42.64	8.86	14.63	
2025-01-20 01:59:42.85	8.85	14.65	
2025-01-20 01:59:43.05	8.84	14.68	
2025-01-20 01:59:43.25	8.82	14.70	
2025-01-20 01:59:43.45	8.81	14.72	
2025-01-20 01:59:43.66	8.79	14.74	
2025-01-20 01:59:43.86	8.78	14.76	
2025-01-20 01:59:44.06	8.77	14.79	
2025-01-20 01:59:44.27	8.75	14.81	
2025-01-20 01:59:44.47	8.74	14.83	
2025-01-20 01:59:44.67	8.72	14.85	
2025-01-20 01:59:44.88	8.71	14.88	
2025-01-20 01:59:45.08	8.69	14.90	
2025-01-20 01:59:45.28	8.68	14.92	
2025-01-20 01:59:45.48	8.67	14.94	
2025-01-20 01:59:45.69	8.65	14.97	
2025-01-20 01:59:45.89	8.64	14.99	
2025-01-20 01:59:46.09	8.62	15.01	
2025-01-20 01:59:46.30	8.61	15.03	
2025-01-20 01:59:46.50	8.59	15.06	
2025-01-20 01:59:46.70	8.58	15.08	
2025-01-20 01:59:46.90	8.56	15.10	
2025-01-20 01:59:47.11	8.55	15.13	
2025-01-20 01:59:47.31	8.53	15.15	
2025-01-20 01:59:47.51	8.52	15.17	
2025-01-20 01:59:47.72	8.50	15.19	
2025-01-20 01:59:47.92	8.49	15.22	
2025-01-20 01:59:48.12	8.48	15.24	
2025-01-20 01:59:48.33	8.46	15.26	
2025-01-20 01:59:48.53	8.45	15.28	
2025-01-20 01:59:48.73	8.43	15.31	
2025-01-20 01:59:48.93	8.42	15.33	
2025-01-20 01:59:49.14	8.40	15.35	
2025-01-20 01:59:49.34	8.39	15.38	
2025-01-20 01:59:49.54	8.37	15.40	
2025-01-20 01:59:49.75	8.36	15.42	
2025-01-20 01:59:49.95	8.34	15.44	
2025-01-20 01:59:50.15	8.33	15.47	
2025-01-20 01:59:50.35	8.31	15.49	
2025-01-20 01:59:50.56	8.30	15.51	
2025-01-20 01:59:50.76	8.28	15.54	
2025-01-20 01:59:50.96	8.27	15.56	
2025-01-20 01:59:51.17	8.25	15.58	
2025-01-20 01:59:51.37	8.24	15.61	
2025-01-20 01:59:51.57	8.22	15.63	
2025-01-20 01:59:51.78	8.21	15.65	
2025-01-20 01:59:51.98	8.19	15.68	
2025-01-20 01:59:52.18	8.18	15.70	
2025-01-20 01:59:52.38	8.16	15.72	
2025-01-20 01:59:52.59	8.15	15.75	
2025-01-20 01:59:52.79	8.13	15.77	
2025-01-20 01:59:52.99	8.11	15.79	
2025-01-20 01:59:53.20	8.10	15.82	
2025-01-20 01:59:53.40	8.08	15.84	
2025-01-20 01:59:53.60	8.07	15.86	
2025-01-20 01:59:53.81	8.05	15.89	
2025-01-20 01:59:54.01	8.04	15.91	
2025-01-20 01:59:54.21	8.02	15.93	
2025-01-20 01:59:54.41	8.01	15.96	
2025-01-20 01:59:54.62	7.99	15.98	
2025-01-20 01:59:54.82	7.98	16.00	
2025-01-20 01:59:55.02	7.96	16.03	
2025-01-20 01:59:55.23	7.94	16.05	
2025-01-20 01:59:55.43	7.93	16.07	
2025-01-20 01:59:55.63	7.91	16.10	
2025-01-20 01:59:55.83	7.90	16.12	
2025-01-20 01:59:56.04	7.88	16.14	
2025-01-20 01:59:56.24	7.87	16.17	
2025-01-20 01:59:56.44	7.85	16.19	
2025-01-20 01:59:56.65	7.83	16.22	
2025-01-20 01:59:56.85	7.82	16.24	
2025-01-20 01:59:57.05	7.80	16.26	
2025-01-20 01:59:57.26	7.79	16.29	
2025-01-20 01:59:57.46	7.77	16.31	
2025-01-20 01:59:57.66	7.75	16.33	
2025-01-20 01:59:57.86	7.74	16.36	
2025-01-20 01:59:58.07	7.72	16.38	
2025-01-20 01:59:58.27	7.71	16.41	
2025-01-20 01:59:58.47	7.69	16.43	
2025-01-20 01:59:58.68	7.67	16.45	
2025-01-20 01:59:58.88	7.66	16.48	
2025-01-20 01:59:59.08	7.64	16.50	
2025-01-20 01:59:59.29	7.63	16.53	
2025-01-20 01:59:59.49	7.61	16.55	
2025-01-20 01:59:59.69	7.59	16.57	
2025-01-20 01:59:59.89	7.58	16.60	
2025-01-20 02:00:00.10	7.56	16.62	
2025-01-20 02:00:00.30	7.54	16.65	
2025-01-20 02:00:00.50	7.53	16.67	
2025-01-20 02:00:00.71	7.51	16.70	
2025-01-20 02:00:00.91	7.49	16.72	
2025-01-20 02:00:01.11	7.48	16.74	
2025-01-20 02:00:01.31	7.46	16.77	
2025-01-20 02:00:01.52	7.45	16.79	
2025-01-20 02:00:01.72	7.43	16.82	
2025-01-20 02:00:01.92	7.41	16.84	
2025-01-20 02:00:02.13	7.40	16.87	
2025-01-20 02:00:02.33	7.38	16.89	
2025-01-20 02:00:02.53	7.36	16.91	
2025-01-20 02:00:02.74	7.35	16.94	
2025-01-20 02:00:02.94	7.33	16.96	
2025-01-20 02:00:03.14	7.31	16.99	
2025-01-20 02:00:03.34	7.30	17.01	
2025-01-20 02:00:03.55	7.28	17.04	
2025-01-20 02:00:03.75	7.26	17.06	
2025-01-20 02:00:03.95	7.25	17.09	
2025-01-20 02:00:04.16	7.23	17.11	
2025-01-20 02:00:04.36	7.21	17.13	
2025-01-20 02:00:04.56	7.19	17.16	
2025-01-20 02:00:04.76	7.18	17.18	
2025-01-20 02:00:04.97	7.16	17.21	
2025-01-20 02:00:05.17	7.14	17.23	
2025-01-20 02:00:05.37	7.13	17.26	
2025-01-20 02:00:05.58	7.11	17.28	
2025-01-20 02:00:05.78	7.09	17.31	
2025-01-20 02:00:05.98	7.07	17.33	
2025-01-20 02:00:06.19	7.06	17.36	
2025-01-20 02:00:06.39	7.04	17.38	
2025-01-20 02:00:06.59	7.02	17.41	
2025-01-20 02:00:06.79	7.01	17.43	
2025-01-20 02:00:07.00	6.99	17.46	
2025-01-20 02:00:07.20	6.97	17.48	
2025-01-20 02:00:07.40	6.95	17.51	
2025-01-20 02:00:07.61	6.94	17.53	
2025-01-20 02:00:07.81	6.92	17.56	
2025-01-20 02:00:08.01	6.90	17.58	
2025-01-20 02:00:08.22	6.88	17.61	
2025-01-20 02:00:08.42	6.87	17.63	
2025-01-20 02:00:08.62	6.85	17.66	
2025-01-20 02:00:08.82	6.83	17.68	
2025-01-20 02:00:09.03	6.81	17.71	
2025-01-20 02:00:09.23	6.80	17.73	
2025-01-20 02:00:09.43	6.78	17.76	
2025-01-20 02:00:09.64	6.76	17.78	
2025-01-20 02:00:09.84	6.74	17.81	
2025-01-20 02:00:10.04	6.72	17.83	
2025-01-20 02:00:10.24	6.71	17.86	
2025-01-20 02:00:10.45	6.69	17.89	
2025-01-20 02:00:10.65	6.67	17.91	
2025-01-20 02:00:10.85	6.65	17.94	
2025-01-20 02:00:11.06	6.63	17.96	
2025-01-20 02:00:11.26	6.62	17.99	
2025-01-20 02:00:11.46	6.60	18.01	
2025-01-20 02:00:11.67	6.58	18.04	
2025-01-20 02:00:11.87	6.56	18.06	
2025-01-20 02:00:12.07	6.54	18.09	
2025-01-20 02:00:12.27	6.53	18.11	
2025-01-20 02:00:12.48	6.51	18.14	
2025-01-20 02:00:12.68	6.49	18.17	
2025-01-20 02:00:12.88	6.47	18.19	
2025-01-20 02:00:13.09	6.45	18.22	
2025-01-20 02:00:13.29	6.43	18.24	
2025-01-20 02:00:13.49	6.42	18.27	
2025-01-20 02:00:13.69	6.40	18.29	
2025-01-20 02:00:13.90	6.38	18.32	
2025-01-20 02:00:14.10	6.36	18.35	
2025-01-20 02:00:14.30	6.34	18.37	
2025-01-20 02:00:14.51	6.32	18.40	
2025-01-20 02:00:14.71	6.30	18.42	
2025-01-20 02:00:14.91	6.29	18.45	
2025-01-20 02:00:15.12	6.27	18.48	
2025-01-20 02:00:15.32	6.25	18.50	
2025-01-20 02:00:15.52	6.23	18.53	
2025-01-20 02:00:15.72	6.21	18.55	
2025-01-20 02:00:15.93	6.19	18.58	
2025-01-20 02:00:16.13	6.17	18.61	
2025-01-20 02:00:16.33	6.16	18.63	
2025-01-20 02:00:16.54	6.14	18.66	
2025-01-20 02:00:16.74	6.12	18.69	
2025-01-20 02:00:16.94	6.10	18.71	
2025-01-20 02:00:17.15	6.08	18.74	
2025-01-20 02:00:17.35	6.06	18.76	
2025-01-20 02:00:17.55	6.04	18.79	
2025-01-20 02:00:17.75	6.02	18.82	
2025-01-20 02:00:17.96	6.00	18.84	
2025-01-20 02:00:18.16	5.98	18.87	
2025-01-20 02:00:18.36	5.96	18.90	
2025-01-20 02:00:18.57	5.94	18.92	
2025-01-20 02:00:18.77	5.93	18.95	
2025-01-20 02:00:18.97	5.91	18.98	
2025-01-20 02:00:19.17	5.89	19.00	
2025-01-20 02:00:19.38	5.87	19.03	
2025-01-20 02:00:19.58	5.85	19.06	
2025-01-20 02:00:19.78	5.83	19.08	
2025-01-20 02:00:19.99	5.81	19.11	
2025-01-20 02:00:20.19	5.79	19.14	
2025-01-20 02:00:20.39	5.77	19.16	
2025-01-20 02:00:20.60	5.75	19.19	
2025-01-20 02:00:20.80	5.73	19.22	
2025-01-20 02:00:21.00	5.71	19.24	
2025-01-20 02:00:21.20	5.69	19.27	
2025-01-20 02:00:21.41	5.67	19.30	
2025-01-20 02:00:21.61	5.65	19.32	
2025-01-20 02:00:21.81	5.63	19.35	
2025-01-20 02:00:22.02	5.61	19.38	
2025-01-20 02:00:22.22	5.59	19.40	
2025-01-20 02:00:22.42	5.57	19.43	
2025-01-20 02:00:22.62	5.55	19.46	
2025-01-20 02:00:22.83	5.53	19.49	
2025-01-20 02:00:23.03	5.51	19.51	
2025-01-20 02:00:23.23	5.49	19.54	
2025-01-20 02:00:23.44	5.47	19.57	
2025-01-20 02:00:23.64	5.45	19.59	
2025-01-20 02:00:23.84	5.43	19.62	
2025-01-20 02:00:24.05	5.41	19.65	
2025-01-20 02:00:24.25	5.39	19.68	
2025-01-20 02:00:24.45	5.37	19.70	
2025-01-20 02:00:24.65	5.35	19.73	
2025-01-20 02:00:24.86	5.33	19.76	
2025-01-20 02:00:25.06	5.31	19.78	
2025-01-20 02:00:25.26	5.29	19.81	
2025-01-20 02:00:25.47	5.27	19.84	
2025-01-20 02:00:25.67	5.25	19.87	
2025-01-20 02:00:25.87	5.23	19.89	
2025-01-20 02:00:26.08	5.20	19.92	
2025-01-20 02:00:26.28	5.18	19.95	
2025-01-20 02:00:26.48	5.16	19.98	
2025-01-20 02:00:26.68	5.14	20.00	
2025-01-20 02:00:26.89	5.12	20.03	
2025-01-20 02:00:27.09	5.10	20.06	
2025-01-20 02:00:27.29	5.08	20.09	
2025-01-20 02:00:27.50	5.06	20.12	
2025-01-20 02:00:27.70	5.04	20.14	
2025-01-20 02:00:27.90	5.02	20.17	
2025-01-20 02:00:28.10	5.00	20.20	
2025-01-20 02:00:28.31	4.97	20.23	
2025-01-20 02:00:28.51	4.95	20.25	
2025-01-20 02:00:28.71	4.93	20.28	
2025-01-20 02:00:28.92	4.91	20.31	
2025-01-20 02:00:29.12	4.89	20.34	
2025-01-20 02:00:29.32	4.87	20.37	
2025-01-20 02:00:29.53	4.85	20.40	
2025-01-20 02:00:29.73	4.82	20.42	
2025-01-20 02:00:29.93	4.80	20.45	
2025-01-20 02:00:30.13	4.78	20.48	
2025-01-20 02:00:30.34	4.76	20.51	
2025-01-20 02:00:30.54	4.74	20.54	
2025-01-20 02:00:30.74	4.72	20.56	
2025-01-20 02:00:30.95	4.69	20.59	
2025-01-20 02:00:31.15	4.67	20.62	
2025-01-20 02:00:31.35	4.65	20.65	
2025-01-20 02:00:31.56	4.63	20.68	
2025-01-20 02:00:31.76	4.61	20.71	
2025-01-20 02:00:31.96	4.59	20.73	
2025-01-20 02:00:32.16	4.56	20.76	
2025-01-20 02:00:32.37	4.54	20.79	
2025-01-20 02:00:32.57	4.52	20.82	
2025-01-20 02:00:32.77	4.50	20.85	
2025-01-20 02:00:32.98	4.47	20.88	
2025-01-20 02:00:33.18	4.45	20.90	
2025-01-20 02:00:33.38	4.43	20.93	
2025-01-20 02:00:33.58	4.41	20.96	
2025-01-20 02:00:33.79	4.39	20.99	
2025-01-20 02:00:33.99	4.36	21.02	
2025-01-20 02:00:34.19	4.34	21.05	
2025-01-20 02:00:34.40	4.32	21.08	
2025-01-20 02:00:34.60	4.30	21.11	
2025-01-20 02:00:34.80	4.27	21.13	
2025-01-20 02:00:35.01	4.25	21.16	
2025-01-20 02:00:35.21	4.23	21.19	
2025-01-20 02:00:35.41	4.21	21.22	
2025-01-20 02:00:35.61	4.18	21.25	
2025-01-20 02:00:35.82	4.16	21.28	
2025-01-20 02:00:36.02	4.14	21.31	
2025-01-20 02:00:36.22	4.11	21.34	
2025-01-20 02:00:36.43	4.09	21.37	
2025-01-20 02:00:36.63	4.07	21.40	
2025-01-20 02:00:36.83	4.05	21.42	
2025-01-20 02:00:37.03	4.02	21.45	
2025-01-20 02:00:37.24	4.00	21.48	
2025-01-20 02:00:37.44	3.98	21.51	
2025-01-20 02:00:37.64	3.95	21.54	
2025-01-20 02:00:37.85	3.93	21.57	
2025-01-20 02:00:38.05	3.91	21.60	
2025-01-20 02:00:38.25	3.88	21.63	
2025-01-20 02:00:38.46	3.86	21.66	
2025-01-20 02:00:38.66	3.84	21.69	
2025-01-20 02:00:38.86	3.81	21.72	
2025-01-20 02:00:39.06	3.79	21.75	
2025-01-20 02:00:39.27	3.76	21.78	
2025-01-20 02:00:39.47	3.74	21.81	
2025-01-20 02:00:39.67	3.72	21.83	
2025-01-20 02:00:39.88	3.69	21.87	
2025-01-20 02:00:40.08	3.67	21.89	
2025-01-20 02:00:40.28	3.65	21.92	
2025-01-20 02:00:40.49	3.62	21.95	
2025-01-20 02:00:40.69	3.60	21.98	
2025-01-20 02:00:40.89	3.57	22.01	
2025-01-20 02:00:41.09	3.55	22.04	
2025-01-20 02:00:41.30	3.53	22.07	
2025-01-20 02:00:41.50	3.50	22.10	
2025-01-20 02:00:41.70	3.48	22.13	
2025-01-20 02:00:41.91	3.45	22.16	
2025-01-20 02:00:42.11	3.43	22.19	
2025-01-20 02:00:42.31	3.41	22.22	
2025-01-20 02:00:42.51	3.38	22.25	
2025-01-20 02:00:42.72	3.36	22.28	
2025-01-20 02:00:42.92	3.33	22.31	
2025-01-20 02:00:43.12	3.31	22.34	
2025-01-20 02:00:43.33	3.28	22.37	
2025-01-20 02:00:43.53	3.26	22.40	
2025-01-20 02:00:43.73	3.23	22.43	
2025-01-20 02:00:43.94	3.21	22.47	
2025-01-20 02:00:44.14	3.18	22.49	
2025-01-20 02:00:44.34	3.16	22.52	
2025-01-20 02:00:44.54	3.13	22.55	
2025-01-20 02:00:44.75	3.11	22.59	
2025-01-20 02:00:44.95	3.08	22.62	
2025-01-20 02:00:45.15	3.06	22.65	
2025-01-20 02:00:45.36	3.03	22.68	
2025-01-20 02:00:45.56	3.01	22.71	
2025-01-20 02:00:45.76	2.98	22.74	
2025-01-20 02:00:45.97	2.96	22.77	
2025-01-20 02:00:46.17	2.93	22.80	
2025-01-20 02:00:46.37	2.91	22.83	
2025-01-20 02:00:46.57	2.88	22.86	
2025-01-20 02:00:46.78	2.86	22.89	
2025-01-20 02:00:46.98	2.83	22.92	
2025-01-20 02:00:47.18	2.81	22.95	
2025-01-20 02:00:47.39	2.78	22.98	
2025-01-20 02:00:47.59	2.75	23.02	
2025-01-20 02:00:47.79	2.73	23.05	
2025-01-20 02:00:47.99	2.70	23.08	
2025-01-20 02:00:48.20	2.68	23.11	
2025-01-20 02:00:48.40	2.65	23.14	
2025-01-20 02:00:48.60	2.62	23.17	
2025-01-20 02:00:48.81	2.60	23.20	
2025-01-20 02:00:49.01	2.57	23.23	
2025-01-20 02:00:49.21	2.55	23.26	
2025-01-20 02:00:49.42	2.52	23.30	
2025-01-20 02:00:49.62	2.49	23.33	
2025-01-20 02:00:49.82	2.47	23.36	
2025-01-20 02:00:50.02	2.44	23.39	
2025-01-20 02:00:50.23	2.41	23.42	
2025-01-20 02:00:50.43	2.39	23.45	
2025-01-20 02:00:50.63	2.36	23.48	
2025-01-20 02:00:50.84	2.33	23.51	
2025-01-20 02:00:51.04	2.31	23.55	
2025-01-20 02:00:51.24	2.28	23.58	
2025-01-20 02:00:51.44	2.25	23.61	
2025-01-20 02:00:51.65	2.23	23.64	
2025-01-20 02:00:51.85	2.20	23.67	
2025-01-20 02:00:52.05	2.17	23.70	
2025-01-20 02:00:52.26	2.15	23.74	
2025-01-20 02:00:52.46	2.12	23.77	
2025-01-20 02:00:52.66	2.09	23.80	
2025-01-20 02:00:52.87	2.06	23.83	
2025-01-20 02:00:53.07	2.04	23.86	
2025-01-20 02:00:53.27	2.01	23.89	
2025-01-20 02:00:53.47	1.98	23.93	
2025-01-20 02:00:53.68	1.96	23.96	
2025-01-20 02:00:53.88	1.93	23.99	
2025-01-20 02:00:54.08	1.90	24.02	
2025-01-20 02:00:54.29	1.87	24.05	
2025-01-20 02:00:54.49	1.85	24.09	
2025-01-20 02:00:54.69	1.82	24.12	
2025-01-20 02:00:54.89	1.79	24.15	
2025-01-20 02:00:55.10	1.76	24.18	
2025-01-20 02:00:55.30	1.73	24.21	
2025-01-20 02:00:55.50	1.71	24.25	
2025-01-20 02:00:55.71	1.68	24.28	
2025-01-20 02:00:55.91	1.65	24.31	
2025-01-20 02:00:56.11	1.62	24.34	
2025-01-20 02:00:56.32	1.59	24.38	
2025-01-20 02:00:56.52	1.57	24.41	
2025-01-20 02:00:56.72	1.54	24.44	
2025-01-20 02:00:56.92	1.51	24.47	
2025-01-20 02:00:57.13	1.48	24.51	
2025-01-20 02:00:57.33	1.45	24.54	
2025-01-20 02:00:57.53	1.42	24.57	
2025-01-20 02:00:57.74	1.39	24.60	
2025-01-20 02:00:57.94	1.37	24.64	
2025-01-20 02:00:58.14	1.34	24.67	
2025-01-20 02:00:58.35	1.31	24.70	
2025-01-20 02:00:58.55	1.28	24.74	
2025-01-20 02:00:58.75	1.25	24.77	
2025-01-20 02:00:58.95	1.22	24.80	
2025-01-20 02:00:59.16	1.19	24.83	
2025-01-20 02:00:59.36	1.16	24.87	
2025-01-20 02:00:59.56	1.13	24.90	
2025-01-20 02:00:59.77	1.10	24.93	
2025-01-20 02:00:59.97	1.07	24.97	
2025-01-20 02:01:00.17	1.05	25.00	
2025-01-20 02:01:00.37	1.02	25.03	
2025-01-20 02:01:00.58	0.99	25.07	
2025-01-20 02:01:00.78	0.96	25.10	
2025-01-20 02:01:00.98	0.93	25.13	
2025-01-20 02:01:01.19	0.90	25.17	
2025-01-20 02:01:01.39	0.87	25.20	
2025-01-20 02:01:01.59	0.84	25.23	
2025-01-20 02:01:01.80	0.81	25.27	
2025-01-20 02:01:02.00	0.78	25.30	
2025-01-20 02:01:02.20	0.75	25.33	
2025-01-20 02:01:02.40	0.72	25.36	
2025-01-20 02:01:02.61	0.69	25.40	
2025-01-20 02:01:02.81	0.66	25.43	
2025-01-20 02:01:03.01	0.63	25.47	
2025-01-20 02:01:03.22	0.59	25.50	
2025-01-20 02:01:03.42	0.56	25.53	
2025-01-20 02:01:03.62	0.53	25.57	
2025-01-20 02:01:03.83	0.50	25.60	
2025-01-20 02:01:04.03	0.47	25.64	
2025-01-20 02:01:04.23	0.44	25.67	
2025-01-20 02:01:04.43	0.41	25.70	
2025-01-20 02:01:04.64	0.38	25.74	
2025-01-20 02:01:04.84	0.35	25.77	
2025-01-20 02:01:05.04	0.32	25.80	
2025-01-20 02:01:05.25	0.29	25.84	
2025-01-20 02:01:05.45	0.26	25.87	
2025-01-20 02:01:05.65	0.22	25.91	
2025-01-20 02:01:05.85	0.19	25.94	
2025-01-20 02:01:06.06	0.16	25.98	
2025-01-20 02:01:06.26	0.13	26.01	
2025-01-20 02:01:06.46	0.10	26.04	
2025-01-20 02:01:06.67	0.07	26.08	
2025-01-20 02:01:06.87	0.03	26.11	
2025-01-20 02:01:07.07	0.00	26.15	
2025-01-20 02:01:07.28	359.97	26.18	
2025-01-20 02:01:07.48	359.94	26.22	
2025-01-20 02:01:07.68	359.91	26.25	
2025-01-20 02:01:07.88	359.88	26.28	
2025-01-20 02:01:08.09	359.84	26.32	
2025-01-20 02:01:08.29	359.81	26.35	
2025-01-20 02:01:08.49	359.78	26.39	
2025-01-20 02:01:08.70	359.75	26.42	
2025-01-20 02:01:08.90	359.71	26.46	
2025-01-20 02:01:09.10	359.68	26.49	
2025-01-20 02:01:09.31	359.65	26.53	
2025-01-20 02:01:09.51	359.62	26.56	
2025-01-20 02:01:09.71	359.58	26.60	
2025-01-20 02:01:09.91	359.55	26.63	
2025-01-20 02:01:10.12	359.52	26.67	
2025-01-20 02:01:10.32	359.48	26.70	
2025-01-20 02:01:10.52	359.45	26.74	
2025-01-20 02:01:10.73	359.42	26.77	
2025-01-20 02:01:10.93	359.38	26.81	
2025-01-20 02:01:11.13	359.35	26.84	
2025-01-20 02:01:11.33	359.32	26.88	
2025-01-20 02:01:11.54	359.28	26.91	
2025-01-20 02:01:11.74	359.25	26.95	
2025-01-20 02:01:11.94	359.22	26.98	
2025-01-20 02:01:12.15	359.18	27.02	
2025-01-20 02:01:12.35	359.15	27.05	
2025-01-20 02:01:12.55	359.12	27.09	
2025-01-20 02:01:12.76	359.08	27.12	
2025-01-20 02:01:12.96	359.05	27.16	
2025-01-20 02:01:13.16	359.01	27.19	
2025-01-20 02:01:13.36	358.98	27.23	
2025-01-20 02:01:13.57	358.94	27.27	
2025-01-20 02:01:13.77	358.91	27.30	
2025-01-20 02:01:13.97	358.88	27.34	
2025-01-20 02:01:14.18	358.84	27.37	
2025-01-20 02:01:14.38	358.81	27.41	
2025-01-20 02:01:14.58	358.77	27.44	
2025-01-20 02:01:14.78	358.74	27.48	
2025-01-20 02:01:14.99	358.70	27.52	
2025-01-20 02:01:15.19	358.67	27.55	
2025-01-20 02:01:15.39	358.63	27.59	
2025-01-20 02:01:15.60	358.60	27.62	
2025-01-20 02:01:15.80	358.56	27.66	
2025-01-20 02:01:16.00	358.53	27.70	
2025-01-20 02:01:16.21	358.49	27.73	
2025-01-20 02:01:16.41	358.46	27.77	
2025-01-20 02:01:16.61	358.42	27.80	
2025-01-20 02:01:16.81	358.39	27.84	
2025-01-20 02:01:17.02	358.35	27.88	
2025-01-20 02:01:17.22	358.31	27.91	
2025-01-20 02:01:17.42	358.28	27.95	
2025-01-20 02:01:17.63	358.24	27.99	
2025-01-20 02:01:17.83	358.21	28.02	
2025-01-20 02:01:18.03	358.17	28.06	
2025-01-20 02:01:18.24	358.13	28.10	
2025-01-20 02:01:18.44	358.10	28.13	
2025-01-20 02:01:18.64	358.06	28.17	
2025-01-20 02:01:18.84	358.03	28.20	
2025-01-20 02:01:19.05	357.99	28.24	
2025-01-20 02:01:19.25	357.95	28.28	
2025-01-20 02:01:19.45	357.92	28.31	
2025-01-20 02:01:19.66	357.88	28.35	
2025-01-20 02:01:19.86	357.84	28.39	
2025-01-20 02:01:20.06	357.80	28.43	
2025-01-20 02:01:20.26	357.77	28.46	
2025-01-20 02:01:20.47	357.73	28.50	
2025-01-20 02:01:20.67	357.69	28.54	
2025-01-20 02:01:20.87	357.66	28.57	
2025-01-20 02:01:21.08	357.62	28.61	
2025-01-20 02:01:21.28	357.58	28.65	
2025-01-20 02:01:21.48	357.54	28.68	
2025-01-20 02:01:21.69	357.50	28.72	
2025-01-20 02:01:21.89	357.47	28.76	
2025-01-20 02:01:22.09	357.43	28.80	
2025-01-20 02:01:22.29	357.39	28.83	
2025-01-20 02:01:22.50	357.35	28.87	
2025-01-20 02:01:22.70	357.31	28.91	
2025-01-20 02:01:22.90	357.28	28.95	
2025-01-20 02:01:23.11	357.24	28.98	
2025-01-20 02:01:23.31	357.20	29.02	
2025-01-20 02:01:23.51	357.16	29.06	
2025-01-20 02:01:23.71	357.12	29.09	
2025-01-20 02:01:23.92	357.08	29.13	
2025-01-20 02:01:24.12	357.05	29.17	
2025-01-20 02:01:24.32	357.01	29.21	
2025-01-20 02:01:24.53	356.97	29.25	
2025-01-20 02:01:24.73	356.93	29.28	
2025-01-20 02:01:24.93	356.89	29.32	
2025-01-20 02:01:25.14	356.85	29.36	
2025-01-20 02:01:25.34	356.81	29.40	
2025-01-20 02:01:25.54	356.77	29.44	
2025-01-20 02:01:25.74	356.73	29.47	
2025-01-20 02:01:25.95	356.69	29.51	
2025-01-20 02:01:26.15	356.65	29.55	
2025-01-20 02:01:26.35	356.61	29.59	
2025-01-20 02:01:26.56	356.57	29.63	
2025-01-20 02:01:26.76	356.53	29.66	
2025-01-20 02:01:26.96	356.49	29.70	
2025-01-20 02:01:27.17	356.45	29.74	
2025-01-20 02:01:27.37	356.41	29.78	
2025-01-20 02:01:27.57	356.37	29.82	
2025-01-20 02:01:27.77	356.33	29.85	
2025-01-20 02:01:27.98	356.29	29.89	
2025-01-20 02:01:28.18	356.25	29.93	
2025-01-20 02:01:28.38	356.21	29.97	
2025-01-20 02:01:28.59	356.16	30.01	
2025-01-20 02:01:28.79	356.12	30.05	
2025-01-20 02:01:28.99	356.08	30.09	
2025-01-20 02:01:29.19	356.04	30.12	
2025-01-20 02:01:29.40	356.00	30.16	
2025-01-20 02:01:29.60	355.96	30.20	
2025-01-20 02:01:29.80	355.92	30.24	
2025-01-20 02:01:30.01	355.87	30.28	
2025-01-20 02:01:30.21	355.83	30.32	
2025-01-20 02:01:30.41	355.79	30.36	
2025-01-20 02:01:30.62	355.75	30.40	
2025-01-20 02:01:30.82	355.71	30.44	
2025-01-20 02:01:31.02	355.67	30.47	
2025-01-20 02:01:31.22	355.62	30.51	
2025-01-20 02:01:31.43	355.58	30.55	
2025-01-20 02:01:31.63	355.54	30.59	
2025-01-20 02:01:31.83	355.50	30.63	
2025-01-20 02:01:32.04	355.45	30.67	
2025-01-20 02:01:32.24	355.41	30.71	
2025-01-20 02:01:32.44	355.37	30.75	
2025-01-20 02:01:32.65	355.32	30.79	
2025-01-20 02:01:32.85	355.28	30.83	
2025-01-20 02:01:33.05	355.24	30.87	
2025-01-20 02:01:33.25	355.19	30.90	
2025-01-20 02:01:33.46	355.15	30.95	
2025-01-20 02:01:33.66	355.11	30.98	
2025-01-20 02:01:33.86	355.06	31.02	
2025-01-20 02:01:34.07	355.02	31.06	
2025-01-20 02:01:34.27	354.97	31.10	
2025-01-20 02:01:34.47	354.93	31.14	
2025-01-20 02:01:34.67	354.89	31.18	
2025-01-20 02:01:34.88	354.84	31.22	
2025-01-20 02:01:35.08	354.80	31.26	
2025-01-20 02:01:35.28	354.75	31.30	
2025-01-20 02:01:35.49	354.71	31.34	
2025-01-20 02:01:35.69	354.66	31.38	
2025-01-20 02:01:35.89	354.62	31.42	
2025-01-20 02:01:36.10	354.57	31.46	
2025-01-20 02:01:36.30	354.53	31.50	
2025-01-20 02:01:36.50	354.48	31.54	
2025-01-20 02:01:36.70	354.44	31.58	
2025-01-20 02:01:36.91	354.39	31.62	
2025-01-20 02:01:37.11	354.34	31.66	
2025-01-20 02:01:37.31	354.30	31.70	
2025-01-20 02:01:37.52	354.25	31.74	
2025-01-20 02:01:37.72	354.21	31.78	
2025-01-20 02:01:37.92	354.16	31.82	
2025-01-20 02:01:38.12	354.12	31.86	
2025-01-20 02:01:38.33	354.07	31.90	
2025-01-20 02:01:38.53	354.02	31.94	
2025-01-20 02:01:38.73	353.98	31.98	
2025-01-20 02:01:38.94	353.93	32.02	
2025-01-20 02:01:39.14	353.88	32.06	
2025-01-20 02:01:39.34	353.83	32.10	
2025-01-20 02:01:39.55	353.79	32.15	
2025-01-20 02:01:39.75	353.74	32.19	
2025-01-20 02:01:39.95	353.69	32.23	
2025-01-20 02:01:40.15	353.65	32.27	
2025-01-20 02:01:40.36	353.60	32.31	
2025-01-20 02:01:40.56	353.55	32.35	
2025-01-20 02:01:40.76	353.50	32.39	
2025-01-20 02:01:40.97	353.45	32.43	
2025-01-20 02:01:41.17	353.41	32.47	
2025-01-20 02:01:41.37	353.36	32.51	
2025-01-20 02:01:41.58	353.31	32.55	
2025-01-20 02:01:41.78	353.26	32.60	
2025-01-20 02:01:41.98	353.21	32.64	
2025-01-20 02:01:42.18	353.16	32.68	
2025-01-20 02:01:42.39	353.11	32.72	
2025-01-20 02:01:42.59	353.07	32.76	
2025-01-20 02:01:42.79	353.02	32.80	
2025-01-20 02:01:43.00	352.97	32.84	
2025-01-20 02:01:43.20	352.92	32.88	
2025-01-20 02:01:43.40	352.87	32.92	
2025-01-20 02:01:43.60	352.82	32.96	
2025-01-20 02:01:43.81	352.77	33.01	
2025-01-20 02:01:44.01	352.72	33.05	
2025-01-20 02:01:44.21	352.67	33.09	
2025-01-20 02:01:44.42	352.62	33.13	
2025-01-20 02:01:44.62	352.57	33.17	
2025-01-20 02:01:44.82	352.52	33.21	
2025-01-20 02:01:45.03	352.47	33.26	
2025-01-20 02:01:45.23	352.42	33.30	
2025-01-20 02:01:45.43	352.37	33.34	
2025-01-20 02:01:45.63	352.32	33.38	
2025-01-20 02:01:45.84	352.26	33.42	
2025-01-20 02:01:46.04	352.21	33.46	
2025-01-20 02:01:46.24	352.16	33.51	
2025-01-20 02:01:46.45	352.11	33.55	
2025-01-20 02:01:46.65	352.06	33.59	
2025-01-20 02:01:46.85	352.01	33.63	
2025-01-20 02:01:47.05	351.95	33.67	
2025-01-20 02:01:47.26	351.90	33.72	
2025-01-20 02:01:47.46	351.85	33.76	
2025-01-20 02:01:47.66	351.80	33.80	
2025-01-20 02:01:47.87	351.74	33.84	
2025-01-20 02:01:48.07	351.69	33.88	
2025-01-20 02:01:48.27	351.64	33.93	
2025-01-20 02:01:48.48	351.58	33.97	
2025-01-20 02:01:48.68	351.53	34.01	
2025-01-20 02:01:48.88	351.48	34.05	
2025-01-20 02:01:49.08	351.43	34.09	
2025-01-20 02:01:49.29	351.37	34.14	
2025-01-20 02:01:49.49	351.32	34.18	
2025-01-20 02:01:49.69	351.27	34.22	
2025-01-20 02:01:49.90	351.21	34.26	
2025-01-20 02:01:50.10	351.16	34.31	
2025-01-20 02:01:50.30	351.10	34.35	
2025-01-20 02:01:50.51	351.05	34.39	
2025-01-20 02:01:50.71	350.99	34.43	
2025-01-20 02:01:50.91	350.94	34.48	
2025-01-20 02:01:51.11	350.89	34.52	
2025-01-20 02:01:51.32	350.83	34.56	
2025-01-20 02:01:51.52	350.77	34.60	
2025-01-20 02:01:51.72	350.72	34.65	
2025-01-20 02:01:51.93	350.66	34.69	
2025-01-20 02:01:52.13	350.61	34.73	
2025-01-20 02:01:52.33	350.55	34.78	
2025-01-20 02:01:52.53	350.50	34.82	
2025-01-20 02:01:52.74	350.44	34.86	
2025-01-20 02:01:52.94	350.38	34.90	
2025-01-20 02:01:53.14	350.33	34.95	
2025-01-20 02:01:53.35	350.27	34.99	
2025-01-20 02:01:53.55	350.21	35.03	
2025-01-20 02:01:53.75	350.16	35.08	
2025-01-20 02:01:53.96	350.10	35.12	
2025-01-20 02:01:54.16	350.04	35.16	
2025-01-20 02:01:54.36	349.99	35.20	
2025-01-20 02:01:54.56	349.93	35.25	
2025-01-20 02:01:54.77	349.87	35.29	
2025-01-20 02:01:54.97	349.81	35.33	
2025-01-20 02:01:55.17	349.76	35.38	
2025-01-20 02:01:55.38	349.70	35.42	
2025-01-20 02:01:55.58	349.64	35.46	
2025-01-20 02:01:55.78	349.58	35.51	
2025-01-20 02:01:55.99	349.52	35.55	
2025-01-20 02:01:56.19	349.46	35.59	
2025-01-20 02:01:56.39	349.41	35.64	
2025-01-20 02:01:56.59	349.35	35.68	
2025-01-20 02:01:56.80	349.29	35.73	
2025-01-20 02:01:57.00	349.23	35.77	
2025-01-20 02:01:57.20	349.17	35.81	
2025-01-20 02:01:57.41	349.11	35.86	
2025-01-20 02:01:57.61	349.05	35.90	
2025-01-20 02:01:57.81	348.99	35.94	
2025-01-20 02:01:58.01	348.93	35.99	
2025-01-20 02:01:58.22	348.87	36.03	
2025-01-20 02:01:58.42	348.81	36.07	
2025-01-20 02:01:58.62	348.75	36.12	
2025-01-20 02:01:58.83	348.68	36.16	
2025-01-20 02:01:59.03	348.62	36.20	
2025-01-20 02:01:59.23	348.56	36.25	
2025-01-20 02:01:59.44	348.50	36.29	
2025-01-20 02:01:59.64	348.44	36.34	
2025-01-20 02:01:59.84	348.38	36.38	
2025-01-20 02:02:00.04	348.32	36.42	
2025-01-20 02:02:00.25	348.25	36.47	
2025-01-20 02:02:00.45	348.19	36.51	
2025-01-20 02:02:00.65	348.13	36.56	
2025-01-20 02:02:00.86	348.07	36.60	
2025-01-20 02:02:01.06	348.00	36.64	
2025-01-20 02:02:01.26	347.94	36.69	
2025-01-20 02:02:01.46	347.88	36.73	
2025-01-20 02:02:01.67	347.81	36.78	
2025-01-20 02:02:01.87	347.75	36.82	
2025-01-20 02:02:02.07	347.69	36.86	
2025-01-20 02:02:02.28	347.62	36.91	
2025-01-20 02:02:02.48	347.56	36.95	
2025-01-20 02:02:02.68	347.50	37.00	
2025-01-20 02:02:02.89	347.43	37.04	
2025-01-20 02:02:03.09	347.37	37.09	
2025-01-20 02:02:03.29	347.30	37.13	
2025-01-20 02:02:03.49	347.24	37.17	
2025-01-20 02:02:03.70	347.17	37.22	
2025-01-20 02:02:03.90	347.11	37.26	
2025-01-20 02:02:04.10	347.04	37.31	
2025-01-20 02:02:04.31	346.97	37.35	
2025-01-20 02:02:04.51	346.91	37.40	
2025-01-20 02:02:04.71	346.84	37.44	
2025-01-20 02:02:04.92	346.78	37.49	
2025-01-20 02:02:05.12	346.71	37.53	
2025-01-20 02:02:05.32	346.65	37.57	
2025-01-20 02:02:05.52	346.58	37.62	
2025-01-20 02:02:05.73	346.51	37.66	
2025-01-20 02:02:05.93	346.44	37.71	
2025-01-20 02:02:06.13	346.38	37.75	
2025-01-20 02:02:06.34	346.31	37.80	
2025-01-20 02:02:06.54	346.24	37.84	
2025-01-20 02:02:06.74	346.17	37.88	
2025-01-20 02:02:06.94	346.11	37.93	
2025-01-20 02:02:07.15	346.04	37.98	
2025-01-20 02:02:07.35	345.97	38.02	
2025-01-20 02:02:07.55	345.90	38.06	
2025-01-20 02:02:07.76	345.83	38.11	
2025-01-20 02:02:07.96	345.76	38.15	
2025-01-20 02:02:08.16	345.69	38.20	
2025-01-20 02:02:08.37	345.62	38.24	
2025-01-20 02:02:08.57	345.55	38.29	
2025-01-20 02:02:08.77	345.48	38.33	
2025-01-20 02:02:08.97	345.42	38.38	
2025-01-20 02:02:09.18	345.34	38.42	
2025-01-20 02:02:09.38	345.27	38.47	
2025-01-20 02:02:09.58	345.20	38.51	
2025-01-20 02:02:09.79	345.13	38.56	
2025-01-20 02:02:09.99	345.06	38.60	
2025-01-20 02:02:10.19	344.99	38.65	
2025-01-20 02:02:10.39	344.92	38.69	
2025-01-20 02:02:10.60	344.85	38.74	
2025-01-20 02:02:10.80	344.77	38.78	
2025-01-20 02:02:11.00	344.70	38.82	
2025-01-20 02:02:11.21	344.63	38.87	
2025-01-20 02:02:11.41	344.56	38.92	
2025-01-20 02:02:11.61	344.49	38.96	
2025-01-20 02:02:11.82	344.41	39.01	
2025-01-20 02:02:12.02	344.34	39.05	
2025-01-20 02:02:12.22	344.27	39.10	
2025-01-20 02:02:12.42	344.19	39.14	
2025-01-20 02:02:12.63	344.12	39.19	
2025-01-20 02:02:12.83	344.04	39.23	
2025-01-20 02:02:13.03	343.97	39.27	
2025-01-20 02:02:13.24	343.89	39.32	
2025-01-20 02:02:13.44	343.82	39.37	
2025-01-20 02:02:13.64	343.75	39.41	
2025-01-20 02:02:13.85	343.67	39.46	
2025-01-20 02:02:14.05	343.60	39.50	
2025-01-20 02:02:14.25	343.52	39.55	
2025-01-20 02:02:14.45	343.45	39.59	
2025-01-20 02:02:14.66	343.37	39.64	
2025-01-20 02:02:14.86	343.29	39.68	
2025-01-20 02:02:15.06	343.22	39.73	
2025-01-20 02:02:15.27	343.14	39.77	
2025-01-20 02:02:15.47	343.06	39.82	
2025-01-20 02:02:15.67	342.99	39.86	
2025-01-20 02:02:15.87	342.91	39.91	
2025-01-20 02:02:16.08	342.83	39.95	
2025-01-20 02:02:16.28	342.76	40.00	
2025-01-20 02:02:16.48	342.68	40.04	
2025-01-20 02:02:16.69	342.60	40.09	
2025-01-20 02:02:16.89	342.52	40.13	
2025-01-20 02:02:17.09	342.44	40.18	
2025-01-20 02:02:17.30	342.36	40.22	
2025-01-20 02:02:17.50	342.28	40.27	
2025-01-20 02:02:17.70	342.21	40.31	
2025-01-20 02:02:17.90	342.13	40.36	
2025-01-20 02:02:18.11	342.05	40.40	
2025-01-20 02:02:18.31	341.97	40.45	
2025-01-20 02:02:18.51	341.89	40.49	
2025-01-20 02:02:18.72	341.80	40.54	
2025-01-20 02:02:18.92	341.73	40.58	
2025-01-20 02:02:19.12	341.65	40.63	
2025-01-20 02:02:19.33	341.56	40.67	
2025-01-20 02:02:19.53	341.48	40.72	
2025-01-20 02:02:19.73	341.40	40.76	
2025-01-20 02:02:19.93	341.32	40.81	
2025-01-20 02:02:20.14	341.24	40.85	
2025-01-20 02:02:20.34	341.16	40.90	
2025-01-20 02:02:20.54	341.07	40.94	
2025-01-20 02:02:20.75	340.99	40.99	
2025-01-20 02:02:20.95	340.91	41.03	
2025-01-20 02:02:21.15	340.82	41.08	
2025-01-20 02:02:21.35	340.74	41.12	
2025-01-20 02:02:21.56	340.66	41.17	
2025-01-20 02:02:21.76	340.57	41.21	
2025-01-20 02:02:21.96	340.49	41.26	
2025-01-20 02:02:22.17	340.40	41.30	
2025-01-20 02:02:22.37	340.32	41.35	
2025-01-20 02:02:22.57	340.24	41.39	
2025-01-20 02:02:22.78	340.15	41.44	
2025-01-20 02:02:22.98	340.06	41.48	
2025-01-20 02:02:23.18	339.98	41.53	
2025-01-20 02:02:23.38	339.90	41.57	
2025-01-20 02:02:23.59	339.81	41.62	
2025-01-20 02:02:23.79	339.72	41.66	
2025-01-20 02:02:23.99	339.64	41.71	
2025-01-20 02:02:24.20	339.55	41.75	
2025-01-20 02:02:24.40	339.46	41.80	
2025-01-20 02:02:24.60	339.38	41.84	
2025-01-20 02:02:24.80	339.29	41.89	
2025-01-20 02:02:25.01	339.20	41.93	
2025-01-20 02:02:25.21	339.11	41.98	
2025-01-20 02:02:25.41	339.02	42.02	
2025-01-20 02:02:25.62	338.93	42.07	
2025-01-20 02:02:25.82	338.85	42.11	
2025-01-20 02:02:26.02	338.76	42.16	
2025-01-20 02:02:26.23	338.67	42.20	
2025-01-20 02:02:26.43	338.58	42.25	
2025-01-20 02:02:26.63	338.49	42.29	
2025-01-20 02:02:26.83	338.40	42.33	
2025-01-20 02:02:27.04	338.31	42.38	
2025-01-20 02:02:27.24	338.22	42.42	
2025-01-20 02:02:27.44	338.13	42.47	
2025-01-20 02:02:27.65	338.03	42.51	
2025-01-20 02:02:27.85	337.94	42.56	
2025-01-20 02:02:28.05	337.85	42.60	
2025-01-20 02:02:28.25	337.76	42.64	
2025-01-20 02:02:28.46	337.67	42.69	
2025-01-20 02:02:28.66	337.58	42.73	
2025-01-20 02:02:28.86	337.49	42.78	
2025-01-20 02:02:29.07	337.39	42.82	
2025-01-20 02:02:29.27	337.30	42.87	
2025-01-20 02:02:29.47	337.21	42.91	
2025-01-20 02:02:29.68	337.11	42.96	
2025-01-20 02:02:29.88	337.02	43.00	
2025-01-20 02:02:30.08	336.92	43.04	
2025-01-20 02:02:30.28	336.83	43.09	
2025-01-20 02:02:30.49	336.73	43.13	
2025-01-20 02:02:30.69	336.64	43.18	
2025-01-20 02:02:30.89	336.54	43.22	
2025-01-20 02:02:31.10	336.45	43.27	
2025-01-20 02:02:31.30	336.35	43.31	
2025-01-20 02:02:31.50	336.26	43.35	
2025-01-20 02:02:31.71	336.16	43.40	
2025-01-20 02:02:31.91	336.06	43.44	
2025-01-20 02:02:32.11	335.97	43.48	
2025-01-20 02:02:32.31	335.87	43.53	
2025-01-20 02:02:32.52	335.77	43.57	
2025-01-20 02:02:32.72	335.67	43.62	
2025-01-20 02:02:32.92	335.58	43.66	
2025-01-20 02:02:33.13	335.48	43.70	
2025-01-20 02:02:33.33	335.38	43.75	
2025-01-20 02:02:33.53	335.28	43.79	
2025-01-20 02:02:33.73	335.18	43.83	
2025-01-20 02:02:33.94	335.08	43.88	
2025-01-20 02:02:34.14	334.98	43.92	
2025-01-20 02:02:34.34	334.88	43.96	
2025-01-20 02:02:34.55	334.78	44.01	
2025-01-20 02:02:34.75	334.68	44.05	
2025-01-20 02:02:34.95	334.58	44.09	
2025-01-20 02:02:35.16	334.48	44.14	
2025-01-20 02:02:35.36	334.38	44.18	
2025-01-20 02:02:35.56	334.28	44.22	
2025-01-20 02:02:35.76	334.18	44.27	
2025-01-20 02:02:35.97	334.07	44.31	
2025-01-20 02:02:36.17	333.97	44.35	
2025-01-20 02:02:36.37	333.87	44.39	
2025-01-20 02:02:36.58	333.76	44.44	
2025-01-20 02:02:36.78	333.66	44.48	
2025-01-20 02:02:36.98	333.56	44.52	
2025-01-20 02:02:37.19	333.45	44.57	
2025-01-20 02:02:37.39	333.35	44.61	
2025-01-20 02:02:37.59	333.25	44.65	
2025-01-20 02:02:37.79	333.14	44.69	
2025-01-20 02:02:38.00	333.03	44.74	
2025-01-20 02:02:38.20	332.93	44.78	
2025-01-20 02:02:38.40	332.83	44.82	
2025-01-20 02:02:38.61	332.72	44.86	
2025-01-20 02:02:38.81	332.61	44.91	
2025-01-20 02:02:39.01	332.51	44.95	
2025-01-20 02:02:39.21	332.40	44.99	
2025-01-20 02:02:39.42	332.29	45.03	
2025-01-20 02:02:39.62	332.19	45.07	
2025-01-20 02:02:39.82	332.08	45.11	
2025-01-20 02:02:40.03	331.97	45.16	
2025-01-20 02:02:40.23	331.86	45.20	
2025-01-20 02:02:40.43	331.76	45.24	
2025-01-20 02:02:40.64	331.64	45.28	
2025-01-20 02:02:40.84	331.54	45.32	
2025-01-20 02:02:41.04	331.43	45.36	
2025-01-20 02:02:41.24	331.32	45.41	
2025-01-20 02:02:41.45	331.21	45.45	
2025-01-20 02:02:41.65	331.10	45.49	
2025-01-20 02:02:41.85	330.99	45.53	
2025-01-20 02:02:42.06	330.87	45.57	
2025-01-20 02:02:42.26	330.76	45.61	
2025-01-20 02:02:42.46	330.65	45.65	
2025-01-20 02:02:42.67	330.54	45.70	
2025-01-20 02:02:42.87	330.43	45.74	
2025-01-20 02:02:43.07	330.32	45.78	
2025-01-20 02:02:43.27	330.21	45.82	
2025-01-20 02:02:43.48	330.09	45.86	
2025-01-20 02:02:43.68	329.98	45.90	
2025-01-20 02:02:43.88	329.87	45.94	
2025-01-20 02:02:44.09	329.75	45.98	
2025-01-20 02:02:44.29	329.64	46.02	
2025-01-20 02:02:44.49	329.52	46.06	
2025-01-20 02:02:44.69	329.41	46.10	
2025-01-20 02:02:44.90	329.29	46.14	
2025-01-20 02:02:45.10	329.18	46.18	
2025-01-20 02:02:45.30	329.07	46.22	
2025-01-20 02:02:45.51	328.95	46.26	
2025-01-20 02:02:45.71	328.83	46.30	
2025-01-20 02:02:45.91	328.72	46.34	
2025-01-20 02:02:46.12	328.60	46.38	
2025-01-20 02:02:46.32	328.48	46.42	
2025-01-20 02:02:46.52	328.36	46.46	
2025-01-20 02:02:46.72	328.25	46.49	
2025-01-20 02:02:46.93	328.13	46.54	
2025-01-20 02:02:47.13	328.01	46.57	
2025-01-20 02:02:47.33	327.89	46.61	
2025-01-20 02:02:47.54	327.77	46.65	
2025-01-20 02:02:47.74	327.65	46.69	
2025-01-20 02:02:47.94	327.54	46.73	
2025-01-20 02:02:48.14	327.42	46.77	
2025-01-20 02:02:48.35	327.29	46.81	
2025-01-20 02:02:48.55	327.17	46.84	
2025-01-20 02:02:48.75	327.06	46.88	
2025-01-20 02:02:48.96	326.93	46.92	
2025-01-20 02:02:49.16	326.81	46.96	
2025-01-20 02:02:49.36	326.69	47.00	
2025-01-20 02:02:49.57	326.57	47.04	
2025-01-20 02:02:49.77	326.44	47.07	
2025-01-20 02:02:49.97	326.32	47.11	
2025-01-20 02:02:50.17	326.20	47.15	
2025-01-20 02:02:50.38	326.08	47.19	
2025-01-20 02:02:50.58	325.95	47.22	
2025-01-20 02:02:50.78	325.83	47.26	
2025-01-20 02:02:50.99	325.70	47.30	
2025-01-20 02:02:51.19	325.58	47.33	
2025-01-20 02:02:51.39	325.46	47.37	
2025-01-20 02:02:51.60	325.33	47.41	
2025-01-20 02:02:51.80	325.21	47.44	
2025-01-20 02:02:52.00	325.08	47.48	
2025-01-20 02:02:52.20	324.96	47.52	
2025-01-20 02:02:52.41	324.83	47.55	
2025-01-20 02:02:52.61	324.70	47.59	
2025-01-20 02:02:52.81	324.58	47.62	
2025-01-20 02:02:53.02	324.45	47.66	
2025-01-20 02:02:53.22	324.32	47.70	
2025-01-20 02:02:53.42	324.20	47.73	
2025-01-20 02:02:53.62	324.07	47.77	
2025-01-20 02:02:53.83	323.94	47.80	
2025-01-20 02:02:54.03	323.81	47.84	
2025-01-20 02:02:54.23	323.69	47.87	
2025-01-20 02:02:54.44	323.55	47.91	
2025-01-20 02:02:54.64	323.42	47.94	
2025-01-20 02:02:54.84	323.30	47.98	
2025-01-20 02:02:55.05	323.16	48.01	
2025-01-20 02:02:55.25	323.03	48.05	
2025-01-20 02:02:55.45	322.91	48.08	
2025-01-20 02:02:55.65	322.78	48.12	
2025-01-20 02:02:55.86	322.64	48.15	
2025-01-20 02:02:56.06	322.51	48.19	
2025-01-20 02:02:56.26	322.38	48.22	
2025-01-20 02:02:56.47	322.25	48.25	
2025-01-20 02:02:56.67	322.11	48.29	
2025-01-20 02:02:56.87	321.98	48.32	
2025-01-20 02:02:57.07	321.85	48.35	
2025-01-20 02:02:57.28	321.72	48.39	
2025-01-20 02:02:57.48	321.58	48.42	
2025-01-20 02:02:57.68	321.45	48.45	
2025-01-20 02:02:57.89	321.31	48.49	
2025-01-20 02:02:58.09	321.18	48.52	
2025-01-20 02:02:58.29	321.05	48.55	
2025-01-20 02:02:58.50	320.91	48.58	
2025-01-20 02:02:58.70	320.78	48.62	
2025-01-20 02:02:58.90	320.64	48.65	
2025-01-20 02:02:59.10	320.51	48.68	
2025-01-20 02:02:59.31	320.37	48.71	
2025-01-20 02:02:59.51	320.23	48.74	
2025-01-20 02:02:59.71	320.10	48.77	
2025-01-20 02:02:59.92	319.96	48.81	
2025-01-20 02:03:00.12	319.82	48.84	
2025-01-20 02:03:00.32	319.69	48.87	
2025-01-20 02:03:00.53	319.54	48.90	
2025-01-20 02:03:00.73	319.41	48.93	
2025-01-20 02:03:00.93	319.27	48.96	
2025-01-20 02:03:01.13	319.14	48.99	
2025-01-20 02:03:01.34	318.99	49.02	
2025-01-20 02:03:01.54	318.85	49.05	
2025-01-20 02:03:01.74	318.72	49.08	
2025-01-20 02:03:01.95	318.57	49.11	
2025-01-20 02:03:02.15	318.43	49.14	
2025-01-20 02:03:02.35	318.30	49.17	
2025-01-20 02:03:02.55	318.16	49.20	
2025-01-20 02:03:02.76	318.01	49.23	
2025-01-20 02:03:02.96	317.87	49.26	
2025-01-20 02:03:03.16	317.73	49.29	
2025-01-20 02:03:03.37	317.59	49.32	
2025-01-20 02:03:03.57	317.45	49.34	
2025-01-20 02:03:03.77	317.31	49.37	
2025-01-20 02:03:03.98	317.16	49.40	
2025-01-20 02:03:04.18	317.02	49.43	
2025-01-20 02:03:04.38	316.88	49.46	
2025-01-20 02:03:04.58	316.74	49.48	
2025-01-20 02:03:04.79	316.59	49.51	
2025-01-20 02:03:04.99	316.45	49.54	
2025-01-20 02:03:05.19	316.31	49.56	
2025-01-20 02:03:05.40	316.16	49.59	
2025-01-20 02:03:05.60	316.01	49.62	
2025-01-20 02:03:05.80	315.87	49.64	
2025-01-20 02:03:06.01	315.72	49.67	
2025-01-20 02:03:06.21	315.58	49.70	
2025-01-20 02:03:06.41	315.44	49.72	
2025-01-20 02:03:06.61	315.29	49.75	
2025-01-20 02:03:06.82	315.14	49.78	
2025-01-20 02:03:07.02	315.00	49.80	
2025-01-20 02:03:07.22	314.85	49.83	
2025-01-20 02:03:07.43	314.70	49.85	
2025-01-20 02:03:07.63	314.56	49.88	
2025-01-20 02:03:07.83	314.41	49.90	
2025-01-20 02:03:08.03	314.26	49.92	
2025-01-20 02:03:08.24	314.11	49.95	
2025-01-20 02:03:08.44	313.97	49.97	
2025-01-20 02:03:08.64	313.82	50.00	
2025-01-20 02:03:08.85	313.67	50.02	
2025-01-20 02:03:09.05	313.52	50.05	
2025-01-20 02:03:09.25	313.37	50.07	
2025-01-20 02:03:09.46	313.22	50.09	
2025-01-20 02:03:09.66	313.07	50.12	
2025-01-20 02:03:09.86	312.92	50.14	
2025-01-20 02:03:10.06	312.78	50.16	
2025-01-20 02:03:10.27	312.62	50.18	
2025-01-20 02:03:10.47	312.47	50.21	
2025-01-20 02:03:10.67	312.32	50.23	
2025-01-20 02:03:10.88	312.17	50.25	
2025-01-20 02:03:11.08	312.02	50.27	
2025-01-20 02:03:11.28	311.87	50.29	
2025-01-20 02:03:11.48	311.72	50.31	
2025-01-20 02:03:11.69	311.56	50.33	
2025-01-20 02:03:11.89	311.42	50.36	
2025-01-20 02:03:12.09	311.27	50.38	
2025-01-20 02:03:12.30	311.11	50.40	
2025-01-20 02:03:12.50	310.96	50.42	
2025-01-20 02:03:12.70	310.81	50.44	
2025-01-20 02:03:12.91	310.65	50.46	
2025-01-20 02:03:13.11	310.50	50.48	
2025-01-20 02:03:13.31	310.35	50.50	
2025-01-20 02:03:13.51	310.20	50.51	
2025-01-20 02:03:13.72	310.04	50.53	
2025-01-20 02:03:13.92	309.89	50.55	
2025-01-20 02:03:14.12	309.73	50.57	
2025-01-20 02:03:14.33	309.57	50.59	
2025-01-20 02:03:14.53	309.42	50.61	
2025-01-20 02:03:14.73	309.27	50.63	
2025-01-20 02:03:14.94	309.11	50.64	
2025-01-20 02:03:15.14	308.96	50.66	
2025-01-20 02:03:15.34	308.80	50.68	
2025-01-20 02:03:15.54	308.65	50.70	
2025-01-20 02:03:15.75	308.49	50.71	
2025-01-20 02:03:15.95	308.34	50.73	
2025-01-20 02:03:16.15	308.18	50.75	
2025-01-20 02:03:16.36	308.02	50.76	
2025-01-20 02:03:16.56	307.87	50.78	
2025-01-20 02:03:16.76	307.71	50.79	
2025-01-20 02:03:16.96	307.56	50.81	
2025-01-20 02:03:17.17	307.40	50.83	
2025-01-20 02:03:17.37	307.24	50.84	
2025-01-20 02:03:17.57	307.09	50.86	
2025-01-20 02:03:17.78	306.92	50.87	
2025-01-20 02:03:17.98	306.77	50.89	
2025-01-20 02:03:18.18	306.61	50.90	
2025-01-20 02:03:18.39	306.45	50.91	
2025-01-20 02:03:18.59	306.29	50.93	
