passes_logs/2025/01/20/SPB_Silybum_02/SPB_Silybum_02__20250120_083308_SUOMI_NPP_rec.log

#Pass ID: 20250120_083308_SUOMI NPP
#Satellite: SUOMI NPP
#Configuration: NPP
#Start time: 2025-01-20 08:33:07

#Version: 2.0.20230423
#Station: SPB_Silybum_02
#Location: 30.233357 lon 59.946436 lat
#TLE: 1 37849U 11061A   25019.85382012  .00000269  00000+0  14855-3 0  9998
#TLE: 2 37849  98.7451 320.7810 0001479  33.1387 326.9881 14.19541038685602

#Time	Az	El	Level	Level2	SNR	BER	Gain	Gain2
2025-01-20 08:33:09.25	109.68	4.07	
2025-01-20 08:33:09.45	109.67	4.08	
2025-01-20 08:33:09.65	109.65	4.10	
2025-01-20 08:33:09.86	109.64	4.11	
2025-01-20 08:33:10.06	109.62	4.12	
2025-01-20 08:33:10.26	109.61	4.13	
2025-01-20 08:33:10.47	109.60	4.15	
2025-01-20 08:33:10.67	109.58	4.16	
2025-01-20 08:33:10.87	109.57	4.17	
2025-01-20 08:33:11.08	109.55	4.19	
2025-01-20 08:33:11.28	109.54	4.20	
2025-01-20 08:33:11.48	109.53	4.21	
2025-01-20 08:33:11.68	109.51	4.22	
2025-01-20 08:33:11.89	109.50	4.23	
2025-01-20 08:33:12.09	109.48	4.25	
2025-01-20 08:33:12.29	109.47	4.26	
2025-01-20 08:33:12.50	109.46	4.27	
2025-01-20 08:33:12.70	109.44	4.28	
2025-01-20 08:33:12.90	109.43	4.30	
2025-01-20 08:33:13.11	109.41	4.31	
2025-01-20 08:33:13.31	109.40	4.32	
2025-01-20 08:33:13.51	109.39	4.33	
2025-01-20 08:33:13.72	109.37	4.35	
2025-01-20 08:33:13.92	109.36	4.36	
2025-01-20 08:33:14.12	109.34	4.37	
2025-01-20 08:33:14.32	109.33	4.38	
2025-01-20 08:33:14.53	109.32	4.40	
2025-01-20 08:33:14.73	109.30	4.41	
2025-01-20 08:33:14.93	109.29	4.42	
2025-01-20 08:33:15.14	109.27	4.44	
2025-01-20 08:33:15.34	109.26	4.45	
2025-01-20 08:33:15.54	109.24	4.46	
2025-01-20 08:33:15.75	109.23	4.47	
2025-01-20 08:33:15.95	109.22	4.49	
2025-01-20 08:33:16.15	109.20	4.50	
2025-01-20 08:33:16.36	109.19	4.51	
2025-01-20 08:33:16.56	109.17	4.52	
2025-01-20 08:33:16.76	109.16	4.54	
2025-01-20 08:33:16.96	109.15	4.55	
2025-01-20 08:33:17.17	109.13	4.56	
2025-01-20 08:33:17.37	109.12	4.57	
2025-01-20 08:33:17.57	109.10	4.59	
2025-01-20 08:33:17.78	109.09	4.60	
2025-01-20 08:33:17.98	109.07	4.61	
2025-01-20 08:33:18.18	109.06	4.62	
2025-01-20 08:33:18.39	109.04	4.64	
2025-01-20 08:33:18.59	109.03	4.65	
2025-01-20 08:33:18.79	109.02	4.66	
2025-01-20 08:33:19.00	109.00	4.68	
2025-01-20 08:33:19.20	108.99	4.69	
2025-01-20 08:33:19.40	108.97	4.70	
2025-01-20 08:33:19.60	108.96	4.71	
2025-01-20 08:33:19.81	108.94	4.73	
2025-01-20 08:33:20.01	108.93	4.74	
2025-01-20 08:33:20.21	108.91	4.75	
2025-01-20 08:33:20.42	108.90	4.76	
2025-01-20 08:33:20.62	108.88	4.78	
2025-01-20 08:33:20.82	108.87	4.79	
2025-01-20 08:33:21.03	108.86	4.80	
2025-01-20 08:33:21.23	108.84	4.81	
2025-01-20 08:33:21.43	108.83	4.83	
2025-01-20 08:33:21.64	108.81	4.84	
2025-01-20 08:33:21.84	108.80	4.85	
2025-01-20 08:33:22.04	108.78	4.87	
2025-01-20 08:33:22.24	108.77	4.88	
2025-01-20 08:33:22.45	108.75	4.89	
2025-01-20 08:33:22.65	108.74	4.90	
2025-01-20 08:33:22.85	108.72	4.92	
2025-01-20 08:33:23.06	108.71	4.93	
2025-01-20 08:33:23.26	108.69	4.94	
2025-01-20 08:33:23.46	108.68	4.95	
2025-01-20 08:33:23.67	108.67	4.97	
2025-01-20 08:33:23.87	108.65	4.98	
2025-01-20 08:33:24.07	108.64	4.99	
2025-01-20 08:33:24.28	108.62	5.01	
2025-01-20 08:33:24.48	108.61	5.02	
2025-01-20 08:33:24.68	108.59	5.03	
2025-01-20 08:33:24.88	108.58	5.04	
2025-01-20 08:33:25.09	108.56	5.06	
2025-01-20 08:33:25.29	108.55	5.07	
2025-01-20 08:33:25.49	108.53	5.08	
2025-01-20 08:33:25.70	108.52	5.10	
2025-01-20 08:33:25.90	108.50	5.11	
2025-01-20 08:33:26.10	108.49	5.12	
2025-01-20 08:33:26.31	108.47	5.13	
2025-01-20 08:33:26.51	108.46	5.15	
2025-01-20 08:33:26.71	108.44	5.16	
2025-01-20 08:33:26.92	108.43	5.17	
2025-01-20 08:33:27.12	108.41	5.19	
2025-01-20 08:33:27.32	108.40	5.20	
2025-01-20 08:33:27.52	108.38	5.21	
2025-01-20 08:33:27.73	108.37	5.22	
2025-01-20 08:33:27.93	108.35	5.24	
2025-01-20 08:33:28.13	108.34	5.25	
2025-01-20 08:33:28.34	108.32	5.26	
2025-01-20 08:33:28.54	108.31	5.28	
2025-01-20 08:33:28.74	108.29	5.29	
2025-01-20 08:33:28.95	108.28	5.30	
2025-01-20 08:33:29.15	108.26	5.31	
2025-01-20 08:33:29.35	108.25	5.33	
2025-01-20 08:33:29.56	108.23	5.34	
2025-01-20 08:33:29.76	108.22	5.35	
2025-01-20 08:33:29.96	108.20	5.37	
2025-01-20 08:33:30.16	108.19	5.38	
2025-01-20 08:33:30.37	108.17	5.39	
2025-01-20 08:33:30.57	108.16	5.40	
2025-01-20 08:33:30.77	108.14	5.42	
2025-01-20 08:33:30.98	108.13	5.43	
2025-01-20 08:33:31.18	108.11	5.44	
2025-01-20 08:33:31.38	108.10	5.46	
2025-01-20 08:33:31.59	108.08	5.47	
2025-01-20 08:33:31.79	108.06	5.48	
2025-01-20 08:33:31.99	108.05	5.49	
2025-01-20 08:33:32.20	108.03	5.51	
2025-01-20 08:33:32.40	108.02	5.52	
2025-01-20 08:33:32.60	108.00	5.53	
2025-01-20 08:33:32.81	107.99	5.55	
2025-01-20 08:33:33.01	107.97	5.56	
2025-01-20 08:33:33.21	107.96	5.57	
2025-01-20 08:33:33.41	107.94	5.58	
2025-01-20 08:33:33.62	107.93	5.60	
2025-01-20 08:33:33.82	107.91	5.61	
2025-01-20 08:33:34.02	107.90	5.62	
2025-01-20 08:33:34.23	107.88	5.64	
2025-01-20 08:33:34.43	107.86	5.65	
2025-01-20 08:33:34.63	107.85	5.66	
2025-01-20 08:33:34.84	107.83	5.68	
2025-01-20 08:33:35.04	107.82	5.69	
2025-01-20 08:33:35.24	107.80	5.70	
2025-01-20 08:33:35.44	107.79	5.71	
2025-01-20 08:33:35.65	107.77	5.73	
2025-01-20 08:33:35.85	107.76	5.74	
2025-01-20 08:33:36.05	107.74	5.75	
2025-01-20 08:33:36.26	107.72	5.77	
2025-01-20 08:33:36.46	107.71	5.78	
2025-01-20 08:33:36.66	107.69	5.79	
2025-01-20 08:33:36.87	107.68	5.81	
2025-01-20 08:33:37.07	107.66	5.82	
2025-01-20 08:33:37.27	107.65	5.83	
2025-01-20 08:33:37.48	107.63	5.85	
2025-01-20 08:33:37.68	107.62	5.86	
2025-01-20 08:33:37.88	107.60	5.87	
2025-01-20 08:33:38.09	107.58	5.89	
2025-01-20 08:33:38.29	107.57	5.90	
2025-01-20 08:33:38.49	107.55	5.91	
2025-01-20 08:33:38.69	107.54	5.92	
2025-01-20 08:33:38.90	107.52	5.94	
2025-01-20 08:33:39.10	107.50	5.95	
2025-01-20 08:33:39.30	107.49	5.96	
2025-01-20 08:33:39.51	107.47	5.98	
2025-01-20 08:33:39.71	107.46	5.99	
2025-01-20 08:33:39.91	107.44	6.00	
2025-01-20 08:33:40.12	107.43	6.02	
2025-01-20 08:33:40.32	107.41	6.03	
2025-01-20 08:33:40.52	107.39	6.04	
2025-01-20 08:33:40.73	107.38	6.06	
2025-01-20 08:33:40.93	107.36	6.07	
2025-01-20 08:33:41.13	107.35	6.08	
2025-01-20 08:33:41.33	107.33	6.09	
2025-01-20 08:33:41.54	107.31	6.11	
2025-01-20 08:33:41.74	107.30	6.12	
2025-01-20 08:33:41.94	107.28	6.13	
2025-01-20 08:33:42.15	107.27	6.15	
2025-01-20 08:33:42.35	107.25	6.16	
2025-01-20 08:33:42.55	107.23	6.17	
2025-01-20 08:33:42.76	107.22	6.19	
2025-01-20 08:33:42.96	107.20	6.20	
2025-01-20 08:33:43.16	107.19	6.21	
2025-01-20 08:33:43.37	107.17	6.23	
2025-01-20 08:33:43.57	107.15	6.24	
2025-01-20 08:33:43.77	107.14	6.25	
2025-01-20 08:33:43.97	107.12	6.27	
2025-01-20 08:33:44.18	107.10	6.28	
2025-01-20 08:33:44.38	107.09	6.29	
2025-01-20 08:33:44.58	107.07	6.31	
2025-01-20 08:33:44.79	107.06	6.32	
2025-01-20 08:33:44.99	107.04	6.33	
2025-01-20 08:33:45.19	107.02	6.34	
2025-01-20 08:33:45.40	107.01	6.36	
2025-01-20 08:33:45.60	106.99	6.37	
2025-01-20 08:33:45.80	106.98	6.38	
2025-01-20 08:33:46.01	106.96	6.40	
2025-01-20 08:33:46.21	106.94	6.41	
2025-01-20 08:33:46.41	106.93	6.42	
2025-01-20 08:33:46.61	106.91	6.44	
2025-01-20 08:33:46.82	106.89	6.45	
2025-01-20 08:33:47.02	106.88	6.46	
2025-01-20 08:33:47.22	106.86	6.48	
2025-01-20 08:33:47.43	106.84	6.49	
2025-01-20 08:33:47.63	106.83	6.50	
2025-01-20 08:33:47.83	106.81	6.52	
2025-01-20 08:33:48.04	106.79	6.53	
2025-01-20 08:33:48.24	106.78	6.54	
2025-01-20 08:33:48.44	106.76	6.56	
2025-01-20 08:33:48.65	106.74	6.57	
2025-01-20 08:33:48.85	106.73	6.58	
2025-01-20 08:33:49.05	106.71	6.60	
2025-01-20 08:33:49.25	106.70	6.61	
2025-01-20 08:33:49.46	106.68	6.62	
2025-01-20 08:33:49.66	106.66	6.64	
2025-01-20 08:33:49.86	106.65	6.65	
2025-01-20 08:33:50.07	106.63	6.66	
2025-01-20 08:33:50.27	106.61	6.68	
2025-01-20 08:33:50.47	106.60	6.69	
2025-01-20 08:33:50.68	106.58	6.70	
2025-01-20 08:33:50.88	106.56	6.72	
2025-01-20 08:33:51.08	106.55	6.73	
2025-01-20 08:33:51.29	106.53	6.74	
2025-01-20 08:33:51.49	106.51	6.76	
2025-01-20 08:33:51.69	106.50	6.77	
2025-01-20 08:33:51.89	106.48	6.78	
2025-01-20 08:33:52.10	106.46	6.80	
2025-01-20 08:33:52.30	106.45	6.81	
2025-01-20 08:33:52.50	106.43	6.82	
2025-01-20 08:33:52.71	106.41	6.84	
2025-01-20 08:33:52.91	106.40	6.85	
2025-01-20 08:33:53.11	106.38	6.86	
2025-01-20 08:33:53.32	106.36	6.88	
2025-01-20 08:33:53.52	106.34	6.89	
2025-01-20 08:33:53.72	106.33	6.90	
2025-01-20 08:33:53.93	106.31	6.92	
2025-01-20 08:33:54.13	106.29	6.93	
2025-01-20 08:33:54.33	106.28	6.95	
2025-01-20 08:33:54.53	106.26	6.96	
2025-01-20 08:33:54.74	106.24	6.97	
2025-01-20 08:33:54.94	106.23	6.99	
2025-01-20 08:33:55.14	106.21	7.00	
2025-01-20 08:33:55.35	106.19	7.01	
2025-01-20 08:33:55.55	106.17	7.03	
2025-01-20 08:33:55.75	106.16	7.04	
2025-01-20 08:33:55.96	106.14	7.05	
2025-01-20 08:33:56.16	106.12	7.07	
2025-01-20 08:33:56.36	106.11	7.08	
2025-01-20 08:33:56.57	106.09	7.09	
2025-01-20 08:33:56.77	106.07	7.11	
2025-01-20 08:33:56.97	106.05	7.12	
2025-01-20 08:33:57.18	106.04	7.13	
2025-01-20 08:33:57.38	106.02	7.15	
2025-01-20 08:33:57.58	106.00	7.16	
2025-01-20 08:33:57.78	105.99	7.17	
2025-01-20 08:33:57.99	105.97	7.19	
2025-01-20 08:33:58.19	105.95	7.20	
2025-01-20 08:33:58.39	105.93	7.21	
2025-01-20 08:33:58.60	105.92	7.23	
2025-01-20 08:33:58.80	105.90	7.24	
2025-01-20 08:33:59.00	105.88	7.26	
2025-01-20 08:33:59.21	105.86	7.27	
2025-01-20 08:33:59.41	105.85	7.28	
2025-01-20 08:33:59.61	105.83	7.30	
2025-01-20 08:33:59.82	105.81	7.31	
2025-01-20 08:34:00.02	105.80	7.32	
2025-01-20 08:34:00.22	105.78	7.34	
2025-01-20 08:34:00.42	105.76	7.35	
2025-01-20 08:34:00.63	105.74	7.36	
2025-01-20 08:34:00.83	105.73	7.38	
2025-01-20 08:34:01.03	105.71	7.39	
2025-01-20 08:34:01.24	105.69	7.41	
2025-01-20 08:34:01.44	105.67	7.42	
2025-01-20 08:34:01.64	105.66	7.43	
2025-01-20 08:34:01.85	105.64	7.45	
2025-01-20 08:34:02.05	105.62	7.46	
2025-01-20 08:34:02.25	105.60	7.47	
2025-01-20 08:34:02.46	105.58	7.49	
2025-01-20 08:34:02.66	105.57	7.50	
2025-01-20 08:34:02.86	105.55	7.51	
2025-01-20 08:34:03.06	105.53	7.53	
2025-01-20 08:34:03.27	105.51	7.54	
2025-01-20 08:34:03.47	105.50	7.55	
2025-01-20 08:34:03.67	105.48	7.57	
2025-01-20 08:34:03.88	105.46	7.58	
2025-01-20 08:34:04.08	105.44	7.60	
2025-01-20 08:34:04.28	105.43	7.61	
2025-01-20 08:34:04.49	105.41	7.62	
2025-01-20 08:34:04.69	105.39	7.64	
2025-01-20 08:34:04.89	105.37	7.65	
2025-01-20 08:34:05.10	105.35	7.66	
2025-01-20 08:34:05.30	105.34	7.68	
2025-01-20 08:34:05.50	105.32	7.69	
2025-01-20 08:34:05.70	105.30	7.71	
2025-01-20 08:34:05.91	105.28	7.72	
2025-01-20 08:34:06.11	105.27	7.73	
2025-01-20 08:34:06.31	105.25	7.75	
2025-01-20 08:34:06.52	105.23	7.76	
2025-01-20 08:34:06.72	105.21	7.77	
2025-01-20 08:34:06.92	105.19	7.79	
2025-01-20 08:34:07.13	105.17	7.80	
2025-01-20 08:34:07.33	105.16	7.82	
2025-01-20 08:34:07.53	105.14	7.83	
2025-01-20 08:34:07.74	105.12	7.84	
2025-01-20 08:34:07.94	105.10	7.86	
2025-01-20 08:34:08.14	105.09	7.87	
2025-01-20 08:34:08.34	105.07	7.88	
2025-01-20 08:34:08.55	105.05	7.90	
2025-01-20 08:34:08.75	105.03	7.91	
2025-01-20 08:34:08.95	105.01	7.92	
2025-01-20 08:34:09.16	104.99	7.94	
2025-01-20 08:34:09.36	104.98	7.95	
2025-01-20 08:34:09.56	104.96	7.97	
2025-01-20 08:34:09.77	104.94	7.98	
2025-01-20 08:34:09.97	104.92	7.99	
2025-01-20 08:34:10.17	104.90	8.01	
2025-01-20 08:34:10.38	104.88	8.02	
2025-01-20 08:34:10.58	104.87	8.04	
2025-01-20 08:34:10.78	104.85	8.05	
2025-01-20 08:34:10.98	104.83	8.06	
2025-01-20 08:34:11.19	104.81	8.08	
2025-01-20 08:34:11.39	104.79	8.09	
2025-01-20 08:34:11.59	104.77	8.10	
2025-01-20 08:34:11.80	104.76	8.12	
2025-01-20 08:34:12.00	104.74	8.13	
2025-01-20 08:34:12.20	104.72	8.15	
2025-01-20 08:34:12.41	104.70	8.16	
2025-01-20 08:34:12.61	104.68	8.17	
2025-01-20 08:34:12.81	104.66	8.19	
2025-01-20 08:34:13.02	104.64	8.20	
2025-01-20 08:34:13.22	104.63	8.22	
2025-01-20 08:34:13.42	104.61	8.23	
2025-01-20 08:34:13.62	104.59	8.24	
2025-01-20 08:34:13.83	104.57	8.26	
2025-01-20 08:34:14.03	104.55	8.27	
2025-01-20 08:34:14.23	104.53	8.28	
2025-01-20 08:34:14.44	104.51	8.30	
2025-01-20 08:34:14.64	104.50	8.31	
2025-01-20 08:34:14.84	104.48	8.33	
2025-01-20 08:34:15.05	104.46	8.34	
2025-01-20 08:34:15.25	104.44	8.35	
2025-01-20 08:34:15.45	104.42	8.37	
2025-01-20 08:34:15.66	104.40	8.38	
2025-01-20 08:34:15.86	104.38	8.40	
2025-01-20 08:34:16.06	104.37	8.41	
2025-01-20 08:34:16.26	104.35	8.42	
2025-01-20 08:34:16.47	104.33	8.44	
2025-01-20 08:34:16.67	104.31	8.45	
2025-01-20 08:34:16.87	104.29	8.47	
2025-01-20 08:34:17.08	104.27	8.48	
2025-01-20 08:34:17.28	104.25	8.49	
2025-01-20 08:34:17.48	104.23	8.51	
2025-01-20 08:34:17.69	104.21	8.52	
2025-01-20 08:34:17.89	104.20	8.54	
2025-01-20 08:34:18.09	104.18	8.55	
2025-01-20 08:34:18.30	104.16	8.56	
2025-01-20 08:34:18.50	104.14	8.58	
2025-01-20 08:34:18.70	104.12	8.59	
2025-01-20 08:34:18.91	104.10	8.61	
2025-01-20 08:34:19.11	104.08	8.62	
2025-01-20 08:34:19.31	104.06	8.63	
2025-01-20 08:34:19.51	104.04	8.65	
2025-01-20 08:34:19.72	104.02	8.66	
2025-01-20 08:34:19.92	104.00	8.68	
2025-01-20 08:34:20.12	103.99	8.69	
2025-01-20 08:34:20.33	103.97	8.70	
2025-01-20 08:34:20.53	103.95	8.72	
2025-01-20 08:34:20.73	103.93	8.73	
2025-01-20 08:34:20.94	103.91	8.75	
2025-01-20 08:34:21.14	103.89	8.76	
2025-01-20 08:34:21.34	103.87	8.77	
2025-01-20 08:34:21.55	103.85	8.79	
2025-01-20 08:34:21.75	103.83	8.80	
2025-01-20 08:34:21.95	103.81	8.82	
2025-01-20 08:34:22.15	103.79	8.83	
2025-01-20 08:34:22.36	103.77	8.85	
2025-01-20 08:34:22.56	103.75	8.86	
2025-01-20 08:34:22.76	103.73	8.87	
2025-01-20 08:34:22.97	103.71	8.89	
2025-01-20 08:34:23.17	103.70	8.90	
2025-01-20 08:34:23.37	103.68	8.92	
2025-01-20 08:34:23.58	103.66	8.93	
2025-01-20 08:34:23.78	103.64	8.94	
2025-01-20 08:34:23.98	103.62	8.96	
2025-01-20 08:34:24.19	103.60	8.97	
2025-01-20 08:34:24.39	103.58	8.99	
2025-01-20 08:34:24.59	103.56	9.00	
2025-01-20 08:34:24.79	103.54	9.01	
2025-01-20 08:34:25.00	103.52	9.03	
2025-01-20 08:34:25.20	103.50	9.04	
2025-01-20 08:34:25.40	103.48	9.06	
2025-01-20 08:34:25.61	103.46	9.07	
2025-01-20 08:34:25.81	103.44	9.09	
2025-01-20 08:34:26.01	103.42	9.10	
2025-01-20 08:34:26.22	103.40	9.11	
2025-01-20 08:34:26.42	103.38	9.13	
2025-01-20 08:34:26.62	103.36	9.14	
2025-01-20 08:34:26.83	103.34	9.16	
2025-01-20 08:34:27.03	103.32	9.17	
2025-01-20 08:34:27.23	103.30	9.18	
2025-01-20 08:34:27.43	103.28	9.20	
2025-01-20 08:34:27.64	103.26	9.21	
2025-01-20 08:34:27.84	103.24	9.23	
2025-01-20 08:34:28.04	103.22	9.24	
2025-01-20 08:34:28.25	103.20	9.26	
2025-01-20 08:34:28.45	103.18	9.27	
2025-01-20 08:34:28.65	103.16	9.28	
2025-01-20 08:34:28.86	103.14	9.30	
2025-01-20 08:34:29.06	103.12	9.31	
2025-01-20 08:34:29.26	103.10	9.33	
2025-01-20 08:34:29.47	103.08	9.34	
2025-01-20 08:34:29.67	103.06	9.36	
2025-01-20 08:34:29.87	103.04	9.37	
2025-01-20 08:34:30.07	103.02	9.38	
2025-01-20 08:34:30.28	103.00	9.40	
2025-01-20 08:34:30.48	102.98	9.41	
2025-01-20 08:34:30.68	102.96	9.43	
2025-01-20 08:34:30.89	102.94	9.44	
2025-01-20 08:34:31.09	102.92	9.46	
2025-01-20 08:34:31.29	102.90	9.47	
2025-01-20 08:34:31.50	102.88	9.48	
2025-01-20 08:34:31.70	102.86	9.50	
2025-01-20 08:34:31.90	102.84	9.51	
2025-01-20 08:34:32.11	102.82	9.53	
2025-01-20 08:34:32.31	102.80	9.54	
2025-01-20 08:34:32.51	102.78	9.56	
2025-01-20 08:34:32.71	102.76	9.57	
2025-01-20 08:34:32.92	102.74	9.58	
2025-01-20 08:34:33.12	102.72	9.60	
2025-01-20 08:34:33.32	102.70	9.61	
2025-01-20 08:34:33.53	102.68	9.63	
2025-01-20 08:34:33.73	102.66	9.64	
2025-01-20 08:34:33.93	102.64	9.66	
2025-01-20 08:34:34.14	102.61	9.67	
2025-01-20 08:34:34.34	102.59	9.68	
2025-01-20 08:34:34.54	102.57	9.70	
2025-01-20 08:34:34.75	102.55	9.71	
2025-01-20 08:34:34.95	102.53	9.73	
2025-01-20 08:34:35.15	102.51	9.74	
2025-01-20 08:34:35.35	102.49	9.76	
2025-01-20 08:34:35.56	102.47	9.77	
2025-01-20 08:34:35.76	102.45	9.79	
2025-01-20 08:34:35.96	102.43	9.80	
2025-01-20 08:34:36.17	102.41	9.81	
2025-01-20 08:34:36.37	102.39	9.83	
2025-01-20 08:34:36.57	102.37	9.84	
2025-01-20 08:34:36.78	102.35	9.86	
2025-01-20 08:34:36.98	102.33	9.87	
2025-01-20 08:34:37.18	102.30	9.89	
2025-01-20 08:34:37.39	102.28	9.90	
2025-01-20 08:34:37.59	102.26	9.92	
2025-01-20 08:34:37.79	102.24	9.93	
2025-01-20 08:34:37.99	102.22	9.94	
2025-01-20 08:34:38.20	102.20	9.96	
2025-01-20 08:34:38.40	102.18	9.97	
2025-01-20 08:34:38.60	102.16	9.99	
2025-01-20 08:34:38.81	102.14	10.00	
2025-01-20 08:34:39.01	102.12	10.02	
2025-01-20 08:34:39.21	102.10	10.03	
2025-01-20 08:34:39.42	102.07	10.05	
2025-01-20 08:34:39.62	102.05	10.06	
2025-01-20 08:34:39.82	102.03	10.07	
2025-01-20 08:34:40.03	102.01	10.09	
2025-01-20 08:34:40.23	101.99	10.10	
2025-01-20 08:34:40.43	101.97	10.12	
2025-01-20 08:34:40.64	101.95	10.13	
2025-01-20 08:34:40.84	101.93	10.15	
2025-01-20 08:34:41.04	101.90	10.16	
2025-01-20 08:34:41.24	101.88	10.18	
2025-01-20 08:34:41.45	101.86	10.19	
2025-01-20 08:34:41.65	101.84	10.21	
2025-01-20 08:34:41.85	101.82	10.22	
2025-01-20 08:34:42.06	101.80	10.23	
2025-01-20 08:34:42.26	101.78	10.25	
2025-01-20 08:34:42.46	101.76	10.26	
2025-01-20 08:34:42.67	101.73	10.28	
2025-01-20 08:34:42.87	101.71	10.29	
2025-01-20 08:34:43.07	101.69	10.31	
2025-01-20 08:34:43.28	101.67	10.32	
2025-01-20 08:34:43.48	101.65	10.34	
2025-01-20 08:34:43.68	101.63	10.35	
2025-01-20 08:34:43.88	101.60	10.37	
2025-01-20 08:34:44.09	101.58	10.38	
2025-01-20 08:34:44.29	101.56	10.39	
2025-01-20 08:34:44.49	101.54	10.41	
2025-01-20 08:34:44.70	101.52	10.42	
2025-01-20 08:34:44.90	101.50	10.44	
2025-01-20 08:34:45.10	101.47	10.45	
2025-01-20 08:34:45.31	101.45	10.47	
2025-01-20 08:34:45.51	101.43	10.48	
2025-01-20 08:34:45.71	101.41	10.50	
2025-01-20 08:34:45.92	101.39	10.51	
2025-01-20 08:34:46.12	101.37	10.53	
2025-01-20 08:34:46.32	101.34	10.54	
2025-01-20 08:34:46.52	101.32	10.56	
2025-01-20 08:34:46.73	101.30	10.57	
2025-01-20 08:34:46.93	101.28	10.58	
2025-01-20 08:34:47.13	101.26	10.60	
2025-01-20 08:34:47.34	101.23	10.61	
2025-01-20 08:34:47.54	101.21	10.63	
2025-01-20 08:34:47.74	101.19	10.64	
2025-01-20 08:34:47.95	101.17	10.66	
2025-01-20 08:34:48.15	101.15	10.67	
2025-01-20 08:34:48.35	101.12	10.69	
2025-01-20 08:34:48.56	101.10	10.70	
2025-01-20 08:34:48.76	101.08	10.72	
2025-01-20 08:34:48.96	101.06	10.73	
2025-01-20 08:34:49.16	101.04	10.75	
2025-01-20 08:34:49.37	101.01	10.76	
2025-01-20 08:34:49.57	100.99	10.78	
2025-01-20 08:34:49.77	100.97	10.79	
2025-01-20 08:34:49.98	100.95	10.81	
2025-01-20 08:34:50.18	100.92	10.82	
2025-01-20 08:34:50.38	100.90	10.83	
2025-01-20 08:34:50.59	100.88	10.85	
2025-01-20 08:34:50.79	100.86	10.86	
2025-01-20 08:34:50.99	100.84	10.88	
2025-01-20 08:34:51.20	100.81	10.89	
2025-01-20 08:34:51.40	100.79	10.91	
2025-01-20 08:34:51.60	100.77	10.92	
2025-01-20 08:34:51.80	100.75	10.94	
2025-01-20 08:34:52.01	100.72	10.95	
2025-01-20 08:34:52.21	100.70	10.97	
2025-01-20 08:34:52.41	100.68	10.98	
2025-01-20 08:34:52.62	100.66	11.00	
2025-01-20 08:34:52.82	100.63	11.01	
2025-01-20 08:34:53.02	100.61	11.03	
2025-01-20 08:34:53.23	100.59	11.04	
2025-01-20 08:34:53.43	100.57	11.06	
2025-01-20 08:34:53.63	100.54	11.07	
2025-01-20 08:34:53.84	100.52	11.09	
2025-01-20 08:34:54.04	100.50	11.10	
2025-01-20 08:34:54.24	100.48	11.12	
2025-01-20 08:34:54.44	100.45	11.13	
2025-01-20 08:34:54.65	100.43	11.15	
2025-01-20 08:34:54.85	100.41	11.16	
2025-01-20 08:34:55.05	100.38	11.17	
2025-01-20 08:34:55.26	100.36	11.19	
2025-01-20 08:34:55.46	100.34	11.20	
2025-01-20 08:34:55.66	100.32	11.22	
2025-01-20 08:34:55.87	100.29	11.23	
2025-01-20 08:34:56.07	100.27	11.25	
2025-01-20 08:34:56.27	100.25	11.26	
2025-01-20 08:34:56.48	100.22	11.28	
2025-01-20 08:34:56.68	100.20	11.29	
2025-01-20 08:34:56.88	100.18	11.31	
2025-01-20 08:34:57.08	100.15	11.32	
2025-01-20 08:34:57.29	100.13	11.34	
2025-01-20 08:34:57.49	100.11	11.35	
2025-01-20 08:34:57.69	100.09	11.37	
2025-01-20 08:34:57.90	100.06	11.38	
2025-01-20 08:34:58.10	100.04	11.40	
2025-01-20 08:34:58.30	100.02	11.41	
2025-01-20 08:34:58.51	99.99	11.43	
2025-01-20 08:34:58.71	99.97	11.44	
2025-01-20 08:34:58.91	99.95	11.46	
2025-01-20 08:34:59.12	99.92	11.47	
2025-01-20 08:34:59.32	99.90	11.49	
2025-01-20 08:34:59.52	99.88	11.50	
2025-01-20 08:34:59.72	99.85	11.52	
2025-01-20 08:34:59.93	99.83	11.53	
2025-01-20 08:35:00.13	99.81	11.55	
2025-01-20 08:35:00.33	99.78	11.56	
2025-01-20 08:35:00.54	99.76	11.58	
2025-01-20 08:35:00.74	99.74	11.59	
2025-01-20 08:35:00.94	99.71	11.61	
2025-01-20 08:35:01.15	99.69	11.62	
2025-01-20 08:35:01.35	99.66	11.64	
2025-01-20 08:35:01.55	99.64	11.65	
2025-01-20 08:35:01.76	99.62	11.67	
2025-01-20 08:35:01.96	99.59	11.68	
2025-01-20 08:35:02.16	99.57	11.70	
2025-01-20 08:35:02.36	99.55	11.71	
2025-01-20 08:35:02.57	99.52	11.73	
2025-01-20 08:35:02.77	99.50	11.74	
2025-01-20 08:35:02.97	99.48	11.76	
2025-01-20 08:35:03.18	99.45	11.77	
2025-01-20 08:35:03.38	99.43	11.79	
2025-01-20 08:35:03.58	99.40	11.80	
2025-01-20 08:35:03.79	99.38	11.82	
2025-01-20 08:35:03.99	99.36	11.83	
2025-01-20 08:35:04.19	99.33	11.85	
2025-01-20 08:35:04.40	99.31	11.86	
2025-01-20 08:35:04.60	99.28	11.88	
2025-01-20 08:35:04.80	99.26	11.89	
2025-01-20 08:35:05.01	99.24	11.91	
2025-01-20 08:35:05.21	99.21	11.92	
2025-01-20 08:35:05.41	99.19	11.94	
2025-01-20 08:35:05.61	99.16	11.95	
2025-01-20 08:35:05.82	99.14	11.97	
2025-01-20 08:35:06.02	99.12	11.98	
2025-01-20 08:35:06.22	99.09	12.00	
2025-01-20 08:35:06.43	99.07	12.01	
2025-01-20 08:35:06.63	99.04	12.03	
2025-01-20 08:35:06.83	99.02	12.04	
2025-01-20 08:35:07.04	98.99	12.06	
2025-01-20 08:35:07.24	98.97	12.07	
2025-01-20 08:35:07.44	98.95	12.09	
2025-01-20 08:35:07.65	98.92	12.10	
2025-01-20 08:35:07.85	98.90	12.12	
2025-01-20 08:35:08.05	98.87	12.13	
2025-01-20 08:35:08.25	98.85	12.15	
2025-01-20 08:35:08.46	98.82	12.16	
2025-01-20 08:35:08.66	98.80	12.18	
2025-01-20 08:35:08.86	98.78	12.19	
2025-01-20 08:35:09.07	98.75	12.21	
2025-01-20 08:35:09.27	98.73	12.23	
2025-01-20 08:35:09.47	98.70	12.24	
2025-01-20 08:35:09.68	98.68	12.26	
2025-01-20 08:35:09.88	98.65	12.27	
2025-01-20 08:35:10.08	98.63	12.29	
2025-01-20 08:35:10.29	98.60	12.30	
2025-01-20 08:35:10.49	98.58	12.32	
2025-01-20 08:35:10.69	98.55	12.33	
2025-01-20 08:35:10.89	98.53	12.35	
2025-01-20 08:35:11.10	98.50	12.36	
2025-01-20 08:35:11.30	98.48	12.38	
2025-01-20 08:35:11.50	98.46	12.39	
2025-01-20 08:35:11.71	98.43	12.41	
2025-01-20 08:35:11.91	98.40	12.42	
2025-01-20 08:35:12.11	98.38	12.44	
2025-01-20 08:35:12.32	98.35	12.45	
2025-01-20 08:35:12.52	98.33	12.47	
2025-01-20 08:35:12.72	98.31	12.48	
2025-01-20 08:35:12.93	98.28	12.50	
2025-01-20 08:35:13.13	98.25	12.51	
2025-01-20 08:35:13.33	98.23	12.53	
2025-01-20 08:35:13.53	98.21	12.54	
2025-01-20 08:35:13.74	98.18	12.56	
2025-01-20 08:35:13.94	98.15	12.57	
2025-01-20 08:35:14.14	98.13	12.59	
2025-01-20 08:35:14.35	98.10	12.61	
2025-01-20 08:35:14.55	98.08	12.62	
2025-01-20 08:35:14.75	98.05	12.64	
2025-01-20 08:35:14.96	98.03	12.65	
2025-01-20 08:35:15.16	98.00	12.67	
2025-01-20 08:35:15.36	97.98	12.68	
2025-01-20 08:35:15.57	97.95	12.70	
2025-01-20 08:35:15.77	97.93	12.71	
2025-01-20 08:35:15.97	97.90	12.73	
2025-01-20 08:35:16.17	97.88	12.74	
2025-01-20 08:35:16.38	97.85	12.76	
2025-01-20 08:35:16.58	97.83	12.77	
2025-01-20 08:35:16.78	97.80	12.79	
2025-01-20 08:35:16.99	97.77	12.80	
2025-01-20 08:35:17.19	97.75	12.82	
2025-01-20 08:35:17.39	97.72	12.83	
2025-01-20 08:35:17.60	97.70	12.85	
2025-01-20 08:35:17.80	97.67	12.87	
2025-01-20 08:35:18.00	97.65	12.88	
2025-01-20 08:35:18.21	97.62	12.90	
2025-01-20 08:35:18.41	97.59	12.91	
2025-01-20 08:35:18.61	97.57	12.93	
2025-01-20 08:35:18.81	97.54	12.94	
2025-01-20 08:35:19.02	97.52	12.96	
2025-01-20 08:35:19.22	97.49	12.97	
2025-01-20 08:35:19.42	97.47	12.99	
2025-01-20 08:35:19.63	97.44	13.00	
2025-01-20 08:35:19.83	97.41	13.02	
2025-01-20 08:35:20.03	97.39	13.03	
2025-01-20 08:35:20.24	97.36	13.05	
2025-01-20 08:35:20.44	97.34	13.06	
2025-01-20 08:35:20.64	97.31	13.08	
2025-01-20 08:35:20.85	97.28	13.10	
2025-01-20 08:35:21.05	97.26	13.11	
2025-01-20 08:35:21.25	97.23	13.13	
2025-01-20 08:35:21.45	97.21	13.14	
2025-01-20 08:35:21.66	97.18	13.16	
2025-01-20 08:35:21.86	97.15	13.17	
2025-01-20 08:35:22.06	97.13	13.19	
2025-01-20 08:35:22.27	97.10	13.20	
2025-01-20 08:35:22.47	97.07	13.22	
2025-01-20 08:35:22.67	97.05	13.23	
2025-01-20 08:35:22.88	97.02	13.25	
2025-01-20 08:35:23.08	97.00	13.26	
2025-01-20 08:35:23.28	96.97	13.28	
2025-01-20 08:35:23.49	96.94	13.30	
2025-01-20 08:35:23.69	96.92	13.31	
2025-01-20 08:35:23.89	96.89	13.33	
2025-01-20 08:35:24.09	96.86	13.34	
2025-01-20 08:35:24.30	96.84	13.36	
2025-01-20 08:35:24.50	96.81	13.37	
2025-01-20 08:35:24.70	96.78	13.39	
2025-01-20 08:35:24.91	96.76	13.40	
2025-01-20 08:35:25.11	96.73	13.42	
2025-01-20 08:35:25.31	96.70	13.43	
2025-01-20 08:35:25.52	96.68	13.45	
2025-01-20 08:35:25.72	96.65	13.47	
2025-01-20 08:35:25.92	96.62	13.48	
2025-01-20 08:35:26.13	96.60	13.50	
2025-01-20 08:35:26.33	96.57	13.51	
2025-01-20 08:35:26.53	96.54	13.53	
2025-01-20 08:35:26.74	96.52	13.54	
2025-01-20 08:35:26.94	96.49	13.56	
2025-01-20 08:35:27.14	96.46	13.57	
2025-01-20 08:35:27.34	96.44	13.59	
2025-01-20 08:35:27.55	96.41	13.61	
2025-01-20 08:35:27.75	96.38	13.62	
2025-01-20 08:35:27.95	96.35	13.64	
2025-01-20 08:35:28.16	96.33	13.65	
2025-01-20 08:35:28.36	96.30	13.67	
2025-01-20 08:35:28.56	96.27	13.68	
2025-01-20 08:35:28.77	96.25	13.70	
2025-01-20 08:35:28.97	96.22	13.71	
2025-01-20 08:35:29.17	96.19	13.73	
2025-01-20 08:35:29.38	96.16	13.75	
2025-01-20 08:35:29.58	96.14	13.76	
2025-01-20 08:35:29.78	96.11	13.78	
2025-01-20 08:35:29.98	96.08	13.79	
2025-01-20 08:35:30.19	96.05	13.81	
2025-01-20 08:35:30.39	96.03	13.82	
2025-01-20 08:35:30.59	96.00	13.84	
2025-01-20 08:35:30.80	95.97	13.85	
2025-01-20 08:35:31.00	95.95	13.87	
2025-01-20 08:35:31.20	95.92	13.88	
2025-01-20 08:35:31.41	95.89	13.90	
2025-01-20 08:35:31.61	95.86	13.92	
2025-01-20 08:35:31.81	95.84	13.93	
2025-01-20 08:35:32.02	95.81	13.95	
2025-01-20 08:35:32.22	95.78	13.96	
2025-01-20 08:35:32.42	95.75	13.98	
2025-01-20 08:35:32.62	95.72	13.99	
2025-01-20 08:35:32.83	95.70	14.01	
2025-01-20 08:35:33.03	95.67	14.02	
2025-01-20 08:35:33.23	95.64	14.04	
2025-01-20 08:35:33.44	95.61	14.06	
2025-01-20 08:35:33.64	95.59	14.07	
2025-01-20 08:35:33.84	95.56	14.09	
2025-01-20 08:35:34.05	95.53	14.10	
2025-01-20 08:35:34.25	95.50	14.12	
2025-01-20 08:35:34.45	95.47	14.13	
2025-01-20 08:35:34.66	95.44	14.15	
2025-01-20 08:35:34.86	95.42	14.17	
2025-01-20 08:35:35.06	95.39	14.18	
2025-01-20 08:35:35.26	95.36	14.20	
2025-01-20 08:35:35.47	95.33	14.21	
2025-01-20 08:35:35.67	95.31	14.23	
2025-01-20 08:35:35.87	95.28	14.24	
2025-01-20 08:35:36.08	95.25	14.26	
2025-01-20 08:35:36.28	95.22	14.27	
2025-01-20 08:35:36.48	95.19	14.29	
2025-01-20 08:35:36.69	95.16	14.31	
2025-01-20 08:35:36.89	95.14	14.32	
2025-01-20 08:35:37.09	95.11	14.34	
2025-01-20 08:35:37.30	95.08	14.35	
2025-01-20 08:35:37.50	95.05	14.37	
2025-01-20 08:35:37.70	95.02	14.38	
2025-01-20 08:35:37.90	94.99	14.40	
2025-01-20 08:35:38.11	94.96	14.42	
2025-01-20 08:35:38.31	94.94	14.43	
2025-01-20 08:35:38.51	94.91	14.45	
2025-01-20 08:35:38.72	94.88	14.46	
2025-01-20 08:35:38.92	94.85	14.48	
2025-01-20 08:35:39.12	94.82	14.49	
2025-01-20 08:35:39.33	94.79	14.51	
2025-01-20 08:35:39.53	94.76	14.53	
2025-01-20 08:35:39.73	94.74	14.54	
2025-01-20 08:35:39.94	94.71	14.56	
2025-01-20 08:35:40.14	94.68	14.57	
2025-01-20 08:35:40.34	94.65	14.59	
2025-01-20 08:35:40.54	94.62	14.60	
2025-01-20 08:35:40.75	94.59	14.62	
2025-01-20 08:35:40.95	94.56	14.64	
2025-01-20 08:35:41.15	94.53	14.65	
2025-01-20 08:35:41.36	94.50	14.67	
2025-01-20 08:35:41.56	94.48	14.68	
2025-01-20 08:35:41.76	94.45	14.70	
2025-01-20 08:35:41.97	94.42	14.71	
2025-01-20 08:35:42.17	94.39	14.73	
2025-01-20 08:35:42.37	94.36	14.75	
2025-01-20 08:35:42.58	94.33	14.76	
2025-01-20 08:35:42.78	94.30	14.78	
2025-01-20 08:35:42.98	94.27	14.79	
2025-01-20 08:35:43.18	94.24	14.81	
2025-01-20 08:35:43.39	94.21	14.82	
2025-01-20 08:35:43.59	94.18	14.84	
2025-01-20 08:35:43.79	94.15	14.86	
2025-01-20 08:35:44.00	94.12	14.87	
2025-01-20 08:35:44.20	94.09	14.89	
2025-01-20 08:35:44.40	94.07	14.90	
2025-01-20 08:35:44.61	94.03	14.92	
2025-01-20 08:35:44.81	94.01	14.93	
2025-01-20 08:35:45.01	93.98	14.95	
2025-01-20 08:35:45.22	93.95	14.97	
2025-01-20 08:35:45.42	93.92	14.98	
2025-01-20 08:35:45.62	93.89	15.00	
2025-01-20 08:35:45.82	93.86	15.01	
2025-01-20 08:35:46.03	93.83	15.03	
2025-01-20 08:35:46.23	93.80	15.04	
2025-01-20 08:35:46.43	93.77	15.06	
2025-01-20 08:35:46.64	93.74	15.08	
2025-01-20 08:35:46.84	93.71	15.09	
2025-01-20 08:35:47.04	93.68	15.11	
2025-01-20 08:35:47.25	93.65	15.12	
2025-01-20 08:35:47.45	93.62	15.14	
2025-01-20 08:35:47.65	93.59	15.15	
2025-01-20 08:35:47.86	93.56	15.17	
2025-01-20 08:35:48.06	93.53	15.19	
2025-01-20 08:35:48.26	93.50	15.20	
2025-01-20 08:35:48.47	93.47	15.22	
2025-01-20 08:35:48.67	93.44	15.23	
2025-01-20 08:35:48.87	93.41	15.25	
2025-01-20 08:35:49.07	93.38	15.27	
2025-01-20 08:35:49.28	93.35	15.28	
2025-01-20 08:35:49.48	93.32	15.30	
2025-01-20 08:35:49.68	93.29	15.31	
2025-01-20 08:35:49.89	93.26	15.33	
2025-01-20 08:35:50.09	93.23	15.34	
2025-01-20 08:35:50.29	93.20	15.36	
2025-01-20 08:35:50.50	93.16	15.38	
2025-01-20 08:35:50.70	93.13	15.39	
2025-01-20 08:35:50.90	93.10	15.41	
2025-01-20 08:35:51.11	93.07	15.42	
2025-01-20 08:35:51.31	93.04	15.44	
2025-01-20 08:35:51.51	93.01	15.46	
2025-01-20 08:35:51.71	92.98	15.47	
2025-01-20 08:35:51.92	92.95	15.49	
2025-01-20 08:35:52.12	92.92	15.50	
2025-01-20 08:35:52.32	92.89	15.52	
2025-01-20 08:35:52.53	92.86	15.53	
2025-01-20 08:35:52.73	92.83	15.55	
2025-01-20 08:35:52.93	92.80	15.57	
2025-01-20 08:35:53.14	92.77	15.58	
2025-01-20 08:35:53.34	92.74	15.60	
2025-01-20 08:35:53.54	92.70	15.61	
2025-01-20 08:35:53.75	92.67	15.63	
2025-01-20 08:35:53.95	92.64	15.65	
2025-01-20 08:35:54.15	92.61	15.66	
2025-01-20 08:35:54.35	92.58	15.68	
2025-01-20 08:35:54.56	92.55	15.69	
2025-01-20 08:35:54.76	92.52	15.71	
2025-01-20 08:35:54.96	92.49	15.72	
2025-01-20 08:35:55.17	92.46	15.74	
2025-01-20 08:35:55.37	92.42	15.76	
2025-01-20 08:35:55.57	92.39	15.77	
2025-01-20 08:35:55.78	92.36	15.79	
2025-01-20 08:35:55.98	92.33	15.80	
2025-01-20 08:35:56.18	92.30	15.82	
2025-01-20 08:35:56.39	92.27	15.84	
2025-01-20 08:35:56.59	92.24	15.85	
2025-01-20 08:35:56.79	92.21	15.87	
2025-01-20 08:35:56.99	92.17	15.88	
2025-01-20 08:35:57.20	92.14	15.90	
2025-01-20 08:35:57.40	92.11	15.92	
2025-01-20 08:35:57.60	92.08	15.93	
2025-01-20 08:35:57.81	92.05	15.95	
2025-01-20 08:35:58.01	92.02	15.96	
2025-01-20 08:35:58.21	91.98	15.98	
2025-01-20 08:35:58.42	91.95	16.00	
2025-01-20 08:35:58.62	91.92	16.01	
2025-01-20 08:35:58.82	91.89	16.03	
2025-01-20 08:35:59.03	91.86	16.04	
2025-01-20 08:35:59.23	91.82	16.06	
2025-01-20 08:35:59.43	91.79	16.07	
2025-01-20 08:35:59.63	91.76	16.09	
2025-01-20 08:35:59.84	91.73	16.11	
2025-01-20 08:36:00.04	91.70	16.12	
2025-01-20 08:36:00.24	91.67	16.14	
2025-01-20 08:36:00.45	91.63	16.15	
2025-01-20 08:36:00.65	91.60	16.17	
2025-01-20 08:36:00.85	91.57	16.19	
2025-01-20 08:36:01.06	91.54	16.20	
2025-01-20 08:36:01.26	91.50	16.22	
2025-01-20 08:36:01.46	91.47	16.23	
2025-01-20 08:36:01.67	91.44	16.25	
2025-01-20 08:36:01.87	91.41	16.27	
2025-01-20 08:36:02.07	91.37	16.28	
2025-01-20 08:36:02.27	91.34	16.30	
2025-01-20 08:36:02.48	91.31	16.31	
2025-01-20 08:36:02.68	91.28	16.33	
2025-01-20 08:36:02.88	91.25	16.34	
2025-01-20 08:36:03.09	91.21	16.36	
2025-01-20 08:36:03.29	91.18	16.38	
2025-01-20 08:36:03.49	91.15	16.39	
2025-01-20 08:36:03.70	91.11	16.41	
2025-01-20 08:36:03.90	91.08	16.42	
2025-01-20 08:36:04.10	91.05	16.44	
2025-01-20 08:36:04.31	91.02	16.46	
2025-01-20 08:36:04.51	90.98	16.47	
2025-01-20 08:36:04.71	90.95	16.49	
2025-01-20 08:36:04.91	90.92	16.50	
2025-01-20 08:36:05.12	90.88	16.52	
2025-01-20 08:36:05.32	90.85	16.54	
2025-01-20 08:36:05.52	90.82	16.55	
2025-01-20 08:36:05.73	90.79	16.57	
2025-01-20 08:36:05.93	90.75	16.58	
2025-01-20 08:36:06.13	90.72	16.60	
2025-01-20 08:36:06.34	90.69	16.62	
2025-01-20 08:36:06.54	90.65	16.63	
2025-01-20 08:36:06.74	90.62	16.65	
2025-01-20 08:36:06.95	90.59	16.66	
2025-01-20 08:36:07.15	90.55	16.68	
2025-01-20 08:36:07.35	90.52	16.69	
2025-01-20 08:36:07.55	90.49	16.71	
2025-01-20 08:36:07.76	90.45	16.73	
2025-01-20 08:36:07.96	90.42	16.74	
2025-01-20 08:36:08.16	90.39	16.76	
2025-01-20 08:36:08.37	90.35	16.77	
2025-01-20 08:36:08.57	90.32	16.79	
2025-01-20 08:36:08.77	90.29	16.81	
2025-01-20 08:36:08.98	90.25	16.82	
2025-01-20 08:36:09.18	90.22	16.84	
2025-01-20 08:36:09.38	90.19	16.85	
2025-01-20 08:36:09.59	90.15	16.87	
2025-01-20 08:36:09.79	90.12	16.89	
2025-01-20 08:36:09.99	90.08	16.90	
2025-01-20 08:36:10.19	90.05	16.92	
2025-01-20 08:36:10.40	90.02	16.93	
2025-01-20 08:36:10.60	89.98	16.95	
2025-01-20 08:36:10.80	89.95	16.97	
2025-01-20 08:36:11.01	89.91	16.98	
2025-01-20 08:36:11.21	89.88	17.00	
2025-01-20 08:36:11.41	89.85	17.01	
2025-01-20 08:36:11.62	89.81	17.03	
2025-01-20 08:36:11.82	89.78	17.05	
2025-01-20 08:36:12.02	89.75	17.06	
2025-01-20 08:36:12.23	89.71	17.08	
2025-01-20 08:36:12.43	89.68	17.09	
2025-01-20 08:36:12.63	89.64	17.11	
2025-01-20 08:36:12.84	89.61	17.13	
2025-01-20 08:36:13.04	89.57	17.14	
2025-01-20 08:36:13.24	89.54	17.16	
2025-01-20 08:36:13.44	89.51	17.17	
2025-01-20 08:36:13.65	89.47	17.19	
2025-01-20 08:36:13.85	89.44	17.20	
2025-01-20 08:36:14.05	89.40	17.22	
2025-01-20 08:36:14.26	89.37	17.24	
2025-01-20 08:36:14.46	89.33	17.25	
2025-01-20 08:36:14.66	89.30	17.27	
2025-01-20 08:36:14.87	89.26	17.28	
2025-01-20 08:36:15.07	89.23	17.30	
2025-01-20 08:36:15.27	89.19	17.32	
2025-01-20 08:36:15.47	89.16	17.33	
2025-01-20 08:36:15.68	89.12	17.35	
2025-01-20 08:36:15.88	89.09	17.36	
2025-01-20 08:36:16.08	89.06	17.38	
2025-01-20 08:36:16.29	89.02	17.40	
2025-01-20 08:36:16.49	88.98	17.41	
2025-01-20 08:36:16.69	88.95	17.43	
2025-01-20 08:36:16.90	88.91	17.44	
2025-01-20 08:36:17.10	88.88	17.46	
2025-01-20 08:36:17.30	88.85	17.48	
2025-01-20 08:36:17.51	88.81	17.49	
2025-01-20 08:36:17.71	88.77	17.51	
2025-01-20 08:36:17.91	88.74	17.52	
2025-01-20 08:36:18.12	88.70	17.54	
2025-01-20 08:36:18.32	88.67	17.56	
2025-01-20 08:36:18.52	88.63	17.57	
2025-01-20 08:36:18.72	88.60	17.59	
2025-01-20 08:36:18.93	88.56	17.60	
2025-01-20 08:36:19.13	88.53	17.62	
2025-01-20 08:36:19.33	88.49	17.63	
2025-01-20 08:36:19.54	88.46	17.65	
2025-01-20 08:36:19.74	88.42	17.67	
2025-01-20 08:36:19.94	88.39	17.68	
2025-01-20 08:36:20.15	88.35	17.70	
2025-01-20 08:36:20.35	88.31	17.71	
2025-01-20 08:36:20.55	88.28	17.73	
2025-01-20 08:36:20.76	88.24	17.75	
2025-01-20 08:36:20.96	88.21	17.76	
2025-01-20 08:36:21.16	88.17	17.78	
2025-01-20 08:36:21.36	88.14	17.79	
2025-01-20 08:36:21.57	88.10	17.81	
2025-01-20 08:36:21.77	88.06	17.83	
2025-01-20 08:36:21.97	88.03	17.84	
2025-01-20 08:36:22.18	87.99	17.86	
2025-01-20 08:36:22.38	87.96	17.87	
2025-01-20 08:36:22.58	87.92	17.89	
2025-01-20 08:36:22.79	87.88	17.91	
2025-01-20 08:36:22.99	87.85	17.92	
2025-01-20 08:36:23.19	87.81	17.94	
2025-01-20 08:36:23.40	87.77	17.95	
2025-01-20 08:36:23.60	87.74	17.97	
2025-01-20 08:36:23.80	87.70	17.98	
2025-01-20 08:36:24.00	87.67	18.00	
2025-01-20 08:36:24.21	87.63	18.02	
2025-01-20 08:36:24.41	87.59	18.03	
2025-01-20 08:36:24.61	87.56	18.05	
2025-01-20 08:36:24.82	87.52	18.06	
2025-01-20 08:36:25.02	87.48	18.08	
2025-01-20 08:36:25.22	87.45	18.10	
2025-01-20 08:36:25.43	87.41	18.11	
2025-01-20 08:36:25.63	87.37	18.13	
2025-01-20 08:36:25.83	87.34	18.14	
2025-01-20 08:36:26.04	87.30	18.16	
2025-01-20 08:36:26.24	87.26	18.18	
2025-01-20 08:36:26.44	87.23	18.19	
2025-01-20 08:36:26.64	87.19	18.21	
2025-01-20 08:36:26.85	87.15	18.22	
2025-01-20 08:36:27.05	87.12	18.24	
2025-01-20 08:36:27.25	87.08	18.25	
2025-01-20 08:36:27.46	87.04	18.27	
2025-01-20 08:36:27.66	87.01	18.29	
2025-01-20 08:36:27.86	86.97	18.30	
2025-01-20 08:36:28.07	86.93	18.32	
2025-01-20 08:36:28.27	86.89	18.33	
2025-01-20 08:36:28.47	86.86	18.35	
2025-01-20 08:36:28.68	86.82	18.37	
2025-01-20 08:36:28.88	86.78	18.38	
2025-01-20 08:36:29.08	86.75	18.40	
2025-01-20 08:36:29.28	86.71	18.41	
2025-01-20 08:36:29.49	86.67	18.43	
2025-01-20 08:36:29.69	86.63	18.44	
2025-01-20 08:36:29.89	86.60	18.46	
2025-01-20 08:36:30.10	86.56	18.48	
2025-01-20 08:36:30.30	86.52	18.49	
2025-01-20 08:36:30.50	86.48	18.51	
2025-01-20 08:36:30.71	86.44	18.52	
2025-01-20 08:36:30.91	86.41	18.54	
2025-01-20 08:36:31.11	86.37	18.55	
2025-01-20 08:36:31.32	86.33	18.57	
2025-01-20 08:36:31.52	86.29	18.59	
2025-01-20 08:36:31.72	86.26	18.60	
2025-01-20 08:36:31.92	86.22	18.62	
2025-01-20 08:36:32.13	86.18	18.63	
2025-01-20 08:36:32.33	86.14	18.65	
2025-01-20 08:36:32.53	86.11	18.67	
2025-01-20 08:36:32.74	86.07	18.68	
2025-01-20 08:36:32.94	86.03	18.70	
2025-01-20 08:36:33.14	85.99	18.71	
2025-01-20 08:36:33.35	85.95	18.73	
2025-01-20 08:36:33.55	85.91	18.74	
2025-01-20 08:36:33.75	85.88	18.76	
2025-01-20 08:36:33.96	85.84	18.78	
2025-01-20 08:36:34.16	85.80	18.79	
2025-01-20 08:36:34.36	85.76	18.81	
2025-01-20 08:36:34.57	85.72	18.82	
2025-01-20 08:36:34.77	85.68	18.84	
2025-01-20 08:36:34.97	85.65	18.85	
2025-01-20 08:36:35.17	85.61	18.87	
2025-01-20 08:36:35.38	85.57	18.89	
2025-01-20 08:36:35.58	85.53	18.90	
2025-01-20 08:36:35.78	85.49	18.92	
2025-01-20 08:36:35.99	85.45	18.93	
2025-01-20 08:36:36.19	85.41	18.95	
2025-01-20 08:36:36.39	85.38	18.96	
2025-01-20 08:36:36.60	85.34	18.98	
2025-01-20 08:36:36.80	85.30	19.00	
2025-01-20 08:36:37.00	85.26	19.01	
2025-01-20 08:36:37.21	85.22	19.03	
2025-01-20 08:36:37.41	85.18	19.04	
2025-01-20 08:36:37.61	85.14	19.06	
2025-01-20 08:36:37.81	85.10	19.07	
2025-01-20 08:36:38.02	85.06	19.09	
2025-01-20 08:36:38.22	85.03	19.11	
2025-01-20 08:36:38.42	84.99	19.12	
2025-01-20 08:36:38.63	84.95	19.14	
2025-01-20 08:36:38.83	84.91	19.15	
2025-01-20 08:36:39.03	84.87	19.17	
2025-01-20 08:36:39.24	84.83	19.18	
2025-01-20 08:36:39.44	84.79	19.20	
2025-01-20 08:36:39.64	84.75	19.22	
2025-01-20 08:36:39.85	84.71	19.23	
2025-01-20 08:36:40.05	84.67	19.25	
2025-01-20 08:36:40.25	84.63	19.26	
2025-01-20 08:36:40.45	84.59	19.28	
2025-01-20 08:36:40.66	84.55	19.29	
2025-01-20 08:36:40.86	84.51	19.31	
2025-01-20 08:36:41.06	84.47	19.33	
2025-01-20 08:36:41.27	84.43	19.34	
2025-01-20 08:36:41.47	84.39	19.36	
2025-01-20 08:36:41.67	84.35	19.37	
2025-01-20 08:36:41.88	84.31	19.39	
2025-01-20 08:36:42.08	84.27	19.40	
2025-01-20 08:36:42.28	84.24	19.42	
2025-01-20 08:36:42.49	84.19	19.44	
2025-01-20 08:36:42.69	84.15	19.45	
2025-01-20 08:36:42.89	84.11	19.47	
2025-01-20 08:36:43.09	84.08	19.48	
2025-01-20 08:36:43.30	84.03	19.50	
2025-01-20 08:36:43.50	83.99	19.51	
2025-01-20 08:36:43.70	83.95	19.53	
2025-01-20 08:36:43.91	83.91	19.54	
2025-01-20 08:36:44.11	83.87	19.56	
2025-01-20 08:36:44.31	83.83	19.57	
2025-01-20 08:36:44.52	83.79	19.59	
2025-01-20 08:36:44.72	83.75	19.61	
2025-01-20 08:36:44.92	83.71	19.62	
2025-01-20 08:36:45.13	83.67	19.64	
2025-01-20 08:36:45.33	83.63	19.65	
2025-01-20 08:36:45.53	83.59	19.67	
2025-01-20 08:36:45.73	83.55	19.68	
2025-01-20 08:36:45.94	83.51	19.70	
2025-01-20 08:36:46.14	83.47	19.71	
2025-01-20 08:36:46.34	83.43	19.73	
2025-01-20 08:36:46.55	83.39	19.75	
2025-01-20 08:36:46.75	83.35	19.76	
2025-01-20 08:36:46.95	83.31	19.78	
2025-01-20 08:36:47.16	83.26	19.79	
2025-01-20 08:36:47.36	83.22	19.81	
2025-01-20 08:36:47.56	83.18	19.82	
2025-01-20 08:36:47.77	83.14	19.84	
2025-01-20 08:36:47.97	83.10	19.85	
2025-01-20 08:36:48.17	83.06	19.87	
2025-01-20 08:36:48.37	83.02	19.88	
2025-01-20 08:36:48.58	82.98	19.90	
2025-01-20 08:36:48.78	82.94	19.92	
2025-01-20 08:36:48.98	82.90	19.93	
2025-01-20 08:36:49.19	82.85	19.95	
2025-01-20 08:36:49.39	82.81	19.96	
2025-01-20 08:36:49.59	82.77	19.98	
2025-01-20 08:36:49.80	82.73	19.99	
2025-01-20 08:36:50.00	82.69	20.01	
2025-01-20 08:36:50.20	82.65	20.02	
2025-01-20 08:36:50.41	82.60	20.04	
2025-01-20 08:36:50.61	82.56	20.05	
2025-01-20 08:36:50.81	82.52	20.07	
2025-01-20 08:36:51.01	82.48	20.08	
2025-01-20 08:36:51.22	82.44	20.10	
2025-01-20 08:36:51.42	82.40	20.12	
2025-01-20 08:36:51.62	82.35	20.13	
2025-01-20 08:36:51.83	82.31	20.15	
2025-01-20 08:36:52.03	82.27	20.16	
2025-01-20 08:36:52.23	82.23	20.18	
2025-01-20 08:36:52.44	82.19	20.19	
2025-01-20 08:36:52.64	82.14	20.21	
2025-01-20 08:36:52.84	82.10	20.22	
2025-01-20 08:36:53.05	82.06	20.24	
2025-01-20 08:36:53.25	82.02	20.25	
2025-01-20 08:36:53.45	81.98	20.27	
2025-01-20 08:36:53.65	81.93	20.28	
2025-01-20 08:36:53.86	81.89	20.30	
2025-01-20 08:36:54.06	81.85	20.31	
2025-01-20 08:36:54.26	81.81	20.33	
2025-01-20 08:36:54.47	81.76	20.34	
2025-01-20 08:36:54.67	81.72	20.36	
2025-01-20 08:36:54.87	81.68	20.37	
2025-01-20 08:36:55.08	81.64	20.39	
2025-01-20 08:36:55.28	81.59	20.41	
2025-01-20 08:36:55.48	81.55	20.42	
2025-01-20 08:36:55.69	81.51	20.44	
2025-01-20 08:36:55.89	81.47	20.45	
2025-01-20 08:36:56.09	81.42	20.47	
2025-01-20 08:36:56.29	81.38	20.48	
2025-01-20 08:36:56.50	81.34	20.50	
2025-01-20 08:36:56.70	81.29	20.51	
2025-01-20 08:36:56.90	81.25	20.53	
2025-01-20 08:36:57.11	81.21	20.54	
2025-01-20 08:36:57.31	81.17	20.56	
2025-01-20 08:36:57.51	81.12	20.57	
2025-01-20 08:36:57.72	81.08	20.59	
2025-01-20 08:36:57.92	81.04	20.60	
2025-01-20 08:36:58.12	80.99	20.62	
2025-01-20 08:36:58.33	80.95	20.63	
2025-01-20 08:36:58.53	80.91	20.65	
2025-01-20 08:36:58.73	80.86	20.66	
2025-01-20 08:36:58.94	80.82	20.68	
2025-01-20 08:36:59.14	80.78	20.69	
2025-01-20 08:36:59.34	80.73	20.71	
2025-01-20 08:36:59.54	80.69	20.72	
2025-01-20 08:36:59.75	80.65	20.74	
2025-01-20 08:36:59.95	80.60	20.75	
2025-01-20 08:37:00.15	80.56	20.77	
2025-01-20 08:37:00.36	80.51	20.78	
2025-01-20 08:37:00.56	80.47	20.80	
2025-01-20 08:37:00.76	80.43	20.81	
2025-01-20 08:37:00.97	80.38	20.83	
2025-01-20 08:37:01.17	80.34	20.84	
2025-01-20 08:37:01.37	80.30	20.86	
2025-01-20 08:37:01.58	80.25	20.87	
2025-01-20 08:37:01.78	80.21	20.89	
2025-01-20 08:37:01.98	80.16	20.90	
2025-01-20 08:37:02.18	80.12	20.92	
2025-01-20 08:37:02.39	80.08	20.93	
2025-01-20 08:37:02.59	80.03	20.95	
2025-01-20 08:37:02.79	79.99	20.96	
2025-01-20 08:37:03.00	79.94	20.98	
2025-01-20 08:37:03.20	79.90	20.99	
2025-01-20 08:37:03.40	79.86	21.01	
2025-01-20 08:37:03.61	79.81	21.02	
2025-01-20 08:37:03.81	79.77	21.04	
2025-01-20 08:37:04.01	79.72	21.05	
2025-01-20 08:37:04.22	79.68	21.07	
2025-01-20 08:37:04.42	79.63	21.08	
2025-01-20 08:37:04.62	79.59	21.10	
2025-01-20 08:37:04.82	79.54	21.11	
2025-01-20 08:37:05.03	79.50	21.13	
2025-01-20 08:37:05.23	79.45	21.14	
2025-01-20 08:37:05.43	79.41	21.16	
2025-01-20 08:37:05.64	79.36	21.17	
2025-01-20 08:37:05.84	79.32	21.18	
2025-01-20 08:37:06.04	79.28	21.20	
2025-01-20 08:37:06.25	79.23	21.21	
2025-01-20 08:37:06.45	79.19	21.23	
2025-01-20 08:37:06.65	79.14	21.24	
2025-01-20 08:37:06.86	79.09	21.26	
2025-01-20 08:37:07.06	79.05	21.27	
2025-01-20 08:37:07.26	79.01	21.29	
2025-01-20 08:37:07.46	78.96	21.30	
2025-01-20 08:37:07.67	78.91	21.32	
2025-01-20 08:37:07.87	78.87	21.33	
2025-01-20 08:37:08.07	78.83	21.35	
2025-01-20 08:37:08.28	78.78	21.36	
2025-01-20 08:37:08.48	78.73	21.38	
2025-01-20 08:37:08.68	78.69	21.39	
2025-01-20 08:37:08.89	78.64	21.41	
2025-01-20 08:37:09.09	78.60	21.42	
2025-01-20 08:37:09.29	78.55	21.43	
2025-01-20 08:37:09.50	78.51	21.45	
2025-01-20 08:37:09.70	78.46	21.46	
2025-01-20 08:37:09.90	78.42	21.48	
2025-01-20 08:37:10.10	78.37	21.49	
2025-01-20 08:37:10.31	78.32	21.51	
2025-01-20 08:37:10.51	78.28	21.52	
2025-01-20 08:37:10.71	78.23	21.54	
2025-01-20 08:37:10.92	78.19	21.55	
2025-01-20 08:37:11.12	78.14	21.56	
2025-01-20 08:37:11.32	78.09	21.58	
2025-01-20 08:37:11.53	78.05	21.59	
2025-01-20 08:37:11.73	78.00	21.61	
2025-01-20 08:37:11.93	77.96	21.62	
2025-01-20 08:37:12.14	77.91	21.64	
2025-01-20 08:37:12.34	77.86	21.65	
2025-01-20 08:37:12.54	77.82	21.67	
2025-01-20 08:37:12.74	77.77	21.68	
2025-01-20 08:37:12.95	77.72	21.69	
2025-01-20 08:37:13.15	77.68	21.71	
2025-01-20 08:37:13.35	77.63	21.72	
2025-01-20 08:37:13.56	77.58	21.74	
2025-01-20 08:37:13.76	77.54	21.75	
2025-01-20 08:37:13.96	77.49	21.77	
2025-01-20 08:37:14.17	77.45	21.78	
2025-01-20 08:37:14.37	77.40	21.79	
2025-01-20 08:37:14.57	77.35	21.81	
2025-01-20 08:37:14.78	77.30	21.82	
2025-01-20 08:37:14.98	77.26	21.84	
2025-01-20 08:37:15.18	77.21	21.85	
2025-01-20 08:37:15.38	77.17	21.87	
2025-01-20 08:37:15.59	77.12	21.88	
2025-01-20 08:37:15.79	77.07	21.89	
2025-01-20 08:37:15.99	77.03	21.91	
2025-01-20 08:37:16.20	76.98	21.92	
2025-01-20 08:37:16.40	76.93	21.94	
2025-01-20 08:37:16.60	76.88	21.95	
2025-01-20 08:37:16.81	76.84	21.97	
2025-01-20 08:37:17.01	76.79	21.98	
2025-01-20 08:37:17.21	76.74	21.99	
2025-01-20 08:37:17.42	76.69	22.01	
2025-01-20 08:37:17.62	76.65	22.02	
2025-01-20 08:37:17.82	76.60	22.04	
2025-01-20 08:37:18.02	76.55	22.05	
2025-01-20 08:37:18.23	76.50	22.06	
2025-01-20 08:37:18.43	76.46	22.08	
2025-01-20 08:37:18.63	76.41	22.09	
2025-01-20 08:37:18.84	76.36	22.11	
2025-01-20 08:37:19.04	76.32	22.12	
2025-01-20 08:37:19.24	76.27	22.13	
2025-01-20 08:37:19.45	76.22	22.15	
2025-01-20 08:37:19.65	76.17	22.16	
2025-01-20 08:37:19.85	76.12	22.18	
2025-01-20 08:37:20.06	76.08	22.19	
2025-01-20 08:37:20.26	76.03	22.20	
2025-01-20 08:37:20.46	75.98	22.22	
2025-01-20 08:37:20.67	75.93	22.23	
2025-01-20 08:37:20.87	75.88	22.25	
2025-01-20 08:37:21.07	75.84	22.26	
2025-01-20 08:37:21.27	75.79	22.27	
2025-01-20 08:37:21.48	75.74	22.29	
2025-01-20 08:37:21.68	75.69	22.30	
2025-01-20 08:37:21.88	75.64	22.31	
2025-01-20 08:37:22.09	75.59	22.33	
2025-01-20 08:37:22.29	75.55	22.34	
2025-01-20 08:37:22.49	75.50	22.36	
2025-01-20 08:37:22.70	75.45	22.37	
2025-01-20 08:37:22.90	75.40	22.38	
2025-01-20 08:37:23.10	75.35	22.40	
2025-01-20 08:37:23.31	75.30	22.41	
2025-01-20 08:37:23.51	75.26	22.42	
2025-01-20 08:37:23.71	75.21	22.44	
2025-01-20 08:37:23.91	75.16	22.45	
2025-01-20 08:37:24.12	75.11	22.47	
2025-01-20 08:37:24.32	75.06	22.48	
2025-01-20 08:37:24.52	75.01	22.49	
2025-01-20 08:37:24.73	74.96	22.51	
2025-01-20 08:37:24.93	74.92	22.52	
2025-01-20 08:37:25.13	74.87	22.53	
2025-01-20 08:37:25.34	74.82	22.55	
2025-01-20 08:37:25.54	74.77	22.56	
2025-01-20 08:37:25.74	74.72	22.57	
2025-01-20 08:37:25.95	74.67	22.59	
2025-01-20 08:37:26.15	74.62	22.60	
2025-01-20 08:37:26.35	74.57	22.61	
2025-01-20 08:37:26.55	74.52	22.63	
2025-01-20 08:37:26.76	74.47	22.64	
2025-01-20 08:37:26.96	74.42	22.65	
2025-01-20 08:37:27.16	74.38	22.67	
2025-01-20 08:37:27.37	74.32	22.68	
2025-01-20 08:37:27.57	74.28	22.69	
2025-01-20 08:37:27.77	74.23	22.71	
2025-01-20 08:37:27.98	74.18	22.72	
2025-01-20 08:37:28.18	74.13	22.73	
2025-01-20 08:37:28.38	74.08	22.75	
2025-01-20 08:37:28.59	74.03	22.76	
2025-01-20 08:37:28.79	73.98	22.77	
2025-01-20 08:37:28.99	73.93	22.79	
2025-01-20 08:37:29.19	73.88	22.80	
2025-01-20 08:37:29.40	73.83	22.81	
2025-01-20 08:37:29.60	73.78	22.83	
2025-01-20 08:37:29.80	73.73	22.84	
2025-01-20 08:37:30.01	73.68	22.85	
2025-01-20 08:37:30.21	73.63	22.87	
2025-01-20 08:37:30.41	73.58	22.88	
2025-01-20 08:37:30.62	73.53	22.89	
2025-01-20 08:37:30.82	73.48	22.91	
2025-01-20 08:37:31.02	73.43	22.92	
2025-01-20 08:37:31.23	73.38	22.93	
2025-01-20 08:37:31.43	73.33	22.95	
2025-01-20 08:37:31.63	73.28	22.96	
2025-01-20 08:37:31.83	73.23	22.97	
2025-01-20 08:37:32.04	73.18	22.98	
2025-01-20 08:37:32.24	73.13	23.00	
2025-01-20 08:37:32.44	73.08	23.01	
2025-01-20 08:37:32.65	73.03	23.02	
2025-01-20 08:37:32.85	72.98	23.04	
2025-01-20 08:37:33.05	72.93	23.05	
2025-01-20 08:37:33.26	72.87	23.06	
2025-01-20 08:37:33.46	72.82	23.08	
2025-01-20 08:37:33.66	72.77	23.09	
2025-01-20 08:37:33.87	72.72	23.10	
2025-01-20 08:37:34.07	72.67	23.11	
2025-01-20 08:37:34.27	72.62	23.13	
2025-01-20 08:37:34.47	72.57	23.14	
2025-01-20 08:37:34.68	72.52	23.15	
2025-01-20 08:37:34.88	72.47	23.16	
2025-01-20 08:37:35.08	72.42	23.18	
2025-01-20 08:37:35.29	72.37	23.19	
2025-01-20 08:37:35.49	72.32	23.20	
2025-01-20 08:37:35.69	72.27	23.22	
2025-01-20 08:37:35.90	72.21	23.23	
2025-01-20 08:37:36.10	72.16	23.24	
2025-01-20 08:37:36.30	72.11	23.25	
2025-01-20 08:37:36.51	72.06	23.27	
2025-01-20 08:37:36.71	72.01	23.28	
2025-01-20 08:37:36.91	71.96	23.29	
2025-01-20 08:37:37.11	71.91	23.30	
2025-01-20 08:37:37.32	71.85	23.32	
2025-01-20 08:37:37.52	71.80	23.33	
2025-01-20 08:37:37.72	71.75	23.34	
2025-01-20 08:37:37.93	71.70	23.35	
2025-01-20 08:37:38.13	71.65	23.37	
2025-01-20 08:37:38.33	71.60	23.38	
2025-01-20 08:37:38.54	71.54	23.39	
2025-01-20 08:37:38.74	71.49	23.40	
2025-01-20 08:37:38.94	71.44	23.42	
2025-01-20 08:37:39.15	71.39	23.43	
2025-01-20 08:37:39.35	71.34	23.44	
2025-01-20 08:37:39.55	71.29	23.45	
2025-01-20 08:37:39.75	71.24	23.47	
2025-01-20 08:37:39.96	71.18	23.48	
2025-01-20 08:37:40.16	71.13	23.49	
2025-01-20 08:37:40.36	71.08	23.50	
2025-01-20 08:37:40.57	71.03	23.51	
2025-01-20 08:37:40.77	70.97	23.53	
2025-01-20 08:37:40.97	70.92	23.54	
2025-01-20 08:37:41.18	70.87	23.55	
2025-01-20 08:37:41.38	70.82	23.56	
2025-01-20 08:37:41.58	70.77	23.58	
2025-01-20 08:37:41.79	70.71	23.59	
2025-01-20 08:37:41.99	70.66	23.60	
2025-01-20 08:37:42.19	70.61	23.61	
2025-01-20 08:37:42.40	70.55	23.62	
2025-01-20 08:37:42.60	70.50	23.64	
2025-01-20 08:37:42.80	70.45	23.65	
2025-01-20 08:37:43.00	70.40	23.66	
2025-01-20 08:37:43.21	70.34	23.67	
2025-01-20 08:37:43.41	70.29	23.68	
2025-01-20 08:37:43.61	70.24	23.70	
2025-01-20 08:37:43.82	70.19	23.71	
2025-01-20 08:37:44.02	70.13	23.72	
2025-01-20 08:37:44.22	70.08	23.73	
2025-01-20 08:37:44.43	70.03	23.74	
2025-01-20 08:37:44.63	69.98	23.75	
2025-01-20 08:37:44.83	69.92	23.77	
2025-01-20 08:37:45.04	69.87	23.78	
2025-01-20 08:37:45.24	69.82	23.79	
2025-01-20 08:37:45.44	69.76	23.80	
2025-01-20 08:37:45.64	69.71	23.81	
2025-01-20 08:37:45.85	69.66	23.83	
2025-01-20 08:37:46.05	69.60	23.84	
2025-01-20 08:37:46.25	69.55	23.85	
2025-01-20 08:37:46.46	69.50	23.86	
2025-01-20 08:37:46.66	69.44	23.87	
2025-01-20 08:37:46.86	69.39	23.88	
2025-01-20 08:37:47.07	69.34	23.90	
2025-01-20 08:37:47.27	69.28	23.91	
2025-01-20 08:37:47.47	69.23	23.92	
2025-01-20 08:37:47.68	69.18	23.93	
2025-01-20 08:37:47.88	69.12	23.94	
2025-01-20 08:37:48.08	69.07	23.95	
2025-01-20 08:37:48.28	69.02	23.96	
2025-01-20 08:37:48.49	68.96	23.98	
2025-01-20 08:37:48.69	68.91	23.99	
2025-01-20 08:37:48.89	68.86	24.00	
2025-01-20 08:37:49.10	68.80	24.01	
2025-01-20 08:37:49.30	68.75	24.02	
2025-01-20 08:37:49.50	68.69	24.03	
2025-01-20 08:37:49.71	68.64	24.04	
2025-01-20 08:37:49.91	68.59	24.05	
2025-01-20 08:37:50.11	68.53	24.07	
2025-01-20 08:37:50.32	68.48	24.08	
2025-01-20 08:37:50.52	68.42	24.09	
2025-01-20 08:37:50.72	68.37	24.10	
2025-01-20 08:37:50.92	68.32	24.11	
2025-01-20 08:37:51.13	68.26	24.12	
2025-01-20 08:37:51.33	68.21	24.13	
2025-01-20 08:37:51.53	68.15	24.14	
2025-01-20 08:37:51.74	68.10	24.15	
2025-01-20 08:37:51.94	68.04	24.17	
2025-01-20 08:37:52.14	67.99	24.18	
2025-01-20 08:37:52.35	67.93	24.19	
2025-01-20 08:37:52.55	67.88	24.20	
2025-01-20 08:37:52.75	67.83	24.21	
2025-01-20 08:37:52.96	67.77	24.22	
2025-01-20 08:37:53.16	67.72	24.23	
2025-01-20 08:37:53.36	67.66	24.24	
2025-01-20 08:37:53.56	67.61	24.25	
2025-01-20 08:37:53.77	67.55	24.26	
2025-01-20 08:37:53.97	67.50	24.27	
2025-01-20 08:37:54.17	67.45	24.29	
2025-01-20 08:37:54.38	67.39	24.30	
2025-01-20 08:37:54.58	67.34	24.31	
2025-01-20 08:37:54.78	67.28	24.32	
2025-01-20 08:37:54.99	67.22	24.33	
2025-01-20 08:37:55.19	67.17	24.34	
2025-01-20 08:37:55.39	67.12	24.35	
2025-01-20 08:37:55.60	67.06	24.36	
2025-01-20 08:37:55.80	67.01	24.37	
2025-01-20 08:37:56.00	66.95	24.38	
2025-01-20 08:37:56.20	66.90	24.39	
2025-01-20 08:37:56.41	66.84	24.40	
2025-01-20 08:37:56.61	66.79	24.41	
2025-01-20 08:37:56.81	66.73	24.42	
2025-01-20 08:37:57.02	66.67	24.43	
2025-01-20 08:37:57.22	66.62	24.44	
2025-01-20 08:37:57.42	66.56	24.45	
2025-01-20 08:37:57.63	66.51	24.46	
2025-01-20 08:37:57.83	66.45	24.47	
2025-01-20 08:37:58.03	66.40	24.48	
2025-01-20 08:37:58.24	66.34	24.50	
2025-01-20 08:37:58.44	66.29	24.51	
2025-01-20 08:37:58.64	66.23	24.52	
2025-01-20 08:37:58.84	66.18	24.53	
2025-01-20 08:37:59.05	66.12	24.54	
2025-01-20 08:37:59.25	66.06	24.55	
2025-01-20 08:37:59.45	66.01	24.56	
2025-01-20 08:37:59.66	65.95	24.57	
2025-01-20 08:37:59.86	65.90	24.58	
2025-01-20 08:38:00.06	65.84	24.59	
2025-01-20 08:38:00.27	65.78	24.60	
2025-01-20 08:38:00.47	65.73	24.61	
2025-01-20 08:38:00.67	65.67	24.62	
2025-01-20 08:38:00.88	65.62	24.63	
2025-01-20 08:38:01.08	65.56	24.64	
2025-01-20 08:38:01.28	65.51	24.65	
2025-01-20 08:38:01.48	65.45	24.66	
2025-01-20 08:38:01.69	65.39	24.67	
2025-01-20 08:38:01.89	65.34	24.68	
2025-01-20 08:38:02.09	65.28	24.69	
2025-01-20 08:38:02.30	65.22	24.70	
2025-01-20 08:38:02.50	65.17	24.71	
2025-01-20 08:38:02.70	65.11	24.71	
2025-01-20 08:38:02.91	65.06	24.72	
2025-01-20 08:38:03.11	65.00	24.73	
2025-01-20 08:38:03.31	64.94	24.74	
2025-01-20 08:38:03.52	64.89	24.75	
2025-01-20 08:38:03.72	64.83	24.76	
2025-01-20 08:38:03.92	64.78	24.77	
2025-01-20 08:38:04.12	64.72	24.78	
2025-01-20 08:38:04.33	64.66	24.79	
2025-01-20 08:38:04.53	64.61	24.80	
2025-01-20 08:38:04.73	64.55	24.81	
2025-01-20 08:38:04.94	64.49	24.82	
2025-01-20 08:38:05.14	64.44	24.83	
2025-01-20 08:38:05.34	64.38	24.84	
2025-01-20 08:38:05.55	64.32	24.85	
2025-01-20 08:38:05.75	64.27	24.86	
2025-01-20 08:38:05.95	64.21	24.87	
2025-01-20 08:38:06.16	64.15	24.88	
2025-01-20 08:38:06.36	64.09	24.88	
2025-01-20 08:38:06.56	64.04	24.89	
2025-01-20 08:38:06.77	63.98	24.90	
2025-01-20 08:38:06.97	63.92	24.91	
2025-01-20 08:38:07.17	63.87	24.92	
2025-01-20 08:38:07.37	63.81	24.93	
2025-01-20 08:38:07.58	63.75	24.94	
2025-01-20 08:38:07.78	63.70	24.95	
2025-01-20 08:38:07.98	63.64	24.96	
2025-01-20 08:38:08.19	63.58	24.97	
2025-01-20 08:38:08.39	63.52	24.98	
2025-01-20 08:38:08.59	63.47	24.98	
2025-01-20 08:38:08.80	63.41	24.99	
2025-01-20 08:38:09.00	63.35	25.00	
2025-01-20 08:38:09.20	63.30	25.01	
2025-01-20 08:38:09.40	63.24	25.02	
2025-01-20 08:38:09.61	63.18	25.03	
2025-01-20 08:38:09.81	63.12	25.04	
2025-01-20 08:38:10.01	63.07	25.05	
2025-01-20 08:38:10.22	63.01	25.05	
2025-01-20 08:38:10.42	62.95	25.06	
2025-01-20 08:38:10.62	62.89	25.07	
2025-01-20 08:38:10.83	62.83	25.08	
2025-01-20 08:38:11.03	62.78	25.09	
2025-01-20 08:38:11.23	62.72	25.10	
2025-01-20 08:38:11.44	62.66	25.11	
2025-01-20 08:38:11.64	62.60	25.11	
2025-01-20 08:38:11.84	62.55	25.12	
2025-01-20 08:38:12.05	62.49	25.13	
2025-01-20 08:38:12.25	62.43	25.14	
2025-01-20 08:38:12.45	62.37	25.15	
2025-01-20 08:38:12.65	62.32	25.16	
2025-01-20 08:38:12.86	62.26	25.16	
2025-01-20 08:38:13.06	62.20	25.17	
2025-01-20 08:38:13.26	62.14	25.18	
2025-01-20 08:38:13.47	62.08	25.19	
2025-01-20 08:38:13.67	62.03	25.20	
2025-01-20 08:38:13.87	61.97	25.21	
2025-01-20 08:38:14.08	61.91	25.21	
2025-01-20 08:38:14.28	61.85	25.22	
2025-01-20 08:38:14.48	61.80	25.23	
2025-01-20 08:38:14.69	61.73	25.24	
2025-01-20 08:38:14.89	61.68	25.25	
2025-01-20 08:38:15.09	61.62	25.25	
2025-01-20 08:38:15.29	61.56	25.26	
2025-01-20 08:38:15.50	61.50	25.27	
2025-01-20 08:38:15.70	61.45	25.28	
2025-01-20 08:38:15.90	61.39	25.29	
2025-01-20 08:38:16.11	61.33	25.29	
2025-01-20 08:38:16.31	61.27	25.30	
2025-01-20 08:38:16.51	61.21	25.31	
2025-01-20 08:38:16.72	61.15	25.32	
2025-01-20 08:38:16.92	61.09	25.32	
2025-01-20 08:38:17.12	61.04	25.33	
2025-01-20 08:38:17.33	60.98	25.34	
2025-01-20 08:38:17.53	60.92	25.35	
2025-01-20 08:38:17.73	60.86	25.35	
2025-01-20 08:38:17.93	60.80	25.36	
2025-01-20 08:38:18.14	60.74	25.37	
2025-01-20 08:38:18.34	60.68	25.38	
2025-01-20 08:38:18.54	60.63	25.38	
2025-01-20 08:38:18.75	60.57	25.39	
2025-01-20 08:38:18.95	60.51	25.40	
2025-01-20 08:38:19.15	60.45	25.41	
2025-01-20 08:38:19.36	60.39	25.41	
2025-01-20 08:38:19.56	60.33	25.42	
2025-01-20 08:38:19.76	60.27	25.43	
2025-01-20 08:38:19.97	60.21	25.44	
2025-01-20 08:38:20.17	60.16	25.44	
2025-01-20 08:38:20.37	60.10	25.45	
2025-01-20 08:38:20.57	60.04	25.46	
2025-01-20 08:38:20.78	59.98	25.47	
2025-01-20 08:38:20.98	59.92	25.47	
2025-01-20 08:38:21.18	59.86	25.48	
2025-01-20 08:38:21.39	59.80	25.49	
2025-01-20 08:38:21.59	59.74	25.49	
2025-01-20 08:38:21.79	59.68	25.50	
2025-01-20 08:38:22.00	59.62	25.51	
2025-01-20 08:38:22.20	59.56	25.51	
2025-01-20 08:38:22.40	59.51	25.52	
2025-01-20 08:38:22.61	59.45	25.53	
2025-01-20 08:38:22.81	59.39	25.53	
2025-01-20 08:38:23.01	59.33	25.54	
2025-01-20 08:38:23.21	59.27	25.55	
2025-01-20 08:38:23.42	59.21	25.55	
2025-01-20 08:38:23.62	59.15	25.56	
2025-01-20 08:38:23.82	59.09	25.57	
2025-01-20 08:38:24.03	59.03	25.57	
2025-01-20 08:38:24.23	58.97	25.58	
2025-01-20 08:38:24.43	58.91	25.59	
2025-01-20 08:38:24.64	58.85	25.59	
2025-01-20 08:38:24.84	58.79	25.60	
2025-01-20 08:38:25.04	58.73	25.61	
2025-01-20 08:38:25.25	58.67	25.61	
2025-01-20 08:38:25.45	58.61	25.62	
2025-01-20 08:38:25.65	58.56	25.63	
2025-01-20 08:38:25.85	58.50	25.63	
2025-01-20 08:38:26.06	58.44	25.64	
2025-01-20 08:38:26.26	58.38	25.65	
2025-01-20 08:38:26.46	58.32	25.65	
2025-01-20 08:38:26.67	58.26	25.66	
2025-01-20 08:38:26.87	58.20	25.66	
2025-01-20 08:38:27.07	58.14	25.67	
2025-01-20 08:38:27.28	58.08	25.68	
2025-01-20 08:38:27.48	58.02	25.68	
2025-01-20 08:38:27.68	57.96	25.69	
2025-01-20 08:38:27.89	57.90	25.69	
2025-01-20 08:38:28.09	57.84	25.70	
2025-01-20 08:38:28.29	57.78	25.71	
2025-01-20 08:38:28.50	57.72	25.71	
2025-01-20 08:38:28.70	57.66	25.72	
2025-01-20 08:38:28.90	57.60	25.72	
2025-01-20 08:38:29.10	57.54	25.73	
2025-01-20 08:38:29.31	57.48	25.74	
2025-01-20 08:38:29.51	57.42	25.74	
2025-01-20 08:38:29.71	57.36	25.75	
2025-01-20 08:38:29.92	57.30	25.75	
2025-01-20 08:38:30.12	57.24	25.76	
2025-01-20 08:38:30.32	57.18	25.76	
2025-01-20 08:38:30.53	57.12	25.77	
2025-01-20 08:38:30.73	57.06	25.77	
2025-01-20 08:38:30.93	57.00	25.78	
2025-01-20 08:38:31.14	56.94	25.79	
2025-01-20 08:38:31.34	56.88	25.79	
2025-01-20 08:38:31.54	56.82	25.80	
2025-01-20 08:38:31.74	56.76	25.80	
2025-01-20 08:38:31.95	56.70	25.81	
2025-01-20 08:38:32.15	56.64	25.81	
2025-01-20 08:38:32.35	56.58	25.82	
2025-01-20 08:38:32.56	56.51	25.82	
2025-01-20 08:38:32.76	56.46	25.83	
2025-01-20 08:38:32.96	56.40	25.83	
2025-01-20 08:38:33.17	56.33	25.84	
2025-01-20 08:38:33.37	56.27	25.84	
2025-01-20 08:38:33.57	56.21	25.85	
2025-01-20 08:38:33.78	56.15	25.85	
2025-01-20 08:38:33.98	56.09	25.86	
2025-01-20 08:38:34.18	56.03	25.86	
2025-01-20 08:38:34.38	55.97	25.87	
2025-01-20 08:38:34.59	55.91	25.87	
2025-01-20 08:38:34.79	55.85	25.88	
2025-01-20 08:38:34.99	55.79	25.88	
2025-01-20 08:38:35.20	55.73	25.89	
2025-01-20 08:38:35.40	55.67	25.89	
2025-01-20 08:38:35.60	55.61	25.90	
2025-01-20 08:38:35.81	55.55	25.90	
2025-01-20 08:38:36.01	55.49	25.91	
2025-01-20 08:38:36.21	55.43	25.91	
2025-01-20 08:38:36.42	55.36	25.92	
2025-01-20 08:38:36.62	55.30	25.92	
2025-01-20 08:38:36.82	55.25	25.92	
2025-01-20 08:38:37.02	55.19	25.93	
2025-01-20 08:38:37.23	55.12	25.93	
2025-01-20 08:38:37.43	55.06	25.94	
2025-01-20 08:38:37.63	55.00	25.94	
2025-01-20 08:38:37.84	54.94	25.95	
2025-01-20 08:38:38.04	54.88	25.95	
2025-01-20 08:38:38.24	54.82	25.96	
2025-01-20 08:38:38.45	54.76	25.96	
2025-01-20 08:38:38.65	54.70	25.96	
2025-01-20 08:38:38.85	54.64	25.97	
2025-01-20 08:38:39.06	54.57	25.97	
2025-01-20 08:38:39.26	54.51	25.98	
2025-01-20 08:38:39.46	54.45	25.98	
2025-01-20 08:38:39.66	54.39	25.98	
2025-01-20 08:38:39.87	54.33	25.99	
2025-01-20 08:38:40.07	54.27	25.99	
2025-01-20 08:38:40.27	54.21	26.00	
2025-01-20 08:38:40.48	54.15	26.00	
2025-01-20 08:38:40.68	54.09	26.00	
2025-01-20 08:38:40.88	54.03	26.01	
2025-01-20 08:38:41.09	53.96	26.01	
2025-01-20 08:38:41.29	53.90	26.02	
2025-01-20 08:38:41.49	53.84	26.02	
2025-01-20 08:38:41.70	53.78	26.02	
2025-01-20 08:38:41.90	53.72	26.03	
2025-01-20 08:38:42.10	53.66	26.03	
2025-01-20 08:38:42.30	53.60	26.03	
2025-01-20 08:38:42.51	53.54	26.04	
2025-01-20 08:38:42.71	53.48	26.04	
2025-01-20 08:38:42.91	53.42	26.04	
2025-01-20 08:38:43.12	53.35	26.05	
2025-01-20 08:38:43.32	53.29	26.05	
2025-01-20 08:38:43.52	53.23	26.05	
2025-01-20 08:38:43.73	53.17	26.06	
2025-01-20 08:38:43.93	53.11	26.06	
2025-01-20 08:38:44.13	53.05	26.06	
2025-01-20 08:38:44.34	52.99	26.07	
2025-01-20 08:38:44.54	52.93	26.07	
