passes_logs/2025/01/07/X_MFTI_02/X_MFTI_02__20250107_075639_TERRA_rec.log

#Pass ID: 20250107_075639_TERRA
#Satellite: TERRA
#Configuration: TERRA
#Start time: 2025-01-07 07:56:35

#Version: 1.5.20200625
#Station: X_MFTI_02
#Location: 37.5186 lon 55.9291 lat
#TLE: 1 25994U 99068A   23362.45014226  .00000817  00000+0  18168-3 0  9993
#TLE: 2 25994  98.0729  65.8244 0002317 146.5078 343.6211 14.59509299278111

#Time	Az	El	Level	Level2	SNR	BER	Gain	Gain2
2025-01-07 07:56:35.73	13.49	68.61	-76.3	-96.3	3.2	14916221	99	35848
2025-01-07 07:56:35.94	13.47	68.72	-76.3	-96.2	3.3	14905906	99	35569
2025-01-07 07:56:36.15	13.46	68.84	-76.3	-96.2	3.2	14905906	99	35596
2025-01-07 07:56:36.35	13.44	68.95	-76.3	-96.1	3.2	14910247	99	35428
2025-01-07 07:56:36.55	13.42	69.06	-76.3	-96.1	3.2	14910247	99	35401
2025-01-07 07:56:36.75	13.40	69.17	-76.3	-96.2	3.2	14910247	99	35480
2025-01-07 07:56:36.95	13.39	69.28	-76.3	-96.3	3.3	14916076	99	35782
2025-01-07 07:56:37.16	13.37	69.40	-76.3	-96.5	3.5	14916076	99	36681
2025-01-07 07:56:37.36	13.35	69.51	-76.3	-96.2	3.2	14917228	99	35768
2025-01-07 07:56:37.56	13.33	69.62	-76.3	-96.2	3.3	14917228	99	35877
2025-01-07 07:56:37.76	13.31	69.73	-76.3	-96.2	3.2	14917228	99	35827
2025-01-07 07:56:37.97	13.29	69.84	-76.3	-96.2	3.2	14911491	99	35518
2025-01-07 07:56:38.17	13.27	69.96	-76.3	-96.2	3.2	14911491	99	35477
2025-01-07 07:56:38.37	13.25	70.07	-76.3	-96.1	3.4	14894187	99	35407
2025-01-07 07:56:38.57	13.23	70.18	-76.3	-96.3	3.3	14894187	99	35827
2025-01-07 07:56:38.77	13.21	70.29	-76.3	-96.3	3.2	14902976	99	35835
2025-01-07 07:56:38.97	13.19	70.40	-76.3	-96.3	3.2	14902976	99	35845
2025-01-07 07:56:39.19	13.17	70.52	-76.3	-96.2	3.2	14902976	99	35543
2025-01-07 07:56:39.39	13.15	70.64	-76.3	-96.1	3.3	14901756	99	35378
2025-01-07 07:56:39.59	13.13	70.75	-76.3	-96.2	3.2	14901756	99	35521
2025-01-07 07:56:39.81	13.10	70.87	-76.3	-96.2	3.2	14905014	99	35777
2025-01-07 07:56:40.02	13.08	70.99	-76.3	-96.3	3.2	14905014	99	35929
2025-01-07 07:56:40.22	13.06	71.10	-76.3	-96.3	3.2	14905014	99	35893
2025-01-07 07:56:40.42	13.04	71.21	-76.3	-96.3	3.3	14902069	99	35802
2025-01-07 07:56:40.63	13.01	71.33	-76.3	-96.2	3.2	14902069	99	35731
2025-01-07 07:56:40.83	12.99	71.45	-76.3	-96.2	3.2	14911323	99	35676
2025-01-07 07:56:41.03	12.97	71.56	-76.2	-96.1	3.2	14911323	99	35360
2025-01-07 07:56:41.23	12.94	71.67	-76.3	-96.2	3.3	14911323	99	35438
2025-01-07 07:56:41.43	12.92	71.79	-76.3	-96.2	3.3	14900840	99	35497
2025-01-07 07:56:41.63	12.90	71.90	-76.3	-96.3	3.2	14900840	99	35869
2025-01-07 07:56:41.83	12.87	72.01	-76.3	-96.2	3.3	14910301	99	35716
2025-01-07 07:56:42.03	12.85	72.13	-76.2	-96.1	3.3	14910301	99	35538
2025-01-07 07:56:42.25	12.82	72.25	-76.3	-96.3	3.3	14904281	99	35772
2025-01-07 07:56:42.46	12.79	72.37	-76.3	-96.3	3.3	14904281	99	35775
2025-01-07 07:56:42.67	12.76	72.49	-76.3	-96.2	3.2	14904281	99	35548
2025-01-07 07:56:42.87	12.74	72.60	-76.3	-96.2	3.3	14902763	99	35606
2025-01-07 07:56:43.07	12.71	72.72	-76.3	-96.3	3.3	14902763	99	35709
2025-01-07 07:56:43.27	12.68	72.83	-76.3	-96.2	3.3	14905838	99	35733
2025-01-07 07:56:43.47	12.66	72.95	-76.3	-96.2	3.2	14905838	99	35770
2025-01-07 07:56:43.69	12.63	73.07	-76.3	-96.2	3.3	14905838	99	35523
2025-01-07 07:56:43.89	12.60	73.19	-76.3	-96.2	3.3	14918960	99	35679
2025-01-07 07:56:44.09	12.57	73.30	-76.3	-96.2	3.2	14918960	99	35704
2025-01-07 07:56:44.30	12.54	73.42	-76.3	-96.3	3.2	14906044	99	35818
2025-01-07 07:56:44.50	12.51	73.54	-76.3	-96.1	3.3	14906044	99	35422
2025-01-07 07:56:44.70	12.48	73.65	-76.3	-96.3	3.2	14906044	99	35918
2025-01-07 07:56:44.90	12.45	73.77	-76.3	-96.3	3.2	14906394	99	35981
2025-01-07 07:56:45.10	12.42	73.88	-76.3	-96.3	3.2	14906394	99	35936
2025-01-07 07:56:45.31	12.38	74.00	-76.3	-96.2	3.3	14904754	99	35783
2025-01-07 07:56:45.51	12.35	74.12	-76.5	-97.1	3.2	14904754	99	38590
2025-01-07 07:56:45.71	12.32	74.24	-76.3	-96.2	3.3	14904754	99	35629
2025-01-07 07:56:45.91	12.29	74.35	-76.3	-96.2	3.2	14909660	99	35519
2025-01-07 07:56:46.11	12.25	74.47	-76.2	-96.0	3.1	14909660	99	35268
2025-01-07 07:56:46.31	12.22	74.58	-76.3	-96.2	3.4	14892677	99	35536
2025-01-07 07:56:46.51	12.18	74.70	-76.2	-96.1	3.3	14892677	99	35548
2025-01-07 07:56:46.71	12.15	74.82	-76.3	-96.1	3.2	14892677	99	35416
2025-01-07 07:56:46.92	12.11	74.94	-76.2	-95.9	3.3	14866020	99	34943
2025-01-07 07:56:47.12	12.07	75.05	-76.3	-96.1	3.3	14866020	99	35279
2025-01-07 07:56:47.32	12.04	75.17	-76.3	-96.2	3.2	14900917	99	35553
2025-01-07 07:56:47.52	12.00	75.29	-76.3	-96.3	3.3	14900917	99	36131
2025-01-07 07:56:47.72	11.96	75.40	-76.3	-96.3	3.3	14900917	99	36004
2025-01-07 07:56:47.93	11.92	75.53	-76.3	-96.1	3.3	14899993	99	35251
2025-01-07 07:56:48.13	11.88	75.64	-76.3	-96.1	3.3	14899993	99	35191
2025-01-07 07:56:48.33	11.84	75.76	-76.3	-96.2	3.3	14874023	99	35457
2025-01-07 07:56:48.53	11.80	75.88	-76.3	-96.2	3.3	14874023	99	35540
2025-01-07 07:56:48.73	11.76	76.00	-76.3	-96.2	3.3	14874023	99	35642
2025-01-07 07:56:48.93	11.72	76.11	-76.3	-96.5	3.4	14912765	99	37073
2025-01-07 07:56:49.13	11.67	76.23	-76.3	-96.2	3.2	14912765	99	35637
2025-01-07 07:56:49.33	11.63	76.35	-76.2	-96.2	3.3	14915542	99	35699
2025-01-07 07:56:49.53	11.58	76.46	-76.3	-96.2	3.3	14915542	99	35837
2025-01-07 07:56:49.75	11.53	76.59	-76.3	-96.3	3.3	14873580	99	35930
2025-01-07 07:56:49.95	11.49	76.71	-76.3	-96.2	3.3	14873580	99	35710
2025-01-07 07:56:50.15	11.44	76.83	-76.3	-96.2	3.3	14873580	99	35542
2025-01-07 07:56:50.37	11.39	76.96	-76.3	-96.1	3.2	14901885	99	35406
2025-01-07 07:56:50.59	11.33	77.09	-76.3	-96.2	3.3	14901885	99	35499
2025-01-07 07:56:50.79	11.28	77.21	-76.3	-96.2	3.3	14901397	99	35644
2025-01-07 07:56:50.99	11.23	77.33	-76.3	-96.2	3.3	14901397	99	35664
2025-01-07 07:56:51.19	11.18	77.44	-76.3	-96.2	3.2	14901397	99	35594
2025-01-07 07:56:51.39	11.12	77.56	-76.3	-96.1	3.3	14910476	99	35311
2025-01-07 07:56:51.59	11.07	77.68	-76.3	-96.2	3.2	14910476	99	35473
2025-01-07 07:56:51.80	11.01	77.81	-76.3	-96.2	3.2	14907066	99	35748
2025-01-07 07:56:52.00	10.95	77.92	-76.3	-96.2	3.3	14907066	99	35623
2025-01-07 07:56:52.20	10.90	78.04	-76.4	-96.5	3.1	14907066	99	36520
2025-01-07 07:56:52.40	10.84	78.16	-76.3	-96.2	3.3	14916320	99	35610
2025-01-07 07:56:52.60	10.78	78.28	-76.3	-96.2	3.3	14916320	99	35664
2025-01-07 07:56:52.80	10.72	78.40	-76.3	-96.2	3.2	14910408	99	35689
2025-01-07 07:56:53.00	10.65	78.52	-76.3	-96.1	3.3	14910408	99	35362
2025-01-07 07:56:53.20	10.59	78.64	-76.3	-96.2	3.3	14910408	99	35543
2025-01-07 07:56:53.41	10.52	78.76	-76.2	-96.1	3.3	14910156	99	35868
2025-01-07 07:56:53.61	10.45	78.88	-76.3	-96.3	3.3	14910156	99	36039
2025-01-07 07:56:53.82	10.38	79.01	-76.3	-96.3	3.2	14904396	99	35971
2025-01-07 07:56:54.02	10.31	79.13	-76.3	-96.2	3.2	14904396	99	35814
2025-01-07 07:56:54.23	10.23	79.25	-76.3	-96.3	3.2	14904396	99	35838
2025-01-07 07:56:54.43	10.16	79.37	-76.2	-96.2	3.2	14914199	99	35854
2025-01-07 07:56:54.64	10.08	79.50	-76.3	-96.2	3.3	14914199	99	35579
2025-01-07 07:56:54.85	10.00	79.62	-76.3	-96.2	3.3	14911323	99	35810
2025-01-07 07:56:55.05	9.92	79.74	-76.3	-96.3	3.3	14911323	99	35832
2025-01-07 07:56:55.25	9.84	79.86	-76.3	-96.2	3.2	14909973	99	35719
2025-01-07 07:56:55.45	9.75	79.98	-76.3	-96.3	3.3	14909973	99	36012
2025-01-07 07:56:55.65	9.67	80.10	-76.3	-96.3	3.3	14909973	99	35766
2025-01-07 07:56:55.85	9.58	80.22	-76.3	-96.2	3.3	14897872	99	35740
2025-01-07 07:56:56.06	9.49	80.35	-76.3	-96.2	3.2	14897872	99	35735
2025-01-07 07:56:56.26	9.39	80.47	-76.3	-96.3	3.2	14876289	99	35879
2025-01-07 07:56:56.47	9.29	80.59	-76.3	-96.3	3.3	14876289	99	35937
2025-01-07 07:56:56.67	9.20	80.71	-76.3	-96.3	3.2	14876289	99	35965
2025-01-07 07:56:56.87	9.10	80.83	-76.3	-96.3	3.2	14899765	99	35961
2025-01-07 07:56:57.08	8.99	80.96	-76.3	-96.3	3.3	14899765	99	35953
2025-01-07 07:56:57.28	8.88	81.08	-76.4	-97.0	3.1	14875770	99	38171
2025-01-07 07:56:57.48	8.78	81.20	-76.3	-96.3	3.2	14875770	99	35912
2025-01-07 07:56:57.68	8.66	81.32	-76.3	-96.2	3.2	14875770	99	35791
2025-01-07 07:56:57.88	8.55	81.44	-76.3	-96.2	3.2	14887397	99	35691
2025-01-07 07:56:58.08	8.43	81.56	-76.3	-96.3	3.2	14887397	99	35794
2025-01-07 07:56:58.28	8.31	81.68	-76.3	-96.3	3.3	14904724	99	35878
2025-01-07 07:56:58.50	8.17	81.81	-76.3	-96.2	3.2	14904724	99	35582
2025-01-07 07:56:58.70	8.04	81.93	-76.3	-96.3	3.3	14904724	99	35841
2025-01-07 07:56:58.90	7.91	82.06	-76.3	-96.3	3.2	14900115	99	35787
2025-01-07 07:56:59.10	7.77	82.18	-76.3	-96.3	3.3	14900115	99	35808
2025-01-07 07:56:59.31	7.62	82.30	-76.3	-96.3	3.3	14898704	99	35861
2025-01-07 07:56:59.51	7.48	82.42	-76.3	-96.3	3.3	14898704	99	35869
2025-01-07 07:56:59.71	7.32	82.54	-76.3	-96.3	3.3	14898704	99	35862
2025-01-07 07:56:59.92	7.16	82.67	-76.3	-96.2	3.3	14909294	99	35567
2025-01-07 07:57:00.13	6.99	82.80	-76.3	-96.3	3.4	14909294	99	36094
2025-01-07 07:57:00.33	6.82	82.92	-76.3	-96.3	3.4	14885025	99	36024
2025-01-07 07:57:00.53	6.65	83.04	-76.1	-96.1	3.4	14885025	99	36115
2025-01-07 07:57:00.74	6.46	83.16	-76.2	-96.2	3.3	14869255	99	35700
2025-01-07 07:57:00.95	6.26	83.29	-76.3	-96.2	3.2	14869255	99	35527
2025-01-07 07:57:01.15	6.07	83.41	-76.3	-96.1	3.3	14869255	99	35422
2025-01-07 07:57:01.35	5.86	83.53	-76.2	-96.1	3.3	14901962	99	35542
2025-01-07 07:57:01.57	5.63	83.66	-76.3	-96.2	3.3	14901962	99	35579
2025-01-07 07:57:01.77	5.42	83.78	-76.3	-96.2	3.3	14902214	99	35701
2025-01-07 07:57:01.97	5.19	83.90	-76.3	-96.2	3.3	14902214	99	35672
2025-01-07 07:57:02.18	4.94	84.03	-76.3	-96.2	3.2	14902214	99	35693
2025-01-07 07:57:02.38	4.69	84.15	-76.3	-96.2	3.3	14886703	99	35847
2025-01-07 07:57:02.58	4.44	84.27	-76.3	-96.3	3.3	14886703	99	35876
2025-01-07 07:57:02.78	4.17	84.39	-76.3	-96.3	3.3	14901794	99	35945
2025-01-07 07:57:02.98	3.89	84.51	-76.3	-96.2	3.2	14901794	99	35661
2025-01-07 07:57:03.18	3.59	84.63	-76.3	-96.2	3.1	14901794	99	35407
2025-01-07 07:57:03.38	3.29	84.75	-76.3	-96.2	3.3	14898277	99	35754
2025-01-07 07:57:03.59	2.95	84.88	-76.3	-96.2	3.3	14898277	99	35739
2025-01-07 07:57:03.79	2.61	85.00	-76.3	-96.3	3.3	14877227	99	35725
2025-01-07 07:57:03.99	2.26	85.11	-76.5	-97.4	3.3	14877227	99	40022
2025-01-07 07:57:04.19	1.89	85.23	-76.3	-96.2	3.3	14877227	99	35687
2025-01-07 07:57:04.39	1.50	85.35	-76.3	-96.2	3.3	14901771	99	35570
2025-01-07 07:57:04.60	1.07	85.48	-76.3	-96.2	3.2	14901771	99	35518
2025-01-07 07:57:04.81	0.61	85.60	-76.3	-96.2	3.3	14907218	99	35507
2025-01-07 07:57:05.01	0.15	85.72	-76.3	-96.2	3.3	14907218	99	35676
2025-01-07 07:57:05.21	359.67	85.84	-76.3	-96.2	3.3	14907218	99	35635
2025-01-07 07:57:05.41	359.15	85.96	-76.2	-96.1	3.3	14870529	99	35441
2025-01-07 07:57:05.61	358.61	86.07	-76.3	-96.2	3.2	14870529	99	35561
2025-01-07 07:57:05.82	358.00	86.20	-76.3	-96.2	3.3	14907844	99	35558
2025-01-07 07:57:06.02	357.38	86.31	-76.3	-96.3	3.3	14907844	99	35860
2025-01-07 07:57:06.22	356.72	86.43	-76.3	-96.3	3.2	14907844	99	35840
2025-01-07 07:57:06.42	356.02	86.55	-76.3	-96.3	3.3	14912727	99	35852
2025-01-07 07:57:06.62	355.27	86.66	-76.3	-96.3	3.2	14912727	99	35859
2025-01-07 07:57:06.82	354.46	86.78	-76.3	-96.3	3.3	14871154	99	35922
2025-01-07 07:57:07.03	353.55	86.90	-76.3	-96.3	3.3	14871154	99	35874
2025-01-07 07:57:07.23	352.62	87.01	-76.3	-96.2	3.2	14871154	99	35839
2025-01-07 07:57:07.43	351.61	87.12	-76.2	-96.0	3.2	14891830	99	35388
2025-01-07 07:57:07.63	350.52	87.23	-76.3	-96.2	3.2	14891830	99	35679
2025-01-07 07:57:07.83	349.34	87.34	-76.3	-96.1	3.2	14913764	99	35115
2025-01-07 07:57:08.05	347.92	87.46	-76.3	-96.2	3.3	14913764	99	35663
2025-01-07 07:57:08.25	346.51	87.57	-76.3	-96.2	3.3	14868453	99	35694
2025-01-07 07:57:08.45	344.97	87.68	-76.3	-96.2	3.2	14868453	99	35745
2025-01-07 07:57:08.67	343.11	87.79	-76.3	-96.3	3.3	14868453	99	35980
2025-01-07 07:57:08.87	341.24	87.89	-76.3	-96.2	3.3	14891128	99	35836
2025-01-07 07:57:09.07	339.19	87.99	-76.3	-96.4	3.7	14891128	99	36566
2025-01-07 07:57:09.27	336.92	88.09	-76.3	-96.2	3.2	14898544	99	35714
2025-01-07 07:57:09.47	334.42	88.18	-76.2	-96.0	3.3	14898544	99	35437
2025-01-07 07:57:09.67	331.65	88.27	-76.3	-96.2	3.3	14898544	99	35596
2025-01-07 07:57:09.87	328.58	88.36	-76.3	-96.1	3.3	14875221	99	35346
2025-01-07 07:57:10.07	325.19	88.44	-76.3	-96.2	3.2	14875221	99	35528
2025-01-07 07:57:10.28	321.25	88.52	-76.3	-96.2	3.3	14889205	99	35464
2025-01-07 07:57:10.48	317.12	88.58	-76.3	-96.1	3.2	14889205	99	35409
2025-01-07 07:57:10.68	312.61	88.64	-76.3	-96.1	3.3	14889205	99	35340
2025-01-07 07:57:10.88	307.72	88.69	-76.3	-96.1	3.1	14911087	99	35323
2025-01-07 07:57:11.09	302.23	88.73	-76.3	-96.3	3.2	14911087	99	35982
2025-01-07 07:57:11.29	296.71	88.76	-76.3	-96.3	3.2	14902664	99	36030
2025-01-07 07:57:11.49	291.00	88.77	-76.2	-96.1	3.3	14902664	99	35605
2025-01-07 07:57:11.69	285.20	88.78	-76.3	-96.3	3.3	14902664	99	35858
2025-01-07 07:57:11.89	279.44	88.77	-76.3	-96.2	3.3	14904495	99	35796
2025-01-07 07:57:12.09	273.82	88.74	-76.3	-96.3	3.3	14904495	99	36036
2025-01-07 07:57:12.29	268.44	88.71	-76.3	-96.4	3.3	14910346	99	36069
2025-01-07 07:57:12.50	263.13	88.66	-76.3	-96.2	3.3	14910346	99	35689
2025-01-07 07:57:12.70	258.44	88.61	-76.3	-96.3	3.3	14910346	99	35966
2025-01-07 07:57:12.90	254.14	88.55	-76.3	-96.3	3.3	14906555	99	35987
2025-01-07 07:57:13.10	250.21	88.48	-76.3	-96.3	3.2	14906555	99	35784
2025-01-07 07:57:13.30	246.64	88.40	-76.3	-96.2	3.3	14911193	99	35767
2025-01-07 07:57:13.50	243.41	88.32	-76.3	-96.2	3.3	14911193	99	35617
2025-01-07 07:57:13.70	240.49	88.23	-76.3	-96.2	3.3	14911193	99	35595
2025-01-07 07:57:13.92	237.61	88.13	-76.3	-96.3	3.2	14901344	99	35797
2025-01-07 07:57:14.12	235.24	88.03	-76.3	-96.3	3.4	14901344	99	35996
2025-01-07 07:57:14.32	233.10	87.94	-76.3	-96.3	3.3	14904571	99	35915
2025-01-07 07:57:14.52	231.16	87.83	-76.3	-96.3	3.3	14904571	99	35898
2025-01-07 07:57:14.73	229.31	87.73	-76.3	-96.2	3.2	14904571	99	35624
2025-01-07 07:57:14.93	227.71	87.62	-76.3	-96.3	3.3	14869796	99	35976
2025-01-07 07:57:15.14	226.17	87.51	-76.3	-96.3	3.3	14869796	99	35782
2025-01-07 07:57:15.34	224.83	87.40	-76.3	-96.2	3.2	14901725	99	35533
2025-01-07 07:57:15.55	223.54	87.28	-76.3	-96.1	3.5	14901725	99	35278
2025-01-07 07:57:15.75	222.41	87.17	-76.5	-97.4	3.3	14898315	99	39811
2025-01-07 07:57:15.95	221.36	87.06	-76.1	-96.1	3.3	14898315	99	35687
2025-01-07 07:57:16.15	220.40	86.95	-76.3	-96.2	3.3	14898315	99	35529
2025-01-07 07:57:16.36	219.46	86.83	-76.3	-96.2	3.3	14909530	99	35572
2025-01-07 07:57:16.56	218.62	86.71	-76.3	-96.2	3.3	14909530	99	35549
2025-01-07 07:57:16.76	217.85	86.60	-76.2	-96.1	3.3	14913635	99	35509
2025-01-07 07:57:16.96	217.12	86.48	-76.3	-96.4	3.3	14913635	99	36241
2025-01-07 07:57:17.16	216.44	86.37	-76.3	-96.3	3.3	14913635	99	36011
2025-01-07 07:57:17.36	215.81	86.25	-76.3	-96.3	3.2	14910217	99	36000
2025-01-07 07:57:17.57	215.18	86.13	-76.3	-96.3	3.2	14910217	99	35991
2025-01-07 07:57:17.77	214.62	86.01	-76.3	-96.1	3.2	14916168	99	35359
2025-01-07 07:57:17.97	214.09	85.89	-76.3	-96.1	3.3	14916168	99	35440
2025-01-07 07:57:18.17	213.59	85.77	-76.3	-96.3	3.3	14916168	99	36050
2025-01-07 07:57:18.37	213.12	85.66	-76.3	-96.3	3.2	14901794	99	36016
2025-01-07 07:57:18.57	212.68	85.54	-76.2	-96.2	3.2	14901794	99	35810
2025-01-07 07:57:18.77	212.25	85.42	-76.3	-96.3	3.3	14909965	99	36056
2025-01-07 07:57:18.98	211.83	85.29	-76.3	-96.3	3.3	14909965	99	36074
2025-01-07 07:57:19.18	211.45	85.17	-76.3	-96.2	3.3	14909965	99	35768
2025-01-07 07:57:19.38	211.09	85.06	-76.3	-96.3	3.3	14913902	99	35988
2025-01-07 07:57:19.60	210.71	84.92	-76.3	-96.3	3.2	14913902	99	36007
2025-01-07 07:57:19.80	210.38	84.80	-76.2	-96.2	3.3	14912513	99	35908
2025-01-07 07:57:20.00	210.07	84.68	-76.2	-96.2	3.2	14912513	99	35933
2025-01-07 07:57:20.20	209.77	84.56	-76.3	-96.2	3.1	14907501	99	35851
2025-01-07 07:57:20.41	209.47	84.44	-76.3	-96.3	3.2	14907501	99	36223
2025-01-07 07:57:20.61	209.20	84.32	-76.3	-96.2	3.3	14907501	99	35540
2025-01-07 07:57:20.81	208.94	84.20	-76.2	-96.4	3.5	14900520	99	36521
2025-01-07 07:57:21.01	208.68	84.08	-76.2	-96.1	3.3	14900520	99	35559
2025-01-07 07:57:21.21	208.44	83.96	-76.3	-96.2	3.3	14900123	99	35531
2025-01-07 07:57:21.41	208.21	83.84	-76.2	-96.1	3.3	14900123	99	35457
2025-01-07 07:57:21.61	207.99	83.72	-76.2	-96.1	3.2	14900123	99	35540
2025-01-07 07:57:21.81	207.78	83.60	-76.2	-96.3	3.2	14897766	99	36051
2025-01-07 07:57:22.02	207.56	83.47	-76.2	-96.3	3.3	14897766	99	36110
2025-01-07 07:57:22.22	207.36	83.35	-76.3	-96.3	3.2	14912200	99	36156
2025-01-07 07:57:22.42	207.17	83.23	-76.3	-96.2	3.2	14912200	99	35705
2025-01-07 07:57:22.62	206.99	83.11	-76.2	-96.2	3.2	14912200	99	35860
2025-01-07 07:57:22.83	206.80	82.98	-76.3	-96.2	3.2	14906791	99	35922
2025-01-07 07:57:23.04	206.62	82.86	-76.3	-96.3	3.2	14906791	99	35918
2025-01-07 07:57:23.25	206.45	82.73	-76.2	-96.2	3.3	14915267	99	35886
2025-01-07 07:57:23.45	206.29	82.61	-76.3	-96.2	3.2	14915267	99	35893
2025-01-07 07:57:23.66	206.13	82.48	-76.2	-96.2	3.2	14915267	99	35738
2025-01-07 07:57:23.86	205.98	82.36	-76.2	-96.2	3.2	14909118	99	35667
2025-01-07 07:57:24.07	205.82	82.23	-76.3	-96.2	3.2	14909118	99	35522
2025-01-07 07:57:24.27	205.68	82.11	-76.3	-96.2	3.3	14917549	99	35576
2025-01-07 07:57:24.49	205.54	81.98	-76.2	-96.2	3.3	14917549	99	35879
2025-01-07 07:57:24.69	205.40	81.86	-76.2	-96.1	3.3	14920219	99	35571
2025-01-07 07:57:24.89	205.28	81.74	-76.1	-96.1	3.3	14920219	99	35938
2025-01-07 07:57:25.11	205.14	81.61	-76.2	-96.1	3.3	14920219	99	35934
2025-01-07 07:57:25.31	205.02	81.49	-76.3	-96.2	3.3	14903701	99	35841
2025-01-07 07:57:25.51	204.91	81.37	-76.2	-96.1	3.3	14903701	99	35801
2025-01-07 07:57:25.71	204.79	81.25	-76.2	-96.2	3.3	14909149	99	35662
2025-01-07 07:57:25.91	204.68	81.13	-76.2	-96.0	3.2	14909149	99	35373
2025-01-07 07:57:26.12	204.57	81.00	-76.2	-96.1	3.3	14909149	99	35627
2025-01-07 07:57:26.32	204.47	80.88	-76.2	-96.2	3.3	14917694	99	35705
2025-01-07 07:57:26.53	204.36	80.75	-76.3	-96.2	3.3	14917694	99	35797
2025-01-07 07:57:26.73	204.26	80.63	-76.3	-96.2	3.2	14902122	99	35777
2025-01-07 07:57:26.93	204.17	80.51	-76.2	-96.1	3.2	14902122	99	35663
2025-01-07 07:57:27.14	204.07	80.39	-76.3	-96.2	3.3	14902122	99	35780
2025-01-07 07:57:27.34	203.98	80.27	-76.3	-96.2	3.3	14906272	99	35796
2025-01-07 07:57:27.54	203.89	80.15	-76.2	-96.2	3.3	14906272	99	35971
2025-01-07 07:57:27.74	203.80	80.03	-76.2	-96.2	3.2	14901428	99	35952
2025-01-07 07:57:27.94	203.72	79.91	-76.3	-96.2	3.5	14901428	99	35569
2025-01-07 07:57:28.14	203.64	79.79	-76.3	-96.3	3.4	14901428	99	36100
2025-01-07 07:57:28.34	203.56	79.67	-76.3	-96.3	3.3	14902099	99	35954
2025-01-07 07:57:28.55	203.48	79.54	-76.3	-96.2	3.2	14902099	99	35820
2025-01-07 07:57:28.75	203.40	79.42	-76.3	-96.2	3.2	14873001	99	35769
2025-01-07 07:57:28.95	203.32	79.30	-76.2	-96.1	3.2	14873001	99	35604
2025-01-07 07:57:29.15	203.25	79.18	-76.4	-96.9	3.2	14873001	99	38173
2025-01-07 07:57:29.35	203.18	79.06	-76.3	-96.3	3.2	14910507	99	35995
2025-01-07 07:57:29.55	203.11	78.94	-76.3	-96.2	3.2	14910507	99	35634
2025-01-07 07:57:29.76	203.04	78.82	-76.3	-96.2	3.3	14888404	99	35804
2025-01-07 07:57:29.96	202.97	78.70	-76.2	-96.1	3.3	14888404	99	35567
2025-01-07 07:57:30.16	202.91	78.58	-76.3	-96.2	3.2	14888404	99	35756
2025-01-07 07:57:30.36	202.84	78.46	-76.3	-96.2	3.3	14896179	99	35727
2025-01-07 07:57:30.56	202.78	78.34	-76.3	-96.3	3.2	14896179	99	35751
2025-01-07 07:57:30.76	202.72	78.22	-76.3	-96.2	3.3	14908172	99	35720
2025-01-07 07:57:30.97	202.66	78.10	-76.3	-96.2	3.2	14908172	99	35769
2025-01-07 07:57:31.17	202.60	77.98	-76.3	-96.2	3.3	14908172	99	35927
2025-01-07 07:57:31.37	202.54	77.86	-76.3	-96.2	3.3	14907241	99	35885
2025-01-07 07:57:31.57	202.48	77.74	-76.3	-96.2	3.3	14907241	99	35797
2025-01-07 07:57:31.77	202.43	77.62	-76.3	-96.2	3.3	14908180	99	35716
2025-01-07 07:57:31.97	202.38	77.50	-76.3	-96.2	3.3	14908180	99	35546
2025-01-07 07:57:32.18	202.32	77.38	-76.3	-96.2	3.3	14908180	99	35608
2025-01-07 07:57:32.38	202.27	77.26	-76.3	-96.2	3.3	14903968	99	35875
2025-01-07 07:57:32.58	202.22	77.14	-76.2	-96.6	3.3	14903968	99	37753
2025-01-07 07:57:32.78	202.17	77.02	-76.3	-96.3	3.3	14909057	99	36100
2025-01-07 07:57:32.98	202.12	76.90	-76.3	-96.3	3.3	14909057	99	36058
2025-01-07 07:57:33.18	202.07	76.79	-76.3	-96.3	3.2	14927085	99	36029
2025-01-07 07:57:33.40	202.02	76.66	-76.3	-96.3	3.3	14927085	99	35895
2025-01-07 07:57:33.60	201.97	76.54	-76.3	-96.2	3.2	14927085	99	35553
2025-01-07 07:57:33.80	201.93	76.42	-76.3	-96.3	3.3	14907997	99	35872
2025-01-07 07:57:34.00	201.88	76.30	-76.3	-96.4	3.2	14907997	99	36415
2025-01-07 07:57:34.22	201.83	76.17	-76.5	-97.5	3.1	14912345	99	40477
2025-01-07 07:57:34.42	201.79	76.06	-76.3	-96.4	3.3	14912345	99	36478
2025-01-07 07:57:34.62	201.75	75.94	-76.3	-96.3	3.3	14912345	99	36008
2025-01-07 07:57:34.82	201.71	75.82	-76.2	-96.1	3.3	14912452	99	35606
2025-01-07 07:57:35.03	201.66	75.70	-76.3	-96.2	3.3	14912452	99	35562
2025-01-07 07:57:35.23	201.62	75.58	-76.3	-96.1	3.2	14906539	99	35499
2025-01-07 07:57:35.43	201.58	75.46	-76.2	-96.1	3.3	14906539	99	35428
2025-01-07 07:57:35.63	201.55	75.35	-76.2	-96.3	3.3	14906539	99	36211
2025-01-07 07:57:35.85	201.50	75.22	-76.4	-96.7	3.3	14895973	99	37356
2025-01-07 07:57:36.05	201.47	75.10	-76.3	-96.4	3.3	14895973	99	36250
2025-01-07 07:57:36.25	201.43	74.99	-76.3	-96.4	3.3	14874053	99	36360
2025-01-07 07:57:36.45	201.39	74.87	-76.3	-96.3	3.3	14874053	99	36160
2025-01-07 07:57:36.66	201.36	74.75	-76.2	-96.2	3.2	14874053	99	35622
2025-01-07 07:57:36.86	201.32	74.63	-76.2	-96.0	3.3	14897041	99	35349
2025-01-07 07:57:37.06	201.29	74.51	-76.2	-96.1	3.2	14897041	99	35473
2025-01-07 07:57:37.27	201.25	74.39	-76.2	-96.1	3.1	14900497	99	35398
2025-01-07 07:57:37.47	201.22	74.28	-76.2	-96.2	3.3	14900497	99	35845
2025-01-07 07:57:37.68	201.18	74.15	-76.2	-96.2	3.3	14900497	99	35879
2025-01-07 07:57:37.88	201.15	74.04	-76.3	-96.2	3.3	14882705	99	35845
2025-01-07 07:57:38.08	201.12	73.92	-76.2	-96.2	3.3	14882705	99	35960
2025-01-07 07:57:38.29	201.09	73.80	-76.3	-96.2	3.3	14890472	99	35833
2025-01-07 07:57:38.49	201.06	73.69	-76.3	-96.2	3.2	14890472	99	35835
2025-01-07 07:57:38.69	201.03	73.57	-76.2	-96.2	3.2	14898963	99	35667
2025-01-07 07:57:38.91	200.99	73.44	-76.2	-96.3	3.3	14898963	99	36191
2025-01-07 07:57:39.11	200.96	73.33	-76.3	-96.3	3.3	14898963	99	35991
2025-01-07 07:57:39.31	200.94	73.21	-76.2	-96.2	3.3	14907463	99	36031
2025-01-07 07:57:39.51	200.91	73.10	-76.2	-96.3	3.3	14907463	99	36138
2025-01-07 07:57:39.71	200.88	72.98	-76.3	-96.3	3.3	14886787	99	36001
2025-01-07 07:57:39.91	200.85	72.87	-76.2	-96.3	3.2	14886787	99	36150
2025-01-07 07:57:40.11	200.82	72.76	-76.3	-96.3	3.2	14886787	99	35930
2025-01-07 07:57:40.32	200.80	72.64	-76.2	-96.2	3.3	14911254	99	35921
2025-01-07 07:57:40.52	200.77	72.52	-76.3	-96.2	3.3	14911254	99	35834
2025-01-07 07:57:40.72	200.74	72.41	-76.3	-96.3	3.3	14874954	99	35993
2025-01-07 07:57:40.92	200.72	72.29	-76.4	-97.0	3.3	14874954	99	38515
2025-01-07 07:57:41.14	200.69	72.17	-76.3	-96.3	3.3	14874954	99	35922
2025-01-07 07:57:41.34	200.66	72.05	-76.3	-96.3	3.3	14893745	99	35868
2025-01-07 07:57:41.54	200.64	71.94	-76.3	-96.3	3.3	14893745	99	35908
2025-01-07 07:57:41.74	200.62	71.83	-76.2	-96.2	3.2	14901794	99	35807
2025-01-07 07:57:41.95	200.59	71.71	-76.3	-96.3	3.4	14901794	99	35853
2025-01-07 07:57:42.15	200.57	71.59	-76.3	-96.3	3.3	14901794	99	35841
2025-01-07 07:57:42.36	200.54	71.47	-76.3	-96.2	3.3	14887832	99	35899
2025-01-07 07:57:42.56	200.52	71.36	-76.3	-96.3	3.3	14887832	99	35900
2025-01-07 07:57:42.76	200.50	71.25	-76.2	-96.2	3.3	14885047	99	35721
2025-01-07 07:57:42.96	200.47	71.14	-76.3	-96.2	3.2	14885047	99	35773
2025-01-07 07:57:43.18	200.45	71.01	-76.2	-96.2	3.2	14885047	99	35888
2025-01-07 07:57:43.38	200.43	70.90	-76.3	-96.3	3.2	14897056	99	35982
2025-01-07 07:57:43.58	200.41	70.79	-76.3	-96.3	3.3	14897056	99	36012
2025-01-07 07:57:43.78	200.38	70.67	-76.3	-96.3	3.3	14899879	99	35959
2025-01-07 07:57:43.98	200.36	70.56	-76.2	-96.2	3.3	14899879	99	35986

#Closed at: 2025-01-07 07:57:44