passes_logs/2025/01/09/LEX_Murmansk/LEX_Murmansk__20250109_165557_NOAA_19_rec.log

#Pass ID: 20250109_165557_NOAA 19
#Satellite: NOAA 19
#Configuration: NOAA 19
#Start time: 2025-01-09 16:55:52.334310

#LorettStation: 1.0.0 05.05.2024
#Station: LEX_Murmansk
#Location: 33.156738 lon 68.926811 lat
#TLE: 1 33591U 09005A   25008.91550554  .00000294  00000+0  18118-3 0  9990
#TLE: 2 33591  99.0208  72.6306 0014612  73.7755 286.5023 14.13254864820423

#Time	Az	El	Level	SNR
2025-01-09 16:56:04.565095	128.7	16.3	-90.1	5.4
2025-01-09 16:56:05.726638	128.6	16.4	-90.0	5.7
2025-01-09 16:56:06.885065	128.6	16.6	-89.8	5.9
2025-01-09 16:56:08.049048	128.5	16.7	-89.9	9.6
2025-01-09 16:56:09.204988	128.4	16.8	-89.7	8.5
2025-01-09 16:56:10.362302	128.4	16.9	-89.9	7.8
2025-01-09 16:56:11.523683	128.3	17.1	-89.5	5.2
2025-01-09 16:56:12.687957	128.3	17.2	-89.9	4.3
2025-01-09 16:56:13.849723	128.2	17.3	-89.9	3.0
2025-01-09 16:56:15.010288	128.2	17.5	-90.1	1.4
2025-01-09 16:56:16.166707	128.1	17.6	-90.0	2.2
2025-01-09 16:56:17.318793	128.0	17.7	-90.0	6.3
2025-01-09 16:56:18.479223	128.0	17.9	-90.3	8.6
2025-01-09 16:56:19.631816	127.9	18.0	-90.7	11.9
2025-01-09 16:56:20.795848	127.9	18.1	-90.4	9.8
2025-01-09 16:56:21.955379	127.8	18.3	-90.4	7.8
2025-01-09 16:56:23.117964	127.7	18.4	-90.1	9.4
2025-01-09 16:56:24.279289	127.7	18.6	-90.1	9.0
2025-01-09 16:56:25.447444	127.6	18.7	-90.4	11.5
2025-01-09 16:56:26.603539	127.5	18.8	-90.5	10.9
2025-01-09 16:56:27.764106	127.5	19.0	-90.4	7.0
2025-01-09 16:56:28.923199	127.4	19.1	-90.1	2.4
2025-01-09 16:56:30.080336	127.4	19.3	-90.4	4.2
2025-01-09 16:56:31.243196	127.3	19.4	-90.3	4.0
2025-01-09 16:56:32.400677	127.2	19.5	-90.4	4.1
2025-01-09 16:56:33.562615	127.2	19.7	-90.5	9.5
2025-01-09 16:56:34.724419	127.1	19.8	-90.1	10.3
2025-01-09 16:56:35.886162	127.0	20.0	-90.2	13.4
2025-01-09 16:56:37.058972	126.9	20.1	-90.0	11.6
2025-01-09 16:56:38.193703	126.9	20.3	-89.9	7.7
2025-01-09 16:56:39.344159	126.8	20.4	-90.3	8.5
2025-01-09 16:56:40.499653	126.7	20.6	-90.1	12.9
2025-01-09 16:56:41.664161	126.7	20.7	-90.5	11.8
2025-01-09 16:56:42.825833	126.6	20.9	-90.2	10.5
2025-01-09 16:56:43.983997	126.5	21.0	-90.6	5.3
2025-01-09 16:56:45.145443	126.4	21.2	-90.6	5.2
2025-01-09 16:56:46.303743	126.4	21.3	-90.0	2.2
2025-01-09 16:56:47.461926	126.3	21.5	-90.0	4.5
2025-01-09 16:56:48.624218	126.2	21.6	-90.5	5.2
2025-01-09 16:56:49.776163	126.1	21.8	-90.3	10.4
2025-01-09 16:56:50.938976	126.1	22.0	-90.4	14.0
2025-01-09 16:56:52.104306	126.0	22.1	-90.2	13.1
2025-01-09 16:56:53.268813	125.9	22.3	-90.5	9.4
2025-01-09 16:56:54.429919	125.8	22.4	-90.8	7.8
2025-01-09 16:56:55.588287	125.7	22.6	-91.0	10.2
2025-01-09 16:56:56.754174	125.6	22.8	-91.1	8.7
2025-01-09 16:56:57.916334	125.6	22.9	-90.9	11.0
2025-01-09 16:56:59.074789	125.5	23.1	-90.8	11.7
2025-01-09 16:57:00.229970	125.4	23.2	-90.9	5.7
2025-01-09 16:57:01.380842	125.3	23.4	-90.6	4.4
2025-01-09 16:57:02.536995	125.2	23.6	-90.8	3.6
2025-01-09 16:57:03.701247	125.1	23.7	-91.1	2.2
2025-01-09 16:57:04.865679	125.0	23.9	-91.0	3.3
2025-01-09 16:57:06.030424	124.9	24.1	-90.8	6.5
2025-01-09 16:57:07.192105	124.9	24.2	-91.1	11.1
2025-01-09 16:57:08.357488	124.8	24.4	-91.4	11.8
2025-01-09 16:57:09.519539	124.7	24.6	-91.5	9.7
2025-01-09 16:57:10.673260	124.6	24.8	-91.7	7.3
2025-01-09 16:57:11.836908	124.5	24.9	-91.2	6.4
2025-01-09 16:57:12.989242	124.4	25.1	-91.4	9.7
2025-01-09 16:57:14.152483	124.3	25.3	-91.2	9.7
2025-01-09 16:57:15.314027	124.2	25.5	-91.3	8.6
2025-01-09 16:57:16.476597	124.1	25.7	-91.5	5.7
2025-01-09 16:57:17.630283	124.0	25.8	-91.4	2.3
2025-01-09 16:57:18.795527	123.9	26.0	-91.4	1.4
2025-01-09 16:57:19.953921	123.8	26.2	-91.4	2.3
2025-01-09 16:57:21.119422	123.7	26.4	-91.3	1.7
2025-01-09 16:57:22.276902	123.6	26.6	-91.2	2.3
2025-01-09 16:57:23.442198	123.4	26.7	-91.6	4.5
2025-01-09 16:57:24.606690	123.3	26.9	-91.4	2.2
2025-01-09 16:57:25.766222	123.2	27.1	-91.6	3.0
2025-01-09 16:57:26.931122	123.1	27.3	-91.4	4.2
2025-01-09 16:57:28.088650	123.0	27.5	-90.8	4.7
2025-01-09 16:57:29.247971	122.9	27.7	-90.7	2.8
2025-01-09 16:57:30.412675	122.8	27.9	-91.3	2.6
2025-01-09 16:57:31.561927	122.7	28.1	-90.5	5.2
2025-01-09 16:57:32.715104	122.5	28.3	-91.1	5.9
2025-01-09 16:57:33.844891	122.4	28.5	-91.2	5.2
2025-01-09 16:57:34.966508	122.3	28.7	-91.4	4.7
2025-01-09 16:57:36.087872	122.2	28.8	-91.7	2.6
2025-01-09 16:57:37.209135	122.1	29.0	-91.5	2.4
2025-01-09 16:57:38.329671	121.9	29.2	-91.4	1.8
2025-01-09 16:57:39.451321	121.8	29.4	-91.6	3.4
2025-01-09 16:57:40.571257	121.7	29.6	-91.8	7.9
2025-01-09 16:57:41.696766	121.6	29.8	-91.9	7.4
2025-01-09 16:57:42.826046	121.4	30.0	-91.8	8.2
2025-01-09 16:57:43.976673	121.3	30.2	-91.8	9.4
2025-01-09 16:57:45.125683	121.2	30.4	-91.4	8.3
2025-01-09 16:57:46.280362	121.0	30.6	-91.6	6.3
2025-01-09 16:57:47.440399	120.9	30.9	-91.1	7.7
2025-01-09 16:57:48.601646	120.7	31.1	-91.1	11.1
2025-01-09 16:57:49.759441	120.6	31.3	-91.0	10.6
2025-01-09 16:57:50.919479	120.4	31.5	-90.8	6.7
2025-01-09 16:57:52.251726	120.3	31.7	-91.0	4.6
2025-01-09 16:57:53.500984	120.1	32.0	-91.0	1.8
2025-01-09 16:57:54.659190	120.0	32.2	-90.8	1.8
2025-01-09 16:57:55.821152	119.8	32.4	-90.8	0.2
2025-01-09 16:57:56.974570	119.7	32.6	-91.2	5.0
2025-01-09 16:57:58.129874	119.5	32.9	-91.4	5.6
2025-01-09 16:57:59.295719	119.3	33.1	-91.2	11.2
2025-01-09 16:58:00.440768	119.2	33.3	-91.4	11.8
2025-01-09 16:58:01.592652	119.0	33.5	-91.3	10.9
2025-01-09 16:58:02.758036	118.8	33.8	-91.4	7.8
2025-01-09 16:58:03.913252	118.7	34.0	-91.4	8.4
2025-01-09 16:58:05.076280	118.5	34.2	-91.4	8.7
2025-01-09 16:58:06.234700	118.3	34.5	-91.3	7.6
2025-01-09 16:58:07.391086	118.1	34.7	-91.4	12.1
2025-01-09 16:58:08.548120	118.0	34.9	-91.6	11.1
2025-01-09 16:58:09.715674	117.8	35.2	-91.5	4.8
2025-01-09 16:58:10.871186	117.6	35.4	-91.6	3.9
2025-01-09 16:58:12.032575	117.4	35.7	-91.6	5.4
2025-01-09 16:58:13.193260	117.2	35.9	-91.4	3.0
2025-01-09 16:58:14.352868	117.0	36.1	-91.5	2.0
2025-01-09 16:58:15.506109	116.8	36.4	-91.6	3.7
2025-01-09 16:58:16.665724	116.6	36.6	-91.4	5.4
2025-01-09 16:58:17.826288	116.4	36.9	-91.5	4.6
2025-01-09 16:58:18.988551	116.2	37.1	-91.6	4.0
2025-01-09 16:58:20.144174	116.0	37.4	-91.4	9.6
2025-01-09 16:58:21.304387	115.8	37.6	-91.4	7.5
2025-01-09 16:58:22.473532	115.6	37.9	-91.5	9.5
2025-01-09 16:58:23.628821	115.3	38.1	-91.6	8.2
2025-01-09 16:58:24.791144	115.1	38.4	-91.7	4.2
2025-01-09 16:58:25.953849	114.9	38.7	-91.5	10.5
2025-01-09 16:58:27.114653	114.6	38.9	-91.3	14.1
2025-01-09 16:58:28.278496	114.4	39.2	-91.2	14.9
2025-01-09 16:58:29.442456	114.2	39.4	-91.4	8.6
2025-01-09 16:58:30.596787	113.9	39.7	-90.9	4.6
2025-01-09 16:58:31.761105	113.7	40.0	-91.5	3.2
2025-01-09 16:58:32.920922	113.4	40.2	-91.2	4.0
2025-01-09 16:58:34.083132	113.2	40.5	-91.3	2.9
2025-01-09 16:58:35.238331	112.9	40.8	-90.5	4.0
2025-01-09 16:58:36.400358	112.6	41.0	-91.5	4.0
2025-01-09 16:58:37.550982	112.4	41.3	-91.2	6.9
2025-01-09 16:58:38.671347	112.1	41.6	-91.4	12.9
2025-01-09 16:58:39.792621	111.8	41.8	-91.1	10.9
2025-01-09 16:58:40.913517	111.6	42.1	-91.3	11.3
2025-01-09 16:58:42.033708	111.3	42.4	-91.1	13.6
2025-01-09 16:58:43.153822	111.0	42.6	-90.9	5.3
2025-01-09 16:58:44.274505	110.7	42.9	-91.1	4.3
2025-01-09 16:58:45.398886	110.4	43.2	-91.0	6.0
2025-01-09 16:58:46.541330	110.1	43.5	-91.2	18.2
2025-01-09 16:58:47.701301	109.8	43.7	-91.4	15.9
2025-01-09 16:58:48.878479	109.5	44.0	-91.4	17.2
2025-01-09 16:58:50.033369	109.2	44.3	-91.2	11.3
2025-01-09 16:58:51.206115	108.8	44.6	-91.2	7.5
2025-01-09 16:58:52.365788	108.5	44.9	-91.3	4.3
2025-01-09 16:58:53.522842	108.1	45.2	-91.3	5.2
2025-01-09 16:58:54.686548	107.8	45.5	-91.5	2.0
2025-01-09 16:58:55.849386	107.4	45.8	-91.3	1.6
2025-01-09 16:58:57.012262	107.1	46.0	-91.4	5.6
2025-01-09 16:58:58.175978	106.7	46.3	-91.0	7.9
2025-01-09 16:58:59.330005	106.3	46.6	-90.9	9.4
2025-01-09 16:59:00.473695	106.0	46.9	-90.7	8.9
2025-01-09 16:59:01.642443	105.6	47.2	-90.8	13.0
2025-01-09 16:59:02.804444	105.2	47.5	-91.3	12.8
2025-01-09 16:59:03.973179	104.8	47.8	-91.3	13.4
2025-01-09 16:59:05.131792	104.3	48.1	-91.0	10.6
2025-01-09 16:59:06.291252	103.9	48.4	-91.0	6.4
2025-01-09 16:59:07.448433	103.5	48.7	-91.5	9.3
2025-01-09 16:59:08.608288	103.0	49.0	-91.3	9.3
2025-01-09 16:59:09.770080	102.6	49.3	-91.5	5.6
2025-01-09 16:59:10.930580	102.1	49.6	-91.4	14.3
2025-01-09 16:59:12.091037	101.7	49.9	-91.2	12.9
2025-01-09 16:59:13.255716	101.2	50.1	-91.1	10.3
2025-01-09 16:59:14.412943	100.7	50.4	-91.2	9.0
2025-01-09 16:59:15.577084	100.2	50.7	-91.0	4.2
2025-01-09 16:59:16.725134	99.7	51.0	-91.5	2.3
2025-01-09 16:59:17.884403	99.2	51.3	-91.2	3.8
2025-01-09 16:59:19.043364	98.7	51.6	-90.9	2.2
2025-01-09 16:59:20.200047	98.2	51.9	-90.6	1.7
2025-01-09 16:59:21.363764	97.6	52.2	-90.7	2.3
2025-01-09 16:59:22.516477	97.1	52.5	-90.9	5.4
2025-01-09 16:59:23.679746	96.5	52.8	-90.8	7.6
2025-01-09 16:59:24.842306	95.9	53.1	-90.7	13.2
2025-01-09 16:59:26.013581	95.3	53.3	-90.7	14.2
2025-01-09 16:59:27.178026	94.7	53.6	-90.2	14.5
2025-01-09 16:59:28.332856	94.1	53.9	-90.2	9.5
2025-01-09 16:59:29.498284	93.5	54.2	-90.6	9.0
2025-01-09 16:59:30.651061	92.9	54.5	-90.8	8.0
2025-01-09 16:59:31.803088	92.2	54.7	-90.9	7.0
2025-01-09 16:59:32.924720	91.6	55.0	-90.8	8.6
2025-01-09 16:59:34.045049	90.9	55.3	-90.9	10.4
2025-01-09 16:59:35.164998	90.3	55.5	-90.6	8.8
2025-01-09 16:59:36.286238	89.6	55.8	-90.8	7.8
2025-01-09 16:59:37.405215	88.9	56.0	-90.8	11.5
2025-01-09 16:59:38.525740	88.2	56.3	-90.8	11.5
2025-01-09 16:59:39.645942	87.5	56.5	-90.0	14.7
2025-01-09 16:59:40.783648	86.8	56.8	-90.4	16.4
2025-01-09 16:59:41.937748	86.0	57.0	-90.9	12.6
2025-01-09 16:59:43.094178	85.2	57.3	-91.0	12.9
2025-01-09 16:59:44.240505	84.4	57.5	-90.9	9.0
2025-01-09 16:59:45.400027	83.6	57.8	-90.9	6.1
2025-01-09 16:59:46.556053	82.8	58.0	-90.8	6.8
2025-01-09 16:59:47.718369	82.0	58.2	-90.6	4.8
2025-01-09 16:59:48.861021	81.2	58.4	-90.9	4.2
2025-01-09 16:59:50.006375	80.3	58.7	-91.2	4.3
2025-01-09 16:59:51.141811	79.4	58.9	-91.2	5.3
2025-01-09 16:59:52.285538	78.6	59.1	-91.1	2.7
2025-01-09 16:59:53.420524	77.7	59.3	-91.5	5.3
2025-01-09 16:59:54.542200	76.8	59.5	-91.7	8.2
2025-01-09 16:59:55.666431	75.9	59.6	-91.4	10.8
2025-01-09 16:59:56.790610	75.0	59.8	-91.3	10.4
2025-01-09 16:59:57.940057	74.0	60.0	-91.3	14.4
2025-01-09 16:59:59.067222	73.1	60.2	-91.3	14.4
2025-01-09 17:00:00.188578	72.1	60.3	-91.4	7.3
2025-01-09 17:00:01.309271	71.2	60.5	-91.6	7.0
2025-01-09 17:00:02.430524	70.2	60.6	-91.5	9.3
2025-01-09 17:00:03.551547	69.2	60.7	-91.5	11.5
2025-01-09 17:00:04.672563	68.2	60.9	-91.5	8.2
2025-01-09 17:00:05.812645	67.2	61.0	-91.2	9.5
2025-01-09 17:00:06.956945	66.2	61.1	-91.6	14.4
2025-01-09 17:00:08.092201	65.1	61.2	-91.1	15.4
2025-01-09 17:00:09.220871	64.1	61.3	-91.0	15.1
2025-01-09 17:00:10.344840	63.0	61.4	-90.9	17.6
2025-01-09 17:00:11.482268	62.0	61.5	-91.3	18.6
2025-01-09 17:00:12.609639	60.9	61.6	-90.6	16.1
2025-01-09 17:00:13.737785	59.9	61.6	-90.3	12.2
2025-01-09 17:00:14.859293	58.8	61.7	-90.1	14.6
2025-01-09 17:00:15.981399	57.7	61.7	-90.8	15.2
2025-01-09 17:00:17.101659	56.7	61.8	-90.7	13.1
2025-01-09 17:00:18.223337	55.6	61.8	-90.5	10.5
2025-01-09 17:00:19.345073	54.5	61.8	-91.0	7.5
2025-01-09 17:00:20.466863	53.4	61.9	-91.2	10.0
2025-01-09 17:00:21.587292	52.3	61.9	-91.4	9.4
2025-01-09 17:00:22.710058	51.3	61.9	-91.0	7.7
2025-01-09 17:00:23.831558	50.2	61.8	-91.3	5.4
2025-01-09 17:00:24.952112	49.1	61.8	-91.0	7.0
2025-01-09 17:00:26.074853	48.0	61.8	-91.3	8.5
2025-01-09 17:00:27.199314	46.9	61.8	-91.2	5.5
2025-01-09 17:00:28.325838	45.9	61.7	-91.1	5.3
2025-01-09 17:00:29.449565	44.8	61.6	-91.4	5.3
2025-01-09 17:00:30.571458	43.7	61.6	-91.3	5.5
2025-01-09 17:00:31.694526	42.7	61.5	-91.0	4.4
2025-01-09 17:00:32.815658	41.6	61.4	-91.0	5.3
2025-01-09 17:00:33.935948	40.6	61.3	-91.1	6.3
2025-01-09 17:00:35.070025	39.6	61.2	-91.3	5.5
2025-01-09 17:00:36.234020	38.5	61.1	-91.3	4.1
2025-01-09 17:00:37.390496	37.4	61.0	-91.0	7.1
2025-01-09 17:00:38.547947	36.4	60.9	-91.1	3.8
2025-01-09 17:00:39.708311	35.4	60.8	-91.2	3.7
2025-01-09 17:00:40.863655	34.4	60.6	-90.8	5.7
2025-01-09 17:00:42.019173	33.4	60.5	-90.5	8.1
2025-01-09 17:00:43.182999	32.4	60.3	-90.2	3.4
2025-01-09 17:00:44.342278	31.4	60.1	-90.8	2.7
2025-01-09 17:00:45.507301	30.4	60.0	-91.0	7.4
2025-01-09 17:00:46.666555	29.5	59.8	-90.8	7.7
2025-01-09 17:00:47.826300	28.5	59.6	-90.8	4.7
2025-01-09 17:00:48.983659	27.6	59.4	-90.9	7.0
2025-01-09 17:00:50.146637	26.7	59.2	-91.0	6.3
2025-01-09 17:00:51.301111	25.8	59.0	-90.5	4.8
2025-01-09 17:00:52.472222	24.9	58.8	-91.1	7.9
2025-01-09 17:00:53.631968	24.0	58.6	-90.8	8.3
2025-01-09 17:00:54.794683	23.2	58.4	-90.8	6.2
2025-01-09 17:00:55.948917	22.3	58.1	-90.8	3.1
2025-01-09 17:00:57.098732	21.5	57.9	-90.5	1.5
2025-01-09 17:00:58.225554	20.7	57.7	-90.8	4.2
2025-01-09 17:00:59.347023	19.9	57.5	-90.7	4.5
2025-01-09 17:01:00.468803	19.2	57.2	-91.3	4.5
2025-01-09 17:01:01.591699	18.4	57.0	-91.1	3.8
2025-01-09 17:01:02.711884	17.7	56.7	-91.1	3.4
2025-01-09 17:01:03.832968	17.0	56.5	-91.1	0.0
2025-01-09 17:01:04.953426	16.2	56.3	-91.0	4.0
2025-01-09 17:01:06.077924	15.6	56.0	-91.4	0.8
2025-01-09 17:01:07.204311	14.9	55.7	-91.4	2.4
2025-01-09 17:01:08.363515	14.2	55.5	-91.3	2.0
2025-01-09 17:01:09.514409	13.5	55.2	-91.5	5.0
2025-01-09 17:01:10.674506	12.8	54.9	-91.4	3.3
2025-01-09 17:01:11.836418	12.2	54.7	-91.5	2.0
2025-01-09 17:01:12.997878	11.5	54.4	-91.3	3.6
2025-01-09 17:01:14.156163	10.9	54.1	-91.3	7.2
2025-01-09 17:01:15.316695	10.3	53.8	-91.2	3.6
2025-01-09 17:01:16.479815	9.7	53.6	-91.2	3.9
2025-01-09 17:01:17.641907	9.1	53.3	-91.0	7.7
2025-01-09 17:01:18.801977	8.5	53.0	-91.2	2.9
2025-01-09 17:01:19.957584	7.9	52.7	-91.5	5.9
2025-01-09 17:01:21.116272	7.4	52.4	-91.2	7.1
2025-01-09 17:01:22.284709	6.8	52.1	-91.2	6.6
2025-01-09 17:01:23.445801	6.3	51.8	-91.3	7.0
2025-01-09 17:01:24.612930	5.7	51.5	-91.1	6.9
2025-01-09 17:01:25.773968	5.2	51.2	-91.0	6.2
2025-01-09 17:01:26.940090	4.7	50.9	-91.3	7.9
2025-01-09 17:01:28.095800	4.2	50.7	-91.4	8.3
2025-01-09 17:01:29.255629	3.7	50.4	-91.3	8.2
2025-01-09 17:01:30.419162	3.2	50.1	-91.2	9.9
2025-01-09 17:01:31.576646	2.8	49.8	-91.4	15.9
2025-01-09 17:01:32.730459	2.3	49.5	-91.2	10.0
2025-01-09 17:01:33.890529	1.9	49.2	-91.4	15.9
2025-01-09 17:01:35.052029	1.4	48.9	-91.2	17.3
2025-01-09 17:01:36.208112	1.0	48.6	-90.6	13.1
2025-01-09 17:01:37.370566	0.6	48.3	-91.1	15.2
2025-01-09 17:01:38.530478	0.1	48.0	-91.4	15.6
2025-01-09 17:01:39.692771	359.7	47.7	-91.4	13.0
2025-01-09 17:01:40.845525	359.3	47.4	-91.1	15.5
2025-01-09 17:01:42.007537	358.9	47.1	-91.4	10.2
2025-01-09 17:01:43.169616	358.5	46.9	-91.5	12.8
2025-01-09 17:01:44.342503	358.2	46.6	-91.0	11.7
2025-01-09 17:01:45.499408	357.8	46.3	-91.4	14.3
2025-01-09 17:01:46.668525	357.4	46.0	-90.9	10.2
2025-01-09 17:01:47.833204	357.1	45.7	-91.2	7.0
2025-01-09 17:01:49.001185	356.7	45.4	-91.4	10.5
2025-01-09 17:01:50.161623	356.3	45.1	-90.9	8.9
2025-01-09 17:01:51.320091	356.0	44.8	-91.2	5.8
2025-01-09 17:01:52.483596	355.7	44.5	-91.2	10.3
2025-01-09 17:01:53.641639	355.3	44.3	-91.2	10.8
2025-01-09 17:01:54.804077	355.0	44.0	-91.5	6.9
2025-01-09 17:01:55.961034	354.7	43.7	-91.2	8.5
2025-01-09 17:01:57.125953	354.4	43.4	-90.9	10.8
2025-01-09 17:01:58.282052	354.1	43.1	-91.0	8.8
2025-01-09 17:01:59.440040	353.8	42.8	-91.7	12.3
2025-01-09 17:02:00.589860	353.5	42.6	-91.1	14.8
2025-01-09 17:02:01.749889	353.2	42.3	-91.2	13.5
2025-01-09 17:02:02.907657	352.9	42.0	-91.5	15.8
2025-01-09 17:02:04.074299	352.6	41.7	-91.6	18.4
2025-01-09 17:02:05.233507	352.4	41.5	-91.1	18.6
2025-01-09 17:02:06.395666	352.1	41.2	-90.9	16.9
2025-01-09 17:02:07.560052	351.8	40.9	-91.0	15.6
2025-01-09 17:02:08.724729	351.6	40.7	-90.3	12.6
2025-01-09 17:02:09.883421	351.3	40.4	-91.4	12.1
2025-01-09 17:02:11.041578	351.1	40.1	-91.4	14.2
2025-01-09 17:02:12.206085	350.8	39.9	-91.1	9.2
2025-01-09 17:02:13.365992	350.6	39.6	-91.4	6.4
2025-01-09 17:02:14.524078	350.3	39.3	-91.3	10.8
2025-01-09 17:02:15.687258	350.1	39.1	-91.5	7.1
2025-01-09 17:02:16.849859	349.8	38.8	-91.3	5.9
2025-01-09 17:02:18.006504	349.6	38.6	-91.4	9.6
2025-01-09 17:02:19.169035	349.4	38.3	-91.4	8.3
2025-01-09 17:02:20.326307	349.2	38.0	-91.2	6.0
2025-01-09 17:02:21.481207	348.9	37.8	-91.7	9.6
2025-01-09 17:02:22.644352	348.7	37.5	-91.4	9.6
2025-01-09 17:02:23.801465	348.5	37.3	-91.1	8.9
2025-01-09 17:02:24.958559	348.3	37.0	-91.0	13.2
2025-01-09 17:02:26.125748	348.1	36.8	-90.9	9.3
2025-01-09 17:02:27.285969	347.9	36.5	-91.3	11.8
2025-01-09 17:02:28.449655	347.7	36.3	-91.5	10.6
2025-01-09 17:02:29.608381	347.5	36.1	-91.3	9.3
2025-01-09 17:02:30.769229	347.3	35.8	-91.3	6.7
2025-01-09 17:02:31.922659	347.1	35.6	-91.4	6.7
2025-01-09 17:02:33.080555	346.9	35.3	-91.2	3.6
2025-01-09 17:02:34.250133	346.8	35.1	-91.1	4.1
2025-01-09 17:02:35.409957	346.6	34.9	-91.7	4.8
2025-01-09 17:02:36.571048	346.4	34.6	-91.4	4.9
2025-01-09 17:02:37.727712	346.2	34.4	-91.1	3.1
2025-01-09 17:02:38.890296	346.0	34.2	-91.5	3.9
2025-01-09 17:02:40.044287	345.9	33.9	-90.8	5.6
2025-01-09 17:02:41.204258	345.7	33.7	-91.6	7.0
2025-01-09 17:02:42.363404	345.5	33.5	-91.5	8.7
2025-01-09 17:02:43.523275	345.4	33.2	-91.8	10.9
2025-01-09 17:02:44.674975	345.2	33.0	-91.2	14.3
2025-01-09 17:02:45.841881	345.0	32.8	-91.4	14.4
2025-01-09 17:02:47.003203	344.9	32.6	-91.8	11.2
2025-01-09 17:02:48.172659	344.7	32.4	-91.5	11.8
2025-01-09 17:02:49.335042	344.6	32.1	-91.5	9.4
2025-01-09 17:02:50.503014	344.4	31.9	-91.2	8.8
2025-01-09 17:02:51.658772	344.3	31.7	-91.3	9.1
2025-01-09 17:02:52.817001	344.1	31.5	-91.4	2.2
2025-01-09 17:02:53.984062	344.0	31.3	-91.2	5.9
2025-01-09 17:02:55.139146	343.8	31.1	-91.0	7.7
2025-01-09 17:02:56.302537	343.7	30.8	-91.4	6.1
2025-01-09 17:02:57.464482	343.6	30.6	-91.6	6.0
2025-01-09 17:02:58.625928	343.4	30.4	-91.9	7.6
2025-01-09 17:02:59.782881	343.3	30.2	-91.3	11.6
2025-01-09 17:03:00.931904	343.2	30.0	-91.6	11.8
2025-01-09 17:03:02.090838	343.0	29.8	-91.3	13.4
2025-01-09 17:03:03.257228	342.9	29.6	-91.2	9.9
2025-01-09 17:03:04.419125	342.8	29.4	-91.1	6.9
2025-01-09 17:03:05.579325	342.6	29.2	-91.5	4.9
2025-01-09 17:03:06.742242	342.5	29.0	-91.6	3.4
2025-01-09 17:03:07.893767	342.4	28.8	-91.3	3.0
2025-01-09 17:03:09.030035	342.3	28.6	-91.6	1.0
2025-01-09 17:03:10.199222	342.1	28.4	-91.1	1.2
2025-01-09 17:03:11.350751	342.0	28.2	-91.3	2.1
2025-01-09 17:03:12.513629	341.9	28.0	-91.3	2.9
2025-01-09 17:03:13.671893	341.8	27.8	-91.4	4.1
2025-01-09 17:03:14.832048	341.7	27.6	-91.2	7.2
2025-01-09 17:03:15.987505	341.6	27.5	-91.3	9.6
2025-01-09 17:03:17.154810	341.5	27.3	-91.2	8.0
2025-01-09 17:03:18.309887	341.3	27.1	-91.1	2.4
2025-01-09 17:03:19.474218	341.2	26.9	-91.8	10.3
2025-01-09 17:03:20.637090	341.1	26.7	-91.5	9.7
2025-01-09 17:03:21.794957	341.0	26.5	-91.4	8.1
2025-01-09 17:03:22.951996	340.9	26.3	-91.8	7.8
2025-01-09 17:03:24.124002	340.8	26.2	-91.3	4.7
2025-01-09 17:03:25.278946	340.7	26.0	-91.2	4.1
2025-01-09 17:03:26.442714	340.6	25.8	-91.4	4.6
2025-01-09 17:03:27.607109	340.5	25.6	-91.1	3.5
2025-01-09 17:03:28.771769	340.4	25.4	-91.2	4.5
2025-01-09 17:03:29.932785	340.3	25.3	-91.5	6.1
2025-01-09 17:03:31.088213	340.2	25.1	-92.0	8.2
2025-01-09 17:03:32.251037	340.1	24.9	-91.6	6.3
2025-01-09 17:03:33.412584	340.0	24.7	-91.3	5.2
2025-01-09 17:03:34.571339	339.9	24.6	-91.6	8.4
2025-01-09 17:03:35.728450	339.8	24.4	-91.8	5.5
2025-01-09 17:03:36.893947	339.7	24.2	-91.7	7.3
2025-01-09 17:03:38.051826	339.6	24.1	-91.3	4.4
2025-01-09 17:03:39.217221	339.6	23.9	-91.4	2.1
2025-01-09 17:03:40.370999	339.5	23.7	-91.5	2.8
2025-01-09 17:03:41.532694	339.4	23.6	-91.6	3.8
2025-01-09 17:03:42.692679	339.3	23.4	-91.8	5.1
2025-01-09 17:03:43.853790	339.2	23.2	-91.4	5.2
2025-01-09 17:03:45.010402	339.1	23.1	-91.3	6.3
2025-01-09 17:03:46.172606	339.0	22.9	-91.6	6.6
2025-01-09 17:03:47.332198	339.0	22.7	-91.4	11.1
2025-01-09 17:03:48.493626	338.9	22.6	-91.5	12.3
2025-01-09 17:03:49.657913	338.8	22.4	-91.7	9.9
2025-01-09 17:03:50.814125	338.7	22.3	-90.5	8.7
2025-01-09 17:03:51.970516	338.6	22.1	-90.6	8.1
2025-01-09 17:03:53.129956	338.6	21.9	-91.3	6.5
2025-01-09 17:03:54.293326	338.5	21.8	-91.2	3.2
2025-01-09 17:03:55.455193	338.4	21.6	-91.3	7.3
2025-01-09 17:03:56.617771	338.3	21.5	-91.3	4.4
2025-01-09 17:03:57.781734	338.2	21.3	-91.2	4.5
2025-01-09 17:03:58.943557	338.2	21.2	-91.4	8.9
2025-01-09 17:04:00.104930	338.1	21.0	-91.3	8.8
2025-01-09 17:04:01.248580	338.0	20.9	-91.0	6.1
2025-01-09 17:04:02.403903	338.0	20.7	-91.2	9.0
2025-01-09 17:04:03.562055	337.9	20.6	-91.5	8.7
2025-01-09 17:04:04.714783	337.8	20.4	-91.6	5.8
2025-01-09 17:04:05.876108	337.7	20.3	-91.7	3.1
2025-01-09 17:04:07.030134	337.7	20.1	-91.7	3.3
2025-01-09 17:04:08.184415	337.6	20.0	-91.2	4.3
2025-01-09 17:04:09.344901	337.5	19.8	-91.4	3.2
2025-01-09 17:04:10.509918	337.5	19.7	-91.5	2.6
2025-01-09 17:04:11.658092	337.4	19.6	-91.2	2.4
2025-01-09 17:04:12.820088	337.3	19.4	-91.3	1.8
2025-01-09 17:04:13.978508	337.3	19.3	-91.5	3.4
2025-01-09 17:04:15.139270	337.2	19.1	-91.3	4.7
2025-01-09 17:04:16.297426	337.1	19.0	-91.1	5.1
2025-01-09 17:04:17.457178	337.1	18.8	-91.4	8.4
2025-01-09 17:04:18.592481	337.0	18.7	-91.3	5.3
2025-01-09 17:04:19.713183	337.0	18.6	-90.7	3.6
2025-01-09 17:04:20.876185	336.9	18.4	-91.0	3.6
2025-01-09 17:04:22.033725	336.8	18.3	-91.2	2.4
2025-01-09 17:04:23.192286	336.8	18.2	-91.5	2.4
2025-01-09 17:04:24.329997	336.7	18.0	-90.9	0.8
2025-01-09 17:04:25.487166	336.7	17.9	-91.3	4.3
2025-01-09 17:04:26.653793	336.6	17.8	-91.3	4.1
2025-01-09 17:04:27.820380	336.5	17.6	-91.3	3.7
2025-01-09 17:04:28.982181	336.5	17.5	-91.4	3.6
2025-01-09 17:04:30.145774	336.4	17.4	-91.7	3.6
2025-01-09 17:04:31.302176	336.4	17.2	-91.4	4.8
2025-01-09 17:04:32.460615	336.3	17.1	-91.5	3.9
2025-01-09 17:04:33.620665	336.3	17.0	-91.3	4.5
2025-01-09 17:04:34.784146	336.2	16.8	-91.5	3.5
2025-01-09 17:04:35.946779	336.1	16.7	-91.3	2.7
2025-01-09 17:04:37.109485	336.1	16.6	-90.9	2.4
2025-01-09 17:04:38.270783	336.0	16.5	-90.6	3.2
2025-01-09 17:04:39.424637	336.0	16.3	-91.3	2.8
2025-01-09 17:04:40.584671	335.9	16.2	-91.3	1.3
2025-01-09 17:04:41.746074	335.9	16.1	-91.2	1.5
2025-01-09 17:04:42.909364	335.8	16.0	-91.4	2.9
2025-01-09 17:04:44.071622	335.8	15.8	-91.6	2.5
2025-01-09 17:04:45.237015	335.7	15.7	-91.2	2.2
2025-01-09 17:04:46.395623	335.7	15.6	-91.4	4.4
2025-01-09 17:04:47.552917	335.6	15.5	-91.1	3.4
2025-01-09 17:04:48.714658	335.6	15.3	-91.3	2.9
2025-01-09 17:04:49.879392	335.5	15.2	-91.5	3.2
2025-01-09 17:04:51.041055	335.5	15.1	-91.4	2.9
2025-01-09 17:04:52.196001	335.4	15.0	-90.9	2.5
2025-01-09 17:04:53.361563	335.4	14.9	-91.2	2.0
2025-01-09 17:04:54.514824	335.3	14.7	-91.4	2.4
2025-01-09 17:04:55.682173	335.3	14.6	-91.5	1.7
2025-01-09 17:04:57.026614	335.2	14.5	-91.5	2.2
#Closed at: 2025-01-09 16:55:57.360746