passes_logs/2025/01/09/LEX_Murmansk/LEX_Murmansk__20250109_190250_NOAA_18_rec.log

#Pass ID: 20250109_190250_NOAA 18
#Satellite: NOAA 18
#Configuration: NOAA 18
#Start time: 2025-01-09 19:02:45.295950

#LorettStation: 1.0.0 05.05.2024
#Station: LEX_Murmansk
#Location: 33.156738 lon 68.926811 lat
#TLE: 1 28654U 05018A   25008.86276551  .00000342  00000+0  20484-3 0  9993
#TLE: 2 28654  98.8578  89.9777 0014066 196.4292 163.6427 14.13481270 12237

#Time	Az	El	Level	SNR
2025-01-09 19:03:07.501289	157.6	17.4	-91.0	5.1
2025-01-09 19:03:08.668392	157.6	17.6	-91.8	3.1
2025-01-09 19:03:09.827104	157.6	17.7	-91.1	2.9
2025-01-09 19:03:10.991183	157.6	17.8	-90.7	5.1
2025-01-09 19:03:12.146048	157.7	18.0	-90.6	4.8
2025-01-09 19:03:13.306957	157.7	18.1	-90.5	4.6
2025-01-09 19:03:14.458042	157.7	18.3	-92.0	5.3
2025-01-09 19:03:15.626725	157.7	18.4	-91.7	6.5
2025-01-09 19:03:16.789279	157.7	18.5	-92.1	6.6
2025-01-09 19:03:17.953253	157.7	18.7	-92.3	3.8
2025-01-09 19:03:19.118830	157.8	18.8	-92.1	3.9
2025-01-09 19:03:20.287445	157.8	19.0	-91.4	5.6
2025-01-09 19:03:21.451467	157.8	19.1	-92.0	6.8
2025-01-09 19:03:22.612589	157.8	19.3	-91.6	6.5
2025-01-09 19:03:23.776547	157.8	19.4	-92.3	8.3
2025-01-09 19:03:24.939768	157.9	19.5	-91.9	9.6
2025-01-09 19:03:26.109225	157.9	19.7	-92.0	10.1
2025-01-09 19:03:27.269518	157.9	19.8	-91.9	9.6
2025-01-09 19:03:28.429542	157.9	20.0	-92.0	8.0
2025-01-09 19:03:29.593703	157.9	20.1	-92.1	6.7
2025-01-09 19:03:30.757261	158.0	20.3	-92.1	9.1
2025-01-09 19:03:31.925203	158.0	20.4	-92.1	7.8
2025-01-09 19:03:33.083737	158.0	20.6	-90.4	7.0
2025-01-09 19:03:34.245604	158.0	20.7	-90.8	5.9
2025-01-09 19:03:35.409275	158.0	20.9	-92.2	7.6
2025-01-09 19:03:36.583925	158.1	21.1	-92.4	2.5
2025-01-09 19:03:37.748046	158.1	21.2	-92.4	7.6
2025-01-09 19:03:38.913615	158.1	21.4	-91.9	9.8
2025-01-09 19:03:40.075357	158.1	21.5	-91.7	7.3
2025-01-09 19:03:41.237189	158.2	21.7	-92.0	8.8
2025-01-09 19:03:42.399211	158.2	21.8	-91.7	9.3
2025-01-09 19:03:43.562766	158.2	22.0	-91.9	6.6
2025-01-09 19:03:44.731922	158.2	22.2	-91.3	9.2
2025-01-09 19:03:45.893775	158.2	22.3	-90.9	8.5
2025-01-09 19:03:47.057828	158.3	22.5	-89.1	9.7
2025-01-09 19:03:48.218271	158.3	22.6	-91.9	12.4
2025-01-09 19:03:49.387745	158.3	22.8	-91.5	12.6
2025-01-09 19:03:50.552713	158.3	23.0	-91.9	6.7
2025-01-09 19:03:51.712186	158.4	23.1	-92.0	10.7
2025-01-09 19:03:52.880000	158.4	23.3	-92.3	13.9
2025-01-09 19:03:54.044732	158.4	23.5	-92.1	6.5
2025-01-09 19:03:55.204783	158.4	23.7	-91.8	10.5
2025-01-09 19:03:56.369208	158.5	23.8	-92.0	12.9
2025-01-09 19:03:57.530114	158.5	24.0	-89.0	12.9
2025-01-09 19:03:58.689182	158.5	24.2	-92.2	11.0
2025-01-09 19:03:59.846476	158.5	24.4	-92.2	8.2
2025-01-09 19:04:00.995737	158.6	24.5	-91.9	9.0
2025-01-09 19:04:02.162297	158.6	24.7	-92.0	10.8
2025-01-09 19:04:03.323377	158.6	24.9	-92.4	11.0
2025-01-09 19:04:04.488143	158.6	25.1	-91.9	11.3
2025-01-09 19:04:05.651496	158.7	25.2	-92.0	11.8
2025-01-09 19:04:06.816839	158.7	25.4	-92.1	12.2
2025-01-09 19:04:07.984441	158.7	25.6	-91.7	5.8
2025-01-09 19:04:09.148988	158.7	25.8	-87.8	4.9
2025-01-09 19:04:10.316031	158.8	26.0	-91.4	8.9
2025-01-09 19:04:11.477888	158.8	26.2	-91.9	8.4
2025-01-09 19:04:12.645855	158.8	26.4	-91.8	8.8
2025-01-09 19:04:13.801515	158.9	26.6	-92.2	8.7
2025-01-09 19:04:14.963405	158.9	26.7	-91.5	8.0
2025-01-09 19:04:16.128679	158.9	26.9	-91.4	6.9
2025-01-09 19:04:17.293443	158.9	27.1	-91.1	4.9
2025-01-09 19:04:18.456873	159.0	27.3	-88.7	6.8
2025-01-09 19:04:19.618161	159.0	27.5	-92.5	12.4
2025-01-09 19:04:20.780220	159.0	27.7	-91.6	13.0
2025-01-09 19:04:21.950630	159.1	27.9	-92.5	10.4
2025-01-09 19:04:23.112009	159.1	28.1	-92.3	8.1
2025-01-09 19:04:24.275838	159.1	28.3	-92.5	12.6
2025-01-09 19:04:25.440544	159.2	28.5	-92.0	5.3
2025-01-09 19:04:26.607323	159.2	28.7	-92.5	5.6
2025-01-09 19:04:27.767901	159.2	28.9	-91.7	11.4
2025-01-09 19:04:28.931496	159.2	29.2	-92.3	9.9
2025-01-09 19:04:30.095503	159.3	29.4	-91.9	8.5
2025-01-09 19:04:31.274659	159.3	29.6	-92.1	9.6
2025-01-09 19:04:32.437979	159.3	29.8	-92.2	6.7
2025-01-09 19:04:33.601697	159.4	30.0	-92.2	6.4
2025-01-09 19:04:34.765170	159.4	30.2	-92.2	11.4
2025-01-09 19:04:35.922359	159.5	30.4	-92.1	9.8
2025-01-09 19:04:37.093930	159.5	30.7	-90.8	10.6
2025-01-09 19:04:38.259906	159.5	30.9	-92.0	12.4
2025-01-09 19:04:39.433530	159.6	31.1	-92.2	11.7
2025-01-09 19:04:40.596754	159.6	31.3	-92.2	8.0
2025-01-09 19:04:41.756619	159.6	31.6	-92.2	11.1
2025-01-09 19:04:42.918132	159.7	31.8	-92.1	5.3
2025-01-09 19:04:44.083067	159.7	32.0	-92.3	7.8
2025-01-09 19:04:45.252575	159.7	32.2	-92.3	10.6
2025-01-09 19:04:46.416329	159.8	32.5	-92.2	9.0
2025-01-09 19:04:47.583007	159.8	32.7	-91.4	12.1
2025-01-09 19:04:48.747438	159.9	33.0	-92.2	14.3
2025-01-09 19:04:49.873754	159.9	33.2	-92.5	15.2
2025-01-09 19:04:50.999056	159.9	33.4	-92.1	11.8
2025-01-09 19:04:52.156728	160.0	33.7	-92.4	13.0
2025-01-09 19:04:53.320980	160.0	33.9	-91.5	15.0
2025-01-09 19:04:54.487236	160.1	34.2	-92.3	18.5
2025-01-09 19:04:55.653736	160.1	34.4	-92.4	12.9
2025-01-09 19:04:56.822717	160.2	34.7	-92.0	9.7
2025-01-09 19:04:57.988580	160.2	34.9	-92.2	7.3
2025-01-09 19:04:59.154902	160.2	35.2	-92.4	6.8
2025-01-09 19:05:00.305425	160.3	35.4	-91.9	10.4
2025-01-09 19:05:01.460346	160.3	35.7	-92.0	3.7
2025-01-09 19:05:02.615705	160.4	35.9	-92.2	5.9
2025-01-09 19:05:03.782924	160.4	36.2	-91.9	10.3
2025-01-09 19:05:04.950645	160.5	36.5	-91.8	6.7
2025-01-09 19:05:06.112587	160.5	36.7	-92.1	9.4
2025-01-09 19:05:07.280554	160.6	37.0	-92.2	11.8
2025-01-09 19:05:08.444481	160.6	37.3	-92.3	8.3
2025-01-09 19:05:09.616394	160.7	37.5	-91.3	11.2
2025-01-09 19:05:10.772541	160.7	37.8	-92.0	12.5
2025-01-09 19:05:11.933855	160.8	38.1	-91.6	11.1
2025-01-09 19:05:13.098246	160.8	38.4	-92.4	12.3
2025-01-09 19:05:14.258595	160.9	38.7	-92.1	14.8
2025-01-09 19:05:15.425004	160.9	38.9	-92.4	10.7
2025-01-09 19:05:16.587207	161.0	39.2	-91.5	7.5
2025-01-09 19:05:17.754643	161.1	39.5	-89.9	9.5
2025-01-09 19:05:18.918718	161.1	39.8	-91.5	4.4
2025-01-09 19:05:20.086993	161.2	40.1	-91.1	8.0
2025-01-09 19:05:21.249228	161.2	40.4	-91.0	11.0
2025-01-09 19:05:22.411859	161.3	40.7	-91.3	11.5
2025-01-09 19:05:23.575026	161.4	41.0	-91.8	13.4
2025-01-09 19:05:24.741719	161.4	41.3	-89.5	11.7
2025-01-09 19:05:25.896555	161.5	41.6	-91.6	14.2
2025-01-09 19:05:27.079563	161.6	41.9	-91.8	12.7
2025-01-09 19:05:28.241170	161.6	42.2	-91.7	9.4
2025-01-09 19:05:29.403135	161.7	42.5	-92.0	14.1
2025-01-09 19:05:30.567569	161.8	42.9	-92.2	15.6
2025-01-09 19:05:31.721882	161.8	43.2	-92.5	15.6
2025-01-09 19:05:32.888984	161.9	43.5	-91.4	13.9
2025-01-09 19:05:34.056796	162.0	43.8	-91.5	9.5
2025-01-09 19:05:35.227027	162.1	44.2	-91.3	15.3
2025-01-09 19:05:36.392549	162.1	44.5	-91.6	12.2
2025-01-09 19:05:37.560808	162.2	44.8	-92.2	7.8
2025-01-09 19:05:38.724829	162.3	45.2	-92.2	12.8
2025-01-09 19:05:39.882953	162.4	45.5	-92.3	14.9
2025-01-09 19:05:41.058171	162.4	45.8	-92.1	14.3
2025-01-09 19:05:42.223127	162.5	46.2	-91.1	11.5
2025-01-09 19:05:43.381888	162.6	46.5	-91.9	15.1
2025-01-09 19:05:44.558471	162.7	46.9	-91.8	14.4
2025-01-09 19:05:45.722500	162.8	47.2	-90.5	14.8
2025-01-09 19:05:46.886588	162.9	47.6	-90.3	14.7
2025-01-09 19:05:48.049715	163.0	48.0	-92.4	10.2
2025-01-09 19:05:49.208272	163.1	48.3	-91.7	14.7
2025-01-09 19:05:50.372917	163.2	48.7	-92.0	13.3
2025-01-09 19:05:51.518222	163.3	49.0	-91.8	12.6
2025-01-09 19:05:52.673011	163.4	49.4	-91.1	10.6
2025-01-09 19:05:53.834085	163.5	49.8	-92.0	12.1
2025-01-09 19:05:55.002257	163.6	50.2	-91.3	7.1
2025-01-09 19:05:56.166026	163.7	50.5	-91.6	7.4
2025-01-09 19:05:57.331912	163.8	50.9	-91.7	10.2
2025-01-09 19:05:58.498346	163.9	51.3	-90.5	4.1
2025-01-09 19:05:59.657429	164.0	51.7	-91.2	8.2
2025-01-09 19:06:00.808093	164.2	52.1	-92.0	12.2
2025-01-09 19:06:01.970090	164.3	52.5	-91.2	8.1
2025-01-09 19:06:03.131644	164.4	52.9	-90.5	11.7
2025-01-09 19:06:04.301193	164.5	53.3	-91.2	14.6
2025-01-09 19:06:05.467963	164.7	53.7	-92.3	12.7
2025-01-09 19:06:06.636888	164.8	54.1	-90.9	12.6
2025-01-09 19:06:07.807925	165.0	54.5	-90.5	14.3
2025-01-09 19:06:08.973476	165.1	54.9	-88.9	6.3
2025-01-09 19:06:10.135497	165.3	55.3	-91.8	7.0
2025-01-09 19:06:11.300950	165.4	55.7	-91.4	13.0
2025-01-09 19:06:12.453982	165.6	56.2	-91.7	8.7
2025-01-09 19:06:13.618564	165.7	56.6	-91.3	11.2
2025-01-09 19:06:14.782921	165.9	57.0	-91.8	12.4
2025-01-09 19:06:15.952144	166.1	57.4	-91.4	10.8
2025-01-09 19:06:17.113897	166.3	57.9	-90.7	5.6
2025-01-09 19:06:18.283095	166.4	58.3	-91.5	15.4
2025-01-09 19:06:19.446734	166.6	58.7	-90.8	7.0
2025-01-09 19:06:20.609753	166.8	59.2	-89.5	6.2
2025-01-09 19:06:21.774277	167.0	59.6	-90.1	12.0
2025-01-09 19:06:22.930139	167.2	60.1	-91.4	10.1
2025-01-09 19:06:24.094791	167.5	60.5	-91.6	11.1
2025-01-09 19:06:25.257178	167.7	61.0	-91.6	19.5
2025-01-09 19:06:26.424540	167.9	61.4	-91.0	15.1
2025-01-09 19:06:27.589304	168.2	61.9	-92.0	15.8
2025-01-09 19:06:28.754856	168.4	62.4	-92.5	14.5
2025-01-09 19:06:29.921209	168.7	62.8	-91.4	16.8
2025-01-09 19:06:31.084357	169.0	63.3	-91.6	11.5
2025-01-09 19:06:32.244264	169.2	63.8	-91.3	16.1
2025-01-09 19:06:33.401985	169.5	64.2	-91.0	14.5
2025-01-09 19:06:34.567832	169.8	64.7	-90.5	12.3
2025-01-09 19:06:35.729836	170.2	65.2	-91.0	14.2
2025-01-09 19:06:36.894207	170.5	65.7	-91.7	16.4
2025-01-09 19:06:38.057354	170.8	66.1	-91.9	11.1
2025-01-09 19:06:39.225404	171.2	66.6	-90.9	15.6
2025-01-09 19:06:40.385440	171.6	67.1	-90.0	11.2
2025-01-09 19:06:41.553221	172.0	67.6	-91.3	11.7
2025-01-09 19:06:42.713262	172.4	68.1	-91.4	10.9
2025-01-09 19:06:43.868118	172.8	68.6	-91.0	11.8
2025-01-09 19:06:45.029694	173.3	69.1	-89.6	10.1
2025-01-09 19:06:46.189390	173.8	69.6	-90.9	13.5
2025-01-09 19:06:47.349146	174.3	70.1	-91.1	12.7
2025-01-09 19:06:48.511927	174.8	70.5	-90.5	8.1
2025-01-09 19:06:49.673420	175.4	71.0	-90.6	12.8
2025-01-09 19:06:50.839742	176.0	71.5	-90.0	17.7
2025-01-09 19:06:52.011032	176.6	72.0	-91.4	9.3
2025-01-09 19:06:53.170829	177.3	72.5	-91.0	13.4
2025-01-09 19:06:54.340648	178.0	73.0	-91.0	19.3
2025-01-09 19:06:55.506519	178.7	73.5	-89.2	14.4
2025-01-09 19:06:56.671984	179.5	74.0	-92.1	17.7
2025-01-09 19:06:57.845275	180.4	74.5	-89.9	14.6
2025-01-09 19:06:58.997406	181.3	75.0	-92.2	17.6
2025-01-09 19:07:00.170688	182.3	75.5	-90.7	15.7
2025-01-09 19:07:01.321771	183.3	76.0	-90.3	17.8
2025-01-09 19:07:02.480019	184.5	76.5	-90.9	13.3
2025-01-09 19:07:03.642640	185.7	77.0	-91.7	15.3
2025-01-09 19:07:04.806799	187.0	77.4	-92.1	21.8
2025-01-09 19:07:05.968753	188.4	77.9	-90.8	15.9
2025-01-09 19:07:07.134353	189.9	78.4	-92.3	9.6
2025-01-09 19:07:08.302737	191.6	78.8	-90.5	16.4
2025-01-09 19:07:09.464467	193.4	79.3	-90.5	14.7
2025-01-09 19:07:10.630119	195.4	79.7	-90.9	11.9
2025-01-09 19:07:11.792146	197.5	80.1	-92.0	22.8
2025-01-09 19:07:12.951325	199.8	80.6	-90.9	15.1
2025-01-09 19:07:14.117896	202.4	80.9	-92.3	17.0
2025-01-09 19:07:15.280717	205.1	81.3	-91.6	17.9
2025-01-09 19:07:16.447801	208.2	81.7	-92.0	17.5
2025-01-09 19:07:17.603377	211.4	82.0	-91.2	21.9
2025-01-09 19:07:18.769629	215.0	82.3	-91.2	22.2
2025-01-09 19:07:19.933787	218.8	82.6	-90.1	22.1
2025-01-09 19:07:21.107233	223.0	82.8	-91.0	23.0
2025-01-09 19:07:22.269522	227.4	83.0	-91.3	24.2
2025-01-09 19:07:23.434965	232.0	83.2	-91.9	23.5
2025-01-09 19:07:24.596715	236.8	83.3	-90.1	20.9
2025-01-09 19:07:25.765113	241.7	83.4	-91.4	23.8
2025-01-09 19:07:26.929441	246.7	83.4	-91.2	21.9
2025-01-09 19:07:28.094106	251.7	83.4	-90.2	20.7
2025-01-09 19:07:29.255679	256.6	83.3	-90.4	24.2
2025-01-09 19:07:30.415254	261.3	83.1	-90.6	22.7
2025-01-09 19:07:31.585515	265.8	83.0	-90.5	19.0
2025-01-09 19:07:32.747321	270.1	82.7	-89.5	22.9
2025-01-09 19:07:33.916402	274.1	82.5	-90.2	19.0
2025-01-09 19:07:35.076112	277.9	82.2	-91.9	16.7
2025-01-09 19:07:36.236766	281.3	81.9	-91.6	23.8
2025-01-09 19:07:37.405140	284.5	81.5	-91.2	19.6
2025-01-09 19:07:38.563512	287.4	81.2	-92.0	12.9
2025-01-09 19:07:39.736619	290.1	80.8	-91.4	20.6
2025-01-09 19:07:40.901127	292.5	80.4	-91.4	20.7
2025-01-09 19:07:42.069033	294.8	80.0	-90.2	11.9
2025-01-09 19:07:43.232997	296.8	79.5	-91.7	20.6
2025-01-09 19:07:44.391089	298.7	79.1	-91.4	23.9
2025-01-09 19:07:45.555898	300.5	78.6	-91.9	13.3
2025-01-09 19:07:46.716734	302.1	78.2	-89.4	21.6
2025-01-09 19:07:47.884233	303.5	77.7	-91.9	21.8
2025-01-09 19:07:49.048379	304.9	77.2	-92.5	13.7
2025-01-09 19:07:50.210542	306.2	76.8	-91.6	23.3
2025-01-09 19:07:51.375626	307.4	76.3	-92.2	23.4
2025-01-09 19:07:52.536546	308.5	75.8	-91.0	12.1
2025-01-09 19:07:53.699441	309.5	75.3	-91.8	20.2
2025-01-09 19:07:54.861444	310.4	74.8	-91.7	23.5
2025-01-09 19:07:56.027205	311.3	74.3	-91.0	10.8
2025-01-09 19:07:57.190795	312.2	73.8	-90.3	19.1
2025-01-09 19:07:58.350375	312.9	73.3	-91.2	19.4
2025-01-09 19:07:59.510735	313.7	72.8	-91.5	10.2
2025-01-09 19:08:00.658316	314.4	72.3	-90.9	11.6
2025-01-09 19:08:01.818948	315.0	71.8	-91.4	17.6
2025-01-09 19:08:02.980616	315.6	71.3	-91.4	6.2
2025-01-09 19:08:04.149798	316.2	70.8	-91.8	9.4
2025-01-09 19:08:05.309938	316.8	70.4	-91.8	12.9
2025-01-09 19:08:06.470182	317.3	69.9	-92.5	5.9
2025-01-09 19:08:07.636225	317.8	69.4	-92.2	10.0
2025-01-09 19:08:08.801758	318.3	68.9	-91.8	14.1
2025-01-09 19:08:09.965347	318.7	68.4	-92.3	8.9
2025-01-09 19:08:11.127893	319.1	67.9	-92.5	10.7
2025-01-09 19:08:12.292277	319.5	67.4	-92.0	15.4
2025-01-09 19:08:13.453823	319.9	66.9	-92.3	8.2
2025-01-09 19:08:14.618390	320.3	66.4	-92.6	7.3
2025-01-09 19:08:15.788488	320.7	65.9	-91.5	13.2
2025-01-09 19:08:16.950978	321.0	65.5	-89.7	7.3
2025-01-09 19:08:18.118758	321.3	65.0	-89.2	9.2
2025-01-09 19:08:19.280615	321.6	64.5	-91.3	16.8
2025-01-09 19:08:20.445327	321.9	64.0	-92.2	11.2
2025-01-09 19:08:21.611856	322.2	63.6	-89.6	8.0
2025-01-09 19:08:22.774459	322.5	63.1	-92.1	17.7
2025-01-09 19:08:23.941590	322.8	62.6	-91.9	11.7
2025-01-09 19:08:25.105329	323.0	62.2	-89.3	11.3
2025-01-09 19:08:26.270164	323.3	61.7	-92.0	18.2
2025-01-09 19:08:27.435606	323.5	61.3	-91.5	17.3
2025-01-09 19:08:28.594968	323.8	60.8	-92.6	18.0
2025-01-09 19:08:29.756063	324.0	60.3	-92.7	21.6
2025-01-09 19:08:30.917686	324.2	59.9	-91.7	21.0
2025-01-09 19:08:32.082266	324.4	59.5	-91.8	20.1
2025-01-09 19:08:33.245313	324.6	59.0	-91.8	19.9
2025-01-09 19:08:34.413423	324.8	58.6	-91.8	19.2
2025-01-09 19:08:35.577193	325.0	58.1	-91.9	21.7
2025-01-09 19:08:36.740010	325.2	57.7	-92.2	22.0
2025-01-09 19:08:37.907578	325.4	57.3	-91.8	20.0
2025-01-09 19:08:39.069975	325.5	56.8	-89.6	16.9
2025-01-09 19:08:40.236573	325.7	56.4	-92.1	20.3
2025-01-09 19:08:41.400634	325.9	56.0	-92.1	18.8
2025-01-09 19:08:42.564064	326.0	55.6	-91.8	17.1
2025-01-09 19:08:43.731832	326.2	55.1	-92.4	20.1
2025-01-09 19:08:44.895897	326.3	54.7	-92.3	19.5
2025-01-09 19:08:46.061903	326.5	54.3	-92.9	13.0
2025-01-09 19:08:47.221214	326.6	53.9	-92.6	18.0
2025-01-09 19:08:48.383840	326.7	53.5	-92.5	19.3
2025-01-09 19:08:49.542437	326.9	53.1	-90.8	8.8
2025-01-09 19:08:50.703458	327.0	52.7	-92.5	14.2
2025-01-09 19:08:51.867523	327.1	52.3	-92.3	13.5
2025-01-09 19:08:53.032884	327.2	51.9	-92.6	6.7
2025-01-09 19:08:54.197406	327.4	51.5	-92.3	11.4
2025-01-09 19:08:55.370837	327.5	51.1	-92.6	12.6
2025-01-09 19:08:56.556307	327.6	50.7	-92.7	7.1
2025-01-09 19:08:57.719456	327.7	50.4	-92.4	6.5
2025-01-09 19:08:58.885629	327.8	50.0	-92.7	15.5
2025-01-09 19:09:00.048319	327.9	49.6	-92.8	14.1
2025-01-09 19:09:01.202748	328.0	49.2	-91.5	15.1
2025-01-09 19:09:02.369572	328.1	48.9	-92.5	12.7
2025-01-09 19:09:03.527471	328.2	48.5	-92.6	14.5
2025-01-09 19:09:04.688687	328.3	48.2	-92.1	17.6
2025-01-09 19:09:05.851863	328.4	47.8	-92.0	19.3
2025-01-09 19:09:07.012746	328.5	47.4	-92.5	13.1
2025-01-09 19:09:08.177007	328.6	47.1	-92.2	15.5
2025-01-09 19:09:09.337413	328.7	46.7	-91.3	18.5
2025-01-09 19:09:10.502470	328.8	46.4	-91.8	12.0
2025-01-09 19:09:11.670865	328.9	46.0	-91.9	16.5
2025-01-09 19:09:12.829587	328.9	45.7	-91.4	18.4
2025-01-09 19:09:13.989052	329.0	45.4	-92.3	13.8
2025-01-09 19:09:15.154656	329.1	45.0	-92.7	13.5
2025-01-09 19:09:16.318138	329.2	44.7	-91.8	16.4
2025-01-09 19:09:17.487294	329.3	44.4	-92.6	14.7
2025-01-09 19:09:18.646885	329.3	44.0	-92.1	16.6
2025-01-09 19:09:19.804799	329.4	43.7	-92.6	20.9
2025-01-09 19:09:20.969656	329.5	43.4	-92.3	17.1
2025-01-09 19:09:22.138269	329.6	43.1	-92.0	19.4
2025-01-09 19:09:23.299273	329.6	42.7	-91.9	21.2
2025-01-09 19:09:24.470588	329.7	42.4	-92.2	19.6
2025-01-09 19:09:25.640553	329.8	42.1	-92.6	19.0
2025-01-09 19:09:26.805616	329.8	41.8	-92.6	18.4
2025-01-09 19:09:27.965920	329.9	41.5	-92.3	13.1
2025-01-09 19:09:29.131751	330.0	41.2	-92.4	12.6
2025-01-09 19:09:30.296125	330.0	40.9	-92.5	19.2
2025-01-09 19:09:31.465231	330.1	40.6	-92.9	11.7
2025-01-09 19:09:32.631920	330.2	40.3	-92.5	6.5
2025-01-09 19:09:33.791811	330.2	40.0	-92.6	17.3
2025-01-09 19:09:34.947442	330.3	39.7	-92.5	10.6
2025-01-09 19:09:36.111170	330.3	39.4	-92.5	7.1
2025-01-09 19:09:37.275475	330.4	39.1	-92.5	13.8
2025-01-09 19:09:38.431798	330.4	38.8	-92.4	12.7
2025-01-09 19:09:39.592186	330.5	38.5	-92.1	15.3
2025-01-09 19:09:40.758570	330.6	38.3	-92.1	18.7
2025-01-09 19:09:41.922804	330.6	38.0	-92.4	15.7
2025-01-09 19:09:43.082576	330.7	37.7	-92.2	16.3
2025-01-09 19:09:44.238794	330.7	37.4	-92.4	16.7
2025-01-09 19:09:45.403740	330.8	37.2	-92.0	19.6
2025-01-09 19:09:46.571957	330.8	36.9	-92.7	14.7
2025-01-09 19:09:47.732226	330.9	36.6	-92.8	17.2
2025-01-09 19:09:48.893446	330.9	36.4	-92.9	16.6
2025-01-09 19:09:50.051071	331.0	36.1	-92.8	9.8
2025-01-09 19:09:51.211091	331.0	35.8	-91.6	17.3
2025-01-09 19:09:52.363569	331.1	35.6	-92.8	17.9
2025-01-09 19:09:53.486495	331.1	35.3	-92.6	12.0
2025-01-09 19:09:54.606861	331.1	35.1	-92.5	10.7
2025-01-09 19:09:55.727462	331.2	34.8	-92.7	17.1
2025-01-09 19:09:56.848550	331.2	34.6	-92.7	16.4
2025-01-09 19:09:57.969583	331.3	34.4	-92.6	17.7
2025-01-09 19:09:59.090898	331.3	34.1	-92.0	18.9
2025-01-09 19:10:00.211124	331.4	33.9	-92.6	19.2
2025-01-09 19:10:01.335395	331.4	33.6	-92.5	16.1
2025-01-09 19:10:02.460172	331.4	33.4	-92.9	11.6
2025-01-09 19:10:03.615127	331.5	33.2	-92.7	7.5
2025-01-09 19:10:04.765988	331.5	32.9	-92.7	13.6
2025-01-09 19:10:05.927886	331.6	32.7	-92.8	11.5
2025-01-09 19:10:07.082942	331.6	32.5	-92.1	5.2
2025-01-09 19:10:08.243613	331.6	32.2	-92.2	17.4
2025-01-09 19:10:09.409867	331.7	32.0	-92.4	9.0
2025-01-09 19:10:10.566336	331.7	31.8	-92.1	7.2
2025-01-09 19:10:11.735146	331.7	31.5	-92.8	11.9
2025-01-09 19:10:12.895312	331.8	31.3	-92.7	15.6
2025-01-09 19:10:14.061119	331.8	31.1	-91.8	14.1
2025-01-09 19:10:15.227666	331.9	30.9	-91.6	16.1
2025-01-09 19:10:16.387221	331.9	30.6	-91.5	17.9
2025-01-09 19:10:17.553071	331.9	30.4	-92.7	17.7
2025-01-09 19:10:18.718014	332.0	30.2	-92.4	17.3
2025-01-09 19:10:19.882685	332.0	30.0	-92.3	17.3
2025-01-09 19:10:21.046673	332.0	29.8	-92.1	10.2
2025-01-09 19:10:22.207152	332.1	29.6	-92.4	17.2
2025-01-09 19:10:23.365055	332.1	29.4	-92.6	15.9
2025-01-09 19:10:24.530805	332.1	29.1	-92.5	7.8
2025-01-09 19:10:25.695832	332.2	28.9	-91.5	10.8
2025-01-09 19:10:26.861484	332.2	28.7	-91.8	11.3
2025-01-09 19:10:28.027535	332.2	28.5	-91.9	10.2
2025-01-09 19:10:29.189515	332.3	28.3	-91.5	12.5
2025-01-09 19:10:30.349971	332.3	28.1	-91.6	11.6
2025-01-09 19:10:31.516156	332.3	27.9	-92.0	7.7
2025-01-09 19:10:32.680442	332.4	27.7	-91.8	7.6
2025-01-09 19:10:33.843363	332.4	27.5	-92.6	9.5
2025-01-09 19:10:35.001490	332.4	27.3	-92.6	6.3
2025-01-09 19:10:36.167341	332.4	27.1	-92.7	4.6
2025-01-09 19:10:37.327022	332.5	26.9	-92.5	8.0
2025-01-09 19:10:38.495195	332.5	26.7	-92.8	5.5
2025-01-09 19:10:39.650587	332.5	26.5	-92.5	4.9
2025-01-09 19:10:40.816111	332.6	26.4	-92.2	10.1
2025-01-09 19:10:41.981280	332.6	26.2	-92.6	7.8
2025-01-09 19:10:43.146087	332.6	26.0	-92.2	9.3
2025-01-09 19:10:44.305845	332.6	25.8	-92.8	11.8
2025-01-09 19:10:45.467370	332.7	25.6	-92.8	12.2
2025-01-09 19:10:46.635072	332.7	25.4	-92.4	12.7
2025-01-09 19:10:47.799618	332.7	25.2	-92.5	14.3
2025-01-09 19:10:48.967997	332.8	25.1	-92.7	12.5
2025-01-09 19:10:50.131701	332.8	24.9	-92.7	10.3
2025-01-09 19:10:51.300329	332.8	24.7	-92.9	7.4
2025-01-09 19:10:52.458356	332.8	24.5	-92.7	5.1
2025-01-09 19:10:53.623265	332.9	24.3	-92.8	5.9
2025-01-09 19:10:54.789631	332.9	24.2	-92.6	10.5
2025-01-09 19:10:55.953719	332.9	24.0	-92.5	8.6
2025-01-09 19:10:57.119426	332.9	23.8	-92.2	8.3
2025-01-09 19:10:58.283925	333.0	23.7	-91.9	13.0
2025-01-09 19:10:59.453678	333.0	23.5	-92.0	14.3
2025-01-09 19:11:00.605968	333.0	23.3	-91.5	11.9
2025-01-09 19:11:01.766125	333.0	23.1	-91.7	12.7
2025-01-09 19:11:02.929420	333.1	23.0	-92.2	10.8
2025-01-09 19:11:04.093389	333.1	22.8	-91.8	6.9
2025-01-09 19:11:05.257859	333.1	22.6	-91.8	8.6
2025-01-09 19:11:06.443472	333.1	22.5	-92.1	6.6
2025-01-09 19:11:07.617837	333.2	22.3	-91.7	5.4
2025-01-09 19:11:08.778506	333.2	22.2	-92.0	10.9
2025-01-09 19:11:09.943562	333.2	22.0	-91.7	5.0
2025-01-09 19:11:11.104210	333.2	21.8	-91.5	6.9
2025-01-09 19:11:12.270964	333.2	21.7	-91.4	8.2
2025-01-09 19:11:13.425174	333.3	21.5	-92.1	9.2
2025-01-09 19:11:14.589932	333.3	21.4	-91.8	6.9
2025-01-09 19:11:15.755528	333.3	21.2	-91.9	4.4
2025-01-09 19:11:16.916255	333.3	21.0	-92.8	7.7
2025-01-09 19:11:18.082642	333.4	20.9	-92.6	8.8
2025-01-09 19:11:19.247112	333.4	20.7	-92.4	8.9
2025-01-09 19:11:20.411181	333.4	20.6	-92.6	7.5
2025-01-09 19:11:21.566963	333.4	20.4	-92.3	8.2
2025-01-09 19:11:22.727861	333.4	20.3	-91.9	9.9
2025-01-09 19:11:23.882499	333.5	20.1	-91.8	9.6
2025-01-09 19:11:25.048393	333.5	20.0	-91.7	9.0
2025-01-09 19:11:26.217748	333.5	19.8	-91.7	5.6
2025-01-09 19:11:27.382215	333.5	19.7	-91.7	8.0
2025-01-09 19:11:28.544820	333.5	19.5	-91.9	12.6
2025-01-09 19:11:29.712181	333.6	19.4	-92.0	8.9
2025-01-09 19:11:30.876034	333.6	19.2	-91.7	6.0
2025-01-09 19:11:32.041280	333.6	19.1	-91.5	4.9
2025-01-09 19:11:33.204152	333.6	19.0	-91.5	5.2
2025-01-09 19:11:34.364452	333.6	18.8	-91.5	5.2
2025-01-09 19:11:35.533861	333.7	18.7	-92.0	4.5
2025-01-09 19:11:36.695045	333.7	18.5	-92.1	10.1
2025-01-09 19:11:37.858196	333.7	18.4	-91.8	6.0
2025-01-09 19:11:39.021321	333.7	18.3	-91.9	4.5
2025-01-09 19:11:40.186388	333.7	18.1	-92.0	4.5
2025-01-09 19:11:41.352673	333.8	18.0	-91.7	8.0
2025-01-09 19:11:42.515131	333.8	17.8	-91.9	6.1
2025-01-09 19:11:43.678736	333.8	17.7	-91.7	4.3
2025-01-09 19:11:44.838457	333.8	17.6	-92.4	5.1
2025-01-09 19:11:46.001074	333.8	17.4	-92.4	3.0
2025-01-09 19:11:47.171875	333.9	17.3	-92.5	3.0
2025-01-09 19:11:48.337994	333.9	17.2	-92.5	4.0
2025-01-09 19:11:49.506781	333.9	17.0	-92.6	4.7
2025-01-09 19:11:50.667574	333.9	16.9	-92.7	5.5
2025-01-09 19:11:51.832008	333.9	16.8	-92.4	4.2
2025-01-09 19:11:52.997218	333.9	16.6	-92.5	4.8
2025-01-09 19:11:54.157968	334.0	16.5	-92.5	4.3
2025-01-09 19:11:55.327241	334.0	16.4	-92.6	3.3
2025-01-09 19:11:56.484919	334.0	16.3	-92.7	4.8
2025-01-09 19:11:57.650520	334.0	16.1	-92.7	3.1
2025-01-09 19:11:58.813343	334.0	16.0	-92.6	5.8
2025-01-09 19:11:59.988898	334.0	15.9	-93.0	5.1
2025-01-09 19:12:01.129911	334.1	15.8	-92.6	3.8
2025-01-09 19:12:02.292585	334.1	15.6	-92.5	7.2
2025-01-09 19:12:03.443642	334.1	15.5	-92.6	3.2
2025-01-09 19:12:04.608452	334.1	15.4	-92.4	4.1
2025-01-09 19:12:05.768776	334.1	15.3	-92.7	5.2
2025-01-09 19:12:06.932333	334.1	15.1	-92.5	5.3
2025-01-09 19:12:08.097996	334.2	15.0	-92.1	4.7
2025-01-09 19:12:09.260503	334.2	14.9	-92.2	5.6
2025-01-09 19:12:10.424894	334.2	14.8	-92.4	4.0
2025-01-09 19:12:11.585166	334.2	14.6	-92.2	3.3
2025-01-09 19:12:12.746779	334.2	14.5	-92.0	3.5
#Closed at: 2025-01-09 19:02:50.259245