passes_logs/2025/01/09/LEX_Murmansk/LEX_Murmansk__20250109_083630_NOAA_19_rec.log

#Pass ID: 20250109_083630_NOAA 19
#Satellite: NOAA 19
#Configuration: NOAA 19
#Start time: 2025-01-09 08:36:25.528547

#LorettStation: 1.0.0 05.05.2024
#Station: LEX_Murmansk
#Location: 33.156738 lon 68.926811 lat
#TLE: 1 33591U 09005A   25008.91550554  .00000294  00000+0  18118-3 0  9990
#TLE: 2 33591  99.0208  72.6306 0014612  73.7755 286.5023 14.13254864820423

#Time	Az	El	Level	SNR
2025-01-09 08:36:37.747441	27.1	16.3	-84.3	4.2
2025-01-09 08:36:38.905531	27.2	16.4	-83.0	4.0
2025-01-09 08:36:40.073631	27.2	16.6	-84.0	3.8
2025-01-09 08:36:41.234371	27.2	16.7	-83.8	4.5
2025-01-09 08:36:42.398226	27.2	16.8	-84.7	2.4
2025-01-09 08:36:43.561136	27.3	17.0	-84.5	2.2
2025-01-09 08:36:44.721761	27.3	17.1	-83.4	4.1
2025-01-09 08:36:45.883064	27.3	17.2	-83.5	5.3
2025-01-09 08:36:47.046481	27.4	17.4	-83.8	4.0
2025-01-09 08:36:48.208163	27.4	17.5	-83.8	3.2
2025-01-09 08:36:49.373915	27.4	17.6	-81.2	5.1
2025-01-09 08:36:50.535214	27.5	17.8	-84.1	4.8
2025-01-09 08:36:51.698701	27.5	17.9	-83.7	4.1
2025-01-09 08:36:52.859652	27.5	18.0	-83.3	2.5
2025-01-09 08:36:54.019547	27.6	18.2	-84.6	3.4
2025-01-09 08:36:55.174795	27.6	18.3	-84.4	2.7
2025-01-09 08:36:56.339351	27.6	18.5	-83.7	4.3
2025-01-09 08:36:57.247986	27.7	18.6	-84.1	6.4
2025-01-09 08:36:58.419693	27.7	18.7	-84.2	4.1
2025-01-09 08:36:59.583702	27.7	18.9	-84.4	3.7
2025-01-09 08:37:00.731415	27.8	19.0	-84.6	4.7
2025-01-09 08:37:01.894881	27.8	19.1	-84.0	4.8
2025-01-09 08:37:03.057878	27.8	19.3	-84.6	2.9
2025-01-09 08:37:04.207459	27.9	19.4	-79.9	4.3
2025-01-09 08:37:05.368528	27.9	19.6	-84.3	4.1
2025-01-09 08:37:06.528108	27.9	19.7	-84.2	5.4
2025-01-09 08:37:07.695918	28.0	19.9	-82.3	4.9
2025-01-09 08:37:08.859413	28.0	20.0	-84.3	4.2
2025-01-09 08:37:10.021385	28.1	20.2	-84.2	3.9
2025-01-09 08:37:11.185023	28.1	20.3	-84.3	3.9
2025-01-09 08:37:12.348127	28.1	20.5	-84.9	7.2
2025-01-09 08:37:13.514560	28.2	20.6	-84.3	6.6
2025-01-09 08:37:14.669495	28.2	20.8	-84.2	6.3
2025-01-09 08:37:15.837385	28.2	20.9	-84.4	4.9
2025-01-09 08:37:16.998920	28.3	21.1	-83.8	5.0
2025-01-09 08:37:18.166715	28.3	21.2	-84.9	4.1
2025-01-09 08:37:19.332657	28.4	21.4	-84.2	6.0
2025-01-09 08:37:20.501100	28.4	21.6	-84.4	5.0
2025-01-09 08:37:21.667757	28.4	21.7	-84.7	3.8
2025-01-09 08:37:22.830619	28.5	21.9	-84.5	4.6
2025-01-09 08:37:23.990197	28.5	22.0	-84.8	4.0
2025-01-09 08:37:25.159627	28.6	22.2	-85.0	3.7
2025-01-09 08:37:26.323583	28.6	22.4	-85.1	5.2
2025-01-09 08:37:27.488957	28.7	22.5	-85.2	6.1
2025-01-09 08:37:28.647282	28.7	22.7	-85.0	4.5
2025-01-09 08:37:29.812980	28.7	22.9	-84.8	6.1
2025-01-09 08:37:30.984521	28.8	23.0	-85.7	6.6
2025-01-09 08:37:32.152763	28.8	23.2	-85.0	5.7
2025-01-09 08:37:33.315773	28.9	23.4	-84.5	5.2
2025-01-09 08:37:34.479898	28.9	23.5	-83.2	3.4
2025-01-09 08:37:35.642230	29.0	23.7	-83.9	6.2
2025-01-09 08:37:36.808555	29.0	23.9	-84.0	5.2
2025-01-09 08:37:37.970932	29.1	24.1	-84.1	2.3
2025-01-09 08:37:39.137985	29.1	24.2	-83.9	3.2
2025-01-09 08:37:40.302424	29.1	24.4	-84.3	4.1
2025-01-09 08:37:41.470120	29.2	24.6	-84.5	3.9
2025-01-09 08:37:42.635397	29.2	24.8	-84.0	2.2
2025-01-09 08:37:43.798889	29.3	24.9	-83.8	2.5
2025-01-09 08:37:44.962856	29.3	25.1	-84.2	7.1
2025-01-09 08:37:46.126762	29.4	25.3	-84.5	5.7
2025-01-09 08:37:47.292383	29.4	25.5	-84.4	5.5
2025-01-09 08:37:48.456906	29.5	25.7	-84.5	5.0
2025-01-09 08:37:49.620511	29.5	25.9	-84.9	6.2
2025-01-09 08:37:50.787452	29.6	26.1	-84.5	5.5
2025-01-09 08:37:51.946768	29.6	26.2	-84.2	5.7
2025-01-09 08:37:53.085906	29.7	26.4	-84.3	5.0
2025-01-09 08:37:54.218017	29.7	26.6	-84.2	5.7
2025-01-09 08:37:55.339101	29.8	26.8	-84.3	3.7
2025-01-09 08:37:56.459730	29.9	27.0	-84.4	2.9
2025-01-09 08:37:57.580040	29.9	27.2	-84.3	3.9
2025-01-09 08:37:58.701081	30.0	27.4	-84.2	2.9
2025-01-09 08:37:59.822645	30.0	27.6	-84.5	5.2
2025-01-09 08:38:00.942602	30.1	27.7	-84.3	4.9
2025-01-09 08:38:02.083639	30.1	27.9	-84.5	5.2
2025-01-09 08:38:03.246622	30.2	28.1	-84.2	6.3
2025-01-09 08:38:04.409116	30.2	28.3	-84.1	2.7
2025-01-09 08:38:05.568172	30.3	28.6	-82.4	3.8
2025-01-09 08:38:06.727902	30.4	28.8	-83.2	3.3
2025-01-09 08:38:07.908748	30.4	29.0	-83.7	3.0
2025-01-09 08:38:09.074266	30.5	29.2	-83.6	5.0
2025-01-09 08:38:10.238149	30.5	29.4	-84.1	4.5
2025-01-09 08:38:11.403694	30.6	29.6	-84.3	3.8
2025-01-09 08:38:12.570523	30.7	29.8	-84.3	3.4
2025-01-09 08:38:13.737526	30.7	30.0	-84.0	3.2
2025-01-09 08:38:14.899837	30.8	30.2	-84.1	5.1
2025-01-09 08:38:16.065107	30.9	30.5	-83.9	4.3
2025-01-09 08:38:17.226334	30.9	30.7	-84.1	5.1
2025-01-09 08:38:18.400061	31.0	30.9	-84.5	5.5
2025-01-09 08:38:19.567288	31.1	31.1	-84.2	6.1
2025-01-09 08:38:20.730325	31.1	31.4	-84.7	6.8
2025-01-09 08:38:21.892943	31.2	31.6	-84.3	2.9
2025-01-09 08:38:23.057092	31.3	31.8	-84.5	4.6
2025-01-09 08:38:24.217839	31.4	32.0	-84.4	4.8
2025-01-09 08:38:25.375912	31.4	32.3	-85.0	9.0
2025-01-09 08:38:26.543825	31.5	32.5	-84.4	7.0
2025-01-09 08:38:27.706906	31.6	32.7	-84.6	8.6
2025-01-09 08:38:28.871820	31.7	33.0	-84.9	6.5
2025-01-09 08:38:30.043238	31.7	33.2	-85.2	4.6
2025-01-09 08:38:31.204093	31.8	33.5	-85.3	2.2
2025-01-09 08:38:32.362854	31.9	33.7	-85.6	3.4
2025-01-09 08:38:33.527094	32.0	34.0	-85.6	4.7
2025-01-09 08:38:34.690148	32.1	34.2	-86.0	7.2
2025-01-09 08:38:35.854390	32.1	34.5	-85.7	9.3
2025-01-09 08:38:37.018772	32.2	34.7	-85.8	10.9
2025-01-09 08:38:38.184564	32.3	35.0	-85.2	9.5
2025-01-09 08:38:39.346650	32.4	35.2	-85.6	7.2
2025-01-09 08:38:40.515216	32.5	35.5	-85.4	9.2
2025-01-09 08:38:41.680151	32.6	35.7	-85.9	6.6
2025-01-09 08:38:42.832451	32.7	36.0	-86.2	7.3
2025-01-09 08:38:43.993259	32.8	36.2	-86.4	9.7
2025-01-09 08:38:45.160708	32.8	36.5	-86.0	8.8
2025-01-09 08:38:46.325608	32.9	36.8	-85.8	4.8
2025-01-09 08:38:47.488373	33.0	37.0	-85.5	3.3
2025-01-09 08:38:48.655136	33.1	37.3	-85.5	2.9
2025-01-09 08:38:49.813643	33.2	37.6	-84.6	1.6
2025-01-09 08:38:50.990715	33.3	37.9	-84.8	1.6
2025-01-09 08:38:52.151680	33.4	38.1	-84.9	6.0
2025-01-09 08:38:53.311516	33.5	38.4	-84.2	5.9
2025-01-09 08:38:54.466561	33.7	38.7	-83.9	7.5
2025-01-09 08:38:55.634980	33.8	39.0	-83.7	6.3
2025-01-09 08:38:56.788818	33.9	39.3	-84.0	5.8
2025-01-09 08:38:57.957186	34.0	39.6	-83.9	6.6
2025-01-09 08:38:59.120492	34.1	39.9	-83.9	7.5
2025-01-09 08:39:00.276333	34.2	40.1	-83.6	7.1
2025-01-09 08:39:01.429346	34.3	40.4	-82.4	7.5
2025-01-09 08:39:02.584956	34.4	40.7	-83.5	8.2
2025-01-09 08:39:03.742824	34.6	41.0	-83.3	9.7
2025-01-09 08:39:04.899066	34.7	41.3	-83.5	7.7
2025-01-09 08:39:06.058862	34.8	41.6	-83.8	6.1
2025-01-09 08:39:07.220060	34.9	41.9	-84.1	2.3
2025-01-09 08:39:08.391908	35.1	42.3	-84.0	4.2
2025-01-09 08:39:09.550761	35.2	42.6	-83.8	2.6
2025-01-09 08:39:10.711418	35.3	42.9	-83.9	4.8
2025-01-09 08:39:11.877180	35.5	43.2	-84.0	5.5
2025-01-09 08:39:13.043197	35.6	43.5	-84.0	6.2
2025-01-09 08:39:14.196486	35.8	43.8	-84.2	6.2
2025-01-09 08:39:15.358822	35.9	44.2	-83.8	8.3
2025-01-09 08:39:16.523454	36.1	44.5	-84.1	6.6
2025-01-09 08:39:17.686791	36.2	44.8	-84.2	5.6
2025-01-09 08:39:18.849483	36.4	45.2	-83.4	4.8
2025-01-09 08:39:20.016980	36.5	45.5	-84.2	6.7
2025-01-09 08:39:21.182314	36.7	45.8	-83.8	5.2
2025-01-09 08:39:22.350647	36.9	46.2	-83.7	7.2
2025-01-09 08:39:23.512988	37.0	46.5	-84.3	5.9
2025-01-09 08:39:24.672614	37.2	46.9	-83.7	6.0
2025-01-09 08:39:25.838955	37.4	47.2	-83.5	4.4
2025-01-09 08:39:27.003715	37.6	47.6	-83.6	3.1
2025-01-09 08:39:28.167210	37.7	47.9	-83.2	3.2
2025-01-09 08:39:29.329043	37.9	48.3	-82.9	2.9
2025-01-09 08:39:30.493940	38.1	48.6	-83.3	4.1
2025-01-09 08:39:31.659782	38.3	49.0	-83.3	4.1
2025-01-09 08:39:32.821200	38.5	49.4	-83.4	4.4
2025-01-09 08:39:33.984837	38.7	49.7	-83.2	5.8
2025-01-09 08:39:35.139909	38.9	50.1	-83.1	6.5
2025-01-09 08:39:36.301575	39.2	50.5	-83.4	6.1
2025-01-09 08:39:37.463752	39.4	50.8	-84.1	6.0
2025-01-09 08:39:38.637994	39.6	51.2	-83.4	5.2
2025-01-09 08:39:39.808257	39.8	51.6	-83.4	5.4
2025-01-09 08:39:40.974881	40.1	52.0	-83.4	6.0
2025-01-09 08:39:42.142981	40.3	52.4	-83.5	5.8
2025-01-09 08:39:43.307214	40.6	52.7	-84.0	3.3
2025-01-09 08:39:44.468635	40.8	53.1	-84.2	5.4
2025-01-09 08:39:45.626548	41.1	53.5	-84.2	3.3
2025-01-09 08:39:46.790204	41.4	53.9	-84.0	4.7
2025-01-09 08:39:47.952789	41.7	54.3	-84.5	3.7
2025-01-09 08:39:49.119397	41.9	54.7	-84.3	4.2
2025-01-09 08:39:50.284748	42.2	55.1	-83.9	2.3
2025-01-09 08:39:51.458255	42.5	55.5	-83.6	5.3
2025-01-09 08:39:52.622904	42.9	55.9	-83.3	3.0
2025-01-09 08:39:53.789222	43.2	56.3	-83.9	3.8
2025-01-09 08:39:54.945609	43.5	56.7	-83.7	6.7
2025-01-09 08:39:56.104008	43.8	57.2	-82.9	5.6
2025-01-09 08:39:57.269692	44.2	57.6	-83.3	5.2
2025-01-09 08:39:58.434799	44.6	58.0	-83.8	7.1
2025-01-09 08:39:59.595531	44.9	58.4	-83.7	6.8
2025-01-09 08:40:00.748375	45.3	58.8	-83.7	6.8
2025-01-09 08:40:01.908092	45.7	59.2	-83.5	5.7
2025-01-09 08:40:03.076325	46.1	59.7	-83.3	6.6
2025-01-09 08:40:04.237390	46.5	60.1	-83.5	4.2
2025-01-09 08:40:05.402239	47.0	60.5	-83.4	2.8
2025-01-09 08:40:06.564034	47.4	60.9	-83.2	5.6
2025-01-09 08:40:07.730395	47.9	61.4	-83.7	6.4
2025-01-09 08:40:08.901145	48.4	61.8	-83.9	7.0
2025-01-09 08:40:10.066055	48.9	62.2	-84.0	5.8
2025-01-09 08:40:11.233494	49.4	62.7	-83.5	7.7
2025-01-09 08:40:12.397267	49.9	63.1	-84.0	9.1
2025-01-09 08:40:13.557484	50.5	63.5	-82.7	5.3
2025-01-09 08:40:14.720495	51.1	64.0	-83.0	6.1
2025-01-09 08:40:15.884728	51.7	64.4	-83.4	6.6
2025-01-09 08:40:17.050060	52.3	64.8	-83.5	4.9
2025-01-09 08:40:18.219870	53.0	65.3	-83.6	3.3
2025-01-09 08:40:19.385108	53.6	65.7	-83.5	4.5
2025-01-09 08:40:20.552569	54.3	66.1	-83.7	5.0
2025-01-09 08:40:21.718084	55.1	66.6	-81.4	3.4
2025-01-09 08:40:22.881309	55.8	67.0	-83.7	6.1
2025-01-09 08:40:24.042753	56.6	67.4	-82.7	4.6
2025-01-09 08:40:25.198646	57.4	67.8	-83.4	4.1
2025-01-09 08:40:26.363673	58.3	68.3	-83.9	6.6
2025-01-09 08:40:27.523125	59.2	68.7	-83.8	5.9
2025-01-09 08:40:28.677203	60.1	69.1	-84.1	6.6
2025-01-09 08:40:29.844628	61.1	69.5	-83.9	7.6
2025-01-09 08:40:31.000580	62.1	69.9	-84.0	8.9
2025-01-09 08:40:32.163795	63.1	70.3	-83.9	6.5
2025-01-09 08:40:33.326701	64.2	70.7	-83.8	4.8
2025-01-09 08:40:34.487881	65.4	71.1	-83.9	4.6
2025-01-09 08:40:35.648773	66.6	71.5	-83.9	5.3
2025-01-09 08:40:36.817631	67.9	71.9	-84.1	4.1
2025-01-09 08:40:37.981892	69.2	72.3	-84.2	3.7
2025-01-09 08:40:39.149733	70.6	72.6	-84.2	2.9
2025-01-09 08:40:40.316963	72.0	73.0	-84.2	4.6
2025-01-09 08:40:41.481915	73.5	73.4	-84.0	4.9
2025-01-09 08:40:42.645826	75.1	73.7	-84.1	6.4
2025-01-09 08:40:43.792345	76.7	74.0	-84.3	7.9
2025-01-09 08:40:44.952760	78.4	74.3	-84.3	9.3
2025-01-09 08:40:46.113375	80.2	74.6	-84.2	8.9
2025-01-09 08:40:47.281155	82.1	74.9	-84.4	10.5
2025-01-09 08:40:48.443099	84.0	75.2	-84.0	11.8
2025-01-09 08:40:49.610652	86.0	75.5	-84.1	9.1
2025-01-09 08:40:50.776322	88.1	75.7	-83.3	7.4
2025-01-09 08:40:51.933488	90.2	75.9	-83.2	7.8
2025-01-09 08:40:53.104354	92.4	76.1	-83.2	4.8
2025-01-09 08:40:54.260370	94.7	76.3	-84.2	5.5
2025-01-09 08:40:55.425404	97.1	76.5	-84.2	6.0
2025-01-09 08:40:56.583405	99.4	76.6	-83.6	3.4
2025-01-09 08:40:57.748515	101.9	76.7	-83.4	4.6
2025-01-09 08:40:58.915126	104.4	76.8	-84.2	6.3
2025-01-09 08:41:00.083424	106.9	76.9	-84.1	5.3
2025-01-09 08:41:01.227019	109.4	76.9	-83.2	3.8
2025-01-09 08:41:02.395688	111.9	77.0	-83.6	5.0
2025-01-09 08:41:03.560769	114.5	77.0	-83.6	4.4
2025-01-09 08:41:04.722607	117.0	76.9	-83.8	2.9
2025-01-09 08:41:05.882020	119.5	76.9	-83.3	6.2
2025-01-09 08:41:07.048782	122.1	76.8	-83.4	6.4
2025-01-09 08:41:08.210683	124.5	76.7	-83.4	1.2
2025-01-09 08:41:09.371069	126.9	76.6	-83.6	2.4
2025-01-09 08:41:10.537997	129.3	76.4	-84.0	4.8
2025-01-09 08:41:11.702257	131.6	76.2	-83.7	5.1
2025-01-09 08:41:12.869425	133.9	76.0	-83.8	4.9
2025-01-09 08:41:14.030715	136.1	75.8	-83.8	6.5
2025-01-09 08:41:15.194222	138.2	75.6	-83.6	4.7
2025-01-09 08:41:16.359236	140.2	75.4	-83.9	6.2
2025-01-09 08:41:17.519248	142.2	75.1	-83.6	6.4
2025-01-09 08:41:18.688300	144.1	74.8	-83.3	5.9
2025-01-09 08:41:19.850123	145.9	74.5	-83.2	6.4
2025-01-09 08:41:21.032302	147.7	74.2	-83.8	8.2
2025-01-09 08:41:22.197319	149.4	73.9	-83.9	8.9
2025-01-09 08:41:23.361632	151.0	73.5	-83.9	6.5
2025-01-09 08:41:24.529151	152.5	73.2	-84.0	7.4
2025-01-09 08:41:25.685736	154.0	72.8	-84.0	8.1
2025-01-09 08:41:26.846224	155.4	72.5	-83.9	6.1
2025-01-09 08:41:28.012887	156.8	72.1	-84.1	7.6
2025-01-09 08:41:29.176845	158.1	71.7	-83.8	11.8
2025-01-09 08:41:30.341163	159.3	71.3	-84.2	9.7
2025-01-09 08:41:31.509471	160.5	70.9	-84.4	8.0
2025-01-09 08:41:32.674224	161.6	70.5	-84.4	9.1
2025-01-09 08:41:33.839140	162.7	70.1	-83.9	8.4
2025-01-09 08:41:34.999179	163.8	69.7	-84.0	8.5
2025-01-09 08:41:36.161729	164.8	69.3	-84.1	8.4
2025-01-09 08:41:37.329872	165.7	68.9	-84.0	10.8
2025-01-09 08:41:38.492629	166.6	68.5	-84.1	6.3
2025-01-09 08:41:39.659784	167.5	68.1	-83.5	7.0
2025-01-09 08:41:40.823546	168.3	67.6	-84.3	6.6
2025-01-09 08:41:41.990939	169.1	67.2	-83.8	7.2
2025-01-09 08:41:43.162421	169.9	66.8	-83.4	6.5
2025-01-09 08:41:44.320999	170.7	66.3	-84.5	7.6
2025-01-09 08:41:45.479417	171.4	65.9	-83.2	6.9
2025-01-09 08:41:46.643072	172.1	65.5	-83.6	5.4
2025-01-09 08:41:47.808972	172.7	65.0	-83.6	8.8
2025-01-09 08:41:48.969976	173.4	64.6	-83.4	5.3
2025-01-09 08:41:50.126946	174.0	64.2	-83.0	6.4
2025-01-09 08:41:51.286753	174.6	63.8	-83.8	10.0
2025-01-09 08:41:52.453848	175.1	63.3	-83.9	7.2
2025-01-09 08:41:53.619023	175.7	62.9	-83.4	4.1
2025-01-09 08:41:54.783126	176.2	62.5	-83.6	10.2
2025-01-09 08:41:55.940719	176.7	62.0	-83.2	5.1
2025-01-09 08:41:57.103369	177.2	61.6	-83.3	6.3
2025-01-09 08:41:58.265368	177.7	61.2	-83.4	9.8
2025-01-09 08:41:59.426635	178.1	60.7	-83.6	6.2
2025-01-09 08:42:00.578781	178.6	60.3	-83.2	5.0
2025-01-09 08:42:01.741826	179.0	59.9	-83.2	10.1
2025-01-09 08:42:02.908436	179.4	59.5	-83.4	6.1
2025-01-09 08:42:04.067836	179.8	59.0	-83.4	3.6
2025-01-09 08:42:05.230052	180.2	58.6	-83.2	6.4
2025-01-09 08:42:06.395457	180.6	58.2	-83.4	6.9
2025-01-09 08:42:07.559472	181.0	57.8	-83.2	5.2
2025-01-09 08:42:08.724767	181.3	57.4	-83.6	7.5
2025-01-09 08:42:09.893548	181.7	57.0	-83.9	4.8
2025-01-09 08:42:11.059709	182.0	56.5	-84.0	5.6
2025-01-09 08:42:12.227538	182.3	56.1	-84.2	5.4
2025-01-09 08:42:13.391978	182.7	55.7	-84.1	5.9
2025-01-09 08:42:14.556996	183.0	55.3	-84.2	6.6
2025-01-09 08:42:15.724233	183.3	54.9	-84.1	5.6
2025-01-09 08:42:16.894886	183.6	54.5	-83.7	7.2
2025-01-09 08:42:18.055461	183.8	54.1	-83.9	7.7
2025-01-09 08:42:19.222246	184.1	53.7	-83.9	8.4
2025-01-09 08:42:20.387222	184.4	53.3	-82.1	9.4
2025-01-09 08:42:21.539769	184.6	52.9	-82.0	7.1
2025-01-09 08:42:22.702678	184.9	52.5	-84.2	9.1
2025-01-09 08:42:23.870737	185.2	52.2	-82.8	7.6
2025-01-09 08:42:25.032631	185.4	51.8	-83.5	5.2
2025-01-09 08:42:26.195315	185.6	51.4	-83.7	7.1
2025-01-09 08:42:27.355267	185.9	51.0	-83.9	7.9
2025-01-09 08:42:28.520602	186.1	50.6	-84.5	5.5
2025-01-09 08:42:29.687794	186.3	50.3	-84.1	5.5
2025-01-09 08:42:30.851872	186.5	49.9	-84.0	6.8
2025-01-09 08:42:32.018328	186.7	49.5	-83.8	5.9
2025-01-09 08:42:33.183692	186.9	49.2	-83.9	9.2
2025-01-09 08:42:34.351939	187.1	48.8	-83.8	8.6
2025-01-09 08:42:35.511243	187.3	48.4	-84.1	5.8
2025-01-09 08:42:36.671733	187.5	48.1	-84.5	9.0
2025-01-09 08:42:37.834728	187.7	47.7	-83.9	7.6
2025-01-09 08:42:39.000190	187.9	47.4	-83.5	7.7
2025-01-09 08:42:40.164927	188.1	47.0	-83.9	10.0
2025-01-09 08:42:41.328817	188.2	46.7	-83.2	8.5
2025-01-09 08:42:42.496476	188.4	46.3	-84.6	9.6
2025-01-09 08:42:43.641543	188.6	46.0	-84.1	10.6
2025-01-09 08:42:44.802656	188.7	45.7	-84.4	11.5
2025-01-09 08:42:45.961504	188.9	45.3	-84.5	10.6
2025-01-09 08:42:47.128778	189.1	45.0	-84.2	11.2
2025-01-09 08:42:48.276863	189.2	44.7	-84.3	9.5
2025-01-09 08:42:49.440328	189.4	44.3	-83.9	7.0
2025-01-09 08:42:50.607078	189.5	44.0	-83.1	5.3
2025-01-09 08:42:51.771150	189.7	43.7	-84.2	8.1
2025-01-09 08:42:52.940374	189.8	43.4	-83.8	5.7
2025-01-09 08:42:54.100607	189.9	43.0	-84.1	5.0
2025-01-09 08:42:55.265732	190.1	42.7	-84.2	8.6
2025-01-09 08:42:56.423902	190.2	42.4	-84.1	5.0
2025-01-09 08:42:57.584666	190.3	42.1	-83.4	6.4
2025-01-09 08:42:58.749469	190.5	41.8	-82.8	6.4
2025-01-09 08:42:59.915640	190.6	41.5	-83.9	7.2
2025-01-09 08:43:01.059559	190.7	41.2	-84.2	4.8
2025-01-09 08:43:02.226683	190.8	40.9	-84.4	7.3
2025-01-09 08:43:03.385368	191.0	40.6	-83.0	6.9
2025-01-09 08:43:04.554252	191.1	40.3	-83.2	8.1
2025-01-09 08:43:05.713459	191.2	40.0	-82.9	6.4
2025-01-09 08:43:06.873834	191.3	39.7	-84.8	7.1
2025-01-09 08:43:08.045355	191.4	39.4	-84.6	5.1
2025-01-09 08:43:09.206190	191.5	39.1	-84.3	5.2
2025-01-09 08:43:10.372060	191.6	38.8	-84.4	6.5
2025-01-09 08:43:11.532946	191.8	38.6	-84.6	3.0
2025-01-09 08:43:12.697722	191.9	38.3	-84.8	4.8
2025-01-09 08:43:13.861526	192.0	38.0	-84.4	4.5
2025-01-09 08:43:15.027114	192.1	37.7	-83.9	2.9
2025-01-09 08:43:16.180759	192.2	37.4	-83.8	5.2
2025-01-09 08:43:17.344038	192.3	37.2	-84.2	8.2
2025-01-09 08:43:18.503576	192.4	36.9	-84.4	6.8
2025-01-09 08:43:19.667886	192.5	36.6	-83.6	6.3
2025-01-09 08:43:20.831120	192.5	36.4	-84.0	6.2
2025-01-09 08:43:21.993528	192.6	36.1	-84.0	6.3
2025-01-09 08:43:23.161361	192.7	35.8	-84.0	4.9
2025-01-09 08:43:24.325045	192.8	35.6	-83.7	3.6
2025-01-09 08:43:25.493187	192.9	35.3	-83.2	3.0
2025-01-09 08:43:26.653109	193.0	35.1	-83.8	2.8
2025-01-09 08:43:27.824374	193.1	34.8	-83.4	3.4
2025-01-09 08:43:28.986636	193.2	34.6	-83.5	1.8
2025-01-09 08:43:30.149596	193.3	34.3	-83.2	3.5
2025-01-09 08:43:31.316882	193.3	34.1	-83.2	6.3
2025-01-09 08:43:32.479223	193.4	33.8	-83.7	3.8
2025-01-09 08:43:33.647029	193.5	33.6	-82.9	3.1
2025-01-09 08:43:34.811169	193.6	33.3	-83.4	6.2
2025-01-09 08:43:35.969283	193.7	33.1	-83.5	5.0
2025-01-09 08:43:37.137161	193.7	32.8	-83.4	5.3
2025-01-09 08:43:38.297691	193.8	32.6	-83.7	4.6
2025-01-09 08:43:39.465198	193.9	32.4	-83.4	5.0
2025-01-09 08:43:40.629875	194.0	32.1	-83.5	3.1
2025-01-09 08:43:41.797590	194.0	31.9	-83.3	3.1
2025-01-09 08:43:42.961697	194.1	31.7	-83.1	4.8
2025-01-09 08:43:44.124874	194.2	31.4	-83.6	4.8
2025-01-09 08:43:45.290943	194.2	31.2	-82.6	3.1
2025-01-09 08:43:46.446562	194.3	31.0	-83.4	3.5
2025-01-09 08:43:47.616135	194.4	30.8	-83.6	2.5
2025-01-09 08:43:48.773183	194.4	30.6	-81.8	4.1
2025-01-09 08:43:49.953448	194.5	30.3	-82.5	4.4
2025-01-09 08:43:51.113473	194.6	30.1	-81.9	2.4
2025-01-09 08:43:52.281638	194.6	29.9	-80.6	4.8
2025-01-09 08:43:53.447363	194.7	29.7	-82.1	3.3
2025-01-09 08:43:54.612127	194.8	29.5	-81.7	4.4
2025-01-09 08:43:55.775292	194.8	29.3	-81.8	3.8
2025-01-09 08:43:56.943011	194.9	29.0	-83.0	1.5
2025-01-09 08:43:58.103659	195.0	28.8	-83.2	2.6
2025-01-09 08:43:59.268318	195.0	28.6	-83.3	2.9
2025-01-09 08:44:00.418822	195.1	28.4	-83.4	3.9
2025-01-09 08:44:01.583158	195.1	28.2	-83.7	4.0
2025-01-09 08:44:02.744875	195.2	28.0	-83.3	5.9
2025-01-09 08:44:03.909248	195.2	27.8	-83.2	5.9
2025-01-09 08:44:05.071451	195.3	27.6	-83.5	3.9
2025-01-09 08:44:06.226526	195.4	27.4	-83.1	5.4
2025-01-09 08:44:07.390721	195.4	27.2	-83.0	5.1
2025-01-09 08:44:08.557520	195.5	27.0	-81.4	5.0
2025-01-09 08:44:09.720345	195.5	26.8	-83.5	6.7
2025-01-09 08:44:10.886257	195.6	26.6	-83.5	3.9
2025-01-09 08:44:12.048458	195.6	26.4	-83.9	4.9
2025-01-09 08:44:13.201631	195.7	26.3	-83.5	3.6
2025-01-09 08:44:14.366020	195.7	26.1	-83.2	5.0
2025-01-09 08:44:15.534198	195.8	25.9	-83.4	4.8
2025-01-09 08:44:16.693587	195.8	25.7	-83.6	4.5
2025-01-09 08:44:17.859269	195.9	25.5	-83.4	3.6
2025-01-09 08:44:19.023073	195.9	25.3	-82.9	4.8
2025-01-09 08:44:20.185375	196.0	25.1	-83.4	4.4
2025-01-09 08:44:21.349149	196.0	25.0	-83.5	6.1
2025-01-09 08:44:22.509642	196.1	24.8	-83.4	5.6
2025-01-09 08:44:23.671979	196.1	24.6	-83.2	5.0
2025-01-09 08:44:24.827150	196.2	24.4	-83.5	5.0
2025-01-09 08:44:25.986327	196.2	24.2	-83.5	3.8
2025-01-09 08:44:27.150090	196.3	24.1	-83.1	4.3
2025-01-09 08:44:28.312537	196.3	23.9	-83.8	7.7
2025-01-09 08:44:29.475493	196.4	23.7	-83.8	5.4
2025-01-09 08:44:30.642072	196.4	23.6	-83.5	6.6
2025-01-09 08:44:31.811121	196.4	23.4	-83.5	5.6
2025-01-09 08:44:32.972501	196.5	23.2	-82.8	6.3
2025-01-09 08:44:34.131838	196.5	23.0	-83.6	5.9
2025-01-09 08:44:35.291913	196.6	22.9	-82.7	5.0
2025-01-09 08:44:36.451580	196.6	22.7	-83.4	7.0
2025-01-09 08:44:37.615225	196.7	22.5	-82.8	4.8
2025-01-09 08:44:38.783262	196.7	22.4	-83.5	5.5
2025-01-09 08:44:39.944088	196.7	22.2	-83.2	5.0
2025-01-09 08:44:41.109833	196.8	22.1	-84.0	4.0
2025-01-09 08:44:42.271167	196.8	21.9	-82.8	4.7
2025-01-09 08:44:43.429557	196.9	21.7	-82.8	2.2
2025-01-09 08:44:44.593857	196.9	21.6	-83.7	4.4
2025-01-09 08:44:45.757719	197.0	21.4	-83.3	3.1
2025-01-09 08:44:46.913897	197.0	21.3	-83.5	4.2
2025-01-09 08:44:48.080839	197.0	21.1	-82.7	5.1
2025-01-09 08:44:49.240916	197.1	20.9	-83.8	4.9
2025-01-09 08:44:50.416267	197.1	20.8	-83.3	6.1
2025-01-09 08:44:51.579728	197.1	20.6	-83.5	4.8
2025-01-09 08:44:52.746173	197.2	20.5	-83.5	4.7
2025-01-09 08:44:53.910064	197.2	20.3	-83.4	5.7
2025-01-09 08:44:55.074472	197.3	20.2	-83.7	3.2
2025-01-09 08:44:56.231774	197.3	20.0	-83.8	2.5
2025-01-09 08:44:57.390531	197.3	19.9	-83.1	5.3
2025-01-09 08:44:58.554773	197.4	19.7	-83.6	4.4
2025-01-09 08:44:59.719494	197.4	19.6	-84.1	5.2
2025-01-09 08:45:00.866161	197.4	19.4	-83.6	5.5
2025-01-09 08:45:02.033626	197.5	19.3	-83.5	4.0
2025-01-09 08:45:03.195700	197.5	19.1	-83.1	5.6
2025-01-09 08:45:04.362428	197.5	19.0	-83.5	4.7
2025-01-09 08:45:05.523303	197.6	18.9	-83.8	4.2
2025-01-09 08:45:06.681323	197.6	18.7	-83.4	4.2
2025-01-09 08:45:07.847564	197.6	18.6	-83.7	4.6
2025-01-09 08:45:09.017774	197.7	18.4	-83.9	2.2
2025-01-09 08:45:10.179587	197.7	18.3	-83.4	2.6
2025-01-09 08:45:11.357413	197.7	18.2	-83.2	0.8
2025-01-09 08:45:12.520212	197.8	18.0	-83.3	3.9
2025-01-09 08:45:13.686382	197.8	17.9	-83.0	4.4
2025-01-09 08:45:14.853103	197.8	17.7	-83.1	3.0
2025-01-09 08:45:16.013972	197.9	17.6	-83.2	3.8
2025-01-09 08:45:17.174167	197.9	17.5	-83.5	3.7
2025-01-09 08:45:18.335751	197.9	17.3	-83.4	1.7
2025-01-09 08:45:19.504238	198.0	17.2	-83.4	4.6
2025-01-09 08:45:20.669171	198.0	17.1	-83.1	3.8
2025-01-09 08:45:21.833664	198.0	16.9	-83.7	4.9
2025-01-09 08:45:22.998819	198.1	16.8	-83.1	4.1
2025-01-09 08:45:24.158713	198.1	16.7	-83.2	3.8
2025-01-09 08:45:25.322859	198.1	16.5	-82.2	4.3
2025-01-09 08:45:26.483060	198.1	16.4	-82.1	4.4
2025-01-09 08:45:27.647658	198.2	16.3	-82.8	1.6
2025-01-09 08:45:28.806199	198.2	16.2	-83.4	4.2
2025-01-09 08:45:29.964285	198.2	16.0	-83.0	4.9
2025-01-09 08:45:31.131665	198.3	15.9	-83.2	3.4
2025-01-09 08:45:32.295623	198.3	15.8	-83.2	1.7
2025-01-09 08:45:33.462970	198.3	15.6	-83.6	1.7
2025-01-09 08:45:34.633085	198.4	15.5	-83.6	4.8
2025-01-09 08:45:35.791858	198.4	15.4	-83.6	3.5
2025-01-09 08:45:36.948682	198.4	15.3	-83.6	3.2
2025-01-09 08:45:38.112880	198.4	15.1	-82.9	3.4
2025-01-09 08:45:39.277412	198.5	15.0	-84.2	4.1
2025-01-09 08:45:40.441290	198.5	14.9	-84.2	1.8
2025-01-09 08:45:41.605727	198.5	14.8	-83.5	4.3
2025-01-09 08:45:42.781098	198.5	14.7	-83.2	2.9
2025-01-09 08:45:43.940417	198.6	14.5	-83.0	4.2
#Closed at: 2025-01-09 08:36:30.572017