passes_logs/2025/01/09/LEX_Murmansk/LEX_Murmansk__20250109_090259_NOAA_18_rec.log

#Pass ID: 20250109_090259_NOAA 18
#Satellite: NOAA 18
#Configuration: NOAA 18
#Start time: 2025-01-09 09:02:54.648113

#LorettStation: 1.0.0 05.05.2024
#Station: LEX_Murmansk
#Location: 33.156738 lon 68.926811 lat
#TLE: 1 28654U 05018A   25008.86276551  .00000342  00000+0  20484-3 0  9993
#TLE: 2 28654  98.8578  89.9777 0014066 196.4292 163.6427 14.13481270 12237

#Time	Az	El	Level	SNR
2025-01-09 09:03:06.863382	29.9	16.2	-83.7	4.9
2025-01-09 09:03:08.020850	30.0	16.4	-84.3	4.8
2025-01-09 09:03:09.185641	30.1	16.5	-85.7	7.3
2025-01-09 09:03:10.346077	30.2	16.6	-85.9	7.0
2025-01-09 09:03:11.504750	30.3	16.7	-85.8	6.6
2025-01-09 09:03:12.672850	30.4	16.8	-85.9	9.0
2025-01-09 09:03:13.839432	30.5	17.0	-85.7	8.0
2025-01-09 09:03:15.002949	30.5	17.1	-85.9	6.2
2025-01-09 09:03:16.164533	30.6	17.2	-85.4	5.2
2025-01-09 09:03:17.332341	30.7	17.3	-85.2	6.1
2025-01-09 09:03:18.503493	30.8	17.5	-85.5	6.2
2025-01-09 09:03:19.668653	30.9	17.6	-85.2	7.6
2025-01-09 09:03:20.829145	31.0	17.7	-85.4	6.7
2025-01-09 09:03:21.995040	31.1	17.8	-85.3	8.1
2025-01-09 09:03:23.155274	31.2	18.0	-85.4	9.5
2025-01-09 09:03:24.312437	31.3	18.1	-86.1	6.2
2025-01-09 09:03:25.471126	31.4	18.2	-85.6	6.4
2025-01-09 09:03:26.637663	31.5	18.4	-86.0	6.2
2025-01-09 09:03:27.800016	31.6	18.5	-85.0	7.0
2025-01-09 09:03:28.960181	31.7	18.6	-85.3	6.4
2025-01-09 09:03:30.124798	31.8	18.7	-85.7	7.4
2025-01-09 09:03:31.278041	31.9	18.9	-85.4	6.1
2025-01-09 09:03:32.442463	32.0	19.0	-86.0	8.0
2025-01-09 09:03:33.620950	32.1	19.1	-85.2	6.6
2025-01-09 09:03:34.785527	32.2	19.3	-85.3	7.7
2025-01-09 09:03:35.949086	32.3	19.4	-85.9	7.7
2025-01-09 09:03:37.109523	32.4	19.5	-85.6	7.8
2025-01-09 09:03:38.272339	32.5	19.7	-85.7	7.8
2025-01-09 09:03:39.434524	32.6	19.8	-85.1	7.9
2025-01-09 09:03:40.588841	32.7	20.0	-85.5	8.4
2025-01-09 09:03:41.747980	32.8	20.1	-85.4	8.9
2025-01-09 09:03:42.912022	32.9	20.2	-85.2	7.1
2025-01-09 09:03:44.076820	33.0	20.4	-85.6	7.0
2025-01-09 09:03:45.236321	33.2	20.5	-85.8	7.6
2025-01-09 09:03:46.399618	33.3	20.6	-86.2	9.6
2025-01-09 09:03:47.561958	33.4	20.8	-86.3	8.4
2025-01-09 09:03:48.724823	33.5	20.9	-86.3	8.4
2025-01-09 09:03:49.888793	33.6	21.1	-86.9	9.1
2025-01-09 09:03:51.045997	33.7	21.2	-87.2	9.0
2025-01-09 09:03:52.209492	33.8	21.4	-86.1	9.8
2025-01-09 09:03:53.368395	34.0	21.5	-86.4	11.2
2025-01-09 09:03:54.532210	34.1	21.6	-86.5	8.1
2025-01-09 09:03:55.696379	34.2	21.8	-86.3	10.0
2025-01-09 09:03:56.859844	34.3	21.9	-86.6	9.4
2025-01-09 09:03:58.021819	34.4	22.1	-86.8	8.5
2025-01-09 09:03:59.192393	34.6	22.2	-86.6	8.6
2025-01-09 09:04:00.345942	34.7	22.4	-86.5	7.8
2025-01-09 09:04:01.496913	34.8	22.5	-86.6	7.8
2025-01-09 09:04:02.664535	34.9	22.7	-86.5	7.5
2025-01-09 09:04:03.828662	35.1	22.8	-86.7	8.4
2025-01-09 09:04:04.996830	35.2	23.0	-86.9	8.4
2025-01-09 09:04:06.161410	35.3	23.1	-86.3	5.7
2025-01-09 09:04:07.328115	35.5	23.3	-86.2	8.4
2025-01-09 09:04:08.487555	35.6	23.4	-86.6	9.2
2025-01-09 09:04:09.648357	35.7	23.6	-86.0	9.7
2025-01-09 09:04:10.809767	35.9	23.8	-86.4	10.1
2025-01-09 09:04:11.968211	36.0	23.9	-86.4	8.4
2025-01-09 09:04:13.134662	36.1	24.1	-85.9	10.8
2025-01-09 09:04:14.299280	36.3	24.2	-86.1	13.9
2025-01-09 09:04:15.458996	36.4	24.4	-86.4	8.8
2025-01-09 09:04:16.623726	36.6	24.5	-86.7	8.9
2025-01-09 09:04:17.797241	36.7	24.7	-86.7	8.0
2025-01-09 09:04:18.960345	36.8	24.9	-86.1	7.8
2025-01-09 09:04:20.123546	37.0	25.0	-85.9	7.3
2025-01-09 09:04:21.283623	37.1	25.2	-86.5	8.2
2025-01-09 09:04:22.456166	37.3	25.4	-84.1	7.7
2025-01-09 09:04:23.613181	37.4	25.5	-85.2	7.8
2025-01-09 09:04:24.775794	37.6	25.7	-86.0	7.7
2025-01-09 09:04:25.937562	37.7	25.8	-85.4	7.7
2025-01-09 09:04:27.102373	37.9	26.0	-85.8	8.5
2025-01-09 09:04:28.266731	38.1	26.2	-84.9	7.6
2025-01-09 09:04:29.433751	38.2	26.3	-85.2	8.1
2025-01-09 09:04:30.595195	38.4	26.5	-86.2	9.2
2025-01-09 09:04:31.752918	38.5	26.7	-86.6	9.6
2025-01-09 09:04:32.915507	38.7	26.9	-85.1	9.8
2025-01-09 09:04:34.079392	38.9	27.0	-86.5	8.9
2025-01-09 09:04:35.240356	39.0	27.2	-86.0	9.0
2025-01-09 09:04:36.409152	39.2	27.4	-85.3	6.3
2025-01-09 09:04:37.568357	39.4	27.5	-84.9	6.6
2025-01-09 09:04:38.725920	39.5	27.7	-86.2	8.0
2025-01-09 09:04:39.891188	39.7	27.9	-86.1	9.5
2025-01-09 09:04:41.048180	39.9	28.1	-86.5	7.8
2025-01-09 09:04:42.213059	40.1	28.3	-86.3	9.2
2025-01-09 09:04:43.377542	40.2	28.4	-86.2	8.3
2025-01-09 09:04:44.541887	40.4	28.6	-86.2	9.2
2025-01-09 09:04:45.701388	40.6	28.8	-85.9	7.5
2025-01-09 09:04:46.880243	40.8	29.0	-85.8	8.1
2025-01-09 09:04:48.047776	41.0	29.2	-86.1	6.7
2025-01-09 09:04:49.211688	41.2	29.3	-85.5	7.3
2025-01-09 09:04:50.382615	41.4	29.5	-85.3	7.8
2025-01-09 09:04:51.538166	41.6	29.7	-85.5	8.3
2025-01-09 09:04:52.700436	41.8	29.9	-85.8	8.6
2025-01-09 09:04:53.860383	42.0	30.1	-85.5	7.4
2025-01-09 09:04:55.020624	42.2	30.3	-85.9	8.1
2025-01-09 09:04:56.184144	42.4	30.4	-85.7	7.8
2025-01-09 09:04:57.347678	42.6	30.6	-85.5	8.6
2025-01-09 09:04:58.509791	42.8	30.8	-85.8	7.4
2025-01-09 09:04:59.671492	43.0	31.0	-84.1	8.3
2025-01-09 09:05:00.815828	43.2	31.2	-85.3	8.8
2025-01-09 09:05:01.976091	43.4	31.4	-86.2	9.7
2025-01-09 09:05:03.138110	43.6	31.6	-85.9	9.9
2025-01-09 09:05:04.304562	43.8	31.8	-86.0	9.4
2025-01-09 09:05:05.469741	44.1	32.0	-86.2	9.2
2025-01-09 09:05:06.631424	44.3	32.2	-85.8	9.6
2025-01-09 09:05:07.794770	44.5	32.4	-86.4	11.9
2025-01-09 09:05:08.957803	44.7	32.6	-85.8	12.1
2025-01-09 09:05:10.123868	45.0	32.8	-86.1	14.4
2025-01-09 09:05:11.286909	45.2	33.0	-86.3	12.8
2025-01-09 09:05:12.455915	45.5	33.2	-86.5	11.7
2025-01-09 09:05:13.621258	45.7	33.4	-86.3	8.1
2025-01-09 09:05:14.790014	45.9	33.6	-86.1	12.4
2025-01-09 09:05:15.948445	46.2	33.8	-86.0	6.8
2025-01-09 09:05:17.112008	46.4	34.0	-86.3	8.3
2025-01-09 09:05:18.279211	46.7	34.2	-86.1	12.3
2025-01-09 09:05:19.439187	46.9	34.4	-86.1	12.7
2025-01-09 09:05:20.607282	47.2	34.6	-86.4	11.5
2025-01-09 09:05:21.760779	47.5	34.8	-86.6	13.1
2025-01-09 09:05:22.921849	47.7	35.0	-86.5	12.7
2025-01-09 09:05:24.089608	48.0	35.2	-86.1	12.2
2025-01-09 09:05:25.246574	48.3	35.4	-86.3	12.9
2025-01-09 09:05:26.413925	48.6	35.6	-86.1	9.7
2025-01-09 09:05:27.571481	48.8	35.8	-86.1	10.3
2025-01-09 09:05:28.732260	49.1	36.0	-86.3	8.1
2025-01-09 09:05:29.892987	49.4	36.2	-86.4	10.7
2025-01-09 09:05:31.052045	49.7	36.4	-86.1	8.8
2025-01-09 09:05:32.216487	50.0	36.6	-86.0	10.8
2025-01-09 09:05:33.381111	50.3	36.9	-85.3	11.0
2025-01-09 09:05:34.525556	50.6	37.1	-86.2	8.6
2025-01-09 09:05:35.689249	50.9	37.3	-86.0	10.1
2025-01-09 09:05:36.851987	51.2	37.5	-85.8	12.5
2025-01-09 09:05:38.017178	51.5	37.7	-85.2	8.8
2025-01-09 09:05:39.176683	51.8	37.9	-85.6	9.8
2025-01-09 09:05:40.335720	52.1	38.1	-85.6	10.9
2025-01-09 09:05:41.491957	52.5	38.3	-85.7	10.2
2025-01-09 09:05:42.657826	52.8	38.6	-85.7	11.6
2025-01-09 09:05:43.819889	53.1	38.8	-85.9	12.5
2025-01-09 09:05:44.984059	53.5	39.0	-85.9	12.7
2025-01-09 09:05:46.144957	53.8	39.2	-85.8	10.5
2025-01-09 09:05:47.308498	54.2	39.4	-85.7	11.2
2025-01-09 09:05:48.472567	54.5	39.6	-85.6	10.7
2025-01-09 09:05:49.636487	54.9	39.8	-85.9	10.9
2025-01-09 09:05:50.814180	55.2	40.1	-85.7	12.2
2025-01-09 09:05:51.975085	55.6	40.3	-85.9	13.1
2025-01-09 09:05:53.137650	56.0	40.5	-85.7	12.3
2025-01-09 09:05:54.300267	56.3	40.7	-85.9	13.6
2025-01-09 09:05:55.461812	56.7	40.9	-85.9	10.2
2025-01-09 09:05:56.626557	57.1	41.1	-85.7	9.4
2025-01-09 09:05:57.786458	57.5	41.4	-85.8	12.1
2025-01-09 09:05:58.954157	57.9	41.6	-85.8	9.4
2025-01-09 09:06:00.117024	58.3	41.8	-85.6	7.8
2025-01-09 09:06:01.260996	58.7	42.0	-85.5	10.1
2025-01-09 09:06:02.423783	59.1	42.2	-85.7	9.4
2025-01-09 09:06:03.583371	59.5	42.4	-85.3	9.7
2025-01-09 09:06:04.738912	59.9	42.6	-85.8	11.9
2025-01-09 09:06:05.901356	60.4	42.8	-85.5	10.5
2025-01-09 09:06:07.061226	60.8	43.1	-85.7	10.9
2025-01-09 09:06:08.225091	61.2	43.3	-85.7	9.4
2025-01-09 09:06:09.392822	61.7	43.5	-85.3	12.6
2025-01-09 09:06:10.555705	62.1	43.7	-85.9	9.0
2025-01-09 09:06:11.716744	62.6	43.9	-85.8	11.1
2025-01-09 09:06:12.881411	63.1	44.1	-85.8	11.3
2025-01-09 09:06:14.040631	63.5	44.3	-86.0	9.6
2025-01-09 09:06:15.215260	64.0	44.5	-85.7	12.2
2025-01-09 09:06:16.373361	64.5	44.7	-85.9	10.7
2025-01-09 09:06:17.541074	65.0	44.9	-86.0	10.4
2025-01-09 09:06:18.701182	65.5	45.1	-85.7	8.8
2025-01-09 09:06:19.863793	66.0	45.3	-86.0	10.1
2025-01-09 09:06:21.028254	66.5	45.5	-85.8	8.2
2025-01-09 09:06:22.188133	67.0	45.7	-85.4	8.7
2025-01-09 09:06:23.354018	67.5	45.9	-85.9	9.1
2025-01-09 09:06:24.520484	68.0	46.1	-85.8	6.5
2025-01-09 09:06:25.684709	68.6	46.3	-85.8	8.8
2025-01-09 09:06:26.849947	69.1	46.5	-85.4	9.8
2025-01-09 09:06:28.015495	69.7	46.7	-85.2	7.9
2025-01-09 09:06:29.184842	70.2	46.9	-85.7	8.6
2025-01-09 09:06:30.341602	70.8	47.1	-86.0	7.5
2025-01-09 09:06:31.497985	71.3	47.3	-85.9	7.7
2025-01-09 09:06:32.660239	71.9	47.5	-85.8	9.1
2025-01-09 09:06:33.824213	72.5	47.6	-85.8	7.1
2025-01-09 09:06:34.992470	73.1	47.8	-86.2	9.1
2025-01-09 09:06:36.154770	73.7	48.0	-85.4	8.5
2025-01-09 09:06:37.316882	74.3	48.2	-85.9	9.8
2025-01-09 09:06:38.483392	74.9	48.3	-86.0	7.6
2025-01-09 09:06:39.640289	75.5	48.5	-85.2	7.0
2025-01-09 09:06:40.806439	76.1	48.7	-85.2	8.6
2025-01-09 09:06:41.966106	76.7	48.8	-86.1	8.4
2025-01-09 09:06:43.128651	77.3	49.0	-85.5	7.1
2025-01-09 09:06:44.287825	78.0	49.1	-85.6	5.7
2025-01-09 09:06:45.450071	78.6	49.3	-84.8	5.9
2025-01-09 09:06:46.612624	79.3	49.4	-86.1	5.2
2025-01-09 09:06:47.781647	79.9	49.6	-85.9	6.8
2025-01-09 09:06:48.938999	80.6	49.7	-86.4	6.4
2025-01-09 09:06:50.100387	81.3	49.9	-85.9	6.5
2025-01-09 09:06:51.264999	81.9	50.0	-85.9	7.0
2025-01-09 09:06:52.420399	82.6	50.1	-86.2	6.2
2025-01-09 09:06:53.582835	83.3	50.3	-86.4	6.8
2025-01-09 09:06:54.746109	84.0	50.4	-86.7	7.6
2025-01-09 09:06:55.909196	84.7	50.5	-86.3	7.6
2025-01-09 09:06:57.058905	85.4	50.6	-86.2	8.2
2025-01-09 09:06:58.215900	86.1	50.7	-86.5	9.6
2025-01-09 09:06:59.379039	86.8	50.8	-86.0	7.8
2025-01-09 09:07:00.530059	87.5	50.9	-86.1	8.9
2025-01-09 09:07:01.689316	88.2	51.0	-86.3	8.4
2025-01-09 09:07:02.857948	89.0	51.1	-86.2	7.6
2025-01-09 09:07:04.018051	89.7	51.2	-85.7	6.4
2025-01-09 09:07:05.183805	90.4	51.3	-85.5	6.0
2025-01-09 09:07:06.346261	91.2	51.4	-85.7	5.9
2025-01-09 09:07:07.514938	91.9	51.5	-85.8	8.6
2025-01-09 09:07:08.676459	92.7	51.5	-85.6	8.2
2025-01-09 09:07:09.840159	93.4	51.6	-85.6	8.0
2025-01-09 09:07:11.006867	94.2	51.6	-85.7	6.4
2025-01-09 09:07:12.170907	94.9	51.7	-85.7	5.7
2025-01-09 09:07:13.336345	95.7	51.8	-85.5	10.1
2025-01-09 09:07:14.497911	96.4	51.8	-85.8	6.2
2025-01-09 09:07:15.662326	97.2	51.8	-86.2	8.2
2025-01-09 09:07:16.832197	98.0	51.9	-86.1	8.2
2025-01-09 09:07:17.996623	98.8	51.9	-86.6	11.9
2025-01-09 09:07:19.163186	99.5	51.9	-86.2	8.3
2025-01-09 09:07:20.323870	100.3	51.9	-86.7	12.9
2025-01-09 09:07:21.490958	101.1	52.0	-86.2	11.2
2025-01-09 09:07:22.648756	101.8	52.0	-86.6	11.9
2025-01-09 09:07:23.808881	102.6	52.0	-86.2	12.4
2025-01-09 09:07:24.970051	103.4	52.0	-86.4	12.0
2025-01-09 09:07:26.129248	104.1	52.0	-86.4	10.1
2025-01-09 09:07:27.289613	104.9	51.9	-86.2	9.7
2025-01-09 09:07:28.461156	105.7	51.9	-86.3	10.7
2025-01-09 09:07:29.627032	106.5	51.9	-86.6	9.3
2025-01-09 09:07:30.780982	107.2	51.9	-86.5	10.8
2025-01-09 09:07:31.941025	108.0	51.8	-86.6	9.7
2025-01-09 09:07:33.098559	108.8	51.8	-86.3	8.8
2025-01-09 09:07:34.262592	109.5	51.8	-86.1	10.2
2025-01-09 09:07:35.425337	110.3	51.7	-86.0	10.1
2025-01-09 09:07:36.590167	111.0	51.6	-86.5	9.4
2025-01-09 09:07:37.753969	111.8	51.6	-86.4	10.2
2025-01-09 09:07:38.913491	112.5	51.5	-86.3	6.7
2025-01-09 09:07:40.077805	113.3	51.5	-86.0	6.7
2025-01-09 09:07:41.236787	114.0	51.4	-86.3	6.0
2025-01-09 09:07:42.396166	114.8	51.3	-86.1	5.5
2025-01-09 09:07:43.556095	115.5	51.2	-86.3	7.2
2025-01-09 09:07:44.715775	116.2	51.1	-86.0	7.5
2025-01-09 09:07:45.879755	117.0	51.0	-85.7	8.3
2025-01-09 09:07:47.045474	117.7	50.9	-85.8	5.9
2025-01-09 09:07:48.205153	118.4	50.8	-85.4	8.2
2025-01-09 09:07:49.367876	119.1	50.7	-85.3	8.3
2025-01-09 09:07:50.530969	119.8	50.6	-86.2	7.3
2025-01-09 09:07:51.696580	120.5	50.5	-86.8	7.6
2025-01-09 09:07:52.852615	121.2	50.4	-86.2	9.1
2025-01-09 09:07:54.015399	121.9	50.3	-87.0	7.4
2025-01-09 09:07:55.176166	122.6	50.1	-86.5	8.0
2025-01-09 09:07:56.332533	123.3	50.0	-85.6	8.0
2025-01-09 09:07:57.492967	124.0	49.9	-86.1	6.2
2025-01-09 09:07:58.654025	124.6	49.7	-86.4	6.7
2025-01-09 09:07:59.819650	125.3	49.6	-86.1	7.8
2025-01-09 09:08:00.962353	125.9	49.4	-85.8	6.4
2025-01-09 09:08:02.122375	126.6	49.3	-85.7	7.8
2025-01-09 09:08:03.282725	127.2	49.1	-85.8	8.9
2025-01-09 09:08:04.443070	127.9	49.0	-86.4	8.0
2025-01-09 09:08:05.605198	128.5	48.8	-86.2	6.8
2025-01-09 09:08:06.768544	129.1	48.7	-85.8	8.5
2025-01-09 09:08:07.941614	129.8	48.5	-85.0	6.5
2025-01-09 09:08:09.114023	130.4	48.3	-85.2	7.5
2025-01-09 09:08:10.276049	131.0	48.1	-85.1	7.6
2025-01-09 09:08:11.443242	131.6	48.0	-85.4	7.6
2025-01-09 09:08:12.600709	132.2	47.8	-86.0	7.6
2025-01-09 09:08:13.763495	132.8	47.6	-85.8	7.9
2025-01-09 09:08:14.926637	133.3	47.4	-85.7	7.6
2025-01-09 09:08:16.089495	133.9	47.3	-85.6	7.8
2025-01-09 09:08:17.262383	134.5	47.1	-85.4	7.5
2025-01-09 09:08:18.426313	135.1	46.9	-85.7	7.0
2025-01-09 09:08:19.587927	135.6	46.7	-86.0	6.4
2025-01-09 09:08:20.751472	136.2	46.5	-85.3	8.3
2025-01-09 09:08:21.927336	136.7	46.3	-86.1	7.8
2025-01-09 09:08:23.096009	137.2	46.1	-85.6	6.1
2025-01-09 09:08:24.256655	137.8	45.9	-85.6	9.8
2025-01-09 09:08:25.424474	138.3	45.7	-85.2	7.8
2025-01-09 09:08:26.589093	138.8	45.5	-85.4	9.9
2025-01-09 09:08:27.757422	139.3	45.3	-85.2	10.3
2025-01-09 09:08:28.917993	139.8	45.1	-84.7	9.5
2025-01-09 09:08:30.090166	140.3	44.9	-85.5	8.5
2025-01-09 09:08:31.251534	140.8	44.7	-84.9	10.9
2025-01-09 09:08:32.406291	141.3	44.5	-85.5	9.6
2025-01-09 09:08:33.572885	141.8	44.3	-86.2	10.6
2025-01-09 09:08:34.734899	142.2	44.1	-85.3	11.9
2025-01-09 09:08:35.896065	142.7	43.9	-85.5	8.9
2025-01-09 09:08:37.056463	143.1	43.6	-85.1	11.7
2025-01-09 09:08:38.218586	143.6	43.4	-84.9	11.2
2025-01-09 09:08:39.377032	144.0	43.2	-84.9	10.7
2025-01-09 09:08:40.535684	144.5	43.0	-84.5	9.9
2025-01-09 09:08:41.702239	144.9	42.8	-84.8	10.0
2025-01-09 09:08:42.863595	145.3	42.6	-84.7	10.9
2025-01-09 09:08:44.026604	145.8	42.4	-84.8	11.7
2025-01-09 09:08:45.195675	146.2	42.1	-85.2	13.0
2025-01-09 09:08:46.359575	146.6	41.9	-85.1	13.6
2025-01-09 09:08:47.525714	147.0	41.7	-85.0	11.1
2025-01-09 09:08:48.686983	147.4	41.5	-85.0	11.4
2025-01-09 09:08:49.849000	147.8	41.3	-84.5	11.6
2025-01-09 09:08:51.010954	148.2	41.1	-84.7	8.2
2025-01-09 09:08:52.172156	148.6	40.8	-84.5	10.4
2025-01-09 09:08:53.333110	149.0	40.6	-84.7	10.3
2025-01-09 09:08:54.502078	149.4	40.4	-84.4	9.8
2025-01-09 09:08:55.666616	149.7	40.2	-84.4	10.9
2025-01-09 09:08:56.828732	150.1	40.0	-84.3	10.8
2025-01-09 09:08:57.992349	150.5	39.8	-85.2	10.0
2025-01-09 09:08:59.153992	150.8	39.5	-84.3	6.9
2025-01-09 09:09:00.311454	151.2	39.3	-84.3	9.5
2025-01-09 09:09:01.465022	151.5	39.1	-84.5	8.3
2025-01-09 09:09:02.627994	151.8	38.9	-85.6	8.2
2025-01-09 09:09:03.788005	152.2	38.7	-85.0	9.0
2025-01-09 09:09:04.951083	152.5	38.5	-84.5	7.5
2025-01-09 09:09:06.121937	152.9	38.2	-84.8	8.6
2025-01-09 09:09:07.281743	153.2	38.0	-84.5	8.7
2025-01-09 09:09:08.445371	153.5	37.8	-83.9	5.4
2025-01-09 09:09:09.608135	153.8	37.6	-84.4	7.6
2025-01-09 09:09:10.768647	154.1	37.4	-84.6	7.4
2025-01-09 09:09:11.936125	154.4	37.2	-84.6	9.8
2025-01-09 09:09:13.095473	154.8	37.0	-84.7	8.4
2025-01-09 09:09:14.263406	155.1	36.7	-85.1	7.7
2025-01-09 09:09:15.423566	155.4	36.5	-84.9	8.9
2025-01-09 09:09:16.584496	155.6	36.3	-85.0	8.5
2025-01-09 09:09:17.751844	155.9	36.1	-85.0	10.1
2025-01-09 09:09:18.917034	156.2	35.9	-84.4	7.0
2025-01-09 09:09:20.095788	156.5	35.7	-85.1	6.6
2025-01-09 09:09:21.261100	156.8	35.5	-85.6	7.6
2025-01-09 09:09:22.424867	157.1	35.3	-85.9	6.2
2025-01-09 09:09:23.585524	157.3	35.1	-85.9	6.0
2025-01-09 09:09:24.742326	157.6	34.9	-85.9	8.5
2025-01-09 09:09:25.908200	157.9	34.6	-85.4	8.0
2025-01-09 09:09:27.075038	158.1	34.4	-85.0	7.8
2025-01-09 09:09:28.236892	158.4	34.2	-84.3	9.7
2025-01-09 09:09:29.402685	158.7	34.0	-84.4	8.9
2025-01-09 09:09:30.561030	158.9	33.8	-84.5	7.3
2025-01-09 09:09:31.723807	159.2	33.6	-84.3	9.4
2025-01-09 09:09:32.887219	159.4	33.4	-83.9	5.4
2025-01-09 09:09:34.047256	159.7	33.2	-83.5	9.3
2025-01-09 09:09:35.211296	159.9	33.0	-83.7	9.8
2025-01-09 09:09:36.367371	160.1	32.8	-83.9	9.8
2025-01-09 09:09:37.530783	160.4	32.6	-83.4	9.0
2025-01-09 09:09:38.677887	160.6	32.4	-84.6	8.3
2025-01-09 09:09:39.840635	160.8	32.2	-85.0	7.4
2025-01-09 09:09:41.003823	161.1	32.0	-84.7	8.7
2025-01-09 09:09:42.164983	161.3	31.8	-85.0	9.0
2025-01-09 09:09:43.320907	161.5	31.6	-84.6	7.0
2025-01-09 09:09:44.488019	161.7	31.4	-85.0	7.6
2025-01-09 09:09:45.654655	161.9	31.2	-84.9	7.3
2025-01-09 09:09:46.812800	162.2	31.0	-84.7	8.5
2025-01-09 09:09:47.974220	162.4	30.9	-84.5	7.8
2025-01-09 09:09:49.131443	162.6	30.7	-85.0	5.9
2025-01-09 09:09:50.298874	162.8	30.5	-85.0	8.3
2025-01-09 09:09:51.461436	163.0	30.3	-85.2	5.6
2025-01-09 09:09:52.621812	163.2	30.1	-84.1	7.4
2025-01-09 09:09:53.778074	163.4	29.9	-84.5	9.9
2025-01-09 09:09:54.948386	163.6	29.7	-84.5	8.7
2025-01-09 09:09:56.120693	163.8	29.5	-84.7	9.6
2025-01-09 09:09:57.276350	164.0	29.3	-84.8	8.5
2025-01-09 09:09:58.440997	164.2	29.2	-84.6	7.9
2025-01-09 09:09:59.599862	164.4	29.0	-84.7	9.1
2025-01-09 09:10:00.743475	164.5	28.8	-84.6	7.7
2025-01-09 09:10:01.905562	164.7	28.6	-85.4	7.1
2025-01-09 09:10:03.071684	164.9	28.4	-85.5	7.2
2025-01-09 09:10:04.234144	165.1	28.3	-84.8	8.2
2025-01-09 09:10:05.398712	165.3	28.1	-85.0	6.9
2025-01-09 09:10:06.557458	165.5	27.9	-84.2	5.8
2025-01-09 09:10:07.719339	165.6	27.7	-85.3	9.1
2025-01-09 09:10:08.876390	165.8	27.5	-85.0	9.0
2025-01-09 09:10:10.051384	166.0	27.4	-84.7	5.8
2025-01-09 09:10:11.209139	166.2	27.2	-84.5	5.9
2025-01-09 09:10:12.378712	166.3	27.0	-84.7	6.9
2025-01-09 09:10:13.535346	166.5	26.8	-85.0	5.9
2025-01-09 09:10:14.703603	166.7	26.7	-84.3	7.3
2025-01-09 09:10:15.872461	166.8	26.5	-84.4	8.8
2025-01-09 09:10:17.035937	167.0	26.3	-84.9	5.5
2025-01-09 09:10:18.198983	167.1	26.2	-84.0	7.1
2025-01-09 09:10:19.358283	167.3	26.0	-84.1	8.3
2025-01-09 09:10:20.524321	167.5	25.8	-84.7	5.4
2025-01-09 09:10:21.688511	167.6	25.7	-84.3	6.9
2025-01-09 09:10:22.848732	167.8	25.5	-84.7	5.7
2025-01-09 09:10:24.012998	167.9	25.3	-85.0	8.4
2025-01-09 09:10:25.169221	168.1	25.2	-84.6	5.7
2025-01-09 09:10:26.336194	168.2	25.0	-84.3	6.4
2025-01-09 09:10:27.496173	168.4	24.8	-84.4	6.3
2025-01-09 09:10:28.660479	168.5	24.7	-84.2	7.9
2025-01-09 09:10:29.822916	168.7	24.5	-84.0	5.5
2025-01-09 09:10:30.985791	168.8	24.3	-84.3	6.2
2025-01-09 09:10:32.146823	168.9	24.2	-84.9	7.7
2025-01-09 09:10:33.312371	169.1	24.0	-84.7	8.6
2025-01-09 09:10:34.478222	169.2	23.9	-84.6	7.0
2025-01-09 09:10:35.642870	169.4	23.7	-85.3	8.9
2025-01-09 09:10:36.807071	169.5	23.5	-85.6	8.0
2025-01-09 09:10:37.977013	169.6	23.4	-84.9	8.1
2025-01-09 09:10:39.134096	169.8	23.2	-84.9	7.3
2025-01-09 09:10:40.297651	169.9	23.1	-84.3	7.1
2025-01-09 09:10:41.460230	170.0	22.9	-84.5	6.7
2025-01-09 09:10:42.615802	170.2	22.8	-84.5	8.3
2025-01-09 09:10:43.782895	170.3	22.6	-84.4	7.8
2025-01-09 09:10:44.943903	170.4	22.5	-83.7	9.6
2025-01-09 09:10:46.104848	170.5	22.3	-84.1	8.3
2025-01-09 09:10:47.270664	170.7	22.2	-84.0	6.5
2025-01-09 09:10:48.426337	170.8	22.0	-83.9	6.7
2025-01-09 09:10:49.588111	170.9	21.9	-84.4	5.8
2025-01-09 09:10:50.748272	171.0	21.7	-84.5	6.5
2025-01-09 09:10:51.910545	171.2	21.6	-84.4	6.7
2025-01-09 09:10:53.070243	171.3	21.4	-84.2	6.9
2025-01-09 09:10:54.226452	171.4	21.3	-84.4	7.1
2025-01-09 09:10:55.391065	171.5	21.1	-84.5	7.5
2025-01-09 09:10:56.555825	171.6	21.0	-84.4	6.4
2025-01-09 09:10:57.712286	171.7	20.8	-84.5	7.5
2025-01-09 09:10:58.876703	171.9	20.7	-84.6	7.4
2025-01-09 09:11:00.043746	172.0	20.6	-84.7	5.6
2025-01-09 09:11:01.189206	172.1	20.4	-84.7	7.2
2025-01-09 09:11:02.345976	172.2	20.3	-84.8	7.0
2025-01-09 09:11:03.521350	172.3	20.1	-83.5	6.9
2025-01-09 09:11:04.684854	172.4	20.0	-84.3	6.9
2025-01-09 09:11:05.846459	172.5	19.9	-84.2	7.1
2025-01-09 09:11:07.006569	172.6	19.7	-84.1	5.6
2025-01-09 09:11:08.168085	172.7	19.6	-84.4	7.2
2025-01-09 09:11:09.325995	172.8	19.4	-84.9	7.0
2025-01-09 09:11:10.489834	172.9	19.3	-84.2	5.5
2025-01-09 09:11:11.656421	173.1	19.2	-84.1	6.2
2025-01-09 09:11:12.817175	173.2	19.0	-84.4	6.8
2025-01-09 09:11:13.978260	173.3	18.9	-83.5	4.8
2025-01-09 09:11:15.142798	173.4	18.8	-84.1	5.5
2025-01-09 09:11:16.300655	173.5	18.6	-84.4	6.0
2025-01-09 09:11:17.465656	173.6	18.5	-84.3	6.1
2025-01-09 09:11:18.629038	173.7	18.4	-84.4	6.1
2025-01-09 09:11:19.788860	173.8	18.2	-84.6	5.6
2025-01-09 09:11:20.954217	173.9	18.1	-84.2	6.7
2025-01-09 09:11:22.114978	174.0	18.0	-84.4	6.5
2025-01-09 09:11:23.279586	174.1	17.8	-84.2	4.7
2025-01-09 09:11:24.438803	174.1	17.7	-84.1	6.4
2025-01-09 09:11:25.599954	174.2	17.6	-84.2	7.0
2025-01-09 09:11:26.761133	174.3	17.5	-83.9	5.7
2025-01-09 09:11:27.922910	174.4	17.3	-84.3	6.4
2025-01-09 09:11:29.088337	174.5	17.2	-84.8	7.6
2025-01-09 09:11:30.246400	174.6	17.1	-83.9	5.1
2025-01-09 09:11:31.408389	174.7	17.0	-84.4	7.7
2025-01-09 09:11:32.571021	174.8	16.8	-84.6	6.6
2025-01-09 09:11:33.729362	174.9	16.7	-85.0	7.4
2025-01-09 09:11:34.894866	175.0	16.6	-84.2	4.8
2025-01-09 09:11:36.055056	175.1	16.5	-84.8	7.0
2025-01-09 09:11:37.211507	175.1	16.3	-84.9	5.9
2025-01-09 09:11:38.374527	175.2	16.2	-84.7	5.8
2025-01-09 09:11:39.534101	175.3	16.1	-84.9	8.2
2025-01-09 09:11:40.697822	175.4	16.0	-84.2	5.6
2025-01-09 09:11:41.861338	175.5	15.9	-84.2	7.7
2025-01-09 09:11:43.017439	175.6	15.7	-84.5	5.3
2025-01-09 09:11:44.182800	175.7	15.6	-85.8	5.4
2025-01-09 09:11:45.347247	175.7	15.5	-84.8	5.4
2025-01-09 09:11:46.507578	175.8	15.4	-84.7	5.3
2025-01-09 09:11:47.678874	175.9	15.3	-84.8	6.7
2025-01-09 09:11:48.841466	176.0	15.1	-84.6	5.4
2025-01-09 09:11:50.006086	176.1	15.0	-84.3	6.8
2025-01-09 09:11:51.167744	176.1	14.9	-84.0	6.3
2025-01-09 09:11:52.337019	176.2	14.8	-84.2	8.1
2025-01-09 09:11:53.493049	176.3	14.7	-84.5	4.9
2025-01-09 09:11:54.650788	176.4	14.6	-84.9	6.2
#Closed at: 2025-01-09 09:02:59.651448