passes_logs/2026/01/09/T1/T1__20260109_033122_FENGYUN_3G_rec.log

#Pass ID: 20260109_033122_FENGYUN 3G
#Satellite: FENGYUN 3G
#Configuration: FENGYUN 3G
#almurnet v.1.7.20251203
#Start time: 2026-01-09 03:31:24

#Version: 2.0.20230620
#Station: T1
#Location: 37.570604 lon 55.790049 lat
#TLE: 1 56232U 23055A   26008.48762740  .00031983  00000+0  50485-3 0  9995
#TLE: 2 56232  49.9936  89.5247 0004286 357.0620   3.0321 15.53163078155186

#Time	Az	El	Level	Level2	SNR	BER	BlckErr	Temp	State	Recorded	gain1	gain2
2026-01-09 03:31:24.57	259.71	4.64	-48.1	-67.3	3.8	8.47e-01	0	41	0	0	67	33693
2026-01-09 03:31:25.57	259.60	4.71	-48.2	-67.5	3.8	8.38e-01	0	41	104	0	68	32434
2026-01-09 03:31:26.57	259.49	4.78	-48.3	-67.5	3.8	8.46e-01	0	40	104	0	68	32324
2026-01-09 03:31:27.57	259.38	4.85	-48.3	-67.5	3.8	8.46e-01	0	40	104	0	68	32433
2026-01-09 03:31:28.58	259.27	4.92	-48.3	-67.5	3.8	8.46e-01	0	41	104	0	68	32482
2026-01-09 03:31:29.58	259.16	4.99	-48.3	-67.5	3.8	8.46e-01	0	41	104	0	68	32376
2026-01-09 03:31:30.59	259.04	5.07	-48.2	-67.5	3.8	8.47e-01	0	41	104	0	68	32324
2026-01-09 03:31:31.59	258.93	5.14	-48.2	-67.5	3.8	8.47e-01	0	41	104	0	68	32280
2026-01-09 03:31:32.59	258.82	5.21	-48.2	-67.5	3.8	8.47e-01	0	41	104	0	68	32261
2026-01-09 03:31:33.60	258.70	5.28	-48.2	-67.5	3.8	8.46e-01	0	41	104	0	68	32256
2026-01-09 03:31:34.60	258.58	5.35	-48.1	-67.4	3.8	8.46e-01	0	41	104	0	68	32093
2026-01-09 03:31:35.61	258.47	5.42	-48.2	-67.4	3.8	8.47e-01	0	41	104	0	68	31999
2026-01-09 03:31:36.61	258.35	5.49	-48.2	-67.4	3.8	8.47e-01	0	41	104	0	68	31960
2026-01-09 03:31:37.62	258.23	5.57	-48.2	-67.4	3.8	8.47e-01	0	41	104	0	68	32074
2026-01-09 03:31:38.62	258.11	5.64	-48.2	-67.4	3.8	8.47e-01	0	41	104	0	68	31954
2026-01-09 03:31:39.63	257.99	5.71	-48.2	-67.4	3.8	8.46e-01	0	41	104	0	68	31994
2026-01-09 03:31:40.63	257.87	5.78	-48.2	-67.4	3.8	8.47e-01	0	41	104	0	68	31855
2026-01-09 03:31:41.64	257.74	5.86	-48.2	-67.4	3.8	8.47e-01	0	41	104	0	68	31884
2026-01-09 03:31:42.64	257.62	5.93	-48.2	-67.4	3.8	8.47e-01	0	41	104	0	68	31867
2026-01-09 03:31:43.64	257.50	6.00	-48.1	-67.3	3.8	8.46e-01	0	41	104	0	68	31613
2026-01-09 03:31:44.65	257.37	6.08	-48.2	-67.3	3.8	8.46e-01	0	41	104	0	68	31460
2026-01-09 03:31:45.65	257.25	6.15	-48.3	-67.3	3.8	8.47e-01	0	41	104	0	68	31586
2026-01-09 03:31:46.65	257.12	6.23	-48.1	-67.2	3.8	8.47e-01	0	41	104	0	68	31286
2026-01-09 03:31:47.66	256.99	6.30	-48.2	-67.3	3.8	8.47e-01	0	41	104	0	68	31546
2026-01-09 03:31:48.66	256.86	6.38	-48.2	-67.4	3.8	8.47e-01	0	42	104	0	68	31831
2026-01-09 03:31:49.67	256.73	6.45	-48.1	-67.4	3.8	8.48e-01	0	42	104	0	68	31984
2026-01-09 03:31:50.67	256.60	6.53	-48.1	-67.5	3.8	8.48e-01	0	42	104	0	68	32220
2026-01-09 03:31:51.68	256.47	6.60	-48.2	-67.5	3.8	8.48e-01	0	41	104	0	68	32311
2026-01-09 03:31:52.68	256.34	6.68	-48.1	-67.4	3.8	8.46e-01	0	42	104	0	68	32055
2026-01-09 03:31:53.69	256.20	6.75	-48.1	-67.4	3.8	8.46e-01	0	42	104	0	68	31841
2026-01-09 03:31:54.69	256.07	6.83	-48.0	-67.3	3.8	8.46e-01	0	42	104	0	68	31609
2026-01-09 03:31:55.70	255.93	6.90	-48.2	-67.2	3.8	8.47e-01	0	41	104	0	68	31326
2026-01-09 03:31:56.70	255.80	6.98	-48.1	-67.2	3.8	8.46e-01	0	42	104	0	68	31426
2026-01-09 03:31:57.71	255.66	7.06	-48.1	-67.1	3.8	8.46e-01	0	42	104	0	68	31003
2026-01-09 03:31:58.71	255.52	7.13	-48.2	-67.1	3.8	8.48e-01	0	42	104	0	68	31085
2026-01-09 03:31:59.71	255.38	7.21	-48.1	-67.2	3.8	8.46e-01	0	42	104	0	68	31137
2026-01-09 03:32:00.72	255.24	7.29	-48.2	-67.2	3.8	8.46e-01	0	42	104	0	68	31199
2026-01-09 03:32:01.72	255.10	7.37	-48.2	-67.1	3.8	8.47e-01	0	42	104	0	68	30974
2026-01-09 03:32:02.73	254.96	7.44	-48.2	-67.0	3.8	8.46e-01	0	42	104	0	68	30650
2026-01-09 03:32:03.73	254.81	7.52	-48.1	-66.8	3.8	8.46e-01	0	42	104	0	68	29691
2026-01-09 03:32:04.74	254.67	7.60	-48.1	-66.5	3.8	8.47e-01	0	42	104	0	68	28774
2026-01-09 03:32:05.74	254.52	7.68	-48.1	-66.4	3.8	8.46e-01	0	42	104	0	68	28455
2026-01-09 03:32:06.75	254.37	7.76	-48.2	-66.5	3.8	8.46e-01	0	42	104	0	68	28693
2026-01-09 03:32:07.75	254.23	7.84	-48.2	-66.9	3.8	8.46e-01	0	42	104	0	68	30071
2026-01-09 03:32:08.76	254.08	7.92	-48.2	-67.1	3.8	8.46e-01	0	42	104	0	68	30779
2026-01-09 03:32:09.76	253.93	7.99	-48.1	-67.4	3.8	8.47e-01	0	42	104	0	68	31875
2026-01-09 03:32:10.76	253.78	8.07	-48.1	-67.4	3.8	8.47e-01	0	42	104	0	68	32150
2026-01-09 03:32:11.77	253.62	8.15	-48.1	-67.4	3.8	8.46e-01	0	42	104	0	68	32015
2026-01-09 03:32:12.77	253.47	8.23	-48.2	-67.3	3.8	8.48e-01	0	42	104	0	68	31776
2026-01-09 03:32:13.78	253.31	8.31	-48.1	-67.1	3.8	8.48e-01	0	42	104	0	68	30991
2026-01-09 03:32:14.78	253.16	8.39	-48.0	-66.3	3.8	8.47e-01	0	42	104	0	68	28167
2026-01-09 03:32:15.79	253.00	8.48	-48.0	-64.5	4.0	8.45e-01	0	42	104	0	68	22939
2026-01-09 03:32:16.79	252.84	8.56	-47.8	-62.6	4.5	8.45e-01	0	42	0	0	67	19474
2026-01-09 03:32:17.79	252.68	8.64	-47.7	-60.6	5.7	8.34e-01	0	42	0	0	67	15510
2026-01-09 03:32:18.80	252.52	8.72	-47.5	-58.9	7.1	5.79e-01	0	42	0	0	67	12675
2026-01-09 03:32:19.80	252.36	8.80	-47.3	-57.0	9.0	5.79e-01	0	42	0	0	66	10792
2026-01-09 03:32:20.81	252.19	8.88	-46.8	-54.7	11.3	1.13e-01	0	42	0	0	65	8827
2026-01-09 03:32:21.81	252.03	8.96	-46.2	-52.7	13.4	6.60e-03	0	42	0	0	64	7396
2026-01-09 03:32:22.82	251.86	9.05	-45.8	-51.2	15.1	3.43e-05	0	42	0	0	63	6611
2026-01-09 03:32:23.82	251.70	9.13	-44.8	-49.2	17.0	3.43e-05	0	42	0	0	61	5882
2026-01-09 03:32:24.82	251.53	9.21	-46.5	-53.2	13.2	0.00e+00	0	42	0	0	63	8365
2026-01-09 03:32:25.82	251.36	9.29	-45.2	-49.9	16.4	3.77e-05	0	42	0	0	62	6030
2026-01-09 03:32:26.83	251.19	9.38	-42.5	-45.5	20.7	3.77e-05	0	42	0	0	57	4866
2026-01-09 03:32:27.83	251.01	9.46	-46.6	-54.3	12.4	0.00e+00	0	42	0	0	63	9461
2026-01-09 03:32:28.83	250.84	9.54	-42.6	-45.7	20.5	1.61e-03	0	42	0	0	57	4937
2026-01-09 03:32:29.84	250.66	9.63	-41.5	-44.2	22.0	1.61e-03	0	42	0	0	55	4686
2026-01-09 03:32:30.84	250.49	9.71	-41.5	-44.2	22.0	0.00e+00	0	42	0	0	54	4944
2026-01-09 03:32:31.89	250.30	9.80	-41.7	-44.4	21.9	0.00e+00	0	42	0	0	54	5043
2026-01-09 03:32:32.76	250.15	9.87	-41.6	-44.2	21.9	0.00e+00	0	42	0	0	54	4981
2026-01-09 03:32:33.91	249.94	9.97	-41.5	-44.1	22.1	0.00e+00	0	42	0	0	54	4926
2026-01-09 03:32:34.77	249.78	10.04	-41.5	-44.2	22.0	0.00e+00	0	42	0	0	54	4969
2026-01-09 03:32:35.92	249.57	10.14	-41.2	-43.9	22.3	0.00e+00	0	42	0	0	54	4774
2026-01-09 03:32:36.77	249.41	10.21	-41.3	-44.0	22.2	0.00e+00	0	42	0	0	54	4845
2026-01-09 03:32:37.91	249.20	10.31	-41.3	-43.9	22.3	0.00e+00	0	42	0	0	54	4805
2026-01-09 03:32:38.78	249.04	10.39	-41.2	-43.9	22.3	0.00e+00	0	42	0	0	54	4782
2026-01-09 03:32:39.92	248.82	10.48	-40.9	-43.5	22.6	0.00e+00	0	43	0	0	53	4847
2026-01-09 03:32:40.78	248.66	10.56	-40.9	-43.5	22.7	0.00e+00	0	42	0	0	53	4825
2026-01-09 03:32:41.93	248.44	10.66	-40.7	-43.2	23.0	0.00e+00	0	42	0	0	53	4697
2026-01-09 03:32:42.79	248.27	10.73	-40.5	-42.9	23.2	0.00e+00	0	42	0	0	52	4810
2026-01-09 03:32:43.93	248.05	10.83	-40.3	-42.7	23.5	0.00e+00	0	42	0	0	52	4685
2026-01-09 03:32:44.80	247.88	10.91	-40.2	-42.6	23.6	0.00e+00	0	42	0	0	52	4617
2026-01-09 03:32:45.94	247.65	11.00	-40.2	-42.6	23.5	0.00e+00	0	42	0	0	52	4643
2026-01-09 03:32:46.80	247.48	11.08	-40.3	-42.8	23.4	0.00e+00	0	42	0	0	52	4726
2026-01-09 03:32:47.95	247.25	11.18	-40.4	-42.9	23.3	0.00e+00	0	43	0	0	52	4797
2026-01-09 03:32:48.81	247.07	11.25	-40.5	-43.0	23.2	0.00e+00	0	43	0	0	52	4866
2026-01-09 03:32:49.95	246.84	11.35	-40.5	-43.0	23.2	0.00e+00	0	42	0	0	52	4845
2026-01-09 03:32:50.81	246.66	11.43	-40.5	-43.0	23.3	0.00e+00	0	42	0	0	52	4839
2026-01-09 03:32:51.96	246.42	11.53	-40.6	-43.1	23.1	0.00e+00	0	42	0	0	52	4896
2026-01-09 03:32:52.82	246.24	11.61	-40.6	-43.2	23.1	0.00e+00	0	42	0	0	52	4935
2026-01-09 03:32:53.96	246.00	11.71	-40.3	-42.9	23.4	0.00e+00	0	43	0	0	52	4771
2026-01-09 03:32:54.82	245.82	11.78	-40.2	-42.7	23.5	0.00e+00	0	42	0	0	52	4661
2026-01-09 03:32:55.97	245.57	11.89	-40.2	-42.7	23.5	0.00e+00	0	42	0	0	52	4683
2026-01-09 03:32:56.83	245.39	11.96	-40.0	-42.3	23.9	0.00e+00	0	42	0	0	51	4749
2026-01-09 03:32:58.09	245.11	12.08	-39.9	-42.2	24.0	0.00e+00	0	42	0	0	51	4689
2026-01-09 03:32:58.85	244.94	12.14	-40.1	-42.4	23.9	0.00e+00	0	42	0	0	51	4770
2026-01-09 03:33:00.14	244.66	12.26	-40.0	-42.3	24.0	0.00e+00	0	43	0	0	51	4725
2026-01-09 03:33:00.85	244.50	12.32	-40.1	-42.4	23.9	0.00e+00	0	43	0	0	51	4806
2026-01-09 03:33:02.14	244.21	12.44	-40.3	-42.7	23.7	0.00e+00	0	42	0	0	51	4927
2026-01-09 03:33:02.86	244.04	12.50	-40.2	-42.5	23.7	0.00e+00	0	42	0	0	51	4866
2026-01-09 03:33:04.14	243.75	12.62	-40.1	-42.4	23.9	0.00e+00	0	43	0	0	51	4791
2026-01-09 03:33:04.86	243.59	12.68	-40.0	-42.3	24.0	0.00e+00	0	43	0	0	51	4726
2026-01-09 03:33:06.15	243.28	12.80	-40.0	-42.3	24.0	0.00e+00	0	42	0	0	51	4745
2026-01-09 03:33:06.87	243.12	12.86	-39.7	-42.0	24.3	0.00e+00	0	42	0	0	51	4583
2026-01-09 03:33:08.16	242.81	12.98	-39.5	-41.8	24.5	0.00e+00	0	43	0	0	51	4462
2026-01-09 03:33:08.87	242.64	13.04	-39.4	-41.6	24.7	0.00e+00	0	42	0	0	50	4637
2026-01-09 03:33:10.16	242.33	13.16	-39.4	-41.6	24.7	0.00e+00	0	42	0	0	50	4629
2026-01-09 03:33:11.07	242.11	13.24	-39.3	-41.6	24.7	0.00e+00	0	42	0	0	50	4611
2026-01-09 03:33:12.40	241.78	13.37	-39.4	-41.7	24.6	0.00e+00	0	42	0	0	50	4665
2026-01-09 03:33:13.12	241.61	13.43	-39.7	-42.0	24.3	0.00e+00	0	43	0	0	50	4824
2026-01-09 03:33:14.75	241.20	13.58	-39.7	-42.0	24.3	0.00e+00	0	43	0	0	50	4819
2026-01-09 03:33:15.32	241.06	13.63	-39.8	-42.1	24.3	0.00e+00	0	43	0	0	50	4885
2026-01-09 03:33:16.91	240.65	13.78	-39.8	-42.2	24.1	0.00e+00	0	43	0	0	50	4939
2026-01-09 03:33:17.48	240.51	13.83	-39.7	-42.1	24.3	0.00e+00	0	43	0	0	50	4876
2026-01-09 03:33:19.06	240.10	13.97	-39.3	-41.6	24.7	0.00e+00	0	43	0	0	50	4629
2026-01-09 03:33:19.76	239.92	14.04	-39.1	-41.4	24.9	0.00e+00	0	43	0	0	50	4499
2026-01-09 03:33:21.05	239.58	14.15	-38.9	-41.1	25.1	0.00e+00	0	43	0	0	49	4632
2026-01-09 03:33:21.77	239.39	14.22	-38.8	-40.9	25.3	0.00e+00	0	43	0	0	49	4544
2026-01-09 03:33:23.05	239.05	14.34	-38.9	-41.1	25.2	0.00e+00	0	43	0	0	49	4609
2026-01-09 03:33:23.77	238.86	14.40	-39.0	-41.2	25.1	0.00e+00	0	43	0	0	49	4666
2026-01-09 03:33:25.14	238.48	14.53	-39.4	-41.6	24.7	0.00e+00	0	43	0	0	49	4910
2026-01-09 03:33:26.13	238.21	14.62	-39.6	-41.8	24.4	0.00e+00	0	43	0	0	49	5026
2026-01-09 03:33:27.47	237.84	14.74	-39.7	-42.0	24.4	0.00e+00	0	43	0	0	50	4828
2026-01-09 03:33:28.22	237.64	14.81	-39.8	-42.0	24.4	0.00e+00	0	43	0	0	50	4846
2026-01-09 03:33:29.51	237.27	14.92	-39.6	-41.8	24.5	0.00e+00	0	43	0	0	50	4751
2026-01-09 03:33:30.23	237.07	14.99	-39.2	-41.4	24.9	0.00e+00	0	43	0	0	50	4511
2026-01-09 03:33:31.51	236.71	15.11	-38.9	-41.0	25.2	0.00e+00	0	43	0	0	49	4588
2026-01-09 03:33:32.23	236.50	15.17	-38.6	-40.8	25.4	0.00e+00	0	43	0	0	49	4459
2026-01-09 03:33:33.52	236.13	15.29	-38.5	-40.7	25.5	0.00e+00	0	43	0	0	49	4421
2026-01-09 03:33:34.24	235.92	15.35	-38.5	-40.7	25.5	0.00e+00	0	43	0	0	49	4406
2026-01-09 03:33:35.53	235.54	15.47	-38.6	-40.8	25.5	0.00e+00	0	43	0	0	49	4446
2026-01-09 03:33:36.24	235.33	15.53	-38.6	-40.7	25.5	0.00e+00	0	43	0	0	49	4437
2026-01-09 03:33:37.53	234.94	15.65	-38.8	-41.0	25.3	0.00e+00	0	43	0	0	49	4551
2026-01-09 03:33:38.25	234.73	15.72	-38.9	-41.1	25.2	0.00e+00	0	43	0	0	49	4623
2026-01-09 03:33:39.67	234.30	15.84	-39.0	-41.2	25.1	0.00e+00	0	43	0	0	49	4658
2026-01-09 03:33:40.66	233.99	15.93	-39.1	-41.2	25.1	0.00e+00	0	43	0	0	49	4694
2026-01-09 03:33:41.96	233.59	16.05	-39.1	-41.2	25.0	0.00e+00	0	43	0	0	49	4702
2026-01-09 03:33:42.71	233.36	16.11	-39.3	-41.5	24.9	0.00e+00	0	43	0	0	49	4820
2026-01-09 03:33:44.00	232.95	16.23	-38.8	-40.9	25.3	0.00e+00	0	43	0	0	49	4529
2026-01-09 03:33:44.72	232.73	16.29	-38.6	-40.7	25.5	0.00e+00	0	43	0	0	49	4432
2026-01-09 03:33:46.01	232.32	16.41	-38.3	-40.4	25.8	0.00e+00	0	43	0	0	48	4527
2026-01-09 03:33:46.73	232.09	16.47	-38.3	-40.4	25.8	0.00e+00	0	43	0	0	48	4512
2026-01-09 03:33:48.02	231.67	16.58	-38.0	-40.1	26.0	0.00e+00	0	43	0	0	47	4604
2026-01-09 03:33:48.73	231.44	16.64	-38.1	-40.1	25.8	0.00e+00	0	43	0	0	47	4648
2026-01-09 03:33:50.02	231.02	16.76	-38.3	-40.4	25.8	0.00e+00	0	43	0	0	47	4782
2026-01-09 03:33:50.74	230.78	16.82	-38.3	-40.5	25.7	0.00e+00	0	43	0	0	47	4817
2026-01-09 03:33:52.03	230.35	16.93	-38.5	-40.7	25.6	0.00e+00	0	43	0	0	47	4934
2026-01-09 03:33:52.75	230.11	16.99	-38.6	-40.7	25.5	0.00e+00	0	43	0	0	47	4965
2026-01-09 03:33:54.04	229.68	17.10	-39.0	-41.2	25.1	0.00e+00	0	43	0	0	48	4928
2026-01-09 03:33:54.76	229.43	17.16	-38.9	-41.0	25.3	0.00e+00	0	43	0	0	48	4855
2026-01-09 03:33:56.04	228.99	17.27	-38.7	-40.8	25.4	0.00e+00	0	43	0	0	48	4723
2026-01-09 03:33:56.76	228.75	17.33	-38.8	-40.9	25.4	0.00e+00	0	43	0	0	48	4780
2026-01-09 03:33:58.05	228.30	17.44	-38.7	-40.8	25.4	0.00e+00	0	43	0	0	48	4750
2026-01-09 03:33:58.86	228.02	17.51	-38.5	-40.6	25.6	0.00e+00	0	43	0	0	48	4608
2026-01-09 03:34:00.01	227.61	17.60	-38.0	-40.1	26.1	0.00e+00	0	43	0	0	48	4364
2026-01-09 03:34:00.87	227.31	17.67	-38.0	-40.1	26.1	0.00e+00	0	43	0	0	47	4603
2026-01-09 03:34:02.01	226.90	17.77	-38.0	-40.0	26.1	0.00e+00	0	43	0	0	47	4583
2026-01-09 03:34:02.87	226.59	17.84	-37.8	-39.9	26.1	0.00e+00	0	43	0	0	47	4502
2026-01-09 03:34:04.02	226.18	17.93	-37.5	-39.5	26.6	0.00e+00	0	43	0	0	47	4334
2026-01-09 03:34:04.88	225.87	18.00	-37.6	-39.7	26.4	0.00e+00	0	43	0	0	46	4678
2026-01-09 03:34:06.03	225.45	18.09	-37.7	-39.7	26.4	0.00e+00	0	43	0	0	46	4679
2026-01-09 03:34:06.89	225.13	18.15	-37.7	-39.8	26.2	0.00e+00	0	43	0	0	46	4736
2026-01-09 03:34:08.13	224.67	18.25	-37.9	-40.0	26.2	0.00e+00	0	43	0	0	46	4817
2026-01-09 03:34:08.99	224.35	18.32	-38.0	-40.1	26.1	0.00e+00	0	43	0	0	46	4876
2026-01-09 03:34:10.13	223.92	18.40	-38.1	-40.2	26.0	0.00e+00	0	43	0	0	46	4950
2026-01-09 03:34:10.99	223.60	18.47	-38.3	-40.4	25.8	0.00e+00	0	43	0	0	47	4764
2026-01-09 03:34:12.14	223.16	18.55	-38.3	-40.4	25.7	0.00e+00	0	43	0	0	47	4809
2026-01-09 03:34:13.00	222.83	18.62	-38.4	-40.6	25.7	0.00e+00	0	43	0	0	47	4879
2026-01-09 03:34:14.14	222.39	18.70	-38.5	-40.6	25.6	0.00e+00	0	43	0	0	47	4920
2026-01-09 03:34:15.15	222.00	18.77	-38.6	-40.8	25.5	0.00e+00	0	43	0	0	47	4986
2026-01-09 03:34:16.15	221.61	18.85	-38.6	-40.7	25.6	0.00e+00	0	43	0	0	48	4686
2026-01-09 03:34:17.15	221.22	18.92	-38.6	-40.8	25.5	0.00e+00	0	43	0	0	48	4710
2026-01-09 03:34:18.16	220.83	18.99	-38.7	-40.9	25.5	0.00e+00	0	43	0	0	48	4772
2026-01-09 03:34:19.16	220.43	19.06	-38.5	-40.6	25.6	0.00e+00	0	43	0	0	48	4647
2026-01-09 03:34:20.16	220.03	19.12	-38.4	-40.5	25.8	0.00e+00	0	43	0	0	48	4549
2026-01-09 03:34:21.17	219.63	19.19	-38.2	-40.3	26.0	0.00e+00	0	43	0	0	48	4454
2026-01-09 03:34:22.17	219.23	19.26	-38.0	-40.0	26.2	0.00e+00	0	43	0	0	47	4576
2026-01-09 03:34:23.17	218.82	19.32	-38.0	-40.1	26.0	0.00e+00	0	43	0	0	47	4642
2026-01-09 03:34:24.18	218.41	19.38	-38.2	-40.3	25.9	0.00e+00	0	43	0	0	47	4713
2026-01-09 03:34:25.18	218.00	19.45	-38.2	-40.3	26.0	0.00e+00	0	43	0	0	47	4714
2026-01-09 03:34:26.18	217.59	19.51	-38.2	-40.3	25.9	0.00e+00	0	43	0	0	47	4724
2026-01-09 03:34:27.18	217.18	19.57	-38.0	-40.1	26.1	0.00e+00	0	43	0	0	47	4600
2026-01-09 03:34:28.19	216.76	19.63	-37.9	-40.0	26.2	0.00e+00	0	43	0	0	47	4557
2026-01-09 03:34:29.19	216.34	19.69	-37.5	-39.5	26.6	0.00e+00	0	43	0	0	47	4312
2026-01-09 03:34:30.27	215.89	19.75	-37.4	-39.4	26.6	0.00e+00	0	43	0	0	46	4540
2026-01-09 03:34:31.16	215.52	19.80	-37.6	-39.6	26.5	0.00e+00	0	43	0	0	46	4640
2026-01-09 03:34:32.22	215.07	19.86	-37.8	-39.9	26.3	0.00e+00	0	43	0	0	46	4794
2026-01-09 03:34:33.23	214.64	19.91	-37.9	-40.0	26.1	0.00e+00	0	43	0	0	46	4864
2026-01-09 03:34:34.39	214.15	19.97	-37.8	-39.9	26.3	0.00e+00	0	43	0	0	46	4763
2026-01-09 03:34:35.25	213.78	20.01	-37.8	-39.8	26.3	0.00e+00	0	43	0	0	46	4748
2026-01-09 03:34:36.60	213.20	20.08	-38.0	-40.1	26.1	0.00e+00	0	43	0	0	46	4882
2026-01-09 03:34:37.73	212.72	20.14	-38.4	-40.5	25.0	0.00e+00	0	43	0	0	47	4855
2026-01-09 03:34:38.59	212.34	20.18	-38.4	-40.5	25.7	0.00e+00	0	43	0	0	47	4827
2026-01-09 03:34:39.74	211.84	20.23	-38.3	-40.4	25.8	0.00e+00	0	43	0	0	47	4767
2026-01-09 03:34:40.60	211.47	20.26	-38.5	-40.7	25.5	0.00e+00	0	43	0	0	47	4928
2026-01-09 03:34:41.74	210.97	20.31	-38.7	-40.8	25.4	0.00e+00	0	43	0	0	47	5026
2026-01-09 03:34:42.60	210.59	20.35	-38.5	-40.6	25.6	0.00e+00	0	43	0	0	47	4911
2026-01-09 03:34:43.89	210.02	20.40	-38.3	-40.4	25.9	0.00e+00	0	43	0	0	47	4766
2026-01-09 03:34:44.61	209.71	20.43	-38.3	-40.4	25.8	0.00e+00	0	43	0	0	47	4777
2026-01-09 03:34:45.90	209.13	20.47	-38.2	-40.3	25.9	0.00e+00	0	43	0	0	47	4727
2026-01-09 03:34:46.62	208.81	20.50	-38.3	-40.4	25.8	0.00e+00	0	43	0	0	47	4791
2026-01-09 03:34:47.91	208.24	20.54	-38.7	-40.8	25.6	0.00e+00	0	43	0	0	48	4709
2026-01-09 03:34:48.63	207.92	20.56	-38.8	-40.9	25.4	0.00e+00	0	43	0	0	48	4797
2026-01-09 03:34:49.92	207.34	20.60	-38.4	-40.5	25.8	0.00e+00	0	43	0	0	48	4571
2026-01-09 03:34:50.63	207.02	20.62	-38.3	-40.3	26.0	0.00e+00	0	43	0	0	48	4471
2026-01-09 03:34:51.92	206.44	20.66	-38.4	-40.5	25.8	0.00e+00	0	43	0	0	48	4560
2026-01-09 03:34:52.64	206.12	20.68	-38.4	-40.5	25.7	0.00e+00	0	43	0	0	48	4591
2026-01-09 03:34:53.93	205.53	20.71	-38.4	-40.5	25.8	0.00e+00	0	43	0	0	48	4574
2026-01-09 03:34:54.65	205.21	20.73	-38.2	-40.2	26.0	0.00e+00	0	43	0	0	48	4441
2026-01-09 03:34:55.97	204.61	20.75	-38.4	-40.4	25.8	0.00e+00	0	43	0	0	48	4539
2026-01-09 03:34:56.68	204.29	20.77	-38.4	-40.5	25.8	0.00e+00	0	43	0	0	48	4577
2026-01-09 03:34:58.09	203.65	20.79	-38.1	-40.1	26.1	0.00e+00	0	43	0	0	48	4390
2026-01-09 03:34:58.80	203.32	20.80	-37.7	-39.8	26.3	0.00e+00	0	43	0	0	47	4452
2026-01-09 03:35:00.15	202.71	20.82	-37.5	-39.6	26.6	0.00e+00	0	43	0	0	47	4347
2026-01-09 03:35:00.87	202.38	20.83	-37.5	-39.5	26.6	0.00e+00	0	43	0	0	47	4335
2026-01-09 03:35:02.16	201.79	20.85	-37.1	-39.1	27.0	0.00e+00	0	43	0	0	46	4344
2026-01-09 03:35:03.21	201.31	20.86	-36.8	-38.8	27.2	0.00e+00	0	43	0	0	45	4462
2026-01-09 03:35:04.08	200.91	20.86	-37.0	-39.0	27.0	0.00e+00	0	43	0	0	45	4571
2026-01-09 03:35:05.22	200.39	20.87	-37.1	-39.1	27.0	0.00e+00	0	43	0	0	45	4606
2026-01-09 03:35:06.08	200.00	20.87	-37.0	-39.0	27.1	0.00e+00	0	43	0	0	45	4553
2026-01-09 03:35:07.23	199.47	20.88	-36.8	-38.8	27.2	0.00e+00	0	43	0	0	45	4488
2026-01-09 03:35:08.09	199.08	20.88	-37.0	-38.9	27.1	0.00e+00	0	43	0	0	45	4540
2026-01-09 03:35:09.24	198.55	20.88	-37.3	-39.3	26.8	0.00e+00	0	43	0	0	45	4727
2026-01-09 03:35:10.10	198.15	20.87	-37.3	-39.4	26.7	0.00e+00	0	43	0	0	45	4769
2026-01-09 03:35:11.48	197.52	20.87	-37.4	-39.5	26.6	0.00e+00	0	43	0	0	45	4816
2026-01-09 03:35:12.19	197.20	20.86	-37.6	-39.6	26.5	0.00e+00	0	43	0	0	45	4925
2026-01-09 03:35:13.49	196.60	20.85	-37.7	-39.7	26.4	0.00e+00	0	43	0	0	46	4676
2026-01-09 03:35:14.20	196.28	20.85	-37.7	-39.8	26.4	0.00e+00	0	43	0	0	46	4723
2026-01-09 03:35:15.49	195.69	20.83	-37.6	-39.6	26.5	0.00e+00	0	43	0	0	46	4638
2026-01-09 03:35:16.21	195.36	20.83	-37.7	-39.8	26.4	0.00e+00	0	43	0	0	46	4720
2026-01-09 03:35:17.50	194.77	20.81	-37.5	-39.5	26.6	0.00e+00	0	43	0	0	46	4596
2026-01-09 03:35:18.22	194.44	20.80	-37.3	-39.4	26.8	0.00e+00	0	43	0	0	46	4496
2026-01-09 03:35:19.51	193.86	20.77	-37.1	-39.1	27.0	0.00e+00	0	43	0	0	46	4388
2026-01-09 03:35:20.22	193.53	20.76	-37.3	-39.3	26.8	0.00e+00	0	43	0	0	46	4451
2026-01-09 03:35:21.58	192.92	20.73	-37.4	-39.4	26.7	0.00e+00	0	43	0	0	46	4510
2026-01-09 03:35:22.55	192.48	20.71	-37.5	-39.5	26.7	0.00e+00	0	43	0	0	46	4564
2026-01-09 03:35:23.55	192.03	20.69	-37.7	-39.8	26.4	0.00e+00	0	43	0	0	46	4728
2026-01-09 03:35:24.56	191.57	20.66	-38.0	-40.1	26.1	0.00e+00	0	43	0	0	46	4914
2026-01-09 03:35:25.56	191.12	20.63	-37.9	-40.0	26.2	0.00e+00	0	43	0	0	46	4832
2026-01-09 03:35:26.56	190.67	20.60	-38.0	-40.1	26.1	0.00e+00	0	43	0	0	46	4926
2026-01-09 03:35:27.57	190.22	20.57	-38.0	-40.1	26.1	0.00e+00	0	43	0	0	46	4922
2026-01-09 03:35:28.57	189.77	20.54	-37.9	-40.0	26.1	0.00e+00	0	43	0	0	46	4855
2026-01-09 03:35:29.57	189.33	20.51	-37.8	-39.9	26.3	0.00e+00	0	43	0	0	46	4794
2026-01-09 03:35:30.57	188.88	20.47	-38.0	-40.1	26.1	0.00e+00	0	43	0	0	46	4892
2026-01-09 03:35:31.58	188.43	20.44	-38.1	-40.2	26.0	0.00e+00	0	43	0	0	46	4937
2026-01-09 03:35:32.58	187.99	20.40	-38.3	-40.4	25.9	0.00e+00	0	43	0	0	47	4770
2026-01-09 03:35:33.58	187.55	20.36	-38.7	-40.8	25.5	0.00e+00	0	43	0	0	47	5023
2026-01-09 03:35:34.59	187.11	20.32	-38.8	-40.9	25.5	0.00e+00	0	43	0	0	48	4782
2026-01-09 03:35:35.59	186.67	20.28	-38.7	-40.9	25.5	0.00e+00	0	43	0	0	48	4772
2026-01-09 03:35:36.59	186.23	20.24	-38.3	-40.4	25.9	0.00e+00	0	43	0	0	48	4496
2026-01-09 03:35:37.77	185.72	20.18	-37.9	-39.9	26.2	0.00e+00	0	43	0	0	47	4537
2026-01-09 03:35:38.66	185.33	20.14	-37.7	-39.8	26.4	0.00e+00	0	43	0	0	47	4461
2026-01-09 03:35:39.80	184.84	20.09	-37.6	-39.7	26.5	0.00e+00	0	43	0	0	47	4401
2026-01-09 03:35:40.66	184.47	20.04	-38.1	-40.2	26.0	0.00e+00	0	43	0	0	47	4698
2026-01-09 03:35:42.03	183.88	19.98	-38.1	-40.2	26.0	0.00e+00	0	43	0	0	47	4665
2026-01-09 03:35:42.75	183.58	19.94	-38.0	-40.1	26.2	0.00e+00	0	43	0	0	47	4599
2026-01-09 03:35:44.03	183.03	19.87	-38.0	-40.0	26.2	0.00e+00	0	43	0	0	47	4589
2026-01-09 03:35:44.75	182.73	19.83	-37.9	-39.9	26.3	0.00e+00	0	43	0	0	47	4537
2026-01-09 03:35:46.04	182.19	19.76	-38.0	-40.1	26.1	0.00e+00	0	43	0	0	47	4642
2026-01-09 03:35:46.75	181.89	19.72	-38.1	-40.1	26.0	0.00e+00	0	43	0	0	47	4644
2026-01-09 03:35:48.05	181.35	19.65	-38.1	-40.2	26.1	0.00e+00	0	43	0	0	47	4666
2026-01-09 03:35:48.76	181.05	19.60	-38.1	-40.2	26.1	0.00e+00	0	43	0	0	47	4655
2026-01-09 03:35:50.05	180.52	19.53	-38.0	-40.1	26.1	0.00e+00	0	43	0	0	47	4618
2026-01-09 03:35:50.77	180.22	19.48	-37.9	-39.9	26.3	0.00e+00	0	43	0	0	47	4545
2026-01-09 03:35:52.06	179.69	19.40	-38.0	-40.1	26.1	0.00e+00	0	43	0	0	47	4621
2026-01-09 03:35:53.00	179.31	19.34	-38.3	-40.4	25.8	0.00e+00	0	43	0	0	47	4809
2026-01-09 03:35:54.00	178.90	19.28	-38.4	-40.5	25.7	0.00e+00	0	43	0	0	47	4868
2026-01-09 03:35:55.01	178.50	19.21	-38.2	-40.3	25.9	0.00e+00	0	43	0	0	47	4741
2026-01-09 03:35:56.01	178.10	19.15	-38.1	-40.2	26.0	0.00e+00	0	43	0	0	47	4660
2026-01-09 03:35:57.01	177.70	19.08	-38.3	-40.4	25.8	0.00e+00	0	43	0	0	47	4801
2026-01-09 03:35:58.02	177.30	19.01	-38.3	-40.4	25.8	0.00e+00	0	43	0	0	47	4808
2026-01-09 03:35:59.02	176.90	18.94	-38.4	-40.5	25.8	0.00e+00	0	43	0	0	47	4825
2026-01-09 03:36:00.02	176.51	18.87	-38.3	-40.4	25.8	0.00e+00	0	43	0	0	47	4792
2026-01-09 03:36:01.02	176.12	18.80	-38.0	-40.1	26.1	0.00e+00	0	43	0	0	47	4616
2026-01-09 03:36:02.02	175.73	18.73	-37.8	-39.9	26.3	0.00e+00	0	43	0	0	47	4509
2026-01-09 03:36:03.02	175.35	18.65	-37.9	-40.0	26.2	0.00e+00	0	43	0	0	47	4575
2026-01-09 03:36:04.03	174.96	18.58	-38.1	-40.2	26.0	0.00e+00	0	43	0	0	47	4674
2026-01-09 03:36:05.03	174.58	18.51	-38.0	-40.1	26.0	0.00e+00	0	43	0	0	47	4643
2026-01-09 03:36:06.04	174.20	18.43	-38.0	-40.1	26.1	0.00e+00	0	43	0	0	47	4602
2026-01-09 03:36:07.04	173.82	18.35	-37.8	-39.9	26.2	0.00e+00	0	43	0	0	47	4519
2026-01-09 03:36:08.04	173.45	18.28	-37.7	-39.7	26.3	0.00e+00	0	43	0	0	47	4437
2026-01-09 03:36:09.05	173.07	18.20	-37.6	-39.7	26.5	0.00e+00	0	43	0	0	47	4423
2026-01-09 03:36:10.05	172.70	18.12	-37.8	-39.8	26.3	0.00e+00	0	43	0	0	47	4493
2026-01-09 03:36:11.05	172.33	18.04	-38.0	-40.0	26.2	0.00e+00	0	43	0	0	47	4594
2026-01-09 03:36:12.06	171.97	17.96	-38.2	-40.3	26.0	0.00e+00	0	43	0	0	47	4707
2026-01-09 03:36:13.09	171.59	17.88	-38.6	-40.8	25.5	0.00e+00	0	43	0	0	47	5008
2026-01-09 03:36:14.09	171.23	17.80	-38.5	-40.7	25.6	0.00e+00	0	43	0	0	48	4652
2026-01-09 03:36:15.19	170.84	17.71	-38.7	-40.9	25.4	0.00e+00	0	43	0	0	48	4766
2026-01-09 03:36:16.10	170.52	17.63	-38.7	-40.8	25.4	0.00e+00	0	43	0	0	48	4747
2026-01-09 03:36:17.27	170.10	17.54	-38.3	-40.4	25.8	0.00e+00	0	43	0	0	48	4534
2026-01-09 03:36:18.17	169.79	17.46	-38.2	-40.2	25.9	0.00e+00	0	43	0	0	48	4427
2026-01-09 03:36:19.31	169.39	17.37	-38.5	-40.6	25.8	0.00e+00	0	43	0	0	48	4599
2026-01-09 03:36:20.17	169.10	17.30	-38.5	-40.6	25.6	0.00e+00	0	43	0	0	48	4611
2026-01-09 03:36:21.54	168.63	17.18	-38.7	-40.9	25.4	0.00e+00	0	43	0	0	48	4780
2026-01-09 03:36:22.26	168.38	17.12	-38.6	-40.8	25.5	0.00e+00	0	43	0	0	48	4707
2026-01-09 03:36:23.55	167.95	17.01	-38.7	-40.9	25.4	0.00e+00	0	43	0	0	48	4790
2026-01-09 03:36:24.26	167.71	16.95	-38.8	-40.9	25.3	0.00e+00	0	43	0	0	48	4790
2026-01-09 03:36:25.56	167.27	16.84	-38.5	-40.6	25.6	0.00e+00	0	43	0	0	48	4637
2026-01-09 03:36:26.27	167.04	16.77	-38.6	-40.7	25.5	0.00e+00	0	43	0	0	48	4673
2026-01-09 03:36:27.56	166.62	16.66	-38.4	-40.6	25.6	0.00e+00	0	43	0	0	48	4604
2026-01-09 03:36:28.28	166.38	16.60	-38.5	-40.6	25.0	0.00e+00	0	43	0	0	48	4610
2026-01-09 03:36:29.57	165.96	16.49	-38.3	-40.4	25.8	0.00e+00	0	43	0	0	48	4532
2026-01-09 03:36:30.28	165.74	16.42	-38.2	-40.3	25.9	0.00e+00	0	43	0	0	48	4456
2026-01-09 03:36:31.57	165.33	16.31	-38.4	-40.5	25.7	0.00e+00	0	43	0	0	48	4559
2026-01-09 03:36:32.29	165.10	16.25	-38.4	-40.5	25.7	0.00e+00	0	43	0	0	48	4572
2026-01-09 03:36:33.58	164.69	16.13	-38.7	-40.9	25.3	0.00e+00	0	43	0	0	48	4784
2026-01-09 03:36:34.30	164.47	16.07	-38.8	-41.0	25.3	0.00e+00	0	43	0	0	48	4856
2026-01-09 03:36:35.68	164.04	15.95	-39.1	-41.3	25.0	0.00e+00	0	43	0	0	48	4994
2026-01-09 03:36:36.39	163.82	15.88	-39.0	-41.2	25.0	0.00e+00	0	43	0	0	48	4960
2026-01-09 03:36:37.75	163.41	15.76	-38.8	-41.0	25.3	0.00e+00	0	43	0	0	48	4821
2026-01-09 03:36:38.46	163.20	15.70	-38.7	-40.8	25.3	0.00e+00	0	43	0	0	48	4743
2026-01-09 03:36:39.76	162.81	15.58	-38.8	-41.0	25.2	0.00e+00	0	43	0	0	48	4852
2026-01-09 03:36:40.47	162.59	15.51	-39.0	-41.2	25.1	0.00e+00	0	43	0	0	48	4943
2026-01-09 03:36:41.76	162.21	15.40	-38.8	-41.0	25.3	0.00e+00	0	43	0	0	48	4819
2026-01-09 03:36:42.48	162.00	15.33	-38.9	-41.1	25.2	0.00e+00	0	43	0	0	48	4907
2026-01-09 03:36:43.77	161.63	15.22	-38.9	-41.1	25.2	0.00e+00	0	43	0	0	48	4873
2026-01-09 03:36:44.49	161.42	15.15	-39.0	-41.2	25.1	0.00e+00	0	43	0	0	48	4945
2026-01-09 03:36:45.78	161.05	15.03	-39.0	-41.2	25.1	0.00e+00	0	43	0	0	48	4946
2026-01-09 03:36:46.50	160.85	14.97	-39.1	-41.3	24.9	0.00e+00	0	43	0	0	48	5018
2026-01-09 03:36:47.79	160.48	14.85	-39.2	-41.4	24.9	0.00e+00	0	43	0	0	49	4798
2026-01-09 03:36:48.50	160.28	14.79	-39.3	-41.5	24.7	0.00e+00	0	43	0	0	49	4852
2026-01-09 03:36:49.79	159.93	14.67	-39.4	-41.7	24.6	0.00e+00	0	43	0	0	49	4927
2026-01-09 03:36:50.70	159.68	14.59	-39.4	-41.6	24.7	0.00e+00	0	43	0	0	49	4901
2026-01-09 03:36:51.70	159.40	14.49	-39.2	-41.5	24.8	0.00e+00	0	43	0	0	49	4815
2026-01-09 03:36:52.71	159.13	14.40	-39.0	-41.2	25.0	0.00e+00	0	43	0	0	49	4685
2026-01-09 03:36:53.71	158.86	14.31	-39.0	-41.2	25.0	0.00e+00	0	43	0	0	49	4681
2026-01-09 03:36:54.71	158.59	14.22	-39.2	-41.4	24.8	0.00e+00	0	43	0	0	49	4775
2026-01-09 03:36:55.71	158.33	14.13	-39.4	-41.6	24.7	0.00e+00	0	43	0	0	49	4912
2026-01-09 03:36:56.72	158.06	14.04	-39.7	-42.0	24.3	0.00e+00	0	43	0	0	50	4846
2026-01-09 03:36:57.77	157.79	13.94	-39.7	-42.0	24.3	0.00e+00	0	43	0	0	50	4828
2026-01-09 03:36:58.63	157.57	13.86	-39.8	-42.1	24.3	1.85e-03	0	43	0	0	50	4880
2026-01-09 03:37:00.00	157.22	13.74	-39.5	-41.8	22.0	0.00e+00	0	43	0	0	50	4706
2026-01-09 03:37:00.72	157.04	13.67	-39.5	-41.8	24.5	0.00e+00	0	43	0	0	50	4711
2026-01-09 03:37:02.25	156.65	13.53	-39.5	-41.7	24.5	2.31e-03	0	43	0	0	50	4704
2026-01-09 03:37:02.96	156.47	13.47	-39.6	-41.8	24.4	0.00e+00	0	43	0	0	50	4739
2026-01-09 03:37:04.26	156.15	13.35	-39.7	-41.9	24.3	3.67e-04	0	43	0	0	50	4812
2026-01-09 03:37:04.97	155.98	13.28	-39.8	-42.1	24.1	3.67e-04	0	43	0	0	50	4887
2026-01-09 03:37:06.26	155.66	13.17	-39.9	-42.2	24.1	0.00e+00	0	43	0	0	50	4936
2026-01-09 03:37:06.98	155.49	13.10	-39.9	-42.3	24.0	1.10e-03	0	43	0	0	50	4990
2026-01-09 03:37:08.27	155.18	12.98	-39.9	-42.3	24.0	1.10e-03	0	43	0	0	50	5016
2026-01-09 03:37:08.98	155.01	12.92	-39.8	-42.1	24.2	0.00e+00	0	43	0	0	50	4881
2026-01-09 03:37:10.27	154.71	12.80	-39.9	-42.3	24.0	3.40e-06	0	43	0	0	50	4997
2026-01-09 03:37:11.00	154.54	12.74	-39.8	-42.2	24.1	3.40e-06	0	43	0	0	50	4930
2026-01-09 03:37:12.29	154.24	12.62	-39.9	-42.2	24.0	0.00e+00	0	43	0	0	50	4967
2026-01-09 03:37:13.01	154.07	12.56	-40.0	-42.4	23.9	0.00e+00	0	43	0	0	50	5075
2026-01-09 03:37:14.30	153.78	12.44	-40.1	-42.5	23.2	0.00e+00	0	43	0	0	50	5130
2026-01-09 03:37:15.17	153.58	12.36	-40.1	-42.5	23.9	0.00e+00	0	43	0	0	50	5112
2026-01-09 03:37:16.32	153.32	12.26	-40.1	-42.4	23.8	0.00e+00	0	43	0	0	50	5097
2026-01-09 03:37:17.40	153.08	12.16	-40.2	-42.5	23.8	0.00e+00	0	43	0	0	50	5154
2026-01-09 03:37:18.44	152.85	12.07	-40.4	-42.8	23.5	0.00e+00	0	43	0	0	51	4990
2026-01-09 03:37:19.43	152.64	11.98	-40.4	-42.8	23.5	0.00e+00	0	43	0	0	51	4999
2026-01-09 03:37:20.43	152.42	11.89	-40.4	-42.8	23.5	0.00e+00	0	43	0	0	51	5003
2026-01-09 03:37:21.44	152.20	11.80	-40.5	-42.9	23.4	0.00e+00	0	43	0	0	51	5072
2026-01-09 03:37:22.44	151.99	11.71	-40.4	-42.8	23.5	0.00e+00	0	43	0	0	51	5016
2026-01-09 03:37:23.45	151.77	11.62	-40.5	-42.9	23.4	0.00e+00	0	43	0	0	51	5082
2026-01-09 03:37:24.45	151.56	11.54	-40.4	-42.8	23.5	0.00e+00	0	43	0	0	51	4995
2026-01-09 03:37:25.46	151.35	11.45	-40.4	-42.7	23.5	0.00e+00	0	43	0	0	51	4983
2026-01-09 03:37:26.46	151.15	11.36	-40.2	-42.5	23.7	0.00e+00	0	43	0	0	51	4852
2026-01-09 03:37:27.46	150.94	11.27	-40.2	-42.6	23.7	0.00e+00	0	43	0	0	51	4880
2026-01-09 03:37:28.47	150.74	11.18	-40.2	-42.5	23.7	0.00e+00	0	43	0	0	51	4866
2026-01-09 03:37:29.49	150.53	11.09	-40.3	-42.7	23.6	0.00e+00	0	43	0	0	51	4946
2026-01-09 03:37:30.49	150.33	11.01	-40.4	-42.8	23.4	0.00e+00	0	43	0	0	51	5021
2026-01-09 03:37:31.50	150.13	10.92	-40.6	-43.0	23.3	0.00e+00	0	43	0	0	51	5135
2026-01-09 03:37:32.50	149.93	10.83	-40.6	-43.1	23.1	0.00e+00	0	43	0	0	52	4912
2026-01-09 03:37:33.50	149.74	10.74	-40.7	-43.2	22.9	0.00e+00	0	43	0	0	52	4961
2026-01-09 03:37:34.50	149.54	10.66	-40.9	-43.4	22.4	0.00e+00	0	43	0	0	52	5075
2026-01-09 03:37:35.50	149.35	10.57	-41.0	-43.6	22.6	0.00e+00	0	43	0	0	52	5175
2026-01-09 03:37:36.50	149.16	10.49	-41.2	-43.8	22.4	0.00e+00	0	43	0	0	53	4986
2026-01-09 03:37:37.51	148.97	10.40	-41.3	-44.0	22.2	0.00e+00	0	43	0	0	53	5104
2026-01-09 03:37:38.51	148.78	10.31	-41.3	-43.9	22.3	0.00e+00	0	43	0	0	53	5085
2026-01-09 03:37:39.51	148.59	10.23	-41.3	-43.9	22.3	0.00e+00	0	43	0	0	53	5067
2026-01-09 03:37:40.52	148.40	10.14	-41.2	-43.8	22.3	0.00e+00	0	43	0	0	53	5002
2026-01-09 03:37:41.52	148.22	10.06	-41.1	-43.6	22.5	0.00e+00	0	43	0	0	53	4926
2026-01-09 03:37:42.53	148.04	9.97	-41.0	-43.6	22.6	0.00e+00	0	43	0	0	53	4880
2026-01-09 03:37:43.53	147.86	9.89	-41.0	-43.6	22.7	0.00e+00	0	43	0	0	53	4880
2026-01-09 03:37:44.53	147.68	9.80	-41.2	-43.8	22.4	0.00e+00	0	43	0	0	53	5018
2026-01-09 03:37:45.54	147.50	9.72	-41.3	-44.0	22.2	0.00e+00	0	43	0	0	53	5105
2026-01-09 03:37:46.54	147.32	9.63	-41.4	-44.0	22.2	0.00e+00	0	43	0	0	53	5131
2026-01-09 03:37:47.54	147.14	9.55	-41.5	-44.2	22.0	0.00e+00	0	43	0	0	53	5260
2026-01-09 03:37:48.55	146.97	9.47	-41.6	-44.3	21.9	0.00e+00	0	43	0	0	53	5308
2026-01-09 03:37:49.55	146.80	9.38	-41.5	-44.2	21.9	0.00e+00	0	43	0	0	53	5243
2026-01-09 03:37:50.55	146.63	9.30	-41.5	-44.1	22.0	0.00e+00	0	43	0	0	53	5196
2026-01-09 03:37:51.55	146.46	9.22	-41.4	-44.0	22.1	0.00e+00	0	43	0	0	53	5152
2026-01-09 03:37:52.56	146.29	9.13	-41.4	-44.0	22.0	1.02e-05	0	43	0	0	53	5159
2026-01-09 03:37:53.56	146.12	9.05	-41.3	-43.9	22.2	0.00e+00	0	43	0	0	53	5078
2026-01-09 03:37:54.57	145.95	8.97	-42.0	-44.8	20.6	0.00e+00	0	43	0	0	54	5295
2026-01-09 03:37:55.57	145.79	8.89	-48.6	-67.3	3.6	2.25e-03	0	43	104	0	67	33499
2026-01-09 03:37:56.58	145.62	8.80	-48.5	-67.5	3.8	8.28e-01	0	43	104	0	67	34187
2026-01-09 03:37:57.58	145.46	8.72	-49.0	-67.8	3.8	8.28e-01	0	43	104	0	68	33646
2026-01-09 03:37:58.59	145.30	8.64	-49.0	-67.9	3.8	8.46e-01	0	43	104	0	68	33932
2026-01-09 03:37:59.59	145.14	8.56	-49.1	-67.9	3.8	8.46e-01	0	43	104	0	68	33898
2026-01-09 03:38:00.59	144.98	8.48	-49.1	-67.9	3.8	8.46e-01	0	43	104	0	68	33970
2026-01-09 03:38:01.60	144.82	8.40	-49.1	-68.0	3.8	8.47e-01	0	43	104	0	69	32437
2026-01-09 03:38:02.60	144.66	8.32	-49.2	-68.0	3.8	8.47e-01	0	43	104	0	69	32483
2026-01-09 03:38:03.61	144.51	8.24	-49.3	-68.0	3.8	8.47e-01	0	43	104	0	69	32528
2026-01-09 03:38:04.61	144.35	8.16	-49.3	-68.0	3.8	8.47e-01	0	43	104	0	69	32550
2026-01-09 03:38:05.61	144.20	8.08	-49.3	-68.1	3.8	8.47e-01	0	43	104	0	69	32625
2026-01-09 03:38:06.62	144.05	8.00	-49.3	-68.1	3.8	8.46e-01	0	43	104	0	69	32782
2026-01-09 03:38:07.62	143.90	7.92	-49.1	-68.1	3.8	8.46e-01	0	43	104	0	69	32825
2026-01-09 03:38:08.63	143.75	7.84	-49.3	-68.1	3.8	8.47e-01	0	43	104	0	69	32841
2026-01-09 03:38:09.63	143.60	7.76	-49.4	-68.1	3.8	8.46e-01	0	43	104	0	69	32808
2026-01-09 03:38:10.64	143.45	7.68	-49.2	-68.1	3.8	8.46e-01	0	43	104	0	69	32811
2026-01-09 03:38:11.64	143.30	7.60	-49.2	-68.1	3.8	8.48e-01	0	43	104	0	69	32923
2026-01-09 03:38:12.64	143.16	7.53	-49.3	-68.1	3.8	8.47e-01	0	43	104	0	69	32854
2026-01-09 03:38:13.65	143.02	7.45	-49.2	-68.2	3.8	8.47e-01	0	43	104	0	69	32939
2026-01-09 03:38:14.65	142.87	7.37	-49.0	-68.1	3.8	8.47e-01	0	43	104	0	69	32806
2026-01-09 03:38:15.66	142.73	7.29	-48.9	-68.1	3.8	8.47e-01	0	43	104	0	69	32691
2026-01-09 03:38:16.66	142.59	7.21	-48.9	-68.1	3.8	8.47e-01	0	43	104	0	69	32622
2026-01-09 03:38:17.66	142.45	7.14	-48.9	-68.1	3.8	8.48e-01	0	43	104	0	69	32626
2026-01-09 03:38:18.67	142.31	7.06	-48.9	-68.0	3.8	8.47e-01	0	43	104	0	69	32536
2026-01-09 03:38:19.67	142.17	6.98	-48.9	-68.0	3.8	8.47e-01	0	43	104	0	69	32539
2026-01-09 03:38:20.67	142.04	6.91	-48.9	-68.1	3.8	8.44e-01	0	43	104	0	69	32622
2026-01-09 03:38:21.68	141.90	6.83	-48.9	-68.1	3.8	8.46e-01	0	43	104	0	69	32565
2026-01-09 03:38:22.68	141.77	6.76	-48.9	-68.0	3.8	8.46e-01	0	43	104	0	69	32440
2026-01-09 03:38:23.68	141.63	6.68	-48.9	-68.0	3.8	8.46e-01	0	43	104	0	69	32354
2026-01-09 03:38:24.69	141.50	6.60	-48.9	-68.0	3.8	8.46e-01	0	43	104	0	69	32508
2026-01-09 03:38:25.69	141.37	6.53	-48.9	-68.0	3.8	8.47e-01	0	43	104	0	69	32467
2026-01-09 03:38:26.70	141.23	6.45	-48.9	-68.0	3.8	8.47e-01	0	43	104	0	69	32406
2026-01-09 03:38:27.70	141.11	6.38	-48.9	-68.0	3.8	8.47e-01	0	43	104	0	69	32447
2026-01-09 03:38:28.71	140.98	6.30	-48.9	-68.0	3.8	8.47e-01	0	43	104	0	69	32528
2026-01-09 03:38:29.71	140.85	6.23	-48.9	-68.0	3.8	8.47e-01	0	44	104	0	69	32437
2026-01-09 03:38:30.72	140.72	6.15	-48.9	-68.0	3.8	8.48e-01	0	43	104	0	69	32458
2026-01-09 03:38:31.72	140.59	6.08	-48.9	-68.0	3.8	8.46e-01	0	43	104	0	69	32444
2026-01-09 03:38:32.72	140.47	6.01	-48.9	-68.0	3.8	8.46e-01	0	43	104	0	69	32470
2026-01-09 03:38:33.73	140.34	5.93	-48.9	-68.0	3.8	8.47e-01	0	43	104	0	69	32501
2026-01-09 03:38:34.73	140.22	5.86	-48.9	-68.0	3.8	8.47e-01	0	43	104	0	69	32507
2026-01-09 03:38:35.74	140.10	5.79	-48.9	-68.0	3.8	8.47e-01	0	43	104	0	69	32487
2026-01-09 03:38:36.74	139.97	5.71	-48.9	-68.0	3.8	8.47e-01	0	43	104	0	69	32457
2026-01-09 03:38:37.75	139.85	5.64	-48.9	-68.0	3.8	8.47e-01	0	43	104	0	69	32535
2026-01-09 03:38:38.75	139.73	5.57	-48.9	-68.0	3.8	8.46e-01	0	43	104	0	69	32523
2026-01-09 03:38:39.75	139.61	5.50	-48.9	-68.0	3.8	8.46e-01	0	43	104	0	69	32520

#Closed at: 2026-01-09 03:38:40
#Recorded file [0 MB]: D:/Data/31040_260109_063124.dat