passes_logs/2026/01/09/T1/T1__20260109_104912_NOAA_21_JPSS-2_rec.log

#Pass ID: 20260109_104912_NOAA 21 (JPSS-2)
#Satellite: NOAA 21 (JPSS-2)
#Configuration: NOAA 21
#almurnet v.1.7.20251203
#Start time: 2026-01-09 10:49:13

#Version: 2.0.20230620
#Station: T1
#Location: 37.570604 lon 55.790049 lat
#TLE: 1 54234U 22150A   26008.45757862  .00000119  00000+0  77172-4 0  9996
#TLE: 2 54234  98.7494 309.4367 0000894 328.2777  31.8345 14.19533328163889

#Time	Az	El	Level	Level2	SNR	BER	BlckErr	Temp	State	Recorded	gain1	gain2
2026-01-09 10:49:13.05	188.83	5.07	-47.2	-61.3	3.8	1.49e+00	0	41	0	0	66	17808
2026-01-09 10:49:14.05	188.88	5.14	-47.3	-61.2	3.8	1.49e+00	0	41	104	0	65	18714
2026-01-09 10:49:15.07	188.94	5.21	-47.3	-61.1	3.8	1.49e+00	0	41	104	0	65	18419
2026-01-09 10:49:16.08	188.99	5.27	-47.3	-61.1	3.8	1.49e+00	0	41	104	0	65	18367
2026-01-09 10:49:17.08	189.04	5.34	-47.2	-61.0	3.8	1.49e+00	0	41	104	0	65	18135
2026-01-09 10:49:18.08	189.09	5.41	-47.2	-60.7	3.8	1.49e+00	0	41	104	0	65	17663
2026-01-09 10:49:19.09	189.15	5.48	-47.2	-60.7	3.8	1.49e+00	0	41	104	0	65	17623
2026-01-09 10:49:20.09	189.20	5.55	-47.2	-60.7	3.8	1.49e+00	0	41	104	0	65	17563
2026-01-09 10:49:21.10	189.25	5.62	-47.2	-60.5	3.8	1.49e+00	0	41	104	0	65	17131
2026-01-09 10:49:22.10	189.31	5.69	-47.2	-60.8	3.8	1.49e+00	0	41	104	0	65	17827
2026-01-09 10:49:23.10	189.36	5.76	-46.7	-60.7	3.8	1.49e+00	0	41	104	0	65	17536
2026-01-09 10:49:24.11	189.41	5.83	-47.3	-60.9	3.8	1.49e+00	0	41	104	0	65	17977
2026-01-09 10:49:25.11	189.47	5.90	-47.3	-60.8	3.8	1.49e+00	0	41	104	0	65	17694
2026-01-09 10:49:26.12	189.52	5.97	-47.2	-60.8	3.8	1.49e+00	0	41	104	0	65	17884
2026-01-09 10:49:27.12	189.58	6.04	-47.3	-60.7	3.8	1.49e+00	0	41	104	0	65	17535
2026-01-09 10:49:28.13	189.63	6.11	-47.2	-60.6	3.8	1.49e+00	0	41	104	0	65	17376
2026-01-09 10:49:29.13	189.69	6.18	-47.2	-60.2	3.8	1.49e+00	0	41	104	0	65	16668
2026-01-09 10:49:30.14	189.74	6.25	-47.1	-60.2	3.8	1.49e+00	0	41	104	0	65	16609
2026-01-09 10:49:31.14	189.80	6.32	-47.2	-60.1	3.8	1.49e+00	0	42	104	0	65	16404
2026-01-09 10:49:32.14	189.85	6.39	-47.2	-59.5	3.8	1.49e+00	0	41	104	0	65	15338
2026-01-09 10:49:33.15	189.91	6.47	-47.2	-60.1	3.8	1.49e+00	0	41	104	0	65	16422
2026-01-09 10:49:34.15	189.97	6.54	-47.2	-59.8	3.8	1.49e+00	0	42	104	0	65	15931
2026-01-09 10:49:35.16	190.02	6.61	-47.1	-60.0	3.8	1.49e+00	0	41	104	0	65	16201
2026-01-09 10:49:36.16	190.08	6.68	-47.2	-60.3	3.8	1.49e+00	0	41	104	0	65	16748
2026-01-09 10:49:37.17	190.14	6.75	-47.1	-60.6	3.8	1.49e+00	0	42	104	0	65	17329
2026-01-09 10:49:38.17	190.19	6.82	-47.1	-60.8	3.8	1.49e+00	0	42	104	0	65	17740
2026-01-09 10:49:39.17	190.25	6.90	-47.2	-60.9	3.8	1.49e+00	0	41	104	0	65	18057
2026-01-09 10:49:40.18	190.31	6.97	-47.2	-61.0	3.8	1.49e+00	0	42	104	0	65	18257
2026-01-09 10:49:41.18	190.37	7.04	-47.1	-60.9	3.8	1.49e+00	0	42	104	0	65	17990
2026-01-09 10:49:42.19	190.43	7.12	-47.1	-60.9	3.8	1.49e+00	0	42	104	0	65	17897
2026-01-09 10:49:43.19	190.49	7.19	-47.1	-60.8	3.8	1.49e+00	0	42	104	0	65	17789
2026-01-09 10:49:44.20	190.54	7.26	-47.0	-60.6	3.8	1.49e+00	0	42	104	0	65	17302
2026-01-09 10:49:45.20	190.60	7.34	-47.0	-59.7	3.8	1.49e+00	0	42	104	0	65	15744
2026-01-09 10:49:46.21	190.66	7.41	-46.8	-57.8	3.9	1.48e+00	0	42	104	0	65	12644
2026-01-09 10:49:47.21	190.72	7.48	-46.7	-56.0	4.9	1.11e+00	0	42	0	0	65	10218
2026-01-09 10:49:48.21	190.78	7.56	-46.2	-53.3	6.7	2.87e-01	0	42	0	0	64	7955
2026-01-09 10:49:49.22	190.84	7.63	-45.8	-51.7	8.3	6.96e-02	0	42	0	0	63	7002
2026-01-09 10:49:50.22	190.91	7.71	-44.8	-49.6	10.4	5.97e-03	0	42	0	0	61	6195
2026-01-09 10:49:51.23	190.97	7.78	-44.1	-48.2	11.9	9.62e-04	0	42	0	0	60	5539
2026-01-09 10:49:52.23	191.03	7.86	-43.5	-46.8	13.4	3.96e-05	0	42	0	0	58	5281
2026-01-09 10:49:53.24	191.09	7.93	-42.7	-45.7	14.4	7.00e-07	0	42	0	0	57	4952
2026-01-09 10:49:54.24	191.15	8.01	-42.1	-44.8	15.3	7.00e-07	0	42	0	0	56	4755
2026-01-09 10:49:55.25	191.21	8.08	-41.5	-44.1	15.8	0.00e+00	0	42	0	0	55	4619
2026-01-09 10:49:56.25	191.28	8.16	-41.3	-43.8	16.1	0.00e+00	0	42	0	0	54	4740
2026-01-09 10:49:57.25	191.34	8.23	-41.2	-43.7	16.3	0.00e+00	0	42	0	0	54	4665
2026-01-09 10:49:58.26	191.40	8.31	-41.2	-43.7	16.2	0.00e+00	0	42	0	0	54	4670
2026-01-09 10:49:59.26	191.47	8.39	-41.5	-44.0	15.9	0.00e+00	0	42	0	0	54	4848
2026-01-09 10:50:00.27	191.53	8.46	-41.8	-44.4	15.5	0.00e+00	0	42	0	0	54	5087
2026-01-09 10:50:01.27	191.60	8.54	-42.3	-45.2	14.8	7.00e-07	0	42	0	0	55	5242
2026-01-09 10:50:02.28	191.66	8.62	-43.1	-46.2	13.9	2.20e-06	0	42	0	0	56	5586
2026-01-09 10:50:03.28	191.72	8.69	-43.7	-47.1	13.0	1.75e-05	0	42	0	0	57	5836
2026-01-09 10:50:04.28	191.79	8.77	-44.2	-48.1	12.0	3.46e-04	0	42	0	0	59	5821
2026-01-09 10:50:05.29	191.86	8.85	-44.8	-49.4	10.7	1.63e-03	0	42	0	0	60	6376
2026-01-09 10:50:06.29	191.92	8.93	-45.2	-50.4	9.7	9.24e-03	0	42	0	0	60	7131
2026-01-09 10:50:07.29	191.99	9.00	-45.5	-51.3	8.7	3.21e-02	0	42	0	0	61	7506
2026-01-09 10:50:08.30	192.05	9.08	-45.8	-51.8	8.2	6.65e-02	0	42	0	0	62	7530
2026-01-09 10:50:09.41	192.13	9.17	-44.4	-48.6	11.5	6.39e-03	0	42	0	0	60	5803
2026-01-09 10:50:10.31	192.19	9.24	-44.8	-49.3	11.0	9.76e-05	0	42	0	0	60	6324
2026-01-09 10:50:11.62	192.28	9.34	-46.4	-54.3	5.9	9.04e-01	0	42	0	0	64	8934
2026-01-09 10:50:12.34	192.33	9.40	-46.0	-52.6	7.3	2.40e-01	0	43	0	0	64	7316
2026-01-09 10:50:13.63	192.41	9.50	-45.9	-52.0	8.0	1.16e-01	0	43	0	0	63	7254
2026-01-09 10:50:14.34	192.46	9.56	-45.8	-51.8	8.3	5.39e-02	0	43	0	0	63	7067
2026-01-09 10:50:15.63	192.55	9.66	-45.9	-52.1	7.9	6.95e-02	0	43	0	0	63	7294
2026-01-09 10:50:16.35	192.60	9.72	-45.9	-52.1	7.9	7.28e-02	0	43	0	0	63	7360
2026-01-09 10:50:17.64	192.69	9.82	-45.9	-52.0	8.0	6.93e-02	0	43	0	0	63	7251
2026-01-09 10:50:18.36	192.74	9.88	-45.7	-51.4	8.7	4.37e-02	0	42	0	0	63	6772
2026-01-09 10:50:19.65	192.83	9.98	-45.6	-51.2	8.9	3.21e-02	0	42	0	0	63	6601
2026-01-09 10:50:20.49	192.89	10.05	-45.6	-51.1	9.1	3.11e-02	0	42	0	0	63	6501
2026-01-09 10:50:21.64	192.97	10.14	-45.6	-50.9	9.3	2.91e-02	0	43	0	0	63	6365
2026-01-09 10:50:22.75	193.05	10.23	-45.7	-51.0	9.1	2.55e-02	0	42	0	0	63	6468
2026-01-09 10:50:23.62	193.11	10.30	-45.8	-51.1	9.1	1.94e-02	0	43	0	0	63	6506
2026-01-09 10:50:24.76	193.20	10.40	-45.7	-50.9	9.2	1.69e-02	0	43	0	0	63	6385
2026-01-09 10:50:25.62	193.26	10.47	-45.7	-50.7	9.4	1.24e-02	0	43	0	0	63	6245
2026-01-09 10:50:26.77	193.34	10.56	-45.5	-50.3	9.8	1.25e-02	0	43	0	0	62	6299
2026-01-09 10:50:27.63	193.40	10.63	-45.5	-50.3	9.8	9.33e-03	0	43	0	0	62	6307
2026-01-09 10:50:28.77	193.49	10.72	-45.3	-49.8	10.3	7.52e-03	0	43	0	0	62	5940
2026-01-09 10:50:29.63	193.55	10.80	-45.5	-50.2	10.1	9.67e-03	0	43	0	0	62	6256
2026-01-09 10:50:30.78	193.64	10.89	-45.3	-50.0	10.2	9.67e-03	0	43	0	0	62	6121
2026-01-09 10:50:31.63	193.70	10.96	-45.6	-50.6	9.6	1.44e-02	0	43	0	0	62	6536
2026-01-09 10:50:32.86	193.79	11.06	-45.2	-50.0	10.2	6.19e-03	0	43	0	0	62	6110
2026-01-09 10:50:33.72	193.86	11.14	-45.1	-49.5	10.6	3.73e-03	0	43	0	0	61	6131
2026-01-09 10:50:34.87	193.95	11.23	-44.9	-49.3	11.0	2.68e-03	0	43	0	0	61	5943
2026-01-09 10:50:35.73	194.01	11.30	-45.0	-49.5	10.7	1.91e-03	0	43	0	0	61	6128
2026-01-09 10:50:36.88	194.10	11.40	-45.1	-49.5	10.8	2.26e-03	0	43	0	0	61	6076
2026-01-09 10:50:37.80	194.17	11.48	-45.1	-49.5	10.7	2.17e-03	0	43	0	0	61	6087
2026-01-09 10:50:38.81	194.25	11.57	-45.1	-49.4	10.8	2.04e-03	0	43	0	0	61	6058
2026-01-09 10:50:39.81	194.33	11.65	-44.9	-49.1	11.1	2.15e-03	0	43	0	0	61	5805
2026-01-09 10:50:40.81	194.41	11.74	-44.8	-48.9	11.3	1.15e-03	0	43	0	0	61	5695
2026-01-09 10:50:41.82	194.49	11.82	-44.7	-48.7	11.6	4.02e-04	0	43	0	0	60	5914
2026-01-09 10:50:42.82	194.57	11.91	-44.5	-48.3	12.0	4.06e-04	0	43	0	0	60	5623
2026-01-09 10:50:43.82	194.65	11.99	-44.4	-48.3	12.0	2.33e-04	0	43	0	0	60	5622
2026-01-09 10:50:44.82	194.73	12.08	-44.4	-48.2	12.1	2.56e-04	0	43	0	0	60	5545
2026-01-09 10:50:45.83	194.81	12.17	-44.4	-48.2	12.0	3.09e-04	0	43	0	0	60	5560
2026-01-09 10:50:46.88	194.90	12.26	-44.4	-48.2	12.0	3.31e-04	0	43	0	0	60	5560
2026-01-09 10:50:47.77	194.97	12.34	-44.3	-48.0	12.2	1.91e-04	0	43	0	0	60	5448
2026-01-09 10:50:48.78	195.05	12.43	-44.1	-47.6	12.5	1.80e-04	0	43	0	0	60	5214
2026-01-09 10:50:49.78	195.14	12.51	-43.6	-46.8	13.4	2.44e-05	0	43	0	0	59	4993
2026-01-09 10:50:50.78	195.22	12.60	-42.8	-45.6	14.7	3.00e-06	0	43	0	0	57	4875
2026-01-09 10:50:51.78	195.30	12.69	-42.4	-44.9	15.4	0.00e+00	0	43	0	0	56	4768
2026-01-09 10:50:53.06	195.41	12.80	-41.5	-43.9	16.2	0.00e+00	0	43	0	0	55	4515
2026-01-09 10:50:53.77	195.47	12.87	-41.1	-43.3	16.8	0.00e+00	0	43	0	0	54	4466
2026-01-09 10:50:55.06	195.58	12.98	-40.4	-42.5	17.4	0.00e+00	0	43	0	0	52	4593
2026-01-09 10:50:55.95	195.66	13.06	-40.2	-42.3	17.7	0.00e+00	0	43	0	0	52	4444
2026-01-09 10:50:57.09	195.76	13.16	-40.0	-42.0	17.9	0.00e+00	0	43	0	0	52	4335
2026-01-09 10:50:58.19	195.85	13.26	-40.1	-42.1	18.0	0.00e+00	0	43	0	0	51	4604
2026-01-09 10:50:59.23	195.94	13.35	-40.0	-42.0	18.1	0.00e+00	0	43	0	0	51	4582
2026-01-09 10:51:00.40	196.05	13.46	-39.9	-41.9	18.2	0.00e+00	0	43	0	0	51	4512
2026-01-09 10:51:01.26	196.12	13.54	-39.9	-41.9	18.3	0.00e+00	0	43	0	0	51	4495
2026-01-09 10:51:02.60	196.24	13.66	-39.8	-41.8	18.3	0.00e+00	0	43	0	0	51	4478
2026-01-09 10:51:03.31	196.31	13.73	-39.8	-41.8	18.3	0.00e+00	0	43	0	0	51	4443
2026-01-09 10:51:04.60	196.42	13.84	-39.7	-41.7	18.3	0.00e+00	0	43	0	0	51	4421
2026-01-09 10:51:05.32	196.49	13.91	-39.8	-41.8	18.2	0.00e+00	0	43	0	0	51	4442
2026-01-09 10:51:06.61	196.61	14.03	-39.7	-41.7	18.2	0.00e+00	0	43	0	0	51	4409
2026-01-09 10:51:07.39	196.68	14.10	-39.7	-41.8	18.1	0.00e+00	0	43	0	0	51	4447
2026-01-09 10:51:08.67	196.80	14.22	-39.8	-41.8	18.0	0.00e+00	0	43	0	0	51	4464
2026-01-09 10:51:09.39	196.86	14.29	-39.8	-41.8	17.9	0.00e+00	0	43	0	0	51	4464
2026-01-09 10:51:10.68	196.98	14.41	-39.8	-41.9	17.9	0.00e+00	0	43	0	0	51	4494
2026-01-09 10:51:11.39	197.05	14.47	-39.7	-41.7	17.9	0.00e+00	0	43	0	0	51	4437
2026-01-09 10:51:12.68	197.17	14.60	-39.9	-42.0	17.8	0.00e+00	0	43	0	0	51	4547
2026-01-09 10:51:13.59	197.26	14.68	-39.9	-41.9	17.9	0.00e+00	0	43	0	0	51	4506
2026-01-09 10:51:14.59	197.35	14.78	-39.9	-41.9	18.0	0.00e+00	0	43	0	0	51	4521
2026-01-09 10:51:15.95	197.49	14.91	-40.1	-42.1	17.9	0.00e+00	0	43	0	0	51	4615
2026-01-09 10:51:16.67	197.56	14.97	-40.0	-42.0	18.0	0.00e+00	0	43	0	0	51	4580
2026-01-09 10:51:17.96	197.68	15.10	-40.1	-42.0	18.0	0.00e+00	0	43	0	0	51	4595
2026-01-09 10:51:18.67	197.75	15.17	-40.0	-42.0	18.2	0.00e+00	0	43	0	0	51	4553
2026-01-09 10:51:19.96	197.88	15.29	-40.1	-42.1	18.1	0.00e+00	0	43	0	0	51	4617
2026-01-09 10:51:20.68	197.95	15.36	-40.1	-42.1	18.1	0.00e+00	0	43	0	0	51	4637
2026-01-09 10:51:21.97	198.08	15.48	-40.1	-42.1	18.1	0.00e+00	0	43	0	0	51	4600
2026-01-09 10:51:22.69	198.15	15.55	-40.1	-42.0	18.2	0.00e+00	0	43	0	0	51	4581
2026-01-09 10:51:24.09	198.30	15.69	-40.2	-42.1	18.1	0.00e+00	0	43	0	0	51	4650
2026-01-09 10:51:24.81	198.37	15.76	-40.1	-42.0	18.2	0.00e+00	0	43	0	0	51	4594
2026-01-09 10:51:26.20	198.51	15.90	-40.2	-42.1	18.1	0.00e+00	0	43	0	0	51	4643
2026-01-09 10:51:26.91	198.59	15.97	-40.2	-42.2	18.0	0.00e+00	0	43	0	0	51	4672
2026-01-09 10:51:28.25	198.73	16.10	-40.3	-42.3	17.9	0.00e+00	0	43	0	0	51	4716
2026-01-09 10:51:28.97	198.80	16.17	-40.3	-42.3	17.8	0.00e+00	0	43	0	0	51	4747
2026-01-09 10:51:30.26	198.94	16.30	-40.5	-42.5	17.7	0.00e+00	0	43	0	0	51	4839
2026-01-09 10:51:30.97	199.01	16.37	-40.5	-42.5	17.7	0.00e+00	0	43	0	0	51	4865
2026-01-09 10:51:32.26	199.15	16.50	-40.5	-42.5	17.8	0.00e+00	0	43	0	0	51	4832
2026-01-09 10:51:32.98	199.23	16.57	-40.4	-42.4	17.8	0.00e+00	0	43	0	0	51	4807
2026-01-09 10:51:34.27	199.37	16.70	-40.6	-42.6	17.7	0.00e+00	0	43	0	0	51	4893
2026-01-09 10:51:34.98	199.45	16.77	-40.6	-42.6	17.7	0.00e+00	0	43	0	0	51	4873
2026-01-09 10:51:36.27	199.59	16.90	-40.5	-42.5	17.7	0.00e+00	0	43	0	0	51	4859
2026-01-09 10:51:36.99	199.67	16.98	-40.5	-42.5	17.8	0.00e+00	0	43	0	0	51	4844
2026-01-09 10:51:38.28	199.81	17.11	-40.5	-42.6	17.8	0.00e+00	0	43	0	0	51	4875
2026-01-09 10:51:39.00	199.89	17.18	-40.5	-42.5	17.8	0.00e+00	0	43	0	0	51	4850
2026-01-09 10:51:40.28	200.04	17.31	-40.5	-42.5	17.8	0.00e+00	0	43	0	0	51	4826
2026-01-09 10:51:41.18	200.14	17.40	-40.6	-42.6	17.7	0.00e+00	0	43	0	0	51	4878
2026-01-09 10:51:42.32	200.27	17.52	-40.6	-42.7	17.6	0.00e+00	0	43	0	0	51	4934
2026-01-09 10:51:43.18	200.37	17.61	-40.6	-42.6	17.7	0.00e+00	0	43	0	0	51	4892
2026-01-09 10:51:44.33	200.50	17.73	-40.6	-42.6	17.6	0.00e+00	0	43	0	0	52	4645
2026-01-09 10:51:45.19	200.60	17.82	-40.5	-42.6	17.7	0.00e+00	0	43	0	0	52	4610
2026-01-09 10:51:46.33	200.74	17.94	-40.6	-42.6	17.6	0.00e+00	0	43	0	0	52	4641
2026-01-09 10:51:47.20	200.84	18.03	-40.5	-42.5	17.7	0.00e+00	0	43	0	0	52	4596
2026-01-09 10:51:48.39	200.98	18.16	-40.4	-42.5	17.8	0.00e+00	0	43	0	0	52	4561
2026-01-09 10:51:49.25	201.08	18.25	-40.6	-42.6	17.6	0.00e+00	0	43	0	0	52	4635
2026-01-09 10:51:50.40	201.22	18.37	-40.6	-42.6	17.7	0.00e+00	0	43	0	0	52	4621
2026-01-09 10:51:51.26	201.33	18.46	-40.6	-42.6	17.7	0.00e+00	0	43	0	0	52	4611
2026-01-09 10:51:52.53	201.48	18.60	-40.5	-42.5	17.8	0.00e+00	0	43	0	0	52	4583
2026-01-09 10:51:53.26	201.57	18.67	-40.5	-42.4	17.8	0.00e+00	0	43	0	0	52	4536
2026-01-09 10:51:54.74	201.76	18.83	-40.3	-42.3	17.9	0.00e+00	0	43	0	0	52	4447
2026-01-09 10:51:55.46	201.85	18.91	-40.3	-42.2	18.0	0.00e+00	0	43	0	0	52	4432
2026-01-09 10:51:56.75	202.01	19.05	-40.1	-41.9	18.2	0.00e+00	0	43	0	0	52	4291
2026-01-09 10:51:57.47	202.10	19.13	-40.0	-42.0	18.2	0.00e+00	0	43	0	0	52	4294
2026-01-09 10:51:58.76	202.27	19.27	-40.0	-41.9	18.3	0.00e+00	0	43	0	0	52	4283
2026-01-09 10:51:59.47	202.36	19.35	-40.0	-41.9	18.3	0.00e+00	0	43	0	0	52	4280
2026-01-09 10:52:00.76	202.52	19.49	-40.0	-41.9	18.3	0.00e+00	0	43	0	0	52	4264
2026-01-09 10:52:01.48	202.62	19.57	-40.0	-41.8	18.4	0.00e+00	0	43	0	0	51	4486
2026-01-09 10:52:02.77	202.79	19.71	-40.0	-41.9	18.4	0.00e+00	0	43	0	0	51	4498
2026-01-09 10:52:03.49	202.88	19.79	-40.0	-41.8	18.4	0.00e+00	0	43	0	0	51	4484
2026-01-09 10:52:04.78	203.05	19.93	-39.8	-41.6	18.6	0.00e+00	0	43	0	0	51	4382
2026-01-09 10:52:05.50	203.15	20.01	-39.7	-41.6	18.6	0.00e+00	0	43	0	0	51	4349
2026-01-09 10:52:06.79	203.32	20.15	-39.6	-41.4	18.8	0.00e+00	0	43	0	0	51	4279
2026-01-09 10:52:07.69	203.45	20.25	-39.5	-41.3	18.9	0.00e+00	0	43	0	0	51	4237
2026-01-09 10:52:08.71	203.59	20.37	-39.4	-41.2	19.0	0.00e+00	0	43	0	0	50	4420
2026-01-09 10:52:09.71	203.73	20.48	-39.4	-41.2	19.0	0.00e+00	0	43	0	0	50	4400
2026-01-09 10:52:10.72	203.87	20.60	-39.4	-41.2	19.0	0.00e+00	0	43	0	0	50	4421
2026-01-09 10:52:11.72	204.01	20.71	-39.4	-41.1	19.0	0.00e+00	0	43	0	0	50	4387
2026-01-09 10:52:12.72	204.15	20.82	-39.4	-41.2	19.0	0.00e+00	0	43	0	0	50	4424
2026-01-09 10:52:13.72	204.29	20.94	-39.2	-40.9	19.2	0.00e+00	0	43	0	0	50	4280
2026-01-09 10:52:14.74	204.43	21.05	-39.0	-40.8	19.3	0.00e+00	0	43	0	0	50	4200
2026-01-09 10:52:15.78	204.58	21.17	-39.1	-40.8	19.3	0.00e+00	0	43	0	0	50	4211
2026-01-09 10:52:16.78	204.73	21.29	-39.1	-40.8	19.3	0.00e+00	0	43	0	0	50	4228
2026-01-09 10:52:17.84	204.89	21.41	-39.0	-40.7	19.4	0.00e+00	0	43	0	0	50	4181
2026-01-09 10:52:18.74	205.02	21.51	-38.9	-40.6	19.5	0.00e+00	0	43	0	0	49	4377
2026-01-09 10:52:20.01	205.21	21.66	-38.8	-40.5	19.5	0.00e+00	0	43	0	0	49	4338
2026-01-09 10:52:20.74	205.32	21.75	-38.8	-40.5	19.6	0.00e+00	0	43	0	0	49	4333
2026-01-09 10:52:22.03	205.51	21.90	-38.8	-40.6	19.6	0.00e+00	0	43	0	0	49	4351
2026-01-09 10:52:22.74	205.62	21.98	-38.8	-40.6	19.6	0.00e+00	0	43	0	0	49	4349
2026-01-09 10:52:24.03	205.81	22.13	-38.8	-40.5	19.7	0.00e+00	0	43	0	0	49	4311
2026-01-09 10:52:24.74	205.92	22.21	-38.7	-40.4	19.7	0.00e+00	0	43	0	0	49	4250
2026-01-09 10:52:26.04	206.13	22.37	-38.5	-40.2	19.9	0.00e+00	0	43	0	0	49	4183
2026-01-09 10:52:26.75	206.24	22.45	-38.5	-40.2	19.8	0.00e+00	0	43	0	0	49	4155
2026-01-09 10:52:28.08	206.45	22.61	-38.6	-40.3	19.7	0.00e+00	0	43	0	0	49	4222
2026-01-09 10:52:28.79	206.56	22.69	-38.6	-40.3	19.7	0.00e+00	0	44	0	0	49	4212
2026-01-09 10:52:30.14	206.78	22.86	-38.6	-40.3	19.7	0.00e+00	0	43	0	0	49	4222
2026-01-09 10:52:30.86	206.89	22.94	-38.6	-40.3	19.8	0.00e+00	0	43	0	0	49	4213
2026-01-09 10:52:32.25	207.12	23.11	-38.6	-40.3	19.8	0.00e+00	0	43	0	0	49	4239
2026-01-09 10:52:32.96	207.23	23.19	-38.6	-40.3	19.8	0.00e+00	0	43	0	0	49	4227
2026-01-09 10:52:34.25	207.45	23.35	-38.6	-40.3	19.9	0.00e+00	0	43	0	0	49	4202
2026-01-09 10:52:34.97	207.57	23.44	-38.6	-40.3	19.9	0.00e+00	0	43	0	0	49	4207
2026-01-09 10:52:36.25	207.78	23.59	-38.7	-40.4	19.8	0.00e+00	0	43	0	0	49	4256
2026-01-09 10:52:36.97	207.90	23.68	-38.6	-40.4	19.8	0.00e+00	0	43	0	0	49	4248
2026-01-09 10:52:38.26	208.12	23.84	-38.7	-40.5	19.8	0.00e+00	0	43	0	0	49	4305
2026-01-09 10:52:38.98	208.24	23.93	-38.7	-40.5	19.8	0.00e+00	0	43	0	0	49	4294
2026-01-09 10:52:40.27	208.47	24.08	-38.8	-40.5	19.7	0.00e+00	0	43	0	0	49	4335
2026-01-09 10:52:41.08	208.61	24.18	-38.8	-40.6	19.6	0.00e+00	0	43	0	0	49	4345
2026-01-09 10:52:42.55	208.87	24.36	-39.0	-40.7	19.5	0.00e+00	0	43	0	0	49	4431
2026-01-09 10:52:43.26	208.99	24.45	-39.0	-40.7	19.6	0.00e+00	0	43	0	0	49	4415
2026-01-09 10:52:44.55	209.22	24.61	-39.0	-40.8	19.5	0.00e+00	0	43	0	0	49	4457
2026-01-09 10:52:45.27	209.35	24.70	-39.1	-40.9	19.4	0.00e+00	0	43	0	0	49	4505
2026-01-09 10:52:46.56	209.59	24.86	-39.2	-40.9	19.4	0.00e+00	0	43	0	0	49	4535
2026-01-09 10:52:47.27	209.72	24.95	-39.2	-41.0	19.4	0.00e+00	0	43	0	0	49	4551
2026-01-09 10:52:48.56	209.95	25.11	-39.2	-40.9	19.4	0.00e+00	0	43	0	0	49	4538
2026-01-09 10:52:49.28	210.09	25.20	-39.2	-41.0	19.4	0.00e+00	0	43	0	0	49	4549
2026-01-09 10:52:50.57	210.33	25.37	-39.3	-41.1	19.3	0.00e+00	0	43	0	0	49	4603
2026-01-09 10:52:51.29	210.46	25.46	-39.3	-41.0	19.4	0.00e+00	0	43	0	0	49	4579
2026-01-09 10:52:52.58	210.71	25.62	-39.2	-41.0	19.4	0.00e+00	0	43	0	0	49	4572
2026-01-09 10:52:53.29	210.84	25.71	-39.3	-41.0	19.4	0.00e+00	0	43	0	0	49	4592
2026-01-09 10:52:54.58	211.09	25.87	-39.3	-41.1	19.3	0.00e+00	0	43	0	0	49	4625
2026-01-09 10:52:55.30	211.23	25.96	-39.4	-41.2	19.2	0.00e+00	0	43	0	0	49	4669
2026-01-09 10:52:56.73	211.51	26.15	-39.4	-41.2	19.1	0.00e+00	0	43	0	0	49	4700
2026-01-09 10:52:57.45	211.66	26.24	-39.5	-41.3	19.1	0.00e+00	0	43	0	0	49	4745
2026-01-09 10:52:58.74	211.91	26.40	-39.5	-41.3	19.1	0.00e+00	0	43	0	0	49	4739
2026-01-09 10:52:59.46	212.06	26.50	-39.5	-41.4	19.0	0.00e+00	0	43	0	0	49	4767
2026-01-09 10:53:00.74	212.32	26.66	-39.6	-41.4	18.9	0.00e+00	0	43	0	0	49	4813
2026-01-09 10:53:01.46	212.46	26.75	-39.7	-41.5	18.8	0.00e+00	0	43	0	0	49	4838
2026-01-09 10:53:02.75	212.73	26.92	-39.8	-41.7	18.7	0.00e+00	0	43	0	0	50	4658
2026-01-09 10:53:03.46	212.88	27.01	-39.9	-41.8	18.6	0.00e+00	0	43	0	0	50	4719
2026-01-09 10:53:04.76	213.15	27.18	-40.1	-42.0	18.4	0.00e+00	0	43	0	0	50	4858
2026-01-09 10:53:05.47	213.30	27.27	-40.2	-42.1	18.4	0.00e+00	0	43	0	0	51	4602
2026-01-09 10:53:06.76	213.57	27.44	-40.3	-42.2	18.3	0.00e+00	0	43	0	0	51	4668
2026-01-09 10:53:07.48	213.72	27.53	-40.3	-42.2	18.3	0.00e+00	0	43	0	0	51	4674
2026-01-09 10:53:08.77	214.00	27.70	-40.3	-42.3	18.2	0.00e+00	0	43	0	0	51	4709
2026-01-09 10:53:09.58	214.18	27.81	-40.3	-42.3	18.2	0.00e+00	0	43	0	0	51	4712
2026-01-09 10:53:11.05	214.50	28.00	-40.3	-42.2	18.3	0.00e+00	0	43	0	0	51	4696
2026-01-09 10:53:11.77	214.66	28.09	-40.4	-42.3	18.2	0.00e+00	0	43	0	0	51	4730
2026-01-09 10:53:13.27	215.00	28.29	-40.4	-42.3	18.2	0.00e+00	0	43	0	0	51	4754
2026-01-09 10:53:13.98	215.16	28.38	-40.3	-42.3	18.2	0.00e+00	0	43	0	0	51	4720
2026-01-09 10:53:15.27	215.45	28.55	-40.3	-42.2	18.3	0.00e+00	0	43	0	0	51	4693
2026-01-09 10:53:15.99	215.61	28.64	-40.4	-42.3	18.2	0.00e+00	0	43	0	0	51	4711
2026-01-09 10:53:17.28	215.91	28.81	-40.3	-42.1	18.3	0.00e+00	0	43	0	0	51	4650
2026-01-09 10:53:17.99	216.08	28.91	-40.2	-42.1	18.3	0.00e+00	0	43	0	0	51	4611
2026-01-09 10:53:19.28	216.38	29.08	-40.2	-42.1	18.3	0.00e+00	0	43	0	0	51	4599
2026-01-09 10:53:20.00	216.55	29.17	-40.1	-42.0	18.4	0.00e+00	0	43	0	0	51	4564
2026-01-09 10:53:21.29	216.86	29.34	-40.1	-42.0	18.5	0.00e+00	0	43	0	0	51	4552
2026-01-09 10:53:22.01	217.03	29.44	-40.1	-41.9	18.5	0.00e+00	0	43	0	0	51	4542
2026-01-09 10:53:23.30	217.34	29.61	-40.0	-41.9	18.6	0.00e+00	0	43	0	0	51	4516
2026-01-09 10:53:24.01	217.52	29.70	-39.9	-41.7	18.8	0.00e+00	0	43	0	0	51	4402
2026-01-09 10:53:25.30	217.83	29.87	-39.8	-41.6	18.8	0.00e+00	0	43	0	0	51	4373
2026-01-09 10:53:26.02	218.01	29.97	-39.8	-41.6	18.8	0.00e+00	0	43	0	0	51	4376
2026-01-09 10:53:27.30	218.33	30.14	-39.9	-41.7	18.8	0.00e+00	0	43	0	0	51	4418
2026-01-09 10:53:28.02	218.52	30.23	-39.8	-41.7	18.8	0.00e+00	0	43	0	0	51	4396
2026-01-09 10:53:29.31	218.84	30.40	-39.9	-41.8	18.7	0.00e+00	0	43	0	0	51	4443
2026-01-09 10:53:30.03	219.03	30.50	-39.9	-41.7	18.8	0.00e+00	0	43	0	0	51	4407
2026-01-09 10:53:31.32	219.36	30.67	-39.6	-41.4	19.0	0.00e+00	0	43	0	0	51	4291
2026-01-09 10:53:32.04	219.55	30.76	-39.5	-41.3	19.1	0.00e+00	0	43	0	0	51	4228
2026-01-09 10:53:33.32	219.88	30.93	-39.7	-41.5	18.9	0.00e+00	0	43	0	0	51	4318
2026-01-09 10:53:34.04	220.08	31.03	-39.7	-41.5	18.9	0.00e+00	0	43	0	0	51	4318
2026-01-09 10:53:35.33	220.42	31.20	-39.8	-41.6	18.9	0.00e+00	0	43	0	0	51	4369
2026-01-09 10:53:36.09	220.62	31.30	-39.7	-41.5	19.0	0.00e+00	0	43	0	0	51	4326
2026-01-09 10:53:37.38	220.97	31.47	-39.6	-41.4	19.0	0.00e+00	0	43	0	0	51	4281
2026-01-09 10:53:38.10	221.17	31.56	-39.6	-41.4	19.0	0.00e+00	0	43	0	0	51	4278
2026-01-09 10:53:39.75	221.63	31.78	-39.7	-41.5	18.9	0.00e+00	0	43	0	0	51	4336
2026-01-09 10:53:40.33	221.79	31.86	-39.8	-41.6	18.9	0.00e+00	0	43	0	0	51	4342
2026-01-09 10:53:41.91	222.23	32.06	-39.8	-41.6	18.9	0.00e+00	0	43	0	0	51	4375
2026-01-09 10:53:42.52	222.40	32.14	-39.9	-41.8	18.7	0.00e+00	0	43	0	0	51	4448
2026-01-09 10:53:44.10	222.86	32.35	-40.2	-42.0	18.5	0.00e+00	0	43	0	0	51	4592
2026-01-09 10:53:44.76	223.05	32.44	-40.2	-42.1	18.4	0.00e+00	0	43	0	0	51	4623
2026-01-09 10:53:46.19	223.46	32.62	-40.2	-42.1	18.3	0.00e+00	0	43	0	0	51	4636
2026-01-09 10:53:46.99	223.70	32.73	-40.2	-42.1	18.4	0.00e+00	0	43	0	0	51	4599
2026-01-09 10:53:48.13	224.03	32.88	-40.2	-42.0	18.5	0.00e+00	0	43	0	0	51	4585
2026-01-09 10:53:49.23	224.36	33.02	-40.2	-42.1	18.4	0.00e+00	0	43	0	0	51	4619
2026-01-09 10:53:50.27	224.67	33.15	-40.2	-42.1	18.4	0.00e+00	0	43	0	0	51	4620
2026-01-09 10:53:51.26	224.97	33.28	-40.3	-42.1	18.4	0.00e+00	0	43	0	0	51	4641
2026-01-09 10:53:52.27	225.28	33.41	-40.4	-42.3	18.1	0.00e+00	0	43	0	0	51	4737
2026-01-09 10:53:53.27	225.59	33.54	-40.6	-42.6	17.9	0.00e+00	0	43	0	0	51	4897
2026-01-09 10:53:54.27	225.90	33.67	-40.6	-42.6	17.9	0.00e+00	0	43	0	0	51	4882
2026-01-09 10:53:55.27	226.21	33.79	-40.4	-42.3	18.0	0.00e+00	0	43	0	0	52	4477
2026-01-09 10:53:56.28	226.53	33.92	-40.5	-42.4	17.9	0.00e+00	0	43	0	0	52	4533
2026-01-09 10:53:57.28	226.85	34.05	-40.4	-42.4	18.0	0.00e+00	0	43	0	0	52	4497
2026-01-09 10:53:58.28	227.17	34.17	-40.6	-42.5	17.8	0.00e+00	0	43	0	0	52	4594
2026-01-09 10:53:59.28	227.49	34.30	-40.6	-42.5	17.9	0.00e+00	0	43	0	0	52	4581
2026-01-09 10:54:00.29	227.82	34.43	-40.7	-42.6	17.8	0.00e+00	0	43	0	0	52	4640
2026-01-09 10:54:01.29	228.15	34.55	-40.8	-42.8	17.7	0.00e+00	0	43	0	0	52	4729
2026-01-09 10:54:02.36	228.50	34.68	-40.8	-42.8	17.7	0.00e+00	0	43	0	0	52	4727
2026-01-09 10:54:03.25	228.79	34.79	-40.8	-42.8	17.7	0.00e+00	0	43	0	0	52	4745
2026-01-09 10:54:04.58	229.24	34.96	-40.7	-42.7	17.8	0.00e+00	0	43	0	0	52	4676
2026-01-09 10:54:05.30	229.48	35.05	-40.7	-42.7	17.8	0.00e+00	0	43	0	0	52	4687
2026-01-09 10:54:06.59	229.92	35.20	-40.7	-42.7	17.7	0.00e+00	0	43	0	0	52	4688
2026-01-09 10:54:07.31	230.17	35.29	-40.9	-42.9	17.5	0.00e+00	0	43	0	0	52	4797
2026-01-09 10:54:08.60	230.61	35.45	-41.1	-43.1	17.4	0.00e+00	0	43	0	0	52	4891
2026-01-09 10:54:09.31	230.86	35.53	-40.9	-42.9	17.4	0.00e+00	0	43	0	0	52	4805
2026-01-09 10:54:10.60	231.31	35.68	-41.0	-43.0	17.3	0.00e+00	0	43	0	0	52	4844
2026-01-09 10:54:11.32	231.57	35.77	-40.9	-43.0	17.4	0.00e+00	0	43	0	0	52	4816
2026-01-09 10:54:12.61	232.02	35.92	-41.0	-43.0	17.4	0.00e+00	0	43	0	0	52	4848
2026-01-09 10:54:13.56	232.36	36.03	-41.1	-43.1	17.4	0.00e+00	0	43	0	0	52	4902
2026-01-09 10:54:14.57	232.73	36.15	-41.2	-43.2	17.2	0.00e+00	0	43	0	0	53	4688
2026-01-09 10:54:15.57	233.09	36.26	-41.2	-43.3	17.1	0.00e+00	0	43	0	0	53	4736
2026-01-09 10:54:16.58	233.46	36.38	-41.1	-43.1	17.3	0.00e+00	0	43	0	0	53	4616
2026-01-09 10:54:17.58	233.83	36.49	-41.0	-43.0	17.5	0.00e+00	0	43	0	0	53	4562
2026-01-09 10:54:18.58	234.20	36.60	-41.0	-43.1	17.4	0.00e+00	0	43	0	0	53	4599
2026-01-09 10:54:19.59	234.57	36.72	-41.1	-43.1	17.4	0.00e+00	0	43	0	0	53	4637
2026-01-09 10:54:20.59	234.95	36.83	-41.3	-43.4	17.1	0.00e+00	0	43	0	0	53	4794
2026-01-09 10:54:21.68	235.36	36.94	-41.4	-43.5	17.0	0.00e+00	0	43	0	0	53	4864
2026-01-09 10:54:22.53	235.68	37.04	-41.4	-43.5	17.0	0.00e+00	0	43	0	0	53	4838
2026-01-09 10:54:23.68	236.13	37.16	-41.4	-43.5	17.0	0.00e+00	0	43	0	0	53	4819
2026-01-09 10:54:24.63	236.49	37.26	-41.3	-43.3	17.2	0.00e+00	0	43	0	0	53	4749
2026-01-09 10:54:25.64	236.88	37.37	-41.1	-43.1	17.4	0.00e+00	0	43	0	0	53	4643
2026-01-09 10:54:26.85	237.36	37.49	-41.1	-43.2	17.4	0.00e+00	0	43	0	0	53	4660
2026-01-09 10:54:27.74	237.71	37.58	-41.1	-43.1	17.4	0.00e+00	0	43	0	0	53	4602
2026-01-09 10:54:28.88	238.16	37.70	-41.2	-43.2	17.3	0.00e+00	0	43	0	0	53	4672
2026-01-09 10:54:29.75	238.50	37.79	-41.3	-43.4	17.1	0.00e+00	0	43	0	0	53	4784
2026-01-09 10:54:30.89	238.96	37.90	-41.5	-43.6	16.8	0.00e+00	0	44	0	0	53	4926
2026-01-09 10:54:31.75	239.31	37.98	-41.5	-43.6	17.0	0.00e+00	0	43	0	0	53	4910
2026-01-09 10:54:32.90	239.77	38.09	-41.4	-43.4	17.1	0.00e+00	0	43	0	0	53	4805
2026-01-09 10:54:33.76	240.12	38.17	-41.2	-43.3	17.3	0.00e+00	0	43	0	0	53	4709
2026-01-09 10:54:34.90	240.59	38.28	-41.2	-43.3	17.2	0.00e+00	0	43	0	0	53	4717
2026-01-09 10:54:35.77	240.95	38.36	-41.2	-43.2	17.2	0.00e+00	0	43	0	0	53	4685
2026-01-09 10:54:36.91	241.42	38.47	-41.2	-43.3	17.2	0.00e+00	0	44	0	0	53	4721
2026-01-09 10:54:37.77	241.78	38.54	-41.4	-43.4	17.1	0.00e+00	0	43	0	0	53	4807
2026-01-09 10:54:38.92	242.26	38.64	-41.4	-43.5	17.1	0.00e+00	0	43	0	0	53	4831
2026-01-09 10:54:39.77	242.62	38.72	-41.3	-43.4	17.2	0.00e+00	0	43	0	0	53	4782
2026-01-09 10:54:40.92	243.11	38.81	-41.6	-43.8	16.8	0.00e+00	0	43	0	0	53	4999
2026-01-09 10:54:41.82	243.49	38.89	-41.7	-43.9	16.6	0.00e+00	0	44	0	0	54	4790
2026-01-09 10:54:43.05	244.02	38.99	-42.0	-44.3	16.3	0.00e+00	0	43	0	0	54	4995
2026-01-09 10:54:43.91	244.39	39.06	-41.8	-44.0	16.6	0.00e+00	0	44	0	0	54	4824
2026-01-09 10:54:45.05	244.88	39.15	-41.7	-43.8	16.8	0.00e+00	0	44	0	0	54	4729
2026-01-09 10:54:45.91	245.25	39.21	-41.7	-43.8	16.8	0.00e+00	0	44	0	0	54	4723
2026-01-09 10:54:47.06	245.75	39.30	-41.5	-43.6	17.0	0.00e+00	0	43	0	0	54	4603
2026-01-09 10:54:47.95	246.14	39.37	-41.7	-43.8	16.8	0.00e+00	0	43	0	0	54	4749
2026-01-09 10:54:48.98	246.60	39.44	-41.9	-44.1	16.5	0.00e+00	0	43	0	0	54	4908
2026-01-09 10:54:49.98	247.04	39.51	-42.0	-44.2	16.4	0.00e+00	0	43	0	0	54	4940
2026-01-09 10:54:50.98	247.48	39.58	-41.8	-44.0	16.6	0.00e+00	0	44	0	0	54	4854
2026-01-09 10:54:51.99	247.93	39.65	-41.7	-43.8	16.8	0.00e+00	0	44	0	0	54	4742
2026-01-09 10:54:52.99	248.38	39.71	-41.5	-43.5	17.0	0.00e+00	0	44	0	0	54	4597
2026-01-09 10:54:54.00	248.83	39.77	-41.4	-43.5	17.1	0.00e+00	0	43	0	0	54	4549
2026-01-09 10:54:55.00	249.29	39.83	-41.5	-43.6	17.0	0.00e+00	0	43	0	0	54	4600
2026-01-09 10:54:56.00	249.74	39.89	-41.6	-43.7	16.9	0.00e+00	0	43	0	0	54	4672
2026-01-09 10:54:57.00	250.19	39.95	-41.9	-44.1	16.4	0.00e+00	0	43	0	0	54	4882
2026-01-09 10:54:58.00	250.65	40.01	-41.9	-44.0	16.5	0.00e+00	0	44	0	0	54	4870
2026-01-09 10:54:59.01	251.11	40.06	-42.0	-44.2	16.3	0.00e+00	0	43	0	0	54	4936
2026-01-09 10:55:00.01	251.57	40.11	-41.9	-44.1	16.4	0.00e+00	0	43	0	0	54	4906
2026-01-09 10:55:01.01	252.03	40.16	-41.8	-44.0	16.6	0.00e+00	0	43	0	0	54	4830
2026-01-09 10:55:02.02	252.49	40.21	-41.6	-43.7	16.8	0.00e+00	0	44	0	0	54	4690
2026-01-09 10:55:03.02	252.96	40.26	-41.6	-43.7	16.9	0.00e+00	0	43	0	0	54	4704
2026-01-09 10:55:04.02	253.42	40.30	-41.7	-43.9	16.7	0.00e+00	0	43	0	0	54	4766
2026-01-09 10:55:05.03	253.89	40.34	-42.1	-44.4	16.2	0.00e+00	0	43	0	0	54	5050
2026-01-09 10:55:06.03	254.36	40.38	-42.1	-44.4	16.3	0.00e+00	0	43	0	0	55	4773
2026-01-09 10:55:07.03	254.82	40.42	-41.9	-44.1	16.4	0.00e+00	0	43	0	0	55	4644
2026-01-09 10:55:08.04	255.30	40.45	-41.6	-43.8	16.8	0.00e+00	0	43	0	0	55	4444
2026-01-09 10:55:09.04	255.77	40.49	-41.3	-43.3	17.2	0.00e+00	0	43	0	0	54	4479
2026-01-09 10:55:10.04	256.24	40.52	-41.3	-43.4	17.1	0.00e+00	0	43	0	0	54	4503
2026-01-09 10:55:11.05	256.71	40.55	-41.7	-43.8	16.7	0.00e+00	0	43	0	0	54	4718
2026-01-09 10:55:12.05	257.18	40.57	-41.8	-44.0	16.6	0.00e+00	0	43	0	0	54	4829
2026-01-09 10:55:13.05	257.66	40.60	-41.7	-43.8	16.8	0.00e+00	0	43	0	0	54	4740
2026-01-09 10:55:14.05	258.13	40.62	-41.4	-43.5	17.1	0.00e+00	0	43	0	0	54	4568
2026-01-09 10:55:15.06	258.61	40.64	-41.4	-43.5	17.1	0.00e+00	0	44	0	0	54	4554
2026-01-09 10:55:16.30	259.20	40.66	-41.7	-43.9	16.6	0.00e+00	0	43	0	0	54	4782
2026-01-09 10:55:17.15	259.60	40.68	-42.1	-44.4	16.2	0.00e+00	0	43	0	0	54	5054
2026-01-09 10:55:18.51	260.25	40.70	-41.9	-44.2	16.4	0.00e+00	0	43	0	0	54	4950
2026-01-09 10:55:19.22	260.59	40.70	-42.0	-44.3	16.3	0.00e+00	0	43	0	0	54	4995
2026-01-09 10:55:20.51	261.20	40.72	-42.2	-44.5	16.1	0.00e+00	0	43	0	0	55	4860
2026-01-09 10:55:21.23	261.54	40.72	-42.4	-44.7	15.9	0.00e+00	0	43	0	0	55	4956
2026-01-09 10:55:22.79	262.29	40.73	-42.8	-45.2	15.4	0.00e+00	0	44	0	0	56	4954
2026-01-09 10:55:23.50	262.63	40.73	-42.6	-45.0	15.7	0.00e+00	0	44	0	0	56	4843
2026-01-09 10:55:24.84	263.26	40.73	-41.8	-44.0	16.6	0.00e+00	0	43	0	0	55	4560
2026-01-09 10:55:25.56	263.61	40.73	-41.8	-44.0	16.5	0.00e+00	0	44	0	0	55	4589
2026-01-09 10:55:26.85	264.22	40.72	-42.1	-44.3	16.3	0.00e+00	0	43	0	0	55	4746
2026-01-09 10:55:27.57	264.56	40.72	-42.2	-44.4	16.2	0.00e+00	0	43	0	0	55	4807
2026-01-09 10:55:28.86	265.18	40.70	-42.8	-45.2	15.5	0.00e+00	0	44	0	0	56	4951
2026-01-09 10:55:29.58	265.52	40.70	-42.4	-44.6	16.2	0.00e+00	0	43	0	0	56	4645
2026-01-09 10:55:30.87	266.13	40.68	-42.1	-44.3	16.4	0.00e+00	0	43	0	0	56	4450
2026-01-09 10:55:31.58	266.47	40.67	-42.0	-44.2	16.6	0.00e+00	0	43	0	0	56	4392
2026-01-09 10:55:32.88	267.09	40.64	-42.1	-44.4	16.1	0.00e+00	0	43	0	0	55	4782
2026-01-09 10:55:33.59	267.42	40.63	-42.2	-44.5	16.1	0.00e+00	0	43	0	0	55	4826
2026-01-09 10:55:34.88	268.03	40.60	-42.1	-44.3	16.3	0.00e+00	0	44	0	0	55	4715
2026-01-09 10:55:35.59	268.37	40.58	-42.0	-44.2	16.3	0.00e+00	0	43	0	0	55	4705
2026-01-09 10:55:36.88	268.98	40.55	-41.9	-44.1	16.4	0.00e+00	0	43	0	0	55	4645
2026-01-09 10:55:37.60	269.32	40.53	-41.9	-44.1	16.4	0.00e+00	0	43	0	0	55	4641
2026-01-09 10:55:38.89	269.92	40.49	-42.1	-44.4	16.0	0.00e+00	0	44	0	0	55	4780
2026-01-09 10:55:39.61	270.26	40.47	-42.4	-44.8	15.8	0.00e+00	0	44	0	0	55	5007
2026-01-09 10:55:40.90	270.87	40.42	-41.7	-43.8	16.7	0.00e+00	0	44	0	0	55	4492
2026-01-09 10:55:41.61	271.20	40.39	-41.4	-43.5	17.0	0.00e+00	0	43	0	0	54	4588
2026-01-09 10:55:42.90	271.80	40.34	-41.5	-43.6	16.9	0.00e+00	0	43	0	0	54	4646
2026-01-09 10:55:43.62	272.13	40.32	-41.6	-43.8	16.8	0.00e+00	0	43	0	0	54	4708
2026-01-09 10:55:44.91	272.73	40.26	-41.8	-44.0	16.6	0.00e+00	0	43	0	0	54	4827
2026-01-09 10:55:45.63	273.06	40.23	-41.8	-44.0	16.6	0.00e+00	0	43	0	0	54	4819
2026-01-09 10:55:47.17	273.77	40.15	-41.6	-43.7	16.9	0.00e+00	0	44	0	0	54	4662
2026-01-09 10:55:47.88	274.10	40.12	-41.7	-43.8	16.7	0.00e+00	0	43	0	0	54	4757
2026-01-09 10:55:49.27	274.74	40.05	-42.2	-44.5	16.0	0.00e+00	0	44	0	0	55	4848
2026-01-09 10:55:50.27	275.19	39.99	-42.1	-44.3	16.3	0.00e+00	0	43	0	0	55	4739
2026-01-09 10:55:51.27	275.65	39.94	-41.9	-44.1	16.5	0.00e+00	0	44	0	0	55	4606
2026-01-09 10:55:52.27	276.10	39.88	-41.9	-44.1	16.5	0.00e+00	0	43	0	0	55	4602
2026-01-09 10:55:53.28	276.56	39.82	-41.9	-44.1	16.5	0.00e+00	0	43	0	0	55	4620
2026-01-09 10:55:54.28	277.01	39.76	-41.9	-44.0	16.6	0.00e+00	0	43	0	0	55	4593
2026-01-09 10:55:55.28	277.45	39.70	-42.0	-44.2	16.5	0.00e+00	0	43	0	0	55	4673
2026-01-09 10:55:56.29	277.90	39.63	-41.8	-44.0	16.6	0.00e+00	0	44	0	0	55	4557
2026-01-09 10:55:57.29	278.35	39.56	-41.9	-44.0	16.6	0.00e+00	0	43	0	0	55	4592
2026-01-09 10:55:58.29	278.79	39.50	-41.9	-44.1	16.5	0.00e+00	0	44	0	0	55	4633
2026-01-09 10:55:59.37	279.27	39.42	-41.9	-44.1	16.5	0.00e+00	0	44	0	0	55	4641
2026-01-09 10:56:00.27	279.66	39.35	-41.6	-43.8	16.8	0.00e+00	0	44	0	0	55	4447
2026-01-09 10:56:01.31	280.12	39.28	-41.3	-43.3	17.3	0.00e+00	0	44	0	0	54	4472
2026-01-09 10:56:02.21	280.51	39.21	-41.3	-43.3	17.3	0.00e+00	0	43	0	0	54	4491
2026-01-09 10:56:03.35	281.00	39.12	-41.6	-43.8	16.8	0.00e+00	0	44	0	0	54	4727
2026-01-09 10:56:04.21	281.37	39.05	-41.8	-44.1	16.6	0.00e+00	0	44	0	0	54	4882
2026-01-09 10:56:05.72	282.02	38.93	-41.4	-43.4	17.2	0.00e+00	0	44	0	0	54	4544
2026-01-09 10:56:06.44	282.32	38.87	-41.0	-43.0	17.6	0.00e+00	0	43	0	0	54	4292
2026-01-09 10:56:07.73	282.87	38.77	-40.5	-42.5	18.1	0.00e+00	0	44	0	0	52	4549
2026-01-09 10:56:08.44	283.17	38.71	-40.4	-42.3	18.1	0.00e+00	0	43	0	0	52	4481
2026-01-09 10:56:09.73	283.71	38.59	-40.6	-42.5	18.0	0.00e+00	0	43	0	0	52	4585
2026-01-09 10:56:10.45	284.01	38.53	-40.6	-42.5	18.0	0.00e+00	0	44	0	0	52	4577
2026-01-09 10:56:11.74	284.55	38.41	-40.9	-42.9	17.6	0.00e+00	0	44	0	0	52	4802
2026-01-09 10:56:12.60	284.90	38.34	-41.2	-43.3	17.3	0.00e+00	0	43	0	0	53	4710
2026-01-09 10:56:13.75	285.37	38.23	-41.6	-43.7	16.8	0.00e+00	0	43	0	0	53	4967
2026-01-09 10:56:14.81	285.80	38.13	-41.6	-43.7	16.7	0.00e+00	0	44	0	0	53	4976
2026-01-09 10:56:15.85	286.23	38.03	-41.4	-43.5	16.9	0.00e+00	0	43	0	0	53	4849
2026-01-09 10:56:16.85	286.63	37.93	-41.3	-43.3	17.2	0.00e+00	0	43	0	0	53	4740
2026-01-09 10:56:17.85	287.03	37.84	-40.8	-42.7	17.7	0.00e+00	0	43	0	0	53	4437
2026-01-09 10:56:18.85	287.43	37.74	-40.7	-42.6	17.7	0.00e+00	0	44	0	0	53	4390
2026-01-09 10:56:19.85	287.82	37.64	-40.9	-42.9	17.5	0.00e+00	0	43	0	0	53	4540
2026-01-09 10:56:20.86	288.22	37.53	-40.9	-42.9	17.5	0.00e+00	0	44	0	0	53	4540
2026-01-09 10:56:21.86	288.61	37.43	-40.9	-42.9	17.6	0.00e+00	0	44	0	0	53	4503
2026-01-09 10:56:22.86	289.00	37.33	-40.9	-42.9	17.6	0.00e+00	0	43	0	0	53	4520
2026-01-09 10:56:23.86	289.38	37.22	-40.8	-42.8	17.7	0.00e+00	0	44	0	0	53	4478
2026-01-09 10:56:24.87	289.77	37.12	-40.8	-42.7	17.7	0.00e+00	0	43	0	0	53	4429
2026-01-09 10:56:25.87	290.15	37.01	-40.6	-42.5	17.9	0.00e+00	0	44	0	0	53	4323
2026-01-09 10:56:26.88	290.53	36.90	-40.5	-42.4	17.9	0.00e+00	0	44	0	0	52	4520
2026-01-09 10:56:27.88	290.91	36.79	-40.5	-42.4	17.8	0.00e+00	0	44	0	0	52	4531
2026-01-09 10:56:28.88	291.28	36.68	-40.7	-42.7	17.6	0.00e+00	0	44	0	0	52	4680
2026-01-09 10:56:29.89	291.66	36.57	-41.0	-43.0	17.4	0.00e+00	0	43	0	0	52	4866
2026-01-09 10:56:30.89	292.02	36.46	-41.0	-43.1	17.4	0.00e+00	0	43	0	0	52	4894
2026-01-09 10:56:31.89	292.39	36.34	-40.9	-42.9	17.6	0.00e+00	0	44	0	0	52	4814
2026-01-09 10:56:32.90	292.76	36.23	-40.9	-42.9	17.7	0.00e+00	0	44	0	0	52	4767
2026-01-09 10:56:33.90	293.12	36.11	-40.7	-42.7	17.7	0.00e+00	0	44	0	0	52	4655
2026-01-09 10:56:34.90	293.48	36.00	-40.6	-42.6	17.8	0.00e+00	0	44	0	0	52	4607
2026-01-09 10:56:35.97	293.86	35.87	-40.6	-42.5	17.9	0.00e+00	0	44	0	0	52	4565
2026-01-09 10:56:36.86	294.17	35.77	-40.5	-42.5	17.9	0.00e+00	0	44	0	0	52	4555
2026-01-09 10:56:37.89	294.53	35.65	-40.6	-42.7	17.7	0.00e+00	0	43	0	0	52	4654
2026-01-09 10:56:38.89	294.88	35.53	-40.8	-42.8	17.6	0.00e+00	0	43	0	0	52	4758
2026-01-09 10:56:39.89	295.22	35.41	-40.9	-43.0	17.5	0.00e+00	0	44	0	0	52	4833
2026-01-09 10:56:40.90	295.57	35.29	-40.9	-42.9	17.6	0.00e+00	0	44	0	0	52	4778
2026-01-09 10:56:41.90	295.91	35.17	-40.5	-42.5	18.0	0.00e+00	0	44	0	0	52	4548
2026-01-09 10:56:42.90	296.25	35.05	-40.5	-42.4	18.0	0.00e+00	0	44	0	0	52	4523
2026-01-09 10:56:43.90	296.59	34.93	-40.3	-42.2	18.2	0.00e+00	0	43	0	0	52	4419
2026-01-09 10:56:44.90	296.92	34.80	-40.4	-42.3	18.1	0.00e+00	0	43	0	0	52	4462
2026-01-09 10:56:45.91	297.25	34.68	-40.5	-42.4	18.1	0.00e+00	0	43	0	0	52	4541
2026-01-09 10:56:46.91	297.58	34.56	-40.4	-42.4	18.1	0.00e+00	0	44	0	0	52	4513
2026-01-09 10:56:47.91	297.91	34.43	-40.3	-42.2	18.3	0.00e+00	0	44	0	0	52	4402
2026-01-09 10:56:48.92	298.23	34.31	-40.4	-42.3	18.2	0.00e+00	0	44	0	0	52	4481
2026-01-09 10:56:49.97	298.57	34.18	-40.5	-42.5	18.1	0.00e+00	0	44	0	0	52	4570
2026-01-09 10:56:50.87	298.86	34.06	-40.7	-42.7	17.9	0.00e+00	0	44	0	0	52	4663
2026-01-09 10:56:51.88	299.18	33.94	-40.7	-42.7	17.9	0.00e+00	0	43	0	0	52	4671
2026-01-09 10:56:52.88	299.49	33.81	-40.5	-42.5	18.0	0.00e+00	0	44	0	0	52	4576
2026-01-09 10:56:53.88	299.80	33.68	-40.3	-42.3	18.2	0.00e+00	0	44	0	0	52	4452
2026-01-09 10:56:54.88	300.11	33.56	-40.2	-42.2	18.3	0.00e+00	0	44	0	0	52	4401
2026-01-09 10:56:55.89	300.42	33.43	-40.3	-42.2	18.3	0.00e+00	0	44	0	0	52	4411
2026-01-09 10:56:56.89	300.72	33.30	-40.3	-42.2	18.3	0.00e+00	0	44	0	0	52	4419
2026-01-09 10:56:57.89	301.02	33.17	-40.3	-42.2	18.3	0.00e+00	0	44	0	0	52	4434
2026-01-09 10:56:58.90	301.33	33.04	-40.2	-42.1	18.4	0.00e+00	0	44	0	0	52	4377
2026-01-09 10:56:59.90	301.62	32.91	-40.1	-42.0	18.5	0.00e+00	0	44	0	0	52	4319
2026-01-09 10:57:00.91	301.92	32.78	-40.1	-42.0	18.5	0.00e+00	0	44	0	0	52	4326
2026-01-09 10:57:01.97	302.23	32.65	-40.1	-42.0	18.5	0.00e+00	0	44	0	0	52	4314
2026-01-09 10:57:02.83	302.48	32.53	-40.1	-42.0	18.4	0.00e+00	0	43	0	0	52	4339
2026-01-09 10:57:03.98	302.81	32.39	-40.0	-41.9	18.5	0.00e+00	0	43	0	0	52	4269
2026-01-09 10:57:04.84	303.06	32.27	-40.0	-41.9	18.7	0.00e+00	0	44	0	0	51	4512
2026-01-09 10:57:05.98	303.38	32.13	-40.1	-42.0	18.6	0.00e+00	0	44	0	0	51	4551
2026-01-09 10:57:06.84	303.62	32.01	-40.1	-42.0	18.5	0.00e+00	0	44	0	0	51	4575
2026-01-09 10:57:07.99	303.94	31.86	-40.1	-42.0	18.5	0.00e+00	0	43	0	0	51	4573
2026-01-09 10:57:08.85	304.18	31.75	-40.1	-42.0	18.5	0.00e+00	0	44	0	0	51	4572
2026-01-09 10:57:10.00	304.50	31.60	-40.2	-42.0	18.5	0.00e+00	0	44	0	0	51	4590
2026-01-09 10:57:10.86	304.73	31.49	-40.2	-42.1	18.5	0.00e+00	0	43	0	0	51	4618
2026-01-09 10:57:12.00	305.04	31.34	-40.0	-41.9	18.6	0.00e+00	0	44	0	0	51	4516
2026-01-09 10:57:12.86	305.27	31.23	-40.1	-42.0	18.5	0.00e+00	0	44	0	0	51	4556
2026-01-09 10:57:14.06	305.59	31.07	-40.2	-42.1	18.3	0.00e+00	0	43	0	0	51	4649
2026-01-09 10:57:14.91	305.81	30.96	-40.4	-42.4	18.2	0.00e+00	0	44	0	0	51	4769
2026-01-09 10:57:16.12	306.13	30.80	-40.4	-42.4	18.1	0.00e+00	0	43	0	0	51	4784
2026-01-09 10:57:16.98	306.35	30.69	-40.5	-42.5	18.1	0.00e+00	0	43	0	0	51	4836
2026-01-09 10:57:18.13	306.65	30.53	-40.3	-42.3	18.2	0.00e+00	0	43	0	0	51	4732
2026-01-09 10:57:18.99	306.87	30.42	-40.3	-42.3	18.3	0.00e+00	0	43	0	0	51	4731
2026-01-09 10:57:20.14	307.16	30.27	-40.4	-42.3	18.2	0.00e+00	0	44	0	0	51	4734
2026-01-09 10:57:21.00	307.37	30.16	-40.3	-42.3	18.2	0.00e+00	0	43	0	0	51	4714
2026-01-09 10:57:22.14	307.66	30.01	-40.4	-42.3	18.2	0.00e+00	0	43	0	0	51	4744
2026-01-09 10:57:23.00	307.87	29.90	-40.3	-42.2	18.2	0.00e+00	0	44	0	0	51	4689
2026-01-09 10:57:24.14	308.15	29.75	-40.3	-42.2	18.3	0.00e+00	0	44	0	0	51	4659
2026-01-09 10:57:25.01	308.36	29.63	-40.3	-42.2	18.4	0.00e+00	0	44	0	0	51	4666
2026-01-09 10:57:26.15	308.64	29.48	-40.2	-42.1	18.4	0.00e+00	0	43	0	0	51	4632
2026-01-09 10:57:27.01	308.84	29.37	-40.2	-42.1	18.4	0.00e+00	0	44	0	0	51	4635
2026-01-09 10:57:28.16	309.12	29.22	-40.2	-42.0	18.5	0.00e+00	0	44	0	0	51	4581
2026-01-09 10:57:29.02	309.32	29.11	-40.1	-42.0	18.5	0.00e+00	0	44	0	0	51	4569
2026-01-09 10:57:30.17	309.59	28.96	-40.0	-41.9	18.6	0.00e+00	0	43	0	0	51	4513
2026-01-09 10:57:31.03	309.79	28.84	-40.1	-42.0	18.5	0.00e+00	0	44	0	0	51	4564
2026-01-09 10:57:32.17	310.05	28.70	-40.0	-41.8	18.6	0.00e+00	0	44	0	0	51	4486
2026-01-09 10:57:33.03	310.24	28.58	-39.9	-41.7	18.8	0.00e+00	0	43	0	0	51	4434
2026-01-09 10:57:34.18	310.50	28.43	-39.9	-41.7	18.7	0.00e+00	0	44	0	0	51	4436
2026-01-09 10:57:35.15	310.72	28.31	-39.8	-41.7	18.7	0.00e+00	0	44	0	0	51	4433
2026-01-09 10:57:36.15	310.94	28.18	-39.8	-41.7	18.8	0.00e+00	0	44	0	0	51	4407
2026-01-09 10:57:37.36	311.21	28.02	-39.7	-41.6	18.9	0.00e+00	0	44	0	0	51	4362
2026-01-09 10:57:38.26	311.41	27.90	-39.5	-41.3	19.2	0.00e+00	0	43	0	0	50	4469
2026-01-09 10:57:39.40	311.66	27.76	-39.3	-41.1	19.3	0.00e+00	0	43	0	0	50	4361
2026-01-09 10:57:40.32	311.85	27.64	-39.4	-41.2	19.2	0.00e+00	0	43	0	0	50	4407
2026-01-09 10:57:41.48	312.10	27.49	-39.3	-41.1	19.3	0.00e+00	0	43	0	0	50	4362
2026-01-09 10:57:42.34	312.28	27.38	-39.3	-41.1	19.2	0.00e+00	0	44	0	0	50	4384
2026-01-09 10:57:43.49	312.53	27.23	-39.3	-41.2	19.2	0.00e+00	0	43	0	0	50	4401
2026-01-09 10:57:44.35	312.70	27.12	-39.3	-41.2	19.2	0.00e+00	0	43	0	0	50	4395
2026-01-09 10:57:45.49	312.94	26.97	-39.4	-41.3	19.1	0.00e+00	0	44	0	0	50	4455
2026-01-09 10:57:46.36	313.12	26.86	-39.3	-41.1	19.3	0.00e+00	0	44	0	0	50	4366
2026-01-09 10:57:47.50	313.35	26.72	-39.3	-41.2	19.3	0.00e+00	0	43	0	0	50	4392
2026-01-09 10:57:48.36	313.53	26.61	-39.2	-41.1	19.3	0.00e+00	0	43	0	0	50	4356
2026-01-09 10:57:49.51	313.76	26.46	-39.1	-40.9	19.5	0.00e+00	0	43	0	0	50	4288
2026-01-09 10:57:50.37	313.93	26.35	-39.0	-40.9	19.5	0.00e+00	0	44	0	0	50	4263
2026-01-09 10:57:51.52	314.15	26.21	-39.1	-41.0	19.5	0.00e+00	0	44	0	0	50	4297
2026-01-09 10:57:52.38	314.32	26.10	-39.1	-41.0	19.4	0.00e+00	0	44	0	0	50	4295
2026-01-09 10:57:53.52	314.54	25.95	-39.1	-40.9	19.5	0.00e+00	0	44	0	0	50	4275
2026-01-09 10:57:54.38	314.71	25.84	-39.1	-40.9	19.5	0.00e+00	0	43	0	0	50	4263
2026-01-09 10:57:55.53	314.93	25.70	-39.1	-40.9	19.6	0.00e+00	0	44	0	0	50	4259
2026-01-09 10:57:56.39	315.09	25.59	-39.0	-40.8	19.6	0.00e+00	0	43	0	0	50	4213
2026-01-09 10:57:57.53	315.31	25.45	-39.1	-40.9	19.5	0.00e+00	0	44	0	0	50	4265
2026-01-09 10:57:58.40	315.47	25.34	-39.1	-40.8	19.6	0.00e+00	0	44	0	0	50	4228
2026-01-09 10:57:59.54	315.68	25.20	-39.0	-40.8	19.6	0.00e+00	0	43	0	0	50	4203
2026-01-09 10:58:00.40	315.84	25.09	-39.1	-40.9	19.5	0.00e+00	0	44	0	0	50	4263
2026-01-09 10:58:01.55	316.05	24.95	-39.1	-40.9	19.5	0.00e+00	0	44	0	0	50	4252
2026-01-09 10:58:02.41	316.20	24.84	-39.0	-40.8	19.6	0.00e+00	0	44	0	0	50	4225
2026-01-09 10:58:03.55	316.41	24.70	-39.1	-40.8	19.5	0.00e+00	0	44	0	0	50	4228
2026-01-09 10:58:04.41	316.56	24.60	-39.0	-40.8	19.5	0.00e+00	0	43	0	0	50	4226
2026-01-09 10:58:05.56	316.77	24.45	-39.1	-40.9	19.4	0.00e+00	0	44	0	0	50	4285
2026-01-09 10:58:06.42	316.92	24.35	-39.1	-40.9	19.4	0.00e+00	0	44	0	0	50	4268
2026-01-09 10:58:07.56	317.12	24.21	-39.1	-41.0	19.4	0.00e+00	0	43	0	0	50	4298
2026-01-09 10:58:08.42	317.27	24.11	-39.2	-41.0	19.3	0.00e+00	0	44	0	0	50	4337
2026-01-09 10:58:09.57	317.46	23.97	-39.2	-41.0	19.4	0.00e+00	0	43	0	0	50	4319
2026-01-09 10:58:10.43	317.61	23.86	-39.1	-40.9	19.5	0.00e+00	0	44	0	0	50	4256
2026-01-09 10:58:11.57	317.80	23.72	-39.1	-40.9	19.4	0.00e+00	0	43	0	0	50	4286
2026-01-09 10:58:12.44	317.95	23.62	-39.1	-40.9	19.5	0.00e+00	0	43	0	0	50	4255
2026-01-09 10:58:13.58	318.14	23.48	-39.2	-41.0	19.4	0.00e+00	0	44	0	0	50	4301
2026-01-09 10:58:14.44	318.28	23.38	-39.3	-41.1	19.3	0.00e+00	0	43	0	0	50	4373
2026-01-09 10:58:15.59	318.47	23.24	-39.4	-41.2	19.2	0.00e+00	0	43	0	0	50	4396
2026-01-09 10:58:16.66	318.64	23.11	-39.5	-41.3	19.1	0.00e+00	0	43	0	0	50	4452
2026-01-09 10:58:17.52	318.78	23.01	-39.5	-41.3	19.1	0.00e+00	0	44	0	0	50	4466
2026-01-09 10:58:18.67	318.97	22.87	-39.6	-41.5	19.0	0.00e+00	0	43	0	0	50	4547
2026-01-09 10:58:19.52	319.10	22.77	-39.6	-41.5	19.0	0.00e+00	0	43	0	0	50	4546
2026-01-09 10:58:20.67	319.28	22.64	-39.7	-41.5	18.8	0.00e+00	0	44	0	0	50	4587
2026-01-09 10:58:21.53	319.42	22.54	-39.7	-41.6	18.8	0.00e+00	0	44	0	0	50	4626
2026-01-09 10:58:22.68	319.60	22.40	-39.8	-41.7	18.7	0.00e+00	0	43	0	0	50	4702
2026-01-09 10:58:23.54	319.73	22.30	-39.8	-41.7	18.4	0.00e+00	0	43	0	0	50	4698
2026-01-09 10:58:24.69	319.91	22.17	-39.8	-41.8	18.7	0.00e+00	0	44	0	0	50	4709
2026-01-09 10:58:25.55	320.04	22.07	-39.8	-41.7	18.7	0.00e+00	0	43	0	0	50	4699
2026-01-09 10:58:26.69	320.21	21.93	-39.9	-41.9	18.6	0.00e+00	0	44	0	0	50	4762
2026-01-09 10:58:27.57	320.34	21.83	-39.9	-41.8	18.6	0.00e+00	0	44	0	0	50	4759
2026-01-09 10:58:28.71	320.51	21.70	-39.8	-41.8	18.6	0.00e+00	0	43	0	0	50	4753
2026-01-09 10:58:29.57	320.64	21.60	-39.7	-41.6	18.8	0.00e+00	0	43	0	0	50	4644
2026-01-09 10:58:30.72	320.81	21.47	-39.7	-41.6	18.8	0.00e+00	0	44	0	0	50	4649
2026-01-09 10:58:31.58	320.94	21.37	-39.7	-41.7	18.7	0.00e+00	0	43	0	0	50	4685
2026-01-09 10:58:32.72	321.10	21.24	-39.7	-41.7	18.7	0.00e+00	0	43	0	0	50	4677
2026-01-09 10:58:33.58	321.22	21.14	-39.8	-41.7	18.7	0.00e+00	0	44	0	0	50	4693
2026-01-09 10:58:34.73	321.39	21.01	-39.8	-41.8	18.7	0.00e+00	0	44	0	0	50	4714
2026-01-09 10:58:35.59	321.51	20.92	-39.7	-41.6	18.8	0.00e+00	0	43	0	0	50	4633
2026-01-09 10:58:36.75	321.67	20.79	-39.7	-41.6	18.9	0.00e+00	0	44	0	0	50	4602
2026-01-09 10:58:37.61	321.79	20.69	-39.6	-41.5	18.9	0.00e+00	0	44	0	0	50	4548
2026-01-09 10:58:38.75	321.95	20.56	-39.6	-41.4	19.0	0.00e+00	0	43	0	0	50	4526
2026-01-09 10:58:39.61	322.07	20.47	-39.5	-41.3	19.1	0.00e+00	0	44	0	0	50	4462
2026-01-09 10:58:40.76	322.23	20.34	-39.4	-41.2	19.1	0.00e+00	0	44	0	0	50	4417
2026-01-09 10:58:41.70	322.36	20.23	-39.4	-41.2	19.1	0.00e+00	0	44	0	0	50	4434
2026-01-09 10:58:42.86	322.51	20.11	-39.4	-41.2	19.1	0.00e+00	0	44	0	0	50	4410
2026-01-09 10:58:43.74	322.63	20.01	-39.5	-41.3	19.1	0.00e+00	0	44	0	0	50	4458
2026-01-09 10:58:45.05	322.80	19.86	-39.3	-41.1	19.2	0.00e+00	0	43	0	0	50	4380
2026-01-09 10:58:45.76	322.90	19.79	-39.3	-41.1	19.3	0.00e+00	0	44	0	0	50	4375
2026-01-09 10:58:47.06	323.07	19.65	-39.4	-41.2	19.2	0.00e+00	0	44	0	0	50	4401
2026-01-09 10:58:47.77	323.16	19.57	-39.4	-41.2	19.2	0.00e+00	0	43	0	0	50	4422
2026-01-09 10:58:49.06	323.33	19.43	-39.3	-41.2	19.2	0.00e+00	0	43	0	0	50	4395
2026-01-09 10:58:49.78	323.42	19.35	-39.4	-41.2	19.1	0.00e+00	0	43	0	0	50	4439
2026-01-09 10:58:51.07	323.58	19.21	-39.3	-41.1	19.2	0.00e+00	0	44	0	0	50	4390
2026-01-09 10:58:51.87	323.68	19.13	-39.4	-41.3	19.2	0.00e+00	0	43	0	0	50	4443
2026-01-09 10:58:53.02	323.83	19.00	-39.3	-41.2	19.2	0.00e+00	0	44	0	0	50	4432
2026-01-09 10:58:53.88	323.94	18.91	-39.4	-41.3	19.1	0.00e+00	0	43	0	0	50	4470
2026-01-09 10:58:55.02	324.08	18.79	-39.4	-41.3	19.1	0.00e+00	0	43	0	0	50	4477
2026-01-09 10:58:55.88	324.18	18.70	-39.5	-41.4	19.0	0.00e+00	0	44	0	0	50	4522
2026-01-09 10:58:57.03	324.32	18.58	-39.5	-41.4	19.0	0.00e+00	0	44	0	0	50	4522
2026-01-09 10:58:57.89	324.43	18.49	-39.5	-41.4	19.0	0.00e+00	0	43	0	0	50	4510
2026-01-09 10:58:59.04	324.57	18.36	-39.6	-41.5	18.9	0.00e+00	0	44	0	0	50	4567
2026-01-09 10:58:59.90	324.67	18.27	-39.6	-41.4	19.0	0.00e+00	0	43	0	0	50	4528
2026-01-09 10:59:01.05	324.81	18.15	-39.4	-41.3	19.1	0.00e+00	0	44	0	0	50	4449
2026-01-09 10:59:01.90	324.91	18.07	-39.5	-41.4	19.0	0.00e+00	0	44	0	0	50	4494
2026-01-09 10:59:03.05	325.04	17.95	-39.5	-41.4	19.0	0.00e+00	0	43	0	0	50	4502
2026-01-09 10:59:03.91	325.14	17.86	-39.6	-41.4	18.9	0.00e+00	0	43	0	0	50	4539
2026-01-09 10:59:05.06	325.28	17.74	-39.6	-41.4	19.0	0.00e+00	0	44	0	0	50	4511
2026-01-09 10:59:05.91	325.38	17.65	-39.6	-41.4	18.9	0.00e+00	0	43	0	0	50	4539
2026-01-09 10:59:07.06	325.51	17.53	-39.7	-41.6	18.8	0.00e+00	0	44	0	0	50	4602
2026-01-09 10:59:07.92	325.61	17.45	-39.7	-41.5	18.8	0.00e+00	0	43	0	0	50	4595
2026-01-09 10:59:09.07	325.74	17.33	-39.6	-41.5	18.8	0.00e+00	0	44	0	0	50	4575
2026-01-09 10:59:10.31	325.87	17.20	-39.7	-41.6	18.8	0.00e+00	0	43	0	0	50	4622
2026-01-09 10:59:11.34	325.99	17.10	-39.7	-41.6	18.7	0.00e+00	0	44	0	0	50	4650
2026-01-09 10:59:12.34	326.10	17.00	-39.6	-41.6	18.7	0.00e+00	0	44	0	0	50	4646
2026-01-09 10:59:13.34	326.21	16.90	-39.7	-41.7	18.7	0.00e+00	0	44	0	0	50	4675
2026-01-09 10:59:14.35	326.32	16.80	-39.7	-41.8	18.6	0.00e+00	0	44	0	0	50	4713
2026-01-09 10:59:15.35	326.43	16.70	-39.7	-41.8	18.5	0.00e+00	0	44	0	0	50	4742
2026-01-09 10:59:16.36	326.54	16.60	-39.6	-41.7	18.6	0.00e+00	0	43	0	0	50	4701
2026-01-09 10:59:17.36	326.65	16.50	-39.7	-41.8	18.5	0.00e+00	0	44	0	0	50	4714
2026-01-09 10:59:18.36	326.75	16.40	-39.8	-41.9	18.4	0.00e+00	0	44	0	0	50	4783
2026-01-09 10:59:19.36	326.86	16.30	-39.7	-41.9	18.4	0.00e+00	0	44	0	0	50	4767
2026-01-09 10:59:20.37	326.96	16.20	-39.9	-42.0	18.3	0.00e+00	0	44	0	0	50	4831
2026-01-09 10:59:21.37	327.07	16.10	-39.9	-42.0	18.3	0.00e+00	0	44	0	0	50	4835
2026-01-09 10:59:22.37	327.17	16.00	-39.9	-42.0	18.3	0.00e+00	0	44	0	0	50	4848
2026-01-09 10:59:23.38	327.28	15.91	-40.0	-42.1	18.2	0.00e+00	0	43	0	0	50	4901
2026-01-09 10:59:24.47	327.39	15.80	-40.2	-42.2	18.1	0.00e+00	0	44	0	0	50	4955
2026-01-09 10:59:25.37	327.48	15.71	-40.2	-42.2	18.1	0.00e+00	0	43	0	0	50	4943
2026-01-09 10:59:26.40	327.58	15.61	-40.2	-42.2	18.2	0.00e+00	0	44	0	0	51	4672
2026-01-09 10:59:27.40	327.68	15.52	-40.3	-42.3	18.0	0.00e+00	0	44	0	0	51	4748
2026-01-09 10:59:28.40	327.78	15.42	-40.2	-42.2	18.1	0.00e+00	0	43	0	0	51	4674
2026-01-09 10:59:29.41	327.88	15.33	-40.1	-42.2	18.2	0.00e+00	0	44	0	0	51	4670
2026-01-09 10:59:30.40	327.98	15.23	-40.2	-42.2	18.1	0.00e+00	0	44	0	0	51	4693
2026-01-09 10:59:31.41	328.08	15.14	-40.2	-42.3	18.1	0.00e+00	0	44	0	0	51	4709
2026-01-09 10:59:32.41	328.18	15.04	-40.2	-42.2	18.1	0.00e+00	0	44	0	0	51	4705
2026-01-09 10:59:33.41	328.28	14.95	-40.2	-42.2	18.1	0.00e+00	0	44	0	0	51	4693
2026-01-09 10:59:34.42	328.37	14.85	-40.2	-42.3	18.1	0.00e+00	0	43	0	0	51	4722
2026-01-09 10:59:35.42	328.47	14.76	-40.1	-42.2	18.2	0.00e+00	0	44	0	0	51	4654
2026-01-09 10:59:36.42	328.57	14.67	-40.2	-42.2	18.1	0.00e+00	0	44	0	0	51	4695
2026-01-09 10:59:37.43	328.66	14.57	-40.2	-42.2	18.1	0.00e+00	0	44	0	0	51	4687
2026-01-09 10:59:38.43	328.75	14.48	-40.2	-42.2	18.2	0.00e+00	0	44	0	0	51	4662
2026-01-09 10:59:39.50	328.86	14.38	-40.2	-42.2	18.1	0.00e+00	0	44	0	0	51	4673
2026-01-09 10:59:40.36	328.94	14.30	-40.2	-42.2	18.2	0.00e+00	0	44	0	0	51	4684
2026-01-09 10:59:41.50	329.04	14.20	-40.3	-42.3	18.1	0.00e+00	0	43	0	0	51	4718
2026-01-09 10:59:42.36	329.12	14.12	-40.4	-42.4	18.0	0.00e+00	0	43	0	0	51	4784
2026-01-09 10:59:43.51	329.22	14.01	-40.3	-42.4	18.0	0.00e+00	0	44	0	0	51	4767
2026-01-09 10:59:44.37	329.30	13.93	-40.3	-42.4	18.0	0.00e+00	0	44	0	0	51	4763
2026-01-09 10:59:45.52	329.41	13.83	-40.3	-42.4	18.0	0.00e+00	0	44	0	0	51	4768
2026-01-09 10:59:46.38	329.48	13.75	-40.4	-42.5	17.8	0.00e+00	0	44	0	0	51	4866
2026-01-09 10:59:47.53	329.59	13.65	-40.4	-42.5	17.9	0.00e+00	0	44	0	0	51	4830
2026-01-09 10:59:48.38	329.66	13.57	-40.4	-42.5	17.8	0.00e+00	0	44	0	0	51	4834
2026-01-09 10:59:49.53	329.76	13.47	-40.5	-42.6	17.8	0.00e+00	0	44	0	0	51	4878
2026-01-09 10:59:50.39	329.84	13.39	-40.5	-42.5	17.8	0.00e+00	0	44	0	0	51	4858
2026-01-09 10:59:51.65	329.95	13.28	-40.6	-42.6	17.7	0.00e+00	0	44	0	0	51	4890
2026-01-09 10:59:52.37	330.01	13.21	-40.6	-42.6	17.7	0.00e+00	0	44	0	0	51	4896
2026-01-09 10:59:53.66	330.12	13.10	-40.5	-42.5	17.7	0.00e+00	0	44	0	0	51	4847
2026-01-09 10:59:54.37	330.18	13.04	-40.6	-42.6	17.6	0.00e+00	0	44	0	0	51	4900
2026-01-09 10:59:55.66	330.29	12.92	-40.6	-42.7	17.5	0.00e+00	0	43	0	0	51	4952
2026-01-09 10:59:56.38	330.35	12.86	-40.5	-42.6	17.6	0.00e+00	0	44	0	0	51	4909
2026-01-09 10:59:57.67	330.46	12.75	-40.6	-42.8	17.4	0.00e+00	0	44	0	0	51	4984
2026-01-09 10:59:58.38	330.52	12.68	-40.5	-42.6	17.6	0.00e+00	0	43	0	0	51	4925
2026-01-09 10:59:59.67	330.63	12.57	-40.4	-42.6	17.6	0.00e+00	0	44	0	0	51	4909
2026-01-09 11:00:00.39	330.69	12.51	-40.5	-42.7	17.5	0.00e+00	0	44	0	0	51	4948
2026-01-09 11:00:01.69	330.80	12.40	-40.5	-42.7	17.5	0.00e+00	0	44	0	0	51	4939
2026-01-09 11:00:02.65	330.88	12.31	-40.5	-42.7	17.5	0.00e+00	0	44	0	0	51	4952
2026-01-09 11:00:03.99	330.99	12.20	-40.5	-42.6	17.6	0.00e+00	0	44	0	0	51	4909
2026-01-09 11:00:04.70	331.04	12.14	-40.5	-42.7	17.6	0.00e+00	0	44	0	0	51	4930
2026-01-09 11:00:05.99	331.15	12.03	-40.5	-42.6	17.6	0.00e+00	0	44	0	0	51	4903
2026-01-09 11:00:06.70	331.20	11.97	-40.5	-42.6	17.6	0.00e+00	0	43	0	0	51	4924
2026-01-09 11:00:08.00	331.31	11.86	-40.6	-42.7	17.6	0.00e+00	0	43	0	0	51	4940
2026-01-09 11:00:08.71	331.36	11.80	-40.6	-42.6	17.6	0.00e+00	0	44	0	0	51	4915
2026-01-09 11:00:10.00	331.46	11.69	-40.6	-42.7	17.6	0.00e+00	0	43	0	0	51	4931
2026-01-09 11:00:10.72	331.52	11.63	-40.6	-42.6	17.6	0.00e+00	0	43	0	0	51	4916
2026-01-09 11:00:12.05	331.62	11.52	-40.6	-42.7	17.5	0.00e+00	0	43	0	0	52	4685
2026-01-09 11:00:12.77	331.68	11.46	-40.6	-42.7	17.5	0.00e+00	0	44	0	0	52	4659
2026-01-09 11:00:14.14	331.79	11.34	-40.5	-42.6	17.5	0.00e+00	0	43	0	0	52	4646
2026-01-09 11:00:14.86	331.84	11.28	-40.4	-42.5	17.6	0.00e+00	0	43	0	0	52	4589
2026-01-09 11:00:16.15	331.94	11.18	-40.5	-42.6	17.6	0.00e+00	0	44	0	0	52	4608
2026-01-09 11:00:16.86	331.99	11.12	-40.5	-42.6	17.5	0.00e+00	0	44	0	0	52	4639
2026-01-09 11:00:18.28	332.10	11.00	-40.5	-42.6	17.5	0.00e+00	0	43	0	0	52	4636
2026-01-09 11:00:19.00	332.15	10.94	-40.5	-42.6	17.5	0.00e+00	0	43	0	0	52	4640
2026-01-09 11:00:20.29	332.25	10.83	-40.7	-42.9	17.3	0.00e+00	0	43	0	0	52	4760
2026-01-09 11:00:21.00	332.30	10.78	-40.6	-42.8	17.4	0.00e+00	0	44	0	0	52	4715
2026-01-09 11:00:22.30	332.40	10.67	-40.6	-42.9	17.3	0.00e+00	0	44	0	0	52	4763
2026-01-09 11:00:23.01	332.45	10.61	-40.7	-42.9	17.3	0.00e+00	0	44	0	0	52	4786
2026-01-09 11:00:24.30	332.55	10.51	-40.8	-43.1	17.1	0.00e+00	0	43	0	0	52	4874
2026-01-09 11:00:25.02	332.60	10.45	-40.8	-43.0	17.1	0.00e+00	0	44	0	0	52	4854
2026-01-09 11:00:26.31	332.69	10.35	-41.0	-43.2	16.9	0.00e+00	0	43	0	0	52	4949
2026-01-09 11:00:27.02	332.74	10.29	-41.0	-43.2	16.9	0.00e+00	0	44	0	0	52	4977
2026-01-09 11:00:28.31	332.83	10.19	-41.1	-43.4	16.8	0.00e+00	0	43	0	0	52	5059
2026-01-09 11:00:29.03	332.89	10.13	-41.2	-43.5	16.7	0.00e+00	0	44	0	0	53	4832
2026-01-09 11:00:30.32	332.98	10.03	-41.2	-43.5	16.7	0.00e+00	0	44	0	0	53	4840
2026-01-09 11:00:31.04	333.03	9.97	-41.2	-43.5	16.7	0.00e+00	0	44	0	0	53	4839
2026-01-09 11:00:32.33	333.12	9.87	-41.3	-43.6	16.5	0.00e+00	0	44	0	0	53	4923
2026-01-09 11:00:33.28	333.18	9.79	-41.2	-43.6	16.5	0.00e+00	0	44	0	0	53	4908
2026-01-09 11:00:34.28	333.25	9.71	-41.3	-43.7	16.5	0.00e+00	0	43	0	0	53	4944
2026-01-09 11:00:35.29	333.32	9.63	-41.2	-43.6	16.5	0.00e+00	0	43	0	0	53	4896
2026-01-09 11:00:36.29	333.39	9.55	-41.3	-43.8	16.3	0.00e+00	0	44	0	0	53	5020
2026-01-09 11:00:37.30	333.46	9.48	-41.2	-43.6	16.5	0.00e+00	0	44	0	0	53	4909
2026-01-09 11:00:38.30	333.53	9.40	-41.1	-43.5	16.6	0.00e+00	0	44	0	0	53	4858
2026-01-09 11:00:39.30	333.60	9.32	-41.2	-43.6	16.5	0.00e+00	0	43	0	0	53	4878
2026-01-09 11:00:40.31	333.66	9.24	-41.3	-43.7	16.4	0.00e+00	0	43	0	0	53	4948
2026-01-09 11:00:41.34	333.73	9.16	-41.3	-43.7	16.4	0.00e+00	0	44	0	0	53	4940
2026-01-09 11:00:42.39	333.80	9.08	-41.4	-43.7	16.4	0.00e+00	0	44	0	0	53	4946
2026-01-09 11:00:43.28	333.86	9.01	-41.4	-43.7	16.3	0.00e+00	0	44	0	0	53	4970
2026-01-09 11:00:44.59	333.95	8.91	-47.9	-61.3	3.8	1.49e+00	0	44	104	0	66	17882
2026-01-09 11:00:45.31	334.00	8.86	-47.9	-61.7	3.8	1.49e+00	0	43	104	0	66	18533
2026-01-09 11:00:46.81	334.09	8.74	-47.4	-61.8	3.8	1.49e+00	0	44	104	0	66	18869
2026-01-09 11:00:47.53	334.14	8.69	-48.6	-61.9	3.8	1.49e+00	0	44	104	0	67	17957
2026-01-09 11:00:48.88	334.23	8.59	-48.9	-62.1	3.8	1.49e+00	0	44	104	0	68	17479
2026-01-09 11:00:49.60	334.27	8.53	-48.1	-62.2	3.8	1.49e+00	0	44	104	0	68	17508
2026-01-09 11:00:50.89	334.36	8.44	-48.1	-62.2	3.8	1.49e+00	0	44	104	0	68	17550
2026-01-09 11:00:51.60	334.40	8.38	-48.9	-62.2	3.8	1.49e+00	0	44	104	0	68	17588
2026-01-09 11:00:52.90	334.48	8.28	-49.0	-62.2	3.8	1.49e+00	0	44	104	0	68	17612
2026-01-09 11:00:53.61	334.53	8.23	-49.1	-62.2	3.8	1.49e+00	0	44	104	0	68	17598
2026-01-09 11:00:54.90	334.61	8.14	-48.9	-62.2	3.8	1.49e+00	0	44	104	0	68	17664
2026-01-09 11:00:55.62	334.65	8.08	-49.2	-62.3	3.8	1.49e+00	0	43	104	0	68	17697
2026-01-09 11:00:56.91	334.73	7.99	-49.0	-62.2	3.8	1.49e+00	0	44	104	0	68	17654
2026-01-09 11:00:57.63	334.78	7.93	-49.1	-62.3	3.8	1.49e+00	0	44	104	0	68	17711
2026-01-09 11:00:58.92	334.86	7.84	-49.1	-62.2	3.8	1.49e+00	0	44	104	0	69	16668
2026-01-09 11:00:59.64	334.90	7.78	-49.3	-62.3	3.8	1.49e+00	0	44	104	0	69	16721
2026-01-09 11:01:00.93	334.98	7.69	-49.2	-62.2	3.8	1.49e+00	0	44	104	0	69	16650
2026-01-09 11:01:01.65	335.02	7.64	-49.2	-62.2	3.8	1.49e+00	0	44	104	0	69	16636
2026-01-09 11:01:02.94	335.10	7.54	-49.1	-62.2	3.8	1.49e+00	0	44	104	0	69	16674
2026-01-09 11:01:03.66	335.15	7.49	-49.2	-62.2	3.8	1.49e+00	0	44	104	0	69	16544
2026-01-09 11:01:04.95	335.22	7.40	-49.0	-62.2	3.8	1.49e+00	0	44	104	0	69	16538
2026-01-09 11:01:05.67	335.27	7.34	-49.0	-62.2	3.8	1.49e+00	0	44	104	0	69	16529
2026-01-09 11:01:06.96	335.34	7.25	-48.9	-62.2	3.8	1.49e+00	0	44	104	0	69	16560
2026-01-09 11:01:07.68	335.38	7.20	-48.8	-62.2	3.8	1.49e+00	0	44	104	0	69	16585
2026-01-09 11:01:08.97	335.46	7.11	-48.8	-62.2	3.8	1.49e+00	0	44	104	0	69	16579
2026-01-09 11:01:09.69	335.50	7.05	-48.7	-62.2	3.8	1.49e+00	0	44	104	0	69	16601
2026-01-09 11:01:10.98	335.58	6.96	-48.6	-62.2	3.8	1.49e+00	0	44	104	0	69	16554
2026-01-09 11:01:11.70	335.62	6.91	-48.6	-62.2	3.8	1.49e+00	0	44	104	0	69	16541
2026-01-09 11:01:12.99	335.69	6.82	-48.7	-62.2	3.8	1.49e+00	0	44	104	0	69	16570
2026-01-09 11:01:13.70	335.73	6.77	-48.6	-62.2	3.8	1.49e+00	0	44	104	0	69	16523
2026-01-09 11:01:15.00	335.81	6.68	-48.8	-62.2	3.8	1.49e+00	0	43	104	0	69	16525
2026-01-09 11:01:15.71	335.85	6.63	-48.7	-62.2	3.8	1.49e+00	0	44	104	0	69	16525
2026-01-09 11:01:17.01	335.92	6.53	-48.5	-62.2	3.8	1.49e+00	0	44	104	0	69	16560
2026-01-09 11:01:17.72	335.96	6.49	-48.6	-62.2	3.8	1.49e+00	0	44	104	0	69	16539
2026-01-09 11:01:19.01	336.04	6.39	-48.8	-62.2	3.8	1.49e+00	0	44	104	0	69	16518
2026-01-09 11:01:19.73	336.08	6.34	-48.7	-62.2	3.8	1.49e+00	0	44	104	0	69	16515
2026-01-09 11:01:21.02	336.15	6.25	-48.7	-62.2	3.8	1.49e+00	0	44	104	0	69	16517
2026-01-09 11:01:21.74	336.19	6.20	-48.7	-62.1	3.8	1.49e+00	0	44	104	0	69	16503
2026-01-09 11:01:23.03	336.26	6.11	-48.8	-62.2	3.8	1.49e+00	0	44	104	0	69	16559
2026-01-09 11:01:23.75	336.30	6.06	-48.7	-62.2	3.8	1.49e+00	0	44	104	0	69	16555
2026-01-09 11:01:25.04	336.37	5.98	-48.5	-62.2	3.8	1.49e+00	0	44	104	0	69	16563
2026-01-09 11:01:25.76	336.41	5.93	-48.5	-62.1	3.8	1.49e+00	0	44	104	0	68	17481
2026-01-09 11:01:27.05	336.48	5.84	-48.6	-62.2	3.8	1.49e+00	0	44	104	0	68	17546
2026-01-09 11:01:27.77	336.52	5.79	-48.7	-62.1	3.8	1.49e+00	0	44	104	0	68	17456
2026-01-09 11:01:29.06	336.59	5.70	-48.7	-62.2	3.8	1.49e+00	0	44	104	0	68	17501
2026-01-09 11:01:29.78	336.62	5.65	-48.7	-62.2	3.8	1.49e+00	0	44	104	0	68	17554
2026-01-09 11:01:31.07	336.69	5.56	-48.7	-62.2	3.8	1.49e+00	0	44	104	0	68	17507
2026-01-09 11:01:31.78	336.73	5.51	-48.7	-62.2	3.8	1.49e+00	0	44	104	0	68	17502
2026-01-09 11:01:33.08	336.80	5.43	-48.7	-62.2	3.8	1.49e+00	0	44	104	0	68	17492
2026-01-09 11:01:33.79	336.84	5.38	-48.8	-62.1	3.8	1.49e+00	0	44	104	0	68	17456
2026-01-09 11:01:35.08	336.90	5.29	-48.8	-62.2	3.8	1.49e+00	0	44	104	0	68	17539
2026-01-09 11:01:35.80	336.94	5.24	-48.9	-62.2	3.8	1.49e+00	0	44	104	0	68	17508
2026-01-09 11:01:37.09	337.01	5.15	-48.9	-62.2	3.8	1.49e+00	0	44	104	0	68	17572
2026-01-09 11:01:37.81	337.05	5.11	-48.8	-62.2	3.8	1.49e+00	0	44	104	0	68	17504
2026-01-09 11:01:39.10	337.11	5.02	-48.5	-62.2	3.8	1.49e+00	0	44	104	0	68	17546
2026-01-09 11:01:39.82	337.15	4.97	-48.9	-62.1	3.8	1.49e+00	0	44	104	0	68	17468

#Closed at: 2026-01-09 11:01:41
#Recorded file [0 MB]: D:/Data/31040_260109_134913.dat