passes_logs/2026/01/09/T1/T1__20260109_074042_KHAYYAM_rec.log

#Pass ID: 20260109_074042_KHAYYAM
#Satellite: KHAYYAM
#Configuration: KHAYYAM_480M
#almurnet v.1.7.20251203
#Start time: 2026-01-09 07:40:42

#Version: 2.0.20230620
#Station: T1
#Location: 37.570604 lon 55.790049 lat
#TLE: 1 53370U 22096A   26008.52524046  .00006305  00000+0  25727-3 0  9990
#TLE: 2 53370  97.3558 275.6513 0001251  94.0078 266.1303 15.24769206190253

#Time	Az	El	Level	Level2	SNR	BER	BlckErr	Temp	State	Recorded	gain1	gain2
2026-01-09 07:40:42.25	156.80	4.88	-50.9	-55.6	3.5	0.00e+00	0	46	0	0	72	26094
2026-01-09 07:40:43.26	156.78	4.96	-50.8	-55.6	3.7	0.00e+00	0	46	104	0	72	26009
2026-01-09 07:40:44.26	156.77	5.05	-50.9	-55.5	3.7	0.00e+00	0	46	104	0	72	25881
2026-01-09 07:40:45.26	156.75	5.13	-50.9	-55.6	3.7	0.00e+00	0	46	104	0	72	26030
2026-01-09 07:40:46.27	156.74	5.21	-50.9	-55.5	3.7	0.00e+00	0	46	104	0	72	25756
2026-01-09 07:40:47.27	156.72	5.29	-50.9	-55.5	3.7	0.00e+00	0	46	104	0	72	25921
2026-01-09 07:40:48.28	156.70	5.38	-50.9	-55.5	3.7	0.00e+00	0	47	104	0	72	25955
2026-01-09 07:40:49.28	156.69	5.46	-50.9	-55.5	3.7	0.00e+00	0	47	104	0	72	25943
2026-01-09 07:40:50.29	156.67	5.54	-50.9	-55.5	3.7	0.00e+00	0	47	104	0	72	25853
2026-01-09 07:40:51.29	156.65	5.63	-50.9	-55.5	3.7	0.00e+00	0	47	104	0	72	25856
2026-01-09 07:40:52.30	156.63	5.71	-50.9	-55.5	3.7	0.00e+00	0	47	104	0	72	25854
2026-01-09 07:40:53.30	156.62	5.80	-50.9	-55.5	3.7	0.00e+00	0	47	104	0	72	25896
2026-01-09 07:40:54.30	156.60	5.88	-50.9	-55.5	3.7	0.00e+00	0	47	104	0	72	25774
2026-01-09 07:40:55.31	156.58	5.97	-50.9	-55.5	3.7	0.00e+00	0	47	104	0	72	25748
2026-01-09 07:40:56.31	156.56	6.06	-50.9	-55.5	3.7	0.00e+00	0	47	104	0	72	25837
2026-01-09 07:40:57.32	156.54	6.14	-50.8	-55.5	3.7	0.00e+00	0	47	104	0	72	25797
2026-01-09 07:40:58.32	156.53	6.23	-50.9	-55.5	3.7	0.00e+00	0	47	104	0	72	25762
2026-01-09 07:40:59.32	156.51	6.32	-50.8	-55.5	3.7	0.00e+00	0	47	104	0	72	25807
2026-01-09 07:41:00.33	156.49	6.40	-50.8	-55.5	3.7	0.00e+00	0	47	104	0	72	25813
2026-01-09 07:41:01.33	156.47	6.49	-50.9	-55.5	3.7	0.00e+00	0	48	104	0	72	25815
2026-01-09 07:41:02.33	156.45	6.58	-50.9	-55.5	3.7	0.00e+00	0	48	104	0	72	25808
2026-01-09 07:41:03.33	156.43	6.67	-50.9	-55.5	3.7	0.00e+00	0	48	104	0	72	25832
2026-01-09 07:41:04.34	156.41	6.76	-50.9	-55.5	3.7	0.00e+00	0	48	104	0	72	25843
2026-01-09 07:41:05.34	156.39	6.85	-50.8	-55.5	3.7	0.00e+00	0	48	104	0	72	25784
2026-01-09 07:41:06.35	156.38	6.94	-50.8	-55.5	3.7	0.00e+00	0	48	104	0	72	25818
2026-01-09 07:41:07.35	156.36	7.03	-50.8	-55.5	3.7	0.00e+00	0	48	104	0	72	25716
2026-01-09 07:41:08.36	156.34	7.12	-50.8	-55.5	3.7	0.00e+00	0	48	104	0	72	25773
2026-01-09 07:41:09.36	156.32	7.21	-50.9	-55.5	3.7	0.00e+00	0	48	104	0	72	25816
2026-01-09 07:41:10.36	156.30	7.30	-50.9	-55.5	3.7	0.00e+00	0	48	104	0	72	25776
2026-01-09 07:41:11.37	156.27	7.40	-50.9	-55.5	3.7	0.00e+00	0	48	104	0	72	25815
2026-01-09 07:41:12.37	156.25	7.49	-50.9	-55.5	3.7	0.00e+00	0	48	104	0	72	25828
2026-01-09 07:41:13.38	156.23	7.58	-50.9	-55.5	3.7	0.00e+00	0	48	104	0	72	25738
2026-01-09 07:41:14.38	156.21	7.68	-50.9	-55.5	3.7	0.00e+00	0	48	104	0	72	25745
2026-01-09 07:41:15.39	156.19	7.77	-50.9	-55.5	3.7	0.00e+00	0	49	104	0	72	25849
2026-01-09 07:41:16.39	156.17	7.87	-50.9	-55.5	3.6	0.00e+00	0	48	104	0	72	25835
2026-01-09 07:41:17.39	156.15	7.96	-50.9	-55.5	3.7	0.00e+00	0	48	104	0	72	25877
2026-01-09 07:41:18.40	156.13	8.06	-50.9	-55.5	3.7	0.00e+00	0	49	104	0	72	25770
2026-01-09 07:41:19.40	156.10	8.15	-50.9	-55.5	3.7	0.00e+00	0	49	104	0	72	25824
2026-01-09 07:41:20.41	156.08	8.25	-50.9	-55.5	3.7	0.00e+00	0	49	104	0	72	25842
2026-01-09 07:41:21.41	156.06	8.35	-50.9	-55.5	3.7	0.00e+00	0	49	104	0	72	25879
2026-01-09 07:41:22.41	156.04	8.44	-50.9	-55.5	3.7	0.00e+00	0	49	104	0	72	25879
2026-01-09 07:41:23.42	156.01	8.54	-50.9	-55.5	3.7	0.00e+00	0	49	104	0	72	25816
2026-01-09 07:41:24.42	155.99	8.64	-50.9	-55.5	3.7	0.00e+00	0	49	104	0	72	25857
2026-01-09 07:41:25.43	155.97	8.74	-50.9	-55.5	3.7	0.00e+00	0	49	104	0	72	25761
2026-01-09 07:41:26.43	155.94	8.84	-50.9	-55.5	3.7	0.00e+00	0	49	104	0	72	25807
2026-01-09 07:41:27.43	155.92	8.94	-50.9	-55.5	3.7	0.00e+00	0	49	104	0	72	25891
2026-01-09 07:41:28.44	155.90	9.04	-50.9	-55.5	3.7	0.00e+00	0	49	104	0	72	25833
2026-01-09 07:41:29.44	155.87	9.14	-50.8	-55.4	3.7	0.00e+00	0	49	104	0	72	25622
2026-01-09 07:41:30.45	155.85	9.25	-51.1	-55.7	3.7	0.00e+00	0	49	104	0	72	26418
2026-01-09 07:41:31.45	155.82	9.35	-50.9	-55.6	3.7	0.00e+00	0	49	104	0	72	25982
2026-01-09 07:41:32.45	155.80	9.45	-51.0	-55.5	3.7	0.00e+00	0	49	104	0	72	25696
2026-01-09 07:41:33.46	155.77	9.56	-50.9	-55.4	3.7	0.00e+00	0	49	104	0	72	25518
2026-01-09 07:41:34.46	155.75	9.66	-50.9	-55.6	3.7	0.00e+00	0	49	104	0	72	26001
2026-01-09 07:41:35.46	155.72	9.76	-51.0	-55.5	3.7	0.00e+00	0	50	104	0	73	24454
2026-01-09 07:41:36.47	155.70	9.87	-50.2	-54.7	3.7	0.00e+00	0	49	104	0	72	23563
2026-01-09 07:41:37.47	155.67	9.98	-50.2	-54.7	3.7	0.00e+00	0	50	104	0	71	24885
2026-01-09 07:41:38.47	155.64	10.08	-50.7	-55.1	3.7	0.00e+00	0	50	104	0	72	24611
2026-01-09 07:41:39.48	155.62	10.19	-50.0	-54.6	3.7	0.00e+00	0	50	104	0	71	24640
2026-01-09 07:41:40.48	155.59	10.30	-50.1	-54.8	3.7	0.00e+00	0	49	104	0	71	25103
2026-01-09 07:41:41.48	155.56	10.41	-50.2	-54.9	3.7	0.00e+00	0	49	104	0	71	25542
2026-01-09 07:41:42.49	155.54	10.51	-50.4	-55.1	3.7	0.00e+00	0	50	104	0	71	26006
2026-01-09 07:41:43.49	155.51	10.62	-50.6	-55.2	3.7	0.00e+00	0	50	104	0	71	26519
2026-01-09 07:41:44.49	155.48	10.73	-50.6	-55.3	3.7	0.00e+00	0	50	104	0	71	26847
2026-01-09 07:41:45.50	155.45	10.85	-51.0	-55.7	3.7	0.00e+00	0	50	104	0	72	26301
2026-01-09 07:41:46.50	155.42	10.96	-50.8	-55.5	3.7	0.00e+00	0	50	104	0	73	24286
2026-01-09 07:41:47.50	155.39	11.07	-50.3	-54.9	3.7	0.00e+00	0	50	104	0	72	24100
2026-01-09 07:41:48.51	155.36	11.18	-50.4	-55.0	3.7	0.00e+00	0	50	104	0	72	24466
2026-01-09 07:41:49.51	155.34	11.30	-50.3	-55.0	3.7	0.00e+00	0	50	104	0	72	24249
2026-01-09 07:41:50.51	155.31	11.41	-50.4	-55.1	3.7	0.00e+00	0	50	104	0	72	24574
2026-01-09 07:41:51.52	155.28	11.53	-50.5	-55.2	3.7	0.00e+00	0	50	104	0	72	24822
2026-01-09 07:41:52.52	155.24	11.64	-50.7	-55.4	3.7	0.00e+00	0	50	104	0	72	25590
2026-01-09 07:41:53.52	155.21	11.76	-51.6	-56.2	3.7	0.00e+00	0	50	104	0	73	26378
2026-01-09 07:41:54.52	155.18	11.88	-51.6	-56.2	3.7	0.00e+00	0	50	104	0	74	24937
2026-01-09 07:41:55.52	155.15	11.99	-51.3	-56.0	3.7	0.00e+00	0	50	104	0	74	24287
2026-01-09 07:41:56.53	155.12	12.11	-51.3	-56.0	3.7	0.00e+00	0	50	104	0	74	24277
2026-01-09 07:41:57.53	155.09	12.23	-51.6	-56.2	3.7	0.00e+00	0	50	104	0	74	25005
2026-01-09 07:41:58.53	155.06	12.35	-51.7	-56.3	3.7	0.00e+00	0	50	104	0	74	25100
2026-01-09 07:41:59.54	155.02	12.48	-51.6	-56.2	3.7	0.00e+00	0	50	104	0	74	25015
2026-01-09 07:42:00.54	154.99	12.60	-51.6	-56.1	3.7	0.00e+00	0	50	104	0	74	24707
2026-01-09 07:42:01.54	154.96	12.72	-51.5	-56.1	3.7	0.00e+00	0	50	104	0	74	24634
2026-01-09 07:42:02.55	154.92	12.84	-51.5	-56.2	3.7	0.00e+00	0	50	104	0	74	24943
2026-01-09 07:42:03.55	154.89	12.97	-51.3	-56.0	3.7	0.00e+00	0	50	104	0	74	24259
2026-01-09 07:42:04.55	154.85	13.09	-51.2	-55.9	3.7	0.00e+00	0	50	104	0	74	24100
2026-01-09 07:42:05.56	154.82	13.22	-50.8	-55.6	3.7	0.00e+00	0	50	104	0	73	24780
2026-01-09 07:42:06.56	154.78	13.35	-51.0	-55.7	3.7	0.00e+00	0	50	104	0	73	25072
2026-01-09 07:42:07.56	154.75	13.47	-51.3	-55.9	3.6	0.00e+00	0	50	104	0	73	25633
2026-01-09 07:42:08.57	154.71	13.60	-50.8	-55.5	3.7	0.00e+00	0	50	104	0	73	24518
2026-01-09 07:42:09.57	154.67	13.73	-50.7	-55.6	3.7	0.00e+00	0	50	104	0	73	24540
2026-01-09 07:42:10.57	154.64	13.86	-50.7	-55.4	3.7	0.00e+00	0	50	104	0	73	24233
2026-01-09 07:42:11.57	154.60	14.00	-50.9	-55.6	3.7	0.00e+00	0	50	104	0	73	24758
2026-01-09 07:42:12.58	154.56	14.13	-50.7	-55.6	3.7	0.00e+00	0	50	104	0	73	24581
2026-01-09 07:42:13.58	154.52	14.26	-51.0	-55.7	3.7	0.00e+00	0	50	104	0	73	24996
2026-01-09 07:42:14.90	154.47	14.44	-50.7	-55.5	3.7	0.00e+00	0	50	104	0	73	24505
2026-01-09 07:42:15.67	154.44	14.54	-50.9	-55.7	3.7	0.00e+00	0	50	104	0	73	24947
2026-01-09 07:42:17.27	154.38	14.76	-50.9	-55.7	3.7	0.00e+00	0	51	104	0	73	24909
2026-01-09 07:42:17.85	154.35	14.84	-50.9	-55.7	3.7	0.00e+00	0	51	104	0	73	25073
2026-01-09 07:42:19.42	154.29	15.06	-51.1	-55.8	3.7	0.00e+00	0	51	104	0	73	25264
2026-01-09 07:42:20.00	154.27	15.14	-51.0	-55.9	3.7	0.00e+00	0	50	104	0	73	25516
2026-01-09 07:42:21.59	154.20	15.36	-50.6	-55.6	3.7	0.00e+00	0	50	104	0	73	24665
2026-01-09 07:42:22.16	154.17	15.44	-50.9	-55.8	3.7	0.00e+00	0	51	104	0	73	25304
2026-01-09 07:42:23.81	154.10	15.68	-50.7	-55.7	3.7	0.00e+00	0	50	104	0	73	24884
2026-01-09 07:42:24.39	154.08	15.76	-50.9	-55.8	3.7	0.00e+00	0	50	104	0	73	25224
2026-01-09 07:42:25.98	154.01	16.00	-51.3	-55.9	3.7	0.00e+00	0	51	104	0	73	25549
2026-01-09 07:42:26.55	153.98	16.08	-50.9	-55.8	3.7	0.00e+00	0	51	104	0	73	25131
2026-01-09 07:42:28.13	153.91	16.31	-51.2	-56.0	3.7	0.00e+00	0	51	104	0	73	25716
2026-01-09 07:42:29.06	153.87	16.45	-51.3	-55.9	3.7	0.00e+00	0	51	104	0	73	25652
2026-01-09 07:42:30.51	153.80	16.67	-51.5	-56.1	3.7	0.00e+00	0	51	104	0	73	26197
2026-01-09 07:42:31.22	153.77	16.78	-51.3	-56.0	3.7	0.00e+00	0	51	104	0	73	25734
2026-01-09 07:42:32.51	153.70	16.98	-51.4	-56.1	3.7	0.00e+00	0	51	104	0	73	25978
2026-01-09 07:42:33.23	153.67	17.09	-51.3	-55.9	3.7	0.00e+00	0	51	104	0	73	25635
2026-01-09 07:42:34.52	153.61	17.29	-51.3	-56.0	3.7	0.00e+00	0	51	104	0	73	25864
2026-01-09 07:42:35.24	153.57	17.40	-51.3	-56.0	3.7	0.00e+00	0	51	104	0	73	25918
2026-01-09 07:42:36.53	153.50	17.61	-51.3	-55.9	3.7	0.00e+00	0	51	104	0	73	25546
2026-01-09 07:42:37.24	153.47	17.72	-51.4	-56.2	3.7	0.00e+00	0	51	104	0	73	26415
2026-01-09 07:42:38.57	153.40	17.94	-51.2	-55.7	3.7	0.00e+00	0	51	104	0	73	24936
2026-01-09 07:42:39.28	153.36	18.05	-51.3	-55.8	3.7	0.00e+00	0	51	104	0	73	25141
2026-01-09 07:42:40.63	153.29	18.27	-51.4	-55.9	3.7	0.00e+00	0	51	104	0	73	25544
2026-01-09 07:42:41.35	153.25	18.39	-51.4	-55.9	3.7	0.00e+00	0	51	104	0	73	25667
2026-01-09 07:42:42.64	153.18	18.61	-51.5	-56.0	3.7	0.00e+00	0	51	104	0	73	25860
2026-01-09 07:42:43.36	153.14	18.73	-51.6	-56.1	3.7	0.00e+00	0	51	104	0	73	26142
2026-01-09 07:42:44.77	153.06	18.97	-52.1	-56.5	3.7	0.00e+00	0	51	104	0	74	25939
2026-01-09 07:42:45.49	153.02	19.09	-52.0	-56.5	3.7	0.00e+00	0	51	104	0	74	25935
2026-01-09 07:42:46.78	152.95	19.31	-51.9	-56.4	3.7	0.00e+00	0	51	104	0	74	25407
2026-01-09 07:42:47.50	152.90	19.44	-52.1	-56.6	3.7	0.00e+00	0	51	104	0	74	26173
2026-01-09 07:42:48.79	152.83	19.67	-52.1	-56.5	3.7	0.00e+00	0	51	104	0	75	24338
2026-01-09 07:42:49.50	152.78	19.79	-52.2	-56.7	3.7	0.00e+00	0	51	104	0	75	24863
2026-01-09 07:42:50.80	152.70	20.03	-52.1	-56.5	3.7	0.00e+00	0	51	104	0	75	24459
2026-01-09 07:42:51.51	152.66	20.15	-52.1	-56.6	3.7	0.00e+00	0	51	104	0	75	24705
2026-01-09 07:42:52.80	152.58	20.39	-51.8	-56.4	3.7	0.00e+00	0	51	104	0	75	23993
2026-01-09 07:42:53.52	152.53	20.52	-52.0	-56.5	3.7	0.00e+00	0	51	104	0	75	24297
2026-01-09 07:42:54.81	152.45	20.76	-52.0	-56.4	3.7	0.00e+00	0	51	104	0	75	24080
2026-01-09 07:42:55.62	152.39	20.91	-51.9	-56.4	3.7	0.00e+00	0	51	104	0	75	24055
2026-01-09 07:42:57.09	152.30	21.19	-51.6	-55.9	3.7	0.00e+00	0	51	104	0	75	22626
2026-01-09 07:42:57.81	152.25	21.33	-51.8	-56.4	3.7	0.00e+00	0	51	104	0	75	24053
2026-01-09 07:42:59.28	152.15	21.61	-51.9	-56.4	3.7	0.00e+00	0	51	104	0	75	24133
2026-01-09 07:43:00.00	152.09	21.75	-52.0	-56.5	3.7	0.00e+00	0	51	104	0	75	24341
2026-01-09 07:43:01.29	152.00	22.01	-52.0	-56.4	3.7	0.00e+00	0	51	104	0	75	24242
2026-01-09 07:43:02.01	151.95	22.15	-51.9	-56.4	3.7	0.00e+00	0	51	104	0	75	24184
2026-01-09 07:43:03.30	151.86	22.41	-51.9	-56.3	3.7	0.00e+00	0	51	104	0	75	23941
2026-01-09 07:43:04.01	151.80	22.56	-52.0	-56.4	3.7	0.00e+00	0	51	104	0	75	24059
2026-01-09 07:43:05.30	151.71	22.82	-51.7	-55.9	3.7	0.00e+00	0	51	104	0	75	22765
2026-01-09 07:43:06.03	151.65	22.97	-51.8	-55.9	3.7	0.00e+00	0	51	104	0	75	22828
2026-01-09 07:43:07.32	151.55	23.24	-51.7	-56.0	3.7	0.00e+00	0	51	104	0	75	23068
2026-01-09 07:43:08.04	151.49	23.39	-51.5	-55.8	3.7	0.00e+00	0	51	104	0	75	22444
2026-01-09 07:43:09.33	151.39	23.67	-51.8	-56.1	3.7	0.00e+00	0	51	104	0	75	23305
2026-01-09 07:43:10.05	151.33	23.83	-51.9	-56.2	3.7	0.00e+00	0	51	104	0	75	23504
2026-01-09 07:43:11.34	151.22	24.11	-51.7	-55.9	3.7	0.00e+00	0	51	104	0	75	22865
2026-01-09 07:43:12.06	151.16	24.26	-51.7	-55.8	3.7	0.00e+00	0	51	104	0	75	22440
2026-01-09 07:43:13.35	151.05	24.55	-52.0	-56.3	3.7	0.00e+00	0	51	104	0	75	23803
2026-01-09 07:43:14.06	150.99	24.71	-52.0	-56.6	3.7	0.00e+00	0	51	104	0	75	24605
2026-01-09 07:43:15.36	150.87	25.01	-51.6	-55.9	3.7	0.00e+00	0	51	104	0	75	22785
2026-01-09 07:43:16.07	150.81	25.17	-51.5	-55.9	3.7	0.00e+00	0	51	104	0	74	24038
2026-01-09 07:43:17.54	150.67	25.51	-51.3	-55.7	3.7	0.00e+00	0	51	104	0	74	23611
2026-01-09 07:43:18.25	150.60	25.68	-51.2	-55.6	3.7	0.00e+00	0	51	104	0	74	23274
2026-01-09 07:43:19.54	150.48	25.98	-50.6	-55.1	3.7	0.00e+00	0	51	104	0	73	23410
2026-01-09 07:43:20.26	150.41	26.15	-50.3	-54.9	3.7	0.00e+00	0	51	104	0	72	24192
2026-01-09 07:43:21.68	150.27	26.50	-50.1	-54.8	3.7	0.00e+00	0	51	104	0	72	23891
2026-01-09 07:43:22.67	150.17	26.74	-50.8	-55.7	3.7	0.00e+00	0	51	104	0	72	26290
2026-01-09 07:43:23.99	150.03	27.07	-50.8	-55.7	3.7	0.00e+00	0	51	104	0	72	26384
2026-01-09 07:43:24.71	149.96	27.25	-50.6	-55.6	3.7	0.00e+00	0	51	104	0	72	26219
2026-01-09 07:43:26.00	149.82	27.58	-50.3	-55.5	3.7	0.00e+00	0	51	104	0	72	25688
2026-01-09 07:43:26.71	149.74	27.76	-50.3	-55.5	3.7	0.00e+00	0	51	104	0	72	25742
2026-01-09 07:43:28.00	149.60	28.09	-50.9	-55.9	3.7	0.00e+00	0	51	104	0	72	27054
2026-01-09 07:43:28.72	149.52	28.28	-51.2	-56.1	3.7	0.00e+00	0	51	104	0	72	27680
2026-01-09 07:43:30.01	149.37	28.62	-51.4	-56.2	3.7	0.00e+00	0	51	104	0	73	26451
2026-01-09 07:43:30.72	149.29	28.81	-51.5	-56.2	3.7	0.00e+00	0	51	104	0	73	26454
2026-01-09 07:43:32.09	149.12	29.18	-51.4	-55.8	3.7	0.00e+00	0	51	104	0	73	25215
2026-01-09 07:43:33.08	149.00	29.46	-51.8	-56.5	3.7	0.00e+00	0	51	104	0	74	25798
2026-01-09 07:43:34.40	148.84	29.82	-51.6	-56.3	3.7	0.00e+00	0	51	104	0	74	25314
2026-01-09 07:43:35.12	148.75	30.03	-51.6	-56.0	3.7	0.00e+00	0	51	104	0	74	24279
2026-01-09 07:43:36.76	148.53	30.49	-52.0	-56.7	3.7	0.00e+00	0	51	104	0	74	26371
2026-01-09 07:43:37.33	148.46	30.66	-52.0	-56.7	3.7	0.00e+00	0	51	104	0	74	26318
2026-01-09 07:43:38.94	148.24	31.13	-51.7	-56.0	3.7	0.00e+00	0	51	104	0	74	24408
2026-01-09 07:43:39.52	148.16	31.30	-51.9	-56.5	3.7	0.00e+00	0	51	104	0	74	25924
2026-01-09 07:43:41.10	147.93	31.77	-51.9	-56.4	3.7	0.00e+00	0	51	104	0	74	25642
2026-01-09 07:43:41.67	147.85	31.95	-52.4	-56.8	3.7	0.00e+00	0	51	104	0	75	25352
2026-01-09 07:43:43.25	147.61	32.43	-52.0	-56.6	3.7	0.00e+00	0	51	104	0	75	24589
2026-01-09 07:43:43.85	147.52	32.62	-52.5	-57.0	3.7	0.00e+00	0	51	104	0	75	25809
2026-01-09 07:43:45.43	147.28	33.12	-51.8	-56.4	3.7	0.00e+00	0	51	104	0	75	24033
2026-01-09 07:43:46.00	147.19	33.30	-52.1	-56.5	3.7	0.00e+00	0	51	104	0	75	24497
2026-01-09 07:43:47.58	146.93	33.81	-52.3	-56.9	3.7	0.00e+00	0	51	104	0	75	25409
2026-01-09 07:43:48.15	146.83	34.00	-52.3	-56.8	3.7	0.00e+00	0	51	104	0	75	25362
2026-01-09 07:43:49.75	146.56	34.53	-52.2	-56.7	3.7	0.00e+00	0	51	104	0	75	25001
2026-01-09 07:43:50.32	146.46	34.72	-52.2	-56.7	3.7	0.00e+00	0	51	104	0	75	24978
2026-01-09 07:43:51.90	146.18	35.25	-52.3	-56.7	3.7	0.00e+00	0	51	104	0	75	25066
2026-01-09 07:43:52.50	146.07	35.46	-52.4	-56.8	3.7	0.00e+00	0	51	104	0	75	25123
2026-01-09 07:43:54.08	145.77	36.01	-52.2	-56.7	3.7	0.00e+00	0	51	104	0	75	24842
2026-01-09 07:43:54.87	145.62	36.29	-52.4	-56.8	3.7	0.00e+00	0	51	104	0	75	25281
2026-01-09 07:43:56.02	145.39	36.70	-52.3	-56.8	3.7	0.00e+00	0	51	104	0	75	25218
2026-01-09 07:43:56.88	145.21	37.01	-52.3	-56.7	3.7	0.00e+00	0	51	104	0	75	24938
2026-01-09 07:43:58.03	144.98	37.43	-52.5	-56.9	3.7	0.00e+00	0	51	104	0	75	25603
2026-01-09 07:43:58.89	144.79	37.75	-52.3	-56.6	3.7	0.00e+00	0	51	104	0	75	24775
2026-01-09 07:44:00.03	144.54	38.17	-52.1	-56.4	3.7	0.00e+00	0	51	104	0	75	24048
2026-01-09 07:44:00.89	144.35	38.50	-52.3	-56.6	3.7	0.00e+00	0	51	104	0	75	24524
2026-01-09 07:44:02.15	144.06	38.98	-52.1	-56.4	3.7	0.00e+00	0	51	104	0	75	24174
2026-01-09 07:44:02.88	143.89	39.27	-52.3	-56.8	3.7	0.00e+00	0	52	104	0	75	25357
2026-01-09 07:44:04.17	143.58	39.77	-52.4	-56.9	3.7	0.00e+00	0	51	104	0	75	25619
2026-01-09 07:44:04.89	143.40	40.06	-52.4	-56.8	3.7	0.00e+00	0	52	104	0	75	25263
2026-01-09 07:44:06.18	143.07	40.57	-52.4	-56.8	3.7	0.00e+00	0	51	104	0	75	25380
2026-01-09 07:44:06.96	142.87	40.89	-52.4	-56.9	3.7	0.00e+00	0	51	104	0	75	25563
2026-01-09 07:44:08.15	142.55	41.38	-52.3	-56.8	3.7	0.00e+00	0	51	104	0	75	25163
2026-01-09 07:44:09.19	142.26	41.81	-52.2	-56.8	3.7	0.00e+00	0	52	104	0	75	25250
2026-01-09 07:44:10.38	141.93	42.31	-52.4	-56.9	3.7	0.00e+00	0	51	104	0	75	25408
2026-01-09 07:44:11.27	141.67	42.69	-52.3	-56.5	3.7	0.00e+00	0	52	104	0	75	24280
2026-01-09 07:44:12.41	141.32	43.18	-52.1	-56.4	3.7	0.00e+00	0	51	104	0	75	24027
2026-01-09 07:44:13.27	141.05	43.56	-52.3	-56.5	3.7	0.00e+00	0	51	104	0	75	24358
2026-01-09 07:44:14.69	140.60	44.18	-52.0	-56.4	3.6	0.00e+00	0	52	104	0	75	24025
2026-01-09 07:44:15.40	140.36	44.50	-52.2	-56.5	3.7	0.00e+00	0	51	104	0	75	24512
2026-01-09 07:44:16.69	139.93	45.08	-52.4	-56.7	3.7	0.00e+00	0	51	104	0	75	24890
2026-01-09 07:44:17.41	139.67	45.40	-52.6	-56.9	3.7	0.00e+00	0	51	104	0	75	25436
2026-01-09 07:44:18.70	139.21	46.00	-52.3	-56.5	3.7	0.00e+00	0	51	104	0	75	24497
2026-01-09 07:44:19.41	138.94	46.33	-52.1	-56.1	3.7	0.00e+00	0	51	104	0	75	23410
2026-01-09 07:44:20.70	138.45	46.93	-52.1	-56.1	3.7	0.00e+00	0	51	104	0	75	23374
2026-01-09 07:44:21.50	138.13	47.31	-52.2	-56.3	3.7	0.00e+00	0	52	104	0	75	23768
2026-01-09 07:44:22.64	137.66	47.85	-52.4	-56.5	3.7	0.00e+00	0	51	104	0	75	24455
2026-01-09 07:44:23.51	137.29	48.27	-52.4	-56.6	3.7	0.00e+00	0	51	104	0	75	24654
2026-01-09 07:44:24.65	136.80	48.83	-52.3	-56.6	3.7	0.00e+00	0	51	104	0	75	24731
2026-01-09 07:44:25.51	136.41	49.25	-52.4	-56.6	3.7	0.00e+00	0	51	104	0	75	24787
2026-01-09 07:44:26.66	135.87	49.82	-52.2	-56.5	3.7	0.00e+00	0	52	104	0	75	24334
2026-01-09 07:44:27.52	135.46	50.24	-52.3	-56.5	3.7	0.00e+00	0	52	104	0	75	24357
2026-01-09 07:44:28.67	134.88	50.82	-52.3	-56.4	3.7	0.00e+00	0	51	104	0	75	24057
2026-01-09 07:44:29.53	134.44	51.26	-52.1	-56.1	3.7	0.00e+00	0	51	104	0	75	23363
2026-01-09 07:44:30.68	133.82	51.84	-52.0	-56.3	3.7	0.00e+00	0	51	104	0	75	23819
2026-01-09 07:44:31.54	133.34	52.28	-52.0	-56.5	3.7	0.00e+00	0	51	104	0	75	24402
2026-01-09 07:44:32.69	132.68	52.88	-51.9	-56.3	3.7	0.00e+00	0	51	104	0	75	23885
2026-01-09 07:44:33.54	132.17	53.32	-52.1	-56.5	3.7	0.00e+00	0	51	104	0	75	24414
2026-01-09 07:44:34.69	131.46	53.92	-52.3	-56.3	3.7	0.00e+00	0	51	104	0	75	23767
2026-01-09 07:44:35.55	130.91	54.37	-52.3	-56.4	3.7	0.00e+00	0	51	104	0	75	24021
2026-01-09 07:44:36.70	130.14	54.97	-52.4	-56.6	3.7	0.00e+00	0	51	104	0	75	24601
2026-01-09 07:44:37.55	129.55	55.42	-51.8	-56.5	3.7	0.00e+00	0	51	104	0	75	24373
2026-01-09 07:44:38.70	128.73	56.03	-51.4	-56.4	3.7	0.00e+00	0	51	104	0	74	25607
2026-01-09 07:44:39.56	128.08	56.49	-52.1	-56.7	3.7	0.00e+00	0	51	104	0	74	26487
2026-01-09 07:44:40.71	127.19	57.10	-52.2	-56.7	3.7	0.00e+00	0	52	104	0	75	24961
2026-01-09 07:44:41.57	126.49	57.56	-52.3	-56.7	3.7	0.00e+00	0	51	104	0	75	25042
2026-01-09 07:44:42.72	125.52	58.17	-52.2	-56.7	3.7	0.00e+00	0	52	104	0	75	24855
2026-01-09 07:44:43.58	124.77	58.62	-52.0	-56.3	3.7	0.00e+00	0	51	104	0	75	23910
2026-01-09 07:44:44.72	123.72	59.23	-52.1	-56.4	3.7	0.00e+00	0	52	104	0	75	24230
2026-01-09 07:44:45.58	122.90	59.68	-52.5	-56.8	3.7	0.00e+00	0	51	104	0	75	25251
2026-01-09 07:44:46.89	121.60	60.37	-52.2	-56.2	3.7	0.00e+00	0	52	104	0	75	23607
2026-01-09 07:44:47.61	120.85	60.74	-52.2	-56.3	3.7	0.00e+00	0	51	104	0	75	23814
2026-01-09 07:44:48.90	119.45	61.41	-52.5	-56.7	3.7	0.00e+00	0	52	104	0	75	25038
2026-01-09 07:44:49.61	118.65	61.77	-52.4	-56.7	3.7	0.00e+00	0	52	104	0	75	24963
2026-01-09 07:44:50.91	117.12	62.43	-52.3	-56.7	3.7	0.00e+00	0	51	104	0	75	24896
2026-01-09 07:44:51.62	116.25	62.78	-52.2	-56.6	3.7	0.00e+00	0	52	104	0	75	24765
2026-01-09 07:44:53.28	114.10	63.60	-52.1	-56.8	3.7	0.00e+00	0	51	104	0	75	25121
2026-01-09 07:44:53.85	113.33	63.87	-52.1	-56.7	3.7	0.00e+00	0	52	104	0	75	24942
2026-01-09 07:44:55.46	111.05	64.63	-52.3	-56.8	3.7	0.00e+00	0	52	104	0	75	25317
2026-01-09 07:44:56.03	110.21	64.89	-52.7	-57.1	3.7	0.00e+00	0	51	104	0	76	24595
2026-01-09 07:44:57.61	107.76	65.59	-52.5	-57.0	3.7	0.00e+00	0	52	104	0	76	24443
2026-01-09 07:44:58.20	106.81	65.84	-52.4	-57.0	3.7	0.00e+00	0	52	104	0	76	24301
2026-01-09 07:44:59.77	104.17	66.48	-52.4	-57.0	3.7	0.00e+00	0	52	104	0	76	24277
2026-01-09 07:45:00.38	103.10	66.72	-52.5	-57.1	3.7	0.00e+00	0	52	104	0	76	24591
2026-01-09 07:45:01.95	100.23	67.31	-51.6	-56.4	3.7	0.00e+00	0	52	104	0	75	24206
2026-01-09 07:45:02.53	99.13	67.51	-51.7	-56.5	3.7	0.00e+00	0	52	104	0	75	24247
2026-01-09 07:45:04.10	96.05	68.02	-52.2	-56.9	3.7	0.00e+00	0	52	104	0	75	25561
2026-01-09 07:45:04.72	94.79	68.21	-52.4	-57.0	3.7	0.00e+00	0	52	104	0	75	25970
2026-01-09 07:45:06.54	90.96	68.70	-51.7	-56.6	3.7	0.00e+00	0	52	104	0	75	24531
2026-01-09 07:45:07.11	89.72	68.84	-52.0	-56.7	3.7	0.00e+00	0	51	104	0	75	25009
2026-01-09 07:45:09.16	85.14	69.25	-51.7	-56.4	3.7	0.00e+00	0	52	104	0	75	24105
2026-01-09 07:45:09.73	83.83	69.35	-51.1	-56.2	3.7	0.00e+00	0	52	104	0	74	24825
2026-01-09 07:45:11.45	79.82	69.57	-52.3	-56.9	3.6	0.00e+00	0	52	104	0	75	25584
2026-01-09 07:45:12.02	78.47	69.62	-52.6	-57.0	3.7	0.00e+00	0	52	104	0	75	25706
2026-01-09 07:45:13.61	74.69	69.71	-52.4	-56.8	3.7	0.00e+00	0	52	104	0	75	25222
2026-01-09 07:45:14.36	72.89	69.72	-52.3	-56.8	3.7	0.00e+00	0	52	104	0	75	25283
2026-01-09 07:45:15.65	69.80	69.70	-52.6	-57.1	3.7	0.00e+00	0	52	104	0	75	26032
2026-01-09 07:45:16.37	68.08	69.66	-52.7	-57.1	3.7	0.00e+00	0	52	104	0	75	26097
2026-01-09 07:45:17.66	65.03	69.56	-52.1	-56.8	3.7	0.00e+00	0	52	104	0	75	25115
2026-01-09 07:45:18.37	63.36	69.48	-52.2	-56.9	3.7	0.00e+00	0	52	104	0	75	25391
2026-01-09 07:45:19.66	60.38	69.29	-52.5	-56.9	3.7	0.00e+00	0	52	104	0	75	25506
2026-01-09 07:45:20.38	58.74	69.16	-52.5	-56.8	3.7	0.00e+00	0	52	104	0	75	25285
2026-01-09 07:45:21.80	55.58	68.87	-52.3	-56.7	3.7	0.00e+00	0	52	104	0	75	24872
2026-01-09 07:45:22.52	54.02	68.70	-52.4	-56.5	3.7	0.00e+00	0	52	104	0	75	24435
2026-01-09 07:45:23.81	51.29	68.36	-52.4	-56.7	3.7	0.00e+00	0	52	104	0	75	25075
2026-01-09 07:45:24.52	49.83	68.15	-52.4	-56.7	3.7	0.00e+00	0	52	104	0	75	25047
2026-01-09 07:45:25.82	47.23	67.75	-52.4	-56.8	3.7	0.00e+00	0	51	104	0	75	25247
2026-01-09 07:45:26.53	45.86	67.51	-52.5	-56.8	3.7	0.00e+00	0	52	104	0	75	25153
2026-01-09 07:45:27.82	43.45	67.05	-52.3	-56.4	3.7	0.00e+00	0	52	104	0	75	23968
2026-01-09 07:45:28.54	42.15	66.78	-52.3	-56.4	3.7	0.00e+00	0	52	104	0	75	24062
2026-01-09 07:45:29.83	39.91	66.26	-52.4	-56.5	3.7	0.00e+00	0	52	104	0	75	24510
2026-01-09 07:45:30.56	38.69	65.96	-52.4	-56.7	3.7	0.00e+00	0	51	104	0	75	25043
2026-01-09 07:45:31.85	36.61	65.41	-52.3	-56.4	3.7	0.00e+00	0	52	104	0	75	24182
2026-01-09 07:45:32.57	35.50	65.09	-52.1	-56.1	3.7	0.00e+00	0	51	104	0	75	23202
2026-01-09 07:45:33.86	33.58	64.51	-52.2	-56.4	3.7	0.00e+00	0	52	104	0	75	23965
2026-01-09 07:45:34.70	32.39	64.11	-52.4	-56.6	3.7	0.00e+00	0	52	104	0	75	24608
2026-01-09 07:45:35.84	30.84	63.57	-51.8	-55.8	3.7	0.00e+00	0	52	104	0	75	22572
2026-01-09 07:45:36.70	29.71	63.15	-52.0	-56.0	3.7	0.00e+00	0	51	104	0	75	23015
2026-01-09 07:45:37.85	28.27	62.58	-52.1	-56.1	3.7	0.00e+00	0	52	104	0	75	23343
2026-01-09 07:45:38.71	27.24	62.15	-52.1	-56.0	3.7	0.00e+00	0	52	104	0	75	22952
2026-01-09 07:45:39.85	25.92	61.57	-51.8	-55.7	3.7	0.00e+00	0	51	104	0	75	22165
2026-01-09 07:45:40.71	24.97	61.13	-51.4	-55.4	3.7	0.00e+00	0	51	104	0	74	22811
2026-01-09 07:45:41.94	23.67	60.50	-51.7	-55.9	3.7	0.00e+00	0	52	104	0	74	23976
2026-01-09 07:45:42.80	22.80	60.05	-52.3	-56.6	3.7	0.00e+00	0	51	104	0	75	24528
2026-01-09 07:45:44.01	21.62	59.41	-52.1	-56.5	3.7	0.00e+00	0	52	104	0	75	24262
2026-01-09 07:45:44.87	20.82	58.96	-52.2	-56.6	3.7	0.00e+00	0	52	104	0	75	24531
2026-01-09 07:45:46.02	19.80	58.35	-52.0	-56.6	3.7	0.00e+00	0	52	104	0	75	24570
2026-01-09 07:45:46.88	19.06	57.90	-52.0	-55.9	3.7	0.00e+00	0	52	104	0	75	22851
2026-01-09 07:45:48.03	18.11	57.29	-52.1	-56.4	3.7	0.00e+00	0	52	104	0	75	24087
2026-01-09 07:45:48.89	17.43	56.83	-52.2	-56.7	3.7	0.00e+00	0	52	104	0	75	25009
2026-01-09 07:45:50.03	16.56	56.23	-52.2	-56.8	3.7	0.00e+00	0	52	104	0	75	25175
2026-01-09 07:45:50.89	15.94	55.78	-51.8	-56.4	3.7	0.00e+00	0	51	104	0	75	23998
2026-01-09 07:45:52.03	15.13	55.18	-52.1	-56.3	3.7	0.00e+00	0	52	104	0	75	23959
2026-01-09 07:45:52.89	14.55	54.72	-52.3	-56.6	3.7	0.00e+00	0	52	104	0	75	24598
2026-01-09 07:45:54.04	13.80	54.12	-52.6	-57.0	3.7	0.00e+00	0	52	104	0	75	25878
2026-01-09 07:45:54.90	13.26	53.67	-52.5	-57.0	3.7	0.00e+00	0	52	104	0	75	25928
2026-01-09 07:45:56.05	12.56	53.08	-52.5	-57.0	3.7	0.00e+00	0	52	104	0	75	25784
2026-01-09 07:45:56.91	12.06	52.64	-52.1	-56.8	3.7	0.00e+00	0	51	104	0	75	25243
2026-01-09 07:45:58.05	11.42	52.05	-52.1	-56.8	3.7	0.00e+00	0	52	104	0	75	25188
2026-01-09 07:45:58.91	10.95	51.61	-52.3	-56.9	3.7	0.00e+00	0	51	104	0	75	25500
2026-01-09 07:46:00.12	10.32	51.00	-52.2	-56.8	3.7	0.00e+00	0	52	104	0	75	25194
2026-01-09 07:46:00.99	9.88	50.57	-52.1	-56.7	3.7	0.00e+00	0	52	104	0	75	25089
2026-01-09 07:46:02.13	9.32	50.00	-52.1	-56.8	3.7	0.00e+00	0	52	104	0	75	25229
2026-01-09 07:46:02.99	8.91	49.57	-52.1	-56.5	3.7	0.00e+00	0	52	104	0	75	24262
2026-01-09 07:46:04.14	8.39	49.01	-52.5	-56.8	3.7	0.00e+00	0	52	104	0	75	25253
2026-01-09 07:46:05.00	8.01	48.59	-52.6	-57.0	3.7	0.00e+00	0	52	104	0	75	25945
2026-01-09 07:46:06.14	7.52	48.04	-52.6	-57.0	3.7	0.00e+00	0	52	104	0	75	25894
2026-01-09 07:46:07.00	7.16	47.63	-52.0	-56.3	3.7	0.00e+00	0	52	104	0	75	23782
2026-01-09 07:46:08.15	6.70	47.09	-52.1	-56.5	3.7	0.00e+00	0	52	104	0	75	24523
2026-01-09 07:46:09.01	6.37	46.69	-52.0	-56.3	3.7	0.00e+00	0	52	104	0	75	23786
2026-01-09 07:46:10.16	5.94	46.15	-52.2	-56.8	3.7	0.00e+00	0	52	104	0	75	25163
2026-01-09 07:46:11.02	5.62	45.76	-52.3	-56.8	3.7	0.00e+00	0	52	104	0	75	25126
2026-01-09 07:46:12.16	5.22	45.24	-52.3	-56.9	3.7	0.00e+00	0	52	104	0	75	25402
2026-01-09 07:46:13.02	4.92	44.85	-52.2	-56.9	3.7	0.00e+00	0	52	104	0	75	25445
2026-01-09 07:46:14.17	4.54	44.34	-51.5	-56.5	3.7	0.00e+00	0	52	104	0	75	24427
2026-01-09 07:46:15.03	4.26	43.96	-51.6	-56.5	3.7	0.00e+00	0	52	104	0	75	24488
2026-01-09 07:46:16.17	3.90	43.46	-51.3	-56.3	3.7	0.00e+00	0	52	104	0	74	25296
2026-01-09 07:46:17.03	3.64	43.09	-52.0	-56.8	3.7	0.00e+00	0	52	104	0	74	26652
2026-01-09 07:46:18.18	3.29	42.60	-51.6	-56.5	3.7	0.00e+00	0	52	104	0	74	25786
2026-01-09 07:46:19.14	3.02	42.20	-52.2	-56.8	3.7	0.00e+00	0	52	104	0	75	25193
2026-01-09 07:46:20.31	2.69	41.71	-52.1	-56.8	3.7	0.00e+00	0	52	104	0	75	25183
2026-01-09 07:46:21.22	2.44	41.33	-52.1	-56.9	3.7	0.00e+00	0	52	104	0	75	25513
2026-01-09 07:46:22.42	2.12	40.85	-52.1	-56.9	3.7	0.00e+00	0	52	104	0	75	25446
2026-01-09 07:46:23.33	1.89	40.48	-52.0	-56.9	3.7	0.00e+00	0	52	104	0	75	25400
2026-01-09 07:46:24.51	1.59	40.01	-52.2	-56.9	3.7	0.00e+00	0	52	104	0	75	25451
2026-01-09 07:46:25.37	1.38	39.67	-52.2	-56.7	3.7	0.00e+00	0	52	104	0	75	24991
2026-01-09 07:46:26.72	1.06	39.15	-51.8	-56.3	3.7	0.00e+00	0	52	104	0	75	23928
2026-01-09 07:46:27.44	0.89	38.87	-51.7	-56.2	3.7	0.00e+00	0	52	104	0	75	23645
2026-01-09 07:46:28.73	0.60	38.38	-52.2	-56.9	3.7	0.00e+00	0	52	104	0	75	25538
2026-01-09 07:46:29.46	0.44	38.11	-52.5	-57.1	3.7	0.00e+00	0	52	104	0	75	26069
2026-01-09 07:46:30.75	0.16	37.63	-52.5	-56.9	3.7	0.00e+00	0	52	104	0	75	25524
2026-01-09 07:46:31.48	0.01	37.36	-52.2	-56.8	3.7	0.00e+00	0	52	104	0	75	25266
2026-01-09 07:46:32.77	359.75	36.90	-50.8	-56.1	3.7	0.00e+00	0	52	104	0	73	26061
2026-01-09 07:46:33.49	359.60	36.64	-50.9	-56.2	3.7	0.00e+00	0	52	104	0	73	26300
2026-01-09 07:46:34.77	359.35	36.19	-51.1	-56.3	3.7	0.00e+00	0	52	104	0	73	26616
2026-01-09 07:46:35.66	359.18	35.88	-51.2	-56.3	3.7	0.00e+00	0	52	104	0	73	26590
2026-01-09 07:46:37.12	358.91	35.37	-51.3	-55.9	3.7	0.00e+00	0	52	104	0	73	25667
2026-01-09 07:46:37.84	358.78	35.13	-51.3	-56.1	3.7	0.00e+00	0	52	104	0	73	26270
2026-01-09 07:46:39.13	358.56	34.70	-51.5	-56.1	3.7	0.00e+00	0	52	104	0	73	26004
2026-01-09 07:46:39.85	358.43	34.46	-52.0	-56.4	3.7	0.00e+00	0	52	104	0	74	25429
2026-01-09 07:46:41.14	358.21	34.03	-51.6	-55.9	3.7	0.00e+00	0	52	104	0	74	24240
2026-01-09 07:46:41.85	358.10	33.80	-52.0	-56.4	3.7	0.00e+00	0	52	104	0	74	25539
2026-01-09 07:46:43.14	357.89	33.39	-51.9	-56.5	3.7	0.00e+00	0	52	104	0	74	25716
2026-01-09 07:46:44.02	357.75	33.11	-51.9	-56.6	3.7	0.00e+00	0	52	104	0	74	26159
2026-01-09 07:46:45.17	357.57	32.75	-51.8	-56.7	3.7	0.00e+00	0	52	104	0	74	26317
2026-01-09 07:46:46.27	357.41	32.41	-51.7	-56.6	3.7	0.00e+00	0	52	104	0	74	26245
2026-01-09 07:46:47.32	357.25	32.09	-51.7	-56.6	3.7	0.00e+00	0	52	104	0	74	26236
2026-01-09 07:46:48.37	357.10	31.77	-51.8	-56.6	3.7	0.00e+00	0	52	104	0	74	26187
2026-01-09 07:46:49.25	356.97	31.51	-51.3	-55.9	3.7	0.00e+00	0	52	104	0	74	23969
2026-01-09 07:46:50.71	356.77	31.08	-51.4	-55.9	3.7	0.00e+00	0	52	104	0	74	24014
2026-01-09 07:46:51.43	356.67	30.87	-51.5	-56.0	3.7	0.00e+00	0	52	104	0	74	24408
2026-01-09 07:46:52.72	356.50	30.50	-52.2	-56.5	3.7	0.00e+00	0	52	104	0	74	25753
2026-01-09 07:46:53.43	356.41	30.30	-52.2	-56.5	3.7	0.00e+00	0	52	104	0	75	24313
2026-01-09 07:46:54.72	356.25	29.94	-52.3	-56.4	3.7	0.00e+00	0	52	104	0	75	24225
2026-01-09 07:46:55.44	356.16	29.74	-52.2	-56.4	3.7	0.00e+00	0	52	104	0	75	24167
2026-01-09 07:46:56.73	356.00	29.38	-52.2	-56.7	3.7	0.00e+00	0	52	104	0	75	24883
2026-01-09 07:46:57.56	355.90	29.16	-52.1	-56.7	3.7	0.00e+00	0	52	104	0	75	24822
2026-01-09 07:46:58.71	355.76	28.85	-52.0	-56.6	3.7	0.00e+00	0	52	104	0	75	24775
2026-01-09 07:46:59.57	355.66	28.62	-52.0	-56.6	3.7	0.00e+00	0	52	104	0	75	24657
2026-01-09 07:47:00.72	355.53	28.32	-51.9	-56.6	3.7	0.00e+00	0	52	104	0	75	24750
2026-01-09 07:47:01.83	355.41	28.03	-51.8	-56.6	3.7	0.00e+00	0	52	104	0	75	24702
2026-01-09 07:47:02.69	355.32	27.81	-51.8	-56.6	3.7	0.00e+00	0	52	104	0	75	24680
2026-01-09 07:47:03.84	355.19	27.51	-52.0	-56.7	3.7	0.00e+00	0	52	104	0	75	24909
2026-01-09 07:47:04.70	355.10	27.30	-51.8	-56.5	3.7	0.00e+00	0	52	104	0	75	24517
2026-01-09 07:47:05.84	354.98	27.02	-52.0	-56.6	3.7	0.00e+00	0	52	104	0	75	24702
2026-01-09 07:47:06.70	354.90	26.80	-52.0	-56.5	3.7	0.00e+00	0	52	104	0	75	24400
2026-01-09 07:47:07.85	354.78	26.52	-51.0	-55.8	3.7	0.00e+00	0	52	104	0	74	23904
2026-01-09 07:47:08.71	354.70	26.32	-51.6	-56.1	3.7	0.00e+00	0	52	104	0	74	24799
2026-01-09 07:47:09.85	354.59	26.04	-51.0	-55.9	3.7	0.00e+00	0	52	104	0	74	24011
2026-01-09 07:47:10.71	354.50	25.84	-51.3	-56.0	3.7	0.00e+00	0	51	104	0	74	24521
2026-01-09 07:47:12.02	354.38	25.54	-51.7	-56.3	3.7	0.00e+00	0	52	104	0	74	25170
2026-01-09 07:47:12.74	354.32	25.37	-51.8	-56.4	3.7	0.00e+00	0	52	104	0	74	25478
2026-01-09 07:47:14.03	354.20	25.08	-51.9	-56.4	3.7	0.00e+00	0	52	104	0	74	25410
2026-01-09 07:47:14.75	354.14	24.91	-51.9	-56.4	3.7	0.00e+00	0	52	104	0	74	25416
2026-01-09 07:47:16.03	354.03	24.63	-50.8	-55.9	3.7	0.00e+00	0	52	104	0	73	25569
2026-01-09 07:47:16.75	353.96	24.47	-51.4	-56.2	3.7	0.00e+00	0	52	104	0	73	26516
2026-01-09 07:47:18.03	353.86	24.19	-50.8	-56.0	3.7	0.00e+00	0	52	104	0	73	25947
2026-01-09 07:47:18.75	353.80	24.03	-50.7	-55.9	3.7	0.00e+00	0	52	104	0	73	25610
2026-01-09 07:47:20.04	353.69	23.75	-50.8	-55.9	3.6	0.00e+00	0	52	104	0	73	25437
2026-01-09 07:47:20.75	353.63	23.60	-50.5	-55.8	3.7	0.00e+00	0	52	104	0	72	26642
2026-01-09 07:47:22.04	353.53	23.33	-51.4	-56.5	3.7	0.00e+00	0	52	104	0	73	27380
2026-01-09 07:47:22.76	353.48	23.18	-51.5	-56.6	3.7	0.00e+00	0	52	104	0	73	27518
2026-01-09 07:47:24.05	353.38	22.91	-51.5	-56.5	3.7	0.00e+00	0	52	104	0	73	27272
2026-01-09 07:47:24.77	353.32	22.77	-51.6	-56.4	3.7	0.00e+00	0	52	104	0	73	27190
2026-01-09 07:47:26.06	353.23	22.51	-51.4	-56.3	3.7	0.00e+00	0	52	104	0	73	26637
2026-01-09 07:47:26.77	353.18	22.36	-51.3	-56.3	3.7	0.00e+00	0	52	104	0	73	26583
2026-01-09 07:47:28.27	353.07	22.07	-51.3	-56.2	3.7	0.00e+00	0	52	104	0	73	26447
2026-01-09 07:47:28.99	353.02	21.92	-51.2	-56.0	3.7	0.00e+00	0	52	104	0	73	25892
2026-01-09 07:47:30.28	352.93	21.67	-50.7	-56.0	3.7	0.00e+00	0	52	104	0	73	25685
2026-01-09 07:47:31.00	352.88	21.53	-51.3	-56.3	3.7	0.00e+00	0	52	104	0	73	26796
2026-01-09 07:47:32.29	352.79	21.29	-51.6	-56.2	3.7	0.00e+00	0	52	104	0	73	26427
2026-01-09 07:47:33.00	352.74	21.15	-51.0	-56.0	3.7	0.00e+00	0	52	104	0	73	25793
2026-01-09 07:47:34.29	352.66	20.91	-51.8	-56.5	3.7	0.00e+00	0	52	104	0	74	25890
2026-01-09 07:47:35.01	352.61	20.78	-51.9	-56.5	3.7	0.00e+00	0	52	104	0	74	25937
2026-01-09 07:47:36.30	352.53	20.54	-51.8	-56.4	3.7	0.00e+00	0	52	104	0	74	25536
2026-01-09 07:47:37.01	352.49	20.41	-51.6	-56.2	3.7	0.00e+00	0	52	104	0	74	25048
2026-01-09 07:47:38.30	352.41	20.18	-51.9	-56.7	3.7	0.00e+00	0	52	104	0	74	26398
2026-01-09 07:47:39.02	352.36	20.05	-51.2	-56.2	3.7	0.00e+00	0	52	104	0	74	24881
2026-01-09 07:47:40.31	352.28	19.82	-50.7	-55.8	3.7	0.00e+00	0	52	104	0	73	25328
2026-01-09 07:47:41.03	352.24	19.69	-51.7	-56.4	3.7	0.00e+00	0	52	104	0	74	25466
2026-01-09 07:47:42.32	352.17	19.47	-50.1	-55.6	3.7	0.00e+00	0	52	104	0	72	26054
2026-01-09 07:47:43.03	352.13	19.35	-49.4	-54.9	3.7	0.00e+00	0	52	104	0	70	27116
2026-01-09 07:47:44.32	352.05	19.13	-49.3	-54.8	3.7	0.00e+00	0	52	104	0	70	26861
2026-01-09 07:47:45.04	352.01	19.00	-49.3	-54.8	3.7	0.00e+00	0	52	104	0	70	26840
2026-01-09 07:47:46.33	351.94	18.79	-49.3	-54.9	3.7	0.00e+00	0	52	104	0	70	27016
2026-01-09 07:47:47.05	351.90	18.67	-49.3	-54.8	3.7	0.00e+00	0	52	104	0	70	26874
2026-01-09 07:47:48.43	351.83	18.44	-49.1	-54.8	3.7	0.00e+00	0	52	104	0	69	28171
2026-01-09 07:47:49.15	351.79	18.32	-49.3	-54.9	3.7	0.00e+00	0	52	104	0	69	28551
2026-01-09 07:47:50.44	351.72	18.11	-48.8	-54.4	3.7	0.00e+00	0	52	104	0	69	27105
2026-01-09 07:47:51.15	351.69	18.00	-48.7	-54.4	3.7	0.00e+00	0	52	104	0	69	27151
2026-01-09 07:47:52.44	351.62	17.79	-48.9	-54.5	3.7	0.00e+00	0	52	104	0	69	27204
2026-01-09 07:47:53.16	351.58	17.68	-48.7	-54.3	3.7	0.00e+00	0	52	104	0	69	26869
2026-01-09 07:47:54.67	351.51	17.44	-48.5	-54.3	3.7	0.00e+00	0	52	104	0	68	28396
2026-01-09 07:47:55.66	351.46	17.28	-48.5	-54.3	3.7	0.00e+00	0	52	104	0	68	28310
2026-01-09 07:47:56.98	351.40	17.08	-48.7	-54.6	3.7	0.00e+00	0	52	104	0	68	29187
2026-01-09 07:47:57.70	351.36	16.97	-48.6	-54.5	3.7	0.00e+00	0	52	104	0	68	28973
2026-01-09 07:47:58.99	351.30	16.78	-50.7	-56.0	3.7	0.00e+00	0	52	104	0	71	28881
2026-01-09 07:47:59.70	351.27	16.67	-50.9	-56.0	3.7	0.00e+00	0	52	104	0	72	27448
2026-01-09 07:48:00.99	351.21	16.48	-48.8	-54.6	3.7	0.00e+00	0	52	104	0	69	27753
2026-01-09 07:48:01.71	351.18	16.37	-49.0	-54.7	3.7	0.00e+00	0	52	104	0	69	28007
2026-01-09 07:48:02.99	351.12	16.18	-49.0	-54.7	3.7	0.00e+00	0	52	104	0	69	28098
2026-01-09 07:48:03.71	351.09	16.08	-48.9	-54.7	3.7	0.00e+00	0	52	104	0	69	27883
2026-01-09 07:48:05.00	351.03	15.89	-49.3	-54.9	3.7	0.00e+00	0	52	104	0	69	28737
2026-01-09 07:48:05.71	351.00	15.79	-49.8	-55.3	3.7	0.00e+00	0	52	104	0	70	28272
2026-01-09 07:48:07.00	350.95	15.60	-51.3	-56.2	3.7	0.00e+00	0	52	104	0	73	26512
2026-01-09 07:48:07.72	350.92	15.50	-51.5	-56.6	3.7	0.00e+00	0	52	104	0	73	27598
2026-01-09 07:48:09.25	350.86	15.29	-51.6	-56.7	3.7	0.00e+00	0	52	104	0	74	26402
2026-01-09 07:48:09.97	350.83	15.19	-51.8	-56.5	3.7	0.00e+00	0	52	104	0	74	25766
2026-01-09 07:48:11.26	350.77	15.01	-52.0	-56.8	3.7	0.00e+00	0	52	104	0	74	26748
2026-01-09 07:48:11.97	350.75	14.91	-52.0	-56.8	3.7	0.00e+00	0	52	104	0	74	26612
2026-01-09 07:48:13.26	350.70	14.74	-51.7	-56.5	3.7	0.00e+00	0	52	104	0	74	25751
2026-01-09 07:48:13.98	350.67	14.64	-51.5	-56.3	3.7	0.00e+00	0	52	104	0	74	25205
2026-01-09 07:48:15.27	350.62	14.47	-50.5	-55.7	3.7	0.00e+00	0	52	104	0	72	26310
2026-01-09 07:48:15.99	350.59	14.37	-49.0	-54.8	3.7	0.00e+00	0	52	104	0	69	28418
2026-01-09 07:48:17.27	350.54	14.20	-52.0	-56.7	3.7	0.00e+00	0	52	104	0	74	26470
2026-01-09 07:48:17.99	350.52	14.11	-50.0	-55.5	3.7	0.00e+00	0	52	104	0	71	27423
2026-01-09 07:48:19.28	350.47	13.94	-50.4	-55.9	3.7	0.00e+00	0	52	104	0	72	26990
2026-01-09 07:48:20.20	350.44	13.82	-50.4	-55.9	3.7	0.00e+00	0	52	104	0	72	27088
2026-01-09 07:48:21.20	350.40	13.69	-51.0	-56.4	3.7	0.00e+00	0	52	104	0	72	28611
2026-01-09 07:48:22.21	350.37	13.56	-51.2	-56.4	3.7	0.00e+00	0	52	104	0	72	28758
2026-01-09 07:48:23.22	350.33	13.44	-51.0	-56.3	3.7	0.00e+00	0	52	104	0	72	28312
2026-01-09 07:48:24.22	350.30	13.31	-50.9	-56.3	3.7	0.00e+00	0	52	104	0	72	28285
2026-01-09 07:48:25.22	350.26	13.18	-50.8	-56.1	3.7	0.00e+00	0	52	104	0	72	27615
2026-01-09 07:48:26.22	350.23	13.06	-51.2	-56.4	3.7	0.00e+00	0	52	104	0	73	26945
2026-01-09 07:48:27.24	350.19	12.93	-45.8	-52.3	3.9	0.00e+00	0	52	104	0	63	30133
2026-01-09 07:48:28.28	350.16	12.81	-50.5	-55.8	3.7	0.00e+00	0	52	104	0	72	26888
2026-01-09 07:48:29.28	350.13	12.69	-45.5	-52.1	4.0	0.00e+00	0	52	104	0	62	31123
2026-01-09 07:48:30.33	350.09	12.56	-45.4	-52.1	4.0	0.00e+00	0	52	104	0	62	30939
2026-01-09 07:48:31.27	350.06	12.45	-45.7	-52.4	3.9	0.00e+00	0	52	104	0	62	32077
2026-01-09 07:48:32.45	350.03	12.31	-46.1	-52.8	3.9	0.00e+00	0	52	104	0	62	33666
2026-01-09 07:48:33.34	350.00	12.20	-46.2	-52.9	3.9	0.00e+00	0	52	104	0	63	32147
2026-01-09 07:48:34.48	349.96	12.07	-46.2	-52.9	3.9	0.00e+00	0	52	104	0	63	32209
2026-01-09 07:48:35.34	349.94	11.97	-46.0	-52.6	3.9	0.00e+00	0	52	104	0	63	31190
2026-01-09 07:48:36.70	349.90	11.81	-46.3	-52.9	3.8	0.00e+00	0	52	104	0	63	32129
2026-01-09 07:48:37.41	349.88	11.73	-46.3	-52.9	3.9	0.00e+00	0	52	104	0	63	32275
2026-01-09 07:48:38.70	349.84	11.58	-45.7	-52.1	3.9	0.00e+00	0	52	104	0	63	29462
2026-01-09 07:48:39.42	349.82	11.50	-45.9	-52.5	3.9	0.00e+00	0	52	104	0	63	30565
2026-01-09 07:48:40.71	349.78	11.35	-46.0	-52.6	3.9	0.00e+00	0	52	104	0	63	31222
2026-01-09 07:48:41.47	349.76	11.26	-46.1	-52.7	3.9	0.00e+00	0	52	104	0	63	31532
2026-01-09 07:48:42.76	349.72	11.12	-46.2	-52.9	3.8	0.00e+00	0	52	104	0	63	32148
2026-01-09 07:48:43.48	349.70	11.04	-46.2	-52.6	3.8	0.00e+00	0	52	104	0	63	31001
2026-01-09 07:48:44.76	349.67	10.90	-46.0	-52.5	3.8	0.00e+00	0	52	104	0	63	30523
2026-01-09 07:48:45.61	349.64	10.81	-45.1	-51.7	3.9	0.00e+00	0	52	104	0	62	29489
2026-01-09 07:48:46.76	349.61	10.68	-46.4	-52.7	3.8	0.00e+00	0	52	104	0	63	31566
2026-01-09 07:48:47.62	349.59	10.59	-45.6	-52.1	3.9	0.00e+00	0	52	104	0	63	29321
2026-01-09 07:48:48.76	349.56	10.46	-44.8	-51.3	3.9	0.00e+00	0	52	104	0	61	30056
2026-01-09 07:48:49.62	349.54	10.37	-44.7	-51.2	3.9	0.00e+00	0	52	104	0	61	29536
2026-01-09 07:48:50.76	349.51	10.25	-44.5	-50.9	3.9	0.00e+00	0	52	104	0	60	30421
2026-01-09 07:48:51.63	349.49	10.16	-44.7	-51.0	3.8	0.00e+00	0	52	104	0	60	30866
2026-01-09 07:48:52.77	349.46	10.04	-44.9	-51.2	3.8	0.00e+00	0	52	104	0	60	31415
2026-01-09 07:48:53.63	349.44	9.95	-44.2	-50.2	3.8	0.00e+00	0	52	104	0	60	28097
2026-01-09 07:48:54.77	349.41	9.83	-45.8	-52.3	3.8	0.00e+00	0	52	104	0	62	31839
2026-01-09 07:48:55.63	349.39	9.74	-44.2	-50.4	3.8	0.00e+00	0	52	104	0	60	28581
2026-01-09 07:48:56.78	349.36	9.62	-44.2	-50.1	3.7	0.00e+00	0	52	104	0	60	27552
2026-01-09 07:48:57.64	349.34	9.53	-44.1	-50.2	3.8	0.00e+00	0	52	104	0	60	28011
2026-01-09 07:48:58.99	349.31	9.40	-44.2	-50.5	3.8	0.00e+00	0	52	104	0	59	30830
2026-01-09 07:48:59.70	349.29	9.32	-44.4	-50.8	3.8	0.00e+00	0	52	104	0	59	31815
2026-01-09 07:49:00.99	349.26	9.19	-44.3	-50.9	3.8	0.00e+00	0	52	104	0	60	30307
2026-01-09 07:49:01.71	349.24	9.12	-45.3	-51.5	3.7	0.00e+00	0	52	104	0	61	30768
2026-01-09 07:49:03.27	349.21	8.97	-45.5	-51.1	3.7	0.00e+00	0	52	104	0	61	29258
2026-01-09 07:49:03.98	349.19	8.90	-47.7	-53.5	3.7	0.00e+00	0	52	104	0	67	27395
2026-01-09 07:49:05.27	349.16	8.77	-47.8	-53.9	3.7	0.00e+00	0	52	104	0	67	28693
2026-01-09 07:49:05.99	349.15	8.70	-51.3	-55.9	3.7	0.00e+00	0	52	104	0	73	25419
2026-01-09 07:49:07.28	349.12	8.57	-50.1	-55.5	3.7	0.00e+00	0	52	104	0	72	25865
2026-01-09 07:49:08.00	349.10	8.50	-50.6	-55.9	3.7	0.00e+00	0	52	104	0	73	25508
2026-01-09 07:49:09.29	349.08	8.38	-52.0	-56.5	3.7	0.00e+00	0	52	104	0	75	24335
2026-01-09 07:49:10.02	349.06	8.31	-51.4	-56.3	3.7	0.00e+00	0	52	104	0	74	25238
2026-01-09 07:49:11.32	349.03	8.19	-51.2	-56.1	3.7	0.00e+00	0	52	104	0	74	24710
2026-01-09 07:49:12.11	349.02	8.11	-52.0	-56.6	3.7	0.00e+00	0	52	104	0	74	25998
2026-01-09 07:49:13.26	348.99	8.00	-51.7	-56.5	3.7	0.00e+00	0	52	104	0	75	24359
2026-01-09 07:49:14.33	348.97	7.90	-51.2	-56.3	3.7	0.00e+00	0	52	104	0	74	25246
2026-01-09 07:49:15.36	348.95	7.80	-52.3	-56.7	3.7	0.00e+00	0	52	104	0	75	24969
2026-01-09 07:49:16.54	348.93	7.70	-52.7	-57.1	3.7	0.00e+00	0	52	104	0	76	24543
2026-01-09 07:49:17.43	348.91	7.61	-52.3	-57.0	3.7	0.00e+00	0	52	104	0	75	25692
2026-01-09 07:49:18.46	348.89	7.52	-52.4	-57.0	3.7	0.00e+00	0	52	104	0	75	25874
2026-01-09 07:49:19.46	348.87	7.43	-52.0	-56.7	3.7	0.00e+00	0	52	104	0	75	25079
2026-01-09 07:49:20.47	348.85	7.33	-52.4	-57.1	3.7	0.00e+00	0	52	104	0	75	26102
2026-01-09 07:49:21.47	348.83	7.24	-52.1	-56.8	3.7	0.00e+00	0	52	104	0	75	25150
2026-01-09 07:49:22.48	348.81	7.15	-52.7	-57.2	3.7	0.00e+00	0	52	104	0	76	25007
2026-01-09 07:49:23.48	348.79	7.06	-52.8	-57.2	3.7	0.00e+00	0	52	104	0	76	25039
2026-01-09 07:49:24.48	348.77	6.97	-52.8	-57.2	3.7	0.00e+00	0	52	104	0	76	25002
2026-01-09 07:49:25.49	348.76	6.88	-52.6	-57.1	3.7	0.00e+00	0	52	104	0	76	24726
2026-01-09 07:49:26.49	348.74	6.80	-52.4	-57.0	3.7	0.00e+00	0	52	104	0	76	24329
2026-01-09 07:49:27.49	348.72	6.71	-52.5	-56.8	3.7	0.00e+00	0	52	104	0	76	23807
2026-01-09 07:49:28.50	348.70	6.62	-51.9	-56.3	3.7	0.00e+00	0	52	104	0	75	23751
2026-01-09 07:49:29.52	348.68	6.53	-51.8	-55.9	3.7	0.00e+00	0	52	104	0	75	22690
2026-01-09 07:49:30.56	348.67	6.44	-52.0	-56.4	3.7	0.00e+00	0	52	104	0	75	24047
2026-01-09 07:49:31.58	348.65	6.35	-51.6	-56.2	3.7	0.00e+00	0	52	104	0	75	23636
2026-01-09 07:49:32.59	348.63	6.26	-51.6	-56.3	3.7	0.00e+00	0	52	104	0	75	23698
2026-01-09 07:49:33.59	348.61	6.18	-51.6	-56.2	3.7	0.00e+00	0	52	104	0	75	23608
2026-01-09 07:49:34.59	348.60	6.09	-51.6	-56.2	3.7	0.00e+00	0	52	104	0	75	23631
2026-01-09 07:49:35.60	348.58	6.01	-51.6	-56.2	3.7	0.00e+00	0	52	104	0	75	23573
2026-01-09 07:49:36.60	348.56	5.92	-51.6	-56.2	3.7	0.00e+00	0	52	104	0	75	23548
2026-01-09 07:49:37.61	348.55	5.84	-51.5	-56.2	3.7	0.00e+00	0	52	104	0	75	23470
2026-01-09 07:49:38.61	348.53	5.75	-51.6	-56.2	3.7	0.00e+00	0	52	104	0	75	23583
2026-01-09 07:49:39.61	348.51	5.67	-51.6	-56.2	3.7	0.00e+00	0	52	104	0	75	23502
2026-01-09 07:49:40.62	348.50	5.59	-51.6	-56.2	3.7	0.00e+00	0	52	104	0	75	23512
2026-01-09 07:49:41.63	348.48	5.50	-51.6	-56.2	3.7	0.00e+00	0	52	104	0	75	23583
2026-01-09 07:49:42.63	348.47	5.42	-51.6	-56.2	3.7	0.00e+00	0	52	104	0	75	23563
2026-01-09 07:49:43.63	348.45	5.34	-51.6	-56.2	3.7	0.00e+00	0	52	104	0	75	23559
2026-01-09 07:49:44.64	348.44	5.26	-51.6	-56.2	3.7	0.00e+00	0	52	104	0	75	23535
2026-01-09 07:49:45.64	348.42	5.17	-51.6	-56.2	3.7	0.00e+00	0	52	104	0	75	23555
2026-01-09 07:49:46.65	348.41	5.09	-51.6	-56.2	3.7	0.00e+00	0	52	104	0	75	23549

#Closed at: 2026-01-09 07:49:47
#Recorded file [0 MB]: D:/Data/31040_260109_104042.dat