passes_logs/2026/01/09/T1/T1__20260109_012811_SUOMI_NPP_rec.log

#Pass ID: 20260109_012811_SUOMI NPP
#Satellite: SUOMI NPP
#Configuration: NPP
#almurnet v.1.7.20251203
#Start time: 2026-01-09 01:28:11

#Version: 2.0.20230620
#Station: T1
#Location: 37.570604 lon 55.790049 lat
#TLE: 1 37849U 11061A   26008.05542337  .00000108  00000+0  71976-4 0  9997
#TLE: 2 37849  98.7805 310.1641 0002540  75.6410 284.5048 14.19523335735721

#Time	Az	El	Level	Level2	SNR	BER	BlckErr	Temp	State	Recorded	gain1	gain2
2026-01-09 01:28:11.89	6.36	5.03	-47.7	-63.9	3.8	1.49e+00	0	36	0	0	66	23859
2026-01-09 01:28:12.89	6.28	5.09	-46.6	-63.5	3.8	1.49e+00	0	36	104	0	64	25646
2026-01-09 01:28:13.90	6.20	5.15	-46.6	-63.4	3.8	1.49e+00	0	36	104	0	64	25554
2026-01-09 01:28:14.90	6.11	5.21	-46.5	-63.5	3.8	1.49e+00	0	36	104	0	64	25584
2026-01-09 01:28:15.90	6.03	5.27	-46.5	-63.5	3.8	1.49e+00	0	36	104	0	64	25626
2026-01-09 01:28:16.91	5.95	5.33	-46.5	-63.5	3.8	1.49e+00	0	36	104	0	64	25612
2026-01-09 01:28:17.91	5.86	5.39	-46.5	-63.5	3.8	1.49e+00	0	37	104	0	64	25656
2026-01-09 01:28:18.92	5.78	5.46	-46.7	-63.5	3.8	1.49e+00	0	37	104	0	64	25605
2026-01-09 01:28:19.92	5.70	5.52	-46.6	-63.5	3.8	1.49e+00	0	36	104	0	64	25696
2026-01-09 01:28:20.92	5.61	5.58	-46.7	-63.5	3.8	1.49e+00	0	37	104	0	64	25609
2026-01-09 01:28:21.93	5.53	5.64	-46.6	-63.5	3.8	1.49e+00	0	37	104	0	64	25583
2026-01-09 01:28:22.93	5.44	5.70	-46.6	-63.4	3.8	1.49e+00	0	37	104	0	64	25476
2026-01-09 01:28:23.94	5.35	5.76	-46.5	-63.4	3.8	1.49e+00	0	37	104	0	64	25397
2026-01-09 01:28:24.94	5.27	5.82	-46.6	-63.4	3.8	1.49e+00	0	37	104	0	64	25352
2026-01-09 01:28:25.95	5.18	5.88	-46.6	-63.4	3.8	1.49e+00	0	37	104	0	64	25412
2026-01-09 01:28:26.95	5.10	5.94	-46.7	-63.4	3.8	1.49e+00	0	37	104	0	64	25332
2026-01-09 01:28:27.95	5.01	6.01	-46.7	-63.4	3.8	1.49e+00	0	37	104	0	64	25349
2026-01-09 01:28:28.96	4.92	6.07	-46.6	-63.4	3.8	1.49e+00	0	37	104	0	64	25364
2026-01-09 01:28:29.96	4.83	6.13	-46.6	-63.4	3.8	1.49e+00	0	37	104	0	64	25540
2026-01-09 01:28:30.97	4.74	6.19	-46.6	-63.5	3.8	1.49e+00	0	37	104	0	64	25600
2026-01-09 01:28:31.97	4.66	6.25	-46.6	-63.5	3.8	1.49e+00	0	37	104	0	64	25799
2026-01-09 01:28:32.98	4.57	6.32	-46.6	-63.5	3.8	1.49e+00	0	37	104	0	64	25685
2026-01-09 01:28:33.98	4.48	6.38	-46.6	-63.5	3.8	1.49e+00	0	37	104	0	64	25734
2026-01-09 01:28:34.98	4.39	6.44	-46.6	-63.5	3.8	1.49e+00	0	37	104	0	64	25834
2026-01-09 01:28:35.99	4.30	6.50	-46.7	-63.5	3.8	1.49e+00	0	37	104	0	64	25797
2026-01-09 01:28:36.99	4.21	6.56	-46.7	-63.5	3.8	1.49e+00	0	37	104	0	64	25791
2026-01-09 01:28:37.99	4.11	6.63	-46.5	-63.6	3.8	1.49e+00	0	37	104	0	64	25871
2026-01-09 01:28:39.00	4.02	6.69	-46.7	-63.5	3.8	1.49e+00	0	37	104	0	64	25848
2026-01-09 01:28:40.00	3.93	6.75	-46.7	-63.5	3.8	1.49e+00	0	37	104	0	64	25697
2026-01-09 01:28:41.01	3.84	6.81	-46.7	-63.5	3.8	1.49e+00	0	37	104	0	64	25734
2026-01-09 01:28:42.01	3.75	6.88	-46.7	-63.5	3.8	1.49e+00	0	37	104	0	64	25686
2026-01-09 01:28:43.01	3.65	6.94	-46.8	-63.5	3.8	1.49e+00	0	38	104	0	64	25673
2026-01-09 01:28:44.02	3.56	7.00	-46.7	-63.4	3.8	1.49e+00	0	37	104	0	64	25540
2026-01-09 01:28:45.02	3.46	7.06	-46.5	-63.4	3.8	1.49e+00	0	37	104	0	64	25413
2026-01-09 01:28:46.03	3.37	7.13	-46.8	-63.3	3.8	1.49e+00	0	37	104	0	64	25172
2026-01-09 01:28:47.03	3.27	7.19	-46.6	-63.3	3.8	1.49e+00	0	37	104	0	64	24989
2026-01-09 01:28:48.04	3.18	7.25	-46.7	-63.3	3.8	1.49e+00	0	37	104	0	64	25027
2026-01-09 01:28:49.04	3.08	7.32	-46.6	-63.2	3.8	1.49e+00	0	38	104	0	64	24737
2026-01-09 01:28:50.05	2.99	7.38	-46.6	-63.1	3.8	1.49e+00	0	38	104	0	64	24611
2026-01-09 01:28:51.05	2.89	7.44	-46.6	-63.0	3.8	1.49e+00	0	38	104	0	64	24139
2026-01-09 01:28:52.05	2.79	7.51	-46.7	-62.8	3.8	1.49e+00	0	38	104	0	64	23617
2026-01-09 01:28:53.06	2.70	7.57	-46.6	-62.5	3.8	1.49e+00	0	37	104	0	64	22927
2026-01-09 01:28:54.06	2.60	7.64	-46.6	-62.4	3.8	1.49e+00	0	38	104	0	64	22523
2026-01-09 01:28:55.06	2.50	7.70	-46.7	-62.2	3.8	1.49e+00	0	38	104	0	64	22154
2026-01-09 01:28:56.07	2.40	7.76	-46.5	-62.1	3.8	1.49e+00	0	38	104	0	64	21874
2026-01-09 01:28:57.07	2.30	7.83	-46.6	-62.2	3.8	1.49e+00	0	38	104	0	64	22096
2026-01-09 01:28:58.08	2.20	7.89	-46.6	-62.5	3.8	1.49e+00	0	38	104	0	64	22879
2026-01-09 01:28:59.08	2.10	7.95	-46.6	-62.9	3.8	1.49e+00	0	38	104	0	64	24011
2026-01-09 01:29:00.09	2.00	8.02	-46.6	-63.4	3.8	1.49e+00	0	38	104	0	64	25276
2026-01-09 01:29:01.09	1.90	8.08	-46.7	-63.4	3.8	1.49e+00	0	38	104	0	64	25517
2026-01-09 01:29:02.09	1.80	8.15	-46.8	-62.9	3.8	1.49e+00	0	38	104	0	64	24126
2026-01-09 01:29:03.10	1.69	8.21	-46.5	-62.2	3.8	1.49e+00	0	38	104	0	64	22027
2026-01-09 01:29:04.10	1.59	8.28	-46.5	-60.5	4.1	1.48e+00	0	38	0	0	64	18123
2026-01-09 01:29:05.11	1.49	8.34	-46.5	-59.2	4.4	1.39e+00	0	38	0	0	64	15722
2026-01-09 01:29:06.11	1.39	8.40	-46.3	-57.1	5.4	6.31e-01	0	38	0	2097152	64	12366
2026-01-09 01:29:07.11	1.28	8.47	-46.1	-56.2	6.1	4.01e-01	0	38	0	3145728	64	11127
2026-01-09 01:29:08.12	1.18	8.53	-46.0	-54.7	7.3	1.71e-01	0	38	0	5242880	63	9942
2026-01-09 01:29:09.13	1.07	8.60	-45.7	-53.6	8.5	7.68e-02	0	38	0	7340032	63	8712
2026-01-09 01:29:10.13	0.97	8.66	-45.4	-52.6	9.4	1.67e-02	0	38	0	9437184	62	8244
2026-01-09 01:29:11.13	0.86	8.73	-45.1	-51.5	10.7	5.86e-03	0	38	0	11534336	62	7250
2026-01-09 01:29:12.14	0.75	8.79	-44.9	-51.1	11.1	2.01e-03	0	38	0	12582912	61	7298
2026-01-09 01:29:13.14	0.65	8.86	-44.7	-50.5	11.8	6.38e-04	0	38	0	14680064	61	6842
2026-01-09 01:29:14.15	0.54	8.92	-44.8	-50.8	11.5	4.66e-04	0	38	0	16777216	61	7058
2026-01-09 01:29:15.15	0.43	8.99	-44.8	-50.6	11.7	7.16e-04	0	38	0	18874368	61	6948
2026-01-09 01:29:16.15	0.32	9.05	-45.1	-51.5	10.8	2.27e-03	0	38	0	20971520	61	7652
2026-01-09 01:29:17.16	0.21	9.12	-45.7	-53.5	8.6	2.45e-02	0	38	0	22020096	62	9145
2026-01-09 01:29:18.16	0.11	9.19	-46.6	-57.7	5.1	4.98e-01	0	38	0	24117248	64	13194
2026-01-09 01:29:19.16	360.00	9.25	-43.7	-48.3	13.9	2.40e-02	0	38	0	26214400	59	5979
2026-01-09 01:29:20.17	359.88	9.32	-43.6	-47.7	14.6	7.00e-07	0	38	0	28311552	59	5549
2026-01-09 01:29:21.17	359.77	9.38	-45.0	-51.8	10.4	8.28e-04	0	38	0	30408704	60	8368
2026-01-09 01:29:22.17	359.66	9.45	-43.8	-48.0	14.3	2.05e-05	0	38	0	31457280	59	5754
2026-01-09 01:29:23.18	359.55	9.51	-44.1	-48.4	13.9	2.20e-06	0	38	0	33554432	59	6046
2026-01-09 01:29:24.18	359.44	9.58	-44.0	-48.1	14.2	0.00e+00	0	38	0	35651584	59	5834
2026-01-09 01:29:25.18	359.33	9.64	-44.2	-48.5	13.8	1.50e-06	0	38	0	37748736	59	6091
2026-01-09 01:29:26.19	359.21	9.71	-44.2	-48.4	13.9	1.50e-06	0	38	0	39845888	59	6053
2026-01-09 01:29:27.19	359.10	9.78	-44.1	-48.4	13.9	1.50e-06	0	38	0	40894464	59	6007
2026-01-09 01:29:28.19	358.98	9.84	-44.3	-48.5	13.8	8.30e-06	0	38	0	42991616	59	6121
2026-01-09 01:29:29.26	358.86	9.91	-44.3	-48.7	13.7	8.30e-06	0	38	0	45088768	59	6233
2026-01-09 01:29:30.15	358.76	9.97	-44.2	-48.4	13.8	5.30e-06	0	38	0	47185920	59	6052
2026-01-09 01:29:31.29	358.63	10.05	-44.1	-48.3	14.0	2.20e-06	0	38	0	49283072	59	5964
2026-01-09 01:29:32.22	358.52	10.11	-44.1	-48.2	14.2	1.50e-06	0	38	0	50331648	59	5871
2026-01-09 01:29:33.40	358.38	10.19	-44.1	-48.2	14.2	3.80e-06	0	38	0	52428800	59	5870
2026-01-09 01:29:34.26	358.28	10.24	-44.0	-48.2	14.1	3.00e-06	0	38	0	54525952	59	5900
2026-01-09 01:29:35.61	358.12	10.33	-44.3	-48.6	13.7	7.00e-07	0	38	0	56623104	59	6171
2026-01-09 01:29:36.73	357.99	10.41	-44.2	-48.5	13.9	5.30e-06	0	38	0	58720256	59	6072
2026-01-09 01:29:37.59	357.88	10.46	-44.1	-48.3	14.0	3.00e-06	0	38	0	60817408	59	5991
2026-01-09 01:29:38.73	357.75	10.54	-44.0	-48.3	14.1	1.50e-06	0	38	0	62914560	59	5991
2026-01-09 01:29:39.59	357.64	10.60	-43.9	-48.2	14.2	3.80e-06	0	38	0	65011712	59	5862
2026-01-09 01:29:40.74	357.50	10.67	-44.0	-48.3	14.1	2.20e-06	0	38	0	67108864	59	5936
2026-01-09 01:29:41.60	357.40	10.73	-43.9	-48.3	14.1	3.00e-06	0	38	0	68157440	59	5925
2026-01-09 01:29:42.92	357.24	10.82	-43.9	-48.2	14.1	0.00e+00	0	38	0	70254592	59	5908
2026-01-09 01:29:43.64	357.15	10.87	-44.0	-48.4	14.0	3.00e-06	0	38	0	72351744	59	6028
2026-01-09 01:29:45.13	356.97	10.97	-43.9	-48.2	14.2	3.00e-06	0	38	0	74448896	59	5878
2026-01-09 01:29:45.85	356.88	11.02	-43.8	-48.0	14.4	7.00e-07	0	38	0	76546048	59	5775
2026-01-09 01:29:47.14	356.72	11.10	-43.7	-48.0	14.4	0.00e+00	0	38	0	78643200	59	5776
2026-01-09 01:29:48.19	356.58	11.17	-43.6	-47.8	14.6	0.00e+00	0	39	0	80740352	59	5624
2026-01-09 01:29:49.06	356.47	11.23	-43.7	-48.1	14.3	0.00e+00	0	38	0	81788928	58	6186
2026-01-09 01:29:50.21	356.33	11.31	-43.6	-47.9	14.5	0.00e+00	0	39	0	84934656	58	6050
2026-01-09 01:29:51.07	356.22	11.37	-43.6	-48.1	14.3	0.00e+00	0	39	0	85983232	58	6198
2026-01-09 01:29:52.22	356.07	11.44	-43.7	-48.2	14.2	2.20e-06	0	38	0	88080384	58	6218
2026-01-09 01:29:53.08	355.96	11.50	-43.6	-48.1	14.3	0.00e+00	0	39	0	90177536	58	6174
2026-01-09 01:29:54.33	355.80	11.58	-43.7	-48.4	14.0	0.00e+00	0	38	0	92274688	58	6391
2026-01-09 01:29:55.07	355.71	11.63	-43.5	-48.0	14.4	0.00e+00	0	38	0	93323264	58	6089
2026-01-09 01:29:56.36	355.54	11.72	-43.2	-47.7	14.7	0.00e+00	0	39	0	96468992	58	5922
2026-01-09 01:29:57.08	355.44	11.77	-43.4	-48.0	14.4	7.00e-07	0	38	0	97517568	58	6091
2026-01-09 01:29:58.36	355.28	11.86	-43.1	-47.5	14.9	0.00e+00	0	39	0	99614720	58	5784
2026-01-09 01:29:59.08	355.18	11.90	-43.0	-47.4	15.1	0.00e+00	0	38	0	100663296	58	5659
2026-01-09 01:30:00.62	354.98	12.01	-43.0	-47.4	15.1	7.00e-07	0	39	0	103809024	57	6043
2026-01-09 01:30:01.33	354.88	12.06	-42.8	-47.2	15.3	0.00e+00	0	39	0	104857600	57	5879
2026-01-09 01:30:02.68	354.70	12.15	-42.7	-47.2	15.2	0.00e+00	0	39	0	108003328	57	5903
2026-01-09 01:30:03.65	354.57	12.21	-42.7	-47.2	15.3	0.00e+00	0	39	0	110100480	57	5858
2026-01-09 01:30:04.96	354.39	12.30	-42.7	-47.4	15.1	0.00e+00	0	38	0	112197632	57	6055
2026-01-09 01:30:05.69	354.29	12.35	-42.6	-47.1	15.3	0.00e+00	0	39	0	113246208	57	5849
2026-01-09 01:30:06.98	354.12	12.44	-42.5	-47.1	15.3	0.00e+00	0	39	0	115343360	57	5832
2026-01-09 01:30:07.70	354.02	12.49	-42.5	-47.3	15.1	0.00e+00	0	39	0	117440512	56	6284
2026-01-09 01:30:08.99	353.84	12.57	-42.5	-47.3	15.1	0.00e+00	0	39	0	119537664	56	6341
2026-01-09 01:30:09.70	353.74	12.62	-42.4	-47.1	15.3	0.00e+00	0	39	0	120586240	56	6193
2026-01-09 01:30:11.00	353.56	12.71	-42.3	-47.0	15.5	0.00e+00	0	39	0	123731968	56	6062
2026-01-09 01:30:11.71	353.46	12.76	-42.2	-46.9	15.6	0.00e+00	0	39	0	124780544	56	5998
2026-01-09 01:30:13.06	353.27	12.85	-41.9	-46.6	15.6	0.00e+00	0	39	0	126877696	55	6198
2026-01-09 01:30:13.78	353.17	12.90	-41.7	-46.4	15.9	0.00e+00	0	39	0	128974848	55	6013
2026-01-09 01:30:15.13	352.97	12.99	-41.9	-46.5	15.9	0.00e+00	0	39	0	131072000	55	6074
2026-01-09 01:30:15.85	352.87	13.04	-41.7	-46.4	15.8	0.00e+00	0	39	0	132120576	55	6036
2026-01-09 01:30:17.14	352.69	13.13	-41.9	-46.6	15.6	0.00e+00	0	39	0	135266304	55	6192
2026-01-09 01:30:17.85	352.58	13.17	-41.9	-46.7	15.6	0.00e+00	0	39	0	136314880	55	6220
2026-01-09 01:30:19.27	352.38	13.27	-42.3	-47.0	15.3	0.00e+00	0	39	0	138412032	55	6449
2026-01-09 01:30:19.98	352.27	13.32	-42.3	-47.1	15.2	0.00e+00	0	39	0	140509184	55	6528
2026-01-09 01:30:21.27	352.09	13.41	-42.7	-47.0	15.5	0.00e+00	0	39	0	142606336	56	6115
2026-01-09 01:30:21.99	351.98	13.46	-42.9	-47.1	15.4	0.00e+00	0	39	0	143654912	56	6170
2026-01-09 01:30:23.28	351.79	13.54	-43.0	-47.2	15.3	0.00e+00	0	39	0	146800640	56	6232
2026-01-09 01:30:24.00	351.68	13.59	-43.2	-47.1	15.4	0.00e+00	0	39	0	147849216	57	5849
2026-01-09 01:30:25.29	351.49	13.68	-43.4	-47.4	15.1	0.00e+00	0	39	0	149946368	57	6006
2026-01-09 01:30:26.00	351.38	13.73	-43.4	-47.3	15.2	0.00e+00	0	39	0	152043520	57	5944
2026-01-09 01:30:27.29	351.19	13.82	-43.6	-47.3	15.3	0.00e+00	0	39	0	154140672	57	5931
2026-01-09 01:30:28.01	351.08	13.86	-43.6	-47.2	15.3	0.00e+00	0	39	0	155189248	57	5892
2026-01-09 01:30:29.30	350.88	13.95	-43.6	-47.0	15.5	0.00e+00	0	39	0	157286400	58	5460
2026-01-09 01:30:30.02	350.77	14.00	-43.9	-47.6	15.0	0.00e+00	0	39	0	159383552	58	5827
2026-01-09 01:30:31.30	350.58	14.09	-44.1	-47.9	14.7	7.00e-07	0	39	0	161480704	58	6013
2026-01-09 01:30:32.02	350.47	14.14	-44.0	-47.8	14.8	0.00e+00	0	39	0	162529280	58	5940
2026-01-09 01:30:33.31	350.27	14.22	-44.1	-48.1	14.4	0.00e+00	0	39	0	165675008	58	6190
2026-01-09 01:30:34.03	350.16	14.27	-44.0	-48.2	14.4	0.00e+00	0	39	0	166723584	58	6203
2026-01-09 01:30:35.32	349.95	14.36	-44.2	-48.5	14.2	2.20e-06	0	39	0	168820736	59	6086
2026-01-09 01:30:36.03	349.84	14.41	-44.1	-48.2	14.3	2.20e-06	0	39	0	169869312	59	5867
2026-01-09 01:30:37.32	349.64	14.49	-43.5	-47.2	15.3	0.00e+00	0	39	0	173015040	59	5248
2026-01-09 01:30:38.04	349.52	14.54	-43.5	-47.2	15.3	0.00e+00	0	39	0	174063616	59	5241
2026-01-09 01:30:39.33	349.32	14.63	-43.6	-47.1	15.6	0.00e+00	0	39	0	176160768	58	5485
2026-01-09 01:30:40.04	349.21	14.68	-43.9	-47.4	14.9	0.00e+00	0	39	0	178257920	59	5369
2026-01-09 01:30:41.33	349.00	14.77	-43.9	-47.4	15.2	0.00e+00	0	39	0	180355072	59	5357
2026-01-09 01:30:42.08	348.88	14.82	-44.1	-47.6	15.0	0.00e+00	0	39	0	181403648	59	5502
2026-01-09 01:30:43.68	348.62	14.92	-44.1	-47.7	14.9	0.00e+00	0	39	0	184549376	59	5538
2026-01-09 01:30:44.53	348.48	14.98	-44.5	-48.6	14.0	3.00e-06	0	39	0	186646528	60	5795
2026-01-09 01:30:45.67	348.29	15.06	-44.4	-48.4	14.0	7.00e-07	0	39	0	188743680	60	5702
2026-01-09 01:30:46.53	348.15	15.12	-44.6	-48.7	13.9	7.00e-07	0	39	0	189792256	60	5860
2026-01-09 01:30:47.68	347.96	15.19	-44.4	-48.6	14.0	3.00e-06	0	39	0	191889408	60	5804
2026-01-09 01:30:48.54	347.82	15.25	-44.5	-48.9	13.7	5.30e-06	0	39	0	193986560	60	6046
2026-01-09 01:30:49.69	347.62	15.33	-44.1	-48.1	14.4	7.00e-07	0	39	0	196083712	60	5521
2026-01-09 01:30:50.55	347.48	15.39	-44.0	-48.1	14.5	7.00e-07	0	39	0	197132288	60	5511
2026-01-09 01:30:51.69	347.29	15.46	-43.7	-47.6	14.9	0.00e+00	0	39	0	199229440	59	5511
2026-01-09 01:30:52.61	347.13	15.52	-43.6	-47.5	15.0	0.00e+00	0	39	0	201326592	59	5440
2026-01-09 01:30:53.62	346.96	15.59	-43.5	-47.5	15.0	0.00e+00	0	39	0	203423744	58	5781
2026-01-09 01:30:54.84	346.75	15.67	-43.4	-47.6	14.9	0.00e+00	0	39	0	205520896	58	5840
2026-01-09 01:30:55.73	346.60	15.73	-43.4	-47.6	14.9	0.00e+00	0	39	0	207618048	58	5828
2026-01-09 01:30:56.77	346.42	15.80	-43.6	-48.1	14.5	0.00e+00	0	39	0	209715200	58	6163
2026-01-09 01:30:57.94	346.21	15.88	-43.6	-48.2	14.3	1.50e-06	0	39	0	211812352	58	6240
2026-01-09 01:30:58.83	346.06	15.94	-43.5	-47.9	14.6	7.00e-07	0	39	0	212860928	58	6042
2026-01-09 01:30:59.85	345.88	16.01	-43.4	-47.8	14.8	0.00e+00	0	39	0	214958080	58	5930
2026-01-09 01:31:00.85	345.70	16.07	-43.4	-47.7	14.8	0.00e+00	0	39	0	217055232	58	5877
2026-01-09 01:31:01.86	345.53	16.14	-43.1	-47.2	15.4	0.00e+00	0	39	0	219152384	58	5534
2026-01-09 01:31:02.86	345.35	16.20	-43.1	-47.1	15.4	0.00e+00	0	39	0	220200960	58	5528
2026-01-09 01:31:03.86	345.17	16.27	-42.9	-46.8	15.8	0.00e+00	0	39	0	222298112	57	5628
2026-01-09 01:31:04.87	344.99	16.34	-42.9	-46.9	15.6	0.00e+00	0	39	0	224395264	57	5685
2026-01-09 01:31:05.87	344.81	16.40	-42.9	-46.7	15.8	0.00e+00	0	39	0	226492416	57	5590
2026-01-09 01:31:06.87	344.63	16.47	-43.2	-47.2	15.4	0.00e+00	0	39	0	228589568	57	5872
2026-01-09 01:31:07.88	344.45	16.53	-43.5	-47.6	15.0	0.00e+00	0	39	0	229638144	57	6135
2026-01-09 01:31:08.88	344.26	16.60	-43.7	-47.7	14.9	0.00e+00	0	39	0	231735296	58	5858
2026-01-09 01:31:09.88	344.08	16.66	-43.7	-47.5	15.0	0.00e+00	0	39	0	233832448	58	5784
2026-01-09 01:31:10.89	343.89	16.73	-43.8	-47.5	15.1	0.00e+00	0	39	0	235929600	58	5768
2026-01-09 01:31:11.89	343.71	16.80	-43.9	-47.7	14.9	0.00e+00	0	39	0	238026752	58	5907
2026-01-09 01:31:12.97	343.51	16.87	-43.8	-47.6	15.0	1.50e-06	0	39	0	239075328	58	5849
2026-01-09 01:31:13.87	343.34	16.92	-43.7	-47.6	15.0	0.00e+00	0	39	0	241172480	58	5792
2026-01-09 01:31:14.90	343.15	16.99	-43.8	-47.6	14.9	0.00e+00	0	39	0	243269632	58	5848
2026-01-09 01:31:15.90	342.96	17.05	-43.6	-47.4	15.2	0.00e+00	0	39	0	245366784	58	5675
2026-01-09 01:31:16.90	342.77	17.12	-43.7	-47.5	15.0	0.00e+00	0	39	0	247463936	58	5759
2026-01-09 01:31:17.91	342.58	17.18	-43.7	-47.5	15.1	0.00e+00	0	39	0	248512512	58	5757
2026-01-09 01:31:18.91	342.39	17.25	-43.8	-47.6	15.0	0.00e+00	0	39	0	250609664	58	5848
2026-01-09 01:31:19.91	342.20	17.31	-43.9	-48.0	14.6	7.00e-07	0	39	0	252706816	58	6097
2026-01-09 01:31:20.92	342.00	17.38	-43.6	-47.7	14.9	0.00e+00	0	39	0	254803968	58	5871
2026-01-09 01:31:21.92	341.81	17.44	-43.3	-47.3	15.3	0.00e+00	0	39	0	255852544	58	5609
2026-01-09 01:31:22.93	341.62	17.50	-43.1	-47.1	15.5	0.00e+00	0	39	0	257949696	58	5511
2026-01-09 01:31:23.93	341.42	17.57	-43.1	-47.0	15.6	0.00e+00	0	39	0	260046848	58	5434
2026-01-09 01:31:24.95	341.22	17.63	-43.1	-46.9	15.7	0.00e+00	0	39	0	262144000	57	5713
2026-01-09 01:31:25.98	341.02	17.69	-42.9	-46.5	16.0	0.00e+00	0	39	0	264241152	57	5458
2026-01-09 01:31:26.98	340.82	17.76	-43.0	-46.4	16.1	0.00e+00	0	39	0	266338304	57	5378
2026-01-09 01:31:27.98	340.62	17.82	-43.3	-46.7	15.9	0.00e+00	0	39	0	267386880	57	5536
2026-01-09 01:31:28.99	340.42	17.88	-43.6	-47.0	15.5	0.00e+00	0	39	0	269484032	57	5774
2026-01-09 01:31:29.99	340.22	17.94	-43.5	-46.9	15.7	0.00e+00	0	39	0	271581184	57	5689
2026-01-09 01:31:30.99	340.02	18.01	-43.3	-46.8	15.8	0.00e+00	0	39	0	273678336	57	5593
2026-01-09 01:31:32.00	339.82	18.07	-42.9	-46.4	16.2	0.00e+00	0	39	0	275775488	57	5351
2026-01-09 01:31:33.00	339.62	18.13	-42.6	-46.0	16.5	0.00e+00	0	39	0	276824064	57	5123
2026-01-09 01:31:34.00	339.41	18.19	-42.2	-45.4	17.0	0.00e+00	0	39	0	278921216	56	5089
2026-01-09 01:31:35.00	339.21	18.25	-42.1	-45.2	17.2	0.00e+00	0	39	0	281018368	56	4974
2026-01-09 01:31:36.00	339.01	18.31	-42.2	-45.1	17.3	0.00e+00	0	39	0	283115520	55	5209
2026-01-09 01:31:37.01	338.80	18.37	-42.2	-45.1	17.2	0.00e+00	0	39	0	284164096	55	5201
2026-01-09 01:31:38.01	338.59	18.43	-42.2	-45.0	17.3	0.00e+00	0	39	0	286261248	55	5143
2026-01-09 01:31:39.01	338.38	18.49	-42.3	-45.2	17.3	0.00e+00	0	39	0	288358400	55	5242
2026-01-09 01:31:40.02	338.17	18.55	-42.5	-45.5	16.9	0.00e+00	0	39	0	290455552	55	5437
2026-01-09 01:31:41.02	337.97	18.61	-42.6	-45.7	16.8	0.00e+00	0	39	0	292552704	55	5577
2026-01-09 01:31:42.03	337.75	18.67	-42.5	-45.6	16.8	0.00e+00	0	39	0	293601280	55	5517
2026-01-09 01:31:43.03	337.54	18.73	-42.2	-45.5	16.9	0.00e+00	0	39	0	295698432	55	5412
2026-01-09 01:31:44.03	337.33	18.79	-41.9	-44.9	17.4	0.00e+00	0	39	0	297795584	55	5097
2026-01-09 01:31:45.03	337.12	18.85	-41.7	-44.6	17.7	0.00e+00	0	39	0	299892736	55	4912
2026-01-09 01:31:46.04	336.90	18.91	-41.6	-44.4	17.8	0.00e+00	0	39	0	301989888	55	4813
2026-01-09 01:31:47.04	336.69	18.97	-41.7	-44.5	17.8	0.00e+00	0	39	0	303038464	55	4855
2026-01-09 01:31:48.04	336.48	19.02	-41.7	-44.6	17.7	0.00e+00	0	39	0	305135616	55	4883
2026-01-09 01:31:49.04	336.26	19.08	-41.9	-44.9	17.5	0.00e+00	0	39	0	307232768	55	5083
2026-01-09 01:31:50.05	336.04	19.14	-42.0	-45.2	17.2	0.00e+00	0	39	0	309329920	55	5219
2026-01-09 01:31:51.05	335.83	19.19	-42.0	-45.2	17.1	0.00e+00	0	39	0	311427072	55	5279
2026-01-09 01:31:52.05	335.61	19.25	-41.8	-45.1	17.2	0.00e+00	0	39	0	312475648	55	5189
2026-01-09 01:31:53.06	335.39	19.31	-41.9	-45.2	17.2	0.00e+00	0	39	0	314572800	55	5238
2026-01-09 01:31:54.06	335.17	19.36	-41.9	-45.3	17.1	0.00e+00	0	39	0	316669952	55	5297
2026-01-09 01:31:55.06	334.95	19.42	-42.0	-45.3	17.1	0.00e+00	0	39	0	318767104	55	5289
2026-01-09 01:31:56.06	334.73	19.47	-41.7	-44.8	17.5	0.00e+00	0	39	0	320864256	55	5003
2026-01-09 01:31:57.18	334.48	19.53	-41.7	-44.7	17.6	0.00e+00	0	39	0	322961408	55	4977
2026-01-09 01:31:58.04	334.29	19.58	-41.8	-44.7	17.6	0.00e+00	0	39	0	324009984	55	4970
2026-01-09 01:31:59.18	334.03	19.64	-41.7	-44.7	17.7	0.00e+00	0	39	0	326107136	55	4932
2026-01-09 01:32:00.04	333.84	19.69	-41.9	-44.9	17.5	0.00e+00	0	39	0	328204288	55	5043
2026-01-09 01:32:01.19	333.58	19.75	-42.0	-44.9	17.4	0.00e+00	0	39	0	330301440	55	5099
2026-01-09 01:32:02.24	333.34	19.81	-41.8	-44.7	17.6	0.00e+00	0	39	0	332398592	55	4971
2026-01-09 01:32:03.13	333.14	19.85	-41.7	-44.6	17.7	0.00e+00	0	39	0	333447168	55	4904
2026-01-09 01:32:04.59	332.81	19.93	-41.7	-44.5	17.8	0.00e+00	0	39	0	336592896	55	4868
2026-01-09 01:32:05.30	332.64	19.97	-41.6	-44.5	17.9	0.00e+00	0	39	0	337641472	55	4822
2026-01-09 01:32:06.59	332.35	20.03	-41.7	-44.5	17.9	0.00e+00	0	39	0	339738624	55	4839
2026-01-09 01:32:07.31	332.18	20.07	-42.0	-44.8	17.6	0.00e+00	0	39	0	341835776	55	5020
2026-01-09 01:32:08.60	331.88	20.13	-41.9	-44.8	17.5	0.00e+00	0	39	0	343932928	55	5033
2026-01-09 01:32:09.36	331.71	20.17	-42.0	-45.0	17.4	0.00e+00	0	39	0	344981504	55	5130
2026-01-09 01:32:10.65	331.41	20.24	-42.0	-44.9	17.5	0.00e+00	0	39	0	348127232	55	5099
2026-01-09 01:32:11.46	331.22	20.28	-42.1	-45.1	17.3	0.00e+00	0	39	0	349175808	55	5161
2026-01-09 01:32:12.61	330.95	20.33	-41.8	-44.7	17.6	0.00e+00	0	39	0	351272960	55	4942
2026-01-09 01:32:13.47	330.75	20.38	-41.6	-44.4	18.0	0.00e+00	0	39	0	353370112	55	4785
2026-01-09 01:32:14.62	330.48	20.43	-41.3	-43.9	18.4	0.00e+00	0	39	0	355467264	54	4784
2026-01-09 01:32:15.75	330.21	20.49	-41.1	-43.7	18.6	0.00e+00	0	39	0	357564416	54	4678
2026-01-09 01:32:16.80	329.96	20.54	-41.2	-43.7	18.6	0.00e+00	0	39	0	359661568	53	4977
2026-01-09 01:32:17.87	329.70	20.59	-41.1	-43.7	18.6	0.00e+00	0	39	0	361758720	53	4942
2026-01-09 01:32:18.84	329.47	20.63	-41.2	-43.8	18.5	0.00e+00	0	39	0	362807296	53	5019
2026-01-09 01:32:19.84	329.23	20.68	-41.2	-43.9	18.4	0.00e+00	0	39	0	364904448	53	5069
2026-01-09 01:32:20.85	328.99	20.72	-41.4	-44.2	18.2	0.00e+00	0	39	0	367001600	53	5272
2026-01-09 01:32:21.85	328.75	20.77	-41.4	-44.2	18.2	0.00e+00	0	39	0	369098752	53	5249
2026-01-09 01:32:22.85	328.51	20.81	-41.3	-43.9	18.4	0.00e+00	0	39	0	370147328	53	5100
2026-01-09 01:32:23.86	328.26	20.86	-41.2	-43.7	18.6	0.00e+00	0	39	0	372244480	53	4962
2026-01-09 01:32:24.86	328.02	20.90	-41.4	-43.9	18.4	0.00e+00	0	39	0	374341632	53	5069
2026-01-09 01:32:25.87	327.77	20.94	-42.2	-44.6	18.2	0.00e+00	0	39	0	376438784	54	5199
2026-01-09 01:32:26.91	327.52	20.99	-41.4	-44.0	18.5	0.00e+00	0	39	0	378535936	54	4817
2026-01-09 01:32:27.94	327.27	21.03	-41.6	-44.1	18.4	0.00e+00	0	39	0	379584512	54	4915
2026-01-09 01:32:28.98	327.01	21.08	-41.9	-44.5	17.9	0.00e+00	0	39	0	381681664	54	5142
2026-01-09 01:32:30.00	326.76	21.12	-41.9	-44.5	17.9	0.00e+00	0	39	0	383778816	54	5142
2026-01-09 01:32:31.01	326.51	21.16	-42.0	-44.7	17.7	0.00e+00	0	39	0	385875968	55	4967
2026-01-09 01:32:32.01	326.26	21.20	-42.1	-44.8	17.6	0.00e+00	0	39	0	387973120	55	5013
2026-01-09 01:32:33.02	326.01	21.24	-41.8	-44.5	17.9	0.00e+00	0	39	0	390070272	55	4826
2026-01-09 01:32:34.02	325.76	21.28	-41.5	-44.2	18.1	0.00e+00	0	39	0	391118848	55	4690
2026-01-09 01:32:35.02	325.51	21.32	-41.2	-43.9	18.4	0.00e+00	0	39	0	393216000	54	4786
2026-01-09 01:32:36.02	325.26	21.35	-41.1	-43.8	18.5	0.00e+00	0	39	0	395313152	54	4756
2026-01-09 01:32:37.02	325.01	21.39	-41.0	-43.6	18.7	0.00e+00	0	39	0	397410304	54	4645
2026-01-09 01:32:38.03	324.75	21.43	-41.0	-43.6	18.7	0.00e+00	0	39	0	399507456	53	4903
2026-01-09 01:32:39.03	324.50	21.47	-41.1	-43.7	18.6	0.00e+00	0	39	0	400556032	53	4981
2026-01-09 01:32:40.03	324.25	21.50	-41.3	-43.9	18.5	0.00e+00	0	39	0	402653184	53	5057
2026-01-09 01:32:41.04	323.99	21.54	-41.4	-43.9	18.4	0.00e+00	0	39	0	404750336	53	5091
2026-01-09 01:32:42.04	323.74	21.57	-41.4	-44.0	18.4	0.00e+00	0	39	0	406847488	53	5115
2026-01-09 01:32:43.04	323.48	21.61	-41.4	-43.9	18.5	0.00e+00	0	39	0	408944640	53	5094
2026-01-09 01:32:44.05	323.23	21.64	-41.2	-43.7	18.7	0.00e+00	0	39	0	409993216	53	4954
2026-01-09 01:32:45.05	322.97	21.67	-41.1	-43.5	18.8	0.00e+00	0	39	0	412090368	53	4841
2026-01-09 01:32:46.05	322.71	21.71	-40.8	-43.2	19.1	0.00e+00	0	39	0	414187520	53	4654
2026-01-09 01:32:47.06	322.45	21.74	-41.0	-43.5	18.8	0.00e+00	0	39	0	416284672	53	4825
2026-01-09 01:32:48.06	322.20	21.77	-41.4	-43.9	18.4	0.00e+00	0	39	0	418381824	53	5083
2026-01-09 01:32:49.06	321.94	21.80	-41.8	-44.5	17.9	0.00e+00	0	39	0	419430400	54	5110
2026-01-09 01:32:50.06	321.68	21.83	-42.1	-44.8	17.6	0.00e+00	0	39	0	421527552	54	5315
2026-01-09 01:32:51.07	321.42	21.86	-42.3	-45.1	17.3	0.00e+00	0	39	0	423624704	55	5210
2026-01-09 01:32:52.07	321.16	21.89	-42.6	-45.6	16.8	0.00e+00	0	39	0	425721856	55	5515
2026-01-09 01:32:53.07	320.90	21.92	-42.4	-45.5	16.9	0.00e+00	0	39	0	426770432	55	5441
2026-01-09 01:32:54.08	320.63	21.95	-42.6	-45.8	16.6	0.00e+00	0	39	0	428867584	55	5655
2026-01-09 01:32:55.08	320.37	21.98	-42.6	-45.8	16.6	0.00e+00	0	39	0	430964736	55	5653
2026-01-09 01:32:56.09	320.11	22.00	-42.8	-46.1	16.6	0.00e+00	0	39	0	433061888	56	5471
2026-01-09 01:32:57.57	319.72	22.04	-42.8	-46.0	16.6	0.00e+00	0	39	0	436207616	56	5455
2026-01-09 01:32:58.28	319.53	22.06	-42.8	-46.0	16.7	0.00e+00	0	39	0	437256192	56	5409
2026-01-09 01:32:59.58	319.19	22.09	-43.1	-46.2	16.4	0.00e+00	0	39	0	439353344	56	5578
2026-01-09 01:33:00.29	319.00	22.11	-43.0	-46.1	16.4	0.00e+00	0	39	0	440401920	57	5208
2026-01-09 01:33:01.58	318.66	22.14	-43.1	-46.1	16.5	0.00e+00	0	39	0	443547648	57	5191
2026-01-09 01:33:02.30	318.47	22.15	-42.9	-45.9	16.7	0.00e+00	0	39	0	444596224	57	5085
2026-01-09 01:33:03.59	318.13	22.18	-42.8	-45.7	16.8	0.00e+00	0	39	0	446693376	57	4974
2026-01-09 01:33:04.57	317.87	22.20	-42.7	-45.6	17.0	0.00e+00	0	39	0	448790528	57	4875
2026-01-09 01:33:05.57	317.61	22.23	-42.4	-45.2	17.4	0.00e+00	0	39	0	450887680	56	4974
2026-01-09 01:33:06.57	317.34	22.25	-42.2	-45.0	17.6	0.00e+00	0	39	0	452984832	56	4824
2026-01-09 01:33:07.57	317.07	22.27	-42.3	-45.1	17.4	0.00e+00	0	39	0	454033408	56	4903
2026-01-09 01:33:08.57	316.81	22.28	-42.4	-45.2	17.3	0.00e+00	0	39	0	456130560	56	4982
2026-01-09 01:33:09.58	316.54	22.30	-42.5	-45.6	17.0	0.00e+00	0	39	0	458227712	56	5161
2026-01-09 01:33:10.58	316.27	22.32	-42.8	-45.9	16.7	0.00e+00	0	39	0	460324864	56	5400
2026-01-09 01:33:11.58	316.00	22.34	-42.8	-46.0	16.5	0.00e+00	0	39	0	462422016	56	5432
2026-01-09 01:33:12.59	315.73	22.35	-43.0	-46.3	16.4	0.00e+00	0	39	0	463470592	56	5593
2026-01-09 01:33:13.59	315.47	22.37	-42.9	-46.0	16.6	0.00e+00	0	39	0	465567744	56	5448
2026-01-09 01:33:14.59	315.20	22.38	-42.8	-45.9	16.7	0.00e+00	0	39	0	467664896	56	5360
2026-01-09 01:33:15.74	314.89	22.40	-42.6	-45.5	17.1	0.00e+00	0	39	0	469762048	56	5117
2026-01-09 01:33:16.60	314.66	22.41	-42.8	-45.6	16.9	0.00e+00	0	39	0	471859200	56	5218
2026-01-09 01:33:18.00	314.28	22.43	-42.9	-45.9	16.7	0.00e+00	0	39	0	473956352	56	5359
2026-01-09 01:33:18.72	314.09	22.44	-42.9	-45.9	16.7	0.00e+00	0	39	0	475004928	56	5344
2026-01-09 01:33:20.00	313.74	22.45	-43.1	-46.1	16.5	0.00e+00	0	39	0	478150656	56	5497
2026-01-09 01:33:20.72	313.55	22.46	-43.1	-46.2	16.4	0.00e+00	0	39	0	479199232	56	5542
2026-01-09 01:33:22.01	313.20	22.47	-43.2	-46.3	16.2	0.00e+00	0	39	0	481296384	57	5319
2026-01-09 01:33:22.73	313.00	22.48	-43.3	-46.4	16.1	0.00e+00	0	39	0	482344960	57	5391
2026-01-09 01:33:24.02	312.66	22.49	-43.3	-46.5	16.1	0.00e+00	0	39	0	485490688	57	5407
2026-01-09 01:33:24.73	312.46	22.50	-43.3	-46.6	16.0	0.00e+00	0	39	0	486539264	57	5478
2026-01-09 01:33:26.02	312.11	22.51	-43.5	-47.0	15.6	0.00e+00	0	39	0	488636416	57	5750
2026-01-09 01:33:26.74	311.92	22.51	-43.5	-47.0	15.6	0.00e+00	0	39	0	490733568	57	5745
2026-01-09 01:33:28.04	311.57	22.52	-43.7	-47.2	15.5	0.00e+00	0	39	0	492830720	58	5566
2026-01-09 01:33:28.76	311.37	22.52	-43.8	-47.3	15.3	0.00e+00	0	39	0	493879296	58	5652
2026-01-09 01:33:30.08	311.01	22.53	-43.9	-47.5	15.2	0.00e+00	0	39	0	497025024	58	5741
2026-01-09 01:33:30.80	310.82	22.53	-43.9	-47.5	15.2	7.00e-07	0	39	0	498073600	58	5756
2026-01-09 01:33:32.17	310.45	22.54	-44.1	-47.7	14.9	0.00e+00	0	39	0	500170752	58	5872
2026-01-09 01:33:32.88	310.25	22.54	-43.9	-47.4	15.2	0.00e+00	0	39	0	502267904	58	5713
2026-01-09 01:33:34.26	309.88	22.54	-43.8	-47.3	15.3	0.00e+00	0	39	0	504365056	58	5628
2026-01-09 01:33:34.97	309.69	22.54	-43.8	-47.3	15.3	0.00e+00	0	39	0	505413632	58	5593
2026-01-09 01:33:36.26	309.34	22.54	-43.6	-46.9	15.8	0.00e+00	0	39	0	508559360	58	5344
2026-01-09 01:33:36.98	309.14	22.54	-43.5	-46.8	15.8	0.00e+00	0	39	0	509607936	58	5332
2026-01-09 01:33:38.26	308.79	22.54	-43.1	-46.3	16.2	0.00e+00	0	39	0	511705088	58	4995
2026-01-09 01:33:38.98	308.60	22.54	-42.9	-45.9	16.6	0.00e+00	0	39	0	513802240	57	5083
2026-01-09 01:33:40.27	308.25	22.54	-42.6	-45.6	17.0	0.00e+00	0	39	0	515899392	57	4876
2026-01-09 01:33:41.00	308.05	22.53	-42.7	-45.6	17.0	0.00e+00	0	39	0	516947968	57	4889
2026-01-09 01:33:42.29	307.70	22.53	-42.5	-45.4	17.1	0.00e+00	0	39	0	519045120	57	4777
2026-01-09 01:33:43.10	307.48	22.53	-42.4	-45.3	17.3	0.00e+00	0	39	0	521142272	56	4993
2026-01-09 01:33:44.25	307.17	22.52	-42.4	-45.3	17.3	0.00e+00	0	39	0	523239424	56	5007
2026-01-09 01:33:45.11	306.94	22.51	-42.3	-45.1	17.4	0.00e+00	0	39	0	525336576	56	4905
2026-01-09 01:33:46.25	306.63	22.51	-42.2	-44.9	17.7	0.00e+00	0	39	0	527433728	56	4798
2026-01-09 01:33:47.11	306.40	22.50	-42.3	-45.0	17.5	0.00e+00	0	39	0	528482304	56	4850
2026-01-09 01:33:48.26	306.08	22.49	-42.6	-45.4	17.2	0.00e+00	0	39	0	530579456	56	5078
2026-01-09 01:33:49.12	305.85	22.48	-42.8	-45.8	16.8	0.00e+00	0	39	0	532676608	56	5281
2026-01-09 01:33:50.32	305.53	22.47	-43.0	-46.1	16.5	0.00e+00	0	39	0	534773760	56	5484
2026-01-09 01:33:51.19	305.29	22.46	-43.1	-46.2	16.4	0.00e+00	0	39	0	535822336	57	5252
2026-01-09 01:33:52.40	304.97	22.45	-43.1	-46.2	16.4	0.00e+00	0	39	0	538968064	57	5254
2026-01-09 01:33:53.26	304.73	22.44	-43.1	-46.2	16.5	0.00e+00	0	39	0	540016640	57	5230
2026-01-09 01:33:54.41	304.42	22.43	-42.9	-46.0	16.7	0.00e+00	0	39	0	542113792	57	5117
2026-01-09 01:33:55.27	304.19	22.42	-42.8	-45.8	16.8	0.00e+00	0	39	0	544210944	57	4998
2026-01-09 01:33:56.41	303.89	22.40	-42.7	-45.6	17.0	0.00e+00	0	39	0	546308096	57	4873
2026-01-09 01:33:57.27	303.65	22.39	-42.4	-45.2	17.4	0.00e+00	0	39	0	547356672	56	4954
2026-01-09 01:33:58.42	303.34	22.37	-42.2	-44.9	17.7	0.00e+00	0	39	0	549453824	56	4770
2026-01-09 01:33:59.28	303.11	22.36	-42.1	-44.7	17.8	0.00e+00	0	39	0	551550976	56	4688
2026-01-09 01:34:00.42	302.81	22.34	-42.2	-44.9	17.6	0.00e+00	0	39	0	553648128	56	4798
2026-01-09 01:34:01.29	302.58	22.33	-42.3	-45.1	17.5	0.00e+00	0	39	0	554696704	56	4878
2026-01-09 01:34:02.43	302.27	22.31	-42.1	-44.8	17.8	0.00e+00	0	39	0	556793856	56	4721
2026-01-09 01:34:03.29	302.04	22.29	-42.2	-44.9	17.7	0.00e+00	0	39	0	558891008	56	4784
2026-01-09 01:34:04.44	301.73	22.27	-42.1	-44.7	17.8	0.00e+00	0	39	0	560988160	56	4688
2026-01-09 01:34:05.29	301.51	22.25	-41.9	-44.6	17.8	0.00e+00	0	39	0	563085312	55	4879
2026-01-09 01:34:06.44	301.20	22.23	-41.7	-44.2	18.1	0.00e+00	0	39	0	565182464	55	4695
2026-01-09 01:34:07.31	300.97	22.21	-41.7	-44.2	18.1	0.00e+00	0	39	0	566231040	55	4700
2026-01-09 01:34:08.54	300.64	22.18	-41.8	-44.4	18.0	0.00e+00	0	39	0	568328192	55	4765
2026-01-09 01:34:09.40	300.41	22.17	-41.8	-44.4	18.0	0.00e+00	0	39	0	570425344	55	4795
2026-01-09 01:34:10.61	300.09	22.14	-41.9	-44.5	17.9	0.00e+00	0	39	0	572522496	55	4825
2026-01-09 01:34:11.47	299.87	22.12	-41.7	-44.2	18.1	0.00e+00	0	39	0	574619648	55	4693
2026-01-09 01:34:12.61	299.57	22.09	-41.5	-44.0	18.3	0.00e+00	0	39	0	576716800	55	4567
2026-01-09 01:34:13.48	299.34	22.07	-41.4	-43.8	18.5	0.00e+00	0	39	0	577765376	54	4747
2026-01-09 01:34:14.62	299.04	22.04	-41.4	-43.8	18.5	0.00e+00	0	39	0	579862528	54	4750
2026-01-09 01:34:15.48	298.81	22.02	-41.3	-43.8	18.5	0.00e+00	0	39	0	581959680	54	4724
2026-01-09 01:34:16.63	298.51	21.99	-41.2	-43.6	18.7	0.00e+00	0	39	0	584056832	54	4620
2026-01-09 01:34:17.48	298.29	21.97	-41.2	-43.7	18.7	0.00e+00	0	39	0	585105408	54	4668
2026-01-09 01:34:18.63	297.99	21.93	-41.3	-43.7	18.6	0.00e+00	0	39	0	587202560	54	4691
2026-01-09 01:34:19.49	297.76	21.91	-41.4	-43.9	18.5	0.00e+00	0	39	0	589299712	54	4772
2026-01-09 01:34:20.64	297.46	21.88	-41.4	-43.9	18.4	0.00e+00	0	39	0	591396864	54	4809
2026-01-09 01:34:21.50	297.24	21.85	-41.6	-44.2	18.2	0.00e+00	0	39	0	593494016	54	4951
2026-01-09 01:34:22.65	296.94	21.82	-41.3	-43.8	18.6	0.00e+00	0	39	0	595591168	54	4712
2026-01-09 01:34:23.50	296.72	21.79	-41.2	-43.6	18.7	0.00e+00	0	39	0	596639744	54	4649
2026-01-09 01:34:24.65	296.42	21.75	-41.1	-43.5	18.8	0.00e+00	0	39	0	598736896	54	4559
2026-01-09 01:34:25.51	296.20	21.73	-41.1	-43.5	18.8	0.00e+00	0	39	0	600834048	54	4563
2026-01-09 01:34:26.66	295.91	21.69	-41.1	-43.5	18.7	0.00e+00	0	39	0	602931200	54	4567
2026-01-09 01:34:27.51	295.69	21.66	-41.1	-43.4	18.8	0.00e+00	0	39	0	603979776	54	4535
2026-01-09 01:34:28.66	295.39	21.62	-41.0	-43.4	18.9	0.00e+00	0	39	0	606076928	54	4506
2026-01-09 01:34:29.52	295.17	21.59	-41.0	-43.3	19.0	0.00e+00	0	39	0	608174080	53	4738
2026-01-09 01:34:30.67	294.88	21.55	-41.0	-43.3	18.9	0.00e+00	0	39	0	610271232	53	4759
2026-01-09 01:34:31.53	294.66	21.52	-41.2	-43.7	18.7	0.00e+00	0	39	0	612368384	53	4929
2026-01-09 01:34:32.67	294.37	21.48	-41.4	-43.8	18.5	0.00e+00	0	39	0	614465536	53	5012
2026-01-09 01:34:33.53	294.15	21.45	-41.6	-44.1	18.2	0.00e+00	0	39	0	615514112	53	5194
2026-01-09 01:34:34.68	293.86	21.41	-42.1	-44.8	17.5	0.00e+00	0	39	0	617611264	54	5330
2026-01-09 01:34:35.54	293.65	21.38	-42.2	-44.9	17.5	0.00e+00	0	39	0	619708416	55	5060
2026-01-09 01:34:36.69	293.36	21.33	-42.3	-45.1	17.4	0.00e+00	0	39	0	621805568	55	5161
2026-01-09 01:34:37.55	293.14	21.30	-42.3	-45.1	17.4	0.00e+00	0	39	0	622854144	55	5163
2026-01-09 01:34:38.69	292.86	21.26	-42.2	-44.9	17.5	0.00e+00	0	39	0	624951296	55	5054
2026-01-09 01:34:39.55	292.64	21.22	-41.9	-44.5	17.9	0.00e+00	0	39	0	627048448	55	4817
2026-01-09 01:34:40.70	292.35	21.18	-41.9	-44.5	17.9	0.00e+00	0	39	0	629145600	55	4851
2026-01-09 01:34:41.56	292.14	21.14	-42.0	-44.7	17.7	0.00e+00	0	39	0	630194176	55	4931
2026-01-09 01:34:42.70	291.86	21.09	-42.3	-45.0	17.4	0.00e+00	0	39	0	633339904	55	5134
2026-01-09 01:34:43.56	291.65	21.06	-42.4	-45.2	17.3	0.00e+00	0	39	0	634388480	55	5230
2026-01-09 01:34:44.71	291.36	21.01	-42.6	-45.4	17.0	0.00e+00	0	39	0	636485632	55	5397
2026-01-09 01:34:45.64	291.13	20.97	-42.9	-45.8	16.7	0.00e+00	0	39	0	638582784	56	5330
2026-01-09 01:34:46.81	290.85	20.92	-43.1	-46.1	16.5	0.00e+00	0	39	0	640679936	56	5501
2026-01-09 01:34:47.71	290.63	20.88	-43.2	-46.3	16.4	0.00e+00	0	39	0	641728512	57	5295
2026-01-09 01:34:49.02	290.31	20.82	-43.5	-46.7	16.0	0.00e+00	0	39	0	644874240	57	5546
2026-01-09 01:34:49.74	290.13	20.79	-43.4	-46.6	16.0	0.00e+00	0	39	0	645922816	57	5527
2026-01-09 01:34:51.03	289.82	20.73	-43.3	-46.5	16.1	0.00e+00	0	39	0	648019968	57	5406
2026-01-09 01:34:51.75	289.65	20.70	-43.3	-46.5	16.1	0.00e+00	0	39	0	650117120	57	5438
2026-01-09 01:34:53.04	289.34	20.64	-43.1	-46.2	16.4	0.00e+00	0	39	0	652214272	57	5226
2026-01-09 01:34:53.75	289.17	20.61	-43.0	-46.0	16.6	0.00e+00	0	39	0	653262848	57	5135
2026-01-09 01:34:55.04	288.86	20.55	-43.1	-46.1	16.5	0.00e+00	0	39	0	656408576	57	5163
2026-01-09 01:34:55.76	288.69	20.51	-43.0	-45.9	16.7	0.00e+00	0	39	0	657457152	57	5060
2026-01-09 01:34:57.05	288.38	20.45	-42.8	-45.7	16.9	0.00e+00	0	39	0	659554304	57	4944
2026-01-09 01:34:57.77	288.21	20.42	-42.8	-45.6	16.9	0.00e+00	0	39	0	660602880	57	4921
2026-01-09 01:34:59.05	287.91	20.36	-43.1	-46.1	16.4	0.00e+00	0	39	0	663748608	57	5209
2026-01-09 01:34:59.77	287.74	20.32	-43.1	-46.2	16.4	0.00e+00	0	39	0	664797184	57	5231
2026-01-09 01:35:01.06	287.44	20.26	-43.2	-46.3	16.3	0.00e+00	0	39	0	666894336	57	5285
2026-01-09 01:35:01.78	287.27	20.22	-42.9	-45.8	16.7	0.00e+00	0	39	0	668991488	57	5025
2026-01-09 01:35:03.07	286.97	20.16	-42.8	-45.7	16.9	0.00e+00	0	39	0	671088640	57	4936
2026-01-09 01:35:03.78	286.80	20.12	-42.6	-45.4	17.1	0.00e+00	0	39	0	672137216	57	4810
2026-01-09 01:35:05.07	286.50	20.06	-42.4	-45.1	17.4	0.00e+00	0	39	0	674234368	56	4899
2026-01-09 01:35:05.79	286.34	20.02	-42.4	-45.1	17.4	0.00e+00	0	39	0	676331520	56	4903
2026-01-09 01:35:07.08	286.04	19.95	-42.2	-44.8	17.7	0.00e+00	0	39	0	678428672	56	4732
2026-01-09 01:35:07.89	285.85	19.91	-42.0	-44.6	17.8	0.00e+00	0	39	0	680525824	56	4638
2026-01-09 01:35:09.04	285.59	19.85	-41.7	-44.3	18.0	0.00e+00	0	39	0	682622976	55	4750
2026-01-09 01:35:09.90	285.40	19.80	-41.7	-44.3	18.0	0.00e+00	0	39	0	683671552	55	4740
2026-01-09 01:35:11.04	285.14	19.74	-41.7	-44.3	18.0	0.00e+00	0	39	0	685768704	55	4749
2026-01-09 01:35:11.90	284.94	19.70	-41.9	-44.5	17.8	0.00e+00	0	39	0	687865856	55	4855
2026-01-09 01:35:13.05	284.68	19.64	-42.0	-44.7	17.6	0.00e+00	0	39	0	689963008	55	4969
2026-01-09 01:35:13.91	284.49	19.59	-42.1	-44.9	17.5	0.00e+00	0	39	0	691011584	55	5053
2026-01-09 01:35:15.06	284.23	19.53	-42.4	-45.2	17.2	0.00e+00	0	39	0	693108736	55	5266
2026-01-09 01:35:15.92	284.04	19.48	-42.9	-45.8	16.8	0.00e+00	0	39	0	695205888	56	5334
2026-01-09 01:35:17.06	283.79	19.42	-43.0	-46.0	16.6	0.00e+00	0	39	0	697303040	56	5418
2026-01-09 01:35:17.92	283.60	19.37	-43.6	-46.9	15.7	0.00e+00	0	39	0	698351616	57	5677
2026-01-09 01:35:19.23	283.31	19.30	-43.7	-47.2	15.4	7.00e-07	0	39	0	701497344	58	5531
2026-01-09 01:35:19.95	283.15	19.25	-43.7	-47.1	15.5	0.00e+00	0	39	0	702545920	58	5500
2026-01-09 01:35:21.24	282.87	19.18	-43.4	-46.7	15.9	0.00e+00	0	39	0	704643072	58	5251
2026-01-09 01:35:21.96	282.71	19.14	-43.5	-46.8	15.9	0.00e+00	0	39	0	706740224	58	5289
2026-01-09 01:35:23.24	282.43	19.07	-43.4	-46.8	15.8	0.00e+00	0	39	0	708837376	58	5292
2026-01-09 01:35:23.96	282.28	19.03	-43.7	-47.1	15.5	0.00e+00	0	39	0	709885952	58	5499
2026-01-09 01:35:25.25	282.00	18.95	-44.1	-47.8	14.8	0.00e+00	0	39	0	713031680	59	5599
2026-01-09 01:35:25.97	281.85	18.91	-44.2	-48.0	14.5	7.00e-07	0	39	0	714080256	59	5785
2026-01-09 01:35:27.26	281.57	18.84	-44.6	-48.7	13.9	3.80e-06	0	39	0	716177408	59	6258
2026-01-09 01:35:28.17	281.38	18.78	-44.7	-49.0	13.6	6.80e-06	0	39	0	718274560	60	6076
2026-01-09 01:35:29.50	281.09	18.70	-44.6	-48.7	13.9	1.22e-05	0	39	0	720371712	60	5911
2026-01-09 01:35:30.22	280.94	18.66	-44.3	-48.3	14.3	2.20e-06	0	39	0	721420288	60	5633
2026-01-09 01:35:31.51	280.67	18.58	-44.0	-47.8	14.8	0.00e+00	0	39	0	724566016	59	5623
2026-01-09 01:35:32.23	280.52	18.54	-43.8	-47.4	15.1	7.00e-07	0	39	0	725614592	59	5390
2026-01-09 01:35:33.52	280.25	18.46	-43.3	-46.5	16.0	0.00e+00	0	39	0	727711744	58	5153
2026-01-09 01:35:34.24	280.10	18.42	-42.9	-46.0	16.6	0.00e+00	0	39	0	729808896	57	5102
2026-01-09 01:35:35.53	279.83	18.34	-42.5	-45.3	17.2	0.00e+00	0	39	0	731906048	56	5038
2026-01-09 01:35:36.24	279.69	18.30	-42.4	-45.2	17.3	0.00e+00	0	39	0	732954624	56	4957
2026-01-09 01:35:37.55	279.42	18.22	-42.2	-44.9	17.6	0.00e+00	0	39	0	736100352	56	4804
2026-01-09 01:35:38.27	279.27	18.18	-42.1	-44.8	17.6	0.00e+00	0	39	0	737148928	56	4739
2026-01-09 01:35:39.56	279.01	18.10	-42.1	-44.8	17.6	0.00e+00	0	39	0	739246080	56	4733
2026-01-09 01:35:40.28	278.86	18.05	-42.2	-44.9	17.5	0.00e+00	0	39	0	740294656	56	4809
2026-01-09 01:35:41.72	278.57	17.96	-42.3	-45.1	17.4	0.00e+00	0	39	0	743440384	56	4886
2026-01-09 01:35:42.44	278.43	17.92	-42.4	-45.3	17.2	0.00e+00	0	39	0	744488960	56	5004
2026-01-09 01:35:43.80	278.16	17.83	-42.5	-45.4	17.0	0.00e+00	0	39	0	747634688	56	5066
2026-01-09 01:35:44.51	278.01	17.79	-42.6	-45.5	17.0	0.00e+00	0	39	0	748683264	56	5105
2026-01-09 01:35:45.80	277.76	17.71	-42.4	-45.3	17.2	0.00e+00	0	39	0	750780416	56	4991
2026-01-09 01:35:46.51	277.62	17.66	-42.3	-45.2	17.3	0.00e+00	0	39	0	752877568	56	4933
2026-01-09 01:35:47.80	277.36	17.58	-42.1	-44.9	17.6	0.00e+00	0	39	0	754974720	56	4765
2026-01-09 01:35:48.52	277.22	17.54	-42.0	-44.7	17.7	0.00e+00	0	39	0	756023296	56	4692
2026-01-09 01:35:49.81	276.97	17.46	-41.8	-44.4	17.8	0.00e+00	0	39	0	759169024	55	4796
2026-01-09 01:35:50.52	276.83	17.41	-41.8	-44.5	17.8	0.00e+00	0	39	0	760217600	55	4854
2026-01-09 01:35:51.81	276.58	17.33	-42.3	-45.1	17.2	0.00e+00	0	39	0	762314752	55	5205
2026-01-09 01:35:52.59	276.43	17.28	-42.6	-45.6	16.8	0.00e+00	0	39	0	764411904	55	5470
2026-01-09 01:35:53.77	276.21	17.20	-43.1	-46.2	16.4	0.00e+00	0	39	0	766509056	56	5547
2026-01-09 01:35:54.63	276.04	17.15	-43.1	-46.2	16.3	0.00e+00	0	39	0	767557632	57	5269
2026-01-09 01:35:55.78	275.82	17.07	-43.6	-46.9	15.6	0.00e+00	0	39	0	769654784	58	5387
2026-01-09 01:35:56.64	275.66	17.02	-43.7	-47.2	15.4	0.00e+00	0	39	0	771751936	58	5535
2026-01-09 01:35:57.79	275.44	16.94	-44.0	-47.5	15.1	0.00e+00	0	39	0	773849088	58	5755
2026-01-09 01:35:58.65	275.28	16.89	-43.7	-47.1	15.4	0.00e+00	0	39	0	774897664	58	5514
2026-01-09 01:35:59.79	275.07	16.81	-43.6	-47.0	15.6	0.00e+00	0	39	0	776994816	58	5431
2026-01-09 01:36:00.65	274.91	16.76	-43.5	-46.7	15.8	0.00e+00	0	39	0	779091968	58	5272
2026-01-09 01:36:01.80	274.70	16.68	-43.2	-46.4	16.1	0.00e+00	0	39	0	781189120	58	5066
2026-01-09 01:36:02.66	274.54	16.63	-43.2	-46.4	16.1	0.00e+00	0	39	0	782237696	58	5079
2026-01-09 01:36:03.80	274.33	16.55	-43.1	-46.2	16.3	0.00e+00	0	39	0	785383424	58	4958
2026-01-09 01:36:04.71	274.16	16.49	-43.1	-46.2	16.3	0.00e+00	0	39	0	786432000	58	4967
2026-01-09 01:36:05.89	273.95	16.42	-43.0	-46.0	16.4	0.00e+00	0	39	0	788529152	57	5146
2026-01-09 01:36:06.75	273.79	16.36	-43.0	-46.0	16.5	0.00e+00	0	39	0	790626304	57	5135
2026-01-09 01:36:08.12	273.54	16.27	-42.8	-45.7	16.7	0.00e+00	0	39	0	792723456	57	4972
2026-01-09 01:36:08.83	273.42	16.22	-42.8	-45.7	16.7	0.00e+00	0	39	0	793772032	57	4983
2026-01-09 01:36:10.12	273.19	16.14	-42.7	-45.6	16.9	0.00e+00	0	39	0	796917760	57	4924
2026-01-09 01:36:10.84	273.06	16.09	-42.7	-45.7	16.7	0.00e+00	0	39	0	797966336	57	4952
2026-01-09 01:36:12.13	272.83	16.00	-42.8	-45.8	16.6	0.00e+00	0	39	0	800063488	57	5011
2026-01-09 01:36:12.88	272.70	15.95	-43.0	-46.1	16.4	0.00e+00	0	39	0	802160640	57	5170
2026-01-09 01:36:14.17	272.47	15.87	-43.2	-46.4	16.1	0.00e+00	0	39	0	804257792	57	5376
2026-01-09 01:36:14.98	272.33	15.81	-43.3	-46.6	15.9	0.00e+00	0	39	0	805306368	57	5485
2026-01-09 01:36:16.13	272.13	15.74	-43.5	-46.9	15.6	0.00e+00	0	39	0	808452096	57	5676
2026-01-09 01:36:16.99	271.98	15.68	-43.4	-46.7	15.7	0.00e+00	0	39	0	809500672	57	5574
2026-01-09 01:36:18.13	271.78	15.60	-43.4	-46.7	15.8	0.00e+00	0	39	0	811597824	57	5561
2026-01-09 01:36:18.99	271.64	15.54	-43.3	-46.5	15.9	0.00e+00	0	39	0	813694976	57	5462
2026-01-09 01:36:20.14	271.44	15.47	-43.0	-46.1	16.4	0.00e+00	0	39	0	815792128	57	5183
2026-01-09 01:36:21.36	271.23	15.39	-42.8	-45.8	16.7	0.00e+00	0	39	0	817889280	57	4988
2026-01-09 01:36:22.22	271.09	15.33	-42.8	-45.8	16.8	0.00e+00	0	39	0	818937856	57	4984
2026-01-09 01:36:23.37	270.89	15.25	-42.8	-45.9	16.6	0.00e+00	0	39	0	822083584	57	5064
2026-01-09 01:36:24.23	270.75	15.19	-43.0	-45.9	16.6	0.00e+00	0	39	0	823132160	57	5088
2026-01-09 01:36:25.38	270.56	15.12	-43.2	-46.2	16.4	0.00e+00	0	39	0	825229312	57	5223
2026-01-09 01:36:26.23	270.42	15.06	-43.2	-46.2	16.3	0.00e+00	0	39	0	827326464	57	5254
2026-01-09 01:36:27.41	270.22	14.98	-43.4	-46.5	16.1	0.00e+00	0	39	0	829423616	57	5449
2026-01-09 01:36:28.27	270.08	14.92	-43.4	-46.5	16.1	0.00e+00	0	39	0	830472192	57	5436
2026-01-09 01:36:29.50	269.88	14.84	-43.5	-46.6	16.0	0.00e+00	0	39	0	833617920	57	5484
2026-01-09 01:36:30.36	269.74	14.78	-43.4	-46.5	16.0	0.00e+00	0	39	0	834666496	57	5435
2026-01-09 01:36:31.57	269.54	14.70	-43.3	-46.3	16.1	0.00e+00	0	39	0	836763648	57	5337
2026-01-09 01:36:32.43	269.40	14.64	-43.2	-46.2	16.3	0.00e+00	0	39	0	838860800	57	5246
2026-01-09 01:36:33.66	269.21	14.55	-43.0	-45.8	16.7	0.00e+00	0	39	0	840957952	57	5023
2026-01-09 01:36:34.52	269.07	14.50	-43.0	-45.8	16.7	0.00e+00	0	39	0	842006528	57	5022
2026-01-09 01:36:35.66	268.89	14.42	-42.7	-45.5	17.0	0.00e+00	0	39	0	844103680	57	4817
2026-01-09 01:36:36.52	268.75	14.36	-42.7	-45.4	17.1	0.00e+00	0	39	0	846200832	57	4787
2026-01-09 01:36:37.67	268.57	14.28	-42.7	-45.4	17.1	0.00e+00	0	39	0	848297984	57	4789
2026-01-09 01:36:38.53	268.44	14.22	-42.8	-45.6	16.9	0.00e+00	0	39	0	850395136	57	4895
2026-01-09 01:36:39.68	268.26	14.15	-42.7	-45.5	17.0	0.00e+00	0	39	0	852492288	57	4816
2026-01-09 01:36:40.65	268.11	14.08	-42.7	-45.5	17.0	0.00e+00	0	39	0	853540864	57	4827
2026-01-09 01:36:41.65	267.95	14.01	-42.6	-45.3	17.1	0.00e+00	0	39	0	855638016	56	5038
2026-01-09 01:36:42.66	267.80	13.94	-42.4	-45.1	17.4	0.00e+00	0	39	0	857735168	56	4892
2026-01-09 01:36:43.66	267.64	13.88	-42.0	-44.6	17.9	0.00e+00	0	39	0	859832320	56	4606
2026-01-09 01:36:44.66	267.49	13.81	-41.7	-44.2	18.0	0.00e+00	0	39	0	861929472	55	4690
2026-01-09 01:36:45.66	267.34	13.74	-41.6	-44.1	18.1	0.00e+00	0	39	0	862978048	55	4649
2026-01-09 01:36:46.67	267.18	13.67	-41.5	-43.9	18.3	0.00e+00	0	39	0	865075200	54	4801
2026-01-09 01:36:47.67	267.03	13.60	-41.5	-44.0	18.2	0.00e+00	0	39	0	867172352	54	4841
2026-01-09 01:36:48.67	266.88	13.53	-41.6	-44.1	18.2	0.00e+00	0	39	0	869269504	54	4888
2026-01-09 01:36:49.68	266.73	13.47	-41.7	-44.2	18.0	0.00e+00	0	39	0	871366656	54	4966
2026-01-09 01:36:50.68	266.59	13.40	-41.8	-44.4	17.8	0.00e+00	0	39	0	872415232	54	5074
2026-01-09 01:36:51.68	266.44	13.33	-41.9	-44.5	17.7	0.00e+00	0	39	0	874512384	54	5157
2026-01-09 01:36:52.68	266.29	13.26	-42.2	-44.9	17.4	0.00e+00	0	39	0	876609536	54	5344
2026-01-09 01:36:53.77	266.13	13.19	-42.3	-45.0	17.2	0.00e+00	0	39	0	878706688	55	5127
2026-01-09 01:36:54.66	266.00	13.13	-42.5	-45.3	17.0	0.00e+00	0	39	0	879755264	55	5329
2026-01-09 01:36:55.80	265.84	13.05	-42.7	-45.5	17.0	0.00e+00	0	39	0	882900992	56	5142
2026-01-09 01:36:56.65	265.72	12.99	-42.7	-45.6	16.9	0.00e+00	0	39	0	883949568	56	5169
2026-01-09 01:36:58.02	265.52	12.90	-42.7	-45.5	16.9	0.00e+00	0	39	0	886046720	56	5129
2026-01-09 01:36:58.74	265.42	12.85	-42.6	-45.4	17.0	0.00e+00	0	39	0	888143872	56	5073
2026-01-09 01:37:00.03	265.23	12.76	-42.5	-45.2	17.2	0.00e+00	0	39	0	890241024	56	4963
2026-01-09 01:37:00.75	265.13	12.71	-42.3	-44.9	17.5	0.00e+00	0	39	0	891289600	56	4805
2026-01-09 01:37:02.04	264.95	12.62	-42.0	-44.6	17.8	0.00e+00	0	39	0	894435328	56	4615
2026-01-09 01:37:02.75	264.85	12.58	-42.0	-44.5	17.9	0.00e+00	0	39	0	895483904	56	4570
2026-01-09 01:37:04.05	264.67	12.49	-41.8	-44.3	17.9	0.00e+00	0	39	0	897581056	55	4730
2026-01-09 01:37:04.76	264.57	12.44	-41.7	-44.2	18.0	0.00e+00	0	39	0	899678208	55	4672
2026-01-09 01:37:06.05	264.39	12.35	-41.8	-44.3	17.9	0.00e+00	0	39	0	901775360	55	4717
2026-01-09 01:37:06.77	264.29	12.30	-41.8	-44.3	17.9	0.00e+00	0	39	0	902823936	55	4740
2026-01-09 01:37:08.06	264.12	12.22	-42.0	-44.6	17.7	0.00e+00	0	39	0	904921088	55	4883
2026-01-09 01:37:08.78	264.02	12.17	-42.2	-44.8	17.4	0.00e+00	0	39	0	907018240	55	5031
2026-01-09 01:37:10.18	263.83	12.07	-42.5	-45.3	16.9	0.00e+00	0	39	0	909115392	55	5304
2026-01-09 01:37:11.16	263.70	12.01	-42.5	-45.4	16.9	0.00e+00	0	39	0	911212544	55	5360
2026-01-09 01:37:12.47	263.52	11.92	-42.6	-45.6	16.7	0.00e+00	0	39	0	913309696	55	5484
2026-01-09 01:37:13.18	263.43	11.87	-43.0	-46.0	16.4	0.00e+00	0	39	0	915406848	56	5435
2026-01-09 01:37:14.47	263.25	11.78	-43.0	-46.0	16.4	0.00e+00	0	39	0	917504000	56	5424
2026-01-09 01:37:15.19	263.16	11.73	-43.2	-46.3	16.1	0.00e+00	0	39	0	918552576	57	5316
2026-01-09 01:37:16.48	262.99	11.65	-43.3	-46.4	16.0	0.00e+00	0	39	0	920649728	57	5390
2026-01-09 01:37:17.20	262.90	11.60	-43.2	-46.4	16.1	0.00e+00	0	39	0	922746880	57	5361
2026-01-09 01:37:18.48	262.73	11.51	-43.3	-46.4	16.0	0.00e+00	0	39	0	924844032	57	5378
2026-01-09 01:37:19.20	262.64	11.46	-43.2	-46.3	16.1	0.00e+00	0	39	0	925892608	57	5330
2026-01-09 01:37:20.58	262.46	11.37	-43.2	-46.2	16.2	0.00e+00	0	39	0	929038336	57	5255
2026-01-09 01:37:21.30	262.36	11.32	-43.0	-46.0	16.5	0.00e+00	0	39	0	930086912	57	5102
2026-01-09 01:37:22.65	262.19	11.23	-42.9	-45.8	16.6	0.00e+00	0	39	0	933232640	57	5008
2026-01-09 01:37:23.37	262.10	11.18	-42.5	-45.3	17.1	0.00e+00	0	39	0	934281216	57	4722
2026-01-09 01:37:24.66	261.94	11.09	-42.2	-44.8	17.5	0.00e+00	0	39	0	936378368	56	4727
2026-01-09 01:37:25.37	261.85	11.05	-42.0	-44.6	17.8	0.00e+00	0	39	0	937426944	56	4603
2026-01-09 01:37:26.79	261.67	10.95	-41.8	-44.4	17.8	0.00e+00	0	39	0	940572672	55	4781
2026-01-09 01:37:27.50	261.58	10.90	-41.9	-44.5	17.7	0.00e+00	0	39	0	941621248	55	4833
2026-01-09 01:37:28.86	261.41	10.81	-42.1	-44.7	17.4	0.00e+00	0	39	0	944766976	55	4934
2026-01-09 01:37:29.57	261.32	10.77	-42.2	-44.8	17.4	0.00e+00	0	39	0	945815552	55	5020
2026-01-09 01:37:30.86	261.17	10.68	-42.3	-44.9	17.2	0.00e+00	0	39	0	947912704	55	5100
2026-01-09 01:37:31.58	261.08	10.63	-42.6	-45.4	16.8	0.00e+00	0	39	0	948961280	55	5364
2026-01-09 01:37:32.86	260.92	10.55	-43.0	-46.0	16.4	0.00e+00	0	39	0	952107008	56	5415
2026-01-09 01:37:33.58	260.83	10.50	-43.2	-46.2	16.2	0.00e+00	0	39	0	953155584	57	5261
2026-01-09 01:37:34.87	260.68	10.41	-43.2	-46.3	16.1	0.00e+00	0	39	0	955252736	57	5326
2026-01-09 01:37:35.59	260.59	10.36	-43.4	-46.6	15.8	0.00e+00	0	39	0	957349888	57	5478
2026-01-09 01:37:36.88	260.44	10.28	-43.3	-46.4	16.0	0.00e+00	0	39	0	959447040	57	5358
2026-01-09 01:37:37.59	260.35	10.23	-43.3	-46.4	16.0	0.00e+00	0	39	0	960495616	57	5373
2026-01-09 01:37:38.88	260.20	10.14	-43.3	-46.4	16.0	0.00e+00	0	39	0	963641344	57	5376
2026-01-09 01:37:39.60	260.12	10.10	-43.2	-46.2	16.2	0.00e+00	0	39	0	964689920	57	5238
2026-01-09 01:37:40.89	259.96	10.01	-43.0	-46.0	16.4	0.00e+00	0	39	0	966787072	57	5111
2026-01-09 01:37:41.61	259.88	9.96	-43.0	-45.9	16.4	0.00e+00	0	39	0	967835648	57	5094
2026-01-09 01:37:42.90	259.73	9.88	-42.9	-45.8	16.5	0.00e+00	0	39	0	970981376	57	5036
2026-01-09 01:37:43.62	259.65	9.83	-42.9	-45.9	16.4	0.00e+00	0	39	0	972029952	57	5097
2026-01-09 01:37:44.91	259.50	9.75	-43.0	-46.1	16.3	0.00e+00	0	39	0	974127104	57	5177
2026-01-09 01:37:45.62	259.42	9.70	-43.1	-46.2	16.2	0.00e+00	0	39	0	976224256	57	5237
2026-01-09 01:37:46.92	259.27	9.61	-43.0	-46.1	16.2	0.00e+00	0	39	0	978321408	57	5186
2026-01-09 01:37:47.63	259.19	9.57	-43.2	-46.4	16.0	0.00e+00	0	39	0	979369984	57	5363
2026-01-09 01:37:48.92	259.04	9.48	-43.3	-46.5	15.9	0.00e+00	0	39	0	981467136	57	5427
2026-01-09 01:37:49.65	258.96	9.43	-43.4	-46.6	15.7	0.00e+00	0	39	0	983564288	57	5499
2026-01-09 01:37:51.29	258.77	9.33	-43.4	-46.6	15.7	0.00e+00	0	39	0	986710016	57	5497
2026-01-09 01:37:51.87	258.71	9.29	-43.3	-46.4	15.9	0.00e+00	0	39	0	987758592	57	5350
2026-01-09 01:37:53.49	258.53	9.18	-43.5	-46.7	15.6	0.00e+00	0	39	0	990904320	57	5583
2026-01-09 01:37:54.06	258.47	9.14	-43.6	-46.8	15.5	0.00e+00	0	39	0	991952896	57	5611
2026-01-09 01:37:55.64	258.29	9.04	-43.7	-47.0	15.4	0.00e+00	0	39	0	994050048	58	5434
2026-01-09 01:37:56.37	258.21	8.99	-43.7	-46.9	15.4	0.00e+00	0	39	0	996147200	58	5397
2026-01-09 01:37:57.66	258.07	8.91	-48.1	-63.5	3.8	1.49e+00	0	39	104	997195776	67	21708
2026-01-09 01:37:58.38	258.00	8.86	-48.3	-63.7	3.8	1.49e+00	0	39	104	997195776	67	22199
2026-01-09 01:37:59.67	257.86	8.78	-48.4	-64.0	3.8	1.49e+00	0	39	104	997195776	67	22794
2026-01-09 01:38:00.39	257.78	8.73	-48.6	-64.0	3.8	1.49e+00	0	39	104	997195776	67	22828
2026-01-09 01:38:01.68	257.64	8.65	-49.0	-64.3	3.8	1.49e+00	0	39	104	997195776	68	22345
2026-01-09 01:38:02.40	257.57	8.60	-49.0	-64.3	3.8	1.49e+00	0	39	104	997195776	68	22445
2026-01-09 01:38:03.78	257.42	8.51	-48.8	-64.3	3.8	1.49e+00	0	39	104	997195776	68	22401
2026-01-09 01:38:04.50	257.34	8.47	-48.9	-64.3	3.8	1.49e+00	0	39	104	997195776	68	22376
2026-01-09 01:38:05.85	257.20	8.38	-49.0	-64.3	3.8	1.49e+00	0	39	104	997195776	68	22402
2026-01-09 01:38:06.57	257.13	8.33	-49.0	-64.3	3.8	1.49e+00	0	39	104	997195776	68	22343
2026-01-09 01:38:07.86	256.99	8.25	-49.0	-64.3	3.8	1.49e+00	0	39	104	997195776	68	22324
2026-01-09 01:38:08.58	256.92	8.20	-48.9	-64.3	3.8	1.49e+00	0	39	104	997195776	68	22268
2026-01-09 01:38:09.87	256.79	8.12	-48.9	-64.3	3.8	1.49e+00	0	39	104	997195776	68	22371
2026-01-09 01:38:10.59	256.71	8.07	-48.9	-64.3	3.8	1.49e+00	0	39	104	997195776	68	22403
2026-01-09 01:38:11.88	256.58	7.99	-48.9	-64.3	3.8	1.49e+00	0	39	104	997195776	68	22276
2026-01-09 01:38:12.60	256.51	7.94	-49.0	-64.3	3.8	1.49e+00	0	39	104	997195776	68	22362
2026-01-09 01:38:13.89	256.38	7.86	-49.0	-64.3	3.8	1.49e+00	0	39	104	997195776	68	22355
2026-01-09 01:38:14.61	256.31	7.82	-49.0	-64.3	3.8	1.49e+00	0	39	104	997195776	68	22400
2026-01-09 01:38:15.90	256.18	7.73	-49.0	-64.2	3.8	1.49e+00	0	39	104	997195776	68	22172
2026-01-09 01:38:16.62	256.10	7.69	-49.0	-64.3	3.8	1.49e+00	0	39	104	997195776	68	22370
2026-01-09 01:38:17.91	255.98	7.61	-48.8	-64.3	3.8	1.49e+00	0	39	104	997195776	68	22294
2026-01-09 01:38:18.63	255.91	7.56	-48.7	-64.2	3.8	1.49e+00	0	39	104	997195776	68	22202
2026-01-09 01:38:19.92	255.78	7.48	-48.7	-64.2	3.8	1.49e+00	0	39	104	997195776	68	22149
2026-01-09 01:38:20.63	255.71	7.43	-48.7	-64.2	3.8	1.49e+00	0	39	104	997195776	68	22183
2026-01-09 01:38:21.92	255.58	7.35	-48.7	-64.2	3.8	1.49e+00	0	39	104	997195776	68	22135
2026-01-09 01:38:22.64	255.51	7.31	-48.7	-64.2	3.8	1.49e+00	0	39	104	997195776	68	22108
2026-01-09 01:38:23.93	255.39	7.22	-48.7	-64.2	3.8	1.49e+00	0	39	104	997195776	68	22128
2026-01-09 01:38:24.65	255.32	7.18	-48.7	-64.2	3.8	1.49e+00	0	39	104	997195776	68	22072
2026-01-09 01:38:25.94	255.20	7.10	-48.7	-64.2	3.8	1.49e+00	0	39	104	997195776	68	22112
2026-01-09 01:38:26.66	255.13	7.05	-48.7	-64.2	3.8	1.49e+00	0	39	104	997195776	68	22074
2026-01-09 01:38:27.95	255.00	6.97	-48.7	-64.2	3.8	1.49e+00	0	39	104	997195776	68	22034
2026-01-09 01:38:28.67	254.94	6.93	-48.7	-64.2	3.8	1.49e+00	0	39	104	997195776	68	22065
2026-01-09 01:38:29.96	254.82	6.85	-48.7	-64.2	3.8	1.49e+00	0	39	104	997195776	68	22010
2026-01-09 01:38:30.68	254.75	6.80	-48.7	-64.2	3.8	1.49e+00	0	39	104	997195776	68	22049
2026-01-09 01:38:31.97	254.63	6.72	-48.7	-64.2	3.8	1.49e+00	0	39	104	997195776	68	22103
2026-01-09 01:38:32.69	254.56	6.67	-48.7	-64.2	3.8	1.49e+00	0	39	104	997195776	68	22069
2026-01-09 01:38:33.98	254.44	6.59	-48.7	-64.2	3.8	1.49e+00	0	40	104	997195776	68	22092
2026-01-09 01:38:34.69	254.38	6.55	-48.7	-64.2	3.8	1.49e+00	0	39	104	997195776	68	22080
2026-01-09 01:38:35.99	254.26	6.47	-48.7	-64.2	3.8	1.49e+00	0	39	104	997195776	68	22107
2026-01-09 01:38:36.70	254.19	6.42	-48.7	-64.1	3.8	1.49e+00	0	39	104	997195776	68	21960
2026-01-09 01:38:38.00	254.07	6.34	-48.7	-64.1	3.8	1.49e+00	0	39	104	997195776	68	21970
2026-01-09 01:38:38.71	254.01	6.30	-48.7	-64.2	3.8	1.49e+00	0	39	104	997195776	68	22019
2026-01-09 01:38:40.00	253.89	6.22	-48.7	-64.2	3.8	1.49e+00	0	39	104	997195776	68	22067
2026-01-09 01:38:40.72	253.83	6.18	-48.7	-64.2	3.8	1.49e+00	0	39	104	997195776	68	22073
2026-01-09 01:38:42.01	253.71	6.10	-48.7	-64.1	3.8	1.49e+00	0	39	104	997195776	68	21980
2026-01-09 01:38:42.73	253.65	6.05	-48.7	-64.2	3.8	1.49e+00	0	39	104	997195776	68	22162
2026-01-09 01:38:44.02	253.54	5.97	-48.7	-64.2	3.8	1.49e+00	0	39	104	997195776	68	22069
2026-01-09 01:38:44.74	253.47	5.93	-48.7	-64.2	3.8	1.49e+00	0	39	104	997195776	68	22024
2026-01-09 01:38:46.03	253.36	5.85	-48.7	-64.2	3.8	1.49e+00	0	39	104	997195776	68	22052
2026-01-09 01:38:46.75	253.30	5.80	-48.7	-64.2	3.8	1.49e+00	0	39	104	997195776	68	22031
2026-01-09 01:38:48.04	253.18	5.73	-48.7	-64.1	3.8	1.49e+00	0	39	104	997195776	68	22007
2026-01-09 01:38:48.76	253.12	5.68	-48.7	-64.1	3.8	1.49e+00	0	39	104	997195776	68	22005
2026-01-09 01:38:50.05	253.01	5.60	-48.7	-64.2	3.8	1.49e+00	0	39	104	997195776	68	22015
2026-01-09 01:38:50.77	252.95	5.56	-48.7	-64.1	3.8	1.49e+00	0	40	104	997195776	68	21948
2026-01-09 01:38:52.06	252.84	5.48	-48.7	-64.1	3.8	1.49e+00	0	39	104	997195776	68	21999
2026-01-09 01:38:52.78	252.78	5.44	-48.7	-64.1	3.8	1.49e+00	0	39	104	997195776	68	21999
2026-01-09 01:38:54.07	252.67	5.36	-48.7	-64.2	3.8	1.49e+00	0	39	104	997195776	68	22060
2026-01-09 01:38:54.79	252.61	5.31	-48.7	-64.2	3.8	1.49e+00	0	40	104	997195776	68	22068
2026-01-09 01:38:56.08	252.50	5.24	-48.7	-64.2	3.8	1.49e+00	0	39	104	997195776	68	22063
2026-01-09 01:38:56.79	252.44	5.19	-48.7	-64.2	3.8	1.49e+00	0	40	104	997195776	68	22091
2026-01-09 01:38:58.09	252.33	5.11	-48.7	-64.2	3.8	1.49e+00	0	39	104	997195776	68	22105
2026-01-09 01:38:58.80	252.27	5.07	-48.7	-64.2	3.8	1.49e+00	0	40	104	997195776	68	22086
2026-01-09 01:39:00.10	252.17	4.99	-48.7	-64.2	3.8	1.49e+00	0	39	104	997195776	68	22067

#Closed at: 2026-01-09 01:39:00
#Recorded file [997 MB]: D:/Data/31040_260109_042811.dat