passes_logs/2026/01/09/T1/T1__20260109_004745_FENGYUN_3D_rec.log

#Pass ID: 20260109_004745_FENGYUN 3D
#Satellite: FENGYUN 3D
#Configuration: FENGYUN 3D
#almurnet v.1.7.20251203
#Start time: 2026-01-09 00:47:46

#Version: 2.0.20230620
#Station: T1
#Location: 37.570604 lon 55.790049 lat
#TLE: 1 43010U 17072A   26008.51967461  .00000013  00000+0  27718-4 0  9992
#TLE: 2 43010  98.9935 340.2353 0002115 119.1573 240.9815 14.19693759422336

#Time	Az	El	Level	Level2	SNR	BER	BlckErr	Temp	State	Recorded	gain1	gain2
2026-01-09 00:47:46.67	24.25	5.04	-48.2	-60.5	3.8	8.47e-01	0	37	0	0	67	15389
2026-01-09 00:47:47.67	24.31	5.10	-48.2	-60.5	3.8	8.47e-01	0	38	104	0	67	15389
2026-01-09 00:47:48.67	24.36	5.17	-48.2	-60.5	3.8	8.47e-01	0	38	104	0	67	15346
2026-01-09 00:47:49.68	24.42	5.24	-48.2	-60.5	3.8	8.47e-01	0	38	104	0	67	15329
2026-01-09 00:47:50.68	24.48	5.30	-48.2	-60.5	3.8	8.46e-01	0	38	104	0	67	15299
2026-01-09 00:47:51.68	24.54	5.37	-48.2	-60.5	3.8	8.47e-01	0	38	104	0	67	15304
2026-01-09 00:47:52.69	24.60	5.44	-48.2	-60.5	3.8	8.48e-01	0	38	104	0	67	15238
2026-01-09 00:47:53.69	24.65	5.50	-48.2	-60.5	3.8	8.46e-01	0	38	104	0	67	15313
2026-01-09 00:47:54.70	24.71	5.57	-48.2	-60.5	3.8	8.48e-01	0	38	104	0	67	15229
2026-01-09 00:47:55.70	24.77	5.64	-48.1	-60.4	3.8	8.48e-01	0	38	104	0	67	15094
2026-01-09 00:47:56.70	24.83	5.70	-48.2	-60.4	3.8	8.46e-01	0	38	104	0	67	15093
2026-01-09 00:47:57.71	24.89	5.77	-48.1	-60.3	3.8	8.46e-01	0	38	104	0	67	14960
2026-01-09 00:47:58.71	24.95	5.84	-48.1	-60.3	3.8	8.47e-01	0	38	104	0	67	14914
2026-01-09 00:47:59.72	25.01	5.91	-48.1	-60.2	3.8	8.48e-01	0	38	104	0	67	14803
2026-01-09 00:48:00.72	25.07	5.98	-48.1	-60.2	3.8	8.48e-01	0	38	104	0	67	14780
2026-01-09 00:48:01.73	25.13	6.05	-48.1	-60.2	3.8	8.46e-01	0	38	104	0	67	14852
2026-01-09 00:48:02.73	25.20	6.11	-48.1	-60.3	3.8	8.47e-01	0	38	104	0	67	14899
2026-01-09 00:48:03.73	25.26	6.18	-48.1	-60.3	3.8	8.46e-01	0	38	104	0	67	14926
2026-01-09 00:48:04.74	25.32	6.25	-48.1	-60.3	3.8	8.46e-01	0	38	104	0	67	14948
2026-01-09 00:48:05.74	25.38	6.32	-48.2	-60.3	3.8	8.47e-01	0	38	104	0	67	15038
2026-01-09 00:48:06.75	25.44	6.39	-48.2	-60.4	3.8	8.46e-01	0	38	104	0	67	15097
2026-01-09 00:48:07.75	25.51	6.46	-48.2	-60.4	3.8	8.47e-01	0	38	104	0	67	15054
2026-01-09 00:48:08.75	25.57	6.53	-48.2	-60.3	3.8	8.45e-01	0	38	104	0	67	14964
2026-01-09 00:48:09.76	25.63	6.60	-48.1	-60.2	3.8	8.47e-01	0	38	104	0	67	14859
2026-01-09 00:48:10.76	25.69	6.67	-48.1	-60.3	3.8	8.46e-01	0	39	104	0	67	14955
2026-01-09 00:48:11.77	25.76	6.74	-48.2	-60.2	3.8	8.47e-01	0	39	104	0	67	14859
2026-01-09 00:48:12.77	25.82	6.81	-48.2	-60.3	3.8	8.45e-01	0	39	104	0	67	14945
2026-01-09 00:48:13.78	25.89	6.88	-48.2	-60.4	3.8	8.47e-01	0	39	104	0	67	15119
2026-01-09 00:48:14.78	25.95	6.95	-48.2	-60.5	3.8	8.47e-01	0	39	104	0	67	15259
2026-01-09 00:48:15.78	26.02	7.02	-48.2	-60.6	3.8	8.45e-01	0	39	104	0	67	15419
2026-01-09 00:48:16.79	26.08	7.09	-48.2	-60.5	3.8	8.47e-01	0	39	104	0	67	15300
2026-01-09 00:48:17.79	26.15	7.16	-48.2	-60.4	3.8	8.47e-01	0	39	104	0	67	15112
2026-01-09 00:48:18.80	26.21	7.23	-48.1	-60.1	3.8	8.47e-01	0	39	104	0	67	14702
2026-01-09 00:48:19.80	26.28	7.30	-48.1	-59.7	3.8	8.48e-01	0	39	104	0	67	13984
2026-01-09 00:48:20.80	26.34	7.38	-48.0	-59.2	3.8	8.46e-01	0	38	104	0	67	13256
2026-01-09 00:48:21.81	26.41	7.45	-48.0	-59.1	3.8	8.47e-01	0	38	104	0	67	12993
2026-01-09 00:48:22.81	26.48	7.52	-48.0	-59.0	3.8	8.46e-01	0	39	104	0	67	12834
2026-01-09 00:48:23.82	26.55	7.59	-48.0	-59.0	3.8	8.46e-01	0	39	104	0	67	12957
2026-01-09 00:48:24.82	26.61	7.66	-48.1	-59.6	3.8	8.45e-01	0	39	104	0	67	13788
2026-01-09 00:48:25.83	26.68	7.74	-48.2	-60.2	3.8	8.47e-01	0	39	104	0	67	14822
2026-01-09 00:48:26.83	26.75	7.81	-48.2	-60.5	3.8	8.47e-01	0	39	104	0	67	15268
2026-01-09 00:48:27.83	26.82	7.88	-48.2	-60.2	3.8	8.46e-01	0	39	104	0	67	14862
2026-01-09 00:48:28.84	26.89	7.95	-48.1	-59.4	3.8	8.47e-01	0	39	104	0	67	13540
2026-01-09 00:48:29.84	26.95	8.03	-47.9	-58.2	3.8	8.46e-01	0	39	104	0	67	11692
2026-01-09 00:48:30.85	27.02	8.10	-47.7	-56.7	4.3	8.37e-01	0	39	0	0	67	9840
2026-01-09 00:48:31.85	27.09	8.17	-47.5	-55.6	4.7	8.18e-01	0	39	0	0	67	8699
2026-01-09 00:48:32.85	27.16	8.25	-47.4	-55.1	5.0	7.90e-01	0	39	0	0	66	8683
2026-01-09 00:48:33.86	27.23	8.32	-47.3	-54.8	5.1	7.57e-01	0	39	0	0	66	8379
2026-01-09 00:48:34.86	27.31	8.40	-47.3	-54.7	5.1	7.53e-01	0	39	0	0	66	8349
2026-01-09 00:48:35.87	27.38	8.47	-47.3	-54.8	5.1	7.58e-01	0	39	0	0	66	8397
2026-01-09 00:48:36.87	27.45	8.54	-47.3	-54.8	5.1	7.59e-01	0	39	0	0	66	8439
2026-01-09 00:48:37.88	27.52	8.62	-47.2	-54.5	5.2	7.48e-01	0	39	0	0	66	8134
2026-01-09 00:48:38.88	27.59	8.69	-47.1	-54.2	5.4	7.17e-01	0	39	0	0	66	7832
2026-01-09 00:48:39.88	27.66	8.77	-46.9	-53.3	6.1	4.15e-01	0	39	0	4194304	65	7512
2026-01-09 00:48:40.89	27.74	8.84	-46.6	-52.5	6.7	2.55e-01	0	39	0	9437184	65	6854
2026-01-09 00:48:41.89	27.81	8.92	-46.3	-51.6	7.6	1.50e-01	0	39	0	14680064	64	6554
2026-01-09 00:48:42.90	27.88	8.99	-45.8	-50.5	8.8	6.38e-02	0	39	0	20971520	63	6074
2026-01-09 00:48:43.90	27.96	9.07	-45.1	-49.2	10.2	1.70e-02	0	39	0	26214400	62	5541
2026-01-09 00:48:44.90	28.03	9.15	-48.1	-59.6	3.8	8.37e-01	0	39	104	29360128	66	14680
2026-01-09 00:48:45.91	28.11	9.22	-42.6	-45.3	14.2	1.56e-01	0	39	0	30408704	57	4721
2026-01-09 00:48:46.91	28.18	9.30	-44.7	-48.4	11.0	1.20e-03	0	39	0	35651584	59	6029
2026-01-09 00:48:47.91	28.26	9.37	-40.4	-42.6	16.7	5.70e-06	0	39	0	41943040	52	4645
2026-01-09 00:48:48.92	28.33	9.45	-40.2	-42.4	17.0	0.00e+00	0	40	0	47185920	52	4499
2026-01-09 00:48:49.92	28.41	9.53	-40.1	-42.3	17.2	0.00e+00	0	39	0	53477376	51	4722
2026-01-09 00:48:50.94	28.49	9.61	-40.0	-42.1	17.3	0.00e+00	0	39	0	58720256	51	4624
2026-01-09 00:48:51.97	28.57	9.69	-39.6	-41.7	17.7	0.00e+00	0	39	0	63963136	51	4427
2026-01-09 00:48:52.97	28.64	9.76	-39.8	-41.9	17.5	0.00e+00	0	39	0	70254592	51	4540
2026-01-09 00:48:53.97	28.72	9.84	-39.6	-41.7	17.7	0.00e+00	0	39	0	75497472	51	4392
2026-01-09 00:48:54.97	28.80	9.92	-39.5	-41.5	17.9	0.00e+00	0	39	0	81788928	51	4325
2026-01-09 00:48:55.98	28.88	10.00	-39.6	-41.7	17.8	0.00e+00	0	39	0	87031808	50	4669
2026-01-09 00:48:56.98	28.95	10.07	-39.5	-41.6	17.9	0.00e+00	0	39	0	92274688	50	4611
2026-01-09 00:48:57.98	29.03	10.15	-39.6	-41.7	17.8	0.00e+00	0	39	0	98566144	50	4658
2026-01-09 00:48:58.99	29.11	10.23	-39.4	-41.5	18.0	0.00e+00	0	39	0	103809024	50	4573
2026-01-09 00:48:59.99	29.19	10.31	-39.4	-41.5	18.0	0.00e+00	0	39	0	109051904	50	4570
2026-01-09 00:49:00.99	29.27	10.39	-39.3	-41.4	18.1	0.00e+00	0	39	0	115343360	50	4502
2026-01-09 00:49:02.00	29.35	10.47	-39.3	-41.4	18.1	0.00e+00	0	39	0	120586240	50	4500
2026-01-09 00:49:03.00	29.44	10.55	-39.2	-41.2	18.3	0.00e+00	0	40	0	126877696	50	4412
2026-01-09 00:49:04.00	29.52	10.63	-39.2	-41.2	18.4	0.00e+00	0	40	0	132120576	50	4398
2026-01-09 00:49:05.00	29.60	10.71	-39.3	-41.3	18.3	0.00e+00	0	39	0	137363456	50	4442
2026-01-09 00:49:06.01	29.68	10.79	-39.0	-41.0	18.5	0.00e+00	0	40	0	143654912	50	4313
2026-01-09 00:49:07.01	29.76	10.87	-38.9	-40.9	18.6	0.00e+00	0	40	0	148897792	49	4520
2026-01-09 00:49:08.01	29.85	10.95	-38.7	-40.7	18.8	0.00e+00	0	39	0	154140672	49	4411
2026-01-09 00:49:09.01	29.93	11.03	-38.8	-40.7	18.8	0.00e+00	0	39	0	160432128	49	4436
2026-01-09 00:49:10.02	30.02	11.11	-38.7	-40.6	18.9	0.00e+00	0	40	0	165675008	49	4388
2026-01-09 00:49:11.02	30.10	11.19	-38.7	-40.7	18.8	0.00e+00	0	39	0	171966464	49	4410
2026-01-09 00:49:12.02	30.18	11.27	-38.7	-40.7	18.8	0.00e+00	0	40	0	177209344	49	4412
2026-01-09 00:49:13.02	30.27	11.35	-38.7	-40.6	18.9	0.00e+00	0	39	0	182452224	49	4384
2026-01-09 00:49:14.03	30.36	11.43	-38.6	-40.5	19.0	0.00e+00	0	39	0	188743680	49	4310
2026-01-09 00:49:15.03	30.44	11.52	-38.6	-40.5	19.0	0.00e+00	0	40	0	193986560	49	4333
2026-01-09 00:49:16.03	30.53	11.60	-38.7	-40.6	18.9	0.00e+00	0	40	0	200278016	49	4357
2026-01-09 00:49:17.04	30.62	11.68	-38.5	-40.5	19.1	0.00e+00	0	40	0	205520896	49	4298
2026-01-09 00:49:18.04	30.70	11.76	-38.5	-40.5	19.1	0.00e+00	0	40	0	210763776	49	4293
2026-01-09 00:49:19.04	30.79	11.85	-38.5	-40.4	19.2	0.00e+00	0	40	0	217055232	48	4501
2026-01-09 00:49:20.05	30.88	11.93	-38.4	-40.3	19.3	0.00e+00	0	40	0	222298112	48	4468
2026-01-09 00:49:21.05	30.97	12.01	-38.4	-40.3	19.2	0.00e+00	0	40	0	227540992	48	4480
2026-01-09 00:49:22.05	31.06	12.10	-38.3	-40.2	19.3	0.00e+00	0	40	0	233832448	48	4423
2026-01-09 00:49:23.06	31.15	12.18	-38.3	-40.2	19.4	0.00e+00	0	40	0	239075328	48	4409
2026-01-09 00:49:24.15	31.25	12.27	-38.3	-40.1	19.4	0.00e+00	0	40	0	245366784	48	4387
2026-01-09 00:49:25.04	31.33	12.35	-38.3	-40.2	19.4	0.00e+00	0	40	0	250609664	48	4398
2026-01-09 00:49:26.18	31.44	12.44	-38.3	-40.1	19.4	0.00e+00	0	40	0	256901120	48	4390
2026-01-09 00:49:27.04	31.51	12.52	-38.2	-40.1	19.4	0.00e+00	0	39	0	262144000	48	4355
2026-01-09 00:49:28.19	31.62	12.61	-38.2	-40.1	19.4	0.00e+00	0	40	0	268435456	48	4384
2026-01-09 00:49:29.21	31.72	12.70	-38.2	-40.0	19.5	0.00e+00	0	40	0	273678336	48	4337
2026-01-09 00:49:30.21	31.81	12.79	-38.1	-40.0	19.6	0.00e+00	0	40	0	278921216	48	4314
2026-01-09 00:49:31.21	31.90	12.87	-38.1	-40.0	19.6	0.00e+00	0	40	0	285212672	48	4318
2026-01-09 00:49:32.21	32.00	12.96	-38.2	-40.1	19.5	0.00e+00	0	40	0	290455552	48	4355
2026-01-09 00:49:33.21	32.09	13.04	-38.2	-40.1	19.5	0.00e+00	0	39	0	296747008	48	4365
2026-01-09 00:49:34.21	32.19	13.13	-38.3	-40.2	19.5	0.00e+00	0	40	0	301989888	48	4393
2026-01-09 00:49:35.20	32.28	13.21	-38.0	-39.9	19.7	0.00e+00	0	40	0	307232768	48	4274
2026-01-09 00:49:36.20	32.38	13.30	-38.0	-39.9	19.7	0.00e+00	0	40	0	313524224	48	4268
2026-01-09 00:49:37.19	32.48	13.39	-38.1	-40.0	19.7	0.00e+00	0	40	0	318767104	48	4296
2026-01-09 00:49:38.19	32.57	13.47	-38.0	-39.9	19.7	0.00e+00	0	40	0	324009984	48	4259
2026-01-09 00:49:39.18	32.67	13.56	-38.0	-39.9	19.8	0.00e+00	0	40	0	330301440	48	4248
2026-01-09 00:49:40.18	32.77	13.65	-38.0	-39.8	19.6	0.00e+00	0	40	0	335544320	47	4481
2026-01-09 00:49:41.17	32.87	13.73	-37.9	-39.7	19.7	0.00e+00	0	40	0	340787200	47	4413
2026-01-09 00:49:42.17	32.97	13.82	-38.0	-39.8	19.6	0.00e+00	0	40	0	347078656	47	4482
2026-01-09 00:49:43.16	33.07	13.91	-38.0	-39.9	19.5	0.00e+00	0	40	0	352321536	47	4515
2026-01-09 00:49:44.16	33.17	14.00	-38.1	-40.0	19.5	0.00e+00	0	40	0	357564416	47	4562
2026-01-09 00:49:45.16	33.27	14.09	-38.0	-39.9	19.6	0.00e+00	0	40	0	363855872	47	4510
2026-01-09 00:49:46.15	33.37	14.18	-38.0	-39.9	19.6	0.00e+00	0	40	0	369098752	47	4505
2026-01-09 00:49:47.15	33.48	14.26	-38.1	-39.9	19.5	0.00e+00	0	40	0	374341632	47	4544
2026-01-09 00:49:48.15	33.58	14.35	-38.0	-39.9	19.5	0.00e+00	0	40	0	380633088	47	4507
2026-01-09 00:49:49.15	33.68	14.44	-38.0	-39.9	19.5	0.00e+00	0	40	0	385875968	47	4529
2026-01-09 00:49:50.14	33.79	14.53	-38.1	-39.9	19.5	0.00e+00	0	40	0	391118848	47	4525
2026-01-09 00:49:51.14	33.89	14.62	-38.0	-39.9	19.5	0.00e+00	0	40	0	397410304	47	4512
2026-01-09 00:49:52.13	34.00	14.71	-38.0	-39.8	19.6	0.00e+00	0	40	0	402653184	47	4475
2026-01-09 00:49:53.13	34.10	14.80	-37.9	-39.7	19.7	0.00e+00	0	40	0	408944640	47	4423
2026-01-09 00:49:54.13	34.21	14.89	-37.7	-39.6	19.9	0.00e+00	0	40	0	414187520	47	4361
2026-01-09 00:49:55.13	34.32	14.99	-37.8	-39.6	19.9	0.00e+00	0	40	0	419430400	47	4366
2026-01-09 00:49:56.12	34.43	15.08	-37.6	-39.5	20.0	0.00e+00	0	40	0	425721856	47	4299
2026-01-09 00:49:57.12	34.53	15.17	-37.7	-39.5	20.0	0.00e+00	0	40	0	430964736	47	4316
2026-01-09 00:49:58.12	34.64	15.26	-37.6	-39.4	20.1	0.00e+00	0	40	0	436207616	47	4268
2026-01-09 00:49:59.12	34.75	15.35	-37.6	-39.4	20.1	0.00e+00	0	40	0	442499072	47	4278
2026-01-09 00:50:00.12	34.87	15.45	-37.6	-39.4	20.0	0.00e+00	0	39	0	447741952	47	4290
2026-01-09 00:50:01.12	34.98	15.54	-37.5	-39.4	20.0	0.00e+00	0	40	0	452984832	47	4273
2026-01-09 00:50:02.13	35.09	15.63	-37.6	-39.4	20.0	0.00e+00	0	40	0	459276288	46	4525
2026-01-09 00:50:03.12	35.20	15.72	-37.5	-39.4	20.0	0.00e+00	0	40	0	464519168	46	4517
2026-01-09 00:50:04.13	35.32	15.82	-37.6	-39.5	19.9	0.00e+00	0	40	0	470810624	46	4552
2026-01-09 00:50:05.13	35.43	15.91	-37.6	-39.5	19.9	0.00e+00	0	40	0	476053504	46	4568
2026-01-09 00:50:06.12	35.55	16.01	-37.6	-39.5	19.9	0.00e+00	0	40	0	481296384	46	4559
2026-01-09 00:50:07.13	35.66	16.10	-37.7	-39.6	19.8	0.00e+00	0	40	0	487587840	46	4616
2026-01-09 00:50:08.13	35.78	16.20	-37.5	-39.3	20.0	0.00e+00	0	40	0	492830720	46	4475
2026-01-09 00:50:09.13	35.90	16.29	-37.5	-39.3	20.0	0.00e+00	0	40	0	498073600	46	4492
2026-01-09 00:50:10.13	36.01	16.39	-37.6	-39.4	20.0	0.00e+00	0	40	0	504365056	46	4528
2026-01-09 00:50:11.13	36.13	16.48	-37.6	-39.4	20.1	0.00e+00	0	40	0	509607936	46	4508
2026-01-09 00:50:12.13	36.25	16.58	-37.8	-39.6	19.9	0.00e+00	0	40	0	514850816	46	4615
2026-01-09 00:50:13.13	36.37	16.67	-37.6	-39.4	20.1	0.00e+00	0	40	0	521142272	46	4516
2026-01-09 00:50:14.14	36.49	16.77	-37.6	-39.4	20.1	0.00e+00	0	40	0	526385152	46	4504
2026-01-09 00:50:15.14	36.62	16.87	-37.6	-39.4	20.1	0.00e+00	0	40	0	532676608	46	4504
2026-01-09 00:50:16.14	36.74	16.96	-37.5	-39.3	20.2	0.00e+00	0	40	0	537919488	46	4478
2026-01-09 00:50:17.14	36.86	17.06	-37.5	-39.3	20.2	0.00e+00	0	40	0	543162368	46	4458
2026-01-09 00:50:18.14	36.98	17.16	-37.5	-39.3	20.2	0.00e+00	0	40	0	549453824	46	4447
2026-01-09 00:50:19.15	37.11	17.26	-37.3	-39.1	20.3	0.00e+00	0	40	0	554696704	46	4384
2026-01-09 00:50:20.15	37.24	17.35	-37.7	-39.6	19.9	0.00e+00	0	40	0	559939584	46	4610
2026-01-09 00:50:21.15	37.36	17.45	-37.4	-39.2	20.3	0.00e+00	0	40	0	566231040	46	4424
2026-01-09 00:50:22.15	37.49	17.55	-37.3	-39.1	20.4	0.00e+00	0	40	0	571473920	46	4352
2026-01-09 00:50:23.15	37.62	17.65	-37.3	-39.1	20.4	0.00e+00	0	40	0	576716800	46	4377
2026-01-09 00:50:24.15	37.75	17.75	-37.3	-39.1	20.4	0.00e+00	0	40	0	583008256	46	4373
2026-01-09 00:50:25.15	37.88	17.85	-37.3	-39.1	20.4	0.00e+00	0	40	0	588251136	46	4349
2026-01-09 00:50:26.15	38.01	17.95	-37.3	-39.1	20.3	0.00e+00	0	40	0	594542592	46	4376
2026-01-09 00:50:27.15	38.14	18.05	-37.4	-39.3	20.2	0.00e+00	0	40	0	599785472	46	4444
2026-01-09 00:50:28.15	38.27	18.15	-37.2	-39.0	20.4	0.00e+00	0	40	0	605028352	46	4321
2026-01-09 00:50:29.15	38.40	18.25	-37.3	-39.1	20.3	0.00e+00	0	40	0	611319808	46	4355
2026-01-09 00:50:30.15	38.54	18.35	-37.2	-39.0	20.3	0.00e+00	0	40	0	616562688	46	4336
2026-01-09 00:50:31.16	38.67	18.45	-37.3	-39.1	20.3	0.00e+00	0	40	0	621805568	46	4379
2026-01-09 00:50:32.16	38.81	18.55	-37.3	-39.1	20.4	0.00e+00	0	40	0	628097024	46	4351
2026-01-09 00:50:33.16	38.94	18.65	-37.2	-39.0	20.4	0.00e+00	0	40	0	633339904	46	4340
2026-01-09 00:50:34.16	39.08	18.75	-37.2	-39.0	20.5	0.00e+00	0	40	0	638582784	46	4307
2026-01-09 00:50:35.16	39.22	18.86	-37.2	-39.0	20.5	0.00e+00	0	40	0	644874240	46	4321
2026-01-09 00:50:36.16	39.36	18.96	-37.3	-39.0	20.5	0.00e+00	0	40	0	650117120	46	4332
2026-01-09 00:50:37.16	39.50	19.06	-37.2	-39.0	20.5	0.00e+00	0	40	0	656408576	46	4302
2026-01-09 00:50:38.16	39.64	19.16	-37.0	-38.8	20.7	0.00e+00	0	40	0	661651456	46	4227
2026-01-09 00:50:39.16	39.78	19.27	-37.1	-38.9	20.6	0.00e+00	0	40	0	666894336	46	4268
2026-01-09 00:50:40.16	39.92	19.37	-37.1	-38.9	20.7	0.00e+00	0	40	0	673185792	46	4243
2026-01-09 00:50:41.16	40.06	19.47	-36.9	-38.7	20.8	0.00e+00	0	40	0	678428672	45	4423
2026-01-09 00:50:42.16	40.21	19.58	-36.9	-38.7	20.8	0.00e+00	0	40	0	683671552	45	4397
2026-01-09 00:50:43.16	40.35	19.68	-37.0	-38.8	20.7	0.00e+00	0	40	0	689963008	45	4448
2026-01-09 00:50:44.16	40.50	19.78	-36.9	-38.7	20.8	0.00e+00	0	40	0	695205888	45	4414
2026-01-09 00:50:45.16	40.65	19.89	-37.0	-38.8	20.7	0.00e+00	0	40	0	700448768	45	4467
2026-01-09 00:50:46.16	40.80	19.99	-37.0	-38.8	20.7	0.00e+00	0	40	0	706740224	45	4456
2026-01-09 00:50:47.16	40.95	20.10	-36.8	-38.5	21.0	0.00e+00	0	40	0	711983104	45	4338
2026-01-09 00:50:48.16	41.10	20.20	-37.1	-38.9	20.6	0.00e+00	0	40	0	718274560	45	4499
2026-01-09 00:50:49.16	41.25	20.31	-36.9	-38.7	20.8	0.00e+00	0	40	0	723517440	45	4423
2026-01-09 00:50:50.17	41.40	20.42	-37.0	-38.8	20.8	0.00e+00	0	40	0	728760320	45	4452
2026-01-09 00:50:51.17	41.56	20.52	-37.3	-39.1	20.5	0.00e+00	0	40	0	735051776	45	4622
2026-01-09 00:50:52.17	41.71	20.63	-36.9	-38.7	20.9	0.00e+00	0	40	0	740294656	45	4393
2026-01-09 00:50:53.17	41.86	20.73	-36.9	-38.7	20.8	0.00e+00	0	40	0	746586112	45	4418
2026-01-09 00:50:54.17	42.02	20.84	-36.8	-38.5	21.0	0.00e+00	0	40	0	751828992	45	4315
2026-01-09 00:50:55.17	42.18	20.95	-36.8	-38.5	21.0	0.00e+00	0	40	0	757071872	45	4330
2026-01-09 00:50:56.17	42.34	21.05	-36.7	-38.5	21.0	0.00e+00	0	40	0	763363328	45	4296
2026-01-09 00:50:57.17	42.50	21.16	-36.6	-38.4	21.1	0.00e+00	0	40	0	768606208	45	4253
2026-01-09 00:50:58.17	42.66	21.27	-36.5	-38.3	21.2	0.00e+00	0	40	0	773849088	44	4443
2026-01-09 00:50:59.17	42.82	21.38	-36.5	-38.2	21.3	0.00e+00	0	40	0	780140544	44	4428
2026-01-09 00:51:00.17	42.98	21.49	-36.4	-38.2	21.3	0.00e+00	0	40	0	785383424	44	4414
2026-01-09 00:51:01.18	43.15	21.60	-36.5	-38.3	21.2	0.00e+00	0	40	0	791674880	44	4447
2026-01-09 00:51:02.18	43.31	21.70	-36.6	-38.4	21.2	0.00e+00	0	40	0	796917760	44	4495
2026-01-09 00:51:03.18	43.48	21.81	-36.5	-38.3	21.2	0.00e+00	0	40	0	802160640	44	4447
2026-01-09 00:51:04.18	43.65	21.92	-36.6	-38.3	21.2	0.00e+00	0	40	0	808452096	44	4481
2026-01-09 00:51:05.18	43.82	22.03	-36.7	-38.4	21.1	0.00e+00	0	40	0	813694976	44	4540
2026-01-09 00:51:06.18	43.99	22.14	-36.4	-38.2	21.3	0.00e+00	0	40	0	818937856	44	4406
2026-01-09 00:51:07.18	44.16	22.25	-36.3	-38.0	21.4	0.00e+00	0	40	0	825229312	44	4332
2026-01-09 00:51:08.18	44.33	22.36	-36.2	-37.9	21.5	0.00e+00	0	40	0	830472192	44	4280
2026-01-09 00:51:09.18	44.50	22.47	-36.2	-37.9	21.6	0.00e+00	0	40	0	836763648	44	4257
2026-01-09 00:51:10.19	44.68	22.58	-36.1	-37.8	21.6	0.00e+00	0	40	0	842006528	44	4240
2026-01-09 00:51:11.19	44.86	22.69	-36.2	-37.9	21.6	0.00e+00	0	40	0	847249408	44	4266
2026-01-09 00:51:12.19	45.03	22.80	-36.3	-38.0	21.5	0.00e+00	0	40	0	853540864	44	4311
2026-01-09 00:51:13.19	45.21	22.92	-36.1	-37.7	21.7	0.00e+00	0	40	0	858783744	44	4192
2026-01-09 00:51:14.20	45.39	23.03	-36.1	-37.8	21.7	0.00e+00	0	40	0	864026624	44	4213
2026-01-09 00:51:15.19	45.57	23.14	-36.2	-37.9	21.6	0.00e+00	0	40	0	870318080	44	4251
2026-01-09 00:51:16.20	45.75	23.25	-36.2	-37.9	21.6	0.00e+00	0	40	0	875560960	44	4270
2026-01-09 00:51:17.20	45.94	23.36	-36.0	-37.7	21.8	0.00e+00	0	40	0	880803840	44	4192
2026-01-09 00:51:18.20	46.12	23.48	-35.8	-37.5	21.8	0.00e+00	0	40	0	887095296	43	4304
2026-01-09 00:51:19.20	46.31	23.59	-35.9	-37.6	21.8	0.00e+00	0	40	0	892338176	43	4351
2026-01-09 00:51:20.20	46.50	23.70	-35.8	-37.5	21.8	0.00e+00	0	40	0	898629632	43	4328
2026-01-09 00:51:21.20	46.68	23.81	-35.8	-37.5	21.9	0.00e+00	0	40	0	903872512	43	4304
2026-01-09 00:51:22.21	46.88	23.93	-35.8	-37.6	21.8	0.00e+00	0	40	0	909115392	43	4341
2026-01-09 00:51:23.21	47.07	24.04	-35.9	-37.6	21.7	0.00e+00	0	40	0	915406848	43	4375
2026-01-09 00:51:24.21	47.26	24.15	-36.0	-37.7	21.6	0.00e+00	0	40	0	920649728	43	4432
2026-01-09 00:51:25.21	47.45	24.27	-35.9	-37.6	21.8	0.00e+00	0	40	0	925892608	43	4356
2026-01-09 00:51:26.21	47.65	24.38	-35.9	-37.6	21.7	0.00e+00	0	40	0	932184064	43	4375
2026-01-09 00:51:27.21	47.85	24.49	-35.7	-37.4	21.9	0.00e+00	0	40	0	937426944	43	4291
2026-01-09 00:51:28.21	48.04	24.61	-35.7	-37.4	21.9	0.00e+00	0	40	0	942669824	43	4274
2026-01-09 00:51:29.21	48.24	24.72	-35.6	-37.3	22.0	0.00e+00	0	40	0	948961280	43	4210
2026-01-09 00:51:30.21	48.44	24.84	-35.7	-37.4	21.9	0.00e+00	0	40	0	954204160	43	4284
2026-01-09 00:51:31.21	48.65	24.95	-35.5	-37.2	22.1	0.00e+00	0	40	0	960495616	43	4177
2026-01-09 00:51:32.21	48.85	25.06	-35.7	-37.4	21.9	0.00e+00	0	40	0	965738496	43	4258
2026-01-09 00:51:33.21	49.06	25.18	-35.8	-37.5	21.8	0.00e+00	0	40	0	970981376	43	4325
2026-01-09 00:51:34.21	49.26	25.29	-35.6	-37.3	22.0	0.00e+00	0	40	0	977272832	43	4225
2026-01-09 00:51:35.21	49.47	25.41	-35.5	-37.2	22.1	0.00e+00	0	40	0	982515712	43	4189
2026-01-09 00:51:36.21	49.68	25.52	-35.5	-37.2	22.1	0.00e+00	0	40	0	987758592	43	4156
2026-01-09 00:51:37.21	49.89	25.64	-35.5	-37.2	22.1	0.00e+00	0	40	0	994050048	43	4171
2026-01-09 00:51:38.22	50.11	25.75	-35.6	-37.3	22.0	0.00e+00	0	40	0	999292928	43	4216
2026-01-09 00:51:39.21	50.32	25.87	-35.7	-37.4	21.9	0.00e+00	0	40	0	1004535808	43	4285
2026-01-09 00:51:40.21	50.54	25.98	-35.8	-37.5	21.8	0.00e+00	0	40	0	1010827264	43	4317
2026-01-09 00:51:41.21	50.75	26.10	-35.8	-37.6	21.8	0.00e+00	0	40	0	1016070144	43	4347
2026-01-09 00:51:42.21	50.97	26.21	-35.7	-37.4	21.9	0.00e+00	0	40	0	1022361600	43	4289
2026-01-09 00:51:43.22	51.19	26.33	-35.6	-37.3	22.0	0.00e+00	0	40	0	1027604480	43	4216
2026-01-09 00:51:44.22	51.42	26.45	-35.7	-37.5	21.9	0.00e+00	0	40	0	1032847360	43	4293
2026-01-09 00:51:45.22	51.64	26.56	-35.6	-37.4	21.5	0.00e+00	0	40	0	1039138816	43	4271
2026-01-09 00:51:46.22	51.86	26.68	-35.7	-37.5	21.4	0.00e+00	0	40	0	1044381696	43	4319
2026-01-09 00:51:47.22	52.09	26.79	-35.6	-37.5	21.4	0.00e+00	0	40	0	1049624576	43	4301
2026-01-09 00:51:48.21	52.32	26.91	-35.6	-37.4	21.5	0.00e+00	0	40	0	1055916032	43	4271
2026-01-09 00:51:49.21	52.55	27.02	-35.6	-37.4	21.5	0.00e+00	0	40	0	1061158912	42	4528
2026-01-09 00:51:50.22	52.78	27.14	-35.5	-37.3	21.6	0.00e+00	0	40	0	1066401792	42	4465
2026-01-09 00:51:51.22	53.02	27.25	-35.3	-37.1	21.8	0.00e+00	0	40	0	1072693248	42	4373
2026-01-09 00:51:52.21	53.25	27.37	-35.2	-37.0	21.8	0.00e+00	0	40	0	1077936128	42	4317
2026-01-09 00:51:53.22	53.49	27.49	-35.2	-37.0	21.8	0.00e+00	0	40	0	1084227584	42	4324
2026-01-09 00:51:54.22	53.73	27.60	-35.3	-37.1	21.8	0.00e+00	0	40	0	1089470464	42	4366
2026-01-09 00:51:55.22	53.97	27.72	-35.2	-36.9	22.0	0.00e+00	0	40	0	1095761920	42	4280
2026-01-09 00:51:56.22	54.21	27.83	-35.1	-36.8	22.0	0.00e+00	0	40	0	1101004800	42	4234
2026-01-09 00:51:57.22	54.45	27.95	-35.3	-37.1	21.8	0.00e+00	0	40	0	1106247680	42	4349
2026-01-09 00:51:58.22	54.70	28.06	-35.2	-37.0	21.9	0.00e+00	0	40	0	1112539136	42	4314
2026-01-09 00:51:59.22	54.94	28.18	-35.1	-36.9	22.0	0.00e+00	0	40	0	1117782016	42	4266
2026-01-09 00:52:00.22	55.19	28.29	-35.0	-36.8	22.1	0.00e+00	0	40	0	1123024896	42	4205
2026-01-09 00:52:01.22	55.44	28.41	-34.8	-36.6	22.3	0.00e+00	0	40	0	1129316352	41	4347
2026-01-09 00:52:02.22	55.70	28.52	-34.7	-36.4	22.4	0.00e+00	0	40	0	1134559232	41	4255
2026-01-09 00:52:03.22	55.95	28.64	-34.7	-36.5	22.3	0.00e+00	0	40	0	1139802112	41	4300
2026-01-09 00:52:04.22	56.21	28.75	-34.9	-36.6	22.2	0.00e+00	0	40	0	1146093568	41	4364
2026-01-09 00:52:05.22	56.46	28.87	-34.9	-36.7	22.2	0.00e+00	0	40	0	1151336448	41	4400
2026-01-09 00:52:06.22	56.72	28.98	-35.0	-36.7	22.1	0.00e+00	0	40	0	1157627904	41	4435
2026-01-09 00:52:07.22	56.98	29.10	-34.9	-36.7	22.2	0.00e+00	0	40	0	1162870784	41	4392
2026-01-09 00:52:08.22	57.25	29.21	-34.9	-36.6	22.2	0.00e+00	0	40	0	1168113664	41	4379
2026-01-09 00:52:09.22	57.51	29.33	-34.9	-36.7	22.2	0.00e+00	0	40	0	1174405120	41	4402
2026-01-09 00:52:10.22	57.78	29.44	-34.9	-36.6	22.2	0.00e+00	0	40	0	1179648000	41	4389
2026-01-09 00:52:11.22	58.05	29.55	-35.0	-36.7	22.1	0.00e+00	0	40	0	1184890880	41	4420
2026-01-09 00:52:12.22	58.32	29.67	-34.9	-36.7	22.2	0.00e+00	0	40	0	1191182336	41	4395
2026-01-09 00:52:13.23	58.59	29.78	-34.8	-36.6	22.2	0.00e+00	0	40	0	1196425216	41	4354
2026-01-09 00:52:14.23	58.87	29.89	-34.8	-36.6	22.3	0.00e+00	0	40	0	1201668096	41	4349
2026-01-09 00:52:15.23	59.14	30.01	-34.9	-36.6	22.2	0.00e+00	0	40	0	1207959552	41	4366
2026-01-09 00:52:16.23	59.42	30.12	-34.8	-36.6	22.3	0.00e+00	0	40	0	1213202432	41	4349
2026-01-09 00:52:17.23	59.70	30.23	-34.8	-36.5	22.3	0.00e+00	0	40	0	1219493888	41	4306
2026-01-09 00:52:18.23	59.99	30.34	-34.8	-36.6	22.2	0.00e+00	0	40	0	1224736768	41	4361
2026-01-09 00:52:19.23	60.27	30.46	-34.9	-36.7	22.1	0.00e+00	0	40	0	1229979648	41	4414
2026-01-09 00:52:20.23	60.56	30.57	-35.0	-36.8	22.0	0.00e+00	0	40	0	1236271104	41	4479
2026-01-09 00:52:21.23	60.84	30.68	-34.9	-36.7	22.1	0.00e+00	0	40	0	1241513984	41	4426
2026-01-09 00:52:22.23	61.13	30.79	-34.8	-36.6	22.2	0.00e+00	0	40	0	1246756864	41	4342
2026-01-09 00:52:23.23	61.43	30.90	-34.8	-36.5	22.3	0.00e+00	0	40	0	1253048320	41	4327
2026-01-09 00:52:24.23	61.72	31.01	-34.7	-36.4	22.3	0.00e+00	0	40	0	1258291200	41	4281
2026-01-09 00:52:25.24	62.02	31.12	-34.7	-36.4	22.4	0.00e+00	0	40	0	1263534080	41	4274
2026-01-09 00:52:26.24	62.32	31.23	-34.8	-36.5	22.3	0.00e+00	0	40	0	1269825536	41	4308
2026-01-09 00:52:27.24	62.62	31.34	-34.8	-36.6	22.3	0.00e+00	0	40	0	1275068416	41	4343
2026-01-09 00:52:28.24	62.92	31.44	-34.9	-36.6	22.2	0.00e+00	0	40	0	1281359872	41	4370
2026-01-09 00:52:29.25	63.22	31.55	-35.0	-36.8	22.0	0.00e+00	0	40	0	1286602752	41	4465
2026-01-09 00:52:30.25	63.53	31.66	-35.0	-36.8	22.0	0.00e+00	0	40	0	1291845632	41	4472
2026-01-09 00:52:31.25	63.84	31.77	-35.1	-36.9	22.0	0.00e+00	0	40	0	1298137088	41	4505
2026-01-09 00:52:32.25	64.15	31.87	-34.8	-36.6	22.3	0.00e+00	0	40	0	1303379968	41	4342
2026-01-09 00:52:33.25	64.46	31.98	-34.8	-36.6	22.3	0.00e+00	0	40	0	1308622848	41	4355
2026-01-09 00:52:34.25	64.77	32.08	-35.0	-36.7	22.2	0.00e+00	0	40	0	1314914304	41	4415
2026-01-09 00:52:35.25	65.09	32.19	-35.1	-36.9	22.1	0.00e+00	0	40	0	1320157184	41	4495
2026-01-09 00:52:36.25	65.41	32.29	-35.3	-37.0	21.8	0.00e+00	0	40	0	1325400064	41	4596
2026-01-09 00:52:37.25	65.73	32.39	-35.4	-37.2	21.7	0.00e+00	0	40	0	1331691520	41	4677
2026-01-09 00:52:38.25	66.05	32.50	-35.0	-36.8	22.1	0.00e+00	0	40	0	1336934400	42	4210
2026-01-09 00:52:39.25	66.37	32.60	-34.8	-36.6	22.3	0.00e+00	0	40	0	1343225856	41	4353
2026-01-09 00:52:40.25	66.70	32.70	-34.9	-36.7	22.2	0.00e+00	0	40	0	1348468736	41	4393
2026-01-09 00:52:41.25	67.03	32.80	-34.9	-36.6	22.2	0.00e+00	0	40	0	1353711616	41	4382
2026-01-09 00:52:42.25	67.36	32.90	-34.8	-36.6	22.2	0.00e+00	0	40	0	1360003072	41	4350
2026-01-09 00:52:43.25	67.69	33.00	-34.9	-36.6	22.2	0.00e+00	0	40	0	1365245952	41	4369
2026-01-09 00:52:44.25	68.02	33.10	-34.9	-36.7	22.1	0.00e+00	0	40	0	1370488832	41	4414
2026-01-09 00:52:45.25	68.36	33.20	-34.8	-36.6	22.2	0.00e+00	0	40	0	1376780288	41	4364
2026-01-09 00:52:46.26	68.70	33.29	-34.7	-36.5	22.3	0.00e+00	0	40	0	1382023168	41	4302
2026-01-09 00:52:47.26	69.04	33.39	-34.6	-36.3	22.5	0.00e+00	0	40	0	1387266048	41	4221
2026-01-09 00:52:48.26	69.38	33.49	-34.7	-36.4	22.3	0.00e+00	0	40	0	1393557504	41	4282
2026-01-09 00:52:49.26	69.72	33.58	-34.9	-36.7	22.1	0.00e+00	0	40	0	1398800384	41	4394
2026-01-09 00:52:50.26	70.07	33.68	-35.0	-36.8	22.0	0.00e+00	0	40	0	1405091840	41	4463
2026-01-09 00:52:51.26	70.42	33.77	-35.1	-36.9	21.9	0.00e+00	0	40	0	1410334720	41	4532
2026-01-09 00:52:52.26	70.77	33.86	-34.9	-36.7	22.1	0.00e+00	0	40	0	1415577600	41	4392
2026-01-09 00:52:53.26	71.12	33.95	-34.8	-36.5	22.3	0.00e+00	0	40	0	1421869056	41	4337
2026-01-09 00:52:54.26	71.47	34.04	-34.7	-36.5	22.3	0.00e+00	0	40	0	1427111936	41	4301
2026-01-09 00:52:55.26	71.83	34.13	-34.7	-36.5	22.3	0.00e+00	0	40	0	1432354816	41	4308
2026-01-09 00:52:56.26	72.19	34.22	-34.7	-36.5	22.3	0.00e+00	0	40	0	1438646272	41	4300
2026-01-09 00:52:57.26	72.55	34.31	-34.8	-36.5	22.3	0.00e+00	0	40	0	1443889152	41	4312
2026-01-09 00:52:58.26	72.91	34.39	-34.8	-36.6	22.3	0.00e+00	0	40	0	1450180608	41	4344
2026-01-09 00:52:59.27	73.27	34.48	-35.0	-36.7	22.1	0.00e+00	0	40	0	1455423488	41	4435
2026-01-09 00:53:00.27	73.64	34.56	-34.8	-36.6	22.2	0.00e+00	0	40	0	1460666368	41	4358
2026-01-09 00:53:01.27	74.01	34.65	-34.8	-36.6	22.2	0.00e+00	0	40	0	1466957824	41	4344
2026-01-09 00:53:02.28	74.38	34.73	-34.7	-36.4	22.4	0.00e+00	0	40	0	1472200704	41	4269
2026-01-09 00:53:03.27	74.75	34.81	-34.7	-36.4	22.3	0.00e+00	0	40	0	1478492160	41	4281
2026-01-09 00:53:04.28	75.12	34.89	-34.6	-36.3	22.5	0.00e+00	0	40	0	1483735040	41	4237
2026-01-09 00:53:05.28	75.50	34.97	-34.5	-36.2	22.6	0.00e+00	0	40	0	1488977920	41	4187
2026-01-09 00:53:06.28	75.87	35.05	-34.5	-36.2	22.5	0.00e+00	0	40	0	1495269376	41	4190
2026-01-09 00:53:07.28	76.25	35.13	-34.5	-36.2	22.6	0.00e+00	0	40	0	1500512256	40	4440
2026-01-09 00:53:08.28	76.63	35.20	-34.4	-36.2	22.6	0.00e+00	0	40	0	1505755136	40	4409
2026-01-09 00:53:09.28	77.01	35.27	-34.3	-36.0	22.8	0.00e+00	0	40	0	1512046592	40	4320
2026-01-09 00:53:10.28	77.39	35.35	-34.3	-36.0	22.7	0.00e+00	0	40	0	1517289472	40	4338
2026-01-09 00:53:11.28	77.78	35.42	-34.4	-36.1	22.7	0.00e+00	0	40	0	1523580928	40	4352
2026-01-09 00:53:12.28	78.17	35.49	-34.4	-36.1	22.6	0.00e+00	0	40	0	1528823808	40	4390
2026-01-09 00:53:13.28	78.55	35.56	-34.6	-36.4	22.4	0.00e+00	0	40	0	1534066688	40	4500
2026-01-09 00:53:14.28	78.94	35.63	-34.7	-36.4	22.4	0.00e+00	0	40	0	1540358144	40	4537
2026-01-09 00:53:15.28	79.34	35.69	-34.6	-36.3	22.4	0.00e+00	0	40	0	1545601024	40	4479
2026-01-09 00:53:16.28	79.73	35.76	-34.5	-36.2	22.6	0.00e+00	0	40	0	1550843904	40	4404
2026-01-09 00:53:17.28	80.12	35.82	-34.5	-36.2	22.5	0.00e+00	0	40	0	1557135360	40	4437
2026-01-09 00:53:18.28	80.52	35.89	-34.5	-36.2	22.5	0.00e+00	0	40	0	1562378240	40	4418
2026-01-09 00:53:19.29	80.92	35.95	-34.4	-36.1	22.6	0.00e+00	0	40	0	1567621120	40	4383
2026-01-09 00:53:20.28	81.32	36.01	-34.5	-36.2	22.6	0.00e+00	0	40	0	1573912576	40	4415
2026-01-09 00:53:21.28	81.72	36.06	-34.6	-36.4	22.5	0.00e+00	0	40	0	1579155456	40	4494
2026-01-09 00:53:22.28	82.12	36.12	-34.8	-36.5	22.3	0.00e+00	0	40	0	1585446912	40	4596
2026-01-09 00:53:23.28	82.52	36.18	-34.7	-36.5	22.3	0.00e+00	0	40	0	1590689792	40	4568
2026-01-09 00:53:24.28	82.93	36.23	-34.6	-36.3	22.4	0.00e+00	0	40	0	1595932672	40	4489
2026-01-09 00:53:25.28	83.33	36.28	-34.5	-36.2	22.6	0.00e+00	0	40	0	1602224128	40	4414
2026-01-09 00:53:26.29	83.74	36.33	-34.4	-36.2	22.6	0.00e+00	0	40	0	1607467008	40	4404
2026-01-09 00:53:27.29	84.15	36.38	-34.5	-36.2	22.6	0.00e+00	0	40	0	1612709888	40	4427
2026-01-09 00:53:28.28	84.56	36.43	-34.5	-36.2	22.6	0.00e+00	0	40	0	1619001344	40	4416
2026-01-09 00:53:29.28	84.97	36.48	-34.3	-36.1	22.7	0.00e+00	0	40	0	1624244224	40	4353
2026-01-09 00:53:30.28	85.38	36.52	-34.5	-36.3	22.5	0.00e+00	0	40	0	1629487104	40	4457
2026-01-09 00:53:31.29	85.80	36.57	-34.7	-36.4	22.4	0.00e+00	0	40	0	1635778560	40	4523
2026-01-09 00:53:32.29	86.21	36.61	-34.3	-36.1	22.7	0.00e+00	0	40	0	1641021440	40	4353
2026-01-09 00:53:33.29	86.63	36.65	-34.4	-36.1	22.7	0.00e+00	0	40	0	1647312896	40	4374
2026-01-09 00:53:34.30	87.05	36.69	-34.3	-36.0	22.7	0.00e+00	0	40	0	1652555776	40	4321
2026-01-09 00:53:35.30	87.46	36.72	-34.5	-36.2	22.6	0.00e+00	0	40	0	1657798656	40	4427
2026-01-09 00:53:36.30	87.88	36.76	-34.6	-36.4	22.4	0.00e+00	0	40	0	1664090112	41	4265
2026-01-09 00:53:37.30	88.30	36.79	-34.4	-36.2	22.5	0.00e+00	0	40	0	1669332992	40	4416
2026-01-09 00:53:38.31	88.73	36.82	-34.4	-36.2	22.5	0.00e+00	0	40	0	1674575872	40	4415
2026-01-09 00:53:39.31	89.15	36.85	-34.3	-36.1	22.6	0.00e+00	0	40	0	1680867328	40	4351
2026-01-09 00:53:40.31	89.57	36.88	-34.4	-36.2	22.5	0.00e+00	0	40	0	1686110208	40	4403
2026-01-09 00:53:41.31	89.99	36.91	-34.6	-36.3	22.5	0.00e+00	0	40	0	1691353088	40	4469
2026-01-09 00:53:42.31	90.41	36.93	-34.6	-36.3	22.5	0.00e+00	0	40	0	1697644544	40	4475
2026-01-09 00:53:43.31	90.84	36.96	-34.6	-36.3	22.5	0.00e+00	0	40	0	1702887424	40	4480
2026-01-09 00:53:44.32	91.26	36.98	-34.6	-36.3	22.5	0.00e+00	0	40	0	1709178880	40	4492
2026-01-09 00:53:45.32	91.69	37.00	-34.5	-36.2	22.5	0.00e+00	0	40	0	1714421760	40	4420
2026-01-09 00:53:46.32	92.11	37.02	-34.5	-36.3	22.5	0.00e+00	0	40	0	1720713216	40	4447
2026-01-09 00:53:47.32	92.54	37.03	-34.3	-36.0	22.7	0.00e+00	0	40	0	1725956096	40	4336
2026-01-09 00:53:48.32	92.97	37.05	-34.2	-35.9	22.8	0.00e+00	0	40	0	1731198976	40	4285
2026-01-09 00:53:49.33	93.40	37.06	-34.3	-36.1	22.6	0.00e+00	0	40	0	1737490432	40	4353
2026-01-09 00:53:50.33	93.82	37.07	-34.5	-36.2	22.5	0.00e+00	0	40	0	1742733312	40	4420
2026-01-09 00:53:51.33	94.25	37.08	-34.6	-36.3	22.4	0.00e+00	0	40	0	1747976192	40	4482
2026-01-09 00:53:52.33	94.68	37.09	-34.4	-36.2	22.6	0.00e+00	0	40	0	1754267648	40	4403
2026-01-09 00:53:53.33	95.10	37.10	-34.4	-36.2	22.6	0.00e+00	0	40	0	1759510528	40	4401
2026-01-09 00:53:54.33	95.53	37.10	-34.6	-36.3	22.4	0.00e+00	0	40	0	1764753408	40	4470
2026-01-09 00:53:55.34	95.96	37.10	-34.7	-36.5	22.3	0.00e+00	0	40	0	1771044864	40	4554
2026-01-09 00:53:56.34	96.39	37.10	-34.7	-36.5	22.3	0.00e+00	0	40	0	1776287744	40	4564
2026-01-09 00:53:57.34	96.82	37.10	-34.7	-36.4	22.4	0.00e+00	0	40	0	1782579200	40	4533
2026-01-09 00:53:58.34	97.25	37.10	-34.6	-36.3	22.5	0.00e+00	0	40	0	1787822080	40	4462
2026-01-09 00:53:59.34	97.68	37.10	-34.5	-36.2	22.6	0.00e+00	0	40	0	1793064960	40	4409
2026-01-09 00:54:00.34	98.10	37.09	-34.4	-36.1	22.6	0.00e+00	0	40	0	1799356416	40	4371
2026-01-09 00:54:01.34	98.53	37.08	-34.3	-36.0	22.7	0.00e+00	0	40	0	1804599296	40	4336
2026-01-09 00:54:02.34	98.96	37.07	-34.3	-36.1	22.7	0.00e+00	0	40	0	1809842176	40	4345
2026-01-09 00:54:03.34	99.38	37.06	-34.2	-36.0	22.8	0.00e+00	0	40	0	1816133632	40	4297
2026-01-09 00:54:04.34	99.81	37.05	-34.2	-35.9	22.8	0.00e+00	0	40	0	1821376512	40	4259
2026-01-09 00:54:05.35	100.24	37.03	-34.3	-36.0	22.8	0.00e+00	0	40	0	1826619392	40	4299
2026-01-09 00:54:06.35	100.67	37.01	-34.4	-36.2	22.6	0.00e+00	0	40	0	1832910848	40	4392
2026-01-09 00:54:07.35	101.09	37.00	-34.5	-36.3	22.5	0.00e+00	0	40	0	1838153728	40	4469
2026-01-09 00:54:08.35	101.52	36.98	-34.6	-36.3	22.4	0.00e+00	0	40	0	1844445184	40	4481
2026-01-09 00:54:09.35	101.94	36.95	-34.4	-36.2	22.6	0.00e+00	0	40	0	1849688064	40	4402
2026-01-09 00:54:10.35	102.36	36.93	-34.5	-36.3	22.5	0.00e+00	0	40	0	1854930944	40	4444
2026-01-09 00:54:11.36	102.79	36.90	-34.5	-36.3	22.5	0.00e+00	0	40	0	1861222400	40	4447
2026-01-09 00:54:12.36	103.21	36.88	-34.5	-36.3	22.5	0.00e+00	0	40	0	1866465280	40	4452
2026-01-09 00:54:13.36	103.64	36.85	-34.5	-36.2	22.5	0.00e+00	0	40	0	1871708160	40	4425
2026-01-09 00:54:14.36	104.06	36.82	-34.3	-36.0	22.7	0.00e+00	0	40	0	1877999616	40	4321
2026-01-09 00:54:15.36	104.48	36.79	-34.3	-36.0	22.7	0.00e+00	0	40	0	1883242496	40	4306
2026-01-09 00:54:16.36	104.90	36.75	-34.5	-36.2	22.6	0.00e+00	0	40	0	1888485376	40	4404
2026-01-09 00:54:17.36	105.31	36.72	-34.5	-36.2	22.6	0.00e+00	0	40	0	1894776832	40	4409
2026-01-09 00:54:18.36	105.73	36.68	-34.6	-36.3	22.5	0.00e+00	0	40	0	1900019712	40	4483
2026-01-09 00:54:19.36	106.15	36.64	-34.6	-36.3	22.4	0.00e+00	0	40	0	1906311168	40	4478
2026-01-09 00:54:20.37	106.57	36.60	-34.6	-36.3	22.4	0.00e+00	0	40	0	1911554048	40	4490
2026-01-09 00:54:21.37	106.98	36.56	-34.4	-36.1	22.6	0.00e+00	0	40	0	1916796928	40	4386
2026-01-09 00:54:22.37	107.40	36.51	-34.4	-36.1	22.7	0.00e+00	0	40	0	1923088384	40	4388
2026-01-09 00:54:23.37	107.81	36.47	-34.6	-36.3	22.5	0.00e+00	0	40	0	1928331264	40	4479
2026-01-09 00:54:24.37	108.22	36.42	-34.7	-36.4	22.4	0.00e+00	0	40	0	1933574144	40	4542
2026-01-09 00:54:25.37	108.63	36.37	-34.7	-36.4	22.4	0.00e+00	0	40	0	1939865600	40	4542
2026-01-09 00:54:26.37	109.04	36.32	-34.7	-36.5	22.3	0.00e+00	0	40	0	1945108480	40	4557
2026-01-09 00:54:27.37	109.45	36.27	-34.6	-36.3	22.4	0.00e+00	0	40	0	1951399936	40	4470
2026-01-09 00:54:28.37	109.85	36.22	-34.5	-36.2	22.5	0.00e+00	0	40	0	1956642816	40	4429
2026-01-09 00:54:29.37	110.26	36.17	-34.6	-36.4	22.4	0.00e+00	0	40	0	1961885696	40	4506
2026-01-09 00:54:30.38	110.67	36.11	-34.6	-36.3	22.4	0.00e+00	0	40	0	1968177152	40	4491
2026-01-09 00:54:31.38	111.07	36.05	-34.5	-36.3	22.5	0.00e+00	0	40	0	1973420032	40	4459
2026-01-09 00:54:32.38	111.47	35.99	-34.7	-36.4	22.3	0.00e+00	0	40	0	1979711488	40	4536
2026-01-09 00:54:33.38	111.87	35.93	-34.7	-36.5	22.3	0.00e+00	0	40	0	1984954368	40	4573
2026-01-09 00:54:34.38	112.27	35.87	-34.8	-36.6	22.2	0.00e+00	0	40	0	1990197248	40	4626
2026-01-09 00:54:35.38	112.66	35.81	-34.7	-36.5	22.3	0.00e+00	0	40	0	1996488704	40	4554
2026-01-09 00:54:36.38	113.06	35.74	-34.5	-36.2	22.5	0.00e+00	0	40	0	2001731584	40	4437
2026-01-09 00:54:37.39	113.46	35.68	-34.5	-36.2	22.6	0.00e+00	0	40	0	2006974464	40	4432
2026-01-09 00:54:38.39	113.85	35.61	-34.5	-36.3	22.5	0.00e+00	0	40	0	2013265920	40	4445
2026-01-09 00:54:39.39	114.24	35.54	-34.4	-36.2	22.6	0.00e+00	0	40	0	2018508800	40	4414
2026-01-09 00:54:40.39	114.63	35.47	-34.7	-36.4	22.4	0.00e+00	0	40	0	2023751680	40	4524
2026-01-09 00:54:41.39	115.02	35.40	-34.6	-36.3	22.5	0.00e+00	0	40	0	2030043136	40	4461
2026-01-09 00:54:42.39	115.40	35.33	-34.7	-36.4	22.4	0.00e+00	0	40	0	2035286016	40	4520
2026-01-09 00:54:43.40	115.79	35.25	-34.8	-36.6	22.2	0.00e+00	0	40	0	2041577472	40	4608
2026-01-09 00:54:44.39	116.17	35.18	-34.8	-36.5	22.3	0.00e+00	0	40	0	2046820352	40	4598
2026-01-09 00:54:45.40	116.55	35.10	-34.8	-36.5	22.2	0.00e+00	0	40	0	2052063232	40	4583
2026-01-09 00:54:46.40	116.93	35.03	-34.6	-36.3	22.4	0.00e+00	0	40	0	2058354688	40	4488
2026-01-09 00:54:47.40	117.31	34.95	-34.7	-36.4	22.3	0.00e+00	0	40	0	2063597568	40	4532
2026-01-09 00:54:48.40	117.68	34.87	-34.8	-36.6	22.2	0.00e+00	0	41	0	2068840448	40	4606
2026-01-09 00:54:49.41	118.06	34.79	-34.9	-36.7	22.1	0.00e+00	0	40	0	2075131904	40	4675
2026-01-09 00:54:50.41	118.43	34.71	-34.9	-36.7	22.1	0.00e+00	0	40	0	2080374784	40	4669
2026-01-09 00:54:51.41	118.80	34.62	-34.9	-36.7	22.1	0.00e+00	0	40	0	2085617664	40	4677
2026-01-09 00:54:52.42	119.17	34.54	-34.9	-36.6	22.1	0.00e+00	0	40	0	2091909120	40	4645
2026-01-09 00:54:53.42	119.54	34.45	-34.8	-36.5	22.2	0.00e+00	0	40	0	2097152000	40	4582
2026-01-09 00:54:54.41	119.90	34.37	-34.8	-36.5	22.3	0.00e+00	0	40	0	2103443456	40	4572
2026-01-09 00:54:55.42	120.26	34.28	-34.9	-36.6	22.1	0.00e+00	0	40	0	2108686336	40	4641
2026-01-09 00:54:56.42	120.62	34.19	-34.7	-36.5	22.3	0.00e+00	0	40	0	2113929216	40	4557
2026-01-09 00:54:57.41	120.98	34.10	-34.9	-36.6	22.2	0.00e+00	0	40	0	2120220672	40	4635
2026-01-09 00:54:58.41	121.33	34.01	-35.1	-36.8	22.0	0.00e+00	0	40	0	2125463552	40	4752
2026-01-09 00:54:59.41	121.69	33.92	-35.1	-36.9	21.9	0.00e+00	0	40	0	2130706432	40	4807
2026-01-09 00:55:00.41	122.04	33.83	-35.2	-37.0	21.8	0.00e+00	0	40	0	2136997888	41	4597
2026-01-09 00:55:01.41	122.39	33.74	-35.0	-36.8	22.0	0.00e+00	0	40	0	2142240768	41	4469
2026-01-09 00:55:02.42	122.74	33.64	-34.9	-36.6	22.2	0.00e+00	0	40	0	2147483648	41	4364
2026-01-09 00:55:03.42	123.09	33.55	-35.0	-36.7	22.1	0.00e+00	0	40	0	2153775104	41	4423
2026-01-09 00:55:04.42	123.43	33.45	-34.9	-36.6	22.1	0.00e+00	0	40	0	2159017984	41	4381
2026-01-09 00:55:05.42	123.78	33.36	-35.0	-36.8	22.0	0.00e+00	0	40	0	2165309440	41	4451
2026-01-09 00:55:06.42	124.12	33.26	-35.1	-37.0	21.8	0.00e+00	0	40	0	2170552320	41	4551
2026-01-09 00:55:07.42	124.45	33.16	-35.2	-37.0	21.8	0.00e+00	0	40	0	2176843776	41	4551
2026-01-09 00:55:08.43	124.79	33.06	-35.1	-36.9	21.8	0.00e+00	0	40	0	2182086656	41	4541
2026-01-09 00:55:09.43	125.13	32.96	-35.0	-36.8	21.9	0.00e+00	0	40	0	2187329536	41	4473
2026-01-09 00:55:10.43	125.46	32.86	-35.0	-36.8	22.0	0.00e+00	0	40	0	2193620992	41	4456
2026-01-09 00:55:11.43	125.79	32.76	-35.0	-36.7	22.0	0.00e+00	0	40	0	2198863872	41	4428
2026-01-09 00:55:12.43	126.12	32.66	-34.9	-36.7	22.1	0.00e+00	0	40	0	2204106752	41	4398
2026-01-09 00:55:13.43	126.45	32.56	-35.1	-36.8	21.9	0.00e+00	0	40	0	2210398208	41	4478
2026-01-09 00:55:14.43	126.77	32.46	-35.1	-36.9	21.9	0.00e+00	0	40	0	2215641088	41	4495
2026-01-09 00:55:15.43	127.09	32.35	-35.2	-37.0	21.7	0.00e+00	0	40	0	2220883968	41	4588
2026-01-09 00:55:16.43	127.41	32.25	-35.2	-37.0	21.7	0.00e+00	0	40	0	2227175424	41	4567
2026-01-09 00:55:17.43	127.73	32.14	-35.1	-36.9	21.8	0.00e+00	0	40	0	2232418304	41	4500
2026-01-09 00:55:18.43	128.05	32.04	-35.1	-36.8	21.9	0.00e+00	0	40	0	2238709760	41	4484
2026-01-09 00:55:19.43	128.36	31.93	-35.1	-36.9	21.8	0.00e+00	0	40	0	2243952640	41	4520
2026-01-09 00:55:20.43	128.68	31.83	-35.2	-37.0	21.7	0.00e+00	0	40	0	2249195520	41	4586
2026-01-09 00:55:21.43	128.99	31.72	-35.3	-37.1	21.7	0.00e+00	0	40	0	2255486976	41	4613
2026-01-09 00:55:22.43	129.29	31.61	-35.3	-37.1	21.7	0.00e+00	0	40	0	2260729856	41	4630
2026-01-09 00:55:23.44	129.60	31.50	-35.3	-37.1	21.7	0.00e+00	0	40	0	2265972736	41	4609
2026-01-09 00:55:24.43	129.90	31.40	-35.2	-37.0	21.8	0.00e+00	0	40	0	2272264192	41	4561
2026-01-09 00:55:25.44	130.21	31.29	-35.1	-36.9	21.9	0.00e+00	0	40	0	2277507072	41	4500
2026-01-09 00:55:26.44	130.51	31.18	-35.0	-36.7	22.0	0.00e+00	0	40	0	2283798528	41	4435
2026-01-09 00:55:27.43	130.81	31.07	-34.9	-36.6	22.1	0.00e+00	0	40	0	2289041408	41	4377
2026-01-09 00:55:28.43	131.10	30.96	-35.0	-36.7	22.0	0.00e+00	0	40	0	2294284288	41	4441
2026-01-09 00:55:29.43	131.40	30.85	-35.0	-36.8	22.0	0.00e+00	0	40	0	2300575744	41	4466
2026-01-09 00:55:30.43	131.69	30.74	-35.1	-36.9	21.8	0.00e+00	0	40	0	2305818624	41	4519
2026-01-09 00:55:31.43	131.98	30.62	-35.2	-37.0	21.7	0.00e+00	0	40	0	2311061504	41	4576
2026-01-09 00:55:32.43	132.27	30.51	-35.4	-37.2	21.5	0.00e+00	0	40	0	2317352960	41	4693
2026-01-09 00:55:33.43	132.55	30.40	-35.3	-37.1	21.6	0.00e+00	0	40	0	2322595840	41	4624
2026-01-09 00:55:34.43	132.84	30.29	-35.4	-37.2	21.6	0.00e+00	0	40	0	2327838720	41	4698
2026-01-09 00:55:35.43	133.12	30.18	-35.4	-37.2	21.6	0.00e+00	0	40	0	2334130176	41	4700
2026-01-09 00:55:36.43	133.40	30.06	-35.4	-37.2	21.6	0.00e+00	0	40	0	2339373056	41	4697
2026-01-09 00:55:37.43	133.68	29.95	-35.4	-37.2	21.6	0.00e+00	0	40	0	2345664512	41	4692
2026-01-09 00:55:38.43	133.96	29.84	-35.4	-37.2	21.6	0.00e+00	0	40	0	2350907392	41	4695
2026-01-09 00:55:39.43	134.23	29.72	-35.3	-37.1	21.7	0.00e+00	0	40	0	2356150272	41	4628
2026-01-09 00:55:40.43	134.51	29.61	-35.3	-37.1	21.8	0.00e+00	0	40	0	2362441728	41	4635
2026-01-09 00:55:41.43	134.78	29.49	-35.4	-37.1	21.7	0.00e+00	0	40	0	2367684608	41	4646
2026-01-09 00:55:42.44	135.05	29.38	-35.5	-37.3	21.6	0.00e+00	0	40	0	2372927488	41	4709
2026-01-09 00:55:43.44	135.32	29.26	-35.4	-37.2	21.6	0.00e+00	0	40	0	2379218944	41	4684
2026-01-09 00:55:44.44	135.58	29.15	-35.5	-37.3	21.5	0.00e+00	0	40	0	2384461824	41	4741
2026-01-09 00:55:45.44	135.85	29.03	-35.5	-37.3	21.5	0.00e+00	0	40	0	2389704704	41	4743
2026-01-09 00:55:46.44	136.11	28.92	-35.4	-37.2	21.6	0.00e+00	0	40	0	2395996160	41	4672
2026-01-09 00:55:47.44	136.37	28.80	-35.4	-37.2	21.6	0.00e+00	0	40	0	2401239040	41	4684
2026-01-09 00:55:48.44	136.63	28.69	-35.3	-37.1	21.6	0.00e+00	0	40	0	2407530496	41	4645
2026-01-09 00:55:49.45	136.88	28.57	-35.4	-37.2	21.6	0.00e+00	0	40	0	2412773376	41	4668
2026-01-09 00:55:50.45	137.14	28.46	-35.5	-37.3	21.5	0.00e+00	0	40	0	2418016256	41	4724
2026-01-09 00:55:51.45	137.39	28.34	-35.7	-37.5	21.4	0.00e+00	0	40	0	2424307712	42	4559
2026-01-09 00:55:52.45	137.64	28.22	-35.9	-37.7	21.1	0.00e+00	0	40	0	2429550592	42	4688
2026-01-09 00:55:53.45	137.89	28.11	-36.0	-37.9	21.0	0.00e+00	0	40	0	2434793472	42	4774
2026-01-09 00:55:54.45	138.14	27.99	-35.9	-37.7	21.1	0.00e+00	0	40	0	2441084928	42	4700
2026-01-09 00:55:55.46	138.39	27.87	-35.8	-37.7	21.2	0.00e+00	0	40	0	2446327808	42	4670
2026-01-09 00:55:56.46	138.63	27.76	-35.5	-37.3	21.5	0.00e+00	0	40	0	2451570688	42	4481
2026-01-09 00:55:57.46	138.87	27.64	-35.4	-37.2	21.6	0.00e+00	0	40	0	2457862144	42	4404
2026-01-09 00:55:58.46	139.11	27.52	-35.3	-37.1	21.7	0.00e+00	0	40	0	2463105024	42	4351
2026-01-09 00:55:59.47	139.36	27.41	-35.3	-37.1	21.7	0.00e+00	0	40	0	2469396480	42	4368
2026-01-09 00:56:00.47	139.59	27.29	-35.4	-37.2	21.6	0.00e+00	0	40	0	2474639360	42	4418
2026-01-09 00:56:01.47	139.83	27.17	-35.5	-37.3	21.6	0.00e+00	0	40	0	2480930816	42	4471
2026-01-09 00:56:02.47	140.06	27.06	-35.5	-37.3	21.6	0.00e+00	0	40	0	2486173696	42	4471
2026-01-09 00:56:03.47	140.29	26.94	-35.5	-37.3	21.5	0.00e+00	0	40	0	2491416576	42	4482
2026-01-09 00:56:04.47	140.52	26.82	-35.5	-37.3	21.6	0.00e+00	0	40	0	2496659456	42	4484
2026-01-09 00:56:05.47	140.75	26.71	-35.5	-37.3	21.6	0.00e+00	0	40	0	2502950912	42	4464
2026-01-09 00:56:06.46	140.98	26.59	-35.5	-37.3	21.6	0.00e+00	0	40	0	2508193792	42	4480
2026-01-09 00:56:07.47	141.21	26.47	-35.5	-37.3	21.6	0.00e+00	0	40	0	2513436672	42	4455
2026-01-09 00:56:08.47	141.43	26.36	-35.3	-37.1	21.7	0.00e+00	0	40	0	2519728128	42	4385
2026-01-09 00:56:09.47	141.65	26.24	-35.3	-37.1	21.7	0.00e+00	0	40	0	2524971008	42	4370
2026-01-09 00:56:10.47	141.87	26.13	-35.4	-37.2	21.7	0.00e+00	0	40	0	2531262464	42	4411
2026-01-09 00:56:11.47	142.09	26.01	-35.4	-37.2	21.6	0.00e+00	0	40	0	2536505344	42	4415
2026-01-09 00:56:12.47	142.31	25.89	-35.5	-37.3	21.6	0.00e+00	0	40	0	2542796800	42	4474
2026-01-09 00:56:13.47	142.52	25.78	-35.6	-37.4	21.5	0.00e+00	0	40	0	2548039680	42	4497
2026-01-09 00:56:14.47	142.74	25.66	-35.7	-37.5	21.4	0.00e+00	0	40	0	2553282560	42	4560
2026-01-09 00:56:15.47	142.95	25.55	-35.6	-37.5	21.4	0.00e+00	0	40	0	2559574016	42	4549
2026-01-09 00:56:16.47	143.16	25.43	-35.6	-37.4	21.4	0.00e+00	0	40	0	2564816896	42	4544
2026-01-09 00:56:17.47	143.37	25.31	-35.5	-37.3	21.5	0.00e+00	0	40	0	2570059776	42	4492
2026-01-09 00:56:18.47	143.58	25.20	-35.6	-37.4	21.5	0.00e+00	0	40	0	2576351232	42	4513
2026-01-09 00:56:19.47	143.79	25.08	-35.7	-37.5	21.4	0.00e+00	0	40	0	2581594112	42	4560
2026-01-09 00:56:20.48	144.00	24.97	-35.8	-37.6	21.3	0.00e+00	0	40	0	2586836992	42	4622
2026-01-09 00:56:21.48	144.20	24.85	-35.8	-37.6	21.3	0.00e+00	0	40	0	2593128448	42	4626
2026-01-09 00:56:22.48	144.40	24.74	-35.8	-37.6	21.3	0.00e+00	0	40	0	2598371328	42	4615
2026-01-09 00:56:23.48	144.60	24.62	-35.8	-37.7	21.2	0.00e+00	0	40	0	2604662784	42	4667
2026-01-09 00:56:24.47	144.80	24.51	-35.9	-37.7	21.2	0.00e+00	0	40	0	2609905664	42	4698
2026-01-09 00:56:25.47	145.00	24.39	-35.9	-37.8	21.1	0.00e+00	0	40	0	2615148544	42	4715
2026-01-09 00:56:26.48	145.20	24.28	-35.9	-37.7	21.2	0.00e+00	0	40	0	2621440000	42	4697
2026-01-09 00:56:27.48	145.39	24.16	-35.9	-37.8	21.1	0.00e+00	0	40	0	2626682880	42	4713
2026-01-09 00:56:28.48	145.59	24.05	-35.9	-37.7	21.2	0.00e+00	0	40	0	2631925760	42	4691
2026-01-09 00:56:29.48	145.78	23.94	-35.9	-37.7	21.2	0.00e+00	0	40	0	2638217216	42	4678
2026-01-09 00:56:30.47	145.97	23.82	-35.9	-37.7	21.2	0.00e+00	0	40	0	2643460096	42	4701
2026-01-09 00:56:31.48	146.16	23.71	-35.9	-37.7	21.2	0.00e+00	0	40	0	2648702976	42	4663
2026-01-09 00:56:32.48	146.35	23.59	-35.9	-37.8	21.1	0.00e+00	0	40	0	2654994432	42	4725
2026-01-09 00:56:33.48	146.54	23.48	-35.9	-37.8	21.1	0.00e+00	0	40	0	2660237312	42	4737
2026-01-09 00:56:34.48	146.72	23.37	-36.0	-37.9	21.0	0.00e+00	0	40	0	2666528768	42	4766
2026-01-09 00:56:35.48	146.91	23.25	-36.0	-37.9	21.0	0.00e+00	0	40	0	2671771648	42	4793
2026-01-09 00:56:36.48	147.09	23.14	-36.0	-37.9	20.9	0.00e+00	0	40	0	2677014528	42	4805
2026-01-09 00:56:37.48	147.27	23.03	-36.0	-37.9	20.9	0.00e+00	0	40	0	2683305984	42	4812
2026-01-09 00:56:38.48	147.45	22.92	-36.1	-38.0	20.9	0.00e+00	0	40	0	2688548864	42	4824
2026-01-09 00:56:39.48	147.63	22.81	-36.0	-37.9	21.0	0.00e+00	0	40	0	2693791744	42	4767
2026-01-09 00:56:40.49	147.81	22.69	-35.9	-37.8	21.0	0.00e+00	0	40	0	2700083200	42	4733
2026-01-09 00:56:41.49	147.99	22.58	-36.0	-37.8	21.1	0.00e+00	0	40	0	2705326080	42	4730
2026-01-09 00:56:42.49	148.17	22.47	-36.0	-37.8	21.0	0.00e+00	0	40	0	2710568960	42	4741
2026-01-09 00:56:43.49	148.34	22.36	-35.9	-37.8	21.1	0.00e+00	0	40	0	2716860416	42	4720
2026-01-09 00:56:44.49	148.52	22.25	-36.0	-37.8	21.0	0.00e+00	0	40	0	2722103296	42	4729
2026-01-09 00:56:45.48	148.69	22.14	-36.0	-37.8	21.0	0.00e+00	0	40	0	2728394752	42	4751
2026-01-09 00:56:46.49	148.86	22.03	-36.1	-37.9	20.9	0.00e+00	0	40	0	2733637632	42	4793
2026-01-09 00:56:47.49	149.03	21.91	-36.2	-38.0	20.9	0.00e+00	0	40	0	2738880512	43	4567
2026-01-09 00:56:48.49	149.20	21.80	-36.2	-38.1	20.8	0.00e+00	0	40	0	2745171968	43	4616
2026-01-09 00:56:49.49	149.36	21.69	-36.3	-38.2	20.7	0.00e+00	0	40	0	2750414848	43	4673
2026-01-09 00:56:50.49	149.53	21.58	-36.4	-38.3	20.6	0.00e+00	0	40	0	2755657728	43	4708
2026-01-09 00:56:51.49	149.70	21.48	-36.6	-38.5	20.4	0.00e+00	0	40	0	2761949184	43	4853
2026-01-09 00:56:52.49	149.86	21.37	-36.4	-38.3	20.6	0.00e+00	0	40	0	2767192064	43	4737
2026-01-09 00:56:53.50	150.02	21.26	-36.4	-38.3	20.6	0.00e+00	0	40	0	2772434944	43	4737
2026-01-09 00:56:54.49	150.18	21.15	-36.5	-38.3	20.6	0.00e+00	0	40	0	2778726400	43	4755
2026-01-09 00:56:55.49	150.35	21.04	-36.7	-38.5	20.5	0.00e+00	0	40	0	2783969280	44	4598
2026-01-09 00:56:56.50	150.51	20.93	-36.7	-38.6	20.5	0.00e+00	0	40	0	2790260736	44	4604
2026-01-09 00:56:57.50	150.66	20.82	-36.6	-38.4	20.7	0.00e+00	0	40	0	2795503616	44	4529
2026-01-09 00:56:58.50	150.82	20.72	-36.7	-38.5	20.5	0.00e+00	0	40	0	2800746496	44	4598
2026-01-09 00:56:59.50	150.98	20.61	-36.9	-38.7	20.4	0.00e+00	0	40	0	2807037952	44	4701
2026-01-09 00:57:00.50	151.13	20.50	-36.8	-38.7	20.4	0.00e+00	0	40	0	2812280832	44	4683
2026-01-09 00:57:01.51	151.29	20.39	-36.9	-38.8	20.3	0.00e+00	0	40	0	2817523712	44	4721
2026-01-09 00:57:02.51	151.44	20.29	-37.0	-38.9	20.2	0.00e+00	0	40	0	2823815168	44	4772
2026-01-09 00:57:03.51	151.60	20.18	-37.0	-38.9	20.2	0.00e+00	0	40	0	2829058048	44	4801
2026-01-09 00:57:04.51	151.75	20.07	-37.0	-38.9	20.1	0.00e+00	0	40	0	2834300928	44	4810
2026-01-09 00:57:05.51	151.90	19.97	-37.1	-39.0	20.1	0.00e+00	0	40	0	2840592384	44	4844
2026-01-09 00:57:06.51	152.05	19.86	-37.0	-39.0	20.1	0.00e+00	0	40	0	2845835264	44	4822
2026-01-09 00:57:07.52	152.20	19.75	-37.1	-39.0	20.1	0.00e+00	0	40	0	2852126720	45	4587
2026-01-09 00:57:08.52	152.34	19.65	-37.1	-39.0	20.1	0.00e+00	0	40	0	2857369600	45	4564
2026-01-09 00:57:09.52	152.49	19.54	-37.1	-39.0	20.1	0.00e+00	0	40	0	2863661056	45	4555
2026-01-09 00:57:10.52	152.63	19.44	-37.1	-39.0	20.1	0.00e+00	0	40	0	2868903936	45	4567
2026-01-09 00:57:11.52	152.78	19.34	-37.1	-39.0	20.1	0.00e+00	0	40	0	2874146816	45	4580
2026-01-09 00:57:12.52	152.92	19.23	-37.1	-39.0	20.1	0.00e+00	0	40	0	2879389696	45	4548
2026-01-09 00:57:13.52	153.06	19.13	-37.2	-39.1	20.0	0.00e+00	0	40	0	2885681152	45	4616
2026-01-09 00:57:14.52	153.20	19.02	-37.3	-39.2	19.9	0.00e+00	0	40	0	2890924032	45	4679
2026-01-09 00:57:15.52	153.35	18.92	-37.2	-39.1	20.0	0.00e+00	0	40	0	2897215488	45	4641
2026-01-09 00:57:16.52	153.49	18.82	-37.2	-39.1	20.0	0.00e+00	0	40	0	2902458368	45	4600
2026-01-09 00:57:17.52	153.62	18.71	-37.2	-39.1	20.0	0.00e+00	0	40	0	2907701248	45	4645
2026-01-09 00:57:18.52	153.76	18.61	-37.2	-39.1	20.0	0.00e+00	0	40	0	2913992704	45	4613
2026-01-09 00:57:19.52	153.90	18.51	-37.2	-39.1	20.0	0.00e+00	0	40	0	2919235584	45	4650
2026-01-09 00:57:20.52	154.03	18.41	-37.2	-39.1	20.0	0.00e+00	0	40	0	2925527040	45	4641
2026-01-09 00:57:21.52	154.17	18.31	-37.2	-39.2	20.0	0.00e+00	0	40	0	2930769920	45	4652
2026-01-09 00:57:22.53	154.30	18.20	-37.3	-39.2	19.9	0.00e+00	0	40	0	2936012800	45	4691
2026-01-09 00:57:23.53	154.44	18.10	-37.4	-39.3	19.8	0.00e+00	0	40	0	2942304256	45	4736
2026-01-09 00:57:24.53	154.57	18.00	-37.4	-39.3	19.8	0.00e+00	0	40	0	2947547136	45	4741
2026-01-09 00:57:25.53	154.70	17.90	-37.4	-39.4	19.8	0.00e+00	0	40	0	2952790016	45	4779
2026-01-09 00:57:26.53	154.83	17.80	-37.6	-39.6	19.6	0.00e+00	0	40	0	2959081472	45	4871
2026-01-09 00:57:27.53	154.96	17.70	-37.5	-39.5	19.7	0.00e+00	0	40	0	2964324352	45	4818
2026-01-09 00:57:28.53	155.09	17.60	-37.5	-39.5	19.6	0.00e+00	0	40	0	2969567232	45	4853
2026-01-09 00:57:29.53	155.22	17.50	-37.5	-39.5	19.6	0.00e+00	0	40	0	2975858688	45	4866
2026-01-09 00:57:30.53	155.35	17.40	-37.6	-39.5	19.6	0.00e+00	0	40	0	2981101568	45	4855
2026-01-09 00:57:31.53	155.47	17.30	-37.5	-39.5	19.7	0.00e+00	0	40	0	2987393024	45	4843
2026-01-09 00:57:32.54	155.60	17.20	-37.5	-39.5	19.6	0.00e+00	0	40	0	2992635904	45	4847
2026-01-09 00:57:33.54	155.73	17.10	-37.6	-39.5	19.6	0.00e+00	0	40	0	2997878784	45	4866
2026-01-09 00:57:34.54	155.85	17.01	-37.4	-39.4	19.7	0.00e+00	0	40	0	3004170240	45	4786
2026-01-09 00:57:35.54	155.97	16.91	-37.5	-39.4	19.7	0.00e+00	0	40	0	3009413120	45	4806
2026-01-09 00:57:36.54	156.10	16.81	-37.5	-39.5	19.7	0.00e+00	0	40	0	3014656000	45	4817
2026-01-09 00:57:37.54	156.22	16.71	-37.4	-39.4	19.8	0.00e+00	0	40	0	3020947456	45	4762
2026-01-09 00:57:38.54	156.34	16.62	-37.5	-39.5	19.7	0.00e+00	0	40	0	3026190336	45	4819
2026-01-09 00:57:39.54	156.46	16.52	-37.4	-39.3	19.8	0.00e+00	0	40	0	3031433216	45	4758
2026-01-09 00:57:40.55	156.58	16.42	-37.4	-39.4	19.8	0.00e+00	0	40	0	3037724672	45	4767
2026-01-09 00:57:41.55	156.70	16.33	-37.5	-39.4	19.7	0.00e+00	0	40	0	3042967552	45	4810
2026-01-09 00:57:42.55	156.82	16.23	-37.5	-39.4	19.7	0.00e+00	0	40	0	3049259008	45	4782
2026-01-09 00:57:43.56	156.94	16.13	-37.5	-39.4	19.7	0.00e+00	0	40	0	3054501888	45	4813
2026-01-09 00:57:44.56	157.05	16.04	-37.5	-39.5	19.6	0.00e+00	0	40	0	3059744768	45	4837
2026-01-09 00:57:45.56	157.17	15.94	-37.6	-39.6	19.5	0.00e+00	0	40	0	3066036224	45	4901
2026-01-09 00:57:46.56	157.29	15.85	-37.7	-39.7	19.5	0.00e+00	0	40	0	3071279104	46	4664
2026-01-09 00:57:47.56	157.40	15.75	-37.8	-39.7	19.5	0.00e+00	0	40	0	3076521984	46	4700
2026-01-09 00:57:48.56	157.51	15.66	-37.9	-39.9	19.3	0.00e+00	0	40	0	3082813440	46	4766
2026-01-09 00:57:49.56	157.63	15.56	-37.9	-39.9	19.3	0.00e+00	0	40	0	3088056320	46	4778
2026-01-09 00:57:50.57	157.74	15.47	-38.0	-40.0	19.2	0.00e+00	0	40	0	3094347776	46	4843
2026-01-09 00:57:51.56	157.85	15.38	-38.1	-40.1	19.1	0.00e+00	0	40	0	3099590656	46	4894
2026-01-09 00:57:52.56	157.96	15.28	-38.0	-40.0	19.2	0.00e+00	0	40	0	3104833536	47	4585
2026-01-09 00:57:53.56	158.07	15.19	-38.1	-40.1	19.1	0.00e+00	0	40	0	3111124992	47	4609
2026-01-09 00:57:54.56	158.18	15.10	-38.1	-40.1	19.0	0.00e+00	0	40	0	3116367872	47	4647
2026-01-09 00:57:55.56	158.29	15.00	-38.2	-40.2	19.0	0.00e+00	0	40	0	3121610752	47	4687
2026-01-09 00:57:56.56	158.40	14.91	-38.2	-40.2	19.0	0.00e+00	0	40	0	3127902208	47	4704
2026-01-09 00:57:57.56	158.51	14.82	-38.2	-40.2	19.0	0.00e+00	0	40	0	3133145088	47	4704
2026-01-09 00:57:58.56	158.62	14.73	-38.3	-40.3	18.9	0.00e+00	0	40	0	3138387968	47	4729
2026-01-09 00:57:59.57	158.72	14.63	-38.3	-40.4	18.8	0.00e+00	0	40	0	3144679424	47	4778
2026-01-09 00:58:00.57	158.83	14.54	-38.3	-40.3	18.9	0.00e+00	0	40	0	3149922304	47	4757
2026-01-09 00:58:01.57	158.93	14.45	-38.4	-40.5	18.8	0.00e+00	0	40	0	3156213760	47	4822
2026-01-09 00:58:02.57	159.04	14.36	-38.4	-40.4	18.8	0.00e+00	0	40	0	3161456640	47	4798
2026-01-09 00:58:03.57	159.14	14.27	-38.4	-40.4	18.8	0.00e+00	0	40	0	3167748096	47	4796
2026-01-09 00:58:04.57	159.25	14.18	-38.3	-40.3	18.9	0.00e+00	0	40	0	3172990976	47	4737
2026-01-09 00:58:05.57	159.35	14.09	-38.3	-40.3	18.9	0.00e+00	0	40	0	3178233856	47	4747
2026-01-09 00:58:06.57	159.45	14.00	-38.5	-40.5	18.7	0.00e+00	0	40	0	3184525312	47	4858
2026-01-09 00:58:07.57	159.55	13.91	-38.5	-40.5	18.7	0.00e+00	0	40	0	3189768192	47	4840
2026-01-09 00:58:08.58	159.66	13.82	-38.4	-40.4	18.8	0.00e+00	0	40	0	3195011072	47	4776
2026-01-09 00:58:09.58	159.76	13.73	-38.4	-40.4	18.8	0.00e+00	0	40	0	3201302528	47	4814
2026-01-09 00:58:10.59	159.86	13.64	-38.4	-40.4	18.8	0.00e+00	0	40	0	3206545408	47	4771
2026-01-09 00:58:11.59	159.96	13.55	-38.4	-40.5	18.7	0.00e+00	0	40	0	3211788288	47	4818
2026-01-09 00:58:12.59	160.06	13.46	-38.4	-40.5	18.7	0.00e+00	0	40	0	3218079744	47	4830
2026-01-09 00:58:13.59	160.15	13.38	-38.4	-40.5	18.7	0.00e+00	0	40	0	3223322624	47	4830
2026-01-09 00:58:14.59	160.25	13.29	-38.4	-40.5	18.7	0.00e+00	0	40	0	3229614080	47	4823
2026-01-09 00:58:15.59	160.35	13.20	-38.5	-40.5	18.7	0.00e+00	0	40	0	3234856960	47	4852
2026-01-09 00:58:16.59	160.45	13.11	-38.5	-40.6	18.6	0.00e+00	0	40	0	3240099840	47	4891
2026-01-09 00:58:17.60	160.54	13.03	-38.5	-40.6	18.6	0.00e+00	0	40	0	3246391296	47	4885
2026-01-09 00:58:18.59	160.64	12.94	-38.6	-40.6	18.5	0.00e+00	0	40	0	3251634176	47	4925
2026-01-09 00:58:19.60	160.73	12.85	-38.8	-40.9	18.5	0.00e+00	0	40	0	3256877056	48	4761
2026-01-09 00:58:20.60	160.83	12.77	-38.7	-40.8	18.6	0.00e+00	0	40	0	3263168512	48	4713
2026-01-09 00:58:21.60	160.92	12.68	-38.7	-40.8	18.6	0.00e+00	0	40	0	3268411392	48	4709
2026-01-09 00:58:22.60	161.01	12.59	-38.7	-40.8	18.5	0.00e+00	0	40	0	3273654272	48	4737
2026-01-09 00:58:23.60	161.11	12.51	-38.7	-40.8	18.5	0.00e+00	0	40	0	3279945728	48	4723
2026-01-09 00:58:24.60	161.20	12.42	-38.8	-40.9	18.5	0.00e+00	0	40	0	3285188608	48	4770
2026-01-09 00:58:25.60	161.29	12.34	-38.7	-40.8	18.5	0.00e+00	0	40	0	3291480064	48	4733
2026-01-09 00:58:26.60	161.38	12.25	-38.8	-40.8	18.5	0.00e+00	0	40	0	3296722944	48	4755
2026-01-09 00:58:27.60	161.47	12.17	-38.8	-40.9	18.5	0.00e+00	0	40	0	3301965824	48	4763
2026-01-09 00:58:28.60	161.56	12.08	-38.8	-40.9	18.4	0.00e+00	0	40	0	3308257280	48	4779
2026-01-09 00:58:29.60	161.65	12.00	-38.8	-40.9	18.4	0.00e+00	0	40	0	3313500160	48	4785
2026-01-09 00:58:30.60	161.74	11.91	-38.9	-40.9	18.4	0.00e+00	0	40	0	3318743040	48	4814
2026-01-09 00:58:31.60	161.83	11.83	-38.9	-40.9	18.4	0.00e+00	0	40	0	3325034496	48	4798
2026-01-09 00:58:32.60	161.92	11.75	-39.1	-41.1	18.2	0.00e+00	0	40	0	3330277376	48	4919
2026-01-09 00:58:33.60	162.01	11.66	-38.9	-41.0	18.4	0.00e+00	0	40	0	3335520256	48	4836
2026-01-09 00:58:34.60	162.09	11.58	-39.0	-41.0	18.3	0.00e+00	0	40	0	3341811712	48	4865
2026-01-09 00:58:35.60	162.18	11.50	-39.0	-41.0	18.3	0.00e+00	0	40	0	3347054592	48	4869
2026-01-09 00:58:36.60	162.27	11.41	-39.1	-41.2	18.2	0.00e+00	0	40	0	3353346048	48	4937
2026-01-09 00:58:37.60	162.35	11.33	-39.0	-41.1	18.2	0.00e+00	0	40	0	3358588928	48	4917
2026-01-09 00:58:38.60	162.44	11.25	-39.1	-41.2	18.1	0.00e+00	0	40	0	3363831808	48	4970
2026-01-09 00:58:39.60	162.52	11.17	-39.2	-41.3	18.0	0.00e+00	0	40	0	3370123264	49	4744
2026-01-09 00:58:40.60	162.61	11.09	-39.2	-41.3	18.0	0.00e+00	0	40	0	3375366144	49	4738
2026-01-09 00:58:41.60	162.69	11.00	-39.2	-41.4	17.9	0.00e+00	0	40	0	3380609024	49	4774
2026-01-09 00:58:42.60	162.78	10.92	-39.2	-41.4	18.0	0.00e+00	0	40	0	3386900480	49	4765
2026-01-09 00:58:43.61	162.86	10.84	-39.3	-41.5	17.9	0.00e+00	0	40	0	3392143360	49	4829
2026-01-09 00:58:44.61	162.94	10.76	-39.4	-41.6	17.7	0.00e+00	0	40	0	3397386240	49	4908
2026-01-09 00:58:45.61	163.03	10.68	-39.4	-41.5	17.8	0.00e+00	0	40	0	3403677696	49	4855
2026-01-09 00:58:46.62	163.11	10.60	-39.3	-41.5	17.8	0.00e+00	0	40	0	3408920576	49	4841
2026-01-09 00:58:47.62	163.19	10.52	-39.3	-41.5	17.8	0.00e+00	0	40	0	3415212032	49	4830
2026-01-09 00:58:48.62	163.27	10.44	-39.4	-41.6	17.7	0.00e+00	0	40	0	3420454912	49	4872
2026-01-09 00:58:49.62	163.35	10.36	-39.3	-41.4	17.9	0.00e+00	0	40	0	3426746368	49	4782
2026-01-09 00:58:50.62	163.43	10.28	-39.3	-41.5	17.8	0.00e+00	0	40	0	3431989248	49	4831
2026-01-09 00:58:51.62	163.51	10.20	-39.3	-41.4	17.8	0.00e+00	0	40	0	3437232128	49	4812
2026-01-09 00:58:52.62	163.59	10.12	-39.3	-41.4	17.9	5.15e-03	0	40	0	3443523584	49	4811
2026-01-09 00:58:53.63	163.67	10.04	-39.3	-41.4	17.9	0.00e+00	0	40	0	3448766464	49	4807
2026-01-09 00:58:54.63	163.75	9.96	-39.4	-41.5	17.8	0.00e+00	0	40	0	3454009344	49	4841
2026-01-09 00:58:55.63	163.83	9.88	-39.3	-41.5	17.8	0.00e+00	0	40	0	3460300800	49	4836
2026-01-09 00:58:56.63	163.90	9.80	-39.5	-41.7	17.6	0.00e+00	0	40	0	3465543680	49	4950
2026-01-09 00:58:57.63	163.98	9.73	-39.5	-41.6	17.6	0.00e+00	0	40	0	3470786560	49	4924
2026-01-09 00:58:58.63	164.06	9.65	-39.3	-41.5	17.8	0.00e+00	0	40	0	3477078016	49	4855
2026-01-09 00:58:59.64	164.14	9.57	-39.5	-41.6	17.7	0.00e+00	0	40	0	3482320896	49	4921
2026-01-09 00:59:00.64	164.21	9.49	-39.4	-41.6	17.7	0.00e+00	0	40	0	3488612352	49	4904
2026-01-09 00:59:01.64	164.29	9.41	-39.4	-41.6	17.7	0.00e+00	0	40	0	3493855232	49	4892
2026-01-09 00:59:02.64	164.36	9.34	-39.4	-41.6	17.7	0.00e+00	0	40	0	3499098112	49	4910
2026-01-09 00:59:03.64	164.44	9.26	-39.4	-41.7	17.6	0.00e+00	0	40	0	3505389568	49	4969
2026-01-09 00:59:04.64	164.51	9.18	-39.5	-41.8	17.4	0.00e+00	0	40	0	3510632448	49	5027
2026-01-09 00:59:05.64	164.59	9.11	-39.5	-41.8	17.4	0.00e+00	0	40	0	3515875328	49	5024
2026-01-09 00:59:06.64	164.66	9.03	-39.5	-41.9	17.4	0.00e+00	0	40	0	3522166784	49	5086
2026-01-09 00:59:07.64	164.73	8.95	-40.9	-43.6	15.9	0.00e+00	0	40	0	3527409664	52	5188
2026-01-09 00:59:08.64	164.81	8.88	-47.9	-57.7	4.1	8.42e-01	0	40	104	3529506816	66	11702
2026-01-09 00:59:09.64	164.88	8.80	-48.4	-60.6	3.8	8.46e-01	0	40	104	3529506816	67	15504
2026-01-09 00:59:10.65	164.95	8.73	-48.9	-61.0	3.8	8.46e-01	0	40	104	3529506816	68	15394
2026-01-09 00:59:11.65	165.03	8.65	-49.0	-61.1	3.8	8.47e-01	0	40	104	3529506816	68	15573
2026-01-09 00:59:12.65	165.10	8.57	-49.0	-61.3	3.8	8.46e-01	0	40	104	3529506816	68	15800
2026-01-09 00:59:13.65	165.17	8.50	-49.2	-61.3	3.8	8.47e-01	0	40	104	3529506816	69	15034
2026-01-09 00:59:14.65	165.24	8.42	-49.0	-61.3	3.8	8.47e-01	0	40	104	3529506816	69	15048
