passes_logs/2026/01/09/T1/T1__20260109_225909_NOAA_21_JPSS-2_rec.log

#Pass ID: 20260109_225909_NOAA 21 (JPSS-2)
#Satellite: NOAA 21 (JPSS-2)
#Configuration: NOAA 21
#almurnet v.1.7.20251203
#Start time: 2026-01-09 22:59:08

#Version: 2.0.20230620
#Station: T1
#Location: 37.570604 lon 55.790049 lat
#TLE: 1 54234U 22150A   26009.23291724  .00000115  00000+0  75298-4 0  9996
#TLE: 2 54234  98.7494 310.2026 0000856 324.9272  35.1848 14.19533567163994

#Time	Az	El	Level	Level2	SNR	BER	BlckErr	Temp	State	Recorded	gain1	gain2
2026-01-09 22:59:08.96	21.45	4.98	-50.8	-63.9	3.8	1.49e+00	0	39	0	0	73	15944
2026-01-09 22:59:09.95	21.49	5.05	-50.8	-63.8	3.8	1.49e+00	0	40	104	0	73	15826
2026-01-09 22:59:10.96	21.53	5.12	-50.8	-63.8	3.8	1.49e+00	0	40	104	0	73	15837
2026-01-09 22:59:11.97	21.58	5.19	-50.8	-63.8	3.8	1.49e+00	0	40	104	0	73	15864
2026-01-09 22:59:12.97	21.62	5.26	-50.8	-63.8	3.8	1.49e+00	0	40	104	0	73	15820
2026-01-09 22:59:13.97	21.66	5.33	-50.8	-63.8	3.8	1.49e+00	0	40	104	0	73	15879
2026-01-09 22:59:14.98	21.71	5.40	-50.8	-63.8	3.8	1.49e+00	0	40	104	0	73	15922
2026-01-09 22:59:15.98	21.75	5.47	-50.8	-63.8	3.8	1.49e+00	0	40	104	0	73	15904
2026-01-09 22:59:16.98	21.79	5.54	-50.8	-63.9	3.8	1.49e+00	0	40	104	0	73	15944
2026-01-09 22:59:17.99	21.84	5.61	-50.8	-63.8	3.8	1.49e+00	0	40	104	0	73	15908
2026-01-09 22:59:18.99	21.88	5.68	-50.8	-63.9	3.8	1.49e+00	0	40	104	0	73	15958
2026-01-09 22:59:20.00	21.92	5.75	-50.8	-63.9	3.8	1.49e+00	0	40	104	0	73	15984
2026-01-09 22:59:21.00	21.97	5.82	-50.8	-63.9	3.8	1.49e+00	0	40	104	0	73	15991
2026-01-09 22:59:22.01	22.01	5.89	-50.8	-63.8	3.8	1.49e+00	0	40	104	0	73	15930
2026-01-09 22:59:23.01	22.06	5.96	-50.8	-63.8	3.8	1.49e+00	0	40	104	0	73	15927
2026-01-09 22:59:24.01	22.10	6.03	-50.8	-63.8	3.8	1.49e+00	0	40	104	0	73	15933
2026-01-09 22:59:25.02	22.15	6.10	-50.8	-63.8	3.8	1.49e+00	0	40	104	0	73	15894
2026-01-09 22:59:26.02	22.19	6.17	-50.8	-63.8	3.8	1.49e+00	0	40	104	0	73	15878
2026-01-09 22:59:27.03	22.24	6.24	-50.8	-63.8	3.8	1.49e+00	0	40	104	0	73	15896
2026-01-09 22:59:28.03	22.29	6.32	-50.8	-63.8	3.8	1.49e+00	0	40	104	0	73	15835
2026-01-09 22:59:29.04	22.33	6.39	-50.8	-63.8	3.8	1.49e+00	0	41	104	0	73	15898
2026-01-09 22:59:30.04	22.38	6.46	-50.8	-63.8	3.8	1.49e+00	0	40	104	0	73	15851
2026-01-09 22:59:31.04	22.42	6.53	-50.8	-63.8	3.8	1.49e+00	0	41	104	0	73	15844
2026-01-09 22:59:32.05	22.47	6.60	-50.8	-63.8	3.8	1.49e+00	0	41	104	0	73	15929
2026-01-09 22:59:33.05	22.52	6.68	-50.8	-63.8	3.8	1.49e+00	0	41	104	0	73	15927
2026-01-09 22:59:34.05	22.56	6.75	-50.8	-63.8	3.8	1.49e+00	0	41	104	0	73	15901
2026-01-09 22:59:35.06	22.61	6.82	-50.8	-63.7	3.8	1.49e+00	0	41	104	0	73	15756
2026-01-09 22:59:36.06	22.66	6.90	-50.8	-63.6	3.8	1.49e+00	0	41	104	0	73	15482
2026-01-09 22:59:37.07	22.71	6.97	-50.8	-63.4	3.8	1.49e+00	0	41	104	0	73	15197
2026-01-09 22:59:38.07	22.75	7.04	-50.8	-63.1	3.8	1.49e+00	0	41	104	0	73	14689
2026-01-09 22:59:39.08	22.80	7.12	-50.7	-62.9	3.8	1.49e+00	0	41	104	0	73	14249
2026-01-09 22:59:40.08	22.85	7.19	-50.7	-62.7	3.8	1.49e+00	0	41	104	0	73	13889
2026-01-09 22:59:41.08	22.90	7.27	-50.7	-62.5	3.8	1.49e+00	0	41	104	0	73	13595
2026-01-09 22:59:42.09	22.95	7.34	-50.7	-62.5	3.8	1.49e+00	0	41	104	0	73	13582
2026-01-09 22:59:43.09	23.00	7.41	-50.7	-62.3	3.8	1.49e+00	0	41	104	0	73	13393
2026-01-09 22:59:44.10	23.05	7.49	-50.7	-62.5	3.8	1.49e+00	0	41	104	0	73	13664
2026-01-09 22:59:45.10	23.10	7.56	-50.7	-62.7	3.8	1.49e+00	0	41	104	0	73	13956
2026-01-09 22:59:46.11	23.15	7.64	-50.7	-62.7	3.8	1.49e+00	0	41	104	0	73	13964
2026-01-09 22:59:47.11	23.20	7.71	-50.7	-62.8	3.8	1.49e+00	0	41	104	0	73	14047
2026-01-09 22:59:48.11	23.25	7.79	-50.7	-62.6	3.8	1.49e+00	0	41	104	0	73	13854
2026-01-09 22:59:49.12	23.30	7.87	-50.7	-62.3	3.8	1.49e+00	0	41	104	0	73	13312
2026-01-09 22:59:50.12	23.35	7.94	-50.6	-62.0	3.8	1.49e+00	0	41	104	0	73	12865
2026-01-09 22:59:51.13	23.40	8.02	-50.6	-61.3	4.0	1.49e+00	0	41	104	0	73	11909
2026-01-09 22:59:52.13	23.45	8.10	-50.6	-61.0	4.0	1.48e+00	0	41	104	0	73	11494
2026-01-09 22:59:53.14	23.50	8.17	-50.5	-61.2	3.9	1.48e+00	0	41	104	0	73	11719
2026-01-09 22:59:54.14	23.55	8.25	-50.5	-61.4	3.9	1.48e+00	0	41	104	0	73	11981
2026-01-09 22:59:55.15	23.60	8.33	-50.6	-61.4	3.9	1.48e+00	0	41	104	0	73	12092
2026-01-09 22:59:56.15	23.66	8.40	-50.5	-60.8	4.1	1.47e+00	0	41	104	0	73	11246
2026-01-09 22:59:57.16	23.71	8.48	-50.5	-60.7	4.1	1.47e+00	0	41	104	0	73	11035
2026-01-09 22:59:58.16	23.76	8.56	-50.5	-60.4	4.2	1.46e+00	0	41	104	0	73	10706
2026-01-09 22:59:59.16	23.81	8.64	-50.4	-60.0	4.3	1.44e+00	0	41	104	0	72	10787
2026-01-09 23:00:00.17	23.87	8.72	-50.3	-59.4	4.5	1.30e+00	0	41	104	0	72	10114
2026-01-09 23:00:01.17	23.92	8.79	-50.3	-58.9	4.5	9.57e-01	0	41	104	0	72	9597
2026-01-09 23:00:02.18	23.97	8.87	-50.2	-58.7	4.8	8.36e-01	0	41	0	0	72	9368
2026-01-09 23:00:03.18	24.03	8.95	-50.2	-58.4	4.9	7.48e-01	0	41	0	0	72	9059
2026-01-09 23:00:04.18	24.08	9.03	-50.2	-59.2	4.0	6.89e-01	0	41	104	0	72	9893
2026-01-09 23:00:05.24	24.14	9.11	-50.5	-62.3	3.8	1.49e+00	0	41	104	0	72	14183
2026-01-09 23:00:06.16	24.19	9.19	-50.3	-60.3	3.9	1.46e+00	0	41	104	0	72	11183
2026-01-09 23:00:07.16	24.24	9.27	-50.3	-59.4	4.2	1.45e+00	0	42	104	0	72	10104
2026-01-09 23:00:08.17	24.30	9.35	-50.5	-62.8	3.8	1.49e+00	0	42	104	0	72	14983
2026-01-09 23:00:09.17	24.36	9.43	-46.5	-49.6	13.0	3.63e-03	0	42	0	0	64	5212
2026-01-09 23:00:10.17	24.41	9.51	-46.6	-49.8	12.9	5.64e-05	0	41	0	0	64	5281
2026-01-09 23:00:11.18	24.47	9.59	-46.6	-49.8	12.8	5.95e-05	0	42	0	0	64	5328
2026-01-09 23:00:12.18	24.52	9.67	-45.9	-48.8	14.0	7.60e-06	0	41	0	0	63	5000
2026-01-09 23:00:13.18	24.58	9.75	-45.4	-48.1	14.7	7.00e-07	0	42	0	0	62	4878
2026-01-09 23:00:14.19	24.64	9.83	-45.3	-48.0	14.8	7.00e-07	0	42	0	0	62	4827
2026-01-09 23:00:15.19	24.70	9.91	-45.2	-47.7	15.0	0.00e+00	0	41	0	0	62	4695
2026-01-09 23:00:16.19	24.75	10.00	-44.7	-47.1	15.6	0.00e+00	0	42	0	0	61	4644
2026-01-09 23:00:17.20	24.81	10.08	-44.5	-46.9	15.8	0.00e+00	0	41	0	0	61	4518
2026-01-09 23:00:18.20	24.87	10.16	-44.5	-46.8	15.9	0.00e+00	0	42	0	0	60	4747
2026-01-09 23:00:19.20	24.93	10.24	-44.4	-46.8	15.9	0.00e+00	0	41	0	0	60	4755
2026-01-09 23:00:20.20	24.99	10.33	-44.3	-46.7	16.0	0.00e+00	0	42	0	0	60	4681
2026-01-09 23:00:21.36	25.05	10.42	-44.2	-46.6	16.2	0.00e+00	0	42	0	0	60	4601
2026-01-09 23:00:22.25	25.11	10.50	-44.2	-46.5	16.3	0.00e+00	0	42	0	0	60	4559
2026-01-09 23:00:23.40	25.18	10.59	-44.1	-46.4	16.3	0.00e+00	0	41	0	0	60	4541
2026-01-09 23:00:24.25	25.23	10.66	-44.0	-46.2	16.5	0.00e+00	0	41	0	0	59	4683
2026-01-09 23:00:25.62	25.31	10.78	-44.2	-46.5	16.2	0.00e+00	0	41	0	0	59	4841
2026-01-09 23:00:26.34	25.35	10.84	-44.2	-46.5	16.2	0.00e+00	0	42	0	0	59	4843
2026-01-09 23:00:27.63	25.43	10.95	-44.0	-46.2	16.5	0.00e+00	0	42	0	0	59	4684
2026-01-09 23:00:28.34	25.47	11.01	-44.0	-46.3	16.4	0.00e+00	0	42	0	0	59	4734
2026-01-09 23:00:29.63	25.55	11.12	-44.0	-46.2	16.5	0.00e+00	0	42	0	0	59	4685
2026-01-09 23:00:30.35	25.60	11.18	-44.0	-46.3	16.4	0.00e+00	0	42	0	0	59	4747
2026-01-09 23:00:31.64	25.68	11.29	-44.0	-46.2	16.5	0.00e+00	0	42	0	0	59	4693
2026-01-09 23:00:32.36	25.72	11.35	-43.9	-46.2	16.5	0.00e+00	0	42	0	0	59	4661
2026-01-09 23:00:33.64	25.80	11.46	-43.9	-46.1	16.6	0.00e+00	0	42	0	0	59	4647
2026-01-09 23:00:34.36	25.85	11.53	-44.0	-46.2	16.5	0.00e+00	0	42	0	0	59	4682
2026-01-09 23:00:35.65	25.93	11.64	-44.0	-46.2	16.5	0.00e+00	0	42	0	0	59	4680
2026-01-09 23:00:36.37	25.98	11.70	-43.7	-45.9	16.8	0.00e+00	0	42	0	0	59	4525
2026-01-09 23:00:37.66	26.06	11.81	-43.8	-46.0	16.7	0.00e+00	0	42	0	0	59	4587
2026-01-09 23:00:38.66	26.12	11.90	-43.8	-46.0	16.7	0.00e+00	0	42	0	0	59	4568
2026-01-09 23:00:39.96	26.21	12.01	-43.7	-45.8	16.9	0.00e+00	0	42	0	0	59	4470
2026-01-09 23:00:40.70	26.26	12.08	-43.7	-45.9	16.8	0.00e+00	0	42	0	0	59	4524
2026-01-09 23:00:41.98	26.34	12.19	-43.7	-45.8	16.9	0.00e+00	0	42	0	0	59	4489
2026-01-09 23:00:42.70	26.39	12.26	-43.7	-45.9	16.9	0.00e+00	0	42	0	0	59	4510
2026-01-09 23:00:43.99	26.48	12.37	-43.6	-45.8	17.0	0.00e+00	0	42	0	0	59	4462
2026-01-09 23:00:44.70	26.52	12.44	-43.7	-45.9	16.9	0.00e+00	0	42	0	0	59	4501
2026-01-09 23:00:45.99	26.61	12.55	-43.6	-45.7	17.0	0.00e+00	0	42	0	0	59	4427
2026-01-09 23:00:46.71	26.66	12.62	-43.6	-45.7	17.0	0.00e+00	0	42	0	0	59	4435
2026-01-09 23:00:48.00	26.75	12.73	-43.6	-45.7	17.1	0.00e+00	0	42	0	0	59	4408
2026-01-09 23:00:48.72	26.80	12.80	-43.7	-45.8	16.9	0.00e+00	0	42	0	0	59	4487
2026-01-09 23:00:50.01	26.89	12.92	-43.7	-45.9	16.9	0.00e+00	0	42	0	0	59	4505
2026-01-09 23:00:50.72	26.93	12.98	-43.7	-45.8	16.9	0.00e+00	0	42	0	0	59	4481
2026-01-09 23:00:52.01	27.02	13.10	-43.5	-45.7	17.1	0.00e+00	0	42	0	0	59	4404
2026-01-09 23:00:52.73	27.08	13.17	-43.6	-45.7	17.1	0.00e+00	0	42	0	0	58	4667
2026-01-09 23:00:54.16	27.18	13.30	-43.6	-45.7	17.1	0.00e+00	0	42	0	0	58	4692
2026-01-09 23:00:54.88	27.23	13.36	-43.5	-45.6	17.2	0.00e+00	0	42	0	0	58	4629
2026-01-09 23:00:56.25	27.33	13.49	-43.5	-45.6	17.2	0.00e+00	0	42	0	0	58	4633
2026-01-09 23:00:56.97	27.38	13.56	-43.6	-45.7	17.1	0.00e+00	0	42	0	0	58	4697
2026-01-09 23:00:58.26	27.47	13.68	-43.4	-45.5	17.3	0.00e+00	0	42	0	0	58	4593
2026-01-09 23:00:58.97	27.52	13.75	-43.5	-45.6	17.2	0.00e+00	0	42	0	0	58	4630
2026-01-09 23:01:00.26	27.62	13.87	-43.5	-45.6	17.2	0.00e+00	0	42	0	0	58	4635
2026-01-09 23:01:00.98	27.67	13.94	-43.5	-45.6	17.2	0.00e+00	0	42	0	0	58	4636
2026-01-09 23:01:02.27	27.76	14.06	-43.4	-45.6	17.2	0.00e+00	0	42	0	0	58	4623
2026-01-09 23:01:02.98	27.82	14.13	-43.4	-45.6	17.2	0.00e+00	0	42	0	0	58	4624
2026-01-09 23:01:04.27	27.91	14.25	-43.4	-45.6	17.2	0.00e+00	0	42	0	0	58	4604
2026-01-09 23:01:05.05	27.97	14.32	-43.4	-45.6	17.2	0.00e+00	0	42	0	0	58	4623
2026-01-09 23:01:06.57	28.09	14.47	-43.3	-45.5	17.3	0.00e+00	0	42	0	0	58	4578
2026-01-09 23:01:07.28	28.14	14.54	-43.4	-45.6	17.2	0.00e+00	0	42	0	0	58	4613
2026-01-09 23:01:08.73	28.26	14.68	-43.4	-45.6	17.2	0.00e+00	0	42	0	0	58	4625
2026-01-09 23:01:09.45	28.31	14.75	-43.4	-45.6	17.2	0.00e+00	0	42	0	0	58	4619
2026-01-09 23:01:10.74	28.41	14.88	-43.5	-45.7	17.2	0.00e+00	0	42	0	0	58	4665
2026-01-09 23:01:11.45	28.47	14.95	-43.6	-45.8	17.1	0.00e+00	0	42	0	0	58	4719
2026-01-09 23:01:12.74	28.57	15.07	-43.7	-45.8	17.0	0.00e+00	0	42	0	0	58	4752
2026-01-09 23:01:13.46	28.63	15.14	-43.6	-45.8	17.0	0.00e+00	0	42	0	0	58	4731
2026-01-09 23:01:14.75	28.73	15.27	-43.6	-45.7	17.1	0.00e+00	0	42	0	0	58	4679
2026-01-09 23:01:15.47	28.79	15.34	-43.6	-45.8	17.1	0.00e+00	0	42	0	0	58	4715
2026-01-09 23:01:16.76	28.89	15.47	-43.8	-45.9	16.9	0.00e+00	0	42	0	0	58	4802
2026-01-09 23:01:17.51	28.95	15.55	-43.7	-45.8	17.0	0.00e+00	0	42	0	0	58	4741
2026-01-09 23:01:18.80	29.06	15.68	-43.8	-45.9	17.0	0.00e+00	0	42	0	0	58	4790
2026-01-09 23:01:19.51	29.12	15.75	-43.7	-45.8	17.0	0.00e+00	0	42	0	0	58	4756
2026-01-09 23:01:20.80	29.23	15.88	-43.8	-45.9	16.9	0.00e+00	0	42	0	0	58	4812
2026-01-09 23:01:21.52	29.29	15.95	-43.9	-46.0	16.9	0.00e+00	0	42	0	0	58	4863
2026-01-09 23:01:22.81	29.39	16.09	-43.9	-46.1	16.8	0.00e+00	0	42	0	0	58	4880
2026-01-09 23:01:23.53	29.46	16.16	-44.0	-46.1	16.8	0.00e+00	0	42	0	0	58	4902
2026-01-09 23:01:24.84	29.57	16.29	-44.0	-46.1	16.9	0.00e+00	0	42	0	0	58	4875
2026-01-09 23:01:25.56	29.63	16.37	-44.0	-46.1	16.8	0.00e+00	0	42	0	0	58	4913
2026-01-09 23:01:26.85	29.74	16.50	-44.0	-46.2	16.8	0.00e+00	0	42	0	0	58	4929
2026-01-09 23:01:27.57	29.80	16.58	-43.9	-46.0	16.9	0.00e+00	0	42	0	0	58	4866
2026-01-09 23:01:28.86	29.92	16.71	-43.8	-45.8	17.1	0.00e+00	0	42	0	0	58	4759
2026-01-09 23:01:29.57	29.98	16.79	-43.9	-46.0	17.0	0.00e+00	0	42	0	0	58	4818
2026-01-09 23:01:30.86	30.09	16.92	-43.9	-46.0	16.9	0.00e+00	0	42	0	0	58	4849
2026-01-09 23:01:31.58	30.16	17.00	-44.0	-46.1	16.9	0.00e+00	0	42	0	0	58	4893
2026-01-09 23:01:33.19	30.30	17.17	-44.0	-46.2	16.8	0.00e+00	0	42	0	0	58	4951
2026-01-09 23:01:34.03	30.38	17.26	-44.0	-46.2	16.8	0.00e+00	0	42	0	0	58	4937
2026-01-09 23:01:35.17	30.48	17.38	-43.9	-46.0	17.0	0.00e+00	0	42	0	0	58	4843
2026-01-09 23:01:36.03	30.56	17.47	-43.9	-46.0	16.9	0.00e+00	0	42	0	0	58	4854
2026-01-09 23:01:37.18	30.67	17.60	-43.9	-46.0	16.9	0.00e+00	0	42	0	0	58	4869
2026-01-09 23:01:38.04	30.75	17.69	-44.0	-46.2	16.8	0.00e+00	0	42	0	0	58	4938
2026-01-09 23:01:39.19	30.86	17.81	-44.0	-46.1	16.8	0.00e+00	0	42	0	0	58	4910
2026-01-09 23:01:40.05	30.94	17.91	-44.0	-46.2	16.8	0.00e+00	0	42	0	0	58	4948
2026-01-09 23:01:41.19	31.05	18.03	-43.9	-46.1	16.9	0.00e+00	0	42	0	0	58	4873
2026-01-09 23:01:42.05	31.13	18.13	-43.9	-46.0	16.9	0.00e+00	0	42	0	0	58	4862
2026-01-09 23:01:43.49	31.27	18.29	-44.0	-46.0	16.9	0.00e+00	0	42	0	0	58	4870
2026-01-09 23:01:44.20	31.34	18.37	-43.9	-46.0	17.0	0.00e+00	0	42	0	0	58	4818
2026-01-09 23:01:45.49	31.46	18.51	-43.8	-45.9	17.1	0.00e+00	0	42	0	0	58	4762
2026-01-09 23:01:46.21	31.54	18.59	-43.8	-45.9	17.0	0.00e+00	0	42	0	0	58	4781
2026-01-09 23:01:47.77	31.69	18.76	-43.8	-45.8	17.1	0.00e+00	0	42	0	0	58	4754
2026-01-09 23:01:48.35	31.75	18.83	-43.8	-45.9	17.1	0.00e+00	0	42	0	0	58	4770
2026-01-09 23:01:50.16	31.93	19.03	-43.5	-45.6	17.3	0.00e+00	0	42	0	0	58	4615
2026-01-09 23:01:50.74	31.99	19.10	-43.5	-45.5	17.4	0.00e+00	0	42	0	0	58	4596
2026-01-09 23:01:52.31	32.15	19.28	-43.4	-45.4	17.5	0.00e+00	0	42	0	0	58	4544
2026-01-09 23:01:52.91	32.22	19.35	-43.3	-45.3	17.6	0.00e+00	0	42	0	0	58	4485
2026-01-09 23:01:54.49	32.38	19.53	-43.4	-45.4	17.5	0.00e+00	0	42	0	0	58	4543
2026-01-09 23:01:55.11	32.45	19.60	-43.3	-45.3	17.6	0.00e+00	0	42	0	0	58	4482
2026-01-09 23:01:56.86	32.63	19.81	-43.2	-45.2	17.7	0.00e+00	0	43	0	0	58	4422
2026-01-09 23:01:57.43	32.69	19.87	-43.2	-45.2	17.7	0.00e+00	0	42	0	0	58	4431
2026-01-09 23:01:59.02	32.86	20.06	-43.1	-45.2	17.7	0.00e+00	0	42	0	0	58	4396
2026-01-09 23:01:59.60	32.93	20.13	-43.1	-45.2	17.8	0.00e+00	0	42	0	0	58	4395
2026-01-09 23:02:01.20	33.10	20.32	-43.0	-45.0	18.0	0.00e+00	0	43	0	0	58	4295
2026-01-09 23:02:02.11	33.20	20.42	-43.0	-45.0	17.9	0.00e+00	0	42	0	0	58	4301
2026-01-09 23:02:03.12	33.32	20.54	-42.9	-44.9	18.0	0.00e+00	0	42	0	0	57	4509
2026-01-09 23:02:04.12	33.43	20.66	-42.8	-44.8	18.1	0.00e+00	0	42	0	0	57	4447
2026-01-09 23:02:05.12	33.54	20.78	-42.9	-44.8	18.1	0.00e+00	0	42	0	0	57	4465
2026-01-09 23:02:06.17	33.66	20.91	-42.9	-44.9	18.0	0.00e+00	0	42	0	0	57	4494
2026-01-09 23:02:07.05	33.76	21.02	-42.8	-44.7	18.1	0.00e+00	0	42	0	0	57	4434
2026-01-09 23:02:08.19	33.89	21.16	-42.8	-44.7	18.2	0.00e+00	0	42	0	0	57	4397
2026-01-09 23:02:09.05	33.99	21.26	-42.6	-44.5	18.3	0.00e+00	0	42	0	0	57	4316
2026-01-09 23:02:10.19	34.13	21.40	-42.6	-44.5	18.4	0.00e+00	0	42	0	0	57	4295
2026-01-09 23:02:11.25	34.25	21.53	-42.5	-44.4	18.4	0.00e+00	0	42	0	0	57	4277
2026-01-09 23:02:12.11	34.36	21.64	-42.6	-44.5	18.4	0.00e+00	0	42	0	0	57	4301
2026-01-09 23:02:13.26	34.50	21.78	-42.5	-44.4	18.5	0.00e+00	0	42	0	0	57	4250
2026-01-09 23:02:14.11	34.60	21.89	-42.5	-44.4	18.5	0.00e+00	0	42	0	0	57	4266
2026-01-09 23:02:15.26	34.74	22.03	-42.5	-44.4	18.4	0.00e+00	0	42	0	0	57	4280
2026-01-09 23:02:16.12	34.85	22.14	-42.5	-44.4	18.5	0.00e+00	0	42	0	0	56	4510
2026-01-09 23:02:17.28	34.99	22.28	-42.4	-44.2	18.6	0.00e+00	0	42	0	0	56	4428
2026-01-09 23:02:18.14	35.10	22.39	-42.4	-44.2	18.6	0.00e+00	0	42	0	0	56	4435
2026-01-09 23:02:19.35	35.25	22.55	-42.4	-44.3	18.6	0.00e+00	0	42	0	0	56	4451
2026-01-09 23:02:20.21	35.36	22.65	-42.2	-44.1	18.7	0.00e+00	0	42	0	0	56	4359
2026-01-09 23:02:21.42	35.51	22.81	-42.2	-44.1	18.8	0.00e+00	0	42	0	0	56	4344
2026-01-09 23:02:22.28	35.63	22.92	-42.3	-44.2	18.7	0.00e+00	0	43	0	0	56	4394
2026-01-09 23:02:23.43	35.78	23.07	-42.3	-44.1	18.7	0.00e+00	0	42	0	0	56	4388
2026-01-09 23:02:24.31	35.89	23.18	-42.2	-44.0	18.8	0.00e+00	0	42	0	0	56	4338
2026-01-09 23:02:25.63	36.07	23.35	-42.3	-44.1	18.7	0.00e+00	0	42	0	0	56	4383
2026-01-09 23:02:26.34	36.16	23.45	-42.3	-44.1	18.7	0.00e+00	0	42	0	0	56	4378
2026-01-09 23:02:27.84	36.36	23.64	-42.3	-44.1	18.7	0.00e+00	0	42	0	0	56	4368
2026-01-09 23:02:28.56	36.46	23.74	-42.3	-44.1	18.8	0.00e+00	0	42	0	0	56	4359
2026-01-09 23:02:29.85	36.64	23.91	-42.2	-44.1	18.8	0.00e+00	0	42	0	0	56	4341
2026-01-09 23:02:30.57	36.74	24.00	-42.3	-44.2	18.8	0.00e+00	0	42	0	0	56	4403
2026-01-09 23:02:31.85	36.92	24.18	-42.4	-44.2	18.7	0.00e+00	0	43	0	0	56	4414
2026-01-09 23:02:32.57	37.02	24.27	-42.3	-44.2	18.8	0.00e+00	0	42	0	0	56	4393
2026-01-09 23:02:33.86	37.20	24.45	-42.5	-44.3	18.7	0.00e+00	0	43	0	0	56	4457
2026-01-09 23:02:34.58	37.30	24.54	-42.4	-44.2	18.7	0.00e+00	0	43	0	0	56	4429
2026-01-09 23:02:35.87	37.49	24.72	-42.4	-44.2	18.7	0.00e+00	0	42	0	0	56	4427
2026-01-09 23:02:36.59	37.59	24.81	-42.5	-44.3	18.6	0.00e+00	0	42	0	0	56	4477
2026-01-09 23:02:37.88	37.78	24.99	-42.5	-44.4	18.6	0.00e+00	0	43	0	0	56	4497
2026-01-09 23:02:38.59	37.89	25.09	-42.5	-44.4	18.6	0.00e+00	0	43	0	0	56	4505
2026-01-09 23:02:40.23	38.13	25.31	-42.7	-44.5	18.4	0.00e+00	0	42	0	0	56	4591
2026-01-09 23:02:40.80	38.22	25.39	-42.7	-44.6	18.4	0.00e+00	0	42	0	0	56	4630
2026-01-09 23:02:42.38	38.46	25.61	-42.9	-44.8	18.2	0.00e+00	0	42	0	0	56	4739
2026-01-09 23:02:42.96	38.55	25.69	-43.0	-45.0	18.1	0.00e+00	0	43	0	0	56	4820
2026-01-09 23:02:44.55	38.80	25.91	-43.1	-45.0	18.0	0.00e+00	0	43	0	0	56	4868
2026-01-09 23:02:45.12	38.89	25.99	-43.1	-45.0	18.1	0.00e+00	0	42	0	0	56	4848
2026-01-09 23:02:46.70	39.13	26.22	-42.9	-44.9	18.2	0.00e+00	0	42	0	0	56	4764
2026-01-09 23:02:47.29	39.23	26.30	-43.0	-44.9	18.1	0.00e+00	0	43	0	0	56	4806
2026-01-09 23:02:48.86	39.48	26.52	-43.0	-45.0	18.0	0.00e+00	0	42	0	0	56	4822
2026-01-09 23:02:49.49	39.58	26.61	-43.1	-45.0	18.0	0.00e+00	0	43	0	0	56	4842
2026-01-09 23:02:50.93	39.82	26.82	-43.1	-45.0	17.9	0.00e+00	0	43	0	0	56	4865
2026-01-09 23:02:51.64	39.94	26.92	-43.0	-44.9	18.1	0.00e+00	0	42	0	0	56	4770
2026-01-09 23:02:52.93	40.15	27.11	-43.1	-45.0	18.0	0.00e+00	0	43	0	0	56	4833
2026-01-09 23:02:53.65	40.27	27.21	-43.1	-45.0	18.0	0.00e+00	0	43	0	0	56	4858
2026-01-09 23:02:54.94	40.49	27.40	-43.2	-45.1	17.9	0.00e+00	0	42	0	0	57	4635
2026-01-09 23:02:55.65	40.62	27.50	-43.1	-45.0	17.9	0.00e+00	0	43	0	0	57	4597
2026-01-09 23:02:56.94	40.84	27.69	-43.1	-45.0	18.0	0.00e+00	0	42	0	0	57	4588
2026-01-09 23:02:57.66	40.96	27.80	-43.0	-44.9	18.0	0.00e+00	0	43	0	0	57	4538
2026-01-09 23:02:58.95	41.19	27.99	-43.1	-45.0	18.0	0.00e+00	0	42	0	0	57	4592
2026-01-09 23:02:59.66	41.32	28.09	-43.1	-45.0	18.0	0.00e+00	0	43	0	0	57	4597
2026-01-09 23:03:00.95	41.55	28.28	-43.2	-45.1	17.9	0.00e+00	0	42	0	0	57	4630
2026-01-09 23:03:01.67	41.68	28.39	-43.1	-45.1	17.9	0.00e+00	0	43	0	0	57	4606
2026-01-09 23:03:02.96	41.91	28.58	-43.3	-45.2	17.8	0.00e+00	0	42	0	0	57	4682
2026-01-09 23:03:03.67	42.05	28.69	-43.2	-45.2	17.8	0.00e+00	0	43	0	0	57	4657
2026-01-09 23:03:04.96	42.29	28.88	-43.2	-45.1	17.8	0.00e+00	0	42	0	0	57	4637
2026-01-09 23:03:05.68	42.42	28.99	-43.2	-45.1	17.9	0.00e+00	0	42	0	0	57	4622
2026-01-09 23:03:06.97	42.67	29.19	-43.2	-45.1	17.9	0.00e+00	0	43	0	0	57	4632
2026-01-09 23:03:07.68	42.80	29.30	-43.2	-45.2	17.8	0.00e+00	0	42	0	0	57	4660
2026-01-09 23:03:08.97	43.05	29.49	-43.3	-45.2	17.8	0.00e+00	0	43	0	0	57	4668
2026-01-09 23:03:09.69	43.19	29.60	-43.2	-45.1	17.9	0.00e+00	0	43	0	0	57	4637
2026-01-09 23:03:10.98	43.44	29.80	-43.1	-45.0	18.0	0.00e+00	0	43	0	0	57	4583
2026-01-09 23:03:11.70	43.59	29.91	-43.1	-45.0	18.0	0.00e+00	0	43	0	0	57	4581
2026-01-09 23:03:12.99	43.85	30.11	-43.0	-45.0	18.0	0.00e+00	0	42	0	0	57	4549
2026-01-09 23:03:13.70	43.99	30.22	-43.0	-44.9	18.1	0.00e+00	0	43	0	0	57	4526
2026-01-09 23:03:15.09	44.27	30.44	-42.9	-44.8	18.2	0.00e+00	0	42	0	0	57	4485
2026-01-09 23:03:15.81	44.42	30.55	-42.8	-44.7	18.3	0.00e+00	0	42	0	0	57	4431
2026-01-09 23:03:17.15	44.70	30.76	-42.9	-44.8	18.3	0.00e+00	0	43	0	0	57	4444
2026-01-09 23:03:17.86	44.85	30.87	-42.9	-44.7	18.3	0.00e+00	0	42	0	0	57	4438
2026-01-09 23:03:19.23	45.14	31.08	-42.9	-44.8	18.2	0.00e+00	0	42	0	0	57	4456
2026-01-09 23:03:19.95	45.30	31.20	-42.9	-44.8	18.2	0.00e+00	0	42	0	0	57	4484
2026-01-09 23:03:21.24	45.58	31.40	-43.0	-44.9	18.1	0.00e+00	0	43	0	0	57	4527
2026-01-09 23:03:21.96	45.73	31.51	-43.1	-45.0	18.0	0.00e+00	0	43	0	0	57	4591
2026-01-09 23:03:23.25	46.02	31.72	-43.2	-45.1	18.0	0.00e+00	0	43	0	0	57	4633
2026-01-09 23:03:23.96	46.18	31.83	-43.2	-45.1	18.0	0.00e+00	0	43	0	0	57	4601
2026-01-09 23:03:25.25	46.47	32.04	-43.4	-45.3	17.7	0.00e+00	0	42	0	0	57	4748
2026-01-09 23:03:25.97	46.63	32.15	-43.5	-45.5	17.6	0.00e+00	0	42	0	0	57	4829
2026-01-09 23:03:27.26	46.93	32.36	-43.5	-45.5	17.6	0.00e+00	0	42	0	0	57	4816
2026-01-09 23:03:27.97	47.09	32.47	-43.5	-45.5	17.5	0.00e+00	0	42	0	0	57	4855
2026-01-09 23:03:29.26	47.39	32.68	-43.6	-45.6	17.4	0.00e+00	0	42	0	0	57	4885
2026-01-09 23:03:29.98	47.56	32.80	-43.6	-45.6	17.4	0.00e+00	0	42	0	0	57	4914
2026-01-09 23:03:31.27	47.87	33.01	-43.7	-45.7	17.3	0.00e+00	0	43	0	0	58	4696
2026-01-09 23:03:31.99	48.04	33.12	-43.8	-45.8	17.2	0.00e+00	0	43	0	0	58	4752
2026-01-09 23:03:33.28	48.36	33.33	-43.9	-45.9	17.2	0.00e+00	0	43	0	0	58	4786
2026-01-09 23:03:33.99	48.53	33.45	-43.9	-46.0	17.1	0.00e+00	0	43	0	0	58	4824
2026-01-09 23:03:35.28	48.85	33.66	-43.9	-45.9	17.2	0.00e+00	0	42	0	0	58	4784
2026-01-09 23:03:36.00	49.03	33.78	-43.9	-45.9	17.2	0.00e+00	0	43	0	0	58	4800
2026-01-09 23:03:37.29	49.36	33.99	-43.8	-45.9	17.3	0.00e+00	0	42	0	0	58	4766
2026-01-09 23:03:38.00	49.54	34.10	-43.8	-45.8	17.3	0.00e+00	0	42	0	0	58	4740
2026-01-09 23:03:39.29	49.88	34.31	-43.8	-45.8	17.3	0.00e+00	0	42	0	0	58	4746
2026-01-09 23:03:40.01	50.06	34.43	-43.9	-45.9	17.2	0.00e+00	0	43	0	0	58	4793
2026-01-09 23:03:41.30	50.40	34.64	-43.9	-45.9	17.1	0.00e+00	0	42	0	0	58	4805
2026-01-09 23:03:42.08	50.61	34.77	-43.8	-45.8	17.2	0.00e+00	0	43	0	0	58	4719
2026-01-09 23:03:43.69	51.04	35.04	-43.8	-45.8	17.2	0.00e+00	0	42	0	0	58	4743
2026-01-09 23:03:44.54	51.28	35.18	-44.0	-46.0	17.1	0.00e+00	0	43	0	0	58	4840
2026-01-09 23:03:45.68	51.59	35.37	-44.0	-46.0	17.1	0.00e+00	0	43	0	0	58	4859
2026-01-09 23:03:46.54	51.83	35.51	-44.3	-46.4	16.8	0.00e+00	0	43	0	0	59	4774
2026-01-09 23:03:47.69	52.15	35.70	-44.4	-46.5	16.7	0.00e+00	0	43	0	0	59	4847
2026-01-09 23:03:48.55	52.40	35.84	-44.5	-46.7	16.5	0.00e+00	0	43	0	0	59	4953
2026-01-09 23:03:49.70	52.73	36.03	-44.6	-46.7	16.5	0.00e+00	0	43	0	0	59	4965
2026-01-09 23:03:50.56	52.98	36.18	-44.6	-46.8	16.4	0.00e+00	0	43	0	0	59	4996
2026-01-09 23:03:51.71	53.31	36.37	-44.7	-46.9	16.4	0.00e+00	0	43	0	0	60	4774
2026-01-09 23:03:52.57	53.57	36.51	-44.7	-46.9	16.3	0.00e+00	0	42	0	0	60	4796
2026-01-09 23:03:53.71	53.91	36.70	-44.8	-47.0	16.2	0.00e+00	0	43	0	0	60	4839
2026-01-09 23:03:54.57	54.17	36.84	-44.8	-47.0	16.2	0.00e+00	0	43	0	0	60	4864
2026-01-09 23:03:55.72	54.52	37.03	-44.8	-47.0	16.2	0.00e+00	0	43	0	0	60	4860
2026-01-09 23:03:56.82	54.86	37.21	-44.9	-47.2	16.0	0.00e+00	0	43	0	0	60	4950
2026-01-09 23:03:57.68	55.12	37.36	-45.0	-47.4	15.9	0.00e+00	0	42	0	0	60	5048
2026-01-09 23:03:58.83	55.49	37.55	-45.1	-47.5	15.8	0.00e+00	0	43	0	0	61	4826
2026-01-09 23:03:59.69	55.76	37.69	-45.1	-47.5	15.8	0.00e+00	0	42	0	0	61	4820
2026-01-09 23:04:00.83	56.12	37.88	-45.1	-47.4	15.8	0.00e+00	0	43	0	0	61	4800
2026-01-09 23:04:01.69	56.40	38.02	-45.0	-47.3	15.8	0.00e+00	0	43	0	0	61	4745
2026-01-09 23:04:02.84	56.78	38.21	-45.1	-47.4	15.8	0.00e+00	0	43	0	0	61	4766
2026-01-09 23:04:03.70	57.06	38.35	-45.0	-47.3	15.9	0.00e+00	0	43	0	0	61	4725
2026-01-09 23:04:04.94	57.48	38.56	-44.9	-47.2	16.1	0.00e+00	0	43	0	0	61	4697
2026-01-09 23:04:05.80	57.77	38.70	-44.8	-47.0	16.2	0.00e+00	0	43	0	0	61	4588
2026-01-09 23:04:06.94	58.16	38.88	-44.7	-46.8	16.4	0.00e+00	0	42	0	0	61	4489
2026-01-09 23:04:07.80	58.45	39.02	-44.6	-46.8	16.5	0.00e+00	0	43	0	0	61	4475
2026-01-09 23:04:09.11	58.91	39.24	-44.5	-46.7	16.6	0.00e+00	0	43	0	0	61	4410
2026-01-09 23:04:09.83	59.16	39.36	-44.4	-46.5	16.7	0.00e+00	0	43	0	0	60	4587
2026-01-09 23:04:11.11	59.62	39.56	-44.5	-46.6	16.7	0.00e+00	0	43	0	0	60	4642
2026-01-09 23:04:11.83	59.87	39.68	-44.4	-46.6	16.7	0.00e+00	0	43	0	0	60	4614
2026-01-09 23:04:13.12	60.34	39.89	-44.5	-46.6	16.7	0.00e+00	0	43	0	0	60	4634
2026-01-09 23:04:13.87	60.62	40.01	-44.5	-46.7	16.6	0.00e+00	0	43	0	0	60	4669
2026-01-09 23:04:15.16	61.09	40.22	-44.6	-46.7	16.6	0.00e+00	0	43	0	0	60	4686
2026-01-09 23:04:15.92	61.38	40.34	-44.6	-46.7	16.6	0.00e+00	0	43	0	0	60	4691
2026-01-09 23:04:17.21	61.86	40.54	-44.8	-47.1	16.2	0.00e+00	0	43	0	0	60	4873
2026-01-09 23:04:17.93	62.14	40.66	-45.1	-47.4	15.9	0.00e+00	0	43	0	0	60	5059
2026-01-09 23:04:19.22	62.63	40.86	-45.3	-47.7	15.6	0.00e+00	0	43	0	0	61	4929
2026-01-09 23:04:20.08	62.97	40.99	-45.4	-47.8	15.6	0.00e+00	0	43	0	0	61	4997
2026-01-09 23:04:21.55	63.54	41.22	-45.3	-47.7	15.6	0.00e+00	0	43	0	0	61	4963
2026-01-09 23:04:22.27	63.83	41.34	-45.4	-47.8	15.5	0.00e+00	0	43	0	0	61	4995
2026-01-09 23:04:23.74	64.42	41.56	-45.4	-47.8	15.6	0.00e+00	0	43	0	0	61	5012
2026-01-09 23:04:24.46	64.71	41.67	-45.4	-47.8	15.6	0.00e+00	0	43	0	0	61	4997
2026-01-09 23:04:25.75	65.24	41.87	-45.1	-47.4	15.9	0.00e+00	0	43	0	0	61	4806
2026-01-09 23:04:26.47	65.53	41.98	-45.1	-47.5	15.9	0.00e+00	0	42	0	0	61	4815
2026-01-09 23:04:27.75	66.07	42.17	-45.2	-47.5	15.8	0.00e+00	0	42	0	0	61	4864
2026-01-09 23:04:28.47	66.37	42.28	-45.1	-47.5	15.9	0.00e+00	0	42	0	0	61	4815
2026-01-09 23:04:29.76	66.92	42.47	-45.1	-47.4	15.9	0.00e+00	0	43	0	0	61	4802
2026-01-09 23:04:30.49	67.23	42.58	-45.0	-47.2	16.0	0.00e+00	0	42	0	0	61	4702
2026-01-09 23:04:31.78	67.79	42.76	-44.9	-47.2	16.1	0.00e+00	0	43	0	0	61	4668
2026-01-09 23:04:32.56	68.13	42.88	-44.8	-47.1	16.2	0.00e+00	0	43	0	0	61	4614
2026-01-09 23:04:33.85	68.70	43.06	-44.7	-47.0	16.3	0.00e+00	0	43	0	0	61	4558
2026-01-09 23:04:34.56	69.01	43.16	-44.9	-47.1	16.2	0.00e+00	0	43	0	0	61	4620
2026-01-09 23:04:35.86	69.59	43.34	-45.0	-47.3	16.0	0.00e+00	0	43	0	0	61	4710
2026-01-09 23:04:36.70	69.97	43.46	-45.1	-47.4	15.8	0.00e+00	0	43	0	0	61	4800
2026-01-09 23:04:37.85	70.50	43.62	-45.3	-47.7	15.6	0.00e+00	0	43	0	0	61	4948
2026-01-09 23:04:38.71	70.89	43.74	-45.4	-47.8	15.4	0.00e+00	0	43	0	0	61	5035
2026-01-09 23:04:39.86	71.43	43.89	-45.5	-48.0	15.3	0.00e+00	0	43	0	0	61	5112
2026-01-09 23:04:40.71	71.83	44.00	-45.5	-48.0	15.3	0.00e+00	0	43	0	0	61	5119
2026-01-09 23:04:41.86	72.37	44.15	-45.3	-47.6	15.7	0.00e+00	0	43	0	0	61	4912
2026-01-09 23:04:42.72	72.78	44.27	-45.0	-47.3	16.0	0.00e+00	0	43	0	0	61	4720
2026-01-09 23:04:43.87	73.33	44.41	-44.9	-47.2	16.1	0.00e+00	0	43	0	0	61	4682
2026-01-09 23:04:44.73	73.74	44.52	-45.1	-47.4	15.9	0.00e+00	0	43	0	0	61	4782
2026-01-09 23:04:46.03	74.38	44.68	-45.1	-47.5	15.9	0.00e+00	0	43	0	0	61	4816
2026-01-09 23:04:46.75	74.73	44.77	-45.2	-47.5	15.9	0.00e+00	0	43	0	0	61	4832
2026-01-09 23:04:48.23	75.46	44.95	-45.4	-47.8	15.5	0.00e+00	0	43	0	0	61	5019
2026-01-09 23:04:48.95	75.82	45.03	-45.4	-47.8	15.5	0.00e+00	0	43	0	0	61	5006
2026-01-09 23:04:50.27	76.49	45.18	-45.4	-47.7	15.6	0.00e+00	0	43	0	0	61	4974
2026-01-09 23:04:50.99	76.85	45.27	-45.3	-47.6	15.7	0.00e+00	0	43	0	0	61	4918
2026-01-09 23:04:52.27	77.51	45.41	-45.3	-47.6	15.6	0.00e+00	0	43	0	0	61	4925
2026-01-09 23:04:52.99	77.88	45.49	-45.3	-47.7	15.7	0.00e+00	0	43	0	0	61	4930
2026-01-09 23:04:54.28	78.54	45.63	-45.2	-47.6	15.8	0.00e+00	0	43	0	0	61	4872
2026-01-09 23:04:54.99	78.91	45.70	-45.3	-47.6	15.7	0.00e+00	0	43	0	0	61	4899
2026-01-09 23:04:56.28	79.59	45.83	-45.2	-47.6	15.7	0.00e+00	0	43	0	0	61	4897
2026-01-09 23:04:57.03	79.98	45.91	-45.3	-47.7	15.5	0.00e+00	0	43	0	0	61	4955
2026-01-09 23:04:58.33	80.68	46.03	-45.3	-47.7	15.6	0.00e+00	0	43	0	0	61	4947
2026-01-09 23:04:59.04	81.05	46.10	-45.2	-47.6	15.7	0.00e+00	0	43	0	0	61	4883
2026-01-09 23:05:00.33	81.75	46.22	-45.2	-47.5	15.7	0.00e+00	0	43	0	0	61	4866
2026-01-09 23:05:01.04	82.13	46.29	-45.3	-47.8	15.5	0.00e+00	0	43	0	0	61	4994
2026-01-09 23:05:02.33	82.83	46.40	-45.5	-48.1	15.3	0.00e+00	0	43	0	0	61	5166
2026-01-09 23:05:03.05	83.23	46.46	-45.6	-48.2	15.2	0.00e+00	0	43	0	0	61	5225
2026-01-09 23:05:04.34	83.94	46.57	-45.6	-48.2	15.0	0.00e+00	0	43	0	0	61	5277
2026-01-09 23:05:05.06	84.33	46.62	-45.5	-48.1	15.0	0.00e+00	0	43	0	0	61	5200
2026-01-09 23:05:06.35	85.05	46.72	-45.1	-47.6	15.5	0.00e+00	0	43	0	0	61	4893
2026-01-09 23:05:07.06	85.45	46.78	-45.2	-47.6	15.6	0.00e+00	0	43	0	0	61	4907
2026-01-09 23:05:08.35	86.17	46.87	-45.0	-47.3	15.9	0.00e+00	0	43	0	0	61	4751
2026-01-09 23:05:09.07	86.57	46.92	-44.9	-47.3	16.0	0.00e+00	0	43	0	0	61	4718
2026-01-09 23:05:10.36	87.30	47.00	-45.0	-47.4	15.8	0.00e+00	0	43	0	0	61	4781
2026-01-09 23:05:11.08	87.71	47.05	-45.0	-47.4	15.8	0.00e+00	0	42	0	0	61	4785
2026-01-09 23:05:12.37	88.45	47.13	-44.9	-47.3	15.9	0.00e+00	0	43	0	0	61	4739
2026-01-09 23:05:13.16	88.90	47.17	-44.8	-47.2	16.0	0.00e+00	0	43	0	0	61	4670
2026-01-09 23:05:14.64	89.75	47.25	-44.5	-46.6	16.5	0.00e+00	0	43	0	0	60	4647
2026-01-09 23:05:15.36	90.17	47.29	-44.6	-46.8	16.4	0.00e+00	0	43	0	0	60	4723
2026-01-09 23:05:16.65	90.91	47.35	-44.9	-47.2	16.1	0.00e+00	0	43	0	0	60	4941
2026-01-09 23:05:17.36	91.32	47.38	-45.1	-47.4	15.9	0.00e+00	0	43	0	0	60	5058
2026-01-09 23:05:18.65	92.08	47.43	-45.0	-47.3	16.0	0.00e+00	0	43	0	0	60	4993
2026-01-09 23:05:19.37	92.50	47.46	-44.8	-47.1	16.2	0.00e+00	0	43	0	0	60	4886
2026-01-09 23:05:20.65	93.24	47.50	-44.6	-46.8	16.5	0.00e+00	0	43	0	0	60	4721
2026-01-09 23:05:21.37	93.67	47.52	-44.6	-46.8	16.4	0.00e+00	0	43	0	0	60	4754
2026-01-09 23:05:22.66	94.42	47.56	-44.8	-47.0	16.2	0.00e+00	0	43	0	0	60	4861
2026-01-09 23:05:23.38	94.85	47.58	-44.9	-47.1	16.1	0.00e+00	0	43	0	0	60	4925
2026-01-09 23:05:24.67	95.61	47.61	-45.1	-47.3	15.9	0.00e+00	0	43	0	0	60	5029
2026-01-09 23:05:25.39	96.03	47.62	-45.1	-47.4	15.9	0.00e+00	0	43	0	0	61	4766
2026-01-09 23:05:26.69	96.80	47.64	-44.9	-47.1	16.1	0.00e+00	0	43	0	0	61	4649
2026-01-09 23:05:27.67	97.38	47.65	-45.0	-47.3	16.0	0.00e+00	0	43	0	0	61	4718
2026-01-09 23:05:28.96	98.14	47.66	-45.2	-47.6	15.7	0.00e+00	0	43	0	0	61	4881
2026-01-09 23:05:29.67	98.56	47.66	-45.2	-47.6	15.6	0.00e+00	0	43	0	0	61	4895
2026-01-09 23:05:30.96	99.32	47.67	-45.1	-47.4	15.8	0.00e+00	0	43	0	0	61	4786
2026-01-09 23:05:31.68	99.75	47.67	-45.2	-47.5	15.8	0.00e+00	0	43	0	0	61	4821
2026-01-09 23:05:32.97	100.51	47.66	-45.2	-47.5	15.7	0.00e+00	0	43	0	0	61	4851
2026-01-09 23:05:33.69	100.94	47.65	-45.2	-47.6	15.7	0.00e+00	0	43	0	0	61	4893
2026-01-09 23:05:35.04	101.74	47.64	-45.1	-47.4	15.8	0.00e+00	0	43	0	0	61	4806
2026-01-09 23:05:35.76	102.16	47.63	-45.0	-47.4	15.9	0.00e+00	0	43	0	0	61	4771
2026-01-09 23:05:37.13	102.97	47.60	-45.2	-47.5	15.8	0.00e+00	0	43	0	0	61	4868
2026-01-09 23:05:37.84	103.39	47.58	-45.2	-47.6	15.7	0.00e+00	0	43	0	0	61	4893
2026-01-09 23:05:39.16	104.17	47.55	-45.4	-47.9	15.5	0.00e+00	0	43	0	0	61	5057
2026-01-09 23:05:39.88	104.59	47.53	-45.5	-47.9	15.4	0.00e+00	0	43	0	0	61	5088
2026-01-09 23:05:41.17	105.34	47.49	-45.7	-48.2	15.2	0.00e+00	0	43	0	0	62	4957
2026-01-09 23:05:41.89	105.77	47.47	-45.7	-48.2	15.1	0.00e+00	0	43	0	0	62	4967
2026-01-09 23:05:43.27	106.57	47.41	-45.4	-47.8	15.6	0.00e+00	0	43	0	0	62	4724
2026-01-09 23:05:43.99	106.99	47.38	-45.3	-47.7	15.6	0.00e+00	0	43	0	0	62	4683
2026-01-09 23:05:45.28	107.74	47.33	-45.2	-47.6	15.7	0.00e+00	0	43	0	0	62	4616
2026-01-09 23:05:45.99	108.15	47.29	-45.1	-47.4	15.9	0.00e+00	0	43	0	0	62	4540
2026-01-09 23:05:47.28	108.89	47.23	-45.0	-47.3	16.0	0.00e+00	0	43	0	0	62	4477
2026-01-09 23:05:48.00	109.31	47.19	-45.2	-47.5	15.8	0.00e+00	0	43	0	0	61	4842
2026-01-09 23:05:49.29	110.05	47.12	-45.5	-47.9	15.4	0.00e+00	0	43	0	0	61	5095
2026-01-09 23:05:50.01	110.46	47.07	-45.4	-47.9	15.5	0.00e+00	0	43	0	0	61	5049
2026-01-09 23:05:51.30	111.19	46.99	-45.2	-47.6	15.7	0.00e+00	0	43	0	0	61	4906
2026-01-09 23:05:52.01	111.60	46.95	-44.8	-47.1	16.2	0.00e+00	0	43	0	0	61	4608
2026-01-09 23:05:53.30	112.32	46.86	-45.0	-47.3	16.0	0.00e+00	0	43	0	0	61	4725
2026-01-09 23:05:54.01	112.72	46.81	-45.2	-47.5	15.8	0.00e+00	0	43	0	0	61	4843
2026-01-09 23:05:55.30	113.44	46.71	-45.3	-47.7	15.6	0.00e+00	0	43	0	0	61	4942
2026-01-09 23:05:56.21	113.95	46.64	-45.6	-48.1	15.2	0.00e+00	0	43	0	0	62	4877
2026-01-09 23:05:57.21	114.50	46.56	-45.7	-48.2	15.1	0.00e+00	0	43	0	0	62	4954
2026-01-09 23:05:58.57	115.25	46.45	-45.2	-47.5	15.8	0.00e+00	0	43	0	0	62	4575
2026-01-09 23:05:59.28	115.64	46.39	-44.9	-47.2	16.0	0.00e+00	0	43	0	0	61	4672
2026-01-09 23:06:00.57	116.34	46.27	-44.8	-47.1	16.2	0.00e+00	0	43	0	0	61	4607
2026-01-09 23:06:01.29	116.73	46.21	-44.8	-47.1	16.2	0.00e+00	0	43	0	0	61	4604
2026-01-09 23:06:02.58	117.43	46.09	-45.3	-47.6	15.7	0.00e+00	0	43	0	0	61	4892
2026-01-09 23:06:03.30	117.81	46.02	-45.4	-47.8	15.5	0.00e+00	0	43	0	0	61	5009
2026-01-09 23:06:04.58	118.49	45.89	-45.7	-48.2	15.1	0.00e+00	0	43	0	0	62	4933
2026-01-09 23:06:05.30	118.87	45.82	-45.4	-47.9	15.4	7.00e-07	0	43	0	0	62	4761
2026-01-09 23:06:06.59	119.55	45.69	-44.6	-46.8	16.4	0.00e+00	0	43	0	0	61	4491
2026-01-09 23:06:07.31	119.92	45.61	-44.5	-46.7	16.5	0.00e+00	0	43	0	0	60	4675
2026-01-09 23:06:08.60	120.59	45.47	-44.4	-46.6	16.6	0.00e+00	0	43	0	0	60	4623
2026-01-09 23:06:09.32	120.96	45.39	-44.5	-46.7	16.5	0.00e+00	0	43	0	0	60	4691
2026-01-09 23:06:10.82	121.73	45.23	-44.8	-47.0	16.2	0.00e+00	0	43	0	0	60	4849
2026-01-09 23:06:11.53	122.09	45.14	-45.0	-47.2	16.0	0.00e+00	0	43	0	0	60	4975
2026-01-09 23:06:12.88	122.77	44.99	-44.9	-47.1	16.1	0.00e+00	0	43	0	0	61	4634
2026-01-09 23:06:13.60	123.13	44.90	-44.5	-46.6	16.6	0.00e+00	0	43	0	0	60	4622
2026-01-09 23:06:14.89	123.77	44.75	-44.3	-46.4	16.7	0.00e+00	0	43	0	0	60	4537
2026-01-09 23:06:15.60	124.12	44.66	-44.6	-46.8	16.4	0.00e+00	0	43	0	0	60	4719
2026-01-09 23:06:17.07	124.83	44.47	-45.0	-47.3	16.0	0.00e+00	0	43	0	0	60	5005
2026-01-09 23:06:17.79	125.18	44.38	-45.0	-47.3	16.0	0.00e+00	0	43	0	0	60	5023
2026-01-09 23:06:19.14	125.83	44.21	-44.8	-47.1	16.1	0.00e+00	0	43	0	0	60	4887
2026-01-09 23:06:19.86	126.17	44.12	-44.9	-47.2	15.9	0.00e+00	0	43	0	0	60	4963
2026-01-09 23:06:21.15	126.78	43.94	-45.1	-47.5	15.7	0.00e+00	0	43	0	0	60	5103
2026-01-09 23:06:22.20	127.27	43.80	-45.0	-47.3	15.8	0.00e+00	0	43	0	0	60	5035
2026-01-09 23:06:23.12	127.69	43.68	-45.2	-47.5	15.6	0.00e+00	0	43	0	0	61	4863
2026-01-09 23:06:24.12	128.15	43.54	-45.3	-47.7	15.5	0.00e+00	0	43	0	0	61	4953
2026-01-09 23:06:25.12	128.61	43.40	-45.6	-48.0	15.2	0.00e+00	0	43	0	0	61	5124
2026-01-09 23:06:26.15	129.08	43.26	-45.7	-48.1	15.1	0.00e+00	0	43	0	0	62	4922
2026-01-09 23:06:27.17	129.53	43.11	-45.7	-48.2	15.0	0.00e+00	0	43	0	0	62	4969
2026-01-09 23:06:28.20	129.99	42.97	-45.7	-48.2	15.0	0.00e+00	0	43	0	0	62	4957
2026-01-09 23:06:29.20	130.43	42.82	-45.8	-48.3	14.9	0.00e+00	0	43	0	0	62	5016
2026-01-09 23:06:30.25	130.89	42.67	-45.7	-48.2	15.1	0.00e+00	0	43	0	0	62	4950
2026-01-09 23:06:31.11	131.26	42.54	-45.5	-48.0	15.3	0.00e+00	0	43	0	0	62	4829
2026-01-09 23:06:32.26	131.75	42.37	-45.4	-47.8	15.5	0.00e+00	0	43	0	0	62	4733
2026-01-09 23:06:33.12	132.12	42.25	-45.4	-47.8	15.5	0.00e+00	0	43	0	0	62	4712
2026-01-09 23:06:34.27	132.60	42.07	-45.2	-47.6	15.7	0.00e+00	0	43	0	0	62	4599
2026-01-09 23:06:35.12	132.95	41.94	-45.3	-47.7	15.6	0.00e+00	0	43	0	0	62	4674
2026-01-09 23:06:36.27	133.43	41.77	-45.3	-47.7	15.6	0.00e+00	0	43	0	0	62	4688
2026-01-09 23:06:37.13	133.78	41.64	-45.1	-47.4	15.9	0.00e+00	0	43	0	0	62	4544
2026-01-09 23:06:38.68	134.41	41.40	-45.1	-47.4	15.8	0.00e+00	0	43	0	0	62	4533
2026-01-09 23:06:39.39	134.69	41.29	-44.9	-47.2	16.0	0.00e+00	0	43	0	0	61	4657
2026-01-09 23:06:40.68	135.20	41.09	-44.5	-46.7	16.5	0.00e+00	0	43	0	0	61	4414
2026-01-09 23:06:41.39	135.48	40.97	-44.5	-46.6	16.6	0.00e+00	0	43	0	0	60	4641
2026-01-09 23:06:42.68	135.98	40.77	-44.5	-46.6	16.6	0.00e+00	0	43	0	0	60	4641
2026-01-09 23:06:43.49	136.29	40.64	-44.6	-46.7	16.5	0.00e+00	0	43	0	0	60	4701
2026-01-09 23:06:44.64	136.73	40.46	-44.8	-47.1	16.1	0.00e+00	0	43	0	0	60	4905
2026-01-09 23:06:45.69	137.13	40.29	-45.0	-47.3	15.9	0.00e+00	0	43	0	0	60	5011
2026-01-09 23:06:46.55	137.45	40.15	-44.9	-47.1	16.0	0.00e+00	0	43	0	0	60	4925
2026-01-09 23:06:47.70	137.87	39.97	-44.9	-47.2	16.0	0.00e+00	0	43	0	0	60	4943
2026-01-09 23:06:48.84	138.29	39.78	-44.9	-47.2	16.0	0.00e+00	0	43	0	0	60	4932
2026-01-09 23:06:49.70	138.60	39.64	-45.0	-47.2	16.0	0.00e+00	0	43	0	0	60	4979
2026-01-09 23:06:50.85	139.01	39.46	-45.1	-47.4	15.8	0.00e+00	0	43	0	0	60	5044
2026-01-09 23:06:51.71	139.32	39.32	-45.2	-47.5	15.7	0.00e+00	0	43	0	0	61	4859
2026-01-09 23:06:52.86	139.72	39.13	-45.5	-48.0	15.3	0.00e+00	0	43	0	0	61	5103
2026-01-09 23:06:53.72	140.02	38.99	-45.5	-48.0	15.3	0.00e+00	0	43	0	0	61	5129
2026-01-09 23:06:54.90	140.43	38.79	-45.3	-47.7	15.5	0.00e+00	0	43	0	0	61	4969
2026-01-09 23:06:55.76	140.72	38.65	-45.0	-47.3	16.0	0.00e+00	0	43	0	0	61	4708
2026-01-09 23:06:56.98	141.13	38.45	-44.5	-46.7	16.5	0.00e+00	0	43	0	0	61	4427
2026-01-09 23:06:57.84	141.42	38.31	-44.3	-46.4	16.7	0.00e+00	0	43	0	0	60	4530
2026-01-09 23:06:59.02	141.81	38.11	-44.2	-46.3	16.8	0.00e+00	0	43	0	0	60	4448
2026-01-09 23:06:59.88	142.09	37.97	-44.3	-46.4	16.7	0.00e+00	0	43	0	0	60	4515
2026-01-09 23:07:01.03	142.47	37.78	-44.1	-46.3	16.9	0.00e+00	0	43	0	0	60	4443
2026-01-09 23:07:01.89	142.74	37.63	-44.1	-46.2	17.0	0.00e+00	0	43	0	0	60	4441
2026-01-09 23:07:03.11	143.13	37.43	-44.0	-46.1	17.0	0.00e+00	0	43	0	0	60	4388
2026-01-09 23:07:03.97	143.40	37.29	-44.0	-46.1	17.1	0.00e+00	0	43	0	0	59	4619
2026-01-09 23:07:05.12	143.76	37.09	-44.0	-46.0	17.1	0.00e+00	0	43	0	0	59	4584
2026-01-09 23:07:05.98	144.02	36.95	-44.1	-46.2	16.9	0.00e+00	0	43	0	0	59	4687
2026-01-09 23:07:07.12	144.37	36.76	-44.0	-46.1	17.0	0.00e+00	0	43	0	0	59	4612
2026-01-09 23:07:07.98	144.63	36.62	-43.9	-45.9	17.2	0.00e+00	0	43	0	0	59	4517
2026-01-09 23:07:09.13	144.97	36.43	-43.7	-45.7	17.4	0.00e+00	0	43	0	0	59	4416
2026-01-09 23:07:09.99	145.23	36.28	-43.7	-45.7	17.4	0.00e+00	0	43	0	0	59	4428
2026-01-09 23:07:11.13	145.56	36.09	-43.9	-45.9	17.2	0.00e+00	0	43	0	0	59	4545
2026-01-09 23:07:11.99	145.81	35.95	-44.0	-46.1	17.0	0.00e+00	0	43	0	0	59	4625
2026-01-09 23:07:13.14	146.14	35.76	-44.2	-46.3	16.9	0.00e+00	0	43	0	0	59	4715
2026-01-09 23:07:14.00	146.38	35.61	-44.3	-46.4	16.8	0.00e+00	0	43	0	0	59	4773
2026-01-09 23:07:15.15	146.71	35.42	-44.5	-46.7	16.5	0.00e+00	0	43	0	0	59	4944
2026-01-09 23:07:16.34	147.04	35.22	-44.6	-46.8	16.4	0.00e+00	0	43	0	0	59	4995
2026-01-09 23:07:17.20	147.27	35.08	-44.5	-46.6	16.5	0.00e+00	0	43	0	0	59	4925
2026-01-09 23:07:18.35	147.59	34.89	-44.2	-46.3	16.7	0.00e+00	0	43	0	0	59	4757
2026-01-09 23:07:19.21	147.82	34.75	-44.1	-46.1	16.9	0.00e+00	0	43	0	0	59	4640
2026-01-09 23:07:20.36	148.12	34.56	-43.9	-46.0	17.0	0.00e+00	0	43	0	0	59	4568
2026-01-09 23:07:21.22	148.35	34.41	-44.1	-46.2	16.9	0.00e+00	0	43	0	0	59	4657
2026-01-09 23:07:22.40	148.66	34.22	-44.2	-46.3	16.8	0.00e+00	0	43	0	0	59	4744
2026-01-09 23:07:23.26	148.88	34.08	-44.2	-46.3	16.8	0.00e+00	0	43	0	0	59	4742
2026-01-09 23:07:24.41	149.18	33.89	-44.3	-46.4	16.7	0.00e+00	0	43	0	0	59	4793
2026-01-09 23:07:25.27	149.40	33.75	-44.3	-46.5	16.6	0.00e+00	0	43	0	0	59	4822
2026-01-09 23:07:26.41	149.68	33.56	-44.2	-46.4	16.8	0.00e+00	0	43	0	0	59	4764
2026-01-09 23:07:27.31	149.91	33.41	-44.1	-46.2	16.9	0.00e+00	0	43	0	0	59	4679
2026-01-09 23:07:28.62	150.23	33.20	-43.9	-46.0	17.1	0.00e+00	0	43	0	0	59	4570
2026-01-09 23:07:29.34	150.40	33.08	-44.0	-46.1	17.0	0.00e+00	0	43	0	0	59	4602
2026-01-09 23:07:30.63	150.71	32.87	-43.8	-45.8	17.2	0.00e+00	0	43	0	0	59	4487
2026-01-09 23:07:31.34	150.88	32.75	-43.6	-45.7	17.4	0.00e+00	0	43	0	0	59	4400
2026-01-09 23:07:32.63	151.19	32.54	-43.6	-45.7	17.4	0.00e+00	0	43	0	0	59	4404
2026-01-09 23:07:33.35	151.36	32.43	-43.4	-45.4	17.6	0.00e+00	0	43	0	0	58	4525
2026-01-09 23:07:34.64	151.66	32.22	-43.4	-45.4	17.6	0.00e+00	0	43	0	0	58	4520
2026-01-09 23:07:35.35	151.82	32.10	-43.4	-45.4	17.6	0.00e+00	0	43	0	0	58	4500
2026-01-09 23:07:36.64	152.11	31.90	-43.3	-45.2	17.7	0.00e+00	0	43	0	0	58	4425
2026-01-09 23:07:37.36	152.28	31.78	-43.3	-45.2	17.7	0.00e+00	0	43	0	0	58	4439
2026-01-09 23:07:38.65	152.56	31.57	-43.4	-45.4	17.5	0.00e+00	0	43	0	0	58	4519
2026-01-09 23:07:39.59	152.77	31.42	-43.4	-45.4	17.5	0.00e+00	0	43	0	0	58	4526
2026-01-09 23:07:40.89	153.05	31.22	-43.3	-45.2	17.7	0.00e+00	0	43	0	0	58	4425
2026-01-09 23:07:41.66	153.22	31.10	-43.2	-45.2	17.8	0.00e+00	0	43	0	0	58	4396
2026-01-09 23:07:43.27	153.57	30.84	-43.0	-44.9	18.0	0.00e+00	0	43	0	0	58	4273
2026-01-09 23:07:43.84	153.69	30.75	-42.9	-44.8	18.1	0.00e+00	0	43	0	0	57	4450
2026-01-09 23:07:45.46	154.02	30.50	-42.6	-44.5	18.4	0.00e+00	0	43	0	0	57	4297
2026-01-09 23:07:46.04	154.15	30.41	-42.6	-44.4	18.4	0.00e+00	0	43	0	0	57	4291
2026-01-09 23:07:47.63	154.47	30.16	-42.6	-44.6	18.3	0.00e+00	0	43	0	0	57	4350
2026-01-09 23:07:48.22	154.59	30.06	-42.6	-44.5	18.4	0.00e+00	0	43	0	0	57	4307
2026-01-09 23:07:49.86	154.92	29.81	-42.7	-44.7	18.3	0.00e+00	0	43	0	0	57	4394
2026-01-09 23:07:50.43	155.03	29.72	-42.7	-44.7	18.3	0.00e+00	0	43	0	0	57	4393
2026-01-09 23:07:52.01	155.34	29.48	-42.8	-44.8	18.2	0.00e+00	0	43	0	0	57	4449
2026-01-09 23:07:52.62	155.46	29.38	-42.8	-44.8	18.2	0.00e+00	0	43	0	0	57	4446
2026-01-09 23:07:54.20	155.77	29.14	-42.9	-44.9	18.1	0.00e+00	0	43	0	0	57	4507
2026-01-09 23:07:55.09	155.94	29.01	-42.9	-44.8	18.2	0.00e+00	0	43	0	0	57	4459
2026-01-09 23:07:56.23	156.15	28.83	-43.0	-44.9	18.1	0.00e+00	0	43	0	0	57	4508
2026-01-09 23:07:57.09	156.31	28.70	-42.9	-44.8	18.2	0.00e+00	0	43	0	0	57	4458
2026-01-09 23:07:58.24	156.53	28.53	-42.6	-44.5	18.5	0.00e+00	0	43	0	0	57	4296
2026-01-09 23:07:59.10	156.68	28.40	-42.7	-44.6	18.4	0.00e+00	0	43	0	0	57	4346
2026-01-09 23:08:00.31	156.90	28.22	-42.8	-44.7	18.3	0.00e+00	0	43	0	0	57	4404
2026-01-09 23:08:01.17	157.06	28.09	-42.8	-44.7	18.2	0.00e+00	0	43	0	0	57	4425
2026-01-09 23:08:02.31	157.26	27.92	-42.9	-44.8	18.1	0.00e+00	0	43	0	0	57	4475
2026-01-09 23:08:03.18	157.42	27.79	-42.9	-44.8	18.1	0.00e+00	0	43	0	0	57	4488
2026-01-09 23:08:04.32	157.62	27.62	-42.9	-44.8	18.2	0.00e+00	0	43	0	0	57	4457
2026-01-09 23:08:05.22	157.77	27.49	-42.8	-44.6	18.3	0.00e+00	0	43	0	0	57	4388
2026-01-09 23:08:06.53	158.00	27.30	-42.6	-44.5	18.4	0.00e+00	0	43	0	0	57	4309
2026-01-09 23:08:07.25	158.12	27.19	-42.6	-44.4	18.5	0.00e+00	0	43	0	0	57	4280
2026-01-09 23:08:08.54	158.34	27.00	-42.4	-44.2	18.7	0.00e+00	0	43	0	0	56	4439
2026-01-09 23:08:09.26	158.46	26.90	-42.5	-44.3	18.6	0.00e+00	0	43	0	0	56	4482
2026-01-09 23:08:10.55	158.67	26.71	-42.5	-44.3	18.5	0.00e+00	0	43	0	0	56	4477
2026-01-09 23:08:11.26	158.79	26.61	-42.4	-44.2	18.7	0.00e+00	0	43	0	0	56	4428
2026-01-09 23:08:12.55	159.00	26.42	-42.5	-44.3	18.5	0.00e+00	0	43	0	0	56	4486
2026-01-09 23:08:13.27	159.12	26.32	-42.5	-44.4	18.5	0.00e+00	0	43	0	0	56	4506
2026-01-09 23:08:14.56	159.32	26.14	-42.5	-44.3	18.6	0.00e+00	0	43	0	0	56	4474
2026-01-09 23:08:15.28	159.44	26.03	-42.5	-44.4	18.5	0.00e+00	0	43	0	0	56	4511
2026-01-09 23:08:16.57	159.64	25.85	-42.5	-44.4	18.5	0.00e+00	0	43	0	0	56	4506
2026-01-09 23:08:17.29	159.75	25.75	-42.4	-44.2	18.6	0.00e+00	0	43	0	0	56	4440
2026-01-09 23:08:18.58	159.95	25.57	-42.4	-44.2	18.6	0.00e+00	0	43	0	0	56	4436
2026-01-09 23:08:19.29	160.06	25.47	-42.3	-44.1	18.7	0.00e+00	0	43	0	0	56	4372
2026-01-09 23:08:20.58	160.26	25.29	-42.3	-44.2	18.7	0.00e+00	0	43	0	0	56	4395
2026-01-09 23:08:21.30	160.37	25.19	-42.3	-44.1	18.7	0.00e+00	0	43	0	0	56	4371
2026-01-09 23:08:22.59	160.56	25.01	-42.4	-44.2	18.6	0.00e+00	0	43	0	0	56	4413
2026-01-09 23:08:23.31	160.66	24.91	-42.4	-44.2	18.6	0.00e+00	0	43	0	0	56	4431
2026-01-09 23:08:24.87	160.89	24.70	-42.5	-44.3	18.5	0.00e+00	0	43	0	0	56	4489
2026-01-09 23:08:25.58	161.00	24.60	-42.5	-44.4	18.5	0.00e+00	0	43	0	0	56	4502
2026-01-09 23:08:26.86	161.18	24.43	-42.6	-44.5	18.4	0.00e+00	0	43	0	0	56	4574
2026-01-09 23:08:27.58	161.28	24.33	-42.7	-44.6	18.3	0.00e+00	0	43	0	0	56	4614
2026-01-09 23:08:28.87	161.47	24.15	-42.7	-44.6	18.3	0.00e+00	0	43	0	0	56	4599
2026-01-09 23:08:29.59	161.57	24.06	-42.7	-44.6	18.3	0.00e+00	0	43	0	0	56	4621
2026-01-09 23:08:30.88	161.75	23.88	-42.7	-44.6	18.3	0.00e+00	0	43	0	0	56	4629
2026-01-09 23:08:31.59	161.85	23.79	-42.7	-44.6	18.3	0.00e+00	0	43	0	0	56	4629
2026-01-09 23:08:32.88	162.02	23.62	-42.8	-44.7	18.2	0.00e+00	0	43	0	0	56	4693
2026-01-09 23:08:33.60	162.12	23.52	-42.9	-44.8	18.1	0.00e+00	0	43	0	0	56	4751
2026-01-09 23:08:34.89	162.29	23.35	-42.9	-44.9	18.0	0.00e+00	0	43	0	0	56	4780
2026-01-09 23:08:35.61	162.39	23.26	-43.0	-45.0	17.8	0.00e+00	0	43	0	0	56	4849
2026-01-09 23:08:36.90	162.56	23.09	-43.2	-45.1	17.7	0.00e+00	0	43	0	0	56	4921
2026-01-09 23:08:37.62	162.66	22.99	-43.2	-45.2	17.6	0.00e+00	0	43	0	0	57	4661
2026-01-09 23:08:38.90	162.82	22.83	-43.3	-45.3	17.5	0.00e+00	0	43	0	0	57	4744
2026-01-09 23:08:39.62	162.92	22.73	-43.3	-45.3	17.5	0.00e+00	0	43	0	0	57	4744
2026-01-09 23:08:40.91	163.08	22.57	-43.2	-45.2	17.6	0.00e+00	0	43	0	0	57	4687
2026-01-09 23:08:41.63	163.17	22.48	-43.1	-45.2	17.6	0.00e+00	0	43	0	0	57	4653
2026-01-09 23:08:43.14	163.37	22.28	-43.1	-45.2	17.6	0.00e+00	0	43	0	0	57	4658
2026-01-09 23:08:43.86	163.46	22.19	-43.0	-45.0	17.8	0.00e+00	0	43	0	0	57	4573
2026-01-09 23:08:45.18	163.62	22.02	-43.0	-45.0	17.8	0.00e+00	0	43	0	0	57	4568
2026-01-09 23:08:46.18	163.74	21.90	-42.9	-44.8	18.0	0.00e+00	0	43	0	0	57	4455
2026-01-09 23:08:47.50	163.90	21.73	-42.7	-44.6	18.2	0.00e+00	0	43	0	0	57	4352
2026-01-09 23:08:48.22	163.99	21.64	-42.7	-44.6	18.1	0.00e+00	0	43	0	0	57	4365
2026-01-09 23:08:49.86	164.19	21.44	-42.8	-44.7	18.0	0.00e+00	0	43	0	0	57	4423
2026-01-09 23:08:50.43	164.25	21.37	-42.7	-44.6	18.1	0.00e+00	0	43	0	0	57	4353
2026-01-09 23:08:52.03	164.44	21.17	-42.9	-44.8	17.9	0.00e+00	0	43	0	0	57	4488
2026-01-09 23:08:52.60	164.51	21.10	-42.8	-44.8	18.0	0.00e+00	0	43	0	0	57	4454
2026-01-09 23:08:54.19	164.69	20.90	-42.8	-44.7	18.0	0.00e+00	0	43	0	0	57	4436
2026-01-09 23:08:54.76	164.76	20.83	-42.8	-44.8	18.0	0.00e+00	0	43	0	0	57	4450
2026-01-09 23:08:56.37	164.94	20.64	-42.8	-44.8	18.0	0.00e+00	0	43	0	0	57	4455
2026-01-09 23:08:56.94	165.01	20.57	-42.8	-44.7	18.0	0.00e+00	0	43	0	0	57	4440
2026-01-09 23:08:58.57	165.19	20.37	-42.7	-44.7	18.1	0.00e+00	0	43	0	0	57	4393
2026-01-09 23:08:59.14	165.25	20.31	-42.7	-44.7	18.1	0.00e+00	0	43	0	0	57	4401
2026-01-09 23:09:01.07	165.47	20.07	-42.8	-44.7	18.1	0.00e+00	0	43	0	0	57	4423
2026-01-09 23:09:01.64	165.53	20.01	-42.8	-44.8	18.0	0.00e+00	0	43	0	0	57	4447
2026-01-09 23:09:03.23	165.70	19.82	-42.9	-44.9	17.9	0.00e+00	0	43	0	0	57	4496
2026-01-09 23:09:03.80	165.76	19.75	-43.0	-44.9	17.9	0.00e+00	0	43	0	0	57	4540
2026-01-09 23:09:05.38	165.93	19.57	-43.1	-45.1	17.7	0.00e+00	0	43	0	0	57	4606
2026-01-09 23:09:06.00	166.00	19.49	-43.0	-45.0	17.7	0.00e+00	0	43	0	0	57	4597
2026-01-09 23:09:07.58	166.16	19.31	-43.0	-45.0	17.7	0.00e+00	0	43	0	0	57	4592
2026-01-09 23:09:08.15	166.22	19.24	-43.1	-45.1	17.6	0.00e+00	0	43	0	0	57	4645
2026-01-09 23:09:09.73	166.38	19.06	-42.9	-44.9	17.8	0.00e+00	0	43	0	0	57	4542
2026-01-09 23:09:10.30	166.44	19.00	-42.9	-44.9	17.8	0.00e+00	0	43	0	0	57	4540
2026-01-09 23:09:11.94	166.61	18.81	-42.9	-44.9	17.8	0.00e+00	0	43	0	0	57	4524
2026-01-09 23:09:12.52	166.67	18.74	-42.9	-44.9	17.7	0.00e+00	0	43	0	0	57	4538
2026-01-09 23:09:14.10	166.82	18.56	-42.9	-45.0	17.7	0.00e+00	0	43	0	0	57	4556
2026-01-09 23:09:15.11	166.92	18.45	-42.8	-44.8	17.8	0.00e+00	0	43	0	0	57	4475
2026-01-09 23:09:16.12	167.02	18.34	-42.8	-44.8	17.8	0.00e+00	0	43	0	0	57	4468
2026-01-09 23:09:17.55	167.16	18.18	-42.8	-44.8	17.8	0.00e+00	0	43	0	0	57	4486
2026-01-09 23:09:18.27	167.23	18.10	-42.8	-44.8	17.8	0.00e+00	0	43	0	0	57	4456
2026-01-09 23:09:19.55	167.36	17.96	-42.8	-44.8	17.9	0.00e+00	0	43	0	0	57	4451
2026-01-09 23:09:20.27	167.42	17.88	-42.8	-44.7	17.9	0.00e+00	0	43	0	0	57	4425
2026-01-09 23:09:21.56	167.55	17.73	-42.7	-44.7	18.0	0.00e+00	0	43	0	0	57	4399
2026-01-09 23:09:22.28	167.61	17.66	-42.8	-44.8	17.9	0.00e+00	0	43	0	0	57	4444
2026-01-09 23:09:23.57	167.73	17.51	-42.6	-44.5	18.1	0.00e+00	0	43	0	0	57	4335
2026-01-09 23:09:24.29	167.80	17.44	-42.6	-44.5	18.1	0.00e+00	0	43	0	0	57	4330
2026-01-09 23:09:25.57	167.92	17.30	-42.6	-44.6	18.1	0.00e+00	0	43	0	0	57	4346
2026-01-09 23:09:26.29	167.98	17.22	-42.6	-44.5	18.1	0.00e+00	0	43	0	0	57	4328
2026-01-09 23:09:27.58	168.10	17.08	-42.6	-44.6	18.1	0.00e+00	0	43	0	0	57	4345
2026-01-09 23:09:28.29	168.17	17.00	-42.6	-44.5	18.2	0.00e+00	0	43	0	0	57	4307
2026-01-09 23:09:29.77	168.30	16.85	-42.7	-44.6	18.1	0.00e+00	0	43	0	0	57	4381
2026-01-09 23:09:30.49	168.36	16.77	-42.7	-44.6	18.1	0.00e+00	0	43	0	0	57	4384
2026-01-09 23:09:31.78	168.48	16.63	-42.8	-44.7	17.9	0.00e+00	0	43	0	0	57	4438
2026-01-09 23:09:32.49	168.54	16.56	-42.8	-44.8	17.9	0.00e+00	0	43	0	0	57	4447
2026-01-09 23:09:33.78	168.65	16.42	-42.9	-44.8	17.8	0.00e+00	0	43	0	0	57	4479
2026-01-09 23:09:34.50	168.71	16.35	-43.0	-44.9	17.7	0.00e+00	0	43	0	0	57	4538
2026-01-09 23:09:35.79	168.82	16.21	-43.0	-45.0	17.7	0.00e+00	0	43	0	0	57	4567
2026-01-09 23:09:36.50	168.88	16.14	-43.1	-45.1	17.6	0.00e+00	0	43	0	0	57	4622
2026-01-09 23:09:37.79	168.99	16.01	-43.2	-45.3	17.4	0.00e+00	0	43	0	0	57	4712
2026-01-09 23:09:38.51	169.06	15.93	-43.2	-45.2	17.4	0.00e+00	0	43	0	0	57	4705
2026-01-09 23:09:39.80	169.16	15.80	-43.3	-45.4	17.2	0.00e+00	0	43	0	0	57	4784
2026-01-09 23:09:40.52	169.22	15.73	-43.4	-45.4	17.2	0.00e+00	0	43	0	0	57	4812
2026-01-09 23:09:41.81	169.33	15.59	-43.4	-45.5	17.2	0.00e+00	0	43	0	0	57	4828
2026-01-09 23:09:42.53	169.39	15.52	-43.4	-45.5	17.2	0.00e+00	0	43	0	0	57	4819
2026-01-09 23:09:43.81	169.49	15.39	-43.4	-45.5	17.1	0.00e+00	0	43	0	0	57	4866
2026-01-09 23:09:44.53	169.55	15.32	-43.4	-45.6	17.1	0.00e+00	0	43	0	0	57	4881
2026-01-09 23:09:45.82	169.65	15.19	-43.4	-45.5	17.1	0.00e+00	0	43	0	0	57	4859
2026-01-09 23:09:46.54	169.71	15.12	-43.4	-45.5	17.1	0.00e+00	0	43	0	0	57	4869
2026-01-09 23:09:47.83	169.82	14.99	-43.4	-45.6	17.0	0.00e+00	0	43	0	0	57	4906
2026-01-09 23:09:48.54	169.87	14.92	-43.5	-45.7	16.9	0.00e+00	0	43	0	0	57	4968
2026-01-09 23:09:49.83	169.97	14.79	-43.6	-45.8	16.8	0.00e+00	0	43	0	0	57	5031
2026-01-09 23:09:50.55	170.03	14.72	-43.4	-45.6	17.0	0.00e+00	0	43	0	0	57	4923
2026-01-09 23:09:51.84	170.13	14.59	-43.5	-45.8	16.9	0.00e+00	0	43	0	0	57	4985
2026-01-09 23:09:52.68	170.19	14.51	-43.6	-45.9	16.8	0.00e+00	0	43	0	0	57	5042
2026-01-09 23:09:54.15	170.31	14.37	-43.4	-45.7	16.9	0.00e+00	0	43	0	0	57	4978
2026-01-09 23:09:55.28	170.39	14.26	-43.5	-45.8	16.7	0.00e+00	0	43	0	0	57	5032
2026-01-09 23:09:56.14	170.46	14.17	-43.6	-45.9	16.7	0.00e+00	0	43	0	0	57	5080
2026-01-09 23:09:57.29	170.54	14.06	-43.6	-45.9	16.7	0.00e+00	0	43	0	0	57	5093
2026-01-09 23:09:58.15	170.61	13.98	-43.6	-45.9	16.7	0.00e+00	0	43	0	0	57	5071
2026-01-09 23:09:59.33	170.69	13.87	-43.5	-45.8	16.8	0.00e+00	0	43	0	0	57	5022
2026-01-09 23:10:00.18	170.76	13.78	-43.6	-45.9	16.7	0.00e+00	0	43	0	0	57	5074
2026-01-09 23:10:01.33	170.84	13.68	-43.6	-45.8	16.8	0.00e+00	0	43	0	0	57	5025
2026-01-09 23:10:02.19	170.90	13.59	-43.7	-45.9	16.6	0.00e+00	0	43	0	0	57	5090
2026-01-09 23:10:03.34	170.98	13.49	-43.7	-46.0	16.6	0.00e+00	0	43	0	0	58	4823
2026-01-09 23:10:04.23	171.05	13.40	-43.6	-45.8	16.7	0.00e+00	0	43	0	0	58	4739
2026-01-09 23:10:05.47	171.14	13.29	-43.7	-45.9	16.6	0.00e+00	0	43	0	0	58	4799
2026-01-09 23:10:06.33	171.20	13.20	-43.8	-46.0	16.5	0.00e+00	0	43	0	0	58	4865
2026-01-09 23:10:07.48	171.28	13.10	-43.8	-46.1	16.5	0.00e+00	0	43	0	0	58	4894
2026-01-09 23:10:08.34	171.34	13.02	-43.8	-46.0	16.5	0.00e+00	0	43	0	0	58	4864
2026-01-09 23:10:09.67	171.43	12.90	-43.8	-46.1	16.5	0.00e+00	0	43	0	0	58	4871
2026-01-09 23:10:10.39	171.48	12.83	-43.8	-46.0	16.6	0.00e+00	0	43	0	0	58	4820
2026-01-09 23:10:11.68	171.57	12.71	-43.9	-46.1	16.4	0.00e+00	0	43	0	0	58	4897
2026-01-09 23:10:12.39	171.62	12.65	-43.8	-46.1	16.4	0.00e+00	0	43	0	0	58	4889
2026-01-09 23:10:13.68	171.70	12.53	-43.9	-46.1	16.3	0.00e+00	0	43	0	0	58	4926
2026-01-09 23:10:14.40	171.75	12.46	-43.9	-46.2	16.4	0.00e+00	0	43	0	0	58	4928
2026-01-09 23:10:15.69	171.84	12.35	-44.0	-46.3	16.3	0.00e+00	0	43	0	0	58	4987
2026-01-09 23:10:16.41	171.89	12.28	-43.9	-46.2	16.3	0.00e+00	0	43	0	0	58	4978
2026-01-09 23:10:17.70	171.97	12.16	-43.9	-46.2	16.3	0.00e+00	0	43	0	0	58	4947
2026-01-09 23:10:18.41	172.02	12.10	-43.8	-46.1	16.4	0.00e+00	0	43	0	0	58	4895
2026-01-09 23:10:19.71	172.10	11.98	-43.9	-46.2	16.3	0.00e+00	0	43	0	0	58	4978
2026-01-09 23:10:20.42	172.15	11.92	-43.9	-46.2	16.3	0.00e+00	0	43	0	0	58	4973
2026-01-09 23:10:21.79	172.24	11.80	-43.8	-46.2	16.3	0.00e+00	0	43	0	0	58	4947
2026-01-09 23:10:22.51	172.29	11.74	-43.8	-46.2	16.3	0.00e+00	0	43	0	0	58	4971
2026-01-09 23:10:23.80	172.37	11.62	-43.7	-46.1	16.3	0.00e+00	0	43	0	0	58	4921
2026-01-09 23:10:24.51	172.41	11.56	-43.8	-46.3	16.2	0.00e+00	0	43	0	0	58	5022
2026-01-09 23:10:25.80	172.49	11.45	-43.7	-46.3	16.2	0.00e+00	0	43	0	0	58	5005
2026-01-09 23:10:26.52	172.54	11.38	-43.6	-46.2	16.3	0.00e+00	0	43	0	0	58	4967
2026-01-09 23:10:27.80	172.62	11.27	-43.6	-46.3	16.2	0.00e+00	0	43	0	0	58	5000
2026-01-09 23:10:28.52	172.66	11.21	-43.7	-46.4	16.1	0.00e+00	0	43	0	0	58	5049
2026-01-09 23:10:29.81	172.74	11.10	-43.5	-46.1	16.4	0.00e+00	0	43	0	0	58	4896
2026-01-09 23:10:30.52	172.79	11.04	-43.5	-46.2	16.3	0.00e+00	0	43	0	0	58	4946
2026-01-09 23:10:31.81	172.87	10.93	-43.6	-46.2	16.2	0.00e+00	0	43	0	0	58	4970
2026-01-09 23:10:32.63	172.92	10.86	-43.5	-46.2	16.3	0.00e+00	0	43	0	0	58	4945
2026-01-09 23:10:33.77	172.99	10.76	-43.6	-46.3	16.2	0.00e+00	0	43	0	0	58	4991
2026-01-09 23:10:34.63	173.04	10.69	-43.6	-46.3	16.2	0.00e+00	0	43	0	0	58	5008
2026-01-09 23:10:35.78	173.11	10.59	-43.4	-46.0	16.4	0.00e+00	0	43	0	0	58	4865
2026-01-09 23:10:36.64	173.16	10.52	-43.6	-46.2	16.2	0.00e+00	0	43	0	0	58	4958
2026-01-09 23:10:37.78	173.22	10.42	-43.5	-46.1	16.3	0.00e+00	0	43	0	0	58	4918
2026-01-09 23:10:38.64	173.28	10.35	-43.5	-46.0	16.4	0.00e+00	0	43	0	0	58	4856
2026-01-09 23:10:39.82	173.34	10.25	-43.5	-46.1	16.3	0.00e+00	0	43	0	0	58	4923
2026-01-09 23:10:40.68	173.39	10.18	-43.6	-46.2	16.2	0.00e+00	0	43	0	0	58	4933
2026-01-09 23:10:41.83	173.46	10.08	-43.6	-46.2	16.2	0.00e+00	0	43	0	0	58	4970
2026-01-09 23:10:42.69	173.51	10.01	-43.6	-46.2	16.2	0.00e+00	0	43	0	0	58	4975
2026-01-09 23:10:43.83	173.58	9.91	-43.7	-46.4	16.0	0.00e+00	0	43	0	0	58	5066
2026-01-09 23:10:44.69	173.62	9.84	-43.8	-46.6	15.8	0.00e+00	0	43	0	0	58	5194
2026-01-09 23:10:45.84	173.69	9.75	-43.7	-46.4	16.0	0.00e+00	0	43	0	0	58	5100
2026-01-09 23:10:46.70	173.74	9.68	-43.6	-46.4	16.0	0.00e+00	0	43	0	0	58	5084
2026-01-09 23:10:48.08	173.82	9.57	-43.7	-46.5	15.9	7.00e-07	0	43	0	0	58	5151
2026-01-09 23:10:48.80	173.86	9.51	-43.7	-46.6	15.8	0.00e+00	0	43	0	0	58	5168
2026-01-09 23:10:50.09	173.93	9.40	-43.7	-46.5	15.9	0.00e+00	0	43	0	0	58	5142
2026-01-09 23:10:50.81	173.97	9.34	-43.7	-46.6	15.8	0.00e+00	0	43	0	0	58	5179
2026-01-09 23:10:52.10	174.04	9.24	-43.7	-46.7	15.7	0.00e+00	0	43	0	0	58	5239
2026-01-09 23:10:52.81	174.08	9.18	-43.8	-46.8	15.6	0.00e+00	0	43	0	0	58	5288
2026-01-09 23:10:54.10	174.15	9.08	-43.7	-46.8	15.6	0.00e+00	0	43	0	0	58	5309
2026-01-09 23:10:55.01	174.19	9.01	-43.7	-46.7	15.7	0.00e+00	0	43	0	0	58	5266
2026-01-09 23:10:56.01	174.25	8.93	-49.1	-62.5	3.8	4.20e-01	0	43	104	0	68	18260
2026-01-09 23:10:57.01	174.30	8.85	-50.6	-63.6	3.8	1.49e+00	0	43	104	0	72	16408
2026-01-09 23:10:58.02	174.36	8.77	-50.9	-64.1	3.8	1.49e+00	0	43	104	0	72	17377
2026-01-09 23:10:59.02	174.41	8.69	-51.0	-64.2	3.8	1.49e+00	0	43	104	0	72	17486
2026-01-09 23:11:00.02	174.46	8.61	-51.0	-64.2	3.8	1.49e+00	0	43	104	0	72	17574
2026-01-09 23:11:01.03	174.51	8.53	-51.1	-64.3	3.8	1.49e+00	0	43	104	0	72	17698
2026-01-09 23:11:02.03	174.57	8.45	-51.3	-64.3	3.8	1.49e+00	0	43	104	0	73	16852
2026-01-09 23:11:03.04	174.62	8.37	-51.2	-64.3	3.8	1.49e+00	0	43	104	0	73	16836
2026-01-09 23:11:04.04	174.67	8.29	-51.4	-64.4	3.8	1.49e+00	0	43	104	0	73	16925
2026-01-09 23:11:05.05	174.72	8.22	-51.4	-64.4	3.8	1.49e+00	0	43	104	0	73	16979
2026-01-09 23:11:06.05	174.77	8.14	-51.4	-64.4	3.8	1.49e+00	0	43	104	0	73	17034
2026-01-09 23:11:07.06	174.82	8.06	-51.5	-64.5	3.8	1.49e+00	0	43	104	0	73	17087
2026-01-09 23:11:08.06	174.87	7.98	-51.5	-64.4	3.8	1.49e+00	0	43	104	0	73	17046
2026-01-09 23:11:09.07	174.92	7.91	-51.5	-64.5	3.8	1.49e+00	0	43	104	0	73	17126
2026-01-09 23:11:10.07	174.97	7.83	-51.5	-64.5	3.8	1.49e+00	0	43	104	0	73	17176
2026-01-09 23:11:11.07	175.02	7.75	-51.5	-64.5	3.8	1.49e+00	0	43	104	0	73	17171
2026-01-09 23:11:12.08	175.07	7.68	-51.4	-64.5	3.8	1.49e+00	0	43	104	0	73	17198
2026-01-09 23:11:13.08	175.12	7.60	-51.6	-64.5	3.8	1.49e+00	0	43	104	0	73	17148
2026-01-09 23:11:14.09	175.17	7.52	-51.5	-64.5	3.8	1.49e+00	0	43	104	0	73	17174
2026-01-09 23:11:15.09	175.22	7.45	-51.5	-64.5	3.8	1.49e+00	0	43	104	0	73	17177
2026-01-09 23:11:16.10	175.27	7.37	-51.7	-64.5	3.8	1.49e+00	0	43	104	0	73	17223
2026-01-09 23:11:17.10	175.32	7.30	-51.6	-64.5	3.8	1.49e+00	0	43	104	0	73	17196
2026-01-09 23:11:18.11	175.37	7.22	-51.7	-64.5	3.8	1.49e+00	0	43	104	0	73	17226
2026-01-09 23:11:19.11	175.42	7.15	-51.5	-64.5	3.8	1.49e+00	0	43	104	0	73	17228
2026-01-09 23:11:20.12	175.46	7.07	-51.6	-64.5	3.8	1.49e+00	0	43	104	0	73	17185
2026-01-09 23:11:21.12	175.51	7.00	-51.6	-64.5	3.8	1.49e+00	0	43	104	0	73	17185
2026-01-09 23:11:22.51	175.58	6.89	-51.4	-64.5	3.8	1.49e+00	0	43	104	0	73	17166
2026-01-09 23:11:23.26	175.61	6.84	-51.4	-64.5	3.8	1.49e+00	0	43	104	0	73	17181
2026-01-09 23:11:24.86	175.69	6.72	-51.4	-64.5	3.8	1.49e+00	0	43	104	0	73	17130
2026-01-09 23:11:25.44	175.71	6.68	-51.4	-64.5	3.8	1.49e+00	0	43	104	0	73	17105
2026-01-09 23:11:27.02	175.79	6.56	-51.4	-64.5	3.8	1.49e+00	0	43	104	0	73	17100
2026-01-09 23:11:27.61	175.81	6.52	-51.4	-64.5	3.8	1.49e+00	0	43	104	0	73	17097
2026-01-09 23:11:29.19	175.88	6.40	-51.4	-64.5	3.8	1.49e+00	0	43	104	0	73	17120
2026-01-09 23:11:29.76	175.91	6.36	-51.4	-64.5	3.8	1.49e+00	0	43	104	0	73	17141
2026-01-09 23:11:31.35	175.98	6.25	-51.4	-64.5	3.8	1.49e+00	0	43	104	0	73	17113
2026-01-09 23:11:31.93	176.01	6.21	-51.4	-64.5	3.8	1.49e+00	0	43	104	0	73	17131
2026-01-09 23:11:33.51	176.08	6.09	-51.4	-64.5	3.8	1.49e+00	0	43	104	0	73	17145
2026-01-09 23:11:34.08	176.10	6.05	-51.4	-64.5	3.8	1.49e+00	0	43	104	0	73	17127
2026-01-09 23:11:35.66	176.17	5.94	-51.4	-64.5	3.8	1.49e+00	0	43	104	0	73	17105
2026-01-09 23:11:36.25	176.20	5.90	-51.4	-64.5	3.8	1.49e+00	0	43	104	0	73	17185
2026-01-09 23:11:37.83	176.27	5.78	-51.4	-64.5	3.8	1.49e+00	0	43	104	0	73	17117
2026-01-09 23:11:38.40	176.29	5.74	-51.4	-64.5	3.8	1.49e+00	0	43	104	0	73	17121
2026-01-09 23:11:40.00	176.36	5.63	-51.4	-64.5	3.8	1.49e+00	0	43	104	0	73	17129
2026-01-09 23:11:40.57	176.39	5.59	-51.4	-64.5	3.8	1.49e+00	0	43	104	0	73	17112
2026-01-09 23:11:42.15	176.46	5.48	-51.4	-64.5	3.8	1.49e+00	0	43	104	0	73	17150
2026-01-09 23:11:42.74	176.48	5.44	-51.4	-64.5	3.8	1.49e+00	0	43	104	0	73	17110
2026-01-09 23:11:44.32	176.55	5.33	-51.4	-64.4	3.8	1.49e+00	0	43	104	0	73	17075
2026-01-09 23:11:44.92	176.58	5.28	-51.4	-64.5	3.8	1.49e+00	0	43	104	0	73	17123
2026-01-09 23:11:46.49	176.64	5.18	-51.4	-64.5	3.8	1.49e+00	0	43	104	0	73	17106
2026-01-09 23:11:47.07	176.67	5.14	-51.4	-64.5	3.8	1.49e+00	0	43	104	0	73	17091
2026-01-09 23:11:48.65	176.73	5.03	-51.4	-64.4	3.8	1.49e+00	0	43	104	0	73	17069
2026-01-09 23:11:49.22	176.76	4.99	-51.4	-64.4	3.8	1.49e+00	0	43	104	0	73	17065

#Closed at: 2026-01-09 23:11:50
#Recorded file [0 MB]: D:/Data/31040_260110_015908.dat