passes_logs/2026/01/09/T1/T1__20260109_093811_SUOMI_NPP_rec.log

#Pass ID: 20260109_093811_SUOMI NPP
#Satellite: SUOMI NPP
#Configuration: NPP
#almurnet v.1.7.20251203
#Start time: 2026-01-09 09:38:10

#Version: 2.0.20230620
#Station: T1
#Location: 37.570604 lon 55.790049 lat
#TLE: 1 37849U 11061A   26008.05542337  .00000108  00000+0  71976-4 0  9997
#TLE: 2 37849  98.7805 310.1641 0002540  75.6410 284.5048 14.19523335735721

#Time	Az	El	Level	Level2	SNR	BER	BlckErr	Temp	State	Recorded	gain1	gain2
2026-01-09 09:38:10.78	148.90	4.99	-48.0	-63.1	3.8	1.49e+00	0	37	0	0	67	20684
2026-01-09 09:38:11.78	148.88	5.06	-48.1	-63.0	3.8	1.49e+00	0	37	104	0	68	19332
2026-01-09 09:38:12.79	148.86	5.13	-48.1	-63.0	3.8	1.49e+00	0	37	104	0	68	19306
2026-01-09 09:38:13.79	148.85	5.20	-48.1	-63.1	3.8	1.49e+00	0	37	104	0	68	19400
2026-01-09 09:38:14.79	148.83	5.27	-48.1	-63.1	3.8	1.49e+00	0	37	104	0	68	19443
2026-01-09 09:38:15.80	148.81	5.35	-48.1	-63.1	3.8	1.49e+00	0	37	104	0	68	19600
2026-01-09 09:38:16.80	148.79	5.42	-48.1	-63.2	3.8	1.49e+00	0	37	104	0	68	19787
2026-01-09 09:38:17.81	148.77	5.49	-48.1	-63.3	3.8	1.49e+00	0	37	104	0	68	19956
2026-01-09 09:38:18.81	148.75	5.56	-48.1	-63.4	3.8	1.49e+00	0	37	104	0	68	20111
2026-01-09 09:38:19.82	148.73	5.64	-48.1	-63.4	3.8	1.49e+00	0	37	104	0	68	20114
2026-01-09 09:38:20.82	148.71	5.71	-48.1	-63.4	3.8	1.49e+00	0	37	104	0	68	20081
2026-01-09 09:38:21.83	148.70	5.79	-48.1	-63.3	3.8	1.49e+00	0	37	104	0	68	19969
2026-01-09 09:38:22.83	148.68	5.86	-48.1	-63.2	3.8	1.49e+00	0	37	104	0	68	19703
2026-01-09 09:38:23.83	148.66	5.93	-48.1	-63.0	3.8	1.49e+00	0	37	104	0	68	19345
2026-01-09 09:38:24.84	148.64	6.01	-48.1	-62.9	3.8	1.49e+00	0	38	104	0	68	18996
2026-01-09 09:38:25.84	148.62	6.08	-48.1	-62.7	3.8	1.49e+00	0	37	104	0	68	18594
2026-01-09 09:38:26.85	148.60	6.16	-48.0	-62.5	3.8	1.49e+00	0	37	104	0	68	18282
2026-01-09 09:38:27.85	148.58	6.23	-48.0	-62.5	3.8	1.49e+00	0	38	104	0	68	18160
2026-01-09 09:38:28.85	148.56	6.31	-48.0	-62.5	3.8	1.49e+00	0	37	104	0	68	18164
2026-01-09 09:38:29.86	148.54	6.38	-48.0	-62.5	3.8	1.49e+00	0	37	104	0	68	18249
2026-01-09 09:38:30.86	148.52	6.46	-48.0	-62.5	3.8	1.49e+00	0	37	104	0	68	18225
2026-01-09 09:38:31.87	148.50	6.53	-48.0	-62.5	3.8	1.49e+00	0	38	104	0	68	18270
2026-01-09 09:38:32.87	148.48	6.61	-48.1	-62.4	3.8	1.49e+00	0	38	104	0	68	17890
2026-01-09 09:38:33.88	148.46	6.69	-48.0	-62.1	3.8	1.49e+00	0	38	104	0	68	17381
2026-01-09 09:38:34.88	148.44	6.76	-48.0	-61.6	3.8	1.49e+00	0	38	104	0	68	16410
2026-01-09 09:38:35.88	148.41	6.84	-47.8	-61.0	3.8	1.49e+00	0	38	104	0	67	16198
2026-01-09 09:38:36.88	148.39	6.91	-47.8	-60.3	3.9	1.47e+00	0	38	104	0	67	14933
2026-01-09 09:38:37.89	148.37	6.99	-47.7	-59.3	4.3	1.37e+00	0	38	0	0	67	13412
2026-01-09 09:38:38.89	148.35	7.07	-47.6	-58.5	4.6	1.13e+00	0	38	0	1048576	67	12205
2026-01-09 09:38:39.89	148.33	7.15	-47.5	-57.6	5.0	8.15e-01	0	38	0	3145728	67	10992
2026-01-09 09:38:40.90	148.31	7.22	-47.4	-56.8	5.5	5.93e-01	0	38	0	5242880	66	10581
2026-01-09 09:38:41.90	148.29	7.30	-47.2	-55.8	6.3	3.36e-01	0	38	0	7340032	66	9422
2026-01-09 09:38:42.91	148.27	7.38	-47.0	-54.8	7.1	1.90e-01	0	38	0	8388608	66	8433
2026-01-09 09:38:43.91	148.24	7.46	-46.8	-53.9	7.9	1.08e-01	0	38	0	10485760	65	8052
2026-01-09 09:38:44.92	148.22	7.54	-46.5	-53.0	8.8	3.48e-02	0	38	0	12582912	65	7222
2026-01-09 09:38:45.92	148.20	7.62	-46.1	-51.9	10.0	1.24e-02	0	38	0	14680064	64	6768
2026-01-09 09:38:46.93	148.18	7.70	-45.9	-51.2	10.9	3.95e-03	0	38	0	15728640	63	6581
2026-01-09 09:38:47.93	148.16	7.78	-45.5	-50.3	11.8	1.32e-03	0	38	0	17825792	63	5941
2026-01-09 09:38:48.93	148.13	7.86	-45.1	-49.5	12.5	2.38e-04	0	38	0	19922944	62	5781
2026-01-09 09:38:49.94	148.11	7.94	-44.9	-49.1	13.0	7.17e-05	0	38	0	22020096	61	5807
2026-01-09 09:38:50.94	148.09	8.02	-44.6	-48.6	13.6	2.13e-05	0	38	0	24117248	61	5470
2026-01-09 09:38:51.95	148.06	8.10	-44.3	-48.1	14.0	3.00e-06	0	38	0	26214400	60	5503
2026-01-09 09:38:52.95	148.04	8.18	-44.2	-47.9	14.2	4.50e-06	0	38	0	27262976	60	5377
2026-01-09 09:38:53.95	148.02	8.26	-44.2	-47.9	14.3	0.00e+00	0	38	0	29360128	60	5349
2026-01-09 09:38:54.96	147.99	8.34	-44.1	-47.8	14.3	1.50e-06	0	38	0	31457280	60	5315
2026-01-09 09:38:55.96	147.97	8.42	-44.5	-48.3	13.8	3.00e-06	0	38	0	33554432	60	5641
2026-01-09 09:38:56.97	147.95	8.50	-44.5	-48.3	13.8	2.20e-06	0	38	0	34603008	60	5651
2026-01-09 09:38:57.97	147.92	8.58	-44.9	-49.2	12.9	2.44e-05	0	38	0	36700160	60	6203
2026-01-09 09:38:58.98	147.90	8.67	-45.2	-49.6	12.5	1.04e-04	0	38	0	38797312	61	6181
2026-01-09 09:38:59.98	147.88	8.75	-45.8	-50.9	11.3	5.57e-04	0	39	0	40894464	62	6739
2026-01-09 09:39:00.96	147.85	8.83	-46.2	-51.9	10.0	2.84e-03	0	38	0	42991616	63	7189
2026-01-09 09:39:01.97	147.83	8.91	-46.7	-53.5	8.4	3.07e-02	0	39	0	44040192	64	8154
2026-01-09 09:39:02.97	147.80	9.00	-47.1	-55.3	6.6	1.15e-01	0	39	0	46137344	64	9997
2026-01-09 09:39:03.97	147.78	9.08	-47.4	-57.1	5.4	3.28e-01	0	39	0	48234496	65	11663
2026-01-09 09:39:04.97	147.75	9.16	-44.3	-48.0	14.2	3.48e-01	0	38	0	50331648	60	5424
2026-01-09 09:39:05.98	147.73	9.25	-47.4	-57.2	5.3	1.35e-01	0	39	0	52428800	65	11797
2026-01-09 09:39:06.98	147.70	9.33	-47.4	-56.8	5.5	7.53e-01	0	39	0	53477376	65	11255
2026-01-09 09:39:07.99	147.68	9.42	-44.4	-48.1	14.1	1.77e-01	0	39	0	55574528	60	5511
2026-01-09 09:39:08.99	147.65	9.50	-48.0	-62.7	3.8	1.23e+00	0	38	104	56623104	66	20909
2026-01-09 09:39:09.99	147.63	9.59	-44.6	-48.5	13.5	1.27e+00	0	39	0	56623104	61	5428
2026-01-09 09:39:10.99	147.60	9.67	-43.4	-46.6	15.6	2.42e-04	0	39	0	57671680	58	5172
2026-01-09 09:39:11.99	147.58	9.76	-42.8	-45.7	16.5	0.00e+00	0	39	0	59768832	57	4941
2026-01-09 09:39:12.99	147.55	9.84	-42.7	-45.6	16.6	0.00e+00	0	39	0	61865984	57	4921
2026-01-09 09:39:14.00	147.52	9.93	-42.5	-45.4	16.8	0.00e+00	0	39	0	63963136	57	4790
2026-01-09 09:39:15.00	147.50	10.02	-42.7	-45.5	16.7	0.00e+00	0	39	0	66060288	56	5153
2026-01-09 09:39:16.00	147.47	10.10	-42.6	-45.4	16.8	0.00e+00	0	39	0	67108864	56	5094
2026-01-09 09:39:17.00	147.44	10.19	-42.6	-45.5	16.8	0.00e+00	0	39	0	69206016	56	5119
2026-01-09 09:39:18.01	147.42	10.28	-42.3	-45.0	17.2	0.00e+00	0	39	0	71303168	56	4861
2026-01-09 09:39:19.01	147.39	10.37	-42.2	-44.9	17.2	0.00e+00	0	39	0	73400320	56	4807
2026-01-09 09:39:20.01	147.36	10.45	-42.0	-44.7	17.5	0.00e+00	0	39	0	74448896	56	4655
2026-01-09 09:39:21.01	147.33	10.54	-41.8	-44.5	17.6	0.00e+00	0	39	0	76546048	55	4815
2026-01-09 09:39:22.02	147.31	10.63	-41.8	-44.4	17.6	0.00e+00	0	39	0	78643200	55	4770
2026-01-09 09:39:23.02	147.28	10.72	-41.8	-44.4	17.6	0.00e+00	0	39	0	80740352	55	4771
2026-01-09 09:39:24.02	147.25	10.81	-41.7	-44.2	17.8	0.00e+00	0	39	0	82837504	55	4690
2026-01-09 09:39:25.02	147.22	10.90	-41.7	-44.2	17.8	0.00e+00	0	39	0	83886080	55	4675
2026-01-09 09:39:26.03	147.19	10.99	-41.7	-44.2	17.8	0.00e+00	0	39	0	85983232	55	4703
2026-01-09 09:39:27.03	147.17	11.08	-41.6	-44.2	17.9	0.00e+00	0	39	0	88080384	55	4657
2026-01-09 09:39:28.03	147.14	11.17	-41.6	-44.1	18.0	8.31e-05	0	39	0	90177536	55	4617
2026-01-09 09:39:29.03	147.11	11.26	-41.8	-44.4	17.7	0.00e+00	0	39	0	92274688	55	4761
2026-01-09 09:39:30.03	147.08	11.35	-41.8	-44.4	17.7	0.00e+00	0	39	0	93323264	55	4768
2026-01-09 09:39:31.04	147.05	11.44	-41.9	-44.5	17.6	1.29e-05	0	39	0	95420416	55	4831
2026-01-09 09:39:32.04	147.02	11.54	-41.9	-44.5	17.6	0.00e+00	0	39	0	97517568	55	4836
2026-01-09 09:39:33.04	146.99	11.63	-41.9	-44.6	17.6	0.00e+00	0	39	0	99614720	55	4878
2026-01-09 09:39:34.05	146.96	11.72	-41.9	-44.5	17.6	0.00e+00	0	39	0	101711872	55	4827
2026-01-09 09:39:35.05	146.93	11.81	-41.9	-44.6	17.6	0.00e+00	0	39	0	102760448	55	4871
2026-01-09 09:39:36.05	146.90	11.91	-41.8	-44.4	17.7	0.00e+00	0	39	0	104857600	55	4810
2026-01-09 09:39:37.05	146.87	12.00	-41.7	-44.2	17.9	0.00e+00	0	39	0	106954752	55	4703
2026-01-09 09:39:38.06	146.84	12.10	-41.7	-44.2	17.9	0.00e+00	0	39	0	109051904	55	4679
2026-01-09 09:39:39.06	146.81	12.19	-41.5	-44.0	18.1	0.00e+00	0	39	0	111149056	55	4577
2026-01-09 09:39:40.06	146.78	12.28	-41.3	-43.7	18.4	0.00e+00	0	39	0	112197632	54	4701
2026-01-09 09:39:41.07	146.74	12.38	-41.1	-43.5	18.5	0.00e+00	0	39	0	114294784	54	4589
2026-01-09 09:39:42.07	146.71	12.48	-41.1	-43.5	18.1	0.00e+00	0	39	0	116391936	54	4554
2026-01-09 09:39:43.07	146.68	12.57	-40.9	-43.2	18.8	0.00e+00	0	39	0	118489088	53	4673
2026-01-09 09:39:44.08	146.65	12.67	-40.9	-43.2	18.9	0.00e+00	0	39	0	119537664	53	4664
2026-01-09 09:39:45.08	146.62	12.77	-40.9	-43.2	18.8	0.00e+00	0	39	0	121634816	53	4687
2026-01-09 09:39:46.08	146.58	12.86	-40.9	-43.3	18.8	0.00e+00	0	39	0	123731968	53	4723
2026-01-09 09:39:47.09	146.55	12.96	-40.9	-43.3	18.7	0.00e+00	0	39	0	125829120	53	4739
2026-01-09 09:39:48.09	146.52	13.06	-41.1	-43.6	18.5	0.00e+00	0	39	0	127926272	53	4887
2026-01-09 09:39:49.10	146.48	13.16	-41.2	-43.7	18.4	0.00e+00	0	39	0	128974848	53	4966
2026-01-09 09:39:50.15	146.45	13.26	-41.4	-43.9	18.2	0.00e+00	0	39	0	131072000	53	5083
2026-01-09 09:39:51.05	146.42	13.35	-41.5	-44.1	18.1	0.00e+00	0	39	0	133169152	53	5172
2026-01-09 09:39:52.22	146.38	13.46	-41.9	-44.6	17.6	0.00e+00	0	39	0	135266304	54	5202
2026-01-09 09:39:53.08	146.35	13.55	-41.8	-44.4	17.8	0.00e+00	0	39	0	137363456	54	5084
2026-01-09 09:39:54.42	146.30	13.68	-41.9	-44.5	17.7	0.00e+00	0	39	0	139460608	54	5149
2026-01-09 09:39:55.13	146.28	13.76	-42.0	-44.6	17.5	0.00e+00	0	39	0	140509184	54	5215
2026-01-09 09:39:56.43	146.23	13.89	-41.9	-44.5	17.8	0.00e+00	0	39	0	143654912	54	5107
2026-01-09 09:39:57.14	146.21	13.96	-41.8	-44.3	17.9	0.00e+00	0	39	0	144703488	54	5029
2026-01-09 09:39:58.70	146.15	14.12	-41.5	-44.0	18.2	0.00e+00	0	39	0	147849216	54	4822
2026-01-09 09:39:59.32	146.13	14.18	-41.4	-43.8	18.3	0.00e+00	0	39	0	148897792	54	4726
2026-01-09 09:40:01.07	146.07	14.36	-41.2	-43.5	18.6	0.00e+00	0	39	0	152043520	54	4587
2026-01-09 09:40:01.64	146.04	14.42	-41.2	-43.5	18.6	0.00e+00	0	39	0	153092096	54	4570
2026-01-09 09:40:03.22	145.99	14.58	-41.2	-43.5	18.6	0.00e+00	0	39	0	156237824	54	4593
2026-01-09 09:40:03.81	145.96	14.64	-41.1	-43.5	18.7	0.00e+00	0	39	0	157286400	54	4546
2026-01-09 09:40:05.39	145.91	14.81	-41.4	-43.8	18.3	0.00e+00	0	39	0	160432128	54	4753
2026-01-09 09:40:05.97	145.88	14.87	-41.4	-43.8	18.3	0.00e+00	0	39	0	161480704	54	4748
2026-01-09 09:40:07.55	145.82	15.04	-41.5	-44.0	18.2	0.00e+00	0	39	0	163577856	54	4832
2026-01-09 09:40:08.14	145.80	15.10	-41.6	-44.1	18.1	0.00e+00	0	39	0	165675008	54	4877
2026-01-09 09:40:09.95	145.73	15.29	-41.5	-43.9	18.2	0.00e+00	0	39	0	168820736	54	4803
2026-01-09 09:40:10.53	145.71	15.35	-41.5	-43.9	18.2	0.00e+00	0	39	0	169869312	54	4802
2026-01-09 09:40:12.13	145.65	15.52	-41.4	-43.8	18.4	0.00e+00	0	39	0	173015040	54	4714
2026-01-09 09:40:12.71	145.62	15.59	-41.2	-43.6	18.6	0.00e+00	0	39	0	174063616	54	4628
2026-01-09 09:40:14.29	145.56	15.76	-41.2	-43.5	18.7	0.00e+00	0	39	0	177209344	54	4590
2026-01-09 09:40:14.87	145.54	15.82	-41.0	-43.3	18.8	0.00e+00	0	39	0	178257920	54	4480
2026-01-09 09:40:16.45	145.47	16.00	-41.0	-43.3	18.9	0.00e+00	0	39	0	180355072	53	4709
2026-01-09 09:40:17.07	145.45	16.06	-40.9	-43.2	18.9	0.00e+00	0	39	0	181403648	53	4682
2026-01-09 09:40:18.82	145.37	16.26	-41.0	-43.3	18.8	0.00e+00	0	39	0	185597952	53	4738
2026-01-09 09:40:19.39	145.35	16.32	-41.0	-43.3	18.9	0.00e+00	0	40	0	186646528	53	4720
2026-01-09 09:40:20.99	145.28	16.50	-41.3	-43.7	18.5	0.00e+00	0	39	0	189792256	53	4945
2026-01-09 09:40:21.56	145.26	16.56	-41.2	-43.6	18.6	0.00e+00	0	39	0	190840832	53	4895
2026-01-09 09:40:23.14	145.19	16.74	-41.3	-43.8	18.5	0.00e+00	0	40	0	192937984	53	4989
2026-01-09 09:40:24.12	145.15	16.85	-41.3	-43.8	18.5	0.00e+00	0	40	0	195035136	53	4987
2026-01-09 09:40:25.13	145.10	16.97	-41.4	-43.8	18.4	0.00e+00	0	39	0	197132288	53	5011
2026-01-09 09:40:26.55	145.04	17.13	-41.4	-43.8	18.4	0.00e+00	0	40	0	199229440	53	5019
2026-01-09 09:40:27.26	145.01	17.21	-41.2	-43.6	18.6	0.00e+00	0	40	0	201326592	53	4903
2026-01-09 09:40:28.55	144.95	17.36	-41.1	-43.5	18.7	0.00e+00	0	40	0	203423744	53	4826
2026-01-09 09:40:29.27	144.92	17.45	-41.3	-43.7	18.5	0.00e+00	0	40	0	204472320	53	4964
2026-01-09 09:40:30.55	144.86	17.59	-41.1	-43.5	18.7	0.00e+00	0	40	0	207618048	53	4845
2026-01-09 09:40:31.27	144.83	17.68	-41.1	-43.6	18.7	0.00e+00	0	40	0	208666624	53	4882
2026-01-09 09:40:32.56	144.77	17.83	-41.1	-43.5	18.7	0.00e+00	0	40	0	210763776	53	4859
2026-01-09 09:40:33.28	144.73	17.92	-41.1	-43.5	18.7	0.00e+00	0	40	0	211812352	53	4839
2026-01-09 09:40:34.57	144.67	18.07	-41.3	-43.7	18.5	0.00e+00	0	40	0	214958080	53	4973
2026-01-09 09:40:35.29	144.64	18.16	-41.2	-43.7	18.5	0.00e+00	0	40	0	216006656	53	4941
2026-01-09 09:40:36.70	144.57	18.33	-41.3	-43.8	18.4	0.00e+00	0	40	0	219152384	53	5032
2026-01-09 09:40:37.68	144.52	18.44	-41.3	-43.7	18.5	0.00e+00	0	40	0	220200960	53	4980
2026-01-09 09:40:38.68	144.48	18.56	-41.3	-43.7	18.5	0.00e+00	0	40	0	222298112	53	4970
2026-01-09 09:40:39.68	144.43	18.69	-41.4	-43.9	18.3	0.00e+00	0	40	0	224395264	53	5093
2026-01-09 09:40:40.68	144.38	18.81	-41.4	-43.9	18.4	0.00e+00	0	40	0	226492416	53	5051
2026-01-09 09:40:41.68	144.33	18.93	-41.2	-43.7	18.6	0.00e+00	0	39	0	227540992	53	4945
2026-01-09 09:40:42.68	144.28	19.06	-41.5	-44.0	18.2	0.00e+00	0	40	0	229638144	53	5154
2026-01-09 09:40:43.69	144.23	19.18	-41.6	-44.1	18.2	0.00e+00	0	40	0	231735296	53	5197
2026-01-09 09:40:44.76	144.17	19.32	-41.3	-43.8	18.4	0.00e+00	0	40	0	233832448	53	5017
2026-01-09 09:40:45.65	144.12	19.43	-41.6	-44.1	18.1	0.00e+00	0	40	0	235929600	53	5194
2026-01-09 09:40:46.79	144.06	19.57	-41.5	-44.1	18.2	0.00e+00	0	40	0	238026752	53	5166
2026-01-09 09:40:47.65	144.02	19.68	-41.7	-44.3	18.0	0.00e+00	0	40	0	239075328	54	5017
2026-01-09 09:40:48.80	143.96	19.83	-41.6	-44.2	18.1	0.00e+00	0	40	0	241172480	54	4976
2026-01-09 09:40:49.80	143.90	19.95	-41.8	-44.4	17.9	0.00e+00	0	40	0	243269632	54	5052
2026-01-09 09:40:50.96	143.84	20.10	-41.7	-44.2	18.1	0.00e+00	0	40	0	245366784	54	4974
2026-01-09 09:40:51.84	143.79	20.22	-41.6	-44.1	18.2	0.00e+00	0	40	0	247463936	54	4882
2026-01-09 09:40:53.14	143.72	20.39	-41.8	-44.4	18.0	0.00e+00	0	40	0	249561088	54	5046
2026-01-09 09:40:53.86	143.68	20.48	-41.4	-43.9	18.4	0.00e+00	0	40	0	250609664	54	4765
2026-01-09 09:40:55.15	143.61	20.65	-41.2	-43.6	18.7	0.00e+00	0	40	0	253755392	54	4616
2026-01-09 09:40:55.87	143.57	20.75	-41.5	-43.9	18.4	0.00e+00	0	40	0	254803968	54	4803
2026-01-09 09:40:57.15	143.49	20.92	-41.3	-43.7	18.6	0.00e+00	0	40	0	256901120	54	4660
2026-01-09 09:40:57.87	143.45	21.01	-41.1	-43.4	18.9	0.00e+00	0	40	0	257949696	54	4501
2026-01-09 09:40:59.16	143.38	21.18	-41.4	-43.7	18.6	0.00e+00	0	40	0	261095424	54	4704
2026-01-09 09:40:59.97	143.33	21.29	-41.4	-43.8	18.5	0.00e+00	0	40	0	262144000	54	4727
2026-01-09 09:41:01.12	143.26	21.45	-41.8	-44.3	18.0	0.00e+00	0	40	0	264241152	54	5032
2026-01-09 09:41:01.98	143.21	21.57	-41.9	-44.4	18.0	0.00e+00	0	40	0	266338304	54	5058
2026-01-09 09:41:03.13	143.14	21.72	-41.9	-44.5	17.9	0.00e+00	0	40	0	268435456	54	5113
2026-01-09 09:41:03.99	143.09	21.84	-42.2	-44.8	17.6	0.00e+00	0	40	0	269484032	55	5004
2026-01-09 09:41:05.14	143.02	22.00	-41.9	-44.4	18.0	0.00e+00	0	40	0	271581184	55	4769
2026-01-09 09:41:06.00	142.96	22.12	-41.8	-44.3	18.1	0.00e+00	0	40	0	273678336	55	4733
2026-01-09 09:41:07.14	142.89	22.28	-41.7	-44.1	18.2	0.00e+00	0	40	0	275775488	55	4635
2026-01-09 09:41:08.00	142.84	22.40	-41.6	-44.0	18.3	0.00e+00	0	40	0	277872640	55	4576
2026-01-09 09:41:09.15	142.76	22.56	-41.8	-44.3	18.1	0.00e+00	0	40	0	279969792	54	5007
2026-01-09 09:41:10.01	142.71	22.69	-41.6	-44.0	18.3	0.00e+00	0	40	0	281018368	54	4868
2026-01-09 09:41:11.16	142.63	22.85	-41.6	-44.0	18.3	0.00e+00	0	40	0	283115520	54	4860
2026-01-09 09:41:12.08	142.57	22.98	-41.9	-44.4	18.0	0.00e+00	0	40	0	285212672	54	5066
2026-01-09 09:41:13.28	142.49	23.15	-42.0	-44.6	17.8	0.00e+00	0	40	0	287309824	54	5174
2026-01-09 09:41:14.14	142.44	23.28	-42.1	-44.7	17.5	0.00e+00	0	40	0	289406976	54	5266
2026-01-09 09:41:15.49	142.34	23.48	-42.2	-44.9	17.5	0.00e+00	0	40	0	291504128	55	5088
2026-01-09 09:41:16.21	142.29	23.58	-42.3	-45.0	17.4	0.00e+00	0	40	0	292552704	55	5150
2026-01-09 09:41:17.50	142.21	23.77	-42.6	-45.4	17.1	0.00e+00	0	40	0	295698432	55	5342
2026-01-09 09:41:18.21	142.16	23.88	-42.6	-45.3	17.1	0.00e+00	0	40	0	296747008	55	5298
2026-01-09 09:41:19.50	142.06	24.07	-42.3	-44.9	17.4	0.00e+00	0	40	0	298844160	55	5100
2026-01-09 09:41:20.22	142.01	24.18	-42.5	-45.1	17.3	0.00e+00	0	40	0	299892736	55	5193
2026-01-09 09:41:21.51	141.92	24.37	-42.9	-45.6	17.0	0.00e+00	0	39	0	303038464	56	5174
2026-01-09 09:41:22.22	141.87	24.48	-42.9	-45.6	17.1	0.00e+00	0	40	0	304087040	56	5197
2026-01-09 09:41:23.51	141.77	24.68	-43.1	-45.8	16.8	0.00e+00	0	40	0	306184192	57	5035
2026-01-09 09:41:24.23	141.72	24.79	-43.4	-46.3	16.4	0.00e+00	0	40	0	308281344	57	5299
2026-01-09 09:41:25.52	141.62	24.99	-43.3	-46.2	16.4	0.00e+00	0	40	0	310378496	57	5278
2026-01-09 09:41:26.23	141.57	25.10	-43.3	-46.2	16.5	0.00e+00	0	40	0	311427072	57	5242
2026-01-09 09:41:27.54	141.47	25.30	-43.4	-46.3	16.3	0.00e+00	0	40	0	314572800	57	5313
2026-01-09 09:41:28.25	141.42	25.41	-43.2	-46.1	16.5	0.00e+00	0	40	0	315621376	57	5180
2026-01-09 09:41:29.55	141.31	25.62	-43.1	-45.9	16.7	0.00e+00	0	40	0	317718528	57	5080
2026-01-09 09:41:30.26	141.26	25.73	-42.8	-45.5	17.1	0.00e+00	0	40	0	318767104	57	4852
2026-01-09 09:41:31.55	141.15	25.94	-43.1	-46.0	16.7	0.00e+00	0	40	0	321912832	57	5128
2026-01-09 09:41:32.27	141.10	26.05	-42.9	-45.7	16.9	0.00e+00	0	40	0	322961408	57	4979
2026-01-09 09:41:33.55	140.99	26.26	-43.2	-46.1	16.5	0.00e+00	0	40	0	325058560	57	5209
2026-01-09 09:41:34.27	140.93	26.37	-43.4	-46.4	16.3	0.00e+00	0	40	0	327155712	57	5353
2026-01-09 09:41:35.56	140.83	26.58	-43.1	-45.9	16.6	0.00e+00	0	40	0	329252864	57	5096
2026-01-09 09:41:36.28	140.77	26.70	-43.2	-46.1	16.5	0.00e+00	0	40	0	330301440	57	5176
2026-01-09 09:41:37.57	140.66	26.91	-43.2	-45.9	16.7	0.00e+00	0	40	0	332398592	57	5099
2026-01-09 09:41:38.29	140.59	27.03	-42.8	-45.5	17.1	0.00e+00	0	40	0	334495744	57	4849
2026-01-09 09:41:39.58	140.48	27.25	-43.0	-45.8	16.9	0.00e+00	0	40	0	336592896	57	4990
2026-01-09 09:41:40.52	140.40	27.41	-42.8	-45.5	17.2	0.00e+00	0	40	0	338690048	57	4827
2026-01-09 09:41:41.53	140.31	27.58	-42.9	-45.6	17.0	0.00e+00	0	40	0	339738624	57	4893
2026-01-09 09:41:42.53	140.22	27.75	-43.1	-45.8	16.8	0.00e+00	0	40	0	341835776	57	5020
2026-01-09 09:41:43.53	140.13	27.92	-43.3	-46.1	16.4	0.00e+00	0	40	0	343932928	57	5179
2026-01-09 09:41:44.53	140.04	28.09	-43.3	-46.1	16.5	0.00e+00	0	40	0	346030080	57	5209
2026-01-09 09:41:45.53	139.94	28.26	-43.4	-46.3	16.5	0.00e+00	0	40	0	348127232	57	5299
2026-01-09 09:41:46.53	139.85	28.44	-43.7	-46.7	16.0	0.00e+00	0	40	0	349175808	58	5239
2026-01-09 09:41:47.54	139.75	28.61	-43.2	-45.9	16.8	0.00e+00	0	40	0	351272960	57	5078
2026-01-09 09:41:48.54	139.66	28.79	-43.4	-46.2	16.5	0.00e+00	0	40	0	353370112	57	5254
2026-01-09 09:41:49.54	139.56	28.96	-43.3	-46.1	16.5	0.00e+00	0	40	0	355467264	57	5193
2026-01-09 09:41:50.55	139.46	29.14	-43.4	-46.2	16.4	0.00e+00	0	40	0	357564416	57	5272
2026-01-09 09:41:51.55	139.36	29.32	-43.9	-47.0	15.8	0.00e+00	0	40	0	358612992	58	5408
2026-01-09 09:41:52.55	139.26	29.50	-44.1	-47.4	15.4	0.00e+00	0	40	0	360710144	58	5664
2026-01-09 09:41:53.56	139.16	29.68	-44.2	-47.4	15.4	0.00e+00	0	40	0	362807296	59	5400
2026-01-09 09:41:54.55	139.06	29.86	-44.5	-47.9	14.8	0.00e+00	0	40	0	364904448	59	5710
2026-01-09 09:41:55.56	138.95	30.05	-44.3	-47.6	15.2	0.00e+00	0	40	0	367001600	59	5518
2026-01-09 09:41:56.56	138.85	30.23	-44.4	-47.8	15.0	0.00e+00	0	40	0	368050176	59	5603
2026-01-09 09:41:57.56	138.74	30.42	-44.2	-47.4	15.4	0.00e+00	0	40	0	370147328	59	5353
2026-01-09 09:41:58.57	138.63	30.61	-44.3	-47.5	15.2	0.00e+00	0	40	0	372244480	59	5455
2026-01-09 09:41:59.57	138.52	30.79	-44.5	-47.9	15.1	0.00e+00	0	40	0	374341632	59	5663
2026-01-09 09:42:00.58	138.41	30.98	-44.2	-47.4	15.3	0.00e+00	0	40	0	376438784	59	5385
2026-01-09 09:42:01.58	138.30	31.17	-44.1	-47.2	15.5	0.00e+00	0	40	0	377487360	59	5275
2026-01-09 09:42:02.58	138.19	31.36	-44.5	-47.9	14.9	0.00e+00	0	40	0	379584512	60	5393
2026-01-09 09:42:03.58	138.07	31.56	-44.3	-47.7	15.1	0.00e+00	0	40	0	381681664	60	5245
2026-01-09 09:42:04.58	137.96	31.75	-44.5	-47.9	15.0	0.00e+00	0	40	0	383778816	60	5384
2026-01-09 09:42:05.59	137.84	31.94	-44.5	-47.9	14.8	7.00e-07	0	40	0	385875968	60	5394
2026-01-09 09:42:06.59	137.72	32.14	-44.5	-47.9	14.9	0.00e+00	0	40	0	386924544	60	5382
2026-01-09 09:42:07.59	137.60	32.33	-44.7	-48.4	14.6	7.00e-07	0	40	0	389021696	60	5663
2026-01-09 09:42:08.60	137.48	32.53	-44.7	-48.2	14.6	0.00e+00	0	40	0	391118848	60	5539
2026-01-09 09:42:09.60	137.36	32.73	-44.5	-47.8	15.0	7.00e-07	0	40	0	393216000	60	5334
2026-01-09 09:42:10.60	137.23	32.93	-44.6	-48.0	14.9	0.00e+00	0	40	0	395313152	60	5413
2026-01-09 09:42:11.61	137.10	33.14	-44.3	-47.5	15.3	0.00e+00	0	40	0	396361728	60	5146
2026-01-09 09:42:12.61	136.98	33.34	-44.7	-48.1	14.7	0.00e+00	0	40	0	398458880	60	5493
2026-01-09 09:42:13.97	136.80	33.61	-45.2	-49.1	13.7	7.00e-07	0	40	0	400556032	61	5815
2026-01-09 09:42:14.69	136.70	33.76	-45.5	-49.5	13.3	6.80e-06	0	40	0	402653184	61	6125
2026-01-09 09:42:15.98	136.53	34.03	-45.6	-49.9	13.0	4.34e-05	0	40	0	404750336	62	6043
2026-01-09 09:42:16.69	136.44	34.17	-45.9	-50.5	12.3	1.14e-04	0	40	0	405798912	62	6457
2026-01-09 09:42:17.98	136.26	34.44	-45.6	-49.9	12.8	1.30e-04	0	40	0	408944640	62	6057
2026-01-09 09:42:18.70	136.16	34.59	-45.4	-49.6	13.2	6.10e-06	0	40	0	409993216	62	5825
2026-01-09 09:42:20.04	135.97	34.88	-45.2	-49.3	13.5	1.14e-05	0	40	0	412090368	62	5607
2026-01-09 09:42:20.75	135.87	35.03	-45.2	-49.1	13.6	1.06e-05	0	40	0	414187520	62	5511
2026-01-09 09:42:22.04	135.69	35.30	-45.7	-50.1	12.6	2.51e-05	0	40	0	416284672	62	6201
2026-01-09 09:42:22.76	135.58	35.46	-46.0	-50.8	12.0	1.21e-04	0	40	0	417333248	62	6678
2026-01-09 09:42:24.05	135.39	35.73	-46.1	-51.0	12.0	2.17e-04	0	40	0	420478976	62	6811
2026-01-09 09:42:24.76	135.28	35.89	-46.3	-51.4	11.4	8.12e-04	0	40	0	421527552	63	6752
2026-01-09 09:42:26.05	135.09	36.17	-46.1	-50.8	12.1	5.38e-04	0	40	0	423624704	63	6294
2026-01-09 09:42:26.76	134.98	36.32	-45.7	-49.9	12.9	1.27e-04	0	40	0	424673280	62	6046
2026-01-09 09:42:28.05	134.78	36.61	-45.0	-48.7	14.2	8.30e-06	0	40	0	427819008	61	5543
2026-01-09 09:42:28.76	134.66	36.77	-44.8	-48.4	14.4	0.00e+00	0	40	0	428867584	61	5361
2026-01-09 09:42:30.05	134.46	37.05	-44.5	-47.9	14.9	0.00e+00	0	40	0	430964736	60	5371
2026-01-09 09:42:30.95	134.31	37.26	-44.3	-47.6	15.2	0.00e+00	0	40	0	433061888	60	5195
2026-01-09 09:42:32.09	134.12	37.51	-44.2	-47.4	15.4	0.00e+00	0	40	0	435159040	59	5384
2026-01-09 09:42:32.95	133.98	37.71	-43.8	-46.8	16.0	0.00e+00	0	40	0	436207616	59	5020
2026-01-09 09:42:34.10	133.78	37.97	-44.1	-47.2	15.5	0.00e+00	0	40	0	439353344	59	5253
2026-01-09 09:42:34.96	133.63	38.17	-44.4	-47.6	15.2	0.00e+00	0	40	0	440401920	59	5518
2026-01-09 09:42:36.11	133.43	38.43	-44.5	-47.9	14.9	0.00e+00	0	40	0	442499072	59	5673
2026-01-09 09:42:36.97	133.28	38.63	-44.5	-47.9	14.9	0.00e+00	0	40	0	444596224	59	5666
2026-01-09 09:42:38.11	133.07	38.90	-44.4	-47.7	15.1	0.00e+00	0	40	0	446693376	59	5554
2026-01-09 09:42:38.97	132.91	39.10	-44.1	-47.2	15.6	0.00e+00	0	40	0	447741952	59	5240
2026-01-09 09:42:40.11	132.70	39.37	-43.7	-46.6	16.2	0.00e+00	0	40	0	449839104	59	4881
2026-01-09 09:42:40.97	132.54	39.57	-43.9	-46.8	15.9	0.00e+00	0	40	0	451936256	59	5025
2026-01-09 09:42:42.12	132.32	39.85	-44.1	-47.2	15.7	0.00e+00	0	40	0	454033408	59	5244
2026-01-09 09:42:43.22	132.11	40.11	-43.9	-47.0	15.9	0.00e+00	0	40	0	456130560	59	5102
2026-01-09 09:42:44.26	131.90	40.36	-43.6	-46.5	16.2	0.00e+00	0	40	0	458227712	59	4865
2026-01-09 09:42:45.26	131.70	40.61	-44.0	-47.0	15.7	0.00e+00	0	40	0	459276288	59	5159
2026-01-09 09:42:46.47	131.45	40.90	-44.1	-47.2	15.6	0.00e+00	0	40	0	462422016	59	5255
2026-01-09 09:42:47.34	131.27	41.11	-44.3	-47.6	15.2	0.00e+00	0	40	0	463470592	59	5500
2026-01-09 09:42:48.71	130.98	41.45	-44.1	-47.3	15.6	7.00e-07	0	40	0	466616320	60	4997
2026-01-09 09:42:49.43	130.83	41.63	-43.6	-46.5	16.2	0.00e+00	0	40	0	467664896	59	4845
2026-01-09 09:42:50.72	130.55	41.95	-43.6	-46.5	16.2	0.00e+00	0	40	0	469762048	58	5138
2026-01-09 09:42:51.43	130.39	42.13	-43.4	-46.1	16.7	0.00e+00	0	40	0	470810624	58	4921
2026-01-09 09:42:52.72	130.10	42.45	-43.7	-46.6	16.3	0.00e+00	0	40	0	473956352	58	5164
2026-01-09 09:42:53.43	129.94	42.63	-43.7	-46.6	15.9	0.00e+00	0	40	0	475004928	59	4911
2026-01-09 09:42:54.73	129.64	42.96	-43.6	-46.5	16.2	0.00e+00	0	40	0	477102080	59	4864
2026-01-09 09:42:55.55	129.44	43.17	-43.5	-46.4	16.6	0.00e+00	0	40	0	479199232	58	5062
2026-01-09 09:42:56.70	129.17	43.47	-43.8	-46.7	16.1	0.00e+00	0	40	0	481296384	58	5278
2026-01-09 09:42:57.56	128.96	43.69	-44.1	-47.2	15.7	0.00e+00	0	40	0	482344960	58	5555
2026-01-09 09:42:58.70	128.67	43.98	-43.7	-46.7	16.1	0.00e+00	0	40	0	485490688	59	4964
2026-01-09 09:42:59.57	128.46	44.21	-43.9	-47.0	15.9	0.00e+00	0	40	0	486539264	59	5114
2026-01-09 09:43:00.71	128.16	44.50	-43.6	-46.5	16.3	0.00e+00	0	40	0	488636416	59	4818
2026-01-09 09:43:01.57	127.94	44.73	-43.5	-46.3	16.5	0.00e+00	0	40	0	490733568	58	4997
2026-01-09 09:43:02.72	127.64	45.03	-43.9	-46.9	15.9	0.00e+00	0	40	0	492830720	58	5384
2026-01-09 09:43:03.58	127.40	45.26	-43.7	-46.7	16.2	0.00e+00	0	40	0	493879296	58	5219
2026-01-09 09:43:04.72	127.09	45.56	-43.5	-46.4	16.4	0.00e+00	0	40	0	495976448	58	5073
2026-01-09 09:43:05.58	126.85	45.79	-43.1	-45.8	16.9	0.00e+00	0	40	0	498073600	58	4740
2026-01-09 09:43:06.73	126.53	46.10	-43.3	-46.1	16.7	0.00e+00	0	40	0	500170752	58	4907
2026-01-09 09:43:07.58	126.28	46.32	-44.1	-47.2	15.7	0.00e+00	0	40	0	501219328	58	5546
2026-01-09 09:43:09.00	125.86	46.70	-44.1	-47.2	15.5	0.00e+00	0	40	0	504365056	59	5279
2026-01-09 09:43:09.72	125.65	46.90	-43.8	-46.7	16.0	0.00e+00	0	40	0	505413632	59	4975
2026-01-09 09:43:11.25	125.18	47.31	-42.6	-45.2	17.5	0.00e+00	0	40	0	508559360	57	4659
2026-01-09 09:43:11.96	124.96	47.51	-42.9	-45.6	17.2	0.00e+00	0	40	0	509607936	57	4891
2026-01-09 09:43:13.25	124.55	47.86	-43.4	-46.2	16.6	0.00e+00	0	40	0	512753664	57	5266
2026-01-09 09:43:13.97	124.32	48.05	-43.3	-46.2	16.6	0.00e+00	0	40	0	513802240	57	5252
2026-01-09 09:43:15.26	123.90	48.41	-43.2	-45.9	16.9	0.00e+00	0	40	0	515899392	57	5093
2026-01-09 09:43:15.97	123.66	48.60	-43.4	-46.2	16.6	0.00e+00	0	40	0	516947968	57	5259
2026-01-09 09:43:17.26	123.22	48.96	-43.3	-46.2	16.6	0.00e+00	0	40	0	520093696	57	5245
2026-01-09 09:43:17.97	122.97	49.15	-43.2	-46.1	16.7	0.00e+00	0	40	0	521142272	57	5191
2026-01-09 09:43:19.26	122.52	49.51	-42.6	-45.3	17.4	0.00e+00	0	40	0	523239424	57	4717
2026-01-09 09:43:19.98	122.26	49.71	-42.3	-44.8	17.9	0.00e+00	0	40	0	525336576	56	4750
2026-01-09 09:43:21.27	121.79	50.07	-43.1	-45.9	16.9	0.00e+00	0	40	0	527433728	56	5344
2026-01-09 09:43:21.98	121.52	50.26	-43.1	-45.8	17.0	0.00e+00	0	40	0	528482304	57	5022
2026-01-09 09:43:23.27	121.03	50.62	-42.6	-45.1	17.6	0.00e+00	0	40	0	530579456	57	4634
2026-01-09 09:43:24.20	120.67	50.88	-41.8	-44.2	18.3	0.00e+00	0	40	0	532676608	55	4684
2026-01-09 09:43:25.20	120.28	51.16	-41.3	-43.6	18.9	0.00e+00	0	40	0	534773760	54	4613
2026-01-09 09:43:26.20	119.88	51.44	-41.9	-44.3	18.3	0.00e+00	0	40	0	536870912	54	4985
2026-01-09 09:43:27.20	119.47	51.72	-41.9	-44.3	18.2	0.00e+00	0	40	0	537919488	54	5010
2026-01-09 09:43:28.20	119.05	52.00	-41.9	-44.3	18.2	0.00e+00	0	40	0	540016640	54	5027
2026-01-09 09:43:29.21	118.62	52.28	-41.8	-44.2	18.3	0.00e+00	0	40	0	542113792	54	4943
2026-01-09 09:43:30.21	118.19	52.56	-42.1	-44.6	18.1	0.00e+00	0	40	0	544210944	54	5203
2026-01-09 09:43:31.21	117.74	52.84	-41.6	-43.9	18.6	0.00e+00	0	40	0	546308096	54	4778
2026-01-09 09:43:32.26	117.27	53.13	-41.6	-43.9	18.6	0.00e+00	0	40	0	548405248	54	4770
2026-01-09 09:43:33.14	116.87	53.37	-42.0	-44.5	18.1	0.00e+00	0	40	0	549453824	54	5103
2026-01-09 09:43:34.49	116.23	53.75	-42.6	-45.3	17.3	0.00e+00	0	40	0	552599552	55	5294
2026-01-09 09:43:35.21	115.89	53.95	-42.6	-45.2	17.6	0.00e+00	0	40	0	553648128	56	4971
2026-01-09 09:43:36.50	115.26	54.31	-42.9	-45.7	17.2	0.00e+00	0	40	0	555745280	56	5230
2026-01-09 09:43:37.22	114.90	54.50	-43.1	-46.0	17.0	0.00e+00	0	40	0	556793856	56	5404
2026-01-09 09:43:38.51	114.25	54.86	-42.8	-45.5	17.3	0.00e+00	0	40	0	559939584	57	4819
2026-01-09 09:43:39.23	113.87	55.06	-42.7	-45.4	17.4	0.00e+00	0	40	0	560988160	57	4774
2026-01-09 09:43:40.85	113.02	55.50	-42.7	-45.3	17.5	0.00e+00	0	40	0	564133888	56	5008
2026-01-09 09:43:41.43	112.70	55.66	-42.4	-45.0	17.7	0.00e+00	0	40	0	565182464	56	4852
2026-01-09 09:43:43.00	111.84	56.08	-41.6	-44.1	18.5	0.00e+00	0	40	0	568328192	55	4600
2026-01-09 09:43:43.60	111.50	56.24	-41.8	-44.5	18.2	0.00e+00	0	40	0	569376768	54	5140
2026-01-09 09:43:45.18	110.59	56.67	-41.8	-44.5	17.9	0.00e+00	0	40	0	572522496	54	5121
2026-01-09 09:43:45.92	110.15	56.86	-41.6	-44.2	18.1	0.00e+00	0	40	0	573571072	54	4944
2026-01-09 09:43:47.21	109.38	57.20	-41.3	-43.8	18.6	0.00e+00	0	40	0	575668224	54	4737
2026-01-09 09:43:48.06	108.86	57.43	-42.1	-44.9	17.6	0.00e+00	0	40	0	577765376	54	5363
2026-01-09 09:43:49.20	108.15	57.72	-42.6	-45.4	17.2	0.00e+00	0	40	0	579862528	56	5094
2026-01-09 09:43:50.06	107.60	57.94	-42.6	-45.3	17.3	0.00e+00	0	40	0	580911104	56	5013
2026-01-09 09:43:51.21	106.85	58.24	-42.2	-44.7	17.9	0.00e+00	0	40	0	583008256	56	4688
2026-01-09 09:43:52.07	106.28	58.46	-42.4	-45.0	17.6	0.00e+00	0	40	0	585105408	56	4868
2026-01-09 09:43:53.21	105.51	58.74	-42.7	-45.6	17.2	0.00e+00	0	40	0	587202560	56	5163
2026-01-09 09:43:54.07	104.92	58.95	-43.2	-46.3	16.5	0.00e+00	0	40	0	588251136	57	5282
2026-01-09 09:43:55.22	104.11	59.24	-43.9	-47.3	15.5	0.00e+00	0	40	0	591396864	58	5617
2026-01-09 09:43:56.07	103.51	59.44	-43.5	-46.7	16.1	0.00e+00	0	40	0	592445440	58	5239
2026-01-09 09:43:57.32	102.60	59.74	-42.8	-45.6	17.0	0.00e+00	0	40	0	594542592	57	4922
2026-01-09 09:43:58.17	101.97	59.94	-42.5	-45.4	17.3	0.00e+00	0	40	0	596639744	57	4765
2026-01-09 09:43:59.32	101.10	60.21	-42.8	-45.8	17.1	0.00e+00	0	40	0	598736896	57	5017
2026-01-09 09:44:00.18	100.44	60.40	-42.3	-45.0	17.5	0.00e+00	0	40	0	599785472	56	4859
2026-01-09 09:44:01.45	99.44	60.69	-41.7	-44.3	18.1	0.00e+00	0	40	0	602931200	55	4734
2026-01-09 09:44:02.17	98.87	60.84	-41.4	-44.0	18.4	0.00e+00	0	40	0	603979776	54	4833
2026-01-09 09:44:03.46	97.82	61.12	-41.1	-43.7	18.6	0.00e+00	0	40	0	606076928	54	4669
2026-01-09 09:44:04.17	97.23	61.27	-40.6	-43.0	19.3	0.00e+00	0	40	0	608174080	53	4547
2026-01-09 09:44:05.46	96.15	61.54	-40.2	-42.4	19.8	0.00e+00	0	40	0	610271232	51	4788
2026-01-09 09:44:06.18	95.54	61.68	-40.2	-42.5	19.7	0.00e+00	0	40	0	611319808	51	4853
2026-01-09 09:44:07.47	94.42	61.93	-40.6	-43.0	19.3	0.00e+00	0	40	0	613416960	51	5113
2026-01-09 09:44:08.18	93.79	62.07	-40.6	-43.1	19.1	0.00e+00	0	40	0	615514112	52	4883
2026-01-09 09:44:09.47	92.64	62.31	-40.6	-43.1	19.1	0.00e+00	0	40	0	617611264	52	4916
2026-01-09 09:44:10.19	91.98	62.44	-40.7	-43.2	19.0	0.00e+00	0	40	0	618659840	52	4945
2026-01-09 09:44:11.48	90.79	62.66	-40.4	-42.8	19.5	0.00e+00	0	40	0	621805568	52	4710
2026-01-09 09:44:12.20	90.12	62.78	-40.4	-42.8	19.5	0.00e+00	0	40	0	622854144	52	4716
2026-01-09 09:44:13.48	88.90	62.99	-40.8	-43.3	19.0	0.00e+00	0	40	0	624951296	52	5027
2026-01-09 09:44:14.20	88.21	63.10	-40.5	-42.9	19.4	0.00e+00	0	40	0	627048448	52	4780
2026-01-09 09:44:15.49	86.96	63.30	-39.9	-42.2	20.0	0.00e+00	0	40	0	629145600	51	4683
2026-01-09 09:44:16.21	86.25	63.40	-39.7	-41.9	20.3	0.00e+00	0	40	0	630194176	51	4516
2026-01-09 09:44:17.64	84.82	63.59	-40.0	-42.2	20.0	0.00e+00	0	40	0	633339904	51	4698
2026-01-09 09:44:18.36	84.09	63.68	-40.3	-42.7	19.7	0.00e+00	0	40	0	634388480	51	4932
2026-01-09 09:44:19.65	82.77	63.84	-41.1	-43.7	18.6	0.00e+00	0	40	0	636485632	52	5233
2026-01-09 09:44:20.68	81.71	63.95	-41.2	-43.8	18.5	0.00e+00	0	40	0	638582784	53	4992
2026-01-09 09:44:21.98	80.35	64.09	-41.5	-44.2	18.2	0.00e+00	0	40	0	640679936	54	4946
2026-01-09 09:44:22.70	79.59	64.16	-41.3	-43.9	18.4	0.00e+00	0	40	0	642777088	54	4806
2026-01-09 09:44:23.99	78.22	64.27	-40.0	-42.3	19.9	0.00e+00	0	40	0	644874240	52	4479
2026-01-09 09:44:24.70	77.46	64.33	-39.9	-42.1	20.1	0.00e+00	0	40	0	645922816	51	4638
2026-01-09 09:44:25.99	76.08	64.42	-39.7	-41.9	20.3	0.00e+00	0	40	0	649068544	51	4504
2026-01-09 09:44:26.71	75.30	64.47	-39.2	-41.3	20.7	0.00e+00	0	40	0	650117120	50	4489
2026-01-09 09:44:28.00	73.89	64.54	-39.1	-41.1	21.0	0.00e+00	0	40	0	652214272	50	4379
2026-01-09 09:44:28.71	73.11	64.57	-39.5	-41.6	20.6	0.00e+00	0	40	0	653262848	50	4614
2026-01-09 09:44:30.06	71.63	64.62	-39.4	-41.5	20.7	0.00e+00	0	40	0	656408576	50	4579
2026-01-09 09:44:30.78	70.84	64.64	-39.3	-41.4	20.7	0.00e+00	0	40	0	657457152	50	4525
2026-01-09 09:44:32.13	69.35	64.67	-39.8	-42.1	20.1	0.00e+00	0	40	0	660602880	50	4886
2026-01-09 09:44:32.85	68.55	64.68	-40.0	-42.2	20.0	0.00e+00	0	40	0	661651456	50	4973
2026-01-09 09:44:34.14	67.13	64.69	-40.1	-42.4	19.9	0.00e+00	0	41	0	663748608	50	5094
2026-01-09 09:44:34.86	66.33	64.68	-40.7	-43.1	19.2	0.00e+00	0	40	0	664797184	52	4886
2026-01-09 09:44:36.28	64.76	64.66	-40.5	-42.9	19.4	0.00e+00	0	40	0	667942912	52	4778
2026-01-09 09:44:36.99	63.98	64.65	-40.2	-42.4	19.8	0.00e+00	0	40	0	668991488	52	4530
2026-01-09 09:44:38.28	62.56	64.61	-39.7	-41.8	20.4	0.00e+00	0	41	0	672137216	51	4467
2026-01-09 09:44:39.00	61.77	64.58	-39.1	-41.2	21.0	0.00e+00	0	40	0	673185792	50	4416
2026-01-09 09:44:40.28	60.37	64.52	-39.4	-41.4	20.8	0.00e+00	0	40	0	675282944	49	4808
2026-01-09 09:44:41.00	59.59	64.48	-40.3	-42.6	19.8	0.00e+00	0	40	0	676331520	51	4891
2026-01-09 09:44:42.29	58.19	64.39	-40.2	-42.4	19.9	0.00e+00	0	40	0	679477248	51	4798
2026-01-09 09:44:43.00	57.43	64.34	-40.3	-42.5	19.8	0.00e+00	0	40	0	680525824	51	4828
2026-01-09 09:44:44.29	56.05	64.24	-40.9	-43.3	19.1	0.00e+00	0	40	0	682622976	52	4986
2026-01-09 09:44:45.01	55.29	64.17	-40.9	-43.3	19.1	0.00e+00	0	40	0	684720128	52	4997
2026-01-09 09:44:46.30	53.93	64.05	-40.6	-42.9	19.6	0.00e+00	0	40	0	686817280	52	4761
2026-01-09 09:44:47.02	53.18	63.97	-40.8	-43.1	19.2	0.00e+00	0	40	0	687865856	52	4911
2026-01-09 09:44:48.31	51.85	63.83	-40.3	-42.6	19.7	0.00e+00	0	40	0	689963008	52	4620
2026-01-09 09:44:49.03	51.11	63.74	-39.9	-42.1	20.2	0.00e+00	0	40	0	692060160	51	4618
2026-01-09 09:44:50.32	49.80	63.58	-40.7	-43.1	19.3	0.00e+00	0	40	0	694157312	52	4893
2026-01-09 09:44:51.04	49.08	63.49	-40.4	-42.7	19.6	0.00e+00	0	40	0	695205888	52	4699
2026-01-09 09:44:52.32	47.82	63.31	-40.2	-42.4	19.8	0.00e+00	0	40	0	698351616	51	4799
2026-01-09 09:44:53.04	47.11	63.20	-40.2	-42.4	19.9	0.00e+00	0	40	0	699400192	51	4776
2026-01-09 09:44:54.33	45.87	63.00	-40.1	-42.2	20.1	0.00e+00	0	40	0	701497344	51	4676
2026-01-09 09:44:55.05	45.19	62.89	-39.6	-41.7	20.6	0.00e+00	0	41	0	703594496	51	4392
2026-01-09 09:44:56.33	43.98	62.68	-40.5	-42.7	19.6	0.00e+00	0	40	0	705691648	51	4969
2026-01-09 09:44:57.05	43.32	62.55	-41.1	-43.5	18.8	0.00e+00	0	40	0	706740224	52	5158
2026-01-09 09:44:58.34	42.14	62.32	-40.7	-43.0	19.2	0.00e+00	0	40	0	708837376	53	4579
2026-01-09 09:44:59.05	41.50	62.19	-41.0	-43.4	18.9	0.00e+00	0	40	0	710934528	53	4794
2026-01-09 09:45:00.34	40.36	61.95	-41.5	-44.1	18.3	0.00e+00	0	40	0	713031680	53	5207
2026-01-09 09:45:01.06	39.73	61.81	-42.4	-45.2	17.3	0.00e+00	0	40	0	714080256	55	5258
2026-01-09 09:45:02.35	38.63	61.55	-43.8	-47.3	15.5	0.00e+00	0	40	0	717225984	58	5612
2026-01-09 09:45:03.07	38.02	61.41	-44.5	-48.4	14.4	0.00e+00	0	40	0	718274560	59	6004
2026-01-09 09:45:04.36	36.95	61.14	-43.9	-47.3	15.3	0.00e+00	0	40	0	720371712	59	5331
2026-01-09 09:45:05.07	36.37	60.99	-43.7	-47.0	15.8	0.00e+00	0	40	0	721420288	59	5112
2026-01-09 09:45:06.36	35.34	60.71	-43.1	-46.0	16.6	0.00e+00	0	41	0	724566016	57	5143
2026-01-09 09:45:07.08	34.77	60.55	-42.5	-45.2	17.4	0.00e+00	0	40	0	725614592	56	4982
2026-01-09 09:45:08.46	33.70	60.24	-43.4	-46.5	16.3	0.00e+00	0	40	0	728760320	57	5407
2026-01-09 09:45:09.18	33.16	60.07	-44.2	-47.6	15.2	0.00e+00	0	40	0	729808896	59	5482
2026-01-09 09:45:10.47	32.20	59.77	-44.7	-48.4	14.5	0.00e+00	0	40	0	731906048	60	5714
2026-01-09 09:45:11.18	31.68	59.60	-44.7	-48.4	14.4	0.00e+00	0	41	0	732954624	60	5666
2026-01-09 09:45:12.48	30.74	59.29	-44.2	-47.7	15.1	0.00e+00	0	40	0	736100352	60	5251
2026-01-09 09:45:13.19	30.24	59.12	-44.0	-47.2	15.6	0.00e+00	0	40	0	737148928	59	5248
2026-01-09 09:45:14.48	29.35	58.80	-43.0	-45.8	16.9	0.00e+00	0	40	0	739246080	57	4995
2026-01-09 09:45:15.20	28.86	58.62	-42.8	-45.5	17.2	0.00e+00	0	40	0	741343232	57	4846
2026-01-09 09:45:16.49	28.00	58.30	-43.8	-46.9	16.0	0.00e+00	0	41	0	743440384	58	5347
2026-01-09 09:45:17.21	27.53	58.11	-44.3	-47.7	15.1	0.00e+00	0	41	0	744488960	59	5579
2026-01-09 09:45:18.50	26.70	57.78	-44.7	-48.6	14.2	7.00e-07	0	41	0	746586112	60	5804
2026-01-09 09:45:19.22	26.25	57.60	-44.8	-48.7	14.1	2.20e-06	0	41	0	748683264	60	5887
2026-01-09 09:45:20.51	25.46	57.26	-44.3	-47.8	14.9	0.00e+00	0	41	0	750780416	59	5656
2026-01-09 09:45:21.22	25.03	57.07	-44.6	-48.3	14.4	7.00e-07	0	41	0	751828992	59	5979
2026-01-09 09:45:22.51	24.26	56.73	-45.1	-49.5	13.2	5.30e-06	0	41	0	754974720	60	6476
2026-01-09 09:45:23.23	23.84	56.54	-45.3	-49.8	12.9	5.56e-05	0	40	0	756023296	61	6307
2026-01-09 09:45:24.52	23.11	56.20	-44.6	-48.5	14.2	9.90e-06	0	41	0	758120448	61	5453
2026-01-09 09:45:25.24	22.70	56.00	-43.5	-46.7	15.9	1.50e-06	0	40	0	760217600	59	4958
2026-01-09 09:45:26.53	22.00	55.65	-43.5	-46.7	15.9	0.00e+00	0	40	0	762314752	58	5274
2026-01-09 09:45:27.25	21.61	55.46	-43.9	-47.5	15.2	0.00e+00	0	40	0	763363328	58	5773
2026-01-09 09:45:28.54	20.93	55.11	-44.0	-47.7	14.9	1.50e-06	0	41	0	765460480	59	5571
2026-01-09 09:45:29.25	20.56	54.91	-43.2	-46.3	16.3	0.00e+00	0	40	0	767557632	58	5012
2026-01-09 09:45:30.54	19.91	54.56	-43.0	-46.1	16.4	0.00e+00	0	41	0	769654784	57	5199
2026-01-09 09:45:31.27	19.54	54.36	-43.2	-46.4	16.4	0.00e+00	0	41	0	770703360	57	5350
2026-01-09 09:45:32.56	18.91	54.00	-42.7	-45.6	17.1	0.00e+00	0	40	0	773849088	57	4876
2026-01-09 09:45:33.28	18.57	53.80	-42.8	-45.6	17.1	0.00e+00	0	41	0	774897664	56	5210
2026-01-09 09:45:34.57	17.96	53.45	-43.3	-46.3	16.5	0.00e+00	0	41	0	776994816	57	5327
2026-01-09 09:45:35.29	17.63	53.25	-43.3	-46.4	16.3	0.00e+00	0	40	0	779091968	57	5369
2026-01-09 09:45:36.58	17.05	52.89	-42.8	-45.7	17.0	0.00e+00	0	41	0	781189120	57	4976
2026-01-09 09:45:37.30	16.73	52.69	-43.2	-46.3	16.4	0.00e+00	0	40	0	782237696	57	5305
2026-01-09 09:45:38.58	16.17	52.33	-43.7	-46.9	15.8	0.00e+00	0	41	0	784334848	57	5712
2026-01-09 09:45:39.30	15.87	52.13	-43.3	-46.4	16.3	0.00e+00	0	41	0	786432000	58	5071
2026-01-09 09:45:40.59	15.33	51.77	-42.5	-45.2	17.4	0.00e+00	0	41	0	788529152	56	4981
2026-01-09 09:45:41.31	15.03	51.57	-42.1	-44.7	17.8	0.00e+00	0	40	0	789577728	56	4700
2026-01-09 09:45:42.77	14.44	51.17	-42.6	-45.3	17.4	0.00e+00	0	41	0	792723456	56	5031
2026-01-09 09:45:43.49	14.16	50.97	-42.9	-45.8	17.2	0.00e+00	0	41	0	793772032	56	5295
2026-01-09 09:45:44.78	13.66	50.61	-42.8	-45.6	17.1	0.00e+00	0	41	0	795869184	56	5213
2026-01-09 09:45:45.50	13.39	50.41	-43.0	-46.0	16.9	0.00e+00	0	41	0	797966336	56	5408
2026-01-09 09:45:46.79	12.91	50.05	-43.5	-46.7	16.2	0.00e+00	0	41	0	800063488	57	5567
2026-01-09 09:45:47.50	12.65	49.86	-43.7	-47.0	15.8	0.00e+00	0	41	0	801112064	58	5431
2026-01-09 09:45:48.80	12.18	49.50	-43.9	-47.3	15.5	0.00e+00	0	41	0	804257792	58	5618
2026-01-09 09:45:49.51	11.93	49.30	-43.9	-47.2	15.6	0.00e+00	0	41	0	805306368	58	5570
2026-01-09 09:45:50.80	11.48	48.95	-43.2	-46.1	16.6	0.00e+00	0	41	0	807403520	58	4877
2026-01-09 09:45:51.57	11.22	48.74	-42.4	-45.1	17.6	0.00e+00	0	41	0	809500672	56	4876
2026-01-09 09:45:52.86	10.79	48.39	-41.8	-44.3	18.1	0.00e+00	0	41	0	811597824	55	4737
2026-01-09 09:45:53.57	10.56	48.19	-42.1	-44.7	17.8	0.00e+00	0	40	0	812646400	55	4967
2026-01-09 09:45:54.86	10.14	47.84	-42.2	-44.9	17.6	0.00e+00	0	41	0	814743552	55	5081
2026-01-09 09:45:55.71	9.87	47.61	-41.7	-44.2	18.2	0.00e+00	0	41	0	816840704	55	4683
2026-01-09 09:45:56.85	9.52	47.30	-41.4	-43.9	18.4	0.00e+00	0	40	0	818937856	54	4762
2026-01-09 09:45:57.71	9.26	47.07	-42.3	-45.1	17.3	0.00e+00	0	41	0	821035008	55	5173
2026-01-09 09:45:58.86	8.91	46.76	-43.5	-46.8	16.0	0.00e+00	0	41	0	823132160	57	5598
2026-01-09 09:45:59.72	8.66	46.53	-44.3	-47.9	14.9	0.00e+00	0	41	0	824180736	59	5719
2026-01-09 09:46:00.87	8.33	46.22	-44.9	-49.1	13.6	2.20e-06	0	41	0	826277888	60	6136
2026-01-09 09:46:01.72	8.08	46.00	-44.6	-48.5	14.2	3.00e-06	0	41	0	828375040	60	5746
2026-01-09 09:46:02.89	7.76	45.69	-43.2	-46.3	16.3	0.00e+00	0	41	0	830472192	58	4999
2026-01-09 09:46:03.75	7.52	45.46	-42.8	-45.6	17.0	0.00e+00	0	41	0	831520768	57	4903
2026-01-09 09:46:04.94	7.20	45.15	-42.9	-45.8	16.9	0.00e+00	0	40	0	834666496	57	5009
2026-01-09 09:46:05.80	6.97	44.92	-43.5	-46.8	15.9	0.00e+00	0	41	0	835715072	57	5615
2026-01-09 09:46:07.01	6.65	44.60	-43.5	-46.8	15.8	0.00e+00	0	41	0	837812224	58	5328
2026-01-09 09:46:07.87	6.43	44.38	-43.7	-47.1	15.6	0.00e+00	0	41	0	839909376	58	5487
2026-01-09 09:46:09.02	6.14	44.08	-42.8	-45.9	16.7	0.00e+00	0	41	0	842006528	57	5064
2026-01-09 09:46:09.88	5.93	43.86	-42.6	-45.6	17.0	0.00e+00	0	41	0	843055104	57	4915
2026-01-09 09:46:11.15	5.62	43.54	-42.6	-45.4	17.2	0.00e+00	0	40	0	846200832	56	5098
2026-01-09 09:46:12.28	5.35	43.25	-42.9	-45.9	16.7	0.00e+00	0	40	0	848297984	56	5371
2026-01-09 09:46:13.15	5.14	43.03	-42.8	-45.7	16.8	0.00e+00	0	40	0	849346560	56	5246
2026-01-09 09:46:14.29	4.88	42.74	-43.4	-46.7	15.9	0.00e+00	0	40	0	851443712	57	5541
2026-01-09 09:46:15.15	4.68	42.52	-44.4	-48.2	14.4	0.00e+00	0	41	0	853540864	59	5915
2026-01-09 09:46:16.30	4.42	42.23	-45.6	-50.7	11.8	1.61e-04	0	41	0	855638016	62	6571
2026-01-09 09:46:17.16	4.23	42.02	-45.3	-50.0	12.6	2.01e-04	0	41	0	856686592	62	6109
2026-01-09 09:46:18.43	3.96	41.70	-45.6	-50.4	12.3	1.58e-04	0	41	0	859832320	62	6381
2026-01-09 09:46:19.15	3.80	41.53	-45.0	-49.4	13.3	5.26e-05	0	41	0	860880896	61	6021
2026-01-09 09:46:20.43	3.53	41.21	-44.9	-49.2	13.4	1.06e-05	0	41	0	862978048	61	5888
2026-01-09 09:46:21.15	3.38	41.04	-44.2	-48.0	14.7	1.37e-05	0	41	0	865075200	60	5418
2026-01-09 09:46:22.44	3.12	40.72	-43.7	-47.0	15.7	0.00e+00	0	41	0	867172352	59	5129
2026-01-09 09:46:23.16	2.98	40.55	-43.4	-46.7	16.0	0.00e+00	0	41	0	868220928	58	5242
2026-01-09 09:46:24.78	2.66	40.16	-43.8	-47.1	15.6	0.00e+00	0	41	0	871366656	58	5501
2026-01-09 09:46:25.35	2.55	40.02	-43.6	-46.9	15.9	0.00e+00	0	40	0	872415232	58	5352
2026-01-09 09:46:26.96	2.24	39.64	-44.4	-48.1	14.6	7.00e-07	0	41	0	875560960	60	5519
2026-01-09 09:46:27.53	2.13	39.51	-44.5	-48.4	14.3	0.00e+00	0	41	0	876609536	60	5699
2026-01-09 09:46:29.14	1.83	39.13	-44.7	-48.8	14.0	9.90e-06	0	41	0	879755264	60	5956
2026-01-09 09:46:29.82	1.71	38.97	-45.3	-49.8	12.9	9.90e-06	0	41	0	880803840	61	6338
2026-01-09 09:46:31.25	1.45	38.64	-45.4	-49.9	12.8	1.11e-04	0	41	0	883949568	61	6390
2026-01-09 09:46:31.97	1.32	38.47	-45.2	-49.5	13.2	3.20e-05	0	41	0	884998144	61	6090
2026-01-09 09:46:33.26	1.10	38.17	-44.9	-49.0	13.7	9.90e-06	0	41	0	887095296	61	5775
2026-01-09 09:46:33.98	0.98	38.01	-45.1	-49.5	13.3	1.06e-05	0	41	0	888143872	61	6063
2026-01-09 09:46:35.27	0.76	37.72	-45.3	-50.1	12.7	1.53e-04	0	41	0	891289600	61	6544
2026-01-09 09:46:36.21	0.60	37.50	-45.3	-50.3	12.5	6.02e-05	0	41	0	892338176	61	6691
2026-01-09 09:46:37.21	0.44	37.28	-45.3	-50.1	12.8	1.59e-04	0	41	0	894435328	61	6513
2026-01-09 09:46:38.21	0.28	37.06	-45.0	-49.5	13.2	6.86e-05	0	41	0	896532480	61	6109
2026-01-09 09:46:39.21	0.12	36.84	-44.3	-48.1	14.6	7.00e-07	0	41	0	898629632	60	5520
2026-01-09 09:46:40.22	359.96	36.61	-43.4	-46.6	16.1	0.00e+00	0	41	0	900726784	58	5200
2026-01-09 09:46:41.22	359.80	36.39	-43.1	-46.1	16.6	0.00e+00	0	41	0	901775360	58	4883
2026-01-09 09:46:42.22	359.65	36.17	-43.1	-46.1	16.7	0.00e+00	0	41	0	903872512	57	5208
2026-01-09 09:46:43.27	359.49	35.95	-42.9	-45.9	16.9	0.00e+00	0	41	0	905969664	57	5047
2026-01-09 09:46:44.18	359.35	35.75	-42.7	-45.5	17.1	0.00e+00	0	41	0	908066816	57	4864
2026-01-09 09:46:45.20	359.20	35.53	-43.0	-46.0	16.6	0.00e+00	0	40	0	910163968	57	5150
2026-01-09 09:46:46.20	359.06	35.32	-43.0	-46.0	16.7	7.00e-07	0	41	0	911212544	57	5139
2026-01-09 09:46:47.20	358.92	35.11	-43.6	-46.9	15.9	0.00e+00	0	41	0	913309696	57	5657
2026-01-09 09:46:48.46	358.74	34.84	-44.4	-48.1	14.6	0.00e+00	0	41	0	915406848	59	5828
2026-01-09 09:46:49.24	358.63	34.68	-44.6	-48.6	14.2	1.50e-06	0	41	0	917504000	60	5798
2026-01-09 09:46:50.53	358.45	34.41	-45.0	-49.2	13.6	1.29e-05	0	41	0	919601152	61	5864
2026-01-09 09:46:51.25	358.35	34.26	-44.5	-48.2	14.5	3.00e-06	0	41	0	920649728	60	5589
2026-01-09 09:46:52.54	358.18	33.99	-44.2	-47.6	15.0	0.00e+00	0	41	0	923795456	59	5504
2026-01-09 09:46:53.27	358.09	33.84	-43.6	-46.7	16.0	0.00e+00	0	41	0	924844032	58	5242
2026-01-09 09:46:54.56	357.92	33.58	-43.7	-46.9	15.8	0.00e+00	0	41	0	926941184	58	5385
2026-01-09 09:46:55.27	357.83	33.44	-43.8	-47.0	15.8	0.00e+00	0	41	0	927989760	58	5439
2026-01-09 09:46:56.56	357.66	33.18	-44.2	-47.6	15.2	0.00e+00	0	41	0	931135488	59	5493
2026-01-09 09:46:57.27	357.57	33.04	-44.1	-47.5	15.2	0.00e+00	0	41	0	932184064	59	5430
2026-01-09 09:46:58.56	357.41	32.78	-44.2	-47.8	15.0	7.00e-07	0	41	0	934281216	59	5601
2026-01-09 09:46:59.28	357.33	32.64	-44.2	-47.7	15.1	0.00e+00	0	41	0	936378368	59	5555
2026-01-09 09:47:00.68	357.16	32.36	-44.3	-47.9	14.9	0.00e+00	0	41	0	938475520	59	5696
2026-01-09 09:47:01.65	357.04	32.17	-44.4	-48.1	14.8	1.50e-06	0	41	0	940572672	59	5803
2026-01-09 09:47:02.65	356.92	31.98	-44.5	-48.4	14.5	7.00e-07	0	41	0	942669824	60	5663
2026-01-09 09:47:03.66	356.81	31.79	-44.2	-47.8	15.0	0.00e+00	0	41	0	944766976	60	5311
2026-01-09 09:47:04.66	356.69	31.59	-44.0	-47.4	15.3	0.00e+00	0	41	0	945815552	60	5095
2026-01-09 09:47:05.66	356.58	31.40	-43.8	-47.0	15.7	0.00e+00	0	41	0	947912704	59	5118
2026-01-09 09:47:06.67	356.47	31.21	-43.4	-46.4	16.2	0.00e+00	0	41	0	950009856	58	5084
2026-01-09 09:47:07.67	356.36	31.02	-43.6	-46.6	16.2	0.00e+00	0	41	0	952107008	58	5169
2026-01-09 09:47:08.67	356.25	30.84	-43.5	-46.5	16.2	0.00e+00	0	41	0	953155584	58	5156
2026-01-09 09:47:09.67	356.14	30.65	-44.1	-47.4	15.3	0.00e+00	0	41	0	955252736	59	5390
2026-01-09 09:47:10.68	356.03	30.46	-44.6	-48.3	14.5	0.00e+00	0	41	0	957349888	59	5940
2026-01-09 09:47:11.68	355.92	30.28	-45.1	-49.1	13.7	7.00e-07	0	41	0	959447040	61	5824
2026-01-09 09:47:12.69	355.82	30.09	-45.1	-49.3	13.5	1.60e-05	0	41	0	961544192	61	5943
2026-01-09 09:47:13.69	355.72	29.91	-45.2	-49.4	13.4	1.06e-05	0	41	0	962592768	61	6047
2026-01-09 09:47:14.69	355.61	29.73	-45.0	-49.1	13.7	6.80e-06	0	41	0	964689920	61	5797
2026-01-09 09:47:15.70	355.51	29.55	-44.8	-48.7	14.1	1.50e-06	0	41	0	966787072	61	5546
2026-01-09 09:47:16.70	355.41	29.37	-44.6	-48.3	14.5	7.00e-07	0	41	0	968884224	61	5337
2026-01-09 09:47:17.93	355.29	29.15	-44.7	-48.3	14.5	7.00e-07	0	41	0	970981376	61	5336
2026-01-09 09:47:18.79	355.21	29.00	-44.7	-48.4	14.4	1.50e-06	0	41	0	972029952	61	5373
2026-01-09 09:47:19.93	355.10	28.80	-44.8	-48.6	14.2	3.00e-06	0	41	0	974127104	61	5519
2026-01-09 09:47:20.79	355.02	28.65	-44.9	-48.8	14.0	1.50e-06	0	41	0	976224256	61	5602
2026-01-09 09:47:21.94	354.91	28.45	-45.1	-49.2	13.7	6.10e-06	0	41	0	978321408	61	5866
2026-01-09 09:47:22.80	354.83	28.30	-45.2	-49.5	13.4	1.44e-05	0	41	0	979369984	61	6070
2026-01-09 09:47:23.95	354.73	28.11	-44.8	-48.7	14.1	6.80e-06	0	41	0	981467136	61	5568
2026-01-09 09:47:24.93	354.64	27.94	-44.7	-48.5	14.4	3.00e-06	0	41	0	983564288	61	5408
2026-01-09 09:47:26.11	354.53	27.74	-44.7	-48.4	14.4	7.00e-07	0	41	0	985661440	61	5354
2026-01-09 09:47:26.97	354.46	27.59	-44.7	-48.4	14.4	0.00e+00	0	41	0	987758592	61	5367
2026-01-09 09:47:28.12	354.35	27.40	-44.3	-47.9	14.9	0.00e+00	0	41	0	989855744	60	5375
2026-01-09 09:47:28.98	354.28	27.26	-44.3	-47.9	14.9	0.00e+00	0	41	0	990904320	60	5393
2026-01-09 09:47:30.12	354.18	27.07	-44.1	-47.7	15.1	0.00e+00	0	41	0	993001472	60	5220
2026-01-09 09:47:30.99	354.11	26.93	-44.3	-47.9	14.8	0.00e+00	0	41	0	995098624	59	5702
2026-01-09 09:47:32.13	354.01	26.74	-43.9	-47.4	15.5	0.00e+00	0	41	0	997195776	59	5346
2026-01-09 09:47:32.99	353.94	26.60	-43.7	-47.1	15.6	0.00e+00	0	41	0	999292928	59	5206
2026-01-09 09:47:34.14	353.85	26.41	-44.0	-47.6	15.2	0.00e+00	0	41	0	1001390080	59	5482
2026-01-09 09:47:35.00	353.78	26.28	-43.8	-47.2	15.5	0.00e+00	0	41	0	1002438656	59	5259
2026-01-09 09:47:36.15	353.69	26.09	-43.8	-47.2	15.6	0.00e+00	0	41	0	1004535808	59	5252
2026-01-09 09:47:37.00	353.62	25.96	-43.8	-47.1	15.6	0.00e+00	0	41	0	1006632960	59	5192
2026-01-09 09:47:38.16	353.53	25.77	-43.8	-47.0	15.7	0.00e+00	0	41	0	1008730112	59	5147
2026-01-09 09:47:39.02	353.46	25.64	-43.5	-46.6	16.2	0.00e+00	0	41	0	1009778688	58	5166
2026-01-09 09:47:40.26	353.36	25.44	-43.4	-46.5	16.2	0.00e+00	0	41	0	1012924416	58	5112
2026-01-09 09:47:41.12	353.30	25.31	-43.1	-46.1	16.6	0.00e+00	0	41	0	1013972992	57	5196
2026-01-09 09:47:42.33	353.21	25.12	-42.8	-45.7	17.0	0.00e+00	0	41	0	1016070144	57	4936
2026-01-09 09:47:43.19	353.14	24.99	-42.8	-45.7	17.0	0.00e+00	0	41	0	1018167296	57	4943
2026-01-09 09:47:44.34	353.06	24.81	-42.6	-45.5	17.2	0.00e+00	0	41	0	1020264448	57	4828
2026-01-09 09:47:45.20	353.00	24.68	-42.6	-45.6	17.1	0.00e+00	0	41	0	1021313024	57	4905
2026-01-09 09:47:46.34	352.91	24.51	-42.8	-45.9	16.8	0.00e+00	0	41	0	1023410176	57	5043
2026-01-09 09:47:47.20	352.85	24.38	-42.9	-46.0	16.7	0.00e+00	0	41	0	1025507328	57	5143
2026-01-09 09:47:48.35	352.77	24.21	-43.3	-46.6	16.1	0.00e+00	0	41	0	1027604480	57	5475
2026-01-09 09:47:49.25	352.71	24.07	-43.9	-47.6	15.2	0.00e+00	0	41	0	1029701632	58	5800
2026-01-09 09:47:50.25	352.64	23.93	-44.2	-48.0	14.7	0.00e+00	0	41	0	1030750208	59	5776
2026-01-09 09:47:51.26	352.57	23.78	-44.4	-48.4	14.4	7.00e-07	0	41	0	1032847360	59	5994
2026-01-09 09:47:52.26	352.50	23.63	-44.8	-49.1	13.7	3.80e-06	0	41	0	1034944512	60	6188
2026-01-09 09:47:53.26	352.43	23.49	-44.7	-48.8	14.0	5.30e-06	0	41	0	1037041664	60	5932
2026-01-09 09:47:54.26	352.37	23.34	-44.6	-48.7	14.1	1.50e-06	0	41	0	1039138816	60	5868
2026-01-09 09:47:55.27	352.30	23.19	-44.8	-49.0	13.9	1.50e-06	0	41	0	1040187392	60	6067
2026-01-09 09:47:56.27	352.23	23.05	-44.6	-48.5	14.2	3.80e-06	0	41	0	1042284544	60	5784
2026-01-09 09:47:57.28	352.17	22.91	-44.3	-48.1	14.7	0.00e+00	0	41	0	1044381696	60	5488
2026-01-09 09:47:58.28	352.10	22.77	-44.2	-48.0	14.7	7.00e-07	0	41	0	1046478848	60	5457
2026-01-09 09:47:59.31	352.04	22.62	-44.2	-48.1	14.7	0.00e+00	0	41	0	1048576000	60	5491
2026-01-09 09:48:00.31	351.98	22.48	-43.9	-47.4	15.3	0.00e+00	0	41	0	1049624576	59	5350
2026-01-09 09:48:01.31	351.91	22.34	-44.0	-47.6	15.2	0.00e+00	0	41	0	1051721728	59	5467
2026-01-09 09:48:02.31	351.85	22.20	-44.1	-47.6	15.1	0.00e+00	0	41	0	1053818880	59	5523
2026-01-09 09:48:03.32	351.79	22.06	-43.8	-47.1	15.6	0.00e+00	0	41	0	1055916032	59	5199
2026-01-09 09:48:04.32	351.73	21.92	-43.8	-47.1	15.6	0.00e+00	0	41	0	1058013184	59	5203
2026-01-09 09:48:05.58	351.65	21.75	-43.9	-47.2	15.5	0.00e+00	0	41	0	1060110336	59	5250
2026-01-09 09:48:06.40	351.60	21.64	-43.8	-47.0	15.6	0.00e+00	0	41	0	1061158912	59	5148
2026-01-09 09:48:07.55	351.54	21.48	-43.8	-47.1	15.6	0.00e+00	0	41	0	1063256064	59	5164
2026-01-09 09:48:08.41	351.49	21.37	-43.7	-47.0	15.7	0.00e+00	0	41	0	1065353216	59	5133
2026-01-09 09:48:09.55	351.42	21.22	-43.4	-46.5	16.2	0.00e+00	0	41	0	1067450368	58	5121
2026-01-09 09:48:10.41	351.37	21.10	-43.4	-46.5	16.3	0.00e+00	0	41	0	1068498944	58	5126
2026-01-09 09:48:11.56	351.31	20.95	-43.2	-46.3	16.4	0.00e+00	0	41	0	1070596096	58	4985
2026-01-09 09:48:12.41	351.26	20.84	-43.0	-46.1	16.6	0.00e+00	0	41	0	1072693248	57	5160
2026-01-09 09:48:13.56	351.19	20.69	-43.3	-46.5	16.2	0.00e+00	0	41	0	1074790400	57	5417
2026-01-09 09:48:14.42	351.15	20.57	-43.2	-46.4	16.3	0.00e+00	0	41	0	1076887552	57	5364
2026-01-09 09:48:15.56	351.08	20.43	-42.9	-45.9	16.7	0.00e+00	0	41	0	1078984704	57	5091
2026-01-09 09:48:16.42	351.04	20.31	-43.1	-46.3	16.3	0.00e+00	0	41	0	1080033280	57	5334
2026-01-09 09:48:17.68	350.97	20.15	-43.1	-46.3	16.4	0.00e+00	0	41	0	1082130432	57	5291
2026-01-09 09:48:18.41	350.93	20.06	-43.1	-46.3	16.3	0.00e+00	0	41	0	1084227584	57	5339
2026-01-09 09:48:19.91	350.85	19.87	-43.2	-46.5	16.2	0.00e+00	0	41	0	1086324736	57	5421
2026-01-09 09:48:20.63	350.82	19.78	-43.2	-46.5	16.1	0.00e+00	0	41	0	1088421888	57	5435
2026-01-09 09:48:21.97	350.75	19.61	-43.1	-46.4	16.3	0.00e+00	0	41	0	1090519040	57	5358
2026-01-09 09:48:22.69	350.71	19.52	-43.2	-46.6	16.0	0.00e+00	0	41	0	1091567616	57	5498
2026-01-09 09:48:23.98	350.64	19.36	-43.2	-46.6	16.0	0.00e+00	0	41	0	1094713344	57	5494
2026-01-09 09:48:24.69	350.61	19.27	-42.9	-46.3	16.3	0.00e+00	0	41	0	1095761920	57	5338
2026-01-09 09:48:25.98	350.54	19.11	-42.9	-46.3	16.3	0.00e+00	0	41	0	1097859072	57	5314
2026-01-09 09:48:26.70	350.51	19.02	-42.7	-46.1	16.5	0.00e+00	0	41	0	1099956224	57	5210
2026-01-09 09:48:27.99	350.44	18.86	-42.7	-46.1	16.5	0.00e+00	0	41	0	1102053376	57	5195
2026-01-09 09:48:28.70	350.41	18.78	-42.6	-46.0	16.5	0.00e+00	0	41	0	1103101952	57	5147
2026-01-09 09:48:29.99	350.35	18.62	-42.7	-46.2	16.5	0.00e+00	0	41	0	1105199104	56	5546
2026-01-09 09:48:30.71	350.31	18.53	-42.8	-46.4	16.2	0.00e+00	0	41	0	1107296256	56	5691
2026-01-09 09:48:32.00	350.25	18.38	-42.8	-46.5	16.2	0.00e+00	0	41	0	1109393408	56	5727
2026-01-09 09:48:32.72	350.22	18.29	-42.7	-46.4	16.2	0.00e+00	0	41	0	1110441984	56	5682
2026-01-09 09:48:34.01	350.16	18.14	-42.9	-46.7	16.0	0.00e+00	0	41	0	1113587712	56	5893
2026-01-09 09:48:34.93	350.12	18.03	-43.1	-47.1	15.5	0.00e+00	0	41	0	1114636288	56	6191
2026-01-09 09:48:35.93	350.07	17.91	-43.3	-47.5	15.1	0.00e+00	0	41	0	1116733440	57	6103
2026-01-09 09:48:36.93	350.02	17.79	-43.4	-47.6	15.0	0.00e+00	0	41	0	1118830592	57	6196
2026-01-09 09:48:37.94	349.98	17.68	-43.8	-48.3	14.4	0.00e+00	0	41	0	1120927744	58	6298
2026-01-09 09:48:38.94	349.93	17.56	-43.9	-48.3	14.3	1.50e-06	0	41	0	1121976320	58	6323
2026-01-09 09:48:39.94	349.89	17.44	-43.9	-48.4	14.3	0.00e+00	0	41	0	1124073472	58	6385
2026-01-09 09:48:40.94	349.85	17.33	-44.1	-48.7	14.0	2.20e-06	0	41	0	1126170624	58	6615
2026-01-09 09:48:41.95	349.80	17.21	-44.3	-48.9	13.8	7.00e-07	0	41	0	1128267776	59	6354
2026-01-09 09:48:42.99	349.76	17.10	-44.3	-48.8	13.9	3.00e-06	0	41	0	1130364928	59	6275
2026-01-09 09:48:44.01	349.71	16.98	-44.2	-48.4	14.3	7.00e-07	0	41	0	1132462080	59	6019
2026-01-09 09:48:45.02	349.67	16.87	-44.0	-48.0	14.5	7.00e-07	0	41	0	1133510656	59	5786
2026-01-09 09:48:46.09	349.63	16.74	-44.0	-48.0	14.6	7.00e-07	0	41	0	1135607808	59	5736
2026-01-09 09:48:46.94	349.59	16.65	-43.8	-47.5	15.1	0.00e+00	0	41	0	1137704960	59	5442
2026-01-09 09:48:48.33	349.53	16.49	-43.7	-47.3	15.3	0.00e+00	0	41	0	1139802112	59	5321
2026-01-09 09:48:49.05	349.50	16.41	-43.5	-47.1	15.5	0.00e+00	0	41	0	1141899264	59	5191
2026-01-09 09:48:50.34	349.45	16.27	-43.3	-46.7	16.0	0.00e+00	0	41	0	1143996416	58	5260
2026-01-09 09:48:51.06	349.42	16.19	-43.3	-46.7	15.9	0.00e+00	0	41	0	1145044992	58	5260
2026-01-09 09:48:52.35	349.37	16.05	-43.3	-46.6	16.0	0.00e+00	0	41	0	1147142144	58	5190
2026-01-09 09:48:53.06	349.34	15.97	-43.3	-46.6	16.0	0.00e+00	0	41	0	1149239296	58	5168
2026-01-09 09:48:54.35	349.29	15.83	-43.3	-46.6	16.0	0.00e+00	0	41	0	1151336448	58	5213
2026-01-09 09:48:55.07	349.26	15.76	-43.4	-46.8	15.9	0.00e+00	0	41	0	1152385024	58	5282
2026-01-09 09:48:56.36	349.21	15.62	-43.2	-46.5	16.1	0.00e+00	0	41	0	1155530752	58	5129
2026-01-09 09:48:57.39	349.17	15.51	-43.5	-46.8	15.8	0.00e+00	0	41	0	1156579328	58	5327
2026-01-09 09:48:58.74	349.12	15.36	-43.8	-47.2	15.4	0.00e+00	0	41	0	1159725056	58	5585
2026-01-09 09:48:59.52	349.09	15.28	-43.9	-47.4	15.2	0.00e+00	0	41	0	1160773632	58	5717
2026-01-09 09:49:00.81	349.04	15.14	-44.2	-47.9	14.7	0.00e+00	0	41	0	1163919360	59	5702
2026-01-09 09:49:01.53	349.02	15.07	-44.3	-48.1	14.5	0.00e+00	0	41	0	1164967936	59	5805
2026-01-09 09:49:02.82	348.97	14.93	-44.5	-48.3	14.3	7.00e-07	0	41	0	1167065088	59	5973
2026-01-09 09:49:03.54	348.94	14.86	-44.8	-48.8	13.9	3.00e-06	0	41	0	1168113664	60	5980
2026-01-09 09:49:04.83	348.90	14.73	-44.8	-48.9	13.8	1.50e-06	0	41	0	1171259392	60	5996
2026-01-09 09:49:05.75	348.86	14.63	-44.9	-49.2	13.4	1.29e-05	0	41	0	1172307968	60	6231
2026-01-09 09:49:06.76	348.83	14.53	-44.7	-49.2	13.3	1.14e-05	0	41	0	1174405120	60	6271
2026-01-09 09:49:07.76	348.79	14.42	-44.5	-49.1	13.6	1.37e-05	0	41	0	1176502272	60	6140
2026-01-09 09:49:08.76	348.76	14.32	-44.3	-49.0	13.6	9.90e-06	0	41	0	1178599424	60	6110
2026-01-09 09:49:09.76	348.72	14.22	-44.1	-49.0	13.7	5.30e-06	0	41	0	1180696576	60	6096
2026-01-09 09:49:10.76	348.69	14.12	-44.0	-48.6	14.0	2.20e-06	0	41	0	1181745152	59	6156
2026-01-09 09:49:11.76	348.65	14.02	-43.9	-48.5	14.0	1.50e-06	0	41	0	1183842304	59	6084
2026-01-09 09:49:12.76	348.62	13.92	-44.0	-48.7	13.9	3.80e-06	0	41	0	1185939456	59	6211
2026-01-09 09:49:13.77	348.58	13.82	-44.0	-48.4	14.2	2.20e-06	0	41	0	1188036608	59	6003
2026-01-09 09:49:14.77	348.55	13.72	-43.9	-48.1	14.5	7.00e-07	0	41	0	1190133760	59	5822
2026-01-09 09:49:15.77	348.52	13.62	-43.7	-47.8	14.8	1.50e-06	0	41	0	1191182336	59	5594
2026-01-09 09:49:16.78	348.48	13.52	-43.7	-47.6	14.9	0.00e+00	0	41	0	1193279488	59	5488
2026-01-09 09:49:17.78	348.45	13.42	-43.8	-47.6	14.9	0.00e+00	0	41	0	1195376640	59	5526
2026-01-09 09:49:18.78	348.42	13.32	-43.6	-47.2	15.3	0.00e+00	0	41	0	1197473792	59	5279
2026-01-09 09:49:19.79	348.39	13.22	-43.8	-47.5	15.1	0.00e+00	0	41	0	1199570944	59	5421
2026-01-09 09:49:20.79	348.35	13.12	-43.5	-46.9	15.6	0.00e+00	0	41	0	1200619520	59	5079
2026-01-09 09:49:21.80	348.32	13.03	-43.4	-46.8	15.8	0.00e+00	0	41	0	1202716672	58	5300
2026-01-09 09:49:22.80	348.29	12.93	-43.4	-46.8	15.8	0.00e+00	0	41	0	1204813824	58	5294
2026-01-09 09:49:23.80	348.26	12.83	-43.2	-46.7	15.8	0.00e+00	0	41	0	1206910976	58	5245
2026-01-09 09:49:24.81	348.23	12.74	-43.0	-46.5	16.0	0.00e+00	0	41	0	1207959552	58	5153
2026-01-09 09:49:25.81	348.20	12.64	-43.2	-46.9	15.6	0.00e+00	0	41	0	1210056704	58	5391
2026-01-09 09:49:26.81	348.17	12.55	-42.8	-46.6	15.8	0.00e+00	0	41	0	1212153856	57	5528
2026-01-09 09:49:27.82	348.13	12.45	-42.7	-46.7	15.8	0.00e+00	0	41	0	1214251008	57	5573
2026-01-09 09:49:28.82	348.10	12.36	-42.5	-46.4	16.0	0.00e+00	0	41	0	1216348160	56	5722
2026-01-09 09:49:29.93	348.07	12.25	-42.5	-46.7	15.8	0.00e+00	0	41	0	1218445312	56	5863
2026-01-09 09:49:30.79	348.05	12.17	-42.3	-46.5	16.0	0.00e+00	0	41	0	1219493888	56	5740
2026-01-09 09:49:31.94	348.01	12.07	-42.3	-46.7	15.8	0.00e+00	0	41	0	1221591040	56	5868
2026-01-09 09:49:32.89	347.98	11.98	-42.3	-46.9	15.6	0.00e+00	0	41	0	1223688192	56	6009
2026-01-09 09:49:33.90	347.95	11.88	-42.2	-46.7	15.7	0.00e+00	0	41	0	1225785344	56	5913
2026-01-09 09:49:34.90	347.92	11.79	-42.3	-46.9	15.6	0.00e+00	0	41	0	1227882496	56	6027
2026-01-09 09:49:35.90	347.90	11.70	-42.2	-46.9	15.6	0.00e+00	0	41	0	1228931072	56	6007
2026-01-09 09:49:36.91	347.87	11.61	-42.2	-47.0	15.5	0.00e+00	0	41	0	1231028224	56	6086
2026-01-09 09:49:38.18	347.83	11.49	-42.2	-47.0	15.5	0.00e+00	0	41	0	1233125376	56	6104
2026-01-09 09:49:38.93	347.81	11.42	-42.2	-47.2	15.3	0.00e+00	0	41	0	1235222528	56	6203
2026-01-09 09:49:40.22	347.77	11.31	-42.3	-47.4	15.0	0.00e+00	0	41	0	1237319680	56	6352
2026-01-09 09:49:40.93	347.75	11.24	-42.2	-47.4	15.1	0.00e+00	0	41	0	1238368256	56	6369
2026-01-09 09:49:42.22	347.72	11.13	-42.1	-47.4	15.0	0.00e+00	0	41	0	1241513984	56	6370
2026-01-09 09:49:42.94	347.70	11.06	-42.2	-47.8	14.7	0.00e+00	0	41	0	1242562560	56	6647
2026-01-09 09:49:44.22	347.66	10.95	-41.8	-47.4	14.9	0.00e+00	0	41	0	1244659712	55	6724
2026-01-09 09:49:44.94	347.64	10.88	-41.9	-47.6	14.7	0.00e+00	0	41	0	1245708288	55	6882
2026-01-09 09:49:46.23	347.61	10.77	-41.8	-47.9	14.4	7.00e-07	0	41	0	1248854016	55	7133
2026-01-09 09:49:46.95	347.59	10.71	-41.8	-47.7	14.5	0.00e+00	0	41	0	1249902592	55	7005
2026-01-09 09:49:48.35	347.55	10.58	-41.8	-48.1	14.2	7.00e-07	0	41	0	1253048320	55	7303
2026-01-09 09:49:49.07	347.54	10.52	-41.8	-48.1	14.0	4.50e-06	0	41	0	1254096896	55	7366
2026-01-09 09:49:50.36	347.50	10.41	-41.9	-48.2	14.1	1.50e-06	0	41	0	1256194048	55	7410
2026-01-09 09:49:51.07	347.48	10.35	-42.0	-48.3	14.0	3.00e-06	0	41	0	1257242624	55	7497
