passes_logs/2026/01/09/T1/T1__20260109_080017_SUOMI_NPP_rec.log

#Pass ID: 20260109_080017_SUOMI NPP
#Satellite: SUOMI NPP
#Configuration: NPP
#almurnet v.1.7.20251203
#Start time: 2026-01-09 08:00:18

#Version: 2.0.20230620
#Station: T1
#Location: 37.570604 lon 55.790049 lat
#TLE: 1 37849U 11061A   26008.05542337  .00000108  00000+0  71976-4 0  9997
#TLE: 2 37849  98.7805 310.1641 0002540  75.6410 284.5048 14.19523335735721

#Time	Az	El	Level	Level2	SNR	BER	BlckErr	Temp	State	Recorded	gain1	gain2
2026-01-09 08:00:18.04	96.29	5.01	-48.2	-63.5	3.8	1.49e+00	0	41	0	0	68	20435
2026-01-09 08:00:19.03	96.19	5.06	-48.2	-63.5	3.8	1.49e+00	0	41	104	0	68	20377
2026-01-09 08:00:20.04	96.09	5.12	-48.2	-63.5	3.8	1.49e+00	0	41	104	0	68	20475
2026-01-09 08:00:21.04	95.99	5.17	-48.1	-63.5	3.8	1.49e+00	0	41	104	0	68	20482
2026-01-09 08:00:22.04	95.89	5.23	-48.1	-63.5	3.8	1.49e+00	0	41	104	0	68	20326
2026-01-09 08:00:23.05	95.79	5.29	-48.1	-63.5	3.8	1.49e+00	0	41	104	0	68	20329
2026-01-09 08:00:24.05	95.69	5.34	-48.1	-63.4	3.8	1.49e+00	0	41	104	0	68	20264
2026-01-09 08:00:25.05	95.59	5.40	-48.2	-63.5	3.8	1.49e+00	0	42	104	0	68	20315
2026-01-09 08:00:26.06	95.49	5.45	-48.2	-63.4	3.8	1.49e+00	0	42	104	0	68	20206
2026-01-09 08:00:27.06	95.39	5.51	-48.1	-63.4	3.8	1.49e+00	0	42	104	0	68	20180
2026-01-09 08:00:28.06	95.29	5.56	-48.1	-63.4	3.8	1.49e+00	0	42	104	0	68	20227
2026-01-09 08:00:29.07	95.19	5.62	-48.1	-63.4	3.8	1.49e+00	0	42	104	0	68	20193
2026-01-09 08:00:30.07	95.09	5.67	-48.1	-63.4	3.8	1.49e+00	0	42	104	0	68	20235
2026-01-09 08:00:31.07	94.98	5.73	-48.1	-63.4	3.8	1.49e+00	0	42	104	0	68	20188
2026-01-09 08:00:32.08	94.88	5.78	-48.1	-63.5	3.8	1.49e+00	0	42	104	0	68	20319
2026-01-09 08:00:33.08	94.78	5.84	-48.0	-63.4	3.8	1.49e+00	0	42	104	0	68	20265
2026-01-09 08:00:34.09	94.67	5.90	-48.0	-63.5	3.8	1.49e+00	0	42	104	0	68	20309
2026-01-09 08:00:35.09	94.57	5.95	-48.2	-63.4	3.8	1.49e+00	0	42	104	0	68	20274
2026-01-09 08:00:36.10	94.46	6.01	-48.0	-63.5	3.8	1.49e+00	0	42	104	0	68	20353
2026-01-09 08:00:37.10	94.36	6.06	-48.2	-63.4	3.8	1.49e+00	0	42	104	0	68	20258
2026-01-09 08:00:38.10	94.25	6.12	-48.1	-63.5	3.8	1.49e+00	0	42	104	0	68	20328
2026-01-09 08:00:39.11	94.15	6.17	-48.2	-63.4	3.8	1.49e+00	0	42	104	0	68	20294
2026-01-09 08:00:40.11	94.04	6.23	-48.2	-63.4	3.8	1.49e+00	0	42	104	0	68	20301
2026-01-09 08:00:41.11	93.93	6.29	-48.2	-63.5	3.8	1.49e+00	0	42	104	0	68	20329
2026-01-09 08:00:42.12	93.83	6.34	-48.2	-63.5	3.8	1.49e+00	0	42	104	0	68	20327
2026-01-09 08:00:43.12	93.72	6.40	-48.2	-63.5	3.8	1.49e+00	0	42	104	0	68	20329
2026-01-09 08:00:44.13	93.61	6.45	-48.1	-63.4	3.8	1.49e+00	0	42	104	0	68	20214
2026-01-09 08:00:45.13	93.50	6.51	-48.2	-63.4	3.8	1.49e+00	0	42	104	0	68	20266
2026-01-09 08:00:46.14	93.39	6.57	-48.1	-63.4	3.8	1.49e+00	0	42	104	0	68	20140
2026-01-09 08:00:47.14	93.28	6.62	-48.1	-63.3	3.8	1.49e+00	0	42	104	0	68	20049
2026-01-09 08:00:48.14	93.17	6.68	-48.2	-63.3	3.8	1.49e+00	0	42	104	0	68	19883
2026-01-09 08:00:49.15	93.06	6.73	-48.1	-63.1	3.8	1.49e+00	0	42	104	0	68	19538
2026-01-09 08:00:50.15	92.95	6.79	-48.1	-63.1	3.8	1.49e+00	0	42	104	0	68	19592
2026-01-09 08:00:51.16	92.84	6.85	-48.1	-63.2	3.8	1.49e+00	0	42	104	0	68	19673
2026-01-09 08:00:52.16	92.73	6.90	-48.1	-63.2	3.8	1.49e+00	0	42	104	0	68	19783
2026-01-09 08:00:53.16	92.62	6.96	-48.1	-63.3	3.8	1.49e+00	0	42	104	0	68	19867
2026-01-09 08:00:54.17	92.50	7.02	-48.0	-63.3	3.8	1.49e+00	0	42	104	0	68	19897
2026-01-09 08:00:55.17	92.39	7.07	-48.1	-63.3	3.8	1.49e+00	0	43	104	0	68	19991
2026-01-09 08:00:56.18	92.28	7.13	-48.2	-63.3	3.8	1.49e+00	0	43	104	0	68	19968
2026-01-09 08:00:57.18	92.16	7.18	-48.2	-63.3	3.8	1.49e+00	0	43	104	0	68	19854
2026-01-09 08:00:58.18	92.05	7.24	-48.2	-63.2	3.8	1.49e+00	0	43	104	0	68	19623
2026-01-09 08:00:59.19	91.94	7.30	-48.2	-63.0	3.8	1.49e+00	0	43	104	0	68	19242
2026-01-09 08:01:00.19	91.82	7.35	-48.1	-62.8	3.8	1.49e+00	0	43	104	0	68	18890
2026-01-09 08:01:01.19	91.71	7.41	-48.1	-62.7	3.8	1.49e+00	0	43	104	0	68	18539
2026-01-09 08:01:02.20	91.59	7.47	-48.1	-62.6	3.8	1.49e+00	0	43	104	0	68	18401
2026-01-09 08:01:03.20	91.47	7.52	-48.1	-62.7	3.8	1.49e+00	0	42	104	0	68	18615
2026-01-09 08:01:04.20	91.36	7.58	-48.2	-62.9	3.8	1.49e+00	0	43	104	0	68	19042
2026-01-09 08:01:05.21	91.24	7.63	-48.2	-63.1	3.8	1.49e+00	0	43	104	0	68	19554
2026-01-09 08:01:06.21	91.12	7.69	-48.0	-63.3	3.8	1.49e+00	0	43	104	0	68	20050
2026-01-09 08:01:07.22	91.00	7.75	-48.2	-63.4	3.8	1.49e+00	0	43	104	0	68	20134
2026-01-09 08:01:08.22	90.88	7.80	-48.2	-63.3	3.8	1.49e+00	0	43	104	0	68	19870
2026-01-09 08:01:09.22	90.76	7.86	-48.1	-63.0	3.8	1.49e+00	0	43	104	0	68	19307
2026-01-09 08:01:10.23	90.64	7.92	-48.0	-62.5	3.8	1.49e+00	0	43	104	0	68	18147
2026-01-09 08:01:11.23	90.52	7.97	-48.0	-61.8	3.8	1.49e+00	0	43	104	0	68	16869
2026-01-09 08:01:12.23	90.40	8.03	-48.0	-61.1	3.9	1.49e+00	0	43	104	0	68	15561
2026-01-09 08:01:13.23	90.28	8.09	-47.8	-60.5	4.0	1.48e+00	0	43	104	0	67	15282
2026-01-09 08:01:14.24	90.16	8.14	-47.8	-60.7	3.8	1.47e+00	0	43	104	0	67	15581
2026-01-09 08:01:15.24	90.04	8.20	-47.8	-61.1	3.8	1.48e+00	0	43	104	0	67	16406
2026-01-09 08:01:16.25	89.92	8.26	-47.9	-61.5	3.8	1.49e+00	0	43	104	0	67	17140
2026-01-09 08:01:17.25	89.79	8.31	-47.7	-59.5	4.2	1.46e+00	0	43	0	0	67	13725
2026-01-09 08:01:18.25	89.67	8.37	-47.4	-56.7	5.6	8.78e-01	0	43	0	1048576	66	10479
2026-01-09 08:01:19.26	89.54	8.42	-46.8	-53.9	7.9	1.17e-01	0	43	0	3145728	65	8030
2026-01-09 08:01:20.26	89.42	8.48	-46.0	-51.3	10.5	9.92e-03	0	43	0	5242880	63	6692
2026-01-09 08:01:21.27	89.29	8.54	-45.4	-50.0	12.1	1.09e-03	0	43	0	7340032	62	6098
2026-01-09 08:01:22.27	89.17	8.59	-44.9	-49.0	13.2	7.01e-05	0	43	0	8388608	61	5759
2026-01-09 08:01:23.27	89.04	8.65	-44.7	-48.7	13.4	1.44e-05	0	43	0	10485760	61	5573
2026-01-09 08:01:24.27	88.92	8.71	-44.9	-49.0	13.2	1.22e-05	0	43	0	12582912	61	5738
2026-01-09 08:01:25.28	88.79	8.76	-45.4	-50.0	12.3	8.69e-05	0	43	0	14680064	61	6427
2026-01-09 08:01:26.28	88.66	8.82	-46.0	-51.2	11.0	9.62e-04	0	43	0	15728640	62	7005
2026-01-09 08:01:27.28	88.54	8.88	-46.4	-52.7	9.5	8.84e-03	0	43	0	17825792	63	7813
2026-01-09 08:01:28.29	88.41	8.93	-47.2	-55.2	6.9	6.26e-02	0	43	0	19922944	64	9928
2026-01-09 08:01:29.29	88.28	8.99	-47.6	-57.5	5.1	3.23e-01	0	43	0	22020096	65	12224
2026-01-09 08:01:30.29	88.15	9.04	-47.8	-60.3	3.9	1.29e+00	0	43	104	23068672	66	15810
2026-01-09 08:01:31.29	88.02	9.10	-47.5	-57.2	5.2	8.42e-01	0	43	0	23068672	66	11132
2026-01-09 08:01:32.30	87.89	9.16	-47.0	-54.4	7.9	5.79e-02	0	43	0	25165824	64	9063
2026-01-09 08:01:33.30	87.76	9.21	-48.0	-63.0	3.8	1.49e+00	0	43	104	26214400	66	21712
2026-01-09 08:01:34.30	87.63	9.27	-46.2	-51.8	10.4	2.62e-01	0	43	0	26214400	63	7104
2026-01-09 08:01:35.31	87.49	9.33	-47.6	-57.9	4.7	5.15e-01	0	43	0	28311552	66	12081
2026-01-09 08:01:36.31	87.36	9.38	-46.1	-51.5	10.7	1.75e-03	0	43	0	29360128	63	6815
2026-01-09 08:01:37.31	87.23	9.44	-46.1	-51.6	10.7	3.23e-03	0	43	0	31457280	63	6905
2026-01-09 08:01:38.32	87.09	9.50	-46.0	-51.2	11.0	2.82e-03	0	43	0	33554432	63	6600
2026-01-09 08:01:39.32	86.96	9.55	-45.6	-50.4	11.9	7.01e-04	0	43	0	35651584	63	6015
2026-01-09 08:01:40.32	86.83	9.61	-45.5	-50.1	12.1	5.23e-04	0	43	0	37748736	63	5844
2026-01-09 08:01:41.33	86.69	9.66	-45.6	-50.4	11.9	6.66e-04	0	43	0	38797312	63	6025
2026-01-09 08:01:42.33	86.55	9.72	-45.5	-50.2	12.1	3.29e-04	0	43	0	40894464	62	6208
2026-01-09 08:01:43.33	86.42	9.78	-45.5	-50.3	12.0	3.56e-04	0	43	0	42991616	62	6296
2026-01-09 08:01:44.33	86.28	9.83	-45.5	-50.2	12.0	4.36e-04	0	43	0	45088768	62	6250
2026-01-09 08:01:45.33	86.14	9.89	-45.4	-50.0	12.3	1.98e-04	0	43	0	47185920	62	6121
2026-01-09 08:01:46.33	86.01	9.94	-45.2	-49.6	12.8	1.79e-04	0	43	0	48234496	62	5790
2026-01-09 08:01:47.33	85.87	10.00	-44.9	-49.1	13.2	2.51e-05	0	43	0	50331648	61	5845
2026-01-09 08:01:48.33	85.73	10.05	-45.1	-49.5	12.8	3.43e-05	0	43	0	52428800	61	6080
2026-01-09 08:01:49.33	85.59	10.11	-45.0	-49.2	13.1	2.97e-05	0	43	0	54525952	61	5873
2026-01-09 08:01:50.33	85.45	10.17	-45.1	-49.5	12.9	4.04e-05	0	44	0	55574528	61	6087
2026-01-09 08:01:51.33	85.31	10.22	-45.2	-49.6	12.7	6.10e-05	0	43	0	57671680	61	6157
2026-01-09 08:01:52.33	85.17	10.28	-45.1	-49.4	12.9	8.08e-05	0	43	0	59768832	61	6038
2026-01-09 08:01:53.33	85.03	10.33	-45.0	-49.2	13.2	4.19e-05	0	43	0	61865984	61	5861
2026-01-09 08:01:54.34	84.89	10.39	-45.3	-49.8	12.5	5.56e-05	0	43	0	63963136	61	6292
2026-01-09 08:01:55.34	84.74	10.44	-45.2	-49.6	12.7	7.17e-05	0	44	0	65011712	61	6191
2026-01-09 08:01:56.34	84.60	10.50	-45.3	-49.8	12.6	5.56e-05	0	44	0	67108864	61	6306
2026-01-09 08:01:57.34	84.46	10.56	-45.3	-49.9	12.5	1.01e-04	0	43	0	69206016	61	6405
2026-01-09 08:01:58.34	84.31	10.61	-45.1	-49.6	12.7	1.18e-04	0	43	0	71303168	61	6194
2026-01-09 08:01:59.35	84.17	10.67	-44.8	-48.9	13.5	2.05e-05	0	44	0	73400320	61	5668
2026-01-09 08:02:00.35	84.02	10.72	-44.8	-48.9	13.5	1.29e-05	0	43	0	74448896	61	5699
2026-01-09 08:02:01.35	83.88	10.78	-44.7	-48.7	13.7	3.00e-06	0	43	0	76546048	61	5582
2026-01-09 08:02:02.35	83.73	10.83	-44.9	-48.9	13.5	6.80e-06	0	44	0	78643200	61	5702
2026-01-09 08:02:03.36	83.58	10.89	-44.9	-48.9	13.5	7.60e-06	0	44	0	80740352	61	5683
2026-01-09 08:02:04.36	83.44	10.94	-44.7	-48.6	13.8	5.30e-06	0	44	0	82837504	61	5506
2026-01-09 08:02:05.36	83.29	11.00	-44.4	-48.1	14.3	4.50e-06	0	43	0	83886080	60	5525
2026-01-09 08:02:06.37	83.14	11.05	-44.3	-48.0	14.5	0.00e+00	0	43	0	85983232	60	5414
2026-01-09 08:02:07.37	82.99	11.11	-44.3	-48.0	14.5	0.00e+00	0	43	0	88080384	60	5415
2026-01-09 08:02:08.37	82.84	11.16	-44.3	-47.9	14.5	7.00e-07	0	44	0	90177536	60	5401
2026-01-09 08:02:09.37	82.69	11.22	-44.6	-48.4	14.1	0.00e+00	0	44	0	92274688	60	5683
2026-01-09 08:02:10.37	82.54	11.27	-44.4	-48.1	14.3	3.00e-06	0	44	0	93323264	60	5526
2026-01-09 08:02:11.37	82.39	11.33	-44.3	-47.9	14.5	0.00e+00	0	43	0	95420416	60	5391
2026-01-09 08:02:12.38	82.23	11.38	-44.2	-47.8	14.6	0.00e+00	0	44	0	97517568	60	5325
2026-01-09 08:02:13.37	82.08	11.44	-43.8	-47.2	15.2	0.00e+00	0	43	0	99614720	59	5254
2026-01-09 08:02:14.37	81.93	11.49	-43.8	-47.1	15.2	0.00e+00	0	43	0	100663296	59	5204
2026-01-09 08:02:15.38	81.78	11.54	-43.8	-47.2	15.2	0.00e+00	0	43	0	102760448	59	5249
2026-01-09 08:02:16.38	81.62	11.60	-43.8	-47.2	15.2	0.00e+00	0	43	0	104857600	59	5248
2026-01-09 08:02:17.37	81.47	11.65	-43.8	-47.1	15.3	0.00e+00	0	43	0	106954752	59	5216
2026-01-09 08:02:18.38	81.31	11.71	-43.7	-46.9	15.5	0.00e+00	0	44	0	109051904	59	5100
2026-01-09 08:02:19.38	81.16	11.76	-43.5	-46.8	15.7	0.00e+00	0	44	0	110100480	59	4994
2026-01-09 08:02:20.38	81.00	11.81	-43.4	-46.6	15.9	0.00e+00	0	43	0	112197632	58	5167
2026-01-09 08:02:21.38	80.84	11.87	-43.4	-46.6	15.8	0.00e+00	0	44	0	114294784	58	5162
2026-01-09 08:02:22.38	80.68	11.92	-43.4	-46.5	15.9	0.00e+00	0	44	0	116391936	58	5125
2026-01-09 08:02:23.38	80.53	11.97	-43.3	-46.4	16.0	0.00e+00	0	43	0	118489088	58	5060
2026-01-09 08:02:24.38	80.37	12.03	-43.1	-46.0	16.4	0.00e+00	0	43	0	119537664	58	4820
2026-01-09 08:02:25.38	80.21	12.08	-42.9	-45.7	16.7	0.00e+00	0	43	0	121634816	57	4940
2026-01-09 08:02:26.38	80.05	12.13	-42.8	-45.6	16.8	0.00e+00	0	44	0	123731968	57	4920
2026-01-09 08:02:27.38	79.89	12.19	-42.9	-45.8	16.6	0.00e+00	0	44	0	125829120	57	5011
2026-01-09 08:02:28.38	79.73	12.24	-42.9	-45.8	16.6	0.00e+00	0	43	0	126877696	57	5009
2026-01-09 08:02:29.38	79.57	12.29	-43.1	-46.0	16.4	0.00e+00	0	44	0	128974848	57	5143
2026-01-09 08:02:30.39	79.40	12.35	-43.0	-45.8	16.6	0.00e+00	0	43	0	131072000	57	5032
2026-01-09 08:02:31.39	79.24	12.40	-43.0	-45.9	16.5	0.00e+00	0	44	0	133169152	57	5067
2026-01-09 08:02:32.39	79.08	12.45	-43.0	-45.9	16.5	0.00e+00	0	44	0	135266304	57	5065
2026-01-09 08:02:33.39	78.91	12.50	-43.0	-45.9	16.5	0.00e+00	0	44	0	137363456	57	5083
2026-01-09 08:02:34.39	78.75	12.56	-43.2	-46.1	16.3	0.00e+00	0	43	0	138412032	57	5198
2026-01-09 08:02:35.39	78.58	12.61	-43.1	-46.0	16.4	0.00e+00	0	44	0	140509184	57	5131
2026-01-09 08:02:36.40	78.41	12.66	-43.1	-46.0	16.4	0.00e+00	0	44	0	142606336	57	5137
2026-01-09 08:02:37.39	78.25	12.71	-43.0	-45.9	16.6	0.00e+00	0	44	0	144703488	57	5049
2026-01-09 08:02:38.40	78.08	12.77	-43.0	-45.8	16.7	0.00e+00	0	44	0	145752064	57	5004
2026-01-09 08:02:39.40	77.91	12.82	-42.8	-45.6	16.8	0.00e+00	0	44	0	147849216	57	4908
2026-01-09 08:02:40.40	77.74	12.87	-42.8	-45.7	16.8	0.00e+00	0	44	0	149946368	57	4931
2026-01-09 08:02:41.40	77.58	12.92	-42.9	-45.8	16.6	0.00e+00	0	44	0	152043520	57	5021
2026-01-09 08:02:42.41	77.40	12.97	-42.9	-45.8	16.7	0.00e+00	0	44	0	154140672	57	5014
2026-01-09 08:02:43.41	77.23	13.02	-43.1	-46.0	16.5	0.00e+00	0	44	0	155189248	57	5106
2026-01-09 08:02:44.41	77.06	13.07	-42.9	-45.7	16.7	0.00e+00	0	44	0	157286400	57	4964
2026-01-09 08:02:45.41	76.89	13.13	-42.8	-45.7	16.8	0.00e+00	0	44	0	159383552	57	4931
2026-01-09 08:02:46.41	76.72	13.18	-42.9	-45.8	16.7	0.00e+00	0	44	0	161480704	57	5002
2026-01-09 08:02:47.41	76.55	13.23	-43.0	-46.0	16.5	0.00e+00	0	44	0	163577856	57	5116
2026-01-09 08:02:48.41	76.38	13.28	-43.3	-46.3	16.2	0.00e+00	0	44	0	164626432	57	5326
2026-01-09 08:02:49.41	76.20	13.33	-43.2	-46.2	16.3	0.00e+00	0	43	0	166723584	57	5238
2026-01-09 08:02:50.42	76.03	13.38	-43.3	-46.2	16.2	0.00e+00	0	44	0	168820736	57	5258
2026-01-09 08:02:51.42	75.85	13.43	-43.3	-46.2	16.3	0.00e+00	0	44	0	170917888	57	5247
2026-01-09 08:02:52.42	75.68	13.48	-43.3	-46.2	16.2	0.00e+00	0	44	0	173015040	57	5269
2026-01-09 08:02:53.42	75.50	13.53	-43.4	-46.4	16.1	0.00e+00	0	44	0	174063616	57	5369
2026-01-09 08:02:54.42	75.32	13.58	-43.3	-46.3	16.2	0.00e+00	0	44	0	176160768	57	5292
2026-01-09 08:02:55.42	75.15	13.63	-43.1	-46.0	16.5	0.00e+00	0	43	0	178257920	57	5159
2026-01-09 08:02:56.42	74.97	13.68	-42.8	-45.6	16.9	0.00e+00	0	44	0	180355072	57	4885
2026-01-09 08:02:57.42	74.79	13.72	-42.5	-45.2	17.2	0.00e+00	0	44	0	181403648	57	4689
2026-01-09 08:02:58.42	74.61	13.77	-42.2	-44.8	17.6	0.00e+00	0	44	0	183500800	56	4715
2026-01-09 08:02:59.42	74.43	13.82	-42.0	-44.6	17.8	0.00e+00	0	44	0	185597952	56	4600
2026-01-09 08:03:00.42	74.25	13.87	-42.1	-44.7	17.7	0.00e+00	0	44	0	187695104	56	4662
2026-01-09 08:03:01.42	74.07	13.92	-42.1	-44.6	17.8	0.00e+00	0	44	0	189792256	56	4621
2026-01-09 08:03:02.43	73.89	13.97	-42.2	-44.7	17.7	0.00e+00	0	44	0	190840832	56	4690
2026-01-09 08:03:03.43	73.71	14.01	-42.2	-44.8	17.6	0.00e+00	0	44	0	192937984	56	4727
2026-01-09 08:03:04.43	73.52	14.06	-42.2	-44.8	17.6	0.00e+00	0	43	0	195035136	56	4725
2026-01-09 08:03:05.43	73.34	14.11	-42.4	-45.0	17.4	0.00e+00	0	44	0	197132288	56	4835
2026-01-09 08:03:06.43	73.16	14.16	-42.4	-45.0	17.4	0.00e+00	0	44	0	199229440	56	4845
2026-01-09 08:03:07.43	72.97	14.20	-42.3	-45.1	17.2	0.00e+00	0	44	0	200278016	56	4925
2026-01-09 08:03:08.43	72.79	14.25	-42.5	-45.3	17.0	0.00e+00	0	44	0	202375168	56	5024
2026-01-09 08:03:09.43	72.60	14.30	-42.7	-45.7	16.7	0.00e+00	0	44	0	204472320	56	5219
2026-01-09 08:03:10.43	72.42	14.34	-42.9	-45.9	16.4	0.00e+00	0	44	0	206569472	56	5396
2026-01-09 08:03:11.43	72.23	14.39	-43.0	-46.1	16.2	0.00e+00	0	44	0	207618048	56	5519
2026-01-09 08:03:12.44	72.04	14.44	-42.9	-45.9	16.4	0.00e+00	0	44	0	209715200	56	5378
2026-01-09 08:03:13.44	71.85	14.48	-42.7	-45.6	16.7	0.00e+00	0	44	0	211812352	56	5207
2026-01-09 08:03:14.44	71.67	14.53	-42.5	-45.4	17.0	0.00e+00	0	44	0	213909504	56	5045
2026-01-09 08:03:15.45	71.47	14.57	-42.5	-45.3	17.1	0.00e+00	0	44	0	216006656	56	5018
2026-01-09 08:03:16.45	71.29	14.62	-42.4	-45.2	17.2	0.00e+00	0	44	0	218103808	56	4932
2026-01-09 08:03:17.45	71.10	14.66	-42.6	-45.5	16.9	0.00e+00	0	44	0	219152384	56	5106
2026-01-09 08:03:18.45	70.90	14.71	-42.6	-45.5	16.9	0.00e+00	0	44	0	221249536	56	5125
2026-01-09 08:03:19.46	70.71	14.75	-42.5	-45.4	17.0	0.00e+00	0	44	0	223346688	56	5066
2026-01-09 08:03:20.46	70.52	14.80	-42.7	-45.7	16.7	0.00e+00	0	44	0	225443840	56	5247
2026-01-09 08:03:21.46	70.33	14.84	-42.8	-45.8	16.6	0.00e+00	0	44	0	226492416	56	5306
2026-01-09 08:03:22.47	70.13	14.89	-42.8	-45.7	16.7	0.00e+00	0	44	0	228589568	56	5272
2026-01-09 08:03:23.47	69.94	14.93	-42.9	-45.9	16.5	0.00e+00	0	44	0	230686720	56	5391
2026-01-09 08:03:24.47	69.74	14.97	-42.7	-45.6	16.8	0.00e+00	0	44	0	232783872	56	5216
2026-01-09 08:03:25.47	69.55	15.02	-42.6	-45.4	17.0	0.00e+00	0	44	0	234881024	56	5071
2026-01-09 08:03:26.47	69.35	15.06	-42.5	-45.3	17.1	0.00e+00	0	44	0	235929600	56	4997
2026-01-09 08:03:27.47	69.16	15.10	-42.5	-45.3	17.2	0.00e+00	0	44	0	238026752	56	4988
2026-01-09 08:03:28.47	68.96	15.14	-42.3	-45.0	17.4	0.00e+00	0	44	0	240123904	56	4853
2026-01-09 08:03:29.47	68.77	15.18	-42.3	-45.1	17.3	0.00e+00	0	44	0	242221056	56	4877
2026-01-09 08:03:30.48	68.57	15.23	-42.4	-45.2	17.2	0.00e+00	0	44	0	244318208	56	4948
2026-01-09 08:03:31.48	68.37	15.27	-42.4	-45.1	17.3	0.00e+00	0	44	0	245366784	56	4926
2026-01-09 08:03:32.48	68.17	15.31	-42.5	-45.3	17.1	0.00e+00	0	44	0	247463936	56	5027
2026-01-09 08:03:33.48	67.97	15.35	-42.6	-45.4	16.9	0.00e+00	0	44	0	249561088	56	5097
2026-01-09 08:03:34.48	67.77	15.39	-42.6	-45.5	16.9	0.00e+00	0	44	0	251658240	56	5129
2026-01-09 08:03:35.49	67.57	15.43	-42.5	-45.4	17.0	0.00e+00	0	44	0	252706816	56	5050
2026-01-09 08:03:36.49	67.37	15.47	-42.7	-45.6	16.8	0.00e+00	0	44	0	254803968	56	5183
2026-01-09 08:03:37.48	67.17	15.51	-42.6	-45.5	16.9	0.00e+00	0	44	0	256901120	56	5145
2026-01-09 08:03:38.49	66.97	15.55	-42.6	-45.4	17.0	0.00e+00	0	44	0	258998272	56	5098
2026-01-09 08:03:39.49	66.76	15.59	-42.6	-45.5	16.9	0.00e+00	0	44	0	261095424	56	5122
2026-01-09 08:03:40.49	66.56	15.63	-42.6	-45.5	16.9	0.00e+00	0	44	0	262144000	56	5107
2026-01-09 08:03:41.49	66.36	15.67	-42.4	-45.2	17.2	0.00e+00	0	44	0	264241152	56	4946
2026-01-09 08:03:42.50	66.15	15.70	-42.5	-45.3	17.1	0.00e+00	0	44	0	266338304	56	5001
2026-01-09 08:03:43.49	65.95	15.74	-42.4	-45.2	17.2	0.00e+00	0	44	0	268435456	56	4973
2026-01-09 08:03:44.49	65.74	15.78	-42.3	-45.0	17.4	0.00e+00	0	44	0	270532608	56	4844
2026-01-09 08:03:45.49	65.54	15.82	-42.1	-44.7	17.7	0.00e+00	0	44	0	271581184	56	4694
2026-01-09 08:03:46.49	65.33	15.85	-41.8	-44.4	17.8	0.00e+00	0	44	0	273678336	55	4779
2026-01-09 08:03:47.50	65.12	15.89	-41.7	-44.2	18.0	0.00e+00	0	44	0	275775488	55	4689
2026-01-09 08:03:48.50	64.92	15.93	-41.4	-43.9	18.3	0.00e+00	0	44	0	277872640	54	4787
2026-01-09 08:03:49.50	64.71	15.96	-41.3	-43.8	18.4	0.00e+00	0	44	0	279969792	54	4729
2026-01-09 08:03:50.50	64.50	16.00	-41.3	-43.7	18.5	0.00e+00	0	44	0	281018368	54	4679
2026-01-09 08:03:51.50	64.29	16.03	-41.3	-43.7	18.5	0.00e+00	0	44	0	283115520	54	4705
2026-01-09 08:03:52.50	64.08	16.07	-41.5	-43.9	18.3	0.00e+00	0	44	0	285212672	54	4812
2026-01-09 08:03:53.50	63.87	16.10	-41.5	-44.0	18.3	0.00e+00	0	44	0	287309824	54	4829
2026-01-09 08:03:54.50	63.66	16.14	-41.6	-44.1	18.1	0.00e+00	0	44	0	289406976	54	4897
2026-01-09 08:03:55.50	63.45	16.17	-41.7	-44.3	18.0	0.00e+00	0	44	0	290455552	54	5009
2026-01-09 08:03:56.51	63.24	16.20	-41.7	-44.3	18.0	0.00e+00	0	44	0	292552704	54	4996
2026-01-09 08:03:57.51	63.03	16.24	-41.8	-44.4	17.9	0.00e+00	0	44	0	294649856	54	5072
2026-01-09 08:03:58.51	62.82	16.27	-42.0	-44.7	17.6	0.00e+00	0	44	0	296747008	54	5221
2026-01-09 08:03:59.52	62.60	16.30	-42.1	-44.8	17.5	0.00e+00	0	44	0	297795584	54	5305
2026-01-09 08:04:00.52	62.39	16.34	-42.1	-44.8	17.5	0.00e+00	0	44	0	299892736	54	5312
2026-01-09 08:04:01.52	62.18	16.37	-42.0	-44.7	17.6	0.00e+00	0	44	0	301989888	54	5259
2026-01-09 08:04:02.52	61.96	16.40	-42.1	-44.8	17.5	0.00e+00	0	44	0	304087040	54	5314
2026-01-09 08:04:03.52	61.75	16.43	-42.2	-45.0	17.3	0.00e+00	0	44	0	306184192	55	5107
2026-01-09 08:04:04.53	61.53	16.46	-42.3	-45.1	17.2	0.00e+00	0	44	0	307232768	55	5177
2026-01-09 08:04:05.53	61.32	16.49	-42.5	-45.3	17.0	0.00e+00	0	44	0	309329920	55	5313
2026-01-09 08:04:06.53	61.10	16.52	-42.5	-45.3	17.0	0.00e+00	0	44	0	311427072	55	5295
2026-01-09 08:04:07.53	60.89	16.55	-42.5	-45.4	16.9	0.00e+00	0	44	0	313524224	55	5362
2026-01-09 08:04:08.53	60.67	16.58	-42.8	-45.7	16.8	0.00e+00	0	44	0	315621376	56	5233
2026-01-09 08:04:09.53	60.45	16.61	-42.8	-45.8	16.7	0.00e+00	0	44	0	316669952	56	5282
2026-01-09 08:04:10.53	60.24	16.64	-42.7	-45.6	16.9	0.00e+00	0	44	0	318767104	56	5210
2026-01-09 08:04:11.53	60.02	16.67	-43.0	-45.9	16.6	0.00e+00	0	44	0	320864256	56	5398
2026-01-09 08:04:12.54	59.80	16.69	-42.9	-45.8	16.7	0.00e+00	0	44	0	322961408	56	5295
2026-01-09 08:04:13.54	59.58	16.72	-42.9	-45.8	16.7	0.00e+00	0	44	0	325058560	56	5299
2026-01-09 08:04:14.54	59.36	16.75	-42.9	-45.8	16.7	0.00e+00	0	44	0	326107136	56	5288
2026-01-09 08:04:15.54	59.14	16.77	-42.8	-45.7	16.8	0.00e+00	0	44	0	328204288	56	5234
2026-01-09 08:04:16.54	58.92	16.80	-42.8	-45.6	16.8	0.00e+00	0	44	0	330301440	56	5213
2026-01-09 08:04:17.54	58.70	16.83	-42.6	-45.3	17.1	0.00e+00	0	44	0	332398592	56	5033
2026-01-09 08:04:18.55	58.48	16.85	-42.3	-45.0	17.4	0.00e+00	0	44	0	334495744	56	4842
2026-01-09 08:04:19.54	58.26	16.88	-42.2	-44.9	17.5	0.00e+00	0	44	0	335544320	56	4777
2026-01-09 08:04:20.55	58.04	16.90	-42.2	-44.9	17.5	0.00e+00	0	44	0	337641472	56	4768
2026-01-09 08:04:21.55	57.82	16.92	-42.1	-44.7	17.7	0.00e+00	0	44	0	339738624	56	4696
2026-01-09 08:04:22.55	57.60	16.95	-42.1	-44.8	17.7	0.00e+00	0	44	0	341835776	56	4707
2026-01-09 08:04:23.56	57.37	16.97	-42.3	-44.9	17.5	0.00e+00	0	44	0	342884352	56	4808
2026-01-09 08:04:24.56	57.15	16.99	-42.2	-44.9	17.5	0.00e+00	0	44	0	344981504	56	4772
2026-01-09 08:04:25.56	56.93	17.02	-42.2	-44.8	17.6	0.00e+00	0	44	0	347078656	56	4720
2026-01-09 08:04:26.56	56.70	17.04	-42.0	-44.5	17.9	0.00e+00	0	44	0	349175808	56	4597
2026-01-09 08:04:27.56	56.48	17.06	-41.8	-44.4	17.8	0.00e+00	0	44	0	351272960	55	4803
2026-01-09 08:04:28.56	56.26	17.08	-42.0	-44.6	17.7	0.00e+00	0	44	0	352321536	55	4906
2026-01-09 08:04:29.56	56.03	17.10	-42.0	-44.7	17.6	0.00e+00	0	44	0	354418688	55	4937
2026-01-09 08:04:30.57	55.81	17.12	-42.1	-44.9	17.4	0.00e+00	0	44	0	356515840	55	5043
2026-01-09 08:04:31.57	55.58	17.14	-42.2	-45.0	17.3	0.00e+00	0	44	0	358612992	55	5126
2026-01-09 08:04:32.57	55.36	17.16	-42.3	-45.1	17.2	0.00e+00	0	44	0	360710144	55	5164
2026-01-09 08:04:33.58	55.13	17.18	-42.4	-45.3	17.0	0.00e+00	0	44	0	361758720	55	5288
2026-01-09 08:04:34.58	54.90	17.20	-42.8	-45.8	16.7	0.00e+00	0	44	0	363855872	56	5307
2026-01-09 08:04:35.58	54.68	17.22	-43.0	-46.1	16.4	0.00e+00	0	44	0	365953024	56	5484
2026-01-09 08:04:36.58	54.45	17.23	-43.2	-46.4	16.0	0.00e+00	0	44	0	368050176	57	5367
2026-01-09 08:04:37.58	54.23	17.25	-43.4	-46.7	15.8	0.00e+00	0	44	0	370147328	57	5549
2026-01-09 08:04:38.58	54.00	17.27	-43.4	-46.7	15.7	0.00e+00	0	44	0	371195904	57	5584
2026-01-09 08:04:39.58	53.77	17.28	-43.4	-46.8	15.7	0.00e+00	0	44	0	373293056	57	5596
2026-01-09 08:04:40.58	53.55	17.30	-43.2	-46.4	16.1	0.00e+00	0	44	0	375390208	57	5380
2026-01-09 08:04:41.59	53.32	17.32	-43.2	-46.4	16.0	0.00e+00	0	44	0	377487360	57	5399
2026-01-09 08:04:42.58	53.09	17.33	-43.3	-46.5	16.0	0.00e+00	0	44	0	378535936	57	5416
2026-01-09 08:04:43.58	52.86	17.35	-43.3	-46.6	15.9	0.00e+00	0	44	0	380633088	57	5472
2026-01-09 08:04:44.59	52.63	17.36	-43.2	-46.4	16.1	0.00e+00	0	44	0	382730240	57	5342
2026-01-09 08:04:45.59	52.40	17.37	-43.0	-46.1	16.3	0.00e+00	0	44	0	384827392	57	5213
2026-01-09 08:04:46.59	52.18	17.39	-42.9	-45.9	16.5	0.00e+00	0	44	0	386924544	57	5082
2026-01-09 08:04:47.59	51.95	17.40	-42.6	-45.4	16.9	0.00e+00	0	44	0	387973120	57	4808
2026-01-09 08:04:48.59	51.72	17.41	-42.6	-45.5	16.9	0.00e+00	0	44	0	390070272	57	4838
2026-01-09 08:04:49.59	51.49	17.42	-42.7	-45.7	16.7	0.00e+00	0	44	0	392167424	57	4967
2026-01-09 08:04:50.59	51.26	17.43	-42.8	-45.8	16.7	0.00e+00	0	44	0	394264576	57	5015
2026-01-09 08:04:51.59	51.03	17.44	-42.7	-45.6	16.8	0.00e+00	0	44	0	396361728	57	4915
2026-01-09 08:04:52.60	50.80	17.45	-42.6	-45.6	16.9	0.00e+00	0	44	0	397410304	57	4872
2026-01-09 08:04:53.60	50.57	17.46	-42.6	-45.5	16.9	0.00e+00	0	44	0	399507456	57	4830
2026-01-09 08:04:54.60	50.34	17.47	-42.3	-45.1	17.3	0.00e+00	0	44	0	401604608	56	4876
2026-01-09 08:04:55.60	50.11	17.48	-42.1	-44.8	17.5	0.00e+00	0	44	0	403701760	56	4749
2026-01-09 08:04:56.61	49.88	17.49	-42.4	-45.2	17.3	0.00e+00	0	44	0	405798912	56	4965
2026-01-09 08:04:57.61	49.65	17.50	-42.3	-45.1	17.3	0.00e+00	0	44	0	406847488	56	4882
2026-01-09 08:04:58.61	49.42	17.51	-42.6	-45.5	17.0	0.00e+00	0	44	0	408944640	56	5122
2026-01-09 08:04:59.61	49.19	17.51	-42.5	-45.3	17.2	0.00e+00	0	44	0	411041792	56	5000
2026-01-09 08:05:00.62	48.96	17.52	-42.5	-45.3	17.1	0.00e+00	0	44	0	413138944	56	5016
2026-01-09 08:05:01.62	48.73	17.53	-42.6	-45.5	16.9	0.00e+00	0	44	0	415236096	56	5111
2026-01-09 08:05:02.62	48.50	17.53	-42.8	-45.7	16.7	0.00e+00	0	44	0	416284672	56	5274
2026-01-09 08:05:03.63	48.26	17.54	-43.0	-46.0	16.5	0.00e+00	0	44	0	418381824	56	5445
2026-01-09 08:05:04.63	48.03	17.54	-43.0	-46.0	16.5	0.00e+00	0	44	0	420478976	56	5430
2026-01-09 08:05:05.63	47.80	17.55	-43.0	-46.1	16.4	0.00e+00	0	44	0	422576128	56	5486
2026-01-09 08:05:06.63	47.57	17.55	-42.9	-45.9	16.5	0.00e+00	0	44	0	423624704	56	5367
2026-01-09 08:05:07.63	47.34	17.55	-42.8	-45.8	16.6	0.00e+00	0	44	0	425721856	56	5311
2026-01-09 08:05:08.63	47.11	17.56	-42.8	-45.7	16.6	0.00e+00	0	44	0	427819008	56	5269
2026-01-09 08:05:09.63	46.88	17.56	-42.6	-45.5	16.9	0.00e+00	0	44	0	429916160	56	5108
2026-01-09 08:05:10.63	46.65	17.56	-42.5	-45.4	17.1	0.00e+00	0	44	0	432013312	56	5043
2026-01-09 08:05:11.63	46.42	17.56	-42.4	-45.2	17.3	0.00e+00	0	44	0	433061888	56	4946
2026-01-09 08:05:12.64	46.18	17.56	-42.4	-45.2	17.3	0.00e+00	0	44	0	435159040	56	4963
2026-01-09 08:05:13.63	45.95	17.56	-42.4	-45.3	16.9	0.00e+00	0	44	0	437256192	56	4992
2026-01-09 08:05:14.63	45.72	17.56	-42.8	-45.7	16.7	0.00e+00	0	44	0	439353344	56	5266
2026-01-09 08:05:15.64	45.49	17.56	-43.0	-46.1	16.3	0.00e+00	0	44	0	441450496	56	5474
2026-01-09 08:05:16.64	45.26	17.56	-43.2	-46.3	16.1	0.00e+00	0	44	0	442499072	57	5335
2026-01-09 08:05:17.64	45.03	17.56	-43.1	-46.3	16.2	0.00e+00	0	44	0	444596224	57	5304
2026-01-09 08:05:18.64	44.80	17.56	-43.4	-46.8	15.8	0.00e+00	0	44	0	446693376	57	5600
2026-01-09 08:05:19.64	44.57	17.55	-43.4	-46.7	15.6	0.00e+00	0	44	0	448790528	57	5541
2026-01-09 08:05:20.64	44.34	17.55	-43.5	-46.9	15.7	0.00e+00	0	44	0	450887680	57	5664
2026-01-09 08:05:21.64	44.11	17.55	-43.5	-46.8	15.7	0.00e+00	0	44	0	451936256	57	5625
2026-01-09 08:05:22.65	43.87	17.54	-43.3	-46.6	15.8	0.00e+00	0	44	0	454033408	57	5485
2026-01-09 08:05:23.65	43.64	17.54	-43.1	-46.3	16.1	0.00e+00	0	44	0	456130560	57	5308
2026-01-09 08:05:24.66	43.41	17.53	-42.9	-45.9	16.5	0.00e+00	0	44	0	458227712	57	5076
2026-01-09 08:05:25.65	43.18	17.53	-42.9	-45.9	16.5	0.00e+00	0	44	0	460324864	57	5099
2026-01-09 08:05:26.66	42.95	17.52	-42.5	-45.4	17.0	0.00e+00	0	44	0	461373440	57	4781
2026-01-09 08:05:27.66	42.72	17.52	-42.6	-45.5	16.9	0.00e+00	0	44	0	463470592	56	5142
2026-01-09 08:05:28.65	42.49	17.51	-42.6	-45.5	16.9	0.00e+00	0	44	0	465567744	56	5159
2026-01-09 08:05:29.66	42.26	17.50	-42.6	-45.5	16.9	0.00e+00	0	44	0	467664896	56	5129
2026-01-09 08:05:30.66	42.03	17.50	-42.5	-45.4	16.9	0.00e+00	0	44	0	468713472	56	5082
2026-01-09 08:05:31.66	41.80	17.49	-42.6	-45.5	16.9	0.00e+00	0	44	0	470810624	56	5149
2026-01-09 08:05:32.66	41.57	17.48	-42.5	-45.3	17.1	0.00e+00	0	44	0	472907776	56	5024
2026-01-09 08:05:33.67	41.34	17.47	-42.4	-45.2	17.2	0.00e+00	0	44	0	475004928	56	4932
2026-01-09 08:05:34.66	41.11	17.46	-42.3	-45.1	17.3	0.00e+00	0	44	0	477102080	56	4900
2026-01-09 08:05:35.67	40.88	17.45	-42.1	-44.8	17.6	0.00e+00	0	44	0	478150656	56	4750
2026-01-09 08:05:36.67	40.65	17.44	-42.2	-44.9	17.5	0.00e+00	0	44	0	480247808	56	4809
2026-01-09 08:05:37.67	40.42	17.43	-42.2	-44.9	17.5	0.00e+00	0	44	0	482344960	56	4779
2026-01-09 08:05:38.68	40.19	17.42	-42.2	-44.9	17.6	0.00e+00	0	44	0	484442112	56	4778
2026-01-09 08:05:39.68	39.96	17.40	-42.1	-44.8	17.6	0.00e+00	0	44	0	486539264	56	4723
2026-01-09 08:05:40.68	39.73	17.39	-41.9	-44.5	17.7	0.00e+00	0	44	0	487587840	55	4863
2026-01-09 08:05:41.68	39.50	17.38	-41.6	-44.1	18.1	0.00e+00	0	44	0	489684992	55	4642
2026-01-09 08:05:42.68	39.28	17.37	-41.3	-43.8	18.4	0.00e+00	0	44	0	491782144	54	4737
2026-01-09 08:05:43.68	39.05	17.35	-41.2	-43.7	18.5	0.00e+00	0	44	0	493879296	54	4658
2026-01-09 08:05:44.69	38.82	17.34	-41.3	-43.8	18.4	0.00e+00	0	44	0	495976448	54	4722
2026-01-09 08:05:45.69	38.59	17.32	-41.3	-43.8	18.4	0.00e+00	0	44	0	497025024	54	4745
2026-01-09 08:05:46.69	38.36	17.31	-41.5	-44.0	18.2	0.00e+00	0	44	0	499122176	54	4860
2026-01-09 08:05:47.69	38.14	17.29	-41.4	-44.0	18.3	0.00e+00	0	44	0	501219328	54	4820
2026-01-09 08:05:48.69	37.91	17.28	-41.6	-44.1	18.2	0.00e+00	0	44	0	503316480	54	4898
2026-01-09 08:05:49.69	37.68	17.26	-41.6	-44.1	18.2	0.00e+00	0	44	0	505413632	54	4897
2026-01-09 08:05:50.69	37.46	17.24	-41.6	-44.2	18.1	0.00e+00	0	44	0	506462208	54	4946
2026-01-09 08:05:51.70	37.23	17.23	-41.8	-44.5	17.8	0.00e+00	0	44	0	508559360	54	5103
2026-01-09 08:05:52.70	37.01	17.21	-41.7	-44.3	18.0	0.00e+00	0	44	0	510656512	54	5020
2026-01-09 08:05:53.70	36.78	17.19	-41.9	-44.5	17.7	0.00e+00	0	44	0	512753664	54	5158
2026-01-09 08:05:54.70	36.56	17.17	-42.1	-44.8	17.6	0.00e+00	0	44	0	513802240	54	5286
2026-01-09 08:05:55.70	36.33	17.15	-42.1	-44.8	17.5	0.00e+00	0	44	0	515899392	54	5321
2026-01-09 08:05:56.71	36.10	17.13	-42.2	-45.0	17.3	0.00e+00	0	44	0	517996544	55	5106
2026-01-09 08:05:57.71	35.88	17.11	-42.1	-44.9	17.4	0.00e+00	0	44	0	520093696	55	5060
2026-01-09 08:05:58.71	35.66	17.09	-42.3	-45.1	17.2	0.00e+00	0	44	0	522190848	55	5189
2026-01-09 08:05:59.71	35.43	17.07	-42.2	-45.0	17.3	0.00e+00	0	44	0	523239424	55	5139
2026-01-09 08:06:00.72	35.21	17.05	-42.4	-45.3	17.0	0.00e+00	0	44	0	525336576	55	5330
2026-01-09 08:06:01.72	34.98	17.03	-42.3	-45.1	17.2	0.00e+00	0	44	0	527433728	55	5213
2026-01-09 08:06:02.72	34.76	17.01	-42.3	-45.2	17.2	0.00e+00	0	44	0	529530880	55	5221
2026-01-09 08:06:03.72	34.54	16.98	-42.2	-45.1	17.2	0.00e+00	0	44	0	531628032	55	5201
2026-01-09 08:06:04.72	34.32	16.96	-42.3	-45.2	17.1	0.00e+00	0	44	0	532676608	55	5227
2026-01-09 08:06:05.72	34.10	16.94	-42.4	-45.3	16.9	0.00e+00	0	44	0	534773760	55	5307
2026-01-09 08:06:06.73	33.87	16.91	-42.5	-45.4	16.9	0.00e+00	0	44	0	536870912	55	5354
2026-01-09 08:06:07.73	33.65	16.89	-42.7	-45.6	16.7	0.00e+00	0	44	0	538968064	55	5511
2026-01-09 08:06:08.73	33.43	16.86	-42.6	-45.6	16.8	0.00e+00	0	44	0	541065216	55	5470
2026-01-09 08:06:09.73	33.21	16.84	-42.5	-45.4	17.0	0.00e+00	0	44	0	542113792	55	5343
2026-01-09 08:06:10.73	32.99	16.81	-42.8	-45.6	16.8	0.00e+00	0	44	0	544210944	56	5210
2026-01-09 08:06:11.73	32.77	16.79	-42.6	-45.4	17.0	0.00e+00	0	44	0	546308096	56	5076
2026-01-09 08:06:12.74	32.55	16.76	-42.7	-45.7	16.8	0.00e+00	0	44	0	548405248	56	5222
2026-01-09 08:06:13.74	32.33	16.73	-42.7	-45.6	16.8	0.00e+00	0	44	0	549453824	56	5195
2026-01-09 08:06:14.74	32.12	16.71	-42.8	-45.8	16.7	0.00e+00	0	44	0	551550976	56	5300
2026-01-09 08:06:15.75	31.90	16.68	-42.7	-45.6	16.8	0.00e+00	0	44	0	553648128	56	5191
2026-01-09 08:06:16.75	31.68	16.65	-42.6	-45.6	16.8	0.00e+00	0	44	0	555745280	56	5196
2026-01-09 08:06:17.75	31.46	16.62	-42.5	-45.5	17.0	0.00e+00	0	44	0	557842432	56	5102
2026-01-09 08:06:18.75	31.25	16.60	-42.6	-45.6	16.9	0.00e+00	0	44	0	558891008	56	5181
2026-01-09 08:06:19.75	31.03	16.57	-42.6	-45.5	16.9	0.00e+00	0	44	0	560988160	56	5158
2026-01-09 08:06:20.75	30.81	16.54	-42.9	-46.0	16.5	0.00e+00	0	44	0	563085312	56	5411
2026-01-09 08:06:21.75	30.60	16.51	-43.0	-46.2	16.3	0.00e+00	0	44	0	565182464	56	5543
2026-01-09 08:06:22.75	30.38	16.48	-43.1	-46.4	16.1	0.00e+00	0	44	0	567279616	56	5657
2026-01-09 08:06:23.76	30.17	16.45	-43.2	-46.4	16.1	0.00e+00	0	44	0	568328192	57	5366
2026-01-09 08:06:24.76	29.95	16.42	-43.4	-46.6	15.9	0.00e+00	0	44	0	570425344	57	5514
2026-01-09 08:06:25.76	29.74	16.38	-43.4	-46.5	15.9	0.00e+00	0	44	0	572522496	57	5464
2026-01-09 08:06:26.77	29.53	16.35	-43.3	-46.4	16.0	0.00e+00	0	44	0	574619648	57	5397
2026-01-09 08:06:27.77	29.31	16.32	-43.2	-46.3	16.2	0.00e+00	0	44	0	576716800	57	5301
2026-01-09 08:06:28.77	29.10	16.29	-43.2	-46.3	16.2	0.00e+00	0	44	0	577765376	57	5304
2026-01-09 08:06:29.77	28.89	16.26	-42.9	-45.8	16.6	0.00e+00	0	44	0	579862528	57	5036
2026-01-09 08:06:30.77	28.68	16.22	-42.6	-45.6	16.9	0.00e+00	0	44	0	581959680	57	4883
2026-01-09 08:06:31.78	28.47	16.19	-42.5	-45.6	16.9	0.00e+00	0	44	0	584056832	57	4884
2026-01-09 08:06:32.78	28.26	16.16	-42.4	-45.5	17.0	0.00e+00	0	44	0	586153984	56	5104
2026-01-09 08:06:33.78	28.05	16.12	-42.5	-45.6	16.8	0.00e+00	0	44	0	587202560	56	5214
2026-01-09 08:06:34.78	27.84	16.09	-42.5	-45.6	16.8	0.00e+00	0	44	0	589299712	56	5210
2026-01-09 08:06:35.78	27.63	16.05	-42.4	-45.5	16.9	0.00e+00	0	44	0	591396864	56	5147
2026-01-09 08:06:36.78	27.42	16.02	-42.5	-45.7	16.8	0.00e+00	0	44	0	593494016	56	5220
2026-01-09 08:06:37.78	27.21	15.98	-42.5	-45.6	16.9	0.00e+00	0	44	0	594542592	56	5193
2026-01-09 08:06:38.79	27.00	15.95	-42.3	-45.4	17.0	0.00e+00	0	44	0	596639744	56	5082
2026-01-09 08:06:39.79	26.80	15.91	-42.2	-45.2	17.2	0.00e+00	0	44	0	598736896	56	4944
2026-01-09 08:06:40.79	26.59	15.87	-42.1	-45.0	17.5	0.00e+00	0	44	0	600834048	56	4851
2026-01-09 08:06:41.79	26.39	15.84	-41.9	-44.7	17.6	0.00e+00	0	44	0	602931200	55	4972
2026-01-09 08:06:42.79	26.18	15.80	-41.6	-44.4	17.9	0.00e+00	0	44	0	603979776	55	4783
2026-01-09 08:06:43.79	25.98	15.76	-41.8	-44.5	17.8	0.00e+00	0	44	0	606076928	55	4843
2026-01-09 08:06:44.80	25.77	15.72	-41.6	-44.3	18.0	0.00e+00	0	44	0	608174080	55	4714
2026-01-09 08:06:45.80	25.57	15.69	-41.6	-44.3	18.0	0.00e+00	0	44	0	610271232	55	4711
2026-01-09 08:06:46.80	25.36	15.65	-41.7	-44.3	18.0	0.00e+00	0	44	0	612368384	55	4733
2026-01-09 08:06:47.80	25.16	15.61	-41.9	-44.5	17.7	0.00e+00	0	44	0	613416960	55	4869
2026-01-09 08:06:48.81	24.96	15.57	-41.9	-44.6	17.6	0.00e+00	0	44	0	615514112	55	4922
2026-01-09 08:06:49.80	24.76	15.53	-42.1	-44.9	17.4	0.00e+00	0	44	0	617611264	55	5085
2026-01-09 08:06:50.81	24.55	15.49	-42.4	-45.3	17.0	0.00e+00	0	44	0	619708416	55	5319
2026-01-09 08:06:51.81	24.35	15.45	-42.9	-46.1	16.4	0.00e+00	0	44	0	621805568	56	5480
2026-01-09 08:06:52.81	24.15	15.41	-43.0	-46.3	16.3	0.00e+00	0	44	0	622854144	56	5610
2026-01-09 08:06:53.81	23.96	15.37	-43.3	-46.7	15.8	0.00e+00	0	44	0	624951296	57	5591
2026-01-09 08:06:54.82	23.75	15.33	-43.2	-46.7	15.9	0.00e+00	0	44	0	627048448	57	5537
2026-01-09 08:06:55.82	23.56	15.29	-43.0	-46.4	16.1	0.00e+00	0	44	0	629145600	57	5361
2026-01-09 08:06:56.82	23.36	15.25	-43.1	-46.6	15.9	0.00e+00	0	44	0	631242752	57	5477
2026-01-09 08:06:57.82	23.16	15.21	-43.1	-46.4	16.1	0.00e+00	0	44	0	632291328	57	5377
2026-01-09 08:06:58.82	22.97	15.17	-43.0	-46.3	16.2	0.00e+00	0	44	0	634388480	57	5289
2026-01-09 08:06:59.83	22.77	15.12	-42.9	-46.2	16.3	0.00e+00	0	44	0	636485632	57	5219
2026-01-09 08:07:00.83	22.57	15.08	-42.8	-46.0	16.4	0.00e+00	0	44	0	638582784	57	5127
2026-01-09 08:07:01.83	22.38	15.04	-43.0	-46.3	16.2	0.00e+00	0	44	0	639631360	57	5285
2026-01-09 08:07:02.83	22.18	15.00	-43.0	-46.2	16.3	0.00e+00	0	44	0	641728512	57	5256
2026-01-09 08:07:03.83	21.99	14.95	-43.3	-46.6	15.9	0.00e+00	0	44	0	643825664	57	5522
2026-01-09 08:07:04.83	21.80	14.91	-43.4	-46.6	15.9	0.00e+00	0	44	0	645922816	57	5525
2026-01-09 08:07:05.84	21.60	14.87	-43.2	-46.5	15.6	0.00e+00	0	44	0	648019968	57	5418
2026-01-09 08:07:06.84	21.41	14.82	-43.1	-46.3	16.2	0.00e+00	0	44	0	649068544	57	5309
2026-01-09 08:07:07.84	21.22	14.78	-43.1	-46.3	16.2	0.00e+00	0	44	0	651165696	57	5321
2026-01-09 08:07:08.84	21.03	14.74	-43.0	-46.2	16.3	0.00e+00	0	44	0	653262848	57	5235
2026-01-09 08:07:09.84	20.84	14.69	-42.7	-45.7	16.7	0.00e+00	0	44	0	655360000	57	4982
2026-01-09 08:07:10.84	20.65	14.65	-42.8	-46.0	16.6	0.00e+00	0	44	0	657457152	57	5115
2026-01-09 08:07:11.84	20.46	14.60	-42.5	-45.7	16.8	0.00e+00	0	44	0	658505728	57	4936
2026-01-09 08:07:12.84	20.27	14.56	-42.5	-45.7	16.7	0.00e+00	0	44	0	660602880	56	5264
2026-01-09 08:07:13.84	20.08	14.51	-42.4	-45.7	16.7	0.00e+00	0	44	0	662700032	56	5235
2026-01-09 08:07:14.85	19.89	14.46	-42.4	-45.6	16.8	0.00e+00	0	44	0	664797184	56	5208
2026-01-09 08:07:15.85	19.71	14.42	-42.4	-45.6	16.8	0.00e+00	0	44	0	666894336	56	5216
2026-01-09 08:07:16.85	19.52	14.37	-42.5	-45.7	16.8	0.00e+00	0	44	0	667942912	56	5266
2026-01-09 08:07:17.85	19.34	14.33	-42.4	-45.5	17.0	0.00e+00	0	44	0	670040064	56	5112
2026-01-09 08:07:18.85	19.15	14.28	-42.5	-45.6	16.9	0.00e+00	0	44	0	672137216	56	5167
2026-01-09 08:07:19.86	18.97	14.23	-42.8	-45.9	16.5	0.00e+00	0	44	0	674234368	56	5378
2026-01-09 08:07:20.86	18.78	14.19	-43.0	-46.3	16.2	0.00e+00	0	44	0	676331520	56	5593
2026-01-09 08:07:21.86	18.60	14.14	-43.1	-46.4	16.1	0.00e+00	0	44	0	677380096	56	5678
2026-01-09 08:07:22.86	18.42	14.09	-42.9	-46.1	16.3	0.00e+00	0	44	0	679477248	56	5526
2026-01-09 08:07:23.87	18.23	14.04	-43.0	-46.2	16.2	0.00e+00	0	44	0	681574400	56	5567
2026-01-09 08:07:24.87	18.05	14.00	-42.8	-45.9	16.6	0.00e+00	0	44	0	683671552	56	5376
2026-01-09 08:07:25.87	17.87	13.95	-42.7	-45.8	16.6	0.00e+00	0	44	0	684720128	56	5296
2026-01-09 08:07:26.88	17.69	13.90	-42.6	-45.6	16.9	0.00e+00	0	44	0	686817280	56	5176
2026-01-09 08:07:27.88	17.51	13.85	-42.8	-45.8	16.7	0.00e+00	0	44	0	688914432	56	5302
2026-01-09 08:07:28.88	17.33	13.80	-42.7	-45.6	16.8	0.00e+00	0	44	0	691011584	56	5181
2026-01-09 08:07:29.89	17.15	13.76	-42.7	-45.6	16.9	0.00e+00	0	44	0	693108736	56	5185
2026-01-09 08:07:30.89	16.97	13.71	-42.9	-45.9	16.5	0.00e+00	0	44	0	694157312	56	5369
2026-01-09 08:07:31.89	16.79	13.66	-43.1	-46.2	16.3	0.00e+00	0	44	0	696254464	56	5545
2026-01-09 08:07:32.89	16.62	13.61	-43.3	-46.7	15.7	0.00e+00	0	44	0	698351616	57	5542
2026-01-09 08:07:33.90	16.44	13.56	-43.6	-47.3	15.2	0.00e+00	0	44	0	700448768	57	5943
2026-01-09 08:07:34.90	16.26	13.51	-44.0	-48.0	14.5	0.00e+00	0	44	0	702545920	58	6122
2026-01-09 08:07:35.90	16.09	13.46	-44.3	-48.6	13.9	7.00e-07	0	44	0	703594496	59	6156
2026-01-09 08:07:36.91	15.91	13.41	-44.7	-49.5	13.0	2.74e-05	0	44	0	705691648	59	6851
2026-01-09 08:07:37.90	15.74	13.36	-44.5	-49.6	12.9	5.72e-05	0	44	0	707788800	60	6529
2026-01-09 08:07:38.91	15.57	13.31	-44.4	-49.7	12.8	2.13e-05	0	44	0	709885952	60	6627
2026-01-09 08:07:39.91	15.40	13.26	-44.2	-49.2	13.3	3.05e-05	0	44	0	711983104	60	6262
2026-01-09 08:07:40.91	15.22	13.21	-44.1	-49.2	13.4	1.29e-05	0	44	0	713031680	60	6260
2026-01-09 08:07:41.91	15.05	13.16	-43.8	-48.5	13.9	4.50e-06	0	44	0	715128832	59	6110
2026-01-09 08:07:42.91	14.88	13.11	-43.7	-48.4	14.1	1.50e-06	0	44	0	717225984	59	6008
2026-01-09 08:07:43.91	14.71	13.06	-43.6	-48.2	14.3	1.50e-06	0	44	0	719323136	59	5877
2026-01-09 08:07:44.91	14.54	13.01	-43.6	-48.1	14.4	1.50e-06	0	44	0	721420288	59	5792
2026-01-09 08:07:45.91	14.37	12.95	-43.6	-48.1	14.4	1.50e-06	0	44	0	722468864	59	5811
2026-01-09 08:07:46.91	14.21	12.90	-43.6	-48.0	14.5	7.00e-07	0	44	0	724566016	58	6072
2026-01-09 08:07:47.92	14.04	12.85	-43.6	-47.8	14.7	0.00e+00	0	44	0	726663168	58	5972
2026-01-09 08:07:48.92	13.87	12.80	-43.3	-47.1	15.3	0.00e+00	0	44	0	728760320	58	5520
2026-01-09 08:07:49.92	13.70	12.75	-43.2	-46.9	15.6	0.00e+00	0	44	0	729808896	58	5354
2026-01-09 08:07:50.92	13.54	12.70	-43.3	-46.9	15.6	0.00e+00	0	44	0	731906048	58	5381
2026-01-09 08:07:51.93	13.37	12.64	-43.3	-46.9	15.5	0.00e+00	0	44	0	734003200	58	5364
2026-01-09 08:07:52.93	13.21	12.59	-43.5	-47.3	15.2	0.00e+00	0	44	0	736100352	58	5622
2026-01-09 08:07:53.93	13.04	12.54	-43.7	-47.5	15.0	0.00e+00	0	44	0	738197504	58	5779
2026-01-09 08:07:54.93	12.88	12.49	-43.8	-47.7	14.8	0.00e+00	0	44	0	739246080	58	5888
2026-01-09 08:07:55.93	12.72	12.44	-43.8	-47.6	14.8	0.00e+00	0	44	0	741343232	58	5841
2026-01-09 08:07:56.94	12.55	12.38	-43.9	-47.8	14.7	0.00e+00	0	44	0	743440384	58	5990
2026-01-09 08:07:57.94	12.39	12.33	-43.7	-47.4	15.1	0.00e+00	0	44	0	745537536	58	5662
2026-01-09 08:07:58.94	12.23	12.28	-43.4	-47.0	15.4	0.00e+00	0	44	0	747634688	58	5426
2026-01-09 08:07:59.95	12.07	12.22	-43.4	-46.9	15.6	0.00e+00	0	44	0	748683264	58	5348
2026-01-09 08:08:00.95	11.91	12.17	-43.2	-46.5	15.9	0.00e+00	0	44	0	750780416	58	5154
2026-01-09 08:08:01.95	11.75	12.12	-43.2	-46.6	15.8	0.00e+00	0	44	0	752877568	58	5192
2026-01-09 08:08:02.95	11.59	12.07	-43.0	-46.4	16.0	0.00e+00	0	44	0	754974720	57	5381
2026-01-09 08:08:03.95	11.43	12.01	-42.9	-46.3	16.1	0.00e+00	0	44	0	757071872	57	5328
2026-01-09 08:08:04.95	11.27	11.96	-42.9	-46.4	16.0	0.00e+00	0	44	0	758120448	57	5391
2026-01-09 08:08:05.96	11.11	11.90	-42.9	-46.5	16.0	0.00e+00	0	44	0	760217600	57	5430
2026-01-09 08:08:06.96	10.96	11.85	-42.8	-46.4	16.0	0.00e+00	0	44	0	762314752	57	5398
2026-01-09 08:08:07.96	10.80	11.80	-42.9	-46.6	15.9	0.00e+00	0	44	0	764411904	57	5470
2026-01-09 08:08:08.97	10.65	11.74	-42.9	-46.5	15.9	0.00e+00	0	44	0	766509056	57	5457
2026-01-09 08:08:09.97	10.49	11.69	-43.0	-46.8	15.6	0.00e+00	0	44	0	767557632	57	5602
2026-01-09 08:08:10.97	10.34	11.64	-43.1	-46.8	15.6	0.00e+00	0	44	0	769654784	57	5640
2026-01-09 08:08:11.97	10.18	11.58	-43.1	-47.0	15.4	0.00e+00	0	44	0	771751936	57	5738
2026-01-09 08:08:12.97	10.03	11.53	-43.0	-47.1	15.3	0.00e+00	0	44	0	773849088	57	5855
2026-01-09 08:08:13.97	9.88	11.47	-42.9	-47.1	15.3	0.00e+00	0	44	0	774897664	57	5843
2026-01-09 08:08:14.97	9.73	11.42	-42.7	-47.2	15.2	0.00e+00	0	44	0	776994816	57	5856
2026-01-09 08:08:15.97	9.58	11.37	-42.6	-47.1	15.3	0.00e+00	0	44	0	779091968	57	5821
2026-01-09 08:08:16.97	9.43	11.31	-42.4	-47.0	15.4	0.00e+00	0	44	0	781189120	56	6129
2026-01-09 08:08:17.98	9.27	11.26	-42.3	-46.8	15.6	0.00e+00	0	44	0	783286272	56	5981
2026-01-09 08:08:18.98	9.12	11.20	-42.3	-46.9	15.5	0.00e+00	0	44	0	784334848	56	6022
2026-01-09 08:08:19.98	8.98	11.15	-42.3	-46.7	15.7	0.00e+00	0	44	0	786432000	56	5872
2026-01-09 08:08:20.98	8.83	11.09	-42.3	-46.6	15.8	0.00e+00	0	44	0	788529152	56	5806
2026-01-09 08:08:21.98	8.68	11.04	-42.3	-46.5	15.9	0.00e+00	0	44	0	790626304	56	5782
2026-01-09 08:08:22.98	8.53	10.98	-42.3	-46.4	16.1	0.00e+00	0	44	0	792723456	56	5664
2026-01-09 08:08:23.98	8.39	10.93	-42.2	-45.9	16.4	0.00e+00	0	44	0	793772032	56	5381
2026-01-09 08:08:24.98	8.24	10.87	-42.2	-45.8	16.6	0.00e+00	0	44	0	795869184	56	5325
2026-01-09 08:08:25.98	8.09	10.82	-42.0	-45.5	16.9	0.00e+00	0	44	0	797966336	56	5121
2026-01-09 08:08:26.98	7.95	10.76	-41.8	-45.0	17.2	0.00e+00	0	44	0	800063488	55	5140
2026-01-09 08:08:27.98	7.80	10.71	-41.8	-45.0	17.2	0.00e+00	0	44	0	802160640	55	5102
2026-01-09 08:08:28.98	7.66	10.65	-41.7	-44.8	17.4	0.00e+00	0	44	0	803209216	55	4991
2026-01-09 08:08:29.98	7.52	10.60	-41.6	-44.6	17.5	0.00e+00	0	44	0	805306368	55	4896
2026-01-09 08:08:30.99	7.37	10.54	-41.7	-44.6	17.6	0.00e+00	0	44	0	807403520	55	4896
2026-01-09 08:08:31.98	7.23	10.49	-41.8	-44.8	17.3	0.00e+00	0	44	0	809500672	55	4986
2026-01-09 08:08:32.99	7.09	10.43	-41.9	-44.9	17.3	0.00e+00	0	44	0	810549248	55	5079
2026-01-09 08:08:33.99	6.95	10.38	-41.9	-45.0	17.2	0.00e+00	0	44	0	812646400	55	5101
2026-01-09 08:08:34.99	6.81	10.32	-42.2	-45.3	16.8	0.00e+00	0	44	0	814743552	55	5317
2026-01-09 08:08:35.99	6.67	10.27	-42.2	-45.3	16.9	0.00e+00	0	44	0	816840704	55	5327
2026-01-09 08:08:37.00	6.53	10.21	-42.3	-45.5	16.7	0.00e+00	0	44	0	818937856	55	5426
2026-01-09 08:08:37.99	6.39	10.15	-42.2	-45.5	16.7	0.00e+00	0	44	0	819986432	55	5414
2026-01-09 08:08:39.00	6.25	10.10	-42.1	-45.4	16.8	0.00e+00	0	44	0	822083584	55	5360
2026-01-09 08:08:39.99	6.11	10.04	-41.9	-45.3	16.9	0.00e+00	0	44	0	824180736	55	5282
2026-01-09 08:08:40.99	5.98	9.99	-41.8	-45.1	17.1	0.00e+00	0	44	0	826277888	55	5195
2026-01-09 08:08:41.99	5.84	9.93	-41.7	-45.0	17.1	0.00e+00	0	44	0	828375040	55	5149
2026-01-09 08:08:43.00	5.70	9.88	-41.6	-45.0	17.2	0.00e+00	0	44	0	829423616	55	5122
2026-01-09 08:08:44.00	5.57	9.82	-41.6	-45.0	17.2	0.00e+00	0	44	0	831520768	55	5113
2026-01-09 08:08:44.99	5.43	9.77	-41.6	-44.9	17.2	0.00e+00	0	44	0	833617920	55	5073
2026-01-09 08:08:45.99	5.30	9.71	-41.7	-45.0	17.1	0.00e+00	0	44	0	835715072	55	5149
2026-01-09 08:08:47.00	5.16	9.65	-41.8	-45.1	17.0	0.00e+00	0	44	0	837812224	55	5203
2026-01-09 08:08:47.99	5.03	9.60	-41.8	-45.1	17.0	0.00e+00	0	44	0	838860800	55	5215
2026-01-09 08:08:49.00	4.90	9.54	-41.8	-45.1	17.1	0.00e+00	0	44	0	840957952	55	5181
2026-01-09 08:08:50.00	4.76	9.49	-42.0	-45.4	16.8	0.00e+00	0	44	0	843055104	55	5343
2026-01-09 08:08:51.00	4.63	9.43	-42.2	-45.3	16.8	0.00e+00	0	44	0	845152256	55	5336
2026-01-09 08:08:52.00	4.50	9.37	-42.5	-45.6	16.5	0.00e+00	0	44	0	847249408	55	5517
2026-01-09 08:08:53.00	4.37	9.32	-42.9	-46.0	16.3	0.00e+00	0	44	0	848297984	56	5446
2026-01-09 08:08:54.00	4.24	9.26	-42.9	-46.0	16.3	0.00e+00	0	44	0	850395136	56	5425
2026-01-09 08:08:55.00	4.11	9.21	-43.0	-46.3	16.0	0.00e+00	0	44	0	852492288	56	5597
2026-01-09 08:08:56.00	3.98	9.15	-42.8	-46.2	16.1	0.00e+00	0	44	0	854589440	56	5573
2026-01-09 08:08:57.00	3.85	9.09	-42.6	-46.4	16.0	0.00e+00	0	44	0	855638016	56	5675
2026-01-09 08:08:58.01	3.72	9.04	-42.3	-46.5	15.8	0.00e+00	0	44	0	857735168	56	5740
2026-01-09 08:08:59.01	3.59	8.98	-46.7	-56.8	6.1	0.00e+00	0	44	0	859832320	64	11828
2026-01-09 08:09:00.01	3.47	8.93	-47.1	-63.4	3.8	1.49e+00	0	44	104	859832320	65	24113
2026-01-09 08:09:01.01	3.34	8.87	-47.9	-63.9	3.8	1.49e+00	0	44	104	859832320	66	23919
2026-01-09 08:09:02.02	3.21	8.81	-48.1	-63.9	3.8	1.49e+00	0	44	104	859832320	66	24110
2026-01-09 08:09:03.02	3.09	8.76	-48.4	-64.0	3.8	1.49e+00	0	44	104	859832320	67	22943
2026-01-09 08:09:04.02	2.96	8.70	-48.5	-64.1	3.8	1.49e+00	0	44	104	859832320	67	23073
2026-01-09 08:09:05.02	2.84	8.65	-48.9	-64.2	3.8	1.49e+00	0	44	104	859832320	68	22260
2026-01-09 08:09:06.03	2.71	8.59	-48.7	-64.3	3.8	1.49e+00	0	44	104	859832320	68	22304
2026-01-09 08:09:07.03	2.59	8.53	-48.7	-64.3	3.8	1.49e+00	0	44	104	859832320	68	22398
2026-01-09 08:09:08.03	2.46	8.48	-48.6	-64.3	3.8	1.49e+00	0	44	104	859832320	68	22396
2026-01-09 08:09:09.04	2.34	8.42	-49.0	-64.3	3.8	1.49e+00	0	44	104	859832320	68	22466
2026-01-09 08:09:10.04	2.22	8.36	-49.0	-64.3	3.8	1.49e+00	0	44	104	859832320	68	22493
2026-01-09 08:09:11.04	2.09	8.31	-49.0	-64.3	3.8	1.49e+00	0	44	104	859832320	68	22520
2026-01-09 08:09:12.05	1.97	8.25	-49.0	-64.3	3.8	1.49e+00	0	44	104	859832320	68	22469
2026-01-09 08:09:13.05	1.85	8.19	-49.0	-64.3	3.8	1.49e+00	0	44	104	859832320	68	22495
2026-01-09 08:09:14.05	1.73	8.14	-49.0	-64.4	3.8	1.49e+00	0	44	104	859832320	68	22531
2026-01-09 08:09:15.05	1.61	8.08	-49.1	-64.3	3.8	1.49e+00	0	44	104	859832320	68	22467
2026-01-09 08:09:16.06	1.49	8.03	-48.9	-64.3	3.8	1.49e+00	0	44	104	859832320	68	22464
2026-01-09 08:09:17.06	1.37	7.97	-48.9	-64.3	3.8	1.49e+00	0	44	104	859832320	68	22442
2026-01-09 08:09:18.06	1.25	7.91	-48.8	-64.3	3.8	1.49e+00	0	44	104	859832320	69	21251
2026-01-09 08:09:19.07	1.13	7.86	-49.0	-64.3	3.8	1.49e+00	0	44	104	859832320	69	21163
2026-01-09 08:09:20.07	1.01	7.80	-49.0	-64.4	3.8	1.49e+00	0	44	104	859832320	69	21264
2026-01-09 08:09:21.07	0.90	7.75	-49.1	-64.3	3.8	1.49e+00	0	44	104	859832320	69	21141
2026-01-09 08:09:22.08	0.78	7.69	-49.1	-64.3	3.8	1.49e+00	0	44	104	859832320	69	21130
2026-01-09 08:09:23.08	0.66	7.63	-49.1	-64.3	3.8	1.49e+00	0	44	104	859832320	69	21169
2026-01-09 08:09:24.09	0.55	7.58	-49.1	-64.3	3.8	1.49e+00	0	44	104	859832320	69	21103
2026-01-09 08:09:25.09	0.43	7.52	-49.1	-64.3	3.8	1.49e+00	0	44	104	859832320	69	21109
2026-01-09 08:09:26.09	0.32	7.46	-49.0	-64.3	3.8	1.49e+00	0	44	104	859832320	69	21103
2026-01-09 08:09:27.10	0.20	7.41	-48.8	-64.3	3.8	1.49e+00	0	44	104	859832320	69	21093
2026-01-09 08:09:28.10	0.09	7.35	-48.8	-64.3	3.8	1.49e+00	0	44	104	859832320	69	21121
2026-01-09 08:09:29.10	359.97	7.30	-48.8	-64.3	3.8	1.49e+00	0	44	104	859832320	69	21077
2026-01-09 08:09:30.11	359.86	7.24	-48.8	-64.3	3.8	1.49e+00	0	44	104	859832320	69	21093
2026-01-09 08:09:31.11	359.75	7.18	-48.8	-64.3	3.8	1.49e+00	0	44	104	859832320	69	21040
2026-01-09 08:09:32.12	359.63	7.13	-48.8	-64.3	3.8	1.49e+00	0	44	104	859832320	69	21056
2026-01-09 08:09:33.12	359.52	7.07	-48.8	-64.3	3.8	1.49e+00	0	44	104	859832320	69	21028
2026-01-09 08:09:34.13	359.41	7.01	-48.8	-64.3	3.8	1.49e+00	0	44	104	859832320	69	21081
2026-01-09 08:09:35.13	359.30	6.96	-48.8	-64.3	3.8	1.49e+00	0	44	104	859832320	69	21061
2026-01-09 08:09:36.13	359.19	6.90	-48.8	-64.3	3.8	1.49e+00	0	44	104	859832320	69	21125
2026-01-09 08:09:37.14	359.08	6.85	-48.8	-64.3	3.8	1.49e+00	0	44	104	859832320	69	21086
2026-01-09 08:09:38.14	358.97	6.79	-48.8	-64.3	3.8	1.49e+00	0	44	104	859832320	69	21047
2026-01-09 08:09:39.15	358.86	6.73	-48.8	-64.2	3.8	1.49e+00	0	44	104	859832320	69	20934
2026-01-09 08:09:40.15	358.75	6.68	-48.7	-64.3	3.8	1.49e+00	0	44	104	859832320	69	21022
2026-01-09 08:09:41.15	358.64	6.62	-48.8	-64.2	3.8	1.49e+00	0	44	104	859832320	69	20981
2026-01-09 08:09:42.16	358.53	6.57	-48.8	-64.2	3.8	1.49e+00	0	44	104	859832320	69	20993
2026-01-09 08:09:43.16	358.42	6.51	-48.8	-64.2	3.8	1.49e+00	0	44	104	859832320	69	21010
2026-01-09 08:09:44.16	358.32	6.46	-48.8	-64.2	3.8	1.49e+00	0	44	104	859832320	69	20988
2026-01-09 08:09:45.17	358.21	6.40	-48.8	-64.3	3.8	1.49e+00	0	44	104	859832320	69	21029
2026-01-09 08:09:46.17	358.10	6.34	-48.7	-64.2	3.8	1.49e+00	0	44	104	859832320	69	20986
2026-01-09 08:09:47.18	358.00	6.29	-48.8	-64.3	3.8	1.49e+00	0	44	104	859832320	69	21071
2026-01-09 08:09:48.18	357.89	6.23	-48.7	-64.2	3.8	1.49e+00	0	44	104	859832320	69	21009
2026-01-09 08:09:49.19	357.79	6.18	-48.7	-64.3	3.8	1.49e+00	0	44	104	859832320	69	21049
2026-01-09 08:09:50.19	357.68	6.12	-48.8	-64.2	3.8	1.49e+00	0	44	104	859832320	69	21006
2026-01-09 08:09:51.19	357.58	6.07	-48.7	-64.2	3.8	1.49e+00	0	44	104	859832320	69	20957
2026-01-09 08:09:52.20	357.47	6.01	-48.7	-64.2	3.8	1.49e+00	0	44	104	859832320	69	20950
2026-01-09 08:09:53.20	357.37	5.95	-48.6	-64.2	3.8	1.49e+00	0	44	104	859832320	69	20965
2026-01-09 08:09:54.21	357.27	5.90	-48.7	-64.2	3.8	1.49e+00	0	44	104	859832320	69	20928
2026-01-09 08:09:55.21	357.16	5.84	-48.7	-64.2	3.8	1.49e+00	0	44	104	859832320	69	20973
2026-01-09 08:09:56.21	357.06	5.79	-48.7	-64.3	3.8	1.49e+00	0	44	104	859832320	69	21022
2026-01-09 08:09:57.21	356.96	5.73	-48.7	-64.2	3.8	1.49e+00	0	44	104	859832320	69	20957
2026-01-09 08:09:58.22	356.86	5.68	-48.8	-64.2	3.8	1.49e+00	0	44	104	859832320	69	20948
2026-01-09 08:09:59.22	356.76	5.62	-48.7	-64.2	3.8	1.49e+00	0	44	104	859832320	69	20960
2026-01-09 08:10:00.22	356.66	5.57	-48.7	-64.2	3.8	1.49e+00	0	44	104	859832320	69	20975
2026-01-09 08:10:01.23	356.56	5.51	-48.7	-64.2	3.8	1.49e+00	0	44	104	859832320	69	20955
2026-01-09 08:10:02.23	356.46	5.46	-48.7	-64.2	3.8	1.49e+00	0	44	104	859832320	69	20976
2026-01-09 08:10:03.23	356.36	5.40	-48.7	-64.3	3.8	1.49e+00	0	44	104	859832320	69	21020
2026-01-09 08:10:04.24	356.26	5.35	-48.7	-64.2	3.8	1.49e+00	0	44	104	859832320	69	20972
2026-01-09 08:10:05.24	356.16	5.29	-48.7	-64.2	3.8	1.49e+00	0	44	104	859832320	69	21012
2026-01-09 08:10:06.24	356.06	5.24	-48.7	-64.3	3.8	1.49e+00	0	44	104	859832320	69	21038
2026-01-09 08:10:07.25	355.96	5.18	-48.7	-64.3	3.8	1.49e+00	0	44	104	859832320	69	21019
2026-01-09 08:10:08.25	355.86	5.12	-48.7	-64.2	3.8	1.49e+00	0	44	104	859832320	69	20985
2026-01-09 08:10:09.25	355.77	5.07	-48.7	-64.2	3.8	1.49e+00	0	44	104	859832320	69	20942
2026-01-09 08:10:10.26	355.67	5.01	-48.8	-64.2	3.8	1.49e+00	0	44	104	859832320	69	20930
2026-01-09 08:10:11.26	355.57	4.96	-48.7	-64.2	3.8	1.49e+00	0	44	104	859832320	69	20939

#Closed at: 2026-01-09 08:10:12
#Recorded file [859 MB]: D:/Data/31040_260109_110018.dat