passes_logs/2026/01/09/T1/T1__20260109_082007_NOAA_20_JPSS-1_rec.log

#Pass ID: 20260109_082007_NOAA 20 (JPSS-1)
#Satellite: NOAA 20 (JPSS-1)
#Configuration: NOAA 20
#almurnet v.1.7.20251203
#Start time: 2026-01-09 08:20:07

#Version: 2.0.20230620
#Station: T1
#Location: 37.570604 lon 55.790049 lat
#TLE: 1 43013U 17073A   26008.42245989  .00000120  00000+0  77990-4 0  9996
#TLE: 2 43013  98.7631 309.4315 0001737  48.7960 311.3365 14.19534455421802

#Time	Az	El	Level	Level2	SNR	BER	BlckErr	Temp	State	Recorded	gain1	gain2
2026-01-09 08:20:07.64	109.80	4.98	-46.8	-63.0	3.8	1.49e+00	0	40	0	0	65	23023
2026-01-09 08:20:08.64	109.72	5.05	-46.6	-63.0	3.9	1.49e+00	0	40	104	0	64	24370
2026-01-09 08:20:09.64	109.64	5.11	-46.4	-63.0	3.8	1.49e+00	0	40	104	0	64	24259
2026-01-09 08:20:10.64	109.56	5.17	-46.3	-63.0	3.8	1.50e+00	0	40	104	0	64	24342
2026-01-09 08:20:11.65	109.48	5.23	-46.4	-63.1	3.8	1.49e+00	0	40	104	0	63	26072
2026-01-09 08:20:12.65	109.40	5.29	-46.4	-63.1	3.8	1.49e+00	0	40	104	0	63	26045
2026-01-09 08:20:13.65	109.31	5.35	-46.4	-63.1	3.9	1.49e+00	0	40	104	0	64	24452
2026-01-09 08:20:14.65	109.23	5.41	-48.1	-63.3	3.8	1.49e+00	0	40	104	0	66	22313
2026-01-09 08:20:15.66	109.15	5.48	-48.1	-63.3	3.8	1.49e+00	0	41	104	0	66	22265
2026-01-09 08:20:16.66	109.07	5.54	-48.1	-63.3	3.8	1.49e+00	0	40	104	0	66	22333
2026-01-09 08:20:17.66	108.98	5.60	-48.1	-63.3	3.8	1.49e+00	0	40	104	0	66	22276
2026-01-09 08:20:18.67	108.90	5.66	-48.1	-63.3	3.8	1.49e+00	0	41	104	0	66	22278
2026-01-09 08:20:19.67	108.82	5.72	-48.1	-63.2	3.8	1.49e+00	0	41	104	0	66	22256
2026-01-09 08:20:20.67	108.73	5.79	-48.1	-63.2	3.8	1.49e+00	0	41	104	0	66	22117
2026-01-09 08:20:21.68	108.65	5.85	-48.0	-63.2	3.8	1.49e+00	0	41	104	0	66	22061
2026-01-09 08:20:22.68	108.56	5.91	-48.0	-63.2	3.8	1.49e+00	0	41	104	0	66	22052
2026-01-09 08:20:23.68	108.48	5.97	-48.0	-63.2	3.8	1.49e+00	0	41	104	0	66	22012
2026-01-09 08:20:24.69	108.39	6.04	-48.0	-63.1	3.8	1.49e+00	0	41	104	0	66	21961
2026-01-09 08:20:25.69	108.30	6.10	-48.0	-63.1	3.8	1.49e+00	0	41	104	0	66	21803
2026-01-09 08:20:26.69	108.22	6.16	-47.9	-63.1	3.8	1.49e+00	0	41	104	0	66	21789
2026-01-09 08:20:27.70	108.13	6.23	-48.0	-63.1	3.8	1.49e+00	0	41	104	0	66	21827
2026-01-09 08:20:28.70	108.04	6.29	-48.0	-63.1	3.8	1.49e+00	0	41	104	0	66	21865
2026-01-09 08:20:29.70	107.95	6.35	-48.0	-63.1	3.8	1.49e+00	0	41	104	0	66	21953
2026-01-09 08:20:30.71	107.87	6.42	-48.0	-63.1	3.8	1.49e+00	0	41	104	0	66	21867
2026-01-09 08:20:31.71	107.78	6.48	-48.0	-63.1	3.8	1.49e+00	0	41	104	0	66	21931
2026-01-09 08:20:32.71	107.69	6.54	-48.1	-63.1	3.8	1.49e+00	0	41	104	0	66	21989
2026-01-09 08:20:33.71	107.60	6.61	-48.1	-63.2	3.8	1.49e+00	0	41	104	0	66	22069
2026-01-09 08:20:34.72	107.51	6.67	-48.1	-63.2	3.8	1.49e+00	0	41	104	0	66	22040
2026-01-09 08:20:35.72	107.42	6.73	-48.1	-63.1	3.8	1.49e+00	0	41	104	0	66	21786
2026-01-09 08:20:36.72	107.33	6.80	-48.0	-62.9	3.8	1.49e+00	0	41	104	0	66	21502
2026-01-09 08:20:37.73	107.24	6.86	-47.9	-62.9	3.8	1.49e+00	0	41	104	0	66	21371
2026-01-09 08:20:38.73	107.15	6.92	-47.8	-62.8	3.9	1.49e+00	0	41	104	0	66	21160
2026-01-09 08:20:39.73	107.05	6.99	-47.8	-62.8	3.8	1.49e+00	0	41	104	0	66	21228
2026-01-09 08:20:40.74	106.96	7.05	-47.9	-62.9	3.8	1.49e+00	0	41	104	0	66	21434
2026-01-09 08:20:41.74	106.87	7.12	-48.0	-63.0	3.8	1.49e+00	0	42	104	0	66	21695
2026-01-09 08:20:42.74	106.78	7.18	-48.1	-63.1	3.8	1.49e+00	0	41	104	0	66	21766
2026-01-09 08:20:43.75	106.68	7.25	-48.1	-63.1	3.8	1.49e+00	0	41	104	0	66	21974
2026-01-09 08:20:44.75	106.59	7.31	-48.1	-63.1	3.8	1.49e+00	0	41	104	0	66	21987
2026-01-09 08:20:45.75	106.49	7.37	-48.1	-63.1	3.8	1.49e+00	0	41	104	0	66	21793
2026-01-09 08:20:46.75	106.40	7.44	-48.1	-62.9	3.8	1.49e+00	0	41	104	0	66	21270
2026-01-09 08:20:47.75	106.31	7.50	-48.1	-62.5	3.8	1.49e+00	0	41	104	0	66	20331
2026-01-09 08:20:48.75	106.21	7.57	-48.0	-61.9	3.8	1.49e+00	0	41	104	0	66	19133
2026-01-09 08:20:49.76	106.11	7.63	-48.0	-61.4	3.8	1.49e+00	0	41	104	0	66	17916
2026-01-09 08:20:50.76	106.02	7.70	-48.0	-60.9	3.8	1.49e+00	0	42	104	0	66	16994
2026-01-09 08:20:51.76	105.92	7.76	-48.0	-60.6	4.0	1.47e+00	0	42	104	0	66	16475
2026-01-09 08:20:52.77	105.82	7.83	-48.0	-60.9	3.8	1.48e+00	0	41	104	0	66	16941
2026-01-09 08:20:53.77	105.72	7.89	-48.0	-61.5	3.8	1.49e+00	0	41	104	0	66	18201
2026-01-09 08:20:54.77	105.63	7.96	-48.0	-61.9	3.8	1.49e+00	0	41	104	0	66	18994
2026-01-09 08:20:55.77	105.53	8.02	-48.0	-60.9	3.8	1.49e+00	0	42	104	0	66	16942
2026-01-09 08:20:56.78	105.43	8.09	-47.7	-58.3	4.7	1.34e+00	0	42	0	0	66	12627
2026-01-09 08:20:57.78	105.33	8.16	-47.3	-55.4	6.6	5.12e-01	0	42	0	2097152	66	9033
2026-01-09 08:20:58.78	105.23	8.22	-46.7	-53.3	8.7	6.04e-02	0	42	0	4194304	65	7463
2026-01-09 08:20:59.79	105.13	8.29	-46.1	-51.5	10.5	9.49e-03	0	42	0	5242880	64	6440
2026-01-09 08:21:00.79	105.03	8.35	-45.5	-50.1	12.1	1.14e-03	0	42	0	7340032	63	5800
2026-01-09 08:21:01.79	104.93	8.42	-45.1	-49.4	12.8	7.40e-05	0	42	0	9437184	62	5658
2026-01-09 08:21:02.79	104.82	8.49	-44.9	-48.9	13.3	2.21e-05	0	42	0	11534336	61	5695
2026-01-09 08:21:03.80	104.72	8.55	-44.8	-48.7	13.4	1.14e-05	0	42	0	13631488	61	5588
2026-01-09 08:21:04.80	104.62	8.62	-45.0	-49.1	13.0	1.44e-05	0	42	0	14680064	61	5847
2026-01-09 08:21:05.80	104.51	8.68	-45.4	-50.0	12.2	1.40e-04	0	42	0	16777216	61	6437
2026-01-09 08:21:06.81	104.41	8.75	-46.1	-51.4	10.8	1.13e-03	0	42	0	18874368	62	7124
2026-01-09 08:21:07.81	104.31	8.82	-46.6	-53.1	8.8	1.01e-02	0	42	0	20971520	64	7780
2026-01-09 08:21:08.81	104.20	8.88	-47.2	-55.3	6.8	1.34e-01	0	42	0	23068672	65	9442
2026-01-09 08:21:09.81	104.10	8.95	-47.6	-57.7	5.0	4.68e-01	0	42	0	24117248	65	12443
2026-01-09 08:21:10.82	103.99	9.02	-47.9	-60.2	4.1	1.19e+00	0	42	0	26214400	66	15700
2026-01-09 08:21:11.82	103.88	9.08	-47.4	-55.6	6.5	1.49e+00	0	42	104	26214400	66	9204
2026-01-09 08:21:12.82	103.78	9.15	-47.6	-57.1	5.5	3.89e-01	0	42	0	27262976	66	10907
2026-01-09 08:21:13.82	103.67	9.22	-48.0	-62.6	3.8	1.16e+00	0	42	104	28311552	66	20736
2026-01-09 08:21:14.82	103.56	9.28	-46.6	-52.6	9.2	1.49e+00	0	42	104	28311552	65	6922
2026-01-09 08:21:15.82	103.45	9.35	-48.1	-61.6	3.8	8.38e-01	0	42	104	29360128	66	18316
2026-01-09 08:21:16.83	103.35	9.42	-46.8	-53.4	8.4	1.06e+00	0	42	0	29360128	65	7557
2026-01-09 08:21:17.83	103.24	9.49	-46.0	-51.1	11.0	6.32e-03	0	42	0	31457280	64	6158
2026-01-09 08:21:18.83	103.13	9.55	-45.5	-49.9	12.4	5.98e-04	0	42	0	32505856	63	5677
2026-01-09 08:21:19.84	103.02	9.62	-45.1	-49.2	13.1	4.95e-05	0	42	0	34603008	62	5560
2026-01-09 08:21:20.84	102.90	9.69	-45.0	-49.1	13.3	2.89e-05	0	42	0	36700160	62	5483
2026-01-09 08:21:21.84	102.79	9.76	-45.1	-49.2	13.2	1.98e-05	0	42	0	38797312	62	5539
2026-01-09 08:21:22.84	102.68	9.82	-45.0	-49.1	13.3	1.22e-05	0	42	0	40894464	62	5471
2026-01-09 08:21:23.84	102.57	9.89	-44.8	-48.6	13.7	1.90e-05	0	42	0	41943040	61	5525
2026-01-09 08:21:24.84	102.46	9.96	-44.7	-48.5	13.9	4.50e-06	0	42	0	44040192	61	5445
2026-01-09 08:21:25.85	102.34	10.03	-44.7	-48.5	13.8	6.10e-06	0	42	0	46137344	61	5462
2026-01-09 08:21:26.85	102.23	10.10	-44.6	-48.3	14.1	4.50e-06	0	42	0	48234496	61	5321
2026-01-09 08:21:27.85	102.11	10.16	-44.6	-48.3	14.1	3.00e-06	0	42	0	50331648	61	5297
2026-01-09 08:21:28.85	102.00	10.23	-44.5	-48.2	14.2	1.50e-06	0	42	0	51380224	61	5243
2026-01-09 08:21:29.85	101.88	10.30	-44.4	-48.0	14.4	7.00e-07	0	42	0	53477376	60	5463
2026-01-09 08:21:30.85	101.77	10.37	-44.4	-48.0	14.4	0.00e+00	0	42	0	55574528	60	5438
2026-01-09 08:21:31.85	101.65	10.44	-44.3	-47.9	14.6	7.00e-07	0	42	0	57671680	60	5349
2026-01-09 08:21:32.85	101.53	10.50	-44.3	-47.9	14.6	0.00e+00	0	42	0	58720256	60	5353
2026-01-09 08:21:33.85	101.42	10.57	-44.4	-47.9	14.5	0.00e+00	0	42	0	60817408	60	5392
2026-01-09 08:21:34.86	101.30	10.64	-44.3	-47.8	14.6	0.00e+00	0	42	0	62914560	60	5319
2026-01-09 08:21:35.86	101.18	10.71	-44.4	-47.9	14.6	0.00e+00	0	42	0	65011712	60	5372
2026-01-09 08:21:36.86	101.06	10.78	-44.4	-47.9	14.6	0.00e+00	0	42	0	67108864	60	5367
2026-01-09 08:21:37.86	100.94	10.85	-44.3	-47.9	14.6	0.00e+00	0	42	0	68157440	60	5346
2026-01-09 08:21:38.86	100.82	10.92	-44.4	-47.9	14.6	7.00e-07	0	42	0	70254592	60	5365
2026-01-09 08:21:39.87	100.70	10.99	-44.4	-47.9	14.6	0.00e+00	0	42	0	72351744	60	5363
2026-01-09 08:21:40.87	100.58	11.06	-44.3	-47.8	14.6	0.00e+00	0	42	0	74448896	60	5330
2026-01-09 08:21:41.87	100.45	11.12	-44.3	-47.8	14.7	0.00e+00	0	42	0	76546048	60	5283
2026-01-09 08:21:42.87	100.33	11.19	-44.1	-47.5	15.0	0.00e+00	0	42	0	77594624	60	5133
2026-01-09 08:21:43.87	100.21	11.26	-44.2	-47.6	14.9	0.00e+00	0	42	0	79691776	60	5184
2026-01-09 08:21:44.87	100.08	11.33	-44.2	-47.6	14.9	0.00e+00	0	42	0	81788928	60	5203
2026-01-09 08:21:45.87	99.96	11.40	-44.2	-47.6	14.9	0.00e+00	0	42	0	83886080	60	5187
2026-01-09 08:21:46.87	99.83	11.47	-44.2	-47.6	14.9	0.00e+00	0	42	0	84934656	60	5191
2026-01-09 08:21:47.87	99.71	11.54	-44.1	-47.5	15.0	0.00e+00	0	42	0	87031808	60	5108
2026-01-09 08:21:48.87	99.58	11.61	-44.0	-47.3	15.2	0.00e+00	0	42	0	89128960	60	5038
2026-01-09 08:21:49.88	99.45	11.68	-44.0	-47.4	15.1	0.00e+00	0	42	0	91226112	60	5051
2026-01-09 08:21:50.88	99.32	11.75	-44.1	-47.4	15.1	0.00e+00	0	42	0	93323264	60	5093
2026-01-09 08:21:51.88	99.20	11.82	-44.1	-47.5	15.1	0.00e+00	0	42	0	94371840	60	5104
2026-01-09 08:21:52.88	99.07	11.89	-44.0	-47.2	15.3	0.00e+00	0	42	0	96468992	59	5258
2026-01-09 08:21:53.88	98.94	11.96	-43.9	-47.2	15.3	0.00e+00	0	42	0	98566144	59	5234
2026-01-09 08:21:54.89	98.81	12.03	-44.0	-47.3	15.2	0.00e+00	0	42	0	100663296	59	5302
2026-01-09 08:21:55.89	98.68	12.10	-44.1	-47.4	15.1	0.00e+00	0	42	0	102760448	59	5367
2026-01-09 08:21:56.89	98.54	12.17	-44.0	-47.2	15.3	0.00e+00	0	42	0	103809024	59	5260
2026-01-09 08:21:57.89	98.41	12.24	-43.8	-47.0	15.5	0.00e+00	0	42	0	105906176	59	5131
2026-01-09 08:21:58.90	98.28	12.31	-43.7	-46.8	15.7	0.00e+00	0	42	0	108003328	59	5006
2026-01-09 08:21:59.90	98.15	12.38	-43.6	-46.7	15.9	0.00e+00	0	42	0	110100480	59	4940
2026-01-09 08:22:00.90	98.01	12.45	-43.5	-46.6	16.0	0.00e+00	0	42	0	112197632	59	4880
2026-01-09 08:22:01.91	97.88	12.52	-43.6	-46.7	15.8	0.00e+00	0	42	0	113246208	59	4942
2026-01-09 08:22:02.90	97.74	12.59	-43.8	-46.9	15.7	0.00e+00	0	42	0	115343360	59	5075
2026-01-09 08:22:03.90	97.61	12.66	-43.7	-46.8	15.7	0.00e+00	0	42	0	117440512	59	5024
2026-01-09 08:22:04.91	97.47	12.73	-43.8	-46.9	15.6	0.00e+00	0	42	0	119537664	59	5100
2026-01-09 08:22:05.91	97.33	12.80	-43.7	-46.8	15.7	7.00e-07	0	42	0	121634816	59	5025
2026-01-09 08:22:06.91	97.19	12.87	-43.6	-46.7	15.9	0.00e+00	0	42	0	122683392	59	4953
2026-01-09 08:22:07.91	97.05	12.94	-43.6	-46.7	15.8	0.00e+00	0	42	0	124780544	59	4957
2026-01-09 08:22:08.91	96.91	13.01	-43.7	-46.8	15.8	0.00e+00	0	42	0	126877696	59	5001
2026-01-09 08:22:09.91	96.78	13.08	-43.8	-47.0	15.6	0.00e+00	0	42	0	128974848	59	5102
2026-01-09 08:22:10.91	96.63	13.15	-43.9	-47.0	15.6	0.00e+00	0	42	0	130023424	59	5142
2026-01-09 08:22:11.92	96.49	13.22	-43.8	-46.9	15.6	0.00e+00	0	42	0	132120576	59	5084
2026-01-09 08:22:12.92	96.35	13.29	-43.8	-46.9	15.7	0.00e+00	0	42	0	134217728	59	5059
2026-01-09 08:22:13.92	96.21	13.36	-43.7	-46.8	15.8	0.00e+00	0	42	0	136314880	59	5014
2026-01-09 08:22:14.92	96.06	13.44	-43.8	-46.8	15.7	0.00e+00	0	42	0	138412032	59	5040
2026-01-09 08:22:15.92	95.92	13.51	-43.8	-47.0	15.6	0.00e+00	0	42	0	139460608	59	5101
2026-01-09 08:22:16.93	95.77	13.58	-43.9	-47.0	15.6	0.00e+00	0	42	0	141557760	59	5143
2026-01-09 08:22:17.93	95.63	13.65	-43.9	-47.1	15.5	0.00e+00	0	42	0	143654912	59	5189
2026-01-09 08:22:18.93	95.48	13.72	-43.9	-47.0	15.6	0.00e+00	0	42	0	145752064	59	5131
2026-01-09 08:22:19.94	95.33	13.79	-43.8	-47.0	15.6	0.00e+00	0	42	0	147849216	59	5104
2026-01-09 08:22:20.94	95.19	13.86	-43.7	-46.8	15.8	0.00e+00	0	42	0	148897792	59	5001
2026-01-09 08:22:21.94	95.04	13.93	-43.8	-46.9	15.7	0.00e+00	0	42	0	150994944	59	5057
2026-01-09 08:22:22.94	94.89	14.00	-43.9	-47.1	15.6	0.00e+00	0	42	0	153092096	59	5160
2026-01-09 08:22:23.94	94.74	14.07	-43.9	-47.1	15.5	0.00e+00	0	42	0	155189248	59	5183
2026-01-09 08:22:24.94	94.59	14.14	-44.0	-47.2	15.4	0.00e+00	0	42	0	157286400	59	5255
2026-01-09 08:22:25.94	94.44	14.21	-44.0	-47.2	15.4	0.00e+00	0	42	0	158334976	59	5250
2026-01-09 08:22:26.94	94.29	14.29	-44.0	-47.2	15.4	0.00e+00	0	42	0	160432128	59	5228
2026-01-09 08:22:27.94	94.13	14.36	-44.1	-47.3	15.3	0.00e+00	0	42	0	162529280	59	5329
2026-01-09 08:22:28.95	93.98	14.43	-44.1	-47.3	15.3	0.00e+00	0	42	0	164626432	59	5322
2026-01-09 08:22:29.94	93.83	14.50	-44.1	-47.4	15.2	0.00e+00	0	42	0	166723584	59	5356
2026-01-09 08:22:30.95	93.67	14.57	-44.2	-47.4	15.2	0.00e+00	0	42	0	167772160	59	5389
2026-01-09 08:22:31.95	93.51	14.64	-44.1	-47.3	15.3	0.00e+00	0	42	0	169869312	59	5323
2026-01-09 08:22:32.95	93.36	14.71	-44.1	-47.4	15.2	0.00e+00	0	42	0	171966464	59	5375
2026-01-09 08:22:33.96	93.20	14.78	-44.2	-47.5	15.1	0.00e+00	0	42	0	174063616	59	5427
2026-01-09 08:22:34.96	93.04	14.85	-44.4	-47.8	14.8	7.00e-07	0	42	0	175112192	59	5642
2026-01-09 08:22:35.96	92.88	14.92	-44.3	-47.7	14.9	0.00e+00	0	42	0	177209344	59	5530
2026-01-09 08:22:36.96	92.72	14.99	-44.2	-47.5	15.2	0.00e+00	0	42	0	179306496	59	5408
2026-01-09 08:22:37.96	92.56	15.07	-44.1	-47.4	15.3	0.00e+00	0	42	0	181403648	59	5362
2026-01-09 08:22:38.96	92.40	15.14	-44.1	-47.4	15.3	0.00e+00	0	42	0	183500800	59	5341
2026-01-09 08:22:39.97	92.24	15.21	-44.1	-47.4	15.2	0.00e+00	0	42	0	184549376	59	5386
2026-01-09 08:22:40.97	92.08	15.28	-44.2	-47.5	15.1	0.00e+00	0	42	0	186646528	59	5454
2026-01-09 08:22:41.96	91.91	15.35	-44.4	-47.7	14.9	0.00e+00	0	42	0	188743680	59	5586
2026-01-09 08:22:42.97	91.75	15.42	-44.3	-47.7	14.9	0.00e+00	0	42	0	190840832	59	5547
2026-01-09 08:22:43.97	91.58	15.49	-44.4	-47.9	14.8	0.00e+00	0	42	0	192937984	59	5673
2026-01-09 08:22:44.97	91.42	15.56	-44.4	-47.8	14.9	0.00e+00	0	42	0	193986560	59	5618
2026-01-09 08:22:45.97	91.25	15.63	-44.4	-47.9	14.8	7.00e-07	0	42	0	196083712	59	5673
2026-01-09 08:22:46.96	91.09	15.70	-44.5	-48.0	14.7	7.00e-07	0	42	0	198180864	59	5763
2026-01-09 08:22:47.96	90.92	15.77	-44.5	-48.1	14.6	0.00e+00	0	42	0	200278016	59	5800
2026-01-09 08:22:48.97	90.75	15.84	-44.4	-48.0	14.7	0.00e+00	0	42	0	202375168	59	5725
2026-01-09 08:22:49.97	90.58	15.91	-44.3	-47.8	14.8	0.00e+00	0	42	0	203423744	59	5609
2026-01-09 08:22:50.97	90.41	15.98	-44.1	-47.5	15.2	7.00e-07	0	42	0	205520896	59	5429
2026-01-09 08:22:51.97	90.24	16.05	-44.2	-47.7	14.9	7.00e-07	0	42	0	207618048	59	5546
2026-01-09 08:22:52.97	90.06	16.12	-44.3	-47.7	14.9	0.00e+00	0	42	0	209715200	59	5572
2026-01-09 08:22:53.97	89.89	16.19	-44.2	-47.6	15.1	0.00e+00	0	42	0	210763776	59	5483
2026-01-09 08:22:54.98	89.72	16.26	-44.1	-47.5	15.1	0.00e+00	0	42	0	212860928	59	5439
2026-01-09 08:22:55.98	89.54	16.33	-44.1	-47.5	15.1	0.00e+00	0	42	0	214958080	59	5444
2026-01-09 08:22:56.98	89.37	16.40	-44.1	-47.5	15.2	0.00e+00	0	42	0	217055232	59	5409
2026-01-09 08:22:57.98	89.19	16.47	-44.1	-47.4	15.2	0.00e+00	0	42	0	219152384	59	5393
2026-01-09 08:22:58.98	89.01	16.54	-44.0	-47.4	15.3	0.00e+00	0	42	0	220200960	59	5356
2026-01-09 08:22:59.98	88.84	16.61	-44.0	-47.3	15.4	0.00e+00	0	42	0	222298112	59	5280
2026-01-09 08:23:00.98	88.66	16.68	-44.0	-47.3	15.4	0.00e+00	0	42	0	224395264	59	5280
2026-01-09 08:23:01.99	88.48	16.75	-44.0	-47.3	15.4	0.00e+00	0	42	0	226492416	59	5309
2026-01-09 08:23:02.99	88.30	16.82	-43.9	-47.1	15.6	0.00e+00	0	42	0	228589568	59	5183
2026-01-09 08:23:03.99	88.11	16.89	-43.8	-46.9	15.7	0.00e+00	0	42	0	229638144	59	5096
2026-01-09 08:23:04.99	87.93	16.96	-43.8	-46.9	15.7	0.00e+00	0	42	0	231735296	59	5075
2026-01-09 08:23:05.99	87.75	17.03	-43.7	-46.8	15.8	0.00e+00	0	42	0	233832448	59	5040
2026-01-09 08:23:07.00	87.56	17.10	-43.6	-46.7	16.0	0.00e+00	0	42	0	235929600	59	4958
2026-01-09 08:23:08.00	87.38	17.17	-43.5	-46.6	16.1	0.00e+00	0	42	0	238026752	59	4872
2026-01-09 08:23:09.00	87.19	17.24	-43.5	-46.6	16.1	0.00e+00	0	42	0	239075328	59	4897
2026-01-09 08:23:10.00	87.01	17.30	-43.3	-46.3	16.3	0.00e+00	0	42	0	241172480	58	5032
2026-01-09 08:23:11.00	86.82	17.37	-43.4	-46.4	16.3	0.00e+00	0	42	0	243269632	58	5074
2026-01-09 08:23:12.00	86.63	17.44	-43.2	-46.2	16.4	0.00e+00	0	42	0	245366784	58	4972
2026-01-09 08:23:13.00	86.44	17.51	-43.1	-46.1	16.6	0.00e+00	0	42	0	247463936	58	4878
2026-01-09 08:23:14.00	86.25	17.58	-43.0	-45.9	16.8	0.00e+00	0	42	0	248512512	58	4761
2026-01-09 08:23:15.00	86.06	17.65	-42.9	-45.8	16.9	0.00e+00	0	42	0	250609664	57	4989
2026-01-09 08:23:16.01	85.87	17.71	-42.9	-45.8	16.9	0.00e+00	0	42	0	252706816	57	5029
2026-01-09 08:23:17.01	85.68	17.78	-42.7	-45.5	17.1	0.00e+00	0	42	0	254803968	57	4870
2026-01-09 08:23:18.01	85.49	17.85	-42.6	-45.4	17.3	0.00e+00	0	42	0	255852544	57	4764
2026-01-09 08:23:19.01	85.29	17.92	-42.6	-45.3	17.3	0.00e+00	0	42	0	257949696	57	4755
2026-01-09 08:23:20.01	85.10	17.98	-42.5	-45.2	17.4	0.00e+00	0	42	0	260046848	57	4701
2026-01-09 08:23:21.01	84.90	18.05	-42.4	-45.2	17.5	0.00e+00	0	42	0	262144000	56	4940
2026-01-09 08:23:22.01	84.70	18.12	-42.3	-45.1	17.6	0.00e+00	0	42	0	264241152	56	4876
2026-01-09 08:23:23.01	84.51	18.18	-42.4	-45.2	17.5	0.00e+00	0	42	0	265289728	56	4933
2026-01-09 08:23:24.01	84.31	18.25	-42.3	-45.0	17.6	0.00e+00	0	42	0	267386880	56	4848
2026-01-09 08:23:25.01	84.11	18.32	-42.4	-45.1	17.6	0.00e+00	0	42	0	269484032	56	4885
2026-01-09 08:23:26.02	83.91	18.38	-42.2	-44.9	17.8	0.00e+00	0	42	0	271581184	56	4760
2026-01-09 08:23:27.02	83.71	18.45	-42.1	-44.7	17.9	0.00e+00	0	42	0	273678336	56	4696
2026-01-09 08:23:28.02	83.50	18.52	-42.2	-44.8	17.9	0.00e+00	0	42	0	274726912	56	4711
2026-01-09 08:23:29.03	83.30	18.58	-42.0	-44.6	18.0	0.00e+00	0	42	0	276824064	56	4641
2026-01-09 08:23:30.03	83.10	18.65	-42.1	-44.6	18.0	0.00e+00	0	42	0	278921216	56	4642
2026-01-09 08:23:31.03	82.89	18.71	-42.1	-44.7	18.0	0.00e+00	0	42	0	281018368	56	4675
2026-01-09 08:23:32.03	82.69	18.78	-42.0	-44.5	18.2	0.00e+00	0	42	0	283115520	56	4590
2026-01-09 08:23:33.03	82.48	18.84	-42.1	-44.6	18.0	0.00e+00	0	42	0	284164096	56	4644
2026-01-09 08:23:34.04	82.27	18.91	-42.0	-44.6	18.1	0.00e+00	0	42	0	286261248	56	4606
2026-01-09 08:23:35.04	82.06	18.97	-41.8	-44.3	18.2	0.00e+00	0	42	0	288358400	55	4750
2026-01-09 08:23:36.04	81.85	19.04	-41.7	-44.2	18.3	0.00e+00	0	42	0	290455552	55	4676
2026-01-09 08:23:37.04	81.64	19.10	-41.7	-44.2	18.3	0.00e+00	0	42	0	292552704	55	4691
2026-01-09 08:23:38.05	81.43	19.17	-41.7	-44.2	18.3	0.00e+00	0	42	0	293601280	55	4665
2026-01-09 08:23:39.05	81.22	19.23	-41.6	-44.1	18.4	0.00e+00	0	42	0	295698432	55	4610
2026-01-09 08:23:40.05	81.01	19.29	-41.7	-44.2	18.3	0.00e+00	0	42	0	297795584	55	4661
2026-01-09 08:23:41.05	80.79	19.35	-41.7	-44.1	18.4	0.00e+00	0	42	0	299892736	55	4634
2026-01-09 08:23:42.05	80.58	19.42	-41.6	-44.0	18.5	0.00e+00	0	42	0	300941312	55	4568
2026-01-09 08:23:43.06	80.36	19.48	-41.6	-44.0	18.5	0.00e+00	0	42	0	303038464	55	4586
2026-01-09 08:23:44.06	80.15	19.54	-41.7	-44.1	18.4	0.00e+00	0	42	0	305135616	55	4612
2026-01-09 08:23:45.06	79.93	19.60	-41.7	-44.1	18.4	0.00e+00	0	42	0	307232768	55	4612
2026-01-09 08:23:46.07	79.71	19.67	-41.8	-44.3	18.3	0.00e+00	0	42	0	309329920	55	4718
2026-01-09 08:23:47.07	79.49	19.73	-41.8	-44.2	18.3	0.00e+00	0	42	0	310378496	55	4685
2026-01-09 08:23:48.07	79.27	19.79	-41.8	-44.3	18.2	0.00e+00	0	42	0	312475648	55	4737
2026-01-09 08:23:49.07	79.05	19.85	-41.9	-44.4	18.2	0.00e+00	0	42	0	314572800	55	4760
2026-01-09 08:23:50.07	78.83	19.91	-41.8	-44.4	18.2	0.00e+00	0	42	0	316669952	55	4760
2026-01-09 08:23:51.08	78.60	19.97	-41.8	-44.3	18.2	0.00e+00	0	42	0	318767104	55	4727
2026-01-09 08:23:52.08	78.38	20.03	-41.8	-44.3	18.2	0.00e+00	0	42	0	319815680	55	4747
2026-01-09 08:23:53.08	78.16	20.09	-42.0	-44.5	18.1	0.00e+00	0	42	0	321912832	55	4844
2026-01-09 08:23:54.08	77.93	20.15	-42.0	-44.5	18.0	0.00e+00	0	42	0	324009984	55	4823
2026-01-09 08:23:55.08	77.71	20.21	-42.0	-44.5	18.1	0.00e+00	0	42	0	326107136	55	4828
2026-01-09 08:23:56.08	77.48	20.27	-42.1	-44.6	17.9	0.00e+00	0	42	0	328204288	55	4905
2026-01-09 08:23:57.09	77.25	20.33	-42.1	-44.6	17.9	0.00e+00	0	42	0	329252864	55	4925
2026-01-09 08:23:58.08	77.02	20.38	-42.1	-44.7	17.9	0.00e+00	0	42	0	331350016	55	4948
2026-01-09 08:23:59.08	76.80	20.44	-42.0	-44.5	18.0	0.00e+00	0	42	0	333447168	55	4844
2026-01-09 08:24:00.08	76.57	20.50	-41.9	-44.4	18.1	0.00e+00	0	42	0	335544320	55	4791
2026-01-09 08:24:01.09	76.33	20.55	-41.9	-44.3	18.2	0.00e+00	0	42	0	336592896	55	4752
2026-01-09 08:24:02.09	76.10	20.61	-41.8	-44.3	18.3	0.00e+00	0	42	0	338690048	55	4732
2026-01-09 08:24:03.09	75.87	20.67	-41.8	-44.3	18.3	0.00e+00	0	42	0	340787200	55	4710
2026-01-09 08:24:04.09	75.63	20.72	-41.7	-44.2	18.4	0.00e+00	0	42	0	342884352	55	4655
2026-01-09 08:24:05.10	75.40	20.78	-41.8	-44.3	18.3	0.00e+00	0	42	0	344981504	55	4706
2026-01-09 08:24:06.10	75.16	20.83	-41.7	-44.2	18.4	0.00e+00	0	42	0	346030080	55	4670
2026-01-09 08:24:07.10	74.93	20.89	-41.6	-44.0	18.5	0.00e+00	0	42	0	348127232	55	4597
2026-01-09 08:24:08.10	74.69	20.94	-41.5	-43.8	18.7	0.00e+00	0	42	0	350224384	54	4742
2026-01-09 08:24:09.10	74.45	21.00	-41.3	-43.6	18.9	0.00e+00	0	42	0	352321536	54	4629
2026-01-09 08:24:10.11	74.21	21.05	-41.3	-43.6	18.9	0.00e+00	0	42	0	354418688	54	4650
2026-01-09 08:24:11.11	73.97	21.10	-41.3	-43.6	18.9	0.00e+00	0	42	0	355467264	54	4645
2026-01-09 08:24:12.11	73.73	21.15	-41.4	-43.8	18.8	0.00e+00	0	42	0	357564416	54	4709
2026-01-09 08:24:13.11	73.49	21.21	-41.4	-43.8	18.7	0.00e+00	0	42	0	359661568	54	4732
2026-01-09 08:24:14.11	73.25	21.26	-41.4	-43.8	18.8	0.00e+00	0	42	0	361758720	54	4707
2026-01-09 08:24:15.11	73.01	21.31	-41.5	-43.8	18.7	0.00e+00	0	42	0	363855872	54	4750
2026-01-09 08:24:16.12	72.76	21.36	-41.4	-43.8	18.8	0.00e+00	0	42	0	364904448	54	4707
2026-01-09 08:24:17.12	72.52	21.41	-41.3	-43.7	18.8	0.00e+00	0	42	0	367001600	54	4661
2026-01-09 08:24:18.13	72.27	21.46	-41.2	-43.5	19.0	0.00e+00	0	42	0	369098752	54	4596
2026-01-09 08:24:19.13	72.02	21.51	-41.2	-43.5	19.0	0.00e+00	0	42	0	371195904	54	4554
2026-01-09 08:24:20.13	71.78	21.56	-41.1	-43.4	19.1	0.00e+00	0	42	0	373293056	54	4530
2026-01-09 08:24:21.13	71.53	21.61	-41.2	-43.4	19.1	0.00e+00	0	42	0	374341632	54	4537
2026-01-09 08:24:22.13	71.28	21.66	-41.3	-43.6	18.9	0.00e+00	0	42	0	376438784	54	4617
2026-01-09 08:24:23.13	71.03	21.70	-41.2	-43.5	19.0	0.00e+00	0	42	0	378535936	54	4574
2026-01-09 08:24:24.13	70.78	21.75	-41.1	-43.4	19.1	0.00e+00	0	42	0	380633088	54	4537
2026-01-09 08:24:25.14	70.53	21.80	-41.1	-43.4	19.1	0.00e+00	0	42	0	381681664	54	4522
2026-01-09 08:24:26.14	70.28	21.84	-41.2	-43.5	19.1	0.00e+00	0	42	0	383778816	54	4551
2026-01-09 08:24:27.14	70.03	21.89	-41.1	-43.4	19.2	0.00e+00	0	42	0	385875968	54	4502
2026-01-09 08:24:28.14	69.78	21.93	-41.3	-43.6	19.0	0.00e+00	0	42	0	387973120	54	4623
2026-01-09 08:24:29.14	69.52	21.98	-41.3	-43.6	19.0	0.00e+00	0	42	0	390070272	54	4623
2026-01-09 08:24:30.14	69.27	22.02	-41.4	-43.7	18.8	0.00e+00	0	42	0	391118848	54	4702
2026-01-09 08:24:31.15	69.01	22.07	-41.5	-43.9	18.7	0.00e+00	0	42	0	393216000	54	4778
2026-01-09 08:24:32.15	68.76	22.11	-41.4	-43.8	18.8	0.00e+00	0	42	0	395313152	54	4731
2026-01-09 08:24:33.15	68.50	22.15	-41.4	-43.8	18.8	0.00e+00	0	42	0	397410304	54	4712
2026-01-09 08:24:34.15	68.24	22.19	-41.5	-43.8	18.8	0.00e+00	0	42	0	399507456	54	4748
2026-01-09 08:24:35.15	67.99	22.23	-41.6	-43.9	18.6	0.00e+00	0	42	0	400556032	54	4803
2026-01-09 08:24:36.15	67.73	22.27	-41.5	-43.9	18.7	0.00e+00	0	42	0	402653184	54	4782
2026-01-09 08:24:37.15	67.47	22.31	-41.4	-43.7	18.9	0.00e+00	0	42	0	404750336	54	4665
2026-01-09 08:24:38.16	67.21	22.35	-41.5	-43.8	18.8	0.00e+00	0	42	0	406847488	54	4734
2026-01-09 08:24:39.16	66.95	22.39	-41.6	-44.0	18.6	0.00e+00	0	42	0	408944640	54	4839
2026-01-09 08:24:40.16	66.69	22.43	-41.8	-44.3	18.3	0.00e+00	0	42	0	409993216	54	5001
2026-01-09 08:24:41.17	66.42	22.47	-42.0	-44.5	18.1	0.00e+00	0	42	0	412090368	54	5114
2026-01-09 08:24:42.16	66.16	22.51	-42.1	-44.6	18.0	0.00e+00	0	42	0	414187520	54	5190
2026-01-09 08:24:43.17	65.90	22.54	-42.3	-44.9	17.8	0.00e+00	0	42	0	416284672	55	5047
2026-01-09 08:24:44.17	65.63	22.58	-42.4	-45.1	17.5	0.00e+00	0	42	0	418381824	55	5168
2026-01-09 08:24:45.17	65.37	22.61	-42.5	-45.1	17.5	0.00e+00	0	42	0	419430400	55	5192
2026-01-09 08:24:46.17	65.10	22.65	-42.4	-45.0	17.6	0.00e+00	0	42	0	421527552	55	5134
2026-01-09 08:24:47.17	64.84	22.68	-42.4	-45.0	17.6	0.00e+00	0	42	0	423624704	55	5130
2026-01-09 08:24:48.18	64.57	22.72	-42.5	-45.2	17.5	0.00e+00	0	42	0	425721856	55	5226
2026-01-09 08:24:49.18	64.31	22.75	-42.6	-45.3	17.3	0.00e+00	0	42	0	426770432	55	5301
2026-01-09 08:24:50.18	64.04	22.78	-42.9	-45.6	17.2	0.00e+00	0	42	0	428867584	56	5164
2026-01-09 08:24:51.18	63.77	22.81	-42.8	-45.4	17.4	0.00e+00	0	42	0	430964736	56	5090
2026-01-09 08:24:52.19	63.50	22.85	-42.8	-45.5	17.3	0.00e+00	0	42	0	433061888	56	5146
2026-01-09 08:24:53.18	63.23	22.88	-42.9	-45.6	17.2	0.00e+00	0	42	0	435159040	56	5182
2026-01-09 08:24:54.19	62.96	22.91	-42.9	-45.5	17.2	0.00e+00	0	42	0	436207616	56	5159
2026-01-09 08:24:55.19	62.69	22.94	-42.9	-45.6	17.2	0.00e+00	0	42	0	438304768	56	5171
2026-01-09 08:24:56.19	62.42	22.96	-42.9	-45.6	17.1	0.00e+00	0	42	0	440401920	56	5213
2026-01-09 08:24:57.19	62.15	22.99	-43.0	-45.8	17.0	0.00e+00	0	42	0	442499072	56	5289
2026-01-09 08:24:58.20	61.88	23.02	-43.2	-46.0	16.8	0.00e+00	0	42	0	444596224	56	5437
2026-01-09 08:24:59.20	61.61	23.05	-43.3	-46.2	16.7	0.00e+00	0	42	0	445644800	57	5223
2026-01-09 08:25:00.20	61.34	23.07	-43.3	-46.2	16.6	0.00e+00	0	42	0	447741952	57	5240
2026-01-09 08:25:01.20	61.06	23.10	-43.4	-46.3	16.5	0.00e+00	0	42	0	449839104	57	5300
2026-01-09 08:25:02.20	60.79	23.12	-43.3	-46.2	16.6	0.00e+00	0	42	0	451936256	57	5223
2026-01-09 08:25:03.20	60.52	23.14	-43.4	-46.2	16.6	0.00e+00	0	42	0	454033408	57	5264
2026-01-09 08:25:04.20	60.24	23.17	-43.3	-46.2	16.7	0.00e+00	0	42	0	455081984	57	5219
2026-01-09 08:25:05.21	59.97	23.19	-43.3	-46.2	16.6	0.00e+00	0	42	0	457179136	57	5250
2026-01-09 08:25:06.21	59.69	23.21	-43.2	-46.1	16.7	0.00e+00	0	42	0	459276288	57	5190
2026-01-09 08:25:07.21	59.42	23.23	-43.2	-46.1	16.8	0.00e+00	0	42	0	461373440	57	5183
2026-01-09 08:25:08.22	59.14	23.25	-43.2	-46.1	16.7	0.00e+00	0	42	0	463470592	57	5172
2026-01-09 08:25:09.22	58.87	23.27	-43.3	-46.1	16.7	0.00e+00	0	42	0	464519168	57	5198
2026-01-09 08:25:10.22	58.59	23.29	-43.2	-46.1	16.7	0.00e+00	0	42	0	466616320	57	5177
2026-01-09 08:25:11.22	58.31	23.31	-43.3	-46.1	16.7	0.00e+00	0	42	0	468713472	57	5167
2026-01-09 08:25:12.23	58.03	23.33	-43.2	-45.9	16.9	0.00e+00	0	42	0	470810624	57	5087
2026-01-09 08:25:13.23	57.76	23.35	-43.1	-45.9	16.9	0.00e+00	0	42	0	471859200	57	5087
2026-01-09 08:25:14.23	57.48	23.36	-43.3	-46.2	16.7	0.00e+00	0	42	0	473956352	57	5232
2026-01-09 08:25:15.23	57.20	23.38	-43.4	-46.3	16.5	0.00e+00	0	42	0	476053504	57	5326
2026-01-09 08:25:16.23	56.93	23.39	-43.4	-46.3	16.5	0.00e+00	0	42	0	478150656	57	5309
2026-01-09 08:25:17.23	56.65	23.41	-43.3	-46.1	16.7	0.00e+00	0	42	0	480247808	57	5175
2026-01-09 08:25:18.23	56.37	23.42	-43.2	-46.0	16.9	0.00e+00	0	42	0	481296384	57	5111
2026-01-09 08:25:19.24	56.09	23.43	-43.1	-45.9	17.0	0.00e+00	0	42	0	483393536	57	5042
2026-01-09 08:25:20.24	55.81	23.44	-43.3	-46.1	16.7	0.00e+00	0	42	0	485490688	57	5177
2026-01-09 08:25:21.24	55.53	23.46	-43.2	-46.0	16.8	0.00e+00	0	42	0	487587840	57	5130
2026-01-09 08:25:22.24	55.25	23.47	-43.1	-45.8	17.0	0.00e+00	0	42	0	489684992	57	5013
2026-01-09 08:25:23.25	54.97	23.48	-42.9	-45.6	17.2	0.00e+00	0	42	0	490733568	57	4891
2026-01-09 08:25:24.25	54.69	23.48	-42.9	-45.6	17.2	0.00e+00	0	42	0	492830720	57	4922
2026-01-09 08:25:25.25	54.41	23.49	-43.0	-45.7	17.1	0.00e+00	0	42	0	494927872	57	4964
2026-01-09 08:25:26.25	54.13	23.50	-43.0	-45.9	16.9	0.00e+00	0	42	0	497025024	57	5042
2026-01-09 08:25:27.25	53.85	23.51	-43.1	-45.9	16.9	0.00e+00	0	42	0	499122176	57	5067
2026-01-09 08:25:28.25	53.57	23.51	-43.0	-45.7	17.1	0.00e+00	0	42	0	500170752	57	4963
2026-01-09 08:25:29.25	53.29	23.52	-42.9	-45.7	17.1	0.00e+00	0	42	0	502267904	57	4944
2026-01-09 08:25:30.25	53.02	23.52	-43.1	-45.9	16.9	0.00e+00	0	42	0	504365056	57	5054
2026-01-09 08:25:31.25	52.74	23.53	-42.9	-45.6	17.2	0.00e+00	0	42	0	506462208	57	4887
2026-01-09 08:25:32.25	52.46	23.53	-42.7	-45.3	17.5	0.00e+00	0	42	0	508559360	57	4747
2026-01-09 08:25:33.26	52.17	23.53	-42.7	-45.3	17.4	0.00e+00	0	42	0	509607936	57	4747
2026-01-09 08:25:34.26	51.89	23.53	-42.5	-45.1	17.7	0.00e+00	0	42	0	511705088	57	4607
2026-01-09 08:25:35.27	51.61	23.53	-42.4	-45.0	17.8	0.00e+00	0	42	0	513802240	56	4832
2026-01-09 08:25:36.26	51.33	23.53	-42.4	-44.9	17.9	0.00e+00	0	42	0	515899392	56	4812
2026-01-09 08:25:37.27	51.05	23.53	-42.4	-45.0	17.8	0.00e+00	0	42	0	516947968	56	4846
2026-01-09 08:25:38.27	50.77	23.53	-42.4	-44.9	17.9	0.00e+00	0	42	0	519045120	56	4803
2026-01-09 08:25:39.27	50.49	23.53	-42.5	-45.0	17.7	0.00e+00	0	42	0	521142272	56	4857
2026-01-09 08:25:40.27	50.21	23.53	-42.3	-44.9	17.9	0.00e+00	0	42	0	523239424	56	4767
2026-01-09 08:25:41.28	49.93	23.52	-42.1	-44.6	18.1	0.00e+00	0	42	0	525336576	56	4635
2026-01-09 08:25:42.28	49.65	23.52	-42.0	-44.5	18.3	0.00e+00	0	42	0	526385152	56	4559
2026-01-09 08:25:43.28	49.37	23.51	-41.8	-44.2	18.4	0.00e+00	0	42	0	528482304	55	4703
2026-01-09 08:25:44.28	49.09	23.51	-41.8	-44.2	18.4	0.00e+00	0	42	0	530579456	55	4690
2026-01-09 08:25:45.28	48.81	23.50	-41.7	-44.1	18.5	0.00e+00	0	42	0	532676608	55	4612
2026-01-09 08:25:46.29	48.53	23.49	-41.5	-43.9	18.7	0.00e+00	0	42	0	534773760	55	4515
2026-01-09 08:25:47.29	48.25	23.49	-41.3	-43.7	18.9	0.00e+00	0	42	0	535822336	54	4655
2026-01-09 08:25:48.29	47.97	23.48	-41.2	-43.5	19.1	0.00e+00	0	42	0	537919488	54	4561
2026-01-09 08:25:49.29	47.69	23.47	-41.2	-43.5	19.1	0.00e+00	0	42	0	540016640	54	4548
2026-01-09 08:25:50.30	47.41	23.46	-41.1	-43.3	19.2	0.00e+00	0	42	0	542113792	54	4487
2026-01-09 08:25:51.30	47.13	23.45	-41.0	-43.3	19.3	0.00e+00	0	42	0	544210944	54	4472
2026-01-09 08:25:52.30	46.85	23.44	-41.1	-43.4	19.2	0.00e+00	0	42	0	545259520	54	4506
2026-01-09 08:25:53.30	46.57	23.42	-40.9	-43.2	19.4	0.00e+00	0	42	0	547356672	53	4665
2026-01-09 08:25:54.30	46.29	23.41	-40.8	-43.0	19.5	0.00e+00	0	42	0	549453824	53	4558
2026-01-09 08:25:55.30	46.02	23.40	-40.8	-43.0	19.6	0.00e+00	0	42	0	551550976	53	4549
2026-01-09 08:25:56.30	45.74	23.38	-40.9	-43.1	19.4	0.00e+00	0	42	0	553648128	53	4632
2026-01-09 08:25:57.30	45.46	23.37	-40.9	-43.2	19.4	0.00e+00	0	42	0	554696704	53	4677
2026-01-09 08:25:58.31	45.18	23.35	-40.9	-43.2	19.4	0.00e+00	0	42	0	556793856	53	4669
2026-01-09 08:25:59.31	44.91	23.33	-40.9	-43.1	19.4	0.00e+00	0	42	0	558891008	53	4640
2026-01-09 08:26:00.31	44.63	23.32	-40.8	-43.0	19.5	0.00e+00	0	42	0	560988160	53	4554
2026-01-09 08:26:01.31	44.35	23.30	-40.6	-42.8	19.7	0.00e+00	0	42	0	562036736	53	4463
2026-01-09 08:26:02.32	44.08	23.28	-40.7	-42.9	19.7	0.00e+00	0	42	0	564133888	53	4500
2026-01-09 08:26:03.32	43.80	23.26	-40.6	-42.8	19.7	0.00e+00	0	42	0	566231040	53	4463
2026-01-09 08:26:04.32	43.53	23.24	-40.8	-43.0	19.5	0.00e+00	0	42	0	568328192	53	4574
2026-01-09 08:26:05.33	43.25	23.22	-40.9	-43.1	19.4	0.00e+00	0	42	0	570425344	53	4629
2026-01-09 08:26:06.39	42.96	23.20	-40.9	-43.2	19.4	0.00e+00	0	42	0	572522496	53	4655
2026-01-09 08:26:07.25	42.72	23.18	-40.9	-43.1	19.4	0.00e+00	0	42	0	573571072	53	4621
2026-01-09 08:26:08.61	42.35	23.15	-41.0	-43.3	19.3	0.00e+00	0	42	0	576716800	53	4715
2026-01-09 08:26:09.32	42.16	23.13	-41.1	-43.4	19.2	0.00e+00	0	42	0	577765376	53	4773
2026-01-09 08:26:10.61	41.81	23.10	-41.2	-43.5	19.1	0.00e+00	0	42	0	579862528	53	4857
2026-01-09 08:26:11.33	41.61	23.08	-41.1	-43.4	19.2	0.00e+00	0	42	0	580911104	53	4790
2026-01-09 08:26:12.62	41.26	23.05	-41.1	-43.4	19.2	0.00e+00	0	42	0	584056832	53	4769
2026-01-09 08:26:13.33	41.07	23.03	-41.2	-43.5	19.1	0.00e+00	0	42	0	585105408	53	4837
2026-01-09 08:26:14.62	40.72	22.99	-41.3	-43.6	19.0	0.00e+00	0	42	0	587202560	53	4886
2026-01-09 08:26:15.34	40.52	22.97	-41.3	-43.6	18.9	0.00e+00	0	42	0	589299712	53	4900
2026-01-09 08:26:16.63	40.18	22.94	-41.5	-43.9	18.7	0.00e+00	0	42	0	591396864	53	5052
2026-01-09 08:26:17.57	39.92	22.91	-41.5	-43.9	18.7	0.00e+00	0	42	0	593494016	53	5084
2026-01-09 08:26:18.57	39.66	22.88	-41.6	-44.1	18.5	0.00e+00	0	42	0	594542592	53	5169
2026-01-09 08:26:19.58	39.38	22.85	-41.7	-44.2	18.4	0.00e+00	0	42	0	596639744	54	4937
2026-01-09 08:26:20.58	39.12	22.82	-41.8	-44.3	18.3	0.00e+00	0	42	0	598736896	54	5006
2026-01-09 08:26:21.58	38.85	22.79	-41.9	-44.4	18.2	0.00e+00	0	42	0	600834048	54	5060
2026-01-09 08:26:22.59	38.58	22.75	-42.0	-44.6	18.1	0.00e+00	0	42	0	601882624	54	5174
2026-01-09 08:26:23.59	38.32	22.72	-42.0	-44.5	18.1	0.00e+00	0	42	0	603979776	54	5128
2026-01-09 08:26:24.59	38.05	22.69	-42.1	-44.6	18.1	0.00e+00	0	42	0	606076928	54	5177
2026-01-09 08:26:25.59	37.79	22.65	-42.1	-44.7	17.9	0.00e+00	0	42	0	608174080	54	5241
2026-01-09 08:26:26.69	37.50	22.61	-42.2	-44.7	17.9	0.00e+00	0	42	0	610271232	55	4952
2026-01-09 08:26:27.63	37.25	22.58	-42.1	-44.6	18.0	0.00e+00	0	42	0	612368384	55	4915
2026-01-09 08:26:28.81	36.94	22.54	-42.1	-44.6	18.0	0.00e+00	0	42	0	614465536	55	4926
2026-01-09 08:26:29.67	36.71	22.51	-42.1	-44.7	17.9	0.00e+00	0	42	0	615514112	55	4933
2026-01-09 08:26:30.99	36.37	22.46	-42.3	-44.8	17.8	0.00e+00	0	42	0	618659840	55	5027
2026-01-09 08:26:31.71	36.18	22.43	-42.3	-44.9	17.7	0.00e+00	0	42	0	619708416	55	5062
2026-01-09 08:26:33.00	35.84	22.38	-42.5	-45.1	17.5	0.00e+00	0	42	0	621805568	55	5179
2026-01-09 08:26:33.71	35.66	22.35	-42.4	-45.1	17.6	0.00e+00	0	42	0	622854144	55	5176
2026-01-09 08:26:35.00	35.33	22.30	-42.5	-45.2	17.5	0.00e+00	0	42	0	625999872	55	5219
2026-01-09 08:26:35.72	35.14	22.27	-42.5	-45.2	17.5	0.00e+00	0	42	0	627048448	55	5236
2026-01-09 08:26:37.01	34.81	22.22	-42.5	-45.1	17.5	0.00e+00	0	42	0	629145600	55	5207
2026-01-09 08:26:37.72	34.63	22.19	-42.4	-45.1	17.5	0.00e+00	0	42	0	631242752	55	5178
2026-01-09 08:26:39.01	34.30	22.14	-42.5	-45.2	17.4	0.00e+00	0	42	0	633339904	55	5255
2026-01-09 08:26:39.72	34.12	22.11	-42.6	-45.3	17.3	0.00e+00	0	42	0	634388480	55	5294
2026-01-09 08:26:41.14	33.75	22.05	-42.6	-45.2	17.4	0.00e+00	0	42	0	637534208	55	5264
2026-01-09 08:26:41.86	33.57	22.02	-42.6	-45.3	17.3	0.00e+00	0	42	0	638582784	55	5327
2026-01-09 08:26:43.22	33.23	21.96	-42.9	-45.7	17.1	0.00e+00	0	42	0	640679936	56	5220
2026-01-09 08:26:43.94	33.05	21.93	-42.9	-45.7	17.1	0.00e+00	0	42	0	642777088	56	5239
2026-01-09 08:26:45.23	32.72	21.87	-43.0	-45.7	17.1	0.00e+00	0	42	0	644874240	56	5277
2026-01-09 08:26:45.94	32.54	21.83	-43.0	-45.8	17.0	0.00e+00	0	42	0	645922816	56	5281
2026-01-09 08:26:47.24	32.22	21.77	-42.9	-45.7	17.1	0.00e+00	0	42	0	649068544	56	5243
2026-01-09 08:26:47.95	32.04	21.74	-42.9	-45.7	17.1	0.00e+00	0	42	0	650117120	56	5270
2026-01-09 08:26:49.24	31.72	21.68	-43.0	-45.8	17.0	0.00e+00	0	42	0	652214272	56	5314
2026-01-09 08:26:49.96	31.54	21.65	-43.0	-45.8	17.0	0.00e+00	0	42	0	653262848	56	5318
2026-01-09 08:26:51.25	31.22	21.59	-43.0	-45.8	17.0	0.00e+00	0	42	0	656408576	56	5280
2026-01-09 08:26:52.11	31.01	21.54	-42.8	-45.6	17.2	0.00e+00	0	42	0	657457152	56	5166
2026-01-09 08:26:53.26	30.73	21.49	-42.8	-45.4	17.3	0.00e+00	0	42	0	659554304	56	5095
2026-01-09 08:26:54.32	30.47	21.43	-42.8	-45.5	17.2	0.00e+00	0	42	0	661651456	56	5156
2026-01-09 08:26:55.34	30.22	21.38	-43.0	-45.8	17.0	0.00e+00	0	42	0	663748608	56	5299
2026-01-09 08:26:56.57	29.92	21.32	-43.2	-46.0	16.8	0.00e+00	0	42	0	665845760	56	5440
2026-01-09 08:26:57.43	29.72	21.28	-43.2	-46.1	16.7	0.00e+00	0	42	0	667942912	57	5169
2026-01-09 08:26:58.57	29.44	21.22	-43.1	-45.9	16.9	0.00e+00	0	42	0	670040064	57	5066
2026-01-09 08:26:59.43	29.23	21.18	-42.9	-45.7	17.0	0.00e+00	0	42	0	671088640	57	4983
2026-01-09 08:27:00.58	28.96	21.12	-42.9	-45.6	17.1	0.00e+00	0	42	0	673185792	57	4923
2026-01-09 08:27:01.44	28.75	21.07	-42.9	-45.7	17.1	0.00e+00	0	42	0	675282944	57	4929
2026-01-09 08:27:02.59	28.48	21.01	-42.9	-45.6	17.2	0.00e+00	0	42	0	677380096	57	4913
2026-01-09 08:27:03.45	28.28	20.96	-42.9	-45.6	17.2	0.00e+00	0	42	0	679477248	57	4893
2026-01-09 08:27:04.59	28.01	20.90	-42.9	-45.7	17.1	0.00e+00	0	42	0	681574400	57	4937
2026-01-09 08:27:05.45	27.80	20.86	-42.9	-45.6	17.1	0.00e+00	0	42	0	682622976	57	4920
2026-01-09 08:27:06.60	27.54	20.79	-42.9	-45.6	17.2	0.00e+00	0	42	0	684720128	57	4896
2026-01-09 08:27:07.46	27.33	20.75	-42.9	-45.6	17.1	0.00e+00	0	42	0	686817280	57	4919
2026-01-09 08:27:08.61	27.07	20.68	-42.8	-45.6	17.2	0.00e+00	0	42	0	688914432	57	4888
2026-01-09 08:27:09.46	26.87	20.63	-42.7	-45.5	17.3	0.00e+00	0	42	0	689963008	57	4818
2026-01-09 08:27:10.61	26.60	20.57	-42.6	-45.4	17.3	0.00e+00	0	42	0	692060160	57	4792
2026-01-09 08:27:11.47	26.41	20.52	-42.6	-45.4	17.4	0.00e+00	0	42	0	694157312	57	4800
2026-01-09 08:27:12.62	26.14	20.46	-42.6	-45.5	17.3	0.00e+00	0	42	0	696254464	57	4821
2026-01-09 08:27:13.61	25.92	20.40	-42.6	-45.5	17.2	0.00e+00	0	42	0	698351616	57	4859
2026-01-09 08:27:14.78	25.65	20.33	-42.5	-45.4	17.4	0.00e+00	0	42	0	700448768	57	4787
2026-01-09 08:27:15.64	25.46	20.28	-42.5	-45.3	17.4	0.00e+00	0	42	0	701497344	56	5019
2026-01-09 08:27:17.00	25.15	20.20	-42.4	-45.3	17.5	0.00e+00	0	42	0	704643072	56	4984
2026-01-09 08:27:17.71	24.99	20.16	-42.3	-45.0	17.7	0.00e+00	0	42	0	705691648	56	4868
2026-01-09 08:27:19.00	24.70	20.08	-42.3	-45.1	17.6	0.00e+00	0	42	0	707788800	56	4898
2026-01-09 08:27:19.72	24.54	20.04	-42.3	-45.1	17.6	0.00e+00	0	42	0	709885952	56	4922
2026-01-09 08:27:21.01	24.25	19.97	-42.4	-45.2	17.6	0.00e+00	0	42	0	711983104	56	4944
2026-01-09 08:27:21.74	24.09	19.92	-42.4	-45.2	17.6	0.00e+00	0	42	0	713031680	56	4953
2026-01-09 08:27:23.03	23.81	19.84	-42.5	-45.3	17.5	0.00e+00	0	42	0	716177408	56	4999
2026-01-09 08:27:23.74	23.65	19.80	-42.5	-45.2	17.6	0.00e+00	0	42	0	717225984	56	4957
2026-01-09 08:27:25.03	23.37	19.72	-42.6	-45.3	17.5	0.00e+00	0	42	0	719323136	56	5032
2026-01-09 08:27:25.75	23.21	19.68	-42.5	-45.1	17.6	0.00e+00	0	42	0	720371712	56	4902
2026-01-09 08:27:27.04	22.93	19.60	-42.5	-45.2	17.5	0.00e+00	0	42	0	723517440	56	4964
2026-01-09 08:27:27.75	22.78	19.56	-42.6	-45.3	17.4	0.00e+00	0	42	0	724566016	56	5030
2026-01-09 08:27:29.14	22.48	19.47	-42.5	-45.2	17.5	0.00e+00	0	42	0	727711744	56	4968
2026-01-09 08:27:29.86	22.33	19.42	-42.5	-45.2	17.5	0.00e+00	0	42	0	728760320	56	4979
2026-01-09 08:27:31.18	22.05	19.34	-42.6	-45.4	17.4	0.00e+00	0	42	0	730857472	56	5053
2026-01-09 08:27:32.18	21.83	19.28	-42.6	-45.4	17.4	0.00e+00	0	42	0	732954624	56	5061
2026-01-09 08:27:33.50	21.56	19.20	-42.5	-45.3	17.5	0.00e+00	0	42	0	735051776	56	4998
2026-01-09 08:27:34.22	21.41	19.15	-42.5	-45.3	17.5	0.00e+00	0	42	0	737148928	56	5007
2026-01-09 08:27:35.87	21.06	19.05	-42.7	-45.5	17.3	0.00e+00	0	42	0	740294656	56	5129
2026-01-09 08:27:36.44	20.94	19.01	-42.5	-45.3	17.4	0.00e+00	0	42	0	741343232	56	5021
2026-01-09 08:27:38.01	20.62	18.91	-42.4	-45.2	17.5	0.00e+00	0	42	0	743440384	56	4948
2026-01-09 08:27:38.63	20.49	18.87	-42.4	-45.2	17.5	0.00e+00	0	42	0	744488960	56	4969
2026-01-09 08:27:40.21	20.16	18.77	-42.6	-45.4	16.5	0.00e+00	0	42	0	747634688	56	5081
2026-01-09 08:27:40.79	20.05	18.73	-42.5	-45.3	17.4	0.00e+00	0	42	0	748683264	56	5038
2026-01-09 08:27:42.37	19.72	18.63	-42.7	-45.5	17.2	0.00e+00	0	42	0	751828992	56	5133
2026-01-09 08:27:42.96	19.61	18.59	-42.7	-45.5	17.2	0.00e+00	0	42	0	752877568	56	5132
2026-01-09 08:27:44.53	19.29	18.48	-42.8	-45.6	17.2	0.00e+00	0	42	0	756023296	56	5172
2026-01-09 08:27:45.12	19.17	18.45	-42.7	-45.5	17.3	0.00e+00	0	42	0	757071872	56	5110
2026-01-09 08:27:46.70	18.86	18.34	-42.7	-45.4	17.3	0.00e+00	0	42	0	760217600	56	5081
2026-01-09 08:27:47.27	18.74	18.30	-42.6	-45.4	17.4	0.00e+00	0	42	0	761266176	56	5076
2026-01-09 08:27:48.86	18.43	18.20	-42.5	-45.3	17.4	0.00e+00	0	42	0	764411904	56	4988
2026-01-09 08:27:49.44	18.31	18.16	-42.6	-45.3	17.4	0.00e+00	0	42	0	765460480	56	5018
2026-01-09 08:27:51.03	18.00	18.05	-42.6	-45.3	17.4	0.00e+00	0	42	0	768606208	56	5037
2026-01-09 08:27:51.60	17.89	18.02	-42.6	-45.4	17.4	0.00e+00	0	42	0	769654784	56	5047
2026-01-09 08:27:53.18	17.59	17.91	-42.5	-45.2	17.5	0.00e+00	0	42	0	771751936	56	4973
2026-01-09 08:27:53.89	17.45	17.86	-42.5	-45.2	17.5	0.00e+00	0	42	0	773849088	56	4983
2026-01-09 08:27:55.18	17.20	17.78	-42.5	-45.1	17.6	0.00e+00	0	42	0	775946240	56	4918
2026-01-09 08:27:56.07	17.03	17.72	-42.4	-45.0	17.7	0.00e+00	0	42	0	778043392	56	4833
2026-01-09 08:27:57.46	16.77	17.62	-42.4	-45.0	17.8	0.00e+00	0	42	0	780140544	56	4816
2026-01-09 08:27:58.17	16.63	17.57	-42.4	-45.0	17.8	0.00e+00	0	42	0	781189120	56	4830
2026-01-09 08:27:59.75	16.34	17.47	-42.3	-44.9	17.8	0.00e+00	0	42	0	784334848	56	4795
2026-01-09 08:28:00.34	16.23	17.43	-42.3	-44.8	17.9	0.00e+00	0	42	0	785383424	56	4743
2026-01-09 08:28:01.91	15.93	17.32	-42.3	-44.9	17.8	0.00e+00	0	42	0	788529152	56	4777
2026-01-09 08:28:02.49	15.83	17.28	-42.1	-44.7	18.0	0.00e+00	0	42	0	789577728	56	4670
2026-01-09 08:28:04.08	15.53	17.17	-42.0	-44.5	18.2	0.00e+00	0	42	0	792723456	56	4595
2026-01-09 08:28:04.65	15.43	17.13	-41.8	-44.3	18.3	0.00e+00	0	42	0	793772032	55	4716
2026-01-09 08:28:06.24	15.14	17.02	-41.7	-44.3	18.2	0.00e+00	0	42	0	796917760	55	4735
2026-01-09 08:28:06.83	15.03	16.98	-41.8	-44.4	18.2	0.00e+00	0	42	0	797966336	55	4771
2026-01-09 08:28:08.40	14.75	16.87	-41.8	-44.4	18.1	0.00e+00	0	42	0	801112064	55	4811
2026-01-09 08:28:08.99	14.64	16.83	-41.7	-44.4	18.1	0.00e+00	0	42	0	802160640	55	4778
2026-01-09 08:28:10.57	14.36	16.72	-41.8	-44.4	18.1	0.00e+00	0	42	0	805306368	55	4807
2026-01-09 08:28:11.16	14.25	16.68	-41.7	-44.4	18.1	0.00e+00	0	42	0	806354944	55	4783
2026-01-09 08:28:12.73	13.98	16.57	-41.7	-44.4	18.1	0.00e+00	0	42	0	808452096	55	4789
2026-01-09 08:28:13.34	13.87	16.53	-41.5	-44.2	18.3	0.00e+00	0	42	0	810549248	55	4676
2026-01-09 08:28:15.06	13.57	16.41	-41.4	-44.2	18.4	0.00e+00	0	42	0	813694976	54	4940
2026-01-09 08:28:15.63	13.47	16.37	-41.3	-44.1	18.4	0.00e+00	0	42	0	814743552	54	4891
2026-01-09 08:28:17.21	13.19	16.26	-41.1	-44.0	18.5	0.00e+00	0	42	0	816840704	54	4838
2026-01-09 08:28:17.81	13.09	16.22	-41.1	-44.0	18.5	0.00e+00	0	42	0	818937856	54	4860
2026-01-09 08:28:19.39	12.82	16.11	-41.2	-44.0	18.5	0.00e+00	0	42	0	821035008	54	4844
2026-01-09 08:28:19.99	12.72	16.07	-41.2	-44.0	18.5	0.00e+00	0	42	0	822083584	54	4820
2026-01-09 08:28:21.56	12.45	15.96	-41.3	-44.0	18.5	0.00e+00	0	42	0	825229312	54	4851
2026-01-09 08:28:22.15	12.35	15.92	-41.4	-44.1	18.4	0.00e+00	0	42	0	826277888	54	4897
2026-01-09 08:28:23.73	12.08	15.81	-41.5	-44.2	18.3	0.00e+00	0	42	0	829423616	54	4971
2026-01-09 08:28:24.49	11.96	15.75	-41.5	-44.2	18.3	0.00e+00	0	42	0	831520768	54	4964
2026-01-09 08:28:25.78	11.74	15.66	-41.6	-44.3	18.2	0.00e+00	0	42	0	833617920	54	5025
2026-01-09 08:28:26.68	11.59	15.60	-41.5	-44.2	18.3	0.00e+00	0	42	0	834666496	54	4976
2026-01-09 08:28:28.04	11.37	15.51	-41.4	-44.0	18.5	0.00e+00	0	42	0	837812224	54	4868
2026-01-09 08:28:28.76	11.25	15.46	-41.3	-44.0	18.5	0.00e+00	0	42	0	838860800	54	4845
2026-01-09 08:28:30.05	11.04	15.36	-41.4	-44.0	18.5	0.00e+00	0	42	0	840957952	54	4849
2026-01-09 08:28:30.76	10.93	15.31	-41.4	-44.0	18.5	0.00e+00	0	42	0	843055104	54	4853
2026-01-09 08:28:32.05	10.72	15.22	-41.4	-44.0	18.5	0.00e+00	0	42	0	845152256	54	4856
2026-01-09 08:28:32.77	10.60	15.17	-41.5	-44.1	18.4	0.00e+00	0	42	0	846200832	54	4920
2026-01-09 08:28:34.06	10.40	15.08	-41.6	-44.2	18.3	0.00e+00	0	42	0	849346560	54	4959
2026-01-09 08:28:34.77	10.28	15.03	-41.5	-44.2	18.3	0.00e+00	0	42	0	850395136	54	4943
2026-01-09 08:28:36.06	10.08	14.94	-41.5	-44.2	18.2	0.00e+00	0	42	0	852492288	54	4963
2026-01-09 08:28:36.78	9.97	14.89	-41.6	-44.3	18.2	0.00e+00	0	42	0	853540864	54	4992
2026-01-09 08:28:38.07	9.76	14.80	-41.6	-44.3	18.1	0.00e+00	0	42	0	856686592	54	5025
2026-01-09 08:28:39.21	9.59	14.72	-41.6	-44.4	18.1	0.00e+00	0	42	0	858783744	54	5085
2026-01-09 08:28:40.07	9.45	14.66	-41.7	-44.4	18.0	0.00e+00	0	42	0	859832320	54	5095
2026-01-09 08:28:41.22	9.28	14.58	-41.7	-44.5	18.0	0.00e+00	0	42	0	861929472	54	5133
2026-01-09 08:28:42.08	9.14	14.52	-41.8	-44.6	17.9	0.00e+00	0	42	0	864026624	54	5207
2026-01-09 08:28:43.22	8.97	14.44	-42.0	-44.8	17.7	0.00e+00	0	42	0	866123776	54	5313
2026-01-09 08:28:44.08	8.84	14.38	-41.9	-44.7	17.8	0.00e+00	0	42	0	867172352	54	5258
2026-01-09 08:28:45.36	8.64	14.29	-42.1	-45.0	17.5	0.00e+00	0	42	0	870318080	54	5421
2026-01-09 08:28:46.08	8.54	14.24	-42.2	-45.0	17.4	0.00e+00	0	42	0	871366656	54	5456
2026-01-09 08:28:47.37	8.34	14.14	-42.1	-45.1	17.3	0.00e+00	0	42	0	873463808	54	5508
2026-01-09 08:28:48.09	8.24	14.09	-42.1	-45.2	17.3	0.00e+00	0	42	0	875560960	54	5539
2026-01-09 08:28:49.38	8.04	14.00	-42.0	-45.1	17.3	0.00e+00	0	42	0	877658112	55	5208
2026-01-09 08:28:50.09	7.94	13.95	-42.0	-45.1	17.3	0.00e+00	0	42	0	878706688	55	5214
2026-01-09 08:28:51.38	7.75	13.86	-41.9	-45.1	17.4	0.00e+00	0	42	0	881852416	55	5161
2026-01-09 08:28:52.10	7.64	13.81	-41.8	-45.0	17.5	0.00e+00	0	42	0	882900992	55	5123
2026-01-09 08:28:53.39	7.46	13.72	-41.8	-44.9	17.5	0.00e+00	0	42	0	884998144	55	5089
2026-01-09 08:28:54.27	7.33	13.66	-41.8	-44.9	17.6	0.00e+00	0	42	0	887095296	55	5045
2026-01-09 08:28:55.41	7.16	13.58	-41.8	-44.9	17.6	0.00e+00	0	42	0	889192448	55	5063
2026-01-09 08:28:56.27	7.04	13.52	-41.9	-45.0	17.4	0.00e+00	0	42	0	890241024	55	5117
2026-01-09 08:28:57.42	6.88	13.44	-41.9	-45.0	17.4	0.00e+00	0	42	0	892338176	55	5146
2026-01-09 08:28:58.28	6.76	13.38	-42.0	-45.1	17.4	0.00e+00	0	42	0	894435328	55	5193
2026-01-09 08:28:59.43	6.59	13.30	-42.1	-45.3	17.1	0.00e+00	0	42	0	896532480	55	5334
2026-01-09 08:29:00.29	6.47	13.24	-42.1	-45.4	17.1	0.00e+00	0	42	0	897581056	55	5349
2026-01-09 08:29:01.43	6.31	13.16	-42.2	-45.5	17.0	0.00e+00	0	42	0	900726784	55	5438
2026-01-09 08:29:02.29	6.19	13.09	-42.3	-45.6	16.9	0.00e+00	0	42	0	901775360	55	5478
2026-01-09 08:29:03.44	6.03	13.01	-42.3	-45.6	16.8	0.00e+00	0	42	0	903872512	55	5489
2026-01-09 08:29:04.32	5.91	12.95	-42.4	-45.6	16.9	0.00e+00	0	42	0	905969664	55	5466
2026-01-09 08:29:05.64	5.73	12.86	-42.4	-45.5	16.9	0.00e+00	0	42	0	908066816	55	5425
2026-01-09 08:29:06.36	5.63	12.81	-42.4	-45.5	16.9	0.00e+00	0	42	0	909115392	55	5417
2026-01-09 08:29:07.85	5.43	12.71	-42.4	-45.4	17.0	0.00e+00	0	42	0	912261120	55	5386
2026-01-09 08:29:08.57	5.33	12.66	-42.4	-45.5	16.9	0.00e+00	0	42	0	913309696	55	5448
2026-01-09 08:29:09.86	5.16	12.56	-42.3	-45.5	16.9	0.00e+00	0	42	0	916455424	55	5440
2026-01-09 08:29:10.58	5.06	12.51	-42.3	-45.6	16.9	0.00e+00	0	42	0	917504000	55	5483
2026-01-09 08:29:11.87	4.89	12.42	-42.4	-45.7	16.7	0.00e+00	0	42	0	919601152	55	5558
2026-01-09 08:29:12.58	4.80	12.38	-42.5	-45.7	16.7	0.00e+00	0	42	0	920649728	55	5580
2026-01-09 08:29:13.87	4.63	12.29	-42.7	-45.8	16.6	0.00e+00	0	42	0	923795456	55	5641
2026-01-09 08:29:14.59	4.53	12.24	-42.9	-46.1	16.5	0.00e+00	0	42	0	924844032	56	5468
2026-01-09 08:29:15.88	4.37	12.15	-43.1	-46.2	16.3	0.00e+00	0	42	0	926941184	56	5592
2026-01-09 08:29:16.59	4.27	12.10	-43.0	-46.1	16.4	0.00e+00	0	42	0	929038336	56	5511
2026-01-09 08:29:17.89	4.11	12.01	-43.1	-46.2	16.4	0.00e+00	0	42	0	931135488	56	5529
2026-01-09 08:29:18.60	4.01	11.96	-43.0	-46.0	16.5	0.00e+00	0	42	0	932184064	56	5453
2026-01-09 08:29:19.89	3.85	11.87	-43.0	-46.2	16.4	0.00e+00	0	42	0	935329792	56	5547
2026-01-09 08:29:20.80	3.73	11.80	-43.1	-46.3	16.3	0.00e+00	0	42	0	936378368	56	5601
2026-01-09 08:29:21.80	3.61	11.73	-43.1	-46.3	16.3	0.00e+00	0	42	0	938475520	56	5600
2026-01-09 08:29:22.80	3.48	11.67	-43.1	-46.3	16.2	0.00e+00	0	42	0	940572672	56	5642
2026-01-09 08:29:23.81	3.35	11.60	-43.1	-46.4	16.1	0.00e+00	0	42	0	942669824	56	5684
2026-01-09 08:29:24.81	3.23	11.53	-43.1	-46.5	16.0	0.00e+00	0	42	0	943718400	56	5765
2026-01-09 08:29:25.81	3.10	11.46	-43.0	-46.4	16.2	0.00e+00	0	42	0	945815552	56	5698
2026-01-09 08:29:26.81	2.98	11.39	-43.1	-46.5	16.0	0.00e+00	0	42	0	947912704	56	5752
2026-01-09 08:29:27.81	2.86	11.32	-43.2	-46.6	16.0	0.00e+00	0	42	0	950009856	57	5485
2026-01-09 08:29:28.87	2.73	11.25	-43.2	-46.5	16.0	0.00e+00	0	42	0	952107008	57	5421
2026-01-09 08:29:29.73	2.62	11.19	-43.2	-46.5	16.1	0.00e+00	0	42	0	953155584	57	5411
2026-01-09 08:29:31.10	2.46	11.09	-43.3	-46.5	16.0	0.00e+00	0	42	0	956301312	57	5420
2026-01-09 08:29:31.82	2.37	11.04	-43.1	-46.6	15.9	0.00e+00	0	42	0	957349888	57	5506
2026-01-09 08:29:33.11	2.22	10.96	-42.8	-46.5	16.1	0.00e+00	0	42	0	959447040	57	5413
2026-01-09 08:29:33.82	2.13	10.91	-42.6	-46.5	16.0	0.00e+00	0	42	0	960495616	57	5428
2026-01-09 08:29:35.11	1.98	10.82	-42.5	-46.4	16.1	0.00e+00	0	42	0	963641344	56	5720
2026-01-09 08:29:35.83	1.89	10.77	-42.5	-46.5	16.0	0.00e+00	0	42	0	964689920	56	5771
2026-01-09 08:29:37.12	1.74	10.68	-42.6	-46.6	15.9	0.00e+00	0	42	0	966787072	56	5812
2026-01-09 08:29:37.83	1.66	10.63	-42.8	-46.6	15.9	0.00e+00	0	42	0	968884224	56	5811
2026-01-09 08:29:39.12	1.51	10.54	-43.0	-46.7	15.8	0.00e+00	0	42	0	970981376	56	5898
2026-01-09 08:29:39.84	1.42	10.50	-43.1	-46.8	15.7	0.00e+00	0	42	0	972029952	56	5963
2026-01-09 08:29:41.19	1.27	10.40	-43.2	-46.9	15.6	0.00e+00	0	42	0	975175680	57	5696
2026-01-09 08:29:42.16	1.16	10.34	-43.3	-47.0	15.5	0.00e+00	0	42	0	976224256	57	5757
2026-01-09 08:29:43.47	1.01	10.25	-43.3	-47.2	15.3	0.00e+00	0	42	0	979369984	57	5886
2026-01-09 08:29:44.21	0.92	10.20	-43.3	-47.1	15.4	0.00e+00	0	42	0	980418560	57	5824
2026-01-09 08:29:45.51	0.78	10.11	-43.3	-47.2	15.2	0.00e+00	0	42	0	982515712	57	5908
2026-01-09 08:29:46.28	0.69	10.06	-43.3	-47.2	15.3	0.00e+00	0	42	0	984612864	57	5878
2026-01-09 08:29:47.57	0.54	9.97	-43.4	-47.2	15.3	0.00e+00	0	42	0	986710016	57	5914
2026-01-09 08:29:48.29	0.46	9.92	-43.4	-47.3	15.2	0.00e+00	0	42	0	987758592	57	5960
2026-01-09 08:29:49.58	0.32	9.84	-43.5	-47.3	15.2	0.00e+00	0	42	0	990904320	57	5954
2026-01-09 08:29:50.29	0.24	9.79	-43.6	-47.4	15.1	0.00e+00	0	42	0	991952896	57	5998
2026-01-09 08:29:51.59	0.10	9.70	-43.7	-47.5	15.0	0.00e+00	0	42	0	994050048	58	5741
2026-01-09 08:29:52.30	0.02	9.65	-43.6	-47.5	15.0	0.00e+00	0	42	0	996147200	58	5743
2026-01-09 08:29:53.59	359.88	9.57	-43.8	-47.7	14.7	0.00e+00	0	42	0	998244352	58	5902
2026-01-09 08:29:54.31	359.80	9.52	-43.7	-47.6	14.8	0.00e+00	0	42	0	999292928	58	5855
2026-01-09 08:29:55.66	359.66	9.43	-43.8	-47.8	14.7	0.00e+00	0	42	0	1002438656	58	5947
2026-01-09 08:29:56.38	359.58	9.38	-43.8	-47.9	14.6	0.00e+00	0	42	0	1003487232	58	6002
2026-01-09 08:29:57.67	359.44	9.29	-43.8	-47.8	14.6	0.00e+00	0	42	0	1005584384	58	5983
2026-01-09 08:29:58.39	359.37	9.25	-43.9	-47.9	14.6	0.00e+00	0	42	0	1006632960	58	6031
2026-01-09 08:29:59.81	359.22	9.15	-44.0	-47.9	14.5	0.00e+00	0	42	0	1009778688	58	6005
2026-01-09 08:30:00.52	359.14	9.11	-43.9	-47.7	14.7	0.00e+00	0	42	0	1010827264	58	5906
2026-01-09 08:30:01.81	359.01	9.02	-44.0	-47.8	14.6	0.00e+00	0	42	0	1013972992	58	5951
2026-01-09 08:30:02.53	358.93	8.97	-44.2	-48.2	14.3	7.00e-07	0	42	0	1015021568	58	6229
2026-01-09 08:30:03.82	358.80	8.89	-47.1	-63.5	3.8	1.25e+00	0	42	104	1016070144	65	24201
2026-01-09 08:30:04.54	358.72	8.84	-48.2	-63.6	3.8	1.49e+00	0	42	104	1016070144	67	21940
2026-01-09 08:30:05.83	358.59	8.75	-47.7	-63.9	3.8	1.49e+00	0	42	104	1016070144	66	24076
2026-01-09 08:30:06.54	358.52	8.71	-48.5	-64.0	3.8	1.49e+00	0	42	104	1016070144	67	22788
2026-01-09 08:30:07.83	358.39	8.62	-48.3	-64.0	3.8	1.49e+00	0	42	104	1016070144	67	22924
2026-01-09 08:30:08.55	358.32	8.57	-48.3	-64.0	3.8	1.49e+00	0	42	104	1016070144	67	22981
2026-01-09 08:30:09.84	358.19	8.49	-48.9	-64.2	3.8	1.49e+00	0	42	104	1016070144	68	22172
2026-01-09 08:30:10.56	358.11	8.44	-48.9	-64.2	3.8	1.49e+00	0	42	104	1016070144	68	22195
2026-01-09 08:30:11.85	357.98	8.36	-48.8	-64.3	3.8	1.49e+00	0	42	104	1016070144	68	22295
2026-01-09 08:30:12.57	357.91	8.31	-48.5	-64.3	3.8	1.49e+00	0	42	104	1016070144	68	22396
2026-01-09 08:30:13.86	357.79	8.23	-48.9	-64.3	3.8	1.49e+00	0	42	104	1016070144	68	22352
2026-01-09 08:30:14.58	357.71	8.18	-48.9	-64.3	3.8	1.49e+00	0	42	104	1016070144	68	22336
2026-01-09 08:30:15.87	357.59	8.10	-49.0	-64.3	3.8	1.49e+00	0	42	104	1016070144	68	22365
2026-01-09 08:30:16.59	357.52	8.05	-49.0	-64.3	3.8	1.49e+00	0	42	104	1016070144	68	22339
2026-01-09 08:30:17.88	357.39	7.97	-49.0	-64.3	3.8	1.49e+00	0	42	104	1016070144	68	22385
2026-01-09 08:30:18.59	357.32	7.92	-49.0	-64.3	3.8	1.49e+00	0	42	104	1016070144	68	22419
2026-01-09 08:30:19.89	357.20	7.83	-49.0	-64.3	3.8	1.49e+00	0	42	104	1016070144	68	22416
2026-01-09 08:30:20.60	357.13	7.79	-49.0	-64.3	3.8	1.49e+00	0	42	104	1016070144	68	22489
2026-01-09 08:30:21.90	357.01	7.70	-48.9	-64.3	3.8	1.49e+00	0	42	104	1016070144	68	22407
2026-01-09 08:30:22.61	356.94	7.66	-48.7	-64.3	3.8	1.49e+00	0	42	104	1016070144	68	22363
2026-01-09 08:30:23.90	356.82	7.58	-49.0	-64.3	3.8	1.49e+00	0	42	104	1016070144	68	22428
2026-01-09 08:30:24.62	356.75	7.53	-49.1	-64.3	3.8	1.49e+00	0	42	104	1016070144	68	22372
2026-01-09 08:30:25.91	356.63	7.45	-49.0	-64.3	3.8	1.49e+00	0	42	104	1016070144	68	22366
2026-01-09 08:30:26.63	356.56	7.40	-49.1	-64.3	3.8	1.49e+00	0	42	104	1016070144	68	22360
2026-01-09 08:30:27.92	356.44	7.32	-49.0	-64.3	3.8	1.49e+00	0	42	104	1016070144	68	22331
2026-01-09 08:30:28.64	356.38	7.27	-49.1	-64.3	3.8	1.49e+00	0	42	104	1016070144	68	22283
2026-01-09 08:30:29.93	356.26	7.19	-49.0	-64.3	3.8	1.49e+00	0	42	104	1016070144	68	22373
2026-01-09 08:30:30.65	356.19	7.14	-48.9	-64.3	3.8	1.49e+00	0	42	104	1016070144	68	22321
2026-01-09 08:30:31.94	356.07	7.06	-48.7	-64.3	3.8	1.49e+00	0	42	104	1016070144	68	22307
2026-01-09 08:30:32.66	356.01	7.01	-48.7	-64.3	3.8	1.49e+00	0	42	104	1016070144	68	22270
2026-01-09 08:30:33.95	355.89	6.93	-48.7	-64.3	3.8	1.49e+00	0	42	104	1016070144	68	22263
2026-01-09 08:30:34.67	355.83	6.89	-48.7	-64.2	3.8	1.49e+00	0	42	104	1016070144	68	22172
2026-01-09 08:30:35.96	355.71	6.81	-48.7	-64.2	3.8	1.49e+00	0	42	104	1016070144	68	22212
2026-01-09 08:30:36.68	355.65	6.76	-48.7	-64.3	3.8	1.49e+00	0	42	104	1016070144	68	22265
2026-01-09 08:30:37.97	355.53	6.68	-48.7	-64.2	3.8	1.49e+00	0	42	104	1016070144	68	22232
2026-01-09 08:30:38.69	355.47	6.63	-48.7	-64.2	3.8	1.49e+00	0	42	104	1016070144	68	22168
2026-01-09 08:30:39.98	355.36	6.55	-48.7	-64.2	3.8	1.49e+00	0	41	104	1016070144	68	22253
2026-01-09 08:30:40.70	355.30	6.51	-48.7	-64.2	3.8	1.49e+00	0	42	104	1016070144	68	22206
2026-01-09 08:30:41.99	355.18	6.43	-48.7	-64.2	3.8	1.49e+00	0	42	104	1016070144	68	22179
2026-01-09 08:30:42.70	355.12	6.38	-48.7	-64.3	3.8	1.49e+00	0	42	104	1016070144	68	22270
2026-01-09 08:30:43.99	355.01	6.30	-48.7	-64.2	3.8	1.49e+00	0	42	104	1016070144	68	22199
2026-01-09 08:30:44.71	354.95	6.25	-48.7	-64.2	3.8	1.49e+00	0	42	104	1016070144	68	22210
2026-01-09 08:30:46.00	354.84	6.17	-48.7	-64.2	3.8	1.49e+00	0	42	104	1016070144	68	22170
2026-01-09 08:30:46.72	354.78	6.13	-48.7	-64.2	3.8	1.49e+00	0	42	104	1016070144	68	22202
2026-01-09 08:30:48.01	354.67	6.05	-48.7	-64.2	3.8	1.49e+00	0	42	104	1016070144	68	22129
2026-01-09 08:30:48.73	354.61	6.00	-48.7	-64.2	3.8	1.49e+00	0	42	104	1016070144	68	22224
2026-01-09 08:30:50.02	354.50	5.92	-48.7	-64.2	3.8	1.49e+00	0	42	104	1016070144	68	22215
2026-01-09 08:30:50.74	354.44	5.88	-48.7	-64.2	3.8	1.49e+00	0	42	104	1016070144	68	22167
2026-01-09 08:30:52.03	354.33	5.80	-48.7	-64.2	3.8	1.49e+00	0	42	104	1016070144	68	22216
2026-01-09 08:30:52.75	354.27	5.75	-48.7	-64.3	3.8	1.49e+00	0	42	104	1016070144	68	22285
2026-01-09 08:30:54.04	354.17	5.67	-48.7	-64.2	3.8	1.49e+00	0	42	104	1016070144	68	22175
2026-01-09 08:30:54.76	354.11	5.63	-48.7	-64.2	3.8	1.49e+00	0	42	104	1016070144	68	22190
2026-01-09 08:30:56.05	354.00	5.55	-48.7	-64.2	3.8	1.49e+00	0	42	104	1016070144	68	22243
2026-01-09 08:30:56.76	353.94	5.51	-48.7	-64.2	3.8	1.49e+00	0	42	104	1016070144	68	22136
2026-01-09 08:30:58.06	353.84	5.43	-48.7	-64.2	3.8	1.49e+00	0	42	104	1016070144	68	22235
2026-01-09 08:30:58.78	353.78	5.38	-48.7	-64.2	3.8	1.49e+00	0	42	104	1016070144	68	22202
2026-01-09 08:31:00.07	353.68	5.30	-48.7	-64.2	3.8	1.49e+00	0	42	104	1016070144	68	22193
2026-01-09 08:31:00.78	353.62	5.26	-48.7	-64.2	3.8	1.49e+00	0	42	104	1016070144	68	22172
2026-01-09 08:31:02.07	353.52	5.18	-48.7	-64.2	3.8	1.49e+00	0	42	104	1016070144	68	22095
2026-01-09 08:31:02.79	353.46	5.14	-48.7	-64.2	3.8	1.49e+00	0	42	104	1016070144	68	22119
2026-01-09 08:31:04.08	353.36	5.06	-48.7	-64.2	3.8	1.49e+00	0	42	104	1016070144	68	22196
2026-01-09 08:31:04.80	353.30	5.02	-48.7	-64.2	3.8	1.49e+00	0	42	104	1016070144	68	22166
2026-01-09 08:31:06.09	353.20	4.94	-48.7	-64.2	3.8	1.49e+00	0	42	104	1016070144	68	22160

#Closed at: 2026-01-09 08:31:06
#Recorded file [1016 MB]: D:/Data/31040_260109_112007.dat