passes_logs/2026/01/09/T1/T1__20260109_112420_AQUA_rec.log

#Pass ID: 20260109_112420_AQUA
#Satellite: AQUA
#Configuration: AQUA
#almurnet v.1.7.20251203
#Start time: 2026-01-09 11:24:21

#Version: 2.0.20230620
#Station: T1
#Location: 37.570604 lon 55.790049 lat
#TLE: 1 27424U 02022A   26004.96787593  .00001598  00000+0  32997-3 0  9996
#TLE: 2 27424  98.4069 331.2279 0002002  90.2377   0.6092 14.61798176259425

#Time	Az	El	Level	Level2	SNR	BER	BlckErr	Temp	State	Recorded	gain1	gain2
2026-01-09 11:24:21.40	152.29	5.11	-49.5	-68.7	3.8	7.45e-01	0	41	104	0	69	35129
2026-01-09 11:24:22.40	152.28	5.18	-49.5	-68.6	3.8	7.45e-01	0	41	104	0	69	34532
2026-01-09 11:24:23.40	152.26	5.26	-49.5	-68.6	3.8	7.46e-01	0	41	104	0	69	34795
2026-01-09 11:24:24.41	152.24	5.34	-49.5	-68.8	3.8	7.45e-01	0	41	104	0	69	35428
2026-01-09 11:24:25.41	152.23	5.41	-49.5	-69.0	3.8	7.48e-01	0	41	104	0	69	36469
2026-01-09 11:24:26.41	152.21	5.49	-49.5	-69.5	3.8	7.48e-01	0	41	104	0	69	38470
2026-01-09 11:24:27.42	152.19	5.57	-49.5	-70.0	3.8	7.45e-01	0	41	104	0	69	40652
2026-01-09 11:24:28.42	152.18	5.64	-49.6	-70.3	3.8	7.45e-01	0	41	104	0	69	42240
2026-01-09 11:24:29.43	152.16	5.72	-49.5	-70.4	3.8	7.47e-01	0	41	104	0	69	42709
2026-01-09 11:24:30.43	152.14	5.80	-49.6	-70.2	3.8	7.47e-01	0	41	104	0	69	41505
2026-01-09 11:24:31.44	152.12	5.88	-49.5	-69.5	3.8	7.43e-01	0	41	104	0	69	38637
2026-01-09 11:24:32.44	152.11	5.95	-49.5	-68.9	3.8	7.48e-01	0	41	104	0	69	35846
2026-01-09 11:24:33.44	152.09	6.03	-49.5	-67.8	4.0	7.42e-01	0	41	104	0	69	31602
2026-01-09 11:24:34.45	152.07	6.11	-49.5	-67.1	4.0	7.34e-01	0	42	104	0	69	29157
2026-01-09 11:24:35.45	152.05	6.19	-49.4	-66.6	3.9	7.33e-01	0	41	104	0	69	27524
2026-01-09 11:24:36.46	152.03	6.27	-49.4	-66.6	3.9	7.40e-01	0	42	104	0	69	27426
2026-01-09 11:24:37.46	152.02	6.35	-49.4	-65.8	4.4	7.29e-01	0	41	104	0	69	25089
2026-01-09 11:24:38.46	152.00	6.43	-49.4	-65.4	4.6	7.19e-01	0	42	104	0	69	23997
2026-01-09 11:24:39.47	151.98	6.51	-49.4	-64.9	5.0	7.13e-01	0	42	0	0	69	22607
2026-01-09 11:24:40.47	151.96	6.59	-49.4	-64.2	5.3	7.01e-01	0	42	0	0	69	20950
2026-01-09 11:24:41.48	151.94	6.67	-49.4	-63.6	5.8	6.93e-01	0	42	0	1048576	69	19591
2026-01-09 11:24:42.48	151.92	6.75	-49.3	-62.7	6.4	6.72e-01	0	42	0	2621440	69	17582
2026-01-09 11:24:43.48	151.90	6.83	-49.3	-61.9	7.2	6.60e-01	0	42	0	4194304	69	15955
2026-01-09 11:24:44.49	151.88	6.91	-49.1	-60.6	8.4	6.42e-01	0	42	0	6291456	69	13856
2026-01-09 11:24:45.49	151.86	7.00	-49.0	-59.8	9.2	6.34e-01	0	42	0	8388608	69	12657
2026-01-09 11:24:46.50	151.85	7.08	-48.8	-58.7	10.4	6.21e-01	0	42	0	9961472	69	11089
2026-01-09 11:24:47.50	151.83	7.16	-48.7	-57.9	11.3	6.17e-01	0	42	0	12058624	69	10089
2026-01-09 11:24:48.51	151.81	7.24	-48.5	-56.8	12.4	6.12e-01	0	42	0	13631488	69	8890
2026-01-09 11:24:49.51	151.79	7.33	-48.3	-55.8	13.5	6.11e-01	0	42	0	15728640	68	8404
2026-01-09 11:24:50.51	151.77	7.41	-47.9	-54.7	14.5	6.08e-01	0	42	0	17301504	67	7844
2026-01-09 11:24:51.52	151.75	7.49	-47.4	-53.4	15.8	6.07e-01	0	42	0	19398656	66	7177
2026-01-09 11:24:52.52	151.73	7.58	-47.1	-52.7	16.5	6.08e-01	0	42	0	21495808	66	6606
2026-01-09 11:24:53.53	151.71	7.66	-46.7	-51.7	17.5	6.09e-01	0	42	0	23068672	65	6212
2026-01-09 11:24:54.53	151.68	7.75	-46.3	-50.9	18.3	6.09e-01	0	42	0	25165824	64	6030
2026-01-09 11:24:55.53	151.66	7.83	-46.0	-50.4	18.8	6.08e-01	0	42	0	27262976	64	5659
2026-01-09 11:24:56.54	151.64	7.92	-45.8	-50.0	19.3	6.07e-01	0	42	0	28835840	63	5741
2026-01-09 11:24:57.54	151.62	8.00	-45.6	-49.6	19.3	6.06e-01	0	42	0	30932992	63	5479
2026-01-09 11:24:58.55	151.60	8.09	-45.5	-49.5	19.8	6.08e-01	0	42	0	32505856	63	5416
2026-01-09 11:24:59.55	151.58	8.17	-45.5	-49.5	19.8	6.05e-01	0	42	0	34603008	62	5727
2026-01-09 11:25:00.56	151.56	8.26	-45.7	-49.7	19.5	6.08e-01	0	42	0	36175872	62	5892
2026-01-09 11:25:01.56	151.54	8.35	-45.9	-50.2	19.1	6.08e-01	0	42	0	38273024	62	6206
2026-01-09 11:25:02.56	151.51	8.43	-46.3	-50.9	18.4	6.08e-01	0	42	0	40370176	63	6362
2026-01-09 11:25:03.57	151.49	8.52	-46.7	-51.7	17.5	6.06e-01	0	42	0	41943040	64	6600
2026-01-09 11:25:04.57	151.47	8.61	-47.3	-53.0	16.3	6.09e-01	0	42	0	44040192	65	7240
2026-01-09 11:25:05.58	151.45	8.70	-47.8	-54.5	14.7	6.08e-01	0	42	0	45613056	66	8152
2026-01-09 11:25:06.58	151.43	8.79	-48.4	-56.6	12.6	6.10e-01	0	42	0	47710208	67	9759
2026-01-09 11:25:07.58	151.40	8.87	-48.9	-59.0	10.3	6.23e-01	0	42	0	49807360	68	12107
2026-01-09 11:25:08.59	151.38	8.96	-49.2	-62.1	7.1	6.61e-01	0	42	0	51380224	69	16460
2026-01-09 11:25:09.59	151.36	9.05	-49.2	-59.8	9.0	6.34e-01	0	42	0	52953088	69	12581
2026-01-09 11:25:10.60	151.33	9.14	-47.6	-53.5	15.4	6.07e-01	0	42	0	55050240	67	6857
2026-01-09 11:25:11.86	151.31	9.26	-49.3	-69.3	3.9	7.43e-01	0	43	104	56623104	69	37480
2026-01-09 11:25:12.63	151.29	9.33	-48.8	-58.5	5.1	6.53e-01	0	42	104	56623104	69	10790
2026-01-09 11:25:14.22	151.25	9.47	-46.4	-50.7	18.5	6.07e-01	0	43	0	58720256	64	5918
2026-01-09 11:25:14.80	151.24	9.52	-46.4	-50.9	18.2	6.05e-01	0	42	0	59768832	64	6001
2026-01-09 11:25:16.39	151.20	9.67	-46.2	-50.5	18.9	6.07e-01	0	43	0	62914560	64	5724
2026-01-09 11:25:16.96	151.18	9.72	-46.0	-49.9	19.5	6.06e-01	0	42	0	63963136	63	5708
2026-01-09 11:25:18.54	151.15	9.87	-45.1	-48.6	20.8	6.04e-01	0	43	0	67108864	62	5180
2026-01-09 11:25:19.15	151.13	9.92	-44.8	-48.2	21.1	6.07e-01	0	43	0	68157440	61	5263
2026-01-09 11:25:20.75	151.09	10.07	-44.4	-47.6	21.8	6.05e-01	0	43	0	71303168	60	5163
2026-01-09 11:25:21.33	151.08	10.13	-44.3	-47.5	21.9	6.06e-01	0	42	0	72351744	60	5136
2026-01-09 11:25:22.92	151.04	10.28	-44.1	-47.2	22.2	6.06e-01	0	43	0	74973184	60	4954
2026-01-09 11:25:23.49	151.02	10.33	-44.1	-47.1	20.0	6.06e-01	0	43	0	76546048	59	5212
2026-01-09 11:25:25.08	150.98	10.48	-44.2	-47.2	22.3	6.06e-01	0	43	0	79167488	59	5255
2026-01-09 11:25:25.66	150.97	10.54	-44.1	-47.1	22.4	6.06e-01	0	43	0	80216064	59	5192
2026-01-09 11:25:27.23	150.93	10.69	-43.9	-46.7	22.8	6.07e-01	0	43	0	83361792	59	4981
2026-01-09 11:25:27.85	150.91	10.75	-43.9	-46.8	22.7	6.08e-01	0	43	0	84410368	59	5024
2026-01-09 11:25:29.56	150.86	10.91	-43.9	-46.7	22.9	6.06e-01	0	43	0	87556096	59	4947
2026-01-09 11:25:30.13	150.85	10.97	-43.8	-46.5	23.0	6.07e-01	0	43	0	88604672	59	4863
2026-01-09 11:25:32.15	150.79	11.16	-43.7	-46.5	22.9	6.06e-01	0	43	0	92274688	59	4833
2026-01-09 11:25:32.73	150.78	11.22	-43.7	-46.5	23.1	6.05e-01	0	43	0	93847552	59	4827
2026-01-09 11:25:34.32	150.73	11.38	-43.6	-46.4	23.1	6.07e-01	0	43	0	96468992	59	4804
2026-01-09 11:25:34.89	150.72	11.43	-43.6	-46.5	23.1	6.05e-01	0	43	0	97517568	59	4830
2026-01-09 11:25:36.48	150.67	11.59	-43.6	-46.4	23.1	6.08e-01	0	43	0	100663296	59	4810
2026-01-09 11:25:37.06	150.66	11.65	-43.6	-46.4	23.1	6.06e-01	0	43	0	101711872	59	4812
2026-01-09 11:25:38.64	150.61	11.81	-43.5	-46.4	23.2	6.06e-01	0	43	0	104857600	59	4802
2026-01-09 11:25:39.45	150.59	11.89	-43.5	-46.4	23.1	6.08e-01	0	43	0	106430464	59	4814
2026-01-09 11:25:40.59	150.56	12.01	-43.5	-46.5	23.1	6.05e-01	0	43	0	108527616	59	4823
2026-01-09 11:25:41.75	150.52	12.13	-43.5	-46.4	23.2	6.09e-01	0	43	0	110624768	59	4783
2026-01-09 11:25:42.82	150.49	12.24	-43.5	-46.4	23.2	6.07e-01	0	43	0	112721920	58	5059
2026-01-09 11:25:43.85	150.46	12.34	-43.5	-46.4	23.2	6.06e-01	0	43	0	114294784	58	5093
2026-01-09 11:25:44.85	150.43	12.45	-43.6	-46.5	23.1	6.04e-01	0	43	0	116391936	58	5126
2026-01-09 11:25:45.85	150.40	12.55	-43.6	-46.5	23.1	6.07e-01	0	43	0	117964800	58	5155
2026-01-09 11:25:46.85	150.37	12.66	-43.5	-46.4	23.2	6.05e-01	0	43	0	120061952	58	5072
2026-01-09 11:25:47.86	150.34	12.76	-43.5	-46.3	23.2	6.05e-01	0	43	0	122159104	58	5037
2026-01-09 11:25:48.86	150.31	12.87	-43.4	-46.3	23.3	6.09e-01	0	43	0	123731968	58	5025
2026-01-09 11:25:49.87	150.28	12.97	-43.5	-46.3	23.3	6.07e-01	0	43	0	125829120	58	5028
2026-01-09 11:25:50.87	150.24	13.08	-43.5	-46.3	23.3	6.06e-01	0	43	0	127401984	58	5020
2026-01-09 11:25:51.88	150.21	13.19	-43.6	-46.3	23.3	6.10e-01	0	43	0	129499136	58	5027
2026-01-09 11:25:52.88	150.18	13.30	-43.5	-46.3	23.4	6.05e-01	0	43	0	131596288	58	4988
2026-01-09 11:25:53.89	150.15	13.41	-43.5	-46.2	23.4	6.06e-01	0	43	0	133169152	58	4945
2026-01-09 11:25:54.89	150.11	13.52	-43.4	-46.1	23.5	6.07e-01	0	43	0	135266304	58	4903
2026-01-09 11:25:55.94	150.08	13.63	-43.4	-46.1	23.5	6.05e-01	0	43	0	137363456	58	4876
2026-01-09 11:25:56.85	150.05	13.73	-43.4	-46.1	23.5	6.08e-01	0	43	0	138936320	58	4914
2026-01-09 11:25:57.88	150.01	13.84	-43.4	-46.1	23.5	6.06e-01	0	43	0	141033472	58	4905
2026-01-09 11:25:58.88	149.98	13.95	-43.4	-46.1	23.5	6.06e-01	0	43	0	142606336	58	4910
2026-01-09 11:25:59.88	149.95	14.07	-43.4	-46.1	23.5	6.06e-01	0	43	0	144703488	58	4916
2026-01-09 11:26:00.88	149.91	14.18	-43.3	-46.0	23.5	6.07e-01	0	43	0	146276352	58	4843
2026-01-09 11:26:01.88	149.88	14.29	-43.3	-46.0	23.6	6.05e-01	0	43	0	148373504	58	4851
2026-01-09 11:26:02.89	149.84	14.41	-43.3	-46.1	23.6	6.10e-01	0	43	0	149946368	58	4888
2026-01-09 11:26:03.89	149.81	14.52	-43.3	-46.0	23.6	6.06e-01	0	43	0	152043520	58	4865
2026-01-09 11:26:04.89	149.77	14.63	-43.2	-46.0	23.7	6.07e-01	0	43	0	154140672	58	4818
2026-01-09 11:26:05.89	149.73	14.75	-43.2	-45.9	23.7	6.06e-01	0	43	0	155713536	58	4797
2026-01-09 11:26:06.90	149.70	14.86	-43.2	-45.9	23.8	6.04e-01	0	43	0	157810688	58	4777
2026-01-09 11:26:07.90	149.66	14.98	-43.2	-45.9	23.8	6.07e-01	0	43	0	159383552	58	4764
2026-01-09 11:26:08.90	149.62	15.10	-43.1	-45.9	23.8	6.06e-01	0	43	0	161480704	58	4763
2026-01-09 11:26:09.97	149.58	15.22	-43.1	-45.8	23.9	6.07e-01	0	43	0	163577856	58	4710
2026-01-09 11:26:10.83	149.55	15.32	-43.1	-45.8	23.9	6.08e-01	0	43	0	165150720	58	4709
2026-01-09 11:26:11.98	149.51	15.46	-43.0	-45.6	24.0	6.07e-01	0	43	0	167247872	58	4642
2026-01-09 11:26:12.84	149.48	15.56	-43.1	-45.7	24.0	6.09e-01	0	43	0	168820736	58	4676
2026-01-09 11:26:13.98	149.43	15.70	-43.1	-45.7	23.9	6.06e-01	0	43	0	170917888	58	4699
2026-01-09 11:26:14.84	149.40	15.80	-43.0	-45.6	24.0	6.06e-01	0	43	0	172490752	58	4606
2026-01-09 11:26:15.99	149.35	15.94	-43.2	-45.7	23.9	6.07e-01	0	43	0	174587904	58	4694
2026-01-09 11:26:16.85	149.32	16.05	-43.1	-45.7	23.9	6.05e-01	0	43	0	176160768	58	4666
2026-01-09 11:26:18.00	149.27	16.19	-43.1	-45.7	24.0	6.07e-01	0	43	0	178257920	58	4669
2026-01-09 11:26:18.86	149.24	16.29	-43.2	-45.8	23.9	6.06e-01	0	43	0	179830784	58	4707
2026-01-09 11:26:20.02	149.19	16.44	-43.2	-45.8	23.9	6.06e-01	0	43	0	182452224	58	4714
2026-01-09 11:26:20.88	149.15	16.55	-43.2	-45.8	23.9	6.11e-01	0	43	0	184025088	58	4724
2026-01-09 11:26:22.11	149.10	16.70	-43.2	-45.8	23.9	6.07e-01	0	43	0	186122240	58	4739
2026-01-09 11:26:22.97	149.07	16.81	-43.2	-45.9	23.8	6.07e-01	0	43	0	187695104	58	4760
2026-01-09 11:26:24.11	149.02	16.95	-43.2	-45.9	23.8	6.05e-01	0	43	0	189792256	58	4781
2026-01-09 11:26:24.97	148.98	17.06	-43.2	-45.9	23.8	6.07e-01	0	43	0	191365120	58	4778
2026-01-09 11:26:26.11	148.93	17.21	-43.2	-45.9	23.8	6.08e-01	0	43	0	193462272	58	4785
2026-01-09 11:26:26.97	148.90	17.32	-43.2	-45.9	23.7	6.07e-01	0	43	0	195035136	58	4808
2026-01-09 11:26:28.12	148.84	17.47	-43.3	-46.1	23.6	6.06e-01	0	43	0	197656576	58	4882
2026-01-09 11:26:29.09	148.80	17.59	-43.3	-46.0	23.7	6.08e-01	0	43	0	199229440	58	4845
2026-01-09 11:26:30.28	148.75	17.75	-43.2	-45.9	23.7	6.07e-01	0	43	0	201326592	58	4795
2026-01-09 11:26:31.14	148.71	17.86	-43.2	-45.9	23.8	6.07e-01	0	43	0	202899456	58	4775
2026-01-09 11:26:32.49	148.65	18.04	-43.2	-45.9	23.8	6.04e-01	0	43	0	205520896	58	4769
2026-01-09 11:26:33.21	148.61	18.14	-43.1	-45.8	23.9	6.07e-01	0	43	0	207093760	58	4706
2026-01-09 11:26:34.50	148.55	18.31	-43.1	-45.7	23.9	6.07e-01	0	43	0	209190912	58	4679
2026-01-09 11:26:35.22	148.52	18.41	-43.1	-45.7	24.0	6.08e-01	0	43	0	210763776	58	4672
2026-01-09 11:26:36.51	148.46	18.59	-43.2	-45.7	23.9	6.07e-01	0	43	0	213385216	58	4704
2026-01-09 11:26:37.22	148.42	18.68	-43.1	-45.7	24.0	6.06e-01	0	43	0	214433792	58	4654
2026-01-09 11:26:38.83	148.34	18.90	-42.9	-45.5	24.2	6.06e-01	0	43	0	217579520	57	4820
2026-01-09 11:26:39.40	148.32	18.98	-43.0	-45.5	24.1	6.07e-01	0	43	0	218628096	57	4853
2026-01-09 11:26:40.98	148.24	19.20	-43.0	-45.6	24.2	6.07e-01	0	43	0	221773824	57	4874
2026-01-09 11:26:41.57	148.21	19.29	-43.1	-45.6	24.1	6.08e-01	0	43	0	222822400	57	4914
2026-01-09 11:26:43.14	148.13	19.51	-43.1	-45.7	24.0	6.07e-01	0	43	0	225443840	57	4945
2026-01-09 11:26:43.88	148.09	19.61	-43.2	-45.7	24.0	6.07e-01	0	43	0	227016704	57	4968
2026-01-09 11:26:45.17	148.02	19.80	-43.3	-45.9	23.8	6.06e-01	0	43	0	229638144	57	5050
2026-01-09 11:26:46.08	147.97	19.93	-43.2	-45.8	23.9	6.07e-01	0	43	0	231211008	57	5029
2026-01-09 11:26:47.40	147.90	20.12	-43.3	-45.9	23.9	6.06e-01	0	43	0	233832448	57	5081
2026-01-09 11:26:48.11	147.86	20.23	-43.4	-46.0	23.8	6.08e-01	0	43	0	234881024	57	5115
2026-01-09 11:26:49.72	147.78	20.46	-43.3	-46.0	23.8	6.03e-01	0	43	0	238026752	57	5121
2026-01-09 11:26:50.30	147.74	20.55	-43.4	-46.0	23.7	6.08e-01	0	43	0	239075328	57	5135
2026-01-09 11:26:51.87	147.65	20.78	-43.3	-46.0	23.8	6.06e-01	0	43	0	242221056	57	5135
2026-01-09 11:26:52.48	147.62	20.87	-43.4	-46.1	23.7	6.09e-01	0	43	0	243269632	57	5162
2026-01-09 11:26:54.05	147.53	21.11	-43.3	-46.0	23.8	6.07e-01	0	43	0	245891072	57	5108
2026-01-09 11:26:54.77	147.49	21.22	-43.3	-46.0	23.8	6.07e-01	0	43	0	247463936	57	5125
2026-01-09 11:26:56.06	147.41	21.42	-43.3	-46.0	23.7	6.06e-01	0	43	0	250085376	57	5144
2026-01-09 11:26:56.98	147.36	21.56	-43.3	-46.1	23.7	6.07e-01	0	43	0	251658240	57	5169
2026-01-09 11:26:57.99	147.30	21.72	-43.3	-46.1	23.6	6.06e-01	0	43	0	253755392	57	5198
2026-01-09 11:26:58.99	147.24	21.87	-43.3	-46.1	23.6	6.06e-01	0	43	0	255328256	57	5217
2026-01-09 11:26:59.99	147.18	22.03	-43.2	-46.1	23.7	6.06e-01	0	43	0	257425408	57	5174
2026-01-09 11:27:01.00	147.11	22.19	-43.2	-46.1	23.7	6.07e-01	0	43	0	258998272	57	5183
2026-01-09 11:27:02.00	147.05	22.35	-43.2	-46.1	23.6	6.06e-01	0	43	0	261095424	57	5198
2026-01-09 11:27:03.00	146.99	22.51	-43.1	-46.1	23.7	6.06e-01	0	43	0	262668288	57	5203
2026-01-09 11:27:04.01	146.92	22.68	-43.1	-46.1	23.7	6.08e-01	0	43	0	264765440	57	5201
2026-01-09 11:27:05.01	146.86	22.84	-43.2	-46.2	23.6	6.06e-01	0	43	0	266862592	57	5256
2026-01-09 11:27:06.01	146.79	23.00	-43.3	-46.3	23.5	6.06e-01	0	43	0	268435456	57	5309
2026-01-09 11:27:07.01	146.72	23.17	-43.5	-46.4	23.4	6.05e-01	0	43	0	270532608	57	5390
2026-01-09 11:27:08.02	146.66	23.34	-43.6	-46.5	23.3	6.03e-01	0	43	0	272105472	57	5432
2026-01-09 11:27:09.02	146.59	23.50	-43.7	-46.6	23.3	6.05e-01	0	43	0	274202624	58	5168
2026-01-09 11:27:10.02	146.52	23.67	-43.7	-46.5	23.3	6.06e-01	0	43	0	276299776	58	5133
2026-01-09 11:27:11.03	146.45	23.84	-43.8	-46.5	23.3	6.07e-01	0	43	0	277872640	58	5143
2026-01-09 11:27:12.03	146.38	24.01	-43.7	-46.4	23.4	6.08e-01	0	43	0	279969792	58	5100
2026-01-09 11:27:13.04	146.31	24.19	-43.7	-46.4	23.5	6.06e-01	0	43	0	281542656	58	5042
2026-01-09 11:27:14.04	146.23	24.36	-43.6	-46.2	23.6	6.07e-01	0	43	0	283639808	58	4957
2026-01-09 11:27:15.04	146.16	24.53	-43.5	-46.1	23.8	6.06e-01	0	43	0	285212672	58	4879
2026-01-09 11:27:16.05	146.09	24.71	-43.3	-45.9	23.9	6.04e-01	0	43	0	287309824	58	4792
2026-01-09 11:27:17.05	146.01	24.89	-43.3	-45.8	24.0	6.06e-01	0	43	0	289406976	58	4748
2026-01-09 11:27:18.05	145.94	25.07	-43.2	-45.8	24.0	6.07e-01	0	43	0	290979840	58	4727
2026-01-09 11:27:19.05	145.86	25.24	-43.2	-45.8	24.0	6.08e-01	0	43	0	293076992	58	4714
2026-01-09 11:27:20.25	145.77	25.46	-43.3	-45.9	24.0	6.07e-01	0	43	0	295174144	58	4777
2026-01-09 11:27:21.16	145.69	25.63	-43.2	-45.9	23.9	6.07e-01	0	43	0	296747008	58	4779
2026-01-09 11:27:22.16	145.62	25.81	-43.4	-46.1	23.8	6.08e-01	0	43	0	298844160	58	4893
2026-01-09 11:27:23.17	145.53	26.00	-43.5	-46.2	23.6	6.09e-01	0	43	0	300417024	58	4962
2026-01-09 11:27:24.17	145.45	26.18	-43.5	-46.2	23.6	6.08e-01	0	43	0	302514176	58	4981
2026-01-09 11:27:25.44	145.35	26.42	-43.5	-46.3	23.6	6.09e-01	0	43	0	305135616	58	4998
2026-01-09 11:27:26.19	145.28	26.56	-43.7	-46.4	23.5	6.06e-01	0	43	0	306184192	58	5074
2026-01-09 11:27:27.48	145.17	26.81	-43.5	-46.2	23.6	6.08e-01	0	43	0	308805632	58	4977
2026-01-09 11:27:28.20	145.11	26.94	-43.5	-46.2	23.7	6.08e-01	0	43	0	310378496	58	4937
2026-01-09 11:27:29.49	145.00	27.19	-43.4	-46.1	23.8	6.06e-01	0	43	0	312475648	58	4883
2026-01-09 11:27:30.20	144.94	27.33	-43.4	-46.0	23.8	6.05e-01	0	43	0	314048512	58	4863
2026-01-09 11:27:31.50	144.82	27.58	-42.9	-45.5	24.2	6.03e-01	0	43	0	316145664	57	4828
2026-01-09 11:27:32.21	144.76	27.72	-42.7	-45.2	24.6	6.07e-01	0	43	0	317718528	57	4695
2026-01-09 11:27:33.57	144.63	27.99	-42.7	-45.2	24.6	6.09e-01	0	43	0	320339968	57	4663
2026-01-09 11:27:34.28	144.56	28.14	-42.8	-45.2	24.6	6.06e-01	0	43	0	321388544	57	4703
2026-01-09 11:27:35.57	144.44	28.40	-43.0	-45.5	24.4	6.07e-01	0	43	0	324009984	57	4826
2026-01-09 11:27:36.29	144.37	28.54	-43.2	-45.7	24.1	6.07e-01	0	43	0	325058560	57	4952
2026-01-09 11:27:37.58	144.25	28.81	-43.2	-45.8	24.0	6.06e-01	0	43	0	327680000	57	5028
2026-01-09 11:27:38.69	144.14	29.04	-43.2	-45.9	24.0	6.09e-01	0	43	0	329777152	57	5060
2026-01-09 11:27:39.55	144.05	29.22	-43.2	-45.8	24.1	6.05e-01	0	43	0	331350016	57	5004
2026-01-09 11:27:40.70	143.94	29.46	-43.1	-45.7	24.1	6.07e-01	0	43	0	333447168	57	4961
2026-01-09 11:27:41.56	143.85	29.64	-43.1	-45.7	24.1	6.06e-01	0	43	0	335020032	57	4956
2026-01-09 11:27:42.70	143.73	29.88	-42.9	-45.4	24.4	6.06e-01	0	43	0	337117184	57	4803
2026-01-09 11:27:43.56	143.64	30.06	-42.9	-45.4	24.4	6.07e-01	0	43	0	338690048	57	4797
2026-01-09 11:27:44.71	143.51	30.31	-43.0	-45.6	24.3	6.08e-01	0	43	0	341311488	57	4875
2026-01-09 11:27:45.56	143.42	30.50	-43.0	-45.5	24.3	6.08e-01	0	43	0	342884352	57	4831
2026-01-09 11:27:46.71	143.30	30.75	-42.9	-45.4	24.5	6.06e-01	0	43	0	344981504	57	4766
2026-01-09 11:27:47.65	143.19	30.96	-42.8	-45.2	24.6	6.05e-01	0	43	0	346554368	57	4689
2026-01-09 11:27:48.65	143.08	31.18	-42.6	-45.0	24.8	6.07e-01	0	43	0	348651520	57	4586
2026-01-09 11:27:49.66	142.96	31.41	-42.7	-45.2	24.6	6.08e-01	0	43	0	350224384	57	4656
2026-01-09 11:27:50.66	142.84	31.63	-42.8	-45.3	24.5	6.05e-01	0	43	0	352321536	57	4722
2026-01-09 11:27:51.66	142.72	31.86	-43.0	-45.5	24.4	6.07e-01	0	43	0	353894400	57	4843
2026-01-09 11:27:52.67	142.60	32.09	-43.1	-45.6	24.2	6.09e-01	0	43	0	355991552	57	4926
2026-01-09 11:27:53.67	142.48	32.32	-43.1	-45.5	24.3	6.06e-01	0	43	0	358088704	57	4870
2026-01-09 11:27:54.67	142.36	32.56	-43.0	-45.5	24.3	6.06e-01	0	43	0	359661568	57	4863
2026-01-09 11:27:55.67	142.23	32.79	-43.0	-45.6	24.3	6.06e-01	0	43	0	361758720	57	4871
2026-01-09 11:27:56.68	142.10	33.03	-43.0	-45.5	24.4	6.07e-01	0	43	0	363331584	57	4852
2026-01-09 11:27:57.68	141.97	33.27	-43.1	-45.6	24.3	6.06e-01	0	44	0	365428736	57	4888
2026-01-09 11:27:58.68	141.84	33.51	-43.3	-45.9	24.0	6.08e-01	0	43	0	367525888	57	5053
2026-01-09 11:27:59.77	141.69	33.77	-43.4	-46.0	23.9	6.05e-01	0	43	0	369098752	57	5107
2026-01-09 11:28:00.66	141.57	33.99	-43.4	-46.0	23.9	6.06e-01	0	43	0	371195904	57	5122
2026-01-09 11:28:01.80	141.41	34.27	-43.6	-46.2	23.7	6.04e-01	0	43	0	373293056	57	5271
2026-01-09 11:28:02.66	141.29	34.48	-43.7	-46.4	23.6	6.07e-01	0	43	0	374865920	58	5048
2026-01-09 11:28:04.03	141.10	34.83	-43.8	-46.4	23.5	6.06e-01	0	44	0	377487360	58	5099
2026-01-09 11:28:04.74	140.99	35.00	-43.7	-46.4	23.5	6.07e-01	0	43	0	378535936	58	5062
2026-01-09 11:28:06.03	140.80	35.33	-44.0	-46.7	23.3	6.04e-01	0	43	0	381157376	58	5269
2026-01-09 11:28:06.75	140.69	35.52	-44.2	-47.1	22.9	6.06e-01	0	43	0	382205952	59	5163
2026-01-09 11:28:08.04	140.50	35.85	-44.5	-47.4	22.6	6.06e-01	0	43	0	384827392	59	5380
2026-01-09 11:28:08.76	140.38	36.04	-44.5	-47.4	22.6	6.08e-01	0	43	0	386400256	59	5374
2026-01-09 11:28:10.04	140.18	36.37	-44.4	-47.2	22.8	6.08e-01	0	43	0	388497408	59	5257
2026-01-09 11:28:10.76	140.07	36.56	-44.4	-47.2	22.8	6.08e-01	0	43	0	390070272	59	5262
2026-01-09 11:28:12.05	139.86	36.90	-44.4	-47.2	22.8	6.04e-01	0	43	0	392167424	59	5238
2026-01-09 11:28:12.76	139.74	37.09	-44.6	-47.5	22.6	6.09e-01	0	43	0	393740288	59	5424
2026-01-09 11:28:14.05	139.52	37.44	-44.7	-47.7	22.2	6.07e-01	0	43	0	395837440	60	5255
2026-01-09 11:28:14.77	139.40	37.64	-44.7	-47.8	22.2	6.07e-01	0	43	0	397410304	60	5285
2026-01-09 11:28:16.06	139.17	37.99	-44.6	-47.6	22.3	6.08e-01	0	44	0	400031744	60	5160
2026-01-09 11:28:17.16	138.97	38.30	-44.5	-47.5	22.4	6.07e-01	0	43	0	402128896	60	5125
2026-01-09 11:28:18.34	138.76	38.62	-44.5	-47.4	22.5	6.06e-01	0	43	0	404226048	60	5090
2026-01-09 11:28:19.19	138.60	38.86	-44.6	-47.6	22.3	6.07e-01	0	43	0	405798912	60	5209
2026-01-09 11:28:20.34	138.38	39.19	-44.8	-47.8	22.2	6.07e-01	0	44	0	407896064	60	5288
2026-01-09 11:28:21.19	138.22	39.43	-44.6	-47.6	22.3	6.06e-01	0	43	0	409468928	60	5187
2026-01-09 11:28:22.34	137.99	39.76	-44.7	-47.7	22.2	6.08e-01	0	43	0	411566080	60	5245
2026-01-09 11:28:23.20	137.82	40.01	-44.5	-47.5	22.5	6.06e-01	0	44	0	413138944	60	5125
2026-01-09 11:28:24.34	137.59	40.34	-44.6	-47.5	22.4	6.07e-01	0	43	0	415236096	60	5151
2026-01-09 11:28:25.20	137.41	40.60	-44.6	-47.6	22.3	6.07e-01	0	44	0	416808960	60	5195
2026-01-09 11:28:26.34	137.17	40.93	-44.6	-47.5	22.4	6.07e-01	0	43	0	418906112	60	5130
2026-01-09 11:28:27.20	136.98	41.19	-44.6	-47.6	22.4	6.09e-01	0	44	0	421003264	60	5181
2026-01-09 11:28:28.34	136.73	41.53	-44.1	-46.9	23.0	6.06e-01	0	43	0	423100416	60	4786
2026-01-09 11:28:29.20	136.54	41.79	-43.9	-46.7	23.3	6.08e-01	0	43	0	424673280	59	4927
2026-01-09 11:28:30.35	136.28	42.14	-44.1	-46.8	23.2	6.06e-01	0	43	0	426770432	59	5008
2026-01-09 11:28:31.21	136.08	42.41	-44.1	-46.8	23.2	6.07e-01	0	43	0	428343296	59	5018
2026-01-09 11:28:32.35	135.81	42.76	-44.1	-46.9	23.2	6.07e-01	0	43	0	430440448	59	5052
2026-01-09 11:28:33.21	135.60	43.02	-44.1	-46.9	23.1	6.07e-01	0	44	0	432013312	59	5049
2026-01-09 11:28:34.36	135.32	43.38	-43.9	-46.7	23.3	6.08e-01	0	44	0	434110464	59	4933
2026-01-09 11:28:35.22	135.10	43.66	-43.5	-46.2	23.8	6.07e-01	0	43	0	435683328	59	4664
2026-01-09 11:28:36.37	134.81	44.02	-43.4	-46.0	24.0	6.06e-01	0	43	0	437780480	58	4834
2026-01-09 11:28:37.23	134.58	44.29	-43.9	-46.6	23.5	6.07e-01	0	44	0	439353344	58	5164
2026-01-09 11:28:38.37	134.28	44.66	-44.1	-46.9	23.1	6.07e-01	0	44	0	441450496	58	5366
2026-01-09 11:28:39.23	134.04	44.94	-43.8	-46.5	23.5	6.08e-01	0	43	0	443547648	58	5132
2026-01-09 11:28:40.38	133.72	45.31	-43.8	-46.5	23.5	6.07e-01	0	44	0	445644800	58	5140
2026-01-09 11:28:41.24	133.47	45.59	-44.1	-46.9	23.1	6.06e-01	0	44	0	447217664	59	5064
2026-01-09 11:28:42.39	133.14	45.97	-43.8	-46.5	23.5	6.06e-01	0	44	0	449314816	59	4822
2026-01-09 11:28:43.25	132.88	46.26	-43.8	-46.5	23.5	6.09e-01	0	43	0	450887680	59	4851
2026-01-09 11:28:44.60	132.47	46.71	-43.8	-46.6	23.4	6.07e-01	0	44	0	453509120	59	4874
2026-01-09 11:28:45.32	132.25	46.95	-43.7	-46.3	23.7	6.05e-01	0	43	0	454557696	59	4741
2026-01-09 11:28:46.61	131.84	47.38	-43.8	-46.5	23.4	6.06e-01	0	43	0	457179136	59	4863
2026-01-09 11:28:47.33	131.60	47.63	-43.7	-46.4	23.6	6.06e-01	0	44	0	458752000	59	4777
2026-01-09 11:28:48.62	131.17	48.07	-43.7	-46.4	23.6	6.05e-01	0	43	0	460849152	59	4770
2026-01-09 11:28:49.36	130.92	48.32	-44.0	-46.7	23.4	6.07e-01	0	44	0	462422016	59	4954
2026-01-09 11:28:50.65	130.47	48.77	-43.6	-46.2	23.6	6.08e-01	0	44	0	464519168	59	4678
2026-01-09 11:28:51.37	130.21	49.02	-43.8	-46.4	23.5	6.07e-01	0	44	0	466092032	59	4811
2026-01-09 11:28:52.66	129.74	49.46	-43.8	-46.5	23.4	6.07e-01	0	44	0	468713472	59	4855
2026-01-09 11:28:53.50	129.43	49.76	-43.8	-46.4	23.5	6.08e-01	0	43	0	470286336	59	4798
2026-01-09 11:28:54.65	128.99	50.16	-43.7	-46.3	23.7	6.08e-01	0	43	0	472383488	59	4733
2026-01-09 11:28:55.71	128.57	50.53	-43.5	-46.1	23.9	6.07e-01	0	44	0	473956352	58	4907
2026-01-09 11:28:56.75	128.15	50.90	-43.4	-45.9	24.1	6.06e-01	0	44	0	476053504	58	4788
2026-01-09 11:28:57.90	127.67	51.31	-43.3	-45.8	24.2	6.06e-01	0	43	0	478150656	58	4748
2026-01-09 11:28:58.80	127.29	51.63	-43.3	-45.9	24.1	6.08e-01	0	44	0	480247808	58	4768
2026-01-09 11:28:59.99	126.77	52.06	-43.0	-45.6	24.3	6.06e-01	0	44	0	482344960	58	4619
2026-01-09 11:29:00.85	126.39	52.37	-42.8	-45.3	24.6	6.07e-01	0	43	0	483917824	57	4739
2026-01-09 11:29:02.14	125.80	52.83	-43.6	-46.3	23.7	6.07e-01	0	43	0	486539264	57	5329
2026-01-09 11:29:03.24	125.28	53.23	-43.3	-45.9	24.1	6.06e-01	0	43	0	488112128	57	5065
2026-01-09 11:29:04.42	124.70	53.65	-43.3	-45.8	24.1	6.07e-01	0	43	0	490733568	57	5010
2026-01-09 11:29:05.44	124.20	54.02	-43.3	-45.8	24.1	6.06e-01	0	43	0	492306432	57	5028
2026-01-09 11:29:06.44	123.68	54.38	-43.6	-46.2	23.8	6.06e-01	0	44	0	494403584	58	4959
2026-01-09 11:29:07.45	123.15	54.75	-43.3	-45.8	24.1	6.07e-01	0	43	0	495976448	58	4742
2026-01-09 11:29:08.45	122.61	55.11	-43.5	-46.0	24.0	6.06e-01	0	44	0	498073600	58	4864
2026-01-09 11:29:09.45	122.06	55.47	-43.6	-46.3	23.7	6.08e-01	0	43	0	500170752	58	4999
2026-01-09 11:29:10.45	121.49	55.84	-43.6	-46.2	23.8	6.07e-01	0	44	0	501743616	58	4963
2026-01-09 11:29:11.46	120.90	56.20	-43.8	-46.5	23.6	6.03e-01	0	44	0	503840768	58	5108
2026-01-09 11:29:12.46	120.30	56.56	-43.8	-46.5	23.5	6.07e-01	0	43	0	505413632	58	5129
2026-01-09 11:29:13.46	119.69	56.92	-43.8	-46.5	23.5	6.06e-01	0	43	0	507510784	58	5104
2026-01-09 11:29:14.46	119.05	57.28	-43.8	-46.4	23.6	6.08e-01	0	44	0	509083648	58	5100
2026-01-09 11:29:15.47	118.40	57.65	-44.3	-47.1	22.9	6.08e-01	0	44	0	511180800	59	5204
2026-01-09 11:29:16.47	117.73	58.00	-44.0	-46.7	23.3	6.06e-01	0	43	0	513277952	59	4957
2026-01-09 11:29:17.48	117.04	58.36	-43.9	-46.6	23.5	6.09e-01	0	44	0	514850816	59	4881
2026-01-09 11:29:18.48	116.34	58.72	-44.5	-47.2	22.9	6.07e-01	0	44	0	516947968	59	5274
2026-01-09 11:29:19.48	115.61	59.07	-44.4	-47.2	22.9	6.07e-01	0	43	0	519045120	59	5236
2026-01-09 11:29:20.48	114.87	59.42	-44.3	-47.1	23.0	6.06e-01	0	44	0	520617984	59	5167
2026-01-09 11:29:21.49	114.10	59.77	-44.6	-47.4	22.7	6.07e-01	0	43	0	522715136	59	5388
2026-01-09 11:29:22.49	113.32	60.12	-44.8	-47.8	22.2	6.08e-01	0	43	0	524288000	60	5313
2026-01-09 11:29:23.50	112.50	60.46	-43.7	-46.4	23.6	6.05e-01	0	44	0	526385152	59	4776
2026-01-09 11:29:24.50	111.67	60.80	-44.3	-47.1	23.0	6.09e-01	0	44	0	527958016	59	5216
2026-01-09 11:29:25.51	110.82	61.14	-44.6	-47.5	22.4	6.07e-01	0	44	0	530055168	60	5153
2026-01-09 11:29:26.51	109.94	61.47	-44.3	-47.1	22.9	6.06e-01	0	44	0	532152320	60	4878
2026-01-09 11:29:27.51	109.04	61.80	-44.1	-46.8	23.1	6.07e-01	0	43	0	533725184	60	4732
2026-01-09 11:29:28.52	108.11	62.12	-45.3	-48.4	21.6	6.07e-01	0	43	0	535822336	61	5366
2026-01-09 11:29:29.52	107.17	62.44	-44.9	-47.9	22.0	6.08e-01	0	43	0	537395200	61	5096
2026-01-09 11:29:30.53	106.19	62.76	-44.9	-47.8	22.2	6.08e-01	0	44	0	539492352	61	5037
2026-01-09 11:29:31.53	105.19	63.06	-45.3	-48.5	21.4	6.07e-01	0	44	0	541589504	61	5446
2026-01-09 11:29:32.53	104.17	63.36	-45.1	-48.2	21.6	6.07e-01	0	44	0	543162368	61	5261
2026-01-09 11:29:33.53	103.12	63.66	-44.9	-47.9	22.1	6.07e-01	0	44	0	545259520	61	5061
2026-01-09 11:29:34.54	102.03	63.95	-45.1	-48.1	21.9	6.06e-01	0	44	0	546832384	61	5163
2026-01-09 11:29:35.54	100.93	64.22	-45.3	-48.7	21.3	6.05e-01	0	44	0	548929536	61	5560
2026-01-09 11:29:36.54	99.80	64.50	-45.0	-48.4	21.6	6.07e-01	0	44	0	551026688	61	5360
2026-01-09 11:29:37.54	98.64	64.76	-45.1	-48.5	21.5	6.07e-01	0	43	0	552599552	61	5420
2026-01-09 11:29:38.55	97.45	65.02	-45.8	-49.3	20.8	6.08e-01	0	44	0	554696704	62	5605
2026-01-09 11:29:39.55	96.24	65.26	-45.6	-48.9	21.0	6.06e-01	0	44	0	556269568	62	5384
2026-01-09 11:29:40.55	95.00	65.50	-45.9	-49.5	20.6	6.05e-01	0	44	0	558366720	62	5766
2026-01-09 11:29:41.55	93.74	65.73	-46.2	-50.1	19.9	6.06e-01	0	44	0	559939584	63	5852
2026-01-09 11:29:42.56	92.44	65.95	-46.2	-49.9	20.2	6.06e-01	0	44	0	562036736	63	5695
2026-01-09 11:29:43.56	91.12	66.15	-46.4	-50.1	20.0	6.08e-01	0	43	0	564133888	63	5826
2026-01-09 11:29:44.56	89.78	66.35	-46.4	-50.3	19.7	6.08e-01	0	44	0	565706752	64	5602
2026-01-09 11:29:45.57	88.41	66.53	-46.0	-49.8	20.1	6.06e-01	0	44	0	567803904	64	5326
2026-01-09 11:29:46.57	87.02	66.70	-46.0	-49.9	20.1	6.06e-01	0	43	0	569376768	63	5720
2026-01-09 11:29:47.58	85.60	66.86	-46.1	-50.2	19.9	6.09e-01	0	44	0	571473920	63	5877
2026-01-09 11:29:48.58	84.17	67.01	-46.1	-50.2	19.8	6.07e-01	0	43	0	573571072	63	5896
2026-01-09 11:29:49.58	82.72	67.14	-46.1	-49.8	20.2	6.08e-01	0	44	0	575143936	63	5624
2026-01-09 11:29:50.75	81.01	67.28	-46.8	-50.9	19.1	6.05e-01	0	44	0	577241088	64	6025
2026-01-09 11:29:51.61	79.73	67.37	-46.0	-49.4	20.5	6.06e-01	0	43	0	578813952	64	5098
2026-01-09 11:29:52.99	77.66	67.49	-46.1	-49.7	20.3	6.07e-01	0	43	0	581435392	64	5226
2026-01-09 11:29:53.71	76.57	67.55	-46.3	-50.1	20.0	6.07e-01	0	44	0	583008256	64	5470
2026-01-09 11:29:55.00	74.61	67.63	-46.5	-50.5	19.6	6.08e-01	0	44	0	585629696	64	5733
2026-01-09 11:29:55.72	73.51	67.66	-46.4	-50.1	19.9	6.06e-01	0	44	0	586678272	64	5517
2026-01-09 11:29:57.28	71.12	67.70	-47.1	-51.3	18.7	6.07e-01	0	43	0	589824000	64	6282
2026-01-09 11:29:57.99	70.03	67.71	-46.5	-50.2	19.7	6.06e-01	0	43	0	590872576	64	5584
2026-01-09 11:29:59.28	68.04	67.71	-46.3	-50.1	19.9	6.07e-01	0	44	0	593494016	64	5480
2026-01-09 11:29:59.99	66.95	67.69	-46.7	-50.8	19.2	6.06e-01	0	44	0	594542592	64	5985
2026-01-09 11:30:01.28	64.97	67.65	-46.4	-50.1	19.9	6.06e-01	0	43	0	597164032	64	5527
2026-01-09 11:30:02.00	63.87	67.62	-46.7	-50.6	19.4	6.05e-01	0	44	0	598736896	64	5827
2026-01-09 11:30:03.28	61.93	67.54	-46.6	-50.5	19.6	6.05e-01	0	44	0	600834048	64	5727
2026-01-09 11:30:04.02	60.81	67.48	-46.6	-50.5	19.5	6.07e-01	0	44	0	602406912	64	5783
2026-01-09 11:30:05.31	58.88	67.37	-46.7	-50.6	19.4	6.06e-01	0	44	0	604504064	64	5823
2026-01-09 11:30:06.02	57.83	67.29	-46.8	-50.7	19.3	6.07e-01	0	44	0	606076928	64	5906
2026-01-09 11:30:07.31	55.94	67.14	-47.3	-51.7	18.2	6.06e-01	0	44	0	608698368	65	6242
2026-01-09 11:30:08.03	54.89	67.04	-47.1	-51.3	18.7	6.08e-01	0	44	0	609746944	65	5973
2026-01-09 11:30:09.32	53.05	66.86	-47.2	-51.4	18.6	6.07e-01	0	44	0	612368384	65	6058
2026-01-09 11:30:10.04	52.03	66.74	-47.3	-51.8	18.2	6.08e-01	0	44	0	613416960	65	6299
2026-01-09 11:30:11.33	50.24	66.52	-47.2	-51.4	18.5	6.08e-01	0	44	0	616038400	65	6039
2026-01-09 11:30:12.04	49.28	66.40	-47.0	-51.0	19.0	6.07e-01	0	44	0	617086976	65	5739
2026-01-09 11:30:13.33	47.55	66.15	-47.5	-52.0	18.1	6.08e-01	0	44	0	619708416	65	6435
2026-01-09 11:30:14.05	46.60	66.00	-46.8	-50.7	19.1	6.06e-01	0	44	0	621281280	65	5561
2026-01-09 11:30:15.34	44.93	65.72	-46.5	-50.0	19.9	6.08e-01	0	44	0	623378432	65	5148
2026-01-09 11:30:16.06	44.02	65.56	-46.4	-50.0	20.0	6.08e-01	0	44	0	624951296	64	5428
2026-01-09 11:30:17.63	42.09	65.19	-46.7	-50.7	19.3	6.06e-01	0	44	0	628097024	64	5868
2026-01-09 11:30:18.21	41.39	65.04	-46.5	-50.4	19.6	6.07e-01	0	43	0	628621312	64	5662
2026-01-09 11:30:19.78	39.54	64.64	-46.1	-49.6	20.4	6.05e-01	0	44	0	631767040	64	5213
2026-01-09 11:30:20.61	38.59	64.42	-46.2	-49.9	20.2	6.08e-01	0	43	0	633339904	64	5370
2026-01-09 11:30:22.15	36.88	64.00	-45.9	-49.3	20.8	6.05e-01	0	44	0	636485632	63	5280
2026-01-09 11:30:22.86	36.11	63.80	-46.1	-49.6	20.5	6.06e-01	0	43	0	637534208	63	5526
2026-01-09 11:30:24.15	34.74	63.42	-46.2	-49.8	20.2	6.07e-01	0	44	0	640155648	63	5639
2026-01-09 11:30:24.87	34.00	63.21	-45.5	-48.9	21.2	6.06e-01	0	44	0	641204224	63	5061
2026-01-09 11:30:26.16	32.71	62.81	-45.6	-48.9	21.2	6.08e-01	0	44	0	643825664	63	5052
2026-01-09 11:30:26.87	32.01	62.59	-45.5	-48.8	21.3	6.06e-01	0	44	0	645398528	62	5322
2026-01-09 11:30:28.17	30.78	62.18	-45.5	-48.9	21.1	6.07e-01	0	44	0	647495680	62	5378
2026-01-09 11:30:28.96	30.04	61.93	-45.2	-48.4	21.6	6.07e-01	0	44	0	649068544	62	5054
2026-01-09 11:30:30.11	29.00	61.56	-44.8	-47.8	22.2	6.08e-01	0	44	0	651165696	61	5020
2026-01-09 11:30:31.21	28.04	61.20	-45.0	-48.3	21.7	6.06e-01	0	44	0	653262848	61	5307
2026-01-09 11:30:32.24	27.16	60.85	-44.3	-47.4	22.5	6.07e-01	0	44	0	655360000	60	5084
2026-01-09 11:30:33.24	26.33	60.52	-44.4	-47.4	22.6	6.07e-01	0	44	0	656932864	60	5095
2026-01-09 11:30:34.43	25.38	60.11	-44.5	-47.4	22.6	6.06e-01	0	44	0	659554304	60	5050
2026-01-09 11:30:35.36	24.65	59.79	-44.8	-47.8	22.2	6.07e-01	0	44	0	661127168	60	5313
2026-01-09 11:30:36.36	23.89	59.44	-44.7	-47.6	22.3	6.08e-01	0	44	0	662700032	60	5207
2026-01-09 11:30:37.36	23.14	59.09	-44.1	-47.0	22.9	6.05e-01	0	44	0	664797184	60	4865
2026-01-09 11:30:38.37	22.42	58.74	-44.5	-47.7	22.5	6.09e-01	0	43	0	666894336	59	5552
2026-01-09 11:30:39.37	21.71	58.39	-44.3	-47.4	22.7	6.10e-01	0	44	0	668467200	59	5354
2026-01-09 11:30:40.37	21.03	58.03	-44.1	-47.0	23.1	6.06e-01	0	43	0	670564352	59	5139
2026-01-09 11:30:41.37	20.36	57.67	-43.9	-46.6	23.4	6.04e-01	0	44	0	672137216	59	4907
2026-01-09 11:30:42.38	19.71	57.31	-43.7	-46.4	23.7	6.06e-01	0	43	0	674234368	59	4786
2026-01-09 11:30:43.38	19.08	56.95	-43.7	-46.4	23.7	6.06e-01	0	43	0	676331520	59	4765
2026-01-09 11:30:44.39	18.46	56.59	-43.7	-46.3	23.7	6.06e-01	0	43	0	677904384	59	4750
2026-01-09 11:30:45.39	17.86	56.23	-43.4	-46.0	24.0	6.06e-01	0	43	0	680001536	58	4823
2026-01-09 11:30:46.39	17.28	55.87	-43.3	-45.9	24.1	6.06e-01	0	44	0	681574400	58	4778
2026-01-09 11:30:47.40	16.70	55.50	-42.6	-45.1	24.8	6.07e-01	0	44	0	683671552	57	4635
2026-01-09 11:30:48.40	16.15	55.14	-42.9	-45.5	24.5	6.07e-01	0	44	0	685244416	57	4817
2026-01-09 11:30:49.47	15.57	54.76	-43.0	-45.4	24.5	6.06e-01	0	44	0	687341568	57	4802
2026-01-09 11:30:50.36	15.11	54.44	-42.8	-45.2	24.7	6.04e-01	0	44	0	688914432	57	4667
2026-01-09 11:30:51.43	14.56	54.05	-42.7	-45.1	24.8	6.08e-01	0	44	0	691011584	57	4619
2026-01-09 11:30:52.43	14.06	53.69	-43.0	-45.5	24.4	6.05e-01	0	44	0	693108736	57	4846
2026-01-09 11:30:53.43	13.57	53.33	-42.8	-45.3	24.7	6.07e-01	0	44	0	695205888	57	4707
2026-01-09 11:30:54.43	13.10	52.97	-42.7	-45.2	24.7	6.07e-01	0	43	0	696778752	57	4667
2026-01-09 11:30:55.44	12.63	52.61	-42.6	-45.0	25.0	6.07e-01	0	44	0	698875904	57	4571
2026-01-09 11:30:56.44	12.18	52.25	-42.8	-45.3	24.7	6.07e-01	0	44	0	700448768	57	4735
2026-01-09 11:30:57.44	11.74	51.89	-42.8	-45.2	24.7	6.06e-01	0	44	0	702545920	57	4703
2026-01-09 11:30:58.45	11.31	51.53	-42.9	-45.3	24.6	6.06e-01	0	44	0	704118784	57	4740
2026-01-09 11:30:59.45	10.89	51.18	-42.6	-45.0	24.9	6.07e-01	0	43	0	706215936	57	4580
2026-01-09 11:31:00.45	10.48	50.83	-42.8	-45.3	24.7	6.07e-01	0	44	0	708313088	57	4748
2026-01-09 11:31:01.46	10.07	50.47	-42.7	-45.1	24.8	6.08e-01	0	43	0	709885952	57	4645
2026-01-09 11:31:02.46	9.68	50.12	-43.1	-45.6	24.4	6.07e-01	0	44	0	711983104	57	4924
2026-01-09 11:31:03.48	9.30	49.76	-43.4	-45.9	24.1	6.05e-01	0	43	0	713555968	57	5078
2026-01-09 11:31:04.48	8.92	49.42	-43.6	-46.1	23.9	6.08e-01	0	43	0	715653120	57	5213
2026-01-09 11:31:05.48	8.56	49.07	-43.6	-46.2	23.8	6.06e-01	0	43	0	717750272	57	5244
2026-01-09 11:31:06.48	8.20	48.72	-43.5	-46.1	23.9	6.06e-01	0	44	0	719323136	57	5185
2026-01-09 11:31:07.49	7.85	48.38	-43.1	-45.7	24.3	6.06e-01	0	43	0	721420288	57	4970
2026-01-09 11:31:08.49	7.51	48.04	-43.1	-45.7	24.3	6.09e-01	0	43	0	722993152	57	4948
2026-01-09 11:31:09.49	7.18	47.70	-43.4	-46.1	23.9	6.07e-01	0	44	0	725090304	57	5203
2026-01-09 11:31:10.50	6.86	47.36	-43.4	-46.1	23.9	6.06e-01	0	44	0	727187456	57	5205
2026-01-09 11:31:11.50	6.54	47.02	-43.4	-46.0	24.0	6.05e-01	0	44	0	728760320	57	5117
2026-01-09 11:31:12.51	6.22	46.68	-43.4	-45.9	24.1	6.07e-01	0	43	0	730857472	57	5080
2026-01-09 11:31:13.51	5.92	46.35	-43.0	-45.5	24.4	6.07e-01	0	43	0	732430336	57	4850
2026-01-09 11:31:14.51	5.62	46.02	-42.9	-45.3	24.6	6.07e-01	0	44	0	734527488	57	4721
2026-01-09 11:31:15.52	5.33	45.69	-43.1	-45.5	24.4	6.07e-01	0	44	0	736100352	57	4868
2026-01-09 11:31:16.52	5.04	45.36	-43.3	-45.8	24.2	6.07e-01	0	44	0	738197504	57	5030
2026-01-09 11:31:17.52	4.77	45.04	-43.4	-46.0	24.0	6.06e-01	0	43	0	740294656	57	5119
2026-01-09 11:31:18.53	4.49	44.71	-43.5	-46.3	23.7	6.07e-01	0	44	0	741867520	57	5302
2026-01-09 11:31:19.53	4.22	44.39	-43.2	-46.0	23.9	6.07e-01	0	43	0	743964672	57	5122
2026-01-09 11:31:20.56	3.95	44.07	-43.1	-45.8	24.2	6.08e-01	0	43	0	745537536	57	5021
2026-01-09 11:31:21.56	3.70	43.75	-43.1	-45.8	24.2	6.07e-01	0	44	0	747634688	57	5023
2026-01-09 11:31:22.56	3.45	43.44	-43.3	-46.0	24.0	6.07e-01	0	43	0	749731840	57	5144
2026-01-09 11:31:23.57	3.20	43.12	-43.7	-46.4	23.7	6.03e-01	0	43	0	751304704	57	5358
2026-01-09 11:31:24.57	2.95	42.81	-43.9	-46.6	23.5	6.07e-01	0	43	0	753401856	58	5175
2026-01-09 11:31:25.57	2.72	42.51	-43.9	-46.6	23.4	6.06e-01	0	43	0	754974720	58	5202
2026-01-09 11:31:26.58	2.48	42.20	-43.9	-46.7	23.3	6.06e-01	0	43	0	757071872	58	5222
2026-01-09 11:31:27.58	2.26	41.89	-43.9	-46.6	23.4	6.08e-01	0	44	0	759169024	58	5203
2026-01-09 11:31:28.58	2.03	41.59	-43.9	-46.7	23.4	6.06e-01	0	43	0	760741888	58	5233
2026-01-09 11:31:29.58	1.81	41.29	-44.1	-46.9	23.2	6.06e-01	0	43	0	762839040	58	5373
2026-01-09 11:31:30.58	1.60	41.00	-44.4	-47.2	22.8	6.06e-01	0	44	0	764411904	59	5271
2026-01-09 11:31:31.59	1.39	40.70	-44.6	-47.6	22.4	6.06e-01	0	43	0	766509056	60	5182
2026-01-09 11:31:32.59	1.18	40.41	-44.7	-47.7	22.3	6.05e-01	0	43	0	768606208	60	5220
2026-01-09 11:31:33.59	0.98	40.12	-44.6	-47.5	22.5	6.08e-01	0	44	0	770179072	60	5140
2026-01-09 11:31:35.03	0.69	39.70	-44.9	-47.9	22.0	6.10e-01	0	43	0	772800512	60	5400
2026-01-09 11:31:35.78	0.55	39.49	-44.9	-48.0	22.0	6.07e-01	0	43	0	774373376	60	5430
2026-01-09 11:31:37.07	0.30	39.12	-44.8	-47.7	22.2	6.06e-01	0	43	0	776470528	60	5272
2026-01-09 11:31:37.87	0.15	38.90	-44.7	-47.5	22.4	6.08e-01	0	44	0	778043392	60	5153
2026-01-09 11:31:39.01	359.94	38.58	-44.7	-47.7	22.4	6.08e-01	0	44	0	780140544	60	5222
2026-01-09 11:31:39.87	359.78	38.34	-44.6	-47.7	22.3	6.05e-01	0	43	0	781713408	60	5221
2026-01-09 11:31:41.01	359.58	38.03	-44.6	-47.9	22.1	6.07e-01	0	44	0	784334848	60	5379
2026-01-09 11:31:41.87	359.43	37.79	-44.4	-47.8	22.1	6.07e-01	0	43	0	785907712	60	5332
2026-01-09 11:31:43.02	359.23	37.48	-44.1	-47.4	22.5	6.07e-01	0	44	0	788004864	60	5059
2026-01-09 11:31:43.88	359.09	37.25	-44.1	-47.3	22.6	6.06e-01	0	44	0	789577728	60	5040
2026-01-09 11:31:45.02	358.90	36.95	-44.1	-47.3	22.7	6.10e-01	0	44	0	791674880	60	4984
2026-01-09 11:31:45.88	358.76	36.72	-44.3	-47.4	22.6	6.03e-01	0	43	0	793247744	60	5047
2026-01-09 11:31:47.03	358.57	36.42	-44.2	-47.2	22.7	6.09e-01	0	43	0	795344896	60	4945
2026-01-09 11:31:47.89	358.44	36.19	-44.3	-47.3	22.7	6.07e-01	0	44	0	796917760	60	4987
2026-01-09 11:31:49.03	358.26	35.90	-44.2	-47.1	22.7	6.06e-01	0	44	0	799014912	60	4895
2026-01-09 11:31:49.89	358.13	35.67	-44.1	-46.9	23.0	6.06e-01	0	43	0	800587776	60	4811
2026-01-09 11:31:51.04	357.96	35.38	-44.2	-47.0	23.1	6.09e-01	0	43	0	803209216	59	5152
2026-01-09 11:31:51.90	357.83	35.16	-43.9	-46.7	23.3	6.07e-01	0	44	0	804782080	59	4931
2026-01-09 11:31:53.04	357.67	34.88	-43.8	-46.6	23.5	6.08e-01	0	43	0	806879232	59	4872
2026-01-09 11:31:53.90	357.54	34.66	-43.6	-46.2	23.8	6.06e-01	0	44	0	808452096	59	4693
2026-01-09 11:31:55.05	357.38	34.38	-43.4	-46.0	23.9	6.06e-01	0	43	0	810549248	58	4855
2026-01-09 11:31:55.91	357.26	34.17	-43.4	-46.1	23.9	6.02e-01	0	44	0	812122112	58	4874
2026-01-09 11:31:57.05	357.11	33.89	-43.4	-46.1	23.9	6.07e-01	0	44	0	814219264	58	4894
2026-01-09 11:31:57.91	356.99	33.68	-43.4	-46.1	23.9	6.08e-01	0	44	0	815792128	58	4906
2026-01-09 11:31:59.09	356.84	33.40	-43.2	-45.9	24.0	6.07e-01	0	44	0	817889280	58	4799
2026-01-09 11:31:59.95	356.73	33.20	-43.2	-45.9	24.0	6.08e-01	0	44	0	819462144	58	4798
2026-01-09 11:32:01.14	356.57	32.91	-43.1	-45.8	24.1	6.05e-01	0	44	0	822083584	58	4750
2026-01-09 11:32:02.40	356.42	32.62	-42.9	-45.6	24.4	6.08e-01	0	44	0	824180736	57	4879
2026-01-09 11:32:03.14	356.32	32.45	-42.8	-45.3	24.5	6.07e-01	0	44	0	825753600	57	4749
2026-01-09 11:32:04.46	356.16	32.14	-42.5	-45.0	24.8	6.07e-01	0	44	0	827850752	57	4588
2026-01-09 11:32:05.18	356.08	31.98	-42.5	-45.0	24.9	6.07e-01	0	44	0	829423616	57	4579
2026-01-09 11:32:06.46	355.93	31.69	-42.6	-45.1	24.7	6.08e-01	0	44	0	832045056	57	4618
2026-01-09 11:32:07.18	355.84	31.53	-42.6	-45.1	24.8	6.04e-01	0	44	0	833093632	57	4629
2026-01-09 11:32:08.59	355.68	31.21	-42.6	-45.0	24.8	6.04e-01	0	44	0	835715072	57	4585
2026-01-09 11:32:09.56	355.57	31.00	-42.7	-45.1	24.8	6.04e-01	0	44	0	837812224	57	4609
2026-01-09 11:32:10.56	355.46	30.78	-42.6	-45.0	24.9	6.06e-01	0	44	0	839385088	57	4570
2026-01-09 11:32:11.57	355.35	30.56	-42.6	-45.1	24.8	6.07e-01	0	44	0	841482240	57	4605
2026-01-09 11:32:12.57	355.24	30.34	-42.5	-45.0	24.9	6.07e-01	0	44	0	843055104	57	4578
2026-01-09 11:32:13.57	355.14	30.13	-42.7	-45.2	24.7	6.07e-01	0	44	0	845152256	57	4684
2026-01-09 11:32:14.57	355.03	29.92	-42.7	-45.3	24.6	6.04e-01	0	44	0	847249408	57	4720
2026-01-09 11:32:15.57	354.93	29.70	-42.8	-45.4	24.5	6.07e-01	0	43	0	848822272	57	4766
2026-01-09 11:32:16.57	354.83	29.49	-42.9	-45.4	24.4	6.06e-01	0	44	0	850919424	57	4806
2026-01-09 11:32:17.58	354.73	29.28	-42.9	-45.5	24.4	6.07e-01	0	44	0	852492288	57	4827
2026-01-09 11:32:18.58	354.63	29.08	-43.0	-45.5	24.4	6.05e-01	0	44	0	854589440	57	4848
2026-01-09 11:32:19.58	354.53	28.87	-43.0	-45.6	24.3	6.05e-01	0	44	0	856686592	57	4876
2026-01-09 11:32:20.58	354.43	28.67	-43.0	-45.6	24.3	6.05e-01	0	44	0	858259456	57	4881
2026-01-09 11:32:21.79	354.32	28.42	-42.8	-45.4	24.5	6.08e-01	0	44	0	860880896	57	4788
2026-01-09 11:32:22.65	354.24	28.25	-42.9	-45.5	23.7	6.06e-01	0	44	0	862453760	57	4834
2026-01-09 11:32:24.00	354.11	27.98	-43.0	-45.6	24.3	6.08e-01	0	44	0	864550912	57	4917
2026-01-09 11:32:24.72	354.05	27.84	-43.2	-45.8	24.2	6.05e-01	0	44	0	866123776	57	4993
2026-01-09 11:32:26.24	353.91	27.54	-43.2	-45.8	24.1	6.07e-01	0	44	0	868745216	57	5021
2026-01-09 11:32:26.95	353.85	27.41	-43.2	-45.8	24.1	6.06e-01	0	44	0	870318080	57	5009
2026-01-09 11:32:28.27	353.73	27.15	-43.1	-45.8	24.0	6.06e-01	0	44	0	872939520	57	5014
2026-01-09 11:32:28.99	353.67	27.01	-43.0	-45.7	24.2	6.05e-01	0	44	0	873988096	57	4950
2026-01-09 11:32:30.28	353.56	26.77	-42.9	-45.7	24.2	6.08e-01	0	44	0	876609536	57	4928
2026-01-09 11:32:30.99	353.50	26.64	-43.0	-45.8	24.1	6.06e-01	0	44	0	877658112	57	5004
2026-01-09 11:32:32.28	353.39	26.39	-43.1	-45.9	24.0	6.06e-01	0	44	0	880279552	57	5054
2026-01-09 11:32:33.00	353.34	26.26	-43.1	-45.8	24.1	6.08e-01	0	44	0	881852416	57	5006
2026-01-09 11:32:34.28	353.23	26.02	-43.2	-45.9	24.0	6.06e-01	0	44	0	883949568	57	5066
2026-01-09 11:32:35.00	353.18	25.89	-43.3	-45.9	24.0	6.05e-01	0	44	0	885522432	57	5073
2026-01-09 11:32:36.29	353.07	25.66	-43.3	-45.9	24.0	6.07e-01	0	44	0	887619584	57	5090
2026-01-09 11:32:37.01	353.02	25.53	-43.2	-45.9	24.0	6.09e-01	0	44	0	889192448	57	5089
2026-01-09 11:32:38.30	352.92	25.30	-43.2	-45.9	23.9	6.06e-01	0	44	0	891813888	57	5100
2026-01-09 11:32:39.12	352.86	25.15	-43.2	-45.9	24.0	6.08e-01	0	44	0	892862464	57	5081
2026-01-09 11:32:40.27	352.77	24.95	-43.0	-45.8	24.0	6.06e-01	0	44	0	894959616	57	5041
2026-01-09 11:32:41.13	352.71	24.79	-43.0	-46.0	23.9	6.06e-01	0	44	0	897056768	57	5110
2026-01-09 11:32:42.28	352.62	24.59	-43.0	-46.0	23.9	6.06e-01	0	44	0	899153920	57	5137
2026-01-09 11:32:43.41	352.54	24.40	-43.1	-46.1	23.8	6.07e-01	0	44	0	901251072	57	5210
2026-01-09 11:32:44.27	352.48	24.25	-43.2	-46.3	23.6	6.06e-01	0	44	0	902823936	57	5305
2026-01-09 11:32:45.41	352.40	24.06	-43.3	-46.4	23.5	6.03e-01	0	44	0	904921088	57	5345
2026-01-09 11:32:46.27	352.34	23.91	-43.4	-46.4	23.5	6.01e-01	0	43	0	906493952	57	5364
2026-01-09 11:32:47.42	352.26	23.72	-43.6	-46.6	23.4	6.03e-01	0	44	0	908591104	57	5465
2026-01-09 11:32:48.28	352.20	23.57	-43.6	-46.5	23.5	6.02e-01	0	44	0	910163968	57	5407
2026-01-09 11:32:49.44	352.13	23.38	-43.6	-46.4	23.5	6.01e-01	0	44	0	912261120	57	5382
2026-01-09 11:32:50.29	352.07	23.24	-43.6	-46.4	23.5	6.01e-01	0	44	0	913833984	57	5343
2026-01-09 11:32:51.44	351.99	23.05	-43.6	-46.3	23.6	6.03e-01	0	44	0	916455424	57	5299
2026-01-09 11:32:52.29	351.94	22.91	-43.5	-46.3	23.6	6.01e-01	0	44	0	918028288	57	5320
2026-01-09 11:32:53.44	351.87	22.73	-43.4	-46.2	23.7	6.02e-01	0	44	0	920125440	57	5255
2026-01-09 11:32:54.29	351.81	22.59	-43.4	-46.2	23.7	6.04e-01	0	43	0	921698304	57	5261
2026-01-09 11:32:55.43	351.74	22.41	-43.4	-46.2	23.7	6.03e-01	0	44	0	923795456	57	5277
2026-01-09 11:32:56.29	351.69	22.27	-43.4	-46.2	23.7	6.01e-01	0	44	0	925368320	57	5270
2026-01-09 11:32:57.43	351.62	22.09	-43.5	-46.3	23.6	6.02e-01	0	44	0	927465472	57	5317
2026-01-09 11:32:58.29	351.57	21.96	-43.6	-46.4	23.5	6.03e-01	0	44	0	929038336	57	5359
2026-01-09 11:32:59.43	351.50	21.78	-43.7	-46.4	23.5	6.04e-01	0	44	0	931135488	58	5062
2026-01-09 11:33:00.28	351.45	21.65	-43.6	-46.3	23.6	6.04e-01	0	44	0	932708352	58	5030
2026-01-09 11:33:01.43	351.38	21.47	-43.6	-46.4	23.6	6.02e-01	0	44	0	934805504	58	5049
2026-01-09 11:33:02.29	351.33	21.34	-43.6	-46.4	23.5	6.01e-01	0	44	0	936378368	58	5089
2026-01-09 11:33:03.43	351.27	21.17	-43.5	-46.4	23.5	6.01e-01	0	43	0	938475520	58	5082
2026-01-09 11:33:04.29	351.22	21.04	-43.5	-46.5	23.4	6.02e-01	0	44	0	940048384	58	5110
2026-01-09 11:33:05.43	351.15	20.87	-43.5	-46.4	23.5	6.01e-01	0	44	0	942669824	58	5062
2026-01-09 11:33:06.29	351.11	20.74	-43.6	-46.5	23.3	6.03e-01	0	44	0	944242688	58	5143
2026-01-09 11:33:07.43	351.04	20.57	-43.7	-46.6	23.3	6.04e-01	0	44	0	946339840	58	5182
2026-01-09 11:33:08.29	351.00	20.45	-43.6	-46.5	23.3	6.02e-01	0	43	0	947912704	58	5143
2026-01-09 11:33:09.43	350.93	20.28	-43.7	-46.6	23.3	6.02e-01	0	43	0	950009856	58	5161
2026-01-09 11:33:10.29	350.89	20.16	-43.6	-46.4	23.4	6.03e-01	0	44	0	951582720	58	5092
2026-01-09 11:33:11.43	350.83	19.99	-43.5	-46.4	23.4	6.05e-01	0	44	0	953679872	58	5098
2026-01-09 11:33:12.29	350.78	19.87	-43.4	-46.4	23.4	6.04e-01	0	44	0	955252736	58	5079
2026-01-09 11:33:13.43	350.73	19.71	-43.2	-46.2	23.6	6.01e-01	0	43	0	957349888	58	4967
2026-01-09 11:33:14.29	350.68	19.58	-43.0	-46.2	23.6	6.02e-01	0	44	0	958922752	58	4949
2026-01-09 11:33:15.43	350.63	19.42	-42.9	-46.2	23.7	6.03e-01	0	43	0	961019904	57	5228
2026-01-09 11:33:16.29	350.58	19.30	-42.8	-46.1	23.7	6.02e-01	0	44	0	962592768	57	5188
2026-01-09 11:33:17.43	350.53	19.15	-42.7	-46.1	23.7	6.02e-01	0	44	0	965214208	57	5192
2026-01-09 11:33:18.29	350.48	19.03	-42.6	-46.1	23.7	6.02e-01	0	44	0	966787072	57	5177
2026-01-09 11:33:19.43	350.43	18.87	-42.5	-46.0	23.7	6.04e-01	0	44	0	968884224	57	5157
2026-01-09 11:33:20.29	350.39	18.75	-42.5	-46.0	23.7	6.03e-01	0	44	0	970457088	56	5458
2026-01-09 11:33:21.43	350.33	18.60	-42.4	-46.0	23.8	6.02e-01	0	44	0	972554240	56	5457
2026-01-09 11:33:22.29	350.29	18.48	-42.5	-46.1	23.7	6.02e-01	0	44	0	974127104	56	5516
2026-01-09 11:33:23.44	350.24	18.33	-42.5	-46.2	23.6	6.03e-01	0	44	0	976224256	56	5554
2026-01-09 11:33:24.29	350.20	18.21	-42.4	-46.0	23.7	5.99e-01	0	43	0	977797120	56	5449
2026-01-09 11:33:25.44	350.15	18.06	-42.5	-46.1	23.7	6.06e-01	0	44	0	979894272	56	5491
2026-01-09 11:33:26.30	350.11	17.95	-42.4	-46.0	23.8	6.02e-01	0	44	0	981467136	56	5423
2026-01-09 11:33:27.44	350.06	17.80	-42.6	-46.1	23.7	6.01e-01	0	44	0	983564288	56	5487
2026-01-09 11:33:28.30	350.02	17.69	-42.6	-46.0	23.7	6.05e-01	0	44	0	985137152	56	5461
2026-01-09 11:33:29.44	349.97	17.54	-42.7	-45.9	23.8	6.00e-01	0	44	0	987234304	56	5398
2026-01-09 11:33:30.30	349.94	17.43	-42.8	-46.0	23.8	6.03e-01	0	43	0	988807168	56	5416
2026-01-09 11:33:31.45	349.89	17.28	-42.9	-46.0	23.8	6.03e-01	0	44	0	991428608	56	5447
2026-01-09 11:33:32.30	349.85	17.17	-42.9	-46.1	23.8	6.03e-01	0	44	0	993001472	56	5469
2026-01-09 11:33:33.45	349.80	17.03	-43.1	-46.0	23.8	6.04e-01	0	44	0	995098624	56	5419
2026-01-09 11:33:34.30	349.77	16.92	-43.1	-46.0	23.8	6.03e-01	0	44	0	996671488	56	5453
2026-01-09 11:33:35.45	349.72	16.78	-43.2	-46.1	23.7	6.04e-01	0	44	0	998768640	56	5468
2026-01-09 11:33:36.30	349.68	16.67	-43.2	-46.0	23.8	6.04e-01	0	43	0	1000341504	57	5117
2026-01-09 11:33:37.45	349.64	16.53	-43.3	-46.1	23.7	6.00e-01	0	44	0	1002438656	57	5179
2026-01-09 11:33:38.31	349.60	16.42	-43.3	-46.1	23.7	6.00e-01	0	44	0	1004011520	57	5194
2026-01-09 11:33:39.45	349.56	16.28	-43.3	-46.0	23.8	6.02e-01	0	44	0	1006108672	57	5134
2026-01-09 11:33:40.31	349.52	16.18	-43.4	-46.0	23.7	6.02e-01	0	44	0	1007681536	57	5156
2026-01-09 11:33:41.45	349.48	16.04	-43.4	-46.1	23.6	6.03e-01	0	44	0	1009778688	57	5215
2026-01-09 11:33:42.31	349.45	15.94	-43.4	-46.1	23.7	6.02e-01	0	44	0	1011351552	57	5191
2026-01-09 11:33:43.46	349.40	15.80	-43.5	-46.2	23.7	6.01e-01	0	44	0	1013448704	57	5221
2026-01-09 11:33:44.32	349.37	15.70	-43.4	-46.1	23.7	6.00e-01	0	44	0	1015545856	57	5171
2026-01-09 11:33:45.46	349.33	15.56	-43.4	-46.0	23.7	6.02e-01	0	44	0	1017643008	57	5156
2026-01-09 11:33:46.32	349.30	15.46	-43.4	-46.1	23.7	6.03e-01	0	44	0	1019215872	57	5193
2026-01-09 11:33:47.47	349.25	15.32	-43.4	-46.1	23.7	6.02e-01	0	44	0	1021313024	57	5185
2026-01-09 11:33:48.33	349.22	15.22	-43.4	-46.1	23.6	6.01e-01	0	44	0	1022885888	57	5193
2026-01-09 11:33:49.47	349.18	15.09	-43.5	-46.2	23.6	6.03e-01	0	44	0	1024983040	57	5237
2026-01-09 11:33:50.33	349.15	14.99	-43.5	-46.2	23.6	6.01e-01	0	44	0	1026555904	57	5251
2026-01-09 11:33:51.47	349.11	14.86	-43.4	-46.1	23.7	6.03e-01	0	43	0	1028653056	57	5204
2026-01-09 11:33:52.33	349.08	14.76	-43.3	-46.1	23.7	6.03e-01	0	44	0	1030225920	57	5194
2026-01-09 11:33:53.48	349.04	14.63	-43.4	-46.2	23.5	6.02e-01	0	44	0	1032323072	57	5266
2026-01-09 11:33:54.33	349.01	14.53	-43.2	-46.2	23.5	6.01e-01	0	44	0	1033895936	57	5236
2026-01-09 11:33:55.48	348.97	14.40	-42.8	-46.1	23.6	6.00e-01	0	44	0	1036517376	57	5189
2026-01-09 11:33:56.34	348.94	14.31	-42.8	-46.2	23.6	6.01e-01	0	44	0	1038090240	57	5219
2026-01-09 11:33:57.48	348.91	14.18	-42.8	-46.1	23.6	6.00e-01	0	44	0	1040187392	57	5212
2026-01-09 11:33:58.34	348.88	14.09	-42.8	-46.2	23.6	6.03e-01	0	44	0	1041760256	57	5233
2026-01-09 11:33:59.48	348.84	13.96	-42.9	-46.2	23.5	6.02e-01	0	44	0	1043857408	57	5236
2026-01-09 11:34:00.34	348.81	13.87	-42.9	-46.2	23.5	6.02e-01	0	44	0	1045430272	57	5275
2026-01-09 11:34:01.49	348.77	13.74	-43.2	-46.2	23.4	6.00e-01	0	44	0	1047527424	57	5277
2026-01-09 11:34:02.35	348.75	13.65	-43.2	-46.3	23.4	6.01e-01	0	44	0	1049100288	57	5280
2026-01-09 11:34:03.49	348.71	13.52	-43.4	-46.3	23.4	6.01e-01	0	44	0	1051197440	57	5322
2026-01-09 11:34:04.35	348.68	13.43	-43.3	-46.2	23.4	6.03e-01	0	44	0	1052770304	57	5276
2026-01-09 11:34:05.49	348.65	13.31	-43.3	-46.2	23.5	6.01e-01	0	44	0	1054867456	57	5279
2026-01-09 11:34:06.34	348.62	13.22	-43.1	-46.3	23.4	6.02e-01	0	44	0	1056440320	57	5289
2026-01-09 11:34:07.49	348.59	13.10	-42.9	-46.2	23.5	6.03e-01	0	44	0	1059061760	57	5253
2026-01-09 11:34:08.35	348.56	13.00	-42.8	-46.2	23.4	6.03e-01	0	44	0	1060634624	57	5270
2026-01-09 11:34:09.50	348.52	12.88	-42.2	-46.3	23.5	6.02e-01	0	44	0	1062731776	56	5604
2026-01-09 11:34:10.35	348.50	12.79	-41.7	-46.2	23.4	6.03e-01	0	44	0	1064304640	55	5882
2026-01-09 11:34:11.50	348.47	12.67	-41.6	-46.2	23.4	5.98e-01	0	44	0	1066401792	55	5893
2026-01-09 11:34:12.36	348.44	12.59	-41.4	-46.2	23.4	6.03e-01	0	44	0	1067974656	54	6225
2026-01-09 11:34:13.50	348.41	12.47	-41.2	-46.3	23.3	6.00e-01	0	44	0	1070071808	54	6284
2026-01-09 11:34:14.36	348.38	12.38	-41.1	-46.3	23.3	6.00e-01	0	44	0	1071644672	54	6296
2026-01-09 11:34:15.50	348.35	12.26	-41.0	-46.4	23.2	6.03e-01	0	44	0	1073741824	54	6356
2026-01-09 11:34:16.35	348.33	12.18	-40.9	-46.4	23.1	6.04e-01	0	43	0	1075314688	53	6756
2026-01-09 11:34:17.50	348.29	12.06	-40.9	-46.5	23.1	6.02e-01	0	44	0	1077411840	53	6808
2026-01-09 11:34:18.35	348.27	11.97	-40.8	-46.4	23.1	5.99e-01	0	44	0	1078984704	53	6770
2026-01-09 11:34:19.50	348.24	11.86	-40.8	-46.5	23.0	6.03e-01	0	44	0	1081081856	53	6808
2026-01-09 11:34:20.35	348.21	11.77	-40.8	-46.5	22.9	6.02e-01	0	44	0	1082654720	53	6876
2026-01-09 11:34:21.49	348.18	11.66	-40.9	-46.7	22.8	6.02e-01	0	44	0	1085276160	53	6960
2026-01-09 11:34:22.35	348.16	11.57	-40.8	-46.5	23.0	6.02e-01	0	44	0	1086849024	53	6830
2026-01-09 11:34:23.50	348.13	11.46	-40.9	-46.7	22.8	6.02e-01	0	44	0	1088946176	53	6980
2026-01-09 11:34:24.36	348.11	11.38	-40.9	-46.7	22.8	6.04e-01	0	44	0	1090519040	53	6968
2026-01-09 11:34:25.50	348.08	11.26	-40.9	-46.7	22.7	6.02e-01	0	44	0	1092616192	53	7027
2026-01-09 11:34:26.36	348.05	11.18	-40.9	-46.7	22.8	6.02e-01	0	44	0	1094189056	53	6993
2026-01-09 11:34:27.50	348.02	11.07	-40.9	-46.8	22.7	6.01e-01	0	44	0	1096286208	53	7058
2026-01-09 11:34:28.36	348.00	10.99	-40.9	-46.7	22.7	6.02e-01	0	44	0	1097859072	53	7003
2026-01-09 11:34:29.50	347.97	10.88	-40.8	-46.9	22.6	6.02e-01	0	44	0	1099956224	53	7134
2026-01-09 11:34:30.36	347.95	10.80	-40.9	-46.9	22.5	6.01e-01	0	44	0	1101529088	53	7201
2026-01-09 11:34:31.51	347.92	10.69	-40.9	-46.9	22.6	6.01e-01	0	44	0	1103626240	53	7132
2026-01-09 11:34:32.37	347.90	10.60	-40.9	-47.0	22.5	6.02e-01	0	44	0	1105199104	53	7211
2026-01-09 11:34:33.51	347.87	10.50	-40.7	-47.0	22.4	6.05e-01	0	44	0	1107296256	53	7242
2026-01-09 11:34:34.37	347.85	10.42	-40.7	-47.0	22.4	6.02e-01	0	44	0	1109393408	53	7243
2026-01-09 11:34:35.51	347.82	10.31	-40.7	-47.0	22.4	6.00e-01	0	44	0	1111490560	53	7280
2026-01-09 11:34:36.37	347.80	10.23	-40.6	-47.0	22.3	6.02e-01	0	44	0	1113063424	53	7284
2026-01-09 11:34:37.52	347.78	10.12	-40.6	-47.0	22.4	6.04e-01	0	44	0	1115160576	53	7230
2026-01-09 11:34:38.38	347.76	10.04	-40.6	-47.0	22.4	6.02e-01	0	44	0	1116733440	53	7216
2026-01-09 11:34:39.52	347.73	9.94	-40.6	-47.0	22.4	6.03e-01	0	44	0	1118830592	53	7253
2026-01-09 11:34:40.37	347.71	9.86	-40.7	-47.0	22.4	6.02e-01	0	44	0	1120403456	53	7217
2026-01-09 11:34:41.51	347.68	9.75	-40.6	-47.0	22.4	6.03e-01	0	44	0	1122500608	53	7216
2026-01-09 11:34:42.37	347.66	9.68	-40.6	-47.0	22.4	6.01e-01	0	44	0	1124073472	53	7213
2026-01-09 11:34:43.51	347.64	9.57	-40.9	-46.9	22.4	6.04e-01	0	44	0	1126170624	53	7197
2026-01-09 11:34:44.37	347.62	9.50	-40.9	-46.9	22.4	6.01e-01	0	44	0	1127743488	53	7187
2026-01-09 11:34:45.51	347.59	9.39	-41.0	-47.0	22.4	6.04e-01	0	44	0	1129840640	53	7225
2026-01-09 11:34:46.37	347.57	9.32	-41.3	-47.0	22.3	6.03e-01	0	44	0	1131413504	53	7249
2026-01-09 11:34:47.51	347.55	9.21	-41.8	-47.0	22.3	6.03e-01	0	44	0	1134034944	54	6840
2026-01-09 11:34:48.37	347.53	9.14	-41.8	-47.0	22.4	6.03e-01	0	44	0	1135607808	54	6805
2026-01-09 11:34:49.51	347.50	9.04	-41.6	-47.2	22.3	6.02e-01	0	44	0	1137704960	54	6966
2026-01-09 11:34:50.37	347.49	8.96	-43.4	-68.1	3.6	7.64e-01	0	44	104	1138229248	57	65535
2026-01-09 11:34:51.52	347.46	8.86	-48.5	-69.8	3.9	7.47e-01	0	44	104	1138229248	69	39661
2026-01-09 11:34:52.38	347.44	8.78	-46.2	-70.9	3.7	7.47e-01	0	44	104	1138229248	63	63636
2026-01-09 11:34:53.52	347.42	8.69	-50.2	-70.9	3.9	7.42e-01	0	44	104	1138229248	71	40320
2026-01-09 11:34:54.38	347.40	8.61	-48.1	-71.0	3.8	7.46e-01	0	44	104	1138229248	67	51526
2026-01-09 11:34:55.53	347.38	8.51	-49.7	-71.2	3.8	7.46e-01	0	44	104	1138229248	71	41822
2026-01-09 11:34:56.39	347.36	8.44	-50.1	-71.2	3.8	7.46e-01	0	44	104	1138229248	71	41803
2026-01-09 11:34:57.53	347.34	8.34	-50.0	-71.3	3.8	7.46e-01	0	44	104	1138229248	71	42130
2026-01-09 11:34:58.39	347.32	8.27	-50.3	-71.3	3.8	7.45e-01	0	44	104	1138229248	71	42209
2026-01-09 11:34:59.54	347.30	8.17	-50.9	-71.3	3.8	7.46e-01	0	44	104	1138229248	72	39735
2026-01-09 11:35:00.40	347.28	8.09	-50.6	-71.3	3.8	7.46e-01	0	44	104	1138229248	72	39641
2026-01-09 11:35:01.55	347.26	8.00	-50.6	-71.3	3.8	7.45e-01	0	44	104	1138229248	71	42338
2026-01-09 11:35:02.41	347.24	7.92	-50.6	-71.3	3.8	7.48e-01	0	44	104	1138229248	72	39796
2026-01-09 11:35:03.55	347.22	7.83	-51.0	-71.3	3.8	7.46e-01	0	44	104	1138229248	72	39829
2026-01-09 11:35:04.41	347.20	7.76	-50.9	-71.3	3.8	7.48e-01	0	44	104	1138229248	72	39817
2026-01-09 11:35:05.56	347.18	7.66	-50.8	-71.3	3.8	7.44e-01	0	44	104	1138229248	72	39823
2026-01-09 11:35:06.42	347.16	7.59	-50.3	-71.3	3.8	7.42e-01	0	44	104	1138229248	71	42267
2026-01-09 11:35:07.57	347.14	7.49	-50.3	-71.3	3.8	7.48e-01	0	44	104	1138229248	72	39851
2026-01-09 11:35:08.42	347.12	7.42	-50.5	-70.9	3.8	7.44e-01	0	44	104	1138229248	72	38081
2026-01-09 11:35:09.57	347.10	7.33	-51.0	-71.3	3.8	7.48e-01	0	44	104	1138229248	72	39719
2026-01-09 11:35:10.43	347.09	7.26	-51.2	-71.3	3.8	7.45e-01	0	44	104	1138229248	73	37784
2026-01-09 11:35:11.57	347.07	7.17	-51.1	-71.3	3.8	7.46e-01	0	44	104	1138229248	73	37602
2026-01-09 11:35:12.43	347.05	7.10	-51.2	-71.3	3.8	7.42e-01	0	44	104	1138229248	73	37452
2026-01-09 11:35:13.58	347.03	7.00	-50.8	-71.3	3.8	7.43e-01	0	44	104	1138229248	73	37443
2026-01-09 11:35:14.44	347.01	6.93	-50.9	-71.2	3.8	7.45e-01	0	44	104	1138229248	73	37341
2026-01-09 11:35:15.58	346.99	6.84	-50.4	-71.2	3.8	7.47e-01	0	44	104	1138229248	72	39490
2026-01-09 11:35:16.44	346.98	6.77	-50.3	-71.2	3.8	7.45e-01	0	44	104	1138229248	72	39525
2026-01-09 11:35:17.59	346.96	6.68	-50.3	-71.2	3.8	7.46e-01	0	44	104	1138229248	72	39528
2026-01-09 11:35:18.45	346.94	6.61	-50.2	-71.2	3.8	7.47e-01	0	44	104	1138229248	72	39468
2026-01-09 11:35:19.59	346.92	6.52	-50.2	-71.2	3.8	7.45e-01	0	44	104	1138229248	72	39419
2026-01-09 11:35:20.45	346.91	6.45	-50.1	-71.2	3.8	7.46e-01	0	44	104	1138229248	72	39373
2026-01-09 11:35:21.60	346.89	6.36	-50.1	-71.2	3.8	7.49e-01	0	44	104	1138229248	72	39409
2026-01-09 11:35:22.46	346.87	6.30	-50.1	-71.2	3.8	7.47e-01	0	44	104	1138229248	72	39334
2026-01-09 11:35:23.61	346.85	6.21	-50.2	-71.2	3.8	7.45e-01	0	44	104	1138229248	72	39347
2026-01-09 11:35:24.47	346.84	6.14	-50.1	-71.2	3.8	7.45e-01	0	44	104	1138229248	72	39350
2026-01-09 11:35:25.62	346.82	6.05	-50.1	-71.2	3.8	7.47e-01	0	44	104	1138229248	72	39359
2026-01-09 11:35:26.47	346.81	5.98	-50.1	-71.2	3.8	7.46e-01	0	44	104	1138229248	72	39337
2026-01-09 11:35:27.62	346.79	5.89	-50.1	-71.2	3.8	7.47e-01	0	44	104	1138229248	72	39331
2026-01-09 11:35:28.48	346.77	5.83	-50.1	-71.2	3.8	7.46e-01	0	44	104	1138229248	72	39261
2026-01-09 11:35:29.63	346.76	5.74	-50.2	-71.2	3.8	7.45e-01	0	44	104	1138229248	72	39313
2026-01-09 11:35:30.49	346.74	5.67	-50.2	-71.2	3.8	7.48e-01	0	44	104	1138229248	72	39301
2026-01-09 11:35:31.63	346.72	5.59	-50.2	-71.2	3.8	7.46e-01	0	44	104	1138229248	72	39342
2026-01-09 11:35:32.49	346.71	5.52	-50.1	-71.2	3.8	7.43e-01	0	44	104	1138229248	72	39338
2026-01-09 11:35:33.64	346.69	5.43	-50.1	-71.2	3.8	7.47e-01	0	44	104	1138229248	72	39208
2026-01-09 11:35:34.50	346.68	5.37	-50.1	-71.2	3.8	7.48e-01	0	44	104	1138229248	72	39240
2026-01-09 11:35:35.65	346.66	5.28	-50.1	-71.2	3.8	7.45e-01	0	44	104	1138229248	72	39195
2026-01-09 11:35:36.50	346.65	5.22	-50.1	-71.2	3.8	7.46e-01	0	44	104	1138229248	72	39301
2026-01-09 11:35:37.65	346.63	5.13	-50.1	-71.2	3.8	7.45e-01	0	44	104	1138229248	72	39207
2026-01-09 11:35:38.51	346.62	5.07	-50.1	-71.2	3.8	7.44e-01	0	44	104	1138229248	72	39203
2026-01-09 11:35:39.66	346.60	4.98	-50.1	-71.2	3.8	7.47e-01	0	44	104	1138229248	72	39260

#Closed at: 2026-01-09 11:35:40
#Recorded file [1138 MB]: D:/Data/31040_260109_142421.dat