passes_logs/2026/01/09/T1/T1__20260109_203445_KHAYYAM_rec.log

#Pass ID: 20260109_203445_KHAYYAM
#Satellite: KHAYYAM
#Configuration: KHAYYAM_480M
#almurnet v.1.7.20251203
#Start time: 2026-01-09 20:34:45

#Version: 2.0.20230620
#Station: T1
#Location: 37.570604 lon 55.790049 lat
#TLE: 1 53370U 22096A   26008.65649211  .00006295  00000+0  25685-3 0  9997
#TLE: 2 53370  97.3558 275.7802 0001253  94.6030 265.5351 15.24770892190272

#Time	Az	El	Level	Level2	SNR	BER	BlckErr	Temp	State	Recorded	gain1	gain2
2026-01-09 20:34:45.66	25.18	5.02	-48.8	-51.5	3.8	0.00e+00	0	46	0	0	68	20627
2026-01-09 20:34:46.66	25.26	5.10	-48.9	-51.6	3.7	0.00e+00	0	46	104	0	68	20787
2026-01-09 20:34:47.66	25.34	5.17	-48.9	-51.6	3.7	0.00e+00	0	46	104	0	68	20776
2026-01-09 20:34:48.67	25.42	5.25	-48.9	-51.6	3.7	0.00e+00	0	46	104	0	68	20773
2026-01-09 20:34:49.67	25.50	5.33	-48.8	-51.6	3.7	0.00e+00	0	47	104	0	68	20675
2026-01-09 20:34:50.67	25.59	5.40	-48.8	-51.6	3.7	0.00e+00	0	46	104	0	68	20700
2026-01-09 20:34:51.68	25.67	5.48	-48.8	-51.5	3.6	0.00e+00	0	46	104	0	68	20574
2026-01-09 20:34:52.68	25.75	5.56	-48.8	-51.5	3.7	0.00e+00	0	47	104	0	68	20504
2026-01-09 20:34:53.69	25.84	5.63	-48.9	-51.6	3.6	0.00e+00	0	47	104	0	68	20800
2026-01-09 20:34:54.69	25.92	5.71	-48.8	-51.5	3.6	0.00e+00	0	47	104	0	68	20410
2026-01-09 20:34:55.70	26.00	5.79	-48.9	-51.6	3.6	0.00e+00	0	47	104	0	68	20809
2026-01-09 20:34:56.70	26.09	5.87	-48.9	-51.6	3.7	0.00e+00	0	47	104	0	68	20751
2026-01-09 20:34:57.70	26.17	5.94	-48.7	-51.4	3.7	0.00e+00	0	47	104	0	68	20304
2026-01-09 20:34:58.71	26.26	6.02	-48.8	-51.6	3.7	0.00e+00	0	47	104	0	68	20673
2026-01-09 20:34:59.71	26.35	6.10	-48.8	-51.6	3.6	0.00e+00	0	47	104	0	68	20676
2026-01-09 20:35:00.72	26.43	6.18	-48.7	-51.4	3.6	0.00e+00	0	48	104	0	68	20352
2026-01-09 20:35:01.72	26.52	6.26	-48.8	-51.6	3.6	0.00e+00	0	48	104	0	68	20713
2026-01-09 20:35:02.72	26.61	6.34	-48.8	-51.6	3.7	0.00e+00	0	47	104	0	68	20645
2026-01-09 20:35:03.73	26.70	6.42	-48.8	-51.4	3.7	0.00e+00	0	48	104	0	68	20355
2026-01-09 20:35:04.73	26.79	6.50	-48.8	-51.5	3.6	0.00e+00	0	48	104	0	68	20605
2026-01-09 20:35:05.74	26.88	6.58	-48.9	-51.6	3.7	0.00e+00	0	48	104	0	68	20835
2026-01-09 20:35:06.74	26.97	6.66	-48.8	-51.5	3.7	0.00e+00	0	48	104	0	68	20410
2026-01-09 20:35:07.75	27.06	6.74	-48.8	-51.6	3.6	0.00e+00	0	48	104	0	68	20658
2026-01-09 20:35:08.75	27.15	6.82	-48.8	-51.5	3.7	0.00e+00	0	48	104	0	68	20575
2026-01-09 20:35:09.76	27.25	6.91	-48.8	-51.5	3.6	0.00e+00	0	48	104	0	68	20450
2026-01-09 20:35:10.76	27.34	6.99	-48.8	-51.6	3.7	0.00e+00	0	48	104	0	68	20661
2026-01-09 20:35:11.76	27.43	7.07	-48.8	-51.6	3.7	0.00e+00	0	48	104	0	68	20661
2026-01-09 20:35:12.77	27.53	7.15	-48.8	-51.4	3.7	0.00e+00	0	48	104	0	68	20388
2026-01-09 20:35:13.77	27.62	7.24	-48.9	-51.6	3.6	0.00e+00	0	48	104	0	68	20790
2026-01-09 20:35:14.78	27.72	7.32	-48.8	-51.6	3.7	0.00e+00	0	48	104	0	68	20659
2026-01-09 20:35:15.78	27.81	7.40	-48.8	-51.4	3.7	0.00e+00	0	48	104	0	68	20373
2026-01-09 20:35:16.79	27.91	7.49	-48.9	-51.6	3.6	0.00e+00	0	48	104	0	68	20745
2026-01-09 20:35:17.79	28.01	7.57	-48.8	-51.5	3.7	0.00e+00	0	49	104	0	68	20622
2026-01-09 20:35:18.80	28.11	7.66	-48.8	-51.5	3.6	0.00e+00	0	49	104	0	68	20572
2026-01-09 20:35:19.80	28.21	7.74	-48.8	-51.6	3.7	0.00e+00	0	49	104	0	68	20714
2026-01-09 20:35:20.80	28.31	7.83	-48.8	-51.4	3.6	0.00e+00	0	49	104	0	68	20358
2026-01-09 20:35:21.81	28.41	7.91	-48.7	-51.4	3.6	0.00e+00	0	49	104	0	68	20270
2026-01-09 20:35:22.81	28.51	8.00	-48.8	-51.6	3.6	0.00e+00	0	49	104	0	68	20690
2026-01-09 20:35:23.82	28.61	8.08	-48.7	-51.4	3.6	0.00e+00	0	49	104	0	68	20360
2026-01-09 20:35:24.82	28.71	8.17	-48.8	-51.6	3.6	0.00e+00	0	49	104	0	68	20647
2026-01-09 20:35:25.83	28.82	8.26	-48.8	-51.5	3.7	0.00e+00	0	49	104	0	68	20594
2026-01-09 20:35:26.83	28.92	8.35	-48.8	-51.5	3.7	0.00e+00	0	49	104	0	68	20573
2026-01-09 20:35:27.84	29.03	8.43	-48.8	-51.6	3.6	0.00e+00	0	49	104	0	68	20651
2026-01-09 20:35:28.84	29.13	8.52	-48.7	-51.4	3.7	0.00e+00	0	49	104	0	68	20358
2026-01-09 20:35:29.84	29.24	8.61	-48.7	-51.4	3.7	0.00e+00	0	49	104	0	68	20315
2026-01-09 20:35:30.85	29.35	8.70	-48.8	-51.5	3.7	0.00e+00	0	49	104	0	68	20532
2026-01-09 20:35:31.85	29.46	8.79	-48.8	-51.5	3.7	0.00e+00	0	49	104	0	68	20504
2026-01-09 20:35:32.86	29.57	8.88	-48.7	-51.4	3.7	0.00e+00	0	49	104	0	68	20371
2026-01-09 20:35:33.86	29.67	8.97	-48.8	-51.4	3.7	0.00e+00	0	49	104	0	68	20387
2026-01-09 20:35:34.86	29.79	9.06	-48.8	-51.4	3.6	0.00e+00	0	49	104	0	68	20377
2026-01-09 20:35:35.87	29.90	9.15	-45.5	-47.4	3.6	0.00e+00	0	49	104	0	63	17150
2026-01-09 20:35:36.94	30.02	9.24	-44.6	-46.4	3.7	0.00e+00	0	50	104	0	61	17011
2026-01-09 20:35:37.83	30.12	9.32	-48.2	-50.7	3.6	0.00e+00	0	49	104	0	66	20936
2026-01-09 20:35:39.14	30.27	9.44	-48.2	-50.8	3.7	0.00e+00	0	49	104	0	67	19941
2026-01-09 20:35:39.86	30.35	9.51	-44.3	-46.0	3.6	0.00e+00	0	49	104	0	60	17329
2026-01-09 20:35:41.15	30.50	9.63	-44.3	-45.9	3.7	0.00e+00	0	49	104	0	60	17130
2026-01-09 20:35:41.86	30.58	9.69	-44.5	-46.2	3.8	0.00e+00	0	50	104	0	60	17636
2026-01-09 20:35:43.15	30.73	9.81	-45.9	-47.7	3.9	0.00e+00	0	49	104	0	62	18810
2026-01-09 20:35:43.86	30.81	9.88	-46.8	-48.9	3.9	0.00e+00	0	49	104	0	64	19111
2026-01-09 20:35:45.16	30.97	10.00	-50.8	-54.9	3.7	0.00e+00	0	49	104	0	72	24092
2026-01-09 20:35:45.87	31.05	10.07	-50.3	-53.6	3.7	0.00e+00	0	50	104	0	72	20782
2026-01-09 20:35:47.17	31.21	10.19	-50.3	-53.6	3.7	0.00e+00	0	50	104	0	71	21880
2026-01-09 20:35:48.09	31.32	10.28	-50.0	-53.6	3.7	0.00e+00	0	50	104	0	71	21858
2026-01-09 20:35:49.41	31.48	10.40	-49.4	-52.3	3.7	0.00e+00	0	50	104	0	69	21164
2026-01-09 20:35:50.16	31.58	10.48	-50.7	-54.2	3.7	0.00e+00	0	50	104	0	72	22322
2026-01-09 20:35:51.77	31.78	10.63	-50.4	-53.9	3.7	0.00e+00	0	50	104	0	72	21554
2026-01-09 20:35:52.35	31.85	10.69	-50.0	-53.5	3.7	0.00e+00	0	50	104	0	72	20558
2026-01-09 20:35:53.93	32.05	10.84	-49.9	-53.8	3.7	0.00e+00	0	50	104	0	71	22416
2026-01-09 20:35:54.52	32.13	10.90	-50.2	-54.5	3.7	0.00e+00	0	50	104	0	71	24395
2026-01-09 20:35:56.10	32.33	11.05	-49.4	-52.4	3.8	0.00e+00	0	50	104	0	70	20244
2026-01-09 20:35:56.83	32.43	11.12	-49.8	-52.8	3.7	0.00e+00	0	50	104	0	71	19993
2026-01-09 20:35:58.12	32.60	11.25	-47.6	-50.1	3.7	0.00e+00	0	50	104	0	66	19515
2026-01-09 20:35:58.84	32.69	11.32	-47.3	-49.5	3.6	0.00e+00	0	50	104	0	65	19476
2026-01-09 20:36:00.13	32.87	11.45	-48.3	-50.8	3.6	0.00e+00	0	50	104	0	67	19973
2026-01-09 20:36:01.11	33.00	11.55	-50.1	-53.1	3.7	0.00e+00	0	50	104	0	70	22076
2026-01-09 20:36:02.12	33.14	11.65	-50.8	-54.1	3.7	0.00e+00	0	50	104	0	72	22088
2026-01-09 20:36:03.46	33.32	11.79	-49.7	-52.3	3.7	0.00e+00	0	50	104	0	71	18972
2026-01-09 20:36:04.21	33.42	11.86	-48.3	-50.6	3.6	0.00e+00	0	50	104	0	68	18396
2026-01-09 20:36:05.50	33.60	11.99	-49.6	-52.3	3.7	0.00e+00	0	50	104	0	71	18898
2026-01-09 20:36:06.22	33.70	12.07	-49.5	-52.2	3.7	0.00e+00	0	50	104	0	70	19787
2026-01-09 20:36:07.51	33.89	12.20	-47.5	-49.8	3.6	0.00e+00	0	50	104	0	67	17772
2026-01-09 20:36:08.22	33.99	12.27	-47.9	-50.3	3.6	0.00e+00	0	50	104	0	67	18823
2026-01-09 20:36:09.51	34.18	12.41	-48.5	-50.9	3.6	0.00e+00	0	50	104	0	67	20249
2026-01-09 20:36:10.23	34.28	12.48	-49.3	-51.9	3.7	0.00e+00	0	50	104	0	69	20198
2026-01-09 20:36:11.52	34.47	12.62	-50.1	-53.3	3.7	0.00e+00	0	50	104	0	71	21153
2026-01-09 20:36:12.24	34.58	12.69	-50.7	-54.2	3.7	0.00e+00	0	50	104	0	72	22208
2026-01-09 20:36:13.53	34.77	12.83	-49.9	-53.4	3.7	0.00e+00	0	50	104	0	71	21528
2026-01-09 20:36:14.25	34.88	12.90	-48.6	-51.5	3.7	0.00e+00	0	50	104	0	69	19365
2026-01-09 20:36:15.54	35.07	13.04	-48.8	-51.7	3.7	0.00e+00	0	50	104	0	68	21060
2026-01-09 20:36:16.25	35.18	13.12	-48.8	-51.5	3.6	0.00e+00	0	50	104	0	69	19334
2026-01-09 20:36:17.54	35.38	13.26	-48.0	-50.4	3.7	0.00e+00	0	51	104	0	68	18131
2026-01-09 20:36:18.26	35.49	13.33	-47.5	-49.8	3.6	0.00e+00	0	50	104	0	67	17767
2026-01-09 20:36:19.55	35.70	13.47	-46.7	-48.8	3.6	0.00e+00	0	50	104	0	65	17802
2026-01-09 20:36:20.26	35.81	13.55	-46.6	-48.6	3.5	0.00e+00	0	51	104	0	65	17379
2026-01-09 20:36:21.56	36.02	13.69	-46.3	-48.2	3.5	0.00e+00	0	50	104	0	63	18683
2026-01-09 20:36:22.27	36.13	13.77	-46.5	-48.5	3.5	0.00e+00	0	50	104	0	64	18235
2026-01-09 20:36:23.56	36.34	13.91	-46.5	-48.4	3.5	0.00e+00	0	50	104	0	65	17105
2026-01-09 20:36:24.28	36.46	13.99	-46.4	-48.3	3.5	0.00e+00	0	51	104	0	63	18920
2026-01-09 20:36:25.57	36.67	14.14	-47.2	-49.3	3.6	0.00e+00	0	50	104	0	65	18922
2026-01-09 20:36:26.29	36.79	14.22	-46.1	-48.0	3.5	0.00e+00	0	50	104	0	64	17335
2026-01-09 20:36:27.58	37.01	14.36	-45.5	-47.4	3.5	0.00e+00	0	51	104	0	62	17997
2026-01-09 20:36:28.29	37.13	14.44	-45.8	-47.7	3.5	0.00e+00	0	50	104	0	62	18684
2026-01-09 20:36:29.73	37.38	14.61	-46.5	-48.5	3.6	0.00e+00	0	50	104	0	63	19261
2026-01-09 20:36:30.44	37.50	14.69	-46.1	-48.0	3.5	0.00e+00	0	50	104	0	63	18225
2026-01-09 20:36:31.73	37.73	14.83	-48.2	-50.5	3.7	0.00e+00	0	51	104	0	66	20628
2026-01-09 20:36:32.45	37.86	14.92	-50.7	-54.1	3.7	0.00e+00	0	50	104	0	72	22011
2026-01-09 20:36:33.74	38.09	15.07	-49.5	-52.0	3.8	0.00e+00	0	51	104	0	71	18218
2026-01-09 20:36:34.46	38.22	15.15	-49.4	-51.9	3.7	0.00e+00	0	51	104	0	70	19123
2026-01-09 20:36:35.75	38.45	15.30	-49.2	-51.5	3.8	0.00e+00	0	51	104	0	70	18249
2026-01-09 20:36:36.47	38.58	15.38	-49.4	-51.8	3.9	0.00e+00	0	50	104	0	70	18868
2026-01-09 20:36:37.75	38.82	15.53	-49.6	-52.0	3.9	0.00e+00	0	51	104	0	70	19321
2026-01-09 20:36:38.47	38.95	15.62	-50.1	-52.8	3.8	0.00e+00	0	50	104	0	70	21164
2026-01-09 20:36:39.76	39.20	15.77	-50.6	-53.5	3.7	0.00e+00	0	51	104	0	72	20613
2026-01-09 20:36:40.51	39.34	15.86	-50.8	-53.9	3.7	0.00e+00	0	51	104	0	72	21530
2026-01-09 20:36:41.80	39.59	16.01	-52.4	-56.6	3.7	0.00e+00	0	51	104	0	75	24762
2026-01-09 20:36:42.52	39.72	16.10	-52.2	-56.6	3.7	0.00e+00	0	51	104	0	75	24565
2026-01-09 20:36:43.81	39.98	16.25	-52.0	-56.0	3.7	0.00e+00	0	51	104	0	75	22917
2026-01-09 20:36:44.65	40.14	16.36	-51.9	-56.0	3.7	0.00e+00	0	51	104	0	75	23147
2026-01-09 20:36:46.12	40.44	16.54	-52.1	-56.4	3.7	0.00e+00	0	51	104	0	75	24061
2026-01-09 20:36:46.83	40.58	16.62	-52.0	-56.2	3.7	0.00e+00	0	51	104	0	75	23580
2026-01-09 20:36:48.12	40.84	16.78	-52.0	-56.2	3.7	0.00e+00	0	51	104	0	75	23445
2026-01-09 20:36:48.84	40.99	16.87	-52.6	-57.0	3.7	0.00e+00	0	51	104	0	75	25706
2026-01-09 20:36:50.12	41.25	17.03	-52.6	-57.0	3.7	0.00e+00	0	51	104	0	75	25814
2026-01-09 20:36:50.89	41.42	17.12	-52.4	-56.6	3.7	0.00e+00	0	51	104	0	75	24588
2026-01-09 20:36:52.18	41.69	17.28	-52.6	-57.0	3.7	0.00e+00	0	51	104	0	75	25777
2026-01-09 20:36:52.96	41.85	17.38	-52.2	-56.2	3.7	0.00e+00	0	51	104	0	75	23565
2026-01-09 20:36:54.25	42.13	17.54	-52.3	-56.4	3.7	0.00e+00	0	51	104	0	75	24214
2026-01-09 20:36:54.97	42.29	17.63	-52.5	-56.8	3.7	0.00e+00	0	51	104	0	75	25382
2026-01-09 20:36:56.26	42.57	17.80	-52.8	-57.3	3.7	0.00e+00	0	51	104	0	76	25137
2026-01-09 20:36:56.97	42.73	17.89	-52.8	-57.3	3.7	0.00e+00	0	51	104	0	76	25119
2026-01-09 20:36:58.26	43.02	18.05	-52.6	-57.0	3.7	0.00e+00	0	51	104	0	76	24426
2026-01-09 20:36:58.98	43.18	18.14	-52.4	-56.6	3.7	0.00e+00	0	51	104	0	76	23296
2026-01-09 20:37:00.27	43.48	18.31	-52.5	-57.1	3.7	0.00e+00	0	51	104	0	76	24755
2026-01-09 20:37:00.98	43.64	18.40	-52.1	-56.4	3.7	0.00e+00	0	51	104	0	76	22765
2026-01-09 20:37:02.27	43.94	18.57	-52.4	-56.8	3.7	0.00e+00	0	51	104	0	76	23918
2026-01-09 20:37:02.99	44.11	18.66	-52.3	-56.8	3.7	0.00e+00	0	51	104	0	76	23761
2026-01-09 20:37:04.28	44.42	18.83	-52.4	-56.8	3.7	0.00e+00	0	51	104	0	76	23840
2026-01-09 20:37:04.99	44.59	18.92	-52.5	-57.0	3.7	0.00e+00	0	51	104	0	76	24439
2026-01-09 20:37:06.28	44.90	19.09	-52.4	-57.0	3.7	0.00e+00	0	51	104	0	76	24255
2026-01-09 20:37:07.00	45.08	19.19	-52.2	-56.4	3.7	0.00e+00	0	51	104	0	76	22776
2026-01-09 20:37:08.29	45.40	19.36	-52.5	-57.0	3.7	0.00e+00	0	51	104	0	76	24315
2026-01-09 20:37:09.00	45.57	19.45	-51.9	-55.7	3.7	0.00e+00	0	51	104	0	75	22263
2026-01-09 20:37:10.29	45.90	19.62	-51.7	-55.5	3.7	0.00e+00	0	51	104	0	75	21610
2026-01-09 20:37:11.17	46.12	19.74	-51.9	-55.8	3.7	0.00e+00	0	51	104	0	75	22492
2026-01-09 20:37:12.63	46.50	19.93	-51.7	-55.3	3.7	0.00e+00	0	51	104	0	75	21358
2026-01-09 20:37:13.35	46.69	20.03	-51.9	-55.7	3.7	0.00e+00	0	51	104	0	75	22254
2026-01-09 20:37:14.83	47.08	20.23	-52.3	-56.4	3.7	0.00e+00	0	51	104	0	75	24082
2026-01-09 20:37:15.54	47.26	20.33	-52.5	-56.8	3.7	0.00e+00	0	51	104	0	75	25352
2026-01-09 20:37:16.83	47.61	20.50	-52.7	-57.2	3.7	0.00e+00	0	51	104	0	76	24956
2026-01-09 20:37:17.55	47.81	20.60	-52.7	-57.2	3.7	0.00e+00	0	51	104	0	76	24830
2026-01-09 20:37:18.84	48.16	20.78	-52.2	-56.4	3.7	0.00e+00	0	51	104	0	76	22695
2026-01-09 20:37:19.56	48.36	20.87	-52.3	-56.5	3.7	0.00e+00	0	51	104	0	76	22947
2026-01-09 20:37:20.85	48.72	21.05	-52.5	-56.9	3.7	0.00e+00	0	51	104	0	76	24095
2026-01-09 20:37:21.57	48.93	21.15	-52.6	-57.1	3.7	0.00e+00	0	51	104	0	76	24751
2026-01-09 20:37:22.86	49.29	21.33	-52.6	-56.9	3.7	0.00e+00	0	51	104	0	76	24199
2026-01-09 20:37:23.70	49.54	21.44	-52.4	-56.6	3.7	0.00e+00	0	51	104	0	76	23215
2026-01-09 20:37:24.85	49.87	21.60	-52.2	-56.2	3.7	0.00e+00	0	51	104	0	76	22339
2026-01-09 20:37:25.71	50.13	21.72	-52.2	-56.2	3.7	0.00e+00	0	51	104	0	76	22262
2026-01-09 20:37:26.86	50.47	21.88	-51.1	-54.5	3.7	0.00e+00	0	51	104	0	74	20583
2026-01-09 20:37:27.72	50.73	22.00	-52.1	-56.2	3.7	0.00e+00	0	51	104	0	74	25073
2026-01-09 20:37:28.87	51.08	22.16	-51.6	-55.2	3.7	0.00e+00	0	51	104	0	75	21108
2026-01-09 20:37:29.73	51.34	22.28	-51.9	-55.9	3.7	0.00e+00	0	51	104	0	74	24099
2026-01-09 20:37:30.87	51.69	22.44	-52.4	-56.9	3.7	0.00e+00	0	51	104	0	75	25468
2026-01-09 20:37:31.73	51.96	22.56	-52.6	-57.2	3.7	0.00e+00	0	51	104	0	75	26363
2026-01-09 20:37:33.02	52.37	22.74	-52.7	-57.2	3.7	0.00e+00	0	51	104	0	76	25089
2026-01-09 20:37:33.74	52.60	22.84	-52.7	-57.1	3.7	0.00e+00	0	51	104	0	76	24728
2026-01-09 20:37:35.24	53.08	23.05	-52.4	-56.8	3.7	0.00e+00	0	51	104	0	76	23803
2026-01-09 20:37:35.95	53.32	23.15	-52.6	-57.2	3.7	0.00e+00	0	51	104	0	76	24895
2026-01-09 20:37:37.24	53.74	23.34	-52.4	-57.1	3.7	0.00e+00	0	51	104	0	76	24553
2026-01-09 20:37:37.95	53.98	23.43	-52.6	-57.0	3.7	0.00e+00	0	51	104	0	76	24342
2026-01-09 20:37:39.24	54.41	23.62	-52.6	-56.8	3.7	0.00e+00	0	51	104	0	76	23808
2026-01-09 20:37:39.96	54.66	23.72	-52.7	-57.0	3.7	0.00e+00	0	51	104	0	76	24510
2026-01-09 20:37:41.25	55.10	23.90	-52.4	-56.4	3.7	0.00e+00	0	51	104	0	76	22643
2026-01-09 20:37:41.97	55.35	24.00	-52.6	-56.8	3.7	0.00e+00	0	51	104	0	76	23918
2026-01-09 20:37:43.26	55.80	24.18	-52.5	-56.7	3.7	0.00e+00	0	51	104	0	76	23424
2026-01-09 20:37:44.07	56.09	24.30	-52.5	-56.6	3.7	0.00e+00	0	51	104	0	76	23325
2026-01-09 20:37:45.53	56.61	24.50	-52.2	-56.0	3.7	0.00e+00	0	51	104	0	76	21824
2026-01-09 20:37:46.25	56.87	24.60	-52.2	-55.9	3.7	0.00e+00	0	51	104	0	76	21474
2026-01-09 20:37:47.73	57.42	24.81	-52.3	-56.2	3.7	0.00e+00	0	51	104	0	76	22119
2026-01-09 20:37:48.45	57.68	24.91	-52.4	-56.4	3.7	0.00e+00	0	51	104	0	76	22780
2026-01-09 20:37:49.79	58.18	25.10	-52.6	-57.1	3.7	0.00e+00	0	51	104	0	76	24767
2026-01-09 20:37:50.50	58.45	25.20	-52.6	-57.2	3.7	0.00e+00	0	51	104	0	76	24856
2026-01-09 20:37:51.79	58.94	25.38	-52.6	-57.1	3.7	0.00e+00	0	51	104	0	76	24790
2026-01-09 20:37:52.51	59.22	25.48	-52.7	-57.2	3.7	0.00e+00	0	51	104	0	76	24814
2026-01-09 20:37:53.80	59.72	25.65	-52.8	-57.1	3.7	0.00e+00	0	51	104	0	76	24705
2026-01-09 20:37:54.52	60.00	25.75	-52.6	-56.9	3.7	0.00e+00	0	52	104	0	76	23965
2026-01-09 20:37:55.81	60.52	25.93	-52.4	-56.7	3.7	0.00e+00	0	51	104	0	76	23460
2026-01-09 20:37:56.54	60.81	26.03	-52.4	-56.8	3.7	0.00e+00	0	52	104	0	76	23700
2026-01-09 20:37:57.83	61.33	26.21	-52.6	-57.0	3.7	0.00e+00	0	51	104	0	76	24316
2026-01-09 20:37:58.55	61.62	26.30	-52.6	-56.9	3.7	0.00e+00	0	51	104	0	76	24236
2026-01-09 20:37:59.83	62.15	26.48	-52.6	-56.9	3.7	0.00e+00	0	51	104	0	76	24102
2026-01-09 20:38:00.55	62.45	26.57	-52.6	-56.8	3.7	0.00e+00	0	51	104	0	76	23826
2026-01-09 20:38:01.84	62.99	26.75	-52.8	-57.2	3.7	0.00e+00	0	51	104	0	76	25022
2026-01-09 20:38:02.56	63.29	26.84	-52.8	-57.2	3.7	0.00e+00	0	51	104	0	76	25085
2026-01-09 20:38:03.84	63.84	27.01	-52.8	-57.3	3.7	0.00e+00	0	52	104	0	76	25144
2026-01-09 20:38:04.56	64.15	27.11	-52.9	-57.3	3.7	0.00e+00	0	51	104	0	76	25299
2026-01-09 20:38:05.85	64.71	27.28	-52.9	-57.2	3.7	0.00e+00	0	51	104	0	76	25003
2026-01-09 20:38:06.57	65.03	27.37	-52.8	-57.1	3.7	0.00e+00	0	51	104	0	76	24794
2026-01-09 20:38:07.85	65.60	27.54	-52.8	-57.1	3.7	0.00e+00	0	51	104	0	76	24797
2026-01-09 20:38:08.57	65.92	27.63	-52.8	-57.2	3.7	0.00e+00	0	52	104	0	76	24831
2026-01-09 20:38:09.86	66.50	27.79	-53.0	-57.4	3.7	0.00e+00	0	52	104	0	76	25386
2026-01-09 20:38:10.57	66.82	27.88	-53.0	-57.4	3.7	0.00e+00	0	52	104	0	76	25637
2026-01-09 20:38:11.86	67.41	28.04	-53.0	-57.4	3.7	0.00e+00	0	51	104	0	76	25594
2026-01-09 20:38:12.58	67.75	28.13	-52.9	-57.3	3.7	0.00e+00	0	51	104	0	76	25301
2026-01-09 20:38:14.23	68.52	28.34	-52.6	-56.8	3.7	0.00e+00	0	51	104	0	76	23873
2026-01-09 20:38:14.81	68.79	28.41	-52.7	-56.8	3.7	0.00e+00	0	51	104	0	76	23879
2026-01-09 20:38:16.39	69.54	28.60	-52.7	-56.8	3.7	0.00e+00	0	51	104	0	76	23937
2026-01-09 20:38:16.97	69.82	28.66	-52.6	-56.9	3.7	0.00e+00	0	51	104	0	76	24101
2026-01-09 20:38:18.55	70.59	28.85	-52.9	-57.4	3.7	0.00e+00	0	52	104	0	76	25455
2026-01-09 20:38:19.12	70.86	28.91	-53.0	-57.5	3.7	0.00e+00	0	51	104	0	76	25763
2026-01-09 20:38:20.74	71.66	29.10	-53.1	-57.6	3.7	0.00e+00	0	52	104	0	76	26037
2026-01-09 20:38:21.32	71.95	29.16	-53.0	-57.5	3.7	0.00e+00	0	51	104	0	76	25685
2026-01-09 20:38:22.92	72.75	29.34	-52.7	-57.0	3.7	0.00e+00	0	52	104	0	76	24296
2026-01-09 20:38:23.50	73.04	29.40	-52.7	-57.0	3.7	0.00e+00	0	52	104	0	76	24285
2026-01-09 20:38:25.08	73.85	29.57	-52.7	-57.0	3.7	0.00e+00	0	51	104	0	76	24427
2026-01-09 20:38:25.68	74.15	29.63	-52.7	-57.1	3.7	0.00e+00	0	51	104	0	76	24638
2026-01-09 20:38:27.55	75.12	29.82	-52.6	-57.0	3.7	0.00e+00	0	52	104	0	76	24482
2026-01-09 20:38:28.12	75.42	29.88	-52.5	-56.9	3.7	0.00e+00	0	52	104	0	76	24114
2026-01-09 20:38:30.18	76.50	30.08	-52.4	-56.6	3.7	0.00e+00	0	52	104	0	76	23236
2026-01-09 20:38:30.74	76.80	30.13	-52.6	-57.0	3.7	0.00e+00	0	51	104	0	76	24256
2026-01-09 20:38:32.46	77.72	30.29	-52.4	-57.0	3.7	0.00e+00	0	52	104	0	76	24442
2026-01-09 20:38:33.03	78.02	30.34	-52.5	-57.1	3.7	0.00e+00	0	52	104	0	76	24741
2026-01-09 20:38:34.63	78.89	30.48	-52.7	-57.2	3.7	0.00e+00	0	52	104	0	76	24904
2026-01-09 20:38:35.20	79.20	30.52	-52.7	-57.1	3.7	0.00e+00	0	51	104	0	76	24805
2026-01-09 20:38:36.92	80.14	30.66	-52.6	-57.1	3.7	0.00e+00	0	52	104	0	76	24574
2026-01-09 20:38:37.49	80.45	30.71	-52.3	-56.8	3.7	0.00e+00	0	51	104	0	76	23795
2026-01-09 20:38:39.08	81.34	30.83	-52.2	-57.2	3.7	0.00e+00	0	51	104	0	76	24826
2026-01-09 20:38:39.65	81.65	30.87	-52.0	-56.9	3.7	0.00e+00	0	51	104	0	76	24204
2026-01-09 20:38:41.59	82.74	31.01	-51.7	-56.5	3.7	0.00e+00	0	52	104	0	75	24279
2026-01-09 20:38:42.16	83.06	31.05	-51.6	-56.5	3.7	0.00e+00	0	52	104	0	75	24266
2026-01-09 20:38:43.74	83.96	31.15	-52.2	-57.1	3.7	0.00e+00	0	52	104	0	75	25987
2026-01-09 20:38:44.31	84.28	31.18	-52.1	-57.0	3.7	0.00e+00	0	52	104	0	75	25886
2026-01-09 20:38:45.89	85.19	31.27	-51.8	-56.7	3.7	0.00e+00	0	52	104	0	75	25046
2026-01-09 20:38:46.51	85.54	31.31	-51.8	-56.8	3.7	0.00e+00	0	51	104	0	75	25336
2026-01-09 20:38:48.08	86.45	31.39	-51.8	-56.7	3.7	0.00e+00	0	52	104	0	75	24945
2026-01-09 20:38:48.67	86.79	31.42	-51.7	-56.7	3.7	0.00e+00	0	52	104	0	75	24942
2026-01-09 20:38:50.33	87.75	31.49	-52.1	-56.9	3.7	0.00e+00	0	51	104	0	75	25464
2026-01-09 20:38:50.90	88.08	31.52	-52.3	-57.0	3.7	0.00e+00	0	51	104	0	75	25814
2026-01-09 20:38:52.48	89.01	31.58	-52.7	-57.2	3.7	0.00e+00	0	51	104	0	76	25039
2026-01-09 20:38:53.07	89.35	31.60	-52.7	-57.3	3.7	0.00e+00	0	52	104	0	76	25118
2026-01-09 20:38:54.64	90.27	31.65	-52.4	-57.0	3.7	0.00e+00	0	52	104	0	76	24404
2026-01-09 20:38:55.25	90.63	31.67	-52.4	-56.9	3.7	0.00e+00	0	51	104	0	76	24242
2026-01-09 20:38:57.06	91.70	31.71	-52.8	-57.2	3.7	0.00e+00	0	52	104	0	76	25055
2026-01-09 20:38:57.64	92.04	31.73	-52.7	-57.2	3.7	0.00e+00	0	51	104	0	76	25047
2026-01-09 20:38:59.23	92.98	31.76	-52.5	-57.1	3.7	0.00e+00	0	52	104	0	76	24673
2026-01-09 20:38:59.80	93.32	31.76	-52.4	-57.0	3.7	0.00e+00	0	52	104	0	76	24340
2026-01-09 20:39:01.40	94.27	31.78	-52.5	-57.0	3.7	0.00e+00	0	51	104	0	76	24464
2026-01-09 20:39:01.99	94.62	31.79	-52.8	-57.2	3.7	0.00e+00	0	51	104	0	76	25006
2026-01-09 20:39:03.57	95.56	31.80	-52.8	-57.4	3.7	0.00e+00	0	52	104	0	76	25412
2026-01-09 20:39:04.16	95.91	31.80	-52.8	-57.2	3.7	0.00e+00	0	51	104	0	76	24939
2026-01-09 20:39:05.74	96.85	31.79	-52.5	-56.8	3.7	0.00e+00	0	52	104	0	76	23827
2026-01-09 20:39:06.31	97.19	31.79	-52.3	-56.6	3.7	0.00e+00	0	52	104	0	76	23265
2026-01-09 20:39:07.99	98.18	31.77	-52.7	-57.1	3.7	0.00e+00	0	51	104	0	76	24682
2026-01-09 20:39:08.57	98.53	31.77	-52.7	-57.1	3.7	0.00e+00	0	52	104	0	76	24568
2026-01-09 20:39:10.15	99.46	31.74	-52.5	-56.9	3.7	0.00e+00	0	52	104	0	76	24149
2026-01-09 20:39:10.73	99.81	31.73	-52.4	-56.8	3.7	0.00e+00	0	51	104	0	76	23958
2026-01-09 20:39:12.31	100.74	31.69	-52.4	-56.9	3.7	0.00e+00	0	52	104	0	76	23972
2026-01-09 20:39:12.88	101.08	31.68	-52.6	-57.0	3.7	0.00e+00	0	52	104	0	76	24312
2026-01-09 20:39:14.46	102.01	31.63	-53.0	-57.4	3.7	0.00e+00	0	52	104	0	76	25447
2026-01-09 20:39:15.05	102.35	31.61	-52.9	-57.3	3.7	0.00e+00	0	52	104	0	76	25335
2026-01-09 20:39:16.62	103.27	31.55	-52.5	-57.1	3.7	0.00e+00	0	52	104	0	76	24669
2026-01-09 20:39:17.45	103.76	31.52	-52.4	-57.0	3.7	0.00e+00	0	52	104	0	76	24514
2026-01-09 20:39:18.60	104.43	31.47	-52.6	-57.1	3.7	0.00e+00	0	52	104	0	76	24796
2026-01-09 20:39:19.46	104.93	31.43	-52.8	-57.3	3.7	0.00e+00	0	51	104	0	76	25097
2026-01-09 20:39:20.60	105.59	31.38	-52.6	-57.1	3.7	0.00e+00	0	51	104	0	76	24734
2026-01-09 20:39:21.47	106.09	31.33	-52.6	-57.1	3.7	0.00e+00	0	52	104	0	76	24742
2026-01-09 20:39:22.62	106.75	31.27	-52.7	-57.1	3.7	0.00e+00	0	52	104	0	76	24681
2026-01-09 20:39:23.47	107.24	31.22	-52.6	-57.1	3.7	0.00e+00	0	52	104	0	76	24597
2026-01-09 20:39:24.62	107.90	31.15	-52.5	-56.9	3.7	0.00e+00	0	51	104	0	76	24068
2026-01-09 20:39:25.48	108.39	31.10	-52.6	-56.9	3.7	0.00e+00	0	52	104	0	76	24200
2026-01-09 20:39:26.63	109.04	31.02	-52.8	-57.1	3.7	0.00e+00	0	52	104	0	76	24730
2026-01-09 20:39:27.49	109.52	30.96	-52.9	-57.3	3.7	0.00e+00	0	51	104	0	76	25169
2026-01-09 20:39:28.64	110.17	30.88	-52.4	-56.9	3.7	0.00e+00	0	52	104	0	76	23976
2026-01-09 20:39:29.66	110.74	30.81	-52.3	-56.9	3.7	0.00e+00	0	52	104	0	76	24013
2026-01-09 20:39:30.66	111.30	30.73	-51.7	-56.7	3.7	0.00e+00	0	52	104	0	75	24975
2026-01-09 20:39:31.67	111.85	30.65	-52.0	-56.7	3.7	0.00e+00	0	52	104	0	75	25082
2026-01-09 20:39:32.67	112.40	30.57	-52.2	-56.8	3.7	0.00e+00	0	52	104	0	75	25332
2026-01-09 20:39:33.94	113.10	30.46	-52.1	-56.7	3.7	0.00e+00	0	52	104	0	75	25012
2026-01-09 20:39:34.68	113.50	30.40	-52.2	-56.9	3.7	0.00e+00	0	52	104	0	75	25659
2026-01-09 20:39:36.28	114.36	30.26	-52.2	-56.9	3.7	0.00e+00	0	51	104	0	75	25662
2026-01-09 20:39:37.10	114.80	30.18	-52.5	-57.1	3.7	0.00e+00	0	52	104	0	75	26145
2026-01-09 20:39:38.72	115.67	30.03	-52.5	-57.1	3.7	0.00e+00	0	52	104	0	75	26119
2026-01-09 20:39:39.29	115.97	29.98	-52.7	-57.2	3.7	0.00e+00	0	52	104	0	75	26426
2026-01-09 20:39:40.87	116.80	29.82	-52.5	-56.9	3.7	0.00e+00	0	52	104	0	76	23980
2026-01-09 20:39:41.46	117.10	29.76	-52.5	-56.8	3.7	0.00e+00	0	52	104	0	76	23926
2026-01-09 20:39:43.04	117.92	29.60	-52.3	-56.9	3.7	0.00e+00	0	52	104	0	76	24111
2026-01-09 20:39:43.67	118.24	29.53	-51.9	-56.8	3.7	0.00e+00	0	52	104	0	75	25293
2026-01-09 20:39:45.13	118.99	29.37	-52.3	-57.1	3.7	0.00e+00	0	52	104	0	75	26116
2026-01-09 20:39:45.85	119.35	29.30	-52.0	-56.9	3.7	0.00e+00	0	52	104	0	75	25626
2026-01-09 20:39:47.17	120.01	29.15	-52.5	-57.1	3.7	0.00e+00	0	52	104	0	75	26195
2026-01-09 20:39:48.15	120.50	29.04	-52.7	-57.2	3.7	0.00e+00	0	52	104	0	76	25006
2026-01-09 20:39:49.48	121.16	28.89	-52.9	-57.4	3.7	0.00e+00	0	52	104	0	76	25388
2026-01-09 20:39:50.20	121.51	28.80	-52.9	-57.3	3.7	0.00e+00	0	52	104	0	76	25283
2026-01-09 20:39:51.49	122.13	28.65	-52.8	-57.2	3.7	0.00e+00	0	52	104	0	76	25014
2026-01-09 20:39:52.20	122.48	28.57	-52.7	-57.0	3.7	0.00e+00	0	52	104	0	76	24366
2026-01-09 20:39:53.50	123.10	28.41	-52.6	-56.7	3.7	0.00e+00	0	52	104	0	76	23641
2026-01-09 20:39:54.21	123.43	28.32	-52.6	-56.8	3.7	0.00e+00	0	52	104	0	76	23727
2026-01-09 20:39:55.50	124.04	28.17	-52.6	-56.8	3.7	0.00e+00	0	52	104	0	76	23960
2026-01-09 20:39:56.21	124.37	28.08	-52.7	-57.1	3.6	0.00e+00	0	52	104	0	76	24805
2026-01-09 20:39:57.50	124.97	27.92	-52.6	-56.9	3.7	0.00e+00	0	52	104	0	76	24147
2026-01-09 20:39:58.22	125.30	27.82	-52.6	-57.0	3.7	0.00e+00	0	52	104	0	76	24381
2026-01-09 20:39:59.57	125.91	27.65	-52.5	-56.9	3.7	0.00e+00	0	52	104	0	76	23982
2026-01-09 20:40:00.29	126.23	27.56	-52.7	-57.1	3.7	0.00e+00	0	52	104	0	76	24677
2026-01-09 20:40:01.58	126.81	27.39	-52.8	-57.3	3.7	0.00e+00	0	52	104	0	76	25202
2026-01-09 20:40:02.62	127.27	27.26	-52.8	-57.3	3.7	0.00e+00	0	52	104	0	76	25116
2026-01-09 20:40:03.95	127.85	27.08	-52.5	-57.1	3.7	0.00e+00	0	52	104	0	76	24755
2026-01-09 20:40:04.70	128.17	26.98	-52.3	-57.1	3.7	0.00e+00	0	52	104	0	76	24540
2026-01-09 20:40:06.31	128.86	26.76	-51.9	-56.7	3.7	0.00e+00	0	52	104	0	75	25088
2026-01-09 20:40:06.88	129.10	26.69	-51.9	-56.7	3.7	0.00e+00	0	52	104	0	75	24857
2026-01-09 20:40:08.46	129.77	26.47	-52.6	-57.1	3.7	0.00e+00	0	52	104	0	75	26012
2026-01-09 20:40:09.08	130.02	26.39	-52.7	-57.1	3.7	0.00e+00	0	52	104	0	76	24593
2026-01-09 20:40:10.75	130.71	26.16	-52.5	-56.9	3.7	0.00e+00	0	52	104	0	76	24147
2026-01-09 20:40:11.33	130.95	26.08	-52.4	-56.8	3.7	0.00e+00	0	52	104	0	76	23847
2026-01-09 20:40:12.90	131.58	25.87	-52.3	-56.7	3.7	0.00e+00	0	52	104	0	76	23533
2026-01-09 20:40:13.48	131.81	25.78	-52.2	-56.6	3.6	0.00e+00	0	52	104	0	76	23359
2026-01-09 20:40:15.07	132.44	25.56	-52.3	-56.8	3.7	0.00e+00	0	52	104	0	76	23818
2026-01-09 20:40:15.65	132.66	25.48	-52.4	-56.8	3.7	0.00e+00	0	52	104	0	76	23723
2026-01-09 20:40:17.50	133.38	25.22	-52.3	-56.6	3.7	0.00e+00	0	52	104	0	76	23299
2026-01-09 20:40:18.07	133.59	25.14	-52.4	-56.7	3.7	0.00e+00	0	52	104	0	76	23681
2026-01-09 20:40:19.65	134.19	24.92	-52.1	-56.5	3.7	0.00e+00	0	52	104	0	76	23018
2026-01-09 20:40:20.22	134.40	24.84	-52.1	-56.4	3.7	0.00e+00	0	52	104	0	76	22858
2026-01-09 20:40:21.83	135.00	24.61	-52.0	-56.5	3.7	0.00e+00	0	52	104	0	76	22979
2026-01-09 20:40:22.40	135.21	24.53	-52.1	-56.5	3.7	0.00e+00	0	52	104	0	76	23063
2026-01-09 20:40:24.01	135.79	24.31	-52.5	-56.8	3.7	0.00e+00	0	52	104	0	76	23885
2026-01-09 20:40:24.58	135.99	24.23	-52.5	-56.8	3.7	0.00e+00	0	52	104	0	76	23815
2026-01-09 20:40:26.16	136.55	24.00	-52.5	-56.7	3.7	0.00e+00	0	52	104	0	76	23553
2026-01-09 20:40:27.02	136.85	23.88	-52.3	-56.6	3.7	0.00e+00	0	52	104	0	76	23318
2026-01-09 20:40:28.16	137.25	23.72	-52.2	-56.7	3.7	0.00e+00	0	52	104	0	76	23600
2026-01-09 20:40:29.29	137.63	23.56	-52.2	-56.7	3.7	0.00e+00	0	52	104	0	76	23533
2026-01-09 20:40:30.15	137.92	23.44	-52.4	-56.7	3.7	0.00e+00	0	52	104	0	76	23580
2026-01-09 20:40:31.70	138.44	23.22	-52.4	-56.8	3.7	0.00e+00	0	52	104	0	76	23831
2026-01-09 20:40:32.41	138.68	23.12	-52.4	-56.7	3.7	0.00e+00	0	52	104	0	76	23636
2026-01-09 20:40:33.70	139.10	22.93	-52.1	-56.5	3.7	0.00e+00	0	52	104	0	76	22998
2026-01-09 20:40:34.41	139.33	22.83	-52.2	-56.7	3.7	0.00e+00	0	52	104	0	76	23509
2026-01-09 20:40:35.70	139.74	22.65	-52.2	-56.7	3.7	0.00e+00	0	52	104	0	76	23670
2026-01-09 20:40:36.42	139.97	22.55	-52.2	-56.7	3.7	0.00e+00	0	52	104	0	76	23598
2026-01-09 20:40:37.71	140.38	22.37	-52.3	-56.7	3.7	0.00e+00	0	52	104	0	76	23591
2026-01-09 20:40:38.56	140.64	22.25	-52.3	-56.8	3.7	0.00e+00	0	52	104	0	76	23883
2026-01-09 20:40:39.70	140.99	22.09	-52.4	-56.9	3.7	0.00e+00	0	52	104	0	76	24070
2026-01-09 20:40:40.80	141.33	21.93	-52.4	-57.0	3.7	0.00e+00	0	52	104	0	76	24281
2026-01-09 20:40:41.82	141.64	21.79	-52.3	-56.8	3.7	0.00e+00	0	52	104	0	76	23817
2026-01-09 20:40:42.96	141.98	21.63	-52.4	-56.9	3.7	0.00e+00	0	52	104	0	76	24097
2026-01-09 20:40:43.82	142.23	21.51	-52.3	-56.9	3.7	0.00e+00	0	52	104	0	76	24142
2026-01-09 20:40:44.97	142.57	21.35	-52.4	-56.9	3.7	0.00e+00	0	52	104	0	76	24115
2026-01-09 20:40:45.83	142.82	21.23	-52.0	-56.8	3.7	0.00e+00	0	52	104	0	76	23735
2026-01-09 20:40:46.97	143.14	21.07	-52.0	-56.6	3.7	0.00e+00	0	52	104	0	75	24742
2026-01-09 20:40:47.83	143.39	20.95	-51.7	-56.7	3.7	0.00e+00	0	52	104	0	75	24879
2026-01-09 20:40:48.98	143.71	20.79	-51.8	-56.7	3.7	0.00e+00	0	52	104	0	75	24820
2026-01-09 20:40:49.84	143.95	20.67	-51.3	-56.4	3.7	0.00e+00	0	52	104	0	74	25432
2026-01-09 20:40:50.98	144.26	20.52	-51.4	-56.3	3.7	0.00e+00	0	52	104	0	74	25345
2026-01-09 20:40:51.85	144.50	20.40	-51.7	-56.6	3.7	0.00e+00	0	52	104	0	74	26169
2026-01-09 20:40:53.02	144.81	20.24	-51.4	-56.3	3.7	0.00e+00	0	52	104	0	74	25381
2026-01-09 20:40:53.88	145.04	20.12	-51.9	-56.6	3.7	0.00e+00	0	52	104	0	74	26244
2026-01-09 20:40:55.09	145.36	19.96	-52.0	-56.5	3.7	0.00e+00	0	52	104	0	74	25849
2026-01-09 20:40:55.95	145.59	19.84	-52.4	-56.9	3.7	0.00e+00	0	52	104	0	75	25615
2026-01-09 20:40:57.10	145.89	19.69	-52.1	-56.7	3.7	0.00e+00	0	52	104	0	75	24865
2026-01-09 20:40:57.96	146.11	19.57	-52.4	-57.0	3.7	0.00e+00	0	52	104	0	75	25798
2026-01-09 20:40:59.11	146.40	19.42	-52.2	-56.6	3.7	0.00e+00	0	52	104	0	75	24671
2026-01-09 20:40:59.96	146.61	19.30	-52.2	-56.7	3.7	0.00e+00	0	52	104	0	75	24960
2026-01-09 20:41:01.10	146.89	19.15	-52.3	-56.8	3.7	0.00e+00	0	52	104	0	75	25324
2026-01-09 20:41:02.11	147.14	19.02	-52.1	-56.6	3.7	0.00e+00	0	52	104	0	75	24729
2026-01-09 20:41:03.29	147.43	18.86	-52.1	-56.7	3.7	0.00e+00	0	52	104	0	75	24839
2026-01-09 20:41:04.15	147.64	18.75	-51.9	-56.5	3.7	0.00e+00	0	52	104	0	75	24476
2026-01-09 20:41:05.50	147.96	18.57	-52.0	-56.6	3.7	0.00e+00	0	52	104	0	75	24525
2026-01-09 20:41:06.22	148.13	18.47	-51.6	-56.3	3.7	0.00e+00	0	52	104	0	75	23750
2026-01-09 20:41:07.51	148.43	18.31	-51.8	-56.4	3.7	0.00e+00	0	52	104	0	74	25650
2026-01-09 20:41:08.23	148.60	18.21	-52.1	-56.7	3.7	0.00e+00	0	52	104	0	75	24894
2026-01-09 20:41:09.52	148.89	18.05	-51.8	-56.4	3.7	0.00e+00	0	52	104	0	74	25582
2026-01-09 20:41:10.28	149.06	17.95	-51.9	-56.5	3.7	0.00e+00	0	52	104	0	74	25794
2026-01-09 20:41:11.57	149.35	17.78	-52.1	-56.5	3.7	0.00e+00	0	52	104	0	74	25904
2026-01-09 20:41:12.30	149.52	17.69	-52.3	-56.7	3.7	0.00e+00	0	52	104	0	75	25091
2026-01-09 20:41:13.59	149.80	17.52	-52.1	-56.6	3.7	0.00e+00	0	52	104	0	75	24799
2026-01-09 20:41:14.31	149.96	17.43	-52.0	-56.6	3.7	0.00e+00	0	52	104	0	75	24591
2026-01-09 20:41:15.60	150.24	17.27	-51.6	-56.3	3.7	0.00e+00	0	52	104	0	75	23699
2026-01-09 20:41:16.31	150.39	17.18	-51.3	-56.0	3.7	0.00e+00	0	52	104	0	74	24523
2026-01-09 20:41:17.60	150.66	17.02	-51.7	-56.3	3.7	0.00e+00	0	52	104	0	74	25341
2026-01-09 20:41:18.32	150.81	16.93	-52.0	-56.5	3.7	0.00e+00	0	52	104	0	74	25945
2026-01-09 20:41:19.61	151.08	16.77	-52.0	-56.6	3.7	0.00e+00	0	52	104	0	74	26017
2026-01-09 20:41:20.33	151.23	16.68	-52.0	-56.6	3.7	0.00e+00	0	52	104	0	74	26003
2026-01-09 20:41:21.62	151.49	16.52	-51.6	-56.4	3.7	0.00e+00	0	52	104	0	74	25493
2026-01-09 20:41:22.72	151.71	16.38	-51.5	-56.2	3.7	0.00e+00	0	52	104	0	74	24892
2026-01-09 20:41:23.58	151.89	16.28	-51.3	-56.1	3.7	0.00e+00	0	52	104	0	74	24615
2026-01-09 20:41:24.72	152.11	16.14	-51.0	-55.8	3.7	0.00e+00	0	52	104	0	74	23765
2026-01-09 20:41:25.58	152.28	16.03	-50.9	-55.7	3.7	0.00e+00	0	52	104	0	73	24930
2026-01-09 20:41:26.73	152.50	15.90	-50.9	-55.7	3.7	0.00e+00	0	52	104	0	73	25006
2026-01-09 20:41:27.59	152.67	15.79	-51.1	-55.9	3.7	0.00e+00	0	52	104	0	73	25448
2026-01-09 20:41:28.73	152.89	15.66	-51.5	-56.2	3.7	0.00e+00	0	52	104	0	73	26317
2026-01-09 20:41:29.59	153.05	15.55	-51.5	-56.2	3.7	0.00e+00	0	52	104	0	73	26504
2026-01-09 20:41:30.93	153.30	15.39	-51.0	-56.0	3.7	0.00e+00	0	52	104	0	73	25869
2026-01-09 20:41:31.65	153.43	15.31	-50.9	-56.0	3.7	0.00e+00	0	52	104	0	73	25850
2026-01-09 20:41:32.93	153.67	15.16	-50.9	-55.8	3.7	0.00e+00	0	52	104	0	73	25288
2026-01-09 20:41:33.65	153.80	15.07	-51.2	-56.1	3.7	0.00e+00	0	52	104	0	73	25996
2026-01-09 20:41:34.94	154.03	14.92	-51.0	-56.0	3.7	0.00e+00	0	52	104	0	73	25839
2026-01-09 20:41:35.66	154.16	14.84	-51.3	-56.3	3.7	0.00e+00	0	52	104	0	73	26591
2026-01-09 20:41:37.28	154.45	14.65	-51.3	-56.1	3.7	0.00e+00	0	52	104	0	73	26181
2026-01-09 20:41:37.85	154.55	14.59	-50.6	-55.6	3.7	0.00e+00	0	52	104	0	73	24671
2026-01-09 20:41:39.45	154.82	14.40	-51.0	-55.9	3.7	0.00e+00	0	52	104	0	73	25393
2026-01-09 20:41:40.02	154.92	14.34	-50.7	-55.6	3.7	0.00e+00	0	52	104	0	73	24560
2026-01-09 20:41:41.61	155.19	14.16	-51.1	-55.8	3.7	0.00e+00	0	52	104	0	73	25334
2026-01-09 20:41:42.18	155.29	14.09	-51.2	-56.0	3.7	0.00e+00	0	52	104	0	73	25801
2026-01-09 20:41:43.82	155.56	13.91	-51.7	-56.3	3.7	0.00e+00	0	52	104	0	73	26763
2026-01-09 20:41:44.40	155.66	13.84	-51.7	-56.4	3.7	0.00e+00	0	52	104	0	74	25516
2026-01-09 20:41:45.99	155.92	13.67	-51.4	-56.1	3.7	0.00e+00	0	52	104	0	74	24589
2026-01-09 20:41:46.56	156.01	13.60	-51.5	-56.1	3.7	0.00e+00	0	52	104	0	74	24805
2026-01-09 20:41:48.14	156.26	13.43	-51.8	-56.4	3.7	0.00e+00	0	52	104	0	74	25568
2026-01-09 20:41:48.73	156.36	13.37	-51.4	-56.0	3.7	0.00e+00	0	52	104	0	74	24519
2026-01-09 20:41:50.48	156.63	13.18	-51.6	-56.3	3.7	0.00e+00	0	52	104	0	74	25307
2026-01-09 20:41:51.06	156.72	13.11	-51.9	-56.5	3.7	0.00e+00	0	52	104	0	74	25867
2026-01-09 20:41:52.65	156.97	12.94	-51.5	-56.2	3.7	0.00e+00	0	52	104	0	74	25046
2026-01-09 20:41:53.22	157.05	12.88	-51.9	-56.5	3.7	0.00e+00	0	52	104	0	74	25831
2026-01-09 20:41:54.82	157.30	12.71	-52.0	-56.6	3.7	0.00e+00	0	52	104	0	75	24526
2026-01-09 20:41:55.40	157.38	12.65	-52.0	-56.6	3.6	0.00e+00	0	52	104	0	75	24592
2026-01-09 20:41:56.98	157.62	12.48	-51.7	-56.5	3.7	0.00e+00	0	52	104	0	75	24243
2026-01-09 20:41:57.58	157.71	12.42	-51.9	-56.5	3.7	0.00e+00	0	52	104	0	75	24408
2026-01-09 20:41:59.16	157.94	12.25	-51.8	-56.2	3.7	0.00e+00	0	52	104	0	75	23497
2026-01-09 20:41:59.95	158.05	12.17	-51.9	-56.4	3.7	0.00e+00	0	52	104	0	75	24225
2026-01-09 20:42:01.11	158.22	12.05	-51.8	-56.3	3.7	0.00e+00	0	52	104	0	75	23860
2026-01-09 20:42:01.97	158.34	11.96	-51.9	-56.3	3.7	0.00e+00	0	52	104	0	75	23930
2026-01-09 20:42:03.12	158.50	11.84	-51.6	-55.9	3.7	0.00e+00	0	52	104	0	75	22833
2026-01-09 20:42:04.34	158.67	11.71	-51.8	-56.1	3.7	0.00e+00	0	52	104	0	75	23295
2026-01-09 20:42:05.21	158.79	11.62	-51.5	-55.9	3.7	0.00e+00	0	52	104	0	75	22857
2026-01-09 20:42:06.35	158.95	11.51	-51.5	-56.1	3.7	0.00e+00	0	52	104	0	74	24613
2026-01-09 20:42:07.21	159.07	11.42	-51.8	-56.2	3.7	0.00e+00	0	52	104	0	74	25042
2026-01-09 20:42:08.36	159.22	11.31	-51.5	-55.9	3.7	0.00e+00	0	52	104	0	74	24009
2026-01-09 20:42:09.22	159.34	11.22	-51.7	-56.2	3.7	0.00e+00	0	52	104	0	74	24845
2026-01-09 20:42:10.37	159.49	11.10	-51.6	-56.3	3.7	0.00e+00	0	52	104	0	74	25112
2026-01-09 20:42:11.23	159.60	11.02	-51.6	-56.2	3.7	0.00e+00	0	52	104	0	74	25028
2026-01-09 20:42:12.37	159.75	10.91	-51.8	-56.3	3.7	0.00e+00	0	52	104	0	74	25175
2026-01-09 20:42:13.23	159.86	10.82	-51.3	-55.9	3.7	0.00e+00	0	52	104	0	74	24186
2026-01-09 20:42:14.38	160.01	10.71	-51.1	-55.8	3.7	0.00e+00	0	52	104	0	74	23870
2026-01-09 20:42:15.24	160.12	10.62	-51.2	-55.9	3.7	0.00e+00	0	52	104	0	74	24192
2026-01-09 20:42:16.39	160.27	10.51	-51.0	-55.8	3.7	0.00e+00	0	52	104	0	74	23796
2026-01-09 20:42:17.25	160.37	10.43	-51.2	-55.9	3.7	0.00e+00	0	52	104	0	73	25661
2026-01-09 20:42:18.39	160.52	10.32	-51.3	-56.0	3.7	0.00e+00	0	52	104	0	73	25800
2026-01-09 20:42:19.40	160.64	10.22	-51.5	-56.1	3.7	0.00e+00	0	52	104	0	73	26249
2026-01-09 20:42:20.55	160.78	10.11	-51.3	-56.1	3.7	0.00e+00	0	52	104	0	73	26049
2026-01-09 20:42:21.40	160.88	10.03	-51.5	-56.2	3.7	0.00e+00	0	52	104	0	73	26360
2026-01-09 20:42:22.55	161.02	9.92	-51.5	-56.1	3.7	0.00e+00	0	52	104	0	73	26142
2026-01-09 20:42:23.42	161.13	9.84	-51.5	-56.0	3.7	0.00e+00	0	52	104	0	73	25858
2026-01-09 20:42:24.56	161.26	9.73	-51.5	-56.2	3.7	0.00e+00	0	52	104	0	73	26431
2026-01-09 20:42:25.42	161.36	9.65	-51.5	-56.0	3.7	0.00e+00	0	52	104	0	73	25887
2026-01-09 20:42:26.56	161.50	9.54	-51.5	-56.1	3.7	0.00e+00	0	52	104	0	73	26064
2026-01-09 20:42:27.42	161.60	9.46	-51.3	-55.9	3.7	0.00e+00	0	52	104	0	73	25665
2026-01-09 20:42:28.57	161.73	9.36	-51.3	-55.8	3.7	0.00e+00	0	52	104	0	73	25210
2026-01-09 20:42:29.43	161.83	9.28	-51.1	-55.7	3.7	0.00e+00	0	52	104	0	73	24849
2026-01-09 20:42:30.58	161.96	9.17	-50.9	-55.6	3.7	0.00e+00	0	52	104	0	73	24669
2026-01-09 20:42:31.44	162.05	9.09	-50.9	-55.6	3.7	0.00e+00	0	52	104	0	72	26080
2026-01-09 20:42:32.58	162.18	8.99	-51.5	-56.0	3.7	0.00e+00	0	52	104	0	73	25838
2026-01-09 20:42:33.44	162.28	8.91	-51.3	-55.8	3.6	0.00e+00	0	52	104	0	73	25357
2026-01-09 20:42:34.67	162.41	8.80	-51.9	-56.6	3.7	0.00e+00	0	52	104	0	74	25992
2026-01-09 20:42:35.53	162.50	8.72	-51.2	-56.2	3.7	0.00e+00	0	52	104	0	74	24874
2026-01-09 20:42:36.68	162.63	8.62	-51.8	-56.6	3.7	0.00e+00	0	52	104	0	74	26054
2026-01-09 20:42:37.54	162.72	8.54	-52.4	-57.0	3.7	0.00e+00	0	52	104	0	75	25902
2026-01-09 20:42:38.69	162.84	8.44	-52.4	-57.0	3.7	0.00e+00	0	52	104	0	75	25974
2026-01-09 20:42:39.55	162.93	8.37	-51.6	-56.4	3.7	0.00e+00	0	52	104	0	75	24110
2026-01-09 20:42:40.69	163.05	8.27	-52.3	-56.9	3.7	0.00e+00	0	52	104	0	75	25598
2026-01-09 20:42:41.56	163.15	8.19	-52.8	-57.3	3.7	0.00e+00	0	52	104	0	76	25249
2026-01-09 20:42:42.70	163.26	8.09	-52.8	-57.1	3.7	0.00e+00	0	52	104	0	76	24562
2026-01-09 20:42:43.56	163.35	8.02	-52.8	-57.3	3.7	0.00e+00	0	52	104	0	76	25220
2026-01-09 20:42:44.71	163.47	7.92	-52.8	-57.3	3.7	0.00e+00	0	52	104	0	76	25252
2026-01-09 20:42:45.57	163.56	7.84	-52.7	-57.2	3.7	0.00e+00	0	52	104	0	76	24921
2026-01-09 20:42:46.72	163.67	7.74	-52.4	-57.1	3.7	0.00e+00	0	52	104	0	76	24753
2026-01-09 20:42:47.58	163.76	7.67	-53.1	-57.5	3.7	0.00e+00	0	52	104	0	76	25948
2026-01-09 20:42:48.73	163.87	7.57	-52.6	-57.2	3.7	0.00e+00	0	52	104	0	76	24849
2026-01-09 20:42:49.59	163.96	7.50	-52.9	-57.4	3.7	0.00e+00	0	52	104	0	76	25393
2026-01-09 20:42:50.74	164.07	7.40	-53.0	-57.5	3.7	0.00e+00	0	52	104	0	76	25845
2026-01-09 20:42:51.60	164.15	7.33	-52.8	-57.3	3.7	0.00e+00	0	52	104	0	76	25275
2026-01-09 20:42:52.75	164.26	7.23	-52.9	-57.2	3.7	0.00e+00	0	52	104	0	76	24940
2026-01-09 20:42:53.61	164.34	7.16	-52.6	-56.9	3.7	0.00e+00	0	52	104	0	76	23998
2026-01-09 20:42:54.75	164.45	7.06	-52.5	-56.7	3.7	0.00e+00	0	52	104	0	76	23678
2026-01-09 20:42:55.62	164.54	6.99	-52.7	-57.0	3.7	0.00e+00	0	52	104	0	76	24400
2026-01-09 20:42:56.76	164.64	6.90	-52.9	-57.3	3.7	0.00e+00	0	52	104	0	76	25220
2026-01-09 20:42:57.62	164.72	6.83	-52.6	-57.2	3.7	0.00e+00	0	52	104	0	76	25046
2026-01-09 20:42:58.77	164.83	6.73	-52.1	-56.6	3.7	0.00e+00	0	52	104	0	75	24775
2026-01-09 20:42:59.63	164.91	6.66	-52.2	-56.7	3.7	0.00e+00	0	52	104	0	75	24847
2026-01-09 20:43:00.78	165.01	6.57	-52.2	-56.7	3.7	0.00e+00	0	52	104	0	75	24897
2026-01-09 20:43:01.64	165.09	6.50	-52.2	-56.6	3.7	0.00e+00	0	52	104	0	75	24746
2026-01-09 20:43:02.79	165.19	6.40	-52.2	-56.6	3.7	0.00e+00	0	52	104	0	75	24750
2026-01-09 20:43:03.65	165.27	6.33	-52.2	-56.6	3.7	0.00e+00	0	52	104	0	75	24742
2026-01-09 20:43:04.80	165.37	6.24	-52.2	-56.7	3.7	0.00e+00	0	52	104	0	75	24825
2026-01-09 20:43:05.66	165.45	6.17	-52.2	-56.6	3.7	0.00e+00	0	52	104	0	75	24774
2026-01-09 20:43:06.81	165.55	6.08	-52.2	-56.7	3.7	0.00e+00	0	52	104	0	75	24815
2026-01-09 20:43:07.67	165.62	6.01	-52.2	-56.6	3.7	0.00e+00	0	52	104	0	75	24710
2026-01-09 20:43:08.82	165.72	5.92	-52.2	-56.6	3.7	0.00e+00	0	52	104	0	75	24771
2026-01-09 20:43:09.68	165.80	5.85	-52.2	-56.6	3.7	0.00e+00	0	52	104	0	75	24804
2026-01-09 20:43:10.83	165.89	5.76	-52.2	-56.6	3.7	0.00e+00	0	52	104	0	75	24714
2026-01-09 20:43:11.69	165.97	5.69	-52.2	-56.6	3.7	0.00e+00	0	52	104	0	75	24672
2026-01-09 20:43:12.83	166.06	5.61	-52.2	-56.6	3.7	0.00e+00	0	52	104	0	75	24646
2026-01-09 20:43:13.69	166.13	5.54	-52.2	-56.6	3.7	0.00e+00	0	52	104	0	75	24643
2026-01-09 20:43:14.84	166.23	5.45	-52.2	-56.6	3.7	0.00e+00	0	52	104	0	75	24784
2026-01-09 20:43:15.70	166.30	5.38	-52.2	-56.6	3.7	0.00e+00	0	52	104	0	75	24709
2026-01-09 20:43:16.85	166.39	5.29	-52.2	-56.6	3.7	0.00e+00	0	52	104	0	75	24680
2026-01-09 20:43:17.71	166.46	5.23	-52.2	-56.6	3.7	0.00e+00	0	52	104	0	75	24685
2026-01-09 20:43:18.86	166.56	5.14	-52.2	-56.6	3.7	0.00e+00	0	52	104	0	75	24698
2026-01-09 20:43:19.72	166.63	5.07	-52.2	-56.6	3.7	0.00e+00	0	52	104	0	75	24646
2026-01-09 20:43:20.87	166.72	4.99	-52.2	-56.6	3.7	0.00e+00	0	52	104	0	75	24785

#Closed at: 2026-01-09 20:43:21
#Recorded file [0 MB]: D:/Data/31040_260109_233445.dat