passes_logs/2026/01/09/T1/T1__20260109_140421_FENGYUN_3E_rec.log

#Pass ID: 20260109_140421_FENGYUN 3E
#Satellite: FENGYUN 3E
#Configuration: FENGYUN 3E
#almurnet v.1.7.20251203
#Start time: 2026-01-09 14:04:21

#Version: 2.0.20230620
#Station: T1
#Location: 37.570604 lon 55.790049 lat
#TLE: 1 49008U 21062A   26008.59312205 -.00000223  00000+0 -84486-4 0  9997
#TLE: 2 49008  98.7483  13.7961 0001692 149.3118 210.8157 14.19883502233939

#Time	Az	El	Level	Level2	SNR	BER	BlckErr	Temp	State	Recorded	gain1	gain2
2026-01-09 14:04:21.49	156.04	5.00	-48.8	-59.6	3.8	8.47e-01	0	39	0	0	67	12814
2026-01-09 14:04:22.48	156.03	5.07	-48.8	-59.1	3.8	8.47e-01	0	39	104	0	68	11455
2026-01-09 14:04:23.49	156.02	5.14	-48.8	-58.9	3.8	8.48e-01	0	39	104	0	68	11205
2026-01-09 14:04:24.49	156.02	5.21	-48.8	-58.9	3.8	8.46e-01	0	39	104	0	68	11224
2026-01-09 14:04:25.50	156.01	5.29	-48.8	-58.9	3.8	8.47e-01	0	39	104	0	68	11246
2026-01-09 14:04:26.50	156.01	5.36	-48.8	-58.9	3.8	8.47e-01	0	39	104	0	68	11260
2026-01-09 14:04:27.51	156.00	5.43	-48.8	-59.1	3.8	8.47e-01	0	40	104	0	68	11458
2026-01-09 14:04:28.51	155.99	5.51	-48.8	-59.3	3.8	8.47e-01	0	40	104	0	68	11738
2026-01-09 14:04:29.51	155.99	5.58	-48.9	-59.5	3.8	8.47e-01	0	39	104	0	68	12049
2026-01-09 14:04:30.52	155.98	5.65	-48.9	-59.7	3.8	8.46e-01	0	40	104	0	68	12269
2026-01-09 14:04:31.52	155.98	5.73	-48.9	-59.8	3.8	8.47e-01	0	40	104	0	68	12383
2026-01-09 14:04:32.53	155.97	5.80	-48.9	-59.7	3.8	8.46e-01	0	40	104	0	68	12269
2026-01-09 14:04:33.53	155.96	5.87	-48.9	-59.6	3.8	8.47e-01	0	40	104	0	68	12182
2026-01-09 14:04:34.53	155.96	5.95	-48.9	-59.4	3.8	8.47e-01	0	40	104	0	68	11940
2026-01-09 14:04:35.54	155.95	6.02	-48.9	-59.2	3.8	8.47e-01	0	40	104	0	68	11568
2026-01-09 14:04:36.55	155.94	6.10	-48.8	-59.0	3.8	8.47e-01	0	40	104	0	68	11289
2026-01-09 14:04:37.55	155.94	6.17	-48.8	-58.7	3.8	8.46e-01	0	40	104	0	68	10991
2026-01-09 14:04:38.55	155.93	6.25	-48.8	-58.5	3.8	8.46e-01	0	40	104	0	68	10701
2026-01-09 14:04:39.56	155.93	6.33	-48.7	-58.2	3.8	8.46e-01	0	40	104	0	68	10351
2026-01-09 14:04:40.56	155.92	6.40	-48.7	-58.0	3.8	8.48e-01	0	40	104	0	68	10168
2026-01-09 14:04:41.57	155.91	6.48	-48.6	-57.7	3.9	8.47e-01	0	40	104	0	68	9731
2026-01-09 14:04:42.57	155.91	6.55	-48.4	-57.2	4.0	8.46e-01	0	40	104	0	67	9739
2026-01-09 14:04:43.57	155.90	6.63	-48.3	-56.7	4.0	8.41e-01	0	40	0	0	67	9184
2026-01-09 14:04:44.58	155.89	6.71	-48.2	-55.9	4.2	8.37e-01	0	40	0	0	67	8411
2026-01-09 14:04:45.58	155.88	6.78	-48.1	-55.4	4.4	8.29e-01	0	40	0	0	66	8399
2026-01-09 14:04:46.59	155.88	6.86	-47.8	-54.5	4.8	8.02e-01	0	40	0	0	66	7607
2026-01-09 14:04:47.59	155.87	6.94	-47.6	-53.6	5.3	7.50e-01	0	40	0	0	66	6858
2026-01-09 14:04:48.60	155.86	7.02	-47.3	-52.9	5.8	5.93e-01	0	40	0	1048576	65	6658
2026-01-09 14:04:49.60	155.86	7.09	-47.0	-52.1	6.4	2.87e-01	0	40	0	8388608	64	6426
2026-01-09 14:04:50.60	155.85	7.17	-46.7	-51.4	7.0	1.51e-01	0	41	0	15728640	64	5950
2026-01-09 14:04:51.61	155.84	7.25	-46.3	-50.5	8.0	7.76e-02	0	41	0	23068672	63	5684
2026-01-09 14:04:52.61	155.84	7.33	-45.8	-49.5	8.9	3.73e-02	0	41	0	30408704	62	5366
2026-01-09 14:04:53.62	155.83	7.41	-45.4	-48.8	9.6	1.50e-02	0	40	0	37748736	61	5267
2026-01-09 14:04:54.62	155.82	7.49	-44.9	-48.1	10.4	5.34e-03	0	41	0	44040192	60	5115
2026-01-09 14:04:55.63	155.81	7.57	-44.4	-47.1	11.3	1.30e-03	0	40	0	51380224	59	4857
2026-01-09 14:04:56.63	155.81	7.65	-43.9	-46.4	12.0	3.39e-04	0	41	0	58720256	58	4741
2026-01-09 14:04:57.64	155.80	7.73	-43.3	-45.7	12.7	1.11e-04	0	41	0	66060288	57	4635
2026-01-09 14:04:58.64	155.79	7.81	-42.9	-45.1	13.3	1.02e-05	0	41	0	73400320	56	4595
2026-01-09 14:04:59.64	155.78	7.89	-42.2	-44.3	14.0	1.10e-06	0	41	0	80740352	55	4441
2026-01-09 14:05:00.65	155.78	7.97	-41.9	-44.0	14.3	3.40e-06	0	41	0	88080384	54	4501
2026-01-09 14:05:01.65	155.77	8.05	-41.7	-43.7	14.7	1.10e-06	0	41	0	95420416	54	4347
2026-01-09 14:05:02.66	155.76	8.13	-41.5	-43.5	14.8	1.51e-03	0	41	0	102760448	53	4507
2026-01-09 14:05:03.66	155.75	8.21	-41.5	-43.5	14.8	0.00e+00	0	41	0	110100480	53	4516
2026-01-09 14:05:04.66	155.74	8.29	-41.6	-43.6	14.7	0.00e+00	0	41	0	117440512	53	4587
2026-01-09 14:05:05.67	155.74	8.38	-41.9	-43.9	14.4	0.00e+00	0	41	0	124780544	53	4746
2026-01-09 14:05:06.67	155.73	8.46	-42.2	-44.4	13.9	0.00e+00	0	41	0	131072000	53	4991
2026-01-09 14:05:07.68	155.72	8.54	-42.7	-45.0	13.3	1.02e-05	0	41	0	138412032	55	4768
2026-01-09 14:05:08.68	155.71	8.62	-43.7	-46.2	12.3	7.89e-05	0	41	0	145752064	56	5183
2026-01-09 14:05:09.69	155.70	8.71	-44.4	-47.2	11.3	5.49e-04	0	41	0	153092096	58	5165
2026-01-09 14:05:10.69	155.70	8.79	-45.5	-48.9	9.5	7.32e-03	0	41	0	160432128	60	5631
2026-01-09 14:05:11.69	155.69	8.87	-46.4	-50.4	8.0	4.80e-02	0	41	0	167772160	62	5988
2026-01-09 14:05:12.70	155.68	8.96	-47.2	-52.3	6.3	2.03e-01	0	41	0	175112192	63	6975
2026-01-09 14:05:13.70	155.67	9.04	-47.9	-54.6	4.8	7.36e-01	0	41	0	179306496	65	8106
2026-01-09 14:05:14.71	155.66	9.13	-47.1	-52.1	6.3	6.28e-01	0	41	0	180355072	65	6127
2026-01-09 14:05:15.71	155.65	9.21	-44.2	-46.8	11.7	2.22e-02	0	41	0	187695104	59	4653
2026-01-09 14:05:16.71	155.64	9.30	-48.7	-59.1	3.8	8.17e-01	0	41	104	192937984	66	12812
2026-01-09 14:05:17.72	155.64	9.38	-46.8	-51.3	7.0	8.44e-01	0	41	104	192937984	64	5914
2026-01-09 14:05:18.72	155.63	9.47	-41.9	-43.9	14.5	1.70e-03	0	41	0	198180864	54	4490
2026-01-09 14:05:19.72	155.62	9.55	-40.7	-42.6	15.5	0.00e+00	0	41	0	205520896	52	4297
2026-01-09 14:05:20.72	155.61	9.64	-40.6	-42.3	16.1	0.00e+00	0	41	0	212860928	51	4430
2026-01-09 14:05:21.73	155.60	9.73	-40.3	-42.1	16.4	0.00e+00	0	41	0	220200960	51	4298
2026-01-09 14:05:22.78	155.59	9.82	-40.2	-42.0	16.4	0.00e+00	0	41	0	227540992	51	4262
2026-01-09 14:05:23.65	155.58	9.89	-39.4	-41.1	17.3	0.00e+00	0	41	0	233832448	49	4314
2026-01-09 14:05:25.01	155.57	10.01	-39.3	-40.9	17.5	0.00e+00	0	41	0	244318208	49	4214
2026-01-09 14:05:25.73	155.56	10.07	-39.0	-40.6	17.8	0.00e+00	0	41	0	248512512	48	4301
2026-01-09 14:05:27.02	155.55	10.19	-38.9	-40.5	17.8	0.00e+00	0	41	0	257949696	48	4268
2026-01-09 14:05:27.74	155.55	10.25	-38.9	-40.5	17.9	0.00e+00	0	41	0	263192576	48	4243
2026-01-09 14:05:29.03	155.53	10.36	-38.8	-40.4	17.9	0.00e+00	0	41	0	272629760	48	4224
2026-01-09 14:05:29.74	155.53	10.43	-38.3	-39.9	18.3	0.00e+00	0	41	0	277872640	47	4204
2026-01-09 14:05:31.03	155.51	10.54	-38.3	-39.9	18.2	0.00e+00	0	41	0	287309824	47	4210
2026-01-09 14:05:31.75	155.51	10.61	-38.1	-39.7	18.4	0.00e+00	0	41	0	292552704	47	4122
2026-01-09 14:05:33.04	155.49	10.72	-38.2	-39.8	18.4	0.00e+00	0	41	0	301989888	47	4147
2026-01-09 14:05:33.76	155.49	10.79	-38.2	-39.8	18.3	0.00e+00	0	42	0	307232768	47	4178
2026-01-09 14:05:35.05	155.48	10.90	-38.1	-39.6	18.4	0.00e+00	0	41	0	316669952	47	4097
2026-01-09 14:05:35.76	155.47	10.97	-38.2	-39.7	18.4	0.00e+00	0	41	0	321912832	47	4129
2026-01-09 14:05:37.13	155.45	11.09	-38.1	-39.7	18.4	0.00e+00	0	41	0	331350016	46	4366
2026-01-09 14:05:37.85	155.45	11.16	-38.2	-39.8	18.3	0.00e+00	0	41	0	336592896	46	4423
2026-01-09 14:05:39.14	155.43	11.28	-38.2	-39.7	18.4	0.00e+00	0	41	0	346030080	46	4383
2026-01-09 14:05:39.85	155.43	11.34	-38.1	-39.7	17.2	0.00e+00	0	41	0	351272960	46	4357
2026-01-09 14:05:41.27	155.41	11.47	-38.1	-39.6	18.5	0.00e+00	0	42	0	361758720	46	4337
2026-01-09 14:05:41.99	155.40	11.54	-38.1	-39.7	18.4	0.00e+00	0	42	0	367001600	46	4375
2026-01-09 14:05:43.28	155.39	11.66	-38.1	-39.6	18.5	0.00e+00	0	41	0	375390208	46	4335
2026-01-09 14:05:43.99	155.38	11.73	-38.2	-39.7	18.5	0.00e+00	0	42	0	380633088	46	4382
2026-01-09 14:05:45.28	155.37	11.85	-38.1	-39.7	18.5	0.00e+00	0	41	0	390070272	46	4360
2026-01-09 14:05:46.00	155.36	11.91	-38.1	-39.7	18.4	0.00e+00	0	41	0	395313152	46	4366
2026-01-09 14:05:47.29	155.35	12.04	-38.2	-39.7	18.4	0.00e+00	0	42	0	404750336	46	4386
2026-01-09 14:05:48.01	155.34	12.11	-38.0	-39.5	18.6	0.00e+00	0	42	0	409993216	46	4277
2026-01-09 14:05:49.30	155.33	12.23	-38.1	-39.6	18.5	0.00e+00	0	42	0	419430400	46	4338
2026-01-09 14:05:50.01	155.32	12.30	-38.2	-39.7	18.4	0.00e+00	0	42	0	424673280	46	4389
2026-01-09 14:05:51.30	155.30	12.42	-38.1	-39.7	18.5	0.00e+00	0	41	0	434110464	46	4369
2026-01-09 14:05:52.02	155.29	12.49	-38.1	-39.7	18.5	0.00e+00	0	42	0	439353344	46	4350
2026-01-09 14:05:53.31	155.28	12.61	-38.0	-39.6	18.6	0.00e+00	0	42	0	447741952	46	4305
2026-01-09 14:05:54.17	155.27	12.70	-38.0	-39.5	18.6	0.00e+00	0	42	0	454033408	46	4285
2026-01-09 14:05:55.63	155.25	12.84	-38.1	-39.7	18.5	0.00e+00	0	42	0	464519168	46	4371
2026-01-09 14:05:56.35	155.24	12.91	-38.0	-39.6	18.6	0.00e+00	0	42	0	469762048	46	4324
2026-01-09 14:05:57.64	155.23	13.04	-37.8	-39.4	18.7	0.00e+00	0	42	0	479199232	46	4229
2026-01-09 14:05:58.36	155.22	13.11	-37.9	-39.5	18.7	0.00e+00	0	42	0	484442112	46	4243
2026-01-09 14:05:59.65	155.21	13.24	-37.8	-39.4	18.8	0.00e+00	0	42	0	493879296	46	4198
2026-01-09 14:06:00.48	155.20	13.32	-37.8	-39.4	18.8	0.00e+00	0	42	0	500170752	46	4225
2026-01-09 14:06:01.62	155.18	13.44	-37.6	-39.2	19.0	0.00e+00	0	42	0	508559360	46	4106
2026-01-09 14:06:02.49	155.17	13.52	-37.7	-39.3	18.9	0.00e+00	0	41	0	513802240	46	4147
2026-01-09 14:06:03.63	155.16	13.64	-37.8	-39.3	18.8	0.00e+00	0	42	0	522190848	46	4180
2026-01-09 14:06:04.49	155.15	13.73	-37.7	-39.2	18.9	0.00e+00	0	42	0	529530880	46	4128
2026-01-09 14:06:05.64	155.13	13.84	-37.8	-39.3	18.8	0.00e+00	0	42	0	536870912	46	4182
2026-01-09 14:06:06.50	155.12	13.93	-37.6	-39.1	19.0	0.00e+00	0	42	0	543162368	46	4087
2026-01-09 14:06:07.65	155.11	14.05	-37.7	-39.3	18.9	0.00e+00	0	42	0	551550976	45	4392
2026-01-09 14:06:08.51	155.09	14.14	-37.6	-39.1	19.0	0.00e+00	0	42	0	557842432	45	4333
2026-01-09 14:06:09.73	155.08	14.26	-37.7	-39.2	19.0	0.00e+00	0	42	0	566231040	45	4369
2026-01-09 14:06:10.59	155.07	14.35	-37.7	-39.2	18.9	0.00e+00	0	42	0	573571072	45	4389
2026-01-09 14:06:11.74	155.05	14.47	-37.6	-39.1	19.0	0.00e+00	0	42	0	580911104	45	4332
2026-01-09 14:06:12.61	155.04	14.56	-37.7	-39.2	18.9	0.00e+00	0	42	0	587202560	45	4383
2026-01-09 14:06:13.89	155.02	14.70	-37.6	-39.1	19.1	0.00e+00	0	42	0	596639744	45	4309
2026-01-09 14:06:14.61	155.01	14.78	-37.6	-39.1	19.1	0.00e+00	0	42	0	601882624	45	4325
2026-01-09 14:06:15.90	154.99	14.91	-37.6	-39.2	19.0	0.00e+00	0	42	0	611319808	45	4349
2026-01-09 14:06:16.62	154.98	14.99	-37.6	-39.1	19.1	0.00e+00	0	42	0	616562688	45	4311
2026-01-09 14:06:17.91	154.97	15.13	-37.6	-39.2	19.0	0.00e+00	0	42	0	625999872	45	4362
2026-01-09 14:06:18.62	154.96	15.21	-37.8	-39.4	18.8	0.00e+00	0	42	0	631242752	45	4467
2026-01-09 14:06:20.28	154.93	15.38	-37.6	-39.1	19.1	0.00e+00	0	42	0	642777088	45	4313
2026-01-09 14:06:21.12	154.92	15.48	-37.6	-39.2	19.0	0.00e+00	0	42	0	649068544	45	4352
2026-01-09 14:06:22.27	154.90	15.60	-37.5	-39.0	19.1	0.00e+00	0	42	0	657457152	45	4285
2026-01-09 14:06:23.13	154.89	15.70	-37.5	-39.0	19.2	0.00e+00	0	42	0	663748608	45	4257
2026-01-09 14:06:24.28	154.87	15.82	-37.4	-38.9	19.3	0.00e+00	0	42	0	672137216	45	4233
2026-01-09 14:06:25.14	154.86	15.92	-37.5	-39.0	19.2	0.00e+00	0	42	0	678428672	45	4248
2026-01-09 14:06:26.29	154.84	16.05	-37.4	-38.9	19.3	0.00e+00	0	42	0	685768704	45	4219
2026-01-09 14:06:27.15	154.83	16.14	-37.4	-38.9	19.3	0.00e+00	0	42	0	693108736	45	4195
2026-01-09 14:06:28.44	154.81	16.29	-37.4	-38.8	19.3	0.00e+00	0	42	0	701497344	45	4178
2026-01-09 14:06:29.15	154.80	16.37	-37.4	-38.9	19.3	0.00e+00	0	42	0	706740224	45	4206
2026-01-09 14:06:30.65	154.78	16.54	-37.3	-38.8	19.4	0.00e+00	0	42	0	718274560	45	4146
2026-01-09 14:06:31.37	154.77	16.62	-37.3	-38.8	19.4	0.00e+00	0	42	0	722468864	45	4174
2026-01-09 14:06:32.66	154.74	16.77	-37.2	-38.6	19.6	0.00e+00	0	42	0	731906048	45	4079
2026-01-09 14:06:33.70	154.73	16.89	-37.3	-38.7	19.5	0.00e+00	0	42	0	740294656	45	4126
2026-01-09 14:06:34.70	154.71	17.01	-37.0	-38.4	19.8	0.00e+00	0	42	0	746586112	44	4211
2026-01-09 14:06:35.70	154.70	17.12	-37.0	-38.5	19.8	0.00e+00	0	42	0	753926144	44	4244
2026-01-09 14:06:36.70	154.68	17.24	-36.9	-38.3	19.9	0.00e+00	0	42	0	761266176	44	4161
2026-01-09 14:06:37.71	154.66	17.36	-36.8	-38.2	20.0	0.00e+00	0	42	0	768606208	44	4131
2026-01-09 14:06:38.71	154.64	17.48	-36.9	-38.3	19.8	0.00e+00	0	42	0	775946240	44	4190
2026-01-09 14:06:39.75	154.63	17.60	-36.8	-38.2	20.0	0.00e+00	0	42	0	783286272	44	4104
2026-01-09 14:06:40.78	154.61	17.72	-36.8	-38.1	20.0	0.00e+00	0	42	0	790626304	44	4091
2026-01-09 14:06:41.78	154.59	17.84	-36.7	-38.0	20.1	0.00e+00	0	42	0	797966336	44	4035
2026-01-09 14:06:42.85	154.57	17.97	-36.4	-37.8	20.2	0.00e+00	0	42	0	806354944	43	4168
2026-01-09 14:06:43.74	154.56	18.08	-36.4	-37.7	20.3	0.00e+00	0	42	0	812646400	43	4123
2026-01-09 14:06:44.88	154.54	18.22	-36.4	-37.7	20.3	0.00e+00	0	42	0	819986432	43	4121
2026-01-09 14:06:45.74	154.52	18.32	-36.3	-37.6	20.4	0.00e+00	0	42	0	827326464	43	4072
2026-01-09 14:06:46.88	154.50	18.46	-36.2	-37.5	20.4	0.00e+00	0	42	0	834666496	43	4046
2026-01-09 14:06:47.75	154.49	18.57	-36.2	-37.5	20.4	0.00e+00	0	42	0	840957952	43	4051
2026-01-09 14:06:48.89	154.46	18.71	-36.3	-37.6	17.1	0.00e+00	0	42	0	849346560	43	4091
2026-01-09 14:06:49.75	154.45	18.82	-36.2	-37.5	20.5	0.00e+00	0	42	0	855638016	43	4013
2026-01-09 14:06:50.90	154.43	18.97	-36.2	-37.5	20.4	0.00e+00	0	42	0	864026624	43	4044
2026-01-09 14:06:51.76	154.41	19.07	-36.2	-37.5	19.7	0.00e+00	0	42	0	870318080	43	4049
2026-01-09 14:06:52.91	154.39	19.22	-36.3	-37.6	20.4	0.00e+00	0	42	0	878706688	43	4059
2026-01-09 14:06:53.77	154.37	19.33	-36.2	-37.5	20.5	0.00e+00	0	42	0	884998144	43	4034
2026-01-09 14:06:55.08	154.35	19.50	-36.2	-37.6	20.4	0.00e+00	0	42	0	894435328	43	4057
2026-01-09 14:06:55.79	154.33	19.59	-36.1	-37.4	20.5	0.00e+00	0	42	0	899678208	43	3987
2026-01-09 14:06:57.08	154.31	19.76	-36.0	-37.3	20.6	0.00e+00	0	42	0	908066816	42	4168
2026-01-09 14:06:57.80	154.29	19.85	-36.1	-37.4	20.6	0.00e+00	0	42	0	914358272	42	4200
2026-01-09 14:06:59.09	154.26	20.02	-36.0	-37.3	20.6	0.00e+00	0	42	0	922746880	42	4172
2026-01-09 14:06:59.80	154.25	20.11	-36.0	-37.4	20.6	0.00e+00	0	42	0	927989760	42	4195
2026-01-09 14:07:01.09	154.22	20.28	-36.1	-37.4	20.6	0.00e+00	0	42	0	937426944	42	4208
2026-01-09 14:07:01.81	154.21	20.38	-36.1	-37.4	20.6	0.00e+00	0	42	0	942669824	42	4210
2026-01-09 14:07:03.10	154.18	20.55	-36.0	-37.3	20.6	0.00e+00	0	42	0	952107008	42	4179
2026-01-09 14:07:03.82	154.17	20.65	-36.1	-37.4	20.5	0.00e+00	0	42	0	957349888	42	4232
2026-01-09 14:07:05.11	154.14	20.82	-36.0	-37.4	20.6	0.00e+00	0	42	0	966787072	42	4207
2026-01-09 14:07:05.82	154.12	20.92	-36.0	-37.3	20.7	0.00e+00	0	42	0	972029952	42	4160
2026-01-09 14:07:07.19	154.09	21.10	-36.2	-37.5	20.5	0.00e+00	0	42	0	981467136	42	4267
2026-01-09 14:07:07.91	154.08	21.20	-36.2	-37.6	20.4	0.00e+00	0	42	0	986710016	42	4307
2026-01-09 14:07:09.26	154.04	21.39	-36.1	-37.4	20.5	0.00e+00	0	42	0	996147200	42	4231
2026-01-09 14:07:09.98	154.03	21.49	-36.1	-37.5	20.5	0.00e+00	0	42	0	1001390080	42	4259
2026-01-09 14:07:11.27	154.00	21.67	-36.0	-37.3	20.6	0.00e+00	0	42	0	1010827264	42	4169
2026-01-09 14:07:11.98	153.98	21.77	-36.1	-37.5	20.4	0.00e+00	0	42	0	1016070144	42	4273
2026-01-09 14:07:13.27	153.95	21.95	-36.0	-37.3	20.6	0.00e+00	0	42	0	1025507328	42	4178
2026-01-09 14:07:13.99	153.93	22.05	-35.9	-37.3	20.6	0.00e+00	0	42	0	1030750208	42	4157
2026-01-09 14:07:15.28	153.90	22.24	-36.0	-37.4	20.6	0.00e+00	0	42	0	1040187392	42	4195
2026-01-09 14:07:16.00	153.89	22.34	-35.9	-37.3	20.6	0.00e+00	0	42	0	1045430272	42	4158
2026-01-09 14:07:17.29	153.85	22.53	-36.1	-37.5	20.4	0.00e+00	0	42	0	1054867456	42	4279
2026-01-09 14:07:18.05	153.84	22.64	-36.0	-37.3	20.6	0.00e+00	0	42	0	1060110336	42	4192
2026-01-09 14:07:19.66	153.80	22.87	-36.0	-37.4	20.6	0.00e+00	0	42	0	1071644672	42	4204
2026-01-09 14:07:20.24	153.78	22.96	-36.0	-37.4	20.5	0.00e+00	0	42	0	1075838976	42	4199
2026-01-09 14:07:22.04	153.74	23.22	-35.8	-37.2	20.7	0.00e+00	0	42	0	1088421888	42	4128
2026-01-09 14:07:22.61	153.72	23.31	-35.8	-37.2	20.7	0.00e+00	0	42	0	1092616192	42	4134
2026-01-09 14:07:24.23	153.68	23.55	-35.9	-37.3	20.6	0.00e+00	0	42	0	1104150528	42	4157
2026-01-09 14:07:24.80	153.66	23.64	-35.8	-37.2	20.6	0.00e+00	0	42	0	1108344832	42	4138
2026-01-09 14:07:26.43	153.62	23.89	-35.7	-37.1	20.7	0.00e+00	0	42	0	1119879168	42	4091
2026-01-09 14:07:27.00	153.60	23.97	-35.8	-37.2	20.6	0.00e+00	0	42	0	1125122048	42	4140
2026-01-09 14:07:28.62	153.56	24.22	-35.7	-37.1	20.7	0.00e+00	0	42	0	1136656384	42	4088
2026-01-09 14:07:29.32	153.54	24.33	-35.8	-37.2	20.7	0.00e+00	0	42	0	1140850688	42	4134
2026-01-09 14:07:30.61	153.50	24.53	-35.7	-37.1	20.8	0.00e+00	0	42	0	1150287872	42	4077
2026-01-09 14:07:31.33	153.48	24.65	-35.7	-37.1	20.8	0.00e+00	0	42	0	1155530752	42	4066
2026-01-09 14:07:32.62	153.45	24.85	-35.6	-37.0	20.9	0.00e+00	0	42	0	1164967936	41	4249
2026-01-09 14:07:33.61	153.42	25.01	-35.6	-37.0	20.8	0.00e+00	0	42	0	1172307968	41	4253
2026-01-09 14:07:34.95	153.38	25.22	-35.5	-36.9	20.9	0.00e+00	0	42	0	1181745152	41	4196
2026-01-09 14:07:35.68	153.35	25.34	-35.5	-36.9	20.9	0.00e+00	0	42	0	1186988032	41	4208
2026-01-09 14:07:37.29	153.31	25.60	-35.4	-36.8	21.0	0.00e+00	0	42	0	1198522368	41	4180
2026-01-09 14:07:38.13	153.28	25.74	-35.4	-36.8	21.1	0.00e+00	0	42	0	1204813824	41	4150
2026-01-09 14:07:39.28	153.24	25.92	-35.3	-36.7	21.1	0.00e+00	0	42	0	1213202432	41	4116
2026-01-09 14:07:40.14	153.22	26.07	-35.4	-36.8	21.0	0.00e+00	0	42	0	1219493888	41	4188
2026-01-09 14:07:41.32	153.18	26.26	-35.4	-36.7	21.1	0.00e+00	0	42	0	1227882496	41	4144
2026-01-09 14:07:42.18	153.15	26.41	-35.3	-36.7	21.2	0.00e+00	0	42	0	1234173952	41	4121
2026-01-09 14:07:43.39	153.11	26.61	-35.2	-36.6	21.2	0.00e+00	0	42	0	1242562560	41	4065
2026-01-09 14:07:44.25	153.08	26.76	-35.2	-36.6	21.2	0.00e+00	0	42	0	1248854016	41	4079
2026-01-09 14:07:45.40	153.05	26.95	-35.2	-36.7	21.1	0.00e+00	0	42	0	1257242624	41	4100
2026-01-09 14:07:46.26	153.02	27.10	-35.1	-36.5	21.3	0.00e+00	0	42	0	1263534080	41	4050
2026-01-09 14:07:47.41	152.98	27.30	-35.1	-36.5	21.3	0.00e+00	0	42	0	1271922688	41	4036
2026-01-09 14:07:48.27	152.95	27.45	-35.1	-36.5	21.3	0.00e+00	0	42	0	1278214144	41	4046
2026-01-09 14:07:49.61	152.90	27.68	-35.2	-36.6	21.2	0.00e+00	0	42	0	1287651328	41	4082
2026-01-09 14:07:50.32	152.88	27.81	-35.2	-36.6	21.2	0.00e+00	0	42	0	1292894208	41	4084
2026-01-09 14:07:51.61	152.83	28.04	-35.2	-36.6	21.2	0.00e+00	0	42	0	1302331392	41	4098
2026-01-09 14:07:52.33	152.80	28.16	-35.1	-36.6	21.2	0.00e+00	0	42	0	1307574272	41	4052
2026-01-09 14:07:53.61	152.76	28.39	-35.2	-36.7	21.2	0.00e+00	0	42	0	1317011456	41	4103
2026-01-09 14:07:54.33	152.73	28.52	-35.2	-36.6	21.2	0.00e+00	0	42	0	1321205760	41	4077
2026-01-09 14:07:55.62	152.68	28.76	-35.2	-36.6	21.2	0.00e+00	0	42	0	1330642944	41	4094
2026-01-09 14:07:56.34	152.65	28.89	-35.2	-36.6	21.3	0.00e+00	0	42	0	1336934400	41	4058
2026-01-09 14:07:57.63	152.61	29.13	-34.9	-36.2	21.6	0.00e+00	0	42	0	1345323008	40	4123
2026-01-09 14:07:58.35	152.58	29.26	-34.9	-36.2	21.6	0.00e+00	0	42	0	1350565888	40	4134
2026-01-09 14:07:59.64	152.53	29.50	-34.8	-36.2	21.6	0.00e+00	0	42	0	1360003072	40	4107
2026-01-09 14:08:00.35	152.50	29.64	-34.8	-36.1	21.7	0.00e+00	0	42	0	1365245952	40	4081
2026-01-09 14:08:01.74	152.44	29.90	-34.8	-36.1	21.7	0.00e+00	0	42	0	1375731712	40	4090
2026-01-09 14:08:02.45	152.41	30.03	-34.8	-36.1	21.7	0.00e+00	0	42	0	1380974592	40	4067
2026-01-09 14:08:03.75	152.36	30.28	-34.8	-36.1	21.7	0.00e+00	0	42	0	1390411776	40	4095
2026-01-09 14:08:04.46	152.33	30.42	-34.9	-36.2	21.6	0.00e+00	0	42	0	1394606080	40	4142
2026-01-09 14:08:05.75	152.27	30.67	-35.0	-36.3	21.5	0.00e+00	0	42	0	1404043264	40	4189
2026-01-09 14:08:06.47	152.24	30.81	-34.9	-36.2	21.6	0.00e+00	0	42	0	1409286144	40	4130
2026-01-09 14:08:07.76	152.19	31.07	-34.9	-36.2	21.6	0.00e+00	0	42	0	1418723328	40	4112
2026-01-09 14:08:08.47	152.15	31.21	-35.0	-36.3	21.4	0.00e+00	0	42	0	1423966208	40	4191
2026-01-09 14:08:09.76	152.10	31.46	-35.0	-36.3	21.5	0.00e+00	0	42	0	1433403392	40	4161
2026-01-09 14:08:10.48	152.06	31.61	-35.1	-36.4	21.5	0.00e+00	0	42	0	1438646272	40	4201
2026-01-09 14:08:11.77	152.00	31.87	-35.1	-36.4	21.5	0.00e+00	0	42	0	1448083456	40	4219
2026-01-09 14:08:12.58	151.97	32.03	-35.1	-36.4	21.4	0.00e+00	0	42	0	1453326336	40	4233
2026-01-09 14:08:13.72	151.91	32.27	-35.0	-36.4	21.4	0.00e+00	0	42	0	1461714944	40	4197
2026-01-09 14:08:14.76	151.86	32.48	-35.0	-36.4	21.5	0.00e+00	0	42	0	1469054976	40	4195
2026-01-09 14:08:15.76	151.81	32.69	-35.1	-36.4	21.4	0.00e+00	0	42	0	1476395008	40	4237
2026-01-09 14:08:16.97	151.75	32.94	-35.2	-36.5	21.3	0.00e+00	0	42	0	1484783616	40	4271
2026-01-09 14:08:17.86	151.71	33.13	-35.2	-36.5	21.3	0.00e+00	0	42	0	1492123648	40	4281
2026-01-09 14:08:19.00	151.65	33.37	-35.1	-36.4	21.4	0.00e+00	0	42	0	1500512256	40	4236
2026-01-09 14:08:19.85	151.61	33.56	-35.1	-36.5	21.4	0.00e+00	0	42	0	1505755136	40	4248
2026-01-09 14:08:21.00	151.55	33.80	-35.1	-36.4	21.4	0.00e+00	0	42	0	1514143744	40	4237
2026-01-09 14:08:21.86	151.50	33.99	-35.1	-36.4	21.4	0.00e+00	0	42	0	1520435200	40	4211
2026-01-09 14:08:23.01	151.44	34.24	-35.0	-36.3	21.5	0.00e+00	0	42	0	1528823808	40	4183
2026-01-09 14:08:23.87	151.39	34.43	-35.1	-36.4	21.4	0.00e+00	0	42	0	1535115264	40	4213
2026-01-09 14:08:25.01	151.33	34.68	-35.0	-36.3	21.5	0.00e+00	0	42	0	1543503872	40	4155
2026-01-09 14:08:25.87	151.28	34.88	-35.0	-36.4	21.5	0.00e+00	0	42	0	1549795328	40	4196
2026-01-09 14:08:27.02	151.22	35.13	-35.0	-36.3	21.5	0.00e+00	0	42	0	1558183936	40	4182
2026-01-09 14:08:27.88	151.17	35.33	-35.0	-36.4	21.5	0.00e+00	0	42	0	1563426816	40	4199
2026-01-09 14:08:29.09	151.09	35.60	-35.1	-36.4	21.5	0.00e+00	0	42	0	1572864000	40	4221
2026-01-09 14:08:29.95	151.04	35.80	-35.2	-36.6	21.3	0.00e+00	0	42	0	1579155456	40	4319
2026-01-09 14:08:31.10	150.97	36.07	-35.2	-36.6	21.3	0.00e+00	0	42	0	1587544064	40	4313
2026-01-09 14:08:31.96	150.92	36.27	-35.2	-36.5	21.3	0.00e+00	0	42	0	1593835520	40	4290
2026-01-09 14:08:33.10	150.85	36.54	-35.2	-36.5	21.4	0.00e+00	0	42	0	1602224128	40	4288
2026-01-09 14:08:34.05	150.79	36.76	-35.3	-36.7	21.2	0.00e+00	0	42	0	1608515584	40	4382
2026-01-09 14:08:35.05	150.73	37.00	-35.3	-36.7	21.2	0.00e+00	0	42	0	1615855616	40	4381
2026-01-09 14:08:36.05	150.66	37.24	-35.5	-36.9	21.1	0.00e+00	0	42	0	1623195648	40	4469
2026-01-09 14:08:37.06	150.59	37.48	-35.5	-36.9	21.1	0.00e+00	0	42	0	1630535680	40	4470
2026-01-09 14:08:38.06	150.53	37.72	-35.5	-36.9	21.0	0.00e+00	0	42	0	1637875712	40	4491
2026-01-09 14:08:39.06	150.46	37.97	-35.5	-37.0	21.1	0.00e+00	0	42	0	1645215744	40	4497
2026-01-09 14:08:40.07	150.39	38.22	-35.4	-36.8	21.2	0.00e+00	0	42	0	1651507200	40	4398
2026-01-09 14:08:41.07	150.32	38.47	-35.4	-36.8	21.2	0.00e+00	0	42	0	1658847232	40	4421
2026-01-09 14:08:42.07	150.25	38.72	-35.4	-36.8	21.1	0.00e+00	0	42	0	1666187264	40	4432
2026-01-09 14:08:43.08	150.17	38.97	-35.4	-36.7	21.2	0.00e+00	0	42	0	1673527296	40	4387
2026-01-09 14:08:44.08	150.10	39.22	-35.4	-36.8	21.2	0.00e+00	0	43	0	1680867328	40	4406
2026-01-09 14:08:45.08	150.02	39.48	-35.4	-36.7	21.2	0.00e+00	0	43	0	1688207360	40	4388
2026-01-09 14:08:46.09	149.94	39.74	-35.4	-36.7	21.3	0.00e+00	0	42	0	1695547392	40	4381
2026-01-09 14:08:47.09	149.87	40.00	-35.4	-36.7	21.3	0.00e+00	0	42	0	1702887424	40	4383
2026-01-09 14:08:48.09	149.79	40.26	-35.4	-36.7	21.3	0.00e+00	0	42	0	1710227456	40	4377
2026-01-09 14:08:49.17	149.70	40.54	-35.4	-36.7	21.3	0.00e+00	0	42	0	1717567488	40	4366
2026-01-09 14:08:50.03	149.63	40.77	-35.6	-37.0	21.0	0.00e+00	0	42	0	1723858944	40	4518
2026-01-09 14:08:51.18	149.54	41.08	-35.5	-36.8	21.2	0.00e+00	0	42	0	1732247552	40	4435
2026-01-09 14:08:52.04	149.46	41.31	-35.4	-36.7	21.3	0.00e+00	0	42	0	1738539008	40	4361
2026-01-09 14:08:53.19	149.36	41.62	-35.9	-36.8	21.8	0.00e+00	0	43	0	1746927616	41	4158
2026-01-09 14:08:54.25	149.27	41.91	-35.6	-36.5	22.1	0.00e+00	0	42	0	1754267648	41	4025
2026-01-09 14:08:55.11	149.19	42.14	-35.6	-36.5	22.1	0.00e+00	0	42	0	1760559104	41	4007
2026-01-09 14:08:56.26	149.09	42.46	-35.5	-36.4	22.2	0.00e+00	0	42	0	1768947712	41	3959
2026-01-09 14:08:57.12	149.01	42.70	-35.6	-36.4	22.1	0.00e+00	0	42	0	1775239168	41	4004
2026-01-09 14:08:58.26	148.90	43.02	-35.6	-36.5	22.1	0.00e+00	0	42	0	1783627776	41	4029
2026-01-09 14:08:59.12	148.82	43.26	-35.6	-36.5	22.1	0.00e+00	0	42	0	1789919232	41	4010
2026-01-09 14:09:00.27	148.71	43.59	-35.8	-36.6	22.0	0.00e+00	0	43	0	1797259264	41	4088
2026-01-09 14:09:01.13	148.62	43.84	-35.9	-36.8	21.8	0.00e+00	0	42	0	1803550720	41	4174
2026-01-09 14:09:02.31	148.50	44.18	-36.3	-37.2	21.5	0.00e+00	0	43	0	1812987904	42	4100
2026-01-09 14:09:03.17	148.41	44.43	-36.5	-37.4	21.3	0.00e+00	0	42	0	1818230784	42	4223
2026-01-09 14:09:04.43	148.28	44.80	-36.7	-37.6	21.1	0.00e+00	0	42	0	1827667968	42	4308
2026-01-09 14:09:05.19	148.20	45.02	-36.7	-37.6	21.1	0.00e+00	0	42	0	1833959424	42	4337
2026-01-09 14:09:06.62	148.04	45.44	-36.8	-37.8	20.9	0.00e+00	0	43	0	1843396608	43	4155
2026-01-09 14:09:07.34	147.96	45.66	-36.7	-37.6	21.1	0.00e+00	0	42	0	1848639488	43	4065
2026-01-09 14:09:08.74	147.80	46.08	-36.6	-37.5	21.2	0.00e+00	0	43	0	1859125248	43	4020
2026-01-09 14:09:09.46	147.72	46.30	-36.2	-37.1	21.6	0.00e+00	0	42	0	1864368128	43	3855
2026-01-09 14:09:10.75	147.56	46.70	-35.9	-36.8	21.8	0.00e+00	0	42	0	1873805312	42	3936
2026-01-09 14:09:11.46	147.48	46.91	-36.0	-36.9	21.8	0.00e+00	0	42	0	1879048192	42	3975
2026-01-09 14:09:12.76	147.32	47.32	-36.2	-37.1	21.5	0.00e+00	0	43	0	1888485376	42	4086
2026-01-09 14:09:13.47	147.23	47.54	-36.3	-37.1	21.5	0.00e+00	0	42	0	1892679680	42	4093
2026-01-09 14:09:14.76	147.06	47.94	-36.5	-37.4	21.3	0.00e+00	0	43	0	1902116864	42	4214
2026-01-09 14:09:15.48	146.96	48.17	-36.7	-37.6	21.1	0.00e+00	0	43	0	1907359744	42	4322
2026-01-09 14:09:16.77	146.79	48.58	-37.3	-38.2	20.5	0.00e+00	0	42	0	1916796928	43	4372
2026-01-09 14:09:17.57	146.68	48.84	-37.4	-38.4	20.5	0.00e+00	0	42	0	1923088384	44	4206
2026-01-09 14:09:18.71	146.52	49.21	-37.5	-38.4	20.5	0.00e+00	0	42	0	1931476992	44	4232
2026-01-09 14:09:19.77	146.37	49.55	-37.6	-38.5	20.4	0.00e+00	0	43	0	1938817024	44	4281
2026-01-09 14:09:20.85	146.21	49.91	-37.4	-38.3	20.5	0.00e+00	0	42	0	1946157056	44	4186
2026-01-09 14:09:21.83	146.06	50.23	-37.1	-38.0	20.8	0.00e+00	0	42	0	1953497088	44	4043
2026-01-09 14:09:22.84	145.90	50.57	-37.2	-38.2	20.7	0.00e+00	0	42	0	1960837120	44	4099
2026-01-09 14:09:23.84	145.75	50.90	-37.3	-38.2	20.7	0.00e+00	0	42	0	1968177152	44	4129
2026-01-09 14:09:24.84	145.58	51.24	-37.1	-38.0	20.9	0.00e+00	0	42	0	1975517184	44	4019
2026-01-09 14:09:25.84	145.42	51.58	-37.0	-38.0	20.9	0.00e+00	0	42	0	1982857216	44	4022
2026-01-09 14:09:26.85	145.25	51.92	-37.3	-38.3	20.6	0.00e+00	0	42	0	1990197248	44	4146
2026-01-09 14:09:27.85	145.08	52.26	-37.1	-38.0	20.9	0.00e+00	0	42	0	1997537280	44	4045
2026-01-09 14:09:28.85	144.90	52.61	-37.2	-38.1	20.7	0.00e+00	0	43	0	2003828736	44	4098
2026-01-09 14:09:29.85	144.72	52.96	-37.2	-38.1	20.8	0.00e+00	0	42	0	2011168768	44	4066
2026-01-09 14:09:30.86	144.53	53.31	-37.2	-38.1	20.7	0.00e+00	0	43	0	2018508800	44	4094
2026-01-09 14:09:31.86	144.34	53.66	-37.4	-38.3	20.6	0.00e+00	0	42	0	2025848832	44	4170
2026-01-09 14:09:32.86	144.14	54.02	-37.3	-38.3	20.6	0.00e+00	0	43	0	2033188864	45	3915
2026-01-09 14:09:33.95	143.92	54.40	-37.2	-38.2	20.7	0.00e+00	0	43	0	2040528896	45	3879
2026-01-09 14:09:34.84	143.74	54.72	-37.2	-38.1	20.8	0.00e+00	0	42	0	2047868928	45	3849
2026-01-09 14:09:35.98	143.50	55.13	-37.2	-38.2	20.7	0.00e+00	0	42	0	2055208960	45	3878
2026-01-09 14:09:36.84	143.31	55.44	-37.2	-38.2	20.7	0.00e+00	0	42	0	2061500416	45	3877
2026-01-09 14:09:37.98	143.06	55.86	-37.3	-38.2	20.7	0.00e+00	0	43	0	2069889024	44	4134
2026-01-09 14:09:38.84	142.86	56.17	-37.7	-38.7	20.2	0.00e+00	0	42	0	2076180480	44	4357
2026-01-09 14:09:39.99	142.60	56.60	-37.5	-38.5	20.4	0.00e+00	0	43	0	2084569088	45	4013
2026-01-09 14:09:40.85	142.39	56.91	-37.5	-38.5	20.4	0.00e+00	0	42	0	2090860544	45	4010
2026-01-09 14:09:41.99	142.11	57.34	-37.5	-38.4	20.5	0.00e+00	0	42	0	2099249152	45	3991
2026-01-09 14:09:42.85	141.89	57.66	-37.1	-38.0	20.8	0.00e+00	0	42	0	2105540608	44	4047
2026-01-09 14:09:44.03	141.58	58.10	-37.3	-38.2	20.7	0.00e+00	0	42	0	2113929216	44	4126
2026-01-09 14:09:44.89	141.35	58.43	-37.4	-38.4	20.5	0.00e+00	0	43	0	2120220672	44	4204
2026-01-09 14:09:46.04	141.03	58.86	-37.2	-38.2	20.7	0.00e+00	0	42	0	2127560704	44	4119
2026-01-09 14:09:46.90	140.78	59.19	-37.5	-38.4	20.4	0.00e+00	0	42	0	2134900736	44	4239
2026-01-09 14:09:48.14	140.42	59.67	-37.3	-38.3	20.6	0.00e+00	0	43	0	2143289344	44	4169
2026-01-09 14:09:48.99	140.16	59.99	-37.0	-38.0	20.9	0.00e+00	0	43	0	2149580800	44	4008
2026-01-09 14:09:50.14	139.80	60.44	-37.0	-37.9	20.9	0.00e+00	0	42	0	2157969408	44	3987
2026-01-09 14:09:51.00	139.52	60.77	-36.8	-37.7	21.1	0.00e+00	0	43	0	2164260864	44	3909
2026-01-09 14:09:52.14	139.14	61.22	-36.8	-37.8	21.1	0.00e+00	0	43	0	2172649472	44	3928
2026-01-09 14:09:53.07	138.82	61.58	-36.7	-37.6	20.9	0.00e+00	0	43	0	2178940928	43	4086
2026-01-09 14:09:54.26	138.40	62.05	-36.9	-37.9	21.0	0.00e+00	0	43	0	2187329536	44	3968
2026-01-09 14:09:55.15	138.07	62.40	-36.9	-37.8	21.1	0.00e+00	0	42	0	2193620992	44	3943
2026-01-09 14:09:56.20	137.67	62.81	-36.6	-37.5	21.3	0.00e+00	0	43	0	2202009600	44	3795
2026-01-09 14:09:57.06	137.33	63.15	-36.1	-37.0	21.6	0.00e+00	0	42	0	2208301056	43	3806
2026-01-09 14:09:58.21	136.86	63.61	-36.1	-37.0	21.6	0.00e+00	0	42	0	2215641088	42	4008
2026-01-09 14:09:59.31	136.40	64.04	-36.2	-37.1	21.6	0.00e+00	0	43	0	2224029696	42	4068
2026-01-09 14:10:00.34	135.95	64.46	-36.3	-37.3	21.5	0.00e+00	0	43	0	2231369728	42	4148
2026-01-09 14:10:01.51	135.42	64.92	-35.7	-36.6	22.1	0.00e+00	0	43	0	2239758336	42	3832
2026-01-09 14:10:02.37	135.01	65.27	-35.8	-36.7	21.9	0.00e+00	0	43	0	2246049792	42	3900
2026-01-09 14:10:03.52	134.45	65.73	-35.6	-36.5	22.1	0.00e+00	0	42	0	2254438400	41	4017
2026-01-09 14:10:04.38	134.01	66.07	-35.7	-36.6	22.0	0.00e+00	0	42	0	2260729856	41	4072
2026-01-09 14:10:05.53	133.40	66.53	-35.9	-36.8	21.8	0.00e+00	0	42	0	2269118464	41	4182
2026-01-09 14:10:06.39	132.93	66.88	-36.0	-36.9	21.8	0.00e+00	0	42	0	2275409920	41	4203
2026-01-09 14:10:07.53	132.29	67.34	-35.7	-36.6	22.0	0.00e+00	0	43	0	2282749952	41	4074
2026-01-09 14:10:08.39	131.78	67.68	-35.3	-36.1	22.4	0.00e+00	0	43	0	2290089984	41	3849
2026-01-09 14:10:09.54	131.07	68.14	-35.4	-36.3	22.2	0.00e+00	0	43	0	2298478592	40	4165
2026-01-09 14:10:10.40	130.52	68.49	-35.5	-36.3	22.2	0.00e+00	0	42	0	2303721472	40	4192
2026-01-09 14:10:11.55	129.75	68.94	-35.9	-36.7	21.9	0.00e+00	0	42	0	2312110080	41	4144
2026-01-09 14:10:12.40	129.16	69.28	-35.9	-36.7	21.8	0.00e+00	0	42	0	2318401536	41	4144
2026-01-09 14:10:13.55	128.33	69.74	-36.1	-37.0	21.6	0.00e+00	0	43	0	2326790144	41	4267
2026-01-09 14:10:14.41	127.68	70.08	-36.1	-37.0	21.5	0.00e+00	0	43	0	2333081600	42	4023
2026-01-09 14:10:15.56	126.78	70.53	-36.2	-37.2	21.5	0.00e+00	0	43	0	2341470208	42	4101
2026-01-09 14:10:16.42	126.07	70.87	-36.1	-37.0	21.7	0.00e+00	0	43	0	2347761664	42	4017
2026-01-09 14:10:17.57	125.08	71.31	-36.0	-36.8	21.8	0.00e+00	0	42	0	2356150272	42	3954
2026-01-09 14:10:18.43	124.31	71.65	-36.1	-37.0	21.7	0.00e+00	0	43	0	2362441728	42	4028
2026-01-09 14:10:19.57	123.24	72.08	-35.9	-36.8	21.8	0.00e+00	0	43	0	2369781760	42	3943
2026-01-09 14:10:20.43	122.39	72.41	-35.7	-36.6	22.1	0.00e+00	0	43	0	2376073216	42	3828
2026-01-09 14:10:21.58	121.21	72.84	-35.3	-36.1	22.5	0.00e+00	0	43	0	2384461824	41	3855
2026-01-09 14:10:22.44	120.28	73.16	-35.0	-35.8	22.7	0.00e+00	0	43	0	2390753280	40	3947
2026-01-09 14:10:23.58	118.99	73.58	-35.1	-35.9	22.6	0.00e+00	0	42	0	2399141888	40	3986
2026-01-09 14:10:24.44	117.98	73.89	-35.1	-36.0	22.5	0.00e+00	0	43	0	2405433344	40	4013
2026-01-09 14:10:25.59	116.55	74.30	-35.6	-36.5	22.1	0.00e+00	0	43	0	2413821952	40	4250
2026-01-09 14:10:26.76	115.02	74.70	-35.6	-36.5	22.2	0.00e+00	0	43	0	2422210560	40	4247
2026-01-09 14:10:27.63	113.83	75.00	-35.3	-36.2	22.4	0.00e+00	0	42	0	2428502016	40	4103
2026-01-09 14:10:28.77	112.19	75.38	-35.1	-36.0	22.6	0.00e+00	0	43	0	2436890624	40	4011
2026-01-09 14:10:29.63	110.90	75.66	-35.1	-36.0	22.5	0.00e+00	0	43	0	2443182080	40	4022
2026-01-09 14:10:30.78	109.08	76.02	-34.8	-35.7	22.8	0.00e+00	0	43	0	2451570688	40	3874
2026-01-09 14:10:31.64	107.66	76.28	-35.0	-35.9	22.7	0.00e+00	0	43	0	2456813568	40	3960
2026-01-09 14:10:32.78	105.69	76.62	-34.9	-35.8	22.8	0.00e+00	0	43	0	2465202176	40	3929
2026-01-09 14:10:33.64	104.14	76.86	-34.9	-35.8	22.8	0.00e+00	0	43	0	2471493632	40	3924
2026-01-09 14:10:34.79	101.97	77.17	-34.4	-35.3	23.1	0.00e+00	0	43	0	2479882240	39	3919
2026-01-09 14:10:35.65	100.28	77.39	-34.5	-35.3	23.2	0.00e+00	0	42	0	2486173696	39	3945
2026-01-09 14:10:36.79	97.94	77.66	-34.2	-35.0	23.5	0.00e+00	0	43	0	2494562304	39	3808
2026-01-09 14:10:37.72	95.96	77.87	-34.5	-35.3	23.2	0.00e+00	0	42	0	2500853760	39	3934
2026-01-09 14:10:38.72	93.75	78.08	-34.6	-35.5	23.1	0.00e+00	0	43	0	2508193792	39	4023
2026-01-09 14:10:39.95	90.93	78.31	-34.4	-35.2	23.3	0.00e+00	0	43	0	2517630976	39	3904
2026-01-09 14:10:40.84	88.82	78.46	-34.1	-35.0	23.5	0.00e+00	0	43	0	2523922432	39	3789
2026-01-09 14:10:41.98	86.04	78.63	-34.1	-34.9	23.6	0.00e+00	0	43	0	2532311040	38	3986
2026-01-09 14:10:42.84	83.89	78.74	-34.4	-35.3	23.2	0.00e+00	0	43	0	2538602496	38	4159
2026-01-09 14:10:43.99	80.95	78.86	-35.0	-35.8	22.8	0.00e+00	0	43	0	2546991104	39	4184
2026-01-09 14:10:44.85	78.71	78.93	-34.7	-35.6	23.0	0.00e+00	0	43	0	2553282560	39	4062
2026-01-09 14:10:45.99	75.71	79.00	-34.1	-34.9	23.5	0.00e+00	0	43	0	2561671168	38	4002
2026-01-09 14:10:46.85	73.42	79.03	-34.0	-34.8	23.6	0.00e+00	0	43	0	2566914048	38	3944
2026-01-09 14:10:48.00	70.35	79.05	-34.1	-34.9	23.6	0.00e+00	0	43	0	2575302656	38	3999
2026-01-09 14:10:48.86	68.05	79.04	-34.0	-34.8	23.6	0.00e+00	0	43	0	2581594112	38	3953
2026-01-09 14:10:50.01	64.99	79.00	-34.2	-35.0	23.5	0.00e+00	0	43	0	2589982720	38	4036
2026-01-09 14:10:50.87	62.72	78.96	-34.5	-35.3	23.2	0.00e+00	0	43	0	2596274176	38	4193
2026-01-09 14:10:52.01	59.75	78.87	-34.4	-35.3	23.3	0.00e+00	0	43	0	2604662784	38	4157
2026-01-09 14:10:52.88	57.51	78.78	-34.3	-35.2	23.3	0.00e+00	0	43	0	2610954240	38	4105
2026-01-09 14:10:54.02	54.65	78.64	-34.3	-35.1	23.4	0.00e+00	0	43	0	2619342848	38	4071
2026-01-09 14:10:54.88	52.54	78.52	-34.2	-35.0	23.4	0.00e+00	0	43	0	2624585728	38	4028
2026-01-09 14:10:56.03	49.79	78.33	-34.4	-35.2	23.2	0.00e+00	0	43	0	2632974336	38	4128
2026-01-09 14:10:56.89	47.80	78.17	-34.3	-35.2	23.3	0.00e+00	0	43	0	2639265792	38	4105
2026-01-09 14:10:58.03	45.25	77.94	-34.3	-35.1	23.4	0.00e+00	0	43	0	2647654400	38	4069
2026-01-09 14:10:58.89	43.39	77.75	-34.3	-35.1	23.4	0.00e+00	0	43	0	2653945856	38	4067
2026-01-09 14:11:00.04	41.00	77.49	-34.6	-35.4	23.1	0.00e+00	0	43	0	2662334464	38	4221
2026-01-09 14:11:00.90	39.28	77.27	-34.8	-35.7	22.9	0.00e+00	0	43	0	2668625920	39	4122
2026-01-09 14:11:02.05	37.08	76.97	-34.9	-35.8	22.8	0.00e+00	0	42	0	2677014528	39	4165
2026-01-09 14:11:02.91	35.50	76.73	-34.8	-35.7	22.8	0.00e+00	0	43	0	2683305984	39	4115
2026-01-09 14:11:04.05	33.49	76.40	-34.7	-35.5	23.0	0.00e+00	0	43	0	2691694592	39	4018
2026-01-09 14:11:04.91	32.05	76.14	-34.7	-35.6	23.0	0.00e+00	0	42	0	2697986048	39	4067
2026-01-09 14:11:06.06	30.20	75.79	-34.9	-35.7	22.9	0.00e+00	0	43	0	2706374656	39	4127
2026-01-09 14:11:06.92	28.88	75.51	-34.9	-35.7	22.8	0.00e+00	0	43	0	2711617536	39	4135
2026-01-09 14:11:08.07	27.20	75.13	-35.2	-36.0	22.6	0.00e+00	0	43	0	2720006144	39	4274
2026-01-09 14:11:08.93	26.00	74.84	-35.4	-36.2	22.3	0.00e+00	0	42	0	2726297600	40	4138
2026-01-09 14:11:10.07	24.48	74.45	-35.6	-36.5	22.0	0.00e+00	0	43	0	2734686208	40	4258
2026-01-09 14:11:11.11	23.17	74.08	-35.4	-36.3	22.3	0.00e+00	0	43	0	2742026240	40	4171
2026-01-09 14:11:12.28	21.76	73.67	-35.3	-36.1	22.5	0.00e+00	0	43	0	2750414848	40	4087
2026-01-09 14:11:13.14	20.78	73.35	-35.5	-36.4	22.2	0.00e+00	0	42	0	2756706304	40	4199
2026-01-09 14:11:14.48	19.31	72.86	-35.8	-36.7	21.9	0.00e+00	0	43	0	2766143488	41	4111
2026-01-09 14:11:15.20	18.57	72.59	-35.9	-36.8	21.9	0.00e+00	0	43	0	2772434944	41	4152
2026-01-09 14:11:16.49	17.29	72.10	-35.8	-36.7	22.0	0.00e+00	0	42	0	2780823552	41	4099
2026-01-09 14:11:17.20	16.61	71.83	-35.9	-36.8	21.9	0.00e+00	0	43	0	2786066432	41	4168
2026-01-09 14:11:18.49	15.44	71.33	-36.0	-36.8	21.7	0.00e+00	0	42	0	2795503616	41	4193
2026-01-09 14:11:19.21	14.82	71.05	-35.9	-36.8	21.8	0.00e+00	0	43	0	2800746496	41	4180
2026-01-09 14:11:20.50	13.74	70.55	-35.5	-36.3	22.2	0.00e+00	0	42	0	2810183680	41	3957
2026-01-09 14:11:21.22	13.17	70.27	-35.6	-36.4	22.2	0.00e+00	0	43	0	2815426560	41	4000
2026-01-09 14:11:22.51	12.19	69.76	-35.7	-36.6	22.0	0.00e+00	0	43	0	2824863744	41	4065
2026-01-09 14:11:23.23	11.66	69.48	-35.8	-36.7	22.0	0.00e+00	0	43	0	2830106624	41	4105
2026-01-09 14:11:24.53	10.75	68.96	-35.9	-36.8	21.9	0.00e+00	0	43	0	2839543808	41	4146
2026-01-09 14:11:25.25	10.27	68.67	-35.8	-36.7	22.0	0.00e+00	0	43	0	2844786688	41	4108
2026-01-09 14:11:26.59	9.40	68.14	-35.7	-36.6	22.0	0.00e+00	0	43	0	2854223872	41	4085
2026-01-09 14:11:27.58	8.79	67.74	-35.7	-36.5	21.8	0.00e+00	0	43	0	2861563904	41	4045
2026-01-09 14:11:28.58	8.20	67.34	-35.4	-36.2	22.4	0.00e+00	0	43	0	2867855360	41	3902
2026-01-09 14:11:29.58	7.63	66.94	-35.3	-36.1	22.4	0.00e+00	0	43	0	2875195392	41	3858
2026-01-09 14:11:30.59	7.08	66.54	-35.4	-36.2	22.3	0.00e+00	0	43	0	2882535424	41	3906
2026-01-09 14:11:31.99	6.35	65.98	-35.8	-36.7	21.9	0.00e+00	0	43	0	2893021184	41	4126
2026-01-09 14:11:32.70	5.99	65.69	-35.9	-36.8	21.7	0.00e+00	0	43	0	2898264064	41	4182
2026-01-09 14:11:33.99	5.36	65.18	-35.9	-36.8	21.8	0.00e+00	0	43	0	2907701248	41	4169
2026-01-09 14:11:34.71	5.03	64.89	-35.8	-36.7	21.7	0.00e+00	0	43	0	2912944128	41	4132
2026-01-09 14:11:36.00	4.44	64.38	-36.0	-36.9	21.7	0.00e+00	0	43	0	2922381312	41	4218
2026-01-09 14:11:36.71	4.14	64.10	-36.2	-37.1	21.6	0.00e+00	0	43	0	2927624192	41	4293
2026-01-09 14:11:38.00	3.59	63.58	-36.6	-37.5	21.1	0.00e+00	0	43	0	2936012800	42	4257
2026-01-09 14:11:38.72	3.30	63.30	-36.8	-37.8	21.0	0.00e+00	0	43	0	2941255680	43	4155
2026-01-09 14:11:40.09	2.76	62.76	-36.7	-37.7	21.0	0.00e+00	0	43	0	2951741440	43	4101
2026-01-09 14:11:41.06	2.39	62.38	-36.9	-37.9	20.8	0.00e+00	0	43	0	2958032896	43	4195
2026-01-09 14:11:42.37	1.92	61.86	-37.0	-37.9	20.8	0.00e+00	0	43	0	2967470080	43	4214
2026-01-09 14:11:43.08	1.67	61.59	-37.0	-37.9	20.7	0.00e+00	0	43	0	2972712960	43	4232
2026-01-09 14:11:44.74	1.10	60.94	-37.0	-38.0	20.7	0.00e+00	0	43	0	2985295872	43	4254
2026-01-09 14:11:45.32	0.91	60.71	-37.1	-38.1	20.7	0.00e+00	0	43	0	2989490176	43	4295
2026-01-09 14:11:46.89	0.42	60.11	-37.0	-37.9	20.8	0.00e+00	0	43	0	3001024512	43	4231
2026-01-09 14:11:47.47	0.24	59.89	-36.9	-37.9	20.9	0.00e+00	0	43	0	3005218816	43	4200
2026-01-09 14:11:49.04	359.77	59.29	-37.4	-38.4	20.5	0.00e+00	0	43	0	3016753152	44	4202
2026-01-09 14:11:49.63	359.60	59.06	-37.6	-38.6	20.4	0.00e+00	0	43	0	3019898880	44	4302
2026-01-09 14:11:51.21	359.16	58.46	-37.5	-38.5	20.4	0.00e+00	0	43	0	3031433216	44	4267
2026-01-09 14:11:51.78	359.01	58.25	-37.4	-38.4	20.5	0.00e+00	0	43	0	3035627520	44	4224
2026-01-09 14:11:53.36	358.59	57.66	-37.3	-38.3	20.6	0.00e+00	0	42	0	3047161856	44	4169
2026-01-09 14:11:53.95	358.44	57.44	-37.4	-38.3	20.6	0.00e+00	0	43	0	3051356160	44	4181
2026-01-09 14:11:55.53	358.05	56.85	-37.6	-38.6	20.4	0.00e+00	0	43	0	3062890496	44	4294
2026-01-09 14:11:56.12	357.91	56.63	-37.5	-38.5	20.4	0.00e+00	0	42	0	3067084800	44	4253
2026-01-09 14:11:58.06	357.46	55.92	-37.4	-38.3	20.6	0.00e+00	0	42	0	3081764864	44	4176
2026-01-09 14:11:58.63	357.33	55.72	-37.3	-38.2	20.6	0.00e+00	0	43	0	3084910592	44	4126
2026-01-09 14:12:00.22	356.99	55.14	-37.4	-38.3	20.6	0.00e+00	0	42	0	3096444928	44	4186
2026-01-09 14:12:00.80	356.87	54.93	-37.4	-38.4	20.5	0.00e+00	0	43	0	3100639232	44	4212
2026-01-09 14:12:02.38	356.54	54.37	-37.2	-38.1	20.7	0.00e+00	0	43	0	3112173568	44	4098
2026-01-09 14:12:02.99	356.42	54.15	-37.1	-38.1	20.9	0.00e+00	0	43	0	3117416448	44	4054
2026-01-09 14:12:04.57	356.11	53.59	-36.9	-37.8	21.0	0.00e+00	0	43	0	3127902208	44	3956
2026-01-09 14:12:05.14	356.00	53.39	-36.9	-37.9	21.0	0.00e+00	0	43	0	3132096512	44	3959
2026-01-09 14:12:06.77	355.70	52.83	-37.0	-38.0	20.9	0.00e+00	0	43	0	3143630848	44	4022
2026-01-09 14:12:07.34	355.60	52.63	-37.1	-38.0	20.9	0.00e+00	0	43	0	3148873728	44	4035
2026-01-09 14:12:08.94	355.32	52.08	-37.2	-38.2	20.7	0.00e+00	0	43	0	3160408064	44	4103
2026-01-09 14:12:09.52	355.22	51.88	-37.2	-38.2	20.6	0.00e+00	0	43	0	3163553792	44	4109
2026-01-09 14:12:11.10	354.96	51.35	-37.3	-38.2	20.7	0.00e+00	0	43	0	3175088128	44	4130
2026-01-09 14:12:12.15	354.79	51.00	-37.3	-38.2	20.7	0.00e+00	0	43	0	3183476736	44	4126
2026-01-09 14:12:13.46	354.58	50.56	-37.1	-38.0	20.9	0.00e+00	0	43	0	3192913920	44	4019
2026-01-09 14:12:14.17	354.47	50.32	-36.8	-37.7	21.1	0.00e+00	0	43	0	3197108224	44	3909
2026-01-09 14:12:15.46	354.28	49.90	-36.7	-37.6	21.2	0.00e+00	0	43	0	3206545408	44	3860
2026-01-09 14:12:16.18	354.17	49.67	-36.7	-37.6	21.3	0.00e+00	0	43	0	3211788288	44	3829
2026-01-09 14:12:17.47	353.99	49.25	-36.8	-37.7	21.1	0.00e+00	0	43	0	3221225472	44	3908
2026-01-09 14:12:18.19	353.89	49.01	-36.9	-37.8	21.0	0.00e+00	0	43	0	3226468352	44	3956
2026-01-09 14:12:19.48	353.71	48.60	-37.0	-37.9	21.0	0.00e+00	0	43	0	3235905536	44	3992
2026-01-09 14:12:20.20	353.61	48.37	-37.0	-38.0	20.9	0.00e+00	0	43	0	3241148416	44	4006
2026-01-09 14:12:21.67	353.42	47.91	-36.9	-37.8	21.1	0.00e+00	0	43	0	3251634176	44	3948
2026-01-09 14:12:22.39	353.32	47.68	-36.8	-37.7	21.1	0.00e+00	0	43	0	3256877056	44	3913
2026-01-09 14:12:23.74	353.15	47.26	-36.6	-37.5	21.3	0.00e+00	0	43	0	3266314240	44	3786
2026-01-09 14:12:24.46	353.06	47.04	-36.4	-37.3	21.4	0.00e+00	0	43	0	3271557120	43	3928
2026-01-09 14:12:25.75	352.91	46.64	-36.2	-37.1	21.6	0.00e+00	0	43	0	3280994304	42	4057
2026-01-09 14:12:26.47	352.82	46.43	-36.1	-37.0	21.7	0.00e+00	0	43	0	3286237184	42	4034
2026-01-09 14:12:27.75	352.67	46.04	-35.9	-36.8	21.9	0.00e+00	0	43	0	3295674368	42	3943
2026-01-09 14:12:28.47	352.59	45.82	-35.9	-36.8	21.9	0.00e+00	0	43	0	3300917248	42	3933
2026-01-09 14:12:29.76	352.45	45.44	-35.8	-36.7	21.9	0.00e+00	0	43	0	3310354432	42	3881
2026-01-09 14:12:30.48	352.37	45.22	-35.9	-36.8	21.8	0.00e+00	0	43	0	3315597312	42	3927
2026-01-09 14:12:31.77	352.23	44.84	-35.8	-36.7	21.9	0.00e+00	0	43	0	3325034496	42	3875
2026-01-09 14:12:32.49	352.16	44.63	-35.8	-36.7	21.9	0.00e+00	0	43	0	3329228800	42	3880
2026-01-09 14:12:33.78	352.02	44.26	-35.8	-36.7	21.9	0.00e+00	0	43	0	3338665984	42	3888
2026-01-09 14:12:34.49	351.95	44.05	-35.8	-36.7	21.9	0.00e+00	0	43	0	3343908864	42	3871
2026-01-09 14:12:35.78	351.82	43.69	-35.5	-36.4	22.1	0.00e+00	0	42	0	3353346048	41	3983
2026-01-09 14:12:36.50	351.75	43.48	-35.4	-36.3	22.3	0.00e+00	0	43	0	3358588928	41	3928
2026-01-09 14:12:37.79	351.63	43.12	-35.2	-36.1	22.4	0.00e+00	0	43	0	3368026112	41	3841
2026-01-09 14:12:38.51	351.56	42.92	-35.3	-36.1	22.3	0.00e+00	0	42	0	3373268992	41	3851
2026-01-09 14:12:39.79	351.44	42.56	-35.4	-36.2	22.3	0.00e+00	0	43	0	3382706176	41	3897
2026-01-09 14:12:40.51	351.38	42.36	-35.4	-36.2	22.2	0.00e+00	0	43	0	3387949056	41	3913
2026-01-09 14:12:41.80	351.26	42.01	-35.6	-36.5	22.1	0.00e+00	0	43	0	3397386240	41	4011
2026-01-09 14:12:42.52	351.20	41.81	-35.7	-36.5	22.0	0.00e+00	0	43	0	3402629120	41	4044
2026-01-09 14:12:43.81	351.09	41.46	-35.8	-36.7	21.9	0.00e+00	0	42	0	3411017728	41	4103
2026-01-09 14:12:44.52	351.03	41.27	-35.9	-36.7	21.9	0.00e+00	0	43	0	3416260608	41	4143
2026-01-09 14:12:45.81	350.92	40.93	-36.0	-36.8	21.7	0.00e+00	0	43	0	3425697792	41	4188
2026-01-09 14:12:46.53	350.86	40.74	-35.9	-36.8	21.4	0.00e+00	0	43	0	3430940672	41	4152
2026-01-09 14:12:47.81	350.76	40.40	-36.1	-37.0	21.6	0.00e+00	0	42	0	3440377856	41	4284
2026-01-09 14:12:48.69	350.69	40.17	-36.1	-37.0	21.5	0.00e+00	0	43	0	3446669312	41	4284
2026-01-09 14:12:49.83	350.60	39.88	-36.2	-37.1	21.6	0.00e+00	0	43	0	3455057920	41	4294
2026-01-09 14:12:50.69	350.53	39.66	-36.3	-37.2	21.5	0.00e+00	0	43	0	3461349376	41	4348
2026-01-09 14:12:51.84	350.45	39.36	-36.1	-37.0	21.6	0.00e+00	0	43	0	3469737984	41	4284
2026-01-09 14:12:52.70	350.38	39.15	-36.1	-37.0	21.6	0.00e+00	0	43	0	3476029440	41	4262
2026-01-09 14:12:53.84	350.30	38.86	-36.0	-36.9	21.7	0.00e+00	0	43	0	3484418048	41	4237
2026-01-09 14:12:54.70	350.24	38.65	-35.9	-36.8	21.8	0.00e+00	0	43	0	3489660928	41	4170
2026-01-09 14:12:55.85	350.16	38.36	-35.8	-36.7	21.6	0.00e+00	0	43	0	3498049536	41	4127
2026-01-09 14:12:56.72	350.10	38.15	-35.8	-36.7	21.9	0.00e+00	0	43	0	3504340992	41	4115
2026-01-09 14:12:58.05	350.01	37.82	-35.8	-36.8	21.8	0.00e+00	0	43	0	3514826752	41	4148
2026-01-09 14:12:58.76	349.96	37.65	-35.8	-36.7	21.8	0.00e+00	0	43	0	3519021056	41	4123
2026-01-09 14:13:00.28	349.86	37.28	-35.8	-36.7	21.8	0.00e+00	0	43	0	3530555392	41	4136
2026-01-09 14:13:00.99	349.81	37.12	-35.8	-36.7	21.9	0.00e+00	0	43	0	3535798272	41	4136
2026-01-09 14:13:02.28	349.73	36.81	-35.7	-36.6	21.8	0.00e+00	0	43	0	3544186880	41	4094
2026-01-09 14:13:03.00	349.68	36.64	-35.8	-36.8	21.5	0.00e+00	0	43	0	3550478336	41	4147
2026-01-09 14:13:04.29	349.60	36.34	-35.7	-36.6	22.0	0.00e+00	0	43	0	3559915520	41	4058
2026-01-09 14:13:05.01	349.56	36.17	-35.6	-36.5	22.1	0.00e+00	0	43	0	3564109824	41	4039
2026-01-09 14:13:06.30	349.48	35.88	-35.6	-36.5	22.0	0.00e+00	0	43	0	3573547008	41	4008
2026-01-09 14:13:07.01	349.44	35.71	-35.6	-36.5	22.0	0.00e+00	0	43	0	3578789888	41	4020
2026-01-09 14:13:08.31	349.37	35.42	-35.3	-36.2	22.3	0.00e+00	0	43	0	3588227072	41	3891
2026-01-09 14:13:09.07	349.32	35.25	-35.3	-36.1	22.4	0.00e+00	0	43	0	3593469952	41	3848
2026-01-09 14:13:10.68	349.23	34.89	-35.1	-35.9	22.6	0.00e+00	0	43	0	3605004288	40	3985
2026-01-09 14:13:11.52	349.19	34.70	-35.1	-36.0	22.6	0.00e+00	0	43	0	3611295744	40	4011
2026-01-09 14:13:12.67	349.12	34.45	-35.2	-36.1	22.4	0.00e+00	0	43	0	3619684352	40	4059
2026-01-09 14:13:13.85	349.06	34.19	-35.1	-35.9	22.6	0.00e+00	0	43	0	3628072960	40	3990
2026-01-09 14:13:14.71	349.01	34.00	-35.1	-36.0	22.5	0.00e+00	0	43	0	3634364416	40	4008
2026-01-09 14:13:15.85	348.95	33.76	-35.1	-35.9	22.6	0.00e+00	0	43	0	3642753024	40	3996
2026-01-09 14:13:16.71	348.91	33.57	-35.2	-36.0	22.3	0.00e+00	0	43	0	3649044480	40	4046
2026-01-09 14:13:17.86	348.85	33.33	-35.1	-36.0	22.5	0.00e+00	0	43	0	3657433088	40	4027
2026-01-09 14:13:18.72	348.81	33.15	-35.2	-36.0	22.5	0.00e+00	0	43	0	3663724544	40	4043
2026-01-09 14:13:19.91	348.75	32.90	-35.3	-36.2	22.3	0.00e+00	0	43	0	3672113152	40	4121
2026-01-09 14:13:20.77	348.71	32.72	-35.3	-36.2	22.3	0.00e+00	0	43	0	3678404608	40	4130
2026-01-09 14:13:21.92	348.65	32.48	-35.3	-36.2	22.3	0.00e+00	0	43	0	3686793216	40	4113
2026-01-09 14:13:22.78	348.61	32.31	-35.3	-36.2	22.3	0.00e+00	0	43	0	3693084672	40	4125
2026-01-09 14:13:24.05	348.55	32.05	-35.5	-36.4	22.1	0.00e+00	0	43	0	3702521856	40	4221
2026-01-09 14:13:24.78	348.52	31.90	-35.5	-36.4	22.2	0.00e+00	0	43	0	3706716160	40	4203
2026-01-09 14:13:26.27	348.45	31.60	-35.5	-36.4	22.1	0.00e+00	0	43	0	3718250496	40	4209
2026-01-09 14:13:26.99	348.42	31.46	-35.6	-36.5	21.8	0.00e+00	0	43	0	3723493376	40	4270
2026-01-09 14:13:28.27	348.36	31.20	-35.7	-36.6	22.0	0.00e+00	0	43	0	3731881984	40	4311
2026-01-09 14:13:28.99	348.33	31.06	-35.7	-36.6	22.0	0.00e+00	0	43	0	3738173440	40	4297
2026-01-09 14:13:30.28	348.28	30.81	-35.7	-36.6	22.0	0.00e+00	0	43	0	3746562048	40	4307
2026-01-09 14:13:31.00	348.25	30.67	-35.6	-36.5	21.9	0.00e+00	0	43	0	3751804928	40	4279
2026-01-09 14:13:32.29	348.19	30.42	-35.8	-36.6	21.9	0.00e+00	0	43	0	3761242112	40	4334
2026-01-09 14:13:33.01	348.16	30.28	-35.7	-36.5	22.0	0.00e+00	0	43	0	3766484992	41	4048
2026-01-09 14:13:34.29	348.11	30.04	-35.7	-36.6	21.9	0.00e+00	0	43	0	3775922176	41	4086
2026-01-09 14:13:35.01	348.08	29.90	-35.7	-36.6	21.9	0.00e+00	0	43	0	3781165056	41	4071
2026-01-09 14:13:36.30	348.03	29.66	-35.9	-36.8	21.8	0.00e+00	0	43	0	3790602240	41	4155
2026-01-09 14:13:37.16	348.00	29.50	-35.7	-36.6	22.0	0.00e+00	0	43	0	3796893696	41	4069
2026-01-09 14:13:38.63	347.94	29.23	-35.7	-36.6	22.0	0.00e+00	0	43	0	3807379456	41	4054
2026-01-09 14:13:39.35	347.91	29.10	-35.8	-36.6	21.8	0.00e+00	0	43	0	3812622336	41	4095
2026-01-09 14:13:40.64	347.86	28.86	-35.7	-36.6	22.0	0.00e+00	0	43	0	3822059520	41	4056
2026-01-09 14:13:41.36	347.84	28.73	-35.7	-36.5	22.0	0.00e+00	0	43	0	3827302400	41	4050
2026-01-09 14:13:42.65	347.79	28.50	-35.7	-36.6	22.0	0.00e+00	0	43	0	3836739584	41	4055
2026-01-09 14:13:43.36	347.77	28.37	-35.6	-36.5	22.0	0.00e+00	0	43	0	3840933888	41	4031
2026-01-09 14:13:44.66	347.72	28.14	-35.7	-36.6	22.0	0.00e+00	0	43	0	3850371072	41	4053
2026-01-09 14:13:45.48	347.69	27.99	-35.7	-36.6	22.0	0.00e+00	0	43	0	3856662528	41	4054
2026-01-09 14:13:46.63	347.65	27.79	-35.7	-36.6	21.9	0.00e+00	0	43	0	3865051136	41	4052
2026-01-09 14:13:47.71	347.61	27.60	-35.7	-36.5	21.9	0.00e+00	0	43	0	3872391168	41	4049
2026-01-09 14:13:48.73	347.58	27.43	-35.7	-36.6	21.9	0.00e+00	0	43	0	3879731200	41	4065
2026-01-09 14:13:49.90	347.54	27.22	-35.7	-36.6	21.8	0.00e+00	0	43	0	3888119808	41	4095
2026-01-09 14:13:50.76	347.51	27.08	-35.8	-36.7	21.8	0.00e+00	0	43	0	3894411264	41	4100
2026-01-09 14:13:52.13	347.47	26.84	-35.9	-36.8	21.7	0.00e+00	0	43	0	3904897024	41	4181
2026-01-09 14:13:52.84	347.44	26.72	-35.9	-36.8	21.8	0.00e+00	0	43	0	3910139904	41	4149
2026-01-09 14:13:54.13	347.40	26.51	-36.0	-36.9	21.7	0.00e+00	0	43	0	3918528512	41	4207
2026-01-09 14:13:54.85	347.38	26.39	-35.9	-36.8	21.7	0.00e+00	0	43	0	3924819968	41	4167
2026-01-09 14:13:56.14	347.34	26.17	-36.0	-36.9	21.6	0.00e+00	0	42	0	3934257152	41	4225
2026-01-09 14:13:56.90	347.32	26.05	-36.0	-36.9	21.6	0.00e+00	0	43	0	3939500032	41	4234
2026-01-09 14:13:58.19	347.28	25.84	-36.0	-37.0	21.2	0.00e+00	0	43	0	3948937216	41	4250
2026-01-09 14:13:58.99	347.25	25.71	-36.1	-37.0	21.6	0.00e+00	0	43	0	3954180096	41	4258
2026-01-09 14:14:00.14	347.22	25.52	-36.0	-36.9	21.6	0.00e+00	0	43	0	3962568704	41	4229
2026-01-09 14:14:01.23	347.19	25.35	-36.0	-36.9	21.6	0.00e+00	0	43	0	3969908736	41	4215
2026-01-09 14:14:02.27	347.16	25.18	-36.0	-36.9	21.5	0.00e+00	0	43	0	3978297344	41	4238
2026-01-09 14:14:03.27	347.13	25.02	-36.1	-37.0	21.5	0.00e+00	0	43	0	3984588800	41	4285
2026-01-09 14:14:04.27	347.10	24.87	-36.1	-37.0	21.5	0.00e+00	0	43	0	3991928832	41	4262
2026-01-09 14:14:05.27	347.07	24.71	-36.0	-36.9	21.7	0.00e+00	0	43	0	3999268864	41	4196
2026-01-09 14:14:06.28	347.04	24.55	-36.0	-36.9	21.6	0.00e+00	0	43	0	4006608896	41	4214
2026-01-09 14:14:07.28	347.02	24.40	-35.9	-36.9	21.7	0.00e+00	0	43	0	4013948928	41	4194
2026-01-09 14:14:08.28	346.99	24.24	-35.8	-36.7	21.8	0.00e+00	0	43	0	4021288960	41	4144
2026-01-09 14:14:09.28	346.96	24.09	-35.9	-36.8	21.7	0.00e+00	0	43	0	4028628992	41	4188
2026-01-09 14:14:10.29	346.94	23.94	-36.0	-37.0	21.6	0.00e+00	0	43	0	4035969024	41	4250
2026-01-09 14:14:11.29	346.91	23.78	-35.8	-36.8	21.7	0.00e+00	0	43	0	4043309056	41	4155
2026-01-09 14:14:12.29	346.88	23.63	-35.8	-36.8	21.7	0.00e+00	0	43	0	4050649088	41	4155
2026-01-09 14:14:13.30	346.86	23.48	-35.8	-36.8	21.8	0.00e+00	0	43	0	4057989120	41	4157
2026-01-09 14:14:14.37	346.83	23.32	-35.9	-36.8	21.7	0.00e+00	0	43	0	4065329152	41	4176
2026-01-09 14:14:15.26	346.81	23.19	-35.9	-36.8	21.6	0.00e+00	0	43	0	4071620608	41	4182
2026-01-09 14:14:16.40	346.78	23.02	-35.9	-36.9	21.6	0.00e+00	0	43	0	4080009216	41	4206
2026-01-09 14:14:17.26	346.76	22.90	-36.0	-36.9	21.6	0.00e+00	0	43	0	4086300672	41	4220
2026-01-09 14:14:18.40	346.73	22.73	-36.0	-36.9	21.6	0.00e+00	0	43	0	4094689280	41	4224
2026-01-09 14:14:19.26	346.71	22.61	-36.0	-36.9	21.5	0.00e+00	0	43	0	4100980736	41	4222
2026-01-09 14:14:20.41	346.68	22.44	-36.1	-37.0	21.5	0.00e+00	0	43	0	4108320768	41	4249
2026-01-09 14:14:21.27	346.66	22.32	-36.1	-37.0	21.5	0.00e+00	0	43	0	4114612224	41	4265
2026-01-09 14:14:22.41	346.64	22.16	-36.1	-37.0	21.4	0.00e+00	0	43	0	4123000832	41	4288
2026-01-09 14:14:23.28	346.62	22.04	-36.2	-37.2	21.3	0.00e+00	0	43	0	4129292288	41	4342
2026-01-09 14:14:24.42	346.59	21.88	-36.2	-37.1	21.4	0.00e+00	0	43	0	4137680896	41	4324
2026-01-09 14:14:25.28	346.57	21.76	-36.2	-37.1	21.4	0.00e+00	0	43	0	4143972352	41	4309
2026-01-09 14:14:26.45	346.55	21.59	-36.2	-37.1	21.3	0.00e+00	0	43	0	4152360960	41	4302
2026-01-09 14:14:27.30	346.53	21.48	-36.2	-37.1	21.4	0.00e+00	0	43	0	4158652416	41	4329
2026-01-09 14:14:28.45	346.50	21.32	-36.2	-37.1	21.3	0.00e+00	0	43	0	4167041024	41	4333
2026-01-09 14:14:29.31	346.48	21.20	-36.2	-37.1	21.4	0.00e+00	0	43	0	4173332480	41	4326
2026-01-09 14:14:30.46	346.46	21.04	-36.3	-37.2	21.3	0.00e+00	0	43	0	4181721088	42	4114
2026-01-09 14:14:31.33	346.44	20.93	-36.3	-37.2	21.3	0.00e+00	0	43	0	4188012544	42	4125
2026-01-09 14:14:32.66	346.41	20.75	-36.4	-37.3	21.3	0.00e+00	0	43	0	4197449728	42	4156
2026-01-09 14:14:33.37	346.40	20.65	-36.3	-37.3	21.3	0.00e+00	0	43	0	4202692608	42	4149
2026-01-09 14:14:34.66	346.37	20.48	-36.4	-37.3	21.2	0.00e+00	0	43	0	4212129792	42	4171
2026-01-09 14:14:35.38	346.36	20.39	-36.4	-37.4	21.2	0.00e+00	0	43	0	4216324096	42	4196
2026-01-09 14:14:36.66	346.33	20.22	-36.5	-37.4	21.1	0.00e+00	0	43	0	4225761280	42	4232
2026-01-09 14:14:37.38	346.32	20.12	-36.5	-37.4	21.1	0.00e+00	0	43	0	4231004160	42	4218
2026-01-09 14:14:38.67	346.29	19.96	-36.4	-37.4	21.1	0.00e+00	0	43	0	4240441344	42	4217
2026-01-09 14:14:39.39	346.28	19.86	-36.5	-37.5	21.1	0.00e+00	0	43	0	4245684224	42	4243
2026-01-09 14:14:40.68	346.25	19.70	-36.5	-37.5	21.1	0.00e+00	0	43	0	4255121408	42	4244
2026-01-09 14:14:41.57	346.24	19.58	-36.5	-37.5	21.0	0.00e+00	0	43	0	4261412864	42	4254
2026-01-09 14:14:42.59	346.22	19.45	-36.5	-37.4	21.1	0.00e+00	0	43	0	4268752896	42	4232
2026-01-09 14:14:43.60	346.20	19.32	-36.6	-37.5	21.0	0.00e+00	0	43	0	4276092928	42	4279
2026-01-09 14:14:44.60	346.18	19.20	-36.6	-37.6	21.0	0.00e+00	0	43	0	4283432960	42	4305
2026-01-09 14:14:45.60	346.16	19.07	-36.6	-37.5	21.0	0.00e+00	0	43	0	4290772992	42	4290
2026-01-09 14:14:46.61	346.14	18.95	-36.6	-37.6	20.9	0.00e+00	0	43	0	4298113024	42	4301
2026-01-09 14:14:47.61	346.12	18.82	-36.7	-37.7	20.8	0.00e+00	0	43	0	4305453056	42	4361
2026-01-09 14:14:48.61	346.11	18.70	-36.5	-37.5	21.0	0.00e+00	0	43	0	4312793088	43	4024
2026-01-09 14:14:49.62	346.09	18.57	-36.6	-37.6	20.9	0.00e+00	0	43	0	4319084544	43	4070
2026-01-09 14:14:50.70	346.07	18.44	-36.6	-37.7	20.9	0.00e+00	0	43	0	4327473152	43	4104
2026-01-09 14:14:51.60	346.06	18.33	-36.7	-37.7	20.8	0.00e+00	0	43	0	4333764608	43	4124
2026-01-09 14:14:52.77	346.04	18.19	-36.7	-37.7	20.8	0.00e+00	0	43	0	4342153216	43	4129
2026-01-09 14:14:53.65	346.02	18.08	-36.7	-37.8	20.8	0.00e+00	0	43	0	4348444672	43	4149
2026-01-09 14:14:54.95	346.00	17.93	-36.7	-37.7	20.8	0.00e+00	0	43	0	4357881856	43	4135
2026-01-09 14:14:55.67	345.99	17.84	-36.7	-37.8	20.8	0.00e+00	0	43	0	4363124736	43	4146
2026-01-09 14:14:56.96	345.97	17.69	-36.7	-37.8	20.7	0.00e+00	0	43	0	4372561920	43	4183
2026-01-09 14:14:57.67	345.95	17.60	-36.7	-37.8	20.7	0.00e+00	0	43	0	4377804800	43	4180
2026-01-09 14:14:58.96	345.93	17.45	-36.8	-38.0	20.5	0.00e+00	0	43	0	4387241984	43	4248
2026-01-09 14:14:59.68	345.92	17.37	-36.8	-37.9	20.6	0.00e+00	0	43	0	4392484864	43	4242
2026-01-09 14:15:00.97	345.90	17.22	-36.8	-38.0	20.5	0.00e+00	0	43	0	4401922048	43	4251
2026-01-09 14:15:01.69	345.89	17.13	-36.8	-38.0	20.5	0.00e+00	0	43	0	4407164928	43	4253
2026-01-09 14:15:02.98	345.87	16.99	-36.9	-38.1	20.4	0.00e+00	0	43	0	4415553536	43	4298
2026-01-09 14:15:03.70	345.86	16.90	-36.9	-38.1	20.4	0.00e+00	0	43	0	4421844992	43	4306
2026-01-09 14:15:04.99	345.84	16.75	-36.9	-38.1	20.4	0.00e+00	0	43	0	4430233600	43	4311
2026-01-09 14:15:05.70	345.83	16.67	-37.0	-38.1	20.4	0.00e+00	0	43	0	4435476480	43	4322
2026-01-09 14:15:07.07	345.81	16.52	-37.1	-38.2	20.3	0.00e+00	0	43	0	4445962240	43	4381
2026-01-09 14:15:07.79	345.80	16.44	-37.1	-38.2	20.3	0.00e+00	0	43	0	4450156544	43	4387
2026-01-09 14:15:09.14	345.78	16.29	-37.2	-38.3	20.2	0.00e+00	0	43	0	4460642304	43	4405
2026-01-09 14:15:09.85	345.77	16.21	-37.5	-38.6	20.1	0.00e+00	0	43	0	4465885184	44	4296
2026-01-09 14:15:11.14	345.75	16.06	-37.5	-38.6	20.1	0.00e+00	0	43	0	4475322368	44	4311
2026-01-09 14:15:11.86	345.74	15.98	-37.5	-38.6	20.0	0.00e+00	0	43	0	4480565248	44	4316
2026-01-09 14:15:13.15	345.72	15.84	-37.5	-38.6	20.0	0.00e+00	0	43	0	4490002432	44	4335
2026-01-09 14:15:13.87	345.71	15.76	-37.6	-38.7	19.9	0.00e+00	0	43	0	4494196736	44	4391
2026-01-09 14:15:15.16	345.69	15.62	-37.5	-38.7	20.0	0.00e+00	0	43	0	4503633920	44	4345
2026-01-09 14:15:15.90	345.68	15.54	-37.7	-38.8	19.9	0.00e+00	0	43	0	4509925376	44	4411
2026-01-09 14:15:17.20	345.67	15.40	-37.7	-38.8	19.8	0.00e+00	0	43	0	4518313984	44	4430
2026-01-09 14:15:17.91	345.66	15.32	-37.7	-38.9	19.8	0.00e+00	0	43	0	4523556864	44	4465
2026-01-09 14:15:19.20	345.64	15.19	-37.7	-38.9	19.8	0.00e+00	0	43	0	4532994048	44	4465
2026-01-09 14:15:19.92	345.63	15.11	-37.8	-39.0	19.7	0.00e+00	0	43	0	4538236928	45	4269
2026-01-09 14:15:21.21	345.61	14.97	-37.8	-39.0	19.7	0.00e+00	0	43	0	4547674112	45	4254
2026-01-09 14:15:21.93	345.60	14.90	-38.0	-39.1	19.5	0.00e+00	0	43	0	4552916992	45	4325
2026-01-09 14:15:23.25	345.59	14.76	-37.9	-39.0	19.6	0.00e+00	0	43	0	4562354176	45	4285
2026-01-09 14:15:23.97	345.58	14.68	-38.0	-39.1	19.6	0.00e+00	0	43	0	4567597056	45	4316
2026-01-09 14:15:25.25	345.56	14.55	-38.0	-39.1	19.5	0.00e+00	0	43	0	4577034240	45	4327
2026-01-09 14:15:25.97	345.55	14.47	-38.0	-39.2	19.5	0.00e+00	0	43	0	4582277120	45	4354
2026-01-09 14:15:27.26	345.54	14.34	-38.1	-39.2	19.5	0.00e+00	0	43	0	4591714304	45	4374
2026-01-09 14:15:27.98	345.53	14.26	-38.2	-39.3	19.3	0.00e+00	0	43	0	4595908608	45	4423
2026-01-09 14:15:29.27	345.51	14.13	-38.2	-39.4	19.3	0.00e+00	0	43	0	4605345792	45	4451
2026-01-09 14:15:29.99	345.51	14.06	-38.2	-39.3	19.4	0.00e+00	0	43	0	4610588672	45	4431
2026-01-09 14:15:31.27	345.49	13.93	-38.3	-39.4	19.2	0.00e+00	0	43	0	4620025856	46	4219
2026-01-09 14:15:31.99	345.48	13.86	-38.3	-39.4	19.3	0.00e+00	0	43	0	4625268736	46	4233
2026-01-09 14:15:33.28	345.47	13.73	-38.3	-39.4	19.3	0.00e+00	0	43	0	4634705920	46	4218
2026-01-09 14:15:34.00	345.46	13.65	-38.4	-39.5	19.2	0.00e+00	0	43	0	4639948800	46	4258
2026-01-09 14:15:35.29	345.44	13.52	-38.4	-39.5	19.2	0.00e+00	0	43	0	4649385984	46	4259
2026-01-09 14:15:36.01	345.44	13.45	-38.4	-39.5	19.2	0.00e+00	0	43	0	4654628864	46	4271
2026-01-09 14:15:37.29	345.42	13.32	-38.4	-39.6	19.1	0.00e+00	0	43	0	4664066048	46	4301
2026-01-09 14:15:38.01	345.41	13.25	-38.5	-39.6	19.1	0.00e+00	0	43	0	4669308928	46	4321
2026-01-09 14:15:39.30	345.40	13.13	-38.5	-39.6	19.0	0.00e+00	0	43	0	4678746112	46	4329
2026-01-09 14:15:40.01	345.39	13.06	-38.4	-39.6	19.1	0.00e+00	0	43	0	4682940416	46	4322
2026-01-09 14:15:41.31	345.38	12.93	-38.4	-39.6	19.0	0.00e+00	0	43	0	4692377600	46	4337
2026-01-09 14:15:42.02	345.37	12.86	-38.4	-39.6	19.0	0.00e+00	0	43	0	4697620480	46	4328
2026-01-09 14:15:43.31	345.36	12.74	-38.5	-39.8	18.9	0.00e+00	0	43	0	4707057664	46	4395
2026-01-09 14:15:44.03	345.35	12.67	-38.5	-39.7	18.9	0.00e+00	0	43	0	4712300544	46	4380
2026-01-09 14:15:45.32	345.34	12.54	-38.5	-39.8	18.9	0.00e+00	0	43	0	4721737728	46	4393
2026-01-09 14:15:46.03	345.33	12.47	-38.6	-39.8	18.9	0.00e+00	0	43	0	4726980608	46	4414
2026-01-09 14:15:47.32	345.31	12.35	-38.6	-39.8	18.9	0.00e+00	0	43	0	4736417792	46	4401
2026-01-09 14:15:48.17	345.31	12.27	-38.6	-39.8	18.8	0.00e+00	0	43	0	4742709248	46	4441
2026-01-09 14:15:49.63	345.29	12.13	-38.8	-40.0	18.7	0.00e+00	0	43	0	4753195008	46	4501
2026-01-09 14:15:50.35	345.28	12.06	-38.7	-40.0	18.7	0.00e+00	0	43	0	4758437888	46	4494
2026-01-09 14:15:51.64	345.27	11.94	-38.7	-39.9	18.8	0.00e+00	0	43	0	4767875072	46	4457
2026-01-09 14:15:52.36	345.26	11.88	-38.8	-40.0	18.7	0.00e+00	0	43	0	4772069376	47	4252
2026-01-09 14:15:53.65	345.25	11.76	-38.6	-39.8	18.8	0.00e+00	0	43	0	4781506560	47	4188
2026-01-09 14:15:54.37	345.25	11.69	-38.7	-39.9	18.7	0.00e+00	0	43	0	4786749440	47	4235
2026-01-09 14:15:55.66	345.23	11.57	-38.7	-39.9	18.6	0.00e+00	0	43	0	4796186624	47	4241
2026-01-09 14:15:56.37	345.23	11.50	-38.7	-40.0	18.6	0.00e+00	0	43	0	4801429504	47	4253
2026-01-09 14:15:57.66	345.21	11.39	-38.7	-40.0	18.6	0.00e+00	0	43	0	4810866688	47	4257
2026-01-09 14:15:58.38	345.21	11.32	-38.7	-40.0	18.6	0.00e+00	0	43	0	4816109568	47	4262
