passes_logs/2026/01/09/T1/T1__20260109_154606_FENGYUN_3E_rec.log

#Pass ID: 20260109_154606_FENGYUN 3E
#Satellite: FENGYUN 3E
#Configuration: FENGYUN 3E
#almurnet v.1.7.20251203
#Start time: 2026-01-09 15:46:07

#Version: 2.0.20230620
#Station: T1
#Location: 37.570604 lon 55.790049 lat
#TLE: 1 49008U 21062A   26008.59312205 -.00000223  00000+0 -84486-4 0  9997
#TLE: 2 49008  98.7483  13.7961 0001692 149.3118 210.8157 14.19883502233939

#Time	Az	El	Level	Level2	SNR	BER	BlckErr	Temp	State	Recorded	gain1	gain2
2026-01-09 15:46:07.38	211.72	5.06	-49.1	-59.8	3.8	8.46e-01	0	41	0	0	68	12424
2026-01-09 15:46:08.38	211.81	5.12	-49.0	-59.7	3.8	8.46e-01	0	42	104	0	68	12253
2026-01-09 15:46:09.39	211.90	5.18	-49.0	-59.8	3.8	8.47e-01	0	42	104	0	68	12423
2026-01-09 15:46:10.39	211.99	5.23	-49.0	-59.8	3.8	8.46e-01	0	42	104	0	68	12388
2026-01-09 15:46:11.40	212.08	5.29	-49.0	-59.8	3.8	8.46e-01	0	42	104	0	68	12447
2026-01-09 15:46:12.40	212.17	5.35	-49.0	-59.7	3.8	8.47e-01	0	42	104	0	68	12309
2026-01-09 15:46:13.41	212.26	5.41	-49.0	-59.7	3.8	8.47e-01	0	42	104	0	68	12271
2026-01-09 15:46:14.41	212.35	5.47	-49.0	-59.7	3.8	8.46e-01	0	42	104	0	68	12324
2026-01-09 15:46:15.41	212.44	5.53	-49.0	-59.8	3.8	8.46e-01	0	42	104	0	68	12423
2026-01-09 15:46:16.42	212.53	5.59	-49.0	-59.8	3.8	8.47e-01	0	42	104	0	68	12446
2026-01-09 15:46:17.42	212.62	5.65	-49.0	-59.8	3.8	8.46e-01	0	42	104	0	68	12475
2026-01-09 15:46:18.43	212.71	5.71	-49.0	-59.7	3.8	8.47e-01	0	42	104	0	68	12298
2026-01-09 15:46:19.43	212.80	5.77	-49.0	-59.7	3.8	8.48e-01	0	42	104	0	68	12255
2026-01-09 15:46:20.43	212.89	5.83	-49.0	-59.5	3.8	8.46e-01	0	42	104	0	68	12070
2026-01-09 15:46:21.44	212.99	5.89	-49.0	-59.6	3.8	8.47e-01	0	42	104	0	68	12155
2026-01-09 15:46:22.45	213.08	5.95	-49.0	-59.6	3.8	8.48e-01	0	42	104	0	68	12137
2026-01-09 15:46:23.45	213.17	6.01	-49.0	-59.5	3.8	8.47e-01	0	42	104	0	68	12051
2026-01-09 15:46:24.45	213.27	6.07	-48.9	-59.5	3.8	8.47e-01	0	42	104	0	68	12026
2026-01-09 15:46:25.46	213.36	6.14	-49.0	-59.5	3.8	8.47e-01	0	42	104	0	68	12044
2026-01-09 15:46:26.46	213.46	6.20	-49.0	-59.5	3.8	8.47e-01	0	42	104	0	68	11986
2026-01-09 15:46:27.47	213.55	6.26	-48.9	-59.5	3.8	8.46e-01	0	43	104	0	68	12030
2026-01-09 15:46:28.47	213.65	6.32	-48.9	-59.6	3.8	8.47e-01	0	42	104	0	68	12110
2026-01-09 15:46:29.48	213.74	6.38	-48.9	-59.6	3.8	8.47e-01	0	43	104	0	68	12187
2026-01-09 15:46:30.48	213.84	6.44	-49.0	-59.7	3.8	8.48e-01	0	43	104	0	68	12292
2026-01-09 15:46:31.49	213.94	6.50	-49.0	-59.7	3.8	8.48e-01	0	43	104	0	68	12327
2026-01-09 15:46:32.49	214.03	6.56	-49.0	-59.7	3.8	8.47e-01	0	42	104	0	68	12267
2026-01-09 15:46:33.49	214.13	6.62	-49.0	-59.5	3.8	8.47e-01	0	43	104	0	68	11997
2026-01-09 15:46:34.50	214.23	6.68	-48.9	-59.4	3.8	8.47e-01	0	43	104	0	68	11897
2026-01-09 15:46:35.50	214.32	6.75	-48.9	-59.3	3.8	8.47e-01	0	43	104	0	68	11786
2026-01-09 15:46:36.51	214.42	6.81	-48.9	-59.3	3.8	8.48e-01	0	43	104	0	68	11772
2026-01-09 15:46:37.51	214.52	6.87	-48.9	-59.3	3.8	8.47e-01	0	43	104	0	68	11766
2026-01-09 15:46:38.51	214.62	6.93	-48.9	-59.2	3.8	8.47e-01	0	43	104	0	68	11603
2026-01-09 15:46:39.52	214.72	6.99	-48.9	-59.1	3.8	8.46e-01	0	43	104	0	68	11482
2026-01-09 15:46:40.53	214.82	7.05	-48.9	-58.9	3.8	8.47e-01	0	43	104	0	68	11254
2026-01-09 15:46:41.53	214.92	7.12	-48.9	-58.5	3.8	8.48e-01	0	43	104	0	68	10709
2026-01-09 15:46:42.53	215.02	7.18	-48.7	-58.0	3.8	8.47e-01	0	43	104	0	68	10076
2026-01-09 15:46:43.54	215.12	7.24	-48.7	-57.7	3.8	8.47e-01	0	43	104	0	68	9746
2026-01-09 15:46:44.54	215.22	7.30	-48.6	-57.4	3.8	8.45e-01	0	43	104	0	68	9416
2026-01-09 15:46:45.55	215.33	7.36	-48.7	-57.3	4.0	8.45e-01	0	43	104	0	68	9302
2026-01-09 15:46:46.55	215.43	7.43	-48.7	-57.3	4.0	8.46e-01	0	43	104	0	68	9352
2026-01-09 15:46:47.55	215.53	7.49	-48.7	-57.7	3.9	8.46e-01	0	43	104	0	68	9766
2026-01-09 15:46:48.56	215.64	7.55	-48.8	-58.3	3.8	8.47e-01	0	43	104	0	68	10479
2026-01-09 15:46:49.56	215.74	7.61	-48.8	-58.6	3.8	8.46e-01	0	43	104	0	68	10808
2026-01-09 15:46:50.57	215.84	7.68	-48.9	-58.9	3.8	8.48e-01	0	43	104	0	68	11158
2026-01-09 15:46:51.57	215.95	7.74	-48.9	-59.0	3.8	8.48e-01	0	43	104	0	68	11311
2026-01-09 15:46:52.58	216.05	7.80	-48.9	-58.7	3.8	8.47e-01	0	43	104	0	68	11019
2026-01-09 15:46:53.58	216.16	7.86	-48.9	-58.5	3.8	8.47e-01	0	43	104	0	68	10727
2026-01-09 15:46:54.59	216.27	7.93	-48.8	-58.3	3.8	8.47e-01	0	43	104	0	68	10482
2026-01-09 15:46:55.59	216.37	7.99	-48.7	-57.6	3.8	8.46e-01	0	43	104	0	68	9660
2026-01-09 15:46:56.59	216.48	8.05	-48.2	-55.5	4.4	8.39e-01	0	43	0	0	67	8012
2026-01-09 15:46:57.60	216.59	8.11	-47.5	-52.7	5.9	7.40e-01	0	43	0	0	65	6539
2026-01-09 15:46:58.60	216.69	8.18	-46.3	-49.9	8.5	5.62e-02	0	43	0	7340032	63	5299
2026-01-09 15:46:59.60	216.80	8.24	-44.9	-47.4	11.1	5.90e-03	0	43	0	14680064	60	4757
2026-01-09 15:47:00.61	216.91	8.30	-43.3	-45.1	13.4	4.11e-05	0	43	0	20971520	57	4321
2026-01-09 15:47:01.61	217.02	8.37	-41.9	-43.5	15.0	1.10e-06	0	43	0	28311552	54	4248
2026-01-09 15:47:02.62	217.13	8.43	-41.1	-42.4	16.0	0.00e+00	0	43	0	35651584	53	3998
2026-01-09 15:47:03.62	217.24	8.49	-40.5	-41.8	16.7	0.00e+00	0	43	0	42991616	51	4161
2026-01-09 15:47:04.63	217.35	8.56	-40.6	-41.9	16.6	0.00e+00	0	43	0	50331648	51	4225
2026-01-09 15:47:05.63	217.46	8.62	-40.6	-41.9	16.6	0.00e+00	0	43	0	57671680	51	4224
2026-01-09 15:47:06.63	217.57	8.68	-41.0	-42.4	16.1	0.00e+00	0	43	0	65011712	51	4460
2026-01-09 15:47:07.64	217.68	8.75	-41.4	-42.8	15.6	0.00e+00	0	43	0	72351744	52	4433
2026-01-09 15:47:08.64	217.80	8.81	-42.4	-44.0	14.5	0.00e+00	0	43	0	79691776	54	4528
2026-01-09 15:47:09.65	217.91	8.88	-43.4	-45.3	13.3	1.83e-05	0	43	0	87031808	56	4682
2026-01-09 15:47:10.65	218.02	8.94	-44.2	-46.3	12.2	1.73e-04	0	43	0	94371840	57	4965
2026-01-09 15:47:11.65	218.14	9.00	-44.7	-47.2	11.4	1.02e-03	0	43	0	101711872	58	5169
2026-01-09 15:47:12.66	218.25	9.07	-45.3	-48.1	10.5	4.49e-03	0	44	0	108003328	60	5115
2026-01-09 15:47:13.66	218.36	9.13	-46.8	-50.1	8.6	1.24e-02	0	44	0	115343360	62	5744
2026-01-09 15:47:14.67	218.48	9.20	-45.2	-48.0	10.7	4.71e-03	0	43	0	122683392	61	4764
2026-01-09 15:47:15.67	218.60	9.26	-43.3	-45.3	13.3	6.95e-04	0	43	0	130023424	57	4419
2026-01-09 15:47:16.67	218.71	9.32	-46.4	-50.1	8.4	1.55e-03	0	43	0	137363456	62	5788
2026-01-09 15:47:17.66	218.83	9.39	-44.8	-47.4	11.1	2.63e-02	0	43	0	144703488	60	4755
2026-01-09 15:47:18.66	218.94	9.45	-43.2	-45.1	13.5	2.17e-05	0	43	0	152043520	57	4317
2026-01-09 15:47:19.67	219.06	9.52	-42.2	-44.0	14.4	5.70e-06	0	43	0	159383552	55	4287
2026-01-09 15:47:20.67	219.18	9.58	-41.6	-43.4	15.1	0.00e+00	0	43	0	166723584	54	4232
2026-01-09 15:47:21.74	219.31	9.65	-41.3	-42.9	15.6	0.00e+00	0	44	0	174063616	53	4228
2026-01-09 15:47:22.63	219.41	9.71	-41.4	-43.1	15.4	0.00e+00	0	43	0	180355072	53	4307
2026-01-09 15:47:23.67	219.54	9.77	-41.2	-42.9	15.6	0.00e+00	0	44	0	187695104	52	4446
2026-01-09 15:47:24.66	219.65	9.84	-41.3	-43.0	15.6	0.00e+00	0	43	0	195035136	52	4503
2026-01-09 15:47:25.67	219.78	9.90	-41.0	-42.6	16.0	0.00e+00	0	44	0	202375168	52	4293
2026-01-09 15:47:26.67	219.90	9.97	-40.7	-42.1	16.5	0.00e+00	0	43	0	209715200	52	4071
2026-01-09 15:47:27.68	220.02	10.03	-40.7	-42.0	16.7	0.00e+00	0	44	0	217055232	51	4260
2026-01-09 15:47:28.68	220.14	10.10	-41.1	-42.5	16.1	0.00e+00	0	44	0	224395264	51	4536
2026-01-09 15:47:29.68	220.26	10.16	-40.8	-42.1	16.5	0.00e+00	0	43	0	231735296	51	4334
2026-01-09 15:47:30.68	220.39	10.23	-40.8	-42.1	16.5	0.00e+00	0	44	0	239075328	51	4338
2026-01-09 15:47:31.68	220.51	10.29	-40.4	-41.6	17.1	0.00e+00	0	44	0	246415360	51	4096
2026-01-09 15:47:32.68	220.63	10.36	-40.5	-41.8	16.8	0.00e+00	0	44	0	252706816	51	4188
2026-01-09 15:47:33.69	220.76	10.42	-40.1	-41.4	17.3	0.00e+00	0	44	0	260046848	51	3989
2026-01-09 15:47:34.69	220.88	10.49	-40.2	-41.5	17.3	0.00e+00	0	44	0	267386880	50	4247
2026-01-09 15:47:35.76	221.02	10.56	-40.0	-41.3	17.5	0.00e+00	0	43	0	274726912	50	4147
2026-01-09 15:47:36.65	221.13	10.62	-40.0	-41.3	17.5	0.00e+00	0	44	0	282066944	50	4160
2026-01-09 15:47:37.79	221.27	10.69	-39.9	-41.2	17.6	0.00e+00	0	44	0	290455552	50	4117
2026-01-09 15:47:38.65	221.38	10.75	-39.7	-40.9	17.8	0.00e+00	0	44	0	295698432	50	3996
2026-01-09 15:47:39.79	221.53	10.82	-39.6	-40.8	18.0	0.00e+00	0	44	0	304087040	49	4147
2026-01-09 15:47:40.80	221.66	10.89	-39.4	-40.5	18.2	0.00e+00	0	44	0	311427072	49	4050
2026-01-09 15:47:41.80	221.79	10.95	-39.6	-40.7	18.0	0.00e+00	0	44	0	318767104	49	4128
2026-01-09 15:47:42.81	221.92	11.02	-39.4	-40.5	18.3	0.00e+00	0	44	0	326107136	49	4037
2026-01-09 15:47:43.81	222.05	11.08	-39.4	-40.6	18.2	0.00e+00	0	44	0	333447168	49	4060
2026-01-09 15:47:44.81	222.18	11.15	-39.3	-40.5	18.3	0.00e+00	0	44	0	340787200	49	4007
2026-01-09 15:47:45.81	222.31	11.21	-39.2	-40.3	18.5	0.00e+00	0	44	0	348127232	49	3926
2026-01-09 15:47:46.82	222.44	11.28	-39.3	-40.4	18.4	0.00e+00	0	44	0	355467264	49	3980
2026-01-09 15:47:47.82	222.58	11.35	-39.3	-40.4	18.4	0.00e+00	0	44	0	361758720	49	3966
2026-01-09 15:47:48.82	222.71	11.41	-39.1	-40.1	18.6	0.00e+00	0	43	0	369098752	48	4093
2026-01-09 15:47:49.82	222.84	11.48	-39.4	-40.5	18.3	0.00e+00	0	44	0	377487360	48	4289
2026-01-09 15:47:50.82	222.98	11.54	-39.0	-40.1	18.7	0.00e+00	0	44	0	383778816	48	4078
2026-01-09 15:47:51.87	223.12	11.61	-39.2	-40.3	18.5	0.00e+00	0	44	0	392167424	48	4150
2026-01-09 15:47:52.75	223.24	11.67	-39.4	-40.5	18.3	0.00e+00	0	44	0	397410304	48	4271
2026-01-09 15:47:54.09	223.42	11.76	-39.3	-40.4	18.4	0.00e+00	0	44	0	407896064	48	4213
2026-01-09 15:47:54.80	223.52	11.81	-39.5	-40.6	18.2	0.00e+00	0	44	0	413138944	48	4307
2026-01-09 15:47:56.09	223.69	11.89	-39.4	-40.5	18.3	0.00e+00	0	44	0	422576128	48	4261
2026-01-09 15:47:56.81	223.79	11.94	-39.5	-40.6	18.2	0.00e+00	0	44	0	426770432	48	4315
2026-01-09 15:47:58.10	223.97	12.02	-39.2	-40.3	18.6	0.00e+00	0	44	0	436207616	48	4147
2026-01-09 15:47:58.82	224.07	12.07	-39.1	-40.2	18.7	0.00e+00	0	44	0	441450496	48	4121
2026-01-09 15:48:00.11	224.25	12.16	-39.0	-40.0	18.8	0.00e+00	0	44	0	450887680	48	4034
2026-01-09 15:48:00.95	224.37	12.21	-39.0	-40.1	18.8	0.00e+00	0	44	0	457179136	48	4064
2026-01-09 15:48:02.10	224.53	12.29	-39.0	-40.0	18.8	0.00e+00	0	44	0	465567744	48	4045
2026-01-09 15:48:02.96	224.65	12.35	-39.0	-40.1	18.8	0.00e+00	0	44	0	471859200	48	4062
2026-01-09 15:48:04.10	224.81	12.42	-39.2	-40.2	18.6	0.00e+00	0	44	0	480247808	48	4136
2026-01-09 15:48:04.96	224.94	12.48	-39.2	-40.2	18.6	0.00e+00	0	44	0	485490688	48	4144
2026-01-09 15:48:06.11	225.10	12.55	-39.1	-40.2	18.7	0.00e+00	0	44	0	493879296	48	4116
2026-01-09 15:48:07.30	225.27	12.63	-39.2	-40.3	18.6	0.00e+00	0	44	0	503316480	48	4151
2026-01-09 15:48:08.34	225.42	12.70	-39.2	-40.3	18.6	0.00e+00	0	44	0	510656512	48	4154
2026-01-09 15:48:09.33	225.57	12.77	-39.0	-40.0	18.8	0.00e+00	0	44	0	517996544	48	4048
2026-01-09 15:48:10.55	225.74	12.85	-39.0	-40.0	18.9	0.00e+00	0	44	0	526385152	48	4039
2026-01-09 15:48:11.41	225.87	12.91	-38.9	-39.9	19.0	0.00e+00	0	44	0	532676608	48	3996
2026-01-09 15:48:12.55	226.04	12.98	-38.9	-39.9	19.0	0.00e+00	0	44	0	541065216	48	3999
2026-01-09 15:48:13.42	226.17	13.04	-38.7	-39.8	19.1	0.00e+00	0	44	0	547356672	48	3926
2026-01-09 15:48:14.56	226.34	13.11	-38.8	-39.8	19.1	0.00e+00	0	44	0	555745280	48	3926
2026-01-09 15:48:15.42	226.46	13.17	-38.6	-39.7	19.2	0.00e+00	0	44	0	562036736	48	3878
2026-01-09 15:48:16.56	226.63	13.25	-38.9	-39.9	19.0	0.00e+00	0	44	0	569376768	48	3989
2026-01-09 15:48:17.42	226.76	13.30	-38.8	-39.8	19.1	0.00e+00	0	44	0	576716800	48	3950
2026-01-09 15:48:18.57	226.94	13.38	-38.7	-39.7	19.2	0.00e+00	0	44	0	584056832	48	3895
2026-01-09 15:48:19.43	227.07	13.44	-38.7	-39.7	19.2	0.00e+00	0	44	0	590348288	48	3910
2026-01-09 15:48:20.57	227.24	13.51	-38.4	-39.4	19.2	0.00e+00	0	44	0	598736896	47	4001
2026-01-09 15:48:21.43	227.37	13.57	-38.6	-39.7	19.0	0.00e+00	0	44	0	605028352	47	4105
2026-01-09 15:48:22.61	227.56	13.65	-38.2	-39.2	19.5	0.00e+00	0	44	0	613416960	47	3894
2026-01-09 15:48:23.47	227.69	13.71	-38.1	-39.1	19.5	0.00e+00	0	44	0	619708416	47	3860
2026-01-09 15:48:24.62	227.87	13.78	-38.1	-39.0	19.6	0.00e+00	0	44	0	628097024	46	4051
2026-01-09 15:48:25.48	228.00	13.84	-38.2	-39.2	19.5	0.00e+00	0	44	0	634388480	46	4115
2026-01-09 15:48:26.62	228.18	13.92	-38.1	-39.1	19.6	0.00e+00	0	44	0	642777088	46	4095
2026-01-09 15:48:27.48	228.32	13.97	-38.3	-39.3	19.4	0.00e+00	0	44	0	649068544	46	4155
2026-01-09 15:48:28.63	228.50	14.05	-38.2	-39.3	19.4	0.00e+00	0	44	0	657457152	46	4150
2026-01-09 15:48:29.49	228.63	14.11	-38.3	-39.3	19.4	0.00e+00	0	44	0	662700032	46	4189
2026-01-09 15:48:30.64	228.82	14.18	-38.3	-39.4	19.4	0.00e+00	0	44	0	671088640	46	4207
2026-01-09 15:48:31.50	228.95	14.24	-38.4	-39.5	19.3	0.00e+00	0	44	0	677380096	46	4260
2026-01-09 15:48:32.64	229.14	14.31	-38.3	-39.3	19.4	0.00e+00	0	44	0	685768704	46	4167
2026-01-09 15:48:33.79	229.32	14.39	-38.4	-39.4	19.3	0.00e+00	0	44	0	694157312	46	4235
2026-01-09 15:48:34.83	229.49	14.46	-38.4	-39.5	19.2	0.00e+00	0	44	0	701497344	46	4266
2026-01-09 15:48:35.82	229.65	14.52	-38.4	-39.5	19.3	0.00e+00	0	44	0	708837376	46	4248
2026-01-09 15:48:36.83	229.82	14.59	-38.3	-39.3	19.4	0.00e+00	0	44	0	716177408	46	4166
2026-01-09 15:48:37.83	229.98	14.66	-38.4	-39.4	19.3	0.00e+00	0	44	0	723517440	46	4227
2026-01-09 15:48:38.83	230.15	14.72	-38.2	-39.2	19.5	0.00e+00	0	44	0	730857472	46	4126
2026-01-09 15:48:39.83	230.31	14.79	-38.0	-39.0	19.7	0.00e+00	0	44	0	738197504	46	4008
2026-01-09 15:48:40.83	230.48	14.85	-38.1	-39.1	19.7	0.00e+00	0	44	0	745537536	46	4056
2026-01-09 15:48:41.83	230.65	14.92	-38.0	-39.0	19.8	0.00e+00	0	44	0	751828992	46	4018
2026-01-09 15:48:42.84	230.82	14.99	-38.1	-39.1	19.7	0.00e+00	0	44	0	759169024	46	4056
2026-01-09 15:48:43.84	230.99	15.05	-38.1	-39.1	19.6	0.00e+00	0	44	0	766509056	46	4070
2026-01-09 15:48:44.85	231.16	15.12	-37.9	-38.9	19.8	0.00e+00	0	44	0	773849088	46	4002
2026-01-09 15:48:45.85	231.33	15.18	-38.1	-39.1	19.7	0.00e+00	0	44	0	781189120	46	4059
2026-01-09 15:48:46.86	231.50	15.25	-38.1	-39.1	19.6	0.00e+00	0	44	0	788529152	46	4093
2026-01-09 15:48:47.86	231.67	15.32	-38.1	-39.1	19.6	0.00e+00	0	44	0	795869184	46	4092
2026-01-09 15:48:48.86	231.84	15.38	-37.9	-38.9	19.8	0.00e+00	0	44	0	803209216	46	3983
2026-01-09 15:48:49.91	232.03	15.45	-37.8	-38.8	19.9	0.00e+00	0	44	0	810549248	46	3949
2026-01-09 15:48:50.83	232.19	15.51	-37.8	-38.7	20.0	0.00e+00	0	44	0	816840704	46	3910
2026-01-09 15:48:51.84	232.36	15.58	-37.8	-38.8	19.9	0.00e+00	0	44	0	824180736	46	3945
2026-01-09 15:48:52.84	232.54	15.64	-37.9	-38.9	19.9	0.00e+00	0	44	0	831520768	46	3959
2026-01-09 15:48:53.84	232.71	15.71	-37.9	-38.9	19.9	0.00e+00	0	44	0	838860800	46	3959
2026-01-09 15:48:54.85	232.89	15.77	-37.7	-38.7	20.1	0.00e+00	0	44	0	846200832	46	3896
2026-01-09 15:48:55.85	233.07	15.84	-37.8	-38.8	20.0	0.00e+00	0	44	0	853540864	46	3934
2026-01-09 15:48:56.85	233.25	15.90	-37.8	-38.7	20.0	0.00e+00	0	44	0	860880896	46	3912
2026-01-09 15:48:57.86	233.43	15.97	-37.8	-38.8	20.0	0.00e+00	0	44	0	868220928	46	3922
2026-01-09 15:48:58.86	233.61	16.03	-37.7	-38.7	20.1	0.00e+00	0	44	0	875560960	46	3896
2026-01-09 15:48:59.86	233.79	16.10	-37.7	-38.6	20.1	0.00e+00	0	44	0	881852416	46	3866
2026-01-09 15:49:00.87	233.97	16.16	-37.8	-38.7	20.1	0.00e+00	0	44	0	890241024	46	3905
2026-01-09 15:49:01.94	234.17	16.23	-37.7	-38.7	20.1	0.00e+00	0	44	0	897581056	46	3874
2026-01-09 15:49:02.83	234.33	16.29	-37.7	-38.7	20.1	0.00e+00	0	44	0	903872512	46	3904
2026-01-09 15:49:03.97	234.54	16.36	-37.7	-38.7	20.1	0.00e+00	0	44	0	912261120	46	3875
2026-01-09 15:49:04.83	234.70	16.42	-37.7	-38.7	20.1	0.00e+00	0	44	0	918552576	46	3879
2026-01-09 15:49:05.98	234.91	16.49	-37.8	-38.8	20.0	0.00e+00	0	44	0	926941184	46	3915
2026-01-09 15:49:06.84	235.07	16.54	-37.6	-38.5	20.2	0.00e+00	0	44	0	933232640	46	3821
2026-01-09 15:49:07.98	235.28	16.62	-37.6	-38.5	20.2	0.00e+00	0	44	0	941621248	45	4038
2026-01-09 15:49:08.84	235.45	16.67	-37.6	-38.6	20.2	0.00e+00	0	44	0	946864128	45	4063
2026-01-09 15:49:09.99	235.66	16.74	-37.5	-38.5	20.2	0.00e+00	0	44	0	955252736	45	4028
2026-01-09 15:49:10.85	235.82	16.80	-37.5	-38.5	20.3	0.00e+00	0	44	0	961544192	45	4028
2026-01-09 15:49:12.00	236.04	16.87	-37.4	-38.4	20.4	0.00e+00	0	44	0	969932800	45	3961
2026-01-09 15:49:12.85	236.20	16.92	-37.5	-38.5	20.3	0.00e+00	0	44	0	976224256	45	4029
2026-01-09 15:49:14.00	236.42	17.00	-37.6	-38.5	20.2	0.00e+00	0	44	0	984612864	45	4051
2026-01-09 15:49:14.86	236.59	17.05	-37.6	-38.5	20.2	0.00e+00	0	44	0	990904320	45	4047
2026-01-09 15:49:16.01	236.81	17.12	-37.4	-38.4	20.4	0.00e+00	0	44	0	999292928	45	3968
2026-01-09 15:49:16.86	236.98	17.18	-37.4	-38.4	20.4	0.00e+00	0	44	0	1004535808	45	3969
2026-01-09 15:49:18.01	237.20	17.25	-37.4	-38.3	20.4	0.00e+00	0	44	0	1012924416	45	3952
2026-01-09 15:49:18.87	237.37	17.30	-37.3	-38.3	20.5	0.00e+00	0	44	0	1020264448	45	3935
2026-01-09 15:49:20.02	237.59	17.37	-37.3	-38.2	20.6	0.00e+00	0	44	0	1027604480	45	3899
2026-01-09 15:49:20.87	237.76	17.42	-37.4	-38.3	20.5	0.00e+00	0	44	0	1033895936	45	3949
2026-01-09 15:49:22.02	237.99	17.50	-37.4	-38.4	20.4	0.00e+00	0	44	0	1042284544	45	3968
2026-01-09 15:49:22.88	238.16	17.55	-37.4	-38.3	20.5	0.00e+00	0	44	0	1048576000	45	3941
2026-01-09 15:49:24.03	238.39	17.62	-37.3	-38.3	20.5	0.00e+00	0	44	0	1056964608	45	3931
2026-01-09 15:49:24.88	238.56	17.67	-37.4	-38.4	20.5	0.00e+00	0	44	0	1063256064	45	3960
2026-01-09 15:49:26.03	238.79	17.74	-37.3	-38.3	20.5	0.00e+00	0	44	0	1071644672	45	3922
2026-01-09 15:49:26.89	238.96	17.79	-37.5	-38.4	20.4	0.00e+00	0	44	0	1077936128	45	3983
2026-01-09 15:49:28.15	239.22	17.87	-37.4	-38.3	20.4	0.00e+00	0	44	0	1086324736	45	3958
2026-01-09 15:49:28.91	239.37	17.91	-37.3	-38.3	20.5	0.00e+00	0	44	0	1091567616	45	3922
2026-01-09 15:49:30.19	239.63	17.99	-37.4	-38.4	20.4	0.00e+00	0	44	0	1101004800	45	3974
2026-01-09 15:49:30.91	239.78	18.03	-37.4	-38.3	20.4	0.00e+00	0	44	0	1106247680	45	3958
2026-01-09 15:49:32.20	240.05	18.11	-37.3	-38.3	20.6	0.00e+00	0	44	0	1115684864	45	3918
2026-01-09 15:49:32.92	240.19	18.15	-37.2	-38.1	20.7	0.00e+00	0	44	0	1120927744	45	3848
2026-01-09 15:49:34.20	240.46	18.23	-37.1	-38.0	20.8	0.00e+00	0	44	0	1130364928	44	4012
2026-01-09 15:49:34.92	240.61	18.27	-37.1	-38.0	20.8	0.00e+00	0	44	0	1135607808	44	4027
2026-01-09 15:49:36.21	240.88	18.35	-37.2	-38.1	20.7	0.00e+00	0	44	0	1145044992	44	4064
2026-01-09 15:49:37.09	241.06	18.40	-37.1	-38.0	20.8	0.00e+00	0	44	0	1151336448	44	4026
2026-01-09 15:49:38.23	241.30	18.47	-37.0	-37.9	20.8	0.00e+00	0	44	0	1159725056	44	4000
2026-01-09 15:49:39.09	241.48	18.52	-37.0	-37.9	20.9	0.00e+00	0	44	0	1166016512	44	3987
2026-01-09 15:49:40.24	241.73	18.58	-37.1	-38.0	20.8	0.00e+00	0	44	0	1174405120	44	4037
2026-01-09 15:49:41.10	241.91	18.63	-37.0	-37.9	20.9	0.00e+00	0	44	0	1179648000	44	3981
2026-01-09 15:49:42.24	242.15	18.70	-37.0	-38.0	20.9	0.00e+00	0	44	0	1188036608	44	4012
2026-01-09 15:49:43.10	242.34	18.75	-37.0	-38.0	20.8	0.00e+00	0	44	0	1194328064	44	4010
2026-01-09 15:49:44.31	242.60	18.82	-37.1	-38.0	20.8	0.00e+00	0	44	0	1202716672	44	4025
2026-01-09 15:49:45.17	242.78	18.86	-37.1	-38.0	20.8	0.00e+00	0	44	0	1209008128	44	4014
2026-01-09 15:49:46.32	243.03	18.93	-37.1	-38.0	20.8	0.00e+00	0	44	0	1217396736	44	4020
2026-01-09 15:49:47.18	243.22	18.98	-37.1	-38.0	20.8	0.00e+00	0	44	0	1223688192	44	4025
2026-01-09 15:49:48.43	243.49	19.05	-37.1	-38.0	20.8	0.00e+00	0	44	0	1233125376	44	4040
2026-01-09 15:49:49.19	243.66	19.09	-37.3	-38.2	20.6	0.00e+00	0	44	0	1238368256	44	4133
2026-01-09 15:49:50.48	243.94	19.16	-37.2	-38.2	20.7	0.00e+00	0	44	0	1247805440	44	4109
2026-01-09 15:49:51.19	244.10	19.20	-37.2	-38.2	20.7	0.00e+00	0	44	0	1253048320	44	4100
2026-01-09 15:49:52.49	244.39	19.27	-37.1	-38.1	20.8	0.00e+00	0	44	0	1262485504	44	4056
2026-01-09 15:49:53.21	244.55	19.31	-37.0	-37.9	20.9	0.00e+00	0	44	0	1267728384	44	3991
2026-01-09 15:49:54.49	244.83	19.38	-37.2	-38.1	20.7	0.00e+00	0	44	0	1277165568	44	4080
2026-01-09 15:49:55.21	244.99	19.42	-37.2	-38.1	20.7	0.00e+00	0	44	0	1281359872	44	4064
2026-01-09 15:49:56.50	245.28	19.48	-37.3	-38.2	20.6	0.00e+00	0	44	0	1290797056	44	4122
2026-01-09 15:49:57.21	245.44	19.52	-37.3	-38.2	20.6	0.00e+00	0	44	0	1296039936	44	4125
2026-01-09 15:49:58.51	245.74	19.59	-37.3	-38.2	20.6	0.00e+00	0	44	0	1305477120	44	4142
2026-01-09 15:49:59.22	245.90	19.63	-37.3	-38.2	20.6	0.00e+00	0	44	0	1310720000	44	4138
2026-01-09 15:50:00.51	246.19	19.69	-37.3	-38.2	20.6	0.00e+00	0	44	0	1320157184	44	4138
2026-01-09 15:50:01.23	246.36	19.73	-37.2	-38.2	20.7	0.00e+00	0	44	0	1325400064	44	4099
2026-01-09 15:50:02.52	246.65	19.80	-37.2	-38.1	20.7	0.00e+00	0	44	0	1334837248	44	4098
2026-01-09 15:50:03.24	246.82	19.83	-37.2	-38.1	20.7	0.00e+00	0	44	0	1340080128	44	4082
2026-01-09 15:50:04.53	247.12	19.90	-37.0	-37.9	20.9	0.00e+00	0	44	0	1349517312	44	3977
2026-01-09 15:50:05.25	247.28	19.94	-36.9	-37.8	21.0	0.00e+00	0	44	0	1354760192	44	3941
2026-01-09 15:50:06.53	247.58	20.00	-36.7	-37.6	21.3	0.00e+00	0	44	0	1364197376	44	3831
2026-01-09 15:50:07.25	247.75	20.03	-36.8	-37.6	21.2	0.00e+00	0	44	0	1368391680	44	3865
2026-01-09 15:50:08.54	248.05	20.10	-36.6	-37.5	21.3	0.00e+00	0	44	0	1377828864	44	3818
2026-01-09 15:50:09.25	248.21	20.13	-36.7	-37.6	21.2	0.00e+00	0	44	0	1383071744	44	3855
2026-01-09 15:50:10.54	248.52	20.20	-36.8	-37.7	21.1	0.00e+00	0	44	0	1392508928	44	3887
2026-01-09 15:50:11.26	248.69	20.23	-36.8	-37.7	21.2	0.00e+00	0	44	0	1397751808	44	3875
2026-01-09 15:50:12.55	248.99	20.29	-36.7	-37.6	21.3	0.00e+00	0	44	0	1407188992	44	3837
2026-01-09 15:50:13.26	249.16	20.32	-36.8	-37.7	21.1	0.00e+00	0	44	0	1412431872	44	3869
2026-01-09 15:50:14.55	249.47	20.38	-36.7	-37.6	21.2	0.00e+00	0	44	0	1421869056	44	3851
2026-01-09 15:50:15.27	249.64	20.42	-36.7	-37.6	21.2	0.00e+00	0	44	0	1427111936	44	3860
2026-01-09 15:50:16.56	249.95	20.48	-36.8	-37.7	21.2	0.00e+00	0	44	0	1435500544	44	3877
2026-01-09 15:50:17.28	250.12	20.51	-36.8	-37.7	21.1	0.00e+00	0	44	0	1441792000	44	3892
2026-01-09 15:50:18.56	250.43	20.57	-37.0	-37.9	21.0	0.00e+00	0	44	0	1450180608	44	3993
2026-01-09 15:50:19.28	250.60	20.60	-37.0	-37.9	20.9	0.00e+00	0	44	0	1455423488	44	4000
2026-01-09 15:50:20.57	250.91	20.66	-36.9	-37.9	21.0	0.00e+00	0	44	0	1464860672	44	3964
2026-01-09 15:50:21.29	251.09	20.69	-37.0	-37.9	20.9	0.00e+00	0	44	0	1470103552	44	3980
2026-01-09 15:50:22.57	251.40	20.74	-37.0	-37.9	20.9	0.00e+00	0	44	0	1479540736	44	4003
2026-01-09 15:50:23.29	251.57	20.77	-37.0	-38.0	20.9	0.00e+00	0	44	0	1484783616	44	4015
2026-01-09 15:50:24.58	251.89	20.83	-37.1	-38.1	20.8	0.00e+00	0	44	0	1494220800	44	4056
2026-01-09 15:50:25.30	252.07	20.86	-37.0	-38.0	20.9	0.00e+00	0	44	0	1499463680	44	4006
2026-01-09 15:50:26.59	252.38	20.91	-37.1	-38.0	20.8	0.00e+00	0	44	0	1508900864	44	4029
2026-01-09 15:50:27.46	252.60	20.95	-37.1	-38.0	20.8	0.00e+00	0	44	0	1514143744	44	4039
2026-01-09 15:50:28.61	252.88	21.00	-36.9	-37.9	21.0	0.00e+00	0	44	0	1522532352	44	3959
2026-01-09 15:50:29.71	253.16	21.04	-36.9	-37.9	21.0	0.00e+00	0	44	0	1530920960	44	3961
2026-01-09 15:50:30.74	253.41	21.08	-37.0	-37.9	20.9	0.00e+00	0	44	0	1538260992	44	3991
2026-01-09 15:50:31.74	253.66	21.12	-37.0	-37.9	20.9	0.00e+00	0	44	0	1545601024	44	4000
2026-01-09 15:50:32.74	253.91	21.16	-36.9	-37.9	21.0	0.00e+00	0	44	0	1552941056	44	3962
2026-01-09 15:50:33.74	254.16	21.20	-36.9	-37.8	21.1	0.00e+00	0	44	0	1560281088	44	3946
2026-01-09 15:50:34.75	254.41	21.23	-36.9	-37.9	21.0	0.00e+00	0	44	0	1567621120	44	3971
2026-01-09 15:50:35.75	254.67	21.27	-36.9	-37.8	21.1	0.00e+00	0	44	0	1574961152	44	3940
2026-01-09 15:50:36.75	254.92	21.31	-36.8	-37.7	21.1	0.00e+00	0	44	0	1581252608	44	3891
2026-01-09 15:50:37.76	255.17	21.34	-36.9	-37.8	21.1	0.00e+00	0	44	0	1588592640	44	3923
2026-01-09 15:50:38.76	255.43	21.38	-36.9	-37.8	21.1	0.00e+00	0	44	0	1595932672	44	3938
2026-01-09 15:50:39.76	255.68	21.42	-36.8	-37.7	21.1	0.00e+00	0	44	0	1603272704	44	3884
2026-01-09 15:50:40.76	255.94	21.45	-36.8	-37.7	21.2	0.00e+00	0	44	0	1610612736	44	3884
2026-01-09 15:50:41.83	256.21	21.49	-36.7	-37.6	21.2	0.00e+00	0	44	0	1619001344	44	3864
2026-01-09 15:50:42.74	256.44	21.52	-36.7	-37.6	21.3	0.00e+00	0	44	0	1625292800	44	3835
2026-01-09 15:50:43.93	256.75	21.56	-36.6	-37.5	21.4	0.00e+00	0	44	0	1633681408	44	3802
2026-01-09 15:50:44.79	256.97	21.58	-36.4	-37.3	21.4	0.00e+00	0	44	0	1639972864	43	3955
2026-01-09 15:50:45.94	257.26	21.62	-36.4	-37.3	21.4	0.00e+00	0	44	0	1648361472	43	3926
2026-01-09 15:50:46.80	257.48	21.65	-36.3	-37.2	21.5	0.00e+00	0	44	0	1654652928	43	3901
2026-01-09 15:50:47.95	257.78	21.68	-36.4	-37.3	21.4	0.00e+00	0	44	0	1663041536	43	3926
2026-01-09 15:50:48.80	258.00	21.71	-36.3	-37.2	21.5	0.00e+00	0	44	0	1668284416	43	3901
2026-01-09 15:50:49.95	258.30	21.74	-36.4	-37.3	21.4	0.00e+00	0	44	0	1676673024	43	3942
2026-01-09 15:50:50.81	258.52	21.77	-36.4	-37.3	21.4	0.00e+00	0	44	0	1682964480	43	3949
2026-01-09 15:50:51.96	258.82	21.80	-36.4	-37.3	21.4	0.00e+00	0	44	0	1691353088	43	3954
2026-01-09 15:50:52.82	259.05	21.82	-36.5	-37.5	21.3	0.00e+00	0	44	0	1697644544	43	4010
2026-01-09 15:50:54.07	259.37	21.86	-36.3	-37.1	21.6	0.00e+00	0	44	0	1707081728	43	3861
2026-01-09 15:50:54.79	259.56	21.88	-36.2	-37.1	21.6	0.00e+00	0	44	0	1712324608	43	3855
2026-01-09 15:50:56.27	259.95	21.92	-36.1	-37.0	21.7	0.00e+00	0	44	0	1722810368	43	3811
2026-01-09 15:50:57.24	260.20	21.94	-36.3	-37.2	21.5	0.00e+00	0	44	0	1730150400	43	3879
2026-01-09 15:50:58.25	260.47	21.97	-36.3	-37.1	21.5	0.00e+00	0	44	0	1737490432	43	3866
2026-01-09 15:50:59.25	260.73	21.99	-36.5	-37.4	21.3	0.00e+00	0	44	0	1743781888	43	3960
2026-01-09 15:51:00.25	261.00	22.01	-36.6	-37.5	21.2	0.00e+00	0	44	0	1751121920	43	4016
2026-01-09 15:51:01.26	261.26	22.04	-36.7	-37.6	21.1	0.00e+00	0	44	0	1758461952	43	4073
2026-01-09 15:51:02.26	261.53	22.06	-36.6	-37.5	21.2	0.00e+00	0	44	0	1765801984	43	4027
2026-01-09 15:51:03.26	261.79	22.08	-36.5	-37.4	21.3	0.00e+00	0	44	0	1773142016	43	4001
2026-01-09 15:51:04.26	262.06	22.10	-36.4	-37.3	21.4	0.00e+00	0	44	0	1780482048	43	3916
2026-01-09 15:51:05.27	262.33	22.12	-36.2	-37.1	21.6	0.00e+00	0	44	0	1787822080	43	3859
2026-01-09 15:51:06.33	262.61	22.15	-36.3	-37.2	21.5	0.00e+00	0	44	0	1795162112	43	3869
2026-01-09 15:51:07.22	262.84	22.16	-36.3	-37.2	21.5	0.00e+00	0	44	0	1801453568	43	3909
2026-01-09 15:51:08.36	263.15	22.18	-36.4	-37.3	21.4	0.00e+00	0	44	0	1809842176	43	3947
2026-01-09 15:51:09.29	263.40	22.20	-36.5	-37.4	21.3	0.00e+00	0	44	0	1817182208	43	3990
2026-01-09 15:51:10.47	263.71	22.22	-36.5	-37.5	21.3	0.00e+00	0	44	0	1824522240	43	4006
2026-01-09 15:51:11.32	263.94	22.24	-36.6	-37.5	21.2	0.00e+00	0	44	0	1831862272	43	4043
2026-01-09 15:51:12.47	264.25	22.26	-36.5	-37.4	21.4	0.00e+00	0	44	0	1840250880	43	3962
2026-01-09 15:51:13.33	264.48	22.27	-36.6	-37.5	21.2	0.00e+00	0	44	0	1845493760	43	4009
2026-01-09 15:51:14.48	264.79	22.29	-36.5	-37.4	21.3	0.00e+00	0	44	0	1853882368	43	3988
2026-01-09 15:51:15.33	265.01	22.30	-36.5	-37.4	21.3	0.00e+00	0	44	0	1860173824	43	4002
2026-01-09 15:51:16.48	265.32	22.31	-36.5	-37.4	21.2	0.00e+00	0	44	0	1868562432	43	3978
2026-01-09 15:51:17.34	265.55	22.33	-36.5	-37.4	21.2	0.00e+00	0	44	0	1874853888	43	4001
2026-01-09 15:51:18.49	265.86	22.34	-36.7	-37.6	21.1	0.00e+00	0	44	0	1883242496	43	4070
2026-01-09 15:51:19.35	266.09	22.35	-36.6	-37.5	21.2	0.00e+00	0	44	0	1889533952	43	4039
2026-01-09 15:51:20.50	266.40	22.36	-36.6	-37.6	21.1	0.00e+00	0	44	0	1897922560	43	4059
2026-01-09 15:51:21.36	266.64	22.37	-36.6	-37.5	21.2	0.00e+00	0	44	0	1904214016	43	4030
2026-01-09 15:51:22.50	266.94	22.38	-36.7	-37.7	21.1	0.00e+00	0	44	0	1911554048	43	4105
2026-01-09 15:51:23.37	267.18	22.39	-36.7	-37.6	21.1	0.00e+00	0	44	0	1917845504	43	4093
2026-01-09 15:51:24.51	267.49	22.40	-36.7	-37.6	21.1	0.00e+00	0	44	0	1926234112	43	4066
2026-01-09 15:51:25.37	267.72	22.41	-36.8	-37.7	21.0	0.00e+00	0	44	0	1932525568	43	4140
2026-01-09 15:51:26.52	268.03	22.42	-36.6	-37.5	21.2	0.00e+00	0	44	0	1940914176	43	4039
2026-01-09 15:51:27.37	268.26	22.42	-36.5	-37.4	21.3	0.00e+00	0	44	0	1947205632	43	4004
2026-01-09 15:51:28.52	268.57	22.43	-36.5	-37.4	21.3	0.00e+00	0	44	0	1955594240	43	3969
2026-01-09 15:51:29.38	268.81	22.43	-36.4	-37.3	21.4	0.00e+00	0	44	0	1961885696	43	3924
2026-01-09 15:51:30.52	269.11	22.44	-36.4	-37.3	21.4	0.00e+00	0	44	0	1970274304	43	3923
2026-01-09 15:51:31.38	269.35	22.44	-36.3	-37.2	21.5	0.00e+00	0	44	0	1976565760	43	3875
2026-01-09 15:51:32.53	269.66	22.45	-36.3	-37.2	21.4	0.00e+00	0	44	0	1984954368	43	3903
2026-01-09 15:51:33.38	269.89	22.45	-36.4	-37.3	21.4	0.00e+00	0	44	0	1990197248	43	3927
2026-01-09 15:51:34.53	270.20	22.45	-36.4	-37.3	21.4	0.00e+00	0	44	0	1998585856	43	3943
2026-01-09 15:51:35.40	270.44	22.45	-36.4	-37.3	21.4	0.00e+00	0	44	0	2004877312	43	3927
2026-01-09 15:51:36.57	270.75	22.46	-36.4	-37.3	21.4	0.00e+00	0	44	0	2014314496	43	3930
2026-01-09 15:51:37.43	270.99	22.46	-36.4	-37.3	21.4	0.00e+00	0	44	0	2019557376	43	3926
2026-01-09 15:51:38.58	271.30	22.45	-36.5	-37.4	21.3	0.00e+00	0	44	0	2027945984	43	3995
2026-01-09 15:51:39.44	271.53	22.45	-36.5	-37.4	21.3	0.00e+00	0	44	0	2034237440	43	3969
2026-01-09 15:51:40.58	271.84	22.45	-36.4	-37.3	21.4	0.00e+00	0	44	0	2042626048	43	3941
2026-01-09 15:51:41.44	272.07	22.45	-36.4	-37.3	21.4	0.00e+00	0	44	0	2048917504	43	3949
2026-01-09 15:51:42.59	272.39	22.45	-36.4	-37.3	21.4	0.00e+00	0	44	0	2057306112	43	3952
2026-01-09 15:51:43.45	272.62	22.44	-36.6	-37.5	21.2	0.00e+00	0	44	0	2063597568	43	4024
2026-01-09 15:51:44.60	272.93	22.44	-36.5	-37.5	21.2	0.00e+00	0	44	0	2071986176	43	4013
2026-01-09 15:51:45.45	273.16	22.43	-36.6	-37.6	21.1	0.00e+00	0	44	0	2077229056	43	4063
2026-01-09 15:51:46.60	273.47	22.43	-36.6	-37.6	21.1	0.00e+00	0	44	0	2085617664	43	4055
2026-01-09 15:51:47.46	273.70	22.42	-36.7	-37.7	21.1	0.00e+00	0	44	0	2091909120	43	4100
2026-01-09 15:51:48.61	274.02	22.41	-36.6	-37.5	21.2	0.00e+00	0	44	0	2100297728	43	4027
2026-01-09 15:51:49.47	274.25	22.41	-36.7	-37.6	21.1	0.00e+00	0	44	0	2106589184	43	4098
2026-01-09 15:51:50.61	274.56	22.40	-36.7	-37.6	21.1	0.00e+00	0	44	0	2114977792	43	4071
2026-01-09 15:51:51.47	274.79	22.39	-36.7	-37.6	21.1	0.00e+00	0	44	0	2121269248	43	4072
2026-01-09 15:51:52.62	275.10	22.38	-36.7	-37.6	21.1	0.00e+00	0	44	0	2129657856	43	4089
2026-01-09 15:51:53.48	275.33	22.37	-36.7	-37.7	21.0	0.00e+00	0	44	0	2135949312	43	4109
2026-01-09 15:51:54.63	275.64	22.36	-36.7	-37.6	21.1	0.00e+00	0	44	0	2144337920	43	4078
2026-01-09 15:51:55.49	275.87	22.35	-36.6	-37.5	21.2	0.00e+00	0	44	0	2150629376	43	4041
2026-01-09 15:51:56.64	276.18	22.34	-36.5	-37.4	21.3	0.00e+00	0	44	0	2159017984	43	3993
2026-01-09 15:51:57.49	276.41	22.32	-36.5	-37.3	21.3	0.00e+00	0	44	0	2164260864	43	3955
2026-01-09 15:51:58.64	276.72	22.31	-36.4	-37.3	21.4	0.00e+00	0	44	0	2172649472	43	3937
2026-01-09 15:51:59.50	276.95	22.30	-36.5	-37.4	21.3	0.00e+00	0	44	0	2178940928	43	3985
2026-01-09 15:52:00.64	277.25	22.28	-36.6	-37.5	21.2	0.00e+00	0	44	0	2187329536	43	4024
2026-01-09 15:52:01.50	277.48	22.27	-36.6	-37.5	21.2	0.00e+00	0	44	0	2193620992	43	4048
2026-01-09 15:52:02.65	277.79	22.25	-36.6	-37.5	21.2	0.00e+00	0	44	0	2202009600	43	4031
2026-01-09 15:52:03.51	278.02	22.24	-36.5	-37.4	21.3	0.00e+00	0	44	0	2208301056	43	4001
2026-01-09 15:52:04.66	278.33	22.22	-36.4	-37.3	21.4	0.00e+00	0	44	0	2216689664	43	3955
2026-01-09 15:52:05.52	278.56	22.20	-36.3	-37.2	21.4	0.00e+00	0	44	0	2221932544	43	3903
2026-01-09 15:52:06.66	278.86	22.18	-36.3	-37.1	21.6	0.00e+00	0	44	0	2230321152	43	3867
2026-01-09 15:52:07.52	279.09	22.16	-36.3	-37.2	21.5	0.00e+00	0	44	0	2237661184	43	3884
2026-01-09 15:52:08.67	279.40	22.14	-36.4	-37.3	21.4	0.00e+00	0	44	0	2246049792	43	3934
2026-01-09 15:52:09.53	279.63	22.12	-36.6	-37.5	21.2	0.00e+00	0	45	0	2251292672	43	4033
2026-01-09 15:52:10.68	279.93	22.10	-36.7	-37.6	21.1	0.00e+00	0	44	0	2259681280	43	4060
2026-01-09 15:52:11.60	280.17	22.08	-36.8	-37.7	21.0	0.00e+00	0	44	0	2265972736	43	4112
2026-01-09 15:52:12.76	280.48	22.05	-36.7	-37.6	21.1	0.00e+00	0	44	0	2274361344	43	4087
2026-01-09 15:52:13.62	280.71	22.04	-36.6	-37.5	21.2	0.00e+00	0	44	0	2281701376	43	4030
2026-01-09 15:52:14.96	281.06	22.00	-36.7	-37.6	21.1	0.00e+00	0	44	0	2291138560	43	4092
2026-01-09 15:52:15.68	281.25	21.99	-36.7	-37.6	21.1	0.00e+00	0	44	0	2296381440	43	4082
2026-01-09 15:52:16.97	281.59	21.96	-36.7	-37.6	21.1	0.00e+00	0	44	0	2305818624	43	4055
2026-01-09 15:52:17.69	281.78	21.94	-36.6	-37.5	21.2	0.00e+00	0	44	0	2310012928	43	4013
2026-01-09 15:52:18.97	282.11	21.90	-36.8	-37.7	21.0	0.00e+00	0	44	0	2319450112	43	4145
2026-01-09 15:52:19.72	282.31	21.89	-36.7	-37.6	21.1	0.00e+00	0	44	0	2325741568	43	4076
2026-01-09 15:52:21.01	282.65	21.85	-36.8	-37.8	21.0	0.00e+00	0	44	0	2334130176	43	4155
2026-01-09 15:52:21.73	282.83	21.83	-36.8	-37.7	21.0	0.00e+00	0	44	0	2339373056	43	4143
2026-01-09 15:52:23.02	283.17	21.80	-36.7	-37.6	21.0	0.00e+00	0	44	0	2348810240	43	4095
2026-01-09 15:52:23.73	283.35	21.77	-36.8	-37.7	21.0	0.00e+00	0	44	0	2354053120	43	4145
2026-01-09 15:52:25.02	283.69	21.74	-36.6	-37.5	21.2	0.00e+00	0	44	0	2363490304	43	4009
2026-01-09 15:52:25.74	283.87	21.72	-36.7	-37.6	21.1	0.00e+00	0	44	0	2368733184	43	4067
2026-01-09 15:52:27.03	284.21	21.68	-36.7	-37.6	21.1	0.00e+00	0	44	0	2378170368	43	4067
2026-01-09 15:52:27.75	284.39	21.66	-36.6	-37.5	21.2	0.00e+00	0	44	0	2383413248	43	4016
2026-01-09 15:52:29.04	284.72	21.62	-36.7	-37.6	21.2	0.00e+00	0	44	0	2392850432	43	4053
2026-01-09 15:52:29.75	284.91	21.59	-36.7	-37.6	21.1	0.00e+00	0	44	0	2397044736	43	4060
2026-01-09 15:52:31.26	285.29	21.54	-36.8	-37.8	21.0	0.00e+00	0	44	0	2408579072	43	4157
2026-01-09 15:52:31.98	285.48	21.52	-36.9	-37.8	20.9	0.00e+00	0	44	0	2413821952	43	4188
2026-01-09 15:52:33.27	285.80	21.48	-37.0	-37.9	20.8	0.00e+00	0	45	0	2423259136	43	4228
2026-01-09 15:52:33.99	285.99	21.45	-37.0	-37.9	20.9	0.00e+00	0	44	0	2428502016	43	4213
2026-01-09 15:52:35.28	286.32	21.41	-36.9	-37.8	20.9	0.00e+00	0	44	0	2437939200	43	4168
2026-01-09 15:52:35.99	286.50	21.38	-36.8	-37.8	20.8	0.00e+00	0	44	0	2442133504	43	4168
2026-01-09 15:52:37.28	286.82	21.34	-36.7	-37.6	21.1	0.00e+00	0	44	0	2451570688	43	4098
2026-01-09 15:52:38.00	287.00	21.31	-36.7	-37.6	21.1	0.00e+00	0	44	0	2456813568	43	4094
2026-01-09 15:52:39.29	287.33	21.26	-36.7	-37.6	21.1	0.00e+00	0	44	0	2466250752	43	4094
2026-01-09 15:52:40.01	287.51	21.24	-36.8	-37.7	21.0	0.00e+00	0	44	0	2471493632	43	4112
2026-01-09 15:52:41.30	287.83	21.19	-36.9	-37.8	21.0	0.00e+00	0	44	0	2480930816	43	4158
2026-01-09 15:52:42.06	288.02	21.16	-36.9	-37.8	20.9	0.00e+00	0	44	0	2486173696	43	4179
2026-01-09 15:52:43.35	288.34	21.11	-36.9	-37.9	20.9	0.00e+00	0	44	0	2495610880	43	4203
2026-01-09 15:52:44.07	288.52	21.08	-36.9	-37.9	20.9	0.00e+00	0	44	0	2500853760	43	4195
2026-01-09 15:52:45.36	288.84	21.03	-37.1	-38.1	20.7	0.00e+00	0	44	0	2510290944	43	4304
2026-01-09 15:52:46.07	289.02	21.00	-37.0	-38.0	20.8	0.00e+00	0	44	0	2515533824	43	4254
2026-01-09 15:52:47.84	289.45	20.93	-37.1	-38.1	20.6	0.00e+00	0	44	0	2528116736	43	4320
2026-01-09 15:52:48.42	289.59	20.91	-37.1	-38.0	20.7	0.00e+00	0	44	0	2532311040	43	4287
2026-01-09 15:52:49.99	289.98	20.84	-37.1	-38.1	20.7	0.00e+00	0	44	0	2543845376	43	4311
2026-01-09 15:52:50.58	290.12	20.82	-37.1	-38.0	20.7	0.00e+00	0	44	0	2548039680	43	4288
2026-01-09 15:52:52.16	290.51	20.75	-37.1	-38.0	20.7	0.00e+00	0	44	0	2559574016	43	4269
2026-01-09 15:52:52.74	290.65	20.73	-37.0	-37.9	20.8	0.00e+00	0	44	0	2563768320	43	4238
2026-01-09 15:52:54.32	291.03	20.66	-37.0	-37.9	20.8	0.00e+00	0	44	0	2575302656	43	4213
2026-01-09 15:52:54.96	291.18	20.63	-37.1	-38.0	20.7	0.00e+00	0	45	0	2579496960	43	4282
2026-01-09 15:52:56.39	291.53	20.57	-37.0	-37.9	20.8	0.00e+00	0	45	0	2589982720	43	4227
2026-01-09 15:52:57.11	291.70	20.53	-37.1	-38.0	20.7	0.00e+00	0	44	0	2595225600	43	4261
2026-01-09 15:52:58.73	292.09	20.46	-37.1	-38.0	20.7	0.00e+00	0	44	0	2606759936	43	4269
2026-01-09 15:52:59.30	292.22	20.43	-37.1	-38.0	20.7	0.00e+00	0	44	0	2610954240	43	4284
2026-01-09 15:53:00.88	292.60	20.36	-37.4	-38.4	20.5	0.00e+00	0	44	0	2622488576	44	4195
2026-01-09 15:53:01.47	292.74	20.33	-37.4	-38.4	20.5	0.00e+00	0	44	0	2626682880	44	4209
2026-01-09 15:53:03.04	293.11	20.26	-37.5	-38.5	20.4	0.00e+00	0	44	0	2638217216	44	4254
2026-01-09 15:53:03.78	293.28	20.22	-37.4	-38.4	20.5	0.00e+00	0	44	0	2643460096	44	4208
2026-01-09 15:53:05.07	293.59	20.16	-37.4	-38.3	20.5	0.00e+00	0	44	0	2651848704	44	4182
2026-01-09 15:53:05.96	293.79	20.12	-37.4	-38.3	20.6	0.00e+00	0	44	0	2659188736	44	4169
2026-01-09 15:53:07.10	294.06	20.06	-37.3	-38.2	20.5	0.00e+00	0	44	0	2667577344	44	4144
2026-01-09 15:53:08.20	294.31	20.01	-37.3	-38.3	20.6	0.00e+00	0	44	0	2674917376	44	4159
2026-01-09 15:53:09.24	294.55	19.96	-37.4	-38.3	20.6	0.00e+00	0	44	0	2682257408	44	4161
2026-01-09 15:53:10.24	294.79	19.91	-37.4	-38.3	20.6	0.00e+00	0	44	0	2689597440	44	4164
2026-01-09 15:53:11.24	295.02	19.86	-37.5	-38.4	20.5	0.00e+00	0	44	0	2696937472	44	4225
2026-01-09 15:53:12.24	295.24	19.81	-37.5	-38.5	20.4	0.00e+00	0	44	0	2704277504	44	4251
2026-01-09 15:53:13.53	295.54	19.74	-37.5	-38.4	20.4	0.00e+00	0	44	0	2713714688	44	4233
2026-01-09 15:53:14.25	295.70	19.71	-37.5	-38.4	20.4	0.00e+00	0	44	0	2718957568	44	4239
2026-01-09 15:53:15.54	295.99	19.64	-37.4	-38.4	20.5	0.00e+00	0	44	0	2728394752	44	4209
2026-01-09 15:53:16.25	296.16	19.60	-37.4	-38.3	20.5	0.00e+00	0	44	0	2733637632	44	4184
2026-01-09 15:53:17.55	296.45	19.54	-37.3	-38.2	20.6	0.00e+00	0	44	0	2742026240	44	4122
2026-01-09 15:53:18.26	296.61	19.50	-37.3	-38.2	20.6	0.00e+00	0	44	0	2747269120	44	4117
2026-01-09 15:53:19.55	296.90	19.43	-37.2	-38.1	20.7	0.00e+00	0	44	0	2756706304	44	4083
2026-01-09 15:53:20.27	297.06	19.39	-37.3	-38.2	20.6	0.00e+00	0	45	0	2761949184	44	4138
2026-01-09 15:53:21.56	297.34	19.32	-37.3	-38.3	20.5	0.00e+00	0	45	0	2771386368	44	4159
2026-01-09 15:53:22.28	297.50	19.28	-37.4	-38.3	20.5	0.00e+00	0	45	0	2776629248	44	4179
2026-01-09 15:53:23.56	297.78	19.21	-37.5	-38.5	20.4	0.00e+00	0	44	0	2786066432	44	4257
2026-01-09 15:53:24.28	297.94	19.18	-37.5	-38.4	20.4	0.00e+00	0	44	0	2791309312	44	4240
2026-01-09 15:53:25.57	298.23	19.10	-37.7	-38.6	20.3	0.00e+00	0	44	0	2800746496	44	4326
2026-01-09 15:53:26.29	298.38	19.07	-37.7	-38.7	20.2	0.00e+00	0	44	0	2805989376	44	4348
2026-01-09 15:53:27.58	298.66	18.99	-37.8	-38.7	20.1	0.00e+00	0	44	0	2815426560	45	4135
2026-01-09 15:53:28.29	298.82	18.95	-37.9	-38.9	19.9	0.00e+00	0	44	0	2819620864	45	4211
2026-01-09 15:53:29.58	299.10	18.88	-37.9	-38.9	20.0	0.00e+00	0	44	0	2829058048	45	4226
2026-01-09 15:53:30.30	299.25	18.84	-37.9	-38.9	19.9	0.00e+00	0	44	0	2834300928	45	4222
2026-01-09 15:53:31.59	299.53	18.77	-37.9	-38.9	20.0	0.00e+00	0	44	0	2843738112	45	4204
2026-01-09 15:53:32.30	299.68	18.73	-37.8	-38.8	20.0	0.00e+00	0	44	0	2848980992	45	4175
2026-01-09 15:53:33.59	299.95	18.66	-37.7	-38.6	20.1	0.00e+00	0	44	0	2858418176	45	4097
2026-01-09 15:53:34.55	300.16	18.60	-37.8	-38.8	20.1	0.00e+00	0	44	0	2865758208	45	4160
2026-01-09 15:53:35.55	300.37	18.54	-37.8	-38.8	20.1	0.00e+00	0	44	0	2872049664	45	4154
2026-01-09 15:53:36.56	300.58	18.49	-37.8	-38.8	20.1	0.00e+00	0	44	0	2879389696	45	4168
2026-01-09 15:53:37.56	300.79	18.43	-37.7	-38.7	20.2	0.00e+00	0	45	0	2886729728	45	4099
2026-01-09 15:53:38.56	301.00	18.37	-37.7	-38.7	20.2	0.00e+00	0	45	0	2894069760	45	4121
2026-01-09 15:53:39.56	301.21	18.31	-37.7	-38.7	20.0	0.00e+00	0	45	0	2901409792	45	4117
2026-01-09 15:53:40.56	301.41	18.25	-37.8	-38.8	20.1	0.00e+00	0	44	0	2908749824	45	4159
2026-01-09 15:53:41.57	301.62	18.19	-37.8	-38.8	20.0	0.00e+00	0	44	0	2916089856	45	4184
2026-01-09 15:53:42.57	301.83	18.14	-37.8	-38.8	20.1	0.00e+00	0	44	0	2923429888	45	4146
2026-01-09 15:53:43.57	302.03	18.08	-37.7	-38.7	20.1	0.00e+00	0	44	0	2930769920	45	4102
2026-01-09 15:53:44.58	302.24	18.02	-37.8	-38.8	20.0	0.00e+00	0	45	0	2938109952	45	4162
2026-01-09 15:53:45.58	302.44	17.96	-37.7	-38.7	20.2	0.00e+00	0	44	0	2945449984	45	4101
2026-01-09 15:53:46.84	302.70	17.88	-37.8	-38.8	20.1	0.00e+00	0	44	0	2953838592	45	4150
2026-01-09 15:53:47.62	302.85	17.83	-37.9	-38.8	20.0	0.00e+00	0	44	0	2959081472	45	4180
2026-01-09 15:53:49.17	303.17	17.74	-37.9	-38.9	20.0	0.00e+00	0	44	0	2970615808	45	4195
2026-01-09 15:53:50.16	303.36	17.68	-37.9	-38.9	19.9	0.00e+00	0	44	0	2977955840	45	4235
2026-01-09 15:53:51.48	303.63	17.60	-38.0	-39.0	19.8	0.00e+00	0	44	0	2987393024	45	4281
2026-01-09 15:53:52.19	303.77	17.56	-38.0	-39.0	19.9	0.00e+00	0	44	0	2992635904	45	4246
2026-01-09 15:53:53.85	304.09	17.46	-38.1	-39.1	19.8	0.00e+00	0	44	0	3004170240	45	4321
2026-01-09 15:53:54.43	304.21	17.42	-38.1	-39.1	19.7	0.00e+00	0	44	0	3009413120	45	4333
2026-01-09 15:53:56.02	304.52	17.32	-38.2	-39.2	19.6	0.00e+00	0	44	0	3019898880	45	4388
2026-01-09 15:53:56.59	304.63	17.29	-38.3	-39.3	19.5	0.00e+00	0	44	0	3024093184	46	4179
2026-01-09 15:53:58.33	304.97	17.18	-38.3	-39.3	19.6	0.00e+00	0	44	0	3036676096	46	4174
2026-01-09 15:53:58.90	305.08	17.15	-38.3	-39.3	19.6	0.00e+00	0	44	0	3040870400	46	4174
2026-01-09 15:54:00.49	305.38	17.05	-38.3	-39.3	19.5	0.00e+00	0	44	0	3052404736	46	4191
2026-01-09 15:54:01.07	305.49	17.01	-38.4	-39.4	19.5	0.00e+00	0	44	0	3056599040	46	4218
2026-01-09 15:54:02.66	305.79	16.91	-38.2	-39.2	19.7	0.00e+00	0	44	0	3068133376	46	4122
2026-01-09 15:54:03.57	305.97	16.85	-38.2	-39.2	19.6	0.00e+00	0	44	0	3074424832	46	4126
2026-01-09 15:54:04.59	306.16	16.79	-38.4	-39.4	19.4	0.00e+00	0	45	0	3081764864	46	4229
2026-01-09 15:54:05.59	306.35	16.73	-38.1	-39.1	19.8	0.00e+00	0	44	0	3089104896	46	4084
2026-01-09 15:54:06.59	306.53	16.67	-38.0	-39.0	19.8	0.00e+00	0	44	0	3096444928	46	4032
2026-01-09 15:54:07.64	306.73	16.60	-38.1	-39.0	19.8	0.00e+00	0	44	0	3103784960	46	4042
2026-01-09 15:54:08.57	306.90	16.54	-38.1	-39.1	19.8	0.00e+00	0	44	0	3111124992	46	4066
2026-01-09 15:54:09.57	307.09	16.48	-38.2	-39.1	19.7	0.00e+00	0	45	0	3118465024	46	4091
2026-01-09 15:54:10.57	307.27	16.41	-38.2	-39.2	19.6	0.00e+00	0	44	0	3125805056	46	4136
2026-01-09 15:54:11.58	307.46	16.35	-38.3	-39.2	19.6	0.00e+00	0	44	0	3133145088	46	4139
2026-01-09 15:54:12.58	307.64	16.29	-38.3	-39.3	19.5	0.00e+00	0	44	0	3139436544	46	4181
2026-01-09 15:54:13.58	307.82	16.22	-38.4	-39.4	19.5	0.00e+00	0	45	0	3146776576	46	4212
2026-01-09 15:54:14.59	308.00	16.16	-38.4	-39.5	19.4	0.00e+00	0	45	0	3154116608	46	4249
2026-01-09 15:54:15.59	308.18	16.09	-38.7	-39.7	19.2	0.00e+00	0	45	0	3161456640	46	4366
2026-01-09 15:54:16.59	308.36	16.03	-38.6	-39.6	19.3	0.00e+00	0	45	0	3168796672	46	4317
2026-01-09 15:54:17.59	308.54	15.97	-38.6	-39.7	19.2	0.00e+00	0	44	0	3176136704	46	4357
2026-01-09 15:54:18.60	308.72	15.90	-38.5	-39.5	19.3	0.00e+00	0	45	0	3183476736	46	4274
2026-01-09 15:54:19.60	308.90	15.84	-38.6	-39.7	19.2	0.00e+00	0	45	0	3190816768	46	4351
2026-01-09 15:54:20.60	309.07	15.77	-38.6	-39.6	19.2	0.00e+00	0	44	0	3198156800	46	4326
2026-01-09 15:54:21.61	309.25	15.71	-38.6	-39.6	19.2	0.00e+00	0	44	0	3204448256	46	4326
2026-01-09 15:54:22.60	309.42	15.64	-38.6	-39.6	19.2	0.00e+00	0	44	0	3211788288	46	4331
2026-01-09 15:54:23.61	309.60	15.58	-38.6	-39.7	19.2	0.00e+00	0	44	0	3219128320	46	4345
2026-01-09 15:54:24.76	309.80	15.50	-38.5	-39.6	19.2	0.00e+00	0	44	0	3227516928	46	4330
2026-01-09 15:54:25.65	309.95	15.45	-38.5	-39.6	19.2	0.00e+00	0	44	0	3233808384	46	4318
2026-01-09 15:54:26.98	310.18	15.36	-38.5	-39.6	19.3	0.00e+00	0	45	0	3244294144	46	4299
2026-01-09 15:54:27.70	310.31	15.31	-38.5	-39.5	19.3	0.00e+00	0	44	0	3248488448	46	4271
2026-01-09 15:54:29.18	310.56	15.22	-38.4	-39.4	19.4	0.00e+00	0	44	0	3260022784	46	4211
2026-01-09 15:54:30.15	310.72	15.15	-38.4	-39.5	19.4	0.00e+00	0	44	0	3266314240	46	4255
2026-01-09 15:54:31.46	310.94	15.07	-38.3	-39.4	19.5	0.00e+00	0	44	0	3275751424	46	4205
2026-01-09 15:54:32.21	311.07	15.02	-38.4	-39.4	19.3	0.00e+00	0	44	0	3280994304	46	4241
2026-01-09 15:54:33.50	311.28	14.94	-38.5	-39.5	19.3	0.00e+00	0	44	0	3290431488	46	4269
2026-01-09 15:54:34.22	311.40	14.89	-38.6	-39.6	19.2	0.00e+00	0	45	0	3295674368	46	4338
2026-01-09 15:54:35.51	311.62	14.80	-38.6	-39.7	19.1	0.00e+00	0	44	0	3305111552	46	4366
2026-01-09 15:54:36.23	311.74	14.76	-38.7	-39.8	19.0	0.00e+00	0	44	0	3310354432	46	4432
2026-01-09 15:54:37.51	311.95	14.67	-38.9	-40.0	18.8	0.00e+00	0	44	0	3319791616	47	4253
2026-01-09 15:54:38.23	312.07	14.63	-38.9	-40.0	18.8	0.00e+00	0	44	0	3325034496	47	4291
2026-01-09 15:54:39.52	312.28	14.54	-39.0	-40.1	18.7	0.00e+00	0	45	0	3334471680	47	4306
2026-01-09 15:54:40.24	312.39	14.49	-39.0	-40.2	18.6	0.00e+00	0	44	0	3339714560	47	4352
2026-01-09 15:54:41.53	312.60	14.41	-39.2	-40.3	18.5	0.00e+00	0	45	0	3349151744	47	4428
2026-01-09 15:54:42.25	312.72	14.36	-39.0	-40.2	18.6	0.00e+00	0	44	0	3354394624	47	4350
2026-01-09 15:54:43.66	312.94	14.27	-39.1	-40.2	18.6	0.00e+00	0	44	0	3363831808	47	4378
2026-01-09 15:54:44.65	313.10	14.21	-39.0	-40.1	18.7	0.00e+00	0	44	0	3371171840	47	4313
2026-01-09 15:54:45.98	313.31	14.12	-38.8	-39.9	18.9	0.00e+00	0	44	0	3380609024	47	4220
2026-01-09 15:54:46.69	313.42	14.07	-38.8	-39.9	18.9	0.00e+00	0	44	0	3385851904	47	4224
2026-01-09 15:54:47.98	313.63	13.99	-38.5	-39.6	19.2	0.00e+00	0	44	0	3395289088	47	4055
2026-01-09 15:54:48.69	313.74	13.94	-38.5	-39.6	19.2	0.00e+00	0	45	0	3400531968	47	4052
2026-01-09 15:54:49.98	313.94	13.86	-38.4	-39.5	19.3	0.00e+00	0	45	0	3409969152	47	4014
2026-01-09 15:54:50.69	314.05	13.81	-38.5	-39.5	19.2	0.00e+00	0	44	0	3415212032	47	4049
2026-01-09 15:54:51.99	314.25	13.72	-38.5	-39.5	19.2	0.00e+00	0	44	0	3424649216	47	4031
2026-01-09 15:54:52.70	314.36	13.68	-38.6	-39.6	19.1	0.00e+00	0	44	0	3429892096	47	4092
2026-01-09 15:54:54.13	314.58	13.58	-38.5	-39.6	19.2	0.00e+00	0	44	0	3439329280	47	4067
2026-01-09 15:54:54.85	314.69	13.54	-38.6	-39.6	19.1	0.00e+00	0	44	0	3444572160	47	4087
2026-01-09 15:54:56.24	314.90	13.44	-38.7	-39.8	19.0	0.00e+00	0	44	0	3455057920	47	4169
2026-01-09 15:54:56.95	315.00	13.40	-38.8	-39.8	18.9	0.00e+00	0	44	0	3460300800	47	4181
2026-01-09 15:54:58.24	315.20	13.31	-38.7	-39.7	19.0	0.00e+00	0	44	0	3469737984	47	4145
2026-01-09 15:54:58.96	315.31	13.27	-38.7	-39.7	19.0	0.00e+00	0	44	0	3474980864	47	4143
2026-01-09 15:55:00.25	315.50	13.18	-38.8	-39.9	18.9	0.00e+00	0	44	0	3483369472	47	4200
2026-01-09 15:55:00.97	315.60	13.13	-38.8	-39.9	18.8	0.00e+00	0	44	0	3488612352	47	4221
2026-01-09 15:55:02.25	315.79	13.05	-38.9	-40.0	18.7	0.00e+00	0	44	0	3498049536	47	4286
2026-01-09 15:55:02.97	315.90	13.00	-39.0	-40.1	18.6	0.00e+00	0	44	0	3503292416	47	4337
2026-01-09 15:55:04.26	316.09	12.92	-39.1	-40.2	18.6	0.00e+00	0	44	0	3512729600	47	4371
2026-01-09 15:55:05.07	316.21	12.86	-39.2	-40.4	18.4	0.00e+00	0	44	0	3519021056	47	4462
2026-01-09 15:55:06.22	316.37	12.79	-39.4	-40.5	18.5	0.00e+00	0	45	0	3527409664	48	4271
2026-01-09 15:55:07.32	316.53	12.72	-39.5	-40.7	18.3	0.00e+00	0	44	0	3534749696	48	4342
2026-01-09 15:55:08.35	316.68	12.65	-39.4	-40.5	18.5	0.00e+00	0	44	0	3542089728	48	4279
2026-01-09 15:55:09.35	316.82	12.58	-39.4	-40.5	18.5	0.00e+00	0	44	0	3549429760	48	4277
2026-01-09 15:55:10.35	316.97	12.52	-39.3	-40.4	18.6	0.00e+00	0	44	0	3556769792	48	4227
2026-01-09 15:55:11.36	317.11	12.45	-39.3	-40.4	18.6	0.00e+00	0	44	0	3564109824	48	4209
2026-01-09 15:55:12.36	317.25	12.39	-39.1	-40.2	18.6	0.00e+00	0	44	0	3571449856	48	4129
2026-01-09 15:55:13.36	317.39	12.32	-39.1	-40.1	18.8	0.00e+00	0	45	0	3578789888	48	4096
2026-01-09 15:55:14.37	317.53	12.25	-39.0	-40.1	18.8	0.00e+00	0	44	0	3586129920	48	4082
2026-01-09 15:55:15.37	317.67	12.19	-39.1	-40.2	18.8	0.00e+00	0	44	0	3593469952	48	4102
2026-01-09 15:55:16.37	317.81	12.12	-39.0	-40.1	18.9	0.00e+00	0	44	0	3600809984	48	4081
2026-01-09 15:55:17.37	317.95	12.06	-39.1	-40.2	18.8	0.00e+00	0	44	0	3608150016	48	4123
2026-01-09 15:55:18.38	318.09	11.99	-39.0	-40.1	18.8	0.00e+00	0	44	0	3614441472	48	4072
2026-01-09 15:55:19.38	318.23	11.93	-39.1	-40.1	18.8	0.00e+00	0	44	0	3621781504	48	4090
2026-01-09 15:55:20.38	318.36	11.86	-39.1	-40.2	18.8	0.00e+00	0	44	0	3629121536	48	4102
2026-01-09 15:55:21.47	318.51	11.79	-39.1	-40.2	18.8	0.00e+00	0	45	0	3636461568	48	4113
2026-01-09 15:55:22.33	318.63	11.73	-39.1	-40.2	18.7	0.00e+00	0	45	0	3643801600	48	4128
2026-01-09 15:55:23.47	318.78	11.66	-39.2	-40.3	18.6	0.00e+00	0	44	0	3652190208	48	4184
2026-01-09 15:55:24.33	318.90	11.60	-39.4	-40.5	18.5	0.00e+00	0	44	0	3657433088	48	4249
2026-01-09 15:55:25.47	319.05	11.53	-39.5	-40.6	18.4	0.00e+00	0	44	0	3665821696	48	4308
2026-01-09 15:55:26.34	319.16	11.47	-39.6	-40.7	18.2	0.00e+00	0	44	0	3672113152	48	4381
2026-01-09 15:55:27.48	319.32	11.40	-39.6	-40.7	18.2	0.00e+00	0	45	0	3680501760	48	4382
2026-01-09 15:55:28.34	319.43	11.34	-39.8	-41.0	18.0	0.00e+00	0	44	0	3686793216	48	4499
2026-01-09 15:55:29.49	319.58	11.27	-39.7	-40.9	18.0	0.00e+00	0	45	0	3695181824	49	4242
2026-01-09 15:55:30.34	319.69	11.21	-39.6	-40.9	18.1	0.00e+00	0	45	0	3701473280	49	4195
2026-01-09 15:55:31.49	319.84	11.14	-39.7	-40.9	18.0	0.00e+00	0	44	0	3709861888	49	4241
2026-01-09 15:55:32.35	319.95	11.08	-39.6	-40.9	18.0	0.00e+00	0	45	0	3715104768	49	4217
2026-01-09 15:55:33.50	320.10	11.01	-39.8	-41.1	17.9	0.00e+00	0	45	0	3723493376	49	4299
2026-01-09 15:55:34.36	320.21	10.95	-39.7	-41.0	17.9	0.00e+00	0	44	0	3729784832	49	4259
2026-01-09 15:55:35.60	320.37	10.87	-39.7	-41.0	17.9	0.00e+00	0	44	0	3739222016	49	4272
2026-01-09 15:55:36.45	320.48	10.82	-39.8	-41.0	17.9	0.00e+00	0	45	0	3745513472	49	4278
2026-01-09 15:55:37.59	320.62	10.74	-39.6	-40.9	18.0	0.00e+00	0	44	0	3753902080	49	4199
2026-01-09 15:55:38.45	320.73	10.69	-39.5	-40.7	18.3	0.00e+00	0	45	0	3759144960	49	4103
2026-01-09 15:55:39.60	320.88	10.61	-39.6	-40.8	18.1	0.00e+00	0	44	0	3767533568	49	4154
2026-01-09 15:55:40.46	320.98	10.56	-39.5	-40.7	18.2	0.00e+00	0	45	0	3773825024	49	4103
2026-01-09 15:55:41.60	321.13	10.48	-39.7	-40.9	18.0	0.00e+00	0	44	0	3782213632	49	4198
2026-01-09 15:55:42.46	321.23	10.43	-39.6	-40.8	18.1	0.00e+00	0	44	0	3788505088	49	4180
2026-01-09 15:55:43.61	321.38	10.35	-39.7	-40.9	18.0	0.00e+00	0	44	0	3796893696	49	4222
2026-01-09 15:55:44.69	321.51	10.29	-39.7	-40.9	18.0	0.00e+00	0	44	0	3804233728	49	4227
2026-01-09 15:55:45.73	321.64	10.22	-39.7	-40.9	18.0	0.00e+00	0	44	0	3812622336	49	4207
2026-01-09 15:55:46.73	321.76	10.15	-39.6	-40.8	18.0	0.00e+00	0	44	0	3819962368	49	4175
2026-01-09 15:55:47.73	321.88	10.09	-39.6	-40.8	18.0	0.00e+00	0	44	0	3826253824	49	4183
2026-01-09 15:55:48.96	322.03	10.01	-39.6	-40.8	18.1	0.00e+00	0	44	0	3835691008	49	4151
2026-01-09 15:55:49.81	322.13	9.96	-39.5	-40.7	18.1	0.00e+00	0	44	0	3841982464	49	4136
2026-01-09 15:55:50.96	322.27	9.88	-39.7	-40.9	18.0	0.00e+00	0	44	0	3850371072	49	4200
2026-01-09 15:55:51.82	322.37	9.83	-39.6	-40.8	18.1	0.00e+00	0	44	0	3856662528	49	4146
2026-01-09 15:55:52.96	322.51	9.76	-39.6	-40.8	18.1	0.00e+00	0	44	0	3864002560	49	4159
2026-01-09 15:55:53.83	322.61	9.70	-39.7	-41.0	17.9	0.00e+00	0	45	0	3870294016	49	4248
2026-01-09 15:55:54.97	322.74	9.63	-39.7	-40.9	18.0	0.00e+00	0	44	0	3878682624	49	4202
2026-01-09 15:55:55.83	322.84	9.57	-39.6	-40.8	18.0	0.00e+00	0	44	0	3884974080	49	4187
2026-01-09 15:55:56.98	322.98	9.50	-39.8	-41.0	17.9	0.00e+00	0	44	0	3893362688	49	4262
2026-01-09 15:55:57.84	323.08	9.45	-39.7	-40.9	18.0	0.00e+00	0	45	0	3899654144	49	4225
2026-01-09 15:55:58.98	323.21	9.37	-39.8	-41.1	17.7	0.00e+00	0	44	0	3908042752	49	4311
2026-01-09 15:55:59.84	323.31	9.32	-39.9	-41.1	17.7	0.00e+00	0	44	0	3914334208	49	4340
2026-01-09 15:56:00.99	323.44	9.25	-40.1	-41.4	17.5	0.00e+00	0	45	0	3922722816	49	4456
2026-01-09 15:56:01.85	323.54	9.19	-40.0	-41.3	17.5	0.00e+00	0	44	0	3929014272	49	4441
2026-01-09 15:56:02.99	323.67	9.12	-39.9	-41.3	17.5	0.00e+00	0	44	0	3936354304	49	4423
2026-01-09 15:56:03.85	323.77	9.07	-39.8	-41.3	17.6	0.00e+00	0	45	0	3942645760	49	4393
2026-01-09 15:56:04.99	323.90	8.99	-48.4	-58.0	3.9	1.19e-01	0	45	0	3949985792	66	11334
2026-01-09 15:56:05.85	324.00	8.94	-48.9	-59.8	3.8	8.47e-01	0	45	104	3949985792	67	13227
2026-01-09 15:56:07.00	324.12	8.87	-49.2	-60.5	3.8	8.46e-01	0	44	104	3949985792	68	13492
2026-01-09 15:56:07.86	324.22	8.81	-49.3	-60.6	3.8	8.48e-01	0	44	104	3949985792	68	13652
2026-01-09 15:56:09.01	324.35	8.74	-49.7	-60.7	3.8	8.47e-01	0	45	104	3949985792	68	13834
2026-01-09 15:56:09.87	324.44	8.69	-49.4	-60.7	3.8	8.46e-01	0	45	104	3949985792	69	13076
2026-01-09 15:56:11.02	324.57	8.61	-50.0	-60.7	3.8	8.47e-01	0	44	104	3949985792	69	13101
2026-01-09 15:56:11.88	324.66	8.56	-50.0	-60.8	3.8	8.49e-01	0	45	104	3949985792	69	13227
2026-01-09 15:56:13.03	324.79	8.49	-50.0	-60.9	3.8	8.47e-01	0	45	104	3949985792	69	13322
2026-01-09 15:56:13.89	324.88	8.44	-49.8	-60.8	3.8	8.46e-01	0	44	104	3949985792	69	13186
2026-01-09 15:56:15.04	325.01	8.36	-49.9	-60.9	3.8	8.46e-01	0	44	104	3949985792	69	13301
2026-01-09 15:56:15.90	325.10	8.31	-49.9	-60.9	3.8	8.47e-01	0	45	104	3949985792	69	13401
2026-01-09 15:56:17.05	325.23	8.24	-50.0	-60.9	3.8	8.47e-01	0	44	104	3949985792	69	13368
2026-01-09 15:56:17.91	325.32	8.19	-50.2	-60.9	3.8	8.48e-01	0	44	104	3949985792	70	12610
2026-01-09 15:56:19.06	325.44	8.11	-50.2	-61.0	3.8	8.46e-01	0	45	104	3949985792	70	12674
2026-01-09 15:56:19.92	325.53	8.06	-50.3	-61.0	3.8	8.49e-01	0	44	104	3949985792	70	12711
2026-01-09 15:56:21.07	325.65	7.99	-50.1	-60.9	3.8	8.47e-01	0	44	104	3949985792	70	12598
2026-01-09 15:56:21.93	325.74	7.94	-50.2	-60.9	3.8	8.48e-01	0	44	104	3949985792	70	12532
2026-01-09 15:56:23.07	325.86	7.87	-50.1	-60.9	3.8	8.48e-01	0	44	104	3949985792	70	12602
2026-01-09 15:56:23.94	325.95	7.81	-50.0	-60.9	3.8	8.48e-01	0	45	104	3949985792	70	12602
2026-01-09 15:56:25.09	326.07	7.74	-50.1	-60.8	3.8	8.46e-01	0	44	104	3949985792	70	12474
2026-01-09 15:56:25.95	326.16	7.69	-49.9	-60.9	3.8	8.47e-01	0	44	104	3949985792	70	12540
2026-01-09 15:56:27.09	326.28	7.62	-49.9	-60.9	3.8	8.46e-01	0	45	104	3949985792	70	12544
2026-01-09 15:56:27.96	326.37	7.57	-49.9	-60.9	3.8	8.46e-01	0	45	104	3949985792	70	12588
2026-01-09 15:56:29.10	326.49	7.50	-49.9	-60.8	3.8	8.47e-01	0	45	104	3949985792	70	12518
2026-01-09 15:56:29.96	326.58	7.44	-49.9	-60.9	3.8	8.48e-01	0	45	104	3949985792	70	12565
2026-01-09 15:56:31.11	326.69	7.37	-49.9	-60.9	3.8	8.48e-01	0	44	104	3949985792	70	12561
2026-01-09 15:56:31.97	326.78	7.32	-49.9	-60.9	3.8	8.47e-01	0	44	104	3949985792	70	12521
2026-01-09 15:56:33.12	326.90	7.25	-49.9	-60.8	3.8	8.46e-01	0	45	104	3949985792	70	12490
2026-01-09 15:56:33.98	326.98	7.20	-49.9	-60.9	3.8	8.46e-01	0	45	104	3949985792	70	12528
2026-01-09 15:56:35.13	327.10	7.13	-49.9	-60.8	3.8	8.46e-01	0	44	104	3949985792	70	12518
2026-01-09 15:56:35.99	327.18	7.07	-49.9	-60.8	3.8	8.46e-01	0	44	104	3949985792	70	12493
2026-01-09 15:56:37.14	327.30	7.00	-49.9	-60.9	3.8	8.46e-01	0	44	104	3949985792	70	12523
2026-01-09 15:56:38.00	327.38	6.95	-49.9	-60.8	3.8	8.47e-01	0	44	104	3949985792	70	12506
2026-01-09 15:56:39.15	327.49	6.88	-49.9	-60.8	3.8	8.46e-01	0	45	104	3949985792	70	12513
2026-01-09 15:56:40.01	327.58	6.83	-49.9	-60.8	3.8	8.47e-01	0	44	104	3949985792	70	12486
2026-01-09 15:56:41.16	327.69	6.76	-49.9	-60.8	3.8	8.46e-01	0	44	104	3949985792	70	12474
2026-01-09 15:56:42.02	327.78	6.71	-49.9	-60.9	3.8	8.48e-01	0	44	104	3949985792	70	12560
2026-01-09 15:56:43.17	327.89	6.64	-49.9	-60.9	3.8	8.48e-01	0	44	104	3949985792	70	12610
2026-01-09 15:56:44.02	327.97	6.59	-49.9	-60.8	3.8	8.47e-01	0	44	104	3949985792	70	12466
2026-01-09 15:56:45.17	328.08	6.52	-49.9	-60.9	3.8	8.46e-01	0	44	104	3949985792	70	12578
2026-01-09 15:56:46.03	328.16	6.47	-49.9	-60.9	3.8	8.46e-01	0	44	104	3949985792	70	12520
2026-01-09 15:56:47.18	328.27	6.40	-49.9	-60.8	3.8	8.46e-01	0	44	104	3949985792	70	12494
2026-01-09 15:56:48.04	328.35	6.35	-49.9	-60.8	3.8	8.47e-01	0	45	104	3949985792	70	12478
2026-01-09 15:56:49.19	328.46	6.28	-49.9	-60.8	3.8	8.46e-01	0	44	104	3949985792	70	12499
2026-01-09 15:56:50.05	328.54	6.23	-49.9	-60.8	3.8	8.48e-01	0	44	104	3949985792	70	12489
2026-01-09 15:56:51.20	328.65	6.16	-49.9	-60.8	3.8	8.48e-01	0	44	104	3949985792	70	12457
2026-01-09 15:56:52.06	328.73	6.11	-49.9	-60.8	3.8	8.47e-01	0	44	104	3949985792	70	12441
2026-01-09 15:56:53.20	328.84	6.04	-49.9	-60.8	3.8	8.47e-01	0	45	104	3949985792	70	12456
2026-01-09 15:56:54.07	328.92	5.99	-49.9	-60.8	3.8	8.46e-01	0	45	104	3949985792	70	12507
2026-01-09 15:56:55.21	329.02	5.92	-49.9	-60.9	3.8	8.46e-01	0	45	104	3949985792	70	12529
2026-01-09 15:56:56.07	329.10	5.87	-49.9	-60.8	3.8	8.46e-01	0	44	104	3949985792	70	12496
2026-01-09 15:56:57.22	329.21	5.80	-49.9	-60.8	3.8	8.47e-01	0	44	104	3949985792	70	12513
2026-01-09 15:56:58.08	329.29	5.75	-49.9	-60.8	3.8	8.47e-01	0	44	104	3949985792	70	12480
2026-01-09 15:56:59.23	329.39	5.68	-49.9	-60.8	3.8	8.46e-01	0	45	104	3949985792	70	12445
2026-01-09 15:57:00.09	329.47	5.63	-49.9	-60.8	3.8	8.46e-01	0	45	104	3949985792	70	12515
2026-01-09 15:57:01.24	329.57	5.56	-49.9	-60.8	3.8	8.47e-01	0	44	104	3949985792	70	12506
2026-01-09 15:57:02.10	329.65	5.51	-49.9	-60.8	3.8	8.46e-01	0	45	104	3949985792	70	12514
2026-01-09 15:57:03.25	329.75	5.45	-49.9	-60.8	3.8	8.47e-01	0	45	104	3949985792	70	12509
2026-01-09 15:57:04.11	329.83	5.40	-49.9	-60.9	3.8	8.47e-01	0	45	104	3949985792	70	12565
2026-01-09 15:57:05.25	329.93	5.33	-49.9	-60.8	3.8	8.47e-01	0	45	104	3949985792	70	12403
2026-01-09 15:57:06.11	330.01	5.28	-49.9	-60.9	3.8	8.47e-01	0	45	104	3949985792	70	12598
2026-01-09 15:57:07.26	330.11	5.21	-49.9	-60.9	3.8	8.46e-01	0	45	104	3949985792	70	12530
2026-01-09 15:57:08.12	330.19	5.16	-49.9	-60.8	3.8	8.47e-01	0	45	104	3949985792	70	12493
2026-01-09 15:57:09.27	330.29	5.09	-49.9	-60.8	3.8	8.47e-01	0	44	104	3949985792	70	12384
2026-01-09 15:57:10.13	330.36	5.04	-49.9	-60.8	3.8	8.45e-01	0	45	104	3949985792	70	12507
2026-01-09 15:57:11.28	330.46	4.98	-49.9	-60.8	3.8	8.45e-01	0	45	104	3949985792	70	12478

#Closed at: 2026-01-09 15:57:12
#Recorded file [3949 MB]: D:/Data/31040_260109_184607.dat