passes_logs/2026/01/09/T1/T1__20260109_234926_NOAA_20_JPSS-1_rec.log

#Pass ID: 20260109_234926_NOAA 20 (JPSS-1)
#Satellite: NOAA 20 (JPSS-1)
#Configuration: NOAA 20
#almurnet v.1.7.20251203
#Start time: 2026-01-09 23:49:27

#Version: 2.0.20230620
#Station: T1
#Location: 37.570604 lon 55.790049 lat
#TLE: 1 43013U 17073A   26009.26828276  .00000112  00000+0  74203-4 0  9990
#TLE: 2 43013  98.7631 310.2683 0001700  47.4387 312.6933 14.19534764421920

#Time	Az	El	Level	Level2	SNR	BER	BlckErr	Temp	State	Recorded	gain1	gain2
2026-01-09 23:49:27.71	15.47	5.10	-49.9	-65.9	3.8	1.49e+00	0	41	0	0	70	24081
2026-01-09 23:49:28.71	15.46	5.17	-49.9	-66.0	3.8	1.49e+00	0	41	104	0	70	24407
2026-01-09 23:49:29.72	15.46	5.25	-49.9	-66.0	3.8	1.49e+00	0	41	104	0	70	24355
2026-01-09 23:49:30.72	15.46	5.32	-49.9	-66.0	3.8	1.49e+00	0	41	104	0	70	24333
2026-01-09 23:49:31.72	15.45	5.39	-49.9	-66.0	3.8	1.49e+00	0	41	104	0	70	24195
2026-01-09 23:49:32.73	15.45	5.46	-49.9	-65.9	3.8	1.49e+00	0	41	104	0	70	24002
2026-01-09 23:49:33.73	15.45	5.53	-49.9	-65.8	3.8	1.49e+00	0	41	104	0	70	23632
2026-01-09 23:49:34.74	15.44	5.61	-49.9	-65.8	3.8	1.49e+00	0	41	104	0	70	23754
2026-01-09 23:49:35.74	15.44	5.68	-49.9	-65.7	3.8	1.49e+00	0	41	104	0	70	23545
2026-01-09 23:49:36.75	15.43	5.75	-49.9	-65.7	3.8	1.49e+00	0	41	104	0	70	23345
2026-01-09 23:49:37.75	15.43	5.83	-49.9	-65.7	3.8	1.49e+00	0	42	104	0	70	23314
2026-01-09 23:49:38.76	15.43	5.90	-49.9	-65.7	3.8	1.49e+00	0	41	104	0	70	23370
2026-01-09 23:49:39.76	15.42	5.98	-49.9	-65.7	3.8	1.49e+00	0	41	104	0	70	23353
2026-01-09 23:49:40.76	15.42	6.05	-49.9	-65.8	3.8	1.49e+00	0	41	104	0	70	23628
2026-01-09 23:49:41.77	15.41	6.12	-49.9	-65.8	3.8	1.49e+00	0	41	104	0	70	23675
2026-01-09 23:49:42.77	15.41	6.20	-49.9	-65.8	3.8	1.49e+00	0	41	104	0	70	23733
2026-01-09 23:49:43.78	15.41	6.27	-49.9	-65.8	3.8	1.49e+00	0	41	104	0	70	23728
2026-01-09 23:49:44.78	15.40	6.35	-49.9	-65.9	3.8	1.49e+00	0	42	104	0	70	23938
2026-01-09 23:49:45.78	15.40	6.42	-49.9	-65.9	3.8	1.49e+00	0	42	104	0	70	23935
2026-01-09 23:49:46.79	15.39	6.50	-49.9	-65.9	3.8	1.49e+00	0	42	104	0	70	23959
2026-01-09 23:49:47.79	15.39	6.58	-49.9	-65.9	3.8	1.49e+00	0	42	104	0	70	24040
2026-01-09 23:49:48.80	15.39	6.65	-49.9	-65.9	3.8	1.49e+00	0	41	104	0	70	24103
2026-01-09 23:49:49.80	15.38	6.73	-49.9	-66.0	3.8	1.49e+00	0	42	104	0	70	24346
2026-01-09 23:49:50.81	15.38	6.80	-49.9	-66.1	3.8	1.49e+00	0	42	104	0	70	24591
2026-01-09 23:49:51.81	15.37	6.88	-49.9	-66.1	3.8	1.49e+00	0	42	104	0	70	24687
2026-01-09 23:49:52.82	15.37	6.96	-49.9	-66.2	3.8	1.49e+00	0	42	104	0	70	24768
2026-01-09 23:49:53.82	15.36	7.03	-49.9	-66.1	3.8	1.49e+00	0	42	104	0	70	24433
2026-01-09 23:49:54.83	15.36	7.11	-49.9	-65.8	3.8	1.49e+00	0	42	104	0	70	23667
2026-01-09 23:49:55.83	15.36	7.19	-49.9	-65.3	3.8	1.49e+00	0	42	104	0	70	22441
2026-01-09 23:49:56.83	15.35	7.27	-49.8	-64.6	3.8	1.49e+00	0	42	104	0	70	20701
2026-01-09 23:49:57.84	15.35	7.35	-49.8	-63.9	3.8	1.49e+00	0	42	104	0	70	18960
2026-01-09 23:49:58.84	15.34	7.42	-49.7	-63.0	4.1	1.47e+00	0	42	0	0	70	17134
2026-01-09 23:49:59.85	15.34	7.50	-49.6	-62.1	4.4	1.36e+00	0	42	0	0	70	15502
2026-01-09 23:50:00.85	15.33	7.58	-49.6	-61.3	4.6	1.07e+00	0	42	0	2097152	70	14179
2026-01-09 23:50:01.86	15.33	7.66	-49.5	-60.8	4.9	7.81e-01	0	42	0	3145728	70	13303
2026-01-09 23:50:02.86	15.32	7.74	-49.5	-60.2	5.2	6.31e-01	0	42	0	5242880	70	12515
2026-01-09 23:50:03.87	15.32	7.82	-49.4	-59.6	5.6	4.51e-01	0	42	0	7340032	70	11634
2026-01-09 23:50:04.87	15.31	7.90	-49.3	-59.2	5.9	3.89e-01	0	42	0	9437184	70	11114
2026-01-09 23:50:05.87	15.31	7.98	-49.3	-58.9	6.1	3.17e-01	0	42	0	11534336	70	10749
2026-01-09 23:50:06.88	15.30	8.06	-49.3	-58.6	6.3	2.94e-01	0	42	0	12582912	70	10385
2026-01-09 23:50:07.88	15.30	8.14	-49.2	-58.4	6.6	2.57e-01	0	42	0	14680064	70	10078
2026-01-09 23:50:08.89	15.29	8.22	-49.2	-58.2	6.7	2.00e-01	0	42	0	16777216	70	9897
2026-01-09 23:50:09.89	15.29	8.30	-49.2	-58.0	6.9	2.12e-01	0	42	0	18874368	70	9691
2026-01-09 23:50:10.90	15.28	8.38	-49.2	-58.0	6.8	1.73e-01	0	42	0	19922944	70	9705
2026-01-09 23:50:11.90	15.28	8.46	-49.2	-58.1	6.8	1.69e-01	0	43	0	22020096	70	9737
2026-01-09 23:50:12.91	15.27	8.55	-49.2	-58.2	6.7	1.86e-01	0	42	0	24117248	70	9932
2026-01-09 23:50:13.91	15.26	8.63	-49.2	-58.1	6.8	1.69e-01	0	42	0	26214400	70	9795
2026-01-09 23:50:14.92	15.26	8.71	-49.3	-58.5	6.5	2.27e-01	0	42	0	28311552	70	10210
2026-01-09 23:50:15.92	15.25	8.79	-49.3	-58.9	6.2	2.67e-01	0	43	0	30408704	70	10665
2026-01-09 23:50:16.92	15.25	8.88	-49.4	-59.3	5.8	3.57e-01	0	42	0	31457280	70	11254
2026-01-09 23:50:17.93	15.24	8.96	-49.5	-60.2	5.3	4.98e-01	0	42	0	33554432	70	12432
2026-01-09 23:50:18.93	15.24	9.04	-49.6	-61.1	4.7	7.60e-01	0	42	0	35651584	70	13861
2026-01-09 23:50:19.93	15.23	9.13	-49.4	-63.2	4.1	1.25e+00	0	43	0	36700160	70	17527
2026-01-09 23:50:20.94	15.22	9.21	-49.1	-58.0	7.0	9.78e-01	0	42	0	37748736	70	9664
2026-01-09 23:50:21.94	15.22	9.29	-49.8	-65.2	3.8	1.34e+00	0	42	104	38797312	70	22113
2026-01-09 23:50:22.96	15.21	9.38	-49.5	-65.4	3.8	1.49e+00	0	43	104	38797312	70	22779
2026-01-09 23:50:24.00	15.21	9.47	-50.0	-60.9	4.9	1.49e+00	0	43	104	38797312	70	13508
2026-01-09 23:50:24.99	15.20	9.55	-50.0	-60.8	4.9	7.14e-01	0	43	0	39845888	70	13289
2026-01-09 23:50:26.00	15.19	9.64	-50.0	-59.4	5.7	5.24e-01	0	43	0	41943040	70	11417
2026-01-09 23:50:27.00	15.19	9.72	-49.9	-58.4	6.5	2.95e-01	0	43	0	44040192	70	10131
2026-01-09 23:50:28.00	15.18	9.81	-50.0	-58.3	6.6	1.91e-01	0	43	0	45088768	70	9964
2026-01-09 23:50:29.00	15.18	9.89	-50.0	-58.2	6.8	1.88e-01	0	42	0	47185920	70	9851
2026-01-09 23:50:30.01	15.17	9.98	-48.6	-54.7	10.3	2.59e-02	0	43	0	49283072	69	7014
2026-01-09 23:50:31.01	15.16	10.07	-49.4	-66.2	3.8	5.13e-01	0	43	104	50331648	69	26386
2026-01-09 23:50:32.02	15.16	10.16	-49.3	-62.7	4.2	1.45e+00	0	43	0	50331648	69	17632
2026-01-09 23:50:33.02	15.15	10.24	-49.4	-65.4	3.8	1.49e+00	0	43	104	50331648	69	24055
2026-01-09 23:50:34.02	15.14	10.33	-49.4	-62.9	4.2	1.49e+00	0	43	0	50331648	69	17972
2026-01-09 23:50:35.02	15.14	10.42	-49.3	-62.2	4.4	1.33e+00	0	43	0	50331648	69	16685
2026-01-09 23:50:36.03	15.13	10.51	-49.3	-62.5	4.3	1.39e+00	0	43	0	50331648	69	17179
2026-01-09 23:50:37.03	15.12	10.60	-49.4	-62.4	4.3	1.36e+00	0	43	0	50331648	69	16907
2026-01-09 23:50:38.03	15.12	10.68	-49.3	-62.4	4.3	1.36e+00	0	43	0	50331648	69	16999
2026-01-09 23:50:39.04	15.11	10.77	-48.9	-57.7	7.3	2.74e-01	0	43	0	52428800	69	9934
2026-01-09 23:50:40.04	15.10	10.86	-49.6	-64.8	3.8	1.00e+00	0	43	104	53477376	69	22308
2026-01-09 23:50:41.04	15.09	10.95	-49.4	-65.2	3.8	1.49e+00	0	43	104	53477376	69	23579
2026-01-09 23:50:42.04	15.09	11.04	-47.7	-53.1	11.9	9.19e-03	0	43	0	53477376	67	6540
2026-01-09 23:50:43.05	15.08	11.13	-47.8	-53.1	11.9	4.23e-04	0	43	0	55574528	67	6560
2026-01-09 23:50:44.05	15.07	11.23	-47.6	-52.4	12.6	1.87e-04	0	43	0	57671680	67	6023
2026-01-09 23:50:45.05	15.06	11.32	-47.4	-52.0	13.1	6.79e-05	0	43	0	58720256	66	6086
2026-01-09 23:50:46.05	15.06	11.41	-47.3	-51.8	13.2	2.21e-05	0	43	0	60817408	66	5988
2026-01-09 23:50:47.05	15.05	11.50	-47.3	-51.9	13.2	1.98e-05	0	43	0	62914560	66	6032
2026-01-09 23:50:48.06	15.04	11.59	-47.2	-51.8	13.3	2.44e-05	0	43	0	65011712	66	5972
2026-01-09 23:50:49.06	15.03	11.69	-47.2	-51.8	13.4	1.29e-05	0	43	0	67108864	66	5925
2026-01-09 23:50:50.07	15.03	11.78	-47.1	-51.6	13.5	1.67e-05	0	43	0	68157440	66	5790
2026-01-09 23:50:51.15	15.02	11.88	-47.1	-51.4	13.7	1.14e-05	0	43	0	70254592	66	5696
2026-01-09 23:50:52.04	15.01	11.96	-47.2	-51.5	13.6	6.10e-06	0	43	0	72351744	66	5762
2026-01-09 23:50:53.18	15.00	12.07	-47.1	-51.3	13.8	6.80e-06	0	43	0	74448896	66	5629
2026-01-09 23:50:54.10	14.99	12.16	-46.9	-51.1	14.0	3.80e-06	0	43	0	75497472	65	5855
2026-01-09 23:50:55.28	14.98	12.27	-46.8	-51.1	14.0	5.30e-06	0	43	0	78643200	65	5816
2026-01-09 23:50:56.14	14.98	12.35	-46.9	-51.1	14.0	3.00e-06	0	43	0	79691776	65	5835
2026-01-09 23:50:57.51	14.97	12.48	-46.9	-51.2	13.9	7.00e-07	0	43	0	82837504	65	5909
2026-01-09 23:50:58.23	14.96	12.55	-46.9	-51.0	14.1	3.00e-06	0	43	0	83886080	65	5782
2026-01-09 23:50:59.52	14.95	12.67	-46.9	-51.0	14.1	1.50e-06	0	43	0	85983232	65	5773
2026-01-09 23:51:00.23	14.94	12.74	-46.9	-51.1	14.1	7.00e-07	0	43	0	87031808	65	5800
2026-01-09 23:51:01.53	14.93	12.87	-46.8	-51.0	14.1	3.00e-06	0	43	0	90177536	65	5780
2026-01-09 23:51:02.24	14.93	12.94	-46.8	-50.9	14.2	3.00e-06	0	43	0	91226112	65	5719
2026-01-09 23:51:03.53	14.91	13.06	-46.8	-51.0	14.2	7.00e-07	0	43	0	93323264	65	5735
2026-01-09 23:51:04.25	14.91	13.13	-46.8	-50.9	14.3	1.50e-06	0	43	0	95420416	65	5689
2026-01-09 23:51:05.54	14.90	13.26	-46.7	-50.9	14.2	7.00e-07	0	43	0	97517568	65	5709
2026-01-09 23:51:06.25	14.89	13.33	-46.7	-50.9	14.3	1.50e-06	0	43	0	98566144	65	5688
2026-01-09 23:51:07.55	14.88	13.46	-46.7	-50.9	14.3	0.00e+00	0	43	0	101711872	65	5689
2026-01-09 23:51:08.26	14.87	13.53	-46.7	-50.9	14.3	1.50e-06	0	43	0	102760448	65	5663
2026-01-09 23:51:09.55	14.86	13.66	-46.7	-50.8	14.4	7.00e-07	0	43	0	104857600	65	5643
2026-01-09 23:51:10.27	14.85	13.73	-46.8	-50.8	14.4	0.00e+00	0	43	0	105906176	65	5631
2026-01-09 23:51:11.67	14.84	13.87	-46.7	-50.8	14.4	1.50e-06	0	43	0	109051904	65	5630
2026-01-09 23:51:12.67	14.83	13.98	-46.5	-50.6	14.6	7.00e-07	0	43	0	111149056	65	5496
2026-01-09 23:51:13.67	14.82	14.08	-46.6	-50.6	14.6	0.00e+00	0	43	0	113246208	65	5526
2026-01-09 23:51:14.68	14.81	14.18	-46.6	-50.6	14.6	0.00e+00	0	43	0	114294784	65	5500
2026-01-09 23:51:15.68	14.80	14.28	-46.6	-50.6	14.7	7.00e-07	0	43	0	116391936	65	5476
2026-01-09 23:51:16.68	14.79	14.39	-46.6	-50.6	14.6	1.50e-06	0	43	0	118489088	65	5509
2026-01-09 23:51:17.69	14.78	14.49	-46.6	-50.6	14.7	0.00e+00	0	43	0	120586240	65	5469
2026-01-09 23:51:18.69	14.77	14.60	-46.5	-50.5	14.8	0.00e+00	0	43	0	121634816	65	5409
2026-01-09 23:51:19.76	14.76	14.71	-46.6	-50.5	14.8	0.00e+00	0	43	0	123731968	65	5449
2026-01-09 23:51:20.65	14.75	14.80	-46.5	-50.3	14.9	7.00e-07	0	43	0	125829120	65	5332
2026-01-09 23:51:21.88	14.74	14.93	-46.6	-50.5	14.8	0.00e+00	0	43	0	127926272	64	5744
2026-01-09 23:51:22.74	14.73	15.02	-46.6	-50.4	14.9	0.00e+00	0	43	0	130023424	64	5662
2026-01-09 23:51:23.88	14.71	15.14	-46.6	-50.3	14.9	0.00e+00	0	43	0	132120576	64	5634
2026-01-09 23:51:24.81	14.70	15.24	-46.7	-50.4	14.9	0.00e+00	0	43	0	133169152	64	5703
2026-01-09 23:51:25.97	14.69	15.37	-46.6	-50.3	15.0	0.00e+00	0	43	0	136314880	64	5601
2026-01-09 23:51:26.83	14.68	15.46	-46.6	-50.2	15.1	0.00e+00	0	43	0	137363456	64	5590
2026-01-09 23:51:27.98	14.67	15.59	-46.6	-50.1	15.2	7.00e-07	0	43	0	139460608	64	5528
2026-01-09 23:51:28.84	14.66	15.68	-46.6	-50.2	15.1	0.00e+00	0	43	0	141557760	64	5586
2026-01-09 23:51:29.98	14.65	15.80	-46.6	-50.2	15.1	0.00e+00	0	43	0	143654912	64	5552
2026-01-09 23:51:30.84	14.64	15.90	-46.5	-50.0	15.3	0.00e+00	0	43	0	144703488	64	5450
2026-01-09 23:51:31.99	14.62	16.03	-46.6	-50.1	15.2	7.00e-07	0	43	0	146800640	64	5491
2026-01-09 23:51:32.85	14.61	16.12	-46.6	-50.0	15.3	0.00e+00	0	43	0	148897792	64	5458
2026-01-09 23:51:34.00	14.60	16.25	-46.6	-50.0	15.3	0.00e+00	0	43	0	150994944	64	5442
2026-01-09 23:51:34.86	14.59	16.35	-46.6	-50.0	15.4	0.00e+00	0	43	0	152043520	64	5421
2026-01-09 23:51:36.00	14.57	16.47	-46.5	-49.9	15.4	0.00e+00	0	43	0	154140672	64	5346
2026-01-09 23:51:36.86	14.56	16.57	-46.4	-49.8	15.5	0.00e+00	0	43	0	156237824	64	5317
2026-01-09 23:51:38.01	14.55	16.70	-46.5	-49.8	15.5	0.00e+00	0	43	0	158334976	64	5313
2026-01-09 23:51:38.87	14.54	16.80	-46.4	-49.7	15.7	0.00e+00	0	43	0	160432128	64	5257
2026-01-09 23:51:40.15	14.52	16.95	-46.5	-49.8	15.5	0.00e+00	0	43	0	162529280	64	5308
2026-01-09 23:51:40.88	14.51	17.03	-46.5	-49.8	15.6	0.00e+00	0	43	0	163577856	64	5304
2026-01-09 23:51:42.17	14.50	17.18	-46.3	-49.6	15.8	0.00e+00	0	43	0	165675008	64	5185
2026-01-09 23:51:42.88	14.49	17.26	-46.4	-49.6	15.8	0.00e+00	0	43	0	167772160	64	5181
2026-01-09 23:51:44.17	14.47	17.41	-46.4	-49.5	15.9	0.00e+00	0	43	0	169869312	64	5143
2026-01-09 23:51:44.89	14.46	17.50	-46.4	-49.5	15.9	0.00e+00	0	43	0	170917888	64	5132
2026-01-09 23:51:46.18	14.44	17.65	-46.4	-49.5	15.9	0.00e+00	0	43	0	174063616	64	5146
2026-01-09 23:51:47.00	14.43	17.75	-46.2	-49.4	16.1	0.00e+00	0	43	0	175112192	64	5047
2026-01-09 23:51:48.15	14.42	17.88	-46.3	-49.4	16.0	0.00e+00	0	43	0	177209344	64	5073
2026-01-09 23:51:49.01	14.40	17.99	-46.3	-49.4	16.0	0.00e+00	0	43	0	179306496	64	5068
2026-01-09 23:51:50.16	14.39	18.12	-46.2	-49.3	16.1	0.00e+00	0	43	0	181403648	64	5039
2026-01-09 23:51:51.02	14.38	18.23	-46.3	-49.4	16.0	0.00e+00	0	43	0	182452224	64	5076
2026-01-09 23:51:52.17	14.36	18.37	-46.2	-49.3	16.1	0.00e+00	0	43	0	184549376	64	5025
2026-01-09 23:51:53.03	14.35	18.47	-46.2	-49.2	16.2	0.00e+00	0	43	0	186646528	64	4969
2026-01-09 23:51:54.17	14.33	18.61	-46.2	-49.3	16.1	0.00e+00	0	43	0	188743680	64	5028
2026-01-09 23:51:55.03	14.32	18.72	-46.2	-49.2	16.2	0.00e+00	0	43	0	189792256	64	4982
2026-01-09 23:51:56.18	14.30	18.86	-46.2	-49.2	16.2	0.00e+00	0	43	0	192937984	64	4981
2026-01-09 23:51:57.04	14.29	18.97	-46.2	-49.2	16.2	0.00e+00	0	43	0	193986560	64	4978
2026-01-09 23:51:58.18	14.27	19.11	-46.2	-49.2	16.2	0.00e+00	0	43	0	196083712	64	4938
2026-01-09 23:51:59.14	14.26	19.23	-46.2	-49.1	16.3	0.00e+00	0	43	0	198180864	64	4913
2026-01-09 23:52:00.14	14.24	19.36	-46.2	-49.1	16.3	0.00e+00	0	43	0	200278016	64	4915
2026-01-09 23:52:01.35	14.22	19.51	-46.2	-49.2	16.2	0.00e+00	0	43	0	202375168	64	4956
2026-01-09 23:52:02.24	14.21	19.63	-46.3	-49.2	16.2	0.00e+00	0	43	0	203423744	64	4977
2026-01-09 23:52:03.38	14.19	19.77	-46.1	-49.0	16.4	0.00e+00	0	43	0	205520896	64	4844
2026-01-09 23:52:04.31	14.17	19.89	-46.1	-49.1	16.4	0.00e+00	0	43	0	207618048	64	4882
2026-01-09 23:52:05.47	14.16	20.04	-46.2	-49.1	16.3	0.00e+00	0	43	0	209715200	64	4911
2026-01-09 23:52:06.33	14.14	20.15	-46.1	-49.1	16.4	0.00e+00	0	43	0	211812352	64	4872
2026-01-09 23:52:07.48	14.12	20.31	-46.2	-49.1	16.4	0.00e+00	0	43	0	213909504	64	4888
2026-01-09 23:52:08.34	14.11	20.42	-46.2	-49.0	16.4	0.00e+00	0	43	0	214958080	64	4866
2026-01-09 23:52:09.49	14.09	20.57	-46.1	-49.0	16.5	0.00e+00	0	43	0	217055232	64	4833
2026-01-09 23:52:10.35	14.07	20.69	-46.2	-49.0	16.4	0.00e+00	0	43	0	219152384	64	4861
2026-01-09 23:52:11.49	14.05	20.84	-46.0	-48.8	16.6	0.00e+00	0	43	0	221249536	64	4758
2026-01-09 23:52:12.35	14.04	20.96	-46.0	-48.9	16.6	0.00e+00	0	43	0	222298112	64	4764
2026-01-09 23:52:13.50	14.02	21.11	-46.1	-49.0	16.5	0.00e+00	0	43	0	224395264	64	4821
2026-01-09 23:52:14.35	14.00	21.23	-46.1	-48.9	16.5	0.00e+00	0	43	0	226492416	64	4803
2026-01-09 23:52:15.50	13.98	21.38	-46.1	-49.0	16.5	0.00e+00	0	43	0	228589568	64	4833
2026-01-09 23:52:16.36	13.96	21.50	-46.1	-48.9	16.6	0.00e+00	0	43	0	230686720	64	4789
2026-01-09 23:52:17.50	13.94	21.66	-46.1	-49.0	16.5	0.00e+00	0	43	0	232783872	64	4830
2026-01-09 23:52:18.37	13.93	21.78	-46.1	-48.9	16.6	0.00e+00	0	43	0	233832448	64	4814
2026-01-09 23:52:19.67	13.90	21.96	-46.1	-49.0	16.5	0.00e+00	0	43	0	236978176	64	4826
2026-01-09 23:52:20.38	13.89	22.06	-46.0	-48.9	16.6	0.00e+00	0	43	0	238026752	64	4764
2026-01-09 23:52:21.68	13.86	22.25	-46.0	-48.9	16.7	0.00e+00	0	43	0	240123904	64	4760
2026-01-09 23:52:22.39	13.85	22.35	-46.1	-48.9	16.6	0.00e+00	0	43	0	241172480	64	4801
2026-01-09 23:52:23.68	13.82	22.53	-46.0	-48.8	16.7	0.00e+00	0	43	0	244318208	64	4759
2026-01-09 23:52:24.40	13.81	22.64	-46.0	-48.8	16.7	0.00e+00	0	43	0	245366784	64	4751
2026-01-09 23:52:25.69	13.78	22.82	-46.1	-48.9	16.7	0.00e+00	0	43	0	247463936	63	5067
2026-01-09 23:52:26.40	13.77	22.93	-46.1	-48.9	16.7	0.00e+00	0	43	0	249561088	63	5075
2026-01-09 23:52:27.69	13.74	23.12	-46.0	-48.9	16.7	0.00e+00	0	43	0	251658240	63	5055
2026-01-09 23:52:28.41	13.73	23.22	-46.0	-48.7	16.8	0.00e+00	0	43	0	252706816	63	4980
2026-01-09 23:52:29.77	13.70	23.42	-45.8	-48.6	17.0	0.00e+00	0	43	0	255852544	63	4874
2026-01-09 23:52:30.49	13.68	23.53	-45.9	-48.7	16.9	0.00e+00	0	43	0	256901120	63	4969
2026-01-09 23:52:31.78	13.65	23.73	-45.9	-48.7	16.9	0.00e+00	0	43	0	258998272	63	4936
2026-01-09 23:52:32.49	13.64	23.83	-45.8	-48.6	17.0	0.00e+00	0	43	0	260046848	63	4890
2026-01-09 23:52:33.78	13.61	24.03	-45.9	-48.7	16.9	0.00e+00	0	43	0	263192576	63	4961
2026-01-09 23:52:34.50	13.59	24.14	-45.9	-48.7	17.0	0.00e+00	0	43	0	264241152	63	4927
2026-01-09 23:52:35.79	13.56	24.34	-45.8	-48.6	17.0	0.00e+00	0	43	0	266338304	63	4881
2026-01-09 23:52:36.50	13.55	24.45	-45.8	-48.6	17.1	0.00e+00	0	43	0	268435456	63	4880
2026-01-09 23:52:37.80	13.52	24.65	-45.7	-48.5	17.2	0.00e+00	0	43	0	270532608	63	4823
2026-01-09 23:52:38.51	13.50	24.76	-45.7	-48.5	17.1	0.00e+00	0	43	0	271581184	63	4816
2026-01-09 23:52:39.80	13.47	24.96	-45.7	-48.5	17.2	0.00e+00	0	43	0	273678336	63	4828
2026-01-09 23:52:40.52	13.45	25.08	-45.7	-48.4	17.2	0.00e+00	0	43	0	275775488	63	4807
2026-01-09 23:52:41.81	13.42	25.28	-45.7	-48.5	17.1	0.00e+00	0	43	0	277872640	63	4833
2026-01-09 23:52:42.53	13.40	25.40	-45.8	-48.5	17.1	0.00e+00	0	43	0	278921216	63	4869
2026-01-09 23:52:43.82	13.37	25.60	-45.9	-48.6	17.0	0.00e+00	0	43	0	282066944	63	4924
2026-01-09 23:52:44.53	13.35	25.72	-45.9	-48.7	17.0	0.00e+00	0	43	0	283115520	63	4951
2026-01-09 23:52:45.82	13.32	25.93	-46.0	-48.8	16.9	0.00e+00	0	43	0	285212672	63	4986
2026-01-09 23:52:46.54	13.30	26.05	-46.0	-48.8	16.8	0.00e+00	0	43	0	287309824	63	5041
2026-01-09 23:52:47.83	13.27	26.26	-46.1	-48.9	16.7	0.00e+00	0	43	0	289406976	63	5089
2026-01-09 23:52:48.54	13.25	26.38	-46.2	-49.0	16.6	0.00e+00	0	43	0	290455552	63	5146
2026-01-09 23:52:49.83	13.21	26.59	-46.3	-49.2	16.4	0.00e+00	0	43	0	292552704	63	5260
2026-01-09 23:52:50.55	13.19	26.71	-46.4	-49.3	16.3	0.00e+00	0	43	0	294649856	63	5325
2026-01-09 23:52:51.84	13.16	26.93	-46.6	-49.6	16.1	0.00e+00	0	43	0	296747008	63	5480
2026-01-09 23:52:52.55	13.14	27.05	-46.6	-49.6	16.0	0.00e+00	0	43	0	297795584	63	5520
2026-01-09 23:52:53.84	13.10	27.27	-46.7	-49.8	15.8	0.00e+00	0	43	0	300941312	64	5318
2026-01-09 23:52:54.56	13.08	27.40	-46.7	-49.8	15.8	0.00e+00	0	43	0	301989888	64	5290
2026-01-09 23:52:55.85	13.04	27.62	-46.8	-50.0	15.6	0.00e+00	0	43	0	304087040	64	5434
2026-01-09 23:52:56.57	13.02	27.75	-46.9	-50.0	15.5	0.00e+00	0	43	0	306184192	64	5453
2026-01-09 23:52:57.86	12.98	27.97	-47.0	-50.2	15.4	0.00e+00	0	43	0	308281344	64	5557
2026-01-09 23:52:58.57	12.96	28.10	-47.1	-50.4	15.2	0.00e+00	0	43	0	309329920	64	5672
2026-01-09 23:52:59.86	12.92	28.33	-47.2	-50.5	15.1	0.00e+00	0	43	0	311427072	65	5431
2026-01-09 23:53:00.58	12.90	28.46	-47.2	-50.5	15.1	0.00e+00	0	43	0	313524224	65	5450
2026-01-09 23:53:01.87	12.86	28.69	-47.6	-51.0	14.5	7.00e-07	0	43	0	315621376	65	5787
2026-01-09 23:53:02.58	12.84	28.82	-47.6	-51.0	14.6	0.00e+00	0	44	0	316669952	65	5780
2026-01-09 23:53:03.87	12.80	29.06	-47.6	-51.2	14.4	0.00e+00	0	43	0	319815680	65	5879
2026-01-09 23:53:04.59	12.77	29.19	-47.8	-51.4	14.2	3.80e-06	0	43	0	320864256	66	5691
2026-01-09 23:53:05.88	12.73	29.43	-47.8	-51.5	14.1	1.50e-06	0	43	0	322961408	66	5726
2026-01-09 23:53:06.59	12.71	29.56	-47.9	-51.6	14.0	7.00e-07	0	43	0	324009984	66	5820
2026-01-09 23:53:07.88	12.66	29.80	-47.9	-51.7	13.9	1.50e-06	0	43	0	327155712	66	5888
2026-01-09 23:53:08.60	12.64	29.94	-47.9	-51.7	13.9	3.80e-06	0	43	0	328204288	66	5902
2026-01-09 23:53:09.89	12.60	30.18	-48.1	-52.0	13.7	5.30e-06	0	43	0	330301440	66	6067
2026-01-09 23:53:10.61	12.57	30.32	-48.0	-51.9	13.7	6.80e-06	0	43	0	332398592	66	6046
2026-01-09 23:53:11.89	12.53	30.56	-48.1	-52.0	13.7	7.60e-06	0	44	0	334495744	66	6090
2026-01-09 23:53:12.61	12.50	30.70	-48.1	-52.1	13.6	8.30e-06	0	43	0	335544320	66	6159
2026-01-09 23:53:13.93	12.45	30.96	-48.0	-51.9	13.8	3.80e-06	0	43	0	338690048	66	6016
2026-01-09 23:53:14.65	12.42	31.10	-48.1	-51.9	13.7	7.00e-07	0	43	0	339738624	66	6039
2026-01-09 23:53:15.94	12.38	31.36	-48.1	-52.0	13.6	6.80e-06	0	43	0	341835776	66	6100
2026-01-09 23:53:16.66	12.35	31.50	-48.2	-52.1	13.6	3.80e-06	0	43	0	342884352	66	6145
2026-01-09 23:53:18.09	12.29	31.79	-48.2	-52.1	13.6	4.50e-06	0	43	0	346030080	67	5800
2026-01-09 23:53:19.06	12.26	31.98	-48.2	-52.2	13.5	9.10e-06	0	44	0	348127232	67	5867
2026-01-09 23:53:20.41	12.20	32.26	-48.2	-52.3	13.4	1.44e-05	0	43	0	350224384	67	5925
2026-01-09 23:53:21.18	12.17	32.42	-48.2	-52.3	13.4	2.44e-05	0	44	0	352321536	67	5944
2026-01-09 23:53:22.47	12.12	32.68	-48.2	-52.2	13.5	9.90e-06	0	43	0	354418688	67	5886
2026-01-09 23:53:23.18	12.09	32.83	-48.2	-52.3	13.4	1.22e-05	0	43	0	355467264	67	5951
2026-01-09 23:53:24.47	12.03	33.10	-48.2	-52.3	13.4	1.44e-05	0	43	0	357564416	67	5963
2026-01-09 23:53:25.19	12.00	33.25	-48.1	-52.1	13.5	9.90e-06	0	43	0	359661568	67	5840
2026-01-09 23:53:26.48	11.95	33.53	-48.0	-51.8	13.8	9.90e-06	0	43	0	361758720	67	5655
2026-01-09 23:53:27.20	11.92	33.68	-47.9	-51.7	14.0	6.10e-06	0	43	0	362807296	67	5543
2026-01-09 23:53:28.54	11.86	33.97	-47.6	-51.1	14.6	0.00e+00	0	43	0	365953024	67	5213
2026-01-09 23:53:29.25	11.82	34.12	-47.6	-51.1	14.6	7.00e-07	0	44	0	367001600	67	5169
2026-01-09 23:53:30.54	11.77	34.40	-47.4	-50.8	15.0	0.00e+00	0	43	0	369098752	66	5291
2026-01-09 23:53:31.26	11.73	34.56	-47.2	-50.4	15.3	0.00e+00	0	43	0	370147328	66	5097
2026-01-09 23:53:32.55	11.67	34.85	-47.0	-50.2	15.5	0.00e+00	0	43	0	373293056	66	4956
2026-01-09 23:53:33.27	11.64	35.01	-47.0	-50.1	15.6	0.00e+00	0	43	0	374341632	66	4887
2026-01-09 23:53:34.56	11.57	35.30	-46.7	-49.7	16.0	0.00e+00	0	43	0	376438784	65	4950
2026-01-09 23:53:35.27	11.54	35.46	-46.5	-49.4	16.3	0.00e+00	0	43	0	378535936	65	4791
2026-01-09 23:53:36.56	11.47	35.75	-46.3	-49.1	16.5	0.00e+00	0	43	0	380633088	64	4920
2026-01-09 23:53:37.28	11.44	35.92	-46.1	-48.9	16.8	0.00e+00	0	44	0	381681664	64	4766
2026-01-09 23:53:38.57	11.37	36.22	-46.0	-48.7	17.1	0.00e+00	0	43	0	384827392	63	4956
2026-01-09 23:53:39.29	11.33	36.38	-46.0	-48.7	17.1	0.00e+00	0	43	0	385875968	63	4960
2026-01-09 23:53:40.58	11.26	36.69	-45.6	-48.3	17.5	0.00e+00	0	43	0	387973120	63	4723
2026-01-09 23:53:41.29	11.23	36.85	-45.7	-48.3	17.5	0.00e+00	0	43	0	389021696	63	4744
2026-01-09 23:53:42.58	11.16	37.16	-45.6	-48.3	17.5	0.00e+00	0	44	0	392167424	63	4709
2026-01-09 23:53:43.30	11.12	37.33	-45.6	-48.3	17.5	0.00e+00	0	43	0	393216000	63	4737
2026-01-09 23:53:44.59	11.04	37.64	-45.6	-48.3	17.5	0.00e+00	0	44	0	395313152	63	4707
2026-01-09 23:53:45.72	10.98	37.92	-45.6	-48.2	17.6	0.00e+00	0	44	0	397410304	63	4688
2026-01-09 23:53:46.58	10.93	38.13	-45.7	-48.3	17.4	0.00e+00	0	43	0	399507456	63	4759
2026-01-09 23:53:47.72	10.86	38.41	-45.7	-48.3	17.5	0.00e+00	0	44	0	401604608	63	4748
2026-01-09 23:53:48.58	10.81	38.62	-45.7	-48.4	17.4	0.00e+00	0	43	0	403701760	63	4782
2026-01-09 23:53:49.73	10.74	38.91	-45.7	-48.3	17.5	0.00e+00	0	44	0	405798912	63	4719
2026-01-09 23:53:50.59	10.68	39.13	-45.9	-48.6	17.2	0.00e+00	0	43	0	406847488	63	4897
2026-01-09 23:53:51.91	10.60	39.46	-45.9	-48.6	17.3	0.00e+00	0	43	0	408944640	63	4877
2026-01-09 23:53:52.63	10.55	39.65	-45.9	-48.6	17.2	0.00e+00	0	43	0	411041792	63	4909
2026-01-09 23:53:54.14	10.45	40.04	-46.0	-48.8	17.0	0.00e+00	0	43	0	413138944	63	4999
2026-01-09 23:53:54.86	10.40	40.22	-46.2	-49.0	16.9	0.00e+00	0	44	0	415236096	63	5124
2026-01-09 23:53:56.19	10.31	40.57	-46.2	-49.0	16.8	0.00e+00	0	43	0	417333248	63	5157
2026-01-09 23:53:57.17	10.24	40.83	-46.4	-49.3	16.5	0.00e+00	0	43	0	419430400	63	5326
2026-01-09 23:53:58.17	10.17	41.10	-46.4	-49.4	16.5	0.00e+00	0	43	0	421527552	63	5344
2026-01-09 23:53:59.17	10.10	41.37	-46.5	-49.5	16.3	0.00e+00	0	43	0	422576128	63	5456
2026-01-09 23:54:00.18	10.02	41.64	-46.5	-49.6	16.2	0.00e+00	0	43	0	424673280	64	5177
2026-01-09 23:54:01.18	9.95	41.91	-46.7	-49.7	16.1	0.00e+00	0	44	0	426770432	64	5253
2026-01-09 23:54:02.18	9.87	42.19	-46.7	-49.7	16.1	0.00e+00	0	44	0	428867584	64	5256
2026-01-09 23:54:03.18	9.80	42.46	-46.7	-49.7	16.1	0.00e+00	0	43	0	430964736	64	5231
2026-01-09 23:54:04.19	9.72	42.74	-46.5	-49.4	16.3	0.00e+00	0	43	0	432013312	64	5094
2026-01-09 23:54:05.19	9.64	43.02	-46.5	-49.4	16.4	0.00e+00	0	43	0	434110464	64	5055
2026-01-09 23:54:06.19	9.55	43.30	-46.6	-49.5	16.3	0.00e+00	0	43	0	436207616	64	5150
2026-01-09 23:54:07.20	9.47	43.59	-46.8	-49.8	16.0	0.00e+00	0	43	0	438304768	64	5305
2026-01-09 23:54:08.20	9.38	43.88	-46.9	-50.0	15.7	0.00e+00	0	43	0	440401920	64	5455
2026-01-09 23:54:09.20	9.30	44.16	-47.0	-50.1	15.7	0.00e+00	0	43	0	441450496	64	5527
2026-01-09 23:54:10.21	9.21	44.46	-47.1	-50.3	15.6	0.00e+00	0	43	0	443547648	65	5303
2026-01-09 23:54:11.21	9.12	44.75	-47.4	-50.7	15.1	0.00e+00	0	43	0	445644800	65	5533
2026-01-09 23:54:12.21	9.03	45.04	-47.4	-50.7	15.1	0.00e+00	0	44	0	447741952	65	5570
2026-01-09 23:54:13.21	8.93	45.34	-47.6	-51.0	14.8	0.00e+00	0	44	0	449839104	65	5763
2026-01-09 23:54:14.22	8.84	45.64	-47.8	-51.3	14.4	0.00e+00	0	44	0	450887680	66	5656
2026-01-09 23:54:15.22	8.74	45.94	-47.9	-51.6	14.3	0.00e+00	0	44	0	452984832	66	5796
2026-01-09 23:54:16.22	8.64	46.25	-48.1	-51.9	14.0	2.20e-06	0	43	0	455081984	66	6002
2026-01-09 23:54:17.26	8.53	46.56	-48.3	-52.2	13.6	7.60e-06	0	43	0	457179136	67	5863
2026-01-09 23:54:18.29	8.43	46.88	-48.6	-52.7	13.1	6.80e-06	0	43	0	459276288	67	6219
2026-01-09 23:54:19.29	8.32	47.19	-48.9	-53.1	12.8	4.34e-05	0	43	0	460324864	68	6191
2026-01-09 23:54:20.36	8.21	47.52	-48.8	-53.0	12.9	3.05e-05	0	43	0	462422016	68	6115
2026-01-09 23:54:21.25	8.11	47.80	-48.9	-53.1	12.8	7.55e-05	0	43	0	464519168	68	6188
2026-01-09 23:54:22.39	7.98	48.16	-48.9	-53.0	12.9	5.26e-05	0	44	0	466616320	68	6121
2026-01-09 23:54:23.31	7.87	48.46	-48.8	-52.8	13.1	4.95e-05	0	43	0	468713472	68	5983
2026-01-09 23:54:24.49	7.74	48.84	-48.5	-52.4	13.6	1.98e-05	0	43	0	470810624	68	5677
2026-01-09 23:54:25.35	7.63	49.11	-48.5	-52.2	13.8	6.80e-06	0	44	0	471859200	68	5587
2026-01-09 23:54:26.72	7.46	49.56	-48.2	-51.8	14.2	7.00e-07	0	43	0	475004928	68	5315
2026-01-09 23:54:27.44	7.37	49.80	-47.7	-51.1	14.8	0.00e+00	0	43	0	476053504	67	5188
2026-01-09 23:54:28.73	7.21	50.22	-47.2	-50.3	15.6	0.00e+00	0	43	0	478150656	66	5016
2026-01-09 23:54:29.44	7.11	50.46	-47.0	-50.1	15.8	0.00e+00	0	44	0	480247808	66	4892
2026-01-09 23:54:30.73	6.94	50.89	-46.2	-49.0	16.9	0.00e+00	0	44	0	482344960	64	4832
2026-01-09 23:54:31.48	6.83	51.14	-46.0	-48.7	17.2	0.00e+00	0	44	0	483393536	63	4962
2026-01-09 23:54:32.77	6.65	51.58	-45.8	-48.4	17.5	0.00e+00	0	43	0	486539264	63	4806
2026-01-09 23:54:33.49	6.55	51.83	-45.4	-47.9	18.0	0.00e+00	0	44	0	487587840	62	4807
2026-01-09 23:54:34.78	6.36	52.27	-45.4	-47.9	17.9	0.00e+00	0	44	0	489684992	62	4799
2026-01-09 23:54:35.62	6.23	52.56	-45.4	-47.9	18.0	0.00e+00	0	44	0	491782144	62	4794
2026-01-09 23:54:36.77	6.05	52.96	-45.7	-48.2	17.7	0.00e+00	0	44	0	493879296	62	4976
2026-01-09 23:54:37.63	5.91	53.26	-45.5	-48.1	17.9	0.00e+00	0	44	0	494927872	62	4874
2026-01-09 23:54:38.77	5.73	53.67	-45.5	-48.1	17.8	0.00e+00	0	43	0	497025024	62	4907
2026-01-09 23:54:39.63	5.58	53.97	-45.6	-48.2	17.7	0.00e+00	0	44	0	499122176	62	4954
2026-01-09 23:54:40.78	5.38	54.38	-45.5	-48.1	17.9	0.00e+00	0	44	0	501219328	62	4892
2026-01-09 23:54:41.64	5.23	54.69	-45.6	-48.1	17.8	0.00e+00	0	44	0	502267904	62	4892
2026-01-09 23:54:42.78	5.03	55.10	-45.8	-48.4	17.5	0.00e+00	0	44	0	504365056	62	5068
2026-01-09 23:54:43.64	4.87	55.42	-46.2	-49.0	17.0	0.00e+00	0	43	0	506462208	63	5121
2026-01-09 23:54:44.79	4.65	55.84	-46.6	-49.5	16.5	0.00e+00	0	44	0	508559360	63	5421
2026-01-09 23:54:45.64	4.48	56.15	-46.8	-49.7	16.1	0.00e+00	0	43	0	510656512	64	5277
2026-01-09 23:54:46.79	4.25	56.58	-47.1	-50.2	15.7	0.00e+00	0	44	0	512753664	64	5562
2026-01-09 23:54:47.72	4.06	56.92	-47.5	-50.7	15.2	0.00e+00	0	44	0	513802240	65	5566
2026-01-09 23:54:48.90	3.80	57.37	-48.1	-51.6	14.3	0.00e+00	0	43	0	515899392	66	5813
2026-01-09 23:54:49.76	3.61	57.69	-48.3	-52.0	14.0	1.50e-06	0	43	0	517996544	67	5739
2026-01-09 23:54:51.11	3.31	58.20	-49.1	-53.3	12.8	1.75e-05	0	43	0	520093696	68	6343
2026-01-09 23:54:51.83	3.14	58.48	-49.2	-53.8	12.3	1.48e-04	0	43	0	522190848	69	6276
2026-01-09 23:54:53.12	2.83	58.97	-49.4	-54.0	12.0	2.77e-04	0	43	0	524288000	69	6476
2026-01-09 23:54:53.83	2.65	59.25	-49.3	-53.7	12.3	1.98e-04	0	44	0	525336576	69	6272
2026-01-09 23:54:55.12	2.33	59.75	-48.6	-52.5	13.6	1.90e-05	0	44	0	528482304	69	5434
2026-01-09 23:54:55.87	2.13	60.04	-48.0	-51.5	14.6	3.80e-06	0	43	0	529530880	68	5127
2026-01-09 23:54:57.16	1.78	60.54	-47.0	-50.1	15.9	0.00e+00	0	44	0	531628032	66	4882
2026-01-09 23:54:57.98	1.55	60.86	-46.7	-49.7	16.2	0.00e+00	0	43	0	533725184	65	4961
2026-01-09 23:54:59.12	1.22	61.31	-46.5	-49.4	16.5	0.00e+00	0	43	0	535822336	65	4783
2026-01-09 23:54:59.98	0.96	61.66	-46.3	-49.0	16.9	0.00e+00	0	44	0	536870912	64	4864
2026-01-09 23:55:01.13	0.60	62.11	-46.3	-49.0	16.9	0.00e+00	0	44	0	538968064	64	4831
2026-01-09 23:55:01.99	0.33	62.46	-46.1	-48.9	17.1	0.00e+00	0	43	0	541065216	64	4768
2026-01-09 23:55:03.14	359.95	62.92	-46.0	-48.7	17.3	0.00e+00	0	43	0	543162368	63	4967
2026-01-09 23:55:04.00	359.66	63.27	-45.8	-48.4	17.6	0.00e+00	0	44	0	544210944	63	4800
2026-01-09 23:55:05.14	359.25	63.73	-45.7	-48.2	17.7	0.00e+00	0	43	0	546308096	63	4705
2026-01-09 23:55:06.00	358.94	64.08	-45.9	-48.5	17.5	0.00e+00	0	44	0	548405248	63	4842
2026-01-09 23:55:07.15	358.50	64.54	-46.2	-48.9	17.1	0.00e+00	0	43	0	550502400	63	5094
2026-01-09 23:55:08.01	358.16	64.89	-46.1	-48.8	17.2	0.00e+00	0	44	0	551550976	63	5003
2026-01-09 23:55:09.15	357.70	65.36	-46.1	-48.8	17.2	0.00e+00	0	43	0	554696704	63	5017
2026-01-09 23:55:10.02	357.33	65.72	-46.0	-48.7	17.3	0.00e+00	0	43	0	555745280	63	4952
2026-01-09 23:55:11.17	356.82	66.19	-46.2	-49.0	17.0	0.00e+00	0	43	0	557842432	63	5154
2026-01-09 23:55:12.03	356.43	66.54	-46.7	-49.7	16.4	0.00e+00	0	43	0	559939584	63	5535
2026-01-09 23:55:13.17	355.88	67.02	-47.0	-50.1	15.9	0.00e+00	0	44	0	562036736	64	5470
2026-01-09 23:55:14.04	355.45	67.37	-46.9	-49.9	16.0	0.00e+00	0	43	0	563085312	64	5391
2026-01-09 23:55:15.18	354.86	67.85	-46.9	-49.9	16.0	0.00e+00	0	43	0	565182464	64	5358
2026-01-09 23:55:16.04	354.40	68.20	-47.1	-50.2	15.8	0.00e+00	0	43	0	567279616	64	5541
2026-01-09 23:55:17.19	353.76	68.68	-46.8	-49.8	16.2	0.00e+00	0	44	0	569376768	65	5014
2026-01-09 23:55:18.05	353.26	69.03	-46.6	-49.5	16.4	0.00e+00	0	44	0	570425344	65	4858
2026-01-09 23:55:19.19	352.56	69.50	-46.4	-49.2	16.7	0.00e+00	0	44	0	573571072	64	4949
2026-01-09 23:55:20.05	352.01	69.86	-46.4	-49.3	16.6	0.00e+00	0	44	0	574619648	64	5004
2026-01-09 23:55:21.20	351.25	70.33	-46.2	-48.9	17.1	0.00e+00	0	43	0	576716800	64	4785
2026-01-09 23:55:22.06	350.65	70.69	-45.9	-48.5	17.4	0.00e+00	0	44	0	578813952	63	4863
2026-01-09 23:55:23.32	349.73	71.20	-46.4	-49.2	16.8	0.00e+00	0	43	0	580911104	63	5240
2026-01-09 23:55:24.09	349.14	71.52	-46.4	-49.1	16.9	0.00e+00	0	43	0	581959680	63	5216
2026-01-09 23:55:25.58	347.93	72.13	-45.9	-48.4	17.6	0.00e+00	0	43	0	585105408	63	4813
2026-01-09 23:55:26.30	347.32	72.42	-45.9	-48.5	17.5	0.00e+00	0	43	0	586153984	63	4829
2026-01-09 23:55:27.63	346.13	72.95	-46.7	-49.7	16.4	0.00e+00	0	43	0	589299712	64	5223
2026-01-09 23:55:28.35	345.45	73.24	-47.1	-50.2	15.8	0.00e+00	0	44	0	590348288	64	5569
2026-01-09 23:55:29.75	344.06	73.79	-47.6	-50.9	15.0	0.00e+00	0	43	0	592445440	65	5666
2026-01-09 23:55:30.47	343.30	74.07	-48.1	-51.7	14.3	0.00e+00	0	44	0	594542592	66	5886
2026-01-09 23:55:31.76	341.87	74.57	-48.7	-52.6	13.6	1.06e-05	0	43	0	596639744	68	5827
2026-01-09 23:55:32.48	341.04	74.85	-48.6	-52.3	13.8	1.06e-05	0	43	0	597688320	68	5632
2026-01-09 23:55:33.76	339.47	75.33	-47.7	-51.0	15.0	1.50e-06	0	43	0	600834048	67	5131
2026-01-09 23:55:34.48	338.53	75.60	-47.6	-50.9	15.2	0.00e+00	0	44	0	601882624	67	5042
2026-01-09 23:55:35.77	336.77	76.07	-47.5	-50.6	15.4	0.00e+00	0	44	0	603979776	66	5216
2026-01-09 23:55:36.48	335.75	76.33	-47.7	-51.0	15.1	0.00e+00	0	43	0	605028352	66	5406
2026-01-09 23:55:37.78	333.77	76.78	-48.0	-51.4	14.6	0.00e+00	0	43	0	608174080	66	5703
2026-01-09 23:55:38.49	332.63	77.03	-47.7	-51.0	15.0	0.00e+00	0	44	0	609222656	66	5411
2026-01-09 23:55:39.78	330.45	77.45	-47.0	-50.1	15.9	0.00e+00	0	43	0	611319808	66	4911
2026-01-09 23:55:40.60	328.98	77.72	-46.8	-49.7	16.3	0.00e+00	0	43	0	613416960	65	4974
2026-01-09 23:55:41.74	326.83	78.07	-46.7	-49.6	16.3	0.00e+00	0	43	0	615514112	65	4882
2026-01-09 23:55:42.83	324.65	78.39	-46.9	-49.9	16.1	0.00e+00	0	44	0	617611264	65	5044
2026-01-09 23:55:43.88	322.43	78.68	-46.3	-49.0	17.0	0.00e+00	0	44	0	619708416	64	4846
2026-01-09 23:55:44.98	319.99	78.97	-46.2	-49.0	17.1	0.00e+00	0	44	0	621805568	63	5103
2026-01-09 23:55:45.84	317.98	79.18	-46.6	-49.5	16.5	0.00e+00	0	44	0	622854144	64	5107
2026-01-09 23:55:46.99	315.18	79.45	-46.4	-49.2	16.8	0.00e+00	0	44	0	624951296	64	4963
2026-01-09 23:55:47.85	312.99	79.63	-46.6	-49.5	16.6	0.00e+00	0	43	0	627048448	64	5102
2026-01-09 23:55:48.99	309.97	79.84	-46.4	-49.1	16.9	0.00e+00	0	44	0	629145600	64	4914
2026-01-09 23:55:49.86	307.59	79.99	-46.2	-48.9	17.1	0.00e+00	0	44	0	630194176	64	4791
2026-01-09 23:55:51.00	304.36	80.15	-46.8	-49.8	16.3	0.00e+00	0	43	0	632291328	64	5281
2026-01-09 23:55:51.86	301.86	80.25	-47.5	-50.7	15.4	0.00e+00	0	43	0	634388480	65	5581
2026-01-09 23:55:53.01	298.45	80.36	-47.3	-50.5	15.5	0.00e+00	0	43	0	636485632	65	5444
2026-01-09 23:55:53.87	295.85	80.42	-47.2	-50.3	15.7	0.00e+00	0	43	0	638582784	65	5326
2026-01-09 23:55:55.02	292.33	80.46	-47.1	-50.2	15.8	0.00e+00	0	44	0	640679936	65	5253
2026-01-09 23:55:55.88	289.68	80.47	-46.5	-49.3	16.7	0.00e+00	0	44	0	641728512	65	4738
2026-01-09 23:55:57.02	286.18	80.46	-46.4	-49.2	16.9	0.00e+00	0	43	0	643825664	64	4947
2026-01-09 23:55:57.88	283.55	80.42	-46.3	-49.1	17.0	0.00e+00	0	44	0	645922816	64	4871
2026-01-09 23:55:59.03	280.08	80.34	-46.0	-48.6	17.5	0.00e+00	0	43	0	648019968	63	4892
2026-01-09 23:55:59.89	277.52	80.26	-45.7	-48.2	17.9	0.00e+00	0	43	0	649068544	63	4696
2026-01-09 23:56:01.03	274.21	80.13	-45.9	-48.5	17.7	0.00e+00	0	44	0	651165696	63	4827
2026-01-09 23:56:01.89	271.78	80.00	-45.9	-48.4	17.7	0.00e+00	0	44	0	653262848	63	4807
2026-01-09 23:56:03.04	268.63	79.81	-46.0	-48.6	17.5	0.00e+00	0	43	0	655360000	63	4901
2026-01-09 23:56:03.90	266.35	79.65	-46.1	-48.8	17.3	0.00e+00	0	43	0	656408576	63	4999
2026-01-09 23:56:05.05	263.43	79.41	-46.2	-48.9	17.3	0.00e+00	0	44	0	659554304	63	5086
2026-01-09 23:56:05.90	261.36	79.21	-46.3	-49.0	17.1	0.00e+00	0	44	0	660602880	63	5142
2026-01-09 23:56:07.05	258.68	78.93	-46.5	-49.3	16.8	0.00e+00	0	44	0	662700032	63	5321
2026-01-09 23:56:07.91	256.77	78.70	-46.8	-49.8	16.4	0.00e+00	0	44	0	664797184	64	5283
2026-01-09 23:56:09.06	254.34	78.38	-47.4	-50.7	15.4	0.00e+00	0	43	0	666894336	65	5536
2026-01-09 23:56:09.92	252.61	78.13	-48.2	-51.9	14.2	7.00e-07	0	44	0	667942912	66	5994
2026-01-09 23:56:11.06	250.44	77.78	-49.2	-53.5	12.7	9.90e-06	0	44	0	670040064	69	6078
2026-01-09 23:56:11.92	248.88	77.50	-49.7	-54.3	11.7	2.38e-04	0	44	0	672137216	70	6334
2026-01-09 23:56:13.07	246.91	77.12	-49.9	-55.0	11.2	1.08e-03	0	43	0	674234368	70	6804
2026-01-09 23:56:13.92	245.53	76.84	-49.6	-54.3	12.0	9.52e-04	0	43	0	675282944	70	6289
2026-01-09 23:56:15.07	243.75	76.43	-49.3	-53.7	12.6	1.67e-04	0	44	0	677380096	70	5892
2026-01-09 23:56:15.93	242.50	76.13	-49.2	-53.5	12.8	8.31e-05	0	44	0	679477248	70	5768
2026-01-09 23:56:17.08	240.91	75.71	-49.3	-53.7	12.5	1.04e-04	0	44	0	681574400	70	5874
2026-01-09 23:56:17.94	239.78	75.39	-49.1	-53.3	12.9	9.46e-05	0	44	0	683671552	70	5602
2026-01-09 23:56:19.08	238.37	74.96	-48.4	-52.0	14.3	1.50e-06	0	43	0	685768704	68	5427
2026-01-09 23:56:19.94	237.35	74.63	-47.7	-51.0	15.2	0.00e+00	0	44	0	686817280	67	5110
2026-01-09 23:56:21.09	236.07	74.18	-47.4	-50.5	15.7	0.00e+00	0	44	0	688914432	66	5141
2026-01-09 23:56:21.95	235.15	73.85	-47.3	-50.4	15.7	0.00e+00	0	43	0	691011584	66	5092
2026-01-09 23:56:23.10	233.99	73.39	-46.8	-49.7	16.4	0.00e+00	0	44	0	693108736	65	4941
2026-01-09 23:56:24.01	233.12	73.03	-46.5	-49.2	16.9	0.00e+00	0	43	0	694157312	64	4961
2026-01-09 23:56:25.01	232.21	72.63	-46.1	-48.7	17.4	0.00e+00	0	43	0	696254464	64	4699
2026-01-09 23:56:26.01	231.34	72.22	-46.1	-48.7	17.4	0.00e+00	0	44	0	698351616	64	4673
2026-01-09 23:56:27.02	230.50	71.81	-46.0	-48.6	17.5	0.00e+00	0	43	0	700448768	63	4892
2026-01-09 23:56:28.02	229.71	71.41	-46.0	-48.5	17.6	0.00e+00	0	43	0	702545920	63	4863
2026-01-09 23:56:29.02	228.96	71.00	-46.3	-48.9	17.3	0.00e+00	0	43	0	703594496	63	5077
2026-01-09 23:56:30.02	228.24	70.58	-46.6	-49.4	16.8	0.00e+00	0	43	0	705691648	63	5376
2026-01-09 23:56:31.03	227.54	70.17	-47.1	-50.0	16.1	0.00e+00	0	43	0	707788800	64	5464
2026-01-09 23:56:32.03	226.88	69.75	-47.2	-50.1	16.0	0.00e+00	0	43	0	709885952	65	5218
2026-01-09 23:56:33.03	226.25	69.34	-47.2	-50.2	15.9	0.00e+00	0	43	0	711983104	65	5254
2026-01-09 23:56:34.03	225.65	68.93	-47.3	-50.4	15.7	0.00e+00	0	43	0	713031680	65	5352
2026-01-09 23:56:35.04	225.07	68.51	-48.3	-51.8	14.3	0.00e+00	0	44	0	715128832	67	5649
2026-01-09 23:56:36.04	224.51	68.09	-49.5	-54.0	12.4	9.10e-06	0	44	0	717225984	69	6421
2026-01-09 23:56:37.04	223.98	67.68	-49.7	-54.3	11.9	5.77e-04	0	43	0	719323136	70	6338
2026-01-09 23:56:38.04	223.47	67.26	-49.3	-53.5	12.7	1.79e-04	0	44	0	721420288	70	5762
2026-01-09 23:56:39.04	222.98	66.85	-48.6	-52.3	14.0	1.60e-05	0	44	0	722468864	69	5321
2026-01-09 23:56:40.05	222.51	66.43	-48.2	-51.6	14.7	7.00e-07	0	44	0	724566016	68	5186
2026-01-09 23:56:41.05	222.05	66.02	-47.6	-50.7	15.4	0.00e+00	0	44	0	726663168	67	4981
2026-01-09 23:56:42.05	221.62	65.61	-47.0	-49.9	16.2	0.00e+00	0	44	0	728760320	66	4812
2026-01-09 23:56:43.06	221.19	65.19	-46.7	-49.4	16.7	0.00e+00	0	44	0	729808896	65	4793
2026-01-09 23:56:44.06	220.79	64.78	-46.5	-49.2	16.9	0.00e+00	0	44	0	731906048	65	4669
2026-01-09 23:56:45.06	220.40	64.37	-46.2	-48.8	17.3	0.00e+00	0	44	0	734003200	64	4748
2026-01-09 23:56:46.07	220.02	63.96	-46.0	-48.6	17.6	0.00e+00	0	43	0	736100352	63	4878
2026-01-09 23:56:47.18	219.62	63.51	-46.0	-48.5	17.7	0.00e+00	0	44	0	738197504	63	4864
2026-01-09 23:56:48.04	219.31	63.16	-45.9	-48.4	17.7	0.00e+00	0	43	0	739246080	63	4811
2026-01-09 23:56:49.19	218.93	62.70	-45.5	-47.9	18.3	0.00e+00	0	43	0	741343232	62	4776
2026-01-09 23:56:50.05	218.64	62.35	-45.5	-47.9	18.3	0.00e+00	0	44	0	743440384	62	4772
2026-01-09 23:56:51.20	218.28	61.89	-45.7	-48.3	18.0	0.00e+00	0	44	0	745537536	62	5004
2026-01-09 23:56:52.06	218.02	61.55	-46.1	-48.8	17.4	0.00e+00	0	44	0	747634688	63	4996
2026-01-09 23:56:53.20	217.68	61.10	-46.5	-49.2	17.0	0.00e+00	0	44	0	749731840	63	5251
2026-01-09 23:56:54.28	217.37	60.67	-47.1	-50.1	16.0	0.00e+00	0	44	0	751828992	64	5508
2026-01-09 23:56:55.33	217.08	60.26	-47.9	-51.2	15.0	0.00e+00	0	44	0	752877568	66	5584
2026-01-09 23:56:56.39	216.80	59.84	-48.0	-51.4	14.7	0.00e+00	0	43	0	754974720	66	5683
2026-01-09 23:56:57.28	216.57	59.50	-48.2	-51.7	14.4	0.00e+00	0	44	0	757071872	67	5590
2026-01-09 23:56:58.42	216.28	59.05	-48.6	-52.6	13.6	2.20e-06	0	44	0	759169024	67	6173
2026-01-09 23:56:59.28	216.07	58.72	-49.3	-53.7	12.7	3.28e-05	0	44	0	761266176	69	6223
2026-01-09 23:57:00.42	215.80	58.29	-49.6	-54.2	12.0	2.27e-04	0	44	0	763363328	69	6607
2026-01-09 23:57:01.28	215.60	57.96	-49.7	-54.3	12.0	3.20e-04	0	43	0	764411904	70	6278
2026-01-09 23:57:02.43	215.34	57.52	-49.5	-53.9	12.4	2.28e-04	0	43	0	766509056	70	6030
2026-01-09 23:57:03.29	215.15	57.20	-49.2	-53.3	13.0	5.64e-05	0	44	0	768606208	70	5605
2026-01-09 23:57:04.44	214.91	56.76	-48.4	-52.0	14.3	3.80e-06	0	44	0	770703360	68	5433
2026-01-09 23:57:05.30	214.73	56.44	-47.8	-51.0	15.1	7.00e-07	0	43	0	771751936	67	5134
2026-01-09 23:57:06.54	214.48	55.98	-47.4	-50.5	15.7	0.00e+00	0	44	0	773849088	66	5131
2026-01-09 23:57:07.39	214.32	55.67	-47.2	-50.2	16.0	0.00e+00	0	43	0	775946240	66	4935
2026-01-09 23:57:08.54	214.10	55.25	-47.3	-50.3	15.8	0.00e+00	0	43	0	778043392	66	5019
2026-01-09 23:57:09.40	213.94	54.94	-46.9	-49.8	16.3	0.00e+00	0	43	0	780140544	65	5037
2026-01-09 23:57:10.69	213.71	54.47	-46.5	-49.2	16.9	0.00e+00	0	44	0	782237696	64	4968
2026-01-09 23:57:11.41	213.58	54.21	-46.2	-48.9	17.2	0.00e+00	0	44	0	783286272	64	4790
2026-01-09 23:57:12.70	213.36	53.75	-46.1	-48.7	17.3	0.00e+00	0	44	0	785383424	64	4697
2026-01-09 23:57:13.41	213.25	53.50	-45.9	-48.5	17.7	0.00e+00	0	44	0	787480576	63	4835
2026-01-09 23:57:14.70	213.04	53.04	-45.8	-48.2	17.9	0.00e+00	0	44	0	789577728	63	4689
2026-01-09 23:57:15.42	212.92	52.79	-45.6	-48.1	18.1	0.00e+00	0	43	0	790626304	62	4881
2026-01-09 23:57:16.71	212.72	52.34	-45.8	-48.3	17.9	0.00e+00	0	44	0	793772032	62	5030
2026-01-09 23:57:17.42	212.62	52.09	-46.0	-48.6	17.6	0.00e+00	0	44	0	794820608	62	5195
2026-01-09 23:57:18.71	212.43	51.65	-46.5	-49.2	17.0	0.00e+00	0	44	0	796917760	63	5243
2026-01-09 23:57:19.53	212.31	51.37	-46.8	-49.6	16.6	0.00e+00	0	44	0	799014912	64	5190
2026-01-09 23:57:20.67	212.15	50.98	-47.2	-50.3	15.9	0.00e+00	0	44	0	801112064	65	5294
2026-01-09 23:57:21.74	212.00	50.62	-47.7	-51.0	15.2	0.00e+00	0	43	0	803209216	66	5435
2026-01-09 23:57:22.60	211.89	50.33	-48.1	-51.5	14.7	0.00e+00	0	44	0	804257792	66	5763
2026-01-09 23:57:24.09	211.69	49.84	-48.6	-52.5	13.7	1.50e-06	0	43	0	807403520	67	6088
2026-01-09 23:57:24.81	211.60	49.60	-49.0	-53.0	13.3	1.52e-05	0	44	0	808452096	68	6097
2026-01-09 23:57:26.11	211.44	49.17	-49.1	-53.1	13.2	2.97e-05	0	44	0	810549248	68	6186
2026-01-09 23:57:26.82	211.35	48.94	-48.9	-52.8	13.5	1.52e-05	0	44	0	812646400	68	5979
2026-01-09 23:57:28.11	211.20	48.53	-48.7	-52.5	13.8	3.80e-06	0	43	0	814743552	68	5773
2026-01-09 23:57:28.91	211.11	48.27	-49.0	-53.1	13.2	8.30e-06	0	43	0	815792128	68	6134
2026-01-09 23:57:30.05	210.98	47.91	-49.0	-53.0	13.2	1.14e-05	0	44	0	817889280	68	6119
2026-01-09 23:57:30.91	210.88	47.63	-49.0	-53.1	13.2	2.13e-05	0	44	0	819986432	68	6176
2026-01-09 23:57:32.06	210.75	47.27	-49.6	-54.1	12.1	1.30e-04	0	44	0	822083584	69	6562
2026-01-09 23:57:33.25	210.63	46.90	-50.0	-55.0	11.1	8.34e-04	0	44	0	824180736	70	6875
2026-01-09 23:57:34.11	210.54	46.64	-49.9	-54.8	11.4	1.21e-03	0	44	0	826277888	70	6674
2026-01-09 23:57:35.26	210.42	46.28	-49.5	-53.9	12.3	3.81e-04	0	44	0	828375040	70	6031
2026-01-09 23:57:36.11	210.33	46.02	-49.2	-53.2	13.0	9.00e-05	0	44	0	829423616	70	5589
2026-01-09 23:57:37.26	210.22	45.68	-49.0	-53.0	13.3	2.28e-05	0	44	0	831520768	70	5417
2026-01-09 23:57:38.12	210.14	45.42	-48.8	-52.6	13.7	1.22e-05	0	44	0	833617920	69	5488
2026-01-09 23:57:39.27	210.03	45.07	-48.6	-52.3	14.0	3.00e-06	0	44	0	835715072	69	5284
2026-01-09 23:57:40.13	209.95	44.82	-48.4	-52.0	14.2	0.00e+00	0	44	0	837812224	68	5460
2026-01-09 23:57:41.34	209.84	44.46	-48.6	-52.5	13.8	3.00e-06	0	44	0	839909376	68	5732
2026-01-09 23:57:42.20	209.76	44.21	-48.7	-52.7	13.6	6.80e-06	0	44	0	840957952	68	5883
2026-01-09 23:57:43.41	209.65	43.86	-49.1	-53.5	12.8	3.96e-05	0	44	0	843055104	68	6430
2026-01-09 23:57:44.27	209.58	43.61	-49.1	-53.5	12.7	5.56e-05	0	44	0	845152256	69	6116
2026-01-09 23:57:45.41	209.48	43.29	-49.1	-53.6	12.7	8.92e-05	0	44	0	847249408	69	6133
2026-01-09 23:57:46.27	209.41	43.04	-49.2	-53.6	12.6	7.01e-05	0	44	0	849346560	69	6156
2026-01-09 23:57:47.42	209.32	42.72	-49.2	-53.6	12.6	8.23e-05	0	44	0	851443712	69	6165
2026-01-09 23:57:48.28	209.25	42.48	-49.2	-53.4	12.9	8.54e-05	0	44	0	852492288	69	6003
2026-01-09 23:57:49.65	209.14	42.10	-49.2	-53.3	12.9	3.35e-05	0	44	0	855638016	69	5973
2026-01-09 23:57:50.37	209.09	41.90	-49.2	-53.3	12.9	5.95e-05	0	43	0	856686592	69	5966
2026-01-09 23:57:51.66	208.99	41.55	-49.2	-53.5	12.7	6.94e-05	0	44	0	858783744	69	6106
2026-01-09 23:57:52.37	208.94	41.36	-49.2	-53.4	12.8	8.08e-05	0	44	0	859832320	69	6006
2026-01-09 23:57:53.66	208.84	41.01	-49.3	-53.7	12.4	9.91e-05	0	43	0	862978048	69	6255
2026-01-09 23:57:54.38	208.79	40.82	-49.4	-53.8	12.4	1.72e-04	0	44	0	864026624	69	6347
2026-01-09 23:57:55.67	208.70	40.48	-49.3	-53.7	12.6	7.62e-05	0	44	0	866123776	69	6221
2026-01-09 23:57:56.39	208.65	40.29	-49.3	-53.5	12.7	1.17e-04	0	44	0	868220928	69	6131
2026-01-09 23:57:57.67	208.56	39.95	-49.5	-53.9	12.2	1.22e-04	0	44	0	870318080	69	6403
2026-01-09 23:57:58.39	208.52	39.76	-49.5	-54.1	12.2	1.67e-04	0	44	0	871366656	69	6523
2026-01-09 23:57:59.68	208.43	39.43	-49.4	-53.7	12.5	1.09e-04	0	44	0	874512384	69	6242
2026-01-09 23:58:00.40	208.38	39.25	-49.4	-53.7	12.5	8.39e-05	0	44	0	875560960	69	6251
2026-01-09 23:58:01.82	208.29	38.89	-49.1	-53.1	13.1	3.20e-05	0	44	0	877658112	69	5832
2026-01-09 23:58:02.53	208.25	38.71	-48.9	-52.9	13.3	2.51e-05	0	44	0	879755264	69	5692
2026-01-09 23:58:03.82	208.17	38.38	-48.7	-52.5	13.7	1.06e-05	0	44	0	881852416	69	5461
2026-01-09 23:58:04.53	208.13	38.21	-48.6	-52.4	13.8	7.60e-06	0	44	0	882900992	69	5345
2026-01-09 23:58:05.83	208.05	37.89	-48.4	-52.1	14.1	5.30e-06	0	44	0	886046720	68	5493
2026-01-09 23:58:06.54	208.01	37.71	-48.4	-52.0	14.2	1.50e-06	0	44	0	887095296	68	5445
2026-01-09 23:58:07.83	207.93	37.40	-48.2	-51.8	14.4	1.50e-06	0	44	0	889192448	68	5324
2026-01-09 23:58:08.58	207.89	37.22	-48.3	-51.8	14.4	1.50e-06	0	44	0	890241024	68	5334
2026-01-09 23:58:09.87	207.82	36.91	-48.2	-51.8	14.5	0.00e+00	0	44	0	893386752	68	5301
2026-01-09 23:58:10.59	207.78	36.74	-48.2	-51.8	14.5	7.00e-07	0	44	0	894435328	68	5288
2026-01-09 23:58:11.88	207.71	36.43	-48.2	-51.8	14.4	1.50e-06	0	44	0	896532480	68	5339
2026-01-09 23:58:12.59	207.67	36.27	-48.2	-51.8	14.4	0.00e+00	0	44	0	898629632	68	5320
2026-01-09 23:58:13.88	207.60	35.97	-48.3	-51.9	14.3	7.00e-07	0	44	0	900726784	68	5400
2026-01-09 23:58:14.60	207.57	35.80	-48.3	-52.0	14.2	0.00e+00	0	44	0	901775360	68	5426
2026-01-09 23:58:15.89	207.50	35.50	-48.4	-52.0	14.2	2.20e-06	0	44	0	903872512	68	5461
2026-01-09 23:58:16.60	207.46	35.34	-48.3	-51.9	14.3	7.00e-07	0	44	0	905969664	68	5353
2026-01-09 23:58:17.90	207.40	35.05	-48.3	-51.8	14.4	0.00e+00	0	44	0	908066816	68	5322
2026-01-09 23:58:18.61	207.37	34.89	-48.2	-51.7	14.4	0.00e+00	0	44	0	909115392	68	5263
2026-01-09 23:58:19.90	207.30	34.60	-48.2	-51.6	14.6	0.00e+00	0	44	0	912261120	68	5213
2026-01-09 23:58:20.62	207.27	34.44	-48.0	-51.4	14.8	0.00e+00	0	44	0	913309696	68	5065
2026-01-09 23:58:21.91	207.21	34.16	-47.9	-51.3	14.7	0.00e+00	0	44	0	915406848	67	5312
2026-01-09 23:58:22.62	207.18	34.00	-48.0	-51.4	14.6	0.00e+00	0	44	0	917504000	67	5364
2026-01-09 23:58:23.91	207.12	33.72	-48.0	-51.5	14.5	0.00e+00	0	44	0	919601152	67	5446
2026-01-09 23:58:24.63	207.08	33.57	-48.1	-51.7	14.4	0.00e+00	0	44	0	920649728	67	5550
2026-01-09 23:58:25.92	207.03	33.29	-48.2	-51.9	14.1	7.00e-07	0	44	0	922746880	67	5672
2026-01-09 23:58:26.64	207.00	33.14	-48.3	-52.0	14.0	7.00e-07	0	44	0	924844032	67	5769
2026-01-09 23:58:27.93	206.94	32.86	-48.4	-52.1	13.9	1.50e-06	0	44	0	926941184	67	5818
2026-01-09 23:58:28.65	206.91	32.71	-48.4	-52.2	13.8	3.80e-06	0	44	0	927989760	67	5890
2026-01-09 23:58:29.94	206.86	32.45	-48.4	-52.2	13.8	4.50e-06	0	44	0	931135488	67	5903
2026-01-09 23:58:30.65	206.83	32.30	-48.4	-52.2	13.8	5.30e-06	0	43	0	932184064	67	5894
2026-01-09 23:58:32.10	206.77	32.00	-48.5	-52.4	13.6	5.30e-06	0	43	0	934281216	67	6006
2026-01-09 23:58:32.82	206.74	31.85	-48.5	-52.4	13.6	7.60e-06	0	44	0	936378368	67	6011
2026-01-09 23:58:34.17	206.69	31.58	-48.5	-52.5	13.5	5.30e-06	0	44	0	938475520	67	6064
2026-01-09 23:58:34.89	206.66	31.44	-48.6	-52.6	13.5	8.30e-06	0	44	0	939524096	67	6146
2026-01-09 23:58:36.22	206.61	31.17	-48.8	-52.7	13.4	1.75e-05	0	44	0	942669824	68	5879
2026-01-09 23:58:36.94	206.58	31.03	-48.7	-52.5	13.5	7.60e-06	0	43	0	943718400	68	5785
2026-01-09 23:58:38.23	206.53	30.77	-48.6	-52.5	13.6	9.10e-06	0	44	0	945815552	68	5743
2026-01-09 23:58:38.95	206.50	30.63	-48.6	-52.5	13.6	1.06e-05	0	44	0	947912704	68	5755
2026-01-09 23:58:40.24	206.46	30.38	-48.6	-52.5	13.7	9.10e-06	0	44	0	950009856	68	5736
2026-01-09 23:58:40.95	206.43	30.25	-48.7	-52.5	13.6	3.80e-06	0	43	0	951058432	68	5776
2026-01-09 23:58:42.24	206.39	30.00	-48.8	-52.7	13.4	8.30e-06	0	44	0	954204160	68	5886
2026-01-09 23:58:42.99	206.36	29.86	-48.7	-52.7	13.4	1.83e-05	0	44	0	955252736	68	5860
2026-01-09 23:58:44.28	206.32	29.61	-48.8	-52.7	13.4	1.60e-05	0	44	0	957349888	68	5912
2026-01-09 23:58:45.08	206.29	29.46	-48.7	-52.6	13.5	1.22e-05	0	44	0	959447040	68	5817
2026-01-09 23:58:46.56	206.24	29.19	-48.5	-52.3	13.7	4.50e-06	0	44	0	961544192	68	5654
2026-01-09 23:58:47.27	206.21	29.05	-48.6	-52.5	13.6	8.30e-06	0	44	0	963641344	68	5723
2026-01-09 23:58:48.56	206.17	28.82	-48.4	-52.2	13.9	3.80e-06	0	44	0	965738496	68	5554
2026-01-09 23:58:49.28	206.15	28.69	-48.4	-52.2	13.9	3.80e-06	0	43	0	966787072	68	5529
2026-01-09 23:58:50.57	206.11	28.45	-48.4	-52.1	14.0	1.50e-06	0	44	0	969932800	68	5494
2026-01-09 23:58:51.29	206.08	28.32	-48.3	-52.0	14.0	3.00e-06	0	44	0	970981376	68	5455
2026-01-09 23:58:52.58	206.04	28.09	-48.3	-52.0	14.1	1.50e-06	0	43	0	973078528	68	5404
2026-01-09 23:58:53.29	206.02	27.96	-48.4	-52.1	14.0	3.00e-06	0	44	0	974127104	68	5513
2026-01-09 23:58:54.58	205.98	27.74	-48.1	-51.7	14.3	2.20e-06	0	43	0	977272832	68	5266
2026-01-09 23:58:55.30	205.96	27.61	-48.0	-51.5	14.6	7.00e-07	0	43	0	978321408	68	5109
2026-01-09 23:58:56.59	205.92	27.38	-47.8	-51.3	14.6	7.00e-07	0	44	0	980418560	67	5308
2026-01-09 23:58:57.30	205.90	27.26	-47.8	-51.3	14.6	7.00e-07	0	44	0	982515712	67	5289
2026-01-09 23:58:58.59	205.87	27.04	-47.8	-51.2	14.7	0.00e+00	0	44	0	984612864	67	5257
2026-01-09 23:58:59.31	205.84	26.91	-47.7	-51.1	14.7	0.00e+00	0	44	0	985661440	67	5218
2026-01-09 23:59:00.66	205.81	26.68	-47.8	-51.2	14.6	0.00e+00	0	44	0	988807168	67	5275
2026-01-09 23:59:01.37	205.79	26.56	-47.7	-51.1	14.7	0.00e+00	0	43	0	989855744	67	5201
2026-01-09 23:59:02.67	205.75	26.35	-47.7	-51.1	14.8	0.00e+00	0	43	0	991952896	67	5171
2026-01-09 23:59:03.38	205.73	26.23	-47.7	-51.1	14.8	7.00e-07	0	44	0	993001472	67	5172
2026-01-09 23:59:04.80	205.69	25.99	-47.6	-50.9	15.0	0.00e+00	0	44	0	996147200	67	5071
2026-01-09 23:59:05.52	205.67	25.87	-47.6	-50.9	14.9	7.00e-07	0	44	0	997195776	67	5071
2026-01-09 23:59:06.86	205.64	25.65	-47.5	-50.8	15.1	0.00e+00	0	44	0	1000341504	67	4995
2026-01-09 23:59:07.57	205.62	25.54	-47.5	-50.7	15.2	0.00e+00	0	44	0	1001390080	66	5260
2026-01-09 23:59:08.86	205.59	25.33	-47.4	-50.7	15.2	0.00e+00	0	44	0	1003487232	66	5234
2026-01-09 23:59:09.58	205.57	25.21	-47.3	-50.5	15.3	0.00e+00	0	43	0	1005584384	66	5159
2026-01-09 23:59:10.87	205.54	25.01	-47.1	-50.2	15.6	0.00e+00	0	44	0	1007681536	66	4983
2026-01-09 23:59:11.58	205.52	24.89	-47.1	-50.2	15.6	0.00e+00	0	44	0	1008730112	66	4963
2026-01-09 23:59:12.87	205.49	24.69	-47.0	-50.1	15.7	0.00e+00	0	44	0	1010827264	66	4919
2026-01-09 23:59:13.59	205.47	24.58	-47.0	-50.1	15.8	0.00e+00	0	44	0	1012924416	66	4880
2026-01-09 23:59:15.25	205.43	24.32	-46.9	-50.0	15.8	0.00e+00	0	43	0	1016070144	65	5157
2026-01-09 23:59:15.82	205.41	24.23	-46.9	-49.9	15.8	0.00e+00	0	44	0	1017118720	65	5085
2026-01-09 23:59:17.44	205.38	23.98	-46.8	-49.8	16.0	0.00e+00	0	44	0	1020264448	65	5023
2026-01-09 23:59:18.02	205.36	23.89	-46.8	-49.8	16.0	0.00e+00	0	44	0	1021313024	65	5040
2026-01-09 23:59:19.62	205.33	23.65	-46.8	-49.9	15.9	0.00e+00	0	44	0	1023410176	65	5050
2026-01-09 23:59:20.20	205.31	23.56	-46.8	-49.8	16.0	0.00e+00	0	44	0	1024458752	65	5036
2026-01-09 23:59:21.79	205.28	23.32	-46.8	-49.9	15.9	0.00e+00	0	44	0	1027604480	65	5051
2026-01-09 23:59:22.37	205.27	23.23	-46.8	-49.9	15.9	0.00e+00	0	44	0	1028653056	65	5046
2026-01-09 23:59:23.94	205.23	23.00	-46.9	-49.9	15.8	0.00e+00	0	44	0	1031798784	65	5090
2026-01-09 23:59:24.53	205.22	22.91	-46.8	-49.9	15.8	0.00e+00	0	44	0	1032847360	65	5077
2026-01-09 23:59:26.11	205.18	22.68	-47.0	-50.1	15.6	0.00e+00	0	44	0	1035993088	65	5183
2026-01-09 23:59:26.70	205.17	22.60	-46.9	-50.0	15.7	0.00e+00	0	44	0	1037041664	65	5140
2026-01-09 23:59:28.52	205.13	22.33	-47.0	-50.1	15.6	0.00e+00	0	44	0	1040187392	65	5175
2026-01-09 23:59:29.10	205.12	22.25	-46.9	-50.0	15.7	0.00e+00	0	44	0	1041235968	65	5133
2026-01-09 23:59:30.69	205.09	22.02	-46.9	-50.1	15.7	0.00e+00	0	44	0	1044381696	65	5165
2026-01-09 23:59:31.27	205.08	21.94	-46.9	-50.1	15.7	0.00e+00	0	44	0	1045430272	65	5163
2026-01-09 23:59:32.85	205.05	21.72	-46.9	-50.0	15.7	0.00e+00	0	44	0	1048576000	65	5113
2026-01-09 23:59:33.44	205.03	21.64	-47.0	-50.1	15.6	0.00e+00	0	44	0	1049624576	65	5207
2026-01-09 23:59:35.01	205.00	21.42	-46.8	-49.9	15.9	0.00e+00	0	44	0	1052770304	65	5050
2026-01-09 23:59:35.60	204.99	21.33	-46.8	-49.9	15.8	0.00e+00	0	44	0	1053818880	65	5082
2026-01-09 23:59:37.17	204.96	21.12	-46.8	-49.9	15.8	0.00e+00	0	44	0	1056964608	65	5071
2026-01-09 23:59:37.94	204.95	21.01	-46.9	-50.0	15.7	0.00e+00	0	44	0	1058013184	65	5148
2026-01-09 23:59:39.23	204.92	20.84	-46.8	-49.9	15.8	0.00e+00	0	44	0	1061158912	65	5052
2026-01-09 23:59:39.95	204.91	20.74	-46.8	-49.9	15.8	0.00e+00	0	43	0	1062207488	65	5087
2026-01-09 23:59:41.24	204.89	20.57	-47.0	-50.2	15.5	0.00e+00	0	44	0	1064304640	65	5234
2026-01-09 23:59:41.95	204.88	20.47	-47.0	-50.2	15.4	0.00e+00	0	44	0	1065353216	65	5273
2026-01-09 23:59:43.24	204.85	20.30	-47.1	-50.4	15.2	0.00e+00	0	44	0	1068498944	65	5389
2026-01-09 23:59:43.96	204.84	20.20	-47.2	-50.5	15.2	0.00e+00	0	44	0	1069547520	65	5407
2026-01-09 23:59:45.25	204.82	20.03	-47.3	-50.7	14.9	0.00e+00	0	43	0	1071644672	65	5560
2026-01-09 23:59:45.96	204.80	19.94	-47.2	-50.6	15.1	0.00e+00	0	44	0	1073741824	65	5467
2026-01-09 23:59:47.25	204.78	19.77	-47.3	-50.7	15.0	0.00e+00	0	43	0	1075838976	65	5540
2026-01-09 23:59:47.97	204.77	19.68	-47.3	-50.7	14.9	0.00e+00	0	44	0	1076887552	65	5572
2026-01-09 23:59:49.26	204.75	19.51	-47.4	-50.8	14.8	7.00e-07	0	44	0	1078984704	65	5654
2026-01-09 23:59:49.97	204.74	19.42	-47.4	-50.9	14.7	0.00e+00	0	44	0	1081081856	65	5701
2026-01-09 23:59:51.26	204.72	19.26	-47.4	-50.8	14.7	0.00e+00	0	43	0	1083179008	65	5649
2026-01-09 23:59:52.11	204.70	19.15	-47.3	-50.8	14.8	0.00e+00	0	44	0	1084227584	65	5619
2026-01-09 23:59:53.25	204.68	19.00	-47.4	-51.0	14.5	7.00e-07	0	44	0	1087373312	65	5734
2026-01-09 23:59:54.32	204.67	18.87	-47.4	-50.9	14.7	7.00e-07	0	43	0	1089470464	65	5690
2026-01-09 23:59:55.35	204.65	18.74	-47.4	-50.9	14.6	0.00e+00	0	44	0	1090519040	65	5695
2026-01-09 23:59:56.35	204.63	18.62	-47.4	-50.9	14.6	0.00e+00	0	44	0	1092616192	65	5688
2026-01-09 23:59:57.36	204.62	18.49	-47.4	-50.8	14.7	0.00e+00	0	44	0	1094713344	65	5629
2026-01-09 23:59:58.36	204.60	18.37	-47.4	-50.9	14.6	1.50e-06	0	44	0	1096810496	65	5671
2026-01-09 23:59:59.36	204.59	18.25	-47.4	-50.9	14.7	7.00e-07	0	44	0	1097859072	65	5661
2026-01-10 00:00:00.37	204.57	18.12	-47.5	-51.1	14.4	0.00e+00	0	44	0	1099956224	65	5827
2026-01-10 00:00:01.37	204.56	18.00	-47.4	-50.9	14.6	0.00e+00	0	44	0	1102053376	65	5663
2026-01-10 00:00:02.37	204.54	17.88	-47.4	-50.8	14.7	0.00e+00	0	43	0	1104150528	65	5640
2026-01-10 00:00:03.38	204.53	17.76	-47.4	-50.8	14.7	7.00e-07	0	44	0	1106247680	65	5621
2026-01-10 00:00:04.38	204.51	17.64	-47.4	-50.8	14.6	1.50e-06	0	44	0	1107296256	65	5646
2026-01-10 00:00:05.38	204.50	17.52	-47.3	-50.8	14.6	0.00e+00	0	44	0	1109393408	65	5627
2026-01-10 00:00:06.39	204.48	17.40	-47.4	-51.0	14.5	7.00e-07	0	43	0	1111490560	65	5727
2026-01-10 00:00:07.39	204.47	17.28	-47.5	-51.0	14.4	7.00e-07	0	44	0	1113587712	65	5742
2026-01-10 00:00:08.41	204.46	17.16	-47.4	-51.0	14.5	0.00e+00	0	44	0	1115684864	65	5730
2026-01-10 00:00:09.41	204.44	17.05	-47.5	-51.0	14.4	0.00e+00	0	44	0	1117782016	65	5763
2026-01-10 00:00:10.47	204.43	16.92	-47.5	-51.0	14.4	0.00e+00	0	44	0	1118830592	65	5771
2026-01-10 00:00:11.39	204.41	16.82	-47.4	-51.0	14.4	7.00e-07	0	44	0	1120927744	65	5739
2026-01-10 00:00:12.52	204.40	16.69	-47.5	-51.1	14.3	0.00e+00	0	43	0	1123024896	65	5841
2026-01-10 00:00:13.38	204.39	16.59	-47.6	-51.2	14.2	7.00e-07	0	44	0	1125122048	65	5877
2026-01-10 00:00:14.73	204.37	16.43	-47.5	-51.1	14.2	1.50e-06	0	44	0	1127219200	65	5842
2026-01-10 00:00:15.45	204.36	16.35	-47.6	-51.2	14.1	2.20e-06	0	44	0	1128267776	65	5913
2026-01-10 00:00:16.74	204.34	16.21	-47.5	-51.2	14.2	1.50e-06	0	44	0	1131413504	65	5875
2026-01-10 00:00:17.46	204.33	16.13	-47.6	-51.2	14.2	3.80e-06	0	43	0	1132462080	65	5897
2026-01-10 00:00:18.75	204.32	15.98	-47.7	-51.4	14.0	2.20e-06	0	44	0	1134559232	66	5678
2026-01-10 00:00:19.46	204.31	15.90	-47.6	-51.4	14.0	1.50e-06	0	44	0	1135607808	66	5664
2026-01-10 00:00:20.75	204.29	15.76	-47.6	-51.3	14.0	3.00e-06	0	44	0	1138753536	66	5633
2026-01-10 00:00:21.47	204.28	15.68	-47.7	-51.4	14.0	1.50e-06	0	43	0	1139802112	66	5681
2026-01-10 00:00:22.76	204.27	15.54	-47.7	-51.5	13.8	5.30e-06	0	44	0	1141899264	66	5734
2026-01-10 00:00:23.65	204.26	15.44	-47.7	-51.4	13.9	2.20e-06	0	44	0	1143996416	66	5710
2026-01-10 00:00:25.02	204.24	15.29	-47.7	-51.4	13.9	7.00e-07	0	44	0	1146093568	66	5720
2026-01-10 00:00:25.74	204.23	15.22	-47.7	-51.5	13.8	6.80e-06	0	43	0	1148190720	66	5730
2026-01-10 00:00:27.03	204.22	15.08	-47.7	-51.5	13.8	9.10e-06	0	44	0	1150287872	66	5735
2026-01-10 00:00:27.74	204.21	15.00	-47.7	-51.5	13.8	4.50e-06	0	44	0	1151336448	66	5751
2026-01-10 00:00:29.03	204.19	14.86	-47.7	-51.5	13.8	6.10e-06	0	44	0	1154482176	66	5728
2026-01-10 00:00:29.75	204.19	14.79	-47.7	-51.5	13.8	4.50e-06	0	44	0	1155530752	66	5726
2026-01-10 00:00:31.03	204.17	14.65	-47.8	-51.6	13.7	5.30e-06	0	44	0	1157627904	66	5824
2026-01-10 00:00:31.75	204.16	14.57	-47.8	-51.6	13.6	4.50e-06	0	44	0	1158676480	66	5827
2026-01-10 00:00:33.04	204.15	14.44	-47.7	-51.6	13.7	6.10e-06	0	44	0	1161822208	66	5805
2026-01-10 00:00:33.76	204.14	14.36	-47.7	-51.5	13.7	7.00e-07	0	44	0	1162870784	66	5783
2026-01-10 00:00:35.05	204.13	14.23	-47.7	-51.6	13.7	4.50e-06	0	44	0	1164967936	66	5808
2026-01-10 00:00:35.77	204.12	14.16	-47.8	-51.7	13.5	6.80e-06	0	43	0	1167065088	66	5882
2026-01-10 00:00:37.29	204.10	14.00	-47.7	-51.5	13.7	1.29e-05	0	44	0	1169162240	66	5784
2026-01-10 00:00:38.00	204.09	13.93	-47.7	-51.6	13.6	8.30e-06	0	44	0	1171259392	66	5833
2026-01-10 00:00:39.29	204.08	13.79	-47.7	-51.5	13.7	6.80e-06	0	43	0	1173356544	66	5788
2026-01-10 00:00:40.01	204.07	13.72	-47.7	-51.5	13.6	3.00e-06	0	44	0	1174405120	66	5766
2026-01-10 00:00:41.30	204.06	13.59	-47.6	-51.5	13.7	6.80e-06	0	44	0	1176502272	66	5762
2026-01-10 00:00:42.02	204.05	13.52	-47.6	-51.5	13.6	3.00e-06	0	44	0	1178599424	66	5782
2026-01-10 00:00:43.31	204.04	13.39	-47.6	-51.5	13.6	6.10e-06	0	44	0	1180696576	66	5762
2026-01-10 00:00:44.02	204.03	13.32	-47.6	-51.6	13.6	7.60e-06	0	44	0	1181745152	66	5799
2026-01-10 00:00:45.31	204.02	13.19	-47.6	-51.5	13.6	9.10e-06	0	44	0	1184890880	66	5769
2026-01-10 00:00:46.03	204.01	13.12	-47.6	-51.6	13.6	7.60e-06	0	44	0	1185939456	66	5810
2026-01-10 00:00:47.32	204.00	12.99	-47.6	-51.5	13.6	2.20e-06	0	44	0	1188036608	66	5757
2026-01-10 00:00:48.03	203.99	12.92	-47.6	-51.6	13.5	9.10e-06	0	44	0	1190133760	66	5799
2026-01-10 00:00:49.32	203.98	12.79	-47.6	-51.6	13.5	8.30e-06	0	44	0	1192230912	66	5790
2026-01-10 00:00:50.04	203.97	12.72	-47.5	-51.5	13.7	6.10e-06	0	44	0	1193279488	66	5728
2026-01-10 00:00:51.33	203.96	12.60	-47.5	-51.5	13.6	1.22e-05	0	44	0	1195376640	66	5758
2026-01-10 00:00:52.04	203.95	12.53	-47.4	-51.3	13.8	6.80e-06	0	44	0	1197473792	66	5633
2026-01-10 00:00:53.33	203.94	12.40	-47.4	-51.3	13.8	4.50e-06	0	44	0	1199570944	66	5619
2026-01-10 00:00:54.05	203.93	12.33	-47.4	-51.4	13.7	9.10e-06	0	44	0	1200619520	66	5690
2026-01-10 00:00:55.34	203.92	12.21	-47.5	-51.5	13.6	9.10e-06	0	44	0	1203765248	66	5723
2026-01-10 00:00:56.06	203.91	12.14	-47.4	-51.4	13.7	6.10e-06	0	44	0	1204813824	66	5669
2026-01-10 00:00:57.35	203.90	12.02	-47.4	-51.4	13.6	9.90e-06	0	44	0	1206910976	66	5721
2026-01-10 00:00:58.07	203.90	11.95	-47.5	-51.6	13.5	1.14e-05	0	44	0	1209008128	66	5794
2026-01-10 00:00:59.35	203.88	11.83	-47.4	-51.5	13.5	6.80e-06	0	44	0	1211105280	66	5744
2026-01-10 00:01:00.12	203.88	11.76	-47.4	-51.5	13.5	5.30e-06	0	44	0	1212153856	66	5734
2026-01-10 00:01:01.74	203.86	11.61	-47.4	-51.5	13.5	8.30e-06	0	44	0	1215299584	66	5732
2026-01-10 00:01:02.31	203.86	11.55	-47.4	-51.5	13.5	4.50e-06	0	44	0	1216348160	66	5745
2026-01-10 00:01:03.89	203.84	11.41	-47.4	-51.5	13.4	1.22e-05	0	44	0	1219493888	66	5784
2026-01-10 00:01:04.50	203.84	11.35	-47.3	-51.4	13.6	1.14e-05	0	44	0	1220542464	66	5672
2026-01-10 00:01:06.07	203.83	11.21	-47.4	-51.5	13.5	1.14e-05	0	43	0	1223688192	66	5734
2026-01-10 00:01:06.65	203.82	11.15	-47.4	-51.5	13.5	6.10e-06	0	44	0	1224736768	66	5734
2026-01-10 00:01:08.30	203.81	11.00	-47.4	-51.5	13.5	9.10e-06	0	44	0	1227882496	66	5767
2026-01-10 00:01:08.88	203.80	10.95	-47.4	-51.5	13.5	1.44e-05	0	44	0	1228931072	66	5767
2026-01-10 00:01:10.45	203.79	10.81	-47.4	-51.5	13.5	9.10e-06	0	44	0	1232076800	66	5751
