passes_logs/2026/01/09/T1/T1__20260109_214914_SUOMI_NPP_rec.log

#Pass ID: 20260109_214914_SUOMI NPP
#Satellite: SUOMI NPP
#Configuration: NPP
#almurnet v.1.7.20251203
#Start time: 2026-01-09 21:49:16

#Version: 2.0.20230620
#Station: T1
#Location: 37.570604 lon 55.790049 lat
#TLE: 1 37849U 11061A   26008.83076692  .00000095  00000+0  66074-4 0  9997
#TLE: 2 37849  98.7806 310.9327 0002533  74.3004 285.8451 14.19523607735834

#Time	Az	El	Level	Level2	SNR	BER	BlckErr	Temp	State	Recorded	gain1	gain2
2026-01-09 21:49:16.76	36.20	5.09	-49.1	-64.3	3.8	1.49e+00	0	37	0	0	70	19986
2026-01-09 21:49:17.76	36.31	5.14	-49.1	-64.3	3.8	1.49e+00	0	37	104	0	68	22422
2026-01-09 21:49:18.77	36.42	5.19	-49.1	-64.3	3.8	1.49e+00	0	37	104	0	68	22372
2026-01-09 21:49:19.77	36.53	5.24	-49.1	-64.3	3.8	1.49e+00	0	37	104	0	68	22401
2026-01-09 21:49:20.77	36.65	5.29	-49.1	-64.3	3.8	1.49e+00	0	37	104	0	68	22502
2026-01-09 21:49:21.78	36.76	5.34	-49.1	-64.3	3.8	1.49e+00	0	37	104	0	68	22493
2026-01-09 21:49:22.78	36.87	5.39	-49.1	-64.3	3.8	1.49e+00	0	37	104	0	68	22446
2026-01-09 21:49:23.79	36.99	5.43	-49.1	-64.3	3.8	1.49e+00	0	37	104	0	68	22339
2026-01-09 21:49:24.79	37.10	5.48	-49.1	-64.3	3.8	1.49e+00	0	37	104	0	68	22486
2026-01-09 21:49:25.80	37.22	5.53	-49.1	-64.3	3.8	1.49e+00	0	37	104	0	68	22392
2026-01-09 21:49:26.80	37.33	5.58	-49.1	-64.3	3.8	1.49e+00	0	37	104	0	68	22440
2026-01-09 21:49:27.80	37.45	5.63	-49.1	-64.3	3.8	1.49e+00	0	38	104	0	68	22411
2026-01-09 21:49:28.81	37.56	5.68	-49.1	-64.3	3.8	1.49e+00	0	38	104	0	68	22429
2026-01-09 21:49:29.81	37.68	5.73	-49.1	-64.3	3.8	1.49e+00	0	37	104	0	68	22438
2026-01-09 21:49:30.82	37.79	5.78	-49.1	-64.3	3.8	1.49e+00	0	38	104	0	68	22513
2026-01-09 21:49:31.82	37.91	5.82	-49.1	-64.3	3.8	1.49e+00	0	38	104	0	68	22404
2026-01-09 21:49:32.83	38.03	5.87	-49.1	-64.3	3.8	1.49e+00	0	38	104	0	68	22445
2026-01-09 21:49:33.83	38.15	5.92	-49.1	-64.3	3.8	1.49e+00	0	38	104	0	68	22366
2026-01-09 21:49:34.84	38.26	5.97	-49.1	-64.3	3.8	1.49e+00	0	38	104	0	68	22459
2026-01-09 21:49:35.84	38.38	6.02	-49.1	-64.3	3.8	1.49e+00	0	38	104	0	68	22511
2026-01-09 21:49:36.85	38.50	6.07	-49.1	-64.3	3.8	1.49e+00	0	38	104	0	68	22395
2026-01-09 21:49:37.85	38.62	6.12	-49.1	-64.3	3.8	1.49e+00	0	38	104	0	68	22470
2026-01-09 21:49:38.85	38.74	6.16	-49.1	-64.3	3.8	1.49e+00	0	38	104	0	68	22494
2026-01-09 21:49:39.86	38.86	6.21	-49.1	-64.3	3.8	1.49e+00	0	38	104	0	68	22337
2026-01-09 21:49:40.86	38.98	6.26	-49.1	-64.3	3.8	1.49e+00	0	38	104	0	68	22310
2026-01-09 21:49:41.87	39.10	6.31	-49.1	-64.3	3.8	1.49e+00	0	38	104	0	68	22322
2026-01-09 21:49:42.87	39.22	6.36	-49.1	-64.3	3.8	1.49e+00	0	38	104	0	68	22377
2026-01-09 21:49:43.88	39.34	6.41	-49.1	-64.3	3.8	1.49e+00	0	38	104	0	68	22341
2026-01-09 21:49:44.88	39.46	6.46	-49.1	-64.4	3.8	1.49e+00	0	38	104	0	68	22523
2026-01-09 21:49:45.88	39.59	6.50	-49.1	-64.3	3.8	1.49e+00	0	38	104	0	68	22398
2026-01-09 21:49:46.89	39.71	6.55	-49.0	-64.3	3.8	1.49e+00	0	38	104	0	68	22419
2026-01-09 21:49:47.89	39.83	6.60	-49.1	-64.3	3.8	1.49e+00	0	38	104	0	68	22354
2026-01-09 21:49:48.90	39.96	6.65	-49.1	-64.3	3.8	1.49e+00	0	38	104	0	68	22388
2026-01-09 21:49:49.90	40.08	6.70	-49.0	-64.3	3.8	1.49e+00	0	38	104	0	68	22395
2026-01-09 21:49:50.90	40.20	6.75	-49.1	-64.3	3.8	1.49e+00	0	38	104	0	68	22361
2026-01-09 21:49:51.91	40.33	6.80	-49.0	-64.3	3.8	1.49e+00	0	38	104	0	68	22322
2026-01-09 21:49:52.91	40.45	6.84	-49.0	-64.3	3.8	1.49e+00	0	38	104	0	68	22301
2026-01-09 21:49:53.92	40.58	6.89	-49.0	-64.3	3.8	1.49e+00	0	38	104	0	68	22274
2026-01-09 21:49:54.92	40.70	6.94	-49.1	-64.2	3.8	1.49e+00	0	38	104	0	68	22249
2026-01-09 21:49:55.93	40.83	6.99	-49.1	-64.3	3.8	1.49e+00	0	38	104	0	68	22286
2026-01-09 21:49:56.93	40.96	7.04	-49.0	-64.3	3.8	1.49e+00	0	38	104	0	68	22326
2026-01-09 21:49:57.94	41.08	7.09	-49.0	-64.3	3.8	1.49e+00	0	38	104	0	68	22421
2026-01-09 21:49:58.94	41.21	7.13	-49.0	-64.3	3.8	1.49e+00	0	38	104	0	68	22352
2026-01-09 21:49:59.94	41.34	7.18	-49.0	-64.2	3.8	1.49e+00	0	38	104	0	68	22254
2026-01-09 21:50:00.95	41.47	7.23	-49.0	-64.3	3.8	1.49e+00	0	38	104	0	68	22334
2026-01-09 21:50:01.96	41.60	7.28	-49.0	-64.3	3.8	1.49e+00	0	38	104	0	68	22289
2026-01-09 21:50:02.96	41.73	7.33	-49.0	-64.3	3.8	1.49e+00	0	38	104	0	68	22407
2026-01-09 21:50:03.96	41.85	7.37	-49.0	-64.2	3.8	1.49e+00	0	38	104	0	68	22251
2026-01-09 21:50:04.97	41.99	7.42	-49.0	-64.2	3.8	1.49e+00	0	38	104	0	68	22262
2026-01-09 21:50:05.97	42.11	7.47	-49.0	-64.2	3.8	1.49e+00	0	38	104	0	68	22255
2026-01-09 21:50:06.98	42.25	7.52	-49.0	-64.2	3.8	1.49e+00	0	38	104	0	68	22259
2026-01-09 21:50:07.98	42.38	7.57	-49.0	-64.2	3.8	1.49e+00	0	38	104	0	68	22141
2026-01-09 21:50:08.99	42.51	7.62	-49.0	-64.2	3.8	1.49e+00	0	38	104	0	68	22077
2026-01-09 21:50:09.99	42.64	7.66	-49.0	-64.2	3.8	1.49e+00	0	38	104	0	68	22036
2026-01-09 21:50:10.99	42.77	7.71	-49.0	-64.1	3.8	1.49e+00	0	38	104	0	68	22007
2026-01-09 21:50:12.00	42.91	7.76	-49.0	-64.1	3.8	1.49e+00	0	39	104	0	68	21979
2026-01-09 21:50:13.00	43.04	7.81	-49.0	-64.2	3.8	1.49e+00	0	39	104	0	68	22119
2026-01-09 21:50:14.01	43.17	7.85	-49.0	-64.3	3.8	1.49e+00	0	39	104	0	68	22332
2026-01-09 21:50:15.01	43.31	7.90	-49.0	-64.3	3.8	1.49e+00	0	39	104	0	68	22361
2026-01-09 21:50:16.02	43.44	7.95	-49.0	-64.3	3.8	1.49e+00	0	39	104	0	68	22357
2026-01-09 21:50:17.02	43.58	8.00	-49.0	-64.2	3.8	1.49e+00	0	39	104	0	68	22257
2026-01-09 21:50:18.02	43.71	8.04	-49.0	-64.3	3.8	1.49e+00	0	39	104	0	68	22333
2026-01-09 21:50:19.03	43.85	8.09	-49.0	-64.3	3.8	1.49e+00	0	39	104	0	68	22358
2026-01-09 21:50:20.03	43.98	8.14	-49.0	-64.2	3.8	1.49e+00	0	39	104	0	68	22228
2026-01-09 21:50:21.04	44.12	8.19	-49.0	-64.2	3.8	1.49e+00	0	39	104	0	68	22046
2026-01-09 21:50:22.04	44.26	8.24	-49.0	-64.1	3.8	1.49e+00	0	39	104	0	68	21978
2026-01-09 21:50:23.05	44.39	8.28	-49.0	-64.1	3.8	1.49e+00	0	39	104	0	68	21945
2026-01-09 21:50:24.05	44.53	8.33	-49.0	-64.2	3.8	1.49e+00	0	39	104	0	68	22101
2026-01-09 21:50:25.05	44.67	8.38	-49.0	-64.2	3.8	1.49e+00	0	39	104	0	68	22026
2026-01-09 21:50:26.06	44.81	8.42	-49.0	-64.2	3.8	1.49e+00	0	39	104	0	68	22222
2026-01-09 21:50:27.06	44.95	8.47	-49.0	-64.2	3.8	1.49e+00	0	39	104	0	68	22204
2026-01-09 21:50:28.07	45.09	8.52	-49.0	-64.2	3.8	1.49e+00	0	39	104	0	68	22250
2026-01-09 21:50:29.07	45.23	8.57	-49.0	-64.2	3.8	1.49e+00	0	39	104	0	68	22106
2026-01-09 21:50:30.07	45.37	8.61	-49.0	-64.2	3.8	1.49e+00	0	39	104	0	68	22085
2026-01-09 21:50:31.08	45.51	8.66	-49.0	-64.1	3.8	1.49e+00	0	39	104	0	68	21860
2026-01-09 21:50:32.08	45.65	8.71	-49.0	-64.1	3.8	1.49e+00	0	39	104	0	68	21862
2026-01-09 21:50:33.09	45.79	8.75	-49.0	-64.1	3.8	1.49e+00	0	39	104	0	68	21954
2026-01-09 21:50:34.09	45.93	8.80	-49.0	-64.2	3.8	1.49e+00	0	39	104	0	68	22031
2026-01-09 21:50:35.10	46.08	8.85	-49.0	-64.2	3.8	1.49e+00	0	39	104	0	68	22179
2026-01-09 21:50:36.10	46.22	8.89	-49.0	-64.1	3.8	1.49e+00	0	39	104	0	68	21931
2026-01-09 21:50:37.11	46.36	8.94	-49.0	-64.0	3.8	1.49e+00	0	39	104	0	68	21724
2026-01-09 21:50:38.11	46.51	8.99	-49.0	-63.6	3.8	1.49e+00	0	39	104	0	68	20703
2026-01-09 21:50:39.11	46.65	9.03	-48.9	-62.5	3.8	1.49e+00	0	39	104	0	68	18180
2026-01-09 21:50:40.12	46.80	9.08	-49.0	-63.6	3.8	1.49e+00	0	39	104	0	68	20674
2026-01-09 21:50:41.50	47.00	9.14	-49.0	-63.3	3.8	1.49e+00	0	39	104	0	68	19966
2026-01-09 21:50:42.22	47.10	9.18	-48.6	-59.4	4.7	1.29e+00	0	39	0	0	68	12676
2026-01-09 21:50:43.51	47.29	9.24	-48.7	-60.0	3.9	1.44e+00	0	39	104	0	68	13719
2026-01-09 21:50:44.23	47.40	9.27	-45.9	-50.3	12.7	8.67e-04	0	39	0	0	63	5983
2026-01-09 21:50:45.52	47.58	9.33	-45.6	-49.7	13.3	2.28e-05	0	39	0	3145728	63	5554
2026-01-09 21:50:46.23	47.69	9.36	-45.7	-49.9	13.0	2.97e-05	0	39	0	4194304	63	5713
2026-01-09 21:50:47.52	47.88	9.42	-45.5	-49.5	13.6	1.06e-05	0	39	0	6291456	62	5746
2026-01-09 21:50:48.24	47.99	9.45	-45.4	-49.3	13.7	6.80e-06	0	39	0	7340032	62	5624
2026-01-09 21:50:49.61	48.19	9.51	-45.2	-49.0	14.0	5.30e-06	0	39	0	10485760	62	5436
2026-01-09 21:50:50.32	48.30	9.55	-45.5	-49.4	13.6	3.00e-06	0	39	0	11534336	62	5701
2026-01-09 21:50:51.68	48.50	9.61	-45.2	-48.9	14.1	6.80e-06	0	39	0	14680064	62	5376
2026-01-09 21:50:52.39	48.60	9.64	-45.3	-49.1	13.9	3.00e-06	0	39	0	15728640	62	5520
2026-01-09 21:50:53.76	48.81	9.70	-45.3	-49.2	13.9	8.30e-06	0	39	0	17825792	62	5554
2026-01-09 21:50:54.48	48.92	9.73	-45.3	-49.2	13.8	5.30e-06	0	39	0	19922944	62	5584
2026-01-09 21:50:55.77	49.11	9.79	-45.1	-48.9	14.2	2.20e-06	0	39	0	22020096	62	5366
2026-01-09 21:50:56.48	49.22	9.82	-45.0	-48.7	14.4	7.00e-07	0	39	0	23068672	62	5226
2026-01-09 21:50:57.77	49.42	9.88	-45.0	-48.6	14.5	1.50e-06	0	39	0	26214400	61	5487
2026-01-09 21:50:58.49	49.53	9.91	-45.0	-48.6	14.5	0.00e+00	0	39	0	27262976	61	5468
2026-01-09 21:50:59.78	49.73	9.97	-44.8	-48.2	14.9	7.00e-07	0	39	0	29360128	61	5272
2026-01-09 21:51:00.50	49.84	10.00	-44.6	-48.0	15.0	0.00e+00	0	39	0	30408704	61	5153
2026-01-09 21:51:01.79	50.04	10.06	-44.7	-48.1	15.0	0.00e+00	0	39	0	33554432	61	5213
2026-01-09 21:51:02.50	50.14	10.09	-44.8	-48.2	14.9	7.00e-07	0	39	0	34603008	61	5269
2026-01-09 21:51:03.79	50.34	10.15	-44.8	-48.3	14.8	0.00e+00	0	39	0	36700160	61	5310
2026-01-09 21:51:04.51	50.46	10.18	-44.9	-48.6	14.6	7.00e-07	0	39	0	37748736	61	5465
2026-01-09 21:51:05.80	50.66	10.24	-45.1	-48.8	14.3	0.00e+00	0	39	0	40894464	61	5635
2026-01-09 21:51:06.52	50.77	10.27	-45.1	-48.7	14.3	3.00e-06	0	39	0	41943040	61	5592
2026-01-09 21:51:07.81	50.97	10.32	-45.0	-48.7	14.4	0.00e+00	0	39	0	44040192	61	5541
2026-01-09 21:51:08.52	51.08	10.36	-44.9	-48.5	14.5	7.00e-07	0	39	0	46137344	61	5457
2026-01-09 21:51:09.81	51.29	10.41	-45.0	-48.6	14.5	1.50e-06	0	39	0	48234496	61	5507
2026-01-09 21:51:10.53	51.40	10.44	-45.0	-48.7	14.4	0.00e+00	0	39	0	49283072	61	5537
2026-01-09 21:51:11.82	51.61	10.50	-44.9	-48.5	14.6	0.00e+00	0	39	0	52428800	61	5409
2026-01-09 21:51:12.54	51.72	10.53	-44.7	-48.2	14.9	0.00e+00	0	39	0	53477376	61	5259
2026-01-09 21:51:13.83	51.93	10.59	-44.8	-48.3	14.9	0.00e+00	0	39	0	55574528	61	5286
2026-01-09 21:51:14.54	52.04	10.62	-44.7	-48.2	14.9	0.00e+00	0	39	0	56623104	61	5235
2026-01-09 21:51:15.83	52.25	10.67	-44.8	-48.4	14.7	0.00e+00	0	39	0	59768832	61	5357
2026-01-09 21:51:16.55	52.36	10.70	-44.8	-48.3	14.8	0.00e+00	0	39	0	60817408	61	5333
2026-01-09 21:51:17.84	52.57	10.76	-44.8	-48.3	14.8	0.00e+00	0	39	0	62914560	61	5301
2026-01-09 21:51:18.56	52.69	10.79	-44.9	-48.5	14.7	0.00e+00	0	39	0	65011712	61	5411
2026-01-09 21:51:19.84	52.89	10.84	-44.9	-48.5	14.6	0.00e+00	0	39	0	67108864	61	5419
2026-01-09 21:51:20.56	53.01	10.87	-45.1	-48.7	14.4	0.00e+00	0	39	0	68157440	61	5573
2026-01-09 21:51:21.85	53.22	10.93	-45.0	-48.7	14.4	1.50e-06	0	39	0	71303168	61	5579
2026-01-09 21:51:22.70	53.36	10.96	-44.9	-48.5	14.6	7.00e-07	0	39	0	72351744	61	5458
2026-01-09 21:51:23.84	53.55	11.01	-45.2	-48.9	14.2	7.00e-07	0	39	0	74448896	61	5705
2026-01-09 21:51:24.70	53.69	11.05	-45.3	-49.1	14.1	1.50e-06	0	39	0	76546048	61	5793
2026-01-09 21:51:25.85	53.88	11.09	-45.3	-49.0	14.1	2.20e-06	0	39	0	78643200	61	5781
2026-01-09 21:51:26.71	54.02	11.13	-45.4	-49.2	13.9	2.20e-06	0	39	0	79691776	61	5921
2026-01-09 21:51:27.85	54.21	11.18	-45.4	-49.3	13.8	2.20e-06	0	39	0	81788928	61	5958
2026-01-09 21:51:28.71	54.35	11.21	-45.2	-49.0	14.1	1.50e-06	0	39	0	83886080	61	5778
2026-01-09 21:51:29.89	54.55	11.26	-45.3	-49.1	14.1	7.00e-07	0	39	0	85983232	61	5799
2026-01-09 21:51:30.75	54.69	11.29	-45.2	-48.9	14.2	7.00e-07	0	39	0	87031808	61	5722
2026-01-09 21:51:31.90	54.89	11.34	-45.3	-49.1	14.1	7.00e-07	0	39	0	89128960	61	5812
2026-01-09 21:51:32.76	55.03	11.38	-45.4	-49.3	13.8	2.20e-06	0	39	0	91226112	61	5968
2026-01-09 21:51:33.91	55.23	11.42	-45.5	-49.5	13.7	1.50e-06	0	39	0	93323264	61	6105
2026-01-09 21:51:34.77	55.37	11.46	-45.4	-49.2	13.9	3.80e-06	0	39	0	95420416	61	5919
2026-01-09 21:51:36.14	55.60	11.51	-45.5	-49.4	13.7	6.80e-06	0	39	0	97517568	61	6046
2026-01-09 21:51:37.25	55.79	11.56	-45.6	-49.6	13.5	5.30e-06	0	39	0	99614720	61	6170
2026-01-09 21:51:38.42	55.99	11.60	-45.6	-49.5	13.6	5.30e-06	0	39	0	101711872	61	6119
2026-01-09 21:51:39.28	56.14	11.64	-45.5	-49.4	13.7	9.10e-06	0	39	0	103809024	61	6034
2026-01-09 21:51:40.42	56.34	11.68	-45.4	-49.3	13.8	3.80e-06	0	39	0	105906176	61	5954
2026-01-09 21:51:41.28	56.48	11.71	-45.2	-49.0	14.2	1.50e-06	0	39	0	106954752	61	5773
2026-01-09 21:51:42.43	56.68	11.76	-45.5	-49.4	13.7	6.10e-06	0	39	0	109051904	61	6037
2026-01-09 21:51:43.29	56.83	11.79	-45.5	-49.4	13.8	3.80e-06	0	39	0	111149056	61	6000
2026-01-09 21:51:44.44	57.03	11.84	-45.5	-49.5	13.7	3.80e-06	0	39	0	113246208	61	6089
2026-01-09 21:51:45.29	57.18	11.87	-45.4	-49.3	13.9	4.50e-06	0	39	0	114294784	61	5973
2026-01-09 21:51:46.44	57.38	11.91	-45.5	-49.4	13.8	1.50e-06	0	39	0	117440512	61	6027
2026-01-09 21:51:47.31	57.53	11.95	-45.5	-49.4	13.7	1.29e-05	0	39	0	118489088	61	6060
2026-01-09 21:51:48.50	57.74	11.99	-45.5	-49.5	13.7	6.10e-06	0	39	0	120586240	62	5746
2026-01-09 21:51:49.36	57.89	12.02	-45.4	-49.3	14.0	3.00e-06	0	39	0	122683392	62	5620
2026-01-09 21:51:50.51	58.09	12.07	-45.3	-49.1	14.1	3.00e-06	0	39	0	124780544	62	5517
2026-01-09 21:51:51.37	58.24	12.10	-45.3	-49.1	14.2	2.20e-06	0	39	0	125829120	62	5488
2026-01-09 21:51:52.51	58.45	12.14	-45.4	-49.3	14.0	1.50e-06	0	39	0	127926272	62	5596
2026-01-09 21:51:53.37	58.60	12.17	-45.3	-49.1	14.2	3.00e-06	0	39	0	130023424	62	5472
2026-01-09 21:51:54.52	58.80	12.22	-45.2	-48.9	14.3	1.50e-06	0	39	0	132120576	62	5360
2026-01-09 21:51:55.38	58.96	12.25	-45.3	-48.9	14.3	2.20e-06	0	39	0	134217728	62	5396
2026-01-09 21:51:56.53	59.16	12.29	-45.3	-49.1	14.2	3.00e-06	0	39	0	136314880	62	5478
2026-01-09 21:51:57.38	59.31	12.32	-45.3	-49.0	14.3	2.20e-06	0	39	0	137363456	62	5426
2026-01-09 21:51:58.53	59.52	12.36	-45.4	-49.1	14.2	1.50e-06	0	39	0	139460608	62	5479
2026-01-09 21:51:59.39	59.68	12.39	-45.5	-49.3	13.9	4.50e-06	0	39	0	141557760	62	5622
2026-01-09 21:52:00.54	59.88	12.43	-45.5	-49.4	13.9	3.00e-06	0	39	0	143654912	62	5667
2026-01-09 21:52:01.40	60.04	12.46	-45.5	-49.3	14.0	2.20e-06	0	40	0	144703488	62	5606
2026-01-09 21:52:02.55	60.25	12.50	-45.4	-49.2	14.0	2.20e-06	0	39	0	146800640	62	5585
2026-01-09 21:52:03.41	60.40	12.53	-45.4	-49.2	14.0	7.00e-07	0	39	0	148897792	62	5555
2026-01-09 21:52:04.55	60.61	12.57	-45.4	-49.3	13.9	3.00e-06	0	40	0	150994944	62	5648
2026-01-09 21:52:05.42	60.77	12.60	-45.5	-49.5	13.7	7.00e-07	0	39	0	152043520	62	5757
2026-01-09 21:52:06.56	60.98	12.64	-45.3	-49.2	14.0	1.50e-06	0	39	0	155189248	62	5576
2026-01-09 21:52:07.42	61.14	12.67	-45.4	-49.2	14.1	1.50e-06	0	39	0	156237824	62	5572
2026-01-09 21:52:08.57	61.35	12.71	-45.3	-49.2	14.1	2.20e-06	0	39	0	158334976	62	5546
2026-01-09 21:52:09.43	61.51	12.74	-45.3	-49.0	14.3	7.00e-07	0	39	0	160432128	62	5447
2026-01-09 21:52:10.58	61.72	12.78	-45.2	-48.9	14.4	1.50e-06	0	39	0	162529280	62	5345
2026-01-09 21:52:11.44	61.88	12.81	-45.0	-48.6	14.7	7.00e-07	0	39	0	163577856	62	5168
2026-01-09 21:52:12.58	62.09	12.84	-44.9	-48.3	14.9	0.00e+00	0	39	0	165675008	61	5340
2026-01-09 21:52:13.65	62.29	12.88	-44.8	-48.3	14.9	7.00e-07	0	39	0	167772160	61	5282
2026-01-09 21:52:14.51	62.45	12.91	-44.7	-48.0	15.2	0.00e+00	0	39	0	169869312	61	5150
2026-01-09 21:52:15.66	62.66	12.94	-44.6	-47.9	15.3	0.00e+00	0	39	0	171966464	61	5072
2026-01-09 21:52:16.73	62.86	12.98	-44.7	-48.0	15.2	0.00e+00	0	39	0	174063616	61	5144
2026-01-09 21:52:17.75	63.05	13.01	-44.6	-47.8	15.4	0.00e+00	0	39	0	175112192	61	5023
2026-01-09 21:52:18.94	63.28	13.05	-44.4	-47.7	15.6	0.00e+00	0	39	0	178257920	60	5219
2026-01-09 21:52:19.83	63.45	13.08	-44.5	-47.8	15.5	0.00e+00	0	39	0	179306496	60	5301
2026-01-09 21:52:20.97	63.66	13.11	-44.5	-47.8	15.5	0.00e+00	0	39	0	181403648	60	5314
2026-01-09 21:52:21.83	63.82	13.14	-44.8	-48.2	15.1	0.00e+00	0	39	0	183500800	60	5556
2026-01-09 21:52:22.98	64.04	13.17	-44.9	-48.3	15.0	0.00e+00	0	39	0	185597952	60	5636
2026-01-09 21:52:23.84	64.20	13.20	-44.9	-48.3	15.0	0.00e+00	0	39	0	186646528	60	5615
2026-01-09 21:52:24.99	64.42	13.23	-44.9	-48.3	15.0	0.00e+00	0	39	0	188743680	60	5610
2026-01-09 21:52:25.85	64.59	13.26	-44.7	-48.1	15.2	0.00e+00	0	40	0	190840832	60	5479
2026-01-09 21:52:26.99	64.81	13.29	-44.8	-48.1	15.2	0.00e+00	0	39	0	192937984	60	5496
2026-01-09 21:52:27.85	64.97	13.32	-44.5	-47.7	15.6	0.00e+00	0	39	0	195035136	60	5228
2026-01-09 21:52:29.00	65.19	13.35	-44.1	-47.2	16.1	0.00e+00	0	39	0	197132288	60	4946
2026-01-09 21:52:29.86	65.36	13.38	-44.0	-47.0	16.2	0.00e+00	0	39	0	198180864	60	4850
2026-01-09 21:52:31.00	65.58	13.41	-44.1	-47.2	16.1	0.00e+00	0	40	0	200278016	60	4929
2026-01-09 21:52:31.87	65.74	13.43	-44.2	-47.3	15.9	0.00e+00	0	40	0	202375168	60	5038
2026-01-09 21:52:33.01	65.96	13.47	-44.4	-47.7	15.7	0.00e+00	0	39	0	204472320	60	5219
2026-01-09 21:52:33.87	66.13	13.49	-44.5	-47.8	15.5	0.00e+00	0	39	0	205520896	60	5317
2026-01-09 21:52:35.02	66.35	13.52	-44.5	-47.7	15.5	0.00e+00	0	39	0	207618048	60	5278
2026-01-09 21:52:35.88	66.52	13.54	-44.5	-47.7	15.6	0.00e+00	0	39	0	209715200	60	5271
2026-01-09 21:52:37.02	66.74	13.57	-44.3	-47.3	15.9	0.00e+00	0	39	0	211812352	60	5041
2026-01-09 21:52:37.88	66.91	13.60	-44.2	-47.2	16.1	0.00e+00	0	39	0	213909504	60	4959
2026-01-09 21:52:39.03	67.14	13.63	-44.0	-46.9	16.3	0.00e+00	0	40	0	216006656	60	4799
2026-01-09 21:52:39.89	67.30	13.65	-44.0	-47.0	16.2	0.00e+00	0	39	0	217055232	59	5121
2026-01-09 21:52:41.04	67.53	13.68	-44.3	-47.4	15.9	0.00e+00	0	39	0	219152384	59	5341
2026-01-09 21:52:41.90	67.70	13.70	-44.5	-47.6	15.6	0.00e+00	0	40	0	221249536	59	5503
2026-01-09 21:52:43.04	67.92	13.73	-44.6	-47.9	15.4	0.00e+00	0	40	0	223346688	60	5377
2026-01-09 21:52:43.90	68.09	13.75	-44.9	-48.3	15.0	0.00e+00	0	39	0	224395264	60	5611
2026-01-09 21:52:45.05	68.32	13.78	-44.9	-48.3	15.0	0.00e+00	0	39	0	226492416	60	5631
2026-01-09 21:52:45.91	68.49	13.80	-44.7	-48.0	15.3	0.00e+00	0	40	0	228589568	60	5434
2026-01-09 21:52:47.05	68.72	13.83	-44.7	-47.9	15.4	0.00e+00	0	39	0	230686720	60	5393
2026-01-09 21:52:48.01	68.91	13.85	-44.7	-47.9	15.4	0.00e+00	0	39	0	232783872	60	5372
2026-01-09 21:52:49.01	69.10	13.88	-44.6	-47.9	15.5	0.00e+00	0	39	0	233832448	60	5349
2026-01-09 21:52:50.01	69.30	13.90	-45.0	-48.4	14.9	0.00e+00	0	39	0	235929600	60	5671
2026-01-09 21:52:51.02	69.50	13.92	-45.3	-49.0	14.3	0.00e+00	0	39	0	238026752	61	5740
2026-01-09 21:52:52.02	69.70	13.94	-45.7	-49.6	13.7	3.00e-06	0	39	0	240123904	62	5795
2026-01-09 21:52:53.03	69.91	13.97	-45.9	-50.0	13.2	7.60e-06	0	39	0	242221056	62	6113
2026-01-09 21:52:54.03	70.11	13.99	-45.9	-50.1	13.2	9.90e-06	0	39	0	243269632	62	6138
2026-01-09 21:52:55.03	70.31	14.01	-45.7	-49.6	13.6	5.30e-06	0	39	0	245366784	62	5854
2026-01-09 21:52:56.03	70.51	14.03	-45.2	-48.8	14.5	3.80e-06	0	39	0	247463936	62	5309
2026-01-09 21:52:57.04	70.71	14.05	-45.1	-48.6	14.7	7.00e-07	0	40	0	249561088	62	5200
2026-01-09 21:52:58.04	70.91	14.07	-44.7	-48.1	15.2	0.00e+00	0	40	0	251658240	61	5176
2026-01-09 21:52:59.04	71.11	14.09	-44.6	-47.8	15.5	0.00e+00	0	39	0	252706816	61	5032
2026-01-09 21:53:00.05	71.32	14.11	-44.8	-48.2	15.1	0.00e+00	0	39	0	254803968	61	5246
2026-01-09 21:53:01.05	71.52	14.13	-44.9	-48.3	15.1	0.00e+00	0	39	0	256901120	61	5289
2026-01-09 21:53:02.06	71.72	14.15	-45.1	-48.6	14.7	7.00e-07	0	39	0	258998272	61	5492
2026-01-09 21:53:03.05	71.93	14.17	-45.1	-48.6	14.8	0.00e+00	0	39	0	260046848	61	5494
2026-01-09 21:53:04.06	72.13	14.19	-45.1	-48.6	14.7	0.00e+00	0	39	0	262144000	61	5468
2026-01-09 21:53:05.06	72.33	14.21	-44.9	-48.3	15.1	0.00e+00	0	40	0	264241152	61	5283
2026-01-09 21:53:06.07	72.54	14.23	-44.6	-47.9	15.4	0.00e+00	0	39	0	266338304	61	5050
2026-01-09 21:53:07.07	72.74	14.25	-44.6	-47.9	15.4	0.00e+00	0	39	0	268435456	61	5059
2026-01-09 21:53:08.07	72.95	14.26	-44.5	-47.6	15.6	0.00e+00	0	40	0	270532608	61	4923
2026-01-09 21:53:09.07	73.15	14.28	-44.5	-47.7	15.6	0.00e+00	0	39	0	271581184	60	5240
2026-01-09 21:53:10.08	73.36	14.30	-44.6	-47.8	15.5	0.00e+00	0	39	0	273678336	60	5302
2026-01-09 21:53:11.08	73.56	14.32	-44.7	-47.8	15.5	0.00e+00	0	39	0	275775488	60	5336
2026-01-09 21:53:12.08	73.77	14.33	-44.7	-47.9	15.5	0.00e+00	0	39	0	277872640	60	5351
2026-01-09 21:53:13.09	73.97	14.35	-44.5	-47.7	15.7	0.00e+00	0	39	0	278921216	60	5242
2026-01-09 21:53:14.09	74.18	14.36	-44.5	-47.6	15.8	0.00e+00	0	39	0	281018368	60	5167
2026-01-09 21:53:15.16	74.40	14.38	-44.3	-47.4	15.9	0.00e+00	0	39	0	283115520	60	5068
2026-01-09 21:53:16.05	74.58	14.39	-44.1	-47.1	16.3	0.00e+00	0	39	0	285212672	60	4891
2026-01-09 21:53:17.05	74.79	14.41	-44.1	-47.0	16.3	0.00e+00	0	39	0	287309824	60	4853
2026-01-09 21:53:18.06	75.00	14.42	-44.3	-47.3	16.1	0.00e+00	0	40	0	288358400	60	4991
2026-01-09 21:53:19.06	75.20	14.44	-44.4	-47.5	15.9	0.00e+00	0	39	0	290455552	60	5134
2026-01-09 21:53:20.06	75.41	14.45	-44.6	-47.8	15.6	0.00e+00	0	39	0	292552704	60	5295
2026-01-09 21:53:21.07	75.62	14.46	-44.8	-48.0	15.4	0.00e+00	0	39	0	294649856	60	5421
2026-01-09 21:53:22.07	75.83	14.48	-44.6	-47.8	15.5	0.00e+00	0	39	0	296747008	60	5310
2026-01-09 21:53:23.07	76.03	14.49	-44.5	-47.5	15.8	0.00e+00	0	40	0	297795584	60	5136
2026-01-09 21:53:24.08	76.24	14.50	-44.1	-47.1	16.2	0.00e+00	0	39	0	299892736	60	4883
2026-01-09 21:53:25.08	76.45	14.51	-44.0	-46.9	16.4	0.00e+00	0	40	0	301989888	59	5045
2026-01-09 21:53:26.08	76.66	14.53	-43.9	-46.7	16.5	0.00e+00	0	39	0	304087040	59	4953
2026-01-09 21:53:27.09	76.87	14.54	-44.0	-46.9	16.4	0.00e+00	0	39	0	305135616	59	5085
2026-01-09 21:53:28.16	77.09	14.55	-44.1	-47.1	16.2	0.00e+00	0	40	0	307232768	59	5185
2026-01-09 21:53:29.03	77.27	14.56	-44.3	-47.3	16.0	0.00e+00	0	40	0	309329920	59	5305
2026-01-09 21:53:30.18	77.51	14.57	-44.5	-47.6	15.7	0.00e+00	0	40	0	311427072	59	5518
2026-01-09 21:53:31.13	77.71	14.58	-44.7	-47.8	15.5	0.00e+00	0	40	0	313524224	59	5610
2026-01-09 21:53:32.14	77.92	14.59	-44.7	-47.8	15.5	0.00e+00	0	39	0	315621376	60	5335
2026-01-09 21:53:33.14	78.13	14.60	-44.7	-47.9	15.4	0.00e+00	0	39	0	316669952	60	5371
2026-01-09 21:53:34.14	78.34	14.61	-44.6	-47.8	15.6	0.00e+00	0	39	0	318767104	60	5284
2026-01-09 21:53:35.15	78.55	14.62	-44.6	-47.8	15.6	0.00e+00	0	39	0	320864256	60	5286
2026-01-09 21:53:36.15	78.76	14.62	-44.7	-47.9	15.5	0.00e+00	0	39	0	322961408	60	5378
2026-01-09 21:53:37.15	78.97	14.63	-44.7	-48.0	15.3	0.00e+00	0	40	0	324009984	60	5431
2026-01-09 21:53:38.53	79.26	14.64	-44.7	-47.9	15.4	0.00e+00	0	40	0	327155712	60	5375
2026-01-09 21:53:39.29	79.41	14.65	-44.5	-47.6	15.7	0.00e+00	0	40	0	328204288	60	5216
2026-01-09 21:53:40.58	79.68	14.65	-44.5	-47.6	15.7	0.00e+00	0	40	0	331350016	60	5189
2026-01-09 21:53:41.30	79.84	14.66	-44.5	-47.6	15.7	0.00e+00	0	39	0	332398592	60	5173
2026-01-09 21:53:42.59	80.11	14.67	-44.5	-47.6	15.8	0.00e+00	0	39	0	334495744	60	5181
2026-01-09 21:53:43.46	80.29	14.67	-44.6	-47.7	15.6	0.00e+00	0	39	0	336592896	60	5260
2026-01-09 21:53:44.61	80.53	14.68	-44.7	-48.0	15.4	0.00e+00	0	39	0	338690048	60	5421
2026-01-09 21:53:45.47	80.71	14.68	-44.8	-48.1	15.3	0.00e+00	0	39	0	339738624	60	5505
2026-01-09 21:53:46.62	80.95	14.69	-44.7	-47.9	15.4	0.00e+00	0	39	0	341835776	60	5390
2026-01-09 21:53:47.76	81.19	14.69	-44.4	-47.6	15.8	7.00e-07	0	39	0	343932928	60	5160
2026-01-09 21:53:48.81	81.41	14.70	-44.1	-47.2	16.1	0.00e+00	0	40	0	346030080	60	4957
2026-01-09 21:53:49.87	81.64	14.70	-44.1	-47.2	16.1	0.00e+00	0	40	0	348127232	60	4940
2026-01-09 21:53:50.76	81.82	14.70	-44.1	-47.1	16.1	0.00e+00	0	39	0	350224384	60	4926
2026-01-09 21:53:51.90	82.06	14.70	-44.0	-46.9	16.3	0.00e+00	0	39	0	352321536	59	5100
2026-01-09 21:53:52.75	82.24	14.71	-44.1	-47.2	16.1	0.00e+00	0	39	0	353370112	59	5237
2026-01-09 21:53:53.90	82.48	14.71	-44.3	-47.4	15.9	0.00e+00	0	39	0	355467264	59	5349
2026-01-09 21:53:54.76	82.66	14.71	-44.4	-47.4	15.8	0.00e+00	0	39	0	357564416	59	5397
2026-01-09 21:53:55.91	82.91	14.71	-44.3	-47.3	16.0	0.00e+00	0	39	0	359661568	59	5313
2026-01-09 21:53:56.77	83.09	14.71	-44.3	-47.4	16.0	0.00e+00	0	39	0	361758720	59	5362
2026-01-09 21:53:57.92	83.33	14.71	-44.0	-47.0	16.3	0.00e+00	0	39	0	363855872	59	5101
2026-01-09 21:53:58.77	83.51	14.71	-43.9	-46.9	16.4	0.00e+00	0	39	0	364904448	59	5050
2026-01-09 21:53:59.92	83.75	14.71	-43.8	-46.8	16.5	0.00e+00	0	39	0	367001600	59	4991
2026-01-09 21:54:00.78	83.93	14.71	-43.9	-46.9	16.4	0.00e+00	0	40	0	369098752	59	5088
2026-01-09 21:54:01.93	84.17	14.71	-44.0	-47.1	16.2	0.00e+00	0	39	0	371195904	59	5166
2026-01-09 21:54:02.79	84.35	14.71	-44.1	-47.1	16.1	0.00e+00	0	40	0	372244480	59	5205
2026-01-09 21:54:03.93	84.59	14.71	-44.0	-47.0	16.3	0.00e+00	0	39	0	374341632	59	5124
2026-01-09 21:54:04.79	84.77	14.70	-43.9	-46.9	16.3	0.00e+00	0	39	0	376438784	59	5063
2026-01-09 21:54:05.94	85.02	14.70	-43.8	-46.8	16.5	0.00e+00	0	39	0	378535936	59	4985
2026-01-09 21:54:06.80	85.20	14.70	-43.5	-46.3	16.9	0.00e+00	0	39	0	379584512	59	4734
2026-01-09 21:54:07.94	85.44	14.70	-43.4	-46.1	17.2	0.00e+00	0	39	0	382730240	58	4896
2026-01-09 21:54:08.80	85.62	14.69	-43.3	-46.0	17.3	0.00e+00	0	39	0	383778816	58	4823
2026-01-09 21:54:09.95	85.86	14.69	-43.3	-46.0	17.2	0.00e+00	0	39	0	385875968	58	4830
2026-01-09 21:54:10.81	86.04	14.68	-43.4	-46.1	17.1	0.00e+00	0	40	0	387973120	58	4909
2026-01-09 21:54:12.02	86.29	14.68	-43.5	-46.3	17.0	0.00e+00	0	39	0	390070272	58	5005
2026-01-09 21:54:12.88	86.47	14.67	-43.6	-46.4	16.9	0.00e+00	0	40	0	391118848	58	5046
2026-01-09 21:54:14.03	86.72	14.67	-43.8	-46.6	16.7	0.00e+00	0	39	0	393216000	58	5198
2026-01-09 21:54:14.89	86.90	14.66	-43.9	-46.8	16.4	0.00e+00	0	40	0	395313152	58	5309
2026-01-09 21:54:16.03	87.14	14.66	-43.9	-46.8	16.4	0.00e+00	0	40	0	397410304	58	5334
2026-01-09 21:54:16.90	87.32	14.65	-44.0	-46.9	16.4	0.00e+00	0	40	0	399507456	58	5376
2026-01-09 21:54:18.04	87.56	14.64	-44.1	-47.0	16.3	0.00e+00	0	39	0	401604608	58	5431
2026-01-09 21:54:18.90	87.74	14.64	-44.0	-46.9	16.4	0.00e+00	0	39	0	402653184	58	5366
2026-01-09 21:54:20.05	87.98	14.63	-43.9	-46.8	16.4	0.00e+00	0	40	0	404750336	58	5320
2026-01-09 21:54:20.91	88.16	14.62	-44.1	-47.0	16.3	0.00e+00	0	39	0	406847488	58	5435
2026-01-09 21:54:22.06	88.40	14.61	-44.2	-47.1	16.2	0.00e+00	0	39	0	408944640	58	5514
2026-01-09 21:54:22.91	88.58	14.60	-44.1	-47.0	16.3	0.00e+00	0	39	0	409993216	58	5455
2026-01-09 21:54:24.06	88.82	14.59	-44.2	-47.2	16.1	0.00e+00	0	39	0	412090368	59	5238
2026-01-09 21:54:24.92	89.00	14.59	-44.3	-47.4	15.9	0.00e+00	0	39	0	414187520	59	5371
2026-01-09 21:54:26.07	89.24	14.58	-44.3	-47.4	15.8	0.00e+00	0	39	0	416284672	59	5400
2026-01-09 21:54:26.93	89.42	14.57	-44.3	-47.4	15.9	0.00e+00	0	39	0	417333248	59	5350
2026-01-09 21:54:28.08	89.66	14.55	-44.2	-47.3	16.0	0.00e+00	0	40	0	420478976	59	5288
2026-01-09 21:54:28.93	89.83	14.55	-44.2	-47.3	16.0	0.00e+00	0	39	0	421527552	59	5301
2026-01-09 21:54:30.08	90.07	14.53	-44.3	-47.4	15.9	0.00e+00	0	39	0	423624704	59	5362
2026-01-09 21:54:31.02	90.27	14.52	-44.4	-47.5	15.8	0.00e+00	0	40	0	425721856	59	5435
2026-01-09 21:54:32.02	90.48	14.51	-44.5	-47.6	15.7	0.00e+00	0	39	0	427819008	59	5506
2026-01-09 21:54:33.03	90.69	14.50	-44.4	-47.4	15.9	0.00e+00	0	39	0	428867584	59	5379
2026-01-09 21:54:34.03	90.89	14.49	-44.3	-47.3	16.0	0.00e+00	0	40	0	430964736	59	5291
2026-01-09 21:54:35.03	91.10	14.47	-44.0	-46.9	16.3	0.00e+00	0	39	0	433061888	59	5079
2026-01-09 21:54:36.04	91.31	14.46	-43.9	-46.8	16.5	0.00e+00	0	40	0	435159040	59	4993
2026-01-09 21:54:37.04	91.52	14.45	-43.8	-46.6	16.6	0.00e+00	0	40	0	437256192	59	4918
2026-01-09 21:54:38.04	91.72	14.43	-43.8	-46.6	16.6	0.00e+00	0	39	0	438304768	59	4910
2026-01-09 21:54:39.05	91.93	14.42	-43.7	-46.4	16.8	0.00e+00	0	40	0	440401920	59	4803
2026-01-09 21:54:40.05	92.14	14.40	-43.4	-46.1	17.1	0.00e+00	0	39	0	442499072	58	4888
2026-01-09 21:54:41.05	92.35	14.39	-43.4	-46.0	17.2	0.00e+00	0	40	0	444596224	58	4870
2026-01-09 21:54:42.06	92.55	14.37	-43.3	-45.9	17.3	0.00e+00	0	40	0	445644800	58	4771
2026-01-09 21:54:43.06	92.76	14.36	-43.2	-45.7	17.5	0.00e+00	0	39	0	447741952	58	4693
2026-01-09 21:54:44.06	92.97	14.34	-43.2	-45.8	17.4	0.00e+00	0	40	0	449839104	58	4733
2026-01-09 21:54:45.06	93.17	14.33	-43.4	-46.0	17.2	0.00e+00	0	39	0	451936256	58	4846
2026-01-09 21:54:46.34	93.43	14.30	-43.4	-46.1	17.2	0.00e+00	0	39	0	454033408	58	4882
2026-01-09 21:54:47.11	93.59	14.29	-43.6	-46.3	17.0	0.00e+00	0	40	0	456130560	58	5008
2026-01-09 21:54:48.40	93.86	14.27	-43.3	-45.9	17.3	0.00e+00	0	40	0	458227712	58	4773
2026-01-09 21:54:49.17	94.01	14.26	-43.4	-46.0	17.2	0.00e+00	0	39	0	459276288	58	4845
2026-01-09 21:54:50.77	94.34	14.23	-43.3	-45.9	17.3	0.00e+00	0	40	0	462422016	58	4778
2026-01-09 21:54:51.35	94.46	14.22	-43.3	-45.9	17.2	0.00e+00	0	40	0	463470592	58	4803
2026-01-09 21:54:52.95	94.78	14.19	-43.6	-46.3	16.9	0.00e+00	0	39	0	466616320	58	5020
2026-01-09 21:54:53.53	94.90	14.18	-43.6	-46.3	17.0	0.00e+00	0	39	0	467664896	58	4988
2026-01-09 21:54:55.13	95.23	14.15	-43.8	-46.6	16.6	0.00e+00	0	40	0	470810624	58	5169
2026-01-09 21:54:55.71	95.35	14.13	-44.0	-46.8	16.4	0.00e+00	0	40	0	471859200	58	5312
2026-01-09 21:54:57.33	95.67	14.10	-44.0	-46.8	16.4	0.00e+00	0	39	0	475004928	58	5304
2026-01-09 21:54:57.90	95.79	14.09	-44.0	-46.8	16.5	0.00e+00	0	39	0	476053504	58	5311
2026-01-09 21:54:59.48	96.11	14.06	-44.1	-46.9	16.3	0.00e+00	0	39	0	479199232	58	5390
2026-01-09 21:55:00.08	96.23	14.04	-44.0	-46.9	16.4	0.00e+00	0	40	0	480247808	58	5355
2026-01-09 21:55:01.66	96.55	14.01	-44.0	-46.9	16.4	0.00e+00	0	40	0	483393536	58	5345
2026-01-09 21:55:02.64	96.74	13.99	-44.0	-46.8	16.4	0.00e+00	0	40	0	484442112	58	5297
2026-01-09 21:55:03.65	96.95	13.97	-44.0	-46.8	16.4	0.00e+00	0	40	0	486539264	58	5319
2026-01-09 21:55:04.65	97.15	13.94	-43.9	-46.7	16.6	0.00e+00	0	39	0	488636416	58	5223
2026-01-09 21:55:05.65	97.35	13.92	-43.8	-46.5	16.7	0.00e+00	0	39	0	490733568	58	5143
2026-01-09 21:55:06.66	97.55	13.90	-43.6	-46.3	16.9	0.00e+00	0	40	0	491782144	58	5002
2026-01-09 21:55:07.66	97.75	13.88	-43.4	-46.1	17.1	0.00e+00	0	39	0	493879296	58	4899
2026-01-09 21:55:08.66	97.95	13.85	-43.4	-46.0	17.2	0.00e+00	0	40	0	495976448	58	4849
2026-01-09 21:55:09.76	98.17	13.83	-43.3	-45.9	17.3	0.00e+00	0	40	0	498073600	58	4787
2026-01-09 21:55:10.64	98.34	13.80	-43.3	-45.9	17.3	0.00e+00	0	40	0	500170752	58	4808
2026-01-09 21:55:11.78	98.57	13.78	-43.1	-45.7	17.5	0.00e+00	0	39	0	502267904	58	4674
2026-01-09 21:55:12.64	98.74	13.76	-43.1	-45.7	17.5	0.00e+00	0	39	0	503316480	58	4677
2026-01-09 21:55:13.79	98.97	13.73	-43.1	-45.6	17.5	0.00e+00	0	39	0	505413632	57	4914
2026-01-09 21:55:14.65	99.14	13.70	-43.1	-45.6	17.5	0.00e+00	0	40	0	507510784	57	4921
2026-01-09 21:55:16.12	99.43	13.67	-43.3	-45.9	17.3	0.00e+00	0	39	0	509607936	57	5061
2026-01-09 21:55:16.83	99.57	13.65	-43.3	-45.9	17.2	0.00e+00	0	39	0	511705088	57	5095
2026-01-09 21:55:18.13	99.82	13.61	-43.3	-46.0	17.2	0.00e+00	0	39	0	513802240	57	5112
2026-01-09 21:55:18.84	99.96	13.60	-43.3	-45.9	17.2	0.00e+00	0	39	0	514850816	57	5074
2026-01-09 21:55:20.13	100.21	13.56	-43.2	-45.8	17.4	0.00e+00	0	39	0	517996544	57	5024
2026-01-09 21:55:20.85	100.35	13.54	-43.3	-45.9	17.3	0.00e+00	0	39	0	519045120	57	5089
2026-01-09 21:55:22.14	100.60	13.51	-43.2	-45.8	17.3	0.00e+00	0	39	0	521142272	57	5007
2026-01-09 21:55:22.85	100.74	13.49	-43.4	-46.1	17.1	0.00e+00	0	39	0	522190848	57	5193
2026-01-09 21:55:24.14	100.99	13.45	-43.7	-46.5	16.7	0.00e+00	0	39	0	525336576	58	5115
2026-01-09 21:55:24.86	101.13	13.43	-43.7	-46.4	16.8	0.00e+00	0	39	0	526385152	58	5077
2026-01-09 21:55:26.15	101.38	13.39	-43.8	-46.6	16.6	0.00e+00	0	39	0	528482304	58	5178
2026-01-09 21:55:27.20	101.59	13.36	-43.6	-46.4	16.8	0.00e+00	0	40	0	530579456	58	5050
2026-01-09 21:55:28.09	101.76	13.34	-43.6	-46.3	16.9	0.00e+00	0	39	0	532676608	58	5002
2026-01-09 21:55:29.23	101.98	13.30	-43.5	-46.1	17.1	0.00e+00	0	39	0	534773760	58	4926
2026-01-09 21:55:30.09	102.14	13.28	-43.4	-46.0	17.1	0.00e+00	0	40	0	535822336	58	4868
2026-01-09 21:55:31.24	102.36	13.24	-43.5	-46.2	17.0	0.00e+00	0	39	0	537919488	58	4946
2026-01-09 21:55:32.10	102.53	13.22	-43.6	-46.3	16.9	0.00e+00	0	39	0	540016640	58	4989
2026-01-09 21:55:33.34	102.76	13.18	-43.7	-46.4	16.8	0.00e+00	0	39	0	542113792	58	5087
2026-01-09 21:55:34.20	102.93	13.15	-43.7	-46.4	16.8	0.00e+00	0	40	0	544210944	58	5068
2026-01-09 21:55:35.34	103.14	13.12	-43.6	-46.4	16.8	0.00e+00	0	39	0	546308096	58	5056
2026-01-09 21:55:36.20	103.31	13.09	-43.5	-46.2	16.9	0.00e+00	0	39	0	547356672	58	4983
2026-01-09 21:55:37.35	103.52	13.06	-43.4	-46.1	17.1	0.00e+00	0	40	0	549453824	58	4883
2026-01-09 21:55:38.21	103.69	13.03	-43.4	-46.1	17.0	0.00e+00	0	39	0	551550976	58	4916
2026-01-09 21:55:39.35	103.90	12.99	-43.6	-46.3	16.9	0.00e+00	0	39	0	553648128	58	5000
2026-01-09 21:55:40.32	104.08	12.96	-43.6	-46.3	16.9	0.00e+00	0	39	0	555745280	58	5037
2026-01-09 21:55:41.50	104.31	12.92	-43.9	-46.8	16.4	0.00e+00	0	39	0	557842432	58	5292
2026-01-09 21:55:42.36	104.47	12.90	-44.0	-46.9	16.4	0.00e+00	0	40	0	558891008	58	5363
2026-01-09 21:55:43.70	104.72	12.85	-44.1	-47.0	16.2	0.00e+00	0	39	0	562036736	59	5146
2026-01-09 21:55:44.41	104.85	12.83	-44.4	-47.4	15.8	0.00e+00	0	39	0	563085312	59	5379
2026-01-09 21:55:45.70	105.09	12.79	-44.5	-47.6	15.6	0.00e+00	0	39	0	565182464	59	5502
2026-01-09 21:55:46.42	105.22	12.76	-44.4	-47.5	15.7	0.00e+00	0	39	0	567279616	59	5421
2026-01-09 21:55:47.71	105.46	12.72	-44.5	-47.6	15.6	0.00e+00	0	39	0	569376768	59	5502
2026-01-09 21:55:48.43	105.60	12.69	-44.3	-47.4	15.9	0.00e+00	0	40	0	570425344	59	5345
2026-01-09 21:55:49.72	105.83	12.65	-44.2	-47.2	16.0	0.00e+00	0	39	0	573571072	59	5243
2026-01-09 21:55:50.60	105.99	12.62	-44.3	-47.3	15.9	0.00e+00	0	39	0	574619648	59	5325
2026-01-09 21:55:51.74	106.20	12.58	-44.4	-47.3	15.9	0.00e+00	0	39	0	576716800	59	5334
2026-01-09 21:55:52.81	106.40	12.54	-44.5	-47.5	15.7	0.00e+00	0	39	0	578813952	59	5440
2026-01-09 21:55:53.84	106.59	12.51	-44.6	-47.7	15.6	0.00e+00	0	40	0	580911104	60	5237
2026-01-09 21:55:54.84	106.77	12.47	-45.0	-48.3	15.0	0.00e+00	0	39	0	583008256	60	5627
2026-01-09 21:55:55.84	106.95	12.44	-45.0	-48.4	14.9	0.00e+00	0	39	0	584056832	60	5715
2026-01-09 21:55:56.85	107.14	12.40	-45.1	-48.5	14.8	7.00e-07	0	39	0	586153984	61	5418
2026-01-09 21:55:57.85	107.32	12.36	-45.2	-48.6	14.6	0.00e+00	0	40	0	588251136	61	5527
2026-01-09 21:55:58.85	107.50	12.33	-45.0	-48.4	14.9	1.50e-06	0	40	0	590348288	61	5351
2026-01-09 21:55:59.86	107.68	12.29	-45.2	-48.6	14.6	7.00e-07	0	39	0	592445440	61	5518
2026-01-09 21:56:00.86	107.86	12.25	-45.2	-48.6	14.7	0.00e+00	0	40	0	593494016	61	5490
2026-01-09 21:56:01.87	108.04	12.22	-45.3	-48.7	14.6	0.00e+00	0	40	0	595591168	61	5571
2026-01-09 21:56:02.87	108.22	12.18	-45.4	-48.9	14.3	7.00e-07	0	40	0	597688320	61	5700
2026-01-09 21:56:03.87	108.40	12.14	-45.6	-49.2	14.1	1.50e-06	0	39	0	599785472	61	5900
2026-01-09 21:56:04.87	108.57	12.11	-45.6	-49.3	14.0	2.20e-06	0	39	0	601882624	61	5934
2026-01-09 21:56:05.88	108.75	12.07	-45.4	-49.0	14.2	4.50e-06	0	40	0	602931200	61	5765
2026-01-09 21:56:06.88	108.93	12.03	-45.2	-48.7	14.5	0.00e+00	0	40	0	605028352	61	5577
2026-01-09 21:56:07.88	109.11	11.99	-45.2	-48.7	14.6	0.00e+00	0	40	0	607125504	61	5542
2026-01-09 21:56:08.88	109.28	11.95	-44.8	-48.1	15.2	0.00e+00	0	39	0	609222656	61	5162
2026-01-09 21:56:09.88	109.46	11.92	-44.7	-47.9	15.3	0.00e+00	0	40	0	611319808	61	5070
2026-01-09 21:56:10.89	109.64	11.88	-44.6	-47.7	15.5	0.00e+00	0	40	0	612368384	61	4952
2026-01-09 21:56:11.89	109.81	11.84	-44.7	-47.9	15.3	0.00e+00	0	40	0	614465536	61	5061
2026-01-09 21:56:12.89	109.98	11.80	-44.8	-48.0	15.2	0.00e+00	0	39	0	616562688	61	5148
2026-01-09 21:56:13.90	110.16	11.76	-45.0	-48.4	14.8	0.00e+00	0	39	0	618659840	61	5371
2026-01-09 21:56:14.90	110.33	11.72	-45.2	-48.7	14.5	0.00e+00	0	39	0	620756992	61	5582
2026-01-09 21:56:15.97	110.52	11.68	-45.4	-49.1	14.1	1.50e-06	0	39	0	621805568	61	5830
2026-01-09 21:56:16.86	110.67	11.64	-45.6	-49.4	13.8	2.20e-06	0	40	0	623902720	61	6012
2026-01-09 21:56:18.07	110.88	11.59	-45.7	-49.5	13.7	6.80e-06	0	40	0	625999872	62	5787
2026-01-09 21:56:18.92	111.03	11.56	-45.8	-49.7	13.5	9.90e-06	0	40	0	628097024	62	5893
2026-01-09 21:56:20.07	111.22	11.51	-45.8	-49.8	13.4	1.67e-05	0	39	0	630194176	62	5966
2026-01-09 21:56:20.93	111.37	11.48	-45.8	-49.8	13.4	1.06e-05	0	40	0	631242752	62	5977
2026-01-09 21:56:22.08	111.57	11.43	-45.9	-49.9	13.3	2.05e-05	0	39	0	633339904	62	6037
2026-01-09 21:56:22.94	111.71	11.40	-45.8	-49.8	13.4	1.44e-05	0	39	0	635437056	62	5956
2026-01-09 21:56:24.09	111.91	11.35	-45.8	-49.8	13.5	8.30e-06	0	40	0	637534208	62	5955
2026-01-09 21:56:24.95	112.05	11.32	-45.6	-49.4	13.8	7.60e-06	0	40	0	638582784	62	5719
2026-01-09 21:56:26.09	112.24	11.27	-45.5	-49.2	14.0	7.00e-07	0	40	0	641728512	62	5557
2026-01-09 21:56:27.24	112.44	11.22	-45.2	-48.7	14.5	7.00e-07	0	40	0	643825664	62	5267
2026-01-09 21:56:28.10	112.58	11.19	-45.2	-48.7	14.6	0.00e+00	0	40	0	644874240	62	5221
2026-01-09 21:56:29.25	112.77	11.14	-45.2	-48.7	14.5	0.00e+00	0	39	0	646971392	62	5262
2026-01-09 21:56:30.11	112.92	11.10	-45.2	-48.6	14.6	0.00e+00	0	39	0	649068544	62	5193
2026-01-09 21:56:31.26	113.11	11.06	-45.3	-48.8	14.4	7.00e-07	0	40	0	651165696	62	5315
2026-01-09 21:56:32.12	113.25	11.02	-45.3	-48.9	14.3	7.00e-07	0	39	0	652214272	62	5346
2026-01-09 21:56:33.26	113.44	10.97	-45.3	-48.9	14.3	7.00e-07	0	39	0	654311424	62	5358
2026-01-09 21:56:34.12	113.58	10.94	-45.4	-49.0	14.1	0.00e+00	0	39	0	656408576	62	5459
2026-01-09 21:56:35.27	113.77	10.89	-45.2	-48.6	14.5	0.00e+00	0	40	0	658505728	62	5211
2026-01-09 21:56:36.13	113.91	10.85	-45.4	-48.9	14.2	0.00e+00	0	40	0	660602880	62	5385
2026-01-09 21:56:37.44	114.12	10.79	-45.0	-48.4	14.8	7.00e-07	0	40	0	662700032	62	5078
2026-01-09 21:56:38.15	114.24	10.76	-45.1	-48.5	14.7	0.00e+00	0	40	0	663748608	62	5147
2026-01-09 21:56:39.44	114.45	10.71	-45.0	-48.4	14.8	0.00e+00	0	40	0	665845760	62	5080
2026-01-09 21:56:40.16	114.56	10.68	-44.9	-48.3	14.8	0.00e+00	0	40	0	667942912	61	5314
2026-01-09 21:56:41.45	114.77	10.62	-45.1	-48.6	14.5	0.00e+00	0	40	0	670040064	61	5488
2026-01-09 21:56:42.17	114.89	10.59	-45.2	-48.7	14.4	0.00e+00	0	39	0	671088640	61	5542
2026-01-09 21:56:43.46	115.10	10.54	-45.4	-49.1	14.1	1.50e-06	0	39	0	674234368	61	5789
2026-01-09 21:56:44.17	115.21	10.50	-45.5	-49.2	14.0	7.00e-07	0	40	0	675282944	61	5901
2026-01-09 21:56:45.46	115.41	10.45	-45.5	-49.3	13.8	3.00e-06	0	40	0	677380096	61	5962
2026-01-09 21:56:46.18	115.53	10.42	-45.8	-49.7	13.4	1.22e-05	0	40	0	678428672	62	5913
2026-01-09 21:56:47.47	115.73	10.36	-45.6	-49.4	13.7	8.30e-06	0	40	0	681574400	62	5707
2026-01-09 21:56:48.18	115.85	10.33	-45.8	-49.9	13.2	9.10e-06	0	39	0	682622976	62	6025
2026-01-09 21:56:49.49	116.05	10.27	-45.5	-49.4	13.8	8.30e-06	0	39	0	684720128	62	5670
2026-01-09 21:56:50.20	116.16	10.24	-45.4	-49.1	14.0	3.80e-06	0	39	0	686817280	62	5510
2026-01-09 21:56:51.58	116.38	10.18	-45.3	-49.0	14.1	6.10e-06	0	40	0	688914432	62	5452
2026-01-09 21:56:52.29	116.49	10.15	-45.3	-48.9	14.2	1.50e-06	0	39	0	689963008	62	5387
2026-01-09 21:56:53.58	116.69	10.09	-45.4	-49.1	14.0	3.00e-06	0	39	0	693108736	62	5501
2026-01-09 21:56:54.30	116.80	10.06	-45.3	-48.9	14.1	1.50e-06	0	39	0	694157312	62	5390
2026-01-09 21:56:55.70	117.02	10.00	-45.2	-48.8	14.3	0.00e+00	0	40	0	696254464	62	5333
2026-01-09 21:56:56.69	117.17	9.95	-45.1	-48.6	14.4	2.20e-06	0	39	0	698351616	62	5216
2026-01-09 21:56:58.01	117.38	9.89	-45.1	-48.8	14.3	1.50e-06	0	40	0	701497344	62	5289
2026-01-09 21:56:58.73	117.49	9.86	-45.0	-48.6	14.5	7.00e-07	0	40	0	702545920	62	5172
2026-01-09 21:57:00.02	117.68	9.80	-44.8	-48.3	14.7	0.00e+00	0	39	0	704643072	61	5323
2026-01-09 21:57:00.74	117.79	9.77	-44.9	-48.4	14.6	0.00e+00	0	39	0	706740224	61	5382
2026-01-09 21:57:02.03	117.99	9.71	-44.8	-48.2	14.9	0.00e+00	0	39	0	708837376	61	5239
2026-01-09 21:57:02.74	118.10	9.68	-44.9	-48.4	14.7	0.00e+00	0	40	0	709885952	61	5345
2026-01-09 21:57:04.03	118.29	9.62	-44.8	-48.2	14.9	0.00e+00	0	39	0	711983104	61	5234
2026-01-09 21:57:04.75	118.40	9.59	-44.9	-48.3	14.7	0.00e+00	0	39	0	714080256	61	5329
2026-01-09 21:57:06.09	118.60	9.52	-44.8	-48.2	14.8	0.00e+00	0	40	0	716177408	61	5271
2026-01-09 21:57:06.80	118.71	9.49	-44.9	-48.4	14.6	0.00e+00	0	39	0	717225984	61	5352
2026-01-09 21:57:08.17	118.91	9.43	-44.9	-48.3	14.7	7.00e-07	0	39	0	720371712	61	5322
2026-01-09 21:57:08.89	119.02	9.40	-44.9	-48.3	14.7	0.00e+00	0	40	0	721420288	61	5309
2026-01-09 21:57:10.24	119.22	9.33	-44.7	-48.1	14.9	0.00e+00	0	39	0	723517440	61	5177
2026-01-09 21:57:10.96	119.33	9.30	-44.9	-48.3	14.7	0.00e+00	0	40	0	725614592	61	5281
2026-01-09 21:57:12.25	119.52	9.24	-44.6	-47.8	15.1	0.00e+00	0	40	0	727711744	61	5030
2026-01-09 21:57:12.97	119.62	9.21	-44.7	-48.0	15.0	0.00e+00	0	40	0	728760320	61	5130
2026-01-09 21:57:14.25	119.81	9.15	-44.7	-48.0	15.0	0.00e+00	0	40	0	731906048	61	5142
2026-01-09 21:57:14.97	119.91	9.11	-44.6	-47.9	15.0	0.00e+00	0	39	0	732954624	61	5093
2026-01-09 21:57:16.26	120.10	9.05	-44.7	-48.1	14.9	0.00e+00	0	39	0	735051776	61	5169
2026-01-09 21:57:16.98	120.21	9.02	-44.8	-48.3	14.7	0.00e+00	0	39	0	737148928	61	5294
2026-01-09 21:57:18.27	120.39	8.96	-49.3	-62.8	3.8	6.98e-01	0	39	104	738197504	69	17869
2026-01-09 21:57:19.02	120.50	8.93	-49.5	-64.6	3.8	1.49e+00	0	40	104	738197504	69	21935
2026-01-09 21:57:20.31	120.69	8.87	-49.7	-64.8	3.8	1.49e+00	0	40	104	738197504	70	21162
2026-01-09 21:57:21.09	120.80	8.83	-49.6	-64.9	3.8	1.49e+00	0	39	104	738197504	70	21354
2026-01-09 21:57:22.25	120.96	8.77	-49.9	-64.9	3.8	1.49e+00	0	40	104	738197504	70	21435
2026-01-09 21:57:23.31	121.12	8.72	-49.8	-65.0	3.8	1.49e+00	0	40	104	738197504	70	21591
2026-01-09 21:57:24.36	121.26	8.67	-49.9	-65.0	3.8	1.49e+00	0	40	104	738197504	70	21695
2026-01-09 21:57:25.41	121.41	8.63	-49.9	-65.1	3.8	1.49e+00	0	40	104	738197504	70	21803
2026-01-09 21:57:26.45	121.56	8.58	-50.0	-65.1	3.8	1.49e+00	0	40	104	738197504	70	21870
2026-01-09 21:57:27.44	121.70	8.53	-50.0	-65.1	3.8	1.49e+00	0	40	104	738197504	70	21771
2026-01-09 21:57:28.45	121.84	8.48	-49.9	-65.1	3.8	1.49e+00	0	40	104	738197504	70	21851
2026-01-09 21:57:29.45	121.98	8.43	-49.7	-65.1	3.8	1.49e+00	0	40	104	738197504	70	21870
2026-01-09 21:57:30.45	122.12	8.39	-49.7	-65.1	3.8	1.49e+00	0	39	104	738197504	70	21925
2026-01-09 21:57:31.46	122.26	8.34	-49.8	-65.1	3.8	1.49e+00	0	40	104	738197504	70	21919
2026-01-09 21:57:32.46	122.40	8.29	-49.7	-65.1	3.8	1.49e+00	0	40	104	738197504	70	21913
2026-01-09 21:57:33.47	122.54	8.24	-49.7	-65.1	3.8	1.49e+00	0	40	104	738197504	70	21978
2026-01-09 21:57:34.47	122.67	8.20	-49.6	-65.1	3.8	1.49e+00	0	40	104	738197504	70	21983
2026-01-09 21:57:35.48	122.81	8.15	-49.6	-65.1	3.8	1.49e+00	0	40	104	738197504	70	21901
2026-01-09 21:57:36.48	122.95	8.10	-49.6	-65.1	3.8	1.49e+00	0	40	104	738197504	70	21941
2026-01-09 21:57:37.48	123.08	8.05	-49.7	-65.1	3.8	1.49e+00	0	40	104	738197504	70	21969
2026-01-09 21:57:38.49	123.22	8.00	-49.9	-65.1	3.8	1.49e+00	0	39	104	738197504	70	21967
2026-01-09 21:57:39.51	123.36	7.95	-49.9	-65.1	3.8	1.49e+00	0	40	104	738197504	70	21922
2026-01-09 21:57:40.54	123.50	7.90	-49.9	-65.1	3.8	1.49e+00	0	40	104	738197504	70	21919
2026-01-09 21:57:41.54	123.63	7.86	-49.9	-65.1	3.8	1.49e+00	0	40	104	738197504	70	21982
2026-01-09 21:57:42.55	123.77	7.81	-49.9	-65.1	3.8	1.49e+00	0	39	104	738197504	70	21972
2026-01-09 21:57:43.55	123.90	7.76	-49.9	-65.1	3.8	1.49e+00	0	40	104	738197504	70	21920
2026-01-09 21:57:44.55	124.03	7.71	-49.9	-65.1	3.8	1.49e+00	0	40	104	738197504	70	21896
2026-01-09 21:57:45.56	124.17	7.66	-49.9	-65.1	3.8	1.49e+00	0	39	104	738197504	70	21985
2026-01-09 21:57:46.56	124.30	7.62	-49.9	-65.1	3.8	1.49e+00	0	40	104	738197504	70	21887
2026-01-09 21:57:47.56	124.43	7.57	-49.9	-65.1	3.8	1.49e+00	0	40	104	738197504	70	21845
2026-01-09 21:57:48.57	124.56	7.52	-49.9	-65.1	3.8	1.49e+00	0	40	104	738197504	70	21897
2026-01-09 21:57:49.57	124.70	7.47	-49.9	-65.1	3.8	1.49e+00	0	40	104	738197504	70	21841
2026-01-09 21:57:50.58	124.83	7.42	-49.9	-65.1	3.8	1.49e+00	0	40	104	738197504	70	21839
2026-01-09 21:57:51.58	124.96	7.37	-49.9	-65.1	3.8	1.49e+00	0	39	104	738197504	70	21909
2026-01-09 21:57:52.59	125.09	7.32	-49.9	-65.1	3.8	1.49e+00	0	40	104	738197504	70	21853
2026-01-09 21:57:53.59	125.22	7.28	-49.8	-65.1	3.8	1.49e+00	0	40	104	738197504	70	21835
2026-01-09 21:57:54.60	125.35	7.23	-49.8	-65.1	3.8	1.49e+00	0	39	104	738197504	70	21845
2026-01-09 21:57:55.60	125.48	7.18	-49.9	-65.1	3.8	1.49e+00	0	39	104	738197504	70	21840
2026-01-09 21:57:56.61	125.61	7.13	-49.9	-65.1	3.8	1.49e+00	0	40	104	738197504	70	21836
2026-01-09 21:57:57.61	125.73	7.08	-49.8	-65.1	3.8	1.49e+00	0	39	104	738197504	70	21879
2026-01-09 21:57:58.61	125.86	7.03	-49.8	-65.1	3.8	1.49e+00	0	39	104	738197504	70	21834
2026-01-09 21:57:59.62	125.99	6.98	-49.9	-65.1	3.8	1.49e+00	0	40	104	738197504	70	21800
2026-01-09 21:58:00.62	126.11	6.93	-49.8	-65.1	3.8	1.49e+00	0	40	104	738197504	70	21823
2026-01-09 21:58:01.63	126.24	6.88	-49.8	-65.1	3.8	1.49e+00	0	39	104	738197504	70	21903
2026-01-09 21:58:02.63	126.37	6.84	-49.8	-65.1	3.8	1.49e+00	0	40	104	738197504	70	21766
2026-01-09 21:58:03.64	126.49	6.79	-49.8	-65.1	3.8	1.49e+00	0	39	104	738197504	70	21853
2026-01-09 21:58:04.64	126.62	6.74	-49.8	-65.1	3.8	1.49e+00	0	40	104	738197504	70	21859
2026-01-09 21:58:05.64	126.74	6.69	-49.8	-65.1	3.8	1.49e+00	0	40	104	738197504	70	21911
2026-01-09 21:58:06.65	126.87	6.64	-49.8	-65.1	3.8	1.49e+00	0	39	104	738197504	70	21885
2026-01-09 21:58:07.65	126.99	6.59	-49.9	-65.1	3.8	1.49e+00	0	39	104	738197504	70	21844
2026-01-09 21:58:08.66	127.12	6.54	-49.8	-65.1	3.8	1.49e+00	0	39	104	738197504	70	21910
2026-01-09 21:58:09.66	127.24	6.49	-49.9	-65.1	3.8	1.49e+00	0	39	104	738197504	70	21830
2026-01-09 21:58:10.67	127.36	6.44	-49.8	-65.1	3.8	1.49e+00	0	39	104	738197504	70	21844
2026-01-09 21:58:11.67	127.48	6.39	-49.8	-65.1	3.8	1.49e+00	0	40	104	738197504	70	21893
2026-01-09 21:58:12.68	127.61	6.35	-49.8	-65.1	3.8	1.49e+00	0	39	104	738197504	70	21851
2026-01-09 21:58:13.68	127.73	6.30	-49.8	-65.1	3.8	1.49e+00	0	40	104	738197504	70	21846
2026-01-09 21:58:14.69	127.85	6.25	-49.9	-65.1	3.8	1.49e+00	0	40	104	738197504	70	21856
2026-01-09 21:58:15.69	127.97	6.20	-49.8	-65.1	3.8	1.49e+00	0	40	104	738197504	70	21892
2026-01-09 21:58:16.70	128.09	6.15	-49.8	-65.1	3.8	1.49e+00	0	39	104	738197504	70	21797
2026-01-09 21:58:17.70	128.21	6.10	-49.9	-65.1	3.8	1.49e+00	0	40	104	738197504	70	21813
2026-01-09 21:58:18.70	128.33	6.05	-49.8	-65.1	3.8	1.49e+00	0	40	104	738197504	70	21802
2026-01-09 21:58:19.71	128.45	6.00	-49.9	-65.1	3.8	1.49e+00	0	40	104	738197504	70	21872
2026-01-09 21:58:20.71	128.57	5.95	-49.9	-65.1	3.8	1.49e+00	0	40	104	738197504	70	21826
2026-01-09 21:58:21.72	128.69	5.90	-49.8	-65.1	3.8	1.49e+00	0	40	104	738197504	70	21857
2026-01-09 21:58:22.72	128.80	5.85	-49.9	-65.1	3.8	1.49e+00	0	40	104	738197504	70	21830
2026-01-09 21:58:23.73	128.92	5.80	-49.9	-65.1	3.8	1.49e+00	0	40	104	738197504	70	21910
2026-01-09 21:58:24.73	129.04	5.75	-49.9	-65.1	3.8	1.49e+00	0	40	104	738197504	70	21805
2026-01-09 21:58:25.73	129.16	5.71	-49.9	-65.1	3.8	1.49e+00	0	40	104	738197504	70	21898
2026-01-09 21:58:26.74	129.27	5.66	-49.8	-65.1	3.8	1.49e+00	0	40	104	738197504	70	21891
2026-01-09 21:58:27.75	129.39	5.61	-49.9	-65.1	3.8	1.49e+00	0	40	104	738197504	70	21875
2026-01-09 21:58:28.75	129.51	5.56	-49.9	-65.1	3.8	1.49e+00	0	40	104	738197504	70	21825
2026-01-09 21:58:29.75	129.62	5.51	-49.9	-65.1	3.8	1.49e+00	0	40	104	738197504	70	21835
2026-01-09 21:58:30.76	129.74	5.46	-49.9	-65.1	3.8	1.49e+00	0	40	104	738197504	70	21915
2026-01-09 21:58:31.76	129.85	5.41	-49.9	-65.1	3.8	1.49e+00	0	40	104	738197504	70	21917
2026-01-09 21:58:32.77	129.97	5.36	-49.9	-65.1	3.8	1.49e+00	0	39	104	738197504	70	21947
2026-01-09 21:58:33.77	130.08	5.31	-49.9	-65.1	3.8	1.49e+00	0	39	104	738197504	70	21891
2026-01-09 21:58:34.77	130.19	5.26	-49.9	-65.1	3.8	1.49e+00	0	40	104	738197504	70	21941
2026-01-09 21:58:35.78	130.31	5.21	-49.9	-65.1	3.8	1.49e+00	0	40	104	738197504	70	21934
2026-01-09 21:58:36.78	130.42	5.16	-49.9	-65.1	3.8	1.49e+00	0	40	104	738197504	70	21896
2026-01-09 21:58:37.79	130.53	5.11	-49.9	-65.1	3.8	1.49e+00	0	40	104	738197504	70	21891
2026-01-09 21:58:38.79	130.64	5.07	-49.9	-65.1	3.8	1.49e+00	0	40	104	738197504	70	21973
2026-01-09 21:58:39.80	130.76	5.02	-49.9	-65.2	3.8	1.49e+00	0	39	104	738197504	70	22016
2026-01-09 21:58:40.80	130.87	4.97	-49.9	-65.1	3.8	1.49e+00	0	40	104	738197504	70	21892

#Closed at: 2026-01-09 21:58:41
#Recorded file [738 MB]: D:/Data/31040_260110_004916.dat