passes_logs/2026/01/09/T1/T1__20260109_000816_NOAA_20_JPSS-1_rec.log

#Pass ID: 20260109_000816_NOAA 20 (JPSS-1)
#Satellite: NOAA 20 (JPSS-1)
#Configuration: NOAA 20
#almurnet v.1.7.20251203
#Start time: 2026-01-09 00:08:15

#Version: 2.0.20230620
#Station: T1
#Location: 37.570604 lon 55.790049 lat
#TLE: 1 43013U 17073A   26008.42245989  .00000120  00000+0  77990-4 0  9996
#TLE: 2 43013  98.7631 309.4315 0001737  48.7960 311.3365 14.19534455421802

#Time	Az	El	Level	Level2	SNR	BER	BlckErr	Temp	State	Recorded	gain1	gain2
2026-01-09 00:08:15.67	13.52	4.97	-47.6	-64.1	3.8	1.49e+00	0	41	0	0	66	24611
2026-01-09 00:08:16.67	13.50	5.04	-47.7	-64.0	3.8	1.49e+00	0	41	104	0	66	24366
2026-01-09 00:08:17.68	13.48	5.11	-47.7	-64.0	3.8	1.49e+00	0	41	104	0	66	24326
2026-01-09 00:08:18.68	13.46	5.18	-47.7	-63.9	3.8	1.49e+00	0	41	104	0	66	24120
2026-01-09 00:08:19.69	13.44	5.26	-47.7	-63.9	3.8	1.49e+00	0	42	104	0	66	24101
2026-01-09 00:08:20.69	13.42	5.33	-47.7	-63.9	3.8	1.49e+00	0	41	104	0	66	23973
2026-01-09 00:08:21.70	13.40	5.40	-47.7	-63.9	3.8	1.49e+00	0	41	104	0	66	23868
2026-01-09 00:08:22.70	13.38	5.47	-47.7	-63.8	3.8	1.49e+00	0	41	104	0	66	23687
2026-01-09 00:08:23.71	13.36	5.54	-47.7	-63.8	3.8	1.49e+00	0	42	104	0	66	23585
2026-01-09 00:08:24.71	13.34	5.62	-47.7	-63.7	3.8	1.49e+00	0	42	104	0	66	23364
2026-01-09 00:08:25.71	13.32	5.69	-47.6	-63.7	3.8	1.49e+00	0	41	104	0	66	23374
2026-01-09 00:08:26.72	13.30	5.76	-47.6	-63.6	3.8	1.49e+00	0	42	104	0	66	23219
2026-01-09 00:08:27.72	13.28	5.83	-47.6	-63.6	3.8	1.49e+00	0	42	104	0	66	23054
2026-01-09 00:08:28.73	13.25	5.91	-47.7	-63.5	3.8	1.49e+00	0	42	104	0	66	23025
2026-01-09 00:08:29.73	13.23	5.98	-47.7	-63.5	3.8	1.49e+00	0	42	104	0	66	22889
2026-01-09 00:08:30.74	13.21	6.05	-47.7	-63.3	3.8	1.49e+00	0	42	104	0	66	22502
2026-01-09 00:08:31.74	13.19	6.13	-47.6	-63.2	3.8	1.49e+00	0	42	104	0	66	22107
2026-01-09 00:08:32.74	13.17	6.20	-47.7	-63.1	3.8	1.49e+00	0	42	104	0	66	21770
2026-01-09 00:08:33.75	13.14	6.28	-47.6	-62.9	3.8	1.49e+00	0	42	104	0	66	21389
2026-01-09 00:08:34.75	13.12	6.35	-47.6	-62.8	3.8	1.49e+00	0	42	104	0	66	21196
2026-01-09 00:08:35.76	13.10	6.42	-47.7	-62.6	3.8	1.49e+00	0	42	104	0	66	20669
2026-01-09 00:08:36.76	13.08	6.50	-47.7	-62.5	3.8	1.49e+00	0	42	104	0	66	20436
2026-01-09 00:08:37.76	13.05	6.57	-47.6	-62.3	3.9	1.49e+00	0	42	104	0	66	19979
2026-01-09 00:08:38.77	13.03	6.65	-47.6	-62.3	3.8	1.49e+00	0	42	104	0	66	19951
2026-01-09 00:08:39.77	13.01	6.72	-47.6	-62.4	3.8	1.49e+00	0	42	104	0	66	20228
2026-01-09 00:08:40.78	12.98	6.80	-47.6	-62.7	3.8	1.49e+00	0	42	104	0	66	20837
2026-01-09 00:08:41.78	12.96	6.88	-47.6	-63.0	3.8	1.49e+00	0	42	104	0	66	21552
2026-01-09 00:08:42.79	12.94	6.95	-47.6	-63.2	3.8	1.49e+00	0	42	104	0	66	22168
2026-01-09 00:08:43.79	12.91	7.03	-47.6	-63.5	3.8	1.49e+00	0	42	104	0	66	22863
2026-01-09 00:08:44.79	12.89	7.10	-47.7	-63.5	3.8	1.49e+00	0	42	104	0	66	22859
2026-01-09 00:08:45.80	12.87	7.18	-47.6	-63.2	3.8	1.49e+00	0	42	104	0	66	22207
2026-01-09 00:08:46.80	12.84	7.26	-47.6	-62.6	3.8	1.49e+00	0	42	104	0	66	20566
2026-01-09 00:08:47.81	12.82	7.34	-47.5	-61.5	3.9	1.49e+00	0	42	104	0	66	18267
2026-01-09 00:08:48.81	12.79	7.41	-47.5	-60.8	4.1	1.46e+00	0	42	0	0	66	16779
2026-01-09 00:08:49.82	12.77	7.49	-47.5	-59.9	4.3	1.35e+00	0	42	0	0	66	15153
2026-01-09 00:08:50.82	12.74	7.57	-47.4	-59.3	4.6	8.73e-01	0	43	0	1048576	66	14073
2026-01-09 00:08:51.83	12.72	7.65	-47.3	-57.9	5.3	7.55e-01	0	43	0	3145728	66	12005
2026-01-09 00:08:52.83	12.70	7.72	-47.1	-56.6	6.2	3.30e-01	0	43	0	5242880	66	10373
2026-01-09 00:08:53.84	12.67	7.80	-46.9	-55.6	7.2	2.05e-01	0	43	0	7340032	65	9757
2026-01-09 00:08:54.84	12.64	7.88	-46.8	-55.3	7.4	1.22e-01	0	43	0	9437184	65	9392
2026-01-09 00:08:55.84	12.62	7.96	-46.6	-54.4	8.3	7.50e-02	0	42	0	10485760	65	8516
2026-01-09 00:08:56.85	12.59	8.04	-46.4	-53.7	8.9	3.37e-02	0	43	0	12582912	64	8321
2026-01-09 00:08:57.85	12.57	8.12	-46.3	-53.2	9.5	1.99e-02	0	43	0	14680064	64	7830
2026-01-09 00:08:58.86	12.54	8.20	-46.2	-52.7	10.0	1.05e-02	0	43	0	16777216	64	7450
2026-01-09 00:08:59.86	12.52	8.28	-46.0	-52.1	10.8	5.40e-03	0	43	0	18874368	63	7316
2026-01-09 00:09:00.87	12.49	8.36	-45.9	-51.8	10.9	2.98e-03	0	43	0	19922944	63	7057
2026-01-09 00:09:01.87	12.46	8.44	-45.9	-51.8	11.0	3.19e-03	0	43	0	22020096	63	7050
2026-01-09 00:09:02.88	12.44	8.52	-45.8	-51.6	11.2	1.70e-03	0	42	0	24117248	63	6903
2026-01-09 00:09:03.88	12.41	8.60	-45.8	-51.6	11.3	9.73e-04	0	43	0	26214400	63	6925
2026-01-09 00:09:04.88	12.38	8.68	-45.9	-51.7	11.2	1.06e-03	0	43	0	28311552	63	6965
2026-01-09 00:09:05.89	12.36	8.77	-46.0	-52.0	10.9	1.66e-03	0	43	0	29360128	63	7229
2026-01-09 00:09:06.89	12.33	8.85	-46.2	-52.8	10.1	3.55e-03	0	43	0	31457280	63	7910
2026-01-09 00:09:07.90	12.30	8.93	-46.2	-52.8	9.9	7.54e-03	0	43	0	33554432	63	7967
2026-01-09 00:09:08.90	12.27	9.01	-46.1	-52.5	10.0	1.44e-02	0	43	0	35651584	64	7218
2026-01-09 00:09:09.91	12.25	9.09	-46.8	-54.8	8.1	4.40e-02	0	43	0	37748736	64	9445
2026-01-09 00:09:10.91	12.22	9.18	-45.5	-51.0	12.1	1.47e-02	0	43	0	38797312	62	6814
2026-01-09 00:09:11.91	12.19	9.26	-47.3	-58.6	5.2	1.33e-02	0	43	0	40894464	65	13857
2026-01-09 00:09:12.92	12.16	9.34	-47.4	-56.5	6.7	8.19e-01	0	43	0	42991616	66	10271
2026-01-09 00:09:13.92	12.13	9.43	-44.3	-48.5	14.7	1.09e-02	0	43	0	45088768	59	6080
2026-01-09 00:09:14.94	12.10	9.51	-44.0	-47.8	15.1	0.00e+00	0	43	0	47185920	59	5634
2026-01-09 00:09:15.97	12.07	9.60	-43.9	-47.7	15.3	0.00e+00	0	43	0	48234496	59	5545
2026-01-09 00:09:16.97	12.04	9.68	-43.7	-47.4	15.6	7.00e-07	0	43	0	50331648	59	5366
2026-01-09 00:09:17.97	12.02	9.77	-43.8	-47.4	15.4	0.00e+00	0	43	0	52428800	59	5393
2026-01-09 00:09:18.97	11.99	9.85	-43.7	-47.4	15.5	0.00e+00	0	43	0	54525952	59	5373
2026-01-09 00:09:19.97	11.96	9.94	-43.5	-47.0	16.0	0.00e+00	0	43	0	56623104	58	5416
2026-01-09 00:09:20.98	11.93	10.02	-43.5	-47.0	16.0	0.00e+00	0	43	0	57671680	58	5441
2026-01-09 00:09:21.98	11.90	10.11	-43.5	-46.9	16.0	0.00e+00	0	43	0	59768832	58	5396
2026-01-09 00:09:22.98	11.87	10.19	-43.3	-46.8	16.2	0.00e+00	0	43	0	61865984	58	5313
2026-01-09 00:09:23.98	11.84	10.28	-43.3	-46.8	16.2	0.00e+00	0	43	0	63963136	58	5330
2026-01-09 00:09:24.98	11.81	10.37	-43.4	-47.0	16.0	0.00e+00	0	43	0	66060288	58	5432
2026-01-09 00:09:25.99	11.77	10.45	-43.2	-46.7	16.3	0.00e+00	0	43	0	67108864	58	5270
2026-01-09 00:09:26.99	11.74	10.54	-43.2	-46.6	16.4	0.00e+00	0	43	0	69206016	58	5166
2026-01-09 00:09:27.99	11.71	10.63	-43.1	-46.4	16.6	0.00e+00	0	43	0	71303168	58	5093
2026-01-09 00:09:29.00	11.68	10.72	-43.1	-46.5	16.5	0.00e+00	0	43	0	73400320	58	5145
2026-01-09 00:09:30.00	11.65	10.81	-43.1	-46.5	16.6	0.00e+00	0	43	0	75497472	58	5108
2026-01-09 00:09:31.01	11.62	10.89	-43.0	-46.3	16.7	0.00e+00	0	43	0	76546048	58	4998
2026-01-09 00:09:32.01	11.58	10.98	-43.1	-46.4	16.7	0.00e+00	0	43	0	78643200	57	5348
2026-01-09 00:09:33.01	11.55	11.07	-43.0	-46.3	16.7	0.00e+00	0	43	0	80740352	57	5317
2026-01-09 00:09:34.01	11.52	11.16	-43.1	-46.5	16.5	0.00e+00	0	43	0	82837504	57	5404
2026-01-09 00:09:35.02	11.49	11.25	-43.0	-46.2	16.8	0.00e+00	0	43	0	83886080	57	5252
2026-01-09 00:09:36.02	11.45	11.34	-43.0	-46.2	16.8	0.00e+00	0	43	0	85983232	57	5264
2026-01-09 00:09:37.03	11.42	11.43	-42.9	-46.1	16.9	0.00e+00	0	43	0	88080384	57	5203
2026-01-09 00:09:38.02	11.39	11.52	-43.0	-46.2	16.9	0.00e+00	0	43	0	90177536	57	5221
2026-01-09 00:09:39.03	11.35	11.61	-42.9	-46.0	17.0	0.00e+00	0	43	0	92274688	57	5142
2026-01-09 00:09:40.03	11.32	11.70	-42.8	-46.0	17.1	0.00e+00	0	43	0	93323264	57	5107
2026-01-09 00:09:41.03	11.29	11.80	-42.8	-46.0	17.1	0.00e+00	0	43	0	95420416	57	5106
2026-01-09 00:09:42.04	11.25	11.89	-42.9	-46.1	17.0	0.00e+00	0	43	0	97517568	57	5180
2026-01-09 00:09:43.04	11.22	11.98	-42.8	-45.9	17.2	0.00e+00	0	43	0	99614720	57	5051
2026-01-09 00:09:44.04	11.18	12.07	-42.8	-45.9	17.2	0.00e+00	0	43	0	101711872	57	5052
2026-01-09 00:09:45.04	11.15	12.17	-42.7	-45.8	17.2	0.00e+00	0	43	0	102760448	57	5030
2026-01-09 00:09:46.05	11.11	12.26	-42.7	-45.8	17.2	0.00e+00	0	43	0	104857600	57	5038
2026-01-09 00:09:47.05	11.07	12.35	-42.8	-45.9	17.2	0.00e+00	0	43	0	106954752	57	5056
2026-01-09 00:09:48.05	11.04	12.45	-42.6	-45.6	17.5	0.00e+00	0	43	0	109051904	57	4895
2026-01-09 00:09:49.05	11.00	12.54	-42.6	-45.6	17.5	0.00e+00	0	43	0	111149056	57	4886
2026-01-09 00:09:50.06	10.97	12.64	-42.6	-45.7	17.4	0.00e+00	0	43	0	112197632	57	4945
2026-01-09 00:09:51.44	10.92	12.77	-42.6	-45.6	17.5	0.00e+00	0	44	0	115343360	57	4892
2026-01-09 00:09:52.17	10.89	12.84	-42.5	-45.5	17.6	0.00e+00	0	43	0	116391936	57	4836
2026-01-09 00:09:53.46	10.84	12.96	-42.5	-45.5	17.5	0.00e+00	0	43	0	118489088	56	5145
2026-01-09 00:09:54.18	10.81	13.03	-42.4	-45.4	17.7	0.00e+00	0	43	0	120586240	56	5084
2026-01-09 00:09:55.47	10.76	13.15	-42.6	-45.5	17.6	0.00e+00	0	43	0	122683392	56	5157
2026-01-09 00:09:56.19	10.74	13.22	-42.6	-45.5	17.6	0.00e+00	0	43	0	123731968	56	5130
2026-01-09 00:09:57.48	10.69	13.35	-42.4	-45.4	17.7	0.00e+00	0	43	0	126877696	56	5082
2026-01-09 00:09:58.19	10.66	13.42	-42.3	-45.3	17.8	0.00e+00	0	43	0	127926272	56	5004
2026-01-09 00:09:59.49	10.61	13.55	-42.4	-45.3	17.8	0.00e+00	0	43	0	130023424	56	5008
2026-01-09 00:10:00.20	10.58	13.62	-42.4	-45.3	17.8	0.00e+00	0	43	0	132120576	56	5036
2026-01-09 00:10:01.57	10.53	13.75	-42.4	-45.2	17.9	0.00e+00	0	43	0	134217728	56	4979
2026-01-09 00:10:02.29	10.50	13.82	-42.3	-45.2	17.9	0.00e+00	0	43	0	135266304	56	4961
2026-01-09 00:10:03.58	10.45	13.95	-42.3	-45.2	17.9	0.00e+00	0	43	0	138412032	56	4959
2026-01-09 00:10:04.29	10.42	14.02	-42.3	-45.3	17.9	0.00e+00	0	43	0	139460608	56	5000
2026-01-09 00:10:05.58	10.37	14.15	-42.2	-45.1	18.0	0.00e+00	0	44	0	141557760	56	4906
2026-01-09 00:10:06.30	10.34	14.22	-42.2	-45.0	18.1	0.00e+00	0	43	0	142606336	56	4843
2026-01-09 00:10:07.59	10.28	14.35	-42.2	-45.0	18.1	0.00e+00	0	43	0	145752064	56	4852
2026-01-09 00:10:08.31	10.25	14.43	-42.1	-45.0	18.1	0.00e+00	0	43	0	146800640	56	4838
2026-01-09 00:10:09.59	10.20	14.56	-42.2	-45.1	18.1	0.00e+00	0	44	0	148897792	56	4889
2026-01-09 00:10:10.31	10.17	14.63	-42.1	-45.0	18.1	0.00e+00	0	43	0	150994944	56	4849
2026-01-09 00:10:11.60	10.12	14.76	-42.1	-44.9	18.2	0.00e+00	0	43	0	153092096	56	4811
2026-01-09 00:10:12.32	10.08	14.84	-42.1	-44.9	18.2	0.00e+00	0	43	0	154140672	56	4814
2026-01-09 00:10:13.60	10.03	14.97	-42.2	-45.1	18.0	0.00e+00	0	43	0	156237824	56	4904
2026-01-09 00:10:14.32	10.00	15.05	-42.2	-45.1	18.0	0.00e+00	0	43	0	158334976	56	4901
2026-01-09 00:10:15.61	9.94	15.18	-42.1	-44.9	18.2	0.00e+00	0	43	0	160432128	56	4810
2026-01-09 00:10:16.56	9.90	15.28	-42.2	-45.1	18.1	0.00e+00	0	43	0	162529280	56	4887
2026-01-09 00:10:17.57	9.85	15.39	-42.1	-44.9	18.2	0.00e+00	0	43	0	164626432	56	4803
2026-01-09 00:10:18.57	9.81	15.49	-42.2	-45.0	18.2	0.00e+00	0	43	0	165675008	56	4841
2026-01-09 00:10:19.57	9.76	15.60	-42.2	-45.0	18.2	0.00e+00	0	43	0	167772160	56	4830
2026-01-09 00:10:20.58	9.72	15.71	-42.3	-45.1	18.1	0.00e+00	0	43	0	169869312	56	4887
2026-01-09 00:10:21.58	9.67	15.81	-42.2	-44.9	18.2	0.00e+00	0	43	0	171966464	56	4806
2026-01-09 00:10:22.58	9.63	15.92	-42.2	-44.9	18.2	0.00e+00	0	44	0	174063616	56	4782
2026-01-09 00:10:23.58	9.58	16.03	-42.1	-44.8	18.3	0.00e+00	0	43	0	175112192	56	4749
2026-01-09 00:10:24.59	9.53	16.14	-42.1	-44.8	18.4	0.00e+00	0	43	0	177209344	56	4730
2026-01-09 00:10:25.59	9.48	16.25	-42.2	-44.9	18.2	0.00e+00	0	44	0	179306496	56	4808
2026-01-09 00:10:26.59	9.44	16.36	-42.2	-45.0	18.2	0.00e+00	0	43	0	181403648	56	4821
2026-01-09 00:10:27.59	9.39	16.47	-42.2	-44.9	18.2	0.00e+00	0	44	0	183500800	56	4814
2026-01-09 00:10:28.59	9.34	16.58	-42.3	-45.0	18.2	0.00e+00	0	44	0	184549376	56	4817
2026-01-09 00:10:29.60	9.29	16.69	-42.3	-44.9	18.3	0.00e+00	0	44	0	186646528	56	4791
2026-01-09 00:10:30.60	9.24	16.80	-42.3	-45.0	18.2	0.00e+00	0	44	0	188743680	56	4819
2026-01-09 00:10:31.60	9.19	16.91	-42.4	-45.1	18.1	0.00e+00	0	44	0	190840832	56	4888
2026-01-09 00:10:32.61	9.14	17.03	-42.4	-45.1	18.2	0.00e+00	0	44	0	191889408	56	4875
2026-01-09 00:10:33.94	9.07	17.18	-42.5	-45.1	18.2	0.00e+00	0	44	0	195035136	56	4884
2026-01-09 00:10:34.69	9.04	17.26	-42.4	-44.9	18.2	0.00e+00	0	44	0	196083712	56	4811
2026-01-09 00:10:35.98	8.97	17.41	-42.5	-45.1	18.1	0.00e+00	0	44	0	199229440	56	4907
2026-01-09 00:10:36.70	8.93	17.49	-42.4	-44.9	18.3	0.00e+00	0	44	0	200278016	56	4814
2026-01-09 00:10:37.99	8.86	17.64	-42.3	-44.9	18.3	0.00e+00	0	43	0	202375168	56	4773
2026-01-09 00:10:38.70	8.83	17.72	-42.3	-44.8	18.4	0.00e+00	0	43	0	203423744	56	4750
2026-01-09 00:10:39.99	8.76	17.87	-42.3	-44.9	18.3	0.00e+00	0	44	0	206569472	56	4770
2026-01-09 00:10:40.71	8.72	17.95	-42.2	-44.8	18.4	0.00e+00	0	44	0	207618048	56	4733
2026-01-09 00:10:42.00	8.65	18.11	-42.2	-44.8	18.4	0.00e+00	0	44	0	209715200	56	4733
2026-01-09 00:10:42.72	8.61	18.19	-42.2	-44.8	18.4	0.00e+00	0	44	0	211812352	56	4730
2026-01-09 00:10:44.01	8.54	18.34	-42.2	-44.8	18.4	0.00e+00	0	43	0	213909504	56	4726
2026-01-09 00:10:44.72	8.50	18.43	-42.2	-44.8	18.4	0.00e+00	0	44	0	214958080	56	4738
2026-01-09 00:10:46.01	8.43	18.58	-42.2	-44.7	18.5	0.00e+00	0	43	0	217055232	56	4699
2026-01-09 00:10:46.73	8.39	18.67	-42.2	-44.8	18.4	0.00e+00	0	44	0	219152384	56	4729
2026-01-09 00:10:48.02	8.31	18.82	-42.2	-44.8	18.4	0.00e+00	0	44	0	221249536	56	4744
2026-01-09 00:10:48.74	8.27	18.91	-42.2	-44.8	18.4	0.00e+00	0	44	0	222298112	56	4754
2026-01-09 00:10:50.03	8.20	19.07	-42.2	-44.8	18.4	0.00e+00	0	44	0	225443840	56	4752
2026-01-09 00:10:50.74	8.16	19.15	-42.1	-44.8	18.4	0.00e+00	0	44	0	226492416	56	4709
2026-01-09 00:10:52.03	8.08	19.31	-42.2	-44.9	18.3	0.00e+00	0	44	0	228589568	56	4778
2026-01-09 00:10:52.75	8.04	19.40	-42.2	-44.9	18.3	0.00e+00	0	44	0	229638144	56	4812
2026-01-09 00:10:54.04	7.96	19.56	-42.1	-44.8	18.4	0.00e+00	0	44	0	232783872	56	4741
2026-01-09 00:10:54.76	7.92	19.65	-42.1	-44.7	18.5	0.00e+00	0	43	0	233832448	56	4698
2026-01-09 00:10:56.04	7.84	19.81	-42.2	-44.9	18.4	0.00e+00	0	44	0	235929600	56	4764
2026-01-09 00:10:56.76	7.80	19.90	-42.2	-44.8	18.4	0.00e+00	0	44	0	238026752	56	4748
2026-01-09 00:10:58.13	7.71	20.07	-42.2	-44.9	18.3	0.00e+00	0	44	0	240123904	56	4795
2026-01-09 00:10:58.85	7.67	20.16	-42.3	-44.9	18.3	0.00e+00	0	44	0	241172480	56	4810
2026-01-09 00:11:00.20	7.58	20.34	-42.3	-45.0	18.3	0.00e+00	0	44	0	244318208	56	4848
2026-01-09 00:11:00.92	7.54	20.43	-42.3	-44.9	18.4	0.00e+00	0	44	0	245366784	56	4808
2026-01-09 00:11:02.21	7.45	20.59	-42.2	-44.8	18.4	0.00e+00	0	44	0	247463936	56	4751
2026-01-09 00:11:02.92	7.41	20.69	-42.4	-45.0	18.3	0.00e+00	0	44	0	249561088	56	4815
2026-01-09 00:11:04.21	7.32	20.85	-42.4	-45.0	18.3	0.00e+00	0	44	0	251658240	56	4817
2026-01-09 00:11:04.93	7.27	20.95	-42.3	-44.9	18.3	0.00e+00	0	44	0	252706816	56	4784
2026-01-09 00:11:06.22	7.19	21.12	-42.4	-45.0	18.3	0.00e+00	0	43	0	255852544	56	4832
2026-01-09 00:11:06.94	7.14	21.21	-42.4	-44.9	18.3	0.00e+00	0	44	0	256901120	56	4809
2026-01-09 00:11:08.23	7.05	21.38	-42.5	-45.1	18.2	0.00e+00	0	43	0	258998272	56	4912
2026-01-09 00:11:08.94	7.00	21.48	-42.5	-45.1	18.3	0.00e+00	0	44	0	260046848	56	4874
2026-01-09 00:11:10.24	6.91	21.65	-42.4	-44.9	18.4	0.00e+00	0	44	0	263192576	56	4811
2026-01-09 00:11:10.95	6.87	21.75	-42.4	-44.9	18.3	0.00e+00	0	44	0	264241152	56	4814
2026-01-09 00:11:12.24	6.77	21.92	-42.4	-45.0	18.3	0.00e+00	0	44	0	266338304	56	4839
2026-01-09 00:11:13.20	6.71	22.05	-42.3	-44.9	18.4	0.00e+00	0	44	0	268435456	56	4770
2026-01-09 00:11:14.20	6.63	22.19	-42.4	-44.9	18.4	0.00e+00	0	44	0	270532608	56	4814
2026-01-09 00:11:15.20	6.56	22.33	-42.4	-44.9	18.3	0.00e+00	0	44	0	272629760	56	4807
2026-01-09 00:11:16.20	6.49	22.46	-42.4	-45.0	18.3	0.00e+00	0	44	0	273678336	56	4852
2026-01-09 00:11:17.21	6.41	22.60	-42.4	-45.0	18.3	0.00e+00	0	44	0	275775488	56	4858
2026-01-09 00:11:18.21	6.34	22.74	-42.4	-45.0	18.3	0.00e+00	0	44	0	277872640	56	4847
2026-01-09 00:11:19.22	6.26	22.88	-42.3	-44.9	18.4	0.00e+00	0	44	0	279969792	56	4798
2026-01-09 00:11:20.22	6.19	23.02	-42.4	-45.0	18.3	0.00e+00	0	44	0	282066944	56	4842
2026-01-09 00:11:21.25	6.11	23.17	-42.5	-45.1	18.2	0.00e+00	0	44	0	283115520	56	4915
2026-01-09 00:11:22.26	6.03	23.31	-42.4	-45.1	18.2	0.00e+00	0	44	0	285212672	56	4900
2026-01-09 00:11:23.27	5.95	23.46	-42.3	-45.0	18.3	0.00e+00	0	44	0	287309824	56	4833
2026-01-09 00:11:24.27	5.87	23.60	-42.5	-45.1	18.2	0.00e+00	0	44	0	289406976	56	4911
2026-01-09 00:11:25.28	5.79	23.75	-42.6	-45.2	18.1	0.00e+00	0	44	0	291504128	56	4962
2026-01-09 00:11:26.28	5.71	23.89	-42.6	-45.3	18.1	0.00e+00	0	44	0	292552704	56	5000
2026-01-09 00:11:27.28	5.63	24.04	-42.6	-45.2	18.1	0.00e+00	0	44	0	294649856	56	4942
2026-01-09 00:11:28.28	5.55	24.19	-42.6	-45.2	18.1	0.00e+00	0	44	0	296747008	56	4982
2026-01-09 00:11:29.29	5.47	24.34	-42.7	-45.3	18.0	0.00e+00	0	44	0	298844160	56	5023
2026-01-09 00:11:30.29	5.38	24.48	-42.7	-45.3	18.0	0.00e+00	0	44	0	300941312	56	5023
2026-01-09 00:11:31.29	5.30	24.63	-42.8	-45.3	18.0	0.00e+00	0	44	0	301989888	56	5013
2026-01-09 00:11:32.30	5.21	24.78	-42.9	-45.5	17.8	0.00e+00	0	44	0	304087040	56	5154
2026-01-09 00:11:33.30	5.13	24.94	-43.0	-45.7	17.7	0.00e+00	0	44	0	306184192	56	5234
2026-01-09 00:11:34.30	5.04	25.09	-43.1	-45.8	17.6	0.00e+00	0	44	0	308281344	56	5308
2026-01-09 00:11:35.30	4.95	25.24	-43.2	-45.8	17.5	0.00e+00	0	44	0	310378496	57	5033
2026-01-09 00:11:36.30	4.86	25.39	-43.2	-45.9	17.5	0.00e+00	0	44	0	311427072	57	5067
2026-01-09 00:11:37.30	4.77	25.55	-43.3	-46.0	17.4	0.00e+00	0	44	0	313524224	57	5140
2026-01-09 00:11:38.31	4.68	25.70	-43.4	-46.1	17.2	0.00e+00	0	44	0	315621376	57	5217
2026-01-09 00:11:39.36	4.59	25.87	-43.3	-46.1	17.3	0.00e+00	0	44	0	317718528	57	5171
2026-01-09 00:11:40.29	4.50	26.01	-43.5	-46.3	17.1	0.00e+00	0	44	0	319815680	57	5282
2026-01-09 00:11:41.30	4.41	26.17	-43.6	-46.4	17.0	0.00e+00	0	44	0	320864256	57	5378
2026-01-09 00:11:42.30	4.31	26.33	-43.6	-46.5	16.9	0.00e+00	0	44	0	322961408	57	5416
2026-01-09 00:11:43.30	4.22	26.49	-43.7	-46.5	16.9	0.00e+00	0	43	0	325058560	58	5137
2026-01-09 00:11:44.30	4.12	26.65	-43.8	-46.7	16.7	0.00e+00	0	44	0	327155712	58	5221
2026-01-09 00:11:45.31	4.02	26.81	-43.9	-46.7	16.7	0.00e+00	0	44	0	328204288	58	5279
2026-01-09 00:11:46.31	3.92	26.97	-44.0	-46.9	16.5	0.00e+00	0	44	0	330301440	58	5362
2026-01-09 00:11:47.31	3.82	27.13	-44.0	-47.0	16.4	0.00e+00	0	44	0	332398592	58	5427
2026-01-09 00:11:48.31	3.72	27.30	-44.1	-47.1	16.3	0.00e+00	0	44	0	334495744	58	5510
2026-01-09 00:11:49.32	3.62	27.46	-44.3	-47.3	16.1	0.00e+00	0	44	0	336592896	59	5313
2026-01-09 00:11:50.32	3.52	27.63	-44.3	-47.4	16.0	0.00e+00	0	44	0	337641472	59	5379
2026-01-09 00:11:51.32	3.41	27.79	-44.4	-47.4	16.0	0.00e+00	0	44	0	339738624	59	5392
2026-01-09 00:11:52.36	3.31	27.97	-44.5	-47.6	15.8	0.00e+00	0	44	0	341835776	59	5496
2026-01-09 00:11:53.39	3.20	28.14	-44.6	-47.8	15.7	0.00e+00	0	44	0	343932928	59	5599
2026-01-09 00:11:54.39	3.09	28.31	-44.7	-47.9	15.6	0.00e+00	0	44	0	346030080	60	5380
2026-01-09 00:11:55.46	2.97	28.49	-44.8	-48.0	15.5	0.00e+00	0	44	0	348127232	60	5442
2026-01-09 00:11:56.36	2.87	28.64	-44.8	-48.0	15.5	0.00e+00	0	44	0	349175808	60	5436
2026-01-09 00:11:57.37	2.76	28.82	-44.8	-48.0	15.5	0.00e+00	0	44	0	351272960	60	5423
2026-01-09 00:11:58.56	2.63	29.02	-44.7	-48.0	15.5	0.00e+00	0	44	0	353370112	60	5414
2026-01-09 00:11:59.42	2.53	29.17	-44.8	-48.1	15.3	7.00e-07	0	44	0	355467264	60	5500
2026-01-09 00:12:00.57	2.40	29.37	-44.8	-48.1	15.4	0.00e+00	0	44	0	357564416	60	5488
2026-01-09 00:12:01.43	2.30	29.52	-44.9	-48.2	15.2	0.00e+00	0	44	0	358612992	60	5571
2026-01-09 00:12:02.57	2.17	29.72	-45.0	-48.3	15.1	0.00e+00	0	44	0	360710144	60	5642
2026-01-09 00:12:03.43	2.06	29.87	-45.1	-48.4	15.1	0.00e+00	0	44	0	362807296	60	5715
2026-01-09 00:12:04.58	1.93	30.08	-45.2	-48.7	14.8	0.00e+00	0	44	0	364904448	61	5537
2026-01-09 00:12:05.44	1.82	30.23	-45.3	-48.8	14.7	0.00e+00	0	44	0	365953024	61	5636
2026-01-09 00:12:06.59	1.68	30.44	-45.2	-48.8	14.7	0.00e+00	0	44	0	369098752	61	5608
2026-01-09 00:12:07.77	1.53	30.65	-45.3	-48.9	14.6	0.00e+00	0	44	0	371195904	61	5686
2026-01-09 00:12:08.80	1.40	30.84	-45.3	-48.9	14.6	7.00e-07	0	44	0	372244480	61	5671
2026-01-09 00:12:09.97	1.26	31.06	-45.2	-48.8	14.7	0.00e+00	0	44	0	375390208	61	5619
2026-01-09 00:12:10.83	1.14	31.22	-45.2	-48.9	14.6	7.00e-07	0	44	0	376438784	61	5703
2026-01-09 00:12:11.98	0.99	31.43	-45.2	-48.9	14.7	0.00e+00	0	44	0	378535936	61	5658
2026-01-09 00:12:12.84	0.88	31.59	-45.3	-49.0	14.5	0.00e+00	0	44	0	380633088	61	5786
2026-01-09 00:12:13.98	0.73	31.80	-45.3	-49.1	14.4	7.00e-07	0	44	0	382730240	61	5814
2026-01-09 00:12:14.84	0.61	31.96	-45.5	-49.4	14.0	7.00e-07	0	44	0	383778816	61	6052
2026-01-09 00:12:15.99	0.45	32.18	-45.6	-49.6	13.9	2.20e-06	0	44	0	385875968	61	6189
2026-01-09 00:12:16.85	0.33	32.35	-45.8	-49.9	13.7	3.00e-06	0	44	0	387973120	62	6009
2026-01-09 00:12:17.99	0.17	32.56	-45.8	-49.8	13.7	3.80e-06	0	44	0	390070272	62	5970
2026-01-09 00:12:18.85	0.05	32.73	-45.9	-49.9	13.6	5.30e-06	0	44	0	391118848	62	6023
2026-01-09 00:12:20.00	359.89	32.95	-45.9	-49.9	13.6	8.30e-06	0	44	0	393216000	62	6018
2026-01-09 00:12:20.86	359.76	33.12	-46.0	-50.1	13.4	9.10e-06	0	44	0	395313152	62	6164
2026-01-09 00:12:22.01	359.59	33.35	-45.8	-49.8	13.7	1.29e-05	0	44	0	397410304	62	5961
2026-01-09 00:12:22.86	359.47	33.51	-46.0	-50.1	13.4	1.06e-05	0	44	0	399507456	62	6167
2026-01-09 00:12:24.01	359.29	33.74	-45.9	-50.0	13.5	1.29e-05	0	44	0	401604608	62	6071
2026-01-09 00:12:24.87	359.16	33.91	-45.9	-50.0	13.5	7.60e-06	0	44	0	402653184	62	6097
2026-01-09 00:12:26.02	358.98	34.14	-45.8	-50.0	13.6	7.60e-06	0	44	0	404750336	62	6071
2026-01-09 00:12:26.88	358.85	34.31	-45.7	-49.7	13.8	1.06e-05	0	44	0	406847488	62	5894
2026-01-09 00:12:28.02	358.67	34.55	-45.8	-49.8	13.8	3.80e-06	0	44	0	408944640	62	5951
2026-01-09 00:12:28.88	358.53	34.72	-45.8	-49.9	13.7	7.60e-06	0	44	0	409993216	62	5995
2026-01-09 00:12:30.03	358.34	34.95	-45.9	-50.0	13.5	1.37e-05	0	44	0	412090368	62	6128
2026-01-09 00:12:30.89	358.20	35.13	-45.9	-50.1	13.5	9.90e-06	0	44	0	414187520	62	6164
2026-01-09 00:12:32.03	358.01	35.37	-45.9	-50.2	13.4	2.13e-05	0	44	0	416284672	62	6261
2026-01-09 00:12:32.89	357.86	35.54	-45.9	-50.2	13.4	1.67e-05	0	44	0	418381824	62	6216
2026-01-09 00:12:34.04	357.66	35.78	-45.9	-50.4	13.1	3.05e-05	0	44	0	420478976	62	6369
2026-01-09 00:12:34.89	357.52	35.96	-46.0	-50.5	13.1	2.51e-05	0	44	0	421527552	62	6451
2026-01-09 00:12:36.04	357.31	36.21	-45.9	-50.2	13.3	2.36e-05	0	44	0	423624704	62	6234
2026-01-09 00:12:36.90	357.16	36.39	-45.9	-50.2	13.3	1.44e-05	0	44	0	425721856	62	6269
2026-01-09 00:12:38.11	356.94	36.64	-45.9	-50.2	13.4	8.30e-06	0	44	0	427819008	62	6204
2026-01-09 00:12:38.97	356.78	36.83	-45.8	-49.9	13.6	9.90e-06	0	44	0	428867584	62	6037
2026-01-09 00:12:40.12	356.57	37.08	-45.8	-49.9	13.7	4.50e-06	0	44	0	430964736	62	6013
2026-01-09 00:12:40.98	356.41	37.26	-45.7	-49.7	13.8	3.00e-06	0	44	0	433061888	62	5891
2026-01-09 00:12:42.13	356.19	37.51	-45.4	-49.3	14.3	3.80e-06	0	44	0	435159040	62	5635
2026-01-09 00:12:42.98	356.02	37.70	-45.2	-49.0	14.6	0.00e+00	0	44	0	437256192	62	5459
2026-01-09 00:12:44.13	355.80	37.95	-45.1	-48.9	14.6	1.50e-06	0	44	0	439353344	62	5402
2026-01-09 00:12:44.99	355.62	38.14	-45.1	-48.9	14.6	1.50e-06	0	44	0	440401920	62	5382
2026-01-09 00:12:46.14	355.39	38.39	-45.0	-48.9	14.7	7.00e-07	0	44	0	442499072	62	5354
2026-01-09 00:12:47.24	355.17	38.64	-45.2	-49.0	14.6	7.00e-07	0	44	0	444596224	62	5458
2026-01-09 00:12:48.10	354.99	38.83	-45.2	-48.9	14.7	0.00e+00	0	44	0	446693376	62	5366
2026-01-09 00:12:49.60	354.67	39.17	-45.2	-48.7	14.8	0.00e+00	0	44	0	448790528	62	5267
2026-01-09 00:12:50.31	354.52	39.33	-45.0	-48.4	15.2	0.00e+00	0	44	0	450887680	62	5050
2026-01-09 00:12:51.60	354.24	39.62	-44.9	-48.2	15.3	0.00e+00	0	44	0	452984832	61	5249
2026-01-09 00:12:52.32	354.08	39.78	-44.9	-48.2	15.3	0.00e+00	0	44	0	454033408	61	5277
2026-01-09 00:12:53.61	353.79	40.08	-44.8	-48.1	15.4	0.00e+00	0	44	0	457179136	61	5192
2026-01-09 00:12:54.33	353.63	40.24	-44.9	-48.3	15.3	0.00e+00	0	44	0	458227712	61	5292
2026-01-09 00:12:55.61	353.33	40.54	-45.1	-48.5	15.1	0.00e+00	0	44	0	460324864	61	5442
2026-01-09 00:12:56.33	353.16	40.71	-45.1	-48.6	15.0	0.00e+00	0	44	0	461373440	61	5478
2026-01-09 00:12:57.61	352.86	41.00	-45.2	-48.7	14.9	0.00e+00	0	44	0	464519168	61	5538
2026-01-09 00:12:58.33	352.68	41.17	-45.2	-48.7	14.9	0.00e+00	0	44	0	465567744	61	5529
2026-01-09 00:12:59.61	352.37	41.47	-45.2	-48.7	14.9	0.00e+00	0	44	0	467664896	61	5581
2026-01-09 00:13:00.60	352.12	41.71	-45.2	-48.7	14.8	0.00e+00	0	44	0	469762048	61	5583
2026-01-09 00:13:01.61	351.87	41.95	-45.2	-48.8	14.8	0.00e+00	0	44	0	471859200	61	5622
2026-01-09 00:13:02.96	351.52	42.27	-45.1	-48.6	14.9	0.00e+00	0	44	0	473956352	61	5515
2026-01-09 00:13:03.71	351.33	42.45	-44.9	-48.3	15.3	0.00e+00	0	44	0	476053504	61	5303
2026-01-09 00:13:05.00	350.99	42.75	-44.8	-48.1	15.5	0.00e+00	0	44	0	478150656	61	5188
2026-01-09 00:13:05.72	350.79	42.93	-44.9	-48.3	15.2	0.00e+00	0	44	0	479199232	61	5299
2026-01-09 00:13:07.01	350.44	43.24	-44.8	-48.1	15.4	0.00e+00	0	44	0	482344960	61	5215
2026-01-09 00:13:07.73	350.24	43.41	-44.9	-48.3	15.3	0.00e+00	0	44	0	483393536	61	5328
2026-01-09 00:13:09.01	349.88	43.72	-44.8	-48.2	15.4	0.00e+00	0	44	0	485490688	61	5250
2026-01-09 00:13:09.73	349.67	43.90	-44.5	-47.8	15.7	7.00e-07	0	44	0	486539264	61	5015
2026-01-09 00:13:11.05	349.29	44.22	-44.3	-47.4	16.1	0.00e+00	0	44	0	489684992	60	5096
2026-01-09 00:13:11.77	349.08	44.40	-44.2	-47.4	16.1	0.00e+00	0	44	0	490733568	60	5075
2026-01-09 00:13:13.06	348.69	44.71	-44.3	-47.5	16.0	0.00e+00	0	44	0	492830720	60	5150
2026-01-09 00:13:13.77	348.47	44.89	-44.3	-47.6	16.0	0.00e+00	0	44	0	494927872	60	5199
2026-01-09 00:13:15.16	348.04	45.23	-44.5	-47.8	15.8	0.00e+00	0	44	0	497025024	60	5312
2026-01-09 00:13:15.87	347.82	45.41	-44.5	-47.8	15.7	0.00e+00	0	44	0	498073600	60	5314
2026-01-09 00:13:17.16	347.41	45.73	-44.3	-47.5	16.1	0.00e+00	0	44	0	501219328	60	5101
2026-01-09 00:13:17.88	347.17	45.90	-44.3	-47.5	16.1	0.00e+00	0	44	0	502267904	60	5117
2026-01-09 00:13:19.27	346.71	46.25	-44.6	-47.7	15.9	0.00e+00	0	44	0	504365056	60	5273
2026-01-09 00:13:19.98	346.48	46.43	-44.7	-47.9	15.7	0.00e+00	0	44	0	506462208	60	5370
2026-01-09 00:13:21.27	346.04	46.75	-44.8	-48.1	15.5	0.00e+00	0	44	0	508559360	60	5499
2026-01-09 00:13:21.99	345.79	46.93	-44.7	-47.9	15.6	0.00e+00	0	44	0	509607936	60	5366
2026-01-09 00:13:23.28	345.33	47.25	-44.7	-47.9	15.6	0.00e+00	0	44	0	512753664	60	5360
2026-01-09 00:13:24.00	345.07	47.43	-44.7	-48.0	15.6	0.00e+00	0	44	0	513802240	60	5441
2026-01-09 00:13:25.29	344.60	47.76	-44.8	-48.2	15.4	0.00e+00	0	44	0	515899392	60	5530
2026-01-09 00:13:26.00	344.34	47.94	-44.9	-48.2	15.4	0.00e+00	0	44	0	517996544	60	5550
2026-01-09 00:13:27.29	343.85	48.26	-44.9	-48.2	15.3	0.00e+00	0	44	0	520093696	60	5548
2026-01-09 00:13:28.10	343.54	48.46	-44.8	-48.0	15.6	0.00e+00	0	44	0	521142272	60	5416
2026-01-09 00:13:29.25	343.10	48.75	-44.6	-47.8	15.8	0.00e+00	0	44	0	523239424	60	5292
2026-01-09 00:13:30.11	342.75	48.97	-44.4	-47.4	16.1	0.00e+00	0	44	0	525336576	60	5083
2026-01-09 00:13:31.26	342.29	49.26	-44.1	-47.1	16.4	0.00e+00	0	44	0	527433728	60	4905
2026-01-09 00:13:32.11	341.94	49.47	-44.2	-47.2	16.3	0.00e+00	0	44	0	528482304	60	4959
2026-01-09 00:13:33.26	341.47	49.76	-44.3	-47.3	16.3	0.00e+00	0	44	0	530579456	60	5039
2026-01-09 00:13:34.12	341.10	49.98	-44.2	-47.2	16.4	0.00e+00	0	44	0	532676608	60	4933
2026-01-09 00:13:35.33	340.58	50.28	-44.1	-47.0	16.6	0.00e+00	0	44	0	534773760	60	4827
2026-01-09 00:13:36.18	340.21	50.49	-44.0	-46.9	16.7	0.00e+00	0	44	0	536870912	59	5044
2026-01-09 00:13:37.33	339.70	50.78	-43.9	-46.8	16.6	0.00e+00	0	44	0	538968064	59	5040
2026-01-09 00:13:38.19	339.31	50.99	-43.9	-46.9	16.6	0.00e+00	0	44	0	540016640	59	5042
2026-01-09 00:13:39.34	338.78	51.28	-43.9	-46.9	16.6	0.00e+00	0	44	0	542113792	59	5052
2026-01-09 00:13:40.20	338.38	51.49	-43.6	-46.5	17.0	0.00e+00	0	44	0	544210944	59	4867
2026-01-09 00:13:41.59	337.71	51.83	-43.3	-46.0	17.4	0.00e+00	0	44	0	546308096	58	4857
2026-01-09 00:13:42.30	337.37	52.01	-43.1	-45.7	17.7	0.00e+00	0	44	0	548405248	58	4697
2026-01-09 00:13:43.80	336.63	52.38	-42.6	-45.0	18.5	0.00e+00	0	44	0	550502400	57	4562
2026-01-09 00:13:44.51	336.27	52.55	-42.5	-44.9	18.6	0.00e+00	0	44	0	552599552	57	4502
2026-01-09 00:13:45.81	335.60	52.87	-42.4	-44.7	18.7	0.00e+00	0	44	0	554696704	56	4685
2026-01-09 00:13:46.52	335.23	53.04	-42.5	-44.9	18.6	0.00e+00	0	44	0	555745280	56	4781
2026-01-09 00:13:47.81	334.55	53.35	-42.5	-44.9	18.5	0.00e+00	0	44	0	557842432	56	4810
2026-01-09 00:13:48.53	334.16	53.52	-42.6	-45.1	18.4	0.00e+00	0	43	0	559939584	56	4880
2026-01-09 00:13:49.82	333.46	53.82	-42.6	-45.1	18.4	0.00e+00	0	44	0	562036736	56	4887
2026-01-09 00:13:50.54	333.06	53.99	-42.7	-45.2	18.3	0.00e+00	0	44	0	563085312	56	4941
2026-01-09 00:13:51.83	332.33	54.30	-42.8	-45.3	18.2	0.00e+00	0	44	0	566231040	56	4997
2026-01-09 00:13:52.63	331.87	54.48	-42.7	-45.2	18.2	0.00e+00	0	44	0	567279616	56	4968
2026-01-09 00:13:54.07	331.02	54.81	-42.7	-45.2	18.2	0.00e+00	0	44	0	570425344	56	4945
2026-01-09 00:13:54.79	330.59	54.98	-42.6	-45.1	18.3	0.00e+00	0	44	0	571473920	56	4883
2026-01-09 00:13:56.08	329.81	55.27	-42.9	-45.4	18.1	0.00e+00	0	43	0	573571072	56	5080
2026-01-09 00:13:56.79	329.37	55.43	-43.1	-45.7	17.8	0.00e+00	0	44	0	575668224	56	5271
2026-01-09 00:13:58.08	328.56	55.71	-43.5	-46.3	17.2	0.00e+00	0	43	0	577765376	57	5325
2026-01-09 00:13:58.80	328.11	55.87	-43.7	-46.6	16.9	0.00e+00	0	44	0	578813952	58	5203
2026-01-09 00:14:00.09	327.27	56.15	-44.2	-47.2	16.3	0.00e+00	0	44	0	580911104	59	5253
2026-01-09 00:14:00.96	326.70	56.33	-44.6	-47.8	15.7	0.00e+00	0	43	0	583008256	59	5606
2026-01-09 00:14:02.11	325.94	56.57	-44.6	-47.8	15.8	0.00e+00	0	44	0	585105408	60	5289
2026-01-09 00:14:03.21	325.19	56.80	-44.4	-47.5	16.0	0.00e+00	0	44	0	587202560	60	5140
2026-01-09 00:14:04.25	324.47	57.01	-44.6	-48.0	15.7	0.00e+00	0	44	0	589299712	60	5416
2026-01-09 00:14:05.25	323.77	57.21	-44.8	-48.1	15.5	0.00e+00	0	44	0	591396864	60	5511
2026-01-09 00:14:06.25	323.06	57.41	-44.8	-48.0	15.4	0.00e+00	0	44	0	592445440	60	5444
2026-01-09 00:14:07.25	322.34	57.60	-44.6	-47.8	15.7	0.00e+00	0	43	0	594542592	60	5314
2026-01-09 00:14:08.26	321.60	57.79	-44.4	-47.6	15.9	0.00e+00	0	44	0	596639744	60	5160
2026-01-09 00:14:09.26	320.86	57.97	-44.6	-47.7	15.8	0.00e+00	0	44	0	598736896	60	5274
2026-01-09 00:14:10.26	320.11	58.15	-44.7	-47.9	15.6	0.00e+00	0	43	0	600834048	60	5379
2026-01-09 00:14:11.27	319.34	58.33	-44.7	-48.0	15.6	0.00e+00	0	44	0	601882624	60	5434
2026-01-09 00:14:12.27	318.57	58.50	-44.6	-47.7	15.7	0.00e+00	0	44	0	603979776	60	5259
2026-01-09 00:14:13.27	317.79	58.67	-44.6	-47.7	15.9	0.00e+00	0	44	0	606076928	60	5238
2026-01-09 00:14:14.27	317.00	58.84	-44.5	-47.6	15.9	0.00e+00	0	44	0	608174080	60	5203
2026-01-09 00:14:15.27	316.20	58.99	-44.3	-47.3	16.3	0.00e+00	0	44	0	610271232	60	5018
2026-01-09 00:14:16.28	315.38	59.15	-44.6	-47.8	15.9	0.00e+00	0	44	0	611319808	60	5288
2026-01-09 00:14:17.28	314.56	59.30	-44.8	-48.2	15.4	0.00e+00	0	44	0	613416960	60	5555
2026-01-09 00:14:18.38	313.64	59.46	-44.7	-48.0	15.6	0.00e+00	0	44	0	615514112	60	5423
2026-01-09 00:14:19.25	312.91	59.58	-44.4	-47.6	16.0	0.00e+00	0	44	0	617611264	60	5162
2026-01-09 00:14:20.40	311.94	59.73	-43.8	-46.6	16.8	0.00e+00	0	44	0	619708416	59	4925
2026-01-09 00:14:21.33	311.14	59.85	-43.4	-46.1	17.3	0.00e+00	0	43	0	620756992	58	4888
2026-01-09 00:14:22.50	310.13	59.99	-43.2	-45.7	17.7	0.00e+00	0	44	0	623902720	58	4694
2026-01-09 00:14:23.36	309.38	60.09	-43.1	-45.6	17.9	0.00e+00	0	44	0	624951296	58	4618
2026-01-09 00:14:24.70	308.20	60.23	-43.0	-45.5	18.0	0.00e+00	0	44	0	627048448	57	4842
2026-01-09 00:14:25.42	307.55	60.31	-42.8	-45.3	18.1	0.00e+00	0	44	0	629145600	57	4748
2026-01-09 00:14:26.71	306.40	60.43	-42.9	-45.5	18.0	0.00e+00	0	44	0	631242752	57	4816
2026-01-09 00:14:27.42	305.76	60.50	-43.0	-45.6	17.9	0.00e+00	0	44	0	632291328	57	4907
2026-01-09 00:14:28.71	304.58	60.61	-43.1	-45.7	17.8	0.00e+00	0	44	0	635437056	57	4927
2026-01-09 00:14:29.42	303.93	60.66	-43.0	-45.5	17.9	0.00e+00	0	44	0	636485632	57	4832
2026-01-09 00:14:30.71	302.74	60.75	-42.8	-45.3	18.1	0.00e+00	0	44	0	638582784	57	4749
2026-01-09 00:14:31.43	302.08	60.80	-42.9	-45.4	18.1	0.00e+00	0	44	0	640679936	57	4783
2026-01-09 00:14:32.72	300.88	60.88	-42.6	-45.0	18.4	0.00e+00	0	44	0	642777088	57	4588
2026-01-09 00:14:33.44	300.20	60.91	-42.4	-44.8	18.6	0.00e+00	0	44	0	643825664	56	4756
2026-01-09 00:14:34.73	298.99	60.97	-42.3	-44.6	18.8	0.00e+00	0	44	0	645922816	56	4628
2026-01-09 00:14:35.44	298.32	61.00	-42.0	-44.3	19.0	0.00e+00	0	43	0	648019968	56	4480
2026-01-09 00:14:36.73	297.10	61.04	-41.4	-43.6	19.7	0.00e+00	0	44	0	650117120	54	4602
2026-01-09 00:14:37.45	296.42	61.06	-41.5	-43.7	19.6	0.00e+00	0	44	0	651165696	54	4671
2026-01-09 00:14:38.74	295.20	61.08	-41.5	-43.7	19.5	0.00e+00	0	44	0	654311424	54	4693
2026-01-09 00:14:39.45	294.53	61.09	-41.5	-43.7	19.5	0.00e+00	0	44	0	655360000	54	4688
2026-01-09 00:14:40.74	293.30	61.09	-41.1	-43.3	19.9	0.00e+00	0	44	0	657457152	54	4478
2026-01-09 00:14:41.45	292.63	61.09	-41.0	-43.1	20.0	0.00e+00	0	44	0	658505728	54	4377
2026-01-09 00:14:42.74	291.40	61.07	-40.8	-42.9	20.4	0.00e+00	0	44	0	661651456	53	4498
2026-01-09 00:14:43.54	290.64	61.06	-41.0	-43.1	20.0	0.00e+00	0	44	0	662700032	53	4644
2026-01-09 00:14:44.68	289.56	61.03	-41.0	-43.2	20.0	0.00e+00	0	44	0	664797184	53	4669
2026-01-09 00:14:45.74	288.56	61.00	-40.6	-42.7	20.4	0.00e+00	0	44	0	666894336	53	4426
2026-01-09 00:14:46.77	287.59	60.96	-40.5	-42.6	20.5	0.00e+00	0	43	0	668991488	52	4626
2026-01-09 00:14:47.77	286.65	60.91	-40.6	-42.7	20.5	0.00e+00	0	43	0	671088640	52	4659
2026-01-09 00:14:48.77	285.72	60.86	-40.7	-42.8	20.4	0.00e+00	0	44	0	672137216	52	4754
2026-01-09 00:14:49.78	284.78	60.80	-40.9	-43.0	20.2	0.00e+00	0	43	0	674234368	52	4834
2026-01-09 00:14:50.78	283.85	60.74	-40.7	-42.8	20.4	0.00e+00	0	44	0	676331520	52	4746
2026-01-09 00:14:51.78	282.93	60.66	-40.9	-43.0	20.2	0.00e+00	0	43	0	678428672	52	4843
2026-01-09 00:14:52.78	282.01	60.59	-41.3	-43.5	19.7	0.00e+00	0	44	0	680525824	53	4861
2026-01-09 00:14:53.78	281.10	60.50	-41.5	-43.8	19.4	0.00e+00	0	43	0	682622976	53	5022
2026-01-09 00:14:54.79	280.19	60.41	-41.4	-43.6	19.6	0.00e+00	0	44	0	683671552	53	4921
2026-01-09 00:14:55.79	279.30	60.31	-41.5	-43.8	19.5	0.00e+00	0	43	0	685768704	53	4993
2026-01-09 00:14:56.79	278.41	60.21	-41.8	-44.1	19.1	0.00e+00	0	43	0	687865856	54	4907
2026-01-09 00:14:57.79	277.52	60.10	-42.0	-44.3	18.9	0.00e+00	0	44	0	689963008	54	5030
2026-01-09 00:14:58.90	276.55	59.97	-42.1	-44.4	18.9	0.00e+00	0	43	0	692060160	54	5078
2026-01-09 00:14:59.75	275.82	59.86	-42.1	-44.5	18.8	0.00e+00	0	43	0	693108736	55	4847
2026-01-09 00:15:01.12	274.64	59.69	-42.2	-44.6	18.7	0.00e+00	0	44	0	696254464	55	4880
2026-01-09 00:15:01.84	274.03	59.59	-42.5	-45.0	18.3	0.00e+00	0	44	0	697303040	55	5137
2026-01-09 00:15:03.13	272.95	59.41	-42.9	-45.5	17.9	0.00e+00	0	44	0	699400192	56	5123
2026-01-09 00:15:03.85	272.35	59.31	-43.1	-45.6	17.8	0.00e+00	0	44	0	700448768	56	5205
2026-01-09 00:15:05.14	271.29	59.12	-42.9	-45.4	18.0	0.00e+00	0	44	0	703594496	56	5069
2026-01-09 00:15:05.90	270.68	59.00	-43.0	-45.6	17.9	0.00e+00	0	44	0	704643072	56	5163
2026-01-09 00:15:07.19	269.64	58.80	-43.2	-45.8	17.7	0.00e+00	0	43	0	706740224	57	5023
2026-01-09 00:15:07.91	269.07	58.68	-43.5	-46.1	17.3	0.00e+00	0	43	0	708837376	57	5209
2026-01-09 00:15:09.19	268.07	58.46	-43.9	-46.7	16.8	0.00e+00	0	43	0	710934528	58	5219
2026-01-09 00:15:09.91	267.52	58.34	-43.7	-46.4	17.1	0.00e+00	0	43	0	711983104	58	5073
2026-01-09 00:15:11.20	266.53	58.11	-43.6	-46.3	17.2	0.00e+00	0	43	0	715128832	58	5001
2026-01-09 00:15:11.92	265.99	57.98	-43.6	-46.4	17.1	0.00e+00	0	43	0	716177408	58	5047
2026-01-09 00:15:13.27	264.99	57.73	-43.5	-46.2	17.3	0.00e+00	0	43	0	718274560	58	4937
2026-01-09 00:15:13.99	264.47	57.59	-43.8	-46.6	16.9	0.00e+00	0	43	0	720371712	58	5193
2026-01-09 00:15:15.28	263.54	57.34	-44.1	-47.1	16.4	0.00e+00	0	44	0	722468864	59	5183
2026-01-09 00:15:15.99	263.03	57.20	-43.8	-46.6	16.9	0.00e+00	0	43	0	723517440	59	4874
2026-01-09 00:15:17.28	262.13	56.94	-43.3	-45.9	17.6	0.00e+00	0	43	0	726663168	58	4765
2026-01-09 00:15:18.00	261.64	56.80	-43.3	-45.8	17.6	0.00e+00	0	43	0	727711744	58	4755
2026-01-09 00:15:19.29	260.76	56.53	-43.2	-45.8	17.7	0.00e+00	0	44	0	729808896	58	4741
2026-01-09 00:15:20.01	260.28	56.38	-43.1	-45.7	17.7	0.00e+00	0	43	0	730857472	58	4682
2026-01-09 00:15:21.29	259.44	56.10	-42.8	-45.4	18.1	0.00e+00	0	43	0	734003200	57	4775
2026-01-09 00:15:22.11	258.91	55.93	-42.6	-45.1	18.3	0.00e+00	0	43	0	735051776	57	4632
2026-01-09 00:15:23.25	258.18	55.68	-42.4	-44.8	18.6	0.00e+00	0	44	0	737148928	56	4716
2026-01-09 00:15:24.32	257.51	55.44	-42.6	-45.0	18.4	0.00e+00	0	43	0	739246080	56	4857
2026-01-09 00:15:25.36	256.87	55.21	-42.6	-45.1	18.4	0.00e+00	0	43	0	741343232	56	4878
2026-01-09 00:15:26.35	256.27	54.98	-42.8	-45.3	18.1	0.00e+00	0	44	0	743440384	56	5024
2026-01-09 00:15:27.35	255.67	54.76	-42.7	-45.3	18.1	0.00e+00	0	43	0	745537536	56	4990
2026-01-09 00:15:28.36	255.08	54.52	-42.6	-45.1	18.3	0.00e+00	0	43	0	746586112	56	4874
2026-01-09 00:15:29.36	254.50	54.29	-42.4	-44.8	18.6	0.00e+00	0	43	0	748683264	56	4716
2026-01-09 00:15:30.36	253.93	54.06	-42.5	-44.9	18.5	0.00e+00	0	43	0	750780416	56	4760
2026-01-09 00:15:31.36	253.37	53.82	-42.7	-45.1	18.3	0.00e+00	0	43	0	752877568	56	4895
2026-01-09 00:15:32.37	252.81	53.58	-42.6	-45.0	18.4	0.00e+00	0	43	0	753926144	56	4851
2026-01-09 00:15:33.37	252.27	53.34	-43.1	-45.7	17.8	0.00e+00	0	43	0	756023296	56	5222
2026-01-09 00:15:34.37	251.74	53.10	-43.5	-46.3	17.2	0.00e+00	0	43	0	758120448	57	5281
2026-01-09 00:15:35.38	251.21	52.86	-43.7	-46.5	16.9	0.00e+00	0	43	0	760217600	58	5151
2026-01-09 00:15:36.38	250.70	52.61	-43.6	-46.3	17.1	0.00e+00	0	43	0	762314752	58	5041
2026-01-09 00:15:37.38	250.19	52.37	-43.3	-45.9	17.5	0.00e+00	0	44	0	763363328	58	4782
2026-01-09 00:15:38.39	249.69	52.12	-43.4	-46.1	17.5	0.00e+00	0	43	0	765460480	58	4874
2026-01-09 00:15:39.39	249.20	51.87	-43.4	-46.0	17.4	0.00e+00	0	43	0	767557632	58	4855
2026-01-09 00:15:40.39	248.72	51.63	-43.7	-46.4	17.1	0.00e+00	0	43	0	769654784	58	5062
2026-01-09 00:15:41.39	248.24	51.38	-43.9	-46.7	16.8	0.00e+00	0	43	0	771751936	58	5228
2026-01-09 00:15:42.40	247.77	51.13	-44.1	-47.0	16.4	0.00e+00	0	44	0	772800512	58	5462
2026-01-09 00:15:43.40	247.32	50.88	-44.2	-47.2	16.2	0.00e+00	0	43	0	774897664	59	5277
2026-01-09 00:15:44.41	246.86	50.63	-44.6	-47.8	15.6	0.00e+00	0	43	0	776994816	59	5638
2026-01-09 00:15:45.41	246.42	50.37	-45.1	-48.7	14.9	0.00e+00	0	43	0	779091968	60	5856
2026-01-09 00:15:46.41	245.98	50.12	-45.5	-49.3	14.2	4.50e-06	0	43	0	781189120	61	5972
2026-01-09 00:15:47.42	245.55	49.87	-45.6	-49.4	14.1	6.10e-06	0	44	0	782237696	62	5694
2026-01-09 00:15:48.42	245.13	49.62	-45.1	-48.5	15.0	1.50e-06	0	44	0	784334848	62	5142
2026-01-09 00:15:49.42	244.72	49.37	-45.2	-48.6	14.8	0.00e+00	0	43	0	786432000	62	5180
2026-01-09 00:15:50.43	244.30	49.11	-45.3	-48.8	14.7	0.00e+00	0	43	0	788529152	62	5299
2026-01-09 00:15:51.46	243.89	48.85	-45.3	-48.7	14.8	0.00e+00	0	43	0	790626304	62	5244
2026-01-09 00:15:52.47	243.49	48.60	-45.7	-49.4	14.2	0.00e+00	0	43	0	791674880	62	5686
2026-01-09 00:15:53.47	243.11	48.34	-46.1	-50.2	13.4	1.60e-05	0	43	0	793772032	63	5879
2026-01-09 00:15:54.47	242.72	48.09	-46.6	-51.2	12.2	1.76e-04	0	43	0	795869184	64	6217
2026-01-09 00:15:55.48	242.35	47.84	-46.8	-51.6	11.9	1.56e-04	0	43	0	797966336	64	6521
2026-01-09 00:15:56.48	241.98	47.59	-46.2	-50.5	12.7	8.54e-05	0	43	0	800063488	64	5732
2026-01-09 00:15:57.48	241.61	47.33	-46.1	-50.4	13.1	1.98e-05	0	43	0	801112064	63	6005
2026-01-09 00:15:58.49	241.25	47.08	-45.8	-49.7	13.8	2.13e-05	0	43	0	803209216	63	5582
2026-01-09 00:15:59.49	240.90	46.83	-45.6	-49.5	13.9	6.80e-06	0	43	0	805306368	62	5749
2026-01-09 00:16:00.49	240.56	46.58	-45.4	-49.1	14.5	0.00e+00	0	43	0	807403520	62	5470
2026-01-09 00:16:01.50	240.21	46.32	-45.1	-48.6	15.0	0.00e+00	0	43	0	809500672	62	5161
2026-01-09 00:16:02.50	239.88	46.07	-45.4	-49.0	14.4	7.00e-07	0	44	0	810549248	62	5464
2026-01-09 00:16:03.50	239.55	45.83	-45.4	-48.8	14.8	0.00e+00	0	43	0	812646400	62	5337
2026-01-09 00:16:04.50	239.23	45.58	-45.1	-48.5	15.1	0.00e+00	0	43	0	814743552	62	5102
2026-01-09 00:16:05.51	238.90	45.32	-45.0	-48.4	15.1	0.00e+00	0	43	0	816840704	61	5355
2026-01-09 00:16:06.51	238.59	45.08	-44.9	-48.2	15.3	0.00e+00	0	43	0	818937856	61	5275
2026-01-09 00:16:07.51	238.28	44.83	-44.6	-47.8	15.7	0.00e+00	0	43	0	819986432	61	5014
2026-01-09 00:16:08.58	237.95	44.57	-44.7	-48.0	15.5	0.00e+00	0	43	0	822083584	61	5105
2026-01-09 00:16:09.44	237.70	44.35	-44.7	-47.9	15.6	0.00e+00	0	43	0	824180736	61	5071
2026-01-09 00:16:10.59	237.36	44.07	-45.1	-48.6	14.9	0.00e+00	0	43	0	826277888	61	5473
2026-01-09 00:16:11.45	237.11	43.86	-44.9	-48.3	15.2	0.00e+00	0	43	0	827326464	61	5291
2026-01-09 00:16:12.59	236.78	43.58	-44.5	-47.6	15.8	0.00e+00	0	43	0	829423616	61	4921
2026-01-09 00:16:13.61	236.49	43.33	-44.4	-47.5	16.0	0.00e+00	0	43	0	831520768	60	5116
2026-01-09 00:16:14.79	236.17	43.05	-44.4	-47.5	16.0	0.00e+00	0	43	0	833617920	60	5117
2026-01-09 00:16:15.65	235.93	42.84	-44.5	-47.6	15.8	0.00e+00	0	43	0	835715072	60	5182
2026-01-09 00:16:16.80	235.63	42.56	-44.6	-47.8	15.6	0.00e+00	0	43	0	837812224	60	5330
2026-01-09 00:16:17.66	235.40	42.36	-44.8	-48.0	15.5	0.00e+00	0	43	0	838860800	60	5416
2026-01-09 00:16:18.80	235.10	42.08	-44.9	-48.2	15.2	0.00e+00	0	43	0	842006528	60	5534
2026-01-09 00:16:19.82	234.84	41.84	-45.1	-48.4	15.1	0.00e+00	0	43	0	843055104	60	5711
2026-01-09 00:16:21.00	234.54	41.56	-45.2	-48.7	14.8	0.00e+00	0	43	0	845152256	61	5538
2026-01-09 00:16:21.86	234.33	41.36	-45.3	-48.8	14.7	0.00e+00	0	43	0	847249408	61	5626
2026-01-09 00:16:23.01	234.05	41.09	-45.5	-49.1	14.3	7.00e-07	0	43	0	849346560	61	5841
2026-01-09 00:16:23.87	233.84	40.89	-45.5	-49.1	14.3	1.50e-06	0	43	0	851443712	61	5850
2026-01-09 00:16:25.01	233.57	40.62	-45.5	-49.2	14.3	0.00e+00	0	43	0	853540864	61	5866
2026-01-09 00:16:25.87	233.37	40.42	-45.3	-48.9	14.5	7.00e-07	0	43	0	854589440	61	5716
2026-01-09 00:16:27.02	233.10	40.15	-45.5	-49.4	14.1	2.20e-06	0	43	0	856686592	61	6024
2026-01-09 00:16:27.88	232.91	39.96	-45.7	-49.6	13.8	1.50e-06	0	43	0	858783744	62	5844
2026-01-09 00:16:29.03	232.65	39.69	-46.1	-50.3	13.2	1.83e-05	0	43	0	860880896	62	6302
2026-01-09 00:16:29.89	232.46	39.50	-46.0	-50.1	13.3	2.82e-05	0	43	0	861929472	62	6189
2026-01-09 00:16:31.03	232.21	39.24	-46.0	-50.1	13.4	2.59e-05	0	43	0	864026624	62	6147
2026-01-09 00:16:31.89	232.03	39.04	-46.0	-50.0	13.5	1.29e-05	0	43	0	866123776	62	6128
2026-01-09 00:16:33.12	231.77	38.76	-46.1	-50.2	13.3	1.37e-05	0	43	0	868220928	62	6206
2026-01-09 00:16:33.98	231.59	38.57	-46.1	-50.3	13.3	1.22e-05	0	43	0	870318080	63	5925
2026-01-09 00:16:35.12	231.35	38.32	-46.2	-50.4	13.1	1.83e-05	0	43	0	872415232	63	6006
2026-01-09 00:16:35.98	231.18	38.13	-46.0	-49.9	13.5	1.90e-05	0	43	0	873463808	63	5688
2026-01-09 00:16:37.13	230.95	37.87	-45.6	-49.3	14.1	7.60e-06	0	43	0	875560960	63	5330
2026-01-09 00:16:37.99	230.78	37.68	-45.5	-49.0	14.5	1.50e-06	0	43	0	877658112	62	5458
2026-01-09 00:16:39.13	230.56	37.43	-45.4	-48.9	14.6	1.50e-06	0	43	0	879755264	62	5357
2026-01-09 00:16:39.99	230.39	37.24	-45.5	-49.1	14.3	0.00e+00	0	43	0	880803840	62	5485
2026-01-09 00:16:41.14	230.17	37.00	-45.5	-49.2	14.3	7.00e-07	0	43	0	882900992	62	5543
2026-01-09 00:16:42.00	230.01	36.81	-45.7	-49.4	14.0	2.20e-06	0	43	0	884998144	62	5715
2026-01-09 00:16:43.14	229.80	36.56	-45.9	-49.9	13.6	2.20e-06	0	43	0	887095296	62	6030
2026-01-09 00:16:44.00	229.65	36.38	-45.7	-49.6	13.7	3.00e-06	0	43	0	889192448	62	5845
2026-01-09 00:16:45.15	229.44	36.14	-45.5	-49.4	14.0	3.80e-06	0	43	0	891289600	62	5688
2026-01-09 00:16:46.34	229.23	35.88	-45.6	-49.8	13.7	1.50e-06	0	43	0	893386752	62	5944
2026-01-09 00:16:47.20	229.08	35.70	-45.6	-49.7	13.8	5.30e-06	0	43	0	894435328	62	5877
2026-01-09 00:16:48.35	228.88	35.46	-45.6	-49.5	13.9	4.50e-06	0	43	0	896532480	62	5785
2026-01-09 00:16:49.21	228.73	35.28	-45.5	-49.4	14.1	3.80e-06	0	43	0	898629632	62	5671
2026-01-09 00:16:50.36	228.54	35.05	-45.6	-49.5	13.9	7.00e-07	0	43	0	900726784	62	5778
2026-01-09 00:16:51.21	228.40	34.87	-45.4	-49.1	14.3	7.00e-07	0	43	0	901775360	62	5507
2026-01-09 00:16:52.36	228.21	34.64	-45.3	-48.8	14.6	0.00e+00	0	43	0	903872512	62	5332
2026-01-09 00:16:53.22	228.07	34.46	-45.2	-48.7	14.8	0.00e+00	0	43	0	905969664	62	5262
2026-01-09 00:16:54.43	227.88	34.21	-45.3	-48.9	14.5	7.00e-07	0	43	0	908066816	62	5402
2026-01-09 00:16:55.29	227.75	34.04	-45.5	-49.2	14.3	1.50e-06	0	43	0	910163968	62	5537
2026-01-09 00:16:56.50	227.56	33.80	-45.7	-49.7	13.8	3.80e-06	0	43	0	912261120	62	5875
2026-01-09 00:16:57.36	227.43	33.63	-45.9	-50.0	13.4	9.90e-06	0	43	0	913309696	62	6107
2026-01-09 00:16:58.51	227.25	33.40	-46.2	-50.6	12.9	3.50e-05	0	43	0	915406848	62	6502
2026-01-09 00:16:59.37	227.12	33.23	-46.3	-50.8	12.6	7.78e-05	0	43	0	917504000	63	6291
2026-01-09 00:17:00.52	226.95	33.00	-46.2	-50.7	12.7	7.70e-05	0	43	0	919601152	63	6246
2026-01-09 00:17:01.34	226.83	32.84	-46.2	-50.5	12.9	6.71e-05	0	43	0	921698304	63	6086
2026-01-09 00:17:02.65	226.65	32.59	-45.8	-49.9	13.5	1.14e-05	0	43	0	923795456	63	5659
2026-01-09 00:17:03.37	226.54	32.45	-45.7	-49.5	13.9	8.30e-06	0	43	0	924844032	63	5443
2026-01-09 00:17:04.66	226.36	32.20	-45.6	-49.3	14.1	1.50e-06	0	43	0	927989760	63	5304
2026-01-09 00:17:05.37	226.26	32.07	-45.4	-49.0	14.4	1.50e-06	0	43	0	929038336	62	5408
2026-01-09 00:17:06.66	226.09	31.82	-45.1	-48.5	14.8	0.00e+00	0	43	0	931135488	62	5149
2026-01-09 00:17:07.38	225.99	31.68	-45.2	-48.7	14.7	0.00e+00	0	43	0	932184064	62	5239
2026-01-09 00:17:08.67	225.81	31.44	-45.7	-49.5	14.1	7.00e-07	0	43	0	935329792	62	5753
2026-01-09 00:17:09.48	225.71	31.29	-45.6	-49.4	14.1	1.50e-06	0	43	0	936378368	62	5704
2026-01-09 00:17:10.62	225.56	31.08	-45.4	-49.0	14.5	7.00e-07	0	43	0	938475520	62	5404
2026-01-09 00:17:11.48	225.45	30.92	-46.1	-50.2	13.6	0.00e+00	0	43	0	940572672	62	6207
2026-01-09 00:17:12.63	225.30	30.71	-45.8	-49.7	13.7	4.80e-05	0	43	0	942669824	62	5906
2026-01-09 00:17:13.79	225.15	30.50	-46.0	-50.0	13.8	7.00e-07	0	43	0	944766976	62	6092
2026-01-09 00:17:14.65	225.05	30.34	-46.1	-50.3	13.5	1.29e-05	0	43	0	945815552	63	5961
2026-01-09 00:17:15.80	224.90	30.13	-46.1	-50.2	13.4	3.80e-06	0	43	0	948961280	62	6258
2026-01-09 00:17:16.66	224.80	29.98	-45.6	-49.3	14.2	8.30e-06	0	43	0	950009856	62	5649
2026-01-09 00:17:17.80	224.66	29.77	-46.2	-50.4	13.4	6.10e-06	0	43	0	952107008	63	6023
2026-01-09 00:17:18.66	224.56	29.62	-45.8	-49.7	14.1	2.74e-05	0	43	0	954204160	63	5578
2026-01-09 00:17:19.81	224.42	29.42	-45.9	-49.9	13.6	9.10e-06	0	43	0	956301312	63	5668
2026-01-09 00:17:20.67	224.32	29.27	-45.7	-49.4	13.8	9.90e-06	0	43	0	957349888	63	5391
2026-01-09 00:17:21.89	224.18	29.05	-46.0	-49.9	13.5	3.80e-06	0	43	0	959447040	63	5669
2026-01-09 00:17:22.75	224.09	28.90	-45.7	-49.4	13.9	9.90e-06	0	43	0	961544192	63	5400
2026-01-09 00:17:23.90	223.96	28.70	-45.3	-48.8	14.6	0.00e+00	0	43	0	963641344	62	5321
2026-01-09 00:17:24.76	223.86	28.56	-45.3	-48.8	14.6	7.00e-07	0	43	0	965738496	62	5307
2026-01-09 00:17:25.91	223.73	28.36	-45.1	-48.5	14.9	0.00e+00	0	43	0	967835648	62	5126
2026-01-09 00:17:26.77	223.64	28.21	-45.2	-48.6	14.8	0.00e+00	0	43	0	968884224	62	5216
2026-01-09 00:17:28.10	223.50	27.99	-45.0	-48.4	15.0	0.00e+00	0	43	0	972029952	62	5071
2026-01-09 00:17:28.82	223.42	27.87	-45.0	-48.3	15.1	0.00e+00	0	43	0	973078528	62	5021
2026-01-09 00:17:30.11	223.28	27.65	-44.9	-48.2	15.2	0.00e+00	0	43	0	975175680	61	5263
2026-01-09 00:17:30.83	223.21	27.53	-44.8	-48.1	15.4	0.00e+00	0	43	0	976224256	61	5207
2026-01-09 00:17:32.12	223.08	27.32	-44.7	-47.9	15.5	0.00e+00	0	43	0	979369984	61	5096
2026-01-09 00:17:32.88	223.00	27.19	-44.7	-47.9	15.4	0.00e+00	0	43	0	980418560	61	5090
2026-01-09 00:17:34.17	222.87	26.98	-44.6	-47.7	15.6	0.00e+00	0	43	0	982515712	61	4978
2026-01-09 00:17:34.88	222.80	26.87	-44.5	-47.7	15.7	0.00e+00	0	43	0	984612864	61	4959
2026-01-09 00:17:36.17	222.67	26.66	-44.4	-47.5	15.9	0.00e+00	0	43	0	986710016	60	5137
2026-01-09 00:17:36.89	222.60	26.54	-44.3	-47.4	16.0	0.00e+00	0	43	0	987758592	60	5053
2026-01-09 00:17:38.18	222.47	26.34	-44.3	-47.5	16.0	0.00e+00	0	43	0	989855744	60	5110
2026-01-09 00:17:38.89	222.41	26.22	-44.2	-47.3	16.1	0.00e+00	0	43	0	991952896	60	4996
2026-01-09 00:17:40.18	222.28	26.02	-44.4	-47.5	16.0	0.00e+00	0	43	0	994050048	60	5116
2026-01-09 00:17:40.90	222.22	25.90	-44.3	-47.4	16.1	0.00e+00	0	43	0	995098624	60	5070
2026-01-09 00:17:42.20	222.10	25.70	-44.4	-47.5	15.9	0.00e+00	0	43	0	998244352	60	5112
2026-01-09 00:17:42.92	222.03	25.59	-44.5	-47.7	15.7	0.00e+00	0	43	0	999292928	60	5243
2026-01-09 00:17:44.26	221.91	25.38	-44.5	-47.6	15.8	0.00e+00	0	43	0	1001390080	60	5199
2026-01-09 00:17:44.97	221.84	25.27	-44.4	-47.5	15.9	0.00e+00	0	43	0	1003487232	60	5115
2026-01-09 00:17:46.26	221.73	25.07	-44.4	-47.5	15.9	0.00e+00	0	43	0	1005584384	60	5117
2026-01-09 00:17:46.98	221.67	24.96	-44.3	-47.3	16.1	0.00e+00	0	43	0	1006632960	60	5024
2026-01-09 00:17:48.27	221.55	24.77	-44.3	-47.4	16.0	0.00e+00	0	43	0	1009778688	60	5076
2026-01-09 00:17:48.98	221.49	24.66	-44.4	-47.5	15.9	0.00e+00	0	43	0	1010827264	60	5109
2026-01-09 00:17:50.27	221.38	24.47	-44.3	-47.4	16.0	0.00e+00	0	43	0	1012924416	60	5069
2026-01-09 00:17:50.99	221.32	24.36	-44.3	-47.5	15.9	0.00e+00	0	43	0	1013972992	60	5137
2026-01-09 00:17:52.28	221.21	24.17	-44.2	-47.3	16.0	0.00e+00	0	43	0	1017118720	60	5026
2026-01-09 00:17:52.99	221.15	24.06	-44.2	-47.3	16.1	0.00e+00	0	43	0	1018167296	60	5017
2026-01-09 00:17:54.29	221.04	23.87	-44.3	-47.4	16.0	0.00e+00	0	43	0	1020264448	60	5044
2026-01-09 00:17:55.00	220.99	23.77	-44.2	-47.3	16.1	0.00e+00	0	43	0	1022361600	60	4993
2026-01-09 00:17:56.29	220.88	23.58	-44.2	-47.3	16.0	0.00e+00	0	43	0	1024458752	60	5023
2026-01-09 00:17:57.01	220.82	23.48	-44.3	-47.4	16.0	0.00e+00	0	43	0	1025507328	60	5074
2026-01-09 00:17:58.30	220.72	23.29	-44.3	-47.4	15.9	0.00e+00	0	43	0	1028653056	60	5081
2026-01-09 00:17:59.01	220.67	23.19	-44.3	-47.4	16.0	0.00e+00	0	43	0	1029701632	60	5092
2026-01-09 00:18:00.30	220.57	23.00	-44.3	-47.5	15.9	0.00e+00	0	43	0	1031798784	60	5101
2026-01-09 00:18:01.02	220.51	22.90	-44.3	-47.4	15.9	0.00e+00	0	43	0	1032847360	60	5090
2026-01-09 00:18:02.31	220.41	22.72	-44.3	-47.4	16.0	0.00e+00	0	43	0	1035993088	60	5046
2026-01-09 00:18:03.03	220.36	22.62	-44.3	-47.4	16.0	0.00e+00	0	43	0	1037041664	60	5063
2026-01-09 00:18:04.31	220.26	22.44	-44.2	-47.3	16.0	0.00e+00	0	43	0	1039138816	60	5020
2026-01-09 00:18:05.03	220.21	22.34	-44.2	-47.3	16.0	0.00e+00	0	43	0	1040187392	60	5028
2026-01-09 00:18:06.32	220.11	22.16	-44.3	-47.4	15.9	0.00e+00	0	43	0	1043333120	60	5051
2026-01-09 00:18:07.04	220.06	22.06	-44.1	-47.1	16.2	0.00e+00	0	43	0	1044381696	60	4925
2026-01-09 00:18:08.33	219.97	21.89	-44.0	-47.0	16.3	0.00e+00	0	43	0	1046478848	60	4815
2026-01-09 00:18:09.04	219.92	21.79	-44.0	-46.9	16.3	0.00e+00	0	43	0	1048576000	59	5089
2026-01-09 00:18:10.34	219.82	21.61	-43.8	-46.7	16.5	0.00e+00	0	43	0	1050673152	59	4971
2026-01-09 00:18:11.05	219.77	21.52	-43.7	-46.5	16.7	0.00e+00	0	43	0	1051721728	59	4860
2026-01-09 00:18:12.34	219.68	21.34	-43.8	-46.6	16.6	0.00e+00	0	43	0	1054867456	59	4908
2026-01-09 00:18:13.06	219.64	21.25	-43.8	-46.7	16.6	0.00e+00	0	43	0	1055916032	59	4952
2026-01-09 00:18:14.35	219.55	21.08	-43.7	-46.6	16.7	0.00e+00	0	43	0	1058013184	59	4881
2026-01-09 00:18:15.07	219.50	20.98	-43.8	-46.7	16.6	0.00e+00	0	43	0	1059061760	59	4959
2026-01-09 00:18:16.35	219.41	20.81	-43.7	-46.5	16.7	0.00e+00	0	43	0	1062207488	59	4841
2026-01-09 00:18:17.07	219.36	20.72	-43.7	-46.6	16.6	0.00e+00	0	43	0	1063256064	59	4890
2026-01-09 00:18:18.36	219.28	20.55	-43.8	-46.7	16.5	0.00e+00	0	43	0	1065353216	59	4961
2026-01-09 00:18:19.07	219.23	20.46	-43.8	-46.7	16.5	0.00e+00	0	43	0	1067450368	59	4981
2026-01-09 00:18:20.36	219.15	20.29	-43.9	-46.9	16.3	0.00e+00	0	43	0	1069547520	59	5100
2026-01-09 00:18:21.08	219.10	20.20	-43.9	-46.9	16.3	0.00e+00	0	43	0	1070596096	59	5086
2026-01-09 00:18:22.37	219.02	20.03	-44.1	-47.2	16.0	0.00e+00	0	43	0	1073741824	59	5239
2026-01-09 00:18:23.15	218.97	19.93	-44.1	-47.2	16.0	0.00e+00	0	43	0	1074790400	59	5260
2026-01-09 00:18:24.68	218.87	19.74	-44.2	-47.3	16.1	0.00e+00	0	43	0	1077936128	59	5302
2026-01-09 00:18:25.39	218.83	19.65	-44.0	-47.1	16.2	0.00e+00	0	43	0	1078984704	59	5182
2026-01-09 00:18:26.69	218.75	19.49	-44.0	-46.9	16.3	0.00e+00	0	43	0	1081081856	59	5093
2026-01-09 00:18:27.41	218.71	19.40	-43.9	-46.9	16.4	0.00e+00	0	43	0	1083179008	59	5056
2026-01-09 00:18:28.69	218.63	19.24	-44.0	-47.0	16.3	0.00e+00	0	43	0	1085276160	59	5113
2026-01-09 00:18:29.41	218.59	19.15	-43.8	-46.7	16.5	0.00e+00	0	43	0	1086324736	59	4944
2026-01-09 00:18:30.69	218.51	18.99	-43.8	-46.7	16.5	0.00e+00	0	43	0	1088421888	59	4941
2026-01-09 00:18:31.41	218.47	18.91	-43.7	-46.6	16.6	0.00e+00	0	43	0	1090519040	59	4916
2026-01-09 00:18:32.70	218.39	18.75	-43.7	-46.6	16.7	0.00e+00	0	43	0	1092616192	59	4907
2026-01-09 00:18:33.42	218.35	18.66	-43.8	-46.7	16.5	0.00e+00	0	43	0	1093664768	59	4972
2026-01-09 00:18:34.71	218.28	18.51	-43.7	-46.6	16.6	0.00e+00	0	43	0	1096810496	59	4890
2026-01-09 00:18:35.66	218.22	18.39	-43.7	-46.6	16.6	0.00e+00	0	43	0	1097859072	59	4875
2026-01-09 00:18:36.67	218.17	18.27	-43.8	-46.7	16.5	0.00e+00	0	43	0	1099956224	59	4955
2026-01-09 00:18:37.67	218.11	18.15	-43.7	-46.6	16.6	0.00e+00	0	43	0	1102053376	59	4905
2026-01-09 00:18:38.67	218.05	18.04	-43.8	-46.7	16.5	0.00e+00	0	43	0	1104150528	59	4954
2026-01-09 00:18:39.67	218.00	17.92	-43.9	-46.8	16.3	0.00e+00	0	43	0	1105199104	59	5023
2026-01-09 00:18:40.67	217.94	17.80	-43.8	-46.8	16.3	0.00e+00	0	43	0	1107296256	59	5039
2026-01-09 00:18:41.68	217.89	17.68	-43.9	-46.9	16.3	0.00e+00	0	43	0	1109393408	59	5045
2026-01-09 00:18:42.74	217.83	17.56	-43.9	-47.0	16.2	0.00e+00	0	43	0	1111490560	59	5101
2026-01-09 00:18:43.60	217.79	17.46	-43.9	-46.9	16.3	0.00e+00	0	43	0	1113587712	59	5080
2026-01-09 00:18:44.98	217.71	17.30	-43.8	-47.0	16.1	0.00e+00	0	43	0	1115684864	59	5156
2026-01-09 00:18:45.69	217.68	17.22	-44.1	-47.2	16.0	0.00e+00	0	43	0	1116733440	59	5235
2026-01-09 00:18:47.20	217.60	17.05	-44.1	-47.2	16.0	0.00e+00	0	43	0	1119879168	59	5221
2026-01-09 00:18:47.92	217.56	16.97	-44.1	-47.2	15.9	0.00e+00	0	43	0	1120927744	59	5258
2026-01-09 00:18:49.25	217.49	16.82	-44.1	-47.3	15.9	0.00e+00	0	43	0	1124073472	59	5281
2026-01-09 00:18:49.97	217.46	16.73	-44.1	-47.2	16.0	0.00e+00	0	43	0	1125122048	59	5267
2026-01-09 00:18:51.26	217.39	16.59	-44.0	-47.3	15.9	0.00e+00	0	43	0	1127219200	59	5288
2026-01-09 00:18:51.98	217.36	16.51	-44.1	-47.2	15.9	0.00e+00	0	43	0	1128267776	59	5264
2026-01-09 00:18:53.27	217.29	16.37	-44.1	-47.2	15.9	0.00e+00	0	43	0	1131413504	59	5274
2026-01-09 00:18:53.98	217.26	16.29	-44.1	-47.2	15.9	0.00e+00	0	43	0	1132462080	59	5277
2026-01-09 00:18:55.27	217.19	16.15	-44.1	-47.3	15.8	0.00e+00	0	43	0	1134559232	59	5307
2026-01-09 00:18:55.99	217.16	16.07	-44.1	-47.4	15.8	0.00e+00	0	43	0	1136656384	59	5357
2026-01-09 00:18:57.28	217.10	15.93	-44.1	-47.4	15.8	0.00e+00	0	43	0	1138753536	59	5353
2026-01-09 00:18:57.99	217.06	15.85	-44.0	-47.3	15.9	0.00e+00	0	43	0	1139802112	59	5291
2026-01-09 00:18:59.28	217.00	15.71	-43.9	-47.2	16.0	0.00e+00	0	43	0	1142947840	59	5236
2026-01-09 00:19:00.09	216.96	15.62	-44.0	-47.2	15.9	0.00e+00	0	43	0	1143996416	59	5241
2026-01-09 00:19:01.23	216.91	15.50	-44.1	-47.3	15.8	0.00e+00	0	43	0	1146093568	59	5295
2026-01-09 00:19:02.09	216.87	15.41	-43.8	-47.3	15.8	0.00e+00	0	43	0	1148190720	59	5325
2026-01-09 00:19:03.24	216.82	15.29	-44.0	-47.4	15.8	0.00e+00	0	43	0	1150287872	59	5344
2026-01-09 00:19:04.35	216.77	15.17	-43.9	-47.3	15.8	0.00e+00	0	43	0	1152385024	59	5283
2026-01-09 00:19:05.21	216.73	15.08	-44.0	-47.4	15.7	0.00e+00	0	43	0	1153433600	59	5368
2026-01-09 00:19:06.36	216.68	14.96	-44.1	-47.4	15.7	0.00e+00	0	43	0	1155530752	59	5372
2026-01-09 00:19:07.22	216.64	14.87	-44.0	-47.3	15.8	0.00e+00	0	43	0	1157627904	59	5321
2026-01-09 00:19:08.36	216.59	14.75	-44.1	-47.5	15.6	0.00e+00	0	43	0	1159725056	59	5436
2026-01-09 00:19:09.22	216.55	14.66	-44.3	-47.6	15.5	0.00e+00	0	43	0	1160773632	59	5497
2026-01-09 00:19:10.37	216.50	14.54	-44.2	-47.5	15.6	0.00e+00	0	43	0	1162870784	59	5404
2026-01-09 00:19:11.23	216.46	14.45	-44.3	-47.7	15.4	0.00e+00	0	43	0	1164967936	59	5568
2026-01-09 00:19:12.38	216.42	14.34	-44.2	-47.6	15.5	0.00e+00	0	43	0	1167065088	59	5519
2026-01-09 00:19:13.24	216.38	14.25	-44.2	-47.6	15.5	0.00e+00	0	43	0	1168113664	59	5526
2026-01-09 00:19:14.59	216.32	14.11	-44.3	-47.8	15.3	0.00e+00	0	43	0	1171259392	59	5609
2026-01-09 00:19:15.31	216.29	14.04	-44.3	-47.7	15.4	0.00e+00	0	43	0	1172307968	59	5561
2026-01-09 00:19:16.59	216.24	13.91	-44.3	-47.8	15.3	7.00e-07	0	43	0	1175453696	59	5620
2026-01-09 00:19:17.31	216.21	13.84	-44.4	-47.8	15.3	0.00e+00	0	43	0	1176502272	59	5633
2026-01-09 00:19:18.60	216.16	13.71	-44.5	-48.0	15.0	0.00e+00	0	43	0	1178599424	59	5787
2026-01-09 00:19:19.34	216.13	13.64	-44.4	-47.8	15.3	0.00e+00	0	43	0	1179648000	59	5615
2026-01-09 00:19:20.63	216.07	13.51	-44.4	-47.8	15.2	0.00e+00	0	43	0	1182793728	59	5650
2026-01-09 00:19:21.35	216.04	13.44	-44.4	-47.9	15.1	0.00e+00	0	43	0	1183842304	59	5720
2026-01-09 00:19:22.64	215.99	13.31	-43.9	-47.7	15.3	7.00e-07	0	43	0	1185939456	59	5588
2026-01-09 00:19:23.48	215.96	13.23	-44.0	-47.9	15.2	7.00e-07	0	43	0	1188036608	59	5678
2026-01-09 00:19:24.63	215.91	13.12	-44.1	-47.9	15.1	0.00e+00	0	43	0	1190133760	59	5666
2026-01-09 00:19:25.69	215.87	13.01	-44.3	-47.9	15.1	0.00e+00	0	43	0	1192230912	59	5697
2026-01-09 00:19:26.73	215.83	12.91	-44.0	-48.0	15.1	0.00e+00	0	43	0	1194328064	59	5738
2026-01-09 00:19:27.73	215.79	12.82	-44.3	-47.9	15.1	0.00e+00	0	43	0	1195376640	59	5698
2026-01-09 00:19:28.94	215.75	12.70	-44.3	-48.0	15.1	7.00e-07	0	43	0	1198522368	59	5745
2026-01-09 00:19:29.83	215.71	12.61	-44.4	-48.0	15.1	0.00e+00	0	43	0	1199570944	59	5736
2026-01-09 00:19:30.97	215.67	12.51	-44.6	-48.0	15.0	7.00e-07	0	43	0	1201668096	59	5778
2026-01-09 00:19:31.83	215.64	12.42	-44.5	-48.1	14.9	0.00e+00	0	43	0	1203765248	59	5838
2026-01-09 00:19:32.97	215.60	12.32	-44.4	-47.9	15.2	0.00e+00	0	43	0	1205862400	59	5660
2026-01-09 00:19:33.83	215.57	12.24	-44.3	-47.8	15.2	0.00e+00	0	43	0	1206910976	59	5627
2026-01-09 00:19:34.97	215.52	12.13	-44.0	-47.9	15.1	0.00e+00	0	43	0	1209008128	59	5698
2026-01-09 00:19:35.83	215.49	12.05	-44.6	-48.1	14.9	0.00e+00	0	43	0	1211105280	59	5817
2026-01-09 00:19:36.98	215.45	11.94	-44.5	-48.2	14.9	0.00e+00	0	43	0	1213202432	60	5584
2026-01-09 00:19:37.84	215.42	11.86	-44.5	-48.1	15.0	0.00e+00	0	43	0	1215299584	60	5466
2026-01-09 00:19:38.99	215.38	11.76	-44.6	-48.0	15.0	0.00e+00	0	43	0	1216348160	59	5770
2026-01-09 00:19:39.85	215.35	11.68	-44.6	-48.1	14.9	0.00e+00	0	43	0	1218445312	59	5850
2026-01-09 00:19:40.99	215.31	11.57	-44.4	-48.2	14.8	0.00e+00	0	43	0	1220542464	60	5568
2026-01-09 00:19:41.85	215.28	11.49	-44.5	-48.2	14.8	0.00e+00	0	43	0	1222639616	60	5583
2026-01-09 00:19:43.00	215.24	11.39	-44.7	-48.5	14.6	0.00e+00	0	43	0	1224736768	60	5730
2026-01-09 00:19:43.86	215.21	11.31	-44.7	-48.4	14.6	0.00e+00	0	43	0	1225785344	60	5696
2026-01-09 00:19:45.01	215.17	11.21	-44.7	-48.4	14.6	0.00e+00	0	43	0	1227882496	60	5707
2026-01-09 00:19:45.87	215.14	11.13	-44.8	-48.5	14.5	7.00e-07	0	43	0	1229979648	60	5760
2026-01-09 00:19:47.01	215.10	11.03	-44.7	-48.5	14.5	0.00e+00	0	43	0	1232076800	60	5767
2026-01-09 00:19:47.87	215.07	10.95	-44.7	-48.6	14.4	1.50e-06	0	43	0	1233125376	60	5825
2026-01-09 00:19:49.02	215.04	10.85	-44.9	-48.6	14.4	0.00e+00	0	43	0	1235222528	60	5855
2026-01-09 00:19:49.88	215.01	10.77	-44.8	-48.7	14.3	1.50e-06	0	43	0	1237319680	60	5910
2026-01-09 00:19:51.02	214.97	10.67	-44.9	-48.7	14.3	7.00e-07	0	43	0	1239416832	60	5893
2026-01-09 00:19:51.88	214.94	10.59	-45.0	-48.7	14.3	0.00e+00	0	43	0	1241513984	60	5888
2026-01-09 00:19:53.03	214.90	10.49	-45.0	-48.8	14.1	1.50e-06	0	43	0	1243611136	60	5968
2026-01-09 00:19:53.89	214.88	10.42	-44.9	-48.9	14.0	1.50e-06	0	43	0	1244659712	60	6053
2026-01-09 00:19:55.10	214.84	10.31	-45.0	-48.9	14.0	2.20e-06	0	43	0	1246756864	60	6053
