passes_logs/2026/01/09/T1/T1__20260109_015038_AQUA_rec.log

#Pass ID: 20260109_015038_AQUA
#Satellite: AQUA
#Configuration: AQUA
#almurnet v.1.7.20251203
#Start time: 2026-01-09 01:50:40

#Version: 2.0.20230620
#Station: T1
#Location: 37.570604 lon 55.790049 lat
#TLE: 1 27424U 02022A   26004.96787593  .00001598  00000+0  32997-3 0  9996
#TLE: 2 27424  98.4069 331.2279 0002002  90.2377   0.6092 14.61798176259425

#Time	Az	El	Level	Level2	SNR	BER	BlckErr	Temp	State	Recorded	gain1	gain2
2026-01-09 01:50:40.64	11.58	5.17	-44.2	-69.1	3.5	7.57e-01	0	38	0	0	59	65535
2026-01-09 01:50:41.64	11.55	5.24	-44.1	-69.1	3.4	7.61e-01	0	38	104	0	59	65535
2026-01-09 01:50:42.64	11.52	5.32	-44.1	-69.6	3.6	7.55e-01	0	38	104	0	60	65535
2026-01-09 01:50:43.65	11.50	5.39	-44.1	-69.1	3.4	7.58e-01	0	38	104	0	59	65535
2026-01-09 01:50:44.65	11.47	5.47	-44.3	-69.1	3.5	7.59e-01	0	38	104	0	59	65535
2026-01-09 01:50:45.65	11.44	5.54	-44.4	-69.1	3.5	7.54e-01	0	38	104	0	59	65535
2026-01-09 01:50:46.66	11.41	5.62	-44.0	-69.1	3.6	7.45e-01	0	38	104	0	59	65534
2026-01-09 01:50:47.66	11.38	5.69	-44.2	-69.1	3.8	7.47e-01	0	38	104	0	59	65535
2026-01-09 01:50:48.67	11.34	5.77	-44.1	-69.0	3.9	7.47e-01	0	38	104	0	59	64533
2026-01-09 01:50:49.67	11.31	5.84	-44.0	-68.9	3.8	7.44e-01	0	38	104	0	59	63675
2026-01-09 01:50:50.68	11.28	5.92	-44.2	-68.8	3.8	7.44e-01	0	38	104	0	59	62857
2026-01-09 01:50:51.68	11.25	6.00	-44.1	-68.5	3.8	7.43e-01	0	38	104	0	59	61282
2026-01-09 01:50:52.69	11.22	6.08	-44.2	-68.5	3.8	7.42e-01	0	39	104	0	59	60702
2026-01-09 01:50:53.69	11.19	6.15	-43.9	-68.0	4.0	7.37e-01	0	38	104	0	59	57513
2026-01-09 01:50:54.69	11.16	6.23	-44.1	-67.7	4.1	7.38e-01	0	39	104	0	59	55767
2026-01-09 01:50:55.70	11.12	6.31	-43.9	-67.6	3.7	7.44e-01	0	39	104	0	59	55078
2026-01-09 01:50:56.70	11.09	6.39	-44.1	-67.1	4.1	7.34e-01	0	39	104	0	59	51686
2026-01-09 01:50:57.70	11.06	6.46	-43.8	-66.2	4.6	7.26e-01	0	39	104	0	59	46710
2026-01-09 01:50:58.71	11.03	6.54	-43.9	-65.3	4.2	7.17e-01	0	39	104	0	59	42420
2026-01-09 01:50:59.71	10.99	6.62	-44.1	-65.0	5.0	7.14e-01	0	39	104	0	59	40974
2026-01-09 01:51:00.72	10.96	6.70	-44.1	-64.8	5.1	7.07e-01	0	39	0	0	59	39700
2026-01-09 01:51:01.72	10.93	6.78	-44.0	-64.7	5.1	7.08e-01	0	39	0	0	59	39214
2026-01-09 01:51:02.73	10.89	6.86	-43.9	-64.6	5.3	7.09e-01	0	39	0	0	59	39055
2026-01-09 01:51:03.73	10.86	6.94	-44.0	-65.1	4.8	7.15e-01	0	39	0	0	59	41313
2026-01-09 01:51:04.74	10.83	7.02	-44.1	-65.5	4.7	7.15e-01	0	39	104	0	59	43352
2026-01-09 01:51:05.74	10.79	7.10	-44.0	-67.1	4.0	7.42e-01	0	39	104	0	59	52058
2026-01-09 01:51:06.75	10.76	7.18	-44.1	-68.6	3.7	7.39e-01	0	39	104	0	59	61348
2026-01-09 01:51:07.75	10.72	7.26	-44.2	-69.1	3.5	7.51e-01	0	39	104	0	59	65534
2026-01-09 01:51:08.76	10.69	7.34	-44.0	-69.1	3.4	7.55e-01	0	39	104	0	59	65535
2026-01-09 01:51:09.76	10.65	7.42	-44.0	-67.7	3.9	7.39e-01	0	39	104	0	59	55680
2026-01-09 01:51:10.77	10.62	7.51	-44.0	-64.5	5.2	7.03e-01	0	39	0	0	59	38669
2026-01-09 01:51:11.77	10.58	7.59	-44.0	-62.3	6.8	6.65e-01	0	39	0	1048576	59	29761
2026-01-09 01:51:12.77	10.55	7.67	-43.7	-60.1	9.1	6.34e-01	0	39	0	2621440	59	23139
2026-01-09 01:51:13.78	10.51	7.75	-43.8	-58.9	10.7	6.18e-01	0	39	0	4718592	59	20090
2026-01-09 01:51:14.78	10.47	7.84	-43.9	-57.8	11.5	6.13e-01	0	39	0	6815744	59	17747
2026-01-09 01:51:15.79	10.44	7.92	-43.7	-56.1	13.2	6.06e-01	0	39	0	8388608	59	14678
2026-01-09 01:51:16.79	10.40	8.00	-43.6	-55.3	14.1	6.04e-01	0	39	0	10485760	59	13291
2026-01-09 01:51:17.79	10.36	8.09	-43.5	-54.3	15.2	6.04e-01	0	39	0	12582912	58	12615
2026-01-09 01:51:18.80	10.33	8.17	-43.5	-53.8	15.8	6.02e-01	0	39	0	14155776	58	11884
2026-01-09 01:51:19.80	10.29	8.25	-43.3	-53.2	16.2	6.04e-01	0	40	0	16252928	58	11041
2026-01-09 01:51:20.81	10.25	8.34	-43.3	-52.7	16.5	6.04e-01	0	39	0	17825792	58	10468
2026-01-09 01:51:21.81	10.21	8.42	-43.1	-52.0	17.4	6.05e-01	0	39	0	19922944	58	9611
2026-01-09 01:51:22.82	10.17	8.51	-43.1	-52.1	17.3	6.06e-01	0	39	0	21495808	57	10380
2026-01-09 01:51:23.82	10.14	8.60	-42.9	-51.2	18.0	6.02e-01	0	40	0	23592960	57	9287
2026-01-09 01:51:24.82	10.10	8.68	-43.1	-51.7	17.7	6.06e-01	0	39	0	25690112	57	9893
2026-01-09 01:51:25.83	10.06	8.77	-43.1	-51.7	17.5	6.04e-01	0	40	0	27262976	57	9925
2026-01-09 01:51:26.83	10.02	8.85	-43.1	-52.4	16.9	6.03e-01	0	39	0	29360128	57	10736
2026-01-09 01:51:27.84	9.98	8.94	-43.2	-53.0	16.4	6.09e-01	0	39	0	30932992	57	11515
2026-01-09 01:51:28.84	9.94	9.03	-43.3	-53.8	15.4	6.04e-01	0	39	0	33030144	57	12662
2026-01-09 01:51:29.84	9.90	9.12	-43.2	-52.4	17.4	6.05e-01	0	40	0	35127296	57	10658
2026-01-09 01:51:30.85	9.86	9.20	-44.4	-60.6	8.6	6.39e-01	0	40	0	36700160	60	23144
2026-01-09 01:51:31.85	9.82	9.29	-42.7	-50.4	18.8	6.03e-01	0	40	0	38797312	57	8506
2026-01-09 01:51:32.85	9.77	9.38	-42.0	-48.0	21.3	6.03e-01	0	40	0	40370176	56	6829
2026-01-09 01:51:33.85	9.73	9.47	-43.4	-54.6	15.2	6.01e-01	0	40	0	42467328	57	13741
2026-01-09 01:51:34.94	9.69	9.57	-43.5	-55.5	13.6	6.03e-01	0	40	0	44564480	57	15387
2026-01-09 01:51:35.83	9.65	9.64	-43.5	-54.9	14.6	6.04e-01	0	40	0	46137344	57	14354
2026-01-09 01:51:36.97	9.60	9.75	-43.6	-55.7	14.0	6.05e-01	0	40	0	48234496	57	15624
2026-01-09 01:51:37.83	9.57	9.82	-43.5	-54.0	15.2	6.02e-01	0	40	0	49807360	57	12945
2026-01-09 01:51:38.97	9.52	9.93	-43.6	-54.3	15.4	6.04e-01	0	40	0	51904512	57	13286
2026-01-09 01:51:39.83	9.48	10.00	-43.5	-54.3	16.1	6.04e-01	0	40	0	53477376	58	12562
2026-01-09 01:51:40.98	9.43	10.11	-43.4	-54.1	15.5	6.04e-01	0	40	0	55574528	58	12338
2026-01-09 01:51:41.84	9.39	10.19	-43.3	-52.9	16.2	6.03e-01	0	40	0	57671680	58	10743
2026-01-09 01:51:42.99	9.34	10.29	-43.5	-54.3	16.2	6.06e-01	0	40	0	59768832	58	12538
2026-01-09 01:51:43.85	9.30	10.37	-43.1	-52.2	16.0	6.03e-01	0	40	0	61341696	57	10508
2026-01-09 01:51:44.99	9.25	10.48	-43.1	-51.3	18.0	6.05e-01	0	40	0	63438848	57	9412
2026-01-09 01:51:45.85	9.21	10.56	-43.1	-51.6	17.2	6.05e-01	0	40	0	65011712	57	9718
2026-01-09 01:51:47.00	9.16	10.66	-43.3	-51.9	17.0	6.03e-01	0	40	0	67108864	57	10095
2026-01-09 01:51:47.86	9.12	10.75	-43.2	-51.2	18.0	6.02e-01	0	40	0	68681728	57	9378
2026-01-09 01:51:49.00	9.07	10.85	-43.3	-51.4	17.7	6.03e-01	0	40	0	70778880	58	9054
2026-01-09 01:51:49.86	9.03	10.93	-43.7	-52.7	16.6	6.05e-01	0	40	0	72351744	58	10525
2026-01-09 01:51:51.01	8.97	11.04	-43.2	-51.6	17.7	6.03e-01	0	40	0	74448896	58	9194
2026-01-09 01:51:51.87	8.93	11.12	-43.4	-51.7	17.7	6.04e-01	0	40	0	76021760	58	9358
2026-01-09 01:51:53.01	8.88	11.23	-43.4	-51.3	17.8	6.06e-01	0	40	0	78118912	57	9457
2026-01-09 01:51:53.87	8.84	11.32	-42.8	-50.4	18.6	6.04e-01	0	40	0	79691776	57	8523
2026-01-09 01:51:55.02	8.78	11.43	-43.4	-51.2	17.8	6.04e-01	0	40	0	82313216	58	8800
2026-01-09 01:51:55.88	8.74	11.51	-43.4	-51.0	18.3	6.02e-01	0	40	0	83886080	58	8632
2026-01-09 01:51:57.03	8.68	11.62	-43.1	-49.5	20.0	6.06e-01	0	40	0	85983232	58	7236
2026-01-09 01:51:57.89	8.64	11.70	-43.4	-49.8	20.1	6.05e-01	0	40	0	87556096	57	7929
2026-01-09 01:51:59.04	8.58	11.82	-43.1	-49.0	20.1	6.04e-01	0	40	0	89653248	57	7267
2026-01-09 01:51:59.90	8.54	11.90	-43.3	-49.0	20.8	6.02e-01	0	40	0	91226112	57	7270
2026-01-09 01:52:01.04	8.48	12.01	-43.6	-49.3	20.1	6.05e-01	0	40	0	93323264	57	7522
2026-01-09 01:52:01.90	8.44	12.10	-43.5	-49.2	20.4	6.06e-01	0	40	0	94896128	58	7027
2026-01-09 01:52:03.05	8.38	12.21	-43.2	-48.8	20.8	6.06e-01	0	40	0	96993280	57	7120
2026-01-09 01:52:03.90	8.34	12.30	-42.8	-48.0	21.1	6.02e-01	0	40	0	98566144	57	6446
2026-01-09 01:52:05.05	8.28	12.41	-43.3	-48.5	20.9	6.01e-01	0	40	0	101187584	57	6879
2026-01-09 01:52:05.91	8.23	12.50	-43.7	-48.8	20.7	6.06e-01	0	40	0	102760448	58	6682
2026-01-09 01:52:07.06	8.17	12.62	-43.5	-48.4	21.0	6.01e-01	0	40	0	104857600	58	6420
2026-01-09 01:52:07.92	8.12	12.71	-43.4	-48.3	21.3	6.04e-01	0	40	0	106430464	58	6301
2026-01-09 01:52:09.06	8.06	12.82	-43.2	-47.8	21.8	6.01e-01	0	40	0	108527616	58	5949
2026-01-09 01:52:09.92	8.01	12.91	-43.4	-48.0	21.3	6.03e-01	0	40	0	110100480	58	6100
2026-01-09 01:52:11.10	7.95	13.03	-43.5	-48.2	21.4	6.05e-01	0	40	0	112197632	58	6229
2026-01-09 01:52:11.96	7.90	13.12	-43.1	-47.7	21.8	6.02e-01	0	40	0	113770496	58	5857
2026-01-09 01:52:13.11	7.84	13.24	-43.3	-47.8	21.8	6.05e-01	0	40	0	115867648	57	6315
2026-01-09 01:52:13.97	7.79	13.33	-42.9	-47.2	22.2	6.02e-01	0	40	0	117440512	57	5897
2026-01-09 01:52:15.12	7.72	13.45	-42.9	-47.3	22.0	6.03e-01	0	40	0	119537664	57	5937
2026-01-09 01:52:16.03	7.67	13.55	-43.0	-47.3	22.2	6.03e-01	0	40	0	121634816	57	5946
2026-01-09 01:52:17.03	7.61	13.65	-43.3	-47.5	21.9	6.03e-01	0	40	0	123207680	57	6121
2026-01-09 01:52:18.03	7.56	13.76	-43.7	-47.8	21.9	6.03e-01	0	40	0	125304832	58	5961
2026-01-09 01:52:19.03	7.50	13.87	-43.8	-47.9	21.6	6.06e-01	0	40	0	126877696	58	6033
2026-01-09 01:52:20.04	7.44	13.98	-43.4	-47.2	22.3	6.04e-01	0	40	0	128974848	58	5577
2026-01-09 01:52:21.04	7.38	14.08	-43.2	-46.9	22.7	6.04e-01	0	40	0	131072000	58	5345
2026-01-09 01:52:22.05	7.32	14.19	-43.1	-46.7	22.7	6.07e-01	0	40	0	132644864	58	5263
2026-01-09 01:52:23.05	7.26	14.30	-43.1	-46.6	22.9	6.03e-01	0	40	0	134742016	58	5175
2026-01-09 01:52:24.05	7.20	14.41	-43.1	-46.6	23.0	6.06e-01	0	40	0	136314880	58	5183
2026-01-09 01:52:25.05	7.14	14.52	-43.1	-46.6	23.0	6.03e-01	0	40	0	138412032	57	5479
2026-01-09 01:52:26.07	7.07	14.63	-43.0	-46.3	23.2	6.04e-01	0	40	0	140509184	57	5315
2026-01-09 01:52:27.08	7.01	14.75	-42.8	-46.1	23.3	6.06e-01	0	40	0	142082048	57	5194
2026-01-09 01:52:28.16	6.94	14.87	-42.7	-46.1	23.4	6.04e-01	0	41	0	144179200	57	5192
2026-01-09 01:52:29.05	6.88	14.97	-42.7	-46.0	23.5	6.04e-01	0	40	0	145752064	57	5151
2026-01-09 01:52:30.29	6.80	15.11	-42.7	-45.9	23.6	6.02e-01	0	40	0	148373504	57	5049
2026-01-09 01:52:31.14	6.75	15.20	-42.7	-45.9	23.6	6.06e-01	0	40	0	149946368	57	5067
2026-01-09 01:52:32.29	6.67	15.33	-42.8	-45.9	23.7	6.05e-01	0	40	0	152043520	57	5081
2026-01-09 01:52:33.15	6.62	15.43	-42.7	-45.8	23.8	6.05e-01	0	40	0	153616384	57	5023
2026-01-09 01:52:34.30	6.54	15.56	-42.6	-45.8	23.7	6.06e-01	0	40	0	155713536	57	5005
2026-01-09 01:52:35.16	6.48	15.66	-42.6	-45.8	23.7	6.03e-01	0	40	0	157286400	57	5017
2026-01-09 01:52:36.30	6.41	15.80	-42.5	-45.7	23.8	6.06e-01	0	40	0	159383552	57	4975
2026-01-09 01:52:37.16	6.35	15.90	-42.5	-45.6	23.9	6.04e-01	0	40	0	160956416	57	4913
2026-01-09 01:52:38.31	6.27	16.03	-42.5	-45.5	24.0	6.04e-01	0	40	0	163053568	56	5156
2026-01-09 01:52:39.17	6.21	16.13	-42.4	-45.4	24.0	6.05e-01	0	40	0	164626432	56	5100
2026-01-09 01:52:40.32	6.13	16.27	-42.4	-45.5	24.1	6.03e-01	0	40	0	167247872	56	5130
2026-01-09 01:52:41.18	6.07	16.37	-42.3	-45.4	24.1	6.03e-01	0	40	0	168820736	56	5096
2026-01-09 01:52:42.32	5.98	16.51	-42.4	-45.7	23.9	6.06e-01	0	40	0	170917888	56	5264
2026-01-09 01:52:43.18	5.92	16.61	-42.3	-45.6	23.9	6.05e-01	0	41	0	172490752	56	5206
2026-01-09 01:52:44.33	5.84	16.75	-42.1	-45.4	24.1	6.04e-01	0	40	0	174587904	56	5077
2026-01-09 01:52:45.19	5.78	16.85	-42.3	-45.5	24.0	6.04e-01	0	40	0	176160768	56	5131
2026-01-09 01:52:46.34	5.69	17.00	-42.2	-45.5	24.1	6.04e-01	0	41	0	178257920	56	5112
2026-01-09 01:52:47.20	5.63	17.10	-42.3	-45.5	24.0	6.03e-01	0	40	0	179830784	56	5149
2026-01-09 01:52:48.35	5.54	17.24	-42.3	-45.4	24.1	6.04e-01	0	41	0	181927936	56	5098
2026-01-09 01:52:49.22	5.47	17.35	-42.2	-45.3	24.2	6.01e-01	0	41	0	183500800	56	5017
2026-01-09 01:52:50.54	5.37	17.52	-42.3	-45.5	24.1	6.08e-01	0	41	0	186122240	56	5130
2026-01-09 01:52:51.26	5.32	17.61	-42.4	-45.6	24.1	6.02e-01	0	40	0	187695104	56	5173
2026-01-09 01:52:52.55	5.21	17.77	-42.4	-45.6	24.0	6.06e-01	0	41	0	189792256	56	5167
2026-01-09 01:52:53.27	5.16	17.86	-42.4	-45.6	24.0	6.02e-01	0	41	0	191365120	56	5166
2026-01-09 01:52:54.81	5.03	18.06	-42.6	-45.8	23.8	6.03e-01	0	40	0	193986560	56	5329
2026-01-09 01:52:55.52	4.98	18.15	-42.6	-45.7	23.9	6.05e-01	0	41	0	195559424	56	5279
2026-01-09 01:52:56.81	4.87	18.31	-42.8	-45.9	23.8	6.03e-01	0	40	0	198180864	56	5345
2026-01-09 01:52:57.52	4.81	18.41	-42.8	-45.8	23.8	6.06e-01	0	40	0	199229440	56	5334
2026-01-09 01:52:58.81	4.71	18.57	-42.8	-45.8	23.8	6.04e-01	0	41	0	201850880	56	5317
2026-01-09 01:52:59.53	4.65	18.67	-42.8	-45.9	23.7	6.04e-01	0	41	0	202899456	56	5346
2026-01-09 01:53:00.82	4.54	18.84	-42.8	-45.8	23.8	6.03e-01	0	40	0	205520896	56	5327
2026-01-09 01:53:01.54	4.48	18.93	-42.8	-45.8	23.8	6.03e-01	0	41	0	207093760	56	5325
2026-01-09 01:53:02.83	4.36	19.10	-42.8	-45.8	23.8	6.06e-01	0	40	0	209190912	56	5326
2026-01-09 01:53:03.55	4.30	19.20	-42.8	-45.8	23.8	6.04e-01	0	40	0	210763776	56	5316
2026-01-09 01:53:04.84	4.19	19.37	-42.7	-45.7	23.9	6.02e-01	0	40	0	212860928	56	5262
2026-01-09 01:53:05.70	4.11	19.49	-42.7	-45.6	24.0	6.06e-01	0	40	0	214433792	56	5213
2026-01-09 01:53:06.85	4.01	19.65	-42.6	-45.6	24.0	6.03e-01	0	41	0	217055232	56	5182
2026-01-09 01:53:07.71	3.93	19.77	-42.5	-45.5	23.9	6.02e-01	0	40	0	218628096	56	5158
2026-01-09 01:53:08.85	3.83	19.92	-42.4	-45.5	24.1	6.02e-01	0	40	0	220725248	56	5114
2026-01-09 01:53:09.71	3.75	20.04	-42.4	-45.4	24.2	6.02e-01	0	40	0	222298112	56	5079
2026-01-09 01:53:10.86	3.64	20.20	-42.6	-45.7	23.9	6.04e-01	0	41	0	224395264	56	5254
2026-01-09 01:53:11.72	3.56	20.32	-42.7	-45.7	23.9	6.03e-01	0	40	0	225968128	56	5269
2026-01-09 01:53:12.86	3.45	20.48	-42.6	-45.7	23.9	6.04e-01	0	41	0	228065280	56	5279
2026-01-09 01:53:13.72	3.37	20.60	-42.7	-45.8	23.9	6.02e-01	0	40	0	229638144	56	5313
2026-01-09 01:53:15.01	3.24	20.79	-42.8	-45.9	23.6	6.04e-01	0	40	0	232259584	56	5402
2026-01-09 01:53:15.73	3.17	20.89	-42.6	-45.7	23.7	6.02e-01	0	41	0	233308160	56	5226
2026-01-09 01:53:17.02	3.04	21.08	-42.9	-45.9	23.7	6.05e-01	0	40	0	235929600	56	5373
2026-01-09 01:53:17.73	2.97	21.18	-43.1	-46.2	23.7	6.04e-01	0	41	0	236978176	56	5559
2026-01-09 01:53:19.03	2.84	21.37	-43.1	-46.1	23.5	6.03e-01	0	40	0	239599616	57	5178
2026-01-09 01:53:19.74	2.77	21.47	-43.4	-46.4	23.1	6.04e-01	0	41	0	241172480	57	5371
2026-01-09 01:53:21.03	2.63	21.66	-43.5	-46.5	23.1	6.04e-01	0	40	0	243269632	58	5122
2026-01-09 01:53:21.75	2.56	21.77	-43.6	-46.6	23.0	6.03e-01	0	40	0	244842496	58	5189
2026-01-09 01:53:23.04	2.42	21.96	-43.4	-46.3	23.3	6.04e-01	0	41	0	246939648	58	5010
2026-01-09 01:53:23.75	2.34	22.07	-43.5	-46.3	23.4	6.04e-01	0	40	0	248512512	58	5009
2026-01-09 01:53:25.04	2.21	22.26	-43.5	-46.4	23.2	6.05e-01	0	41	0	251133952	58	5088
2026-01-09 01:53:25.76	2.13	22.37	-43.3	-46.1	23.6	6.01e-01	0	40	0	252182528	58	4904
2026-01-09 01:53:27.05	1.98	22.57	-43.1	-45.8	23.8	6.02e-01	0	41	0	254803968	58	4742
2026-01-09 01:53:27.77	1.90	22.68	-43.1	-45.8	23.8	6.05e-01	0	41	0	255852544	58	4744
2026-01-09 01:53:29.17	1.75	22.89	-42.9	-45.6	24.0	6.03e-01	0	41	0	258473984	57	4919
2026-01-09 01:53:30.15	1.63	23.05	-42.8	-45.6	24.1	6.04e-01	0	41	0	260571136	57	4881
2026-01-09 01:53:31.48	1.48	23.25	-42.8	-45.7	24.0	6.04e-01	0	40	0	263192576	57	4946
2026-01-09 01:53:32.19	1.40	23.37	-42.8	-45.7	23.9	6.03e-01	0	41	0	264241152	57	4966
2026-01-09 01:53:33.48	1.25	23.57	-42.9	-45.8	23.8	6.05e-01	0	41	0	266862592	57	5014
2026-01-09 01:53:34.20	1.16	23.68	-43.0	-45.9	23.7	6.04e-01	0	40	0	267911168	57	5076
2026-01-09 01:53:35.49	1.00	23.89	-43.0	-45.8	23.8	6.04e-01	0	40	0	270532608	57	5035
2026-01-09 01:53:36.21	0.92	24.01	-43.1	-45.9	23.8	6.03e-01	0	41	0	272105472	57	5067
2026-01-09 01:53:37.50	0.76	24.22	-43.2	-46.0	23.7	6.04e-01	0	41	0	274202624	57	5113
2026-01-09 01:53:38.21	0.67	24.33	-43.1	-45.9	23.7	6.04e-01	0	40	0	275775488	57	5081
2026-01-09 01:53:39.53	0.50	24.55	-43.2	-46.0	23.7	6.04e-01	0	41	0	277872640	57	5119
2026-01-09 01:53:40.25	0.41	24.67	-43.2	-45.9	23.8	6.05e-01	0	41	0	279445504	57	5087
2026-01-09 01:53:41.54	0.24	24.88	-43.3	-46.0	23.8	6.06e-01	0	41	0	282066944	57	5121
2026-01-09 01:53:42.26	0.15	25.00	-43.4	-46.1	23.6	6.03e-01	0	41	0	283115520	57	5174
2026-01-09 01:53:43.67	359.96	25.24	-43.3	-46.0	23.7	6.03e-01	0	41	0	285736960	57	5114
2026-01-09 01:53:44.66	359.83	25.41	-43.1	-45.9	23.8	6.04e-01	0	41	0	287834112	57	5084
2026-01-09 01:53:45.96	359.65	25.63	-42.9	-45.7	23.9	6.03e-01	0	41	0	289931264	57	4977
2026-01-09 01:53:46.71	359.55	25.76	-42.9	-45.7	24.0	6.03e-01	0	41	0	291504128	57	4957
2026-01-09 01:53:48.00	359.37	25.98	-43.0	-45.8	23.9	6.03e-01	0	41	0	294125568	57	4989
2026-01-09 01:53:48.72	359.27	26.10	-43.0	-45.8	23.9	6.05e-01	0	41	0	295174144	57	5019
2026-01-09 01:53:50.01	359.09	26.33	-43.1	-45.8	23.8	6.04e-01	0	41	0	297795584	57	5028
2026-01-09 01:53:50.72	358.98	26.45	-43.1	-45.8	23.9	6.04e-01	0	41	0	298844160	57	4994
2026-01-09 01:53:52.01	358.80	26.68	-43.1	-45.7	24.0	6.05e-01	0	41	0	301465600	57	4934
2026-01-09 01:53:52.73	358.69	26.81	-43.1	-45.6	24.0	6.04e-01	0	40	0	303038464	57	4918
2026-01-09 01:53:54.02	358.50	27.04	-42.9	-45.5	24.2	6.06e-01	0	41	0	305135616	57	4825
2026-01-09 01:53:54.74	358.39	27.17	-43.0	-45.6	24.1	6.05e-01	0	41	0	306708480	57	4891
2026-01-09 01:53:56.09	358.18	27.41	-43.0	-45.5	24.2	6.06e-01	0	41	0	309329920	57	4862
2026-01-09 01:53:57.06	358.03	27.59	-42.9	-45.5	24.2	6.04e-01	0	40	0	310902784	57	4837
2026-01-09 01:53:58.38	357.82	27.83	-43.0	-45.6	24.2	6.05e-01	0	41	0	313524224	57	4871
2026-01-09 01:53:59.10	357.71	27.96	-42.8	-45.4	24.3	6.04e-01	0	41	0	314572800	57	4775
2026-01-09 01:54:00.76	357.44	28.27	-42.7	-45.2	24.5	6.07e-01	0	41	0	317718528	57	4686
2026-01-09 01:54:01.33	357.35	28.38	-42.6	-45.2	24.6	6.04e-01	0	41	0	318767104	57	4654
2026-01-09 01:54:02.91	357.08	28.68	-42.6	-45.2	24.6	6.05e-01	0	41	0	321912832	57	4677
2026-01-09 01:54:03.48	356.99	28.78	-42.7	-45.2	24.5	6.04e-01	0	41	0	322961408	57	4690
2026-01-09 01:54:05.06	356.72	29.09	-42.5	-45.0	24.7	6.04e-01	0	41	0	326107136	56	4833
2026-01-09 01:54:05.63	356.62	29.19	-42.6	-45.1	24.7	6.04e-01	0	41	0	327155712	56	4899
2026-01-09 01:54:07.22	356.34	29.50	-42.7	-45.3	24.4	6.04e-01	0	41	0	329777152	56	4985
2026-01-09 01:54:07.80	356.24	29.61	-42.7	-45.3	24.5	6.04e-01	0	41	0	331350016	56	4989
2026-01-09 01:54:09.37	355.96	29.92	-42.7	-45.2	24.6	6.03e-01	0	41	0	333971456	56	4938
2026-01-09 01:54:10.01	355.84	30.05	-42.5	-45.0	24.6	6.06e-01	0	41	0	335020032	56	4847
2026-01-09 01:54:11.46	355.57	30.33	-42.5	-44.9	24.8	6.03e-01	0	41	0	338165760	56	4799
2026-01-09 01:54:12.17	355.44	30.47	-42.4	-44.9	24.8	6.02e-01	0	41	0	339214336	56	4780
2026-01-09 01:54:13.46	355.19	30.73	-42.5	-45.0	24.8	6.02e-01	0	41	0	341835776	56	4819
2026-01-09 01:54:14.18	355.05	30.88	-42.6	-45.0	24.7	6.04e-01	0	41	0	342884352	56	4864
2026-01-09 01:54:15.46	354.80	31.14	-42.7	-45.2	24.5	6.03e-01	0	40	0	345505792	56	4953
2026-01-09 01:54:16.18	354.66	31.28	-42.7	-45.2	24.6	6.07e-01	0	41	0	346554368	56	4939
2026-01-09 01:54:17.47	354.40	31.55	-42.7	-45.3	24.5	6.03e-01	0	41	0	349175808	56	4989
2026-01-09 01:54:18.18	354.26	31.69	-42.7	-45.2	24.5	6.05e-01	0	41	0	350748672	56	4967
2026-01-09 01:54:19.48	353.99	31.96	-42.6	-45.2	24.5	6.05e-01	0	41	0	352845824	56	4972
2026-01-09 01:54:20.19	353.84	32.11	-42.5	-45.1	24.6	6.03e-01	0	41	0	354418688	56	4905
2026-01-09 01:54:21.48	353.57	32.38	-42.3	-44.9	24.8	6.02e-01	0	41	0	356515840	56	4799
2026-01-09 01:54:22.20	353.42	32.53	-42.2	-44.9	24.8	6.01e-01	0	41	0	358088704	56	4800
2026-01-09 01:54:23.58	353.12	32.82	-42.5	-45.2	24.4	6.04e-01	0	41	0	360710144	56	4982
2026-01-09 01:54:24.30	352.96	32.98	-42.6	-45.3	24.5	6.02e-01	0	41	0	362283008	56	5021
2026-01-09 01:54:25.66	352.65	33.27	-42.8	-45.4	24.4	6.03e-01	0	41	0	364380160	56	5090
2026-01-09 01:54:26.37	352.49	33.42	-42.9	-45.5	24.2	6.05e-01	0	41	0	365953024	56	5138
2026-01-09 01:54:27.66	352.19	33.70	-43.1	-45.6	24.2	6.03e-01	0	41	0	368574464	56	5212
2026-01-09 01:54:28.68	351.96	33.92	-43.0	-45.7	24.1	6.06e-01	0	41	0	370147328	57	4940
2026-01-09 01:54:29.69	351.72	34.14	-43.0	-45.8	24.0	6.04e-01	0	41	0	372244480	57	5012
2026-01-09 01:54:30.69	351.48	34.36	-42.9	-45.8	24.0	6.04e-01	0	41	0	373817344	57	4992
2026-01-09 01:54:31.69	351.23	34.58	-42.8	-45.6	24.1	6.05e-01	0	41	0	375914496	57	4907
2026-01-09 01:54:32.69	350.98	34.81	-43.1	-45.9	23.9	6.03e-01	0	41	0	378011648	57	5096
2026-01-09 01:54:33.69	350.73	35.03	-43.5	-46.5	23.4	6.06e-01	0	41	0	379584512	57	5409
2026-01-09 01:54:34.73	350.47	35.26	-43.6	-46.6	23.3	6.03e-01	0	41	0	381681664	58	5180
2026-01-09 01:54:35.77	350.20	35.50	-43.7	-46.7	23.1	6.07e-01	0	41	0	383254528	58	5259
2026-01-09 01:54:36.64	349.97	35.69	-43.6	-46.7	23.2	6.05e-01	0	41	0	385351680	58	5226
2026-01-09 01:54:37.99	349.61	36.00	-43.8	-46.9	23.0	6.06e-01	0	41	0	387973120	58	5386
2026-01-09 01:54:38.71	349.42	36.16	-43.7	-46.8	23.1	6.04e-01	0	41	0	389021696	58	5285
2026-01-09 01:54:39.99	349.07	36.46	-43.6	-46.5	23.3	6.03e-01	0	41	0	391643136	58	5155
2026-01-09 01:54:40.71	348.87	36.62	-43.7	-46.7	23.2	6.03e-01	0	41	0	392691712	58	5227
2026-01-09 01:54:42.27	348.43	36.98	-44.1	-47.2	22.7	6.05e-01	0	41	0	395837440	58	5589
2026-01-09 01:54:42.98	348.22	37.15	-44.2	-47.3	22.5	6.05e-01	0	41	0	396886016	59	5319
2026-01-09 01:54:44.27	347.84	37.45	-44.1	-47.2	22.7	6.04e-01	0	41	0	399507456	59	5250
2026-01-09 01:54:44.99	347.63	37.62	-43.8	-47.0	22.9	6.04e-01	0	41	0	400556032	59	5106
2026-01-09 01:54:46.28	347.24	37.92	-44.1	-47.4	22.6	6.03e-01	0	41	0	403177472	59	5344
2026-01-09 01:54:46.99	347.03	38.09	-44.2	-47.5	22.4	6.04e-01	0	41	0	404750336	59	5460
2026-01-09 01:54:48.28	346.63	38.40	-44.5	-47.8	22.2	6.03e-01	0	41	0	406847488	59	5625
2026-01-09 01:54:49.00	346.40	38.57	-44.6	-47.7	22.2	6.03e-01	0	41	0	408420352	59	5569
2026-01-09 01:54:50.29	345.99	38.87	-44.6	-47.5	22.4	6.05e-01	0	41	0	411041792	59	5456
2026-01-09 01:54:51.07	345.73	39.06	-44.5	-47.4	22.5	6.03e-01	0	41	0	412090368	59	5376
2026-01-09 01:54:52.68	345.20	39.45	-44.7	-47.7	22.2	6.05e-01	0	41	0	415236096	59	5584
2026-01-09 01:54:53.25	345.01	39.59	-44.4	-47.5	22.3	6.03e-01	0	41	0	416284672	60	5158
2026-01-09 01:54:55.05	344.39	40.02	-44.2	-47.2	22.6	6.05e-01	0	41	0	419954688	60	4961
2026-01-09 01:54:55.63	344.19	40.16	-44.4	-47.5	22.4	6.04e-01	0	41	0	420478976	60	5121
2026-01-09 01:54:57.22	343.63	40.55	-44.3	-47.3	22.5	6.03e-01	0	41	0	423624704	60	5015
2026-01-09 01:54:57.79	343.42	40.69	-44.1	-46.9	22.8	6.03e-01	0	41	0	424673280	60	4814
2026-01-09 01:54:59.38	342.84	41.07	-44.5	-47.4	22.5	6.05e-01	0	41	0	427819008	59	5393
2026-01-09 01:54:59.95	342.63	41.21	-44.6	-47.6	22.3	6.03e-01	0	41	0	428867584	59	5518
2026-01-09 01:55:01.53	342.03	41.60	-44.0	-47.0	22.8	6.06e-01	0	41	0	432013312	60	4868
2026-01-09 01:55:02.11	341.81	41.74	-44.1	-47.1	22.7	6.05e-01	0	41	0	433061888	60	4875
2026-01-09 01:55:03.68	341.19	42.13	-44.0	-46.9	22.9	6.05e-01	0	41	0	435683328	60	4790
2026-01-09 01:55:04.29	340.95	42.28	-44.0	-46.9	23.0	6.04e-01	0	41	0	436731904	59	5084
2026-01-09 01:55:05.86	340.31	42.66	-43.9	-46.9	22.9	6.05e-01	0	41	0	439877632	59	5087
2026-01-09 01:55:06.44	340.07	42.81	-44.0	-47.1	22.7	6.01e-01	0	41	0	440926208	59	5204
2026-01-09 01:55:08.03	339.41	43.20	-43.8	-46.9	23.0	6.03e-01	0	41	0	444071936	59	5074
2026-01-09 01:55:08.60	339.16	43.34	-43.7	-46.8	23.1	6.05e-01	0	41	0	445120512	59	4996
2026-01-09 01:55:10.58	338.30	43.82	-43.5	-46.5	23.1	6.03e-01	0	41	0	448790528	59	4817
2026-01-09 01:55:11.15	338.05	43.96	-43.6	-46.6	23.3	6.03e-01	0	41	0	449839104	59	4884
2026-01-09 01:55:12.76	337.32	44.36	-43.7	-46.6	23.2	6.01e-01	0	41	0	452984832	59	4906
2026-01-09 01:55:13.33	337.06	44.50	-43.8	-46.6	23.2	6.05e-01	0	41	0	454033408	59	4913
2026-01-09 01:55:14.92	336.32	44.89	-43.8	-46.5	23.4	6.04e-01	0	41	0	457179136	59	4847
2026-01-09 01:55:15.49	336.04	45.02	-43.7	-46.4	23.4	6.02e-01	0	41	0	458227712	59	4806
2026-01-09 01:55:17.07	335.28	45.41	-44.0	-46.7	23.1	6.04e-01	0	41	0	460849152	59	4979
2026-01-09 01:55:17.66	334.99	45.55	-43.9	-46.7	23.2	6.04e-01	0	41	0	461897728	59	4934
2026-01-09 01:55:19.43	334.10	45.98	-43.9	-46.6	23.3	6.05e-01	0	41	0	465567744	59	4924
2026-01-09 01:55:20.00	333.81	46.11	-43.8	-46.6	23.3	6.03e-01	0	41	0	466616320	59	4886
2026-01-09 01:55:21.58	332.99	46.49	-43.8	-46.6	23.3	6.02e-01	0	41	0	469237760	59	4914
2026-01-09 01:55:22.15	332.69	46.63	-43.8	-46.7	23.2	6.03e-01	0	41	0	470286336	59	4927
2026-01-09 01:55:23.73	331.85	47.00	-43.9	-46.7	23.2	6.04e-01	0	41	0	473432064	59	4931
2026-01-09 01:55:24.33	331.52	47.14	-44.1	-46.9	23.0	6.05e-01	0	41	0	474480640	59	5088
2026-01-09 01:55:25.91	330.64	47.51	-44.2	-47.1	22.7	6.03e-01	0	41	0	477626368	59	5210
2026-01-09 01:55:26.51	330.31	47.65	-43.7	-46.5	23.4	6.04e-01	0	41	0	478674944	59	4861
2026-01-09 01:55:28.09	329.40	48.01	-43.8	-46.7	23.1	6.04e-01	0	41	0	481820672	59	4971
2026-01-09 01:55:28.68	329.06	48.15	-43.9	-46.9	23.0	6.04e-01	0	41	0	482869248	59	5079
2026-01-09 01:55:30.25	328.13	48.50	-43.9	-46.8	23.0	6.06e-01	0	41	0	485490688	59	5031
2026-01-09 01:55:30.84	327.77	48.63	-43.8	-46.7	23.1	6.05e-01	0	41	0	487063552	59	4982
2026-01-09 01:55:32.42	326.81	48.98	-44.2	-47.2	22.8	6.04e-01	0	41	0	489684992	59	5222
2026-01-09 01:55:33.02	326.43	49.11	-44.1	-47.0	22.9	6.07e-01	0	41	0	490733568	59	5117
2026-01-09 01:55:34.60	325.44	49.45	-43.9	-46.6	23.2	6.04e-01	0	41	0	493879296	59	4926
2026-01-09 01:55:35.55	324.83	49.65	-43.8	-46.5	23.4	6.05e-01	0	41	0	495452160	59	4825
2026-01-09 01:55:36.55	324.18	49.86	-44.0	-46.8	23.1	6.02e-01	0	41	0	497549312	59	5015
2026-01-09 01:55:37.56	323.51	50.07	-44.0	-46.7	23.1	6.05e-01	0	41	0	499646464	59	4966
2026-01-09 01:55:38.58	322.83	50.28	-43.7	-46.4	23.5	6.02e-01	0	41	0	501219328	59	4773
2026-01-09 01:55:39.58	322.15	50.48	-43.5	-46.2	23.7	6.05e-01	0	41	0	503316480	59	4676
2026-01-09 01:55:40.58	321.46	50.67	-43.8	-46.5	23.4	6.06e-01	0	41	0	504889344	59	4850
2026-01-09 01:55:41.59	320.76	50.87	-43.7	-46.5	23.4	6.04e-01	0	41	0	506986496	59	4816
2026-01-09 01:55:42.59	320.05	51.06	-43.6	-46.4	23.6	6.04e-01	0	41	0	509083648	58	5042
2026-01-09 01:55:43.60	319.33	51.24	-43.7	-46.4	23.6	6.03e-01	0	41	0	510656512	58	5059
2026-01-09 01:55:44.60	318.61	51.42	-44.1	-46.9	23.1	6.05e-01	0	41	0	512753664	58	5366
2026-01-09 01:55:45.60	317.87	51.60	-43.7	-46.6	23.3	6.06e-01	0	41	0	514326528	58	5188
2026-01-09 01:55:46.60	317.13	51.77	-43.3	-46.0	23.8	6.03e-01	0	41	0	516423680	58	4870
2026-01-09 01:55:47.60	316.38	51.94	-43.4	-46.2	23.7	6.04e-01	0	41	0	517996544	58	4949
2026-01-09 01:55:48.61	315.62	52.11	-43.4	-46.1	23.7	6.03e-01	0	41	0	520093696	58	4906
2026-01-09 01:55:49.61	314.85	52.27	-43.1	-45.7	24.0	6.05e-01	0	41	0	522190848	58	4694
2026-01-09 01:55:50.61	314.07	52.42	-42.8	-45.4	24.3	6.00e-01	0	41	0	523763712	57	4782
2026-01-09 01:55:51.61	313.29	52.57	-43.0	-45.6	24.3	6.05e-01	0	41	0	525860864	57	4872
2026-01-09 01:55:52.62	312.49	52.72	-43.3	-45.8	24.1	6.02e-01	0	41	0	527433728	58	4755
2026-01-09 01:55:53.62	311.69	52.86	-43.2	-45.8	24.1	6.06e-01	0	41	0	529530880	57	5027
2026-01-09 01:55:54.62	310.88	52.99	-43.3	-46.0	23.9	6.02e-01	0	41	0	531103744	57	5139
2026-01-09 01:55:55.63	310.06	53.12	-44.2	-47.2	22.8	6.03e-01	0	41	0	533200896	58	5578
2026-01-09 01:55:56.63	309.24	53.24	-44.0	-46.9	22.6	6.04e-01	0	41	0	535298048	58	5380
2026-01-09 01:55:57.75	308.31	53.37	-42.5	-44.9	24.4	6.04e-01	0	41	0	537395200	57	4533
2026-01-09 01:55:58.65	307.56	53.47	-42.9	-45.3	24.1	6.02e-01	0	41	0	538968064	57	4738
2026-01-09 01:55:59.68	306.69	53.58	-42.5	-44.9	24.8	6.05e-01	0	41	0	541065216	57	4497
2026-01-09 01:56:00.85	305.70	53.70	-44.0	-46.9	23.0	6.03e-01	0	41	0	543162368	58	5357
2026-01-09 01:56:01.74	304.94	53.78	-43.7	-46.6	23.3	6.08e-01	0	41	0	544735232	57	5474
2026-01-09 01:56:02.89	303.95	53.88	-43.8	-46.6	23.0	6.06e-01	0	41	0	546832384	58	5191
2026-01-09 01:56:03.75	303.20	53.95	-44.2	-46.9	23.5	6.05e-01	0	41	0	548405248	58	5365
2026-01-09 01:56:04.89	302.21	54.03	-44.2	-47.0	22.6	6.06e-01	0	41	0	550502400	59	5155
2026-01-09 01:56:05.76	301.45	54.09	-43.6	-46.3	23.6	6.03e-01	0	41	0	552075264	57	5336
2026-01-09 01:56:06.90	300.45	54.15	-43.7	-46.4	23.1	6.03e-01	0	41	0	554172416	59	4795
2026-01-09 01:56:07.76	299.69	54.20	-43.6	-46.3	23.2	6.05e-01	0	41	0	556269568	58	5020
2026-01-09 01:56:08.91	298.68	54.25	-43.2	-45.8	23.8	6.03e-01	0	41	0	558366720	57	5040
2026-01-09 01:56:09.77	297.91	54.29	-43.5	-46.3	23.5	6.04e-01	0	41	0	559939584	57	5328
2026-01-09 01:56:10.91	296.90	54.32	-43.4	-46.1	23.5	6.02e-01	0	41	0	562036736	58	4917
2026-01-09 01:56:11.77	296.13	54.34	-44.0	-46.9	22.9	6.04e-01	0	41	0	563609600	58	5360
2026-01-09 01:56:13.00	295.04	54.37	-43.4	-45.9	23.8	6.01e-01	0	41	0	565706752	58	4812
2026-01-09 01:56:13.86	294.27	54.38	-44.1	-47.0	22.8	6.02e-01	0	41	0	567279616	58	5425
2026-01-09 01:56:15.05	293.20	54.38	-43.2	-45.8	23.9	6.04e-01	0	41	0	569901056	58	4727
2026-01-09 01:56:15.91	292.43	54.38	-43.8	-46.6	23.3	6.06e-01	0	41	0	571473920	58	5192
2026-01-09 01:56:17.06	291.41	54.37	-43.5	-46.1	23.7	6.04e-01	0	41	0	573571072	58	4881
2026-01-09 01:56:17.92	290.64	54.35	-43.5	-46.1	23.8	6.05e-01	0	41	0	575143936	58	4882
2026-01-09 01:56:19.06	289.62	54.32	-43.5	-46.1	23.8	6.04e-01	0	41	0	577241088	58	4878
2026-01-09 01:56:19.93	288.85	54.30	-43.3	-45.8	24.0	6.01e-01	0	41	0	578813952	58	4754
2026-01-09 01:56:21.07	287.84	54.25	-43.8	-46.5	23.3	6.01e-01	0	41	0	580911104	58	5148
2026-01-09 01:56:22.04	286.98	54.21	-43.3	-45.8	24.0	6.04e-01	0	41	0	583008256	58	4738
2026-01-09 01:56:23.05	286.09	54.16	-43.5	-46.2	23.6	6.04e-01	0	41	0	584581120	58	4928
2026-01-09 01:56:24.05	285.21	54.10	-43.6	-46.2	23.6	6.03e-01	0	41	0	586678272	58	4951
2026-01-09 01:56:25.05	284.33	54.03	-43.8	-46.4	23.4	6.04e-01	0	41	0	588251136	58	5084
2026-01-09 01:56:26.06	283.45	53.96	-43.2	-45.7	24.1	6.02e-01	0	41	0	590348288	58	4699
2026-01-09 01:56:27.06	282.59	53.88	-43.2	-45.8	24.0	6.04e-01	0	41	0	592445440	58	4714
2026-01-09 01:56:28.06	281.73	53.80	-43.2	-45.8	24.0	6.05e-01	0	41	0	594018304	58	4725
2026-01-09 01:56:29.07	280.86	53.71	-43.4	-46.0	23.8	6.04e-01	0	41	0	596115456	58	4828
2026-01-09 01:56:30.07	280.01	53.61	-43.3	-45.9	23.9	6.03e-01	0	41	0	597688320	58	4779
2026-01-09 01:56:31.07	279.17	53.50	-43.0	-45.4	24.3	6.03e-01	0	41	0	599785472	57	4805
2026-01-09 01:56:32.07	278.33	53.39	-43.4	-46.0	23.8	6.02e-01	0	41	0	601358336	57	5150
2026-01-09 01:56:33.07	277.50	53.28	-43.1	-45.7	24.0	6.01e-01	0	41	0	603455488	57	4975
2026-01-09 01:56:34.16	276.60	53.15	-43.6	-46.4	23.4	6.02e-01	0	41	0	605552640	57	5380
2026-01-09 01:56:35.03	275.89	53.04	-43.1	-45.6	24.2	6.04e-01	0	41	0	607125504	57	4900
2026-01-09 01:56:36.18	274.95	52.88	-43.1	-45.6	24.3	6.05e-01	0	41	0	609222656	57	4879
2026-01-09 01:56:37.12	274.20	52.75	-43.2	-45.7	24.1	6.05e-01	0	41	0	610795520	57	4947
2026-01-09 01:56:38.30	273.26	52.58	-42.9	-45.4	24.3	6.03e-01	0	41	0	613416960	57	4765
2026-01-09 01:56:39.16	272.59	52.46	-43.0	-45.5	24.4	6.02e-01	0	41	0	614989824	57	4833
2026-01-09 01:56:40.51	271.54	52.25	-43.1	-45.7	24.1	6.05e-01	0	41	0	617611264	57	4959
2026-01-09 01:56:41.23	270.98	52.13	-43.2	-45.9	24.0	6.05e-01	0	41	0	618659840	57	5055
2026-01-09 01:56:42.52	270.00	51.92	-42.5	-44.8	24.8	6.03e-01	0	41	0	621281280	56	4757
2026-01-09 01:56:43.24	269.46	51.80	-43.0	-45.4	24.4	6.05e-01	0	41	0	622329856	56	5091
2026-01-09 01:56:44.53	268.50	51.58	-43.7	-46.3	23.6	6.05e-01	0	41	0	624951296	57	5315
2026-01-09 01:56:45.24	267.98	51.45	-43.2	-45.8	23.9	6.05e-01	0	41	0	626524160	58	4736
2026-01-09 01:56:46.53	267.05	51.22	-43.0	-45.5	24.3	6.03e-01	0	41	0	628621312	57	4868
2026-01-09 01:56:47.25	266.53	51.08	-43.0	-45.6	24.2	6.03e-01	0	41	0	630194176	57	4899
2026-01-09 01:56:48.54	265.62	50.84	-43.2	-45.8	24.0	6.04e-01	0	41	0	632291328	57	4991
2026-01-09 01:56:49.25	265.12	50.70	-43.4	-46.0	23.8	6.03e-01	0	41	0	633864192	57	5148
2026-01-09 01:56:50.59	264.20	50.44	-42.9	-45.4	24.4	6.05e-01	0	41	0	636485632	57	4772
2026-01-09 01:56:51.59	263.52	50.24	-43.3	-46.0	23.8	6.04e-01	0	41	0	638058496	57	5154
2026-01-09 01:56:52.59	262.85	50.03	-43.1	-45.7	23.9	6.04e-01	0	41	0	640155648	57	4966
2026-01-09 01:56:53.60	262.19	49.82	-43.2	-45.7	24.1	6.05e-01	0	41	0	641728512	57	4942
2026-01-09 01:56:54.60	261.54	49.61	-43.6	-46.3	23.5	6.03e-01	0	41	0	643825664	58	5006
2026-01-09 01:56:55.60	260.89	49.40	-42.9	-45.5	24.3	6.03e-01	0	41	0	645922816	57	4823
2026-01-09 01:56:57.05	259.98	49.09	-43.4	-46.3	23.5	6.04e-01	0	41	0	648544256	57	5308
2026-01-09 01:56:57.77	259.53	48.93	-43.3	-46.0	23.7	6.07e-01	0	41	0	649592832	57	5151
2026-01-09 01:56:59.06	258.74	48.64	-43.0	-45.5	24.3	6.04e-01	0	41	0	652214272	57	4861
2026-01-09 01:56:59.78	258.31	48.48	-43.3	-45.9	23.9	6.05e-01	0	41	0	653262848	57	5079
2026-01-09 01:57:01.06	257.55	48.19	-43.3	-46.0	23.8	6.03e-01	0	41	0	655884288	57	5137
2026-01-09 01:57:01.97	257.02	47.99	-43.1	-45.7	24.1	6.03e-01	0	41	0	657457152	57	4958
2026-01-09 01:57:02.97	256.44	47.76	-43.0	-45.6	24.0	6.02e-01	0	41	0	659554304	57	4918
2026-01-09 01:57:03.98	255.87	47.52	-43.0	-45.5	24.2	6.05e-01	0	41	0	661127168	57	4862
2026-01-09 01:57:04.98	255.31	47.29	-43.2	-45.8	24.0	6.03e-01	0	41	0	663224320	57	4985
2026-01-09 01:57:05.99	254.75	47.05	-43.3	-45.8	24.0	6.02e-01	0	41	0	665321472	57	5030
2026-01-09 01:57:06.99	254.21	46.81	-43.1	-45.7	24.1	6.05e-01	0	41	0	666894336	57	4964
2026-01-09 01:57:07.99	253.67	46.58	-42.7	-45.3	24.5	6.04e-01	0	41	0	668991488	57	4714
2026-01-09 01:57:08.99	253.15	46.34	-42.9	-45.5	24.2	6.03e-01	0	41	0	671088640	57	4823
2026-01-09 01:57:10.00	252.63	46.10	-43.2	-45.8	24.0	6.03e-01	0	41	0	672661504	57	5022
2026-01-09 01:57:11.00	252.12	45.85	-43.1	-45.7	24.1	6.04e-01	0	41	0	674758656	57	4930
2026-01-09 01:57:12.00	251.61	45.61	-42.8	-45.4	24.4	6.01e-01	0	41	0	676331520	57	4761
2026-01-09 01:57:13.01	251.12	45.37	-42.9	-45.4	24.3	6.01e-01	0	41	0	678428672	57	4811
2026-01-09 01:57:14.01	250.63	45.12	-42.9	-45.4	24.4	6.06e-01	0	41	0	680001536	57	4798
2026-01-09 01:57:15.01	250.15	44.88	-43.2	-45.7	24.1	6.05e-01	0	41	0	682098688	57	4943
2026-01-09 01:57:16.01	249.68	44.63	-43.2	-45.7	24.0	6.03e-01	0	41	0	684195840	57	4950
2026-01-09 01:57:17.01	249.22	44.39	-43.0	-45.5	24.3	6.06e-01	0	41	0	685768704	57	4827
2026-01-09 01:57:18.02	248.75	44.14	-43.2	-45.9	23.9	6.03e-01	0	41	0	687865856	57	5042
2026-01-09 01:57:19.02	248.30	43.89	-43.2	-45.9	23.9	6.06e-01	0	41	0	689438720	57	5060
2026-01-09 01:57:20.03	247.86	43.65	-43.2	-45.9	23.9	6.04e-01	0	41	0	691535872	57	5065
2026-01-09 01:57:21.03	247.42	43.40	-43.3	-46.0	23.8	6.04e-01	0	41	0	693108736	57	5110
2026-01-09 01:57:22.03	246.99	43.15	-43.9	-46.6	23.3	6.03e-01	0	41	0	695205888	58	5206
2026-01-09 01:57:23.04	246.57	42.90	-43.7	-46.3	23.6	6.05e-01	0	41	0	697303040	58	5009
2026-01-09 01:57:24.04	246.15	42.66	-44.0	-46.8	23.2	6.04e-01	0	41	0	698875904	58	5307
2026-01-09 01:57:25.04	245.74	42.41	-43.9	-46.7	23.2	6.06e-01	0	41	0	700973056	58	5253
2026-01-09 01:57:26.05	245.34	42.16	-43.8	-46.5	22.7	6.03e-01	0	41	0	703070208	58	5148
2026-01-09 01:57:27.05	244.94	41.91	-44.1	-46.8	23.1	6.06e-01	0	41	0	704643072	59	5020
2026-01-09 01:57:28.05	244.55	41.67	-44.0	-46.7	23.0	5.99e-01	0	41	0	706740224	59	4978
2026-01-09 01:57:29.06	244.16	41.42	-44.4	-47.3	22.6	6.05e-01	0	41	0	708313088	59	5322
2026-01-09 01:57:30.06	243.78	41.17	-43.9	-46.7	23.2	6.02e-01	0	41	0	710410240	59	4938
2026-01-09 01:57:31.06	243.41	40.93	-43.8	-46.6	23.2	6.02e-01	0	41	0	711983104	59	4885
2026-01-09 01:57:32.06	243.04	40.68	-44.1	-47.1	22.9	6.08e-01	0	41	0	714080256	59	5161
2026-01-09 01:57:33.07	242.68	40.43	-44.4	-47.4	22.4	6.07e-01	0	41	0	716177408	59	5387
2026-01-09 01:57:34.39	242.21	40.11	-44.2	-47.0	22.8	6.02e-01	0	41	0	718274560	59	5138
2026-01-09 01:57:35.10	241.96	39.94	-44.1	-46.9	23.0	6.03e-01	0	41	0	719847424	59	5048
2026-01-09 01:57:36.74	241.40	39.54	-44.5	-47.4	22.3	6.04e-01	0	41	0	722993152	60	5097
2026-01-09 01:57:37.32	241.21	39.40	-44.5	-47.4	22.4	6.03e-01	0	41	0	724041728	60	5053
2026-01-09 01:57:38.89	240.69	39.02	-44.5	-47.4	22.3	6.04e-01	0	41	0	726663168	60	5091
2026-01-09 01:57:39.50	240.49	38.88	-44.6	-47.6	22.2	6.04e-01	0	41	0	728236032	60	5176
2026-01-09 01:57:41.07	239.98	38.50	-44.7	-47.7	22.1	6.06e-01	0	41	0	730857472	60	5253
2026-01-09 01:57:41.82	239.75	38.32	-44.4	-47.3	22.4	6.03e-01	0	41	0	732430336	60	4988
2026-01-09 01:57:43.10	239.35	38.02	-44.7	-47.7	22.1	6.02e-01	0	41	0	735051776	60	5268
2026-01-09 01:57:43.82	239.13	37.85	-45.1	-48.3	21.6	6.03e-01	0	41	0	736100352	60	5631
2026-01-09 01:57:45.11	238.74	37.54	-44.7	-47.7	22.0	6.04e-01	0	41	0	738721792	61	4976
2026-01-09 01:57:45.83	238.53	37.37	-44.1	-46.8	22.9	6.05e-01	0	41	0	739770368	60	4755
2026-01-09 01:57:47.12	238.15	37.07	-44.4	-47.4	22.4	6.03e-01	0	41	0	742391808	60	5042
2026-01-09 01:57:47.84	237.94	36.90	-44.7	-47.8	22.0	6.05e-01	0	41	0	743440384	60	5292
2026-01-09 01:57:49.19	237.56	36.59	-44.5	-47.5	22.2	6.04e-01	0	41	0	746061824	60	5103
2026-01-09 01:57:49.91	237.36	36.42	-44.2	-47.1	22.7	6.06e-01	0	41	0	747634688	60	4899
2026-01-09 01:57:51.25	236.99	36.11	-44.4	-47.3	22.3	6.03e-01	0	41	0	750256128	60	5041
2026-01-09 01:57:51.96	236.80	35.95	-44.5	-47.5	22.2	6.03e-01	0	41	0	751304704	60	5149
2026-01-09 01:57:53.30	236.44	35.64	-44.1	-46.9	22.8	6.02e-01	0	41	0	753926144	59	5067
2026-01-09 01:57:54.29	236.18	35.42	-44.0	-46.7	23.1	6.05e-01	0	41	0	755499008	59	4983
2026-01-09 01:57:55.29	235.92	35.19	-44.3	-47.2	22.7	6.03e-01	0	41	0	757596160	59	5221
2026-01-09 01:57:56.29	235.66	34.97	-44.5	-47.5	22.4	6.03e-01	0	41	0	759693312	59	5435
2026-01-09 01:57:57.30	235.41	34.74	-44.0	-46.9	22.9	6.05e-01	0	41	0	761266176	59	5064
2026-01-09 01:57:58.30	235.16	34.52	-43.7	-46.4	23.4	6.01e-01	0	41	0	763363328	59	4772
2026-01-09 01:57:59.31	234.91	34.29	-43.8	-46.6	23.2	6.04e-01	0	41	0	764936192	59	4883
2026-01-09 01:58:00.31	234.67	34.07	-44.4	-47.3	22.5	6.06e-01	0	41	0	767033344	59	5325
2026-01-09 01:58:01.31	234.43	33.85	-44.5	-47.5	22.3	6.05e-01	0	41	0	769130496	59	5420
2026-01-09 01:58:02.36	234.19	33.63	-43.8	-46.6	23.2	6.04e-01	0	41	0	770703360	59	4906
2026-01-09 01:58:03.23	233.99	33.44	-43.7	-46.5	23.2	6.04e-01	0	41	0	772276224	59	4844
2026-01-09 01:58:04.60	233.67	33.14	-43.7	-46.5	23.3	6.04e-01	0	41	0	774897664	59	4842
2026-01-09 01:58:05.31	233.51	32.99	-43.8	-46.7	23.0	6.05e-01	0	41	0	776470528	59	4952
2026-01-09 01:58:06.60	233.23	32.71	-43.6	-46.3	23.5	6.00e-01	0	41	0	779091968	59	4755
2026-01-09 01:58:07.32	233.07	32.56	-43.5	-46.3	23.5	6.05e-01	0	41	0	780140544	59	4714
2026-01-09 01:58:08.61	232.79	32.29	-43.3	-46.0	23.8	6.06e-01	0	41	0	782761984	58	4839
2026-01-09 01:58:09.32	232.64	32.14	-43.4	-46.1	23.7	6.04e-01	0	41	0	783810560	58	4896
2026-01-09 01:58:10.61	232.37	31.87	-43.5	-46.3	23.4	6.04e-01	0	41	0	786432000	58	5033
2026-01-09 01:58:11.33	232.22	31.72	-43.3	-46.0	23.7	6.03e-01	0	41	0	787480576	58	4865
2026-01-09 01:58:12.62	231.96	31.45	-43.0	-45.7	24.1	6.03e-01	0	41	0	790102016	58	4674
2026-01-09 01:58:13.33	231.82	31.30	-43.0	-45.7	24.0	6.04e-01	0	41	0	791674880	58	4663
2026-01-09 01:58:14.62	231.56	31.04	-43.3	-46.1	23.7	6.01e-01	0	41	0	793772032	58	4881
2026-01-09 01:58:15.61	231.36	30.84	-43.5	-46.3	23.4	6.03e-01	0	41	0	795869184	58	5038
2026-01-09 01:58:16.61	231.17	30.64	-43.4	-46.3	23.4	6.06e-01	0	41	0	797442048	58	4987
2026-01-09 01:58:17.62	230.98	30.43	-43.2	-45.9	23.8	6.01e-01	0	41	0	799539200	58	4773
2026-01-09 01:58:18.62	230.79	30.23	-43.1	-45.7	24.0	6.09e-01	0	41	0	801112064	58	4668
2026-01-09 01:58:19.62	230.60	30.03	-43.2	-45.8	23.9	6.04e-01	0	41	0	803209216	58	4723
2026-01-09 01:58:20.62	230.42	29.84	-43.4	-46.0	23.8	6.03e-01	0	41	0	805306368	58	4834
2026-01-09 01:58:21.63	230.24	29.64	-43.3	-46.0	23.8	6.04e-01	0	41	0	806879232	58	4825
2026-01-09 01:58:22.62	230.06	29.44	-43.4	-46.1	23.6	6.02e-01	0	41	0	808976384	58	4905
2026-01-09 01:58:23.63	229.88	29.25	-43.3	-45.9	23.8	6.02e-01	0	41	0	810549248	58	4769
2026-01-09 01:58:24.71	229.69	29.04	-43.2	-45.8	23.9	6.02e-01	0	41	0	812646400	58	4727
2026-01-09 01:58:25.60	229.54	28.87	-43.2	-45.8	24.0	6.06e-01	0	41	0	814219264	58	4714
2026-01-09 01:58:26.93	229.31	28.62	-43.4	-46.1	23.7	6.04e-01	0	41	0	816840704	58	4891
2026-01-09 01:58:27.65	229.19	28.48	-43.5	-46.2	23.6	6.05e-01	0	41	0	818413568	58	4942
2026-01-09 01:58:29.16	228.94	28.19	-43.3	-46.0	23.7	6.05e-01	0	41	0	821035008	58	4842
2026-01-09 01:58:29.88	228.82	28.06	-43.1	-45.7	24.0	6.04e-01	0	41	0	822607872	58	4686
2026-01-09 01:58:31.17	228.61	27.82	-43.1	-45.6	24.0	6.03e-01	0	41	0	824705024	58	4638
2026-01-09 01:58:32.22	228.45	27.63	-43.1	-45.7	24.0	6.02e-01	0	41	0	826802176	58	4700
2026-01-09 01:58:33.08	228.31	27.47	-43.3	-46.0	23.7	6.04e-01	0	41	0	828375040	58	4834
2026-01-09 01:58:34.23	228.13	27.26	-43.7	-46.4	23.4	6.04e-01	0	41	0	830472192	58	5065
2026-01-09 01:58:35.09	228.00	27.10	-43.7	-46.4	23.4	6.04e-01	0	41	0	832045056	58	5054
2026-01-09 01:58:36.27	227.82	26.89	-43.6	-46.3	23.4	6.05e-01	0	41	0	834666496	58	5008
2026-01-09 01:58:37.13	227.69	26.74	-43.7	-46.4	23.3	6.06e-01	0	41	0	836239360	58	5061
2026-01-09 01:58:38.34	227.51	26.52	-43.6	-46.2	23.5	6.03e-01	0	41	0	838336512	58	4950
2026-01-09 01:58:39.20	227.39	26.37	-43.5	-46.2	23.5	6.05e-01	0	41	0	839909376	58	4943
2026-01-09 01:58:40.35	227.22	26.16	-43.6	-46.2	23.6	6.05e-01	0	41	0	842006528	58	4952
2026-01-09 01:58:41.21	227.10	26.01	-43.6	-46.2	23.5	6.03e-01	0	41	0	843579392	58	4983
2026-01-09 01:58:42.50	226.92	25.79	-43.7	-46.4	23.4	6.04e-01	0	41	0	846200832	58	5044
2026-01-09 01:58:43.22	226.82	25.67	-43.8	-46.5	23.2	6.04e-01	0	41	0	847249408	58	5127
2026-01-09 01:58:44.50	226.64	25.45	-43.8	-46.5	23.3	6.04e-01	0	41	0	849870848	58	5127
2026-01-09 01:58:45.22	226.54	25.32	-43.8	-46.5	23.2	6.05e-01	0	41	0	851443712	58	5143
2026-01-09 01:58:46.51	226.37	25.10	-43.8	-46.6	23.1	6.02e-01	0	41	0	853540864	58	5175
2026-01-09 01:58:47.23	226.27	24.98	-43.8	-46.6	23.2	6.03e-01	0	41	0	855113728	58	5164
2026-01-09 01:58:48.52	226.10	24.77	-43.7	-46.5	23.2	6.04e-01	0	41	0	857210880	58	5110
2026-01-09 01:58:49.24	226.01	24.65	-43.8	-46.5	23.2	6.03e-01	0	41	0	858783744	58	5132
2026-01-09 01:58:50.53	225.84	24.43	-43.8	-46.4	23.3	6.04e-01	0	41	0	861405184	58	5092
2026-01-09 01:58:51.25	225.75	24.31	-43.6	-46.3	23.4	6.04e-01	0	41	0	862453760	58	5010
2026-01-09 01:58:52.54	225.59	24.10	-43.6	-46.3	23.4	6.06e-01	0	41	0	865075200	58	5020
2026-01-09 01:58:53.25	225.50	23.99	-43.7	-46.4	23.3	6.03e-01	0	41	0	866123776	58	5068
2026-01-09 01:58:54.59	225.34	23.77	-43.9	-46.6	23.2	6.02e-01	0	41	0	868745216	58	5210
2026-01-09 01:58:55.30	225.25	23.65	-44.0	-46.8	23.0	6.01e-01	0	41	0	870318080	58	5287
2026-01-09 01:58:56.59	225.10	23.45	-44.2	-47.0	22.8	6.04e-01	0	41	0	872415232	58	5408
2026-01-09 01:58:57.31	225.01	23.33	-44.2	-47.0	22.8	6.03e-01	0	41	0	873988096	59	5133
2026-01-09 01:58:58.60	224.86	23.13	-44.2	-47.0	22.8	6.02e-01	0	41	0	876609536	59	5122
2026-01-09 01:58:59.69	224.73	22.96	-44.0	-46.8	22.9	6.04e-01	0	41	0	878182400	59	4999
2026-01-09 01:59:00.55	224.63	22.82	-43.8	-46.5	23.2	6.05e-01	0	41	0	879755264	59	4836
2026-01-09 01:59:01.69	224.50	22.65	-43.7	-46.4	23.3	6.03e-01	0	41	0	882376704	59	4771
2026-01-09 01:59:02.55	224.41	22.51	-43.7	-46.4	23.3	6.04e-01	0	41	0	883949568	59	4789
2026-01-09 01:59:03.70	224.28	22.34	-43.7	-46.3	23.4	6.01e-01	0	41	0	886046720	59	4750
2026-01-09 01:59:04.56	224.18	22.21	-43.7	-46.4	23.3	6.04e-01	0	41	0	887619584	59	4810
2026-01-09 01:59:05.71	224.06	22.03	-43.7	-46.4	23.3	6.05e-01	0	41	0	889716736	59	4784
2026-01-09 01:59:06.64	223.96	21.89	-43.8	-46.6	23.2	6.03e-01	0	41	0	891289600	59	4872
2026-01-09 01:59:07.81	223.83	21.72	-43.8	-46.5	23.2	6.03e-01	0	41	0	893386752	59	4839
2026-01-09 01:59:08.68	223.74	21.59	-43.8	-46.5	23.2	6.02e-01	0	41	0	894959616	59	4832
2026-01-09 01:59:10.01	223.60	21.39	-43.9	-46.6	23.1	6.03e-01	0	41	0	897581056	59	4910
2026-01-09 01:59:10.73	223.53	21.28	-44.0	-46.7	23.0	6.03e-01	0	41	0	899153920	59	4957
2026-01-09 01:59:12.24	223.37	21.06	-43.9	-46.7	23.0	6.06e-01	0	41	0	901775360	59	4965
2026-01-09 01:59:12.96	223.30	20.96	-43.9	-46.7	23.0	6.03e-01	0	41	0	903348224	59	4949
2026-01-09 01:59:14.25	223.17	20.77	-43.9	-46.7	23.0	6.01e-01	0	41	0	905445376	59	4936
2026-01-09 01:59:14.96	223.10	20.67	-44.0	-46.8	22.9	6.07e-01	0	41	0	907018240	59	4988
2026-01-09 01:59:16.25	222.97	20.49	-44.0	-46.7	22.9	6.06e-01	0	41	0	909639680	59	4974
2026-01-09 01:59:16.97	222.90	20.38	-44.0	-46.8	22.9	6.04e-01	0	41	0	910688256	59	5008
2026-01-09 01:59:18.26	222.78	20.20	-43.9	-46.7	23.0	6.04e-01	0	41	0	913309696	59	4939
2026-01-09 01:59:18.98	222.71	20.10	-43.9	-46.7	22.9	6.03e-01	0	41	0	914358272	59	4951
2026-01-09 01:59:20.26	222.59	19.92	-43.8	-46.6	23.1	6.04e-01	0	41	0	916979712	59	4887
2026-01-09 01:59:20.98	222.52	19.82	-43.9	-46.7	23.0	6.04e-01	0	41	0	918028288	59	4930
2026-01-09 01:59:22.27	222.40	19.64	-43.8	-46.6	23.2	6.04e-01	0	41	0	920649728	59	4881
2026-01-09 01:59:23.09	222.33	19.53	-43.9	-46.7	22.9	6.05e-01	0	41	0	922222592	59	4928
2026-01-09 01:59:24.61	222.19	19.32	-43.9	-46.7	23.1	6.04e-01	0	41	0	924844032	59	4962
2026-01-09 01:59:25.32	222.13	19.23	-43.7	-46.5	23.2	6.04e-01	0	41	0	926416896	59	4824
2026-01-09 01:59:26.62	222.01	19.05	-43.8	-46.6	23.1	6.04e-01	0	41	0	929038336	59	4912
2026-01-09 01:59:27.33	221.95	18.96	-43.8	-46.7	23.0	6.06e-01	0	41	0	930086912	59	4931
2026-01-09 01:59:28.62	221.84	18.78	-43.7	-46.6	23.1	6.05e-01	0	41	0	932708352	59	4875
2026-01-09 01:59:29.34	221.78	18.69	-43.8	-46.6	23.1	6.03e-01	0	41	0	933756928	59	4890
2026-01-09 01:59:30.63	221.67	18.52	-43.7	-46.5	23.1	6.04e-01	0	41	0	936378368	59	4838
2026-01-09 01:59:31.35	221.61	18.42	-43.6	-46.4	23.2	6.07e-01	0	41	0	937951232	59	4791
2026-01-09 01:59:32.64	221.50	18.26	-43.7	-46.4	23.2	6.06e-01	0	41	0	940048384	59	4806
2026-01-09 01:59:33.35	221.44	18.16	-43.6	-46.4	23.2	6.03e-01	0	41	0	941621248	59	4779
2026-01-09 01:59:34.64	221.33	18.00	-43.7	-46.5	23.1	6.03e-01	0	41	0	943718400	59	4849
2026-01-09 01:59:35.35	221.27	17.91	-43.7	-46.5	23.1	6.05e-01	0	41	0	945291264	59	4845
2026-01-09 01:59:36.70	221.17	17.73	-43.7	-46.6	23.0	6.04e-01	0	41	0	947912704	59	4903
2026-01-09 01:59:37.66	221.09	17.61	-43.9	-46.7	23.0	6.05e-01	0	41	0	949485568	59	4959
2026-01-09 01:59:38.99	220.98	17.44	-43.7	-46.5	23.1	6.07e-01	0	41	0	952107008	59	4859
2026-01-09 01:59:39.71	220.93	17.35	-43.7	-46.6	23.0	6.02e-01	0	41	0	953155584	59	4887
2026-01-09 01:59:40.99	220.83	17.19	-43.7	-46.6	23.1	6.04e-01	0	41	0	955777024	59	4898
2026-01-09 01:59:41.71	220.77	17.10	-43.7	-46.5	23.1	6.05e-01	0	41	0	957349888	59	4835
2026-01-09 01:59:43.00	220.68	16.94	-43.7	-46.6	23.0	6.04e-01	0	41	0	959447040	59	4904
2026-01-09 01:59:43.72	220.62	16.85	-43.6	-46.5	23.1	6.04e-01	0	41	0	961019904	59	4854
2026-01-09 01:59:45.05	220.52	16.69	-43.7	-46.6	22.9	6.03e-01	0	41	0	963641344	59	4915
2026-01-09 01:59:45.76	220.47	16.61	-43.8	-46.7	22.9	6.03e-01	0	41	0	964689920	59	4954
2026-01-09 01:59:47.05	220.37	16.45	-43.6	-46.5	23.0	6.05e-01	0	41	0	967311360	59	4861
2026-01-09 01:59:47.77	220.32	16.36	-43.7	-46.6	22.9	6.05e-01	0	41	0	968359936	59	4918
2026-01-09 01:59:49.06	220.23	16.21	-43.8	-46.8	22.8	6.06e-01	0	41	0	970981376	59	5005
2026-01-09 01:59:49.77	220.18	16.12	-43.7	-46.6	23.0	6.02e-01	0	41	0	972029952	59	4904
2026-01-09 01:59:51.06	220.09	15.97	-43.7	-46.6	22.9	6.03e-01	0	41	0	974651392	59	4909
2026-01-09 01:59:51.78	220.04	15.88	-43.7	-46.6	23.0	6.06e-01	0	41	0	976224256	59	4878
2026-01-09 01:59:53.07	219.95	15.73	-43.6	-46.4	23.1	6.05e-01	0	41	0	978321408	59	4814
2026-01-09 01:59:53.88	219.89	15.64	-43.8	-46.6	23.0	6.04e-01	0	41	0	979894272	59	4884
2026-01-09 01:59:55.03	219.81	15.50	-43.7	-46.6	23.0	6.05e-01	0	41	0	981991424	59	4886
2026-01-09 01:59:55.89	219.75	15.41	-43.7	-46.5	23.0	6.04e-01	0	41	0	983564288	59	4835
2026-01-09 01:59:57.04	219.68	15.27	-43.7	-46.5	23.0	6.06e-01	0	41	0	986185728	59	4833
2026-01-09 01:59:57.90	219.62	15.17	-43.7	-46.5	23.0	6.04e-01	0	41	0	987758592	59	4864
2026-01-09 01:59:59.04	219.54	15.04	-43.7	-46.6	23.0	6.06e-01	0	41	0	989855744	59	4875
2026-01-09 01:59:59.90	219.49	14.95	-43.7	-46.6	22.9	6.05e-01	0	42	0	991428608	59	4908
2026-01-09 02:00:01.05	219.41	14.82	-43.9	-46.8	22.8	6.04e-01	0	41	0	993525760	59	5016
2026-01-09 02:00:01.91	219.36	14.72	-43.7	-46.6	22.9	6.03e-01	0	41	0	995098624	59	4902
2026-01-09 02:00:03.06	219.28	14.59	-43.7	-46.7	22.9	6.05e-01	0	41	0	997195776	59	4927
2026-01-09 02:00:03.92	219.23	14.50	-43.8	-46.7	22.8	6.03e-01	0	41	0	998768640	59	4966
2026-01-09 02:00:05.06	219.16	14.37	-43.8	-46.7	22.8	6.09e-01	0	41	0	1000865792	59	4970
2026-01-09 02:00:05.92	219.10	14.27	-43.7	-46.7	22.8	6.06e-01	0	41	0	1002438656	59	4943
2026-01-09 02:00:07.07	219.03	14.15	-43.7	-46.7	22.8	6.04e-01	0	41	0	1004535808	59	4943
2026-01-09 02:00:07.93	218.98	14.05	-43.7	-46.6	22.9	6.06e-01	0	42	0	1006108672	59	4917
2026-01-09 02:00:09.08	218.91	13.93	-43.7	-46.6	22.9	6.05e-01	0	41	0	1008205824	59	4899
2026-01-09 02:00:09.94	218.86	13.84	-43.7	-46.6	22.9	6.02e-01	0	41	0	1010302976	59	4913
2026-01-09 02:00:11.09	218.79	13.71	-43.8	-46.7	22.9	6.03e-01	0	42	0	1012400128	59	4936
2026-01-09 02:00:11.95	218.74	13.62	-43.7	-46.6	22.9	6.04e-01	0	42	0	1013972992	59	4895
2026-01-09 02:00:13.09	218.67	13.50	-43.7	-46.6	22.8	6.03e-01	0	41	0	1016070144	59	4906
2026-01-09 02:00:13.95	218.62	13.41	-43.8	-46.7	22.8	6.06e-01	0	41	0	1017643008	59	4942
2026-01-09 02:00:15.10	218.55	13.28	-43.9	-46.8	22.6	6.01e-01	0	41	0	1019740160	59	5041
2026-01-09 02:00:15.96	218.51	13.19	-43.9	-46.8	22.6	6.04e-01	0	41	0	1021313024	59	5038
2026-01-09 02:00:17.10	218.44	13.07	-43.9	-46.9	22.7	6.06e-01	0	41	0	1023410176	59	5048
2026-01-09 02:00:18.06	218.39	12.97	-44.0	-47.1	22.4	6.05e-01	0	41	0	1025507328	59	5165
2026-01-09 02:00:19.06	218.33	12.87	-44.0	-47.1	22.4	6.05e-01	0	41	0	1027080192	59	5166
2026-01-09 02:00:20.06	218.27	12.77	-44.1	-47.2	22.3	6.05e-01	0	41	0	1029177344	59	5229
2026-01-09 02:00:21.07	218.22	12.66	-43.9	-47.1	22.4	6.05e-01	0	41	0	1030750208	59	5176
2026-01-09 02:00:22.39	218.15	12.53	-44.0	-47.0	22.4	6.03e-01	0	41	0	1033371648	59	5144
2026-01-09 02:00:23.11	218.11	12.45	-43.9	-47.0	22.4	6.03e-01	0	42	0	1034944512	59	5146
2026-01-09 02:00:24.75	218.02	12.29	-43.8	-46.9	22.5	6.05e-01	0	42	0	1038090240	59	5092
2026-01-09 02:00:25.32	217.99	12.23	-43.9	-47.0	22.4	6.04e-01	0	41	0	1039138816	59	5118
2026-01-09 02:00:26.91	217.90	12.07	-43.9	-47.0	22.5	6.06e-01	0	41	0	1041760256	59	5114
2026-01-09 02:00:27.49	217.87	12.01	-43.7	-46.9	22.5	6.02e-01	0	41	0	1042808832	59	5089
2026-01-09 02:00:29.09	217.79	11.85	-43.8	-46.9	22.5	6.04e-01	0	41	0	1045954560	59	5057
2026-01-09 02:00:29.76	217.76	11.79	-43.9	-46.9	22.5	6.03e-01	0	42	0	1047003136	59	5067
2026-01-09 02:00:31.19	217.68	11.65	-43.8	-46.8	22.5	6.04e-01	0	41	0	1050148864	59	5037
2026-01-09 02:00:31.91	217.65	11.58	-43.8	-46.8	22.6	6.03e-01	0	41	0	1051197440	59	5037
2026-01-09 02:00:33.20	217.58	11.45	-43.8	-46.8	22.6	6.03e-01	0	41	0	1053818880	59	5036
2026-01-09 02:00:34.07	217.54	11.37	-43.8	-46.8	22.5	6.05e-01	0	41	0	1055391744	59	5033
2026-01-09 02:00:35.54	217.47	11.22	-43.7	-46.9	22.5	6.03e-01	0	41	0	1058013184	59	5056
2026-01-09 02:00:36.25	217.43	11.15	-43.9	-47.0	22.4	6.04e-01	0	41	0	1059586048	59	5109
2026-01-09 02:00:37.54	217.37	11.03	-44.0	-47.1	22.3	6.03e-01	0	41	0	1061683200	59	5187
2026-01-09 02:00:38.26	217.33	10.96	-44.0	-47.0	22.4	6.04e-01	0	42	0	1063256064	59	5153
2026-01-09 02:00:39.55	217.27	10.84	-44.0	-47.1	22.3	6.05e-01	0	41	0	1065877504	59	5173
2026-01-09 02:00:40.27	217.24	10.77	-44.1	-47.2	22.2	6.05e-01	0	41	0	1066926080	59	5252
2026-01-09 02:00:41.56	217.18	10.65	-44.0	-47.3	22.1	6.03e-01	0	42	0	1069547520	59	5296
2026-01-09 02:00:42.27	217.14	10.58	-44.2	-47.4	22.0	6.03e-01	0	41	0	1070596096	59	5374
2026-01-09 02:00:43.56	217.08	10.46	-44.1	-47.3	22.1	6.03e-01	0	42	0	1073217536	59	5322
2026-01-09 02:00:44.28	217.05	10.39	-44.1	-47.4	22.0	6.03e-01	0	41	0	1074266112	59	5349
2026-01-09 02:00:45.57	216.99	10.27	-44.1	-47.4	22.0	6.05e-01	0	41	0	1076887552	59	5370
2026-01-09 02:00:46.29	216.96	10.21	-44.1	-47.4	22.0	6.04e-01	0	41	0	1078460416	59	5353
2026-01-09 02:00:47.58	216.90	10.09	-43.8	-47.2	22.1	6.06e-01	0	41	0	1080557568	59	5270
2026-01-09 02:00:48.29	216.87	10.02	-44.0	-47.3	22.0	6.05e-01	0	41	0	1082130432	59	5306
2026-01-09 02:00:49.59	216.81	9.91	-44.0	-47.3	22.0	6.03e-01	0	42	0	1084227584	59	5313
2026-01-09 02:00:50.30	216.78	9.84	-44.0	-47.4	21.9	6.04e-01	0	41	0	1085800448	59	5350
2026-01-09 02:00:51.59	216.72	9.72	-44.1	-47.5	21.9	6.03e-01	0	41	0	1088421888	59	5405
2026-01-09 02:00:52.31	216.69	9.66	-44.0	-47.4	21.9	6.04e-01	0	41	0	1089470464	59	5368
2026-01-09 02:00:53.60	216.63	9.54	-44.2	-47.5	21.8	6.05e-01	0	41	0	1092091904	59	5443
2026-01-09 02:00:54.31	216.60	9.48	-44.2	-47.5	21.8	6.06e-01	0	42	0	1093140480	59	5433
2026-01-09 02:00:55.60	216.55	9.36	-44.3	-47.6	21.7	6.04e-01	0	41	0	1095761920	59	5512
2026-01-09 02:00:56.40	216.51	9.29	-44.4	-47.7	21.6	6.03e-01	0	41	0	1097334784	59	5577
2026-01-09 02:00:57.55	216.46	9.19	-44.3	-47.5	21.8	6.06e-01	0	41	0	1099431936	59	5450
2026-01-09 02:00:58.40	216.43	9.12	-44.2	-47.5	21.8	6.05e-01	0	41	0	1101004800	59	5416
2026-01-09 02:00:59.55	216.38	9.01	-44.7	-48.3	21.2	6.04e-01	0	41	0	1103101952	60	5600
2026-01-09 02:01:00.41	216.34	8.94	-49.4	-69.9	3.7	7.49e-01	0	41	104	1103626240	69	40421
2026-01-09 02:01:01.56	216.30	8.84	-50.0	-70.6	3.8	7.49e-01	0	41	104	1103626240	71	39004
2026-01-09 02:01:02.42	216.26	8.76	-50.1	-70.7	3.8	7.43e-01	0	41	104	1103626240	71	39298
2026-01-09 02:01:03.58	216.22	8.66	-50.6	-70.9	3.8	7.51e-01	0	41	104	1103626240	72	37951
2026-01-09 02:01:04.44	216.18	8.59	-50.5	-70.9	3.8	7.49e-01	0	41	104	1103626240	72	38204
2026-01-09 02:01:05.65	216.13	8.49	-50.2	-71.0	3.8	7.50e-01	0	42	104	1103626240	72	38577
2026-01-09 02:01:06.52	216.10	8.41	-50.4	-71.0	3.8	7.46e-01	0	41	104	1103626240	72	38507
2026-01-09 02:01:07.73	216.05	8.31	-51.0	-71.1	3.8	7.49e-01	0	42	104	1103626240	72	38801
2026-01-09 02:01:08.59	216.02	8.23	-50.7	-71.1	3.8	7.45e-01	0	42	104	1103626240	71	41278
2026-01-09 02:01:09.74	215.97	8.14	-51.0	-71.1	3.8	7.45e-01	0	41	104	1103626240	72	38998
2026-01-09 02:01:10.60	215.94	8.06	-50.7	-71.1	3.8	7.47e-01	0	42	104	1103626240	72	39014
2026-01-09 02:01:11.74	215.90	7.97	-50.8	-71.1	3.8	7.46e-01	0	42	104	1103626240	72	39006
2026-01-09 02:01:12.61	215.86	7.90	-50.9	-71.1	3.8	7.46e-01	0	42	104	1103626240	72	38999
2026-01-09 02:01:13.76	215.82	7.80	-50.8	-71.1	3.8	7.48e-01	0	41	104	1103626240	72	38973
2026-01-09 02:01:14.61	215.79	7.73	-50.9	-71.1	3.8	7.47e-01	0	42	104	1103626240	72	38882
2026-01-09 02:01:15.76	215.74	7.63	-50.1	-71.1	3.8	7.48e-01	0	42	104	1103626240	72	38869
2026-01-09 02:01:16.62	215.71	7.56	-50.4	-71.1	3.8	7.45e-01	0	41	104	1103626240	71	41247
2026-01-09 02:01:17.77	215.67	7.47	-50.4	-71.1	3.8	7.46e-01	0	42	104	1103626240	72	38981
2026-01-09 02:01:18.63	215.64	7.40	-50.5	-71.1	3.8	7.45e-01	0	42	104	1103626240	72	38950
2026-01-09 02:01:19.78	215.60	7.30	-50.1	-71.1	3.8	7.47e-01	0	42	104	1103626240	72	38877
2026-01-09 02:01:20.64	215.57	7.23	-50.0	-71.1	3.8	7.46e-01	0	42	104	1103626240	72	38716
2026-01-09 02:01:21.79	215.52	7.14	-50.1	-71.1	3.8	7.47e-01	0	42	104	1103626240	71	41313
2026-01-09 02:01:22.65	215.49	7.07	-50.1	-71.1	3.8	7.45e-01	0	42	104	1103626240	71	41205
2026-01-09 02:01:23.80	215.45	6.98	-50.1	-71.1	3.8	7.46e-01	0	42	104	1103626240	71	41209
2026-01-09 02:01:24.66	215.42	6.91	-50.1	-71.1	3.8	7.44e-01	0	41	104	1103626240	71	41233
2026-01-09 02:01:25.81	215.38	6.82	-50.1	-71.1	3.8	7.46e-01	0	42	104	1103626240	71	41239
2026-01-09 02:01:26.67	215.35	6.75	-50.1	-71.1	3.8	7.44e-01	0	42	104	1103626240	71	41197
2026-01-09 02:01:27.82	215.31	6.66	-50.1	-71.1	3.8	7.46e-01	0	42	104	1103626240	71	41186
2026-01-09 02:01:28.68	215.28	6.59	-50.0	-71.1	3.8	7.45e-01	0	42	104	1103626240	71	41210
2026-01-09 02:01:29.82	215.24	6.50	-50.0	-71.1	3.8	7.44e-01	0	42	104	1103626240	71	41197
2026-01-09 02:01:30.69	215.22	6.43	-50.1	-71.1	3.8	7.49e-01	0	42	104	1103626240	71	41151
2026-01-09 02:01:31.83	215.18	6.34	-50.1	-71.1	3.8	7.48e-01	0	41	104	1103626240	71	41142
2026-01-09 02:01:32.69	215.15	6.27	-50.1	-71.1	3.8	7.50e-01	0	42	104	1103626240	71	41197
2026-01-09 02:01:33.84	215.11	6.18	-50.1	-71.1	3.8	7.45e-01	0	42	104	1103626240	71	41127
2026-01-09 02:01:34.70	215.08	6.12	-50.1	-71.1	3.8	7.44e-01	0	42	104	1103626240	71	41075
2026-01-09 02:01:35.85	215.04	6.03	-50.1	-71.1	3.8	7.43e-01	0	42	104	1103626240	71	41053
2026-01-09 02:01:36.71	215.02	5.96	-50.0	-71.1	3.8	7.44e-01	0	42	104	1103626240	71	41084
2026-01-09 02:01:37.86	214.98	5.87	-50.1	-71.1	3.8	7.45e-01	0	42	104	1103626240	71	41073
2026-01-09 02:01:38.72	214.95	5.81	-50.1	-71.1	3.8	7.45e-01	0	42	104	1103626240	71	41137
2026-01-09 02:01:39.87	214.91	5.72	-50.1	-71.1	3.8	7.44e-01	0	42	104	1103626240	71	41056
2026-01-09 02:01:40.73	214.89	5.65	-50.1	-71.1	3.8	7.45e-01	0	42	104	1103626240	71	41064
2026-01-09 02:01:41.88	214.85	5.57	-50.1	-71.1	3.8	7.46e-01	0	42	104	1103626240	71	41096
2026-01-09 02:01:42.74	214.82	5.50	-50.1	-71.1	3.8	7.44e-01	0	42	104	1103626240	71	41049
2026-01-09 02:01:43.89	214.79	5.41	-50.1	-71.1	3.8	7.47e-01	0	42	104	1103626240	71	41042
2026-01-09 02:01:44.75	214.76	5.35	-50.1	-71.1	3.8	7.42e-01	0	42	104	1103626240	71	41111
2026-01-09 02:01:45.89	214.73	5.26	-50.1	-71.1	3.8	7.44e-01	0	41	104	1103626240	71	40987
2026-01-09 02:01:46.75	214.70	5.20	-50.1	-71.1	3.8	7.46e-01	0	42	104	1103626240	71	41088
2026-01-09 02:01:47.90	214.66	5.11	-50.1	-71.1	3.8	7.45e-01	0	42	104	1103626240	71	41124
2026-01-09 02:01:48.76	214.64	5.05	-50.1	-71.1	3.8	7.50e-01	0	42	104	1103626240	71	41027
2026-01-09 02:01:49.91	214.60	4.96	-50.1	-71.0	3.8	7.48e-01	0	41	104	1103626240	71	40935

#Closed at: 2026-01-09 02:01:50
#Recorded file [1103 MB]: D:/Data/31040_260109_045040.dat