passes_logs/2026/01/09/T1/T1__20260109_220824_KHAYYAM_rec.log

#Pass ID: 20260109_220824_KHAYYAM
#Satellite: KHAYYAM
#Configuration: KHAYYAM_480M
#almurnet v.1.7.20251203
#Start time: 2026-01-09 22:08:26

#Version: 2.0.20230620
#Station: T1
#Location: 37.570604 lon 55.790049 lat
#TLE: 1 53370U 22096A   26009.31274807  .00006498  00000+0  26496-3 0  9992
#TLE: 2 53370  97.3557 276.4248 0001271  95.0973 265.0410 15.24779729190374

#Time	Az	El	Level	Level2	SNR	BER	BlckErr	Temp	State	Recorded	gain1	gain2
2026-01-09 22:08:26.84	2.93	5.15	-52.5	-57.0	3.4	0.00e+00	0	41	0	0	75	25713
2026-01-09 22:08:27.84	2.85	5.23	-51.7	-57.3	3.7	0.00e+00	0	42	104	0	74	28438
2026-01-09 22:08:28.84	2.77	5.30	-51.6	-57.3	3.7	0.00e+00	0	42	104	0	74	28439
2026-01-09 22:08:29.85	2.69	5.38	-51.7	-57.4	3.7	0.00e+00	0	42	104	0	74	28539
2026-01-09 22:08:30.85	2.62	5.46	-51.7	-57.4	3.7	0.00e+00	0	42	104	0	74	28589
2026-01-09 22:08:31.86	2.53	5.53	-51.7	-57.4	3.7	0.00e+00	0	42	104	0	74	28544
2026-01-09 22:08:32.86	2.45	5.61	-51.7	-57.4	3.7	0.00e+00	0	42	104	0	74	28752
2026-01-09 22:08:33.86	2.37	5.69	-51.7	-57.4	3.7	0.00e+00	0	42	104	0	74	28609
2026-01-09 22:08:34.87	2.29	5.77	-51.7	-57.4	3.7	0.00e+00	0	42	104	0	74	28568
2026-01-09 22:08:35.87	2.21	5.84	-51.7	-57.3	3.7	0.00e+00	0	43	104	0	74	28454
2026-01-09 22:08:36.87	2.12	5.92	-51.7	-57.4	3.7	0.00e+00	0	43	104	0	74	28706
2026-01-09 22:08:37.88	2.04	6.00	-51.7	-57.4	3.7	0.00e+00	0	43	104	0	74	28581
2026-01-09 22:08:38.89	1.95	6.08	-51.7	-57.4	3.7	0.00e+00	0	43	104	0	74	28642
2026-01-09 22:08:39.89	1.87	6.16	-51.7	-57.4	3.7	0.00e+00	0	43	104	0	74	28715
2026-01-09 22:08:40.89	1.78	6.24	-51.7	-57.3	3.7	0.00e+00	0	43	104	0	74	28462
2026-01-09 22:08:41.90	1.70	6.32	-51.7	-57.4	3.7	0.00e+00	0	43	104	0	74	28673
2026-01-09 22:08:42.90	1.61	6.40	-51.7	-57.4	3.7	0.00e+00	0	43	104	0	74	28621
2026-01-09 22:08:43.90	1.52	6.48	-51.7	-57.3	3.7	0.00e+00	0	43	104	0	74	28470
2026-01-09 22:08:44.91	1.43	6.56	-51.7	-57.4	3.7	0.00e+00	0	43	104	0	74	28574
2026-01-09 22:08:45.91	1.34	6.64	-51.7	-57.4	3.7	0.00e+00	0	43	104	0	74	28657
2026-01-09 22:08:46.92	1.25	6.72	-51.7	-57.4	3.7	0.00e+00	0	43	104	0	74	28668
2026-01-09 22:08:47.92	1.16	6.80	-51.7	-57.4	3.7	0.00e+00	0	43	104	0	74	28666
2026-01-09 22:08:48.92	1.07	6.89	-51.8	-57.5	3.7	0.00e+00	0	43	104	0	74	28922
2026-01-09 22:08:49.93	0.98	6.97	-51.7	-57.4	3.7	0.00e+00	0	44	104	0	74	28703
2026-01-09 22:08:50.93	0.89	7.05	-51.7	-57.4	3.7	0.00e+00	0	43	104	0	74	28694
2026-01-09 22:08:51.94	0.79	7.13	-51.7	-57.4	3.7	0.00e+00	0	44	104	0	74	28720
2026-01-09 22:08:52.94	0.70	7.22	-51.7	-57.4	3.7	0.00e+00	0	44	104	0	74	28738
2026-01-09 22:08:53.95	0.60	7.30	-51.8	-57.5	3.7	0.00e+00	0	44	104	0	74	28829
2026-01-09 22:08:54.95	0.51	7.38	-51.7	-57.4	3.7	0.00e+00	0	44	104	0	74	28804
2026-01-09 22:08:55.95	0.41	7.47	-51.7	-57.4	3.7	0.00e+00	0	44	104	0	74	28705
2026-01-09 22:08:56.96	0.32	7.55	-51.7	-57.4	3.7	0.00e+00	0	44	104	0	74	28761
2026-01-09 22:08:57.96	0.22	7.64	-51.7	-57.4	3.7	0.00e+00	0	44	104	0	74	28714
2026-01-09 22:08:58.97	0.12	7.72	-51.7	-57.4	3.7	0.00e+00	0	44	104	0	74	28771
2026-01-09 22:08:59.97	0.02	7.81	-51.7	-57.4	3.7	0.00e+00	0	44	104	0	74	28629
2026-01-09 22:09:00.97	359.92	7.89	-51.7	-57.4	3.7	0.00e+00	0	44	104	0	74	28629
2026-01-09 22:09:01.98	359.82	7.98	-51.8	-57.4	3.7	0.00e+00	0	44	104	0	74	28790
2026-01-09 22:09:02.98	359.72	8.07	-51.7	-57.4	3.7	0.00e+00	0	44	104	0	74	28678
2026-01-09 22:09:03.99	359.62	8.15	-51.8	-57.5	3.7	0.00e+00	0	44	104	0	74	28821
2026-01-09 22:09:04.99	359.51	8.24	-51.7	-57.4	3.7	0.00e+00	0	44	104	0	74	28710
2026-01-09 22:09:06.00	359.41	8.33	-51.7	-57.4	3.7	0.00e+00	0	44	104	0	74	28671
2026-01-09 22:09:07.00	359.31	8.41	-51.8	-57.4	3.7	0.00e+00	0	44	104	0	74	28748
2026-01-09 22:09:08.01	359.20	8.50	-51.7	-57.4	3.7	0.00e+00	0	44	104	0	74	28767
2026-01-09 22:09:09.01	359.09	8.59	-51.8	-57.4	3.7	0.00e+00	0	44	104	0	74	28797
2026-01-09 22:09:10.02	358.99	8.68	-51.7	-57.4	3.7	0.00e+00	0	44	104	0	74	28637
2026-01-09 22:09:11.02	358.88	8.77	-51.8	-57.4	3.7	0.00e+00	0	44	104	0	74	28720
2026-01-09 22:09:12.02	358.77	8.86	-51.7	-57.4	3.7	0.00e+00	0	45	104	0	74	28798
2026-01-09 22:09:13.03	358.66	8.95	-51.7	-57.4	3.7	0.00e+00	0	45	104	0	74	28612
2026-01-09 22:09:14.03	358.55	9.04	-51.8	-57.4	3.7	0.00e+00	0	44	104	0	74	28670
2026-01-09 22:09:15.04	358.44	9.13	-52.2	-57.6	3.7	0.00e+00	0	45	104	0	75	27829
2026-01-09 22:09:16.04	358.33	9.22	-51.0	-55.6	3.7	0.00e+00	0	45	104	0	73	24714
2026-01-09 22:09:17.04	358.21	9.31	-51.7	-57.3	3.7	0.00e+00	0	45	104	0	74	28290
2026-01-09 22:09:18.05	358.10	9.40	-50.8	-56.7	3.7	0.00e+00	0	45	104	0	73	27943
2026-01-09 22:09:19.05	357.98	9.49	-50.2	-56.3	3.7	0.00e+00	0	45	104	0	72	28217
2026-01-09 22:09:20.06	357.87	9.58	-50.4	-56.5	3.7	0.00e+00	0	45	104	0	72	28822
2026-01-09 22:09:21.09	357.75	9.68	-50.2	-56.3	3.7	0.00e+00	0	45	104	0	71	30056
2026-01-09 22:09:22.09	357.63	9.77	-50.6	-56.6	3.7	0.00e+00	0	45	104	0	71	31017
2026-01-09 22:09:23.15	357.50	9.87	-50.8	-56.7	3.7	0.00e+00	0	45	104	0	72	29670
2026-01-09 22:09:24.04	357.40	9.95	-51.1	-57.0	3.7	0.00e+00	0	45	104	0	72	30576
2026-01-09 22:09:25.18	357.26	10.06	-51.3	-57.1	3.7	0.00e+00	0	45	104	0	73	29283
2026-01-09 22:09:26.11	357.15	10.15	-48.9	-55.6	3.8	0.00e+00	0	45	104	0	69	31121
2026-01-09 22:09:27.29	357.00	10.26	-48.5	-55.4	3.8	0.00e+00	0	45	104	0	68	32208
2026-01-09 22:09:28.15	356.90	10.34	-48.9	-55.7	3.8	0.00e+00	0	45	104	0	68	33320
2026-01-09 22:09:29.50	356.73	10.47	-48.4	-55.3	3.8	0.00e+00	0	45	104	0	68	31690
2026-01-09 22:09:30.22	356.64	10.54	-48.1	-55.1	3.9	0.00e+00	0	45	104	0	68	30988
2026-01-09 22:09:31.51	356.48	10.66	-48.2	-55.1	3.8	0.00e+00	0	46	104	0	68	31194
2026-01-09 22:09:32.23	356.38	10.73	-48.1	-55.0	3.9	0.00e+00	0	45	104	0	68	30844
2026-01-09 22:09:33.52	356.22	10.86	-47.7	-54.7	3.9	0.00e+00	0	45	104	0	67	31326
2026-01-09 22:09:34.23	356.12	10.92	-47.6	-54.5	3.9	0.00e+00	0	45	104	0	67	30864
2026-01-09 22:09:35.52	355.96	11.05	-48.5	-55.2	3.8	0.00e+00	0	45	104	0	67	33289
2026-01-09 22:09:36.24	355.86	11.12	-50.6	-56.8	3.7	0.00e+00	0	45	104	0	73	28339
2026-01-09 22:09:37.53	355.69	11.25	-47.3	-54.3	4.0	0.00e+00	0	45	104	0	66	31953
2026-01-09 22:09:38.25	355.59	11.32	-47.3	-54.3	3.9	0.00e+00	0	45	104	0	66	31683
2026-01-09 22:09:39.55	355.42	11.45	-47.5	-54.5	4.0	0.00e+00	0	46	104	0	66	32387
2026-01-09 22:09:40.27	355.32	11.52	-47.5	-54.4	4.0	0.00e+00	0	45	104	0	66	32196
2026-01-09 22:09:41.56	355.14	11.65	-47.8	-54.6	3.9	0.00e+00	0	45	104	0	66	32901
2026-01-09 22:09:42.27	355.04	11.72	-48.1	-55.0	3.9	0.00e+00	0	45	104	0	66	34375
2026-01-09 22:09:43.57	354.86	11.85	-49.4	-56.0	3.8	0.00e+00	0	46	104	0	69	32536
2026-01-09 22:09:44.28	354.76	11.92	-49.5	-56.1	3.7	0.00e+00	0	45	104	0	71	29373
2026-01-09 22:09:45.76	354.55	12.07	-46.8	-53.6	4.0	0.00e+00	0	46	104	0	65	31136
2026-01-09 22:09:46.48	354.44	12.15	-46.7	-53.6	4.0	0.00e+00	0	46	104	0	65	31041
2026-01-09 22:09:47.78	354.25	12.28	-46.8	-53.7	4.0	0.00e+00	0	45	104	0	65	31413
2026-01-09 22:09:48.49	354.15	12.35	-46.9	-53.7	3.9	0.00e+00	0	46	104	0	65	31323
2026-01-09 22:09:49.78	353.96	12.49	-47.2	-54.0	4.0	0.00e+00	0	46	104	0	65	32447
2026-01-09 22:09:50.50	353.85	12.56	-47.8	-54.5	3.9	0.00e+00	0	46	104	0	66	32613
2026-01-09 22:09:51.79	353.66	12.70	-48.8	-55.3	3.8	0.00e+00	0	46	104	0	68	31887
2026-01-09 22:09:52.50	353.55	12.77	-49.0	-55.5	3.8	0.00e+00	0	46	104	0	68	32464
2026-01-09 22:09:53.79	353.35	12.91	-53.3	-59.0	3.7	0.00e+00	0	46	104	0	77	29090
2026-01-09 22:09:54.51	353.24	12.98	-53.3	-58.8	3.7	0.00e+00	0	46	104	0	77	28211
2026-01-09 22:09:55.80	353.04	13.12	-50.0	-56.3	3.7	0.00e+00	0	46	104	0	72	28213
2026-01-09 22:09:56.51	352.92	13.19	-51.2	-57.2	3.7	0.00e+00	0	46	104	0	73	29517
2026-01-09 22:09:57.80	352.72	13.33	-53.3	-58.8	3.7	0.00e+00	0	46	104	0	77	28479
2026-01-09 22:09:58.52	352.60	13.41	-53.4	-58.8	3.7	0.00e+00	0	46	104	0	77	28478
2026-01-09 22:09:59.83	352.39	13.55	-53.1	-58.5	3.7	0.00e+00	0	46	104	0	77	27241
2026-01-09 22:10:00.55	352.27	13.63	-53.3	-58.8	3.7	0.00e+00	0	46	104	0	77	28342
2026-01-09 22:10:01.83	352.06	13.77	-52.7	-58.2	3.7	0.00e+00	0	46	104	0	77	26535
2026-01-09 22:10:02.55	351.94	13.85	-53.0	-58.3	3.7	0.00e+00	0	46	104	0	77	26595
2026-01-09 22:10:03.84	351.73	13.99	-53.9	-58.9	3.7	0.00e+00	0	46	104	0	78	27194
2026-01-09 22:10:04.56	351.61	14.07	-52.6	-58.2	3.7	0.00e+00	0	46	104	0	77	26303
2026-01-09 22:10:05.84	351.39	14.21	-52.3	-58.0	3.7	0.00e+00	0	46	104	0	76	27435
2026-01-09 22:10:06.56	351.26	14.29	-52.9	-58.3	3.7	0.00e+00	0	46	104	0	76	28436
2026-01-09 22:10:07.85	351.04	14.43	-53.5	-58.8	3.7	0.00e+00	0	46	104	0	77	28256
2026-01-09 22:10:08.62	350.90	14.52	-53.9	-59.0	3.7	0.00e+00	0	46	104	0	78	27467
2026-01-09 22:10:09.91	350.67	14.66	-54.2	-59.2	3.7	0.00e+00	0	46	104	0	79	26496
2026-01-09 22:10:10.62	350.55	14.74	-54.2	-59.4	3.7	0.00e+00	0	46	104	0	79	26911
2026-01-09 22:10:11.91	350.31	14.89	-54.2	-59.3	3.7	0.00e+00	0	46	104	0	79	26779
2026-01-09 22:10:12.63	350.18	14.97	-54.1	-59.3	3.7	0.00e+00	0	46	104	0	79	26812
2026-01-09 22:10:13.92	349.94	15.12	-54.3	-59.4	3.7	0.00e+00	0	46	104	0	79	27105
2026-01-09 22:10:14.64	349.81	15.20	-54.1	-59.3	3.7	0.00e+00	0	46	104	0	79	26616
2026-01-09 22:10:15.92	349.57	15.34	-54.1	-59.4	3.7	0.00e+00	0	46	104	0	79	27000
2026-01-09 22:10:16.64	349.43	15.43	-53.8	-59.3	3.7	0.00e+00	0	46	104	0	79	26643
2026-01-09 22:10:18.03	349.17	15.59	-53.7	-58.6	3.7	0.00e+00	0	46	104	0	79	24668
2026-01-09 22:10:18.74	349.03	15.67	-53.8	-59.0	3.7	0.00e+00	0	46	104	0	79	25851
2026-01-09 22:10:20.18	348.75	15.84	-54.0	-59.3	3.7	0.00e+00	0	46	104	0	79	26802
2026-01-09 22:10:20.89	348.61	15.92	-53.9	-59.2	3.7	0.00e+00	0	46	104	0	79	26380
2026-01-09 22:10:22.18	348.35	16.07	-53.5	-58.8	3.7	0.00e+00	0	46	104	0	79	25346
2026-01-09 22:10:22.90	348.21	16.16	-53.3	-58.6	3.7	0.00e+00	0	46	104	0	78	26234
2026-01-09 22:10:24.19	347.95	16.31	-53.1	-58.7	3.7	0.00e+00	0	46	104	0	78	26332
2026-01-09 22:10:24.91	347.80	16.40	-51.4	-57.3	3.7	0.00e+00	0	46	104	0	74	28357
2026-01-09 22:10:26.20	347.53	16.55	-51.1	-57.2	3.7	0.00e+00	0	46	104	0	74	27880
2026-01-09 22:10:26.96	347.37	16.64	-51.2	-57.1	3.7	0.00e+00	0	46	104	0	74	27736
2026-01-09 22:10:28.25	347.10	16.80	-51.0	-57.1	3.7	0.00e+00	0	46	104	0	74	27636
2026-01-09 22:10:28.97	346.95	16.88	-51.0	-57.1	3.7	0.00e+00	0	46	104	0	74	27694
2026-01-09 22:10:30.26	346.67	17.04	-51.1	-57.1	3.7	0.00e+00	0	46	104	0	74	27808
2026-01-09 22:10:31.10	346.49	17.14	-51.3	-57.2	3.7	0.00e+00	0	46	104	0	74	28148
2026-01-09 22:10:32.25	346.24	17.28	-51.4	-57.2	3.7	0.00e+00	0	46	104	0	74	27881
2026-01-09 22:10:33.11	346.05	17.39	-51.2	-56.5	3.7	0.00e+00	0	46	104	0	74	25753
2026-01-09 22:10:34.26	345.79	17.53	-51.2	-56.6	3.7	0.00e+00	0	46	104	0	74	26185
2026-01-09 22:10:35.42	345.53	17.67	-51.4	-56.8	3.7	0.00e+00	0	46	104	0	74	26739
2026-01-09 22:10:36.28	345.33	17.78	-51.3	-56.6	3.7	0.00e+00	0	46	104	0	74	26260
2026-01-09 22:10:37.43	345.07	17.92	-51.7	-56.9	3.7	0.00e+00	0	46	104	0	74	27087
2026-01-09 22:10:38.29	344.87	18.03	-52.4	-57.3	3.7	0.00e+00	0	46	104	0	75	26873
2026-01-09 22:10:39.44	344.60	18.17	-53.3	-57.8	3.7	0.00e+00	0	46	104	0	77	25300
2026-01-09 22:10:40.29	344.39	18.28	-53.8	-58.3	3.7	0.00e+00	0	46	104	0	78	25186
2026-01-09 22:10:41.44	344.12	18.42	-54.0	-58.7	3.7	0.00e+00	0	46	104	0	78	26385
2026-01-09 22:10:42.30	343.91	18.53	-53.9	-58.6	3.7	0.00e+00	0	46	104	0	78	26216
2026-01-09 22:10:43.45	343.63	18.67	-54.4	-58.8	3.7	0.00e+00	0	46	104	0	79	25308
2026-01-09 22:10:44.31	343.42	18.78	-54.4	-58.8	3.7	0.00e+00	0	46	104	0	79	25249
2026-01-09 22:10:45.45	343.13	18.93	-54.3	-58.7	3.7	0.00e+00	0	46	104	0	79	24852
2026-01-09 22:10:46.31	342.92	19.04	-53.3	-58.1	3.7	0.00e+00	0	46	104	0	78	24585
2026-01-09 22:10:47.62	342.58	19.20	-52.7	-58.3	3.7	0.00e+00	0	46	104	0	77	26615
2026-01-09 22:10:48.33	342.40	19.29	-52.3	-57.9	3.7	0.00e+00	0	46	104	0	76	27117
2026-01-09 22:10:49.62	342.07	19.46	-52.3	-58.0	3.7	0.00e+00	0	46	104	0	76	27221
2026-01-09 22:10:50.34	341.88	19.55	-52.6	-58.1	3.7	0.00e+00	0	46	104	0	76	27723
2026-01-09 22:10:51.62	341.54	19.72	-53.7	-58.8	3.7	0.00e+00	0	46	104	0	78	26669
2026-01-09 22:10:52.34	341.35	19.81	-54.0	-59.0	3.7	0.00e+00	0	46	104	0	78	27394
2026-01-09 22:10:53.63	341.00	19.98	-52.3	-58.0	3.7	0.00e+00	0	46	104	0	76	27296
2026-01-09 22:10:54.46	340.77	20.08	-52.0	-57.7	3.7	0.00e+00	0	47	104	0	75	28151
2026-01-09 22:10:55.60	340.46	20.23	-51.4	-57.2	3.7	0.00e+00	0	47	104	0	74	28152
2026-01-09 22:10:56.46	340.22	20.34	-52.5	-58.1	3.7	0.00e+00	0	47	104	0	75	29413
2026-01-09 22:10:57.61	339.90	20.49	-52.7	-58.2	3.7	0.00e+00	0	46	104	0	77	26443
2026-01-09 22:10:58.74	339.58	20.64	-53.5	-58.8	3.7	0.00e+00	0	47	104	0	77	28304
2026-01-09 22:10:59.60	339.33	20.75	-54.1	-59.2	3.7	0.00e+00	0	46	104	0	78	27948
2026-01-09 22:11:01.10	338.89	20.95	-53.5	-58.7	3.7	0.00e+00	0	47	104	0	78	26500
2026-01-09 22:11:01.81	338.69	21.04	-53.1	-58.4	3.7	0.00e+00	0	47	104	0	78	25524
2026-01-09 22:11:03.10	338.30	21.21	-52.8	-58.1	3.7	0.00e+00	0	46	104	0	77	26250
2026-01-09 22:11:03.82	338.09	21.31	-53.5	-58.7	3.7	0.00e+00	0	47	104	0	77	27976
2026-01-09 22:11:05.11	337.70	21.48	-53.9	-59.0	3.7	0.00e+00	0	46	104	0	78	27265
2026-01-09 22:11:05.88	337.46	21.58	-53.2	-58.5	3.7	0.00e+00	0	46	104	0	78	25719
2026-01-09 22:11:07.16	337.07	21.75	-53.2	-58.3	3.7	0.00e+00	0	47	104	0	78	25364
2026-01-09 22:11:07.98	336.81	21.85	-53.6	-58.8	3.7	0.00e+00	0	46	104	0	78	26586
2026-01-09 22:11:09.12	336.46	22.00	-53.6	-58.5	3.7	0.00e+00	0	47	104	0	78	25944
2026-01-09 22:11:10.22	336.11	22.15	-54.0	-58.9	3.7	0.00e+00	0	46	104	0	78	26965
2026-01-09 22:11:11.26	335.77	22.29	-54.2	-59.1	3.7	0.00e+00	0	46	104	0	79	26009
2026-01-09 22:11:12.26	335.45	22.42	-54.2	-59.1	3.7	0.00e+00	0	46	104	0	79	26022
2026-01-09 22:11:13.26	335.12	22.55	-54.1	-58.9	3.7	0.00e+00	0	47	104	0	79	25678
2026-01-09 22:11:14.26	334.79	22.68	-53.8	-58.7	3.7	0.00e+00	0	46	104	0	79	25059
2026-01-09 22:11:15.27	334.45	22.81	-53.9	-58.9	3.7	0.00e+00	0	47	104	0	79	25527
2026-01-09 22:11:16.27	334.11	22.95	-54.0	-58.9	3.7	0.00e+00	0	46	104	0	79	25622
2026-01-09 22:11:17.27	333.77	23.08	-53.7	-58.7	3.7	0.00e+00	0	47	104	0	79	24909
2026-01-09 22:11:18.28	333.43	23.21	-53.7	-58.7	3.7	0.00e+00	0	46	104	0	79	24895
2026-01-09 22:11:19.27	333.08	23.34	-53.7	-58.8	3.7	0.00e+00	0	47	104	0	79	25230
2026-01-09 22:11:20.28	332.73	23.47	-53.5	-58.6	3.7	0.00e+00	0	47	104	0	79	24657
2026-01-09 22:11:21.28	332.38	23.60	-54.1	-59.1	3.7	0.00e+00	0	47	104	0	79	26142
2026-01-09 22:11:22.30	332.01	23.74	-54.1	-58.9	3.7	0.00e+00	0	47	104	0	79	25640
2026-01-09 22:11:23.31	331.65	23.87	-53.4	-58.6	3.7	0.00e+00	0	47	104	0	78	26064
2026-01-09 22:11:24.36	331.26	24.00	-53.6	-58.7	3.7	0.00e+00	0	46	104	0	78	26452
2026-01-09 22:11:25.27	330.93	24.12	-53.3	-58.5	3.7	0.00e+00	0	47	104	0	78	25864
2026-01-09 22:11:26.28	330.56	24.25	-53.2	-58.5	3.7	0.00e+00	0	47	104	0	78	25801
2026-01-09 22:11:27.28	330.18	24.38	-54.0	-59.0	3.7	0.00e+00	0	47	104	0	78	27504
2026-01-09 22:11:28.29	329.80	24.51	-54.1	-59.1	3.7	0.00e+00	0	46	104	0	78	27623
2026-01-09 22:11:29.29	329.42	24.64	-52.4	-58.0	3.7	0.00e+00	0	47	104	0	76	27302
2026-01-09 22:11:30.30	329.03	24.77	-52.3	-58.0	3.7	0.00e+00	0	46	104	0	76	27361
2026-01-09 22:11:31.30	328.64	24.89	-52.9	-58.2	3.7	0.00e+00	0	47	104	0	76	28037
2026-01-09 22:11:32.30	328.25	25.02	-52.4	-57.9	3.7	0.00e+00	0	47	104	0	76	27150
2026-01-09 22:11:33.31	327.85	25.14	-53.9	-58.6	3.7	0.00e+00	0	47	104	0	78	26244
2026-01-09 22:11:34.31	327.45	25.27	-54.0	-58.7	3.7	0.00e+00	0	47	104	0	78	26542
2026-01-09 22:11:35.31	327.05	25.39	-53.9	-58.6	3.7	0.00e+00	0	47	104	0	78	26164
2026-01-09 22:11:36.32	326.64	25.52	-53.9	-58.6	3.7	0.00e+00	0	47	104	0	78	26053
2026-01-09 22:11:37.32	326.23	25.64	-53.9	-58.9	3.7	0.00e+00	0	47	104	0	78	26937
2026-01-09 22:11:38.36	325.80	25.77	-53.9	-58.9	3.7	0.00e+00	0	47	104	0	78	27065
2026-01-09 22:11:39.39	325.37	25.89	-53.3	-58.5	3.7	0.00e+00	0	47	104	0	78	25704
2026-01-09 22:11:40.39	324.95	26.01	-53.2	-58.4	3.7	0.00e+00	0	47	104	0	78	25658
2026-01-09 22:11:41.45	324.50	26.14	-53.2	-58.4	3.7	0.00e+00	0	47	104	0	78	25619
2026-01-09 22:11:42.35	324.12	26.25	-53.4	-58.5	3.7	0.00e+00	0	47	104	0	78	25708
2026-01-09 22:11:43.49	323.62	26.38	-53.5	-58.5	3.7	0.00e+00	0	47	104	0	78	25957
2026-01-09 22:11:44.43	323.21	26.49	-53.6	-58.5	3.7	0.00e+00	0	47	104	0	78	25860
2026-01-09 22:11:45.43	322.78	26.60	-53.8	-58.4	3.7	0.00e+00	0	47	104	0	78	25493
2026-01-09 22:11:46.43	322.33	26.72	-53.5	-58.0	3.7	0.00e+00	0	47	104	0	78	24335
2026-01-09 22:11:47.44	321.88	26.83	-53.5	-58.0	3.7	0.00e+00	0	47	104	0	78	24409
2026-01-09 22:11:48.44	321.43	26.94	-53.5	-58.1	3.7	0.00e+00	0	47	104	0	78	24561
2026-01-09 22:11:49.44	320.98	27.06	-53.3	-57.7	3.7	0.00e+00	0	47	104	0	78	23677
2026-01-09 22:11:50.44	320.53	27.16	-53.4	-57.6	3.7	0.00e+00	0	47	104	0	78	23175
2026-01-09 22:11:51.44	320.07	27.27	-53.3	-57.7	3.7	0.00e+00	0	47	104	0	78	23431
2026-01-09 22:11:52.44	319.60	27.38	-53.4	-57.8	3.7	0.00e+00	0	47	104	0	78	23708
2026-01-09 22:11:53.45	319.13	27.48	-53.4	-57.8	3.7	0.00e+00	0	47	104	0	78	23895
2026-01-09 22:11:54.45	318.66	27.59	-53.7	-58.1	3.7	0.00e+00	0	47	104	0	78	24665
2026-01-09 22:11:55.45	318.19	27.69	-53.9	-58.4	3.7	0.00e+00	0	47	104	0	78	25635
2026-01-09 22:11:56.46	317.71	27.79	-53.8	-58.6	3.7	0.00e+00	0	47	104	0	78	26081
2026-01-09 22:11:57.49	317.21	27.89	-53.7	-58.6	3.7	0.00e+00	0	47	104	0	78	26005
2026-01-09 22:11:58.49	316.73	27.99	-53.7	-58.4	3.7	0.00e+00	0	47	104	0	78	25473
2026-01-09 22:11:59.50	316.24	28.09	-53.7	-58.4	3.7	0.00e+00	0	47	104	0	78	25651
2026-01-09 22:12:00.50	315.75	28.18	-53.7	-58.4	3.7	0.00e+00	0	47	104	0	78	25638
2026-01-09 22:12:01.50	315.25	28.27	-53.9	-58.8	3.7	0.00e+00	0	47	104	0	78	26645
2026-01-09 22:12:02.50	314.76	28.36	-54.0	-59.1	3.7	0.00e+00	0	47	104	0	78	27579
2026-01-09 22:12:03.51	314.25	28.45	-53.9	-59.0	3.7	0.00e+00	0	47	104	0	78	27221
2026-01-09 22:12:04.51	313.75	28.54	-54.0	-58.9	3.7	0.00e+00	0	47	104	0	78	27055
2026-01-09 22:12:05.51	313.25	28.62	-54.1	-58.9	3.7	0.00e+00	0	47	104	0	78	27033
2026-01-09 22:12:06.52	312.73	28.71	-54.3	-59.0	3.7	0.00e+00	0	47	104	0	79	25717
2026-01-09 22:12:07.52	312.22	28.79	-54.3	-59.1	3.7	0.00e+00	0	47	104	0	79	26050
2026-01-09 22:12:08.53	311.70	28.87	-54.4	-59.1	3.7	0.00e+00	0	47	104	0	79	26147
2026-01-09 22:12:09.53	311.19	28.94	-54.2	-58.6	3.7	0.00e+00	0	47	104	0	79	24690
2026-01-09 22:12:10.53	310.67	29.02	-54.5	-59.1	3.7	0.00e+00	0	47	104	0	79	26102
2026-01-09 22:12:11.54	310.14	29.09	-54.6	-59.3	3.7	0.00e+00	0	47	104	0	80	25206
2026-01-09 22:12:12.54	309.62	29.16	-54.7	-59.3	3.7	0.00e+00	0	47	104	0	80	25363
2026-01-09 22:12:13.54	309.09	29.23	-54.8	-59.3	3.7	0.00e+00	0	47	104	0	80	25271
2026-01-09 22:12:14.55	308.55	29.29	-54.7	-59.2	3.7	0.00e+00	0	47	104	0	80	24831
2026-01-09 22:12:15.55	308.02	29.36	-54.6	-59.0	3.7	0.00e+00	0	47	104	0	80	24245
2026-01-09 22:12:16.55	307.49	29.42	-54.6	-59.0	3.7	0.00e+00	0	47	104	0	80	24399
2026-01-09 22:12:17.56	306.95	29.47	-54.7	-59.1	3.7	0.00e+00	0	47	104	0	80	24803
2026-01-09 22:12:18.56	306.41	29.53	-54.3	-59.0	3.7	0.00e+00	0	47	104	0	80	24356
2026-01-09 22:12:19.56	305.87	29.58	-54.1	-58.6	3.7	0.00e+00	0	47	104	0	80	23409
2026-01-09 22:12:20.57	305.32	29.63	-54.2	-58.6	3.7	0.00e+00	0	47	104	0	80	23206
2026-01-09 22:12:21.57	304.78	29.68	-54.4	-58.7	3.7	0.00e+00	0	47	104	0	80	23458
2026-01-09 22:12:22.58	304.23	29.73	-54.4	-58.8	3.7	0.00e+00	0	47	104	0	80	23769
2026-01-09 22:12:23.58	303.68	29.77	-54.2	-58.7	3.7	0.00e+00	0	47	104	0	80	23516
2026-01-09 22:12:24.58	303.13	29.81	-54.1	-58.6	3.7	0.00e+00	0	47	104	0	80	23255
2026-01-09 22:12:25.58	302.58	29.85	-54.0	-58.5	3.7	0.00e+00	0	47	104	0	80	23112
2026-01-09 22:12:26.59	302.02	29.88	-54.1	-58.5	3.7	0.00e+00	0	47	104	0	79	24427
2026-01-09 22:12:27.59	301.47	29.91	-54.1	-58.5	3.7	0.00e+00	0	47	104	0	79	24305
2026-01-09 22:12:28.59	300.91	29.94	-54.1	-58.5	3.7	0.00e+00	0	47	104	0	79	24261
2026-01-09 22:12:29.59	300.36	29.97	-54.3	-58.6	3.7	0.00e+00	0	47	104	0	79	24643
2026-01-09 22:12:30.60	299.80	29.99	-54.6	-59.2	3.7	0.00e+00	0	47	104	0	79	26334
2026-01-09 22:12:31.60	299.24	30.01	-54.6	-59.2	3.7	0.00e+00	0	47	104	0	79	26566
2026-01-09 22:12:32.60	298.68	30.03	-54.6	-59.2	3.7	0.00e+00	0	47	104	0	79	26383
2026-01-09 22:12:33.61	298.12	30.04	-54.6	-58.9	3.7	0.00e+00	0	47	104	0	79	25482
2026-01-09 22:12:34.86	297.42	30.06	-54.6	-59.0	3.7	0.00e+00	0	47	104	0	79	25683
2026-01-09 22:12:35.58	297.02	30.06	-54.6	-59.0	3.7	0.00e+00	0	47	104	0	79	25848
2026-01-09 22:12:36.87	296.29	30.07	-54.5	-59.0	3.7	0.00e+00	0	47	104	0	79	25742
2026-01-09 22:12:37.70	295.83	30.08	-54.5	-59.0	3.7	0.00e+00	0	47	104	0	79	25934
2026-01-09 22:12:38.85	295.19	30.08	-54.5	-59.0	3.7	0.00e+00	0	47	104	0	79	25936
2026-01-09 22:12:39.71	294.70	30.07	-54.5	-58.9	3.7	0.00e+00	0	47	104	0	79	25657
2026-01-09 22:12:40.85	294.06	30.07	-54.2	-58.9	3.7	0.00e+00	0	47	104	0	79	25671
2026-01-09 22:12:41.71	293.58	30.06	-54.1	-58.8	3.7	0.00e+00	0	47	104	0	79	25364
2026-01-09 22:12:42.86	292.94	30.05	-54.2	-59.0	3.7	0.00e+00	0	47	104	0	79	25936
2026-01-09 22:12:43.71	292.47	30.04	-54.1	-59.0	3.7	0.00e+00	0	47	104	0	79	25702
2026-01-09 22:12:44.86	291.82	30.02	-54.9	-59.3	3.7	0.00e+00	0	47	104	0	80	25334
2026-01-09 22:12:45.72	291.34	30.00	-54.9	-59.4	3.7	0.00e+00	0	47	104	0	80	25429
2026-01-09 22:12:46.95	290.66	29.97	-54.4	-59.1	3.7	0.00e+00	0	47	104	0	80	24757
2026-01-09 22:12:47.81	290.18	29.95	-54.5	-59.2	3.7	0.00e+00	0	47	104	0	80	24939
2026-01-09 22:12:49.00	289.52	29.92	-54.7	-59.2	3.7	0.00e+00	0	47	104	0	80	25047
2026-01-09 22:12:49.86	289.04	29.89	-54.6	-59.1	3.7	0.00e+00	0	47	104	0	80	24721
2026-01-09 22:12:51.01	288.41	29.85	-54.6	-59.2	3.7	0.00e+00	0	47	104	0	80	25064
2026-01-09 22:12:51.87	287.93	29.82	-54.7	-59.3	3.7	0.00e+00	0	47	104	0	80	25240
2026-01-09 22:12:53.02	287.30	29.77	-54.6	-59.2	3.7	0.00e+00	0	47	104	0	80	24994
2026-01-09 22:12:53.88	286.83	29.74	-54.7	-59.4	3.7	0.00e+00	0	47	104	0	80	25502
2026-01-09 22:12:55.03	286.20	29.69	-54.7	-59.4	3.7	0.00e+00	0	47	104	0	80	25389
2026-01-09 22:12:55.88	285.74	29.65	-54.8	-59.4	3.7	0.00e+00	0	47	104	0	80	25484
2026-01-09 22:12:57.03	285.11	29.59	-54.5	-59.2	3.7	0.00e+00	0	47	104	0	80	25093
2026-01-09 22:12:57.89	284.65	29.54	-54.5	-59.2	3.7	0.00e+00	0	47	104	0	80	24916
2026-01-09 22:12:59.03	284.03	29.48	-54.8	-59.3	3.7	0.00e+00	0	47	104	0	80	25336
2026-01-09 22:12:59.89	283.57	29.43	-54.9	-59.4	3.7	0.00e+00	0	47	104	0	80	25637
2026-01-09 22:13:01.04	282.95	29.36	-54.6	-59.1	3.7	0.00e+00	0	47	104	0	80	24642
2026-01-09 22:13:01.90	282.49	29.31	-54.5	-58.9	3.7	0.00e+00	0	47	104	0	80	24136
2026-01-09 22:13:03.05	281.88	29.24	-54.8	-59.3	3.7	0.00e+00	0	47	104	0	80	25357
2026-01-09 22:13:03.91	281.43	29.18	-54.6	-59.2	3.7	0.00e+00	0	47	104	0	80	24933
2026-01-09 22:13:05.06	280.82	29.10	-54.8	-59.3	3.7	0.00e+00	0	47	104	0	80	25327
2026-01-09 22:13:05.92	280.37	29.04	-54.8	-59.4	3.7	0.00e+00	0	47	104	0	80	25599
2026-01-09 22:13:07.13	279.74	28.95	-54.6	-59.1	3.7	0.00e+00	0	47	104	0	80	24779
2026-01-09 22:13:07.99	279.30	28.88	-54.7	-59.2	3.7	0.00e+00	0	47	104	0	80	25032
2026-01-09 22:13:09.13	278.71	28.79	-54.6	-59.0	3.7	0.00e+00	0	47	104	0	80	24384
2026-01-09 22:13:09.99	278.27	28.72	-54.9	-59.4	3.7	0.00e+00	0	47	104	0	80	25427
2026-01-09 22:13:11.14	277.68	28.63	-54.7	-59.4	3.7	0.00e+00	0	47	104	0	80	25442
2026-01-09 22:13:12.03	277.23	28.55	-54.9	-59.4	3.7	0.00e+00	0	47	104	0	80	25583
2026-01-09 22:13:13.17	276.66	28.45	-54.7	-59.3	3.7	0.00e+00	0	47	104	0	80	25187
2026-01-09 22:13:14.03	276.22	28.38	-54.7	-59.2	3.7	0.00e+00	0	47	104	0	80	24928
2026-01-09 22:13:15.18	275.65	28.27	-54.5	-59.0	3.7	0.00e+00	0	47	104	0	80	24487
2026-01-09 22:13:16.04	275.23	28.20	-54.7	-59.2	3.7	0.00e+00	0	47	104	0	80	25005
2026-01-09 22:13:17.18	274.67	28.09	-54.5	-59.0	3.7	0.00e+00	0	47	104	0	80	24252
2026-01-09 22:13:18.34	274.10	27.98	-54.5	-59.1	3.7	0.00e+00	0	47	104	0	80	24697
2026-01-09 22:13:19.21	273.68	27.89	-54.5	-59.2	3.7	0.00e+00	0	47	104	0	80	24847
2026-01-09 22:13:20.70	272.96	27.74	-54.6	-59.2	3.7	0.00e+00	0	47	104	0	80	25039
2026-01-09 22:13:21.42	272.62	27.67	-54.6	-59.2	3.7	0.00e+00	0	47	104	0	80	25082
2026-01-09 22:13:22.71	272.01	27.54	-54.5	-59.2	3.7	0.00e+00	0	47	104	0	80	25065
2026-01-09 22:13:23.42	271.67	27.46	-54.5	-59.1	3.7	0.00e+00	0	47	104	0	80	24790
2026-01-09 22:13:24.71	271.07	27.33	-54.4	-59.0	3.7	0.00e+00	0	47	104	0	80	24364
2026-01-09 22:13:25.48	270.71	27.24	-54.4	-59.1	3.7	0.00e+00	0	47	104	0	80	24550
2026-01-09 22:13:26.77	270.12	27.10	-54.3	-59.1	3.7	0.00e+00	0	47	104	0	80	24533
2026-01-09 22:13:27.56	269.76	27.02	-54.3	-59.1	3.7	0.00e+00	0	47	104	0	80	24637
2026-01-09 22:13:28.71	269.24	26.89	-54.5	-59.2	3.7	0.00e+00	0	47	104	0	80	24915
2026-01-09 22:13:29.76	268.76	26.77	-54.5	-58.9	3.7	0.00e+00	0	47	104	0	80	24233
2026-01-09 22:13:30.64	268.37	26.67	-54.4	-58.9	3.7	0.00e+00	0	47	104	0	80	23965
2026-01-09 22:13:31.78	267.87	26.54	-54.4	-58.9	3.7	0.00e+00	0	47	104	0	80	24062
2026-01-09 22:13:32.64	267.49	26.44	-54.4	-59.1	3.7	0.00e+00	0	47	104	0	80	24574
2026-01-09 22:13:33.79	266.99	26.30	-54.5	-59.1	3.7	0.00e+00	0	47	104	0	80	24535
2026-01-09 22:13:34.65	266.62	26.20	-54.3	-58.7	3.7	0.00e+00	0	47	104	0	80	23600
2026-01-09 22:13:35.79	266.13	26.06	-54.3	-58.8	3.7	0.00e+00	0	47	104	0	80	23780
2026-01-09 22:13:36.65	265.76	25.96	-54.4	-58.7	3.7	0.00e+00	0	47	104	0	80	23597
2026-01-09 22:13:37.82	265.27	25.82	-54.5	-58.8	3.7	0.00e+00	0	47	104	0	80	23698
2026-01-09 22:13:38.68	264.91	25.71	-54.3	-58.7	3.7	0.00e+00	0	47	104	0	80	23608
2026-01-09 22:13:39.89	264.41	25.57	-54.3	-58.7	3.7	0.00e+00	0	47	104	0	80	23632
2026-01-09 22:13:40.75	264.06	25.46	-54.1	-58.8	3.7	0.00e+00	0	47	104	0	80	23950
2026-01-09 22:13:41.90	263.59	25.32	-54.3	-59.1	3.7	0.00e+00	0	47	104	0	80	24599
2026-01-09 22:13:42.76	263.25	25.21	-54.3	-59.0	3.7	0.00e+00	0	47	104	0	80	24487
2026-01-09 22:13:43.90	262.79	25.06	-54.3	-59.1	3.7	0.00e+00	0	47	104	0	80	24533
2026-01-09 22:13:44.76	262.45	24.96	-54.2	-58.9	3.7	0.00e+00	0	47	104	0	80	24105
2026-01-09 22:13:46.13	261.91	24.78	-54.0	-58.6	3.7	0.00e+00	0	47	104	0	80	23283
2026-01-09 22:13:46.85	261.63	24.69	-54.3	-58.8	3.7	0.00e+00	0	47	104	0	80	23880
2026-01-09 22:13:48.14	261.14	24.52	-54.1	-58.7	3.7	0.00e+00	0	47	104	0	80	23490
2026-01-09 22:13:48.85	260.87	24.43	-54.4	-59.0	3.7	0.00e+00	0	47	104	0	80	24507
2026-01-09 22:13:50.14	260.38	24.27	-54.4	-58.9	3.7	0.00e+00	0	47	104	0	80	23975
2026-01-09 22:13:50.88	260.10	24.17	-54.4	-59.1	3.7	0.00e+00	0	47	104	0	80	24572
2026-01-09 22:13:52.17	259.63	24.00	-54.4	-59.0	3.7	0.00e+00	0	47	104	0	80	24386
2026-01-09 22:13:52.98	259.33	23.90	-54.5	-59.2	3.7	0.00e+00	0	47	104	0	80	24843
2026-01-09 22:13:54.12	258.91	23.75	-54.3	-59.2	3.7	0.00e+00	0	47	104	0	80	24944
2026-01-09 22:13:55.22	258.52	23.60	-54.2	-58.8	3.7	0.00e+00	0	47	104	0	80	23845
2026-01-09 22:13:56.26	258.15	23.47	-54.3	-59.0	3.7	0.00e+00	0	47	104	0	80	24490
2026-01-09 22:13:57.25	257.80	23.34	-54.1	-58.6	3.7	0.00e+00	0	47	104	0	80	23337
2026-01-09 22:13:58.26	257.44	23.20	-54.2	-58.8	3.7	0.00e+00	0	47	104	0	80	23692
2026-01-09 22:13:59.26	257.10	23.07	-54.5	-58.9	3.7	0.00e+00	0	47	104	0	80	24048
2026-01-09 22:14:00.26	256.76	22.94	-54.2	-58.7	3.7	0.00e+00	0	47	104	0	80	23443
2026-01-09 22:14:01.27	256.41	22.81	-54.6	-59.0	3.7	0.00e+00	0	47	104	0	80	24461
2026-01-09 22:14:02.27	256.08	22.67	-54.7	-59.2	3.7	0.00e+00	0	47	104	0	80	24863
2026-01-09 22:14:03.27	255.74	22.54	-54.6	-59.2	3.7	0.00e+00	0	47	104	0	80	25043
2026-01-09 22:14:04.27	255.41	22.41	-54.5	-59.2	3.7	0.00e+00	0	47	104	0	80	25032
2026-01-09 22:14:05.28	255.08	22.28	-54.4	-59.1	3.7	0.00e+00	0	47	104	0	80	24748
2026-01-09 22:14:06.28	254.76	22.14	-54.4	-59.1	3.7	0.00e+00	0	47	104	0	80	24727
2026-01-09 22:14:07.28	254.44	22.01	-54.5	-58.9	3.7	0.00e+00	0	47	104	0	80	23995
2026-01-09 22:14:08.28	254.12	21.88	-54.6	-59.1	3.7	0.00e+00	0	47	104	0	80	24530
2026-01-09 22:14:09.29	253.80	21.74	-54.5	-58.9	3.7	0.00e+00	0	47	104	0	80	24239
2026-01-09 22:14:10.29	253.49	21.61	-54.6	-59.1	3.7	0.00e+00	0	47	104	0	80	24699
2026-01-09 22:14:11.29	253.18	21.48	-54.4	-59.0	3.7	0.00e+00	0	47	104	0	80	24512
2026-01-09 22:14:12.30	252.88	21.34	-54.4	-59.0	3.7	0.00e+00	0	47	104	0	80	24490
2026-01-09 22:14:13.30	252.57	21.21	-54.5	-59.1	3.7	0.00e+00	0	47	104	0	80	24704
2026-01-09 22:14:14.30	252.28	21.08	-54.4	-58.9	3.7	0.00e+00	0	47	104	0	80	24103
2026-01-09 22:14:15.31	251.98	20.95	-54.4	-58.7	3.7	0.00e+00	0	47	104	0	80	23666
2026-01-09 22:14:16.31	251.68	20.82	-54.6	-59.0	3.7	0.00e+00	0	47	104	0	80	24412
2026-01-09 22:14:17.31	251.39	20.68	-54.5	-58.9	3.7	0.00e+00	0	47	104	0	80	24179
2026-01-09 22:14:18.32	251.10	20.55	-54.5	-58.9	3.7	0.00e+00	0	47	104	0	80	24242
2026-01-09 22:14:19.32	250.82	20.42	-54.5	-58.9	3.7	0.00e+00	0	47	104	0	80	24167
2026-01-09 22:14:20.32	250.53	20.29	-54.5	-59.0	3.7	0.00e+00	0	47	104	0	80	24325
2026-01-09 22:14:21.32	250.26	20.16	-54.4	-58.9	3.7	0.00e+00	0	47	104	0	80	23995
2026-01-09 22:14:22.33	249.98	20.03	-54.4	-58.9	3.7	0.00e+00	0	47	104	0	80	24195
2026-01-09 22:14:23.33	249.70	19.90	-54.3	-58.9	3.7	0.00e+00	0	47	104	0	80	24023
2026-01-09 22:14:24.40	249.41	19.76	-54.3	-58.9	3.7	0.00e+00	0	47	104	0	80	24127
2026-01-09 22:14:25.31	249.17	19.64	-54.3	-59.0	3.7	0.00e+00	0	47	104	0	80	24264
2026-01-09 22:14:26.48	248.86	19.49	-54.4	-58.9	3.7	0.00e+00	0	47	104	0	80	24160
2026-01-09 22:14:27.35	248.63	19.37	-54.5	-59.0	3.7	0.00e+00	0	47	104	0	80	24330
2026-01-09 22:14:28.49	248.33	19.23	-54.6	-59.1	3.7	0.00e+00	0	47	104	0	80	24568
2026-01-09 22:14:29.35	248.11	19.12	-54.5	-59.0	3.7	0.00e+00	0	47	104	0	80	24445
2026-01-09 22:14:30.50	247.82	18.97	-54.6	-59.2	3.7	0.00e+00	0	47	104	0	80	24870
2026-01-09 22:14:31.36	247.60	18.86	-54.6	-59.1	3.7	0.00e+00	0	47	104	0	80	24733
2026-01-09 22:14:32.50	247.31	18.71	-54.6	-59.1	3.7	0.00e+00	0	47	104	0	80	24768
2026-01-09 22:14:33.36	247.10	18.60	-54.6	-59.2	3.7	0.00e+00	0	47	104	0	80	24871
2026-01-09 22:14:34.51	246.82	18.46	-54.4	-59.0	3.7	0.00e+00	0	47	104	0	80	24370
2026-01-09 22:14:35.37	246.61	18.35	-54.4	-59.0	3.7	0.00e+00	0	47	104	0	80	24271
2026-01-09 22:14:36.52	246.33	18.20	-54.6	-59.1	3.7	0.00e+00	0	47	104	0	80	24649
2026-01-09 22:14:37.38	246.12	18.10	-54.5	-59.0	3.7	0.00e+00	0	47	104	0	80	24502
2026-01-09 22:14:38.52	245.86	17.95	-54.6	-59.1	3.7	0.00e+00	0	47	104	0	80	24766
2026-01-09 22:14:39.38	245.65	17.85	-54.6	-59.1	3.7	0.00e+00	0	47	104	0	80	24782
2026-01-09 22:14:40.64	245.36	17.69	-54.7	-59.1	3.7	0.00e+00	0	47	104	0	80	24566
2026-01-09 22:14:41.39	245.19	17.59	-54.7	-59.1	3.7	0.00e+00	0	47	104	0	80	24654
2026-01-09 22:14:42.68	244.90	17.44	-54.6	-58.9	3.7	0.00e+00	0	47	104	0	80	24137
2026-01-09 22:14:43.40	244.74	17.35	-54.5	-58.7	3.7	0.00e+00	0	47	104	0	80	23646
2026-01-09 22:14:44.68	244.45	17.19	-54.4	-58.7	3.7	0.00e+00	0	47	104	0	80	23580
2026-01-09 22:14:45.40	244.29	17.10	-54.4	-58.6	3.7	0.00e+00	0	47	104	0	80	23393
2026-01-09 22:14:46.69	244.01	16.94	-54.4	-58.9	3.7	0.00e+00	0	47	104	0	80	24132
2026-01-09 22:14:47.41	243.85	16.86	-54.4	-58.8	3.7	0.00e+00	0	47	104	0	80	23848
2026-01-09 22:14:48.70	243.58	16.70	-54.3	-58.7	3.7	0.00e+00	0	47	104	0	80	23617
2026-01-09 22:14:49.53	243.40	16.60	-54.3	-58.6	3.7	0.00e+00	0	47	104	0	80	23350
2026-01-09 22:14:50.67	243.16	16.46	-54.3	-58.8	3.7	0.00e+00	0	47	104	0	80	23782
2026-01-09 22:14:51.74	242.94	16.33	-54.4	-58.9	3.7	0.00e+00	0	47	104	0	80	24162
2026-01-09 22:14:52.60	242.76	16.23	-54.4	-58.9	3.7	0.00e+00	0	47	104	0	80	24030
2026-01-09 22:14:53.75	242.53	16.09	-54.4	-58.9	3.7	0.00e+00	0	47	104	0	80	24036
2026-01-09 22:14:54.61	242.35	15.99	-54.4	-58.9	3.7	0.00e+00	0	47	104	0	80	24063
2026-01-09 22:14:55.76	242.12	15.85	-54.3	-58.9	3.7	0.00e+00	0	47	104	0	80	24069
2026-01-09 22:14:56.62	241.95	15.75	-54.3	-58.8	3.7	0.00e+00	0	47	104	0	80	23935
2026-01-09 22:14:57.76	241.73	15.62	-54.3	-58.8	3.7	0.00e+00	0	47	104	0	80	23956
2026-01-09 22:14:58.62	241.56	15.52	-54.2	-58.8	3.7	0.00e+00	0	47	104	0	80	23944
2026-01-09 22:14:59.76	241.34	15.39	-54.1	-58.7	3.7	0.00e+00	0	47	104	0	80	23580
2026-01-09 22:15:00.63	241.18	15.29	-54.1	-58.7	3.7	0.00e+00	0	47	104	0	80	23623
2026-01-09 22:15:01.93	240.93	15.13	-54.2	-58.7	3.7	0.00e+00	0	47	104	0	80	23690
2026-01-09 22:15:02.65	240.79	15.05	-54.1	-58.8	3.7	0.00e+00	0	47	104	0	80	23709
2026-01-09 22:15:04.15	240.52	14.88	-54.0	-58.6	3.7	0.00e+00	0	47	104	0	79	24650
2026-01-09 22:15:04.87	240.38	14.80	-54.2	-58.8	3.7	0.00e+00	0	47	104	0	79	25242
2026-01-09 22:15:06.16	240.15	14.65	-54.1	-58.5	3.7	0.00e+00	0	47	104	0	79	24495
2026-01-09 22:15:07.21	239.96	14.53	-54.0	-58.7	3.7	0.00e+00	0	47	104	0	79	24818
2026-01-09 22:15:08.07	239.81	14.44	-54.0	-58.6	3.7	0.00e+00	0	47	104	0	79	24775
2026-01-09 22:15:09.22	239.60	14.31	-54.0	-58.6	3.7	0.00e+00	0	47	104	0	79	24601
2026-01-09 22:15:10.08	239.45	14.21	-54.0	-58.6	3.7	0.00e+00	0	47	104	0	79	24758
2026-01-09 22:15:11.22	239.26	14.08	-54.0	-58.6	3.7	0.00e+00	0	47	104	0	79	24714
2026-01-09 22:15:12.08	239.11	13.99	-54.0	-58.6	3.7	0.00e+00	0	47	104	0	79	24692
2026-01-09 22:15:13.36	238.89	13.85	-54.0	-58.7	3.7	0.00e+00	0	47	104	0	79	24841
2026-01-09 22:15:14.07	238.77	13.77	-54.1	-58.7	3.7	0.00e+00	0	47	104	0	79	24886
2026-01-09 22:15:15.59	238.52	13.60	-53.9	-58.4	3.7	0.00e+00	0	47	104	0	79	24132
2026-01-09 22:15:16.59	238.35	13.49	-53.9	-58.5	3.7	0.00e+00	0	47	104	0	79	24245
2026-01-09 22:15:17.91	238.13	13.35	-53.9	-58.5	3.7	0.00e+00	0	47	104	0	79	24433
2026-01-09 22:15:18.66	238.01	13.27	-53.8	-58.4	3.7	0.00e+00	0	47	104	0	79	24177
2026-01-09 22:15:20.27	237.75	13.10	-53.7	-58.5	3.7	0.00e+00	0	47	104	0	79	24328
2026-01-09 22:15:20.85	237.66	13.03	-53.8	-58.4	3.7	0.00e+00	0	47	104	0	79	24121
2026-01-09 22:15:22.43	237.41	12.87	-53.6	-58.4	3.7	0.00e+00	0	47	104	0	79	24006
2026-01-09 22:15:23.00	237.33	12.81	-53.7	-58.5	3.7	0.00e+00	0	47	104	0	79	24352
2026-01-09 22:15:24.58	237.08	12.64	-53.6	-58.3	3.7	0.00e+00	0	47	104	0	79	23957
2026-01-09 22:15:25.17	236.99	12.58	-53.6	-58.4	3.7	0.00e+00	0	47	104	0	79	23999
2026-01-09 22:15:26.75	236.75	12.41	-53.6	-58.4	3.7	0.00e+00	0	47	104	0	79	24165
2026-01-09 22:15:27.35	236.66	12.35	-53.5	-58.4	3.7	0.00e+00	0	47	104	0	79	23974
2026-01-09 22:15:28.92	236.43	12.19	-53.6	-58.4	3.7	0.00e+00	0	47	104	0	79	24066
2026-01-09 22:15:29.50	236.34	12.13	-53.5	-58.4	3.7	0.00e+00	0	47	104	0	79	24089
2026-01-09 22:15:31.09	236.11	11.96	-53.5	-58.3	3.7	0.00e+00	0	47	104	0	79	23917
2026-01-09 22:15:31.67	236.03	11.90	-53.6	-58.4	3.7	0.00e+00	0	47	104	0	79	24153
2026-01-09 22:15:33.53	235.76	11.71	-53.5	-58.4	3.7	0.00e+00	0	47	104	0	79	24173
2026-01-09 22:15:34.10	235.68	11.66	-53.6	-58.4	3.7	0.00e+00	0	47	104	0	79	24068
2026-01-09 22:15:35.72	235.45	11.49	-53.7	-58.4	3.7	0.00e+00	0	47	104	0	79	24039
2026-01-09 22:15:36.29	235.38	11.44	-53.7	-58.4	3.7	0.00e+00	0	47	104	0	79	23966
2026-01-09 22:15:37.89	235.16	11.28	-53.6	-58.2	3.7	0.00e+00	0	47	104	0	79	23531
2026-01-09 22:15:38.46	235.08	11.22	-53.6	-58.3	3.7	0.00e+00	0	47	104	0	79	23821
2026-01-09 22:15:40.05	234.86	11.06	-53.7	-58.4	3.7	0.00e+00	0	47	104	0	79	24012
2026-01-09 22:15:40.63	234.79	11.00	-53.7	-58.3	3.7	0.00e+00	0	47	104	0	79	23952
2026-01-09 22:15:42.48	234.54	10.82	-53.7	-58.3	3.7	0.00e+00	0	47	104	0	79	23954
2026-01-09 22:15:43.05	234.47	10.77	-53.7	-58.4	3.7	0.00e+00	0	47	104	0	79	24029
2026-01-09 22:15:44.63	234.26	10.61	-53.5	-58.3	3.7	0.00e+00	0	47	104	0	78	25137
2026-01-09 22:15:45.21	234.19	10.56	-53.6	-58.3	3.7	0.00e+00	0	47	104	0	78	25287
2026-01-09 22:15:47.14	233.94	10.37	-53.5	-58.3	3.7	0.00e+00	0	47	104	0	78	25109
2026-01-09 22:15:47.72	233.87	10.32	-53.5	-58.3	3.7	0.00e+00	0	47	104	0	78	25268
2026-01-09 22:15:49.31	233.67	10.16	-53.5	-58.2	3.7	0.00e+00	0	47	104	0	78	25082
2026-01-09 22:15:49.88	233.60	10.11	-53.6	-58.3	3.7	0.00e+00	0	47	104	0	78	25357
2026-01-09 22:15:51.48	233.40	9.96	-53.4	-58.0	3.7	0.00e+00	0	47	104	0	78	24456
2026-01-09 22:15:52.05	233.33	9.90	-53.6	-58.1	3.7	0.00e+00	0	47	104	0	78	24758
2026-01-09 22:15:53.64	233.14	9.76	-53.5	-58.1	3.7	0.00e+00	0	47	104	0	78	24650
2026-01-09 22:15:54.45	233.04	9.68	-53.5	-58.1	3.7	0.00e+00	0	47	104	0	78	24744
2026-01-09 22:15:55.60	232.91	9.57	-53.5	-58.2	3.6	0.00e+00	0	47	104	0	78	24826
2026-01-09 22:15:56.81	232.76	9.46	-53.6	-58.1	3.7	0.00e+00	0	47	104	0	78	24709
2026-01-09 22:15:57.84	232.64	9.37	-53.5	-58.2	3.7	0.00e+00	0	47	104	0	78	24979
2026-01-09 22:15:58.84	232.53	9.27	-53.4	-58.1	3.7	0.00e+00	0	47	104	0	78	24672
2026-01-09 22:15:59.84	232.41	9.18	-53.2	-57.7	3.7	0.00e+00	0	47	104	0	78	23689
2026-01-09 22:16:00.84	232.30	9.09	-53.5	-58.1	3.6	0.00e+00	0	47	104	0	78	24640
2026-01-09 22:16:01.85	232.19	9.00	-53.5	-58.1	3.7	0.00e+00	0	47	104	0	78	24699
2026-01-09 22:16:02.85	232.07	8.91	-53.7	-58.5	3.7	0.00e+00	0	47	104	0	78	25777
2026-01-09 22:16:03.86	231.96	8.82	-53.9	-58.7	3.7	0.00e+00	0	47	104	0	78	26413
2026-01-09 22:16:04.86	231.85	8.73	-54.3	-58.7	3.7	0.00e+00	0	47	104	0	79	24827
2026-01-09 22:16:05.87	231.74	8.64	-54.4	-58.8	3.7	0.00e+00	0	47	104	0	79	25380
2026-01-09 22:16:06.87	231.63	8.55	-54.4	-58.6	3.7	0.00e+00	0	47	104	0	79	24748
2026-01-09 22:16:07.88	231.52	8.46	-54.5	-59.0	3.7	0.00e+00	0	47	104	0	79	25752
2026-01-09 22:16:08.88	231.42	8.37	-54.4	-59.1	3.7	0.00e+00	0	47	104	0	79	26039
2026-01-09 22:16:09.89	231.31	8.28	-54.3	-58.9	3.7	0.00e+00	0	47	104	0	80	24178
2026-01-09 22:16:10.89	231.21	8.20	-54.4	-59.0	3.7	0.00e+00	0	47	104	0	80	24347
2026-01-09 22:16:11.90	231.10	8.11	-54.3	-58.9	3.7	0.00e+00	0	47	104	0	80	24046
2026-01-09 22:16:12.90	231.00	8.02	-54.5	-59.1	3.7	0.00e+00	0	47	104	0	80	24551
2026-01-09 22:16:13.90	230.89	7.93	-54.4	-59.0	3.7	0.00e+00	0	47	104	0	79	25974
2026-01-09 22:16:14.91	230.79	7.85	-54.2	-58.9	3.7	0.00e+00	0	47	104	0	79	25645
2026-01-09 22:16:15.91	230.69	7.76	-54.1	-58.9	3.7	0.00e+00	0	47	104	0	79	25558
2026-01-09 22:16:16.92	230.59	7.67	-54.1	-58.9	3.7	0.00e+00	0	47	104	0	79	25464
2026-01-09 22:16:17.92	230.49	7.59	-54.0	-58.7	3.7	0.00e+00	0	47	104	0	79	24830
2026-01-09 22:16:18.93	230.39	7.50	-53.9	-58.5	3.7	0.00e+00	0	47	104	0	79	24461
2026-01-09 22:16:19.93	230.29	7.42	-54.2	-58.6	3.7	0.00e+00	0	47	104	0	79	24760
2026-01-09 22:16:20.94	230.19	7.33	-54.2	-58.7	3.7	0.00e+00	0	47	104	0	79	24873
2026-01-09 22:16:21.94	230.10	7.25	-54.3	-59.0	3.7	0.00e+00	0	47	104	0	79	25920
2026-01-09 22:16:22.95	230.00	7.17	-54.0	-58.5	3.7	0.00e+00	0	47	104	0	79	24401
2026-01-09 22:16:23.95	229.90	7.08	-54.0	-58.4	3.7	0.00e+00	0	47	104	0	79	24169
2026-01-09 22:16:24.95	229.81	7.00	-54.0	-58.5	3.7	0.00e+00	0	47	104	0	79	24276
2026-01-09 22:16:25.96	229.72	6.92	-54.0	-58.4	3.7	0.00e+00	0	47	104	0	79	24144
2026-01-09 22:16:26.96	229.62	6.83	-54.0	-58.5	3.7	0.00e+00	0	47	104	0	79	24297
2026-01-09 22:16:27.96	229.53	6.75	-54.0	-58.5	3.7	0.00e+00	0	47	104	0	79	24249
2026-01-09 22:16:28.97	229.44	6.67	-53.9	-58.4	3.7	0.00e+00	0	47	104	0	79	24189
2026-01-09 22:16:29.97	229.35	6.59	-54.0	-58.4	3.7	0.00e+00	0	47	104	0	79	24145
2026-01-09 22:16:30.97	229.26	6.51	-53.9	-58.4	3.7	0.00e+00	0	47	104	0	79	24147
2026-01-09 22:16:31.98	229.16	6.42	-54.0	-58.4	3.7	0.00e+00	0	47	104	0	79	24239
2026-01-09 22:16:32.98	229.08	6.34	-53.9	-58.4	3.7	0.00e+00	0	47	104	0	79	24188
2026-01-09 22:16:33.99	228.99	6.26	-54.0	-58.4	3.7	0.00e+00	0	47	104	0	79	24209
2026-01-09 22:16:34.99	228.90	6.18	-54.0	-58.4	3.7	0.00e+00	0	47	104	
