passes_logs/2026/01/09/T1/T1__20260109_041355_FENGYUN_3E_rec.log

#Pass ID: 20260109_041355_FENGYUN 3E
#Satellite: FENGYUN 3E
#Configuration: FENGYUN 3E
#almurnet v.1.7.20251203
#Start time: 2026-01-09 04:13:57

#Version: 2.0.20230620
#Station: T1
#Location: 37.570604 lon 55.790049 lat
#TLE: 1 49008U 21062A   26008.52265380 -.00000112  00000+0 -32190-4 0  9993
#TLE: 2 49008  98.7483  13.7266 0001697 149.3310 210.7966 14.19883994233927

#Time	Az	El	Level	Level2	SNR	BER	BlckErr	Temp	State	Recorded	gain1	gain2
2026-01-09 04:13:57.33	14.60	5.07	-47.2	-59.1	3.8	8.46e-01	0	41	0	0	64	14506
2026-01-09 04:13:58.33	14.59	5.15	-47.2	-59.4	3.8	8.48e-01	0	41	104	0	64	14983
2026-01-09 04:13:59.34	14.58	5.22	-47.3	-59.4	3.8	8.46e-01	0	42	104	0	64	14911
2026-01-09 04:14:00.34	14.57	5.29	-47.3	-59.5	3.8	8.46e-01	0	42	104	0	64	15072
2026-01-09 04:14:01.34	14.56	5.36	-47.3	-59.4	3.8	8.46e-01	0	42	104	0	64	15006
2026-01-09 04:14:02.35	14.55	5.43	-47.3	-59.4	3.8	8.46e-01	0	42	104	0	64	15013
2026-01-09 04:14:03.36	14.54	5.51	-47.2	-59.4	3.8	8.46e-01	0	42	104	0	64	14917
2026-01-09 04:14:04.36	14.53	5.58	-47.2	-59.2	3.8	8.47e-01	0	42	104	0	64	14700
2026-01-09 04:14:05.36	14.52	5.65	-47.2	-59.1	3.8	8.47e-01	0	42	104	0	64	14530
2026-01-09 04:14:06.37	14.51	5.73	-47.2	-58.9	3.8	8.46e-01	0	42	104	0	64	14203
2026-01-09 04:14:07.37	14.50	5.80	-47.2	-58.8	3.8	8.45e-01	0	42	104	0	64	13965
2026-01-09 04:14:08.38	14.48	5.87	-47.2	-58.7	3.8	8.47e-01	0	42	104	0	64	13727
2026-01-09 04:14:09.38	14.47	5.95	-47.1	-58.5	3.8	8.47e-01	0	42	104	0	64	13523
2026-01-09 04:14:10.39	14.46	6.02	-47.2	-58.4	3.8	8.46e-01	0	42	104	0	64	13326
2026-01-09 04:14:11.39	14.45	6.09	-47.2	-58.2	3.8	8.47e-01	0	42	104	0	64	13063
2026-01-09 04:14:12.40	14.44	6.17	-47.1	-57.9	3.8	8.46e-01	0	42	104	0	64	12652
2026-01-09 04:14:13.40	14.43	6.24	-47.1	-57.7	3.8	8.45e-01	0	42	104	0	64	12357
2026-01-09 04:14:14.40	14.42	6.32	-47.1	-57.4	3.9	8.45e-01	0	42	104	0	64	11908
2026-01-09 04:14:15.41	14.40	6.39	-47.0	-57.0	4.0	8.45e-01	0	42	104	0	64	11366
2026-01-09 04:14:16.41	14.39	6.47	-47.0	-56.7	4.1	8.43e-01	0	42	0	0	64	10921
2026-01-09 04:14:17.42	14.38	6.54	-46.9	-56.3	4.2	8.40e-01	0	42	0	0	64	10498
2026-01-09 04:14:18.42	14.37	6.62	-46.9	-56.1	4.2	8.39e-01	0	42	0	0	64	10256
2026-01-09 04:14:19.43	14.36	6.70	-46.9	-56.1	4.2	8.39e-01	0	42	0	0	64	10203
2026-01-09 04:14:20.43	14.34	6.77	-46.9	-56.2	4.1	8.39e-01	0	42	0	0	64	10405
2026-01-09 04:14:21.44	14.33	6.85	-46.9	-56.7	3.9	8.41e-01	0	42	104	0	64	10940
2026-01-09 04:14:22.44	14.32	6.92	-47.0	-56.9	3.9	8.44e-01	0	43	104	0	64	11251
2026-01-09 04:14:23.45	14.31	7.00	-47.1	-57.7	3.8	8.45e-01	0	42	104	0	64	12315
2026-01-09 04:14:24.45	14.29	7.08	-47.2	-58.5	3.8	8.46e-01	0	42	104	0	64	13450
2026-01-09 04:14:25.45	14.28	7.16	-47.2	-59.0	3.8	8.48e-01	0	43	104	0	64	14302
2026-01-09 04:14:26.46	14.27	7.23	-47.2	-59.2	3.8	8.46e-01	0	43	104	0	64	14608
2026-01-09 04:14:27.46	14.26	7.31	-47.1	-58.4	3.8	8.46e-01	0	43	104	0	64	13336
2026-01-09 04:14:28.46	14.24	7.39	-47.0	-57.4	3.8	8.46e-01	0	43	104	0	64	11847
2026-01-09 04:14:29.47	14.23	7.47	-46.8	-55.9	4.2	8.37e-01	0	43	0	0	64	9960
2026-01-09 04:14:30.47	14.22	7.54	-46.6	-54.3	5.0	8.00e-01	0	43	0	0	63	8764
2026-01-09 04:14:31.48	14.20	7.62	-46.3	-52.8	5.9	4.92e-01	0	43	0	1048576	63	7441
2026-01-09 04:14:32.48	14.19	7.70	-46.0	-51.6	6.9	2.10e-01	0	43	0	7340032	62	6872
2026-01-09 04:14:33.48	14.18	7.78	-45.6	-50.6	7.8	8.50e-02	0	43	0	15728640	62	6119
2026-01-09 04:14:34.49	14.16	7.86	-45.3	-49.8	8.7	3.97e-02	0	43	0	23068672	61	5863
2026-01-09 04:14:35.49	14.15	7.94	-45.1	-49.3	9.2	2.11e-02	0	43	0	29360128	61	5532
2026-01-09 04:14:36.49	14.14	8.02	-44.6	-48.2	10.3	6.44e-03	0	43	0	36700160	60	5213
2026-01-09 04:14:37.50	14.12	8.10	-44.5	-48.0	10.4	4.35e-03	0	43	0	44040192	59	5349
2026-01-09 04:14:38.50	14.11	8.18	-44.2	-47.4	11.0	1.69e-03	0	43	0	51380224	59	5004
2026-01-09 04:14:39.50	14.09	8.26	-43.9	-46.8	11.7	6.69e-04	0	43	0	58720256	58	4973
2026-01-09 04:14:40.51	14.08	8.34	-43.7	-46.5	12.0	4.13e-04	0	43	0	66060288	57	5048
2026-01-09 04:14:41.51	14.07	8.42	-43.3	-45.9	12.6	2.28e-04	0	43	0	73400320	57	4725
2026-01-09 04:14:42.52	14.05	8.51	-43.3	-45.9	12.6	1.18e-04	0	43	0	80740352	57	4728
2026-01-09 04:14:43.52	14.04	8.59	-43.0	-45.4	13.1	6.86e-05	0	43	0	87031808	56	4706
2026-01-09 04:14:44.53	14.02	8.67	-43.2	-45.7	12.9	7.43e-05	0	43	0	94371840	56	4890
2026-01-09 04:14:45.53	14.01	8.75	-43.4	-46.1	12.5	6.29e-05	0	43	0	101711872	56	5117
2026-01-09 04:14:46.53	13.99	8.83	-43.6	-46.3	12.2	7.20e-05	0	43	0	109051904	56	5273
2026-01-09 04:14:47.54	13.98	8.92	-43.4	-45.9	12.6	1.77e-04	0	43	0	116391936	56	5028
2026-01-09 04:14:48.54	13.96	9.00	-44.0	-47.1	11.5	6.19e-04	0	43	0	123731968	57	5413
2026-01-09 04:14:49.54	13.95	9.08	-43.6	-46.3	12.1	1.60e-03	0	43	0	131072000	58	4694
2026-01-09 04:14:50.55	13.93	9.17	-43.1	-45.4	13.1	8.23e-05	0	43	0	138412032	57	4444
2026-01-09 04:14:51.55	13.92	9.25	-44.5	-47.9	10.7	9.04e-05	0	43	0	145752064	58	5628
2026-01-09 04:14:52.56	13.90	9.33	-46.6	-52.9	5.8	2.75e-01	0	43	0	153092096	62	7941
2026-01-09 04:14:53.56	13.89	9.42	-43.1	-45.4	13.1	3.32e-02	0	43	0	160432128	57	4446
2026-01-09 04:14:54.56	13.87	9.50	-39.8	-41.2	17.3	0.00e+00	0	43	0	166723584	50	4137
2026-01-09 04:14:55.57	13.86	9.59	-39.8	-41.2	17.4	0.00e+00	0	43	0	174063616	50	4099
2026-01-09 04:14:56.57	13.84	9.67	-39.9	-41.3	17.2	0.00e+00	0	43	0	181403648	50	4190
2026-01-09 04:14:57.58	13.83	9.76	-39.7	-41.1	17.4	0.00e+00	0	43	0	188743680	49	4307
2026-01-09 04:14:58.58	13.81	9.84	-39.3	-40.6	17.9	0.00e+00	0	44	0	196083712	49	4075
2026-01-09 04:14:59.58	13.79	9.93	-39.4	-40.8	17.7	0.00e+00	0	44	0	203423744	49	4166
2026-01-09 04:15:00.59	13.78	10.02	-39.3	-40.6	18.0	0.00e+00	0	43	0	210763776	49	4086
2026-01-09 04:15:01.59	13.76	10.10	-39.4	-40.7	17.9	0.00e+00	0	44	0	218103808	48	4355
2026-01-09 04:15:02.59	13.74	10.19	-39.3	-40.6	18.0	0.00e+00	0	43	0	225443840	48	4295
2026-01-09 04:15:03.60	13.73	10.28	-39.0	-40.3	18.2	0.00e+00	0	43	0	232783872	48	4179
2026-01-09 04:15:04.65	13.71	10.37	-39.1	-40.4	18.2	0.00e+00	0	43	0	240123904	48	4204
2026-01-09 04:15:05.52	13.70	10.45	-38.9	-40.1	18.5	0.00e+00	0	44	0	246415360	48	4088
2026-01-09 04:15:06.67	13.68	10.55	-38.9	-40.1	18.4	0.00e+00	0	44	0	254803968	48	4096
2026-01-09 04:15:07.59	13.66	10.63	-38.8	-40.1	18.5	0.00e+00	0	44	0	261095424	48	4055
2026-01-09 04:15:08.75	13.64	10.73	-38.6	-39.8	18.8	0.00e+00	0	43	0	269484032	48	3950
2026-01-09 04:15:09.64	13.62	10.81	-38.6	-39.8	18.6	0.00e+00	0	44	0	275775488	47	4177
2026-01-09 04:15:10.78	13.60	10.91	-38.5	-39.8	18.6	0.00e+00	0	43	0	284164096	47	4154
2026-01-09 04:15:11.71	13.59	11.00	-38.5	-39.8	18.6	0.00e+00	0	44	0	290455552	47	4146
2026-01-09 04:15:12.87	13.57	11.10	-38.6	-39.8	18.6	0.00e+00	0	44	0	298844160	47	4181
2026-01-09 04:15:13.81	13.55	11.18	-38.5	-39.8	18.6	0.00e+00	0	44	0	306184192	47	4155
2026-01-09 04:15:14.82	13.53	11.28	-38.5	-39.7	18.7	0.00e+00	0	44	0	313524224	47	4137
2026-01-09 04:15:15.82	13.51	11.37	-38.6	-39.9	18.5	0.00e+00	0	44	0	320864256	47	4212
2026-01-09 04:15:16.82	13.50	11.46	-38.3	-39.6	18.8	0.00e+00	0	44	0	328204288	47	4058
2026-01-09 04:15:17.82	13.48	11.55	-38.4	-39.6	18.8	0.00e+00	0	44	0	334495744	47	4095
2026-01-09 04:15:18.83	13.46	11.64	-38.5	-39.7	18.7	0.00e+00	0	44	0	341835776	47	4106
2026-01-09 04:15:19.83	13.44	11.73	-38.2	-39.4	19.0	0.00e+00	0	44	0	349175808	47	3976
2026-01-09 04:15:20.83	13.42	11.83	-38.2	-39.4	19.0	0.00e+00	0	44	0	356515840	47	3997
2026-01-09 04:15:21.84	13.40	11.92	-38.1	-39.3	19.1	0.00e+00	0	44	0	363855872	47	3931
2026-01-09 04:15:22.84	13.38	12.01	-38.1	-39.2	19.2	0.00e+00	0	44	0	371195904	46	4141
2026-01-09 04:15:23.97	13.36	12.12	-38.2	-39.4	19.0	0.00e+00	0	44	0	379584512	46	4218
2026-01-09 04:15:24.83	13.34	12.20	-38.0	-39.1	19.3	0.00e+00	0	44	0	385875968	46	4092
2026-01-09 04:15:25.98	13.32	12.31	-37.9	-39.1	19.4	0.00e+00	0	44	0	394264576	46	4059
2026-01-09 04:15:26.84	13.30	12.39	-38.0	-39.1	19.3	0.00e+00	0	44	0	400556032	46	4078
2026-01-09 04:15:27.98	13.28	12.50	-37.8	-39.0	19.5	0.00e+00	0	44	0	408944640	46	4011
2026-01-09 04:15:28.84	13.26	12.58	-37.8	-38.9	19.5	0.00e+00	0	44	0	415236096	46	3983
2026-01-09 04:15:29.99	13.24	12.69	-38.0	-39.1	19.3	0.00e+00	0	43	0	422576128	46	4073
2026-01-09 04:15:30.85	13.22	12.78	-37.7	-38.8	19.6	0.00e+00	0	44	0	428867584	46	3958
2026-01-09 04:15:31.99	13.20	12.89	-37.7	-38.9	19.6	0.00e+00	0	43	0	437256192	46	3964
2026-01-09 04:15:32.85	13.18	12.97	-37.7	-38.9	19.6	0.00e+00	0	44	0	443547648	46	3964
2026-01-09 04:15:34.02	13.16	13.08	-37.7	-38.8	19.6	0.00e+00	0	44	0	451936256	46	3949
2026-01-09 04:15:34.88	13.14	13.17	-37.6	-38.7	19.7	0.00e+00	0	44	0	458227712	46	3911
2026-01-09 04:15:36.09	13.11	13.29	-37.6	-38.7	19.7	0.00e+00	0	44	0	466616320	46	3899
2026-01-09 04:15:36.95	13.10	13.37	-37.7	-38.8	19.6	0.00e+00	0	44	0	472907776	46	3952
2026-01-09 04:15:38.09	13.07	13.48	-37.6	-38.8	19.7	0.00e+00	0	44	0	481296384	45	4147
2026-01-09 04:15:38.95	13.05	13.57	-37.5	-38.5	19.9	0.00e+00	0	44	0	487587840	45	4050
2026-01-09 04:15:40.10	13.03	13.68	-37.6	-38.7	19.8	0.00e+00	0	44	0	495976448	45	4111
2026-01-09 04:15:41.05	13.01	13.78	-37.6	-38.7	19.7	0.00e+00	0	44	0	503316480	45	4132
2026-01-09 04:15:42.25	12.98	13.90	-37.6	-38.8	19.7	0.00e+00	0	44	0	511705088	45	4147
2026-01-09 04:15:43.14	12.96	13.99	-37.5	-38.6	19.8	0.00e+00	0	44	0	517996544	45	4088
2026-01-09 04:15:44.28	12.93	14.11	-37.5	-38.5	19.9	0.00e+00	0	44	0	526385152	45	4048
2026-01-09 04:15:45.14	12.91	14.19	-37.5	-38.6	19.8	0.00e+00	0	44	0	532676608	45	4079
2026-01-09 04:15:46.51	12.88	14.33	-37.6	-38.7	19.7	0.00e+00	0	44	0	542113792	45	4133
2026-01-09 04:15:47.23	12.87	14.41	-37.6	-38.7	19.8	0.00e+00	0	44	0	547356672	45	4116
2026-01-09 04:15:48.52	12.83	14.54	-37.5	-38.6	19.9	0.00e+00	0	44	0	556793856	45	4068
2026-01-09 04:15:49.23	12.82	14.62	-37.4	-38.5	20.0	0.00e+00	0	44	0	562036736	45	4032
2026-01-09 04:15:50.53	12.79	14.75	-37.5	-38.6	19.8	0.00e+00	0	44	0	571473920	45	4091
2026-01-09 04:15:51.28	12.77	14.83	-37.4	-38.5	20.0	0.00e+00	0	44	0	576716800	45	4014
2026-01-09 04:15:52.56	12.74	14.96	-37.4	-38.5	20.0	0.00e+00	0	44	0	586153984	45	4007
2026-01-09 04:15:53.28	12.72	15.04	-37.4	-38.5	20.0	0.00e+00	0	44	0	591396864	45	4007
2026-01-09 04:15:54.57	12.69	15.18	-37.4	-38.4	20.0	0.00e+00	0	44	0	599785472	45	4001
2026-01-09 04:15:55.29	12.67	15.25	-37.4	-38.5	20.0	0.00e+00	0	44	0	606076928	45	4017
2026-01-09 04:15:56.58	12.64	15.39	-37.3	-38.3	20.2	0.00e+00	0	44	0	614465536	45	3942
2026-01-09 04:15:57.30	12.62	15.47	-37.2	-38.3	20.2	0.00e+00	0	44	0	619708416	45	3941
2026-01-09 04:15:58.65	12.59	15.61	-37.2	-38.2	20.2	0.00e+00	0	44	0	630194176	45	3908
2026-01-09 04:15:59.37	12.57	15.69	-37.1	-38.2	20.3	0.00e+00	0	44	0	634388480	45	3892
2026-01-09 04:16:00.66	12.53	15.83	-37.2	-38.2	20.2	0.00e+00	0	44	0	643825664	44	4143
2026-01-09 04:16:01.37	12.52	15.91	-37.2	-38.2	20.3	0.00e+00	0	44	0	649068544	44	4131
2026-01-09 04:16:02.66	12.48	16.05	-37.1	-38.1	20.3	0.00e+00	0	44	0	658505728	44	4096
2026-01-09 04:16:03.38	12.46	16.13	-37.1	-38.2	20.3	0.00e+00	0	44	0	663748608	44	4119
2026-01-09 04:16:04.67	12.43	16.27	-37.0	-38.0	20.5	0.00e+00	0	44	0	673185792	44	4036
2026-01-09 04:16:05.38	12.41	16.35	-36.9	-38.0	20.5	0.00e+00	0	44	0	678428672	44	4012
2026-01-09 04:16:06.67	12.37	16.50	-36.9	-38.0	20.5	0.00e+00	0	44	0	687865856	44	4008
2026-01-09 04:16:07.39	12.35	16.58	-37.0	-38.0	20.4	0.00e+00	0	44	0	693108736	44	4048
2026-01-09 04:16:08.67	12.32	16.72	-36.7	-37.8	20.7	0.00e+00	0	44	0	702545920	44	3938
2026-01-09 04:16:09.39	12.30	16.81	-36.8	-37.9	20.6	0.00e+00	0	44	0	707788800	44	3964
2026-01-09 04:16:10.68	12.26	16.95	-36.4	-37.5	20.8	0.00e+00	0	44	0	716177408	43	4036
2026-01-09 04:16:11.40	12.24	17.03	-36.5	-37.6	20.7	0.00e+00	0	44	0	721420288	43	4063
2026-01-09 04:16:12.73	12.20	17.19	-36.5	-37.5	20.8	0.00e+00	0	44	0	731906048	43	4044
2026-01-09 04:16:13.45	12.18	17.27	-36.4	-37.4	20.8	0.00e+00	0	44	0	737148928	43	3999
2026-01-09 04:16:14.74	12.14	17.42	-36.3	-37.3	20.9	0.00e+00	0	44	0	746586112	43	3956
2026-01-09 04:16:15.46	12.12	17.50	-36.3	-37.3	21.0	0.00e+00	0	44	0	750780416	43	3951
2026-01-09 04:16:16.75	12.08	17.66	-36.4	-37.4	20.9	0.00e+00	0	44	0	760217600	43	4004
2026-01-09 04:16:17.47	12.06	17.74	-36.2	-37.2	21.1	0.00e+00	0	44	0	765460480	43	3902
2026-01-09 04:16:18.76	12.02	17.89	-36.2	-37.3	21.0	0.00e+00	0	44	0	774897664	43	3917
2026-01-09 04:16:19.47	12.00	17.98	-36.2	-37.3	21.1	0.00e+00	0	44	0	780140544	43	3916
2026-01-09 04:16:20.76	11.96	18.13	-36.2	-37.3	21.0	0.00e+00	0	44	0	789577728	43	3932
2026-01-09 04:16:21.48	11.94	18.22	-36.2	-37.2	21.0	0.00e+00	0	44	0	794820608	43	3908
2026-01-09 04:16:22.77	11.90	18.37	-36.2	-37.2	21.0	0.00e+00	0	44	0	804257792	43	3913
2026-01-09 04:16:23.56	11.87	18.47	-36.1	-37.2	21.1	0.00e+00	0	44	0	809500672	42	4106
2026-01-09 04:16:24.71	11.84	18.61	-36.2	-37.3	21.0	0.00e+00	0	44	0	817889280	42	4149
2026-01-09 04:16:25.57	11.81	18.72	-36.1	-37.2	21.1	0.00e+00	0	44	0	824180736	42	4113
2026-01-09 04:16:26.72	11.77	18.86	-36.1	-37.1	21.1	0.00e+00	0	44	0	832569344	42	4089
2026-01-09 04:16:27.84	11.73	19.00	-36.2	-37.2	21.1	0.00e+00	0	44	0	840957952	42	4129
2026-01-09 04:16:28.85	11.70	19.12	-36.2	-37.2	21.1	0.00e+00	0	44	0	848297984	42	4127
2026-01-09 04:16:29.86	11.67	19.25	-36.1	-37.1	21.2	0.00e+00	0	44	0	854589440	42	4066
2026-01-09 04:16:30.86	11.63	19.37	-36.1	-37.1	21.2	0.00e+00	0	44	0	861929472	42	4056
2026-01-09 04:16:31.86	11.60	19.50	-36.1	-37.0	21.2	0.00e+00	0	44	0	869269504	42	4051
2026-01-09 04:16:32.86	11.56	19.63	-36.0	-37.0	21.4	0.00e+00	0	44	0	876609536	42	4008
2026-01-09 04:16:33.87	11.53	19.76	-36.0	-37.0	21.3	0.00e+00	0	44	0	883949568	42	4028
2026-01-09 04:16:34.87	11.49	19.88	-36.1	-37.1	21.3	0.00e+00	0	44	0	891289600	42	4059
2026-01-09 04:16:35.88	11.46	20.01	-36.0	-37.0	21.3	0.00e+00	0	44	0	898629632	42	4019
2026-01-09 04:16:36.88	11.42	20.14	-36.1	-37.0	21.3	0.00e+00	0	44	0	905969664	42	4050
2026-01-09 04:16:37.88	11.39	20.27	-36.1	-37.1	21.3	0.00e+00	0	44	0	913309696	42	4070
2026-01-09 04:16:38.89	11.35	20.41	-35.9	-36.9	21.4	0.00e+00	0	44	0	920649728	42	3979
2026-01-09 04:16:39.89	11.31	20.54	-36.1	-37.0	21.3	0.00e+00	0	44	0	927989760	42	4031
2026-01-09 04:16:40.94	11.27	20.68	-36.0	-37.0	21.3	0.00e+00	0	44	0	935329792	42	4020
2026-01-09 04:16:41.85	11.24	20.80	-36.0	-37.0	21.3	0.00e+00	0	44	0	941621248	42	4010
2026-01-09 04:16:42.86	11.20	20.93	-36.1	-37.0	21.3	0.00e+00	0	44	0	948961280	42	4050
2026-01-09 04:16:43.86	11.16	21.07	-36.2	-37.1	21.2	0.00e+00	0	44	0	956301312	42	4082
2026-01-09 04:16:44.86	11.12	21.20	-36.1	-37.0	21.3	0.00e+00	0	44	0	963641344	42	4039
2026-01-09 04:16:45.87	11.09	21.34	-36.0	-37.0	21.3	0.00e+00	0	44	0	970981376	42	4010
2026-01-09 04:16:46.87	11.05	21.47	-36.1	-37.0	21.3	0.00e+00	0	44	0	978321408	42	4039
2026-01-09 04:16:47.87	11.01	21.61	-35.9	-36.9	21.5	0.00e+00	0	44	0	984612864	42	3961
2026-01-09 04:16:48.87	10.97	21.75	-36.1	-37.0	21.3	0.00e+00	0	44	0	991952896	42	4043
2026-01-09 04:16:49.88	10.92	21.89	-36.1	-37.0	21.3	0.00e+00	0	44	0	999292928	42	4031
2026-01-09 04:16:50.88	10.88	22.03	-36.1	-37.0	21.3	0.00e+00	0	44	0	1006632960	42	4032
2026-01-09 04:16:51.89	10.84	22.17	-36.0	-36.9	21.4	0.00e+00	0	44	0	1013972992	42	3989
2026-01-09 04:16:52.97	10.80	22.32	-36.2	-37.1	21.3	0.00e+00	0	44	0	1021313024	42	4058
2026-01-09 04:16:53.86	10.76	22.45	-36.1	-37.0	21.4	0.00e+00	0	44	0	1028653056	42	4024
2026-01-09 04:16:55.00	10.71	22.61	-36.0	-36.9	21.5	0.00e+00	0	44	0	1037041664	42	3966
2026-01-09 04:16:55.86	10.67	22.73	-36.0	-36.9	21.4	0.00e+00	0	44	0	1042284544	42	3979
2026-01-09 04:16:57.00	10.62	22.90	-36.0	-36.9	21.5	0.00e+00	0	44	0	1050673152	42	3994
2026-01-09 04:16:57.86	10.59	23.02	-36.0	-36.8	21.5	0.00e+00	0	44	0	1056964608	42	3958
2026-01-09 04:16:59.01	10.54	23.19	-35.8	-36.7	21.6	0.00e+00	0	44	0	1065353216	42	3875
2026-01-09 04:16:59.87	10.50	23.32	-35.9	-36.8	21.5	0.00e+00	0	44	0	1071644672	42	3918
2026-01-09 04:17:01.02	10.44	23.49	-36.0	-36.9	21.5	0.00e+00	0	44	0	1080033280	42	3960
2026-01-09 04:17:01.86	10.41	23.61	-35.9	-36.7	21.6	0.00e+00	0	44	0	1086324736	42	3912
2026-01-09 04:17:03.01	10.35	23.78	-35.8	-36.7	21.6	0.00e+00	0	44	0	1094713344	42	3910
2026-01-09 04:17:03.87	10.31	23.91	-35.9	-36.7	21.5	0.00e+00	0	44	0	1101004800	42	3912
2026-01-09 04:17:05.01	10.26	24.08	-35.8	-36.7	21.7	0.00e+00	0	44	0	1108344832	42	3873
2026-01-09 04:17:05.87	10.22	24.21	-35.7	-36.6	21.7	0.00e+00	0	44	0	1115684864	42	3856
2026-01-09 04:17:07.02	10.16	24.39	-35.8	-36.7	21.7	0.00e+00	0	44	0	1124073472	42	3875
2026-01-09 04:17:07.88	10.12	24.52	-35.7	-36.6	21.7	0.00e+00	0	44	0	1129316352	42	3856
2026-01-09 04:17:09.02	10.07	24.69	-35.7	-36.5	21.8	0.00e+00	0	44	0	1137704960	42	3815
2026-01-09 04:17:09.88	10.02	24.83	-35.6	-36.5	21.8	0.00e+00	0	44	0	1143996416	42	3809
2026-01-09 04:17:11.03	9.96	25.01	-35.7	-36.6	21.8	0.00e+00	0	44	0	1152385024	42	3841
2026-01-09 04:17:11.89	9.92	25.14	-35.5	-36.3	22.0	0.00e+00	0	44	0	1158676480	41	3948
2026-01-09 04:17:13.04	9.86	25.32	-35.5	-36.4	22.0	0.00e+00	0	44	0	1167065088	41	3973
2026-01-09 04:17:13.89	9.82	25.46	-35.5	-36.4	21.9	0.00e+00	0	44	0	1173356544	41	3985
2026-01-09 04:17:15.04	9.76	25.64	-35.6	-36.5	21.9	0.00e+00	0	44	0	1181745152	41	4005
2026-01-09 04:17:16.32	9.69	25.85	-35.4	-36.3	22.1	0.00e+00	0	44	0	1190133760	41	3930
2026-01-09 04:17:17.03	9.65	25.96	-35.4	-36.2	22.1	0.00e+00	0	44	0	1195376640	41	3912
2026-01-09 04:17:18.32	9.58	26.17	-35.3	-36.2	22.1	0.00e+00	0	44	0	1204813824	41	3891
2026-01-09 04:17:19.04	9.54	26.29	-35.4	-36.2	22.1	0.00e+00	0	44	0	1210056704	41	3908
2026-01-09 04:17:20.33	9.47	26.50	-35.3	-36.2	22.1	0.00e+00	0	44	0	1219493888	41	3896
2026-01-09 04:17:21.05	9.43	26.62	-35.4	-36.2	22.1	0.00e+00	0	44	0	1224736768	41	3903
2026-01-09 04:17:22.34	9.36	26.84	-35.4	-36.2	22.1	0.00e+00	0	44	0	1234173952	41	3907
2026-01-09 04:17:23.05	9.32	26.96	-35.4	-36.3	22.0	0.00e+00	0	44	0	1239416832	41	3931
2026-01-09 04:17:24.34	9.24	27.17	-35.2	-36.1	22.2	0.00e+00	0	44	0	1248854016	41	3851
2026-01-09 04:17:25.06	9.20	27.29	-35.3	-36.1	22.2	0.00e+00	0	44	0	1253048320	41	3864
2026-01-09 04:17:26.35	9.12	27.51	-35.2	-36.0	22.3	0.00e+00	0	44	0	1262485504	41	3815
2026-01-09 04:17:27.07	9.08	27.64	-35.1	-35.9	22.3	0.00e+00	0	44	0	1267728384	41	3778
2026-01-09 04:17:28.35	9.00	27.86	-35.1	-36.0	22.3	0.00e+00	0	44	0	1277165568	40	4015
2026-01-09 04:17:29.07	8.96	27.98	-35.1	-36.0	22.3	0.00e+00	0	44	0	1282408448	40	4037
2026-01-09 04:17:30.36	8.88	28.21	-35.1	-35.9	22.4	0.00e+00	0	44	0	1291845632	40	4000
2026-01-09 04:17:31.07	8.83	28.33	-35.2	-36.1	22.2	0.00e+00	0	44	0	1297088512	40	4073
2026-01-09 04:17:32.36	8.75	28.56	-35.2	-36.1	22.3	0.00e+00	0	44	0	1306525696	40	4063
2026-01-09 04:17:33.08	8.70	28.69	-35.1	-35.9	22.4	0.00e+00	0	44	0	1311768576	40	3995
2026-01-09 04:17:34.37	8.62	28.92	-35.0	-35.9	22.4	0.00e+00	0	44	0	1321205760	40	3975
2026-01-09 04:17:35.09	8.57	29.05	-35.1	-36.0	22.3	0.00e+00	0	44	0	1326448640	40	4007
2026-01-09 04:17:36.38	8.49	29.29	-34.9	-35.8	22.5	0.00e+00	0	44	0	1335885824	40	3935
2026-01-09 04:17:37.09	8.44	29.42	-35.0	-35.9	22.5	0.00e+00	0	44	0	1340080128	40	3965
2026-01-09 04:17:38.48	8.34	29.67	-34.8	-35.7	22.6	0.00e+00	0	44	0	1350565888	40	3873
2026-01-09 04:17:39.20	8.29	29.80	-34.9	-35.7	22.6	0.00e+00	0	44	0	1355808768	40	3901
2026-01-09 04:17:40.49	8.20	30.04	-34.8	-35.6	22.7	0.00e+00	0	44	0	1365245952	40	3864
2026-01-09 04:17:41.20	8.15	30.18	-34.7	-35.6	22.7	0.00e+00	0	44	0	1370488832	40	3834
2026-01-09 04:17:42.50	8.06	30.42	-34.8	-35.7	22.7	0.00e+00	0	44	0	1379926016	40	3873
2026-01-09 04:17:43.21	8.01	30.56	-34.9	-35.7	22.6	0.00e+00	0	44	0	1384120320	40	3911
2026-01-09 04:17:44.50	7.91	30.80	-34.9	-35.7	22.6	0.00e+00	0	44	0	1393557504	40	3903
2026-01-09 04:17:45.22	7.86	30.94	-34.8	-35.7	22.6	0.00e+00	0	44	0	1399848960	40	3880
2026-01-09 04:17:46.51	7.76	31.19	-34.7	-35.6	22.7	0.00e+00	0	44	0	1408237568	40	3830
2026-01-09 04:17:47.23	7.71	31.33	-34.9	-35.7	22.6	0.00e+00	0	44	0	1413480448	40	3903
2026-01-09 04:17:48.52	7.61	31.58	-35.0	-35.8	22.5	0.00e+00	0	44	0	1422917632	40	3947
2026-01-09 04:17:49.23	7.55	31.72	-35.0	-35.9	22.5	0.00e+00	0	44	0	1428160512	40	3964
2026-01-09 04:17:50.52	7.45	31.98	-35.0	-35.9	22.5	0.00e+00	0	44	0	1437597696	40	3974
2026-01-09 04:17:51.24	7.39	32.12	-35.0	-35.9	22.5	0.00e+00	0	44	0	1442840576	40	3970
2026-01-09 04:17:52.53	7.28	32.38	-35.1	-36.0	22.4	0.00e+00	0	44	0	1452277760	40	4024
2026-01-09 04:17:53.24	7.23	32.53	-35.1	-36.0	22.3	0.00e+00	0	44	0	1457520640	40	4036
2026-01-09 04:17:54.54	7.12	32.79	-35.2	-36.0	22.3	0.00e+00	0	44	0	1466957824	40	4050
2026-01-09 04:17:55.26	7.06	32.94	-35.1	-36.0	22.4	0.00e+00	0	44	0	1471152128	40	4021
2026-01-09 04:17:56.66	6.93	33.23	-35.0	-35.9	22.4	0.00e+00	0	44	0	1481637888	40	3982
2026-01-09 04:17:57.71	6.84	33.45	-35.1	-36.0	22.4	0.00e+00	0	44	0	1488977920	40	4006
2026-01-09 04:17:58.61	6.76	33.63	-35.0	-35.9	22.5	0.00e+00	0	44	0	1495269376	40	3969
2026-01-09 04:17:59.61	6.67	33.84	-35.1	-35.9	22.4	0.00e+00	0	44	0	1502609408	40	4000
2026-01-09 04:18:00.62	6.58	34.06	-35.1	-35.9	22.4	0.00e+00	0	44	0	1510998016	40	3993
2026-01-09 04:18:01.62	6.49	34.27	-35.0	-35.9	22.5	0.00e+00	0	44	0	1517289472	40	3986
2026-01-09 04:18:02.63	6.40	34.49	-35.1	-35.9	22.4	0.00e+00	0	44	0	1524629504	40	3995
2026-01-09 04:18:03.63	6.30	34.70	-35.0	-35.8	22.5	0.00e+00	0	44	0	1531969536	40	3954
2026-01-09 04:18:04.63	6.20	34.92	-35.1	-35.9	22.4	0.00e+00	0	44	0	1539309568	40	3997
2026-01-09 04:18:05.75	6.10	35.17	-35.0	-35.8	22.5	0.00e+00	0	44	0	1547698176	40	3947
2026-01-09 04:18:06.64	6.01	35.36	-35.1	-36.0	22.4	0.00e+00	0	44	0	1553989632	40	4019
2026-01-09 04:18:07.67	5.90	35.59	-34.9	-35.7	22.6	0.00e+00	0	44	0	1561329664	40	3902
2026-01-09 04:18:08.67	5.80	35.82	-34.9	-35.7	22.3	0.00e+00	0	44	0	1568669696	40	3909
2026-01-09 04:18:09.67	5.70	36.04	-35.0	-35.9	22.5	0.00e+00	0	44	0	1576009728	40	3962
2026-01-09 04:18:10.67	5.59	36.27	-35.1	-36.0	22.4	0.00e+00	0	44	0	1583349760	40	4026
2026-01-09 04:18:11.68	5.49	36.50	-35.1	-36.0	22.4	0.00e+00	0	44	0	1590689792	40	4018
2026-01-09 04:18:12.69	5.38	36.73	-35.1	-36.0	22.4	0.00e+00	0	44	0	1598029824	40	4038
2026-01-09 04:18:13.69	5.27	36.96	-35.1	-36.0	22.4	0.00e+00	0	44	0	1604321280	40	4026
2026-01-09 04:18:14.69	5.16	37.19	-35.3	-36.2	22.3	0.00e+00	0	44	0	1611661312	40	4100
2026-01-09 04:18:15.69	5.05	37.42	-35.2	-36.0	22.4	0.00e+00	0	44	0	1619001344	40	4032
2026-01-09 04:18:16.70	4.93	37.66	-35.2	-36.0	22.3	0.00e+00	0	44	0	1626341376	40	4044
2026-01-09 04:18:17.73	4.81	37.91	-35.3	-36.2	22.2	0.00e+00	0	44	0	1633681408	40	4119
2026-01-09 04:18:18.76	4.69	38.15	-35.2	-36.1	22.3	0.00e+00	0	44	0	1641021440	40	4069
2026-01-09 04:18:19.76	4.57	38.39	-35.4	-36.3	22.2	0.00e+00	0	44	0	1648361472	40	4152
2026-01-09 04:18:20.85	4.44	38.66	-35.2	-36.1	22.3	0.00e+00	0	44	0	1656750080	40	4073
2026-01-09 04:18:21.71	4.33	38.87	-35.2	-36.1	22.3	0.00e+00	0	44	0	1661992960	40	4083
2026-01-09 04:18:23.08	4.16	39.20	-35.2	-36.1	22.2	0.00e+00	0	44	0	1672478720	40	4083
2026-01-09 04:18:23.79	4.07	39.38	-35.3	-36.2	22.2	0.00e+00	0	44	0	1677721600	40	4116
2026-01-09 04:18:25.09	3.90	39.70	-35.2	-36.0	22.4	0.00e+00	0	44	0	1687158784	40	4046
2026-01-09 04:18:25.80	3.81	39.88	-35.3	-36.1	22.3	0.00e+00	0	44	0	1692401664	40	4087
2026-01-09 04:18:27.09	3.63	40.20	-35.4	-36.3	22.2	0.00e+00	0	44	0	1701838848	40	4152
2026-01-09 04:18:27.81	3.54	40.38	-35.1	-35.9	22.5	0.00e+00	0	44	0	1706033152	40	3991
2026-01-09 04:18:29.10	3.36	40.71	-35.3	-36.2	22.2	0.00e+00	0	44	0	1715470336	40	4110
2026-01-09 04:18:29.81	3.26	40.89	-35.3	-36.2	22.2	0.00e+00	0	44	0	1720713216	40	4110
2026-01-09 04:18:31.11	3.07	41.23	-35.4	-36.2	22.2	0.00e+00	0	44	0	1730150400	40	4143
2026-01-09 04:18:31.82	2.97	41.41	-35.5	-36.4	22.0	0.00e+00	0	44	0	1735393280	40	4204
2026-01-09 04:18:33.11	2.78	41.75	-35.4	-36.3	22.1	0.00e+00	0	44	0	1744830464	40	4178
2026-01-09 04:18:33.83	2.67	41.94	-35.4	-36.2	22.2	0.00e+00	0	44	0	1750073344	40	4142
2026-01-09 04:18:35.17	2.47	42.30	-35.4	-36.3	22.1	0.00e+00	0	44	0	1759510528	40	4173
2026-01-09 04:18:36.14	2.32	42.55	-35.2	-36.1	22.3	0.00e+00	0	44	0	1766850560	40	4067
2026-01-09 04:18:37.45	2.11	42.91	-35.4	-36.2	22.2	0.00e+00	0	44	0	1776287744	40	4132
2026-01-09 04:18:38.19	1.99	43.11	-35.3	-36.1	22.3	0.00e+00	0	44	0	1781530624	40	4073
2026-01-09 04:18:39.48	1.78	43.46	-35.4	-36.3	22.2	0.00e+00	0	44	0	1790967808	40	4147
2026-01-09 04:18:40.26	1.65	43.67	-35.5	-36.4	22.1	0.00e+00	0	44	0	1796210688	40	4194
2026-01-09 04:18:41.44	1.45	44.00	-35.4	-36.3	22.2	0.00e+00	0	44	0	1804599296	40	4161
2026-01-09 04:18:42.30	1.30	44.23	-35.2	-36.1	22.3	0.00e+00	0	44	0	1810890752	40	4075
2026-01-09 04:18:43.44	1.10	44.55	-35.3	-36.2	22.2	0.00e+00	0	44	0	1819279360	40	4135
2026-01-09 04:18:44.30	0.94	44.79	-35.5	-36.4	22.1	0.00e+00	0	44	0	1825570816	40	4203
2026-01-09 04:18:45.45	0.73	45.12	-35.6	-36.5	21.9	0.00e+00	0	44	0	1833959424	40	4286
2026-01-09 04:18:46.31	0.57	45.36	-35.7	-36.6	21.8	0.00e+00	0	44	0	1840250880	41	4079
2026-01-09 04:18:47.45	0.35	45.69	-35.9	-36.8	21.7	0.00e+00	0	44	0	1848639488	41	4175
2026-01-09 04:18:48.32	0.19	45.94	-35.9	-36.8	21.7	0.00e+00	0	44	0	1854930944	41	4191
2026-01-09 04:18:49.51	359.95	46.28	-36.6	-37.5	21.1	0.00e+00	0	44	0	1863319552	42	4261
2026-01-09 04:18:50.37	359.78	46.53	-36.4	-37.3	21.2	0.00e+00	0	44	0	1869611008	42	4167
2026-01-09 04:18:51.52	359.54	46.87	-36.4	-37.3	21.2	0.00e+00	0	44	0	1877999616	42	4171
2026-01-09 04:18:52.38	359.36	47.12	-36.2	-37.1	21.3	0.00e+00	0	44	0	1884291072	42	4078
2026-01-09 04:18:53.67	359.09	47.50	-35.9	-36.8	21.5	0.00e+00	0	44	0	1893728256	42	3953
2026-01-09 04:18:54.39	358.93	47.72	-36.1	-37.0	21.5	0.00e+00	0	44	0	1898971136	42	4012
2026-01-09 04:18:55.68	358.65	48.10	-36.1	-37.0	21.4	0.00e+00	0	44	0	1908408320	42	4009
2026-01-09 04:18:56.39	358.49	48.32	-36.1	-36.9	21.5	0.00e+00	0	44	0	1912602624	42	4002
2026-01-09 04:18:57.68	358.19	48.71	-36.2	-37.1	21.4	0.00e+00	0	44	0	1922039808	42	4059
2026-01-09 04:18:58.46	358.01	48.94	-36.4	-37.3	21.2	0.00e+00	0	44	0	1927282688	42	4160
2026-01-09 04:18:59.75	357.70	49.34	-36.6	-37.6	20.9	0.00e+00	0	44	0	1936719872	42	4295
2026-01-09 04:19:00.55	357.50	49.58	-36.5	-37.4	21.0	0.00e+00	0	44	0	1943011328	43	3993
2026-01-09 04:19:01.69	357.21	49.94	-36.3	-37.2	21.2	0.00e+00	0	44	0	1951399936	43	3908
2026-01-09 04:19:02.55	356.99	50.20	-36.4	-37.4	21.1	0.00e+00	0	44	0	1957691392	43	3963
2026-01-09 04:19:03.70	356.69	50.56	-36.4	-37.3	21.1	0.00e+00	0	44	0	1966080000	43	3930
2026-01-09 04:19:04.83	356.39	50.92	-36.3	-37.2	21.2	0.00e+00	0	44	0	1974468608	43	3881
2026-01-09 04:19:05.69	356.16	51.19	-36.6	-37.5	20.9	0.00e+00	0	44	0	1979711488	43	4013
2026-01-09 04:19:06.84	355.84	51.55	-36.8	-37.7	20.8	0.00e+00	0	44	0	1988100096	43	4136
2026-01-09 04:19:07.70	355.59	51.82	-36.9	-37.8	20.8	0.00e+00	0	44	0	1994391552	43	4165
2026-01-09 04:19:08.84	355.26	52.19	-36.7	-37.6	20.9	0.00e+00	0	44	0	2002780160	43	4090
2026-01-09 04:19:09.70	355.00	52.46	-36.7	-37.7	20.9	0.00e+00	0	44	0	2009071616	43	4103
2026-01-09 04:19:10.84	354.66	52.83	-36.5	-37.4	21.2	0.00e+00	0	44	0	2017460224	43	3984
2026-01-09 04:19:11.71	354.39	53.11	-36.5	-37.4	21.2	0.00e+00	0	44	0	2023751680	43	3985
2026-01-09 04:19:12.85	354.02	53.48	-36.4	-37.3	21.2	0.00e+00	0	44	0	2032140288	43	3932
2026-01-09 04:19:13.71	353.74	53.76	-36.7	-37.6	21.0	0.00e+00	0	44	0	2037383168	43	4084
2026-01-09 04:19:14.86	353.36	54.14	-37.1	-38.1	20.5	0.00e+00	0	44	0	2045771776	43	4323
2026-01-09 04:19:15.72	353.07	54.42	-37.5	-38.5	20.3	0.00e+00	0	44	0	2053111808	44	4247
2026-01-09 04:19:16.86	352.67	54.79	-37.1	-38.1	20.7	0.00e+00	0	44	0	2060451840	44	4052
2026-01-09 04:19:17.79	352.34	55.10	-37.0	-38.0	20.8	0.00e+00	0	44	0	2067791872	44	4022
2026-01-09 04:19:19.00	351.89	55.50	-36.7	-37.6	21.1	0.00e+00	0	44	0	2076180480	44	3842
2026-01-09 04:19:19.86	351.57	55.78	-36.5	-37.4	21.2	0.00e+00	0	44	0	2082471936	43	3986
2026-01-09 04:19:21.00	351.13	56.16	-36.3	-37.2	21.4	0.00e+00	0	44	0	2090860544	42	4126
2026-01-09 04:19:21.87	350.79	56.45	-36.3	-37.2	21.4	0.00e+00	0	44	0	2097152000	42	4129
2026-01-09 04:19:23.01	350.33	56.83	-36.4	-37.4	21.2	0.00e+00	0	44	0	2104492032	42	4198
2026-01-09 04:19:23.87	349.97	57.12	-36.6	-37.5	21.0	0.00e+00	0	44	0	2111832064	42	4289
2026-01-09 04:19:25.02	349.49	57.50	-36.8	-37.7	20.9	0.00e+00	0	44	0	2120220672	43	4145
2026-01-09 04:19:25.88	349.11	57.79	-37.0	-37.9	20.8	0.00e+00	0	44	0	2125463552	43	4216
2026-01-09 04:19:27.02	348.60	58.17	-36.8	-37.7	21.0	0.00e+00	0	44	0	2133852160	44	3911
2026-01-09 04:19:27.88	348.21	58.46	-36.9	-37.8	21.0	0.00e+00	0	44	0	2140143616	44	3928
2026-01-09 04:19:29.03	347.67	58.85	-36.9	-37.8	20.9	0.00e+00	0	44	0	2148532224	44	3945
2026-01-09 04:19:29.89	347.26	59.14	-36.9	-37.9	20.9	0.00e+00	0	44	0	2154823680	44	3969
2026-01-09 04:19:31.04	346.69	59.52	-36.9	-37.9	20.7	0.00e+00	0	44	0	2163212288	43	4226
2026-01-09 04:19:31.90	346.25	59.81	-36.7	-37.6	20.9	0.00e+00	0	44	0	2169503744	43	4083
2026-01-09 04:19:33.04	345.66	60.19	-36.4	-37.4	21.2	0.00e+00	0	44	0	2177892352	43	3967
2026-01-09 04:19:33.92	345.19	60.49	-36.3	-37.2	21.4	0.00e+00	0	44	0	2184183808	43	3886
2026-01-09 04:19:35.06	344.56	60.87	-36.3	-37.2	21.4	0.00e+00	0	44	0	2191523840	43	3878
2026-01-09 04:19:36.03	344.01	61.19	-35.9	-36.8	21.4	0.00e+00	0	44	0	2198863872	42	3945
2026-01-09 04:19:37.04	343.43	61.53	-36.3	-37.3	21.3	0.00e+00	0	44	0	2206203904	42	4146
2026-01-09 04:19:38.04	342.83	61.86	-36.1	-37.0	21.6	0.00e+00	0	44	0	2213543936	42	4005
2026-01-09 04:19:39.04	342.22	62.19	-36.0	-36.9	21.7	0.00e+00	0	44	0	2220883968	42	3959
2026-01-09 04:19:40.04	341.59	62.52	-35.8	-36.7	21.8	0.00e+00	0	44	0	2228224000	42	3898
2026-01-09 04:19:41.04	340.94	62.85	-35.9	-36.8	21.7	0.00e+00	0	44	0	2235564032	42	3929
2026-01-09 04:19:42.05	340.27	63.18	-36.0	-36.9	21.6	0.00e+00	0	44	0	2242904064	41	4226
2026-01-09 04:19:43.05	339.59	63.50	-35.7	-36.6	21.9	0.00e+00	0	44	0	2250244096	41	4087
2026-01-09 04:19:44.06	338.88	63.83	-35.8	-36.6	21.9	0.00e+00	0	44	0	2256535552	41	4084
2026-01-09 04:19:45.43	337.88	64.27	-35.7	-36.5	22.0	0.00e+00	0	44	0	2267021312	41	4043
2026-01-09 04:19:46.16	337.33	64.50	-35.5	-36.4	22.0	0.00e+00	0	44	0	2272264192	41	3965
2026-01-09 04:19:47.77	336.09	65.01	-35.3	-36.2	22.2	0.00e+00	0	44	0	2283798528	41	3892
2026-01-09 04:19:48.34	335.63	65.18	-35.4	-36.3	22.2	0.00e+00	0	44	0	2287992832	41	3915
2026-01-09 04:19:49.92	334.34	65.67	-35.1	-36.0	22.5	0.00e+00	0	44	0	2299527168	40	4014
2026-01-09 04:19:50.54	333.81	65.86	-35.0	-35.8	22.6	0.00e+00	0	44	0	2303721472	40	3933
2026-01-09 04:19:52.12	332.43	66.33	-34.8	-35.6	22.8	0.00e+00	0	44	0	2315255808	40	3828
2026-01-09 04:19:52.69	331.92	66.50	-35.0	-35.8	22.7	0.00e+00	0	44	0	2319450112	40	3931
2026-01-09 04:19:54.33	330.40	66.98	-35.2	-36.1	22.4	0.00e+00	0	44	0	2330984448	40	4059
2026-01-09 04:19:54.91	329.85	67.14	-35.4	-36.2	22.2	0.00e+00	0	44	0	2335178752	40	4135
2026-01-09 04:19:56.48	328.30	67.58	-35.1	-36.0	22.4	0.00e+00	0	44	0	2346713088	40	4028
2026-01-09 04:19:57.07	327.70	67.74	-35.4	-36.3	22.1	0.00e+00	0	44	0	2350907392	40	4170
2026-01-09 04:19:58.65	326.05	68.16	-35.4	-36.2	22.2	0.00e+00	0	44	0	2362441728	40	4139
2026-01-09 04:19:59.58	325.05	68.41	-35.3	-36.2	22.2	0.00e+00	0	44	0	2368733184	40	4101
2026-01-09 04:20:00.59	323.94	68.66	-35.5	-36.3	22.2	0.00e+00	0	44	0	2376073216	40	4184
2026-01-09 04:20:01.59	322.80	68.91	-35.6	-36.5	22.0	0.00e+00	0	44	0	2383413248	40	4243
2026-01-09 04:20:02.59	321.64	69.15	-35.3	-36.1	22.2	0.00e+00	0	44	0	2390753280	41	3862
2026-01-09 04:20:03.60	320.44	69.38	-35.2	-36.1	22.3	0.00e+00	0	44	0	2398093312	41	3850
2026-01-09 04:20:04.60	319.22	69.60	-35.2	-36.0	22.4	0.00e+00	0	44	0	2405433344	41	3820
2026-01-09 04:20:05.60	317.97	69.82	-35.3	-36.1	22.3	0.00e+00	0	44	0	2412773376	41	3846
2026-01-09 04:20:06.74	316.51	70.05	-35.7	-36.6	22.0	0.00e+00	0	44	0	2421161984	41	4058
2026-01-09 04:20:07.63	315.35	70.23	-35.1	-36.0	22.4	0.00e+00	0	44	0	2427453440	41	3792
2026-01-09 04:20:08.66	313.97	70.42	-35.1	-35.9	22.4	0.00e+00	0	44	0	2434793472	40	3995
2026-01-09 04:20:09.66	312.61	70.60	-34.9	-35.7	22.7	0.00e+00	0	44	0	2442133504	40	3902
2026-01-09 04:20:10.67	311.21	70.77	-34.8	-35.7	22.7	0.00e+00	0	43	0	2449473536	40	3873
2026-01-09 04:20:11.67	309.80	70.93	-35.1	-36.0	22.4	0.00e+00	0	44	0	2456813568	40	4025
2026-01-09 04:20:12.67	308.36	71.07	-35.3	-36.1	22.2	0.00e+00	0	44	0	2464153600	40	4089
2026-01-09 04:20:13.67	306.90	71.21	-35.5	-36.4	22.1	0.00e+00	0	44	0	2471493632	40	4209
2026-01-09 04:20:14.67	305.42	71.33	-35.7	-36.5	21.9	0.00e+00	0	44	0	2477785088	40	4291
2026-01-09 04:20:15.68	303.90	71.44	-35.6	-36.4	22.0	0.00e+00	0	44	0	2485125120	40	4236
2026-01-09 04:20:16.68	302.38	71.54	-35.7	-36.6	21.8	0.00e+00	0	44	0	2492465152	40	4319
2026-01-09 04:20:17.68	300.84	71.63	-35.4	-36.2	22.2	0.00e+00	0	44	0	2499805184	40	4136
2026-01-09 04:20:18.69	299.28	71.70	-35.3	-36.1	22.3	0.00e+00	0	44	0	2507145216	40	4090
2026-01-09 04:20:19.69	297.72	71.76	-35.3	-36.2	22.2	0.00e+00	0	44	0	2514485248	40	4124
2026-01-09 04:20:20.70	296.13	71.81	-35.3	-36.2	22.3	0.00e+00	0	44	0	2521825280	40	4103
2026-01-09 04:20:21.75	294.47	71.85	-35.2	-36.1	22.4	0.00e+00	0	44	0	2529165312	40	4057
2026-01-09 04:20:22.70	292.96	71.87	-35.0	-35.8	22.5	0.00e+00	0	44	0	2535456768	40	3958
2026-01-09 04:20:23.70	291.37	71.88	-35.2	-36.0	22.4	0.00e+00	0	44	0	2542796800	40	4035
2026-01-09 04:20:24.85	289.54	71.87	-35.6	-36.5	22.0	0.00e+00	0	44	0	2551185408	40	4247
2026-01-09 04:20:25.71	288.18	71.86	-35.6	-36.5	21.9	0.00e+00	0	44	0	2557476864	40	4275
2026-01-09 04:20:27.10	285.98	71.81	-35.6	-36.5	22.0	0.00e+00	0	44	0	2567962624	40	4251
2026-01-09 04:20:27.81	284.86	71.78	-35.6	-36.5	22.0	0.00e+00	0	44	0	2573205504	40	4269
2026-01-09 04:20:29.10	282.84	71.70	-35.7	-36.6	21.9	0.00e+00	0	44	0	2582642688	40	4312
2026-01-09 04:20:29.82	281.73	71.65	-35.7	-36.5	21.8	0.00e+00	0	44	0	2587885568	40	4287
2026-01-09 04:20:31.11	279.74	71.53	-35.7	-36.6	21.9	0.00e+00	0	44	0	2596274176	40	4321
2026-01-09 04:20:31.87	278.59	71.46	-35.9	-36.8	21.7	0.00e+00	0	44	0	2602565632	41	4158
2026-01-09 04:20:33.16	276.65	71.32	-35.7	-36.6	21.9	0.00e+00	0	44	0	2610954240	41	4054
2026-01-09 04:20:33.88	275.58	71.23	-35.8	-36.7	21.6	0.00e+00	0	44	0	2617245696	41	4138
2026-01-09 04:20:35.17	273.69	71.05	-35.7	-36.5	21.9	0.00e+00	0	44	0	2626682880	41	4035
2026-01-09 04:20:35.89	272.66	70.95	-35.7	-36.5	21.9	0.00e+00	0	44	0	2630877184	41	4042
2026-01-09 04:20:37.18	270.83	70.75	-35.6	-36.4	22.0	0.00e+00	0	44	0	2640314368	41	4001
2026-01-09 04:20:37.90	269.83	70.63	-35.3	-36.2	22.2	0.00e+00	0	44	0	2645557248	41	3882
2026-01-09 04:20:39.22	268.04	70.39	-35.2	-36.1	22.4	0.00e+00	0	44	0	2654994432	41	3837
2026-01-09 04:20:39.94	267.07	70.26	-35.4	-36.3	22.2	0.00e+00	0	44	0	2660237312	41	3921
2026-01-09 04:20:41.22	265.40	70.00	-35.1	-36.0	22.4	0.00e+00	0	44	0	2669674496	40	4027
2026-01-09 04:20:41.94	264.48	69.86	-35.1	-36.0	22.4	0.00e+00	0	44	0	2674917376	40	4020
2026-01-09 04:20:43.23	262.87	69.58	-35.5	-36.4	22.1	0.00e+00	0	43	0	2684354560	40	4223
2026-01-09 04:20:43.95	261.99	69.42	-35.6	-36.5	22.0	0.00e+00	0	44	0	2689597440	40	4251
2026-01-09 04:20:45.24	260.45	69.12	-35.6	-36.4	22.0	0.00e+00	0	44	0	2699034624	41	4002
2026-01-09 04:20:45.97	259.60	68.94	-35.4	-36.3	22.1	0.00e+00	0	44	0	2704277504	41	3931
2026-01-09 04:20:47.26	258.13	68.62	-35.4	-36.3	22.2	0.00e+00	0	44	0	2712666112	41	3933
2026-01-09 04:20:47.97	257.35	68.44	-35.3	-36.2	21.8	0.00e+00	0	44	0	2718957568	41	3902
2026-01-09 04:20:49.26	255.96	68.11	-35.6	-36.5	21.9	0.00e+00	0	44	0	2727346176	41	4050
2026-01-09 04:20:49.98	255.20	67.92	-35.5	-36.4	22.0	0.00e+00	0	44	0	2732589056	41	3982
2026-01-09 04:20:51.27	253.88	67.56	-35.4	-36.3	22.0	0.00e+00	0	44	0	2742026240	41	3931
2026-01-09 04:20:52.19	252.97	67.31	-35.2	-36.0	22.3	0.00e+00	0	44	0	2749366272	41	3814
2026-01-09 04:20:53.20	251.99	67.02	-35.3	-36.1	22.2	0.00e+00	0	44	0	2755657728	41	3853
2026-01-09 04:20:54.55	250.72	66.63	-35.2	-36.1	22.2	0.00e+00	0	44	0	2766143488	41	3839
2026-01-09 04:20:55.27	250.07	66.42	-35.2	-36.0	22.4	0.00e+00	0	44	0	2771386368	41	3823
2026-01-09 04:20:56.55	248.93	66.04	-35.3	-36.1	22.3	0.00e+00	0	44	0	2780823552	41	3859
2026-01-09 04:20:57.27	248.31	65.82	-35.3	-36.2	22.3	0.00e+00	0	44	0	2786066432	41	3887
2026-01-09 04:20:58.56	247.23	65.43	-35.6	-36.5	21.9	0.00e+00	0	44	0	2794455040	41	4032
2026-01-09 04:20:59.28	246.65	65.20	-35.4	-36.2	22.2	0.00e+00	0	44	0	2799697920	41	3904
2026-01-09 04:21:00.57	245.63	64.80	-35.3	-36.1	22.3	0.00e+00	0	44	0	2809135104	41	3859
2026-01-09 04:21:01.28	245.08	64.58	-35.3	-36.1	22.3	0.00e+00	0	44	0	2814377984	41	3857
2026-01-09 04:21:02.63	244.07	64.15	-35.4	-36.3	22.1	0.00e+00	0	44	0	2824863744	41	3939
2026-01-09 04:21:03.35	243.54	63.91	-35.8	-36.7	21.8	0.00e+00	0	44	0	2829058048	41	4107
2026-01-09 04:21:04.72	242.58	63.47	-35.9	-36.8	21.7	0.00e+00	0	44	0	2839543808	41	4160
2026-01-09 04:21:05.44	242.08	63.24	-35.9	-36.8	21.6	0.00e+00	0	44	0	2844786688	41	4191
2026-01-09 04:21:06.79	241.18	62.80	-36.0	-37.0	21.5	0.00e+00	0	44	0	2854223872	41	4245
2026-01-09 04:21:07.51	240.71	62.56	-36.1	-37.0	21.5	0.00e+00	0	44	0	2859466752	41	4265
2026-01-09 04:21:08.80	239.90	62.13	-36.0	-36.9	21.5	0.00e+00	0	44	0	2868903936	41	4224
2026-01-09 04:21:09.51	239.47	61.90	-35.9	-36.8	21.7	0.00e+00	0	44	0	2874146816	41	4164
2026-01-09 04:21:10.81	238.69	61.46	-35.9	-36.8	21.7	0.00e+00	0	44	0	2883584000	41	4173
2026-01-09 04:21:11.52	238.28	61.23	-36.1	-37.0	21.5	0.00e+00	0	44	0	2888826880	41	4262
2026-01-09 04:21:12.81	237.55	60.80	-36.4	-37.3	21.2	0.00e+00	0	44	0	2897215488	42	4169
2026-01-09 04:21:13.54	237.14	60.55	-36.4	-37.3	21.2	0.00e+00	0	43	0	2903506944	42	4187
2026-01-09 04:21:14.83	236.45	60.12	-36.5	-37.4	21.2	0.00e+00	0	44	0	2911895552	42	4211
2026-01-09 04:21:15.63	236.03	59.85	-36.5	-37.4	21.1	0.00e+00	0	44	0	2918187008	42	4232
2026-01-09 04:21:16.78	235.45	59.46	-36.4	-37.3	21.2	0.00e+00	0	44	0	2926575616	42	4181
2026-01-09 04:21:17.64	235.02	59.17	-36.6	-37.4	20.9	0.00e+00	0	43	0	2932867072	42	4241
2026-01-09 04:21:18.78	234.47	58.79	-37.0	-38.0	20.5	0.00e+00	0	44	0	2941255680	43	4267
2026-01-09 04:21:19.64	234.07	58.50	-37.3	-38.2	20.5	0.00e+00	0	44	0	2947547136	44	4140
2026-01-09 04:21:20.79	233.54	58.11	-37.0	-38.0	20.7	0.00e+00	0	43	0	2954887168	44	4030
2026-01-09 04:21:21.65	233.16	57.82	-36.6	-37.5	21.2	0.00e+00	0	44	0	2961178624	44	3815
2026-01-09 04:21:22.80	232.65	57.43	-36.2	-37.0	21.4	0.00e+00	0	44	0	2969567232	43	3820
2026-01-09 04:21:23.66	232.29	57.15	-36.2	-37.0	21.5	0.00e+00	0	44	0	2975858688	43	3816
2026-01-09 04:21:24.80	231.82	56.76	-36.4	-37.3	21.2	0.00e+00	0	44	0	2984247296	43	3951
2026-01-09 04:21:25.67	231.46	56.47	-36.8	-37.7	20.9	0.00e+00	0	43	0	2990538752	43	4116
2026-01-09 04:21:27.03	230.93	56.02	-36.8	-37.7	20.8	0.00e+00	0	44	0	2999975936	43	4144
2026-01-09 04:21:27.75	230.65	55.78	-36.7	-37.6	20.9	0.00e+00	0	43	0	3005218816	43	4088
2026-01-09 04:21:29.26	230.09	55.28	-36.3	-37.2	21.3	0.00e+00	0	44	0	3016753152	43	3886
2026-01-09 04:21:30.26	229.72	54.94	-36.3	-37.2	21.3	0.00e+00	0	44	0	3024093184	43	3874
2026-01-09 04:21:31.27	229.36	54.61	-36.4	-37.3	21.2	0.00e+00	0	44	0	3031433216	43	3926
2026-01-09 04:21:32.27	229.02	54.28	-36.6	-37.5	21.0	0.00e+00	0	44	0	3038773248	43	4016
2026-01-09 04:21:33.27	228.68	53.95	-36.7	-37.6	20.8	0.00e+00	0	44	0	3046113280	43	4064
2026-01-09 04:21:34.28	228.34	53.62	-36.7	-37.7	20.8	0.00e+00	0	43	0	3052404736	43	4099
2026-01-09 04:21:35.28	228.02	53.30	-36.5	-37.4	21.1	0.00e+00	0	43	0	3059744768	43	4002
2026-01-09 04:21:36.28	227.70	52.97	-36.2	-37.1	21.3	0.00e+00	0	44	0	3067084800	43	3841
2026-01-09 04:21:37.29	227.39	52.65	-36.1	-37.0	21.5	0.00e+00	0	44	0	3074424832	43	3807
2026-01-09 04:21:38.37	227.07	52.30	-36.2	-37.1	21.4	0.00e+00	0	44	0	3082813440	42	4060
2026-01-09 04:21:39.23	226.81	52.02	-36.3	-37.2	21.3	0.00e+00	0	44	0	3088056320	42	4142
2026-01-09 04:21:40.60	226.42	51.58	-36.5	-37.4	21.0	0.00e+00	0	44	0	3098542080	42	4235
2026-01-09 04:21:41.32	226.21	51.35	-36.3	-37.3	21.1	0.00e+00	0	44	0	3103784960	42	4151
2026-01-09 04:21:42.61	225.86	50.95	-36.1	-37.0	21.5	0.00e+00	0	43	0	3113222144	42	4011
2026-01-09 04:21:43.32	225.66	50.72	-35.8	-36.7	21.8	0.00e+00	0	44	0	3118465024	42	3878
2026-01-09 04:21:44.61	225.32	50.32	-35.8	-36.6	21.8	0.00e+00	0	44	0	3126853632	42	3864
2026-01-09 04:21:45.32	225.14	50.09	-35.9	-36.8	21.7	0.00e+00	0	44	0	3132096512	42	3917
2026-01-09 04:21:46.61	224.81	49.69	-36.4	-37.3	21.2	0.00e+00	0	44	0	3141533696	42	4161
2026-01-09 04:21:47.33	224.63	49.47	-36.5	-37.5	21.0	0.00e+00	0	44	0	3146776576	42	4257
2026-01-09 04:21:48.62	224.32	49.07	-36.5	-37.4	21.1	0.00e+00	0	44	0	3156213760	42	4212
2026-01-09 04:21:49.34	224.15	48.85	-36.3	-37.3	21.2	0.00e+00	0	44	0	3161456640	42	4148
2026-01-09 04:21:50.63	223.84	48.46	-36.2	-37.1	21.4	0.00e+00	0	44	0	3170893824	42	4074
2026-01-09 04:21:51.34	223.68	48.25	-36.2	-37.1	21.4	0.00e+00	0	44	0	3176136704	42	4092
2026-01-09 04:21:52.64	223.39	47.85	-36.2	-37.2	21.4	0.00e+00	0	44	0	3185573888	42	4101
2026-01-09 04:21:53.69	223.16	47.54	-36.1	-37.0	21.5	0.00e+00	0	44	0	3192913920	42	4033
2026-01-09 04:21:54.57	222.97	47.28	-36.0	-36.9	21.6	0.00e+00	0	44	0	3199205376	42	3976
2026-01-09 04:21:55.71	222.73	46.94	-35.9	-36.8	21.7	0.00e+00	0	44	0	3207593984	42	3917
2026-01-09 04:21:56.57	222.55	46.69	-35.7	-36.6	21.9	0.00e+00	0	44	0	3213885440	42	3845
2026-01-09 04:21:57.72	222.31	46.35	-35.6	-36.5	21.9	0.00e+00	0	43	0	3222274048	41	4026
2026-01-09 04:21:58.58	222.14	46.10	-35.8	-36.7	21.8	0.00e+00	0	43	0	3228565504	41	4108
2026-01-09 04:21:59.84	221.89	45.73	-36.0	-36.9	21.5	0.00e+00	0	44	0	3236954112	41	4222
2026-01-09 04:22:00.58	221.75	45.52	-36.1	-37.0	21.5	0.00e+00	0	43	0	3242196992	41	4262
2026-01-09 04:22:02.03	221.48	45.11	-36.0	-36.9	21.5	0.00e+00	0	43	0	3252682752	41	4226
2026-01-09 04:22:02.75	221.35	44.90	-36.1	-37.0	20.2	0.00e+00	0	44	0	3257925632	41	4277
2026-01-09 04:22:04.04	221.11	44.54	-35.7	-36.5	21.9	0.00e+00	0	44	0	3267362816	41	4047
2026-01-09 04:22:04.75	220.98	44.34	-35.3	-36.2	22.2	0.00e+00	0	43	0	3272605696	41	3895
2026-01-09 04:22:06.17	220.74	43.94	-35.1	-36.0	22.4	0.00e+00	0	44	0	3283091456	41	3788
2026-01-09 04:22:06.89	220.61	43.74	-35.1	-35.9	22.4	0.00e+00	0	44	0	3288334336	41	3777
2026-01-09 04:22:08.24	220.38	43.37	-35.3	-36.2	22.2	0.00e+00	0	43	0	3297771520	41	3877
2026-01-09 04:22:08.96	220.27	43.17	-35.4	-36.2	22.2	0.00e+00	0	44	0	3303014400	41	3912
2026-01-09 04:22:10.25	220.06	42.82	-35.4	-36.3	22.1	0.00e+00	0	43	0	3312451584	41	3932
2026-01-09 04:22:10.96	219.94	42.63	-35.3	-36.2	22.1	0.00e+00	0	44	0	3317694464	41	3893
2026-01-09 04:22:12.25	219.74	42.28	-35.3	-36.2	22.2	0.00e+00	0	44	0	3327131648	41	3895
2026-01-09 04:22:12.97	219.63	42.09	-35.2	-36.0	22.2	0.00e+00	0	44	0	3332374528	41	3821
2026-01-09 04:22:14.26	219.43	41.75	-35.2	-36.1	22.2	0.00e+00	0	44	0	3340763136	41	3847
2026-01-09 04:22:14.97	219.33	41.56	-35.2	-36.1	22.2	0.00e+00	0	44	0	3347054592	41	3843
2026-01-09 04:22:16.27	219.13	41.22	-35.1	-36.0	22.4	0.00e+00	0	43	0	3355443200	41	3785
2026-01-09 04:22:16.98	219.03	41.04	-35.3	-36.2	22.2	0.00e+00	0	44	0	3360686080	41	3873
2026-01-09 04:22:18.27	218.85	40.70	-35.1	-36.0	22.3	0.00e+00	0	44	0	3370123264	41	3804
2026-01-09 04:22:18.99	218.75	40.52	-35.1	-36.0	22.3	0.00e+00	0	43	0	3375366144	41	3803
2026-01-09 04:22:20.28	218.57	40.19	-35.2	-36.0	22.3	0.00e+00	0	44	0	3384803328	41	3822
2026-01-09 04:22:21.00	218.47	40.01	-35.2	-36.1	22.3	0.00e+00	0	44	0	3390046208	41	3829
2026-01-09 04:22:22.29	218.30	39.68	-35.2	-36.1	22.3	0.00e+00	0	44	0	3399483392	41	3847
2026-01-09 04:22:23.01	218.21	39.50	-35.2	-36.0	22.0	0.00e+00	0	43	0	3404726272	41	3824
2026-01-09 04:22:24.29	218.04	39.18	-35.2	-36.0	22.2	0.00e+00	0	43	0	3414163456	41	3811
2026-01-09 04:22:25.01	217.95	39.00	-35.2	-36.1	22.3	0.00e+00	0	43	0	3418357760	41	3844
2026-01-09 04:22:26.30	217.79	38.69	-35.3	-36.2	22.2	0.00e+00	0	43	0	3427794944	41	3882
2026-01-09 04:22:27.02	217.70	38.51	-35.3	-36.1	22.2	0.00e+00	0	43	0	3433037824	41	3859
2026-01-09 04:22:28.31	217.54	38.20	-35.4	-36.3	22.1	0.00e+00	0	44	0	3442475008	41	3931
2026-01-09 04:22:29.02	217.46	38.03	-35.4	-36.3	22.0	0.00e+00	0	44	0	3447717888	41	3938
2026-01-09 04:22:30.31	217.30	37.72	-35.5	-36.4	22.0	0.00e+00	0	44	0	3457155072	41	3959
2026-01-09 04:22:31.09	217.21	37.54	-35.5	-36.4	21.9	0.00e+00	0	43	0	3462397952	41	3986
2026-01-09 04:22:32.73	217.03	37.15	-35.3	-36.2	22.1	0.00e+00	0	43	0	3474980864	41	3901
2026-01-09 04:22:33.30	216.96	37.02	-35.3	-36.2	21.9	0.00e+00	0	43	0	3479175168	41	3891
2026-01-09 04:22:34.88	216.79	36.65	-35.2	-36.0	22.2	0.00e+00	0	43	0	3490709504	41	3817
2026-01-09 04:22:35.47	216.72	36.51	-35.1	-36.0	22.4	0.00e+00	0	43	0	3493855232	41	3799
2026-01-09 04:22:37.04	216.56	36.15	-35.0	-35.8	22.5	0.00e+00	0	43	0	3505389568	40	3950
2026-01-09 04:22:37.62	216.49	36.02	-35.0	-35.9	22.5	0.00e+00	0	44	0	3509583872	40	3973
2026-01-09 04:22:39.22	216.33	35.66	-35.0	-35.9	22.3	0.00e+00	0	43	0	3522166784	40	3985
2026-01-09 04:22:39.80	216.27	35.53	-35.2	-36.1	22.3	0.00e+00	0	43	0	3525312512	40	4063
2026-01-09 04:22:41.38	216.11	35.18	-35.2	-36.1	22.3	0.00e+00	0	44	0	3536846848	40	4070
2026-01-09 04:22:41.96	216.05	35.05	-35.1	-36.0	22.3	0.00e+00	0	43	0	3541041152	40	4034
2026-01-09 04:22:43.54	215.90	34.70	-35.1	-36.0	22.3	0.00e+00	0	43	0	3552575488	40	4027
2026-01-09 04:22:44.13	215.84	34.57	-35.2	-36.0	22.2	0.00e+00	0	43	0	3556769792	40	4042
2026-01-09 04:22:45.70	215.69	34.23	-35.2	-36.1	22.3	0.00e+00	0	44	0	3568304128	40	4056
2026-01-09 04:22:46.28	215.64	34.11	-35.1	-36.0	22.3	0.00e+00	0	44	0	3572498432	40	4038
2026-01-09 04:22:47.86	215.49	33.77	-35.0	-35.9	22.3	0.00e+00	0	44	0	3584032768	40	3975
2026-01-09 04:22:48.56	215.43	33.62	-34.9	-35.8	22.5	0.00e+00	0	43	0	3589275648	40	3934
2026-01-09 04:22:49.85	215.31	33.35	-35.0	-35.8	22.5	0.00e+00	0	43	0	3597664256	40	3943
2026-01-09 04:22:50.57	215.25	33.20	-35.0	-35.8	22.4	0.00e+00	0	43	0	3602907136	40	3950
2026-01-09 04:22:51.86	215.14	32.93	-34.8	-35.7	22.6	0.00e+00	0	44	0	3612344320	40	3871
2026-01-09 04:22:52.57	215.08	32.79	-34.8	-35.7	22.7	0.00e+00	0	43	0	3617587200	40	3874
2026-01-09 04:22:53.86	214.97	32.52	-34.8	-35.7	22.6	0.00e+00	0	43	0	3627024384	40	3875
2026-01-09 04:22:54.58	214.91	32.38	-34.9	-35.7	22.6	0.00e+00	0	44	0	3632267264	40	3911
2026-01-09 04:22:55.87	214.80	32.11	-34.8	-35.7	22.6	0.00e+00	0	43	0	3641704448	40	3894
2026-01-09 04:22:56.59	214.74	31.97	-34.8	-35.7	22.6	0.00e+00	0	44	0	3646947328	40	3883
2026-01-09 04:22:57.87	214.64	31.71	-34.8	-35.6	22.6	0.00e+00	0	43	0	3656384512	40	3863
2026-01-09 04:22:58.59	214.58	31.57	-34.7	-35.6	22.7	0.00e+00	0	43	0	3661627392	40	3837
2026-01-09 04:22:59.88	214.48	31.32	-34.9	-35.7	22.6	0.00e+00	0	44	0	3671064576	40	3887
2026-01-09 04:23:00.60	214.42	31.18	-34.8	-35.6	22.6	0.00e+00	0	43	0	3675258880	40	3854
2026-01-09 04:23:01.89	214.33	30.92	-34.6	-35.4	22.8	0.00e+00	0	43	0	3684696064	40	3779
2026-01-09 04:23:02.61	214.27	30.78	-34.6	-35.5	22.7	0.00e+00	0	44	0	3689938944	40	3781
2026-01-09 04:23:03.89	214.18	30.54	-34.6	-35.5	22.8	0.00e+00	0	43	0	3699376128	40	3784
2026-01-09 04:23:04.61	214.12	30.40	-34.7	-35.5	22.5	0.00e+00	0	43	0	3704619008	40	3823
2026-01-09 04:23:05.90	214.03	30.16	-34.7	-35.6	22.6	0.00e+00	0	43	0	3714056192	40	3826
2026-01-09 04:23:06.62	213.98	30.02	-34.7	-35.5	22.7	0.00e+00	0	44	0	3719299072	40	3813
2026-01-09 04:23:07.90	213.88	29.78	-34.7	-35.6	22.7	0.00e+00	0	44	0	3728736256	40	3833
2026-01-09 04:23:08.62	213.83	29.65	-34.7	-35.6	22.6	0.00e+00	0	43	0	3733979136	40	3829
2026-01-09 04:23:10.04	213.74	29.38	-34.7	-35.6	22.6	0.00e+00	0	43	0	3744464896	40	3845
2026-01-09 04:23:10.75	213.69	29.25	-34.7	-35.6	22.6	0.00e+00	0	44	0	3748659200	40	3835
2026-01-09 04:23:12.04	213.60	29.02	-34.7	-35.6	22.6	0.00e+00	0	43	0	3758096384	40	3839
2026-01-09 04:23:12.75	213.55	28.89	-34.8	-35.6	22.6	0.00e+00	0	43	0	3763339264	40	3858
2026-01-09 04:23:14.04	213.47	28.66	-34.8	-35.6	22.6	0.00e+00	0	43	0	3772776448	40	3866
2026-01-09 04:23:14.76	213.42	28.53	-34.9	-35.7	22.5	0.00e+00	0	43	0	3778019328	40	3894
2026-01-09 04:23:16.27	213.32	28.26	-34.9	-35.7	22.5	0.00e+00	0	43	0	3789553664	40	3912
2026-01-09 04:23:16.99	213.28	28.13	-35.0	-35.8	22.3	0.00e+00	0	43	0	3793747968	40	3957
2026-01-09 04:23:18.34	213.19	27.89	-35.0	-35.9	22.4	0.00e+00	0	43	0	3804233728	40	3969
2026-01-09 04:23:19.06	213.15	27.77	-35.0	-35.9	22.4	0.00e+00	0	43	0	3808428032	40	3979
2026-01-09 04:23:20.44	213.06	27.53	-35.2	-36.0	22.2	0.00e+00	0	43	0	3818913792	40	4041
2026-01-09 04:23:21.16	213.02	27.40	-35.2	-36.1	22.2	0.00e+00	0	43	0	3824156672	40	4059
2026-01-09 04:23:22.45	212.94	27.18	-35.3	-36.2	22.1	0.00e+00	0	44	0	3833593856	40	4105
2026-01-09 04:23:23.16	212.90	27.06	-35.3	-36.2	22.1	0.00e+00	0	43	0	3838836736	40	4102
2026-01-09 04:23:24.58	212.81	26.82	-35.3	-36.2	22.1	0.00e+00	0	43	0	3849322496	40	4117
2026-01-09 04:23:25.30	212.77	26.70	-35.3	-36.2	22.1	0.00e+00	0	43	0	3854565376	40	4131
2026-01-09 04:23:26.59	212.70	26.48	-35.3	-36.2	22.1	0.00e+00	0	43	0	3862953984	40	4131
2026-01-09 04:23:27.69	212.64	26.30	-35.4	-36.3	22.0	0.00e+00	0	44	0	3871342592	40	4162
2026-01-09 04:23:28.55	212.59	26.16	-35.5	-36.4	21.9	0.00e+00	0	43	0	3877634048	40	4206
2026-01-09 04:23:29.69	212.52	25.97	-35.4	-36.2	22.1	0.00e+00	0	43	0	3886022656	40	4140
2026-01-09 04:23:30.55	212.48	25.83	-35.3	-36.2	22.1	0.00e+00	0	43	0	3892314112	40	4102
2026-01-09 04:23:31.70	212.42	25.65	-35.2	-36.1	22.1	0.00e+00	0	43	0	3900702720	40	4067
2026-01-09 04:23:32.56	212.37	25.51	-35.2	-36.0	22.2	0.00e+00	0	43	0	3905945600	40	4039
2026-01-09 04:23:33.71	212.31	25.32	-35.2	-36.1	22.2	0.00e+00	0	43	0	3914334208	40	4058
2026-01-09 04:23:34.60	212.26	25.18	-35.3	-36.1	22.1	0.00e+00	0	43	0	3921674240	40	4097
2026-01-09 04:23:35.85	212.20	24.98	-35.2	-36.0	22.1	0.00e+00	0	44	0	3930062848	40	4040
2026-01-09 04:23:36.60	212.16	24.87	-35.2	-36.0	22.2	0.00e+00	0	43	0	3935305728	40	4050
2026-01-09 04:23:38.12	212.08	24.63	-35.2	-36.1	22.2	0.00e+00	0	44	0	3946840064	40	4052
2026-01-09 04:23:38.83	212.04	24.52	-35.2	-36.1	22.2	0.00e+00	0	44	0	3952082944	40	4067
2026-01-09 04:23:40.17	211.98	24.31	-35.3	-36.2	22.1	0.00e+00	0	43	0	3961520128	40	4104
2026-01-09 04:23:41.16	211.93	24.16	-35.3	-36.1	22.1	0.00e+00	0	43	0	3968860160	40	4096
2026-01-09 04:23:42.48	211.87	23.96	-35.3	-36.2	22.1	0.00e+00	0	43	0	3978297344	40	4109
2026-01-09 04:23:43.20	211.83	23.85	-35.3	-36.2	22.1	0.00e+00	0	43	0	3983540224	40	4102
2026-01-09 04:23:44.82	211.75	23.60	-35.5	-36.4	21.9	0.00e+00	0	43	0	3995074560	40	4211
2026-01-09 04:23:45.39	211.73	23.52	-35.4	-36.2	22.0	0.00e+00	0	43	0	3999268864	40	4143
2026-01-09 04:23:46.99	211.65	23.28	-35.5	-36.3	21.9	0.00e+00	0	43	0	4010803200	40	4192
2026-01-09 04:23:47.56	211.63	23.20	-35.4	-36.3	22.0	0.00e+00	0	43	0	4014997504	40	4169
2026-01-09 04:23:49.17	211.55	22.96	-35.4	-36.3	22.0	0.00e+00	0	43	0	4026531840	40	4168
2026-01-09 04:23:49.82	211.52	22.87	-35.5	-36.4	21.9	0.00e+00	0	43	0	4031774720	40	4197
2026-01-09 04:23:51.25	211.46	22.66	-35.5	-36.4	21.9	0.00e+00	0	43	0	4041211904	40	4195
2026-01-09 04:23:52.05	211.43	22.54	-35.5	-36.3	21.9	0.00e+00	0	43	0	4047503360	40	4190
2026-01-09 04:23:53.55	211.36	22.33	-35.5	-36.3	22.0	0.00e+00	0	43	0	4057989120	40	4183
2026-01-09 04:23:54.27	211.33	22.23	-35.4	-36.3	22.0	0.00e+00	0	43	0	4063232000	40	4167
2026-01-09 04:23:55.78	211.27	22.01	-35.5	-36.3	21.9	0.00e+00	0	43	0	4073717760	40	4191
2026-01-09 04:23:56.50	211.24	21.91	-35.5	-36.3	21.9	0.00e+00	0	43	0	4078960640	40	4189
2026-01-09 04:23:57.79	211.18	21.73	-35.5	-36.3	21.9	0.00e+00	0	43	0	4088397824	40	4186
2026-01-09 04:23:58.50	211.15	21.63	-35.5	-36.4	21.9	0.00e+00	0	43	0	4093640704	40	4202
2026-01-09 04:23:59.80	211.10	21.45	-35.5	-36.4	21.9	0.00e+00	0	43	0	4103077888	40	4194
2026-01-09 04:24:00.51	211.07	21.35	-35.5	-36.4	21.8	0.00e+00	0	43	0	4108320768	40	4210
2026-01-09 04:24:01.80	211.02	21.18	-35.6	-36.4	21.8	0.00e+00	0	43	0	4117757952	40	4236
2026-01-09 04:24:02.52	210.99	21.08	-35.5	-36.4	21.8	0.00e+00	0	43	0	4123000832	40	4227
2026-01-09 04:24:03.81	210.94	20.90	-35.6	-36.5	21.8	0.00e+00	0	43	0	4132438016	40	4274
2026-01-09 04:24:04.53	210.91	20.81	-35.6	-36.5	21.7	0.00e+00	0	43	0	4137680896	40	4275
2026-01-09 04:24:05.82	210.86	20.63	-35.7	-36.6	21.7	0.00e+00	0	43	0	4147118080	41	4079
2026-01-09 04:24:06.55	210.83	20.54	-35.7	-36.6	21.6	0.00e+00	0	43	0	4151312384	41	4088
2026-01-09 04:24:07.84	210.78	20.37	-35.8	-36.7	21.6	0.00e+00	0	43	0	4160749568	41	4126
2026-01-09 04:24:08.55	210.76	20.27	-35.9	-36.8	21.5	0.00e+00	0	43	0	4165992448	41	4149
2026-01-09 04:24:09.84	210.71	20.10	-36.0	-36.9	21.4	0.00e+00	0	43	0	4175429632	41	4208
2026-01-09 04:24:10.56	210.68	20.01	-36.0	-36.9	21.3	0.00e+00	0	43	0	4180672512	41	4234
2026-01-09 04:24:11.85	210.64	19.84	-36.2	-37.1	21.2	0.00e+00	0	43	0	4190109696	41	4312
2026-01-09 04:24:12.57	210.61	19.75	-36.2	-37.1	21.2	0.00e+00	0	43	0	4195352576	41	4318
2026-01-09 04:24:13.85	210.56	19.58	-36.4	-37.3	21.0	0.00e+00	0	43	0	4204789760	42	4161
2026-01-09 04:24:14.57	210.54	19.49	-36.4	-37.4	20.9	0.00e+00	0	43	0	4210032640	42	4214
2026-01-09 04:24:15.86	210.49	19.33	-36.4	-37.3	21.0	0.00e+00	0	43	0	4219469824	42	4176
2026-01-09 04:24:16.57	210.47	19.24	-36.4	-37.4	20.8	0.00e+00	0	43	0	4224712704	42	4207
2026-01-09 04:24:18.17	210.41	19.03	-36.5	-37.5	20.9	0.00e+00	0	43	0	4236247040	42	4247
2026-01-09 04:24:18.75	210.39	18.96	-36.6	-37.5	20.8	0.00e+00	0	43	0	4239392768	42	4270
2026-01-09 04:24:20.52	210.33	18.74	-36.7	-37.6	20.7	0.00e+00	0	43	0	4253024256	42	4324
2026-01-09 04:24:21.10	210.31	18.67	-36.7	-37.7	20.6	0.00e+00	0	43	0	4257218560	42	4354
2026-01-09 04:24:22.67	210.26	18.48	-36.7	-37.7	20.6	0.00e+00	0	43	0	4268752896	43	4113
2026-01-09 04:24:23.29	210.24	18.40	-36.7	-37.7	20.7	0.00e+00	0	43	0	4272947200	43	4102
2026-01-09 04:24:24.87	210.19	18.21	-36.8	-37.7	20.6	0.00e+00	0	43	0	4283432960	43	4136
2026-01-09 04:24:25.45	210.17	18.14	-36.8	-37.8	20.5	0.00e+00	0	43	0	4288675840	43	4159
2026-01-09 04:24:27.03	210.12	17.95	-36.7	-37.7	20.6	0.00e+00	0	43	0	4300210176	43	4119
2026-01-09 04:24:27.64	210.10	17.87	-36.8	-37.7	20.6	0.00e+00	0	43	0	4304404480	43	4141
2026-01-09 04:24:29.40	210.05	17.66	-36.7	-37.7	20.6	0.00e+00	0	43	0	4316987392	43	4111
2026-01-09 04:24:29.98	210.03	17.59	-36.8	-37.7	20.6	0.00e+00	0	43	0	4321181696	43	4137
2026-01-09 04:24:31.57	209.98	17.41	-36.8	-37.8	20.5	0.00e+00	0	43	0	4332716032	43	4161
2026-01-09 04:24:32.14	209.96	17.34	-36.7	-37.7	20.6	0.00e+00	0	43	0	4336910336	43	4116
2026-01-09 04:24:33.73	209.91	17.15	-36.8	-37.7	20.6	0.00e+00	0	43	0	4348444672	43	4120
2026-01-09 04:24:34.31	209.90	17.09	-36.7	-37.7	20.6	0.00e+00	0	43	0	4352638976	43	4105
2026-01-09 04:24:35.88	209.85	16.91	-36.7	-37.6	20.7	0.00e+00	0	43	0	4364173312	43	4075
2026-01-09 04:24:36.47	209.83	16.84	-36.7	-37.7	20.6	0.00e+00	0	43	0	4368367616	43	4104
2026-01-09 04:24:38.05	209.79	16.66	-36.6	-37.6	20.7	0.00e+00	0	43	0	4378853376	43	4057
2026-01-09 04:24:38.65	209.77	16.59	-36.6	-37.5	20.5	0.00e+00	0	43	0	4383047680	43	4032
2026-01-09 04:24:40.23	209.72	16.41	-36.7	-37.6	20.6	0.00e+00	0	44	0	4394582016	43	4097
2026-01-09 04:24:40.88	209.70	16.34	-36.7	-37.6	20.6	0.00e+00	0	43	0	4399824896	43	4085
2026-01-09 04:24:42.31	209.66	16.18	-36.7	-37.7	20.6	0.00e+00	0	43	0	4410310656	43	4107
2026-01-09 04:24:43.09	209.64	16.09	-36.8	-37.7	20.6	0.00e+00	0	43	0	4415553536	43	4133
2026-01-09 04:24:44.38	209.61	15.94	-36.8	-37.8	20.5	0.00e+00	0	43	0	4424990720	43	4161
2026-01-09 04:24:45.10	209.59	15.87	-36.8	-37.7	20.5	0.00e+00	0	43	0	4430233600	43	4140
2026-01-09 04:24:46.39	209.55	15.72	-36.8	-37.8	20.5	0.00e+00	0	43	0	4439670784	43	4164
2026-01-09 04:24:47.11	209.53	15.64	-37.0	-38.0	20.3	0.00e+00	0	43	0	4444913664	43	4246
2026-01-09 04:24:48.40	209.50	15.50	-36.9	-37.9	20.4	0.00e+00	0	43	0	4454350848	43	4224
2026-01-09 04:24:49.11	209.48	15.43	-36.9	-37.8	20.3	0.00e+00	0	43	0	4458545152	43	4190
2026-01-09 04:24:50.41	209.45	15.29	-36.9	-37.9	20.4	0.00e+00	0	43	0	4467982336	43	4226
2026-01-09 04:24:51.12	209.43	15.21	-36.9	-37.9	20.4	0.00e+00	0	43	0	4474273792	43	4198
2026-01-09 04:24:52.41	209.39	15.07	-37.0	-38.0	20.3	0.00e+00	0	43	0	4482662400	43	4257
2026-01-09 04:24:53.13	209.37	14.99	-37.0	-38.0	20.2	0.00e+00	0	43	0	4487905280	43	4273
2026-01-09 04:24:54.42	209.34	14.86	-37.1	-38.0	20.2	0.00e+00	0	43	0	4497342464	43	4291
2026-01-09 04:24:55.14	209.32	14.78	-37.2	-38.1	20.1	0.00e+00	0	43	0	4502585344	43	4336
2026-01-09 04:24:56.43	209.29	14.64	-37.2	-38.2	20.1	0.00e+00	0	43	0	4512022528	43	4342
2026-01-09 04:24:57.14	209.27	14.57	-37.4	-38.4	20.0	0.00e+00	0	43	0	4517265408	44	4208
2026-01-09 04:24:58.43	209.24	14.43	-37.5	-38.5	19.9	0.00e+00	0	43	0	4526702592	44	4263
2026-01-09 04:24:59.15	209.22	14.36	-37.5	-38.5	20.0	0.00e+00	0	43	0	4531945472	44	4250
2026-01-09 04:25:00.44	209.19	14.23	-37.5	-38.5	19.9	0.00e+00	0	43	0	4541382656	44	4265
2026-01-09 04:25:01.27	209.17	14.14	-37.5	-38.5	19.9	0.00e+00	0	43	0	4546625536	44	4263
2026-01-09 04:25:02.41	209.15	14.02	-37.6	-38.6	19.8	0.00e+00	0	43	0	4555014144	44	4325
2026-01-09 04:25:03.28	209.12	13.93	-37.7	-38.7	19.8	0.00e+00	0	43	0	4561305600	44	4344
2026-01-09 04:25:04.42	209.10	13.82	-37.8	-38.9	19.6	0.00e+00	0	43	0	4569694208	45	4201
2026-01-09 04:25:05.28	209.08	13.73	-37.9	-38.9	19.5	0.00e+00	0	43	0	4575985664	45	4229
2026-01-09 04:25:06.43	209.05	13.61	-38.0	-39.0	19.4	0.00e+00	0	43	0	4584374272	45	4288
2026-01-09 04:25:07.29	209.03	13.53	-37.9	-38.9	19.5	0.00e+00	0	43	0	4590665728	45	4239
2026-01-09 04:25:08.47	209.00	13.41	-37.9	-38.9	19.4	0.00e+00	0	43	0	4599054336	45	4235
2026-01-09 04:25:09.33	208.98	13.32	-38.0	-39.1	19.4	0.00e+00	0	43	0	4605345792	45	4294
2026-01-09 04:25:10.47	208.96	13.21	-38.0	-39.0	19.4	0.00e+00	0	43	0	4613734400	45	4285
2026-01-09 04:25:11.33	208.94	13.13	-38.1	-39.1	19.2	0.00e+00	0	43	0	4620025856	45	4331
2026-01-09 04:25:12.61	208.91	13.00	-38.1	-39.1	19.3	0.00e+00	0	43	0	4628414464	45	4324
2026-01-09 04:25:13.32	208.90	12.93	-38.0	-39.0	19.3	0.00e+00	0	43	0	4633657344	45	4285
2026-01-09 04:25:14.62	208.87	12.80	-38.1	-39.1	19.3	0.00e+00	0	43	0	4643094528	45	4327
2026-01-09 04:25:15.35	208.85	12.73	-38.1	-39.2	19.2	0.00e+00	0	43	0	4648337408	45	4341
2026-01-09 04:25:16.64	208.82	12.61	-38.1	-39.2	19.2	0.00e+00	0	43	0	4657774592	45	4357
2026-01-09 04:25:17.45	208.81	12.53	-38.3	-39.4	19.1	0.00e+00	0	43	0	4664066048	46	4212
2026-01-09 04:25:18.60	208.78	12.42	-38.1	-39.2	19.2	0.00e+00	0	43	0	4671406080	46	4133
2026-01-09 04:25:19.46	208.76	12.33	-38.1	-39.2	19.2	0.00e+00	0	43	0	4677697536	46	4127
2026-01-09 04:25:20.61	208.74	12.22	-38.2	-39.3	19.0	0.00e+00	0	43	0	4686086144	46	4163
2026-01-09 04:25:21.47	208.72	12.14	-38.3	-39.4	19.0	0.00e+00	0	43	0	4692377600	46	4197
2026-01-09 04:25:22.61	208.70	12.04	-38.1	-39.2	19.2	0.00e+00	0	43	0	4700766208	46	4112
2026-01-09 04:25:23.84	208.67	11.92	-38.2	-39.3	19.0	0.00e+00	0	43	0	4710203392	46	4175
2026-01-09 04:25:24.70	208.66	11.84	-38.3	-39.4	19.0	0.00e+00	0	43	0	4715446272	46	4198
2026-01-09 04:25:25.84	208.63	11.73	-38.3	-39.4	19.0	0.00e+00	0	43	0	4723834880	46	4197
2026-01-09 04:25:26.70	208.62	11.65	-38.3	-39.4	19.0	0.00e+00	0	43	0	4730126336	46	4207
2026-01-09 04:25:27.85	208.59	11.54	-38.3	-39.4	19.0	0.00e+00	0	43	0	4738514944	46	4198
2026-01-09 04:25:28.71	208.58	11.46	-38.3	-39.4	19.0	0.00e+00	0	43	0	4744806400	46	4208
2026-01-09 04:25:29.86	208.55	11.36	-38.3	-39.4	18.9	0.00e+00	0	43	0	4753195008	46	4232
2026-01-09 04:25:30.71	208.54	11.28	-38.3	-39.4	18.9	0.00e+00	0	43	0	4759486464	46	4225
2026-01-09 04:25:31.86	208.51	11.18	-38.3	-39.4	18.9	0.00e+00	0	43	0	4767875072	46	4219
2026-01-09 04:25:32.72	208.50	11.10	-38.4	-39.5	18.9	0.00e+00	0	43	0	4774166528	46	4247
2026-01-09 04:25:34.01	208.47	10.98	-38.4	-39.5	18.8	0.00e+00	0	43	0	4783603712	46	4281
2026-01-09 04:25:34.73	208.46	10.91	-38.4	-39.6	18.8	0.00e+00	0	43	0	4788846592	46	4294
2026-01-09 04:25:36.01	208.44	10.80	-38.5	-39.6	18.7	0.00e+00	0	43	0	4797235200	46	4309
2026-01-09 04:25:36.73	208.42	10.73	-38.5	-39.6	18.7	0.00e+00	0	43	0	4802478080	46	4305
2026-01-09 04:25:38.02	208.40	10.62	-38.5	-39.6	18.7	0.00e+00	0	43	0	4811915264	46	4331
