passes_logs/2026/01/09/T1/T1__20260109_055441_FENGYUN_3E_rec.log

#Pass ID: 20260109_055441_FENGYUN 3E
#Satellite: FENGYUN 3E
#Configuration: FENGYUN 3E
#almurnet v.1.7.20251203
#Start time: 2026-01-09 05:54:43

#Version: 2.0.20230620
#Station: T1
#Location: 37.570604 lon 55.790049 lat
#TLE: 1 49008U 21062A   26008.52265380 -.00000112  00000+0 -32190-4 0  9993
#TLE: 2 49008  98.7483  13.7266 0001697 149.3310 210.7966 14.19883994233927

#Time	Az	El	Level	Level2	SNR	BER	BlckErr	Temp	State	Recorded	gain1	gain2
2026-01-09 05:54:43.03	4.83	5.08	-48.5	-59.8	3.8	8.46e-01	0	39	0	0	66	13969
2026-01-09 05:54:44.02	4.74	5.14	-45.6	-59.7	3.8	8.46e-01	0	40	104	0	60	19430
2026-01-09 05:54:45.03	4.64	5.20	-45.7	-59.6	3.8	8.46e-01	0	40	104	0	60	19245
2026-01-09 05:54:46.03	4.55	5.25	-45.7	-59.6	3.8	8.46e-01	0	40	104	0	60	19178
2026-01-09 05:54:47.03	4.46	5.31	-45.7	-59.6	3.8	8.47e-01	0	39	104	0	60	19340
2026-01-09 05:54:48.03	4.36	5.37	-45.6	-59.6	3.8	8.47e-01	0	40	104	0	60	19258
2026-01-09 05:54:49.03	4.27	5.42	-45.7	-59.6	3.8	8.47e-01	0	40	104	0	60	19296
2026-01-09 05:54:50.04	4.17	5.48	-45.6	-59.6	3.8	8.47e-01	0	40	104	0	60	19181
2026-01-09 05:54:51.04	4.08	5.54	-45.7	-59.5	3.8	8.47e-01	0	40	104	0	60	19141
2026-01-09 05:54:52.04	3.98	5.60	-45.6	-59.5	3.8	8.47e-01	0	40	104	0	60	19108
2026-01-09 05:54:53.04	3.89	5.65	-45.6	-59.5	3.8	8.48e-01	0	40	104	0	60	19054
2026-01-09 05:54:54.05	3.79	5.71	-45.7	-59.6	3.8	8.47e-01	0	40	104	0	60	19268
2026-01-09 05:54:55.05	3.70	5.77	-45.6	-59.5	3.8	8.46e-01	0	40	104	0	60	19145
2026-01-09 05:54:56.05	3.60	5.83	-45.6	-59.5	3.8	8.48e-01	0	40	104	0	60	19162
2026-01-09 05:54:57.06	3.50	5.88	-45.6	-59.6	3.8	8.47e-01	0	40	104	0	60	19168
2026-01-09 05:54:58.06	3.40	5.94	-45.5	-59.5	3.8	8.47e-01	0	40	104	0	60	19145
2026-01-09 05:54:59.06	3.31	6.00	-45.6	-59.6	3.8	8.47e-01	0	40	104	0	60	19342
2026-01-09 05:55:00.06	3.21	6.06	-45.9	-59.6	3.8	8.46e-01	0	40	104	0	61	18217
2026-01-09 05:55:01.07	3.11	6.11	-45.9	-59.5	3.8	8.47e-01	0	40	104	0	61	18044
2026-01-09 05:55:02.07	3.01	6.17	-45.6	-59.6	3.8	8.46e-01	0	40	104	0	61	18165
2026-01-09 05:55:03.07	2.91	6.23	-45.7	-59.5	3.8	8.47e-01	0	40	104	0	61	18077
2026-01-09 05:55:04.07	2.81	6.29	-45.8	-59.5	3.8	8.47e-01	0	40	104	0	61	18076
2026-01-09 05:55:05.07	2.71	6.34	-45.7	-59.5	3.8	8.46e-01	0	41	104	0	61	17918
2026-01-09 05:55:06.08	2.61	6.40	-45.8	-59.5	3.8	8.47e-01	0	40	104	0	61	17902
2026-01-09 05:55:07.08	2.51	6.46	-45.7	-59.4	3.8	8.46e-01	0	40	104	0	61	17808
2026-01-09 05:55:08.08	2.40	6.52	-45.7	-59.5	3.8	8.46e-01	0	41	104	0	61	17988
2026-01-09 05:55:09.08	2.30	6.58	-45.8	-59.5	3.8	8.47e-01	0	40	104	0	61	17991
2026-01-09 05:55:10.08	2.20	6.63	-45.8	-59.5	3.8	8.46e-01	0	41	104	0	61	17998
2026-01-09 05:55:11.09	2.10	6.69	-45.6	-59.6	3.8	8.47e-01	0	40	104	0	61	18133
2026-01-09 05:55:12.09	1.99	6.75	-45.8	-59.6	3.8	8.46e-01	0	41	104	0	61	18154
2026-01-09 05:55:13.09	1.89	6.81	-46.4	-59.6	3.8	8.46e-01	0	41	104	0	62	17250
2026-01-09 05:55:14.09	1.78	6.87	-46.0	-59.6	3.8	8.47e-01	0	41	104	0	62	17207
2026-01-09 05:55:15.09	1.68	6.93	-45.9	-59.5	3.8	8.48e-01	0	41	104	0	62	17076
2026-01-09 05:55:16.10	1.57	6.98	-45.8	-59.5	3.8	8.47e-01	0	41	104	0	62	16997
2026-01-09 05:55:17.10	1.47	7.04	-45.8	-59.5	3.8	8.48e-01	0	41	104	0	62	17041
2026-01-09 05:55:18.11	1.36	7.10	-45.8	-59.4	3.8	8.46e-01	0	41	104	0	62	16740
2026-01-09 05:55:19.11	1.26	7.16	-45.9	-59.4	3.8	8.46e-01	0	41	104	0	62	16733
2026-01-09 05:55:20.11	1.15	7.22	-45.8	-59.4	3.8	8.47e-01	0	41	104	0	62	16697
2026-01-09 05:55:21.12	1.04	7.28	-45.8	-59.4	3.8	8.48e-01	0	41	104	0	61	17712
2026-01-09 05:55:22.12	0.93	7.34	-45.9	-59.4	3.8	8.47e-01	0	41	104	0	61	17828
2026-01-09 05:55:23.12	0.82	7.39	-45.8	-59.6	3.8	8.48e-01	0	41	104	0	61	18146
2026-01-09 05:55:24.13	0.71	7.45	-45.6	-59.5	3.8	8.47e-01	0	41	104	0	61	18090
2026-01-09 05:55:25.13	0.61	7.51	-45.6	-59.4	3.8	8.47e-01	0	41	104	0	61	17791
2026-01-09 05:55:26.14	0.50	7.57	-45.6	-59.2	3.8	8.46e-01	0	41	104	0	61	17427
2026-01-09 05:55:27.14	0.39	7.63	-45.6	-58.9	3.8	8.48e-01	0	41	104	0	61	16859
2026-01-09 05:55:28.14	0.27	7.69	-45.7	-58.7	3.8	8.47e-01	0	41	104	0	61	16499
2026-01-09 05:55:29.15	0.16	7.75	-45.6	-58.4	3.8	8.47e-01	0	41	104	0	61	15905
2026-01-09 05:55:30.15	0.05	7.81	-45.6	-58.0	3.8	8.45e-01	0	41	104	0	61	15203
2026-01-09 05:55:31.16	359.94	7.86	-45.4	-57.1	4.0	8.46e-01	0	41	104	0	61	13694
2026-01-09 05:55:32.16	359.83	7.92	-45.5	-56.5	4.1	8.43e-01	0	41	104	0	61	12712
2026-01-09 05:55:33.16	359.71	7.98	-45.4	-56.1	4.2	8.40e-01	0	41	0	0	61	12207
2026-01-09 05:55:34.16	359.60	8.04	-45.4	-55.9	4.3	8.37e-01	0	41	0	0	61	11840
2026-01-09 05:55:35.17	359.49	8.10	-45.4	-56.1	4.2	8.38e-01	0	41	0	0	61	12231
2026-01-09 05:55:36.17	359.37	8.16	-45.6	-56.9	3.9	8.42e-01	0	41	104	0	61	13323
2026-01-09 05:55:37.17	359.26	8.22	-45.7	-58.0	3.8	8.48e-01	0	41	104	0	61	15144
2026-01-09 05:55:38.18	359.14	8.28	-45.8	-59.1	3.8	8.46e-01	0	42	104	0	61	17209
2026-01-09 05:55:39.18	359.03	8.34	-45.6	-58.8	3.8	8.46e-01	0	42	104	0	61	16567
2026-01-09 05:55:40.18	358.91	8.40	-45.6	-57.0	3.8	8.45e-01	0	41	104	0	61	13501
2026-01-09 05:55:41.19	358.79	8.46	-45.3	-54.4	4.8	8.18e-01	0	41	0	0	61	10031
2026-01-09 05:55:42.19	358.67	8.51	-44.8	-52.1	6.3	3.28e-01	0	41	0	2097152	60	8172
2026-01-09 05:55:43.19	358.56	8.57	-44.5	-50.3	8.0	1.05e-01	0	42	0	9437184	59	6974
2026-01-09 05:55:44.20	358.44	8.63	-44.2	-49.1	9.1	2.91e-02	0	41	0	16777216	59	6092
2026-01-09 05:55:45.20	358.32	8.69	-43.7	-48.0	10.3	7.34e-03	0	42	0	24117248	58	5659
2026-01-09 05:55:46.20	358.20	8.75	-43.3	-47.0	11.3	1.58e-03	0	42	0	31457280	57	5361
2026-01-09 05:55:47.21	358.08	8.81	-42.9	-46.2	12.1	3.15e-04	0	41	0	38797312	56	5212
2026-01-09 05:55:48.21	357.96	8.87	-42.3	-45.4	12.8	7.89e-05	0	42	0	45088768	55	5034
2026-01-09 05:55:49.21	357.84	8.93	-42.0	-44.9	13.4	1.71e-05	0	41	0	52428800	54	5032
2026-01-09 05:55:50.21	357.72	8.99	-41.8	-44.5	13.7	4.50e-06	0	42	0	59768832	54	4802
2026-01-09 05:55:51.22	357.60	9.05	-41.9	-44.8	13.4	2.20e-06	0	42	0	67108864	54	4973
2026-01-09 05:55:52.22	357.47	9.11	-42.7	-45.9	12.4	5.60e-05	0	42	0	74448896	54	5647
2026-01-09 05:55:53.21	357.35	9.17	-45.9	-52.9	5.8	6.82e-01	0	42	0	79691776	62	7952
2026-01-09 05:55:54.21	357.23	9.23	-39.4	-41.4	17.0	0.00e+00	0	42	0	87031808	49	4462
2026-01-09 05:55:55.21	357.10	9.28	-39.9	-42.1	16.4	0.00e+00	0	42	0	94371840	50	4547
2026-01-09 05:55:56.21	356.98	9.34	-40.3	-42.6	15.8	0.00e+00	0	42	0	101711872	50	4834
2026-01-09 05:55:57.20	356.86	9.40	-39.5	-41.4	17.0	0.00e+00	0	42	0	109051904	49	4492
2026-01-09 05:55:58.20	356.73	9.46	-39.3	-41.2	17.2	0.00e+00	0	42	0	116391936	49	4368
2026-01-09 05:55:59.19	356.61	9.52	-39.4	-41.3	17.2	0.00e+00	0	42	0	122683392	49	4420
2026-01-09 05:56:00.19	356.48	9.58	-39.4	-41.3	17.2	0.00e+00	0	42	0	130023424	49	4423
2026-01-09 05:56:01.19	356.36	9.64	-39.4	-41.3	17.2	0.00e+00	0	42	0	137363456	49	4407
2026-01-09 05:56:02.18	356.23	9.70	-39.4	-41.3	17.2	0.00e+00	0	42	0	144703488	49	4394
2026-01-09 05:56:03.18	356.10	9.76	-39.4	-41.2	17.3	0.00e+00	0	42	0	152043520	49	4376
2026-01-09 05:56:04.17	355.97	9.82	-39.3	-41.0	17.5	0.00e+00	0	42	0	159383552	49	4289
2026-01-09 05:56:05.17	355.85	9.88	-39.4	-41.0	17.5	0.00e+00	0	42	0	165675008	49	4284
2026-01-09 05:56:06.17	355.72	9.93	-39.2	-40.8	17.6	0.00e+00	0	42	0	173015040	49	4190
2026-01-09 05:56:07.16	355.59	9.99	-39.0	-40.6	17.9	0.00e+00	0	42	0	180355072	48	4336
2026-01-09 05:56:08.16	355.46	10.05	-39.0	-40.6	17.9	0.00e+00	0	42	0	187695104	48	4311
2026-01-09 05:56:09.16	355.33	10.11	-38.9	-40.5	18.0	0.00e+00	0	42	0	195035136	48	4254
2026-01-09 05:56:10.17	355.19	10.17	-38.9	-40.4	18.1	0.00e+00	0	42	0	202375168	48	4214
2026-01-09 05:56:11.17	355.06	10.23	-38.7	-40.3	18.2	0.00e+00	0	42	0	209715200	48	4158
2026-01-09 05:56:12.17	354.93	10.29	-38.7	-40.2	18.3	0.00e+00	0	42	0	217055232	48	4139
2026-01-09 05:56:13.17	354.79	10.35	-38.7	-40.3	18.2	0.00e+00	0	42	0	224395264	48	4182
2026-01-09 05:56:14.16	354.66	10.41	-38.6	-40.2	18.4	0.00e+00	0	42	0	230686720	48	4105
2026-01-09 05:56:15.16	354.53	10.47	-38.5	-40.1	18.2	0.00e+00	0	42	0	238026752	47	4322
2026-01-09 05:56:16.17	354.39	10.53	-38.5	-40.1	18.2	0.00e+00	0	42	0	245366784	47	4328
2026-01-09 05:56:17.17	354.26	10.59	-38.5	-40.1	18.2	0.00e+00	0	42	0	252706816	47	4324
2026-01-09 05:56:18.17	354.12	10.65	-38.5	-40.2	18.1	0.00e+00	0	42	0	260046848	47	4356
2026-01-09 05:56:19.17	353.98	10.71	-38.6	-40.3	18.0	0.00e+00	0	42	0	267386880	47	4435
2026-01-09 05:56:20.17	353.85	10.76	-38.7	-40.4	17.9	0.00e+00	0	42	0	274726912	47	4481
2026-01-09 05:56:21.17	353.71	10.82	-38.8	-40.5	17.8	0.00e+00	0	42	0	282066944	47	4513
2026-01-09 05:56:22.17	353.57	10.88	-38.9	-40.6	17.7	0.00e+00	0	42	0	288358400	47	4590
2026-01-09 05:56:23.17	353.43	10.94	-38.8	-40.6	17.8	0.00e+00	0	42	0	295698432	47	4555
2026-01-09 05:56:24.18	353.29	11.00	-38.8	-40.6	17.8	0.00e+00	0	42	0	303038464	47	4546
2026-01-09 05:56:25.18	353.15	11.06	-38.7	-40.4	17.9	0.00e+00	0	42	0	310378496	47	4489
2026-01-09 05:56:26.18	353.01	11.12	-38.8	-40.5	17.8	0.00e+00	0	42	0	317718528	47	4529
2026-01-09 05:56:27.17	352.87	11.18	-38.8	-40.4	17.9	0.00e+00	0	42	0	325058560	47	4476
2026-01-09 05:56:28.18	352.73	11.24	-38.7	-40.4	18.0	0.00e+00	0	42	0	332398592	47	4443
2026-01-09 05:56:29.18	352.58	11.30	-38.6	-40.3	18.0	0.00e+00	0	42	0	339738624	47	4427
2026-01-09 05:56:30.18	352.44	11.36	-38.5	-40.0	18.4	0.00e+00	0	42	0	347078656	47	4266
2026-01-09 05:56:31.18	352.30	11.42	-38.6	-40.3	18.1	0.00e+00	0	42	0	354418688	47	4395
2026-01-09 05:56:32.18	352.15	11.47	-38.5	-40.1	18.2	0.00e+00	0	42	0	361758720	47	4323
2026-01-09 05:56:33.18	352.01	11.53	-38.4	-39.9	18.5	0.00e+00	0	42	0	369098752	47	4214
2026-01-09 05:56:34.18	351.86	11.59	-38.2	-39.7	18.7	0.00e+00	0	42	0	375390208	47	4107
2026-01-09 05:56:35.18	351.72	11.65	-38.2	-39.6	18.8	0.00e+00	0	42	0	382730240	47	4062
2026-01-09 05:56:36.18	351.57	11.71	-38.1	-39.5	18.8	0.00e+00	0	42	0	390070272	47	4034
2026-01-09 05:56:37.18	351.42	11.77	-38.2	-39.6	18.8	0.00e+00	0	42	0	397410304	47	4060
2026-01-09 05:56:38.18	351.28	11.83	-38.1	-39.5	18.9	0.00e+00	0	42	0	404750336	47	4008
2026-01-09 05:56:39.18	351.13	11.89	-38.1	-39.5	18.8	0.00e+00	0	42	0	412090368	46	4282
2026-01-09 05:56:40.19	350.98	11.94	-38.0	-39.4	18.9	0.00e+00	0	42	0	419430400	46	4212
2026-01-09 05:56:41.19	350.83	12.00	-38.0	-39.4	18.9	0.00e+00	0	42	0	426770432	46	4239
2026-01-09 05:56:42.19	350.68	12.06	-38.0	-39.5	18.9	0.00e+00	0	42	0	433061888	46	4272
2026-01-09 05:56:43.19	350.53	12.12	-38.1	-39.6	18.8	0.00e+00	0	42	0	440401920	46	4301
2026-01-09 05:56:44.19	350.38	12.18	-38.1	-39.6	18.8	0.00e+00	0	42	0	447741952	46	4299
2026-01-09 05:56:45.19	350.22	12.24	-38.1	-39.7	18.7	0.00e+00	0	42	0	455081984	46	4357
2026-01-09 05:56:46.19	350.07	12.29	-38.2	-39.7	18.6	0.00e+00	0	42	0	462422016	46	4377
2026-01-09 05:56:47.19	349.92	12.35	-38.2	-39.7	18.6	0.00e+00	0	42	0	469762048	46	4381
2026-01-09 05:56:48.20	349.76	12.41	-38.2	-39.8	18.6	0.00e+00	0	42	0	477102080	46	4419
2026-01-09 05:56:49.20	349.61	12.47	-38.3	-40.0	18.4	0.00e+00	0	42	0	484442112	46	4499
2026-01-09 05:56:50.20	349.45	12.53	-38.4	-40.0	18.4	0.00e+00	0	42	0	491782144	46	4539
2026-01-09 05:56:51.20	349.30	12.59	-38.4	-39.9	18.4	0.00e+00	0	42	0	498073600	46	4487
2026-01-09 05:56:52.20	349.14	12.64	-38.6	-40.1	18.3	0.00e+00	0	42	0	505413632	46	4558
2026-01-09 05:56:53.19	348.99	12.70	-38.5	-39.9	18.4	0.00e+00	0	42	0	512753664	46	4491
2026-01-09 05:56:54.20	348.83	12.76	-38.6	-39.9	18.4	0.00e+00	0	42	0	520093696	46	4487
2026-01-09 05:56:55.20	348.67	12.82	-38.5	-39.8	18.5	0.00e+00	0	42	0	527433728	46	4441
2026-01-09 05:56:56.20	348.51	12.87	-38.4	-39.6	18.7	0.00e+00	0	42	0	534773760	46	4340
2026-01-09 05:56:57.20	348.35	12.93	-38.5	-39.7	18.7	0.00e+00	0	42	0	542113792	46	4372
2026-01-09 05:56:58.20	348.19	12.99	-38.5	-39.6	18.7	0.00e+00	0	42	0	549453824	46	4322
2026-01-09 05:56:59.20	348.03	13.05	-38.4	-39.5	18.8	0.00e+00	0	42	0	556793856	46	4282
2026-01-09 05:57:00.20	347.87	13.10	-38.5	-39.6	18.8	0.00e+00	0	42	0	563085312	46	4323
2026-01-09 05:57:01.21	347.70	13.16	-38.3	-39.5	18.9	0.00e+00	0	42	0	570425344	46	4250
2026-01-09 05:57:02.20	347.54	13.22	-38.3	-39.5	18.9	0.00e+00	0	42	0	577765376	46	4276
2026-01-09 05:57:03.20	347.38	13.27	-38.3	-39.5	18.8	0.00e+00	0	42	0	585105408	46	4286
2026-01-09 05:57:04.20	347.22	13.33	-38.3	-39.5	18.8	0.00e+00	0	42	0	592445440	46	4276
2026-01-09 05:57:05.20	347.05	13.39	-38.2	-39.5	18.9	0.00e+00	0	42	0	599785472	46	4266
2026-01-09 05:57:06.21	346.88	13.44	-38.2	-39.5	18.9	0.00e+00	0	42	0	607125504	46	4246
2026-01-09 05:57:07.21	346.72	13.50	-38.1	-39.4	19.0	0.00e+00	0	42	0	614465536	46	4227
2026-01-09 05:57:08.20	346.55	13.56	-38.2	-39.5	18.9	0.00e+00	0	42	0	620756992	46	4281
2026-01-09 05:57:09.21	346.38	13.61	-38.3	-39.6	18.9	0.00e+00	0	42	0	628097024	46	4295
2026-01-09 05:57:10.21	346.22	13.67	-38.3	-39.5	18.9	0.00e+00	0	42	0	635437056	46	4275
2026-01-09 05:57:11.21	346.05	13.73	-38.3	-39.5	18.9	0.00e+00	0	42	0	642777088	46	4274
2026-01-09 05:57:12.21	345.88	13.78	-38.3	-39.5	19.0	0.00e+00	0	42	0	650117120	46	4247
2026-01-09 05:57:13.21	345.71	13.84	-38.4	-39.5	18.9	0.00e+00	0	42	0	657457152	46	4263
2026-01-09 05:57:14.21	345.54	13.89	-38.4	-39.5	18.9	0.00e+00	0	42	0	664797184	46	4274
2026-01-09 05:57:15.21	345.37	13.95	-38.3	-39.5	18.9	0.00e+00	0	42	0	672137216	46	4268
2026-01-09 05:57:16.21	345.19	14.00	-38.1	-39.3	19.1	0.00e+00	0	42	0	679477248	46	4164
2026-01-09 05:57:17.21	345.02	14.06	-38.1	-39.3	19.1	0.00e+00	0	42	0	685768704	46	4179
2026-01-09 05:57:18.22	344.85	14.11	-38.1	-39.4	19.1	0.00e+00	0	42	0	693108736	46	4199
2026-01-09 05:57:19.22	344.67	14.17	-37.9	-39.1	19.3	0.00e+00	0	42	0	700448768	46	4074
2026-01-09 05:57:20.22	344.50	14.22	-37.8	-39.1	19.3	0.00e+00	0	42	0	707788800	46	4070
2026-01-09 05:57:21.22	344.32	14.28	-37.8	-39.0	19.4	0.00e+00	0	42	0	715128832	46	4048
2026-01-09 05:57:22.22	344.15	14.33	-37.7	-39.0	19.4	0.00e+00	0	42	0	722468864	46	4039
2026-01-09 05:57:23.22	343.97	14.39	-37.8	-39.0	19.4	0.00e+00	0	42	0	729808896	46	4041
2026-01-09 05:57:24.22	343.79	14.44	-37.8	-39.1	19.3	0.00e+00	0	42	0	737148928	46	4065
2026-01-09 05:57:25.22	343.62	14.50	-37.8	-39.1	19.3	0.00e+00	0	42	0	744488960	46	4056
2026-01-09 05:57:26.22	343.44	14.55	-37.9	-39.1	19.3	0.00e+00	0	42	0	750780416	46	4086
2026-01-09 05:57:27.22	343.26	14.60	-38.0	-39.2	19.2	0.00e+00	0	42	0	758120448	46	4115
2026-01-09 05:57:28.23	343.08	14.66	-37.8	-39.0	19.5	0.00e+00	0	42	0	766509056	46	4015
2026-01-09 05:57:29.23	342.90	14.71	-38.0	-39.1	19.3	0.00e+00	0	42	0	772800512	46	4066
2026-01-09 05:57:30.23	342.72	14.76	-37.7	-38.8	19.6	0.00e+00	0	42	0	780140544	46	3949
2026-01-09 05:57:31.23	342.53	14.82	-37.6	-38.8	19.6	0.00e+00	0	42	0	787480576	46	3918
2026-01-09 05:57:32.23	342.35	14.87	-37.5	-38.6	19.7	0.00e+00	0	42	0	794820608	45	4092
2026-01-09 05:57:33.22	342.17	14.92	-37.5	-38.7	19.7	0.00e+00	0	42	0	802160640	45	4102
2026-01-09 05:57:34.22	341.99	14.98	-37.4	-38.5	19.9	0.00e+00	0	42	0	808452096	45	4017
2026-01-09 05:57:35.22	341.80	15.03	-37.5	-38.6	19.8	0.00e+00	0	42	0	815792128	45	4058
2026-01-09 05:57:36.23	341.62	15.08	-37.4	-38.5	19.9	0.00e+00	0	42	0	823132160	45	4011
2026-01-09 05:57:37.23	341.43	15.13	-37.4	-38.4	19.9	0.00e+00	0	42	0	830472192	45	3997
2026-01-09 05:57:38.23	341.24	15.18	-37.5	-38.5	19.9	0.00e+00	0	42	0	837812224	45	4048
2026-01-09 05:57:39.23	341.06	15.24	-37.4	-38.4	20.0	0.00e+00	0	42	0	845152256	45	3997
2026-01-09 05:57:40.23	340.87	15.29	-37.4	-38.5	19.9	0.00e+00	0	42	0	852492288	45	4040
2026-01-09 05:57:41.23	340.68	15.34	-37.4	-38.5	19.9	0.00e+00	0	42	0	859832320	45	4023
2026-01-09 05:57:42.23	340.49	15.39	-37.4	-38.5	19.9	0.00e+00	0	42	0	867172352	45	4039
2026-01-09 05:57:43.24	340.30	15.44	-37.5	-38.6	19.8	0.00e+00	0	42	0	874512384	45	4063
2026-01-09 05:57:44.24	340.11	15.49	-37.3	-38.4	20.0	0.00e+00	0	42	0	881852416	45	3993
2026-01-09 05:57:45.24	339.92	15.54	-37.3	-38.5	19.9	0.00e+00	0	42	0	889192448	45	4007
2026-01-09 05:57:46.24	339.73	15.59	-37.2	-38.4	20.0	0.00e+00	0	42	0	895483904	45	3970
2026-01-09 05:57:47.25	339.53	15.64	-37.3	-38.5	20.0	0.00e+00	0	42	0	902823936	45	4008
2026-01-09 05:57:48.25	339.34	15.69	-37.3	-38.5	19.9	0.00e+00	0	42	0	910163968	45	4022
2026-01-09 05:57:49.25	339.15	15.74	-37.2	-38.4	20.0	0.00e+00	0	42	0	917504000	45	3973
2026-01-09 05:57:50.25	338.95	15.79	-37.3	-38.5	19.9	0.00e+00	0	42	0	924844032	45	4016
2026-01-09 05:57:51.25	338.76	15.84	-37.3	-38.4	20.0	0.00e+00	0	42	0	932184064	45	4001
2026-01-09 05:57:52.25	338.56	15.89	-37.4	-38.5	19.9	0.00e+00	0	43	0	939524096	45	4006
2026-01-09 05:57:53.25	338.37	15.94	-37.4	-38.4	20.0	0.00e+00	0	42	0	946864128	45	3983
2026-01-09 05:57:54.25	338.17	15.99	-37.3	-38.3	20.1	0.00e+00	0	43	0	954204160	45	3957
2026-01-09 05:57:55.25	337.97	16.03	-37.4	-38.4	20.0	0.00e+00	0	42	0	960495616	45	3987
2026-01-09 05:57:56.25	337.77	16.08	-37.4	-38.4	20.0	0.00e+00	0	42	0	967835648	45	3981
2026-01-09 05:57:57.25	337.58	16.13	-37.4	-38.5	19.9	0.00e+00	0	42	0	975175680	45	4006
2026-01-09 05:57:58.25	337.38	16.18	-37.3	-38.3	20.1	0.00e+00	0	42	0	982515712	45	3935
2026-01-09 05:57:59.25	337.18	16.22	-37.4	-38.4	19.9	0.00e+00	0	42	0	989855744	45	4004
2026-01-09 05:58:00.25	336.97	16.27	-37.3	-38.3	20.1	0.00e+00	0	42	0	997195776	45	3948
2026-01-09 05:58:01.26	336.77	16.32	-37.4	-38.4	20.0	0.00e+00	0	42	0	1004535808	45	3978
2026-01-09 05:58:02.26	336.57	16.36	-37.3	-38.3	20.1	0.00e+00	0	42	0	1011875840	45	3931
2026-01-09 05:58:03.25	336.37	16.41	-37.3	-38.3	20.1	0.00e+00	0	42	0	1018167296	45	3952
2026-01-09 05:58:04.25	336.17	16.45	-37.3	-38.3	20.1	0.00e+00	0	42	0	1025507328	45	3944
2026-01-09 05:58:05.25	335.96	16.50	-37.2	-38.3	20.1	0.00e+00	0	42	0	1032847360	45	3920
2026-01-09 05:58:06.25	335.76	16.54	-37.3	-38.4	20.0	0.00e+00	0	42	0	1040187392	45	3961
2026-01-09 05:58:07.26	335.55	16.59	-37.4	-38.5	19.9	0.00e+00	0	42	0	1047527424	45	4033
2026-01-09 05:58:08.26	335.34	16.63	-37.4	-38.4	19.9	0.00e+00	0	43	0	1054867456	45	4001
2026-01-09 05:58:09.26	335.14	16.68	-37.4	-38.5	19.9	0.00e+00	0	42	0	1062207488	45	4011
2026-01-09 05:58:10.26	334.93	16.72	-37.4	-38.4	20.0	0.00e+00	0	42	0	1069547520	45	3984
2026-01-09 05:58:11.26	334.72	16.77	-37.4	-38.4	20.0	0.00e+00	0	42	0	1076887552	45	3976
2026-01-09 05:58:12.26	334.52	16.81	-37.3	-38.3	20.1	0.00e+00	0	42	0	1083179008	45	3932
2026-01-09 05:58:13.26	334.31	16.85	-37.2	-38.3	20.1	0.00e+00	0	43	0	1090519040	45	3924
2026-01-09 05:58:14.26	334.10	16.89	-37.3	-38.4	20.0	0.00e+00	0	43	0	1097859072	45	3966
2026-01-09 05:58:15.26	333.89	16.94	-37.2	-38.3	20.1	0.00e+00	0	42	0	1105199104	45	3922
2026-01-09 05:58:16.26	333.68	16.98	-37.2	-38.3	20.1	0.00e+00	0	42	0	1112539136	45	3936
2026-01-09 05:58:17.26	333.47	17.02	-37.2	-38.3	20.1	0.00e+00	0	42	0	1119879168	45	3943
2026-01-09 05:58:18.27	333.25	17.06	-37.2	-38.3	20.1	0.00e+00	0	42	0	1127219200	45	3941
2026-01-09 05:58:19.27	333.04	17.10	-37.2	-38.2	20.2	0.00e+00	0	42	0	1134559232	45	3909
2026-01-09 05:58:20.27	332.83	17.14	-37.2	-38.3	20.2	0.00e+00	0	42	0	1140850688	45	3917
2026-01-09 05:58:21.27	332.61	17.18	-37.2	-38.2	20.2	0.00e+00	0	43	0	1148190720	45	3899
2026-01-09 05:58:22.27	332.40	17.22	-37.1	-38.1	20.3	0.00e+00	0	43	0	1155530752	44	4064
2026-01-09 05:58:23.27	332.18	17.26	-36.9	-37.9	20.5	0.00e+00	0	42	0	1162870784	44	3989
2026-01-09 05:58:24.28	331.97	17.30	-36.9	-37.9	20.5	0.00e+00	0	42	0	1170210816	44	3965
2026-01-09 05:58:25.28	331.75	17.34	-36.7	-37.7	20.7	0.00e+00	0	42	0	1177550848	44	3893
2026-01-09 05:58:26.28	331.53	17.38	-36.7	-37.7	20.7	0.00e+00	0	42	0	1184890880	44	3879
2026-01-09 05:58:27.28	331.32	17.42	-36.8	-37.7	20.6	0.00e+00	0	42	0	1192230912	44	3907
2026-01-09 05:58:28.28	331.10	17.46	-36.7	-37.6	20.8	0.00e+00	0	43	0	1199570944	44	3861
2026-01-09 05:58:29.28	330.88	17.50	-36.7	-37.6	20.7	0.00e+00	0	42	0	1206910976	44	3867
2026-01-09 05:58:30.28	330.66	17.53	-36.8	-37.7	20.7	0.00e+00	0	42	0	1214251008	44	3891
2026-01-09 05:58:31.28	330.44	17.57	-36.7	-37.7	20.7	0.00e+00	0	42	0	1221591040	44	3892
2026-01-09 05:58:32.29	330.22	17.61	-36.8	-37.7	20.7	0.00e+00	0	43	0	1227882496	44	3907
2026-01-09 05:58:33.28	330.00	17.64	-36.9	-37.8	20.6	0.00e+00	0	42	0	1235222528	44	3948
2026-01-09 05:58:34.28	329.78	17.68	-36.9	-37.9	20.5	0.00e+00	0	42	0	1242562560	44	3960
2026-01-09 05:58:35.28	329.56	17.71	-37.0	-38.0	20.4	0.00e+00	0	42	0	1249902592	44	4012
2026-01-09 05:58:36.28	329.34	17.75	-36.9	-37.9	20.5	0.00e+00	0	42	0	1257242624	44	3981
2026-01-09 05:58:37.27	329.12	17.78	-36.9	-37.9	20.5	0.00e+00	0	42	0	1264582656	44	3989
2026-01-09 05:58:38.27	328.90	17.82	-36.9	-37.8	20.5	0.00e+00	0	43	0	1270874112	44	3954
2026-01-09 05:58:39.27	328.67	17.85	-36.9	-37.9	20.5	0.00e+00	0	42	0	1278214144	44	3971
2026-01-09 05:58:40.27	328.45	17.88	-36.8	-37.8	20.6	0.00e+00	0	42	0	1285554176	44	3942
2026-01-09 05:58:41.27	328.22	17.92	-36.8	-37.8	20.6	0.00e+00	0	43	0	1292894208	44	3950
2026-01-09 05:58:42.27	328.00	17.95	-36.9	-37.9	20.5	0.00e+00	0	42	0	1300234240	44	3992
2026-01-09 05:58:43.27	327.77	17.98	-36.7	-37.7	20.7	0.00e+00	0	42	0	1307574272	44	3909
2026-01-09 05:58:44.27	327.55	18.01	-36.6	-37.7	20.7	0.00e+00	0	42	0	1314914304	44	3885
2026-01-09 05:58:45.28	327.32	18.04	-36.6	-37.7	20.7	0.00e+00	0	42	0	1322254336	44	3888
2026-01-09 05:58:46.28	327.09	18.07	-36.6	-37.7	20.7	0.00e+00	0	42	0	1328545792	44	3889
2026-01-09 05:58:47.28	326.87	18.10	-36.7	-37.7	20.6	0.00e+00	0	42	0	1336934400	44	3896
2026-01-09 05:58:48.28	326.64	18.13	-36.7	-37.8	20.6	0.00e+00	0	42	0	1343225856	44	3927
2026-01-09 05:58:49.28	326.41	18.16	-36.8	-37.8	20.6	0.00e+00	0	43	0	1350565888	44	3921
2026-01-09 05:58:50.28	326.18	18.19	-36.8	-37.8	20.6	0.00e+00	0	43	0	1357905920	44	3921
2026-01-09 05:58:51.28	325.95	18.22	-36.9	-37.9	20.5	0.00e+00	0	43	0	1365245952	44	3960
2026-01-09 05:58:52.29	325.72	18.25	-36.8	-37.8	20.6	0.00e+00	0	43	0	1372585984	44	3928
2026-01-09 05:58:53.28	325.49	18.28	-36.9	-37.9	20.6	0.00e+00	0	42	0	1379926016	44	3961
2026-01-09 05:58:54.29	325.26	18.30	-36.8	-37.8	20.6	0.00e+00	0	42	0	1387266048	44	3934
2026-01-09 05:58:55.29	325.03	18.33	-36.9	-37.8	20.6	0.00e+00	0	42	0	1394606080	44	3941
2026-01-09 05:58:56.29	324.80	18.36	-36.9	-37.8	20.5	0.00e+00	0	43	0	1401946112	44	3955
2026-01-09 05:58:57.30	324.56	18.38	-36.8	-37.8	20.6	0.00e+00	0	42	0	1409286144	44	3920
2026-01-09 05:58:58.30	324.33	18.41	-36.9	-37.9	20.6	0.00e+00	0	42	0	1415577600	44	3961
2026-01-09 05:58:59.30	324.10	18.43	-36.9	-37.9	20.5	0.00e+00	0	42	0	1422917632	44	3973
2026-01-09 05:59:00.30	323.87	18.46	-36.9	-37.9	20.5	0.00e+00	0	42	0	1430257664	44	3980
2026-01-09 05:59:01.30	323.63	18.48	-36.9	-38.0	20.4	0.00e+00	0	43	0	1437597696	44	4020
2026-01-09 05:59:02.30	323.40	18.51	-36.8	-37.8	20.6	0.00e+00	0	43	0	1444937728	44	3957
2026-01-09 05:59:03.31	323.16	18.53	-36.7	-37.7	20.7	0.00e+00	0	43	0	1452277760	44	3891
2026-01-09 05:59:04.31	322.93	18.55	-36.4	-37.4	20.9	0.00e+00	0	42	0	1459617792	43	3966
2026-01-09 05:59:05.30	322.70	18.57	-36.5	-37.5	20.8	0.00e+00	0	43	0	1466957824	43	4012
2026-01-09 05:59:06.31	322.46	18.60	-36.3	-37.2	21.0	0.00e+00	0	42	0	1474297856	43	3895
2026-01-09 05:59:07.31	322.22	18.62	-36.2	-37.1	21.1	0.00e+00	0	43	0	1480589312	43	3851
2026-01-09 05:59:08.31	321.99	18.64	-36.3	-37.2	21.0	0.00e+00	0	43	0	1487929344	43	3903
2026-01-09 05:59:09.31	321.75	18.66	-36.4	-37.3	20.9	0.00e+00	0	42	0	1495269376	43	3938
2026-01-09 05:59:10.31	321.52	18.68	-36.5	-37.4	20.8	0.00e+00	0	43	0	1502609408	43	3978
2026-01-09 05:59:11.31	321.28	18.70	-36.3	-37.2	21.0	0.00e+00	0	43	0	1509949440	43	3909
2026-01-09 05:59:12.31	321.04	18.72	-36.3	-37.3	21.0	0.00e+00	0	43	0	1517289472	43	3924
2026-01-09 05:59:13.31	320.80	18.73	-36.4	-37.4	20.9	0.00e+00	0	43	0	1524629504	43	3959
2026-01-09 05:59:14.31	320.57	18.75	-36.4	-37.3	20.9	0.00e+00	0	43	0	1531969536	43	3936
2026-01-09 05:59:15.31	320.33	18.77	-36.5	-37.5	20.8	0.00e+00	0	43	0	1538260992	43	4008
2026-01-09 05:59:16.31	320.09	18.79	-36.4	-37.4	20.9	0.00e+00	0	43	0	1545601024	43	3959
2026-01-09 05:59:17.31	319.85	18.80	-36.4	-37.4	20.8	0.00e+00	0	42	0	1552941056	43	3979
2026-01-09 05:59:18.31	319.61	18.82	-36.3	-37.3	20.9	0.00e+00	0	43	0	1560281088	43	3938
2026-01-09 05:59:19.31	319.38	18.83	-36.3	-37.3	21.0	0.00e+00	0	43	0	1567621120	43	3918
2026-01-09 05:59:20.31	319.14	18.85	-36.4	-37.4	20.8	0.00e+00	0	43	0	1574961152	43	3990
2026-01-09 05:59:21.31	318.90	18.86	-36.4	-37.4	20.8	0.00e+00	0	43	0	1582301184	43	3983
2026-01-09 05:59:22.31	318.66	18.88	-36.3	-37.3	20.9	0.00e+00	0	43	0	1589641216	43	3948
2026-01-09 05:59:23.31	318.42	18.89	-36.3	-37.3	20.9	0.00e+00	0	43	0	1596981248	43	3951
2026-01-09 05:59:24.31	318.18	18.90	-36.3	-37.2	21.0	0.00e+00	0	43	0	1603272704	43	3901
2026-01-09 05:59:25.31	317.94	18.91	-36.3	-37.3	21.0	0.00e+00	0	43	0	1610612736	43	3932
2026-01-09 05:59:26.32	317.69	18.93	-36.4	-37.3	20.9	0.00e+00	0	42	0	1617952768	43	3952
2026-01-09 05:59:27.32	317.45	18.94	-36.4	-37.3	20.9	0.00e+00	0	43	0	1625292800	43	3934
2026-01-09 05:59:28.31	317.22	18.95	-36.3	-37.2	21.0	0.00e+00	0	43	0	1632632832	43	3912
2026-01-09 05:59:29.31	316.97	18.96	-36.4	-37.4	20.9	0.00e+00	0	43	0	1639972864	43	3975
2026-01-09 05:59:30.32	316.73	18.97	-36.3	-37.2	21.0	0.00e+00	0	43	0	1647312896	43	3912
2026-01-09 05:59:31.32	316.49	18.98	-36.3	-37.2	21.0	0.00e+00	0	43	0	1654652928	43	3913
2026-01-09 05:59:32.32	316.25	18.99	-36.2	-37.1	21.1	0.00e+00	0	43	0	1661992960	43	3864
2026-01-09 05:59:33.32	316.01	18.99	-36.2	-37.1	21.1	0.00e+00	0	42	0	1668284416	43	3849
2026-01-09 05:59:34.33	315.76	19.00	-36.1	-37.0	21.2	0.00e+00	0	43	0	1675624448	43	3819
2026-01-09 05:59:35.32	315.52	19.01	-36.1	-37.1	21.1	0.00e+00	0	43	0	1682964480	42	4061
2026-01-09 05:59:36.32	315.28	19.01	-36.1	-37.0	21.2	0.00e+00	0	43	0	1690304512	42	4028
2026-01-09 05:59:37.33	315.04	19.02	-36.1	-37.0	21.2	0.00e+00	0	43	0	1697644544	42	4031
2026-01-09 05:59:38.33	314.79	19.03	-36.0	-36.9	21.3	0.00e+00	0	43	0	1704984576	42	4002
2026-01-09 05:59:39.33	314.55	19.03	-36.1	-37.1	21.2	0.00e+00	0	43	0	1712324608	42	4059
2026-01-09 05:59:40.33	314.31	19.04	-36.0	-37.0	21.3	0.00e+00	0	43	0	1719664640	42	4006
2026-01-09 05:59:41.33	314.07	19.04	-36.1	-37.0	21.2	0.00e+00	0	43	0	1727004672	42	4049
2026-01-09 05:59:42.33	313.83	19.04	-36.2	-37.2	21.1	0.00e+00	0	43	0	1734344704	42	4103
2026-01-09 05:59:43.33	313.58	19.04	-36.1	-37.0	21.2	0.00e+00	0	43	0	1741684736	42	4050
2026-01-09 05:59:44.33	313.34	19.05	-36.2	-37.1	21.1	0.00e+00	0	43	0	1747976192	42	4074
2026-01-09 05:59:45.33	313.10	19.05	-36.2	-37.1	21.1	0.00e+00	0	42	0	1755316224	42	4097
2026-01-09 05:59:46.33	312.86	19.05	-36.2	-37.1	21.1	0.00e+00	0	43	0	1762656256	42	4077
2026-01-09 05:59:47.33	312.61	19.05	-36.2	-37.1	21.1	0.00e+00	0	43	0	1769996288	42	4086
2026-01-09 05:59:48.34	312.37	19.05	-36.2	-37.1	21.1	0.00e+00	0	43	0	1777336320	42	4094
2026-01-09 05:59:49.34	312.12	19.05	-36.2	-37.1	21.1	0.00e+00	0	43	0	1784676352	42	4073
2026-01-09 05:59:50.34	311.88	19.05	-36.2	-37.1	21.1	0.00e+00	0	43	0	1792016384	42	4081
2026-01-09 05:59:51.34	311.64	19.05	-36.1	-37.0	21.2	0.00e+00	0	43	0	1799356416	42	4048
2026-01-09 05:59:52.34	311.40	19.05	-36.3	-37.3	20.9	0.00e+00	0	43	0	1806696448	42	4157
2026-01-09 05:59:53.34	311.15	19.04	-36.2	-37.1	21.1	0.00e+00	0	43	0	1812987904	42	4072
2026-01-09 05:59:54.34	310.91	19.04	-36.3	-37.2	21.0	0.00e+00	0	43	0	1820327936	42	4125
2026-01-09 05:59:55.34	310.67	19.04	-36.3	-37.3	21.0	0.00e+00	0	43	0	1827667968	42	4146
2026-01-09 05:59:56.34	310.43	19.03	-36.3	-37.2	21.0	0.00e+00	0	43	0	1835008000	42	4133
2026-01-09 05:59:57.34	310.18	19.03	-36.2	-37.1	21.1	0.00e+00	0	43	0	1842348032	42	4085
2026-01-09 05:59:58.34	309.94	19.02	-36.2	-37.2	21.1	0.00e+00	0	43	0	1849688064	42	4107
2026-01-09 05:59:59.34	309.70	19.02	-36.2	-37.1	21.1	0.00e+00	0	43	0	1857028096	42	4082
2026-01-09 06:00:00.34	309.46	19.01	-36.2	-37.1	21.1	0.00e+00	0	43	0	1864368128	42	4093
2026-01-09 06:00:01.34	309.22	19.00	-36.2	-37.1	21.2	0.00e+00	0	43	0	1870659584	42	4058
2026-01-09 06:00:02.34	308.97	19.00	-36.2	-37.1	21.1	0.00e+00	0	43	0	1877999616	42	4086
2026-01-09 06:00:03.34	308.73	18.99	-36.3	-37.2	21.0	0.00e+00	0	43	0	1885339648	42	4124
2026-01-09 06:00:04.35	308.49	18.98	-36.3	-37.3	21.0	0.00e+00	0	43	0	1892679680	42	4147
2026-01-09 06:00:05.35	308.25	18.97	-36.3	-37.2	21.0	0.00e+00	0	43	0	1900019712	42	4133
2026-01-09 06:00:06.35	308.01	18.96	-36.3	-37.3	21.0	0.00e+00	0	43	0	1907359744	42	4151
2026-01-09 06:00:07.36	307.76	18.95	-36.2	-37.1	21.1	0.00e+00	0	43	0	1914699776	42	4094
2026-01-09 06:00:08.36	307.52	18.94	-36.2	-37.1	21.1	0.00e+00	0	43	0	1922039808	42	4097
2026-01-09 06:00:09.36	307.28	18.93	-36.2	-37.1	21.2	0.00e+00	0	43	0	1929379840	42	4070
2026-01-09 06:00:10.36	307.04	18.92	-36.1	-37.1	21.2	0.00e+00	0	43	0	1935671296	42	4053
2026-01-09 06:00:11.36	306.80	18.90	-36.2	-37.1	21.2	0.00e+00	0	43	0	1943011328	42	4071
2026-01-09 06:00:12.37	306.56	18.89	-36.2	-37.1	21.1	0.00e+00	0	43	0	1950351360	42	4069
2026-01-09 06:00:13.37	306.32	18.88	-36.2	-37.2	21.1	0.00e+00	0	43	0	1957691392	42	4103
2026-01-09 06:00:14.37	306.08	18.87	-36.2	-37.1	21.2	0.00e+00	0	43	0	1965031424	42	4065
2026-01-09 06:00:15.37	305.84	18.85	-36.3	-37.2	21.0	0.00e+00	0	43	0	1972371456	42	4126
2026-01-09 06:00:16.37	305.60	18.84	-36.3	-37.3	21.0	0.00e+00	0	43	0	1979711488	42	4162
2026-01-09 06:00:17.37	305.36	18.82	-36.3	-37.3	21.0	0.00e+00	0	43	0	1987051520	42	4155
2026-01-09 06:00:18.37	305.12	18.81	-36.3	-37.2	21.0	0.00e+00	0	43	0	1994391552	42	4142
2026-01-09 06:00:19.37	304.88	18.79	-36.3	-37.2	21.0	0.00e+00	0	43	0	2000683008	42	4139
2026-01-09 06:00:20.37	304.64	18.77	-36.2	-37.2	21.1	0.00e+00	0	43	0	2008023040	42	4101
2026-01-09 06:00:21.37	304.40	18.76	-36.1	-37.0	21.2	0.00e+00	0	43	0	2015363072	42	4049
2026-01-09 06:00:22.37	304.17	18.74	-36.1	-37.0	21.3	0.00e+00	0	43	0	2022703104	42	4019
2026-01-09 06:00:23.37	303.93	18.72	-36.1	-37.0	21.2	0.00e+00	0	43	0	2030043136	42	4041
2026-01-09 06:00:24.37	303.69	18.70	-36.1	-37.0	21.2	0.00e+00	0	43	0	2037383168	42	4050
2026-01-09 06:00:25.37	303.45	18.68	-36.2	-37.1	21.1	0.00e+00	0	43	0	2044723200	42	4068
2026-01-09 06:00:26.37	303.22	18.66	-36.3	-37.2	21.0	0.00e+00	0	43	0	2052063232	42	4112
2026-01-09 06:00:27.37	302.98	18.64	-36.4	-37.3	20.9	0.00e+00	0	43	0	2058354688	42	4165
2026-01-09 06:00:28.37	302.74	18.62	-36.4	-37.4	20.9	0.00e+00	0	43	0	2065694720	42	4195
2026-01-09 06:00:29.37	302.51	18.60	-36.4	-37.3	20.9	0.00e+00	0	43	0	2073034752	42	4183
2026-01-09 06:00:30.38	302.27	18.58	-36.4	-37.3	20.9	0.00e+00	0	43	0	2080374784	42	4169
2026-01-09 06:00:31.38	302.04	18.56	-36.4	-37.3	20.9	0.00e+00	0	43	0	2087714816	42	4181
2026-01-09 06:00:32.37	301.80	18.53	-36.4	-37.4	20.9	0.00e+00	0	43	0	2095054848	42	4200
2026-01-09 06:00:33.37	301.57	18.51	-36.5	-37.5	20.8	0.00e+00	0	43	0	2102394880	42	4254
2026-01-09 06:00:34.37	301.33	18.49	-36.3	-37.2	21.0	0.00e+00	0	43	0	2109734912	42	4134
2026-01-09 06:00:35.37	301.10	18.46	-36.3	-37.2	21.0	0.00e+00	0	43	0	2117074944	42	4133
2026-01-09 06:00:36.38	300.87	18.44	-36.3	-37.3	21.0	0.00e+00	0	43	0	2123366400	42	4151
2026-01-09 06:00:37.38	300.63	18.41	-36.4	-37.3	20.9	0.00e+00	0	43	0	2131755008	42	4186
2026-01-09 06:00:38.38	300.40	18.39	-36.4	-37.4	20.9	0.00e+00	0	43	0	2139095040	42	4203
2026-01-09 06:00:39.38	300.17	18.36	-36.4	-37.3	20.9	0.00e+00	0	43	0	2145386496	42	4184
2026-01-09 06:00:40.39	299.93	18.34	-36.6	-37.5	20.7	0.00e+00	0	43	0	2152726528	42	4255
2026-01-09 06:00:41.39	299.70	18.31	-36.4	-37.3	20.8	0.00e+00	0	43	0	2160066560	42	4161
2026-01-09 06:00:42.39	299.47	18.28	-36.6	-37.5	20.7	0.00e+00	0	43	0	2167406592	42	4254
2026-01-09 06:00:43.39	299.24	18.25	-36.4	-37.3	20.9	0.00e+00	0	43	0	2174746624	42	4177
2026-01-09 06:00:44.39	299.01	18.23	-36.4	-37.3	20.9	0.00e+00	0	43	0	2182086656	42	4186
2026-01-09 06:00:45.40	298.78	18.20	-36.5	-37.4	20.8	0.00e+00	0	43	0	2189426688	42	4230
2026-01-09 06:00:46.40	298.55	18.17	-36.4	-37.4	20.8	0.00e+00	0	43	0	2196766720	42	4196
2026-01-09 06:00:47.40	298.32	18.14	-36.4	-37.3	20.9	0.00e+00	0	43	0	2204106752	42	4185
2026-01-09 06:00:48.40	298.09	18.11	-36.5	-37.5	20.8	0.00e+00	0	43	0	2210398208	42	4247
2026-01-09 06:00:49.41	297.86	18.08	-36.5	-37.4	20.8	0.00e+00	0	43	0	2217738240	42	4218
2026-01-09 06:00:50.41	297.63	18.05	-36.5	-37.4	20.8	0.00e+00	0	43	0	2225078272	42	4234
2026-01-09 06:00:51.41	297.41	18.02	-36.5	-37.4	20.8	0.00e+00	0	43	0	2232418304	42	4230
2026-01-09 06:00:52.41	297.18	17.98	-36.6	-37.5	20.8	0.00e+00	0	43	0	2239758336	42	4260
2026-01-09 06:00:53.41	296.95	17.95	-36.5	-37.4	20.8	0.00e+00	0	43	0	2247098368	42	4237
2026-01-09 06:00:54.41	296.73	17.92	-36.4	-37.4	20.9	0.00e+00	0	43	0	2254438400	42	4194
2026-01-09 06:00:55.41	296.50	17.89	-36.4	-37.4	20.9	0.00e+00	0	43	0	2261778432	42	4195
2026-01-09 06:00:56.41	296.28	17.85	-36.4	-37.3	21.0	0.00e+00	0	43	0	2268069888	42	4164
2026-01-09 06:00:57.41	296.05	17.82	-36.4	-37.3	21.0	0.00e+00	0	43	0	2275409920	42	4161
2026-01-09 06:00:58.41	295.83	17.79	-36.5	-37.5	20.8	0.00e+00	0	43	0	2282749952	42	4256
2026-01-09 06:00:59.40	295.61	17.75	-36.6	-37.5	20.7	0.00e+00	0	43	0	2290089984	42	4287
2026-01-09 06:01:00.40	295.39	17.72	-36.7	-37.6	20.6	0.00e+00	0	43	0	2297430016	42	4317
2026-01-09 06:01:01.41	295.16	17.68	-36.8	-37.7	20.5	0.00e+00	0	42	0	2304770048	43	4131
2026-01-09 06:01:02.41	294.94	17.65	-36.9	-37.9	20.4	0.00e+00	0	43	0	2312110080	43	4201
2026-01-09 06:01:03.41	294.72	17.61	-36.9	-37.8	20.4	0.00e+00	0	43	0	2319450112	43	4191
2026-01-09 06:01:04.41	294.50	17.57	-36.9	-37.9	20.4	0.00e+00	0	43	0	2326790144	43	4218
2026-01-09 06:01:05.41	294.28	17.54	-37.0	-37.9	20.3	0.00e+00	0	43	0	2333081600	43	4242
2026-01-09 06:01:06.41	294.06	17.50	-36.9	-37.9	20.4	0.00e+00	0	43	0	2340421632	43	4217
2026-01-09 06:01:07.41	293.84	17.46	-37.0	-38.0	20.3	0.00e+00	0	43	0	2347761664	43	4246
2026-01-09 06:01:08.41	293.62	17.42	-36.9	-37.9	20.4	0.00e+00	0	43	0	2355101696	43	4209
2026-01-09 06:01:09.42	293.40	17.38	-36.8	-37.7	20.6	0.00e+00	0	43	0	2362441728	43	4120
2026-01-09 06:01:10.42	293.19	17.35	-36.8	-37.7	20.5	0.00e+00	0	43	0	2369781760	43	4141
2026-01-09 06:01:11.42	292.97	17.31	-36.8	-37.8	20.5	0.00e+00	0	43	0	2377121792	43	4161
2026-01-09 06:01:12.42	292.75	17.27	-36.9	-37.8	20.5	0.00e+00	0	43	0	2384461824	43	4192
2026-01-09 06:01:13.42	292.54	17.23	-36.9	-37.8	20.5	0.00e+00	0	43	0	2390753280	43	4190
2026-01-09 06:01:14.42	292.32	17.19	-37.0	-38.0	20.3	0.00e+00	0	43	0	2398093312	43	4271
2026-01-09 06:01:15.42	292.11	17.15	-37.0	-38.0	20.3	0.00e+00	0	43	0	2405433344	43	4256
2026-01-09 06:01:16.42	291.89	17.11	-37.2	-38.2	20.1	0.00e+00	0	43	0	2412773376	43	4345
2026-01-09 06:01:17.42	291.68	17.07	-37.1	-38.1	20.2	0.00e+00	0	43	0	2420113408	43	4305
2026-01-09 06:01:18.42	291.47	17.02	-37.1	-38.0	20.2	0.00e+00	0	43	0	2427453440	43	4291
2026-01-09 06:01:19.43	291.25	16.98	-37.1	-38.1	20.2	0.00e+00	0	43	0	2434793472	43	4318
2026-01-09 06:01:20.42	291.05	16.94	-37.2	-38.1	20.1	0.00e+00	0	43	0	2442133504	43	4329
2026-01-09 06:01:21.43	290.83	16.90	-37.1	-38.1	20.2	0.00e+00	0	43	0	2449473536	43	4313
2026-01-09 06:01:22.43	290.62	16.85	-37.0	-37.9	20.3	0.00e+00	0	43	0	2456813568	43	4241
2026-01-09 06:01:23.43	290.41	16.81	-37.2	-38.2	20.2	0.00e+00	0	43	0	2463105024	44	4120
2026-01-09 06:01:24.43	290.20	16.77	-37.2	-38.2	20.3	0.00e+00	0	43	0	2470445056	44	4099
2026-01-09 06:01:25.43	289.99	16.72	-37.2	-38.1	20.3	0.00e+00	0	43	0	2477785088	44	4084
2026-01-09 06:01:26.43	289.79	16.68	-37.1	-38.0	20.4	0.00e+00	0	43	0	2485125120	44	4043
2026-01-09 06:01:27.43	289.58	16.64	-37.2	-38.2	20.2	0.00e+00	0	43	0	2492465152	44	4103
2026-01-09 06:01:28.43	289.37	16.59	-37.1	-38.0	20.3	0.00e+00	0	43	0	2499805184	44	4048
2026-01-09 06:01:29.43	289.17	16.55	-37.1	-38.0	20.3	0.00e+00	0	43	0	2507145216	44	4050
2026-01-09 06:01:30.43	288.96	16.50	-37.2	-38.2	20.2	0.00e+00	0	43	0	2514485248	44	4109
2026-01-09 06:01:31.43	288.76	16.46	-37.1	-38.1	20.3	0.00e+00	0	43	0	2520776704	44	4077
2026-01-09 06:01:32.43	288.55	16.41	-37.2	-38.2	20.2	0.00e+00	0	43	0	2529165312	44	4107
2026-01-09 06:01:33.43	288.35	16.36	-37.2	-38.2	20.2	0.00e+00	0	43	0	2536505344	44	4108
2026-01-09 06:01:34.43	288.15	16.32	-37.2	-38.1	20.3	0.00e+00	0	43	0	2542796800	44	4089
2026-01-09 06:01:35.43	287.94	16.27	-37.3	-38.2	20.2	0.00e+00	0	43	0	2550136832	44	4132
2026-01-09 06:01:36.43	287.74	16.22	-37.2	-38.1	20.3	0.00e+00	0	43	0	2557476864	44	4092
2026-01-09 06:01:37.43	287.54	16.18	-37.1	-38.1	20.3	0.00e+00	0	43	0	2564816896	44	4064
2026-01-09 06:01:38.43	287.34	16.13	-37.0	-38.0	20.4	0.00e+00	0	43	0	2572156928	44	4007
2026-01-09 06:01:39.43	287.14	16.08	-37.1	-38.0	20.4	0.00e+00	0	43	0	2579496960	44	4043
2026-01-09 06:01:40.43	286.94	16.03	-37.1	-38.0	20.4	0.00e+00	0	43	0	2586836992	44	4033
2026-01-09 06:01:41.43	286.74	15.99	-37.1	-38.0	20.4	0.00e+00	0	43	0	2594177024	44	4033
2026-01-09 06:01:42.43	286.55	15.94	-37.1	-38.1	20.3	0.00e+00	0	43	0	2600468480	44	4071
2026-01-09 06:01:43.43	286.35	15.89	-37.3	-38.2	20.2	0.00e+00	0	43	0	2607808512	44	4132
2026-01-09 06:01:44.43	286.15	15.84	-37.3	-38.2	20.2	0.00e+00	0	43	0	2615148544	44	4129
2026-01-09 06:01:45.43	285.96	15.79	-37.2	-38.2	20.2	0.00e+00	0	43	0	2622488576	44	4133
2026-01-09 06:01:46.44	285.76	15.74	-37.3	-38.3	20.2	0.00e+00	0	43	0	2629828608	44	4162
2026-01-09 06:01:47.44	285.56	15.69	-37.2	-38.2	20.2	0.00e+00	0	43	0	2637168640	44	4110
2026-01-09 06:01:48.44	285.37	15.64	-37.3	-38.3	20.1	0.00e+00	0	43	0	2644508672	44	4174
2026-01-09 06:01:49.45	285.18	15.59	-37.3	-38.3	20.2	0.00e+00	0	43	0	2651848704	44	4150
2026-01-09 06:01:50.45	284.98	15.54	-37.3	-38.2	20.2	0.00e+00	0	43	0	2659188736	44	4132
2026-01-09 06:01:51.45	284.79	15.49	-37.1	-38.1	20.3	0.00e+00	0	43	0	2665480192	44	4079
2026-01-09 06:01:52.45	284.60	15.44	-37.1	-38.1	20.3	0.00e+00	0	43	0	2672820224	44	4063
2026-01-09 06:01:53.44	284.41	15.39	-37.1	-38.1	20.3	0.00e+00	0	43	0	2680160256	44	4061
2026-01-09 06:01:54.45	284.22	15.34	-37.1	-38.1	20.2	0.00e+00	0	43	0	2687500288	44	4074
2026-01-09 06:01:55.45	284.03	15.29	-37.3	-38.3	20.1	0.00e+00	0	43	0	2694840320	44	4160
2026-01-09 06:01:56.45	283.84	15.23	-37.2	-38.2	20.2	0.00e+00	0	43	0	2702180352	44	4126
2026-01-09 06:01:57.45	283.65	15.18	-37.3	-38.3	20.1	0.00e+00	0	43	0	2709520384	44	4160
2026-01-09 06:01:58.45	283.46	15.13	-37.4	-38.3	20.0	0.00e+00	0	43	0	2716860416	44	4193
2026-01-09 06:01:59.45	283.28	15.08	-37.5	-38.5	19.9	0.00e+00	0	43	0	2724200448	44	4248
2026-01-09 06:02:00.45	283.09	15.03	-37.4	-38.4	20.0	0.00e+00	0	43	0	2730491904	44	4215
2026-01-09 06:02:01.45	282.91	14.97	-37.5	-38.4	20.0	0.00e+00	0	43	0	2737831936	44	4241
2026-01-09 06:02:02.45	282.72	14.92	-37.6	-38.6	19.8	0.00e+00	0	43	0	2745171968	44	4301
2026-01-09 06:02:03.45	282.54	14.87	-37.5	-38.5	19.9	0.00e+00	0	43	0	2752512000	44	4254
2026-01-09 06:02:04.46	282.35	14.81	-37.5	-38.5	19.9	0.00e+00	0	43	0	2759852032	44	4258
2026-01-09 06:02:05.46	282.17	14.76	-37.5	-38.5	19.9	0.00e+00	0	43	0	2767192064	44	4267
2026-01-09 06:02:06.46	281.99	14.71	-37.6	-38.6	19.8	0.00e+00	0	43	0	2774532096	44	4322
2026-01-09 06:02:07.46	281.81	14.65	-37.5	-38.5	19.9	0.00e+00	0	43	0	2781872128	44	4274
2026-01-09 06:02:08.46	281.63	14.60	-37.5	-38.5	19.9	0.00e+00	0	43	0	2788163584	44	4246
2026-01-09 06:02:09.46	281.45	14.55	-37.4	-38.4	19.9	0.00e+00	0	43	0	2795503616	44	4233
2026-01-09 06:02:10.46	281.27	14.49	-37.5	-38.5	19.9	0.00e+00	0	43	0	2802843648	44	4269
2026-01-09 06:02:11.46	281.09	14.44	-37.6	-38.6	19.8	0.00e+00	0	43	0	2810183680	44	4299
2026-01-09 06:02:12.46	280.91	14.38	-37.5	-38.5	19.9	0.00e+00	0	43	0	2817523712	44	4259
2026-01-09 06:02:13.46	280.73	14.33	-37.6	-38.6	19.8	0.00e+00	0	43	0	2824863744	44	4315
2026-01-09 06:02:14.46	280.55	14.27	-37.6	-38.6	19.8	0.00e+00	0	43	0	2832203776	44	4327
2026-01-09 06:02:15.46	280.38	14.22	-37.7	-38.7	19.7	0.00e+00	0	43	0	2839543808	44	4382
2026-01-09 06:02:16.47	280.20	14.16	-37.8	-38.8	19.6	0.00e+00	0	43	0	2846883840	44	4398
2026-01-09 06:02:17.47	280.03	14.11	-37.8	-38.8	19.5	0.00e+00	0	43	0	2853175296	45	4191
2026-01-09 06:02:18.47	279.85	14.05	-37.9	-38.9	19.5	0.00e+00	0	43	0	2860515328	45	4219
2026-01-09 06:02:19.47	279.68	14.00	-38.0	-39.0	19.4	0.00e+00	0	43	0	2867855360	45	4267
2026-01-09 06:02:20.47	279.51	13.94	-38.0	-39.0	19.3	0.00e+00	0	43	0	2875195392	45	4281
2026-01-09 06:02:21.47	279.33	13.89	-38.0	-39.1	19.3	0.00e+00	0	43	0	2882535424	45	4294
2026-01-09 06:02:22.47	279.16	13.83	-37.9	-38.9	19.5	0.00e+00	0	43	0	2889875456	45	4208
2026-01-09 06:02:23.47	278.99	13.78	-37.9	-38.9	19.5	0.00e+00	0	43	0	2897215488	45	4214
2026-01-09 06:02:24.47	278.82	13.72	-37.9	-38.9	19.5	0.00e+00	0	43	0	2904555520	45	4217
2026-01-09 06:02:25.47	278.65	13.66	-37.9	-38.9	19.3	0.00e+00	0	43	0	2911895552	45	4239
2026-01-09 06:02:26.48	278.48	13.61	-37.8	-38.8	19.6	0.00e+00	0	43	0	2918187008	45	4171
2026-01-09 06:02:27.48	278.31	13.55	-38.0	-39.0	19.4	0.00e+00	0	43	0	2926575616	45	4274
2026-01-09 06:02:28.48	278.14	13.49	-37.9	-38.9	19.5	0.00e+00	0	43	0	2932867072	45	4217
2026-01-09 06:02:29.48	277.98	13.44	-37.8	-38.8	19.6	0.00e+00	0	43	0	2940207104	45	4171
2026-01-09 06:02:30.48	277.81	13.38	-37.7	-38.7	19.6	0.00e+00	0	43	0	2947547136	45	4130
2026-01-09 06:02:31.48	277.65	13.32	-37.7	-38.8	19.6	0.00e+00	0	43	0	2954887168	45	4157
2026-01-09 06:02:32.48	277.48	13.27	-37.8	-38.8	19.6	0.00e+00	0	43	0	2962227200	45	4178
2026-01-09 06:02:33.48	277.32	13.21	-37.8	-38.9	19.5	0.00e+00	0	43	0	2969567232	45	4216
2026-01-09 06:02:34.48	277.15	13.15	-37.8	-38.8	19.5	0.00e+00	0	43	0	2976907264	45	4172
2026-01-09 06:02:35.48	276.99	13.09	-37.7	-38.7	19.6	0.00e+00	0	43	0	2984247296	45	4139
2026-01-09 06:02:36.48	276.83	13.04	-37.8	-38.8	19.6	0.00e+00	0	43	0	2991587328	45	4160
2026-01-09 06:02:37.49	276.66	12.98	-37.7	-38.8	19.6	0.00e+00	0	43	0	2997878784	45	4147
2026-01-09 06:02:38.49	276.50	12.92	-37.8	-38.9	19.5	0.00e+00	0	43	0	3005218816	45	4202
2026-01-09 06:02:39.49	276.34	12.86	-37.8	-38.8	19.5	0.00e+00	0	43	0	3012558848	45	4178
2026-01-09 06:02:40.48	276.18	12.81	-37.8	-38.9	19.5	0.00e+00	0	43	0	3019898880	45	4202
2026-01-09 06:02:41.48	276.02	12.75	-37.8	-38.9	19.5	0.00e+00	0	43	0	3027238912	45	4209
2026-01-09 06:02:42.48	275.86	12.69	-38.0	-39.0	19.3	0.00e+00	0	43	0	3034578944	45	4287
2026-01-09 06:02:43.48	275.71	12.63	-37.9	-38.9	19.4	0.00e+00	0	43	0	3041918976	45	4237
2026-01-09 06:02:44.48	275.55	12.57	-37.9	-38.9	19.5	0.00e+00	0	43	0	3049259008	45	4220
2026-01-09 06:02:45.48	275.39	12.52	-37.9	-38.9	19.4	0.00e+00	0	43	0	3056599040	45	4233
2026-01-09 06:02:46.48	275.24	12.46	-37.9	-39.0	19.4	0.00e+00	0	43	0	3062890496	45	4251
2026-01-09 06:02:47.48	275.08	12.40	-37.9	-38.9	19.5	0.00e+00	0	43	0	3070230528	45	4210
2026-01-09 06:02:48.48	274.92	12.34	-37.9	-38.9	19.4	0.00e+00	0	43	0	3077570560	45	4232
2026-01-09 06:02:49.49	274.77	12.28	-38.0	-39.1	19.3	0.00e+00	0	43	0	3084910592	45	4295
2026-01-09 06:02:50.48	274.62	12.23	-38.0	-39.1	19.3	0.00e+00	0	43	0	3092250624	45	4303
2026-01-09 06:02:51.49	274.46	12.17	-38.0	-39.1	19.3	0.00e+00	0	43	0	3099590656	45	4296
2026-01-09 06:02:52.49	274.31	12.11	-38.1	-39.2	19.2	0.00e+00	0	43	0	3106930688	45	4343
2026-01-09 06:02:53.49	274.16	12.05	-38.2	-39.2	19.1	0.00e+00	0	43	0	3114270720	45	4391
2026-01-09 06:02:54.49	274.01	11.99	-38.1	-39.2	19.1	0.00e+00	0	43	0	3120562176	45	4354
2026-01-09 06:02:55.50	273.85	11.93	-38.2	-39.3	19.0	0.00e+00	0	43	0	3127902208	45	4397
2026-01-09 06:02:56.50	273.70	11.87	-38.3	-39.3	19.0	0.00e+00	0	43	0	3135242240	45	4430
2026-01-09 06:02:57.50	273.55	11.81	-38.2	-39.3	19.0	0.00e+00	0	43	0	3142582272	46	4162
2026-01-09 06:02:58.50	273.41	11.75	-38.3	-39.3	19.0	0.00e+00	0	43	0	3149922304	46	4189
2026-01-09 06:02:59.50	273.26	11.70	-38.4	-39.4	18.9	0.00e+00	0	43	0	3157262336	46	4237
2026-01-09 06:03:00.50	273.11	11.64	-38.5	-39.6	18.8	0.00e+00	0	43	0	3164602368	46	4301
2026-01-09 06:03:01.51	272.96	11.58	-38.5	-39.6	18.8	0.00e+00	0	43	0	3171942400	46	4309
2026-01-09 06:03:02.50	272.82	11.52	-38.5	-39.6	18.8	0.00e+00	0	43	0	3179282432	46	4298
2026-01-09 06:03:03.50	272.67	11.46	-38.7	-39.8	18.7	0.00e+00	0	43	0	3185573888	46	4412
2026-01-09 06:03:04.51	272.52	11.40	-38.4	-39.5	18.9	0.00e+00	0	43	0	3192913920	47	4033
2026-01-09 06:03:05.50	272.38	11.34	-38.3	-39.4	18.9	0.00e+00	0	43	0	3200253952	47	3979
2026-01-09 06:03:06.50	272.24	11.28	-38.3	-39.4	18.9	0.00e+00	0	43	0	3207593984	47	3972
2026-01-09 06:03:07.51	272.09	11.22	-38.3	-39.4	18.9	0.00e+00	0	43	0	3214934016	47	3974
2026-01-09 06:03:08.50	271.95	11.16	-38.3	-39.4	18.9	0.00e+00	0	43	0	3222274048	47	3978
2026-01-09 06:03:09.50	271.81	11.10	-38.0	-39.1	19.2	0.00e+00	0	43	0	3229614080	46	4076
2026-01-09 06:03:10.50	271.67	11.04	-38.0	-39.1	19.2	0.00e+00	0	43	0	3236954112	46	4064
2026-01-09 06:03:11.50	271.52	10.99	-38.1	-39.1	19.2	0.00e+00	0	43	0	3244294144	46	4088
2026-01-09 06:03:12.50	271.38	10.93	-38.0	-39.1	19.2	0.00e+00	0	43	0	3250585600	46	4075
2026-01-09 06:03:13.50	271.24	10.87	-38.1	-39.1	19.1	0.00e+00	0	43	0	3257925632	46	4095
2026-01-09 06:03:14.50	271.10	10.81	-38.2	-39.3	19.0	0.00e+00	0	43	0	3265265664	46	4166
2026-01-09 06:03:15.50	270.97	10.75	-38.3	-39.4	18.9	0.00e+00	0	43	0	3272605696	46	4229
2026-01-09 06:03:16.50	270.83	10.69	-38.3	-39.4	18.9	0.00e+00	0	43	0	3279945728	46	4220
2026-01-09 06:03:17.50	270.69	10.63	-38.5	-39.6	18.7	0.00e+00	0	43	0	3287285760	46	4296
2026-01-09 06:03:18.50	270.55	10.57	-38.5	-39.6	18.7	0.00e+00	0	43	0	3294625792	46	4296
2026-01-09 06:03:19.50	270.42	10.51	-38.6	-39.7	18.6	0.00e+00	0	43	0	3301965824	46	4374
2026-01-09 06:03:20.50	270.28	10.45	-38.6	-39.7	18.5	0.00e+00	0	43	0	3308257280	46	4384
2026-01-09 06:03:21.50	270.14	10.39	-38.6	-39.7	18.6	0.00e+00	0	43	0	3315597312	46	4378
2026-01-09 06:03:22.51	270.01	10.33	-38.7	-39.8	18.5	0.00e+00	0	43	0	3322937344	46	4407
2026-01-09 06:03:23.51	269.87	10.27	-38.7	-39.8	18.4	0.00e+00	0	43	0	3330277376	47	4191
2026-01-09 06:03:24.51	269.74	10.21	-38.6	-39.7	18.6	0.00e+00	0	43	0	3337617408	47	4135
2026-01-09 06:03:25.51	269.61	10.15	-38.7	-39.8	18.5	0.00e+00	0	43	0	3344957440	47	4163
2026-01-09 06:03:26.51	269.47	10.09	-38.7	-39.8	18.5	0.00e+00	0	43	0	3352297472	47	4159
2026-01-09 06:03:27.51	269.34	10.03	-38.6	-39.7	18.5	0.00e+00	0	43	0	3359637504	47	4121
2026-01-09 06:03:28.52	269.21	9.97	-38.7	-39.8	18.5	0.00e+00	0	43	0	3366977536	47	4168
2026-01-09 06:03:29.52	269.08	9.91	-38.6	-39.7	18.5	0.00e+00	0	43	0	3373268992	47	4124
2026-01-09 06:03:30.52	268.95	9.85	-38.6	-39.7	18.5	0.00e+00	0	43	0	3380609024	47	4143
2026-01-09 06:03:31.52	268.82	9.79	-38.7	-39.8	18.4	0.00e+00	0	43	0	3387949056	47	4176
2026-01-09 06:03:32.52	268.69	9.73	-38.6	-39.7	18.5	0.00e+00	0	43	0	3395289088	47	4139
2026-01-09 06:03:33.53	268.56	9.67	-38.5	-39.6	18.6	0.00e+00	0	43	0	3402629120	47	4079
2026-01-09 06:03:34.53	268.43	9.62	-38.6	-39.7	18.5	0.00e+00	0	43	0	3409969152	47	4123
2026-01-09 06:03:35.53	268.30	9.56	-38.7	-39.8	18.4	0.00e+00	0	43	0	3417309184	47	4171
2026-01-09 06:03:36.53	268.17	9.50	-38.6	-39.7	18.5	0.00e+00	0	43	0	3424649216	47	4135
2026-01-09 06:03:37.53	268.05	9.44	-38.6	-39.7	18.5	0.00e+00	0	43	0	3431989248	47	4124
2026-01-09 06:03:38.54	267.92	9.38	-38.5	-39.6	18.6	0.00e+00	0	43	0	3439329280	47	4086
2026-01-09 06:03:39.53	267.80	9.32	-38.6	-39.7	18.5	0.00e+00	0	43	0	3446669312	47	4143
2026-01-09 06:03:40.54	267.67	9.26	-38.6	-39.7	18.5	0.00e+00	0	43	0	3452960768	47	4125
2026-01-09 06:03:41.54	267.54	9.20	-38.8	-39.9	18.3	0.00e+00	0	43	0	3460300800	47	4204
2026-01-09 06:03:42.54	267.42	9.14	-38.6	-39.7	18.5	0.00e+00	0	43	0	3467640832	47	4124
2026-01-09 06:03:43.54	267.30	9.08	-38.8	-39.9	18.3	0.00e+00	0	43	0	3474980864	47	4204
2026-01-09 06:03:44.53	267.17	9.02	-40.0	-41.2	17.4	0.00e+00	0	43	0	3482320896	49	4357
2026-01-09 06:03:45.54	267.05	8.96	-48.8	-59.5	3.8	8.36e-01	0	43	104	3485466624	67	12670
2026-01-09 06:03:46.54	266.93	8.90	-49.0	-59.9	3.8	8.48e-01	0	43	104	3485466624	67	13322
2026-01-09 06:03:47.54	266.81	8.84	-49.2	-60.0	3.8	8.46e-01	0	43	104	3485466624	67	13476
2026-01-09 06:03:48.55	266.68	8.78	-49.3	-60.1	3.8	8.48e-01	0	43	104	3485466624	67	13635
2026-01-09 06:03:49.55	266.56	8.72	-49.5	-60.2	3.8	8.47e-01	0	43	104	3485466624	68	13108
2026-01-09 06:03:50.55	266.44	8.66	-49.5	-60.3	3.8	8.48e-01	0	43	104	3485466624	68	13188
2026-01-09 06:03:51.55	266.32	8.60	-49.6	-60.4	3.8	8.46e-01	0	43	104	3485466624	68	13313
2026-01-09 06:03:52.56	266.20	8.54	-49.6	-60.4	3.8	8.48e-01	0	43	104	3485466624	68	13346
2026-01-09 06:03:53.56	266.09	8.48	-49.6	-60.4	3.8	8.47e-01	0	43	104	3485466624	68	13263
2026-01-09 06:03:54.56	265.97	8.43	-49.6	-60.3	3.8	8.49e-01	0	43	104	3485466624	68	13252
2026-01-09 06:03:55.56	265.85	8.37	-49.6	-60.4	3.8	8.48e-01	0	43	104	3485466624	68	13408
2026-01-09 06:03:56.57	265.73	8.31	-49.6	-60.4	3.8	8.47e-01	0	43	104	3485466624	68	13274
2026-01-09 06:03:57.57	265.61	8.25	-49.6	-60.4	3.8	8.46e-01	0	43	104	3485466624	68	13292
2026-01-09 06:03:58.57	265.50	8.19	-49.6	-60.4	3.8	8.48e-01	0	43	104	3485466624	68	13296
2026-01-09 06:03:59.57	265.38	8.13	-49.6	-60.4	3.8	8.47e-01	0	43	104	3485466624	68	13358
2026-01-09 06:04:00.57	265.27	8.07	-49.7	-60.5	3.8	8.47e-01	0	43	104	3485466624	68	13436
2026-01-09 06:04:01.58	265.15	8.01	-49.6	-60.5	3.8	8.46e-01	0	43	104	3485466624	68	13466
2026-01-09 06:04:02.58	265.04	7.95	-49.6	-60.4	3.8	8.46e-01	0	43	104	3485466624	68	13387
2026-01-09 06:04:03.58	264.92	7.89	-49.7	-60.4	3.8	8.46e-01	0	43	104	3485466624	68	13356
2026-01-09 06:04:04.59	264.81	7.83	-49.7	-60.4	3.8	8.47e-01	0	43	104	3485466624	68	13376
2026-01-09 06:04:05.59	264.70	7.77	-49.7	-60.4	3.8	8.46e-01	0	43	104	3485466624	68	13343
2026-01-09 06:04:06.59	264.58	7.71	-49.7	-60.4	3.8	8.46e-01	0	43	104	3485466624	68	13302
2026-01-09 06:04:07.60	264.47	7.66	-49.6	-60.3	3.8	8.47e-01	0	43	104	3485466624	68	13254
2026-01-09 06:04:08.60	264.36	7.60	-49.5	-60.4	3.8	8.47e-01	0	43	104	3485466624	68	13379
2026-01-09 06:04:09.60	264.25	7.54	-49.5	-60.4	3.8	8.47e-01	0	43	104	3485466624	68	13292
2026-01-09 06:04:10.60	264.14	7.48	-49.5	-60.3	3.8	8.47e-01	0	43	104	3485466624	68	13248
2026-01-09 06:04:11.61	264.03	7.42	-49.5	-60.3	3.8	8.47e-01	0	43	104	3485466624	68	13240
2026-01-09 06:04:12.61	263.92	7.36	-49.5	-60.2	3.8	8.46e-01	0	43	104	3485466624	68	13034
2026-01-09 06:04:13.61	263.81	7.30	-49.5	-60.3	3.8	8.47e-01	0	43	104	3485466624	68	13189
2026-01-09 06:04:14.61	263.70	7.24	-49.4	-60.1	3.8	8.46e-01	0	43	104	3485466624	68	12894
2026-01-09 06:04:15.62	263.59	7.18	-49.4	-60.1	3.8	8.46e-01	0	43	104	3485466624	68	12861
2026-01-09 06:04:16.62	263.48	7.13	-49.5	-60.3	3.8	8.48e-01	0	43	104	3485466624	68	13237
2026-01-09 06:04:17.62	263.37	7.07	-49.5	-60.3	3.8	8.47e-01	0	43	104	3485466624	68	13176
2026-01-09 06:04:18.62	263.27	7.01	-49.5	-60.3	3.8	8.48e-01	0	43	104	3485466624	68	13166
2026-01-09 06:04:19.63	263.16	6.95	-49.4	-60.3	3.8	8.47e-01	0	43	104	3485466624	68	13137
2026-01-09 06:04:20.63	263.05	6.89	-49.3	-60.3	3.8	8.47e-01	0	43	104	3485466624	68	13171
2026-01-09 06:04:21.63	262.95	6.83	-49.3	-60.3	3.8	8.46e-01	0	43	104	3485466624	68	13173
2026-01-09 06:04:22.63	262.84	6.77	-49.2	-60.3	3.8	8.47e-01	0	43	104	3485466624	68	13238
2026-01-09 06:04:23.64	262.74	6.72	-49.2	-60.2	3.8	8.47e-01	0	43	104	3485466624	68	13098
2026-01-09 06:04:24.64	262.63	6.66	-49.2	-60.1	3.8	8.46e-01	0	43	104	3485466624	68	12857
2026-01-09 06:04:25.65	262.53	6.60	-49.2	-60.2	3.8	8.46e-01	0	43	104	3485466624	68	13040
2026-01-09 06:04:26.65	262.42	6.54	-49.2	-60.3	3.8	8.45e-01	0	43	104	3485466624	68	13155
2026-01-09 06:04:27.65	262.32	6.48	-49.3	-60.2	3.8	8.46e-01	0	43	104	3485466624	68	13069
2026-01-09 06:04:28.66	262.22	6.42	-49.3	-60.3	3.8	8.48e-01	0	43	104	3485466624	68	13161
2026-01-09 06:04:29.66	262.11	6.37	-49.3	-60.3	3.8	8.47e-01	0	43	104	3485466624	68	13258
2026-01-09 06:04:30.66	262.01	6.31	-49.3	-60.3	3.8	8.47e-01	0	43	104	3485466624	68	13194
2026-01-09 06:04:31.66	261.91	6.25	-49.3	-60.3	3.8	8.46e-01	0	43	104	3485466624	68	13163
2026-01-09 06:04:32.66	261.81	6.19	-49.4	-60.4	3.8	8.47e-01	0	43	104	3485466624	68	13358
2026-01-09 06:04:33.67	261.71	6.13	-49.3	-60.3	3.8	8.47e-01	0	43	104	3485466624	68	13201
2026-01-09 06:04:34.67	261.61	6.08	-49.3	-60.3	3.8	8.47e-01	0	43	104	3485466624	68	13180
2026-01-09 06:04:35.67	261.51	6.02	-49.3	-60.3	3.8	8.46e-01	0	43	104	3485466624	68	13216
2026-01-09 06:04:36.68	261.41	5.96	-49.3	-60.3	3.8	8.48e-01	0	43	104	3485466624	68	13181
2026-01-09 06:04:37.68	261.31	5.90	-49.3	-60.3	3.8	8.48e-01	0	43	104	3485466624	68	13201
2026-01-09 06:04:38.68	261.21	5.85	-49.3	-60.3	3.8	8.48e-01	0	43	104	3485466624	68	13209
2026-01-09 06:04:39.68	261.11	5.79	-49.3	-60.3	3.8	8.45e-01	0	43	104	3485466624	68	13139
2026-01-09 06:04:40.69	261.01	5.73	-49.3	-60.3	3.8	8.46e-01	0	43	104	3485466624	68	13166
2026-01-09 06:04:41.68	260.92	5.67	-49.3	-60.3	3.8	8.48e-01	0	43	104	3485466624	68	13117
2026-01-09 06:04:42.67	260.82	5.62	-49.3	-60.3	3.8	8.47e-01	0	43	104	3485466624	68	13119
2026-01-09 06:04:43.67	260.72	5.56	-49.3	-60.2	3.8	8.47e-01	0	43	104	3485466624	68	13082
2026-01-09 06:04:44.67	260.63	5.50	-49.2	-60.2	3.8	8.48e-01	0	43	104	3485466624	68	13042
2026-01-09 06:04:45.66	260.53	5.44	-49.2	-60.2	3.8	8.47e-01	0	43	104	3485466624	68	12994
2026-01-09 06:04:46.66	260.44	5.39	-49.2	-60.2	3.8	8.47e-01	0	43	104	3485466624	68	13026
2026-01-09 06:04:47.66	260.34	5.33	-49.3	-60.2	3.8	8.47e-01	0	43	104	3485466624	68	13102
2026-01-09 06:04:48.66	260.25	5.27	-49.2	-60.3	3.8	8.47e-01	0	43	104	3485466624	68	13132
2026-01-09 06:04:49.65	260.15	5.22	-49.3	-60.3	3.8	8.47e-01	0	43	104	3485466624	68	13122
2026-01-09 06:04:50.65	260.06	5.16	-49.2	-60.2	3.8	8.47e-01	0	43	104	3485466624	68	13048
2026-01-09 06:04:51.65	259.97	5.10	-49.2	-60.2	3.8	8.47e-01	0	43	104	3485466624	68	13072
2026-01-09 06:04:52.65	259.87	5.05	-49.2	-60.3	3.8	8.46e-01	0	43	104	3485466624	68	13133
2026-01-09 06:04:53.64	259.78	4.99	-49.3	-60.3	3.8	8.47e-01	0	43	104	3485466624	68	13177

#Closed at: 2026-01-09 06:04:54
#Recorded file [3485 MB]: D:/Data/31040_260109_085443.dat