passes_logs/2026/01/09/T1/T1__20260109_232842_SUOMI_NPP_rec.log

#Pass ID: 20260109_232842_SUOMI NPP
#Satellite: SUOMI NPP
#Configuration: NPP
#almurnet v.1.7.20251203
#Start time: 2026-01-09 23:28:42

#Version: 2.0.20230620
#Station: T1
#Location: 37.570604 lon 55.790049 lat
#TLE: 1 37849U 11061A   26008.83076692  .00000095  00000+0  66074-4 0  9997
#TLE: 2 37849  98.7806 310.9327 0002533  74.3004 285.8451 14.19523607735834

#Time	Az	El	Level	Level2	SNR	BER	BlckErr	Temp	State	Recorded	gain1	gain2
2026-01-09 23:28:42.39	18.35	4.98	-49.9	-66.2	3.8	1.49e+00	0	40	0	0	70	24783
2026-01-09 23:28:43.39	18.37	5.05	-49.9	-66.1	3.8	1.49e+00	0	40	104	0	70	24434
2026-01-09 23:28:44.40	18.39	5.12	-49.9	-66.0	3.8	1.49e+00	0	40	104	0	70	24410
2026-01-09 23:28:45.40	18.41	5.19	-49.9	-66.0	3.8	1.49e+00	0	40	104	0	70	24319
2026-01-09 23:28:46.41	18.43	5.26	-49.9	-65.9	3.8	1.49e+00	0	41	104	0	70	24063
2026-01-09 23:28:47.41	18.45	5.33	-49.9	-65.8	3.8	1.49e+00	0	41	104	0	70	23852
2026-01-09 23:28:48.42	18.47	5.41	-49.9	-65.7	3.8	1.49e+00	0	41	104	0	70	23376
2026-01-09 23:28:49.42	18.49	5.48	-49.9	-65.6	3.8	1.49e+00	0	41	104	0	70	23228
2026-01-09 23:28:50.42	18.51	5.55	-49.9	-65.5	3.8	1.49e+00	0	41	104	0	70	22826
2026-01-09 23:28:51.43	18.53	5.62	-49.9	-65.3	3.8	1.49e+00	0	41	104	0	70	22374
2026-01-09 23:28:52.43	18.55	5.69	-49.9	-65.2	3.8	1.49e+00	0	41	104	0	70	22100
2026-01-09 23:28:53.44	18.57	5.77	-49.9	-65.0	3.8	1.49e+00	0	41	104	0	70	21749
2026-01-09 23:28:54.44	18.59	5.84	-49.8	-65.0	3.8	1.49e+00	0	41	104	0	70	21595
2026-01-09 23:28:55.45	18.61	5.91	-49.8	-64.9	3.8	1.49e+00	0	41	104	0	70	21366
2026-01-09 23:28:56.45	18.63	5.99	-49.8	-64.9	3.8	1.49e+00	0	41	104	0	70	21440
2026-01-09 23:28:57.45	18.65	6.06	-49.9	-65.1	3.8	1.49e+00	0	41	104	0	70	21793
2026-01-09 23:28:58.46	18.67	6.13	-49.9	-65.1	3.8	1.49e+00	0	41	104	0	70	21882
2026-01-09 23:28:59.46	18.69	6.21	-49.9	-65.3	3.8	1.49e+00	0	41	104	0	70	22319
2026-01-09 23:29:00.47	18.71	6.28	-49.9	-65.3	3.8	1.49e+00	0	41	104	0	70	22425
2026-01-09 23:29:01.47	18.73	6.36	-49.9	-65.5	3.8	1.49e+00	0	41	104	0	70	22869
2026-01-09 23:29:02.47	18.75	6.43	-49.9	-65.5	3.8	1.49e+00	0	41	104	0	70	23030
2026-01-09 23:29:03.48	18.78	6.51	-49.9	-65.5	3.8	1.49e+00	0	41	104	0	70	22994
2026-01-09 23:29:04.48	18.80	6.58	-49.9	-65.4	3.8	1.49e+00	0	42	104	0	70	22634
2026-01-09 23:29:05.49	18.82	6.66	-49.8	-65.3	3.8	1.49e+00	0	41	104	0	70	22318
2026-01-09 23:29:06.49	18.84	6.73	-49.8	-65.1	3.8	1.49e+00	0	41	104	0	70	21860
2026-01-09 23:29:07.49	18.86	6.81	-49.9	-64.9	3.8	1.49e+00	0	41	104	0	70	21405
2026-01-09 23:29:08.50	18.88	6.88	-49.8	-64.7	3.8	1.49e+00	0	42	104	0	70	20829
2026-01-09 23:29:09.50	18.90	6.96	-49.8	-64.7	3.8	1.49e+00	0	41	104	0	70	20833
2026-01-09 23:29:10.51	18.93	7.04	-49.8	-64.6	3.8	1.49e+00	0	41	104	0	70	20637
2026-01-09 23:29:11.51	18.95	7.11	-49.8	-64.7	3.8	1.49e+00	0	42	104	0	70	20851
2026-01-09 23:29:12.52	18.97	7.19	-49.8	-64.7	3.8	1.49e+00	0	42	104	0	70	20961
2026-01-09 23:29:13.52	18.99	7.27	-49.8	-64.6	3.8	1.49e+00	0	42	104	0	70	20691
2026-01-09 23:29:14.53	19.01	7.35	-49.8	-64.5	3.8	1.49e+00	0	42	104	0	70	20534
2026-01-09 23:29:15.53	19.04	7.42	-49.8	-64.2	3.8	1.49e+00	0	42	104	0	70	19643
2026-01-09 23:29:16.54	19.06	7.50	-49.8	-63.8	3.8	1.49e+00	0	42	104	0	70	18895
2026-01-09 23:29:17.54	19.08	7.58	-49.7	-63.1	3.9	1.45e+00	0	42	104	0	70	17317
2026-01-09 23:29:18.55	19.10	7.66	-49.7	-62.4	4.3	1.42e+00	0	42	0	0	70	16020
2026-01-09 23:29:19.55	19.13	7.74	-49.7	-61.8	4.4	1.27e+00	0	42	0	0	70	15016
2026-01-09 23:29:20.55	19.15	7.81	-49.6	-61.3	4.6	9.69e-01	0	42	0	2097152	70	14080
2026-01-09 23:29:21.56	19.17	7.89	-49.5	-60.6	4.9	8.49e-01	0	42	0	4194304	70	13066
2026-01-09 23:29:22.56	19.20	7.97	-49.5	-60.5	5.0	6.90e-01	0	42	0	6291456	70	12883
2026-01-09 23:29:23.57	19.22	8.05	-49.5	-60.2	5.2	6.37e-01	0	42	0	8388608	70	12392
2026-01-09 23:29:24.57	19.24	8.13	-49.5	-60.1	5.2	5.79e-01	0	42	0	9437184	70	12351
2026-01-09 23:29:25.57	19.26	8.21	-49.5	-60.1	5.2	5.74e-01	0	42	0	11534336	70	12365
2026-01-09 23:29:26.58	19.29	8.29	-49.4	-59.9	5.4	5.28e-01	0	42	0	13631488	70	12055
2026-01-09 23:29:27.58	19.31	8.37	-49.4	-59.9	5.4	5.25e-01	0	42	0	15728640	70	12023
2026-01-09 23:29:28.59	19.34	8.45	-49.4	-59.9	5.4	5.20e-01	0	42	0	17825792	70	11983
2026-01-09 23:29:29.59	19.36	8.53	-49.4	-59.5	5.6	5.10e-01	0	42	0	18874368	70	11480
2026-01-09 23:29:30.60	19.38	8.62	-49.4	-59.6	5.6	4.26e-01	0	42	0	20971520	70	11613
2026-01-09 23:29:31.60	19.41	8.70	-49.4	-59.5	5.7	4.55e-01	0	42	0	23068672	70	11460
2026-01-09 23:29:32.61	19.43	8.78	-49.4	-59.7	5.5	4.16e-01	0	42	0	25165824	70	11777
2026-01-09 23:29:33.61	19.45	8.86	-49.4	-59.5	5.6	4.67e-01	0	42	0	27262976	70	11472
2026-01-09 23:29:34.61	19.48	8.94	-49.4	-59.8	5.5	4.77e-01	0	42	0	28311552	70	11869
2026-01-09 23:29:35.62	19.50	9.03	-49.5	-60.4	5.1	5.48e-01	0	42	0	30408704	70	12693
2026-01-09 23:29:36.62	19.53	9.11	-49.6	-61.2	4.7	7.72e-01	0	42	0	32505856	70	14000
2026-01-09 23:29:37.62	19.55	9.19	-49.4	-59.4	5.7	9.11e-01	0	42	0	34603008	70	11411
2026-01-09 23:29:38.63	19.58	9.28	-49.6	-61.8	4.5	3.05e-01	0	42	0	36700160	70	14961
2026-01-09 23:29:39.63	19.60	9.36	-49.7	-65.9	3.8	1.46e+00	0	42	104	36700160	70	23982
2026-01-09 23:29:40.97	19.63	9.47	-47.7	-52.7	12.0	2.93e-01	0	42	0	36700160	67	6237
2026-01-09 23:29:41.72	19.65	9.53	-48.6	-55.3	9.5	3.72e-04	0	42	0	37748736	67	8429
2026-01-09 23:29:43.01	19.69	9.64	-49.0	-56.8	8.1	5.42e-02	0	42	0	39845888	68	9453
2026-01-09 23:29:43.73	19.70	9.70	-49.0	-56.7	8.2	5.79e-02	0	42	0	41943040	68	9284
2026-01-09 23:29:45.01	19.74	9.81	-48.9	-56.4	8.4	4.94e-02	0	42	0	44040192	68	9004
2026-01-09 23:29:45.73	19.75	9.87	-48.7	-55.2	9.6	3.94e-02	0	42	0	45088768	68	7894
2026-01-09 23:29:47.02	19.79	9.98	-48.5	-54.7	10.1	3.40e-03	0	42	0	47185920	68	7455
2026-01-09 23:29:47.74	19.81	10.05	-48.1	-53.7	11.3	2.91e-03	0	42	0	49283072	68	6614
2026-01-09 23:29:49.03	19.84	10.16	-47.4	-52.1	12.7	1.90e-04	0	42	0	51380224	66	6200
2026-01-09 23:29:49.74	19.86	10.22	-47.5	-52.3	12.6	9.00e-05	0	42	0	52428800	66	6286
2026-01-09 23:29:51.04	19.89	10.33	-47.3	-52.0	12.8	8.16e-05	0	42	0	55574528	66	6081
2026-01-09 23:29:51.75	19.91	10.39	-47.2	-51.7	13.1	4.73e-05	0	42	0	56623104	66	5896
2026-01-09 23:29:53.27	19.95	10.53	-46.9	-51.2	13.6	6.80e-06	0	42	0	59768832	66	5578
2026-01-09 23:29:53.98	19.97	10.59	-47.0	-51.3	13.5	8.30e-06	0	42	0	60817408	65	5941
2026-01-09 23:29:55.27	20.00	10.70	-46.7	-50.8	14.0	6.80e-06	0	42	0	62914560	65	5620
2026-01-09 23:29:55.99	20.02	10.76	-46.8	-50.8	14.0	3.00e-06	0	43	0	63963136	65	5648
2026-01-09 23:29:57.28	20.06	10.88	-46.7	-50.7	14.2	7.00e-07	0	42	0	67108864	65	5541
2026-01-09 23:29:58.00	20.08	10.94	-46.6	-50.5	14.4	0.00e+00	0	42	0	68157440	65	5415
2026-01-09 23:29:59.29	20.11	11.06	-46.4	-50.1	14.9	0.00e+00	0	42	0	70254592	64	5476
2026-01-09 23:30:00.00	20.13	11.12	-46.3	-49.9	15.0	0.00e+00	0	42	0	72351744	64	5365
2026-01-09 23:30:01.29	20.17	11.24	-46.2	-49.7	15.2	0.00e+00	0	42	0	74448896	64	5258
2026-01-09 23:30:02.07	20.19	11.31	-46.0	-49.4	15.6	0.00e+00	0	43	0	75497472	63	5378
2026-01-09 23:30:03.68	20.23	11.45	-45.8	-49.1	15.9	0.00e+00	0	42	0	78643200	63	5190
2026-01-09 23:30:04.25	20.25	11.51	-45.9	-49.2	15.8	0.00e+00	0	43	0	79691776	63	5255
2026-01-09 23:30:06.03	20.30	11.67	-45.7	-49.0	16.0	0.00e+00	0	43	0	82837504	63	5153
2026-01-09 23:30:06.61	20.31	11.72	-45.7	-49.0	16.0	0.00e+00	0	43	0	84934656	63	5108
2026-01-09 23:30:08.18	20.36	11.87	-45.5	-48.8	16.2	0.00e+00	0	43	0	87031808	63	4994
2026-01-09 23:30:08.78	20.38	11.92	-45.6	-48.9	16.2	0.00e+00	0	43	0	88080384	63	5042
2026-01-09 23:30:10.36	20.42	12.07	-45.5	-48.6	16.4	0.00e+00	0	43	0	91226112	62	5199
2026-01-09 23:30:10.96	20.44	12.12	-45.6	-48.8	16.3	0.00e+00	0	43	0	92274688	62	5283
2026-01-09 23:30:12.54	20.48	12.27	-45.5	-48.8	16.2	0.00e+00	0	43	0	95420416	62	5301
2026-01-09 23:30:13.14	20.50	12.33	-45.5	-48.7	16.3	0.00e+00	0	43	0	96468992	62	5278
2026-01-09 23:30:14.72	20.55	12.48	-45.4	-48.6	16.4	0.00e+00	0	43	0	99614720	62	5207
2026-01-09 23:30:15.44	20.57	12.55	-45.4	-48.5	16.5	0.00e+00	0	43	0	100663296	62	5155
2026-01-09 23:30:16.73	20.61	12.67	-45.4	-48.5	16.5	0.00e+00	0	43	0	103809024	62	5148
2026-01-09 23:30:17.63	20.64	12.75	-45.4	-48.6	16.5	0.00e+00	0	43	0	104857600	62	5187
2026-01-09 23:30:18.97	20.68	12.88	-45.3	-48.4	16.6	0.00e+00	0	43	0	108003328	62	5099
2026-01-09 23:30:19.69	20.70	12.95	-45.3	-48.4	16.6	0.00e+00	0	43	0	109051904	62	5092
2026-01-09 23:30:21.33	20.75	13.11	-45.2	-48.2	16.9	0.00e+00	0	43	0	112197632	62	4943
2026-01-09 23:30:21.90	20.77	13.17	-45.2	-48.3	16.8	0.00e+00	0	43	0	113246208	62	5012
2026-01-09 23:30:23.48	20.81	13.32	-45.3	-48.3	16.7	0.00e+00	0	43	0	116391936	62	5027
2026-01-09 23:30:24.10	20.83	13.38	-45.1	-48.1	17.0	0.00e+00	0	42	0	117440512	62	4883
2026-01-09 23:30:25.68	20.88	13.54	-45.4	-48.4	16.7	0.00e+00	0	43	0	120586240	62	5054
2026-01-09 23:30:26.25	20.90	13.59	-45.3	-48.4	16.7	0.00e+00	0	43	0	121634816	62	5055
2026-01-09 23:30:27.88	20.95	13.76	-45.3	-48.3	16.8	0.00e+00	0	43	0	124780544	62	5016
2026-01-09 23:30:28.45	20.97	13.81	-45.4	-48.4	16.7	0.00e+00	0	43	0	125829120	62	5082
2026-01-09 23:30:30.04	21.02	13.97	-45.5	-48.4	16.7	0.00e+00	0	43	0	127926272	62	5083
2026-01-09 23:30:30.61	21.04	14.03	-45.4	-48.3	16.7	0.00e+00	0	43	0	128974848	62	5034
2026-01-09 23:30:32.19	21.09	14.19	-45.3	-48.2	16.9	0.00e+00	0	43	0	132120576	62	4936
2026-01-09 23:30:32.78	21.11	14.25	-45.4	-48.3	16.8	0.00e+00	0	43	0	133169152	62	5035
2026-01-09 23:30:34.35	21.16	14.41	-45.4	-48.3	16.8	0.00e+00	0	43	0	136314880	62	5012
2026-01-09 23:30:34.93	21.18	14.47	-45.3	-48.2	16.9	0.00e+00	0	43	0	137363456	62	4937
2026-01-09 23:30:36.50	21.23	14.63	-45.5	-48.3	16.8	0.00e+00	0	43	0	140509184	62	5040
2026-01-09 23:30:37.11	21.25	14.69	-45.4	-48.3	16.9	0.00e+00	0	43	0	141557760	62	5001
2026-01-09 23:30:38.78	21.31	14.87	-45.6	-48.4	16.6	0.00e+00	0	43	0	144703488	62	5087
2026-01-09 23:30:39.35	21.33	14.93	-45.6	-48.5	16.7	0.00e+00	0	43	0	145752064	62	5101
2026-01-09 23:30:40.97	21.39	15.10	-45.6	-48.4	16.7	0.00e+00	0	43	0	148897792	62	5089
2026-01-09 23:30:41.55	21.41	15.16	-45.5	-48.4	16.8	0.00e+00	0	43	0	149946368	62	5053
2026-01-09 23:30:43.12	21.46	15.32	-45.5	-48.3	16.8	0.00e+00	0	43	0	153092096	62	5024
2026-01-09 23:30:44.07	21.49	15.43	-45.6	-48.5	16.6	0.00e+00	0	43	0	154140672	62	5138
2026-01-09 23:30:45.49	21.54	15.58	-45.6	-48.4	16.7	0.00e+00	0	43	0	157286400	62	5089
2026-01-09 23:30:46.26	21.57	15.66	-45.6	-48.4	16.7	0.00e+00	0	43	0	158334976	62	5094
2026-01-09 23:30:47.86	21.63	15.83	-45.5	-48.3	16.8	0.00e+00	0	43	0	161480704	62	5023
2026-01-09 23:30:48.45	21.65	15.90	-45.5	-48.4	16.8	0.00e+00	0	43	0	162529280	62	5047
2026-01-09 23:30:50.02	21.71	16.07	-45.6	-48.4	16.7	0.00e+00	0	43	0	165675008	62	5091
2026-01-09 23:30:50.60	21.73	16.13	-45.5	-48.4	16.8	0.00e+00	0	43	0	166723584	62	5049
2026-01-09 23:30:52.20	21.79	16.31	-45.4	-48.3	16.9	0.00e+00	0	43	0	169869312	62	5005
2026-01-09 23:30:52.77	21.81	16.37	-45.5	-48.5	16.6	0.00e+00	0	43	0	170917888	62	5106
2026-01-09 23:30:54.37	21.87	16.55	-45.5	-48.5	16.7	0.00e+00	0	43	0	174063616	62	5108
2026-01-09 23:30:54.94	21.89	16.61	-45.5	-48.4	16.8	0.00e+00	0	43	0	175112192	62	5077
2026-01-09 23:30:56.52	21.95	16.79	-45.7	-48.8	16.4	0.00e+00	0	43	0	178257920	62	5281
2026-01-09 23:30:57.11	21.97	16.86	-45.6	-48.6	16.6	0.00e+00	0	43	0	179306496	62	5183
2026-01-09 23:30:58.69	22.03	17.04	-45.6	-48.6	16.6	0.00e+00	0	43	0	182452224	62	5204
2026-01-09 23:30:59.26	22.05	17.10	-45.7	-48.8	16.4	0.00e+00	0	43	0	183500800	62	5300
2026-01-09 23:31:00.83	22.12	17.28	-45.7	-48.8	16.4	0.00e+00	0	43	0	185597952	62	5286
2026-01-09 23:31:01.46	22.14	17.36	-46.0	-49.0	16.2	0.00e+00	0	43	0	187695104	62	5461
2026-01-09 23:31:02.89	22.20	17.52	-45.8	-48.8	16.4	0.00e+00	0	43	0	189792256	62	5332
2026-01-09 23:31:03.61	22.23	17.61	-45.9	-48.9	16.3	0.00e+00	0	43	0	190840832	62	5399
2026-01-09 23:31:04.90	22.28	17.76	-46.0	-49.0	16.2	0.00e+00	0	43	0	193986560	62	5441
2026-01-09 23:31:05.62	22.31	17.84	-46.1	-49.2	16.0	0.00e+00	0	43	0	195035136	62	5547
2026-01-09 23:31:07.15	22.37	18.02	-46.2	-49.3	15.9	0.00e+00	0	43	0	198180864	63	5308
2026-01-09 23:31:07.86	22.40	18.11	-46.2	-49.3	15.9	0.00e+00	0	43	0	199229440	63	5334
2026-01-09 23:31:09.23	22.45	18.27	-46.2	-49.2	16.0	0.00e+00	0	43	0	201326592	63	5276
2026-01-09 23:31:09.95	22.48	18.36	-46.1	-49.1	16.1	0.00e+00	0	43	0	203423744	63	5218
2026-01-09 23:31:11.29	22.54	18.52	-46.0	-49.1	16.2	0.00e+00	0	43	0	205520896	63	5162
2026-01-09 23:31:12.26	22.58	18.63	-46.2	-49.3	15.9	0.00e+00	0	43	0	207618048	63	5340
2026-01-09 23:31:13.26	22.62	18.76	-46.2	-49.2	16.0	0.00e+00	0	43	0	209715200	63	5267
2026-01-09 23:31:14.27	22.67	18.88	-46.2	-49.2	16.0	0.00e+00	0	43	0	210763776	63	5274
2026-01-09 23:31:15.27	22.71	19.00	-46.2	-49.3	16.0	0.00e+00	0	43	0	212860928	63	5283
2026-01-09 23:31:16.27	22.76	19.13	-46.3	-49.5	15.8	0.00e+00	0	43	0	214958080	63	5435
2026-01-09 23:31:17.28	22.80	19.25	-46.2	-49.3	16.0	0.00e+00	0	43	0	217055232	63	5300
2026-01-09 23:31:18.28	22.84	19.38	-46.3	-49.4	15.9	0.00e+00	0	43	0	219152384	63	5346
2026-01-09 23:31:19.28	22.89	19.50	-46.4	-49.6	15.7	0.00e+00	0	43	0	220200960	63	5488
2026-01-09 23:31:20.37	22.94	19.64	-46.5	-49.6	15.6	0.00e+00	0	43	0	222298112	63	5522
2026-01-09 23:31:21.26	22.98	19.75	-46.5	-49.7	15.6	0.00e+00	0	43	0	224395264	63	5571
2026-01-09 23:31:22.40	23.03	19.90	-46.5	-49.7	15.5	0.00e+00	0	43	0	226492416	64	5229
2026-01-09 23:31:23.26	23.07	20.01	-46.5	-49.7	15.5	0.00e+00	0	43	0	228589568	64	5245
2026-01-09 23:31:24.63	23.13	20.18	-46.4	-49.6	15.6	0.00e+00	0	43	0	230686720	64	5169
2026-01-09 23:31:25.35	23.17	20.28	-46.5	-49.7	15.5	0.00e+00	0	43	0	231735296	64	5256
2026-01-09 23:31:26.64	23.23	20.44	-46.5	-49.6	15.6	0.00e+00	0	43	0	234881024	64	5202
2026-01-09 23:31:27.35	23.26	20.54	-46.4	-49.5	15.7	0.00e+00	0	43	0	235929600	64	5113
2026-01-09 23:31:28.64	23.32	20.71	-46.2	-49.3	15.9	0.00e+00	0	43	0	238026752	64	5021
2026-01-09 23:31:29.36	23.36	20.80	-46.3	-49.4	15.8	0.00e+00	0	43	0	239075328	64	5053
2026-01-09 23:31:30.65	23.42	20.97	-46.1	-49.2	16.0	0.00e+00	0	43	0	242221056	64	4928
2026-01-09 23:31:31.49	23.46	21.08	-46.1	-49.1	16.1	0.00e+00	0	43	0	243269632	64	4925
2026-01-09 23:31:32.64	23.52	21.24	-46.1	-49.2	16.1	0.00e+00	0	43	0	245366784	63	5226
2026-01-09 23:31:33.71	23.57	21.38	-46.1	-49.1	16.2	0.00e+00	0	43	0	247463936	63	5168
2026-01-09 23:31:34.74	23.62	21.52	-46.2	-49.2	16.1	0.00e+00	0	43	0	249561088	63	5246
2026-01-09 23:31:35.74	23.67	21.66	-46.0	-49.0	16.3	0.00e+00	0	43	0	251658240	63	5150
2026-01-09 23:31:36.75	23.72	21.80	-46.2	-49.2	16.1	0.00e+00	0	43	0	253755392	63	5263
2026-01-09 23:31:37.75	23.78	21.94	-46.3	-49.4	15.9	0.00e+00	0	43	0	255852544	63	5351
2026-01-09 23:31:38.75	23.83	22.07	-46.1	-49.1	16.1	0.00e+00	0	43	0	256901120	63	5206
2026-01-09 23:31:39.75	23.88	22.21	-46.3	-49.4	15.9	0.00e+00	0	43	0	258998272	63	5352
2026-01-09 23:31:40.76	23.93	22.36	-46.2	-49.2	16.1	0.00e+00	0	43	0	261095424	63	5222
2026-01-09 23:31:41.76	23.99	22.50	-46.1	-49.0	16.3	0.00e+00	0	43	0	263192576	63	5159
2026-01-09 23:31:42.76	24.04	22.64	-46.1	-49.0	16.3	0.00e+00	0	43	0	264241152	63	5159
2026-01-09 23:31:43.76	24.09	22.78	-46.2	-49.2	16.1	0.00e+00	0	43	0	266338304	63	5259
2026-01-09 23:31:44.76	24.15	22.92	-46.2	-49.2	16.1	0.00e+00	0	43	0	268435456	63	5263
2026-01-09 23:31:45.77	24.20	23.07	-46.2	-49.2	16.2	0.00e+00	0	43	0	270532608	63	5239
2026-01-09 23:31:46.77	24.26	23.21	-46.1	-49.0	16.3	0.00e+00	0	43	0	272629760	63	5148
2026-01-09 23:31:47.95	24.33	23.39	-46.1	-49.0	16.3	0.00e+00	0	43	0	274726912	63	5157
2026-01-09 23:31:48.82	24.37	23.51	-46.0	-48.9	16.4	0.00e+00	0	43	0	275775488	63	5046
2026-01-09 23:31:50.14	24.45	23.71	-46.3	-49.3	16.0	0.00e+00	0	43	0	278921216	63	5319
2026-01-09 23:31:50.86	24.49	23.81	-46.3	-49.4	16.0	0.00e+00	0	43	0	279969792	63	5358
2026-01-09 23:31:52.15	24.57	24.01	-46.3	-49.4	15.9	0.00e+00	0	43	0	282066944	63	5365
2026-01-09 23:31:52.87	24.61	24.11	-46.3	-49.3	16.1	0.00e+00	0	43	0	284164096	63	5322
2026-01-09 23:31:54.16	24.68	24.31	-46.2	-49.3	16.1	0.00e+00	0	43	0	286261248	63	5283
2026-01-09 23:31:54.87	24.73	24.42	-46.6	-49.7	15.6	0.00e+00	0	43	0	287309824	63	5573
2026-01-09 23:31:56.16	24.80	24.61	-46.4	-49.5	15.9	0.00e+00	0	43	0	289406976	63	5455
2026-01-09 23:31:56.88	24.85	24.72	-46.3	-49.4	15.9	0.00e+00	0	43	0	291504128	63	5364
2026-01-09 23:31:58.17	24.93	24.92	-46.2	-49.2	16.2	0.00e+00	0	43	0	293601280	63	5256
2026-01-09 23:31:59.08	24.98	25.06	-46.5	-49.5	15.9	0.00e+00	0	43	0	295698432	63	5460
2026-01-09 23:32:00.08	25.05	25.22	-46.4	-49.4	15.9	0.00e+00	0	43	0	296747008	63	5381
2026-01-09 23:32:01.45	25.13	25.43	-46.3	-49.3	16.1	0.00e+00	0	43	0	299892736	63	5311
2026-01-09 23:32:02.20	25.18	25.55	-46.4	-49.4	16.0	0.00e+00	0	43	0	300941312	63	5369
2026-01-09 23:32:03.49	25.26	25.76	-46.2	-49.1	16.3	0.00e+00	0	43	0	303038464	63	5183
2026-01-09 23:32:04.20	25.31	25.87	-46.1	-49.0	16.4	0.00e+00	0	43	0	305135616	63	5158
2026-01-09 23:32:05.49	25.39	26.08	-46.1	-49.0	16.3	0.00e+00	0	43	0	307232768	63	5154
2026-01-09 23:32:06.21	25.44	26.19	-46.0	-48.9	16.5	0.00e+00	0	43	0	308281344	63	5077
2026-01-09 23:32:07.50	25.53	26.40	-46.0	-48.9	16.3	0.00e+00	0	43	0	311427072	63	5087
2026-01-09 23:32:08.21	25.58	26.52	-45.7	-48.5	16.8	0.00e+00	0	43	0	312475648	63	4865
2026-01-09 23:32:09.52	25.67	26.74	-45.7	-48.5	16.9	0.00e+00	0	43	0	314572800	63	4861
2026-01-09 23:32:10.23	25.71	26.85	-45.7	-48.4	17.0	0.00e+00	0	43	0	316669952	63	4795
2026-01-09 23:32:11.62	25.81	27.08	-45.5	-48.2	17.2	0.00e+00	0	43	0	318767104	62	4953
2026-01-09 23:32:12.34	25.86	27.21	-45.4	-48.1	17.3	0.00e+00	0	43	0	319815680	62	4880
2026-01-09 23:32:13.67	25.96	27.43	-45.2	-47.7	17.6	0.00e+00	0	43	0	322961408	62	4689
2026-01-09 23:32:14.39	26.01	27.55	-45.3	-47.9	17.5	0.00e+00	0	43	0	324009984	62	4777
2026-01-09 23:32:15.74	26.11	27.78	-45.3	-48.0	17.4	0.00e+00	0	43	0	326107136	62	4830
2026-01-09 23:32:16.46	26.16	27.91	-45.1	-47.7	17.7	0.00e+00	0	43	0	328204288	62	4662
2026-01-09 23:32:17.75	26.25	28.13	-45.3	-48.0	17.4	0.00e+00	0	43	0	330301440	62	4830
2026-01-09 23:32:18.46	26.31	28.25	-45.2	-47.8	17.6	0.00e+00	0	43	0	331350016	62	4742
2026-01-09 23:32:19.75	26.41	28.48	-45.4	-48.1	17.2	0.00e+00	0	43	0	334495744	62	4925
2026-01-09 23:32:20.47	26.46	28.60	-45.5	-48.2	17.2	0.00e+00	0	43	0	335544320	62	4969
2026-01-09 23:32:21.76	26.56	28.83	-45.5	-48.2	17.2	0.00e+00	0	43	0	337641472	62	4950
2026-01-09 23:32:22.47	26.62	28.96	-45.5	-48.3	17.1	0.00e+00	0	43	0	338690048	62	5021
2026-01-09 23:32:23.76	26.72	29.19	-45.8	-48.7	16.7	0.00e+00	0	43	0	341835776	62	5267
2026-01-09 23:32:24.48	26.77	29.32	-46.0	-49.1	16.3	0.00e+00	0	43	0	342884352	62	5479
2026-01-09 23:32:25.77	26.88	29.55	-46.0	-49.1	16.4	0.00e+00	0	43	0	344981504	62	5486
2026-01-09 23:32:26.58	26.94	29.70	-46.1	-49.3	16.2	0.00e+00	0	43	0	347078656	63	5319
2026-01-09 23:32:27.72	27.04	29.91	-46.3	-49.6	15.9	0.00e+00	0	43	0	349175808	63	5471
2026-01-09 23:32:28.81	27.13	30.11	-46.5	-49.8	15.6	0.00e+00	0	43	0	351272960	63	5620
2026-01-09 23:32:29.83	27.21	30.30	-46.9	-50.4	15.0	0.00e+00	0	43	0	353370112	64	5686
2026-01-09 23:32:31.01	27.32	30.52	-47.0	-50.5	14.8	0.00e+00	0	43	0	355467264	64	5781
2026-01-09 23:32:31.87	27.39	30.69	-47.1	-50.6	14.8	0.00e+00	0	43	0	356515840	64	5846
2026-01-09 23:32:33.01	27.49	30.90	-47.0	-50.4	15.0	0.00e+00	0	43	0	358612992	65	5367
2026-01-09 23:32:33.87	27.56	31.07	-47.1	-50.5	14.9	0.00e+00	0	43	0	360710144	65	5458
2026-01-09 23:32:35.02	27.67	31.29	-47.2	-50.6	14.8	7.00e-07	0	43	0	362807296	65	5515
2026-01-09 23:32:35.88	27.74	31.46	-47.2	-50.7	14.7	0.00e+00	0	43	0	363855872	65	5544
2026-01-09 23:32:37.03	27.85	31.68	-47.4	-51.0	14.4	1.50e-06	0	43	0	365953024	65	5767
2026-01-09 23:32:37.88	27.93	31.85	-47.4	-50.8	14.7	7.00e-07	0	43	0	368050176	66	5336
2026-01-09 23:32:39.03	28.04	32.07	-47.6	-51.3	14.1	3.00e-06	0	43	0	370147328	66	5627
2026-01-09 23:32:39.89	28.12	32.24	-47.8	-51.6	13.8	2.20e-06	0	43	0	372244480	66	5842
2026-01-09 23:32:41.04	28.23	32.47	-47.7	-51.6	13.8	1.50e-06	0	43	0	374341632	66	5830
2026-01-09 23:32:41.90	28.31	32.65	-47.7	-51.6	13.8	8.30e-06	0	43	0	375390208	66	5797
2026-01-09 23:32:43.12	28.43	32.89	-47.4	-51.1	14.3	0.00e+00	0	43	0	377487360	66	5517
2026-01-09 23:32:43.98	28.52	33.07	-47.5	-51.3	14.2	7.00e-07	0	43	0	379584512	66	5603
2026-01-09 23:32:45.13	28.63	33.30	-47.5	-51.2	14.2	9.10e-06	0	43	0	381681664	66	5542
2026-01-09 23:32:45.98	28.72	33.48	-47.6	-51.3	14.1	2.20e-06	0	43	0	382730240	66	5633
2026-01-09 23:32:47.13	28.84	33.72	-47.7	-51.4	14.0	7.00e-07	0	43	0	385875968	66	5691
2026-01-09 23:32:47.99	28.93	33.90	-47.1	-50.5	14.8	7.00e-07	0	43	0	386924544	66	5156
2026-01-09 23:32:49.14	29.05	34.14	-47.3	-50.8	14.6	0.00e+00	0	43	0	389021696	66	5304
2026-01-09 23:32:50.00	29.14	34.32	-47.2	-50.6	14.8	0.00e+00	0	43	0	391118848	66	5160
2026-01-09 23:32:51.14	29.26	34.56	-47.1	-50.5	14.9	0.00e+00	0	43	0	393216000	65	5421
2026-01-09 23:32:52.00	29.36	34.75	-47.2	-50.6	14.8	7.00e-07	0	43	0	394264576	65	5508
2026-01-09 23:32:53.15	29.48	34.99	-47.4	-50.9	14.5	0.00e+00	0	43	0	396361728	65	5663
2026-01-09 23:32:54.01	29.58	35.18	-47.3	-50.7	14.7	0.00e+00	0	43	0	398458880	65	5555
2026-01-09 23:32:55.16	29.71	35.43	-47.4	-50.8	14.6	7.00e-07	0	43	0	400556032	65	5639
2026-01-09 23:32:56.02	29.81	35.62	-47.7	-51.3	14.1	2.20e-06	0	43	0	401604608	66	5629
2026-01-09 23:32:57.16	29.94	35.87	-47.5	-51.0	14.4	0.00e+00	0	43	0	403701760	66	5431
2026-01-09 23:32:58.02	30.05	36.06	-47.3	-50.6	14.8	0.00e+00	0	43	0	405798912	66	5197
2026-01-09 23:32:59.16	30.18	36.32	-47.6	-51.1	14.3	2.20e-06	0	43	0	407896064	66	5507
2026-01-09 23:33:00.02	30.29	36.51	-47.5	-51.1	14.3	1.50e-06	0	43	0	409993216	66	5476
2026-01-09 23:33:01.17	30.43	36.77	-47.8	-51.5	14.0	1.50e-06	0	43	0	412090368	66	5739
2026-01-09 23:33:02.03	30.54	36.97	-47.5	-51.1	14.4	0.00e+00	0	43	0	413138944	66	5471
2026-01-09 23:33:03.18	30.68	37.24	-48.0	-51.8	13.7	3.00e-06	0	43	0	415236096	66	5969
2026-01-09 23:33:04.03	30.79	37.43	-47.9	-51.7	13.7	6.80e-06	0	43	0	417333248	66	5887
2026-01-09 23:33:05.18	30.94	37.70	-48.2	-52.2	13.1	1.75e-05	0	43	0	419430400	67	5912
2026-01-09 23:33:06.04	31.05	37.90	-48.2	-52.2	13.2	6.17e-05	0	43	0	420478976	67	5923
2026-01-09 23:33:07.19	31.21	38.17	-48.1	-52.1	13.3	1.37e-05	0	43	0	422576128	67	5817
2026-01-09 23:33:08.05	31.32	38.38	-48.2	-52.3	13.1	2.82e-05	0	43	0	424673280	67	5965
2026-01-09 23:33:09.19	31.48	38.65	-47.7	-51.4	14.0	7.60e-06	0	43	0	426770432	67	5393
2026-01-09 23:33:10.05	31.60	38.85	-47.8	-51.6	13.8	5.30e-06	0	43	0	428867584	67	5515
2026-01-09 23:33:11.19	31.76	39.13	-48.1	-52.0	13.3	3.00e-06	0	43	0	430964736	67	5788
2026-01-09 23:33:12.05	31.89	39.34	-48.2	-52.2	13.2	2.21e-05	0	43	0	432013312	67	5905
2026-01-09 23:33:13.20	32.05	39.62	-48.3	-52.4	13.0	4.57e-05	0	43	0	434110464	67	6008
2026-01-09 23:33:14.10	32.19	39.84	-48.5	-52.8	12.7	5.18e-05	0	43	0	436207616	67	6331
2026-01-09 23:33:15.28	32.37	40.14	-48.7	-53.1	12.4	6.12e-04	0	43	0	438304768	69	5799
2026-01-09 23:33:16.14	32.50	40.35	-48.8	-53.2	12.3	1.96e-04	0	43	0	439353344	69	5896
2026-01-09 23:33:17.49	32.71	40.69	-49.0	-53.6	11.9	2.37e-04	0	43	0	442499072	69	6181
2026-01-09 23:33:18.21	32.82	40.87	-48.6	-52.9	12.6	1.73e-04	0	43	0	443547648	69	5692
2026-01-09 23:33:19.50	33.03	41.20	-48.8	-53.3	12.3	1.50e-04	0	43	0	445644800	69	5939
2026-01-09 23:33:20.21	33.14	41.38	-48.5	-52.6	12.9	1.10e-04	0	43	0	447741952	69	5527
2026-01-09 23:33:21.78	33.40	41.79	-48.5	-52.6	13.0	9.30e-05	0	43	0	449839104	68	5840
2026-01-09 23:33:22.49	33.52	41.97	-48.7	-53.2	12.3	4.42e-05	0	43	0	451936256	68	6208
2026-01-09 23:33:23.78	33.74	42.31	-48.7	-53.2	12.3	1.17e-04	0	43	0	454033408	68	6235
2026-01-09 23:33:24.49	33.87	42.49	-48.6	-53.0	12.4	1.33e-04	0	43	0	455081984	68	6130
2026-01-09 23:33:25.78	34.10	42.84	-48.6	-52.9	12.6	2.10e-04	0	43	0	458227712	68	6040
2026-01-09 23:33:26.50	34.22	43.03	-48.2	-52.2	13.3	4.19e-05	0	43	0	459276288	68	5570
2026-01-09 23:33:27.79	34.46	43.37	-47.7	-51.5	13.9	5.30e-06	0	43	0	461373440	67	5441
2026-01-09 23:33:28.50	34.59	43.56	-47.7	-51.5	14.0	1.50e-06	0	43	0	463470592	67	5429
2026-01-09 23:33:29.79	34.84	43.91	-46.9	-50.2	15.2	0.00e+00	0	43	0	465567744	65	5225
2026-01-09 23:33:30.51	34.97	44.11	-46.4	-49.4	16.0	0.00e+00	0	43	0	466616320	64	5092
2026-01-09 23:33:31.80	35.23	44.46	-46.3	-49.3	16.2	0.00e+00	0	43	0	468713472	64	4989
2026-01-09 23:33:32.51	35.37	44.66	-46.3	-49.2	16.2	0.00e+00	0	43	0	470810624	64	4966
2026-01-09 23:33:33.80	35.63	45.02	-46.3	-49.2	16.3	0.00e+00	0	43	0	472907776	64	4947
2026-01-09 23:33:34.52	35.78	45.22	-46.3	-49.2	16.2	0.00e+00	0	43	0	473956352	64	4978
2026-01-09 23:33:35.81	36.05	45.58	-47.0	-50.2	15.3	0.00e+00	0	43	0	477102080	64	5542
2026-01-09 23:33:36.52	36.20	45.78	-46.8	-49.9	15.5	0.00e+00	0	43	0	478150656	64	5379
2026-01-09 23:33:37.81	36.48	46.14	-46.8	-49.9	15.6	0.00e+00	0	43	0	480247808	64	5361
2026-01-09 23:33:38.53	36.63	46.35	-46.9	-50.0	15.4	0.00e+00	0	43	0	481296384	64	5454
2026-01-09 23:33:39.81	36.92	46.72	-47.1	-50.4	15.1	0.00e+00	0	43	0	484442112	65	5355
2026-01-09 23:33:40.53	37.09	46.92	-47.1	-50.3	15.0	0.00e+00	0	43	0	485490688	65	5329
2026-01-09 23:33:41.82	37.39	47.30	-47.3	-50.7	14.7	7.00e-07	0	43	0	487587840	65	5546
2026-01-09 23:33:42.57	37.56	47.51	-47.4	-50.7	14.8	0.00e+00	0	43	0	489684992	65	5586
2026-01-09 23:33:43.86	37.88	47.89	-47.4	-50.8	14.7	0.00e+00	0	43	0	491782144	65	5652
2026-01-09 23:33:44.57	38.05	48.10	-47.5	-51.0	14.6	2.20e-06	0	43	0	492830720	66	5412
2026-01-09 23:33:45.86	38.37	48.48	-46.9	-50.1	15.4	0.00e+00	0	43	0	495976448	65	5169
2026-01-09 23:33:46.58	38.56	48.70	-46.7	-49.7	15.8	0.00e+00	0	43	0	497025024	65	4957
2026-01-09 23:33:47.87	38.89	49.08	-46.1	-49.0	16.4	0.00e+00	0	43	0	499122176	64	4834
2026-01-09 23:33:48.59	39.09	49.30	-46.2	-49.0	16.4	0.00e+00	0	43	0	500170752	64	4848
2026-01-09 23:33:49.88	39.44	49.68	-46.1	-48.9	16.6	0.00e+00	0	43	0	503316480	63	5056
2026-01-09 23:33:50.59	39.63	49.90	-46.1	-48.9	16.6	0.00e+00	0	43	0	504365056	63	5095
2026-01-09 23:33:51.88	40.00	50.29	-45.9	-48.6	16.8	0.00e+00	0	43	0	506462208	63	4921
2026-01-09 23:33:52.60	40.20	50.51	-46.0	-48.8	16.7	0.00e+00	0	43	0	508559360	63	5002
2026-01-09 23:33:53.89	40.58	50.91	-46.3	-49.2	16.3	0.00e+00	0	43	0	510656512	63	5227
2026-01-09 23:33:54.61	40.80	51.13	-46.4	-49.4	16.2	0.00e+00	0	43	0	511705088	63	5344
2026-01-09 23:33:55.90	41.19	51.53	-46.5	-49.4	16.3	0.00e+00	0	43	0	514850816	63	5402
2026-01-09 23:33:56.61	41.41	51.75	-46.1	-48.9	16.6	0.00e+00	0	43	0	515899392	63	5089
2026-01-09 23:33:57.90	41.82	52.15	-45.6	-48.2	17.3	0.00e+00	0	43	0	517996544	63	4696
2026-01-09 23:33:58.62	42.06	52.37	-45.3	-47.8	17.7	0.00e+00	0	43	0	519045120	62	4729
2026-01-09 23:33:59.91	42.48	52.78	-45.2	-47.7	17.7	0.00e+00	0	43	0	522190848	62	4685
2026-01-09 23:34:00.63	42.73	53.00	-45.0	-47.4	18.0	0.00e+00	0	43	0	523239424	61	4806
2026-01-09 23:34:01.92	43.17	53.41	-45.1	-47.6	17.9	0.00e+00	0	43	0	525336576	61	4880
2026-01-09 23:34:02.63	43.43	53.63	-44.9	-47.3	18.1	0.00e+00	0	43	0	527433728	61	4748
2026-01-09 23:34:03.92	43.89	54.04	-44.5	-46.9	18.5	0.00e+00	0	43	0	529530880	61	4502
2026-01-09 23:34:04.64	44.16	54.27	-44.4	-46.8	18.6	0.00e+00	0	43	0	530579456	60	4719
2026-01-09 23:34:05.93	44.65	54.68	-44.4	-46.7	18.7	0.00e+00	0	43	0	532676608	60	4687
2026-01-09 23:34:06.64	44.92	54.91	-44.0	-46.3	19.0	0.00e+00	0	43	0	534773760	60	4453
2026-01-09 23:34:07.93	45.43	55.32	-43.8	-46.0	19.2	0.00e+00	0	43	0	536870912	59	4594
2026-01-09 23:34:08.65	45.72	55.56	-43.8	-46.0	19.2	0.00e+00	0	43	0	537919488	59	4590
2026-01-09 23:34:09.94	46.25	55.97	-44.3	-46.6	18.8	0.00e+00	0	43	0	541065216	59	4894
2026-01-09 23:34:10.65	46.55	56.20	-44.5	-46.9	18.5	0.00e+00	0	43	0	542113792	60	4786
2026-01-09 23:34:11.94	47.11	56.61	-44.4	-46.8	18.7	0.00e+00	0	43	0	544210944	60	4708
2026-01-09 23:34:12.66	47.43	56.85	-44.1	-46.3	19.1	0.00e+00	0	43	0	545259520	60	4457
2026-01-09 23:34:13.95	48.02	57.26	-43.9	-46.0	19.2	0.00e+00	0	43	0	548405248	59	4583
2026-01-09 23:34:14.67	48.35	57.49	-44.0	-46.2	19.0	0.00e+00	0	43	0	549453824	59	4696
2026-01-09 23:34:15.95	48.96	57.91	-44.5	-46.9	18.5	0.00e+00	0	43	0	551550976	60	4787
2026-01-09 23:34:16.67	49.31	58.14	-44.6	-47.0	18.4	0.00e+00	0	43	0	553648128	60	4846
2026-01-09 23:34:18.04	49.99	58.58	-44.2	-46.5	18.9	0.00e+00	0	43	0	555745280	60	4560
2026-01-09 23:34:18.75	50.36	58.81	-43.9	-46.1	19.2	0.00e+00	0	43	0	556793856	59	4620
2026-01-09 23:34:20.04	51.03	59.23	-44.6	-46.9	18.5	0.00e+00	0	43	0	559939584	59	5068
2026-01-09 23:34:20.76	51.42	59.46	-44.8	-47.2	18.4	0.00e+00	0	43	0	560988160	60	4928
2026-01-09 23:34:22.18	52.21	59.91	-45.0	-47.5	18.0	0.00e+00	0	43	0	563085312	60	5109
2026-01-09 23:34:23.17	52.77	60.23	-45.3	-47.9	17.6	0.00e+00	0	43	0	565182464	61	5044
2026-01-09 23:34:24.49	53.54	60.65	-45.5	-48.1	17.5	0.00e+00	0	43	0	568328192	61	5172
2026-01-09 23:34:25.20	53.97	60.88	-45.9	-48.6	17.0	0.00e+00	0	43	0	569376768	62	5174
2026-01-09 23:34:26.49	54.76	61.28	-45.8	-48.5	17.0	0.00e+00	0	43	0	571473920	62	5153
2026-01-09 23:34:27.21	55.21	61.51	-45.7	-48.3	17.2	0.00e+00	0	43	0	573571072	62	5021
2026-01-09 23:34:28.50	56.05	61.92	-44.6	-47.0	18.4	0.00e+00	0	43	0	575668224	61	4547
2026-01-09 23:34:29.22	56.53	62.14	-44.6	-46.9	18.5	0.00e+00	0	43	0	576716800	60	4810
2026-01-09 23:34:30.51	57.41	62.54	-44.4	-46.7	18.7	0.00e+00	0	43	0	578813952	60	4676
2026-01-09 23:34:31.22	57.90	62.76	-44.7	-47.1	18.4	0.00e+00	0	43	0	580911104	60	4888
2026-01-09 23:34:32.51	58.83	63.15	-45.2	-47.8	17.8	0.00e+00	0	43	0	583008256	61	4984
2026-01-09 23:34:33.23	59.36	63.37	-44.9	-47.3	18.1	0.00e+00	0	43	0	584056832	61	4757
2026-01-09 23:34:34.58	60.37	63.78	-44.3	-46.6	18.8	0.00e+00	0	43	0	587202560	60	4611
2026-01-09 23:34:35.30	60.93	63.99	-44.0	-46.2	19.1	0.00e+00	0	43	0	588251136	59	4671
2026-01-09 23:34:36.59	61.96	64.37	-43.8	-45.9	19.4	0.00e+00	0	43	0	590348288	59	4544
2026-01-09 23:34:37.30	62.54	64.58	-44.1	-46.3	19.1	0.00e+00	0	43	0	592445440	59	4751
2026-01-09 23:34:38.59	63.62	64.95	-44.1	-46.3	19.0	0.00e+00	0	43	0	594542592	59	4747
2026-01-09 23:34:39.31	64.23	65.15	-44.1	-46.4	18.9	0.00e+00	0	43	0	595591168	59	4763
2026-01-09 23:34:40.79	65.54	65.56	-44.8	-47.2	18.3	0.00e+00	0	43	0	598736896	60	4939
2026-01-09 23:34:41.51	66.19	65.76	-44.8	-47.2	18.4	0.00e+00	0	43	0	599785472	60	4943
2026-01-09 23:34:42.80	67.39	66.11	-44.9	-47.3	18.2	0.00e+00	0	43	0	601882624	60	5027
2026-01-09 23:34:43.51	68.07	66.30	-45.4	-48.1	17.4	0.00e+00	0	43	0	603979776	61	5181
2026-01-09 23:34:44.80	69.32	66.63	-46.2	-49.2	16.6	0.00e+00	0	43	0	606076928	63	5229
2026-01-09 23:34:45.52	70.04	66.82	-46.2	-49.1	16.5	0.00e+00	0	43	0	607125504	63	5165
2026-01-09 23:34:46.81	71.37	67.14	-47.1	-50.4	15.2	0.00e+00	0	43	0	610271232	64	5672
2026-01-09 23:34:47.52	72.11	67.31	-47.4	-50.8	14.7	7.00e-07	0	43	0	611319808	65	5615
2026-01-09 23:34:48.81	73.49	67.61	-46.3	-49.1	16.4	0.00e+00	0	43	0	613416960	64	4913
2026-01-09 23:34:49.56	74.32	67.78	-46.2	-49.1	16.4	0.00e+00	0	43	0	614465536	64	4882
2026-01-09 23:34:50.85	75.76	68.07	-47.3	-50.7	14.8	0.00e+00	0	43	0	617611264	65	5567
2026-01-09 23:34:51.57	76.59	68.22	-47.9	-51.6	14.0	1.50e-06	0	43	0	618659840	66	5854
2026-01-09 23:34:52.86	78.10	68.49	-48.4	-52.5	13.2	1.90e-05	0	43	0	620756992	67	6075
2026-01-09 23:34:53.70	79.10	68.66	-48.3	-52.5	13.1	1.22e-05	0	43	0	622854144	67	6084
2026-01-09 23:34:54.85	80.51	68.88	-48.1	-52.0	13.6	2.13e-05	0	43	0	624951296	67	5745
2026-01-09 23:34:55.71	81.58	69.03	-47.8	-51.4	14.1	1.50e-06	0	43	0	625999872	67	5400
2026-01-09 23:34:56.86	83.03	69.23	-48.0	-51.9	13.8	1.22e-05	0	43	0	629145600	67	5670
2026-01-09 23:34:57.71	84.13	69.37	-47.6	-51.2	14.3	6.80e-06	0	43	0	630194176	67	5238
2026-01-09 23:34:58.86	85.64	69.55	-46.7	-49.9	15.6	0.00e+00	0	43	0	632291328	65	5068
2026-01-09 23:34:59.72	86.78	69.67	-47.0	-50.4	15.1	0.00e+00	0	43	0	634388480	65	5359
2026-01-09 23:35:00.90	88.38	69.83	-47.3	-50.8	14.7	0.00e+00	0	43	0	636485632	65	5645
2026-01-09 23:35:01.76	89.55	69.93	-47.0	-50.2	15.3	0.00e+00	0	43	0	637534208	65	5274
2026-01-09 23:35:02.91	91.15	70.06	-46.8	-49.8	15.7	0.00e+00	0	43	0	639631360	65	5031
2026-01-09 23:35:03.77	92.36	70.15	-46.1	-49.0	16.6	0.00e+00	0	43	0	641728512	64	4840
2026-01-09 23:35:05.04	94.16	70.26	-45.5	-48.2	17.3	0.00e+00	0	43	0	643825664	63	4686
2026-01-09 23:35:05.76	95.19	70.32	-45.4	-48.0	17.5	0.00e+00	0	43	0	644874240	62	4850
2026-01-09 23:35:07.05	97.05	70.41	-45.7	-48.4	17.2	0.00e+00	0	43	0	648019968	62	5052
2026-01-09 23:35:07.78	98.11	70.45	-46.0	-48.7	16.8	0.00e+00	0	43	0	649068544	62	5266
2026-01-09 23:35:09.07	100.00	70.50	-46.5	-49.5	16.0	0.00e+00	0	43	0	651165696	64	5132
2026-01-09 23:35:09.79	101.05	70.53	-46.2	-49.1	16.4	0.00e+00	0	43	0	653262848	64	4872
2026-01-09 23:35:11.07	102.93	70.55	-46.1	-48.9	16.7	0.00e+00	0	43	0	655360000	63	5081
2026-01-09 23:35:11.87	104.11	70.56	-46.7	-49.9	15.7	0.00e+00	0	43	0	656408576	64	5399
2026-01-09 23:35:13.01	105.79	70.55	-47.2	-50.5	14.9	7.00e-07	0	43	0	658505728	65	5440
2026-01-09 23:35:13.87	107.06	70.54	-46.6	-49.6	15.9	0.00e+00	0	43	0	660602880	65	4880
2026-01-09 23:35:15.02	108.75	70.50	-46.4	-49.3	16.2	0.00e+00	0	43	0	662700032	64	5012
2026-01-09 23:35:15.88	110.00	70.47	-47.0	-50.2	15.3	0.00e+00	0	43	0	664797184	64	5531
2026-01-09 23:35:17.03	111.68	70.41	-47.4	-50.8	14.7	0.00e+00	0	43	0	666894336	65	5631
2026-01-09 23:35:17.89	112.92	70.35	-48.0	-51.7	13.9	3.80e-06	0	43	0	667942912	66	5892
2026-01-09 23:35:19.05	114.59	70.26	-49.0	-53.7	12.0	1.38e-04	0	43	0	670040064	68	6591
2026-01-09 23:35:19.91	115.81	70.19	-49.5	-54.8	10.8	1.04e-03	0	43	0	672137216	69	7068
2026-01-09 23:35:21.12	117.51	70.07	-49.1	-53.7	11.9	9.31e-04	0	43	0	674234368	69	6237
2026-01-09 23:35:21.97	118.69	69.98	-48.8	-53.1	12.6	1.75e-04	0	43	0	675282944	69	5805
2026-01-09 23:35:23.12	120.28	69.84	-49.4	-54.3	11.2	2.32e-04	0	43	0	677380096	69	6712
2026-01-09 23:35:23.98	121.44	69.72	-49.3	-54.1	11.5	1.34e-03	0	43	0	679477248	69	6546
2026-01-09 23:35:25.13	122.98	69.56	-47.7	-51.3	14.2	3.00e-06	0	43	0	681574400	67	5324
2026-01-09 23:35:25.99	124.11	69.43	-47.2	-50.4	15.2	0.00e+00	0	43	0	683671552	66	5073
2026-01-09 23:35:27.13	125.59	69.25	-49.1	-53.7	12.2	1.14e-05	0	43	0	685768704	68	6602
2026-01-09 23:35:28.11	126.83	69.08	-48.2	-52.0	13.7	2.74e-05	0	43	0	686817280	68	5439
2026-01-09 23:35:29.28	128.29	68.87	-47.1	-50.3	15.3	0.00e+00	0	43	0	688914432	66	5002
2026-01-09 23:35:30.14	129.35	68.71	-47.1	-50.2	15.4	0.00e+00	0	43	0	691011584	65	5247
2026-01-09 23:35:31.50	130.98	68.44	-47.1	-50.3	15.2	0.00e+00	0	43	0	693108736	65	5324
2026-01-09 23:35:32.22	131.82	68.29	-47.4	-50.7	14.9	0.00e+00	0	43	0	695205888	65	5530
2026-01-09 23:35:33.51	133.30	68.01	-47.5	-50.9	14.6	0.00e+00	0	43	0	697303040	66	5397
2026-01-09 23:35:34.22	134.10	67.85	-48.0	-51.7	13.9	1.50e-06	0	43	0	698351616	66	5890
2026-01-09 23:35:35.51	135.52	67.56	-48.0	-51.8	13.7	6.80e-06	0	43	0	701497344	67	5597
2026-01-09 23:35:36.23	136.29	67.39	-46.9	-50.0	15.6	7.00e-07	0	43	0	702545920	65	5136
2026-01-09 23:35:37.52	137.65	67.07	-44.8	-47.2	18.3	0.00e+00	0	43	0	704643072	61	4687
2026-01-09 23:35:38.24	138.38	66.89	-44.4	-46.7	18.7	0.00e+00	0	43	0	705691648	60	4703
2026-01-09 23:35:39.53	139.68	66.57	-45.9	-48.6	17.0	0.00e+00	0	43	0	708837376	62	5207
2026-01-09 23:35:40.25	140.38	66.38	-46.4	-49.4	16.2	0.00e+00	0	43	0	709885952	63	5372
2026-01-09 23:35:41.55	141.62	66.03	-45.2	-47.7	17.8	0.00e+00	0	43	0	711983104	62	4672
2026-01-09 23:35:42.27	142.29	65.84	-44.3	-46.6	18.8	0.00e+00	0	43	0	714080256	60	4613
2026-01-09 23:35:43.56	143.46	65.49	-43.8	-45.9	19.5	0.00e+00	0	44	0	716177408	59	4532
2026-01-09 23:35:44.28	144.10	65.28	-43.7	-45.8	19.5	0.00e+00	0	43	0	717225984	59	4484
2026-01-09 23:35:45.57	145.21	64.92	-43.0	-45.1	20.1	0.00e+00	0	43	0	720371712	58	4369
2026-01-09 23:35:46.29	145.82	64.71	-43.5	-45.7	19.6	0.00e+00	0	43	0	721420288	58	4665
2026-01-09 23:35:47.57	146.87	64.34	-44.3	-46.7	18.8	0.00e+00	0	43	0	723517440	59	4927
2026-01-09 23:35:48.29	147.45	64.13	-44.8	-47.2	18.3	0.00e+00	0	43	0	724566016	60	4976
2026-01-09 23:35:49.58	148.45	63.74	-44.5	-46.9	18.6	0.00e+00	0	43	0	727711744	60	4793
2026-01-09 23:35:50.30	149.00	63.53	-44.0	-46.2	19.1	0.00e+00	0	43	0	728760320	59	4692
2026-01-09 23:35:51.59	149.96	63.14	-43.2	-45.3	19.9	0.00e+00	0	43	0	730857472	58	4486
2026-01-09 23:35:52.30	150.47	62.92	-43.2	-45.3	19.9	0.00e+00	0	43	0	732954624	58	4482
2026-01-09 23:35:53.59	151.38	62.52	-44.0	-46.3	19.1	0.00e+00	0	43	0	735051776	58	5010
2026-01-09 23:35:54.49	151.99	62.24	-43.8	-46.0	19.3	0.00e+00	0	43	0	737148928	59	4576
2026-01-09 23:35:55.52	152.68	61.92	-43.0	-45.0	20.2	0.00e+00	0	43	0	738197504	58	4317
2026-01-09 23:35:56.52	153.33	61.61	-42.6	-44.6	20.6	0.00e+00	0	43	0	740294656	57	4356
2026-01-09 23:35:57.52	153.97	61.29	-42.9	-44.9	20.2	0.00e+00	0	43	0	742391808	57	4542
2026-01-09 23:35:58.52	154.59	60.98	-43.2	-45.3	20.0	0.00e+00	0	43	0	744488960	57	4713
2026-01-09 23:35:59.53	155.20	60.65	-44.0	-46.3	19.0	0.00e+00	0	43	0	746586112	58	5000
2026-01-09 23:36:00.53	155.79	60.33	-43.9	-46.1	19.1	0.00e+00	0	43	0	747634688	59	4637
2026-01-09 23:36:01.53	156.36	60.01	-42.8	-44.8	20.4	0.00e+00	0	43	0	749731840	57	4463
2026-01-09 23:36:02.53	156.92	59.69	-42.9	-45.0	20.2	0.00e+00	0	43	0	751828992	57	4560
2026-01-09 23:36:03.54	157.47	59.37	-43.7	-45.9	19.4	0.00e+00	0	43	0	753926144	58	4782
2026-01-09 23:36:04.54	158.01	59.05	-43.8	-45.9	19.3	0.00e+00	0	43	0	756023296	58	4797
2026-01-09 23:36:05.55	158.53	58.72	-44.2	-46.5	18.8	0.00e+00	0	43	0	757071872	59	4832
2026-01-09 23:36:06.55	159.04	58.40	-44.8	-47.2	18.3	0.00e+00	0	43	0	759169024	60	4983
2026-01-09 23:36:07.55	159.54	58.07	-44.7	-47.1	18.2	0.00e+00	0	43	0	761266176	60	4882
2026-01-09 23:36:08.55	160.02	57.75	-44.1	-46.3	19.0	0.00e+00	0	43	0	763363328	60	4486
2026-01-09 23:36:09.56	160.50	57.42	-44.5	-46.9	18.7	0.00e+00	0	43	0	765460480	60	4764
2026-01-09 23:36:10.56	160.96	57.10	-45.5	-48.1	17.5	0.00e+00	0	43	0	766509056	61	5175
2026-01-09 23:36:11.56	161.41	56.77	-46.0	-48.7	16.8	0.00e+00	0	43	0	768606208	62	5279
2026-01-09 23:36:12.57	161.86	56.45	-44.3	-46.7	18.7	0.00e+00	0	43	0	770703360	60	4654
2026-01-09 23:36:13.57	162.29	56.12	-43.1	-45.1	20.1	0.00e+00	0	43	0	772800512	58	4361
2026-01-09 23:36:14.57	162.71	55.80	-43.5	-45.6	19.7	0.00e+00	0	43	0	773849088	58	4631
2026-01-09 23:36:15.58	163.12	55.48	-44.2	-46.5	18.8	0.00e+00	0	43	0	775946240	59	4846
2026-01-09 23:36:16.58	163.53	55.15	-44.5	-46.9	18.5	0.00e+00	0	43	0	778043392	60	4778
2026-01-09 23:36:17.58	163.92	54.83	-43.9	-46.2	19.1	0.00e+00	0	43	0	780140544	59	4663
2026-01-09 23:36:18.58	164.30	54.51	-43.1	-45.2	20.0	0.00e+00	0	43	0	782237696	58	4432
2026-01-09 23:36:19.58	164.68	54.19	-43.5	-45.7	19.6	0.00e+00	0	43	0	783286272	58	4670
2026-01-09 23:36:20.58	165.05	53.87	-44.3	-46.6	18.7	0.00e+00	0	43	0	785383424	59	4921
2026-01-09 23:36:21.59	165.41	53.55	-44.8	-47.2	18.3	0.00e+00	0	43	0	787480576	60	4968
2026-01-09 23:36:22.77	165.82	53.18	-44.9	-47.3	18.2	0.00e+00	0	43	0	789577728	60	5012
2026-01-09 23:36:23.66	166.13	52.90	-45.1	-47.6	18.0	0.00e+00	0	43	0	791674880	61	4882
2026-01-09 23:36:24.80	166.51	52.54	-44.7	-47.1	18.3	0.00e+00	0	43	0	793772032	61	4620
2026-01-09 23:36:25.72	166.82	52.25	-44.2	-46.4	18.9	0.00e+00	0	43	0	794820608	60	4537
2026-01-09 23:36:26.90	167.20	51.88	-43.5	-45.6	19.6	0.00e+00	0	43	0	797966336	59	4389
2026-01-09 23:36:27.81	167.48	51.59	-43.4	-45.5	19.8	0.00e+00	0	43	0	799014912	58	4556
2026-01-09 23:36:29.03	167.86	51.22	-44.5	-46.8	18.5	0.00e+00	0	43	0	801112064	59	5018
2026-01-09 23:36:29.89	168.12	50.95	-45.2	-47.7	17.8	0.00e+00	0	43	0	803209216	60	5247
2026-01-09 23:36:31.04	168.46	50.60	-45.7	-48.4	17.1	0.00e+00	0	43	0	805306368	62	5064
2026-01-09 23:36:31.89	168.70	50.33	-45.3	-47.8	17.7	0.00e+00	0	43	0	806354944	62	4744
2026-01-09 23:36:33.04	169.03	49.98	-44.4	-46.8	18.6	0.00e+00	0	43	0	808452096	61	4455
2026-01-09 23:36:33.90	169.27	49.72	-44.5	-46.8	18.6	0.00e+00	0	43	0	810549248	60	4745
2026-01-09 23:36:35.04	169.58	49.38	-45.2	-47.8	17.7	0.00e+00	0	43	0	812646400	61	4987
2026-01-09 23:36:35.90	169.81	49.12	-46.4	-49.3	16.2	0.00e+00	0	43	0	814743552	63	5323
2026-01-09 23:36:37.05	170.11	48.77	-46.9	-50.1	15.4	0.00e+00	0	43	0	816840704	64	5514
2026-01-09 23:36:37.91	170.33	48.52	-47.2	-50.4	15.1	0.00e+00	0	43	0	817889280	64	5708
2026-01-09 23:36:39.05	170.62	48.18	-47.4	-50.9	14.6	7.00e-07	0	43	0	819986432	65	5659
2026-01-09 23:36:39.91	170.84	47.92	-47.7	-51.2	14.3	0.00e+00	0	43	0	822083584	66	5586
2026-01-09 23:36:41.06	171.11	47.58	-47.3	-50.7	14.7	0.00e+00	0	43	0	824180736	66	5251
2026-01-09 23:36:41.92	171.32	47.33	-47.8	-51.5	14.0	3.80e-06	0	43	0	825229312	66	5727
2026-01-09 23:36:43.15	171.61	46.97	-47.5	-50.9	14.6	1.50e-06	0	43	0	828375040	66	5367
2026-01-09 23:36:44.00	171.80	46.73	-46.8	-49.9	15.6	0.00e+00	0	43	0	829423616	65	5073
2026-01-09 23:36:45.15	172.06	46.40	-46.3	-49.2	16.3	0.00e+00	0	43	0	831520768	64	4939
2026-01-09 23:36:46.01	172.25	46.15	-46.6	-49.7	15.8	0.00e+00	0	43	0	833617920	64	5229
2026-01-09 23:36:47.15	172.50	45.83	-47.5	-50.9	14.5	0.00e+00	0	43	0	835715072	65	5718
2026-01-09 23:36:48.03	172.69	45.58	-47.7	-51.3	14.1	6.80e-06	0	43	0	836763648	66	5654
2026-01-09 23:36:49.18	172.93	45.25	-47.2	-50.6	14.7	0.00e+00	0	43	0	838860800	66	5213
2026-01-09 23:36:50.12	173.13	44.99	-46.6	-49.8	15.5	0.00e+00	0	43	0	840957952	65	4992
2026-01-09 23:36:51.30	173.37	44.66	-46.3	-49.3	16.2	0.00e+00	0	43	0	843055104	64	4996
2026-01-09 23:36:52.16	173.54	44.42	-46.4	-49.4	16.1	0.00e+00	0	43	0	845152256	64	5048
2026-01-09 23:36:53.51	173.80	44.05	-47.0	-50.2	15.3	0.00e+00	0	43	0	847249408	64	5580
2026-01-09 23:36:54.23	173.94	43.85	-46.9	-50.1	15.4	0.00e+00	0	43	0	848297984	64	5466
2026-01-09 23:36:55.52	174.18	43.50	-47.3	-50.6	14.9	0.00e+00	0	43	0	851443712	65	5523
2026-01-09 23:36:56.23	174.31	43.31	-47.7	-51.3	14.2	0.00e+00	0	43	0	852492288	66	5651
2026-01-09 23:36:57.52	174.55	42.96	-47.6	-51.2	14.2	3.80e-06	0	43	0	854589440	66	5585
2026-01-09 23:36:58.29	174.69	42.76	-47.2	-50.5	14.9	7.00e-07	0	43	0	856686592	66	5148
2026-01-09 23:36:59.58	174.92	42.42	-46.6	-49.6	15.8	0.00e+00	0	43	0	858783744	64	5182
2026-01-09 23:37:00.29	175.04	42.23	-46.2	-49.0	16.4	0.00e+00	0	43	0	859832320	64	4854
2026-01-09 23:37:01.59	175.26	41.89	-44.6	-46.9	18.4	0.00e+00	0	43	0	862978048	61	4545
2026-01-09 23:37:02.30	175.38	41.70	-44.6	-46.9	18.5	0.00e+00	0	43	0	864026624	60	4790
2026-01-09 23:37:03.59	175.60	41.37	-44.7	-47.1	18.3	0.00e+00	0	43	0	866123776	60	4909
2026-01-09 23:37:04.31	175.71	41.18	-45.0	-47.5	18.0	0.00e+00	0	43	0	867172352	60	5127
2026-01-09 23:37:05.60	175.92	40.85	-45.9	-48.7	16.8	0.00e+00	0	43	0	870318080	62	5219
2026-01-09 23:37:06.32	176.04	40.67	-46.5	-49.5	16.0	0.00e+00	0	43	0	871366656	63	5427
2026-01-09 23:37:07.61	176.24	40.34	-46.1	-49.0	16.5	0.00e+00	0	43	0	873463808	63	5122
2026-01-09 23:37:08.71	176.40	40.07	-45.5	-48.2	17.2	0.00e+00	0	43	0	875560960	63	4695
2026-01-09 23:37:09.57	176.53	39.85	-45.4	-48.0	17.5	0.00e+00	0	43	0	877658112	62	4820
2026-01-09 23:37:10.71	176.70	39.57	-44.6	-47.0	18.3	0.00e+00	0	43	0	879755264	61	4586
2026-01-09 23:37:11.57	176.83	39.36	-44.6	-47.0	18.4	0.00e+00	0	43	0	880803840	61	4560
2026-01-09 23:37:12.72	177.00	39.08	-44.9	-47.4	18.0	0.00e+00	0	43	0	882900992	61	4813
2026-01-09 23:37:13.58	177.12	38.87	-45.6	-48.3	17.1	0.00e+00	0	43	0	884998144	61	5305
2026-01-09 23:37:14.72	177.28	38.59	-46.4	-49.4	16.0	0.00e+00	0	43	0	887095296	63	5377
2026-01-09 23:37:15.63	177.40	38.37	-46.8	-50.0	15.5	0.00e+00	0	43	0	889192448	64	5419
2026-01-09 23:37:16.63	177.54	38.14	-47.2	-50.7	14.7	7.00e-07	0	43	0	890241024	65	5563
2026-01-09 23:37:17.86	177.70	37.84	-46.8	-50.0	15.3	0.00e+00	0	43	0	893386752	65	5156
2026-01-09 23:37:18.75	177.82	37.63	-46.4	-49.5	15.9	0.00e+00	0	44	0	894435328	64	5132
2026-01-09 23:37:19.89	177.97	37.37	-45.7	-48.5	16.9	0.00e+00	0	43	0	896532480	63	4854
2026-01-09 23:37:20.82	178.09	37.15	-45.7	-48.5	16.9	0.00e+00	0	44	0	898629632	62	5107
2026-01-09 23:37:22.00	178.24	36.88	-45.6	-48.3	17.1	0.00e+00	0	43	0	900726784	62	5018
2026-01-09 23:37:22.85	178.34	36.68	-45.4	-48.0	17.4	0.00e+00	0	43	0	902823936	62	4862
2026-01-09 23:37:24.00	178.49	36.42	-45.5	-48.2	17.2	0.00e+00	0	43	0	904921088	62	4971
2026-01-09 23:37:24.86	178.59	36.23	-45.6	-48.3	17.1	0.00e+00	0	43	0	905969664	62	5015
2026-01-09 23:37:26.01	178.73	35.97	-45.8	-48.6	16.9	0.00e+00	0	44	0	908066816	62	5178
2026-01-09 23:37:26.87	178.83	35.78	-45.7	-48.4	17.1	0.00e+00	0	43	0	910163968	62	5059
2026-01-09 23:37:28.02	178.96	35.52	-45.8	-48.4	17.0	0.00e+00	0	43	0	912261120	62	5100
2026-01-09 23:37:28.87	179.06	35.33	-45.9	-48.7	16.8	0.00e+00	0	43	0	913309696	62	5236
2026-01-09 23:37:30.02	179.19	35.08	-46.3	-49.2	16.2	0.00e+00	0	43	0	915406848	63	5236
2026-01-09 23:37:30.88	179.29	34.89	-47.0	-50.3	15.1	0.00e+00	0	43	0	917504000	64	5645
2026-01-09 23:37:32.03	179.42	34.65	-47.5	-51.0	14.4	0.00e+00	0	43	0	919601152	65	5761
2026-01-09 23:37:32.89	179.51	34.46	-47.9	-51.7	13.7	1.50e-06	0	43	0	920649728	66	5907
2026-01-09 23:37:34.05	179.63	34.21	-48.6	-52.8	12.7	1.25e-04	0	44	0	923795456	68	5971
2026-01-09 23:37:34.90	179.73	34.03	-48.8	-53.3	12.2	2.40e-04	0	43	0	924844032	68	6325
2026-01-09 23:37:36.05	179.85	33.79	-48.5	-52.7	12.8	1.43e-04	0	43	0	926941184	68	5878
2026-01-09 23:37:36.91	179.94	33.61	-48.2	-52.0	13.4	3.43e-05	0	43	0	929038336	68	5464
2026-01-09 23:37:38.06	180.05	33.37	-47.5	-51.0	14.4	2.20e-06	0	43	0	931135488	66	5425
2026-01-09 23:37:38.92	180.14	33.19	-46.7	-49.9	15.5	0.00e+00	0	43	0	932184064	65	5052
2026-01-09 23:37:40.07	180.26	32.96	-46.5	-49.6	15.7	0.00e+00	0	43	0	934281216	65	4880
2026-01-09 23:37:40.92	180.34	32.78	-46.2	-49.0	16.3	0.00e+00	0	43	0	936378368	64	4866
2026-01-09 23:37:42.07	180.45	32.55	-46.1	-48.9	16.5	0.00e+00	0	43	0	938475520	63	5065
2026-01-09 23:37:42.93	180.53	32.37	-46.1	-48.9	16.5	0.00e+00	0	43	0	939524096	63	5074
2026-01-09 23:37:44.07	180.64	32.15	-46.0	-48.8	16.6	0.00e+00	0	43	0	942669824	63	5004
2026-01-09 23:37:44.93	180.72	31.97	-46.2	-49.1	16.3	0.00e+00	0	43	0	943718400	63	5192
2026-01-09 23:37:46.08	180.83	31.75	-46.5	-49.5	16.0	0.00e+00	0	43	0	945815552	63	5447
2026-01-09 23:37:46.94	180.91	31.58	-46.7	-49.8	15.6	0.00e+00	0	43	0	947912704	64	5298
2026-01-09 23:37:48.10	181.02	31.35	-47.1	-50.5	14.9	0.00e+00	0	43	0	950009856	64	5739
2026-01-09 23:37:48.96	181.09	31.18	-47.8	-51.5	13.9	0.00e+00	0	43	0	951058432	66	5780
2026-01-09 23:37:50.11	181.20	30.96	-47.8	-51.4	13.9	8.30e-06	0	43	0	953155584	66	5712
2026-01-09 23:37:50.97	181.27	30.80	-47.7	-51.4	14.0	3.00e-06	0	44	0	955252736	66	5673
2026-01-09 23:37:52.11	181.37	30.58	-48.1	-52.1	13.3	1.60e-05	0	43	0	957349888	66	6157
2026-01-09 23:37:53.04	181.45	30.40	-47.5	-51.1	14.2	6.80e-06	0	43	0	959447040	66	5520
2026-01-09 23:37:54.04	181.54	30.22	-47.3	-51.0	14.4	3.00e-06	0	43	0	960495616	66	5410
2026-01-09 23:37:55.05	181.62	30.03	-47.4	-51.0	14.4	1.50e-06	0	43	0	962592768	66	5420
2026-01-09 23:37:56.05	181.70	29.84	-47.0	-50.4	15.0	0.00e+00	0	43	0	964689920	66	5067
2026-01-09 23:37:57.05	181.79	29.66	-47.1	-50.5	14.8	7.00e-07	0	43	0	966787072	65	5458
2026-01-09 23:37:58.06	181.87	29.47	-46.8	-50.1	15.3	7.00e-07	0	43	0	968884224	65	5161
2026-01-09 23:37:59.06	181.95	29.29	-46.7	-50.0	15.3	0.00e+00	0	43	0	969932800	65	5114
2026-01-09 23:38:00.06	182.03	29.11	-46.6	-49.8	15.5	0.00e+00	0	43	0	972029952	65	5004
2026-01-09 23:38:01.07	182.11	28.92	-46.7	-50.0	15.3	0.00e+00	0	43	0	974127104	64	5438
2026-01-09 23:38:02.07	182.18	28.74	-46.5	-49.7	15.6	0.00e+00	0	43	0	976224256	64	5226
2026-01-09 23:38:03.07	182.26	28.57	-46.4	-49.5	15.8	0.00e+00	0	44	0	977272832	64	5113
2026-01-09 23:38:04.08	182.34	28.39	-46.4	-49.5	15.8	0.00e+00	0	43	0	979369984	64	5115
2026-01-09 23:38:05.08	182.41	28.21	-46.0	-48.9	16.5	0.00e+00	0	43	0	981467136	63	5071
2026-01-09 23:38:06.08	182.49	28.04	-46.2	-49.2	16.2	0.00e+00	0	43	0	983564288	63	5230
2026-01-09 23:38:07.08	182.56	27.86	-46.4	-49.4	15.9	0.00e+00	0	43	0	985661440	63	5378
2026-01-09 23:38:08.09	182.64	27.69	-46.1	-49.0	16.4	0.00e+00	0	43	0	986710016	63	5132
2026-01-09 23:38:09.28	182.72	27.48	-46.1	-49.0	16.3	0.00e+00	0	44	0	989855744	63	5143
2026-01-09 23:38:10.17	182.79	27.33	-46.1	-48.9	16.4	0.00e+00	0	43	0	990904320	63	5088
2026-01-09 23:38:11.31	182.87	27.14	-46.0	-48.9	16.5	0.00e+00	0	43	0	993001472	63	5044
2026-01-09 23:38:12.17	182.93	26.99	-45.9	-48.7	16.5	0.00e+00	0	44	0	995098624	63	4966
2026-01-09 23:38:13.32	183.01	26.80	-45.8	-48.6	16.7	0.00e+00	0	43	0	997195776	63	4909
2026-01-09 23:38:14.18	183.07	26.66	-45.7	-48.5	16.8	0.00e+00	0	44	0	998244352	63	4865
2026-01-09 23:38:15.33	183.14	26.47	-45.7	-48.5	16.8	0.00e+00	0	43	0	1000341504	63	4850
2026-01-09 23:38:16.43	183.22	26.29	-45.6	-48.4	16.9	0.00e+00	0	44	0	1002438656	63	4807
2026-01-09 23:38:17.28	183.27	26.15	-45.7	-48.5	16.8	0.00e+00	0	43	0	1004535808	63	4834
2026-01-09 23:38:18.43	183.35	25.96	-45.6	-48.4	16.9	0.00e+00	0	44	0	1006632960	63	4762
2026-01-09 23:38:19.29	183.41	25.82	-45.5	-48.3	17.0	0.00e+00	0	43	0	1007681536	63	4706
2026-01-09 23:38:20.44	183.48	25.64	-45.2	-47.9	17.3	0.00e+00	0	44	0	1010827264	62	4785
2026-01-09 23:38:21.30	183.54	25.50	-45.0	-47.6	17.6	0.00e+00	0	43	0	1011875840	61	4921
2026-01-09 23:38:22.44	183.61	25.32	-44.9	-47.4	17.8	0.00e+00	0	44	0	1013972992	61	4792
2026-01-09 23:38:23.30	183.66	25.18	-44.7	-47.2	17.9	0.00e+00	0	43	0	1016070144	61	4690
2026-01-09 23:38:24.51	183.74	24.99	-44.7	-47.3	17.9	0.00e+00	0	43	0	1018167296	61	4706
2026-01-09 23:38:25.37	183.79	24.86	-44.5	-46.9	18.2	0.00e+00	0	44	0	1019215872	60	4808
2026-01-09 23:38:26.58	183.86	24.67	-44.4	-46.9	18.4	0.00e+00	0	43	0	1021313024	60	4760
2026-01-09 23:38:27.45	183.92	24.54	-44.4	-46.9	18.3	0.00e+00	0	43	0	1023410176	60	4764
2026-01-09 23:38:28.59	183.99	24.36	-44.4	-46.8	18.3	0.00e+00	0	44	0	1025507328	60	4755
2026-01-09 23:38:29.45	184.04	24.23	-44.3	-46.7	18.4	0.00e+00	0	43	0	1027604480	60	4700
2026-01-09 23:38:30.60	184.10	24.06	-44.4	-46.9	18.3	0.00e+00	0	43	0	1029701632	60	4765
2026-01-09 23:38:31.46	184.15	23.93	-44.6	-47.0	18.2	0.00e+00	0	43	0	1030750208	60	4843
2026-01-09 23:38:32.60	184.22	23.76	-44.7	-47.1	18.0	0.00e+00	0	44	0	1032847360	60	4922
2026-01-09 23:38:33.46	184.27	23.63	-44.7	-47.2	18.0	0.00e+00	0	44	0	1034944512	60	4974
2026-01-09 23:38:34.61	184.33	23.46	-44.9	-47.4	17.8	0.00e+00	0	43	0	1037041664	60	5060
2026-01-09 23:38:35.66	184.39	23.30	-44.8	-47.3	17.8	0.00e+00	0	43	0	1039138816	60	5031
2026-01-09 23:38:36.55	184.44	23.17	-44.8	-47.3	17.9	0.00e+00	0	43	0	1040187392	60	5024
2026-01-09 23:38:37.69	184.51	23.01	-44.8	-47.4	17.8	0.00e+00	0	44	0	1042284544	60	5056
2026-01-09 23:38:38.76	184.56	22.85	-44.8	-47.4	17.8	0.00e+00	0	43	0	1044381696	60	5043
2026-01-09 23:38:39.62	184.61	22.73	-44.9	-47.4	17.8	0.00e+00	0	43	0	1046478848	60	5075
2026-01-09 23:38:40.77	184.67	22.56	-45.1	-47.7	17.5	0.00e+00	0	44	0	1048576000	60	5264
2026-01-09 23:38:41.63	184.72	22.44	-45.2	-47.9	17.3	0.00e+00	0	44	0	1049624576	61	5064
2026-01-09 23:38:42.77	184.78	22.28	-45.4	-48.2	17.0	0.00e+00	0	43	0	1051721728	61	5243
2026-01-09 23:38:43.63	184.82	22.16	-45.5	-48.3	16.9	0.00e+00	0	43	0	1053818880	61	5318
2026-01-09 23:38:44.77	184.88	22.00	-45.5	-48.3	16.9	0.00e+00	0	43	0	1055916032	61	5329
2026-01-09 23:38:45.63	184.93	21.88	-45.6	-48.4	16.9	0.00e+00	0	44	0	1058013184	61	5346
2026-01-09 23:38:46.78	184.99	21.72	-45.7	-48.6	16.7	0.00e+00	0	44	0	1060110336	62	5198
2026-01-09 23:38:47.64	185.03	21.60	-45.5	-48.2	17.0	0.00e+00	0	44	0	1061158912	62	4981
2026-01-09 23:38:48.79	185.09	21.44	-45.5	-48.3	16.9	0.00e+00	0	44	0	1063256064	62	5027
2026-01-09 23:38:49.74	185.13	21.31	-45.5	-48.3	16.9	0.00e+00	0	44	0	1065353216	62	5030
2026-01-09 23:38:50.74	185.18	21.17	-45.3	-48.0	17.2	0.00e+00	0	43	0	1067450368	62	4870
2026-01-09 23:38:51.98	185.24	21.01	-45.5	-48.3	16.9	0.00e+00	0	43	0	1069547520	62	5015
2026-01-09 23:38:52.84	185.29	20.89	-45.4	-48.2	16.9	0.00e+00	0	43	0	1070596096	62	4982
2026-01-09 23:38:53.99	185.34	20.74	-45.3	-48.1	17.1	0.00e+00	0	43	0	1072693248	62	4880
2026-01-09 23:38:54.85	185.38	20.62	-45.2	-48.0	17.3	0.00e+00	0	44	0	1074790400	62	4816
2026-01-09 23:38:56.00	185.44	20.47	-45.2	-47.9	17.3	0.00e+00	0	43	0	1076887552	62	4800
2026-01-09 23:38:56.85	185.48	20.36	-45.2	-48.0	17.2	0.00e+00	0	44	0	1078984704	62	4826
2026-01-09 23:38:58.00	185.53	20.21	-45.2	-47.9	17.3	0.00e+00	0	43	0	1081081856	62	4779
2026-01-09 23:38:58.86	185.57	20.10	-45.1	-47.8	17.3	0.00e+00	0	44	0	1082130432	62	4749
2026-01-09 23:39:00.00	185.62	19.95	-45.1	-47.8	17.3	0.00e+00	0	43	0	1084227584	62	4755
2026-01-09 23:39:00.83	185.66	19.84	-45.1	-47.9	17.3	0.00e+00	0	44	0	1086324736	62	4774
2026-01-09 23:39:01.98	185.71	19.70	-45.1	-47.9	17.3	0.00e+00	0	43	0	1088421888	62	4776
2026-01-09 23:39:02.84	185.75	19.59	-45.1	-47.9	17.3	0.00e+00	0	44	0	1089470464	62	4768
2026-01-09 23:39:03.99	185.80	19.44	-44.9	-47.6	17.5	0.00e+00	0	44	0	1091567616	61	4916
2026-01-09 23:39:04.85	185.84	19.33	-45.1	-47.9	17.2	0.00e+00	0	43	0	1093664768	61	5080
2026-01-09 23:39:05.99	185.89	19.19	-44.9	-47.6	17.5	0.00e+00	0	43	0	1095761920	61	4895
2026-01-09 23:39:06.85	185.93	19.08	-44.8	-47.5	17.6	0.00e+00	0	43	0	1097859072	61	4826
2026-01-09 23:39:08.00	185.98	18.94	-44.7	-47.3	17.8	0.00e+00	0	43	0	1099956224	61	4731
2026-01-09 23:39:08.86	186.01	18.83	-44.7	-47.4	17.7	0.00e+00	0	44	0	1101004800	61	4786
2026-01-09 23:39:10.00	186.06	18.69	-44.8	-47.5	17.6	0.00e+00	0	43	0	1103101952	61	4821
2026-01-09 23:39:10.86	186.10	18.58	-44.8	-47.4	17.6	0.00e+00	0	44	0	1105199104	61	4813
2026-01-09 23:39:12.00	186.15	18.45	-44.9	-47.6	17.5	0.00e+00	0	43	0	1107296256	61	4917
2026-01-09 23:39:12.86	186.18	18.34	-44.7	-47.4	17.7	0.00e+00	0	44	0	1108344832	61	4777
2026-01-09 23:39:14.01	186.23	18.20	-44.7	-47.4	17.6	0.00e+00	0	44	0	1110441984	61	4811
2026-01-09 23:39:14.87	186.26	18.10	-44.7	-47.4	17.7	0.00e+00	0	43	0	1112539136	61	4762
2026-01-09 23:39:16.01	186.31	17.96	-44.6	-47.3	17.7	0.00e+00	0	44	0	1114636288	61	4734
2026-01-09 23:39:16.87	186.35	17.86	-44.6	-47.3	17.8	0.00e+00	0	43	0	1115684864	61	4728
2026-01-09 23:39:18.02	186.39	17.72	-44.9	-47.6	17.4	0.00e+00	0	43	0	1117782016	61	4920
2026-01-09 23:39:18.88	186.43	17.62	-44.8	-47.5	17.5	0.00e+00	0	43	0	1119879168	61	4858
2026-01-09 23:39:20.03	186.47	17.49	-45.0	-47.8	17.3	0.00e+00	0	43	0	1121976320	61	4997
2026-01-09 23:39:20.89	186.50	17.39	-45.1	-48.0	17.0	0.00e+00	0	44	0	1124073472	61	5137
2026-01-09 23:39:22.03	186.55	17.25	-45.4	-48.3	16.8	0.00e+00	0	44	0	1126170624	61	5315
2026-01-09 23:39:22.89	186.58	17.15	-45.3	-48.3	16.7	0.00e+00	0	43	0	1127219200	61	5299
2026-01-09 23:39:24.04	186.63	17.02	-45.3	-48.2	16.8	0.00e+00	0	43	0	1129316352	61	5256
2026-01-09 23:39:24.90	186.66	16.92	-45.4	-48.4	16.7	0.00e+00	0	43	0	1131413504	61	5394
2026-01-09 23:39:26.05	186.70	16.79	-45.4	-48.4	16.6	0.00e+00	0	43	0	1133510656	61	5382
2026-01-09 23:39:26.90	186.73	16.69	-45.6	-48.6	16.4	0.00e+00	0	43	0	1134559232	61	5503
2026-01-09 23:39:28.05	186.78	16.56	-45.9	-49.1	16.0	0.00e+00	0	44	0	1136656384	62	5468
2026-01-09 23:39:28.91	186.81	16.47	-45.8	-49.0	16.1	0.00e+00	0	44	0	1138753536	62	5418
2026-01-09 23:39:30.09	186.85	16.33	-45.8	-49.0	16.1	0.00e+00	0	43	0	1140850688	62	5423
2026-01-09 23:39:30.95	186.88	16.24	-46.0	-49.2	15.8	0.00e+00	0	43	0	1142947840	62	5577
2026-01-09 23:39:32.12	186.93	16.11	-45.8	-49.0	16.0	0.00e+00	0	43	0	1145044992	62	5446
2026-01-09 23:39:32.98	186.96	16.01	-45.8	-49.1	16.0	0.00e+00	0	43	0	1146093568	62	5472
2026-01-09 23:39:34.16	187.00	15.88	-45.8	-49.0	16.0	0.00e+00	0	44	0	1148190720	62	5431
2026-01-09 23:39:35.02	187.03	15.79	-45.9	-49.2	15.9	0.00e+00	0	43	0	1150287872	62	5532
2026-01-09 23:39:36.16	187.07	15.67	-45.9	-49.2	15.8	0.00e+00	0	44	0	1152385024	62	5575
2026-01-09 23:39:37.02	187.10	15.57	-46.1	-49.4	15.6	0.00e+00	0	43	0	1153433600	62	5695
2026-01-09 23:39:38.17	187.14	15.45	-46.2	-49.6	15.4	0.00e+00	0	43	0	1156579328	62	5818
2026-01-09 23:39:39.03	187.17	15.35	-46.1	-49.5	15.5	0.00e+00	0	44	0	1157627904	63	5414
2026-01-09 23:39:40.18	187.21	15.23	-46.1	-49.4	15.6	0.00e+00	0	44	0	1159725056	63	5402
2026-01-09 23:39:41.13	187.24	15.13	-46.1	-49.5	15.3	0.00e+00	0	43	0	1161822208	63	5447
2026-01-09 23:39:42.31	187.28	15.00	-46.0	-49.4	15.7	0.00e+00	0	44	0	1163919360	63	5344
2026-01-09 23:39:43.17	187.31	14.91	-45.8	-49.1	15.6	0.00e+00	0	44	0	1164967936	63	5207
2026-01-09 23:39:44.52	187.36	14.77	-45.6	-49.1	15.6	6.73e-03	0	43	0	1168113664	63	5186
2026-01-09 23:39:45.24	187.38	14.70	-45.5	-49.2	15.4	6.76e-03	0	43	0	1169162240	62	5556
2026-01-09 23:39:46.53	187.42	14.56	-45.2	-49.1	15.6	6.89e-03	0	43	0	1171259392	62	5504
2026-01-09 23:39:47.24	187.45	14.49	-45.4	-49.2	15.4	6.95e-03	0	43	0	1173356544	62	5581
2026-01-09 23:39:48.53	187.49	14.35	-45.9	-49.5	15.3	6.76e-03	0	43	0	1175453696	62	5751
2026-01-09 23:39:49.25	187.51	14.28	-46.0	-49.5	15.3	5.97e-03	0	43	0	1176502272	62	5759
2026-01-09 23:39:50.82	187.56	14.12	-46.1	-49.7	15.2	7.24e-05	0	44	0	1179648000	62	5866
2026-01-09 23:39:51.41	187.58	14.06	-46.1	-49.6	15.2	2.37e-04	0	44	0	1180696576	62	5817
2026-01-09 23:39:52.99	187.63	13.90	-46.1	-49.6	15.1	3.26e-03	0	44	0	1183842304	62	5852
2026-01-09 23:39:53.61	187.65	13.83	-46.0	-49.5	15.2	4.36e-03	0	43	0	1184890880	62	5773
2026-01-09 23:39:55.18	187.70	13.68	-46.7	-50.0	15.1	1.17e-04	0	43	0	1188036608	63	5759
2026-01-09 23:39:55.88	187.72	13.61	-46.1	-49.6	15.3	3.80e-06	0	44	0	1189085184	63	5525
2026-01-09 23:39:57.19	187.76	13.48	-46.0	-49.5	15.3	3.73e-05	0	43	0	1191182336	63	5447
2026-01-09 23:39:58.10	187.79	13.39	-46.0	-49.5	15.4	7.55e-04	0	43	0	1193279488	63	5462
2026-01-09 23:39:59.43	187.83	13.25	-46.1	-49.7	15.3	0.00e+00	0	43	0	1196425216	63	5562
2026-01-09 23:40:00.20	187.85	13.18	-46.0	-49.6	15.3	0.00e+00	0	43	0	1197473792	63	5465
2026-01-09 23:40:01.49	187.89	13.05	-46.0	-49.6	15.3	0.00e+00	0	44	0	1199570944	63	5479
2026-01-09 23:40:02.20	187.91	12.98	-46.1	-49.6	15.3	0.00e+00	0	43	0	1201668096	63	5475
2026-01-09 23:40:03.49	187.95	12.86	-46.0	-49.5	15.3	0.00e+00	0	44	0	1203765248	63	5449
2026-01-09 23:40:04.21	187.97	12.79	-46.1	-49.7	15.2	7.00e-07	0	43	0	1204813824	63	5538
2026-01-09 23:40:05.49	188.01	12.66	-46.1	-49.7	15.2	0.00e+00	0	43	0	1206910976	63	5559
2026-01-09 23:40:06.21	188.03	12.59	-46.1	-49.7	15.1	0.00e+00	0	43	0	1209008128	63	5587
2026-01-09 23:40:07.58	188.07	12.46	-46.0	-49.5	15.3	0.00e+00	0	43	0	1211105280	63	5437
2026-01-09 23:40:08.30	188.09	12.39	-46.1	-49.7	15.1	0.00e+00	0	44	0	1212153856	63	5571
2026-01-09 23:40:09.65	188.13	12.26	-46.3	-49.9	14.9	7.00e-07	0	43	0	1215299584	63	5690
2026-01-09 23:40:10.37	188.15	12.20	-46.1	-49.7	15.1	1.50e-06	0	43	0	1216348160	63	5562
2026-01-09 23:40:11.66	188.19	12.07	-46.3	-50.0	14.8	0.00e+00	0	44	0	1218445312	63	5737
2026-01-09 23:40:12.71	188.22	11.98	-46.3	-49.9	14.9	0.00e+00	0	43	0	1220542464	63	5719
2026-01-09 23:40:13.57	188.24	11.90	-46.2	-49.8	15.0	0.00e+00	0	43	0	1222639616	63	5603
2026-01-09 23:40:14.72	188.27	11.79	-46.1	-49.7	15.1	0.00e+00	0	43	0	1224736768	63	5547
2026-01-09 23:40:15.58	188.30	11.71	-46.2	-49.8	15.0	1.50e-06	0	43	0	1225785344	63	5630
2026-01-09 23:40:16.73	188.33	11.60	-46.1	-49.7	15.0	0.00e+00	0	43	0	1227882496	63	5582
2026-01-09 23:40:17.58	188.35	11.52	-46.4	-50.2	14.6	0.00e+00	0	43	0	1229979648	63	5862
2026-01-09 23:40:18.73	188.38	11.42	-46.2	-49.9	14.9	0.00e+00	0	43	0	1232076800	63	5694
2026-01-09 23:40:19.67	188.41	11.33	-46.2	-49.9	14.9	0.00e+00	0	44	0	1234173952	63	5694
2026-01-09 23:40:20.68	188.44	11.24	-46.2	-49.8	14.9	0.00e+00	0	44	0	1236271104	63	5645
2026-01-09 23:40:21.68	188.46	11.15	-46.2	-49.8	15.0	0.00e+00	0	43	0	1237319680	63	5607
2026-01-09 23:40:22.68	188.49	11.06	-46.3	-50.0	14.8	0.00e+00	0	43	0	1239416832	63	5737
2026-01-09 23:40:23.68	188.52	10.97	-46.1	-49.6	15.1	0.00e+00	0	43	0	1241513984	63	5497
2026-01-09 23:40:24.69	188.54	10.88	-46.1	-49.6	15.1	0.00e+00	0	43	0	1243611136	63	5523
2026-01-09 23:40:25.69	188.57	10.79	-46.2	-49.8	14.9	0.00e+00	0	43	0	1244659712	63	5609
2026-01-09 23:40:27.07	188.61	10.67	-46.1	-49.5	15.2	0.00e+00	0	43	0	1247805440	63	5442
2026-01-09 23:40:27.81	188.63	10.60	-46.1	-49.6	15.1	0.00e+00	0	43	0	1248854016	63	5506
