passes_logs/2026/01/09/T1/T1__20260109_022800_FENGYUN_3D_rec.log

#Pass ID: 20260109_022800_FENGYUN 3D
#Satellite: FENGYUN 3D
#Configuration: FENGYUN 3D
#almurnet v.1.7.20251203
#Start time: 2026-01-09 02:27:59

#Version: 2.0.20230620
#Station: T1
#Location: 37.570604 lon 55.790049 lat
#TLE: 1 43010U 17072A   26008.51967461  .00000013  00000+0  27718-4 0  9992
#TLE: 2 43010  98.9935 340.2353 0002115 119.1573 240.9815 14.19693759422336

#Time	Az	El	Level	Level2	SNR	BER	BlckErr	Temp	State	Recorded	gain1	gain2
2026-01-09 02:27:59.93	12.45	4.97	-47.9	-60.4	3.8	8.47e-01	0	40	0	0	66	16030
2026-01-09 02:28:00.93	12.42	5.04	-45.5	-60.5	3.8	8.47e-01	0	40	104	0	61	21607
2026-01-09 02:28:01.93	12.38	5.11	-45.4	-60.5	3.8	8.48e-01	0	40	104	0	61	21699
2026-01-09 02:28:02.94	12.35	5.18	-45.4	-60.5	3.8	8.47e-01	0	40	104	0	61	21655
2026-01-09 02:28:03.94	12.31	5.25	-45.5	-60.5	3.8	8.46e-01	0	40	104	0	61	21641
2026-01-09 02:28:04.95	12.28	5.32	-45.1	-60.4	3.8	8.48e-01	0	40	104	0	62	20148
2026-01-09 02:28:05.95	12.25	5.39	-45.1	-60.4	3.8	8.48e-01	0	40	104	0	62	20121
2026-01-09 02:28:06.96	12.21	5.46	-45.3	-60.3	3.8	8.47e-01	0	40	104	0	62	19870
2026-01-09 02:28:07.96	12.18	5.53	-45.4	-60.3	3.8	8.47e-01	0	40	104	0	62	19935
2026-01-09 02:28:08.97	12.14	5.60	-45.2	-60.1	3.8	8.46e-01	0	40	104	0	62	19565
2026-01-09 02:28:09.97	12.11	5.67	-45.3	-60.1	3.8	8.46e-01	0	41	104	0	62	19521
2026-01-09 02:28:10.97	12.07	5.74	-45.4	-60.0	3.8	8.47e-01	0	41	104	0	62	19350
2026-01-09 02:28:11.98	12.04	5.82	-45.4	-60.0	3.8	8.47e-01	0	41	104	0	62	19306
2026-01-09 02:28:12.98	12.00	5.89	-45.3	-60.0	3.8	8.48e-01	0	41	104	0	62	19269
2026-01-09 02:28:13.99	11.96	5.96	-45.2	-60.0	3.8	8.48e-01	0	41	104	0	62	19347
2026-01-09 02:28:14.99	11.93	6.03	-45.3	-60.0	3.8	8.46e-01	0	41	104	0	62	19208
2026-01-09 02:28:16.00	11.89	6.10	-45.4	-59.9	3.8	8.47e-01	0	41	104	0	62	18983
2026-01-09 02:28:17.00	11.86	6.18	-45.2	-59.9	3.8	8.46e-01	0	41	104	0	62	18965
2026-01-09 02:28:18.01	11.82	6.25	-45.4	-59.7	3.8	8.46e-01	0	41	104	0	62	18596
2026-01-09 02:28:19.01	11.78	6.32	-45.3	-59.4	3.8	8.46e-01	0	41	104	0	62	17951
2026-01-09 02:28:20.02	11.75	6.40	-45.2	-59.2	3.8	8.47e-01	0	41	104	0	62	17617
2026-01-09 02:28:21.02	11.71	6.47	-45.2	-58.9	3.8	8.46e-01	0	41	104	0	62	16910
2026-01-09 02:28:22.02	11.67	6.54	-45.2	-58.5	3.9	8.45e-01	0	41	104	0	62	16204
2026-01-09 02:28:23.03	11.63	6.62	-45.2	-58.1	4.0	8.45e-01	0	41	104	0	62	15573
2026-01-09 02:28:24.03	11.60	6.69	-45.2	-57.9	4.0	8.43e-01	0	41	104	0	62	15129
2026-01-09 02:28:25.04	11.56	6.77	-45.2	-57.7	4.0	8.45e-01	0	41	104	0	62	14791
2026-01-09 02:28:26.04	11.52	6.84	-45.2	-57.7	4.0	8.43e-01	0	41	0	0	62	14764
2026-01-09 02:28:27.05	11.48	6.91	-45.2	-57.8	3.9	8.45e-01	0	41	104	0	62	14910
2026-01-09 02:28:28.05	11.44	6.99	-45.2	-58.1	3.8	8.45e-01	0	41	104	0	62	15565
2026-01-09 02:28:29.06	11.40	7.06	-45.3	-58.5	3.8	8.46e-01	0	41	104	0	62	16261
2026-01-09 02:28:30.06	11.36	7.14	-45.2	-59.1	3.8	8.46e-01	0	41	104	0	62	17445
2026-01-09 02:28:31.06	11.32	7.21	-45.3	-59.7	3.8	8.47e-01	0	41	104	0	62	18649
2026-01-09 02:28:32.07	11.28	7.29	-45.3	-60.3	3.8	8.47e-01	0	41	104	0	62	20001
2026-01-09 02:28:33.07	11.24	7.37	-45.3	-60.5	3.8	8.47e-01	0	41	104	0	62	20387
2026-01-09 02:28:34.08	11.20	7.44	-45.3	-60.1	3.8	8.47e-01	0	41	104	0	62	19510
2026-01-09 02:28:35.08	11.16	7.52	-45.3	-59.0	3.8	8.46e-01	0	41	104	0	62	17195
2026-01-09 02:28:36.09	11.12	7.59	-45.2	-57.4	4.1	8.44e-01	0	41	0	0	62	14270
2026-01-09 02:28:37.09	11.08	7.67	-45.1	-55.8	4.5	8.23e-01	0	41	0	0	62	11947
2026-01-09 02:28:38.10	11.04	7.75	-44.8	-54.3	5.3	7.58e-01	0	42	0	0	61	10621
2026-01-09 02:28:39.10	11.00	7.83	-44.6	-53.0	6.2	4.13e-01	0	42	0	3145728	61	9154
2026-01-09 02:28:40.10	10.96	7.90	-44.4	-52.2	6.9	2.12e-01	0	42	0	9437184	60	8831
2026-01-09 02:28:41.11	10.92	7.98	-44.2	-51.2	7.9	1.02e-01	0	42	0	14680064	60	7856
2026-01-09 02:28:42.11	10.88	8.06	-43.9	-49.9	9.2	3.18e-02	0	42	0	19922944	59	7135
2026-01-09 02:28:43.12	10.83	8.14	-43.5	-48.8	10.4	7.69e-03	0	42	0	26214400	59	6316
2026-01-09 02:28:44.12	10.79	8.21	-43.1	-47.9	11.2	2.14e-03	0	42	0	31457280	58	6046
2026-01-09 02:28:45.13	10.75	8.29	-43.0	-47.6	11.6	1.03e-03	0	42	0	36700160	57	6185
2026-01-09 02:28:46.13	10.70	8.37	-42.4	-46.5	12.7	1.80e-04	0	42	0	42991616	56	5787
2026-01-09 02:28:47.14	10.66	8.45	-42.4	-46.4	12.9	7.66e-05	0	42	0	48234496	56	5696
2026-01-09 02:28:48.14	10.62	8.53	-41.7	-45.3	13.8	2.05e-05	0	42	0	54525952	55	5336
2026-01-09 02:28:49.14	10.57	8.61	-41.5	-45.1	14.0	6.80e-06	0	42	0	59768832	54	5483
2026-01-09 02:28:50.15	10.53	8.69	-41.7	-45.3	13.8	3.40e-06	0	42	0	66060288	54	5650
2026-01-09 02:28:51.16	10.49	8.77	-41.5	-45.1	14.1	4.50e-06	0	42	0	71303168	54	5477
2026-01-09 02:28:52.16	10.44	8.85	-41.7	-45.5	13.7	8.00e-06	0	42	0	76546048	54	5746
2026-01-09 02:28:53.16	10.40	8.93	-42.1	-46.1	13.0	5.03e-05	0	42	0	82837504	54	6176
2026-01-09 02:28:54.17	10.35	9.01	-42.5	-46.8	12.3	1.67e-04	0	42	0	88080384	55	6330
2026-01-09 02:28:55.17	10.31	9.09	-43.2	-48.1	11.2	8.23e-04	0	42	0	93323264	56	6896
2026-01-09 02:28:56.18	10.26	9.17	-43.2	-48.1	11.1	1.78e-03	0	42	0	99614720	57	6529
2026-01-09 02:28:57.18	10.21	9.25	-41.5	-45.2	14.1	1.10e-06	0	42	0	104857600	54	5542
2026-01-09 02:28:58.18	10.17	9.33	-44.9	-54.2	5.3	6.13e-01	0	42	0	109051904	60	11034
2026-01-09 02:28:59.25	10.12	9.42	-44.0	-49.2	9.9	1.45e-02	0	42	0	115343360	59	6606
2026-01-09 02:29:00.14	10.08	9.49	-39.1	-41.9	17.4	0.00e+00	0	42	0	120586240	50	4784
2026-01-09 02:29:01.28	10.02	9.59	-39.0	-41.8	17.5	0.00e+00	0	42	0	126877696	50	4721
2026-01-09 02:29:02.15	9.98	9.66	-39.0	-41.8	17.5	0.00e+00	0	42	0	132120576	49	4995
2026-01-09 02:29:03.29	9.93	9.75	-39.1	-41.8	17.5	0.00e+00	0	42	0	138412032	49	5015
2026-01-09 02:29:04.15	9.89	9.82	-39.2	-42.1	17.2	0.00e+00	0	42	0	142606336	49	5160
2026-01-09 02:29:05.60	9.82	9.94	-39.2	-42.0	17.3	0.00e+00	0	42	0	150994944	49	5142
2026-01-09 02:29:06.32	9.78	10.00	-39.1	-41.9	17.4	0.00e+00	0	42	0	155189248	49	5070
2026-01-09 02:29:07.61	9.72	10.11	-39.1	-41.8	17.5	0.00e+00	0	42	0	162529280	49	5036
2026-01-09 02:29:08.33	9.69	10.17	-39.2	-42.1	17.3	0.00e+00	0	42	0	165675008	49	5163
2026-01-09 02:29:09.62	9.62	10.28	-39.0	-41.7	17.6	0.00e+00	0	42	0	173015040	49	4968
2026-01-09 02:29:10.33	9.59	10.34	-39.0	-41.7	17.6	0.00e+00	0	42	0	177209344	49	4941
2026-01-09 02:29:11.62	9.52	10.45	-39.0	-41.7	17.6	0.00e+00	0	42	0	184549376	49	4946
2026-01-09 02:29:12.33	9.49	10.51	-39.0	-41.7	17.7	0.00e+00	0	42	0	188743680	49	4952
2026-01-09 02:29:13.62	9.42	10.62	-38.9	-41.6	17.8	0.00e+00	0	42	0	196083712	49	4877
2026-01-09 02:29:14.48	9.38	10.69	-38.9	-41.6	17.8	0.00e+00	0	42	0	201326592	49	4884
2026-01-09 02:29:15.63	9.32	10.79	-38.8	-41.4	17.9	0.00e+00	0	42	0	207618048	49	4783
2026-01-09 02:29:16.70	9.26	10.88	-38.8	-41.4	17.9	0.00e+00	0	42	0	213909504	49	4788
2026-01-09 02:29:17.73	9.21	10.97	-38.7	-41.3	18.1	0.00e+00	0	42	0	219152384	49	4707
2026-01-09 02:29:18.73	9.16	11.06	-38.7	-41.2	18.1	0.00e+00	0	42	0	225443840	49	4700
2026-01-09 02:29:19.73	9.10	11.15	-38.7	-41.2	18.1	0.00e+00	0	42	0	230686720	49	4697
2026-01-09 02:29:20.74	9.05	11.23	-38.7	-41.1	18.2	0.00e+00	0	42	0	235929600	49	4647
2026-01-09 02:29:21.74	9.00	11.32	-38.7	-41.2	18.2	0.00e+00	0	42	0	242221056	49	4665
2026-01-09 02:29:22.75	8.94	11.41	-38.7	-41.2	18.2	0.00e+00	0	42	0	247463936	49	4673
2026-01-09 02:29:23.75	8.89	11.50	-38.6	-41.1	18.3	0.00e+00	0	42	0	252706816	49	4625
2026-01-09 02:29:24.76	8.84	11.59	-38.6	-41.0	18.4	0.00e+00	0	42	0	258998272	49	4581
2026-01-09 02:29:25.76	8.78	11.68	-38.6	-41.0	18.3	0.00e+00	0	42	0	264241152	49	4574
2026-01-09 02:29:26.76	8.73	11.76	-38.7	-41.0	18.4	0.00e+00	0	42	0	269484032	49	4570
2026-01-09 02:29:27.78	8.67	11.86	-38.5	-40.9	18.5	0.00e+00	0	42	0	275775488	49	4526
2026-01-09 02:29:28.79	8.61	11.95	-38.7	-41.1	18.4	0.00e+00	0	42	0	281018368	49	4606
2026-01-09 02:29:29.87	8.55	12.04	-38.6	-40.8	18.6	0.00e+00	0	42	0	287309824	49	4484
2026-01-09 02:29:30.73	8.50	12.12	-38.5	-40.8	18.6	0.00e+00	0	42	0	292552704	49	4451
2026-01-09 02:29:32.10	8.43	12.24	-38.6	-40.8	18.7	0.00e+00	0	42	0	299892736	49	4452
2026-01-09 02:29:32.81	8.38	12.31	-38.5	-40.8	18.6	0.00e+00	0	42	0	304087040	49	4467
2026-01-09 02:29:34.28	8.30	12.44	-38.4	-40.7	18.8	0.00e+00	0	43	0	312475648	48	4656
2026-01-09 02:29:35.00	8.26	12.51	-38.5	-40.7	18.7	0.00e+00	0	43	0	316669952	48	4692
2026-01-09 02:29:36.29	8.18	12.63	-38.4	-40.5	18.9	0.00e+00	0	43	0	324009984	48	4567
2026-01-09 02:29:37.00	8.14	12.69	-38.3	-40.4	18.9	0.00e+00	0	43	0	327155712	48	4545
2026-01-09 02:29:38.29	8.06	12.81	-38.3	-40.5	18.9	0.00e+00	0	42	0	334495744	48	4568
2026-01-09 02:29:39.01	8.02	12.88	-38.4	-40.5	18.9	0.00e+00	0	43	0	338690048	48	4588
2026-01-09 02:29:40.30	7.94	13.00	-38.2	-40.4	19.0	0.00e+00	0	42	0	346030080	48	4509
2026-01-09 02:29:41.02	7.90	13.07	-38.3	-40.4	18.9	0.00e+00	0	43	0	350224384	48	4530
2026-01-09 02:29:42.31	7.82	13.19	-38.2	-40.3	19.1	0.00e+00	0	42	0	357564416	48	4471
2026-01-09 02:29:43.02	7.78	13.25	-38.2	-40.3	19.1	0.00e+00	0	43	0	361758720	48	4479
2026-01-09 02:29:44.32	7.70	13.38	-38.2	-40.2	19.1	0.00e+00	0	42	0	369098752	48	4441
2026-01-09 02:29:45.11	7.65	13.45	-38.1	-40.1	19.3	0.00e+00	0	42	0	373293056	48	4364
2026-01-09 02:29:46.26	7.58	13.56	-38.1	-40.2	19.3	0.00e+00	0	42	0	379584512	48	4394
2026-01-09 02:29:47.12	7.52	13.64	-38.1	-40.2	19.2	0.00e+00	0	42	0	384827392	48	4399
2026-01-09 02:29:48.27	7.45	13.75	-38.2	-40.2	19.2	0.00e+00	0	43	0	391118848	48	4421
2026-01-09 02:29:49.13	7.39	13.83	-38.2	-40.2	19.2	0.00e+00	0	43	0	395313152	48	4433
2026-01-09 02:29:50.27	7.32	13.94	-38.2	-40.2	19.2	0.00e+00	0	42	0	402653184	48	4426
2026-01-09 02:29:51.13	7.27	14.03	-38.3	-40.3	19.1	0.00e+00	0	43	0	406847488	48	4493
2026-01-09 02:29:52.28	7.19	14.14	-38.2	-40.2	19.2	0.00e+00	0	43	0	414187520	48	4435
2026-01-09 02:29:53.14	7.13	14.22	-38.3	-40.3	19.2	0.00e+00	0	42	0	418381824	48	4477
2026-01-09 02:29:54.29	7.06	14.34	-38.3	-40.3	19.1	0.00e+00	0	43	0	424673280	48	4493
2026-01-09 02:29:55.15	7.00	14.42	-38.2	-40.2	19.2	0.00e+00	0	43	0	429916160	48	4424
2026-01-09 02:29:56.42	6.92	14.55	-38.2	-40.2	19.2	0.00e+00	0	42	0	437256192	48	4438
2026-01-09 02:29:57.14	6.87	14.62	-38.2	-40.3	19.2	0.00e+00	0	43	0	441450496	48	4445
2026-01-09 02:29:58.43	6.78	14.74	-38.2	-40.2	19.3	0.00e+00	0	43	0	447741952	48	4404
2026-01-09 02:29:59.15	6.73	14.82	-38.2	-40.2	19.3	0.00e+00	0	43	0	451936256	48	4418
2026-01-09 02:30:00.44	6.64	14.95	-38.2	-40.3	19.2	0.00e+00	0	43	0	459276288	48	4444
2026-01-09 02:30:01.15	6.59	15.02	-38.1	-40.1	19.4	0.00e+00	0	43	0	463470592	48	4372
2026-01-09 02:30:02.78	6.48	15.18	-38.1	-40.1	19.4	0.00e+00	0	43	0	472907776	48	4351
2026-01-09 02:30:03.35	6.44	15.24	-38.1	-40.0	19.5	0.00e+00	0	43	0	476053504	48	4325
2026-01-09 02:30:04.94	6.32	15.40	-38.0	-39.9	19.5	0.00e+00	0	43	0	484442112	48	4288
2026-01-09 02:30:05.52	6.28	15.46	-37.9	-39.9	19.4	0.00e+00	0	42	0	487587840	47	4494
2026-01-09 02:30:07.11	6.17	15.62	-37.8	-39.7	19.5	0.00e+00	0	42	0	497025024	47	4430
2026-01-09 02:30:07.68	6.12	15.68	-37.9	-39.8	19.5	0.00e+00	0	43	0	500170752	47	4484
2026-01-09 02:30:09.32	6.00	15.85	-37.7	-39.6	19.6	0.00e+00	0	43	0	509607936	47	4386
2026-01-09 02:30:09.89	5.96	15.91	-37.7	-39.6	19.7	0.00e+00	0	43	0	512753664	47	4354
2026-01-09 02:30:11.49	5.84	16.08	-37.6	-39.5	19.8	0.00e+00	0	43	0	522190848	47	4320
2026-01-09 02:30:12.06	5.80	16.14	-37.7	-39.6	19.7	0.00e+00	0	43	0	524288000	47	4369
2026-01-09 02:30:13.65	5.68	16.30	-37.4	-39.3	19.9	0.00e+00	0	43	0	533725184	46	4483
2026-01-09 02:30:14.53	5.61	16.40	-37.4	-39.3	19.9	0.00e+00	0	43	0	538968064	46	4492
2026-01-09 02:30:15.68	5.52	16.52	-37.4	-39.4	19.9	0.00e+00	0	43	0	545259520	46	4495
2026-01-09 02:30:16.87	5.43	16.64	-37.4	-39.3	20.0	0.00e+00	0	42	0	551550976	46	4470
2026-01-09 02:30:17.73	5.36	16.74	-37.4	-39.4	19.9	0.00e+00	0	43	0	556793856	46	4495
2026-01-09 02:30:18.88	5.27	16.86	-37.4	-39.3	20.0	0.00e+00	0	43	0	563085312	46	4476
2026-01-09 02:30:19.74	5.20	16.95	-37.5	-39.4	19.8	0.00e+00	0	43	0	568328192	46	4545
2026-01-09 02:30:20.89	5.11	17.08	-37.4	-39.3	20.0	0.00e+00	0	42	0	574619648	46	4472
2026-01-09 02:30:21.75	5.04	17.17	-37.4	-39.3	20.0	0.00e+00	0	42	0	579862528	46	4463
2026-01-09 02:30:22.89	4.95	17.29	-37.4	-39.3	20.0	0.00e+00	0	43	0	586153984	46	4481
2026-01-09 02:30:23.75	4.88	17.39	-37.4	-39.4	19.9	0.00e+00	0	43	0	590348288	46	4494
2026-01-09 02:30:24.90	4.78	17.51	-37.3	-39.2	20.1	0.00e+00	0	43	0	596639744	46	4422
2026-01-09 02:30:25.76	4.71	17.61	-37.2	-39.1	20.2	0.00e+00	0	43	0	601882624	46	4368
2026-01-09 02:30:26.90	4.62	17.73	-37.2	-39.1	20.2	0.00e+00	0	43	0	608174080	46	4372
2026-01-09 02:30:27.79	4.54	17.83	-37.2	-39.1	20.2	0.00e+00	0	43	0	613416960	46	4377
2026-01-09 02:30:29.13	4.43	17.98	-37.0	-38.9	20.4	0.00e+00	0	43	0	620756992	46	4270
2026-01-09 02:30:29.84	4.37	18.06	-37.0	-38.9	20.4	0.00e+00	0	43	0	624951296	46	4248
2026-01-09 02:30:31.13	4.25	18.21	-36.9	-38.8	20.5	0.00e+00	0	43	0	632291328	45	4480
2026-01-09 02:30:31.85	4.19	18.29	-37.0	-38.9	20.5	0.00e+00	0	43	0	636485632	45	4499
2026-01-09 02:30:33.14	4.08	18.43	-36.8	-38.7	20.6	0.00e+00	0	43	0	643825664	45	4397
2026-01-09 02:30:33.95	4.01	18.53	-36.8	-38.6	20.6	0.00e+00	0	42	0	648019968	45	4380
2026-01-09 02:30:35.10	3.90	18.66	-36.8	-38.7	20.6	0.00e+00	0	43	0	654311424	45	4402
2026-01-09 02:30:35.96	3.83	18.76	-36.7	-38.5	20.7	0.00e+00	0	43	0	659554304	45	4320
2026-01-09 02:30:37.10	3.72	18.89	-36.6	-38.4	20.9	0.00e+00	0	43	0	665845760	45	4258
2026-01-09 02:30:37.96	3.64	18.99	-36.6	-38.5	20.8	0.00e+00	0	43	0	670040064	45	4296
2026-01-09 02:30:39.11	3.54	19.12	-36.7	-38.6	20.7	0.00e+00	0	43	0	677380096	45	4357
2026-01-09 02:30:39.97	3.46	19.22	-36.7	-38.5	20.8	0.00e+00	0	43	0	681574400	45	4322
2026-01-09 02:30:41.13	3.35	19.36	-36.8	-38.6	20.7	0.00e+00	0	43	0	688914432	45	4369
2026-01-09 02:30:42.00	3.27	19.46	-36.7	-38.5	20.8	0.00e+00	0	43	0	693108736	45	4324
2026-01-09 02:30:43.14	3.16	19.59	-36.7	-38.6	20.7	0.00e+00	0	43	0	699400192	45	4344
2026-01-09 02:30:44.00	3.07	19.70	-36.8	-38.6	20.7	0.00e+00	0	43	0	704643072	45	4371
2026-01-09 02:30:45.15	2.96	19.83	-36.8	-38.7	20.6	0.00e+00	0	43	0	710934528	45	4413
2026-01-09 02:30:46.03	2.88	19.94	-36.7	-38.6	20.8	0.00e+00	0	43	0	716177408	45	4346
2026-01-09 02:30:47.17	2.76	20.08	-36.7	-38.5	20.8	0.00e+00	0	42	0	722468864	45	4313
2026-01-09 02:30:48.11	2.67	20.19	-36.6	-38.5	20.8	0.00e+00	0	43	0	727711744	45	4301
2026-01-09 02:30:49.29	2.55	20.33	-36.5	-38.4	20.9	0.00e+00	0	43	0	734003200	45	4248
2026-01-09 02:30:50.15	2.47	20.44	-36.5	-38.3	21.0	0.00e+00	0	43	0	739246080	44	4470
2026-01-09 02:30:51.51	2.33	20.60	-36.4	-38.2	21.1	0.00e+00	0	43	0	746586112	44	4407
2026-01-09 02:30:52.22	2.26	20.69	-36.3	-38.1	21.2	0.00e+00	0	43	0	750780416	44	4373
2026-01-09 02:30:53.51	2.12	20.85	-36.5	-38.3	21.0	0.00e+00	0	43	0	758120448	44	4449
2026-01-09 02:30:54.23	2.05	20.94	-36.4	-38.2	21.2	0.00e+00	0	43	0	762314752	44	4407
2026-01-09 02:30:55.79	1.88	21.13	-36.3	-38.1	21.3	0.00e+00	0	43	0	770703360	44	4351
2026-01-09 02:30:56.50	1.81	21.22	-36.2	-38.0	21.3	0.00e+00	0	43	0	774897664	44	4325
2026-01-09 02:30:57.79	1.67	21.38	-36.3	-38.1	21.2	0.00e+00	0	43	0	782237696	44	4389
2026-01-09 02:30:58.51	1.59	21.47	-36.4	-38.2	21.1	0.00e+00	0	43	0	786432000	44	4412
2026-01-09 02:30:59.80	1.45	21.63	-36.5	-38.3	21.0	0.00e+00	0	43	0	793772032	44	4453
2026-01-09 02:31:00.51	1.37	21.72	-36.5	-38.3	21.0	0.00e+00	0	43	0	796917760	44	4464
2026-01-09 02:31:01.80	1.23	21.89	-36.6	-38.4	20.9	0.00e+00	0	43	0	804257792	44	4523
2026-01-09 02:31:02.52	1.15	21.98	-36.5	-38.3	21.0	0.00e+00	0	43	0	808452096	44	4481
2026-01-09 02:31:03.81	1.00	22.15	-36.4	-38.2	21.1	0.00e+00	0	43	0	815792128	44	4428
2026-01-09 02:31:04.56	0.92	22.24	-36.4	-38.2	21.1	0.00e+00	0	43	0	819986432	44	4413
2026-01-09 02:31:05.85	0.77	22.41	-36.3	-38.1	21.2	0.00e+00	0	43	0	827326464	44	4363
2026-01-09 02:31:06.57	0.68	22.50	-36.2	-37.9	21.4	0.00e+00	0	43	0	831520768	44	4269
2026-01-09 02:31:07.86	0.53	22.67	-36.2	-37.9	21.4	0.00e+00	0	43	0	838860800	44	4275
2026-01-09 02:31:08.57	0.45	22.76	-36.1	-37.8	21.5	0.00e+00	0	43	0	843055104	44	4221
2026-01-09 02:31:09.86	0.30	22.93	-35.7	-37.4	21.7	0.00e+00	0	43	0	850395136	43	4290
2026-01-09 02:31:10.58	0.21	23.03	-35.7	-37.5	21.7	0.00e+00	0	43	0	853540864	43	4295
2026-01-09 02:31:11.87	0.05	23.20	-35.7	-37.4	21.7	0.00e+00	0	43	0	860880896	43	4276
2026-01-09 02:31:12.59	359.96	23.30	-35.7	-37.4	21.7	0.00e+00	0	43	0	865075200	43	4264
2026-01-09 02:31:13.87	359.81	23.47	-35.7	-37.5	21.7	0.00e+00	0	43	0	872415232	43	4301
2026-01-09 02:31:14.59	359.72	23.56	-35.8	-37.5	21.6	0.00e+00	0	43	0	876609536	43	4331
2026-01-09 02:31:16.03	359.54	23.76	-35.8	-37.6	21.6	0.00e+00	0	43	0	884998144	43	4342
2026-01-09 02:31:16.74	359.45	23.85	-35.8	-37.5	21.6	0.00e+00	0	43	0	889192448	43	4337
2026-01-09 02:31:18.08	359.27	24.04	-35.8	-37.6	21.6	0.00e+00	0	43	0	896532480	43	4358
2026-01-09 02:31:18.80	359.18	24.14	-35.8	-37.5	21.6	0.00e+00	0	43	0	900726784	43	4327
2026-01-09 02:31:20.15	359.01	24.32	-35.8	-37.5	21.6	0.00e+00	0	43	0	908066816	43	4329
2026-01-09 02:31:20.87	358.91	24.42	-35.8	-37.6	21.6	0.00e+00	0	43	0	912261120	43	4361
2026-01-09 02:31:22.21	358.73	24.61	-35.7	-37.4	21.7	0.00e+00	0	43	0	919601152	43	4276
2026-01-09 02:31:22.93	358.64	24.71	-35.6	-37.3	21.8	0.00e+00	0	43	0	923795456	43	4220
2026-01-09 02:31:24.22	358.46	24.89	-35.6	-37.3	21.8	0.00e+00	0	43	0	931135488	43	4239
2026-01-09 02:31:24.93	358.37	24.99	-35.7	-37.4	21.7	0.00e+00	0	43	0	935329792	43	4270
2026-01-09 02:31:26.22	358.19	25.17	-35.4	-37.1	22.1	0.00e+00	0	43	0	941621248	42	4346
2026-01-09 02:31:26.94	358.09	25.27	-35.4	-37.1	22.0	0.00e+00	0	43	0	945815552	42	4349
2026-01-09 02:31:28.23	357.91	25.45	-35.4	-37.1	22.0	0.00e+00	0	43	0	953155584	42	4381
2026-01-09 02:31:28.95	357.80	25.55	-35.4	-37.1	22.0	0.00e+00	0	43	0	957349888	42	4380
2026-01-09 02:31:30.24	357.62	25.74	-35.6	-37.3	21.8	0.00e+00	0	43	0	964689920	42	4470
2026-01-09 02:31:30.97	357.51	25.84	-35.6	-37.4	21.8	0.00e+00	0	43	0	968884224	42	4494
2026-01-09 02:31:32.26	357.33	26.03	-35.6	-37.4	21.8	0.00e+00	0	43	0	976224256	42	4502
2026-01-09 02:31:33.11	357.20	26.15	-35.6	-37.4	21.8	0.00e+00	0	43	0	980418560	42	4499
2026-01-09 02:31:34.59	356.98	26.37	-35.6	-37.3	21.8	0.00e+00	0	43	0	988807168	42	4474
2026-01-09 02:31:35.30	356.88	26.47	-35.6	-37.3	21.8	0.00e+00	0	43	0	993001472	42	4489
2026-01-09 02:31:36.60	356.68	26.66	-35.6	-37.3	21.9	0.00e+00	0	43	0	1000341504	42	4471
2026-01-09 02:31:37.31	356.57	26.77	-35.5	-37.2	21.9	0.00e+00	0	43	0	1004535808	42	4431
2026-01-09 02:31:38.60	356.37	26.96	-35.3	-37.0	22.1	0.00e+00	0	43	0	1011875840	42	4322
2026-01-09 02:31:39.32	356.26	27.06	-35.2	-36.9	22.2	0.00e+00	0	43	0	1016070144	42	4272
2026-01-09 02:31:40.60	356.06	27.25	-35.3	-37.0	22.2	0.00e+00	0	43	0	1023410176	42	4304
2026-01-09 02:31:41.32	355.94	27.36	-35.2	-36.8	22.3	0.00e+00	0	43	0	1026555904	42	4238
2026-01-09 02:31:42.61	355.73	27.56	-35.2	-36.9	22.3	0.00e+00	0	43	0	1033895936	42	4270
2026-01-09 02:31:43.33	355.62	27.66	-35.3	-37.0	22.1	0.00e+00	0	43	0	1038090240	42	4307
2026-01-09 02:31:44.62	355.41	27.86	-35.5	-37.2	22.0	0.00e+00	0	43	0	1045430272	42	4398
2026-01-09 02:31:45.56	355.25	28.00	-35.8	-37.6	21.7	0.00e+00	0	43	0	1050673152	42	4605
2026-01-09 02:31:46.56	355.08	28.15	-35.7	-37.4	21.8	0.00e+00	0	43	0	1055916032	42	4515
2026-01-09 02:31:47.57	354.91	28.31	-35.7	-37.4	21.8	0.00e+00	0	43	0	1062207488	42	4534
2026-01-09 02:31:48.57	354.74	28.46	-35.7	-37.4	21.8	0.00e+00	0	43	0	1067450368	42	4513
2026-01-09 02:31:49.57	354.57	28.62	-35.7	-37.4	21.8	0.00e+00	0	43	0	1073741824	42	4506
2026-01-09 02:31:50.58	354.40	28.77	-35.5	-37.2	22.0	0.00e+00	0	43	0	1078984704	42	4430
2026-01-09 02:31:51.58	354.22	28.93	-35.3	-37.0	22.1	0.00e+00	0	43	0	1085276160	42	4334
2026-01-09 02:31:52.58	354.04	29.08	-35.2	-36.9	22.3	0.00e+00	0	43	0	1090519040	42	4281
2026-01-09 02:31:53.59	353.86	29.24	-35.1	-36.8	22.3	0.00e+00	0	43	0	1095761920	42	4233
2026-01-09 02:31:54.59	353.68	29.40	-35.2	-36.9	22.2	0.00e+00	0	43	0	1102053376	42	4276
2026-01-09 02:31:55.69	353.48	29.57	-35.2	-36.8	22.3	0.00e+00	0	43	0	1108344832	42	4241
2026-01-09 02:31:56.56	353.32	29.71	-35.3	-37.0	22.2	0.00e+00	0	43	0	1112539136	42	4294
2026-01-09 02:31:57.71	353.11	29.89	-35.3	-37.0	22.2	0.00e+00	0	43	0	1118830592	42	4307
2026-01-09 02:31:58.57	352.94	30.03	-35.4	-37.1	22.1	0.00e+00	0	43	0	1124073472	42	4351
2026-01-09 02:31:59.72	352.73	30.21	-35.5	-37.2	22.0	0.00e+00	0	43	0	1130364928	42	4405
2026-01-09 02:32:00.72	352.53	30.37	-35.5	-37.2	22.0	0.00e+00	0	43	0	1135607808	42	4436
2026-01-09 02:32:01.90	352.30	30.56	-35.5	-37.2	22.0	0.00e+00	0	43	0	1142947840	42	4440
2026-01-09 02:32:02.76	352.13	30.70	-35.5	-37.2	22.0	0.00e+00	0	43	0	1147142144	42	4428
2026-01-09 02:32:04.12	351.86	30.92	-35.5	-37.2	22.0	0.00e+00	0	43	0	1155530752	42	4417
2026-01-09 02:32:04.83	351.72	31.04	-35.6	-37.3	21.9	0.00e+00	0	43	0	1159725056	42	4461
2026-01-09 02:32:06.12	351.46	31.25	-35.4	-37.1	22.1	0.00e+00	0	43	0	1166016512	42	4345
2026-01-09 02:32:06.84	351.31	31.36	-35.3	-37.0	22.2	0.00e+00	0	43	0	1170210816	42	4317
2026-01-09 02:32:08.13	351.05	31.57	-35.0	-36.7	22.5	0.00e+00	0	43	0	1177550848	42	4152
2026-01-09 02:32:08.84	350.90	31.69	-35.1	-36.7	22.4	0.00e+00	0	43	0	1181745152	42	4193
2026-01-09 02:32:10.14	350.62	31.91	-35.1	-36.8	22.4	0.00e+00	0	43	0	1189085184	42	4215
2026-01-09 02:32:10.99	350.44	32.05	-35.1	-36.8	22.4	0.00e+00	0	43	0	1194328064	42	4210
2026-01-09 02:32:12.14	350.19	32.24	-35.1	-36.9	22.2	0.00e+00	0	43	0	1200619520	42	4248
2026-01-09 02:32:13.00	350.01	32.38	-35.1	-36.8	22.3	0.00e+00	0	43	0	1204813824	42	4227
2026-01-09 02:32:14.15	349.75	32.57	-35.2	-36.9	22.3	0.00e+00	0	43	0	1211105280	42	4262
2026-01-09 02:32:15.01	349.56	32.72	-35.1	-36.8	19.7	0.00e+00	0	43	0	1216348160	42	4223
2026-01-09 02:32:16.16	349.30	32.91	-35.1	-36.8	22.4	0.00e+00	0	43	0	1222639616	42	4210
2026-01-09 02:32:17.01	349.11	33.05	-35.4	-37.1	22.1	0.00e+00	0	43	0	1227882496	42	4358
2026-01-09 02:32:18.16	348.84	33.24	-34.9	-36.6	22.5	0.00e+00	0	43	0	1234173952	41	4345
2026-01-09 02:32:19.02	348.64	33.39	-34.8	-36.5	22.6	0.00e+00	0	43	0	1239416832	41	4333
2026-01-09 02:32:20.17	348.37	33.58	-34.8	-36.4	22.7	0.00e+00	0	43	0	1245708288	41	4287
2026-01-09 02:32:21.03	348.17	33.73	-34.6	-36.3	22.8	0.00e+00	0	43	0	1250951168	41	4201
2026-01-09 02:32:22.18	347.89	33.93	-34.7	-36.4	22.7	0.00e+00	0	43	0	1256194048	41	4285
2026-01-09 02:32:23.15	347.66	34.09	-34.7	-36.4	22.7	0.00e+00	0	43	0	1262485504	41	4265
2026-01-09 02:32:24.15	347.41	34.26	-34.7	-36.4	22.7	0.00e+00	0	43	0	1267728384	41	4272
2026-01-09 02:32:25.16	347.16	34.44	-34.7	-36.4	22.7	0.00e+00	0	43	0	1274019840	41	4251
2026-01-09 02:32:26.16	346.91	34.61	-34.7	-36.4	22.7	0.00e+00	0	43	0	1279262720	41	4272
2026-01-09 02:32:27.16	346.66	34.78	-34.7	-36.4	22.7	0.00e+00	0	43	0	1284505600	41	4269
2026-01-09 02:32:28.17	346.40	34.95	-34.9	-36.6	22.5	0.00e+00	0	43	0	1290797056	41	4367
2026-01-09 02:32:29.17	346.14	35.12	-35.2	-36.9	22.2	0.00e+00	0	43	0	1296039936	41	4533
2026-01-09 02:32:30.18	345.88	35.30	-35.3	-37.0	22.2	0.00e+00	0	43	0	1301282816	41	4560
2026-01-09 02:32:31.18	345.61	35.47	-35.1	-36.8	22.3	0.00e+00	0	43	0	1307574272	41	4478
2026-01-09 02:32:32.18	345.35	35.65	-35.0	-36.6	22.5	0.00e+00	0	43	0	1312817152	41	4389
2026-01-09 02:32:33.18	345.08	35.82	-34.9	-36.6	22.5	0.00e+00	0	43	0	1319108608	41	4369
2026-01-09 02:32:34.19	344.80	35.99	-34.8	-36.5	22.7	0.00e+00	0	43	0	1324351488	41	4298
2026-01-09 02:32:35.19	344.52	36.17	-34.7	-36.4	22.7	0.00e+00	0	43	0	1329594368	41	4276
2026-01-09 02:32:36.19	344.25	36.34	-34.6	-36.3	22.8	0.00e+00	0	43	0	1335885824	41	4202
2026-01-09 02:32:37.28	343.94	36.53	-34.5	-36.2	22.9	0.00e+00	0	43	0	1341128704	41	4158
2026-01-09 02:32:38.13	343.70	36.68	-34.6	-36.2	22.9	0.00e+00	0	43	0	1346371584	41	4192
2026-01-09 02:32:39.49	343.30	36.92	-34.7	-36.4	22.7	0.00e+00	0	43	0	1353711616	41	4276
2026-01-09 02:32:40.21	343.09	37.04	-34.8	-36.5	22.6	0.00e+00	0	43	0	1357905920	41	4328
2026-01-09 02:32:41.49	342.72	37.27	-34.8	-36.5	22.7	0.00e+00	0	43	0	1365245952	41	4302
2026-01-09 02:32:42.21	342.50	37.39	-34.8	-36.4	22.7	0.00e+00	0	43	0	1369440256	41	4283
2026-01-09 02:32:43.77	342.03	37.66	-34.8	-36.4	22.6	0.00e+00	0	43	0	1377828864	41	4291
2026-01-09 02:32:44.48	341.81	37.79	-34.7	-36.4	22.7	0.00e+00	0	43	0	1382023168	41	4279
2026-01-09 02:32:45.77	341.42	38.01	-34.8	-36.5	22.6	0.00e+00	0	43	0	1389363200	41	4318
2026-01-09 02:32:46.49	341.19	38.14	-34.8	-36.5	22.6	0.00e+00	0	43	0	1393557504	41	4308
2026-01-09 02:32:47.78	340.78	38.36	-34.8	-36.4	22.7	0.00e+00	0	43	0	1400897536	41	4291
2026-01-09 02:32:48.49	340.56	38.49	-34.7	-36.4	22.7	0.00e+00	0	43	0	1405091840	41	4261
2026-01-09 02:32:49.78	340.14	38.71	-34.6	-36.3	22.8	0.00e+00	0	43	0	1412431872	41	4205
2026-01-09 02:32:50.50	339.91	38.84	-34.7	-36.4	22.7	0.00e+00	0	43	0	1415577600	41	4261
2026-01-09 02:32:51.79	339.48	39.06	-34.7	-36.3	22.8	0.00e+00	0	43	0	1422917632	41	4225
2026-01-09 02:32:52.51	339.24	39.19	-34.6	-36.3	22.8	0.00e+00	0	43	0	1427111936	41	4199
2026-01-09 02:32:53.80	338.81	39.41	-34.7	-36.4	22.8	0.00e+00	0	43	0	1434451968	41	4248
2026-01-09 02:32:54.52	338.56	39.53	-34.9	-36.5	22.6	0.00e+00	0	43	0	1438646272	41	4328
2026-01-09 02:32:55.80	338.12	39.76	-35.0	-36.7	22.5	0.00e+00	0	43	0	1445986304	41	4404
2026-01-09 02:32:56.52	337.87	39.88	-35.0	-36.7	22.5	0.00e+00	0	43	0	1450180608	41	4392
2026-01-09 02:32:57.81	337.42	40.10	-35.0	-36.7	22.4	0.00e+00	0	43	0	1457520640	41	4438
2026-01-09 02:32:58.53	337.16	40.22	-35.0	-36.7	22.5	0.00e+00	0	43	0	1460666368	41	4404
2026-01-09 02:32:59.82	336.70	40.45	-35.0	-36.7	22.4	0.00e+00	0	43	0	1468006400	41	4412
2026-01-09 02:33:00.53	336.44	40.57	-35.1	-36.8	22.4	0.00e+00	0	43	0	1472200704	41	4446
2026-01-09 02:33:01.82	335.96	40.79	-35.0	-36.7	22.5	0.00e+00	0	43	0	1479540736	41	4392
2026-01-09 02:33:02.54	335.70	40.91	-35.0	-36.7	22.4	0.00e+00	0	43	0	1483735040	41	4409
2026-01-09 02:33:03.83	335.21	41.13	-35.2	-36.9	22.3	0.00e+00	0	43	0	1491075072	41	4498
2026-01-09 02:33:04.58	334.93	41.25	-35.1	-36.9	22.3	0.00e+00	0	43	0	1495269376	41	4496
2026-01-09 02:33:05.87	334.43	41.47	-35.1	-36.8	22.3	0.00e+00	0	43	0	1502609408	41	4490
2026-01-09 02:33:06.59	334.16	41.59	-35.2	-36.9	22.3	0.00e+00	0	43	0	1506803712	41	4509
2026-01-09 02:33:07.87	333.66	41.80	-34.9	-36.7	22.5	0.00e+00	0	43	0	1514143744	41	4394
2026-01-09 02:33:08.59	333.37	41.92	-34.8	-36.5	22.6	0.00e+00	0	43	0	1518338048	41	4324
2026-01-09 02:33:09.88	332.86	42.13	-34.6	-36.3	22.8	0.00e+00	0	43	0	1524629504	41	4198
2026-01-09 02:33:10.59	332.57	42.25	-34.5	-36.1	23.0	0.00e+00	0	43	0	1528823808	40	4384
2026-01-09 02:33:11.88	332.04	42.46	-34.6	-36.3	22.8	0.00e+00	0	43	0	1536163840	40	4470
2026-01-09 02:33:12.59	331.75	42.58	-34.8	-36.4	22.7	0.00e+00	0	43	0	1540358144	40	4538
2026-01-09 02:33:13.88	331.21	42.78	-34.9	-36.6	22.5	0.00e+00	0	43	0	1547698176	40	4605
2026-01-09 02:33:14.60	330.91	42.90	-34.9	-36.6	22.5	0.00e+00	0	43	0	1551892480	40	4646
2026-01-09 02:33:16.04	330.30	43.13	-34.9	-36.6	22.5	0.00e+00	0	43	0	1560281088	40	4610
2026-01-09 02:33:16.75	329.99	43.24	-34.8	-36.5	22.6	0.00e+00	0	43	0	1563426816	40	4576
2026-01-09 02:33:18.11	329.40	43.45	-34.7	-36.4	22.8	0.00e+00	0	43	0	1571815424	40	4503
2026-01-09 02:33:19.08	328.98	43.60	-34.8	-36.5	22.6	0.00e+00	0	43	0	1577058304	40	4570
2026-01-09 02:33:20.08	328.53	43.76	-35.0	-36.7	22.5	0.00e+00	0	43	0	1582301184	40	4660
2026-01-09 02:33:21.09	328.08	43.91	-35.0	-36.7	22.5	0.00e+00	0	43	0	1588592640	40	4663
2026-01-09 02:33:22.09	327.63	44.06	-34.8	-36.4	22.7	0.00e+00	0	43	0	1593835520	40	4531
2026-01-09 02:33:23.09	327.18	44.21	-34.6	-36.3	22.8	0.00e+00	0	43	0	1599078400	40	4469
2026-01-09 02:33:24.09	326.71	44.36	-34.6	-36.3	22.8	0.00e+00	0	43	0	1605369856	40	4465
2026-01-09 02:33:25.09	326.25	44.51	-34.7	-36.4	22.7	0.00e+00	0	43	0	1610612736	40	4522
2026-01-09 02:33:26.14	325.76	44.66	-34.8	-36.5	22.6	0.00e+00	0	43	0	1616904192	40	4575
2026-01-09 02:33:27.07	325.32	44.79	-34.7	-36.4	22.7	0.00e+00	0	43	0	1622147072	40	4525
2026-01-09 02:33:28.07	324.84	44.93	-34.6	-36.2	22.8	0.00e+00	0	43	0	1627389952	40	4436
2026-01-09 02:33:29.07	324.36	45.07	-34.4	-36.1	23.0	0.00e+00	0	43	0	1632632832	40	4358
2026-01-09 02:33:30.07	323.87	45.21	-34.5	-36.1	23.0	0.00e+00	0	43	0	1638924288	40	4370
2026-01-09 02:33:31.07	323.38	45.35	-34.5	-36.2	22.9	0.00e+00	0	43	0	1644167168	40	4419
2026-01-09 02:33:32.07	322.89	45.48	-34.7	-36.3	22.8	0.00e+00	0	43	0	1649410048	40	4487
2026-01-09 02:33:33.08	322.38	45.62	-34.6	-36.2	22.9	0.00e+00	0	43	0	1655701504	40	4435
2026-01-09 02:33:34.08	321.88	45.75	-34.6	-36.3	22.8	0.00e+00	0	43	0	1660944384	40	4458
2026-01-09 02:33:35.09	321.37	45.88	-34.8	-36.4	22.7	0.00e+00	0	43	0	1667235840	40	4545
2026-01-09 02:33:36.09	320.86	46.00	-35.1	-36.8	22.3	0.00e+00	0	43	0	1672478720	40	4744
2026-01-09 02:33:37.09	320.34	46.13	-35.3	-37.0	22.1	0.00e+00	0	43	0	1677721600	41	4598
2026-01-09 02:33:38.09	319.82	46.25	-35.3	-37.0	22.2	0.00e+00	0	43	0	1684013056	41	4574
2026-01-09 02:33:39.10	319.29	46.37	-35.0	-36.7	22.4	0.00e+00	0	43	0	1689255936	41	4418
2026-01-09 02:33:40.10	318.76	46.49	-35.0	-36.6	22.5	0.00e+00	0	43	0	1695547392	41	4390
2026-01-09 02:33:41.17	318.19	46.61	-35.2	-36.9	22.3	0.00e+00	0	43	0	1700790272	41	4521
2026-01-09 02:33:42.06	317.72	46.71	-35.6	-37.3	21.9	0.00e+00	0	43	0	1706033152	41	4723
2026-01-09 02:33:43.20	317.10	46.84	-35.4	-37.1	22.1	0.00e+00	0	43	0	1712324608	41	4606
2026-01-09 02:33:44.12	316.60	46.94	-35.3	-36.9	22.2	0.00e+00	0	43	0	1717567488	41	4545
2026-01-09 02:33:45.12	316.05	47.04	-35.4	-37.0	22.1	0.00e+00	0	43	0	1722810368	41	4597
2026-01-09 02:33:46.13	315.50	47.14	-35.4	-37.1	22.1	0.00e+00	0	43	0	1729101824	41	4627
2026-01-09 02:33:47.13	314.94	47.24	-35.5	-37.2	22.0	0.00e+00	0	43	0	1734344704	41	4675
2026-01-09 02:33:48.13	314.39	47.34	-35.4	-37.1	22.1	0.00e+00	0	43	0	1740636160	41	4619
2026-01-09 02:33:49.14	313.82	47.44	-35.2	-36.8	22.3	0.00e+00	0	43	0	1745879040	41	4486
2026-01-09 02:33:50.14	313.25	47.53	-35.2	-36.8	22.3	0.00e+00	0	43	0	1751121920	41	4492
2026-01-09 02:33:51.14	312.69	47.62	-35.3	-37.0	22.2	0.00e+00	0	43	0	1757413376	41	4548
2026-01-09 02:33:52.15	312.11	47.70	-35.5	-37.2	22.0	0.00e+00	0	43	0	1762656256	41	4657
2026-01-09 02:33:53.15	311.53	47.78	-35.7	-37.5	21.8	0.00e+00	0	43	0	1768947712	42	4546
2026-01-09 02:33:54.15	310.96	47.86	-35.7	-37.5	21.8	0.00e+00	0	43	0	1774190592	42	4562
2026-01-09 02:33:55.19	310.35	47.94	-35.7	-37.5	21.8	0.00e+00	0	43	0	1780482048	42	4547
2026-01-09 02:33:56.18	309.78	48.02	-35.6	-37.3	21.9	0.00e+00	0	43	0	1785724928	42	4463
2026-01-09 02:33:57.25	309.15	48.09	-35.5	-37.2	22.1	0.00e+00	0	43	0	1792016384	42	4398
2026-01-09 02:33:58.14	308.62	48.15	-35.5	-37.2	22.1	0.00e+00	0	43	0	1796210688	42	4419
2026-01-09 02:33:59.28	307.95	48.22	-35.7	-37.4	21.9	0.00e+00	0	43	0	1803550720	42	4540
2026-01-09 02:34:00.21	307.40	48.28	-35.4	-37.1	22.1	0.00e+00	0	43	0	1807745024	42	4386
2026-01-09 02:34:01.39	306.69	48.35	-35.3	-37.0	22.2	0.00e+00	0	43	0	1815085056	42	4301
2026-01-09 02:34:02.25	306.18	48.39	-35.4	-37.1	22.1	0.00e+00	0	43	0	1819279360	42	4366
2026-01-09 02:34:03.60	305.37	48.46	-35.3	-37.0	22.2	0.00e+00	0	43	0	1827667968	42	4306
2026-01-09 02:34:04.32	304.93	48.49	-35.2	-36.9	22.3	0.00e+00	0	43	0	1830813696	42	4265
2026-01-09 02:34:05.61	304.15	48.55	-35.1	-36.8	22.4	0.00e+00	0	43	0	1838153728	42	4202
2026-01-09 02:34:06.32	303.72	48.58	-35.0	-36.7	22.5	0.00e+00	0	43	0	1842348032	42	4182
2026-01-09 02:34:07.61	302.94	48.62	-35.2	-36.9	22.3	0.00e+00	0	43	0	1849688064	42	4244
2026-01-09 02:34:08.33	302.50	48.65	-35.1	-36.7	22.4	0.00e+00	0	43	0	1853882368	42	4183
2026-01-09 02:34:09.62	301.71	48.69	-35.3	-37.0	22.2	0.00e+00	0	43	0	1861222400	42	4334
2026-01-09 02:34:10.34	301.27	48.70	-35.5	-37.2	22.0	0.00e+00	0	43	0	1865416704	42	4426
2026-01-09 02:34:11.63	300.48	48.73	-35.2	-36.9	22.3	0.00e+00	0	43	0	1872756736	42	4251
2026-01-09 02:34:12.35	300.04	48.75	-35.4	-37.1	22.1	0.00e+00	0	43	0	1876951040	42	4353
2026-01-09 02:34:13.64	299.25	48.77	-35.2	-36.9	22.3	0.00e+00	0	43	0	1884291072	42	4279
2026-01-09 02:34:14.35	298.81	48.77	-35.5	-37.2	22.0	0.00e+00	0	43	0	1887436800	42	4436
2026-01-09 02:34:15.69	297.99	48.78	-35.5	-37.2	22.1	0.00e+00	0	43	0	1895825408	42	4415
2026-01-09 02:34:16.66	297.39	48.79	-35.5	-37.2	22.0	0.00e+00	0	43	0	1901068288	42	4402
2026-01-09 02:34:17.96	296.59	48.79	-35.4	-37.1	22.1	0.00e+00	0	43	0	1908408320	42	4350
2026-01-09 02:34:18.71	296.13	48.79	-35.4	-37.1	22.1	0.00e+00	0	43	0	1912602624	42	4371
2026-01-09 02:34:20.00	295.34	48.78	-35.5	-37.3	22.0	0.00e+00	0	43	0	1919942656	42	4451
2026-01-09 02:34:20.72	294.90	48.77	-35.5	-37.2	22.0	0.00e+00	0	43	0	1923088384	42	4406
2026-01-09 02:34:22.01	294.10	48.75	-35.0	-36.6	22.5	0.00e+00	0	43	0	1930428416	42	4135
2026-01-09 02:34:22.72	293.67	48.74	-35.0	-36.6	22.5	0.00e+00	0	43	0	1934622720	41	4384
2026-01-09 02:34:24.01	292.88	48.71	-35.3	-37.0	22.2	0.00e+00	0	43	0	1941962752	41	4588
2026-01-09 02:34:24.73	292.44	48.69	-35.4	-37.1	22.1	0.00e+00	0	43	0	1946157056	41	4631
2026-01-09 02:34:26.02	291.65	48.65	-35.4	-37.0	22.1	0.00e+00	0	43	0	1953497088	41	4591
2026-01-09 02:34:26.74	291.21	48.63	-35.5	-37.2	22.0	0.00e+00	0	43	0	1957691392	41	4680
2026-01-09 02:34:28.07	290.40	48.58	-35.4	-37.1	22.1	0.00e+00	0	43	0	1965031424	41	4618
2026-01-09 02:34:29.06	289.80	48.54	-35.2	-36.9	22.3	0.00e+00	0	43	0	1970274304	41	4496
2026-01-09 02:34:30.38	289.00	48.48	-35.5	-37.2	22.0	0.00e+00	0	43	0	1977614336	41	4682
2026-01-09 02:34:31.10	288.57	48.45	-35.5	-37.2	22.0	0.00e+00	0	43	0	1981808640	41	4692
2026-01-09 02:34:32.74	287.58	48.37	-35.2	-36.9	22.3	0.00e+00	0	43	0	1991245824	41	4507
2026-01-09 02:34:33.31	287.24	48.33	-35.2	-36.8	22.4	0.00e+00	0	43	0	1994391552	41	4481
2026-01-09 02:34:34.90	286.30	48.24	-35.0	-36.6	22.5	0.00e+00	0	43	0	2003828736	41	4373
2026-01-09 02:34:35.47	285.96	48.21	-34.9	-36.6	22.5	0.00e+00	0	43	0	2005925888	41	4368
2026-01-09 02:34:37.05	285.02	48.10	-35.0	-36.7	22.5	0.00e+00	0	43	0	2015363072	41	4405
2026-01-09 02:34:37.65	284.67	48.06	-35.0	-36.7	22.5	0.00e+00	0	43	0	2018508800	41	4403
2026-01-09 02:34:39.23	283.75	47.95	-35.1	-36.8	22.3	0.00e+00	0	43	0	2027945984	41	4456
2026-01-09 02:34:39.81	283.41	47.90	-35.1	-36.8	22.4	0.00e+00	0	43	0	2031091712	41	4461
2026-01-09 02:34:41.40	282.49	47.78	-35.3	-36.9	22.2	0.00e+00	0	43	0	2039480320	41	4545
2026-01-09 02:34:41.97	282.16	47.73	-35.4	-37.1	22.1	0.00e+00	0	43	0	2042626048	41	4602
2026-01-09 02:34:43.57	281.25	47.59	-35.5	-37.2	22.0	0.00e+00	0	43	0	2052063232	42	4415
2026-01-09 02:34:44.16	280.91	47.54	-35.7	-37.4	21.9	0.00e+00	0	43	0	2055208960	42	4507
2026-01-09 02:34:45.73	280.02	47.40	-35.5	-37.2	22.0	0.00e+00	0	43	0	2064646144	42	4420
2026-01-09 02:34:46.31	279.70	47.34	-35.4	-37.1	22.1	0.00e+00	0	43	0	2067791872	42	4360
2026-01-09 02:34:48.05	278.73	47.17	-35.0	-36.7	22.5	0.00e+00	0	43	0	2077229056	41	4394
2026-01-09 02:34:48.63	278.41	47.11	-34.9	-36.6	22.6	0.00e+00	0	43	0	2080374784	41	4354
2026-01-09 02:34:50.20	277.54	46.95	-34.7	-36.4	22.8	0.00e+00	0	43	0	2089811968	41	4262
2026-01-09 02:34:50.79	277.22	46.89	-34.8	-36.5	22.7	0.00e+00	0	43	0	2092957696	41	4298
2026-01-09 02:34:52.37	276.36	46.71	-34.6	-36.3	22.9	0.00e+00	0	43	0	2101346304	41	4209
2026-01-09 02:34:52.97	276.04	46.65	-34.6	-36.2	22.9	0.00e+00	0	43	0	2104492032	41	4182
2026-01-09 02:34:54.55	275.20	46.46	-34.9	-36.6	22.6	0.00e+00	0	43	0	2113929216	41	4362
2026-01-09 02:34:55.12	274.90	46.40	-35.2	-36.9	22.3	0.00e+00	0	43	0	2117074944	41	4536
2026-01-09 02:34:56.73	274.05	46.20	-35.2	-36.8	22.3	0.00e+00	0	43	0	2125463552	41	4486
2026-01-09 02:34:57.30	273.76	46.13	-35.0	-36.6	22.5	0.00e+00	0	43	0	2129657856	41	4371
2026-01-09 02:34:58.96	272.90	45.93	-35.2	-36.9	22.3	0.00e+00	0	43	0	2139095040	41	4494
2026-01-09 02:34:59.53	272.61	45.85	-35.1	-36.8	22.4	0.00e+00	0	43	0	2142240768	41	4461
2026-01-09 02:35:01.11	271.81	45.65	-35.2	-36.9	22.3	0.00e+00	0	43	0	2150629376	41	4518
2026-01-09 02:35:02.19	271.27	45.50	-34.6	-36.3	22.8	0.00e+00	0	43	0	2156920832	41	4205
2026-01-09 02:35:03.05	270.84	45.39	-34.4	-36.1	23.0	0.00e+00	0	43	0	2162163712	40	4348
2026-01-09 02:35:04.20	270.27	45.23	-34.5	-36.2	22.9	0.00e+00	0	43	0	2168455168	40	4401
2026-01-09 02:35:05.05	269.86	45.12	-34.4	-36.1	23.0	0.00e+00	0	43	0	2172649472	40	4354
2026-01-09 02:35:06.20	269.30	44.95	-34.5	-36.1	23.0	0.00e+00	0	43	0	2178940928	40	4372
2026-01-09 02:35:07.11	268.87	44.83	-34.5	-36.1	22.9	0.00e+00	0	43	0	2184183808	40	4373
2026-01-09 02:35:08.29	268.31	44.66	-34.5	-36.1	23.0	0.00e+00	0	43	0	2191523840	40	4390
2026-01-09 02:35:09.15	267.90	44.53	-34.6	-36.2	22.9	0.00e+00	0	43	0	2195718144	40	4415
2026-01-09 02:35:10.49	267.28	44.33	-34.6	-36.2	22.9	0.00e+00	0	43	0	2204106752	40	4422
2026-01-09 02:35:11.20	266.95	44.23	-34.7	-36.4	22.7	0.00e+00	0	43	0	2207252480	40	4503
2026-01-09 02:35:12.49	266.36	44.03	-34.7	-36.3	22.8	0.00e+00	0	43	0	2214592512	40	4488
2026-01-09 02:35:13.21	266.03	43.93	-34.6	-36.2	22.8	0.00e+00	0	43	0	2218786816	40	4440
2026-01-09 02:35:14.50	265.45	43.73	-34.7	-36.3	22.7	0.00e+00	0	43	0	2226126848	40	4493
2026-01-09 02:35:15.21	265.14	43.62	-34.6	-36.2	22.9	0.00e+00	0	43	0	2230321152	40	4415
2026-01-09 02:35:16.50	264.57	43.42	-34.3	-36.0	23.1	0.00e+00	0	43	0	2237661184	40	4297
2026-01-09 02:35:17.22	264.26	43.31	-34.4	-36.1	23.0	0.00e+00	0	43	0	2240806912	40	4346
2026-01-09 02:35:18.51	263.70	43.10	-34.3	-35.9	23.1	0.00e+00	0	43	0	2248146944	40	4291
2026-01-09 02:35:19.23	263.39	42.99	-34.2	-35.9	23.1	0.00e+00	0	43	0	2252341248	40	4263
2026-01-09 02:35:20.55	262.83	42.78	-34.2	-35.8	23.2	0.00e+00	0	43	0	2259681280	40	4231
2026-01-09 02:35:21.27	262.53	42.66	-34.2	-35.9	23.2	0.00e+00	0	43	0	2263875584	40	4244
2026-01-09 02:35:22.56	262.00	42.45	-34.4	-36.0	23.0	0.00e+00	0	43	0	2271215616	40	4338
2026-01-09 02:35:23.27	261.71	42.33	-34.6	-36.2	22.9	0.00e+00	0	43	0	2275409920	40	4420
2026-01-09 02:35:24.68	261.13	42.10	-34.2	-35.8	23.2	0.00e+00	0	43	0	2282749952	40	4234
2026-01-09 02:35:25.39	260.85	41.98	-34.1	-35.7	23.3	0.00e+00	0	43	0	2286944256	40	4181
2026-01-09 02:35:26.80	260.29	41.75	-34.4	-36.0	23.2	0.00e+00	0	43	0	2295332864	40	4332
2026-01-09 02:35:27.51	260.01	41.63	-34.1	-35.8	23.3	0.00e+00	0	43	0	2299527168	40	4194
2026-01-09 02:35:28.80	259.51	41.42	-34.2	-35.8	23.2	0.00e+00	0	43	0	2306867200	40	4234
2026-01-09 02:35:29.52	259.23	41.29	-34.2	-35.8	23.2	0.00e+00	0	43	0	2310012928	40	4233
2026-01-09 02:35:30.81	258.74	41.08	-34.5	-36.1	22.9	0.00e+00	0	43	0	2317352960	40	4389
2026-01-09 02:35:31.53	258.47	40.95	-34.7	-36.4	22.7	0.00e+00	0	43	0	2321547264	40	4498
2026-01-09 02:35:32.82	257.99	40.73	-34.6	-36.2	22.9	0.00e+00	0	43	0	2328887296	40	4432
2026-01-09 02:35:33.54	257.72	40.61	-34.7	-36.4	22.7	0.00e+00	0	43	0	2333081600	40	4511
2026-01-09 02:35:34.82	257.26	40.39	-35.2	-36.9	22.2	0.00e+00	0	43	0	2340421632	41	4545
2026-01-09 02:35:35.59	256.98	40.26	-35.5	-37.2	22.0	0.00e+00	0	43	0	2344615936	41	4665
2026-01-09 02:35:37.20	256.41	39.98	-34.5	-36.2	22.9	0.00e+00	0	43	0	2354053120	41	4158
2026-01-09 02:35:38.03	256.11	39.84	-34.5	-36.1	22.9	0.00e+00	0	43	0	2358247424	40	4371
2026-01-09 02:35:39.17	255.72	39.64	-34.5	-36.1	22.9	0.00e+00	0	43	0	2364538880	40	4381
2026-01-09 02:35:40.04	255.42	39.49	-34.5	-36.2	22.9	0.00e+00	0	43	0	2369781760	40	4392
2026-01-09 02:35:41.18	255.03	39.29	-34.6	-36.3	22.8	0.00e+00	0	43	0	2376073216	40	4445
2026-01-09 02:35:42.04	254.74	39.14	-34.6	-36.3	22.8	0.00e+00	0	43	0	2381316096	40	4466
2026-01-09 02:35:43.19	254.36	38.94	-34.6	-36.3	22.8	0.00e+00	0	43	0	2387607552	40	4463
2026-01-09 02:35:44.05	254.07	38.79	-34.7	-36.4	22.7	0.00e+00	0	43	0	2391801856	40	4526
2026-01-09 02:35:45.19	253.70	38.59	-34.7	-36.4	22.8	0.00e+00	0	43	0	2399141888	40	4495
2026-01-09 02:35:46.06	253.42	38.44	-34.7	-36.3	22.8	0.00e+00	0	43	0	2403336192	40	4470
2026-01-09 02:35:47.20	253.06	38.24	-34.7	-36.4	22.8	0.00e+00	0	43	0	2409627648	40	4502
2026-01-09 02:35:48.06	252.78	38.09	-34.8	-36.4	22.7	0.00e+00	0	43	0	2414870528	40	4540
2026-01-09 02:35:49.21	252.43	37.89	-34.7	-36.3	22.8	0.00e+00	0	43	0	2421161984	40	4485
2026-01-09 02:35:50.07	252.16	37.74	-34.4	-36.1	23.0	0.00e+00	0	43	0	2426404864	40	4365
2026-01-09 02:35:51.22	251.81	37.54	-34.4	-36.1	23.0	0.00e+00	0	43	0	2432696320	40	4351
2026-01-09 02:35:52.08	251.55	37.39	-34.4	-36.0	23.1	0.00e+00	0	43	0	2436890624	40	4317
2026-01-09 02:35:53.22	251.21	37.19	-34.6	-36.3	23.0	0.00e+00	0	43	0	2444230656	40	4460
2026-01-09 02:35:54.08	250.95	37.03	-34.6	-36.3	23.0	0.00e+00	0	43	0	2448424960	40	4465
2026-01-09 02:35:55.31	250.59	36.82	-34.5	-36.1	23.0	0.00e+00	0	43	0	2455764992	40	4391
2026-01-09 02:35:56.16	250.35	36.67	-34.7	-36.4	23.0	0.00e+00	0	43	0	2459959296	40	4500
2026-01-09 02:35:57.31	250.02	36.47	-34.4	-36.1	23.1	0.00e+00	0	43	0	2467299328	40	4347
2026-01-09 02:35:58.17	249.77	36.32	-34.3	-35.9	23.3	0.00e+00	0	43	0	2471493632	40	4278
2026-01-09 02:35:59.44	249.42	36.10	-34.3	-35.9	23.2	0.00e+00	0	43	0	2478833664	40	4271
2026-01-09 02:36:00.16	249.22	35.97	-34.1	-35.7	23.3	0.00e+00	0	43	0	2483027968	40	4185
2026-01-09 02:36:01.66	248.81	35.71	-34.7	-36.3	22.9	0.00e+00	0	43	0	2491416576	40	4482
2026-01-09 02:36:02.37	248.62	35.59	-34.4	-36.0	23.1	0.00e+00	0	43	0	2495610880	40	4326
2026-01-09 02:36:03.66	248.27	35.36	-34.5	-36.1	23.0	0.00e+00	0	43	0	2502950912	40	4380
2026-01-09 02:36:04.38	248.08	35.24	-34.7	-36.3	22.8	0.00e+00	0	43	0	2506096640	40	4478
2026-01-09 02:36:05.80	247.71	34.99	-34.5	-36.2	22.9	0.00e+00	0	43	0	2514485248	40	4410
2026-01-09 02:36:06.51	247.53	34.87	-34.5	-36.1	23.0	0.00e+00	0	43	0	2518679552	40	4365
2026-01-09 02:36:07.85	247.18	34.64	-34.3	-35.9	23.1	0.00e+00	0	43	0	2526019584	40	4289
2026-01-09 02:36:08.57	247.00	34.51	-34.7	-36.3	22.8	0.00e+00	0	43	0	2530213888	40	4468
2026-01-09 02:36:09.86	246.68	34.29	-34.8	-36.5	22.6	0.00e+00	0	43	0	2537553920	40	4553
2026-01-09 02:36:10.58	246.50	34.17	-34.4	-36.1	23.0	0.00e+00	0	43	0	2541748224	40	4345
2026-01-09 02:36:11.87	246.19	33.95	-34.6	-36.3	22.8	0.00e+00	0	43	0	2549088256	40	4450
2026-01-09 02:36:12.58	246.01	33.82	-34.4	-36.1	23.0	0.00e+00	0	43	0	2553282560	40	4354
2026-01-09 02:36:13.87	245.70	33.60	-34.9	-36.5	22.6	0.00e+00	0	43	0	2559574016	41	4339
2026-01-09 02:36:14.59	245.53	33.48	-34.9	-36.6	22.7	0.00e+00	0	43	0	2563768320	40	4624
2026-01-09 02:36:15.88	245.23	33.26	-34.6	-36.3	23.0	0.00e+00	0	43	0	2571108352	40	4469
2026-01-09 02:36:16.59	245.06	33.14	-34.7	-36.4	22.9	0.00e+00	0	43	0	2575302656	40	4518
2026-01-09 02:36:17.88	244.77	32.92	-34.5	-36.1	23.0	0.00e+00	0	43	0	2582642688	40	4388
2026-01-09 02:36:18.60	244.60	32.80	-34.5	-36.1	23.0	0.00e+00	0	43	0	2586836992	40	4379
2026-01-09 02:36:19.89	244.31	32.58	-34.5	-36.1	23.0	0.00e+00	0	43	0	2594177024	40	4368
2026-01-09 02:36:20.60	244.16	32.47	-34.4	-36.0	23.1	0.00e+00	0	43	0	2598371328	40	4314
2026-01-09 02:36:21.89	243.87	32.25	-34.4	-36.0	23.0	0.00e+00	0	43	0	2605711360	40	4320
2026-01-09 02:36:22.61	243.71	32.13	-34.5	-36.1	22.9	0.00e+00	0	43	0	2608857088	40	4391
2026-01-09 02:36:23.90	243.44	31.91	-34.5	-36.2	22.9	0.00e+00	0	43	0	2616197120	40	4405
2026-01-09 02:36:24.62	243.28	31.80	-34.6	-36.2	22.9	0.00e+00	0	43	0	2620391424	40	4439
2026-01-09 02:36:26.14	242.96	31.54	-34.5	-36.2	22.9	0.00e+00	0	43	0	2628780032	40	4409
2026-01-09 02:36:26.86	242.81	31.43	-35.0	-36.7	22.5	0.00e+00	0	43	0	2632974336	40	4673
2026-01-09 02:36:28.21	242.53	31.20	-34.6	-36.2	22.9	0.00e+00	0	43	0	2640314368	40	4415
2026-01-09 02:36:28.93	242.38	31.09	-34.4	-36.0	23.0	0.00e+00	0	43	0	2644508672	40	4334
2026-01-09 02:36:30.30	242.11	30.86	-34.4	-36.0	23.0	0.00e+00	0	43	0	2652897280	40	4333
2026-01-09 02:36:31.02	241.96	30.74	-34.4	-36.0	23.0	0.00e+00	0	43	0	2656043008	40	4319
2026-01-09 02:36:32.30	241.71	30.54	-34.4	-36.1	22.9	0.00e+00	0	43	0	2663383040	40	4370
2026-01-09 02:36:33.02	241.57	30.42	-34.5	-36.1	22.9	0.00e+00	0	43	0	2667577344	40	4383
2026-01-09 02:36:34.30	241.32	30.21	-34.5	-36.1	22.9	0.00e+00	0	43	0	2674917376	40	4371
2026-01-09 02:36:35.02	241.18	30.10	-34.5	-36.1	22.9	0.00e+00	0	43	0	2679111680	40	4380
2026-01-09 02:36:36.31	240.93	29.89	-34.5	-36.2	22.8	0.00e+00	0	43	0	2686451712	40	4407
2026-01-09 02:36:37.03	240.80	29.78	-34.6	-36.3	22.7	0.00e+00	0	43	0	2690646016	40	4460
2026-01-09 02:36:38.32	240.56	29.57	-34.7	-36.4	22.7	0.00e+00	0	43	0	2696937472	40	4495
2026-01-09 02:36:39.03	240.43	29.46	-34.9	-36.6	22.5	0.00e+00	0	43	0	2702180352	40	4614
2026-01-09 02:36:40.32	240.19	29.26	-35.1	-36.8	22.3	0.00e+00	0	43	0	2708471808	41	4448
2026-01-09 02:36:41.04	240.06	29.14	-35.1	-36.8	22.3	0.00e+00	0	43	0	2712666112	41	4462
2026-01-09 02:36:42.33	239.83	28.94	-35.1	-36.8	22.3	0.00e+00	0	43	0	2720006144	41	4454
2026-01-09 02:36:43.19	239.68	28.81	-35.1	-36.8	22.3	0.00e+00	0	43	0	2725249024	41	4461
2026-01-09 02:36:44.33	239.48	28.63	-35.1	-36.8	22.3	0.00e+00	0	43	0	2731540480	41	4462
2026-01-09 02:36:45.19	239.33	28.49	-35.1	-36.8	22.3	0.00e+00	0	43	0	2736783360	41	4478
2026-01-09 02:36:46.34	239.13	28.32	-35.6	-37.3	21.9	0.00e+00	0	43	0	2743074816	41	4713
2026-01-09 02:36:47.20	238.98	28.18	-35.2	-36.8	22.2	0.00e+00	0	43	0	2747269120	41	4483
2026-01-09 02:36:48.35	238.79	28.01	-35.2	-36.8	22.3	0.00e+00	0	43	0	2753560576	41	4492
2026-01-09 02:36:49.21	238.64	27.88	-35.2	-36.8	22.2	0.00e+00	0	43	0	2758803456	41	4492
2026-01-09 02:36:50.40	238.45	27.69	-34.9	-36.5	22.5	0.00e+00	0	43	0	2765094912	41	4337
2026-01-09 02:36:51.26	238.31	27.56	-34.8	-36.5	22.5	0.00e+00	0	43	0	2770337792	41	4313
2026-01-09 02:36:52.41	238.12	27.39	-34.9	-36.5	22.5	0.00e+00	0	43	0	2776629248	41	4339
2026-01-09 02:36:53.27	237.98	27.26	-34.9	-36.5	22.5	0.00e+00	0	43	0	2781872128	41	4336
2026-01-09 02:36:54.54	237.78	27.07	-34.8	-36.5	22.5	0.00e+00	0	43	0	2789212160	41	4319
2026-01-09 02:36:55.26	237.67	26.96	-34.9	-36.6	22.4	0.00e+00	0	43	0	2792357888	41	4354
2026-01-09 02:36:56.55	237.46	26.77	-35.0	-36.7	22.4	0.00e+00	0	43	0	2799697920	41	4401
2026-01-09 02:36:57.26	237.35	26.67	-35.0	-36.7	22.3	0.00e+00	0	43	0	2803892224	41	4430
2026-01-09 02:36:58.55	237.16	26.48	-35.1	-36.8	22.2	0.00e+00	0	43	0	2811232256	41	4481
2026-01-09 02:36:59.27	237.05	26.37	-35.2	-36.9	22.2	0.00e+00	0	43	0	2815426560	41	4509
2026-01-09 02:37:00.56	236.85	26.18	-35.1	-36.8	22.2	0.00e+00	0	43	0	2822766592	41	4475
2026-01-09 02:37:01.28	236.75	26.08	-35.2	-36.9	22.2	0.00e+00	0	43	0	2826960896	41	4508
2026-01-09 02:37:02.57	236.56	25.89	-35.2	-36.9	22.1	0.00e+00	0	43	0	2834300928	41	4513
2026-01-09 02:37:03.28	236.45	25.79	-35.2	-36.9	22.2	0.00e+00	0	43	0	2838495232	41	4511
2026-01-09 02:37:04.57	236.26	25.60	-35.2	-36.9	22.1	0.00e+00	0	43	0	2844786688	41	4524
2026-01-09 02:37:05.29	236.16	25.50	-35.2	-36.9	22.1	0.00e+00	0	43	0	2848980992	41	4530
2026-01-09 02:37:06.58	235.98	25.31	-34.9	-36.6	22.4	0.00e+00	0	43	0	2856321024	41	4373
2026-01-09 02:37:07.30	235.88	25.21	-35.0	-36.6	22.4	0.00e+00	0	43	0	2860515328	41	4385
2026-01-09 02:37:08.59	235.70	25.03	-34.9	-36.6	22.5	0.00e+00	0	43	0	2867855360	41	4345
2026-01-09 02:37:09.30	235.60	24.93	-34.8	-36.5	22.5	0.00e+00	0	43	0	2872049664	41	4319
2026-01-09 02:37:10.60	235.42	24.74	-34.9	-36.5	22.5	0.00e+00	0	43	0	2879389696	41	4332
2026-01-09 02:37:11.73	235.27	24.59	-34.9	-36.6	22.4	0.00e+00	0	43	0	2885681152	41	4369
2026-01-09 02:37:12.59	235.15	24.47	-35.0	-36.7	22.3	0.00e+00	0	43	0	2889875456	41	4408
2026-01-09 02:37:13.74	235.00	24.31	-35.0	-36.7	22.3	0.00e+00	0	43	0	2897215488	41	4430
2026-01-09 02:37:14.60	234.88	24.19	-35.1	-36.8	22.2	0.00e+00	0	43	0	2901409792	41	4487
2026-01-09 02:37:15.74	234.73	24.03	-35.2	-36.9	22.1	0.00e+00	0	43	0	2907701248	41	4530
2026-01-09 02:37:16.60	234.62	23.91	-35.1	-36.8	22.2	0.00e+00	0	43	0	2912944128	41	4454
2026-01-09 02:37:17.75	234.47	23.76	-35.2	-36.9	22.2	0.00e+00	0	43	0	2919235584	41	4494
2026-01-09 02:37:18.61	234.36	23.64	-35.1	-36.7	22.2	0.00e+00	0	43	0	2924478464	41	4440
2026-01-09 02:37:19.95	234.20	23.46	-35.1	-36.7	22.3	0.00e+00	0	43	0	2931818496	41	4429
2026-01-09 02:37:20.66	234.11	23.36	-35.1	-36.7	22.3	0.00e+00	0	43	0	2936012800	41	4437
2026-01-09 02:37:22.16	233.92	23.16	-35.2	-36.9	22.1	0.00e+00	0	43	0	2944401408	41	4510
2026-01-09 02:37:22.88	233.83	23.06	-35.3	-37.0	22.1	0.00e+00	0	43	0	2947547136	41	4552
2026-01-09 02:37:24.28	233.66	22.88	-35.3	-37.0	22.0	0.00e+00	0	43	0	2955935744	41	4591
2026-01-09 02:37:25.00	233.58	22.78	-35.5	-37.3	21.8	0.00e+00	0	43	0	2960130048	41	4706
2026-01-09 02:37:26.29	233.42	22.61	-35.5	-37.2	21.8	0.00e+00	0	43	0	2967470080	41	4681
2026-01-09 02:37:27.00	233.34	22.52	-35.6	-37.3	21.8	0.00e+00	0	43	0	2971664384	41	4721
2026-01-09 02:37:28.29	233.19	22.35	-35.5	-37.2	21.9	0.00e+00	0	43	0	2979004416	41	4675
2026-01-09 02:37:29.01	233.10	22.26	-35.4	-37.2	21.9	0.00e+00	0	43	0	2982150144	41	4667
2026-01-09 02:37:30.30	232.95	22.09	-35.4	-37.2	21.9	0.00e+00	0	43	0	2989490176	42	4400
2026-01-09 02:37:31.02	232.87	22.00	-35.5	-37.2	21.8	0.00e+00	0	43	0	2993684480	42	4424
2026-01-09 02:37:32.30	232.73	21.83	-35.5	-37.2	21.8	0.00e+00	0	43	0	3001024512	42	4410
2026-01-09 02:37:33.07	232.64	21.73	-35.9	-37.7	21.5	0.00e+00	0	43	0	3005218816	42	4654
2026-01-09 02:37:34.69	232.46	21.53	-35.6	-37.3	21.7	0.00e+00	0	43	0	3014656000	42	4460
2026-01-09 02:37:35.50	232.37	21.42	-35.6	-37.3	21.8	0.00e+00	0	43	0	3018850304	42	4451
2026-01-09 02:37:36.65	232.24	21.28	-35.7	-37.4	21.6	0.00e+00	0	43	0	3026190336	42	4513
2026-01-09 02:37:37.84	232.12	21.13	-35.7	-37.4	21.7	0.00e+00	0	43	0	3032481792	43	4254
2026-01-09 02:37:38.86	232.01	21.00	-36.3	-38.0	21.3	0.00e+00	0	43	0	3037724672	44	4313
2026-01-09 02:37:39.86	231.90	20.87	-36.1	-37.8	21.5	0.00e+00	0	43	0	3044016128	44	4220
2026-01-09 02:37:40.87	231.79	20.75	-37.0	-38.8	20.7	0.00e+00	0	43	0	3049259008	44	4706
2026-01-09 02:37:41.86	231.69	20.63	-37.2	-39.0	20.4	0.00e+00	0	43	0	3054501888	46	4335
2026-01-09 02:37:42.87	231.58	20.50	-36.2	-37.9	21.4	0.00e+00	0	43	0	3060793344	44	4262
2026-01-09 02:37:43.87	231.48	20.38	-36.6	-38.4	20.8	0.00e+00	0	43	0	3066036224	45	4253
2026-01-09 02:37:44.87	231.38	20.26	-37.0	-38.8	20.7	0.00e+00	0	43	0	3071279104	44	4729
2026-01-09 02:37:45.88	231.28	20.14	-36.6	-38.4	21.1	0.00e+00	0	43	0	3077570560	44	4504
2026-01-09 02:37:46.88	231.18	20.01	-36.7	-38.4	21.1	0.00e+00	0	43	0	3082813440	44	4540
2026-01-09 02:37:47.89	231.08	19.89	-36.4	-38.2	21.2	0.00e+00	0	43	0	3089104896	44	4403
2026-01-09 02:37:48.89	230.98	19.77	-36.2	-38.0	21.4	0.00e+00	0	43	0	3094347776	44	4295
2026-01-09 02:37:49.89	230.88	19.65	-36.4	-38.2	21.1	0.00e+00	0	43	0	3100639232	44	4410
2026-01-09 02:37:50.89	230.78	19.53	-36.3	-38.0	21.2	0.00e+00	0	43	0	3105882112	44	4329
2026-01-09 02:37:51.90	230.68	19.41	-36.3	-38.1	21.2	0.00e+00	0	43	0	3111124992	44	4341
2026-01-09 02:37:52.90	230.59	19.29	-36.2	-37.9	21.3	0.00e+00	0	43	0	3117416448	44	4283
2026-01-09 02:37:54.03	230.48	19.16	-36.2	-37.9	21.3	0.00e+00	0	43	0	3123707904	44	4284
2026-01-09 02:37:54.89	230.40	19.06	-36.6	-38.4	20.9	0.00e+00	0	43	0	3127902208	44	4509
2026-01-09 02:37:56.04	230.29	18.93	-36.4	-38.1	21.2	0.00e+00	0	43	0	3135242240	44	4366
2026-01-09 02:37:56.90	230.21	18.83	-36.4	-38.1	21.1	0.00e+00	0	43	0	3139436544	44	4378
2026-01-09 02:37:58.05	230.11	18.69	-36.5	-38.3	21.1	0.00e+00	0	43	0	3145728000	45	4202
2026-01-09 02:37:58.91	230.03	18.59	-37.7	-39.5	19.8	0.00e+00	0	43	0	3150970880	46	4565
2026-01-09 02:38:00.05	229.93	18.46	-36.9	-38.6	20.7	0.00e+00	0	43	0	3157262336	45	4388
2026-01-09 02:38:00.91	229.85	18.36	-36.6	-38.3	20.9	0.00e+00	0	43	0	3162505216	45	4240
2026-01-09 02:38:02.06	229.75	18.23	-36.6	-38.4	20.9	0.00e+00	0	43	0	3168796672	45	4261
2026-01-09 02:38:02.91	229.67	18.14	-36.6	-38.3	20.9	0.00e+00	0	43	0	3172990976	45	4229
2026-01-09 02:38:04.14	229.56	18.00	-36.8	-38.5	20.7	0.00e+00	0	43	0	3180331008	45	4327
2026-01-09 02:38:05.00	229.49	17.90	-36.8	-38.6	20.7	0.00e+00	0	43	0	3185573888	45	4341
2026-01-09 02:38:06.15	229.39	17.77	-36.7	-38.5	20.8	0.00e+00	0	43	0	3191865344	45	4318
2026-01-09 02:38:07.00	229.32	17.68	-36.7	-38.5	20.7	0.00e+00	0	43	0	3196059648	45	4326
2026-01-09 02:38:08.15	229.22	17.55	-36.8	-38.6	20.7	0.00e+00	0	43	0	3202351104	45	4360
2026-01-09 02:38:09.01	229.15	17.45	-36.8	-38.6	20.6	0.00e+00	0	43	0	3207593984	45	4379
2026-01-09 02:38:10.15	229.05	17.33	-36.9	-38.7	20.6	0.00e+00	0	43	0	3213885440	45	4400
2026-01-09 02:38:11.16	228.97	17.22	-36.9	-38.7	20.5	0.00e+00	0	43	0	3220176896	45	4437
2026-01-09 02:38:12.16	228.88	17.11	-37.1	-38.9	20.4	0.00e+00	0	43	0	3225419776	45	4521
2026-01-09 02:38:13.36	228.79	16.98	-37.6	-39.4	19.9	0.00e+00	0	43	0	3231711232	45	4794
2026-01-09 02:38:14.22	228.72	16.88	-37.1	-38.9	20.4	0.00e+00	0	43	0	3236954112	45	4522
2026-01-09 02:38:15.36	228.62	16.76	-37.3	-39.1	20.2	0.00e+00	0	43	0	3243245568	45	4624
2026-01-09 02:38:16.37	228.54	16.65	-37.4	-39.3	20.0	0.00e+00	0	43	0	3248488448	45	4707
2026-01-09 02:38:17.37	228.46	16.54	-37.3	-39.2	20.1	0.00e+00	0	43	0	3254779904	45	4653
2026-01-09 02:38:18.37	228.38	16.44	-37.4	-39.2	20.1	0.00e+00	0	43	0	3260022784	45	4672
2026-01-09 02:38:19.38	228.31	16.33	-37.2	-39.0	20.2	0.00e+00	0	43	0	3266314240	45	4558
2026-01-09 02:38:20.38	228.23	16.22	-37.1	-38.9	20.3	0.00e+00	0	43	0	3271557120	45	4537
2026-01-09 02:38:21.39	228.15	16.12	-37.1	-38.9	20.4	0.00e+00	0	43	0	3277848576	45	4530
2026-01-09 02:38:22.39	228.07	16.01	-37.1	-38.9	20.3	0.00e+00	0	43	0	3283091456	45	4538
2026-01-09 02:38:23.39	228.00	15.91	-37.3	-39.1	20.1	0.00e+00	0	43	0	3288334336	45	4641
2026-01-09 02:38:24.40	227.92	15.80	-37.3	-39.1	20.1	0.00e+00	0	43	0	3294625792	45	4638
2026-01-09 02:38:25.40	227.85	15.70	-37.3	-39.1	20.2	0.00e+00	0	43	0	3299868672	46	4382
2026-01-09 02:38:26.41	227.77	15.59	-37.6	-39.4	19.9	0.00e+00	0	43	0	3305111552	47	4251
2026-01-09 02:38:27.41	227.70	15.49	-37.3	-39.1	20.3	0.00e+00	0	43	0	3311403008	46	4352
2026-01-09 02:38:28.46	227.62	15.38	-37.3	-39.0	20.3	0.00e+00	0	43	0	3316645888	46	4335
2026-01-09 02:38:29.39	227.55	15.29	-37.4	-39.2	20.1	0.00e+00	0	43	0	3321888768	46	4422
2026-01-09 02:38:30.40	227.48	15.18	-37.3	-39.1	20.1	0.00e+00	0	43	0	3328180224	46	4362
2026-01-09 02:38:31.40	227.41	15.08	-37.3	-39.1	20.1	0.00e+00	0	43	0	3333423104	46	4377
2026-01-09 02:38:32.40	227.34	14.98	-37.7	-39.6	19.8	0.00e+00	0	43	0	3339714560	46	4599
2026-01-09 02:38:33.40	227.27	14.88	-37.7	-39.5	19.9	0.00e+00	0	43	0	3344957440	46	4559
2026-01-09 02:38:34.41	227.19	14.78	-38.1	-39.9	19.6	0.00e+00	0	43	0	3350200320	46	4798
2026-01-09 02:38:35.41	227.12	14.68	-37.6	-39.4	19.9	0.00e+00	0	43	0	3356491776	47	4275
2026-01-09 02:38:36.41	227.06	14.58	-37.6	-39.4	19.9	0.00e+00	0	43	0	3361734656	47	4269
2026-01-09 02:38:37.42	226.99	14.48	-37.5	-39.4	19.8	0.00e+00	0	43	0	3366977536	47	4259
2026-01-09 02:38:38.42	226.92	14.38	-37.5	-39.3	19.9	0.00e+00	0	43	0	3373268992	47	4227
2026-01-09 02:38:39.42	226.85	14.28	-37.5	-39.4	19.9	0.00e+00	0	43	0	3378511872	47	4249
2026-01-09 02:38:40.43	226.78	14.18	-37.5	-39.3	19.9	0.00e+00	0	43	0	3383754752	47	4224
2026-01-09 02:38:41.43	226.71	14.08	-37.5	-39.3	19.9	0.00e+00	0	43	0	3390046208	47	4234
2026-01-09 02:38:42.46	226.65	13.98	-37.6	-39.4	19.8	0.00e+00	0	43	0	3395289088	47	4266
2026-01-09 02:38:43.49	226.58	13.88	-37.6	-39.4	19.7	0.00e+00	0	43	0	3401580544	47	4278
2026-01-09 02:38:44.49	226.51	13.78	-37.6	-39.5	19.7	0.00e+00	0	43	0	3406823424	47	4301
2026-01-09 02:38:45.58	226.44	13.68	-37.6	-39.5	19.7	0.00e+00	0	43	0	3413114880	47	4303
2026-01-09 02:38:46.44	226.39	13.60	-37.8	-39.6	19.6	0.00e+00	0	43	0	3418357760	47	4377
2026-01-09 02:38:47.59	226.31	13.49	-37.9	-39.7	19.4	0.00e+00	0	43	0	3424649216	47	4438
2026-01-09 02:38:48.45	226.26	13.40	-37.7	-39.5	19.6	0.00e+00	0	43	0	3429892096	47	4338
2026-01-09 02:38:49.59	226.18	13.29	-37.8	-39.6	19.6	0.00e+00	0	43	0	3436183552	47	4383
2026-01-09 02:38:50.63	226.12	13.20	-37.9	-39.8	19.4	0.00e+00	0	43	0	3441426432	47	4448
2026-01-09 02:38:51.80	226.05	13.09	-38.0	-39.8	19.3	0.00e+00	0	43	0	3448766464	47	4484
2026-01-09 02:38:52.66	225.99	13.00	-38.1	-40.0	19.2	0.00e+00	0	43	0	3452960768	47	4563
2026-01-09 02:38:53.81	225.92	12.90	-38.2	-40.1	19.1	0.00e+00	0	43	0	3459252224	47	4624
2026-01-09 02:38:54.67	225.87	12.82	-38.3	-40.2	19.0	0.00e+00	0	43	0	3464495104	47	4668
2026-01-09 02:38:55.81	225.80	12.71	-38.1	-40.0	19.1	0.00e+00	0	43	0	3470786560	47	4588
2026-01-09 02:38:56.83	225.74	12.61	-38.1	-40.1	19.1	0.00e+00	0	43	0	3477078016	47	4616
2026-01-09 02:38:58.03	225.67	12.50	-38.3	-40.2	19.0	0.00e+00	0	43	0	3483369472	47	4684
2026-01-09 02:38:58.89	225.62	12.42	-38.3	-40.2	18.9	0.00e+00	0	43	0	3488612352	47	4699
2026-01-09 02:39:00.03	225.55	12.32	-38.4	-40.3	18.8	0.00e+00	0	43	0	3494903808	47	4740
2026-01-09 02:39:00.87	225.50	12.24	-38.3	-40.3	18.9	0.00e+00	0	43	0	3499098112	47	4713
2026-01-09 02:39:02.02	225.43	12.14	-38.3	-40.3	18.9	0.00e+00	0	43	0	3505389568	47	4714
2026-01-09 02:39:02.88	225.38	12.06	-38.2	-40.2	18.9	0.00e+00	0	43	0	3510632448	47	4660
2026-01-09 02:39:04.02	225.32	11.96	-38.3	-40.3	18.9	0.00e+00	0	43	0	3516923904	47	4714
2026-01-09 02:39:04.88	225.27	11.88	-38.3	-40.3	18.8	0.00e+00	0	43	0	3522166784	47	4731
2026-01-09 02:39:06.03	225.20	11.78	-38.4	-40.4	18.8	0.00e+00	0	43	0	3528458240	47	4771
2026-01-09 02:39:06.89	225.15	11.70	-38.3	-40.3	18.8	0.00e+00	0	43	0	3533701120	47	4741
2026-01-09 02:39:08.04	225.09	11.60	-38.3	-40.3	18.8	0.00e+00	0	43	0	3539992576	47	4741
2026-01-09 02:39:08.90	225.04	11.52	-38.4	-40.3	18.7	0.00e+00	0	43	0	3544186880	47	4746
2026-01-09 02:39:10.05	224.98	11.42	-38.3	-40.2	18.8	0.00e+00	0	44	0	3551526912	47	4695
2026-01-09 02:39:10.91	224.93	11.34	-38.3	-40.3	18.7	0.00e+00	0	43	0	3555721216	47	4729
2026-01-09 02:39:12.05	224.87	11.24	-38.4	-40.3	18.7	0.00e+00	0	44	0	3562012672	47	4752
2026-01-09 02:39:12.92	224.82	11.16	-38.4	-40.4	18.7	0.00e+00	0	43	0	3567255552	47	4772
2026-01-09 02:39:14.07	224.76	11.06	-38.4	-40.3	18.8	0.00e+00	0	43	0	3573547008	47	4723
2026-01-09 02:39:14.92	224.71	10.99	-38.3	-40.2	18.8	0.00e+00	0	43	0	3578789888	47	4665
2026-01-09 02:39:16.07	224.65	10.89	-38.3	-40.2	18.8	0.00e+00	0	43	0	3585081344	47	4694
2026-01-09 02:39:17.02	224.60	10.81	-38.3	-40.2	18.8	0.00e+00	0	43	0	3590324224	47	4704
2026-01-09 02:39:18.02	224.55	10.72	-38.4	-40.3	18.7	0.00e+00	0	43	0	3595567104	47	4756
2026-01-09 02:39:19.03	224.49	10.63	-38.4	-40.4	18.6	0.00e+00	0	44	0	3601858560	47	4778
2026-01-09 02:39:20.03	224.44	10.55	-38.5	-40.4	18.6	0.00e+00	0	43	0	3607101440	47	4790
2026-01-09 02:39:21.03	224.39	10.46	-38.5	-40.4	18.6	0.00e+00	0	43	0	3612344320	47	4796
2026-01-09 02:39:22.03	224.34	10.38	-38.4	-40.3	18.7	0.00e+00	0	43	0	3618635776	47	4747
2026-01-09 02:39:23.04	224.29	10.29	-38.4	-40.3	18.7	0.00e+00	0	43	0	3623878656	47	4758
2026-01-09 02:39:24.04	224.23	10.21	-38.5	-40.5	18.6	0.00e+00	0	44	0	3630170112	47	4820
2026-01-09 02:39:25.04	224.18	10.12	-38.5	-40.5	18.5	0.00e+00	0	43	0	3635412992	47	4823
2026-01-09 02:39:26.04	224.13	10.04	-38.4	-40.3	18.6	0.00e+00	0	43	0	3640655872	47	4757
2026-01-09 02:39:27.05	224.08	9.95	-38.3	-40.2	18.7	0.00e+00	0	43	0	3646947328	47	4688
2026-01-09 02:39:28.05	224.03	9.87	-38.4	-40.4	18.6	0.00e+00	0	43	0	3652190208	47	4765
2026-01-09 02:39:29.05	223.98	9.78	-38.5	-40.4	18.5	0.00e+00	0	43	0	3657433088	47	4803
2026-01-09 02:39:30.05	223.94	9.70	-38.3	-40.3	18.7	0.00e+00	0	44	0	3663724544	47	4757
2026-01-09 02:39:31.05	223.89	9.62	-38.4	-40.4	18.5	0.00e+00	0	43	0	3668967424	47	4801
2026-01-09 02:39:32.06	223.84	9.53	-38.5	-40.5	18.5	0.00e+00	0	43	0	3675258880	47	4835
2026-01-09 02:39:33.06	223.79	9.45	-38.7	-40.7	18.5	0.00e+00	0	43	0	3680501760	48	4671
2026-01-09 02:39:34.06	223.74	9.37	-38.7	-40.7	18.4	0.00e+00	0	43	0	3685744640	48	4664
2026-01-09 02:39:35.06	223.69	9.29	-38.7	-40.7	18.4	0.00e+00	0	43	0	3692036096	48	4667
2026-01-09 02:39:36.06	223.65	9.21	-38.6	-40.6	18.4	0.00e+00	0	44	0	3697278976	48	4646
2026-01-09 02:39:37.07	223.60	9.12	-38.7	-40.7	18.3	0.00e+00	0	43	0	3702521856	48	4686
2026-01-09 02:39:38.07	223.55	9.04	-38.8	-40.8	18.1	0.00e+00	0	43	0	3708813312	48	4745
2026-01-09 02:39:39.09	223.50	8.96	-47.8	-58.8	3.8	3.02e-03	0	43	104	3714056192	66	13344
2026-01-09 02:39:40.10	223.46	8.88	-48.3	-60.0	3.8	8.47e-01	0	43	104	3714056192	67	14375
