passes_logs/2026/01/09/T1/T1__20260109_095847_NOAA_20_JPSS-1_rec.log

#Pass ID: 20260109_095847_NOAA 20 (JPSS-1)
#Satellite: NOAA 20 (JPSS-1)
#Configuration: NOAA 20
#almurnet v.1.7.20251203
#Start time: 2026-01-09 09:58:48

#Version: 2.0.20230620
#Station: T1
#Location: 37.570604 lon 55.790049 lat
#TLE: 1 43013U 17073A   26008.42245989  .00000120  00000+0  77990-4 0  9996
#TLE: 2 43013  98.7631 309.4315 0001737  48.7960 311.3365 14.19534455421802

#Time	Az	El	Level	Level2	SNR	BER	BlckErr	Temp	State	Recorded	gain1	gain2
2026-01-09 09:58:48.46	161.91	5.06	-48.0	-63.6	3.8	1.49e+00	0	39	0	0	68	20557
2026-01-09 09:58:49.46	161.92	5.13	-48.0	-63.5	3.8	1.49e+00	0	39	104	0	68	20387
2026-01-09 09:58:50.47	161.92	5.21	-48.0	-63.5	3.8	1.49e+00	0	39	104	0	68	20328
2026-01-09 09:58:51.47	161.93	5.28	-48.0	-63.4	3.8	1.49e+00	0	39	104	0	68	20295
2026-01-09 09:58:52.47	161.93	5.35	-48.0	-63.4	3.8	1.49e+00	0	39	104	0	68	20187
2026-01-09 09:58:53.48	161.93	5.42	-48.0	-63.4	3.8	1.49e+00	0	39	104	0	68	20239
2026-01-09 09:58:54.48	161.94	5.50	-48.0	-63.4	3.8	1.49e+00	0	40	104	0	68	20288
2026-01-09 09:58:55.49	161.94	5.57	-48.0	-63.5	3.8	1.49e+00	0	40	104	0	68	20440
2026-01-09 09:58:56.49	161.95	5.64	-48.0	-63.5	3.8	1.49e+00	0	39	104	0	68	20506
2026-01-09 09:58:57.50	161.95	5.72	-48.1	-63.6	3.8	1.49e+00	0	39	104	0	68	20555
2026-01-09 09:58:58.50	161.96	5.79	-48.0	-63.6	3.8	1.49e+00	0	40	104	0	68	20631
2026-01-09 09:58:59.50	161.96	5.87	-48.0	-63.5	3.8	1.49e+00	0	40	104	0	68	20535
2026-01-09 09:59:00.51	161.97	5.94	-48.1	-63.5	3.8	1.49e+00	0	40	104	0	68	20423
2026-01-09 09:59:01.51	161.97	6.02	-48.1	-63.4	3.8	1.49e+00	0	40	104	0	68	20212
2026-01-09 09:59:02.52	161.98	6.09	-48.0	-63.3	3.8	1.49e+00	0	40	104	0	68	20013
2026-01-09 09:59:03.52	161.98	6.17	-48.1	-63.3	3.8	1.49e+00	0	40	104	0	68	19864
2026-01-09 09:59:04.53	161.99	6.24	-48.0	-63.1	3.8	1.49e+00	0	40	104	0	68	19521
2026-01-09 09:59:05.53	161.99	6.32	-48.0	-63.1	3.8	1.49e+00	0	40	104	0	68	19416
2026-01-09 09:59:06.54	162.00	6.40	-48.0	-63.0	3.8	1.49e+00	0	40	104	0	68	19293
2026-01-09 09:59:07.54	162.00	6.47	-48.2	-63.1	3.8	1.49e+00	0	40	104	0	68	19435
2026-01-09 09:59:08.55	162.00	6.55	-48.0	-63.0	3.8	1.49e+00	0	40	104	0	68	19274
2026-01-09 09:59:09.55	162.01	6.62	-48.0	-63.0	3.8	1.49e+00	0	40	104	0	68	19183
2026-01-09 09:59:10.55	162.01	6.70	-48.0	-62.9	3.8	1.49e+00	0	40	104	0	68	19145
2026-01-09 09:59:11.56	162.02	6.78	-48.0	-62.8	3.8	1.49e+00	0	40	104	0	68	18894
2026-01-09 09:59:12.56	162.02	6.86	-48.0	-62.6	3.8	1.49e+00	0	40	104	0	68	18362
2026-01-09 09:59:13.57	162.03	6.93	-48.0	-62.3	3.8	1.49e+00	0	40	104	0	68	17795
2026-01-09 09:59:14.57	162.03	7.01	-48.0	-61.9	3.8	1.49e+00	0	40	104	0	68	17065
2026-01-09 09:59:15.58	162.04	7.09	-47.8	-61.3	3.8	1.49e+00	0	40	104	0	67	16718
2026-01-09 09:59:16.58	162.04	7.17	-47.8	-60.7	3.9	1.49e+00	0	40	104	0	67	15747
2026-01-09 09:59:17.59	162.05	7.25	-47.7	-60.0	4.1	1.44e+00	0	40	0	0	67	14534
2026-01-09 09:59:18.59	162.05	7.32	-47.7	-59.2	4.4	1.38e+00	0	41	0	0	67	13243
2026-01-09 09:59:19.59	162.06	7.40	-47.6	-58.5	4.7	9.83e-01	0	40	0	2097152	67	12149
2026-01-09 09:59:20.60	162.06	7.48	-47.5	-57.7	5.1	7.56e-01	0	40	0	4194304	67	11106
2026-01-09 09:59:21.61	162.07	7.56	-47.4	-56.9	5.6	5.66e-01	0	41	0	5242880	66	10676
2026-01-09 09:59:22.61	162.07	7.64	-47.2	-56.1	6.1	3.38e-01	0	40	0	7340032	66	9817
2026-01-09 09:59:23.61	162.08	7.72	-47.1	-55.3	6.9	2.15e-01	0	40	0	9437184	66	8883
2026-01-09 09:59:24.62	162.08	7.80	-46.9	-54.5	7.5	1.41e-01	0	41	0	11534336	65	8657
2026-01-09 09:59:25.62	162.09	7.88	-46.8	-53.9	8.1	6.91e-02	0	40	0	13631488	65	8038
2026-01-09 09:59:26.63	162.09	7.96	-46.6	-53.6	8.5	4.23e-02	0	41	0	14680064	65	7761
2026-01-09 09:59:27.63	162.10	8.04	-46.5	-53.0	9.1	3.02e-02	0	40	0	16777216	65	7258
2026-01-09 09:59:28.64	162.10	8.13	-46.4	-52.8	9.3	2.14e-02	0	41	0	18874368	64	7466
2026-01-09 09:59:29.64	162.11	8.21	-46.4	-52.6	9.4	1.69e-02	0	41	0	20971520	64	7363
2026-01-09 09:59:30.64	162.11	8.29	-46.4	-53.0	9.0	1.63e-02	0	41	0	23068672	64	7674
2026-01-09 09:59:31.65	162.12	8.37	-46.4	-52.9	9.2	1.89e-02	0	40	0	24117248	64	7548
2026-01-09 09:59:32.65	162.12	8.45	-46.5	-53.1	8.9	2.57e-02	0	41	0	26214400	64	7804
2026-01-09 09:59:33.66	162.13	8.54	-46.6	-53.6	8.5	6.10e-02	0	41	0	28311552	64	8243
2026-01-09 09:59:34.66	162.13	8.62	-46.8	-54.2	7.9	5.68e-02	0	41	0	30408704	64	8782
2026-01-09 09:59:35.66	162.14	8.70	-47.0	-55.1	7.1	1.30e-01	0	41	0	32505856	64	9728
2026-01-09 09:59:36.67	162.14	8.79	-47.2	-56.3	6.0	2.58e-01	0	41	0	33554432	65	10550
2026-01-09 09:59:37.67	162.15	8.87	-47.4	-57.1	5.4	4.17e-01	0	41	0	35651584	65	11568
2026-01-09 09:59:38.68	162.15	8.95	-47.6	-59.0	4.5	7.49e-01	0	41	0	37748736	65	14527
2026-01-09 09:59:39.68	162.16	9.04	-47.7	-60.3	4.1	1.46e+00	0	41	104	38797312	66	15924
2026-01-09 09:59:40.69	162.16	9.12	-46.7	-53.5	8.4	1.31e+00	0	41	0	38797312	65	7693
2026-01-09 09:59:41.69	162.17	9.21	-47.7	-60.6	4.1	2.51e-02	0	41	0	40894464	66	16350
2026-01-09 09:59:42.76	162.17	9.30	-47.6	-58.1	4.2	1.48e+00	0	41	104	40894464	66	12310
2026-01-09 09:59:43.62	162.18	9.37	-46.1	-51.8	10.2	2.18e-01	0	41	0	41943040	64	6672
2026-01-09 09:59:44.98	162.19	9.49	-48.0	-63.0	3.8	1.03e+00	0	41	104	42991616	67	20398
2026-01-09 09:59:45.70	162.19	9.55	-46.7	-53.3	5.1	1.49e+00	0	41	104	42991616	65	7515
2026-01-09 09:59:47.23	162.20	9.68	-45.2	-49.5	12.9	7.47e-05	0	41	0	45088768	62	5742
2026-01-09 09:59:47.94	162.20	9.74	-44.9	-48.9	13.6	1.70e-02	0	41	0	46137344	61	5718
2026-01-09 09:59:49.23	162.21	9.85	-44.8	-48.8	13.6	7.60e-06	0	41	0	48234496	61	5620
2026-01-09 09:59:49.95	162.21	9.92	-44.7	-48.7	13.7	6.80e-06	0	41	0	50331648	61	5564
2026-01-09 09:59:51.24	162.22	10.03	-44.6	-48.5	14.0	3.73e-05	0	41	0	52428800	61	5406
2026-01-09 09:59:51.96	162.22	10.09	-44.6	-48.4	14.1	3.00e-06	0	41	0	53477376	61	5374
2026-01-09 09:59:53.25	162.23	10.21	-44.6	-48.4	14.1	3.00e-06	0	41	0	55574528	61	5384
2026-01-09 09:59:53.96	162.23	10.27	-44.5	-48.3	14.1	1.50e-06	0	41	0	57671680	61	5330
2026-01-09 09:59:55.25	162.24	10.38	-44.5	-48.3	14.2	4.50e-06	0	41	0	59768832	61	5291
2026-01-09 09:59:56.06	162.24	10.46	-44.5	-48.3	14.2	7.00e-07	0	41	0	60817408	60	5604
2026-01-09 09:59:57.53	162.25	10.59	-44.4	-48.1	14.4	1.50e-06	0	41	0	63963136	60	5472
2026-01-09 09:59:58.25	162.26	10.65	-44.3	-48.0	14.5	7.00e-07	0	41	0	65011712	60	5424
2026-01-09 09:59:59.74	162.26	10.79	-44.4	-48.0	14.5	7.00e-07	0	41	0	68157440	60	5437
2026-01-09 10:00:00.46	162.27	10.85	-44.4	-48.1	14.4	7.00e-07	0	41	0	69206016	60	5487
2026-01-09 10:00:01.75	162.28	10.97	-44.3	-48.0	14.5	7.00e-07	0	41	0	72351744	60	5426
2026-01-09 10:00:02.47	162.28	11.03	-44.2	-47.8	14.7	7.00e-07	0	41	0	73400320	60	5336
2026-01-09 10:00:03.76	162.29	11.15	-44.2	-47.7	14.8	7.00e-07	0	41	0	75497472	60	5262
2026-01-09 10:00:04.47	162.29	11.22	-44.2	-47.8	14.7	7.00e-07	0	41	0	77594624	60	5306
2026-01-09 10:00:05.76	162.30	11.33	-44.2	-47.7	14.8	0.00e+00	0	41	0	79691776	60	5258
2026-01-09 10:00:06.48	162.30	11.40	-44.1	-47.7	14.9	0.00e+00	0	41	0	80740352	60	5241
2026-01-09 10:00:07.77	162.31	11.52	-44.1	-47.6	15.0	0.00e+00	0	41	0	82837504	60	5189
2026-01-09 10:00:08.58	162.31	11.60	-44.1	-47.5	15.0	0.00e+00	0	41	0	84934656	60	5159
2026-01-09 10:00:09.73	162.32	11.70	-44.1	-47.6	14.9	0.00e+00	0	41	0	87031808	60	5207
2026-01-09 10:00:10.59	162.32	11.78	-44.1	-47.6	15.0	0.00e+00	0	41	0	88080384	60	5186
2026-01-09 10:00:11.74	162.33	11.89	-44.1	-47.5	15.1	0.00e+00	0	41	0	91226112	60	5133
2026-01-09 10:00:12.60	162.34	11.97	-44.1	-47.5	15.1	0.00e+00	0	41	0	92274688	60	5138
2026-01-09 10:00:13.74	162.34	12.08	-44.0	-47.4	15.2	0.00e+00	0	41	0	94371840	60	5047
2026-01-09 10:00:14.60	162.35	12.16	-44.1	-47.5	15.1	0.00e+00	0	41	0	96468992	60	5139
2026-01-09 10:00:15.75	162.35	12.27	-44.0	-47.4	15.2	0.00e+00	0	41	0	98566144	59	5342
2026-01-09 10:00:16.61	162.36	12.36	-44.1	-47.4	15.1	0.00e+00	0	41	0	99614720	59	5402
2026-01-09 10:00:17.93	162.37	12.49	-44.0	-47.4	15.2	0.00e+00	0	41	0	102760448	59	5355
2026-01-09 10:00:18.65	162.37	12.55	-44.0	-47.4	15.2	0.00e+00	0	41	0	103809024	59	5355
2026-01-09 10:00:19.94	162.38	12.68	-44.1	-47.5	15.1	0.00e+00	0	41	0	105906176	59	5440
2026-01-09 10:00:20.65	162.38	12.75	-44.0	-47.3	15.2	0.00e+00	0	41	0	106954752	59	5339
2026-01-09 10:00:22.23	162.39	12.90	-43.9	-47.2	15.4	0.00e+00	0	41	0	110100480	59	5242
2026-01-09 10:00:22.82	162.39	12.96	-44.0	-47.3	15.3	0.00e+00	0	41	0	111149056	59	5282
2026-01-09 10:00:24.39	162.40	13.12	-43.9	-47.1	15.4	0.00e+00	0	41	0	114294784	59	5217
2026-01-09 10:00:24.97	162.41	13.18	-43.9	-47.1	15.5	0.00e+00	0	41	0	115343360	59	5179
2026-01-09 10:00:26.54	162.42	13.33	-43.9	-47.1	15.5	0.00e+00	0	41	0	118489088	59	5190
2026-01-09 10:00:27.15	162.42	13.39	-43.9	-47.1	15.6	0.00e+00	0	41	0	119537664	59	5175
2026-01-09 10:00:28.72	162.43	13.55	-43.8	-46.9	15.7	0.00e+00	0	41	0	122683392	59	5087
2026-01-09 10:00:29.34	162.43	13.62	-43.8	-46.9	15.7	0.00e+00	0	41	0	123731968	59	5075
2026-01-09 10:00:30.92	162.44	13.78	-43.7	-46.7	15.9	0.00e+00	0	41	0	126877696	59	4976
2026-01-09 10:00:31.52	162.45	13.84	-43.7	-46.8	15.8	0.00e+00	0	41	0	127926272	59	5018
2026-01-09 10:00:33.10	162.46	14.00	-43.7	-46.8	15.8	0.00e+00	0	42	0	131072000	59	5031
2026-01-09 10:00:34.05	162.46	14.10	-43.6	-46.7	15.9	0.00e+00	0	41	0	132120576	59	4960
2026-01-09 10:00:35.45	162.47	14.24	-43.6	-46.7	15.9	0.00e+00	0	42	0	135266304	59	4954
2026-01-09 10:00:36.20	162.48	14.32	-43.6	-46.7	15.9	0.00e+00	0	41	0	136314880	59	4981
2026-01-09 10:00:37.49	162.48	14.46	-43.5	-46.7	16.0	0.00e+00	0	42	0	139460608	59	4941
2026-01-09 10:00:38.21	162.49	14.53	-43.5	-46.6	16.0	0.00e+00	0	41	0	140509184	59	4912
2026-01-09 10:00:39.50	162.50	14.67	-43.5	-46.6	16.0	0.00e+00	0	41	0	142606336	58	5218
2026-01-09 10:00:40.21	162.50	14.74	-43.5	-46.7	16.0	0.00e+00	0	42	0	143654912	58	5219
2026-01-09 10:00:41.50	162.51	14.88	-43.5	-46.7	16.0	0.00e+00	0	41	0	146800640	58	5227
2026-01-09 10:00:42.22	162.51	14.96	-43.5	-46.6	16.1	0.00e+00	0	41	0	147849216	58	5188
2026-01-09 10:00:43.51	162.52	15.10	-43.4	-46.6	16.1	0.00e+00	0	42	0	149946368	58	5182
2026-01-09 10:00:44.22	162.53	15.17	-43.5	-46.7	16.0	0.00e+00	0	42	0	152043520	58	5225
2026-01-09 10:00:45.51	162.53	15.31	-43.5	-46.6	16.1	0.00e+00	0	42	0	154140672	58	5192
2026-01-09 10:00:46.23	162.54	15.39	-43.5	-46.6	16.0	0.00e+00	0	42	0	155189248	58	5218
2026-01-09 10:00:47.52	162.55	15.53	-43.4	-46.5	16.2	0.00e+00	0	41	0	158334976	58	5115
2026-01-09 10:00:48.24	162.55	15.61	-43.4	-46.5	16.1	0.00e+00	0	42	0	159383552	58	5136
2026-01-09 10:00:49.53	162.56	15.75	-43.3	-46.4	16.3	0.00e+00	0	41	0	161480704	58	5072
2026-01-09 10:00:50.24	162.56	15.83	-43.3	-46.3	16.3	0.00e+00	0	42	0	162529280	58	5037
2026-01-09 10:00:51.54	162.57	15.98	-43.3	-46.3	16.4	0.00e+00	0	42	0	165675008	58	5013
2026-01-09 10:00:52.25	162.58	16.06	-43.3	-46.3	16.4	0.00e+00	0	42	0	166723584	58	5040
2026-01-09 10:00:53.54	162.59	16.20	-43.2	-46.2	16.5	0.00e+00	0	41	0	168820736	58	4935
2026-01-09 10:00:54.26	162.59	16.28	-43.2	-46.2	16.5	0.00e+00	0	42	0	170917888	58	4962
2026-01-09 10:00:55.55	162.60	16.43	-43.1	-46.0	16.6	0.00e+00	0	41	0	173015040	58	4866
2026-01-09 10:00:56.27	162.60	16.51	-43.1	-46.1	16.6	0.00e+00	0	42	0	174063616	58	4879
2026-01-09 10:00:57.64	162.61	16.67	-43.1	-46.1	16.6	0.00e+00	0	41	0	177209344	58	4889
2026-01-09 10:00:58.36	162.62	16.75	-43.1	-46.1	16.6	0.00e+00	0	42	0	178257920	58	4915
2026-01-09 10:00:59.65	162.63	16.90	-43.1	-46.0	16.7	0.00e+00	0	42	0	180355072	58	4831
2026-01-09 10:01:00.36	162.63	16.98	-43.0	-45.9	16.8	0.00e+00	0	42	0	181403648	58	4774
2026-01-09 10:01:01.65	162.64	17.13	-43.0	-45.9	16.8	0.00e+00	0	42	0	184549376	58	4797
2026-01-09 10:01:02.37	162.65	17.22	-42.9	-45.8	16.9	0.00e+00	0	42	0	185597952	57	5006
2026-01-09 10:01:03.66	162.65	17.37	-43.0	-45.8	16.9	0.00e+00	0	41	0	187695104	57	5020
2026-01-09 10:01:04.38	162.66	17.46	-43.0	-45.8	16.9	0.00e+00	0	42	0	189792256	57	5033
2026-01-09 10:01:05.67	162.67	17.61	-43.0	-45.7	17.0	0.00e+00	0	42	0	191889408	57	4977
2026-01-09 10:01:06.51	162.67	17.71	-43.0	-45.8	16.9	0.00e+00	0	41	0	192937984	57	5013
2026-01-09 10:01:07.66	162.68	17.85	-42.9	-45.6	17.1	0.00e+00	0	42	0	195035136	57	4913
2026-01-09 10:01:08.72	162.69	17.98	-42.9	-45.6	17.1	0.00e+00	0	42	0	197132288	57	4919
2026-01-09 10:01:09.76	162.70	18.10	-42.9	-45.7	17.0	0.00e+00	0	42	0	199229440	57	4951
2026-01-09 10:01:10.93	162.71	18.25	-42.9	-45.6	17.2	0.00e+00	0	42	0	201326592	57	4875
2026-01-09 10:01:11.83	162.71	18.36	-42.8	-45.5	17.2	0.00e+00	0	42	0	203423744	57	4836
2026-01-09 10:01:13.14	162.72	18.52	-42.7	-45.4	17.3	0.00e+00	0	42	0	205520896	57	4804
2026-01-09 10:01:13.86	162.73	18.61	-42.8	-45.5	17.2	0.00e+00	0	42	0	207618048	57	4844
2026-01-09 10:01:15.15	162.74	18.77	-42.8	-45.5	17.2	0.00e+00	0	42	0	209715200	57	4856
2026-01-09 10:01:15.87	162.74	18.86	-42.7	-45.5	17.2	0.00e+00	0	42	0	210763776	57	4852
2026-01-09 10:01:17.16	162.75	19.02	-42.8	-45.6	17.2	1.41e-04	0	42	0	212860928	57	4898
2026-01-09 10:01:17.87	162.76	19.11	-42.7	-45.5	17.2	0.00e+00	0	42	0	214958080	57	4830
2026-01-09 10:01:19.16	162.77	19.28	-42.7	-45.5	17.3	0.00e+00	0	42	0	217055232	57	4818
2026-01-09 10:01:19.88	162.77	19.37	-42.8	-45.5	17.1	0.00e+00	0	42	0	218103808	57	4869
2026-01-09 10:01:21.17	162.78	19.54	-42.7	-45.4	17.4	0.00e+00	0	42	0	221249536	57	4785
2026-01-09 10:01:21.88	162.79	19.63	-42.7	-45.4	17.3	0.00e+00	0	42	0	222298112	57	4800
2026-01-09 10:01:23.17	162.80	19.80	-42.8	-45.6	17.2	0.00e+00	0	42	0	224395264	57	4878
2026-01-09 10:01:23.89	162.80	19.89	-42.7	-45.4	17.3	0.00e+00	0	42	0	226492416	57	4790
2026-01-09 10:01:25.28	162.81	20.07	-42.7	-45.4	17.3	0.00e+00	0	42	0	228589568	57	4811
2026-01-09 10:01:25.99	162.82	20.17	-42.7	-45.4	17.4	9.06e-04	0	42	0	229638144	57	4776
2026-01-09 10:01:27.28	162.83	20.34	-42.6	-45.3	17.5	0.00e+00	0	42	0	232783872	57	4707
2026-01-09 10:01:28.00	162.83	20.43	-42.5	-45.2	17.6	0.00e+00	0	42	0	233832448	57	4660
2026-01-09 10:01:29.29	162.84	20.61	-42.5	-45.1	17.6	3.42e-04	0	42	0	235929600	57	4635
2026-01-09 10:01:30.00	162.85	20.70	-42.5	-45.1	17.6	0.00e+00	0	42	0	236978176	56	4922
2026-01-09 10:01:31.29	162.86	20.88	-42.5	-45.1	17.6	0.00e+00	0	42	0	240123904	56	4925
2026-01-09 10:01:32.01	162.87	20.98	-42.5	-45.1	17.7	0.00e+00	0	42	0	241172480	56	4908
2026-01-09 10:01:33.30	162.88	21.15	-42.4	-45.0	17.8	0.00e+00	0	42	0	243269632	56	4836
2026-01-09 10:01:34.11	162.88	21.27	-42.5	-45.0	17.7	0.00e+00	0	42	0	245366784	56	4854
2026-01-09 10:01:35.59	162.89	21.47	-42.5	-45.0	17.7	0.00e+00	0	42	0	247463936	56	4858
2026-01-09 10:01:36.31	162.90	21.57	-42.4	-45.0	17.8	0.00e+00	0	42	0	249561088	56	4815
2026-01-09 10:01:37.60	162.91	21.75	-42.4	-44.9	17.8	0.00e+00	0	42	0	251658240	56	4809
2026-01-09 10:01:38.31	162.92	21.85	-42.4	-44.9	17.8	0.00e+00	0	42	0	252706816	56	4807
2026-01-09 10:01:39.60	162.93	22.04	-42.5	-45.1	17.7	0.00e+00	0	42	0	255852544	56	4875
2026-01-09 10:01:40.32	162.93	22.14	-42.4	-45.0	17.7	0.00e+00	0	42	0	256901120	56	4861
2026-01-09 10:01:41.61	162.94	22.33	-42.4	-45.0	17.8	0.00e+00	0	42	0	258998272	56	4822
2026-01-09 10:01:42.46	162.95	22.45	-42.4	-45.0	17.8	0.00e+00	0	42	0	261095424	56	4850
2026-01-09 10:01:43.61	162.96	22.62	-42.3	-44.9	17.9	0.00e+00	0	42	0	263192576	56	4791
2026-01-09 10:01:44.64	162.97	22.77	-42.4	-45.0	17.8	0.00e+00	0	42	0	265289728	56	4844
2026-01-09 10:01:45.64	162.98	22.92	-42.4	-45.0	17.8	0.00e+00	0	42	0	266338304	56	4850
2026-01-09 10:01:46.64	162.99	23.06	-42.4	-45.0	17.8	0.00e+00	0	42	0	268435456	56	4829
2026-01-09 10:01:47.64	163.00	23.21	-42.4	-45.0	17.8	0.00e+00	0	42	0	270532608	56	4860
2026-01-09 10:01:48.65	163.00	23.36	-42.3	-44.9	17.9	0.00e+00	0	42	0	272629760	56	4806
2026-01-09 10:01:49.65	163.01	23.51	-42.4	-45.0	17.8	0.00e+00	0	42	0	274726912	56	4822
2026-01-09 10:01:50.66	163.02	23.67	-42.4	-45.0	17.8	0.00e+00	0	42	0	275775488	56	4843
2026-01-09 10:01:51.66	163.03	23.82	-42.4	-45.0	17.8	0.00e+00	0	42	0	277872640	56	4835
2026-01-09 10:01:52.66	163.04	23.97	-42.4	-44.9	17.9	0.00e+00	0	42	0	279969792	56	4790
2026-01-09 10:01:53.67	163.05	24.13	-42.4	-45.0	17.9	0.00e+00	0	42	0	282066944	56	4819
2026-01-09 10:01:54.67	163.06	24.29	-42.4	-44.9	17.9	0.00e+00	0	42	0	284164096	56	4809
2026-01-09 10:01:55.72	163.07	24.45	-42.4	-44.9	17.9	0.00e+00	0	42	0	285212672	56	4805
2026-01-09 10:01:56.64	163.08	24.59	-42.4	-45.0	17.9	0.00e+00	0	42	0	287309824	56	4817
2026-01-09 10:01:57.79	163.09	24.78	-42.3	-44.9	17.9	0.00e+00	0	42	0	289406976	56	4778
2026-01-09 10:01:58.70	163.10	24.92	-42.4	-45.0	17.8	0.00e+00	0	42	0	291504128	56	4837
2026-01-09 10:01:59.89	163.11	25.11	-42.5	-45.1	17.7	0.00e+00	0	42	0	293601280	56	4888
2026-01-09 10:02:00.75	163.12	25.25	-42.5	-45.1	17.7	0.00e+00	0	42	0	294649856	56	4892
2026-01-09 10:02:02.09	163.13	25.47	-42.6	-45.2	17.7	0.00e+00	0	42	0	297795584	56	4950
2026-01-09 10:02:02.80	163.14	25.58	-42.6	-45.3	17.6	0.00e+00	0	42	0	298844160	56	4985
2026-01-09 10:02:04.10	163.15	25.80	-42.8	-45.4	17.4	0.00e+00	0	42	0	300941312	56	5091
2026-01-09 10:02:04.81	163.16	25.91	-42.9	-45.6	17.3	0.00e+00	0	42	0	303038464	56	5180
2026-01-09 10:02:06.10	163.17	26.13	-43.0	-45.7	17.2	0.00e+00	0	42	0	305135616	56	5233
2026-01-09 10:02:06.87	163.18	26.26	-43.1	-45.8	17.0	0.00e+00	0	42	0	306184192	56	5309
2026-01-09 10:02:08.16	163.19	26.47	-43.2	-45.9	16.9	0.00e+00	0	42	0	309329920	57	5071
2026-01-09 10:02:08.95	163.20	26.61	-43.2	-45.9	16.9	0.00e+00	0	42	0	310378496	57	5090
2026-01-09 10:02:10.10	163.21	26.80	-43.4	-46.2	16.6	0.00e+00	0	42	0	312475648	57	5270
2026-01-09 10:02:10.96	163.22	26.95	-43.4	-46.3	16.6	0.00e+00	0	42	0	314572800	57	5305
2026-01-09 10:02:12.10	163.23	27.15	-43.5	-46.4	16.5	0.00e+00	0	42	0	316669952	57	5359
2026-01-09 10:02:12.96	163.24	27.30	-43.6	-46.5	16.3	0.00e+00	0	42	0	317718528	57	5459
2026-01-09 10:02:14.11	163.25	27.50	-43.8	-46.8	16.1	0.00e+00	0	42	0	319815680	58	5299
2026-01-09 10:02:14.97	163.26	27.65	-43.9	-46.9	16.0	0.00e+00	0	42	0	321912832	58	5380
2026-01-09 10:02:16.12	163.27	27.86	-44.0	-47.0	15.8	0.00e+00	0	42	0	324009984	58	5452
2026-01-09 10:02:16.98	163.28	28.01	-44.0	-47.0	15.8	0.00e+00	0	42	0	325058560	58	5462
2026-01-09 10:02:18.12	163.29	28.21	-44.2	-47.3	15.5	0.00e+00	0	42	0	328204288	59	5337
2026-01-09 10:02:18.98	163.30	28.37	-44.2	-47.4	15.5	0.00e+00	0	42	0	329252864	59	5371
2026-01-09 10:02:20.12	163.32	28.58	-44.4	-47.7	15.2	0.00e+00	0	42	0	331350016	59	5539
2026-01-09 10:02:20.98	163.32	28.73	-44.5	-47.8	15.1	0.00e+00	0	42	0	333447168	59	5643
2026-01-09 10:02:22.13	163.34	28.95	-44.5	-47.9	15.0	0.00e+00	0	42	0	335544320	59	5690
2026-01-09 10:02:22.99	163.35	29.11	-44.6	-48.1	14.8	0.00e+00	0	42	0	336592896	60	5492
2026-01-09 10:02:24.14	163.36	29.32	-44.7	-48.3	14.6	0.00e+00	0	42	0	338690048	60	5623
2026-01-09 10:02:25.24	163.37	29.53	-44.7	-48.3	14.7	7.00e-07	0	42	0	340787200	60	5612
2026-01-09 10:02:26.10	163.38	29.69	-44.7	-48.3	14.5	0.00e+00	0	42	0	342884352	60	5624
2026-01-09 10:02:27.61	163.40	29.98	-44.8	-48.4	14.5	2.20e-06	0	42	0	344981504	60	5694
2026-01-09 10:02:28.33	163.41	30.12	-44.8	-48.4	14.5	7.00e-07	0	42	0	347078656	60	5693
2026-01-09 10:02:29.62	163.42	30.37	-44.9	-48.6	14.4	3.80e-06	0	42	0	349175808	60	5801
2026-01-09 10:02:30.33	163.43	30.51	-45.0	-48.7	14.2	0.00e+00	0	42	0	350224384	60	5918
2026-01-09 10:02:31.63	163.45	30.76	-45.0	-48.7	14.2	7.00e-07	0	42	0	353370112	60	5915
2026-01-09 10:02:32.34	163.46	30.90	-45.0	-48.7	14.3	7.00e-07	0	42	0	354418688	60	5863
2026-01-09 10:02:33.63	163.47	31.16	-45.0	-48.6	14.3	7.00e-07	0	42	0	356515840	60	5855
2026-01-09 10:02:34.49	163.48	31.33	-44.9	-48.6	14.4	2.20e-06	0	42	0	358612992	60	5806
2026-01-09 10:02:35.63	163.50	31.56	-44.9	-48.6	14.4	0.00e+00	0	42	0	360710144	60	5796
2026-01-09 10:02:36.70	163.51	31.78	-44.7	-48.3	14.7	0.00e+00	0	42	0	362807296	60	5603
2026-01-09 10:02:37.74	163.53	31.99	-44.6	-48.1	14.8	0.00e+00	0	42	0	364904448	60	5527
2026-01-09 10:02:38.74	163.54	32.20	-44.4	-47.7	15.2	0.00e+00	0	42	0	365953024	60	5269
2026-01-09 10:02:39.95	163.56	32.45	-44.3	-47.8	15.2	0.00e+00	0	42	0	369098752	60	5281
2026-01-09 10:02:40.86	163.57	32.64	-44.3	-47.8	15.2	0.00e+00	0	42	0	370147328	60	5296
2026-01-09 10:02:41.88	163.58	32.86	-44.1	-47.5	15.5	0.00e+00	0	42	0	372244480	60	5117
2026-01-09 10:02:42.88	163.59	33.07	-44.2	-47.5	15.4	0.00e+00	0	42	0	374341632	60	5138
2026-01-09 10:02:43.88	163.61	33.28	-44.2	-47.6	15.4	0.00e+00	0	42	0	376438784	60	5162
2026-01-09 10:02:44.89	163.62	33.50	-44.1	-47.4	15.6	0.00e+00	0	42	0	377487360	60	5093
2026-01-09 10:02:45.89	163.64	33.72	-44.1	-47.4	15.6	0.00e+00	0	42	0	379584512	60	5077
2026-01-09 10:02:46.89	163.65	33.94	-44.0	-47.2	15.8	0.00e+00	0	42	0	381681664	59	5235
2026-01-09 10:02:47.89	163.66	34.16	-43.9	-47.0	15.9	0.00e+00	0	42	0	383778816	59	5146
2026-01-09 10:02:48.90	163.68	34.38	-43.6	-46.6	16.3	0.00e+00	0	42	0	385875968	59	4903
2026-01-09 10:02:49.90	163.69	34.60	-43.4	-46.2	16.7	0.00e+00	0	42	0	386924544	58	4962
2026-01-09 10:02:50.90	163.71	34.83	-43.3	-46.1	16.9	0.00e+00	0	42	0	389021696	58	4882
2026-01-09 10:02:51.97	163.72	35.07	-43.1	-45.8	17.1	0.00e+00	0	42	0	391118848	58	4745
2026-01-09 10:02:52.87	163.74	35.28	-42.8	-45.4	17.5	0.00e+00	0	42	0	393216000	57	4808
2026-01-09 10:02:54.00	163.76	35.54	-42.6	-45.2	17.7	0.00e+00	0	42	0	395313152	57	4656
2026-01-09 10:02:54.87	163.77	35.74	-42.2	-44.7	18.2	0.00e+00	0	42	0	396361728	56	4687
2026-01-09 10:02:56.01	163.79	36.00	-42.0	-44.4	18.5	0.00e+00	0	42	0	398458880	56	4545
2026-01-09 10:02:56.87	163.80	36.20	-41.7	-44.1	18.6	0.00e+00	0	42	0	400556032	55	4643
2026-01-09 10:02:58.02	163.82	36.48	-41.7	-44.1	18.6	0.00e+00	0	42	0	402653184	55	4615
2026-01-09 10:02:58.88	163.83	36.68	-41.7	-44.1	18.7	0.00e+00	0	42	0	403701760	55	4609
2026-01-09 10:03:00.02	163.85	36.96	-41.7	-44.1	18.6	0.00e+00	0	42	0	405798912	55	4623
2026-01-09 10:03:00.88	163.86	37.16	-41.6	-44.0	18.7	0.00e+00	0	42	0	407896064	55	4562
2026-01-09 10:03:02.03	163.88	37.44	-41.6	-44.0	18.8	0.00e+00	0	42	0	409993216	55	4548
2026-01-09 10:03:02.89	163.90	37.65	-41.6	-43.9	18.8	0.00e+00	0	42	0	412090368	55	4542
2026-01-09 10:03:04.04	163.92	37.94	-41.7	-44.1	18.7	0.00e+00	0	42	0	414187520	55	4601
2026-01-09 10:03:04.90	163.93	38.15	-41.5	-43.9	18.8	0.00e+00	0	42	0	415236096	55	4494
2026-01-09 10:03:06.04	163.95	38.44	-41.8	-44.2	18.6	0.00e+00	0	42	0	417333248	55	4660
2026-01-09 10:03:06.93	163.97	38.66	-41.7	-44.1	18.7	0.00e+00	0	42	0	419430400	55	4632
2026-01-09 10:03:08.07	163.99	38.96	-41.7	-44.1	18.6	0.00e+00	0	42	0	421527552	55	4644
2026-01-09 10:03:09.00	164.01	39.19	-41.7	-44.1	18.6	0.00e+00	0	42	0	422576128	55	4616
2026-01-09 10:03:10.00	164.03	39.45	-41.7	-44.1	18.6	0.00e+00	0	42	0	424673280	55	4639
2026-01-09 10:03:11.00	164.04	39.71	-41.6	-44.0	18.8	0.00e+00	0	42	0	426770432	55	4571
2026-01-09 10:03:12.01	164.06	39.98	-41.4	-43.7	19.0	0.00e+00	0	42	0	428867584	54	4702
2026-01-09 10:03:13.01	164.08	40.24	-41.4	-43.6	19.1	0.00e+00	0	42	0	430964736	54	4649
2026-01-09 10:03:14.01	164.10	40.51	-41.3	-43.5	19.2	0.00e+00	0	42	0	432013312	54	4593
2026-01-09 10:03:15.01	164.12	40.78	-41.3	-43.5	19.2	0.00e+00	0	42	0	434110464	54	4584
2026-01-09 10:03:16.02	164.14	41.05	-41.2	-43.5	19.2	0.00e+00	0	42	0	436207616	54	4561
2026-01-09 10:03:17.02	164.16	41.32	-41.4	-43.6	19.1	0.00e+00	0	42	0	438304768	54	4642
2026-01-09 10:03:18.02	164.18	41.60	-41.5	-43.8	18.9	0.00e+00	0	42	0	440401920	54	4748
2026-01-09 10:03:19.03	164.20	41.88	-41.6	-43.9	18.9	0.00e+00	0	42	0	441450496	54	4778
2026-01-09 10:03:20.03	164.23	42.16	-41.6	-43.9	18.8	0.00e+00	0	42	0	443547648	54	4803
2026-01-09 10:03:21.03	164.25	42.44	-41.7	-44.1	18.7	0.00e+00	0	42	0	445644800	54	4879
2026-01-09 10:03:22.04	164.27	42.72	-41.6	-43.9	18.8	0.00e+00	0	42	0	447741952	54	4812
2026-01-09 10:03:23.04	164.29	43.01	-41.5	-43.8	18.9	0.00e+00	0	42	0	449839104	54	4719
2026-01-09 10:03:24.04	164.31	43.30	-41.6	-43.9	18.9	0.00e+00	0	42	0	450887680	54	4779
2026-01-09 10:03:25.04	164.34	43.59	-41.6	-43.9	18.8	0.00e+00	0	42	0	452984832	54	4813
2026-01-09 10:03:26.05	164.36	43.88	-41.8	-44.2	18.6	0.00e+00	0	42	0	455081984	54	4937
2026-01-09 10:03:27.05	164.38	44.17	-42.2	-44.7	18.1	0.00e+00	0	42	0	457179136	55	4930
2026-01-09 10:03:28.05	164.41	44.47	-43.0	-45.6	17.4	0.00e+00	0	42	0	459276288	56	5179
2026-01-09 10:03:29.06	164.43	44.77	-43.4	-46.2	16.8	0.00e+00	0	42	0	460324864	57	5241
2026-01-09 10:03:30.06	164.46	45.07	-43.8	-46.8	16.2	0.00e+00	0	42	0	462422016	58	5285
2026-01-09 10:03:31.06	164.48	45.38	-44.0	-47.0	16.0	0.00e+00	0	42	0	464519168	58	5420
2026-01-09 10:03:32.07	164.51	45.68	-44.1	-47.1	15.9	0.00e+00	0	42	0	466616320	58	5511
2026-01-09 10:03:33.07	164.54	45.99	-44.1	-47.2	15.8	0.00e+00	0	42	0	468713472	58	5531
2026-01-09 10:03:34.07	164.56	46.30	-43.9	-46.9	16.1	0.00e+00	0	42	0	469762048	58	5359
2026-01-09 10:03:35.08	164.59	46.62	-43.9	-46.9	16.0	0.00e+00	0	42	0	471859200	58	5394
2026-01-09 10:03:36.16	164.62	46.96	-44.2	-47.3	15.8	0.00e+00	0	42	0	473956352	58	5609
2026-01-09 10:03:37.02	164.64	47.23	-44.4	-47.6	15.5	0.00e+00	0	42	0	476053504	59	5498
2026-01-09 10:03:38.17	164.68	47.60	-44.6	-47.8	15.2	0.00e+00	0	42	0	478150656	59	5630
2026-01-09 10:03:39.02	164.70	47.87	-44.6	-47.9	15.2	0.00e+00	0	42	0	479199232	60	5355
2026-01-09 10:03:40.17	164.73	48.24	-44.6	-47.9	15.1	0.00e+00	0	42	0	481296384	60	5373
2026-01-09 10:03:41.03	164.76	48.53	-44.6	-47.9	15.2	0.00e+00	0	42	0	483393536	60	5367
2026-01-09 10:03:42.18	164.80	48.90	-44.4	-47.7	15.4	0.00e+00	0	42	0	485490688	60	5247
2026-01-09 10:03:43.34	164.83	49.29	-44.3	-47.5	15.6	0.00e+00	0	42	0	487587840	60	5109
2026-01-09 10:03:44.20	164.86	49.58	-44.3	-47.5	15.6	0.00e+00	0	42	0	488636416	60	5116
2026-01-09 10:03:45.35	164.90	49.97	-44.1	-47.2	15.9	0.00e+00	0	42	0	490733568	60	4964
2026-01-09 10:03:46.21	164.93	50.26	-44.0	-47.0	16.0	0.00e+00	0	42	0	492830720	59	5146
2026-01-09 10:03:47.36	164.97	50.65	-43.8	-46.8	16.2	0.00e+00	0	42	0	494927872	59	5008
2026-01-09 10:03:48.22	165.00	50.95	-43.4	-46.2	16.8	0.00e+00	0	42	0	497025024	58	4956
2026-01-09 10:03:49.36	165.04	51.34	-43.0	-45.6	17.4	0.00e+00	0	42	0	499122176	58	4638
2026-01-09 10:03:50.22	165.07	51.64	-42.5	-45.0	18.0	0.00e+00	0	42	0	500170752	56	4863
2026-01-09 10:03:51.37	165.11	52.05	-42.0	-44.4	18.5	0.00e+00	0	42	0	502267904	56	4537
2026-01-09 10:03:52.23	165.14	52.35	-41.6	-43.9	18.8	0.00e+00	0	42	0	504365056	55	4526
2026-01-09 10:03:53.38	165.19	52.77	-41.1	-43.4	19.4	0.00e+00	0	42	0	506462208	54	4500
2026-01-09 10:03:54.23	165.22	53.07	-41.0	-43.2	19.5	0.00e+00	0	42	0	507510784	54	4418
2026-01-09 10:03:55.54	165.27	53.55	-40.8	-43.0	19.7	0.00e+00	0	42	0	510656512	53	4566
2026-01-09 10:03:56.26	165.30	53.81	-40.8	-43.0	19.7	0.00e+00	0	42	0	511705088	53	4566
2026-01-09 10:03:57.55	165.36	54.29	-40.9	-43.1	19.6	0.00e+00	0	42	0	513802240	53	4616
2026-01-09 10:03:58.27	165.39	54.55	-41.0	-43.2	19.5	0.00e+00	0	42	0	515899392	53	4701
2026-01-09 10:03:59.55	165.45	55.03	-41.5	-43.8	19.0	0.00e+00	0	42	0	517996544	53	5022
2026-01-09 10:04:00.27	165.48	55.30	-41.6	-44.0	18.8	0.00e+00	0	42	0	519045120	53	5126
2026-01-09 10:04:01.56	165.54	55.79	-42.0	-44.4	18.4	0.00e+00	0	42	0	521142272	54	5073
2026-01-09 10:04:02.28	165.58	56.06	-41.7	-44.1	18.7	0.00e+00	0	42	0	523239424	54	4903
2026-01-09 10:04:03.57	165.64	56.56	-41.9	-44.3	18.5	0.00e+00	0	42	0	525336576	54	5019
2026-01-09 10:04:04.29	165.68	56.84	-42.2	-44.7	18.1	0.00e+00	0	42	0	526385152	55	4947
2026-01-09 10:04:05.58	165.74	57.34	-42.6	-45.2	17.6	0.00e+00	0	42	0	529530880	55	5270
2026-01-09 10:04:06.29	165.78	57.62	-43.1	-45.8	17.2	0.00e+00	0	42	0	530579456	56	5306
2026-01-09 10:04:07.58	165.85	58.13	-43.3	-46.1	16.9	0.00e+00	0	42	0	532676608	57	5193
2026-01-09 10:04:08.30	165.89	58.41	-43.4	-46.2	16.8	0.00e+00	0	42	0	534773760	57	5251
2026-01-09 10:04:09.59	165.97	58.93	-43.5	-46.3	16.8	0.00e+00	0	42	0	536870912	57	5286
2026-01-09 10:04:10.30	166.01	59.22	-43.4	-46.2	16.8	0.00e+00	0	42	0	537919488	57	5235
2026-01-09 10:04:11.59	166.09	59.74	-43.2	-45.9	17.1	0.00e+00	0	42	0	540016640	57	5059
2026-01-09 10:04:12.31	166.14	60.03	-42.8	-45.3	17.6	0.00e+00	0	42	0	542113792	57	4756
2026-01-09 10:04:13.60	166.22	60.56	-42.3	-44.8	18.2	0.00e+00	0	42	0	544210944	56	4747
2026-01-09 10:04:14.32	166.27	60.86	-42.0	-44.5	18.5	0.00e+00	0	42	0	545259520	56	4562
2026-01-09 10:04:15.61	166.36	61.40	-41.4	-43.7	19.1	0.00e+00	0	42	0	548405248	54	4671
2026-01-09 10:04:16.47	166.42	61.76	-41.0	-43.2	19.5	0.00e+00	0	42	0	549453824	54	4419
2026-01-09 10:04:17.61	166.50	62.24	-40.4	-42.5	20.2	0.00e+00	0	42	0	551550976	52	4561
2026-01-09 10:04:18.47	166.57	62.60	-40.2	-42.3	20.4	0.00e+00	0	42	0	553648128	52	4449
2026-01-09 10:04:19.62	166.66	63.09	-40.1	-42.1	20.6	0.00e+00	0	42	0	555745280	52	4375
2026-01-09 10:04:20.48	166.73	63.46	-40.0	-42.1	20.5	0.00e+00	0	42	0	556793856	52	4362
2026-01-09 10:04:21.63	166.83	63.96	-40.4	-42.5	20.1	0.00e+00	0	42	0	558891008	52	4584
2026-01-09 10:04:22.49	166.91	64.33	-40.6	-42.8	19.9	0.00e+00	0	42	0	560988160	52	4743
2026-01-09 10:04:23.64	167.01	64.83	-41.3	-43.6	19.1	0.00e+00	0	42	0	563085312	53	4906
2026-01-09 10:04:24.50	167.09	65.21	-41.9	-44.4	18.4	0.00e+00	0	42	0	564133888	54	5064
2026-01-09 10:04:25.64	167.21	65.71	-42.5	-45.1	17.7	0.00e+00	0	42	0	567279616	55	5213
2026-01-09 10:04:26.50	167.30	66.09	-43.1	-45.8	17.2	0.00e+00	0	42	0	568328192	56	5294
2026-01-09 10:04:27.65	167.42	66.61	-43.2	-46.0	17.0	0.00e+00	0	42	0	570425344	57	5121
2026-01-09 10:04:28.51	167.51	66.99	-43.3	-46.0	17.0	0.00e+00	0	42	0	572522496	57	5146
2026-01-09 10:04:29.66	167.65	67.51	-43.2	-46.0	17.1	0.00e+00	0	42	0	574619648	57	5111
2026-01-09 10:04:30.52	167.75	67.90	-43.4	-46.2	16.9	0.00e+00	0	42	0	575668224	57	5234
2026-01-09 10:04:31.66	167.90	68.42	-43.8	-46.8	16.2	0.00e+00	0	42	0	577765376	58	5320
2026-01-09 10:04:32.52	168.01	68.81	-44.2	-47.3	15.7	0.00e+00	0	42	0	579862528	59	5324
2026-01-09 10:04:33.67	168.17	69.34	-43.9	-46.9	16.1	0.00e+00	0	42	0	581959680	59	5062
2026-01-09 10:04:34.53	168.30	69.74	-43.4	-46.2	16.8	0.00e+00	0	42	0	583008256	58	4947
2026-01-09 10:04:35.68	168.47	70.27	-43.1	-45.8	17.1	0.00e+00	0	42	0	586153984	58	4752
2026-01-09 10:04:36.82	168.66	70.80	-42.7	-45.2	17.8	0.00e+00	0	42	0	588251136	57	4694
2026-01-09 10:04:37.68	168.80	71.21	-42.6	-45.2	17.8	0.00e+00	0	42	0	589299712	57	4661
2026-01-09 10:04:38.83	169.01	71.75	-43.3	-46.1	16.9	0.00e+00	0	42	0	591396864	57	5172
2026-01-09 10:04:39.69	169.17	72.15	-44.1	-47.1	15.9	0.00e+00	0	42	0	593494016	58	5523
2026-01-09 10:04:40.84	169.40	72.70	-44.6	-47.8	15.3	0.00e+00	0	42	0	595591168	59	5643
2026-01-09 10:04:41.70	169.58	73.11	-44.2	-47.3	15.6	0.00e+00	0	42	0	596639744	59	5336
2026-01-09 10:04:42.84	169.84	73.65	-44.2	-47.3	15.7	0.00e+00	0	42	0	598736896	59	5319
2026-01-09 10:04:43.70	170.04	74.07	-44.5	-47.8	15.3	0.00e+00	0	42	0	600834048	59	5597
2026-01-09 10:04:44.92	170.35	74.65	-44.9	-48.4	14.6	0.00e+00	0	42	0	602931200	60	5663
2026-01-09 10:04:45.78	170.58	75.07	-44.9	-48.4	14.6	7.00e-07	0	42	0	605028352	60	5680
2026-01-09 10:04:47.00	170.94	75.66	-44.5	-47.9	15.1	0.00e+00	0	42	0	607125504	60	5365
2026-01-09 10:04:47.85	171.20	76.07	-44.2	-47.4	15.6	0.00e+00	0	42	0	608174080	60	5063
2026-01-09 10:04:49.00	171.59	76.63	-43.8	-46.8	16.1	0.00e+00	0	42	0	610271232	59	5034
2026-01-09 10:04:49.86	171.90	77.05	-43.8	-46.7	16.3	0.00e+00	0	42	0	612368384	59	4935
2026-01-09 10:04:51.00	172.34	77.61	-43.8	-46.7	16.3	0.00e+00	0	42	0	614465536	59	4945
2026-01-09 10:04:51.86	172.71	78.03	-43.6	-46.5	16.5	0.00e+00	0	42	0	615514112	59	4828
2026-01-09 10:04:53.01	173.24	78.59	-43.2	-45.9	17.0	0.00e+00	0	42	0	617611264	58	4783
2026-01-09 10:04:53.87	173.67	79.02	-42.6	-45.1	17.7	0.00e+00	0	42	0	619708416	57	4636
2026-01-09 10:04:55.02	174.30	79.58	-42.1	-44.5	18.4	0.00e+00	0	42	0	621805568	56	4569
2026-01-09 10:04:55.88	174.82	80.01	-41.6	-43.9	18.9	0.00e+00	0	42	0	623902720	55	4506
2026-01-09 10:04:57.02	175.59	80.57	-41.6	-44.0	18.8	0.00e+00	0	42	0	625999872	55	4568
2026-01-09 10:04:57.88	176.23	80.99	-41.9	-44.3	18.5	0.00e+00	0	42	0	627048448	55	4713
2026-01-09 10:04:59.03	177.18	81.55	-42.4	-45.0	17.9	0.00e+00	0	42	0	629145600	55	5115
2026-01-09 10:04:59.89	177.98	81.98	-43.5	-46.2	16.8	0.00e+00	0	42	0	631242752	57	5277
2026-01-09 10:05:01.10	179.27	82.57	-45.1	-48.8	14.3	0.00e+00	0	42	0	633339904	60	5982
2026-01-09 10:05:01.96	180.32	82.99	-45.3	-49.3	13.8	5.30e-06	0	42	0	635437056	61	5942
2026-01-09 10:05:03.11	181.93	83.54	-44.6	-48.0	14.9	7.00e-07	0	43	0	637534208	61	5148
2026-01-09 10:05:03.97	183.33	83.96	-43.9	-46.9	16.1	0.00e+00	0	42	0	638582784	59	5089
2026-01-09 10:05:05.12	185.53	84.50	-43.3	-46.0	17.0	0.00e+00	0	42	0	640679936	58	4869
2026-01-09 10:05:06.04	187.63	84.93	-43.4	-46.2	16.8	0.00e+00	0	42	0	642777088	58	4976
2026-01-09 10:05:07.04	190.35	85.39	-43.7	-46.7	16.4	0.00e+00	0	42	0	644874240	58	5254
2026-01-09 10:05:08.04	193.68	85.84	-43.6	-46.6	16.5	0.00e+00	0	42	0	645922816	58	5164
2026-01-09 10:05:09.04	197.78	86.27	-43.7	-46.6	16.4	0.00e+00	0	42	0	648019968	58	5185
2026-01-09 10:05:10.05	202.99	86.68	-44.1	-47.3	15.8	0.00e+00	0	42	0	650117120	58	5616
2026-01-09 10:05:11.05	209.52	87.05	-44.1	-47.4	15.7	0.00e+00	0	42	0	652214272	58	5674
2026-01-09 10:05:12.05	217.81	87.38	-43.9	-47.2	15.8	0.00e+00	0	43	0	654311424	58	5541
2026-01-09 10:05:13.06	228.26	87.64	-43.4	-46.4	16.6	0.00e+00	0	42	0	655360000	58	5066
2026-01-09 10:05:14.06	240.60	87.80	-42.9	-45.6	17.3	0.00e+00	0	42	0	657457152	57	4904
2026-01-09 10:05:15.06	254.15	87.84	-42.6	-45.2	17.8	0.00e+00	0	43	0	659554304	56	4961
2026-01-09 10:05:16.06	267.53	87.77	-42.8	-45.4	17.6	0.00e+00	0	42	0	661651456	56	5042
2026-01-09 10:05:17.07	279.56	87.58	-43.0	-45.7	17.3	0.00e+00	0	42	0	663748608	56	5243
2026-01-09 10:05:18.07	289.40	87.31	-43.4	-46.2	16.8	0.00e+00	0	42	0	664797184	57	5243
2026-01-09 10:05:19.07	297.24	86.97	-43.8	-46.7	16.3	0.00e+00	0	42	0	666894336	58	5272
2026-01-09 10:05:20.19	304.06	86.54	-43.7	-46.6	16.5	0.00e+00	0	42	0	668991488	58	5185
2026-01-09 10:05:21.04	308.17	86.19	-43.2	-46.0	17.0	0.00e+00	0	42	0	671088640	58	4827
2026-01-09 10:05:22.19	312.63	85.69	-42.6	-45.2	17.8	0.00e+00	0	42	0	673185792	57	4674
2026-01-09 10:05:23.05	315.33	85.30	-42.1	-44.6	18.5	0.00e+00	0	42	0	674234368	56	4600
2026-01-09 10:05:24.20	318.31	84.77	-41.6	-44.0	18.8	0.00e+00	0	42	0	676331520	55	4569
2026-01-09 10:05:25.06	320.16	84.36	-41.7	-44.0	18.7	0.00e+00	0	42	0	678428672	55	4598
2026-01-09 10:05:26.20	322.24	83.82	-42.5	-45.1	17.8	0.00e+00	0	42	0	680525824	55	5174
2026-01-09 10:05:27.06	323.58	83.41	-43.5	-46.4	16.6	0.00e+00	0	42	0	681574400	57	5382
2026-01-09 10:05:28.21	325.13	82.85	-44.5	-47.8	15.3	0.00e+00	0	42	0	683671552	59	5631
2026-01-09 10:05:29.07	326.13	82.43	-44.9	-48.5	14.5	7.00e-07	0	42	0	685768704	60	5773
2026-01-09 10:05:30.30	327.39	81.83	-45.1	-48.7	14.3	1.50e-06	0	42	0	687865856	61	5551
2026-01-09 10:05:31.16	328.17	81.41	-44.9	-48.4	14.7	0.00e+00	0	42	0	689963008	61	5401
2026-01-09 10:05:32.30	329.08	80.85	-44.0	-47.0	16.1	0.00e+00	0	42	0	692060160	59	5139
2026-01-09 10:05:33.16	329.70	80.43	-43.3	-46.1	16.9	0.00e+00	0	42	0	693108736	58	4907
2026-01-09 10:05:34.31	330.45	79.86	-42.2	-44.7	18.3	0.00e+00	0	43	0	695205888	56	4659
2026-01-09 10:05:35.17	330.95	79.44	-42.2	-44.6	18.4	0.00e+00	0	43	0	697303040	56	4606
2026-01-09 10:05:36.32	331.57	78.87	-43.1	-45.8	17.2	0.00e+00	0	42	0	699400192	56	5335
2026-01-09 10:05:37.18	331.99	78.45	-43.8	-46.8	16.2	0.00e+00	0	42	0	700448768	58	5322
2026-01-09 10:05:38.33	332.51	77.89	-44.4	-47.7	15.4	0.00e+00	0	42	0	703594496	59	5571
2026-01-09 10:05:39.19	332.86	77.47	-45.4	-49.3	13.8	7.00e-07	0	42	0	704643072	61	5980
2026-01-09 10:05:40.33	333.30	76.91	-45.8	-50.0	13.0	6.25e-05	0	42	0	706740224	62	6120
2026-01-09 10:05:41.20	333.60	76.49	-45.5	-49.4	13.6	3.50e-05	0	42	0	708837376	62	5711
2026-01-09 10:05:42.34	333.98	75.94	-45.1	-48.6	14.5	7.00e-07	0	42	0	710934528	62	5213
2026-01-09 10:05:43.20	334.24	75.52	-44.6	-47.9	15.2	7.00e-07	0	42	0	711983104	61	5057
2026-01-09 10:05:44.35	334.57	74.96	-45.6	-49.5	13.6	7.00e-07	0	43	0	714080256	61	6110
2026-01-09 10:05:45.21	334.80	74.55	-45.7	-49.7	13.4	2.05e-05	0	42	0	716177408	62	5859
2026-01-09 10:05:46.35	335.08	74.00	-44.2	-47.4	15.7	0.00e+00	0	42	0	718274560	60	5044
2026-01-09 10:05:47.21	335.29	73.59	-43.4	-46.1	17.0	0.00e+00	0	42	0	719323136	58	4908
2026-01-09 10:05:48.36	335.54	73.04	-43.1	-45.7	17.3	0.00e+00	0	42	0	721420288	58	4704
2026-01-09 10:05:49.22	335.72	72.63	-43.3	-46.0	17.1	0.00e+00	0	42	0	723517440	58	4818
2026-01-09 10:05:50.56	335.98	72.00	-42.8	-45.4	17.6	0.00e+00	0	42	0	725614592	57	4778
2026-01-09 10:05:51.27	336.12	71.67	-42.2	-44.6	18.4	0.00e+00	0	42	0	727711744	56	4645
2026-01-09 10:05:52.56	336.34	71.06	-41.6	-43.9	19.0	0.00e+00	0	42	0	729808896	54	4768
2026-01-09 10:05:53.28	336.46	70.73	-42.2	-44.6	18.3	0.00e+00	0	42	0	730857472	54	5211
2026-01-09 10:05:54.57	336.67	70.13	-44.2	-47.2	15.9	0.00e+00	0	42	0	734003200	58	5581
2026-01-09 10:05:55.28	336.78	69.80	-44.2	-47.2	15.8	0.00e+00	0	42	0	735051776	59	5265
2026-01-09 10:05:56.58	336.97	69.20	-43.2	-45.9	17.2	0.00e+00	0	42	0	737148928	58	4766
2026-01-09 10:05:57.29	337.06	68.87	-43.6	-46.5	16.6	0.00e+00	0	42	0	738197504	58	5106
2026-01-09 10:05:58.58	337.23	68.28	-45.9	-50.2	12.9	1.67e-05	0	42	0	741343232	62	6246
2026-01-09 10:05:59.30	337.32	67.96	-46.5	-51.3	11.7	2.24e-04	0	42	0	742391808	63	6700
2026-01-09 10:06:00.59	337.48	67.37	-45.2	-48.9	14.2	2.36e-05	0	43	0	744488960	62	5341
2026-01-09 10:06:01.56	337.59	66.94	-44.2	-47.3	15.8	0.00e+00	0	42	0	746586112	60	5031
2026-01-09 10:06:02.57	337.70	66.49	-44.1	-47.1	16.0	0.00e+00	0	42	0	748683264	60	4906
2026-01-09 10:06:03.57	337.81	66.04	-44.0	-46.9	16.1	0.00e+00	0	42	0	750780416	59	5082
2026-01-09 10:06:04.57	337.91	65.60	-44.9	-48.5	14.7	0.00e+00	0	42	0	751828992	60	5736
2026-01-09 10:06:05.58	338.01	65.16	-44.9	-48.6	14.5	1.50e-06	0	42	0	753926144	60	5823
2026-01-09 10:06:06.58	338.10	64.72	-43.5	-46.4	16.6	0.00e+00	0	42	0	756023296	59	4812
2026-01-09 10:06:07.58	338.20	64.29	-42.8	-45.4	17.5	0.00e+00	0	42	0	758120448	57	4808
2026-01-09 10:06:08.59	338.28	63.85	-42.6	-45.1	17.9	0.00e+00	0	42	0	760217600	56	4897
2026-01-09 10:06:09.59	338.37	63.42	-42.0	-44.4	18.6	0.00e+00	0	42	0	761266176	56	4502
2026-01-09 10:06:10.59	338.45	62.99	-41.2	-43.5	19.3	0.00e+00	0	42	0	763363328	54	4586
2026-01-09 10:06:11.60	338.53	62.57	-41.2	-43.5	19.3	0.00e+00	0	42	0	765460480	54	4571
2026-01-09 10:06:12.60	338.61	62.14	-40.7	-42.9	19.8	0.00e+00	0	42	0	767557632	53	4542
2026-01-09 10:06:13.60	338.68	61.72	-40.4	-42.5	20.2	0.00e+00	0	42	0	769654784	52	4584
2026-01-09 10:06:14.86	338.77	61.20	-41.1	-43.3	19.4	0.00e+00	0	42	0	771751936	52	5041
2026-01-09 10:06:15.62	338.82	60.89	-42.5	-45.1	17.8	0.00e+00	0	42	0	772800512	55	5163
2026-01-09 10:06:16.92	338.91	60.35	-44.2	-47.4	15.7	0.00e+00	0	42	0	775946240	58	5672
2026-01-09 10:06:17.68	338.96	60.04	-43.8	-46.9	16.1	0.00e+00	0	42	0	776994816	58	5349
2026-01-09 10:06:18.97	339.04	59.52	-43.2	-45.9	17.1	0.00e+00	0	42	0	779091968	58	4785
2026-01-09 10:06:19.78	339.09	59.19	-43.6	-46.5	16.6	0.00e+00	0	42	0	781189120	58	5104
2026-01-09 10:06:20.93	339.16	58.73	-44.4	-47.6	15.5	0.00e+00	0	42	0	783286272	59	5504
2026-01-09 10:06:22.03	339.22	58.29	-45.0	-48.7	14.4	0.00e+00	0	43	0	785383424	60	5861
2026-01-09 10:06:23.06	339.28	57.89	-45.0	-48.7	14.4	7.00e-07	0	42	0	786432000	60	5884
2026-01-09 10:06:24.06	339.33	57.50	-45.2	-49.0	14.1	7.00e-07	0	43	0	788529152	60	6082
2026-01-09 10:06:25.07	339.39	57.10	-44.7	-48.1	14.9	0.00e+00	0	43	0	790626304	60	5488
2026-01-09 10:06:26.07	339.44	56.72	-43.9	-46.9	16.2	0.00e+00	0	42	0	792723456	59	5075
2026-01-09 10:06:27.08	339.49	56.33	-43.3	-46.1	17.0	0.00e+00	0	42	0	794820608	58	4875
2026-01-09 10:06:28.08	339.54	55.95	-43.4	-46.2	16.9	0.00e+00	0	42	0	796917760	58	4958
2026-01-09 10:06:29.08	339.58	55.57	-43.3	-46.0	17.0	0.00e+00	0	42	0	797966336	58	4861
2026-01-09 10:06:30.45	339.65	55.05	-42.6	-45.1	17.8	0.00e+00	0	42	0	801112064	57	4647
2026-01-09 10:06:31.20	339.68	54.78	-42.2	-44.7	18.3	0.00e+00	0	42	0	802160640	56	4660
2026-01-09 10:06:32.49	339.74	54.30	-42.6	-45.2	17.8	0.00e+00	0	42	0	804257792	56	4955
2026-01-09 10:06:33.21	339.77	54.03	-43.0	-45.7	17.3	0.00e+00	0	42	0	806354944	56	5267
2026-01-09 10:06:34.50	339.82	53.56	-43.0	-45.7	17.3	0.00e+00	0	42	0	808452096	57	4966
2026-01-09 10:06:35.21	339.85	53.31	-42.4	-45.0	18.0	0.00e+00	0	42	0	809500672	56	4818
2026-01-09 10:06:36.50	339.90	52.84	-42.0	-44.4	18.6	0.00e+00	0	42	0	812646400	56	4511
2026-01-09 10:06:37.22	339.93	52.59	-42.1	-44.6	18.4	0.00e+00	0	42	0	813694976	56	4604
2026-01-09 10:06:38.54	339.98	52.12	-43.0	-45.8	17.3	0.00e+00	0	43	0	815792128	56	5308
2026-01-09 10:06:39.26	340.01	51.86	-43.4	-46.4	16.6	0.00e+00	0	42	0	816840704	57	5373
2026-01-09 10:06:40.65	340.06	51.38	-44.4	-47.7	15.3	0.00e+00	0	43	0	819986432	59	5589
2026-01-09 10:06:41.36	340.09	51.13	-44.6	-48.1	14.9	7.00e-07	0	43	0	821035008	60	5511
2026-01-09 10:06:42.65	340.13	50.69	-45.2	-49.0	14.0	1.50e-06	0	42	0	824180736	61	5783
2026-01-09 10:06:43.70	340.17	50.33	-45.4	-49.3	13.7	2.20e-06	0	43	0	825229312	61	5967
2026-01-09 10:06:44.61	340.20	50.02	-45.2	-49.0	14.0	4.50e-06	0	43	0	827326464	61	5785
2026-01-09 10:06:45.64	340.23	49.68	-44.7	-48.1	14.9	7.00e-07	0	43	0	829423616	61	5201
2026-01-09 10:06:46.63	340.26	49.35	-44.8	-48.3	14.8	0.00e+00	0	42	0	831520768	61	5293
2026-01-09 10:06:47.64	340.30	49.01	-45.2	-49.0	14.1	0.00e+00	0	42	0	832569344	61	5756
2026-01-09 10:06:48.64	340.33	48.69	-46.9	-52.7	10.2	2.24e-04	0	42	0	834666496	64	7400
2026-01-09 10:06:49.64	340.36	48.36	-47.9	-56.7	6.2	8.52e-02	0	42	0	836763648	66	10413
2026-01-09 10:06:50.64	340.39	48.04	-46.8	-53.0	9.5	6.27e-02	0	43	0	838860800	65	7215
2026-01-09 10:06:51.64	340.42	47.72	-45.4	-49.5	13.5	3.04e-04	0	42	0	840957952	62	5743
2026-01-09 10:06:52.65	340.45	47.39	-44.3	-47.6	15.4	0.00e+00	0	42	0	842006528	60	5205
2026-01-09 10:06:53.65	340.48	47.08	-43.3	-46.1	17.0	0.00e+00	0	43	0	844103680	58	4883
2026-01-09 10:06:54.65	340.50	46.76	-42.9	-45.5	17.5	0.00e+00	0	42	0	846200832	57	4856
2026-01-09 10:06:55.66	340.53	46.45	-42.8	-45.4	17.6	0.00e+00	0	42	0	848297984	57	4771
2026-01-09 10:06:56.98	340.57	46.04	-43.6	-46.4	16.6	0.00e+00	0	42	0	850395136	57	5393
2026-01-09 10:06:57.70	340.59	45.82	-43.9	-46.8	16.2	0.00e+00	0	42	0	851443712	58	5330
2026-01-09 10:06:58.99	340.62	45.43	-44.1	-47.2	15.9	0.00e+00	0	42	0	854589440	58	5557
2026-01-09 10:06:59.71	340.64	45.21	-44.3	-47.5	15.6	0.00e+00	0	43	0	855638016	59	5414
2026-01-09 10:07:00.99	340.67	44.83	-43.6	-46.7	16.3	0.00e+00	0	42	0	857735168	59	4947
2026-01-09 10:07:01.71	340.69	44.61	-43.1	-46.0	17.0	0.00e+00	0	43	0	859832320	58	4864
2026-01-09 10:07:03.00	340.72	44.23	-42.1	-44.8	18.1	0.00e+00	0	42	0	861929472	56	4746
2026-01-09 10:07:03.71	340.74	44.02	-41.5	-44.0	18.7	0.00e+00	0	42	0	862978048	55	4587
2026-01-09 10:07:05.09	340.77	43.62	-40.8	-43.1	19.7	0.00e+00	0	42	0	866123776	53	4626
2026-01-09 10:07:05.80	340.79	43.42	-40.8	-43.1	19.6	0.00e+00	0	42	0	867172352	53	4633
2026-01-09 10:07:07.17	340.82	43.03	-40.9	-43.1	19.6	0.00e+00	0	42	0	869269504	53	4646
2026-01-09 10:07:07.89	340.83	42.82	-41.3	-43.6	19.2	0.00e+00	0	43	0	871366656	53	4882
2026-01-09 10:07:09.24	340.86	42.44	-42.2	-44.7	18.1	0.00e+00	0	42	0	873463808	54	5245
2026-01-09 10:07:09.96	340.88	42.24	-43.2	-46.0	17.0	0.00e+00	0	42	0	874512384	57	5150
2026-01-09 10:07:11.25	340.91	41.88	-44.1	-47.3	15.8	0.00e+00	0	42	0	877658112	58	5617
2026-01-09 10:07:11.96	340.92	41.69	-44.3	-47.6	15.4	0.00e+00	0	42	0	878706688	59	5500
2026-01-09 10:07:13.25	340.95	41.33	-43.7	-46.8	16.3	0.00e+00	0	42	0	880803840	59	5003
2026-01-09 10:07:13.97	340.96	41.14	-43.4	-46.3	16.7	0.00e+00	0	42	0	882900992	58	5029
2026-01-09 10:07:15.26	340.99	40.79	-42.8	-45.6	17.3	0.00e+00	0	42	0	884998144	57	4915
2026-01-09 10:07:15.97	341.00	40.60	-42.6	-45.4	17.6	0.00e+00	0	42	0	886046720	57	4769
2026-01-09 10:07:17.26	341.03	40.26	-42.5	-45.2	17.8	0.00e+00	0	42	0	888143872	57	4680
2026-01-09 10:07:18.08	341.05	40.05	-42.5	-45.2	17.8	0.00e+00	0	43	0	890241024	57	4656
2026-01-09 10:07:19.54	341.07	39.66	-42.9	-45.6	17.4	0.00e+00	0	43	0	892338176	57	4903
2026-01-09 10:07:20.25	341.09	39.48	-43.4	-46.2	16.8	0.00e+00	0	43	0	894435328	57	5265
2026-01-09 10:07:21.75	341.12	39.10	-44.6	-47.9	15.1	0.00e+00	0	43	0	896532480	59	5677
2026-01-09 10:07:22.47	341.13	38.91	-45.1	-48.8	14.2	0.00e+00	0	42	0	898629632	60	5966
2026-01-09 10:07:23.84	341.15	38.57	-46.1	-50.7	12.4	7.47e-05	0	43	0	900726784	62	6584
2026-01-09 10:07:24.56	341.17	38.39	-46.3	-51.2	11.8	2.08e-04	0	42	0	901775360	63	6575
2026-01-09 10:07:25.85	341.19	38.07	-46.4	-51.3	11.7	7.96e-04	0	42	0	904921088	63	6692
2026-01-09 10:07:26.56	341.20	37.89	-46.3	-51.2	11.8	5.26e-04	0	43	0	905969664	63	6580
2026-01-09 10:07:27.85	341.23	37.57	-45.7	-50.1	12.9	9.68e-05	0	42	0	908066816	63	5807
2026-01-09 10:07:28.57	341.24	37.40	-45.2	-49.3	13.8	3.28e-05	0	42	0	910163968	62	5597
2026-01-09 10:07:29.86	341.26	37.09	-44.6	-48.5	14.6	1.50e-06	0	42	0	912261120	61	5417
2026-01-09 10:07:30.57	341.27	36.92	-44.3	-48.0	15.0	0.00e+00	0	42	0	913309696	60	5443
2026-01-09 10:07:31.86	341.29	36.61	-44.1	-47.6	15.5	0.00e+00	0	42	0	915406848	60	5160
2026-01-09 10:07:32.58	341.30	36.44	-44.0	-47.5	15.6	0.00e+00	0	42	0	917504000	60	5112
2026-01-09 10:07:33.87	341.33	36.14	-44.2	-47.6	15.5	0.00e+00	0	42	0	919601152	60	5198
2026-01-09 10:07:34.67	341.34	35.95	-44.1	-47.4	15.7	0.00e+00	0	42	0	921698304	60	5064
2026-01-09 10:07:36.13	341.36	35.62	-44.1	-47.4	15.7	0.00e+00	0	43	0	923795456	60	5055
2026-01-09 10:07:37.26	341.38	35.36	-44.4	-47.8	15.2	0.00e+00	0	42	0	925892608	60	5326
2026-01-09 10:07:38.44	341.40	35.09	-44.8	-48.4	14.6	0.00e+00	0	43	0	927989760	60	5717
2026-01-09 10:07:39.30	341.41	34.90	-45.2	-49.2	13.9	7.00e-07	0	43	0	930086912	61	5857
2026-01-09 10:07:40.44	341.43	34.64	-46.0	-50.7	12.3	1.16e-04	0	43	0	932184064	62	6588
2026-01-09 10:07:41.31	341.44	34.45	-46.4	-51.7	11.1	3.39e-04	0	43	0	933232640	63	7017
2026-01-09 10:07:42.45	341.46	34.20	-46.7	-52.7	10.1	3.95e-03	0	43	0	935329792	64	7440
2026-01-09 10:07:43.31	341.47	34.01	-46.8	-53.0	9.7	8.31e-03	0	42	0	937426944	64	7716
2026-01-09 10:07:44.46	341.49	33.76	-46.9	-53.2	9.6	1.20e-02	0	43	0	939524096	64	7842
2026-01-09 10:07:45.32	341.50	33.57	-46.6	-52.6	10.2	7.56e-03	0	43	0	941621248	64	7349
2026-01-09 10:07:46.46	341.52	33.33	-46.3	-51.9	10.9	3.67e-03	0	42	0	943718400	64	6759
2026-01-09 10:07:47.32	341.53	33.15	-46.0	-51.2	11.6	1.45e-03	0	42	0	944766976	63	6611
2026-01-09 10:07:48.47	341.54	32.90	-45.6	-50.5	12.5	2.47e-04	0	43	0	946864128	63	6092
2026-01-09 10:07:49.33	341.56	32.72	-45.4	-50.1	12.9	7.01e-05	0	42	0	948961280	62	6155
2026-01-09 10:07:50.48	341.57	32.48	-45.1	-49.6	13.4	2.05e-05	0	42	0	951058432	62	5805
2026-01-09 10:07:51.34	341.58	32.31	-45.0	-49.3	13.7	1.52e-05	0	42	0	952107008	62	5621
2026-01-09 10:07:52.48	341.60	32.07	-44.9	-49.0	14.0	2.20e-06	0	43	0	954204160	61	5766
2026-01-09 10:07:53.34	341.61	31.90	-44.9	-48.9	14.1	7.00e-07	0	43	0	956301312	61	5703
2026-01-09 10:07:54.49	341.63	31.66	-45.0	-49.0	14.0	2.20e-06	0	42	0	958398464	61	5772
2026-01-09 10:07:55.35	341.64	31.49	-45.1	-49.2	13.8	8.30e-06	0	43	0	960495616	61	5921
2026-01-09 10:07:56.50	341.65	31.26	-45.1	-49.2	13.8	3.80e-06	0	42	0	962592768	61	5883
2026-01-09 10:07:57.36	341.66	31.09	-45.2	-49.4	13.7	7.60e-06	0	42	0	963641344	61	6015
2026-01-09 10:07:58.51	341.68	30.86	-45.1	-49.3	13.7	2.20e-06	0	43	0	965738496	61	5937
2026-01-09 10:07:59.37	341.69	30.70	-45.2	-49.4	13.6	9.10e-06	0	43	0	967835648	61	6029
2026-01-09 10:08:00.51	341.70	30.47	-45.2	-49.3	13.6	9.90e-06	0	42	0	969932800	61	5973
2026-01-09 10:08:01.37	341.71	30.31	-45.2	-49.4	13.6	1.06e-05	0	43	0	970981376	61	6025
2026-01-09 10:08:02.55	341.73	30.08	-45.3	-49.4	13.6	8.30e-06	0	42	0	973078528	61	6031
2026-01-09 10:08:03.41	341.74	29.92	-45.1	-49.1	13.9	8.30e-06	0	43	0	975175680	61	5831
2026-01-09 10:08:04.62	341.75	29.69	-45.1	-49.0	14.0	4.50e-06	0	43	0	977272832	61	5770
2026-01-09 10:08:05.48	341.76	29.53	-45.1	-48.9	14.1	1.50e-06	0	43	0	979369984	61	5705
2026-01-09 10:08:06.63	341.78	29.31	-45.0	-48.7	14.3	3.80e-06	0	42	0	981467136	61	5535
2026-01-09 10:08:07.49	341.79	29.15	-44.8	-48.3	14.7	0.00e+00	0	43	0	982515712	61	5325
2026-01-09 10:08:08.63	341.80	28.94	-44.6	-48.1	14.9	0.00e+00	0	42	0	984612864	61	5189
2026-01-09 10:08:09.54	341.81	28.78	-44.5	-48.0	15.0	0.00e+00	0	43	0	986710016	61	5104
2026-01-09 10:08:10.56	341.82	28.59	-44.2	-47.6	15.4	7.00e-07	0	43	0	988807168	60	5191
2026-01-09 10:08:11.56	341.83	28.41	-44.1	-47.4	15.6	0.00e+00	0	42	0	989855744	60	5087
2026-01-09 10:08:12.56	341.85	28.23	-44.0	-47.3	15.7	0.00e+00	0	43	0	991952896	59	5286
2026-01-09 10:08:13.56	341.86	28.05	-43.8	-47.0	15.9	0.00e+00	0	43	0	994050048	59	5125
2026-01-09 10:08:14.57	341.87	27.88	-43.7	-46.8	16.1	0.00e+00	0	43	0	996147200	59	5008
2026-01-09 10:08:15.57	341.88	27.70	-43.6	-46.7	16.2	0.00e+00	0	42	0	998244352	59	4956
2026-01-09 10:08:16.57	341.89	27.53	-43.4	-46.4	16.5	0.00e+00	0	42	0	1000341504	58	5084
2026-01-09 10:08:17.58	341.90	27.35	-43.4	-46.4	16.6	0.00e+00	0	43	0	1001390080	58	5057
2026-01-09 10:08:18.58	341.91	27.18	-43.2	-46.1	16.8	0.00e+00	0	43	0	1003487232	58	4904
2026-01-09 10:08:19.58	341.92	27.01	-42.9	-45.7	17.2	0.00e+00	0	43	0	1005584384	57	4975
2026-01-09 10:08:20.58	341.93	26.84	-42.9	-45.8	17.1	0.00e+00	0	43	0	1007681536	57	5002
2026-01-09 10:08:21.59	341.95	26.66	-42.9	-45.9	17.0	0.00e+00	0	43	0	1008730112	57	5074
2026-01-09 10:08:22.59	341.96	26.50	-42.8	-45.7	17.2	0.00e+00	0	42	0	1010827264	57	4980
2026-01-09 10:08:23.60	341.97	26.33	-43.0	-46.0	16.9	0.00e+00	0	43	0	1012924416	57	5151
2026-01-09 10:08:24.60	341.98	26.16	-42.9	-46.0	16.9	0.00e+00	0	43	0	1015021568	57	5130
2026-01-09 10:08:25.60	341.99	26.00	-43.0	-46.1	16.8	0.00e+00	0	42	0	1017118720	57	5175
2026-01-09 10:08:26.84	342.00	25.79	-43.1	-46.1	16.8	0.00e+00	0	42	0	1019215872	57	5210
2026-01-09 10:08:27.72	342.01	25.65	-43.1	-46.1	16.8	0.00e+00	0	43	0	1020264448	57	5207
2026-01-09 10:08:29.03	342.02	25.44	-43.2	-46.2	16.8	0.00e+00	0	42	0	1023410176	57	5240
2026-01-09 10:08:29.75	342.03	25.32	-43.2	-46.1	16.8	0.00e+00	0	43	0	1024458752	57	5195
2026-01-09 10:08:31.04	342.04	25.12	-43.1	-46.0	16.9	0.00e+00	0	42	0	1026555904	57	5133
2026-01-09 10:08:31.76	342.05	25.00	-43.1	-45.9	17.0	0.00e+00	0	43	0	1028653056	57	5080
2026-01-09 10:08:33.05	342.06	24.80	-43.0	-45.9	17.0	0.00e+00	0	42	0	1030750208	57	5084
2026-01-09 10:08:33.76	342.07	24.69	-42.9	-45.8	17.1	0.00e+00	0	43	0	1031798784	57	5015
2026-01-09 10:08:35.05	342.08	24.48	-42.7	-45.5	17.4	0.00e+00	0	42	0	1034944512	57	4845
2026-01-09 10:08:35.77	342.09	24.37	-42.5	-45.3	17.6	0.00e+00	0	43	0	1035993088	57	4744
2026-01-09 10:08:37.06	342.10	24.17	-42.2	-45.0	17.9	0.00e+00	0	43	0	1038090240	56	4832
2026-01-09 10:08:37.77	342.11	24.07	-42.1	-44.8	18.0	0.00e+00	0	43	0	1039138816	56	4753
2026-01-09 10:08:39.11	342.12	23.86	-42.0	-44.6	18.2	0.00e+00	0	42	0	1042284544	56	4645
2026-01-09 10:08:39.83	342.13	23.75	-41.7	-44.4	18.3	0.00e+00	0	43	0	1043333120	55	4765
2026-01-09 10:08:41.20	342.14	23.55	-41.7	-44.2	18.5	0.00e+00	0	43	0	1045430272	55	4697
2026-01-09 10:08:42.17	342.15	23.40	-41.7	-44.2	18.5	0.00e+00	0	43	0	1047527424	55	4693
2026-01-09 10:08:43.49	342.16	23.20	-41.6	-44.1	18.6	0.00e+00	0	43	0	1050673152	55	4636
2026-01-09 10:08:44.21	342.17	23.10	-41.6	-44.1	18.6	0.00e+00	0	43	0	1051721728	55	4625
2026-01-09 10:08:45.50	342.18	22.91	-41.7	-44.2	18.5	0.00e+00	0	43	0	1053818880	55	4688
2026-01-09 10:08:46.22	342.19	22.80	-41.7	-44.2	18.6	0.00e+00	0	42	0	1055916032	55	4661
2026-01-09 10:08:47.51	342.20	22.62	-41.7	-44.2	18.5	0.00e+00	0	42	0	1058013184	55	4679
2026-01-09 10:08:48.22	342.21	22.51	-41.7	-44.2	18.5	0.00e+00	0	42	0	1059061760	55	4673
2026-01-09 10:08:49.55	342.22	22.32	-41.6	-44.1	18.5	0.00e+00	0	43	0	1061158912	55	4647
2026-01-09 10:08:50.26	342.23	22.22	-41.6	-44.2	18.5	0.00e+00	0	43	0	1063256064	55	4685
2026-01-09 10:08:51.55	342.24	22.04	-41.6	-44.3	18.4	0.00e+00	0	43	0	1065353216	55	4719
2026-01-09 10:08:52.27	342.24	21.94	-41.6	-44.3	18.4	0.00e+00	0	43	0	1066401792	55	4737
2026-01-09 10:08:53.56	342.26	21.76	-41.8	-44.5	18.2	0.00e+00	0	43	0	1069547520	55	4827
2026-01-09 10:08:54.27	342.26	21.66	-41.7	-44.4	18.3	0.00e+00	0	42	0	1070596096	55	4803
2026-01-09 10:08:55.56	342.27	21.48	-41.8	-44.6	18.1	0.00e+00	0	43	0	1072693248	55	4899
2026-01-09 10:08:56.28	342.28	21.38	-41.9	-44.7	18.0	0.00e+00	0	42	0	1073741824	55	4972
2026-01-09 10:08:57.57	342.29	21.20	-42.0	-44.7	17.9	0.00e+00	0	42	0	1076887552	55	4972
2026-01-09 10:08:58.28	342.30	21.11	-42.0	-44.7	17.9	0.00e+00	0	43	0	1077936128	55	4978
2026-01-09 10:08:59.58	342.31	20.93	-42.1	-44.8	17.9	0.00e+00	0	42	0	1080033280	55	4993
2026-01-09 10:09:00.29	342.31	20.83	-42.2	-44.9	17.8	0.00e+00	0	43	0	1082130432	55	5043
2026-01-09 10:09:01.58	342.33	20.66	-42.2	-44.8	17.9	0.00e+00	0	43	0	1084227584	55	5008
2026-01-09 10:09:02.30	342.33	20.56	-42.1	-44.7	18.0	0.00e+00	0	43	0	1085276160	55	4978
2026-01-09 10:09:03.59	342.34	20.39	-42.2	-44.8	17.9	0.00e+00	0	43	0	1088421888	55	5030
2026-01-09 10:09:04.30	342.35	20.30	-42.1	-44.8	17.9	0.00e+00	0	43	0	1089470464	55	5027
2026-01-09 10:09:05.59	342.36	20.13	-42.1	-44.8	17.9	0.00e+00	0	43	0	1091567616	55	5027
2026-01-09 10:09:06.31	342.37	20.04	-42.1	-44.8	17.9	0.00e+00	0	43	0	1092616192	55	5004
2026-01-09 10:09:07.69	342.38	19.86	-42.2	-44.9	17.8	0.00e+00	0	43	0	1095761920	55	5062
2026-01-09 10:09:08.73	342.39	19.72	-42.3	-45.0	17.7	0.00e+00	0	43	0	1097859072	55	5133
2026-01-09 10:09:09.73	342.39	19.59	-42.3	-45.0	17.6	0.00e+00	0	43	0	1099956224	55	5136
2026-01-09 10:09:10.73	342.40	19.47	-42.4	-45.2	17.5	0.00e+00	0	43	0	1101004800	55	5239
2026-01-09 10:09:11.74	342.41	19.34	-42.3	-45.0	17.7	0.00e+00	0	43	0	1103101952	55	5105
2026-01-09 10:09:12.74	342.42	19.21	-42.3	-44.9	17.7	0.00e+00	0	42	0	1105199104	55	5093
2026-01-09 10:09:13.74	342.43	19.08	-42.3	-45.0	17.7	0.00e+00	0	42	0	1107296256	55	5121
2026-01-09 10:09:14.74	342.43	18.96	-42.3	-45.0	17.7	0.00e+00	0	43	0	1108344832	55	5105
2026-01-09 10:09:15.83	342.44	18.82	-42.4	-45.1	17.6	0.00e+00	0	42	0	1110441984	55	5182
2026-01-09 10:09:16.74	342.45	18.71	-42.5	-45.2	17.5	0.00e+00	0	42	0	1112539136	55	5228
2026-01-09 10:09:17.92	342.46	18.57	-42.4	-45.2	17.5	0.00e+00	0	43	0	1114636288	55	5244
2026-01-09 10:09:18.83	342.47	18.45	-42.5	-45.3	17.4	0.00e+00	0	43	0	1116733440	55	5281
2026-01-09 10:09:19.84	342.48	18.33	-42.4	-45.2	17.5	0.00e+00	0	43	0	1118830592	55	5226
2026-01-09 10:09:20.84	342.48	18.21	-42.4	-45.2	17.4	0.00e+00	0	43	0	1119879168	55	5275
2026-01-09 10:09:21.85	342.49	18.09	-42.4	-45.3	17.3	0.00e+00	0	43	0	1121976320	55	5322
2026-01-09 10:09:22.85	342.50	17.97	-42.4	-45.4	17.3	0.00e+00	0	43	0	1124073472	55	5362
2026-01-09 10:09:23.85	342.51	17.85	-42.4	-45.4	17.3	0.00e+00	0	42	0	1126170624	55	5376
2026-01-09 10:09:24.85	342.51	17.73	-42.4	-45.4	17.3	0.00e+00	0	42	0	1128267776	55	5370
2026-01-09 10:09:25.86	342.52	17.61	-42.4	-45.5	17.2	0.00e+00	0	43	0	1129316352	55	5404
2026-01-09 10:09:26.86	342.53	17.49	-42.5	-45.6	17.1	0.00e+00	0	42	0	1131413504	55	5489
2026-01-09 10:09:27.86	342.54	17.37	-42.4	-45.5	17.1	0.00e+00	0	43	0	1133510656	55	5454
2026-01-09 10:09:28.87	342.55	17.25	-42.4	-45.5	17.2	0.00e+00	0	43	0	1135607808	55	5431
2026-01-09 10:09:29.87	342.55	17.14	-42.5	-45.6	17.1	0.00e+00	0	43	0	1137704960	55	5471
2026-01-09 10:09:30.87	342.56	17.02	-42.5	-45.6	17.0	0.00e+00	0	43	0	1138753536	55	5513
2026-01-09 10:09:31.88	342.57	16.91	-42.5	-45.5	17.1	0.00e+00	0	43	0	1140850688	55	5441
2026-01-09 10:09:32.88	342.58	16.79	-42.6	-45.5	17.1	0.00e+00	0	43	0	1142947840	55	5461
2026-01-09 10:09:33.88	342.58	16.68	-42.6	-45.5	17.1	0.00e+00	0	43	0	1145044992	55	5450
2026-01-09 10:09:34.88	342.59	16.56	-42.6	-45.6	17.1	0.00e+00	0	43	0	1147142144	55	5476
2026-01-09 10:09:35.89	342.60	16.45	-42.8	-45.7	17.1	0.00e+00	0	42	0	1148190720	56	5235
2026-01-09 10:09:36.89	342.61	16.34	-42.9	-45.8	17.0	0.00e+00	0	43	0	1150287872	56	5287
2026-01-09 10:09:37.89	342.61	16.23	-42.8	-45.6	17.2	0.00e+00	0	43	0	1152385024	56	5208
2026-01-09 10:09:38.90	342.62	16.11	-42.8	-45.7	17.1	0.00e+00	0	43	0	1154482176	56	5224
2026-01-09 10:09:39.90	342.63	16.00	-42.7	-45.6	17.2	0.00e+00	0	43	0	1155530752	56	5199
2026-01-09 10:09:40.90	342.64	15.89	-42.8	-45.7	17.0	0.00e+00	0	43	0	1157627904	56	5268
2026-01-09 10:09:41.91	342.64	15.78	-42.6	-45.6	17.2	0.00e+00	0	43	0	1159725056	56	5181
2026-01-09 10:09:42.91	342.65	15.67	-42.5	-45.5	17.2	0.00e+00	0	43	0	1161822208	56	5153
2026-01-09 10:09:43.91	342.66	15.56	-42.6	-45.6	17.1	0.00e+00	0	42	0	1163919360	56	5192
2026-01-09 10:09:44.98	342.67	15.45	-42.5	-45.6	17.2	0.00e+00	0	43	0	1166016512	56	5165
2026-01-09 10:09:45.87	342.67	15.35	-42.5	-45.6	17.1	0.00e+00	0	43	0	1167065088	56	5191
2026-01-09 10:09:47.01	342.68	15.23	-42.4	-45.6	17.2	0.00e+00	0	43	0	1169162240	56	5178
2026-01-09 10:09:47.87	342.69	15.14	-42.3	-45.4	17.4	0.00e+00	0	43	0	1171259392	56	5061
2026-01-09 10:09:49.02	342.69	15.01	-42.4	-45.5	17.2	0.00e+00	0	42	0	1173356544	56	5131
2026-01-09 10:09:49.88	342.70	14.92	-42.3	-45.4	17.3	0.00e+00	0	43	0	1174405120	56	5086
2026-01-09 10:09:51.03	342.71	14.80	-42.4	-45.5	17.3	0.00e+00	0	42	0	1176502272	56	5101
2026-01-09 10:09:51.89	342.71	14.71	-42.4	-45.5	17.3	0.00e+00	0	42	0	1178599424	56	5138
2026-01-09 10:09:53.03	342.72	14.59	-42.4	-45.5	17.2	0.00e+00	0	43	0	1180696576	56	5126
2026-01-09 10:09:53.89	342.73	14.50	-42.4	-45.5	17.2	0.00e+00	0	42	0	1181745152	56	5141
2026-01-09 10:09:55.04	342.74	14.38	-42.5	-45.6	17.2	0.00e+00	0	42	0	1184890880	56	5171
2026-01-09 10:09:55.90	342.74	14.29	-42.4	-45.5	17.2	0.00e+00	0	43	0	1185939456	56	5117
2026-01-09 10:09:57.04	342.75	14.18	-42.4	-45.6	17.1	0.00e+00	0	43	0	1188036608	56	5188
2026-01-09 10:09:57.90	342.76	14.09	-42.4	-45.6	17.1	0.00e+00	0	43	0	1190133760	56	5173
2026-01-09 10:09:59.05	342.76	13.97	-42.5	-45.7	17.1	0.00e+00	0	43	0	1192230912	56	5230
2026-01-09 10:09:59.91	342.77	13.88	-42.5	-45.7	17.0	0.00e+00	0	43	0	1193279488	56	5246
2026-01-09 10:10:01.06	342.78	13.77	-42.5	-45.7	17.0	0.00e+00	0	43	0	1195376640	56	5267
2026-01-09 10:10:01.92	342.78	13.68	-42.5	-45.7	17.0	0.00e+00	0	43	0	1197473792	56	5263
2026-01-09 10:10:03.06	342.79	13.57	-42.5	-45.8	16.9	0.00e+00	0	43	0	1199570944	56	5287
2026-01-09 10:10:03.92	342.80	13.48	-42.4	-45.6	17.1	0.00e+00	0	43	0	1200619520	56	5213
2026-01-09 10:10:05.07	342.81	13.37	-42.5	-45.7	17.0	0.00e+00	0	43	0	1203765248	56	5276
2026-01-09 10:10:05.93	342.81	13.28	-42.5	-45.7	17.0	0.00e+00	0	43	0	1204813824	56	5258
2026-01-09 10:10:07.07	342.82	13.17	-42.6	-45.9	16.8	0.00e+00	0	43	0	1206910976	56	5344
2026-01-09 10:10:07.93	342.83	13.08	-42.5	-45.8	16.9	0.00e+00	0	43	0	1209008128	56	5289
2026-01-09 10:10:09.08	342.83	12.97	-42.6	-45.9	16.8	0.00e+00	0	43	0	1211105280	56	5371
2026-01-09 10:10:09.94	342.84	12.89	-42.6	-45.9	16.8	0.00e+00	0	43	0	1212153856	56	5391
2026-01-09 10:10:11.15	342.85	12.77	-42.7	-45.9	16.8	0.00e+00	0	43	0	1214251008	56	5384
2026-01-09 10:10:12.42	342.86	12.65	-42.7	-46.0	16.7	0.00e+00	0	43	0	1217396736	56	5414
2026-01-09 10:10:13.15	342.86	12.58	-42.7	-46.0	16.7	0.00e+00	0	43	0	1218445312	56	5439
2026-01-09 10:10:14.44	342.87	12.45	-42.7	-45.9	16.8	0.00e+00	0	43	0	1220542464	56	5392
2026-01-09 10:10:15.16	342.87	12.38	-42.7	-46.0	16.7	0.00e+00	0	43	0	1221591040	56	5422
2026-01-09 10:10:16.45	342.88	12.26	-42.7	-46.1	16.6	0.00e+00	0	43	0	1224736768	56	5487
2026-01-09 10:10:17.17	342.89	12.19	-42.8	-46.2	16.5	0.00e+00	0	43	0	1225785344	56	5530
2026-01-09 10:10:18.46	342.90	12.07	-42.7	-46.2	16.6	0.00e+00	0	43	0	1227882496	56	5530
2026-01-09 10:10:19.17	342.90	12.00	-42.7	-46.2	16.5	0.00e+00	0	43	0	1229979648	56	5552
2026-01-09 10:10:20.46	342.91	11.88	-42.6	-46.2	16.5	0.00e+00	0	43	0	1232076800	56	5541
2026-01-09 10:10:21.18	342.91	11.82	-42.7	-46.2	16.4	0.00e+00	0	43	0	1233125376	56	5592
2026-01-09 10:10:22.77	342.92	11.67	-42.7	-46.2	16.4	0.00e+00	0	43	0	1236271104	56	5577
2026-01-09 10:10:23.34	342.93	11.62	-42.6	-46.2	16.5	0.00e+00	0	43	0	1237319680	56	5558
2026-01-09 10:10:24.92	342.94	11.47	-42.7	-46.3	16.3	0.00e+00	0	43	0	1240465408	56	5644
2026-01-09 10:10:25.52	342.94	11.42	-42.7	-46.4	16.3	0.00e+00	0	43	0	1241513984	56	5699
