passes_logs/2025/01/08/LEX_Murmansk/LEX_Murmansk__20250108_084904_NOAA_19_rec.log

#Pass ID: 20250108_084904_NOAA 19
#Satellite: NOAA 19
#Configuration: NOAA 19
#Start time: 2025-01-08 08:48:59.888143

#LorettStation: 1.0.0 05.05.2024
#Station: LEX_Murmansk
#Location: 33.156738 lon 68.926811 lat
#TLE: 1 33591U 09005A   25007.78273938  .00000347  00000+0  20907-3 0  9990
#TLE: 2 33591  99.0209  71.4889 0014647  76.7831 283.4973 14.13254046820526

#Time	Az	El	Level	SNR
2025-01-08 08:49:12.188860	26.3	16.3	-91.6	3.6
2025-01-08 08:49:13.335649	26.3	16.5	-91.6	2.0
2025-01-08 08:49:14.493975	26.3	16.6	-92.2	4.7
2025-01-08 08:49:15.647560	26.4	16.7	-92.1	4.9
2025-01-08 08:49:16.811135	26.4	16.9	-92.1	6.2
2025-01-08 08:49:17.961540	26.4	17.0	-91.5	4.5
2025-01-08 08:49:19.114702	26.4	17.1	-91.8	2.9
2025-01-08 08:49:20.266919	26.4	17.3	-91.6	1.6
2025-01-08 08:49:21.418221	26.4	17.4	-92.2	3.1
2025-01-08 08:49:22.565444	26.4	17.5	-92.4	3.0
2025-01-08 08:49:23.718006	26.5	17.7	-91.3	3.4
2025-01-08 08:49:24.875574	26.5	17.8	-91.8	6.9
2025-01-08 08:49:26.027081	26.5	17.9	-92.4	7.3
2025-01-08 08:49:27.178715	26.5	18.1	-91.8	7.6
2025-01-08 08:49:28.331600	26.5	18.2	-91.8	4.9
2025-01-08 08:49:29.479576	26.5	18.3	-92.3	5.1
2025-01-08 08:49:30.636464	26.5	18.5	-90.8	6.6
2025-01-08 08:49:31.793460	26.6	18.6	-92.1	6.1
2025-01-08 08:49:32.948615	26.6	18.8	-92.3	9.2
2025-01-08 08:49:34.095218	26.6	18.9	-91.8	5.7
2025-01-08 08:49:35.245938	26.6	19.0	-90.9	2.6
2025-01-08 08:49:36.407157	26.6	19.2	-92.2	2.8
2025-01-08 08:49:37.558852	26.6	19.3	-92.5	2.2
2025-01-08 08:49:38.711053	26.6	19.5	-92.1	1.6
2025-01-08 08:49:39.864213	26.7	19.6	-91.9	6.4
2025-01-08 08:49:41.022177	26.7	19.8	-92.2	8.7
2025-01-08 08:49:42.189456	26.7	19.9	-91.9	8.3
2025-01-08 08:49:43.346360	26.7	20.1	-91.7	7.9
2025-01-08 08:49:44.490350	26.7	20.2	-91.9	6.5
2025-01-08 08:49:45.637511	26.7	20.4	-92.4	7.1
2025-01-08 08:49:46.788234	26.7	20.5	-92.0	6.3
2025-01-08 08:49:47.947838	26.8	20.7	-92.2	9.1
2025-01-08 08:49:49.098008	26.8	20.8	-92.0	7.7
2025-01-08 08:49:50.233309	26.8	21.0	-92.0	3.4
2025-01-08 08:49:51.388087	26.8	21.1	-92.3	3.8
2025-01-08 08:49:52.537393	26.8	21.3	-91.8	2.7
2025-01-08 08:49:53.691555	26.8	21.5	-91.5	0.4
2025-01-08 08:49:54.846548	26.9	21.6	-91.6	3.7
2025-01-08 08:49:56.004460	26.9	21.8	-91.8	7.6
2025-01-08 08:49:57.154409	26.9	21.9	-91.6	8.9
2025-01-08 08:49:58.311017	26.9	22.1	-91.6	9.2
2025-01-08 08:49:59.462942	26.9	22.3	-92.3	8.4
2025-01-08 08:50:00.609105	26.9	22.4	-92.1	9.5
2025-01-08 08:50:01.759775	27.0	22.6	-91.7	5.3
2025-01-08 08:50:02.899103	27.0	22.7	-92.4	7.9
2025-01-08 08:50:04.056237	27.0	22.9	-92.0	11.1
2025-01-08 08:50:05.206952	27.0	23.1	-91.8	10.5
2025-01-08 08:50:06.363995	27.0	23.2	-92.1	6.4
2025-01-08 08:50:07.513660	27.0	23.4	-91.9	6.4
2025-01-08 08:50:08.671666	27.1	23.6	-92.3	2.8
2025-01-08 08:50:09.820198	27.1	23.8	-91.9	3.3
2025-01-08 08:50:10.971585	27.1	23.9	-91.7	5.4
2025-01-08 08:50:12.134681	27.1	24.1	-91.9	9.9
2025-01-08 08:50:13.289588	27.1	24.3	-91.6	11.8
2025-01-08 08:50:14.438973	27.1	24.5	-92.1	12.2
2025-01-08 08:50:15.592219	27.2	24.6	-92.1	10.4
2025-01-08 08:50:16.747969	27.2	24.8	-92.5	7.1
2025-01-08 08:50:17.897670	27.2	25.0	-92.4	8.7
2025-01-08 08:50:19.056850	27.2	25.2	-92.0	11.8
2025-01-08 08:50:20.224761	27.2	25.4	-91.8	13.2
2025-01-08 08:50:21.369342	27.3	25.5	-92.1	11.7
2025-01-08 08:50:22.521500	27.3	25.7	-92.3	7.7
2025-01-08 08:50:23.672673	27.3	25.9	-92.3	5.5
2025-01-08 08:50:24.822722	27.3	26.1	-92.4	1.2
2025-01-08 08:50:25.975050	27.3	26.3	-92.4	5.6
2025-01-08 08:50:27.132268	27.4	26.5	-92.3	5.7
2025-01-08 08:50:28.282894	27.4	26.7	-91.6	5.9
2025-01-08 08:50:29.437555	27.4	26.9	-92.3	10.2
2025-01-08 08:50:30.591121	27.4	27.1	-92.1	10.5
2025-01-08 08:50:31.755331	27.4	27.3	-92.4	7.9
2025-01-08 08:50:32.910447	27.5	27.5	-92.5	7.7
2025-01-08 08:50:34.061891	27.5	27.7	-92.3	7.8
2025-01-08 08:50:35.218755	27.5	27.9	-92.3	6.1
2025-01-08 08:50:36.369133	27.5	28.1	-92.3	8.4
2025-01-08 08:50:37.522278	27.6	28.3	-92.3	7.4
2025-01-08 08:50:38.682777	27.6	28.5	-91.6	6.2
2025-01-08 08:50:39.844884	27.6	28.7	-92.5	2.3
2025-01-08 08:50:40.997989	27.6	28.9	-91.9	2.5
2025-01-08 08:50:42.141702	27.6	29.1	-91.8	3.1
2025-01-08 08:50:43.300744	27.7	29.3	-92.1	2.7
2025-01-08 08:50:44.448019	27.7	29.5	-92.5	3.8
2025-01-08 08:50:45.604337	27.7	29.7	-92.1	3.4
2025-01-08 08:50:46.760699	27.7	29.9	-91.3	5.4
2025-01-08 08:50:47.923488	27.8	30.2	-92.6	3.5
2025-01-08 08:50:49.080894	27.8	30.4	-91.7	2.9
2025-01-08 08:50:50.236020	27.8	30.6	-91.9	0.7
2025-01-08 08:50:51.397047	27.8	30.8	-92.6	4.6
2025-01-08 08:50:52.549883	27.9	31.0	-92.0	6.9
2025-01-08 08:50:53.699341	27.9	31.3	-92.5	6.1
2025-01-08 08:50:54.847255	27.9	31.5	-92.7	5.2
2025-01-08 08:50:56.007977	27.9	31.7	-92.4	4.0
2025-01-08 08:50:57.149237	28.0	32.0	-92.0	5.0
2025-01-08 08:50:58.305788	28.0	32.2	-92.0	2.0
2025-01-08 08:50:59.457494	28.0	32.4	-92.0	4.6
2025-01-08 08:51:00.599226	28.0	32.7	-92.5	3.5
2025-01-08 08:51:01.745063	28.1	32.9	-92.1	5.5
2025-01-08 08:51:02.892261	28.1	33.1	-92.4	7.6
2025-01-08 08:51:04.044565	28.1	33.4	-92.1	6.8
2025-01-08 08:51:05.196461	28.2	33.6	-92.2	10.0
2025-01-08 08:51:06.357649	28.2	33.9	-92.4	7.9
2025-01-08 08:51:07.515149	28.2	34.1	-92.1	8.1
2025-01-08 08:51:08.671139	28.2	34.4	-92.1	7.5
2025-01-08 08:51:09.828308	28.3	34.6	-92.6	9.0
2025-01-08 08:51:10.987385	28.3	34.9	-92.3	13.0
2025-01-08 08:51:12.138211	28.3	35.1	-91.9	10.9
2025-01-08 08:51:13.296442	28.4	35.4	-91.9	8.3
2025-01-08 08:51:14.441193	28.4	35.6	-92.4	6.6
2025-01-08 08:51:15.601150	28.4	35.9	-92.5	3.4
2025-01-08 08:51:16.761102	28.5	36.2	-92.4	2.2
2025-01-08 08:51:17.919256	28.5	36.4	-92.4	4.9
2025-01-08 08:51:19.067595	28.5	36.7	-92.6	5.5
2025-01-08 08:51:20.215533	28.6	37.0	-91.9	9.6
2025-01-08 08:51:21.375639	28.6	37.3	-92.2	13.1
2025-01-08 08:51:22.519673	28.6	37.5	-92.7	14.4
2025-01-08 08:51:23.662628	28.7	37.8	-92.2	10.5
2025-01-08 08:51:24.782145	28.7	38.1	-92.2	8.3
2025-01-08 08:51:25.901734	28.7	38.4	-92.3	11.9
2025-01-08 08:51:27.023303	28.8	38.6	-92.1	13.8
2025-01-08 08:51:28.143745	28.8	38.9	-92.1	14.1
2025-01-08 08:51:29.263935	28.9	39.2	-92.1	13.8
2025-01-08 08:51:30.384977	28.9	39.5	-92.2	14.0
2025-01-08 08:51:31.506425	28.9	39.8	-92.4	10.8
2025-01-08 08:51:32.626899	29.0	40.0	-91.9	7.7
2025-01-08 08:51:33.771871	29.0	40.3	-92.2	2.6
2025-01-08 08:51:34.920503	29.0	40.6	-92.5	4.8
2025-01-08 08:51:36.064348	29.1	40.9	-91.9	6.1
2025-01-08 08:51:37.218638	29.1	41.2	-91.9	7.8
2025-01-08 08:51:38.370257	29.2	41.6	-91.9	14.3
2025-01-08 08:51:39.526693	29.2	41.9	-92.3	17.5
2025-01-08 08:51:40.681814	29.3	42.2	-92.2	19.0
2025-01-08 08:51:41.836566	29.3	42.5	-92.5	17.1
2025-01-08 08:51:42.991308	29.4	42.8	-92.5	16.2
2025-01-08 08:51:44.140490	29.4	43.1	-91.9	12.7
2025-01-08 08:51:45.300019	29.5	43.5	-91.9	10.4
2025-01-08 08:51:46.447706	29.5	43.8	-91.9	18.1
2025-01-08 08:51:47.590603	29.6	44.1	-92.3	19.4
2025-01-08 08:51:48.735225	29.6	44.5	-92.2	19.5
2025-01-08 08:51:49.893290	29.7	44.8	-91.9	14.0
2025-01-08 08:51:51.044611	29.7	45.1	-92.4	10.7
2025-01-08 08:51:52.195100	29.8	45.5	-92.4	6.7
2025-01-08 08:51:53.340407	29.8	45.8	-91.8	4.6
2025-01-08 08:51:54.491027	29.9	46.2	-92.5	6.0
2025-01-08 08:51:55.648568	29.9	46.5	-92.3	8.0
2025-01-08 08:51:56.804074	30.0	46.9	-92.3	7.1
2025-01-08 08:51:57.964422	30.1	47.2	-92.3	11.5
2025-01-08 08:51:59.116552	30.1	47.6	-91.6	8.3
2025-01-08 08:52:00.262553	30.2	47.9	-92.4	10.3
2025-01-08 08:52:01.403045	30.2	48.3	-92.3	9.4
2025-01-08 08:52:02.548925	30.3	48.7	-92.7	9.7
2025-01-08 08:52:03.699971	30.4	49.0	-92.5	9.0
2025-01-08 08:52:04.860249	30.4	49.4	-90.8	7.4
2025-01-08 08:52:06.017619	30.5	49.8	-92.3	12.1
2025-01-08 08:52:07.175826	30.6	50.2	-92.3	9.9
2025-01-08 08:52:08.333446	30.7	50.6	-91.9	11.2
2025-01-08 08:52:09.493669	30.7	51.0	-92.1	10.6
2025-01-08 08:52:10.649849	30.8	51.3	-92.5	4.6
2025-01-08 08:52:11.808355	30.9	51.7	-92.7	5.0
2025-01-08 08:52:12.967484	31.0	52.1	-92.2	7.7
2025-01-08 08:52:14.111743	31.1	52.5	-92.1	5.5
2025-01-08 08:52:15.279563	31.1	52.9	-92.1	2.7
2025-01-08 08:52:16.432252	31.2	53.4	-92.2	6.4
2025-01-08 08:52:17.581131	31.3	53.8	-92.2	7.9
2025-01-08 08:52:18.731680	31.4	54.2	-92.2	10.0
2025-01-08 08:52:19.888033	31.5	54.6	-92.6	13.7
2025-01-08 08:52:21.043079	31.6	55.0	-92.1	15.1
2025-01-08 08:52:22.192318	31.7	55.4	-92.1	15.1
2025-01-08 08:52:23.343587	31.8	55.9	-91.5	13.7
2025-01-08 08:52:24.497098	31.9	56.3	-92.6	9.5
2025-01-08 08:52:25.649298	32.0	56.7	-92.4	7.4
2025-01-08 08:52:26.802988	32.1	57.2	-92.6	4.8
2025-01-08 08:52:27.963249	32.2	57.6	-92.4	10.8
2025-01-08 08:52:29.117050	32.4	58.0	-91.1	9.9
2025-01-08 08:52:30.275019	32.5	58.5	-91.4	10.3
2025-01-08 08:52:31.421081	32.6	58.9	-92.3	16.6
2025-01-08 08:52:32.574707	32.8	59.4	-91.5	15.5
2025-01-08 08:52:33.730545	32.9	59.8	-92.2	11.9
2025-01-08 08:52:34.880351	33.0	60.3	-92.5	10.2
2025-01-08 08:52:36.028502	33.2	60.8	-92.2	10.9
2025-01-08 08:52:37.186051	33.3	61.2	-92.1	6.5
2025-01-08 08:52:38.344212	33.5	61.7	-92.3	3.2
2025-01-08 08:52:39.495283	33.6	62.2	-91.6	4.8
2025-01-08 08:52:40.643075	33.8	62.6	-92.1	4.6
2025-01-08 08:52:41.795313	34.0	63.1	-92.3	3.1
2025-01-08 08:52:42.952066	34.2	63.6	-91.0	7.3
2025-01-08 08:52:44.101177	34.4	64.1	-91.6	12.1
2025-01-08 08:52:45.258851	34.6	64.6	-91.2	14.1
2025-01-08 08:52:46.411379	34.8	65.1	-91.5	15.2
2025-01-08 08:52:47.567843	35.0	65.5	-92.9	16.3
2025-01-08 08:52:48.716091	35.2	66.0	-92.2	10.8
2025-01-08 08:52:49.864897	35.5	66.5	-92.6	9.9
2025-01-08 08:52:51.009148	35.7	67.0	-92.7	11.8
2025-01-08 08:52:52.163816	36.0	67.5	-92.2	8.8
2025-01-08 08:52:53.323426	36.2	68.0	-92.4	4.4
2025-01-08 08:52:54.477248	36.5	68.5	-92.7	5.5
2025-01-08 08:52:55.627916	36.8	69.1	-92.1	2.9
2025-01-08 08:52:56.787921	37.1	69.6	-92.2	1.6
2025-01-08 08:52:57.944383	37.5	70.1	-92.4	11.6
2025-01-08 08:52:59.086915	37.8	70.6	-92.0	12.0
2025-01-08 08:53:00.235873	38.2	71.1	-92.2	11.6
2025-01-08 08:53:01.383083	38.6	71.6	-92.2	11.1
2025-01-08 08:53:02.539155	39.0	72.2	-92.0	15.9
2025-01-08 08:53:03.697870	39.4	72.7	-92.2	13.8
2025-01-08 08:53:04.851154	39.9	73.2	-92.2	10.9
2025-01-08 08:53:06.008678	40.4	73.7	-92.6	9.3
2025-01-08 08:53:07.158009	41.0	74.3	-92.3	7.8
2025-01-08 08:53:08.307514	41.5	74.8	-92.4	4.1
2025-01-08 08:53:09.454664	42.2	75.3	-92.0	2.4
2025-01-08 08:53:10.618308	42.8	75.9	-92.2	4.0
2025-01-08 08:53:11.773194	43.6	76.4	-92.3	3.5
2025-01-08 08:53:12.925623	44.4	76.9	-92.3	6.1
2025-01-08 08:53:14.085183	45.2	77.4	-92.0	6.1
2025-01-08 08:53:15.236997	46.1	78.0	-92.1	7.9
2025-01-08 08:53:16.380787	47.2	78.5	-92.5	10.9
2025-01-08 08:53:17.538067	48.3	79.0	-92.0	12.9
2025-01-08 08:53:18.688904	49.5	79.5	-92.1	15.1
2025-01-08 08:53:19.837708	50.9	80.0	-91.8	16.0
2025-01-08 08:53:20.993224	52.4	80.6	-92.6	17.1
2025-01-08 08:53:22.148539	54.1	81.1	-92.2	19.3
2025-01-08 08:53:23.310851	56.0	81.6	-92.3	21.7
2025-01-08 08:53:24.467251	58.1	82.1	-92.4	21.8
2025-01-08 08:53:25.620880	60.5	82.5	-92.6	19.4
2025-01-08 08:53:26.772753	63.2	83.0	-92.3	20.0
2025-01-08 08:53:27.925350	66.3	83.4	-92.4	19.5
2025-01-08 08:53:29.074624	69.9	83.9	-92.5	18.7
2025-01-08 08:53:30.235559	74.0	84.3	-92.3	14.0
2025-01-08 08:53:31.393271	78.7	84.6	-92.5	15.3
2025-01-08 08:53:32.548588	84.0	85.0	-92.7	16.1
2025-01-08 08:53:33.699964	90.0	85.2	-92.8	11.4
2025-01-08 08:53:34.853608	96.6	85.5	-92.3	11.1
2025-01-08 08:53:36.017155	103.9	85.6	-92.6	13.4
2025-01-08 08:53:37.176933	111.6	85.7	-92.5	8.6
2025-01-08 08:53:38.330676	119.4	85.7	-92.2	8.6
2025-01-08 08:53:39.482901	127.0	85.6	-92.3	13.2
2025-01-08 08:53:40.636892	134.3	85.5	-91.5	11.1
2025-01-08 08:53:41.803213	141.1	85.3	-92.5	8.1
2025-01-08 08:53:42.956022	147.1	85.0	-92.4	15.0
2025-01-08 08:53:44.109541	152.4	84.7	-92.1	13.6
2025-01-08 08:53:45.256150	157.1	84.3	-92.2	10.4
2025-01-08 08:53:46.414563	161.2	83.9	-92.8	15.7
2025-01-08 08:53:47.569063	164.8	83.5	-92.2	15.8
2025-01-08 08:53:48.723311	167.9	83.0	-92.5	14.9
2025-01-08 08:53:49.882067	170.6	82.6	-92.2	17.2
2025-01-08 08:53:51.037748	173.1	82.1	-92.2	16.9
2025-01-08 08:53:52.192344	175.2	81.6	-92.3	18.2
2025-01-08 08:53:53.344936	177.1	81.1	-92.2	17.8
2025-01-08 08:53:54.493016	178.8	80.6	-93.1	15.2
2025-01-08 08:53:55.646351	180.3	80.1	-91.4	15.3
2025-01-08 08:53:56.795451	181.6	79.6	-91.6	17.8
2025-01-08 08:53:57.953385	182.9	79.0	-91.5	15.7
2025-01-08 08:53:59.104899	184.0	78.5	-91.6	15.8
2025-01-08 08:54:00.249429	185.0	78.0	-91.7	14.4
2025-01-08 08:54:01.397929	185.9	77.5	-92.6	19.6
2025-01-08 08:54:02.552259	186.8	76.9	-92.4	17.6
2025-01-08 08:54:03.700189	187.6	76.4	-92.6	18.8
2025-01-08 08:54:04.862251	188.3	75.9	-92.5	17.6
2025-01-08 08:54:06.012296	189.0	75.3	-92.9	19.9
2025-01-08 08:54:07.162515	189.6	74.8	-92.3	16.9
2025-01-08 08:54:08.307636	190.2	74.3	-92.0	15.9
2025-01-08 08:54:09.457904	190.7	73.8	-92.8	17.0
2025-01-08 08:54:10.619772	191.3	73.2	-92.8	17.8
2025-01-08 08:54:11.775366	191.7	72.7	-92.5	16.0
2025-01-08 08:54:12.929096	192.2	72.2	-92.8	12.2
2025-01-08 08:54:14.087958	192.6	71.7	-92.7	14.6
2025-01-08 08:54:15.238525	193.0	71.1	-92.5	13.4
2025-01-08 08:54:16.392735	193.4	70.6	-92.5	16.4
2025-01-08 08:54:17.552076	193.7	70.1	-92.2	12.4
2025-01-08 08:54:18.699302	194.1	69.6	-92.7	15.4
2025-01-08 08:54:19.852866	194.4	69.1	-92.3	15.7
2025-01-08 08:54:21.007172	194.7	68.6	-92.7	13.8
2025-01-08 08:54:22.170094	195.0	68.1	-92.4	17.2
2025-01-08 08:54:23.317880	195.2	67.5	-92.6	13.9
2025-01-08 08:54:24.472123	195.5	67.0	-92.9	10.4
2025-01-08 08:54:25.617293	195.7	66.5	-92.5	10.5
2025-01-08 08:54:26.766378	196.0	66.1	-92.6	11.8
2025-01-08 08:54:27.913147	196.2	65.6	-92.6	10.0
2025-01-08 08:54:29.065322	196.4	65.1	-92.5	4.7
2025-01-08 08:54:30.221094	196.6	64.6	-92.1	11.6
2025-01-08 08:54:31.373354	196.8	64.1	-92.2	9.5
2025-01-08 08:54:32.534259	197.0	63.6	-92.4	5.6
2025-01-08 08:54:33.690455	197.2	63.1	-91.8	15.3
2025-01-08 08:54:34.845600	197.4	62.6	-91.4	16.1
2025-01-08 08:54:36.002959	197.5	62.2	-91.6	6.9
2025-01-08 08:54:37.160718	197.7	61.7	-91.1	9.0
2025-01-08 08:54:38.316290	197.9	61.2	-91.2	12.0
2025-01-08 08:54:39.465273	198.0	60.8	-91.4	7.8
2025-01-08 08:54:40.620808	198.2	60.3	-91.5	6.3
2025-01-08 08:54:41.777434	198.3	59.8	-91.7	11.4
2025-01-08 08:54:42.932600	198.4	59.4	-92.7	10.4
2025-01-08 08:54:44.092736	198.6	58.9	-92.0	8.5
2025-01-08 08:54:45.243619	198.7	58.5	-92.5	16.7
2025-01-08 08:54:46.397717	198.8	58.0	-92.6	12.3
2025-01-08 08:54:47.550447	199.0	57.6	-93.0	12.9
2025-01-08 08:54:48.708216	199.1	57.1	-92.8	17.0
2025-01-08 08:54:49.865120	199.2	56.7	-92.6	16.6
2025-01-08 08:54:51.019824	199.3	56.3	-92.7	15.2
2025-01-08 08:54:52.173417	199.4	55.8	-91.0	16.1
2025-01-08 08:54:53.329809	199.5	55.4	-91.2	14.2
2025-01-08 08:54:54.487254	199.6	55.0	-91.4	15.6
2025-01-08 08:54:55.644719	199.7	54.6	-91.6	14.5
2025-01-08 08:54:56.795499	199.8	54.2	-91.5	15.8
2025-01-08 08:54:57.941302	199.9	53.7	-91.4	14.5
2025-01-08 08:54:59.106086	200.0	53.3	-91.1	12.1
2025-01-08 08:55:00.255463	200.1	52.9	-91.0	14.7
2025-01-08 08:55:01.400578	200.1	52.5	-91.2	9.9
2025-01-08 08:55:02.560086	200.2	52.1	-90.4	7.4
2025-01-08 08:55:03.708954	200.3	51.7	-91.7	15.7
2025-01-08 08:55:04.858738	200.4	51.3	-91.6	13.6
2025-01-08 08:55:06.018014	200.5	50.9	-90.7	7.1
2025-01-08 08:55:07.176053	200.5	50.6	-90.3	11.6
2025-01-08 08:55:08.330927	200.6	50.2	-91.5	12.8
2025-01-08 08:55:09.481358	200.7	49.8	-91.8	4.7
2025-01-08 08:55:10.635417	200.8	49.4	-91.4	7.0
2025-01-08 08:55:11.809107	200.8	49.0	-91.6	11.2
2025-01-08 08:55:12.960848	200.9	48.7	-92.1	10.3
2025-01-08 08:55:14.116587	201.0	48.3	-91.7	10.9
2025-01-08 08:55:15.273482	201.0	47.9	-92.1	14.8
2025-01-08 08:55:16.418977	201.1	47.6	-92.2	16.0
2025-01-08 08:55:17.594298	201.1	47.2	-91.3	14.8
2025-01-08 08:55:18.748870	201.2	46.8	-92.3	16.2
2025-01-08 08:55:19.904857	201.3	46.5	-91.9	15.6
2025-01-08 08:55:21.062531	201.3	46.1	-91.0	11.7
2025-01-08 08:55:22.225485	201.4	45.8	-91.8	15.1
2025-01-08 08:55:23.387740	201.4	45.4	-92.1	13.8
2025-01-08 08:55:24.547535	201.5	45.1	-92.3	8.7
2025-01-08 08:55:25.701688	201.5	44.7	-92.3	16.3
2025-01-08 08:55:26.853075	201.6	44.4	-92.6	13.4
2025-01-08 08:55:28.004344	201.6	44.1	-92.6	8.3
2025-01-08 08:55:29.156382	201.7	43.7	-92.4	13.9
2025-01-08 08:55:30.308196	201.7	43.4	-91.9	14.7
2025-01-08 08:55:31.464843	201.8	43.1	-92.3	9.6
2025-01-08 08:55:32.617710	201.8	42.8	-92.4	11.3
2025-01-08 08:55:33.774501	201.9	42.5	-90.9	15.9
2025-01-08 08:55:34.923722	201.9	42.1	-92.5	15.9
2025-01-08 08:55:36.079165	202.0	41.8	-92.1	16.2
2025-01-08 08:55:37.237504	202.0	41.5	-91.9	17.8
2025-01-08 08:55:38.382709	202.1	41.2	-91.6	17.1
2025-01-08 08:55:39.538829	202.1	40.9	-92.1	17.1
2025-01-08 08:55:40.695643	202.1	40.6	-91.8	15.3
2025-01-08 08:55:41.857007	202.2	40.3	-91.9	13.7
2025-01-08 08:55:43.008625	202.2	40.0	-92.4	9.5
2025-01-08 08:55:44.161001	202.3	39.7	-92.5	11.4
2025-01-08 08:55:45.314653	202.3	39.4	-92.1	11.1
2025-01-08 08:55:46.472793	202.3	39.1	-91.9	7.7
2025-01-08 08:55:47.622629	202.4	38.8	-92.4	7.6
2025-01-08 08:55:48.777134	202.4	38.5	-92.3	11.1
2025-01-08 08:55:49.935172	202.5	38.2	-92.4	5.6
2025-01-08 08:55:51.096745	202.5	38.0	-92.0	6.2
2025-01-08 08:55:52.251860	202.5	37.7	-92.2	9.3
2025-01-08 08:55:53.403129	202.6	37.4	-92.6	8.4
2025-01-08 08:55:54.551217	202.6	37.1	-92.7	8.5
2025-01-08 08:55:55.700675	202.6	36.9	-92.7	7.5
2025-01-08 08:55:56.867858	202.7	36.6	-92.6	10.9
2025-01-08 08:55:58.023708	202.7	36.3	-92.5	9.2
2025-01-08 08:55:59.182469	202.7	36.1	-92.2	8.4
2025-01-08 08:56:00.326584	202.8	35.8	-92.0	9.9
2025-01-08 08:56:01.477945	202.8	35.5	-92.6	7.1
2025-01-08 08:56:02.621774	202.8	35.3	-92.5	5.4
2025-01-08 08:56:03.778227	202.9	35.0	-92.8	10.7
2025-01-08 08:56:04.930564	202.9	34.8	-92.4	6.1
2025-01-08 08:56:06.085254	202.9	34.5	-92.2	3.1
2025-01-08 08:56:07.238287	203.0	34.3	-92.0	6.4
2025-01-08 08:56:08.391073	203.0	34.0	-92.0	5.5
2025-01-08 08:56:09.539730	203.0	33.8	-92.5	6.9
2025-01-08 08:56:10.696942	203.0	33.5	-92.6	6.7
2025-01-08 08:56:11.852531	203.1	33.3	-92.8	6.8
2025-01-08 08:56:13.003529	203.1	33.0	-92.2	6.5
2025-01-08 08:56:14.159479	203.1	32.8	-92.1	7.3
2025-01-08 08:56:15.303757	203.1	32.5	-92.5	9.1
2025-01-08 08:56:16.451641	203.2	32.3	-92.4	4.5
2025-01-08 08:56:17.626430	203.2	32.1	-92.9	3.8
2025-01-08 08:56:18.779868	203.2	31.8	-92.7	4.4
2025-01-08 08:56:19.932481	203.3	31.6	-92.7	4.7
2025-01-08 08:56:21.083836	203.3	31.4	-92.2	3.6
2025-01-08 08:56:22.234385	203.3	31.2	-92.5	5.6
2025-01-08 08:56:23.389539	203.3	30.9	-92.5	5.1
2025-01-08 08:56:24.536747	203.4	30.7	-93.1	1.8
2025-01-08 08:56:25.687594	203.4	30.5	-92.5	4.9
2025-01-08 08:56:26.840090	203.4	30.3	-92.4	4.1
2025-01-08 08:56:27.993860	203.4	30.1	-92.5	3.8
2025-01-08 08:56:29.152198	203.5	29.8	-92.4	5.1
2025-01-08 08:56:30.304743	203.5	29.6	-92.4	6.2
2025-01-08 08:56:31.461208	203.5	29.4	-92.9	4.4
2025-01-08 08:56:32.613117	203.5	29.2	-92.8	3.4
2025-01-08 08:56:33.772770	203.5	29.0	-92.7	6.0
2025-01-08 08:56:34.927240	203.6	28.8	-92.8	4.0
2025-01-08 08:56:36.078244	203.6	28.6	-92.2	3.5
2025-01-08 08:56:37.233344	203.6	28.4	-92.0	7.2
2025-01-08 08:56:38.391562	203.6	28.2	-92.3	5.4
2025-01-08 08:56:39.546420	203.7	28.0	-92.3	5.7
2025-01-08 08:56:40.696800	203.7	27.8	-92.7	8.4
2025-01-08 08:56:41.855857	203.7	27.5	-92.3	9.9
2025-01-08 08:56:43.006930	203.7	27.4	-92.6	11.2
2025-01-08 08:56:44.158984	203.7	27.2	-92.0	11.2
2025-01-08 08:56:45.313618	203.8	27.0	-91.8	11.2
2025-01-08 08:56:46.465975	203.8	26.8	-92.3	9.6
2025-01-08 08:56:47.617827	203.8	26.6	-92.8	7.8
2025-01-08 08:56:48.771951	203.8	26.4	-92.5	11.9
2025-01-08 08:56:49.928312	203.8	26.2	-91.6	7.9
2025-01-08 08:56:51.076365	203.9	26.0	-92.4	7.5
2025-01-08 08:56:52.228017	203.9	25.8	-92.1	11.6
2025-01-08 08:56:53.378295	203.9	25.6	-92.2	8.6
2025-01-08 08:56:54.529481	203.9	25.4	-92.6	9.5
2025-01-08 08:56:55.680650	203.9	25.3	-91.6	8.3
2025-01-08 08:56:56.830270	204.0	25.1	-92.2	5.8
2025-01-08 08:56:57.982042	204.0	24.9	-91.7	5.8
2025-01-08 08:56:59.140509	204.0	24.7	-91.2	5.6
2025-01-08 08:57:00.282885	204.0	24.5	-91.7	5.4
2025-01-08 08:57:01.430452	204.0	24.4	-91.9	4.9
2025-01-08 08:57:02.575708	204.0	24.2	-91.8	3.8
2025-01-08 08:57:03.731801	204.1	24.0	-91.8	6.6
2025-01-08 08:57:04.875195	204.1	23.8	-92.2	5.8
2025-01-08 08:57:06.023307	204.1	23.7	-91.6	4.3
2025-01-08 08:57:07.176015	204.1	23.5	-92.2	8.3
2025-01-08 08:57:08.337312	204.1	23.3	-92.1	6.8
2025-01-08 08:57:09.495733	204.1	23.2	-92.6	8.3
2025-01-08 08:57:10.659121	204.2	23.0	-92.3	9.3
2025-01-08 08:57:11.820047	204.2	22.8	-92.5	9.5
2025-01-08 08:57:12.975221	204.2	22.6	-92.5	9.6
2025-01-08 08:57:14.130827	204.2	22.5	-92.0	8.2
2025-01-08 08:57:15.283469	204.2	22.3	-92.0	9.6
2025-01-08 08:57:16.433926	204.2	22.2	-92.6	6.8
2025-01-08 08:57:17.587067	204.3	22.0	-92.9	5.5
2025-01-08 08:57:18.741904	204.3	21.8	-92.4	10.5
2025-01-08 08:57:19.900039	204.3	21.7	-92.5	5.2
2025-01-08 08:57:21.051422	204.3	21.5	-92.3	8.1
2025-01-08 08:57:22.202347	204.3	21.4	-92.2	11.0
2025-01-08 08:57:23.361231	204.3	21.2	-92.2	11.0
2025-01-08 08:57:24.518564	204.4	21.0	-92.5	10.9
2025-01-08 08:57:25.679179	204.4	20.9	-92.4	11.0
2025-01-08 08:57:26.833667	204.4	20.7	-92.5	9.4
2025-01-08 08:57:27.984513	204.4	20.6	-92.7	6.9
2025-01-08 08:57:29.135444	204.4	20.4	-92.7	8.4
2025-01-08 08:57:30.286580	204.4	20.3	-92.2	8.8
2025-01-08 08:57:31.444774	204.4	20.1	-92.5	4.4
2025-01-08 08:57:32.594232	204.5	20.0	-92.5	4.0
2025-01-08 08:57:33.752491	204.5	19.8	-92.3	8.6
2025-01-08 08:57:34.914062	204.5	19.7	-91.8	4.6
2025-01-08 08:57:36.066614	204.5	19.5	-92.1	4.9
2025-01-08 08:57:37.226461	204.5	19.4	-91.9	1.6
2025-01-08 08:57:38.377437	204.5	19.2	-91.8	4.7
2025-01-08 08:57:39.532925	204.5	19.1	-92.1	2.7
2025-01-08 08:57:40.695003	204.6	18.9	-93.0	1.4
2025-01-08 08:57:41.851053	204.6	18.8	-93.0	3.0
2025-01-08 08:57:43.000561	204.6	18.7	-91.6	2.7
2025-01-08 08:57:44.150797	204.6	18.5	-92.5	2.2
2025-01-08 08:57:45.309159	204.6	18.4	-92.4	1.6
2025-01-08 08:57:46.460391	204.6	18.2	-92.8	3.0
2025-01-08 08:57:47.609440	204.6	18.1	-92.5	3.8
2025-01-08 08:57:48.762388	204.7	18.0	-92.6	2.3
2025-01-08 08:57:49.913994	204.7	17.8	-92.5	2.2
2025-01-08 08:57:51.068324	204.7	17.7	-92.5	2.9
2025-01-08 08:57:52.215158	204.7	17.6	-92.2	1.5
2025-01-08 08:57:53.373603	204.7	17.4	-92.7	1.4
2025-01-08 08:57:54.524174	204.7	17.3	-92.5	1.4
2025-01-08 08:57:55.673102	204.7	17.2	-92.6	1.8
2025-01-08 08:57:56.830290	204.7	17.0	-92.6	1.5
2025-01-08 08:57:57.987893	204.8	16.9	-92.7	3.4
2025-01-08 08:57:59.138725	204.8	16.8	-92.2	1.7
2025-01-08 08:58:00.282998	204.8	16.6	-92.4	2.5
2025-01-08 08:58:01.435674	204.8	16.5	-91.6	2.0
2025-01-08 08:58:02.595090	204.8	16.4	-92.7	1.8
2025-01-08 08:58:03.756161	204.8	16.2	-92.0	3.4
2025-01-08 08:58:04.907167	204.8	16.1	-92.4	3.6
2025-01-08 08:58:06.060136	204.8	16.0	-92.5	1.9
2025-01-08 08:58:07.210374	204.9	15.9	-91.8	5.1
2025-01-08 08:58:08.358304	204.9	15.7	-91.5	4.0
2025-01-08 08:58:09.510699	204.9	15.6	-92.0	5.1
2025-01-08 08:58:10.660249	204.9	15.5	-92.1	3.9
2025-01-08 08:58:11.812733	204.9	15.4	-92.4	4.6
2025-01-08 08:58:12.968376	204.9	15.2	-92.3	2.1
2025-01-08 08:58:14.129295	204.9	15.1	-92.3	5.2
2025-01-08 08:58:15.285803	204.9	15.0	-92.5	5.0
2025-01-08 08:58:16.437362	205.0	14.9	-92.6	6.0
2025-01-08 08:58:17.590433	205.0	14.7	-92.4	7.2
2025-01-08 08:58:18.739010	205.0	14.6	-92.8	6.8
2025-01-08 08:58:19.889695	205.0	14.5	-92.9	4.6
#Closed at: 2025-01-08 08:49:04.985456