passes_logs/2025/01/08/LEX_Murmansk/LEX_Murmansk__20250108_170825_NOAA_19_rec.log

#Pass ID: 20250108_170825_NOAA 19
#Satellite: NOAA 19
#Configuration: NOAA 19
#Start time: 2025-01-08 17:08:20.832171

#LorettStation: 1.0.0 05.05.2024
#Station: LEX_Murmansk
#Location: 33.156738 lon 68.926811 lat
#TLE: 1 33591U 09005A   25007.78273938  .00000347  00000+0  20907-3 0  9990
#TLE: 2 33591  99.0209  71.4889 0014647  76.7831 283.4973 14.13254046820526

#Time	Az	El	Level	SNR
2025-01-08 17:08:35.052791	134.9	16.5	-87.4	3.0
2025-01-08 17:08:36.212204	134.8	16.7	-87.3	2.6
2025-01-08 17:08:37.363054	134.8	16.8	-87.4	2.4
2025-01-08 17:08:38.521955	134.8	16.9	-87.3	6.2
2025-01-08 17:08:39.681386	134.7	17.1	-87.4	4.3
2025-01-08 17:08:40.842237	134.7	17.2	-87.4	4.5
2025-01-08 17:08:42.003227	134.6	17.3	-87.6	6.1
2025-01-08 17:08:43.168194	134.6	17.5	-87.7	5.9
2025-01-08 17:08:44.320222	134.6	17.6	-87.3	6.3
2025-01-08 17:08:45.477648	134.5	17.7	-87.2	8.8
2025-01-08 17:08:46.643732	134.5	17.9	-87.3	6.6
2025-01-08 17:08:47.812179	134.4	18.0	-87.7	4.5
2025-01-08 17:08:48.972967	134.4	18.1	-87.9	3.7
2025-01-08 17:08:50.133260	134.3	18.3	-87.5	3.7
2025-01-08 17:08:51.294955	134.3	18.4	-87.2	2.7
2025-01-08 17:08:52.446782	134.3	18.6	-87.2	5.3
2025-01-08 17:08:53.595150	134.2	18.7	-87.5	7.6
2025-01-08 17:08:54.734452	134.2	18.8	-87.6	9.7
2025-01-08 17:08:55.856335	134.1	19.0	-88.1	7.5
2025-01-08 17:08:56.976578	134.1	19.1	-87.7	7.9
2025-01-08 17:08:58.096965	134.0	19.3	-87.7	6.8
2025-01-08 17:08:59.217292	134.0	19.4	-87.7	5.7
2025-01-08 17:09:00.338896	133.9	19.5	-87.6	9.3
2025-01-08 17:09:01.459263	133.9	19.7	-87.5	8.5
2025-01-08 17:09:02.584983	133.8	19.8	-87.4	6.4
2025-01-08 17:09:03.710203	133.8	20.0	-87.5	3.9
2025-01-08 17:09:04.861280	133.7	20.1	-87.8	3.0
2025-01-08 17:09:06.006784	133.7	20.3	-87.7	4.7
2025-01-08 17:09:07.165934	133.6	20.4	-86.8	3.1
2025-01-08 17:09:08.324729	133.6	20.6	-87.0	4.5
2025-01-08 17:09:09.488048	133.5	20.7	-87.3	7.7
2025-01-08 17:09:10.651236	133.5	20.9	-88.0	11.3
2025-01-08 17:09:11.817057	133.4	21.0	-87.7	8.4
2025-01-08 17:09:12.972136	133.4	21.2	-87.6	9.2
2025-01-08 17:09:14.133443	133.3	21.3	-87.4	9.0
2025-01-08 17:09:15.290620	133.3	21.5	-87.7	6.6
2025-01-08 17:09:16.452513	133.2	21.6	-87.8	11.3
2025-01-08 17:09:17.613350	133.2	21.8	-87.6	9.7
2025-01-08 17:09:18.771232	133.1	22.0	-87.6	8.2
2025-01-08 17:09:19.926203	133.0	22.1	-87.7	6.6
2025-01-08 17:09:21.090005	133.0	22.3	-87.8	3.3
2025-01-08 17:09:22.252298	132.9	22.5	-87.6	3.6
2025-01-08 17:09:23.419826	132.9	22.6	-87.7	3.8
2025-01-08 17:09:24.577118	132.8	22.8	-87.8	7.3
2025-01-08 17:09:25.729950	132.7	22.9	-87.9	8.8
2025-01-08 17:09:26.893811	132.7	23.1	-87.8	11.5
2025-01-08 17:09:28.055781	132.6	23.3	-87.6	9.8
2025-01-08 17:09:29.215014	132.6	23.4	-87.5	6.1
2025-01-08 17:09:30.375453	132.5	23.6	-87.5	5.6
2025-01-08 17:09:31.530853	132.4	23.8	-87.9	8.9
2025-01-08 17:09:32.682227	132.4	24.0	-87.6	9.1
2025-01-08 17:09:33.819282	132.3	24.1	-88.1	11.2
2025-01-08 17:09:34.950427	132.2	24.3	-87.6	8.1
2025-01-08 17:09:36.099328	132.2	24.5	-87.9	4.9
2025-01-08 17:09:37.245125	132.1	24.6	-87.8	3.9
2025-01-08 17:09:38.379326	132.0	24.8	-87.5	2.6
2025-01-08 17:09:39.521729	132.0	25.0	-88.3	3.4
2025-01-08 17:09:40.680530	131.9	25.2	-87.9	5.5
2025-01-08 17:09:41.834126	131.8	25.4	-87.6	7.0
2025-01-08 17:09:42.999578	131.7	25.5	-88.5	8.4
2025-01-08 17:09:44.153889	131.7	25.7	-87.9	8.6
2025-01-08 17:09:45.309742	131.6	25.9	-87.2	5.4
2025-01-08 17:09:46.465246	131.5	26.1	-87.4	6.9
2025-01-08 17:09:47.589698	131.4	26.3	-87.7	5.0
2025-01-08 17:09:48.730309	131.4	26.5	-87.5	4.3
2025-01-08 17:09:49.881563	131.3	26.6	-87.5	6.8
2025-01-08 17:09:51.035770	131.2	26.8	-87.7	6.5
2025-01-08 17:09:52.179311	131.1	27.0	-87.2	5.1
2025-01-08 17:09:53.331196	131.1	27.2	-87.7	3.9
2025-01-08 17:09:54.489885	131.0	27.4	-87.4	5.2
2025-01-08 17:09:55.644206	130.9	27.6	-87.8	3.4
2025-01-08 17:09:56.798641	130.8	27.8	-87.9	2.2
2025-01-08 17:09:57.959652	130.7	28.0	-87.9	1.7
2025-01-08 17:09:59.131177	130.6	28.2	-87.6	3.2
2025-01-08 17:10:00.281484	130.5	28.4	-87.5	2.7
2025-01-08 17:10:01.436414	130.5	28.6	-88.1	2.5
2025-01-08 17:10:02.594936	130.4	28.8	-87.9	3.0
2025-01-08 17:10:03.755573	130.3	29.0	-87.5	2.7
2025-01-08 17:10:04.908206	130.2	29.2	-87.8	3.7
2025-01-08 17:10:06.067965	130.1	29.4	-88.0	4.8
2025-01-08 17:10:07.228573	130.0	29.6	-87.9	4.5
2025-01-08 17:10:08.385434	129.9	29.8	-88.0	2.8
2025-01-08 17:10:09.542543	129.8	30.1	-87.8	3.4
2025-01-08 17:10:10.702904	129.7	30.3	-88.0	4.7
2025-01-08 17:10:11.861048	129.6	30.5	-88.0	3.2
2025-01-08 17:10:13.020148	129.5	30.7	-88.3	3.3
2025-01-08 17:10:14.180898	129.4	30.9	-88.2	3.5
2025-01-08 17:10:15.350981	129.3	31.1	-87.8	3.2
2025-01-08 17:10:16.510463	129.2	31.4	-87.8	5.7
2025-01-08 17:10:17.665106	129.1	31.6	-88.3	6.4
2025-01-08 17:10:18.822579	129.0	31.8	-88.2	4.8
2025-01-08 17:10:19.979524	128.9	32.0	-88.2	5.0
2025-01-08 17:10:21.135624	128.8	32.3	-88.3	7.8
2025-01-08 17:10:22.290606	128.6	32.5	-88.3	5.6
2025-01-08 17:10:23.445732	128.5	32.7	-87.8	6.2
2025-01-08 17:10:24.616433	128.4	32.9	-87.8	8.6
2025-01-08 17:10:25.783585	128.3	33.2	-88.2	5.3
2025-01-08 17:10:26.947480	128.2	33.4	-88.1	4.8
2025-01-08 17:10:28.109304	128.0	33.7	-87.4	3.4
2025-01-08 17:10:29.264769	127.9	33.9	-88.3	3.3
2025-01-08 17:10:30.418272	127.8	34.1	-88.0	4.0
2025-01-08 17:10:31.569958	127.7	34.4	-88.4	5.0
2025-01-08 17:10:32.729859	127.5	34.6	-88.5	6.4
2025-01-08 17:10:33.894613	127.4	34.9	-88.0	8.9
2025-01-08 17:10:35.056166	127.3	35.1	-87.9	11.7
2025-01-08 17:10:36.210095	127.1	35.4	-88.2	10.0
2025-01-08 17:10:37.364381	127.0	35.6	-88.4	8.2
2025-01-08 17:10:38.523459	126.9	35.9	-88.2	6.9
2025-01-08 17:10:39.681002	126.7	36.1	-88.8	5.1
2025-01-08 17:10:40.845654	126.6	36.4	-88.3	8.8
2025-01-08 17:10:42.002787	126.4	36.6	-88.6	9.5
2025-01-08 17:10:43.164302	126.3	36.9	-88.0	13.0
2025-01-08 17:10:44.323181	126.1	37.2	-88.2	8.8
2025-01-08 17:10:45.484975	126.0	37.4	-88.4	7.2
2025-01-08 17:10:46.653701	125.8	37.7	-87.7	4.7
2025-01-08 17:10:47.811882	125.7	38.0	-88.3	0.6
2025-01-08 17:10:48.968168	125.5	38.2	-88.4	4.0
2025-01-08 17:10:50.126980	125.3	38.5	-88.2	8.3
2025-01-08 17:10:51.281932	125.2	38.8	-88.5	6.6
2025-01-08 17:10:52.443201	125.0	39.0	-88.4	9.0
2025-01-08 17:10:53.595635	124.8	39.3	-88.6	9.5
2025-01-08 17:10:54.753358	124.6	39.6	-88.2	8.7
2025-01-08 17:10:55.915534	124.5	39.9	-88.8	6.4
2025-01-08 17:10:57.080018	124.3	40.2	-88.3	8.6
2025-01-08 17:10:58.236677	124.1	40.5	-88.3	5.2
2025-01-08 17:10:59.390687	123.9	40.7	-88.4	9.0
2025-01-08 17:11:00.541857	123.7	41.0	-88.2	11.1
2025-01-08 17:11:01.697912	123.5	41.3	-88.8	13.3
2025-01-08 17:11:02.865991	123.3	41.6	-88.7	11.7
2025-01-08 17:11:04.026585	123.1	41.9	-88.6	9.4
2025-01-08 17:11:05.190279	122.9	42.2	-88.4	6.6
2025-01-08 17:11:06.349895	122.7	42.5	-88.7	5.7
2025-01-08 17:11:07.514075	122.5	42.8	-88.8	3.0
2025-01-08 17:11:08.675220	122.2	43.1	-88.7	3.3
2025-01-08 17:11:09.832055	122.0	43.4	-88.9	4.1
2025-01-08 17:11:10.985422	121.8	43.7	-88.8	6.2
2025-01-08 17:11:12.148742	121.6	44.0	-88.6	8.8
2025-01-08 17:11:13.310989	121.3	44.3	-88.4	11.0
2025-01-08 17:11:14.466066	121.1	44.6	-88.4	10.3
2025-01-08 17:11:15.627528	120.8	45.0	-88.6	8.8
2025-01-08 17:11:16.782892	120.6	45.3	-88.8	5.1
2025-01-08 17:11:17.937368	120.3	45.6	-88.8	7.4
2025-01-08 17:11:19.090904	120.1	45.9	-88.6	3.8
2025-01-08 17:11:20.255181	119.8	46.2	-88.7	4.7
2025-01-08 17:11:21.416322	119.5	46.5	-88.9	9.2
2025-01-08 17:11:22.572438	119.2	46.9	-89.1	11.7
2025-01-08 17:11:23.727258	118.9	47.2	-88.8	10.5
2025-01-08 17:11:24.891709	118.6	47.5	-88.5	6.2
2025-01-08 17:11:26.055361	118.3	47.8	-89.1	5.9
2025-01-08 17:11:27.213755	118.0	48.2	-89.0	4.1
2025-01-08 17:11:28.370755	117.7	48.5	-89.1	2.5
2025-01-08 17:11:29.515493	117.4	48.8	-89.0	4.2
2025-01-08 17:11:30.673938	117.1	49.2	-89.0	4.2
2025-01-08 17:11:31.811766	116.8	49.5	-89.0	3.0
2025-01-08 17:11:32.931706	116.4	49.8	-88.9	8.6
2025-01-08 17:11:34.051883	116.1	50.2	-88.2	7.7
2025-01-08 17:11:35.174153	115.8	50.5	-88.8	7.2
2025-01-08 17:11:36.295721	115.4	50.8	-88.9	6.9
2025-01-08 17:11:37.415935	115.0	51.2	-89.1	5.2
2025-01-08 17:11:38.536441	114.7	51.5	-89.3	3.7
2025-01-08 17:11:39.662914	114.3	51.8	-89.2	5.7
2025-01-08 17:11:40.792663	113.9	52.2	-89.0	3.7
2025-01-08 17:11:41.947200	113.5	52.5	-88.8	6.8
2025-01-08 17:11:43.100698	113.1	52.9	-88.6	8.4
2025-01-08 17:11:44.256969	112.7	53.2	-88.8	8.0
2025-01-08 17:11:45.416772	112.2	53.6	-89.3	3.5
2025-01-08 17:11:46.574118	111.8	53.9	-89.1	5.7
2025-01-08 17:11:47.734179	111.3	54.3	-88.9	8.7
2025-01-08 17:11:48.885161	110.9	54.6	-88.9	8.4
2025-01-08 17:11:50.047368	110.4	55.0	-89.1	5.7
2025-01-08 17:11:51.203911	109.9	55.3	-88.3	4.4
2025-01-08 17:11:52.364924	109.4	55.7	-88.4	2.2
2025-01-08 17:11:53.525620	108.9	56.0	-88.6	5.4
2025-01-08 17:11:54.680837	108.3	56.4	-88.9	3.7
2025-01-08 17:11:55.838473	107.8	56.7	-88.6	4.4
2025-01-08 17:11:57.005884	107.2	57.1	-88.7	8.6
2025-01-08 17:11:58.166347	106.6	57.4	-88.7	8.5
2025-01-08 17:11:59.334037	106.0	57.8	-88.9	7.9
2025-01-08 17:12:00.479576	105.4	58.1	-88.6	11.8
2025-01-08 17:12:01.640737	104.8	58.5	-88.6	15.2
2025-01-08 17:12:02.795952	104.2	58.8	-88.8	14.5
2025-01-08 17:12:03.958668	103.5	59.2	-88.7	15.3
2025-01-08 17:12:05.127768	102.8	59.5	-88.8	9.9
2025-01-08 17:12:06.284528	102.1	59.9	-88.7	7.0
2025-01-08 17:12:07.436321	101.4	60.2	-88.6	8.1
2025-01-08 17:12:08.574197	100.7	60.5	-88.4	7.6
2025-01-08 17:12:09.728466	100.0	60.9	-88.8	5.5
2025-01-08 17:12:10.886266	99.2	61.2	-88.3	5.7
2025-01-08 17:12:12.049096	98.4	61.5	-87.9	7.4
2025-01-08 17:12:13.214961	97.6	61.9	-87.9	12.0
2025-01-08 17:12:14.374474	96.8	62.2	-87.9	11.3
2025-01-08 17:12:15.548388	95.9	62.5	-87.9	13.2
2025-01-08 17:12:16.702403	95.0	62.8	-88.4	14.1
2025-01-08 17:12:17.866438	94.1	63.1	-88.1	9.1
2025-01-08 17:12:19.021822	93.2	63.4	-87.6	9.0
2025-01-08 17:12:20.178934	92.2	63.7	-88.0	5.6
2025-01-08 17:12:21.341522	91.3	64.0	-88.3	3.7
2025-01-08 17:12:22.502802	90.3	64.3	-88.3	5.9
2025-01-08 17:12:23.665834	89.2	64.6	-88.0	4.3
2025-01-08 17:12:24.823075	88.2	64.9	-87.6	2.4
2025-01-08 17:12:25.987246	87.1	65.1	-88.0	6.9
2025-01-08 17:12:27.135877	86.0	65.4	-88.0	8.5
2025-01-08 17:12:28.291919	84.9	65.7	-88.1	4.6
2025-01-08 17:12:29.447545	83.7	65.9	-88.4	6.1
2025-01-08 17:12:30.612357	82.5	66.1	-88.4	10.5
2025-01-08 17:12:31.775098	81.3	66.4	-88.6	8.6
2025-01-08 17:12:32.932402	80.1	66.6	-88.5	11.4
2025-01-08 17:12:34.087031	78.9	66.8	-88.4	11.1
2025-01-08 17:12:35.241461	77.6	67.0	-88.4	11.1
2025-01-08 17:12:36.395046	76.3	67.2	-88.3	12.0
2025-01-08 17:12:37.558427	74.9	67.4	-88.1	9.0
2025-01-08 17:12:38.713200	73.6	67.6	-88.6	11.1
2025-01-08 17:12:39.870582	72.2	67.7	-88.2	13.6
2025-01-08 17:12:41.026243	70.8	67.9	-88.5	9.5
2025-01-08 17:12:42.189082	69.4	68.0	-88.2	9.2
2025-01-08 17:12:43.342977	68.0	68.1	-88.1	7.0
2025-01-08 17:12:44.502367	66.5	68.2	-88.5	3.9
2025-01-08 17:12:45.655195	65.1	68.3	-88.0	5.7
2025-01-08 17:12:46.814201	63.6	68.4	-88.1	4.3
2025-01-08 17:12:47.972232	62.1	68.5	-88.2	7.5
2025-01-08 17:12:49.129827	60.6	68.5	-88.1	7.5
2025-01-08 17:12:50.285978	59.1	68.6	-87.7	4.7
2025-01-08 17:12:51.452375	57.6	68.6	-87.7	5.8
2025-01-08 17:12:52.604713	56.1	68.6	-87.8	8.7
2025-01-08 17:12:53.767251	54.6	68.6	-88.0	6.5
2025-01-08 17:12:54.930070	53.1	68.6	-88.2	6.8
2025-01-08 17:12:56.084709	51.5	68.6	-87.9	10.2
2025-01-08 17:12:57.246568	50.0	68.5	-88.2	8.9
2025-01-08 17:12:58.401283	48.5	68.5	-88.1	8.7
2025-01-08 17:12:59.548670	47.1	68.4	-87.8	7.9
2025-01-08 17:13:00.697189	45.6	68.3	-87.9	9.8
2025-01-08 17:13:01.834653	44.2	68.2	-88.2	9.8
2025-01-08 17:13:02.957513	42.8	68.1	-88.2	13.0
2025-01-08 17:13:04.078010	41.4	68.0	-87.8	13.9
2025-01-08 17:13:05.200077	40.0	67.9	-88.5	10.9
2025-01-08 17:13:06.319259	38.6	67.8	-88.2	6.5
2025-01-08 17:13:07.440376	37.3	67.6	-87.9	10.5
2025-01-08 17:13:08.561427	36.0	67.4	-87.6	13.3
2025-01-08 17:13:09.686553	34.7	67.3	-87.5	12.0
2025-01-08 17:13:10.809343	33.4	67.1	-88.4	11.2
2025-01-08 17:13:11.968742	32.1	66.9	-88.3	12.0
2025-01-08 17:13:13.111934	30.9	66.7	-87.8	12.7
2025-01-08 17:13:14.269363	29.6	66.5	-88.3	12.0
2025-01-08 17:13:15.423125	28.4	66.3	-88.2	10.7
2025-01-08 17:13:16.584742	27.2	66.0	-87.7	7.2
2025-01-08 17:13:17.749036	26.1	65.8	-87.9	7.8
2025-01-08 17:13:18.904515	24.9	65.5	-87.9	8.2
2025-01-08 17:13:20.060445	23.8	65.3	-88.0	10.4
2025-01-08 17:13:21.218658	22.7	65.0	-88.3	11.0
2025-01-08 17:13:22.374971	21.7	64.7	-88.0	9.5
2025-01-08 17:13:23.530477	20.6	64.4	-88.1	9.6
2025-01-08 17:13:24.690133	19.6	64.2	-88.2	9.9
2025-01-08 17:13:25.856856	18.6	63.9	-88.3	11.6
2025-01-08 17:13:27.016303	17.7	63.6	-88.2	14.6
2025-01-08 17:13:28.171594	16.7	63.3	-87.4	13.6
2025-01-08 17:13:29.324928	15.8	63.0	-87.8	13.7
2025-01-08 17:13:30.484013	15.0	62.6	-88.2	15.2
2025-01-08 17:13:31.653335	14.1	62.3	-88.3	14.4
2025-01-08 17:13:32.810478	13.2	62.0	-88.2	15.8
2025-01-08 17:13:33.969537	12.4	61.7	-88.2	16.3
2025-01-08 17:13:35.128445	11.6	61.4	-88.1	14.5
2025-01-08 17:13:36.292175	10.8	61.0	-88.2	13.3
2025-01-08 17:13:37.448931	10.1	60.7	-88.1	14.0
2025-01-08 17:13:38.611955	9.3	60.3	-88.0	15.8
2025-01-08 17:13:39.772863	8.6	60.0	-88.1	15.5
2025-01-08 17:13:40.936688	7.9	59.7	-87.7	13.8
2025-01-08 17:13:42.093744	7.2	59.3	-88.2	14.4
2025-01-08 17:13:43.250860	6.6	59.0	-88.0	11.9
2025-01-08 17:13:44.403133	5.9	58.6	-87.7	11.5
2025-01-08 17:13:45.562516	5.3	58.3	-87.7	10.8
2025-01-08 17:13:46.716986	4.7	57.9	-87.7	8.0
2025-01-08 17:13:47.881475	4.1	57.6	-87.9	9.2
2025-01-08 17:13:49.040735	3.5	57.2	-88.0	12.0
2025-01-08 17:13:50.195545	2.9	56.9	-87.9	6.2
2025-01-08 17:13:51.359850	2.4	56.5	-88.3	7.2
2025-01-08 17:13:52.515052	1.9	56.2	-88.0	12.1
2025-01-08 17:13:53.668516	1.3	55.8	-88.3	7.3
2025-01-08 17:13:54.836249	0.8	55.5	-88.5	4.3
2025-01-08 17:13:56.000042	0.3	55.1	-87.8	6.6
2025-01-08 17:13:57.167189	359.8	54.8	-88.0	6.8
2025-01-08 17:13:58.329531	359.3	54.4	-87.5	4.7
2025-01-08 17:13:59.486949	358.9	54.1	-88.1	7.3
2025-01-08 17:14:00.637485	358.4	53.7	-88.2	9.4
2025-01-08 17:14:01.795211	358.0	53.4	-88.6	6.5
2025-01-08 17:14:02.959314	357.6	53.0	-88.3	8.2
2025-01-08 17:14:04.114768	357.1	52.7	-88.0	7.2
2025-01-08 17:14:05.274823	356.7	52.3	-88.4	4.3
2025-01-08 17:14:06.413829	356.3	52.0	-88.6	6.9
2025-01-08 17:14:07.553696	356.0	51.7	-88.6	7.2
2025-01-08 17:14:08.674835	355.6	51.3	-88.3	6.5
2025-01-08 17:14:09.796109	355.2	51.0	-88.1	5.7
2025-01-08 17:14:10.917582	354.9	50.7	-87.9	7.8
2025-01-08 17:14:12.039701	354.5	50.3	-88.3	9.3
2025-01-08 17:14:13.158424	354.2	50.0	-88.2	8.8
2025-01-08 17:14:14.279472	353.9	49.7	-88.4	9.8
2025-01-08 17:14:15.399567	353.5	49.3	-88.7	14.3
2025-01-08 17:14:16.522004	353.2	49.0	-88.6	14.8
2025-01-08 17:14:17.672488	352.9	48.7	-89.2	12.4
2025-01-08 17:14:18.834577	352.6	48.4	-88.9	9.7
2025-01-08 17:14:19.981346	352.3	48.0	-88.6	11.8
2025-01-08 17:14:21.141573	352.0	47.7	-88.7	10.4
2025-01-08 17:14:22.296368	351.7	47.4	-88.6	9.5
2025-01-08 17:14:23.454706	351.4	47.0	-89.0	9.0
2025-01-08 17:14:24.607247	351.1	46.7	-88.1	7.4
2025-01-08 17:14:25.762914	350.8	46.4	-88.3	4.9
2025-01-08 17:14:26.922075	350.6	46.1	-88.8	7.4
2025-01-08 17:14:28.082830	350.3	45.8	-88.8	10.0
2025-01-08 17:14:29.236016	350.0	45.4	-88.7	6.0
2025-01-08 17:14:30.390472	349.8	45.1	-88.9	7.6
2025-01-08 17:14:31.554782	349.5	44.8	-89.1	9.1
2025-01-08 17:14:32.707798	349.3	44.5	-88.8	7.1
2025-01-08 17:14:33.872513	349.0	44.2	-88.7	7.4
2025-01-08 17:14:35.035042	348.8	43.9	-89.1	11.6
2025-01-08 17:14:36.197067	348.6	43.6	-89.3	11.6
2025-01-08 17:14:37.350200	348.4	43.3	-88.9	12.2
2025-01-08 17:14:38.506993	348.1	43.0	-88.8	16.0
2025-01-08 17:14:39.662992	347.9	42.7	-89.1	13.5
2025-01-08 17:14:40.821184	347.7	42.4	-89.3	14.2
2025-01-08 17:14:41.983355	347.5	42.1	-89.3	15.5
2025-01-08 17:14:43.144066	347.3	41.8	-89.0	14.0
2025-01-08 17:14:44.307397	347.1	41.5	-88.9	11.7
2025-01-08 17:14:45.461096	346.9	41.2	-89.2	11.0
2025-01-08 17:14:46.621059	346.7	40.9	-89.0	10.2
2025-01-08 17:14:47.775331	346.5	40.6	-89.2	3.7
2025-01-08 17:14:48.936710	346.3	40.4	-89.2	6.2
2025-01-08 17:14:50.080691	346.1	40.1	-89.4	5.7
2025-01-08 17:14:51.216454	346.0	39.8	-88.8	5.5
2025-01-08 17:14:52.337557	345.8	39.5	-88.9	3.7
2025-01-08 17:14:53.457921	345.6	39.3	-89.1	6.1
2025-01-08 17:14:54.580363	345.4	39.0	-89.4	7.4
2025-01-08 17:14:55.701346	345.3	38.7	-89.1	5.7
2025-01-08 17:14:56.822167	345.1	38.5	-89.0	7.8
2025-01-08 17:14:57.942618	345.0	38.2	-88.8	9.9
2025-01-08 17:14:59.064704	344.8	37.9	-89.1	11.0
2025-01-08 17:15:00.185278	344.6	37.7	-88.8	11.3
2025-01-08 17:15:01.339049	344.5	37.4	-89.3	11.2
2025-01-08 17:15:02.485840	344.3	37.2	-89.0	11.6
2025-01-08 17:15:03.642487	344.2	36.9	-89.6	9.6
2025-01-08 17:15:04.801679	344.0	36.6	-89.4	4.9
2025-01-08 17:15:05.955927	343.9	36.4	-89.6	6.9
2025-01-08 17:15:07.105098	343.8	36.1	-89.1	5.8
2025-01-08 17:15:08.256325	343.6	35.9	-89.2	3.7
2025-01-08 17:15:09.413004	343.5	35.6	-89.4	4.0
2025-01-08 17:15:10.574089	343.3	35.4	-89.1	5.5
2025-01-08 17:15:11.733036	343.2	35.1	-89.3	5.5
2025-01-08 17:15:12.892443	343.1	34.9	-89.2	5.3
2025-01-08 17:15:14.055427	342.9	34.6	-89.2	6.3
2025-01-08 17:15:15.207177	342.8	34.4	-89.6	6.6
2025-01-08 17:15:16.365579	342.7	34.2	-89.6	7.7
2025-01-08 17:15:17.534343	342.6	33.9	-89.6	12.0
2025-01-08 17:15:18.686547	342.4	33.7	-89.5	12.2
2025-01-08 17:15:19.841167	342.3	33.4	-89.7	9.5
2025-01-08 17:15:20.998300	342.2	33.2	-89.8	8.5
2025-01-08 17:15:22.157878	342.1	33.0	-89.7	9.1
2025-01-08 17:15:23.321016	342.0	32.7	-89.6	4.1
2025-01-08 17:15:24.482322	341.8	32.5	-89.8	7.3
2025-01-08 17:15:25.628920	341.7	32.3	-89.7	7.2
2025-01-08 17:15:26.777473	341.6	32.1	-89.4	2.3
2025-01-08 17:15:27.907586	341.5	31.8	-89.9	2.1
2025-01-08 17:15:29.056088	341.4	31.6	-89.7	3.8
2025-01-08 17:15:30.204408	341.3	31.4	-89.6	3.0
2025-01-08 17:15:31.351605	341.2	31.2	-90.0	5.2
2025-01-08 17:15:32.500683	341.1	31.0	-89.9	4.6
2025-01-08 17:15:33.652374	341.0	30.8	-90.1	7.7
2025-01-08 17:15:34.816450	340.9	30.5	-89.9	10.2
2025-01-08 17:15:35.967500	340.8	30.3	-89.9	8.7
2025-01-08 17:15:37.124683	340.7	30.1	-90.0	9.7
2025-01-08 17:15:38.281047	340.6	29.9	-89.8	7.7
2025-01-08 17:15:39.438403	340.5	29.7	-90.0	3.5
2025-01-08 17:15:40.590214	340.4	29.5	-90.0	4.2
2025-01-08 17:15:41.746705	340.3	29.3	-89.8	4.1
2025-01-08 17:15:42.910680	340.2	29.1	-89.8	4.6
2025-01-08 17:15:44.082474	340.1	28.9	-89.6	6.2
2025-01-08 17:15:45.236401	340.0	28.7	-89.8	4.2
2025-01-08 17:15:46.395118	340.0	28.5	-89.7	4.9
2025-01-08 17:15:47.557761	339.9	28.3	-90.0	7.6
2025-01-08 17:15:48.723309	339.8	28.1	-89.6	6.8
2025-01-08 17:15:49.882814	339.7	27.9	-89.6	5.9
2025-01-08 17:15:51.037168	339.6	27.7	-89.6	4.0
2025-01-08 17:15:52.195592	339.5	27.5	-89.5	2.4
2025-01-08 17:15:53.354938	339.5	27.3	-89.7	4.9
2025-01-08 17:15:54.513346	339.4	27.1	-89.6	6.2
2025-01-08 17:15:55.671454	339.3	26.9	-89.7	3.2
2025-01-08 17:15:56.827173	339.2	26.7	-89.7	1.4
2025-01-08 17:15:57.983252	339.1	26.5	-89.6	4.0
2025-01-08 17:15:59.137499	339.1	26.3	-89.8	4.2
2025-01-08 17:16:00.287332	339.0	26.1	-89.1	1.1
2025-01-08 17:16:01.439351	338.9	26.0	-89.3	4.8
2025-01-08 17:16:02.594929	338.8	25.8	-89.5	5.1
2025-01-08 17:16:03.752530	338.8	25.6	-89.3	4.9
2025-01-08 17:16:04.913263	338.7	25.4	-89.8	5.9
2025-01-08 17:16:06.071846	338.6	25.2	-89.5	4.2
2025-01-08 17:16:07.228080	338.6	25.1	-89.4	4.5
2025-01-08 17:16:08.386933	338.5	24.9	-89.8	4.4
2025-01-08 17:16:09.555847	338.4	24.7	-89.9	7.1
2025-01-08 17:16:10.708707	338.3	24.5	-89.7	2.6
2025-01-08 17:16:11.872110	338.3	24.3	-89.4	4.1
2025-01-08 17:16:13.031036	338.2	24.2	-89.5	5.0
2025-01-08 17:16:14.194214	338.1	24.0	-89.4	2.1
2025-01-08 17:16:15.348188	338.1	23.8	-89.2	3.2
2025-01-08 17:16:16.509049	338.0	23.7	-89.5	3.7
2025-01-08 17:16:17.662257	338.0	23.5	-89.8	4.8
2025-01-08 17:16:18.824019	337.9	23.3	-89.9	7.1
2025-01-08 17:16:19.979141	337.8	23.2	-89.9	7.9
2025-01-08 17:16:21.138577	337.8	23.0	-89.8	6.2
2025-01-08 17:16:22.299430	337.7	22.8	-89.4	6.0
2025-01-08 17:16:23.451192	337.7	22.7	-89.9	7.4
2025-01-08 17:16:24.607578	337.6	22.5	-90.3	6.1
2025-01-08 17:16:25.762495	337.5	22.3	-90.2	2.4
2025-01-08 17:16:26.919047	337.5	22.2	-89.9	3.3
2025-01-08 17:16:28.077912	337.4	22.0	-89.9	4.2
2025-01-08 17:16:29.231345	337.4	21.9	-89.4	4.7
2025-01-08 17:16:30.386604	337.3	21.7	-89.8	4.0
2025-01-08 17:16:31.540609	337.3	21.5	-89.6	6.6
2025-01-08 17:16:32.700237	337.2	21.4	-88.6	5.9
2025-01-08 17:16:33.858624	337.1	21.2	-88.9	8.2
2025-01-08 17:16:35.018114	337.1	21.1	-89.3	7.7
2025-01-08 17:16:36.176982	337.0	20.9	-89.5	6.5
2025-01-08 17:16:37.331251	337.0	20.8	-89.3	5.1
2025-01-08 17:16:38.485717	336.9	20.6	-89.6	3.2
2025-01-08 17:16:39.642060	336.9	20.5	-90.1	3.5
2025-01-08 17:16:40.793674	336.8	20.3	-90.2	4.7
2025-01-08 17:16:41.957477	336.8	20.2	-89.9	4.4
2025-01-08 17:16:43.120704	336.7	20.0	-90.3	3.8
2025-01-08 17:16:44.283898	336.7	19.9	-90.0	2.8
2025-01-08 17:16:45.441302	336.6	19.7	-90.0	2.9
2025-01-08 17:16:46.595420	336.6	19.6	-90.0	3.0
2025-01-08 17:16:47.752999	336.5	19.4	-89.6	3.9
2025-01-08 17:16:48.921720	336.5	19.3	-89.9	4.5
2025-01-08 17:16:50.077256	336.4	19.2	-89.9	3.0
2025-01-08 17:16:51.232127	336.4	19.0	-90.0	2.0
2025-01-08 17:16:52.394908	336.4	18.9	-90.2	3.0
2025-01-08 17:16:53.550299	336.3	18.7	-90.1	2.7
2025-01-08 17:16:54.712047	336.3	18.6	-89.9	2.6
2025-01-08 17:16:55.858746	336.2	18.5	-90.0	3.1
2025-01-08 17:16:57.020197	336.2	18.3	-90.4	3.3
2025-01-08 17:16:58.158918	336.1	18.2	-89.9	3.0
2025-01-08 17:16:59.280500	336.1	18.0	-89.8	4.3
2025-01-08 17:17:00.400336	336.1	17.9	-90.1	2.0
2025-01-08 17:17:01.520949	336.0	17.8	-90.0	1.9
2025-01-08 17:17:02.642545	336.0	17.7	-89.4	1.7
2025-01-08 17:17:03.764654	335.9	17.5	-90.0	1.1
2025-01-08 17:17:04.885880	335.9	17.4	-89.8	2.4
2025-01-08 17:17:06.009980	335.9	17.3	-89.7	3.2
2025-01-08 17:17:07.244320	335.8	17.1	-89.8	2.1
2025-01-08 17:17:08.398664	335.8	17.0	-89.9	2.2
2025-01-08 17:17:09.547278	335.7	16.9	-90.3	4.0
2025-01-08 17:17:10.699779	335.7	16.7	-90.3	1.7
2025-01-08 17:17:11.851740	335.7	16.6	-89.6	2.5
2025-01-08 17:17:13.000683	335.6	16.5	-89.9	3.7
2025-01-08 17:17:14.133408	335.6	16.4	-89.8	3.5
2025-01-08 17:17:15.274254	335.5	16.2	-90.1	2.4
2025-01-08 17:17:16.416066	335.5	16.1	-90.3	4.6
2025-01-08 17:17:17.565081	335.5	16.0	-90.1	4.3
2025-01-08 17:17:18.724549	335.4	15.9	-90.0	2.4
2025-01-08 17:17:19.879479	335.4	15.7	-90.1	2.4
2025-01-08 17:17:21.039640	335.4	15.6	-90.1	2.0
2025-01-08 17:17:22.199671	335.3	15.5	-90.0	3.4
2025-01-08 17:17:23.360309	335.3	15.4	-90.0	3.5
2025-01-08 17:17:24.522639	335.3	15.2	-90.1	2.7
2025-01-08 17:17:25.676515	335.2	15.1	-89.8	1.8
2025-01-08 17:17:26.832783	335.2	15.0	-90.0	2.7
2025-01-08 17:17:27.986344	335.2	14.9	-90.3	4.1
2025-01-08 17:17:29.147103	335.1	14.8	-90.0	2.1
2025-01-08 17:17:30.302530	335.1	14.6	-90.1	4.1
2025-01-08 17:17:31.463613	335.1	14.5	-90.2	3.1
#Closed at: 2025-01-08 17:08:25.861982