passes_logs/2025/01/08/LEX_Murmansk/LEX_Murmansk__20250108_091546_NOAA_18_rec.log

#Pass ID: 20250108_091546_NOAA 18
#Satellite: NOAA 18
#Configuration: NOAA 18
#Start time: 2025-01-08 09:15:40.971956

#LorettStation: 1.0.0 05.05.2024
#Station: LEX_Murmansk
#Location: 33.156738 lon 68.926811 lat
#TLE: 1 28654U 05018A   25007.80096224  .00000414  00000+0  24332-3 0  9999
#TLE: 2 28654  98.8579  88.9263 0014020 199.4461 160.6178 14.13480585 12168

#Time	Az	El	Level	SNR
2025-01-08 09:15:53.239826	28.7	16.3	-91.9	5.9
2025-01-08 09:15:54.392737	28.8	16.4	-91.6	6.6
2025-01-08 09:15:55.553736	28.9	16.5	-92.4	8.4
2025-01-08 09:15:56.703332	29.0	16.6	-92.2	7.9
2025-01-08 09:15:57.855082	29.0	16.8	-91.7	7.9
2025-01-08 09:15:59.007050	29.1	16.9	-89.8	6.7
2025-01-08 09:16:00.164739	29.2	17.0	-89.7	6.4
2025-01-08 09:16:01.310005	29.2	17.1	-89.2	9.0
2025-01-08 09:16:02.462269	29.3	17.3	-90.4	8.0
2025-01-08 09:16:03.621350	29.4	17.4	-89.7	8.5
2025-01-08 09:16:04.780980	29.4	17.5	-92.1	9.5
2025-01-08 09:16:05.932109	29.5	17.6	-90.7	6.6
2025-01-08 09:16:07.087051	29.6	17.8	-91.2	6.2
2025-01-08 09:16:08.239717	29.7	17.9	-91.8	10.4
2025-01-08 09:16:09.400753	29.7	18.0	-92.5	7.0
2025-01-08 09:16:10.557442	29.8	18.2	-91.9	8.6
2025-01-08 09:16:11.715408	29.9	18.3	-92.1	10.7
2025-01-08 09:16:12.869675	30.0	18.4	-92.3	9.7
2025-01-08 09:16:14.025256	30.1	18.6	-90.5	10.5
2025-01-08 09:16:15.175796	30.1	18.7	-90.3	8.5
2025-01-08 09:16:16.333653	30.2	18.8	-90.9	9.9
2025-01-08 09:16:17.488737	30.3	19.0	-90.6	8.7
2025-01-08 09:16:18.646362	30.4	19.1	-91.3	11.1
2025-01-08 09:16:19.798317	30.4	19.2	-90.5	8.6
2025-01-08 09:16:20.954398	30.5	19.4	-88.4	7.7
2025-01-08 09:16:22.108671	30.6	19.5	-90.7	9.6
2025-01-08 09:16:23.262303	30.7	19.7	-90.8	10.9
2025-01-08 09:16:24.421420	30.8	19.8	-91.2	9.7
2025-01-08 09:16:25.576398	30.9	19.9	-91.7	11.4
2025-01-08 09:16:26.727634	30.9	20.1	-92.1	12.7
2025-01-08 09:16:27.875538	31.0	20.2	-92.4	12.6
2025-01-08 09:16:29.037043	31.1	20.4	-91.9	12.4
2025-01-08 09:16:30.186455	31.2	20.5	-91.6	11.7
2025-01-08 09:16:31.350136	31.3	20.6	-92.0	10.0
2025-01-08 09:16:32.503999	31.4	20.8	-92.6	11.1
2025-01-08 09:16:33.664866	31.5	20.9	-92.3	13.0
2025-01-08 09:16:34.827530	31.6	21.1	-91.3	12.1
2025-01-08 09:16:35.989123	31.7	21.2	-89.7	9.0
2025-01-08 09:16:37.147271	31.7	21.4	-90.5	9.9
2025-01-08 09:16:38.303762	31.8	21.5	-90.3	11.1
2025-01-08 09:16:39.464403	31.9	21.7	-91.4	6.8
2025-01-08 09:16:40.621213	32.0	21.8	-91.5	10.8
2025-01-08 09:16:41.779274	32.1	22.0	-90.7	10.4
2025-01-08 09:16:42.933525	32.2	22.1	-90.8	12.8
2025-01-08 09:16:44.094574	32.3	22.3	-90.8	11.1
2025-01-08 09:16:45.253015	32.4	22.4	-89.1	14.0
2025-01-08 09:16:46.405306	32.5	22.6	-92.6	13.9
2025-01-08 09:16:47.566401	32.6	22.7	-91.9	13.3
2025-01-08 09:16:48.718901	32.7	22.9	-92.3	13.2
2025-01-08 09:16:49.875166	32.8	23.1	-92.0	11.6
2025-01-08 09:16:51.025278	32.9	23.2	-92.1	13.1
2025-01-08 09:16:52.186195	33.0	23.4	-92.0	12.6
2025-01-08 09:16:53.342012	33.1	23.5	-91.9	11.7
2025-01-08 09:16:54.496842	33.2	23.7	-92.2	10.2
2025-01-08 09:16:55.653869	33.3	23.9	-91.9	11.9
2025-01-08 09:16:56.812008	33.4	24.0	-91.6	10.8
2025-01-08 09:16:57.972755	33.6	24.2	-91.9	9.3
2025-01-08 09:16:59.128648	33.7	24.3	-91.7	10.7
2025-01-08 09:17:00.281451	33.8	24.5	-92.1	10.9
2025-01-08 09:17:01.436407	33.9	24.7	-92.5	13.0
2025-01-08 09:17:02.585316	34.0	24.8	-91.7	10.2
2025-01-08 09:17:03.739727	34.1	25.0	-91.6	10.5
2025-01-08 09:17:04.896522	34.2	25.2	-92.5	10.0
2025-01-08 09:17:06.053497	34.3	25.3	-91.6	9.1
2025-01-08 09:17:07.211794	34.5	25.5	-91.7	11.9
2025-01-08 09:17:08.368053	34.6	25.7	-91.6	12.0
2025-01-08 09:17:09.521448	34.7	25.9	-91.8	11.0
2025-01-08 09:17:10.676777	34.8	26.0	-92.2	12.2
2025-01-08 09:17:11.837731	34.9	26.2	-92.5	11.5
2025-01-08 09:17:12.991089	35.1	26.4	-91.7	9.4
2025-01-08 09:17:14.147497	35.2	26.6	-91.8	10.2
2025-01-08 09:17:15.300049	35.3	26.7	-91.6	11.7
2025-01-08 09:17:16.470153	35.5	26.9	-92.2	8.2
2025-01-08 09:17:17.626723	35.6	27.1	-92.3	13.5
2025-01-08 09:17:18.780026	35.7	27.3	-92.2	14.6
2025-01-08 09:17:19.939083	35.8	27.5	-92.1	12.9
2025-01-08 09:17:21.096726	36.0	27.6	-91.6	13.8
2025-01-08 09:17:22.254932	36.1	27.8	-91.2	12.8
2025-01-08 09:17:23.414109	36.3	28.0	-91.8	14.2
2025-01-08 09:17:24.565666	36.4	28.2	-92.3	14.5
2025-01-08 09:17:25.735893	36.5	28.4	-92.4	14.3
2025-01-08 09:17:26.886534	36.7	28.6	-92.1	12.9
2025-01-08 09:17:28.042764	36.8	28.8	-89.1	10.2
2025-01-08 09:17:29.200858	37.0	29.0	-90.5	12.5
2025-01-08 09:17:30.357645	37.1	29.1	-90.4	10.7
2025-01-08 09:17:31.507164	37.3	29.3	-91.5	12.2
2025-01-08 09:17:32.659216	37.4	29.5	-90.1	13.6
2025-01-08 09:17:33.815397	37.6	29.7	-90.9	13.7
2025-01-08 09:17:34.970315	37.7	29.9	-90.3	15.3
2025-01-08 09:17:36.127168	37.9	30.1	-91.5	13.4
2025-01-08 09:17:37.279580	38.0	30.3	-91.1	13.5
2025-01-08 09:17:38.435275	38.2	30.5	-90.4	12.7
2025-01-08 09:17:39.595646	38.3	30.7	-92.1	16.4
2025-01-08 09:17:40.749986	38.5	30.9	-92.3	18.3
2025-01-08 09:17:41.910842	38.7	31.1	-91.3	15.4
2025-01-08 09:17:43.072860	38.8	31.3	-91.7	14.9
2025-01-08 09:17:44.234989	39.0	31.5	-91.7	15.4
2025-01-08 09:17:45.388060	39.2	31.7	-92.3	15.1
2025-01-08 09:17:46.544416	39.3	31.9	-91.6	15.9
2025-01-08 09:17:47.695571	39.5	32.2	-92.0	13.5
2025-01-08 09:17:48.850708	39.7	32.4	-92.1	11.2
2025-01-08 09:17:50.003958	39.9	32.6	-91.7	10.7
2025-01-08 09:17:51.164733	40.1	32.8	-91.3	15.4
2025-01-08 09:17:52.321640	40.2	33.0	-91.8	14.3
2025-01-08 09:17:53.479498	40.4	33.2	-92.3	14.4
2025-01-08 09:17:54.634743	40.6	33.4	-91.7	18.4
2025-01-08 09:17:55.795145	40.8	33.6	-90.5	17.7
2025-01-08 09:17:56.949893	41.0	33.9	-91.7	17.5
2025-01-08 09:17:58.107324	41.2	34.1	-91.6	16.4
2025-01-08 09:17:59.265845	41.4	34.3	-91.5	17.6
2025-01-08 09:18:00.410007	41.6	34.5	-91.5	15.6
2025-01-08 09:18:01.571313	41.8	34.7	-92.3	15.7
2025-01-08 09:18:02.728701	42.0	35.0	-92.5	18.3
2025-01-08 09:18:03.886872	42.2	35.2	-91.8	18.2
2025-01-08 09:18:05.047312	42.4	35.4	-91.8	18.0
2025-01-08 09:18:06.201345	42.7	35.7	-91.1	15.6
2025-01-08 09:18:07.359140	42.9	35.9	-92.2	13.2
2025-01-08 09:18:08.518003	43.1	36.1	-92.0	15.1
2025-01-08 09:18:09.682295	43.3	36.3	-92.0	18.6
2025-01-08 09:18:10.839548	43.5	36.6	-92.1	17.3
2025-01-08 09:18:12.000383	43.8	36.8	-91.8	14.6
2025-01-08 09:18:13.153473	44.0	37.0	-91.3	16.0
2025-01-08 09:18:14.308969	44.2	37.3	-90.9	17.9
2025-01-08 09:18:15.450038	44.5	37.5	-92.2	21.7
2025-01-08 09:18:16.599479	44.7	37.8	-92.1	17.1
2025-01-08 09:18:17.755270	45.0	38.0	-92.2	17.4
2025-01-08 09:18:18.907750	45.2	38.2	-92.2	17.7
2025-01-08 09:18:20.067443	45.5	38.5	-91.5	15.4
2025-01-08 09:18:21.227089	45.7	38.7	-91.3	17.6
2025-01-08 09:18:22.388449	46.0	39.0	-92.1	20.9
2025-01-08 09:18:23.543868	46.3	39.2	-92.2	21.5
2025-01-08 09:18:24.699065	46.5	39.5	-91.9	17.8
2025-01-08 09:18:25.858791	46.8	39.7	-91.4	16.8
2025-01-08 09:18:27.012976	47.1	39.9	-91.3	14.6
2025-01-08 09:18:28.167849	47.4	40.2	-91.4	16.5
2025-01-08 09:18:29.323308	47.7	40.4	-92.0	17.3
2025-01-08 09:18:30.486327	48.0	40.7	-92.1	10.7
2025-01-08 09:18:31.637457	48.3	40.9	-92.0	18.2
2025-01-08 09:18:32.796120	48.6	41.2	-92.3	16.6
2025-01-08 09:18:33.952043	48.9	41.5	-92.3	17.3
2025-01-08 09:18:35.104418	49.2	41.7	-91.3	18.2
2025-01-08 09:18:36.265816	49.5	42.0	-91.4	18.6
2025-01-08 09:18:37.417595	49.8	42.2	-91.9	20.0
2025-01-08 09:18:38.573180	50.1	42.5	-92.4	15.4
2025-01-08 09:18:39.725782	50.5	42.7	-92.2	18.2
2025-01-08 09:18:40.874395	50.8	43.0	-92.2	15.4
2025-01-08 09:18:42.035782	51.1	43.2	-91.8	15.9
2025-01-08 09:18:43.196218	51.5	43.5	-91.1	16.1
2025-01-08 09:18:44.357175	51.8	43.8	-91.8	19.1
2025-01-08 09:18:45.517342	52.2	44.0	-92.6	18.3
2025-01-08 09:18:46.675367	52.6	44.3	-92.5	17.6
2025-01-08 09:18:47.828124	52.9	44.6	-92.4	17.5
2025-01-08 09:18:48.980188	53.3	44.8	-91.9	11.0
2025-01-08 09:18:50.145180	53.7	45.1	-92.0	14.7
2025-01-08 09:18:51.288443	54.1	45.3	-91.5	15.7
2025-01-08 09:18:52.451185	54.5	45.6	-92.3	9.5
2025-01-08 09:18:53.601330	54.9	45.9	-92.0	12.2
2025-01-08 09:18:54.755740	55.3	46.1	-92.3	14.3
2025-01-08 09:18:55.913342	55.7	46.4	-92.4	13.9
2025-01-08 09:18:57.065798	56.1	46.7	-91.2	10.6
2025-01-08 09:18:58.225552	56.5	46.9	-91.9	11.2
2025-01-08 09:18:59.389691	57.0	47.2	-92.4	11.5
2025-01-08 09:19:00.536069	57.4	47.5	-92.1	12.0
2025-01-08 09:19:01.686782	57.9	47.7	-92.2	9.5
2025-01-08 09:19:02.851663	58.3	48.0	-92.1	11.4
2025-01-08 09:19:04.019974	58.8	48.2	-91.5	7.9
2025-01-08 09:19:05.175216	59.3	48.5	-91.4	13.9
2025-01-08 09:19:06.337006	59.7	48.8	-92.3	11.6
2025-01-08 09:19:07.498374	60.2	49.0	-92.4	12.3
2025-01-08 09:19:08.659793	60.7	49.3	-92.6	14.0
2025-01-08 09:19:09.812484	61.2	49.6	-92.5	8.6
2025-01-08 09:19:10.965518	61.8	49.8	-92.3	8.7
2025-01-08 09:19:12.128250	62.3	50.1	-91.7	11.2
2025-01-08 09:19:13.288763	62.8	50.3	-91.6	12.2
2025-01-08 09:19:14.438666	63.4	50.6	-92.1	13.0
2025-01-08 09:19:15.593736	63.9	50.8	-92.0	10.4
2025-01-08 09:19:16.751742	64.5	51.1	-92.2	11.0
2025-01-08 09:19:17.911711	65.0	51.3	-91.9	10.9
2025-01-08 09:19:19.070401	65.6	51.6	-90.3	8.1
2025-01-08 09:19:20.220826	66.2	51.8	-90.7	13.5
2025-01-08 09:19:21.375190	66.8	52.1	-90.3	8.8
2025-01-08 09:19:22.527357	67.4	52.3	-91.2	11.6
2025-01-08 09:19:23.685679	68.0	52.6	-91.0	12.4
2025-01-08 09:19:24.842936	68.7	52.8	-91.1	12.0
2025-01-08 09:19:25.997770	69.3	53.1	-91.7	16.4
2025-01-08 09:19:27.157014	69.9	53.3	-91.8	19.7
2025-01-08 09:19:28.311657	70.6	53.5	-91.1	17.3
2025-01-08 09:19:29.477998	71.3	53.8	-92.5	15.1
2025-01-08 09:19:30.637031	72.0	54.0	-92.3	15.1
2025-01-08 09:19:31.796219	72.7	54.2	-92.3	14.3
2025-01-08 09:19:32.955767	73.4	54.4	-92.3	13.8
2025-01-08 09:19:34.112523	74.1	54.7	-91.0	12.7
2025-01-08 09:19:35.270121	74.8	54.9	-90.4	15.1
2025-01-08 09:19:36.428460	75.5	55.1	-91.0	13.3
2025-01-08 09:19:37.579864	76.3	55.3	-90.7	13.0
2025-01-08 09:19:38.740562	77.0	55.5	-90.8	18.2
2025-01-08 09:19:39.898293	77.8	55.7	-90.8	15.2
2025-01-08 09:19:41.060009	78.6	55.9	-90.5	16.0
2025-01-08 09:19:42.213271	79.4	56.1	-91.4	18.3
2025-01-08 09:19:43.371625	80.2	56.3	-91.8	16.9
2025-01-08 09:19:44.526351	81.0	56.4	-92.2	18.5
2025-01-08 09:19:45.686168	81.8	56.6	-92.0	20.2
2025-01-08 09:19:46.847956	82.7	56.8	-92.2	15.4
2025-01-08 09:19:48.008736	83.5	56.9	-91.6	14.8
2025-01-08 09:19:49.160292	84.3	57.1	-91.8	16.6
2025-01-08 09:19:50.315982	85.2	57.3	-92.2	18.2
2025-01-08 09:19:51.456558	86.1	57.4	-90.7	10.5
2025-01-08 09:19:52.616341	86.9	57.5	-90.9	14.6
2025-01-08 09:19:53.776413	87.8	57.7	-90.9	11.0
2025-01-08 09:19:54.933010	88.7	57.8	-90.9	7.1
2025-01-08 09:19:56.095723	89.6	57.9	-90.2	8.4
2025-01-08 09:19:57.256532	90.6	58.1	-90.6	11.8
2025-01-08 09:19:58.410470	91.5	58.2	-91.7	5.9
2025-01-08 09:19:59.567300	92.4	58.3	-92.0	10.9
2025-01-08 09:20:00.714705	93.3	58.4	-92.2	14.6
2025-01-08 09:20:01.875297	94.3	58.5	-92.3	10.6
2025-01-08 09:20:03.031029	95.2	58.5	-92.0	10.9
2025-01-08 09:20:04.181986	96.2	58.6	-91.6	17.7
2025-01-08 09:20:05.337532	97.1	58.7	-92.0	18.7
2025-01-08 09:20:06.493879	98.1	58.7	-92.4	19.3
2025-01-08 09:20:07.653276	99.1	58.8	-92.7	20.8
2025-01-08 09:20:08.805047	100.1	58.8	-92.2	21.4
2025-01-08 09:20:09.963583	101.0	58.9	-92.0	20.4
2025-01-08 09:20:11.121862	102.0	58.9	-92.0	19.0
2025-01-08 09:20:12.280081	103.0	58.9	-91.4	19.1
2025-01-08 09:20:13.437777	104.0	59.0	-91.7	17.3
2025-01-08 09:20:14.600428	105.0	59.0	-92.1	10.5
2025-01-08 09:20:15.758331	106.0	59.0	-92.0	16.3
2025-01-08 09:20:16.917846	106.9	59.0	-92.0	15.1
2025-01-08 09:20:18.073564	107.9	58.9	-91.5	13.3
2025-01-08 09:20:19.229260	108.9	58.9	-91.7	16.3
2025-01-08 09:20:20.385854	109.9	58.9	-92.2	13.5
2025-01-08 09:20:21.534915	110.9	58.9	-92.3	14.5
2025-01-08 09:20:22.700567	111.8	58.8	-92.0	16.5
2025-01-08 09:20:23.854636	112.8	58.8	-92.6	12.9
2025-01-08 09:20:25.012000	113.8	58.7	-92.0	10.6
2025-01-08 09:20:26.170415	114.7	58.6	-91.7	16.9
2025-01-08 09:20:27.332792	115.7	58.6	-92.5	17.8
2025-01-08 09:20:28.494012	116.7	58.5	-92.1	12.0
2025-01-08 09:20:29.659788	117.6	58.4	-92.3	20.1
2025-01-08 09:20:30.812568	118.5	58.3	-92.5	18.5
2025-01-08 09:20:31.971437	119.5	58.2	-92.5	12.7
2025-01-08 09:20:33.129329	120.4	58.1	-91.6	18.8
2025-01-08 09:20:34.285869	121.3	58.0	-92.0	18.3
2025-01-08 09:20:35.434490	122.2	57.8	-92.0	11.7
2025-01-08 09:20:36.593587	123.1	57.7	-92.2	12.0
2025-01-08 09:20:37.749066	124.0	57.6	-91.9	17.3
2025-01-08 09:20:38.909397	124.9	57.4	-92.0	13.5
2025-01-08 09:20:40.069909	125.8	57.3	-91.5	10.2
2025-01-08 09:20:41.228804	126.7	57.1	-91.4	14.0
2025-01-08 09:20:42.376749	127.5	57.0	-92.1	14.9
2025-01-08 09:20:43.531223	128.4	56.8	-92.3	17.1
2025-01-08 09:20:44.681975	129.2	56.6	-91.9	17.6
2025-01-08 09:20:45.838502	130.0	56.5	-92.3	16.0
2025-01-08 09:20:46.996240	130.8	56.3	-91.9	16.3
2025-01-08 09:20:48.151659	131.6	56.1	-91.5	17.6
2025-01-08 09:20:49.305697	132.4	55.9	-92.0	18.0
2025-01-08 09:20:50.457719	133.2	55.7	-92.2	15.7
2025-01-08 09:20:51.607847	134.0	55.5	-92.5	19.8
2025-01-08 09:20:52.770765	134.7	55.3	-92.3	20.5
2025-01-08 09:20:53.925561	135.5	55.1	-92.2	14.6
2025-01-08 09:20:55.077140	136.2	54.9	-91.7	15.6
2025-01-08 09:20:56.234314	136.9	54.7	-91.7	19.7
2025-01-08 09:20:57.391005	137.7	54.5	-92.3	15.0
2025-01-08 09:20:58.551662	138.4	54.2	-92.4	16.5
2025-01-08 09:20:59.713162	139.1	54.0	-92.4	14.8
2025-01-08 09:21:00.860296	139.8	53.8	-92.1	12.7
2025-01-08 09:21:02.010973	140.4	53.6	-91.7	14.4
2025-01-08 09:21:03.163998	141.1	53.3	-91.6	14.1
2025-01-08 09:21:04.318254	141.7	53.1	-92.2	12.7
2025-01-08 09:21:05.479922	142.4	52.9	-92.1	12.0
2025-01-08 09:21:06.635070	143.0	52.6	-92.2	14.8
2025-01-08 09:21:07.795280	143.6	52.4	-92.3	14.6
2025-01-08 09:21:08.951823	144.3	52.1	-92.4	13.2
2025-01-08 09:21:10.110359	144.9	51.9	-91.3	15.7
2025-01-08 09:21:11.265708	145.5	51.6	-91.9	11.1
2025-01-08 09:21:12.417475	146.0	51.4	-91.9	13.8
2025-01-08 09:21:13.574722	146.6	51.1	-91.9	13.2
2025-01-08 09:21:14.725113	147.2	50.9	-91.3	10.4
2025-01-08 09:21:15.880158	147.7	50.6	-91.9	11.8
2025-01-08 09:21:17.042116	148.3	50.4	-91.4	10.7
2025-01-08 09:21:18.198965	148.8	50.1	-91.5	12.4
2025-01-08 09:21:19.357921	149.3	49.8	-92.1	12.6
2025-01-08 09:21:20.510622	149.9	49.6	-91.9	11.5
2025-01-08 09:21:21.658236	150.4	49.3	-91.9	14.0
2025-01-08 09:21:22.818850	150.9	49.1	-92.0	14.9
2025-01-08 09:21:23.973787	151.4	48.8	-92.2	12.6
2025-01-08 09:21:25.123720	151.8	48.5	-91.2	11.9
2025-01-08 09:21:26.278560	152.3	48.3	-91.1	12.1
2025-01-08 09:21:27.430817	152.8	48.0	-92.1	13.9
2025-01-08 09:21:28.586945	153.3	47.7	-92.0	11.7
2025-01-08 09:21:29.745710	153.7	47.5	-91.3	14.4
2025-01-08 09:21:30.907408	154.2	47.2	-92.5	14.7
2025-01-08 09:21:32.062099	154.6	46.9	-91.9	14.8
2025-01-08 09:21:33.238622	155.0	46.7	-91.5	15.6
2025-01-08 09:21:34.399519	155.5	46.4	-92.2	15.4
2025-01-08 09:21:35.557368	155.9	46.1	-92.3	16.8
2025-01-08 09:21:36.696494	156.3	45.9	-92.4	16.9
2025-01-08 09:21:37.848910	156.7	45.6	-92.4	15.3
2025-01-08 09:21:38.977341	157.1	45.4	-92.2	13.2
2025-01-08 09:21:40.099519	157.4	45.1	-91.9	12.9
2025-01-08 09:21:41.220232	157.8	44.8	-92.1	14.5
2025-01-08 09:21:42.341827	158.2	44.6	-92.3	12.4
2025-01-08 09:21:43.462122	158.5	44.3	-92.5	10.5
2025-01-08 09:21:44.582442	158.9	44.1	-92.0	10.6
2025-01-08 09:21:45.703035	159.3	43.8	-92.5	13.0
2025-01-08 09:21:46.842412	159.6	43.6	-92.8	11.5
2025-01-08 09:21:48.004062	160.0	43.3	-91.8	9.8
2025-01-08 09:21:49.149055	160.3	43.0	-91.9	15.4
2025-01-08 09:21:50.307682	160.6	42.8	-92.2	14.4
2025-01-08 09:21:51.468072	161.0	42.5	-92.5	8.5
2025-01-08 09:21:52.625694	161.3	42.3	-92.2	11.9
2025-01-08 09:21:53.781229	161.6	42.0	-92.7	13.9
2025-01-08 09:21:54.935326	161.9	41.7	-92.7	10.4
2025-01-08 09:21:56.084525	162.3	41.5	-92.0	10.5
2025-01-08 09:21:57.242336	162.6	41.2	-91.5	13.1
2025-01-08 09:21:58.400200	162.9	41.0	-92.2	14.7
2025-01-08 09:21:59.555325	163.2	40.7	-92.5	15.4
2025-01-08 09:22:00.695326	163.5	40.5	-92.8	14.6
2025-01-08 09:22:01.836352	163.7	40.2	-92.6	12.4
2025-01-08 09:22:02.986285	164.0	40.0	-91.9	10.2
2025-01-08 09:22:04.137245	164.3	39.7	-91.8	10.8
2025-01-08 09:22:05.290646	164.6	39.5	-92.1	10.7
2025-01-08 09:22:06.443352	164.9	39.2	-92.6	8.6
2025-01-08 09:22:07.593757	165.1	39.0	-92.1	8.1
2025-01-08 09:22:08.753458	165.4	38.7	-92.2	11.9
2025-01-08 09:22:09.911428	165.6	38.5	-92.5	8.5
2025-01-08 09:22:11.068677	165.9	38.2	-91.2	7.5
2025-01-08 09:22:12.226131	166.2	38.0	-91.4	13.8
2025-01-08 09:22:13.387657	166.4	37.8	-92.4	10.4
2025-01-08 09:22:14.549199	166.7	37.5	-92.6	8.9
2025-01-08 09:22:15.703097	166.9	37.3	-92.3	15.5
2025-01-08 09:22:16.858909	167.1	37.0	-92.2	9.9
2025-01-08 09:22:18.019035	167.4	36.8	-91.9	9.5
2025-01-08 09:22:19.167592	167.6	36.6	-91.6	8.6
2025-01-08 09:22:20.326603	167.8	36.3	-92.4	9.8
2025-01-08 09:22:21.487191	168.1	36.1	-92.5	10.6
2025-01-08 09:22:22.639373	168.3	35.9	-92.5	10.4
2025-01-08 09:22:23.812535	168.5	35.6	-92.5	12.7
2025-01-08 09:22:24.972413	168.7	35.4	-92.3	8.8
2025-01-08 09:22:26.121481	168.9	35.2	-92.0	10.7
2025-01-08 09:22:27.280576	169.2	34.9	-92.3	13.0
2025-01-08 09:22:28.440831	169.4	34.7	-92.2	11.6
2025-01-08 09:22:29.593478	169.6	34.5	-92.3	12.8
2025-01-08 09:22:30.749277	169.8	34.3	-92.0	12.7
2025-01-08 09:22:31.904588	170.0	34.0	-92.4	9.7
2025-01-08 09:22:33.062241	170.2	33.8	-92.0	9.8
2025-01-08 09:22:34.217830	170.4	33.6	-91.7	14.7
2025-01-08 09:22:35.375508	170.6	33.4	-92.0	11.8
2025-01-08 09:22:36.537934	170.8	33.2	-92.6	10.5
2025-01-08 09:22:37.683871	170.9	32.9	-92.5	12.0
2025-01-08 09:22:38.845763	171.1	32.7	-91.6	11.6
2025-01-08 09:22:40.001714	171.3	32.5	-91.9	12.5
2025-01-08 09:22:41.160678	171.5	32.3	-90.9	15.7
2025-01-08 09:22:42.312882	171.7	32.1	-91.6	16.3
2025-01-08 09:22:43.472922	171.8	31.9	-91.8	14.4
2025-01-08 09:22:44.624666	172.0	31.7	-91.8	12.5
2025-01-08 09:22:45.779595	172.2	31.5	-91.7	10.6
2025-01-08 09:22:46.933599	172.4	31.3	-92.3	7.5
2025-01-08 09:22:48.084355	172.5	31.1	-92.1	5.5
2025-01-08 09:22:49.234754	172.7	30.9	-91.9	6.5
2025-01-08 09:22:50.391424	172.9	30.6	-92.6	7.5
2025-01-08 09:22:51.545491	173.0	30.4	-91.8	4.2
2025-01-08 09:22:52.695315	173.2	30.2	-91.8	11.2
2025-01-08 09:22:53.852956	173.3	30.0	-91.4	6.9
2025-01-08 09:22:55.011003	173.5	29.8	-90.9	6.6
2025-01-08 09:22:56.166579	173.6	29.6	-91.3	6.4
2025-01-08 09:22:57.319559	173.8	29.5	-91.7	9.0
2025-01-08 09:22:58.483502	174.0	29.3	-92.4	7.1
2025-01-08 09:22:59.647671	174.1	29.1	-92.2	9.2
2025-01-08 09:23:00.794968	174.2	28.9	-92.0	8.9
2025-01-08 09:23:01.941700	174.4	28.7	-92.6	7.3
2025-01-08 09:23:03.108484	174.5	28.5	-91.9	10.6
2025-01-08 09:23:04.267317	174.7	28.3	-91.5	10.2
2025-01-08 09:23:05.419224	174.8	28.1	-92.5	11.5
2025-01-08 09:23:06.570231	175.0	27.9	-92.6	10.1
2025-01-08 09:23:07.739182	175.1	27.7	-92.4	9.9
2025-01-08 09:23:08.890899	175.2	27.5	-92.5	9.8
2025-01-08 09:23:10.046643	175.4	27.4	-92.4	8.5
2025-01-08 09:23:11.205083	175.5	27.2	-92.0	11.8
2025-01-08 09:23:12.357198	175.6	27.0	-92.6	13.1
2025-01-08 09:23:13.515333	175.8	26.8	-92.6	12.3
2025-01-08 09:23:14.681421	175.9	26.6	-92.4	9.6
2025-01-08 09:23:15.840494	176.0	26.4	-92.4	11.1
2025-01-08 09:23:17.007420	176.1	26.3	-92.2	12.9
2025-01-08 09:23:18.159863	176.3	26.1	-92.0	14.7
2025-01-08 09:23:19.316507	176.4	25.9	-92.4	14.3
2025-01-08 09:23:20.473231	176.5	25.7	-92.2	11.8
2025-01-08 09:23:21.629336	176.6	25.6	-91.9	11.4
2025-01-08 09:23:22.800477	176.8	25.4	-92.3	10.7
2025-01-08 09:23:23.961255	176.9	25.2	-92.5	7.7
2025-01-08 09:23:25.116883	177.0	25.0	-91.3	10.8
2025-01-08 09:23:26.274185	177.1	24.9	-90.6	9.6
2025-01-08 09:23:27.430261	177.2	24.7	-92.7	7.3
2025-01-08 09:23:28.581227	177.3	24.5	-91.9	9.4
2025-01-08 09:23:29.732257	177.4	24.4	-92.5	11.7
2025-01-08 09:23:30.885660	177.6	24.2	-92.1	10.6
2025-01-08 09:23:32.043540	177.7	24.0	-92.4	12.8
2025-01-08 09:23:33.201526	177.8	23.9	-92.2	12.3
2025-01-08 09:23:34.368750	177.9	23.7	-92.7	14.7
2025-01-08 09:23:35.518678	178.0	23.5	-92.2	13.0
2025-01-08 09:23:36.668698	178.1	23.4	-92.6	14.7
2025-01-08 09:23:37.828760	178.2	23.2	-92.6	14.1
2025-01-08 09:23:38.981418	178.3	23.1	-91.8	11.8
2025-01-08 09:23:40.142384	178.4	22.9	-92.2	14.2
2025-01-08 09:23:41.300027	178.5	22.7	-91.9	13.7
2025-01-08 09:23:42.460656	178.6	22.6	-92.1	11.1
2025-01-08 09:23:43.614519	178.7	22.4	-91.6	12.4
2025-01-08 09:23:44.771527	178.8	22.3	-91.7	12.4
2025-01-08 09:23:45.921821	178.9	22.1	-91.6	13.2
2025-01-08 09:23:47.085485	179.0	22.0	-91.0	7.8
2025-01-08 09:23:48.240459	179.1	21.8	-91.2	6.9
2025-01-08 09:23:49.397127	179.2	21.7	-91.8	8.2
2025-01-08 09:23:50.560487	179.3	21.5	-92.4	5.4
2025-01-08 09:23:51.717675	179.4	21.4	-92.5	7.1
2025-01-08 09:23:52.878966	179.5	21.2	-92.7	7.2
2025-01-08 09:23:54.032338	179.6	21.1	-92.0	3.1
2025-01-08 09:23:55.181568	179.7	20.9	-92.0	10.3
2025-01-08 09:23:56.341380	179.8	20.8	-92.1	8.1
2025-01-08 09:23:57.503235	179.8	20.6	-92.3	7.2
2025-01-08 09:23:58.661493	179.9	20.5	-92.4	13.5
2025-01-08 09:23:59.821739	180.0	20.3	-92.7	12.8
2025-01-08 09:24:00.971819	180.1	20.2	-92.1	12.1
2025-01-08 09:24:02.129204	180.2	20.0	-91.6	13.0
2025-01-08 09:24:03.285963	180.3	19.9	-91.3	12.5
2025-01-08 09:24:04.442053	180.4	19.8	-91.9	10.2
2025-01-08 09:24:05.598008	180.5	19.6	-92.4	11.0
2025-01-08 09:24:06.753204	180.5	19.5	-92.4	11.5
2025-01-08 09:24:07.903349	180.6	19.3	-92.5	7.7
2025-01-08 09:24:09.055901	180.7	19.2	-91.8	7.3
2025-01-08 09:24:10.210640	180.8	19.1	-92.0	9.1
2025-01-08 09:24:11.370642	180.9	18.9	-92.2	6.8
2025-01-08 09:24:12.522788	180.9	18.8	-92.0	5.9
2025-01-08 09:24:13.685788	181.0	18.6	-92.1	7.3
2025-01-08 09:24:14.844390	181.1	18.5	-92.6	8.5
2025-01-08 09:24:15.995474	181.2	18.4	-91.6	7.3
2025-01-08 09:24:17.151408	181.3	18.2	-91.5	8.4
2025-01-08 09:24:18.311928	181.3	18.1	-91.8	7.8
2025-01-08 09:24:19.468313	181.4	18.0	-92.0	6.4
2025-01-08 09:24:20.628407	181.5	17.8	-92.0	5.1
2025-01-08 09:24:21.789753	181.6	17.7	-92.3	7.1
2025-01-08 09:24:22.945121	181.6	17.6	-92.4	4.4
2025-01-08 09:24:24.104623	181.7	17.4	-91.1	4.1
2025-01-08 09:24:25.263154	181.8	17.3	-91.4	6.3
2025-01-08 09:24:26.413648	181.9	17.2	-91.6	4.5
2025-01-08 09:24:27.570264	181.9	17.1	-91.8	3.5
2025-01-08 09:24:28.730130	182.0	16.9	-91.9	6.4
2025-01-08 09:24:29.884716	182.1	16.8	-91.9	5.9
2025-01-08 09:24:31.043055	182.1	16.7	-92.0	4.6
2025-01-08 09:24:32.195850	182.2	16.6	-92.2	6.9
2025-01-08 09:24:33.346734	182.3	16.4	-92.3	5.7
2025-01-08 09:24:34.506838	182.3	16.3	-92.1	3.1
2025-01-08 09:24:35.661182	182.4	16.2	-92.2	4.8
2025-01-08 09:24:36.823272	182.5	16.1	-91.6	5.0
2025-01-08 09:24:37.977489	182.5	15.9	-91.3	4.6
2025-01-08 09:24:39.136393	182.6	15.8	-91.3	7.1
2025-01-08 09:24:40.296208	182.7	15.7	-91.6	6.4
2025-01-08 09:24:41.454419	182.7	15.6	-91.5	5.3
2025-01-08 09:24:42.611404	182.8	15.4	-90.6	4.8
2025-01-08 09:24:43.767930	182.9	15.3	-92.7	6.5
2025-01-08 09:24:44.924497	182.9	15.2	-92.6	5.7
2025-01-08 09:24:46.081877	183.0	15.1	-92.1	6.7
2025-01-08 09:24:47.240191	183.1	15.0	-91.3	6.3
2025-01-08 09:24:48.391669	183.1	14.8	-92.6	5.2
2025-01-08 09:24:49.546499	183.2	14.7	-92.6	3.6
2025-01-08 09:24:50.697546	183.3	14.6	-92.2	4.0
2025-01-08 09:24:51.859923	183.3	14.5	-92.0	2.7
#Closed at: 2025-01-08 09:15:46.059177