passes_logs/2025/01/08/LEX_Murmansk/LEX_Murmansk__20250108_105634_NOAA_18_rec.log

#Pass ID: 20250108_105634_NOAA 18
#Satellite: NOAA 18
#Configuration: NOAA 18
#Start time: 2025-01-08 10:56:29.434601

#LorettStation: 1.0.0 05.05.2024
#Station: LEX_Murmansk
#Location: 33.156738 lon 68.926811 lat
#TLE: 1 28654U 05018A   25007.80096224  .00000414  00000+0  24332-3 0  9999
#TLE: 2 28654  98.8579  88.9263 0014020 199.4461 160.6178 14.13480585 12168

#Time	Az	El	Level	SNR
2025-01-08 10:56:43.561192	23.3	16.5	-90.5	7.9
2025-01-08 10:56:44.715924	23.3	16.6	-90.9	10.0
2025-01-08 10:56:45.869053	23.2	16.7	-90.6	9.5
2025-01-08 10:56:47.021228	23.1	16.9	-91.2	6.3
2025-01-08 10:56:48.179694	23.1	17.0	-90.8	9.5
2025-01-08 10:56:49.337241	23.0	17.1	-90.7	7.8
2025-01-08 10:56:50.492849	22.9	17.2	-91.2	10.3
2025-01-08 10:56:51.637479	22.9	17.4	-91.0	9.7
2025-01-08 10:56:52.793296	22.8	17.5	-90.9	11.6
2025-01-08 10:56:53.942945	22.8	17.6	-90.9	10.9
2025-01-08 10:56:55.093024	22.7	17.7	-90.7	11.1
2025-01-08 10:56:56.245088	22.6	17.9	-90.4	10.8
2025-01-08 10:56:57.400126	22.6	18.0	-90.9	11.5
2025-01-08 10:56:58.549940	22.5	18.1	-90.8	7.0
2025-01-08 10:56:59.706149	22.4	18.3	-91.0	8.4
2025-01-08 10:57:00.844364	22.3	18.4	-91.1	12.3
2025-01-08 10:57:01.997063	22.3	18.5	-90.6	9.5
2025-01-08 10:57:03.149348	22.2	18.7	-89.7	8.2
2025-01-08 10:57:04.298292	22.1	18.8	-90.4	9.9
2025-01-08 10:57:05.453714	22.1	18.9	-91.1	12.0
2025-01-08 10:57:06.612377	22.0	19.1	-90.7	12.1
2025-01-08 10:57:07.769113	21.9	19.2	-91.0	9.5
2025-01-08 10:57:08.920520	21.8	19.4	-91.2	10.6
2025-01-08 10:57:10.073892	21.8	19.5	-90.6	8.3
2025-01-08 10:57:11.225729	21.7	19.6	-90.2	10.7
2025-01-08 10:57:12.382846	21.6	19.8	-90.6	8.6
2025-01-08 10:57:13.537998	21.5	19.9	-90.6	7.3
2025-01-08 10:57:14.694485	21.5	20.1	-90.3	8.7
2025-01-08 10:57:15.846792	21.4	20.2	-90.3	8.7
2025-01-08 10:57:17.007951	21.3	20.3	-91.2	9.2
2025-01-08 10:57:18.167525	21.2	20.5	-90.8	10.1
2025-01-08 10:57:19.320674	21.1	20.6	-90.5	9.8
2025-01-08 10:57:20.475283	21.1	20.8	-91.1	13.3
2025-01-08 10:57:21.633053	21.0	20.9	-91.3	8.6
2025-01-08 10:57:22.788581	20.9	21.1	-91.0	12.3
2025-01-08 10:57:23.943097	20.8	21.2	-91.2	8.8
2025-01-08 10:57:25.092483	20.7	21.4	-90.7	9.8
2025-01-08 10:57:26.251196	20.6	21.5	-90.3	11.4
2025-01-08 10:57:27.404554	20.6	21.7	-91.2	10.8
2025-01-08 10:57:28.559872	20.5	21.8	-91.2	10.1
2025-01-08 10:57:29.714932	20.4	22.0	-91.1	9.9
2025-01-08 10:57:30.877119	20.3	22.1	-91.1	11.9
2025-01-08 10:57:32.024129	20.2	22.3	-91.2	5.4
2025-01-08 10:57:33.180148	20.1	22.4	-90.8	8.5
2025-01-08 10:57:34.333945	20.0	22.6	-90.5	10.8
2025-01-08 10:57:35.501697	19.9	22.7	-90.7	13.1
2025-01-08 10:57:36.893896	19.8	22.9	-90.7	13.0
2025-01-08 10:57:38.054947	19.7	23.1	-91.2	13.5
2025-01-08 10:57:39.210639	19.6	23.3	-90.6	13.7
2025-01-08 10:57:40.362251	19.5	23.4	-90.8	13.3
2025-01-08 10:57:41.519308	19.4	23.6	-90.8	11.1
2025-01-08 10:57:42.668502	19.3	23.7	-90.9	11.0
2025-01-08 10:57:43.823167	19.2	23.9	-91.5	12.8
2025-01-08 10:57:44.983376	19.1	24.1	-91.3	10.8
2025-01-08 10:57:46.134046	19.0	24.2	-91.0	9.3
2025-01-08 10:57:47.287371	18.9	24.4	-91.0	9.5
2025-01-08 10:57:48.437812	18.8	24.6	-90.6	7.7
2025-01-08 10:57:49.593561	18.7	24.7	-91.3	8.4
2025-01-08 10:57:50.745211	18.6	24.9	-91.2	9.0
2025-01-08 10:57:51.892827	18.5	25.1	-91.2	12.0
2025-01-08 10:57:53.049095	18.4	25.2	-91.1	10.5
2025-01-08 10:57:54.199655	18.3	25.4	-90.7	13.7
2025-01-08 10:57:55.356609	18.2	25.6	-91.0	13.6
2025-01-08 10:57:56.504196	18.0	25.7	-91.4	9.3
2025-01-08 10:57:57.657157	17.9	25.9	-91.7	12.0
2025-01-08 10:57:58.809869	17.8	26.1	-91.4	14.8
2025-01-08 10:57:59.959996	17.7	26.3	-91.3	13.6
2025-01-08 10:58:01.102601	17.6	26.4	-90.8	11.4
2025-01-08 10:58:02.253056	17.5	26.6	-91.3	11.6
2025-01-08 10:58:03.407340	17.3	26.8	-91.3	12.4
2025-01-08 10:58:04.571732	17.2	27.0	-91.3	8.9
2025-01-08 10:58:05.734715	17.1	27.2	-91.3	8.3
2025-01-08 10:58:06.896578	17.0	27.3	-91.4	11.9
2025-01-08 10:58:08.044183	16.8	27.5	-91.3	8.9
2025-01-08 10:58:09.190100	16.7	27.7	-90.5	11.1
2025-01-08 10:58:10.350867	16.6	27.9	-91.2	9.2
2025-01-08 10:58:11.506249	16.4	28.1	-91.0	10.5
2025-01-08 10:58:12.657098	16.3	28.3	-91.3	11.5
2025-01-08 10:58:13.808313	16.2	28.4	-91.6	10.8
2025-01-08 10:58:14.960198	16.0	28.6	-91.5	7.4
2025-01-08 10:58:16.113807	15.9	28.8	-91.0	7.5
2025-01-08 10:58:17.263890	15.8	29.0	-90.6	5.4
2025-01-08 10:58:18.423539	15.6	29.2	-91.0	6.5
2025-01-08 10:58:19.578688	15.5	29.4	-91.3	11.6
2025-01-08 10:58:20.737663	15.3	29.6	-91.3	9.2
2025-01-08 10:58:21.887466	15.2	29.8	-91.4	9.1
2025-01-08 10:58:23.047146	15.0	30.0	-91.3	7.9
2025-01-08 10:58:24.195348	14.9	30.2	-90.7	11.1
2025-01-08 10:58:25.346663	14.7	30.4	-91.0	11.6
2025-01-08 10:58:26.491661	14.6	30.6	-91.3	9.4
2025-01-08 10:58:27.647440	14.4	30.8	-91.0	11.9
2025-01-08 10:58:28.796894	14.3	31.0	-91.4	12.9
2025-01-08 10:58:29.953399	14.1	31.2	-91.5	12.9
2025-01-08 10:58:31.111208	13.9	31.4	-90.9	9.8
2025-01-08 10:58:32.259758	13.8	31.6	-90.8	11.4
2025-01-08 10:58:33.410923	13.6	31.8	-90.8	11.4
2025-01-08 10:58:34.565797	13.4	32.0	-91.4	11.9
2025-01-08 10:58:35.722002	13.3	32.2	-91.4	11.7
2025-01-08 10:58:36.873805	13.1	32.4	-91.4	11.4
2025-01-08 10:58:38.006979	12.9	32.6	-91.2	10.6
2025-01-08 10:58:39.127570	12.8	32.9	-90.6	9.2
2025-01-08 10:58:40.247891	12.6	33.1	-90.9	11.2
2025-01-08 10:58:41.367986	12.4	33.3	-90.4	10.9
2025-01-08 10:58:42.487711	12.2	33.5	-91.1	9.3
2025-01-08 10:58:43.608860	12.0	33.7	-91.2	8.0
2025-01-08 10:58:44.729328	11.9	33.9	-91.3	14.8
2025-01-08 10:58:45.850730	11.7	34.1	-91.4	15.3
2025-01-08 10:58:46.975092	11.5	34.3	-90.9	14.2
2025-01-08 10:58:48.123616	11.3	34.6	-90.9	16.2
2025-01-08 10:58:49.281120	11.1	34.8	-91.0	15.0
2025-01-08 10:58:50.440227	10.9	35.0	-91.5	11.8
2025-01-08 10:58:51.597854	10.7	35.2	-91.3	11.1
2025-01-08 10:58:52.748234	10.5	35.5	-91.4	16.3
2025-01-08 10:58:53.905137	10.2	35.7	-91.5	16.2
2025-01-08 10:58:55.059484	10.0	35.9	-91.0	17.4
2025-01-08 10:58:56.216440	9.8	36.1	-90.7	15.1
2025-01-08 10:58:57.374792	9.6	36.4	-91.0	14.7
2025-01-08 10:58:58.531664	9.4	36.6	-90.9	11.1
2025-01-08 10:58:59.693092	9.1	36.8	-91.2	13.6
2025-01-08 10:59:00.838182	8.9	37.1	-91.2	14.0
2025-01-08 10:59:01.988138	8.7	37.3	-91.3	7.7
2025-01-08 10:59:03.145955	8.4	37.6	-90.9	10.0
2025-01-08 10:59:04.296076	8.2	37.8	-90.6	16.6
2025-01-08 10:59:05.450340	7.9	38.0	-90.7	15.9
2025-01-08 10:59:06.606566	7.7	38.3	-90.9	15.2
2025-01-08 10:59:07.755862	7.4	38.5	-91.2	17.2
2025-01-08 10:59:08.905862	7.2	38.8	-91.3	13.9
2025-01-08 10:59:10.063388	6.9	39.0	-91.2	16.3
2025-01-08 10:59:11.217792	6.6	39.2	-90.9	12.3
2025-01-08 10:59:12.365123	6.4	39.5	-91.0	11.8
2025-01-08 10:59:13.525999	6.1	39.7	-91.0	13.8
2025-01-08 10:59:14.679973	5.8	40.0	-91.3	18.4
2025-01-08 10:59:15.833016	5.5	40.2	-91.4	16.8
2025-01-08 10:59:16.987399	5.3	40.5	-91.5	16.4
2025-01-08 10:59:18.147905	5.0	40.7	-90.9	16.2
2025-01-08 10:59:19.297781	4.7	41.0	-90.7	17.1
2025-01-08 10:59:20.454333	4.4	41.2	-91.4	11.9
2025-01-08 10:59:21.604248	4.1	41.5	-91.4	7.9
2025-01-08 10:59:22.762135	3.8	41.7	-91.1	15.1
2025-01-08 10:59:23.908984	3.4	42.0	-91.2	18.6
2025-01-08 10:59:25.060774	3.1	42.2	-91.3	13.2
2025-01-08 10:59:26.211322	2.8	42.5	-89.7	15.1
2025-01-08 10:59:27.363209	2.5	42.8	-89.9	18.7
2025-01-08 10:59:28.523361	2.1	43.0	-90.0	17.4
2025-01-08 10:59:29.670082	1.8	43.3	-90.3	15.3
2025-01-08 10:59:30.819431	1.4	43.5	-89.8	14.5
2025-01-08 10:59:31.970527	1.1	43.8	-88.8	13.8
2025-01-08 10:59:33.129952	0.7	44.0	-90.2	13.8
2025-01-08 10:59:34.273685	0.4	44.3	-90.5	19.0
2025-01-08 10:59:35.433128	0.0	44.6	-91.0	18.0
2025-01-08 10:59:36.584835	359.6	44.8	-90.6	16.2
2025-01-08 10:59:37.735611	359.2	45.1	-91.0	17.9
2025-01-08 10:59:38.897205	358.9	45.4	-90.4	15.5
2025-01-08 10:59:40.043956	358.5	45.6	-91.2	17.1
2025-01-08 10:59:41.193817	358.1	45.9	-90.3	15.6
2025-01-08 10:59:42.346879	357.6	46.1	-90.9	18.1
2025-01-08 10:59:43.500420	357.2	46.4	-90.8	7.9
2025-01-08 10:59:44.648004	356.8	46.7	-90.8	9.6
2025-01-08 10:59:45.807310	356.4	46.9	-90.7	10.9
2025-01-08 10:59:46.952717	355.9	47.2	-90.6	7.4
2025-01-08 10:59:48.105486	355.5	47.4	-90.1	7.4
2025-01-08 10:59:49.266098	355.0	47.7	-90.7	11.8
2025-01-08 10:59:50.413544	354.6	48.0	-91.6	14.4
2025-01-08 10:59:51.568182	354.1	48.2	-91.4	18.0
2025-01-08 10:59:52.720281	353.6	48.5	-91.1	17.5
2025-01-08 10:59:53.874985	353.2	48.7	-91.6	19.1
2025-01-08 10:59:55.029432	352.7	49.0	-91.3	14.7
2025-01-08 10:59:56.182905	352.2	49.2	-90.6	14.5
2025-01-08 10:59:57.336398	351.7	49.5	-90.8	11.6
2025-01-08 10:59:58.488122	351.1	49.8	-91.3	7.6
2025-01-08 10:59:59.641167	350.6	50.0	-91.5	9.0
2025-01-08 11:00:00.785677	350.1	50.3	-90.7	13.0
2025-01-08 11:00:01.944895	349.5	50.5	-91.4	11.1
2025-01-08 11:00:03.091382	349.0	50.8	-91.3	15.4
2025-01-08 11:00:04.249917	348.4	51.0	-91.0	12.8
2025-01-08 11:00:05.404506	347.8	51.3	-91.6	14.3
2025-01-08 11:00:06.550621	347.3	51.5	-91.2	15.0
2025-01-08 11:00:07.700945	346.7	51.7	-90.7	12.7
2025-01-08 11:00:08.854127	346.1	52.0	-90.9	12.2
2025-01-08 11:00:10.000396	345.5	52.2	-91.9	8.7
2025-01-08 11:00:11.155597	344.8	52.5	-90.7	6.1
2025-01-08 11:00:12.322124	344.2	52.7	-90.9	12.9
2025-01-08 11:00:13.467391	343.6	52.9	-91.8	7.7
2025-01-08 11:00:14.620017	342.9	53.2	-91.5	8.1
2025-01-08 11:00:15.777665	342.3	53.4	-90.8	13.8
2025-01-08 11:00:16.929360	341.6	53.6	-91.4	12.8
2025-01-08 11:00:18.077976	340.9	53.8	-91.2	15.8
2025-01-08 11:00:19.232362	340.2	54.0	-90.8	13.7
2025-01-08 11:00:20.383652	339.5	54.2	-91.6	11.6
2025-01-08 11:00:21.538294	338.8	54.5	-91.2	9.5
2025-01-08 11:00:22.685347	338.1	54.7	-91.5	10.3
2025-01-08 11:00:23.836475	337.3	54.9	-91.6	15.1
2025-01-08 11:00:24.991366	336.6	55.1	-91.3	14.3
2025-01-08 11:00:26.140696	335.8	55.3	-90.1	12.6
2025-01-08 11:00:27.300675	335.1	55.4	-90.3	18.8
2025-01-08 11:00:28.455552	334.3	55.6	-91.3	14.2
2025-01-08 11:00:29.601394	333.5	55.8	-91.5	14.8
2025-01-08 11:00:30.756057	332.7	56.0	-91.4	18.2
2025-01-08 11:00:31.908674	331.9	56.2	-91.5	17.0
2025-01-08 11:00:33.059277	331.1	56.3	-91.4	10.2
2025-01-08 11:00:34.213016	330.3	56.5	-90.9	11.5
2025-01-08 11:00:35.362315	329.4	56.6	-91.5	15.9
2025-01-08 11:00:36.507748	328.6	56.8	-91.8	16.5
2025-01-08 11:00:37.662959	327.7	56.9	-91.1	18.7
2025-01-08 11:00:38.821605	326.9	57.1	-91.2	19.7
2025-01-08 11:00:39.976796	326.0	57.2	-91.3	18.5
2025-01-08 11:00:41.128711	325.1	57.3	-90.3	19.4
2025-01-08 11:00:42.289660	324.2	57.4	-90.9	20.2
2025-01-08 11:00:43.452333	323.3	57.6	-91.3	15.8
2025-01-08 11:00:44.609823	322.4	57.7	-91.5	14.7
2025-01-08 11:00:45.758513	321.5	57.8	-91.6	13.6
2025-01-08 11:00:46.910268	320.6	57.8	-91.1	14.4
2025-01-08 11:00:48.065997	319.7	57.9	-91.8	11.0
2025-01-08 11:00:49.215952	318.7	58.0	-90.8	16.5
2025-01-08 11:00:50.368670	317.8	58.1	-91.2	16.5
2025-01-08 11:00:51.529998	316.9	58.1	-91.5	12.5
2025-01-08 11:00:52.682186	315.9	58.2	-91.6	13.3
2025-01-08 11:00:53.833403	315.0	58.3	-91.7	18.3
2025-01-08 11:00:54.990815	314.0	58.3	-91.4	9.4
2025-01-08 11:00:56.146765	313.1	58.3	-90.8	10.1
2025-01-08 11:00:57.294009	312.1	58.4	-90.7	17.0
2025-01-08 11:00:58.450575	311.2	58.4	-91.2	11.5
2025-01-08 11:00:59.612091	310.2	58.4	-91.7	11.7
2025-01-08 11:01:00.753241	309.2	58.4	-91.4	18.1
2025-01-08 11:01:01.912382	308.3	58.4	-91.8	17.5
2025-01-08 11:01:03.060943	307.3	58.4	-91.9	8.9
2025-01-08 11:01:04.218457	306.4	58.4	-91.5	12.0
2025-01-08 11:01:05.373317	305.4	58.4	-91.8	16.5
2025-01-08 11:01:06.527918	304.5	58.3	-91.8	15.1
2025-01-08 11:01:07.683861	303.5	58.3	-91.7	20.8
2025-01-08 11:01:08.830910	302.6	58.2	-91.6	16.8
2025-01-08 11:01:09.987790	301.6	58.2	-91.2	15.9
2025-01-08 11:01:11.148494	300.7	58.1	-91.0	15.8
2025-01-08 11:01:12.302650	299.7	58.0	-90.8	15.8
2025-01-08 11:01:13.455826	298.8	58.0	-91.5	14.8
2025-01-08 11:01:14.609566	297.9	57.9	-91.2	16.9
2025-01-08 11:01:15.773579	296.9	57.8	-91.4	14.4
2025-01-08 11:01:16.921341	296.0	57.7	-90.9	15.4
2025-01-08 11:01:18.075234	295.1	57.6	-90.8	16.6
2025-01-08 11:01:19.234072	294.2	57.5	-90.9	15.4
2025-01-08 11:01:20.389972	293.3	57.4	-91.3	17.5
2025-01-08 11:01:21.543360	292.4	57.3	-91.2	15.8
2025-01-08 11:01:22.706285	291.5	57.1	-91.3	18.3
2025-01-08 11:01:23.859851	290.7	57.0	-91.5	19.9
2025-01-08 11:01:25.010356	289.8	56.8	-91.2	17.4
2025-01-08 11:01:26.166989	289.0	56.7	-91.1	16.6
2025-01-08 11:01:27.318032	288.1	56.5	-91.0	14.6
2025-01-08 11:01:28.479139	287.3	56.4	-91.6	12.9
2025-01-08 11:01:29.636981	286.5	56.2	-91.3	13.8
2025-01-08 11:01:30.793843	285.6	56.1	-91.4	16.3
2025-01-08 11:01:31.949524	284.8	55.9	-91.5	14.4
2025-01-08 11:01:33.109375	284.0	55.7	-91.2	15.6
2025-01-08 11:01:34.272444	283.3	55.5	-91.0	16.1
2025-01-08 11:01:35.421275	282.5	55.3	-91.3	17.2
2025-01-08 11:01:36.575856	281.7	55.1	-91.3	15.9
2025-01-08 11:01:37.735131	281.0	54.9	-91.2	16.7
2025-01-08 11:01:38.887007	280.2	54.7	-91.6	20.0
2025-01-08 11:01:40.045994	279.5	54.5	-91.5	18.0
2025-01-08 11:01:41.211017	278.8	54.3	-91.3	19.3
2025-01-08 11:01:42.370956	278.1	54.1	-91.3	19.2
2025-01-08 11:01:43.538330	277.3	53.9	-91.4	18.0
2025-01-08 11:01:44.689654	276.7	53.7	-91.5	17.7
2025-01-08 11:01:45.843480	276.0	53.4	-90.8	19.7
2025-01-08 11:01:46.994852	275.3	53.2	-91.5	21.5
2025-01-08 11:01:48.142964	274.7	53.0	-91.0	20.1
2025-01-08 11:01:49.299784	274.0	52.8	-91.2	20.2
2025-01-08 11:01:50.453098	273.4	52.5	-91.6	18.5
2025-01-08 11:01:51.610985	272.7	52.3	-90.4	20.5
2025-01-08 11:01:52.759064	272.1	52.1	-90.7	22.6
2025-01-08 11:01:53.913454	271.5	51.8	-90.8	22.6
2025-01-08 11:01:55.071845	270.9	51.6	-90.5	21.4
2025-01-08 11:01:56.224078	270.3	51.3	-90.3	22.4
2025-01-08 11:01:57.376858	269.8	51.1	-90.8	23.6
2025-01-08 11:01:58.531381	269.2	50.8	-90.4	22.0
2025-01-08 11:01:59.690329	268.6	50.6	-90.5	20.7
2025-01-08 11:02:00.841218	268.1	50.3	-90.6	21.2
2025-01-08 11:02:01.989786	267.5	50.1	-91.0	21.0
2025-01-08 11:02:03.150643	267.0	49.8	-90.3	19.2
2025-01-08 11:02:04.309947	266.5	49.6	-90.2	20.0
2025-01-08 11:02:05.465817	266.0	49.3	-90.7	18.0
2025-01-08 11:02:06.613389	265.5	49.0	-90.4	17.5
2025-01-08 11:02:07.765160	265.0	48.8	-90.5	20.5
2025-01-08 11:02:08.923357	264.5	48.5	-90.9	19.9
2025-01-08 11:02:10.082545	264.0	48.3	-90.2	15.7
2025-01-08 11:02:11.230334	263.5	48.0	-90.4	19.3
2025-01-08 11:02:12.379353	263.1	47.7	-90.5	21.8
2025-01-08 11:02:13.543022	262.6	47.5	-90.7	16.6
2025-01-08 11:02:14.697055	262.1	47.2	-90.7	19.9
2025-01-08 11:02:15.853396	261.7	47.0	-90.4	23.1
2025-01-08 11:02:17.007543	261.3	46.7	-90.4	15.7
2025-01-08 11:02:18.163379	260.8	46.4	-90.9	17.0
2025-01-08 11:02:19.312559	260.4	46.2	-91.1	23.2
2025-01-08 11:02:20.469724	260.0	45.9	-91.5	16.4
2025-01-08 11:02:21.626286	259.6	45.6	-91.3	13.7
2025-01-08 11:02:22.785540	259.2	45.4	-91.4	21.5
2025-01-08 11:02:23.932947	258.8	45.1	-91.4	20.7
2025-01-08 11:02:25.092888	258.4	44.9	-91.4	18.7
2025-01-08 11:02:26.251189	258.0	44.6	-89.8	22.0
2025-01-08 11:02:27.405294	257.7	44.3	-91.4	23.7
2025-01-08 11:02:28.554287	257.3	44.1	-91.4	22.1
2025-01-08 11:02:29.710959	256.9	43.8	-91.3	23.4
2025-01-08 11:02:30.863460	256.6	43.5	-91.4	23.8
2025-01-08 11:02:32.030855	256.2	43.3	-91.5	23.4
2025-01-08 11:02:33.193631	255.9	43.0	-91.0	21.6
2025-01-08 11:02:34.350663	255.5	42.8	-90.9	22.4
2025-01-08 11:02:35.497924	255.2	42.5	-91.6	23.0
2025-01-08 11:02:36.654449	254.9	42.2	-91.6	22.3
2025-01-08 11:02:37.805043	254.6	42.0	-91.8	21.1
2025-01-08 11:02:38.953734	254.2	41.7	-91.1	17.5
2025-01-08 11:02:40.107233	253.9	41.5	-90.9	14.9
2025-01-08 11:02:41.262179	253.6	41.2	-91.0	20.6
2025-01-08 11:02:42.414518	253.3	41.0	-91.7	19.7
2025-01-08 11:02:43.568727	253.0	40.7	-91.5	11.9
2025-01-08 11:02:44.711032	252.7	40.5	-91.8	18.0
2025-01-08 11:02:45.851606	252.5	40.2	-91.6	17.9
2025-01-08 11:02:46.985609	252.2	40.0	-91.7	9.8
2025-01-08 11:02:48.107403	251.9	39.7	-91.0	9.2
2025-01-08 11:02:49.228136	251.6	39.5	-91.0	15.0
2025-01-08 11:02:50.348519	251.4	39.2	-91.1	13.1
2025-01-08 11:02:51.468960	251.1	39.0	-91.6	9.1
2025-01-08 11:02:52.588334	250.8	38.8	-91.7	9.6
2025-01-08 11:02:53.708689	250.6	38.5	-91.5	12.3
2025-01-08 11:02:54.832901	250.3	38.3	-91.7	15.0
2025-01-08 11:02:55.956169	250.1	38.1	-91.4	14.7
2025-01-08 11:02:57.098628	249.9	37.8	-91.4	13.9
2025-01-08 11:02:58.254713	249.6	37.6	-91.2	13.9
2025-01-08 11:02:59.404150	249.4	37.3	-91.5	12.3
2025-01-08 11:03:00.546262	249.1	37.1	-91.5	9.1
2025-01-08 11:03:01.707838	248.9	36.9	-91.6	11.1
2025-01-08 11:03:02.871816	248.7	36.6	-91.0	7.0
2025-01-08 11:03:04.027564	248.4	36.4	-91.5	8.1
2025-01-08 11:03:05.186515	248.2	36.2	-91.1	7.5
2025-01-08 11:03:06.347497	248.0	35.9	-91.1	7.1
2025-01-08 11:03:07.499735	247.8	35.7	-90.7	5.3
2025-01-08 11:03:08.658931	247.6	35.5	-91.0	5.8
2025-01-08 11:03:09.809506	247.3	35.2	-91.0	9.6
2025-01-08 11:03:10.971819	247.1	35.0	-90.7	6.1
2025-01-08 11:03:12.120921	246.9	34.8	-90.2	9.3
2025-01-08 11:03:13.272284	246.7	34.6	-90.2	14.6
2025-01-08 11:03:14.426231	246.5	34.3	-91.2	14.7
2025-01-08 11:03:15.576070	246.3	34.1	-91.5	14.1
2025-01-08 11:03:16.727873	246.1	33.9	-91.5	13.3
2025-01-08 11:03:17.878859	245.9	33.7	-91.6	14.8
2025-01-08 11:03:19.034754	245.7	33.5	-91.8	13.6
2025-01-08 11:03:20.191655	245.6	33.2	-91.1	13.9
2025-01-08 11:03:21.346821	245.4	33.0	-91.4	15.2
2025-01-08 11:03:22.504001	245.2	32.8	-90.6	11.2
2025-01-08 11:03:23.655586	245.0	32.6	-90.6	11.5
2025-01-08 11:03:24.813424	244.8	32.4	-90.5	15.3
2025-01-08 11:03:25.965388	244.7	32.2	-90.6	9.9
2025-01-08 11:03:27.122177	244.5	31.9	-90.8	6.5
2025-01-08 11:03:28.281499	244.3	31.7	-90.5	16.2
2025-01-08 11:03:29.436326	244.1	31.5	-90.4	12.6
2025-01-08 11:03:30.595328	244.0	31.3	-90.9	12.3
2025-01-08 11:03:31.739429	243.8	31.1	-90.7	17.3
2025-01-08 11:03:32.896283	243.7	30.9	-90.7	16.9
2025-01-08 11:03:34.051501	243.5	30.7	-90.5	15.6
2025-01-08 11:03:35.210061	243.3	30.5	-90.0	16.1
2025-01-08 11:03:36.367936	243.2	30.3	-90.6	17.0
2025-01-08 11:03:37.528295	243.0	30.1	-91.5	15.6
2025-01-08 11:03:38.681657	242.9	29.9	-91.3	15.3
2025-01-08 11:03:39.842322	242.7	29.7	-91.6	14.4
2025-01-08 11:03:40.993116	242.6	29.5	-91.7	10.8
2025-01-08 11:03:42.142672	242.4	29.3	-91.4	10.0
2025-01-08 11:03:43.304408	242.3	29.1	-90.8	12.6
2025-01-08 11:03:44.460324	242.1	28.9	-91.5	10.0
2025-01-08 11:03:45.614434	242.0	28.7	-91.8	10.7
2025-01-08 11:03:46.769799	241.9	28.5	-91.6	15.3
2025-01-08 11:03:47.919203	241.7	28.3	-91.5	14.5
2025-01-08 11:03:49.068514	241.6	28.1	-91.4	14.0
2025-01-08 11:03:50.225738	241.5	28.0	-91.2	17.2
2025-01-08 11:03:51.379341	241.3	27.8	-91.5	15.4
2025-01-08 11:03:52.540677	241.2	27.6	-91.4	16.7
2025-01-08 11:03:53.698923	241.1	27.4	-91.8	16.7
2025-01-08 11:03:54.852331	240.9	27.2	-91.8	16.3
2025-01-08 11:03:56.010860	240.8	27.0	-91.4	11.3
2025-01-08 11:03:57.164941	240.7	26.9	-91.3	8.8
2025-01-08 11:03:58.316517	240.6	26.7	-91.0	13.1
2025-01-08 11:03:59.470785	240.4	26.5	-91.6	8.0
2025-01-08 11:04:00.614729	240.3	26.3	-91.7	7.2
2025-01-08 11:04:01.766819	240.2	26.1	-91.8	12.2
2025-01-08 11:04:02.921700	240.1	26.0	-91.4	10.7
2025-01-08 11:04:04.081659	240.0	25.8	-90.9	6.4
2025-01-08 11:04:05.238066	239.8	25.6	-91.3	7.4
2025-01-08 11:04:06.395410	239.7	25.4	-91.6	6.8
2025-01-08 11:04:07.543742	239.6	25.3	-91.9	8.1
2025-01-08 11:04:08.689735	239.5	25.1	-91.7	6.8
2025-01-08 11:04:09.850587	239.4	24.9	-92.0	7.7
2025-01-08 11:04:11.001705	239.3	24.7	-91.3	3.8
2025-01-08 11:04:12.151803	239.2	24.6	-90.9	4.8
2025-01-08 11:04:13.305175	239.1	24.4	-91.3	7.2
2025-01-08 11:04:14.451393	239.0	24.2	-91.7	4.5
2025-01-08 11:04:15.603756	238.9	24.1	-91.5	4.2
2025-01-08 11:04:16.754358	238.8	23.9	-91.7	3.2
2025-01-08 11:04:17.909480	238.7	23.7	-91.3	3.4
2025-01-08 11:04:19.074206	238.5	23.6	-91.1	4.1
2025-01-08 11:04:20.234231	238.4	23.4	-91.1	6.2
2025-01-08 11:04:21.395519	238.3	23.3	-91.6	9.2
2025-01-08 11:04:22.548275	238.3	23.1	-91.5	9.4
2025-01-08 11:04:23.698788	238.2	22.9	-91.6	10.7
2025-01-08 11:04:24.858641	238.1	22.8	-91.5	10.3
2025-01-08 11:04:26.016928	238.0	22.6	-91.3	9.1
2025-01-08 11:04:27.171460	237.9	22.5	-91.3	9.0
2025-01-08 11:04:28.323964	237.8	22.3	-90.2	9.8
2025-01-08 11:04:29.480735	237.7	22.2	-90.8	7.0
2025-01-08 11:04:30.626468	237.6	22.0	-90.6	4.8
2025-01-08 11:04:31.781089	237.5	21.8	-90.5	9.0
2025-01-08 11:04:32.932736	237.4	21.7	-90.8	5.2
2025-01-08 11:04:34.082805	237.3	21.5	-90.4	6.2
2025-01-08 11:04:35.231490	237.2	21.4	-89.8	8.4
2025-01-08 11:04:36.378974	237.2	21.2	-90.6	11.4
2025-01-08 11:04:37.533885	237.1	21.1	-90.7	11.6
2025-01-08 11:04:38.683068	237.0	20.9	-90.4	10.5
2025-01-08 11:04:39.842949	236.9	20.8	-91.5	9.3
2025-01-08 11:04:40.994079	236.8	20.6	-91.8	11.3
2025-01-08 11:04:42.154584	236.7	20.5	-91.3	9.6
2025-01-08 11:04:43.304534	236.6	20.4	-90.9	9.4
2025-01-08 11:04:44.462851	236.6	20.2	-91.7	6.6
2025-01-08 11:04:45.615141	236.5	20.1	-91.4	7.9
2025-01-08 11:04:46.763192	236.4	19.9	-91.8	7.4
2025-01-08 11:04:47.922671	236.3	19.8	-89.7	8.4
2025-01-08 11:04:49.082201	236.3	19.6	-91.3	8.5
2025-01-08 11:04:50.231503	236.2	19.5	-91.1	10.9
2025-01-08 11:04:51.385102	236.1	19.4	-91.6	12.8
2025-01-08 11:04:52.546334	236.0	19.2	-91.9	12.9
2025-01-08 11:04:53.710209	235.9	19.1	-91.5	10.0
2025-01-08 11:04:54.842501	235.9	18.9	-91.5	10.5
2025-01-08 11:04:55.997039	235.8	18.8	-91.4	9.2
2025-01-08 11:04:57.158198	235.7	18.7	-91.1	7.5
2025-01-08 11:04:58.309778	235.7	18.5	-91.3	10.8
2025-01-08 11:04:59.469571	235.6	18.4	-91.6	7.8
2025-01-08 11:05:00.609032	235.5	18.3	-91.5	8.0
2025-01-08 11:05:01.770098	235.4	18.1	-91.3	10.5
2025-01-08 11:05:02.927499	235.4	18.0	-91.0	7.0
2025-01-08 11:05:04.083578	235.3	17.9	-91.2	6.0
2025-01-08 11:05:05.239763	235.2	17.7	-91.2	9.3
2025-01-08 11:05:06.392097	235.2	17.6	-91.7	9.1
2025-01-08 11:05:07.550101	235.1	17.5	-91.7	11.7
2025-01-08 11:05:08.703931	235.0	17.3	-91.9	10.6
2025-01-08 11:05:09.862514	235.0	17.2	-91.8	9.3
2025-01-08 11:05:11.018898	234.9	17.1	-90.4	7.8
2025-01-08 11:05:12.185604	234.8	16.9	-90.1	7.4
2025-01-08 11:05:13.339765	234.8	16.8	-90.4	5.2
2025-01-08 11:05:14.505252	234.7	16.7	-90.5	6.4
2025-01-08 11:05:15.657078	234.6	16.6	-90.9	7.4
2025-01-08 11:05:16.805831	234.6	16.4	-90.5	10.3
2025-01-08 11:05:17.964451	234.5	16.3	-90.3	9.0
2025-01-08 11:05:19.118047	234.5	16.2	-90.7	9.7
2025-01-08 11:05:20.275158	234.4	16.1	-91.0	9.8
2025-01-08 11:05:21.433839	234.3	15.9	-91.1	10.5
2025-01-08 11:05:22.591757	234.3	15.8	-91.4	7.9
2025-01-08 11:05:23.748663	234.2	15.7	-91.5	9.0
2025-01-08 11:05:24.903652	234.2	15.6	-91.4	8.1
2025-01-08 11:05:26.052060	234.1	15.4	-91.6	5.6
2025-01-08 11:05:27.202888	234.0	15.3	-90.6	7.0
2025-01-08 11:05:28.356366	234.0	15.2	-90.9	8.9
2025-01-08 11:05:29.514329	233.9	15.1	-91.3	5.7
2025-01-08 11:05:30.676544	233.9	15.0	-91.0	6.3
2025-01-08 11:05:31.827315	233.8	14.8	-91.5	6.5
2025-01-08 11:05:32.980099	233.8	14.7	-90.6	8.4
2025-01-08 11:05:34.132743	233.7	14.6	-90.6	7.7
2025-01-08 11:05:35.285423	233.7	14.5	-90.0	8.4
#Closed at: 2025-01-08 10:56:34.359816