passes_logs/2026/01/21/R4.6S_Anadyr/R4.6S_Anadyr__20260121_125140_SUOMI_NPP_rec.log

#Pass ID: 20260121_125140_SUOMI NPP
#Satellite: SUOMI NPP
#Configuration: NPP
#almurnet v.1.7.20251203
#Start time: 2026-01-21 12:51:42

#Version: 2.2.20231116
#Station: R4.6S_Anadyr
#Location: 177.4865 lon 64.73178 lat
#TLE: 1 37849U 11061A   26020.95430537  .00000198  00000+0  11470-3 0  9999
#TLE: 2 37849  98.7819 322.9518 0002315  53.3069 306.8320 14.19527555737555

#Time	Az	El	Level	Level2	SNR	BER	BlckErr	Temp	State	Recorded	gain1	gain2
2026-01-21 12:51:42.99	18.92	0.12	-52.8	-65.4	3.5	1.51e+00	0	39	0	0	60	65157
2026-01-21 12:51:43.99	18.99	0.17	-53.3	-68.6	3.6	1.51e+00	0	40	104	0	60	96989
2026-01-21 12:51:45.01	19.05	0.22	-53.6	-68.8	3.6	1.51e+00	0	40	104	0	60	99613
2026-01-21 12:51:46.02	19.11	0.27	-53.0	-68.2	3.6	1.51e+00	0	40	104	0	60	92459
2026-01-21 12:51:47.03	19.18	0.33	-52.5	-67.7	3.6	1.51e+00	0	40	104	0	60	88182
2026-01-21 12:51:48.04	19.24	0.38	-52.2	-67.5	3.6	1.51e+00	0	40	104	0	60	85312
2026-01-21 12:51:49.05	19.31	0.43	-52.0	-67.2	3.5	1.51e+00	0	40	104	0	60	82888
2026-01-21 12:51:50.06	19.37	0.49	-51.8	-67.1	3.6	1.51e+00	0	40	104	0	60	81479
2026-01-21 12:51:51.07	19.43	0.54	-51.8	-67.0	3.6	1.51e+00	0	40	104	0	60	81170
2026-01-21 12:51:52.08	19.50	0.59	-51.8	-67.0	3.6	1.51e+00	0	40	104	0	60	81152
2026-01-21 12:51:53.09	19.56	0.65	-51.7	-66.9	3.6	1.51e+00	0	40	104	0	60	80149
2026-01-21 12:51:54.10	19.63	0.70	-51.6	-66.8	3.6	1.51e+00	0	40	104	0	60	79479
2026-01-21 12:51:55.11	19.69	0.75	-51.7	-67.0	3.6	1.51e+00	0	40	104	0	60	81095
2026-01-21 12:51:56.12	19.76	0.81	-51.6	-66.7	3.6	1.51e+00	0	40	104	0	60	78613
2026-01-21 12:51:57.13	19.82	0.86	-51.5	-66.7	3.6	1.51e+00	0	40	104	0	60	78064
2026-01-21 12:51:58.14	19.89	0.91	-51.3	-66.6	3.6	1.51e+00	0	40	104	0	60	77066
2026-01-21 12:51:59.15	19.96	0.97	-51.1	-66.4	3.6	1.51e+00	0	40	104	0	60	75106
2026-01-21 12:52:00.16	20.02	1.02	-51.0	-66.2	3.6	1.51e+00	0	40	104	0	60	73888
2026-01-21 12:52:01.17	20.09	1.08	-50.8	-66.0	3.6	1.51e+00	0	40	104	0	60	72333
2026-01-21 12:52:02.18	20.16	1.13	-50.7	-66.0	3.6	1.51e+00	0	40	104	0	60	71720
2026-01-21 12:52:03.19	20.22	1.18	-50.6	-65.9	3.6	1.51e+00	0	40	104	0	60	70930
2026-01-21 12:52:04.20	20.29	1.24	-50.5	-65.7	3.6	1.51e+00	0	40	104	0	60	69928
2026-01-21 12:52:05.21	20.36	1.29	-50.3	-65.5	3.6	1.51e+00	0	40	104	0	60	68396
2026-01-21 12:52:06.22	20.42	1.35	-50.1	-65.3	3.6	1.51e+00	0	40	104	0	60	66682
2026-01-21 12:52:07.23	20.49	1.40	-49.7	-64.9	3.6	1.51e+00	0	40	104	0	60	63226
2026-01-21 12:52:08.24	20.56	1.46	-49.6	-64.8	3.6	1.51e+00	0	40	104	0	60	62792
2026-01-21 12:52:09.25	20.63	1.51	-49.6	-64.8	3.6	1.51e+00	0	40	104	0	60	62765
2026-01-21 12:52:10.26	20.70	1.57	-49.6	-64.8	3.6	1.51e+00	0	40	104	0	60	62606
2026-01-21 12:52:11.27	20.77	1.62	-49.7	-64.9	3.6	1.51e+00	0	40	104	0	60	63509
2026-01-21 12:52:12.28	20.84	1.68	-49.7	-64.9	3.6	1.51e+00	0	40	104	0	60	63211
2026-01-21 12:52:13.29	20.90	1.73	-49.7	-64.8	3.6	1.51e+00	0	40	104	0	60	62781
2026-01-21 12:52:14.30	20.97	1.79	-49.7	-64.7	3.6	1.51e+00	0	40	104	0	60	62007
2026-01-21 12:52:15.31	21.04	1.84	-49.6	-64.7	3.6	1.51e+00	0	40	104	0	60	62321
2026-01-21 12:52:16.32	21.11	1.90	-49.6	-64.8	3.6	1.51e+00	0	40	104	0	60	62537
2026-01-21 12:52:17.33	21.18	1.95	-49.6	-64.7	3.6	1.51e+00	0	40	104	0	60	62327
2026-01-21 12:52:18.34	21.25	2.01	-49.5	-64.7	3.6	1.51e+00	0	40	104	0	60	62224
2026-01-21 12:52:19.35	21.33	2.06	-49.6	-64.7	3.6	1.51e+00	0	40	104	0	60	62048
2026-01-21 12:52:20.36	21.40	2.12	-49.6	-64.8	3.6	1.51e+00	0	40	104	0	60	62476
2026-01-21 12:52:21.37	21.47	2.17	-49.6	-64.6	3.6	1.51e+00	0	40	104	0	60	61590
2026-01-21 12:52:22.38	21.54	2.23	-49.6	-64.2	3.6	1.51e+00	0	40	104	0	60	58623
2026-01-21 12:52:23.38	21.61	2.28	-49.7	-64.3	3.6	1.51e+00	0	40	104	0	60	59631
2026-01-21 12:52:24.39	21.68	2.34	-49.6	-63.6	3.6	1.51e+00	0	40	104	0	60	54900
2026-01-21 12:52:25.40	21.75	2.39	-49.5	-63.7	3.6	1.51e+00	0	40	104	0	60	55480
2026-01-21 12:52:26.41	21.83	2.45	-49.5	-64.3	3.6	1.51e+00	0	40	104	0	60	59071
2026-01-21 12:52:27.43	21.90	2.51	-49.5	-62.7	3.6	1.51e+00	0	40	104	0	60	49507
2026-01-21 12:52:28.44	21.97	2.56	-49.2	-59.3	4.9	1.16e+00	0	40	0	0	60	33269
2026-01-21 12:52:29.44	22.05	2.62	-48.4	-54.4	8.6	8.10e-02	0	40	0	1048576	60	19022
2026-01-21 12:52:30.45	22.12	2.67	-47.2	-51.2	12.2	1.64e-03	0	40	0	3145728	60	13167
2026-01-21 12:52:31.46	22.19	2.73	-46.1	-48.9	14.5	8.30e-06	0	40	0	5242880	60	10094
2026-01-21 12:52:32.47	22.27	2.79	-44.5	-46.6	17.1	0.00e+00	0	40	0	7340032	60	7718
2026-01-21 12:52:33.48	22.34	2.84	-43.8	-45.5	18.3	0.00e+00	0	40	0	9437184	60	6836
2026-01-21 12:52:34.49	22.42	2.90	-43.4	-45.1	18.6	0.00e+00	0	40	0	10485760	60	6503
2026-01-21 12:52:35.50	22.49	2.96	-43.8	-45.6	18.1	0.00e+00	0	40	0	12582912	60	6866
2026-01-21 12:52:36.51	22.57	3.01	-44.2	-46.1	17.7	0.00e+00	0	40	0	14680064	60	7314
2026-01-21 12:52:37.52	22.64	3.07	-45.0	-47.2	16.5	0.00e+00	0	40	0	16777216	60	8302
2026-01-21 12:52:38.53	22.72	3.13	-46.4	-49.4	14.3	0.00e+00	0	40	0	18874368	60	10691
2026-01-21 12:52:39.54	22.79	3.18	-48.2	-53.4	10.0	3.87e-04	0	40	0	19922944	60	16926
2026-01-21 12:52:40.55	22.87	3.24	-48.9	-55.5	7.8	1.02e-01	0	40	0	22020096	60	21426
2026-01-21 12:52:41.56	22.95	3.30	-48.4	-53.7	9.9	1.35e-01	0	40	0	24117248	60	17547
2026-01-21 12:52:42.57	23.02	3.35	-49.2	-58.4	3.9	8.11e-03	0	40	0	26214400	60	30088
2026-01-21 12:52:43.58	23.10	3.41	-49.4	-60.2	4.1	1.51e+00	0	40	104	26214400	60	36973
2026-01-21 12:52:44.59	23.18	3.47	-49.6	-59.8	4.3	1.50e+00	0	40	104	26214400	60	35222
2026-01-21 12:52:45.60	23.25	3.53	-49.9	-63.0	3.6	8.45e-02	0	40	104	26214400	60	51174
2026-01-21 12:52:46.62	23.33	3.58	-49.9	-64.4	3.9	1.51e+00	0	40	104	26214400	60	59805
2026-01-21 12:52:47.63	23.41	3.64	-48.9	-54.9	9.1	3.58e-02	0	41	0	26214400	60	20113
2026-01-21 12:52:48.64	23.49	3.70	-48.7	-54.2	11.4	9.05e-03	0	40	0	28311552	60	18492
2026-01-21 12:52:49.65	23.57	3.76	-47.9	-52.0	11.7	8.03e-04	0	40	0	29360128	60	14462
2026-01-21 12:52:50.66	23.65	3.81	-48.1	-52.6	11.5	6.06e-04	0	41	0	31457280	60	15473
2026-01-21 12:52:51.67	23.73	3.87	-48.0	-52.3	11.5	6.22e-03	0	41	0	33554432	60	14857
2026-01-21 12:52:52.68	23.81	3.93	-48.4	-53.2	10.6	3.39e-03	0	41	0	35651584	60	16605
2026-01-21 12:52:53.68	23.88	3.99	-48.4	-53.3	10.9	1.81e-03	0	41	0	37748736	60	16678
2026-01-21 12:52:54.69	23.96	4.05	-48.1	-52.5	11.1	1.07e-03	0	40	0	38797312	60	15323
2026-01-21 12:52:55.71	24.05	4.10	-48.2	-52.5	12.4	1.45e-03	0	40	0	40894464	60	15306
2026-01-21 12:52:56.71	24.13	4.16	-48.4	-53.0	10.6	2.03e-03	0	41	0	42991616	60	16133
2026-01-21 12:52:57.73	24.21	4.22	-48.4	-53.0	10.9	2.34e-03	0	41	0	45088768	60	16227
2026-01-21 12:52:58.74	24.29	4.28	-48.4	-53.0	10.8	2.01e-03	0	40	0	47185920	60	16187
2026-01-21 12:52:59.75	24.37	4.34	-47.9	-51.9	12.6	2.59e-05	0	40	0	48234496	60	14182
2026-01-21 12:53:00.75	24.45	4.40	-47.5	-51.0	13.6	5.79e-05	0	40	0	50331648	60	12798
2026-01-21 12:53:01.76	24.53	4.45	-47.0	-50.1	13.5	1.40e-04	0	40	0	52428800	60	11595
2026-01-21 12:53:02.77	24.62	4.51	-48.1	-52.3	12.4	1.21e-04	0	40	0	54525952	60	14890
2026-01-21 12:53:03.78	24.70	4.57	-47.4	-50.9	13.5	7.93e-05	0	41	0	56623104	60	12683
2026-01-21 12:53:04.79	24.78	4.63	-48.1	-52.3	12.0	2.30e-04	0	41	0	57671680	60	14905
2026-01-21 12:53:05.80	24.87	4.69	-47.0	-50.1	14.3	1.65e-04	0	41	0	59768832	60	11615
2026-01-21 12:53:06.81	24.95	4.75	-46.9	-49.9	14.3	7.00e-07	0	40	0	61865984	60	11345
2026-01-21 12:53:07.82	25.03	4.81	-46.7	-49.4	14.9	7.00e-07	0	40	0	63963136	60	10678
2026-01-21 12:53:08.83	25.12	4.87	-46.8	-49.8	13.9	2.20e-06	0	41	0	66060288	60	11234
2026-01-21 12:53:09.84	25.20	4.93	-47.4	-50.8	14.3	2.20e-06	0	40	0	68157440	60	12543
2026-01-21 12:53:10.85	25.29	4.99	-46.4	-49.0	14.8	1.50e-06	0	41	0	69206016	60	10137
2026-01-21 12:53:11.86	25.38	5.05	-48.0	-51.9	12.9	1.14e-05	0	41	0	71303168	60	14263
2026-01-21 12:53:12.86	25.46	5.10	-47.5	-51.0	12.9	2.20e-06	0	40	0	73400320	60	12804
2026-01-21 12:53:13.88	25.55	5.16	-47.3	-50.4	14.6	1.46e-04	0	41	0	75497472	60	12008
2026-01-21 12:53:14.88	25.63	5.22	-47.6	-51.0	13.1	1.06e-05	0	41	0	77594624	60	12828
2026-01-21 12:53:15.89	25.72	5.28	-47.8	-51.5	12.7	3.12e-05	0	41	0	78643200	60	13658
2026-01-21 12:53:16.90	25.81	5.34	-48.1	-52.1	13.2	2.28e-05	0	41	0	80740352	60	14534
2026-01-21 12:53:17.91	25.89	5.40	-47.5	-50.8	12.9	2.13e-05	0	40	0	82837504	60	12594
2026-01-21 12:53:18.92	25.98	5.46	-47.5	-50.9	12.9	4.19e-05	0	40	0	84934656	60	12750
2026-01-21 12:53:19.93	26.07	5.52	-47.7	-51.3	13.5	5.49e-05	0	41	0	87031808	60	13331
2026-01-21 12:53:20.94	26.16	5.58	-47.2	-50.5	13.2	4.34e-05	0	41	0	88080384	60	12052
2026-01-21 12:53:21.95	26.25	5.64	-47.2	-50.5	14.3	1.82e-04	0	40	0	90177536	60	12046
2026-01-21 12:53:22.96	26.34	5.70	-47.2	-50.4	13.6	2.20e-06	0	41	0	92274688	60	12030
2026-01-21 12:53:23.97	26.43	5.77	-46.7	-49.4	14.6	1.50e-06	0	41	0	94371840	60	10727
2026-01-21 12:53:24.98	26.52	5.83	-47.3	-50.5	14.1	4.50e-06	0	41	0	96468992	60	12157
2026-01-21 12:53:25.99	26.61	5.89	-47.0	-50.0	14.2	3.00e-06	0	41	0	97517568	60	11414
2026-01-21 12:53:27.00	26.70	5.95	-46.6	-49.3	15.4	1.50e-06	0	41	0	99614720	60	10574
2026-01-21 12:53:28.00	26.79	6.01	-46.2	-48.6	15.9	0.00e+00	0	41	0	101711872	60	9778
2026-01-21 12:53:29.01	26.88	6.07	-45.6	-47.8	16.7	0.00e+00	0	41	0	103809024	60	8851
2026-01-21 12:53:30.02	26.97	6.13	-46.7	-49.5	14.9	0.00e+00	0	41	0	105906176	60	10769
2026-01-21 12:53:31.03	27.06	6.19	-45.5	-47.6	16.9	0.00e+00	0	41	0	106954752	60	8715
2026-01-21 12:53:32.04	27.15	6.25	-45.2	-47.3	17.3	0.00e+00	0	41	0	109051904	60	8356
2026-01-21 12:53:33.05	27.25	6.31	-44.4	-46.2	18.2	0.00e+00	0	41	0	111149056	60	7356
2026-01-21 12:53:34.06	27.34	6.37	-44.0	-45.6	18.7	0.00e+00	0	41	0	113246208	60	6924
2026-01-21 12:53:35.07	27.43	6.44	-44.0	-45.6	18.7	0.00e+00	0	41	0	115343360	60	6920
2026-01-21 12:53:36.08	27.53	6.50	-43.8	-45.4	18.8	0.00e+00	0	41	0	116391936	60	6722
2026-01-21 12:53:37.09	27.62	6.56	-43.9	-45.5	18.7	0.00e+00	0	41	0	118489088	60	6796
2026-01-21 12:53:38.10	27.72	6.62	-44.0	-45.7	18.7	0.00e+00	0	41	0	120586240	60	6952
2026-01-21 12:53:39.11	27.81	6.68	-44.1	-45.8	18.7	0.00e+00	0	41	0	122683392	60	7039
2026-01-21 12:53:40.12	27.91	6.74	-44.1	-45.7	18.7	0.00e+00	0	41	0	124780544	60	6996
2026-01-21 12:53:41.13	28.00	6.81	-43.5	-45.0	19.2	0.00e+00	0	41	0	125829120	60	6403
2026-01-21 12:53:42.14	28.10	6.87	-43.0	-44.4	19.8	0.00e+00	0	41	0	127926272	60	6012
2026-01-21 12:53:43.15	28.20	6.93	-43.0	-44.4	20.0	0.00e+00	0	41	0	130023424	60	6009
2026-01-21 12:53:44.16	28.29	6.99	-43.2	-44.6	19.7	0.00e+00	0	40	0	132120576	60	6159
2026-01-21 12:53:45.17	28.39	7.05	-42.6	-43.9	20.2	0.00e+00	0	41	0	134217728	58	6372
2026-01-21 12:53:46.18	28.49	7.12	-42.3	-43.5	20.6	0.00e+00	0	41	0	136314880	58	6076
2026-01-21 12:53:47.19	28.59	7.18	-43.3	-44.8	19.5	0.00e+00	0	40	0	137363456	58	7032
2026-01-21 12:53:48.20	28.68	7.24	-43.1	-44.5	19.8	0.00e+00	0	41	0	139460608	58	6812
2026-01-21 12:53:49.21	28.78	7.30	-43.2	-44.6	19.5	0.00e+00	0	41	0	141557760	58	6882
2026-01-21 12:53:50.22	28.88	7.37	-43.3	-44.8	19.4	0.00e+00	0	41	0	143654912	58	7042
2026-01-21 12:53:51.23	28.98	7.43	-43.5	-45.0	19.3	0.00e+00	0	41	0	145752064	58	7234
2026-01-21 12:53:52.24	29.08	7.49	-43.6	-45.1	19.2	0.00e+00	0	41	0	146800640	58	7311
2026-01-21 12:53:53.25	29.18	7.56	-43.5	-45.1	19.3	0.00e+00	0	41	0	148897792	58	7264
2026-01-21 12:53:54.26	29.28	7.62	-43.5	-45.0	19.2	0.00e+00	0	41	0	150994944	58	7223
2026-01-21 12:53:55.27	29.39	7.68	-43.5	-45.0	19.2	0.00e+00	0	41	0	153092096	58	7247
2026-01-21 12:53:56.28	29.49	7.74	-43.6	-45.2	19.1	0.00e+00	0	41	0	155189248	58	7388
2026-01-21 12:53:57.29	29.59	7.81	-44.1	-45.8	18.9	0.00e+00	0	41	0	156237824	60	7008
2026-01-21 12:53:58.30	29.69	7.87	-43.7	-45.2	19.2	0.00e+00	0	41	0	158334976	60	6615
2026-01-21 12:53:59.31	29.80	7.93	-43.7	-45.3	19.2	0.00e+00	0	41	0	160432128	60	6642
2026-01-21 12:54:00.32	29.90	8.00	-43.5	-45.0	19.4	0.00e+00	0	41	0	162529280	60	6433
2026-01-21 12:54:01.32	30.00	8.06	-43.7	-45.2	19.2	0.00e+00	0	41	0	164626432	60	6579
2026-01-21 12:54:02.34	30.11	8.13	-43.6	-45.1	19.3	0.00e+00	0	41	0	165675008	60	6487
2026-01-21 12:54:03.34	30.21	8.19	-43.2	-44.7	19.7	0.00e+00	0	41	0	167772160	60	6180
2026-01-21 12:54:04.36	30.32	8.25	-43.3	-44.8	19.7	0.00e+00	0	41	0	169869312	60	6253
2026-01-21 12:54:05.36	30.42	8.32	-43.2	-44.6	19.9	0.00e+00	0	41	0	171966464	60	6147
2026-01-21 12:54:06.37	30.53	8.38	-43.0	-44.4	20.0	0.00e+00	0	41	0	174063616	60	5981
2026-01-21 12:54:07.38	30.64	8.44	-42.9	-44.3	20.0	0.00e+00	0	41	0	175112192	60	5933
2026-01-21 12:54:08.39	30.74	8.51	-43.2	-44.7	19.8	0.00e+00	0	41	0	177209344	60	6175
2026-01-21 12:54:09.40	30.85	8.57	-43.1	-44.5	19.9	0.00e+00	0	41	0	179306496	60	6062
2026-01-21 12:54:10.41	30.96	8.64	-43.2	-44.6	19.9	0.00e+00	0	41	0	181403648	60	6135
2026-01-21 12:54:11.42	31.07	8.70	-43.0	-44.4	20.0	0.00e+00	0	41	0	183500800	60	5983
2026-01-21 12:54:12.43	31.18	8.77	-42.8	-44.2	20.3	0.00e+00	0	41	0	184549376	60	5835
2026-01-21 12:54:13.44	31.28	8.83	-42.8	-44.2	20.3	0.00e+00	0	41	0	186646528	60	5839
2026-01-21 12:54:14.45	31.39	8.90	-42.9	-44.3	20.2	0.00e+00	0	41	0	188743680	58	6641
2026-01-21 12:54:15.46	31.50	8.96	-42.7	-44.0	20.5	0.00e+00	0	41	0	190840832	58	6457
2026-01-21 12:54:16.47	31.62	9.03	-42.4	-43.7	20.6	0.00e+00	0	41	0	192937984	58	6220
2026-01-21 12:54:17.47	31.73	9.09	-42.5	-43.8	20.5	0.00e+00	0	41	0	193986560	58	6300
2026-01-21 12:54:18.48	31.84	9.15	-42.3	-43.6	20.6	0.00e+00	0	41	0	196083712	58	6133
2026-01-21 12:54:19.49	31.95	9.22	-42.5	-43.7	20.5	0.00e+00	0	41	0	198180864	58	6241
2026-01-21 12:54:20.50	32.06	9.28	-42.2	-43.4	20.9	0.00e+00	0	41	0	200278016	58	6031
2026-01-21 12:54:21.51	32.18	9.35	-42.4	-43.7	20.6	0.00e+00	0	41	0	202375168	58	6188
2026-01-21 12:54:22.52	32.29	9.42	-41.9	-43.1	21.1	0.00e+00	0	41	0	204472320	58	5772
2026-01-21 12:54:23.53	32.40	9.48	-42.1	-43.3	20.9	0.00e+00	0	41	0	205520896	58	5915
2026-01-21 12:54:24.54	32.52	9.55	-41.9	-43.1	20.8	0.00e+00	0	41	0	207618048	58	5808
2026-01-21 12:54:25.55	32.63	9.61	-41.9	-43.0	20.9	0.00e+00	0	41	0	209715200	56	6453
2026-01-21 12:54:26.56	32.75	9.68	-41.8	-43.0	21.2	0.00e+00	0	41	0	211812352	56	6410
2026-01-21 12:54:27.57	32.86	9.74	-41.8	-43.0	21.2	0.00e+00	0	41	0	213909504	56	6409
2026-01-21 12:54:28.58	32.98	9.81	-41.8	-42.9	21.2	0.00e+00	0	41	0	214958080	56	6364
2026-01-21 12:54:29.59	33.10	9.87	-41.7	-42.9	21.2	0.00e+00	0	41	0	217055232	56	6342
2026-01-21 12:54:30.60	33.22	9.94	-41.8	-42.9	21.4	0.00e+00	0	41	0	219152384	56	6372
2026-01-21 12:54:31.61	33.33	10.01	-42.2	-43.4	21.0	0.00e+00	0	41	0	221249536	56	6701
2026-01-21 12:54:32.62	33.45	10.07	-42.1	-43.3	21.1	0.00e+00	0	41	0	223346688	56	6689
2026-01-21 12:54:33.63	33.57	10.14	-41.8	-42.9	21.4	0.00e+00	0	41	0	224395264	56	6356
2026-01-21 12:54:34.64	33.69	10.20	-41.8	-42.9	21.4	0.00e+00	0	41	0	226492416	56	6367
2026-01-21 12:54:35.65	33.81	10.27	-41.9	-43.1	21.2	0.00e+00	0	41	0	228589568	56	6507
2026-01-21 12:54:36.65	33.93	10.34	-41.8	-43.0	21.3	0.00e+00	0	41	0	230686720	56	6414
2026-01-21 12:54:37.66	34.05	10.40	-42.0	-43.2	21.1	0.00e+00	0	41	0	232783872	56	6554
2026-01-21 12:54:38.67	34.17	10.47	-41.9	-43.0	21.2	0.00e+00	0	41	0	233832448	56	6454
2026-01-21 12:54:39.68	34.30	10.54	-41.9	-43.1	21.2	0.00e+00	0	41	0	235929600	56	6510
2026-01-21 12:54:40.69	34.42	10.60	-41.8	-43.0	21.3	0.00e+00	0	41	0	238026752	56	6418
2026-01-21 12:54:41.70	34.54	10.67	-42.0	-43.2	21.0	0.00e+00	0	41	0	240123904	56	6600
2026-01-21 12:54:42.71	34.67	10.74	-42.3	-43.6	20.9	0.00e+00	0	41	0	242221056	56	6862
2026-01-21 12:54:43.72	34.79	10.80	-42.0	-43.1	21.3	0.00e+00	0	41	0	243269632	56	6508
2026-01-21 12:54:44.73	34.91	10.87	-41.9	-43.0	21.4	0.00e+00	0	41	0	245366784	56	6448
2026-01-21 12:54:45.74	35.04	10.94	-41.8	-43.0	21.4	0.00e+00	0	41	0	247463936	56	6397
2026-01-21 12:54:46.75	35.17	11.00	-41.9	-43.0	21.3	0.00e+00	0	41	0	249561088	56	6433
2026-01-21 12:54:47.76	35.29	11.07	-42.2	-43.4	21.1	0.00e+00	0	41	0	251658240	56	6763
2026-01-21 12:54:48.77	35.42	11.14	-42.0	-43.2	21.2	0.00e+00	0	41	0	252706816	56	6586
2026-01-21 12:54:49.78	35.55	11.20	-41.8	-42.9	21.3	0.00e+00	0	41	0	254803968	56	6371
2026-01-21 12:54:50.79	35.68	11.27	-41.7	-42.9	21.6	0.00e+00	0	41	0	256901120	56	6324
2026-01-21 12:54:51.80	35.80	11.34	-41.7	-42.8	21.5	0.00e+00	0	41	0	258998272	56	6317
2026-01-21 12:54:52.81	35.93	11.41	-41.6	-42.7	21.6	0.00e+00	0	41	0	261095424	56	6243
2026-01-21 12:54:53.82	36.06	11.47	-41.9	-43.1	21.3	0.00e+00	0	41	0	262144000	56	6481
2026-01-21 12:54:54.83	36.19	11.54	-41.5	-42.6	21.7	0.00e+00	0	41	0	264241152	56	6128
2026-01-21 12:54:55.84	36.33	11.61	-41.5	-42.5	21.6	0.00e+00	0	41	0	266338304	56	6103
2026-01-21 12:54:56.85	36.46	11.68	-41.6	-42.7	21.6	0.00e+00	0	41	0	268435456	56	6216
2026-01-21 12:54:57.86	36.59	11.74	-41.6	-42.7	21.7	0.00e+00	0	41	0	270532608	56	6236
2026-01-21 12:54:58.87	36.72	11.81	-41.7	-42.8	21.6	0.00e+00	0	41	0	272629760	56	6259
2026-01-21 12:54:59.88	36.86	11.88	-41.7	-42.8	21.5	0.00e+00	0	41	0	273678336	56	6270
2026-01-21 12:55:00.89	36.99	11.95	-41.5	-42.6	21.8	0.00e+00	0	41	0	275775488	56	6171
2026-01-21 12:55:01.90	37.13	12.02	-41.6	-42.7	21.7	0.00e+00	0	41	0	277872640	56	6227
2026-01-21 12:55:02.91	37.26	12.08	-41.4	-42.5	21.9	0.00e+00	0	41	0	279969792	56	6088
2026-01-21 12:55:03.92	37.40	12.15	-41.2	-42.3	21.9	0.00e+00	0	41	0	282066944	56	5931
2026-01-21 12:55:04.93	37.53	12.22	-41.2	-42.2	22.1	0.00e+00	0	41	0	283115520	56	5891
2026-01-21 12:55:05.94	37.67	12.29	-41.0	-42.0	22.3	0.00e+00	0	41	0	285212672	56	5752
2026-01-21 12:55:06.94	37.81	12.36	-40.9	-42.0	22.3	0.00e+00	0	41	0	287309824	56	5713
2026-01-21 12:55:07.95	37.94	12.42	-40.9	-41.9	22.3	0.00e+00	0	41	0	289406976	56	5681
2026-01-21 12:55:08.96	38.08	12.49	-40.9	-41.9	22.4	0.00e+00	0	41	0	291504128	56	5679
2026-01-21 12:55:09.97	38.22	12.56	-40.9	-42.0	22.2	0.00e+00	0	41	0	292552704	54	6413
2026-01-21 12:55:10.98	38.36	12.63	-41.1	-42.1	22.0	0.00e+00	0	41	0	294649856	54	6522
2026-01-21 12:55:11.99	38.50	12.70	-41.4	-42.5	21.7	0.00e+00	0	41	0	296747008	56	6096
2026-01-21 12:55:13.00	38.65	12.76	-41.8	-42.9	21.3	0.00e+00	0	41	0	298844160	56	6355
2026-01-21 12:55:14.01	38.79	12.83	-41.9	-43.0	21.6	0.00e+00	0	41	0	300941312	56	6413
2026-01-21 12:55:15.02	38.93	12.90	-41.4	-42.4	21.9	0.00e+00	0	41	0	301989888	56	6031
2026-01-21 12:55:16.03	39.07	12.97	-41.4	-42.5	21.9	0.00e+00	0	41	0	304087040	56	6083
2026-01-21 12:55:17.04	39.22	13.04	-41.4	-42.5	21.8	0.00e+00	0	41	0	306184192	56	6089
2026-01-21 12:55:18.05	39.36	13.11	-41.0	-42.0	22.3	0.00e+00	0	41	0	308281344	56	5726
2026-01-21 12:55:19.06	39.51	13.18	-41.1	-42.2	22.0	0.00e+00	0	41	0	310378496	56	5835
2026-01-21 12:55:20.07	39.65	13.24	-41.1	-42.2	22.2	0.00e+00	0	41	0	311427072	56	5831
2026-01-21 12:55:21.08	39.80	13.31	-41.0	-42.1	21.5	0.00e+00	0	41	0	313524224	56	5770
2026-01-21 12:55:22.09	39.95	13.38	-41.3	-42.3	21.8	0.00e+00	0	41	0	315621376	56	5948
2026-01-21 12:55:23.10	40.10	13.45	-41.2	-42.2	22.2	0.00e+00	0	41	0	317718528	56	5865
2026-01-21 12:55:24.11	40.24	13.52	-41.2	-42.2	22.1	0.00e+00	0	41	0	319815680	56	5877
2026-01-21 12:55:25.12	40.39	13.59	-41.1	-42.1	22.1	0.00e+00	0	41	0	320864256	56	5810
2026-01-21 12:55:26.13	40.54	13.66	-41.4	-42.5	22.0	0.00e+00	0	41	0	322961408	56	6034
2026-01-21 12:55:27.14	40.69	13.72	-41.3	-42.4	22.0	0.00e+00	0	41	0	325058560	56	6009
2026-01-21 12:55:28.15	40.85	13.79	-41.4	-42.5	21.9	0.00e+00	0	41	0	327155712	56	6034
2026-01-21 12:55:29.16	41.00	13.86	-41.6	-42.7	21.8	0.00e+00	0	41	0	329252864	56	6218
2026-01-21 12:55:30.17	41.15	13.93	-41.3	-42.4	22.0	0.00e+00	0	41	0	330301440	56	5996
2026-01-21 12:55:31.18	41.30	14.00	-41.3	-42.4	22.0	0.00e+00	0	41	0	332398592	56	6006
2026-01-21 12:55:32.19	41.46	14.07	-41.2	-42.3	22.1	0.00e+00	0	41	0	334495744	56	5910
2026-01-21 12:55:33.20	41.61	14.14	-41.0	-42.0	22.2	0.00e+00	0	41	0	336592896	56	5740
2026-01-21 12:55:34.21	41.77	14.21	-41.2	-42.3	22.2	0.00e+00	0	41	0	338690048	56	5897
2026-01-21 12:55:35.22	41.92	14.27	-40.9	-41.9	22.4	0.00e+00	0	41	0	340787200	56	5680
2026-01-21 12:55:36.23	42.08	14.34	-40.8	-41.8	22.5	0.00e+00	0	41	0	341835776	56	5629
2026-01-21 12:55:37.24	42.24	14.41	-41.2	-42.3	22.2	0.00e+00	0	41	0	343932928	56	5900
2026-01-21 12:55:38.25	42.40	14.48	-40.8	-41.8	22.5	0.00e+00	0	41	0	346030080	56	5590
2026-01-21 12:55:39.26	42.56	14.55	-40.7	-41.7	22.5	0.00e+00	0	41	0	348127232	54	6224
2026-01-21 12:55:40.27	42.71	14.62	-41.3	-42.4	22.0	0.00e+00	0	41	0	350224384	54	6701
2026-01-21 12:55:41.28	42.88	14.69	-40.9	-41.9	22.2	0.00e+00	0	41	0	351272960	54	6383
2026-01-21 12:55:42.29	43.04	14.76	-41.2	-42.3	22.0	0.00e+00	0	41	0	353370112	54	6643
2026-01-21 12:55:43.29	43.20	14.82	-41.1	-42.2	22.2	0.00e+00	0	41	0	355467264	54	6582
2026-01-21 12:55:44.30	43.36	14.89	-41.2	-42.3	22.1	0.00e+00	0	41	0	357564416	54	6663
2026-01-21 12:55:45.31	43.52	14.96	-40.8	-41.8	22.5	0.00e+00	0	41	0	359661568	54	6302
2026-01-21 12:55:46.32	43.69	15.03	-40.7	-41.7	22.5	0.00e+00	0	41	0	360710144	54	6214
2026-01-21 12:55:47.33	43.85	15.10	-40.8	-41.8	22.5	0.00e+00	0	41	0	362807296	54	6286
2026-01-21 12:55:48.34	44.02	15.17	-40.9	-42.0	22.3	0.00e+00	0	41	0	364904448	54	6405
2026-01-21 12:55:49.35	44.18	15.24	-40.9	-41.9	22.3	0.00e+00	0	41	0	367001600	54	6355
2026-01-21 12:55:50.36	44.35	15.31	-41.3	-42.4	22.2	0.00e+00	0	41	0	369098752	54	6748
2026-01-21 12:55:51.37	44.52	15.37	-40.8	-41.8	22.5	0.00e+00	0	41	0	370147328	54	6311
2026-01-21 12:55:52.38	44.69	15.44	-40.8	-41.8	22.6	0.00e+00	0	41	0	372244480	54	6291
2026-01-21 12:55:53.39	44.86	15.51	-40.8	-41.8	22.5	0.00e+00	0	41	0	374341632	54	6287
2026-01-21 12:55:54.40	45.03	15.58	-40.7	-41.7	22.6	0.00e+00	0	41	0	376438784	54	6212
2026-01-21 12:55:55.41	45.20	15.65	-41.8	-43.0	21.0	0.00e+00	0	41	0	378535936	54	7230
2026-01-21 12:55:56.42	45.37	15.72	-41.3	-42.3	22.2	0.00e+00	0	41	0	379584512	56	5950
2026-01-21 12:55:57.43	45.54	15.78	-41.7	-42.8	21.7	0.00e+00	0	41	0	381681664	58	5613
2026-01-21 12:55:58.44	45.71	15.85	-41.5	-42.6	21.7	0.00e+00	0	41	0	383778816	56	6150
2026-01-21 12:55:59.45	45.89	15.92	-41.6	-42.7	22.2	0.00e+00	0	41	0	385875968	56	6196
2026-01-21 12:56:00.46	46.06	15.99	-41.3	-42.4	22.2	0.00e+00	0	41	0	387973120	56	6000
2026-01-21 12:56:01.47	46.24	16.06	-41.3	-42.4	22.1	0.00e+00	0	41	0	389021696	56	5987
2026-01-21 12:56:02.47	46.41	16.13	-41.3	-42.3	22.2	0.00e+00	0	41	0	391118848	56	5950
2026-01-21 12:56:03.48	46.59	16.19	-41.3	-42.3	22.2	0.00e+00	0	41	0	393216000	56	5938
2026-01-21 12:56:04.50	46.77	16.26	-40.9	-42.0	22.3	0.00e+00	0	41	0	395313152	56	5698
2026-01-21 12:56:05.51	46.95	16.33	-41.1	-42.2	22.4	0.00e+00	0	41	0	397410304	56	5847
2026-01-21 12:56:06.51	47.12	16.40	-40.9	-41.9	22.5	0.00e+00	0	41	0	398458880	56	5695
2026-01-21 12:56:07.52	47.30	16.46	-41.1	-42.1	22.5	0.00e+00	0	41	0	400556032	56	5806
2026-01-21 12:56:08.53	47.48	16.53	-41.0	-42.0	22.5	0.00e+00	0	41	0	402653184	56	5722
2026-01-21 12:56:09.54	47.67	16.60	-41.3	-42.3	22.1	0.00e+00	0	41	0	404750336	56	5963
2026-01-21 12:56:10.55	47.85	16.67	-41.2	-42.2	22.1	0.00e+00	0	41	0	406847488	56	5880
2026-01-21 12:56:11.56	48.03	16.73	-41.0	-42.0	22.4	0.00e+00	0	41	0	408944640	56	5756
2026-01-21 12:56:12.57	48.21	16.80	-41.5	-42.6	22.1	0.00e+00	0	41	0	409993216	56	6143
2026-01-21 12:56:13.58	48.40	16.87	-41.3	-42.4	22.2	0.00e+00	0	41	0	412090368	56	6002
2026-01-21 12:56:14.59	48.59	16.94	-41.2	-42.2	22.4	0.00e+00	0	41	0	414187520	56	5895
2026-01-21 12:56:15.60	48.77	17.00	-41.1	-42.2	22.3	0.00e+00	0	41	0	416284672	56	5844
2026-01-21 12:56:16.61	48.96	17.07	-41.2	-42.3	22.3	0.00e+00	0	41	0	418381824	56	5897
2026-01-21 12:56:17.62	49.15	17.14	-40.9	-41.9	22.6	0.00e+00	0	41	0	419430400	56	5677
2026-01-21 12:56:18.63	49.34	17.20	-40.7	-41.7	22.7	0.00e+00	0	41	0	421527552	54	6230
2026-01-21 12:56:19.64	49.53	17.27	-40.7	-41.7	22.2	0.00e+00	0	41	0	423624704	54	6220
2026-01-21 12:56:20.65	49.72	17.34	-40.7	-41.7	22.7	0.00e+00	0	41	0	425721856	54	6208
2026-01-21 12:56:21.66	49.91	17.40	-40.7	-41.7	22.6	0.00e+00	0	41	0	427819008	54	6203
2026-01-21 12:56:22.67	50.10	17.47	-40.7	-41.7	22.6	0.00e+00	0	41	0	428867584	54	6205
2026-01-21 12:56:23.68	50.29	17.54	-40.6	-41.6	22.8	0.00e+00	0	41	0	430964736	54	6143
2026-01-21 12:56:24.69	50.49	17.60	-40.5	-41.5	22.8	0.00e+00	0	41	0	433061888	54	6048
2026-01-21 12:56:25.69	50.68	17.67	-40.5	-41.5	22.8	0.00e+00	0	41	0	435159040	54	6060
2026-01-21 12:56:26.70	50.87	17.73	-40.6	-41.5	22.6	0.00e+00	0	41	0	437256192	54	6099
2026-01-21 12:56:27.71	51.07	17.80	-40.6	-41.6	22.6	0.00e+00	0	41	0	438304768	54	6139
2026-01-21 12:56:28.72	51.27	17.86	-41.0	-42.1	22.5	0.00e+00	0	41	0	440401920	54	6481
2026-01-21 12:56:29.73	51.47	17.93	-41.2	-42.2	22.3	0.00e+00	0	41	0	442499072	54	6582
2026-01-21 12:56:30.74	51.66	17.99	-41.2	-42.2	22.4	0.00e+00	0	41	0	444596224	54	6598
2026-01-21 12:56:31.75	51.86	18.06	-41.1	-42.1	22.2	0.00e+00	0	41	0	446693376	54	6508
2026-01-21 12:56:32.76	52.06	18.12	-41.1	-42.2	22.4	0.00e+00	0	41	0	447741952	54	6548
2026-01-21 12:56:33.77	52.27	18.19	-40.8	-41.8	22.5	0.00e+00	0	41	0	449839104	54	6262
2026-01-21 12:56:34.78	52.47	18.25	-40.6	-41.6	22.7	0.00e+00	0	41	0	451936256	54	6147
2026-01-21 12:56:35.79	52.67	18.32	-40.5	-41.5	22.7	0.00e+00	0	41	0	454033408	54	6046
2026-01-21 12:56:36.80	52.87	18.38	-40.6	-41.6	22.7	0.00e+00	0	41	0	456130560	54	6131
2026-01-21 12:56:37.81	53.08	18.45	-40.6	-41.6	22.7	0.00e+00	0	41	0	457179136	54	6114
2026-01-21 12:56:38.82	53.28	18.51	-40.9	-41.9	22.5	0.00e+00	0	41	0	459276288	54	6358
2026-01-21 12:56:39.83	53.49	18.57	-41.1	-42.2	22.2	0.00e+00	0	41	0	461373440	54	6562
2026-01-21 12:56:40.84	53.70	18.64	-41.3	-42.4	22.0	0.00e+00	0	41	0	463470592	54	6708
2026-01-21 12:56:41.84	53.90	18.70	-41.4	-42.5	21.9	0.00e+00	0	41	0	465567744	54	6799
2026-01-21 12:56:42.85	54.11	18.76	-41.1	-42.1	22.1	0.00e+00	0	41	0	466616320	54	6507
2026-01-21 12:56:43.86	54.32	18.82	-41.2	-42.2	22.2	0.00e+00	0	41	0	468713472	54	6580
2026-01-21 12:56:44.87	54.53	18.89	-41.4	-42.5	21.7	0.00e+00	0	41	0	470810624	56	6068
2026-01-21 12:56:45.88	54.74	18.95	-41.3	-42.4	22.5	0.00e+00	0	41	0	472907776	56	5965
2026-01-21 12:56:46.89	54.96	19.01	-41.4	-42.5	22.2	0.00e+00	0	41	0	475004928	56	6068
2026-01-21 12:56:47.91	55.17	19.07	-41.5	-42.6	22.0	0.00e+00	0	41	0	477102080	56	6142
2026-01-21 12:56:48.91	55.38	19.14	-41.9	-43.0	21.7	0.00e+00	0	41	0	478150656	56	6461
2026-01-21 12:56:49.93	55.60	19.20	-42.4	-43.7	21.2	0.00e+00	0	41	0	480247808	56	6942
2026-01-21 12:56:50.94	55.82	19.26	-42.2	-43.4	21.5	0.00e+00	0	41	0	482344960	56	6724
2026-01-21 12:56:51.94	56.03	19.32	-42.2	-43.4	21.3	0.00e+00	0	41	0	484442112	56	6712
2026-01-21 12:56:52.95	56.25	19.38	-41.8	-42.9	21.7	0.00e+00	0	41	0	486539264	56	6368
2026-01-21 12:56:53.96	56.46	19.44	-41.9	-43.0	21.6	0.00e+00	0	41	0	487587840	56	6454
2026-01-21 12:56:54.97	56.68	19.50	-41.8	-42.9	21.8	0.00e+00	0	41	0	489684992	56	6354
2026-01-21 12:56:55.98	56.90	19.56	-41.9	-42.9	21.9	0.00e+00	0	41	0	491782144	56	6389
2026-01-21 12:56:56.99	57.12	19.62	-41.9	-43.0	21.7	0.00e+00	0	41	0	493879296	56	6425
2026-01-21 12:56:58.00	57.35	19.68	-42.2	-43.3	21.4	0.00e+00	0	41	0	494927872	56	6688
2026-01-21 12:56:59.01	57.57	19.74	-42.1	-43.2	21.4	0.00e+00	0	41	0	497025024	56	6615
2026-01-21 12:57:00.02	57.79	19.80	-42.4	-43.7	21.0	0.00e+00	0	41	0	499122176	56	6947
2026-01-21 12:57:01.03	58.02	19.86	-42.5	-43.7	21.1	0.00e+00	0	41	0	501219328	56	6992
2026-01-21 12:57:02.04	58.24	19.91	-42.3	-43.5	21.2	0.00e+00	0	41	0	503316480	56	6833
2026-01-21 12:57:03.05	58.47	19.97	-42.6	-43.8	20.7	0.00e+00	0	41	0	505413632	56	7040
2026-01-21 12:57:04.06	58.69	20.03	-42.5	-43.7	21.1	0.00e+00	0	41	0	506462208	56	6952
2026-01-21 12:57:05.07	58.92	20.09	-42.5	-43.7	21.0	0.00e+00	0	41	0	508559360	56	6934
2026-01-21 12:57:06.08	59.15	20.14	-42.7	-43.9	20.8	0.00e+00	0	41	0	510656512	58	6359
2026-01-21 12:57:07.08	59.37	20.20	-42.5	-43.8	20.9	0.00e+00	0	41	0	512753664	58	6249
2026-01-21 12:57:08.10	59.61	20.26	-42.4	-43.6	21.0	0.00e+00	0	41	0	514850816	58	6118
2026-01-21 12:57:09.10	59.83	20.31	-42.2	-43.4	21.2	0.00e+00	0	41	0	515899392	58	6012
2026-01-21 12:57:10.11	60.07	20.37	-41.9	-43.1	21.5	0.00e+00	0	41	0	517996544	58	5799
2026-01-21 12:57:11.12	60.30	20.42	-41.7	-42.8	21.8	0.00e+00	0	41	0	520093696	56	6276
2026-01-21 12:57:12.13	60.53	20.48	-41.6	-42.7	21.9	0.00e+00	0	41	0	522190848	56	6193
2026-01-21 12:57:13.14	60.77	20.53	-41.7	-42.8	22.0	0.00e+00	0	41	0	524288000	56	6279
2026-01-21 12:57:14.15	61.00	20.59	-41.7	-42.9	21.7	0.00e+00	0	41	0	525336576	56	6338
2026-01-21 12:57:15.16	61.24	20.64	-41.5	-42.5	22.0	0.00e+00	0	41	0	527433728	56	6091
2026-01-21 12:57:16.17	61.47	20.69	-41.4	-42.5	21.9	0.00e+00	0	41	0	529530880	56	6056
2026-01-21 12:57:17.18	61.71	20.75	-41.5	-42.6	22.0	0.00e+00	0	41	0	531628032	56	6156
2026-01-21 12:57:18.19	61.95	20.80	-41.7	-42.8	21.9	0.00e+00	0	41	0	533725184	56	6315
2026-01-21 12:57:19.20	62.19	20.85	-42.0	-43.1	21.6	0.00e+00	0	41	0	534773760	56	6484
2026-01-21 12:57:20.21	62.43	20.91	-42.1	-43.3	21.4	0.00e+00	0	41	0	536870912	56	6640
2026-01-21 12:57:21.22	62.67	20.96	-42.3	-43.5	21.3	0.00e+00	0	41	0	538968064	56	6793
2026-01-21 12:57:22.22	62.91	21.01	-42.5	-43.7	21.0	0.00e+00	0	41	0	541065216	56	6992
2026-01-21 12:57:23.23	63.15	21.06	-42.1	-43.2	21.5	0.00e+00	0	41	0	543162368	56	6589
2026-01-21 12:57:24.24	63.39	21.11	-42.0	-43.1	21.7	0.00e+00	0	41	0	544210944	56	6519
2026-01-21 12:57:25.25	63.63	21.16	-41.6	-42.7	21.8	0.00e+00	0	41	0	546308096	56	6190
2026-01-21 12:57:26.26	63.88	21.21	-41.2	-42.3	22.1	0.00e+00	0	41	0	548405248	56	5931
2026-01-21 12:57:27.27	64.12	21.26	-41.1	-42.1	22.2	0.00e+00	0	41	0	550502400	56	5814
2026-01-21 12:57:28.28	64.37	21.31	-41.2	-42.3	22.1	0.00e+00	0	41	0	552599552	56	5950
2026-01-21 12:57:29.29	64.61	21.36	-41.5	-42.6	22.0	0.00e+00	0	41	0	553648128	56	6162
2026-01-21 12:57:30.30	64.86	21.40	-41.7	-42.8	21.9	0.00e+00	0	41	0	555745280	56	6300
2026-01-21 12:57:31.31	65.11	21.45	-41.6	-42.8	21.8	0.00e+00	0	41	0	557842432	56	6253
2026-01-21 12:57:32.32	65.36	21.50	-41.5	-42.6	21.9	0.00e+00	0	41	0	559939584	56	6147
2026-01-21 12:57:33.33	65.61	21.54	-41.6	-42.7	21.8	0.00e+00	0	41	0	562036736	56	6233
2026-01-21 12:57:34.34	65.86	21.59	-41.9	-43.1	21.6	0.00e+00	0	41	0	563085312	56	6469
2026-01-21 12:57:35.35	66.11	21.64	-42.0	-43.1	21.5	0.00e+00	0	41	0	565182464	56	6508
2026-01-21 12:57:36.36	66.36	21.68	-42.4	-43.6	21.3	0.00e+00	0	41	0	567279616	56	6863
2026-01-21 12:57:37.37	66.61	21.73	-42.3	-43.5	21.3	0.00e+00	0	41	0	569376768	56	6823
2026-01-21 12:57:38.38	66.87	21.77	-42.2	-43.3	21.4	0.00e+00	0	41	0	571473920	56	6687
2026-01-21 12:57:39.39	67.12	21.81	-41.9	-43.0	21.2	0.00e+00	0	41	0	573571072	56	6430
2026-01-21 12:57:40.40	67.38	21.86	-41.3	-42.3	22.4	0.00e+00	0	41	0	574619648	56	5940
2026-01-21 12:57:41.41	67.63	21.90	-41.2	-42.2	22.3	0.00e+00	0	41	0	576716800	56	5889
2026-01-21 12:57:42.42	67.89	21.94	-41.3	-42.3	22.4	0.00e+00	0	41	0	578813952	56	5929
2026-01-21 12:57:43.43	68.14	21.98	-41.3	-42.4	22.1	0.00e+00	0	41	0	580911104	56	6006
2026-01-21 12:57:44.44	68.40	22.03	-42.0	-43.2	21.8	0.00e+00	0	41	0	583008256	56	6544
2026-01-21 12:57:45.45	68.66	22.07	-41.9	-43.1	21.6	0.00e+00	0	41	0	584056832	56	6479
2026-01-21 12:57:46.46	68.92	22.11	-42.0	-43.1	21.7	0.00e+00	0	41	0	586153984	56	6487
2026-01-21 12:57:47.47	69.18	22.15	-41.9	-43.0	21.8	0.00e+00	0	41	0	588251136	56	6453
2026-01-21 12:57:48.48	69.44	22.19	-41.5	-42.6	22.2	0.00e+00	0	41	0	590348288	56	6123
2026-01-21 12:57:49.49	69.70	22.22	-41.7	-42.8	22.1	0.00e+00	0	41	0	592445440	56	6246
2026-01-21 12:57:50.50	69.96	22.26	-41.5	-42.5	22.1	0.00e+00	0	41	0	593494016	56	6078
2026-01-21 12:57:51.51	70.22	22.30	-41.3	-42.3	22.3	0.00e+00	0	41	0	595591168	56	5944
2026-01-21 12:57:52.52	70.48	22.34	-41.3	-42.3	22.2	0.00e+00	0	41	0	597688320	56	5964
2026-01-21 12:57:53.53	70.75	22.37	-41.1	-42.1	22.3	0.00e+00	0	41	0	599785472	56	5785
2026-01-21 12:57:54.54	71.01	22.41	-41.2	-42.2	22.3	0.00e+00	0	41	0	601882624	56	5883
2026-01-21 12:57:55.54	71.27	22.44	-41.4	-42.4	22.1	0.00e+00	0	41	0	602931200	56	6019
2026-01-21 12:57:56.56	71.54	22.48	-41.8	-42.9	21.8	0.00e+00	0	41	0	605028352	56	6331
2026-01-21 12:57:57.56	71.80	22.51	-42.2	-43.3	21.9	0.00e+00	0	41	0	607125504	56	6660
2026-01-21 12:57:58.58	72.07	22.55	-41.8	-42.9	21.8	0.00e+00	0	41	0	609222656	56	6367
2026-01-21 12:57:59.59	72.34	22.58	-42.0	-43.2	21.7	0.00e+00	0	41	0	611319808	56	6545
2026-01-21 12:58:00.60	72.61	22.61	-41.9	-43.0	21.7	0.00e+00	0	41	0	612368384	56	6419
2026-01-21 12:58:01.61	72.87	22.64	-42.2	-43.4	21.4	0.00e+00	0	41	0	614465536	56	6702
2026-01-21 12:58:02.62	73.14	22.68	-42.9	-44.2	20.7	0.00e+00	0	41	0	616562688	58	6543
2026-01-21 12:58:03.63	73.41	22.71	-42.8	-44.0	20.9	0.00e+00	0	41	0	618659840	58	6433
2026-01-21 12:58:04.64	73.68	22.74	-42.2	-43.3	21.4	0.00e+00	0	41	0	620756992	58	5953
2026-01-21 12:58:05.65	73.95	22.77	-42.2	-43.3	21.4	0.00e+00	0	41	0	621805568	58	5958
2026-01-21 12:58:06.65	74.22	22.79	-42.2	-43.4	21.3	0.00e+00	0	41	0	623902720	58	5973
2026-01-21 12:58:07.66	74.49	22.82	-42.0	-43.2	21.5	0.00e+00	0	41	0	625999872	58	5844
2026-01-21 12:58:08.67	74.76	22.85	-41.7	-42.8	21.9	0.00e+00	0	41	0	628097024	56	6311
2026-01-21 12:58:09.69	75.03	22.88	-42.4	-43.6	21.4	0.00e+00	0	41	0	630194176	56	6871
2026-01-21 12:58:10.69	75.30	22.90	-42.0	-43.1	21.7	0.00e+00	0	41	0	631242752	56	6507
2026-01-21 12:58:11.70	75.58	22.93	-41.8	-42.9	21.8	0.00e+00	0	41	0	633339904	56	6322
2026-01-21 12:58:12.71	75.85	22.95	-41.6	-42.7	22.1	0.00e+00	0	41	0	635437056	56	6214
2026-01-21 12:58:13.72	76.12	22.98	-41.2	-42.2	22.5	0.00e+00	0	41	0	637534208	56	5862
2026-01-21 12:58:14.73	76.40	23.00	-40.9	-41.9	22.6	0.00e+00	0	41	0	639631360	56	5678
2026-01-21 12:58:15.73	76.67	23.03	-41.1	-42.1	22.7	0.00e+00	0	41	0	641728512	56	5806
2026-01-21 12:58:16.74	76.94	23.05	-41.4	-42.5	22.1	0.00e+00	0	41	0	642777088	56	6079
2026-01-21 12:58:17.75	77.22	23.07	-41.8	-42.9	21.9	0.00e+00	0	41	0	644874240	56	6346
2026-01-21 12:58:18.76	77.49	23.09	-42.1	-43.2	21.5	0.00e+00	0	41	0	646971392	56	6601
2026-01-21 12:58:19.77	77.77	23.11	-42.1	-43.3	21.4	0.00e+00	0	41	0	649068544	56	6624
2026-01-21 12:58:20.78	78.05	23.13	-41.6	-42.7	22.0	0.00e+00	0	41	0	651165696	56	6225
2026-01-21 12:58:21.79	78.32	23.15	-41.2	-42.2	22.2	0.00e+00	0	41	0	652214272	56	5852
2026-01-21 12:58:22.80	78.60	23.17	-41.0	-42.0	22.5	0.00e+00	0	41	0	654311424	56	5698
2026-01-21 12:58:23.81	78.88	23.19	-41.0	-42.0	22.4	0.00e+00	0	41	0	656408576	56	5746
2026-01-21 12:58:24.82	79.15	23.21	-41.1	-42.2	22.3	0.00e+00	0	41	0	658505728	56	5837
2026-01-21 12:58:25.83	79.43	23.22	-41.4	-42.5	22.1	0.00e+00	0	41	0	660602880	56	6067
2026-01-21 12:58:26.83	79.71	23.24	-41.3	-42.3	22.1	0.00e+00	0	42	0	661651456	56	5953
2026-01-21 12:58:27.84	79.99	23.25	-41.3	-42.3	22.2	0.00e+00	0	41	0	663748608	56	5928
2026-01-21 12:58:28.86	80.27	23.27	-41.0	-42.0	22.4	0.00e+00	0	41	0	665845760	56	5752
2026-01-21 12:58:29.86	80.54	23.28	-41.1	-42.1	22.4	0.00e+00	0	41	0	667942912	56	5820
2026-01-21 12:58:30.87	80.82	23.29	-41.3	-42.4	22.1	0.00e+00	0	41	0	670040064	56	5981
2026-01-21 12:58:31.89	81.11	23.31	-41.5	-42.6	21.9	0.00e+00	0	41	0	671088640	56	6135
2026-01-21 12:58:32.89	81.38	23.32	-41.8	-42.9	21.8	0.00e+00	0	41	0	673185792	56	6359
2026-01-21 12:58:33.90	81.66	23.33	-41.4	-42.5	22.1	0.00e+00	0	41	0	675282944	56	6060
2026-01-21 12:58:34.91	81.94	23.34	-41.4	-42.5	22.2	0.00e+00	0	41	0	677380096	56	6041
2026-01-21 12:58:35.92	82.22	23.35	-41.0	-42.0	22.5	0.00e+00	0	41	0	679477248	56	5726
2026-01-21 12:58:36.93	82.50	23.36	-41.1	-42.2	22.5	0.00e+00	0	41	0	680525824	56	5839
2026-01-21 12:58:37.94	82.78	23.37	-41.2	-42.3	22.2	0.00e+00	0	41	0	682622976	56	5924
2026-01-21 12:58:38.94	83.06	23.37	-41.3	-42.4	22.2	0.00e+00	0	41	0	684720128	56	5996
2026-01-21 12:58:39.95	83.34	23.38	-41.4	-42.4	22.1	0.00e+00	0	41	0	686817280	56	6033
2026-01-21 12:58:40.96	83.62	23.39	-41.3	-42.4	22.1	0.00e+00	0	41	0	688914432	56	5999
2026-01-21 12:58:41.97	83.90	23.39	-41.4	-42.5	22.1	0.00e+00	0	41	0	689963008	56	6047
2026-01-21 12:58:42.98	84.19	23.40	-41.4	-42.5	22.0	0.00e+00	0	41	0	692060160	56	6065
2026-01-21 12:58:43.99	84.47	23.40	-41.7	-42.7	21.9	0.00e+00	0	41	0	694157312	56	6238
2026-01-21 12:58:45.00	84.75	23.41	-41.5	-42.6	22.1	0.00e+00	0	41	0	696254464	56	6138
2026-01-21 12:58:46.01	85.03	23.41	-41.1	-42.1	22.3	0.00e+00	0	41	0	698351616	56	5804
2026-01-21 12:58:47.02	85.31	23.41	-41.1	-42.1	22.4	0.00e+00	0	41	0	699400192	56	5768
2026-01-21 12:58:48.03	85.59	23.41	-40.6	-41.6	22.7	0.00e+00	0	41	0	701497344	54	6143
2026-01-21 12:58:49.04	85.87	23.41	-40.9	-41.9	22.5	0.00e+00	0	41	0	703594496	54	6378
2026-01-21 12:58:50.05	86.16	23.41	-40.9	-42.0	22.4	0.00e+00	0	41	0	705691648	54	6396
2026-01-21 12:58:51.06	86.44	23.41	-40.7	-41.7	22.6	0.00e+00	0	41	0	707788800	54	6230
2026-01-21 12:58:52.07	86.72	23.41	-40.8	-41.8	22.4	0.00e+00	0	41	0	709885952	54	6309
2026-01-21 12:58:53.08	87.00	23.41	-41.0	-42.0	22.4	0.00e+00	0	41	0	710934528	54	6430
2026-01-21 12:58:54.08	87.28	23.41	-40.7	-41.7	22.6	0.00e+00	0	41	0	713031680	54	6187
2026-01-21 12:58:55.09	87.56	23.40	-40.7	-41.7	22.6	0.00e+00	0	41	0	715128832	54	6185
2026-01-21 12:58:56.10	87.84	23.40	-40.4	-41.3	22.9	0.00e+00	0	41	0	717225984	54	5940
2026-01-21 12:58:57.11	88.12	23.39	-40.1	-41.0	23.2	0.00e+00	0	41	0	719323136	54	5761
2026-01-21 12:58:58.12	88.40	23.39	-40.0	-41.0	23.2	0.00e+00	0	41	0	720371712	54	5704
2026-01-21 12:58:59.13	88.69	23.38	-39.9	-40.8	23.3	0.00e+00	0	41	0	722468864	54	5604
2026-01-21 12:59:00.14	88.97	23.37	-40.0	-40.9	23.3	0.00e+00	0	41	0	724566016	54	5654
2026-01-21 12:59:01.15	89.25	23.37	-40.2	-41.1	23.0	0.00e+00	0	41	0	726663168	54	5819
2026-01-21 12:59:02.16	89.53	23.36	-40.3	-41.2	22.9	0.00e+00	0	41	0	728760320	54	5895
2026-01-21 12:59:03.17	89.81	23.35	-40.3	-41.3	22.9	0.00e+00	0	41	0	729808896	54	5919
2026-01-21 12:59:04.18	90.09	23.34	-40.5	-41.4	22.8	0.00e+00	0	41	0	731906048	54	6023
2026-01-21 12:59:05.19	90.37	23.33	-40.6	-41.6	22.7	0.00e+00	0	41	0	734003200	54	6111
2026-01-21 12:59:06.20	90.65	23.32	-40.6	-41.6	22.7	0.00e+00	0	41	0	736100352	54	6158
2026-01-21 12:59:07.21	90.93	23.30	-40.9	-41.9	22.4	0.00e+00	0	41	0	738197504	54	6360
2026-01-21 12:59:08.22	91.21	23.29	-40.8	-41.8	22.5	0.00e+00	0	41	0	739246080	54	6308
2026-01-21 12:59:09.23	91.49	23.28	-40.9	-41.9	22.4	0.00e+00	0	42	0	741343232	54	6330
2026-01-21 12:59:10.24	91.77	23.26	-40.9	-41.9	22.4	0.00e+00	0	41	0	743440384	54	6356
2026-01-21 12:59:11.25	92.05	23.25	-41.3	-42.4	22.2	0.00e+00	0	41	0	745537536	54	6695
2026-01-21 12:59:12.26	92.32	23.23	-41.0	-42.0	22.4	0.00e+00	0	41	0	747634688	54	6425
2026-01-21 12:59:13.27	92.60	23.22	-40.8	-41.8	22.5	0.00e+00	0	41	0	748683264	54	6293
2026-01-21 12:59:14.28	92.88	23.20	-40.9	-41.9	22.5	0.00e+00	0	41	0	750780416	54	6324
2026-01-21 12:59:15.29	93.16	23.18	-40.4	-41.4	22.9	0.00e+00	0	41	0	752877568	54	5972
2026-01-21 12:59:16.30	93.44	23.16	-40.4	-41.4	22.8	0.00e+00	0	42	0	754974720	54	5990
2026-01-21 12:59:17.31	93.71	23.15	-40.3	-41.2	22.9	0.00e+00	0	41	0	757071872	54	5888
2026-01-21 12:59:18.32	93.99	23.13	-40.7	-41.7	22.6	0.00e+00	0	41	0	758120448	54	6176
2026-01-21 12:59:19.33	94.27	23.11	-40.8	-41.8	22.5	0.00e+00	0	41	0	760217600	54	6279
2026-01-21 12:59:20.34	94.54	23.09	-40.8	-41.9	22.4	0.00e+00	0	41	0	762314752	54	6349
2026-01-21 12:59:21.35	94.82	23.06	-40.8	-41.8	22.5	0.00e+00	0	41	0	764411904	54	6292
2026-01-21 12:59:22.36	95.09	23.04	-40.5	-41.5	22.7	0.00e+00	0	41	0	766509056	54	6061
2026-01-21 12:59:23.36	95.37	23.02	-40.0	-40.9	23.2	0.00e+00	0	41	0	767557632	54	5679
2026-01-21 12:59:24.38	95.64	23.00	-40.0	-41.0	23.2	0.00e+00	0	41	0	769654784	54	5696
2026-01-21 12:59:25.39	95.92	22.97	-39.8	-40.7	23.3	0.00e+00	0	41	0	771751936	52	6204
2026-01-21 12:59:26.39	96.19	22.95	-39.9	-40.8	23.3	0.00e+00	0	41	0	773849088	52	6308
2026-01-21 12:59:27.40	96.46	22.92	-40.1	-41.1	23.2	0.00e+00	0	41	0	775946240	52	6497
2026-01-21 12:59:28.41	96.74	22.90	-40.1	-41.1	23.2	0.00e+00	0	41	0	778043392	52	6509
2026-01-21 12:59:29.42	97.01	22.87	-40.0	-41.0	23.1	0.00e+00	0	41	0	779091968	52	6405
2026-01-21 12:59:30.43	97.28	22.84	-39.5	-40.4	23.5	0.00e+00	0	41	0	781189120	52	6017
2026-01-21 12:59:31.44	97.55	22.81	-39.2	-40.1	23.9	0.00e+00	0	42	0	783286272	52	5773
2026-01-21 12:59:32.45	97.82	22.79	-39.2	-40.0	23.8	0.00e+00	0	42	0	785383424	52	5742
2026-01-21 12:59:33.46	98.09	22.76	-39.3	-40.2	23.7	0.00e+00	0	41	0	787480576	52	5866
2026-01-21 12:59:34.47	98.36	22.73	-39.5	-40.4	23.6	0.00e+00	0	41	0	788529152	52	6004
2026-01-21 12:59:35.48	98.63	22.70	-39.7	-40.6	23.4	0.00e+00	0	41	0	790626304	52	6173
2026-01-21 12:59:36.49	98.90	22.67	-39.9	-40.8	23.3	0.00e+00	0	41	0	792723456	52	6282
2026-01-21 12:59:37.50	99.17	22.63	-40.0	-40.9	23.1	0.00e+00	0	41	0	794820608	52	6385
2026-01-21 12:59:38.51	99.44	22.60	-39.8	-40.8	23.3	0.00e+00	0	41	0	796917760	52	6268
2026-01-21 12:59:39.52	99.71	22.57	-39.9	-40.8	23.3	0.00e+00	0	42	0	797966336	52	6283
2026-01-21 12:59:40.53	99.97	22.54	-39.8	-40.7	23.3	0.00e+00	0	42	0	800063488	52	6208
2026-01-21 12:59:41.54	100.24	22.50	-39.9	-40.8	23.3	0.00e+00	0	41	0	802160640	52	6279
2026-01-21 12:59:42.55	100.51	22.47	-39.8	-40.7	23.4	0.00e+00	0	41	0	804257792	52	6191
2026-01-21 12:59:43.56	100.77	22.43	-39.9	-40.8	23.3	0.00e+00	0	42	0	806354944	52	6267
2026-01-21 12:59:44.57	101.04	22.40	-39.8	-40.7	23.5	0.00e+00	0	42	0	807403520	52	6179
2026-01-21 12:59:45.58	101.30	22.36	-39.4	-40.3	23.6	0.00e+00	0	42	0	809500672	52	5932
2026-01-21 12:59:46.59	101.56	22.32	-39.3	-40.2	23.9	0.00e+00	0	42	0	811597824	52	5883
2026-01-21 12:59:47.60	101.83	22.29	-39.0	-39.8	24.1	0.00e+00	0	41	0	813694976	52	5612
2026-01-21 12:59:48.60	102.09	22.25	-38.8	-39.7	24.1	0.00e+00	0	42	0	815792128	52	5503
2026-01-21 12:59:49.61	102.35	22.21	-38.8	-39.6	24.2	0.00e+00	0	42	0	816840704	50	6168
2026-01-21 12:59:50.62	102.61	22.17	-38.7	-39.6	24.2	0.00e+00	0	41	0	818937856	50	6115
2026-01-21 12:59:51.63	102.87	22.13	-38.7	-39.5	24.3	0.00e+00	0	42	0	821035008	50	6102
2026-01-21 12:59:52.64	103.13	22.09	-38.5	-39.3	24.5	0.00e+00	0	42	0	823132160	50	5946
2026-01-21 12:59:53.65	103.39	22.05	-38.6	-39.5	24.4	0.00e+00	0	42	0	825229312	50	6035
2026-01-21 12:59:54.66	103.65	22.01	-38.7	-39.5	24.2	0.00e+00	0	42	0	826277888	50	6091
2026-01-21 12:59:55.67	103.91	21.97	-39.1	-40.0	23.8	0.00e+00	0	41	0	828375040	50	6411
2026-01-21 12:59:56.68	104.16	21.93	-39.1	-40.0	23.9	0.00e+00	0	41	0	830472192	50	6428
2026-01-21 12:59:57.69	104.42	21.88	-39.1	-40.0	23.8	0.00e+00	0	41	0	832569344	50	6418
2026-01-21 12:59:58.70	104.67	21.84	-39.0	-39.9	24.0	0.00e+00	0	41	0	834666496	50	6364
2026-01-21 12:59:59.71	104.93	21.80	-38.9	-39.7	24.1	0.00e+00	0	42	0	835715072	50	6244
2026-01-21 13:00:00.72	105.18	21.75	-39.0	-39.9	24.0	0.00e+00	0	41	0	837812224	50	6334
2026-01-21 13:00:01.73	105.44	21.71	-39.2	-40.1	23.7	0.00e+00	0	41	0	839909376	50	6520
2026-01-21 13:00:02.74	105.69	21.66	-39.4	-40.3	23.8	0.00e+00	0	42	0	842006528	50	6633
2026-01-21 13:00:03.75	105.94	21.62	-39.3	-40.2	23.8	0.00e+00	0	41	0	844103680	50	6575
2026-01-21 13:00:04.76	106.19	21.57	-39.3	-40.2	23.8	0.00e+00	0	42	0	846200832	50	6546
2026-01-21 13:00:05.76	106.44	21.53	-39.3	-40.2	23.7	0.00e+00	0	42	0	847249408	50	6593
2026-01-21 13:00:06.77	106.69	21.48	-39.4	-40.3	23.7	0.00e+00	0	41	0	849346560	50	6632
2026-01-21 13:00:07.78	106.94	21.43	-39.4	-40.3	23.7	0.00e+00	0	41	0	851443712	50	6667
2026-01-21 13:00:08.79	107.19	21.38	-39.4	-40.3	23.6	0.00e+00	0	41	0	853540864	50	6672
2026-01-21 13:00:09.80	107.44	21.34	-39.5	-40.4	23.7	0.00e+00	0	41	0	855638016	50	6720
2026-01-21 13:00:10.82	107.69	21.29	-39.6	-40.5	23.5	0.00e+00	0	42	0	856686592	50	6842
2026-01-21 13:00:11.82	107.93	21.24	-39.6	-40.5	23.4	0.00e+00	0	42	0	858783744	52	6065
2026-01-21 13:00:12.83	108.18	21.19	-39.6	-40.6	23.5	0.00e+00	0	41	0	860880896	52	6104
2026-01-21 13:00:13.84	108.42	21.14	-39.8	-40.7	23.3	0.00e+00	0	42	0	862978048	52	6220
2026-01-21 13:00:14.85	108.67	21.09	-39.7	-40.6	23.3	0.00e+00	0	42	0	865075200	52	6172
2026-01-21 13:00:15.86	108.91	21.04	-39.6	-40.5	23.6	0.00e+00	0	41	0	866123776	52	6081
2026-01-21 13:00:16.87	109.15	20.99	-39.4	-40.3	23.6	0.00e+00	0	42	0	868220928	52	5928
2026-01-21 13:00:17.88	109.39	20.93	-39.2	-40.1	23.7	0.00e+00	0	42	0	870318080	52	5799
2026-01-21 13:00:18.89	109.63	20.88	-39.5	-40.4	23.6	0.00e+00	0	42	0	872415232	52	6000
2026-01-21 13:00:19.90	109.87	20.83	-39.8	-40.7	23.0	0.00e+00	0	42	0	874512384	52	6244
2026-01-21 13:00:20.91	110.11	20.78	-40.2	-41.2	22.9	0.00e+00	0	42	0	875560960	52	6570
2026-01-21 13:00:21.92	110.35	20.72	-40.4	-41.4	22.9	0.00e+00	0	41	0	877658112	52	6695
2026-01-21 13:00:22.93	110.59	20.67	-40.4	-41.4	22.8	0.00e+00	0	42	0	879755264	52	6744
2026-01-21 13:00:23.94	110.83	20.62	-40.6	-41.6	22.6	0.00e+00	0	42	0	881852416	52	6915
2026-01-21 13:00:24.95	111.06	20.56	-40.7	-41.8	22.5	0.00e+00	0	42	0	883949568	54	6272
2026-01-21 13:00:25.96	111.30	20.51	-41.0	-42.0	22.3	0.00e+00	0	42	0	884998144	54	6440
2026-01-21 13:00:26.97	111.53	20.45	-41.0	-42.1	22.1	0.00e+00	0	42	0	887095296	54	6519
2026-01-21 13:00:27.98	111.77	20.40	-41.1	-42.1	22.1	0.00e+00	0	42	0	889192448	54	6526
2026-01-21 13:00:28.99	112.00	20.34	-40.7	-41.7	22.2	0.00e+00	0	42	0	891289600	54	6229
2026-01-21 13:00:30.00	112.23	20.28	-40.3	-41.3	22.8	0.00e+00	0	41	0	893386752	54	5933
2026-01-21 13:00:31.01	112.46	20.23	-39.9	-40.9	23.1	0.00e+00	0	42	0	894435328	54	5666
2026-01-21 13:00:32.02	112.69	20.17	-40.1	-41.1	22.8	0.00e+00	0	42	0	896532480	52	6497
2026-01-21 13:00:33.03	112.92	20.11	-40.1	-41.2	22.8	0.00e+00	0	42	0	898629632	52	6558
2026-01-21 13:00:34.04	113.15	20.06	-40.5	-41.6	22.6	0.00e+00	0	42	0	900726784	52	6860
2026-01-21 13:00:35.05	113.38	20.00	-41.0	-42.2	22.0	0.00e+00	0	41	0	902823936	54	6572
2026-01-21 13:00:36.06	113.60	19.94	-40.7	-41.9	22.3	0.00e+00	0	42	0	903872512	54	6332
2026-01-21 13:00:37.07	113.83	19.88	-40.7	-41.8	22.2	0.00e+00	0	41	0	905969664	54	6291
2026-01-21 13:00:38.08	114.06	19.82	-41.0	-42.1	21.9	0.00e+00	0	42	0	908066816	54	6523
2026-01-21 13:00:39.09	114.28	19.76	-41.2	-42.4	21.9	0.00e+00	0	41	0	910163968	54	6701
2026-01-21 13:00:40.10	114.50	19.71	-41.3	-42.4	22.0	0.00e+00	0	42	0	912261120	54	6721
2026-01-21 13:00:41.11	114.73	19.65	-41.7	-42.9	21.6	0.00e+00	0	41	0	914358272	56	6351
2026-01-21 13:00:42.12	114.95	19.59	-41.1	-42.2	22.0	0.00e+00	0	42	0	915406848	56	5851
2026-01-21 13:00:43.13	115.17	19.53	-41.3	-42.4	21.8	0.00e+00	0	42	0	917504000	56	6026
2026-01-21 13:00:44.14	115.39	19.47	-41.5	-42.6	21.8	0.00e+00	0	41	0	919601152	56	6155
2026-01-21 13:00:45.15	115.61	19.41	-41.6	-42.7	21.8	0.00e+00	0	42	0	921698304	56	6243
2026-01-21 13:00:46.16	115.83	19.34	-41.5	-42.7	21.7	0.00e+00	0	42	0	923795456	56	6177
2026-01-21 13:00:47.17	116.05	19.28	-41.1	-42.2	22.1	0.00e+00	0	42	0	924844032	56	5869
2026-01-21 13:00:48.18	116.26	19.22	-40.9	-41.9	22.3	0.00e+00	0	41	0	926941184	56	5665
2026-01-21 13:00:49.19	116.48	19.16	-40.8	-41.8	22.4	0.00e+00	0	42	0	929038336	56	5621
2026-01-21 13:00:50.20	116.69	19.10	-40.9	-41.9	22.4	0.00e+00	0	42	0	931135488	54	6355
2026-01-21 13:00:51.21	116.91	19.04	-40.7	-41.7	22.4	0.00e+00	0	42	0	933232640	54	6216
2026-01-21 13:00:52.22	117.12	18.97	-41.2	-42.3	21.9	0.00e+00	0	42	0	934281216	54	6628
2026-01-21 13:00:53.23	117.33	18.91	-41.3	-42.4	21.9	0.00e+00	0	42	0	936378368	54	6710
2026-01-21 13:00:54.24	117.55	18.85	-41.0	-42.1	22.0	0.00e+00	0	42	0	938475520	54	6524
2026-01-21 13:00:55.25	117.76	18.79	-41.1	-42.2	22.1	0.00e+00	0	42	0	940572672	54	6600
2026-01-21 13:00:56.26	117.97	18.72	-41.0	-42.1	22.1	0.00e+00	0	42	0	942669824	54	6481
2026-01-21 13:00:57.27	118.18	18.66	-40.8	-41.9	22.4	0.00e+00	0	42	0	943718400	54	6350
2026-01-21 13:00:58.28	118.38	18.60	-40.7	-41.8	22.4	0.00e+00	0	42	0	945815552	54	6253
2026-01-21 13:00:59.29	118.59	18.53	-40.9	-41.9	22.2	0.00e+00	0	42	0	947912704	54	6371
2026-01-21 13:01:00.30	118.80	18.47	-41.3	-42.5	21.9	0.00e+00	0	42	0	950009856	54	6772
2026-01-21 13:01:01.31	119.00	18.40	-41.3	-42.4	21.8	0.00e+00	0	42	0	952107008	54	6721
2026-01-21 13:01:02.32	119.21	18.34	-41.4	-42.5	21.8	0.00e+00	0	42	0	953155584	54	6795
2026-01-21 13:01:03.33	119.41	18.27	-41.2	-42.3	21.9	0.00e+00	0	42	0	955252736	54	6679
2026-01-21 13:01:04.34	119.62	18.21	-41.1	-42.3	21.9	0.00e+00	0	42	0	957349888	54	6654
2026-01-21 13:01:05.35	119.82	18.14	-41.0	-42.1	22.1	0.00e+00	0	41	0	959447040	54	6502
2026-01-21 13:01:06.36	120.02	18.08	-40.7	-41.8	22.3	0.00e+00	0	42	0	961544192	54	6282
2026-01-21 13:01:07.36	120.22	18.01	-40.9	-42.1	22.0	0.00e+00	0	42	0	962592768	54	6483
2026-01-21 13:01:08.37	120.42	17.95	-40.8	-41.9	22.2	0.00e+00	0	42	0	964689920	54	6384
2026-01-21 13:01:09.39	120.62	17.88	-41.0	-42.2	22.0	0.00e+00	0	42	0	966787072	54	6553
2026-01-21 13:01:10.39	120.82	17.82	-40.9	-42.0	22.2	0.00e+00	0	42	0	968884224	54	6444
2026-01-21 13:01:11.40	121.01	17.75	-40.8	-41.9	22.2	0.00e+00	0	41	0	970981376	54	6331
2026-01-21 13:01:12.41	121.21	17.69	-40.7	-41.7	22.4	0.00e+00	0	42	0	972029952	54	6225
2026-01-21 13:01:13.42	121.41	17.62	-40.4	-41.4	22.7	0.00e+00	0	42	0	974127104	54	5974
2026-01-21 13:01:14.43	121.60	17.55	-40.5	-41.4	22.6	0.00e+00	0	42	0	976224256	54	6030
2026-01-21 13:01:15.44	121.80	17.49	-40.3	-41.3	22.6	0.00e+00	0	42	0	978321408	54	5945
2026-01-21 13:01:16.45	121.99	17.42	-40.4	-41.4	22.6	0.00e+00	0	42	0	980418560	54	6005
2026-01-21 13:01:17.45	122.18	17.35	-40.4	-41.4	22.7	0.00e+00	0	42	0	982515712	54	6001
2026-01-21 13:01:18.46	122.37	17.29	-40.7	-41.7	22.4	0.00e+00	0	42	0	983564288	54	6236
2026-01-21 13:01:19.47	122.56	17.22	-40.9	-42.0	22.2	0.00e+00	0	41	0	985661440	54	6399
2026-01-21 13:01:20.48	122.75	17.15	-40.8	-41.8	22.4	0.00e+00	0	42	0	987758592	54	6300
2026-01-21 13:01:21.49	122.94	17.09	-41.0	-42.1	22.1	0.00e+00	0	42	0	989855744	54	6486
2026-01-21 13:01:22.50	123.13	17.02	-40.8	-41.9	22.2	0.00e+00	0	42	0	990904320	54	6357
2026-01-21 13:01:23.51	123.32	16.95	-40.9	-41.9	22.2	0.00e+00	0	42	0	993001472	54	6386
2026-01-21 13:01:24.52	123.50	16.88	-41.0	-42.1	22.1	0.00e+00	0	42	0	995098624	54	6500
2026-01-21 13:01:25.52	123.69	16.82	-41.2	-42.3	21.9	0.00e+00	0	42	0	997195776	54	6683
2026-01-21 13:01:26.53	123.87	16.75	-41.5	-42.6	21.6	0.00e+00	0	42	0	999292928	54	6896
2026-01-21 13:01:27.54	124.06	16.68	-42.0	-43.3	21.1	0.00e+00	0	42	0	1000341504	56	6629
2026-01-21 13:01:28.55	124.24	16.61	-42.1	-43.3	21.1	0.00e+00	0	42	0	1002438656	56	6678
2026-01-21 13:01:29.56	124.42	16.54	-42.2	-43.5	20.9	0.00e+00	0	42	0	1004535808	56	6827
2026-01-21 13:01:30.57	124.60	16.48	-42.0	-43.2	21.2	0.00e+00	0	42	0	1006632960	56	6615
2026-01-21 13:01:31.58	124.79	16.41	-41.7	-42.8	21.6	0.00e+00	0	42	0	1008730112	56	6313
2026-01-21 13:01:32.59	124.97	16.34	-41.2	-42.2	21.9	0.00e+00	0	42	0	1010827264	56	5891
2026-01-21 13:01:33.60	125.15	16.27	-40.6	-41.6	22.5	0.00e+00	0	42	0	1011875840	54	6155
2026-01-21 13:01:34.61	125.32	16.20	-40.3	-41.4	22.7	0.00e+00	0	42	0	1013972992	54	5988
2026-01-21 13:01:35.62	125.50	16.14	-40.3	-41.3	22.7	0.00e+00	0	42	0	1016070144	54	5945
2026-01-21 13:01:36.63	125.68	16.07	-40.8	-41.9	22.4	0.00e+00	0	42	0	1018167296	54	6340
2026-01-21 13:01:37.64	125.86	16.00	-41.1	-42.2	22.0	0.00e+00	0	42	0	1020264448	54	6589
2026-01-21 13:01:38.65	126.03	15.93	-41.1	-42.3	22.0	0.00e+00	0	42	0	1021313024	54	6638
2026-01-21 13:01:39.66	126.21	15.86	-41.2	-42.4	21.8	0.00e+00	0	42	0	1023410176	54	6719
2026-01-21 13:01:40.67	126.38	15.79	-41.3	-42.5	21.8	0.00e+00	0	42	0	1025507328	54	6787
2026-01-21 13:01:41.68	126.55	15.72	-41.2	-42.3	21.9	0.00e+00	0	42	0	1027604480	54	6639
2026-01-21 13:01:42.69	126.73	15.65	-40.9	-42.0	22.1	0.00e+00	0	42	0	1029701632	54	6397
2026-01-21 13:01:43.70	126.90	15.59	-40.6	-41.6	22.4	0.00e+00	0	42	0	1030750208	54	6122
2026-01-21 13:01:44.71	127.07	15.52	-40.4	-41.4	22.5	0.00e+00	0	42	0	1032847360	54	5974
2026-01-21 13:01:45.72	127.24	15.45	-40.3	-41.2	22.7	0.00e+00	0	42	0	1034944512	54	5896
2026-01-21 13:01:46.73	127.41	15.38	-40.5	-41.5	22.6	0.00e+00	0	42	0	1037041664	54	6068
2026-01-21 13:01:47.74	127.58	15.31	-40.6	-41.6	22.5	0.00e+00	0	42	0	1039138816	54	6141
2026-01-21 13:01:48.75	127.74	15.24	-40.8	-41.8	22.3	0.00e+00	0	42	0	1040187392	54	6273
2026-01-21 13:01:49.76	127.91	15.17	-40.9	-42.0	22.1	0.00e+00	0	42	0	1042284544	54	6411
2026-01-21 13:01:50.77	128.08	15.10	-41.0	-42.1	22.0	0.00e+00	0	42	0	1044381696	54	6532
2026-01-21 13:01:51.78	128.24	15.03	-41.1	-42.2	21.9	0.00e+00	0	42	0	1046478848	54	6605
2026-01-21 13:01:52.78	128.41	14.96	-41.1	-42.2	21.9	0.00e+00	0	42	0	1048576000	54	6607
2026-01-21 13:01:53.79	128.57	14.89	-40.8	-41.8	22.3	0.00e+00	0	42	0	1049624576	54	6299
2026-01-21 13:01:54.80	128.73	14.83	-40.9	-42.0	22.2	0.00e+00	0	42	0	1051721728	54	6391
2026-01-21 13:01:55.81	128.90	14.76	-40.9	-41.9	22.2	0.00e+00	0	42	0	1053818880	54	6365
2026-01-21 13:01:56.82	129.06	14.69	-41.0	-42.0	22.1	0.00e+00	0	42	0	1055916032	54	6456
2026-01-21 13:01:57.83	129.22	14.62	-41.3	-42.4	21.8	0.00e+00	0	42	0	1058013184	54	6730
2026-01-21 13:01:58.84	129.38	14.55	-41.4	-42.5	21.7	0.00e+00	0	42	0	1059061760	54	6805
2026-01-21 13:01:59.85	129.54	14.48	-41.5	-42.7	21.5	0.00e+00	0	42	0	1061158912	54	6962
2026-01-21 13:02:00.86	129.70	14.41	-41.8	-43.0	21.3	0.00e+00	0	42	0	1063256064	56	6415
2026-01-21 13:02:01.87	129.86	14.34	-41.8	-43.0	21.4	0.00e+00	0	42	0	1065353216	56	6404
2026-01-21 13:02:02.88	130.02	14.27	-41.5	-42.6	21.6	0.00e+00	0	42	0	1067450368	56	6161
2026-01-21 13:02:03.88	130.17	14.20	-41.2	-42.3	22.0	0.00e+00	0	42	0	1068498944	56	5944
2026-01-21 13:02:04.89	130.33	14.13	-41.3	-42.4	21.7	0.00e+00	0	42	0	1070596096	56	6027
2026-01-21 13:02:05.91	130.48	14.06	-41.2	-42.3	21.9	0.00e+00	0	42	0	1072693248	56	5930
2026-01-21 13:02:06.92	130.64	13.99	-41.0	-42.1	22.1	0.00e+00	0	42	0	1074790400	56	5800
2026-01-21 13:02:07.93	130.79	13.92	-41.3	-42.4	21.9	0.00e+00	0	42	0	1076887552	56	6000
2026-01-21 13:02:08.94	130.95	13.85	-41.5	-42.6	21.6	0.00e+00	0	42	0	1078984704	56	6157
2026-01-21 13:02:09.94	131.10	13.79	-42.0	-43.2	21.2	0.00e+00	0	42	0	1080033280	56	6571
2026-01-21 13:02:10.96	131.25	13.72	-42.3	-43.5	20.9	0.00e+00	0	42	0	1082130432	56	6820
2026-01-21 13:02:11.97	131.40	13.65	-42.3	-43.6	20.9	0.00e+00	0	42	0	1084227584	56	6885
2026-01-21 13:02:12.98	131.55	13.58	-42.5	-43.8	20.7	0.00e+00	0	42	0	1086324736	56	7021
2026-01-21 13:02:13.98	131.70	13.51	-42.3	-43.6	20.8	0.00e+00	0	42	0	1088421888	56	6890
2026-01-21 13:02:14.99	131.85	13.44	-42.2	-43.5	20.9	0.00e+00	0	42	0	1089470464	56	6808
2026-01-21 13:02:16.00	132.00	13.37	-41.9	-43.2	21.3	0.00e+00	0	42	0	1091567616	56	6548
2026-01-21 13:02:17.01	132.15	13.30	-41.7	-42.9	21.4	0.00e+00	0	42	0	1093664768	56	6342
2026-01-21 13:02:18.02	132.30	13.23	-41.6	-42.8	21.6	0.00e+00	0	42	0	1095761920	56	6261
2026-01-21 13:02:19.03	132.44	13.16	-41.4	-42.5	21.8	0.00e+00	0	42	0	1097859072	56	6103
2026-01-21 13:02:20.04	132.59	13.09	-41.3	-42.4	21.8	0.00e+00	0	42	0	1098907648	56	5974
2026-01-21 13:02:21.05	132.73	13.03	-41.4	-42.5	21.7	0.00e+00	0	42	0	1101004800	56	6100
2026-01-21 13:02:22.06	132.88	12.96	-41.4	-42.5	21.7	0.00e+00	0	42	0	1103101952	56	6094
2026-01-21 13:02:23.07	133.02	12.89	-41.4	-42.5	21.7	0.00e+00	0	42	0	1105199104	56	6085
2026-01-21 13:02:24.08	133.17	12.82	-41.1	-42.2	21.9	0.00e+00	0	42	0	1107296256	56	5875
2026-01-21 13:02:25.09	133.31	12.75	-41.1	-42.2	22.0	0.00e+00	0	42	0	1108344832	56	5867
2026-01-21 13:02:26.10	133.45	12.68	-41.2	-42.3	21.8	0.00e+00	0	42	0	1110441984	56	5915
2026-01-21 13:02:27.11	133.59	12.61	-41.3	-42.4	21.8	0.00e+00	0	42	0	1112539136	56	6018
2026-01-21 13:02:28.11	133.73	12.54	-41.4	-42.5	21.6	0.00e+00	0	42	0	1114636288	56	6069
2026-01-21 13:02:29.12	133.87	12.47	-41.8	-42.9	21.4	0.00e+00	0	42	0	1116733440	56	6371
2026-01-21 13:02:30.13	134.01	12.41	-41.0	-42.0	22.1	0.00e+00	0	42	0	1117782016	56	5739
2026-01-21 13:02:31.14	134.15	12.34	-40.9	-42.0	22.0	0.00e+00	0	42	0	1119879168	56	5725
2026-01-21 13:02:32.15	134.29	12.27	-40.9	-42.0	22.0	0.00e+00	0	42	0	1121976320	56	5727
2026-01-21 13:02:33.16	134.43	12.20	-41.0	-42.1	21.6	0.00e+00	0	42	0	1124073472	56	5812
2026-01-21 13:02:34.17	134.56	12.13	-41.1	-42.2	21.9	0.00e+00	0	42	0	1126170624	56	5880
2026-01-21 13:02:35.18	134.70	12.06	-41.2	-42.3	21.8	0.00e+00	0	42	0	1127219200	56	5904
2026-01-21 13:02:36.19	134.84	11.99	-41.4	-42.5	21.6	0.00e+00	0	42	0	1129316352	56	6056
2026-01-21 13:02:37.20	134.97	11.93	-41.6	-42.8	21.4	0.00e+00	0	42	0	1131413504	56	6263
2026-01-21 13:02:38.21	135.11	11.86	-41.5	-42.6	21.5	0.00e+00	0	42	0	1133510656	56	6173
2026-01-21 13:02:39.22	135.24	11.79	-41.3	-42.4	21.6	0.00e+00	0	42	0	1135607808	56	6021
2026-01-21 13:02:40.23	135.37	11.72	-41.2	-42.3	21.8	0.00e+00	0	42	0	1136656384	56	5921
2026-01-21 13:02:41.24	135.51	11.65	-41.2	-42.3	21.7	0.00e+00	0	42	0	1138753536	56	5951
2026-01-21 13:02:42.25	135.64	11.58	-41.1	-42.2	21.9	0.00e+00	0	42	0	1140850688	56	5864
2026-01-21 13:02:43.26	135.77	11.52	-41.2	-42.3	21.8	0.00e+00	0	42	0	1142947840	56	5952
2026-01-21 13:02:44.27	135.90	11.45	-41.1	-42.2	21.8	0.00e+00	0	42	0	1145044992	56	5885
2026-01-21 13:02:45.28	136.03	11.38	-41.0	-42.1	21.9	0.00e+00	0	42	0	1146093568	56	5807
2026-01-21 13:02:46.29	136.16	11.31	-41.1	-42.2	21.9	0.00e+00	0	42	0	1148190720	56	5840
2026-01-21 13:02:47.30	136.29	11.24	-41.4	-42.5	21.7	0.00e+00	0	42	0	1150287872	56	6046
2026-01-21 13:02:48.31	136.42	11.18	-41.4	-42.5	21.6	0.00e+00	0	42	0	1152385024	56	6097
2026-01-21 13:02:49.32	136.55	11.11	-41.2	-42.3	21.8	0.00e+00	0	42	0	1154482176	56	5909
2026-01-21 13:02:50.32	136.67	11.04	-41.5	-42.6	21.6	0.00e+00	0	42	0	1156579328	56	6139
2026-01-21 13:02:51.33	136.80	10.97	-41.3	-42.4	21.7	0.00e+00	0	42	0	1157627904	56	6005
2026-01-21 13:02:52.34	136.93	10.91	-41.5	-42.6	21.5	0.00e+00	0	42	0	1159725056	56	6156
2026-01-21 13:02:53.36	137.05	10.84	-41.6	-42.8	21.3	0.00e+00	0	42	0	1161822208	56	6279
2026-01-21 13:02:54.36	137.18	10.77	-41.6	-42.7	21.5	0.00e+00	0	42	0	1163919360	56	6220
2026-01-21 13:02:55.37	137.30	10.70	-41.7	-42.9	21.3	0.00e+00	0	42	0	1166016512	56	6335
2026-01-21 13:02:56.38	137.43	10.64	-41.6	-42.8	21.5	0.00e+00	0	42	0	1167065088	56	6257
2026-01-21 13:02:57.39	137.55	10.57	-41.7	-42.8	21.1	0.00e+00	0	42	0	1169162240	56	6306
2026-01-21 13:02:58.40	137.67	10.50	-42.2	-43.5	20.7	0.00e+00	0	42	0	1171259392	56	6787
2026-01-21 13:02:59.41	137.80	10.44	-41.8	-43.0	21.1	0.00e+00	0	42	0	1173356544	56	6413
2026-01-21 13:03:00.42	137.92	10.37	-41.5	-42.6	21.5	0.00e+00	0	42	0	1175453696	56	6121
2026-01-21 13:03:01.43	138.04	10.30	-41.5	-42.6	21.4	0.00e+00	0	42	0	1176502272	56	6171
2026-01-21 13:03:02.44	138.16	10.23	-41.6	-42.7	21.3	0.00e+00	0	42	0	1178599424	56	6206
2026-01-21 13:03:03.45	138.28	10.17	-41.7	-42.8	21.3	0.00e+00	0	42	0	1180696576	56	6289
2026-01-21 13:03:04.46	138.40	10.10	-41.5	-42.6	21.3	0.00e+00	0	42	0	1182793728	56	6163
2026-01-21 13:03:05.47	138.52	10.03	-41.9	-43.1	21.0	0.00e+00	0	42	0	1184890880	56	6496
2026-01-21 13:03:06.48	138.64	9.97	-42.3	-43.6	20.6	0.00e+00	0	42	0	1185939456	56	6850
2026-01-21 13:03:07.49	138.76	9.90	-42.3	-43.6	20.5	0.00e+00	0	42	0	1188036608	56	6876
2026-01-21 13:03:08.50	138.88	9.84	-42.4	-43.7	20.4	0.00e+00	0	42	0	1190133760	56	6982
2026-01-21 13:03:09.51	138.99	9.77	-42.7	-44.1	20.2	0.00e+00	0	42	0	1192230912	56	7291
2026-01-21 13:03:10.52	139.11	9.70	-42.9	-44.4	19.8	0.00e+00	0	42	0	1194328064	58	6717
2026-01-21 13:03:11.53	139.23	9.64	-43.3	-44.8	19.5	0.00e+00	0	42	0	1195376640	58	7008
2026-01-21 13:03:12.54	139.34	9.57	-43.2	-44.7	19.5	0.00e+00	0	42	0	1197473792	58	6949
2026-01-21 13:03:13.55	139.46	9.50	-43.3	-44.8	19.4	0.00e+00	0	42	0	1199570944	58	7025
2026-01-21 13:03:14.56	139.57	9.44	-43.3	-44.9	19.2	0.00e+00	0	42	0	1201668096	58	7095
2026-01-21 13:03:15.57	139.69	9.37	-43.3	-44.8	19.2	0.00e+00	0	42	0	1203765248	58	7065
2026-01-21 13:03:16.58	139.80	9.31	-43.4	-45.0	19.0	0.00e+00	0	42	0	1204813824	58	7217
2026-01-21 13:03:17.58	139.91	9.24	-43.2	-44.9	19.1	0.00e+00	0	42	0	1206910976	58	7096
2026-01-21 13:03:18.59	140.03	9.18	-43.4	-45.0	18.9	0.00e+00	0	42	0	1209008128	58	7221
2026-01-21 13:03:19.60	140.14	9.11	-43.5	-45.2	18.6	0.00e+00	0	42	0	1211105280	58	7367
2026-01-21 13:03:20.61	140.25	9.04	-43.5	-45.2	18.5	0.00e+00	0	42	0	1213202432	58	7352
2026-01-21 13:03:21.62	140.36	8.98	-43.5	-45.2	18.5	0.00e+00	0	42	0	1214251008	58	7362
2026-01-21 13:03:22.63	140.47	8.91	-43.7	-45.5	17.9	0.00e+00	0	42	0	1216348160	58	7601
