passes_logs/2026/01/21/R4.6S_Anadyr/R4.6S_Anadyr__20260121_212127_TY-39_rec.log

#Pass ID: 20260121_212127_TY-39
#Satellite: TY-39
#Configuration: TY-39
#almurnet v.1.7.20251203
#Start time: 2026-01-21 21:21:31

#Version: 2.2.20231116
#Station: R4.6S_Anadyr
#Location: 177.4865 lon 64.73178 lat
#TLE: 1 51832U 22019J   26020.29215168  .00001979  00000-0  95847-4 0  9990
#TLE: 2 51832  97.3639  86.8534 0009549  36.8814 323.3076 15.19660791215332

#Time	Az	El	Level	Level2	SNR	BER	BlckErr	Temp	State	Recorded	gain1	gain2
2026-01-21 21:21:31.43	22.15	0.22	-51.5	-69.2	3.5	3.04e+01	0	38	0	0	60	111010
2026-01-21 21:21:32.44	22.23	0.28	-51.6	-54.0	3.6	0.00e+00	0	40	104	0	60	61739
2026-01-21 21:21:33.45	22.32	0.34	-51.5	-54.0	3.6	0.00e+00	0	40	104	0	60	61033
2026-01-21 21:21:34.46	22.40	0.39	-51.5	-54.0	3.6	0.00e+00	0	40	104	0	60	61153
2026-01-21 21:21:35.47	22.48	0.45	-51.4	-53.9	3.6	0.00e+00	0	40	104	0	60	60612
2026-01-21 21:21:36.48	22.57	0.51	-51.4	-53.9	3.6	0.00e+00	0	40	104	0	60	60993
2026-01-21 21:21:37.49	22.65	0.57	-51.4	-53.8	3.6	0.00e+00	0	40	104	0	60	60097
2026-01-21 21:21:38.50	22.74	0.62	-51.0	-53.6	3.6	0.00e+00	0	40	104	0	60	58535
2026-01-21 21:21:39.50	22.82	0.68	-51.2	-53.7	3.6	0.00e+00	0	40	104	0	60	59451
2026-01-21 21:21:40.51	22.91	0.74	-51.2	-53.6	3.6	0.00e+00	0	40	104	0	60	58830
2026-01-21 21:21:41.52	22.99	0.80	-51.2	-53.7	3.6	0.00e+00	0	40	104	0	60	59218
2026-01-21 21:21:42.53	23.08	0.85	-51.0	-53.5	3.5	0.00e+00	0	40	104	0	60	58067
2026-01-21 21:21:43.54	23.17	0.91	-51.1	-53.5	3.6	0.00e+00	0	40	104	0	60	58220
2026-01-21 21:21:44.55	23.26	0.97	-50.9	-53.4	3.6	0.00e+00	0	40	104	0	60	57525
2026-01-21 21:21:45.56	23.34	1.03	-50.9	-53.4	3.6	0.00e+00	0	40	104	0	60	57264
2026-01-21 21:21:46.57	23.43	1.09	-50.7	-53.2	3.6	0.00e+00	0	40	104	0	60	55833
2026-01-21 21:21:47.58	23.52	1.15	-49.9	-52.6	3.6	0.00e+00	0	40	104	0	60	52027
2026-01-21 21:21:48.59	23.61	1.20	-50.5	-53.0	3.6	0.00e+00	0	40	104	0	60	54822
2026-01-21 21:21:49.60	23.70	1.26	-50.4	-52.9	3.6	0.00e+00	0	40	104	0	60	53981
2026-01-21 21:21:50.61	23.79	1.32	-50.3	-52.8	3.5	0.00e+00	0	40	104	0	60	53475
2026-01-21 21:21:51.62	23.88	1.38	-50.0	-52.5	3.6	0.00e+00	0	40	104	0	60	51387
2026-01-21 21:21:52.63	23.97	1.44	-49.8	-52.2	3.6	0.00e+00	0	40	104	0	60	50040
2026-01-21 21:21:53.64	24.06	1.50	-49.7	-52.3	3.6	0.00e+00	0	41	104	0	60	50275
2026-01-21 21:21:54.65	24.15	1.56	-49.7	-52.2	3.6	0.00e+00	0	40	104	0	60	50162
2026-01-21 21:21:55.66	24.25	1.62	-49.8	-52.3	3.6	0.00e+00	0	41	104	0	60	50239
2026-01-21 21:21:56.66	24.34	1.68	-49.7	-52.2	3.6	0.00e+00	0	41	104	0	60	50019
2026-01-21 21:21:57.67	24.43	1.74	-49.8	-52.3	3.6	0.00e+00	0	41	104	0	60	50754
2026-01-21 21:21:58.69	24.53	1.80	-49.7	-52.2	3.6	0.00e+00	0	41	104	0	60	50046
2026-01-21 21:21:59.70	24.62	1.86	-49.8	-52.2	3.6	0.00e+00	0	41	104	0	60	50014
2026-01-21 21:22:00.71	24.71	1.92	-49.8	-52.2	3.6	0.00e+00	0	41	104	0	60	50178
2026-01-21 21:22:01.72	24.81	1.98	-49.8	-52.3	3.6	0.00e+00	0	41	104	0	60	50621
2026-01-21 21:22:02.73	24.90	2.04	-49.7	-52.2	3.6	0.00e+00	0	41	104	0	60	49740
2026-01-21 21:22:03.74	25.00	2.10	-49.7	-52.2	3.6	0.00e+00	0	41	104	0	60	49871
2026-01-21 21:22:04.75	25.10	2.16	-49.7	-52.2	3.6	0.00e+00	0	41	104	0	60	50149
2026-01-21 21:22:05.76	25.19	2.22	-49.7	-52.1	3.6	0.00e+00	0	41	104	0	60	49579
2026-01-21 21:22:06.77	25.29	2.28	-49.7	-52.2	3.6	0.00e+00	0	41	104	0	60	49691
2026-01-21 21:22:07.78	25.39	2.34	-49.7	-52.2	3.6	0.00e+00	0	41	104	0	60	49912
2026-01-21 21:22:08.79	25.49	2.40	-49.7	-52.2	3.6	0.00e+00	0	41	104	0	60	50006
2026-01-21 21:22:09.80	25.59	2.46	-49.8	-52.2	3.6	0.00e+00	0	41	104	0	60	50182
2026-01-21 21:22:10.81	25.68	2.52	-49.8	-52.3	3.6	0.00e+00	0	41	104	0	60	50283
2026-01-21 21:22:11.82	25.78	2.58	-49.8	-52.2	3.6	0.00e+00	0	41	104	0	60	49972
2026-01-21 21:22:12.83	25.88	2.65	-49.8	-52.3	3.6	0.00e+00	0	41	104	0	60	50349
2026-01-21 21:22:13.84	25.99	2.71	-49.8	-52.3	3.6	0.00e+00	0	41	104	0	60	50295
2026-01-21 21:22:14.85	26.09	2.77	-49.8	-52.2	3.6	0.00e+00	0	41	104	0	60	50138
2026-01-21 21:22:15.86	26.19	2.83	-49.8	-52.2	3.6	0.00e+00	0	41	104	0	60	50180
2026-01-21 21:22:16.87	26.29	2.89	-49.8	-52.3	3.6	0.00e+00	0	41	104	0	60	50587
2026-01-21 21:22:17.88	26.39	2.95	-49.8	-52.3	3.6	0.00e+00	0	41	104	0	60	50204
2026-01-21 21:22:18.89	26.50	3.02	-49.8	-52.2	3.6	0.00e+00	0	41	104	0	60	49965
2026-01-21 21:22:19.90	26.60	3.08	-49.7	-52.2	3.5	0.00e+00	0	41	104	0	60	50029
2026-01-21 21:22:20.91	26.71	3.14	-49.7	-52.2	3.6	0.00e+00	0	41	104	0	60	49890
2026-01-21 21:22:21.92	26.81	3.20	-49.7	-52.2	3.6	0.00e+00	0	41	104	0	60	49748
2026-01-21 21:22:22.93	26.92	3.27	-49.8	-52.3	3.5	0.00e+00	0	41	104	0	60	50434
2026-01-21 21:22:23.94	27.02	3.33	-49.8	-52.3	3.6	0.00e+00	0	41	104	0	60	50369
2026-01-21 21:22:24.95	27.13	3.39	-49.8	-52.2	3.6	0.00e+00	0	41	104	0	60	50140
2026-01-21 21:22:25.96	27.24	3.45	-49.8	-52.4	3.6	0.00e+00	0	41	104	0	60	50837
2026-01-21 21:22:26.97	27.34	3.52	-49.8	-52.3	3.6	0.00e+00	0	41	104	0	60	50406
2026-01-21 21:22:27.98	27.45	3.58	-49.8	-52.2	3.6	0.00e+00	0	41	104	0	60	50114
2026-01-21 21:22:28.99	27.56	3.64	-49.7	-52.2	3.6	0.00e+00	0	41	104	0	60	50110
2026-01-21 21:22:30.00	27.67	3.71	-49.8	-52.3	3.6	0.00e+00	0	41	104	0	60	50717
2026-01-21 21:22:31.01	27.78	3.77	-49.8	-52.3	3.6	0.00e+00	0	41	104	0	60	50243
2026-01-21 21:22:32.02	27.89	3.83	-49.8	-52.3	3.6	0.00e+00	0	41	104	0	60	50243
2026-01-21 21:22:33.03	28.00	3.90	-49.7	-52.2	3.6	0.00e+00	0	41	104	0	60	49826
2026-01-21 21:22:34.04	28.11	3.96	-50.0	-52.5	3.6	0.00e+00	0	41	104	0	60	51353
2026-01-21 21:22:35.05	28.23	4.03	-50.0	-52.4	3.6	0.00e+00	0	41	104	0	60	51244
2026-01-21 21:22:36.06	28.34	4.09	-49.7	-52.2	3.6	0.00e+00	0	41	104	0	60	49920
2026-01-21 21:22:37.07	28.45	4.15	-49.7	-52.2	3.6	0.00e+00	0	41	104	0	60	49757
2026-01-21 21:22:38.08	28.57	4.22	-50.0	-52.5	3.6	0.00e+00	0	41	104	0	60	51917
2026-01-21 21:22:39.09	28.68	4.28	-49.9	-52.4	3.6	0.00e+00	0	42	104	0	60	50937
2026-01-21 21:22:40.10	28.80	4.35	-50.0	-52.4	3.6	0.00e+00	0	42	104	0	60	51016
2026-01-21 21:22:41.10	28.91	4.41	-49.9	-52.4	3.6	0.00e+00	0	41	104	0	60	50783
2026-01-21 21:22:42.12	29.03	4.48	-50.1	-52.5	3.6	0.00e+00	0	42	104	0	60	51910
2026-01-21 21:22:43.13	29.15	4.54	-50.0	-52.5	3.6	0.00e+00	0	42	104	0	60	51423
2026-01-21 21:22:44.13	29.26	4.61	-49.9	-52.4	3.6	0.00e+00	0	42	104	0	60	50775
2026-01-21 21:22:45.15	29.38	4.67	-49.7	-52.1	3.6	0.00e+00	0	42	104	0	60	49073
2026-01-21 21:22:46.16	29.50	4.74	-50.0	-52.5	3.6	0.00e+00	0	42	104	0	60	51439
2026-01-21 21:22:47.17	29.62	4.80	-49.4	-51.7	3.6	0.00e+00	0	42	104	0	60	47049
2026-01-21 21:22:48.17	29.74	4.87	-49.3	-51.5	3.6	0.00e+00	0	42	104	0	60	46223
2026-01-21 21:22:49.19	29.86	4.94	-49.1	-51.2	3.6	0.00e+00	0	42	104	0	60	44312
2026-01-21 21:22:50.19	29.98	5.00	-48.9	-50.8	3.6	0.00e+00	0	42	104	0	60	42626
2026-01-21 21:22:51.20	30.11	5.07	-49.8	-52.0	3.6	0.00e+00	0	42	104	0	60	48690
2026-01-21 21:22:52.21	30.23	5.13	-49.6	-51.8	3.6	0.00e+00	0	42	104	0	60	47400
2026-01-21 21:22:53.22	30.35	5.20	-49.7	-52.2	3.6	0.00e+00	0	42	104	0	60	50116
2026-01-21 21:22:54.23	30.48	5.27	-41.1	-41.4	7.0	0.00e+00	0	42	0	0	54	20231
2026-01-21 21:22:55.24	30.60	5.33	-50.1	-52.6	3.6	3.31e-02	0	42	104	8388608	60	52000
2026-01-21 21:22:56.25	30.73	5.40	-39.5	-39.9	9.5	0.00e+00	48	42	104	8388608	56	15169
2026-01-21 21:22:57.26	30.86	5.47	-35.2	-35.7	13.8	1.08e-03	0	42	0	25165824	46	16625
2026-01-21 21:22:58.26	30.98	5.53	-34.7	-35.1	13.9	0.00e+00	0	42	0	100663296	44	17557
2026-01-21 21:22:59.27	31.11	5.60	-34.6	-35.0	13.9	0.00e+00	0	42	0	176160768	44	17386
2026-01-21 21:23:00.28	31.24	5.67	-33.6	-34.1	14.5	0.00e+00	0	42	0	251658240	42	17443
2026-01-21 21:23:01.29	31.37	5.73	-32.9	-33.3	14.9	0.00e+00	0	42	0	335544320	42	16035
2026-01-21 21:23:02.30	31.50	5.80	-33.5	-34.0	14.5	0.00e+00	0	42	0	411041792	42	17225
2026-01-21 21:23:03.31	31.63	5.87	-33.2	-33.6	14.8	0.00e+00	0	42	0	486539264	42	16565
2026-01-21 21:23:04.32	31.76	5.94	-32.2	-32.6	15.2	0.00e+00	0	42	0	553648128	40	16592
2026-01-21 21:23:05.33	31.89	6.01	-32.4	-32.9	15.1	0.00e+00	0	42	0	629145600	40	17030
2026-01-21 21:23:06.34	32.03	6.07	-32.2	-32.6	15.2	0.00e+00	0	42	0	704643072	40	16589
2026-01-21 21:23:07.35	32.16	6.14	-32.0	-32.5	15.4	0.00e+00	0	42	0	788529152	38	18245
2026-01-21 21:23:08.36	32.29	6.21	-31.8	-32.2	15.4	0.00e+00	0	42	0	864026624	38	17757
2026-01-21 21:23:09.37	32.43	6.28	-31.8	-32.2	15.4	0.00e+00	0	42	0	939524096	38	17763
2026-01-21 21:23:10.38	32.57	6.35	-31.7	-32.1	15.5	0.00e+00	0	42	0	1015021568	38	17522
2026-01-21 21:23:11.39	32.70	6.42	-31.2	-31.6	15.7	0.00e+00	0	42	0	1082130432	38	16593
2026-01-21 21:23:12.40	32.84	6.48	-31.4	-31.9	15.6	0.00e+00	0	42	0	1166016512	38	17053
2026-01-21 21:23:13.41	32.98	6.55	-31.2	-31.7	15.6	0.00e+00	0	42	0	1241513984	38	16701
2026-01-21 21:23:14.42	33.12	6.62	-31.7	-32.2	15.5	0.00e+00	0	42	0	1317011456	38	17680
2026-01-21 21:23:15.43	33.26	6.69	-31.6	-32.0	15.5	0.00e+00	0	42	0	1392508928	38	17336
2026-01-21 21:23:16.44	33.40	6.76	-31.6	-32.0	15.6	0.00e+00	0	42	0	1468006400	38	17317
2026-01-21 21:23:17.45	33.54	6.83	-31.5	-31.9	15.6	0.00e+00	0	42	0	1543503872	38	17138
2026-01-21 21:23:18.46	33.68	6.90	-31.5	-31.9	15.5	0.00e+00	0	42	0	1619001344	38	17149
2026-01-21 21:23:19.47	33.83	6.97	-31.5	-32.0	15.5	0.00e+00	0	42	0	1694498816	38	17297
2026-01-21 21:23:20.48	33.97	7.04	-31.5	-31.9	15.5	0.00e+00	0	42	0	1769996288	38	17129
2026-01-21 21:23:21.49	34.12	7.11	-31.2	-31.7	15.6	0.00e+00	0	42	0	1845493760	38	16647
2026-01-21 21:23:22.50	34.26	7.18	-31.4	-31.9	15.6	0.00e+00	0	42	0	1920991232	38	17097
2026-01-21 21:23:23.51	34.41	7.25	-31.6	-32.1	15.5	0.00e+00	0	42	0	1996488704	38	17475
2026-01-21 21:23:24.52	34.56	7.32	-31.4	-31.9	15.5	0.00e+00	0	42	0	2071986176	38	17055
2026-01-21 21:23:25.53	34.70	7.39	-31.4	-31.9	15.5	0.00e+00	0	42	0	2147483648	38	17009
2026-01-21 21:23:26.54	34.85	7.46	-31.3	-31.8	15.6	0.00e+00	0	43	0	2222981120	38	16859
2026-01-21 21:23:27.55	35.00	7.53	-31.4	-31.9	15.5	0.00e+00	0	43	0	2298478592	38	17092
2026-01-21 21:23:28.56	35.15	7.60	-31.0	-31.5	15.8	0.00e+00	0	42	0	2373976064	38	16267
2026-01-21 21:23:29.57	35.31	7.67	-31.0	-31.4	15.8	0.00e+00	0	43	0	2449473536	38	16188
2026-01-21 21:23:30.58	35.46	7.74	-30.9	-31.3	15.8	0.00e+00	0	43	0	2524971008	36	17940
2026-01-21 21:23:31.59	35.61	7.81	-31.4	-31.8	15.7	0.00e+00	0	43	0	2600468480	36	19025
2026-01-21 21:23:32.60	35.77	7.89	-31.1	-31.5	15.7	0.00e+00	0	43	0	2675965952	36	18407
2026-01-21 21:23:33.61	35.92	7.96	-31.2	-31.6	15.7	0.00e+00	0	43	0	2751463424	36	18579
2026-01-21 21:23:34.62	36.08	8.03	-31.1	-31.5	15.8	0.00e+00	0	43	0	2826960896	36	18378
2026-01-21 21:23:35.63	36.24	8.10	-31.0	-31.5	15.7	0.00e+00	0	43	0	2902458368	36	18265
2026-01-21 21:23:36.64	36.39	8.17	-30.9	-31.3	15.7	0.00e+00	0	43	0	2977955840	36	17941
2026-01-21 21:23:37.65	36.55	8.24	-31.7	-32.2	15.2	0.00e+00	0	43	0	3061841920	36	19803
2026-01-21 21:23:38.66	36.71	8.31	-31.8	-32.3	14.9	0.00e+00	0	43	0	3137339392	38	17943
2026-01-21 21:23:39.67	36.88	8.39	-31.5	-32.0	14.9	0.00e+00	0	43	0	3212836864	38	17290
2026-01-21 21:23:40.68	37.04	8.46	-31.1	-31.6	15.1	0.00e+00	0	43	0	3279945728	38	16434
2026-01-21 21:23:41.68	37.20	8.53	-31.0	-31.4	15.3	0.00e+00	0	43	0	3355443200	38	16163
2026-01-21 21:23:42.69	37.36	8.60	-31.0	-31.5	15.4	0.00e+00	0	43	0	3439329280	38	16318
2026-01-21 21:23:43.71	37.53	8.68	-31.0	-31.4	15.5	0.00e+00	0	43	0	3514826752	36	18140
2026-01-21 21:23:44.72	37.70	8.75	-31.7	-32.2	15.4	0.00e+00	0	43	0	3590324224	36	19782
2026-01-21 21:23:45.72	37.86	8.82	-31.0	-31.4	15.7	0.00e+00	0	43	0	3665821696	38	16223
2026-01-21 21:23:46.73	38.03	8.89	-30.9	-31.3	15.8	0.00e+00	0	43	0	3741319168	36	18002
2026-01-21 21:23:47.74	38.20	8.97	-31.0	-31.5	15.8	0.00e+00	0	43	0	3816816640	36	18270
2026-01-21 21:23:48.76	38.37	9.04	-30.7	-31.1	15.9	0.00e+00	0	43	0	3892314112	36	17581
2026-01-21 21:23:49.77	38.54	9.11	-30.6	-31.0	16.0	0.00e+00	0	43	0	3967811584	36	17350
2026-01-21 21:23:50.78	38.71	9.19	-30.6	-31.1	15.8	0.00e+00	0	43	0	4043309056	36	17445
2026-01-21 21:23:51.79	38.89	9.26	-30.6	-31.0	15.9	0.00e+00	0	43	0	4118806528	36	17366
2026-01-21 21:23:52.80	39.06	9.33	-30.6	-31.1	15.8	0.00e+00	0	43	0	4194304000	36	17476
2026-01-21 21:23:53.81	39.23	9.41	-30.5	-31.0	15.9	0.00e+00	0	43	0	4269801472	36	17264
2026-01-21 21:23:54.82	39.41	9.48	-30.5	-31.0	15.9	0.00e+00	0	43	0	4345298944	36	17325
2026-01-21 21:23:55.83	39.59	9.55	-30.6	-31.1	15.9	0.00e+00	0	43	0	4420796416	36	17521
2026-01-21 21:23:56.84	39.77	9.63	-30.4	-30.9	16.0	0.00e+00	0	43	0	4496293888	36	17108
2026-01-21 21:23:57.85	39.95	9.70	-30.3	-30.8	16.1	0.00e+00	0	43	0	4571791360	36	16867
2026-01-21 21:23:58.86	40.13	9.77	-30.2	-30.7	16.1	0.00e+00	0	43	0	4647288832	36	16636
2026-01-21 21:23:59.87	40.31	9.85	-30.5	-30.9	16.0	0.00e+00	0	43	0	4722786304	36	17190
2026-01-21 21:24:00.87	40.49	9.92	-30.5	-31.0	15.8	0.00e+00	0	43	0	4798283776	36	17288
2026-01-21 21:24:01.88	40.67	9.99	-30.3	-30.8	15.9	0.00e+00	0	43	0	4873781248	36	16905
2026-01-21 21:24:02.89	40.86	10.07	-30.3	-30.7	16.0	0.00e+00	0	43	0	4949278720	36	16741
2026-01-21 21:24:03.90	41.04	10.14	-30.4	-30.9	15.9	0.00e+00	0	43	0	5024776192	36	17099
2026-01-21 21:24:04.91	41.23	10.22	-30.1	-30.5	16.1	0.00e+00	0	43	0	5100273664	36	16411
2026-01-21 21:24:05.92	41.42	10.29	-30.3	-30.7	16.1	0.00e+00	0	43	0	5175771136	36	16784
2026-01-21 21:24:06.93	41.61	10.37	-30.2	-30.6	16.0	0.00e+00	0	43	0	5251268608	36	16599
2026-01-21 21:24:07.94	41.80	10.44	-30.2	-30.6	16.1	0.00e+00	0	43	0	5335154688	36	16604
2026-01-21 21:24:08.95	41.99	10.51	-30.2	-30.7	16.0	0.00e+00	0	43	0	5402263552	36	16652
2026-01-21 21:24:09.96	42.18	10.59	-30.1	-30.6	16.0	0.00e+00	0	43	0	5477761024	36	16518
2026-01-21 21:24:10.97	42.38	10.66	-30.2	-30.6	15.9	0.00e+00	0	43	0	5553258496	36	16574
2026-01-21 21:24:11.98	42.57	10.74	-29.8	-30.3	16.1	0.00e+00	0	43	0	5628755968	36	15959
2026-01-21 21:24:12.99	42.77	10.81	-29.9	-30.3	16.1	0.00e+00	0	43	0	5704253440	36	16043
2026-01-21 21:24:14.00	42.97	10.89	-29.8	-30.2	16.0	0.00e+00	0	43	0	5788139520	36	15831
2026-01-21 21:24:15.01	43.16	10.96	-29.7	-30.2	15.9	0.00e+00	0	43	0	5863636992	34	17679
2026-01-21 21:24:16.02	43.36	11.04	-29.6	-30.0	15.9	0.00e+00	0	43	0	5939134464	34	17323
2026-01-21 21:24:17.03	43.57	11.11	-29.6	-30.1	16.0	0.00e+00	0	43	0	6006243328	34	17504
2026-01-21 21:24:18.04	43.77	11.19	-29.6	-30.1	15.9	0.00e+00	0	43	0	6081740800	34	17452
2026-01-21 21:24:19.05	43.97	11.26	-29.7	-30.1	15.9	0.00e+00	0	43	0	6165626880	34	17581
2026-01-21 21:24:20.06	44.18	11.34	-29.6	-30.1	15.7	0.00e+00	0	43	0	6241124352	34	17455
2026-01-21 21:24:21.07	44.38	11.41	-29.7	-30.2	15.7	0.00e+00	0	43	0	6316621824	34	17697
2026-01-21 21:24:22.08	44.59	11.49	-29.6	-30.1	16.0	0.00e+00	0	43	0	6392119296	34	17442
2026-01-21 21:24:23.09	44.80	11.56	-29.4	-29.9	16.2	0.00e+00	0	43	0	6467616768	34	17083
2026-01-21 21:24:24.10	45.01	11.64	-29.5	-30.0	16.2	0.00e+00	0	43	0	6543114240	34	17247
2026-01-21 21:24:25.10	45.22	11.71	-29.6	-30.1	16.1	0.00e+00	0	43	0	6618611712	34	17465
2026-01-21 21:24:26.12	45.43	11.79	-29.3	-29.8	16.2	0.00e+00	0	43	0	6694109184	34	16898
2026-01-21 21:24:27.13	45.65	11.86	-29.5	-29.9	16.1	0.00e+00	0	43	0	6769606656	34	17115
2026-01-21 21:24:28.14	45.86	11.94	-29.4	-29.8	16.2	0.00e+00	0	43	0	6845104128	34	16899
2026-01-21 21:24:29.15	46.08	12.01	-29.5	-30.0	16.2	0.00e+00	0	43	0	6920601600	34	17280
2026-01-21 21:24:30.15	46.29	12.09	-29.4	-29.8	16.2	0.00e+00	0	43	0	6996099072	34	16968
2026-01-21 21:24:31.16	46.51	12.16	-29.3	-29.7	16.3	0.00e+00	0	43	0	7071596544	34	16775
2026-01-21 21:24:32.17	46.73	12.24	-29.2	-29.7	16.3	0.00e+00	0	43	0	7147094016	34	16739
2026-01-21 21:24:33.18	46.95	12.31	-29.3	-29.8	16.3	0.00e+00	0	43	0	7222591488	34	16818
2026-01-21 21:24:34.19	47.18	12.38	-29.2	-29.7	16.2	0.00e+00	0	43	0	7298088960	34	16627
2026-01-21 21:24:35.20	47.40	12.46	-29.2	-29.6	16.0	0.00e+00	0	43	0	7373586432	34	16594
2026-01-21 21:24:36.21	47.63	12.53	-29.1	-29.6	15.8	0.00e+00	0	43	0	7449083904	34	16505
2026-01-21 21:24:37.22	47.85	12.61	-29.2	-29.7	15.8	0.00e+00	0	43	0	7524581376	34	16703
2026-01-21 21:24:38.23	48.08	12.68	-29.1	-29.6	16.0	0.00e+00	0	43	0	7600078848	34	16462
2026-01-21 21:24:39.24	48.31	12.76	-29.1	-29.6	16.3	0.00e+00	0	43	0	7675576320	34	16498
2026-01-21 21:24:40.25	48.54	12.83	-29.3	-29.7	16.2	0.00e+00	0	43	0	7751073792	34	16771
2026-01-21 21:24:41.26	48.77	12.91	-29.2	-29.7	16.3	0.00e+00	0	43	0	7826571264	34	16722
2026-01-21 21:24:42.26	49.00	12.98	-29.4	-29.8	16.3	0.00e+00	0	43	0	7902068736	34	16978
2026-01-21 21:24:43.27	49.24	13.05	-29.4	-29.8	16.3	0.00e+00	0	43	0	7977566208	34	16953
2026-01-21 21:24:44.28	49.48	13.13	-29.1	-29.6	16.4	0.00e+00	0	43	0	8053063680	34	16475
2026-01-21 21:24:45.29	49.71	13.20	-29.0	-29.5	16.3	0.00e+00	0	43	0	8128561152	34	16277
2026-01-21 21:24:46.30	49.95	13.28	-29.1	-29.6	16.4	0.00e+00	0	43	0	8204058624	34	16445
2026-01-21 21:24:47.31	50.19	13.35	-29.2	-29.6	16.4	0.00e+00	0	43	0	8279556096	34	16584
2026-01-21 21:24:48.32	50.44	13.42	-29.1	-29.6	16.4	0.00e+00	0	43	0	8355053568	34	16457
2026-01-21 21:24:49.33	50.68	13.50	-29.1	-29.6	16.4	0.00e+00	0	43	0	8430551040	34	16509
2026-01-21 21:24:50.34	50.92	13.57	-28.9	-29.3	16.4	0.00e+00	0	43	0	8506048512	34	16050
2026-01-21 21:24:51.35	51.17	13.64	-29.0	-29.4	16.4	0.00e+00	0	43	0	8589934592	34	16225
2026-01-21 21:24:52.36	51.42	13.72	-28.8	-29.3	16.3	0.00e+00	0	43	0	8665432064	34	15918
2026-01-21 21:24:53.37	51.67	13.79	-28.9	-29.4	16.3	0.00e+00	0	43	0	8732540928	34	16072
2026-01-21 21:24:54.38	51.92	13.86	-28.8	-29.2	16.4	0.00e+00	0	43	0	8808038400	34	15862
2026-01-21 21:24:55.39	52.17	13.94	-28.8	-29.3	16.4	0.00e+00	0	43	0	8883535872	34	15970
2026-01-21 21:24:56.40	52.42	14.01	-28.8	-29.3	16.5	0.00e+00	0	43	0	8967421952	32	17913
2026-01-21 21:24:57.41	52.68	14.08	-28.7	-29.2	16.2	0.00e+00	0	43	0	9042919424	32	17723
2026-01-21 21:24:58.42	52.93	14.15	-28.7	-29.2	16.1	0.00e+00	0	43	0	9118416896	32	17725
2026-01-21 21:24:59.43	53.19	14.22	-28.6	-29.1	16.2	0.00e+00	0	43	0	9193914368	32	17442
2026-01-21 21:25:00.44	53.45	14.30	-28.8	-29.2	16.4	0.00e+00	0	43	0	9261023232	32	17752
2026-01-21 21:25:01.45	53.71	14.37	-28.8	-29.3	16.4	0.00e+00	0	43	0	9344909312	32	17866
2026-01-21 21:25:02.46	53.97	14.44	-28.6	-29.1	16.5	0.00e+00	0	43	0	9420406784	32	17524
2026-01-21 21:25:03.47	54.24	14.51	-28.7	-29.2	16.4	0.00e+00	0	44	0	9495904256	32	17617
2026-01-21 21:25:04.48	54.50	14.58	-28.7	-29.1	16.4	0.00e+00	0	43	0	9571401728	32	17590
2026-01-21 21:25:05.49	54.77	14.65	-28.5	-29.0	16.5	0.00e+00	0	43	0	9646899200	32	17344
2026-01-21 21:25:06.50	55.04	14.72	-28.6	-29.0	16.4	0.00e+00	0	43	0	9722396672	32	17399
2026-01-21 21:25:07.51	55.31	14.79	-28.6	-29.1	16.5	0.00e+00	0	43	0	9797894144	32	17488
2026-01-21 21:25:08.52	55.58	14.86	-28.4	-28.9	16.5	0.00e+00	0	43	0	9873391616	32	17097
2026-01-21 21:25:09.53	55.85	14.93	-28.5	-29.0	16.6	0.00e+00	0	44	0	9948889088	32	17309
2026-01-21 21:25:10.54	56.13	15.00	-28.4	-28.9	16.5	0.00e+00	0	44	0	10024386560	32	17090
2026-01-21 21:25:11.55	56.40	15.07	-28.6	-29.0	16.5	0.00e+00	0	43	0	10099884032	32	17389
2026-01-21 21:25:12.56	56.68	15.14	-28.5	-28.9	16.5	0.00e+00	0	44	0	10175381504	32	17198
2026-01-21 21:25:13.56	56.95	15.21	-28.5	-29.0	16.5	0.00e+00	0	43	0	10250878976	32	17229
2026-01-21 21:25:14.57	57.23	15.28	-28.4	-28.9	16.4	0.00e+00	0	43	0	10326376448	32	17081
2026-01-21 21:25:15.58	57.51	15.34	-28.4	-28.9	16.4	0.00e+00	0	43	0	10401873920	32	17091
2026-01-21 21:25:16.59	57.80	15.41	-28.6	-29.1	16.6	0.00e+00	0	44	0	10477371392	32	17447
2026-01-21 21:25:17.60	58.08	15.48	-28.4	-28.9	16.1	0.00e+00	0	44	0	10552868864	32	17086
2026-01-21 21:25:18.61	58.37	15.54	-28.4	-28.8	15.5	0.00e+00	0	44	0	10628366336	32	16946
2026-01-21 21:25:19.62	58.65	15.61	-28.3	-28.7	15.5	0.00e+00	0	44	0	10703863808	32	16808
2026-01-21 21:25:20.63	58.94	15.68	-28.2	-28.7	16.2	0.00e+00	0	44	0	10779361280	32	16739
2026-01-21 21:25:21.64	59.23	15.74	-28.3	-28.8	16.3	0.00e+00	0	44	0	10854858752	32	16835
2026-01-21 21:25:22.65	59.53	15.81	-28.3	-28.8	16.4	0.00e+00	0	44	0	10930356224	32	16864
2026-01-21 21:25:23.66	59.82	15.87	-28.3	-28.8	16.5	0.00e+00	0	43	0	11005853696	32	16880
2026-01-21 21:25:24.66	60.11	15.94	-28.2	-28.7	16.4	0.00e+00	0	44	0	11081351168	32	16696
2026-01-21 21:25:25.67	60.41	16.00	-28.1	-28.5	15.9	0.00e+00	0	43	0	11156848640	32	16371
2026-01-21 21:25:26.68	60.70	16.06	-28.0	-28.5	15.2	0.00e+00	0	43	0	11232346112	32	16316
2026-01-21 21:25:27.69	61.00	16.13	-28.0	-28.5	15.4	0.00e+00	0	44	0	11307843584	32	16335
2026-01-21 21:25:28.70	61.30	16.19	-28.1	-28.6	16.3	0.00e+00	0	43	0	11391729664	32	16446
2026-01-21 21:25:29.71	61.61	16.25	-28.0	-28.5	16.5	0.00e+00	0	43	0	11458838528	32	16272
2026-01-21 21:25:30.72	61.91	16.31	-28.1	-28.6	16.6	0.00e+00	0	44	0	11534336000	32	16456
2026-01-21 21:25:31.73	62.21	16.38	-28.2	-28.6	16.5	0.00e+00	0	44	0	11609833472	32	16586
2026-01-21 21:25:32.74	62.52	16.44	-28.0	-28.5	16.6	0.00e+00	0	44	0	11693719552	32	16254
2026-01-21 21:25:33.75	62.83	16.50	-28.2	-28.7	16.6	0.00e+00	0	44	0	11769217024	32	16618
2026-01-21 21:25:34.76	63.14	16.56	-28.0	-28.5	16.6	0.00e+00	0	44	0	11844714496	32	16308
2026-01-21 21:25:35.77	63.45	16.62	-28.1	-28.6	16.6	0.00e+00	0	44	0	11920211968	32	16499
2026-01-21 21:25:36.78	63.76	16.67	-28.0	-28.5	16.6	0.00e+00	0	44	0	11987320832	32	16299
2026-01-21 21:25:37.79	64.07	16.73	-28.0	-28.4	16.7	0.00e+00	0	44	0	12071206912	32	16230
2026-01-21 21:25:38.80	64.39	16.79	-28.1	-28.6	16.5	0.00e+00	0	44	0	12146704384	32	16449
2026-01-21 21:25:39.81	64.70	16.85	-28.0	-28.5	16.6	0.00e+00	0	44	0	12222201856	32	16353
2026-01-21 21:25:40.82	65.02	16.90	-28.0	-28.5	16.6	0.00e+00	0	44	0	12297699328	32	16327
2026-01-21 21:25:41.83	65.34	16.96	-28.2	-28.6	16.4	0.00e+00	0	44	0	12373196800	32	16594
2026-01-21 21:25:42.84	65.66	17.02	-28.4	-28.9	16.0	0.00e+00	0	44	0	12448694272	32	17067
2026-01-21 21:25:43.85	65.98	17.07	-28.2	-28.7	16.1	0.00e+00	0	44	0	12524191744	32	16729
2026-01-21 21:25:44.86	66.30	17.12	-28.0	-28.4	16.0	0.00e+00	0	44	0	12599689216	32	16179
2026-01-21 21:25:45.87	66.63	17.18	-27.8	-28.3	16.4	0.00e+00	0	44	0	12675186688	32	15986
2026-01-21 21:25:46.88	66.95	17.23	-27.8	-28.3	16.6	0.00e+00	0	44	0	12750684160	32	15895
2026-01-21 21:25:47.89	67.28	17.28	-27.8	-28.3	16.6	0.00e+00	0	44	0	12826181632	30	17816
2026-01-21 21:25:48.90	67.61	17.33	-27.8	-28.2	16.7	0.00e+00	0	44	0	12901679104	30	17762
2026-01-21 21:25:49.91	67.94	17.39	-27.9	-28.3	16.6	0.00e+00	0	44	0	12977176576	30	17999
2026-01-21 21:25:50.92	68.27	17.44	-27.8	-28.3	16.6	0.00e+00	0	44	0	13052674048	30	17912
2026-01-21 21:25:51.93	68.60	17.48	-27.9	-28.4	16.5	0.00e+00	0	43	0	13128171520	30	18113
2026-01-21 21:25:52.93	68.93	17.53	-28.0	-28.5	16.6	0.00e+00	0	44	0	13203668992	30	18377
2026-01-21 21:25:53.94	69.26	17.58	-27.8	-28.3	16.5	0.00e+00	0	44	0	13279166464	30	17842
2026-01-21 21:25:54.96	69.60	17.63	-28.3	-28.7	16.6	0.00e+00	0	44	0	13354663936	30	18835
2026-01-21 21:25:55.97	69.94	17.68	-27.9	-28.3	16.6	0.00e+00	0	44	0	13430161408	30	17974
2026-01-21 21:25:56.98	70.28	17.72	-27.8	-28.2	16.5	0.00e+00	0	44	0	13505658880	30	17746
2026-01-21 21:25:57.99	70.62	17.77	-27.8	-28.3	15.8	0.00e+00	0	44	0	13581156352	30	17852
2026-01-21 21:25:59.00	70.96	17.81	-27.7	-28.2	16.0	0.00e+00	0	44	0	13656653824	30	17694
2026-01-21 21:26:00.01	71.30	17.85	-27.9	-28.3	16.4	0.00e+00	0	44	0	13732151296	30	17925
2026-01-21 21:26:01.02	71.64	17.90	-27.7	-28.2	16.4	0.00e+00	0	44	0	13807648768	30	17746
2026-01-21 21:26:02.03	71.98	17.94	-28.1	-28.6	16.5	0.00e+00	0	44	0	13883146240	30	18490
2026-01-21 21:26:03.04	72.33	17.98	-27.7	-28.1	16.7	0.00e+00	0	44	0	13958643712	30	17592
2026-01-21 21:26:04.05	72.67	18.02	-27.8	-28.3	16.7	0.00e+00	0	44	0	14042529792	30	17945
2026-01-21 21:26:05.06	73.02	18.06	-27.8	-28.3	16.7	0.00e+00	0	44	0	14118027264	30	17813
2026-01-21 21:26:06.07	73.37	18.10	-27.6	-28.1	16.7	0.00e+00	0	44	0	14185136128	30	17501
2026-01-21 21:26:07.08	73.72	18.14	-27.5	-28.0	16.7	0.00e+00	0	44	0	14260633600	30	17216
2026-01-21 21:26:08.09	74.07	18.17	-27.6	-28.0	16.6	0.00e+00	0	44	0	14336131072	30	17341
2026-01-21 21:26:09.10	74.42	18.21	-27.6	-28.0	16.7	0.00e+00	0	44	0	14420017152	30	17332
2026-01-21 21:26:10.11	74.77	18.24	-27.5	-28.0	16.7	0.00e+00	0	44	0	14495514624	30	17245
2026-01-21 21:26:11.12	75.12	18.28	-27.6	-28.1	16.7	0.00e+00	0	44	0	14571012096	30	17509
2026-01-21 21:26:12.13	75.47	18.31	-27.5	-27.9	16.7	0.00e+00	0	44	0	14646509568	30	17141
2026-01-21 21:26:13.14	75.83	18.34	-27.4	-27.9	16.8	0.00e+00	0	44	0	14713618432	30	17074
2026-01-21 21:26:14.15	76.18	18.38	-27.5	-28.0	16.7	0.00e+00	0	44	0	14797504512	30	17245
2026-01-21 21:26:15.16	76.54	18.41	-27.4	-27.9	16.7	0.00e+00	0	44	0	14873001984	30	17116
2026-01-21 21:26:16.17	76.90	18.44	-27.5	-28.0	16.6	0.00e+00	0	44	0	14948499456	30	17217
2026-01-21 21:26:17.18	77.25	18.47	-27.5	-28.0	16.3	0.00e+00	0	44	0	15023996928	30	17310
2026-01-21 21:26:18.19	77.61	18.49	-27.6	-28.1	16.3	0.00e+00	0	44	0	15099494400	30	17465
2026-01-21 21:26:19.20	77.97	18.52	-27.6	-28.1	16.1	0.00e+00	0	44	0	15174991872	30	17439
2026-01-21 21:26:20.21	78.33	18.55	-27.3	-27.8	16.2	0.00e+00	0	44	0	15250489344	30	16935
2026-01-21 21:26:21.22	78.69	18.57	-27.4	-27.9	16.6	0.00e+00	0	44	0	15325986816	30	17057
2026-01-21 21:26:22.23	79.05	18.60	-27.4	-27.9	16.7	0.00e+00	0	44	0	15401484288	30	17165
2026-01-21 21:26:23.24	79.41	18.62	-27.3	-27.8	16.8	0.00e+00	0	44	0	15476981760	30	16830
2026-01-21 21:26:24.25	79.78	18.64	-27.4	-27.9	16.7	0.00e+00	0	44	0	15552479232	30	17110
2026-01-21 21:26:25.26	80.14	18.66	-27.4	-27.9	16.7	0.00e+00	0	44	0	15627976704	30	17052
2026-01-21 21:26:26.27	80.50	18.68	-27.4	-27.9	16.6	0.00e+00	0	44	0	15703474176	30	17087
2026-01-21 21:26:27.27	80.86	18.70	-27.4	-27.9	16.7	0.00e+00	0	44	0	15778971648	30	17133
2026-01-21 21:26:28.28	81.23	18.72	-27.4	-27.9	16.6	0.00e+00	0	44	0	15854469120	30	17117
2026-01-21 21:26:29.29	81.59	18.74	-27.6	-28.1	16.7	0.00e+00	0	44	0	15929966592	30	17415
2026-01-21 21:26:30.30	81.96	18.75	-27.7	-28.2	16.6	0.00e+00	0	44	0	16005464064	30	17619
2026-01-21 21:26:31.31	82.33	18.77	-27.7	-28.1	16.6	0.00e+00	0	44	0	16080961536	30	17551
2026-01-21 21:26:32.32	82.69	18.78	-27.3	-27.8	16.6	0.00e+00	0	44	0	16156459008	30	16903
2026-01-21 21:26:33.33	83.06	18.80	-27.3	-27.7	16.5	0.00e+00	0	44	0	16231956480	30	16796
2026-01-21 21:26:34.34	83.43	18.81	-27.4	-27.9	16.1	0.00e+00	0	44	0	16307453952	30	17021
2026-01-21 21:26:35.35	83.79	18.82	-27.3	-27.8	16.3	0.00e+00	0	44	0	16382951424	30	16827
2026-01-21 21:26:36.36	84.16	18.83	-27.3	-27.8	16.6	0.00e+00	0	44	0	16458448896	30	16919
2026-01-21 21:26:37.37	84.53	18.84	-27.2	-27.7	16.7	0.00e+00	0	44	0	16533946368	30	16719
2026-01-21 21:26:38.38	84.90	18.85	-27.4	-27.9	16.7	0.00e+00	0	44	0	16609443840	30	17160
2026-01-21 21:26:39.39	85.27	18.85	-27.4	-27.9	16.7	0.00e+00	0	44	0	16684941312	30	17115
2026-01-21 21:26:40.40	85.63	18.86	-27.4	-27.9	16.7	0.00e+00	0	44	0	16768827392	30	17063
2026-01-21 21:26:41.41	86.00	18.86	-27.4	-27.9	16.7	0.00e+00	0	44	0	16844324864	30	17099
2026-01-21 21:26:42.42	86.37	18.87	-27.4	-27.9	16.8	0.00e+00	0	44	0	16911433728	30	17090
2026-01-21 21:26:43.43	86.74	18.87	-27.3	-27.7	16.7	0.00e+00	0	44	0	16986931200	30	16779
2026-01-21 21:26:44.44	87.11	18.87	-27.3	-27.8	16.7	0.00e+00	0	44	0	17062428672	30	16835
2026-01-21 21:26:45.45	87.48	18.87	-27.2	-27.7	16.7	0.00e+00	0	44	0	17146314752	30	16702
2026-01-21 21:26:46.46	87.85	18.87	-27.4	-27.9	16.8	0.00e+00	0	44	0	17221812224	30	17031
2026-01-21 21:26:47.47	88.22	18.87	-27.5	-27.9	16.7	0.00e+00	0	44	0	17297309696	30	17184
2026-01-21 21:26:48.48	88.59	18.87	-27.4	-27.9	16.8	0.00e+00	0	44	0	17372807168	30	17113
2026-01-21 21:26:49.49	88.96	18.86	-27.3	-27.8	16.7	0.00e+00	0	44	0	17448304640	30	16869
2026-01-21 21:26:50.50	89.32	18.86	-27.4	-27.8	16.7	0.00e+00	0	44	0	17523802112	30	17002
2026-01-21 21:26:51.51	89.69	18.85	-27.3	-27.8	16.6	0.00e+00	0	44	0	17599299584	30	16836
2026-01-21 21:26:52.52	90.06	18.85	-27.4	-27.8	16.7	0.00e+00	0	44	0	17674797056	30	16952
2026-01-21 21:26:53.53	90.43	18.84	-27.3	-27.8	16.6	0.00e+00	0	44	0	17750294528	30	16853
2026-01-21 21:26:54.54	90.80	18.83	-27.3	-27.8	16.7	0.00e+00	0	44	0	17825792000	30	16864
2026-01-21 21:26:55.55	91.17	18.82	-27.3	-27.8	16.8	0.00e+00	0	44	0	17901289472	30	16911
2026-01-21 21:26:56.56	91.53	18.81	-27.4	-27.8	16.7	0.00e+00	0	44	0	17976786944	30	16990
2026-01-21 21:26:57.57	91.90	18.80	-27.4	-27.9	16.8	0.00e+00	0	44	0	18052284416	30	17083
2026-01-21 21:26:58.58	92.27	18.78	-27.3	-27.8	16.7	0.00e+00	0	44	0	18127781888	30	16895
2026-01-21 21:26:59.59	92.63	18.77	-27.3	-27.8	16.8	0.00e+00	0	44	0	18203279360	30	16846
2026-01-21 21:27:00.60	93.00	18.75	-27.4	-27.9	16.7	0.00e+00	0	44	0	18278776832	30	17056
2026-01-21 21:27:01.60	93.36	18.74	-27.3	-27.8	16.7	0.00e+00	0	44	0	18354274304	30	16950
2026-01-21 21:27:02.61	93.73	18.72	-27.3	-27.8	16.8	0.00e+00	0	44	0	18429771776	30	16887
2026-01-21 21:27:03.62	94.09	18.70	-27.4	-27.9	16.7	0.00e+00	0	44	0	18505269248	30	17046
2026-01-21 21:27:04.63	94.46	18.68	-27.4	-27.9	16.8	0.00e+00	0	44	0	18580766720	30	17079
2026-01-21 21:27:05.64	94.82	18.66	-27.4	-27.9	16.7	0.00e+00	0	44	0	18656264192	30	17102
2026-01-21 21:27:06.65	95.18	18.64	-27.3	-27.8	16.8	0.00e+00	0	44	0	18731761664	30	16840
2026-01-21 21:27:07.66	95.55	18.62	-27.3	-27.8	16.7	0.00e+00	0	44	0	18807259136	30	16925
2026-01-21 21:27:08.67	95.91	18.60	-27.4	-27.8	16.6	0.00e+00	0	44	0	18882756608	30	16983
2026-01-21 21:27:09.68	96.27	18.57	-27.5	-28.0	16.7	0.00e+00	0	44	0	18958254080	30	17233
2026-01-21 21:27:10.69	96.63	18.55	-27.5	-27.9	16.6	0.00e+00	0	44	0	19033751552	30	17181
2026-01-21 21:27:11.70	96.99	18.52	-27.5	-27.9	16.5	0.00e+00	0	44	0	19109249024	30	17161
2026-01-21 21:27:12.71	97.35	18.50	-27.4	-27.9	16.5	0.00e+00	0	44	0	19184746496	30	17067
2026-01-21 21:27:13.71	97.71	18.47	-27.5	-28.0	16.7	0.00e+00	0	44	0	19260243968	30	17277
2026-01-21 21:27:14.72	98.06	18.44	-27.4	-27.9	16.7	0.00e+00	0	44	0	19335741440	30	17037
2026-01-21 21:27:15.73	98.42	18.41	-27.5	-28.0	16.8	0.00e+00	0	44	0	19411238912	30	17233
2026-01-21 21:27:16.74	98.78	18.38	-27.6	-28.1	16.7	0.00e+00	0	44	0	19495124992	30	17556
2026-01-21 21:27:17.75	99.13	18.35	-27.5	-28.0	16.7	0.00e+00	0	44	0	19570622464	30	17322
2026-01-21 21:27:18.76	99.49	18.32	-27.5	-28.0	16.7	0.00e+00	0	44	0	19637731328	30	17339
2026-01-21 21:27:19.77	99.84	18.28	-27.5	-27.9	16.7	0.00e+00	0	44	0	19713228800	30	17200
2026-01-21 21:27:20.78	100.20	18.25	-27.5	-28.0	16.7	0.00e+00	0	44	0	19788726272	30	17260
2026-01-21 21:27:21.79	100.55	18.21	-27.5	-28.0	16.7	0.00e+00	0	44	0	19872612352	30	17271
2026-01-21 21:27:22.80	100.90	18.18	-27.7	-28.2	16.7	0.00e+00	0	44	0	19948109824	30	17650
2026-01-21 21:27:23.81	101.25	18.14	-27.8	-28.3	16.7	0.00e+00	0	44	0	20023607296	30	17841
2026-01-21 21:27:24.82	101.60	18.10	-27.7	-28.1	16.7	0.00e+00	0	44	0	20099104768	30	17566
2026-01-21 21:27:25.83	101.95	18.06	-27.7	-28.2	16.7	0.00e+00	0	44	0	20166213632	30	17660
2026-01-21 21:27:26.84	102.29	18.02	-27.5	-28.0	16.7	0.00e+00	0	44	0	20241711104	30	17325
2026-01-21 21:27:27.85	102.64	17.98	-27.6	-28.1	16.7	0.00e+00	0	44	0	20325597184	30	17486
2026-01-21 21:27:28.86	102.99	17.94	-27.8	-28.3	16.7	0.00e+00	0	44	0	20401094656	30	17835
2026-01-21 21:27:29.87	103.33	17.90	-27.8	-28.3	16.7	0.00e+00	0	44	0	20476592128	30	17926
2026-01-21 21:27:30.88	103.67	17.86	-27.7	-28.2	16.6	0.00e+00	0	44	0	20552089600	30	17719
2026-01-21 21:27:31.89	104.01	17.82	-27.6	-28.1	16.7	0.00e+00	0	44	0	20627587072	30	17449
2026-01-21 21:27:32.90	104.35	17.77	-27.7	-28.2	16.6	0.00e+00	0	44	0	20703084544	30	17700
2026-01-21 21:27:33.91	104.69	17.73	-27.7	-28.1	16.7	0.00e+00	0	44	0	20778582016	30	17559
2026-01-21 21:27:34.92	105.03	17.68	-27.7	-28.2	16.7	0.00e+00	0	44	0	20854079488	30	17659
2026-01-21 21:27:35.93	105.37	17.63	-27.8	-28.3	16.7	0.00e+00	0	44	0	20929576960	30	17881
2026-01-21 21:27:36.94	105.71	17.59	-28.0	-28.5	16.6	0.00e+00	0	44	0	21005074432	30	18364
2026-01-21 21:27:37.95	106.04	17.54	-27.8	-28.3	16.7	0.00e+00	0	44	0	21080571904	30	17909
2026-01-21 21:27:38.96	106.38	17.49	-28.0	-28.4	16.7	0.00e+00	0	44	0	21156069376	30	18197
2026-01-21 21:27:39.97	106.71	17.44	-27.9	-28.4	16.6	0.00e+00	0	44	0	21231566848	30	18151
2026-01-21 21:27:40.98	107.04	17.39	-27.9	-28.4	16.7	0.00e+00	0	44	0	21307064320	30	18019
2026-01-21 21:27:41.99	107.37	17.34	-28.1	-28.5	16.6	0.00e+00	0	44	0	21382561792	30	18423
2026-01-21 21:27:43.00	107.70	17.29	-27.8	-28.3	16.7	0.00e+00	0	44	0	21458059264	30	17928
2026-01-21 21:27:44.01	108.03	17.24	-27.9	-28.3	16.7	0.00e+00	0	44	0	21533556736	30	17984
2026-01-21 21:27:45.02	108.35	17.18	-27.7	-28.2	16.7	0.00e+00	0	44	0	21609054208	30	17746
2026-01-21 21:27:46.03	108.68	17.13	-27.9	-28.4	16.7	0.00e+00	0	44	0	21684551680	30	18177
2026-01-21 21:27:47.04	109.00	17.07	-27.9	-28.3	16.7	0.00e+00	0	44	0	21760049152	30	17983
2026-01-21 21:27:48.05	109.32	17.02	-28.0	-28.4	16.7	0.00e+00	0	44	0	21835546624	30	18181
2026-01-21 21:27:49.06	109.64	16.96	-28.0	-28.5	16.6	0.00e+00	0	44	0	21911044096	30	18230
2026-01-21 21:27:50.07	109.96	16.91	-27.8	-28.3	16.7	0.00e+00	0	44	0	21986541568	30	17886
2026-01-21 21:27:51.08	110.28	16.85	-27.9	-28.4	16.6	0.00e+00	0	44	0	22062039040	30	18116
2026-01-21 21:27:52.09	110.60	16.79	-27.9	-28.4	16.6	0.00e+00	0	44	0	22137536512	30	18016
2026-01-21 21:27:53.10	110.91	16.74	-27.9	-28.4	16.7	0.00e+00	0	44	0	22221422592	30	18103
2026-01-21 21:27:54.11	111.23	16.68	-28.0	-28.4	16.7	0.00e+00	0	44	0	22288531456	30	18171
2026-01-21 21:27:55.12	111.54	16.62	-28.0	-28.5	16.7	0.00e+00	0	44	0	22364028928	30	18356
2026-01-21 21:27:56.12	111.85	16.56	-28.0	-28.5	16.7	0.00e+00	0	44	0	22439526400	30	18318
2026-01-21 21:27:57.13	112.16	16.50	-28.0	-28.5	16.7	0.00e+00	0	44	0	22515023872	30	18323
2026-01-21 21:27:58.14	112.47	16.44	-28.1	-28.6	16.6	0.00e+00	0	44	0	22598909952	30	18509
2026-01-21 21:27:59.15	112.77	16.38	-28.0	-28.5	16.6	0.00e+00	0	44	0	22674407424	30	18372
2026-01-21 21:28:00.16	113.08	16.32	-28.1	-28.5	16.6	0.00e+00	0	44	0	22749904896	30	18381
2026-01-21 21:28:01.17	113.38	16.26	-28.1	-28.5	16.7	0.00e+00	0	44	0	22825402368	30	18383
2026-01-21 21:28:02.18	113.68	16.19	-28.2	-28.7	16.6	0.00e+00	0	44	0	22892511232	30	18671
2026-01-21 21:28:03.19	113.99	16.13	-28.1	-28.6	16.5	0.00e+00	0	44	0	22968008704	30	18440
2026-01-21 21:28:04.20	114.29	16.07	-28.2	-28.7	16.6	0.00e+00	0	44	0	23051894784	30	18831
2026-01-21 21:28:05.21	114.58	16.00	-28.2	-28.6	16.6	0.00e+00	0	44	0	23127392256	30	18610
2026-01-21 21:28:06.22	114.88	15.94	-28.3	-28.8	16.6	0.00e+00	0	44	0	23202889728	30	18902
2026-01-21 21:28:07.23	115.18	15.87	-28.2	-28.7	16.6	0.00e+00	0	44	0	23278387200	30	18783
2026-01-21 21:28:08.24	115.47	15.81	-28.5	-28.9	16.5	0.00e+00	0	44	0	23353884672	30	19291
2026-01-21 21:28:09.26	115.77	15.74	-28.3	-28.8	16.6	0.00e+00	0	44	0	23429382144	30	19007
2026-01-21 21:28:10.27	116.06	15.68	-28.2	-28.7	16.5	0.00e+00	0	44	0	23504879616	30	18779
2026-01-21 21:28:11.27	116.34	15.61	-28.3	-28.8	16.5	0.00e+00	0	44	0	23580377088	30	19000
2026-01-21 21:28:12.29	116.63	15.55	-28.3	-28.7	16.5	0.00e+00	0	44	0	23655874560	30	18841
2026-01-21 21:28:13.30	116.92	15.48	-28.2	-28.7	16.6	0.00e+00	0	44	0	23731372032	30	18669
2026-01-21 21:28:14.31	117.21	15.41	-28.2	-28.7	16.5	0.00e+00	0	44	0	23806869504	30	18766
2026-01-21 21:28:15.32	117.49	15.34	-28.4	-28.9	16.5	0.00e+00	0	44	0	23882366976	30	19142
2026-01-21 21:28:16.33	117.77	15.27	-28.4	-28.9	16.5	0.00e+00	0	44	0	23957864448	30	19107
2026-01-21 21:28:17.34	118.05	15.21	-28.4	-28.9	16.5	0.00e+00	0	44	0	24033361920	30	19215
2026-01-21 21:28:18.35	118.33	15.14	-28.4	-28.8	16.6	0.00e+00	0	44	0	24108859392	30	19044
2026-01-21 21:28:19.36	118.61	15.07	-28.4	-28.9	16.6	0.00e+00	0	44	0	24184356864	30	19177
2026-01-21 21:28:20.37	118.88	15.00	-28.5	-28.9	16.6	0.00e+00	0	44	0	24259854336	30	19255
2026-01-21 21:28:21.38	119.16	14.93	-28.6	-29.1	16.5	0.00e+00	0	44	0	24335351808	30	19579
2026-01-21 21:28:22.39	119.43	14.86	-28.6	-29.1	16.5	0.00e+00	0	44	0	24419237888	30	19641
2026-01-21 21:28:23.40	119.70	14.79	-28.7	-29.2	16.5	0.00e+00	0	44	0	24486346752	32	17718
2026-01-21 21:28:24.41	119.97	14.72	-28.6	-29.0	16.5	0.00e+00	0	44	0	24561844224	32	17368
2026-01-21 21:28:25.42	120.24	14.65	-28.5	-29.0	16.4	0.00e+00	0	44	0	24637341696	32	17356
2026-01-21 21:28:26.43	120.51	14.58	-28.6	-29.1	16.5	0.00e+00	0	44	0	24712839168	32	17419
2026-01-21 21:28:27.44	120.78	14.51	-28.6	-29.1	16.5	0.00e+00	0	44	0	24796725248	32	17494
2026-01-21 21:28:28.45	121.04	14.44	-28.7	-29.2	16.5	0.00e+00	0	44	0	24872222720	32	17683
2026-01-21 21:28:29.46	121.30	14.36	-28.8	-29.3	16.5	0.00e+00	0	44	0	24947720192	32	17857
2026-01-21 21:28:30.48	121.57	14.29	-28.7	-29.1	16.5	0.00e+00	0	44	0	25014829056	32	17574
2026-01-21 21:28:31.48	121.82	14.22	-28.6	-29.1	16.5	0.00e+00	0	44	0	25090326528	32	17535
2026-01-21 21:28:32.49	122.08	14.15	-28.8	-29.3	16.4	0.00e+00	0	44	0	25174212608	32	17865
2026-01-21 21:28:33.50	122.34	14.08	-28.8	-29.3	16.4	0.00e+00	0	44	0	25249710080	32	17898
2026-01-21 21:28:34.51	122.60	14.00	-28.7	-29.2	16.5	0.00e+00	0	44	0	25325207552	32	17720
2026-01-21 21:28:35.52	122.85	13.93	-28.9	-29.4	16.4	0.00e+00	0	44	0	25400705024	32	18034
2026-01-21 21:28:36.54	123.10	13.86	-28.8	-29.2	16.6	0.00e+00	0	44	0	25476202496	32	17756
2026-01-21 21:28:37.55	123.36	13.78	-28.9	-29.3	16.4	0.00e+00	0	44	0	25551699968	32	17985
2026-01-21 21:28:38.56	123.61	13.71	-28.9	-29.4	16.4	0.00e+00	0	44	0	25627197440	32	18052
2026-01-21 21:28:39.56	123.85	13.64	-29.0	-29.4	16.4	0.00e+00	0	44	0	25702694912	32	18200
2026-01-21 21:28:40.57	124.10	13.56	-28.9	-29.4	16.5	0.00e+00	0	44	0	25778192384	32	18066
2026-01-21 21:28:41.58	124.34	13.49	-28.9	-29.3	16.4	0.00e+00	0	44	0	25853689856	32	18002
2026-01-21 21:28:42.60	124.59	13.42	-29.1	-29.5	16.3	0.00e+00	0	44	0	25929187328	32	18416
2026-01-21 21:28:43.61	124.83	13.34	-28.9	-29.4	16.5	0.00e+00	0	44	0	26004684800	32	18169
2026-01-21 21:28:44.61	125.07	13.27	-29.1	-29.5	16.4	0.00e+00	0	44	0	26080182272	32	18428
2026-01-21 21:28:45.62	125.31	13.19	-29.1	-29.6	16.4	0.00e+00	0	44	0	26155679744	32	18484
2026-01-21 21:28:46.63	125.55	13.12	-29.0	-29.5	16.4	0.00e+00	0	44	0	26231177216	32	18228
2026-01-21 21:28:47.64	125.79	13.05	-29.1	-29.6	16.3	0.00e+00	0	44	0	26306674688	32	18470
2026-01-21 21:28:48.65	126.02	12.97	-29.0	-29.5	16.3	0.00e+00	0	44	0	26382172160	32	18251
2026-01-21 21:28:49.66	126.26	12.90	-29.2	-29.7	16.3	0.00e+00	0	44	0	26457669632	32	18675
2026-01-21 21:28:50.67	126.49	12.82	-29.1	-29.6	16.3	0.00e+00	0	44	0	26533167104	32	18548
2026-01-21 21:28:51.68	126.72	12.75	-29.3	-29.8	16.4	0.00e+00	0	44	0	26608664576	32	18959
2026-01-21 21:28:52.69	126.95	12.67	-29.4	-29.9	16.3	0.00e+00	0	44	0	26684162048	32	19092
2026-01-21 21:28:53.70	127.18	12.60	-29.2	-29.7	16.3	0.00e+00	0	44	0	26759659520	32	18655
2026-01-21 21:28:54.71	127.41	12.52	-29.2	-29.6	16.3	0.00e+00	0	44	0	26835156992	32	18604
2026-01-21 21:28:55.72	127.63	12.45	-29.3	-29.8	16.3	0.00e+00	0	44	0	26910654464	32	18881
2026-01-21 21:28:56.73	127.86	12.37	-29.4	-29.9	16.2	0.00e+00	0	44	0	26986151936	32	19121
2026-01-21 21:28:57.74	128.08	12.30	-30.0	-30.5	16.1	0.00e+00	0	44	0	27061649408	34	18254
2026-01-21 21:28:58.75	128.30	12.22	-29.6	-30.1	16.2	0.00e+00	0	44	0	27137146880	34	17427
2026-01-21 21:28:59.76	128.52	12.15	-29.9	-30.3	16.2	0.00e+00	0	44	0	27212644352	34	17988
2026-01-21 21:29:00.77	128.74	12.07	-30.0	-30.5	16.1	0.00e+00	0	44	0	27288141824	34	18314
2026-01-21 21:29:01.78	128.96	12.00	-29.5	-30.0	16.3	0.00e+00	0	44	0	27363639296	34	17246
2026-01-21 21:29:02.79	129.18	11.92	-29.7	-30.1	16.3	0.00e+00	0	44	0	27439136768	34	17580
2026-01-21 21:29:03.79	129.39	11.85	-29.7	-30.2	16.2	0.00e+00	0	44	0	27523022848	34	17669
2026-01-21 21:29:04.80	129.61	11.77	-29.6	-30.0	16.2	0.00e+00	0	44	0	27598520320	34	17397
2026-01-21 21:29:05.81	129.82	11.70	-29.4	-29.9	16.3	0.00e+00	0	44	0	27674017792	34	17144
2026-01-21 21:29:06.82	130.03	11.62	-29.9	-30.4	16.1	0.00e+00	0	44	0	27741126656	34	18093
2026-01-21 21:29:07.83	130.24	11.55	-29.9	-30.4	16.2	0.00e+00	0	44	0	27816624128	34	18041
2026-01-21 21:29:08.84	130.45	11.47	-29.7	-30.2	16.2	0.00e+00	0	44	0	27900510208	34	17617
2026-01-21 21:29:09.85	130.66	11.40	-29.6	-30.1	16.2	0.00e+00	0	44	0	27976007680	34	17490
2026-01-21 21:29:10.86	130.86	11.32	-29.6	-30.1	16.2	0.00e+00	0	44	0	28051505152	34	17477
2026-01-21 21:29:11.87	131.07	11.24	-29.8	-30.2	16.1	0.00e+00	0	44	0	28127002624	34	17749
2026-01-21 21:29:12.88	131.27	11.17	-29.7	-30.2	16.1	0.00e+00	0	44	0	28202500096	34	17695
2026-01-21 21:29:13.89	131.48	11.09	-29.8	-30.2	16.2	0.00e+00	0	44	0	28277997568	34	17796
2026-01-21 21:29:14.90	131.68	11.02	-29.8	-30.3	16.1	0.00e+00	0	44	0	28353495040	34	17938
2026-01-21 21:29:15.91	131.88	10.94	-29.8	-30.2	16.2	0.00e+00	0	44	0	28428992512	34	17790
2026-01-21 21:29:16.92	132.08	10.87	-29.9	-30.4	16.1	0.00e+00	0	44	0	28504489984	34	18117
2026-01-21 21:29:17.93	132.27	10.79	-29.8	-30.3	16.1	0.00e+00	0	44	0	28579987456	34	17846
2026-01-21 21:29:18.94	132.47	10.72	-29.7	-30.1	16.2	0.00e+00	0	44	0	28655484928	34	17564
2026-01-21 21:29:19.94	132.66	10.65	-29.9	-30.4	16.1	0.00e+00	0	44	0	28730982400	34	18014
2026-01-21 21:29:20.96	132.86	10.57	-30.1	-30.5	16.0	0.00e+00	0	44	0	28806479872	34	18413
2026-01-21 21:29:21.97	133.05	10.49	-29.7	-30.2	16.1	0.00e+00	0	44	0	28881977344	34	17728
2026-01-21 21:29:22.98	133.25	10.42	-29.9	-30.4	16.1	0.00e+00	0	44	0	28957474816	34	18148
2026-01-21 21:29:23.98	133.43	10.35	-29.8	-30.2	16.2	0.00e+00	0	44	0	29032972288	34	17774
2026-01-21 21:29:24.99	133.62	10.27	-29.9	-30.4	16.2	0.00e+00	0	44	0	29108469760	34	18098
2026-01-21 21:29:26.00	133.81	10.20	-30.0	-30.4	16.1	0.00e+00	0	44	0	29183967232	34	18212
2026-01-21 21:29:27.02	134.00	10.12	-30.2	-30.7	16.0	0.00e+00	0	44	0	29259464704	34	18774
2026-01-21 21:29:28.02	134.19	10.05	-30.0	-30.4	16.1	0.00e+00	0	44	0	29334962176	34	18177
2026-01-21 21:29:29.03	134.37	9.97	-30.0	-30.5	16.1	0.00e+00	0	44	0	29410459648	34	18374
2026-01-21 21:29:30.04	134.56	9.90	-30.2	-30.6	16.1	0.00e+00	0	44	0	29485957120	34	18612
2026-01-21 21:29:31.05	134.74	9.82	-30.0	-30.5	16.1	0.00e+00	0	44	0	29561454592	34	18277
2026-01-21 21:29:32.06	134.92	9.75	-30.2	-30.7	16.0	0.00e+00	0	44	0	29636952064	34	18689
2026-01-21 21:29:33.08	135.10	9.68	-30.2	-30.6	16.0	0.00e+00	0	44	0	29712449536	34	18637
2026-01-21 21:29:34.09	135.28	9.60	-30.1	-30.6	16.1	0.00e+00	0	44	0	29787947008	34	18505
2026-01-21 21:29:35.10	135.46	9.53	-30.2	-30.7	16.0	0.00e+00	0	44	0	29863444480	34	18669
2026-01-21 21:29:36.11	135.64	9.45	-30.4	-30.9	15.9	0.00e+00	0	44	0	29938941952	34	19084
2026-01-21 21:29:37.12	135.81	9.38	-30.4	-30.9	16.0	0.00e+00	0	44	0	30014439424	34	19123
2026-01-21 21:29:38.13	135.99	9.31	-30.3	-30.8	16.0	0.00e+00	0	44	0	30089936896	34	18926
2026-01-21 21:29:39.14	136.16	9.23	-30.6	-31.0	15.9	0.00e+00	0	44	0	30165434368	34	19485
2026-01-21 21:29:40.15	136.34	9.16	-30.3	-30.8	16.0	0.00e+00	0	44	0	30249320448	34	18904
2026-01-21 21:29:41.16	136.51	9.09	-30.4	-30.9	16.0	0.00e+00	0	44	0	30324817920	34	19085
2026-01-21 21:29:42.17	136.68	9.01	-30.4	-30.9	15.9	0.00e+00	0	44	0	30400315392	34	19243
2026-01-21 21:29:43.18	136.85	8.94	-30.6	-31.0	15.9	0.00e+00	0	44	0	30467424256	34	19519
2026-01-21 21:29:44.19	137.02	8.87	-30.5	-30.9	15.9	0.00e+00	0	44	0	30542921728	34	19269
2026-01-21 21:29:45.20	137.19	8.79	-30.6	-31.0	15.9	0.00e+00	0	44	0	30626807808	34	19458
2026-01-21 21:29:46.21	137.36	8.72	-30.7	-31.1	15.9	0.00e+00	0	44	0	30702305280	34	19718
2026-01-21 21:29:47.22	137.52	8.65	-30.8	-31.3	15.8	0.00e+00	0	44	0	30777802752	36	17940
2026-01-21 21:29:48.23	137.69	8.57	-30.5	-30.9	15.9	0.00e+00	0	44	0	30853300224	36	17178
2026-01-21 21:29:49.24	137.85	8.50	-30.8	-31.2	15.8	0.00e+00	0	44	0	30928797696	36	17761
2026-01-21 21:29:50.25	138.01	8.43	-30.6	-31.1	15.8	0.00e+00	0	44	0	31004295168	36	17515
2026-01-21 21:29:51.26	138.18	8.36	-30.9	-31.4	15.8	0.00e+00	0	44	0	31079792640	36	18037
2026-01-21 21:29:52.27	138.34	8.28	-31.1	-31.6	15.7	0.00e+00	0	44	0	31155290112	36	18495
2026-01-21 21:29:53.28	138.50	8.21	-31.1	-31.6	15.7	0.00e+00	0	44	0	31222398976	36	18494
2026-01-21 21:29:54.29	138.66	8.14	-31.4	-31.9	15.5	0.00e+00	0	44	0	31306285056	36	19213
2026-01-21 21:29:55.30	138.81	8.07	-31.6	-32.1	15.4	0.00e+00	0	44	0	31381782528	36	19604
2026-01-21 21:29:56.31	138.97	8.00	-31.9	-32.4	15.3	0.00e+00	0	44	0	31457280000	38	18042
2026-01-21 21:29:57.32	139.13	7.92	-32.5	-33.0	14.9	0.00e+00	0	44	0	31532777472	38	19337
2026-01-21 21:29:58.33	139.28	7.85	-32.9	-33.4	14.7	0.00e+00	0	44	0	31608274944	40	18013
2026-01-21 21:29:59.35	139.44	7.78	-33.3	-33.8	14.4	0.00e+00	0	44	0	31683772416	40	18861
2026-01-21 21:30:00.35	139.59	7.71	-33.5	-34.0	14.2	0.00e+00	0	44	0	31759269888	40	19337
2026-01-21 21:30:01.36	139.75	7.64	-34.3	-34.7	13.7	0.00e+00	0	44	0	31834767360	42	18785
2026-01-21 21:30:02.38	139.90	7.57	-35.1	-35.5	13.0	0.00e+00	0	44	0	31910264832	44	18287
2026-01-21 21:30:03.39	140.05	7.50	-35.6	-36.0	12.6	6.90e-06	0	44	0	31985762304	44	19423
2026-01-21 21:30:04.40	140.20	7.42	-35.8	-36.2	12.3	6.93e-05	0	44	0	32061259776	46	17771
2026-01-21 21:30:05.41	140.35	7.35	-36.2	-36.6	12.1	1.39e-04	0	44	0	32136757248	46	18553
2026-01-21 21:30:06.42	140.50	7.28	-36.7	-37.1	11.9	2.64e-04	0	44	0	32212254720	48	17519
2026-01-21 21:30:07.43	140.65	7.21	-37.2	-37.5	11.4	2.43e-04	0	44	0	32287752192	48	18376
2026-01-21 21:30:08.44	140.79	7.14	-37.3	-37.7	11.2	8.46e-04	0	44	0	32363249664	48	18660
2026-01-21 21:30:09.45	140.94	7.07	-37.6	-37.9	10.9	1.14e-03	0	44	0	32447135744	48	19241
2026-01-21 21:30:10.45	141.08	7.00	-37.7	-38.0	11.0	1.64e-03	0	44	0	32522633216	48	19377
2026-01-21 21:30:11.46	141.23	6.93	-37.3	-37.6	11.3	1.01e-03	0	44	0	32589742080	48	18545
2026-01-21 21:30:12.47	141.37	6.86	-37.2	-37.6	11.3	8.60e-04	0	44	0	32665239552	48	18521
2026-01-21 21:30:13.48	141.51	6.79	-37.2	-37.5	11.5	3.74e-04	0	44	0	32740737024	48	18353
2026-01-21 21:30:14.49	141.65	6.72	-36.9	-37.2	11.7	3.74e-04	0	44	0	32824623104	48	17798
2026-01-21 21:30:15.51	141.79	6.65	-36.9	-37.3	11.7	3.54e-04	0	44	0	32900120576	48	17818
2026-01-21 21:30:16.51	141.93	6.58	-36.2	-36.6	12.2	1.32e-04	0	44	0	32975618048	48	16583
2026-01-21 21:30:17.52	142.07	6.51	-36.2	-36.6	12.4	6.24e-05	0	44	0	33051115520	48	16444
2026-01-21 21:30:18.53	142.21	6.44	-36.0	-36.4	12.5	4.85e-05	0	44	0	33126612992	48	16173
2026-01-21 21:30:19.54	142.35	6.38	-35.1	-35.5	13.1	4.16e-05	0	44	0	33193721856	46	16404
2026-01-21 21:30:20.55	142.49	6.31	-35.0	-35.4	13.3	1.38e-05	0	44	0	33277607936	46	16215
2026-01-21 21:30:21.56	142.62	6.24	-34.6	-35.0	13.5	1.38e-05	0	44	0	33353105408	44	17378
2026-01-21 21:30:22.57	142.76	6.17	-34.8	-35.2	13.3	0.00e+00	0	44	0	33428602880	44	17752
2026-01-21 21:30:23.58	142.89	6.10	-34.6	-35.1	13.5	0.00e+00	0	44	0	33504100352	44	17408
2026-01-21 21:30:24.59	143.02	6.03	-34.1	-34.6	13.8	0.00e+00	0	44	0	33579597824	44	16477
2026-01-21 21:30:25.61	143.16	5.96	-34.2	-34.6	13.8	0.00e+00	0	44	0	33655095296	44	16552
2026-01-21 21:30:26.62	143.29	5.89	-34.1	-34.5	13.7	0.00e+00	0	44	0	33730592768	44	16328
2026-01-21 21:30:27.63	143.42	5.83	-33.9	-34.3	13.9	0.00e+00	0	44	0	33806090240	42	17931
2026-01-21 21:30:28.64	143.55	5.76	-33.7	-34.2	14.1	0.00e+00	0	44	0	33881587712	42	17695
2026-01-21 21:30:29.64	143.68	5.69	-33.7	-34.2	14.1	0.00e+00	0	44	0	33957085184	42	17656
2026-01-21 21:30:30.65	143.81	5.62	-33.7	-34.2	14.1	0.00e+00	0	44	0	34032582656	42	17684
2026-01-21 21:30:31.66	143.94	5.56	-33.6	-34.0	14.2	0.00e+00	0	44	0	34108080128	42	17319
2026-01-21 21:30:32.67	144.07	5.49	-33.4	-33.8	14.3	0.00e+00	0	44	0	34183577600	42	16996
2026-01-21 21:30:33.68	144.20	5.42	-33.0	-33.4	14.5	0.00e+00	0	44	0	34259075072	42	16183
2026-01-21 21:30:34.69	144.32	5.35	-33.8	-34.3	14.2	0.00e+00	0	44	0	34334572544	42	17863
2026-01-21 21:30:35.70	144.45	5.29	-34.1	-34.5	14.0	0.00e+00	0	44	0	34410070016	42	18340
2026-01-21 21:30:36.71	144.57	5.22	-49.7	-52.2	3.6	0.00e+00	0	44	104	34452013056	60	49836
2026-01-21 21:30:37.72	144.70	5.15	-49.7	-52.2	3.6	0.00e+00	0	44	104	34452013056	60	49897
2026-01-21 21:30:38.73	144.82	5.09	-49.7	-52.2	3.6	0.00e+00	0	44	104	34452013056	60	49729
2026-01-21 21:30:39.74	144.94	5.02	-49.5	-52.0	3.6	0.00e+00	0	44	104	34452013056	60	48866
2026-01-21 21:30:40.75	145.07	4.95	-49.7	-52.2	3.6	0.00e+00	0	44	104	34452013056	60	49642
2026-01-21 21:30:41.77	145.19	4.89	-49.7	-52.2	3.6	0.00e+00	0	44	104	34452013056	60	49718
2026-01-21 21:30:42.77	145.31	4.82	-49.5	-52.0	3.6	0.00e+00	0	44	104	34452013056	60	48875
2026-01-21 21:30:43.79	145.43	4.76	-49.7	-52.2	3.6	0.00e+00	0	44	104	34452013056	60	49808
2026-01-21 21:30:44.80	145.55	4.69	-49.5	-52.1	3.6	0.00e+00	0	44	104	34452013056	60	49332
2026-01-21 21:30:45.81	145.67	4.62	-49.7	-52.2	3.6	0.00e+00	0	44	104	34452013056	60	49886
2026-01-21 21:30:46.82	145.79	4.56	-49.5	-52.0	3.6	0.00e+00	0	43	104	34452013056	60	48651
2026-01-21 21:30:47.83	145.90	4.49	-49.6	-52.2	3.6	0.00e+00	0	44	104	34452013056	60	49799
2026-01-21 21:30:48.84	146.02	4.43	-49.7	-52.2	3.6	0.00e+00	0	44	104	34452013056	60	49891
2026-01-21 21:30:49.84	146.14	4.36	-49.6	-52.1	3.6	0.00e+00	0	44	104	34452013056	60	49378
2026-01-21 21:30:50.85	146.25	4.30	-49.3	-51.8	3.6	0.00e+00	0	44	104	34452013056	60	47901
2026-01-21 21:30:51.86	146.37	4.23	-49.8	-52.3	3.6	0.00e+00	0	43	104	34452013056	60	50210
2026-01-21 21:30:52.87	146.48	4.17	-49.4	-51.9	3.6	0.00e+00	0	43	104	34452013056	60	48365
2026-01-21 21:30:53.88	146.59	4.10	-49.6	-52.1	3.6	0.00e+00	0	43	104	34452013056	60	49370
2026-01-21 21:30:54.89	146.71	4.04	-49.0	-51.5	3.6	0.00e+00	0	44	104	34452013056	60	45892
2026-01-21 21:30:55.90	146.82	3.97	-49.7	-52.3	3.6	0.00e+00	0	43	104	34452013056	60	50291
2026-01-21 21:30:56.91	146.93	3.91	-49.2	-51.7	3.6	0.00e+00	0	44	104	34452013056	60	47010
2026-01-21 21:30:57.92	147.04	3.85	-49.0	-51.5	3.6	0.00e+00	0	44	104	34452013056	60	46078
2026-01-21 21:30:58.93	147.15	3.78	-48.9	-51.4	3.6	0.00e+00	0	44	104	34452013056	60	45764
2026-01-21 21:30:59.94	147.27	3.72	-49.0	-51.5	3.6	0.00e+00	0	43	104	34452013056	60	45894
2026-01-21 21:31:00.95	147.37	3.65	-48.0	-50.6	3.6	0.00e+00	0	43	104	34452013056	60	41360
2026-01-21 21:31:01.96	147.48	3.59	-49.1	-51.6	3.6	0.00e+00	0	43	104	34452013056	60	46328
2026-01-21 21:31:02.97	147.59	3.53	-49.5	-52.1	3.6	0.00e+00	0	43	104	34452013056	60	49161
2026-01-21 21:31:03.98	147.70	3.46	-49.1	-51.7	3.6	0.00e+00	0	44	104	34452013056	60	46936
2026-01-21 21:31:04.99	147.81	3.40	-49.3	-51.9	3.6	0.00e+00	0	44	104	34452013056	60	47953
2026-01-21 21:31:06.00	147.91	3.34	-48.8	-51.4	3.6	0.00e+00	0	44	104	34452013056	60	45390
2026-01-21 21:31:07.01	148.02	3.27	-49.4	-52.0	3.6	0.00e+00	0	43	104	34452013056	60	48611
2026-01-21 21:31:08.02	148.13	3.21	-49.2	-51.7	3.6	0.00e+00	0	43	104	34452013056	60	46907
2026-01-21 21:31:09.03	148.23	3.15	-49.1	-51.7	3.6	0.00e+00	0	43	104	34452013056	60	46875
2026-01-21 21:31:10.04	148.34	3.09	-48.7	-51.2	3.6	0.00e+00	0	43	104	34452013056	60	44586
2026-01-21 21:31:11.05	148.44	3.02	-49.4	-51.9	3.6	0.00e+00	0	43	104	34452013056	60	48347
2026-01-21 21:31:12.06	148.54	2.96	-49.8	-52.3	3.6	0.00e+00	0	43	104	34452013056	60	50590
2026-01-21 21:31:13.07	148.65	2.90	-49.9	-52.4	3.6	0.00e+00	0	43	104	34452013056	60	50782
2026-01-21 21:31:14.08	148.75	2.84	-50.2	-52.7	3.6	0.00e+00	0	43	104	34452013056	60	52645
2026-01-21 21:31:15.09	148.85	2.77	-50.7	-53.3	3.6	0.00e+00	0	43	104	34452013056	60	56508
2026-01-21 21:31:16.10	148.95	2.71	-50.9	-53.3	3.6	0.00e+00	0	43	104	34452013056	60	56916
2026-01-21 21:31:17.11	149.05	2.65	-51.0	-53.4	3.6	0.00e+00	0	43	104	34452013056	60	57465
2026-01-21 21:31:18.12	149.15	2.59	-51.0	-53.5	3.6	0.00e+00	0	43	104	34452013056	60	57798
2026-01-21 21:31:19.13	149.25	2.53	-51.0	-53.5	3.6	0.00e+00	0	43	104	34452013056	60	58014
2026-01-21 21:31:20.14	149.35	2.46	-51.1	-53.6	3.6	0.00e+00	0	43	104	34452013056	60	58532
2026-01-21 21:31:21.15	149.45	2.40	-51.2	-53.7	3.6	0.00e+00	0	43	104	34452013056	60	59059
2026-01-21 21:31:22.16	149.55	2.34	-51.0	-53.5	3.6	0.00e+00	0	43	104	34452013056	60	58036
2026-01-21 21:31:23.17	149.65	2.28	-51.3	-53.8	3.6	0.00e+00	0	43	104	34452013056	60	59973
2026-01-21 21:31:24.18	149.74	2.22	-51.3	-53.7	3.6	0.00e+00	0	43	104	34452013056	60	59494
2026-01-21 21:31:25.19	149.84	2.16	-51.2	-53.6	3.6	0.00e+00	0	43	104	34452013056	60	58852
2026-01-21 21:31:26.20	149.94	2.10	-51.2	-53.7	3.6	0.00e+00	0	43	104	34452013056	60	59135
2026-01-21 21:31:27.21	150.03	2.04	-51.3	-53.8	3.6	0.00e+00	0	43	104	34452013056	60	59688
2026-01-21 21:31:28.22	150.13	1.98	-51.4	-53.8	3.6	0.00e+00	0	43	104	34452013056	60	60156
2026-01-21 21:31:29.23	150.22	1.92	-51.3	-53.8	3.6	0.00e+00	0	43	104	34452013056	60	59826
2026-01-21 21:31:30.24	150.32	1.86	-51.3	-53.8	3.6	0.00e+00	0	43	104	34452013056	60	59763
2026-01-21 21:31:31.25	150.41	1.80	-51.3	-53.8	3.6	0.00e+00	0	43	104	34452013056	60	59792
2026-01-21 21:31:32.26	150.51	1.74	-51.4	-53.9	3.6	0.00e+00	0	43	104	34452013056	60	60455
2026-01-21 21:31:33.27	150.60	1.68	-51.4	-53.9	3.6	0.00e+00	0	43	104	34452013056	60	60424
2026-01-21 21:31:34.28	150.69	1.62	-51.4	-53.8	3.5	0.00e+00	0	43	104	34452013056	60	60018
2026-01-21 21:31:35.29	150.78	1.56	-51.4	-53.8	3.6	0.00e+00	0	43	104	34452013056	60	59714
2026-01-21 21:31:36.30	150.88	1.50	-51.4	-53.9	3.6	0.00e+00	0	43	104	34452013056	60	60563
2026-01-21 21:31:37.31	150.97	1.44	-51.4	-53.8	3.6	0.00e+00	0	43	104	34452013056	60	60183
2026-01-21 21:31:38.32	151.06	1.38	-51.4	-53.8	3.6	0.00e+00	0	43	104	34452013056	60	60061
2026-01-21 21:31:39.33	151.15	1.32	-51.4	-53.8	3.6	0.00e+00	0	43	104	34452013056	60	60234
2026-01-21 21:31:40.34	151.24	1.26	-51.5	-53.9	3.6	0.00e+00	0	43	104	34452013056	60	60830
2026-01-21 21:31:41.35	151.33	1.20	-51.5	-53.9	3.5	0.00e+00	0	43	104	34452013056	60	60859
2026-01-21 21:31:42.36	151.42	1.14	-51.5	-54.0	3.6	0.00e+00	0	43	104	34452013056	60	61293
2026-01-21 21:31:43.37	151.50	1.08	-51.5	-53.9	3.6	0.00e+00	0	43	104	34452013056	60	60715
2026-01-21 21:31:44.37	151.59	1.02	-51.5	-53.9	3.6	0.00e+00	0	43	104	34452013056	60	60743
2026-01-21 21:31:45.38	151.68	0.97	-51.5	-54.0	3.6	0.00e+00	0	43	104	34452013056	60	61405
2026-01-21 21:31:46.40	151.77	0.91	-51.5	-53.9	3.6	0.00e+00	0	43	104	34452013056	60	60950
2026-01-21 21:31:47.41	151.85	0.85	-51.5	-54.0	3.6	0.00e+00	0	43	104	34452013056	60	61209
2026-01-21 21:31:48.42	151.94	0.79	-51.5	-54.0	3.6	0.00e+00	0	43	104	34452013056	60	61221
2026-01-21 21:31:49.42	152.03	0.73	-51.6	-54.0	3.6	0.00e+00	0	43	104	34452013056	60	61712
2026-01-21 21:31:50.44	152.11	0.67	-51.5	-54.0	3.5	0.00e+00	0	43	104	34452013056	60	61063
2026-01-21 21:31:51.44	152.20	0.62	-51.5	-53.9	3.6	0.00e+00	0	43	104	34452013056	60	60517
2026-01-21 21:31:52.46	152.28	0.56	-51.5	-54.0	3.6	0.00e+00	0	43	104	34452013056	60	61208
2026-01-21 21:31:53.47	152.37	0.50	-51.5	-53.9	3.6	0.00e+00	0	43	104	34452013056	60	60994
2026-01-21 21:31:54.48	152.45	0.44	-51.6	-54.1	3.6	0.00e+00	0	43	104	34452013056	60	61900
2026-01-21 21:31:55.49	152.54	0.38	-51.5	-54.0	3.6	0.00e+00	0	43	104	34452013056	60	61136
2026-01-21 21:31:56.50	152.62	0.33	-51.7	-54.2	3.6	0.00e+00	0	43	104	34452013056	60	62520
2026-01-21 21:31:57.51	152.70	0.27	-51.6	-54.1	3.6	0.00e+00	0	43	104	34452013056	60	61771
2026-01-21 21:31:58.52	152.78	0.21	-51.7	-54.1	3.6	0.00e+00	0	43	104	34452013056	60	62293
2026-01-21 21:31:59.53	152.87	0.15	-51.7	-54.2	3.6	0.00e+00	0	43	104	34452013056	60	62459
2026-01-21 21:32:00.54	152.95	0.10	-51.7	-54.1	3.6	0.00e+00	0	43	104	34452013056	60	62321
2026-01-21 21:32:01.55	153.03	0.04	-51.7	-54.2	3.6	0.00e+00	0	43	104	34452013056	60	62638
2026-01-21 21:32:02.56	153.11	-0.02	-51.8	-54.2	3.6	0.00e+00	0	43	104	34452013056	60	62646
2026-01-21 21:32:03.57	153.19	-0.07	-51.7	-54.1	3.6	0.00e+00	0	43	104	34452013056	60	62411
2026-01-21 21:32:04.58	153.27	-0.13	-51.8	-54.2	3.6	0.00e+00	0	43	104	34452013056	60	62844

#Closed at: 2026-01-21 21:32:05
#Recorded file [34452 MB]: D:/lorett/data/35029_260122_092131.dat