passes_logs/2026/01/21/R4.6S_Anadyr/R4.6S_Anadyr__20260121_160319_AQUA_rec.log

#Pass ID: 20260121_160319_AQUA
#Satellite: AQUA
#Configuration: AQUA
#almurnet v.1.7.20251203
#Start time: 2026-01-21 16:03:22

#Version: 2.2.20231116
#Station: R4.6S_Anadyr
#Location: 177.4865 lon 64.73178 lat
#TLE: 1 27424U 02022A   26020.90316333  .00002787  00000+0  56766-3 0  9999
#TLE: 2 27424  98.4095 347.4297 0002000  71.6339 309.8236 14.61840001261750

#Time	Az	El	Level	Level2	SNR	BER	BlckErr	Temp	State	Recorded	gain1	gain2
2026-01-21 16:03:22.34	19.64	0.16	-51.4	-64.0	3.5	1.52e+00	0	39	0	0	60	55622
2026-01-21 16:03:23.35	19.66	0.22	-52.7	-70.6	3.5	3.04e+01	0	40	104	0	60	129812
2026-01-21 16:03:24.36	19.67	0.28	-52.5	-70.4	3.5	3.04e+01	0	40	104	0	60	127177
2026-01-21 16:03:25.37	19.69	0.34	-52.4	-70.3	3.5	3.04e+01	0	40	104	0	60	125943
2026-01-21 16:03:26.38	19.71	0.41	-52.3	-70.1	3.5	3.04e+01	0	40	104	0	60	123215
2026-01-21 16:03:27.39	19.72	0.47	-52.4	-70.3	3.5	3.04e+01	0	41	104	0	60	125415
2026-01-21 16:03:28.40	19.74	0.53	-52.1	-70.0	3.5	3.04e+01	0	41	104	0	60	121758
2026-01-21 16:03:29.41	19.76	0.59	-52.1	-69.9	3.5	3.04e+01	0	41	104	0	60	120983
2026-01-21 16:03:30.42	19.77	0.66	-52.1	-70.0	3.5	3.04e+01	0	41	104	0	60	121490
2026-01-21 16:03:31.43	19.79	0.72	-52.1	-69.9	3.5	3.04e+01	0	41	104	0	60	120581
2026-01-21 16:03:32.44	19.81	0.78	-51.7	-69.8	3.5	3.04e+01	0	41	104	0	60	118908
2026-01-21 16:03:33.45	19.83	0.85	-51.9	-69.7	3.5	3.04e+01	0	41	104	0	60	117756
2026-01-21 16:03:34.47	19.84	0.91	-51.8	-69.6	3.5	3.04e+01	0	41	104	0	60	115576
2026-01-21 16:03:35.48	19.86	0.97	-51.8	-69.7	3.5	3.04e+01	0	41	104	0	60	117557
2026-01-21 16:03:36.49	19.88	1.04	-51.6	-69.5	3.5	3.04e+01	0	41	104	0	60	114958
2026-01-21 16:03:37.50	19.90	1.10	-51.6	-69.3	3.5	3.04e+01	0	41	104	0	60	112907
2026-01-21 16:03:38.50	19.91	1.17	-51.6	-69.3	3.5	3.04e+01	0	41	104	0	60	112887
2026-01-21 16:03:39.52	19.93	1.23	-51.4	-69.3	3.5	3.04e+01	0	41	104	0	60	111939
2026-01-21 16:03:40.53	19.95	1.29	-51.1	-69.0	3.5	3.04e+01	0	41	104	0	60	108695
2026-01-21 16:03:41.54	19.97	1.36	-51.1	-68.8	3.5	3.04e+01	0	41	104	0	60	106402
2026-01-21 16:03:42.55	19.99	1.42	-51.0	-68.9	3.5	3.04e+01	0	41	104	0	60	106925
2026-01-21 16:03:43.56	20.00	1.49	-50.9	-68.7	3.5	3.04e+01	0	41	104	0	60	105001
2026-01-21 16:03:44.57	20.02	1.55	-50.7	-68.4	3.5	3.04e+01	0	41	104	0	60	100798
2026-01-21 16:03:45.58	20.04	1.62	-50.4	-68.0	3.5	3.04e+01	0	41	104	0	60	96891
2026-01-21 16:03:46.59	20.06	1.68	-50.4	-67.9	3.5	3.04e+01	0	41	104	0	60	95948
2026-01-21 16:03:47.60	20.08	1.75	-50.4	-67.8	3.5	3.04e+01	0	41	104	0	60	94705
2026-01-21 16:03:48.61	20.10	1.82	-50.4	-67.8	3.5	3.04e+01	0	41	104	0	60	93986
2026-01-21 16:03:49.62	20.11	1.88	-50.4	-67.8	3.5	3.04e+01	0	41	104	0	60	94576
2026-01-21 16:03:50.63	20.13	1.95	-50.4	-67.7	3.5	3.04e+01	0	41	104	0	60	93764
2026-01-21 16:03:51.64	20.15	2.01	-50.4	-68.0	3.5	3.04e+01	0	41	104	0	60	96756
2026-01-21 16:03:52.65	20.17	2.08	-50.5	-68.0	3.5	3.04e+01	0	41	104	0	60	96512
2026-01-21 16:03:53.66	20.19	2.15	-50.5	-67.9	3.5	3.04e+01	0	41	104	0	60	95520
2026-01-21 16:03:54.67	20.21	2.21	-50.5	-67.8	3.5	3.04e+01	0	41	104	0	60	94717
2026-01-21 16:03:55.68	20.23	2.28	-50.4	-67.9	3.5	3.04e+01	0	41	104	0	60	96030
2026-01-21 16:03:56.69	20.24	2.35	-50.4	-68.3	3.5	3.04e+01	0	41	104	0	60	99598
2026-01-21 16:03:57.70	20.26	2.41	-50.4	-68.2	3.5	3.04e+01	0	41	104	0	60	98674
2026-01-21 16:03:58.71	20.28	2.48	-50.4	-67.6	3.5	3.04e+01	0	41	104	0	60	91936
2026-01-21 16:03:59.72	20.30	2.55	-50.3	-66.1	3.7	3.04e+01	0	41	104	0	60	77820
2026-01-21 16:04:00.73	20.32	2.62	-50.3	-64.8	4.1	3.04e+01	0	41	104	0	60	66597
2026-01-21 16:04:01.74	20.34	2.69	-50.2	-63.1	4.9	3.04e+01	0	41	104	0	60	55100
2026-01-21 16:04:02.75	20.36	2.75	-50.2	-63.2	4.9	3.04e+01	0	41	104	0	60	55791
2026-01-21 16:04:03.76	20.38	2.82	-50.2	-62.1	5.5	3.04e+01	0	41	104	0	60	49220
2026-01-21 16:04:04.77	20.40	2.89	-50.2	-62.3	5.6	3.04e+01	42	41	104	0	60	50233
2026-01-21 16:04:05.78	20.42	2.96	-50.2	-63.4	3.7	3.04e+01	0	41	104	0	60	56834
2026-01-21 16:04:06.79	20.44	3.03	-50.0	-60.4	6.9	3.04e+01	92	41	0	0	60	40216
2026-01-21 16:04:07.80	20.46	3.10	-49.8	-58.6	8.5	3.04e+01	69	41	0	2097152	60	32886
2026-01-21 16:04:08.81	20.48	3.17	-49.4	-56.5	11.2	3.04e+01	46	41	0	3670016	60	25715
2026-01-21 16:04:09.82	20.50	3.24	-48.5	-53.8	13.8	3.04e+01	62	41	0	5767168	60	18745
2026-01-21 16:04:10.83	20.52	3.30	-47.7	-51.8	16.1	3.04e+01	61	41	0	7864320	60	15010
2026-01-21 16:04:11.84	20.54	3.37	-47.2	-50.9	16.8	3.04e+01	55	41	0	9437184	60	13441
2026-01-21 16:04:12.85	20.56	3.44	-46.7	-58.6	3.6	3.04e+01	0	41	104	10485760	60	32571
2026-01-21 16:04:13.86	20.58	3.52	-47.2	-59.3	3.5	3.04e+01	0	41	104	10485760	60	35309
2026-01-21 16:04:14.87	20.60	3.59	-46.8	-58.7	3.6	3.04e+01	0	41	104	10485760	60	33084
2026-01-21 16:04:15.88	20.62	3.66	-47.4	-59.7	3.4	3.04e+01	0	41	104	10485760	60	37335
2026-01-21 16:04:16.89	20.64	3.73	-47.7	-60.3	3.6	3.04e+01	0	41	104	10485760	60	39677
2026-01-21 16:04:17.90	20.66	3.80	-48.6	-61.9	3.6	3.04e+01	0	41	104	10485760	60	48145
2026-01-21 16:04:18.91	20.68	3.87	-49.1	-63.3	3.5	3.04e+01	0	41	104	10485760	60	56329
2026-01-21 16:04:19.92	20.70	3.94	-49.9	-65.6	3.5	3.04e+01	0	41	104	10485760	60	73672
2026-01-21 16:04:20.93	20.72	4.01	-46.1	-57.6	3.5	3.04e+01	0	41	104	10485760	60	29183
2026-01-21 16:04:21.94	20.74	4.08	-48.3	-61.5	3.4	3.04e+01	0	41	104	10485760	60	45765
2026-01-21 16:04:22.95	20.76	4.16	-50.3	-67.3	3.5	3.04e+01	0	41	104	10485760	60	89227
2026-01-21 16:04:23.96	20.78	4.23	-43.8	-54.6	3.8	3.04e+01	0	41	104	10485760	60	20662
2026-01-21 16:04:24.97	20.80	4.30	-50.3	-68.0	3.5	3.04e+01	0	41	104	10485760	60	96640
2026-01-21 16:04:25.98	20.82	4.37	-45.2	-56.3	3.5	3.04e+01	0	41	104	10485760	60	25190
2026-01-21 16:04:26.99	20.85	4.45	-44.6	-55.5	3.4	3.04e+01	0	41	104	10485760	60	22893
2026-01-21 16:04:28.00	20.87	4.52	-43.7	-54.4	4.0	3.04e+01	0	41	104	10485760	60	20113
2026-01-21 16:04:29.02	20.89	4.59	-43.5	-54.2	3.5	3.04e+01	0	41	104	10485760	60	19692
2026-01-21 16:04:30.03	20.91	4.67	-50.3	-66.9	3.5	3.04e+01	0	41	104	10485760	60	85219
2026-01-21 16:04:31.03	20.93	4.74	-47.2	-59.2	3.5	3.04e+01	0	41	104	10485760	60	35057
2026-01-21 16:04:32.04	20.95	4.81	-50.4	-68.0	3.5	3.04e+01	0	41	104	10485760	60	96554
2026-01-21 16:04:33.05	20.98	4.89	-43.4	-54.1	3.5	3.04e+01	0	41	104	10485760	60	19614
2026-01-21 16:04:34.07	21.00	4.96	-50.4	-67.7	3.5	3.04e+01	0	41	104	10485760	60	93306
2026-01-21 16:04:35.07	21.02	5.04	-44.7	-55.7	3.5	3.04e+01	0	41	104	10485760	60	23371
2026-01-21 16:04:36.08	21.04	5.11	-46.0	-57.4	3.6	3.04e+01	0	41	104	10485760	60	28625
2026-01-21 16:04:37.09	21.06	5.19	-44.0	-54.8	3.5	3.04e+01	0	41	104	10485760	60	21190
2026-01-21 16:04:38.10	21.09	5.26	-43.9	-54.8	3.5	3.04e+01	0	41	104	10485760	60	21106
2026-01-21 16:04:39.11	21.11	5.34	-50.5	-67.5	3.5	3.04e+01	0	41	104	10485760	60	91504
2026-01-21 16:04:40.12	21.13	5.41	-47.2	-59.2	3.5	3.04e+01	0	41	104	10485760	60	35169
2026-01-21 16:04:41.13	21.15	5.49	-50.5	-68.1	3.5	3.04e+01	0	41	104	10485760	60	97528
2026-01-21 16:04:42.14	21.18	5.57	-42.8	-53.4	3.5	3.04e+01	0	41	104	10485760	60	18082
2026-01-21 16:04:43.15	21.20	5.64	-50.6	-67.9	3.5	3.04e+01	0	41	104	10485760	60	95084
2026-01-21 16:04:44.16	21.22	5.72	-42.7	-53.2	3.5	3.04e+01	0	41	104	10485760	60	17665
2026-01-21 16:04:45.17	21.25	5.80	-42.9	-53.5	3.5	3.04e+01	0	41	104	10485760	60	18306
2026-01-21 16:04:46.18	21.27	5.88	-41.8	-52.2	3.4	3.04e+01	0	41	104	10485760	60	15726
2026-01-21 16:04:47.19	21.29	5.95	-41.6	-52.1	3.6	3.04e+01	0	41	104	10485760	58	17317
2026-01-21 16:04:48.20	21.32	6.03	-44.5	-55.4	3.5	3.04e+01	0	41	104	10485760	60	22705
2026-01-21 16:04:49.21	21.34	6.11	-47.3	-59.4	3.5	3.04e+01	0	41	104	10485760	60	35788
2026-01-21 16:04:50.22	21.36	6.19	-50.7	-67.6	3.5	3.04e+01	0	41	104	10485760	60	92581
2026-01-21 16:04:51.23	21.39	6.27	-40.6	-50.9	3.5	3.04e+01	0	41	104	10485760	56	17077
2026-01-21 16:04:52.24	21.41	6.35	-50.5	-68.2	3.5	3.04e+01	0	41	104	10485760	60	98826
2026-01-21 16:04:53.25	21.43	6.42	-40.9	-51.4	3.5	3.04e+01	0	41	104	10485760	56	17908
2026-01-21 16:04:54.26	21.46	6.50	-40.7	-51.1	3.5	3.04e+01	0	41	104	10485760	56	17382
2026-01-21 16:04:55.27	21.48	6.58	-40.5	-50.9	3.5	3.04e+01	0	41	104	10485760	56	16982
2026-01-21 16:04:56.28	21.51	6.66	-40.0	-50.4	3.5	3.04e+01	0	41	104	10485760	56	16108
2026-01-21 16:04:57.29	21.53	6.74	-47.1	-59.0	3.6	3.04e+01	0	41	104	10485760	60	34210
2026-01-21 16:04:58.30	21.56	6.82	-47.8	-60.2	3.5	3.04e+01	0	41	104	10485760	60	39178
2026-01-21 16:04:59.31	21.58	6.91	-50.9	-68.5	3.5	3.04e+01	0	41	104	10485760	60	102147
2026-01-21 16:05:00.32	21.60	6.99	-41.6	-52.0	3.5	3.04e+01	0	41	104	10485760	56	19372
2026-01-21 16:05:01.33	21.63	7.07	-50.8	-68.4	3.5	3.04e+01	0	41	104	10485760	60	100774
2026-01-21 16:05:02.33	21.65	7.15	-42.6	-53.1	3.5	3.04e+01	0	41	104	10485760	60	17465
2026-01-21 16:05:03.34	21.68	7.23	-43.4	-54.1	3.5	3.04e+01	0	41	104	10485760	60	19563
2026-01-21 16:05:04.35	21.70	7.31	-42.2	-52.7	3.5	3.04e+01	0	41	104	10485760	60	16696
2026-01-21 16:05:05.36	21.73	7.40	-40.6	-51.0	3.5	3.04e+01	0	41	104	10485760	58	15303
2026-01-21 16:05:06.37	21.76	7.48	-41.5	-52.1	3.5	3.04e+01	0	41	104	10485760	60	15431
2026-01-21 16:05:07.38	21.78	7.56	-48.9	-62.1	3.5	3.04e+01	0	41	104	10485760	60	49051
2026-01-21 16:05:08.39	21.81	7.65	-50.8	-67.7	3.6	3.04e+01	0	41	104	10485760	60	92898
2026-01-21 16:05:09.40	21.83	7.73	-42.8	-53.4	3.5	3.04e+01	0	41	104	10485760	54	25435
2026-01-21 16:05:10.41	21.86	7.81	-50.9	-68.7	3.5	3.04e+01	0	41	104	10485760	60	104644
2026-01-21 16:05:11.42	21.89	7.90	-40.0	-50.3	3.6	3.04e+01	0	41	104	10485760	56	15852
2026-01-21 16:05:12.43	21.91	7.98	-39.9	-50.3	3.5	3.04e+01	0	41	104	10485760	54	17746
2026-01-21 16:05:13.44	21.94	8.07	-39.5	-49.7	3.5	3.04e+01	0	41	104	10485760	54	16688
2026-01-21 16:05:14.45	21.96	8.15	-41.7	-52.2	3.5	3.04e+01	0	41	104	10485760	54	22181
2026-01-21 16:05:15.46	21.99	8.24	-50.8	-68.1	3.5	3.04e+01	0	41	104	10485760	60	97503
2026-01-21 16:05:16.46	22.02	8.32	-48.5	-61.1	3.5	3.04e+01	0	41	104	10485760	60	43687
2026-01-21 16:05:17.47	22.05	8.41	-50.9	-68.2	3.5	3.04e+01	0	41	104	10485760	60	98807
2026-01-21 16:05:18.48	22.07	8.50	-44.5	-55.3	3.5	3.04e+01	0	41	104	10485760	60	22495
2026-01-21 16:05:19.49	22.10	8.58	-50.9	-68.2	3.5	3.04e+01	0	41	104	10485760	60	98561
2026-01-21 16:05:20.50	22.13	8.67	-44.5	-55.4	3.5	3.04e+01	0	41	104	10485760	60	22658
2026-01-21 16:05:21.51	22.15	8.76	-44.9	-55.8	3.5	3.04e+01	0	41	104	10485760	60	23642
2026-01-21 16:05:22.52	22.18	8.85	-43.6	-54.3	3.5	3.04e+01	0	41	104	10485760	60	19862
2026-01-21 16:05:23.53	22.21	8.93	-46.1	-57.4	3.5	3.04e+01	0	41	104	10485760	60	28685
2026-01-21 16:05:24.54	22.24	9.02	-48.8	-62.0	3.6	3.04e+01	0	41	104	10485760	60	48174
2026-01-21 16:05:25.55	22.27	9.11	-50.7	-66.9	3.5	3.04e+01	0	41	104	10485760	60	84750
2026-01-21 16:05:26.56	22.30	9.20	-45.5	-56.7	3.6	3.04e+01	0	41	104	10485760	60	26458
2026-01-21 16:05:27.57	22.32	9.29	-49.6	-63.5	3.5	3.04e+01	0	41	104	10485760	60	57475
2026-01-21 16:05:28.58	22.35	9.38	-47.5	-59.6	3.6	3.04e+01	0	41	104	10485760	60	36744
2026-01-21 16:05:29.59	22.38	9.47	-39.7	-49.9	3.5	3.04e+01	0	41	104	10485760	54	17086
2026-01-21 16:05:30.60	22.41	9.56	-39.7	-50.1	3.6	3.04e+01	0	41	104	10485760	54	17336
2026-01-21 16:05:31.61	22.44	9.65	-39.4	-49.7	3.5	3.04e+01	0	41	104	10485760	54	16620
2026-01-21 16:05:32.62	22.47	9.74	-47.0	-58.6	3.5	3.04e+01	0	41	104	10485760	60	32899
2026-01-21 16:05:33.63	22.50	9.84	-47.2	-59.1	3.5	3.04e+01	0	41	104	10485760	60	34601
2026-01-21 16:05:34.63	22.53	9.93	-50.8	-67.0	3.5	3.04e+01	0	41	104	10485760	60	86402
2026-01-21 16:05:35.64	22.56	10.02	-47.6	-59.5	3.5	3.04e+01	0	41	104	10485760	60	36198
2026-01-21 16:05:36.66	22.59	10.11	-50.6	-66.2	3.5	3.04e+01	0	41	104	10485760	60	78882
2026-01-21 16:05:37.66	22.62	10.21	-46.1	-57.4	3.5	3.04e+01	0	41	104	10485760	60	28469
2026-01-21 16:05:38.68	22.65	10.30	-42.5	-53.1	3.5	3.04e+01	0	41	104	10485760	60	17319
2026-01-21 16:05:39.69	22.68	10.40	-42.6	-53.1	3.5	3.04e+01	0	41	104	10485760	60	17402
2026-01-21 16:05:40.70	22.71	10.49	-41.3	-51.6	3.5	3.04e+01	0	41	104	10485760	58	16500
2026-01-21 16:05:41.71	22.74	10.59	-47.7	-60.3	3.5	3.04e+01	0	42	104	10485760	60	39994
2026-01-21 16:05:42.71	22.77	10.68	-46.8	-58.9	3.6	3.04e+01	0	41	104	10485760	60	34098
2026-01-21 16:05:43.72	22.80	10.78	-50.8	-67.1	3.5	3.04e+01	0	41	104	10485760	60	87069
2026-01-21 16:05:44.73	22.84	10.87	-44.2	-55.0	3.5	3.04e+01	0	41	104	10485760	60	21578
2026-01-21 16:05:45.75	22.87	10.97	-51.0	-69.0	3.5	3.04e+01	0	41	104	10485760	60	108785
2026-01-21 16:05:46.75	22.90	11.07	-43.3	-54.0	3.5	3.04e+01	0	41	104	10485760	60	19383
2026-01-21 16:05:47.77	22.93	11.16	-41.0	-51.5	3.5	3.04e+01	0	41	104	10485760	58	16146
2026-01-21 16:05:48.78	22.96	11.26	-40.5	-50.9	3.5	3.04e+01	0	41	104	10485760	56	17004
2026-01-21 16:05:49.79	23.00	11.36	-41.0	-51.4	3.5	3.04e+01	0	41	104	10485760	56	17982
2026-01-21 16:05:50.80	23.03	11.46	-42.8	-53.4	3.5	3.04e+01	0	41	104	10485760	56	22550
2026-01-21 16:05:51.81	23.06	11.56	-42.6	-53.2	3.5	3.04e+01	0	41	104	10485760	56	22111
2026-01-21 16:05:52.82	23.09	11.66	-50.9	-68.0	3.5	3.04e+01	0	41	104	10485760	60	96223
2026-01-21 16:05:53.83	23.13	11.76	-39.3	-49.5	3.5	3.04e+01	0	41	104	10485760	54	16249
2026-01-21 16:05:54.84	23.16	11.86	-50.9	-68.7	3.5	3.04e+01	0	41	104	10485760	60	104187
2026-01-21 16:05:55.84	23.20	11.96	-40.0	-50.3	3.5	3.04e+01	0	42	104	10485760	56	15873
2026-01-21 16:05:56.85	23.23	12.06	-38.9	-49.2	3.6	3.04e+01	0	41	104	10485760	52	17499
2026-01-21 16:05:57.86	23.26	12.16	-39.1	-49.4	3.5	3.04e+01	0	41	104	10485760	52	17935
2026-01-21 16:05:58.87	23.30	12.26	-38.8	-49.1	3.5	3.04e+01	0	41	104	10485760	52	17318
2026-01-21 16:05:59.88	23.33	12.37	-51.0	-67.5	3.5	3.04e+01	0	41	104	10485760	60	91764
2026-01-21 16:06:00.87	23.37	12.47	-45.1	-56.1	3.5	3.04e+01	0	42	104	10485760	60	24452
2026-01-21 16:06:01.88	23.40	12.57	-51.0	-68.0	3.5	3.04e+01	0	41	104	10485760	60	96158
2026-01-21 16:06:02.89	23.44	12.68	-42.8	-53.4	3.5	3.04e+01	0	41	104	10485760	60	17988
2026-01-21 16:06:03.89	23.47	12.78	-51.0	-67.9	3.5	3.04e+01	0	41	104	10485760	60	95782
2026-01-21 16:06:04.90	23.51	12.89	-43.4	-54.0	3.5	3.04e+01	0	41	104	10485760	60	19269
2026-01-21 16:06:05.91	23.54	12.99	-42.7	-53.2	3.5	3.04e+01	0	41	104	10485760	60	17680
2026-01-21 16:06:06.92	23.58	13.10	-42.2	-52.6	3.5	3.04e+01	0	41	104	10485760	60	16491
2026-01-21 16:06:07.93	23.62	13.21	-41.4	-51.8	3.5	3.04e+01	0	41	104	10485760	58	16735
2026-01-21 16:06:08.94	23.65	13.31	-45.2	-56.2	3.5	3.04e+01	0	41	104	10485760	60	24926
2026-01-21 16:06:09.95	23.69	13.42	-45.5	-56.7	3.5	3.04e+01	0	41	104	10485760	60	26185
2026-01-21 16:06:10.96	23.73	13.53	-51.1	-68.1	3.5	3.04e+01	0	41	104	10485760	60	97916
2026-01-21 16:06:11.97	23.77	13.64	-39.0	-49.2	3.5	3.04e+01	0	41	104	10485760	54	15704
2026-01-21 16:06:12.98	23.80	13.75	-51.3	-68.9	3.5	3.04e+01	0	42	104	10485760	60	106911
2026-01-21 16:06:13.99	23.84	13.86	-40.7	-51.1	3.6	3.04e+01	0	41	104	10485760	56	17319
2026-01-21 16:06:15.00	23.88	13.97	-39.5	-49.8	3.5	3.04e+01	0	41	104	10485760	54	16760
2026-01-21 16:06:16.01	23.92	14.08	-39.9	-50.3	3.5	3.04e+01	0	41	104	10485760	54	17748
2026-01-21 16:06:17.01	23.96	14.19	-39.6	-49.9	3.6	3.04e+01	0	41	104	10485760	54	17078
2026-01-21 16:06:18.03	24.00	14.30	-47.2	-58.8	3.6	3.04e+01	0	41	104	10485760	60	33652
2026-01-21 16:06:19.03	24.04	14.41	-46.3	-57.8	3.5	3.04e+01	0	41	104	10485760	60	29709
2026-01-21 16:06:20.04	24.08	14.53	-51.1	-68.1	3.5	3.04e+01	0	41	104	10485760	60	97413
2026-01-21 16:06:21.05	24.12	14.64	-38.6	-48.8	3.5	3.04e+01	0	41	104	10485760	52	16864
2026-01-21 16:06:22.06	24.16	14.76	-51.2	-69.0	3.5	3.04e+01	0	41	104	10485760	60	108711
2026-01-21 16:06:23.07	24.20	14.87	-38.9	-49.1	3.5	3.04e+01	0	41	104	10485760	54	15427
2026-01-21 16:06:24.08	24.24	14.99	-38.9	-49.1	3.5	3.04e+01	0	41	104	10485760	52	17445
2026-01-21 16:06:25.09	24.28	15.10	-39.0	-49.2	3.5	3.04e+01	0	41	104	10485760	52	17550
2026-01-21 16:06:26.10	24.32	15.22	-38.7	-48.9	3.5	3.04e+01	0	41	104	10485760	52	16936
2026-01-21 16:06:27.11	24.36	15.34	-50.3	-64.9	3.6	3.04e+01	0	41	104	10485760	60	67868
2026-01-21 16:06:28.12	24.41	15.46	-46.7	-58.2	3.5	3.04e+01	0	41	104	10485760	60	31265
2026-01-21 16:06:29.13	24.45	15.57	-51.2	-68.1	3.5	3.04e+01	0	41	104	10485760	60	98316
2026-01-21 16:06:30.14	24.49	15.69	-39.6	-49.8	3.5	3.04e+01	0	41	104	10485760	54	16888
2026-01-21 16:06:31.15	24.53	15.81	-51.3	-68.4	3.5	3.04e+01	0	41	104	10485760	60	101054
2026-01-21 16:06:32.16	24.58	15.93	-39.5	-49.8	3.5	3.04e+01	0	41	104	10485760	54	16734
2026-01-21 16:06:33.17	24.62	16.06	-39.1	-49.4	3.5	3.04e+01	0	41	104	10485760	54	15962
2026-01-21 16:06:34.18	24.67	16.18	-39.0	-49.2	3.6	3.04e+01	0	41	104	10485760	52	17651
2026-01-21 16:06:35.19	24.71	16.30	-38.6	-48.8	3.5	3.04e+01	0	41	104	10485760	52	16758
2026-01-21 16:06:36.20	24.75	16.42	-46.2	-57.6	3.5	3.04e+01	0	41	104	10485760	60	29230
2026-01-21 16:06:37.21	24.80	16.55	-45.6	-56.7	3.5	3.04e+01	0	41	104	10485760	60	26398
2026-01-21 16:06:38.22	24.85	16.67	-51.1	-68.2	3.5	3.04e+01	0	41	104	10485760	60	99191
2026-01-21 16:06:39.23	24.89	16.80	-38.3	-48.4	3.5	3.04e+01	0	41	104	10485760	52	16099
2026-01-21 16:06:40.24	24.94	16.92	-51.3	-68.6	3.5	3.04e+01	0	41	104	10485760	60	103640
2026-01-21 16:06:41.25	24.98	17.05	-40.4	-50.8	3.5	3.04e+01	0	41	104	10485760	56	16828
2026-01-21 16:06:42.26	25.03	17.18	-39.2	-49.5	3.5	3.04e+01	0	41	104	10485760	54	16287
2026-01-21 16:06:43.27	25.08	17.31	-39.1	-49.4	3.5	3.04e+01	0	41	104	10485760	54	16026
2026-01-21 16:06:44.29	25.13	17.44	-38.8	-49.0	3.5	3.04e+01	0	41	104	10485760	54	15397
2026-01-21 16:06:45.29	25.18	17.57	-43.9	-54.6	3.6	3.04e+01	0	41	104	10485760	60	20637
2026-01-21 16:06:46.30	25.22	17.70	-46.4	-57.6	3.5	3.04e+01	0	41	104	10485760	60	29349
2026-01-21 16:06:47.31	25.27	17.83	-51.1	-68.5	3.5	3.04e+01	0	41	104	10485760	60	102946
2026-01-21 16:06:48.32	25.32	17.96	-39.6	-49.8	3.5	3.04e+01	0	41	104	10485760	52	18904
2026-01-21 16:06:49.33	25.37	18.09	-51.3	-68.6	3.5	3.04e+01	0	41	104	10485760	60	103508
2026-01-21 16:06:50.34	25.42	18.23	-38.6	-48.8	3.5	3.04e+01	0	41	104	10485760	52	16725
2026-01-21 16:06:51.35	25.47	18.36	-38.3	-48.5	3.5	3.04e+01	0	41	104	10485760	52	16255
2026-01-21 16:06:52.35	25.52	18.49	-38.5	-48.7	3.6	3.04e+01	0	41	104	10485760	52	16517
2026-01-21 16:06:53.36	25.58	18.63	-39.0	-49.3	3.5	3.04e+01	0	41	104	10485760	52	17809
2026-01-21 16:06:54.37	25.63	18.77	-41.3	-51.8	3.6	3.04e+01	0	41	104	10485760	60	14945
2026-01-21 16:06:55.38	25.68	18.90	-46.7	-58.0	3.5	3.04e+01	0	41	104	10485760	60	30610
2026-01-21 16:06:56.39	25.73	19.04	-51.5	-69.2	3.5	3.04e+01	0	41	104	10485760	60	111530
2026-01-21 16:06:57.40	25.79	19.18	-41.3	-51.6	3.5	3.04e+01	0	41	104	10485760	54	20754
2026-01-21 16:06:58.41	25.84	19.32	-51.4	-68.5	3.5	3.04e+01	0	41	104	10485760	60	102356
2026-01-21 16:06:59.42	25.90	19.46	-39.2	-49.5	3.6	3.04e+01	0	41	104	10485760	52	18195
2026-01-21 16:07:00.43	25.95	19.60	-39.4	-49.6	3.5	3.04e+01	0	41	104	10485760	52	18466
2026-01-21 16:07:01.44	26.01	19.75	-39.3	-49.6	3.5	3.04e+01	0	41	104	10485760	52	18370
2026-01-21 16:07:02.44	26.06	19.89	-40.8	-51.2	3.5	3.04e+01	0	41	104	10485760	52	22103
2026-01-21 16:07:03.45	26.12	20.03	-51.1	-67.4	3.6	3.04e+01	0	41	104	10485760	60	89860
2026-01-21 16:07:04.46	26.18	20.18	-46.5	-57.6	3.5	3.04e+01	0	41	104	10485760	60	29341
2026-01-21 16:07:05.47	26.23	20.32	-51.2	-67.7	3.5	3.04e+01	0	41	104	10485760	60	92973
2026-01-21 16:07:06.48	26.29	20.47	-42.9	-53.4	3.5	3.04e+01	0	41	104	10485760	56	22582
2026-01-21 16:07:07.49	26.35	20.62	-51.4	-68.6	3.6	3.04e+01	0	41	104	10485760	60	103307
2026-01-21 16:07:08.50	26.41	20.77	-41.6	-51.9	3.5	3.04e+01	0	41	104	10485760	58	17003
2026-01-21 16:07:09.51	26.47	20.92	-40.4	-50.7	3.6	3.04e+01	0	41	104	10485760	56	16594
2026-01-21 16:07:10.52	26.53	21.07	-40.5	-50.8	3.6	3.04e+01	0	41	104	10485760	56	16754
2026-01-21 16:07:11.53	26.59	21.22	-40.3	-50.6	3.6	3.04e+01	0	41	104	10485760	54	18393
2026-01-21 16:07:12.54	26.65	21.37	-45.0	-56.0	3.6	3.04e+01	0	41	104	10485760	60	24241
2026-01-21 16:07:13.54	26.71	21.53	-50.6	-65.3	3.4	3.04e+01	0	41	104	10485760	60	70612
2026-01-21 16:07:14.56	26.78	21.68	-48.4	-60.7	3.6	3.04e+01	0	41	104	10485760	60	41824
2026-01-21 16:07:15.56	26.84	21.84	-49.8	-63.3	3.5	3.04e+01	0	41	104	10485760	60	56458
2026-01-21 16:07:16.58	26.90	22.00	-50.6	-65.5	3.6	3.04e+01	0	41	104	10485760	60	72580
2026-01-21 16:07:17.58	26.97	22.15	-41.8	-52.2	3.5	3.04e+01	0	41	104	10485760	60	15606
2026-01-21 16:07:18.59	27.03	22.31	-42.6	-53.1	3.5	3.04e+01	0	41	104	10485760	58	19554
2026-01-21 16:07:19.60	27.10	22.47	-40.9	-51.2	3.5	3.04e+01	0	41	104	10485760	58	15723
2026-01-21 16:07:20.61	27.16	22.63	-45.5	-56.5	3.5	3.04e+01	0	41	104	10485760	58	28925
2026-01-21 16:07:21.62	27.23	22.79	-48.1	-60.2	3.6	3.04e+01	0	41	104	10485760	60	39381
2026-01-21 16:07:22.63	27.30	22.96	-51.2	-67.8	3.5	3.04e+01	0	41	104	10485760	60	94999
2026-01-21 16:07:23.64	27.37	23.12	-48.2	-60.4	3.6	3.04e+01	0	41	104	10485760	60	40526
2026-01-21 16:07:24.65	27.44	23.29	-50.0	-63.9	3.5	3.04e+01	0	41	104	10485760	60	60195
2026-01-21 16:07:25.65	27.51	23.45	-45.2	-56.1	3.5	3.04e+01	0	41	104	10485760	60	24695
2026-01-21 16:07:26.67	27.58	23.62	-40.5	-50.9	3.5	3.04e+01	0	41	104	10485760	56	16927
2026-01-21 16:07:27.68	27.65	23.79	-39.3	-49.5	3.5	3.04e+01	0	41	104	10485760	54	16234
2026-01-21 16:07:28.69	27.72	23.96	-39.0	-49.3	3.5	3.04e+01	0	41	104	10485760	54	15830
2026-01-21 16:07:29.70	27.79	24.13	-46.7	-58.1	3.5	3.04e+01	0	41	104	10485760	60	30912
2026-01-21 16:07:30.71	27.87	24.30	-47.5	-59.2	3.5	3.04e+01	0	41	104	10485760	60	35077
2026-01-21 16:07:31.72	27.94	24.48	-51.2	-67.3	3.5	3.04e+01	0	41	104	10485760	60	89633
2026-01-21 16:07:32.73	28.02	24.65	-43.5	-54.1	3.5	3.04e+01	0	41	104	10485760	60	19594
2026-01-21 16:07:33.74	28.09	24.83	-51.5	-69.4	3.5	3.04e+01	0	41	104	10485760	60	113429
2026-01-21 16:07:34.75	28.17	25.00	-44.5	-55.3	3.5	3.04e+01	0	41	104	10485760	60	22385
2026-01-21 16:07:35.76	28.25	25.18	-42.3	-52.8	3.5	3.04e+01	0	41	104	10485760	60	16774
2026-01-21 16:07:36.77	28.33	25.36	-41.1	-51.5	3.5	3.04e+01	0	41	104	10485760	58	16170
2026-01-21 16:07:37.77	28.41	25.54	-41.2	-51.6	3.5	3.04e+01	0	41	104	10485760	56	18329
2026-01-21 16:07:38.78	28.49	25.72	-48.0	-60.1	3.5	3.04e+01	0	41	104	10485760	60	38822
2026-01-21 16:07:39.79	28.57	25.91	-47.2	-58.7	3.5	3.04e+01	0	41	104	10485760	60	33254
2026-01-21 16:07:40.80	28.65	26.09	-51.2	-67.2	3.5	3.04e+01	0	41	104	10485760	60	88644
2026-01-21 16:07:41.81	28.74	26.28	-43.0	-53.6	3.6	3.04e+01	0	41	104	10485760	60	18442
2026-01-21 16:07:42.81	28.82	26.46	-51.4	-68.3	3.5	3.04e+01	0	41	104	10485760	60	100260
2026-01-21 16:07:43.83	28.91	26.66	-40.6	-51.0	3.5	3.04e+01	0	41	104	10485760	56	17253
2026-01-21 16:07:44.83	28.99	26.84	-41.1	-51.5	3.5	3.04e+01	0	41	104	10485760	56	18246
2026-01-21 16:07:45.84	29.08	27.04	-41.1	-51.4	3.5	3.04e+01	0	41	104	10485760	56	17962
2026-01-21 16:07:46.85	29.17	27.23	-40.9	-51.2	3.5	3.04e+01	0	41	104	10485760	56	17667
2026-01-21 16:07:47.86	29.26	27.42	-45.8	-56.9	3.5	3.04e+01	0	41	104	10485760	60	26923
2026-01-21 16:07:48.87	29.35	27.62	-44.6	-55.5	3.5	3.04e+01	0	41	104	10485760	58	25590
2026-01-21 16:07:49.88	29.44	27.82	-51.4	-68.4	3.5	3.04e+01	0	41	104	10485760	60	101049
2026-01-21 16:07:50.89	29.53	28.02	-38.8	-49.0	3.5	3.04e+01	0	41	104	10485760	52	17212
2026-01-21 16:07:51.90	29.63	28.22	-51.5	-68.5	3.5	3.04e+01	0	41	104	10485760	60	102585
2026-01-21 16:07:52.91	29.72	28.42	-38.7	-48.9	3.5	3.04e+01	0	41	104	10485760	54	15192
2026-01-21 16:07:53.92	29.82	28.62	-38.7	-48.9	3.5	3.04e+01	0	41	104	10485760	52	17025
2026-01-21 16:07:54.93	29.92	28.83	-38.7	-48.8	3.6	3.04e+01	0	41	104	10485760	52	16734
2026-01-21 16:07:55.94	30.01	29.03	-38.4	-48.6	3.5	3.04e+01	0	41	104	10485760	52	16369
2026-01-21 16:07:56.95	30.11	29.24	-50.7	-66.1	3.5	3.04e+01	0	41	104	10485760	60	77898
2026-01-21 16:07:57.96	30.22	29.45	-47.1	-58.7	3.5	3.04e+01	0	41	104	10485760	60	33274
2026-01-21 16:07:58.97	30.32	29.66	-51.5	-68.8	3.5	3.04e+01	0	41	104	10485760	60	105836
2026-01-21 16:07:59.98	30.42	29.87	-41.4	-51.8	3.5	3.04e+01	0	41	104	10485760	60	14969
2026-01-21 16:08:00.98	30.53	30.09	-51.5	-68.2	3.5	3.04e+01	0	41	104	10485760	60	99394
2026-01-21 16:08:01.99	30.63	30.30	-41.9	-52.3	3.5	3.04e+01	0	41	104	10485760	60	15803
2026-01-21 16:08:03.00	30.74	30.52	-41.8	-52.1	3.5	3.04e+01	0	41	104	10485760	58	17465
2026-01-21 16:08:04.01	30.85	30.74	-41.0	-51.4	3.6	3.04e+01	0	41	104	10485760	58	15983
2026-01-21 16:08:05.02	30.96	30.96	-42.0	-52.4	3.5	3.04e+01	0	41	104	10485760	58	17917
2026-01-21 16:08:06.03	31.08	31.18	-46.9	-58.4	3.5	3.04e+01	0	41	104	10485760	60	31943
2026-01-21 16:08:07.04	31.19	31.41	-46.6	-58.0	3.5	3.04e+01	0	41	104	10485760	60	30411
2026-01-21 16:08:08.05	31.31	31.63	-51.6	-68.7	3.5	3.04e+01	0	41	104	10485760	60	105080
2026-01-21 16:08:09.06	31.42	31.86	-38.8	-49.0	3.5	3.04e+01	0	41	104	10485760	52	17265
2026-01-21 16:08:10.07	31.54	32.09	-51.6	-69.2	3.5	3.04e+01	0	41	104	10485760	60	110949
2026-01-21 16:08:11.08	31.66	32.32	-39.0	-49.1	3.5	3.04e+01	0	41	104	10485760	54	15536
2026-01-21 16:08:12.09	31.79	32.56	-38.8	-49.0	3.6	3.04e+01	0	41	104	10485760	52	17159
2026-01-21 16:08:13.10	31.91	32.79	-39.0	-49.2	3.5	3.04e+01	0	41	104	10485760	52	17602
2026-01-21 16:08:14.11	32.04	33.03	-39.3	-49.6	3.6	3.04e+01	0	41	104	10485760	52	18349
2026-01-21 16:08:15.12	32.17	33.27	-51.1	-66.7	3.5	3.04e+01	0	41	104	10485760	60	83138
2026-01-21 16:08:16.13	32.30	33.51	-47.8	-59.6	3.6	3.04e+01	0	41	104	10485760	60	36759
2026-01-21 16:08:17.14	32.43	33.75	-51.7	-68.9	3.5	3.04e+01	0	41	104	10485760	60	106628
2026-01-21 16:08:18.15	32.56	34.00	-39.4	-49.6	3.5	3.04e+01	0	41	104	10485760	54	16435
2026-01-21 16:08:19.16	32.70	34.24	-51.6	-68.5	3.5	3.04e+01	0	41	104	10485760	60	102943
2026-01-21 16:08:20.17	32.83	34.49	-39.9	-50.3	3.5	3.04e+01	0	41	104	10485760	54	17694
2026-01-21 16:08:21.18	32.98	34.74	-39.9	-50.2	3.5	3.04e+01	0	41	104	10485760	54	17533
2026-01-21 16:08:22.19	33.12	34.99	-40.0	-50.3	3.6	3.04e+01	0	41	104	10485760	54	17727
2026-01-21 16:08:23.20	33.26	35.25	-39.5	-49.7	3.6	3.04e+01	0	41	104	10485760	54	16592
2026-01-21 16:08:24.21	33.41	35.50	-51.5	-68.1	3.6	3.04e+01	0	41	104	10485760	60	97837
2026-01-21 16:08:25.22	33.56	35.76	-48.3	-60.5	3.5	3.04e+01	0	41	104	10485760	60	40751
2026-01-21 16:08:26.23	33.71	36.02	-51.8	-69.0	3.5	3.04e+01	0	41	104	10485760	60	108956
2026-01-21 16:08:27.24	33.86	36.29	-40.3	-50.5	3.5	3.04e+01	0	41	104	10485760	56	16262
2026-01-21 16:08:28.25	34.02	36.55	-51.6	-68.7	3.5	3.04e+01	0	41	104	10485760	60	105242
2026-01-21 16:08:29.26	34.18	36.82	-41.8	-52.2	3.6	3.04e+01	0	41	104	10485760	60	15649
2026-01-21 16:08:30.27	34.34	37.09	-41.6	-52.0	3.5	3.04e+01	0	41	104	10485760	58	17159
2026-01-21 16:08:31.28	34.50	37.36	-41.4	-51.8	3.5	3.04e+01	0	41	104	10485760	58	16711
2026-01-21 16:08:32.29	34.67	37.63	-41.0	-51.4	3.5	3.04e+01	0	41	104	10485760	58	15964
2026-01-21 16:08:33.30	34.84	37.90	-48.1	-60.2	3.6	3.04e+01	0	41	104	10485760	60	39417
2026-01-21 16:08:34.31	35.01	38.18	-47.9	-59.8	3.5	3.04e+01	0	41	104	10485760	60	37432
2026-01-21 16:08:35.33	35.19	38.46	-51.8	-69.4	3.5	3.04e+01	0	41	104	10485760	60	113327
2026-01-21 16:08:36.34	35.37	38.75	-42.3	-52.9	3.5	3.04e+01	0	41	104	10485760	56	21302
2026-01-21 16:08:37.35	35.55	39.03	-51.5	-68.6	3.5	3.04e+01	0	41	104	10485760	60	103700
2026-01-21 16:08:38.35	35.73	39.31	-41.0	-51.3	3.5	3.04e+01	0	41	104	10485760	56	17812
2026-01-21 16:08:39.37	35.92	39.60	-40.7	-50.9	3.5	3.04e+01	0	41	104	10485760	56	17055
2026-01-21 16:08:40.38	36.12	39.89	-40.2	-50.5	3.5	3.04e+01	0	41	104	10485760	56	16309
2026-01-21 16:08:41.39	36.31	40.19	-43.9	-54.6	3.5	3.04e+01	0	41	104	10485760	56	26124
2026-01-21 16:08:42.39	36.51	40.48	-51.6	-69.5	3.5	3.04e+01	0	41	104	10485760	60	114542
2026-01-21 16:08:43.40	36.71	40.77	-46.9	-58.2	3.5	3.04e+01	0	41	104	10485760	60	31242
2026-01-21 16:08:44.41	36.92	41.07	-51.7	-69.1	3.5	3.04e+01	0	41	104	10485760	60	109111
2026-01-21 16:08:45.42	37.13	41.38	-40.9	-51.2	3.5	3.04e+01	0	41	104	10485760	56	17630
2026-01-21 16:08:46.43	37.34	41.68	-51.6	-68.1	3.5	3.04e+01	0	41	104	10485760	60	97322
2026-01-21 16:08:47.44	37.56	41.98	-40.5	-50.7	3.5	3.04e+01	0	41	104	10485760	56	16651
2026-01-21 16:08:48.45	37.78	42.29	-40.4	-50.8	3.5	3.04e+01	0	41	104	10485760	56	16716
2026-01-21 16:08:49.46	38.01	42.60	-39.6	-49.9	3.5	3.04e+01	0	41	104	10485760	54	16947
2026-01-21 16:08:50.47	38.24	42.92	-41.4	-51.8	3.6	3.04e+01	0	41	104	10485760	54	21225
2026-01-21 16:08:51.49	38.47	43.23	-47.0	-58.4	3.5	3.04e+01	0	41	104	10485760	60	32121
2026-01-21 16:08:52.49	38.71	43.55	-49.2	-61.6	3.5	3.04e+01	0	41	104	10485760	60	46101
2026-01-21 16:08:53.50	38.96	43.87	-50.6	-64.9	3.5	3.04e+01	0	41	104	10485760	60	68028
2026-01-21 16:08:54.51	39.21	44.19	-45.0	-55.9	3.5	3.04e+01	0	41	104	10485760	56	30071
2026-01-21 16:08:55.52	39.46	44.51	-51.0	-66.0	3.6	3.04e+01	0	41	104	10485760	60	77044
2026-01-21 16:08:56.53	39.72	44.84	-43.5	-54.0	3.5	3.04e+01	0	41	104	10485760	60	19209
2026-01-21 16:08:57.54	39.99	45.17	-44.0	-54.6	3.5	3.04e+01	0	41	104	10485760	60	20662
2026-01-21 16:08:58.55	40.26	45.50	-44.1	-54.8	3.5	3.04e+01	0	41	104	10485760	60	21146
2026-01-21 16:08:59.56	40.54	45.83	-42.0	-52.4	3.5	3.04e+01	0	41	104	10485760	60	16026
2026-01-21 16:09:00.57	40.82	46.17	-44.6	-55.3	3.5	3.04e+01	0	41	104	10485760	60	22455
2026-01-21 16:09:01.58	41.11	46.50	-50.2	-63.9	3.5	3.04e+01	0	41	104	10485760	60	60428
2026-01-21 16:09:02.58	41.40	46.84	-48.8	-61.1	3.6	3.04e+01	0	41	104	10485760	60	43651
2026-01-21 16:09:03.59	41.70	47.18	-46.9	-58.1	3.5	3.04e+01	0	41	104	10485760	60	30842
2026-01-21 16:09:04.60	42.01	47.52	-48.6	-60.9	3.5	3.04e+01	0	41	104	10485760	60	42597
2026-01-21 16:09:05.61	42.32	47.87	-41.2	-51.5	3.5	3.04e+01	0	41	104	10485760	56	18291
2026-01-21 16:09:06.62	42.65	48.22	-39.7	-49.9	3.4	3.04e+01	0	41	104	10485760	56	15158
2026-01-21 16:09:07.62	42.97	48.56	-39.6	-49.9	3.5	3.04e+01	0	41	104	10485760	54	16944
2026-01-21 16:09:08.63	43.31	48.91	-38.4	-48.7	3.5	3.04e+01	0	41	104	10485760	50	18542
2026-01-21 16:09:09.65	43.66	49.27	-39.2	-49.4	3.5	3.04e+01	0	41	104	10485760	52	17949
2026-01-21 16:09:10.66	44.01	49.62	-50.8	-65.5	3.5	3.04e+01	0	41	104	10485760	60	72620
2026-01-21 16:09:11.67	44.37	49.98	-38.6	-48.8	3.5	3.04e+01	0	41	104	10485760	56	13289
2026-01-21 16:09:12.68	44.74	50.34	-51.8	-69.5	3.5	3.04e+01	0	41	104	10485760	60	114841
2026-01-21 16:09:13.69	45.12	50.70	-40.5	-50.7	3.5	3.04e+01	0	41	104	10485760	60	13146
2026-01-21 16:09:14.69	45.50	51.06	-38.7	-49.0	3.5	3.04e+01	0	41	104	10485760	52	17137
2026-01-21 16:09:15.70	45.90	51.42	-37.8	-48.0	3.5	3.04e+01	0	41	104	10485760	50	17195
2026-01-21 16:09:16.71	46.31	51.79	-37.8	-47.9	3.5	3.04e+01	0	41	104	10485760	50	16946
2026-01-21 16:09:17.72	46.73	52.15	-51.7	-68.3	3.5	3.04e+01	0	41	104	10485760	60	99728
2026-01-21 16:09:18.73	47.15	52.52	-38.7	-48.9	3.5	3.04e+01	0	41	104	10485760	50	19133
2026-01-21 16:09:19.74	47.59	52.89	-51.9	-69.2	3.5	3.04e+01	0	41	104	10485760	60	110741
2026-01-21 16:09:20.75	48.04	53.26	-42.3	-52.6	3.5	3.04e+01	0	41	104	10485760	60	16478
2026-01-21 16:09:21.76	48.50	53.63	-51.7	-68.3	3.5	3.04e+01	0	41	104	10485760	60	100294
2026-01-21 16:09:22.77	48.98	54.00	-39.8	-50.0	3.5	3.04e+01	0	41	104	10485760	60	12138
2026-01-21 16:09:23.78	49.46	54.38	-39.3	-49.6	3.5	3.04e+01	0	41	104	10485760	52	18462
2026-01-21 16:09:24.79	49.96	54.75	-39.3	-49.5	3.5	3.04e+01	0	41	104	10485760	52	18134
2026-01-21 16:09:25.80	50.47	55.12	-39.4	-49.6	3.5	3.04e+01	0	41	104	10485760	52	18514
2026-01-21 16:09:26.81	51.00	55.50	-51.7	-68.2	3.5	3.04e+01	0	41	104	10485760	60	99275
2026-01-21 16:09:27.82	51.54	55.87	-46.8	-58.2	3.5	3.04e+01	0	41	104	10485760	60	31308
2026-01-21 16:09:28.83	52.09	56.25	-51.6	-67.9	3.5	3.04e+01	0	41	104	10485760	60	95052
2026-01-21 16:09:29.84	52.66	56.62	-40.9	-51.3	3.5	3.04e+01	0	41	104	10485760	56	17890
2026-01-21 16:09:30.85	53.25	57.00	-51.6	-67.9	3.5	3.04e+01	0	41	104	10485760	60	95722
2026-01-21 16:09:31.86	53.85	57.38	-41.2	-51.5	3.3	3.04e+01	0	41	104	10485760	60	14404
2026-01-21 16:09:32.87	54.47	57.75	-41.3	-51.7	3.5	3.04e+01	0	41	104	10485760	56	18596
2026-01-21 16:09:33.88	55.10	58.12	-41.4	-51.7	3.5	3.04e+01	0	41	104	10485760	56	18536
2026-01-21 16:09:34.89	55.76	58.50	-41.2	-51.5	3.5	3.04e+01	0	41	104	10485760	56	18258
2026-01-21 16:09:35.90	56.43	58.87	-50.3	-64.3	3.5	3.04e+01	0	41	104	10485760	60	62804
2026-01-21 16:09:36.91	57.12	59.24	-47.8	-59.4	3.5	3.04e+01	0	41	104	10485760	60	36055
2026-01-21 16:09:37.92	57.83	59.61	-51.7	-68.4	3.5	3.04e+01	0	41	104	10485760	60	100856
2026-01-21 16:09:38.93	58.56	59.98	-41.7	-52.3	3.5	3.04e+01	0	41	104	10485760	58	17747
2026-01-21 16:09:39.94	59.32	60.34	-51.7	-68.1	3.5	3.04e+01	0	41	104	10485760	60	97629
2026-01-21 16:09:40.95	60.09	60.71	-42.7	-53.3	3.5	3.04e+01	0	41	104	10485760	60	17713
2026-01-21 16:09:41.96	60.89	61.07	-42.2	-52.7	3.5	3.04e+01	0	41	104	10485760	58	18665
2026-01-21 16:09:42.97	61.71	61.42	-41.4	-51.7	3.5	3.04e+01	0	41	104	10485760	58	16573
2026-01-21 16:09:43.98	62.56	61.78	-41.4	-51.8	3.5	3.04e+01	0	41	104	10485760	58	16842
2026-01-21 16:09:44.99	63.42	62.13	-49.3	-61.9	3.5	3.04e+01	0	41	104	10485760	60	48072
2026-01-21 16:09:46.00	64.32	62.48	-47.9	-59.8	3.5	3.04e+01	0	41	104	10485760	60	37502
2026-01-21 16:09:47.01	65.24	62.82	-51.8	-69.0	3.5	3.04e+01	0	41	104	10485760	60	107960
2026-01-21 16:09:48.02	66.19	63.16	-43.8	-54.5	3.5	3.04e+01	0	41	104	10485760	60	20349
2026-01-21 16:09:49.03	67.16	63.49	-51.7	-68.8	3.5	3.04e+01	0	41	104	10485760	60	106600
2026-01-21 16:09:50.04	68.16	63.82	-43.6	-54.5	3.5	3.04e+01	0	41	104	10485760	60	20339
2026-01-21 16:09:51.05	69.19	64.14	-43.8	-54.0	3.5	3.04e+01	0	41	104	10485760	60	19334
2026-01-21 16:09:52.06	70.25	64.46	-43.8	-54.5	3.5	3.04e+01	0	41	104	10485760	60	20469
2026-01-21 16:09:53.07	71.34	64.77	-43.9	-54.4	3.5	3.04e+01	0	41	104	10485760	60	20197
2026-01-21 16:09:54.08	72.46	65.07	-49.3	-62.0	3.5	3.04e+01	0	41	104	10485760	60	48352
2026-01-21 16:09:55.09	73.61	65.37	-48.7	-61.0	3.5	3.04e+01	0	41	104	10485760	60	43242
2026-01-21 16:09:56.10	74.79	65.66	-51.8	-69.2	3.5	3.04e+01	0	41	104	10485760	60	111499
2026-01-21 16:09:57.11	76.00	65.94	-44.7	-55.3	3.5	3.04e+01	0	41	104	10485760	60	22382
2026-01-21 16:09:58.12	77.24	66.21	-51.9	-69.3	3.5	3.04e+01	0	41	104	10485760	60	112746
2026-01-21 16:09:59.13	78.51	66.47	-45.3	-56.1	3.5	3.04e+01	0	41	104	10485760	60	24554
2026-01-21 16:10:00.14	79.81	66.72	-45.6	-56.7	3.5	3.04e+01	0	41	104	10485760	60	26284
2026-01-21 16:10:01.15	81.14	66.96	-44.8	-55.7	3.5	3.04e+01	0	41	104	10485760	60	23483
2026-01-21 16:10:02.16	82.51	67.19	-44.8	-55.5	3.5	3.04e+01	0	41	104	10485760	60	22945
2026-01-21 16:10:03.17	83.90	67.41	-51.5	-67.6	3.5	3.04e+01	0	41	104	10485760	60	92284
2026-01-21 16:10:04.18	85.32	67.62	-48.0	-60.0	3.5	3.04e+01	0	41	104	10485760	60	38402
2026-01-21 16:10:05.19	86.77	67.81	-51.8	-69.2	3.5	3.04e+01	0	41	104	10485760	60	110566
2026-01-21 16:10:06.20	88.25	67.99	-47.0	-58.5	3.5	3.04e+01	0	41	104	10485760	60	32490
2026-01-21 16:10:07.21	89.75	68.16	-51.8	-69.0	3.5	3.04e+01	0	41	104	10485760	60	108463
2026-01-21 16:10:08.22	91.28	68.31	-46.8	-58.1	3.5	3.04e+01	0	41	104	10485760	60	30948
2026-01-21 16:10:09.23	92.83	68.46	-46.1	-57.0	3.5	3.04e+01	0	41	104	10485760	60	27388
2026-01-21 16:10:10.23	94.39	68.58	-46.0	-57.2	3.5	3.04e+01	0	41	104	10485760	60	27962
2026-01-21 16:10:11.25	95.99	68.69	-45.6	-56.5	3.5	3.04e+01	0	41	104	10485760	60	25604
2026-01-21 16:10:12.25	97.58	68.79	-51.7	-69.1	3.5	3.04e+01	0	41	104	10485760	60	110301
2026-01-21 16:10:13.26	99.20	68.87	-46.0	-57.2	3.5	3.04e+01	0	41	104	10485760	60	27915
2026-01-21 16:10:14.27	100.84	68.94	-51.6	-68.2	3.5	3.04e+01	0	41	104	10485760	60	99290
2026-01-21 16:10:15.29	102.50	68.99	-46.3	-57.7	3.6	3.04e+01	0	41	104	10485760	60	29412
2026-01-21 16:10:16.30	104.15	69.02	-51.8	-69.0	3.5	3.04e+01	0	41	104	10485760	60	108565
2026-01-21 16:10:17.31	105.80	69.04	-45.5	-56.6	3.5	3.04e+01	0	41	104	10485760	60	25944
2026-01-21 16:10:18.32	107.46	69.04	-45.9	-56.7	3.5	3.04e+01	0	41	104	10485760	60	26361
2026-01-21 16:10:19.33	109.12	69.02	-46.1	-57.4	3.5	3.04e+01	0	41	104	10485760	60	28522
2026-01-21 16:10:20.34	110.77	68.99	-44.5	-55.1	3.5	3.04e+01	0	41	104	10485760	60	21812
2026-01-21 16:10:21.35	112.41	68.95	-42.4	-52.8	3.5	3.04e+01	0	41	104	10485760	60	16719
2026-01-21 16:10:22.36	114.05	68.88	-47.8	-59.7	3.5	3.04e+01	0	41	104	10485760	60	37154
2026-01-21 16:10:23.37	115.67	68.81	-51.8	-69.5	3.6	3.04e+01	0	41	104	10485760	60	114599
2026-01-21 16:10:24.38	117.28	68.71	-43.9	-54.3	3.5	3.04e+01	0	41	104	10485760	60	20072
2026-01-21 16:10:25.38	118.86	68.60	-51.8	-69.4	3.5	3.04e+01	0	41	104	10485760	60	112997
2026-01-21 16:10:26.40	120.45	68.48	-44.2	-54.9	3.5	3.04e+01	0	41	104	10485760	60	21286
2026-01-21 16:10:27.41	122.01	68.34	-43.9	-54.4	3.5	3.04e+01	0	41	104	10485760	60	20097
2026-01-21 16:10:28.41	123.52	68.19	-43.9	-54.8	3.5	3.04e+01	0	41	104	10485760	60	21085
2026-01-21 16:10:29.43	125.05	68.02	-46.0	-57.0	3.5	3.04e+01	0	41	104	10485760	60	27394
2026-01-21 16:10:30.44	126.53	67.84	-51.5	-67.9	3.6	3.04e+01	0	41	104	10485760	60	95424
2026-01-21 16:10:31.45	127.99	67.65	-46.2	-57.1	3.5	3.04e+01	0	41	104	10485760	60	27646
2026-01-21 16:10:32.46	129.41	67.44	-51.8	-69.3	3.5	3.04e+01	0	41	104	10485760	60	112786
2026-01-21 16:10:33.47	130.81	67.23	-45.6	-56.6	3.5	3.04e+01	0	41	104	10485760	60	25911
2026-01-21 16:10:34.48	132.18	67.00	-51.8	-69.4	3.5	3.04e+01	0	41	104	10485760	60	113459
2026-01-21 16:10:35.49	133.52	66.76	-45.3	-56.2	3.5	3.04e+01	0	41	104	10485760	60	24941
2026-01-21 16:10:36.50	134.83	66.51	-45.4	-56.5	3.5	3.04e+01	0	41	104	10485760	60	25671
2026-01-21 16:10:37.51	136.11	66.25	-44.6	-55.5	3.5	3.04e+01	0	41	104	10485760	60	22918
2026-01-21 16:10:38.51	137.35	65.98	-44.3	-55.0	3.6	3.04e+01	0	41	104	10485760	60	21664
2026-01-21 16:10:39.52	138.56	65.71	-48.4	-60.4	3.5	3.04e+01	0	41	104	10485760	60	40380
2026-01-21 16:10:40.53	139.75	65.42	-47.0	-58.3	3.5	3.04e+01	0	41	104	10485760	60	31669
2026-01-21 16:10:41.54	140.91	65.13	-48.6	-52.7	20.5	3.04e+01	60	41	104	10485760	60	16556
2026-01-21 16:10:42.55	142.03	64.82	-43.8	-45.7	19.9	3.04e+01	59	41	0	11534336	56	9311
2026-01-21 16:10:43.56	143.13	64.51	-47.8	-51.2	22.0	3.04e+01	50	41	104	12058624	60	13936
2026-01-21 16:10:44.57	144.19	64.20	-40.3	-41.6	27.3	3.04e+01	61	41	0	13107200	56	5853
2026-01-21 16:10:45.58	145.23	63.88	-40.5	-41.9	27.0	3.04e+01	57	41	0	15204352	56	6033
2026-01-21 16:10:46.59	146.24	63.55	-39.7	-40.9	27.8	3.04e+01	50	41	0	16777216	54	6061
2026-01-21 16:10:47.60	147.22	63.21	-39.3	-40.6	28.2	3.04e+01	59	41	0	18874368	54	5803
2026-01-21 16:10:48.61	148.17	62.88	-39.9	-41.3	27.4	3.04e+01	60	41	0	20971520	54	6297
2026-01-21 16:10:49.62	149.10	62.53	-40.0	-41.4	27.4	3.04e+01	55	41	0	22544384	54	6366
2026-01-21 16:10:50.63	150.00	62.19	-39.4	-40.6	28.1	3.04e+01	61	41	0	24641536	54	5854
2026-01-21 16:10:51.64	150.87	61.83	-39.2	-40.4	28.2	3.04e+01	51	41	0	26214400	54	5703
2026-01-21 16:10:52.65	151.72	61.48	-39.8	-41.2	27.6	3.04e+01	61	41	0	28311552	54	6225
2026-01-21 16:10:53.66	152.55	61.12	-39.5	-40.8	27.8	3.04e+01	62	41	0	30408704	54	5965
2026-01-21 16:10:54.67	153.35	60.76	-38.9	-40.1	28.5	3.04e+01	43	41	0	31981568	52	6196
2026-01-21 16:10:55.68	154.13	60.40	-39.0	-40.3	28.3	3.04e+01	59	41	0	34078720	52	6288
2026-01-21 16:10:56.69	154.89	60.03	-38.9	-40.2	28.5	3.04e+01	59	41	0	36175872	52	6217
2026-01-21 16:10:57.70	155.62	59.66	-38.9	-40.2	28.4	3.04e+01	59	41	0	37748736	52	6231
2026-01-21 16:10:58.71	156.34	59.29	-39.1	-40.4	28.1	3.04e+01	60	41	0	39845888	52	6379
2026-01-21 16:10:59.72	157.03	58.92	-38.7	-40.0	28.5	3.04e+01	54	41	0	41418752	52	6068
2026-01-21 16:11:00.73	157.71	58.55	-38.8	-40.1	28.5	3.04e+01	60	41	0	43515904	52	6165
2026-01-21 16:11:01.74	158.37	58.17	-38.8	-40.1	28.4	3.04e+01	58	41	0	45613056	52	6169
2026-01-21 16:11:02.75	159.01	57.80	-38.7	-40.0	28.5	3.04e+01	52	41	0	47185920	52	6071
2026-01-21 16:11:03.75	159.62	57.43	-38.8	-40.1	28.6	3.04e+01	59	41	0	49283072	52	6136
2026-01-21 16:11:04.76	160.23	57.05	-38.1	-39.3	29.1	3.04e+01	61	41	0	51380224	52	5638
2026-01-21 16:11:05.78	160.82	56.67	-38.0	-39.2	29.3	3.04e+01	61	41	0	52953088	52	5593
2026-01-21 16:11:06.78	161.39	56.30	-37.8	-39.0	29.4	3.04e+01	59	41	0	55050240	50	6090
2026-01-21 16:11:07.79	161.95	55.92	-37.9	-39.1	29.3	3.04e+01	54	41	0	56623104	50	6204
2026-01-21 16:11:08.80	162.49	55.54	-38.1	-39.3	29.2	3.04e+01	65	41	0	58720256	50	6312
2026-01-21 16:11:09.81	163.02	55.17	-37.7	-38.9	29.4	3.04e+01	53	41	0	60817408	50	6008
2026-01-21 16:11:10.82	163.54	54.79	-37.4	-38.6	29.7	3.04e+01	57	41	0	62390272	50	5804
2026-01-21 16:11:11.83	164.04	54.42	-37.7	-38.9	29.6	3.04e+01	60	41	0	64487424	50	6022
2026-01-21 16:11:12.84	164.53	54.04	-37.8	-39.0	29.4	3.04e+01	47	41	0	66060288	50	6094
2026-01-21 16:11:13.85	165.00	53.67	-37.6	-38.9	29.5	3.04e+01	61	41	0	68157440	50	6012
2026-01-21 16:11:14.86	165.47	53.30	-37.5	-38.7	29.5	3.04e+01	58	41	0	70254592	50	5869
2026-01-21 16:11:15.87	165.92	52.93	-37.4	-38.6	29.8	3.04e+01	44	41	0	71827456	50	5824
2026-01-21 16:11:16.88	166.36	52.56	-37.7	-39.0	29.4	3.04e+01	56	41	0	73924608	50	6069
2026-01-21 16:11:17.89	166.79	52.19	-37.8	-39.0	29.4	3.04e+01	60	41	0	75497472	50	6067
2026-01-21 16:11:18.89	167.21	51.82	-37.7	-38.9	29.4	3.04e+01	61	41	0	77594624	50	6051
2026-01-21 16:11:19.90	167.62	51.46	-38.3	-39.5	28.9	3.04e+01	57	41	0	79691776	50	6487
2026-01-21 16:11:20.91	168.01	51.09	-38.0	-39.2	29.2	3.04e+01	56	41	0	81264640	50	6228
2026-01-21 16:11:21.92	168.40	50.73	-38.4	-39.7	28.8	3.04e+01	61	41	0	83361792	50	6601
2026-01-21 16:11:22.93	168.79	50.37	-38.6	-39.9	28.6	3.04e+01	58	41	0	84934656	50	6727
2026-01-21 16:11:23.94	169.16	50.01	-38.8	-40.0	28.6	3.04e+01	47	41	0	87031808	50	6866
2026-01-21 16:11:24.95	169.52	49.65	-38.6	-39.8	28.6	3.04e+01	60	41	0	89128960	50	6691
2026-01-21 16:11:25.96	169.88	49.29	-38.4	-39.7	28.7	3.04e+01	61	41	0	90701824	50	6597
2026-01-21 16:11:26.97	170.22	48.94	-38.5	-39.7	28.8	3.04e+01	62	41	0	92798976	50	6631
2026-01-21 16:11:27.98	170.56	48.58	-38.9	-40.1	28.5	3.04e+01	61	41	0	94371840	50	6953
2026-01-21 16:11:28.99	170.89	48.23	-39.0	-40.3	28.4	3.04e+01	60	41	0	96468992	52	6279
2026-01-21 16:11:30.00	171.22	47.88	-39.0	-40.2	28.4	3.04e+01	62	41	0	98566144	52	6273
2026-01-21 16:11:31.01	171.53	47.54	-38.5	-39.8	28.7	3.04e+01	61	41	0	100139008	52	5943
2026-01-21 16:11:32.02	171.84	47.19	-38.5	-39.7	28.7	3.04e+01	46	41	0	102236160	52	5881
2026-01-21 16:11:33.03	172.14	46.85	-38.5	-39.7	28.7	3.04e+01	62	41	0	104333312	52	5900
2026-01-21 16:11:34.04	172.44	46.51	-38.5	-39.7	28.8	3.04e+01	59	41	0	105906176	52	5911
2026-01-21 16:11:35.05	172.73	46.17	-38.3	-39.5	28.9	3.04e+01	57	41	0	108003328	52	5770
2026-01-21 16:11:36.06	173.01	45.83	-38.3	-39.5	28.9	3.04e+01	60	41	0	109576192	52	5782
2026-01-21 16:11:37.07	173.29	45.50	-38.3	-39.5	29.0	3.04e+01	52	41	0	111673344	52	5778
2026-01-21 16:11:38.08	173.57	45.17	-38.4	-39.6	29.0	3.04e+01	57	41	0	113770496	52	5823
2026-01-21 16:11:39.09	173.83	44.84	-38.3	-39.5	28.9	3.04e+01	59	41	0	115343360	52	5782
2026-01-21 16:11:40.10	174.09	44.51	-38.4	-39.7	28.8	3.04e+01	45	41	0	117440512	52	5861
2026-01-21 16:11:41.11	174.35	44.19	-38.7	-39.9	28.6	3.04e+01	60	41	0	119537664	52	6040
2026-01-21 16:11:42.12	174.60	43.86	-38.4	-39.7	28.7	3.04e+01	47	41	0	121110528	52	5865
2026-01-21 16:11:43.13	174.85	43.54	-38.5	-39.8	28.7	3.04e+01	59	41	0	123207680	52	5928
2026-01-21 16:11:44.13	175.08	43.23	-38.4	-39.7	28.8	3.04e+01	61	41	0	124780544	52	5867
2026-01-21 16:11:45.14	175.32	42.91	-38.3	-39.5	28.9	3.04e+01	51	41	0	126877696	52	5746
2026-01-21 16:11:46.15	175.55	42.60	-38.4	-39.6	28.8	3.04e+01	56	41	0	128450560	52	5848
2026-01-21 16:11:47.16	175.78	42.28	-38.5	-39.7	28.6	3.04e+01	58	41	0	130547712	52	5893
2026-01-21 16:11:48.17	176.00	41.97	-38.7	-39.9	28.7	3.04e+01	57	41	0	132644864	52	6023
2026-01-21 16:11:49.18	176.22	41.67	-38.7	-40.0	28.5	3.04e+01	56	41	0	134217728	52	6069
2026-01-21 16:11:50.19	176.43	41.36	-38.7	-40.0	28.4	3.04e+01	47	41	0	136314880	52	6100
2026-01-21 16:11:51.20	176.65	41.06	-38.8	-40.1	28.5	3.04e+01	58	41	0	137887744	52	6176
2026-01-21 16:11:52.21	176.85	40.76	-38.9	-40.2	28.4	3.04e+01	57	41	0	139984896	52	6251
2026-01-21 16:11:53.22	177.06	40.46	-39.1	-40.4	28.1	3.04e+01	48	41	0	142082048	52	6383
2026-01-21 16:11:54.23	177.25	40.16	-39.3	-40.6	28.0	3.04e+01	59	41	0	143654912	52	6506
2026-01-21 16:11:55.24	177.45	39.87	-39.3	-40.6	27.9	3.04e+01	58	41	0	145752064	52	6538
2026-01-21 16:11:56.25	177.64	39.58	-39.2	-40.4	28.2	3.04e+01	56	41	0	147849216	52	6407
2026-01-21 16:11:57.26	177.83	39.29	-38.9	-40.1	28.3	3.04e+01	59	41	0	149422080	52	6196
2026-01-21 16:11:58.27	178.02	39.00	-38.9	-40.2	28.3	3.04e+01	58	41	0	151519232	52	6229
2026-01-21 16:11:59.27	178.20	38.72	-38.8	-40.1	28.4	3.04e+01	58	41	0	153092096	52	6143
2026-01-21 16:12:00.28	178.38	38.44	-38.9	-40.1	28.4	3.04e+01	59	41	0	155189248	52	6171
2026-01-21 16:12:01.29	178.55	38.16	-39.0	-40.3	28.2	3.04e+01	52	41	0	157286400	52	6294
2026-01-21 16:12:02.30	178.73	37.88	-38.8	-40.0	28.5	3.04e+01	60	41	0	158859264	52	6119
2026-01-21 16:12:03.31	178.90	37.60	-38.8	-40.0	28.5	3.04e+01	61	41	0	160956416	52	6132
2026-01-21 16:12:04.32	179.06	37.33	-38.5	-39.7	28.7	3.04e+01	59	41	0	162529280	52	5893
2026-01-21 16:12:05.33	179.23	37.05	-38.4	-39.7	28.8	3.04e+01	59	41	0	164626432	52	5873
2026-01-21 16:12:06.34	179.39	36.78	-38.5	-39.8	28.6	3.04e+01	50	41	0	166723584	52	5936
2026-01-21 16:12:07.35	179.55	36.52	-38.4	-39.7	28.7	3.04e+01	59	41	0	168296448	52	5860
2026-01-21 16:12:08.36	179.71	36.25	-38.4	-39.7	28.8	3.04e+01	58	41	0	170393600	52	5866
2026-01-21 16:12:09.37	179.86	35.99	-38.0	-39.2	29.1	3.04e+01	45	41	0	172490752	52	5577
2026-01-21 16:12:10.37	180.01	35.73	-38.2	-39.4	29.1	3.04e+01	57	41	0	174063616	52	5688
2026-01-21 16:12:11.38	180.16	35.47	-38.0	-39.2	29.2	3.04e+01	61	41	0	176160768	52	5573
2026-01-21 16:12:12.39	180.31	35.21	-38.1	-39.4	29.0	3.04e+01	59	41	0	177733632	52	5673
2026-01-21 16:12:13.40	180.45	34.95	-37.7	-38.8	29.4	3.04e+01	60	41	0	179830784	50	5992
2026-01-21 16:12:14.41	180.59	34.70	-37.5	-38.7	29.5	3.04e+01	52	41	0	181927936	50	5906
2026-01-21 16:12:15.42	180.73	34.45	-37.7	-38.9	29.4	3.04e+01	61	41	0	183500800	50	6010
2026-01-21 16:12:16.43	180.87	34.20	-37.5	-38.7	29.5	3.04e+01	59	41	0	185597952	50	5862
2026-01-21 16:12:17.44	181.01	33.95	-37.2	-38.4	29.7	3.04e+01	60	41	0	187170816	50	5698
2026-01-21 16:12:18.45	181.14	33.71	-37.0	-38.2	29.9	3.04e+01	56	41	0	189267968	50	5546
2026-01-21 16:12:19.46	181.27	33.46	-37.1	-38.2	29.9	3.04e+01	54	41	0	190840832	50	5576
2026-01-21 16:12:20.47	181.40	33.22	-37.1	-38.2	30.0	3.04e+01	60	41	0	192937984	50	5587
2026-01-21 16:12:21.48	181.53	32.98	-37.1	-38.3	29.9	3.04e+01	57	41	0	195035136	50	5643
2026-01-21 16:12:22.48	181.66	32.74	-37.3	-38.5	29.7	3.04e+01	47	41	0	196608000	50	5736
2026-01-21 16:12:23.49	181.78	32.51	-37.0	-38.2	29.9	3.04e+01	59	41	0	198705152	48	6225
2026-01-21 16:12:24.50	181.91	32.27	-37.1	-38.3	29.8	3.04e+01	64	41	0	200802304	48	6280
2026-01-21 16:12:25.51	182.03	32.04	-36.9	-38.1	29.9	3.04e+01	60	41	0	202375168	48	6136
2026-01-21 16:12:26.52	182.15	31.81	-37.0	-38.2	29.9	3.04e+01	57	41	0	204472320	48	6215
2026-01-21 16:12:27.53	182.26	31.58	-36.7	-37.9	30.1	3.04e+01	50	41	0	206045184	48	6034
2026-01-21 16:12:28.54	182.38	31.35	-36.9	-38.1	30.0	3.04e+01	58	41	0	208142336	48	6135
2026-01-21 16:12:29.55	182.49	31.13	-36.8	-37.9	30.1	3.04e+01	57	41	0	210239488	48	6053
2026-01-21 16:12:30.56	182.61	30.90	-36.8	-37.9	30.1	3.04e+01	51	41	0	211812352	48	6060
2026-01-21 16:12:31.57	182.72	30.68	-36.9	-38.0	30.0	3.04e+01	58	41	0	213909504	48	6130
2026-01-21 16:12:32.58	182.83	30.46	-36.9	-38.1	30.0	3.04e+01	57	41	0	216006656	48	6181
2026-01-21 16:12:33.59	182.94	30.24	-36.9	-38.1	29.9	3.04e+01	59	41	0	217579520	48	6167
2026-01-21 16:12:34.60	183.04	30.03	-36.8	-38.0	30.0	3.04e+01	58	41	0	219676672	48	6084
2026-01-21 16:12:35.61	183.15	29.81	-36.9	-38.1	29.9	3.04e+01	58	41	0	221249536	48	6151
2026-01-21 16:12:36.62	183.25	29.60	-37.1	-38.2	29.8	3.04e+01	59	41	0	223346688	48	6277
2026-01-21 16:12:37.63	183.36	29.38	-37.1	-38.3	29.8	3.04e+01	59	41	0	225443840	48	6282
2026-01-21 16:12:38.64	183.46	29.17	-37.2	-38.4	29.7	3.04e+01	48	41	0	227016704	48	6405
2026-01-21 16:12:39.65	183.56	28.96	-37.0	-38.2	29.8	3.04e+01	60	41	0	229113856	48	6257
2026-01-21 16:12:40.66	183.66	28.76	-37.2	-38.3	29.7	3.04e+01	61	41	0	230686720	48	6347
2026-01-21 16:12:41.67	183.75	28.55	-37.3	-38.5	29.6	3.04e+01	59	41	0	232783872	48	6484
2026-01-21 16:12:42.68	183.85	28.35	-37.5	-38.7	29.4	3.04e+01	59	41	0	234881024	48	6602
2026-01-21 16:12:43.69	183.95	28.14	-37.5	-38.8	29.3	3.04e+01	49	41	0	236453888	48	6655
2026-01-21 16:12:44.70	184.04	27.94	-37.5	-38.8	29.3	3.04e+01	59	41	0	238551040	48	6663
2026-01-21 16:12:45.71	184.13	27.74	-37.6	-38.8	29.3	3.04e+01	58	41	0	240123904	48	6699
2026-01-21 16:12:46.71	184.22	27.55	-37.7	-39.0	29.2	3.04e+01	50	41	0	242221056	48	6823
2026-01-21 16:12:47.72	184.31	27.35	-37.7	-38.9	29.3	3.04e+01	56	41	0	244318208	48	6758
2026-01-21 16:12:48.73	184.40	27.15	-37.7	-38.9	29.3	3.04e+01	59	41	0	245891072	48	6772
2026-01-21 16:12:49.74	184.49	26.96	-37.6	-38.8	29.3	3.04e+01	58	41	0	247988224	48	6699
2026-01-21 16:12:50.75	184.58	26.77	-37.7	-38.9	29.1	3.04e+01	59	41	0	249561088	48	6803
2026-01-21 16:12:51.76	184.67	26.58	-37.8	-39.0	29.2	3.04e+01	56	41	0	251658240	48	6881
2026-01-21 16:12:52.77	184.75	26.39	-37.7	-39.0	29.2	3.04e+01	59	41	0	253755392	50	6068
2026-01-21 16:12:53.78	184.83	26.20	-37.9	-39.1	29.1	3.04e+01	58	41	0	255328256	50	6200
2026-01-21 16:12:54.78	184.92	26.01	-37.9	-39.1	29.2	3.04e+01	50	41	0	257425408	50	6167
2026-01-21 16:12:55.80	185.00	25.83	-38.0	-39.2	29.1	3.04e+01	59	41	0	258998272	50	6241
2026-01-21 16:12:56.81	185.08	25.64	-38.1	-39.4	28.9	3.04e+01	48	41	0	261095424	50	6353
2026-01-21 16:12:57.81	185.16	25.46	-38.1	-39.3	28.9	3.04e+01	61	41	0	263192576	50	6328
2026-01-21 16:12:58.82	185.24	25.28	-38.3	-39.6	28.6	3.04e+01	62	41	0	264765440	50	6536
2026-01-21 16:12:59.83	185.32	25.10	-38.1	-39.4	28.9	3.04e+01	56	41	0	266862592	50	6359
2026-01-21 16:13:00.84	185.40	24.92	-38.1	-39.3	28.9	3.04e+01	60	41	0	268959744	50	6324
2026-01-21 16:13:01.85	185.47	24.74	-38.0	-39.3	28.9	3.04e+01	59	41	0	270532608	50	6282
2026-01-21 16:13:02.86	185.55	24.56	-38.0	-39.2	29.0	3.04e+01	57	41	0	272629760	50	6228
2026-01-21 16:13:03.87	185.63	24.39	-37.9	-39.1	29.0	3.04e+01	61	41	0	274202624	50	6157
2026-01-21 16:13:04.88	185.70	24.21	-37.9	-39.1	29.1	3.04e+01	56	41	0	276299776	50	6181
2026-01-21 16:13:05.89	185.77	24.04	-38.1	-39.3	28.9	3.04e+01	58	41	0	278396928	50	6314
2026-01-21 16:13:06.90	185.85	23.87	-38.4	-39.6	28.6	3.04e+01	60	41	0	279969792	50	6567
2026-01-21 16:13:07.91	185.92	23.70	-38.1	-39.4	28.9	3.04e+01	46	41	0	282066944	50	6368
2026-01-21 16:13:08.92	185.99	23.53	-38.3	-39.5	28.8	3.04e+01	59	41	0	284164096	50	6469
2026-01-21 16:13:09.93	186.06	23.36	-38.3	-39.6	28.8	3.04e+01	58	41	0	285736960	50	6504
2026-01-21 16:13:10.94	186.13	23.19	-38.1	-39.3	28.9	3.04e+01	57	41	0	287834112	50	6314
2026-01-21 16:13:11.95	186.20	23.03	-38.2	-39.5	28.8	3.04e+01	58	41	0	289406976	50	6452
2026-01-21 16:13:12.96	186.27	22.86	-38.2	-39.5	28.8	3.04e+01	58	41	0	291504128	50	6429
2026-01-21 16:13:13.97	186.34	22.70	-38.1	-39.3	28.9	3.04e+01	60	41	0	293601280	50	6312
2026-01-21 16:13:14.98	186.40	22.54	-38.0	-39.2	28.9	3.04e+01	59	41	0	295174144	50	6272
2026-01-21 16:13:15.99	186.47	22.37	-38.0	-39.3	28.9	3.04e+01	49	41	0	297271296	50	6293
2026-01-21 16:13:16.99	186.53	22.21	-38.2	-39.4	28.7	3.04e+01	60	41	0	298844160	50	6395
2026-01-21 16:13:18.01	186.60	22.05	-38.1	-39.4	28.7	3.04e+01	58	41	0	300941312	50	6383
2026-01-21 16:13:19.02	186.66	21.89	-38.1	-39.4	28.7	3.04e+01	58	41	0	303038464	50	6374
2026-01-21 16:13:20.02	186.73	21.74	-38.3	-39.5	28.6	3.04e+01	63	41	0	304611328	50	6471
2026-01-21 16:13:21.03	186.79	21.58	-38.0	-39.2	29.0	3.04e+01	50	41	0	306708480	50	6246
2026-01-21 16:13:22.04	186.85	21.43	-38.0	-39.3	28.9	3.04e+01	62	41	0	308281344	50	6311
2026-01-21 16:13:23.05	186.91	21.27	-38.0	-39.3	28.9	3.04e+01	57	41	0	310378496	50	6306
2026-01-21 16:13:24.06	186.97	21.12	-38.0	-39.3	28.9	3.04e+01	44	41	0	312475648	50	6288
2026-01-21 16:13:25.07	187.03	20.97	-37.9	-39.2	28.9	3.04e+01	59	41	0	314048512	50	6214
2026-01-21 16:13:26.08	187.09	20.82	-38.0	-39.2	28.9	3.04e+01	60	41	0	316145664	50	6259
2026-01-21 16:13:27.09	187.15	20.66	-38.0	-39.2	28.9	3.04e+01	57	41	0	317718528	50	6254
2026-01-21 16:13:28.10	187.21	20.52	-37.8	-39.1	29.0	3.04e+01	60	41	0	319815680	50	6157
2026-01-21 16:13:29.11	187.27	20.37	-38.0	-39.3	28.8	3.04e+01	51	41	0	321912832	50	6289
2026-01-21 16:13:30.12	187.33	20.22	-38.3	-39.6	28.6	3.04e+01	56	41	0	323485696	50	6522
2026-01-21 16:13:31.13	187.39	20.07	-38.0	-39.2	29.0	3.04e+01	61	41	0	325582848	50	6243
2026-01-21 16:13:32.14	187.44	19.93	-37.7	-39.0	29.1	3.04e+01	52	41	0	327155712	50	6074
2026-01-21 16:13:33.15	187.50	19.78	-37.7	-39.0	29.2	3.04e+01	60	41	0	329252864	50	6077
2026-01-21 16:13:34.16	187.55	19.64	-37.8	-39.0	29.0	3.04e+01	47	41	0	331350016	50	6119
2026-01-21 16:13:35.17	187.61	19.49	-37.7	-38.9	29.2	3.04e+01	59	41	0	332922880	50	6049
2026-01-21 16:13:36.18	187.66	19.35	-37.7	-39.0	29.2	3.04e+01	59	41	0	335020032	50	6065
2026-01-21 16:13:37.19	187.72	19.21	-37.6	-38.9	29.2	3.04e+01	44	41	0	337117184	50	6000
2026-01-21 16:13:38.20	187.77	19.07	-37.7	-38.9	29.2	3.04e+01	58	41	0	338690048	50	6022
2026-01-21 16:13:39.21	187.82	18.93	-37.7	-39.0	29.2	3.04e+01	59	41	0	340787200	50	6069
2026-01-21 16:13:40.22	187.88	18.79	-37.7	-38.9	29.2	3.04e+01	58	41	0	342360064	50	6024
2026-01-21 16:13:41.23	187.93	18.65	-37.6	-38.8	29.3	3.04e+01	58	41	0	344457216	50	5953
2026-01-21 16:13:42.24	187.98	18.52	-37.7	-38.9	29.2	3.04e+01	44	41	0	346554368	50	6008
2026-01-21 16:13:43.25	188.03	18.38	-37.7	-38.9	29.1	3.04e+01	60	41	0	348127232	50	6055
2026-01-21 16:13:44.26	188.08	18.24	-37.8	-39.0	29.2	3.04e+01	59	41	0	350224384	50	6108
2026-01-21 16:13:45.27	188.13	18.11	-37.7	-38.9	29.2	3.04e+01	54	41	0	352321536	50	6054
2026-01-21 16:13:46.28	188.18	17.98	-37.6	-38.8	29.3	3.04e+01	61	41	0	353894400	50	5981
2026-01-21 16:13:47.29	188.23	17.84	-37.8	-39.0	29.2	3.04e+01	60	41	0	355991552	50	6105
2026-01-21 16:13:48.29	188.28	17.71	-37.6	-38.8	29.3	3.04e+01	59	41	0	357564416	50	5981
2026-01-21 16:13:49.30	188.33	17.58	-37.7	-38.9	29.2	3.04e+01	57	41	0	359661568	50	6044
2026-01-21 16:13:50.31	188.38	17.45	-37.6	-38.9	29.2	3.04e+01	47	41	0	361758720	50	6002
2026-01-21 16:13:51.33	188.43	17.32	-37.6	-38.8	29.3	3.04e+01	59	41	0	363331584	50	5961
2026-01-21 16:13:52.34	188.47	17.19	-37.6	-38.8	29.2	3.04e+01	62	41	0	365428736	50	5978
2026-01-21 16:13:53.35	188.52	17.06	-37.7	-38.9	29.2	3.04e+01	53	41	0	367001600	50	6046
2026-01-21 16:13:54.36	188.57	16.93	-37.7	-38.9	29.2	3.04e+01	59	41	0	369098752	50	6031
2026-01-21 16:13:55.37	188.61	16.80	-37.6	-38.8	29.1	3.04e+01	62	41	0	371195904	50	5992
2026-01-21 16:13:56.38	188.66	16.68	-37.8	-39.0	29.2	3.04e+01	57	41	0	372768768	50	6122
2026-01-21 16:13:57.39	188.71	16.55	-37.7	-39.0	29.1	3.04e+01	59	41	0	374865920	50	6070
2026-01-21 16:13:58.40	188.75	16.43	-37.5	-38.7	29.2	3.04e+01	58	41	0	376438784	50	5923
2026-01-21 16:13:59.41	188.80	16.30	-37.5	-38.7	29.3	3.04e+01	62	41	0	378535936	50	5919
2026-01-21 16:14:00.42	188.84	16.18	-37.6	-38.9	29.2	3.04e+01	59	41	0	380633088	50	5995
2026-01-21 16:14:01.43	188.88	16.05	-37.5	-38.7	29.4	3.04e+01	47	41	0	382205952	50	5901
2026-01-21 16:14:02.44	188.93	15.93	-37.5	-38.7	29.3	3.04e+01	61	41	0	384303104	50	5895
2026-01-21 16:14:03.45	188.97	15.81	-37.5	-38.7	29.4	3.04e+01	50	41	0	385875968	50	5882
2026-01-21 16:14:04.46	189.01	15.69	-37.6	-38.8	29.2	3.04e+01	60	41	0	387973120	50	5987
2026-01-21 16:14:05.47	189.06	15.57	-37.5	-38.7	29.3	3.04e+01	59	41	0	390070272	50	5916
2026-01-21 16:14:06.48	189.10	15.45	-37.6	-38.9	29.2	3.04e+01	53	41	0	391643136	50	5995
2026-01-21 16:14:07.49	189.14	15.33	-37.6	-38.8	29.2	3.04e+01	58	41	0	393740288	50	5982
2026-01-21 16:14:08.50	189.18	15.21	-37.6	-38.8	29.2	3.04e+01	54	41	0	395313152	50	5969
2026-01-21 16:14:09.50	189.22	15.09	-37.7	-38.9	29.2	3.04e+01	59	41	0	397410304	50	6064
2026-01-21 16:14:10.52	189.27	14.98	-37.6	-38.9	29.3	3.04e+01	61	41	0	399507456	50	6001
2026-01-21 16:14:11.53	189.31	14.86	-37.7	-38.9	29.3	3.04e+01	50	41	0	401080320	50	6036
2026-01-21 16:14:12.53	189.35	14.74	-37.7	-38.9	29.1	3.04e+01	58	41	0	403177472	50	6048
2026-01-21 16:14:13.54	189.39	14.63	-37.6	-38.8	29.3	3.04e+01	58	41	0	405274624	50	5987
2026-01-21 16:14:14.55	189.43	14.51	-37.7	-38.9	29.2	3.04e+01	46	41	0	406847488	50	6029
2026-01-21 16:14:15.56	189.47	14.40	-37.7	-38.9	29.2	3.04e+01	59	41	0	408944640	50	6029
2026-01-21 16:14:16.57	189.51	14.29	-37.7	-38.9	29.2	3.04e+01	59	41	0	410517504	50	6063
2026-01-21 16:14:17.58	189.54	14.17	-37.7	-39.0	29.1	3.04e+01	59	41	0	412614656	50	6067
2026-01-21 16:14:18.59	189.58	14.06	-37.8	-39.0	29.1	3.04e+01	57	41	0	414711808	50	6107
2026-01-21 16:14:19.60	189.62	13.95	-37.8	-39.1	29.0	3.04e+01	50	41	0	416284672	50	6138
2026-01-21 16:14:20.61	189.66	13.84	-37.8	-39.0	29.0	3.04e+01	59	41	0	418381824	50	6108
2026-01-21 16:14:21.62	189.70	13.73	-37.8	-39.0	29.1	3.04e+01	58	41	0	420478976	50	6098
2026-01-21 16:14:22.63	189.74	13.62	-37.8	-39.0	29.1	3.04e+01	45	41	0	422051840	50	6131
2026-01-21 16:14:23.64	189.77	13.51	-37.8	-39.0	29.1	3.04e+01	56	41	0	424148992	50	6116
2026-01-21 16:14:24.65	189.81	13.40	-38.0	-39.2	28.9	3.04e+01	58	41	0	425721856	50	6250
2026-01-21 16:14:25.66	189.85	13.29	-37.9	-39.1	28.9	3.04e+01	58	41	0	427819008	50	6180
2026-01-21 16:14:26.67	189.88	13.18	-37.8	-39.1	29.0	3.04e+01	59	41	0	429916160	50	6143
2026-01-21 16:14:27.68	189.92	13.07	-37.8	-39.0	29.0	3.04e+01	44	41	0	431489024	50	6120
2026-01-21 16:14:28.69	189.96	12.96	-37.9	-39.1	28.9	3.04e+01	60	41	0	433586176	50	6162
2026-01-21 16:14:29.70	189.99	12.86	-37.9	-39.1	28.9	3.04e+01	61	41	0	435159040	50	6165
2026-01-21 16:14:30.71	190.03	12.75	-37.8	-39.1	29.0	3.04e+01	49	41	0	437256192	50	6150
2026-01-21 16:14:31.72	190.06	12.65	-37.9	-39.1	28.9	3.04e+01	59	41	0	439353344	50	6205
2026-01-21 16:14:32.73	190.10	12.54	-37.9	-39.2	28.8	3.04e+01	60	41	0	440926208	50	6219
2026-01-21 16:14:33.74	190.13	12.44	-38.0	-39.2	28.8	3.04e+01	58	41	0	443023360	50	6256
2026-01-21 16:14:34.75	190.17	12.33	-38.0	-39.2	28.9	3.04e+01	60	41	0	444596224	50	6257
2026-01-21 16:14:35.76	190.20	12.23	-38.1	-39.3	28.8	3.04e+01	53	41	0	446693376	50	6301
2026-01-21 16:14:36.77	190.23	12.13	-38.0	-39.2	28.9	3.04e+01	58	41	0	448790528	50	6247
2026-01-21 16:14:37.78	190.27	12.02	-38.0	-39.3	28.8	3.04e+01	62	41	0	450363392	50	6281
2026-01-21 16:14:38.79	190.30	11.92	-38.0	-39.3	28.8	3.04e+01	49	41	0	452460544	50	6303
2026-01-21 16:14:39.79	190.34	11.82	-37.9	-39.2	28.9	3.04e+01	56	41	0	454033408	50	6209
2026-01-21 16:14:40.80	190.37	11.72	-38.3	-39.5	28.6	3.04e+01	59	41	0	456130560	50	6468
2026-01-21 16:14:41.81	190.40	11.62	-38.2	-39.4	28.6	3.04e+01	59	41	0	458227712	50	6419
2026-01-21 16:14:42.82	190.43	11.52	-38.0	-39.3	28.8	3.04e+01	62	41	0	459800576	50	6296
2026-01-21 16:14:43.84	190.47	11.42	-38.2	-39.4	28.6	3.04e+01	46	41	0	461897728	50	6411
2026-01-21 16:14:44.84	190.50	11.32	-38.2	-39.5	28.6	3.04e+01	58	41	0	463470592	50	6427
2026-01-21 16:14:45.86	190.53	11.22	-38.2	-39.4	28.7	3.04e+01	61	41	0	465567744	50	6405
2026-01-21 16:14:46.87	190.56	11.12	-38.1	-39.3	28.8	3.04e+01	55	41	0	467664896	50	6316
2026-01-21 16:14:47.88	190.59	11.02	-38.1	-39.4	28.7	3.04e+01	59	41	0	469237760	50	6365
2026-01-21 16:14:48.88	190.63	10.92	-38.1	-39.3	28.7	3.04e+01	51	41	0	471334912	50	6348
2026-01-21 16:14:49.89	190.66	10.83	-38.2	-39.4	28.7	3.04e+01	58	41	0	473432064	50	6415
2026-01-21 16:14:50.90	190.69	10.73	-38.2	-39.4	28.6	3.04e+01	60	41	0	475004928	50	6397
2026-01-21 16:14:51.91	190.72	10.63	-38.2	-39.5	28.6	3.04e+01	51	41	0	477102080	50	6425
2026-01-21 16:14:52.92	190.75	10.54	-38.2	-39.5	28.6	3.04e+01	56	41	0	478674944	50	6442
2026-01-21 16:14:53.93	190.78	10.44	-38.3	-39.6	28.5	3.04e+01	60	41	0	480772096	50	6524
