passes_logs/2026/01/21/R4.6S_Anadyr/R4.6S_Anadyr__20260121_213705_TY-42_rec.log

#Pass ID: 20260121_213705_TY-42
#Satellite: TY-42
#Configuration: TY-42_900M
#almurnet v.1.7.20251203
#Start time: 2026-01-21 21:37:37

#Version: 2.2.20231116
#Station: R4.6S_Anadyr
#Location: 177.4865 lon 64.73178 lat
#TLE: 1 64048U 25103A   26020.90027778  .00008008  00000-0  38191-3 0 09994
#TLE: 2 64048 097.4121 096.2065 0001560 086.9654 301.4475 15.19159220 37713

#Time	Az	El	Level	Level2	SNR	BER	BlckErr	Temp	State	Recorded	gain1	gain2
2026-01-21 21:37:37.59	26.74	1.71	-51.6	-53.0	3.4	0.00e+00	0	39	0	0	60	54791
2026-01-21 21:37:38.57	26.85	1.76	-49.3	-51.8	6.1	0.00e+00	0	40	104	0	60	47645
2026-01-21 21:37:39.55	26.96	1.82	-49.3	-51.8	6.1	0.00e+00	0	41	104	0	60	47468
2026-01-21 21:37:40.52	27.07	1.87	-49.2	-51.7	6.1	0.00e+00	0	41	104	0	60	47375
2026-01-21 21:37:41.50	27.18	1.92	-49.2	-51.7	6.1	0.00e+00	0	41	104	0	60	47317
2026-01-21 21:37:42.48	27.29	1.98	-49.2	-51.7	6.1	0.00e+00	0	41	104	0	60	47291
2026-01-21 21:37:43.46	27.40	2.03	-49.3	-51.8	6.1	0.00e+00	0	41	104	0	60	47499
2026-01-21 21:37:44.43	27.50	2.08	-49.3	-51.8	6.1	0.00e+00	0	41	104	0	60	47440
2026-01-21 21:37:45.41	27.62	2.14	-49.2	-51.8	6.1	0.00e+00	0	41	104	0	60	47386
2026-01-21 21:37:46.39	27.73	2.19	-49.3	-51.8	6.1	0.00e+00	0	41	104	0	60	47507
2026-01-21 21:37:47.37	27.84	2.24	-49.2	-51.8	6.1	0.00e+00	0	41	104	0	60	47613
2026-01-21 21:37:48.35	27.95	2.30	-49.2	-51.7	6.1	0.00e+00	0	41	104	0	60	47176
2026-01-21 21:37:49.32	28.06	2.35	-49.2	-51.7	6.1	0.00e+00	0	41	104	0	60	47210
2026-01-21 21:37:50.30	28.18	2.40	-49.2	-51.7	6.1	0.00e+00	0	41	104	0	60	47211
2026-01-21 21:37:51.28	28.29	2.46	-49.3	-51.7	6.1	0.00e+00	0	41	104	0	60	47336
2026-01-21 21:37:52.26	28.41	2.51	-49.2	-51.8	6.1	0.00e+00	0	41	104	0	60	47695
2026-01-21 21:37:53.23	28.52	2.56	-49.2	-51.7	6.1	0.00e+00	0	41	104	0	60	47210
2026-01-21 21:37:54.21	28.64	2.62	-49.3	-51.8	6.1	0.00e+00	0	41	104	0	60	47494
2026-01-21 21:37:55.19	28.75	2.67	-49.2	-51.8	6.1	0.00e+00	0	41	104	0	60	47434
2026-01-21 21:37:56.16	28.87	2.73	-49.2	-51.8	6.1	0.00e+00	0	41	104	0	60	47575
2026-01-21 21:37:57.14	28.98	2.78	-49.2	-51.7	6.1	0.00e+00	0	41	104	0	60	47331
2026-01-21 21:37:58.12	29.10	2.84	-49.2	-51.7	6.1	0.00e+00	0	41	104	0	60	47070
2026-01-21 21:37:59.09	29.22	2.89	-49.2	-51.8	6.1	0.00e+00	0	41	104	0	60	47605
2026-01-21 21:38:00.07	29.34	2.94	-49.2	-51.7	6.1	0.00e+00	0	41	104	0	60	47266
2026-01-21 21:38:01.05	29.46	3.00	-49.2	-51.7	6.1	0.00e+00	0	41	104	0	60	47111
2026-01-21 21:38:02.03	29.58	3.05	-49.2	-51.7	6.1	0.00e+00	0	41	104	0	60	47269
2026-01-21 21:38:03.01	29.70	3.11	-49.2	-51.7	6.1	0.00e+00	0	41	104	0	60	47203
2026-01-21 21:38:03.98	29.82	3.16	-49.2	-51.8	6.1	0.00e+00	0	41	104	0	60	47471
2026-01-21 21:38:04.96	29.94	3.22	-49.3	-51.8	6.1	0.00e+00	0	41	104	0	60	47400
2026-01-21 21:38:05.94	30.06	3.27	-49.8	-52.3	6.1	0.00e+00	0	42	104	0	60	50471
2026-01-21 21:38:06.92	30.18	3.33	-49.5	-51.9	6.1	0.00e+00	0	41	104	0	60	48398
2026-01-21 21:38:07.90	30.31	3.38	-49.7	-52.2	6.1	0.00e+00	0	41	104	0	60	49938
2026-01-21 21:38:08.88	30.43	3.44	-49.7	-52.1	6.1	0.00e+00	0	42	104	0	60	49336
2026-01-21 21:38:09.86	30.56	3.49	-49.3	-51.8	6.1	0.00e+00	0	42	104	0	60	47694
2026-01-21 21:38:10.83	30.68	3.55	-49.6	-52.0	6.1	0.00e+00	0	42	104	0	60	48921
2026-01-21 21:38:11.81	30.80	3.60	-49.7	-52.2	6.1	0.00e+00	0	42	104	0	60	49727
2026-01-21 21:38:12.79	30.93	3.66	-49.4	-51.9	6.1	0.00e+00	0	42	104	0	60	48080
2026-01-21 21:38:13.77	31.06	3.71	-49.7	-52.1	6.1	0.00e+00	0	42	104	0	60	49605
2026-01-21 21:38:14.74	31.18	3.77	-49.5	-52.0	6.1	0.00e+00	0	42	104	0	60	48669
2026-01-21 21:38:15.72	31.31	3.82	-49.6	-52.1	6.1	0.00e+00	0	42	104	0	60	49519
2026-01-21 21:38:16.70	31.44	3.88	-49.6	-52.1	6.1	0.00e+00	0	42	104	0	60	49293
2026-01-21 21:38:17.67	31.57	3.93	-49.3	-51.8	6.1	0.00e+00	0	42	104	0	60	47908
2026-01-21 21:38:18.65	31.70	3.99	-49.4	-51.9	6.1	0.00e+00	0	42	104	0	60	48278
2026-01-21 21:38:19.63	31.83	4.04	-49.7	-52.2	6.1	0.00e+00	0	42	104	0	60	50068
2026-01-21 21:38:20.60	31.96	4.10	-49.8	-52.3	6.1	0.00e+00	0	42	104	0	60	50533
2026-01-21 21:38:21.58	32.09	4.15	-49.5	-52.0	6.1	0.00e+00	0	42	104	0	60	48923
2026-01-21 21:38:22.56	32.22	4.21	-49.7	-52.2	6.1	0.00e+00	0	42	104	0	60	49733
2026-01-21 21:38:23.53	32.35	4.26	-49.6	-52.2	6.1	0.00e+00	0	42	104	0	60	49678
2026-01-21 21:38:24.51	32.48	4.32	-49.9	-52.4	6.1	0.00e+00	0	42	104	0	60	50913
2026-01-21 21:38:25.49	32.62	4.38	-49.8	-52.3	6.1	0.00e+00	0	42	104	0	60	50435
2026-01-21 21:38:26.47	32.75	4.43	-49.7	-52.2	6.1	0.00e+00	0	42	104	0	60	50107
2026-01-21 21:38:27.45	32.89	4.49	-49.8	-52.2	6.1	0.00e+00	0	42	104	0	60	50102
2026-01-21 21:38:28.43	33.02	4.54	-49.9	-52.4	6.1	0.00e+00	0	42	104	0	60	50838
2026-01-21 21:38:29.40	33.16	4.60	-49.8	-52.3	6.1	0.00e+00	0	42	104	0	60	50550
2026-01-21 21:38:30.38	33.29	4.65	-49.7	-52.2	6.1	0.00e+00	0	42	104	0	60	50152
2026-01-21 21:38:31.36	33.43	4.71	-49.7	-52.2	6.1	0.00e+00	0	42	104	0	60	49912
2026-01-21 21:38:32.33	33.57	4.77	-50.0	-52.5	6.1	0.00e+00	0	42	104	0	60	51398
2026-01-21 21:38:33.31	33.71	4.82	-49.9	-52.3	6.1	0.00e+00	0	42	104	0	60	50514
2026-01-21 21:38:34.29	33.85	4.88	-49.8	-52.3	6.1	0.00e+00	0	42	104	0	60	50572
2026-01-21 21:38:35.26	33.99	4.93	-49.8	-52.3	6.1	0.00e+00	0	42	104	0	60	50189
2026-01-21 21:38:36.24	34.13	4.99	-49.7	-52.3	6.1	0.00e+00	0	42	104	0	60	50440
2026-01-21 21:38:37.22	34.27	5.05	-50.0	-52.4	6.1	0.00e+00	0	42	104	0	60	51317
2026-01-21 21:38:38.20	34.41	5.10	-49.8	-52.3	6.1	0.00e+00	0	42	104	0	60	50421
2026-01-21 21:38:39.18	34.55	5.16	-49.7	-52.2	6.1	0.00e+00	0	42	104	0	60	49871
2026-01-21 21:38:40.16	34.70	5.22	-50.0	-52.4	6.1	0.00e+00	0	42	104	0	60	51264
2026-01-21 21:38:41.14	34.84	5.27	-50.0	-52.5	6.1	0.00e+00	0	42	104	0	60	51583
2026-01-21 21:38:42.12	34.99	5.33	-49.9	-52.4	6.1	0.00e+00	0	42	104	0	60	51149
2026-01-21 21:38:43.09	35.13	5.38	-49.8	-52.3	6.1	0.00e+00	0	42	104	0	60	50388
2026-01-21 21:38:44.07	35.28	5.44	-50.0	-52.5	6.1	0.00e+00	0	42	104	0	60	51705
2026-01-21 21:38:45.05	35.42	5.50	-50.1	-52.5	6.1	0.00e+00	0	42	104	0	60	51858
2026-01-21 21:38:46.03	35.57	5.55	-49.9	-52.4	6.1	0.00e+00	0	42	104	0	60	51119
2026-01-21 21:38:47.01	35.72	5.61	-50.0	-52.5	6.1	0.00e+00	0	42	104	0	60	51359
2026-01-21 21:38:47.98	35.87	5.67	-50.0	-52.5	6.1	0.00e+00	0	42	104	0	60	51523
2026-01-21 21:38:48.96	36.02	5.72	-29.3	-29.6	13.1	0.00e+00	1967	42	104	0	34	16486
2026-01-21 21:38:49.94	36.17	5.78	-47.6	-49.1	6.3	1.86e-02	0	42	104	16777216	60	34947
2026-01-21 21:38:50.92	36.32	5.84	-30.1	-30.4	13.1	0.00e+00	1660	43	104	16777216	36	16072
2026-01-21 21:38:51.90	36.47	5.89	-29.6	-30.1	16.3	0.00e+00	0	43	0	83886080	34	17573
2026-01-21 21:38:52.87	36.62	5.95	-28.7	-29.2	16.5	1.68e-02	0	43	0	192937984	34	15822
2026-01-21 21:38:53.85	36.78	6.01	-29.1	-29.6	16.4	1.68e-02	0	43	0	301989888	32	18562
2026-01-21 21:38:54.82	36.93	6.06	-28.8	-29.3	16.5	2.18e-04	0	43	0	411041792	32	17907
2026-01-21 21:38:55.80	37.08	6.12	-28.7	-29.2	16.6	2.18e-04	0	43	0	520093696	32	17687
2026-01-21 21:38:56.78	37.24	6.18	-29.2	-29.7	16.4	8.17e-05	0	43	0	637534208	32	18765
2026-01-21 21:38:57.76	37.39	6.23	-29.0	-29.5	16.5	8.17e-05	0	43	0	746586112	32	18308
2026-01-21 21:38:58.74	37.55	6.29	-29.0	-29.5	16.5	1.20e-04	0	43	0	855638016	32	18265
2026-01-21 21:38:59.72	37.71	6.35	-29.2	-29.7	16.5	1.20e-04	0	43	0	964689920	32	18648
2026-01-21 21:39:00.69	37.87	6.40	-29.0	-29.5	16.5	1.09e-04	0	43	0	1073741824	32	18286
2026-01-21 21:39:01.68	38.03	6.46	-29.0	-29.5	16.5	1.09e-04	0	43	0	1182793728	32	18231
2026-01-21 21:39:02.66	38.19	6.52	-28.7	-29.2	16.6	1.09e-04	0	43	0	1291845632	32	17729
2026-01-21 21:39:03.63	38.35	6.57	-28.7	-29.2	16.6	7.62e-05	0	43	0	1400897536	32	17660
2026-01-21 21:39:04.61	38.51	6.63	-28.7	-29.2	16.5	7.62e-05	0	43	0	1518338048	32	17742
2026-01-21 21:39:05.59	38.67	6.69	-28.8	-29.3	16.5	4.90e-05	0	43	0	1627389952	32	17861
2026-01-21 21:39:06.57	38.83	6.74	-28.7	-29.2	16.5	4.90e-05	0	43	0	1736441856	32	17620
2026-01-21 21:39:07.54	38.99	6.80	-29.1	-29.6	16.4	1.20e-04	0	43	0	1845493760	32	18592
2026-01-21 21:39:08.52	39.16	6.86	-28.7	-29.2	16.5	1.09e-04	0	43	0	1954545664	32	17793
2026-01-21 21:39:09.50	39.32	6.91	-28.6	-29.1	16.6	1.09e-04	0	43	0	2063597568	32	17538
2026-01-21 21:39:10.48	39.49	6.97	-28.7	-29.2	16.6	1.09e-04	0	43	0	2172649472	32	17616
2026-01-21 21:39:11.45	39.66	7.03	-28.5	-29.0	16.7	9.80e-05	0	43	0	2281701376	32	17356
2026-01-21 21:39:12.43	39.82	7.08	-28.6	-29.1	16.6	9.80e-05	0	43	0	2399141888	32	17534
2026-01-21 21:39:13.41	39.99	7.14	-28.7	-29.2	16.6	4.35e-05	0	43	0	2508193792	32	17795
2026-01-21 21:39:14.39	40.16	7.20	-28.6	-29.1	16.5	4.35e-05	0	43	0	2617245696	32	17461
2026-01-21 21:39:15.37	40.33	7.26	-27.8	-28.3	16.5	8.71e-05	0	43	0	2726297600	30	17876
2026-01-21 21:39:16.35	40.50	7.31	-28.3	-28.8	16.4	8.71e-05	0	43	0	2835349504	30	18917
2026-01-21 21:39:17.32	40.67	7.37	-28.3	-28.7	16.4	1.03e-04	0	43	0	2944401408	30	18855
2026-01-21 21:39:18.30	40.85	7.42	-28.3	-28.8	16.4	1.03e-04	0	43	0	3053453312	30	18963
2026-01-21 21:39:19.28	41.02	7.48	-28.3	-28.8	16.4	1.52e-04	0	43	0	3162505216	30	18892
2026-01-21 21:39:20.26	41.19	7.54	-28.4	-28.9	16.4	1.52e-04	0	43	0	3271557120	30	19140
2026-01-21 21:39:21.23	41.37	7.59	-28.3	-28.8	16.5	1.69e-04	0	43	0	3388997632	30	19058
2026-01-21 21:39:22.21	41.54	7.65	-28.4	-28.9	16.5	1.69e-04	0	43	0	3498049536	30	19148
2026-01-21 21:39:23.19	41.72	7.71	-28.4	-28.9	16.6	8.71e-05	0	43	0	3607101440	30	19221
2026-01-21 21:39:24.16	41.89	7.76	-28.7	-29.2	16.5	8.71e-05	0	43	0	3716153344	32	17797
2026-01-21 21:39:25.14	42.07	7.82	-28.3	-28.8	16.6	3.81e-05	0	43	0	3825205248	32	16929
2026-01-21 21:39:26.12	42.25	7.88	-28.4	-28.9	16.6	3.81e-05	0	43	0	3934257152	32	17063
2026-01-21 21:39:27.10	42.43	7.93	-28.1	-28.6	16.7	9.26e-05	0	43	0	4043309056	32	16494
2026-01-21 21:39:28.08	42.61	7.99	-28.2	-28.7	16.7	9.26e-05	0	43	0	4152360960	32	16694
2026-01-21 21:39:29.06	42.79	8.05	-28.3	-28.8	16.6	4.35e-05	0	43	0	4269801472	32	16837
2026-01-21 21:39:30.04	42.98	8.10	-27.8	-28.3	16.7	4.35e-05	0	43	0	4378853376	32	16053
2026-01-21 21:39:31.02	43.16	8.16	-28.2	-28.7	16.7	3.26e-05	0	43	0	4487905280	32	16771
2026-01-21 21:39:31.99	43.34	8.22	-28.1	-28.6	16.8	3.26e-05	0	43	0	4596957184	32	16551
2026-01-21 21:39:32.97	43.53	8.27	-28.1	-28.6	16.7	6.53e-05	0	43	0	4706009088	32	16591
2026-01-21 21:39:33.95	43.71	8.33	-28.0	-28.5	16.8	6.53e-05	0	43	0	4815060992	32	16288
2026-01-21 21:39:34.93	43.90	8.38	-28.0	-28.5	16.8	4.35e-05	0	43	0	4924112896	32	16420
2026-01-21 21:39:35.91	44.09	8.44	-28.0	-28.5	16.8	4.35e-05	0	44	0	5033164800	32	16285
2026-01-21 21:39:36.88	44.28	8.50	-28.1	-28.6	16.8	4.35e-05	0	43	0	5142216704	32	16490
2026-01-21 21:39:37.86	44.47	8.55	-28.2	-28.8	16.7	4.35e-05	0	43	0	5259657216	32	16847
2026-01-21 21:39:38.83	44.65	8.61	-27.9	-28.4	16.7	4.35e-05	0	43	0	5368709120	32	16157
2026-01-21 21:39:39.81	44.84	8.66	-28.1	-28.6	16.6	4.35e-05	0	43	0	5477761024	32	16512
2026-01-21 21:39:40.79	45.04	8.72	-28.0	-28.5	16.6	4.35e-05	0	43	0	5586812928	32	16335
2026-01-21 21:39:41.77	45.23	8.77	-27.9	-28.5	16.8	6.53e-05	0	43	0	5695864832	32	16261
2026-01-21 21:39:42.75	45.42	8.83	-28.0	-28.6	16.7	6.53e-05	0	43	0	5804916736	32	16436
2026-01-21 21:39:43.73	45.62	8.89	-28.1	-28.6	16.7	5.40e-06	0	43	0	5913968640	32	16492
2026-01-21 21:39:44.70	45.81	8.94	-28.0	-28.5	16.7	5.40e-06	0	44	0	6023020544	32	16401
2026-01-21 21:39:45.68	46.01	9.00	-28.2	-28.7	16.7	2.72e-05	0	44	0	6132072448	32	16791
2026-01-21 21:39:46.66	46.21	9.05	-28.0	-28.5	16.7	2.72e-05	0	44	0	6249512960	32	16332
2026-01-21 21:39:47.64	46.40	9.11	-28.5	-29.0	16.6	2.72e-05	0	43	0	6358564864	32	17341
2026-01-21 21:39:48.61	46.60	9.16	-28.1	-28.6	16.7	4.35e-05	0	44	0	6467616768	32	16523
2026-01-21 21:39:49.59	46.80	9.22	-28.0	-28.5	16.6	4.35e-05	0	44	0	6576668672	32	16340
2026-01-21 21:39:50.57	47.00	9.27	-27.9	-28.4	16.6	8.71e-05	0	44	0	6685720576	32	16125
2026-01-21 21:39:51.55	47.20	9.32	-27.7	-28.2	16.7	8.71e-05	0	43	0	6794772480	30	17724
2026-01-21 21:39:52.52	47.41	9.38	-27.9	-28.4	16.7	2.72e-05	0	44	0	6903824384	30	18086
2026-01-21 21:39:53.50	47.61	9.43	-27.9	-28.4	16.7	2.72e-05	0	44	0	7012876288	30	18100
2026-01-21 21:39:54.48	47.81	9.49	-28.2	-28.7	16.6	3.26e-05	0	44	0	7121928192	30	18788
2026-01-21 21:39:55.46	48.02	9.54	-27.8	-28.3	16.7	3.26e-05	0	44	0	7230980096	30	17916
2026-01-21 21:39:56.43	48.22	9.60	-28.1	-28.6	16.6	6.53e-05	0	44	0	7348420608	30	18627
2026-01-21 21:39:57.41	48.43	9.65	-28.6	-29.1	16.4	6.53e-05	0	44	0	7457472512	30	19574
2026-01-21 21:39:58.39	48.64	9.70	-28.3	-28.9	16.2	1.03e-04	0	43	0	7566524416	32	17005
2026-01-21 21:39:59.37	48.85	9.76	-27.8	-28.3	16.2	1.03e-04	0	44	0	7675576320	32	15913
2026-01-21 21:40:00.34	49.06	9.81	-27.5	-28.0	16.5	1.80e-04	0	44	0	7784628224	30	17336
2026-01-21 21:40:01.33	49.27	9.86	-27.7	-28.3	16.5	1.80e-04	0	44	0	7893680128	30	17811
2026-01-21 21:40:02.30	49.48	9.92	-27.8	-28.3	16.6	9.26e-05	0	44	0	8002732032	30	17961
2026-01-21 21:40:03.28	49.69	9.97	-27.5	-28.1	16.6	9.26e-05	0	44	0	8111783936	30	17403
2026-01-21 21:40:04.26	49.91	10.02	-27.6	-28.1	16.5	7.08e-05	0	44	0	8229224448	30	17551
2026-01-21 21:40:05.24	50.12	10.08	-27.6	-28.1	16.5	7.08e-05	0	44	0	8338276352	30	17586
2026-01-21 21:40:06.21	50.34	10.13	-27.5	-28.0	16.6	3.26e-05	0	44	0	8447328256	30	17324
2026-01-21 21:40:07.19	50.55	10.18	-27.6	-28.1	16.7	3.26e-05	0	44	0	8556380160	30	17488
2026-01-21 21:40:08.17	50.77	10.23	-27.6	-28.1	16.7	3.26e-05	0	44	0	8665432064	30	17490
2026-01-21 21:40:09.15	50.99	10.29	-27.6	-28.2	16.6	2.17e-05	0	44	0	8774483968	30	17635
2026-01-21 21:40:10.12	51.21	10.34	-27.7	-28.2	16.6	2.17e-05	0	44	0	8883535872	30	17786
2026-01-21 21:40:11.10	51.43	10.39	-28.4	-28.9	16.3	3.81e-05	0	44	0	8992587776	30	19253
2026-01-21 21:40:12.07	51.65	10.44	-28.5	-29.0	16.3	3.81e-05	0	44	0	9101639680	30	19457
2026-01-21 21:40:13.05	51.87	10.49	-28.4	-28.9	16.2	9.80e-05	0	44	0	9210691584	30	19173
2026-01-21 21:40:14.03	52.09	10.54	-28.5	-29.0	16.0	9.80e-05	0	44	0	9328132096	30	19301
2026-01-21 21:40:15.01	52.32	10.60	-27.7	-28.2	16.2	2.45e-04	0	44	0	9437184000	30	17678
2026-01-21 21:40:15.99	52.54	10.65	-27.8	-28.3	16.3	2.45e-04	0	44	0	9546235904	30	17859
2026-01-21 21:40:16.97	52.77	10.70	-27.7	-28.2	16.4	1.85e-04	0	44	0	9655287808	30	17795
2026-01-21 21:40:17.95	52.99	10.75	-27.9	-28.4	16.5	1.85e-04	0	44	0	9764339712	30	18076
2026-01-21 21:40:18.93	53.22	10.80	-27.7	-28.2	16.6	9.26e-05	0	44	0	9873391616	30	17674
2026-01-21 21:40:19.91	53.45	10.85	-27.5	-28.0	16.7	9.26e-05	0	44	0	9982443520	30	17258
2026-01-21 21:40:20.89	53.68	10.90	-27.5	-28.0	16.6	9.26e-05	0	44	0	10091495424	30	17277
2026-01-21 21:40:21.86	53.91	10.95	-27.5	-28.0	16.5	2.17e-05	0	44	0	10208935936	30	17257
2026-01-21 21:40:22.84	54.14	11.00	-27.4	-27.9	16.5	2.17e-05	0	44	0	10317987840	30	17194
2026-01-21 21:40:23.82	54.37	11.05	-27.6	-28.1	16.6	4.35e-05	0	44	0	10427039744	30	17417
2026-01-21 21:40:24.80	54.61	11.09	-27.6	-28.1	16.6	4.35e-05	0	44	0	10536091648	30	17412
2026-01-21 21:40:25.78	54.84	11.14	-27.6	-28.1	16.7	1.08e-05	0	44	0	10645143552	30	17438
2026-01-21 21:40:26.75	55.07	11.19	-27.4	-27.8	16.8	1.08e-05	0	44	0	10754195456	30	16997
2026-01-21 21:40:27.74	55.31	11.24	-27.3	-27.8	16.8	1.08e-05	0	44	0	10863247360	30	16919
2026-01-21 21:40:28.72	55.55	11.29	-27.4	-27.8	16.7	3.81e-05	0	44	0	10980687872	30	16980
2026-01-21 21:40:29.69	55.79	11.34	-27.4	-27.9	16.5	3.81e-05	0	44	0	11089739776	30	17044
2026-01-21 21:40:30.67	56.03	11.38	-27.2	-27.7	16.5	4.35e-05	0	44	0	11198791680	30	16711
2026-01-21 21:40:31.65	56.27	11.43	-27.2	-27.7	16.7	4.35e-05	0	44	0	11307843584	30	16792
2026-01-21 21:40:32.63	56.51	11.48	-27.1	-27.6	16.7	7.08e-05	0	44	0	11416895488	30	16528
2026-01-21 21:40:33.61	56.75	11.52	-27.0	-27.5	16.7	7.08e-05	0	44	0	11525947392	30	16335
2026-01-21 21:40:34.59	56.99	11.57	-26.8	-27.4	16.8	7.08e-05	0	44	0	11634999296	30	16096
2026-01-21 21:40:35.56	57.23	11.62	-26.7	-27.2	16.7	5.40e-06	0	44	0	11752439808	28	17792
2026-01-21 21:40:36.53	57.47	11.66	-26.7	-27.2	16.5	5.40e-06	0	44	0	11853103104	28	17733
2026-01-21 21:40:37.51	57.72	11.71	-26.7	-27.2	16.6	2.72e-05	0	44	0	11970543616	28	17670
2026-01-21 21:40:38.49	57.97	11.75	-26.8	-27.3	16.7	2.72e-05	0	44	0	12079595520	28	17929
2026-01-21 21:40:39.47	58.21	11.80	-26.9	-27.5	16.8	1.08e-05	0	44	0	12188647424	28	18226
2026-01-21 21:40:40.45	58.46	11.84	-26.5	-27.0	16.8	1.08e-05	0	44	0	12297699328	28	17398
2026-01-21 21:40:41.42	58.71	11.89	-26.7	-27.2	16.6	1.08e-05	0	44	0	12406751232	28	17740
2026-01-21 21:40:42.40	58.96	11.93	-26.8	-27.3	16.3	1.08e-05	0	44	0	12515803136	28	17860
2026-01-21 21:40:43.37	59.21	11.97	-26.7	-27.2	16.3	1.08e-05	0	44	0	12624855040	28	17736
2026-01-21 21:40:44.35	59.46	12.02	-26.7	-27.2	16.4	4.35e-05	0	44	0	12733906944	28	17774
2026-01-21 21:40:45.33	59.71	12.06	-26.7	-27.2	16.7	4.35e-05	0	44	0	12842958848	28	17786
2026-01-21 21:40:46.30	59.96	12.10	-26.6	-27.1	16.8	4.35e-05	0	44	0	12952010752	28	17512
2026-01-21 21:40:47.28	60.22	12.14	-26.5	-27.0	16.8	1.08e-05	0	44	0	13069451264	28	17363
2026-01-21 21:40:48.26	60.47	12.19	-26.6	-27.1	16.9	1.08e-05	0	44	0	13178503168	28	17588
2026-01-21 21:40:49.24	60.73	12.23	-26.9	-27.4	16.7	5.40e-06	0	44	0	13287555072	28	18209
2026-01-21 21:40:50.21	60.98	12.27	-26.6	-27.1	16.6	5.40e-06	0	44	0	13396606976	28	17602
2026-01-21 21:40:51.20	61.24	12.31	-26.5	-27.0	16.6	1.63e-05	0	44	0	13505658880	28	17332
2026-01-21 21:40:52.18	61.50	12.35	-27.0	-27.5	16.4	1.63e-05	0	44	0	13614710784	28	18354
2026-01-21 21:40:53.15	61.76	12.39	-26.6	-27.2	16.5	4.35e-05	0	44	0	13723762688	28	17617
2026-01-21 21:40:54.13	62.02	12.43	-26.6	-27.1	17.0	4.35e-05	0	44	0	13832814592	28	17592
2026-01-21 21:40:55.11	62.28	12.47	-26.4	-26.9	16.3	5.40e-06	0	44	0	13950255104	28	17137
2026-01-21 21:40:56.10	62.54	12.51	-26.5	-27.0	16.0	5.40e-06	0	44	0	14059307008	28	17341
2026-01-21 21:40:57.07	62.80	12.55	-26.4	-26.9	15.9	6.53e-05	0	44	0	14168358912	28	17178
2026-01-21 21:40:58.05	63.07	12.58	-26.8	-27.3	15.9	6.53e-05	0	44	0	14277410816	28	17976
2026-01-21 21:40:59.03	63.33	12.62	-26.5	-27.0	16.5	9.80e-05	0	44	0	14386462720	28	17349
2026-01-21 21:41:00.01	63.60	12.66	-26.4	-26.9	16.9	9.80e-05	0	44	0	14503903232	28	17058
2026-01-21 21:41:00.99	63.86	12.70	-26.4	-26.9	17.0	1.08e-05	0	44	0	14604566528	28	17069
2026-01-21 21:41:01.97	64.13	12.73	-26.4	-26.9	16.9	1.08e-05	0	44	0	14722007040	28	17178
2026-01-21 21:41:02.94	64.39	12.77	-26.5	-27.0	16.8	5.40e-06	0	44	0	14822670336	28	17211
2026-01-21 21:41:03.92	64.66	12.80	-26.4	-26.9	16.9	5.40e-06	0	44	0	14940110848	28	17055
2026-01-21 21:41:04.90	64.93	12.84	-26.7	-27.2	16.8	5.40e-06	0	44	0	15049162752	28	17684
2026-01-21 21:41:05.87	65.20	12.87	-26.2	-26.7	16.9	5.40e-06	0	44	0	15158214656	28	16739
2026-01-21 21:41:06.85	65.47	12.91	-26.3	-26.8	16.8	5.40e-06	0	44	0	15267266560	28	16865
2026-01-21 21:41:07.83	65.74	12.94	-26.5	-27.0	16.7	0.00e+00	0	44	0	15376318464	28	17283
2026-01-21 21:41:08.80	66.01	12.97	-26.3	-26.8	16.8	0.00e+00	0	44	0	15485370368	28	16990
2026-01-21 21:41:09.78	66.28	13.01	-26.5	-27.0	16.7	1.08e-05	0	44	0	15594422272	28	17285
2026-01-21 21:41:10.76	66.56	13.04	-26.3	-26.8	16.5	1.08e-05	0	44	0	15711862784	28	16934
2026-01-21 21:41:11.74	66.83	13.07	-26.3	-26.8	16.3	1.08e-05	0	44	0	15812526080	28	16872
2026-01-21 21:41:12.72	67.11	13.10	-26.3	-26.8	16.4	2.17e-05	0	44	0	15929966592	28	16884
2026-01-21 21:41:13.69	67.38	13.13	-26.2	-26.7	16.5	2.17e-05	0	44	0	16039018496	28	16718
2026-01-21 21:41:14.67	67.65	13.17	-26.3	-26.8	16.7	1.08e-05	0	44	0	16148070400	28	16902
2026-01-21 21:41:15.65	67.93	13.20	-26.3	-26.8	16.8	1.08e-05	0	44	0	16257122304	28	16870
2026-01-21 21:41:16.63	68.21	13.22	-26.3	-26.8	16.7	0.00e+00	0	44	0	16366174208	28	16828
2026-01-21 21:41:17.61	68.49	13.25	-26.2	-26.7	16.6	0.00e+00	0	44	0	16475226112	28	16747
2026-01-21 21:41:18.58	68.76	13.28	-26.6	-27.0	16.7	1.63e-05	0	44	0	16584278016	28	17392
2026-01-21 21:41:19.56	69.04	13.31	-26.5	-27.0	16.7	1.63e-05	0	44	0	16701718528	28	17294
2026-01-21 21:41:20.54	69.32	13.34	-26.3	-26.8	16.6	1.63e-05	0	44	0	16802381824	28	16932
2026-01-21 21:41:21.52	69.60	13.37	-26.3	-26.8	16.3	2.17e-05	0	44	0	16919822336	28	16964
2026-01-21 21:41:22.50	69.89	13.39	-26.2	-26.6	16.2	2.17e-05	0	44	0	17028874240	28	16600
2026-01-21 21:41:23.48	70.17	13.42	-26.3	-26.8	16.5	3.26e-05	0	44	0	17137926144	28	16866
2026-01-21 21:41:24.45	70.45	13.44	-26.4	-26.9	16.6	3.26e-05	0	44	0	17246978048	28	17043
2026-01-21 21:41:25.44	70.73	13.47	-26.5	-27.0	16.5	1.63e-05	0	44	0	17356029952	28	17301
2026-01-21 21:41:26.41	71.01	13.49	-26.2	-26.7	16.8	1.63e-05	0	44	0	17473470464	28	16767
2026-01-21 21:41:27.39	71.30	13.52	-26.3	-26.7	16.9	1.63e-05	0	44	0	17574133760	28	16792
2026-01-21 21:41:28.37	71.58	13.54	-26.4	-26.9	16.8	1.08e-05	0	44	0	17691574272	28	17181
2026-01-21 21:41:29.35	71.87	13.56	-26.3	-26.7	16.9	1.08e-05	0	44	0	17792237568	28	16788
2026-01-21 21:41:30.32	72.15	13.58	-26.6	-27.1	16.9	5.40e-06	0	44	0	17909678080	28	17427
2026-01-21 21:41:31.30	72.44	13.61	-26.2	-26.7	16.9	5.40e-06	0	44	0	18018729984	28	16706
2026-01-21 21:41:32.28	72.73	13.63	-26.3	-26.8	16.9	5.40e-06	0	44	0	18127781888	28	16921
2026-01-21 21:41:33.25	73.01	13.65	-26.2	-26.7	16.9	5.40e-06	0	44	0	18236833792	28	16622
2026-01-21 21:41:34.23	73.30	13.67	-26.2	-26.7	16.9	0.00e+00	0	44	0	18345885696	28	16736
2026-01-21 21:41:35.21	73.59	13.69	-26.2	-26.7	16.9	0.00e+00	0	44	0	18454937600	28	16696
2026-01-21 21:41:36.18	73.87	13.71	-26.3	-26.8	16.9	0.00e+00	0	44	0	18563989504	28	16936
2026-01-21 21:41:37.16	74.16	13.73	-26.3	-26.8	16.9	0.00e+00	0	44	0	18681430016	28	16820
2026-01-21 21:41:38.13	74.45	13.74	-26.3	-26.8	16.9	0.00e+00	0	44	0	18782093312	28	16817
2026-01-21 21:41:39.11	74.74	13.76	-26.4	-26.9	16.9	0.00e+00	0	44	0	18899533824	28	17133
2026-01-21 21:41:40.09	75.03	13.78	-26.4	-26.9	16.7	1.08e-05	0	44	0	19008585728	28	17112
2026-01-21 21:41:41.07	75.32	13.79	-26.4	-26.8	16.3	1.08e-05	0	44	0	19117637632	28	16955
2026-01-21 21:41:42.05	75.61	13.81	-26.5	-27.0	16.0	4.35e-05	0	44	0	19226689536	28	17267
2026-01-21 21:41:43.02	75.90	13.82	-26.3	-26.8	15.9	4.35e-05	0	44	0	19335741440	28	16853
2026-01-21 21:41:44.00	76.19	13.84	-26.4	-26.8	16.3	1.52e-04	0	44	0	19444793344	28	16972
2026-01-21 21:41:44.98	76.48	13.85	-26.3	-26.8	16.9	1.52e-04	0	44	0	19553845248	28	16900
2026-01-21 21:41:45.96	76.77	13.86	-26.3	-26.7	16.7	1.63e-05	0	44	0	19671285760	28	16786
2026-01-21 21:41:46.94	77.07	13.88	-26.2	-26.7	16.9	1.63e-05	0	44	0	19780337664	28	16743
2026-01-21 21:41:47.92	77.36	13.89	-26.3	-26.8	16.9	5.40e-06	0	44	0	19889389568	28	16839
2026-01-21 21:41:48.89	77.65	13.90	-26.6	-27.0	16.8	5.40e-06	0	44	0	19998441472	28	17371
2026-01-21 21:41:49.87	77.94	13.91	-26.2	-26.7	16.7	0.00e+00	0	44	0	20107493376	28	16640
2026-01-21 21:41:50.84	78.24	13.92	-26.2	-26.7	16.5	0.00e+00	0	44	0	20216545280	28	16747
2026-01-21 21:41:51.82	78.53	13.93	-26.3	-26.7	16.5	0.00e+00	0	44	0	20325597184	28	16743
2026-01-21 21:41:52.79	78.82	13.94	-26.3	-26.8	16.3	1.08e-05	0	44	0	20434649088	28	16927
2026-01-21 21:41:53.77	79.12	13.95	-26.3	-26.8	16.4	5.44e-05	0	44	0	20543700992	28	16870
2026-01-21 21:41:54.74	79.41	13.95	-26.3	-26.8	16.7	5.44e-05	0	44	0	20652752896	28	16883
2026-01-21 21:41:55.72	79.70	13.96	-26.4	-26.8	16.8	5.44e-05	0	44	0	20770193408	28	17000
2026-01-21 21:41:56.70	80.00	13.97	-26.4	-26.8	16.8	2.17e-05	0	44	0	20870856704	28	16953
2026-01-21 21:41:57.67	80.29	13.97	-26.3	-26.8	16.8	2.17e-05	0	44	0	20988297216	28	16835
2026-01-21 21:41:58.65	80.58	13.98	-26.4	-26.8	16.7	1.08e-05	0	44	0	21088960512	28	16958
2026-01-21 21:41:59.63	80.88	13.98	-26.3	-26.7	16.7	1.08e-05	0	44	0	21206401024	28	16738
2026-01-21 21:42:00.61	81.18	13.99	-26.4	-26.8	16.7	0.00e+00	0	45	0	21315452928	28	16990
2026-01-21 21:42:01.59	81.47	13.99	-26.5	-26.9	16.6	0.00e+00	0	44	0	21424504832	28	17159
2026-01-21 21:42:02.57	81.77	13.99	-26.3	-26.8	16.7	1.63e-05	0	44	0	21533556736	28	16855
2026-01-21 21:42:03.54	82.06	14.00	-26.3	-26.8	16.6	1.63e-05	0	44	0	21642608640	28	16892
2026-01-21 21:42:04.52	82.36	14.00	-26.3	-26.7	16.7	5.40e-06	0	44	0	21760049152	28	16808
2026-01-21 21:42:05.50	82.65	14.00	-26.4	-26.9	16.7	5.40e-06	0	44	0	21860712448	28	17007
2026-01-21 21:42:06.48	82.95	14.00	-26.4	-26.8	16.7	0.00e+00	0	44	0	21978152960	28	16943
2026-01-21 21:42:07.46	83.24	14.00	-26.2	-26.7	16.8	0.00e+00	0	44	0	22087204864	28	16692
2026-01-21 21:42:08.44	83.54	14.00	-26.3	-26.8	16.6	0.00e+00	0	44	0	22196256768	28	16878
2026-01-21 21:42:09.42	83.84	14.00	-26.5	-26.9	16.5	0.00e+00	0	44	0	22305308672	28	17165
2026-01-21 21:42:10.39	84.13	13.99	-26.4	-26.9	16.7	1.63e-05	0	44	0	22414360576	28	17105
2026-01-21 21:42:11.37	84.42	13.99	-26.3	-26.8	16.8	1.63e-05	0	44	0	22523412480	28	16842
2026-01-21 21:42:12.34	84.72	13.99	-26.2	-26.7	16.8	1.08e-05	0	44	0	22632464384	28	16703
2026-01-21 21:42:13.32	85.01	13.98	-26.4	-26.9	16.7	1.08e-05	0	44	0	22749904896	28	17024
2026-01-21 21:42:14.29	85.31	13.98	-26.5	-26.9	16.6	5.40e-06	0	44	0	22850568192	28	17182
2026-01-21 21:42:15.27	85.60	13.97	-26.4	-26.9	16.7	5.40e-06	0	45	0	22968008704	28	17084
2026-01-21 21:42:16.25	85.90	13.97	-26.5	-26.9	16.6	2.17e-05	0	45	0	23068672000	28	17196
2026-01-21 21:42:17.22	86.19	13.96	-26.6	-27.0	16.7	2.17e-05	0	45	0	23186112512	28	17313
2026-01-21 21:42:18.20	86.48	13.95	-26.3	-26.8	16.7	1.08e-05	0	45	0	23295164416	28	16874
2026-01-21 21:42:19.17	86.78	13.95	-26.3	-26.8	16.7	0.00e+00	0	45	0	23404216320	28	16906
2026-01-21 21:42:20.15	87.07	13.94	-26.3	-26.8	16.7	0.00e+00	0	45	0	23513268224	28	16840
2026-01-21 21:42:21.13	87.37	13.93	-26.4	-26.8	16.7	0.00e+00	0	45	0	23622320128	28	16972
2026-01-21 21:42:22.10	87.66	13.92	-26.5	-27.0	16.6	0.00e+00	0	45	0	23731372032	28	17209
2026-01-21 21:42:23.08	87.95	13.91	-26.6	-27.1	16.7	0.00e+00	0	45	0	23840423936	28	17444
2026-01-21 21:42:24.06	88.24	13.90	-26.5	-27.0	16.6	1.08e-05	0	45	0	23957864448	28	17268
2026-01-21 21:42:25.04	88.54	13.89	-26.8	-27.3	16.7	1.08e-05	0	45	0	24058527744	28	17842
2026-01-21 21:42:26.01	88.83	13.87	-26.5	-26.9	16.7	0.00e+00	0	45	0	24175968256	28	17136
2026-01-21 21:42:27.00	89.12	13.86	-26.6	-27.0	16.7	0.00e+00	0	45	0	24285020160	28	17342
2026-01-21 21:42:27.97	89.41	13.85	-26.5	-27.0	16.7	0.00e+00	0	45	0	24394072064	28	17218
2026-01-21 21:42:28.95	89.71	13.83	-26.4	-26.9	16.6	0.00e+00	0	45	0	24503123968	28	17036
2026-01-21 21:42:29.93	90.00	13.82	-26.5	-27.0	16.6	3.81e-05	0	45	0	24612175872	28	17253
2026-01-21 21:42:30.91	90.29	13.80	-26.4	-26.9	16.7	3.81e-05	0	45	0	24721227776	28	17077
2026-01-21 21:42:31.88	90.58	13.79	-26.5	-26.9	16.6	1.08e-05	0	45	0	24830279680	28	17157
2026-01-21 21:42:32.86	90.87	13.77	-26.4	-26.8	16.7	1.08e-05	0	45	0	24947720192	28	16948
2026-01-21 21:42:33.84	91.16	13.76	-26.4	-26.8	16.7	1.63e-05	0	45	0	25048383488	28	16915
2026-01-21 21:42:34.82	91.45	13.74	-26.5	-26.9	16.7	1.63e-05	0	45	0	25165824000	28	17177
2026-01-21 21:42:35.80	91.74	13.72	-26.6	-27.0	16.7	1.63e-05	0	45	0	25274875904	28	17295
2026-01-21 21:42:36.78	92.03	13.70	-26.6	-27.0	16.7	2.17e-05	0	45	0	25383927808	28	17264
2026-01-21 21:42:37.76	92.32	13.68	-26.6	-27.0	16.7	2.17e-05	0	45	0	25492979712	28	17325
2026-01-21 21:42:38.74	92.61	13.66	-26.3	-26.8	16.7	1.08e-05	0	45	0	25602031616	28	16856
2026-01-21 21:42:39.72	92.90	13.64	-26.4	-26.8	16.7	1.08e-05	0	44	0	25719472128	28	16964
2026-01-21 21:42:40.70	93.19	13.62	-26.5	-26.9	16.6	1.63e-05	0	45	0	25820135424	28	17080
2026-01-21 21:42:41.67	93.47	13.60	-26.7	-27.1	16.6	1.63e-05	0	45	0	25937575936	28	17442
2026-01-21 21:42:42.65	93.76	13.58	-26.3	-26.7	16.7	1.63e-05	0	45	0	26046627840	28	16699
2026-01-21 21:42:43.63	94.04	13.56	-26.2	-26.6	16.8	1.63e-05	0	45	0	26155679744	28	16594
2026-01-21 21:42:44.61	94.33	13.53	-49.9	-52.6	6.1	1.08e-05	0	44	104	26231177216	60	51949
2026-01-21 21:42:45.59	94.62	13.51	-49.9	-52.6	6.1	1.08e-05	0	44	104	26231177216	60	52186
2026-01-21 21:42:46.57	94.90	13.48	-50.3	-52.8	6.1	1.08e-05	0	44	104	26231177216	60	53666
2026-01-21 21:42:47.54	95.18	13.46	-50.3	-52.9	6.1	1.08e-05	0	44	104	26231177216	60	53800
2026-01-21 21:42:48.52	95.47	13.44	-50.3	-52.9	6.1	1.08e-05	0	44	104	26231177216	60	53920
2026-01-21 21:42:49.50	95.75	13.41	-50.4	-52.9	6.1	1.08e-05	0	44	104	26231177216	60	54021
2026-01-21 21:42:50.48	96.03	13.38	-50.0	-52.6	6.1	1.08e-05	0	44	104	26231177216	60	52469
2026-01-21 21:42:51.45	96.31	13.36	-50.4	-52.9	6.1	1.08e-05	0	44	104	26231177216	60	54252
2026-01-21 21:42:52.43	96.59	13.33	-50.6	-53.1	6.1	1.08e-05	0	44	104	26231177216	60	55305
2026-01-21 21:42:53.41	96.87	13.30	-50.2	-52.8	6.1	0.00e+00	0	44	104	26231177216	60	53519
2026-01-21 21:42:54.39	97.15	13.27	-50.0	-52.6	6.1	0.00e+00	0	44	104	26231177216	60	52023
2026-01-21 21:42:55.36	97.43	13.24	-50.4	-52.9	6.1	0.00e+00	0	44	104	26231177216	60	54269
2026-01-21 21:42:56.34	97.71	13.22	-50.5	-53.0	6.1	0.00e+00	0	44	104	26231177216	60	54497
2026-01-21 21:42:57.32	97.99	13.19	-50.6	-53.0	6.1	0.00e+00	0	44	104	26231177216	60	54995
2026-01-21 21:42:58.30	98.27	13.15	-50.5	-53.0	6.1	0.00e+00	0	44	104	26231177216	60	54549
2026-01-21 21:42:59.27	98.54	13.12	-50.2	-52.8	6.1	0.00e+00	0	44	104	26231177216	60	53388
2026-01-21 21:43:00.25	98.82	13.09	-50.4	-52.9	6.0	0.00e+00	0	44	104	26231177216	60	54239
2026-01-21 21:43:01.23	99.09	13.06	-49.7	-52.3	6.1	0.00e+00	0	44	104	26231177216	60	50540
2026-01-21 21:43:02.21	99.37	13.03	-49.5	-52.2	6.1	0.00e+00	0	44	104	26231177216	60	49878
2026-01-21 21:43:03.19	99.64	13.00	-50.4	-53.0	6.1	0.00e+00	0	44	104	26231177216	60	54412
2026-01-21 21:43:04.16	99.91	12.96	-50.2	-52.7	6.1	0.00e+00	0	44	104	26231177216	60	53006
2026-01-21 21:43:05.14	100.18	12.93	-50.3	-52.8	6.1	0.00e+00	0	44	104	26231177216	60	53722
2026-01-21 21:43:06.12	100.46	12.90	-50.5	-53.0	6.1	0.00e+00	0	44	104	26231177216	60	54492
2026-01-21 21:43:07.10	100.73	12.86	-50.5	-53.0	6.1	0.00e+00	0	44	104	26231177216	60	54414
2026-01-21 21:43:08.07	101.00	12.83	-50.1	-52.7	6.1	0.00e+00	0	44	104	26231177216	60	53089
2026-01-21 21:43:09.05	101.27	12.79	-50.1	-52.7	6.1	0.00e+00	0	44	104	26231177216	60	53020
2026-01-21 21:43:10.03	101.54	12.75	-50.2	-52.8	6.1	0.00e+00	0	44	104	26231177216	60	53565
2026-01-21 21:43:11.01	101.80	12.72	-50.1	-52.7	6.1	0.00e+00	0	44	104	26231177216	60	52996
2026-01-21 21:43:11.98	102.07	12.68	-50.2	-52.8	6.1	0.00e+00	0	44	104	26231177216	60	53569
2026-01-21 21:43:12.96	102.34	12.64	-50.4	-52.9	6.1	0.00e+00	0	44	104	26231177216	60	54037
2026-01-21 21:43:13.94	102.60	12.61	-50.4	-52.9	6.1	0.00e+00	0	44	104	26231177216	60	54233
2026-01-21 21:43:14.92	102.87	12.57	-50.2	-52.8	6.1	0.00e+00	0	44	104	26231177216	60	53177
2026-01-21 21:43:15.90	103.13	12.53	-50.5	-53.0	6.1	0.00e+00	0	44	104	26231177216	60	54904
2026-01-21 21:43:16.88	103.39	12.49	-50.0	-52.7	6.1	0.00e+00	0	44	104	26231177216	60	52552
2026-01-21 21:43:17.86	103.66	12.45	-50.4	-52.9	6.1	0.00e+00	0	44	104	26231177216	60	53993
2026-01-21 21:43:18.84	103.92	12.41	-50.4	-52.9	6.1	0.00e+00	0	44	104	26231177216	60	54249
2026-01-21 21:43:19.82	104.18	12.37	-50.4	-52.9	6.1	0.00e+00	0	44	104	26231177216	60	54038
2026-01-21 21:43:20.79	104.44	12.33	-50.4	-52.9	6.1	0.00e+00	0	44	104	26231177216	60	53882
2026-01-21 21:43:21.77	104.70	12.29	-50.3	-52.8	6.1	0.00e+00	0	44	104	26231177216	60	53351
2026-01-21 21:43:22.75	104.96	12.25	-50.2	-52.8	6.1	0.00e+00	0	44	104	26231177216	60	53301
2026-01-21 21:43:23.73	105.21	12.21	-50.4	-52.8	6.1	0.00e+00	0	44	104	26231177216	60	53658
2026-01-21 21:43:24.71	105.47	12.17	-50.3	-52.8	6.1	0.00e+00	0	44	104	26231177216	60	53743
2026-01-21 21:43:25.69	105.73	12.12	-50.3	-52.8	6.1	0.00e+00	0	44	104	26231177216	60	53480
2026-01-21 21:43:26.66	105.98	12.08	-50.3	-52.8	6.1	0.00e+00	0	44	104	26231177216	60	53474
2026-01-21 21:43:27.64	106.23	12.04	-50.3	-52.8	6.1	0.00e+00	0	44	104	26231177216	60	53658
2026-01-21 21:43:28.62	106.49	12.00	-50.1	-52.7	6.1	0.00e+00	0	44	104	26231177216	60	52854
2026-01-21 21:43:29.60	106.74	11.95	-50.2	-52.7	6.1	0.00e+00	0	44	104	26231177216	60	53120
2026-01-21 21:43:30.57	106.99	11.91	-50.0	-52.6	6.1	0.00e+00	0	44	104	26231177216	60	52448
2026-01-21 21:43:31.55	107.24	11.86	-50.0	-52.6	6.1	0.00e+00	0	44	104	26231177216	60	52168
2026-01-21 21:43:32.52	107.49	11.82	-50.1	-52.7	6.1	0.00e+00	0	44	104	26231177216	60	52677
2026-01-21 21:43:33.50	107.74	11.77	-50.4	-52.9	6.0	0.00e+00	0	44	104	26231177216	60	53838
2026-01-21 21:43:34.49	107.99	11.73	-50.5	-52.9	6.1	0.00e+00	0	44	104	26231177216	60	54248
2026-01-21 21:43:35.46	108.23	11.68	-50.4	-52.9	6.1	0.00e+00	0	44	104	26231177216	60	54129
2026-01-21 21:43:36.43	108.48	11.64	-50.3	-52.8	6.1	0.00e+00	0	44	104	26231177216	60	53624
2026-01-21 21:43:37.41	108.72	11.59	-50.2	-52.8	6.1	0.00e+00	0	44	104	26231177216	60	53217
2026-01-21 21:43:38.40	108.97	11.55	-50.1	-52.7	6.1	0.00e+00	0	44	104	26231177216	60	52936
2026-01-21 21:43:39.37	109.21	11.50	-50.3	-52.9	6.1	0.00e+00	0	44	104	26231177216	60	53899
2026-01-21 21:43:40.35	109.45	11.45	-50.2	-52.8	6.1	0.00e+00	0	44	104	26231177216	60	53714
2026-01-21 21:43:41.33	109.70	11.40	-50.0	-52.7	6.1	0.00e+00	0	44	104	26231177216	60	52849
2026-01-21 21:43:42.31	109.94	11.36	-50.2	-52.7	6.1	0.00e+00	0	44	104	26231177216	60	53025
2026-01-21 21:43:43.29	110.18	11.31	-50.2	-52.8	6.1	0.00e+00	0	44	104	26231177216	60	53584
2026-01-21 21:43:44.27	110.42	11.26	-50.4	-52.9	6.1	0.00e+00	0	44	104	26231177216	60	53797
2026-01-21 21:43:45.25	110.65	11.21	-50.3	-52.8	6.1	0.00e+00	0	44	104	26231177216	60	53565
2026-01-21 21:43:46.23	110.89	11.16	-50.3	-52.8	6.1	0.00e+00	0	44	104	26231177216	60	53763
2026-01-21 21:43:47.21	111.13	11.11	-50.2	-52.7	6.1	0.00e+00	0	44	104	26231177216	60	53097
2026-01-21 21:43:48.19	111.36	11.07	-50.1	-52.7	6.1	0.00e+00	0	44	104	26231177216	60	52691
2026-01-21 21:43:49.17	111.60	11.02	-50.3	-52.8	6.1	0.00e+00	0	44	104	26231177216	60	53400
2026-01-21 21:43:50.14	111.83	10.97	-50.2	-52.7	6.1	0.00e+00	0	44	104	26231177216	60	53047
2026-01-21 21:43:51.12	112.06	10.92	-50.0	-52.6	6.1	0.00e+00	0	44	104	26231177216	60	52085
2026-01-21 21:43:52.10	112.29	10.87	-50.3	-52.9	6.1	0.00e+00	0	44	104	26231177216	60	53826
2026-01-21 21:43:53.08	112.52	10.82	-50.2	-52.7	6.1	0.00e+00	0	44	104	26231177216	60	52876
2026-01-21 21:43:54.06	112.75	10.77	-50.4	-52.8	6.1	0.00e+00	0	44	104	26231177216	60	53500
2026-01-21 21:43:55.03	112.98	10.72	-50.4	-52.9	6.1	0.00e+00	0	44	104	26231177216	60	54021
2026-01-21 21:43:56.01	113.21	10.66	-50.3	-52.8	6.1	0.00e+00	0	44	104	26231177216	60	53429
2026-01-21 21:43:56.99	113.44	10.61	-50.2	-52.7	6.1	0.00e+00	0	44	104	26231177216	60	53045
2026-01-21 21:43:57.97	113.66	10.56	-50.4	-52.9	6.1	0.00e+00	0	44	104	26231177216	60	53813
2026-01-21 21:43:58.94	113.88	10.51	-50.2	-52.8	6.1	0.00e+00	0	44	104	26231177216	60	53624
2026-01-21 21:43:59.92	114.11	10.46	-50.3	-52.9	6.1	0.00e+00	0	44	104	26231177216	60	53892
2026-01-21 21:44:00.90	114.33	10.41	-50.3	-52.9	6.1	0.00e+00	0	44	104	26231177216	60	53828
2026-01-21 21:44:01.87	114.55	10.36	-50.0	-52.6	6.1	0.00e+00	0	44	104	26231177216	60	52150
2026-01-21 21:44:02.85	114.77	10.30	-50.4	-52.9	6.1	0.00e+00	0	44	104	26231177216	60	54232
2026-01-21 21:44:03.82	114.99	10.25	-50.4	-52.9	6.1	0.00e+00	0	44	104	26231177216	60	53793
2026-01-21 21:44:04.80	115.21	10.20	-50.3	-52.8	6.1	0.00e+00	0	44	104	26231177216	60	53344
2026-01-21 21:44:05.78	115.43	10.14	-50.3	-52.8	6.1	0.00e+00	0	44	104	26231177216	60	53768
2026-01-21 21:44:06.76	115.65	10.09	-50.4	-52.9	6.1	0.00e+00	0	44	104	26231177216	60	53993
2026-01-21 21:44:07.73	115.86	10.04	-50.3	-52.8	6.1	0.00e+00	0	44	104	26231177216	60	53562
2026-01-21 21:44:08.71	116.08	9.99	-50.3	-52.8	6.1	0.00e+00	0	44	104	26231177216	60	53373
2026-01-21 21:44:09.69	116.29	9.93	-50.1	-52.7	6.1	0.00e+00	0	44	104	26231177216	60	52729
2026-01-21 21:44:10.67	116.51	9.88	-50.3	-52.8	6.1	0.00e+00	0	44	104	26231177216	60	53310
2026-01-21 21:44:11.65	116.72	9.82	-50.1	-52.6	6.1	0.00e+00	0	44	104	26231177216	60	52506
2026-01-21 21:44:12.63	116.93	9.77	-50.0	-52.5	6.1	0.00e+00	0	44	104	26231177216	60	51727
2026-01-21 21:44:13.61	117.14	9.72	-50.1	-52.6	6.1	0.00e+00	0	44	104	26231177216	60	52262
2026-01-21 21:44:14.59	117.35	9.66	-50.1	-52.7	6.1	0.00e+00	0	44	104	26231177216	60	52649
2026-01-21 21:44:15.56	117.56	9.61	-50.2	-52.7	6.1	0.00e+00	0	44	104	26231177216	60	53045
2026-01-21 21:44:16.54	117.77	9.55	-50.2	-52.7	6.1	0.00e+00	0	44	104	26231177216	60	53042
2026-01-21 21:44:17.52	117.97	9.50	-50.2	-52.7	6.1	0.00e+00	0	44	104	26231177216	60	52753
2026-01-21 21:44:18.49	118.18	9.44	-50.2	-52.7	6.1	0.00e+00	0	44	104	26231177216	60	53020
2026-01-21 21:44:19.48	118.39	9.39	-50.2	-52.8	6.1	0.00e+00	0	44	104	26231177216	60	53255
2026-01-21 21:44:20.44	118.59	9.34	-50.3	-52.8	6.1	0.00e+00	0	44	104	26231177216	60	53345
2026-01-21 21:44:21.42	118.79	9.28	-50.2	-52.7	6.1	0.00e+00	0	44	104	26231177216	60	52665
2026-01-21 21:44:22.41	119.00	9.22	-50.3	-52.8	6.1	0.00e+00	0	44	104	26231177216	60	53487
2026-01-21 21:44:23.38	119.20	9.17	-50.3	-52.8	6.0	0.00e+00	0	44	104	26231177216	60	53517
2026-01-21 21:44:24.36	119.40	9.11	-50.3	-52.8	6.1	0.00e+00	0	44	104	26231177216	60	53397
2026-01-21 21:44:25.34	119.60	9.06	-50.3	-52.8	6.1	0.00e+00	0	44	104	26231177216	60	53389
2026-01-21 21:44:26.32	119.80	9.00	-50.2	-52.7	6.1	0.00e+00	0	44	104	26231177216	60	52841
2026-01-21 21:44:27.29	119.99	8.95	-50.1	-52.7	6.1	0.00e+00	0	44	104	26231177216	60	52599
2026-01-21 21:44:28.27	120.19	8.89	-50.2	-52.7	6.1	0.00e+00	0	44	104	26231177216	60	53085
2026-01-21 21:44:29.25	120.39	8.84	-50.2	-52.7	6.1	0.00e+00	0	44	104	26231177216	60	52746
2026-01-21 21:44:30.22	120.58	8.78	-50.3	-52.7	6.1	0.00e+00	0	44	104	26231177216	60	53147
2026-01-21 21:44:31.20	120.77	8.72	-50.3	-52.8	6.1	0.00e+00	0	44	104	26231177216	60	53641
2026-01-21 21:44:32.18	120.97	8.67	-50.3	-52.7	6.1	0.00e+00	0	44	104	26231177216	60	52895
2026-01-21 21:44:33.16	121.16	8.61	-50.3	-52.8	6.1	0.00e+00	0	44	104	26231177216	60	53203
2026-01-21 21:44:34.13	121.35	8.56	-50.1	-52.6	6.1	0.00e+00	0	44	104	26231177216	60	52338
2026-01-21 21:44:35.11	121.54	8.50	-50.2	-52.7	6.1	0.00e+00	0	44	104	26231177216	60	52744
2026-01-21 21:44:36.08	121.73	8.44	-50.2	-52.7	6.1	0.00e+00	0	44	104	26231177216	60	52613
2026-01-21 21:44:37.06	121.92	8.39	-50.1	-52.6	6.1	0.00e+00	0	44	104	26231177216	60	52455
2026-01-21 21:44:38.04	122.11	8.33	-50.2	-52.7	6.1	0.00e+00	0	44	104	26231177216	60	52978
2026-01-21 21:44:39.02	122.30	8.27	-50.2	-52.7	6.1	0.00e+00	0	44	104	26231177216	60	53029
2026-01-21 21:44:40.00	122.48	8.22	-50.3	-52.7	6.1	0.00e+00	0	44	104	26231177216	60	52920
2026-01-21 21:44:40.98	122.67	8.16	-50.2	-52.6	6.1	0.00e+00	0	44	104	26231177216	60	52545
2026-01-21 21:44:41.95	122.85	8.10	-49.9	-52.4	6.1	0.00e+00	0	44	104	26231177216	60	51103
2026-01-21 21:44:42.93	123.04	8.05	-50.3	-52.7	6.1	0.00e+00	0	44	104	26231177216	60	53156
2026-01-21 21:44:43.91	123.22	7.99	-49.9	-52.5	6.1	0.00e+00	0	44	104	26231177216	60	51438
2026-01-21 21:44:44.89	123.40	7.93	-50.2	-52.6	6.1	0.00e+00	0	44	104	26231177216	60	52463
2026-01-21 21:44:45.87	123.58	7.88	-50.0	-52.5	6.1	0.00e+00	0	44	104	26231177216	60	51742
2026-01-21 21:44:46.85	123.76	7.82	-50.3	-52.8	6.1	0.00e+00	0	44	104	26231177216	60	53222
2026-01-21 21:44:47.83	123.94	7.76	-50.1	-52.6	6.1	0.00e+00	0	44	104	26231177216	60	52386
2026-01-21 21:44:48.80	124.12	7.71	-49.8	-52.4	6.1	0.00e+00	0	44	104	26231177216	60	51145
2026-01-21 21:44:49.78	124.30	7.65	-50.0	-52.5	6.1	0.00e+00	0	44	104	26231177216	60	51878
2026-01-21 21:44:50.76	124.48	7.59	-49.8	-52.4	6.1	0.00e+00	0	44	104	26231177216	60	51115
2026-01-21 21:44:51.74	124.65	7.53	-50.2	-52.7	6.1	0.00e+00	0	44	104	26231177216	60	52608
2026-01-21 21:44:52.72	124.83	7.48	-50.1	-52.6	6.1	0.00e+00	0	44	104	26231177216	60	52144
2026-01-21 21:44:53.70	125.00	7.42	-50.0	-52.5	6.1	0.00e+00	0	44	104	26231177216	60	51863
2026-01-21 21:44:54.67	125.18	7.36	-50.1	-52.6	6.1	0.00e+00	0	44	104	26231177216	60	52111
2026-01-21 21:44:55.65	125.35	7.31	-50.1	-52.6	6.1	0.00e+00	0	44	104	26231177216	60	52029
2026-01-21 21:44:56.63	125.52	7.25	-50.1	-52.6	6.1	0.00e+00	0	44	104	26231177216	60	52057
2026-01-21 21:44:57.60	125.69	7.19	-50.0	-52.5	6.1	0.00e+00	0	44	104	26231177216	60	51766
2026-01-21 21:44:58.58	125.86	7.13	-50.0	-52.6	6.1	0.00e+00	0	44	104	26231177216	60	52076
2026-01-21 21:44:59.55	126.03	7.08	-50.2	-52.7	6.1	0.00e+00	0	44	104	26231177216	60	52627
2026-01-21 21:45:00.53	126.20	7.02	-50.0	-52.6	6.1	0.00e+00	0	44	104	26231177216	60	52097
2026-01-21 21:45:01.51	126.37	6.96	-49.9	-52.4	6.1	0.00e+00	0	44	104	26231177216	60	51325
2026-01-21 21:45:02.49	126.53	6.91	-50.0	-52.6	6.1	0.00e+00	0	44	104	26231177216	60	52051
2026-01-21 21:45:03.47	126.70	6.85	-50.0	-52.6	6.1	0.00e+00	0	44	104	26231177216	60	52548
2026-01-21 21:45:04.45	126.87	6.79	-50.1	-52.6	6.1	0.00e+00	0	44	104	26231177216	60	52079
2026-01-21 21:45:05.42	127.03	6.73	-50.0	-52.5	6.1	0.00e+00	0	44	104	26231177216	60	51800
2026-01-21 21:45:06.40	127.20	6.68	-50.0	-52.5	6.1	0.00e+00	0	44	104	26231177216	60	51591
2026-01-21 21:45:07.38	127.36	6.62	-50.0	-52.5	6.1	0.00e+00	0	44	104	26231177216	60	51840
2026-01-21 21:45:08.35	127.52	6.56	-50.1	-52.6	6.1	0.00e+00	0	44	104	26231177216	60	52138
2026-01-21 21:45:09.33	127.68	6.50	-50.1	-52.5	6.1	0.00e+00	0	44	104	26231177216	60	51811
2026-01-21 21:45:10.31	127.84	6.45	-50.0	-52.5	6.1	0.00e+00	0	44	104	26231177216	60	51590
2026-01-21 21:45:11.29	128.00	6.39	-50.0	-52.6	6.1	0.00e+00	0	44	104	26231177216	60	52187
2026-01-21 21:45:12.26	128.16	6.33	-50.0	-52.5	6.1	0.00e+00	0	44	104	26231177216	60	51761
2026-01-21 21:45:13.24	128.32	6.28	-50.0	-52.5	6.1	0.00e+00	0	44	104	26231177216	60	51947
2026-01-21 21:45:14.22	128.48	6.22	-49.9	-52.4	6.1	0.00e+00	0	44	104	26231177216	60	51173
2026-01-21 21:45:15.20	128.64	6.16	-50.1	-52.6	6.1	0.00e+00	0	44	104	26231177216	60	52076
2026-01-21 21:45:16.18	128.79	6.10	-50.0	-52.5	6.1	0.00e+00	0	44	104	26231177216	60	51700
2026-01-21 21:45:17.16	128.95	6.05	-50.0	-52.5	6.1	0.00e+00	0	44	104	26231177216	60	51856
2026-01-21 21:45:18.13	129.10	5.99	-50.0	-52.4	6.1	0.00e+00	0	44	104	26231177216	60	51282
2026-01-21 21:45:19.11	129.26	5.93	-50.0	-52.4	6.1	0.00e+00	0	44	104	26231177216	60	51288
2026-01-21 21:45:20.08	129.41	5.88	-50.0	-52.5	6.1	0.00e+00	0	44	104	26231177216	60	51529
2026-01-21 21:45:21.06	129.56	5.82	-50.0	-52.5	6.1	0.00e+00	0	44	104	26231177216	60	51673
2026-01-21 21:45:22.04	129.72	5.76	-49.9	-52.5	6.1	0.00e+00	0	44	104	26231177216	60	51411
2026-01-21 21:45:23.02	129.87	5.70	-50.0	-52.5	6.1	0.00e+00	0	44	104	26231177216	60	51638
2026-01-21 21:45:24.00	130.02	5.65	-50.0	-52.4	6.1	0.00e+00	0	44	104	26231177216	60	51038
2026-01-21 21:45:24.97	130.17	5.59	-50.0	-52.5	6.1	0.00e+00	0	44	104	26231177216	60	51456
2026-01-21 21:45:25.95	130.32	5.53	-49.9	-52.4	6.1	0.00e+00	0	44	104	26231177216	60	50949
2026-01-21 21:45:26.93	130.46	5.48	-50.0	-52.5	6.1	0.00e+00	0	44	104	26231177216	60	51499
2026-01-21 21:45:27.90	130.61	5.42	-49.9	-52.4	6.1	0.00e+00	0	44	104	26231177216	60	50793
2026-01-21 21:45:28.88	130.76	5.36	-50.0	-52.4	6.1	0.00e+00	0	44	104	26231177216	60	51191
2026-01-21 21:45:29.85	130.90	5.31	-49.9	-52.4	6.1	0.00e+00	0	44	104	26231177216	60	50807
2026-01-21 21:45:30.83	131.05	5.25	-50.0	-52.5	6.1	0.00e+00	0	44	104	26231177216	60	51484
2026-01-21 21:45:31.81	131.19	5.19	-49.9	-52.4	6.1	0.00e+00	0	44	104	26231177216	60	50837
2026-01-21 21:45:32.79	131.34	5.13	-49.9	-52.4	6.1	0.00e+00	0	44	104	26231177216	60	50922
2026-01-21 21:45:33.76	131.48	5.08	-49.8	-52.3	6.0	0.00e+00	0	44	104	26231177216	60	50562
2026-01-21 21:45:34.74	131.63	5.02	-50.0	-52.5	6.1	0.00e+00	0	44	104	26231177216	60	51388
2026-01-21 21:45:35.72	131.77	4.96	-49.8	-52.3	6.1	0.00e+00	0	44	104	26231177216	60	50653
2026-01-21 21:45:36.70	131.91	4.91	-49.9	-52.4	6.1	0.00e+00	0	44	104	26231177216	60	50816
2026-01-21 21:45:37.68	132.05	4.85	-49.8	-52.3	6.1	0.00e+00	0	44	104	26231177216	60	50345
2026-01-21 21:45:38.66	132.19	4.79	-49.8	-52.3	6.0	0.00e+00	0	44	104	26231177216	60	50754
2026-01-21 21:45:39.64	132.33	4.74	-49.7	-52.3	6.1	0.00e+00	0	44	104	26231177216	60	50267
2026-01-21 21:45:40.62	132.47	4.68	-49.8	-52.3	6.1	0.00e+00	0	44	104	26231177216	60	50204
2026-01-21 21:45:41.59	132.61	4.62	-49.8	-52.3	6.1	0.00e+00	0	44	104	26231177216	60	50216
2026-01-21 21:45:42.57	132.75	4.57	-49.8	-52.3	6.1	0.00e+00	0	44	104	26231177216	60	50284
2026-01-21 21:45:43.55	132.88	4.51	-49.8	-52.3	6.1	0.00e+00	0	44	104	26231177216	60	50666
2026-01-21 21:45:44.52	133.02	4.46	-49.8	-52.3	6.1	0.00e+00	0	44	104	26231177216	60	50561
2026-01-21 21:45:45.50	133.15	4.40	-49.7	-52.2	6.1	0.00e+00	0	44	104	26231177216	60	50064
2026-01-21 21:45:46.48	133.29	4.34	-49.7	-52.2	6.1	0.00e+00	0	44	104	26231177216	60	49998
2026-01-21 21:45:47.46	133.42	4.29	-49.7	-52.2	6.1	0.00e+00	0	44	104	26231177216	60	49854
2026-01-21 21:45:48.43	133.56	4.23	-49.7	-52.2	6.1	0.00e+00	0	44	104	26231177216	60	49997
2026-01-21 21:45:49.41	133.69	4.17	-49.7	-52.1	6.1	0.00e+00	0	44	104	26231177216	60	49593
2026-01-21 21:45:50.39	133.82	4.12	-49.7	-52.1	6.1	0.00e+00	0	44	104	26231177216	60	49594
2026-01-21 21:45:51.37	133.96	4.06	-49.8	-52.3	6.1	0.00e+00	0	44	104	26231177216	60	50238
2026-01-21 21:45:52.35	134.09	4.01	-49.7	-52.1	6.1	0.00e+00	0	44	104	26231177216	60	49586
2026-01-21 21:45:53.33	134.22	3.95	-49.6	-52.1	6.1	0.00e+00	0	44	104	26231177216	60	49426
2026-01-21 21:45:54.31	134.35	3.89	-49.6	-52.1	6.1	0.00e+00	0	44	104	26231177216	60	49407
2026-01-21 21:45:55.29	134.48	3.84	-49.8	-52.3	6.1	0.00e+00	0	44	104	26231177216	60	50256
2026-01-21 21:45:56.27	134.61	3.78	-49.6	-52.1	6.1	0.00e+00	0	44	104	26231177216	60	49460
2026-01-21 21:45:57.24	134.73	3.73	-49.7	-52.2	6.1	0.00e+00	0	44	104	26231177216	60	49685
2026-01-21 21:45:58.22	134.86	3.67	-49.5	-52.0	6.1	0.00e+00	0	44	104	26231177216	60	48579
2026-01-21 21:45:59.19	134.99	3.62	-49.7	-52.2	6.1	0.00e+00	0	44	104	26231177216	60	49727
2026-01-21 21:46:00.17	135.12	3.56	-49.6	-52.1	6.1	0.00e+00	0	44	104	26231177216	60	49084
2026-01-21 21:46:01.15	135.24	3.50	-49.6	-52.1	6.1	0.00e+00	0	44	104	26231177216	60	49161
2026-01-21 21:46:02.12	135.37	3.45	-49.4	-51.8	6.1	0.00e+00	0	44	104	26231177216	60	47924
2026-01-21 21:46:03.10	135.49	3.39	-49.7	-52.2	6.1	0.00e+00	0	44	104	26231177216	60	49786
2026-01-21 21:46:04.08	135.62	3.34	-49.5	-52.0	6.1	0.00e+00	0	44	104	26231177216	60	48608
2026-01-21 21:46:05.06	135.74	3.28	-49.6	-52.0	6.1	0.00e+00	0	44	104	26231177216	60	48913
2026-01-21 21:46:06.04	135.86	3.23	-49.3	-51.8	6.1	0.00e+00	0	44	104	26231177216	60	47426
2026-01-21 21:46:07.01	135.98	3.17	-49.6	-52.1	6.1	0.00e+00	0	44	104	26231177216	60	49276
2026-01-21 21:46:07.99	136.11	3.12	-49.3	-51.9	6.1	0.00e+00	0	44	104	26231177216	60	48074
2026-01-21 21:46:08.96	136.23	3.06	-49.5	-52.0	6.1	0.00e+00	0	44	104	26231177216	60	48712
2026-01-21 21:46:09.94	136.35	3.01	-49.2	-51.7	6.1	0.00e+00	0	44	104	26231177216	60	46881
2026-01-21 21:46:10.92	136.47	2.95	-49.6	-52.1	6.1	0.00e+00	0	44	104	26231177216	60	49279
2026-01-21 21:46:11.90	136.59	2.90	-50.1	-52.5	6.1	0.00e+00	0	44	104	26231177216	60	51711
2026-01-21 21:46:12.88	136.71	2.84	-50.1	-52.6	6.1	0.00e+00	0	44	104	26231177216	60	52153
2026-01-21 21:46:13.86	136.83	2.79	-50.5	-52.9	6.0	0.00e+00	0	44	104	26231177216	60	54363
2026-01-21 21:46:14.84	136.94	2.73	-50.4	-52.9	6.1	0.00e+00	0	44	104	26231177216	60	54201
2026-01-21 21:46:15.82	137.06	2.68	-50.6	-53.1	6.1	0.00e+00	0	44	104	26231177216	60	55076
2026-01-21 21:46:16.80	137.18	2.62	-50.7	-53.2	6.1	0.00e+00	0	44	104	26231177216	60	55946
2026-01-21 21:46:17.77	137.30	2.57	-50.8	-53.3	6.1	0.00e+00	0	44	104	26231177216	60	56464
2026-01-21 21:46:18.75	137.41	2.51	-50.7	-53.1	6.1	0.00e+00	0	44	104	26231177216	60	55642
2026-01-21 21:46:19.73	137.53	2.46	-51.0	-53.4	6.1	0.00e+00	0	44	104	26231177216	60	57554
2026-01-21 21:46:20.71	137.64	2.41	-50.8	-53.3	6.1	0.00e+00	0	44	104	26231177216	60	56357
2026-01-21 21:46:21.69	137.76	2.35	-51.0	-53.4	6.1	0.00e+00	0	43	104	26231177216	60	57577
2026-01-21 21:46:22.66	137.87	2.30	-50.9	-53.4	6.1	0.00e+00	0	43	104	26231177216	60	57264
2026-01-21 21:46:23.64	137.98	2.24	-50.9	-53.4	6.1	0.00e+00	0	44	104	26231177216	60	57556
2026-01-21 21:46:24.62	138.10	2.19	-51.1	-53.5	6.1	0.00e+00	0	43	104	26231177216	60	58031
2026-01-21 21:46:25.60	138.21	2.13	-51.1	-53.5	6.1	0.00e+00	0	44	104	26231177216	60	58090
2026-01-21 21:46:26.58	138.32	2.08	-51.0	-53.4	6.1	0.00e+00	0	43	104	26231177216	60	57427
2026-01-21 21:46:27.55	138.43	2.03	-51.1	-53.5	6.1	0.00e+00	0	43	104	26231177216	60	57907
2026-01-21 21:46:28.53	138.54	1.97	-51.1	-53.5	6.1	0.00e+00	0	44	104	26231177216	60	57809
2026-01-21 21:46:29.51	138.65	1.92	-51.0	-53.4	6.1	0.00e+00	0	43	104	26231177216	60	57513
2026-01-21 21:46:30.49	138.76	1.86	-51.0	-53.4	6.1	0.00e+00	0	43	104	26231177216	60	57475
2026-01-21 21:46:31.47	138.87	1.81	-51.0	-53.4	6.1	0.00e+00	0	43	104	26231177216	60	57315
2026-01-21 21:46:32.45	138.98	1.76	-51.0	-53.4	6.1	0.00e+00	0	43	104	26231177216	60	57527
2026-01-21 21:46:33.43	139.09	1.70	-51.0	-53.5	6.1	0.00e+00	0	44	104	26231177216	60	57726
2026-01-21 21:46:34.41	139.20	1.65	-51.0	-53.5	6.1	0.00e+00	0	43	104	26231177216	60	57788
2026-01-21 21:46:35.39	139.31	1.60	-51.1	-53.5	6.1	0.00e+00	0	43	104	26231177216	60	58089
2026-01-21 21:46:36.37	139.41	1.54	-51.1	-53.5	6.1	0.00e+00	0	44	104	26231177216	60	58122
2026-01-21 21:46:37.34	139.52	1.49	-51.0	-53.5	6.1	0.00e+00	0	43	104	26231177216	60	57697
2026-01-21 21:46:38.32	139.63	1.44	-51.0	-53.5	6.1	0.00e+00	0	44	104	26231177216	60	58064
2026-01-21 21:46:39.30	139.73	1.38	-51.1	-53.6	6.1	0.00e+00	0	43	104	26231177216	60	58611
2026-01-21 21:46:40.27	139.84	1.33	-51.2	-53.7	6.1	0.00e+00	0	43	104	26231177216	60	59332
2026-01-21 21:46:41.25	139.94	1.28	-51.2	-53.7	6.1	0.00e+00	0	43	104	26231177216	60	59012
2026-01-21 21:46:42.22	140.04	1.22	-51.2	-53.6	6.1	0.00e+00	0	43	104	26231177216	60	58701
2026-01-21 21:46:43.21	140.15	1.17	-51.3	-53.7	6.1	0.00e+00	0	43	104	26231177216	60	59523
2026-01-21 21:46:44.19	140.25	1.12	-51.2	-53.7	6.1	0.00e+00	0	43	104	26231177216	60	59139
2026-01-21 21:46:45.16	140.35	1.07	-51.2	-53.7	6.1	0.00e+00	0	43	104	26231177216	60	59218
2026-01-21 21:46:46.14	140.46	1.01	-51.2	-53.7	6.1	0.00e+00	0	43	104	26231177216	60	59096
2026-01-21 21:46:47.12	140.56	0.96	-51.2	-53.6	6.1	0.00e+00	0	43	104	26231177216	60	58899
2026-01-21 21:46:48.10	140.66	0.91	-51.2	-53.7	6.1	0.00e+00	0	43	104	26231177216	60	59201
2026-01-21 21:46:49.08	140.76	0.85	-51.2	-53.7	6.1	0.00e+00	0	43	104	26231177216	60	59165
2026-01-21 21:46:50.05	140.86	0.80	-51.1	-53.6	6.0	0.00e+00	0	44	104	26231177216	60	58647
2026-01-21 21:46:51.03	140.96	0.75	-51.2	-53.7	6.1	0.00e+00	0	43	104	26231177216	60	59149
2026-01-21 21:46:52.01	141.06	0.70	-51.2	-53.6	6.1	0.00e+00	0	43	104	26231177216	60	58517
2026-01-21 21:46:52.98	141.16	0.64	-51.2	-53.6	6.1	0.00e+00	0	44	104	26231177216	60	58857
2026-01-21 21:46:53.96	141.26	0.59	-51.2	-53.7	6.1	0.00e+00	0	43	104	26231177216	60	59225
2026-01-21 21:46:54.94	141.36	0.54	-51.2	-53.7	6.1	0.00e+00	0	43	104	26231177216	60	59419
2026-01-21 21:46:55.92	141.46	0.49	-51.3	-53.7	6.1	0.00e+00	0	43	104	26231177216	60	59635
2026-01-21 21:46:56.90	141.55	0.44	-51.3	-53.7	6.1	0.00e+00	0	43	104	26231177216	60	59453
2026-01-21 21:46:57.88	141.65	0.38	-51.2	-53.6	6.1	0.00e+00	0	43	104	26231177216	60	58883
2026-01-21 21:46:58.86	141.75	0.33	-51.2	-53.6	6.1	0.00e+00	0	43	104	26231177216	60	58865
2026-01-21 21:46:59.84	141.85	0.28	-51.3	-53.8	6.1	0.00e+00	0	43	104	26231177216	60	59664
2026-01-21 21:47:00.82	141.94	0.23	-51.1	-53.6	6.1	0.00e+00	0	43	104	26231177216	60	58638
2026-01-21 21:47:01.80	142.04	0.18	-51.2	-53.7	6.1	0.00e+00	0	43	104	26231177216	60	58973
2026-01-21 21:47:02.78	142.13	0.12	-51.1	-53.6	6.0	0.00e+00	0	43	104	26231177216	60	58668
2026-01-21 21:47:03.76	142.23	0.07	-51.1	-53.5	6.1	0.00e+00	0	43	104	26231177216	60	57981
2026-01-21 21:47:04.73	142.32	0.02	-51.1	-53.6	6.1	0.00e+00	0	43	104	26231177216	60	58630
2026-01-21 21:47:05.71	142.42	-0.03	-51.1	-53.6	6.1	0.00e+00	0	43	104	26231177216	60	58356
2026-01-21 21:47:06.69	142.51	-0.08	-51.2	-53.7	6.1	0.00e+00	0	43	104	26231177216	60	59452
2026-01-21 21:47:07.67	142.60	-0.13	-51.1	-53.6	6.1	0.00e+00	0	43	104	26231177216	60	58407

#Closed at: 2026-01-21 21:47:08
#Recorded file [26231 MB]: D:/lorett/data/35029_260122_093737.dat