passes_logs/2026/01/21/R4.6S_Anadyr/R4.6S_Anadyr__20260121_001630_NOAA_21_JPSS-2_rec.log

#Pass ID: 20260121_001630_NOAA 21 (JPSS-2)
#Satellite: NOAA 21 (JPSS-2)
#Configuration: NOAA-21
#almurnet v.1.7.20251203
#Start time: 2026-01-21 00:16:31

#Version: 2.2.20231116
#Station: R4.6S_Anadyr
#Location: 177.4865 lon 64.73178 lat
#TLE: 1 54234U 22150A   26020.29910383  .00000141  00000+0  87571-4 0  9990
#TLE: 2 54234  98.7506 321.1348 0000615 250.8428 109.2682 14.19536295165564

#Time	Az	El	Level	Level2	SNR	BER	BlckErr	Temp	State	Recorded	gain1	gain2
2026-01-21 00:16:31.81	157.69	0.11	-51.2	-66.1	3.5	1.51e+00	0	39	0	0	60	73370
2026-01-21 00:16:32.81	157.70	0.17	-52.0	-64.8	3.5	1.52e+00	0	40	104	0	60	61101
2026-01-21 00:16:33.83	157.70	0.23	-51.7	-64.5	3.5	1.51e+00	0	40	104	0	60	59042
2026-01-21 00:16:34.84	157.71	0.29	-51.7	-64.6	3.5	1.51e+00	0	40	104	0	60	59774
2026-01-21 00:16:35.84	157.71	0.35	-51.4	-64.2	3.5	1.52e+00	0	40	104	0	60	57117
2026-01-21 00:16:36.85	157.72	0.41	-51.2	-64.1	3.5	1.52e+00	0	40	104	0	60	56143
2026-01-21 00:16:37.86	157.72	0.48	-51.2	-64.1	3.5	1.52e+00	0	40	104	0	60	56218
2026-01-21 00:16:38.87	157.73	0.54	-51.1	-64.0	3.5	1.52e+00	0	41	104	0	60	55379
2026-01-21 00:16:39.88	157.73	0.60	-51.1	-64.0	3.5	1.52e+00	0	41	104	0	60	55578
2026-01-21 00:16:40.89	157.74	0.66	-51.0	-63.9	3.5	1.52e+00	0	41	104	0	60	55027
2026-01-21 00:16:41.90	157.74	0.72	-51.0	-63.9	3.5	1.52e+00	0	41	104	0	60	54831
2026-01-21 00:16:42.91	157.75	0.79	-50.9	-63.8	3.5	1.51e+00	0	41	104	0	60	54523
2026-01-21 00:16:43.92	157.76	0.85	-50.8	-63.7	3.5	1.52e+00	0	41	104	0	60	53718
2026-01-21 00:16:44.94	157.76	0.91	-50.7	-63.6	3.5	1.51e+00	0	41	104	0	60	53140
2026-01-21 00:16:45.94	157.77	0.97	-50.6	-63.4	3.5	1.52e+00	0	41	104	0	60	52045
2026-01-21 00:16:46.95	157.77	1.03	-50.5	-63.4	3.5	1.52e+00	0	41	104	0	60	52093
2026-01-21 00:16:47.96	157.78	1.10	-50.5	-63.4	3.5	1.51e+00	0	41	104	0	60	51679
2026-01-21 00:16:48.97	157.78	1.16	-50.4	-63.3	3.5	1.52e+00	0	41	104	0	60	51031
2026-01-21 00:16:49.98	157.79	1.22	-50.3	-63.2	3.5	1.51e+00	0	41	104	0	60	50642
2026-01-21 00:16:50.99	157.79	1.29	-50.3	-63.1	3.5	1.52e+00	0	41	104	0	60	50270
2026-01-21 00:16:52.00	157.80	1.35	-49.1	-61.9	3.5	1.52e+00	0	41	104	0	60	43646
2026-01-21 00:16:53.01	157.80	1.41	-49.7	-62.6	3.5	1.51e+00	0	41	104	0	60	47289
2026-01-21 00:16:54.02	157.81	1.48	-49.4	-62.2	3.5	1.52e+00	0	41	104	0	60	45398
2026-01-21 00:16:55.03	157.82	1.54	-49.3	-62.1	3.5	1.52e+00	0	41	104	0	60	44862
2026-01-21 00:16:56.04	157.82	1.61	-49.3	-62.1	3.5	1.52e+00	0	41	104	0	60	44867
2026-01-21 00:16:57.05	157.83	1.67	-49.3	-62.2	3.5	1.51e+00	0	41	104	0	60	45049
2026-01-21 00:16:58.06	157.83	1.73	-49.3	-62.1	3.5	1.52e+00	0	41	104	0	60	44685
2026-01-21 00:16:59.07	157.84	1.80	-49.3	-62.1	3.5	1.52e+00	0	41	104	0	60	44828
2026-01-21 00:17:00.08	157.84	1.86	-49.3	-62.1	3.5	1.52e+00	0	41	104	0	60	44645
2026-01-21 00:17:01.09	157.85	1.93	-49.3	-62.1	3.5	1.52e+00	0	41	104	0	60	44942
2026-01-21 00:17:02.10	157.85	1.99	-49.3	-62.1	3.5	1.52e+00	0	41	104	0	60	44570
2026-01-21 00:17:03.11	157.86	2.06	-49.3	-62.1	3.5	1.52e+00	0	41	104	0	60	44868
2026-01-21 00:17:04.12	157.87	2.12	-49.3	-62.1	3.5	1.51e+00	0	41	104	0	60	44651
2026-01-21 00:17:05.13	157.87	2.19	-49.2	-62.0	3.5	1.52e+00	0	41	104	0	60	44220
2026-01-21 00:17:06.14	157.88	2.25	-49.2	-61.9	3.5	1.52e+00	0	41	104	0	60	43440
2026-01-21 00:17:07.15	157.88	2.32	-49.2	-61.9	3.5	1.51e+00	0	41	104	0	60	43695
2026-01-21 00:17:08.16	157.89	2.38	-49.3	-61.8	3.5	1.52e+00	0	41	104	0	60	43367
2026-01-21 00:17:09.17	157.89	2.45	-49.3	-61.8	3.5	1.52e+00	0	41	104	0	60	43276
2026-01-21 00:17:10.18	157.90	2.52	-49.2	-61.7	3.5	1.51e+00	0	41	104	0	60	42586
2026-01-21 00:17:11.19	157.90	2.58	-49.2	-61.6	3.5	1.52e+00	0	41	104	0	60	42277
2026-01-21 00:17:12.20	157.91	2.65	-49.2	-61.4	3.5	1.52e+00	0	41	104	0	60	41246
2026-01-21 00:17:13.22	157.92	2.71	-49.2	-61.4	3.5	1.52e+00	0	41	104	0	60	41423
2026-01-21 00:17:14.22	157.92	2.78	-49.1	-61.2	3.5	1.52e+00	0	41	104	0	60	40321
2026-01-21 00:17:15.23	157.93	2.85	-49.2	-61.3	3.5	1.51e+00	0	41	104	0	60	40638
2026-01-21 00:17:16.24	157.93	2.91	-49.2	-61.3	3.5	1.51e+00	0	41	104	0	60	40757
2026-01-21 00:17:17.25	157.94	2.98	-49.2	-61.5	3.5	1.51e+00	0	41	104	0	60	41936
2026-01-21 00:17:18.26	157.94	3.05	-49.2	-61.9	3.5	1.52e+00	0	41	104	0	60	43750
2026-01-21 00:17:19.27	157.95	3.12	-49.3	-61.8	3.5	1.52e+00	0	41	104	0	60	43259
2026-01-21 00:17:20.28	157.96	3.18	-49.2	-61.4	3.5	1.52e+00	0	41	104	0	60	41346
2026-01-21 00:17:21.29	157.96	3.25	-48.9	-58.4	3.7	1.51e+00	0	41	104	0	60	29082
2026-01-21 00:17:22.30	157.97	3.32	-48.6	-56.4	5.4	6.46e-01	123	41	0	0	60	23308
2026-01-21 00:17:23.31	157.97	3.39	-47.9	-53.1	7.6	1.46e-01	120	41	0	3145728	60	15880
2026-01-21 00:17:24.32	157.98	3.46	-47.3	-51.6	9.3	2.95e-02	122	41	0	6291456	60	13342
2026-01-21 00:17:25.33	157.99	3.52	-47.0	-50.8	10.0	1.95e-02	123	41	0	9437184	60	12191
2026-01-21 00:17:26.34	157.99	3.59	-46.2	-49.4	11.8	1.57e-03	122	41	0	12582912	60	10303
2026-01-21 00:17:27.35	158.00	3.66	-46.0	-49.1	12.0	6.66e-04	122	41	0	15728640	60	10040
2026-01-21 00:17:28.36	158.00	3.73	-45.1	-47.6	13.3	8.30e-06	120	41	0	18874368	60	8449
2026-01-21 00:17:29.37	158.01	3.80	-45.2	-47.8	13.2	6.80e-06	122	41	0	22020096	60	8573
2026-01-21 00:17:30.38	158.01	3.87	-46.4	-49.7	11.4	1.10e-03	123	41	0	25165824	60	10664
2026-01-21 00:17:31.39	158.02	3.94	-45.3	-47.7	14.7	1.06e-02	122	41	0	28311552	60	8546
2026-01-21 00:17:32.40	158.03	4.01	-41.6	-43.0	17.9	0.00e+00	120	41	0	31457280	56	6248
2026-01-21 00:17:33.41	158.03	4.08	-49.1	-59.7	4.3	1.51e+00	0	41	104	32505856	60	33768
2026-01-21 00:17:34.42	158.04	4.15	-42.7	-44.3	18.6	4.69e-03	122	41	0	33554432	60	5758
2026-01-21 00:17:35.43	158.04	4.22	-48.3	-55.2	9.3	1.42e+00	122	41	104	35651584	60	20233
2026-01-21 00:17:36.44	158.05	4.29	-41.2	-42.6	18.7	0.00e+00	123	41	0	36700160	56	5952
2026-01-21 00:17:37.45	158.06	4.36	-40.9	-42.2	19.2	0.00e+00	123	41	0	39845888	56	5683
2026-01-21 00:17:38.46	158.06	4.43	-40.4	-41.6	19.6	0.00e+00	122	41	0	42991616	54	5988
2026-01-21 00:17:39.47	158.07	4.50	-40.7	-42.0	19.3	0.00e+00	123	41	0	46137344	54	6272
2026-01-21 00:17:40.48	158.07	4.57	-40.9	-42.2	19.3	0.00e+00	123	41	0	49283072	54	6355
2026-01-21 00:17:41.49	158.08	4.64	-39.8	-41.0	20.6	0.00e+00	123	41	0	52428800	54	5573
2026-01-21 00:17:42.50	158.09	4.71	-40.3	-41.5	20.1	0.00e+00	123	42	0	55574528	52	6613
2026-01-21 00:17:43.51	158.09	4.79	-40.5	-41.7	20.2	0.00e+00	122	41	0	58720256	52	6765
2026-01-21 00:17:44.52	158.10	4.86	-40.6	-41.8	20.0	0.00e+00	122	41	0	61865984	54	6113
2026-01-21 00:17:45.53	158.10	4.93	-40.6	-41.8	19.8	0.00e+00	123	41	0	65011712	54	6129
2026-01-21 00:17:46.54	158.11	5.00	-39.9	-41.1	20.4	0.00e+00	123	41	0	68157440	54	5639
2026-01-21 00:17:47.55	158.12	5.07	-40.1	-41.3	20.4	0.00e+00	122	41	0	71303168	54	5727
2026-01-21 00:17:48.56	158.12	5.15	-40.0	-41.2	20.4	0.00e+00	123	41	0	74448896	54	5660
2026-01-21 00:17:49.57	158.13	5.22	-39.9	-41.1	20.3	0.00e+00	123	41	0	77594624	54	5607
2026-01-21 00:17:50.58	158.14	5.29	-39.9	-41.1	20.3	0.00e+00	121	41	0	80740352	54	5627
2026-01-21 00:17:51.59	158.14	5.37	-40.3	-41.5	20.0	0.00e+00	121	41	0	83886080	54	5898
2026-01-21 00:17:52.60	158.15	5.44	-40.3	-41.5	20.2	0.00e+00	123	41	0	87031808	54	5908
2026-01-21 00:17:53.61	158.15	5.51	-40.3	-41.5	20.3	0.00e+00	122	41	0	90177536	54	5875
2026-01-21 00:17:54.62	158.16	5.59	-40.6	-41.9	19.8	0.00e+00	123	41	0	93323264	52	6894
2026-01-21 00:17:55.62	158.17	5.66	-40.3	-41.5	20.2	0.00e+00	121	41	0	96468992	52	6647
2026-01-21 00:17:56.63	158.17	5.74	-39.8	-41.0	20.5	0.00e+00	123	41	0	99614720	52	6243
2026-01-21 00:17:57.64	158.18	5.81	-40.0	-41.2	20.5	0.00e+00	123	41	0	102760448	52	6396
2026-01-21 00:17:58.65	158.19	5.88	-39.9	-41.1	20.5	0.00e+00	123	41	0	105906176	52	6300
2026-01-21 00:17:59.66	158.19	5.96	-39.9	-41.0	20.6	0.00e+00	123	41	0	109051904	52	6274
2026-01-21 00:18:00.67	158.20	6.03	-39.9	-41.0	20.5	0.00e+00	123	41	0	112197632	52	6272
2026-01-21 00:18:01.68	158.20	6.11	-39.6	-40.8	20.9	0.00e+00	122	41	0	115343360	52	6083
2026-01-21 00:18:02.69	158.21	6.19	-40.3	-41.5	20.3	0.00e+00	120	42	0	118489088	52	6577
2026-01-21 00:18:03.70	158.22	6.26	-40.3	-41.5	20.2	0.00e+00	123	42	0	121634816	52	6587
2026-01-21 00:18:04.71	158.22	6.34	-39.9	-41.0	20.7	0.00e+00	123	41	0	124780544	52	6276
2026-01-21 00:18:05.72	158.23	6.41	-40.0	-41.2	20.6	0.00e+00	123	42	0	127926272	52	6366
2026-01-21 00:18:06.73	158.24	6.49	-39.8	-40.9	20.8	0.00e+00	120	42	0	131072000	52	6168
2026-01-21 00:18:07.74	158.24	6.57	-39.9	-41.0	20.7	0.00e+00	123	42	0	134217728	52	6258
2026-01-21 00:18:08.75	158.25	6.64	-39.6	-40.7	20.9	0.00e+00	122	42	0	137363456	52	6057
2026-01-21 00:18:09.75	158.26	6.72	-39.8	-40.9	20.8	0.00e+00	123	42	0	140509184	52	6164
2026-01-21 00:18:10.76	158.26	6.80	-39.6	-40.7	21.1	0.00e+00	123	42	0	143654912	52	6037
2026-01-21 00:18:11.77	158.27	6.87	-39.6	-40.7	21.0	0.00e+00	123	42	0	146800640	52	6038
2026-01-21 00:18:12.78	158.28	6.95	-39.8	-41.0	20.8	0.00e+00	123	42	0	149946368	52	6209
2026-01-21 00:18:13.79	158.28	7.03	-39.8	-41.0	20.9	0.00e+00	122	42	0	153092096	52	6242
2026-01-21 00:18:14.80	158.29	7.11	-39.4	-40.5	21.1	0.00e+00	122	41	0	156237824	52	5887
2026-01-21 00:18:15.81	158.30	7.19	-39.5	-40.6	21.1	0.00e+00	123	42	0	159383552	52	5966
2026-01-21 00:18:16.82	158.30	7.27	-39.9	-41.0	20.7	0.00e+00	122	42	0	162529280	52	6256
2026-01-21 00:18:17.83	158.31	7.35	-39.8	-40.9	20.8	0.00e+00	123	42	0	165675008	52	6185
2026-01-21 00:18:18.84	158.32	7.43	-39.3	-40.4	21.3	0.00e+00	123	42	0	168820736	52	5809
2026-01-21 00:18:19.85	158.32	7.50	-39.3	-40.4	21.3	0.00e+00	123	42	0	171966464	52	5799
2026-01-21 00:18:20.86	158.33	7.58	-39.4	-40.5	21.2	0.00e+00	123	42	0	175112192	52	5922
2026-01-21 00:18:21.87	158.34	7.66	-39.0	-40.0	21.6	0.00e+00	122	41	0	178257920	52	5592
2026-01-21 00:18:22.88	158.34	7.74	-39.2	-40.3	21.5	0.00e+00	122	42	0	181403648	52	5770
2026-01-21 00:18:23.89	158.35	7.83	-39.1	-40.2	21.6	0.00e+00	123	42	0	184549376	52	5665
2026-01-21 00:18:24.89	158.36	7.91	-39.5	-40.6	21.3	0.00e+00	122	42	0	187695104	52	5938
2026-01-21 00:18:25.91	158.36	7.99	-39.1	-40.2	21.4	0.00e+00	121	42	0	190840832	52	5714
2026-01-21 00:18:26.91	158.37	8.07	-39.2	-40.2	21.5	0.00e+00	123	42	0	193986560	52	5717
2026-01-21 00:18:27.93	158.38	8.15	-39.1	-40.2	21.6	0.00e+00	123	42	0	197132288	52	5682
2026-01-21 00:18:28.93	158.38	8.23	-38.9	-40.0	21.7	0.00e+00	122	42	0	200278016	52	5551
2026-01-21 00:18:29.94	158.39	8.31	-38.9	-39.9	21.8	0.00e+00	120	42	0	203423744	52	5527
2026-01-21 00:18:30.95	158.40	8.40	-38.8	-39.9	22.0	0.00e+00	123	42	0	206569472	52	5476
2026-01-21 00:18:31.97	158.40	8.48	-39.0	-40.1	21.7	0.00e+00	122	42	0	209715200	52	5626
2026-01-21 00:18:32.98	158.41	8.56	-39.0	-40.0	21.7	0.00e+00	123	42	0	212860928	52	5580
2026-01-21 00:18:33.99	158.42	8.65	-38.9	-39.9	21.9	0.00e+00	122	42	0	216006656	52	5501
2026-01-21 00:18:34.99	158.42	8.73	-38.8	-39.9	21.8	0.00e+00	123	42	0	219152384	52	5495
2026-01-21 00:18:36.00	158.43	8.81	-39.0	-40.1	21.7	0.00e+00	123	42	0	222298112	52	5617
2026-01-21 00:18:37.01	158.44	8.90	-39.1	-40.1	21.5	0.00e+00	123	42	0	225443840	52	5657
2026-01-21 00:18:38.02	158.45	8.98	-38.7	-39.8	21.9	0.00e+00	123	42	0	229638144	50	6080
2026-01-21 00:18:39.03	158.45	9.07	-38.8	-39.8	22.0	0.00e+00	123	42	0	231735296	50	6122
2026-01-21 00:18:40.04	158.46	9.15	-39.0	-40.1	21.7	0.00e+00	123	42	0	234881024	50	6290
2026-01-21 00:18:41.05	158.47	9.24	-39.1	-40.1	21.6	0.00e+00	122	42	0	238026752	50	6328
2026-01-21 00:18:42.06	158.47	9.32	-39.3	-40.3	21.5	0.00e+00	123	42	0	241172480	50	6491
2026-01-21 00:18:43.07	158.48	9.41	-38.5	-39.5	22.3	0.00e+00	123	42	0	245366784	50	5891
2026-01-21 00:18:44.08	158.49	9.49	-38.8	-39.8	22.0	0.00e+00	122	42	0	248512512	50	6116
2026-01-21 00:18:45.09	158.50	9.58	-38.7	-39.8	21.9	0.00e+00	122	42	0	251658240	50	6073
2026-01-21 00:18:46.10	158.50	9.67	-38.7	-39.8	21.9	0.00e+00	123	42	0	254803968	50	6065
2026-01-21 00:18:47.11	158.51	9.75	-38.4	-39.4	22.2	0.00e+00	122	42	0	256901120	50	5807
2026-01-21 00:18:48.12	158.52	9.84	-38.3	-39.3	22.4	0.00e+00	123	42	0	261095424	50	5772
2026-01-21 00:18:49.13	158.52	9.93	-38.6	-39.7	22.1	0.00e+00	122	42	0	264241152	50	6011
2026-01-21 00:18:50.14	158.53	10.02	-38.3	-39.4	22.4	0.00e+00	123	42	0	267386880	50	5801
2026-01-21 00:18:51.15	158.54	10.10	-38.2	-39.3	22.5	0.00e+00	122	42	0	270532608	50	5736
2026-01-21 00:18:52.16	158.55	10.19	-38.4	-39.4	22.2	0.00e+00	122	42	0	273678336	50	5845
2026-01-21 00:18:53.17	158.55	10.28	-38.6	-39.6	22.2	0.00e+00	122	42	0	276824064	50	5983
2026-01-21 00:18:54.18	158.56	10.37	-38.3	-39.3	22.3	0.00e+00	123	42	0	279969792	50	5784
2026-01-21 00:18:55.19	158.57	10.46	-38.6	-39.7	22.1	0.00e+00	123	42	0	283115520	50	6001
2026-01-21 00:18:56.20	158.58	10.55	-38.2	-39.2	22.5	0.00e+00	123	42	0	286261248	50	5725
2026-01-21 00:18:57.21	158.58	10.64	-38.1	-39.1	22.6	0.00e+00	123	42	0	289406976	50	5630
2026-01-21 00:18:58.22	158.59	10.73	-38.5	-39.5	22.3	0.00e+00	123	42	0	292552704	50	5901
2026-01-21 00:18:59.23	158.60	10.82	-37.9	-38.9	22.7	0.00e+00	122	42	0	295698432	50	5487
2026-01-21 00:19:00.24	158.61	10.91	-38.0	-39.0	22.8	0.00e+00	123	42	0	298844160	50	5555
2026-01-21 00:19:01.25	158.61	11.00	-37.9	-38.9	22.8	0.00e+00	122	42	0	301989888	50	5473
2026-01-21 00:19:02.26	158.62	11.10	-37.9	-38.9	22.8	0.00e+00	122	42	0	305135616	50	5500
2026-01-21 00:19:03.27	158.63	11.19	-38.0	-39.0	22.7	0.00e+00	123	42	0	308281344	50	5539
2026-01-21 00:19:04.28	158.64	11.28	-38.0	-39.0	22.7	0.00e+00	122	42	0	311427072	50	5559
2026-01-21 00:19:05.29	158.64	11.37	-37.8	-38.8	22.9	0.00e+00	120	42	0	314572800	50	5455
2026-01-21 00:19:06.30	158.65	11.47	-37.9	-38.8	22.9	0.00e+00	123	42	0	317718528	50	5447
2026-01-21 00:19:07.31	158.66	11.56	-37.8	-38.8	22.9	0.00e+00	122	42	0	320864256	50	5418
2026-01-21 00:19:08.32	158.67	11.65	-37.8	-38.8	22.9	0.00e+00	123	42	0	324009984	50	5424
2026-01-21 00:19:09.33	158.68	11.75	-37.8	-38.7	23.0	0.00e+00	118	42	0	327155712	48	6048
2026-01-21 00:19:10.34	158.68	11.84	-37.8	-38.8	22.9	0.00e+00	123	42	0	330301440	48	6102
2026-01-21 00:19:11.35	158.69	11.94	-37.7	-38.7	23.1	0.00e+00	120	42	0	333447168	48	6022
2026-01-21 00:19:12.36	158.70	12.03	-37.6	-38.5	23.1	0.00e+00	123	42	0	336592896	48	5926
2026-01-21 00:19:13.37	158.71	12.13	-37.6	-38.6	23.0	0.00e+00	123	42	0	339738624	48	5969
2026-01-21 00:19:14.38	158.72	12.23	-37.7	-38.6	23.0	0.00e+00	122	42	0	342884352	48	5966
2026-01-21 00:19:15.39	158.72	12.32	-37.5	-38.5	23.1	0.00e+00	123	42	0	346030080	48	5895
2026-01-21 00:19:16.40	158.73	12.42	-37.5	-38.5	23.2	0.00e+00	123	42	0	349175808	48	5903
2026-01-21 00:19:17.41	158.74	12.52	-37.4	-38.4	23.2	0.00e+00	122	42	0	352321536	48	5810
2026-01-21 00:19:18.42	158.75	12.61	-37.3	-38.3	23.3	0.00e+00	122	42	0	355467264	48	5752
2026-01-21 00:19:19.43	158.76	12.71	-37.5	-38.4	23.2	0.00e+00	122	42	0	358612992	48	5855
2026-01-21 00:19:20.44	158.76	12.81	-37.5	-38.5	23.2	0.00e+00	122	42	0	361758720	48	5867
2026-01-21 00:19:21.45	158.77	12.91	-37.4	-38.4	23.2	0.00e+00	120	42	0	364904448	48	5815
2026-01-21 00:19:22.46	158.78	13.01	-37.4	-38.4	23.2	0.00e+00	123	42	0	368050176	48	5804
2026-01-21 00:19:23.47	158.79	13.11	-37.3	-38.2	23.3	0.00e+00	123	42	0	371195904	48	5722
2026-01-21 00:19:24.48	158.80	13.21	-37.4	-38.4	23.3	0.00e+00	123	42	0	374341632	48	5801
2026-01-21 00:19:25.49	158.81	13.31	-37.3	-38.2	23.4	0.00e+00	122	42	0	377487360	48	5690
2026-01-21 00:19:26.49	158.81	13.41	-37.2	-38.1	23.5	0.00e+00	122	42	0	380633088	48	5638
2026-01-21 00:19:27.50	158.82	13.51	-37.2	-38.1	23.5	0.00e+00	122	42	0	383778816	48	5641
2026-01-21 00:19:28.51	158.83	13.61	-37.1	-38.1	23.5	0.00e+00	123	42	0	386924544	48	5609
2026-01-21 00:19:29.53	158.84	13.72	-37.3	-38.2	23.4	0.00e+00	122	42	0	390070272	48	5700
2026-01-21 00:19:30.53	158.85	13.82	-37.0	-38.0	23.5	0.00e+00	123	42	0	393216000	48	5553
2026-01-21 00:19:31.54	158.86	13.92	-37.4	-38.3	23.3	0.00e+00	123	42	0	396361728	48	5777
2026-01-21 00:19:32.56	158.86	14.03	-37.0	-38.0	23.6	0.00e+00	122	42	0	399507456	48	5542
2026-01-21 00:19:33.57	158.87	14.13	-37.0	-37.9	23.6	0.00e+00	123	42	0	402653184	48	5521
2026-01-21 00:19:34.57	158.88	14.23	-37.1	-38.0	23.6	0.00e+00	122	42	0	405798912	48	5553
2026-01-21 00:19:35.59	158.89	14.34	-37.1	-38.0	23.5	0.00e+00	123	42	0	408944640	48	5588
2026-01-21 00:19:36.59	158.90	14.44	-37.1	-38.1	23.5	0.00e+00	123	42	0	412090368	48	5615
2026-01-21 00:19:37.61	158.91	14.55	-37.2	-38.1	23.6	0.00e+00	121	42	0	415236096	48	5641
2026-01-21 00:19:38.62	158.92	14.66	-37.0	-37.9	23.6	0.00e+00	122	42	0	418381824	48	5518
2026-01-21 00:19:39.63	158.93	14.76	-37.0	-37.9	23.7	0.00e+00	123	42	0	421527552	48	5491
2026-01-21 00:19:40.64	158.93	14.87	-37.1	-38.0	23.6	0.00e+00	121	42	0	424673280	48	5552
2026-01-21 00:19:41.65	158.94	14.98	-37.0	-38.0	23.6	0.00e+00	123	42	0	427819008	48	5546
2026-01-21 00:19:42.65	158.95	15.09	-37.0	-37.9	23.7	0.00e+00	123	42	0	430964736	48	5492
2026-01-21 00:19:43.67	158.96	15.20	-37.2	-38.1	23.5	0.00e+00	122	42	0	434110464	48	5622
2026-01-21 00:19:44.67	158.97	15.30	-37.1	-38.1	23.5	0.00e+00	120	42	0	437256192	48	5595
2026-01-21 00:19:45.68	158.98	15.41	-37.1	-38.1	23.6	0.00e+00	120	42	0	440401920	48	5604
2026-01-21 00:19:46.69	158.99	15.52	-37.3	-38.2	23.5	0.00e+00	123	42	0	443547648	48	5702
2026-01-21 00:19:47.70	159.00	15.63	-37.2	-38.1	23.5	0.00e+00	120	42	0	446693376	48	5631
2026-01-21 00:19:48.72	159.01	15.75	-37.1	-38.1	23.6	0.00e+00	122	42	0	449839104	48	5596
2026-01-21 00:19:49.73	159.02	15.86	-37.2	-38.2	23.5	0.00e+00	123	42	0	452984832	48	5665
2026-01-21 00:19:50.73	159.03	15.97	-37.3	-38.2	23.5	0.00e+00	123	42	0	456130560	48	5695
2026-01-21 00:19:51.74	159.04	16.08	-37.0	-37.9	23.7	0.00e+00	120	42	0	459276288	48	5501
2026-01-21 00:19:52.75	159.04	16.19	-37.0	-38.0	23.7	0.00e+00	123	42	0	462422016	48	5537
2026-01-21 00:19:53.76	159.05	16.31	-37.1	-38.0	23.6	0.00e+00	123	42	0	465567744	48	5579
2026-01-21 00:19:54.77	159.06	16.42	-37.2	-38.1	23.5	0.00e+00	123	42	0	468713472	48	5635
2026-01-21 00:19:55.79	159.07	16.54	-37.1	-38.1	23.6	0.00e+00	123	42	0	471859200	48	5621
2026-01-21 00:19:56.79	159.08	16.65	-37.2	-38.2	23.5	0.00e+00	123	42	0	475004928	48	5668
2026-01-21 00:19:57.80	159.09	16.77	-37.3	-38.3	23.5	0.00e+00	122	42	0	478150656	48	5731
2026-01-21 00:19:58.81	159.10	16.88	-37.2	-38.1	23.6	0.00e+00	123	42	0	481296384	48	5649
2026-01-21 00:19:59.82	159.11	17.00	-37.2	-38.2	23.5	0.00e+00	121	42	0	484442112	48	5668
2026-01-21 00:20:00.83	159.12	17.12	-37.4	-38.3	23.5	0.00e+00	123	42	0	487587840	48	5749
2026-01-21 00:20:01.84	159.13	17.24	-37.5	-38.4	23.4	0.00e+00	123	42	0	490733568	48	5827
2026-01-21 00:20:02.85	159.14	17.36	-37.4	-38.4	23.4	0.00e+00	120	42	0	493879296	48	5827
2026-01-21 00:20:03.86	159.15	17.48	-37.5	-38.5	23.3	0.00e+00	123	42	0	497025024	48	5881
2026-01-21 00:20:04.87	159.16	17.60	-37.4	-38.3	23.5	0.00e+00	121	42	0	500170752	48	5779
2026-01-21 00:20:05.88	159.17	17.72	-37.5	-38.4	23.4	0.00e+00	123	42	0	503316480	48	5827
2026-01-21 00:20:06.89	159.18	17.84	-37.6	-38.6	23.3	0.00e+00	123	42	0	506462208	48	5954
2026-01-21 00:20:07.89	159.19	17.96	-37.6	-38.5	23.3	0.00e+00	122	42	0	509607936	48	5919
2026-01-21 00:20:08.90	159.20	18.08	-37.7	-38.7	23.3	0.00e+00	122	42	0	512753664	48	5997
2026-01-21 00:20:09.91	159.21	18.20	-37.5	-38.5	23.4	0.00e+00	123	42	0	515899392	48	5886
2026-01-21 00:20:10.92	159.22	18.33	-37.6	-38.6	23.3	0.00e+00	123	42	0	519045120	48	5944
2026-01-21 00:20:11.93	159.23	18.45	-37.7	-38.6	23.2	0.00e+00	122	42	0	522190848	48	5984
2026-01-21 00:20:12.94	159.24	18.57	-37.5	-38.5	23.3	0.00e+00	122	42	0	525336576	48	5887
2026-01-21 00:20:13.95	159.25	18.70	-37.6	-38.6	23.3	0.00e+00	122	42	0	528482304	48	5959
2026-01-21 00:20:14.96	159.26	18.83	-37.5	-38.5	23.3	0.00e+00	120	42	0	531628032	48	5887
2026-01-21 00:20:15.97	159.27	18.95	-37.6	-38.6	23.3	0.00e+00	123	42	0	534773760	48	5953
2026-01-21 00:20:16.98	159.29	19.08	-37.8	-38.7	23.3	0.00e+00	123	42	0	537919488	48	6051
2026-01-21 00:20:17.99	159.30	19.21	-37.7	-38.7	23.3	0.00e+00	123	42	0	541065216	48	6001
2026-01-21 00:20:19.00	159.31	19.34	-37.8	-38.7	23.2	0.00e+00	123	42	0	544210944	48	6046
2026-01-21 00:20:20.01	159.32	19.47	-37.6	-38.6	23.3	0.00e+00	123	42	0	547356672	48	5945
2026-01-21 00:20:21.02	159.33	19.60	-37.5	-38.4	23.4	0.00e+00	123	42	0	550502400	48	5837
2026-01-21 00:20:22.03	159.34	19.73	-37.8	-38.8	23.4	0.00e+00	123	42	0	553648128	48	6084
2026-01-21 00:20:23.04	159.35	19.86	-37.4	-38.4	23.5	0.00e+00	120	42	0	556793856	48	5829
2026-01-21 00:20:24.05	159.36	19.99	-37.4	-38.3	23.5	0.00e+00	123	42	0	559939584	48	5783
2026-01-21 00:20:25.06	159.37	20.12	-37.2	-38.1	23.7	0.00e+00	120	42	0	563085312	48	5639
2026-01-21 00:20:26.07	159.38	20.26	-37.2	-38.1	23.7	0.00e+00	122	42	0	566231040	48	5650
2026-01-21 00:20:27.08	159.40	20.39	-37.2	-38.1	23.7	0.00e+00	122	42	0	570425344	48	5621
2026-01-21 00:20:28.09	159.41	20.52	-37.2	-38.1	23.7	0.00e+00	123	42	0	572522496	48	5647
2026-01-21 00:20:29.10	159.42	20.66	-37.2	-38.2	23.6	0.00e+00	123	42	0	575668224	48	5676
2026-01-21 00:20:30.11	159.43	20.80	-37.3	-38.2	23.7	0.00e+00	123	42	0	578813952	48	5703
2026-01-21 00:20:31.12	159.44	20.93	-36.8	-37.7	24.0	0.00e+00	120	42	0	581959680	48	5380
2026-01-21 00:20:32.13	159.45	21.07	-36.6	-37.5	24.2	0.00e+00	122	42	0	586153984	46	5878
2026-01-21 00:20:33.14	159.46	21.21	-36.6	-37.5	24.2	0.00e+00	122	42	0	589299712	46	5911
2026-01-21 00:20:34.15	159.48	21.35	-36.6	-37.5	24.2	0.00e+00	123	42	0	592445440	46	5901
2026-01-21 00:20:35.16	159.49	21.49	-36.5	-37.4	24.2	0.00e+00	123	42	0	595591168	46	5842
2026-01-21 00:20:36.17	159.50	21.63	-36.4	-37.3	24.4	0.00e+00	123	42	0	597688320	46	5748
2026-01-21 00:20:37.18	159.51	21.77	-36.3	-37.2	24.4	0.00e+00	123	42	0	601882624	46	5718
2026-01-21 00:20:38.19	159.52	21.91	-36.2	-37.1	24.4	0.00e+00	120	42	0	605028352	46	5641
2026-01-21 00:20:39.20	159.54	22.06	-36.2	-37.1	24.5	0.00e+00	123	42	0	608174080	46	5640
2026-01-21 00:20:40.21	159.55	22.20	-36.1	-37.0	24.6	0.00e+00	123	42	0	611319808	46	5532
2026-01-21 00:20:41.22	159.56	22.35	-36.3	-37.2	24.3	0.00e+00	123	42	0	614465536	46	5716
2026-01-21 00:20:42.23	159.57	22.49	-36.1	-37.0	24.6	0.00e+00	123	42	0	617611264	46	5583
2026-01-21 00:20:43.23	159.59	22.64	-36.0	-36.9	24.6	0.00e+00	122	42	0	620756992	46	5508
2026-01-21 00:20:44.24	159.60	22.78	-35.9	-36.8	24.8	0.00e+00	123	42	0	623902720	46	5416
2026-01-21 00:20:45.25	159.61	22.93	-36.1	-37.0	24.7	0.00e+00	123	42	0	627048448	46	5542
2026-01-21 00:20:46.27	159.62	23.08	-35.8	-36.6	24.8	0.00e+00	123	42	0	630194176	46	5333
2026-01-21 00:20:47.27	159.64	23.23	-35.8	-36.7	24.9	0.00e+00	123	42	0	633339904	46	5348
2026-01-21 00:20:48.28	159.65	23.38	-35.7	-36.6	24.8	0.00e+00	122	42	0	636485632	44	5956
2026-01-21 00:20:49.29	159.66	23.53	-35.6	-36.5	24.9	0.00e+00	120	42	0	639631360	44	5906
2026-01-21 00:20:50.30	159.68	23.69	-35.7	-36.5	24.9	0.00e+00	122	42	0	642777088	44	5923
2026-01-21 00:20:51.31	159.69	23.84	-35.9	-36.7	24.8	0.00e+00	120	42	0	645922816	44	6059
2026-01-21 00:20:52.32	159.70	23.99	-35.7	-36.6	24.9	0.00e+00	122	42	0	649068544	44	5933
2026-01-21 00:20:53.33	159.72	24.15	-35.9	-36.8	24.8	0.00e+00	123	42	0	652214272	44	6067
2026-01-21 00:20:54.34	159.73	24.31	-35.6	-36.5	24.9	0.00e+00	123	42	0	655360000	44	5902
2026-01-21 00:20:55.35	159.74	24.46	-35.9	-36.7	24.9	0.00e+00	123	42	0	658505728	44	6042
2026-01-21 00:20:56.35	159.76	24.62	-35.9	-36.7	24.8	0.00e+00	123	42	0	661651456	44	6059
2026-01-21 00:20:57.36	159.77	24.78	-35.9	-36.8	24.9	0.00e+00	123	42	0	664797184	44	6069
2026-01-21 00:20:58.37	159.78	24.94	-35.9	-36.8	24.8	0.00e+00	120	42	0	667942912	44	6099
2026-01-21 00:20:59.39	159.80	25.10	-36.0	-36.8	24.7	0.00e+00	123	42	0	671088640	44	6132
2026-01-21 00:21:00.39	159.81	25.26	-36.0	-36.8	24.7	0.00e+00	122	42	0	674234368	44	6117
2026-01-21 00:21:01.40	159.83	25.43	-36.0	-36.9	24.7	0.00e+00	123	42	0	677380096	44	6169
2026-01-21 00:21:02.41	159.84	25.59	-36.2	-37.0	24.6	0.00e+00	122	42	0	680525824	44	6265
2026-01-21 00:21:03.42	159.86	25.75	-36.2	-37.0	24.7	0.00e+00	120	42	0	683671552	44	6251
2026-01-21 00:21:04.43	159.87	25.92	-36.2	-37.1	24.5	0.00e+00	122	42	0	686817280	44	6311
2026-01-21 00:21:05.44	159.88	26.09	-36.5	-37.4	24.4	0.00e+00	120	42	0	689963008	44	6509
2026-01-21 00:21:06.45	159.90	26.26	-36.4	-37.3	24.4	0.00e+00	123	42	0	693108736	44	6451
2026-01-21 00:21:07.46	159.91	26.42	-36.6	-37.5	24.3	0.00e+00	122	42	0	696254464	44	6591
2026-01-21 00:21:08.47	159.93	26.60	-36.6	-37.5	24.2	0.00e+00	122	42	0	699400192	44	6620
2026-01-21 00:21:09.48	159.94	26.77	-36.7	-37.6	24.2	0.00e+00	122	42	0	702545920	46	5978
2026-01-21 00:21:10.49	159.96	26.94	-36.8	-37.7	24.2	0.00e+00	123	42	0	705691648	46	6031
2026-01-21 00:21:11.50	159.98	27.11	-36.9	-37.8	24.0	0.00e+00	120	42	0	708837376	46	6099
2026-01-21 00:21:12.51	159.99	27.29	-37.1	-38.0	24.0	0.00e+00	123	42	0	711983104	46	6256
2026-01-21 00:21:13.52	160.01	27.46	-37.2	-38.1	23.9	0.00e+00	123	42	0	715128832	46	6305
2026-01-21 00:21:14.53	160.02	27.64	-37.2	-38.1	23.9	0.00e+00	123	42	0	718274560	46	6310
2026-01-21 00:21:15.54	160.04	27.82	-37.5	-38.4	23.7	0.00e+00	122	42	0	721420288	46	6527
2026-01-21 00:21:16.55	160.05	28.00	-37.5	-38.4	23.7	0.00e+00	120	42	0	724566016	46	6540
2026-01-21 00:21:17.56	160.07	28.18	-37.6	-38.5	23.7	0.00e+00	122	42	0	727711744	46	6593
2026-01-21 00:21:18.57	160.09	28.36	-37.7	-38.7	23.6	0.00e+00	120	42	0	730857472	46	6731
2026-01-21 00:21:19.58	160.10	28.54	-37.7	-38.6	23.5	0.00e+00	123	42	0	734003200	46	6700
2026-01-21 00:21:20.59	160.12	28.73	-37.6	-38.6	23.6	0.00e+00	123	42	0	737148928	46	6653
2026-01-21 00:21:21.60	160.14	28.91	-37.7	-38.6	23.6	0.00e+00	123	42	0	740294656	46	6722
2026-01-21 00:21:22.61	160.15	29.10	-37.6	-38.5	23.7	0.00e+00	122	42	0	743440384	46	6649
2026-01-21 00:21:23.62	160.17	29.28	-38.0	-38.9	23.4	0.00e+00	123	42	0	746586112	48	6187
2026-01-21 00:21:24.63	160.19	29.47	-37.6	-38.5	23.7	0.00e+00	123	42	0	749731840	48	5889
2026-01-21 00:21:25.64	160.21	29.66	-37.6	-38.6	23.6	0.00e+00	123	42	0	752877568	48	5927
2026-01-21 00:21:26.65	160.22	29.86	-37.4	-38.3	23.8	0.00e+00	123	42	0	756023296	48	5760
2026-01-21 00:21:27.66	160.24	30.05	-37.4	-38.4	23.7	0.00e+00	122	42	0	759169024	48	5813
2026-01-21 00:21:28.67	160.26	30.24	-37.4	-38.3	23.7	0.00e+00	123	42	0	762314752	48	5768
2026-01-21 00:21:29.68	160.28	30.44	-37.1	-38.1	24.0	0.00e+00	123	42	0	765460480	48	5599
2026-01-21 00:21:30.69	160.30	30.63	-37.2	-38.2	23.9	0.00e+00	123	42	0	768606208	48	5677
2026-01-21 00:21:31.70	160.32	30.83	-37.2	-38.1	23.9	0.00e+00	122	42	0	771751936	48	5658
2026-01-21 00:21:32.70	160.33	31.03	-37.0	-37.9	24.0	0.00e+00	120	42	0	774897664	48	5503
2026-01-21 00:21:33.71	160.35	31.23	-36.7	-37.6	24.2	0.00e+00	123	42	0	778043392	46	5981
2026-01-21 00:21:34.73	160.37	31.43	-36.8	-37.7	24.2	0.00e+00	120	42	0	781189120	46	6016
2026-01-21 00:21:35.74	160.39	31.64	-36.9	-37.8	24.3	0.00e+00	122	42	0	784334848	46	6086
2026-01-21 00:21:36.75	160.41	31.84	-36.9	-37.8	24.1	0.00e+00	123	42	0	787480576	46	6097
2026-01-21 00:21:37.76	160.43	32.05	-36.7	-37.6	24.3	0.00e+00	123	42	0	790626304	46	5951
2026-01-21 00:21:38.77	160.45	32.26	-36.8	-37.7	24.2	0.00e+00	122	42	0	793772032	46	6019
2026-01-21 00:21:39.78	160.47	32.47	-36.9	-37.8	24.2	0.00e+00	123	42	0	796917760	46	6102
2026-01-21 00:21:40.79	160.49	32.68	-36.6	-37.6	24.4	0.00e+00	120	42	0	800063488	46	5929
2026-01-21 00:21:41.79	160.51	32.89	-36.8	-37.7	24.3	0.00e+00	122	42	0	803209216	46	6012
2026-01-21 00:21:42.80	160.53	33.10	-37.0	-37.9	24.1	0.00e+00	120	42	0	806354944	46	6148
2026-01-21 00:21:43.81	160.55	33.31	-37.0	-37.9	24.1	0.00e+00	122	42	0	809500672	46	6141
2026-01-21 00:21:44.82	160.57	33.53	-37.2	-38.1	23.9	0.00e+00	122	42	0	812646400	46	6312
2026-01-21 00:21:45.83	160.60	33.75	-37.5	-38.4	23.7	0.00e+00	123	42	0	815792128	46	6539
2026-01-21 00:21:46.84	160.62	33.97	-37.6	-38.5	23.6	0.00e+00	123	42	0	818937856	46	6640
2026-01-21 00:21:47.85	160.64	34.19	-37.9	-38.8	23.4	0.00e+00	121	42	0	822083584	48	6117
2026-01-21 00:21:48.86	160.66	34.41	-37.9	-38.8	23.5	0.00e+00	122	42	0	825229312	48	6099
2026-01-21 00:21:49.86	160.68	34.64	-38.1	-39.0	23.3	0.00e+00	120	42	0	828375040	48	6261
2026-01-21 00:21:50.87	160.71	34.86	-38.2	-39.1	23.1	0.00e+00	123	42	0	831520768	48	6350
2026-01-21 00:21:51.89	160.73	35.09	-38.3	-39.2	23.1	0.00e+00	123	42	0	834666496	48	6401
2026-01-21 00:21:52.90	160.75	35.32	-38.3	-39.3	23.2	0.00e+00	122	42	0	837812224	48	6425
2026-01-21 00:21:53.91	160.78	35.55	-38.4	-39.3	23.1	0.00e+00	122	42	0	840957952	48	6490
2026-01-21 00:21:54.92	160.80	35.79	-38.6	-39.6	23.0	0.00e+00	123	42	0	844103680	48	6662
2026-01-21 00:21:55.93	160.82	36.02	-38.9	-39.9	22.7	0.00e+00	120	42	0	847249408	50	6158
2026-01-21 00:21:56.94	160.85	36.26	-38.8	-39.8	22.8	0.00e+00	122	42	0	850395136	50	6094
2026-01-21 00:21:57.95	160.87	36.49	-39.0	-40.0	22.5	0.00e+00	123	42	0	853540864	50	6244
2026-01-21 00:21:58.96	160.90	36.73	-39.2	-40.2	22.4	0.00e+00	123	42	0	856686592	50	6398
2026-01-21 00:21:59.97	160.92	36.98	-39.4	-40.5	22.3	0.00e+00	123	42	0	859832320	50	6585
2026-01-21 00:22:00.98	160.95	37.22	-39.4	-40.4	22.2	0.00e+00	123	42	0	862978048	50	6532
2026-01-21 00:22:01.99	160.97	37.46	-39.5	-40.5	22.1	0.00e+00	120	42	0	866123776	50	6632
2026-01-21 00:22:03.00	161.00	37.71	-39.5	-40.6	22.1	0.00e+00	123	42	0	869269504	50	6672
2026-01-21 00:22:04.02	161.03	37.96	-39.5	-40.6	22.0	0.00e+00	122	42	0	872415232	50	6659
2026-01-21 00:22:05.02	161.05	38.21	-39.3	-40.3	22.3	0.00e+00	123	42	0	875560960	50	6482
2026-01-21 00:22:06.03	161.08	38.46	-39.2	-40.3	22.3	0.00e+00	122	42	0	878706688	50	6446
2026-01-21 00:22:07.04	161.11	38.72	-39.3	-40.4	22.2	0.00e+00	122	42	0	881852416	50	6540
2026-01-21 00:22:08.05	161.14	38.97	-39.0	-40.0	22.6	0.00e+00	123	42	0	884998144	50	6218
2026-01-21 00:22:09.07	161.17	39.23	-39.0	-40.0	22.6	0.00e+00	123	42	0	888143872	50	6249
2026-01-21 00:22:10.08	161.20	39.49	-38.7	-39.7	22.8	0.00e+00	122	42	0	891289600	50	6000
2026-01-21 00:22:11.09	161.23	39.75	-38.9	-39.9	22.7	0.00e+00	120	42	0	894435328	50	6159
2026-01-21 00:22:12.10	161.26	40.02	-38.7	-39.7	22.8	0.00e+00	123	42	0	897581056	50	6040
2026-01-21 00:22:13.11	161.29	40.28	-38.4	-39.4	23.1	0.00e+00	120	42	0	900726784	50	5796
2026-01-21 00:22:14.12	161.32	40.55	-38.3	-39.3	23.2	0.00e+00	123	42	0	903872512	50	5734
2026-01-21 00:22:15.13	161.35	40.82	-38.4	-39.3	23.2	0.00e+00	123	42	0	908066816	50	5790
2026-01-21 00:22:16.14	161.38	41.09	-38.6	-39.6	23.0	0.00e+00	122	42	0	911212544	50	5952
2026-01-21 00:22:17.15	161.41	41.37	-38.2	-39.1	23.3	0.00e+00	123	42	0	913309696	50	5626
2026-01-21 00:22:18.16	161.44	41.64	-38.5	-39.4	23.1	0.00e+00	122	42	0	916455424	50	5833
2026-01-21 00:22:19.17	161.48	41.92	-38.7	-39.6	22.9	0.00e+00	121	42	0	919601152	50	5989
2026-01-21 00:22:20.18	161.51	42.20	-39.1	-40.1	22.4	0.00e+00	122	42	0	923795456	50	6305
2026-01-21 00:22:21.19	161.54	42.49	-39.7	-40.7	21.9	0.00e+00	122	42	0	926941184	50	6783
2026-01-21 00:22:22.20	161.58	42.77	-39.9	-41.0	21.6	0.00e+00	123	42	0	930086912	52	6237
2026-01-21 00:22:23.21	161.61	43.06	-40.0	-41.1	21.4	0.00e+00	120	42	0	933232640	52	6331
2026-01-21 00:22:24.22	161.65	43.35	-40.3	-41.4	21.1	0.00e+00	122	42	0	936378368	52	6562
2026-01-21 00:22:25.23	161.69	43.64	-40.2	-41.3	21.2	0.00e+00	122	42	0	939524096	52	6471
2026-01-21 00:22:26.24	161.72	43.93	-40.4	-41.5	21.4	0.00e+00	122	42	0	942669824	52	6646
2026-01-21 00:22:27.25	161.76	44.22	-40.0	-41.1	21.8	0.00e+00	122	42	0	945815552	52	6299
2026-01-21 00:22:28.26	161.80	44.52	-39.9	-40.9	21.8	0.00e+00	123	42	0	948961280	52	6193
2026-01-21 00:22:29.27	161.84	44.82	-39.7	-40.8	21.9	0.00e+00	122	42	0	952107008	52	6088
2026-01-21 00:22:30.28	161.88	45.12	-39.6	-40.6	22.0	0.00e+00	123	42	0	955252736	52	5982
2026-01-21 00:22:31.29	161.92	45.43	-39.8	-40.9	21.9	0.00e+00	123	42	0	958398464	52	6139
2026-01-21 00:22:32.30	161.96	45.74	-39.7	-40.8	21.8	0.00e+00	123	42	0	961544192	52	6077
2026-01-21 00:22:33.31	162.00	46.05	-39.6	-40.7	21.9	0.00e+00	123	42	0	964689920	52	6007
2026-01-21 00:22:34.32	162.04	46.36	-39.6	-40.7	21.9	0.00e+00	123	42	0	967835648	52	6004
2026-01-21 00:22:35.33	162.08	46.67	-39.5	-40.5	21.9	0.00e+00	120	42	0	970981376	52	5884
2026-01-21 00:22:36.33	162.13	46.98	-39.3	-40.3	22.0	0.00e+00	120	42	0	974127104	52	5787
2026-01-21 00:22:37.34	162.17	47.30	-39.2	-40.3	22.1	0.00e+00	120	42	0	977272832	52	5741
2026-01-21 00:22:38.35	162.22	47.62	-39.1	-40.1	22.2	0.00e+00	122	42	0	980418560	52	5618
2026-01-21 00:22:39.36	162.26	47.95	-38.9	-39.9	22.4	0.00e+00	123	42	0	983564288	52	5479
2026-01-21 00:22:40.37	162.31	48.27	-38.7	-39.7	22.7	0.00e+00	122	42	0	986710016	50	6054
2026-01-21 00:22:41.38	162.36	48.60	-38.6	-39.6	22.8	0.00e+00	120	42	0	989855744	50	5960
2026-01-21 00:22:42.39	162.41	48.93	-38.5	-39.5	22.9	0.00e+00	123	42	0	993001472	50	5903
2026-01-21 00:22:43.40	162.46	49.26	-38.5	-39.5	23.0	0.00e+00	123	42	0	996147200	50	5877
2026-01-21 00:22:44.40	162.51	49.60	-38.6	-39.6	22.9	0.00e+00	123	42	0	999292928	50	5939
2026-01-21 00:22:45.41	162.56	49.94	-38.5	-39.4	23.0	0.00e+00	123	42	0	1002438656	50	5853
2026-01-21 00:22:46.42	162.62	50.28	-38.4	-39.3	23.1	0.00e+00	122	42	0	1005584384	50	5761
2026-01-21 00:22:47.43	162.67	50.62	-38.3	-39.2	23.1	0.00e+00	123	42	0	1008730112	50	5714
2026-01-21 00:22:48.44	162.73	50.96	-38.2	-39.2	23.3	0.00e+00	122	42	0	1011875840	50	5680
2026-01-21 00:22:49.45	162.78	51.31	-38.1	-39.0	23.5	0.00e+00	120	42	0	1015021568	50	5576
2026-01-21 00:22:50.46	162.84	51.66	-38.1	-39.0	23.3	0.00e+00	123	42	0	1018167296	50	5566
2026-01-21 00:22:51.47	162.90	52.02	-37.7	-38.6	23.7	0.00e+00	121	42	0	1021313024	48	5949
2026-01-21 00:22:52.49	162.96	52.38	-37.7	-38.7	23.6	0.00e+00	123	42	0	1024458752	48	5999
2026-01-21 00:22:53.49	163.02	52.73	-37.8	-38.7	23.6	0.00e+00	120	42	0	1027604480	48	6064
2026-01-21 00:22:54.51	163.09	53.10	-37.7	-38.6	23.6	0.00e+00	123	42	0	1030750208	48	5975
2026-01-21 00:22:55.52	163.15	53.46	-37.8	-38.8	23.6	0.00e+00	121	42	0	1033895936	48	6067
2026-01-21 00:22:56.53	163.22	53.83	-38.0	-38.9	23.4	0.00e+00	123	42	0	1037041664	48	6174
2026-01-21 00:22:57.54	163.29	54.19	-38.1	-39.1	23.3	0.00e+00	123	42	0	1040187392	48	6280
2026-01-21 00:22:58.55	163.36	54.57	-38.1	-39.0	23.4	0.00e+00	123	42	0	1043333120	48	6274
2026-01-21 00:22:59.56	163.43	54.94	-37.8	-38.8	23.4	0.00e+00	122	42	0	1046478848	48	6075
2026-01-21 00:23:00.57	163.50	55.32	-37.0	-37.9	23.9	0.00e+00	120	42	0	1049624576	48	5490
2026-01-21 00:23:01.58	163.58	55.70	-36.9	-37.8	23.9	0.00e+00	120	42	0	1052770304	48	5441
2026-01-21 00:23:02.59	163.66	56.08	-37.2	-38.1	23.9	0.00e+00	123	42	0	1055916032	48	5631
2026-01-21 00:23:03.60	163.73	56.46	-37.4	-38.4	23.7	0.00e+00	123	42	0	1059061760	48	5822
2026-01-21 00:23:04.61	163.82	56.85	-37.9	-38.8	23.6	0.00e+00	123	42	0	1062207488	48	6107
2026-01-21 00:23:05.62	163.90	57.24	-37.4	-38.4	23.9	0.00e+00	122	42	0	1065353216	48	5806
2026-01-21 00:23:06.63	163.99	57.63	-37.3	-38.2	23.9	0.00e+00	122	42	0	1068498944	48	5720
2026-01-21 00:23:07.64	164.08	58.03	-36.7	-37.6	24.3	0.00e+00	120	42	0	1071644672	46	5975
2026-01-21 00:23:08.65	164.17	58.42	-36.8	-37.7	24.3	0.00e+00	120	42	0	1074790400	46	6019
2026-01-21 00:23:09.66	164.26	58.82	-36.8	-37.7	24.3	0.00e+00	123	42	0	1077936128	46	6007
2026-01-21 00:23:10.67	164.36	59.23	-36.9	-37.8	24.4	0.00e+00	122	42	0	1081081856	46	6066
2026-01-21 00:23:11.68	164.46	59.63	-36.8	-37.7	24.4	0.00e+00	123	42	0	1084227584	46	6034
2026-01-21 00:23:12.68	164.56	60.04	-36.8	-37.7	24.4	0.00e+00	123	42	0	1087373312	46	6012
2026-01-21 00:23:13.70	164.66	60.45	-36.4	-37.3	24.7	0.00e+00	120	42	0	1090519040	46	5777
2026-01-21 00:23:14.71	164.77	60.86	-36.2	-37.1	24.8	0.00e+00	123	42	0	1093664768	46	5634
2026-01-21 00:23:15.71	164.89	61.28	-36.1	-37.0	24.8	0.00e+00	121	42	0	1096810496	46	5580
2026-01-21 00:23:16.72	165.00	61.69	-36.3	-37.1	24.6	0.00e+00	123	42	0	1099956224	46	5657
2026-01-21 00:23:17.73	165.12	62.11	-36.3	-37.2	24.7	0.00e+00	123	42	0	1103101952	46	5705
2026-01-21 00:23:18.74	165.25	62.54	-36.2	-37.1	24.8	0.00e+00	122	42	0	1106247680	46	5610
2026-01-21 00:23:19.75	165.37	62.96	-35.8	-36.7	25.1	0.00e+00	123	42	0	1109393408	46	5353
2026-01-21 00:23:20.76	165.51	63.39	-35.5	-36.3	25.3	0.00e+00	123	42	0	1112539136	44	5788
2026-01-21 00:23:21.77	165.65	63.82	-35.4	-36.3	25.3	0.00e+00	122	42	0	1115684864	44	5754
2026-01-21 00:23:22.78	165.79	64.26	-35.6	-36.4	25.2	0.00e+00	122	42	0	1118830592	44	5854
2026-01-21 00:23:23.79	165.94	64.69	-35.8	-36.6	25.0	0.00e+00	120	42	0	1121976320	44	5986
2026-01-21 00:23:24.80	166.09	65.13	-35.7	-36.6	24.8	0.00e+00	124	42	0	1125122048	44	5991
2026-01-21 00:23:25.82	166.25	65.57	-35.9	-36.8	24.7	0.00e+00	123	42	0	1128267776	44	6096
2026-01-21 00:23:26.83	166.42	66.02	-35.5	-36.4	24.9	0.00e+00	122	42	0	1131413504	44	5849
2026-01-21 00:23:27.84	166.59	66.46	-35.7	-36.6	25.0	0.00e+00	122	42	0	1134559232	44	5973
2026-01-21 00:23:28.85	166.77	66.91	-35.8	-36.7	25.1	0.00e+00	122	42	0	1137704960	44	6029
2026-01-21 00:23:29.86	166.96	67.36	-35.8	-36.6	25.1	0.00e+00	120	42	0	1140850688	44	5977
2026-01-21 00:23:30.87	167.16	67.81	-35.5	-36.3	25.3	0.00e+00	123	42	0	1143996416	44	5775
2026-01-21 00:23:31.87	167.36	68.26	-35.2	-36.0	25.3	0.00e+00	121	42	0	1147142144	44	5592
2026-01-21 00:23:32.89	167.58	68.72	-35.3	-36.1	25.5	0.00e+00	123	42	0	1150287872	44	5659
2026-01-21 00:23:33.90	167.80	69.17	-35.5	-36.4	25.4	0.00e+00	123	42	0	1153433600	44	5801
2026-01-21 00:23:34.91	168.03	69.63	-35.6	-36.5	25.2	0.00e+00	123	42	0	1156579328	44	5859
2026-01-21 00:23:35.91	168.28	70.09	-35.7	-36.6	24.9	0.00e+00	122	42	0	1159725056	44	5973
2026-01-21 00:23:36.92	168.54	70.55	-35.6	-36.5	25.0	0.00e+00	120	42	0	1162870784	44	5879
2026-01-21 00:23:37.93	168.81	71.02	-35.5	-36.3	25.2	0.00e+00	122	42	0	1166016512	44	5772
2026-01-21 00:23:38.94	169.09	71.49	-35.1	-35.9	25.6	0.00e+00	122	42	0	1169162240	44	5509
2026-01-21 00:23:39.95	169.40	71.95	-35.0	-35.8	25.7	0.00e+00	123	42	0	1172307968	44	5418
2026-01-21 00:23:40.96	169.72	72.42	-35.1	-35.9	25.5	0.00e+00	122	42	0	1175453696	44	5497
2026-01-21 00:23:41.97	170.05	72.90	-35.3	-36.2	25.3	0.00e+00	123	42	0	1178599424	44	5670
2026-01-21 00:23:42.98	170.41	73.37	-35.2	-36.0	25.6	0.00e+00	123	42	0	1181745152	44	5574
2026-01-21 00:23:43.99	170.79	73.84	-34.9	-35.7	25.8	0.00e+00	122	42	0	1184890880	44	5396
2026-01-21 00:23:45.00	171.19	74.32	-35.0	-35.8	25.7	0.00e+00	120	42	0	1188036608	44	5440
2026-01-21 00:23:46.01	171.62	74.79	-34.9	-35.7	25.9	0.00e+00	122	42	0	1191182336	44	5371
2026-01-21 00:23:47.01	172.07	75.27	-35.0	-35.9	25.3	0.00e+00	123	42	0	1194328064	44	5468
2026-01-21 00:23:48.02	172.56	75.74	-34.9	-35.8	25.4	0.00e+00	123	42	0	1197473792	44	5436
2026-01-21 00:23:49.03	173.08	76.22	-35.4	-36.2	25.5	0.00e+00	123	42	0	1200619520	44	5717
2026-01-21 00:23:50.04	173.64	76.70	-35.3	-36.2	25.6	0.00e+00	122	42	0	1203765248	44	5668
2026-01-21 00:23:51.05	174.25	77.18	-35.3	-36.2	25.4	0.00e+00	122	41	0	1206910976	44	5661
2026-01-21 00:23:52.07	174.90	77.66	-35.6	-36.5	25.0	0.00e+00	123	42	0	1210056704	44	5871
2026-01-21 00:23:53.07	175.60	78.14	-35.9	-36.8	24.8	0.00e+00	123	42	0	1213202432	44	6101
2026-01-21 00:23:54.09	176.38	78.62	-36.0	-36.9	24.9	0.00e+00	123	42	0	1216348160	44	6176
2026-01-21 00:23:55.10	177.21	79.10	-36.3	-37.1	24.9	0.00e+00	122	42	0	1219493888	44	6333
2026-01-21 00:23:56.11	178.13	79.58	-36.1	-37.0	24.6	0.00e+00	122	42	0	1222639616	44	6261
2026-01-21 00:23:57.12	179.13	80.05	-36.3	-37.2	24.2	0.00e+00	120	42	0	1225785344	44	6366
2026-01-21 00:23:58.13	180.23	80.52	-36.2	-37.1	24.7	0.00e+00	122	42	0	1229979648	44	6303
2026-01-21 00:23:59.14	181.45	80.99	-36.4	-37.3	24.7	0.00e+00	123	42	0	1232076800	44	6492
2026-01-21 00:24:00.15	182.81	81.46	-37.0	-37.9	24.4	0.00e+00	122	42	0	1235222528	46	6188
2026-01-21 00:24:01.16	184.32	81.92	-37.0	-37.9	24.4	0.00e+00	122	42	0	1238368256	46	6169
2026-01-21 00:24:02.17	186.02	82.38	-36.9	-37.8	24.3	0.00e+00	123	42	0	1242562560	46	6101
2026-01-21 00:24:03.18	187.93	82.83	-36.9	-37.8	24.3	0.00e+00	122	42	0	1245708288	46	6068
2026-01-21 00:24:04.19	190.10	83.27	-36.6	-37.5	24.5	0.00e+00	122	42	0	1248854016	46	5896
2026-01-21 00:24:05.20	192.57	83.70	-36.8	-37.7	24.3	0.00e+00	123	42	0	1251999744	46	6051
2026-01-21 00:24:06.21	195.40	84.12	-36.6	-37.6	24.4	0.00e+00	123	42	0	1254096896	46	5952
2026-01-21 00:24:07.22	198.65	84.52	-36.4	-37.3	24.9	0.00e+00	123	42	0	1258291200	46	5743
2026-01-21 00:24:08.23	202.42	84.91	-36.6	-37.5	24.5	0.00e+00	118	42	0	1261436928	46	5883
2026-01-21 00:24:09.24	206.77	85.26	-37.2	-38.2	24.3	0.00e+00	123	42	0	1264582656	46	6377
2026-01-21 00:24:10.25	211.80	85.59	-37.3	-38.2	24.3	0.00e+00	123	42	0	1267728384	46	6407
2026-01-21 00:24:11.26	217.59	85.88	-37.1	-38.0	24.7	0.00e+00	123	42	0	1270874112	46	6218
2026-01-21 00:24:12.27	224.17	86.12	-37.0	-37.9	24.7	0.00e+00	120	42	0	1274019840	46	6143
2026-01-21 00:24:13.29	231.59	86.30	-37.4	-38.3	24.3	0.00e+00	123	42	0	1277165568	46	6486
2026-01-21 00:24:14.30	239.55	86.42	-37.2	-38.1	24.5	0.00e+00	123	42	0	1280311296	46	6332
2026-01-21 00:24:15.31	247.88	86.46	-36.8	-37.6	25.0	0.00e+00	123	42	0	1283457024	46	5987
2026-01-21 00:24:16.32	256.23	86.43	-36.6	-37.5	24.8	0.00e+00	122	42	0	1286602752	46	5912
2026-01-21 00:24:17.33	264.27	86.33	-36.9	-37.8	24.6	0.00e+00	123	42	0	1289748480	46	6074
2026-01-21 00:24:18.34	271.72	86.15	-36.3	-37.2	25.0	0.00e+00	122	42	0	1292894208	46	5697
2026-01-21 00:24:19.35	278.43	85.92	-36.4	-37.3	24.9	0.00e+00	122	42	0	1296039936	46	5736
2026-01-21 00:24:20.35	284.30	85.64	-36.8	-37.7	24.8	0.00e+00	120	42	0	1299185664	46	6047
2026-01-21 00:24:21.37	289.51	85.32	-36.5	-37.4	25.1	0.00e+00	123	42	0	1302331392	46	5817
2026-01-21 00:24:22.38	293.97	84.97	-36.4	-37.3	25.1	0.00e+00	120	42	0	1305477120	46	5758
2026-01-21 00:24:23.38	297.78	84.59	-36.5	-37.4	25.0	0.00e+00	123	42	0	1308622848	46	5812
2026-01-21 00:24:24.40	301.15	84.19	-36.6	-37.4	24.9	0.00e+00	122	42	0	1311768576	46	5853
2026-01-21 00:24:25.41	304.05	83.77	-36.3	-37.2	25.0	0.00e+00	123	42	0	1314914304	46	5662
2026-01-21 00:24:26.42	306.58	83.34	-36.4	-37.3	24.9	0.00e+00	120	42	0	1318060032	46	5755
2026-01-21 00:24:27.43	308.79	82.90	-36.1	-37.0	24.7	0.00e+00	123	42	0	1321205760	46	5555
2026-01-21 00:24:28.44	310.74	82.45	-36.4	-37.3	24.5	0.00e+00	120	42	0	1324351488	46	5782
2026-01-21 00:24:29.45	312.47	82.00	-36.8	-37.7	24.3	0.00e+00	123	42	0	1327497216	46	6022
2026-01-21 00:24:30.46	314.01	81.54	-37.3	-38.2	24.2	0.00e+00	122	42	0	1330642944	46	6404
2026-01-21 00:24:31.46	315.38	81.08	-37.2	-38.1	24.5	0.00e+00	120	42	0	1333788672	46	6292
2026-01-21 00:24:32.47	316.62	80.61	-36.9	-37.8	24.8	0.00e+00	122	42	0	1336934400	46	6116
2026-01-21 00:24:33.48	317.74	80.14	-36.3	-37.2	25.1	0.00e+00	120	42	0	1340080128	46	5674
2026-01-21 00:24:34.49	318.76	79.66	-36.2	-37.0	25.3	0.00e+00	123	42	0	1343225856	46	5578
2026-01-21 00:24:35.50	319.69	79.19	-35.6	-36.4	25.5	0.00e+00	123	42	0	1346371584	44	5851
2026-01-21 00:24:36.51	320.54	78.71	-36.3	-37.1	25.4	0.00e+00	120	42	0	1349517312	44	6316
2026-01-21 00:24:37.52	321.32	78.23	-36.1	-37.0	25.3	0.00e+00	123	42	0	1352663040	44	6207
2026-01-21 00:24:38.53	322.03	77.75	-35.7	-36.5	25.5	0.00e+00	120	42	0	1355808768	44	5913
2026-01-21 00:24:39.55	322.70	77.27	-35.8	-36.7	25.6	0.00e+00	123	42	0	1358954496	44	6005
2026-01-21 00:24:40.56	323.31	76.79	-35.6	-36.5	25.4	0.00e+00	123	42	0	1362100224	44	5873
2026-01-21 00:24:41.57	323.88	76.31	-36.4	-37.3	25.0	0.00e+00	123	42	0	1365245952	44	6466
2026-01-21 00:24:42.58	324.41	75.84	-36.8	-37.7	24.8	0.00e+00	123	42	0	1368391680	46	6018
2026-01-21 00:24:43.59	324.91	75.36	-37.1	-38.0	24.8	0.00e+00	122	42	0	1371537408	46	6210
2026-01-21 00:24:44.60	325.37	74.88	-36.4	-37.2	25.0	0.00e+00	122	42	0	1374683136	46	5724
2026-01-21 00:24:45.61	325.80	74.41	-36.1	-36.9	25.2	0.00e+00	122	42	0	1377828864	46	5529
2026-01-21 00:24:46.62	326.21	73.93	-36.0	-36.8	25.4	0.00e+00	123	42	0	1380974592	46	5425
2026-01-21 00:24:47.63	326.59	73.46	-36.7	-37.6	24.8	0.00e+00	123	42	0	1384120320	46	5965
2026-01-21 00:24:48.64	326.95	72.99	-36.7	-37.6	24.8	0.00e+00	123	42	0	1387266048	46	5979
2026-01-21 00:24:49.65	327.29	72.52	-36.4	-37.3	25.0	0.00e+00	123	42	0	1390411776	46	5743
2026-01-21 00:24:50.66	327.61	72.05	-36.5	-37.4	25.1	0.00e+00	122	42	0	1393557504	46	5828
2026-01-21 00:24:51.67	327.91	71.58	-35.8	-36.6	25.2	0.00e+00	123	42	0	1396703232	44	5988
2026-01-21 00:24:52.68	328.20	71.11	-35.1	-36.0	25.7	0.00e+00	120	42	0	1399848960	44	5545
2026-01-21 00:24:53.69	328.48	70.65	-35.6	-36.5	25.7	0.00e+00	122	42	0	1402994688	44	5861
2026-01-21 00:24:54.70	328.74	70.19	-35.9	-36.8	25.2	0.00e+00	123	42	0	1406140416	44	6068
2026-01-21 00:24:55.71	328.99	69.73	-37.2	-38.1	24.5	0.00e+00	122	42	0	1409286144	46	6324
2026-01-21 00:24:56.72	329.22	69.27	-37.8	-38.8	24.0	0.00e+00	120	42	0	1412431872	48	6074
2026-01-21 00:24:57.73	329.45	68.81	-37.3	-38.3	24.2	0.00e+00	123	42	0	1415577600	48	5727
2026-01-21 00:24:58.74	329.67	68.35	-36.3	-37.2	25.0	0.00e+00	122	42	0	1418723328	46	5698
2026-01-21 00:24:59.75	329.87	67.90	-36.0	-36.8	25.3	0.00e+00	122	42	0	1421869056	46	5451
2026-01-21 00:25:00.76	330.07	67.45	-35.4	-36.2	25.3	0.00e+00	123	42	0	1425014784	44	5707
2026-01-21 00:25:01.77	330.26	67.00	-35.8	-36.7	25.0	0.00e+00	122	42	0	1428160512	44	6010
2026-01-21 00:25:02.78	330.44	66.56	-36.9	-37.9	24.1	0.00e+00	123	42	0	1431306240	46	6137
2026-01-21 00:25:03.79	330.61	66.11	-37.8	-38.7	24.0	0.00e+00	123	42	0	1434451968	46	6784
2026-01-21 00:25:04.80	330.78	65.67	-37.1	-37.9	24.8	0.00e+00	123	42	0	1437597696	48	5521
2026-01-21 00:25:05.81	330.94	65.23	-35.7	-36.6	25.4	0.00e+00	122	42	0	1440743424	46	5305
2026-01-21 00:25:06.82	331.10	64.79	-35.7	-36.5	25.4	0.00e+00	123	42	0	1443889152	44	5920
2026-01-21 00:25:07.83	331.25	64.36	-35.5	-36.3	25.6	0.00e+00	123	42	0	1447034880	44	5774
2026-01-21 00:25:08.84	331.39	63.93	-34.9	-35.7	26.0	0.00e+00	122	42	0	1450180608	44	5387
2026-01-21 00:25:09.85	331.53	63.50	-35.4	-36.2	25.5	0.00e+00	123	42	0	1453326336	44	5702
2026-01-21 00:25:10.86	331.66	63.07	-36.9	-37.8	24.5	0.00e+00	122	42	0	1456472064	44	6866
2026-01-21 00:25:11.87	331.79	62.64	-37.7	-38.6	24.0	0.00e+00	122	42	0	1459617792	48	5993
2026-01-21 00:25:12.88	331.92	62.22	-37.9	-38.9	24.0	0.00e+00	123	42	0	1462763520	48	6156
2026-01-21 00:25:13.89	332.04	61.80	-37.2	-38.2	24.4	0.00e+00	123	42	0	1465909248	48	5661
2026-01-21 00:25:14.90	332.16	61.38	-36.4	-37.3	24.9	0.00e+00	122	42	0	1469054976	46	5749
2026-01-21 00:25:15.91	332.27	60.97	-35.9	-36.7	25.5	0.00e+00	123	42	0	1472200704	46	5385
2026-01-21 00:25:16.92	332.38	60.56	-35.5	-36.3	25.5	0.00e+00	123	42	0	1475346432	44	5783
2026-01-21 00:25:17.93	332.49	60.15	-36.2	-37.1	25.0	0.00e+00	120	42	0	1478492160	44	6315
2026-01-21 00:25:18.94	332.59	59.74	-36.8	-37.7	24.5	0.00e+00	123	42	0	1481637888	44	6751
2026-01-21 00:25:19.95	332.69	59.33	-36.8	-37.7	24.6	0.00e+00	120	42	0	1484783616	46	6049
2026-01-21 00:25:20.97	332.79	58.93	-36.9	-37.8	24.5	0.00e+00	123	42	0	1487929344	46	6099
2026-01-21 00:25:21.98	332.88	58.53	-37.5	-38.4	24.3	0.00e+00	120	42	0	1491075072	46	6539
2026-01-21 00:25:22.99	332.97	58.13	-37.5	-38.4	24.1	0.00e+00	122	42	0	1494220800	46	6535
2026-01-21 00:25:24.00	333.06	57.74	-36.8	-37.7	24.7	0.00e+00	123	42	0	1497366528	46	6049
2026-01-21 00:25:25.01	333.15	57.34	-36.3	-37.2	25.1	0.00e+00	123	42	0	1500512256	46	5685
2026-01-21 00:25:26.02	333.23	56.96	-36.8	-37.7	24.6	0.00e+00	122	42	0	1503657984	46	6028
2026-01-21 00:25:27.03	333.32	56.57	-37.6	-38.5	24.1	0.00e+00	121	42	0	1506803712	46	6597
2026-01-21 00:25:28.03	333.40	56.19	-38.3	-39.2	23.6	0.00e+00	120	42	0	1509949440	48	6405
2026-01-21 00:25:29.05	333.47	55.80	-39.1	-40.2	23.0	0.00e+00	123	42	0	1513095168	50	6356
2026-01-21 00:25:30.06	333.55	55.43	-38.8	-39.8	23.1	0.00e+00	123	42	0	1516240896	50	6096
2026-01-21 00:25:31.07	333.62	55.05	-38.7	-39.7	23.1	0.00e+00	123	42	0	1519386624	50	6046
2026-01-21 00:25:32.08	333.70	54.68	-38.4	-39.4	23.2	0.00e+00	120	42	0	1522532352	50	5813
2026-01-21 00:25:33.09	333.77	54.30	-38.5	-39.4	23.3	0.00e+00	123	42	0	1525678080	50	5825
2026-01-21 00:25:34.10	333.84	53.94	-37.9	-38.8	23.6	0.00e+00	122	42	0	1528823808	50	5436
2026-01-21 00:25:35.11	333.90	53.57	-37.9	-38.9	23.5	0.00e+00	122	42	0	1531969536	50	5485
2026-01-21 00:25:36.12	333.97	53.21	-37.5	-38.4	23.9	0.00e+00	122	42	0	1535115264	48	5854
2026-01-21 00:25:37.13	334.03	52.85	-37.6	-38.5	24.1	0.00e+00	123	42	0	1539309568	48	5892
2026-01-21 00:25:38.14	334.09	52.49	-37.8	-38.7	24.0	0.00e+00	123	42	0	1542455296	48	6024
2026-01-21 00:25:39.15	334.16	52.13	-38.4	-39.4	23.4	0.00e+00	120	42	0	1545601024	48	6505
2026-01-21 00:25:40.16	334.22	51.78	-38.8	-39.8	23.0	0.00e+00	122	42	0	1547698176	50	6065
2026-01-21 00:25:41.17	334.27	51.43	-39.2	-40.2	22.7	0.00e+00	123	42	0	1551892480	50	6384
2026-01-21 00:25:42.18	334.33	51.08	-39.3	-40.3	22.5	0.00e+00	123	42	0	1555038208	50	6468
2026-01-21 00:25:43.19	334.39	50.74	-39.2	-40.2	22.2	0.00e+00	120	42	0	1558183936	50	6421
2026-01-21 00:25:44.20	334.44	50.40	-39.5	-40.6	22.0	0.00e+00	122	42	0	1561329664	50	6691
2026-01-21 00:25:45.21	334.50	50.06	-40.0	-41.2	21.6	0.00e+00	122	42	0	1564475392	52	6356
2026-01-21 00:25:46.22	334.55	49.72	-40.2	-41.3	21.8	0.00e+00	120	42	0	1567621120	52	6449
2026-01-21 00:25:47.23	334.60	49.38	-40.3	-41.4	22.0	0.00e+00	122	42	0	1570766848	52	6549
2026-01-21 00:25:48.24	334.65	49.05	-39.8	-40.8	22.3	0.00e+00	122	42	0	1573912576	52	6088
2026-01-21 00:25:49.25	334.70	48.72	-39.5	-40.5	22.6	0.00e+00	123	42	0	1577058304	52	5895
2026-01-21 00:25:50.26	334.75	48.39	-39.2	-40.2	22.7	0.00e+00	123	42	0	1580204032	52	5684
2026-01-21 00:25:51.27	334.80	48.07	-39.1	-40.1	22.9	0.00e+00	120	42	0	1583349760	52	5595
2026-01-21 00:25:52.28	334.84	47.75	-39.5	-40.5	22.4	0.00e+00	122	42	0	1586495488	52	5881
2026-01-21 00:25:53.29	334.89	47.43	-40.3	-41.4	21.9	0.00e+00	121	42	0	1589641216	52	6510
2026-01-21 00:25:54.30	334.93	47.11	-41.1	-42.3	20.9	0.00e+00	122	42	0	1592786944	54	6477
2026-01-21 00:25:55.30	334.98	46.80	-41.5	-42.7	20.7	0.00e+00	122	42	0	1595932672	56	6054
2026-01-21 00:25:56.31	335.02	46.48	-41.7	-43.0	20.5	0.00e+00	123	42	0	1599078400	56	6212
2026-01-21 00:25:57.32	335.06	46.17	-41.4	-42.6	20.9	0.00e+00	123	42	0	1602224128	56	5964
2026-01-21 00:25:58.33	335.11	45.86	-40.9	-42.0	21.4	0.00e+00	120	42	0	1605369856	54	6246
2026-01-21 00:25:59.34	335.15	45.56	-40.0	-41.1	21.9	0.00e+00	122	42	0	1608515584	54	5616
2026-01-21 00:26:00.35	335.19	45.25	-39.9	-41.0	21.9	0.00e+00	122	42	0	1611661312	52	6215
2026-01-21 00:26:01.36	335.23	44.95	-40.3	-41.5	21.5	0.00e+00	122	42	0	1614807040	52	6588
2026-01-21 00:26:02.37	335.27	44.65	-41.2	-42.4	20.8	0.00e+00	123	42	0	1617952768	54	6507
2026-01-21 00:26:03.38	335.31	44.35	-41.6	-42.9	20.3	0.00e+00	123	42	0	1621098496	54	6943
2026-01-21 00:26:04.39	335.34	44.06	-41.9	-43.3	20.1	0.00e+00	123	42	0	1624244224	56	6451
2026-01-21 00:26:05.40	335.38	43.77	-42.0	-43.4	20.1	0.00e+00	123	42	0	1627389952	56	6534
2026-01-21 00:26:06.41	335.42	43.48	-41.7	-42.9	20.4	0.00e+00	122	42	0	1630535680	56	6205
2026-01-21 00:26:07.42	335.45	43.19	-41.3	-42.5	20.8	0.00e+00	122	42	0	1633681408	56	5896
2026-01-21 00:26:08.43	335.49	42.90	-40.3	-41.4	21.8	0.00e+00	120	42	0	1636827136	54	5793
2026-01-21 00:26:09.44	335.52	42.62	-39.8	-40.8	22.3	0.00e+00	122	42	0	1639972864	54	5447
2026-01-21 00:26:10.45	335.56	42.34	-39.5	-40.5	22.6	0.00e+00	122	42	0	1643118592	52	5878
2026-01-21 00:26:11.46	335.59	42.06	-39.4	-40.4	22.5	0.00e+00	120	42	0	1646264320	52	5842
2026-01-21 00:26:12.47	335.62	41.78	-39.8	-40.8	22.2	0.00e+00	123	42	0	1649410048	52	6116
2026-01-21 00:26:13.47	335.66	41.51	-40.3	-41.3	21.7	0.00e+00	123	42	0	1652555776	52	6476
2026-01-21 00:26:14.49	335.69	41.23	-40.3	-41.4	21.5	0.00e+00	123	42	0	1655701504	52	6542
2026-01-21 00:26:15.49	335.72	40.96	-40.5	-41.6	21.4	0.00e+00	120	42	0	1658847232	54	5974
2026-01-21 00:26:16.51	335.75	40.69	-40.6	-41.6	21.6	0.00e+00	123	42	0	1661992960	54	5976
2026-01-21 00:26:17.52	335.78	40.42	-40.3	-41.4	21.8	0.00e+00	122	42	0	1665138688	54	5804
2026-01-21 00:26:18.53	335.81	40.16	-40.2	-41.3	21.9	0.00e+00	122	42	0	1668284416	54	5726
2026-01-21 00:26:19.54	335.84	39.89	-39.9	-40.9	22.2	0.00e+00	123	42	0	1671430144	54	5510
2026-01-21 00:26:20.55	335.87	39.63	-39.5	-40.5	22.5	0.00e+00	123	42	0	1674575872	52	5906
2026-01-21 00:26:21.56	335.90	39.37	-39.6	-40.6	22.3	0.00e+00	122	42	0	1677721600	52	5971
2026-01-21 00:26:22.57	335.93	39.11	-39.9	-40.9	21.9	0.00e+00	123	42	0	1680867328	52	6195
2026-01-21 00:26:23.58	335.96	38.86	-40.0	-41.0	21.9	0.00e+00	122	42	0	1684013056	52	6263
2026-01-21 00:26:24.59	335.99	38.60	-39.8	-40.9	22.1	0.00e+00	120	42	0	1687158784	52	6141
2026-01-21 00:26:25.60	336.02	38.35	-39.6	-40.6	22.3	0.00e+00	123	42	0	1690304512	52	5993
2026-01-21 00:26:26.61	336.04	38.10	-39.3	-40.3	22.7	0.00e+00	123	42	0	1693450240	52	5756
2026-01-21 00:26:27.62	336.07	37.85	-39.4	-40.4	22.7	0.00e+00	123	42	0	1696595968	52	5847
2026-01-21 00:26:28.63	336.10	37.61	-38.9	-39.9	22.9	0.00e+00	123	42	0	1699741696	52	5474
2026-01-21 00:26:29.64	336.12	37.36	-38.4	-39.4	23.0	0.00e+00	120	42	0	1702887424	50	5820
2026-01-21 00:26:30.65	336.15	37.12	-38.4	-39.4	23.0	0.00e+00	122	42	0	1706033152	50	5822
2026-01-21 00:26:31.66	336.18	36.88	-38.0	-38.9	23.3	0.00e+00	120	42	0	1709178880	50	5507
2026-01-21 00:26:32.67	336.20	36.64	-38.3	-39.2	23.2	0.00e+00	122	42	0	1712324608	50	5725
2026-01-21 00:26:33.68	336.23	36.40	-38.2	-39.1	23.3	0.00e+00	120	42	0	1715470336	50	5648
2026-01-21 00:26:34.70	336.25	36.16	-38.1	-39.1	23.3	0.00e+00	122	42	0	1718616064	50	5605
2026-01-21 00:26:35.71	336.28	35.93	-38.4	-39.3	23.3	0.00e+00	123	42	0	1721761792	50	5779
2026-01-21 00:26:36.72	336.30	35.70	-38.5	-39.4	23.2	0.00e+00	122	42	0	1724907520	50	5836
2026-01-21 00:26:37.73	336.32	35.47	-38.5	-39.5	23.2	0.00e+00	123	42	0	1728053248	50	5874
2026-01-21 00:26:38.74	336.35	35.24	-38.6	-39.6	23.1	0.00e+00	123	42	0	1731198976	50	5932
2026-01-21 00:26:39.75	336.37	35.01	-38.5	-39.5	23.2	0.00e+00	123	42	0	1734344704	50	5896
2026-01-21 00:26:40.76	336.39	34.79	-38.5	-39.5	23.1	0.00e+00	120	42	0	1737490432	50	5900
2026-01-21 00:26:41.77	336.42	34.56	-38.7	-39.6	23.0	0.00e+00	122	42	0	1740636160	50	5976
2026-01-21 00:26:42.78	336.44	34.34	-38.8	-39.8	22.9	0.00e+00	122	42	0	1743781888	50	6100
2026-01-21 00:26:43.79	336.46	34.12	-39.0	-40.0	22.9	0.00e+00	123	42	0	1746927616	50	6248
2026-01-21 00:26:44.80	336.48	33.90	-38.9	-39.9	23.0	0.00e+00	123	42	0	1750073344	50	6157
2026-01-21 00:26:45.81	336.51	33.68	-39.0	-39.9	22.9	0.00e+00	123	42	0	1753219072	50	6202
2026-01-21 00:26:46.82	336.53	33.46	-38.6	-39.6	23.1	0.00e+00	120	42	0	1756364800	50	5933
2026-01-21 00:26:47.83	336.55	33.25	-38.6	-39.6	23.2	0.00e+00	123	42	0	1759510528	50	5928
2026-01-21 00:26:48.84	336.57	33.04	-38.2	-39.2	23.5	0.00e+00	120	42	0	1762656256	50	5666
2026-01-21 00:26:49.85	336.59	32.82	-38.0	-38.9	23.7	0.00e+00	122	42	0	1765801984	50	5514
2026-01-21 00:26:50.86	336.61	32.61	-37.8	-38.7	23.8	0.00e+00	122	42	0	1768947712	50	5378
2026-01-21 00:26:51.87	336.63	32.41	-37.7	-38.6	23.8	0.00e+00	123	42	0	1772093440	50	5340
2026-01-21 00:26:52.89	336.65	32.20	-37.9	-38.8	23.8	0.00e+00	120	42	0	1775239168	48	6089
2026-01-21 00:26:53.89	336.67	31.99	-37.7	-38.6	23.8	0.00e+00	123	42	0	1778384896	48	5966
2026-01-21 00:26:54.90	336.69	31.79	-37.6	-38.5	23.9	0.00e+00	123	42	0	1781530624	48	5899
2026-01-21 00:26:55.92	336.71	31.58	-37.6	-38.5	23.9	0.00e+00	120	42	0	1784676352	48	5916
2026-01-21 00:26:56.93	336.73	31.38	-37.7	-38.6	23.9	0.00e+00	122	42	0	1787822080	48	5988
2026-01-21 00:26:57.94	336.75	31.18	-37.6	-38.5	24.0	0.00e+00	122	42	0	1790967808	48	5872
2026-01-21 00:26:58.95	336.77	30.98	-37.5	-38.4	24.0	0.00e+00	123	42	0	1794113536	48	5858
2026-01-21 00:26:59.96	336.79	30.78	-37.8	-38.7	23.9	0.00e+00	123	42	0	1797259264	48	6014
2026-01-21 00:27:00.97	336.81	30.59	-37.9	-38.8	23.7	0.00e+00	122	42	0	1800404992	48	6129
2026-01-21 00:27:01.98	336.83	30.39	-38.3	-39.3	23.3	0.00e+00	123	42	0	1803550720	48	6454
2026-01-21 00:27:02.99	336.84	30.20	-38.0	-39.0	23.5	0.00e+00	122	42	0	1806696448	48	6214
2026-01-21 00:27:04.00	336.86	30.01	-38.3	-39.2	23.6	0.00e+00	123	42	0	1809842176	48	6417
2026-01-21 00:27:05.01	336.88	29.82	-38.3	-39.3	23.5	0.00e+00	122	42	0	1812987904	48	6442
2026-01-21 00:27:06.02	336.90	29.63	-38.3	-39.2	23.4	0.00e+00	122	42	0	1816133632	48	6413
2026-01-21 00:27:07.03	336.92	29.44	-38.3	-39.3	23.4	0.00e+00	123	42	0	1819279360	48	6476
2026-01-21 00:27:08.02	336.93	29.25	-38.5	-39.5	23.4	0.00e+00	123	42	0	1822425088	48	6597
2026-01-21 00:27:09.01	336.95	29.07	-38.5	-39.5	23.1	0.00e+00	123	42	0	1825570816	48	6575
2026-01-21 00:27:10.02	336.97	28.89	-38.2	-39.2	23.3	0.00e+00	123	42	0	1828716544	48	6378
2026-01-21 00:27:11.03	336.99	28.70	-38.6	-39.6	23.2	0.00e+00	123	42	0	1831862272	48	6717
2026-01-21 00:27:12.04	337.00	28.52	-38.3	-39.3	23.0	0.00e+00	122	42	0	1835008000	48	6446
2026-01-21 00:27:13.05	337.02	28.34	-38.3	-39.3	22.9	0.00e+00	122	42	0	1838153728	48	6492
2026-01-21 00:27:14.06	337.04	28.16	-38.3	-39.3	22.9	0.00e+00	123	42	0	1841299456	48	6462
2026-01-21 00:27:15.07	337.05	27.98	-38.4	-39.4	22.9	0.00e+00	123	42	0	1844445184	48	6550
2026-01-21 00:27:16.08	337.07	27.80	-38.3	-39.3	23.0	0.00e+00	123	42	0	1847590912	48	6451
2026-01-21 00:27:17.09	337.09	27.63	-38.3	-39.3	23.0	0.00e+00	123	42	0	1850736640	48	6469
2026-01-21 00:27:18.10	337.10	27.45	-38.1	-39.1	23.1	0.00e+00	121	42	0	1853882368	48	6312
2026-01-21 00:27:19.11	337.12	27.28	-38.0	-39.0	23.3	0.00e+00	120	42	0	1857028096	48	6248
2026-01-21 00:27:20.12	337.13	27.10	-37.9	-38.8	23.4	0.00e+00	122	42	0	1860173824	48	6122
2026-01-21 00:27:21.13	337.15	26.93	-37.9	-38.8	23.4	0.00e+00	123	42	0	1863319552	48	6131
2026-01-21 00:27:22.14	337.16	26.76	-37.7	-38.6	23.6	0.00e+00	123	42	0	1866465280	48	5967
2026-01-21 00:27:23.15	337.18	26.59	-37.6	-38.6	23.5	0.00e+00	123	42	0	1869611008	48	5944
2026-01-21 00:27:24.16	337.20	26.42	-37.5	-38.5	23.7	0.00e+00	122	42	0	1872756736	48	5872
2026-01-21 00:27:25.17	337.21	26.25	-37.4	-38.3	23.9	0.00e+00	123	42	0	1876951040	48	5785
2026-01-21 00:27:26.18	337.23	26.09	-37.1	-38.0	24.0	0.00e+00	123	42	0	1880096768	48	5577
2026-01-21 00:27:27.19	337.24	25.92	-37.2	-38.1	24.1	0.00e+00	123	42	0	1883242496	48	5616
2026-01-21 00:27:28.20	337.26	25.76	-37.1	-38.1	24.1	0.00e+00	123	42	0	1885339648	48	5595
2026-01-21 00:27:29.21	337.27	25.59	-37.2	-38.1	24.1	0.00e+00	122	42	0	1888485376	48	5658
2026-01-21 00:27:30.22	337.29	25.43	-37.1	-38.0	24.3	0.00e+00	123	42	0	1892679680	48	5552
2026-01-21 00:27:31.23	337.30	25.27	-37.2	-38.2	24.3	0.00e+00	122	42	0	1895825408	48	5661
2026-01-21 00:27:32.24	337.31	25.11	-37.1	-38.0	24.3	0.00e+00	123	42	0	1898971136	48	5558
2026-01-21 00:27:33.25	337.33	24.95	-37.0	-38.0	24.2	0.00e+00	122	42	0	1902116864	48	5540
2026-01-21 00:27:34.27	337.34	24.79	-36.9	-37.8	24.3	0.00e+00	123	42	0	1905262592	48	5421
2026-01-21 00:27:35.28	337.36	24.63	-36.8	-37.7	24.3	0.00e+00	122	42	0	1908408320	48	5402
2026-01-21 00:27:36.28	337.37	24.47	-37.0	-37.9	24.3	0.00e+00	120	42	0	1911554048	48	5500
2026-01-21 00:27:37.30	337.39	24.32	-37.0	-37.9	24.3	0.00e+00	123	42	0	1914699776	48	5524
2026-01-21 00:27:38.30	337.40	24.16	-37.3	-38.2	24.2	0.00e+00	122	42	0	1917845504	48	5705
2026-01-21 00:27:39.32	337.41	24.01	-37.0	-37.9	24.3	0.00e+00	123	42	0	1920991232	48	5490
2026-01-21 00:27:40.33	337.43	23.85	-37.1	-38.0	24.2	0.00e+00	120	42	0	1924136960	48	5572
2026-01-21 00:27:41.34	337.44	23.70	-37.1	-38.0	24.2	0.00e+00	122	42	0	1927282688	48	5539
2026-01-21 00:27:42.35	337.45	23.55	-37.0	-37.9	24.2	0.00e+00	123	42	0	1930428416	48	5516
2026-01-21 00:27:43.36	337.47	23.40	-36.9	-37.8	24.3	0.00e+00	123	42	0	1933574144	48	5454
2026-01-21 00:27:44.37	337.48	23.25	-36.9	-37.8	24.3	0.00e+00	123	42	0	1936719872	48	5452
2026-01-21 00:27:45.38	337.49	23.10	-36.9	-37.8	24.4	0.00e+00	122	42	0	1939865600	48	5408
2026-01-21 00:27:46.39	337.51	22.95	-36.7	-37.6	24.4	0.00e+00	120	42	0	1943011328	48	5319
2026-01-21 00:27:47.40	337.52	22.81	-36.7	-37.6	24.5	0.00e+00	122	42	0	1946157056	46	5948
2026-01-21 00:27:48.41	337.53	22.66	-36.8	-37.7	24.5	0.00e+00	122	42	0	1949302784	46	6002
2026-01-21 00:27:49.42	337.55	22.51	-37.0	-37.8	24.4	0.00e+00	122	42	0	1952448512	46	6134
