passes_logs/2026/01/21/R4.6S_Anadyr/R4.6S_Anadyr__20260121_191806_AQUA_rec.log

#Pass ID: 20260121_191806_AQUA
#Satellite: AQUA
#Configuration: AQUA
#almurnet v.1.7.20251203
#Start time: 2026-01-21 19:18:07

#Version: 2.2.20231116
#Station: R4.6S_Anadyr
#Location: 177.4865 lon 64.73178 lat
#TLE: 1 27424U 02022A   26020.90316333  .00002787  00000+0  56766-3 0  9999
#TLE: 2 27424  98.4095 347.4297 0002000  71.6339 309.8236 14.61840001261750

#Time	Az	El	Level	Level2	SNR	BER	BlckErr	Temp	State	Recorded	gain1	gain2
2026-01-21 19:18:07.71	29.14	0.07	-51.3	-63.0	3.5	8.45e-01	0	38	0	0	60	51208
2026-01-21 19:18:08.71	29.06	0.12	-52.0	-70.0	3.5	3.02e+01	0	39	104	0	60	121303
2026-01-21 19:18:09.72	28.99	0.17	-52.1	-70.0	3.5	3.02e+01	0	39	104	0	60	121518
2026-01-21 19:18:10.73	28.91	0.22	-52.0	-69.8	3.5	3.02e+01	0	39	104	0	60	119211
2026-01-21 19:18:11.74	28.83	0.28	-51.8	-69.7	3.5	3.02e+01	0	39	104	0	60	117083
2026-01-21 19:18:12.75	28.76	0.33	-51.8	-69.8	3.5	3.02e+01	0	39	104	0	60	119181
2026-01-21 19:18:13.76	28.68	0.38	-51.8	-69.7	3.5	3.02e+01	0	39	104	0	60	117270
2026-01-21 19:18:14.78	28.60	0.44	-51.8	-69.7	3.5	3.02e+01	0	40	104	0	60	116893
2026-01-21 19:18:15.79	28.52	0.49	-51.8	-69.6	3.5	3.02e+01	0	40	104	0	60	116126
2026-01-21 19:18:16.80	28.44	0.54	-51.7	-69.6	3.5	3.02e+01	0	40	104	0	60	115756
2026-01-21 19:18:17.81	28.36	0.60	-51.6	-69.5	3.5	3.02e+01	0	40	104	0	60	114858
2026-01-21 19:18:18.82	28.28	0.65	-51.6	-69.5	3.5	3.02e+01	0	40	104	0	60	115052
2026-01-21 19:18:19.82	28.20	0.70	-51.6	-69.5	3.5	3.02e+01	0	40	104	0	60	114329
2026-01-21 19:18:20.84	28.12	0.76	-51.5	-69.4	3.5	3.02e+01	0	40	104	0	60	114014
2026-01-21 19:18:21.85	28.04	0.81	-51.5	-69.3	3.5	3.02e+01	0	40	104	0	60	112661
2026-01-21 19:18:22.86	27.96	0.86	-51.4	-69.3	3.5	3.02e+01	0	40	104	0	60	112110
2026-01-21 19:18:23.87	27.88	0.92	-51.4	-69.2	3.5	3.02e+01	0	40	104	0	60	111561
2026-01-21 19:18:24.88	27.80	0.97	-51.3	-69.1	3.5	3.02e+01	0	40	104	0	60	109888
2026-01-21 19:18:25.88	27.72	1.02	-51.1	-69.0	3.5	3.02e+01	0	40	104	0	60	108871
2026-01-21 19:18:26.89	27.63	1.08	-51.0	-69.0	3.5	3.02e+01	0	40	104	0	60	108181
2026-01-21 19:18:27.90	27.55	1.13	-50.6	-68.8	3.5	3.02e+01	0	40	104	0	60	106330
2026-01-21 19:18:28.91	27.47	1.18	-50.9	-68.7	3.5	3.02e+01	0	40	104	0	60	105281
2026-01-21 19:18:29.92	27.39	1.24	-50.7	-68.5	3.5	3.02e+01	0	40	104	0	60	102975
2026-01-21 19:18:30.93	27.30	1.29	-50.3	-68.2	3.5	3.02e+01	0	40	104	0	60	99287
2026-01-21 19:18:31.94	27.22	1.35	-50.1	-68.0	3.5	3.02e+01	0	40	104	0	60	96410
2026-01-21 19:18:32.95	27.13	1.40	-49.8	-67.7	3.5	3.02e+01	0	40	104	0	60	93699
2026-01-21 19:18:33.96	27.05	1.45	-49.8	-67.7	3.5	3.02e+01	0	40	104	0	60	93625
2026-01-21 19:18:34.97	26.96	1.51	-49.8	-67.7	3.5	3.02e+01	0	40	104	0	60	93514
2026-01-21 19:18:35.98	26.88	1.56	-49.8	-67.8	3.5	3.02e+01	0	40	104	0	60	93992
2026-01-21 19:18:36.98	26.79	1.62	-49.8	-67.8	3.5	3.02e+01	0	40	104	0	60	93990
2026-01-21 19:18:38.00	26.71	1.67	-49.8	-67.8	3.5	3.02e+01	0	40	104	0	60	93966
2026-01-21 19:18:39.00	26.62	1.72	-49.8	-67.8	3.5	3.02e+01	0	40	104	0	60	94110
2026-01-21 19:18:40.01	26.53	1.78	-49.8	-67.7	3.5	3.02e+01	0	40	104	0	60	93802
2026-01-21 19:18:41.02	26.45	1.83	-49.8	-67.7	3.5	3.02e+01	0	40	104	0	60	93775
2026-01-21 19:18:42.03	26.36	1.89	-49.8	-67.7	3.5	3.02e+01	0	40	104	0	60	93178
2026-01-21 19:18:43.04	26.27	1.94	-49.8	-67.7	3.5	3.02e+01	0	40	104	0	60	93175
2026-01-21 19:18:44.05	26.18	2.00	-49.8	-67.6	3.5	3.02e+01	0	40	104	0	60	92661
2026-01-21 19:18:45.06	26.09	2.05	-49.8	-67.7	3.5	3.02e+01	0	40	104	0	60	93379
2026-01-21 19:18:46.07	26.01	2.11	-49.8	-67.7	3.5	3.02e+01	0	40	104	0	60	93544
2026-01-21 19:18:47.08	25.92	2.16	-49.8	-67.8	3.5	3.02e+01	0	40	104	0	60	93931
2026-01-21 19:18:48.09	25.83	2.22	-49.8	-67.7	3.5	3.02e+01	0	40	104	0	60	93086
2026-01-21 19:18:49.10	25.74	2.27	-49.8	-67.6	3.5	3.02e+01	0	40	104	0	60	92589
2026-01-21 19:18:50.11	25.65	2.33	-49.8	-67.5	3.5	3.02e+01	0	40	104	0	60	91075
2026-01-21 19:18:51.12	25.55	2.38	-49.7	-67.4	3.5	3.02e+01	0	40	104	0	60	90179
2026-01-21 19:18:52.13	25.46	2.44	-49.7	-67.5	3.5	3.02e+01	0	40	104	0	60	90999
2026-01-21 19:18:53.14	25.37	2.49	-49.8	-67.6	3.5	3.02e+01	0	40	104	0	60	92584
2026-01-21 19:18:54.15	25.28	2.55	-49.8	-67.7	3.5	3.02e+01	0	40	104	0	60	93371
2026-01-21 19:18:55.16	25.19	2.60	-49.8	-67.7	3.5	3.02e+01	0	40	104	0	60	93073
2026-01-21 19:18:56.17	25.09	2.66	-49.7	-67.6	3.5	3.02e+01	0	40	104	0	60	92146
2026-01-21 19:18:57.18	25.00	2.71	-49.7	-67.5	3.5	3.02e+01	0	40	104	0	60	91147
2026-01-21 19:18:58.19	24.91	2.77	-49.8	-67.6	3.5	3.02e+01	0	40	104	0	60	92412
2026-01-21 19:18:59.20	24.81	2.82	-49.8	-67.6	3.5	3.02e+01	0	40	104	0	60	92267
2026-01-21 19:19:00.21	24.72	2.88	-49.7	-67.3	3.5	3.02e+01	0	40	104	0	60	89325
2026-01-21 19:19:01.22	24.62	2.93	-49.7	-66.9	3.5	3.02e+01	0	40	104	0	60	85659
2026-01-21 19:19:02.23	24.53	2.99	-49.6	-66.9	3.5	3.02e+01	0	40	104	0	60	85085
2026-01-21 19:19:03.24	24.43	3.05	-49.7	-67.3	3.5	3.02e+01	0	40	104	0	60	89582
2026-01-21 19:19:04.25	24.34	3.10	-49.6	-66.9	3.5	3.02e+01	0	40	104	0	60	84763
2026-01-21 19:19:05.26	24.24	3.16	-49.4	-65.6	3.5	3.02e+01	0	40	104	0	60	73287
2026-01-21 19:19:06.27	24.14	3.21	-49.9	-67.5	3.5	3.02e+01	0	40	104	0	60	90871
2026-01-21 19:19:07.28	24.04	3.27	-49.7	-66.8	3.5	3.02e+01	0	40	104	0	60	84342
2026-01-21 19:19:08.29	23.95	3.32	-47.7	-60.9	3.5	3.02e+01	0	40	104	0	60	42631
2026-01-21 19:19:09.30	23.85	3.38	-41.3	-51.8	3.6	3.02e+01	0	40	104	0	56	18923
2026-01-21 19:19:10.31	23.75	3.44	-49.6	-67.5	3.5	3.02e+01	0	40	104	0	60	90745
2026-01-21 19:19:11.32	23.65	3.49	-40.7	-51.2	3.5	3.02e+01	0	40	104	0	56	17577
2026-01-21 19:19:12.33	23.55	3.55	-40.6	-51.1	3.5	3.02e+01	0	40	104	0	56	17290
2026-01-21 19:19:13.34	23.45	3.60	-40.5	-51.0	3.5	3.02e+01	0	40	104	0	56	17101
2026-01-21 19:19:14.35	23.35	3.66	-40.1	-50.5	3.5	3.02e+01	0	40	104	0	56	16258
2026-01-21 19:19:15.36	23.25	3.72	-49.8	-66.6	3.5	3.02e+01	0	40	104	0	60	82710
2026-01-21 19:19:16.37	23.15	3.77	-47.9	-61.0	3.5	3.02e+01	0	40	104	0	60	43268
2026-01-21 19:19:17.38	23.05	3.83	-50.0	-67.1	3.5	3.02e+01	0	40	104	0	60	87320
2026-01-21 19:19:18.39	22.94	3.89	-40.8	-51.3	3.5	3.02e+01	0	40	104	0	56	17742
2026-01-21 19:19:19.40	22.84	3.94	-49.9	-67.7	3.5	3.02e+01	0	40	104	0	60	93384
2026-01-21 19:19:20.41	22.74	4.00	-40.8	-51.3	3.5	3.02e+01	0	40	104	0	56	17697
2026-01-21 19:19:21.42	22.64	4.06	-40.9	-51.4	3.6	3.02e+01	0	40	104	0	56	17932
2026-01-21 19:19:22.43	22.53	4.11	-40.6	-51.1	3.6	3.02e+01	0	40	104	0	56	17328
2026-01-21 19:19:23.44	22.43	4.17	-40.9	-51.3	3.5	3.02e+01	0	40	104	0	56	17867
2026-01-21 19:19:24.45	22.32	4.23	-49.1	-63.7	3.5	3.02e+01	0	40	104	0	60	59077
2026-01-21 19:19:25.46	22.22	4.28	-46.7	-58.7	3.5	3.02e+01	0	40	104	0	60	33115
2026-01-21 19:19:26.47	22.11	4.34	-50.1	-67.2	3.5	3.02e+01	0	40	104	0	60	88385
2026-01-21 19:19:27.48	22.00	4.40	-40.9	-51.3	3.5	3.02e+01	0	40	104	0	58	15902
2026-01-21 19:19:28.49	21.90	4.45	-50.0	-67.6	3.5	3.02e+01	0	40	104	0	60	92111
2026-01-21 19:19:29.50	21.79	4.51	-42.0	-52.6	3.5	3.02e+01	0	40	104	0	58	18335
2026-01-21 19:19:30.52	21.68	4.57	-40.8	-51.2	3.5	3.02e+01	0	40	104	0	56	17685
2026-01-21 19:19:31.53	21.57	4.63	-40.6	-51.1	3.6	3.02e+01	0	40	104	0	56	17397
2026-01-21 19:19:32.54	21.46	4.68	-41.6	-52.1	3.5	3.02e+01	0	40	104	0	56	19612
2026-01-21 19:19:33.54	21.36	4.74	-50.0	-66.9	3.5	3.02e+01	0	40	104	0	60	84874
2026-01-21 19:19:34.55	21.25	4.80	-46.2	-57.8	3.5	3.02e+01	0	40	104	0	60	29982
2026-01-21 19:19:35.57	21.14	4.85	-50.1	-67.5	3.5	3.02e+01	0	40	104	0	60	90944
2026-01-21 19:19:36.58	21.03	4.91	-50.3	-67.9	3.5	3.02e+01	0	40	104	0	60	95595
2026-01-21 19:19:37.59	20.91	4.97	-42.1	-52.7	3.5	3.02e+01	0	40	104	0	60	16593
2026-01-21 19:19:38.60	20.80	5.03	-41.4	-51.9	3.5	3.02e+01	0	40	104	0	58	17033
2026-01-21 19:19:39.61	20.69	5.08	-41.3	-51.8	3.5	3.02e+01	0	40	104	0	56	18786
2026-01-21 19:19:40.62	20.58	5.14	-41.1	-51.6	3.5	3.02e+01	0	40	104	0	56	18358
2026-01-21 19:19:41.63	20.46	5.20	-40.6	-51.0	3.5	3.02e+01	0	40	104	0	56	17221
2026-01-21 19:19:42.64	20.35	5.26	-40.5	-50.9	3.5	3.02e+01	0	40	104	0	54	19001
2026-01-21 19:19:43.65	20.24	5.31	-47.0	-59.1	3.5	3.02e+01	0	40	104	0	60	34502
2026-01-21 19:19:44.66	20.12	5.37	-50.4	-68.0	3.5	3.02e+01	0	40	104	0	60	96249
2026-01-21 19:19:45.67	20.01	5.43	-41.1	-51.5	3.4	3.02e+01	0	40	104	0	56	18180
2026-01-21 19:19:46.68	19.89	5.49	-50.3	-68.0	3.5	3.02e+01	0	40	104	0	60	96534
2026-01-21 19:19:47.69	19.78	5.54	-41.4	-51.9	3.5	3.02e+01	0	40	104	0	58	16961
2026-01-21 19:19:48.70	19.66	5.60	-41.6	-52.2	3.5	3.02e+01	0	40	104	0	58	17550
2026-01-21 19:19:49.71	19.54	5.66	-41.0	-51.5	3.6	3.02e+01	0	40	104	0	58	16245
2026-01-21 19:19:50.72	19.42	5.72	-40.3	-50.8	3.5	3.02e+01	0	40	104	0	56	16789
2026-01-21 19:19:51.73	19.31	5.78	-42.1	-52.7	3.5	3.02e+01	0	40	104	0	60	16689
2026-01-21 19:19:52.73	19.19	5.83	-48.9	-62.7	3.5	3.02e+01	0	40	104	0	60	52283
2026-01-21 19:19:53.74	19.07	5.89	-48.7	-62.3	3.5	3.02e+01	0	41	104	0	60	50016
2026-01-21 19:19:54.75	18.95	5.95	-45.6	-57.0	3.5	3.02e+01	0	41	104	0	58	30684
2026-01-21 19:19:55.76	18.83	6.01	-49.3	-63.6	3.6	3.02e+01	0	41	104	0	60	58488
2026-01-21 19:19:56.77	18.71	6.06	-41.3	-51.8	3.5	3.02e+01	0	40	104	0	58	16847
2026-01-21 19:19:57.79	18.58	6.12	-41.1	-51.6	3.5	3.02e+01	0	40	104	0	58	16378
2026-01-21 19:19:58.79	18.46	6.18	-40.5	-50.9	3.5	3.02e+01	0	41	104	0	56	17067
2026-01-21 19:19:59.80	18.34	6.24	-44.4	-55.4	3.5	3.02e+01	0	41	104	0	56	28429
2026-01-21 19:20:00.81	18.22	6.30	-42.0	-52.5	3.5	3.02e+01	0	41	104	0	60	16314
2026-01-21 19:20:01.82	18.09	6.35	-49.4	-64.0	3.5	3.02e+01	0	40	104	0	60	61148
2026-01-21 19:20:02.83	17.97	6.41	-47.6	-60.0	3.6	3.02e+01	0	40	104	0	60	38328
2026-01-21 19:20:03.84	17.85	6.47	-47.5	-59.7	3.4	3.02e+01	0	40	104	0	60	37233
2026-01-21 19:20:04.85	17.72	6.53	-48.3	-61.3	3.6	3.02e+01	0	41	104	0	60	44657
2026-01-21 19:20:05.86	17.59	6.59	-40.7	-51.1	3.5	3.02e+01	0	41	104	0	56	17416
2026-01-21 19:20:06.87	17.47	6.65	-40.2	-50.6	3.5	3.02e+01	0	41	104	0	56	16327
2026-01-21 19:20:07.88	17.34	6.70	-40.1	-50.6	3.5	3.02e+01	0	41	104	0	56	16389
2026-01-21 19:20:08.89	17.21	6.76	-48.3	-61.2	3.5	3.02e+01	0	41	104	0	60	44126
2026-01-21 19:20:09.90	17.09	6.82	-42.3	-52.9	3.5	3.02e+01	0	41	104	0	60	16938
2026-01-21 19:20:10.92	16.96	6.88	-50.5	-68.1	3.5	3.02e+01	0	40	104	0	60	97483
2026-01-21 19:20:11.93	16.83	6.94	-44.0	-55.0	3.6	3.02e+01	0	41	104	0	60	21682
2026-01-21 19:20:12.93	16.70	7.00	-50.6	-68.3	3.5	3.02e+01	0	41	104	0	60	99750
2026-01-21 19:20:13.94	16.57	7.05	-45.8	-57.1	3.6	3.02e+01	0	41	104	0	60	27682
2026-01-21 19:20:14.95	16.44	7.11	-41.0	-51.5	3.5	3.02e+01	0	41	104	0	58	16175
2026-01-21 19:20:15.96	16.30	7.17	-40.5	-50.8	3.5	3.02e+01	0	41	104	0	56	16840
2026-01-21 19:20:16.97	16.17	7.23	-40.1	-50.4	3.5	3.02e+01	0	41	104	0	56	16079
2026-01-21 19:20:17.98	16.04	7.29	-47.3	-59.4	3.5	3.02e+01	0	41	104	0	60	35935
2026-01-21 19:20:18.99	15.91	7.35	-42.3	-52.8	3.5	3.02e+01	0	41	104	0	56	21235
2026-01-21 19:20:20.00	15.77	7.41	-50.5	-67.7	3.5	3.02e+01	0	41	104	0	60	93925
2026-01-21 19:20:21.01	15.64	7.46	-43.5	-54.3	3.5	3.02e+01	0	41	104	0	60	19902
2026-01-21 19:20:22.02	15.50	7.52	-50.6	-68.0	3.5	3.02e+01	0	41	104	0	60	96204
2026-01-21 19:20:23.03	15.37	7.58	-43.8	-54.6	3.6	3.02e+01	0	41	104	0	60	20743
2026-01-21 19:20:24.04	15.23	7.64	-41.7	-52.2	3.5	3.02e+01	0	41	104	0	58	17641
2026-01-21 19:20:25.05	15.09	7.70	-41.8	-52.4	3.5	3.02e+01	0	41	104	0	58	17957
2026-01-21 19:20:26.06	14.96	7.76	-40.6	-51.0	3.5	3.02e+01	0	41	104	0	56	17118
2026-01-21 19:20:27.07	14.82	7.81	-50.4	-66.7	3.5	3.02e+01	0	41	104	0	60	83040
2026-01-21 19:20:28.08	14.68	7.87	-47.5	-59.8	3.5	3.02e+01	0	41	104	0	60	37455
2026-01-21 19:20:29.09	14.54	7.93	-50.4	-67.3	3.5	3.02e+01	0	41	104	0	60	88855
2026-01-21 19:20:30.10	14.40	7.99	-50.6	-67.7	3.5	3.02e+01	0	41	104	0	60	93926
2026-01-21 19:20:31.11	14.26	8.05	-41.1	-51.6	3.5	3.02e+01	0	41	104	0	58	16468
2026-01-21 19:20:32.12	14.12	8.11	-41.0	-51.4	3.5	3.02e+01	0	41	104	0	56	17974
2026-01-21 19:20:33.13	13.97	8.17	-41.8	-52.2	3.5	3.02e+01	0	41	104	0	56	19810
2026-01-21 19:20:34.14	13.83	8.22	-40.7	-51.1	3.5	3.02e+01	0	41	104	0	56	17366
2026-01-21 19:20:35.15	13.69	8.28	-39.5	-49.8	3.6	3.02e+01	0	41	104	0	54	16738
2026-01-21 19:20:36.16	13.54	8.34	-39.1	-49.4	3.5	3.02e+01	0	41	104	0	52	18012
2026-01-21 19:20:37.17	13.40	8.40	-45.3	-56.4	3.5	3.02e+01	0	41	104	0	60	25505
2026-01-21 19:20:38.18	13.25	8.46	-50.6	-67.7	3.5	3.02e+01	0	41	104	0	60	93509
2026-01-21 19:20:39.19	13.11	8.52	-39.8	-50.1	3.5	3.02e+01	0	41	104	0	56	15586
2026-01-21 19:20:40.20	12.96	8.58	-50.7	-68.3	3.5	3.02e+01	0	41	104	0	60	100593
2026-01-21 19:20:41.21	12.81	8.63	-42.4	-53.0	3.6	3.02e+01	0	41	104	0	60	17211
2026-01-21 19:20:42.22	12.67	8.69	-40.9	-51.3	3.5	3.02e+01	0	41	104	0	58	15869
2026-01-21 19:20:43.23	12.52	8.75	-40.2	-50.6	3.5	3.02e+01	0	41	104	0	56	16436
2026-01-21 19:20:44.24	12.37	8.81	-40.3	-50.7	3.5	3.02e+01	0	41	104	0	56	16605
2026-01-21 19:20:45.25	12.22	8.87	-48.7	-61.9	3.5	3.02e+01	0	41	104	0	60	47896
2026-01-21 19:20:46.26	12.07	8.93	-46.5	-58.1	3.5	3.02e+01	0	41	104	0	60	30856
2026-01-21 19:20:47.27	11.92	8.98	-50.6	-67.5	3.5	3.02e+01	0	41	104	0	60	91519
2026-01-21 19:20:48.28	11.77	9.04	-40.2	-50.5	3.6	3.02e+01	0	41	104	0	56	16281
2026-01-21 19:20:49.29	11.61	9.10	-50.7	-68.4	3.5	3.02e+01	0	41	104	0	60	100940
2026-01-21 19:20:50.30	11.46	9.16	-39.8	-50.1	3.5	3.02e+01	0	41	104	0	56	15528
2026-01-21 19:20:51.31	11.31	9.22	-39.5	-49.8	3.5	3.02e+01	0	41	104	0	54	16785
2026-01-21 19:20:52.32	11.15	9.27	-39.6	-49.9	3.6	3.02e+01	0	41	104	0	54	17083
2026-01-21 19:20:53.33	11.00	9.33	-39.1	-49.3	3.6	3.02e+01	0	41	104	0	54	15949
2026-01-21 19:20:54.34	10.84	9.39	-50.1	-65.5	3.6	3.02e+01	0	41	104	0	60	72411
2026-01-21 19:20:55.35	10.68	9.45	-46.7	-58.3	3.5	3.02e+01	0	41	104	0	60	31596
2026-01-21 19:20:56.36	10.53	9.51	-50.5	-67.6	3.5	3.02e+01	0	41	104	0	60	92630
2026-01-21 19:20:57.37	10.37	9.56	-39.3	-49.6	3.6	3.02e+01	0	41	104	0	54	16470
2026-01-21 19:20:58.38	10.21	9.62	-50.7	-68.2	3.5	3.02e+01	0	41	104	0	60	98522
2026-01-21 19:20:59.39	10.05	9.68	-39.4	-49.7	3.5	3.02e+01	0	41	104	0	54	16676
2026-01-21 19:21:00.40	9.89	9.74	-39.4	-49.7	3.5	3.02e+01	0	41	104	0	54	16632
2026-01-21 19:21:01.41	9.73	9.80	-39.3	-49.6	3.5	3.02e+01	0	41	104	0	54	16400
2026-01-21 19:21:02.42	9.57	9.85	-39.0	-49.3	3.6	3.02e+01	0	41	104	0	52	17870
2026-01-21 19:21:03.43	9.41	9.91	-50.8	-68.1	3.5	3.02e+01	0	41	104	0	60	98302
2026-01-21 19:21:04.44	9.24	9.97	-44.1	-55.0	3.5	3.02e+01	0	41	104	0	60	21744
2026-01-21 19:21:05.45	9.08	10.03	-50.6	-68.0	3.5	3.02e+01	0	41	104	0	60	96117
2026-01-21 19:21:06.46	8.92	10.08	-50.8	-68.3	3.5	3.02e+01	0	41	104	0	60	100260
2026-01-21 19:21:07.47	8.75	10.14	-39.3	-49.6	3.5	3.02e+01	0	41	104	0	54	16338
2026-01-21 19:21:08.48	8.59	10.20	-39.3	-49.6	3.5	3.02e+01	0	41	104	0	54	16432
2026-01-21 19:21:09.49	8.42	10.25	-39.4	-49.6	3.5	3.02e+01	0	41	104	0	54	16507
2026-01-21 19:21:10.50	8.25	10.31	-39.0	-49.2	3.5	3.02e+01	0	41	104	0	54	15750
2026-01-21 19:21:11.51	8.08	10.37	-38.6	-48.9	3.6	3.02e+01	0	41	104	0	52	17018
2026-01-21 19:21:12.52	7.92	10.43	-39.6	-49.9	3.5	3.02e+01	0	41	104	0	52	19126
2026-01-21 19:21:13.53	7.75	10.48	-47.1	-58.8	3.5	3.02e+01	0	41	104	0	60	33609
2026-01-21 19:21:14.54	7.58	10.54	-50.9	-68.6	3.5	3.02e+01	0	41	104	0	60	103789
2026-01-21 19:21:15.55	7.41	10.60	-40.4	-50.8	3.5	3.02e+01	0	41	104	0	56	16802
2026-01-21 19:21:16.56	7.23	10.65	-50.6	-67.2	3.5	3.02e+01	0	41	104	0	60	87665
2026-01-21 19:21:17.57	7.06	10.71	-40.8	-51.2	3.5	3.02e+01	0	41	104	0	56	17571
2026-01-21 19:21:18.58	6.89	10.76	-39.9	-50.2	3.5	3.02e+01	0	41	104	0	54	17531
2026-01-21 19:21:19.59	6.71	10.82	-39.7	-50.0	3.5	3.02e+01	0	41	104	0	54	17131
2026-01-21 19:21:20.60	6.54	10.88	-39.3	-49.6	3.5	3.02e+01	0	41	104	0	54	16354
2026-01-21 19:21:21.61	6.37	10.93	-49.2	-62.7	3.6	3.02e+01	0	41	104	0	60	52564
2026-01-21 19:21:22.62	6.19	10.99	-43.0	-53.6	3.5	3.02e+01	0	41	104	0	60	18522
2026-01-21 19:21:23.63	6.01	11.05	-50.6	-66.9	3.5	3.02e+01	0	41	104	0	60	85451
2026-01-21 19:21:24.64	5.84	11.10	-49.8	-64.3	3.6	3.02e+01	0	41	104	0	60	63476
2026-01-21 19:21:25.65	5.66	11.16	-39.7	-50.0	3.5	3.02e+01	0	41	104	0	54	17145
2026-01-21 19:21:26.66	5.48	11.21	-39.8	-50.2	3.5	3.02e+01	0	41	104	0	54	17578
2026-01-21 19:21:27.67	5.30	11.27	-39.8	-50.1	3.5	3.02e+01	0	41	104	0	54	17323
2026-01-21 19:21:28.68	5.12	11.32	-39.5	-49.8	3.5	3.02e+01	0	41	104	0	54	16840
2026-01-21 19:21:29.69	4.94	11.38	-39.3	-49.5	3.5	3.02e+01	0	41	104	0	54	16290
2026-01-21 19:21:30.70	4.76	11.43	-40.0	-50.4	3.6	3.02e+01	0	41	104	0	52	20111
2026-01-21 19:21:31.71	4.57	11.49	-48.5	-61.2	3.5	3.02e+01	0	41	104	0	60	44034
2026-01-21 19:21:32.72	4.39	11.54	-49.4	-63.3	3.5	3.02e+01	0	41	104	0	60	56014
2026-01-21 19:21:33.73	4.21	11.60	-45.6	-56.7	3.5	3.02e+01	0	41	104	0	56	32957
2026-01-21 19:21:34.74	4.02	11.65	-50.7	-67.4	3.4	3.02e+01	0	41	104	0	60	90468
2026-01-21 19:21:35.75	3.84	11.71	-40.0	-50.4	3.5	3.02e+01	0	41	104	0	56	15998
2026-01-21 19:21:36.76	3.65	11.76	-39.2	-49.5	3.6	3.02e+01	0	41	104	0	54	16248
2026-01-21 19:21:37.77	3.46	11.81	-39.2	-49.5	3.5	3.02e+01	0	41	104	0	54	16141
2026-01-21 19:21:38.78	3.27	11.87	-45.0	-55.9	3.4	3.02e+01	0	41	104	0	58	26945
2026-01-21 19:21:39.78	3.09	11.92	-49.4	-63.3	3.5	3.02e+01	0	41	104	0	60	56103
2026-01-21 19:21:40.79	2.90	11.98	-48.7	-61.4	3.5	3.02e+01	0	41	104	0	60	45320
2026-01-21 19:21:41.80	2.71	12.03	-50.8	-67.7	3.5	3.02e+01	0	41	104	0	60	93583
2026-01-21 19:21:42.81	2.52	12.08	-42.7	-53.4	3.6	3.02e+01	0	41	104	0	60	17959
2026-01-21 19:21:43.82	2.33	12.14	-39.8	-50.1	3.5	3.02e+01	0	41	104	0	54	17445
2026-01-21 19:21:44.83	2.13	12.19	-39.7	-50.0	3.5	3.02e+01	0	41	104	0	54	17273
2026-01-21 19:21:45.84	1.94	12.24	-39.4	-49.8	3.5	3.02e+01	0	41	104	0	54	16780
2026-01-21 19:21:46.85	1.75	12.29	-39.4	-49.7	3.5	3.02e+01	0	41	104	0	54	16594
2026-01-21 19:21:47.86	1.55	12.35	-38.5	-48.7	3.6	3.02e+01	0	41	104	0	52	16702
2026-01-21 19:21:48.87	1.36	12.40	-40.4	-50.8	3.5	3.02e+01	0	41	104	0	54	18819
2026-01-21 19:21:49.88	1.16	12.45	-50.8	-67.6	3.5	3.02e+01	0	41	104	0	60	92286
2026-01-21 19:21:50.89	0.96	12.50	-51.1	-68.9	3.5	3.02e+01	0	41	104	0	60	107273
2026-01-21 19:21:51.90	0.77	12.55	-39.9	-50.1	3.5	3.02e+01	0	41	104	0	56	15525
2026-01-21 19:21:52.91	0.57	12.61	-40.1	-50.4	3.5	3.02e+01	0	41	104	0	56	16037
2026-01-21 19:21:53.92	0.37	12.66	-39.9	-50.2	3.5	3.02e+01	0	41	104	0	54	17523
2026-01-21 19:21:54.93	0.17	12.71	-38.9	-49.1	3.5	3.02e+01	0	41	104	0	54	15495
2026-01-21 19:21:55.94	359.97	12.76	-38.8	-49.0	3.5	3.02e+01	0	41	104	0	52	17149
2026-01-21 19:21:56.95	359.77	12.81	-38.9	-49.0	3.5	3.02e+01	0	41	104	0	52	17273
2026-01-21 19:21:57.96	359.56	12.86	-40.1	-50.4	3.5	3.02e+01	0	41	104	0	52	20254
2026-01-21 19:21:58.97	359.36	12.91	-50.8	-67.6	3.5	3.02e+01	0	41	104	0	60	92311
2026-01-21 19:21:59.98	359.16	12.96	-50.1	-65.0	3.5	3.02e+01	0	41	104	0	60	68700
2026-01-21 19:22:00.99	358.95	13.01	-38.4	-48.6	3.5	3.02e+01	0	41	104	0	52	16404
2026-01-21 19:22:02.00	358.75	13.06	-39.3	-49.7	3.5	3.02e+01	0	41	104	0	54	16515
2026-01-21 19:22:03.01	358.54	13.11	-38.9	-49.2	3.5	3.02e+01	0	41	104	0	54	15620
2026-01-21 19:22:04.02	358.34	13.16	-38.9	-49.2	3.5	3.02e+01	0	41	104	0	52	17570
2026-01-21 19:22:05.03	358.13	13.21	-38.7	-49.0	3.5	3.02e+01	0	41	104	0	52	17161
2026-01-21 19:22:06.04	357.92	13.25	-39.4	-49.7	3.5	3.02e+01	0	41	104	0	52	18641
2026-01-21 19:22:07.05	357.71	13.30	-39.4	-49.7	3.5	3.02e+01	0	41	104	0	52	18740
2026-01-21 19:22:08.06	357.50	13.35	-50.9	-68.0	3.4	3.02e+01	0	41	104	0	60	96309
2026-01-21 19:22:09.07	357.29	13.40	-49.4	-63.2	3.5	3.02e+01	0	41	104	0	60	55491
2026-01-21 19:22:10.08	357.08	13.45	-40.4	-50.8	3.6	3.02e+01	0	41	104	0	54	18775
2026-01-21 19:22:11.09	356.87	13.49	-40.0	-50.3	3.6	3.02e+01	0	41	104	0	56	15908
2026-01-21 19:22:12.10	356.65	13.54	-40.0	-50.2	3.5	3.02e+01	0	41	104	0	54	17579
2026-01-21 19:22:13.11	356.44	13.59	-39.2	-49.5	3.5	3.02e+01	0	41	104	0	54	16250
2026-01-21 19:22:14.12	356.23	13.63	-39.1	-49.4	3.5	3.02e+01	0	41	104	0	54	16084
2026-01-21 19:22:15.13	356.01	13.68	-39.3	-49.6	3.5	3.02e+01	0	41	104	0	52	18443
2026-01-21 19:22:16.13	355.80	13.73	-39.1	-49.4	3.5	3.02e+01	0	41	104	0	52	17998
2026-01-21 19:22:17.14	355.58	13.77	-50.7	-68.5	3.5	3.02e+01	0	41	104	0	60	102712
2026-01-21 19:22:18.15	355.37	13.82	-47.6	-59.6	3.6	3.02e+01	0	41	104	0	60	36946
2026-01-21 19:22:19.17	355.15	13.86	-40.6	-51.0	3.5	3.02e+01	0	41	104	0	52	21604
2026-01-21 19:22:20.18	354.93	13.91	-39.4	-49.6	3.5	3.02e+01	0	41	104	0	54	16479
2026-01-21 19:22:21.19	354.71	13.95	-38.9	-49.1	3.5	3.02e+01	0	41	104	0	52	17444
2026-01-21 19:22:22.20	354.49	13.99	-38.5	-48.7	3.6	3.02e+01	0	41	104	0	52	16545
2026-01-21 19:22:23.21	354.27	14.04	-38.6	-48.8	3.5	3.02e+01	0	41	104	0	52	16752
2026-01-21 19:22:24.22	354.05	14.08	-41.0	-51.4	3.5	3.02e+01	0	41	104	0	54	20202
2026-01-21 19:22:25.23	353.83	14.13	-38.8	-49.0	3.5	3.02e+01	0	41	104	0	52	17223
2026-01-21 19:22:26.24	353.60	14.17	-51.1	-68.9	3.5	3.02e+01	0	41	104	0	60	106709
2026-01-21 19:22:27.25	353.38	14.21	-47.1	-59.0	3.5	3.02e+01	0	41	104	0	60	34210
2026-01-21 19:22:28.26	353.16	14.25	-43.2	-53.9	3.5	3.02e+01	0	41	104	0	58	21286
2026-01-21 19:22:29.27	352.93	14.29	-39.8	-50.1	3.5	3.02e+01	0	41	104	0	54	17349
2026-01-21 19:22:30.28	352.70	14.34	-39.9	-50.2	3.5	3.02e+01	0	41	104	0	54	17620
2026-01-21 19:22:31.28	352.48	14.38	-39.7	-50.0	3.5	3.02e+01	0	41	104	0	54	17209
2026-01-21 19:22:32.29	352.25	14.42	-39.8	-50.1	3.5	3.02e+01	0	41	104	0	54	17437
2026-01-21 19:22:33.30	352.03	14.46	-38.8	-49.1	3.5	3.02e+01	0	41	104	0	52	17297
2026-01-21 19:22:34.31	351.80	14.50	-38.6	-48.9	3.5	3.02e+01	0	41	104	0	52	16937
2026-01-21 19:22:35.32	351.57	14.54	-51.1	-68.9	3.5	3.02e+01	0	41	104	0	60	107553
2026-01-21 19:22:36.33	351.34	14.58	-45.2	-56.4	3.6	3.02e+01	0	41	104	0	60	25482
2026-01-21 19:22:37.34	351.11	14.62	-46.2	-57.7	3.5	3.02e+01	0	41	104	0	60	29469
2026-01-21 19:22:38.35	350.88	14.65	-39.8	-50.1	3.5	3.02e+01	0	41	104	0	54	17464
2026-01-21 19:22:39.36	350.65	14.69	-39.0	-49.2	3.5	3.02e+01	0	41	104	0	52	17634
2026-01-21 19:22:40.37	350.42	14.73	-38.8	-49.1	3.6	3.02e+01	0	41	104	0	52	17346
2026-01-21 19:22:41.38	350.18	14.77	-38.9	-49.2	3.5	3.02e+01	0	41	104	0	52	17564
2026-01-21 19:22:42.39	349.95	14.81	-39.4	-49.7	3.5	3.02e+01	0	41	104	0	52	18617
2026-01-21 19:22:43.40	349.72	14.84	-38.6	-48.8	3.5	3.02e+01	0	41	104	0	52	16893
2026-01-21 19:22:44.40	349.48	14.88	-51.1	-68.9	3.5	3.02e+01	0	41	104	0	60	107400
2026-01-21 19:22:45.41	349.25	14.91	-43.2	-53.9	3.5	3.02e+01	0	41	104	0	60	19041
2026-01-21 19:22:46.42	349.01	14.95	-46.3	-57.8	3.6	3.02e+01	0	41	104	0	60	29829
2026-01-21 19:22:47.43	348.78	14.98	-39.2	-49.4	3.5	3.02e+01	0	41	104	0	54	16079
2026-01-21 19:22:48.44	348.54	15.02	-38.8	-49.1	3.5	3.02e+01	0	41	104	0	52	17316
2026-01-21 19:22:49.46	348.30	15.05	-38.6	-48.8	3.5	3.02e+01	0	41	104	0	52	16840
2026-01-21 19:22:50.47	348.06	15.09	-38.6	-48.9	3.5	3.02e+01	0	41	104	0	52	16981
2026-01-21 19:22:51.47	347.83	15.12	-44.5	-55.5	3.5	3.02e+01	0	41	104	0	60	23004
2026-01-21 19:22:52.48	347.59	15.15	-38.7	-48.9	3.5	3.02e+01	0	41	104	0	52	17048
2026-01-21 19:22:53.49	347.35	15.19	-51.0	-68.4	3.5	3.02e+01	0	41	104	0	60	100651
2026-01-21 19:22:54.50	347.11	15.22	-42.3	-52.8	3.7	3.02e+01	0	41	104	0	60	16712
2026-01-21 19:22:55.51	346.86	15.25	-48.2	-60.7	3.5	3.02e+01	0	41	104	0	60	41723
2026-01-21 19:22:56.52	346.62	15.28	-40.2	-50.6	3.6	3.02e+01	0	41	104	0	56	16424
2026-01-21 19:22:57.53	346.38	15.31	-40.3	-50.4	3.6	3.02e+01	0	41	104	0	56	16118
2026-01-21 19:22:58.54	346.14	15.34	-40.4	-50.6	3.6	3.02e+01	0	41	104	0	56	16402
2026-01-21 19:22:59.55	345.90	15.37	-39.3	-40.9	5.2	3.02e+01	0	41	104	0	54	5998
2026-01-21 19:23:00.56	345.65	15.40	-38.6	-39.9	28.2	3.02e+01	63	41	0	0	52	5999
2026-01-21 19:23:01.57	345.41	15.43	-38.7	-40.0	27.2	3.02e+01	59	41	0	2097152	52	6097
2026-01-21 19:23:02.58	345.16	15.46	-51.0	-64.9	3.5	3.02e+01	0	41	104	2621440	60	67683
2026-01-21 19:23:03.59	344.92	15.49	-39.5	-41.1	24.2	3.02e+01	60	41	104	2621440	56	5481
2026-01-21 19:23:04.60	344.67	15.52	-47.9	-51.4	18.9	3.02e+01	58	41	0	3670016	60	14352
2026-01-21 19:23:05.62	344.42	15.54	-40.3	-41.6	26.7	3.02e+01	56	41	0	5767168	56	5853
2026-01-21 19:23:06.63	344.18	15.57	-39.4	-40.7	27.4	3.02e+01	61	41	0	7864320	54	5901
2026-01-21 19:23:07.64	343.93	15.60	-38.6	-39.9	28.3	3.02e+01	58	41	0	9437184	52	6002
2026-01-21 19:23:08.65	343.68	15.62	-38.3	-39.6	28.5	3.02e+01	50	41	0	11534336	52	5795
2026-01-21 19:23:09.66	343.43	15.65	-38.3	-39.5	28.5	3.02e+01	58	41	0	13107200	52	5757
2026-01-21 19:23:10.67	343.18	15.67	-38.3	-39.6	28.5	3.02e+01	50	41	0	15204352	52	5816
2026-01-21 19:23:11.68	342.94	15.70	-38.3	-39.6	28.5	3.02e+01	59	41	0	17301504	52	5802
2026-01-21 19:23:12.69	342.69	15.72	-38.3	-39.5	28.6	3.02e+01	59	41	0	18874368	52	5775
2026-01-21 19:23:13.70	342.44	15.74	-38.4	-39.7	28.5	3.02e+01	54	41	0	20971520	52	5880
2026-01-21 19:23:14.71	342.19	15.77	-38.3	-39.5	28.5	3.02e+01	62	41	0	22544384	52	5786
2026-01-21 19:23:15.72	341.94	15.79	-38.4	-39.6	28.5	3.02e+01	56	41	0	24641536	52	5826
2026-01-21 19:23:16.73	341.68	15.81	-38.2	-39.4	28.6	3.02e+01	58	41	0	26738688	52	5708
2026-01-21 19:23:17.74	341.43	15.83	-38.2	-39.5	28.6	3.02e+01	59	41	0	28311552	52	5742
2026-01-21 19:23:18.75	341.18	15.85	-38.3	-39.5	28.5	3.02e+01	48	41	0	30408704	52	5768
2026-01-21 19:23:19.76	340.93	15.87	-38.4	-39.6	28.4	3.02e+01	60	41	0	31981568	52	5855
2026-01-21 19:23:20.77	340.68	15.89	-38.5	-39.8	28.3	3.02e+01	58	41	0	34078720	52	5938
2026-01-21 19:23:21.78	340.42	15.91	-38.3	-39.6	28.5	3.02e+01	58	41	0	36175872	52	5823
2026-01-21 19:23:22.79	340.17	15.93	-38.3	-39.6	28.5	3.02e+01	60	41	0	37748736	52	5806
2026-01-21 19:23:23.80	339.92	15.95	-38.5	-39.8	28.3	3.02e+01	46	41	0	39845888	52	5945
2026-01-21 19:23:24.81	339.66	15.97	-38.3	-39.6	28.5	3.02e+01	62	41	0	41943040	52	5814
2026-01-21 19:23:25.82	339.41	15.98	-38.4	-39.7	28.4	3.02e+01	58	41	0	43515904	52	5894
2026-01-21 19:23:26.83	339.15	16.00	-38.4	-39.7	28.5	3.02e+01	46	41	0	45613056	52	5876
2026-01-21 19:23:27.84	338.90	16.01	-38.3	-39.5	28.6	3.02e+01	54	41	0	47185920	52	5780
2026-01-21 19:23:28.85	338.64	16.03	-38.2	-39.4	28.6	3.02e+01	59	41	0	49283072	52	5720
2026-01-21 19:23:29.86	338.39	16.05	-38.3	-39.6	28.5	3.02e+01	55	41	0	51380224	52	5818
2026-01-21 19:23:30.87	338.13	16.06	-38.4	-39.6	28.5	3.02e+01	58	41	0	52953088	52	5824
2026-01-21 19:23:31.85	337.88	16.07	-38.5	-39.8	28.4	3.02e+01	47	41	0	55050240	52	5944
2026-01-21 19:23:32.82	337.64	16.09	-38.3	-39.6	28.5	3.02e+01	60	41	0	56623104	52	5798
2026-01-21 19:23:33.83	337.38	16.10	-38.4	-39.6	28.5	3.02e+01	57	41	0	58720256	52	5850
2026-01-21 19:23:34.84	337.13	16.11	-38.3	-39.6	28.5	3.02e+01	46	41	0	60293120	52	5808
2026-01-21 19:23:35.85	336.87	16.12	-38.4	-39.6	28.5	3.02e+01	60	41	0	62390272	52	5839
2026-01-21 19:23:36.86	336.61	16.13	-38.4	-39.6	28.5	3.02e+01	57	41	0	64487424	52	5852
2026-01-21 19:23:37.87	336.35	16.14	-38.3	-39.5	28.7	3.02e+01	62	41	0	66060288	52	5765
2026-01-21 19:23:38.88	336.10	16.15	-38.4	-39.7	28.5	3.02e+01	59	41	0	68157440	52	5876
2026-01-21 19:23:39.89	335.84	16.16	-38.4	-39.6	28.5	3.02e+01	55	41	0	70254592	52	5824
2026-01-21 19:23:40.90	335.58	16.17	-38.4	-39.6	28.6	3.02e+01	56	41	0	71827456	52	5832
2026-01-21 19:23:41.91	335.32	16.18	-38.4	-39.7	28.4	3.02e+01	60	41	0	73924608	52	5893
2026-01-21 19:23:42.92	335.06	16.19	-38.5	-39.7	28.4	3.02e+01	53	41	0	75497472	52	5914
2026-01-21 19:23:43.93	334.81	16.20	-38.5	-39.7	28.5	3.02e+01	55	41	0	77594624	52	5925
2026-01-21 19:23:44.94	334.55	16.20	-38.3	-39.5	28.6	3.02e+01	60	41	0	79691776	52	5782
2026-01-21 19:23:45.95	334.29	16.21	-38.4	-39.6	28.5	3.02e+01	58	41	0	81264640	52	5827
2026-01-21 19:23:46.96	334.03	16.21	-38.5	-39.8	28.4	3.02e+01	57	41	0	83361792	52	5927
2026-01-21 19:23:47.97	333.77	16.22	-38.3	-39.6	28.6	3.02e+01	44	41	0	84934656	52	5801
2026-01-21 19:23:48.98	333.51	16.22	-38.4	-39.7	28.5	3.02e+01	60	41	0	87031808	52	5882
2026-01-21 19:23:49.99	333.25	16.23	-38.5	-39.8	28.4	3.02e+01	60	41	0	89128960	52	5927
2026-01-21 19:23:51.00	332.99	16.23	-38.6	-39.8	28.3	3.02e+01	45	41	0	90701824	52	5979
2026-01-21 19:23:52.01	332.74	16.23	-38.5	-39.7	28.5	3.02e+01	60	41	0	92798976	52	5889
2026-01-21 19:23:53.02	332.48	16.24	-38.5	-39.7	28.5	3.02e+01	60	41	0	94896128	52	5905
2026-01-21 19:23:54.03	332.22	16.24	-38.4	-39.7	28.5	3.02e+01	57	41	0	96468992	52	5878
2026-01-21 19:23:55.04	331.96	16.24	-38.4	-39.7	28.5	3.02e+01	61	41	0	98566144	52	5879
2026-01-21 19:23:56.05	331.70	16.24	-38.4	-39.6	28.6	3.02e+01	58	41	0	100139008	52	5830
2026-01-21 19:23:57.06	331.44	16.24	-38.4	-39.7	28.5	3.02e+01	60	41	0	102236160	52	5873
2026-01-21 19:23:58.07	331.18	16.24	-38.5	-39.8	28.4	3.02e+01	59	41	0	104333312	52	5956
2026-01-21 19:23:59.08	330.92	16.24	-38.7	-40.0	28.3	3.02e+01	59	41	0	105906176	52	6072
2026-01-21 19:24:00.09	330.66	16.24	-38.6	-39.8	28.4	3.02e+01	61	41	0	108003328	52	5971
2026-01-21 19:24:01.10	330.40	16.23	-38.4	-39.6	28.5	3.02e+01	53	41	0	109576192	52	5855
2026-01-21 19:24:02.11	330.14	16.23	-38.6	-39.8	28.4	3.02e+01	59	41	0	111673344	52	5970
2026-01-21 19:24:03.12	329.88	16.23	-38.3	-39.5	28.6	3.02e+01	57	41	0	113770496	52	5790
2026-01-21 19:24:04.13	329.63	16.22	-38.5	-39.7	28.5	3.02e+01	46	41	0	115343360	52	5917
2026-01-21 19:24:05.14	329.37	16.22	-38.6	-39.9	28.4	3.02e+01	59	41	0	117440512	52	6010
2026-01-21 19:24:06.14	329.11	16.21	-38.6	-39.9	28.3	3.02e+01	62	41	0	119013376	52	6025
2026-01-21 19:24:07.15	328.85	16.21	-38.4	-39.7	28.5	3.02e+01	61	41	0	121110528	52	5884
2026-01-21 19:24:08.16	328.59	16.20	-38.3	-39.5	28.7	3.02e+01	56	41	0	123207680	52	5791
2026-01-21 19:24:09.17	328.33	16.20	-38.3	-39.6	28.6	3.02e+01	46	41	0	124780544	52	5805
2026-01-21 19:24:10.18	328.08	16.19	-38.4	-39.7	28.5	3.02e+01	61	41	0	126877696	52	5878
2026-01-21 19:24:11.19	327.82	16.18	-38.4	-39.6	28.5	3.02e+01	62	41	0	128450560	52	5857
2026-01-21 19:24:12.20	327.56	16.17	-38.6	-39.8	28.4	3.02e+01	48	41	0	130547712	52	5974
2026-01-21 19:24:13.21	327.30	16.16	-38.4	-39.7	28.5	3.02e+01	58	41	0	132644864	52	5876
2026-01-21 19:24:14.22	327.04	16.15	-38.6	-39.9	28.3	3.02e+01	61	41	0	134217728	52	6017
2026-01-21 19:24:15.23	326.79	16.14	-38.6	-39.9	28.3	3.02e+01	60	41	0	136314880	52	6000
2026-01-21 19:24:16.24	326.53	16.13	-38.6	-39.8	28.4	3.02e+01	61	41	0	138412032	52	5969
2026-01-21 19:24:17.25	326.27	16.12	-38.6	-39.8	28.4	3.02e+01	57	41	0	139984896	52	5991
2026-01-21 19:24:18.26	326.02	16.11	-38.3	-39.6	28.6	3.02e+01	56	41	0	142082048	52	5797
2026-01-21 19:24:19.27	325.76	16.10	-38.6	-39.9	28.3	3.02e+01	60	41	0	143654912	52	6023
2026-01-21 19:24:20.28	325.50	16.08	-38.9	-40.2	28.1	3.02e+01	45	41	0	145752064	52	6251
2026-01-21 19:24:21.29	325.25	16.07	-38.3	-39.6	28.6	3.02e+01	60	41	0	147849216	52	5809
2026-01-21 19:24:22.30	324.99	16.06	-38.6	-39.8	28.4	3.02e+01	60	41	0	149422080	52	5981
2026-01-21 19:24:23.31	324.73	16.04	-38.4	-39.6	28.5	3.02e+01	57	41	0	151519232	52	5825
2026-01-21 19:24:24.32	324.48	16.03	-38.5	-39.7	28.6	3.02e+01	59	41	0	153092096	52	5894
2026-01-21 19:24:25.33	324.22	16.01	-38.7	-39.9	28.4	3.02e+01	54	41	0	155189248	52	6058
2026-01-21 19:24:26.34	323.97	15.99	-38.4	-39.7	28.5	3.02e+01	58	41	0	157286400	52	5884
2026-01-21 19:24:27.35	323.71	15.98	-38.6	-39.9	28.3	3.02e+01	59	41	0	158859264	52	6031
2026-01-21 19:24:28.36	323.46	15.96	-38.7	-40.0	28.3	3.02e+01	44	41	0	160956416	52	6108
2026-01-21 19:24:29.37	323.21	15.94	-38.4	-39.6	28.5	3.02e+01	58	41	0	163053568	52	5831
2026-01-21 19:24:30.38	322.95	15.92	-39.0	-40.3	28.0	3.02e+01	45	41	0	164626432	52	6326
2026-01-21 19:24:31.39	322.70	15.91	-38.4	-39.7	28.5	3.02e+01	60	41	0	166723584	52	5862
2026-01-21 19:24:32.40	322.45	15.89	-38.6	-39.8	28.4	3.02e+01	59	41	0	168296448	52	5985
2026-01-21 19:24:33.41	322.19	15.87	-38.5	-39.8	28.5	3.02e+01	51	41	0	170393600	52	5967
2026-01-21 19:24:34.42	321.94	15.85	-38.3	-39.5	28.7	3.02e+01	60	41	0	172490752	52	5754
2026-01-21 19:24:35.43	321.69	15.83	-38.9	-40.2	28.1	3.02e+01	60	41	0	174063616	52	6224
2026-01-21 19:24:36.44	321.44	15.80	-38.6	-39.9	28.3	3.02e+01	59	41	0	176160768	52	6027
2026-01-21 19:24:37.45	321.19	15.78	-38.5	-39.7	28.5	3.02e+01	60	41	0	177733632	52	5907
2026-01-21 19:24:38.46	320.93	15.76	-38.7	-40.0	28.3	3.02e+01	46	41	0	179830784	52	6076
2026-01-21 19:24:39.47	320.68	15.74	-38.4	-39.6	28.6	3.02e+01	58	41	0	181927936	52	5850
2026-01-21 19:24:40.48	320.43	15.71	-38.3	-39.5	28.6	3.02e+01	62	41	0	183500800	52	5764
2026-01-21 19:24:41.49	320.18	15.69	-38.7	-39.9	28.3	3.02e+01	45	41	0	185597952	52	6058
2026-01-21 19:24:42.50	319.94	15.66	-38.5	-39.8	28.5	3.02e+01	57	41	0	187170816	52	5956
2026-01-21 19:24:43.51	319.69	15.64	-38.7	-40.0	28.3	3.02e+01	60	41	0	189267968	52	6069
2026-01-21 19:24:44.52	319.44	15.61	-38.9	-40.1	28.2	3.02e+01	61	41	0	191365120	52	6188
2026-01-21 19:24:45.53	319.19	15.59	-38.7	-39.9	28.3	3.02e+01	59	41	0	192937984	52	6058
2026-01-21 19:24:46.54	318.94	15.56	-39.1	-40.4	28.0	3.02e+01	55	41	0	195035136	52	6375
2026-01-21 19:24:47.55	318.70	15.54	-38.7	-40.0	28.2	3.02e+01	59	41	0	196608000	52	6099
2026-01-21 19:24:48.56	318.45	15.51	-39.1	-40.4	27.9	3.02e+01	57	41	0	198705152	52	6408
2026-01-21 19:24:49.57	318.20	15.48	-39.0	-40.3	28.0	3.02e+01	44	41	0	200802304	52	6316
2026-01-21 19:24:50.58	317.96	15.45	-38.7	-40.0	28.2	3.02e+01	61	41	0	202375168	52	6095
2026-01-21 19:24:51.59	317.71	15.42	-39.1	-40.4	27.9	3.02e+01	59	41	0	204472320	52	6358
2026-01-21 19:24:52.60	317.47	15.39	-38.6	-39.9	28.3	3.02e+01	61	41	0	206569472	52	6002
2026-01-21 19:24:53.61	317.23	15.36	-38.5	-39.8	28.5	3.02e+01	57	41	0	208142336	52	5956
2026-01-21 19:24:54.62	316.98	15.33	-38.4	-39.7	28.5	3.02e+01	47	41	0	210239488	52	5863
2026-01-21 19:24:55.62	316.74	15.30	-38.4	-39.6	28.6	3.02e+01	59	41	0	211812352	52	5836
2026-01-21 19:24:56.64	316.50	15.27	-38.7	-39.9	28.3	3.02e+01	60	41	0	213909504	52	6061
2026-01-21 19:24:57.65	316.26	15.24	-38.2	-39.4	28.8	3.02e+01	45	41	0	216006656	52	5683
2026-01-21 19:24:58.66	316.01	15.21	-38.9	-40.2	28.1	3.02e+01	59	41	0	217579520	52	6223
2026-01-21 19:24:59.67	315.77	15.18	-38.3	-39.5	28.6	3.02e+01	59	41	0	219676672	52	5775
2026-01-21 19:25:00.68	315.53	15.14	-38.6	-39.8	28.4	3.02e+01	57	41	0	221249536	52	5979
2026-01-21 19:25:01.69	315.29	15.11	-38.4	-39.7	28.5	3.02e+01	59	41	0	223346688	52	5880
2026-01-21 19:25:02.70	315.06	15.08	-38.6	-39.9	28.4	3.02e+01	52	41	0	225443840	52	6016
2026-01-21 19:25:03.71	314.82	15.04	-38.6	-39.8	28.4	3.02e+01	62	41	0	227016704	52	5972
2026-01-21 19:25:04.72	314.58	15.01	-39.1	-40.4	27.9	3.02e+01	57	41	0	229113856	52	6397
2026-01-21 19:25:05.73	314.34	14.97	-37.8	-39.0	29.0	3.02e+01	53	41	0	231211008	50	6115
2026-01-21 19:25:06.74	314.11	14.94	-39.0	-40.3	27.7	3.02e+01	57	41	0	232783872	52	6292
2026-01-21 19:25:07.75	313.87	14.90	-38.2	-39.4	28.5	3.02e+01	47	41	0	234881024	50	6391
2026-01-21 19:25:08.76	313.63	14.87	-38.6	-39.9	28.3	3.02e+01	57	41	0	236453888	52	6026
2026-01-21 19:25:09.77	313.40	14.83	-38.7	-40.0	28.3	3.02e+01	58	41	0	238551040	52	6103
2026-01-21 19:25:10.78	313.17	14.79	-38.8	-40.1	28.1	3.02e+01	49	41	0	240648192	52	6183
2026-01-21 19:25:11.79	312.93	14.76	-38.4	-39.6	28.3	3.02e+01	61	41	0	242221056	52	5845
2026-01-21 19:25:12.80	312.70	14.72	-39.4	-40.8	27.3	3.02e+01	61	41	0	244318208	52	6669
2026-01-21 19:25:13.81	312.47	14.68	-38.9	-40.1	28.1	3.02e+01	62	41	0	245891072	52	6187
2026-01-21 19:25:14.82	312.24	14.64	-39.2	-40.5	27.1	3.02e+01	59	41	0	247988224	54	5744
2026-01-21 19:25:15.83	312.00	14.60	-39.8	-41.2	26.9	3.02e+01	60	41	0	250085376	52	6981
2026-01-21 19:25:16.84	311.77	14.57	-39.4	-40.7	27.4	3.02e+01	59	41	0	251658240	54	5883
2026-01-21 19:25:17.85	311.54	14.53	-39.5	-40.9	27.5	3.02e+01	60	41	0	253755392	52	6727
2026-01-21 19:25:18.86	311.32	14.49	-39.5	-40.8	27.5	3.02e+01	47	41	0	255328256	54	5962
2026-01-21 19:25:19.87	311.09	14.45	-38.5	-39.7	28.4	3.02e+01	58	41	0	257425408	52	5916
2026-01-21 19:25:20.88	310.86	14.40	-39.5	-40.8	27.4	3.02e+01	59	41	0	259522560	52	6720
2026-01-21 19:25:21.89	310.63	14.36	-37.8	-39.0	28.9	3.02e+01	57	41	0	261095424	50	6088
2026-01-21 19:25:22.90	310.41	14.32	-39.2	-40.6	27.4	3.02e+01	59	41	0	263192576	52	6521
2026-01-21 19:25:23.91	310.18	14.28	-38.0	-39.2	28.7	3.02e+01	55	41	0	264765440	50	6243
2026-01-21 19:25:24.92	309.96	14.24	-38.8	-40.1	28.2	3.02e+01	55	41	0	266862592	52	6135
2026-01-21 19:25:25.93	309.73	14.20	-38.4	-39.7	28.6	3.02e+01	56	41	0	268959744	52	5879
2026-01-21 19:25:26.94	309.51	14.15	-38.5	-39.8	28.3	3.02e+01	51	41	0	270532608	52	5938
2026-01-21 19:25:27.95	309.28	14.11	-38.4	-39.6	28.6	3.02e+01	58	41	0	272629760	52	5852
2026-01-21 19:25:28.96	309.06	14.07	-38.9	-40.2	27.9	3.02e+01	53	41	0	274726912	52	6223
2026-01-21 19:25:29.97	308.84	14.02	-38.4	-39.7	28.5	3.02e+01	62	41	0	276299776	52	5863
2026-01-21 19:25:30.98	308.62	13.98	-39.2	-40.5	27.8	3.02e+01	61	41	0	278396928	52	6459
2026-01-21 19:25:31.99	308.40	13.94	-38.2	-39.5	28.6	3.02e+01	57	41	0	279969792	52	5726
2026-01-21 19:25:32.99	308.18	13.89	-38.6	-39.9	28.2	3.02e+01	60	41	0	282066944	52	6047
2026-01-21 19:25:34.00	307.96	13.85	-38.5	-39.8	28.4	3.02e+01	60	41	0	284164096	52	5929
2026-01-21 19:25:35.02	307.74	13.80	-38.5	-39.8	28.3	3.02e+01	46	41	0	285736960	52	5929
2026-01-21 19:25:36.02	307.53	13.76	-38.9	-40.1	28.0	3.02e+01	59	41	0	287834112	52	6202
2026-01-21 19:25:37.04	307.31	13.71	-38.4	-39.6	28.6	3.02e+01	59	41	0	289406976	52	5822
2026-01-21 19:25:38.04	307.10	13.66	-38.6	-39.9	28.3	3.02e+01	61	41	0	291504128	52	6014
2026-01-21 19:25:39.05	306.88	13.62	-38.7	-40.0	28.2	3.02e+01	64	41	0	293601280	52	6083
2026-01-21 19:25:40.06	306.67	13.57	-38.6	-39.9	28.3	3.02e+01	52	41	0	295174144	52	5995
2026-01-21 19:25:41.07	306.45	13.52	-38.9	-40.2	28.0	3.02e+01	58	41	0	297271296	52	6226
2026-01-21 19:25:42.08	306.24	13.48	-38.4	-39.6	28.5	3.02e+01	60	41	0	299368448	52	5814
2026-01-21 19:25:43.09	306.03	13.43	-38.7	-40.0	28.1	3.02e+01	58	41	0	300941312	52	6116
2026-01-21 19:25:44.10	305.82	13.38	-38.5	-39.7	28.4	3.02e+01	58	41	0	303038464	52	5905
2026-01-21 19:25:45.11	305.61	13.33	-38.6	-39.9	28.4	3.02e+01	45	41	0	304611328	52	5999
2026-01-21 19:25:46.12	305.40	13.29	-38.6	-39.9	28.3	3.02e+01	60	41	0	306708480	52	6017
2026-01-21 19:25:47.13	305.19	13.24	-38.7	-39.9	28.2	3.02e+01	59	41	0	308805632	52	6041
2026-01-21 19:25:48.14	304.98	13.19	-38.6	-39.9	28.3	3.02e+01	45	41	0	310378496	52	6028
2026-01-21 19:25:49.15	304.77	13.14	-38.8	-40.1	28.0	3.02e+01	59	41	0	312475648	52	6188
2026-01-21 19:25:50.17	304.56	13.09	-38.9	-40.2	28.0	3.02e+01	60	41	0	314048512	52	6232
2026-01-21 19:25:51.17	304.36	13.04	-39.8	-41.1	27.1	3.02e+01	59	41	0	316145664	52	6962
2026-01-21 19:25:52.18	304.15	12.99	-38.2	-39.4	28.7	3.02e+01	58	41	0	318242816	52	5714
2026-01-21 19:25:53.19	303.95	12.94	-39.1	-40.4	27.8	3.02e+01	57	41	0	319815680	52	6376
2026-01-21 19:25:54.20	303.74	12.89	-38.5	-39.7	28.3	3.02e+01	59	41	0	321912832	52	5911
2026-01-21 19:25:55.21	303.54	12.84	-38.9	-40.2	27.9	3.02e+01	60	41	0	323485696	52	6260
2026-01-21 19:25:56.23	303.34	12.79	-39.0	-40.3	27.9	3.02e+01	50	41	0	325582848	52	6326
2026-01-21 19:25:57.24	303.14	12.74	-38.9	-40.2	28.0	3.02e+01	59	41	0	327680000	52	6226
2026-01-21 19:25:58.25	302.93	12.69	-39.0	-40.4	27.8	3.02e+01	58	41	0	329252864	52	6358
2026-01-21 19:25:59.26	302.73	12.64	-38.5	-39.8	28.3	3.02e+01	60	41	0	331350016	52	5954
2026-01-21 19:26:00.27	302.53	12.59	-39.0	-40.3	27.9	3.02e+01	58	41	0	332922880	52	6315
2026-01-21 19:26:01.28	302.34	12.53	-38.4	-39.6	28.4	3.02e+01	51	41	0	335020032	52	5854
2026-01-21 19:26:02.28	302.14	12.48	-38.9	-40.2	28.1	3.02e+01	58	41	0	337117184	52	6213
2026-01-21 19:26:03.29	301.94	12.43	-38.2	-39.4	28.5	3.02e+01	61	41	0	338690048	52	5719
2026-01-21 19:26:04.30	301.75	12.38	-38.4	-39.7	28.3	3.02e+01	46	41	0	340787200	52	5869
2026-01-21 19:26:05.31	301.55	12.33	-39.4	-40.7	27.1	3.02e+01	60	41	0	342884352	52	6629
2026-01-21 19:26:06.32	301.36	12.27	-39.0	-40.2	27.9	3.02e+01	63	41	0	344457216	52	6257
2026-01-21 19:26:07.34	301.16	12.22	-39.8	-41.3	27.0	3.02e+01	59	41	0	346554368	52	7045
2026-01-21 19:26:08.35	300.97	12.17	-38.8	-40.0	27.8	3.02e+01	60	41	0	348127232	54	5439
2026-01-21 19:26:09.36	300.77	12.12	-38.7	-39.9	27.9	3.02e+01	54	41	0	350224384	52	6034
2026-01-21 19:26:10.37	300.58	12.06	-39.5	-40.9	27.3	3.02e+01	59	41	0	352321536	52	6731
2026-01-21 19:26:11.38	300.39	12.01	-38.3	-39.5	28.5	3.02e+01	60	41	0	353894400	52	5766
2026-01-21 19:26:12.39	300.20	11.95	-39.3	-40.6	27.6	3.02e+01	49	41	0	355991552	52	6534
2026-01-21 19:26:13.40	300.01	11.90	-38.8	-40.1	27.9	3.02e+01	61	41	0	357564416	52	6190
2026-01-21 19:26:14.41	299.82	11.85	-38.6	-39.8	28.2	3.02e+01	59	41	0	359661568	52	5967
2026-01-21 19:26:15.42	299.63	11.79	-39.4	-40.7	27.6	3.02e+01	58	41	0	361758720	52	6615
2026-01-21 19:26:16.43	299.45	11.74	-38.4	-39.7	28.3	3.02e+01	61	41	0	363331584	52	5873
2026-01-21 19:26:17.44	299.26	11.68	-39.0	-40.3	27.9	3.02e+01	44	41	0	365428736	52	6298
2026-01-21 19:26:18.45	299.07	11.63	-39.2	-40.5	27.6	3.02e+01	62	41	0	367525888	52	6436
2026-01-21 19:26:19.46	298.89	11.58	-38.7	-40.0	28.2	3.02e+01	59	41	0	369098752	52	6090
2026-01-21 19:26:20.47	298.70	11.52	-39.2	-40.6	27.6	3.02e+01	58	41	0	371195904	52	6515
2026-01-21 19:26:21.48	298.52	11.47	-38.9	-40.2	27.8	3.02e+01	61	41	0	372768768	52	6221
2026-01-21 19:26:22.49	298.34	11.41	-39.0	-40.3	27.8	3.02e+01	44	41	0	374865920	52	6300
2026-01-21 19:26:23.50	298.16	11.36	-39.9	-41.3	26.9	3.02e+01	56	41	0	376963072	54	6299
2026-01-21 19:26:24.51	297.97	11.30	-39.4	-40.7	27.4	3.02e+01	59	41	0	378535936	54	5893
2026-01-21 19:26:25.52	297.79	11.24	-39.3	-40.6	27.5	3.02e+01	53	41	0	380633088	54	5808
2026-01-21 19:26:26.53	297.61	11.19	-39.8	-41.2	26.9	3.02e+01	50	41	0	382730240	54	6221
2026-01-21 19:26:27.54	297.43	11.13	-39.7	-41.0	27.1	3.02e+01	61	41	0	384303104	54	6112
2026-01-21 19:26:28.55	297.26	11.08	-39.8	-41.2	26.9	3.02e+01	64	41	0	386400256	54	6206
2026-01-21 19:26:29.56	297.08	11.02	-39.8	-41.1	27.1	3.02e+01	61	41	0	387973120	54	6192
2026-01-21 19:26:30.57	296.90	10.97	-40.0	-41.3	26.9	3.02e+01	61	41	0	390070272	54	6338
2026-01-21 19:26:31.58	296.73	10.91	-39.5	-40.8	27.4	3.02e+01	59	41	0	392167424	54	5952
2026-01-21 19:26:32.59	296.55	10.85	-39.7	-41.0	27.1	3.02e+01	60	41	0	393740288	54	6112
2026-01-21 19:26:33.60	296.38	10.80	-39.1	-40.4	27.7	3.02e+01	45	41	0	395837440	54	5661
2026-01-21 19:26:34.61	296.20	10.74	-39.1	-40.4	27.7	3.02e+01	57	41	0	397410304	54	5699
2026-01-21 19:26:35.62	296.03	10.68	-39.3	-40.7	27.5	3.02e+01	58	41	0	399507456	54	5867
2026-01-21 19:26:36.63	295.86	10.63	-39.1	-40.4	27.7	3.02e+01	57	42	0	401604608	54	5678
2026-01-21 19:26:37.64	295.68	10.57	-38.9	-40.2	27.9	3.02e+01	59	41	0	403177472	52	6254
2026-01-21 19:26:38.65	295.51	10.51	-38.9	-40.1	28.0	3.02e+01	54	41	0	405274624	52	6194
2026-01-21 19:26:39.66	295.34	10.46	-38.8	-40.0	28.1	3.02e+01	60	41	0	406847488	52	6111
2026-01-21 19:26:40.67	295.17	10.40	-39.0	-40.3	27.7	3.02e+01	59	41	0	408944640	52	6341
2026-01-21 19:26:41.68	295.00	10.34	-39.3	-40.7	27.5	3.02e+01	49	41	0	411041792	52	6588
2026-01-21 19:26:42.69	294.84	10.29	-39.4	-40.7	27.3	3.02e+01	57	41	0	412614656	52	6589
2026-01-21 19:26:43.70	294.67	10.23	-38.9	-40.1	27.8	3.02e+01	60	41	0	414711808	52	6202
2026-01-21 19:26:44.71	294.50	10.17	-39.0	-40.3	27.7	3.02e+01	60	41	0	416284672	52	6328
2026-01-21 19:26:45.72	294.34	10.11	-39.4	-40.7	27.4	3.02e+01	55	41	0	418381824	52	6610
2026-01-21 19:26:46.73	294.17	10.06	-39.3	-40.6	27.6	3.02e+01	49	41	0	420478976	52	6530
2026-01-21 19:26:47.74	294.01	10.00	-38.9	-40.1	27.9	3.02e+01	60	41	0	422051840	52	6196
2026-01-21 19:26:48.75	293.84	9.94	-39.1	-40.3	27.7	3.02e+01	59	41	0	424148992	52	6346
2026-01-21 19:26:49.76	293.68	9.88	-39.4	-40.7	27.5	3.02e+01	52	41	0	425721856	52	6634
2026-01-21 19:26:50.77	293.52	9.83	-39.0	-40.3	27.8	3.02e+01	60	41	0	427819008	52	6294
2026-01-21 19:26:51.78	293.35	9.77	-39.1	-40.4	27.6	3.02e+01	48	41	0	429916160	52	6387
2026-01-21 19:26:52.79	293.19	9.71	-39.4	-40.7	27.4	3.02e+01	61	41	0	431489024	52	6635
2026-01-21 19:26:53.80	293.03	9.65	-39.4	-40.8	27.3	3.02e+01	57	41	0	433586176	52	6672
2026-01-21 19:26:54.81	292.87	9.60	-39.2	-40.5	27.5	3.02e+01	47	41	0	435683328	52	6437
2026-01-21 19:26:55.82	292.71	9.54	-39.3	-40.6	27.5	3.02e+01	58	41	0	437256192	52	6511
2026-01-21 19:26:56.83	292.56	9.48	-39.2	-40.5	27.6	3.02e+01	61	41	0	439353344	52	6438
2026-01-21 19:26:57.84	292.40	9.42	-39.0	-40.3	27.7	3.02e+01	58	41	0	440926208	52	6340
2026-01-21 19:26:58.85	292.24	9.36	-39.3	-40.6	27.5	3.02e+01	59	41	0	443023360	52	6532
2026-01-21 19:26:59.86	292.09	9.31	-39.4	-40.8	27.3	3.02e+01	46	41	0	445120512	52	6667
2026-01-21 19:27:00.87	291.93	9.25	-39.4	-40.8	27.2	3.02e+01	60	41	0	446693376	52	6656
2026-01-21 19:27:01.88	291.78	9.19	-39.6	-40.9	27.0	3.02e+01	59	41	0	448790528	52	6765
2026-01-21 19:27:02.89	291.62	9.13	-39.5	-40.9	27.1	3.02e+01	50	41	0	450887680	52	6757
2026-01-21 19:27:03.90	291.47	9.07	-39.6	-40.9	27.2	3.02e+01	59	41	0	452460544	52	6775
2026-01-21 19:27:04.91	291.31	9.01	-39.1	-40.4	27.6	3.02e+01	60	41	0	454557696	52	6386
2026-01-21 19:27:05.92	291.16	8.96	-39.3	-40.6	27.5	3.02e+01	59	41	0	456130560	52	6514
2026-01-21 19:27:06.93	291.01	8.90	-39.5	-40.8	27.2	3.02e+01	57	41	0	458227712	52	6722
2026-01-21 19:27:07.94	290.86	8.84	-39.8	-41.1	27.0	3.02e+01	44	41	0	460324864	52	6939
2026-01-21 19:27:08.95	290.71	8.78	-39.5	-40.9	27.1	3.02e+01	55	41	0	461897728	52	6730
2026-01-21 19:27:09.96	290.56	8.72	-39.6	-41.0	27.1	3.02e+01	60	41	0	463994880	52	6814
2026-01-21 19:27:10.97	290.41	8.66	-39.4	-40.7	27.2	3.02e+01	46	41	0	465567744	52	6630
2026-01-21 19:27:11.98	290.26	8.60	-39.5	-40.8	27.2	3.02e+01	61	41	0	467664896	52	6699
2026-01-21 19:27:12.99	290.12	8.55	-39.9	-41.2	26.7	3.02e+01	60	41	0	469762048	52	7042
2026-01-21 19:27:14.00	289.97	8.49	-39.8	-41.2	26.8	3.02e+01	58	41	0	471334912	54	6226
2026-01-21 19:27:15.01	289.82	8.43	-39.6	-41.0	27.0	3.02e+01	60	41	0	473432064	54	6074
2026-01-21 19:27:16.02	289.68	8.37	-39.4	-40.8	27.2	3.02e+01	60	41	0	475529216	54	5927
2026-01-21 19:27:17.03	289.53	8.31	-39.4	-40.7	27.2	3.02e+01	59	41	0	477102080	54	5926
2026-01-21 19:27:18.04	289.39	8.25	-39.6	-41.0	27.0	3.02e+01	58	41	0	479199232	54	6067
2026-01-21 19:27:19.05	289.24	8.20	-39.7	-41.1	26.9	3.02e+01	57	41	0	480772096	54	6176
2026-01-21 19:27:20.06	289.10	8.14	-39.7	-41.1	26.9	3.02e+01	59	41	0	482869248	54	6159
2026-01-21 19:27:21.07	288.96	8.08	-39.8	-41.2	26.7	3.02e+01	45	41	0	484966400	54	6216
2026-01-21 19:27:22.08	288.82	8.02	-39.7	-41.0	26.9	3.02e+01	59	41	0	486539264	54	6122
2026-01-21 19:27:23.09	288.68	7.96	-39.6	-41.0	27.0	3.02e+01	59	41	0	488636416	54	6066
2026-01-21 19:27:24.10	288.54	7.90	-39.7	-41.0	26.9	3.02e+01	39	41	0	490209280	54	6113
2026-01-21 19:27:25.11	288.40	7.84	-39.5	-40.8	27.1	3.02e+01	58	41	0	492306432	54	5985
2026-01-21 19:27:26.12	288.26	7.78	-40.0	-41.3	26.7	3.02e+01	58	41	0	494403584	54	6335
2026-01-21 19:27:27.13	288.12	7.73	-40.0	-41.4	26.5	3.02e+01	59	41	0	495976448	54	6372
2026-01-21 19:27:28.14	287.98	7.67	-40.3	-41.7	26.3	3.02e+01	59	41	0	498073600	54	6595
2026-01-21 19:27:29.15	287.84	7.61	-39.8	-41.1	26.8	3.02e+01	46	41	0	499646464	54	6192
2026-01-21 19:27:30.16	287.71	7.55	-39.8	-41.2	26.7	3.02e+01	56	41	0	501743616	54	6236
2026-01-21 19:27:31.17	287.57	7.49	-39.7	-41.1	26.8	3.02e+01	59	41	0	503840768	54	6170
2026-01-21 19:27:32.18	287.43	7.43	-39.9	-41.2	26.8	3.02e+01	47	41	0	505413632	54	6270
2026-01-21 19:27:33.19	287.30	7.37	-39.9	-41.3	26.8	3.02e+01	61	41	0	507510784	54	6282
2026-01-21 19:27:34.20	287.16	7.32	-39.9	-41.3	26.7	3.02e+01	55	41	0	509083648	54	6279
2026-01-21 19:27:35.21	287.03	7.26	-39.8	-41.2	26.6	3.02e+01	60	41	0	511180800	54	6238
2026-01-21 19:27:36.22	286.90	7.20	-40.1	-41.5	26.4	3.02e+01	59	41	0	513277952	54	6449
2026-01-21 19:27:37.23	286.76	7.14	-39.8	-41.2	26.7	3.02e+01	51	41	0	514850816	54	6212
2026-01-21 19:27:38.24	286.63	7.08	-40.0	-41.4	26.5	3.02e+01	61	41	0	516947968	54	6351
2026-01-21 19:27:39.26	286.50	7.02	-40.0	-41.3	26.6	3.02e+01	59	41	0	519045120	54	6343
2026-01-21 19:27:40.27	286.37	6.96	-40.0	-41.4	26.4	3.02e+01	50	41	0	520617984	54	6376
2026-01-21 19:27:41.28	286.24	6.91	-40.1	-41.5	26.4	3.02e+01	61	41	0	522715136	54	6484
2026-01-21 19:27:42.29	286.11	6.85	-40.1	-41.5	26.3	3.02e+01	64	41	0	524288000	54	6460
2026-01-21 19:27:43.29	285.98	6.79	-40.2	-41.6	26.3	3.02e+01	55	41	0	526385152	54	6560
2026-01-21 19:27:44.31	285.85	6.73	-40.2	-41.6	26.2	3.02e+01	61	41	0	528482304	54	6571
2026-01-21 19:27:45.32	285.72	6.67	-40.1	-41.6	26.3	3.02e+01	45	41	0	530055168	54	6502
2026-01-21 19:27:46.33	285.60	6.61	-40.3	-41.7	26.1	3.02e+01	49	41	0	532152320	54	6588
2026-01-21 19:27:47.34	285.47	6.55	-40.0	-41.3	26.5	3.02e+01	58	41	0	533725184	54	6348
2026-01-21 19:27:48.35	285.34	6.50	-39.9	-41.3	26.6	3.02e+01	44	41	0	535822336	54	6290
2026-01-21 19:27:49.35	285.22	6.44	-40.0	-41.3	26.5	3.02e+01	61	41	0	537919488	54	6330
2026-01-21 19:27:50.36	285.09	6.38	-39.8	-41.2	26.7	3.02e+01	58	41	0	539492352	54	6226
2026-01-21 19:27:51.37	284.97	6.32	-39.9	-41.3	26.6	3.02e+01	61	41	0	541589504	54	6319
2026-01-21 19:27:52.38	284.85	6.26	-40.1	-41.5	26.3	3.02e+01	58	41	0	543686656	54	6457
2026-01-21 19:27:53.39	284.72	6.21	-40.2	-41.6	26.2	3.02e+01	56	41	0	545259520	54	6550
2026-01-21 19:27:54.40	284.60	6.15	-40.3	-41.8	26.0	3.02e+01	58	41	0	547356672	54	6663
2026-01-21 19:27:55.41	284.48	6.09	-40.4	-41.8	26.0	3.02e+01	59	41	0	548929536	54	6679
2026-01-21 19:27:56.42	284.35	6.03	-40.3	-41.7	26.1	3.02e+01	59	41	0	551026688	54	6597
2026-01-21 19:27:57.43	284.23	5.97	-40.3	-41.7	26.1	3.02e+01	61	41	0	553123840	54	6627
2026-01-21 19:27:58.44	284.11	5.91	-40.4	-41.8	26.0	3.02e+01	49	41	0	554696704	54	6673
2026-01-21 19:27:59.45	283.99	5.86	-40.1	-41.5	26.3	3.02e+01	58	41	0	556793856	54	6440
2026-01-21 19:28:00.46	283.87	5.80	-40.0	-41.4	26.4	3.02e+01	58	41	0	558366720	54	6384
2026-01-21 19:28:01.47	283.75	5.74	-40.3	-41.7	26.0	3.02e+01	46	41	0	560463872	54	6642
2026-01-21 19:28:02.48	283.64	5.68	-40.1	-41.5	26.2	3.02e+01	58	41	0	562561024	54	6466
2026-01-21 19:28:03.49	283.52	5.62	-40.3	-41.7	26.0	3.02e+01	60	41	0	564133888	54	6648
2026-01-21 19:28:04.50	283.40	5.57	-40.4	-41.8	25.9	3.02e+01	57	41	0	566231040	54	6714
2026-01-21 19:28:05.51	283.28	5.51	-40.3	-41.7	26.1	3.02e+01	48	41	0	567803904	54	6608
2026-01-21 19:28:06.52	283.17	5.45	-40.4	-41.9	25.9	3.02e+01	62	41	0	569901056	54	6746
2026-01-21 19:28:07.53	283.05	5.39	-40.6	-42.0	25.7	3.02e+01	58	41	0	571998208	54	6867
2026-01-21 19:28:08.54	282.93	5.34	-40.5	-41.9	25.9	3.02e+01	59	41	0	573571072	54	6761
2026-01-21 19:28:09.55	282.82	5.28	-40.3	-41.7	26.1	3.02e+01	45	41	0	575668224	54	6617
2026-01-21 19:28:10.56	282.70	5.22	-40.1	-41.6	26.1	3.02e+01	59	41	0	577241088	54	6513
2026-01-21 19:28:11.57	282.59	5.16	-40.3	-41.7	25.9	3.02e+01	60	41	0	579338240	54	6646
2026-01-21 19:28:12.58	282.48	5.11	-40.6	-42.1	25.6	3.02e+01	60	41	0	581435392	54	6908
2026-01-21 19:28:13.59	282.36	5.05	-40.5	-41.9	25.7	3.02e+01	58	41	0	583008256	54	6792
2026-01-21 19:28:14.60	282.25	4.99	-40.3	-41.7	25.9	3.02e+01	62	41	0	585105408	54	6626
2026-01-21 19:28:15.61	282.14	4.93	-40.6	-42.0	25.6	3.02e+01	58	41	0	586678272	54	6874
2026-01-21 19:28:16.62	282.03	4.88	-40.5	-42.0	25.7	3.02e+01	60	41	0	588775424	54	6832
2026-01-21 19:28:17.63	281.92	4.82	-40.6	-42.0	25.7	3.02e+01	45	41	0	590872576	54	6866
2026-01-21 19:28:18.64	281.81	4.76	-41.3	-42.9	24.9	3.02e+01	59	41	0	592445440	56	6764
2026-01-21 19:28:19.65	281.70	4.70	-40.6	-42.0	25.7	3.02e+01	58	41	0	594542592	56	6112
2026-01-21 19:28:20.66	281.59	4.65	-41.0	-42.5	25.2	3.02e+01	60	41	0	596639744	56	6484
2026-01-21 19:28:21.67	281.48	4.59	-40.8	-42.3	25.4	3.02e+01	60	41	0	598212608	56	6317
2026-01-21 19:28:22.68	281.37	4.53	-40.8	-42.2	25.5	3.02e+01	51	41	0	600309760	56	6275
2026-01-21 19:28:23.69	281.26	4.47	-40.9	-42.4	25.1	3.02e+01	57	41	0	601882624	56	6356
2026-01-21 19:28:24.70	281.15	4.42	-41.2	-42.7	25.2	3.02e+01	61	41	0	603979776	56	6599
2026-01-21 19:28:25.71	281.05	4.36	-41.3	-42.8	24.9	3.02e+01	52	41	0	606076928	56	6708
2026-01-21 19:28:26.72	280.94	4.30	-40.9	-42.4	25.2	3.02e+01	59	41	0	607649792	56	6401
2026-01-21 19:28:27.73	280.83	4.25	-40.7	-42.1	25.5	3.02e+01	47	41	0	609746944	56	6197
2026-01-21 19:28:28.74	280.73	4.19	-41.1	-42.6	25.0	3.02e+01	59	41	0	611844096	56	6570
2026-01-21 19:28:29.75	280.62	4.13	-41.3	-42.9	24.7	3.02e+01	58	41	0	613416960	56	6762
2026-01-21 19:28:30.76	280.52	4.08	-41.0	-42.6	25.1	3.02e+01	52	41	0	615514112	56	6521
2026-01-21 19:28:31.77	280.41	4.02	-41.3	-42.9	24.7	3.02e+01	60	41	0	617086976	56	6760
2026-01-21 19:28:32.78	280.31	3.96	-41.6	-43.3	24.6	3.02e+01	60	41	0	619184128	56	7062
2026-01-21 19:28:33.79	280.21	3.91	-41.1	-42.6	24.9	3.02e+01	57	41	0	621281280	56	6538
2026-01-21 19:28:34.81	280.10	3.85	-41.8	-43.4	24.1	3.02e+01	59	41	0	622854144	58	6402
2026-01-21 19:28:35.81	280.00	3.79	-42.0	-43.7	24.0	3.02e+01	44	41	0	624951296	58	6604
2026-01-21 19:28:36.83	279.90	3.74	-41.3	-42.9	24.2	3.02e+01	60	41	0	626524160	58	6016
2026-01-21 19:28:37.84	279.80	3.68	-41.1	-42.7	24.7	3.02e+01	59	41	0	628621312	58	5907
2026-01-21 19:28:38.85	279.69	3.62	-41.2	-42.8	24.6	3.02e+01	46	41	0	630718464	58	5947
2026-01-21 19:28:39.85	279.59	3.57	-41.2	-42.8	24.7	3.02e+01	57	41	0	632291328	58	5944
2026-01-21 19:28:40.86	279.49	3.51	-41.3	-42.9	24.7	3.02e+01	60	41	0	634388480	56	6762
2026-01-21 19:28:41.88	279.39	3.45	-41.1	-42.6	24.9	3.02e+01	58	41	0	636485632	56	6556
2026-01-21 19:28:42.88	279.29	3.40	-41.6	-43.2	24.2	3.02e+01	59	41	0	638058496	56	6995
2026-01-21 19:28:43.89	279.19	3.34	-41.6	-43.3	24.2	3.02e+01	52	41	0	640155648	58	6283
2026-01-21 19:28:44.90	279.10	3.29	-41.5	-43.1	24.2	3.02e+01	59	41	0	641728512	58	6202
2026-01-21 19:28:45.91	279.00	3.23	-41.0	-42.6	24.8	3.02e+01	57	41	0	643825664	56	6548
2026-01-21 19:28:46.92	278.90	3.18	-42.0	-43.7	23.5	3.02e+01	46	41	0	645922816	56	7432
2026-01-21 19:28:47.93	278.80	3.12	-41.6	-43.3	24.0	3.02e+01	59	41	0	647495680	58	6321
2026-01-21 19:28:48.94	278.71	3.06	-41.7	-43.4	24.2	3.02e+01	59	41	0	649592832	58	6357
2026-01-21 19:28:49.95	278.61	3.01	-41.5	-43.2	24.0	3.02e+01	57	41	0	651165696	56	7003
2026-01-21 19:28:50.96	278.51	2.95	-50.4	-68.0	3.5	3.02e+01	0	41	104	652738560	60	96824
2026-01-21 19:28:51.97	278.42	2.90	-50.9	-68.6	3.5	3.02e+01	0	41	104	652738560	60	103630
2026-01-21 19:28:52.98	278.32	2.84	-51.1	-68.9	3.5	3.02e+01	0	41	104	652738560	60	107705
2026-01-21 19:28:53.99	278.23	2.79	-51.2	-69.0	3.5	3.02e+01	0	41	104	652738560	60	108949
2026-01-21 19:28:55.00	278.13	2.73	-51.4	-69.2	3.5	3.02e+01	0	41	104	652738560	60	110709
2026-01-21 19:28:56.01	278.04	2.67	-51.4	-69.2	3.5	3.02e+01	0	41	104	652738560	60	110851
2026-01-21 19:28:57.02	277.94	2.62	-51.5	-69.3	3.5	3.02e+01	0	41	104	652738560	60	111729
2026-01-21 19:28:58.03	277.85	2.56	-51.5	-69.3	3.5	3.02e+01	0	41	104	652738560	60	112724
2026-01-21 19:28:59.04	277.76	2.51	-51.5	-69.3	3.5	3.02e+01	0	41	104	652738560	60	112435
2026-01-21 19:29:00.05	277.67	2.45	-51.6	-69.3	3.5	3.02e+01	0	41	104	652738560	60	112269
2026-01-21 19:29:01.06	277.57	2.40	-51.6	-69.4	3.5	3.02e+01	0	41	104	652738560	60	113261
2026-01-21 19:29:02.06	277.48	2.34	-51.6	-69.4	3.5	3.02e+01	0	41	104	652738560	60	112994
2026-01-21 19:29:03.07	277.39	2.29	-51.6	-69.4	3.5	3.02e+01	0	41	104	652738560	60	113069
2026-01-21 19:29:04.08	277.30	2.23	-51.6	-69.3	3.5	3.02e+01	0	41	104	652738560	60	112670
2026-01-21 19:29:05.09	277.21	2.18	-51.5	-69.3	3.5	3.02e+01	0	41	104	652738560	60	112600
2026-01-21 19:29:06.10	277.12	2.12	-51.4	-69.3	3.5	3.02e+01	0	41	104	652738560	60	112485
2026-01-21 19:29:07.11	277.03	2.07	-51.4	-69.4	3.5	3.02e+01	0	41	104	652738560	60	113279
2026-01-21 19:29:08.13	276.94	2.01	-51.5	-69.4	3.5	3.02e+01	0	41	104	652738560	60	113415
2026-01-21 19:29:09.13	276.85	1.96	-51.4	-69.3	3.5	3.02e+01	0	41	104	652738560	60	112591
2026-01-21 19:29:10.14	276.76	1.90	-51.5	-69.3	3.6	3.02e+01	0	41	104	652738560	60	112070
2026-01-21 19:29:11.15	276.67	1.85	-51.5	-69.3	3.5	3.02e+01	0	41	104	652738560	60	112668
2026-01-21 19:29:12.16	276.59	1.79	-51.5	-69.4	3.5	3.02e+01	0	41	104	652738560	60	113061
2026-01-21 19:29:13.17	276.50	1.74	-51.5	-69.3	3.5	3.02e+01	0	41	104	652738560	60	112772
2026-01-21 19:29:14.18	276.41	1.69	-51.4	-69.4	3.5	3.02e+01	0	41	104	652738560	60	113131
2026-01-21 19:29:15.19	276.32	1.63	-51.4	-69.4	3.5	3.02e+01	0	41	104	652738560	60	113006
2026-01-21 19:29:16.21	276.24	1.58	-51.6	-69.4	3.5	3.02e+01	0	41	104	652738560	60	113415
2026-01-21 19:29:17.21	276.15	1.52	-51.6	-69.4	3.5	3.02e+01	0	41	104	652738560	60	112984
2026-01-21 19:29:18.23	276.06	1.47	-51.6	-69.4	3.5	3.02e+01	0	41	104	652738560	60	113008
2026-01-21 19:29:19.24	275.98	1.41	-51.6	-69.4	3.5	3.02e+01	0	41	104	652738560	60	113521
2026-01-21 19:29:20.25	275.89	1.36	-51.6	-69.4	3.5	3.02e+01	0	41	104	652738560	60	113373
2026-01-21 19:29:21.26	275.81	1.31	-51.6	-69.4	3.5	3.02e+01	0	41	104	652738560	60	112970
2026-01-21 19:29:22.27	275.72	1.25	-51.6	-69.4	3.5	3.02e+01	0	41	104	652738560	60	113913
2026-01-21 19:29:23.28	275.64	1.20	-51.6	-69.4	3.5	3.02e+01	0	41	104	652738560	60	113390
2026-01-21 19:29:24.28	275.56	1.14	-51.6	-69.5	3.5	3.02e+01	0	41	104	652738560	60	114235
2026-01-21 19:29:25.29	275.47	1.09	-51.6	-69.4	3.5	3.02e+01	0	41	104	652738560	60	113615
2026-01-21 19:29:26.30	275.39	1.04	-51.6	-69.4	3.5	3.02e+01	0	41	104	652738560	60	113499
2026-01-21 19:29:27.31	275.31	0.98	-51.6	-69.4	3.5	3.02e+01	0	41	104	652738560	60	113514
2026-01-21 19:29:28.33	275.22	0.93	-51.6	-69.4	3.5	3.02e+01	0	41	104	652738560	60	113287
2026-01-21 19:29:29.33	275.14	0.88	-51.6	-69.4	3.5	3.02e+01	0	41	104	652738560	60	113971
2026-01-21 19:29:30.34	275.06	0.82	-51.6	-69.4	3.5	3.02e+01	0	41	104	652738560	60	113173
2026-01-21 19:29:31.36	274.98	0.77	-51.6	-69.4	3.5	3.02e+01	0	41	104	652738560	60	113444
2026-01-21 19:29:32.37	274.90	0.71	-51.6	-69.5	3.5	3.02e+01	0	41	104	652738560	60	114524
2026-01-21 19:29:33.38	274.82	0.66	-51.6	-69.4	3.5	3.02e+01	0	41	104	652738560	60	113420
2026-01-21 19:29:34.39	274.74	0.61	-51.7	-69.5	3.5	3.02e+01	0	41	104	652738560	60	114573
2026-01-21 19:29:35.40	274.66	0.55	-51.7	-69.4	3.5	3.02e+01	0	41	104	652738560	60	114132
2026-01-21 19:29:36.41	274.58	0.50	-51.7	-69.5	3.5	3.02e+01	0	41	104	652738560	60	114515
2026-01-21 19:29:37.42	274.50	0.45	-51.7	-69.4	3.5	3.02e+01	0	41	104	652738560	60	114110
2026-01-21 19:29:38.43	274.42	0.40	-51.7	-69.5	3.5	3.02e+01	0	41	104	652738560	60	114688
2026-01-21 19:29:39.44	274.34	0.34	-51.6	-69.5	3.5	3.02e+01	0	41	104	652738560	60	114395
2026-01-21 19:29:40.45	274.26	0.29	-51.6	-69.4	3.5	3.02e+01	0	41	104	652738560	60	113499
2026-01-21 19:29:41.46	274.18	0.24	-51.6	-69.4	3.5	3.02e+01	0	41	104	652738560	60	113438
2026-01-21 19:29:42.47	274.11	0.18	-51.6	-69.4	3.5	3.02e+01	0	41	104	652738560	60	113030
2026-01-21 19:29:43.48	274.03	0.13	-51.6	-69.3	3.5	3.02e+01	0	41	104	652738560	60	112728
2026-01-21 19:29:44.49	273.95	0.08	-51.6	-69.4	3.5	3.02e+01	0	41	104	652738560	60	112988
2026-01-21 19:29:45.50	273.87	0.02	-51.6	-69.4	3.5	3.02e+01	0	41	104	652738560	60	113329
2026-01-21 19:29:46.51	273.80	-0.03	-51.6	-69.4	3.5	3.02e+01	0	41	104	652738560	60	113742
2026-01-21 19:29:47.52	273.72	-0.08	-51.7	-69.5	3.5	3.02e+01	0	41	104	652738560	60	114300

#Closed at: 2026-01-21 19:29:47
#Recorded file [652 MB]: D:/lorett/data/35029_260122_071807.dat