passes_logs/2026/01/21/R4.6S_Anadyr/R4.6S_Anadyr__20260121_024113_AQUA_rec.log

#Pass ID: 20260121_024113_AQUA
#Satellite: AQUA
#Configuration: AQUA
#almurnet v.1.7.20251203
#Start time: 2026-01-21 02:42:18

#Version: 2.2.20231116
#Station: R4.6S_Anadyr
#Location: 177.4865 lon 64.73178 lat
#TLE: 1 27424U 02022A   26020.30984080  .00001497  00000+0  30942-3 0  9998
#TLE: 2 27424  98.4092 346.8266 0001984  71.7888  69.0903 14.61835321261661

#Time	Az	El	Level	Level2	SNR	BER	BlckErr	Temp	State	Recorded	gain1	gain2
2026-01-21 02:42:18.02	177.63	4.22	-53.0	-67.9	3.5	1.51e+00	0	41	0	0	60	90065
2026-01-21 02:42:19.03	177.66	4.29	-53.9	-72.1	3.5	3.02e+01	0	41	104	0	60	155850
2026-01-21 02:42:20.04	177.70	4.36	-54.0	-71.8	3.5	3.02e+01	0	41	104	0	60	150029
2026-01-21 02:42:21.05	177.74	4.44	-54.5	-72.4	3.5	3.02e+01	0	41	104	0	60	161330
2026-01-21 02:42:22.06	177.78	4.51	-54.5	-72.4	3.5	3.02e+01	0	41	104	0	60	160394
2026-01-21 02:42:23.07	177.82	4.58	-54.4	-72.3	3.5	3.02e+01	0	42	104	0	60	157846
2026-01-21 02:42:24.08	177.86	4.65	-53.8	-71.8	3.5	3.02e+01	0	41	104	0	60	149846
2026-01-21 02:42:25.09	177.89	4.73	-54.6	-72.5	3.5	3.02e+01	0	41	104	0	60	161451
2026-01-21 02:42:26.10	177.93	4.80	-54.4	-72.3	3.5	3.02e+01	0	41	104	0	60	158095
2026-01-21 02:42:27.11	177.97	4.87	-54.4	-72.3	3.5	3.02e+01	0	41	104	0	60	158750
2026-01-21 02:42:28.12	178.01	4.95	-54.1	-72.0	3.5	3.02e+01	0	41	104	0	60	152463
2026-01-21 02:42:29.13	178.05	5.02	-54.4	-72.3	3.5	3.02e+01	0	41	104	0	60	159155
2026-01-21 02:42:30.14	178.09	5.10	-54.5	-72.3	3.5	3.02e+01	0	41	104	0	60	159457
2026-01-21 02:42:31.15	178.13	5.17	-54.6	-72.5	3.5	3.02e+01	0	41	104	0	60	162419
2026-01-21 02:42:32.16	178.17	5.24	-53.8	-71.8	3.5	3.02e+01	0	41	104	0	60	150115
2026-01-21 02:42:33.16	178.21	5.32	-54.8	-72.7	3.5	3.02e+01	0	41	104	0	60	166442
2026-01-21 02:42:34.18	178.25	5.39	-54.5	-72.6	3.5	3.02e+01	0	41	104	0	60	164376
2026-01-21 02:42:35.19	178.29	5.47	-53.6	-71.9	3.5	3.02e+01	0	41	104	0	60	150806
2026-01-21 02:42:36.20	178.34	5.55	-52.8	-71.3	3.5	3.02e+01	0	42	104	0	60	141851
2026-01-21 02:42:37.20	178.38	5.62	-53.1	-71.7	3.5	3.02e+01	0	41	104	0	60	147670
2026-01-21 02:42:38.21	178.42	5.70	-53.0	-71.3	3.5	3.02e+01	0	41	104	0	60	140584
2026-01-21 02:42:39.22	178.46	5.77	-53.8	-71.7	3.5	3.02e+01	0	41	104	0	60	148780
2026-01-21 02:42:40.23	178.50	5.85	-53.1	-71.3	3.5	3.02e+01	0	41	104	0	60	141777
2026-01-21 02:42:41.24	178.54	5.93	-51.8	-69.8	3.5	3.02e+01	0	41	104	0	60	119113
2026-01-21 02:42:42.25	178.59	6.00	-51.3	-69.2	3.5	3.02e+01	0	41	104	0	60	110931
2026-01-21 02:42:43.26	178.63	6.08	-51.3	-69.0	3.5	3.02e+01	0	41	104	0	60	108659
2026-01-21 02:42:44.27	178.67	6.16	-51.3	-69.0	3.5	3.02e+01	0	41	104	0	60	108973
2026-01-21 02:42:45.28	178.71	6.24	-51.2	-69.1	3.5	3.02e+01	0	41	104	0	60	109730
2026-01-21 02:42:46.29	178.76	6.31	-51.1	-69.0	3.5	3.02e+01	0	41	104	0	60	108832
2026-01-21 02:42:47.30	178.80	6.39	-51.0	-68.8	3.5	3.02e+01	0	41	104	0	60	106011
2026-01-21 02:42:48.31	178.85	6.47	-50.9	-68.6	3.5	3.02e+01	0	42	104	0	60	103477
2026-01-21 02:42:49.32	178.89	6.55	-51.0	-68.7	3.5	3.02e+01	0	41	104	0	60	104567
2026-01-21 02:42:50.33	178.93	6.63	-51.0	-68.7	3.5	3.02e+01	0	41	104	0	60	104905
2026-01-21 02:42:51.35	178.98	6.71	-52.4	-70.1	3.5	3.02e+01	0	41	104	0	60	123659
2026-01-21 02:42:52.36	179.02	6.79	-51.9	-69.9	3.5	3.02e+01	0	41	104	0	60	120616
2026-01-21 02:42:53.36	179.07	6.87	-51.5	-69.6	3.5	3.02e+01	0	41	104	0	60	116788
2026-01-21 02:42:54.38	179.11	6.95	-51.2	-69.2	3.5	3.02e+01	0	41	104	0	60	111047
2026-01-21 02:42:55.38	179.16	7.03	-51.1	-68.9	3.5	3.02e+01	0	41	104	0	60	107452
2026-01-21 02:42:56.40	179.20	7.11	-51.1	-68.6	3.5	3.02e+01	0	41	104	0	60	103847
2026-01-21 02:42:57.41	179.25	7.19	-50.9	-68.5	3.5	3.02e+01	0	41	104	0	60	102468
2026-01-21 02:42:58.42	179.30	7.27	-51.0	-68.6	3.5	3.02e+01	0	41	104	0	60	102997
2026-01-21 02:42:59.42	179.34	7.35	-51.0	-69.0	3.5	3.02e+01	0	41	104	0	60	108160
2026-01-21 02:43:00.44	179.39	7.43	-51.3	-69.4	3.5	3.02e+01	0	41	104	0	60	113296
2026-01-21 02:43:01.45	179.44	7.51	-51.4	-69.3	3.5	3.02e+01	0	41	104	0	60	111713
2026-01-21 02:43:02.46	179.48	7.60	-51.5	-68.5	3.5	3.02e+01	0	41	104	0	60	101879
2026-01-21 02:43:03.47	179.53	7.68	-51.5	-68.4	3.5	3.02e+01	0	41	104	0	60	101782
2026-01-21 02:43:04.48	179.58	7.76	-51.2	-68.9	3.5	3.02e+01	0	41	104	0	60	106631
2026-01-21 02:43:05.48	179.63	7.84	-51.2	-68.5	3.5	3.02e+01	0	41	104	0	60	102872
2026-01-21 02:43:06.49	179.68	7.93	-51.1	-65.9	4.3	3.02e+01	0	41	104	0	60	75695
2026-01-21 02:43:07.50	179.73	8.01	-50.9	-62.8	6.1	3.02e+01	92	41	104	0	60	52962
2026-01-21 02:43:08.51	179.77	8.10	-50.7	-61.1	6.5	3.02e+01	92	41	0	1572864	60	43522
2026-01-21 02:43:09.52	179.82	8.18	-50.7	-63.5	5.2	3.02e+01	0	41	104	2621440	60	57508
2026-01-21 02:43:10.53	179.87	8.26	-50.9	-66.6	3.8	3.02e+01	0	42	104	2621440	60	82386
2026-01-21 02:43:11.54	179.92	8.35	-49.4	-55.3	12.9	3.02e+01	92	42	0	3145728	60	22333
2026-01-21 02:43:12.55	179.97	8.43	-47.0	-50.2	18.5	3.02e+01	92	42	0	5242880	60	12405
2026-01-21 02:43:13.56	180.02	8.52	-44.1	-46.1	22.3	3.02e+01	92	41	0	7340032	60	7797
2026-01-21 02:43:14.57	180.07	8.61	-42.0	-43.5	24.9	3.02e+01	92	41	0	8912896	60	5786
2026-01-21 02:43:15.58	180.13	8.69	-40.7	-42.1	26.7	3.02e+01	92	41	0	11010048	56	6194
2026-01-21 02:43:16.59	180.18	8.78	-48.0	-51.8	15.5	3.02e+01	92	41	0	12582912	60	14953
2026-01-21 02:43:17.60	180.23	8.86	-50.9	-63.5	5.1	3.02e+01	38	41	104	13107200	60	57317
2026-01-21 02:43:18.61	180.28	8.95	-39.7	-41.0	27.3	3.02e+01	92	41	0	14155776	54	6094
2026-01-21 02:43:19.62	180.33	9.04	-46.7	-49.7	18.6	3.02e+01	92	41	0	15728640	60	11807
2026-01-21 02:43:20.62	180.38	9.13	-41.0	-42.5	25.8	3.02e+01	92	41	0	17825792	56	6451
2026-01-21 02:43:21.63	180.44	9.21	-41.8	-43.2	26.4	3.02e+01	91	41	0	19398656	60	5573
2026-01-21 02:43:22.64	180.49	9.30	-40.6	-41.9	26.9	3.02e+01	90	41	0	21495808	56	6060
2026-01-21 02:43:23.65	180.54	9.39	-40.8	-42.2	26.5	3.02e+01	92	41	0	23592960	56	6252
2026-01-21 02:43:24.66	180.60	9.48	-40.5	-41.9	26.7	3.02e+01	92	41	0	25165824	56	6060
2026-01-21 02:43:25.67	180.65	9.57	-40.6	-42.0	26.8	3.02e+01	92	41	0	27262976	56	6096
2026-01-21 02:43:26.68	180.71	9.66	-40.5	-41.9	26.8	3.02e+01	92	41	0	28835840	56	6052
2026-01-21 02:43:27.69	180.76	9.75	-40.5	-41.9	26.9	3.02e+01	90	41	0	30932992	56	5995
2026-01-21 02:43:28.70	180.82	9.84	-40.6	-41.9	27.3	3.02e+01	92	41	0	33030144	56	6040
2026-01-21 02:43:29.71	180.87	9.93	-40.7	-42.1	27.0	3.02e+01	90	41	0	34603008	56	6142
2026-01-21 02:43:30.72	180.93	10.02	-40.1	-41.5	27.1	3.02e+01	92	41	0	36700160	56	5746
2026-01-21 02:43:31.73	180.98	10.11	-40.6	-42.0	27.3	3.02e+01	92	41	0	38273024	56	6068
2026-01-21 02:43:32.74	181.04	10.20	-40.1	-41.4	27.7	3.02e+01	92	41	0	40370176	56	5714
2026-01-21 02:43:33.75	181.10	10.30	-40.6	-42.0	27.4	3.02e+01	90	41	0	42467328	56	6075
2026-01-21 02:43:34.76	181.16	10.39	-40.2	-41.5	27.6	3.02e+01	91	41	0	44040192	56	5789
2026-01-21 02:43:35.77	181.21	10.48	-40.1	-41.4	27.6	3.02e+01	91	41	0	46137344	56	5691
2026-01-21 02:43:36.78	181.27	10.58	-40.4	-41.7	27.5	3.02e+01	91	41	0	47710208	56	5894
2026-01-21 02:43:37.79	181.33	10.67	-40.7	-42.1	27.7	3.02e+01	92	41	0	49807360	56	6150
2026-01-21 02:43:38.79	181.39	10.76	-39.9	-41.2	28.1	3.02e+01	90	41	0	51904512	54	6247
2026-01-21 02:43:39.80	181.45	10.86	-40.2	-41.5	27.9	3.02e+01	91	41	0	53477376	54	6436
2026-01-21 02:43:40.81	181.51	10.95	-39.8	-41.1	27.9	3.02e+01	91	41	0	55574528	54	6160
2026-01-21 02:43:41.82	181.57	11.05	-39.9	-41.2	28.1	3.02e+01	92	41	0	57147392	54	6223
2026-01-21 02:43:42.83	181.63	11.14	-39.3	-40.6	28.3	3.02e+01	92	41	0	59244544	54	5839
2026-01-21 02:43:43.84	181.69	11.24	-39.5	-40.8	28.1	3.02e+01	89	41	0	61341696	54	5984
2026-01-21 02:43:44.85	181.75	11.33	-39.6	-40.9	28.1	3.02e+01	92	41	0	62914560	54	6019
2026-01-21 02:43:45.86	181.81	11.43	-39.8	-41.1	27.9	3.02e+01	89	41	0	65011712	54	6173
2026-01-21 02:43:46.87	181.87	11.53	-39.3	-40.6	28.3	3.02e+01	92	41	0	67108864	54	5828
2026-01-21 02:43:47.88	181.94	11.63	-40.1	-41.4	28.1	3.02e+01	92	41	0	68681728	54	6380
2026-01-21 02:43:48.89	182.00	11.72	-39.9	-41.2	28.3	3.02e+01	89	41	0	70778880	54	6253
2026-01-21 02:43:49.90	182.06	11.82	-39.6	-40.9	28.2	3.02e+01	90	41	0	72351744	54	6019
2026-01-21 02:43:50.91	182.13	11.92	-39.4	-40.7	28.2	3.02e+01	92	41	0	74448896	54	5904
2026-01-21 02:43:51.92	182.19	12.02	-40.5	-41.9	27.9	3.02e+01	89	41	0	76546048	54	6740
2026-01-21 02:43:52.93	182.25	12.12	-39.9	-41.2	28.2	3.02e+01	92	41	0	78118912	54	6230
2026-01-21 02:43:53.94	182.32	12.22	-39.9	-41.2	28.0	3.02e+01	90	41	0	80216064	54	6252
2026-01-21 02:43:54.95	182.39	12.32	-40.0	-41.2	28.2	3.02e+01	92	41	0	82313216	54	6263
2026-01-21 02:43:55.96	182.45	12.42	-39.5	-40.7	28.2	3.02e+01	92	41	0	83886080	54	5918
2026-01-21 02:43:56.97	182.52	12.52	-39.7	-41.0	27.9	3.02e+01	90	41	0	85983232	54	6091
2026-01-21 02:43:57.98	182.58	12.62	-39.6	-40.9	28.0	3.02e+01	92	41	0	87556096	54	6044
2026-01-21 02:43:58.99	182.65	12.73	-38.9	-40.2	28.4	3.02e+01	91	41	0	89653248	54	5538
2026-01-21 02:44:00.00	182.72	12.83	-39.2	-40.5	28.0	3.02e+01	92	41	0	91750400	52	6465
2026-01-21 02:44:01.01	182.79	12.93	-39.7	-41.0	28.5	3.02e+01	92	41	0	93323264	52	6825
2026-01-21 02:44:02.02	182.86	13.03	-39.8	-41.1	28.1	3.02e+01	92	41	0	95420416	54	6193
2026-01-21 02:44:03.03	182.93	13.14	-40.1	-41.5	27.5	3.02e+01	92	41	0	96993280	54	6441
2026-01-21 02:44:04.04	183.00	13.24	-39.2	-40.5	28.5	3.02e+01	92	41	0	99090432	54	5747
2026-01-21 02:44:05.05	183.07	13.35	-39.1	-40.4	28.4	3.02e+01	91	41	0	101187584	54	5685
2026-01-21 02:44:06.05	183.14	13.45	-39.6	-40.9	28.2	3.02e+01	90	41	0	102760448	54	5997
2026-01-21 02:44:07.06	183.21	13.56	-39.7	-41.0	28.2	3.02e+01	91	41	0	104857600	54	6110
2026-01-21 02:44:08.07	183.28	13.66	-40.1	-41.4	27.9	3.02e+01	92	41	0	106430464	54	6403
2026-01-21 02:44:09.08	183.35	13.77	-39.5	-40.7	28.6	3.02e+01	92	41	0	108527616	54	5922
2026-01-21 02:44:10.09	183.42	13.88	-39.1	-40.4	28.6	3.02e+01	92	41	0	110624768	54	5676
2026-01-21 02:44:11.10	183.50	13.99	-39.5	-40.8	28.5	3.02e+01	91	41	0	112197632	54	5954
2026-01-21 02:44:12.11	183.57	14.09	-39.3	-40.6	28.5	3.02e+01	92	41	0	114294784	54	5826
2026-01-21 02:44:13.12	183.65	14.20	-39.5	-40.8	28.2	3.02e+01	92	41	0	115867648	54	5927
2026-01-21 02:44:14.13	183.72	14.31	-39.3	-40.6	28.2	3.02e+01	92	41	0	117964800	54	5822
2026-01-21 02:44:15.14	183.80	14.42	-39.7	-41.0	28.0	3.02e+01	92	41	0	120061952	54	6087
2026-01-21 02:44:16.15	183.87	14.53	-39.9	-41.2	28.1	3.02e+01	92	41	0	121634816	54	6223
2026-01-21 02:44:17.16	183.95	14.64	-39.4	-40.7	28.2	3.02e+01	91	41	0	123731968	54	5899
2026-01-21 02:44:18.17	184.03	14.76	-39.0	-40.3	28.5	3.02e+01	92	41	0	125304832	54	5620
2026-01-21 02:44:19.18	184.11	14.87	-39.3	-40.6	28.4	3.02e+01	92	41	0	127401984	54	5806
2026-01-21 02:44:20.19	184.18	14.98	-39.6	-40.9	28.2	3.02e+01	91	41	0	129499136	54	6021
2026-01-21 02:44:21.20	184.26	15.09	-39.0	-40.3	28.7	3.02e+01	92	41	0	131072000	54	5615
2026-01-21 02:44:22.21	184.34	15.21	-38.8	-40.0	28.8	3.02e+01	92	41	0	133169152	52	6121
2026-01-21 02:44:23.22	184.42	15.32	-38.8	-40.1	28.9	3.02e+01	92	41	0	135266304	52	6146
2026-01-21 02:44:24.23	184.51	15.43	-38.8	-40.0	29.0	3.02e+01	92	41	0	136839168	52	6121
2026-01-21 02:44:25.24	184.59	15.55	-38.8	-40.0	28.8	3.02e+01	92	41	0	138936320	52	6092
2026-01-21 02:44:26.25	184.67	15.67	-38.8	-40.0	29.0	3.02e+01	92	41	0	140509184	52	6078
2026-01-21 02:44:27.26	184.75	15.78	-38.5	-39.8	28.9	3.02e+01	92	41	0	142606336	52	5930
2026-01-21 02:44:28.27	184.84	15.90	-38.5	-39.7	29.1	3.02e+01	92	41	0	144703488	52	5869
2026-01-21 02:44:29.28	184.92	16.02	-38.4	-39.6	29.1	3.02e+01	92	41	0	146276352	52	5847
2026-01-21 02:44:30.29	185.00	16.13	-38.4	-39.6	29.0	3.02e+01	92	41	0	148373504	52	5834
2026-01-21 02:44:31.29	185.09	16.25	-38.4	-39.7	29.0	3.02e+01	92	41	0	150470656	52	5862
2026-01-21 02:44:32.31	185.18	16.37	-38.3	-39.6	28.9	3.02e+01	92	41	0	152043520	52	5800
2026-01-21 02:44:33.32	185.26	16.49	-38.2	-39.4	29.1	3.02e+01	92	41	0	154140672	52	5695
2026-01-21 02:44:34.33	185.35	16.61	-38.5	-39.7	29.1	3.02e+01	92	41	0	155713536	52	5913
2026-01-21 02:44:35.34	185.44	16.73	-38.8	-40.1	28.9	3.02e+01	90	41	0	157810688	52	6143
2026-01-21 02:44:36.34	185.53	16.85	-39.0	-40.2	28.9	3.02e+01	92	41	0	159907840	52	6248
2026-01-21 02:44:37.35	185.62	16.97	-38.8	-40.1	29.0	3.02e+01	91	41	0	161480704	52	6153
2026-01-21 02:44:38.36	185.71	17.10	-38.4	-39.6	29.3	3.02e+01	90	41	0	163577856	52	5852
2026-01-21 02:44:39.36	185.80	17.22	-38.3	-39.5	29.0	3.02e+01	92	41	0	165150720	52	5750
2026-01-21 02:44:40.37	185.89	17.34	-38.6	-39.9	29.2	3.02e+01	92	41	0	167247872	52	6007
2026-01-21 02:44:41.38	185.98	17.47	-38.3	-39.6	29.3	3.02e+01	92	41	0	169345024	52	5802
2026-01-21 02:44:42.40	186.08	17.59	-38.2	-39.4	29.3	3.02e+01	92	41	0	170917888	52	5701
2026-01-21 02:44:43.40	186.17	17.72	-38.4	-39.6	29.1	3.02e+01	91	41	0	173015040	52	5822
2026-01-21 02:44:44.41	186.27	17.84	-38.3	-39.5	29.1	3.02e+01	90	41	0	174587904	52	5761
2026-01-21 02:44:45.42	186.36	17.97	-38.9	-40.1	28.7	3.02e+01	92	41	0	176685056	52	6201
2026-01-21 02:44:46.43	186.46	18.10	-39.8	-41.1	28.6	3.02e+01	90	41	0	178782208	54	6154
2026-01-21 02:44:47.44	186.56	18.23	-39.5	-40.7	28.7	3.02e+01	92	41	0	180355072	54	5923
2026-01-21 02:44:48.45	186.66	18.36	-39.0	-40.2	29.1	3.02e+01	86	41	0	182452224	52	6259
2026-01-21 02:44:49.46	186.76	18.49	-38.8	-40.1	29.0	3.02e+01	90	41	0	184025088	52	6167
2026-01-21 02:44:50.46	186.86	18.62	-38.8	-40.0	28.9	3.02e+01	90	41	0	186122240	52	6127
2026-01-21 02:44:51.48	186.96	18.75	-39.3	-40.5	29.0	3.02e+01	92	41	0	188219392	52	6481
2026-01-21 02:44:52.49	187.06	18.88	-39.2	-40.5	29.1	3.02e+01	92	41	0	189792256	52	6456
2026-01-21 02:44:53.50	187.16	19.01	-39.1	-40.4	29.0	3.02e+01	91	41	0	191889408	52	6362
2026-01-21 02:44:54.51	187.27	19.15	-38.5	-39.8	29.3	3.02e+01	91	41	0	193462272	52	5945
2026-01-21 02:44:55.52	187.37	19.28	-38.4	-39.7	29.1	3.02e+01	89	41	0	195559424	52	5878
2026-01-21 02:44:56.52	187.48	19.41	-39.0	-40.2	28.8	3.02e+01	92	41	0	197656576	52	6263
2026-01-21 02:44:57.53	187.58	19.55	-39.7	-41.0	28.9	3.02e+01	92	41	0	199229440	52	6825
2026-01-21 02:44:58.54	187.69	19.68	-39.4	-40.6	29.0	3.02e+01	92	41	0	201326592	52	6564
2026-01-21 02:44:59.55	187.80	19.82	-39.1	-40.3	29.3	3.02e+01	92	41	0	203423744	52	6331
2026-01-21 02:45:00.56	187.91	19.96	-39.3	-40.5	29.2	3.02e+01	90	41	0	204996608	52	6460
2026-01-21 02:45:01.57	188.02	20.10	-39.3	-40.6	29.4	3.02e+01	92	41	0	207093760	52	6514
2026-01-21 02:45:02.58	188.13	20.24	-39.4	-40.6	29.3	3.02e+01	92	41	0	208666624	52	6566
2026-01-21 02:45:03.59	188.24	20.38	-39.0	-40.3	29.2	3.02e+01	92	41	0	210763776	52	6303
2026-01-21 02:45:04.60	188.36	20.52	-39.0	-40.3	28.9	3.02e+01	92	41	0	212860928	52	6302
2026-01-21 02:45:05.61	188.47	20.66	-39.2	-40.5	28.7	3.02e+01	90	41	0	214433792	52	6456
2026-01-21 02:45:06.62	188.59	20.80	-39.8	-41.1	28.7	3.02e+01	91	41	0	216530944	52	6905
2026-01-21 02:45:07.63	188.71	20.94	-39.2	-40.5	28.9	3.02e+01	92	41	0	218103808	54	5730
2026-01-21 02:45:08.64	188.82	21.08	-38.9	-40.2	29.2	3.02e+01	92	41	0	220200960	52	6225
2026-01-21 02:45:09.65	188.94	21.23	-39.1	-40.3	28.9	3.02e+01	92	41	0	222298112	52	6321
2026-01-21 02:45:10.65	189.06	21.37	-39.0	-40.3	29.2	3.02e+01	92	41	0	223870976	52	6300
2026-01-21 02:45:11.66	189.18	21.52	-39.4	-40.7	29.2	3.02e+01	92	41	0	225968128	52	6578
2026-01-21 02:45:12.67	189.31	21.67	-38.9	-40.2	29.2	3.02e+01	92	41	0	227540992	52	6227
2026-01-21 02:45:13.68	189.43	21.81	-39.1	-40.3	29.2	3.02e+01	92	41	0	229638144	52	6339
2026-01-21 02:45:14.69	189.56	21.96	-39.1	-40.4	29.1	3.02e+01	90	41	0	231735296	52	6383
2026-01-21 02:45:15.71	189.68	22.11	-39.7	-40.9	29.0	3.02e+01	92	41	0	233308160	52	6791
2026-01-21 02:45:16.72	189.81	22.26	-39.4	-40.6	29.0	3.02e+01	92	41	0	235405312	52	6559
2026-01-21 02:45:17.73	189.94	22.41	-40.2	-41.5	26.5	3.02e+01	92	41	0	236978176	52	7233
2026-01-21 02:45:18.74	190.07	22.56	-39.6	-40.8	29.0	3.02e+01	92	41	0	239075328	54	5983
2026-01-21 02:45:19.75	190.20	22.72	-39.3	-40.6	29.0	3.02e+01	92	41	0	241172480	54	5810
2026-01-21 02:45:20.76	190.33	22.87	-39.3	-40.6	29.0	3.02e+01	90	41	0	242745344	54	5809
2026-01-21 02:45:21.77	190.47	23.02	-39.5	-40.7	29.0	3.02e+01	92	41	0	244842496	54	5887
2026-01-21 02:45:22.78	190.60	23.18	-39.8	-41.1	28.9	3.02e+01	91	41	0	246939648	54	6166
2026-01-21 02:45:23.79	190.74	23.34	-40.2	-41.5	28.9	3.02e+01	92	41	0	248512512	54	6447
2026-01-21 02:45:24.80	190.88	23.49	-39.6	-40.8	28.9	3.02e+01	92	41	0	250609664	54	5980
2026-01-21 02:45:25.81	191.02	23.65	-39.7	-41.0	29.1	3.02e+01	92	41	0	252182528	54	6067
2026-01-21 02:45:26.81	191.16	23.81	-39.5	-40.8	28.9	3.02e+01	86	41	0	254279680	54	5932
2026-01-21 02:45:27.82	191.30	23.97	-39.3	-40.5	29.0	3.02e+01	91	41	0	256376832	54	5769
2026-01-21 02:45:28.83	191.44	24.13	-39.3	-40.5	29.0	3.02e+01	91	41	0	257949696	54	5757
2026-01-21 02:45:29.84	191.59	24.29	-39.7	-40.9	28.9	3.02e+01	92	41	0	260046848	54	6060
2026-01-21 02:45:30.85	191.73	24.45	-39.4	-40.7	28.9	3.02e+01	92	41	0	262144000	54	5874
2026-01-21 02:45:31.86	191.88	24.61	-40.0	-41.2	28.7	3.02e+01	92	41	0	263716864	54	6256
2026-01-21 02:45:32.87	192.03	24.78	-39.9	-41.2	28.8	3.02e+01	92	41	0	265814016	54	6232
2026-01-21 02:45:33.88	192.18	24.94	-39.8	-41.1	28.6	3.02e+01	91	41	0	267386880	54	6137
2026-01-21 02:45:34.89	192.34	25.11	-40.3	-41.6	28.9	3.02e+01	92	41	0	269484032	54	6521
2026-01-21 02:45:35.90	192.49	25.27	-40.5	-41.7	28.9	3.02e+01	92	41	0	271581184	54	6649
2026-01-21 02:45:36.91	192.65	25.44	-40.2	-41.5	28.8	3.02e+01	92	41	0	273154048	54	6451
2026-01-21 02:45:37.92	192.81	25.61	-40.5	-41.8	28.6	3.02e+01	92	41	0	275251200	54	6650
2026-01-21 02:45:38.93	192.97	25.78	-40.5	-41.8	28.4	3.02e+01	91	41	0	276824064	54	6655
2026-01-21 02:45:39.94	193.13	25.95	-40.7	-42.1	28.2	3.02e+01	92	41	0	278921216	54	6888
2026-01-21 02:45:40.95	193.29	26.12	-40.3	-41.5	28.3	3.02e+01	92	41	0	281018368	54	6482
2026-01-21 02:45:41.96	193.46	26.29	-40.1	-41.3	28.8	3.02e+01	92	41	0	282591232	56	5656
2026-01-21 02:45:42.97	193.62	26.47	-40.1	-41.3	28.9	3.02e+01	92	41	0	284688384	54	6318
2026-01-21 02:45:43.98	193.79	26.64	-40.3	-41.6	28.9	3.02e+01	92	41	0	286261248	54	6507
2026-01-21 02:45:44.98	193.96	26.81	-40.8	-42.1	28.9	3.02e+01	92	41	0	288358400	54	6901
2026-01-21 02:45:45.99	194.13	26.99	-39.7	-41.0	29.4	3.02e+01	92	41	0	290455552	54	6069
2026-01-21 02:45:47.00	194.31	27.17	-39.6	-40.8	29.4	3.02e+01	92	41	0	292028416	54	5979
2026-01-21 02:45:48.01	194.49	27.35	-39.7	-40.9	29.3	3.02e+01	89	41	0	294125568	54	6028
2026-01-21 02:45:49.02	194.66	27.52	-39.8	-41.0	29.2	3.02e+01	91	41	0	295698432	54	6111
2026-01-21 02:45:50.03	194.85	27.70	-40.3	-41.6	28.9	3.02e+01	91	41	0	297795584	54	6517
2026-01-21 02:45:51.04	195.03	27.89	-40.8	-42.1	28.5	3.02e+01	91	41	0	299892736	54	6923
2026-01-21 02:45:52.05	195.21	28.07	-40.5	-41.7	29.1	3.02e+01	92	41	0	301465600	56	5899
2026-01-21 02:45:53.06	195.40	28.25	-39.7	-40.9	29.2	3.02e+01	91	41	0	303562752	54	6034
2026-01-21 02:45:54.07	195.59	28.43	-39.2	-40.4	29.2	3.02e+01	92	42	0	305135616	54	5713
2026-01-21 02:45:55.08	195.78	28.62	-39.9	-41.2	28.9	3.02e+01	90	41	0	307232768	54	6210
2026-01-21 02:45:56.09	195.97	28.81	-39.4	-40.6	29.4	3.02e+01	90	41	0	309329920	54	5824
2026-01-21 02:45:57.10	196.17	28.99	-39.6	-40.9	29.3	3.02e+01	91	41	0	310902784	54	6005
2026-01-21 02:45:58.11	196.37	29.18	-39.8	-41.0	29.2	3.02e+01	91	41	0	312999936	54	6082
2026-01-21 02:45:59.11	196.57	29.37	-39.4	-40.6	29.0	3.02e+01	91	41	0	315097088	54	5856
2026-01-21 02:46:00.12	196.77	29.56	-38.8	-40.0	29.2	3.02e+01	91	41	0	316669952	52	6134
2026-01-21 02:46:01.13	196.97	29.75	-39.2	-40.4	29.4	3.02e+01	91	41	0	318767104	52	6378
2026-01-21 02:46:02.14	197.18	29.94	-39.4	-40.6	29.3	3.02e+01	92	41	0	320339968	52	6524
2026-01-21 02:46:03.15	197.39	30.13	-39.1	-40.4	29.3	3.02e+01	92	41	0	322437120	52	6356
2026-01-21 02:46:04.16	197.61	30.33	-39.4	-40.6	29.2	3.02e+01	92	41	0	324534272	52	6513
2026-01-21 02:46:05.17	197.82	30.52	-39.0	-40.2	29.3	3.02e+01	92	41	0	326107136	52	6233
2026-01-21 02:46:06.18	198.04	30.72	-38.5	-39.7	29.5	3.02e+01	90	41	0	328204288	52	5873
2026-01-21 02:46:07.19	198.26	30.91	-39.6	-40.8	29.3	3.02e+01	92	41	0	329777152	52	6720
2026-01-21 02:46:08.20	198.48	31.11	-39.8	-41.0	29.2	3.02e+01	89	41	0	331874304	54	6103
2026-01-21 02:46:09.21	198.71	31.31	-40.0	-41.2	29.2	3.02e+01	92	41	0	333971456	54	6251
2026-01-21 02:46:10.22	198.94	31.51	-40.9	-42.2	28.7	3.02e+01	90	42	0	335544320	54	7018
2026-01-21 02:46:11.23	199.17	31.71	-41.0	-42.2	28.9	3.02e+01	92	41	0	337641472	56	6243
2026-01-21 02:46:12.24	199.41	31.91	-41.3	-42.5	28.9	3.02e+01	92	41	0	339738624	54	7255
2026-01-21 02:46:13.25	199.64	32.12	-39.8	-41.0	29.0	3.02e+01	92	41	0	341311488	56	5420
2026-01-21 02:46:14.26	199.88	32.32	-40.3	-41.6	29.0	3.02e+01	90	41	0	343408640	56	5797
2026-01-21 02:46:15.27	200.13	32.52	-40.1	-41.3	29.1	3.02e+01	92	41	0	344981504	56	5608
2026-01-21 02:46:16.28	200.38	32.73	-40.2	-41.4	29.2	3.02e+01	92	42	0	347078656	54	6369
2026-01-21 02:46:17.29	200.63	32.94	-40.3	-41.5	29.0	3.02e+01	93	41	0	349175808	54	6451
2026-01-21 02:46:18.30	200.88	33.14	-40.1	-41.4	28.7	3.02e+01	92	41	0	350748672	54	6352
2026-01-21 02:46:19.31	201.14	33.35	-39.5	-40.8	28.8	3.02e+01	92	41	0	352845824	54	5952
2026-01-21 02:46:20.32	201.40	33.56	-39.7	-40.9	28.8	3.02e+01	92	41	0	354418688	54	6020
2026-01-21 02:46:21.33	201.66	33.77	-40.4	-41.6	28.7	3.02e+01	92	41	0	356515840	54	6528
2026-01-21 02:46:22.34	201.93	33.98	-40.4	-41.6	28.5	3.02e+01	89	41	0	358612992	54	6545
2026-01-21 02:46:23.35	202.20	34.19	-41.0	-42.3	28.4	3.02e+01	92	41	0	360185856	56	6307
2026-01-21 02:46:24.36	202.47	34.41	-41.0	-42.2	28.2	3.02e+01	90	41	0	362283008	56	6269
2026-01-21 02:46:25.37	202.75	34.62	-40.6	-41.9	28.2	3.02e+01	92	41	0	363855872	56	6011
2026-01-21 02:46:26.38	203.03	34.84	-41.2	-42.5	27.8	3.02e+01	91	41	0	365953024	56	6430
2026-01-21 02:46:27.39	203.32	35.05	-41.0	-42.3	27.8	3.02e+01	92	41	0	368050176	56	6284
2026-01-21 02:46:28.40	203.60	35.27	-39.6	-40.8	28.5	3.02e+01	92	41	0	369623040	54	5987
2026-01-21 02:46:29.41	203.90	35.48	-39.6	-40.8	28.4	3.02e+01	90	41	0	371720192	54	5977
2026-01-21 02:46:30.42	204.19	35.70	-40.7	-42.0	28.0	3.02e+01	91	41	0	373293056	54	6842
2026-01-21 02:46:31.43	204.50	35.92	-40.2	-41.4	28.3	3.02e+01	92	41	0	375390208	54	6390
2026-01-21 02:46:32.44	204.80	36.14	-40.1	-41.4	28.2	3.02e+01	92	41	0	377487360	54	6372
2026-01-21 02:46:33.45	205.11	36.36	-40.1	-41.4	28.2	3.02e+01	92	41	0	379060224	54	6363
2026-01-21 02:46:34.46	205.42	36.58	-41.3	-42.6	27.8	3.02e+01	92	41	0	381157376	56	6561
2026-01-21 02:46:35.46	205.74	36.80	-40.6	-41.8	28.2	3.02e+01	90	41	0	383254528	56	5988
2026-01-21 02:46:36.47	206.06	37.02	-41.0	-42.3	27.8	3.02e+01	89	41	0	384827392	56	6318
2026-01-21 02:46:37.48	206.39	37.24	-41.6	-42.9	28.1	3.02e+01	92	41	0	386924544	56	6739
2026-01-21 02:46:38.49	206.72	37.46	-40.8	-42.0	28.2	3.02e+01	92	41	0	388497408	56	6114
2026-01-21 02:46:39.50	207.05	37.69	-40.8	-42.1	28.1	3.02e+01	92	41	0	390594560	56	6169
2026-01-21 02:46:40.51	207.39	37.91	-41.8	-43.1	28.2	3.02e+01	90	41	0	392691712	58	6185
2026-01-21 02:46:41.52	207.74	38.13	-40.8	-42.1	28.3	3.02e+01	92	42	0	394264576	56	6152
2026-01-21 02:46:42.53	208.09	38.36	-41.2	-42.5	27.9	3.02e+01	87	41	0	396361728	56	6476
2026-01-21 02:46:43.54	208.44	38.58	-41.5	-42.8	27.4	3.02e+01	92	41	0	397934592	56	6679
2026-01-21 02:46:44.55	208.80	38.81	-42.0	-43.2	28.1	3.02e+01	91	42	0	400031744	58	6276
2026-01-21 02:46:45.56	209.17	39.04	-41.2	-42.4	28.4	3.02e+01	90	41	0	402128896	58	5698
2026-01-21 02:46:46.57	209.54	39.26	-41.5	-42.8	28.3	3.02e+01	91	42	0	403701760	56	6670
2026-01-21 02:46:47.58	209.91	39.49	-42.4	-43.6	27.5	3.02e+01	89	41	0	405798912	60	5823
2026-01-21 02:46:48.59	210.29	39.72	-42.8	-44.1	27.6	3.02e+01	91	41	0	407896064	60	6146
2026-01-21 02:46:49.60	210.68	39.94	-41.5	-42.8	28.4	3.02e+01	91	42	0	409468928	58	5937
2026-01-21 02:46:50.61	211.07	40.17	-42.0	-43.3	27.2	3.02e+01	92	42	0	411566080	58	6291
2026-01-21 02:46:51.62	211.46	40.40	-41.6	-42.9	28.1	3.02e+01	91	42	0	413138944	58	5997
2026-01-21 02:46:52.63	211.87	40.62	-40.5	-41.7	28.7	3.02e+01	92	41	0	415236096	56	5908
2026-01-21 02:46:53.64	212.27	40.85	-40.1	-41.3	28.9	3.02e+01	92	42	0	417333248	54	6304
2026-01-21 02:46:54.65	212.69	41.08	-40.7	-42.0	29.0	3.02e+01	92	41	0	418906112	54	6805
2026-01-21 02:46:55.66	213.11	41.30	-41.4	-42.6	28.9	3.02e+01	92	41	0	421003264	58	5814
2026-01-21 02:46:56.67	213.53	41.53	-40.6	-41.8	29.3	3.02e+01	92	41	0	422576128	56	5946
2026-01-21 02:46:57.68	213.96	41.76	-40.8	-42.0	28.8	3.02e+01	92	41	0	424673280	56	6120
2026-01-21 02:46:58.69	214.40	41.98	-40.5	-41.6	29.4	3.02e+01	92	41	0	426770432	56	5856
2026-01-21 02:46:59.70	214.85	42.21	-40.0	-41.1	29.6	3.02e+01	90	41	0	428343296	56	5515
2026-01-21 02:47:00.71	215.30	42.43	-39.7	-40.9	29.5	3.02e+01	92	41	0	430440448	54	6045
2026-01-21 02:47:01.72	215.75	42.66	-39.4	-40.6	29.7	3.02e+01	90	41	0	432013312	54	5835
2026-01-21 02:47:02.73	216.21	42.88	-40.0	-41.2	29.7	3.02e+01	92	41	0	434110464	54	6242
2026-01-21 02:47:03.74	216.68	43.11	-40.1	-41.3	30.0	3.02e+01	90	42	0	436207616	54	6307
2026-01-21 02:47:04.74	217.16	43.33	-40.2	-41.4	29.6	3.02e+01	92	41	0	437780480	54	6368
2026-01-21 02:47:05.75	217.64	43.55	-40.3	-41.5	29.8	3.02e+01	90	42	0	439877632	54	6464
2026-01-21 02:47:06.76	218.13	43.77	-40.4	-41.6	30.1	3.02e+01	90	41	0	441450496	54	6528
2026-01-21 02:47:07.77	218.62	43.99	-39.6	-40.7	30.0	3.02e+01	92	41	0	443547648	54	5905
2026-01-21 02:47:08.79	219.13	44.21	-39.7	-40.9	29.9	3.02e+01	90	42	0	445644800	54	5999
2026-01-21 02:47:09.79	219.64	44.43	-39.6	-40.7	29.8	3.02e+01	92	42	0	447217664	54	5922
2026-01-21 02:47:10.80	220.15	44.64	-39.9	-41.1	30.0	3.02e+01	92	42	0	449314816	54	6140
2026-01-21 02:47:11.81	220.68	44.86	-40.6	-41.9	29.3	3.02e+01	92	41	0	451411968	56	6005
2026-01-21 02:47:12.83	221.21	45.07	-39.8	-41.0	29.8	3.02e+01	92	42	0	452984832	54	6102
2026-01-21 02:47:13.84	221.75	45.29	-39.9	-41.1	29.8	3.02e+01	90	42	0	455081984	54	6167
2026-01-21 02:47:14.85	222.30	45.50	-39.4	-40.5	30.0	3.02e+01	90	42	0	456654848	54	5779
2026-01-21 02:47:15.86	222.85	45.71	-38.8	-39.9	29.9	3.02e+01	91	42	0	458752000	52	6062
2026-01-21 02:47:16.87	223.41	45.91	-38.9	-40.1	30.0	3.02e+01	90	41	0	460849152	52	6154
2026-01-21 02:47:17.87	223.98	46.12	-38.4	-39.5	30.2	3.02e+01	92	41	0	462422016	52	5781
2026-01-21 02:47:18.89	224.56	46.32	-39.1	-40.3	30.0	3.02e+01	92	42	0	464519168	52	6300
2026-01-21 02:47:19.89	225.13	46.52	-39.3	-40.4	30.0	3.02e+01	91	42	0	466092032	52	6421
2026-01-21 02:47:20.90	225.72	46.72	-39.2	-40.4	30.2	3.02e+01	92	41	0	468189184	52	6366
2026-01-21 02:47:21.91	226.32	46.92	-39.5	-40.7	29.7	3.02e+01	90	42	0	470286336	52	6627
2026-01-21 02:47:22.92	226.93	47.11	-40.0	-41.2	29.9	3.02e+01	89	42	0	471859200	52	7041
2026-01-21 02:47:23.93	227.54	47.31	-38.9	-40.1	30.2	3.02e+01	89	41	0	473956352	52	6160
2026-01-21 02:47:24.94	228.16	47.50	-38.6	-39.8	29.7	3.02e+01	89	41	0	476053504	52	5982
2026-01-21 02:47:25.95	228.79	47.68	-42.1	-43.4	27.4	3.02e+01	92	41	0	477626368	56	7182
2026-01-21 02:47:26.96	229.42	47.87	-40.9	-42.2	29.7	3.02e+01	92	41	0	479723520	52	7817
2026-01-21 02:47:27.97	230.07	48.05	-40.3	-41.5	29.8	3.02e+01	91	41	0	481296384	56	5747
2026-01-21 02:47:28.98	230.72	48.23	-39.7	-40.9	29.7	3.02e+01	92	41	0	483393536	54	6004
2026-01-21 02:47:29.99	231.38	48.40	-38.9	-40.1	29.9	3.02e+01	92	42	0	485490688	54	5505
2026-01-21 02:47:30.99	232.03	48.57	-39.2	-40.4	29.7	3.02e+01	92	42	0	487063552	52	6390
2026-01-21 02:47:32.00	232.71	48.74	-39.8	-41.0	29.3	3.02e+01	92	42	0	489160704	52	6865
2026-01-21 02:47:33.01	233.39	48.90	-39.4	-40.5	29.6	3.02e+01	92	42	0	490733568	52	6489
2026-01-21 02:47:34.02	234.08	49.06	-39.3	-40.5	29.6	3.02e+01	92	42	0	492830720	52	6454
2026-01-21 02:47:35.03	234.77	49.22	-39.4	-40.5	29.8	3.02e+01	92	42	0	494403584	52	6488
2026-01-21 02:47:36.04	235.47	49.37	-39.4	-40.6	29.7	3.02e+01	92	41	0	496500736	52	6500
2026-01-21 02:47:37.05	236.18	49.52	-39.6	-40.8	29.4	3.02e+01	92	42	0	498597888	52	6659
2026-01-21 02:47:38.06	236.90	49.67	-39.1	-40.3	29.6	3.02e+01	92	42	0	500170752	52	6289
2026-01-21 02:47:39.07	237.62	49.81	-40.9	-42.1	29.2	3.02e+01	90	42	0	502267904	54	6903
2026-01-21 02:47:40.08	238.35	49.95	-41.4	-42.7	28.6	3.02e+01	90	41	0	504365056	54	7408
2026-01-21 02:47:41.09	239.08	50.08	-40.4	-41.6	28.3	3.02e+01	91	42	0	505937920	58	5210
2026-01-21 02:47:42.10	239.83	50.21	-41.0	-42.2	29.0	3.02e+01	91	42	0	508035072	54	6996
2026-01-21 02:47:43.11	240.57	50.33	-41.3	-42.5	29.3	3.02e+01	92	42	0	509607936	56	6437
2026-01-21 02:47:44.12	241.33	50.45	-40.8	-42.0	29.4	3.02e+01	91	42	0	511705088	56	6065
2026-01-21 02:47:45.13	242.09	50.56	-42.3	-43.6	28.3	3.02e+01	92	42	0	513802240	60	5801
2026-01-21 02:47:46.14	242.85	50.67	-41.0	-42.1	24.9	3.02e+01	90	42	0	515375104	60	4927
2026-01-21 02:47:47.15	243.62	50.78	-42.5	-43.8	24.4	3.02e+01	86	42	0	517472256	56	7500
2026-01-21 02:47:48.16	244.40	50.87	-40.1	-41.2	29.5	3.02e+01	92	42	0	519569408	56	5585
2026-01-21 02:47:49.17	245.18	50.97	-40.4	-41.6	29.3	3.02e+01	91	42	0	521142272	54	6560
2026-01-21 02:47:50.18	245.97	51.06	-41.0	-42.2	29.4	3.02e+01	87	42	0	523239424	56	6206
2026-01-21 02:47:51.19	246.76	51.14	-40.2	-41.4	29.3	3.02e+01	92	42	0	524812288	56	5706
2026-01-21 02:47:52.20	247.55	51.22	-40.7	-41.9	29.4	3.02e+01	90	42	0	526909440	56	6011
2026-01-21 02:47:53.21	248.35	51.29	-40.3	-41.5	29.3	3.02e+01	92	42	0	529006592	56	5775
2026-01-21 02:47:54.21	249.14	51.35	-40.7	-41.9	29.0	3.02e+01	92	42	0	530579456	56	6026
2026-01-21 02:47:55.22	249.95	51.41	-40.2	-41.4	29.3	3.02e+01	90	42	0	532676608	56	5710
2026-01-21 02:47:56.23	250.76	51.47	-41.1	-42.3	29.1	3.02e+01	92	42	0	534249472	56	6312
2026-01-21 02:47:57.25	251.58	51.52	-40.3	-41.5	29.3	3.02e+01	92	41	0	536346624	56	5791
2026-01-21 02:47:58.25	252.38	51.56	-40.4	-41.6	29.3	3.02e+01	92	42	0	538443776	56	5825
2026-01-21 02:47:59.27	253.21	51.60	-40.4	-41.6	29.4	3.02e+01	92	42	0	540016640	54	6522
2026-01-21 02:48:00.27	254.01	51.63	-40.9	-42.1	29.1	3.02e+01	92	41	0	542113792	54	6948
2026-01-21 02:48:01.28	254.83	51.65	-41.4	-42.5	25.8	3.02e+01	92	41	0	544210944	60	5155
2026-01-21 02:48:02.29	255.65	51.67	-41.0	-42.1	29.0	3.02e+01	92	42	0	545783808	56	6196
2026-01-21 02:48:03.31	256.48	51.69	-40.5	-41.7	29.1	3.02e+01	90	41	0	547880960	56	5893
2026-01-21 02:48:04.31	257.30	51.69	-41.6	-42.8	28.4	3.02e+01	92	41	0	549453824	56	6681
2026-01-21 02:48:05.32	258.12	51.70	-41.3	-42.5	29.0	3.02e+01	92	42	0	551550976	56	6451
2026-01-21 02:48:06.33	258.94	51.69	-41.4	-42.6	29.2	3.02e+01	92	41	0	553648128	58	5831
2026-01-21 02:48:07.34	259.76	51.68	-41.2	-42.4	29.1	3.02e+01	92	41	0	555220992	56	6390
2026-01-21 02:48:08.35	260.58	51.66	-40.5	-41.7	29.2	3.02e+01	91	42	0	557318144	54	6632
2026-01-21 02:48:09.36	261.40	51.64	-41.0	-42.3	29.1	3.02e+01	86	42	0	558891008	56	6283
2026-01-21 02:48:10.37	262.22	51.61	-40.6	-41.9	29.4	3.02e+01	89	42	0	560988160	56	5998
2026-01-21 02:48:11.38	263.04	51.58	-40.7	-42.0	29.1	3.02e+01	90	42	0	563085312	56	6072
2026-01-21 02:48:12.39	263.85	51.54	-40.9	-42.1	29.4	3.02e+01	90	42	0	564658176	56	6187
2026-01-21 02:48:13.40	264.67	51.49	-41.5	-42.7	28.5	3.02e+01	92	42	0	566755328	56	6640
2026-01-21 02:48:14.41	265.48	51.44	-40.8	-42.0	29.3	3.02e+01	90	42	0	568328192	56	6070
2026-01-21 02:48:15.42	266.28	51.38	-41.5	-42.7	29.2	3.02e+01	91	42	0	570425344	56	6638
2026-01-21 02:48:16.43	267.09	51.32	-41.5	-42.7	29.1	3.02e+01	90	41	0	572522496	56	6616
2026-01-21 02:48:17.44	267.88	51.25	-41.2	-42.5	29.1	3.02e+01	92	41	0	574095360	56	6432
2026-01-21 02:48:18.45	268.68	51.18	-41.4	-42.6	29.1	3.02e+01	92	42	0	576192512	56	6542
2026-01-21 02:48:19.46	269.47	51.10	-41.3	-42.5	28.9	3.02e+01	92	41	0	577765376	56	6480
2026-01-21 02:48:20.47	270.26	51.01	-41.2	-42.4	28.6	3.02e+01	92	41	0	579862528	56	6410
2026-01-21 02:48:21.48	271.04	50.92	-42.1	-43.3	28.4	3.02e+01	90	41	0	581959680	58	6348
2026-01-21 02:48:22.49	271.82	50.83	-40.8	-42.0	29.0	3.02e+01	92	42	0	583532544	56	6078
2026-01-21 02:48:23.50	272.59	50.73	-40.6	-41.9	28.9	3.02e+01	90	42	0	585629696	56	6004
2026-01-21 02:48:24.51	273.36	50.62	-40.2	-41.4	28.7	3.02e+01	92	42	0	587726848	56	5705
2026-01-21 02:48:25.52	274.12	50.51	-40.8	-42.1	28.6	3.02e+01	90	42	0	589299712	56	6158
2026-01-21 02:48:26.53	274.88	50.39	-40.3	-41.5	29.1	3.02e+01	90	42	0	591396864	56	5774
2026-01-21 02:48:27.54	275.63	50.27	-40.8	-42.0	28.7	3.02e+01	92	42	0	592969728	56	6095
2026-01-21 02:48:28.54	276.36	50.15	-40.4	-41.6	28.5	3.02e+01	92	42	0	595066880	56	5851
2026-01-21 02:48:29.55	277.10	50.02	-40.4	-41.7	28.5	3.02e+01	91	42	0	597164032	56	5895
2026-01-21 02:48:30.56	277.83	49.88	-40.4	-41.6	28.6	3.02e+01	92	42	0	598736896	56	5848
2026-01-21 02:48:31.57	278.56	49.75	-42.1	-43.4	27.6	3.02e+01	92	42	0	600834048	58	6387
2026-01-21 02:48:32.58	279.28	49.60	-44.5	-46.0	25.4	3.02e+01	89	42	0	602406912	60	7697
2026-01-21 02:48:33.59	279.99	49.46	-43.0	-44.3	27.9	3.02e+01	92	42	0	604504064	60	6295
2026-01-21 02:48:34.60	280.69	49.31	-42.1	-43.4	28.1	3.02e+01	92	42	0	606601216	58	6403
2026-01-21 02:48:35.61	281.39	49.15	-42.6	-43.9	27.6	3.02e+01	92	42	0	608174080	58	6800
2026-01-21 02:48:36.62	282.08	48.99	-42.0	-43.3	27.7	3.02e+01	92	42	0	610271232	58	6304
2026-01-21 02:48:37.63	282.76	48.83	-41.5	-42.8	28.0	3.02e+01	92	42	0	611844096	58	5982
2026-01-21 02:48:38.64	283.44	48.66	-41.2	-42.6	27.7	3.02e+01	92	42	0	613941248	58	5793
2026-01-21 02:48:39.65	284.11	48.49	-40.9	-42.2	28.7	3.02e+01	92	42	0	616038400	56	6207
2026-01-21 02:48:40.66	284.77	48.32	-41.6	-42.9	28.1	3.02e+01	90	41	0	617611264	56	6750
2026-01-21 02:48:41.67	285.42	48.15	-42.3	-43.6	27.9	3.02e+01	92	42	0	619708416	58	6562
2026-01-21 02:48:42.68	286.07	47.97	-41.0	-42.3	28.8	3.02e+01	92	42	0	621281280	56	6284
2026-01-21 02:48:43.69	286.70	47.78	-40.4	-41.7	28.9	3.02e+01	92	42	0	623378432	56	5884
2026-01-21 02:48:44.70	287.33	47.60	-39.8	-41.0	28.9	3.02e+01	92	42	0	625475584	56	5465
2026-01-21 02:48:45.71	287.96	47.41	-39.4	-40.7	29.0	3.02e+01	92	42	0	627048448	54	5868
2026-01-21 02:48:46.72	288.57	47.22	-39.8	-41.0	28.9	3.02e+01	92	42	0	629145600	54	6097
2026-01-21 02:48:47.72	289.18	47.03	-39.6	-40.8	29.0	3.02e+01	92	42	0	630718464	54	5972
2026-01-21 02:48:48.73	289.78	46.84	-40.3	-41.5	28.9	3.02e+01	92	42	0	632815616	54	6475
2026-01-21 02:48:49.74	290.37	46.64	-40.2	-41.4	29.2	3.02e+01	92	42	0	634912768	54	6360
2026-01-21 02:48:50.75	290.95	46.44	-40.9	-42.2	28.9	3.02e+01	92	42	0	636485632	56	6208
2026-01-21 02:48:51.76	291.53	46.24	-40.5	-41.8	29.1	3.02e+01	91	42	0	638582784	56	5940
2026-01-21 02:48:52.77	292.10	46.03	-40.2	-41.4	29.2	3.02e+01	91	42	0	640679936	56	5716
2026-01-21 02:48:53.78	292.67	45.83	-43.2	-44.6	26.5	3.02e+01	92	42	0	642252800	58	7350
2026-01-21 02:48:54.79	293.22	45.62	-42.5	-43.7	28.2	3.02e+01	92	42	0	644349952	60	5915
2026-01-21 02:48:55.79	293.76	45.41	-41.4	-42.6	28.8	3.02e+01	92	42	0	645922816	58	5831
2026-01-21 02:48:56.80	294.31	45.20	-41.2	-42.5	29.0	3.02e+01	92	42	0	648019968	56	6437
2026-01-21 02:48:57.81	294.84	44.99	-40.9	-42.1	29.3	3.02e+01	92	42	0	650117120	56	6190
2026-01-21 02:48:58.82	295.37	44.78	-40.8	-42.1	28.9	3.02e+01	92	42	0	651689984	56	6149
2026-01-21 02:48:59.83	295.89	44.56	-40.9	-42.1	28.9	3.02e+01	91	42	0	653787136	56	6189
2026-01-21 02:49:00.84	296.40	44.34	-40.4	-41.6	29.1	3.02e+01	92	42	0	655884288	56	5844
2026-01-21 02:49:01.85	296.91	44.13	-40.9	-42.1	28.9	3.02e+01	92	42	0	657457152	56	6200
2026-01-21 02:49:02.86	297.40	43.91	-40.1	-41.3	29.0	3.02e+01	91	42	0	659554304	56	5621
2026-01-21 02:49:03.87	297.90	43.69	-39.5	-40.7	29.3	3.02e+01	90	42	0	661127168	54	5887
2026-01-21 02:49:04.88	298.38	43.47	-39.3	-40.5	29.2	3.02e+01	92	42	0	663224320	54	5788
2026-01-21 02:49:05.89	298.86	43.25	-40.6	-41.9	29.1	3.02e+01	89	42	0	665321472	56	6005
2026-01-21 02:49:06.90	299.33	43.02	-41.3	-42.5	29.2	3.02e+01	89	42	0	666894336	56	6495
2026-01-21 02:49:07.90	299.79	42.80	-40.5	-41.7	29.1	3.02e+01	91	42	0	668991488	56	5914
2026-01-21 02:49:08.91	300.25	42.58	-41.0	-42.3	28.7	3.02e+01	90	42	0	670564352	56	6297
2026-01-21 02:49:09.92	300.70	42.36	-40.5	-41.7	28.7	3.02e+01	92	42	0	672661504	56	5899
2026-01-21 02:49:10.93	301.15	42.13	-41.1	-42.3	28.9	3.02e+01	92	42	0	674234368	56	6333
2026-01-21 02:49:11.94	301.59	41.91	-41.4	-42.6	29.0	3.02e+01	92	42	0	676331520	56	6526
2026-01-21 02:49:12.95	302.02	41.68	-41.0	-42.3	28.5	3.02e+01	92	42	0	678428672	56	6289
2026-01-21 02:49:13.96	302.45	41.46	-40.6	-41.8	28.7	3.02e+01	92	42	0	680001536	56	5985
2026-01-21 02:49:14.97	302.87	41.23	-40.8	-42.0	29.0	3.02e+01	92	42	0	682098688	56	6129
2026-01-21 02:49:15.98	303.29	41.01	-40.8	-42.0	28.7	3.02e+01	90	42	0	684195840	56	6111
2026-01-21 02:49:16.99	303.70	40.78	-41.0	-42.2	28.4	3.02e+01	92	42	0	685768704	56	6264
2026-01-21 02:49:18.00	304.10	40.55	-41.4	-42.7	28.2	3.02e+01	92	42	0	687865856	56	6607
2026-01-21 02:49:19.01	304.50	40.33	-41.0	-42.3	28.5	3.02e+01	92	42	0	689438720	56	6293
2026-01-21 02:49:20.02	304.90	40.10	-40.6	-41.9	28.5	3.02e+01	89	42	0	691535872	56	6033
2026-01-21 02:49:21.02	305.28	39.88	-40.5	-41.7	28.8	3.02e+01	92	42	0	693633024	56	5904
2026-01-21 02:49:22.03	305.66	39.65	-40.9	-42.1	28.7	3.02e+01	92	42	0	695205888	56	6204
2026-01-21 02:49:23.04	306.04	39.43	-40.8	-42.1	28.7	3.02e+01	92	42	0	697303040	56	6157
2026-01-21 02:49:24.05	306.41	39.20	-40.7	-42.0	28.6	3.02e+01	89	42	0	698875904	56	6069
2026-01-21 02:49:25.06	306.78	38.98	-40.3	-41.5	28.9	3.02e+01	92	42	0	700973056	56	5750
2026-01-21 02:49:26.07	307.14	38.75	-40.9	-42.2	28.6	3.02e+01	90	42	0	703070208	56	6232
2026-01-21 02:49:27.08	307.50	38.53	-41.2	-42.4	28.7	3.02e+01	90	42	0	704643072	56	6387
2026-01-21 02:49:28.09	307.85	38.30	-41.3	-42.6	28.3	3.02e+01	91	41	0	706740224	56	6501
2026-01-21 02:49:29.10	308.19	38.08	-41.1	-42.4	28.7	3.02e+01	88	42	0	708837376	56	6388
2026-01-21 02:49:30.11	308.54	37.86	-40.8	-42.1	28.8	3.02e+01	91	42	0	710410240	56	6140
2026-01-21 02:49:31.12	308.87	37.64	-40.5	-41.7	28.9	3.02e+01	92	42	0	712507392	56	5908
2026-01-21 02:49:32.13	309.21	37.41	-41.0	-42.2	29.3	3.02e+01	90	42	0	714080256	56	6222
2026-01-21 02:49:33.13	309.53	37.19	-40.6	-41.9	28.7	3.02e+01	92	42	0	716177408	56	6008
2026-01-21 02:49:34.14	309.86	36.97	-40.1	-41.4	29.0	3.02e+01	92	42	0	718274560	56	5670
2026-01-21 02:49:35.15	310.17	36.75	-39.3	-40.5	29.3	3.02e+01	92	42	0	719847424	54	5762
2026-01-21 02:49:36.16	310.49	36.53	-38.7	-39.9	29.5	3.02e+01	90	42	0	721944576	52	6050
2026-01-21 02:49:37.17	310.80	36.31	-38.4	-39.6	29.7	3.02e+01	92	42	0	723517440	52	5793
2026-01-21 02:49:38.18	311.11	36.10	-39.2	-40.4	29.7	3.02e+01	92	42	0	725614592	52	6382
2026-01-21 02:49:39.19	311.41	35.88	-39.6	-40.8	29.8	3.02e+01	92	42	0	727711744	52	6673
2026-01-21 02:49:40.20	311.71	35.66	-39.2	-40.4	29.8	3.02e+01	92	42	0	729284608	52	6412
2026-01-21 02:49:41.21	312.00	35.45	-39.2	-40.4	29.6	3.02e+01	92	42	0	731381760	52	6386
2026-01-21 02:49:42.22	312.29	35.23	-39.0	-40.2	29.9	3.02e+01	92	41	0	732954624	52	6213
2026-01-21 02:49:43.23	312.58	35.02	-39.0	-40.2	30.1	3.02e+01	58	42	0	735051776	52	6255
2026-01-21 02:49:44.24	312.86	34.80	-39.0	-40.2	30.0	3.02e+01	61	42	0	737148928	52	6227
2026-01-21 02:49:45.25	313.14	34.59	-39.0	-40.1	30.0	3.02e+01	46	41	0	738721792	52	6199
2026-01-21 02:49:46.26	313.42	34.38	-38.9	-40.1	30.0	3.02e+01	58	42	0	740818944	52	6160
2026-01-21 02:49:47.27	313.69	34.16	-39.0	-40.2	30.2	3.02e+01	61	42	0	742391808	52	6232
2026-01-21 02:49:48.27	313.96	33.96	-39.1	-40.3	30.3	3.02e+01	57	42	0	744488960	52	6282
2026-01-21 02:49:49.29	314.22	33.74	-39.0	-40.2	30.3	3.02e+01	56	41	0	746586112	52	6229
2026-01-21 02:49:50.29	314.48	33.54	-39.0	-40.1	30.4	3.02e+01	48	42	0	748158976	52	6197
2026-01-21 02:49:51.30	314.74	33.33	-39.3	-40.5	30.1	3.02e+01	61	42	0	750256128	52	6457
2026-01-21 02:49:52.31	315.00	33.12	-39.0	-40.2	30.2	3.02e+01	60	42	0	752353280	52	6230
2026-01-21 02:49:53.32	315.25	32.92	-38.8	-40.0	30.2	3.02e+01	54	42	0	753926144	52	6087
2026-01-21 02:49:54.33	315.50	32.71	-38.1	-39.3	30.5	3.02e+01	61	41	0	756023296	52	5622
2026-01-21 02:49:55.34	315.74	32.51	-38.3	-39.4	30.5	3.02e+01	58	42	0	757596160	52	5723
2026-01-21 02:49:56.35	315.98	32.31	-38.3	-39.5	30.5	3.02e+01	61	41	0	759693312	50	6430
2026-01-21 02:49:57.36	316.22	32.10	-38.7	-39.8	30.8	3.02e+01	63	42	0	761790464	50	6707
2026-01-21 02:49:58.37	316.46	31.90	-38.8	-39.9	30.3	3.02e+01	48	42	0	763363328	52	6041
2026-01-21 02:49:59.38	316.69	31.70	-38.8	-39.9	30.4	3.02e+01	60	42	0	765460480	52	6056
2026-01-21 02:50:00.39	316.92	31.50	-38.6	-39.7	30.5	3.02e+01	60	42	0	767033344	52	5908
2026-01-21 02:50:01.39	317.15	31.31	-38.4	-39.5	30.4	3.02e+01	44	41	0	769130496	52	5782
2026-01-21 02:50:02.40	317.37	31.11	-38.5	-39.7	30.5	3.02e+01	59	41	0	771227648	52	5874
2026-01-21 02:50:03.41	317.60	30.91	-38.8	-40.0	30.4	3.02e+01	57	42	0	772800512	52	6104
2026-01-21 02:50:04.42	317.82	30.72	-38.7	-39.9	30.4	3.02e+01	60	42	0	774897664	52	6008
2026-01-21 02:50:05.43	318.03	30.52	-38.3	-39.5	30.2	3.02e+01	60	41	0	776470528	52	5774
2026-01-21 02:50:06.44	318.25	30.33	-39.0	-40.2	29.6	3.02e+01	53	42	0	778567680	52	6214
2026-01-21 02:50:07.45	318.46	30.14	-38.8	-40.0	30.1	3.02e+01	59	42	0	780664832	52	6115
2026-01-21 02:50:08.46	318.67	29.94	-38.8	-40.0	30.1	3.02e+01	60	41	0	782237696	52	6077
2026-01-21 02:50:09.47	318.87	29.75	-38.5	-39.7	30.1	3.02e+01	54	41	0	784334848	52	5880
2026-01-21 02:50:10.47	319.08	29.57	-38.8	-40.0	30.0	3.02e+01	60	41	0	785907712	52	6073
2026-01-21 02:50:11.48	319.28	29.38	-39.1	-40.3	29.9	3.02e+01	44	41	0	788004864	52	6278
2026-01-21 02:50:12.49	319.48	29.19	-38.3	-39.5	30.4	3.02e+01	56	41	0	790102016	52	5760
2026-01-21 02:50:13.50	319.67	29.00	-38.4	-39.6	30.2	3.02e+01	59	41	0	791674880	52	5796
2026-01-21 02:50:14.51	319.87	28.82	-38.4	-39.6	30.2	3.02e+01	51	41	0	793772032	52	5808
2026-01-21 02:50:15.52	320.06	28.63	-38.6	-39.8	30.3	3.02e+01	59	41	0	795344896	52	5929
2026-01-21 02:50:16.53	320.25	28.45	-38.6	-39.8	30.2	3.02e+01	60	42	0	797442048	52	5955
2026-01-21 02:50:17.54	320.44	28.27	-38.3	-39.5	30.2	3.02e+01	58	41	0	799539200	52	5744
2026-01-21 02:50:18.55	320.63	28.08	-38.1	-39.2	30.2	3.02e+01	59	42	0	801112064	52	5580
2026-01-21 02:50:19.56	320.81	27.90	-37.8	-39.0	30.3	3.02e+01	58	41	0	803209216	52	5423
2026-01-21 02:50:20.57	320.99	27.72	-38.7	-39.9	30.1	3.02e+01	59	41	0	805306368	50	6742
2026-01-21 02:50:21.58	321.17	27.55	-39.1	-40.2	30.1	3.02e+01	58	41	0	806879232	52	6257
2026-01-21 02:50:22.59	321.35	27.37	-39.0	-40.2	30.0	3.02e+01	50	41	0	808976384	52	6231
2026-01-21 02:50:23.59	321.52	27.19	-39.4	-40.6	29.9	3.02e+01	59	42	0	810549248	52	6513
2026-01-21 02:50:24.60	321.70	27.02	-39.8	-41.0	29.8	3.02e+01	59	42	0	812646400	54	6080
2026-01-21 02:50:25.61	321.87	26.84	-39.5	-40.7	29.6	3.02e+01	61	42	0	814743552	54	5876
2026-01-21 02:50:26.62	322.04	26.67	-39.4	-40.6	29.7	3.02e+01	60	41	0	816316416	54	5831
2026-01-21 02:50:27.63	322.21	26.49	-39.2	-40.4	29.9	3.02e+01	57	42	0	818413568	54	5716
2026-01-21 02:50:28.64	322.37	26.32	-39.8	-41.0	29.5	3.02e+01	63	41	0	820510720	54	6107
2026-01-21 02:50:29.65	322.54	26.15	-39.1	-40.3	29.8	3.02e+01	53	41	0	822083584	54	5595
2026-01-21 02:50:30.66	322.70	25.98	-38.9	-40.2	29.5	3.02e+01	49	41	0	824180736	52	6206
2026-01-21 02:50:31.67	322.86	25.81	-39.7	-40.9	29.6	3.02e+01	59	42	0	825753600	54	6051
2026-01-21 02:50:32.68	323.02	25.64	-39.8	-41.0	29.5	3.02e+01	57	41	0	827850752	54	6106
2026-01-21 02:50:33.69	323.18	25.48	-39.7	-40.8	29.7	3.02e+01	59	41	0	829947904	54	5993
2026-01-21 02:50:34.70	323.33	25.31	-41.1	-42.4	26.8	3.02e+01	59	41	0	831520768	54	7126
2026-01-21 02:50:35.71	323.49	25.14	-40.1	-41.3	29.5	3.02e+01	45	41	0	833617920	56	5614
2026-01-21 02:50:36.71	323.64	24.98	-39.9	-41.1	29.6	3.02e+01	57	41	0	835190784	54	6159
2026-01-21 02:50:37.73	323.79	24.82	-39.9	-41.1	29.7	3.02e+01	59	41	0	837287936	54	6138
2026-01-21 02:50:38.74	323.94	24.65	-39.8	-41.0	29.5	3.02e+01	47	41	0	839385088	54	6128
2026-01-21 02:50:39.75	324.09	24.49	-39.5	-40.7	29.4	3.02e+01	59	41	0	840957952	54	5890
2026-01-21 02:50:40.76	324.23	24.33	-39.3	-40.5	29.4	3.02e+01	52	41	0	843055104	54	5731
2026-01-21 02:50:41.77	324.38	24.17	-39.2	-40.4	29.4	3.02e+01	62	41	0	844627968	54	5670
2026-01-21 02:50:42.77	324.52	24.01	-40.0	-41.2	29.5	3.02e+01	61	41	0	846725120	54	6237
2026-01-21 02:50:43.78	324.66	23.85	-39.9	-41.2	29.5	3.02e+01	52	41	0	848822272	54	6206
2026-01-21 02:50:44.79	324.80	23.70	-40.4	-41.6	29.1	3.02e+01	61	41	0	850395136	54	6557
2026-01-21 02:50:45.80	324.94	23.54	-40.3	-41.5	29.2	3.02e+01	59	41	0	852492288	54	6471
2026-01-21 02:50:46.81	325.08	23.39	-39.9	-41.1	29.3	3.02e+01	57	41	0	854065152	54	6187
2026-01-21 02:50:47.82	325.22	23.23	-40.3	-41.5	28.7	3.02e+01	60	41	0	856162304	58	5142
2026-01-21 02:50:48.83	325.35	23.08	-40.1	-41.4	29.3	3.02e+01	48	41	0	858259456	54	6360
2026-01-21 02:50:49.84	325.49	22.92	-39.5	-40.7	29.5	3.02e+01	60	41	0	859832320	54	5860
2026-01-21 02:50:50.85	325.62	22.77	-40.4	-41.6	29.1	3.02e+01	57	41	0	861929472	54	6533
2026-01-21 02:50:51.86	325.75	22.62	-39.7	-40.9	29.5	3.02e+01	44	41	0	863502336	54	6026
2026-01-21 02:50:52.87	325.88	22.47	-38.9	-40.1	29.6	3.02e+01	58	41	0	865599488	54	5475
2026-01-21 02:50:53.88	326.01	22.32	-38.7	-39.9	29.7	3.02e+01	58	41	0	867696640	52	6033
2026-01-21 02:50:54.89	326.13	22.17	-38.9	-40.1	29.7	3.02e+01	59	41	0	869269504	52	6194
2026-01-21 02:50:55.90	326.26	22.02	-38.8	-39.9	29.5	3.02e+01	59	41	0	871366656	52	6064
2026-01-21 02:50:56.91	326.38	21.87	-38.7	-39.9	29.5	3.02e+01	50	41	0	873463808	52	6046
2026-01-21 02:50:57.91	326.51	21.73	-38.6	-39.8	29.5	3.02e+01	55	41	0	875036672	52	5962
2026-01-21 02:50:58.92	326.63	21.58	-39.8	-41.0	29.2	3.02e+01	59	41	0	877133824	54	6069
2026-01-21 02:50:59.93	326.75	21.44	-39.8	-41.0	29.5	3.02e+01	49	41	0	878706688	54	6134
2026-01-21 02:51:00.94	326.87	21.29	-39.6	-40.8	29.6	3.02e+01	58	41	0	880803840	54	5954
2026-01-21 02:51:01.95	326.99	21.15	-39.7	-40.9	29.7	3.02e+01	59	41	0	882900992	54	6021
2026-01-21 02:51:02.96	327.11	21.01	-39.3	-40.5	29.8	3.02e+01	59	41	0	884473856	54	5754
2026-01-21 02:51:03.97	327.22	20.87	-39.5	-40.7	29.8	3.02e+01	59	41	0	886571008	54	5904
2026-01-21 02:51:04.98	327.34	20.73	-39.6	-40.8	29.5	3.02e+01	53	41	0	888668160	54	5959
2026-01-21 02:51:05.99	327.45	20.59	-39.6	-40.8	29.7	3.02e+01	62	41	0	890241024	54	5964
2026-01-21 02:51:07.00	327.57	20.45	-39.5	-40.6	29.8	3.02e+01	59	41	0	892338176	54	5851
2026-01-21 02:51:08.01	327.68	20.31	-39.3	-40.5	29.5	3.02e+01	40	41	0	893911040	54	5737
2026-01-21 02:51:09.02	327.79	20.17	-39.1	-40.3	29.5	3.02e+01	59	41	0	896008192	54	5632
2026-01-21 02:51:10.03	327.90	20.03	-38.5	-39.7	29.9	3.02e+01	59	41	0	897581056	52	5895
2026-01-21 02:51:11.04	328.01	19.90	-38.5	-39.7	29.7	3.02e+01	59	41	0	899678208	52	5870
2026-01-21 02:51:12.05	328.12	19.76	-39.4	-40.5	29.5	3.02e+01	62	41	0	901775360	52	6493
2026-01-21 02:51:13.06	328.23	19.62	-40.5	-41.7	29.3	3.02e+01	52	41	0	903348224	56	5879
2026-01-21 02:51:14.07	328.33	19.49	-40.1	-41.3	29.6	3.02e+01	57	41	0	905445376	54	6326
2026-01-21 02:51:15.08	328.44	19.36	-39.4	-40.6	29.5	3.02e+01	62	41	0	907018240	54	5794
2026-01-21 02:51:16.09	328.55	19.22	-39.3	-40.5	29.6	3.02e+01	46	41	0	909115392	54	5755
2026-01-21 02:51:17.10	328.65	19.09	-39.2	-40.4	29.8	3.02e+01	59	41	0	911212544	54	5710
2026-01-21 02:51:18.11	328.75	18.96	-39.3	-40.5	29.7	3.02e+01	49	41	0	912785408	54	5741
2026-01-21 02:51:19.12	328.85	18.83	-39.1	-40.3	29.7	3.02e+01	58	41	0	914882560	54	5607
2026-01-21 02:51:20.13	328.95	18.70	-40.6	-41.8	29.0	3.02e+01	62	41	0	916979712	56	5960
2026-01-21 02:51:21.14	329.06	18.57	-41.2	-42.4	28.9	3.02e+01	53	41	0	918552576	56	6423
2026-01-21 02:51:22.15	329.15	18.44	-40.2	-41.4	29.5	3.02e+01	60	41	0	920649728	54	6374
2026-01-21 02:51:23.16	329.25	18.31	-40.7	-41.9	29.2	3.02e+01	57	41	0	922222592	56	6047
2026-01-21 02:51:24.16	329.35	18.18	-40.3	-41.5	29.2	3.02e+01	63	41	0	924319744	56	5736
2026-01-21 02:51:25.17	329.45	18.06	-41.1	-42.4	28.6	3.02e+01	59	41	0	926416896	56	6356
2026-01-21 02:51:26.18	329.54	17.93	-40.2	-41.4	29.2	3.02e+01	48	41	0	927989760	56	5709
2026-01-21 02:51:27.19	329.64	17.81	-40.8	-42.1	29.0	3.02e+01	54	41	0	930086912	56	6173
2026-01-21 02:51:28.20	329.73	17.68	-39.7	-40.9	29.5	3.02e+01	58	41	0	931659776	56	5354
2026-01-21 02:51:29.21	329.83	17.56	-39.4	-40.6	29.5	3.02e+01	44	41	0	933756928	54	5850
2026-01-21 02:51:30.22	329.92	17.43	-41.4	-42.6	28.6	3.02e+01	56	41	0	935854080	56	6540
2026-01-21 02:51:31.22	330.01	17.31	-41.0	-42.2	28.7	3.02e+01	59	41	0	937426944	56	6266
2026-01-21 02:51:32.23	330.10	17.19	-40.3	-41.5	29.3	3.02e+01	54	41	0	939524096	56	5777
2026-01-21 02:51:33.24	330.19	17.07	-39.6	-40.8	29.3	3.02e+01	59	41	0	941621248	54	5987
2026-01-21 02:51:34.25	330.28	16.94	-39.9	-41.1	29.4	3.02e+01	54	41	0	943194112	54	6176
2026-01-21 02:51:35.26	330.37	16.82	-40.1	-41.4	29.3	3.02e+01	59	41	0	945291264	54	6357
2026-01-21 02:51:36.27	330.46	16.70	-40.1	-41.3	29.2	3.02e+01	60	41	0	946864128	54	6299
2026-01-21 02:51:37.28	330.55	16.58	-39.9	-41.2	29.3	3.02e+01	44	41	0	948961280	54	6218
2026-01-21 02:51:38.29	330.64	16.47	-40.8	-42.1	28.5	3.02e+01	56	41	0	951058432	56	6139
2026-01-21 02:51:39.30	330.72	16.35	-42.1	-43.4	27.7	3.02e+01	61	41	0	952631296	60	5676
2026-01-21 02:51:40.31	330.81	16.23	-40.4	-41.6	29.3	3.02e+01	59	41	0	954728448	56	5798
2026-01-21 02:51:41.32	330.89	16.11	-39.9	-41.1	29.5	3.02e+01	63	41	0	956301312	54	6135
2026-01-21 02:51:42.33	330.98	16.00	-39.7	-40.9	29.6	3.02e+01	52	41	0	958398464	54	6025
2026-01-21 02:51:43.34	331.06	15.88	-39.7	-40.9	29.5	3.02e+01	61	41	0	960495616	54	6046
2026-01-21 02:51:44.34	331.14	15.77	-39.7	-40.9	29.3	3.02e+01	58	41	0	962068480	54	6059
2026-01-21 02:51:45.35	331.23	15.65	-40.2	-41.4	29.5	3.02e+01	47	41	0	964165632	54	6367
2026-01-21 02:51:46.36	331.31	15.54	-39.3	-40.4	29.6	3.02e+01	56	41	0	965738496	54	5720
2026-01-21 02:51:47.37	331.39	15.42	-39.4	-40.6	29.4	3.02e+01	61	41	0	967835648	52	6554
2026-01-21 02:51:48.38	331.47	15.31	-39.7	-40.9	29.6	3.02e+01	59	41	0	969932800	52	6761
2026-01-21 02:51:49.39	331.55	15.20	-39.6	-40.8	29.6	3.02e+01	59	41	0	971505664	52	6694
2026-01-21 02:51:50.40	331.63	15.08	-39.1	-40.3	29.4	3.02e+01	51	41	0	973602816	52	6317
2026-01-21 02:51:51.41	331.71	14.97	-39.8	-41.0	28.6	3.02e+01	58	41	0	975175680	52	6878
2026-01-21 02:51:52.42	331.79	14.86	-40.7	-41.9	29.1	3.02e+01	58	41	0	977272832	56	6028
2026-01-21 02:51:53.43	331.86	14.75	-40.6	-41.8	27.8	3.02e+01	47	41	0	979369984	56	5994
2026-01-21 02:51:54.44	331.94	14.64	-40.5	-41.8	28.7	3.02e+01	58	41	0	980942848	56	5960
2026-01-21 02:51:55.45	332.02	14.53	-39.8	-41.0	29.2	3.02e+01	46	41	0	983040000	54	6130
2026-01-21 02:51:56.46	332.09	14.42	-39.8	-41.0	29.4	3.02e+01	58	41	0	985137152	54	6078
2026-01-21 02:51:57.47	332.17	14.31	-39.8	-41.0	28.9	3.02e+01	60	41	0	986710016	54	6115
2026-01-21 02:51:58.48	332.24	14.20	-39.7	-41.0	29.1	3.02e+01	51	41	0	988807168	54	6078
2026-01-21 02:51:59.49	332.32	14.10	-39.2	-40.4	29.5	3.02e+01	58	41	0	990380032	54	5668
2026-01-21 02:52:00.49	332.39	13.99	-39.4	-40.6	29.1	3.02e+01	60	41	0	992477184	54	5858
2026-01-21 02:52:01.50	332.46	13.88	-39.7	-40.9	29.2	3.02e+01	61	41	0	994574336	54	6031
2026-01-21 02:52:02.51	332.54	13.78	-39.6	-40.8	29.5	3.02e+01	59	41	0	996147200	54	5969
2026-01-21 02:52:03.53	332.61	13.67	-39.7	-40.9	29.4	3.02e+01	45	41	0	998244352	54	6006
2026-01-21 02:52:04.53	332.68	13.57	-40.4	-41.6	29.0	3.02e+01	58	41	0	999817216	54	6562
2026-01-21 02:52:05.54	332.75	13.46	-39.9	-41.1	29.3	3.02e+01	57	41	0	1001914368	54	6203
2026-01-21 02:52:06.55	332.82	13.36	-40.2	-41.4	29.2	3.02e+01	44	41	0	1004011520	54	6421
2026-01-21 02:52:07.56	332.89	13.25	-40.0	-41.2	29.2	3.02e+01	61	41	0	1005584384	54	6267
2026-01-21 02:52:08.57	332.96	13.15	-39.7	-40.9	29.1	3.02e+01	59	41	0	1007681536	54	6022
2026-01-21 02:52:09.58	333.03	13.05	-39.9	-41.1	28.9	3.02e+01	58	41	0	1009254400	54	6192
2026-01-21 02:52:10.59	333.10	12.94	-40.5	-41.8	29.1	3.02e+01	57	41	0	1011351552	54	6654
2026-01-21 02:52:11.59	333.17	12.84	-40.2	-41.4	29.0	3.02e+01	58	41	0	1013448704	58	5049
2026-01-21 02:52:12.60	333.23	12.74	-40.8	-42.0	28.9	3.02e+01	58	41	0	1015021568	56	6114
2026-01-21 02:52:13.62	333.30	12.64	-40.6	-41.8	28.8	3.02e+01	58	41	0	1017118720	56	5953
2026-01-21 02:52:14.63	333.37	12.54	-40.8	-42.0	28.6	3.02e+01	48	41	0	1018691584	56	6109
2026-01-21 02:52:15.63	333.43	12.44	-41.2	-42.5	28.7	3.02e+01	58	41	0	1020788736	56	6429
2026-01-21 02:52:16.64	333.50	12.34	-41.2	-42.4	28.6	3.02e+01	58	41	0	1022885888	56	6411
2026-01-21 02:52:17.65	333.57	12.24	-41.4	-42.7	28.2	3.02e+01	57	41	0	1024458752	58	5894
2026-01-21 02:52:18.66	333.63	12.14	-41.6	-42.9	28.3	3.02e+01	60	41	0	1026555904	56	6774
2026-01-21 02:52:19.67	333.70	12.04	-40.6	-41.8	28.8	3.02e+01	44	41	0	1028128768	56	5991
2026-01-21 02:52:20.68	333.76	11.94	-40.8	-42.0	28.8	3.02e+01	57	41	0	1030225920	56	6114
2026-01-21 02:52:21.69	333.82	11.85	-41.1	-42.3	28.3	3.02e+01	61	41	0	1032323072	56	6331
2026-01-21 02:52:22.70	333.89	11.75	-40.7	-42.0	28.2	3.02e+01	44	41	0	1033895936	56	6070
2026-01-21 02:52:23.71	333.95	11.65	-40.3	-41.6	28.9	3.02e+01	59	41	0	1035993088	56	5805
2026-01-21 02:52:24.72	334.01	11.55	-40.8	-42.0	28.5	3.02e+01	61	41	0	1038090240	56	6112
2026-01-21 02:52:25.73	334.07	11.46	-41.0	-42.3	28.5	3.02e+01	59	41	0	1039663104	56	6322
2026-01-21 02:52:26.74	334.14	11.36	-40.4	-41.6	28.6	3.02e+01	60	41	0	1041760256	56	5846
2026-01-21 02:52:27.75	334.20	11.27	-40.6	-41.9	28.4	3.02e+01	56	41	0	1043333120	56	6005
2026-01-21 02:52:28.75	334.26	11.17	-41.2	-42.4	28.4	3.02e+01	60	41	0	1045430272	56	6390
2026-01-21 02:52:29.77	334.32	11.08	-40.5	-41.8	28.5	3.02e+01	59	41	0	1047527424	56	5931
2026-01-21 02:52:30.78	334.38	10.98	-40.4	-41.6	28.2	3.02e+01	47	41	0	1049100288	56	5852
2026-01-21 02:52:31.78	334.44	10.89	-40.0	-41.3	28.1	3.02e+01	60	41	0	1051197440	54	6305
2026-01-21 02:52:32.79	334.50	10.80	-41.2	-42.5	28.2	3.02e+01	55	41	0	1053294592	56	6432
2026-01-21 02:52:33.80	334.56	10.70	-41.8	-43.1	27.5	3.02e+01	60	41	0	1054867456	56	6951
2026-01-21 02:52:34.81	334.61	10.61	-40.7	-42.0	28.3	3.02e+01	59	41	0	1056964608	56	6084
2026-01-21 02:52:35.82	334.67	10.52	-40.2	-41.5	28.4	3.02e+01	54	41	0	1058537472	56	5760
2026-01-21 02:52:36.83	334.73	10.43	-42.1	-43.4	27.1	3.02e+01	59	41	0	1060634624	56	7193
2026-01-21 02:52:37.84	334.79	10.33	-42.0	-43.4	27.4	3.02e+01	60	41	0	1062731776	56	7149
2026-01-21 02:52:38.85	334.85	10.24	-42.0	-43.4	26.6	3.02e+01	58	41	0	1064304640	58	6369
2026-01-21 02:52:39.86	334.90	10.15	-41.7	-43.1	27.0	3.02e+01	60	41	0	1066401792	56	6912
2026-01-21 02:52:40.87	334.96	10.06	-40.5	-41.8	27.5	3.02e+01	46	41	0	1067974656	56	5953
2026-01-21 02:52:41.88	335.01	9.97	-40.7	-42.0	27.4	3.02e+01	60	41	0	1070071808	58	5444
2026-01-21 02:52:42.89	335.07	9.88	-41.0	-42.2	27.7	3.02e+01	58	41	0	1072168960	58	5581
2026-01-21 02:52:43.90	335.13	9.79	-41.2	-42.4	28.3	3.02e+01	48	41	0	1073741824	56	6422
2026-01-21 02:52:44.91	335.18	9.70	-41.1	-42.4	28.0	3.02e+01	59	41	0	1075838976	56	6358
2026-01-21 02:52:45.91	335.23	9.61	-41.9	-43.2	27.7	3.02e+01	58	41	0	1077411840	58	6267
2026-01-21 02:52:46.92	335.29	9.53	-42.2	-43.5	27.1	3.02e+01	59	41	0	1079508992	60	5787
2026-01-21 02:52:47.93	335.34	9.44	-42.3	-43.7	26.9	3.02e+01	60	41	0	1081606144	60	5861
2026-01-21 02:52:48.94	335.40	9.35	-42.1	-43.5	26.7	3.02e+01	61	41	0	1083179008	58	6445
2026-01-21 02:52:49.95	335.45	9.26	-42.7	-44.1	26.2	3.02e+01	58	41	0	1085276160	58	6913
2026-01-21 02:52:50.96	335.50	9.18	-42.5	-43.9	26.0	3.02e+01	58	41	0	1086849024	60	6050
2026-01-21 02:52:51.97	335.56	9.09	-42.8	-44.3	26.0	3.02e+01	47	41	0	1088946176	60	6278
2026-01-21 02:52:52.98	335.61	9.00	-43.2	-44.6	26.4	3.02e+01	63	41	0	1091043328	60	6570
2026-01-21 02:52:53.99	335.66	8.92	-41.8	-43.2	26.8	3.02e+01	59	41	0	1092616192	58	6219
2026-01-21 02:52:55.00	335.71	8.83	-41.8	-43.1	27.4	3.02e+01	59	41	0	1094713344	58	6165
2026-01-21 02:52:56.01	335.76	8.74	-41.6	-43.0	27.0	3.02e+01	57	41	0	1096286208	58	6073
2026-01-21 02:52:57.02	335.82	8.66	-41.2	-42.6	27.2	3.02e+01	44	41	0	1098383360	58	5795
2026-01-21 02:52:58.02	335.87	8.57	-41.6	-43.0	27.2	3.02e+01	60	41	0	1100480512	58	6067
2026-01-21 02:52:59.03	335.92	8.49	-41.4	-42.8	27.1	3.02e+01	63	41	0	1102053376	58	5931
2026-01-21 02:53:00.04	335.97	8.40	-40.8	-42.2	27.2	3.02e+01	46	41	0	1104150528	56	6222
2026-01-21 02:53:01.05	336.02	8.32	-40.4	-41.8	27.4	3.02e+01	58	41	0	1106247680	56	5931
2026-01-21 02:53:02.06	336.07	8.24	-41.5	-42.9	27.4	3.02e+01	58	41	0	1107820544	56	6752
2026-01-21 02:53:03.07	336.12	8.15	-41.4	-42.7	27.5	3.02e+01	59	41	0	1109917696	56	6593
2026-01-21 02:53:04.08	336.17	8.07	-41.1	-42.4	27.7	3.02e+01	58	41	0	1111490560	56	6373
2026-01-21 02:53:05.09	336.22	7.99	-41.2	-42.5	27.7	3.02e+01	52	41	0	1113587712	56	6481
2026-01-21 02:53:06.10	336.26	7.90	-41.4	-42.7	27.7	3.02e+01	58	41	0	1115684864	56	6576
2026-01-21 02:53:07.11	336.31	7.82	-41.3	-42.7	27.5	3.02e+01	58	41	0	1117257728	56	6576
2026-01-21 02:53:08.12	336.36	7.74	-40.7	-42.0	27.4	3.02e+01	46	41	0	1119354880	56	6091
2026-01-21 02:53:09.13	336.41	7.66	-40.2	-41.6	27.5	3.02e+01	58	41	0	1120927744	56	5792
2026-01-21 02:53:10.14	336.46	7.58	-40.3	-41.6	27.6	3.02e+01	47	41	0	1123024896	56	5856
2026-01-21 02:53:11.15	336.50	7.50	-40.5	-41.9	27.5	3.02e+01	61	41	0	1125122048	54	6753
2026-01-21 02:53:12.16	336.55	7.41	-40.8	-42.0	27.7	3.02e+01	58	41	0	1126694912	56	6133
2026-01-21 02:53:13.17	336.60	7.33	-41.4	-42.7	27.4	3.02e+01	48	41	0	1128792064	56	6624
2026-01-21 02:53:14.18	336.64	7.25	-41.8	-43.1	27.1	3.02e+01	54	41	0	1130364928	58	6177
2026-01-21 02:53:15.19	336.69	7.17	-42.7	-44.0	26.4	3.02e+01	59	41	0	1132462080	60	6129
2026-01-21 02:53:16.20	336.74	7.09	-42.3	-43.7	27.0	3.02e+01	59	41	0	1134559232	60	5884
2026-01-21 02:53:17.21	336.78	7.01	-41.1	-42.4	28.1	3.02e+01	59	41	0	1136132096	58	5696
2026-01-21 02:53:18.22	336.83	6.93	-41.8	-43.2	26.7	3.02e+01	47	41	0	1138229248	58	6235
2026-01-21 02:53:19.22	336.87	6.86	-40.9	-42.2	27.7	3.02e+01	57	41	0	1139802112	56	6207
2026-01-21 02:53:20.23	336.92	6.78	-41.3	-42.6	27.2	3.02e+01	59	41	0	1141899264	56	6570
2026-01-21 02:53:21.25	336.96	6.70	-41.7	-43.1	26.8	3.02e+01	53	41	0	1143996416	56	6925
2026-01-21 02:53:22.25	337.01	6.62	-41.8	-43.2	27.1	3.02e+01	58	41	0	1145569280	58	6220
2026-01-21 02:53:23.26	337.05	6.54	-42.0	-43.4	26.4	3.02e+01	59	41	0	1147666432	58	6385
2026-01-21 02:53:24.27	337.10	6.46	-42.1	-43.5	25.5	3.02e+01	61	41	0	1149239296	60	5753
2026-01-21 02:53:25.28	337.14	6.39	-41.8	-43.2	27.0	3.02e+01	61	41	0	1151336448	56	6978
2026-01-21 02:53:26.29	337.18	6.31	-41.8	-43.2	27.1	3.02e+01	51	41	0	1153433600	58	6215
2026-01-21 02:53:27.30	337.23	6.23	-41.6	-43.0	26.8	3.02e+01	58	41	0	1155006464	58	6100
2026-01-21 02:53:28.31	337.27	6.15	-42.3	-43.8	26.1	3.02e+01	60	41	0	1157103616	58	6656
2026-01-21 02:53:29.32	337.31	6.08	-40.9	-42.3	25.8	3.02e+01	51	41	0	1159200768	58	5606
2026-01-21 02:53:30.33	337.36	6.00	-41.8	-43.1	27.4	3.02e+01	58	41	0	1160773632	58	6201
2026-01-21 02:53:31.34	337.40	5.93	-43.0	-44.5	25.9	3.02e+01	58	41	0	1162870784	60	6475
2026-01-21 02:53:32.35	337.44	5.85	-43.1	-44.7	25.1	3.02e+01	61	41	0	1164443648	60	6578
2026-01-21 02:53:33.36	337.49	5.77	-41.5	-42.9	26.8	3.02e+01	56	41	0	1166540800	58	6055
2026-01-21 02:53:34.37	337.53	5.70	-42.2	-43.7	25.6	3.02e+01	52	41	0	1168637952	58	6601
2026-01-21 02:53:35.38	337.57	5.62	-43.1	-44.6	25.6	3.02e+01	62	41	0	1170210816	60	6548
2026-01-21 02:53:36.38	337.61	5.55	-43.1	-44.6	25.4	3.02e+01	60	41	0	1172307968	60	6525
2026-01-21 02:53:37.39	337.65	5.47	-43.3	-44.8	25.5	3.02e+01	50	41	0	1174405120	60	6716
2026-01-21 02:53:38.40	337.69	5.40	-44.2	-45.9	23.9	3.02e+01	61	41	0	1175977984	60	7601
2026-01-21 02:53:39.41	337.73	5.33	-44.0	-45.7	24.2	3.02e+01	56	41	0	1178075136	60	7391
2026-01-21 02:53:40.42	337.77	5.25	-45.1	-47.0	22.7	3.02e+01	59	41	0	1179648000	60	8608
2026-01-21 02:53:41.43	337.82	5.18	-44.3	-46.1	23.4	3.02e+01	57	41	0	1181745152	60	7737
2026-01-21 02:53:42.44	337.86	5.10	-44.9	-46.9	22.2	3.02e+01	53	41	0	1183842304	60	8530
2026-01-21 02:53:43.45	337.90	5.03	-45.5	-47.5	22.1	3.02e+01	61	41	0	1185415168	60	9106
2026-01-21 02:53:44.46	337.94	4.96	-45.8	-48.0	21.1	3.02e+01	59	41	0	1187512320	60	9644
