passes_logs/2026/01/21/R4.6S_Anadyr/R4.6S_Anadyr__20260121_204024_NOAA_21_JPSS-2_rec.log

#Pass ID: 20260121_204024_NOAA 21 (JPSS-2)
#Satellite: NOAA 21 (JPSS-2)
#Configuration: NOAA-21
#almurnet v.1.7.20251203
#Start time: 2026-01-21 20:40:26

#Version: 2.2.20231116
#Station: R4.6S_Anadyr
#Location: 177.4865 lon 64.73178 lat
#TLE: 1 54234U 22150A   26020.93347024  .00000206  00000+0  11859-3 0  9994
#TLE: 2 54234  98.7506 321.7615 0000627 245.8100 114.3011 14.19536899165654

#Time	Az	El	Level	Level2	SNR	BER	BlckErr	Temp	State	Recorded	gain1	gain2
2026-01-21 20:40:26.94	74.55	0.11	-50.9	-65.8	3.5	1.51e+00	0	39	0	0	60	70811
2026-01-21 20:40:27.94	74.48	0.16	-51.6	-64.4	3.5	1.52e+00	0	40	104	0	60	58165
2026-01-21 20:40:28.95	74.41	0.21	-51.3	-64.2	3.5	1.52e+00	0	40	104	0	60	56709
2026-01-21 20:40:29.96	74.34	0.27	-51.4	-64.2	3.5	1.52e+00	0	40	104	0	60	56967
2026-01-21 20:40:30.97	74.27	0.32	-51.1	-63.9	3.5	1.52e+00	0	40	104	0	60	55274
2026-01-21 20:40:31.98	74.20	0.37	-51.1	-64.0	3.5	1.52e+00	0	40	104	0	60	55431
2026-01-21 20:40:32.99	74.12	0.42	-51.0	-63.9	3.5	1.52e+00	0	40	104	0	60	54820
2026-01-21 20:40:34.00	74.05	0.47	-50.9	-63.8	3.5	1.51e+00	0	40	104	0	60	54118
2026-01-21 20:40:35.01	73.98	0.52	-50.8	-63.7	3.5	1.52e+00	0	40	104	0	60	54047
2026-01-21 20:40:36.02	73.91	0.57	-50.8	-63.7	3.5	1.52e+00	0	40	104	0	60	53683
2026-01-21 20:40:37.03	73.83	0.62	-50.8	-63.7	3.5	1.52e+00	0	40	104	0	60	53877
2026-01-21 20:40:38.04	73.76	0.67	-50.9	-63.7	3.5	1.52e+00	0	40	104	0	60	53797
2026-01-21 20:40:39.05	73.68	0.73	-50.8	-63.7	3.5	1.52e+00	0	40	104	0	60	53473
2026-01-21 20:40:40.06	73.61	0.78	-50.8	-63.7	3.5	1.52e+00	0	40	104	0	60	53563
2026-01-21 20:40:41.07	73.54	0.83	-50.8	-63.7	3.5	1.52e+00	0	40	104	0	60	53462
2026-01-21 20:40:42.08	73.46	0.88	-50.8	-63.7	3.6	1.52e+00	0	40	104	0	60	53650
2026-01-21 20:40:43.09	73.39	0.93	-50.6	-63.6	3.5	1.52e+00	0	40	104	0	60	53289
2026-01-21 20:40:44.10	73.31	0.98	-50.4	-63.6	3.5	1.52e+00	0	40	104	0	60	52980
2026-01-21 20:40:45.11	73.24	1.03	-50.6	-63.5	3.5	1.51e+00	0	40	104	0	60	52598
2026-01-21 20:40:46.12	73.16	1.09	-50.6	-63.4	3.5	1.52e+00	0	40	104	0	60	52082
2026-01-21 20:40:47.13	73.08	1.14	-50.3	-63.4	3.5	1.52e+00	0	40	104	0	60	51822
2026-01-21 20:40:48.14	73.01	1.19	-50.3	-63.1	3.5	1.52e+00	0	40	104	0	60	50279
2026-01-21 20:40:49.15	72.93	1.24	-50.2	-63.2	3.5	1.52e+00	0	40	104	0	60	50706
2026-01-21 20:40:50.16	72.85	1.29	-50.1	-62.9	3.5	1.52e+00	0	40	104	0	60	49173
2026-01-21 20:40:51.17	72.78	1.34	-49.9	-62.7	3.5	1.52e+00	0	41	104	0	60	48062
2026-01-21 20:40:52.18	72.70	1.40	-49.3	-62.2	3.5	1.52e+00	0	41	104	0	60	45096
2026-01-21 20:40:53.19	72.62	1.45	-49.3	-62.1	3.5	1.52e+00	0	40	104	0	60	44662
2026-01-21 20:40:54.20	72.54	1.50	-49.3	-62.1	3.5	1.52e+00	0	40	104	0	60	44765
2026-01-21 20:40:55.21	72.47	1.55	-49.2	-62.1	3.5	1.52e+00	0	41	104	0	60	44610
2026-01-21 20:40:56.22	72.39	1.60	-49.2	-62.1	3.5	1.52e+00	0	40	104	0	60	44697
2026-01-21 20:40:57.23	72.31	1.66	-49.3	-62.1	3.5	1.52e+00	0	41	104	0	60	44627
2026-01-21 20:40:58.24	72.23	1.71	-49.2	-62.0	3.5	1.52e+00	0	41	104	0	60	44311
2026-01-21 20:40:59.25	72.15	1.76	-49.2	-62.0	3.5	1.52e+00	0	41	104	0	60	44295
2026-01-21 20:41:00.26	72.07	1.81	-49.2	-62.0	3.5	1.52e+00	0	41	104	0	60	44347
2026-01-21 20:41:01.27	71.99	1.86	-49.2	-62.0	3.5	1.52e+00	0	41	104	0	60	44176
2026-01-21 20:41:02.28	71.91	1.92	-49.2	-62.1	3.5	1.52e+00	0	41	104	0	60	44526
2026-01-21 20:41:03.29	71.83	1.97	-49.2	-62.1	3.5	1.51e+00	0	41	104	0	60	44698
2026-01-21 20:41:04.30	71.75	2.02	-49.2	-62.1	3.5	1.52e+00	0	41	104	0	60	44550
2026-01-21 20:41:05.31	71.67	2.07	-49.2	-62.0	3.5	1.51e+00	0	41	104	0	60	44226
2026-01-21 20:41:06.32	71.59	2.13	-49.2	-62.0	3.5	1.52e+00	0	41	104	0	60	43986
2026-01-21 20:41:07.33	71.51	2.18	-49.2	-61.9	3.5	1.52e+00	0	41	104	0	60	43580
2026-01-21 20:41:08.34	71.42	2.23	-49.2	-61.6	3.5	1.52e+00	0	41	104	0	60	42047
2026-01-21 20:41:09.35	71.34	2.28	-49.2	-61.5	3.5	1.52e+00	0	41	104	0	60	41687
2026-01-21 20:41:10.36	71.26	2.34	-49.2	-61.7	3.5	1.52e+00	0	41	104	0	60	42872
2026-01-21 20:41:11.38	71.17	2.39	-49.2	-61.7	3.5	1.52e+00	0	41	104	0	60	42808
2026-01-21 20:41:12.39	71.09	2.44	-49.2	-62.0	3.5	1.51e+00	0	41	104	0	60	44382
2026-01-21 20:41:13.40	71.01	2.50	-49.2	-62.1	3.5	1.52e+00	0	41	104	0	60	44594
2026-01-21 20:41:14.41	70.92	2.55	-49.2	-62.0	3.5	1.52e+00	0	41	104	0	60	44045
2026-01-21 20:41:15.42	70.84	2.60	-49.2	-61.9	3.5	1.51e+00	0	41	104	0	60	43629
2026-01-21 20:41:16.43	70.75	2.65	-49.2	-62.0	3.5	1.52e+00	0	41	104	0	60	44367
2026-01-21 20:41:17.44	70.67	2.71	-49.2	-62.1	3.5	1.52e+00	0	41	104	0	60	44597
2026-01-21 20:41:18.45	70.58	2.76	-49.2	-61.6	3.5	1.52e+00	0	41	104	0	60	42246
2026-01-21 20:41:19.46	70.50	2.81	-49.2	-61.1	3.5	1.51e+00	0	41	104	0	60	39700
2026-01-21 20:41:20.47	70.41	2.87	-49.1	-60.8	3.5	1.51e+00	0	41	104	0	60	38416
2026-01-21 20:41:21.48	70.33	2.92	-49.2	-61.3	3.5	1.52e+00	0	41	104	0	60	40920
2026-01-21 20:41:22.49	70.24	2.97	-49.2	-61.4	3.5	1.52e+00	0	41	104	0	60	41366
2026-01-21 20:41:23.50	70.15	3.02	-48.8	-58.2	4.4	1.50e+00	0	41	104	0	60	28444
2026-01-21 20:41:24.51	70.07	3.08	-47.9	-53.0	7.7	2.87e-01	123	41	0	0	60	15676
2026-01-21 20:41:25.52	69.98	3.13	-47.8	-52.9	7.3	1.87e-02	122	41	0	3145728	60	15517
2026-01-21 20:41:26.53	69.89	3.18	-49.2	-61.5	3.5	1.30e+00	0	41	104	4194304	60	41684
2026-01-21 20:41:27.54	69.80	3.24	-48.0	-54.1	4.6	1.51e+00	0	41	104	4194304	60	17892
2026-01-21 20:41:28.55	69.72	3.29	-40.2	-41.7	19.7	0.00e+00	122	41	104	4194304	54	6055
2026-01-21 20:41:29.56	69.63	3.34	-42.4	-44.0	12.2	0.00e+00	120	41	0	6291456	56	7034
2026-01-21 20:41:30.57	69.54	3.40	-48.7	-57.9	4.5	1.52e+00	0	41	104	7340032	60	27504
2026-01-21 20:41:31.58	69.45	3.45	-42.9	-45.0	16.1	0.00e+00	120	41	104	7340032	58	7039
2026-01-21 20:41:32.59	69.36	3.50	-42.8	-44.6	16.8	0.00e+00	122	41	0	9437184	58	6669
2026-01-21 20:41:33.60	69.27	3.56	-42.7	-44.4	16.6	0.00e+00	120	41	0	12582912	58	6523
2026-01-21 20:41:34.61	69.18	3.61	-42.5	-44.2	17.3	0.00e+00	122	41	0	15728640	58	6370
2026-01-21 20:41:35.61	69.09	3.66	-42.5	-44.1	17.3	0.00e+00	123	41	0	18874368	58	6323
2026-01-21 20:41:36.62	69.00	3.72	-42.2	-43.8	17.7	0.00e+00	120	41	0	22020096	56	6822
2026-01-21 20:41:37.63	68.91	3.77	-42.4	-44.0	17.4	0.00e+00	123	41	0	25165824	56	6997
2026-01-21 20:41:38.64	68.81	3.83	-42.3	-43.9	17.5	0.00e+00	123	41	0	28311552	56	6925
2026-01-21 20:41:39.65	68.72	3.88	-42.6	-44.2	17.3	0.00e+00	123	41	0	31457280	56	7202
2026-01-21 20:41:40.66	68.63	3.93	-41.9	-43.4	18.1	0.00e+00	120	41	0	34603008	56	6533
2026-01-21 20:41:41.67	68.54	3.99	-41.4	-42.8	18.7	0.00e+00	123	41	0	37748736	56	6134
2026-01-21 20:41:42.68	68.44	4.04	-40.5	-41.8	19.5	0.00e+00	122	41	0	40894464	54	6112
2026-01-21 20:41:43.69	68.35	4.10	-40.0	-41.3	20.1	0.00e+00	123	41	0	44040192	54	5739
2026-01-21 20:41:44.70	68.26	4.15	-40.2	-41.5	19.8	0.00e+00	123	41	0	47185920	54	5872
2026-01-21 20:41:45.71	68.16	4.20	-40.5	-41.8	19.6	0.00e+00	120	41	0	50331648	54	6092
2026-01-21 20:41:46.72	68.07	4.26	-40.6	-41.9	19.5	0.00e+00	122	41	0	53477376	54	6163
2026-01-21 20:41:47.73	67.97	4.31	-40.8	-42.1	19.2	0.00e+00	123	41	0	56623104	54	6313
2026-01-21 20:41:48.74	67.88	4.37	-40.5	-41.8	19.6	0.00e+00	123	41	0	59768832	54	6100
2026-01-21 20:41:49.75	67.78	4.42	-40.3	-41.5	19.9	0.00e+00	120	41	0	63963136	54	5898
2026-01-21 20:41:50.76	67.69	4.47	-40.7	-42.1	19.4	0.00e+00	120	41	0	67108864	54	6279
2026-01-21 20:41:51.77	67.59	4.53	-40.5	-41.8	19.6	0.00e+00	123	41	0	69206016	54	6103
2026-01-21 20:41:52.78	67.49	4.58	-40.5	-41.8	19.7	0.00e+00	123	41	0	72351744	54	6072
2026-01-21 20:41:53.79	67.39	4.64	-40.1	-41.3	20.0	0.00e+00	123	41	0	75497472	54	5779
2026-01-21 20:41:54.81	67.30	4.69	-40.1	-41.3	20.1	0.00e+00	121	41	0	79691776	54	5781
2026-01-21 20:41:55.82	67.20	4.75	-40.3	-41.5	19.9	0.00e+00	123	41	0	82837504	54	5898
2026-01-21 20:41:56.83	67.10	4.80	-40.0	-41.2	20.2	0.00e+00	120	41	0	85983232	54	5712
2026-01-21 20:41:57.84	67.00	4.85	-40.3	-41.6	19.9	0.00e+00	120	41	0	89128960	52	6668
2026-01-21 20:41:58.85	66.90	4.91	-40.4	-41.7	19.9	0.00e+00	123	41	0	92274688	52	6760
2026-01-21 20:41:59.86	66.80	4.96	-40.3	-41.5	20.1	0.00e+00	123	41	0	95420416	52	6637
2026-01-21 20:42:00.87	66.70	5.02	-40.0	-41.2	20.2	0.00e+00	122	41	0	98566144	52	6373
2026-01-21 20:42:01.88	66.60	5.07	-40.0	-41.2	20.4	0.00e+00	122	41	0	101711872	52	6356
2026-01-21 20:42:02.89	66.50	5.13	-39.9	-41.1	20.3	0.00e+00	123	41	0	104857600	52	6345
2026-01-21 20:42:03.90	66.40	5.18	-40.3	-41.5	20.0	0.00e+00	123	41	0	108003328	52	6622
2026-01-21 20:42:04.91	66.30	5.24	-40.0	-41.2	20.3	0.00e+00	122	41	0	111149056	52	6402
2026-01-21 20:42:05.92	66.20	5.29	-40.6	-41.9	19.6	0.00e+00	122	41	0	114294784	52	6933
2026-01-21 20:42:06.93	66.10	5.34	-40.2	-41.4	20.0	0.00e+00	122	41	0	117440512	52	6554
2026-01-21 20:42:07.94	65.99	5.40	-40.3	-41.6	20.0	0.00e+00	122	41	0	120586240	52	6661
2026-01-21 20:42:08.95	65.89	5.45	-40.4	-41.7	19.9	0.00e+00	120	41	0	123731968	52	6727
2026-01-21 20:42:09.97	65.79	5.51	-40.2	-41.5	20.1	0.00e+00	123	41	0	126877696	52	6574
2026-01-21 20:42:10.98	65.68	5.56	-40.2	-41.4	20.2	0.00e+00	122	41	0	130023424	52	6555
2026-01-21 20:42:11.99	65.58	5.62	-40.1	-41.3	20.2	0.00e+00	122	41	0	133169152	52	6433
2026-01-21 20:42:13.00	65.47	5.67	-40.1	-41.3	20.2	0.00e+00	123	41	0	136314880	52	6461
2026-01-21 20:42:14.01	65.37	5.73	-40.0	-41.2	20.3	0.00e+00	122	41	0	139460608	52	6398
2026-01-21 20:42:15.02	65.26	5.78	-39.8	-40.9	20.7	0.00e+00	123	41	0	142606336	52	6188
2026-01-21 20:42:16.03	65.16	5.84	-39.6	-40.7	20.7	0.00e+00	120	41	0	145752064	52	6058
2026-01-21 20:42:17.04	65.05	5.89	-40.0	-41.2	20.3	0.00e+00	122	41	0	148897792	52	6399
2026-01-21 20:42:18.05	64.95	5.95	-39.7	-40.8	20.6	0.00e+00	123	41	0	152043520	52	6126
2026-01-21 20:42:19.06	64.84	6.00	-39.8	-40.9	20.6	0.00e+00	122	41	0	155189248	52	6204
2026-01-21 20:42:20.07	64.73	6.06	-39.6	-40.8	20.7	0.00e+00	122	41	0	158334976	52	6094
2026-01-21 20:42:21.08	64.62	6.11	-39.6	-40.7	20.6	0.00e+00	123	41	0	161480704	52	6064
2026-01-21 20:42:22.09	64.52	6.17	-39.7	-40.8	20.6	0.00e+00	120	41	0	164626432	52	6116
2026-01-21 20:42:23.10	64.41	6.22	-39.5	-40.6	20.7	0.00e+00	121	41	0	167772160	52	5981
2026-01-21 20:42:24.11	64.30	6.28	-39.8	-41.0	20.5	0.00e+00	123	41	0	170917888	52	6231
2026-01-21 20:42:25.12	64.19	6.33	-39.5	-40.7	20.8	0.00e+00	123	41	0	174063616	52	6024
2026-01-21 20:42:26.13	64.08	6.39	-39.8	-41.0	20.6	0.00e+00	123	41	0	177209344	52	6229
2026-01-21 20:42:27.14	63.97	6.44	-39.8	-41.0	20.5	0.00e+00	123	41	0	180355072	52	6256
2026-01-21 20:42:28.15	63.86	6.50	-39.4	-40.6	21.0	0.00e+00	123	41	0	183500800	52	5937
2026-01-21 20:42:29.16	63.75	6.55	-39.5	-40.7	20.8	0.00e+00	123	41	0	186646528	52	6012
2026-01-21 20:42:30.17	63.63	6.61	-39.6	-40.7	20.9	0.00e+00	120	41	0	189792256	52	6042
2026-01-21 20:42:31.18	63.52	6.66	-39.4	-40.6	21.0	0.00e+00	123	41	0	192937984	52	5933
2026-01-21 20:42:32.19	63.41	6.72	-39.1	-40.2	21.3	0.00e+00	123	41	0	196083712	52	5688
2026-01-21 20:42:33.20	63.30	6.77	-39.1	-40.2	21.3	0.00e+00	122	41	0	199229440	52	5695
2026-01-21 20:42:34.22	63.18	6.83	-39.1	-40.2	21.3	0.00e+00	120	41	0	202375168	52	5680
2026-01-21 20:42:35.23	63.07	6.88	-39.1	-40.1	21.4	0.00e+00	123	41	0	205520896	52	5645
2026-01-21 20:42:36.24	62.95	6.94	-39.2	-40.3	21.2	0.00e+00	123	41	0	208666624	52	5764
2026-01-21 20:42:37.25	62.84	6.99	-39.1	-40.2	21.3	0.00e+00	122	41	0	211812352	52	5685
2026-01-21 20:42:38.26	62.72	7.05	-39.0	-40.0	21.5	0.00e+00	123	41	0	214958080	52	5582
2026-01-21 20:42:39.27	62.61	7.10	-38.8	-39.9	21.5	0.00e+00	123	41	0	218103808	50	6157
2026-01-21 20:42:40.28	62.49	7.16	-38.8	-39.8	21.6	0.00e+00	122	41	0	221249536	50	6124
2026-01-21 20:42:41.29	62.38	7.22	-38.9	-40.0	21.5	0.00e+00	123	41	0	224395264	50	6209
2026-01-21 20:42:42.30	62.26	7.27	-38.8	-39.9	21.5	0.00e+00	123	41	0	227540992	50	6147
2026-01-21 20:42:43.31	62.14	7.33	-38.8	-39.9	21.6	0.00e+00	123	41	0	230686720	50	6139
2026-01-21 20:42:44.32	62.02	7.38	-38.9	-40.0	21.6	0.00e+00	123	41	0	233832448	50	6211
2026-01-21 20:42:45.33	61.91	7.44	-39.0	-40.0	21.5	0.00e+00	120	41	0	236978176	50	6275
2026-01-21 20:42:46.34	61.79	7.49	-38.7	-39.8	21.6	0.00e+00	123	41	0	240123904	50	6095
2026-01-21 20:42:47.35	61.67	7.55	-39.1	-40.1	21.3	0.00e+00	122	41	0	243269632	50	6349
2026-01-21 20:42:48.36	61.55	7.60	-39.0	-40.1	21.4	0.00e+00	123	42	0	246415360	50	6306
2026-01-21 20:42:49.37	61.43	7.66	-38.9	-40.0	21.6	0.00e+00	122	42	0	249561088	50	6210
2026-01-21 20:42:50.38	61.31	7.71	-38.4	-39.4	22.0	0.00e+00	123	41	0	252706816	50	5851
2026-01-21 20:42:51.39	61.19	7.77	-38.4	-39.4	22.0	0.00e+00	123	41	0	255852544	50	5840
2026-01-21 20:42:52.40	61.06	7.82	-38.7	-39.8	21.6	0.00e+00	120	41	0	258998272	50	6075
2026-01-21 20:42:53.41	60.94	7.88	-38.5	-39.6	21.9	0.00e+00	122	42	0	262144000	50	5941
2026-01-21 20:42:54.42	60.82	7.93	-38.8	-39.9	21.6	0.00e+00	123	41	0	265289728	50	6167
2026-01-21 20:42:55.43	60.70	7.99	-38.7	-39.7	21.7	0.00e+00	123	41	0	268435456	50	6061
2026-01-21 20:42:56.44	60.57	8.04	-38.7	-39.8	21.7	0.00e+00	122	41	0	271581184	50	6095
2026-01-21 20:42:57.45	60.45	8.10	-38.3	-39.4	22.1	0.00e+00	123	41	0	274726912	50	5817
2026-01-21 20:42:58.46	60.32	8.15	-38.6	-39.7	21.9	0.00e+00	120	41	0	277872640	50	6014
2026-01-21 20:42:59.47	60.20	8.21	-38.4	-39.5	22.0	0.00e+00	122	42	0	281018368	50	5878
2026-01-21 20:43:00.48	60.07	8.26	-38.3	-39.4	22.1	0.00e+00	123	41	0	284164096	50	5813
2026-01-21 20:43:01.49	59.95	8.32	-38.4	-39.4	22.2	0.00e+00	123	41	0	287309824	50	5814
2026-01-21 20:43:02.50	59.82	8.38	-38.4	-39.5	22.1	0.00e+00	123	41	0	290455552	50	5879
2026-01-21 20:43:03.51	59.69	8.43	-38.4	-39.4	22.2	0.00e+00	122	41	0	293601280	50	5835
2026-01-21 20:43:04.52	59.57	8.49	-38.1	-39.1	22.4	0.00e+00	123	42	0	296747008	50	5634
2026-01-21 20:43:05.53	59.44	8.54	-38.1	-39.1	22.5	0.00e+00	123	41	0	299892736	50	5610
2026-01-21 20:43:06.54	59.31	8.60	-37.8	-38.8	22.7	0.00e+00	123	42	0	303038464	50	5463
2026-01-21 20:43:07.55	59.18	8.65	-38.0	-39.0	22.5	0.00e+00	123	41	0	306184192	50	5575
2026-01-21 20:43:08.56	59.05	8.71	-38.0	-39.0	22.5	0.00e+00	122	42	0	309329920	50	5590
2026-01-21 20:43:09.57	58.92	8.76	-37.8	-38.8	22.6	0.00e+00	123	41	0	312475648	50	5462
2026-01-21 20:43:10.58	58.79	8.82	-37.8	-38.8	22.6	0.00e+00	123	41	0	315621376	48	6106
2026-01-21 20:43:11.59	58.66	8.87	-37.9	-38.9	22.5	0.00e+00	122	41	0	318767104	48	6168
2026-01-21 20:43:12.60	58.53	8.93	-37.7	-38.7	22.8	0.00e+00	123	41	0	321912832	48	6012
2026-01-21 20:43:13.61	58.40	8.98	-37.6	-38.6	22.8	0.00e+00	123	41	0	325058560	48	5957
2026-01-21 20:43:14.62	58.27	9.04	-37.9	-38.9	22.5	0.00e+00	122	42	0	328204288	48	6181
2026-01-21 20:43:15.63	58.13	9.09	-37.9	-38.9	22.7	0.00e+00	120	41	0	331350016	48	6140
2026-01-21 20:43:16.64	58.00	9.15	-37.8	-38.8	22.7	0.00e+00	122	41	0	334495744	48	6080
2026-01-21 20:43:17.65	57.87	9.20	-37.8	-38.8	22.7	0.00e+00	123	41	0	337641472	48	6079
2026-01-21 20:43:18.66	57.73	9.26	-38.0	-39.0	22.5	0.00e+00	122	41	0	340787200	48	6229
2026-01-21 20:43:19.67	57.60	9.31	-37.8	-38.8	22.6	0.00e+00	120	41	0	343932928	48	6123
2026-01-21 20:43:20.68	57.46	9.36	-37.9	-38.9	22.6	0.00e+00	123	41	0	347078656	48	6180
2026-01-21 20:43:21.69	57.33	9.42	-37.4	-38.4	22.9	0.00e+00	122	41	0	350224384	48	5826
2026-01-21 20:43:22.70	57.19	9.47	-37.9	-38.9	22.6	0.00e+00	121	41	0	354418688	48	6185
2026-01-21 20:43:23.71	57.05	9.53	-37.9	-38.9	22.6	0.00e+00	122	41	0	357564416	48	6205
2026-01-21 20:43:24.72	56.91	9.58	-38.4	-39.4	22.2	0.00e+00	123	41	0	360710144	48	6549
2026-01-21 20:43:25.73	56.78	9.64	-38.0	-39.0	22.6	0.00e+00	122	41	0	362807296	48	6217
2026-01-21 20:43:26.75	56.64	9.69	-37.8	-38.8	22.8	0.00e+00	123	42	0	365953024	48	6092
2026-01-21 20:43:27.76	56.50	9.75	-37.7	-38.7	22.8	0.00e+00	122	42	0	370147328	48	6012
2026-01-21 20:43:28.77	56.36	9.80	-37.9	-38.8	22.7	0.00e+00	123	42	0	373293056	48	6133
2026-01-21 20:43:29.78	56.22	9.86	-37.7	-38.7	22.8	0.00e+00	122	41	0	376438784	48	6031
2026-01-21 20:43:30.79	56.08	9.91	-37.8	-38.8	22.8	0.00e+00	120	41	0	379584512	48	6094
2026-01-21 20:43:31.80	55.94	9.96	-37.6	-38.6	22.9	0.00e+00	122	42	0	382730240	48	5927
2026-01-21 20:43:32.81	55.79	10.02	-37.7	-38.7	22.9	0.00e+00	120	41	0	385875968	48	6007
2026-01-21 20:43:33.82	55.65	10.07	-37.8	-38.8	22.8	0.00e+00	122	41	0	389021696	48	6069
2026-01-21 20:43:34.83	55.51	10.13	-37.8	-38.8	22.7	0.00e+00	122	41	0	392167424	48	6117
2026-01-21 20:43:35.84	55.37	10.18	-37.8	-38.7	22.8	0.00e+00	123	41	0	395313152	48	6062
2026-01-21 20:43:36.85	55.22	10.24	-37.8	-38.8	22.8	0.00e+00	123	42	0	398458880	48	6075
2026-01-21 20:43:37.86	55.08	10.29	-37.8	-38.8	22.8	0.00e+00	120	41	0	401604608	48	6110
2026-01-21 20:43:38.87	54.93	10.34	-37.9	-38.9	22.6	0.00e+00	123	41	0	404750336	48	6195
2026-01-21 20:43:39.88	54.79	10.40	-37.9	-38.9	22.7	0.00e+00	122	41	0	407896064	48	6149
2026-01-21 20:43:40.89	54.64	10.45	-37.9	-38.9	22.6	0.00e+00	123	41	0	411041792	48	6177
2026-01-21 20:43:41.91	54.49	10.51	-38.0	-39.0	22.6	0.00e+00	122	41	0	414187520	48	6231
2026-01-21 20:43:42.92	54.35	10.56	-37.9	-39.0	22.6	0.00e+00	120	41	0	417333248	48	6211
2026-01-21 20:43:43.93	54.20	10.61	-37.9	-39.0	22.6	0.00e+00	122	41	0	420478976	48	6206
2026-01-21 20:43:44.94	54.05	10.67	-38.4	-39.4	22.2	0.00e+00	122	41	0	423624704	48	6527
2026-01-21 20:43:45.95	53.90	10.72	-38.2	-39.2	22.4	0.00e+00	122	41	0	426770432	48	6385
2026-01-21 20:43:46.96	53.75	10.77	-38.3	-39.3	22.3	0.00e+00	120	41	0	429916160	48	6467
2026-01-21 20:43:47.97	53.60	10.83	-38.3	-39.4	22.3	0.00e+00	123	41	0	433061888	48	6517
2026-01-21 20:43:48.98	53.45	10.88	-38.2	-39.2	22.4	0.00e+00	123	41	0	436207616	48	6395
2026-01-21 20:43:49.99	53.30	10.93	-38.3	-39.4	22.3	0.00e+00	123	41	0	439353344	48	6521
2026-01-21 20:43:51.00	53.15	10.99	-38.1	-39.2	22.5	0.00e+00	123	41	0	442499072	48	6364
2026-01-21 20:43:52.01	53.00	11.04	-38.2	-39.2	22.5	0.00e+00	123	41	0	445644800	48	6365
2026-01-21 20:43:53.02	52.84	11.09	-38.0	-39.0	22.7	0.00e+00	123	41	0	448790528	48	6227
2026-01-21 20:43:54.03	52.69	11.14	-38.0	-39.0	22.7	0.00e+00	123	41	0	451936256	48	6245
2026-01-21 20:43:55.04	52.54	11.20	-38.2	-39.2	22.4	0.00e+00	122	41	0	455081984	48	6423
2026-01-21 20:43:56.05	52.38	11.25	-38.3	-39.3	22.5	0.00e+00	123	41	0	458227712	48	6443
2026-01-21 20:43:57.06	52.23	11.30	-38.3	-39.3	22.4	0.00e+00	123	41	0	461373440	48	6470
2026-01-21 20:43:58.07	52.07	11.35	-38.2	-39.2	22.5	0.00e+00	122	41	0	464519168	48	6387
2026-01-21 20:43:59.08	51.91	11.41	-38.3	-39.3	22.4	0.00e+00	121	41	0	467664896	48	6447
2026-01-21 20:44:00.09	51.76	11.46	-38.2	-39.2	22.5	0.00e+00	123	41	0	470810624	48	6417
2026-01-21 20:44:01.11	51.60	11.51	-38.2	-39.2	22.6	0.00e+00	123	41	0	473956352	48	6351
2026-01-21 20:44:02.12	51.44	11.56	-38.1	-39.1	22.6	0.00e+00	122	41	0	477102080	48	6308
2026-01-21 20:44:03.13	51.28	11.62	-38.1	-39.1	22.6	0.00e+00	123	41	0	480247808	48	6331
2026-01-21 20:44:04.14	51.12	11.67	-38.2	-39.2	22.6	0.00e+00	123	41	0	483393536	48	6400
2026-01-21 20:44:05.15	50.96	11.72	-38.0	-39.0	22.7	0.00e+00	120	41	0	486539264	48	6245
2026-01-21 20:44:06.16	50.80	11.77	-37.8	-38.8	22.9	0.00e+00	122	41	0	489684992	48	6066
2026-01-21 20:44:07.17	50.64	11.82	-37.9	-38.9	22.8	0.00e+00	122	41	0	492830720	48	6170
2026-01-21 20:44:08.18	50.48	11.87	-37.8	-38.8	22.8	0.00e+00	123	41	0	495976448	48	6098
2026-01-21 20:44:09.19	50.32	11.92	-38.0	-39.0	22.6	0.00e+00	123	41	0	499122176	48	6264
2026-01-21 20:44:10.19	50.16	11.98	-37.8	-38.8	22.9	0.00e+00	122	41	0	502267904	48	6072
2026-01-21 20:44:11.20	50.00	12.03	-37.6	-38.5	23.1	0.00e+00	123	41	0	505413632	48	5911
2026-01-21 20:44:12.22	49.83	12.08	-37.5	-38.5	23.1	0.00e+00	123	41	0	508559360	48	5878
2026-01-21 20:44:13.22	49.67	12.13	-37.4	-38.3	23.2	0.00e+00	122	41	0	511705088	48	5783
2026-01-21 20:44:14.24	49.50	12.18	-37.4	-38.3	23.2	0.00e+00	120	41	0	514850816	48	5752
2026-01-21 20:44:15.24	49.34	12.23	-37.5	-38.4	23.1	0.00e+00	123	41	0	517996544	48	5843
2026-01-21 20:44:16.26	49.17	12.28	-37.6	-38.5	23.1	0.00e+00	120	41	0	521142272	48	5926
2026-01-21 20:44:17.26	49.01	12.33	-37.5	-38.5	23.0	0.00e+00	122	41	0	524288000	48	5902
2026-01-21 20:44:18.27	48.84	12.38	-37.7	-38.7	22.8	0.00e+00	122	41	0	527433728	48	6000
2026-01-21 20:44:19.29	48.67	12.43	-37.7	-38.7	22.8	0.00e+00	120	41	0	530579456	48	6012
2026-01-21 20:44:20.30	48.50	12.48	-37.8	-38.8	22.8	0.00e+00	122	41	0	533725184	48	6084
2026-01-21 20:44:21.31	48.33	12.53	-37.8	-38.8	22.8	0.00e+00	123	41	0	536870912	48	6114
2026-01-21 20:44:22.32	48.17	12.58	-37.8	-38.8	22.9	0.00e+00	123	41	0	540016640	48	6088
2026-01-21 20:44:23.33	48.00	12.63	-37.6	-38.6	23.0	0.00e+00	123	41	0	543162368	48	5950
2026-01-21 20:44:24.34	47.82	12.68	-37.6	-38.6	23.1	0.00e+00	123	41	0	546308096	48	5952
2026-01-21 20:44:25.34	47.66	12.73	-37.6	-38.6	23.0	0.00e+00	123	41	0	549453824	48	5972
2026-01-21 20:44:26.36	47.48	12.78	-37.5	-38.5	23.1	0.00e+00	122	41	0	552599552	48	5885
2026-01-21 20:44:27.36	47.31	12.82	-37.8	-38.7	22.8	0.00e+00	120	41	0	555745280	48	6059
2026-01-21 20:44:28.37	47.14	12.87	-37.8	-38.8	22.8	0.00e+00	123	41	0	558891008	48	6114
2026-01-21 20:44:29.39	46.96	12.92	-37.6	-38.6	23.0	0.00e+00	120	41	0	562036736	48	5939
2026-01-21 20:44:30.40	46.79	12.97	-37.7	-38.6	23.0	0.00e+00	123	41	0	565182464	48	5975
2026-01-21 20:44:31.41	46.62	13.02	-37.7	-38.7	22.9	0.00e+00	122	41	0	568328192	48	6045
2026-01-21 20:44:32.42	46.44	13.07	-37.7	-38.6	23.0	0.00e+00	123	41	0	571473920	48	5983
2026-01-21 20:44:33.43	46.26	13.11	-37.5	-38.5	23.1	0.00e+00	120	41	0	574619648	48	5869
2026-01-21 20:44:34.44	46.09	13.16	-37.5	-38.4	23.2	0.00e+00	122	41	0	577765376	48	5835
2026-01-21 20:44:35.45	45.91	13.21	-37.5	-38.5	23.2	0.00e+00	120	41	0	580911104	48	5870
2026-01-21 20:44:36.46	45.73	13.26	-37.7	-38.7	22.9	0.00e+00	123	41	0	584056832	48	6018
2026-01-21 20:44:37.47	45.56	13.30	-37.9	-38.9	22.7	0.00e+00	123	41	0	587202560	48	6172
2026-01-21 20:44:38.48	45.38	13.35	-37.7	-38.7	23.0	0.00e+00	123	41	0	590348288	48	6029
2026-01-21 20:44:39.49	45.20	13.40	-37.4	-38.3	23.2	0.00e+00	122	41	0	593494016	48	5775
2026-01-21 20:44:40.50	45.02	13.44	-37.4	-38.4	23.1	0.00e+00	123	41	0	596639744	48	5805
2026-01-21 20:44:41.51	44.84	13.49	-37.4	-38.3	23.2	0.00e+00	123	41	0	599785472	48	5791
2026-01-21 20:44:42.52	44.66	13.54	-37.4	-38.4	23.2	0.00e+00	122	41	0	602931200	48	5809
2026-01-21 20:44:43.53	44.48	13.58	-37.4	-38.4	23.2	0.00e+00	122	41	0	606076928	48	5802
2026-01-21 20:44:44.54	44.30	13.63	-37.5	-38.5	23.1	0.00e+00	123	41	0	609222656	48	5888
2026-01-21 20:44:45.55	44.11	13.67	-37.3	-38.2	23.4	0.00e+00	123	41	0	612368384	48	5720
2026-01-21 20:44:46.56	43.93	13.72	-37.5	-38.4	23.3	0.00e+00	123	41	0	615514112	48	5855
2026-01-21 20:44:47.57	43.75	13.76	-37.3	-38.2	23.3	0.00e+00	123	41	0	618659840	48	5718
2026-01-21 20:44:48.58	43.56	13.81	-37.3	-38.3	23.2	0.00e+00	123	41	0	621805568	48	5741
2026-01-21 20:44:49.59	43.38	13.85	-37.5	-38.4	23.1	0.00e+00	123	41	0	624951296	48	5838
2026-01-21 20:44:50.61	43.19	13.90	-37.2	-38.2	23.4	0.00e+00	122	41	0	629145600	48	5667
2026-01-21 20:44:51.62	43.00	13.94	-37.2	-38.2	23.4	0.00e+00	122	41	0	631242752	48	5679
2026-01-21 20:44:52.63	42.82	13.99	-37.3	-38.3	23.2	0.00e+00	122	41	0	634388480	48	5753
2026-01-21 20:44:53.64	42.63	14.03	-37.4	-38.4	23.2	0.00e+00	123	41	0	637534208	48	5817
2026-01-21 20:44:54.65	42.44	14.07	-37.5	-38.4	23.2	0.00e+00	123	41	0	641728512	48	5842
2026-01-21 20:44:55.66	42.26	14.12	-37.4	-38.3	23.2	0.00e+00	120	41	0	644874240	48	5791
2026-01-21 20:44:56.67	42.07	14.16	-37.4	-38.4	23.2	0.00e+00	123	41	0	648019968	48	5817
2026-01-21 20:44:57.68	41.88	14.20	-37.4	-38.3	23.3	0.00e+00	122	41	0	651165696	48	5780
2026-01-21 20:44:58.69	41.69	14.25	-37.4	-38.4	23.3	0.00e+00	122	41	0	654311424	48	5803
2026-01-21 20:44:59.70	41.50	14.29	-37.6	-38.6	23.1	0.00e+00	123	41	0	657457152	48	5956
2026-01-21 20:45:00.71	41.31	14.33	-37.3	-38.2	23.4	0.00e+00	123	41	0	660602880	48	5702
2026-01-21 20:45:01.72	41.12	14.37	-37.3	-38.3	23.3	0.00e+00	123	41	0	663748608	48	5748
2026-01-21 20:45:02.73	40.92	14.41	-37.1	-38.0	23.5	0.00e+00	122	41	0	666894336	48	5558
2026-01-21 20:45:03.74	40.73	14.45	-37.0	-38.0	23.5	0.00e+00	123	41	0	670040064	48	5551
2026-01-21 20:45:04.75	40.54	14.50	-37.2	-38.1	23.3	0.00e+00	123	41	0	673185792	48	5657
2026-01-21 20:45:05.76	40.34	14.54	-37.2	-38.2	23.3	0.00e+00	123	41	0	676331520	48	5682
2026-01-21 20:45:06.77	40.15	14.58	-37.3	-38.2	23.3	0.00e+00	123	41	0	679477248	48	5707
2026-01-21 20:45:07.78	39.96	14.62	-37.6	-38.6	23.0	0.00e+00	122	41	0	682622976	48	5928
2026-01-21 20:45:08.79	39.76	14.66	-37.8	-38.8	22.9	0.00e+00	122	41	0	685768704	48	6067
2026-01-21 20:45:09.80	39.56	14.70	-37.4	-38.3	23.3	0.00e+00	120	41	0	688914432	48	5787
2026-01-21 20:45:10.81	39.37	14.74	-37.3	-38.3	23.3	0.00e+00	122	41	0	692060160	48	5744
2026-01-21 20:45:11.82	39.17	14.78	-37.4	-38.4	23.2	0.00e+00	120	41	0	695205888	48	5815
2026-01-21 20:45:12.83	38.97	14.82	-37.3	-38.2	23.3	0.00e+00	120	41	0	698351616	48	5713
2026-01-21 20:45:13.85	38.77	14.85	-37.4	-38.4	23.2	0.00e+00	120	41	0	701497344	48	5821
2026-01-21 20:45:14.86	38.58	14.89	-37.3	-38.2	23.3	0.00e+00	123	41	0	704643072	48	5724
2026-01-21 20:45:15.87	38.38	14.93	-37.2	-38.2	23.3	0.00e+00	122	41	0	707788800	48	5696
2026-01-21 20:45:16.88	38.18	14.97	-37.4	-38.4	23.1	0.00e+00	122	41	0	710934528	48	5828
2026-01-21 20:45:17.89	37.98	15.01	-37.4	-38.4	23.3	0.00e+00	122	41	0	714080256	48	5798
2026-01-21 20:45:18.90	37.78	15.04	-37.5	-38.5	23.1	0.00e+00	122	41	0	717225984	48	5876
2026-01-21 20:45:19.91	37.58	15.08	-37.4	-38.4	23.2	0.00e+00	125	41	0	720371712	48	5798
2026-01-21 20:45:20.92	37.38	15.12	-37.3	-38.3	23.3	0.00e+00	123	41	0	723517440	48	5761
2026-01-21 20:45:21.93	37.17	15.15	-37.3	-38.2	23.4	0.00e+00	120	41	0	726663168	48	5714
2026-01-21 20:45:22.94	36.97	15.19	-37.5	-38.4	23.2	0.00e+00	123	41	0	729808896	48	5849
2026-01-21 20:45:23.95	36.77	15.23	-37.3	-38.3	23.4	0.00e+00	121	41	0	732954624	48	5731
2026-01-21 20:45:24.96	36.56	15.26	-37.4	-38.4	23.3	0.00e+00	122	41	0	736100352	48	5832
2026-01-21 20:45:25.97	36.36	15.30	-37.4	-38.3	23.4	0.00e+00	123	41	0	739246080	48	5777
2026-01-21 20:45:26.98	36.16	15.33	-37.3	-38.3	23.3	0.00e+00	125	41	0	742391808	48	5740
2026-01-21 20:45:27.99	35.95	15.37	-37.4	-38.3	23.3	0.00e+00	122	41	0	745537536	48	5781
2026-01-21 20:45:29.00	35.75	15.40	-37.4	-38.4	23.3	0.00e+00	123	41	0	748683264	48	5820
2026-01-21 20:45:30.01	35.54	15.43	-37.4	-38.3	23.3	0.00e+00	123	41	0	751828992	48	5782
2026-01-21 20:45:31.02	35.33	15.47	-37.3	-38.3	23.3	0.00e+00	123	41	0	754974720	48	5747
2026-01-21 20:45:32.03	35.13	15.50	-37.3	-38.3	23.4	0.00e+00	123	41	0	758120448	48	5752
2026-01-21 20:45:33.04	34.92	15.53	-37.2	-38.1	23.4	0.00e+00	122	41	0	761266176	48	5651
2026-01-21 20:45:34.05	34.71	15.57	-37.2	-38.2	23.4	0.00e+00	123	41	0	764411904	48	5679
2026-01-21 20:45:35.06	34.51	15.60	-37.1	-38.0	23.5	0.00e+00	120	41	0	767557632	48	5559
2026-01-21 20:45:36.07	34.30	15.63	-37.0	-38.0	23.5	0.00e+00	123	41	0	770703360	48	5538
2026-01-21 20:45:37.08	34.09	15.66	-37.1	-38.0	23.6	0.00e+00	123	41	0	773849088	48	5559
2026-01-21 20:45:38.09	33.88	15.69	-37.3	-38.2	23.4	0.00e+00	123	41	0	776994816	48	5713
2026-01-21 20:45:39.11	33.67	15.72	-37.3	-38.2	23.4	0.00e+00	120	41	0	780140544	48	5719
2026-01-21 20:45:40.12	33.46	15.75	-37.3	-38.3	23.4	0.00e+00	122	41	0	783286272	48	5732
2026-01-21 20:45:41.13	33.25	15.78	-36.9	-37.9	23.6	0.00e+00	122	41	0	786432000	48	5483
2026-01-21 20:45:42.14	33.03	15.81	-37.1	-38.1	23.5	0.00e+00	123	41	0	789577728	48	5596
2026-01-21 20:45:43.15	32.82	15.84	-37.0	-37.9	23.5	0.00e+00	122	41	0	792723456	48	5507
2026-01-21 20:45:44.16	32.61	15.87	-37.1	-38.0	23.6	0.00e+00	123	41	0	795869184	48	5567
2026-01-21 20:45:45.17	32.40	15.90	-37.1	-38.0	23.6	0.00e+00	122	41	0	799014912	48	5576
2026-01-21 20:45:46.18	32.19	15.93	-37.1	-38.0	23.5	0.00e+00	123	41	0	802160640	48	5568
2026-01-21 20:45:47.19	31.97	15.96	-37.2	-38.2	23.4	0.00e+00	123	41	0	805306368	48	5666
2026-01-21 20:45:48.20	31.76	15.98	-37.2	-38.1	23.5	0.00e+00	122	41	0	808452096	48	5631
2026-01-21 20:45:49.21	31.55	16.01	-37.1	-38.1	23.6	0.00e+00	123	41	0	811597824	48	5616
2026-01-21 20:45:50.22	31.33	16.04	-37.1	-38.1	23.6	0.00e+00	123	41	0	814743552	48	5601
2026-01-21 20:45:51.23	31.12	16.06	-37.1	-38.1	23.5	0.00e+00	123	41	0	817889280	48	5610
2026-01-21 20:45:52.24	30.90	16.09	-37.2	-38.2	23.5	0.00e+00	122	41	0	821035008	48	5684
2026-01-21 20:45:53.25	30.69	16.12	-37.1	-38.1	23.5	0.00e+00	123	41	0	824180736	48	5615
2026-01-21 20:45:54.26	30.47	16.14	-37.1	-38.0	23.6	0.00e+00	122	41	0	827326464	48	5591
2026-01-21 20:45:55.28	30.25	16.17	-37.1	-38.1	23.6	0.00e+00	123	41	0	830472192	48	5610
2026-01-21 20:45:56.29	30.03	16.19	-36.9	-37.9	23.7	0.00e+00	122	41	0	833617920	48	5496
2026-01-21 20:45:57.30	29.82	16.22	-37.0	-37.9	23.7	0.00e+00	123	41	0	836763648	48	5508
2026-01-21 20:45:58.31	29.60	16.24	-36.8	-37.7	23.9	0.00e+00	122	41	0	839909376	48	5372
2026-01-21 20:45:59.32	29.38	16.26	-36.8	-37.8	23.9	0.00e+00	122	41	0	843055104	46	6078
2026-01-21 20:46:00.33	29.17	16.29	-36.7	-37.7	23.9	0.00e+00	123	41	0	846200832	46	5997
2026-01-21 20:46:01.34	28.95	16.31	-36.9	-37.8	23.7	0.00e+00	123	41	0	849346560	46	6113
2026-01-21 20:46:02.35	28.73	16.33	-36.8	-37.7	23.8	0.00e+00	123	41	0	852492288	46	6047
2026-01-21 20:46:03.36	28.51	16.35	-36.8	-37.7	23.9	0.00e+00	123	41	0	855638016	46	6027
2026-01-21 20:46:04.37	28.29	16.37	-36.8	-37.8	23.8	0.00e+00	122	41	0	858783744	46	6083
2026-01-21 20:46:05.38	28.07	16.39	-36.7	-37.6	24.0	0.00e+00	123	41	0	861929472	46	5984
2026-01-21 20:46:06.39	27.85	16.41	-36.8	-37.7	23.9	0.00e+00	123	41	0	865075200	46	6023
2026-01-21 20:46:07.40	27.63	16.43	-36.8	-37.7	23.9	0.00e+00	122	41	0	868220928	46	6007
2026-01-21 20:46:08.41	27.41	16.45	-36.7	-37.6	23.9	0.00e+00	122	41	0	871366656	46	5969
2026-01-21 20:46:09.42	27.19	16.47	-36.7	-37.7	23.9	0.00e+00	120	41	0	874512384	46	5997
2026-01-21 20:46:10.43	26.97	16.49	-36.9	-37.8	23.7	0.00e+00	123	41	0	877658112	46	6134
2026-01-21 20:46:11.44	26.75	16.51	-36.9	-37.9	23.7	0.00e+00	122	41	0	880803840	46	6147
2026-01-21 20:46:12.45	26.53	16.53	-36.9	-37.9	23.7	0.00e+00	122	41	0	883949568	46	6147
2026-01-21 20:46:13.46	26.30	16.55	-37.1	-38.1	23.5	0.00e+00	122	41	0	887095296	46	6295
2026-01-21 20:46:14.48	26.08	16.56	-37.1	-38.0	23.7	0.00e+00	123	41	0	890241024	46	6243
2026-01-21 20:46:15.49	25.86	16.58	-37.0	-38.0	23.7	0.00e+00	123	41	0	893386752	46	6211
2026-01-21 20:46:16.50	25.63	16.60	-37.0	-37.9	23.8	0.00e+00	120	41	0	896532480	46	6183
2026-01-21 20:46:17.51	25.41	16.61	-36.9	-37.9	23.8	0.00e+00	122	41	0	899678208	46	6140
2026-01-21 20:46:18.52	25.19	16.63	-37.0	-38.0	23.6	0.00e+00	122	41	0	902823936	46	6222
2026-01-21 20:46:19.53	24.97	16.64	-36.8	-37.7	23.8	0.00e+00	123	41	0	905969664	46	6030
2026-01-21 20:46:20.54	24.74	16.66	-36.8	-37.7	23.8	0.00e+00	120	41	0	909115392	46	6023
2026-01-21 20:46:21.55	24.52	16.67	-36.9	-37.9	23.7	0.00e+00	123	41	0	912261120	46	6157
2026-01-21 20:46:22.56	24.29	16.68	-36.7	-37.6	23.9	0.00e+00	120	41	0	916455424	46	5992
2026-01-21 20:46:23.57	24.07	16.70	-36.8	-37.7	23.9	0.00e+00	122	41	0	919601152	46	6010
2026-01-21 20:46:24.58	23.85	16.71	-36.8	-37.7	23.8	0.00e+00	123	41	0	922746880	46	6058
2026-01-21 20:46:25.59	23.62	16.72	-37.0	-37.9	23.6	0.00e+00	120	41	0	924844032	46	6190
2026-01-21 20:46:26.60	23.40	16.73	-37.0	-37.9	23.6	0.00e+00	123	41	0	927989760	46	6184
2026-01-21 20:46:27.61	23.17	16.75	-37.0	-38.0	23.5	0.00e+00	123	41	0	932184064	46	6222
2026-01-21 20:46:28.62	22.95	16.76	-37.0	-38.0	23.5	0.00e+00	123	41	0	935329792	46	6236
2026-01-21 20:46:29.63	22.72	16.77	-37.0	-37.9	23.4	0.00e+00	123	41	0	938475520	46	6205
2026-01-21 20:46:30.64	22.50	16.78	-37.1	-38.0	23.4	0.00e+00	122	41	0	941621248	46	6247
2026-01-21 20:46:31.64	22.27	16.79	-37.1	-38.0	23.5	0.00e+00	123	41	0	944766976	46	6275
2026-01-21 20:46:32.65	22.05	16.80	-37.0	-38.0	23.5	0.00e+00	122	41	0	947912704	46	6222
2026-01-21 20:46:33.66	21.82	16.80	-37.0	-37.9	23.6	0.00e+00	120	41	0	951058432	46	6185
2026-01-21 20:46:34.67	21.60	16.81	-37.0	-37.9	23.5	0.00e+00	120	41	0	954204160	46	6183
2026-01-21 20:46:35.68	21.37	16.82	-37.1	-38.0	23.5	0.00e+00	122	41	0	957349888	46	6264
2026-01-21 20:46:36.69	21.14	16.83	-37.1	-38.1	23.5	0.00e+00	123	41	0	960495616	46	6293
2026-01-21 20:46:37.70	20.92	16.83	-37.2	-38.2	23.4	0.00e+00	123	41	0	963641344	46	6353
2026-01-21 20:46:38.71	20.69	16.84	-37.5	-38.5	23.2	0.00e+00	120	41	0	966787072	46	6578
2026-01-21 20:46:39.72	20.46	16.85	-37.6	-38.5	23.1	0.00e+00	122	41	0	969932800	46	6636
2026-01-21 20:46:40.73	20.24	16.85	-37.5	-38.5	23.2	0.00e+00	123	41	0	973078528	46	6603
2026-01-21 20:46:41.74	20.01	16.86	-37.5	-38.5	23.2	0.00e+00	123	41	0	976224256	46	6606
2026-01-21 20:46:42.76	19.78	16.86	-37.4	-38.3	23.3	0.00e+00	123	41	0	979369984	46	6493
2026-01-21 20:46:43.76	19.56	16.87	-37.2	-38.2	23.4	0.00e+00	122	41	0	982515712	46	6351
2026-01-21 20:46:44.78	19.33	16.87	-37.0	-38.0	23.6	0.00e+00	123	41	0	985661440	46	6220
2026-01-21 20:46:45.79	19.10	16.87	-37.0	-38.0	23.7	0.00e+00	123	41	0	988807168	46	6214
2026-01-21 20:46:46.80	18.88	16.88	-37.0	-37.9	23.7	0.00e+00	120	41	0	991952896	46	6161
2026-01-21 20:46:47.81	18.65	16.88	-36.8	-37.8	23.7	0.00e+00	123	41	0	995098624	46	6077
2026-01-21 20:46:48.82	18.42	16.88	-36.9	-37.8	23.7	0.00e+00	120	41	0	998244352	46	6087
2026-01-21 20:46:49.83	18.20	16.88	-36.8	-37.8	23.7	0.00e+00	123	41	0	1001390080	46	6085
2026-01-21 20:46:50.84	17.97	16.88	-36.8	-37.7	23.8	0.00e+00	123	41	0	1004535808	46	6041
2026-01-21 20:46:51.85	17.74	16.88	-36.9	-37.8	23.8	0.00e+00	123	41	0	1007681536	46	6125
2026-01-21 20:46:52.86	17.51	16.88	-36.9	-37.8	23.7	0.00e+00	122	41	0	1010827264	46	6090
2026-01-21 20:46:53.87	17.29	16.88	-36.9	-37.8	23.8	0.00e+00	122	41	0	1013972992	46	6089
2026-01-21 20:46:54.88	17.06	16.88	-36.8	-37.8	23.7	0.00e+00	123	41	0	1017118720	46	6071
2026-01-21 20:46:55.89	16.83	16.88	-36.7	-37.7	23.7	0.00e+00	123	41	0	1020264448	46	6019
2026-01-21 20:46:56.90	16.61	16.88	-36.9	-37.9	23.6	0.00e+00	122	41	0	1023410176	46	6153
2026-01-21 20:46:57.91	16.38	16.88	-36.8	-37.7	23.7	0.00e+00	122	41	0	1026555904	46	6037
2026-01-21 20:46:58.92	16.15	16.87	-36.8	-37.7	23.7	0.00e+00	123	41	0	1029701632	46	6053
2026-01-21 20:46:59.93	15.93	16.87	-36.6	-37.5	24.0	0.00e+00	123	41	0	1032847360	46	5890
2026-01-21 20:47:00.94	15.70	16.87	-36.7	-37.6	23.8	0.00e+00	122	41	0	1035993088	46	5972
2026-01-21 20:47:01.96	15.47	16.86	-36.6	-37.6	23.8	0.00e+00	123	41	0	1039138816	46	5931
2026-01-21 20:47:02.97	15.24	16.86	-36.7	-37.6	23.7	0.00e+00	122	41	0	1042284544	46	5994
2026-01-21 20:47:03.98	15.02	16.85	-36.6	-37.5	23.9	0.00e+00	123	41	0	1045430272	46	5925
2026-01-21 20:47:04.99	14.79	16.85	-36.6	-37.5	23.9	0.00e+00	123	41	0	1048576000	46	5883
2026-01-21 20:47:06.00	14.56	16.84	-36.6	-37.5	23.9	0.00e+00	122	41	0	1051721728	46	5907
2026-01-21 20:47:07.01	14.34	16.83	-36.7	-37.6	23.9	0.00e+00	123	41	0	1054867456	46	5955
2026-01-21 20:47:08.02	14.11	16.83	-36.6	-37.5	23.9	0.00e+00	122	41	0	1058013184	46	5893
2026-01-21 20:47:09.03	13.89	16.82	-36.6	-37.5	23.9	0.00e+00	122	41	0	1061158912	46	5917
2026-01-21 20:47:10.04	13.66	16.81	-36.6	-37.5	24.0	0.00e+00	122	41	0	1064304640	46	5893
2026-01-21 20:47:11.05	13.43	16.80	-36.6	-37.5	23.9	0.00e+00	123	41	0	1067450368	46	5914
2026-01-21 20:47:12.06	13.21	16.80	-36.8	-37.7	23.8	0.00e+00	120	41	0	1070596096	46	6030
2026-01-21 20:47:13.07	12.98	16.79	-36.7	-37.6	23.9	0.00e+00	123	41	0	1073741824	46	5958
2026-01-21 20:47:14.08	12.76	16.78	-36.7	-37.6	23.9	0.00e+00	122	41	0	1076887552	46	5973
2026-01-21 20:47:15.09	12.53	16.77	-36.6	-37.6	24.0	0.00e+00	122	41	0	1080033280	46	5931
2026-01-21 20:47:16.10	12.31	16.76	-36.8	-37.7	23.8	0.00e+00	122	41	0	1083179008	46	6009
2026-01-21 20:47:17.11	12.08	16.75	-36.7	-37.6	23.9	0.00e+00	123	41	0	1086324736	46	5960
2026-01-21 20:47:18.12	11.86	16.73	-36.8	-37.7	23.8	0.00e+00	123	41	0	1089470464	46	6025
2026-01-21 20:47:19.13	11.63	16.72	-36.8	-37.7	23.9	0.00e+00	121	41	0	1092616192	46	6015
2026-01-21 20:47:20.15	11.41	16.71	-36.9	-37.8	23.8	0.00e+00	123	41	0	1095761920	46	6107
2026-01-21 20:47:21.16	11.18	16.70	-36.8	-37.7	23.8	0.00e+00	120	41	0	1098907648	46	6024
2026-01-21 20:47:22.17	10.96	16.68	-36.7	-37.7	23.9	0.00e+00	122	41	0	1102053376	46	5998
2026-01-21 20:47:23.18	10.73	16.67	-37.1	-38.0	23.6	0.00e+00	123	41	0	1105199104	46	6260
2026-01-21 20:47:24.19	10.51	16.66	-37.1	-38.0	23.7	0.00e+00	123	41	0	1108344832	46	6262
2026-01-21 20:47:25.20	10.29	16.64	-37.1	-38.0	23.5	0.00e+00	123	41	0	1111490560	46	6264
2026-01-21 20:47:26.21	10.06	16.63	-37.1	-38.0	23.5	0.00e+00	122	41	0	1114636288	46	6277
2026-01-21 20:47:27.21	9.84	16.61	-37.3	-38.3	23.3	0.00e+00	123	41	0	1117782016	46	6458
2026-01-21 20:47:28.22	9.62	16.60	-37.5	-38.5	23.2	0.00e+00	123	41	0	1120927744	46	6601
2026-01-21 20:47:29.24	9.40	16.58	-37.3	-38.3	23.4	0.00e+00	123	41	0	1124073472	46	6437
2026-01-21 20:47:30.25	9.17	16.56	-37.3	-38.3	23.4	0.00e+00	123	41	0	1127219200	46	6450
2026-01-21 20:47:31.26	8.95	16.55	-37.0	-38.0	23.6	0.00e+00	123	41	0	1130364928	46	6227
2026-01-21 20:47:32.27	8.73	16.53	-37.1	-38.0	23.6	0.00e+00	120	41	0	1133510656	46	6243
2026-01-21 20:47:33.28	8.51	16.51	-37.1	-38.0	23.5	0.00e+00	123	41	0	1136656384	46	6243
2026-01-21 20:47:34.28	8.29	16.49	-37.0	-37.9	23.7	0.00e+00	120	41	0	1139802112	46	6173
2026-01-21 20:47:35.29	8.07	16.47	-37.0	-37.9	23.6	0.00e+00	123	41	0	1142947840	46	6200
2026-01-21 20:47:36.30	7.85	16.46	-37.0	-37.9	23.7	0.00e+00	123	41	0	1146093568	46	6175
2026-01-21 20:47:37.31	7.63	16.44	-37.0	-37.9	23.6	0.00e+00	123	41	0	1149239296	46	6181
2026-01-21 20:47:38.32	7.41	16.42	-37.1	-38.1	23.4	0.00e+00	122	41	0	1152385024	46	6290
2026-01-21 20:47:39.33	7.19	16.40	-37.2	-38.2	23.3	0.00e+00	120	41	0	1155530752	46	6397
2026-01-21 20:47:40.34	6.97	16.37	-37.3	-38.2	23.3	0.00e+00	122	41	0	1158676480	46	6416
2026-01-21 20:47:41.36	6.75	16.35	-37.1	-38.1	23.4	0.00e+00	122	41	0	1161822208	46	6325
2026-01-21 20:47:42.37	6.53	16.33	-37.1	-38.1	23.4	0.00e+00	123	41	0	1164967936	46	6314
2026-01-21 20:47:43.38	6.31	16.31	-37.2	-38.1	23.4	0.00e+00	123	41	0	1168113664	46	6340
2026-01-21 20:47:44.39	6.09	16.29	-37.0	-37.9	23.6	0.00e+00	122	41	0	1171259392	46	6180
2026-01-21 20:47:45.40	5.87	16.26	-36.7	-37.6	23.8	0.00e+00	120	41	0	1174405120	46	5992
2026-01-21 20:47:46.41	5.66	16.24	-36.7	-37.6	23.8	0.00e+00	123	41	0	1177550848	46	5962
2026-01-21 20:47:47.42	5.44	16.22	-36.9	-37.8	23.8	0.00e+00	120	41	0	1180696576	46	6080
2026-01-21 20:47:48.43	5.22	16.19	-36.7	-37.7	23.9	0.00e+00	123	41	0	1183842304	46	6000
2026-01-21 20:47:49.44	5.01	16.17	-36.8	-37.7	23.8	0.00e+00	123	41	0	1186988032	46	6058
2026-01-21 20:47:50.45	4.79	16.14	-36.8	-37.7	23.8	0.00e+00	123	41	0	1190133760	46	6045
2026-01-21 20:47:51.46	4.57	16.12	-36.8	-37.7	23.9	0.00e+00	123	41	0	1193279488	46	6036
2026-01-21 20:47:52.47	4.36	16.09	-36.7	-37.6	23.9	0.00e+00	123	41	0	1196425216	46	5944
2026-01-21 20:47:53.48	4.14	16.07	-36.7	-37.6	24.0	0.00e+00	123	41	0	1199570944	46	5979
2026-01-21 20:47:54.49	3.93	16.04	-36.8	-37.7	23.9	0.00e+00	122	41	0	1202716672	46	6031
2026-01-21 20:47:55.50	3.71	16.01	-36.8	-37.8	23.8	0.00e+00	120	41	0	1206910976	46	6078
2026-01-21 20:47:56.51	3.50	15.99	-36.9	-37.8	23.8	0.00e+00	123	41	0	1210056704	46	6107
2026-01-21 20:47:57.52	3.29	15.96	-36.9	-37.9	23.7	0.00e+00	120	41	0	1213202432	46	6155
2026-01-21 20:47:58.53	3.07	15.93	-36.8	-37.8	23.8	0.00e+00	123	41	0	1216348160	46	6065
2026-01-21 20:47:59.55	2.86	15.90	-36.8	-37.7	23.9	0.00e+00	123	41	0	1218445312	46	6028
2026-01-21 20:48:00.56	2.65	15.87	-36.7	-37.7	23.9	0.00e+00	122	41	0	1222639616	46	6008
2026-01-21 20:48:01.57	2.44	15.85	-36.8	-37.7	23.9	0.00e+00	122	41	0	1225785344	46	6015
2026-01-21 20:48:02.58	2.22	15.82	-36.7	-37.6	24.0	0.00e+00	120	41	0	1228931072	46	5972
2026-01-21 20:48:03.59	2.01	15.79	-36.9	-37.8	23.8	0.00e+00	123	41	0	1232076800	46	6095
2026-01-21 20:48:04.60	1.80	15.76	-37.0	-37.9	23.7	0.00e+00	122	41	0	1235222528	46	6183
2026-01-21 20:48:05.61	1.59	15.73	-37.0	-37.9	23.7	0.00e+00	123	41	0	1238368256	46	6201
2026-01-21 20:48:06.62	1.38	15.70	-37.0	-37.9	23.7	0.00e+00	122	41	0	1241513984	46	6190
2026-01-21 20:48:07.63	1.17	15.66	-36.9	-37.8	23.8	0.00e+00	123	41	0	1244659712	46	6107
2026-01-21 20:48:08.64	0.97	15.63	-37.0	-37.9	23.7	0.00e+00	120	41	0	1247805440	46	6179
2026-01-21 20:48:09.65	0.76	15.60	-37.0	-38.0	23.6	0.00e+00	122	41	0	1250951168	46	6210
2026-01-21 20:48:10.66	0.55	15.57	-37.0	-38.0	23.6	0.00e+00	123	41	0	1254096896	46	6228
2026-01-21 20:48:11.67	0.34	15.54	-37.0	-37.9	23.6	0.00e+00	122	41	0	1257242624	46	6173
2026-01-21 20:48:12.69	0.13	15.50	-37.1	-38.0	23.6	0.00e+00	120	41	0	1260388352	46	6264
2026-01-21 20:48:13.70	359.93	15.47	-37.0	-38.0	23.6	0.00e+00	123	41	0	1263534080	46	6206
2026-01-21 20:48:14.70	359.72	15.44	-37.0	-37.9	23.6	0.00e+00	122	41	0	1266679808	46	6175
2026-01-21 20:48:15.72	359.51	15.40	-37.0	-38.0	23.7	0.00e+00	123	41	0	1269825536	46	6221
2026-01-21 20:48:16.73	359.31	15.37	-37.0	-37.9	23.7	0.00e+00	127	41	0	1272971264	46	6167
2026-01-21 20:48:17.74	359.10	15.33	-37.0	-37.9	23.6	0.00e+00	122	41	0	1276116992	46	6195
2026-01-21 20:48:18.75	358.90	15.30	-36.9	-37.8	23.8	0.00e+00	122	41	0	1279262720	46	6116
2026-01-21 20:48:19.76	358.70	15.26	-37.0	-37.9	23.7	0.00e+00	123	41	0	1282408448	46	6205
2026-01-21 20:48:20.77	358.49	15.23	-36.9	-37.9	23.7	0.00e+00	122	41	0	1285554176	46	6135
2026-01-21 20:48:21.78	358.29	15.19	-37.0	-38.0	23.7	0.00e+00	122	41	0	1288699904	46	6228
2026-01-21 20:48:22.79	358.09	15.16	-37.0	-37.9	23.7	0.00e+00	122	41	0	1291845632	46	6170
2026-01-21 20:48:23.80	357.89	15.12	-37.0	-37.9	23.7	0.00e+00	122	41	0	1294991360	46	6168
2026-01-21 20:48:24.81	357.69	15.08	-37.0	-37.9	23.6	0.00e+00	123	41	0	1298137088	46	6159
2026-01-21 20:48:25.82	357.49	15.05	-36.9	-37.8	23.6	0.00e+00	120	41	0	1301282816	46	6084
2026-01-21 20:48:26.83	357.29	15.01	-37.1	-38.1	23.4	0.00e+00	123	41	0	1304428544	46	6302
2026-01-21 20:48:27.84	357.09	14.97	-37.0	-37.9	23.6	0.00e+00	121	41	0	1307574272	46	6182
2026-01-21 20:48:28.85	356.89	14.93	-37.0	-38.0	23.5	0.00e+00	123	41	0	1310720000	46	6206
2026-01-21 20:48:29.86	356.69	14.90	-36.8	-37.8	23.7	0.00e+00	120	41	0	1313865728	46	6077
2026-01-21 20:48:30.87	356.49	14.86	-37.1	-38.0	23.5	0.00e+00	120	41	0	1317011456	46	6246
2026-01-21 20:48:31.88	356.29	14.82	-37.0	-37.9	23.6	0.00e+00	123	41	0	1320157184	46	6150
2026-01-21 20:48:32.89	356.10	14.78	-37.1	-38.0	23.5	0.00e+00	123	41	0	1323302912	46	6266
2026-01-21 20:48:33.90	355.90	14.74	-36.8	-37.8	23.8	0.00e+00	123	41	0	1326448640	46	6075
2026-01-21 20:48:34.91	355.70	14.70	-36.9	-37.8	23.7	0.00e+00	122	41	0	1329594368	46	6105
2026-01-21 20:48:35.92	355.51	14.66	-37.0	-37.9	23.7	0.00e+00	123	41	0	1332740096	46	6173
2026-01-21 20:48:36.93	355.31	14.62	-37.2	-38.1	23.5	0.00e+00	122	41	0	1335885824	46	6331
2026-01-21 20:48:37.94	355.12	14.58	-37.1	-38.1	23.5	0.00e+00	120	41	0	1339031552	46	6288
2026-01-21 20:48:38.95	354.92	14.54	-37.2	-38.1	23.4	0.00e+00	122	41	0	1342177280	46	6325
2026-01-21 20:48:39.96	354.73	14.50	-37.1	-38.0	23.5	0.00e+00	122	41	0	1345323008	46	6270
2026-01-21 20:48:40.97	354.54	14.46	-37.1	-38.1	23.4	0.00e+00	123	41	0	1348468736	46	6290
2026-01-21 20:48:41.98	354.35	14.42	-37.0	-37.9	23.5	0.00e+00	123	41	0	1351614464	46	6188
2026-01-21 20:48:42.99	354.15	14.38	-37.0	-38.0	23.5	0.00e+00	122	41	0	1354760192	46	6232
2026-01-21 20:48:44.00	353.96	14.33	-37.1	-38.1	23.4	0.00e+00	123	41	0	1357905920	46	6286
2026-01-21 20:48:45.01	353.77	14.29	-37.0	-38.0	23.5	0.00e+00	122	41	0	1361051648	46	6219
2026-01-21 20:48:46.02	353.58	14.25	-37.1	-38.1	23.4	0.00e+00	120	41	0	1364197376	46	6300
2026-01-21 20:48:47.03	353.39	14.21	-37.2	-38.2	23.3	0.00e+00	123	41	0	1367343104	46	6394
2026-01-21 20:48:48.04	353.20	14.16	-37.5	-38.5	23.2	0.00e+00	122	41	0	1370488832	46	6575
2026-01-21 20:48:49.05	353.01	14.12	-37.4	-38.4	23.2	0.00e+00	123	41	0	1373634560	46	6545
2026-01-21 20:48:50.06	352.83	14.08	-37.6	-38.6	23.1	0.00e+00	123	41	0	1376780288	46	6659
2026-01-21 20:48:51.07	352.64	14.04	-37.2	-38.2	23.5	0.00e+00	123	41	0	1379926016	46	6366
2026-01-21 20:48:52.09	352.45	13.99	-37.3	-38.2	23.4	0.00e+00	122	41	0	1383071744	46	6402
2026-01-21 20:48:53.10	352.26	13.95	-37.1	-38.1	23.4	0.00e+00	123	41	0	1386217472	46	6283
2026-01-21 20:48:54.11	352.08	13.90	-37.2	-38.1	23.5	0.00e+00	122	41	0	1389363200	46	6337
2026-01-21 20:48:55.12	351.89	13.86	-37.1	-38.0	23.5	0.00e+00	123	41	0	1392508928	46	6247
2026-01-21 20:48:56.13	351.71	13.81	-37.3	-38.2	23.4	0.00e+00	123	41	0	1395654656	46	6383
2026-01-21 20:48:57.14	351.53	13.77	-37.0	-37.9	23.7	0.00e+00	123	41	0	1398800384	46	6146
2026-01-21 20:48:58.15	351.34	13.72	-37.1	-38.0	23.5	0.00e+00	123	41	0	1401946112	46	6248
2026-01-21 20:48:59.16	351.16	13.68	-37.2	-38.2	23.3	0.00e+00	120	41	0	1405091840	46	6379
2026-01-21 20:49:00.17	350.98	13.63	-37.3	-38.2	23.3	0.00e+00	123	41	0	1408237568	46	6409
2026-01-21 20:49:01.18	350.80	13.59	-37.3	-38.3	23.3	0.00e+00	123	41	0	1411383296	46	6430
2026-01-21 20:49:02.19	350.61	13.54	-37.4	-38.3	23.2	0.00e+00	123	41	0	1414529024	46	6475
2026-01-21 20:49:03.20	350.43	13.50	-37.3	-38.3	23.3	0.00e+00	123	41	0	1417674752	46	6442
2026-01-21 20:49:04.21	350.25	13.45	-37.4	-38.3	23.2	0.00e+00	123	41	0	1420820480	46	6481
2026-01-21 20:49:05.22	350.07	13.40	-37.3	-38.2	23.3	0.00e+00	120	41	0	1423966208	46	6409
2026-01-21 20:49:06.23	349.90	13.36	-37.3	-38.3	23.2	0.00e+00	122	41	0	1427111936	46	6458
2026-01-21 20:49:07.24	349.72	13.31	-37.4	-38.3	23.2	0.00e+00	120	41	0	1430257664	46	6476
2026-01-21 20:49:08.25	349.54	13.26	-37.4	-38.3	23.2	0.00e+00	123	41	0	1433403392	46	6486
2026-01-21 20:49:09.26	349.36	13.22	-37.5	-38.5	23.1	0.00e+00	123	41	0	1436549120	46	6574
2026-01-21 20:49:10.27	349.19	13.17	-37.6	-38.6	23.1	0.00e+00	122	41	0	1439694848	46	6685
2026-01-21 20:49:11.28	349.01	13.12	-37.7	-38.7	23.0	0.00e+00	123	41	0	1442840576	48	6003
2026-01-21 20:49:12.29	348.83	13.07	-37.6	-38.6	23.1	0.00e+00	122	41	0	1445986304	48	5961
2026-01-21 20:49:13.30	348.66	13.02	-37.8	-38.8	22.9	0.00e+00	122	41	0	1449132032	48	6114
2026-01-21 20:49:14.31	348.49	12.98	-38.0	-39.0	22.7	0.00e+00	122	41	0	1452277760	48	6213
2026-01-21 20:49:15.32	348.31	12.93	-38.0	-39.0	22.7	0.00e+00	120	41	0	1455423488	48	6268
2026-01-21 20:49:16.33	348.14	12.88	-38.2	-39.2	22.5	0.00e+00	123	41	0	1458569216	48	6388
2026-01-21 20:49:17.34	347.97	12.83	-38.2	-39.2	22.6	0.00e+00	124	42	0	1461714944	48	6365
2026-01-21 20:49:18.35	347.79	12.78	-37.8	-38.8	22.8	0.00e+00	123	41	0	1464860672	48	6134
2026-01-21 20:49:19.36	347.62	12.73	-37.9	-38.9	22.7	0.00e+00	123	41	0	1468006400	48	6161
2026-01-21 20:49:20.37	347.45	12.68	-37.8	-38.8	22.8	0.00e+00	120	41	0	1471152128	48	6090
2026-01-21 20:49:21.38	347.28	12.64	-38.0	-39.0	22.8	0.00e+00	123	41	0	1474297856	48	6207
2026-01-21 20:49:22.39	347.11	12.59	-37.8	-38.8	22.7	0.00e+00	123	41	0	1477443584	48	6101
2026-01-21 20:49:23.40	346.94	12.54	-37.8	-38.8	22.8	0.00e+00	122	41	0	1481637888	48	6125
2026-01-21 20:49:24.41	346.78	12.49	-37.5	-38.5	23.1	0.00e+00	123	41	0	1484783616	48	5866
2026-01-21 20:49:25.42	346.61	12.44	-37.4	-38.4	23.2	0.00e+00	123	41	0	1486880768	48	5807
2026-01-21 20:49:26.43	346.44	12.39	-37.4	-38.4	23.2	0.00e+00	120	41	0	1490026496	48	5827
2026-01-21 20:49:27.44	346.27	12.34	-37.5	-38.4	23.1	0.00e+00	123	41	0	1493172224	48	5851
2026-01-21 20:49:28.45	346.11	12.29	-37.6	-38.6	23.1	0.00e+00	123	41	0	1497366528	48	5930
2026-01-21 20:49:29.47	345.94	12.24	-37.4	-38.4	23.1	0.00e+00	122	41	0	1500512256	48	5823
2026-01-21 20:49:30.48	345.78	12.19	-37.5	-38.5	23.0	0.00e+00	123	41	0	1503657984	48	5912
2026-01-21 20:49:31.49	345.61	12.14	-37.5	-38.4	23.1	0.00e+00	123	41	0	1506803712	48	5855
2026-01-21 20:49:32.50	345.45	12.08	-37.4	-38.4	23.1	0.00e+00	120	41	0	1508900864	48	5814
2026-01-21 20:49:33.51	345.28	12.03	-37.7	-38.7	22.9	0.00e+00	123	41	0	1513095168	48	6022
2026-01-21 20:49:34.52	345.12	11.98	-37.7	-38.7	22.7	0.00e+00	123	42	0	1516240896	48	6053
2026-01-21 20:49:35.53	344.96	11.93	-38.0	-39.1	22.5	0.00e+00	123	41	0	1519386624	48	6285
2026-01-21 20:49:36.54	344.80	11.88	-37.9	-38.9	22.6	0.00e+00	120	41	0	1522532352	48	6152
2026-01-21 20:49:37.55	344.64	11.83	-38.0	-39.1	22.5	0.00e+00	123	41	0	1525678080	48	6286
2026-01-21 20:49:38.56	344.48	11.78	-37.9	-38.9	22.5	0.00e+00	123	41	0	1528823808	48	6188
2026-01-21 20:49:39.57	344.32	11.73	-38.1	-39.1	22.4	0.00e+00	123	41	0	1531969536	48	6318
2026-01-21 20:49:40.58	344.16	11.67	-38.2	-39.3	22.4	0.00e+00	122	41	0	1535115264	48	6434
2026-01-21 20:49:41.59	344.00	11.62	-38.1	-39.1	22.3	0.00e+00	123	41	0	1538260992	48	6338
2026-01-21 20:49:42.60	343.84	11.57	-38.0	-39.0	22.5	0.00e+00	123	41	0	1541406720	48	6252
2026-01-21 20:49:43.61	343.68	11.52	-38.1	-39.1	22.4	0.00e+00	120	41	0	1544552448	48	6336
2026-01-21 20:49:44.62	343.53	11.47	-38.2	-39.2	22.3	0.00e+00	123	41	0	1547698176	48	6413
2026-01-21 20:49:45.63	343.37	11.42	-38.3	-39.4	22.3	0.00e+00	123	41	0	1550843904	48	6501
2026-01-21 20:49:46.64	343.21	11.36	-38.5	-39.5	22.1	0.00e+00	123	41	0	1553989632	48	6628
2026-01-21 20:49:47.65	343.06	11.31	-38.6	-39.6	22.2	0.00e+00	120	41	0	1557135360	48	6726
2026-01-21 20:49:48.66	342.90	11.26	-38.4	-39.4	22.2	0.00e+00	122	41	0	1560281088	48	6573
2026-01-21 20:49:49.68	342.75	11.20	-38.5	-39.6	22.2	0.00e+00	122	41	0	1563426816	48	6671
2026-01-21 20:49:50.68	342.60	11.15	-38.4	-39.4	22.3	0.00e+00	123	41	0	1566572544	48	6553
2026-01-21 20:49:51.70	342.44	11.10	-38.3	-39.3	22.4	0.00e+00	123	41	0	1569718272	48	6483
2026-01-21 20:49:52.71	342.29	11.05	-38.3	-39.3	22.4	0.00e+00	120	41	0	1572864000	48	6496
2026-01-21 20:49:53.72	342.14	10.99	-38.4	-39.4	22.4	0.00e+00	123	41	0	1576009728	48	6541
2026-01-21 20:49:54.73	341.99	10.94	-38.3	-39.4	22.6	0.00e+00	123	41	0	1579155456	48	6509
2026-01-21 20:49:55.74	341.83	10.89	-38.2	-39.2	22.5	0.00e+00	120	41	0	1582301184	48	6378
2026-01-21 20:49:56.75	341.68	10.83	-38.2	-39.2	22.5	0.00e+00	120	41	0	1585446912	48	6368
2026-01-21 20:49:57.76	341.53	10.78	-38.3	-39.4	22.5	0.00e+00	123	41	0	1588592640	48	6518
2026-01-21 20:49:58.77	341.39	10.73	-38.6	-39.6	22.2	0.00e+00	123	41	0	1591738368	48	6701
2026-01-21 20:49:59.78	341.24	10.67	-38.6	-39.6	22.2	0.00e+00	122	41	0	1594884096	48	6721
2026-01-21 20:50:00.79	341.09	10.62	-38.5	-39.6	22.3	0.00e+00	120	41	0	1598029824	48	6658
2026-01-21 20:50:01.80	340.94	10.57	-38.7	-39.8	22.0	0.00e+00	122	41	0	1601175552	50	6074
2026-01-21 20:50:02.81	340.79	10.51	-38.6	-39.6	22.2	0.00e+00	123	41	0	1604321280	50	5982
2026-01-21 20:50:03.82	340.65	10.46	-38.7	-39.8	22.1	0.00e+00	120	41	0	1607467008	50	6079
2026-01-21 20:50:04.83	340.50	10.41	-38.6	-39.7	22.0	0.00e+00	122	41	0	1610612736	50	6024
2026-01-21 20:50:05.84	340.36	10.35	-38.8	-39.8	22.0	0.00e+00	122	41	0	1613758464	50	6123
2026-01-21 20:50:06.85	340.21	10.30	-38.4	-39.5	22.3	0.00e+00	123	41	0	1616904192	50	5878
2026-01-21 20:50:07.86	340.07	10.25	-38.4	-39.5	22.3	0.00e+00	121	41	0	1620049920	50	5874
2026-01-21 20:50:08.87	339.92	10.19	-38.2	-39.2	22.3	0.00e+00	123	41	0	1623195648	50	5714
2026-01-21 20:50:09.88	339.78	10.14	-38.4	-39.5	22.2	0.00e+00	123	41	0	1626341376	50	5869
2026-01-21 20:50:10.89	339.64	10.08	-38.0	-39.0	22.6	0.00e+00	122	41	0	1629487104	50	5571
2026-01-21 20:50:11.90	339.50	10.03	-37.9	-39.0	22.7	0.00e+00	122	41	0	1632632832	50	5532
2026-01-21 20:50:12.91	339.36	9.98	-38.2	-39.2	22.4	0.00e+00	120	41	0	1635778560	50	5689
2026-01-21 20:50:13.92	339.21	9.92	-38.3	-39.3	22.4	0.00e+00	122	41	0	1638924288	50	5782
2026-01-21 20:50:14.93	339.07	9.87	-38.1	-39.2	22.6	0.00e+00	123	41	0	1642070016	50	5660
2026-01-21 20:50:15.94	338.93	9.81	-38.1	-39.1	22.6	0.00e+00	122	41	0	1645215744	50	5641
2026-01-21 20:50:16.95	338.79	9.76	-38.2	-39.2	22.5	0.00e+00	122	41	0	1648361472	50	5713
2026-01-21 20:50:17.96	338.66	9.70	-38.3	-39.3	22.5	0.00e+00	122	41	0	1651507200	50	5791
2026-01-21 20:50:18.97	338.52	9.65	-38.4	-39.4	22.3	0.00e+00	122	41	0	1654652928	50	5835
2026-01-21 20:50:19.98	338.38	9.59	-38.5	-39.6	22.2	0.00e+00	123	41	0	1657798656	50	5951
2026-01-21 20:50:20.99	338.24	9.54	-38.5	-39.5	22.2	0.00e+00	123	41	0	1660944384	50	5896
2026-01-21 20:50:22.00	338.11	9.49	-38.4	-39.4	22.3	0.00e+00	123	41	0	1664090112	50	5831
2026-01-21 20:50:23.01	337.97	9.43	-38.8	-39.8	21.8	0.00e+00	120	41	0	1667235840	50	6119
2026-01-21 20:50:24.02	337.83	9.38	-38.6	-39.7	22.1	0.00e+00	123	41	0	1670381568	50	6007
2026-01-21 20:50:25.03	337.70	9.32	-38.3	-39.3	22.4	0.00e+00	122	41	0	1673527296	50	5780
2026-01-21 20:50:26.04	337.56	9.27	-38.5	-39.6	22.1	0.00e+00	123	41	0	1676673024	50	5936
2026-01-21 20:50:27.05	337.43	9.21	-38.6	-39.7	22.1	0.00e+00	122	41	0	1679818752	50	6007
2026-01-21 20:50:28.06	337.30	9.16	-38.1	-39.2	22.6	0.00e+00	123	41	0	1682964480	50	5670
2026-01-21 20:50:29.07	337.16	9.10	-38.5	-39.6	22.2	0.00e+00	123	41	0	1686110208	50	5933
2026-01-21 20:50:30.08	337.03	9.05	-38.4	-39.5	22.2	0.00e+00	123	41	0	1689255936	50	5863
2026-01-21 20:50:31.09	336.90	8.99	-38.5	-39.6	22.2	0.00e+00	123	41	0	1692401664	50	5937
2026-01-21 20:50:32.10	336.77	8.94	-38.6	-39.6	22.2	0.00e+00	123	41	0	1695547392	50	5967
2026-01-21 20:50:33.11	336.64	8.88	-38.5	-39.5	22.1	0.00e+00	123	41	0	1698693120	50	5900
2026-01-21 20:50:34.13	336.50	8.83	-38.3	-39.3	22.3	0.00e+00	123	41	0	1701838848	50	5766
2026-01-21 20:50:35.14	336.37	8.77	-38.5	-39.5	22.1	0.00e+00	123	41	0	1704984576	50	5911
2026-01-21 20:50:36.14	336.25	8.72	-38.6	-39.6	22.0	0.00e+00	123	41	0	1708130304	50	5971
2026-01-21 20:50:37.16	336.12	8.66	-38.7	-39.7	22.0	0.00e+00	123	41	0	1711276032	50	6029
2026-01-21 20:50:38.17	335.99	8.61	-38.6	-39.6	21.9	0.00e+00	123	41	0	1714421760	50	5990
2026-01-21 20:50:39.18	335.86	8.55	-38.6	-39.6	22.1	0.00e+00	122	41	0	1717567488	50	5964
2026-01-21 20:50:40.19	335.73	8.50	-38.7	-39.7	22.1	0.00e+00	122	41	0	1720713216	50	6031
2026-01-21 20:50:41.20	335.60	8.44	-38.5	-39.5	22.1	0.00e+00	122	41	0	1723858944	50	5896
2026-01-21 20:50:42.21	335.48	8.39	-38.6	-39.6	22.0	0.00e+00	123	41	0	1727004672	50	5974
2026-01-21 20:50:43.22	335.35	8.33	-38.7	-39.7	21.9	0.00e+00	123	41	0	1730150400	50	6056
2026-01-21 20:50:44.23	335.23	8.28	-38.6	-39.6	22.1	0.00e+00	122	41	0	1733296128	50	5963
2026-01-21 20:50:45.24	335.10	8.22	-38.8	-39.9	21.9	0.00e+00	122	41	0	1736441856	50	6138
2026-01-21 20:50:46.25	334.98	8.17	-38.7	-39.7	22.0	0.00e+00	123	41	0	1739587584	50	6037
2026-01-21 20:50:47.26	334.85	8.11	-38.7	-39.7	22.0	0.00e+00	122	41	0	1742733312	50	6064
2026-01-21 20:50:48.27	334.73	8.06	-39.1	-40.1	21.7	0.00e+00	123	41	0	1745879040	50	6341
2026-01-21 20:50:49.28	334.61	8.00	-38.8	-39.8	21.8	0.00e+00	121	41	0	1749024768	50	6123
2026-01-21 20:50:50.29	334.48	7.95	-39.0	-40.1	21.6	0.00e+00	123	42	0	1752170496	50	6279
2026-01-21 20:50:51.30	334.36	7.89	-38.9	-40.0	21.7	0.00e+00	122	41	0	1755316224	50	6221
2026-01-21 20:50:52.31	334.24	7.84	-39.1	-40.1	21.6	0.00e+00	120	41	0	1758461952	50	6349
2026-01-21 20:50:53.32	334.12	7.78	-39.2	-40.3	21.4	0.00e+00	122	41	0	1761607680	50	6438
2026-01-21 20:50:54.33	334.00	7.73	-39.0	-40.1	21.6	0.00e+00	121	41	0	1764753408	50	6319
2026-01-21 20:50:55.34	333.88	7.67	-39.1	-40.2	21.6	0.00e+00	122	41	0	1767899136	50	6385
2026-01-21 20:50:56.35	333.76	7.62	-39.3	-40.4	21.4	0.00e+00	120	41	0	1772093440	50	6517
2026-01-21 20:50:57.36	333.64	7.56	-38.9	-40.0	21.7	0.00e+00	122	41	0	1775239168	50	6210
2026-01-21 20:50:58.37	333.52	7.50	-38.9	-40.0	21.7	0.00e+00	120	41	0	1777336320	50	6243
2026-01-21 20:50:59.38	333.40	7.45	-38.7	-39.8	21.8	0.00e+00	122	41	0	1780482048	50	6091
2026-01-21 20:51:00.39	333.28	7.39	-38.8	-39.9	21.8	0.00e+00	121	41	0	1783627776	50	6158
2026-01-21 20:51:01.41	333.16	7.34	-38.9	-39.9	21.8	0.00e+00	122	42	0	1787822080	50	6187
2026-01-21 20:51:02.42	333.05	7.28	-38.7	-39.8	21.9	0.00e+00	123	41	0	1790967808	50	6089
2026-01-21 20:51:03.43	332.93	7.23	-38.8	-39.8	21.8	0.00e+00	123	41	0	1794113536	50	6110
2026-01-21 20:51:04.44	332.81	7.17	-39.1	-40.1	21.5	0.00e+00	123	41	0	1797259264	50	6336
2026-01-21 20:51:05.45	332.70	7.12	-39.1	-40.2	21.5	0.00e+00	120	41	0	1800404992	50	6381
2026-01-21 20:51:06.46	332.58	7.06	-39.5	-40.7	21.1	0.00e+00	123	41	0	1803550720	50	6734
2026-01-21 20:51:07.47	332.47	7.01	-39.6	-40.7	21.1	0.00e+00	123	41	0	1806696448	50	6750
2026-01-21 20:51:08.48	332.35	6.95	-39.4	-40.5	21.2	0.00e+00	122	41	0	1809842176	52	5905
2026-01-21 20:51:09.49	332.24	6.90	-39.3	-40.4	21.3	0.00e+00	120	41	0	1812987904	52	5798
2026-01-21 20:51:10.50	332.12	6.84	-39.2	-40.3	21.3	0.00e+00	123	41	0	1816133632	52	5770
2026-01-21 20:51:11.51	332.01	6.79	-39.0	-40.0	21.5	0.00e+00	122	41	0	1819279360	52	5594
2026-01-21 20:51:12.52	331.90	6.73	-39.1	-40.1	21.4	0.00e+00	123	41	0	1822425088	52	5654
2026-01-21 20:51:13.53	331.79	6.68	-38.9	-40.0	21.6	0.00e+00	122	41	0	1825570816	52	5538
2026-01-21 20:51:14.54	331.68	6.62	-39.0	-40.1	21.5	0.00e+00	122	42	0	1828716544	52	5598
2026-01-21 20:51:15.55	331.56	6.57	-38.8	-39.8	21.7	0.00e+00	122	42	0	1831862272	50	6126
2026-01-21 20:51:16.56	331.45	6.51	-38.7	-39.7	21.8	0.00e+00	123	41	0	1835008000	50	6031
2026-01-21 20:51:17.57	331.34	6.46	-38.9	-39.9	21.6	0.00e+00	121	42	0	1838153728	50	6203
2026-01-21 20:51:18.58	331.23	6.40	-38.8	-39.9	21.7	0.00e+00	122	42	0	1841299456	50	6160
2026-01-21 20:51:19.59	331.12	6.35	-38.4	-39.4	22.0	0.00e+00	120	42	0	1844445184	50	5836
2026-01-21 20:51:20.59	331.01	6.29	-38.7	-39.7	21.8	0.00e+00	123	42	0	1847590912	50	6062
2026-01-21 20:51:21.61	330.90	6.24	-38.3	-39.3	22.0	0.00e+00	123	42	0	1850736640	50	5767
2026-01-21 20:51:22.62	330.80	6.18	-38.9	-40.0	21.5	0.00e+00	123	41	0	1853882368	50	6229
2026-01-21 20:51:23.63	330.69	6.13	-39.4	-40.5	21.2	0.00e+00	122	41	0	1857028096	50	6609
2026-01-21 20:51:24.64	330.58	6.07	-39.5	-40.6	21.0	0.00e+00	123	42	0	1860173824	50	6717
2026-01-21 20:51:25.65	330.47	6.02	-38.9	-40.0	21.5	0.00e+00	123	41	0	1863319552	50	6217
2026-01-21 20:51:26.66	330.37	5.96	-39.8	-40.9	20.9	0.00e+00	120	41	0	1866465280	52	6193
2026-01-21 20:51:27.67	330.26	5.91	-39.1	-40.2	21.3	0.00e+00	123	42	0	1869611008	52	5710
2026-01-21 20:51:28.68	330.16	5.85	-39.5	-40.7	20.7	0.00e+00	122	41	0	1872756736	52	6022
2026-01-21 20:51:29.69	330.05	5.80	-39.6	-40.7	20.9	0.00e+00	124	41	0	1875902464	52	6033
2026-01-21 20:51:30.70	329.94	5.74	-39.4	-40.6	20.9	0.00e+00	123	42	0	1879048192	52	5934
2026-01-21 20:51:31.71	329.84	5.69	-38.9	-40.0	21.5	0.00e+00	122	41	0	1882193920	52	5565
2026-01-21 20:51:32.72	329.74	5.63	-39.5	-40.6	21.0	0.00e+00	122	41	0	1885339648	52	5955
2026-01-21 20:51:33.73	329.63	5.58	-39.3	-40.4	21.2	0.00e+00	123	41	0	1888485376	52	5794
2026-01-21 20:51:34.74	329.53	5.52	-38.9	-40.0	21.5	0.00e+00	122	41	0	1891631104	52	5562
2026-01-21 20:51:35.75	329.43	5.47	-39.3	-40.4	21.2	0.00e+00	122	41	0	1894776832	52	5814
2026-01-21 20:51:36.76	329.32	5.42	-39.3	-40.4	21.2	0.00e+00	123	41	0	1897922560	52	5800
2026-01-21 20:51:37.77	329.22	5.36	-38.9	-40.0	21.4	0.00e+00	123	41	0	1901068288	52	5570
2026-01-21 20:51:38.78	329.12	5.31	-38.8	-39.8	21.6	0.00e+00	122	41	0	1904214016	50	6115
2026-01-21 20:51:39.79	329.02	5.25	-39.4	-40.5	21.1	0.00e+00	123	41	0	1907359744	50	6595
2026-01-21 20:51:40.80	328.92	5.20	-39.6	-40.7	20.9	0.00e+00	122	41	0	1910505472	50	6783
2026-01-21 20:51:41.82	328.81	5.14	-39.6	-40.8	20.9	0.00e+00	120	41	0	1913651200	52	6067
2026-01-21 20:51:42.83	328.71	5.09	-39.5	-40.6	21.0	0.00e+00	123	42	0	1916796928	52	5956
2026-01-21 20:51:43.83	328.62	5.03	-39.7	-40.8	20.8	0.00e+00	123	41	0	1919942656	52	6134
2026-01-21 20:51:44.84	328.52	4.98	-40.4	-41.6	20.1	0.00e+00	123	41	0	1923088384	52	6709
2026-01-21 20:51:45.86	328.42	4.92	-39.6	-40.8	20.8	0.00e+00	123	41	0	1926234112	52	6070
2026-01-21 20:51:46.87	328.32	4.87	-40.2	-41.4	20.2	0.00e+00	123	41	0	1929379840	52	6509
2026-01-21 20:51:47.88	328.22	4.82	-41.2	-42.5	19.2	0.00e+00	123	41	0	1932525568	54	6637
2026-01-21 20:51:48.89	328.12	4.76	-41.0	-42.3	19.3	0.00e+00	123	42	0	1935671296	54	6485
2026-01-21 20:51:49.90	328.02	4.71	-40.0	-41.2	20.4	0.00e+00	120	41	0	1938817024	54	5677
2026-01-21 20:51:50.91	327.93	4.65	-40.9	-42.2	19.5	0.00e+00	122	41	0	1941962752	54	6366
2026-01-21 20:51:51.92	327.83	4.60	-40.3	-41.5	20.0	0.00e+00	123	41	0	1945108480	54	5915
2026-01-21 20:51:52.93	327.73	4.54	-40.5	-41.7	19.8	0.00e+00	123	41	0	1948254208	54	6045
