passes_logs/2026/01/21/R4.6S_Anadyr/R4.6S_Anadyr__20260121_185035_FENGYUN_3D_rec.log

#Pass ID: 20260121_185035_FENGYUN 3D
#Satellite: FENGYUN 3D
#Configuration: FENGYUN 3D
#almurnet v.1.7.20251203
#Start time: 2026-01-21 18:50:36

#Version: 2.2.20231116
#Station: R4.6S_Anadyr
#Location: 177.4865 lon 64.73178 lat
#TLE: 1 43010U 17072A   26020.92362722 -.00000077  00000+0 -14488-4 0  9992
#TLE: 2 43010  98.9946 352.8312 0002486  99.3651 260.7806 14.19696535424099

#Time	Az	El	Level	Level2	SNR	BER	BlckErr	Temp	State	Recorded	gain1	gain2
2026-01-21 18:50:36.46	28.29	0.04	-51.5	-66.4	3.4	1.51e+00	0	38	0	0	60	75936
2026-01-21 18:50:37.47	28.24	0.09	-52.1	-64.2	3.6	8.45e-01	0	39	104	0	60	58875
2026-01-21 18:50:38.48	28.20	0.15	-51.9	-64.1	3.6	8.46e-01	0	39	104	0	60	57743
2026-01-21 18:50:39.49	28.15	0.21	-52.0	-64.1	3.6	8.46e-01	0	39	104	0	60	58277
2026-01-21 18:50:40.50	28.10	0.26	-51.9	-64.0	3.6	8.45e-01	0	39	104	0	60	57314
2026-01-21 18:50:41.51	28.06	0.32	-51.6	-63.8	3.6	8.45e-01	0	40	104	0	60	55886
2026-01-21 18:50:42.52	28.01	0.38	-51.6	-63.8	3.6	8.46e-01	0	40	104	0	60	55918
2026-01-21 18:50:43.53	27.96	0.43	-51.4	-63.7	3.6	8.45e-01	0	40	104	0	60	55126
2026-01-21 18:50:44.54	27.92	0.49	-51.5	-63.7	3.5	8.46e-01	0	40	104	0	60	55353
2026-01-21 18:50:45.55	27.87	0.55	-51.4	-63.5	3.6	8.44e-01	0	40	104	0	60	54386
2026-01-21 18:50:46.56	27.82	0.61	-51.3	-63.5	3.6	8.44e-01	0	40	104	0	60	53818
2026-01-21 18:50:47.57	27.77	0.66	-51.3	-63.4	3.6	8.45e-01	0	40	104	0	60	53647
2026-01-21 18:50:48.58	27.73	0.72	-51.3	-63.4	3.6	8.46e-01	0	40	104	0	60	53371
2026-01-21 18:50:49.59	27.68	0.78	-51.1	-63.4	3.6	8.45e-01	0	40	104	0	60	53459
2026-01-21 18:50:50.61	27.63	0.84	-51.1	-63.3	3.6	8.44e-01	0	40	104	0	60	52782
2026-01-21 18:50:51.61	27.58	0.89	-51.0	-63.2	3.6	8.45e-01	0	40	104	0	60	52453
2026-01-21 18:50:52.63	27.53	0.95	-51.0	-63.1	3.6	8.45e-01	0	40	104	0	60	51913
2026-01-21 18:50:53.64	27.48	1.01	-50.9	-63.0	3.6	8.45e-01	0	40	104	0	60	51003
2026-01-21 18:50:54.65	27.43	1.07	-50.8	-63.0	3.6	8.46e-01	0	40	104	0	60	50833
2026-01-21 18:50:55.66	27.38	1.13	-50.7	-62.9	3.6	8.46e-01	0	40	104	0	60	50185
2026-01-21 18:50:56.67	27.33	1.18	-50.6	-62.7	3.6	8.45e-01	0	40	104	0	60	49210
2026-01-21 18:50:57.68	27.28	1.24	-50.6	-62.6	3.6	8.46e-01	0	40	104	0	60	49041
2026-01-21 18:50:58.69	27.23	1.30	-50.4	-62.5	3.6	8.43e-01	0	40	104	0	60	48127
2026-01-21 18:50:59.70	27.18	1.36	-50.1	-62.3	3.6	8.45e-01	0	40	104	0	60	46907
2026-01-21 18:51:00.71	27.13	1.42	-49.8	-61.9	3.6	8.46e-01	0	40	104	0	60	44853
2026-01-21 18:51:01.72	27.08	1.48	-49.5	-61.6	3.5	8.44e-01	0	40	104	0	60	43473
2026-01-21 18:51:02.73	27.03	1.54	-49.5	-61.6	3.6	8.46e-01	0	40	104	0	60	43264
2026-01-21 18:51:03.74	26.98	1.59	-49.5	-61.6	3.6	8.45e-01	0	40	104	0	60	43237
2026-01-21 18:51:04.75	26.93	1.65	-49.5	-61.6	3.6	8.47e-01	0	40	104	0	60	43367
2026-01-21 18:51:05.76	26.88	1.71	-49.5	-61.6	3.6	8.45e-01	0	40	104	0	60	43367
2026-01-21 18:51:06.77	26.82	1.77	-49.5	-61.6	3.6	8.46e-01	0	40	104	0	60	43348
2026-01-21 18:51:07.78	26.77	1.83	-49.5	-61.6	3.6	8.45e-01	0	40	104	0	60	43682
2026-01-21 18:51:08.79	26.72	1.89	-49.5	-61.6	3.5	8.45e-01	0	40	104	0	60	43372
2026-01-21 18:51:09.80	26.67	1.95	-49.5	-61.5	3.6	8.46e-01	0	40	104	0	60	43061
2026-01-21 18:51:10.81	26.61	2.01	-49.4	-61.5	3.6	8.44e-01	0	40	104	0	60	42862
2026-01-21 18:51:11.82	26.56	2.07	-49.5	-61.3	3.6	8.45e-01	0	40	104	0	60	42121
2026-01-21 18:51:12.83	26.51	2.13	-49.4	-61.1	3.6	8.46e-01	0	40	104	0	60	41033
2026-01-21 18:51:13.84	26.45	2.19	-49.4	-60.8	3.6	8.45e-01	0	40	104	0	60	39779
2026-01-21 18:51:14.85	26.40	2.25	-49.4	-60.7	3.6	8.44e-01	0	40	104	0	60	38976
2026-01-21 18:51:15.86	26.35	2.31	-49.4	-61.3	3.6	8.45e-01	0	40	104	0	60	41811
2026-01-21 18:51:16.87	26.29	2.37	-49.4	-61.2	3.6	8.44e-01	0	40	104	0	60	41462
2026-01-21 18:51:17.88	26.24	2.43	-49.4	-61.5	3.6	8.47e-01	0	40	104	0	60	42829
2026-01-21 18:51:18.89	26.18	2.49	-49.5	-61.6	3.6	8.45e-01	0	40	104	0	60	43278
2026-01-21 18:51:19.90	26.13	2.55	-49.4	-61.6	3.6	8.47e-01	0	40	104	0	60	43375
2026-01-21 18:51:20.91	26.07	2.61	-49.4	-61.5	3.6	8.45e-01	0	40	104	0	60	42839
2026-01-21 18:51:21.92	26.02	2.67	-49.4	-61.5	3.6	8.47e-01	0	40	104	0	60	43104
2026-01-21 18:51:22.93	25.96	2.73	-49.4	-61.5	3.6	8.45e-01	0	40	104	0	60	42995
2026-01-21 18:51:23.94	25.91	2.79	-49.4	-61.5	3.6	8.45e-01	0	40	104	0	60	42805
2026-01-21 18:51:24.95	25.85	2.85	-49.4	-61.0	3.6	8.46e-01	0	40	104	0	60	40645
2026-01-21 18:51:25.96	25.79	2.91	-49.4	-60.8	3.6	8.45e-01	0	40	104	0	60	39673
2026-01-21 18:51:26.97	25.74	2.97	-49.3	-60.3	3.6	8.44e-01	0	40	104	0	60	37307
2026-01-21 18:51:27.98	25.68	3.04	-49.4	-60.3	3.6	8.45e-01	0	40	104	0	60	37528
2026-01-21 18:51:28.99	25.62	3.10	-49.4	-60.9	3.6	8.44e-01	0	40	104	0	60	40145
2026-01-21 18:51:30.00	25.57	3.16	-49.4	-60.9	3.6	8.45e-01	0	40	104	0	60	39950
2026-01-21 18:51:31.01	25.51	3.22	-49.5	-61.0	3.6	8.44e-01	0	40	104	0	60	40678
2026-01-21 18:51:32.02	25.45	3.28	-49.4	-59.3	3.7	8.44e-01	0	40	104	0	60	33429
2026-01-21 18:51:33.03	25.39	3.34	-49.2	-57.0	3.8	8.36e-01	0	40	0	0	60	25471
2026-01-21 18:51:34.04	25.33	3.41	-48.9	-55.4	4.6	8.20e-01	0	41	0	0	60	21255
2026-01-21 18:51:35.05	25.28	3.47	-49.4	-59.9	3.6	8.30e-01	0	41	104	0	60	35605
2026-01-21 18:51:36.06	25.22	3.53	-49.5	-60.7	3.6	8.45e-01	0	41	104	0	60	39025
2026-01-21 18:51:37.07	25.16	3.59	-48.2	-53.7	5.7	3.87e-01	0	41	104	0	60	17531
2026-01-21 18:51:38.09	25.10	3.65	-38.7	-39.6	20.7	0.00e+00	0	41	0	2097152	52	5449
2026-01-21 18:51:39.10	25.04	3.72	-49.4	-60.7	3.6	1.86e-01	0	41	104	6291456	60	39299
2026-01-21 18:51:40.11	24.98	3.78	-39.9	-40.8	19.2	8.00e-01	0	41	104	6291456	56	4988
2026-01-21 18:51:41.12	24.92	3.84	-38.8	-39.7	21.1	0.00e+00	0	40	0	7340032	52	5542
2026-01-21 18:51:42.13	24.86	3.91	-38.8	-39.7	21.0	0.00e+00	0	40	0	13631488	50	6204
2026-01-21 18:51:43.14	24.80	3.97	-38.4	-39.2	21.5	0.00e+00	0	40	0	18874368	50	5881
2026-01-21 18:51:44.15	24.73	4.03	-38.1	-38.9	21.8	0.00e+00	0	40	0	25165824	50	5680
2026-01-21 18:51:45.16	24.67	4.09	-38.9	-39.8	21.0	0.00e+00	0	40	0	30408704	50	6274
2026-01-21 18:51:46.17	24.61	4.16	-38.2	-39.0	21.8	0.00e+00	0	40	0	35651584	50	5745
2026-01-21 18:51:47.18	24.55	4.22	-38.6	-39.5	21.2	0.00e+00	0	41	0	41943040	50	6064
2026-01-21 18:51:48.19	24.49	4.28	-38.6	-39.5	21.3	0.00e+00	0	40	0	47185920	50	6040
2026-01-21 18:51:49.20	24.42	4.35	-38.9	-39.8	21.0	0.00e+00	0	40	0	53477376	50	6265
2026-01-21 18:51:50.21	24.36	4.41	-38.4	-39.2	21.8	0.00e+00	0	41	0	58720256	50	5854
2026-01-21 18:51:51.22	24.30	4.48	-38.7	-39.5	21.4	0.00e+00	0	41	0	63963136	50	6068
2026-01-21 18:51:52.23	24.23	4.54	-38.5	-39.4	21.6	0.00e+00	0	41	0	70254592	50	5966
2026-01-21 18:51:53.24	24.17	4.60	-37.9	-38.7	22.3	0.00e+00	0	40	0	75497472	50	5558
2026-01-21 18:51:54.25	24.11	4.67	-38.8	-39.7	21.5	0.00e+00	0	41	0	81788928	50	6207
2026-01-21 18:51:55.26	24.04	4.73	-38.7	-39.5	21.6	0.00e+00	0	41	0	87031808	50	6095
2026-01-21 18:51:56.27	23.98	4.80	-38.2	-39.1	21.8	0.00e+00	0	41	0	93323264	50	5779
2026-01-21 18:51:57.28	23.91	4.86	-37.1	-37.9	22.9	0.00e+00	0	41	0	98566144	48	5657
2026-01-21 18:51:58.29	23.85	4.93	-39.1	-40.0	21.0	0.00e+00	0	41	0	104857600	50	6436
2026-01-21 18:51:59.30	23.78	4.99	-38.1	-38.9	22.0	0.00e+00	0	41	0	110100480	50	5671
2026-01-21 18:52:00.31	23.72	5.06	-38.1	-38.9	22.1	0.00e+00	0	41	0	115343360	50	5656
2026-01-21 18:52:01.32	23.65	5.12	-38.3	-39.1	21.7	0.00e+00	0	41	0	121634816	50	5781
2026-01-21 18:52:02.33	23.58	5.19	-37.8	-38.5	22.4	0.00e+00	0	41	0	126877696	50	5431
2026-01-21 18:52:03.34	23.52	5.25	-37.8	-38.6	22.4	0.00e+00	0	41	0	133169152	48	6111
2026-01-21 18:52:04.35	23.45	5.32	-38.0	-38.8	22.2	0.00e+00	0	41	0	138412032	48	6296
2026-01-21 18:52:05.36	23.38	5.38	-38.2	-39.0	21.9	0.00e+00	0	41	0	143654912	48	6441
2026-01-21 18:52:06.37	23.31	5.45	-37.8	-38.6	22.5	0.00e+00	0	41	0	149946368	48	6116
2026-01-21 18:52:07.38	23.25	5.51	-37.9	-38.7	22.4	0.00e+00	0	41	0	155189248	48	6233
2026-01-21 18:52:08.39	23.18	5.58	-37.9	-38.7	22.4	0.00e+00	0	41	0	161480704	48	6209
2026-01-21 18:52:09.40	23.11	5.65	-38.0	-38.8	22.3	0.00e+00	0	41	0	166723584	48	6282
2026-01-21 18:52:10.41	23.04	5.71	-38.3	-39.0	22.1	0.00e+00	0	41	0	171966464	48	6464
2026-01-21 18:52:11.42	22.97	5.78	-37.7	-38.5	22.4	0.00e+00	0	41	0	178257920	48	6066
2026-01-21 18:52:12.43	22.90	5.84	-38.2	-39.0	22.1	0.00e+00	0	41	0	183500800	48	6401
2026-01-21 18:52:13.44	22.83	5.91	-38.1	-38.9	22.2	0.00e+00	0	41	0	189792256	48	6324
2026-01-21 18:52:14.46	22.76	5.98	-37.7	-38.4	22.6	0.00e+00	0	41	0	195035136	48	6016
2026-01-21 18:52:15.47	22.69	6.05	-38.7	-39.6	21.7	0.00e+00	0	41	0	201326592	48	6868
2026-01-21 18:52:16.48	22.62	6.11	-38.0	-38.8	22.3	0.00e+00	0	41	0	206569472	50	5573
2026-01-21 18:52:17.49	22.55	6.18	-37.7	-38.5	22.5	0.00e+00	0	41	0	212860928	48	6072
2026-01-21 18:52:18.50	22.47	6.25	-37.4	-38.2	22.9	0.00e+00	0	40	0	218103808	48	5834
2026-01-21 18:52:19.51	22.40	6.31	-37.6	-38.4	22.6	0.00e+00	0	41	0	223346688	48	5976
2026-01-21 18:52:20.52	22.33	6.38	-37.6	-38.4	22.6	0.00e+00	0	40	0	229638144	48	6011
2026-01-21 18:52:21.53	22.26	6.45	-37.3	-38.1	23.1	0.00e+00	0	41	0	234881024	48	5777
2026-01-21 18:52:22.54	22.18	6.52	-37.5	-38.2	22.8	0.00e+00	0	41	0	241172480	48	5881
2026-01-21 18:52:23.55	22.11	6.58	-37.1	-37.8	23.1	0.00e+00	0	41	0	246415360	48	5628
2026-01-21 18:52:24.56	22.04	6.65	-37.4	-38.1	22.9	0.00e+00	0	41	0	251658240	48	5828
2026-01-21 18:52:25.57	21.96	6.72	-37.3	-38.0	23.1	0.00e+00	0	41	0	257949696	48	5759
2026-01-21 18:52:26.59	21.89	6.79	-36.9	-37.6	23.4	0.00e+00	0	41	0	263192576	48	5480
2026-01-21 18:52:27.60	21.81	6.86	-37.7	-38.5	22.7	0.00e+00	0	41	0	269484032	48	6071
2026-01-21 18:52:28.61	21.73	6.93	-37.2	-38.0	23.2	0.00e+00	0	41	0	274726912	48	5710
2026-01-21 18:52:29.62	21.66	6.99	-36.7	-37.5	23.4	0.00e+00	0	41	0	279969792	46	6039
2026-01-21 18:52:30.63	21.58	7.06	-38.1	-38.9	22.3	0.00e+00	0	41	0	286261248	48	6332
2026-01-21 18:52:31.64	21.51	7.13	-36.9	-37.6	23.6	0.00e+00	0	41	0	291504128	48	5475
2026-01-21 18:52:32.65	21.43	7.20	-37.6	-38.4	22.7	0.00e+00	0	41	0	297795584	48	5987
2026-01-21 18:52:33.66	21.35	7.27	-36.7	-37.4	23.7	0.00e+00	0	41	0	303038464	48	5334
2026-01-21 18:52:34.67	21.27	7.34	-38.0	-38.8	22.4	0.00e+00	0	41	0	309329920	48	6260
2026-01-21 18:52:35.68	21.20	7.41	-37.7	-38.4	22.9	0.00e+00	0	41	0	314572800	48	6027
2026-01-21 18:52:36.69	21.12	7.48	-37.7	-38.4	22.7	0.00e+00	0	41	0	320864256	48	6001
2026-01-21 18:52:37.70	21.04	7.55	-37.6	-38.4	23.1	0.00e+00	0	41	0	326107136	48	5978
2026-01-21 18:52:38.71	20.96	7.62	-37.6	-38.3	22.7	0.00e+00	0	41	0	331350016	48	5946
2026-01-21 18:52:39.72	20.88	7.69	-37.5	-38.2	23.0	0.00e+00	0	41	0	337641472	48	5878
2026-01-21 18:52:40.73	20.80	7.76	-37.8	-38.6	22.7	0.00e+00	0	41	0	342884352	48	6120
2026-01-21 18:52:41.74	20.72	7.83	-37.3	-38.1	23.0	0.00e+00	0	41	0	349175808	48	5800
2026-01-21 18:52:42.76	20.64	7.90	-37.2	-38.0	23.2	0.00e+00	0	41	0	354418688	48	5706
2026-01-21 18:52:43.76	20.56	7.97	-37.4	-38.2	23.0	0.00e+00	0	41	0	359661568	48	5835
2026-01-21 18:52:44.77	20.48	8.04	-37.4	-38.1	23.1	0.00e+00	0	41	0	365953024	48	5814
2026-01-21 18:52:45.78	20.39	8.11	-37.5	-38.3	22.9	0.00e+00	0	41	0	371195904	48	5918
2026-01-21 18:52:46.79	20.31	8.18	-37.3	-38.0	23.1	0.00e+00	0	41	0	377487360	48	5742
2026-01-21 18:52:47.81	20.23	8.25	-37.5	-38.3	23.0	0.00e+00	0	41	0	382730240	48	5899
2026-01-21 18:52:48.82	20.14	8.33	-37.3	-38.0	23.3	0.00e+00	0	41	0	387973120	48	5724
2026-01-21 18:52:49.83	20.06	8.40	-37.1	-37.8	23.3	0.00e+00	0	41	0	394264576	48	5609
2026-01-21 18:52:50.84	19.98	8.47	-37.7	-38.4	22.9	0.00e+00	0	41	0	399507456	48	6031
2026-01-21 18:52:51.85	19.89	8.54	-37.0	-37.7	23.5	0.00e+00	0	41	0	405798912	48	5535
2026-01-21 18:52:52.86	19.81	8.61	-37.0	-37.7	23.7	0.00e+00	0	41	0	411041792	48	5542
2026-01-21 18:52:53.87	19.72	8.68	-37.1	-37.8	23.4	0.00e+00	0	41	0	417333248	46	6312
2026-01-21 18:52:54.88	19.63	8.76	-37.1	-37.9	23.5	0.00e+00	0	41	0	422576128	46	6325
2026-01-21 18:52:55.88	19.55	8.83	-37.1	-37.9	23.3	0.00e+00	0	41	0	428867584	46	6349
2026-01-21 18:52:56.90	19.46	8.90	-36.8	-37.5	23.9	0.00e+00	0	41	0	434110464	46	6065
2026-01-21 18:52:57.90	19.37	8.97	-37.2	-37.9	23.4	0.00e+00	0	41	0	439353344	46	6358
2026-01-21 18:52:58.92	19.29	9.05	-37.0	-37.7	23.6	0.00e+00	0	41	0	445644800	46	6215
2026-01-21 18:52:59.93	19.20	9.12	-37.0	-37.7	23.5	0.00e+00	0	41	0	450887680	46	6235
2026-01-21 18:53:00.94	19.11	9.19	-36.9	-37.6	23.7	0.00e+00	0	41	0	457179136	46	6118
2026-01-21 18:53:01.95	19.02	9.27	-37.1	-37.9	23.5	0.00e+00	0	41	0	462422016	46	6323
2026-01-21 18:53:02.96	18.93	9.34	-37.0	-37.7	23.5	0.00e+00	0	41	0	467664896	46	6240
2026-01-21 18:53:03.97	18.84	9.41	-37.2	-38.0	23.5	0.00e+00	0	41	0	473956352	46	6400
2026-01-21 18:53:04.98	18.75	9.49	-37.2	-37.9	23.4	0.00e+00	0	41	0	479199232	46	6348
2026-01-21 18:53:05.99	18.66	9.56	-37.0	-37.7	23.7	0.00e+00	0	41	0	485490688	46	6212
2026-01-21 18:53:07.00	18.57	9.63	-36.8	-37.5	23.7	0.00e+00	0	41	0	490733568	46	6100
2026-01-21 18:53:08.01	18.47	9.71	-37.0	-37.7	23.7	0.00e+00	0	41	0	495976448	46	6245
2026-01-21 18:53:09.02	18.38	9.78	-36.9	-37.6	23.8	0.00e+00	0	41	0	502267904	46	6109
2026-01-21 18:53:10.03	18.29	9.86	-36.6	-37.3	24.0	0.00e+00	0	41	0	507510784	46	5913
2026-01-21 18:53:11.04	18.19	9.93	-36.6	-37.4	24.0	0.00e+00	0	41	0	513802240	46	5976
2026-01-21 18:53:12.05	18.10	10.00	-36.5	-37.3	24.0	0.00e+00	0	41	0	519045120	46	5906
2026-01-21 18:53:13.07	18.00	10.08	-36.5	-37.2	24.0	0.00e+00	0	41	0	525336576	46	5835
2026-01-21 18:53:14.08	17.91	10.15	-36.4	-37.1	24.2	0.00e+00	0	41	0	530579456	46	5819
2026-01-21 18:53:15.09	17.81	10.23	-36.4	-37.1	24.2	0.00e+00	0	41	0	536870912	46	5816
2026-01-21 18:53:16.10	17.72	10.30	-36.3	-37.0	24.3	0.00e+00	0	41	0	542113792	46	5755
2026-01-21 18:53:17.11	17.62	10.38	-36.7	-37.4	24.0	0.00e+00	0	41	0	547356672	46	5971
2026-01-21 18:53:18.12	17.52	10.46	-36.2	-36.9	24.5	0.00e+00	0	41	0	553648128	46	5632
2026-01-21 18:53:19.13	17.43	10.53	-36.2	-36.9	24.4	0.00e+00	0	41	0	558891008	46	5653
2026-01-21 18:53:20.14	17.33	10.61	-36.1	-36.8	24.5	0.00e+00	0	41	0	565182464	46	5600
2026-01-21 18:53:21.15	17.23	10.68	-36.1	-36.9	24.4	0.00e+00	0	41	0	570425344	46	5632
2026-01-21 18:53:22.16	17.13	10.76	-36.3	-36.9	24.4	0.00e+00	0	41	0	575668224	46	5694
2026-01-21 18:53:23.17	17.03	10.84	-36.2	-36.9	24.4	0.00e+00	0	41	0	581959680	46	5671
2026-01-21 18:53:24.18	16.93	10.91	-36.2	-36.9	24.5	0.00e+00	0	41	0	587202560	46	5683
2026-01-21 18:53:25.19	16.83	10.99	-36.1	-36.8	24.5	0.00e+00	0	41	0	593494016	46	5611
2026-01-21 18:53:26.20	16.73	11.07	-36.2	-36.9	24.3	0.00e+00	0	41	0	598736896	46	5664
2026-01-21 18:53:27.21	16.63	11.14	-36.1	-36.8	24.6	0.00e+00	0	41	0	603979776	46	5606
2026-01-21 18:53:28.22	16.52	11.22	-36.3	-37.0	24.4	0.00e+00	0	41	0	610271232	46	5718
2026-01-21 18:53:29.23	16.42	11.30	-36.1	-36.8	24.5	0.00e+00	0	41	0	615514112	46	5580
2026-01-21 18:53:30.24	16.32	11.37	-35.9	-36.6	24.7	0.00e+00	0	41	0	621805568	46	5461
2026-01-21 18:53:31.25	16.21	11.45	-36.0	-36.7	24.6	0.00e+00	0	41	0	627048448	46	5564
2026-01-21 18:53:32.26	16.11	11.53	-35.9	-36.6	24.6	0.00e+00	0	41	0	633339904	46	5480
2026-01-21 18:53:33.27	16.00	11.61	-35.9	-36.6	24.7	0.00e+00	0	41	0	638582784	46	5494
2026-01-21 18:53:34.28	15.90	11.68	-36.0	-36.7	24.7	0.00e+00	0	41	0	644874240	46	5545
2026-01-21 18:53:35.29	15.79	11.76	-36.0	-36.7	24.7	0.00e+00	0	41	0	650117120	46	5526
2026-01-21 18:53:36.31	15.68	11.84	-36.0	-36.7	24.7	0.00e+00	0	41	0	655360000	46	5507
2026-01-21 18:53:37.31	15.58	11.92	-35.9	-36.5	24.7	0.00e+00	0	41	0	661651456	46	5422
2026-01-21 18:53:38.32	15.47	12.00	-35.8	-36.5	24.9	0.00e+00	0	41	0	666894336	44	6043
2026-01-21 18:53:39.33	15.36	12.08	-36.0	-36.7	24.6	0.00e+00	0	41	0	673185792	44	6217
2026-01-21 18:53:40.35	15.25	12.16	-35.8	-36.5	24.8	0.00e+00	0	41	0	678428672	44	6050
2026-01-21 18:53:41.36	15.14	12.23	-36.0	-36.7	24.7	0.00e+00	0	41	0	683671552	44	6208
2026-01-21 18:53:42.37	15.03	12.31	-35.7	-36.4	24.9	0.00e+00	0	41	0	689963008	44	5981
2026-01-21 18:53:43.37	14.92	12.39	-35.8	-36.5	24.8	0.00e+00	0	41	0	695205888	44	6049
2026-01-21 18:53:44.38	14.81	12.47	-35.6	-36.3	25.0	0.00e+00	0	41	0	701497344	44	5948
2026-01-21 18:53:45.40	14.69	12.55	-35.7	-36.4	25.0	0.00e+00	0	41	0	706740224	44	5976
2026-01-21 18:53:46.40	14.58	12.63	-35.7	-36.4	24.9	0.00e+00	0	41	0	711983104	44	6019
2026-01-21 18:53:47.42	14.46	12.71	-35.9	-36.6	24.8	0.00e+00	0	41	0	718274560	44	6112
2026-01-21 18:53:48.43	14.35	12.79	-35.9	-36.5	24.9	0.00e+00	0	41	0	723517440	44	6102
2026-01-21 18:53:49.44	14.23	12.87	-35.9	-36.6	24.8	0.00e+00	0	41	0	729808896	44	6119
2026-01-21 18:53:50.45	14.12	12.95	-35.7	-36.4	25.1	0.00e+00	0	41	0	735051776	44	5992
2026-01-21 18:53:51.46	14.00	13.03	-35.6	-36.3	25.0	0.00e+00	0	41	0	741343232	44	5919
2026-01-21 18:53:52.47	13.89	13.11	-35.7	-36.4	25.0	0.00e+00	0	41	0	746586112	44	6026
2026-01-21 18:53:53.48	13.77	13.19	-35.7	-36.4	25.0	0.00e+00	0	41	0	752877568	44	5969
2026-01-21 18:53:54.49	13.65	13.27	-35.6	-36.3	25.1	0.00e+00	0	41	0	758120448	44	5918
2026-01-21 18:53:55.50	13.53	13.35	-35.6	-36.3	25.1	0.00e+00	0	41	0	763363328	44	5942
2026-01-21 18:53:56.51	13.41	13.44	-35.6	-36.3	25.1	0.00e+00	0	41	0	769654784	44	5946
2026-01-21 18:53:57.52	13.29	13.52	-35.6	-36.2	25.1	0.00e+00	0	41	0	774897664	44	5893
2026-01-21 18:53:58.53	13.17	13.60	-35.8	-36.4	24.9	0.00e+00	0	41	0	781189120	44	6028
2026-01-21 18:53:59.54	13.05	13.68	-35.6	-36.3	25.1	0.00e+00	0	41	0	786432000	44	5921
2026-01-21 18:54:00.55	12.92	13.76	-35.7	-36.4	25.0	0.00e+00	0	41	0	791674880	44	5996
2026-01-21 18:54:01.56	12.80	13.84	-35.5	-36.2	25.2	0.00e+00	0	41	0	797966336	44	5875
2026-01-21 18:54:02.57	12.68	13.93	-35.6	-36.2	25.1	0.00e+00	0	41	0	803209216	44	5891
2026-01-21 18:54:03.58	12.55	14.01	-35.4	-36.1	25.3	0.00e+00	0	41	0	809500672	44	5821
2026-01-21 18:54:04.59	12.43	14.09	-35.5	-36.2	25.2	0.00e+00	0	41	0	814743552	44	5879
2026-01-21 18:54:05.60	12.30	14.17	-35.4	-36.1	25.2	0.00e+00	0	41	0	819986432	44	5782
2026-01-21 18:54:06.61	12.18	14.25	-35.5	-36.1	25.2	0.00e+00	0	41	0	826277888	44	5824
2026-01-21 18:54:07.62	12.05	14.34	-35.6	-36.3	25.0	0.00e+00	0	41	0	831520768	44	5924
2026-01-21 18:54:08.64	11.92	14.42	-35.7	-36.4	25.2	0.00e+00	0	41	0	837812224	44	5984
2026-01-21 18:54:09.65	11.79	14.50	-35.4	-36.1	25.1	0.00e+00	0	41	0	843055104	44	5819
2026-01-21 18:54:10.66	11.66	14.59	-35.5	-36.2	25.1	0.00e+00	0	41	0	849346560	44	5873
2026-01-21 18:54:11.67	11.53	14.67	-35.9	-36.6	24.8	0.00e+00	0	41	0	854589440	44	6152
2026-01-21 18:54:12.68	11.40	14.75	-35.8	-36.5	24.9	0.00e+00	0	41	0	860880896	44	6067
2026-01-21 18:54:13.69	11.27	14.84	-35.9	-36.6	24.8	0.00e+00	0	41	0	866123776	44	6128
2026-01-21 18:54:14.70	11.13	14.92	-36.0	-36.6	24.7	0.00e+00	0	41	0	871366656	44	6168
2026-01-21 18:54:15.71	11.00	15.00	-35.7	-36.3	25.1	0.00e+00	0	41	0	877658112	44	5939
2026-01-21 18:54:16.72	10.87	15.09	-35.9	-36.6	24.8	0.00e+00	0	41	0	882900992	44	6105
2026-01-21 18:54:17.73	10.73	15.17	-35.4	-36.1	25.3	0.00e+00	0	41	0	889192448	44	5771
2026-01-21 18:54:18.74	10.59	15.26	-35.4	-36.0	25.3	0.00e+00	0	41	0	894435328	44	5755
2026-01-21 18:54:19.75	10.46	15.34	-35.4	-36.1	25.2	0.00e+00	0	41	0	899678208	44	5796
2026-01-21 18:54:20.76	10.32	15.43	-35.5	-36.2	25.3	0.00e+00	0	41	0	905969664	44	5837
2026-01-21 18:54:21.77	10.18	15.51	-35.3	-36.0	25.4	0.00e+00	0	41	0	911212544	44	5701
2026-01-21 18:54:22.78	10.04	15.59	-35.4	-36.1	25.2	0.00e+00	0	41	0	917504000	44	5764
2026-01-21 18:54:23.79	9.90	15.68	-34.9	-35.6	25.8	0.00e+00	0	41	0	922746880	44	5458
2026-01-21 18:54:24.80	9.76	15.76	-34.8	-35.4	25.9	0.00e+00	0	41	0	927989760	42	6025
2026-01-21 18:54:25.81	9.62	15.85	-34.9	-35.5	25.8	0.00e+00	0	41	0	934281216	42	6101
2026-01-21 18:54:26.83	9.48	15.93	-34.8	-35.4	25.9	0.00e+00	0	41	0	939524096	42	6019
2026-01-21 18:54:27.84	9.34	16.02	-34.7	-35.4	25.9	0.00e+00	0	41	0	945815552	42	5992
2026-01-21 18:54:28.85	9.19	16.11	-34.8	-35.5	25.9	0.00e+00	0	41	0	951058432	42	6044
2026-01-21 18:54:29.86	9.05	16.19	-34.8	-35.4	25.9	0.00e+00	0	41	0	957349888	42	6014
2026-01-21 18:54:30.87	8.90	16.28	-34.7	-35.3	26.0	0.00e+00	0	41	0	962592768	42	5963
2026-01-21 18:54:31.88	8.75	16.36	-34.6	-35.2	26.1	0.00e+00	0	41	0	968884224	42	5855
2026-01-21 18:54:32.89	8.61	16.45	-34.6	-35.2	26.1	0.00e+00	0	41	0	974127104	42	5871
2026-01-21 18:54:33.90	8.46	16.53	-34.6	-35.3	26.0	0.00e+00	0	41	0	979369984	42	5912
2026-01-21 18:54:34.91	8.31	16.62	-34.6	-35.3	26.1	0.00e+00	0	41	0	985661440	42	5924
2026-01-21 18:54:35.92	8.16	16.71	-34.7	-35.3	26.0	0.00e+00	0	41	0	990904320	42	5959
2026-01-21 18:54:36.93	8.01	16.79	-34.5	-35.2	26.2	0.00e+00	0	41	0	997195776	42	5860
2026-01-21 18:54:37.94	7.86	16.88	-34.6	-35.3	26.1	0.00e+00	0	41	0	1002438656	42	5931
2026-01-21 18:54:38.95	7.70	16.96	-34.5	-35.1	26.2	0.00e+00	0	41	0	1007681536	42	5810
2026-01-21 18:54:39.96	7.55	17.05	-34.5	-35.1	26.2	0.00e+00	0	41	0	1013972992	42	5824
2026-01-21 18:54:40.98	7.40	17.14	-34.4	-35.1	26.2	0.00e+00	0	41	0	1019215872	42	5772
2026-01-21 18:54:41.99	7.24	17.22	-34.5	-35.2	26.2	0.00e+00	0	41	0	1025507328	42	5833
2026-01-21 18:54:43.00	7.08	17.31	-34.5	-35.2	26.2	0.00e+00	0	41	0	1030750208	42	5829
2026-01-21 18:54:44.01	6.93	17.40	-34.6	-35.2	26.1	0.00e+00	0	41	0	1035993088	42	5844
2026-01-21 18:54:45.02	6.77	17.49	-34.4	-35.1	26.3	0.00e+00	0	41	0	1042284544	42	5767
2026-01-21 18:54:46.03	6.61	17.57	-34.5	-35.1	26.3	0.00e+00	0	41	0	1047527424	42	5794
2026-01-21 18:54:47.04	6.45	17.66	-34.4	-35.1	26.3	0.00e+00	0	41	0	1053818880	42	5806
2026-01-21 18:54:48.05	6.29	17.75	-34.5	-35.1	26.2	0.00e+00	0	41	0	1059061760	42	5828
2026-01-21 18:54:49.06	6.13	17.83	-34.7	-35.3	26.2	0.00e+00	0	41	0	1065353216	42	5931
2026-01-21 18:54:50.07	5.96	17.92	-34.4	-35.1	26.2	0.00e+00	0	41	0	1070596096	42	5763
2026-01-21 18:54:51.08	5.80	18.01	-34.6	-35.2	26.1	0.00e+00	0	41	0	1076887552	42	5879
2026-01-21 18:54:52.09	5.64	18.10	-34.2	-34.9	26.5	0.00e+00	0	41	0	1082130432	42	5639
2026-01-21 18:54:53.10	5.47	18.18	-34.2	-34.9	26.4	0.00e+00	0	41	0	1087373312	42	5640
2026-01-21 18:54:54.11	5.30	18.27	-34.3	-35.0	26.4	0.00e+00	0	41	0	1093664768	42	5704
2026-01-21 18:54:55.13	5.13	18.36	-34.3	-35.0	26.4	0.00e+00	0	41	0	1098907648	42	5709
2026-01-21 18:54:56.13	4.97	18.45	-34.4	-35.0	26.3	0.00e+00	0	41	0	1105199104	42	5758
2026-01-21 18:54:57.14	4.80	18.53	-34.1	-34.8	26.5	0.00e+00	0	41	0	1110441984	42	5592
2026-01-21 18:54:58.15	4.63	18.62	-34.2	-34.9	26.5	0.00e+00	0	41	0	1115684864	42	5652
2026-01-21 18:54:59.17	4.45	18.71	-34.2	-34.9	26.5	0.00e+00	0	41	0	1121976320	42	5634
2026-01-21 18:55:00.18	4.28	18.80	-33.9	-34.6	26.7	0.00e+00	0	41	0	1127219200	42	5440
2026-01-21 18:55:01.19	4.11	18.89	-34.1	-34.7	26.6	0.00e+00	0	41	0	1133510656	42	5555
2026-01-21 18:55:02.20	3.93	18.97	-34.0	-34.6	26.7	0.00e+00	0	41	0	1138753536	42	5495
2026-01-21 18:55:03.21	3.76	19.06	-33.9	-34.5	26.8	0.00e+00	0	41	0	1143996416	42	5396
2026-01-21 18:55:04.22	3.58	19.15	-33.9	-34.5	26.7	0.00e+00	0	41	0	1150287872	42	5438
2026-01-21 18:55:05.23	3.40	19.24	-34.1	-34.8	26.5	0.00e+00	0	41	0	1155530752	42	5588
2026-01-21 18:55:06.24	3.22	19.33	-34.2	-34.8	26.5	0.00e+00	0	41	0	1161822208	42	5619
2026-01-21 18:55:07.25	3.04	19.41	-34.4	-35.0	26.4	0.00e+00	0	41	0	1167065088	42	5735
2026-01-21 18:55:08.26	2.86	19.50	-34.4	-35.1	26.3	0.00e+00	0	41	0	1173356544	42	5768
2026-01-21 18:55:09.27	2.68	19.59	-34.3	-34.9	26.5	0.00e+00	0	41	0	1178599424	42	5686
2026-01-21 18:55:10.28	2.50	19.68	-34.1	-34.8	26.5	0.00e+00	0	41	0	1184890880	42	5578
2026-01-21 18:55:11.29	2.31	19.77	-34.1	-34.7	26.6	0.00e+00	0	41	0	1190133760	42	5525
2026-01-21 18:55:12.30	2.13	19.85	-34.0	-34.6	26.6	0.00e+00	0	41	0	1195376640	42	5494
2026-01-21 18:55:13.31	1.94	19.94	-33.9	-34.6	26.7	0.00e+00	0	41	0	1201668096	42	5444
2026-01-21 18:55:14.32	1.75	20.03	-33.7	-34.3	26.9	0.00e+00	0	41	0	1206910976	40	5932
2026-01-21 18:55:15.33	1.57	20.12	-33.8	-34.4	26.9	0.00e+00	0	41	0	1213202432	40	5992
2026-01-21 18:55:16.34	1.38	20.21	-33.8	-34.4	26.9	0.00e+00	0	41	0	1218445312	40	5972
2026-01-21 18:55:17.35	1.18	20.29	-33.8	-34.5	26.8	0.00e+00	0	41	0	1223688192	40	6044
2026-01-21 18:55:18.37	0.99	20.38	-33.9	-34.5	26.8	0.00e+00	0	41	0	1229979648	40	6060
2026-01-21 18:55:19.38	0.80	20.47	-34.0	-34.6	26.7	0.00e+00	0	41	0	1235222528	40	6127
2026-01-21 18:55:20.39	0.60	20.56	-33.8	-34.4	26.8	0.00e+00	0	41	0	1241513984	40	6029
2026-01-21 18:55:21.40	0.41	20.65	-33.9	-34.5	26.7	0.00e+00	0	41	0	1246756864	40	6070
2026-01-21 18:55:22.41	0.21	20.73	-33.9	-34.5	26.8	0.00e+00	0	41	0	1251999744	40	6063
2026-01-21 18:55:23.42	0.01	20.82	-33.7	-34.4	26.9	0.00e+00	0	41	0	1258291200	40	5965
2026-01-21 18:55:24.43	359.82	20.91	-33.8	-34.4	26.8	0.00e+00	0	41	0	1263534080	40	6032
2026-01-21 18:55:25.44	359.62	21.00	-33.7	-34.3	26.9	0.00e+00	0	41	0	1269825536	40	5957
2026-01-21 18:55:26.45	359.42	21.08	-33.8	-34.5	26.8	0.00e+00	0	41	0	1275068416	40	6065
2026-01-21 18:55:27.46	359.21	21.17	-33.8	-34.4	26.9	0.00e+00	0	41	0	1281359872	40	6003
2026-01-21 18:55:28.47	359.01	21.26	-33.9	-34.5	26.8	0.00e+00	0	41	0	1286602752	40	6076
2026-01-21 18:55:29.48	358.81	21.35	-33.8	-34.4	26.8	0.00e+00	0	41	0	1292894208	40	5994
2026-01-21 18:55:30.49	358.60	21.43	-33.7	-34.3	26.9	0.00e+00	0	41	0	1298137088	40	5932
2026-01-21 18:55:31.50	358.39	21.52	-33.7	-34.4	26.9	0.00e+00	0	41	0	1303379968	40	5978
2026-01-21 18:55:32.51	358.19	21.61	-33.8	-34.4	26.9	0.00e+00	0	42	0	1309671424	40	6010
2026-01-21 18:55:33.52	357.98	21.69	-33.7	-34.3	26.9	0.00e+00	0	41	0	1314914304	40	5957
2026-01-21 18:55:34.53	357.77	21.78	-33.6	-34.3	27.1	0.00e+00	0	41	0	1321205760	40	5911
2026-01-21 18:55:35.55	357.55	21.87	-33.5	-34.2	27.1	0.00e+00	0	41	0	1326448640	40	5842
2026-01-21 18:55:36.56	357.34	21.95	-33.5	-34.1	27.0	0.00e+00	0	41	0	1331691520	40	5817
2026-01-21 18:55:37.56	357.13	22.04	-33.4	-34.1	27.1	0.00e+00	0	41	0	1337982976	40	5767
2026-01-21 18:55:38.57	356.91	22.13	-33.5	-34.1	27.1	0.00e+00	0	41	0	1343225856	40	5783
2026-01-21 18:55:39.58	356.70	22.21	-33.5	-34.1	27.2	0.00e+00	0	41	0	1349517312	40	5784
2026-01-21 18:55:40.60	356.48	22.30	-33.4	-34.1	27.1	0.00e+00	0	41	0	1354760192	40	5782
2026-01-21 18:55:41.61	356.26	22.38	-33.5	-34.1	27.2	0.00e+00	0	41	0	1360003072	40	5763
2026-01-21 18:55:42.62	356.04	22.47	-33.4	-34.0	27.1	0.00e+00	0	41	0	1366294528	40	5732
2026-01-21 18:55:43.63	355.82	22.56	-33.2	-33.9	27.2	0.00e+00	0	41	0	1371537408	40	5640
2026-01-21 18:55:44.64	355.59	22.64	-33.2	-33.8	27.3	0.00e+00	0	41	0	1377828864	40	5605
2026-01-21 18:55:45.65	355.37	22.73	-33.2	-33.8	27.3	0.00e+00	0	41	0	1383071744	40	5573
2026-01-21 18:55:46.66	355.14	22.81	-32.9	-33.6	27.6	0.00e+00	0	41	0	1389363200	40	5444
2026-01-21 18:55:47.67	354.92	22.90	-33.0	-33.6	27.5	0.00e+00	0	41	0	1394606080	40	5447
2026-01-21 18:55:48.68	354.69	22.98	-32.9	-33.5	27.6	0.00e+00	0	41	0	1400897536	40	5427
2026-01-21 18:55:49.69	354.46	23.06	-33.0	-33.6	27.5	0.00e+00	0	41	0	1406140416	40	5464
2026-01-21 18:55:50.70	354.23	23.15	-33.2	-33.8	27.4	0.00e+00	0	41	0	1411383296	40	5578
2026-01-21 18:55:51.71	354.00	23.23	-33.2	-33.9	27.4	0.00e+00	0	41	0	1417674752	40	5641
2026-01-21 18:55:52.72	353.77	23.32	-33.1	-33.8	27.3	0.00e+00	0	41	0	1422917632	40	5569
2026-01-21 18:55:53.73	353.53	23.40	-33.1	-33.7	27.4	0.00e+00	0	41	0	1429209088	40	5558
2026-01-21 18:55:54.74	353.30	23.48	-33.3	-33.9	27.3	0.00e+00	0	41	0	1434451968	40	5648
2026-01-21 18:55:55.75	353.06	23.56	-33.2	-33.8	27.3	0.00e+00	0	41	0	1439694848	40	5624
2026-01-21 18:55:56.76	352.82	23.65	-33.2	-33.8	27.4	0.00e+00	0	41	0	1445986304	40	5598
2026-01-21 18:55:57.77	352.59	23.73	-33.3	-33.9	27.3	0.00e+00	0	41	0	1451229184	40	5666
2026-01-21 18:55:58.78	352.34	23.81	-33.2	-33.8	27.3	0.00e+00	0	41	0	1457520640	40	5629
2026-01-21 18:55:59.79	352.10	23.89	-33.0	-33.6	27.5	0.00e+00	0	41	0	1462763520	40	5500
2026-01-21 18:56:00.80	351.86	23.97	-33.0	-33.7	27.5	0.00e+00	0	41	0	1468006400	40	5507
2026-01-21 18:56:01.82	351.61	24.06	-33.1	-33.7	27.4	0.00e+00	0	41	0	1474297856	40	5515
2026-01-21 18:56:02.83	351.37	24.14	-33.1	-33.8	27.1	0.00e+00	0	41	0	1479540736	40	5578
2026-01-21 18:56:03.84	351.12	24.22	-33.2	-33.8	27.3	0.00e+00	0	41	0	1485832192	40	5602
2026-01-21 18:56:04.84	350.88	24.30	-33.2	-33.8	27.3	0.00e+00	0	41	0	1491075072	40	5574
2026-01-21 18:56:05.86	350.63	24.38	-33.4	-34.0	27.2	0.00e+00	0	41	0	1497366528	40	5716
2026-01-21 18:56:06.87	350.38	24.46	-33.4	-34.0	27.0	0.00e+00	0	41	0	1502609408	40	5747
2026-01-21 18:56:07.88	350.12	24.54	-33.3	-34.0	27.2	0.00e+00	0	41	0	1508900864	40	5711
2026-01-21 18:56:08.89	349.87	24.61	-33.2	-33.8	27.3	0.00e+00	0	41	0	1514143744	40	5596
2026-01-21 18:56:09.90	349.62	24.69	-33.2	-33.8	27.4	0.00e+00	0	41	0	1519386624	40	5571
2026-01-21 18:56:10.91	349.36	24.77	-33.1	-33.7	27.4	0.00e+00	0	41	0	1525678080	40	5543
2026-01-21 18:56:11.92	349.10	24.85	-33.1	-33.8	27.4	0.00e+00	0	41	0	1530920960	40	5572
2026-01-21 18:56:12.93	348.85	24.93	-33.1	-33.7	27.4	0.00e+00	0	41	0	1537212416	40	5564
2026-01-21 18:56:13.94	348.59	25.00	-33.1	-33.7	27.4	0.00e+00	0	41	0	1542455296	40	5526
2026-01-21 18:56:14.95	348.33	25.08	-33.1	-33.7	27.4	0.00e+00	0	41	0	1547698176	40	5532
2026-01-21 18:56:15.96	348.06	25.15	-33.1	-33.7	27.4	0.00e+00	0	41	0	1553989632	40	5562
2026-01-21 18:56:16.98	347.80	25.23	-33.0	-33.6	27.6	0.00e+00	0	41	0	1559232512	40	5468
2026-01-21 18:56:17.99	347.53	25.31	-33.1	-33.8	27.5	0.00e+00	0	41	0	1565523968	40	5571
2026-01-21 18:56:19.00	347.27	25.38	-32.9	-33.6	27.6	0.00e+00	0	41	0	1570766848	40	5444
2026-01-21 18:56:20.01	347.00	25.45	-32.9	-33.5	27.6	0.00e+00	0	41	0	1576009728	40	5402
2026-01-21 18:56:21.01	346.73	25.53	-32.9	-33.6	27.6	0.00e+00	0	41	0	1582301184	40	5444
2026-01-21 18:56:22.02	346.47	25.60	-32.8	-33.5	27.6	0.00e+00	0	41	0	1587544064	40	5388
2026-01-21 18:56:23.03	346.19	25.67	-32.9	-33.5	27.6	0.00e+00	0	41	0	1593835520	40	5399
2026-01-21 18:56:24.04	345.92	25.74	-33.0	-33.6	27.5	0.00e+00	0	41	0	1599078400	40	5470
2026-01-21 18:56:25.06	345.65	25.82	-32.8	-33.5	27.7	0.00e+00	0	41	0	1605369856	40	5399
2026-01-21 18:56:26.07	345.37	25.89	-32.9	-33.6	27.5	0.00e+00	0	41	0	1610612736	40	5449
2026-01-21 18:56:27.08	345.10	25.96	-33.0	-33.6	27.6	0.00e+00	0	41	0	1616904192	40	5493
2026-01-21 18:56:28.09	344.82	26.03	-32.9	-33.5	27.6	0.00e+00	0	41	0	1622147072	40	5439
2026-01-21 18:56:29.10	344.54	26.10	-32.9	-33.5	27.6	0.00e+00	0	41	0	1627389952	40	5421
2026-01-21 18:56:30.11	344.26	26.17	-33.1	-33.7	27.5	0.00e+00	0	41	0	1633681408	40	5521
2026-01-21 18:56:31.12	343.98	26.23	-32.9	-33.5	27.6	0.00e+00	0	41	0	1638924288	40	5434
2026-01-21 18:56:32.13	343.70	26.30	-32.9	-33.5	27.7	0.00e+00	0	41	0	1645215744	40	5411
2026-01-21 18:56:33.14	343.42	26.37	-32.8	-33.5	27.6	0.00e+00	0	41	0	1650458624	40	5389
2026-01-21 18:56:34.15	343.13	26.43	-32.7	-33.3	27.7	0.00e+00	0	41	0	1655701504	38	5949
2026-01-21 18:56:35.16	342.85	26.50	-32.9	-33.5	27.6	0.00e+00	0	41	0	1661992960	38	6088
2026-01-21 18:56:36.17	342.56	26.57	-32.8	-33.4	27.7	0.00e+00	0	41	0	1667235840	38	5996
2026-01-21 18:56:37.18	342.27	26.63	-32.9	-33.5	27.6	0.00e+00	0	41	0	1673527296	38	6076
2026-01-21 18:56:38.19	341.98	26.69	-33.1	-33.7	27.5	0.00e+00	0	41	0	1678770176	38	6183
2026-01-21 18:56:39.20	341.69	26.76	-33.2	-33.8	27.4	0.00e+00	0	41	0	1684013056	38	6276
2026-01-21 18:56:40.22	341.40	26.82	-33.2	-33.8	27.4	0.00e+00	0	41	0	1690304512	38	6278
2026-01-21 18:56:41.23	341.10	26.88	-33.0	-33.6	27.6	0.00e+00	0	41	0	1695547392	38	6123
2026-01-21 18:56:42.24	340.81	26.94	-33.1	-33.7	27.5	0.00e+00	0	41	0	1701838848	38	6215
2026-01-21 18:56:43.25	340.52	27.00	-33.0	-33.6	27.6	0.00e+00	0	41	0	1707081728	38	6128
2026-01-21 18:56:44.26	340.22	27.06	-33.0	-33.7	27.6	0.00e+00	0	41	0	1713373184	38	6190
2026-01-21 18:56:45.27	339.92	27.12	-32.9	-33.5	27.7	0.00e+00	0	41	0	1718616064	38	6045
2026-01-21 18:56:46.28	339.62	27.18	-33.0	-33.6	27.6	0.00e+00	0	41	0	1724907520	38	6131
2026-01-21 18:56:47.29	339.33	27.24	-32.8	-33.5	27.7	0.00e+00	0	41	0	1730150400	38	6046
2026-01-21 18:56:48.30	339.02	27.29	-32.8	-33.4	27.7	0.00e+00	0	41	0	1735393280	38	6029
2026-01-21 18:56:49.31	338.72	27.35	-32.9	-33.5	27.6	0.00e+00	0	41	0	1741684736	38	6089
2026-01-21 18:56:50.32	338.42	27.41	-32.9	-33.5	27.6	0.00e+00	0	41	0	1746927616	38	6083
2026-01-21 18:56:51.33	338.12	27.46	-32.6	-33.2	28.0	0.00e+00	0	41	0	1753219072	38	5855
2026-01-21 18:56:52.34	337.81	27.51	-32.7	-33.3	27.9	0.00e+00	0	41	0	1758461952	38	5930
2026-01-21 18:56:53.35	337.51	27.57	-32.8	-33.4	27.8	0.00e+00	0	41	0	1763704832	38	5996
2026-01-21 18:56:54.37	337.20	27.62	-32.6	-33.2	27.9	0.00e+00	0	41	0	1769996288	38	5884
2026-01-21 18:56:55.38	336.89	27.67	-32.7	-33.4	27.8	0.00e+00	0	41	0	1775239168	38	5972
2026-01-21 18:56:56.39	336.58	27.72	-32.9	-33.5	27.7	0.00e+00	0	41	0	1781530624	38	6077
2026-01-21 18:56:57.40	336.27	27.77	-32.7	-33.3	27.8	0.00e+00	0	41	0	1786773504	38	5935
2026-01-21 18:56:58.41	335.96	27.82	-32.6	-33.2	27.9	0.00e+00	0	41	0	1792016384	38	5895
2026-01-21 18:56:59.42	335.65	27.87	-32.6	-33.2	28.0	0.00e+00	0	41	0	1798307840	38	5890
2026-01-21 18:57:00.43	335.34	27.91	-32.6	-33.3	27.8	0.00e+00	0	41	0	1803550720	38	5919
2026-01-21 18:57:01.44	335.02	27.96	-32.7	-33.3	27.7	0.00e+00	0	41	0	1809842176	38	5954
2026-01-21 18:57:02.45	334.71	28.01	-32.7	-33.4	27.7	0.00e+00	0	41	0	1815085056	38	5966
2026-01-21 18:57:03.46	334.39	28.05	-32.7	-33.3	27.9	0.00e+00	0	41	0	1821376512	38	5964
2026-01-21 18:57:04.47	334.08	28.09	-32.6	-33.3	27.9	0.00e+00	0	41	0	1826619392	38	5912
2026-01-21 18:57:05.48	333.76	28.14	-32.8	-33.5	27.8	0.00e+00	0	41	0	1832910848	38	6038
2026-01-21 18:57:06.49	333.44	28.18	-32.5	-33.1	28.0	0.00e+00	0	41	0	1838153728	38	5822
2026-01-21 18:57:07.51	333.12	28.22	-32.5	-33.2	28.0	0.00e+00	0	41	0	1843396608	38	5839
2026-01-21 18:57:08.51	332.80	28.26	-32.3	-33.0	28.1	0.00e+00	0	41	0	1849688064	38	5723
2026-01-21 18:57:09.52	332.48	28.30	-32.4	-33.0	28.1	0.00e+00	0	41	0	1854930944	38	5712
2026-01-21 18:57:10.54	332.16	28.33	-32.4	-33.0	28.0	0.00e+00	0	41	0	1861222400	38	5738
2026-01-21 18:57:11.55	331.84	28.37	-32.5	-33.1	28.0	0.00e+00	0	41	0	1866465280	38	5813
2026-01-21 18:57:12.56	331.51	28.41	-32.5	-33.1	28.1	0.00e+00	0	41	0	1871708160	38	5787
2026-01-21 18:57:13.57	331.19	28.44	-32.5	-33.0	28.0	0.00e+00	0	41	0	1877999616	38	5752
2026-01-21 18:57:14.58	330.87	28.48	-32.4	-33.0	27.9	0.00e+00	0	41	0	1883242496	38	5729
2026-01-21 18:57:15.59	330.54	28.51	-32.4	-33.0	28.1	0.00e+00	0	41	0	1889533952	38	5756
2026-01-21 18:57:16.60	330.22	28.54	-32.6	-33.1	27.9	0.00e+00	0	41	0	1894776832	38	5823
2026-01-21 18:57:17.61	329.89	28.57	-32.5	-33.1	27.9	0.00e+00	0	41	0	1900019712	38	5784
2026-01-21 18:57:18.62	329.56	28.60	-32.5	-33.2	28.0	0.00e+00	0	41	0	1906311168	38	5829
2026-01-21 18:57:19.63	329.24	28.63	-32.6	-33.1	28.0	0.00e+00	0	41	0	1911554048	38	5818
2026-01-21 18:57:20.64	328.91	28.66	-32.6	-33.1	28.0	0.00e+00	0	41	0	1917845504	38	5818
2026-01-21 18:57:21.65	328.58	28.69	-32.5	-33.1	28.1	0.00e+00	0	41	0	1923088384	38	5800
2026-01-21 18:57:22.66	328.25	28.71	-32.4	-33.1	28.0	0.00e+00	0	41	0	1929379840	38	5788
2026-01-21 18:57:23.67	327.92	28.74	-32.5	-33.2	27.9	0.00e+00	0	41	0	1934622720	38	5850
2026-01-21 18:57:24.68	327.59	28.76	-32.6	-33.2	27.9	0.00e+00	0	41	0	1940914176	38	5836
2026-01-21 18:57:25.69	327.26	28.78	-32.3	-32.9	28.1	0.00e+00	0	41	0	1946157056	38	5638
2026-01-21 18:57:26.70	326.93	28.81	-32.3	-32.9	28.1	0.00e+00	0	41	0	1951399936	38	5688
2026-01-21 18:57:27.71	326.60	28.83	-32.3	-32.9	28.2	0.00e+00	0	41	0	1957691392	38	5641
2026-01-21 18:57:28.73	326.26	28.85	-32.2	-32.7	28.3	0.00e+00	0	41	0	1962934272	38	5564
2026-01-21 18:57:29.74	325.93	28.87	-32.3	-32.9	28.2	0.00e+00	0	41	0	1969225728	38	5656
2026-01-21 18:57:30.75	325.60	28.88	-32.3	-32.9	28.1	0.00e+00	0	41	0	1974468608	38	5668
2026-01-21 18:57:31.76	325.27	28.90	-32.3	-32.9	28.1	0.00e+00	0	41	0	1979711488	38	5675
2026-01-21 18:57:32.77	324.93	28.91	-32.1	-32.7	28.3	0.00e+00	0	41	0	1986002944	38	5531
2026-01-21 18:57:33.77	324.60	28.93	-32.1	-32.7	28.4	0.00e+00	0	41	0	1991245824	38	5535
2026-01-21 18:57:34.79	324.27	28.94	-32.0	-32.5	28.4	0.00e+00	0	41	0	1997537280	38	5432
2026-01-21 18:57:35.80	323.93	28.95	-32.1	-32.7	28.3	0.00e+00	0	41	0	2002780160	38	5508
2026-01-21 18:57:36.81	323.60	28.97	-32.2	-32.8	28.3	0.00e+00	0	41	0	2008023040	38	5624
2026-01-21 18:57:37.82	323.26	28.98	-32.6	-33.2	27.9	0.00e+00	0	41	0	2014314496	38	5832
2026-01-21 18:57:38.83	322.93	28.98	-32.6	-33.2	28.0	0.00e+00	0	41	0	2019557376	38	5867
2026-01-21 18:57:39.84	322.59	28.99	-32.7	-33.4	27.8	0.00e+00	0	41	0	2025848832	38	5982
2026-01-21 18:57:40.85	322.26	29.00	-32.8	-33.4	27.8	0.00e+00	0	41	0	2031091712	38	5996
2026-01-21 18:57:41.86	321.92	29.00	-32.4	-33.0	28.1	0.00e+00	0	41	0	2037383168	38	5745
2026-01-21 18:57:42.87	321.59	29.01	-32.3	-32.8	28.1	0.00e+00	0	41	0	2042626048	38	5628
2026-01-21 18:57:43.88	321.25	29.01	-32.3	-33.0	28.1	0.00e+00	0	41	0	2048917504	38	5698
2026-01-21 18:57:44.89	320.92	29.02	-32.5	-33.1	28.1	0.00e+00	0	41	0	2054160384	38	5790
2026-01-21 18:57:45.91	320.58	29.02	-32.4	-33.0	28.1	0.00e+00	0	41	0	2059403264	38	5761
2026-01-21 18:57:46.92	320.24	29.02	-32.2	-32.8	28.2	0.00e+00	0	41	0	2065694720	38	5581
2026-01-21 18:57:47.93	319.91	29.02	-32.2	-32.8	28.4	0.00e+00	0	41	0	2070937600	38	5583
2026-01-21 18:57:48.93	319.57	29.01	-32.1	-32.6	28.4	0.00e+00	0	41	0	2077229056	38	5482
2026-01-21 18:57:49.95	319.23	29.01	-32.1	-32.7	28.4	0.00e+00	0	41	0	2082471936	38	5507
2026-01-21 18:57:50.96	318.90	29.01	-32.2	-32.8	28.1	0.00e+00	0	41	0	2087714816	38	5608
2026-01-21 18:57:51.97	318.56	29.00	-32.1	-32.7	28.3	0.00e+00	0	41	0	2094006272	38	5525
2026-01-21 18:57:52.98	318.23	28.99	-32.3	-32.9	28.2	0.00e+00	0	41	0	2099249152	38	5637
2026-01-21 18:57:53.99	317.89	28.99	-32.2	-32.8	28.2	0.00e+00	0	41	0	2105540608	38	5609
2026-01-21 18:57:55.00	317.56	28.98	-32.2	-32.8	28.2	0.00e+00	0	41	0	2110783488	38	5617
2026-01-21 18:57:56.01	317.22	28.97	-32.2	-32.8	28.1	0.00e+00	0	41	0	2116026368	38	5588
2026-01-21 18:57:57.02	316.89	28.96	-32.3	-32.9	27.9	0.00e+00	0	41	0	2122317824	38	5680
2026-01-21 18:57:58.03	316.55	28.95	-32.4	-33.0	27.9	0.00e+00	0	41	0	2127560704	38	5715
2026-01-21 18:57:59.04	316.22	28.93	-32.3	-32.9	28.1	0.00e+00	0	41	0	2133852160	38	5653
2026-01-21 18:58:00.05	315.89	28.92	-32.6	-33.2	28.0	0.00e+00	0	41	0	2139095040	38	5861
2026-01-21 18:58:01.06	315.55	28.90	-32.2	-32.8	28.2	0.00e+00	0	41	0	2145386496	38	5615
2026-01-21 18:58:02.07	315.22	28.89	-32.2	-32.8	28.2	0.00e+00	0	41	0	2150629376	38	5619
2026-01-21 18:58:03.08	314.89	28.87	-32.3	-32.9	28.2	0.00e+00	0	41	0	2156920832	38	5669
2026-01-21 18:58:04.09	314.55	28.85	-32.3	-32.9	28.2	0.00e+00	0	41	0	2162163712	38	5685
2026-01-21 18:58:05.10	314.22	28.83	-32.2	-32.8	28.3	0.00e+00	0	41	0	2167406592	38	5596
2026-01-21 18:58:06.11	313.89	28.81	-32.2	-32.8	28.2	0.00e+00	0	41	0	2173698048	38	5605
2026-01-21 18:58:07.12	313.56	28.79	-32.2	-32.8	28.2	0.00e+00	0	41	0	2178940928	38	5615
2026-01-21 18:58:08.13	313.23	28.77	-32.2	-32.8	28.3	0.00e+00	0	41	0	2185232384	38	5613
2026-01-21 18:58:09.14	312.90	28.74	-32.4	-33.0	28.2	0.00e+00	0	41	0	2190475264	38	5752
2026-01-21 18:58:10.15	312.57	28.72	-32.5	-33.0	28.0	0.00e+00	0	41	0	2195718144	38	5761
2026-01-21 18:58:11.17	312.23	28.69	-32.5	-33.0	28.1	0.00e+00	0	41	0	2202009600	38	5748
2026-01-21 18:58:12.18	311.91	28.67	-32.4	-33.1	28.1	0.00e+00	0	41	0	2207252480	38	5798
2026-01-21 18:58:13.19	311.58	28.64	-32.3	-32.9	28.2	0.00e+00	0	41	0	2213543936	38	5691
2026-01-21 18:58:14.20	311.25	28.61	-32.3	-32.8	28.2	0.00e+00	0	41	0	2218786816	38	5630
2026-01-21 18:58:15.21	310.92	28.58	-32.1	-32.7	28.4	0.00e+00	0	41	0	2224029696	38	5513
2026-01-21 18:58:16.22	310.60	28.55	-32.2	-32.7	28.2	0.00e+00	0	41	0	2230321152	38	5551
2026-01-21 18:58:17.23	310.27	28.52	-32.2	-32.8	28.4	0.00e+00	0	41	0	2235564032	38	5580
2026-01-21 18:58:18.24	309.95	28.48	-32.1	-32.6	28.3	0.00e+00	0	41	0	2241855488	38	5483
2026-01-21 18:58:19.25	309.62	28.45	-32.2	-32.9	28.3	0.00e+00	0	41	0	2247098368	38	5646
2026-01-21 18:58:20.26	309.30	28.42	-32.3	-32.9	28.1	0.00e+00	0	41	0	2253389824	38	5671
2026-01-21 18:58:21.27	308.97	28.38	-32.3	-32.9	28.1	0.00e+00	0	41	0	2258632704	38	5666
2026-01-21 18:58:22.28	308.65	28.34	-32.2	-32.8	28.3	0.00e+00	0	41	0	2264924160	38	5582
2026-01-21 18:58:23.30	308.33	28.30	-32.3	-32.9	28.2	0.00e+00	0	41	0	2270167040	38	5671
2026-01-21 18:58:24.31	308.01	28.27	-32.4	-33.1	28.0	0.00e+00	0	41	0	2275409920	38	5768
2026-01-21 18:58:25.32	307.69	28.23	-32.3	-33.0	28.1	0.00e+00	0	41	0	2281701376	38	5727
2026-01-21 18:58:26.33	307.37	28.19	-32.4	-33.0	28.0	0.00e+00	0	41	0	2286944256	38	5757
2026-01-21 18:58:27.34	307.05	28.14	-32.5	-33.1	28.0	0.00e+00	0	41	0	2293235712	38	5816
2026-01-21 18:58:28.35	306.73	28.10	-32.5	-33.1	28.0	0.00e+00	0	41	0	2298478592	38	5802
2026-01-21 18:58:29.36	306.41	28.06	-32.5	-33.2	28.0	0.00e+00	0	41	0	2303721472	38	5852
2026-01-21 18:58:30.37	306.10	28.01	-32.5	-33.2	28.0	0.00e+00	0	41	0	2310012928	38	5829
2026-01-21 18:58:31.38	305.78	27.97	-32.4	-33.0	28.1	0.00e+00	0	41	0	2315255808	38	5696
2026-01-21 18:58:32.39	305.47	27.92	-32.3	-32.9	28.2	0.00e+00	0	41	0	2321547264	38	5652
2026-01-21 18:58:33.40	305.16	27.88	-32.2	-32.7	28.2	0.00e+00	0	41	0	2326790144	38	5559
2026-01-21 18:58:34.41	304.84	27.83	-32.3	-32.9	28.2	0.00e+00	0	41	0	2332033024	38	5643
2026-01-21 18:58:35.42	304.53	27.78	-32.2	-32.7	28.2	0.00e+00	0	41	0	2338324480	38	5531
2026-01-21 18:58:36.43	304.22	27.73	-32.3	-32.8	28.1	0.00e+00	0	41	0	2343567360	38	5573
2026-01-21 18:58:37.44	303.91	27.68	-32.3	-32.9	28.2	0.00e+00	0	41	0	2349858816	38	5685
2026-01-21 18:58:38.45	303.60	27.63	-32.4	-33.1	28.1	0.00e+00	0	41	0	2355101696	38	5767
2026-01-21 18:58:39.46	303.30	27.58	-32.4	-33.0	28.0	0.00e+00	0	41	0	2361393152	38	5704
2026-01-21 18:58:40.47	302.99	27.52	-32.7	-33.3	27.7	0.00e+00	0	41	0	2366636032	38	5909
2026-01-21 18:58:41.49	302.68	27.47	-32.6	-33.3	27.9	0.00e+00	0	41	0	2371878912	38	5897
2026-01-21 18:58:42.50	302.38	27.42	-32.7	-33.2	27.8	0.00e+00	0	41	0	2378170368	38	5885
2026-01-21 18:58:43.51	302.07	27.36	-32.8	-33.4	27.7	0.00e+00	0	41	0	2383413248	38	5966
2026-01-21 18:58:44.52	301.77	27.31	-32.7	-33.4	27.8	0.00e+00	0	41	0	2389704704	38	6014
2026-01-21 18:58:45.52	301.47	27.25	-32.5	-33.1	28.1	0.00e+00	0	41	0	2394947584	38	5813
2026-01-21 18:58:46.54	301.17	27.19	-32.4	-33.1	28.1	0.00e+00	0	41	0	2401239040	38	5788
2026-01-21 18:58:47.55	300.87	27.13	-32.6	-33.2	28.1	0.00e+00	0	41	0	2406481920	38	5880
2026-01-21 18:58:48.56	300.57	27.07	-32.4	-33.1	28.1	0.00e+00	0	41	0	2411724800	38	5776
2026-01-21 18:58:49.57	300.28	27.01	-32.6	-33.2	27.9	0.00e+00	0	41	0	2418016256	38	5866
2026-01-21 18:58:50.58	299.98	26.95	-32.7	-33.2	27.8	0.00e+00	0	41	0	2423259136	38	5879
2026-01-21 18:58:51.59	299.69	26.89	-32.6	-33.2	27.9	0.00e+00	0	41	0	2429550592	38	5870
2026-01-21 18:58:52.60	299.39	26.83	-32.4	-33.0	28.2	0.00e+00	0	41	0	2434793472	38	5722
2026-01-21 18:58:53.61	299.10	26.77	-32.4	-33.0	28.2	0.00e+00	0	41	0	2440036352	38	5751
2026-01-21 18:58:54.63	298.81	26.71	-32.4	-33.1	28.0	0.00e+00	0	41	0	2446327808	38	5792
2026-01-21 18:58:55.64	298.52	26.64	-32.6	-33.1	28.0	0.00e+00	0	41	0	2451570688	38	5812
2026-01-21 18:58:56.65	298.23	26.58	-32.6	-33.2	28.0	0.00e+00	0	41	0	2457862144	38	5856
2026-01-21 18:58:57.66	297.94	26.51	-32.6	-33.3	28.0	0.00e+00	0	41	0	2463105024	38	5899
2026-01-21 18:58:58.67	297.65	26.45	-32.6	-33.1	28.0	0.00e+00	0	41	0	2468347904	38	5820
2026-01-21 18:58:59.68	297.37	26.38	-32.4	-33.0	28.2	0.00e+00	0	41	0	2474639360	38	5706
2026-01-21 18:59:00.69	297.09	26.31	-32.4	-33.1	28.1	0.00e+00	0	41	0	2479882240	38	5778
2026-01-21 18:59:01.70	296.80	26.25	-32.4	-33.0	28.0	0.00e+00	0	41	0	2486173696	38	5700
2026-01-21 18:59:02.71	296.52	26.18	-32.4	-33.0	28.1	0.00e+00	0	41	0	2491416576	38	5712
2026-01-21 18:59:03.72	296.24	26.11	-32.5	-33.1	28.0	0.00e+00	0	41	0	2497708032	38	5776
2026-01-21 18:59:04.73	295.96	26.04	-32.6	-33.3	27.9	0.00e+00	0	41	0	2502950912	38	5933
2026-01-21 18:59:05.74	295.68	25.97	-32.7	-33.4	27.8	0.00e+00	0	41	0	2509242368	38	5979
2026-01-21 18:59:06.75	295.41	25.90	-32.8	-33.4	27.8	0.00e+00	0	41	0	2514485248	38	5984
2026-01-21 18:59:07.77	295.13	25.83	-32.9	-33.6	27.8	0.00e+00	0	41	0	2519728128	38	6123
2026-01-21 18:59:08.78	294.85	25.76	-33.1	-33.7	27.6	0.00e+00	0	41	0	2526019584	38	6207
2026-01-21 18:59:09.79	294.58	25.68	-33.2	-33.7	27.5	0.00e+00	0	41	0	2531262464	38	6240
2026-01-21 18:59:10.80	294.31	25.61	-33.0	-33.5	27.7	0.00e+00	0	41	0	2537553920	38	6073
2026-01-21 18:59:11.81	294.04	25.54	-33.2	-33.8	27.4	0.00e+00	0	41	0	2542796800	38	6296
2026-01-21 18:59:12.82	293.77	25.46	-33.2	-33.7	27.4	0.00e+00	0	41	0	2548039680	38	6227
2026-01-21 18:59:13.83	293.50	25.39	-33.3	-34.0	27.4	0.00e+00	0	41	0	2554331136	38	6406
2026-01-21 18:59:14.84	293.24	25.32	-33.2	-33.8	27.5	0.00e+00	0	41	0	2559574016	38	6251
2026-01-21 18:59:15.85	292.97	25.24	-32.8	-33.5	27.8	0.00e+00	0	41	0	2565865472	38	6075
2026-01-21 18:59:16.86	292.71	25.17	-32.8	-33.5	27.8	0.00e+00	0	41	0	2571108352	38	6073
2026-01-21 18:59:17.87	292.44	25.09	-32.9	-33.6	27.7	0.00e+00	0	41	0	2576351232	38	6108
2026-01-21 18:59:18.88	292.18	25.01	-32.9	-33.5	27.6	0.00e+00	0	41	0	2582642688	38	6048
2026-01-21 18:59:19.89	291.92	24.94	-32.8	-33.5	27.8	0.00e+00	0	41	0	2587885568	38	6062
2026-01-21 18:59:20.90	291.66	24.86	-32.9	-33.6	27.6	0.00e+00	0	41	0	2594177024	38	6116
2026-01-21 18:59:21.91	291.40	24.78	-32.9	-33.6	27.6	0.00e+00	0	41	0	2599419904	38	6105
2026-01-21 18:59:22.92	291.15	24.70	-33.2	-33.8	27.4	0.00e+00	0	41	0	2605711360	38	6257
2026-01-21 18:59:23.93	290.89	24.62	-33.2	-33.9	27.4	0.00e+00	0	41	0	2610954240	38	6334
2026-01-21 18:59:24.94	290.64	24.55	-33.1	-33.6	27.5	0.00e+00	0	41	0	2617245696	38	6169
2026-01-21 18:59:25.95	290.39	24.47	-32.9	-33.6	27.6	0.00e+00	0	41	0	2622488576	38	6149
2026-01-21 18:59:26.96	290.13	24.39	-32.9	-33.5	27.7	0.00e+00	0	41	0	2627731456	38	6041
2026-01-21 18:59:27.97	289.88	24.31	-32.9	-33.4	27.7	0.00e+00	0	41	0	2634022912	38	5997
2026-01-21 18:59:28.98	289.64	24.23	-32.9	-33.6	27.7	0.00e+00	0	41	0	2639265792	38	6107
2026-01-21 18:59:29.99	289.39	24.15	-32.7	-33.4	27.7	0.00e+00	0	41	0	2645557248	38	6013
2026-01-21 18:59:31.00	289.14	24.07	-32.6	-33.2	27.8	0.00e+00	0	41	0	2650800128	38	5896
2026-01-21 18:59:32.01	288.90	23.98	-32.8	-33.5	27.5	0.00e+00	0	41	0	2656043008	38	6077
2026-01-21 18:59:33.02	288.65	23.90	-33.2	-33.7	27.2	0.00e+00	0	41	0	2662334464	38	6240
2026-01-21 18:59:34.03	288.41	23.82	-33.3	-33.9	27.2	0.00e+00	0	41	0	2667577344	38	6326
2026-01-21 18:59:35.04	288.17	23.74	-33.2	-33.8	27.1	0.00e+00	0	41	0	2673868800	38	6294
2026-01-21 18:59:36.05	287.93	23.66	-33.2	-33.8	27.3	0.00e+00	0	41	0	2679111680	38	6307
2026-01-21 18:59:37.06	287.69	23.57	-33.4	-34.1	27.1	0.00e+00	0	41	0	2684354560	38	6475
2026-01-21 18:59:38.07	287.45	23.49	-33.0	-33.7	27.3	0.00e+00	0	41	0	2690646016	38	6192
2026-01-21 18:59:39.09	287.22	23.41	-32.9	-33.5	27.5	0.00e+00	0	41	0	2695888896	38	6070
2026-01-21 18:59:40.10	286.98	23.32	-33.0	-33.6	27.4	0.00e+00	0	41	0	2702180352	38	6160
2026-01-21 18:59:41.11	286.75	23.24	-33.0	-33.5	27.4	0.00e+00	0	41	0	2707423232	38	6094
2026-01-21 18:59:42.12	286.51	23.16	-32.9	-33.6	27.4	0.00e+00	0	41	0	2713714688	38	6154
2026-01-21 18:59:43.13	286.28	23.07	-33.1	-33.6	27.3	0.00e+00	0	41	0	2718957568	38	6160
2026-01-21 18:59:44.14	286.05	22.99	-32.9	-33.6	27.5	0.00e+00	0	41	0	2725249024	38	6116
2026-01-21 18:59:45.15	285.83	22.90	-32.9	-33.6	27.5	0.00e+00	0	41	0	2730491904	38	6105
2026-01-21 18:59:46.16	285.60	22.82	-33.1	-33.7	27.3	0.00e+00	0	41	0	2735734784	38	6180
2026-01-21 18:59:47.17	285.37	22.73	-33.1	-33.7	27.3	0.00e+00	0	41	0	2742026240	38	6206
2026-01-21 18:59:48.18	285.15	22.65	-33.1	-33.6	27.3	0.00e+00	0	41	0	2747269120	38	6169
2026-01-21 18:59:49.20	284.92	22.56	-33.1	-33.6	27.1	0.00e+00	0	41	0	2753560576	38	6143
2026-01-21 18:59:50.21	284.70	22.48	-33.0	-33.6	27.3	0.00e+00	0	41	0	2758803456	38	6135
2026-01-21 18:59:51.22	284.48	22.39	-33.1	-33.7	27.2	0.00e+00	0	41	0	2764046336	38	6177
2026-01-21 18:59:52.23	284.26	22.30	-33.2	-33.9	26.9	0.00e+00	0	41	0	2770337792	38	6364
2026-01-21 18:59:53.24	284.04	22.22	-33.4	-33.9	27.0	0.00e+00	0	41	0	2775580672	38	6384
2026-01-21 18:59:54.25	283.82	22.13	-33.5	-34.1	26.7	0.00e+00	0	41	0	2781872128	38	6485
2026-01-21 18:59:55.26	283.61	22.04	-33.4	-34.0	26.9	0.00e+00	0	41	0	2787115008	38	6448
2026-01-21 18:59:56.27	283.39	21.96	-33.5	-34.1	26.8	0.00e+00	0	41	0	2792357888	38	6512
2026-01-21 18:59:57.28	283.18	21.87	-33.4	-34.0	26.9	0.00e+00	0	41	0	2798649344	38	6400
2026-01-21 18:59:58.29	282.97	21.78	-33.5	-34.1	26.7	0.00e+00	0	41	0	2803892224	38	6488
2026-01-21 18:59:59.30	282.75	21.70	-33.6	-34.2	26.7	0.00e+00	0	41	0	2810183680	38	6589
2026-01-21 19:00:00.31	282.54	21.61	-33.7	-34.3	26.8	0.00e+00	0	41	0	2815426560	38	6644
2026-01-21 19:00:01.32	282.33	21.52	-33.5	-34.0	27.0	0.00e+00	0	41	0	2821718016	38	6441
2026-01-21 19:00:02.33	282.13	21.44	-33.4	-34.0	27.0	0.00e+00	0	41	0	2826960896	38	6422
2026-01-21 19:00:03.34	281.92	21.35	-33.5	-34.2	27.0	0.00e+00	0	41	0	2833252352	38	6560
2026-01-21 19:00:04.35	281.71	21.26	-33.5	-34.2	26.9	0.00e+00	0	41	0	2838495232	38	6586
2026-01-21 19:00:05.36	281.51	21.17	-33.5	-34.2	26.9	0.00e+00	0	41	0	2843738112	38	6542
2026-01-21 19:00:06.38	281.31	21.09	-33.6	-34.1	26.9	0.00e+00	0	41	0	2850029568	38	6532
2026-01-21 19:00:07.39	281.10	21.00	-33.5	-34.0	27.0	0.00e+00	0	41	0	2855272448	38	6464
2026-01-21 19:00:08.40	280.90	20.91	-33.5	-34.2	27.0	0.00e+00	0	41	0	2861563904	38	6558
2026-01-21 19:00:09.41	280.70	20.82	-33.4	-34.1	27.0	0.00e+00	0	41	0	2866806784	38	6530
2026-01-21 19:00:10.42	280.50	20.73	-33.4	-34.0	27.0	0.00e+00	0	41	0	2872049664	38	6408
2026-01-21 19:00:11.43	280.31	20.65	-33.5	-34.0	26.9	0.00e+00	0	41	0	2878341120	38	6450
2026-01-21 19:00:12.44	280.11	20.56	-33.6	-34.3	26.9	0.00e+00	0	41	0	2883584000	38	6666
2026-01-21 19:00:13.45	279.92	20.47	-33.6	-34.2	26.8	0.00e+00	0	41	0	2889875456	38	6576
2026-01-21 19:00:14.46	279.72	20.38	-33.7	-34.3	26.7	0.00e+00	0	41	0	2895118336	40	5917
2026-01-21 19:00:15.47	279.53	20.29	-33.6	-34.3	26.8	0.00e+00	0	41	0	2900361216	40	5952
2026-01-21 19:00:16.48	279.34	20.21	-33.6	-34.2	26.8	0.00e+00	0	41	0	2906652672	40	5850
2026-01-21 19:00:17.49	279.15	20.12	-33.7	-34.4	26.6	0.00e+00	0	41	0	2911895552	40	5998
2026-01-21 19:00:18.50	278.96	20.03	-33.8	-34.4	26.7	0.00e+00	0	41	0	2918187008	40	5974
2026-01-21 19:00:19.51	278.77	19.94	-33.8	-34.5	26.7	0.00e+00	0	41	0	2923429888	40	6046
2026-01-21 19:00:20.52	278.58	19.85	-33.8	-34.5	26.8	0.00e+00	0	41	0	2929721344	40	6056
2026-01-21 19:00:21.54	278.39	19.76	-33.6	-34.3	26.8	0.00e+00	0	41	0	2934964224	40	5943
2026-01-21 19:00:22.55	278.21	19.67	-33.5	-34.0	26.9	0.00e+00	0	41	0	2941255680	40	5753
2026-01-21 19:00:23.55	278.03	19.59	-33.3	-34.0	27.0	0.00e+00	0	41	0	2946498560	40	5744
2026-01-21 19:00:24.57	277.84	19.50	-33.6	-34.3	26.9	0.00e+00	0	41	0	2951741440	40	5944
2026-01-21 19:00:25.57	277.66	19.41	-33.7	-34.2	26.7	0.00e+00	0	41	0	2958032896	40	5891
2026-01-21 19:00:26.58	277.48	19.32	-33.6	-34.2	26.8	0.00e+00	0	41	0	2963275776	40	5850
2026-01-21 19:00:27.60	277.30	19.23	-33.6	-34.2	26.9	0.00e+00	0	41	0	2969567232	40	5866
2026-01-21 19:00:28.61	277.12	19.15	-33.8	-34.5	26.7	0.00e+00	0	41	0	2974810112	40	6087
2026-01-21 19:00:29.62	276.94	19.06	-33.9	-34.6	26.6	0.00e+00	0	41	0	2980052992	40	6154
2026-01-21 19:00:30.63	276.77	18.97	-33.8	-34.5	26.6	0.00e+00	0	41	0	2986344448	40	6073
2026-01-21 19:00:31.64	276.59	18.88	-33.9	-34.5	26.7	0.00e+00	0	41	0	2991587328	40	6037
2026-01-21 19:00:32.65	276.42	18.79	-34.0	-34.7	26.5	0.00e+00	0	41	0	2997878784	40	6213
2026-01-21 19:00:33.66	276.24	18.70	-33.9	-34.4	26.6	0.00e+00	0	41	0	3003121664	40	6019
2026-01-21 19:00:34.67	276.07	18.62	-33.9	-34.4	26.7	0.00e+00	0	41	0	3008364544	40	6015
2026-01-21 19:00:35.68	275.90	18.53	-34.0	-34.5	26.5	0.00e+00	0	41	0	3014656000	40	6080
2026-01-21 19:00:36.69	275.73	18.44	-34.1	-34.6	26.4	0.00e+00	0	41	0	3019898880	40	6168
2026-01-21 19:00:37.70	275.56	18.35	-34.1	-34.6	26.5	0.00e+00	0	41	0	3026190336	40	6140
2026-01-21 19:00:38.71	275.39	18.26	-34.1	-34.8	26.4	0.00e+00	0	41	0	3031433216	40	6261
2026-01-21 19:00:39.72	275.22	18.18	-34.2	-34.9	26.4	0.00e+00	0	41	0	3037724672	40	6333
2026-01-21 19:00:40.73	275.06	18.09	-34.3	-34.8	26.4	0.00e+00	0	41	0	3042967552	40	6307
2026-01-21 19:00:41.74	274.89	18.00	-34.3	-34.8	26.3	0.00e+00	0	41	0	3049259008	40	6303
2026-01-21 19:00:42.75	274.73	17.91	-34.3	-34.9	26.2	0.00e+00	0	41	0	3054501888	40	6341
2026-01-21 19:00:43.76	274.56	17.83	-34.4	-34.9	26.2	0.00e+00	0	41	0	3059744768	40	6384
2026-01-21 19:00:44.77	274.40	17.74	-34.4	-35.1	26.2	0.00e+00	0	41	0	3066036224	40	6494
2026-01-21 19:00:45.79	274.24	17.65	-34.3	-35.0	26.3	0.00e+00	0	41	0	3071279104	40	6425
2026-01-21 19:00:46.80	274.08	17.56	-34.3	-34.9	26.2	0.00e+00	0	41	0	3077570560	40	6367
2026-01-21 19:00:47.81	273.92	17.48	-34.2	-34.8	26.3	0.00e+00	0	41	0	3082813440	40	6280
2026-01-21 19:00:48.82	273.76	17.39	-34.4	-35.1	26.2	0.00e+00	0	41	0	3088056320	40	6488
2026-01-21 19:00:49.83	273.60	17.30	-34.2	-34.7	26.4	0.00e+00	0	41	0	3094347776	40	6237
2026-01-21 19:00:50.84	273.44	17.21	-34.3	-34.9	26.4	0.00e+00	0	41	0	3099590656	40	6356
2026-01-21 19:00:51.85	273.29	17.13	-34.3	-34.9	26.3	0.00e+00	0	41	0	3105882112	40	6345
2026-01-21 19:00:52.86	273.13	17.04	-34.6	-35.1	26.1	0.00e+00	0	41	0	3111124992	40	6523
2026-01-21 19:00:53.87	272.98	16.95	-34.5	-35.1	26.1	0.00e+00	0	41	0	3116367872	40	6495
2026-01-21 19:00:54.88	272.82	16.87	-34.3	-34.9	26.2	0.00e+00	0	41	0	3122659328	40	6343
2026-01-21 19:00:55.89	272.67	16.78	-34.4	-35.1	26.2	0.00e+00	0	41	0	3127902208	40	6509
2026-01-21 19:00:56.90	272.52	16.69	-34.6	-35.3	26.0	0.00e+00	0	40	0	3134193664	40	6654
2026-01-21 19:00:57.91	272.37	16.61	-34.5	-35.1	26.0	0.00e+00	0	41	0	3139436544	40	6525
2026-01-21 19:00:58.92	272.22	16.52	-34.8	-35.5	25.9	0.00e+00	0	41	0	3145728000	42	6078
2026-01-21 19:00:59.93	272.07	16.44	-34.7	-35.3	25.9	0.00e+00	0	41	0	3150970880	42	5927
2026-01-21 19:01:00.94	271.92	16.35	-35.0	-35.6	25.7	0.00e+00	0	41	0	3157262336	42	6145
2026-01-21 19:01:01.95	271.77	16.26	-34.9	-35.6	25.6	0.00e+00	0	41	0	3162505216	42	6170
2026-01-21 19:01:02.97	271.63	16.18	-34.8	-35.4	25.9	0.00e+00	0	41	0	3167748096	42	5993
2026-01-21 19:01:03.98	271.48	16.09	-34.7	-35.5	25.9	0.00e+00	0	40	0	3174039552	42	6039
2026-01-21 19:01:04.99	271.33	16.01	-34.9	-35.4	25.8	0.00e+00	0	41	0	3179282432	42	6033
2026-01-21 19:01:06.00	271.19	15.92	-34.8	-35.4	25.9	0.00e+00	0	41	0	3185573888	42	5990
2026-01-21 19:01:07.01	271.05	15.84	-34.8	-35.5	25.8	0.00e+00	0	41	0	3190816768	42	6098
2026-01-21 19:01:08.02	270.91	15.75	-34.7	-35.3	25.8	0.00e+00	0	41	0	3196059648	42	5942
2026-01-21 19:01:09.03	270.76	15.66	-34.9	-35.5	25.7	0.00e+00	0	41	0	3202351104	42	6074
2026-01-21 19:01:10.04	270.62	15.58	-34.9	-35.5	25.8	0.00e+00	0	41	0	3207593984	42	6046
2026-01-21 19:01:11.05	270.48	15.50	-35.0	-35.7	25.7	0.00e+00	0	41	0	3213885440	42	6203
2026-01-21 19:01:12.06	270.34	15.41	-35.0	-35.7	25.7	0.00e+00	0	41	0	3219128320	42	6200
2026-01-21 19:01:13.07	270.21	15.33	-34.9	-35.6	25.8	0.00e+00	0	41	0	3225419776	42	6127
2026-01-21 19:01:14.08	270.07	15.24	-35.0	-35.5	25.6	0.00e+00	0	41	0	3230662656	42	6103
2026-01-21 19:01:15.09	269.93	15.16	-34.9	-35.7	25.6	0.00e+00	0	41	0	3235905536	42	6193
2026-01-21 19:01:16.10	269.80	15.07	-35.0	-35.6	25.6	0.00e+00	0	41	0	3242196992	42	6158
2026-01-21 19:01:17.12	269.66	14.99	-35.4	-36.1	25.3	0.00e+00	0	41	0	3247439872	42	6510
2026-01-21 19:01:18.13	269.53	14.90	-35.5	-36.1	25.2	0.00e+00	0	41	0	3253731328	42	6516
2026-01-21 19:01:19.14	269.39	14.82	-35.3	-36.0	25.3	0.00e+00	0	41	0	3258974208	42	6393
2026-01-21 19:01:20.15	269.26	14.74	-35.3	-36.0	25.3	0.00e+00	0	41	0	3265265664	42	6401
2026-01-21 19:01:21.16	269.13	14.65	-35.3	-35.9	25.3	0.00e+00	0	41	0	3270508544	42	6385
2026-01-21 19:01:22.17	269.00	14.57	-35.5	-36.1	25.2	0.00e+00	0	41	0	3275751424	42	6472
2026-01-21 19:01:23.18	268.87	14.49	-35.2	-36.0	25.3	0.00e+00	0	41	0	3282042880	42	6412
2026-01-21 19:01:24.19	268.74	14.40	-35.3	-35.9	25.4	0.00e+00	0	41	0	3287285760	42	6334
2026-01-21 19:01:25.20	268.61	14.32	-35.3	-36.1	25.3	0.00e+00	0	41	0	3293577216	42	6471
2026-01-21 19:01:26.21	268.48	14.24	-35.6	-36.3	25.1	0.00e+00	0	41	0	3298820096	42	6672
2026-01-21 19:01:27.22	268.35	14.15	-35.4	-36.2	25.3	0.00e+00	0	41	0	3304062976	42	6543
2026-01-21 19:01:28.23	268.22	14.07	-35.2	-35.8	25.4	0.00e+00	0	41	0	3310354432	42	6269
2026-01-21 19:01:29.24	268.10	13.99	-35.2	-36.0	25.4	0.00e+00	0	41	0	3315597312	42	6401
2026-01-21 19:01:30.25	267.97	13.91	-35.5	-36.1	25.2	0.00e+00	0	41	0	3321888768	42	6470
2026-01-21 19:01:31.26	267.85	13.82	-35.4	-36.0	25.2	0.00e+00	0	41	0	3327131648	42	6397
2026-01-21 19:01:32.27	267.72	13.74	-35.3	-35.9	25.4	0.00e+00	0	41	0	3333423104	42	6320
2026-01-21 19:01:33.28	267.60	13.66	-35.3	-36.0	25.3	0.00e+00	0	41	0	3338665984	42	6428
2026-01-21 19:01:34.29	267.48	13.58	-35.3	-36.0	25.3	0.00e+00	0	41	0	3343908864	42	6463
2026-01-21 19:01:35.30	267.36	13.50	-35.2	-35.8	25.4	0.00e+00	0	41	0	3350200320	42	6274
2026-01-21 19:01:36.31	267.24	13.41	-35.3	-35.9	25.4	0.00e+00	0	41	0	3355443200	42	6333
2026-01-21 19:01:37.32	267.12	13.33	-35.2	-35.9	25.5	0.00e+00	0	41	0	3361734656	42	6348
2026-01-21 19:01:38.33	267.00	13.25	-35.2	-35.9	25.4	0.00e+00	0	41	0	3366977536	42	6364
2026-01-21 19:01:39.34	266.88	13.17	-35.3	-35.8	25.4	0.00e+00	0	41	0	3373268992	42	6315
2026-01-21 19:01:40.35	266.76	13.09	-35.3	-35.9	25.3	0.00e+00	0	41	0	3378511872	42	6363
2026-01-21 19:01:41.36	266.64	13.01	-35.4	-36.2	25.2	0.00e+00	0	41	0	3383754752	42	6563
2026-01-21 19:01:42.37	266.52	12.93	-35.7	-36.3	25.0	0.00e+00	0	41	0	3390046208	44	5904
2026-01-21 19:01:43.38	266.41	12.85	-35.6	-36.2	25.0	0.00e+00	0	41	0	3395289088	44	5868
2026-01-21 19:01:44.39	266.29	12.77	-35.7	-36.3	24.9	0.00e+00	0	41	0	3401580544	44	5928
2026-01-21 19:01:45.40	266.18	12.69	-35.7	-36.3	24.8	0.00e+00	0	41	0	3406823424	44	5955
2026-01-21 19:01:46.41	266.06	12.61	-35.7	-36.4	24.9	0.00e+00	0	41	0	3412066304	44	5986
2026-01-21 19:01:47.42	265.95	12.53	-35.7	-36.4	24.9	0.00e+00	0	41	0	3418357760	44	6002
2026-01-21 19:01:48.43	265.83	12.45	-35.7	-36.3	24.8	0.00e+00	0	41	0	3423600640	44	5964
2026-01-21 19:01:49.44	265.72	12.37	-35.6	-36.3	25.0	0.00e+00	0	41	0	3429892096	44	5905
2026-01-21 19:01:50.45	265.61	12.29	-35.6	-36.4	24.9	0.00e+00	0	41	0	3435134976	44	5984
2026-01-21 19:01:51.46	265.50	12.21	-35.6	-36.3	24.9	0.00e+00	0	41	0	3440377856	44	5929
2026-01-21 19:01:52.47	265.39	12.13	-35.8	-36.4	24.8	0.00e+00	0	41	0	3446669312	44	5984
2026-01-21 19:01:53.48	265.28	12.05	-35.8	-36.4	24.8	0.00e+00	0	41	0	3451912192	44	6018
2026-01-21 19:01:54.49	265.17	11.97	-36.0	-36.8	24.7	0.00e+00	0	41	0	3458203648	44	6253
2026-01-21 19:01:55.51	265.06	11.89	-35.9	-36.7	24.7	0.00e+00	0	41	0	3463446528	44	6211
2026-01-21 19:01:56.51	264.95	11.81	-36.0	-36.6	24.6	0.00e+00	0	41	0	3469737984	44	6149
2026-01-21 19:01:57.52	264.84	11.74	-36.1	-36.7	24.5	0.00e+00	0	41	0	3474980864	44	6227
2026-01-21 19:01:58.53	264.73	11.66	-36.0	-36.7	24.5	0.00e+00	0	41	0	3481272320	44	6201
2026-01-21 19:01:59.54	264.63	11.58	-36.1	-36.9	24.5	0.00e+00	0	41	0	3486515200	46	5639
2026-01-21 19:02:00.55	264.52	11.50	-36.1	-36.7	24.6	0.00e+00	0	41	0	3491758080	46	5528
2026-01-21 19:02:01.56	264.42	11.42	-36.1	-36.9	24.6	0.00e+00	0	41	0	3498049536	46	5652
2026-01-21 19:02:02.57	264.31	11.35	-36.0	-36.8	24.7	0.00e+00	0	41	0	3503292416	46	5588
2026-01-21 19:02:03.58	264.21	11.27	-36.1	-36.7	24.6	0.00e+00	0	41	0	3509583872	46	5510
2026-01-21 19:02:04.59	264.10	11.19	-36.1	-36.9	24.7	0.00e+00	0	41	0	3514826752	46	5642
2026-01-21 19:02:05.61	264.00	11.11	-36.2	-36.9	24.4	0.00e+00	0	41	0	3520069632	46	5686
2026-01-21 19:02:06.62	263.89	11.04	-36.4	-37.0	24.4	0.00e+00	0	41	0	3526361088	46	5741
2026-01-21 19:02:07.63	263.79	10.96	-36.6	-37.2	24.1	0.00e+00	0	41	0	3531603968	46	5880
2026-01-21 19:02:08.64	263.69	10.88	-36.3	-37.0	24.4	0.00e+00	0	41	0	3537895424	46	5734
2026-01-21 19:02:09.65	263.59	10.81	-36.5	-37.3	24.1	0.00e+00	0	41	0	3543138304	46	5903
2026-01-21 19:02:10.66	263.49	10.73	-36.5	-37.2	24.1	0.00e+00	0	41	0	3548381184	46	5835
2026-01-21 19:02:11.67	263.39	10.65	-36.4	-37.0	24.3	0.00e+00	0	41	0	3554672640	46	5753
