passes_logs/2026/01/21/R4.6S_Anadyr/R4.6S_Anadyr__20260121_050809_FENGYUN_3D_rec.log

#Pass ID: 20260121_050809_FENGYUN 3D
#Satellite: FENGYUN 3D
#Configuration: FENGYUN 3D
#almurnet v.1.7.20251203
#Start time: 2026-01-21 05:08:12

#Version: 2.2.20231116
#Station: R4.6S_Anadyr
#Location: 177.4865 lon 64.73178 lat
#TLE: 1 43010U 17072A   26020.28933472  .00000051  00000+0  46008-4 0  9990
#TLE: 2 43010  98.9944 352.1871 0002476  99.7001 260.4455 14.19696838424006

#Time	Az	El	Level	Level2	SNR	BER	BlckErr	Temp	State	Recorded	gain1	gain2
2026-01-21 05:08:12.14	232.98	0.11	-52.8	-70.5	3.5	3.02e+01	0	39	0	0	60	128338
2026-01-21 05:08:13.14	233.07	0.15	-53.2	-65.3	3.6	8.45e-01	0	40	104	0	60	66913
2026-01-21 05:08:14.15	233.16	0.19	-53.3	-65.5	3.6	8.45e-01	0	40	104	0	60	67923
2026-01-21 05:08:15.16	233.25	0.24	-52.6	-64.9	3.6	8.44e-01	0	40	104	0	60	63401
2026-01-21 05:08:16.17	233.34	0.28	-52.9	-65.1	3.6	8.45e-01	0	40	104	0	60	65246
2026-01-21 05:08:17.17	233.42	0.33	-52.7	-64.9	3.6	8.45e-01	0	40	104	0	60	63298
2026-01-21 05:08:18.19	233.51	0.37	-53.0	-65.3	3.6	8.46e-01	0	40	104	0	60	66201
2026-01-21 05:08:19.20	233.61	0.42	-52.7	-64.8	3.6	8.45e-01	0	40	104	0	60	62904
2026-01-21 05:08:20.21	233.70	0.46	-52.6	-64.8	3.6	8.45e-01	0	40	104	0	60	62985
2026-01-21 05:08:21.21	233.79	0.51	-52.7	-64.9	3.6	8.45e-01	0	40	104	0	60	63891
2026-01-21 05:08:22.22	233.88	0.55	-52.5	-64.8	3.6	8.44e-01	0	40	104	0	60	62883
2026-01-21 05:08:23.23	233.97	0.60	-52.9	-65.2	3.6	8.46e-01	0	40	104	0	60	65717
2026-01-21 05:08:24.24	234.06	0.64	-52.9	-65.2	3.6	8.46e-01	0	40	104	0	60	66039
2026-01-21 05:08:25.25	234.15	0.69	-53.4	-65.7	3.6	8.45e-01	0	40	104	0	60	69407
2026-01-21 05:08:26.26	234.24	0.73	-52.9	-65.2	3.6	8.46e-01	0	41	104	0	60	65677
2026-01-21 05:08:27.27	234.34	0.77	-53.4	-65.6	3.6	8.45e-01	0	40	104	0	60	68602
2026-01-21 05:08:28.28	234.43	0.82	-52.8	-64.9	3.6	8.46e-01	0	40	104	0	60	63714
2026-01-21 05:08:29.29	234.52	0.86	-52.5	-64.7	3.6	8.44e-01	0	41	104	0	60	61943
2026-01-21 05:08:30.30	234.61	0.91	-52.4	-64.6	3.5	8.44e-01	0	41	104	0	60	61127
2026-01-21 05:08:31.31	234.71	0.95	-51.9	-64.1	3.6	8.46e-01	0	41	104	0	60	57684
2026-01-21 05:08:32.32	234.80	1.00	-51.8	-63.9	3.6	8.45e-01	0	41	104	0	60	56590
2026-01-21 05:08:33.33	234.89	1.04	-51.3	-63.4	3.6	8.45e-01	0	41	104	0	60	53686
2026-01-21 05:08:34.34	234.99	1.09	-50.9	-63.0	3.6	8.47e-01	0	41	104	0	60	50986
2026-01-21 05:08:35.35	235.08	1.13	-50.5	-62.6	3.6	8.44e-01	0	41	104	0	60	48679
2026-01-21 05:08:36.36	235.18	1.18	-49.9	-62.0	3.6	8.45e-01	0	41	104	0	60	45344
2026-01-21 05:08:37.36	235.27	1.22	-49.0	-61.1	3.6	8.45e-01	0	41	104	0	60	40850
2026-01-21 05:08:38.37	235.37	1.27	-48.8	-60.9	3.6	8.46e-01	0	41	104	0	60	40132
2026-01-21 05:08:39.38	235.46	1.31	-48.8	-60.8	3.6	8.45e-01	0	41	104	0	60	39834
2026-01-21 05:08:40.39	235.56	1.36	-48.8	-60.9	3.6	8.46e-01	0	41	104	0	60	39996
2026-01-21 05:08:41.40	235.66	1.40	-48.8	-60.8	3.6	8.45e-01	0	41	104	0	60	39626
2026-01-21 05:08:42.41	235.75	1.45	-48.8	-60.8	3.6	8.44e-01	0	41	104	0	60	39739
2026-01-21 05:08:43.42	235.85	1.49	-48.7	-60.8	3.6	8.45e-01	0	41	104	0	60	39563
2026-01-21 05:08:44.43	235.95	1.54	-48.7	-60.7	3.6	8.45e-01	0	41	104	0	60	39261
2026-01-21 05:08:45.44	236.04	1.58	-48.8	-60.8	3.6	8.45e-01	0	41	104	0	60	39762
2026-01-21 05:08:46.45	236.14	1.63	-48.7	-60.8	3.6	8.46e-01	0	41	104	0	60	39655
2026-01-21 05:08:47.46	236.24	1.67	-48.8	-60.8	3.6	8.46e-01	0	41	104	0	60	39842
2026-01-21 05:08:48.47	236.34	1.72	-48.8	-60.8	3.6	8.46e-01	0	41	104	0	60	39559
2026-01-21 05:08:49.48	236.43	1.76	-48.8	-60.8	3.6	8.46e-01	0	41	104	0	60	39683
2026-01-21 05:08:50.49	236.53	1.81	-48.7	-60.8	3.6	8.45e-01	0	41	104	0	60	39603
2026-01-21 05:08:51.50	236.63	1.85	-48.8	-60.8	3.6	8.45e-01	0	41	104	0	60	39634
2026-01-21 05:08:52.50	236.73	1.90	-48.8	-60.9	3.6	8.44e-01	0	41	104	0	60	39887
2026-01-21 05:08:53.51	236.83	1.94	-48.7	-60.7	3.6	8.44e-01	0	41	104	0	60	39222
2026-01-21 05:08:54.52	236.93	1.99	-48.7	-60.8	3.6	8.46e-01	0	41	104	0	60	39408
2026-01-21 05:08:55.53	237.03	2.03	-48.7	-60.7	3.6	8.45e-01	0	41	104	0	60	39155
2026-01-21 05:08:56.54	237.13	2.08	-48.7	-60.6	3.6	8.44e-01	0	41	104	0	60	38927
2026-01-21 05:08:57.55	237.23	2.12	-48.7	-60.7	3.6	8.46e-01	0	41	104	0	60	39052
2026-01-21 05:08:58.56	237.33	2.17	-48.6	-60.6	3.6	8.45e-01	0	41	104	0	60	38895
2026-01-21 05:08:59.57	237.43	2.21	-48.6	-60.6	3.6	8.47e-01	0	41	104	0	60	38719
2026-01-21 05:09:00.58	237.53	2.26	-48.7	-60.7	3.6	8.45e-01	0	41	104	0	60	39040
2026-01-21 05:09:01.59	237.64	2.30	-48.7	-60.6	3.6	8.45e-01	0	41	104	0	60	38852
2026-01-21 05:09:02.60	237.74	2.35	-48.6	-60.6	3.6	8.45e-01	0	41	104	0	60	38823
2026-01-21 05:09:03.61	237.84	2.39	-48.6	-60.7	3.6	8.45e-01	0	41	104	0	60	39080
2026-01-21 05:09:04.62	237.94	2.44	-48.6	-60.6	3.6	8.46e-01	0	41	104	0	60	38875
2026-01-21 05:09:05.63	238.05	2.48	-48.6	-60.6	3.6	8.45e-01	0	41	104	0	60	38923
2026-01-21 05:09:06.64	238.15	2.53	-48.6	-60.6	3.6	8.45e-01	0	41	104	0	60	38736
2026-01-21 05:09:07.65	238.25	2.57	-48.6	-60.6	3.6	8.45e-01	0	41	104	0	60	38744
2026-01-21 05:09:08.66	238.36	2.62	-48.6	-60.7	3.6	8.46e-01	0	41	104	0	60	39084
2026-01-21 05:09:09.67	238.46	2.66	-48.6	-60.7	3.6	8.45e-01	0	41	104	0	60	38958
2026-01-21 05:09:10.68	238.57	2.71	-48.6	-60.7	3.6	8.46e-01	0	41	104	0	60	39121
2026-01-21 05:09:11.69	238.67	2.75	-48.6	-60.7	3.6	8.45e-01	0	41	104	0	60	39162
2026-01-21 05:09:12.70	238.78	2.80	-48.6	-60.7	3.6	8.46e-01	0	41	104	0	60	39136
2026-01-21 05:09:13.71	238.88	2.84	-48.6	-60.6	3.6	8.45e-01	0	41	104	0	60	38831
2026-01-21 05:09:14.72	238.99	2.88	-48.6	-60.7	3.6	8.45e-01	0	41	104	0	60	39301
2026-01-21 05:09:15.73	239.09	2.93	-48.6	-60.6	3.6	8.47e-01	0	41	104	0	60	38713
2026-01-21 05:09:16.74	239.20	2.97	-48.6	-60.5	3.6	8.45e-01	0	41	104	0	60	38351
2026-01-21 05:09:17.74	239.31	3.02	-48.6	-60.4	3.6	8.45e-01	0	41	104	0	60	37939
2026-01-21 05:09:18.75	239.41	3.06	-48.6	-60.2	3.6	8.47e-01	0	41	104	0	60	36980
2026-01-21 05:09:19.76	239.52	3.11	-48.6	-60.7	3.6	8.45e-01	0	41	104	0	60	38991
2026-01-21 05:09:20.77	239.63	3.15	-48.7	-60.6	3.6	8.46e-01	0	41	104	0	60	38832
2026-01-21 05:09:21.78	239.74	3.20	-48.3	-55.7	4.9	8.35e-01	0	41	104	0	60	22049
2026-01-21 05:09:22.79	239.84	3.24	-48.3	-54.5	4.5	7.70e-01	0	41	0	0	60	19225
2026-01-21 05:09:23.80	239.95	3.29	-48.5	-56.8	4.4	8.36e-01	0	41	104	0	60	24989
2026-01-21 05:09:24.81	240.06	3.33	-48.2	-54.2	5.3	7.50e-01	0	41	0	0	60	18525
2026-01-21 05:09:25.82	240.17	3.38	-48.3	-54.1	5.0	6.80e-01	0	41	0	2097152	60	18426
2026-01-21 05:09:26.82	240.28	3.42	-47.9	-52.9	6.2	3.11e-01	0	41	0	7340032	60	15918
2026-01-21 05:09:27.83	240.39	3.47	-48.0	-53.5	5.5	3.96e-01	0	41	0	12582912	60	17129
2026-01-21 05:09:28.84	240.50	3.51	-47.5	-52.0	7.0	2.20e-01	0	41	0	17825792	60	14447
2026-01-21 05:09:29.85	240.61	3.56	-47.8	-52.8	6.2	2.53e-01	0	41	0	24117248	60	15811
2026-01-21 05:09:30.86	240.72	3.60	-47.6	-52.1	7.0	1.94e-01	0	41	0	29360128	60	14611
2026-01-21 05:09:31.87	240.83	3.65	-47.7	-52.4	6.8	1.89e-01	0	41	0	35651584	60	15037
2026-01-21 05:09:32.88	240.94	3.69	-47.5	-52.0	7.2	7.96e-02	0	41	0	40894464	60	14382
2026-01-21 05:09:33.89	241.05	3.74	-47.0	-50.8	8.7	5.91e-02	0	41	0	46137344	60	12486
2026-01-21 05:09:34.90	241.17	3.78	-46.9	-50.5	8.9	3.33e-02	0	41	0	52428800	60	12153
2026-01-21 05:09:35.91	241.28	3.83	-47.1	-51.0	8.7	5.71e-02	0	41	0	57671680	60	12824
2026-01-21 05:09:36.92	241.39	3.87	-46.4	-49.6	10.3	1.59e-02	0	41	0	63963136	60	10859
2026-01-21 05:09:37.93	241.51	3.91	-46.6	-49.8	10.0	1.03e-02	0	41	0	69206016	60	11229
2026-01-21 05:09:38.94	241.62	3.96	-46.3	-49.3	10.7	4.02e-03	0	41	0	75497472	60	10533
2026-01-21 05:09:39.95	241.73	4.00	-46.4	-49.4	10.4	3.97e-03	0	41	0	80740352	60	10647
2026-01-21 05:09:40.96	241.85	4.05	-45.9	-48.6	11.8	3.79e-03	0	41	0	87031808	60	9677
2026-01-21 05:09:41.97	241.96	4.09	-45.5	-48.0	12.3	4.93e-04	0	41	0	92274688	60	9073
2026-01-21 05:09:42.98	242.08	4.14	-45.7	-48.2	12.0	5.95e-04	0	41	0	97517568	60	9272
2026-01-21 05:09:43.99	242.19	4.18	-45.7	-48.2	12.1	5.05e-04	0	41	0	103809024	60	9275
2026-01-21 05:09:45.00	242.31	4.23	-45.4	-47.7	12.6	5.33e-04	0	41	0	109051904	60	8797
2026-01-21 05:09:46.01	242.42	4.27	-45.7	-48.2	12.1	3.98e-04	0	41	0	115343360	60	9253
2026-01-21 05:09:47.01	242.54	4.32	-44.8	-46.8	13.6	4.50e-06	0	41	0	120586240	60	7937
2026-01-21 05:09:48.02	242.65	4.36	-45.1	-47.2	13.4	3.31e-05	0	41	0	125829120	60	8305
2026-01-21 05:09:49.03	242.77	4.40	-44.9	-46.9	13.5	1.25e-05	0	41	0	132120576	60	8023
2026-01-21 05:09:50.04	242.89	4.45	-44.8	-46.9	13.8	8.00e-06	0	41	0	137363456	60	7985
2026-01-21 05:09:51.05	243.01	4.49	-44.5	-46.3	14.5	2.20e-06	0	41	0	143654912	60	7487
2026-01-21 05:09:52.06	243.12	4.54	-44.5	-46.4	14.4	3.40e-06	0	41	0	148897792	60	7571
2026-01-21 05:09:53.08	243.24	4.58	-43.9	-45.6	15.1	0.00e+00	0	41	0	154140672	60	6882
2026-01-21 05:09:54.09	243.36	4.63	-43.4	-44.9	15.8	0.00e+00	0	41	0	160432128	60	6372
2026-01-21 05:09:55.10	243.48	4.67	-43.4	-44.9	15.8	0.00e+00	0	41	0	165675008	60	6366
2026-01-21 05:09:56.10	243.60	4.72	-43.6	-45.1	15.8	0.00e+00	0	41	0	171966464	60	6527
2026-01-21 05:09:57.12	243.72	4.76	-43.0	-44.4	16.3	0.00e+00	0	41	0	177209344	60	6033
2026-01-21 05:09:58.12	243.84	4.80	-42.7	-44.0	16.7	0.00e+00	0	41	0	183500800	58	6464
2026-01-21 05:09:59.13	243.96	4.85	-42.5	-43.9	16.9	0.00e+00	0	41	0	188743680	58	6323
2026-01-21 05:10:00.14	244.08	4.89	-42.1	-43.4	17.5	0.00e+00	0	41	0	193986560	58	5974
2026-01-21 05:10:01.15	244.20	4.94	-42.8	-44.2	16.6	0.00e+00	0	41	0	200278016	58	6557
2026-01-21 05:10:02.16	244.32	4.98	-42.7	-44.1	16.9	0.00e+00	0	41	0	205520896	58	6519
2026-01-21 05:10:03.17	244.44	5.02	-42.4	-43.7	17.1	0.00e+00	0	41	0	211812352	58	6227
2026-01-21 05:10:04.18	244.56	5.07	-42.4	-43.7	17.0	0.00e+00	0	41	0	217055232	58	6233
2026-01-21 05:10:05.19	244.69	5.11	-42.5	-43.8	16.5	0.00e+00	0	41	0	222298112	58	6294
2026-01-21 05:10:06.20	244.81	5.16	-43.2	-44.6	16.2	0.00e+00	0	41	0	228589568	58	6911
2026-01-21 05:10:07.21	244.93	5.20	-42.6	-44.0	16.9	0.00e+00	0	41	0	233832448	58	6393
2026-01-21 05:10:08.22	245.06	5.24	-42.2	-43.5	17.5	0.00e+00	0	41	0	240123904	58	6068
2026-01-21 05:10:09.22	245.18	5.29	-43.4	-44.9	16.1	0.00e+00	0	41	0	245366784	58	7114
2026-01-21 05:10:10.23	245.30	5.33	-41.4	-42.5	18.5	0.00e+00	0	41	0	250609664	56	6101
2026-01-21 05:10:11.24	245.43	5.38	-42.2	-43.4	17.9	0.00e+00	0	41	0	256901120	56	6743
2026-01-21 05:10:12.25	245.55	5.42	-41.6	-42.7	18.2	0.00e+00	0	41	0	262144000	56	6202
2026-01-21 05:10:13.26	245.68	5.46	-41.5	-42.6	18.7	0.00e+00	0	41	0	268435456	56	6136
2026-01-21 05:10:14.27	245.80	5.51	-40.2	-41.2	19.7	0.00e+00	0	41	0	273678336	54	5883
2026-01-21 05:10:15.28	245.93	5.55	-40.4	-41.4	19.7	0.00e+00	0	41	0	279969792	54	6002
2026-01-21 05:10:16.30	246.06	5.59	-40.6	-41.6	19.6	0.00e+00	0	41	0	285212672	54	6135
2026-01-21 05:10:17.31	246.18	5.64	-39.6	-40.5	20.7	0.00e+00	0	41	0	291504128	54	5399
2026-01-21 05:10:18.32	246.31	5.68	-39.5	-40.4	20.7	0.00e+00	0	41	0	296747008	52	6019
2026-01-21 05:10:19.33	246.44	5.72	-39.4	-40.3	20.9	0.00e+00	0	41	0	301989888	52	5923
2026-01-21 05:10:20.34	246.57	5.77	-39.1	-40.0	21.3	0.00e+00	0	41	0	308281344	52	5715
2026-01-21 05:10:21.35	246.69	5.81	-39.0	-39.8	21.3	0.00e+00	0	41	0	313524224	52	5616
2026-01-21 05:10:22.36	246.82	5.85	-39.2	-40.1	21.1	0.00e+00	0	41	0	319815680	52	5779
2026-01-21 05:10:23.37	246.95	5.90	-39.6	-40.5	20.7	0.00e+00	0	41	0	325058560	52	6073
2026-01-21 05:10:24.38	247.08	5.94	-38.7	-39.5	21.7	0.00e+00	0	41	0	330301440	50	6047
2026-01-21 05:10:25.39	247.21	5.98	-38.9	-39.7	21.4	0.00e+00	0	41	0	336592896	50	6192
2026-01-21 05:10:26.40	247.34	6.03	-39.4	-40.2	21.2	0.00e+00	0	41	0	341835776	50	6608
2026-01-21 05:10:27.41	247.47	6.07	-38.8	-39.7	21.6	0.00e+00	0	41	0	348127232	50	6182
2026-01-21 05:10:28.42	247.60	6.11	-38.8	-39.7	21.5	0.00e+00	0	41	0	353370112	50	6177
2026-01-21 05:10:29.43	247.73	6.16	-38.7	-39.5	21.7	0.00e+00	0	41	0	358612992	50	6095
2026-01-21 05:10:30.44	247.86	6.20	-39.2	-40.0	21.2	0.00e+00	0	42	0	364904448	50	6460
2026-01-21 05:10:31.45	247.99	6.24	-39.0	-39.8	21.5	0.00e+00	0	41	0	370147328	50	6296
2026-01-21 05:10:32.46	248.13	6.29	-38.8	-39.6	21.3	0.00e+00	0	41	0	376438784	50	6137
2026-01-21 05:10:33.47	248.26	6.33	-38.9	-39.7	21.5	0.00e+00	0	41	0	381681664	50	6211
2026-01-21 05:10:34.48	248.39	6.37	-38.5	-39.3	21.9	0.00e+00	0	41	0	387973120	50	5899
2026-01-21 05:10:35.50	248.53	6.41	-38.2	-39.0	22.1	0.00e+00	0	41	0	393216000	50	5753
2026-01-21 05:10:36.51	248.66	6.46	-38.3	-39.1	22.1	0.00e+00	0	41	0	399507456	50	5796
2026-01-21 05:10:37.52	248.80	6.50	-38.0	-38.8	22.4	0.00e+00	0	41	0	404750336	50	5601
2026-01-21 05:10:38.53	248.93	6.54	-38.5	-39.3	21.9	0.00e+00	0	41	0	409993216	50	5936
2026-01-21 05:10:39.54	249.06	6.58	-38.6	-39.4	21.8	0.00e+00	0	41	0	416284672	50	6008
2026-01-21 05:10:40.55	249.20	6.63	-38.5	-39.3	21.9	0.00e+00	0	41	0	421527552	50	5936
2026-01-21 05:10:41.56	249.34	6.67	-38.3	-39.1	22.3	0.00e+00	0	41	0	427819008	50	5801
2026-01-21 05:10:42.57	249.47	6.71	-38.1	-38.9	22.2	0.00e+00	0	41	0	433061888	50	5693
2026-01-21 05:10:43.58	249.61	6.75	-38.2	-39.0	22.4	0.00e+00	0	41	0	438304768	50	5748
2026-01-21 05:10:44.59	249.74	6.79	-38.2	-39.0	22.2	0.00e+00	0	41	0	444596224	50	5730
2026-01-21 05:10:45.60	249.88	6.84	-37.8	-38.6	22.7	0.00e+00	0	41	0	449839104	48	6110
2026-01-21 05:10:46.61	250.02	6.88	-37.8	-38.5	22.5	0.00e+00	0	41	0	456130560	48	6084
2026-01-21 05:10:47.62	250.16	6.92	-37.5	-38.2	23.0	0.00e+00	0	41	0	461373440	48	5895
2026-01-21 05:10:48.63	250.29	6.96	-37.6	-38.4	22.9	0.00e+00	0	41	0	466616320	48	5996
2026-01-21 05:10:49.64	250.43	7.00	-37.0	-37.7	23.4	0.00e+00	0	41	0	472907776	48	5524
2026-01-21 05:10:50.65	250.57	7.05	-37.6	-38.3	22.9	0.00e+00	0	42	0	478150656	48	5958
2026-01-21 05:10:51.66	250.71	7.09	-37.6	-38.3	22.9	0.00e+00	0	41	0	484442112	48	5957
2026-01-21 05:10:52.67	250.85	7.13	-37.2	-38.0	23.2	0.00e+00	0	41	0	489684992	48	5715
2026-01-21 05:10:53.68	250.99	7.17	-37.7	-38.5	22.9	0.00e+00	0	41	0	495976448	48	6045
2026-01-21 05:10:54.69	251.13	7.21	-37.7	-38.5	23.0	0.00e+00	0	41	0	501219328	48	6057
2026-01-21 05:10:55.70	251.27	7.25	-37.4	-38.2	23.2	0.00e+00	0	41	0	507510784	48	5829
2026-01-21 05:10:56.71	251.41	7.29	-37.6	-38.3	23.0	0.00e+00	0	41	0	512753664	48	5947
2026-01-21 05:10:57.72	251.56	7.33	-37.7	-38.4	23.0	0.00e+00	0	41	0	517996544	48	6022
2026-01-21 05:10:58.73	251.70	7.38	-37.6	-38.4	23.2	0.00e+00	0	41	0	524288000	48	5997
2026-01-21 05:10:59.75	251.84	7.42	-37.3	-38.1	23.3	0.00e+00	0	41	0	529530880	48	5767
2026-01-21 05:11:00.76	251.99	7.46	-37.7	-38.5	22.8	0.00e+00	0	41	0	535822336	48	6052
2026-01-21 05:11:01.77	252.13	7.50	-37.8	-38.6	22.6	0.00e+00	0	41	0	541065216	48	6163
2026-01-21 05:11:02.77	252.27	7.54	-37.9	-38.6	22.9	0.00e+00	0	41	0	546308096	48	6139
2026-01-21 05:11:03.79	252.42	7.58	-37.8	-38.6	23.2	0.00e+00	0	41	0	552599552	48	6112
2026-01-21 05:11:04.80	252.56	7.62	-37.7	-38.4	23.2	0.00e+00	0	41	0	557842432	48	6029
2026-01-21 05:11:05.81	252.71	7.66	-37.0	-37.8	23.6	0.00e+00	0	41	0	564133888	48	5596
2026-01-21 05:11:06.82	252.85	7.70	-37.5	-38.3	23.3	0.00e+00	0	41	0	569376768	48	5899
2026-01-21 05:11:07.83	253.00	7.74	-37.3	-38.0	23.5	0.00e+00	0	41	0	574619648	48	5748
2026-01-21 05:11:08.84	253.14	7.78	-37.4	-38.1	23.4	0.00e+00	0	41	0	580911104	48	5819
2026-01-21 05:11:09.85	253.29	7.82	-37.2	-37.9	23.7	0.00e+00	0	41	0	586153984	48	5671
2026-01-21 05:11:10.86	253.44	7.86	-37.3	-38.1	23.4	0.00e+00	0	41	0	592445440	48	5782
2026-01-21 05:11:11.87	253.58	7.90	-37.0	-37.7	23.8	0.00e+00	0	41	0	597688320	48	5535
2026-01-21 05:11:12.88	253.73	7.94	-37.2	-38.0	23.5	0.00e+00	0	41	0	603979776	48	5699
2026-01-21 05:11:13.88	253.88	7.98	-37.5	-38.2	23.5	0.00e+00	0	41	0	609222656	48	5884
2026-01-21 05:11:14.89	254.02	8.02	-37.6	-38.3	23.2	0.00e+00	0	41	0	614465536	48	5909
2026-01-21 05:11:15.90	254.17	8.06	-37.7	-38.4	23.0	0.00e+00	0	41	0	620756992	48	6023
2026-01-21 05:11:16.92	254.32	8.10	-37.2	-38.0	23.5	0.00e+00	0	41	0	625999872	48	5702
2026-01-21 05:11:17.92	254.47	8.14	-37.1	-37.8	23.6	0.00e+00	0	41	0	632291328	48	5614
2026-01-21 05:11:18.93	254.62	8.18	-37.0	-37.8	23.6	0.00e+00	0	41	0	637534208	48	5571
2026-01-21 05:11:19.95	254.77	8.22	-36.9	-37.6	23.6	0.00e+00	0	41	0	642777088	48	5502
2026-01-21 05:11:20.95	254.92	8.26	-36.8	-37.5	23.7	0.00e+00	0	42	0	649068544	46	6061
2026-01-21 05:11:21.96	255.07	8.29	-36.7	-37.4	23.8	0.00e+00	0	41	0	654311424	46	6007
2026-01-21 05:11:22.97	255.22	8.33	-36.7	-37.4	23.8	0.00e+00	0	41	0	660602880	46	5988
2026-01-21 05:11:23.99	255.38	8.37	-37.0	-37.8	23.5	0.00e+00	0	41	0	665845760	46	6251
2026-01-21 05:11:25.00	255.53	8.41	-37.2	-37.9	23.5	0.00e+00	0	42	0	671088640	46	6386
2026-01-21 05:11:26.01	255.68	8.45	-36.8	-37.5	23.7	0.00e+00	0	42	0	677380096	46	6055
2026-01-21 05:11:27.02	255.84	8.49	-36.6	-37.3	23.9	0.00e+00	0	41	0	682622976	46	5954
2026-01-21 05:11:28.03	255.99	8.52	-36.3	-37.0	24.1	0.00e+00	0	41	0	688914432	46	5752
2026-01-21 05:11:29.03	256.14	8.56	-36.5	-37.2	24.0	0.00e+00	0	41	0	694157312	46	5831
2026-01-21 05:11:30.04	256.29	8.60	-36.6	-37.3	24.1	0.00e+00	0	41	0	700448768	46	5952
2026-01-21 05:11:31.05	256.45	8.64	-37.0	-37.7	23.4	0.00e+00	0	42	0	705691648	46	6217
2026-01-21 05:11:32.07	256.61	8.68	-37.0	-37.7	23.8	0.00e+00	0	41	0	711983104	46	6188
2026-01-21 05:11:33.08	256.76	8.71	-36.7	-37.5	23.8	0.00e+00	0	41	0	717225984	46	6041
2026-01-21 05:11:34.09	256.92	8.75	-36.9	-37.6	23.7	0.00e+00	0	41	0	722468864	46	6160
2026-01-21 05:11:35.10	257.07	8.79	-37.0	-37.7	23.5	0.00e+00	0	42	0	728760320	46	6227
2026-01-21 05:11:36.10	257.23	8.82	-36.9	-37.7	23.7	0.00e+00	0	42	0	734003200	46	6192
2026-01-21 05:11:37.12	257.39	8.86	-37.0	-37.8	23.6	0.00e+00	0	41	0	740294656	46	6256
2026-01-21 05:11:38.12	257.54	8.90	-37.0	-37.8	23.6	0.00e+00	0	41	0	745537536	46	6247
2026-01-21 05:11:39.14	257.70	8.94	-36.9	-37.6	23.8	0.00e+00	0	42	0	750780416	46	6165
2026-01-21 05:11:40.15	257.86	8.97	-36.8	-37.5	23.8	0.00e+00	0	41	0	757071872	46	6054
2026-01-21 05:11:41.16	258.02	9.01	-36.7	-37.5	23.9	0.00e+00	0	41	0	762314752	46	6035
2026-01-21 05:11:42.17	258.18	9.05	-36.6	-37.3	24.1	0.00e+00	0	41	0	768606208	46	5923
2026-01-21 05:11:43.18	258.33	9.08	-36.4	-37.1	24.2	0.00e+00	0	41	0	773849088	46	5787
2026-01-21 05:11:44.19	258.49	9.12	-36.8	-37.5	23.9	0.00e+00	0	42	0	779091968	46	6100
2026-01-21 05:11:45.20	258.65	9.15	-36.7	-37.5	24.0	0.00e+00	0	41	0	785383424	46	6034
2026-01-21 05:11:46.21	258.81	9.19	-36.8	-37.5	23.9	0.00e+00	0	42	0	790626304	46	6102
2026-01-21 05:11:47.22	258.97	9.22	-37.0	-37.7	23.8	0.00e+00	0	41	0	796917760	46	6195
2026-01-21 05:11:48.23	259.14	9.26	-36.6	-37.4	24.0	0.00e+00	0	42	0	802160640	46	5967
2026-01-21 05:11:49.24	259.30	9.30	-37.1	-37.8	23.5	0.00e+00	0	42	0	808452096	46	6273
2026-01-21 05:11:50.25	259.46	9.33	-37.2	-38.0	23.4	0.00e+00	0	42	0	813694976	46	6393
2026-01-21 05:11:51.26	259.62	9.37	-36.9	-37.6	23.7	0.00e+00	0	42	0	819986432	46	6161
2026-01-21 05:11:52.27	259.78	9.40	-37.2	-38.0	23.3	0.00e+00	0	42	0	825229312	46	6428
2026-01-21 05:11:53.28	259.95	9.44	-36.8	-37.5	23.9	0.00e+00	0	42	0	830472192	46	6077
2026-01-21 05:11:54.29	260.11	9.47	-36.7	-37.5	23.8	0.00e+00	0	42	0	836763648	46	6034
2026-01-21 05:11:55.30	260.27	9.50	-36.5	-37.2	24.0	0.00e+00	0	41	0	842006528	46	5875
2026-01-21 05:11:56.31	260.44	9.54	-36.7	-37.4	23.8	0.00e+00	0	42	0	848297984	46	6012
2026-01-21 05:11:57.32	260.60	9.57	-36.5	-37.2	24.1	0.00e+00	0	41	0	853540864	46	5852
2026-01-21 05:11:58.33	260.77	9.61	-36.6	-37.3	23.9	0.00e+00	0	41	0	858783744	46	5963
2026-01-21 05:11:59.34	260.93	9.64	-36.7	-37.4	23.9	0.00e+00	0	42	0	865075200	46	5987
2026-01-21 05:12:00.35	261.10	9.67	-36.6	-37.3	24.0	0.00e+00	0	41	0	870318080	46	5934
2026-01-21 05:12:01.36	261.26	9.71	-36.7	-37.5	23.9	0.00e+00	0	41	0	876609536	46	6050
2026-01-21 05:12:02.37	261.43	9.74	-36.9	-37.6	23.8	0.00e+00	0	42	0	881852416	46	6172
2026-01-21 05:12:03.38	261.59	9.77	-36.9	-37.7	23.9	0.00e+00	0	42	0	887095296	46	6179
2026-01-21 05:12:04.39	261.76	9.81	-36.4	-37.1	24.3	0.00e+00	0	41	0	893386752	46	5803
2026-01-21 05:12:05.40	261.93	9.84	-36.5	-37.2	24.2	0.00e+00	0	41	0	898629632	46	5883
2026-01-21 05:12:06.41	262.10	9.87	-36.5	-37.2	24.3	0.00e+00	0	41	0	904921088	46	5896
2026-01-21 05:12:07.42	262.26	9.90	-36.2	-36.9	24.5	0.00e+00	0	42	0	910163968	46	5674
2026-01-21 05:12:08.43	262.43	9.94	-36.3	-36.9	24.4	0.00e+00	0	42	0	916455424	46	5677
2026-01-21 05:12:09.44	262.60	9.97	-36.2	-36.8	24.5	0.00e+00	0	42	0	921698304	46	5623
2026-01-21 05:12:10.45	262.77	10.00	-36.1	-36.8	24.8	0.00e+00	0	41	0	927989760	46	5567
2026-01-21 05:12:11.46	262.94	10.03	-36.5	-37.2	24.4	0.00e+00	0	41	0	933232640	46	5836
2026-01-21 05:12:12.47	263.11	10.06	-36.4	-37.1	24.3	0.00e+00	0	41	0	938475520	46	5811
2026-01-21 05:12:13.48	263.28	10.10	-36.5	-37.2	24.3	0.00e+00	0	41	0	944766976	46	5860
2026-01-21 05:12:14.49	263.45	10.13	-36.5	-37.2	24.3	0.00e+00	0	42	0	950009856	46	5889
2026-01-21 05:12:15.50	263.62	10.16	-36.4	-37.1	24.4	0.00e+00	0	41	0	956301312	46	5800
2026-01-21 05:12:16.51	263.79	10.19	-36.5	-37.1	24.4	0.00e+00	0	42	0	961544192	46	5823
2026-01-21 05:12:17.51	263.96	10.22	-36.5	-37.3	24.3	0.00e+00	0	42	0	966787072	46	5901
2026-01-21 05:12:18.52	264.13	10.25	-36.6	-37.3	24.3	0.00e+00	0	42	0	973078528	46	5949
2026-01-21 05:12:19.53	264.31	10.28	-36.5	-37.2	24.4	0.00e+00	0	42	0	978321408	46	5877
2026-01-21 05:12:20.54	264.48	10.31	-36.3	-37.0	24.5	0.00e+00	0	42	0	983564288	46	5728
2026-01-21 05:12:21.55	264.65	10.34	-36.4	-37.1	24.4	0.00e+00	0	42	0	989855744	46	5786
2026-01-21 05:12:22.56	264.82	10.37	-36.4	-37.0	24.6	0.00e+00	0	42	0	995098624	46	5751
2026-01-21 05:12:23.57	265.00	10.40	-36.5	-37.2	24.6	0.00e+00	0	42	0	1001390080	46	5832
2026-01-21 05:12:24.58	265.17	10.43	-36.6	-37.3	24.5	0.00e+00	0	42	0	1006632960	46	5945
2026-01-21 05:12:25.59	265.35	10.46	-36.4	-37.1	24.5	0.00e+00	0	42	0	1012924416	46	5766
2026-01-21 05:12:26.60	265.52	10.49	-36.3	-37.0	24.5	0.00e+00	0	42	0	1018167296	46	5737
2026-01-21 05:12:27.61	265.70	10.52	-36.6	-37.3	24.3	0.00e+00	0	42	0	1024458752	46	5943
2026-01-21 05:12:28.62	265.87	10.54	-36.7	-37.4	24.2	0.00e+00	0	42	0	1029701632	46	6013
2026-01-21 05:12:29.63	266.05	10.57	-36.4	-37.1	24.4	0.00e+00	0	41	0	1034944512	46	5791
2026-01-21 05:12:30.64	266.22	10.60	-36.6	-37.3	24.2	0.00e+00	0	41	0	1041235968	46	5950
2026-01-21 05:12:31.65	266.40	10.63	-36.8	-37.5	23.9	0.00e+00	0	42	0	1046478848	46	6074
2026-01-21 05:12:32.66	266.57	10.66	-36.9	-37.6	24.2	0.00e+00	0	42	0	1052770304	46	6147
2026-01-21 05:12:33.67	266.75	10.68	-36.7	-37.4	24.1	0.00e+00	0	41	0	1058013184	46	6005
2026-01-21 05:12:34.68	266.93	10.71	-36.4	-37.1	24.4	0.00e+00	0	42	0	1063256064	46	5785
2026-01-21 05:12:35.69	267.11	10.74	-36.3	-37.0	24.5	0.00e+00	0	41	0	1069547520	46	5716
2026-01-21 05:12:36.70	267.28	10.76	-36.3	-37.1	24.4	0.00e+00	0	42	0	1074790400	46	5782
2026-01-21 05:12:37.71	267.46	10.79	-36.2	-36.9	24.6	0.00e+00	0	42	0	1081081856	46	5633
2026-01-21 05:12:38.72	267.64	10.82	-36.2	-36.9	24.5	0.00e+00	0	42	0	1086324736	46	5662
2026-01-21 05:12:39.73	267.82	10.84	-36.2	-36.9	24.4	0.00e+00	0	42	0	1091567616	46	5673
2026-01-21 05:12:40.74	268.00	10.87	-36.6	-37.3	24.3	0.00e+00	0	42	0	1097859072	46	5910
2026-01-21 05:12:41.75	268.18	10.90	-36.5	-37.3	24.3	0.00e+00	0	42	0	1103101952	46	5910
2026-01-21 05:12:42.76	268.36	10.92	-36.3	-37.0	24.4	0.00e+00	0	42	0	1109393408	46	5727
2026-01-21 05:12:43.77	268.54	10.95	-36.5	-37.3	24.3	0.00e+00	0	41	0	1114636288	46	5924
2026-01-21 05:12:44.78	268.72	10.97	-36.3	-37.0	24.4	0.00e+00	0	41	0	1120927744	46	5755
2026-01-21 05:12:45.79	268.90	11.00	-36.3	-37.0	24.5	0.00e+00	0	41	0	1126170624	46	5752
2026-01-21 05:12:46.80	269.08	11.02	-36.2	-36.9	24.5	0.00e+00	0	42	0	1132462080	46	5667
2026-01-21 05:12:47.81	269.26	11.05	-36.1	-36.8	24.6	0.00e+00	0	42	0	1137704960	46	5591
2026-01-21 05:12:48.82	269.44	11.07	-36.4	-37.1	24.4	0.00e+00	0	42	0	1142947840	46	5796
2026-01-21 05:12:49.83	269.62	11.09	-36.6	-37.3	24.3	0.00e+00	0	42	0	1149239296	46	5916
2026-01-21 05:12:50.84	269.80	11.12	-36.6	-37.3	24.3	0.00e+00	0	41	0	1154482176	46	5938
2026-01-21 05:12:51.85	269.99	11.14	-36.8	-37.5	24.1	0.00e+00	0	42	0	1160773632	46	6103
2026-01-21 05:12:52.86	270.17	11.16	-36.6	-37.3	24.2	0.00e+00	0	41	0	1166016512	46	5940
2026-01-21 05:12:53.87	270.35	11.19	-36.7	-37.5	24.0	0.00e+00	0	42	0	1171259392	46	6044
2026-01-21 05:12:54.88	270.53	11.21	-36.5	-37.3	24.3	0.00e+00	0	41	0	1177550848	46	5903
2026-01-21 05:12:55.89	270.72	11.23	-36.4	-37.2	24.5	0.00e+00	0	42	0	1182793728	46	5844
2026-01-21 05:12:56.90	270.90	11.26	-36.4	-37.1	24.5	0.00e+00	0	42	0	1189085184	46	5801
2026-01-21 05:12:57.91	271.09	11.28	-36.3	-37.0	24.5	0.00e+00	0	42	0	1194328064	46	5723
2026-01-21 05:12:58.92	271.27	11.30	-36.1	-36.8	24.6	0.00e+00	0	42	0	1199570944	46	5615
2026-01-21 05:12:59.93	271.45	11.32	-36.2	-36.9	24.5	0.00e+00	0	42	0	1205862400	46	5653
2026-01-21 05:13:00.94	271.64	11.34	-36.1	-36.8	24.7	0.00e+00	0	42	0	1211105280	46	5628
2026-01-21 05:13:01.95	271.82	11.36	-36.1	-36.8	24.8	0.00e+00	0	42	0	1217396736	46	5588
2026-01-21 05:13:02.96	272.01	11.38	-36.0	-36.7	24.8	0.00e+00	0	42	0	1222639616	46	5538
2026-01-21 05:13:03.97	272.19	11.40	-35.9	-36.5	24.8	0.00e+00	0	42	0	1228931072	46	5426
2026-01-21 05:13:04.98	272.38	11.42	-35.9	-36.6	24.8	0.00e+00	0	42	0	1234173952	46	5480
2026-01-21 05:13:05.99	272.57	11.44	-35.7	-36.3	25.0	0.00e+00	0	42	0	1239416832	44	5957
2026-01-21 05:13:07.00	272.75	11.46	-35.7	-36.4	25.0	0.00e+00	0	42	0	1245708288	44	5995
2026-01-21 05:13:08.01	272.94	11.48	-35.6	-36.3	25.1	0.00e+00	0	42	0	1250951168	44	5915
2026-01-21 05:13:09.02	273.13	11.50	-35.7	-36.3	24.9	0.00e+00	0	42	0	1257242624	44	5954
2026-01-21 05:13:10.03	273.31	11.52	-35.7	-36.4	24.9	0.00e+00	0	42	0	1262485504	44	6000
2026-01-21 05:13:11.03	273.50	11.54	-35.7	-36.4	24.9	0.00e+00	0	42	0	1267728384	44	5984
2026-01-21 05:13:12.04	273.68	11.56	-35.8	-36.5	24.8	0.00e+00	0	42	0	1274019840	44	6068
2026-01-21 05:13:13.05	273.87	11.58	-35.7	-36.4	25.1	0.00e+00	0	42	0	1279262720	44	5980
2026-01-21 05:13:14.06	274.06	11.60	-36.1	-36.7	24.9	0.00e+00	0	42	0	1285554176	44	6245
2026-01-21 05:13:15.07	274.25	11.61	-35.7	-36.4	25.1	0.00e+00	0	41	0	1290797056	44	5993
2026-01-21 05:13:16.08	274.44	11.63	-35.6	-36.3	25.2	0.00e+00	0	42	0	1296039936	44	5902
2026-01-21 05:13:17.09	274.62	11.65	-35.6	-36.3	25.2	0.00e+00	0	42	0	1302331392	44	5911
2026-01-21 05:13:18.10	274.81	11.67	-35.8	-36.4	25.2	0.00e+00	0	42	0	1307574272	44	6014
2026-01-21 05:13:19.11	275.00	11.68	-35.6	-36.2	25.2	0.00e+00	0	42	0	1313865728	44	5862
2026-01-21 05:13:20.12	275.19	11.70	-35.8	-36.5	25.2	0.00e+00	0	41	0	1319108608	44	6035
2026-01-21 05:13:21.13	275.38	11.72	-35.8	-36.4	25.1	0.00e+00	0	42	0	1325400064	44	6007
2026-01-21 05:13:22.14	275.57	11.73	-35.9	-36.5	25.1	0.00e+00	0	41	0	1330642944	44	6093
2026-01-21 05:13:23.15	275.76	11.75	-36.1	-36.8	25.0	0.00e+00	0	42	0	1336934400	44	6246
2026-01-21 05:13:24.16	275.95	11.76	-36.1	-36.8	24.8	0.00e+00	0	42	0	1342177280	44	6272
2026-01-21 05:13:25.17	276.14	11.78	-36.1	-36.8	24.8	0.00e+00	0	42	0	1347420160	44	6286
2026-01-21 05:13:26.18	276.33	11.79	-35.9	-36.6	25.0	0.00e+00	0	42	0	1353711616	44	6172
2026-01-21 05:13:27.19	276.52	11.81	-35.9	-36.6	24.9	0.00e+00	0	41	0	1358954496	44	6130
2026-01-21 05:13:28.20	276.71	11.82	-35.8	-36.5	25.0	0.00e+00	0	42	0	1365245952	44	6095
2026-01-21 05:13:29.22	276.90	11.83	-35.8	-36.5	24.9	0.00e+00	0	42	0	1370488832	44	6092
2026-01-21 05:13:30.23	277.09	11.85	-36.0	-36.7	24.9	0.00e+00	0	42	0	1375731712	44	6188
2026-01-21 05:13:31.24	277.29	11.86	-35.9	-36.6	24.8	0.00e+00	0	42	0	1382023168	44	6135
2026-01-21 05:13:32.25	277.48	11.88	-35.9	-36.5	24.9	0.00e+00	0	42	0	1387266048	44	6080
2026-01-21 05:13:33.26	277.67	11.89	-35.7	-36.4	24.9	0.00e+00	0	42	0	1393557504	44	6029
2026-01-21 05:13:34.27	277.86	11.90	-35.9	-36.6	24.9	0.00e+00	0	41	0	1398800384	44	6117
2026-01-21 05:13:35.28	278.05	11.91	-35.9	-36.6	24.9	0.00e+00	0	42	0	1404043264	44	6125
2026-01-21 05:13:36.29	278.24	11.92	-35.8	-36.5	24.9	0.00e+00	0	41	0	1410334720	44	6064
2026-01-21 05:13:37.30	278.43	11.94	-35.9	-36.7	24.8	0.00e+00	0	42	0	1415577600	44	6182
2026-01-21 05:13:38.31	278.63	11.95	-35.9	-36.6	24.7	0.00e+00	0	42	0	1421869056	44	6120
2026-01-21 05:13:39.32	278.82	11.96	-36.1	-36.8	24.6	0.00e+00	0	42	0	1427111936	44	6280
2026-01-21 05:13:40.33	279.01	11.97	-36.0	-36.8	24.7	0.00e+00	0	42	0	1433403392	44	6260
2026-01-21 05:13:41.34	279.20	11.98	-35.9	-36.6	24.7	0.00e+00	0	42	0	1438646272	44	6155
2026-01-21 05:13:42.35	279.40	11.99	-36.0	-36.7	24.6	0.00e+00	0	41	0	1444937728	44	6222
2026-01-21 05:13:43.36	279.59	12.00	-35.9	-36.6	24.6	0.00e+00	0	41	0	1450180608	44	6153
2026-01-21 05:13:44.37	279.78	12.01	-35.9	-36.6	24.8	0.00e+00	0	42	0	1455423488	44	6136
2026-01-21 05:13:45.38	279.98	12.02	-36.0	-36.7	24.7	0.00e+00	0	42	0	1461714944	44	6227
2026-01-21 05:13:46.39	280.17	12.03	-35.6	-36.3	25.0	0.00e+00	0	42	0	1466957824	44	5940
2026-01-21 05:13:47.39	280.36	12.04	-35.8	-36.5	24.8	0.00e+00	0	42	0	1472200704	44	6102
2026-01-21 05:13:48.41	280.56	12.05	-35.7	-36.4	24.9	0.00e+00	0	41	0	1478492160	44	6032
2026-01-21 05:13:49.42	280.75	12.06	-35.8	-36.6	24.9	0.00e+00	0	41	0	1483735040	44	6104
2026-01-21 05:13:50.43	280.94	12.06	-35.9	-36.6	24.8	0.00e+00	0	42	0	1490026496	44	6144
2026-01-21 05:13:51.44	281.14	12.07	-35.8	-36.4	24.9	0.00e+00	0	42	0	1495269376	44	6032
2026-01-21 05:13:52.45	281.33	12.08	-35.8	-36.5	24.9	0.00e+00	0	42	0	1501560832	44	6048
2026-01-21 05:13:53.46	281.52	12.09	-35.7	-36.3	24.9	0.00e+00	0	42	0	1506803712	44	5964
2026-01-21 05:13:54.47	281.72	12.09	-35.5	-36.2	25.1	0.00e+00	0	42	0	1512046592	44	5877
2026-01-21 05:13:55.48	281.91	12.10	-35.5	-36.2	25.1	0.00e+00	0	42	0	1518338048	44	5867
2026-01-21 05:13:56.49	282.11	12.11	-35.6	-36.2	25.0	0.00e+00	0	42	0	1523580928	44	5879
2026-01-21 05:13:57.50	282.30	12.11	-35.5	-36.1	25.1	0.00e+00	0	42	0	1529872384	44	5814
2026-01-21 05:13:58.51	282.50	12.12	-35.5	-36.2	25.1	0.00e+00	0	42	0	1535115264	44	5838
2026-01-21 05:13:59.52	282.69	12.12	-35.5	-36.2	25.1	0.00e+00	0	42	0	1541406720	44	5868
2026-01-21 05:14:00.53	282.88	12.13	-35.6	-36.3	25.0	0.00e+00	0	42	0	1546649600	44	5916
2026-01-21 05:14:01.54	283.08	12.13	-35.6	-36.3	25.1	0.00e+00	0	42	0	1551892480	44	5931
2026-01-21 05:14:02.55	283.27	12.14	-35.6	-36.3	24.9	0.00e+00	0	42	0	1558183936	44	5919
2026-01-21 05:14:03.56	283.47	12.14	-35.7	-36.4	24.9	0.00e+00	0	42	0	1563426816	44	5996
2026-01-21 05:14:04.57	283.66	12.15	-35.7	-36.3	25.0	0.00e+00	0	42	0	1569718272	44	5939
2026-01-21 05:14:05.58	283.86	12.15	-35.7	-36.4	25.0	0.00e+00	0	42	0	1574961152	44	5977
2026-01-21 05:14:06.59	284.05	12.15	-35.6	-36.4	25.0	0.00e+00	0	42	0	1580204032	44	5968
2026-01-21 05:14:07.60	284.25	12.16	-35.7	-36.4	24.8	0.00e+00	0	42	0	1586495488	44	6013
2026-01-21 05:14:08.61	284.44	12.16	-35.7	-36.4	25.0	0.00e+00	0	41	0	1591738368	44	5997
2026-01-21 05:14:09.62	284.64	12.16	-35.6	-36.3	24.9	0.00e+00	0	42	0	1598029824	44	5961
2026-01-21 05:14:10.63	284.83	12.16	-35.8	-36.5	24.8	0.00e+00	0	41	0	1603272704	44	6056
2026-01-21 05:14:11.64	285.03	12.16	-35.7	-36.4	24.8	0.00e+00	0	42	0	1608515584	44	6010
2026-01-21 05:14:12.65	285.22	12.17	-35.7	-36.4	24.9	0.00e+00	0	41	0	1614807040	44	5996
2026-01-21 05:14:13.66	285.42	12.17	-35.5	-36.2	25.0	0.00e+00	0	41	0	1620049920	44	5843
2026-01-21 05:14:14.67	285.61	12.17	-35.8	-36.5	24.9	0.00e+00	0	42	0	1626341376	44	6040
2026-01-21 05:14:15.68	285.81	12.17	-35.7	-36.4	24.8	0.00e+00	0	42	0	1631584256	44	6028
2026-01-21 05:14:16.69	286.00	12.17	-35.5	-36.2	25.1	0.00e+00	0	42	0	1637875712	44	5859
2026-01-21 05:14:17.70	286.20	12.17	-35.6	-36.3	25.0	0.00e+00	0	42	0	1643118592	44	5944
2026-01-21 05:14:18.71	286.39	12.17	-35.9	-36.6	25.0	0.00e+00	0	42	0	1649410048	44	6127
2026-01-21 05:14:19.72	286.58	12.17	-36.1	-36.8	24.7	0.00e+00	0	42	0	1654652928	44	6302
2026-01-21 05:14:20.73	286.78	12.17	-35.7	-36.5	25.1	0.00e+00	0	41	0	1659895808	44	6037
2026-01-21 05:14:21.74	286.97	12.17	-35.7	-36.4	25.0	0.00e+00	0	42	0	1666187264	44	6000
2026-01-21 05:14:22.75	287.17	12.16	-35.9	-36.6	24.9	0.00e+00	0	42	0	1671430144	44	6151
2026-01-21 05:14:23.76	287.36	12.16	-35.6	-36.3	25.1	0.00e+00	0	42	0	1677721600	44	5912
2026-01-21 05:14:24.77	287.56	12.16	-36.1	-36.8	24.8	0.00e+00	0	42	0	1682964480	44	6286
2026-01-21 05:14:25.78	287.75	12.16	-36.0	-36.7	24.7	0.00e+00	0	42	0	1688207360	44	6219
2026-01-21 05:14:26.79	287.95	12.16	-35.9	-36.6	24.7	0.00e+00	0	42	0	1694498816	44	6156
2026-01-21 05:14:27.80	288.14	12.15	-36.2	-36.9	24.6	0.00e+00	0	42	0	1699741696	44	6339
2026-01-21 05:14:28.81	288.34	12.15	-36.4	-37.1	24.5	0.00e+00	0	42	0	1706033152	44	6493
2026-01-21 05:14:29.82	288.53	12.15	-36.2	-36.9	24.5	0.00e+00	0	42	0	1711276032	44	6358
2026-01-21 05:14:30.82	288.73	12.14	-35.9	-36.6	24.7	0.00e+00	0	42	0	1716518912	44	6124
2026-01-21 05:14:31.83	288.92	12.14	-35.8	-36.5	24.8	0.00e+00	0	42	0	1722810368	44	6045
2026-01-21 05:14:32.84	289.11	12.13	-35.9	-36.5	24.8	0.00e+00	0	42	0	1728053248	44	6079
2026-01-21 05:14:33.85	289.31	12.13	-35.7	-36.4	25.0	0.00e+00	0	41	0	1734344704	44	6002
2026-01-21 05:14:34.86	289.50	12.12	-36.0	-36.6	24.8	0.00e+00	0	42	0	1739587584	44	6150
2026-01-21 05:14:35.87	289.70	12.12	-35.9	-36.6	24.8	0.00e+00	0	42	0	1745879040	44	6113
2026-01-21 05:14:36.88	289.89	12.11	-36.0	-36.7	24.8	0.00e+00	0	42	0	1751121920	44	6182
2026-01-21 05:14:37.89	290.09	12.11	-36.1	-36.8	24.5	0.00e+00	0	42	0	1756364800	44	6267
2026-01-21 05:14:38.90	290.28	12.10	-35.7	-36.4	24.9	0.00e+00	0	41	0	1762656256	44	6019
2026-01-21 05:14:39.91	290.47	12.09	-35.8	-36.5	24.8	0.00e+00	0	42	0	1767899136	44	6096
2026-01-21 05:14:40.92	290.67	12.09	-35.9	-36.5	24.8	0.00e+00	0	42	0	1774190592	44	6103
2026-01-21 05:14:41.93	290.86	12.08	-36.0	-36.7	24.7	0.00e+00	0	42	0	1779433472	44	6243
2026-01-21 05:14:42.94	291.05	12.07	-36.2	-36.9	24.7	0.00e+00	0	42	0	1784676352	44	6331
2026-01-21 05:14:43.95	291.25	12.07	-35.9	-36.6	24.8	0.00e+00	0	42	0	1790967808	44	6152
2026-01-21 05:14:44.96	291.44	12.06	-35.9	-36.6	24.9	0.00e+00	0	42	0	1796210688	44	6114
2026-01-21 05:14:45.97	291.64	12.05	-36.0	-36.7	24.9	0.00e+00	0	41	0	1802502144	44	6188
2026-01-21 05:14:46.98	291.83	12.04	-36.0	-36.7	24.7	0.00e+00	0	42	0	1807745024	44	6201
2026-01-21 05:14:47.99	292.02	12.03	-36.1	-36.8	24.7	0.00e+00	0	42	0	1812987904	44	6288
2026-01-21 05:14:48.99	292.21	12.02	-36.0	-36.7	24.7	0.00e+00	0	42	0	1819279360	44	6242
2026-01-21 05:14:50.01	292.41	12.01	-36.1	-36.9	24.7	0.00e+00	0	42	0	1824522240	44	6321
2026-01-21 05:14:51.02	292.60	12.00	-36.4	-37.1	24.5	0.00e+00	0	42	0	1830813696	44	6504
2026-01-21 05:14:52.02	292.79	11.99	-36.5	-37.2	24.2	0.00e+00	0	42	0	1836056576	44	6566
2026-01-21 05:14:53.03	292.98	11.98	-36.3	-37.1	24.5	0.00e+00	0	41	0	1842348032	44	6485
2026-01-21 05:14:54.04	293.18	11.97	-36.1	-36.9	24.6	0.00e+00	0	42	0	1847590912	44	6328
2026-01-21 05:14:55.05	293.37	11.96	-36.2	-36.9	24.6	0.00e+00	0	42	0	1853882368	44	6369
2026-01-21 05:14:56.06	293.56	11.95	-36.1	-36.8	24.7	0.00e+00	0	42	0	1859125248	44	6299
2026-01-21 05:14:57.07	293.75	11.94	-36.1	-36.8	24.8	0.00e+00	0	42	0	1864368128	44	6272
2026-01-21 05:14:58.08	293.94	11.93	-36.2	-37.0	24.7	0.00e+00	0	42	0	1870659584	44	6406
2026-01-21 05:14:59.09	294.14	11.92	-36.1	-36.8	24.7	0.00e+00	0	42	0	1875902464	44	6284
2026-01-21 05:15:00.10	294.33	11.91	-36.1	-36.8	24.7	0.00e+00	0	42	0	1882193920	44	6248
2026-01-21 05:15:01.11	294.52	11.89	-36.2	-36.9	24.6	0.00e+00	0	42	0	1887436800	44	6380
2026-01-21 05:15:02.12	294.71	11.88	-36.0	-36.7	24.8	0.00e+00	0	42	0	1892679680	44	6227
2026-01-21 05:15:03.13	294.90	11.87	-36.0	-36.7	24.8	0.00e+00	0	42	0	1898971136	44	6224
2026-01-21 05:15:04.14	295.09	11.85	-36.1	-36.7	24.9	0.00e+00	0	42	0	1904214016	44	6212
2026-01-21 05:15:05.15	295.28	11.84	-36.1	-36.8	24.8	0.00e+00	0	42	0	1910505472	44	6279
2026-01-21 05:15:06.16	295.47	11.83	-36.2	-36.9	24.7	0.00e+00	0	42	0	1915748352	44	6322
2026-01-21 05:15:07.17	295.66	11.81	-36.1	-36.8	24.9	0.00e+00	0	42	0	1920991232	44	6304
2026-01-21 05:15:08.18	295.85	11.80	-35.9	-36.7	24.9	0.00e+00	0	42	0	1927282688	44	6201
2026-01-21 05:15:09.19	296.04	11.78	-36.1	-36.7	24.5	0.00e+00	0	42	0	1932525568	44	6236
2026-01-21 05:15:10.20	296.23	11.77	-36.2	-36.9	24.7	0.00e+00	0	42	0	1938817024	44	6364
2026-01-21 05:15:11.21	296.42	11.75	-36.4	-37.1	24.5	0.00e+00	0	42	0	1944059904	44	6477
2026-01-21 05:15:12.22	296.61	11.74	-36.0	-36.6	24.9	0.00e+00	0	42	0	1950351360	44	6148
2026-01-21 05:15:13.23	296.80	11.72	-36.0	-36.7	24.7	0.00e+00	0	42	0	1955594240	44	6236
2026-01-21 05:15:14.24	296.99	11.71	-35.9	-36.6	24.9	0.00e+00	0	41	0	1960837120	44	6142
2026-01-21 05:15:15.25	297.18	11.69	-36.3	-37.1	24.4	0.00e+00	0	42	0	1967128576	44	6467
2026-01-21 05:15:16.26	297.37	11.67	-35.9	-36.6	24.9	0.00e+00	0	42	0	1972371456	44	6161
2026-01-21 05:15:17.27	297.56	11.66	-36.1	-36.8	24.9	0.00e+00	0	41	0	1978662912	44	6264
2026-01-21 05:15:18.28	297.74	11.64	-35.9	-36.6	24.9	0.00e+00	0	41	0	1983905792	44	6122
2026-01-21 05:15:19.29	297.93	11.62	-35.9	-36.6	24.9	0.00e+00	0	42	0	1989148672	44	6150
2026-01-21 05:15:20.30	298.12	11.60	-35.9	-36.6	25.0	0.00e+00	0	42	0	1995440128	44	6106
2026-01-21 05:15:21.31	298.31	11.59	-36.3	-37.0	24.7	0.00e+00	0	42	0	2000683008	44	6430
2026-01-21 05:15:22.32	298.49	11.57	-36.4	-37.2	24.4	0.00e+00	0	42	0	2006974464	44	6558
2026-01-21 05:15:23.33	298.68	11.55	-36.9	-37.7	24.1	0.00e+00	0	42	0	2012217344	46	6215
2026-01-21 05:15:24.35	298.87	11.53	-36.9	-37.6	24.2	0.00e+00	0	42	0	2017460224	46	6151
2026-01-21 05:15:25.36	299.06	11.51	-36.2	-36.9	24.7	0.00e+00	0	42	0	2023751680	46	5670
2026-01-21 05:15:26.37	299.24	11.49	-36.6	-37.3	24.4	0.00e+00	0	42	0	2028994560	46	5902
2026-01-21 05:15:27.38	299.43	11.47	-36.1	-36.8	24.8	0.00e+00	0	42	0	2035286016	46	5628
2026-01-21 05:15:28.38	299.61	11.45	-36.3	-36.9	24.8	0.00e+00	0	41	0	2040528896	46	5694
2026-01-21 05:15:29.39	299.80	11.43	-36.4	-37.1	24.7	0.00e+00	0	42	0	2046820352	46	5807
2026-01-21 05:15:30.40	299.98	11.41	-36.5	-37.2	24.7	0.00e+00	0	42	0	2052063232	46	5833
2026-01-21 05:15:31.41	300.17	11.39	-36.6	-37.3	24.7	0.00e+00	0	42	0	2058354688	46	5921
2026-01-21 05:15:32.42	300.35	11.37	-36.6	-37.3	24.5	0.00e+00	0	42	0	2063597568	46	5936
2026-01-21 05:15:33.43	300.54	11.35	-36.3	-37.1	24.8	0.00e+00	0	42	0	2068840448	46	5772
2026-01-21 05:15:34.44	300.72	11.33	-36.2	-36.8	24.7	0.00e+00	0	42	0	2075131904	46	5630
2026-01-21 05:15:35.45	300.91	11.31	-36.8	-37.4	24.4	0.00e+00	0	42	0	2080374784	46	6002
2026-01-21 05:15:36.46	301.09	11.29	-36.8	-37.4	24.4	0.00e+00	0	42	0	2086666240	46	6004
2026-01-21 05:15:37.47	301.27	11.27	-36.8	-37.4	24.3	0.00e+00	0	42	0	2091909120	46	6005
2026-01-21 05:15:38.48	301.46	11.24	-36.9	-37.6	24.3	0.00e+00	0	42	0	2097152000	46	6157
2026-01-21 05:15:39.49	301.64	11.22	-37.1	-37.8	24.0	0.00e+00	0	42	0	2103443456	46	6311
2026-01-21 05:15:40.49	301.82	11.20	-37.0	-37.8	24.1	0.00e+00	0	42	0	2108686336	46	6284
2026-01-21 05:15:41.50	302.00	11.18	-37.0	-37.8	24.2	0.00e+00	0	42	0	2114977792	46	6266
2026-01-21 05:15:42.51	302.18	11.15	-36.5	-37.2	24.6	0.00e+00	0	42	0	2120220672	46	5875
2026-01-21 05:15:43.52	302.37	11.13	-36.5	-37.1	24.5	0.00e+00	0	42	0	2125463552	46	5828
2026-01-21 05:15:44.54	302.55	11.11	-36.8	-37.4	24.3	0.00e+00	0	42	0	2131755008	46	5990
2026-01-21 05:15:45.55	302.73	11.08	-36.7	-37.3	24.3	0.00e+00	0	42	0	2136997888	46	5963
2026-01-21 05:15:46.56	302.91	11.06	-36.7	-37.5	24.4	0.00e+00	0	42	0	2143289344	46	6037
2026-01-21 05:15:47.57	303.09	11.03	-37.1	-37.7	24.2	0.00e+00	0	42	0	2148532224	46	6235
2026-01-21 05:15:48.58	303.27	11.01	-37.1	-37.8	24.2	0.00e+00	0	41	0	2154823680	46	6316
2026-01-21 05:15:49.59	303.45	10.98	-37.0	-37.8	24.1	0.00e+00	0	42	0	2160066560	46	6253
2026-01-21 05:15:50.60	303.63	10.96	-37.2	-38.0	24.0	0.00e+00	0	42	0	2166358016	46	6424
2026-01-21 05:15:51.61	303.81	10.93	-37.1	-37.9	23.8	0.00e+00	0	42	0	2171600896	46	6338
2026-01-21 05:15:52.62	303.99	10.91	-36.9	-37.6	24.1	0.00e+00	0	42	0	2176843776	46	6119
2026-01-21 05:15:53.63	304.17	10.88	-37.1	-37.9	23.9	0.00e+00	0	42	0	2183135232	46	6365
2026-01-21 05:15:54.64	304.35	10.86	-37.4	-38.3	23.5	0.00e+00	0	42	0	2188378112	46	6626
2026-01-21 05:15:55.65	304.53	10.83	-36.8	-37.6	24.1	0.00e+00	0	42	0	2194669568	46	6157
2026-01-21 05:15:56.66	304.71	10.81	-36.7	-37.4	24.4	0.00e+00	0	42	0	2199912448	46	6010
2026-01-21 05:15:57.67	304.88	10.78	-36.7	-37.4	24.3	0.00e+00	0	42	0	2205155328	46	5995
2026-01-21 05:15:58.68	305.06	10.75	-36.7	-37.4	24.0	0.00e+00	0	42	0	2211446784	46	5983
2026-01-21 05:15:59.69	305.24	10.73	-36.5	-37.2	24.5	0.00e+00	0	42	0	2216689664	46	5862
2026-01-21 05:16:00.70	305.41	10.70	-36.5	-37.3	24.5	0.00e+00	0	42	0	2222981120	46	5929
2026-01-21 05:16:01.71	305.59	10.67	-36.7	-37.4	24.3	0.00e+00	0	42	0	2228224000	46	6003
2026-01-21 05:16:02.72	305.77	10.64	-36.7	-37.4	24.3	0.00e+00	0	42	0	2233466880	46	6008
2026-01-21 05:16:03.73	305.94	10.62	-36.9	-37.6	24.2	0.00e+00	0	42	0	2239758336	46	6172
2026-01-21 05:16:04.74	306.12	10.59	-36.9	-37.7	24.2	0.00e+00	0	42	0	2245001216	46	6197
2026-01-21 05:16:05.75	306.29	10.56	-37.1	-37.8	24.0	0.00e+00	0	42	0	2251292672	46	6287
2026-01-21 05:16:06.76	306.47	10.53	-37.0	-37.7	24.2	0.00e+00	0	42	0	2256535552	46	6201
2026-01-21 05:16:07.77	306.64	10.50	-36.9	-37.5	24.1	0.00e+00	0	42	0	2262827008	46	6092
2026-01-21 05:16:08.78	306.82	10.47	-36.9	-37.7	24.1	0.00e+00	0	42	0	2268069888	46	6220
2026-01-21 05:16:09.79	306.99	10.45	-36.5	-37.2	24.5	0.00e+00	0	42	0	2273312768	46	5875
2026-01-21 05:16:10.80	307.16	10.42	-36.6	-37.3	24.3	0.00e+00	0	42	0	2279604224	46	5964
2026-01-21 05:16:11.81	307.34	10.39	-36.9	-37.6	24.0	0.00e+00	0	42	0	2284847104	46	6148
2026-01-21 05:16:12.82	307.51	10.36	-36.9	-37.7	24.1	0.00e+00	0	42	0	2291138560	46	6179
2026-01-21 05:16:13.83	307.68	10.33	-37.1	-37.7	24.1	0.00e+00	0	42	0	2296381440	46	6240
2026-01-21 05:16:14.84	307.85	10.30	-36.8	-37.5	24.2	0.00e+00	0	42	0	2301624320	46	6090
2026-01-21 05:16:15.85	308.03	10.27	-36.9	-37.6	24.1	0.00e+00	0	42	0	2307915776	46	6140
2026-01-21 05:16:16.86	308.20	10.24	-36.9	-37.7	24.1	0.00e+00	0	42	0	2313158656	46	6192
2026-01-21 05:16:17.87	308.37	10.21	-37.0	-37.7	24.1	0.00e+00	0	42	0	2319450112	46	6200
2026-01-21 05:16:18.88	308.54	10.18	-36.8	-37.5	24.1	0.00e+00	0	42	0	2324692992	46	6067
2026-01-21 05:16:19.89	308.71	10.15	-36.9	-37.6	24.2	0.00e+00	0	42	0	2329935872	46	6154
2026-01-21 05:16:20.90	308.88	10.12	-36.8	-37.4	24.3	0.00e+00	0	42	0	2336227328	46	5994
2026-01-21 05:16:21.91	309.05	10.08	-37.0	-37.7	24.1	0.00e+00	0	42	0	2341470208	46	6218
2026-01-21 05:16:22.92	309.22	10.05	-36.9	-37.6	24.4	0.00e+00	0	42	0	2347761664	46	6135
2026-01-21 05:16:23.93	309.39	10.02	-36.9	-37.7	24.2	0.00e+00	0	42	0	2353004544	46	6185
2026-01-21 05:16:24.93	309.55	9.99	-37.0	-37.6	24.2	0.00e+00	0	42	0	2359296000	46	6146
2026-01-21 05:16:25.94	309.72	9.96	-36.7	-37.4	24.3	0.00e+00	0	42	0	2364538880	46	6017
2026-01-21 05:16:26.95	309.89	9.93	-37.0	-37.7	24.3	0.00e+00	0	42	0	2370830336	46	6179
2026-01-21 05:16:27.96	310.06	9.89	-37.8	-38.5	24.1	0.00e+00	0	42	0	2376073216	46	6841
2026-01-21 05:16:28.97	310.22	9.86	-37.5	-38.2	24.2	0.00e+00	0	42	0	2381316096	48	5844
2026-01-21 05:16:29.98	310.39	9.83	-37.3	-38.1	24.1	0.00e+00	0	42	0	2387607552	48	5765
2026-01-21 05:16:31.00	310.56	9.80	-38.5	-39.2	24.4	0.00e+00	0	42	0	2392850432	48	6581
2026-01-21 05:16:32.01	310.73	9.76	-37.8	-38.6	23.9	0.00e+00	0	42	0	2399141888	48	6107
2026-01-21 05:16:33.02	310.89	9.73	-37.4	-38.2	23.9	0.00e+00	0	42	0	2404384768	48	5832
2026-01-21 05:16:34.03	311.06	9.70	-37.7	-38.3	23.9	0.00e+00	0	42	0	2409627648	48	5963
2026-01-21 05:16:35.03	311.22	9.66	-37.6	-38.3	23.7	0.00e+00	0	42	0	2415919104	48	5930
2026-01-21 05:16:36.05	311.39	9.63	-38.1	-38.9	23.7	0.00e+00	0	42	0	2421161984	48	6348
2026-01-21 05:16:37.06	311.55	9.60	-38.0	-38.8	23.8	0.00e+00	0	42	0	2427453440	48	6246
2026-01-21 05:16:38.07	311.71	9.56	-38.1	-38.9	23.7	0.00e+00	0	42	0	2432696320	48	6333
2026-01-21 05:16:39.08	311.88	9.53	-37.7	-38.5	24.0	0.00e+00	0	42	0	2437939200	48	6087
2026-01-21 05:16:40.09	312.04	9.50	-38.0	-38.8	23.6	0.00e+00	0	42	0	2444230656	48	6278
2026-01-21 05:16:41.10	312.20	9.46	-37.2	-37.9	24.2	0.00e+00	0	42	0	2449473536	48	5695
2026-01-21 05:16:42.11	312.37	9.43	-37.0	-37.8	24.3	0.00e+00	0	42	0	2455764992	48	5581
2026-01-21 05:16:43.12	312.53	9.39	-37.4	-38.1	24.1	0.00e+00	0	42	0	2461007872	48	5804
2026-01-21 05:16:44.13	312.69	9.36	-37.6	-38.3	24.0	0.00e+00	0	42	0	2466250752	48	5900
2026-01-21 05:16:45.14	312.85	9.32	-37.5	-38.3	24.0	0.00e+00	0	42	0	2472542208	48	5949
2026-01-21 05:16:46.15	313.01	9.29	-37.3	-38.1	24.2	0.00e+00	0	42	0	2477785088	48	5791
2026-01-21 05:16:47.16	313.17	9.25	-37.4	-38.1	23.8	0.00e+00	0	42	0	2484076544	48	5793
2026-01-21 05:16:48.17	313.33	9.22	-37.2	-37.8	23.9	0.00e+00	0	42	0	2489319424	48	5623
2026-01-21 05:16:49.18	313.49	9.18	-37.2	-37.9	23.8	0.00e+00	0	42	0	2495610880	48	5660
2026-01-21 05:16:50.19	313.65	9.15	-37.2	-38.0	23.9	0.00e+00	0	42	0	2500853760	48	5707
2026-01-21 05:16:51.20	313.81	9.11	-37.1	-37.8	23.9	0.00e+00	0	42	0	2507145216	48	5616
2026-01-21 05:16:52.21	313.97	9.07	-37.1	-37.9	23.9	0.00e+00	0	42	0	2512388096	48	5679
2026-01-21 05:16:53.22	314.13	9.04	-37.4	-38.2	23.7	0.00e+00	0	42	0	2517630976	48	5843
2026-01-21 05:16:54.22	314.28	9.00	-37.4	-38.1	23.9	0.00e+00	0	42	0	2523922432	48	5820
2026-01-21 05:16:55.23	314.44	8.97	-37.3	-38.0	23.9	0.00e+00	0	42	0	2529165312	48	5760
2026-01-21 05:16:56.24	314.60	8.93	-37.5	-38.2	23.8	0.00e+00	0	42	0	2534408192	48	5853
2026-01-21 05:16:57.25	314.76	8.89	-37.4	-38.2	23.7	0.00e+00	0	42	0	2540699648	48	5836
2026-01-21 05:16:58.26	314.91	8.86	-37.5	-38.3	23.6	0.00e+00	0	42	0	2545942528	48	5944
2026-01-21 05:16:59.27	315.07	8.82	-37.7	-38.5	23.7	0.00e+00	0	42	0	2552233984	48	6051
2026-01-21 05:17:00.28	315.22	8.78	-37.6	-38.3	23.8	0.00e+00	0	42	0	2557476864	48	5952
2026-01-21 05:17:01.29	315.38	8.75	-37.4	-38.3	23.7	0.00e+00	0	42	0	2562719744	48	5899
2026-01-21 05:17:02.30	315.53	8.71	-37.6	-38.3	23.9	0.00e+00	0	42	0	2569011200	48	5946
2026-01-21 05:17:03.31	315.69	8.67	-37.6	-38.3	23.8	0.00e+00	0	42	0	2574254080	48	5950
2026-01-21 05:17:04.32	315.84	8.63	-37.5	-38.3	23.9	0.00e+00	0	42	0	2580545536	48	5905
2026-01-21 05:17:05.33	316.00	8.60	-37.7	-38.4	23.7	0.00e+00	0	42	0	2585788416	48	6020
2026-01-21 05:17:06.34	316.15	8.56	-37.9	-38.7	23.6	0.00e+00	0	42	0	2592079872	48	6175
2026-01-21 05:17:07.35	316.30	8.52	-37.8	-38.5	23.6	0.00e+00	0	42	0	2597322752	48	6101
2026-01-21 05:17:08.36	316.45	8.48	-37.6	-38.2	23.8	0.00e+00	0	42	0	2603614208	48	5895
2026-01-21 05:17:09.37	316.61	8.45	-37.4	-38.1	24.1	0.00e+00	0	42	0	2608857088	48	5774
2026-01-21 05:17:10.38	316.76	8.41	-37.8	-38.5	23.5	0.00e+00	0	42	0	2614099968	48	6103
2026-01-21 05:17:11.39	316.91	8.37	-37.7	-38.4	23.7	0.00e+00	0	42	0	2620391424	48	5988
2026-01-21 05:17:12.40	317.06	8.33	-38.0	-38.8	23.5	0.00e+00	0	42	0	2625634304	48	6268
2026-01-21 05:17:13.41	317.21	8.29	-37.7	-38.4	23.7	0.00e+00	0	42	0	2631925760	48	5977
2026-01-21 05:17:14.42	317.36	8.25	-38.3	-39.0	23.2	0.00e+00	0	42	0	2637168640	48	6410
2026-01-21 05:17:15.43	317.51	8.21	-39.2	-40.0	22.2	0.00e+00	0	42	0	2642411520	50	6404
2026-01-21 05:17:16.44	317.66	8.18	-38.6	-39.4	22.7	0.00e+00	0	42	0	2648702976	50	6025
2026-01-21 05:17:17.44	317.81	8.14	-37.5	-38.2	23.6	0.00e+00	0	42	0	2653945856	50	5204
2026-01-21 05:17:18.45	317.96	8.10	-38.1	-38.8	23.7	0.00e+00	0	42	0	2660237312	48	6313
2026-01-21 05:17:19.46	318.10	8.06	-38.7	-39.4	22.9	0.00e+00	0	42	0	2665480192	50	6022
2026-01-21 05:17:20.48	318.25	8.02	-38.6	-39.5	22.5	0.00e+00	0	42	0	2670723072	50	6053
2026-01-21 05:17:21.49	318.40	7.98	-39.4	-40.2	22.4	0.00e+00	0	42	0	2677014528	50	6564
2026-01-21 05:17:22.50	318.55	7.94	-38.7	-39.6	23.2	0.00e+00	0	42	0	2682257408	50	6116
2026-01-21 05:17:23.51	318.70	7.90	-37.9	-38.7	23.2	0.00e+00	0	42	0	2688548864	48	6183
2026-01-21 05:17:24.52	318.84	7.86	-38.5	-39.4	22.9	0.00e+00	0	42	0	2693791744	48	6700
2026-01-21 05:17:25.53	318.99	7.82	-38.3	-39.1	23.3	0.00e+00	0	42	0	2700083200	48	6504
2026-01-21 05:17:26.53	319.13	7.78	-37.9	-38.6	23.3	0.00e+00	0	42	0	2705326080	48	6161
2026-01-21 05:17:27.54	319.28	7.74	-38.1	-38.9	23.3	0.00e+00	0	42	0	2710568960	48	6366
2026-01-21 05:17:28.55	319.42	7.70	-38.3	-39.0	23.3	0.00e+00	0	42	0	2716860416	48	6421
2026-01-21 05:17:29.57	319.57	7.66	-38.3	-39.2	22.9	0.00e+00	0	42	0	2722103296	48	6544
2026-01-21 05:17:30.58	319.71	7.62	-38.2	-39.0	22.5	0.00e+00	0	42	0	2728394752	48	6407
2026-01-21 05:17:31.58	319.85	7.58	-38.0	-38.7	23.2	0.00e+00	0	42	0	2733637632	50	5562
2026-01-21 05:17:32.60	320.00	7.54	-38.0	-38.7	23.5	0.00e+00	0	42	0	2738880512	50	5528
2026-01-21 05:17:33.61	320.14	7.50	-38.2	-38.9	23.1	0.00e+00	0	42	0	2745171968	50	5692
2026-01-21 05:17:34.62	320.28	7.46	-39.2	-40.1	22.4	0.00e+00	0	42	0	2750414848	50	6474
2026-01-21 05:17:35.63	320.43	7.42	-39.6	-40.3	22.1	0.00e+00	0	42	0	2756706304	50	6657
2026-01-21 05:17:36.64	320.57	7.38	-38.9	-39.6	22.5	0.00e+00	0	42	0	2761949184	50	6134
2026-01-21 05:17:37.64	320.71	7.34	-39.1	-40.0	22.6	0.00e+00	0	42	0	2767192064	50	6416
2026-01-21 05:17:38.66	320.85	7.30	-38.8	-39.5	22.7	0.00e+00	0	42	0	2773483520	50	6099
2026-01-21 05:17:39.67	320.99	7.26	-38.7	-39.4	22.5	0.00e+00	0	42	0	2778726400	50	6029
2026-01-21 05:17:40.68	321.13	7.22	-38.8	-39.5	22.7	0.00e+00	0	42	0	2785017856	50	6084
2026-01-21 05:17:41.69	321.27	7.18	-38.5	-39.3	22.9	0.00e+00	0	42	0	2790260736	50	5943
2026-01-21 05:17:42.70	321.41	7.14	-38.5	-39.3	22.8	0.00e+00	0	42	0	2796552192	50	5915
2026-01-21 05:17:43.71	321.55	7.09	-38.8	-39.5	22.5	0.00e+00	0	42	0	2801795072	50	6081
2026-01-21 05:17:44.72	321.69	7.05	-38.9	-39.6	22.6	0.00e+00	0	42	0	2808086528	50	6141
2026-01-21 05:17:45.73	321.83	7.01	-38.8	-39.7	22.7	0.00e+00	0	42	0	2813329408	50	6178
2026-01-21 05:17:46.74	321.97	6.97	-38.5	-39.3	22.7	0.00e+00	0	42	0	2818572288	50	5922
2026-01-21 05:17:47.75	322.10	6.93	-38.7	-39.5	22.4	0.00e+00	0	42	0	2824863744	50	6055
2026-01-21 05:17:48.76	322.24	6.89	-38.1	-38.8	22.8	0.00e+00	0	42	0	2830106624	50	5589
2026-01-21 05:17:49.77	322.38	6.85	-38.8	-39.6	22.7	0.00e+00	0	42	0	2836398080	50	6119
2026-01-21 05:17:50.78	322.51	6.80	-38.9	-39.7	22.7	0.00e+00	0	42	0	2841640960	50	6223
2026-01-21 05:17:51.78	322.65	6.76	-38.7	-39.5	22.6	0.00e+00	0	42	0	2846883840	50	6038
2026-01-21 05:17:52.79	322.78	6.72	-38.1	-38.8	23.4	0.00e+00	0	42	0	2853175296	50	5612
2026-01-21 05:17:53.80	322.92	6.68	-38.0	-38.7	23.0	0.00e+00	0	42	0	2858418176	50	5539
2026-01-21 05:17:54.82	323.06	6.64	-38.4	-39.2	22.9	0.00e+00	0	42	0	2864709632	50	5848
2026-01-21 05:17:55.82	323.19	6.60	-38.6	-39.3	22.7	0.00e+00	0	42	0	2869952512	50	5948
2026-01-21 05:17:56.83	323.32	6.55	-38.8	-39.5	22.6	0.00e+00	0	42	0	2875195392	50	6051
2026-01-21 05:17:57.85	323.46	6.51	-39.1	-39.9	22.5	0.00e+00	0	42	0	2881486848	50	6324
2026-01-21 05:17:58.86	323.59	6.47	-39.4	-40.3	22.1	0.00e+00	0	42	0	2886729728	50	6627
2026-01-21 05:17:59.87	323.72	6.43	-39.0	-39.7	22.7	0.00e+00	0	42	0	2893021184	50	6217
2026-01-21 05:18:00.88	323.86	6.38	-39.7	-40.5	22.2	0.00e+00	0	42	0	2898264064	50	6786
2026-01-21 05:18:01.89	323.99	6.34	-39.6	-40.5	22.1	0.00e+00	0	42	0	2904555520	52	6073
2026-01-21 05:18:02.90	324.12	6.30	-39.4	-40.2	22.1	0.00e+00	0	42	0	2909798400	52	5847
2026-01-21 05:18:03.91	324.25	6.26	-39.6	-40.5	21.8	0.00e+00	0	42	0	2916089856	52	6069
2026-01-21 05:18:04.92	324.38	6.21	-39.7	-40.5	22.0	0.00e+00	0	42	0	2921332736	52	6102
2026-01-21 05:18:05.93	324.52	6.17	-39.5	-40.4	21.8	0.00e+00	0	42	0	2926575616	52	6023
2026-01-21 05:18:06.94	324.65	6.13	-39.5	-40.3	22.2	0.00e+00	0	42	0	2932867072	52	5904
2026-01-21 05:18:07.95	324.78	6.09	-39.6	-40.5	22.1	0.00e+00	0	42	0	2938109952	52	6059
2026-01-21 05:18:08.96	324.91	6.04	-39.6	-40.5	22.1	0.00e+00	0	42	0	2944401408	52	6048
2026-01-21 05:18:09.97	325.03	6.00	-39.6	-40.3	22.1	0.00e+00	0	42	0	2949644288	52	5949
2026-01-21 05:18:10.98	325.16	5.96	-39.8	-40.6	21.8	0.00e+00	0	42	0	2954887168	52	6172
2026-01-21 05:18:11.99	325.29	5.92	-39.4	-40.2	22.1	0.00e+00	0	42	0	2961178624	52	5886
2026-01-21 05:18:13.00	325.42	5.87	-39.9	-40.7	21.9	0.00e+00	0	42	0	2966421504	52	6180
2026-01-21 05:18:14.01	325.55	5.83	-39.3	-40.2	22.3	0.00e+00	0	42	0	2972712960	52	5840
2026-01-21 05:18:15.02	325.68	5.79	-39.2	-39.8	22.5	0.00e+00	0	42	0	2977955840	52	5624
2026-01-21 05:18:16.03	325.80	5.74	-39.2	-40.0	22.2	0.00e+00	0	42	0	2983198720	52	5710
2026-01-21 05:18:17.04	325.93	5.70	-38.8	-39.6	22.5	0.00e+00	0	42	0	2989490176	52	5463
2026-01-21 05:18:18.05	326.06	5.66	-39.4	-40.3	22.1	0.00e+00	0	42	0	2994733056	52	5915
2026-01-21 05:18:19.06	326.18	5.61	-39.3	-40.1	21.9	0.00e+00	0	42	0	3001024512	52	5817
2026-01-21 05:18:20.08	326.31	5.57	-39.3	-40.2	21.7	0.00e+00	0	42	0	3006267392	52	5851
2026-01-21 05:18:21.09	326.44	5.53	-40.1	-40.9	21.5	0.00e+00	0	42	0	3012558848	52	6355
2026-01-21 05:18:22.10	326.56	5.48	-39.3	-40.2	22.2	0.00e+00	0	42	0	3017801728	52	5846
2026-01-21 05:18:23.11	326.69	5.44	-39.9	-40.8	21.5	0.00e+00	0	42	0	3024093184	52	6271
2026-01-21 05:18:24.12	326.81	5.40	-39.8	-40.5	21.8	0.00e+00	0	42	0	3029336064	52	6075
2026-01-21 05:18:25.13	326.93	5.35	-40.1	-40.9	21.6	0.00e+00	0	42	0	3034578944	52	6388
2026-01-21 05:18:26.14	327.06	5.31	-40.0	-40.8	21.4	0.00e+00	0	42	0	3040870400	52	6300
2026-01-21 05:18:27.15	327.18	5.27	-40.3	-41.2	21.1	0.00e+00	0	42	0	3046113280	52	6583
2026-01-21 05:18:28.16	327.30	5.22	-40.1	-40.9	21.4	0.00e+00	0	42	0	3052404736	52	6362
2026-01-21 05:18:29.17	327.43	5.18	-39.8	-40.5	21.9	0.00e+00	0	42	0	3057647616	52	6092
2026-01-21 05:18:30.18	327.55	5.14	-39.9	-40.7	21.2	0.00e+00	0	42	0	3062890496	52	6230
2026-01-21 05:18:31.19	327.67	5.09	-40.0	-40.7	21.8	0.00e+00	0	42	0	3069181952	52	6228
2026-01-21 05:18:32.20	327.79	5.05	-39.8	-40.6	21.2	0.00e+00	0	42	0	3074424832	52	6166
2026-01-21 05:18:33.21	327.91	5.01	-39.3	-40.2	21.8	0.00e+00	0	42	0	3080716288	52	5880
2026-01-21 05:18:34.22	328.03	4.96	-39.6	-40.4	21.3	0.00e+00	0	42	0	3085959168	52	5978
2026-01-21 05:18:35.23	328.15	4.92	-39.8	-40.6	21.6	0.00e+00	0	42	0	3091202048	52	6105
2026-01-21 05:18:36.24	328.27	4.87	-39.5	-40.3	21.6	0.00e+00	0	42	0	3097493504	52	5922
2026-01-21 05:18:37.25	328.39	4.83	-39.9	-40.7	21.7	0.00e+00	0	42	0	3102736384	52	6177
2026-01-21 05:18:38.26	328.51	4.79	-39.6	-40.4	21.9	0.00e+00	0	42	0	3109027840	52	6001
2026-01-21 05:18:39.27	328.63	4.74	-40.7	-41.5	20.9	0.00e+00	0	42	0	3114270720	52	6793
2026-01-21 05:18:40.28	328.75	4.70	-41.0	-41.8	20.6	0.00e+00	0	42	0	3120562176	54	6291
2026-01-21 05:18:41.29	328.87	4.66	-40.5	-41.5	21.2	0.00e+00	0	42	0	3125805056	54	6036
2026-01-21 05:18:42.30	328.99	4.61	-40.7	-41.6	21.3	0.00e+00	0	42	0	3132096512	54	6119
2026-01-21 05:18:43.31	329.11	4.57	-40.7	-41.4	20.9	0.00e+00	0	42	0	3137339392	54	6031
2026-01-21 05:18:44.33	329.22	4.52	-40.8	-41.7	21.1	0.00e+00	0	42	0	3142582272	54	6243
2026-01-21 05:18:45.33	329.34	4.48	-40.6	-41.4	21.2	0.00e+00	0	41	0	3148873728	52	6723
2026-01-21 05:18:46.34	329.46	4.44	-39.7	-40.5	22.5	0.00e+00	0	42	0	3154116608	52	6082
2026-01-21 05:18:47.36	329.58	4.39	-40.4	-41.3	21.4	0.00e+00	0	42	0	3160408064	52	6657
2026-01-21 05:18:48.37	329.69	4.35	-39.8	-40.6	21.6	0.00e+00	0	42	0	3165650944	54	5451
2026-01-21 05:18:49.38	329.81	4.30	-38.9	-39.8	22.0	0.00e+00	0	42	0	3170893824	52	5608
2026-01-21 05:18:50.39	329.92	4.26	-40.3	-41.1	21.1	0.00e+00	0	42	0	3177185280	52	6496
2026-01-21 05:18:51.40	330.04	4.21	-40.5	-41.5	21.0	0.00e+00	0	42	0	3182428160	54	6050
2026-01-21 05:18:52.41	330.15	4.17	-40.4	-41.3	20.9	0.00e+00	0	42	0	3188719616	54	5901
2026-01-21 05:18:53.42	330.27	4.13	-40.4	-41.3	21.1	0.00e+00	0	42	0	3193962496	54	5919
2026-01-21 05:18:54.43	330.38	4.08	-40.0	-40.9	21.1	0.00e+00	0	42	0	3199205376	54	5636
2026-01-21 05:18:55.44	330.49	4.04	-40.3	-41.2	21.3	0.00e+00	0	42	0	3205496832	54	5849
2026-01-21 05:18:56.45	330.61	3.99	-40.3	-41.2	20.8	0.00e+00	0	42	0	3210739712	52	6601
2026-01-21 05:18:57.46	330.72	3.95	-39.5	-40.4	21.3	0.00e+00	0	42	0	3217031168	52	6021
2026-01-21 05:18:58.47	330.83	3.91	-40.9	-41.9	20.1	0.00e+00	0	41	0	3222274048	54	6357
2026-01-21 05:18:59.48	330.95	3.86	-41.3	-42.2	20.0	0.00e+00	0	41	0	3228565504	54	6575
2026-01-21 05:19:00.48	331.06	3.82	-40.7	-41.6	20.0	0.00e+00	0	42	0	3233808384	54	6164
2026-01-21 05:19:01.49	331.17	3.77	-41.8	-42.9	19.1	0.00e+00	0	42	0	3239051264	54	7124
2026-01-21 05:19:02.50	331.28	3.73	-42.0	-43.1	18.4	0.00e+00	0	41	0	3245342720	56	6538
2026-01-21 05:19:03.51	331.39	3.68	-42.4	-43.6	17.2	0.00e+00	0	42	0	3250585600	56	6926
2026-01-21 05:19:04.52	331.50	3.64	-43.8	-45.4	15.2	0.00e+00	0	41	0	3256877056	58	7579
2026-01-21 05:19:05.53	331.61	3.60	-44.6	-46.5	14.1	0.00e+00	0	41	0	3262119936	60	7673
2026-01-21 05:19:06.54	331.72	3.55	-45.1	-47.4	12.6	8.35e-05	0	42	0	3267362816	60	8515
2026-01-21 05:19:07.55	331.83	3.51	-43.2	-44.9	14.8	0.00e+00	0	41	0	3273654272	60	6359
2026-01-21 05:19:08.56	331.94	3.46	-46.1	-49.3	10.2	1.21e-03	0	42	0	3278897152	60	10495
2026-01-21 05:19:09.57	332.05	3.42	-46.4	-49.9	9.1	7.87e-03	0	42	0	3285188608	60	11332
2026-01-21 05:19:10.58	332.16	3.37	-46.5	-51.0	7.0	7.96e-02	0	42	0	3290431488	60	12867
2026-01-21 05:19:11.59	332.27	3.33	-47.2	-51.8	6.4	1.23e-01	0	42	0	3295674368	60	14036
2026-01-21 05:19:12.60	332.38	3.28	-47.6	-54.5	4.1	7.59e-01	0	42	0	3298820096	60	19086
2026-01-21 05:19:13.61	332.49	3.24	-48.0	-58.3	3.6	8.44e-01	0	42	104	3298820096	60	29821
2026-01-21 05:19:14.63	332.59	3.20	-47.6	-57.8	3.6	8.44e-01	0	41	104	3298820096	60	28095
2026-01-21 05:19:15.64	332.70	3.15	-47.0	-58.3	3.6	8.44e-01	0	42	104	3298820096	60	29714
2026-01-21 05:19:16.65	332.81	3.11	-47.3	-59.1	3.6	8.44e-01	0	42	104	3298820096	60	32760
2026-01-21 05:19:17.66	332.92	3.06	-47.1	-57.8	3.6	8.45e-01	0	42	104	3298820096	60	27957
2026-01-21 05:19:18.67	333.02	3.02	-47.5	-59.4	3.6	8.46e-01	0	42	104	3298820096	60	33763
2026-01-21 05:19:19.68	333.13	2.97	-47.5	-59.6	3.6	8.45e-01	0	42	104	3298820096	60	34647
2026-01-21 05:19:20.69	333.23	2.93	-50.8	-62.9	3.6	8.44e-01	0	42	104	3298820096	60	50547
2026-01-21 05:19:21.70	333.34	2.88	-51.3	-63.4	3.6	8.45e-01	0	42	104	3298820096	60	53348
2026-01-21 05:19:22.71	333.45	2.84	-52.2	-64.2	3.6	8.45e-01	0	42	104	3298820096	60	58805
2026-01-21 05:19:23.72	333.55	2.80	-52.3	-64.4	3.6	8.45e-01	0	42	104	3298820096	60	59752
2026-01-21 05:19:24.73	333.65	2.75	-52.8	-64.9	3.6	8.45e-01	0	42	104	3298820096	60	63592
2026-01-21 05:19:25.74	333.76	2.71	-52.7	-64.8	3.6	8.46e-01	0	42	104	3298820096	60	62718
2026-01-21 05:19:26.75	333.86	2.66	-52.4	-64.5	3.6	8.46e-01	0	42	104	3298820096	60	60425
2026-01-21 05:19:27.76	333.97	2.62	-52.6	-64.7	3.6	8.45e-01	0	42	104	3298820096	60	62026
2026-01-21 05:19:28.77	334.07	2.57	-52.8	-64.9	3.5	8.46e-01	0	42	104	3298820096	60	63404
2026-01-21 05:19:29.78	334.17	2.53	-52.7	-64.8	3.6	8.45e-01	0	42	104	3298820096	60	62603
2026-01-21 05:19:30.79	334.28	2.48	-52.4	-64.6	3.6	8.45e-01	0	42	104	3298820096	60	61262
2026-01-21 05:19:31.80	334.38	2.44	-52.2	-64.4	3.6	8.46e-01	0	42	104	3298820096	60	59944
2026-01-21 05:19:32.81	334.48	2.40	-52.5	-64.5	3.6	8.46e-01	0	42	104	3298820096	60	60952
2026-01-21 05:19:33.82	334.58	2.35	-52.5	-64.6	3.6	8.45e-01	0	42	104	3298820096	60	61295
2026-01-21 05:19:34.83	334.69	2.31	-52.8	-64.9	3.6	8.45e-01	0	42	104	3298820096	60	63489
2026-01-21 05:19:35.84	334.79	2.26	-52.7	-64.8	3.6	8.45e-01	0	41	104	3298820096	60	63086
2026-01-21 05:19:36.85	334.89	2.22	-52.5	-64.7	3.5	8.45e-01	0	41	104	3298820096	60	62102
2026-01-21 05:19:37.86	334.99	2.17	-52.8	-65.0	3.6	8.46e-01	0	41	104	3298820096	60	64420
2026-01-21 05:19:38.87	335.09	2.13	-52.6	-64.8	3.6	8.45e-01	0	42	104	3298820096	60	62924
2026-01-21 05:19:39.88	335.19	2.08	-52.7	-65.0	3.6	8.46e-01	0	42	104	3298820096	60	64378
2026-01-21 05:19:40.89	335.29	2.04	-52.4	-64.7	3.6	8.45e-01	0	41	104	3298820096	60	62174
2026-01-21 05:19:41.90	335.39	1.99	-52.5	-64.8	3.6	8.46e-01	0	42	104	3298820096	60	62585
2026-01-21 05:19:42.91	335.49	1.95	-52.8	-64.9	3.6	8.46e-01	0	42	104	3298820096	60	63403
2026-01-21 05:19:43.92	335.59	1.91	-52.6	-64.8	3.6	8.45e-01	0	41	104	3298820096	60	62598
2026-01-21 05:19:44.93	335.69	1.86	-52.5	-64.6	3.6	8.45e-01	0	41	104	3298820096	60	61461
2026-01-21 05:19:45.94	335.78	1.82	-52.5	-64.7	3.6	8.43e-01	0	41	104	3298820096	60	61777
