passes_logs/2026/01/21/R4.6S_Anadyr/R4.6S_Anadyr__20260121_134944_FENGYUN_3D_rec.log

#Pass ID: 20260121_134944_FENGYUN 3D
#Satellite: FENGYUN 3D
#Configuration: FENGYUN 3D
#almurnet v.1.7.20251203
#Start time: 2026-01-21 13:49:46

#Version: 2.2.20231116
#Station: R4.6S_Anadyr
#Location: 177.4865 lon 64.73178 lat
#TLE: 1 43010U 17072A   26020.92362722 -.00000077  00000+0 -14488-4 0  9992
#TLE: 2 43010  98.9946 352.8312 0002486  99.3651 260.7806 14.19696535424099

#Time	Az	El	Level	Level2	SNR	BER	BlckErr	Temp	State	Recorded	gain1	gain2
2026-01-21 13:49:46.12	21.02	0.08	-51.4	-66.3	3.5	1.51e+00	0	38	0	0	60	74359
2026-01-21 13:49:47.13	21.11	0.12	-52.4	-64.6	3.6	8.45e-01	0	39	104	0	60	61124
2026-01-21 13:49:48.14	21.21	0.17	-52.2	-64.3	3.6	8.45e-01	0	39	104	0	60	59273
2026-01-21 13:49:49.15	21.30	0.21	-52.0	-64.1	3.6	8.45e-01	0	40	104	0	60	58079
2026-01-21 13:49:50.16	21.39	0.25	-51.9	-64.1	3.6	8.46e-01	0	40	104	0	60	57678
2026-01-21 13:49:51.17	21.49	0.29	-52.2	-64.3	3.6	8.44e-01	0	40	104	0	60	59499
2026-01-21 13:49:52.18	21.58	0.33	-52.0	-64.1	3.6	8.46e-01	0	40	104	0	60	58083
2026-01-21 13:49:53.19	21.68	0.38	-51.9	-64.1	3.6	8.45e-01	0	40	104	0	60	58074
2026-01-21 13:49:54.20	21.77	0.42	-51.7	-63.9	3.6	8.45e-01	0	40	104	0	60	56342
2026-01-21 13:49:55.21	21.87	0.46	-51.5	-63.7	3.6	8.46e-01	0	40	104	0	60	55382
2026-01-21 13:49:56.22	21.96	0.50	-51.6	-63.7	3.6	8.45e-01	0	40	104	0	60	55467
2026-01-21 13:49:57.23	22.06	0.54	-51.4	-63.7	3.6	8.45e-01	0	40	104	0	60	55148
2026-01-21 13:49:58.24	22.15	0.59	-51.4	-63.5	3.6	8.46e-01	0	40	104	0	60	54110
2026-01-21 13:49:59.25	22.25	0.63	-51.3	-63.5	3.6	8.45e-01	0	40	104	0	60	53944
2026-01-21 13:50:00.26	22.35	0.67	-51.2	-63.4	3.6	8.46e-01	0	40	104	0	60	53160
2026-01-21 13:50:01.27	22.44	0.71	-51.1	-63.3	3.6	8.45e-01	0	40	104	0	60	52627
2026-01-21 13:50:02.28	22.54	0.75	-51.1	-63.2	3.6	8.46e-01	0	40	104	0	60	52009
2026-01-21 13:50:03.29	22.64	0.79	-50.9	-63.1	3.6	8.45e-01	0	40	104	0	60	51661
2026-01-21 13:50:04.30	22.73	0.84	-50.9	-63.0	3.6	8.46e-01	0	40	104	0	60	51346
2026-01-21 13:50:05.31	22.83	0.88	-50.8	-62.9	3.6	8.46e-01	0	40	104	0	60	50638
2026-01-21 13:50:06.32	22.93	0.92	-50.7	-62.9	3.6	8.45e-01	0	40	104	0	60	50361
2026-01-21 13:50:07.33	23.03	0.96	-50.6	-62.8	3.6	8.45e-01	0	40	104	0	60	49971
2026-01-21 13:50:08.35	23.13	1.00	-50.5	-62.6	3.6	8.45e-01	0	40	104	0	60	48955
2026-01-21 13:50:09.35	23.22	1.05	-50.3	-62.5	3.6	8.46e-01	0	40	104	0	60	48182
2026-01-21 13:50:10.36	23.32	1.09	-50.1	-62.2	3.6	8.45e-01	0	40	104	0	60	46478
2026-01-21 13:50:11.38	23.42	1.13	-49.7	-61.9	3.6	8.45e-01	0	40	104	0	60	44798
2026-01-21 13:50:12.39	23.52	1.17	-49.6	-61.7	3.6	8.46e-01	0	40	104	0	60	43949
2026-01-21 13:50:13.40	23.62	1.21	-49.6	-61.7	3.6	8.45e-01	0	40	104	0	60	44052
2026-01-21 13:50:14.41	23.72	1.26	-49.6	-61.7	3.6	8.45e-01	0	40	104	0	60	43843
2026-01-21 13:50:15.42	23.82	1.30	-49.6	-61.7	3.6	8.46e-01	0	40	104	0	60	43859
2026-01-21 13:50:16.42	23.92	1.34	-49.6	-61.7	3.6	8.45e-01	0	40	104	0	60	44056
2026-01-21 13:50:17.43	24.02	1.38	-49.5	-61.7	3.6	8.46e-01	0	40	104	0	60	43716
2026-01-21 13:50:18.45	24.12	1.42	-49.6	-61.6	3.6	8.45e-01	0	40	104	0	60	43696
2026-01-21 13:50:19.46	24.22	1.47	-49.5	-61.6	3.6	8.43e-01	0	40	104	0	60	43489
2026-01-21 13:50:20.47	24.33	1.51	-49.5	-61.6	3.6	8.45e-01	0	40	104	0	60	43591
2026-01-21 13:50:21.48	24.43	1.55	-49.5	-61.6	3.6	8.46e-01	0	40	104	0	60	43627
2026-01-21 13:50:22.49	24.53	1.59	-49.5	-61.6	3.6	8.45e-01	0	40	104	0	60	43559
2026-01-21 13:50:23.50	24.63	1.63	-49.5	-61.6	3.6	8.46e-01	0	40	104	0	60	43291
2026-01-21 13:50:24.51	24.73	1.68	-49.5	-61.5	3.6	8.44e-01	0	40	104	0	60	43129
2026-01-21 13:50:25.52	24.84	1.72	-49.5	-61.7	3.6	8.45e-01	0	40	104	0	60	43714
2026-01-21 13:50:26.53	24.94	1.76	-49.5	-61.6	3.6	8.46e-01	0	40	104	0	60	43362
2026-01-21 13:50:27.54	25.04	1.80	-49.5	-61.6	3.6	8.46e-01	0	40	104	0	60	43513
2026-01-21 13:50:28.55	25.15	1.84	-49.5	-61.6	3.6	8.46e-01	0	40	104	0	60	43368
2026-01-21 13:50:29.56	25.25	1.88	-49.5	-61.6	3.6	8.45e-01	0	40	104	0	60	43507
2026-01-21 13:50:30.57	25.36	1.93	-49.5	-61.6	3.6	8.45e-01	0	40	104	0	60	43586
2026-01-21 13:50:31.58	25.46	1.97	-49.5	-61.6	3.6	8.45e-01	0	40	104	0	60	43512
2026-01-21 13:50:32.59	25.57	2.01	-49.5	-61.6	3.6	8.45e-01	0	40	104	0	60	43566
2026-01-21 13:50:33.59	25.67	2.05	-49.5	-61.6	3.6	8.45e-01	0	40	104	0	60	43348
2026-01-21 13:50:34.60	25.77	2.09	-49.5	-61.5	3.6	8.46e-01	0	40	104	0	60	43050
2026-01-21 13:50:35.61	25.88	2.13	-49.5	-61.4	3.6	8.46e-01	0	40	104	0	60	42577
2026-01-21 13:50:36.62	25.99	2.18	-49.5	-61.5	3.6	8.45e-01	0	40	104	0	60	42728
2026-01-21 13:50:37.63	26.09	2.22	-49.5	-61.6	3.6	8.46e-01	0	40	104	0	60	43244
2026-01-21 13:50:38.65	26.20	2.26	-49.5	-61.6	3.6	8.44e-01	0	40	104	0	60	43300
2026-01-21 13:50:39.66	26.31	2.30	-49.5	-61.5	3.6	8.46e-01	0	40	104	0	60	43131
2026-01-21 13:50:40.67	26.41	2.34	-49.5	-61.5	3.6	8.45e-01	0	40	104	0	60	42980
2026-01-21 13:50:41.68	26.52	2.38	-49.5	-61.6	3.6	8.46e-01	0	40	104	0	60	43459
2026-01-21 13:50:42.69	26.63	2.43	-49.4	-60.7	3.6	8.46e-01	0	41	104	0	60	39266
2026-01-21 13:50:43.70	26.74	2.47	-49.4	-60.5	3.6	8.44e-01	0	40	104	0	60	38228
2026-01-21 13:50:44.71	26.84	2.51	-49.3	-60.1	3.6	8.46e-01	0	40	104	0	60	36476
2026-01-21 13:50:45.72	26.95	2.55	-49.3	-60.0	3.6	8.45e-01	0	41	104	0	60	35974
2026-01-21 13:50:46.73	27.06	2.59	-49.0	-57.3	3.9	8.41e-01	0	40	104	0	60	26339
2026-01-21 13:50:47.74	27.17	2.63	-47.9	-52.5	8.0	1.95e-01	0	40	0	0	60	15158
2026-01-21 13:50:48.75	27.28	2.67	-44.7	-46.6	14.4	2.24e-03	0	40	0	6291456	60	7742
2026-01-21 13:50:49.76	27.39	2.72	-42.3	-43.7	17.1	0.00e+00	0	40	0	11534336	60	5514
2026-01-21 13:50:50.77	27.50	2.76	-39.7	-40.7	20.1	0.00e+00	0	40	0	16777216	54	5523
2026-01-21 13:50:51.78	27.61	2.80	-39.0	-39.9	20.5	0.00e+00	0	40	0	23068672	52	5677
2026-01-21 13:50:52.79	27.72	2.84	-39.7	-40.7	19.8	0.00e+00	0	40	0	28311552	52	6199
2026-01-21 13:50:53.80	27.83	2.88	-40.7	-41.8	18.7	0.00e+00	0	40	0	34603008	52	7027
2026-01-21 13:50:54.81	27.94	2.92	-42.2	-43.5	17.0	0.00e+00	0	41	0	39845888	56	6832
2026-01-21 13:50:55.82	28.05	2.96	-44.4	-46.4	14.2	0.00e+00	0	40	0	45088768	60	7509
2026-01-21 13:50:56.83	28.17	3.01	-47.3	-51.0	8.9	3.39e-03	0	40	0	51380224	60	12872
2026-01-21 13:50:57.84	28.28	3.05	-40.7	-41.7	18.9	0.00e+00	0	40	0	56623104	54	6244
2026-01-21 13:50:58.85	28.39	3.09	-49.3	-61.4	3.6	1.55e-01	0	41	104	61865984	60	42313
2026-01-21 13:50:59.86	28.50	3.13	-48.1	-53.2	4.4	8.37e-01	0	40	104	61865984	60	16486
2026-01-21 13:51:00.87	28.62	3.17	-44.1	-45.7	15.7	2.85e-03	0	41	0	62914560	60	6993
2026-01-21 13:51:01.88	28.73	3.21	-49.5	-60.6	3.6	2.47e-01	0	41	104	67108864	60	38540
2026-01-21 13:51:02.89	28.84	3.25	-44.5	-46.4	14.6	8.05e-01	0	41	104	67108864	60	7581
2026-01-21 13:51:03.90	28.96	3.29	-44.0	-45.7	15.9	0.00e+00	0	41	0	68157440	60	6972
2026-01-21 13:51:04.91	29.07	3.34	-42.6	-43.9	16.7	0.00e+00	0	40	0	74448896	60	5665
2026-01-21 13:51:05.92	29.19	3.38	-43.5	-45.1	14.8	0.00e+00	0	40	0	79691776	60	6506
2026-01-21 13:51:06.93	29.30	3.42	-43.2	-44.7	16.5	0.00e+00	0	41	0	84934656	60	6189
2026-01-21 13:51:07.94	29.42	3.46	-42.9	-44.4	16.4	0.00e+00	0	41	0	91226112	58	6707
2026-01-21 13:51:08.95	29.53	3.50	-42.9	-44.3	16.7	0.00e+00	0	40	0	96468992	58	6656
2026-01-21 13:51:09.96	29.65	3.54	-42.9	-44.3	16.4	0.00e+00	0	40	0	102760448	58	6635
2026-01-21 13:51:10.97	29.76	3.58	-42.5	-43.8	15.8	0.00e+00	0	41	0	108003328	58	6256
2026-01-21 13:51:11.98	29.88	3.62	-43.3	-44.8	15.5	0.00e+00	0	41	0	113246208	58	7079
2026-01-21 13:51:12.99	30.00	3.66	-43.1	-44.5	16.1	0.00e+00	0	40	0	119537664	60	6087
2026-01-21 13:51:14.00	30.11	3.70	-43.3	-44.8	16.2	0.00e+00	0	41	0	124780544	60	6259
2026-01-21 13:51:15.01	30.23	3.74	-42.9	-44.3	16.5	0.00e+00	0	41	0	131072000	58	6688
2026-01-21 13:51:16.02	30.35	3.79	-43.3	-44.9	15.7	0.00e+00	0	40	0	136314880	60	6343
2026-01-21 13:51:17.03	30.47	3.83	-42.4	-43.7	17.1	0.00e+00	0	41	0	142606336	58	6193
2026-01-21 13:51:18.04	30.58	3.87	-42.7	-44.1	16.7	0.00e+00	0	41	0	147849216	58	6512
2026-01-21 13:51:19.05	30.70	3.91	-41.6	-42.8	18.3	0.00e+00	0	41	0	154140672	58	5576
2026-01-21 13:51:20.06	30.82	3.95	-41.2	-42.3	18.6	0.00e+00	0	41	0	159383552	56	5928
2026-01-21 13:51:21.07	30.94	3.99	-41.4	-42.5	18.6	0.00e+00	0	41	0	164626432	56	6091
2026-01-21 13:51:22.08	31.06	4.03	-41.6	-42.8	18.1	0.00e+00	0	41	0	170917888	56	6271
2026-01-21 13:51:23.09	31.18	4.07	-40.9	-41.9	18.9	0.00e+00	0	41	0	176160768	54	6382
2026-01-21 13:51:24.10	31.30	4.11	-41.2	-42.4	18.7	0.00e+00	0	41	0	182452224	54	6707
2026-01-21 13:51:25.11	31.42	4.15	-41.0	-42.1	19.2	0.00e+00	0	41	0	187695104	54	6529
2026-01-21 13:51:26.13	31.54	4.19	-40.1	-41.1	19.8	0.00e+00	0	40	0	192937984	54	5788
2026-01-21 13:51:27.14	31.66	4.23	-40.1	-41.1	19.8	0.00e+00	0	41	0	199229440	54	5792
2026-01-21 13:51:28.15	31.78	4.27	-39.4	-40.3	20.8	0.00e+00	0	41	0	204472320	52	5905
2026-01-21 13:51:29.16	31.91	4.31	-39.0	-39.9	21.1	0.00e+00	0	41	0	210763776	52	5631
2026-01-21 13:51:30.17	32.03	4.35	-38.9	-39.8	21.1	0.00e+00	0	41	0	216006656	52	5580
2026-01-21 13:51:31.18	32.15	4.39	-38.7	-39.5	21.3	0.00e+00	0	41	0	221249536	50	6088
2026-01-21 13:51:32.19	32.27	4.43	-38.4	-39.2	21.5	0.00e+00	0	41	0	227540992	50	5845
2026-01-21 13:51:33.19	32.40	4.47	-38.7	-39.6	21.2	0.00e+00	0	41	0	232783872	50	6125
2026-01-21 13:51:34.20	32.52	4.51	-39.3	-40.1	20.9	0.00e+00	0	41	0	239075328	50	6528
2026-01-21 13:51:35.21	32.64	4.55	-39.1	-40.0	20.9	0.00e+00	0	41	0	244318208	50	6440
2026-01-21 13:51:36.22	32.77	4.59	-38.7	-39.6	21.3	0.00e+00	0	41	0	250609664	50	6132
2026-01-21 13:51:37.23	32.89	4.63	-39.0	-39.8	21.1	0.00e+00	0	41	0	255852544	50	6311
2026-01-21 13:51:38.24	33.02	4.67	-38.4	-39.3	21.7	0.00e+00	0	41	0	262144000	50	5916
2026-01-21 13:51:39.25	33.14	4.71	-38.8	-39.6	21.0	0.00e+00	0	41	0	267386880	50	6160
2026-01-21 13:51:40.26	33.27	4.75	-40.0	-40.9	20.3	0.00e+00	0	41	0	272629760	52	6366
2026-01-21 13:51:41.27	33.39	4.79	-38.4	-39.3	21.6	0.00e+00	0	41	0	278921216	50	5898
2026-01-21 13:51:42.28	33.52	4.83	-38.5	-39.3	21.7	0.00e+00	0	41	0	284164096	50	5915
2026-01-21 13:51:43.29	33.64	4.87	-38.6	-39.4	21.7	0.00e+00	0	41	0	290455552	50	5982
2026-01-21 13:51:44.30	33.77	4.91	-38.1	-38.9	22.1	0.00e+00	0	41	0	295698432	50	5638
2026-01-21 13:51:45.31	33.90	4.95	-39.0	-39.9	21.2	0.00e+00	0	41	0	300941312	50	6328
2026-01-21 13:51:46.32	34.02	4.99	-38.4	-39.2	21.9	0.00e+00	0	41	0	307232768	50	5860
2026-01-21 13:51:47.33	34.15	5.03	-37.7	-38.5	22.5	0.00e+00	0	41	0	312475648	50	5438
2026-01-21 13:51:48.34	34.28	5.07	-38.0	-38.7	22.2	0.00e+00	0	41	0	318767104	48	6238
2026-01-21 13:51:49.36	34.41	5.11	-38.0	-38.8	22.0	0.00e+00	0	41	0	324009984	48	6247
2026-01-21 13:51:50.37	34.54	5.15	-38.4	-39.2	21.7	0.00e+00	0	41	0	329252864	48	6605
2026-01-21 13:51:51.38	34.67	5.18	-38.7	-39.5	21.4	0.00e+00	0	41	0	335544320	48	6829
2026-01-21 13:51:52.38	34.79	5.22	-38.5	-39.3	21.9	0.00e+00	0	41	0	340787200	50	5951
2026-01-21 13:51:53.39	34.92	5.26	-38.3	-39.1	22.0	0.00e+00	0	41	0	347078656	50	5770
2026-01-21 13:51:54.40	35.05	5.30	-38.5	-39.3	21.8	0.00e+00	0	41	0	352321536	50	5922
2026-01-21 13:51:55.41	35.18	5.34	-38.4	-39.2	21.8	0.00e+00	0	41	0	358612992	50	5877
2026-01-21 13:51:56.42	35.31	5.38	-38.4	-39.2	21.9	0.00e+00	0	41	0	363855872	50	5870
2026-01-21 13:51:57.43	35.45	5.42	-38.2	-39.0	22.0	0.00e+00	0	41	0	369098752	50	5759
2026-01-21 13:51:58.44	35.58	5.46	-38.1	-38.9	22.2	0.00e+00	0	41	0	375390208	50	5685
2026-01-21 13:51:59.45	35.71	5.49	-38.5	-39.3	21.9	0.00e+00	0	41	0	380633088	50	5901
2026-01-21 13:52:00.46	35.84	5.53	-38.0	-38.8	22.3	0.00e+00	0	41	0	386924544	50	5611
2026-01-21 13:52:01.47	35.97	5.57	-38.5	-39.3	21.8	0.00e+00	0	41	0	392167424	50	5952
2026-01-21 13:52:02.48	36.11	5.61	-38.4	-39.2	21.9	0.00e+00	0	41	0	397410304	50	5892
2026-01-21 13:52:03.49	36.24	5.65	-38.4	-39.3	21.8	0.00e+00	0	41	0	403701760	50	5924
2026-01-21 13:52:04.50	36.37	5.69	-38.4	-39.2	21.8	0.00e+00	0	41	0	408944640	50	5850
2026-01-21 13:52:05.51	36.50	5.72	-38.5	-39.3	22.0	0.00e+00	0	41	0	415236096	50	5906
2026-01-21 13:52:06.52	36.64	5.76	-37.9	-38.7	22.5	0.00e+00	0	41	0	420478976	50	5511
2026-01-21 13:52:07.53	36.77	5.80	-37.9	-38.7	22.5	0.00e+00	0	41	0	425721856	50	5530
2026-01-21 13:52:08.54	36.91	5.84	-37.9	-38.7	22.4	0.00e+00	0	41	0	432013312	50	5550
2026-01-21 13:52:09.55	37.04	5.88	-37.9	-38.7	22.4	0.00e+00	0	41	0	437256192	48	6222
2026-01-21 13:52:10.56	37.18	5.91	-38.2	-38.9	22.1	0.00e+00	0	41	0	443547648	48	6382
2026-01-21 13:52:11.57	37.31	5.95	-37.8	-38.6	22.6	0.00e+00	0	41	0	448790528	48	6113
2026-01-21 13:52:12.58	37.45	5.99	-37.9	-38.7	22.5	0.00e+00	0	41	0	455081984	48	6174
2026-01-21 13:52:13.59	37.59	6.03	-38.0	-38.7	22.4	0.00e+00	0	41	0	460324864	48	6239
2026-01-21 13:52:14.60	37.72	6.07	-38.0	-38.8	22.3	0.00e+00	0	41	0	466616320	48	6306
2026-01-21 13:52:15.61	37.86	6.10	-37.7	-38.5	22.6	0.00e+00	0	41	0	471859200	48	6087
2026-01-21 13:52:16.62	38.00	6.14	-37.7	-38.5	22.6	0.00e+00	0	41	0	477102080	48	6080
2026-01-21 13:52:17.63	38.13	6.18	-37.7	-38.5	22.6	0.00e+00	0	41	0	483393536	48	6051
2026-01-21 13:52:18.64	38.27	6.21	-37.7	-38.5	22.6	0.00e+00	0	41	0	488636416	48	6090
2026-01-21 13:52:19.64	38.41	6.25	-37.8	-38.6	22.5	0.00e+00	0	41	0	494927872	48	6147
2026-01-21 13:52:20.65	38.55	6.29	-37.8	-38.6	22.6	0.00e+00	0	41	0	500170752	48	6127
2026-01-21 13:52:21.66	38.69	6.33	-37.8	-38.7	22.6	0.00e+00	0	41	0	505413632	48	6176
2026-01-21 13:52:22.67	38.83	6.36	-37.9	-38.6	22.6	0.00e+00	0	41	0	511705088	48	6162
2026-01-21 13:52:23.68	38.97	6.40	-37.9	-38.6	22.5	0.00e+00	0	41	0	516947968	48	6163
2026-01-21 13:52:24.69	39.11	6.44	-37.8	-38.6	22.5	0.00e+00	0	41	0	523239424	48	6148
2026-01-21 13:52:25.70	39.25	6.47	-38.1	-38.9	22.3	0.00e+00	0	41	0	528482304	48	6330
2026-01-21 13:52:26.71	39.39	6.51	-38.1	-38.8	22.2	0.00e+00	0	41	0	533725184	48	6317
2026-01-21 13:52:27.72	39.53	6.54	-38.1	-38.8	22.5	0.00e+00	0	41	0	540016640	48	6317
2026-01-21 13:52:28.73	39.67	6.58	-38.1	-38.9	22.4	0.00e+00	0	41	0	545259520	48	6366
2026-01-21 13:52:29.74	39.81	6.62	-37.9	-38.7	22.5	0.00e+00	0	41	0	551550976	48	6229
2026-01-21 13:52:30.75	39.95	6.65	-37.6	-38.3	22.8	0.00e+00	0	41	0	556793856	48	5939
2026-01-21 13:52:31.76	40.10	6.69	-37.6	-38.3	22.8	0.00e+00	0	41	0	563085312	48	5942
2026-01-21 13:52:32.77	40.24	6.73	-37.7	-38.4	22.7	0.00e+00	0	41	0	568328192	48	6027
2026-01-21 13:52:33.78	40.38	6.76	-37.7	-38.5	22.6	0.00e+00	0	41	0	573571072	48	6075
2026-01-21 13:52:34.79	40.52	6.80	-37.6	-38.4	22.9	0.00e+00	0	41	0	579862528	48	5972
2026-01-21 13:52:35.80	40.67	6.83	-37.7	-38.5	22.6	0.00e+00	0	41	0	585105408	48	6071
2026-01-21 13:52:36.81	40.81	6.87	-37.6	-38.4	22.7	0.00e+00	0	41	0	591396864	48	6018
2026-01-21 13:52:37.82	40.96	6.90	-37.7	-38.6	22.6	0.00e+00	0	41	0	596639744	48	6104
2026-01-21 13:52:38.83	41.10	6.94	-37.9	-38.7	22.6	0.00e+00	0	41	0	601882624	48	6190
2026-01-21 13:52:39.84	41.25	6.97	-37.9	-38.8	22.5	0.00e+00	0	41	0	608174080	48	6249
2026-01-21 13:52:40.84	41.39	7.01	-37.9	-38.7	22.5	0.00e+00	0	41	0	613416960	48	6192
2026-01-21 13:52:41.85	41.54	7.04	-38.1	-38.9	22.3	0.00e+00	0	41	0	619708416	48	6389
2026-01-21 13:52:42.86	41.68	7.08	-37.9	-38.8	22.4	0.00e+00	0	41	0	624951296	48	6267
2026-01-21 13:52:43.87	41.83	7.11	-37.5	-38.3	22.7	0.00e+00	0	41	0	630194176	48	5908
2026-01-21 13:52:44.88	41.98	7.15	-37.7	-38.5	22.6	0.00e+00	0	41	0	636485632	48	6084
2026-01-21 13:52:45.89	42.12	7.18	-37.7	-38.5	22.7	0.00e+00	0	41	0	641728512	48	6040
2026-01-21 13:52:46.90	42.27	7.22	-37.6	-38.4	22.7	0.00e+00	0	41	0	648019968	48	5984
2026-01-21 13:52:47.91	42.42	7.25	-37.7	-38.5	22.8	0.00e+00	0	41	0	653262848	48	6082
2026-01-21 13:52:48.92	42.57	7.29	-37.5	-38.3	22.9	0.00e+00	0	41	0	659554304	48	5917
2026-01-21 13:52:49.93	42.72	7.32	-37.6	-38.4	22.8	0.00e+00	0	41	0	664797184	48	6007
2026-01-21 13:52:50.94	42.86	7.35	-37.6	-38.4	22.8	0.00e+00	0	41	0	671088640	48	6016
2026-01-21 13:52:51.95	43.01	7.39	-37.6	-38.3	22.9	0.00e+00	0	41	0	676331520	48	5962
2026-01-21 13:52:52.97	43.16	7.42	-37.7	-38.5	22.8	0.00e+00	0	41	0	681574400	48	6042
2026-01-21 13:52:53.98	43.31	7.46	-37.7	-38.4	22.7	0.00e+00	0	41	0	687865856	48	6018
2026-01-21 13:52:54.99	43.46	7.49	-37.6	-38.4	22.8	0.00e+00	0	41	0	693108736	48	5990
2026-01-21 13:52:56.00	43.61	7.52	-37.4	-38.2	23.0	0.00e+00	0	41	0	699400192	48	5852
2026-01-21 13:52:57.01	43.77	7.56	-37.2	-38.0	23.1	0.00e+00	0	41	0	704643072	48	5726
2026-01-21 13:52:58.02	43.92	7.59	-37.3	-38.0	23.1	0.00e+00	0	41	0	709885952	48	5733
2026-01-21 13:52:59.02	44.07	7.62	-37.2	-37.9	23.2	0.00e+00	0	41	0	716177408	48	5672
2026-01-21 13:53:00.04	44.22	7.66	-37.4	-38.1	23.1	0.00e+00	0	41	0	721420288	48	5823
2026-01-21 13:53:01.05	44.37	7.69	-37.2	-37.9	23.3	0.00e+00	0	41	0	727711744	48	5691
2026-01-21 13:53:02.06	44.53	7.72	-37.3	-38.0	23.3	0.00e+00	0	41	0	732954624	48	5729
2026-01-21 13:53:03.07	44.68	7.75	-37.1	-37.8	23.4	0.00e+00	0	41	0	738197504	48	5606
2026-01-21 13:53:04.08	44.83	7.79	-37.1	-37.8	23.4	0.00e+00	0	41	0	744488960	48	5601
2026-01-21 13:53:05.09	44.98	7.82	-37.1	-37.8	23.4	0.00e+00	0	41	0	749731840	48	5604
2026-01-21 13:53:06.10	45.14	7.85	-37.1	-37.9	23.4	0.00e+00	0	41	0	756023296	48	5642
2026-01-21 13:53:07.11	45.29	7.88	-37.0	-37.7	23.5	0.00e+00	0	41	0	761266176	48	5563
2026-01-21 13:53:08.12	45.45	7.91	-37.1	-37.8	23.4	0.00e+00	0	41	0	767557632	48	5587
2026-01-21 13:53:09.13	45.60	7.95	-37.2	-38.0	23.3	0.00e+00	0	41	0	772800512	48	5702
2026-01-21 13:53:10.14	45.76	7.98	-37.3	-38.0	23.2	0.00e+00	0	41	0	779091968	48	5732
2026-01-21 13:53:11.15	45.91	8.01	-37.2	-37.9	23.5	0.00e+00	0	41	0	784334848	48	5680
2026-01-21 13:53:12.16	46.07	8.04	-37.4	-38.1	23.2	0.00e+00	0	41	0	789577728	48	5805
2026-01-21 13:53:13.17	46.22	8.07	-37.3	-38.0	23.2	0.00e+00	0	41	0	795869184	48	5745
2026-01-21 13:53:14.18	46.38	8.10	-37.3	-38.0	23.2	0.00e+00	0	41	0	801112064	48	5752
2026-01-21 13:53:15.19	46.54	8.13	-37.5	-38.2	23.1	0.00e+00	0	41	0	807403520	48	5864
2026-01-21 13:53:16.20	46.70	8.16	-37.3	-38.0	23.3	0.00e+00	0	41	0	812646400	48	5755
2026-01-21 13:53:17.21	46.85	8.19	-37.2	-38.0	23.2	0.00e+00	0	41	0	817889280	48	5720
2026-01-21 13:53:18.22	47.01	8.22	-37.2	-37.9	23.4	0.00e+00	0	41	0	824180736	48	5679
2026-01-21 13:53:19.23	47.17	8.25	-37.2	-38.0	23.3	0.00e+00	0	41	0	829423616	48	5700
2026-01-21 13:53:20.24	47.33	8.29	-37.2	-37.9	23.3	0.00e+00	0	41	0	835715072	48	5670
2026-01-21 13:53:21.25	47.49	8.32	-37.0	-37.8	23.4	0.00e+00	0	41	0	840957952	48	5572
2026-01-21 13:53:22.26	47.64	8.34	-37.2	-37.9	23.4	0.00e+00	0	41	0	846200832	48	5649
2026-01-21 13:53:23.27	47.80	8.37	-37.3	-38.1	23.2	0.00e+00	0	41	0	852492288	48	5764
2026-01-21 13:53:24.28	47.96	8.40	-37.4	-38.2	23.1	0.00e+00	0	41	0	857735168	48	5864
2026-01-21 13:53:25.29	48.12	8.43	-37.3	-38.1	23.3	0.00e+00	0	41	0	864026624	48	5767
2026-01-21 13:53:26.31	48.29	8.46	-37.3	-38.1	23.2	0.00e+00	0	41	0	869269504	48	5791
2026-01-21 13:53:27.31	48.44	8.49	-37.2	-38.0	23.3	0.00e+00	0	41	0	875560960	48	5713
2026-01-21 13:53:28.32	48.61	8.52	-37.3	-38.0	23.2	0.00e+00	0	41	0	880803840	48	5760
2026-01-21 13:53:29.33	48.77	8.55	-37.2	-37.9	23.4	0.00e+00	0	41	0	886046720	48	5644
2026-01-21 13:53:30.34	48.93	8.58	-37.1	-37.9	23.3	0.00e+00	0	41	0	892338176	48	5649
2026-01-21 13:53:31.35	49.09	8.61	-37.1	-37.9	23.4	0.00e+00	0	41	0	897581056	48	5654
2026-01-21 13:53:32.36	49.25	8.63	-37.1	-37.9	23.4	0.00e+00	0	41	0	903872512	48	5664
2026-01-21 13:53:33.37	49.41	8.66	-37.3	-38.1	23.1	0.00e+00	0	41	0	909115392	48	5777
2026-01-21 13:53:34.38	49.58	8.69	-37.2	-37.9	23.3	0.00e+00	0	41	0	914358272	48	5691
2026-01-21 13:53:35.39	49.74	8.72	-37.5	-38.2	23.0	0.00e+00	0	41	0	920649728	48	5893
2026-01-21 13:53:36.40	49.90	8.75	-37.3	-38.0	23.2	0.00e+00	0	41	0	925892608	48	5747
2026-01-21 13:53:37.41	50.07	8.77	-37.4	-38.2	23.1	0.00e+00	0	41	0	932184064	48	5861
2026-01-21 13:53:38.42	50.23	8.80	-37.3	-38.1	23.1	0.00e+00	0	41	0	937426944	48	5817
2026-01-21 13:53:39.43	50.40	8.83	-37.4	-38.1	23.2	0.00e+00	0	41	0	943718400	48	5801
2026-01-21 13:53:40.44	50.56	8.86	-37.2	-38.0	23.2	0.00e+00	0	41	0	948961280	48	5745
2026-01-21 13:53:41.45	50.72	8.88	-37.5	-38.2	23.0	0.00e+00	0	41	0	954204160	48	5891
2026-01-21 13:53:42.46	50.89	8.91	-37.0	-37.8	23.3	0.00e+00	0	41	0	960495616	48	5587
2026-01-21 13:53:43.47	51.06	8.93	-37.2	-37.9	23.2	0.00e+00	0	41	0	965738496	48	5664
2026-01-21 13:53:44.49	51.22	8.96	-36.9	-37.6	23.5	0.00e+00	0	41	0	972029952	48	5481
2026-01-21 13:53:45.50	51.39	8.99	-36.9	-37.7	23.5	0.00e+00	0	41	0	977272832	48	5505
2026-01-21 13:53:46.51	51.56	9.01	-37.0	-37.8	23.4	0.00e+00	0	41	0	983564288	48	5576
2026-01-21 13:53:47.52	51.72	9.04	-37.0	-37.7	23.5	0.00e+00	0	41	0	988807168	48	5549
2026-01-21 13:53:48.53	51.89	9.06	-37.1	-37.9	23.4	0.00e+00	0	41	0	994050048	48	5654
2026-01-21 13:53:49.54	52.06	9.09	-37.2	-38.0	23.3	0.00e+00	0	41	0	1000341504	48	5698
2026-01-21 13:53:50.55	52.22	9.11	-37.3	-38.0	23.2	0.00e+00	0	41	0	1005584384	48	5734
2026-01-21 13:53:51.56	52.39	9.14	-37.3	-38.1	23.2	0.00e+00	0	41	0	1011875840	48	5770
2026-01-21 13:53:52.57	52.56	9.16	-37.4	-38.2	23.1	0.00e+00	0	41	0	1017118720	48	5847
2026-01-21 13:53:53.58	52.73	9.19	-37.0	-37.7	23.5	0.00e+00	0	41	0	1022361600	48	5546
2026-01-21 13:53:54.59	52.90	9.21	-36.9	-37.6	23.5	0.00e+00	0	41	0	1028653056	48	5500
2026-01-21 13:53:55.60	53.06	9.24	-37.1	-37.8	23.4	0.00e+00	0	41	0	1033895936	48	5609
2026-01-21 13:53:56.61	53.23	9.26	-37.1	-37.9	23.1	0.00e+00	0	41	0	1040187392	48	5656
2026-01-21 13:53:57.62	53.40	9.29	-37.0	-37.7	23.2	0.00e+00	0	41	0	1045430272	48	5553
2026-01-21 13:53:58.63	53.57	9.31	-37.1	-37.8	23.3	0.00e+00	0	41	0	1051721728	48	5605
2026-01-21 13:53:59.64	53.74	9.33	-36.8	-37.6	23.4	0.00e+00	0	41	0	1056964608	48	5461
2026-01-21 13:54:00.65	53.91	9.36	-36.8	-37.6	23.5	0.00e+00	0	41	0	1062207488	46	6114
2026-01-21 13:54:01.66	54.08	9.38	-36.8	-37.5	23.5	0.00e+00	0	41	0	1068498944	46	6073
2026-01-21 13:54:02.67	54.25	9.40	-36.8	-37.6	23.6	0.00e+00	0	41	0	1073741824	46	6107
2026-01-21 13:54:03.68	54.42	9.42	-36.7	-37.4	23.8	0.00e+00	0	41	0	1080033280	46	6008
2026-01-21 13:54:04.69	54.60	9.45	-36.7	-37.4	23.8	0.00e+00	0	41	0	1085276160	46	6010
2026-01-21 13:54:05.70	54.77	9.47	-36.7	-37.5	23.8	0.00e+00	0	41	0	1091567616	46	6035
2026-01-21 13:54:06.71	54.94	9.49	-36.8	-37.5	23.8	0.00e+00	0	41	0	1096810496	46	6075
2026-01-21 13:54:07.72	55.11	9.51	-36.7	-37.4	23.9	0.00e+00	0	41	0	1102053376	46	6002
2026-01-21 13:54:08.73	55.28	9.53	-36.7	-37.4	23.8	0.00e+00	0	41	0	1108344832	46	6012
2026-01-21 13:54:09.74	55.46	9.56	-36.7	-37.4	23.8	0.00e+00	0	41	0	1113587712	46	6020
2026-01-21 13:54:10.75	55.63	9.58	-36.7	-37.4	23.8	0.00e+00	0	41	0	1119879168	46	6028
2026-01-21 13:54:11.76	55.80	9.60	-36.7	-37.5	23.8	0.00e+00	0	41	0	1125122048	46	6039
2026-01-21 13:54:12.76	55.97	9.62	-36.6	-37.4	24.0	0.00e+00	0	41	0	1130364928	46	5976
2026-01-21 13:54:13.78	56.15	9.64	-36.7	-37.5	23.8	0.00e+00	0	41	0	1136656384	46	6037
2026-01-21 13:54:14.78	56.32	9.66	-36.6	-37.3	23.9	0.00e+00	0	41	0	1141899264	46	5939
2026-01-21 13:54:15.79	56.49	9.68	-36.4	-37.1	24.1	0.00e+00	0	41	0	1148190720	46	5799
2026-01-21 13:54:16.81	56.67	9.70	-36.4	-37.1	24.1	0.00e+00	0	41	0	1153433600	46	5797
2026-01-21 13:54:17.82	56.84	9.72	-36.4	-37.1	24.1	0.00e+00	0	41	0	1158676480	46	5812
2026-01-21 13:54:18.82	57.02	9.74	-36.4	-37.1	24.1	0.00e+00	0	41	0	1164967936	46	5789
2026-01-21 13:54:19.83	57.19	9.76	-36.5	-37.2	24.0	0.00e+00	0	41	0	1170210816	46	5877
2026-01-21 13:54:20.84	57.37	9.78	-36.6	-37.3	23.9	0.00e+00	0	41	0	1176502272	46	5904
2026-01-21 13:54:21.85	57.54	9.80	-36.7	-37.4	23.8	0.00e+00	0	41	0	1181745152	46	5996
2026-01-21 13:54:22.86	57.72	9.81	-36.6	-37.3	23.9	0.00e+00	0	41	0	1188036608	46	5948
2026-01-21 13:54:23.87	57.89	9.83	-36.6	-37.3	23.8	0.00e+00	0	41	0	1193279488	46	5959
2026-01-21 13:54:24.88	58.07	9.85	-36.9	-37.6	23.7	0.00e+00	0	41	0	1198522368	46	6135
2026-01-21 13:54:25.89	58.25	9.87	-36.8	-37.5	23.8	0.00e+00	0	41	0	1204813824	46	6085
2026-01-21 13:54:26.90	58.42	9.89	-36.7	-37.4	23.9	0.00e+00	0	41	0	1210056704	46	6009
2026-01-21 13:54:27.91	58.60	9.90	-36.9	-37.7	23.7	0.00e+00	0	41	0	1216348160	46	6177
2026-01-21 13:54:28.92	58.78	9.92	-36.8	-37.5	23.8	0.00e+00	0	41	0	1221591040	46	6053
2026-01-21 13:54:29.93	58.95	9.94	-36.8	-37.5	23.9	0.00e+00	0	41	0	1226833920	46	6054
2026-01-21 13:54:30.94	59.13	9.96	-36.5	-37.2	24.0	0.00e+00	0	41	0	1233125376	46	5846
2026-01-21 13:54:31.95	59.31	9.97	-36.7	-37.4	24.1	0.00e+00	0	41	0	1238368256	46	5967
2026-01-21 13:54:32.96	59.49	9.99	-36.5	-37.2	24.0	0.00e+00	0	41	0	1244659712	46	5872
2026-01-21 13:54:33.97	59.66	10.00	-36.6	-37.3	24.0	0.00e+00	0	41	0	1249902592	46	5908
2026-01-21 13:54:34.98	59.84	10.02	-36.6	-37.3	24.0	0.00e+00	0	41	0	1255145472	46	5921
2026-01-21 13:54:35.99	60.02	10.04	-36.5	-37.2	24.0	0.00e+00	0	41	0	1261436928	46	5864
2026-01-21 13:54:37.00	60.20	10.05	-36.6	-37.3	24.0	0.00e+00	0	41	0	1266679808	46	5944
2026-01-21 13:54:38.01	60.38	10.07	-36.8	-37.6	23.7	0.00e+00	0	41	0	1272971264	46	6119
2026-01-21 13:54:39.02	60.56	10.08	-36.9	-37.6	23.6	0.00e+00	0	41	0	1278214144	46	6131
2026-01-21 13:54:40.03	60.73	10.10	-36.8	-37.5	23.8	0.00e+00	0	41	0	1284505600	46	6083
2026-01-21 13:54:41.04	60.91	10.11	-36.7	-37.5	23.9	0.00e+00	0	41	0	1289748480	46	6044
2026-01-21 13:54:42.05	61.09	10.13	-36.7	-37.5	23.8	0.00e+00	0	41	0	1296039936	46	6058
2026-01-21 13:54:43.07	61.27	10.14	-36.8	-37.6	23.7	0.00e+00	0	41	0	1301282816	46	6128
2026-01-21 13:54:44.08	61.45	10.15	-36.7	-37.4	23.9	0.00e+00	0	41	0	1306525696	46	6022
2026-01-21 13:54:45.09	61.63	10.17	-36.8	-37.5	23.8	0.00e+00	0	41	0	1312817152	46	6069
2026-01-21 13:54:46.10	61.81	10.18	-36.6	-37.3	23.9	0.00e+00	0	41	0	1318060032	46	5922
2026-01-21 13:54:47.11	61.99	10.19	-36.6	-37.4	23.9	0.00e+00	0	41	0	1324351488	46	5972
2026-01-21 13:54:48.12	62.17	10.21	-36.7	-37.4	23.7	0.00e+00	0	41	0	1329594368	46	5980
2026-01-21 13:54:49.13	62.35	10.22	-36.6	-37.3	23.7	0.00e+00	0	41	0	1334837248	46	5964
2026-01-21 13:54:50.14	62.53	10.23	-36.7	-37.4	23.6	0.00e+00	0	41	0	1341128704	46	6028
2026-01-21 13:54:51.15	62.72	10.24	-36.7	-37.5	23.7	0.00e+00	0	41	0	1346371584	46	6048
2026-01-21 13:54:52.16	62.90	10.26	-36.7	-37.4	23.7	0.00e+00	0	41	0	1352663040	46	6025
2026-01-21 13:54:53.17	63.08	10.27	-36.6	-37.3	23.4	0.00e+00	0	41	0	1357905920	46	5938
2026-01-21 13:54:54.18	63.26	10.28	-36.7	-37.4	23.1	0.00e+00	0	41	0	1363148800	46	6022
2026-01-21 13:54:55.19	63.44	10.29	-36.6	-37.4	23.3	0.00e+00	0	41	0	1369440256	46	6014
2026-01-21 13:54:56.20	63.62	10.30	-36.5	-37.3	23.7	0.00e+00	0	41	0	1374683136	46	5899
2026-01-21 13:54:57.21	63.80	10.31	-36.4	-37.2	23.9	0.00e+00	0	41	0	1380974592	46	5832
2026-01-21 13:54:58.22	63.98	10.32	-36.4	-37.1	24.0	0.00e+00	0	41	0	1386217472	46	5800
2026-01-21 13:54:59.23	64.17	10.33	-36.4	-37.2	24.0	0.00e+00	0	41	0	1392508928	46	5847
2026-01-21 13:55:00.24	64.35	10.34	-36.5	-37.3	24.1	0.00e+00	0	41	0	1397751808	46	5904
2026-01-21 13:55:01.25	64.53	10.35	-36.5	-37.2	24.0	0.00e+00	0	41	0	1404043264	46	5846
2026-01-21 13:55:02.26	64.71	10.36	-36.5	-37.2	23.9	0.00e+00	0	41	0	1409286144	46	5864
2026-01-21 13:55:03.27	64.89	10.37	-36.6	-37.3	23.9	0.00e+00	0	41	0	1414529024	46	5919
2026-01-21 13:55:04.28	65.08	10.38	-36.4	-37.1	24.1	0.00e+00	0	41	0	1420820480	46	5804
2026-01-21 13:55:05.29	65.26	10.39	-36.6	-37.4	23.9	0.00e+00	0	41	0	1426063360	46	5966
2026-01-21 13:55:06.30	65.44	10.40	-36.6	-37.3	24.0	0.00e+00	0	41	0	1432354816	46	5923
2026-01-21 13:55:07.31	65.62	10.40	-36.6	-37.3	23.9	0.00e+00	0	41	0	1437597696	46	5947
2026-01-21 13:55:08.33	65.81	10.41	-36.7	-37.4	23.8	0.00e+00	0	41	0	1442840576	46	6030
2026-01-21 13:55:09.34	65.99	10.42	-36.8	-37.6	23.7	0.00e+00	0	41	0	1449132032	46	6108
2026-01-21 13:55:10.35	66.18	10.43	-36.8	-37.6	23.7	0.00e+00	0	41	0	1454374912	46	6113
2026-01-21 13:55:11.35	66.36	10.43	-36.6	-37.3	23.9	0.00e+00	0	41	0	1460666368	46	5942
2026-01-21 13:55:12.36	66.54	10.44	-36.5	-37.3	24.0	0.00e+00	0	41	0	1465909248	46	5900
2026-01-21 13:55:13.37	66.72	10.45	-36.5	-37.2	24.0	0.00e+00	0	41	0	1471152128	46	5883
2026-01-21 13:55:14.38	66.91	10.45	-36.4	-37.1	24.1	0.00e+00	0	41	0	1477443584	46	5765
2026-01-21 13:55:15.39	67.09	10.46	-36.4	-37.1	24.0	0.00e+00	0	41	0	1482686464	46	5810
2026-01-21 13:55:16.40	67.27	10.47	-36.4	-37.2	23.9	0.00e+00	0	41	0	1488977920	46	5840
2026-01-21 13:55:17.41	67.46	10.47	-36.5	-37.2	23.7	0.00e+00	0	41	0	1494220800	46	5853
2026-01-21 13:55:18.42	67.64	10.48	-36.8	-37.5	23.4	0.00e+00	0	41	0	1500512256	46	6087
2026-01-21 13:55:19.43	67.82	10.48	-36.5	-37.3	23.7	0.00e+00	0	41	0	1505755136	46	5917
2026-01-21 13:55:20.44	68.01	10.49	-36.5	-37.2	23.8	0.00e+00	0	41	0	1512046592	46	5831
2026-01-21 13:55:21.45	68.19	10.49	-36.3	-37.1	24.0	0.00e+00	0	41	0	1517289472	46	5775
2026-01-21 13:55:22.46	68.38	10.50	-36.5	-37.2	23.7	0.00e+00	0	41	0	1522532352	46	5893
2026-01-21 13:55:23.48	68.56	10.50	-36.5	-37.2	23.6	0.00e+00	0	41	0	1528823808	46	5834
2026-01-21 13:55:24.49	68.75	10.50	-36.4	-37.1	23.7	0.00e+00	0	41	0	1534066688	46	5828
2026-01-21 13:55:25.50	68.93	10.51	-36.4	-37.2	23.8	0.00e+00	0	41	0	1540358144	46	5839
2026-01-21 13:55:26.51	69.11	10.51	-36.3	-37.1	24.1	0.00e+00	0	41	0	1545601024	46	5773
2026-01-21 13:55:27.52	69.30	10.51	-36.4	-37.1	24.0	0.00e+00	0	41	0	1550843904	46	5782
2026-01-21 13:55:28.53	69.48	10.52	-36.4	-37.1	24.0	0.00e+00	0	41	0	1557135360	46	5777
2026-01-21 13:55:29.53	69.66	10.52	-36.3	-37.0	24.1	0.00e+00	0	41	0	1562378240	46	5729
2026-01-21 13:55:30.55	69.85	10.52	-36.4	-37.2	24.1	0.00e+00	0	41	0	1568669696	46	5850
2026-01-21 13:55:31.56	70.04	10.52	-36.5	-37.2	24.0	0.00e+00	0	41	0	1573912576	46	5857
2026-01-21 13:55:32.57	70.22	10.53	-36.6	-37.3	24.0	0.00e+00	0	41	0	1579155456	46	5920
2026-01-21 13:55:33.58	70.40	10.53	-36.6	-37.3	23.9	0.00e+00	0	41	0	1585446912	46	5946
2026-01-21 13:55:34.59	70.59	10.53	-36.7	-37.5	23.9	0.00e+00	0	41	0	1590689792	46	6051
2026-01-21 13:55:35.60	70.77	10.53	-36.7	-37.5	23.8	0.00e+00	0	41	0	1596981248	46	6044
2026-01-21 13:55:36.61	70.96	10.53	-36.4	-37.1	24.0	0.00e+00	0	41	0	1602224128	46	5802
2026-01-21 13:55:37.62	71.14	10.53	-36.6	-37.3	23.9	0.00e+00	0	41	0	1608515584	46	5938
2026-01-21 13:55:38.63	71.33	10.53	-36.4	-37.2	24.1	0.00e+00	0	41	0	1613758464	46	5836
2026-01-21 13:55:39.64	71.51	10.53	-36.4	-37.0	24.2	0.00e+00	0	41	0	1620049920	46	5754
2026-01-21 13:55:40.65	71.69	10.53	-36.3	-37.1	24.2	0.00e+00	0	41	0	1625292800	46	5799
2026-01-21 13:55:41.66	71.88	10.53	-36.4	-37.1	24.2	0.00e+00	0	41	0	1630535680	46	5785
2026-01-21 13:55:42.67	72.06	10.53	-36.3	-37.1	24.2	0.00e+00	0	41	0	1636827136	46	5790
2026-01-21 13:55:43.68	72.25	10.53	-36.4	-37.1	24.1	0.00e+00	0	41	0	1642070016	46	5797
2026-01-21 13:55:44.69	72.43	10.53	-36.3	-37.0	24.2	0.00e+00	0	41	0	1648361472	46	5709
2026-01-21 13:55:45.70	72.62	10.52	-36.4	-37.1	24.1	0.00e+00	0	41	0	1653604352	46	5785
2026-01-21 13:55:46.71	72.80	10.52	-36.4	-37.2	24.1	0.00e+00	0	41	0	1658847232	46	5829
2026-01-21 13:55:47.72	72.99	10.52	-36.5	-37.3	24.0	0.00e+00	0	41	0	1665138688	46	5922
2026-01-21 13:55:48.74	73.17	10.52	-36.5	-37.3	23.9	0.00e+00	0	41	0	1670381568	46	5921
2026-01-21 13:55:49.75	73.36	10.51	-36.5	-37.2	24.0	0.00e+00	0	41	0	1676673024	46	5858
2026-01-21 13:55:50.76	73.54	10.51	-36.6	-37.3	23.9	0.00e+00	0	42	0	1681915904	46	5921
2026-01-21 13:55:51.77	73.72	10.51	-36.5	-37.3	24.0	0.00e+00	0	41	0	1687158784	46	5925
2026-01-21 13:55:52.78	73.91	10.50	-36.4	-37.1	23.9	0.00e+00	0	41	0	1693450240	46	5823
2026-01-21 13:55:53.78	74.09	10.50	-36.4	-37.1	24.0	0.00e+00	0	41	0	1698693120	46	5811
2026-01-21 13:55:54.79	74.27	10.50	-36.4	-37.1	24.0	0.00e+00	0	41	0	1704984576	46	5793
2026-01-21 13:55:55.80	74.46	10.49	-36.5	-37.3	23.9	0.00e+00	0	41	0	1710227456	46	5901
2026-01-21 13:55:56.81	74.64	10.49	-36.5	-37.3	23.7	0.00e+00	0	41	0	1716518912	46	5947
2026-01-21 13:55:57.82	74.83	10.48	-36.6	-37.4	23.7	0.00e+00	0	41	0	1721761792	46	5973
2026-01-21 13:55:58.83	75.01	10.48	-36.6	-37.4	23.7	0.00e+00	0	41	0	1727004672	46	5994
2026-01-21 13:55:59.84	75.19	10.47	-36.6	-37.3	23.6	0.00e+00	0	41	0	1733296128	46	5964
2026-01-21 13:56:00.85	75.38	10.47	-36.8	-37.6	23.4	0.00e+00	0	41	0	1738539008	46	6134
2026-01-21 13:56:01.86	75.56	10.46	-36.7	-37.4	23.7	0.00e+00	0	41	0	1744830464	46	6026
2026-01-21 13:56:02.87	75.75	10.46	-37.0	-37.8	23.3	0.00e+00	0	41	0	1750073344	46	6298
2026-01-21 13:56:03.88	75.93	10.45	-36.9	-37.6	23.6	0.00e+00	0	41	0	1755316224	46	6147
2026-01-21 13:56:04.89	76.11	10.44	-36.6	-37.3	23.9	0.00e+00	0	41	0	1761607680	46	5962
2026-01-21 13:56:05.90	76.30	10.44	-36.6	-37.3	23.8	0.00e+00	0	41	0	1766850560	46	5946
2026-01-21 13:56:06.91	76.48	10.43	-36.7	-37.5	23.7	0.00e+00	0	41	0	1773142016	46	6063
2026-01-21 13:56:07.92	76.66	10.42	-36.5	-37.2	24.0	0.00e+00	0	41	0	1778384896	46	5883
2026-01-21 13:56:08.93	76.85	10.41	-36.5	-37.2	24.0	0.00e+00	0	41	0	1783627776	46	5879
2026-01-21 13:56:09.94	77.03	10.41	-36.4	-37.2	24.0	0.00e+00	0	41	0	1789919232	46	5873
2026-01-21 13:56:10.95	77.21	10.40	-36.6	-37.3	24.0	0.00e+00	0	41	0	1795162112	46	5908
2026-01-21 13:56:11.96	77.39	10.39	-36.4	-37.1	24.1	0.00e+00	0	41	0	1801453568	46	5768
2026-01-21 13:56:12.97	77.58	10.38	-36.3	-37.0	24.2	0.00e+00	0	41	0	1806696448	46	5726
2026-01-21 13:56:13.98	77.76	10.37	-36.3	-37.0	24.1	0.00e+00	0	41	0	1812987904	46	5713
2026-01-21 13:56:14.99	77.94	10.36	-36.3	-37.0	24.1	0.00e+00	0	41	0	1818230784	46	5726
2026-01-21 13:56:16.00	78.12	10.35	-36.3	-37.1	24.1	0.00e+00	0	41	0	1824522240	46	5771
2026-01-21 13:56:17.02	78.31	10.34	-36.3	-37.0	24.2	0.00e+00	0	41	0	1829765120	46	5711
2026-01-21 13:56:18.03	78.49	10.33	-36.5	-37.2	24.0	0.00e+00	0	41	0	1835008000	46	5830
2026-01-21 13:56:19.04	78.67	10.32	-36.6	-37.3	23.9	0.00e+00	0	41	0	1841299456	46	5939
2026-01-21 13:56:20.05	78.86	10.31	-36.9	-37.6	23.7	0.00e+00	0	41	0	1846542336	46	6140
2026-01-21 13:56:21.06	79.04	10.30	-37.1	-37.9	23.4	0.00e+00	0	41	0	1852833792	46	6371
2026-01-21 13:56:22.07	79.22	10.29	-36.9	-37.6	23.7	0.00e+00	0	41	0	1858076672	46	6124
2026-01-21 13:56:23.08	79.40	10.28	-36.9	-37.6	23.7	0.00e+00	0	41	0	1863319552	46	6171
2026-01-21 13:56:24.09	79.58	10.27	-36.9	-37.6	23.6	0.00e+00	0	42	0	1869611008	46	6168
2026-01-21 13:56:25.10	79.76	10.26	-36.5	-37.3	24.0	0.00e+00	0	41	0	1874853888	46	5904
2026-01-21 13:56:26.11	79.94	10.25	-36.4	-37.1	24.1	0.00e+00	0	41	0	1881145344	46	5799
2026-01-21 13:56:27.12	80.13	10.23	-36.3	-37.1	24.2	0.00e+00	0	41	0	1886388224	46	5765
2026-01-21 13:56:28.13	80.31	10.22	-36.4	-37.1	24.1	0.00e+00	0	41	0	1892679680	46	5792
2026-01-21 13:56:29.14	80.49	10.21	-36.4	-37.1	24.1	0.00e+00	0	41	0	1897922560	46	5811
2026-01-21 13:56:30.15	80.67	10.20	-36.5	-37.2	24.1	0.00e+00	0	41	0	1903165440	46	5844
2026-01-21 13:56:31.16	80.85	10.18	-36.6	-37.3	23.9	0.00e+00	0	41	0	1909456896	46	5944
2026-01-21 13:56:32.17	81.03	10.17	-36.6	-37.4	23.9	0.00e+00	0	41	0	1914699776	46	5988
2026-01-21 13:56:33.18	81.21	10.16	-36.6	-37.3	24.0	0.00e+00	0	41	0	1920991232	46	5911
2026-01-21 13:56:34.19	81.39	10.14	-36.7	-37.4	23.8	0.00e+00	0	41	0	1926234112	46	5992
2026-01-21 13:56:35.20	81.57	10.13	-36.7	-37.4	23.8	0.00e+00	0	41	0	1932525568	46	6027
2026-01-21 13:56:36.21	81.75	10.11	-36.7	-37.5	23.8	0.00e+00	0	41	0	1937768448	46	6082
2026-01-21 13:56:37.22	81.93	10.10	-36.6	-37.4	23.9	0.00e+00	0	41	0	1943011328	46	5965
2026-01-21 13:56:38.23	82.11	10.08	-36.6	-37.4	23.8	0.00e+00	0	41	0	1949302784	46	6003
2026-01-21 13:56:39.24	82.29	10.07	-36.7	-37.5	23.8	0.00e+00	0	41	0	1954545664	46	6036
2026-01-21 13:56:40.25	82.47	10.05	-36.7	-37.4	23.8	0.00e+00	0	41	0	1960837120	46	5984
2026-01-21 13:56:41.26	82.64	10.04	-36.6	-37.4	23.9	0.00e+00	0	41	0	1966080000	46	5979
2026-01-21 13:56:42.27	82.82	10.02	-36.8	-37.5	23.8	0.00e+00	0	41	0	1971322880	46	6085
2026-01-21 13:56:43.28	83.00	10.01	-36.7	-37.4	23.8	0.00e+00	0	41	0	1977614336	46	6029
2026-01-21 13:56:44.29	83.18	9.99	-36.8	-37.5	23.7	0.00e+00	0	41	0	1982857216	46	6065
2026-01-21 13:56:45.30	83.36	9.97	-36.8	-37.5	23.7	0.00e+00	0	41	0	1989148672	46	6089
2026-01-21 13:56:46.32	83.54	9.96	-36.8	-37.6	23.7	0.00e+00	0	41	0	1994391552	46	6131
2026-01-21 13:56:47.33	83.71	9.94	-37.0	-37.8	23.6	0.00e+00	0	42	0	1999634432	46	6247
2026-01-21 13:56:48.34	83.89	9.92	-37.1	-37.9	23.4	0.00e+00	0	41	0	2005925888	46	6322
2026-01-21 13:56:49.35	84.07	9.91	-36.9	-37.6	23.7	0.00e+00	0	41	0	2011168768	48	5456
2026-01-21 13:56:50.36	84.25	9.89	-36.9	-37.7	23.5	0.00e+00	0	41	0	2017460224	48	5510
2026-01-21 13:56:51.37	84.42	9.87	-36.8	-37.5	23.7	0.00e+00	0	41	0	2022703104	48	5437
2026-01-21 13:56:52.38	84.60	9.85	-36.8	-37.5	23.7	0.00e+00	0	41	0	2028994560	46	6082
2026-01-21 13:56:53.39	84.78	9.83	-36.8	-37.6	23.7	0.00e+00	0	42	0	2034237440	46	6126
2026-01-21 13:56:54.40	84.95	9.82	-36.7	-37.5	23.7	0.00e+00	0	42	0	2040528896	46	6044
2026-01-21 13:56:55.41	85.13	9.80	-36.8	-37.5	23.7	0.00e+00	0	41	0	2045771776	46	6097
2026-01-21 13:56:56.42	85.30	9.78	-37.0	-37.7	23.5	0.00e+00	0	42	0	2051014656	46	6186
2026-01-21 13:56:57.43	85.48	9.76	-36.9	-37.6	23.7	0.00e+00	0	42	0	2057306112	46	6129
2026-01-21 13:56:58.44	85.65	9.74	-36.8	-37.5	23.8	0.00e+00	0	41	0	2062548992	46	6054
2026-01-21 13:56:59.45	85.83	9.72	-36.7	-37.4	23.8	0.00e+00	0	41	0	2068840448	46	6020
2026-01-21 13:57:00.46	86.00	9.70	-36.7	-37.5	23.8	0.00e+00	0	42	0	2074083328	46	6062
2026-01-21 13:57:01.47	86.18	9.68	-36.8	-37.4	23.7	0.00e+00	0	41	0	2079326208	46	6020
2026-01-21 13:57:02.48	86.35	9.66	-36.7	-37.4	23.8	0.00e+00	0	42	0	2085617664	46	6021
2026-01-21 13:57:03.49	86.53	9.64	-36.7	-37.4	23.8	0.00e+00	0	41	0	2090860544	46	6027
2026-01-21 13:57:04.50	86.70	9.62	-36.8	-37.5	23.7	0.00e+00	0	41	0	2097152000	46	6097
2026-01-21 13:57:05.51	86.88	9.60	-36.9	-37.7	23.6	0.00e+00	0	42	0	2102394880	46	6175
2026-01-21 13:57:06.52	87.05	9.58	-37.0	-37.7	23.5	0.00e+00	0	41	0	2107637760	46	6212
2026-01-21 13:57:07.53	87.22	9.56	-36.9	-37.7	23.6	0.00e+00	0	41	0	2113929216	46	6215
2026-01-21 13:57:08.54	87.40	9.53	-36.9	-37.7	23.6	0.00e+00	0	41	0	2119172096	46	6214
2026-01-21 13:57:09.55	87.57	9.51	-37.0	-37.6	23.5	0.00e+00	0	41	0	2125463552	46	6159
2026-01-21 13:57:10.56	87.74	9.49	-36.9	-37.6	23.5	0.00e+00	0	41	0	2130706432	46	6127
2026-01-21 13:57:11.57	87.91	9.47	-36.9	-37.7	23.6	0.00e+00	0	41	0	2136997888	46	6188
2026-01-21 13:57:12.58	88.09	9.45	-36.9	-37.6	23.5	0.00e+00	0	41	0	2142240768	46	6147
2026-01-21 13:57:13.59	88.26	9.42	-37.0	-37.7	23.4	0.00e+00	0	41	0	2148532224	46	6208
2026-01-21 13:57:14.60	88.43	9.40	-37.0	-37.8	23.5	0.00e+00	0	41	0	2153775104	46	6299
2026-01-21 13:57:15.61	88.60	9.38	-37.1	-37.8	23.4	0.00e+00	0	41	0	2159017984	46	6248
2026-01-21 13:57:16.62	88.77	9.36	-37.1	-37.9	23.4	0.00e+00	0	41	0	2165309440	46	6352
2026-01-21 13:57:17.63	88.94	9.33	-37.1	-37.8	23.3	0.00e+00	0	41	0	2170552320	46	6285
2026-01-21 13:57:18.64	89.11	9.31	-37.1	-37.9	23.3	0.00e+00	0	41	0	2176843776	46	6343
2026-01-21 13:57:19.64	89.28	9.28	-37.1	-37.8	23.3	0.00e+00	0	41	0	2182086656	46	6291
2026-01-21 13:57:20.66	89.45	9.26	-37.0	-37.8	23.4	0.00e+00	0	41	0	2187329536	46	6254
2026-01-21 13:57:21.66	89.62	9.24	-37.0	-37.8	23.4	0.00e+00	0	41	0	2193620992	46	6293
2026-01-21 13:57:22.67	89.79	9.21	-37.0	-37.7	23.5	0.00e+00	0	41	0	2198863872	46	6174
2026-01-21 13:57:23.68	89.96	9.19	-37.0	-37.7	23.5	0.00e+00	0	41	0	2204106752	46	6178
2026-01-21 13:57:24.69	90.13	9.16	-37.0	-37.8	23.4	0.00e+00	0	41	0	2210398208	46	6299
2026-01-21 13:57:25.70	90.30	9.14	-36.9	-37.6	23.5	0.00e+00	0	41	0	2215641088	46	6165
2026-01-21 13:57:26.71	90.46	9.11	-36.9	-37.7	23.5	0.00e+00	0	41	0	2221932544	46	6183
2026-01-21 13:57:27.72	90.63	9.09	-36.8	-37.6	23.6	0.00e+00	0	41	0	2227175424	46	6106
2026-01-21 13:57:28.73	90.80	9.06	-36.8	-37.5	23.6	0.00e+00	0	41	0	2233466880	46	6088
2026-01-21 13:57:29.73	90.97	9.04	-36.7	-37.5	23.8	0.00e+00	0	41	0	2238709760	46	6039
2026-01-21 13:57:30.74	91.13	9.01	-36.8	-37.6	23.7	0.00e+00	0	41	0	2245001216	46	6149
2026-01-21 13:57:31.75	91.30	8.99	-37.1	-37.9	23.4	0.00e+00	0	42	0	2250244096	46	6347
2026-01-21 13:57:32.76	91.47	8.96	-37.0	-37.7	23.5	0.00e+00	0	41	0	2255486976	46	6230
2026-01-21 13:57:33.78	91.63	8.93	-37.0	-37.8	23.3	0.00e+00	0	41	0	2261778432	46	6268
2026-01-21 13:57:34.79	91.80	8.91	-37.1	-37.9	23.3	0.00e+00	0	41	0	2267021312	46	6324
2026-01-21 13:57:35.79	91.96	8.88	-37.1	-37.9	23.3	0.00e+00	0	42	0	2273312768	46	6326
2026-01-21 13:57:36.81	92.13	8.85	-37.0	-37.8	23.3	0.00e+00	0	41	0	2278555648	46	6264
2026-01-21 13:57:37.82	92.30	8.83	-37.2	-37.9	23.3	0.00e+00	0	42	0	2283798528	46	6356
2026-01-21 13:57:38.83	92.46	8.80	-37.7	-38.5	22.8	0.00e+00	0	42	0	2290089984	46	6804
2026-01-21 13:57:39.84	92.63	8.77	-37.4	-38.1	23.1	0.00e+00	0	42	0	2295332864	48	5793
2026-01-21 13:57:40.85	92.79	8.74	-37.3	-38.0	23.1	0.00e+00	0	41	0	2301624320	48	5755
2026-01-21 13:57:41.86	92.95	8.72	-37.1	-37.9	23.3	0.00e+00	0	41	0	2306867200	48	5657
2026-01-21 13:57:42.87	93.12	8.69	-37.1	-37.9	23.2	0.00e+00	0	41	0	2312110080	48	5644
2026-01-21 13:57:43.88	93.28	8.66	-37.3	-38.0	23.2	0.00e+00	0	41	0	2318401536	48	5750
2026-01-21 13:57:44.89	93.44	8.63	-37.3	-38.1	23.1	0.00e+00	0	41	0	2323644416	48	5800
2026-01-21 13:57:45.90	93.61	8.60	-37.2	-38.0	23.2	0.00e+00	0	41	0	2329935872	48	5735
2026-01-21 13:57:46.91	93.77	8.57	-37.3	-38.0	23.2	0.00e+00	0	42	0	2335178752	48	5746
2026-01-21 13:57:47.92	93.93	8.55	-37.2	-38.0	23.1	0.00e+00	0	42	0	2341470208	48	5711
2026-01-21 13:57:48.93	94.09	8.52	-37.2	-38.0	23.2	0.00e+00	0	42	0	2346713088	48	5720
2026-01-21 13:57:49.94	94.26	8.49	-37.2	-38.0	23.2	0.00e+00	0	42	0	2351955968	48	5710
2026-01-21 13:57:50.95	94.42	8.46	-37.1	-38.0	23.2	0.00e+00	0	42	0	2358247424	48	5699
2026-01-21 13:57:51.97	94.58	8.43	-37.0	-37.7	23.4	0.00e+00	0	42	0	2363490304	48	5529
2026-01-21 13:57:52.98	94.74	8.40	-37.0	-37.7	23.4	0.00e+00	0	42	0	2369781760	48	5543
2026-01-21 13:57:53.99	94.90	8.37	-37.0	-37.7	23.4	0.00e+00	0	42	0	2375024640	48	5548
2026-01-21 13:57:55.00	95.06	8.34	-37.0	-37.7	23.3	0.00e+00	0	42	0	2381316096	48	5559
2026-01-21 13:57:56.01	95.22	8.31	-37.1	-37.8	23.3	0.00e+00	0	42	0	2386558976	48	5584
2026-01-21 13:57:57.02	95.38	8.28	-37.2	-37.9	23.2	0.00e+00	0	42	0	2391801856	48	5685
2026-01-21 13:57:58.03	95.54	8.25	-37.2	-37.9	23.2	0.00e+00	0	42	0	2398093312	48	5682
2026-01-21 13:57:59.04	95.70	8.22	-37.2	-38.0	23.1	0.00e+00	0	42	0	2403336192	48	5739
2026-01-21 13:58:00.05	95.86	8.19	-37.3	-38.0	23.1	0.00e+00	0	42	0	2409627648	48	5737
2026-01-21 13:58:01.06	96.01	8.16	-37.4	-38.1	23.0	0.00e+00	0	42	0	2414870528	48	5801
2026-01-21 13:58:02.08	96.17	8.13	-37.4	-38.2	22.9	0.00e+00	0	42	0	2420113408	48	5847
2026-01-21 13:58:03.09	96.33	8.09	-37.5	-38.3	22.9	0.00e+00	0	42	0	2426404864	48	5962
2026-01-21 13:58:04.10	96.49	8.06	-37.4	-38.1	22.9	0.00e+00	0	42	0	2431647744	48	5811
2026-01-21 13:58:05.11	96.64	8.03	-37.5	-38.2	22.9	0.00e+00	0	41	0	2437939200	48	5863
2026-01-21 13:58:06.12	96.80	8.00	-37.5	-38.3	22.8	0.00e+00	0	42	0	2443182080	48	5927
2026-01-21 13:58:07.13	96.96	7.97	-37.6	-38.4	22.8	0.00e+00	0	42	0	2449473536	48	5970
2026-01-21 13:58:08.14	97.11	7.94	-37.7	-38.5	22.7	0.00e+00	0	42	0	2454716416	48	6037
2026-01-21 13:58:09.15	97.27	7.90	-37.6	-38.4	22.8	0.00e+00	0	42	0	2459959296	48	5980
2026-01-21 13:58:10.16	97.42	7.87	-37.4	-38.2	22.9	0.00e+00	0	42	0	2466250752	48	5842
2026-01-21 13:58:11.17	97.58	7.84	-37.4	-38.1	22.9	0.00e+00	0	42	0	2471493632	48	5814
2026-01-21 13:58:12.18	97.73	7.81	-37.5	-38.3	22.9	0.00e+00	0	42	0	2477785088	48	5904
2026-01-21 13:58:13.19	97.89	7.78	-37.5	-38.2	22.8	0.00e+00	0	42	0	2483027968	48	5874
2026-01-21 13:58:14.20	98.04	7.74	-37.3	-38.0	22.9	0.00e+00	0	42	0	2489319424	48	5761
2026-01-21 13:58:15.21	98.19	7.71	-37.4	-38.2	22.9	0.00e+00	0	42	0	2494562304	48	5876
2026-01-21 13:58:16.22	98.35	7.68	-37.4	-38.1	22.9	0.00e+00	0	42	0	2499805184	48	5827
2026-01-21 13:58:17.23	98.50	7.64	-37.5	-38.3	22.8	0.00e+00	0	42	0	2506096640	48	5947
2026-01-21 13:58:18.24	98.65	7.61	-37.4	-38.2	22.8	0.00e+00	0	42	0	2511339520	48	5836
2026-01-21 13:58:19.25	98.80	7.58	-37.4	-38.1	22.9	0.00e+00	0	42	0	2517630976	48	5812
2026-01-21 13:58:20.26	98.96	7.54	-37.4	-38.2	22.9	0.00e+00	0	42	0	2522873856	48	5859
2026-01-21 13:58:21.27	99.11	7.51	-37.4	-38.1	22.9	0.00e+00	0	42	0	2528116736	48	5776
2026-01-21 13:58:22.28	99.26	7.48	-37.4	-38.1	22.9	0.00e+00	0	42	0	2534408192	48	5816
2026-01-21 13:58:23.29	99.41	7.44	-37.7	-38.4	22.7	0.00e+00	0	42	0	2539651072	48	6012
2026-01-21 13:58:24.30	99.56	7.41	-37.3	-38.0	23.0	0.00e+00	0	42	0	2545942528	48	5733
2026-01-21 13:58:25.31	99.71	7.38	-37.4	-38.2	22.9	0.00e+00	0	42	0	2551185408	48	5885
2026-01-21 13:58:26.32	99.86	7.34	-37.3	-38.1	23.0	0.00e+00	0	42	0	2556428288	48	5823
2026-01-21 13:58:27.33	100.01	7.31	-37.2	-38.0	23.1	0.00e+00	0	42	0	2562719744	48	5752
2026-01-21 13:58:28.34	100.16	7.27	-37.5	-38.2	22.9	0.00e+00	0	42	0	2567962624	48	5841
2026-01-21 13:58:29.35	100.31	7.24	-37.4	-38.1	22.9	0.00e+00	0	42	0	2574254080	48	5780
2026-01-21 13:58:30.36	100.46	7.20	-37.4	-38.1	22.8	0.00e+00	0	42	0	2579496960	48	5821
2026-01-21 13:58:31.37	100.60	7.17	-37.7	-38.4	22.6	0.00e+00	0	42	0	2585788416	48	5979
2026-01-21 13:58:32.38	100.75	7.13	-37.9	-38.7	22.4	0.00e+00	0	42	0	2591031296	48	6179
2026-01-21 13:58:33.39	100.90	7.10	-37.8	-38.6	22.5	0.00e+00	0	42	0	2597322752	48	6147
2026-01-21 13:58:34.40	101.05	7.06	-37.8	-38.6	22.4	0.00e+00	0	42	0	2602565632	48	6104
2026-01-21 13:58:35.41	101.19	7.03	-37.9	-38.8	22.3	0.00e+00	0	42	0	2607808512	48	6257
2026-01-21 13:58:36.42	101.34	6.99	-37.9	-38.7	22.4	0.00e+00	0	42	0	2614099968	48	6235
2026-01-21 13:58:37.43	101.48	6.96	-37.6	-38.3	22.6	0.00e+00	0	42	0	2619342848	48	5948
2026-01-21 13:58:38.44	101.63	6.92	-37.8	-38.7	22.4	0.00e+00	0	42	0	2625634304	48	6192
2026-01-21 13:58:39.45	101.78	6.89	-37.7	-38.6	22.4	0.00e+00	0	42	0	2630877184	48	6112
2026-01-21 13:58:40.46	101.92	6.85	-37.6	-38.5	22.6	0.00e+00	0	42	0	2636120064	48	6041
2026-01-21 13:58:41.47	102.07	6.82	-37.5	-38.4	22.5	0.00e+00	0	42	0	2642411520	48	6017
2026-01-21 13:58:42.48	102.21	6.78	-37.6	-38.5	22.5	0.00e+00	0	42	0	2647654400	48	6068
2026-01-21 13:58:43.49	102.35	6.74	-37.4	-38.3	22.6	0.00e+00	0	42	0	2653945856	48	5926
2026-01-21 13:58:44.50	102.50	6.71	-37.6	-38.4	22.5	0.00e+00	0	42	0	2659188736	48	5983
2026-01-21 13:58:45.51	102.64	6.67	-37.7	-38.5	22.6	0.00e+00	0	42	0	2664431616	48	6098
2026-01-21 13:58:46.52	102.78	6.63	-37.6	-38.4	22.5	0.00e+00	0	42	0	2670723072	48	5973
2026-01-21 13:58:47.53	102.93	6.60	-37.9	-38.7	22.3	0.00e+00	0	42	0	2675965952	48	6196
2026-01-21 13:58:48.54	103.07	6.56	-38.0	-38.8	22.3	0.00e+00	0	42	0	2682257408	48	6290
2026-01-21 13:58:49.55	103.21	6.53	-38.1	-38.9	22.1	0.00e+00	0	42	0	2687500288	48	6378
2026-01-21 13:58:50.56	103.35	6.49	-37.8	-38.6	22.4	0.00e+00	0	42	0	2693791744	48	6134
2026-01-21 13:58:51.58	103.49	6.45	-37.9	-38.7	22.3	0.00e+00	0	42	0	2699034624	48	6206
2026-01-21 13:58:52.58	103.63	6.41	-38.0	-38.8	22.2	0.00e+00	0	42	0	2705326080	48	6296
2026-01-21 13:58:53.59	103.78	6.38	-38.1	-38.9	22.1	0.00e+00	0	42	0	2710568960	48	6342
2026-01-21 13:58:54.61	103.92	6.34	-38.2	-39.0	21.9	0.00e+00	0	42	0	2715811840	48	6400
2026-01-21 13:58:55.62	104.06	6.30	-38.7	-39.6	21.7	0.00e+00	0	42	0	2722103296	48	6892
2026-01-21 13:58:56.63	104.20	6.27	-38.0	-38.8	22.2	0.00e+00	0	42	0	2727346176	48	6284
2026-01-21 13:58:57.64	104.34	6.23	-38.1	-38.9	22.2	0.00e+00	0	42	0	2733637632	48	6385
2026-01-21 13:58:58.65	104.47	6.19	-37.9	-38.7	22.4	0.00e+00	0	42	0	2738880512	48	6214
2026-01-21 13:58:59.66	104.61	6.15	-37.7	-38.5	22.3	0.00e+00	0	42	0	2744123392	48	6092
2026-01-21 13:59:00.67	104.75	6.12	-38.1	-38.8	22.1	0.00e+00	0	42	0	2750414848	48	6312
2026-01-21 13:59:01.68	104.89	6.08	-37.8	-38.6	22.3	0.00e+00	0	42	0	2755657728	48	6106
2026-01-21 13:59:02.69	105.03	6.04	-37.5	-38.3	22.6	0.00e+00	0	42	0	2761949184	48	5923
2026-01-21 13:59:03.70	105.16	6.00	-37.7	-38.4	22.5	0.00e+00	0	42	0	2767192064	48	6018
2026-01-21 13:59:04.71	105.30	5.96	-37.5	-38.4	22.5	0.00e+00	0	42	0	2772434944	48	5970
2026-01-21 13:59:05.72	105.44	5.93	-37.7	-38.5	22.3	0.00e+00	0	42	0	2778726400	48	6042
2026-01-21 13:59:06.73	105.57	5.89	-37.9	-38.6	22.2	0.00e+00	0	42	0	2783969280	48	6161
2026-01-21 13:59:07.74	105.71	5.85	-37.9	-38.8	22.2	0.00e+00	0	42	0	2790260736	48	6275
2026-01-21 13:59:08.75	105.84	5.81	-38.1	-39.0	21.9	0.00e+00	0	42	0	2795503616	48	6410
2026-01-21 13:59:09.76	105.98	5.77	-38.4	-39.3	21.6	0.00e+00	0	42	0	2801795072	48	6618
2026-01-21 13:59:10.77	106.11	5.74	-38.0	-39.0	21.9	0.00e+00	0	42	0	2807037952	48	6430
2026-01-21 13:59:11.78	106.25	5.70	-37.9	-38.9	21.9	0.00e+00	0	42	0	2812280832	48	6356
2026-01-21 13:59:12.79	106.38	5.66	-38.2	-39.2	21.7	0.00e+00	0	42	0	2818572288	48	6613
2026-01-21 13:59:13.80	106.52	5.62	-38.1	-39.1	21.7	0.00e+00	0	42	0	2823815168	48	6466
2026-01-21 13:59:14.81	106.65	5.58	-38.3	-39.2	21.6	0.00e+00	0	42	0	2830106624	48	6601
2026-01-21 13:59:15.82	106.78	5.54	-38.4	-39.3	21.6	0.00e+00	0	42	0	2835349504	48	6651
2026-01-21 13:59:16.83	106.92	5.50	-38.6	-39.4	21.4	0.00e+00	0	42	0	2841640960	48	6749
2026-01-21 13:59:17.84	107.05	5.46	-38.3	-39.2	21.6	0.00e+00	0	42	0	2846883840	48	6576
2026-01-21 13:59:18.86	107.18	5.43	-38.2	-39.1	21.8	0.00e+00	0	42	0	2852126720	48	6475
2026-01-21 13:59:19.87	107.31	5.39	-38.1	-39.0	21.7	0.00e+00	0	42	0	2858418176	48	6448
2026-01-21 13:59:20.88	107.44	5.35	-38.3	-39.1	21.6	0.00e+00	0	42	0	2863661056	48	6534
2026-01-21 13:59:21.89	107.57	5.31	-38.8	-39.7	21.3	0.00e+00	0	42	0	2869952512	50	6212
2026-01-21 13:59:22.90	107.71	5.27	-38.7	-39.5	21.3	0.00e+00	0	42	0	2875195392	50	6098
2026-01-21 13:59:23.91	107.84	5.23	-38.4	-39.2	21.6	0.00e+00	0	42	0	2880438272	50	5835
2026-01-21 13:59:24.92	107.97	5.19	-38.7	-39.5	21.3	0.00e+00	0	42	0	2886729728	50	6094
2026-01-21 13:59:25.93	108.10	5.15	-38.5	-39.3	21.4	0.00e+00	0	42	0	2891972608	50	5909
2026-01-21 13:59:26.94	108.22	5.11	-38.3	-39.2	21.5	0.00e+00	0	42	0	2898264064	50	5842
2026-01-21 13:59:27.95	108.35	5.07	-39.0	-39.8	21.0	0.00e+00	0	42	0	2903506944	50	6311
2026-01-21 13:59:28.96	108.48	5.03	-39.0	-40.0	20.9	0.00e+00	0	42	0	2909798400	50	6395
2026-01-21 13:59:29.97	108.61	4.99	-38.9	-39.8	20.9	0.00e+00	0	42	0	2915041280	50	6276
2026-01-21 13:59:30.98	108.74	4.95	-39.1	-40.0	20.8	0.00e+00	0	42	0	2921332736	50	6449
2026-01-21 13:59:31.99	108.87	4.91	-38.7	-39.6	21.1	0.00e+00	0	42	0	2926575616	50	6121
2026-01-21 13:59:33.00	108.99	4.87	-39.0	-39.9	20.8	0.00e+00	0	42	0	2931818496	50	6350
2026-01-21 13:59:34.01	109.12	4.83	-38.8	-39.7	21.0	0.00e+00	0	42	0	2938109952	50	6175
2026-01-21 13:59:35.02	109.25	4.79	-38.3	-39.2	21.4	0.00e+00	0	42	0	2943352832	50	5874
2026-01-21 13:59:36.03	109.37	4.75	-38.8	-39.8	21.0	0.00e+00	0	42	0	2948595712	50	6246
2026-01-21 13:59:37.04	109.50	4.71	-38.9	-39.9	20.8	0.00e+00	0	42	0	2954887168	50	6326
2026-01-21 13:59:38.05	109.63	4.67	-38.9	-39.9	20.7	0.00e+00	0	42	0	2960130048	50	6350
2026-01-21 13:59:39.06	109.75	4.63	-38.8	-39.8	20.9	0.00e+00	0	42	0	2966421504	50	6284
2026-01-21 13:59:40.07	109.88	4.59	-39.0	-40.0	20.8	0.00e+00	0	42	0	2971664384	50	6422
2026-01-21 13:59:41.08	110.00	4.55	-39.1	-40.1	20.6	0.00e+00	0	42	0	2977955840	50	6480
2026-01-21 13:59:42.09	110.12	4.51	-38.9	-39.9	20.8	0.00e+00	0	42	0	2983198720	50	6382
2026-01-21 13:59:43.10	110.25	4.47	-38.7	-39.7	20.9	0.00e+00	0	42	0	2988441600	50	6224
2026-01-21 13:59:44.11	110.37	4.43	-38.5	-39.5	21.1	0.00e+00	0	42	0	2994733056	50	6072
2026-01-21 13:59:45.12	110.50	4.39	-38.7	-39.7	20.9	0.00e+00	0	42	0	2999975936	50	6179
2026-01-21 13:59:46.14	110.62	4.35	-38.8	-39.7	20.9	0.00e+00	0	42	0	3006267392	50	6229
2026-01-21 13:59:47.15	110.74	4.31	-38.4	-39.3	21.3	0.00e+00	0	42	0	3011510272	50	5935
2026-01-21 13:59:48.16	110.87	4.27	-38.4	-39.4	21.1	0.00e+00	0	42	0	3017801728	50	5980
2026-01-21 13:59:49.17	110.99	4.23	-38.9	-40.0	20.6	0.00e+00	0	42	0	3023044608	50	6395
2026-01-21 13:59:50.18	111.11	4.19	-39.1	-40.0	20.6	0.00e+00	0	42	0	3028287488	50	6406
2026-01-21 13:59:51.19	111.23	4.15	-38.8	-39.7	20.8	0.00e+00	0	42	0	3034578944	50	6204
2026-01-21 13:59:52.20	111.35	4.11	-38.8	-39.7	20.8	0.00e+00	0	42	0	3039821824	50	6199
2026-01-21 13:59:53.21	111.47	4.07	-39.4	-40.3	20.3	0.00e+00	0	42	0	3046113280	50	6653
2026-01-21 13:59:54.22	111.59	4.02	-38.8	-39.8	20.8	0.00e+00	0	42	0	3051356160	50	6293
2026-01-21 13:59:55.23	111.71	3.98	-39.2	-40.1	20.4	0.00e+00	0	42	0	3056599040	50	6529
2026-01-21 13:59:56.23	111.83	3.94	-39.2	-40.2	20.3	0.00e+00	0	42	0	3062890496	50	6551
2026-01-21 13:59:57.24	111.95	3.90	-39.1	-40.1	20.3	0.00e+00	0	42	0	3068133376	50	6488
2026-01-21 13:59:58.25	112.07	3.86	-39.4	-40.3	20.0	0.00e+00	0	42	0	3074424832	50	6622
2026-01-21 13:59:59.26	112.19	3.82	-39.2	-40.2	20.3	0.00e+00	0	42	0	3079667712	50	6553
2026-01-21 14:00:00.28	112.31	3.78	-39.1	-40.1	20.2	0.00e+00	0	42	0	3084910592	50	6488
2026-01-21 14:00:01.29	112.43	3.74	-39.5	-40.6	19.9	0.00e+00	0	42	0	3091202048	50	6919
2026-01-21 14:00:02.30	112.54	3.70	-39.7	-40.8	18.9	0.00e+00	0	42	0	3096444928	50	7078
2026-01-21 14:00:03.31	112.66	3.65	-39.7	-40.7	19.6	0.00e+00	0	42	0	3102736384	52	6184
2026-01-21 14:00:04.32	112.78	3.61	-39.5	-40.5	19.8	0.00e+00	0	42	0	3107979264	52	6035
2026-01-21 14:00:05.33	112.90	3.57	-39.4	-40.4	20.0	0.00e+00	0	42	0	3114270720	52	6019
2026-01-21 14:00:06.34	113.01	3.53	-39.8	-40.9	19.5	0.00e+00	0	42	0	3119513600	52	6346
2026-01-21 14:00:07.35	113.13	3.49	-39.2	-40.3	20.1	0.00e+00	0	42	0	3125805056	52	5908
2026-01-21 14:00:08.36	113.25	3.45	-39.9	-41.0	19.2	0.00e+00	0	42	0	3131047936	52	6463
2026-01-21 14:00:09.37	113.36	3.41	-40.2	-41.4	18.9	0.00e+00	0	42	0	3136290816	52	6738
2026-01-21 14:00:10.38	113.48	3.37	-39.7	-40.9	19.4	0.00e+00	0	42	0	3142582272	52	6338
2026-01-21 14:00:11.39	113.59	3.32	-40.4	-41.6	18.8	0.00e+00	0	42	0	3147825152	52	6855
2026-01-21 14:00:12.40	113.71	3.28	-39.7	-40.7	19.4	0.00e+00	0	42	0	3154116608	52	6199
2026-01-21 14:00:13.41	113.82	3.24	-40.1	-41.3	19.0	0.00e+00	0	42	0	3159359488	52	6655
2026-01-21 14:00:14.42	113.93	3.20	-39.8	-40.9	19.2	0.00e+00	0	42	0	3164602368	52	6345
2026-01-21 14:00:15.43	114.05	3.16	-40.2	-41.4	18.7	0.00e+00	0	42	0	3170893824	52	6756
2026-01-21 14:00:16.44	114.16	3.12	-40.2	-41.3	18.7	0.00e+00	0	42	0	3176136704	52	6671
2026-01-21 14:00:17.45	114.28	3.07	-40.1	-41.1	19.0	0.00e+00	0	42	0	3182428160	52	6536
2026-01-21 14:00:18.47	114.39	3.03	-39.5	-40.5	19.6	0.00e+00	0	42	0	3187671040	52	6066
2026-01-21 14:00:19.48	114.50	2.99	-42.2	-43.9	4.2	0.00e+00	0	42	0	3192913920	52	8961
2026-01-21 14:00:20.49	114.61	2.95	-49.8	-62.1	3.6	8.44e-01	0	42	104	3192913920	60	46280
2026-01-21 14:00:21.50	114.73	2.91	-50.3	-62.5	3.6	8.45e-01	0	42	104	3192913920	60	47981
2026-01-21 14:00:22.51	114.84	2.87	-50.4	-62.7	3.6	8.46e-01	0	42	104	3192913920	60	49288
2026-01-21 14:00:23.51	114.95	2.82	-50.7	-62.8	3.6	8.46e-01	0	42	104	3192913920	60	50150
2026-01-21 14:00:24.53	115.06	2.78	-50.8	-62.9	3.6	8.44e-01	0	42	104	3192913920	60	50540
2026-01-21 14:00:25.54	115.17	2.74	-50.7	-63.0	3.6	8.46e-01	0	42	104	3192913920	60	50821
2026-01-21 14:00:26.55	115.28	2.70	-50.9	-63.1	3.6	8.45e-01	0	42	104	3192913920	60	51474
2026-01-21 14:00:27.56	115.39	2.66	-51.0	-63.1	3.6	8.45e-01	0	42	104	3192913920	60	51829
2026-01-21 14:00:28.57	115.50	2.61	-50.8	-63.2	3.6	8.45e-01	0	42	104	3192913920	60	52100
2026-01-21 14:00:29.58	115.61	2.57	-51.0	-63.2	3.6	8.46e-01	0	42	104	3192913920	60	52279
2026-01-21 14:00:30.59	115.72	2.53	-51.0	-63.2	3.6	8.45e-01	0	42	104	3192913920	60	52211
2026-01-21 14:00:31.60	115.83	2.49	-51.1	-63.2	3.6	8.46e-01	0	42	104	3192913920	60	52546
2026-01-21 14:00:32.61	115.94	2.45	-51.1	-63.2	3.5	8.45e-01	0	42	104	3192913920	60	52312
2026-01-21 14:00:33.62	116.05	2.40	-51.1	-63.3	3.6	8.45e-01	0	42	104	3192913920	60	52564
2026-01-21 14:00:34.63	116.15	2.36	-51.2	-63.3	3.6	8.44e-01	0	42	104	3192913920	60	52818
2026-01-21 14:00:35.64	116.26	2.32	-51.2	-63.3	3.6	8.46e-01	0	42	104	3192913920	60	52865
2026-01-21 14:00:36.65	116.37	2.28	-51.2	-63.4	3.6	8.45e-01	0	42	104	3192913920	60	53166
2026-01-21 14:00:37.66	116.48	2.24	-51.1	-63.3	3.6	8.46e-01	0	42	104	3192913920	60	52860
2026-01-21 14:00:38.68	116.58	2.19	-51.1	-63.3	3.6	8.45e-01	0	42	104	3192913920	60	52805
2026-01-21 14:00:39.68	116.69	2.15	-51.3	-63.4	3.6	8.45e-01	0	42	104	3192913920	60	53345
2026-01-21 14:00:40.70	116.80	2.11	-51.3	-63.4	3.6	8.45e-01	0	42	104	3192913920	60	53574
2026-01-21 14:00:41.70	116.90	2.07	-51.4	-63.5	3.6	8.45e-01	0	42	104	3192913920	60	54280
2026-01-21 14:00:42.71	117.01	2.03	-51.4	-63.5	3.6	8.45e-01	0	42	104	3192913920	60	54345
2026-01-21 14:00:43.72	117.11	1.98	-51.4	-63.5	3.6	8.45e-01	0	42	104	3192913920	60	54279
2026-01-21 14:00:44.73	117.22	1.94	-51.6	-63.7	3.6	8.45e-01	0	42	104	3192913920	60	55297
2026-01-21 14:00:45.74	117.32	1.90	-51.5	-63.6	3.6	8.44e-01	0	42	104	3192913920	60	54929
2026-01-21 14:00:46.75	117.43	1.86	-51.7	-63.9	3.6	8.46e-01	0	42	104	3192913920	60	56309
2026-01-21 14:00:47.76	117.53	1.82	-51.5	-63.7	3.6	8.46e-01	0	42	104	3192913920	60	55267
2026-01-21 14:00:48.77	117.64	1.77	-51.8	-64.0	3.6	8.45e-01	0	42	104	3192913920	60	57249
2026-01-21 14:00:49.78	117.74	1.73	-52.0	-64.1	3.6	8.45e-01	0	42	104	3192913920	60	58237
2026-01-21 14:00:50.79	117.84	1.69	-51.7	-63.8	3.6	8.45e-01	0	42	104	3192913920	60	56246
2026-01-21 14:00:51.80	117.95	1.65	-51.8	-63.9	3.6	8.45e-01	0	42	104	3192913920	60	56857
2026-01-21 14:00:52.81	118.05	1.60	-51.5	-63.7	3.6	8.45e-01	0	42	104	3192913920	60	55343
2026-01-21 14:00:53.82	118.15	1.56	-51.4	-63.6	3.6	8.46e-01	0	42	104	3192913920	60	54421
2026-01-21 14:00:54.83	118.26	1.52	-51.4	-63.5	3.6	8.46e-01	0	42	104	3192913920	60	54371
2026-01-21 14:00:55.84	118.36	1.48	-51.6	-63.8	3.6	8.47e-01	0	42	104	3192913920	60	55853
2026-01-21 14:00:56.85	118.46	1.43	-51.8	-64.0	3.6	8.45e-01	0	42	104	3192913920	60	57207
2026-01-21 14:00:57.86	118.56	1.39	-51.6	-63.8	3.6	8.45e-01	0	42	104	3192913920	60	55684
2026-01-21 14:00:58.87	118.66	1.35	-51.5	-63.7	3.6	8.46e-01	0	42	104	3192913920	60	55301
2026-01-21 14:00:59.88	118.76	1.31	-51.4	-63.5	3.6	8.46e-01	0	42	104	3192913920	60	54353
2026-01-21 14:01:00.89	118.86	1.27	-51.8	-63.9	3.6	8.45e-01	0	42	104	3192913920	60	56568
2026-01-21 14:01:01.90	118.96	1.22	-51.8	-64.0	3.6	8.45e-01	0	42	104	3192913920	60	57280
2026-01-21 14:01:02.91	119.06	1.18	-51.7	-63.8	3.6	8.45e-01	0	42	104	3192913920	60	56093
2026-01-21 14:01:03.92	119.16	1.14	-51.6	-63.8	3.6	8.45e-01	0	42	104	3192913920	60	55834
2026-01-21 14:01:04.93	119.26	1.10	-51.6	-63.8	3.6	8.46e-01	0	42	104	3192913920	60	55701
2026-01-21 14:01:05.94	119.36	1.05	-51.6	-63.8	3.6	8.45e-01	0	42	104	3192913920	60	55780
2026-01-21 14:01:06.95	119.46	1.01	-51.6	-63.7	3.6	8.47e-01	0	42	104	3192913920	60	55643
2026-01-21 14:01:07.96	119.56	0.97	-51.5	-63.7	3.6	8.45e-01	0	42	104	3192913920	60	55269
2026-01-21 14:01:08.97	119.66	0.93	-51.6	-63.7	3.5	8.46e-01	0	42	104	3192913920	60	55547
2026-01-21 14:01:09.98	119.76	0.88	-51.6	-63.8	3.6	8.44e-01	0	42	104	3192913920	60	55834
2026-01-21 14:01:10.99	119.86	0.84	-51.5	-63.7	3.6	8.46e-01	0	42	104	3192913920	60	55509
2026-01-21 14:01:12.00	119.95	0.80	-51.6	-63.7	3.6	8.45e-01	0	42	104	3192913920	60	55590
2026-01-21 14:01:13.01	120.05	0.76	-51.6	-63.7	3.6	8.46e-01	0	42	104	3192913920	60	55591
2026-01-21 14:01:14.02	120.15	0.71	-51.6	-63.7	3.6	8.44e-01	0	42	104	3192913920	60	55653
2026-01-21 14:01:15.03	120.25	0.67	-51.6	-63.7	3.6	8.45e-01	0	42	104	3192913920	60	55499
2026-01-21 14:01:16.04	120.34	0.63	-51.5	-63.7	3.6	8.45e-01	0	42	104	3192913920	60	55083
2026-01-21 14:01:17.05	120.44	0.59	-51.5	-63.6	3.6	8.45e-01	0	42	104	3192913920	60	54822
2026-01-21 14:01:18.06	120.53	0.55	-51.5	-63.6	3.6	8.46e-01	0	42	104	3192913920	60	54990
2026-01-21 14:01:19.07	120.63	0.50	-51.5	-63.7	3.6	8.45e-01	0	42	104	3192913920	60	55203
2026-01-21 14:01:20.08	120.73	0.46	-51.5	-63.6	3.6	8.46e-01	0	42	104	3192913920	60	54621
2026-01-21 14:01:21.09	120.82	0.42	-51.6	-63.8	3.6	8.44e-01	0	42	104	3192913920	60	55683
2026-01-21 14:01:22.10	120.92	0.38	-51.5	-63.7	3.6	8.45e-01	0	42	104	3192913920	60	55274
2026-01-21 14:01:23.11	121.01	0.33	-51.6	-63.7	3.6	8.46e-01	0	42	104	3192913920	60	55335
2026-01-21 14:01:24.12	121.11	0.29	-51.8	-63.9	3.6	8.45e-01	0	42	104	3192913920	60	56895
2026-01-21 14:01:25.13	121.20	0.25	-51.6	-63.7	3.6	8.45e-01	0	42	104	3192913920	60	55390
2026-01-21 14:01:26.14	121.29	0.21	-51.7	-63.9	3.6	8.46e-01	0	42	104	3192913920	60	56308
