passes_logs/2026/01/21/R4.6S_Anadyr/R4.6S_Anadyr__20260121_122157_NOAA_21_JPSS-2_rec.log

#Pass ID: 20260121_122157_NOAA 21 (JPSS-2)
#Satellite: NOAA 21 (JPSS-2)
#Configuration: NOAA-21
#almurnet v.1.7.20251203
#Start time: 2026-01-21 12:21:59

#Version: 2.2.20231116
#Station: R4.6S_Anadyr
#Location: 177.4865 lon 64.73178 lat
#TLE: 1 54234U 22150A   26020.93347024  .00000206  00000+0  11859-3 0  9994
#TLE: 2 54234  98.7506 321.7615 0000627 245.8100 114.3011 14.19536899165654

#Time	Az	El	Level	Level2	SNR	BER	BlckErr	Temp	State	Recorded	gain1	gain2
2026-01-21 12:21:59.63	19.11	0.10	-52.0	-67.0	3.5	1.51e+00	0	39	0	0	60	80472
2026-01-21 12:22:00.63	19.18	0.15	-52.6	-65.4	3.5	1.51e+00	0	40	104	0	60	65653
2026-01-21 12:22:01.64	19.25	0.20	-52.5	-65.4	3.5	1.52e+00	0	40	104	0	60	65144
2026-01-21 12:22:02.65	19.33	0.24	-52.3	-65.2	3.5	1.52e+00	0	40	104	0	60	63826
2026-01-21 12:22:03.66	19.41	0.29	-52.6	-65.5	3.5	1.52e+00	0	40	104	0	60	66076
2026-01-21 12:22:04.67	19.48	0.34	-52.3	-65.2	3.5	1.51e+00	0	40	104	0	60	63878
2026-01-21 12:22:05.67	19.56	0.39	-52.3	-65.2	3.5	1.52e+00	0	40	104	0	60	64140
2026-01-21 12:22:06.68	19.63	0.44	-52.1	-65.0	3.5	1.52e+00	0	40	104	0	60	62566
2026-01-21 12:22:07.70	19.71	0.49	-52.0	-64.9	3.5	1.51e+00	0	40	104	0	60	61423
2026-01-21 12:22:08.71	19.79	0.54	-51.8	-64.6	3.5	1.52e+00	0	40	104	0	60	59696
2026-01-21 12:22:09.71	19.86	0.59	-51.7	-64.6	3.5	1.52e+00	0	40	104	0	60	59541
2026-01-21 12:22:10.72	19.94	0.64	-51.6	-64.5	3.5	1.52e+00	0	40	104	0	60	59097
2026-01-21 12:22:11.73	20.02	0.69	-51.6	-64.5	3.5	1.52e+00	0	40	104	0	60	58746
2026-01-21 12:22:12.74	20.09	0.74	-51.5	-64.3	3.5	1.52e+00	0	40	104	0	60	57798
2026-01-21 12:22:13.75	20.17	0.79	-51.5	-64.4	3.5	1.52e+00	0	40	104	0	60	58250
2026-01-21 12:22:14.76	20.25	0.84	-51.4	-64.3	3.5	1.52e+00	0	40	104	0	60	57545
2026-01-21 12:22:15.77	20.33	0.89	-51.3	-64.1	3.5	1.52e+00	0	40	104	0	60	56166
2026-01-21 12:22:16.78	20.41	0.94	-51.1	-63.9	3.5	1.52e+00	0	40	104	0	60	55046
2026-01-21 12:22:17.79	20.49	0.99	-51.0	-63.9	3.5	1.51e+00	0	40	104	0	60	54797
2026-01-21 12:22:18.80	20.56	1.04	-50.8	-63.7	3.5	1.52e+00	0	40	104	0	60	54048
2026-01-21 12:22:19.81	20.64	1.09	-50.7	-63.6	3.5	1.52e+00	0	40	104	0	60	53100
2026-01-21 12:22:20.82	20.72	1.14	-50.6	-63.4	3.5	1.52e+00	0	40	104	0	60	52143
2026-01-21 12:22:21.83	20.80	1.19	-50.4	-63.4	3.5	1.52e+00	0	40	104	0	60	51662
2026-01-21 12:22:22.84	20.88	1.24	-50.1	-63.0	3.5	1.52e+00	0	40	104	0	60	49390
2026-01-21 12:22:23.85	20.96	1.29	-49.8	-62.7	3.5	1.52e+00	0	40	104	0	60	47746
2026-01-21 12:22:24.86	21.04	1.34	-49.3	-62.1	3.5	1.51e+00	0	40	104	0	60	44808
2026-01-21 12:22:25.87	21.12	1.39	-49.2	-62.1	3.5	1.52e+00	0	40	104	0	60	44555
2026-01-21 12:22:26.88	21.21	1.44	-49.2	-62.1	3.5	1.52e+00	0	40	104	0	60	44609
2026-01-21 12:22:27.89	21.29	1.49	-49.4	-62.3	3.5	1.51e+00	0	40	104	0	60	45693
2026-01-21 12:22:28.90	21.37	1.54	-49.3	-62.1	3.5	1.52e+00	0	40	104	0	60	44939
2026-01-21 12:22:29.90	21.45	1.59	-49.3	-62.1	3.5	1.51e+00	0	40	104	0	60	44595
2026-01-21 12:22:30.91	21.53	1.64	-49.2	-62.1	3.5	1.52e+00	0	40	104	0	60	44631
2026-01-21 12:22:31.92	21.61	1.69	-49.2	-62.1	3.5	1.52e+00	0	40	104	0	60	44492
2026-01-21 12:22:32.93	21.70	1.74	-49.2	-61.9	3.5	1.52e+00	0	40	104	0	60	43840
2026-01-21 12:22:33.94	21.78	1.79	-49.2	-61.9	3.5	1.52e+00	0	41	104	0	60	43888
2026-01-21 12:22:34.95	21.86	1.84	-49.3	-62.1	3.5	1.52e+00	0	40	104	0	60	44509
2026-01-21 12:22:35.96	21.95	1.90	-49.4	-62.2	3.5	1.52e+00	0	40	104	0	60	44964
2026-01-21 12:22:36.97	22.03	1.95	-49.6	-62.5	3.5	1.52e+00	0	40	104	0	60	46635
2026-01-21 12:22:37.98	22.11	2.00	-49.7	-62.5	3.5	1.52e+00	0	40	104	0	60	46867
2026-01-21 12:22:38.99	22.20	2.05	-49.6	-62.4	3.5	1.52e+00	0	40	104	0	60	46290
2026-01-21 12:22:40.00	22.28	2.10	-49.6	-62.2	3.5	1.52e+00	0	40	104	0	60	45136
2026-01-21 12:22:41.01	22.37	2.15	-49.8	-62.5	3.5	1.52e+00	0	40	104	0	60	46814
2026-01-21 12:22:42.02	22.45	2.20	-49.7	-61.8	3.5	1.52e+00	0	40	104	0	60	43250
2026-01-21 12:22:43.03	22.54	2.25	-49.6	-61.7	3.5	1.52e+00	0	40	104	0	60	42444
2026-01-21 12:22:44.04	22.62	2.30	-49.8	-62.1	3.5	1.52e+00	0	41	104	0	60	44765
2026-01-21 12:22:45.05	22.71	2.35	-49.6	-61.4	3.5	1.51e+00	0	41	104	0	60	41207
2026-01-21 12:22:46.06	22.79	2.41	-49.2	-59.1	4.1	1.50e+00	0	40	104	0	60	31627
2026-01-21 12:22:47.07	22.88	2.46	-47.9	-52.4	8.9	3.29e-01	123	41	0	1048576	60	14559
2026-01-21 12:22:48.08	22.97	2.51	-46.9	-49.9	11.5	4.28e-03	123	40	0	4194304	60	10989
2026-01-21 12:22:49.09	23.05	2.56	-46.0	-48.7	13.6	2.21e-05	120	41	0	7340032	60	9566
2026-01-21 12:22:50.10	23.14	2.61	-43.5	-45.3	16.7	0.00e+00	123	41	0	10485760	60	6458
2026-01-21 12:22:51.11	23.23	2.66	-44.0	-45.8	16.5	0.00e+00	122	40	0	13631488	60	6875
2026-01-21 12:22:52.12	23.32	2.71	-42.9	-44.4	17.8	0.00e+00	123	41	0	16777216	60	5850
2026-01-21 12:22:53.12	23.40	2.76	-42.8	-44.4	17.5	0.00e+00	124	41	0	19922944	58	6555
2026-01-21 12:22:54.14	23.49	2.82	-43.7	-45.6	15.7	0.00e+00	122	40	0	23068672	58	7539
2026-01-21 12:22:55.14	23.58	2.87	-44.5	-46.7	14.7	0.00e+00	123	40	0	26214400	60	7603
2026-01-21 12:22:56.15	23.67	2.92	-45.6	-48.4	12.5	1.06e-05	123	40	0	29360128	60	9267
2026-01-21 12:22:57.16	23.76	2.97	-47.7	-52.4	8.5	5.16e-02	123	40	0	32505856	60	14658
2026-01-21 12:22:58.17	23.85	3.02	-48.7	-57.2	3.8	1.37e+00	0	40	104	34603008	60	25535
2026-01-21 12:22:59.18	23.94	3.07	-43.0	-44.7	17.1	6.33e-05	123	40	0	34603008	60	6051
2026-01-21 12:23:00.19	24.03	3.13	-43.0	-44.7	16.6	0.00e+00	123	40	0	37748736	58	6802
2026-01-21 12:23:01.20	24.12	3.18	-49.2	-61.0	3.5	1.44e+00	0	40	104	39845888	60	39451
2026-01-21 12:23:02.21	24.21	3.23	-48.7	-57.3	4.9	1.35e+00	120	40	104	39845888	60	25725
2026-01-21 12:23:03.21	24.30	3.28	-48.8	-54.7	6.2	1.56e-03	122	41	0	40894464	60	19147
2026-01-21 12:23:04.22	24.39	3.33	-45.3	-47.7	14.2	7.00e-07	120	40	0	44040192	60	8509
2026-01-21 12:23:05.24	24.48	3.39	-45.2	-47.5	14.8	7.00e-07	120	41	0	47185920	60	8291
2026-01-21 12:23:06.24	24.58	3.44	-44.5	-46.5	15.1	0.00e+00	122	41	0	50331648	60	7432
2026-01-21 12:23:07.25	24.67	3.49	-45.3	-47.6	15.0	0.00e+00	120	41	0	53477376	60	8424
2026-01-21 12:23:08.26	24.76	3.54	-44.5	-46.4	15.5	7.00e-07	122	41	0	56623104	60	7354
2026-01-21 12:23:09.27	24.85	3.59	-45.2	-47.4	14.9	1.50e-06	120	41	0	59768832	60	8273
2026-01-21 12:23:10.28	24.95	3.65	-44.1	-45.9	15.7	0.00e+00	122	40	0	62914560	60	6951
2026-01-21 12:23:11.29	25.04	3.70	-44.4	-46.4	16.0	0.00e+00	123	41	0	66060288	60	7360
2026-01-21 12:23:12.30	25.13	3.75	-44.2	-46.2	15.6	0.00e+00	122	41	0	69206016	60	7149
2026-01-21 12:23:13.31	25.23	3.80	-44.9	-47.0	15.8	0.00e+00	121	41	0	72351744	60	7880
2026-01-21 12:23:14.31	25.32	3.86	-44.9	-46.8	15.1	0.00e+00	123	41	0	75497472	60	7707
2026-01-21 12:23:15.33	25.42	3.91	-44.5	-46.5	16.3	0.00e+00	120	41	0	78643200	60	7387
2026-01-21 12:23:16.34	25.51	3.96	-44.2	-46.0	16.8	0.00e+00	123	41	0	81788928	60	6974
2026-01-21 12:23:17.35	25.61	4.01	-44.1	-45.9	16.0	0.00e+00	120	41	0	84934656	60	6952
2026-01-21 12:23:18.36	25.70	4.07	-43.7	-45.4	17.1	0.00e+00	123	41	0	88080384	60	6550
2026-01-21 12:23:19.37	25.80	4.12	-43.2	-44.8	17.1	0.00e+00	120	41	0	91226112	60	6104
2026-01-21 12:23:20.38	25.90	4.17	-44.2	-46.0	16.3	0.00e+00	123	41	0	94371840	60	7027
2026-01-21 12:23:21.39	25.99	4.22	-43.0	-44.7	17.0	0.00e+00	123	41	0	97517568	60	5997
2026-01-21 12:23:22.40	26.09	4.28	-44.2	-46.2	15.5	0.00e+00	123	41	0	100663296	60	7145
2026-01-21 12:23:23.41	26.19	4.33	-43.8	-45.5	17.0	0.00e+00	122	41	0	103809024	60	6638
2026-01-21 12:23:24.42	26.29	4.38	-44.0	-45.8	16.4	0.00e+00	123	41	0	106954752	60	6862
2026-01-21 12:23:25.43	26.38	4.43	-43.8	-45.7	16.1	0.00e+00	120	41	0	110100480	60	6741
2026-01-21 12:23:26.44	26.48	4.49	-43.4	-45.1	17.2	0.00e+00	123	41	0	113246208	60	6311
2026-01-21 12:23:27.45	26.58	4.54	-45.1	-47.3	15.2	0.00e+00	123	41	0	116391936	60	8101
2026-01-21 12:23:28.46	26.68	4.59	-44.6	-46.6	16.3	0.00e+00	123	41	0	119537664	60	7489
2026-01-21 12:23:29.47	26.78	4.65	-44.7	-46.7	16.7	0.00e+00	120	41	0	122683392	60	7553
2026-01-21 12:23:30.48	26.88	4.70	-44.4	-46.3	15.4	0.00e+00	122	41	0	125829120	60	7275
2026-01-21 12:23:31.49	26.98	4.75	-45.3	-47.4	15.3	7.00e-07	123	41	0	128974848	60	8271
2026-01-21 12:23:32.50	27.08	4.81	-45.0	-47.1	15.3	0.00e+00	123	41	0	132120576	60	7952
2026-01-21 12:23:33.51	27.18	4.86	-45.2	-47.4	14.8	0.00e+00	123	41	0	135266304	60	8270
2026-01-21 12:23:34.52	27.28	4.91	-44.3	-46.1	16.4	0.00e+00	123	41	0	138412032	60	7098
2026-01-21 12:23:35.53	27.38	4.96	-43.8	-45.5	16.7	0.00e+00	122	41	0	141557760	60	6647
2026-01-21 12:23:36.54	27.49	5.02	-44.0	-45.8	16.2	0.00e+00	123	41	0	144703488	60	6863
2026-01-21 12:23:37.55	27.59	5.07	-44.3	-46.3	16.3	0.00e+00	123	41	0	147849216	60	7214
2026-01-21 12:23:38.56	27.69	5.12	-43.8	-45.5	17.3	0.00e+00	123	41	0	150994944	60	6599
2026-01-21 12:23:39.57	27.79	5.18	-44.9	-46.9	15.4	1.75e-05	122	41	0	154140672	60	7750
2026-01-21 12:23:40.58	27.90	5.23	-44.7	-46.7	16.1	0.00e+00	123	41	0	157286400	60	7593
2026-01-21 12:23:41.59	28.00	5.28	-45.6	-47.8	14.0	0.00e+00	120	41	0	161480704	60	8664
2026-01-21 12:23:42.60	28.10	5.34	-45.7	-48.1	14.4	1.50e-06	122	41	0	163577856	60	8880
2026-01-21 12:23:43.60	28.21	5.39	-44.4	-46.3	16.1	0.00e+00	122	41	0	166723584	60	7254
2026-01-21 12:23:44.62	28.31	5.44	-44.1	-45.9	16.3	0.00e+00	123	41	0	169869312	60	6936
2026-01-21 12:23:45.63	28.42	5.50	-44.3	-46.2	16.4	0.00e+00	123	41	0	173015040	60	7144
2026-01-21 12:23:46.64	28.52	5.55	-42.7	-44.2	18.1	0.00e+00	122	41	0	176160768	58	6356
2026-01-21 12:23:47.65	28.63	5.61	-43.1	-44.6	17.7	0.00e+00	123	41	0	180355072	58	6694
2026-01-21 12:23:48.66	28.74	5.66	-43.0	-44.5	17.7	0.00e+00	120	41	0	183500800	58	6638
2026-01-21 12:23:49.67	28.84	5.71	-42.2	-43.5	18.8	0.00e+00	123	41	0	186646528	60	5281
2026-01-21 12:23:50.68	28.95	5.77	-42.6	-44.1	18.6	0.00e+00	123	41	0	188743680	56	7046
2026-01-21 12:23:51.69	29.06	5.82	-42.0	-43.4	18.7	0.00e+00	123	41	0	192937984	58	5814
2026-01-21 12:23:52.70	29.16	5.87	-43.1	-44.6	17.9	0.00e+00	123	41	0	196083712	58	6686
2026-01-21 12:23:53.70	29.27	5.93	-43.1	-44.6	17.7	0.00e+00	120	41	0	199229440	60	5932
2026-01-21 12:23:54.71	29.38	5.98	-42.4	-43.8	18.4	0.00e+00	122	41	0	202375168	58	6107
2026-01-21 12:23:55.72	29.49	6.03	-41.9	-43.3	18.8	0.00e+00	123	41	0	205520896	56	6436
2026-01-21 12:23:56.73	29.60	6.09	-42.4	-43.9	18.4	0.00e+00	123	41	0	208666624	58	6147
2026-01-21 12:23:57.74	29.71	6.14	-42.8	-44.3	18.3	0.00e+00	120	41	0	211812352	58	6465
2026-01-21 12:23:58.75	29.82	6.20	-42.8	-44.3	18.6	0.00e+00	123	41	0	214958080	58	6437
2026-01-21 12:23:59.75	29.93	6.25	-43.2	-44.7	18.2	0.00e+00	123	41	0	218103808	58	6770
2026-01-21 12:24:00.77	30.04	6.30	-43.0	-44.5	18.1	0.00e+00	120	41	0	221249536	58	6640
2026-01-21 12:24:01.78	30.15	6.36	-43.0	-44.6	18.3	0.00e+00	122	41	0	224395264	58	6681
2026-01-21 12:24:02.78	30.26	6.41	-42.7	-44.1	18.0	0.00e+00	123	41	0	227540992	58	6314
2026-01-21 12:24:03.79	30.37	6.46	-42.4	-43.8	18.7	0.00e+00	120	41	0	230686720	58	6084
2026-01-21 12:24:04.80	30.49	6.52	-42.3	-43.7	18.7	0.00e+00	122	41	0	233832448	56	6784
2026-01-21 12:24:05.81	30.60	6.57	-42.3	-43.7	19.1	0.00e+00	122	41	0	236978176	58	6013
2026-01-21 12:24:06.82	30.71	6.63	-41.9	-43.3	19.0	0.00e+00	123	41	0	240123904	58	5736
2026-01-21 12:24:07.84	30.83	6.68	-41.8	-43.1	19.3	0.00e+00	123	41	0	243269632	56	6302
2026-01-21 12:24:08.85	30.94	6.74	-40.7	-41.9	20.4	0.00e+00	122	41	0	246415360	56	5488
2026-01-21 12:24:09.86	31.05	6.79	-40.6	-41.7	20.4	0.00e+00	123	41	0	249561088	54	6057
2026-01-21 12:24:10.86	31.17	6.84	-40.5	-41.7	20.4	0.00e+00	123	41	0	252706816	54	6036
2026-01-21 12:24:11.88	31.28	6.90	-40.4	-41.5	20.6	0.00e+00	120	41	0	255852544	54	5905
2026-01-21 12:24:12.88	31.40	6.95	-40.3	-41.4	20.6	0.00e+00	123	41	0	258998272	54	5858
2026-01-21 12:24:13.89	31.51	7.01	-40.6	-41.7	20.5	0.00e+00	122	41	0	262144000	54	6051
2026-01-21 12:24:14.90	31.63	7.06	-40.2	-41.3	20.7	0.00e+00	123	41	0	265289728	54	5768
2026-01-21 12:24:15.91	31.75	7.11	-40.1	-41.2	20.8	0.00e+00	123	41	0	268435456	54	5695
2026-01-21 12:24:16.92	31.87	7.17	-40.2	-41.3	20.8	0.00e+00	123	41	0	271581184	54	5761
2026-01-21 12:24:17.93	31.98	7.22	-40.0	-41.1	20.9	0.00e+00	123	41	0	274726912	54	5623
2026-01-21 12:24:18.94	32.10	7.28	-40.1	-41.3	20.9	0.00e+00	122	41	0	277872640	54	5731
2026-01-21 12:24:19.95	32.22	7.33	-40.2	-41.4	20.8	0.00e+00	123	41	0	281018368	54	5799
2026-01-21 12:24:20.96	32.34	7.39	-40.1	-41.2	20.9	0.00e+00	123	41	0	284164096	54	5694
2026-01-21 12:24:21.97	32.46	7.44	-40.1	-41.3	20.9	0.00e+00	123	41	0	287309824	54	5748
2026-01-21 12:24:22.98	32.58	7.49	-40.2	-41.4	20.7	0.00e+00	122	41	0	290455552	54	5825
2026-01-21 12:24:23.98	32.70	7.55	-40.1	-41.2	20.9	0.00e+00	120	41	0	293601280	54	5718
2026-01-21 12:24:24.99	32.82	7.60	-39.9	-41.1	21.1	0.00e+00	123	41	0	296747008	54	5617
2026-01-21 12:24:26.00	32.94	7.66	-40.0	-41.2	21.0	0.00e+00	123	41	0	299892736	54	5676
2026-01-21 12:24:27.01	33.06	7.71	-39.8	-40.9	21.1	0.00e+00	123	41	0	303038464	54	5522
2026-01-21 12:24:28.02	33.18	7.77	-39.9	-41.0	21.1	0.00e+00	123	41	0	306184192	54	5552
2026-01-21 12:24:29.03	33.30	7.82	-39.8	-40.9	21.3	0.00e+00	122	41	0	309329920	54	5490
2026-01-21 12:24:30.04	33.43	7.88	-39.8	-40.9	21.2	0.00e+00	123	41	0	312475648	52	6200
2026-01-21 12:24:31.05	33.55	7.93	-39.7	-40.8	21.3	0.00e+00	123	41	0	315621376	52	6118
2026-01-21 12:24:32.06	33.67	7.98	-39.7	-40.8	21.3	0.00e+00	122	41	0	318767104	52	6091
2026-01-21 12:24:33.07	33.80	8.04	-39.5	-40.6	21.6	0.00e+00	123	41	0	321912832	52	5968
2026-01-21 12:24:34.08	33.92	8.09	-39.5	-40.6	21.5	0.00e+00	123	41	0	325058560	52	5967
2026-01-21 12:24:35.09	34.05	8.15	-39.5	-40.6	21.4	0.00e+00	123	41	0	328204288	52	5971
2026-01-21 12:24:36.10	34.17	8.20	-39.6	-40.7	21.6	0.00e+00	122	41	0	331350016	52	6006
2026-01-21 12:24:37.11	34.30	8.26	-39.8	-40.9	21.3	0.00e+00	123	41	0	334495744	52	6182
2026-01-21 12:24:38.12	34.43	8.31	-39.6	-40.7	21.6	0.00e+00	123	41	0	337641472	52	6003
2026-01-21 12:24:39.13	34.55	8.37	-39.6	-40.7	21.5	0.00e+00	122	41	0	340787200	52	6004
2026-01-21 12:24:40.14	34.68	8.42	-39.5	-40.6	21.6	0.00e+00	122	41	0	343932928	52	5933
2026-01-21 12:24:41.15	34.81	8.47	-39.7	-40.8	21.4	0.00e+00	123	41	0	347078656	52	6090
2026-01-21 12:24:42.16	34.94	8.53	-39.9	-41.0	21.3	0.00e+00	123	41	0	350224384	52	6223
2026-01-21 12:24:43.17	35.06	8.58	-39.8	-40.9	21.3	0.00e+00	123	41	0	353370112	52	6141
2026-01-21 12:24:44.18	35.19	8.64	-39.4	-40.4	21.7	0.00e+00	123	41	0	356515840	52	5839
2026-01-21 12:24:45.18	35.32	8.69	-39.3	-40.3	21.7	0.00e+00	123	41	0	359661568	52	5786
2026-01-21 12:24:46.19	35.45	8.75	-39.3	-40.3	21.8	0.00e+00	121	41	0	362807296	52	5763
2026-01-21 12:24:47.20	35.58	8.80	-39.6	-40.7	21.4	0.00e+00	122	41	0	365953024	52	6003
2026-01-21 12:24:48.21	35.71	8.85	-39.6	-40.7	21.5	0.00e+00	122	41	0	369098752	52	6006
2026-01-21 12:24:49.22	35.85	8.91	-39.5	-40.6	21.5	0.00e+00	123	41	0	372244480	52	5935
2026-01-21 12:24:50.23	35.98	8.96	-39.3	-40.3	21.8	0.00e+00	123	41	0	375390208	52	5784
2026-01-21 12:24:51.24	36.11	9.02	-39.3	-40.3	21.8	0.00e+00	123	41	0	378535936	52	5783
2026-01-21 12:24:52.25	36.24	9.07	-39.4	-40.4	21.8	0.00e+00	122	41	0	381681664	52	5850
2026-01-21 12:24:53.26	36.38	9.13	-39.2	-40.3	21.8	0.00e+00	122	41	0	384827392	52	5759
2026-01-21 12:24:54.27	36.51	9.18	-39.2	-40.2	21.9	0.00e+00	123	41	0	387973120	52	5712
2026-01-21 12:24:55.28	36.64	9.24	-39.3	-40.4	21.8	0.00e+00	123	41	0	391118848	52	5817
2026-01-21 12:24:56.29	36.78	9.29	-39.4	-40.4	21.7	0.00e+00	123	41	0	394264576	52	5828
2026-01-21 12:24:57.29	36.91	9.34	-39.4	-40.4	21.8	0.00e+00	120	41	0	397410304	52	5853
2026-01-21 12:24:58.30	37.05	9.40	-39.8	-40.9	21.5	0.00e+00	123	41	0	400556032	52	6179
2026-01-21 12:24:59.31	37.19	9.45	-39.7	-40.7	21.6	0.00e+00	120	41	0	403701760	52	6060
2026-01-21 12:25:00.32	37.32	9.51	-39.7	-40.8	21.5	0.00e+00	122	41	0	406847488	52	6096
2026-01-21 12:25:01.33	37.46	9.56	-40.2	-41.3	20.8	0.00e+00	123	41	0	409993216	52	6488
2026-01-21 12:25:02.34	37.60	9.61	-39.5	-40.6	21.7	0.00e+00	122	41	0	413138944	52	5963
2026-01-21 12:25:03.35	37.74	9.67	-39.9	-41.0	21.2	0.00e+00	122	41	0	416284672	52	6272
2026-01-21 12:25:04.36	37.87	9.72	-39.3	-40.3	21.8	0.00e+00	122	41	0	419430400	52	5781
2026-01-21 12:25:05.37	38.01	9.78	-39.3	-40.4	21.9	0.00e+00	120	41	0	422576128	52	5794
2026-01-21 12:25:06.38	38.15	9.83	-39.3	-40.3	21.8	0.00e+00	122	41	0	425721856	52	5784
2026-01-21 12:25:07.39	38.29	9.89	-39.3	-40.4	22.1	0.00e+00	123	41	0	428867584	52	5795
2026-01-21 12:25:08.40	38.43	9.94	-39.1	-40.2	22.1	0.00e+00	123	41	0	432013312	52	5677
2026-01-21 12:25:09.41	38.58	9.99	-39.1	-40.1	22.2	0.00e+00	121	41	0	435159040	52	5654
2026-01-21 12:25:10.42	38.72	10.05	-39.0	-40.0	22.1	0.00e+00	123	41	0	438304768	52	5583
2026-01-21 12:25:11.43	38.86	10.10	-38.7	-39.7	22.4	0.00e+00	123	41	0	441450496	52	5353
2026-01-21 12:25:12.44	39.00	10.16	-38.8	-39.8	22.3	0.00e+00	123	41	0	444596224	50	6121
2026-01-21 12:25:13.45	39.15	10.21	-38.8	-39.8	22.4	0.00e+00	123	41	0	447741952	50	6082
2026-01-21 12:25:14.46	39.29	10.26	-38.9	-39.9	22.2	0.00e+00	121	41	0	450887680	50	6195
2026-01-21 12:25:15.47	39.43	10.32	-39.0	-40.0	22.2	0.00e+00	122	41	0	454033408	50	6240
2026-01-21 12:25:16.48	39.58	10.37	-39.0	-40.0	22.4	0.00e+00	123	41	0	457179136	50	6220
2026-01-21 12:25:17.49	39.72	10.42	-38.8	-39.8	22.4	0.00e+00	120	41	0	460324864	50	6109
2026-01-21 12:25:18.50	39.87	10.48	-38.7	-39.7	22.4	0.00e+00	123	41	0	463470592	50	6008
2026-01-21 12:25:19.51	40.02	10.53	-38.7	-39.7	22.3	0.00e+00	121	41	0	466616320	50	6030
2026-01-21 12:25:20.52	40.16	10.59	-38.7	-39.7	22.4	0.00e+00	123	41	0	469762048	50	6040
2026-01-21 12:25:21.53	40.31	10.64	-38.7	-39.7	22.3	0.00e+00	120	41	0	472907776	50	5996
2026-01-21 12:25:22.54	40.46	10.69	-38.7	-39.7	22.4	0.00e+00	123	41	0	476053504	50	6053
2026-01-21 12:25:23.55	40.61	10.75	-38.8	-39.8	22.4	0.00e+00	123	41	0	479199232	50	6093
2026-01-21 12:25:24.56	40.76	10.80	-38.7	-39.7	22.5	0.00e+00	121	41	0	482344960	50	6038
2026-01-21 12:25:25.57	40.91	10.85	-38.7	-39.7	22.5	0.00e+00	122	41	0	485490688	50	6026
2026-01-21 12:25:26.58	41.06	10.91	-38.8	-39.8	22.5	0.00e+00	120	41	0	488636416	50	6122
2026-01-21 12:25:27.59	41.21	10.96	-39.0	-40.0	22.3	0.00e+00	122	41	0	491782144	50	6238
2026-01-21 12:25:28.60	41.36	11.01	-38.7	-39.7	22.5	0.00e+00	122	41	0	494927872	50	6031
2026-01-21 12:25:29.60	41.51	11.07	-38.8	-39.8	22.5	0.00e+00	123	41	0	498073600	50	6119
2026-01-21 12:25:30.61	41.66	11.12	-38.8	-39.8	22.4	0.00e+00	122	41	0	501219328	50	6110
2026-01-21 12:25:31.62	41.81	11.17	-38.6	-39.6	22.5	0.00e+00	120	41	0	504365056	50	5993
2026-01-21 12:25:32.63	41.96	11.22	-38.5	-39.5	22.7	0.00e+00	123	41	0	507510784	50	5895
2026-01-21 12:25:33.64	42.12	11.28	-38.8	-39.8	22.5	0.00e+00	122	41	0	510656512	50	6103
2026-01-21 12:25:34.65	42.27	11.33	-38.6	-39.6	22.6	0.00e+00	122	41	0	513802240	50	5971
2026-01-21 12:25:35.66	42.43	11.38	-38.6	-39.6	22.6	0.00e+00	123	41	0	516947968	50	5980
2026-01-21 12:25:36.67	42.58	11.44	-38.5	-39.5	22.7	0.00e+00	123	41	0	520093696	50	5866
2026-01-21 12:25:37.68	42.74	11.49	-38.5	-39.5	22.8	0.00e+00	122	41	0	523239424	50	5890
2026-01-21 12:25:38.69	42.90	11.54	-38.4	-39.4	22.8	0.00e+00	123	41	0	526385152	50	5820
2026-01-21 12:25:39.70	43.05	11.59	-38.5	-39.5	22.6	0.00e+00	122	41	0	529530880	50	5907
2026-01-21 12:25:40.71	43.21	11.65	-38.3	-39.3	22.8	0.00e+00	123	41	0	532676608	50	5772
2026-01-21 12:25:41.72	43.37	11.70	-38.4	-39.4	22.7	0.00e+00	122	41	0	535822336	50	5797
2026-01-21 12:25:42.73	43.53	11.75	-38.6	-39.5	22.6	0.00e+00	122	41	0	538968064	50	5921
2026-01-21 12:25:43.74	43.69	11.80	-38.6	-39.6	22.6	0.00e+00	122	41	0	543162368	50	5949
2026-01-21 12:25:44.75	43.85	11.85	-39.0	-40.0	22.4	0.00e+00	120	41	0	546308096	50	6246
2026-01-21 12:25:45.76	44.01	11.91	-38.7	-39.7	22.5	0.00e+00	122	41	0	549453824	50	6035
2026-01-21 12:25:46.77	44.17	11.96	-38.5	-39.5	22.7	0.00e+00	122	41	0	552599552	50	5889
2026-01-21 12:25:47.78	44.33	12.01	-38.6	-39.6	22.5	0.00e+00	122	41	0	554696704	50	5966
2026-01-21 12:25:48.79	44.49	12.06	-38.8	-39.8	22.5	0.00e+00	123	41	0	557842432	50	6080
2026-01-21 12:25:49.79	44.65	12.11	-38.4	-39.4	22.7	0.00e+00	120	41	0	562036736	50	5796
2026-01-21 12:25:50.80	44.81	12.16	-38.3	-39.2	22.9	0.00e+00	123	41	0	565182464	50	5719
2026-01-21 12:25:51.81	44.98	12.22	-38.2	-39.2	22.9	0.00e+00	123	41	0	568328192	50	5687
2026-01-21 12:25:52.82	45.14	12.27	-38.4	-39.4	22.8	0.00e+00	122	41	0	571473920	50	5818
2026-01-21 12:25:53.83	45.31	12.32	-38.6	-39.6	22.6	0.00e+00	122	41	0	574619648	50	5978
2026-01-21 12:25:54.84	45.47	12.37	-38.6	-39.6	22.7	0.00e+00	123	41	0	577765376	50	5942
2026-01-21 12:25:55.86	45.64	12.42	-38.6	-39.5	22.7	0.00e+00	120	41	0	580911104	50	5920
2026-01-21 12:25:56.86	45.80	12.47	-39.4	-40.5	22.3	0.00e+00	123	41	0	584056832	50	6595
2026-01-21 12:25:57.88	45.97	12.52	-39.1	-40.0	22.5	0.00e+00	123	41	0	587202560	50	6274
2026-01-21 12:25:58.88	46.14	12.57	-38.6	-39.6	22.7	0.00e+00	123	41	0	590348288	50	5944
2026-01-21 12:25:59.89	46.31	12.62	-38.5	-39.4	22.8	0.00e+00	122	41	0	593494016	50	5850
2026-01-21 12:26:00.90	46.47	12.67	-38.6	-39.5	22.7	0.00e+00	122	41	0	596639744	50	5914
2026-01-21 12:26:01.91	46.64	12.72	-38.3	-39.3	22.9	0.00e+00	120	41	0	599785472	50	5754
2026-01-21 12:26:02.92	46.81	12.77	-38.4	-39.4	22.9	0.00e+00	120	41	0	602931200	50	5828
2026-01-21 12:26:03.93	46.98	12.82	-38.6	-39.5	22.7	0.00e+00	123	41	0	606076928	50	5920
2026-01-21 12:26:04.95	47.16	12.87	-38.6	-39.6	22.6	0.00e+00	122	41	0	609222656	50	5939
2026-01-21 12:26:05.96	47.33	12.92	-38.8	-39.8	22.4	0.00e+00	122	41	0	612368384	50	6087
2026-01-21 12:26:06.97	47.50	12.97	-38.8	-39.9	22.4	0.00e+00	120	41	0	615514112	50	6138
2026-01-21 12:26:07.98	47.67	13.02	-38.7	-39.7	22.4	0.00e+00	123	41	0	618659840	50	6057
2026-01-21 12:26:08.99	47.85	13.07	-38.7	-39.7	22.5	0.00e+00	122	41	0	621805568	50	6052
2026-01-21 12:26:10.00	48.02	13.12	-38.8	-39.8	22.4	0.00e+00	123	41	0	624951296	50	6116
2026-01-21 12:26:11.01	48.19	13.17	-39.0	-40.0	22.2	0.00e+00	123	41	0	628097024	50	6238
2026-01-21 12:26:12.02	48.37	13.22	-39.2	-40.3	22.1	0.00e+00	121	41	0	631242752	50	6430
2026-01-21 12:26:13.03	48.54	13.27	-39.3	-40.4	22.2	0.00e+00	120	41	0	634388480	50	6507
2026-01-21 12:26:14.04	48.72	13.32	-39.2	-40.2	22.3	0.00e+00	123	41	0	637534208	50	6391
2026-01-21 12:26:15.05	48.90	13.37	-38.9	-39.9	22.5	0.00e+00	121	41	0	640679936	50	6156
2026-01-21 12:26:16.06	49.07	13.41	-38.7	-39.7	22.7	0.00e+00	123	41	0	643825664	50	6003
2026-01-21 12:26:17.07	49.25	13.46	-38.7	-39.7	22.6	0.00e+00	120	41	0	646971392	50	6000
2026-01-21 12:26:18.08	49.43	13.51	-38.6	-39.6	22.7	0.00e+00	121	41	0	650117120	50	5974
2026-01-21 12:26:19.09	49.61	13.56	-38.6	-39.6	22.8	0.00e+00	122	41	0	653262848	50	5986
2026-01-21 12:26:20.10	49.79	13.61	-38.6	-39.6	22.8	0.00e+00	123	41	0	656408576	50	5938
2026-01-21 12:26:21.11	49.97	13.65	-38.7	-39.7	22.6	0.00e+00	122	41	0	659554304	50	5996
2026-01-21 12:26:22.12	50.15	13.70	-38.5	-39.5	22.8	0.00e+00	123	41	0	662700032	50	5887
2026-01-21 12:26:23.13	50.33	13.75	-38.5	-39.5	22.9	0.00e+00	120	41	0	665845760	50	5873
2026-01-21 12:26:24.14	50.51	13.80	-38.6	-39.6	22.6	0.00e+00	122	41	0	668991488	50	5991
2026-01-21 12:26:25.15	50.69	13.84	-38.6	-39.6	22.6	0.00e+00	120	41	0	672137216	50	5946
2026-01-21 12:26:26.16	50.87	13.89	-38.6	-39.6	22.6	0.00e+00	123	41	0	675282944	50	5966
2026-01-21 12:26:27.17	51.06	13.94	-38.7	-39.7	22.5	0.00e+00	120	41	0	678428672	50	6046
2026-01-21 12:26:28.18	51.24	13.98	-38.6	-39.6	22.6	0.00e+00	123	41	0	681574400	50	5969
2026-01-21 12:26:29.19	51.43	14.03	-38.7	-39.7	22.7	0.00e+00	122	41	0	684720128	50	6016
2026-01-21 12:26:30.19	51.61	14.07	-38.6	-39.6	22.7	0.00e+00	123	41	0	687865856	50	5938
2026-01-21 12:26:31.20	51.79	14.12	-38.6	-39.6	22.8	0.00e+00	123	41	0	691011584	50	5943
2026-01-21 12:26:32.21	51.98	14.17	-38.7	-39.6	22.6	0.00e+00	123	41	0	694157312	50	5990
2026-01-21 12:26:33.22	52.17	14.21	-38.2	-39.2	23.0	0.00e+00	122	41	0	697303040	50	5694
2026-01-21 12:26:34.23	52.35	14.26	-38.4	-39.4	22.9	0.00e+00	122	41	0	700448768	50	5807
2026-01-21 12:26:35.24	52.54	14.30	-38.4	-39.4	22.9	0.00e+00	120	41	0	703594496	50	5841
2026-01-21 12:26:36.25	52.73	14.35	-38.5	-39.5	22.7	0.00e+00	123	41	0	706740224	50	5896
2026-01-21 12:26:37.26	52.92	14.39	-38.6	-39.6	22.8	0.00e+00	123	41	0	709885952	50	5930
2026-01-21 12:26:38.27	53.11	14.44	-38.5	-39.5	22.7	0.00e+00	123	41	0	713031680	50	5912
2026-01-21 12:26:39.28	53.30	14.48	-38.5	-39.5	22.6	0.00e+00	122	41	0	716177408	50	5917
2026-01-21 12:26:40.29	53.49	14.52	-38.6	-39.6	22.5	0.00e+00	123	41	0	719323136	50	5981
2026-01-21 12:26:41.30	53.68	14.57	-38.5	-39.5	22.6	0.00e+00	122	41	0	722468864	50	5900
2026-01-21 12:26:42.31	53.87	14.61	-38.7	-39.7	22.6	0.00e+00	122	41	0	725614592	50	6005
2026-01-21 12:26:43.32	54.06	14.66	-38.5	-39.5	22.8	0.00e+00	121	41	0	728760320	50	5892
2026-01-21 12:26:44.33	54.26	14.70	-38.5	-39.5	22.9	0.00e+00	122	41	0	731906048	50	5861
2026-01-21 12:26:45.34	54.45	14.74	-38.5	-39.5	22.8	0.00e+00	120	41	0	735051776	50	5890
2026-01-21 12:26:46.35	54.64	14.78	-38.5	-39.4	22.9	0.00e+00	123	41	0	738197504	50	5839
2026-01-21 12:26:47.36	54.84	14.83	-38.2	-39.2	23.0	0.00e+00	120	41	0	741343232	50	5677
2026-01-21 12:26:48.36	55.03	14.87	-38.2	-39.2	23.0	0.00e+00	123	41	0	744488960	50	5674
2026-01-21 12:26:49.37	55.23	14.91	-38.2	-39.1	23.0	0.00e+00	122	41	0	747634688	50	5656
2026-01-21 12:26:50.38	55.42	14.95	-38.2	-39.2	23.0	0.00e+00	120	41	0	750780416	50	5686
2026-01-21 12:26:51.39	55.62	14.99	-38.4	-39.3	22.8	0.00e+00	123	41	0	753926144	50	5789
2026-01-21 12:26:52.40	55.81	15.04	-38.2	-39.2	23.0	0.00e+00	120	41	0	757071872	50	5681
2026-01-21 12:26:53.42	56.01	15.08	-38.4	-39.4	22.8	0.00e+00	123	41	0	760217600	50	5823
2026-01-21 12:26:54.43	56.21	15.12	-38.2	-39.1	23.0	0.00e+00	120	41	0	763363328	50	5651
2026-01-21 12:26:55.43	56.41	15.16	-38.4	-39.4	22.8	0.00e+00	122	41	0	766509056	50	5811
2026-01-21 12:26:56.44	56.61	15.20	-38.2	-39.2	23.0	0.00e+00	122	41	0	769654784	50	5667
2026-01-21 12:26:57.45	56.81	15.24	-38.2	-39.1	23.1	0.00e+00	122	41	0	772800512	50	5652
2026-01-21 12:26:58.46	57.01	15.28	-38.1	-39.1	23.1	0.00e+00	123	41	0	775946240	50	5624
2026-01-21 12:26:59.47	57.21	15.32	-38.0	-39.0	23.2	0.00e+00	123	41	0	779091968	50	5563
2026-01-21 12:27:00.48	57.41	15.36	-38.0	-39.0	23.2	0.00e+00	120	41	0	782237696	50	5563
2026-01-21 12:27:01.49	57.61	15.40	-37.7	-38.7	23.4	0.00e+00	123	41	0	785383424	48	6021
2026-01-21 12:27:02.50	57.81	15.44	-38.1	-39.0	23.1	0.00e+00	122	41	0	788529152	48	6272
2026-01-21 12:27:03.51	58.02	15.47	-38.1	-39.0	23.2	0.00e+00	123	41	0	791674880	48	6265
2026-01-21 12:27:04.52	58.22	15.51	-38.0	-39.0	23.2	0.00e+00	123	41	0	794820608	48	6227
2026-01-21 12:27:05.53	58.42	15.55	-38.3	-39.3	22.9	0.00e+00	120	41	0	797966336	48	6440
2026-01-21 12:27:06.54	58.63	15.59	-38.3	-39.3	22.9	0.00e+00	123	42	0	801112064	48	6431
2026-01-21 12:27:07.55	58.83	15.63	-38.4	-39.4	22.5	0.00e+00	123	41	0	804257792	48	6532
2026-01-21 12:27:08.56	59.04	15.66	-38.5	-39.5	22.9	0.00e+00	120	41	0	807403520	50	5878
2026-01-21 12:27:09.56	59.24	15.70	-38.7	-39.7	22.7	0.00e+00	122	41	0	810549248	50	6026
2026-01-21 12:27:10.57	59.45	15.74	-38.1	-39.0	23.1	0.00e+00	120	41	0	813694976	50	5587
2026-01-21 12:27:11.58	59.65	15.77	-38.0	-39.0	23.1	0.00e+00	122	41	0	816840704	50	5545
2026-01-21 12:27:12.59	59.86	15.81	-37.8	-38.7	23.4	0.00e+00	122	41	0	819986432	50	5373
2026-01-21 12:27:13.60	60.07	15.84	-37.8	-38.7	23.3	0.00e+00	122	41	0	823132160	50	5376
2026-01-21 12:27:14.61	60.28	15.88	-38.0	-39.0	23.2	0.00e+00	123	41	0	826277888	48	6237
2026-01-21 12:27:15.62	60.49	15.91	-38.2	-39.2	23.2	0.00e+00	122	41	0	829423616	48	6368
2026-01-21 12:27:16.63	60.70	15.95	-38.0	-39.0	23.3	0.00e+00	122	42	0	832569344	48	6216
2026-01-21 12:27:17.64	60.91	15.98	-37.7	-38.6	23.5	0.00e+00	123	41	0	835715072	48	5994
2026-01-21 12:27:18.65	61.12	16.02	-37.8	-38.7	23.5	0.00e+00	120	41	0	838860800	48	6062
2026-01-21 12:27:19.66	61.33	16.05	-37.8	-38.7	23.4	0.00e+00	120	41	0	842006528	48	6054
2026-01-21 12:27:20.67	61.54	16.08	-37.8	-38.7	23.5	0.00e+00	121	41	0	845152256	48	6027
2026-01-21 12:27:21.68	61.75	16.12	-37.8	-38.8	23.6	0.00e+00	123	41	0	848297984	48	6072
2026-01-21 12:27:22.69	61.96	16.15	-38.0	-39.0	23.3	0.00e+00	122	41	0	851443712	48	6224
2026-01-21 12:27:23.70	62.17	16.18	-37.8	-38.7	23.6	0.00e+00	123	41	0	854589440	48	6034
2026-01-21 12:27:24.71	62.39	16.22	-37.9	-38.8	23.4	0.00e+00	123	41	0	857735168	48	6118
2026-01-21 12:27:25.72	62.60	16.25	-38.1	-39.1	23.2	0.00e+00	122	41	0	860880896	48	6286
2026-01-21 12:27:26.73	62.81	16.28	-37.8	-38.7	23.4	0.00e+00	123	41	0	864026624	48	6059
2026-01-21 12:27:27.74	63.03	16.31	-38.0	-38.9	23.3	0.00e+00	123	41	0	868220928	48	6185
2026-01-21 12:27:28.74	63.24	16.34	-38.0	-39.0	23.2	0.00e+00	122	41	0	870318080	48	6248
2026-01-21 12:27:29.76	63.46	16.37	-37.9	-38.9	23.4	0.00e+00	122	41	0	873463808	48	6156
2026-01-21 12:27:30.77	63.67	16.40	-37.9	-38.9	23.4	0.00e+00	123	41	0	876609536	48	6145
2026-01-21 12:27:31.78	63.89	16.43	-37.8	-38.8	23.5	0.00e+00	122	41	0	879755264	48	6080
2026-01-21 12:27:32.79	64.11	16.46	-37.7	-38.7	23.5	0.00e+00	123	41	0	883949568	48	5997
2026-01-21 12:27:33.80	64.32	16.49	-37.8	-38.7	23.5	0.00e+00	122	41	0	887095296	48	6032
2026-01-21 12:27:34.81	64.54	16.52	-37.7	-38.6	23.4	0.00e+00	120	41	0	890241024	48	5992
2026-01-21 12:27:35.82	64.76	16.55	-37.8	-38.7	23.4	0.00e+00	122	41	0	892338176	48	6043
2026-01-21 12:27:36.83	64.98	16.58	-37.8	-38.8	23.5	0.00e+00	123	41	0	895483904	48	6067
2026-01-21 12:27:37.84	65.19	16.60	-37.7	-38.7	23.6	0.00e+00	122	41	0	899678208	48	6027
2026-01-21 12:27:38.85	65.41	16.63	-37.7	-38.6	23.6	0.00e+00	123	41	0	902823936	48	5980
2026-01-21 12:27:39.86	65.63	16.66	-37.6	-38.6	23.6	0.00e+00	122	42	0	905969664	48	5948
2026-01-21 12:27:40.87	65.85	16.68	-37.7	-38.7	23.5	0.00e+00	123	41	0	909115392	48	6015
2026-01-21 12:27:41.88	66.07	16.71	-37.8	-38.7	23.1	0.00e+00	120	41	0	912261120	48	6055
2026-01-21 12:27:42.89	66.29	16.74	-37.9	-38.9	23.4	0.00e+00	123	41	0	915406848	48	6171
2026-01-21 12:27:43.90	66.51	16.76	-37.7	-38.7	23.4	0.00e+00	123	41	0	918552576	48	6005
2026-01-21 12:27:44.91	66.73	16.79	-37.8	-38.8	23.3	0.00e+00	123	41	0	921698304	48	6096
2026-01-21 12:27:45.91	66.95	16.81	-37.9	-38.8	23.2	0.00e+00	122	41	0	924844032	48	6124
2026-01-21 12:27:46.92	67.17	16.84	-38.0	-38.9	23.3	0.00e+00	123	41	0	927989760	48	6187
2026-01-21 12:27:47.93	67.40	16.86	-37.6	-38.6	23.4	0.00e+00	122	41	0	931135488	48	5938
2026-01-21 12:27:48.94	67.62	16.88	-37.6	-38.5	23.5	0.00e+00	122	41	0	934281216	48	5893
2026-01-21 12:27:49.94	67.84	16.91	-37.5	-38.5	23.5	0.00e+00	123	41	0	937426944	48	5875
2026-01-21 12:27:50.95	68.06	16.93	-37.4	-38.4	23.6	0.00e+00	123	41	0	940572672	48	5796
2026-01-21 12:27:51.97	68.29	16.95	-37.5	-38.4	23.5	0.00e+00	122	42	0	943718400	48	5824
2026-01-21 12:27:52.98	68.51	16.97	-37.6	-38.5	23.5	0.00e+00	120	41	0	946864128	48	5900
2026-01-21 12:27:53.98	68.73	17.00	-37.6	-38.5	23.4	0.00e+00	121	41	0	950009856	48	5914
2026-01-21 12:27:54.99	68.96	17.02	-37.6	-38.6	23.4	0.00e+00	122	41	0	953155584	48	5954
2026-01-21 12:27:56.00	69.18	17.04	-37.8	-38.8	23.3	0.00e+00	123	42	0	956301312	48	6077
2026-01-21 12:27:57.01	69.41	17.06	-37.7	-38.7	23.4	0.00e+00	122	42	0	959447040	48	6009
2026-01-21 12:27:58.02	69.63	17.08	-37.8	-38.7	23.4	0.00e+00	123	42	0	962592768	48	6060
2026-01-21 12:27:59.03	69.86	17.10	-37.9	-38.8	23.4	0.00e+00	123	42	0	965738496	48	6109
2026-01-21 12:28:00.04	70.09	17.12	-37.7	-38.7	23.5	0.00e+00	123	41	0	968884224	48	6006
2026-01-21 12:28:01.05	70.31	17.14	-37.7	-38.6	23.6	0.00e+00	123	41	0	972029952	48	5962
2026-01-21 12:28:02.06	70.54	17.15	-37.8	-38.7	23.4	0.00e+00	123	41	0	975175680	48	6045
2026-01-21 12:28:03.07	70.77	17.17	-37.7	-38.6	23.4	0.00e+00	122	42	0	978321408	48	5975
2026-01-21 12:28:04.07	70.99	17.19	-37.7	-38.7	23.4	0.00e+00	122	42	0	981467136	48	6013
2026-01-21 12:28:05.08	71.22	17.21	-37.8	-38.8	23.4	0.00e+00	122	42	0	984612864	48	6070
2026-01-21 12:28:06.09	71.44	17.22	-37.8	-38.8	23.4	0.00e+00	122	41	0	987758592	48	6070
2026-01-21 12:28:07.10	71.67	17.24	-37.9	-38.9	23.3	0.00e+00	123	41	0	990904320	48	6139
2026-01-21 12:28:08.11	71.90	17.26	-37.6	-38.5	23.6	0.00e+00	123	42	0	994050048	48	5906
2026-01-21 12:28:09.11	72.13	17.27	-37.7	-38.7	23.6	0.00e+00	123	42	0	997195776	48	6006
2026-01-21 12:28:10.12	72.36	17.29	-37.5	-38.4	23.7	0.00e+00	123	42	0	1000341504	48	5802
2026-01-21 12:28:11.14	72.59	17.30	-37.5	-38.4	23.7	0.00e+00	122	42	0	1003487232	48	5822
2026-01-21 12:28:12.15	72.82	17.31	-37.6	-38.5	23.5	0.00e+00	123	41	0	1006632960	48	5918
2026-01-21 12:28:13.16	73.04	17.33	-37.6	-38.5	23.5	0.00e+00	123	42	0	1009778688	48	5906
2026-01-21 12:28:14.17	73.27	17.34	-37.6	-38.6	23.5	0.00e+00	122	42	0	1012924416	48	5947
2026-01-21 12:28:15.18	73.50	17.35	-38.1	-39.1	23.4	0.00e+00	123	42	0	1016070144	48	6291
2026-01-21 12:28:16.19	73.73	17.37	-37.9	-38.9	23.4	0.00e+00	122	42	0	1019215872	48	6140
2026-01-21 12:28:17.20	73.96	17.38	-38.1	-39.1	23.4	0.00e+00	123	41	0	1022361600	48	6293
2026-01-21 12:28:18.21	74.19	17.39	-38.2	-39.1	23.4	0.00e+00	123	42	0	1025507328	50	5639
2026-01-21 12:28:19.21	74.42	17.40	-37.7	-38.6	23.4	0.00e+00	122	42	0	1028653056	48	5994
2026-01-21 12:28:20.22	74.65	17.41	-37.8	-38.7	23.4	0.00e+00	120	42	0	1031798784	48	6047
2026-01-21 12:28:21.24	74.88	17.42	-37.8	-38.7	23.4	0.00e+00	122	41	0	1034944512	48	6042
2026-01-21 12:28:22.24	75.11	17.43	-37.7	-38.7	23.5	0.00e+00	120	42	0	1038090240	48	6022
2026-01-21 12:28:23.25	75.34	17.44	-37.7	-38.7	23.4	0.00e+00	120	41	0	1041235968	48	6007
2026-01-21 12:28:24.26	75.58	17.45	-37.6	-38.6	23.5	0.00e+00	122	41	0	1044381696	48	5939
2026-01-21 12:28:25.27	75.81	17.46	-37.6	-38.6	23.6	0.00e+00	123	42	0	1047527424	48	5931
2026-01-21 12:28:26.28	76.04	17.47	-37.6	-38.5	23.5	0.00e+00	123	41	0	1050673152	48	5913
2026-01-21 12:28:27.29	76.27	17.48	-37.6	-38.6	23.5	0.00e+00	120	41	0	1053818880	48	5943
2026-01-21 12:28:28.30	76.50	17.48	-37.5	-38.4	23.6	0.00e+00	123	41	0	1056964608	48	5831
2026-01-21 12:28:29.31	76.73	17.49	-37.6	-38.5	23.5	0.00e+00	120	41	0	1060110336	48	5912
2026-01-21 12:28:30.32	76.96	17.50	-37.5	-38.4	23.6	0.00e+00	122	41	0	1063256064	48	5858
2026-01-21 12:28:31.33	77.20	17.50	-37.6	-38.6	23.6	0.00e+00	121	42	0	1066401792	48	5929
2026-01-21 12:28:32.34	77.43	17.51	-37.6	-38.6	23.4	0.00e+00	123	41	0	1069547520	48	5955
2026-01-21 12:28:33.35	77.66	17.51	-37.7	-38.7	23.4	0.00e+00	122	42	0	1072693248	48	6022
2026-01-21 12:28:34.36	77.89	17.52	-38.1	-39.0	23.2	0.00e+00	120	42	0	1075838976	48	6253
2026-01-21 12:28:35.37	78.12	17.52	-37.6	-38.5	23.7	0.00e+00	123	42	0	1078984704	48	5899
2026-01-21 12:28:36.38	78.36	17.52	-37.6	-38.5	23.6	0.00e+00	122	42	0	1082130432	48	5917
2026-01-21 12:28:37.38	78.59	17.53	-37.6	-38.6	23.5	0.00e+00	122	41	0	1085276160	48	5943
2026-01-21 12:28:38.39	78.82	17.53	-37.8	-38.7	23.6	0.00e+00	123	41	0	1088421888	48	6050
2026-01-21 12:28:39.40	79.05	17.53	-37.9	-38.8	23.5	0.00e+00	123	41	0	1091567616	48	6125
2026-01-21 12:28:40.41	79.28	17.53	-37.7	-38.6	23.5	0.00e+00	123	42	0	1094713344	48	5971
2026-01-21 12:28:41.42	79.52	17.53	-37.7	-38.7	23.5	0.00e+00	121	41	0	1097859072	48	6015
2026-01-21 12:28:42.43	79.75	17.54	-37.6	-38.6	23.4	0.00e+00	120	41	0	1101004800	48	5951
2026-01-21 12:28:43.44	79.98	17.54	-37.7	-38.7	23.4	0.00e+00	123	41	0	1104150528	48	6028
2026-01-21 12:28:44.45	80.21	17.54	-37.8	-38.8	23.3	0.00e+00	123	42	0	1107296256	48	6090
2026-01-21 12:28:45.46	80.45	17.54	-37.8	-38.8	23.4	0.00e+00	121	41	0	1110441984	48	6076
2026-01-21 12:28:46.47	80.68	17.53	-37.8	-38.8	23.3	0.00e+00	123	42	0	1113587712	48	6068
2026-01-21 12:28:47.48	80.91	17.53	-37.6	-38.6	23.6	0.00e+00	123	41	0	1116733440	48	5940
2026-01-21 12:28:48.49	81.14	17.53	-38.1	-39.1	23.2	0.00e+00	123	42	0	1119879168	48	6287
2026-01-21 12:28:49.50	81.38	17.53	-38.0	-39.0	23.4	0.00e+00	123	42	0	1123024896	48	6230
2026-01-21 12:28:50.51	81.61	17.53	-37.9	-38.9	23.3	0.00e+00	122	42	0	1126170624	48	6137
2026-01-21 12:28:51.52	81.84	17.52	-37.9	-38.9	23.3	0.00e+00	122	42	0	1129316352	48	6138
2026-01-21 12:28:52.53	82.07	17.52	-38.0	-39.0	22.9	0.00e+00	123	41	0	1132462080	48	6247
2026-01-21 12:28:53.54	82.31	17.52	-37.9	-38.9	23.3	0.00e+00	122	42	0	1135607808	48	6166
2026-01-21 12:28:54.55	82.54	17.51	-38.4	-39.4	23.3	0.00e+00	123	41	0	1138753536	48	6531
2026-01-21 12:28:55.56	82.77	17.51	-38.1	-39.1	23.5	0.00e+00	123	41	0	1141899264	48	6293
2026-01-21 12:28:56.57	83.00	17.50	-38.3	-39.3	23.3	0.00e+00	123	41	0	1145044992	48	6444
2026-01-21 12:28:57.58	83.24	17.49	-37.9	-38.9	23.3	0.00e+00	122	42	0	1148190720	48	6168
2026-01-21 12:28:58.58	83.46	17.49	-38.0	-38.9	23.3	0.00e+00	122	42	0	1151336448	48	6205
2026-01-21 12:28:59.59	83.70	17.48	-38.1	-39.1	23.1	0.00e+00	123	42	0	1154482176	48	6304
2026-01-21 12:29:00.60	83.93	17.47	-37.8	-38.8	23.4	0.00e+00	123	42	0	1157627904	48	6076
2026-01-21 12:29:01.61	84.16	17.47	-38.7	-39.6	23.3	0.00e+00	122	42	0	1160773632	50	5984
2026-01-21 12:29:02.62	84.39	17.46	-38.0	-38.9	23.4	0.00e+00	123	42	0	1163919360	50	5521
2026-01-21 12:29:03.63	84.62	17.45	-37.9	-38.9	23.4	0.00e+00	122	42	0	1167065088	50	5498
2026-01-21 12:29:04.64	84.85	17.44	-37.8	-38.8	23.4	0.00e+00	123	41	0	1170210816	48	6085
2026-01-21 12:29:05.66	85.09	17.43	-37.9	-38.8	23.4	0.00e+00	122	42	0	1173356544	48	6119
2026-01-21 12:29:06.66	85.32	17.42	-37.8	-38.8	23.3	0.00e+00	120	42	0	1176502272	48	6089
2026-01-21 12:29:07.67	85.55	17.41	-37.8	-38.8	23.4	0.00e+00	123	42	0	1179648000	48	6102
2026-01-21 12:29:08.68	85.78	17.40	-38.1	-39.0	23.1	0.00e+00	122	42	0	1182793728	48	6250
2026-01-21 12:29:09.69	86.01	17.39	-38.1	-39.1	23.2	0.00e+00	122	42	0	1185939456	48	6294
2026-01-21 12:29:10.70	86.24	17.38	-38.1	-39.1	23.3	0.00e+00	120	42	0	1189085184	48	6289
2026-01-21 12:29:11.71	86.47	17.37	-38.0	-38.9	23.3	0.00e+00	122	42	0	1192230912	48	6179
2026-01-21 12:29:12.72	86.70	17.35	-37.9	-38.9	23.3	0.00e+00	120	41	0	1195376640	48	6140
2026-01-21 12:29:13.73	86.93	17.34	-37.8	-38.8	23.4	0.00e+00	123	41	0	1198522368	48	6084
2026-01-21 12:29:14.74	87.16	17.33	-37.7	-38.6	23.4	0.00e+00	123	42	0	1201668096	48	5987
2026-01-21 12:29:15.75	87.39	17.31	-37.6	-38.6	23.5	0.00e+00	123	41	0	1204813824	48	5936
2026-01-21 12:29:16.76	87.62	17.30	-37.7	-38.7	23.4	0.00e+00	122	42	0	1207959552	48	6022
2026-01-21 12:29:17.77	87.85	17.28	-37.8	-38.7	23.4	0.00e+00	120	42	0	1211105280	48	6039
2026-01-21 12:29:18.78	88.08	17.27	-37.7	-38.6	23.6	0.00e+00	123	42	0	1214251008	48	5994
2026-01-21 12:29:19.79	88.30	17.25	-37.8	-38.8	23.4	0.00e+00	122	42	0	1217396736	48	6068
2026-01-21 12:29:20.80	88.53	17.24	-37.6	-38.6	23.6	0.00e+00	122	42	0	1220542464	48	5939
2026-01-21 12:29:21.81	88.76	17.22	-37.7	-38.6	23.6	0.00e+00	123	42	0	1223688192	48	5966
2026-01-21 12:29:22.82	88.99	17.20	-37.7	-38.7	23.4	0.00e+00	122	42	0	1226833920	48	6006
2026-01-21 12:29:23.83	89.22	17.19	-37.7	-38.7	23.3	0.00e+00	120	42	0	1229979648	48	5998
2026-01-21 12:29:24.84	89.44	17.17	-37.8	-38.7	23.4	0.00e+00	123	41	0	1233125376	48	6057
2026-01-21 12:29:25.85	89.67	17.15	-37.7	-38.6	23.4	0.00e+00	122	42	0	1236271104	48	5983
2026-01-21 12:29:26.86	89.90	17.13	-37.6	-38.6	23.5	0.00e+00	123	42	0	1239416832	48	5951
2026-01-21 12:29:27.86	90.12	17.11	-37.6	-38.6	23.5	0.00e+00	120	42	0	1242562560	48	5942
2026-01-21 12:29:28.87	90.35	17.09	-37.6	-38.5	23.5	0.00e+00	123	41	0	1245708288	48	5924
2026-01-21 12:29:29.88	90.57	17.07	-37.8	-38.8	23.6	0.00e+00	123	42	0	1248854016	48	6066
2026-01-21 12:29:30.89	90.80	17.05	-37.6	-38.6	23.5	0.00e+00	123	42	0	1253048320	48	5948
2026-01-21 12:29:31.90	91.03	17.03	-37.5	-38.4	23.6	0.00e+00	120	42	0	1256194048	48	5858
2026-01-21 12:29:32.91	91.25	17.01	-37.5	-38.5	23.5	0.00e+00	122	41	0	1258291200	48	5865
2026-01-21 12:29:33.92	91.48	16.99	-37.6	-38.5	23.4	0.00e+00	123	42	0	1261436928	48	5894
2026-01-21 12:29:34.93	91.70	16.97	-37.5	-38.4	23.5	0.00e+00	119	42	0	1264582656	48	5851
2026-01-21 12:29:35.94	91.92	16.95	-37.6	-38.6	23.4	0.00e+00	122	42	0	1268776960	48	5950
2026-01-21 12:29:36.95	92.15	16.92	-37.6	-38.6	23.4	0.00e+00	120	42	0	1271922688	48	5943
2026-01-21 12:29:37.96	92.37	16.90	-37.6	-38.6	23.5	0.00e+00	122	42	0	1275068416	48	5945
2026-01-21 12:29:38.97	92.60	16.88	-37.5	-38.5	23.6	0.00e+00	120	42	0	1278214144	48	5872
2026-01-21 12:29:39.98	92.82	16.85	-37.6	-38.6	23.5	0.00e+00	122	42	0	1280311296	48	5949
2026-01-21 12:29:40.99	93.04	16.83	-37.6	-38.5	23.5	0.00e+00	123	42	0	1284505600	48	5921
2026-01-21 12:29:42.00	93.26	16.81	-37.7	-38.7	23.5	0.00e+00	120	42	0	1287651328	48	6020
2026-01-21 12:29:43.01	93.49	16.78	-38.0	-38.9	23.6	0.00e+00	123	42	0	1290797056	48	6157
2026-01-21 12:29:44.02	93.71	16.76	-37.7	-38.6	23.7	0.00e+00	123	42	0	1293942784	48	5942
2026-01-21 12:29:45.02	93.93	16.73	-37.6	-38.5	23.7	0.00e+00	122	42	0	1297088512	48	5905
2026-01-21 12:29:46.03	94.15	16.70	-37.8	-38.7	23.7	0.00e+00	123	42	0	1300234240	48	6021
2026-01-21 12:29:47.04	94.37	16.68	-37.7	-38.7	23.6	0.00e+00	120	42	0	1303379968	48	6016
2026-01-21 12:29:48.05	94.59	16.65	-37.9	-38.8	23.8	0.00e+00	123	42	0	1306525696	48	6121
2026-01-21 12:29:49.06	94.81	16.62	-38.0	-38.9	23.1	0.00e+00	120	42	0	1309671424	48	6182
2026-01-21 12:29:50.08	95.03	16.60	-37.6	-38.5	23.6	0.00e+00	122	42	0	1312817152	48	5907
2026-01-21 12:29:51.08	95.25	16.57	-37.6	-38.5	23.6	0.00e+00	123	42	0	1315962880	48	5905
2026-01-21 12:29:52.09	95.46	16.54	-37.5	-38.5	23.7	0.00e+00	122	42	0	1319108608	48	5861
2026-01-21 12:29:53.10	95.68	16.51	-37.3	-38.3	23.8	0.00e+00	123	42	0	1322254336	48	5739
2026-01-21 12:29:54.11	95.90	16.48	-37.3	-38.2	23.8	0.00e+00	122	42	0	1325400064	48	5707
2026-01-21 12:29:55.12	96.12	16.45	-37.3	-38.3	23.8	0.00e+00	122	42	0	1328545792	48	5743
2026-01-21 12:29:56.13	96.33	16.42	-37.4	-38.4	23.7	0.00e+00	123	42	0	1331691520	48	5818
2026-01-21 12:29:57.14	96.55	16.39	-37.5	-38.4	23.7	0.00e+00	122	42	0	1334837248	48	5821
2026-01-21 12:29:58.16	96.77	16.36	-37.3	-38.2	23.7	0.00e+00	123	42	0	1337982976	48	5712
2026-01-21 12:29:59.16	96.98	16.33	-37.5	-38.4	23.6	0.00e+00	123	42	0	1341128704	48	5839
2026-01-21 12:30:00.17	97.20	16.30	-37.5	-38.4	23.7	0.00e+00	122	42	0	1344274432	48	5848
2026-01-21 12:30:01.18	97.41	16.27	-37.6	-38.5	23.5	0.00e+00	122	42	0	1347420160	48	5912
2026-01-21 12:30:02.20	97.63	16.24	-37.7	-38.6	23.5	0.00e+00	123	42	0	1350565888	48	5975
2026-01-21 12:30:03.20	97.84	16.21	-37.5	-38.4	23.7	0.00e+00	120	42	0	1353711616	48	5839
2026-01-21 12:30:04.21	98.05	16.17	-37.6	-38.5	23.6	0.00e+00	122	42	0	1356857344	48	5917
2026-01-21 12:30:05.22	98.27	16.14	-37.5	-38.4	23.7	0.00e+00	123	42	0	1360003072	48	5828
2026-01-21 12:30:06.23	98.48	16.11	-37.4	-38.3	23.7	0.00e+00	123	42	0	1363148800	48	5775
2026-01-21 12:30:07.24	98.69	16.07	-37.4	-38.3	23.7	0.00e+00	122	42	0	1366294528	48	5759
2026-01-21 12:30:08.25	98.90	16.04	-37.4	-38.3	23.7	0.00e+00	120	42	0	1369440256	48	5770
2026-01-21 12:30:09.26	99.11	16.01	-37.3	-38.3	23.7	0.00e+00	123	42	0	1372585984	48	5732
2026-01-21 12:30:10.27	99.33	15.97	-37.5	-38.4	23.6	0.00e+00	123	42	0	1375731712	48	5837
2026-01-21 12:30:11.28	99.54	15.94	-37.4	-38.3	23.6	0.00e+00	123	42	0	1378877440	48	5789
2026-01-21 12:30:12.29	99.75	15.90	-37.4	-38.4	23.7	0.00e+00	123	42	0	1382023168	48	5810
2026-01-21 12:30:13.30	99.96	15.87	-37.5	-38.5	23.6	0.00e+00	122	42	0	1385168896	48	5868
2026-01-21 12:30:14.31	100.16	15.83	-37.9	-38.8	23.4	0.00e+00	123	42	0	1388314624	48	6104
2026-01-21 12:30:15.32	100.37	15.80	-37.8	-38.8	23.5	0.00e+00	123	42	0	1391460352	48	6074
2026-01-21 12:30:16.33	100.58	15.76	-37.8	-38.7	23.5	0.00e+00	123	42	0	1394606080	48	6041
2026-01-21 12:30:17.34	100.79	15.72	-37.6	-38.5	23.5	0.00e+00	120	42	0	1397751808	48	5916
2026-01-21 12:30:18.35	100.99	15.69	-37.5	-38.5	23.7	0.00e+00	127	42	0	1400897536	48	5878
2026-01-21 12:30:19.35	101.20	15.65	-37.6	-38.6	23.6	0.00e+00	120	42	0	1404043264	48	5944
2026-01-21 12:30:20.36	101.40	15.61	-37.4	-38.3	23.7	0.00e+00	123	42	0	1407188992	48	5783
2026-01-21 12:30:21.37	101.61	15.57	-37.4	-38.3	23.7	0.00e+00	120	42	0	1410334720	48	5749
2026-01-21 12:30:22.38	101.82	15.54	-37.6	-38.5	23.5	0.00e+00	122	42	0	1413480448	48	5904
2026-01-21 12:30:23.39	102.02	15.50	-37.7	-38.6	23.5	0.00e+00	120	42	0	1416626176	48	5982
2026-01-21 12:30:24.40	102.22	15.46	-37.9	-38.8	23.4	0.00e+00	123	42	0	1419771904	48	6124
2026-01-21 12:30:25.41	102.43	15.42	-37.8	-38.7	23.4	0.00e+00	123	42	0	1422917632	48	6061
2026-01-21 12:30:26.42	102.63	15.38	-37.8	-38.8	23.2	0.00e+00	123	42	0	1426063360	48	6096
2026-01-21 12:30:27.43	102.83	15.34	-38.0	-39.0	23.3	0.00e+00	120	42	0	1429209088	48	6222
2026-01-21 12:30:28.44	103.03	15.30	-38.1	-39.0	23.2	0.00e+00	122	42	0	1432354816	48	6277
2026-01-21 12:30:29.45	103.24	15.26	-38.1	-39.1	23.2	0.00e+00	123	42	0	1435500544	48	6283
2026-01-21 12:30:30.47	103.44	15.22	-38.1	-39.1	23.2	0.00e+00	123	42	0	1438646272	48	6345
2026-01-21 12:30:31.48	103.64	15.18	-37.9	-38.9	23.3	0.00e+00	123	42	0	1441792000	48	6138
2026-01-21 12:30:32.48	103.84	15.14	-37.7	-38.7	23.5	0.00e+00	122	42	0	1444937728	48	6020
2026-01-21 12:30:33.50	104.04	15.10	-37.7	-38.7	23.3	0.00e+00	120	42	0	1448083456	48	6039
2026-01-21 12:30:34.51	104.24	15.06	-37.6	-38.6	23.5	0.00e+00	122	42	0	1451229184	48	5961
2026-01-21 12:30:35.52	104.43	15.02	-37.7	-38.8	23.3	0.00e+00	120	42	0	1454374912	48	6080
2026-01-21 12:30:36.53	104.63	14.98	-38.0	-39.0	23.0	0.00e+00	123	42	0	1457520640	48	6255
2026-01-21 12:30:37.54	104.83	14.93	-38.2	-39.2	23.0	0.00e+00	122	42	0	1460666368	48	6398
2026-01-21 12:30:38.55	105.03	14.89	-38.2	-39.1	23.0	0.00e+00	123	42	0	1463812096	48	6346
2026-01-21 12:30:39.55	105.22	14.85	-38.6	-39.6	22.8	0.00e+00	122	42	0	1466957824	50	5958
2026-01-21 12:30:40.56	105.42	14.81	-38.4	-39.5	22.9	0.00e+00	123	42	0	1470103552	50	5859
2026-01-21 12:30:41.58	105.61	14.76	-39.1	-40.1	22.4	0.00e+00	123	42	0	1473249280	50	6345
2026-01-21 12:30:42.59	105.81	14.72	-38.7	-39.7	22.8	0.00e+00	124	42	0	1476395008	50	6048
2026-01-21 12:30:43.60	106.00	14.68	-38.7	-39.7	22.7	0.00e+00	121	42	0	1479540736	50	6042
2026-01-21 12:30:44.61	106.19	14.63	-39.4	-40.4	22.1	0.00e+00	123	42	0	1482686464	52	5840
2026-01-21 12:30:45.62	106.39	14.59	-38.9	-40.0	22.6	0.00e+00	123	42	0	1485832192	52	5535
2026-01-21 12:30:46.63	106.58	14.55	-38.7	-39.7	22.6	0.00e+00	123	42	0	1488977920	50	6048
2026-01-21 12:30:47.63	106.77	14.50	-38.7	-39.7	22.5	0.00e+00	121	42	0	1492123648	50	6050
2026-01-21 12:30:48.64	106.96	14.46	-38.2	-39.2	23.0	0.00e+00	123	42	0	1495269376	50	5676
2026-01-21 12:30:49.66	107.15	14.41	-38.0	-39.0	23.0	0.00e+00	122	42	0	1498415104	50	5585
2026-01-21 12:30:50.67	107.34	14.37	-38.7	-39.7	22.4	0.00e+00	122	42	0	1501560832	50	6050
2026-01-21 12:30:51.68	107.53	14.32	-38.6	-39.6	22.8	0.00e+00	122	42	0	1504706560	50	5967
2026-01-21 12:30:52.69	107.72	14.28	-38.6	-39.6	22.7	0.00e+00	123	42	0	1507852288	50	5946
2026-01-21 12:30:53.70	107.91	14.23	-38.4	-39.4	22.8	0.00e+00	123	42	0	1510998016	50	5812
2026-01-21 12:30:54.71	108.10	14.19	-38.4	-39.4	22.9	0.00e+00	123	42	0	1514143744	50	5817
2026-01-21 12:30:55.71	108.28	14.14	-38.4	-39.4	22.8	0.00e+00	123	42	0	1517289472	50	5820
2026-01-21 12:30:56.72	108.47	14.09	-38.3	-39.2	22.8	0.00e+00	123	42	0	1520435200	50	5725
2026-01-21 12:30:57.73	108.66	14.05	-38.3	-39.3	22.9	0.00e+00	123	42	0	1523580928	50	5742
2026-01-21 12:30:58.74	108.84	14.00	-38.4	-39.4	22.8	0.00e+00	123	42	0	1526726656	50	5836
2026-01-21 12:30:59.75	109.03	13.95	-38.5	-39.5	22.7	0.00e+00	120	42	0	1529872384	50	5886
2026-01-21 12:31:00.76	109.21	13.91	-38.4	-39.4	22.8	0.00e+00	122	42	0	1533018112	50	5808
2026-01-21 12:31:01.77	109.39	13.86	-38.3	-39.2	23.0	0.00e+00	121	42	0	1536163840	50	5707
2026-01-21 12:31:02.78	109.58	13.81	-38.5	-39.4	22.8	0.00e+00	123	42	0	1539309568	50	5851
2026-01-21 12:31:03.79	109.76	13.77	-38.3	-39.3	22.9	0.00e+00	122	42	0	1542455296	50	5752
2026-01-21 12:31:04.80	109.94	13.72	-38.1	-39.0	22.9	0.00e+00	123	42	0	1545601024	50	5589
2026-01-21 12:31:05.81	110.12	13.67	-38.2	-39.2	22.9	0.00e+00	123	42	0	1548746752	50	5665
2026-01-21 12:31:06.82	110.30	13.62	-38.0	-39.0	23.0	0.00e+00	122	42	0	1551892480	50	5578
2026-01-21 12:31:07.83	110.49	13.57	-38.3	-39.3	22.8	0.00e+00	120	42	0	1555038208	50	5772
2026-01-21 12:31:08.84	110.67	13.53	-38.1	-39.1	23.0	0.00e+00	122	42	0	1558183936	50	5622
2026-01-21 12:31:09.85	110.84	13.48	-38.2	-39.2	22.9	0.00e+00	123	42	0	1561329664	50	5670
2026-01-21 12:31:10.86	111.02	13.43	-38.3	-39.3	22.8	0.00e+00	123	42	0	1564475392	50	5776
2026-01-21 12:31:11.87	111.20	13.38	-38.5	-39.5	22.6	0.00e+00	122	42	0	1567621120	50	5915
2026-01-21 12:31:12.88	111.38	13.33	-38.5	-39.5	22.6	0.00e+00	122	42	0	1570766848	50	5901
2026-01-21 12:31:13.89	111.56	13.28	-38.5	-39.4	22.6	0.00e+00	123	42	0	1573912576	50	5853
2026-01-21 12:31:14.90	111.73	13.23	-38.5	-39.5	22.5	0.00e+00	122	42	0	1577058304	50	5883
2026-01-21 12:31:15.91	111.91	13.18	-38.5	-39.5	22.6	0.00e+00	122	42	0	1580204032	50	5912
2026-01-21 12:31:16.92	112.08	13.14	-38.8	-39.8	22.6	0.00e+00	123	42	0	1583349760	50	6075
2026-01-21 12:31:17.93	112.26	13.09	-38.4	-39.4	22.9	0.00e+00	120	42	0	1586495488	50	5846
2026-01-21 12:31:18.94	112.43	13.04	-38.7	-39.7	22.9	0.00e+00	123	42	0	1590689792	50	6014
2026-01-21 12:31:19.95	112.61	12.99	-38.6	-39.6	22.8	0.00e+00	122	42	0	1593835520	50	5944
2026-01-21 12:31:20.96	112.78	12.94	-38.7	-39.7	22.7	0.00e+00	122	42	0	1595932672	50	6046
2026-01-21 12:31:21.98	112.95	12.89	-38.5	-39.6	22.7	0.00e+00	120	42	0	1599078400	50	5929
2026-01-21 12:31:22.99	113.13	12.84	-38.6	-39.6	22.6	0.00e+00	123	42	0	1603272704	50	5980
2026-01-21 12:31:24.00	113.30	12.78	-38.5	-39.5	22.7	0.00e+00	123	42	0	1606418432	50	5888
2026-01-21 12:31:25.01	113.47	12.73	-38.8	-39.8	22.4	0.00e+00	123	42	0	1609564160	50	6106
2026-01-21 12:31:26.02	113.64	12.68	-38.4	-39.4	22.7	0.00e+00	123	42	0	1612709888	50	5831
2026-01-21 12:31:27.03	113.81	12.63	-38.3	-39.3	23.0	0.00e+00	123	42	0	1615855616	50	5760
2026-01-21 12:31:28.03	113.98	12.58	-38.7	-39.7	22.7	0.00e+00	123	42	0	1619001344	50	6020
2026-01-21 12:31:29.04	114.14	12.53	-38.6	-39.6	22.6	0.00e+00	123	42	0	1622147072	50	5967
2026-01-21 12:31:30.05	114.31	12.48	-38.6	-39.6	22.5	0.00e+00	123	42	0	1625292800	50	5958
2026-01-21 12:31:31.06	114.48	12.43	-38.6	-39.6	22.5	0.00e+00	122	42	0	1628438528	50	5989
2026-01-21 12:31:32.07	114.65	12.38	-38.7	-39.7	22.5	0.00e+00	123	42	0	1631584256	50	6042
2026-01-21 12:31:33.08	114.81	12.33	-38.7	-39.7	22.5	0.00e+00	123	42	0	1634729984	50	6064
2026-01-21 12:31:34.09	114.98	12.27	-38.8	-39.8	22.2	0.00e+00	122	42	0	1637875712	50	6104
2026-01-21 12:31:35.10	115.14	12.22	-38.7	-39.7	22.6	0.00e+00	123	42	0	1641021440	50	6020
2026-01-21 12:31:36.11	115.31	12.17	-38.3	-39.4	22.8	0.00e+00	120	42	0	1644167168	50	5799
2026-01-21 12:31:37.13	115.48	12.12	-38.3	-39.3	22.8	0.00e+00	123	42	0	1647312896	50	5786
2026-01-21 12:31:38.14	115.64	12.07	-38.2	-39.2	22.9	0.00e+00	123	42	0	1650458624	50	5705
2026-01-21 12:31:39.15	115.80	12.02	-38.2	-39.2	22.9	0.00e+00	122	42	0	1653604352	50	5660
2026-01-21 12:31:40.16	115.96	11.96	-38.2	-39.2	22.8	0.00e+00	122	42	0	1656750080	50	5685
2026-01-21 12:31:41.17	116.13	11.91	-38.3	-39.3	22.6	0.00e+00	122	42	0	1659895808	50	5764
2026-01-21 12:31:42.18	116.29	11.86	-38.3	-39.4	22.6	0.00e+00	123	42	0	1663041536	50	5822
2026-01-21 12:31:43.19	116.45	11.81	-38.4	-39.4	22.7	0.00e+00	120	42	0	1666187264	50	5809
2026-01-21 12:31:44.20	116.61	11.75	-38.3	-39.3	22.8	0.00e+00	123	42	0	1669332992	50	5733
2026-01-21 12:31:45.21	116.77	11.70	-38.4	-39.4	22.7	0.00e+00	123	42	0	1672478720	50	5798
2026-01-21 12:31:46.22	116.93	11.65	-38.3	-39.2	22.7	0.00e+00	123	42	0	1675624448	50	5718
2026-01-21 12:31:47.23	117.09	11.60	-38.3	-39.3	22.7	0.00e+00	123	42	0	1678770176	50	5782
2026-01-21 12:31:48.24	117.24	11.54	-38.5	-39.5	22.6	0.00e+00	120	42	0	1681915904	50	5862
2026-01-21 12:31:49.25	117.40	11.49	-38.4	-39.4	22.6	0.00e+00	122	42	0	1685061632	50	5816
2026-01-21 12:31:50.26	117.56	11.44	-38.4	-39.4	22.6	0.00e+00	122	42	0	1688207360	50	5844
2026-01-21 12:31:51.27	117.71	11.38	-38.5	-39.5	22.6	0.00e+00	120	42	0	1691353088	50	5886
2026-01-21 12:31:52.28	117.87	11.33	-38.4	-39.4	22.6	0.00e+00	123	42	0	1694498816	50	5852
2026-01-21 12:31:53.29	118.03	11.28	-38.4	-39.4	22.5	0.00e+00	123	42	0	1697644544	50	5831
2026-01-21 12:31:54.30	118.18	11.22	-38.3	-39.3	22.7	0.00e+00	123	42	0	1700790272	50	5774
2026-01-21 12:31:55.31	118.33	11.17	-38.4	-39.4	22.7	0.00e+00	120	42	0	1703936000	50	5853
2026-01-21 12:31:56.32	118.49	11.12	-38.4	-39.4	22.6	0.00e+00	123	42	0	1707081728	50	5855
2026-01-21 12:31:57.33	118.64	11.06	-38.3	-39.3	22.8	0.00e+00	122	42	0	1710227456	50	5750
2026-01-21 12:31:58.34	118.79	11.01	-38.3	-39.3	22.7	0.00e+00	120	42	0	1713373184	50	5755
2026-01-21 12:31:59.35	118.95	10.96	-38.3	-39.3	22.7	0.00e+00	122	42	0	1716518912	50	5772
2026-01-21 12:32:00.36	119.10	10.90	-38.3	-39.3	22.8	0.00e+00	123	42	0	1719664640	50	5767
2026-01-21 12:32:01.37	119.25	10.85	-38.4	-39.4	22.6	0.00e+00	122	42	0	1722810368	50	5805
2026-01-21 12:32:02.38	119.40	10.79	-38.3	-39.3	22.7	0.00e+00	122	42	0	1725956096	50	5758
2026-01-21 12:32:03.39	119.55	10.74	-38.4	-39.3	22.7	0.00e+00	120	42	0	1729101824	50	5784
2026-01-21 12:32:04.40	119.70	10.69	-38.3	-39.3	22.7	0.00e+00	120	42	0	1732247552	50	5771
2026-01-21 12:32:05.41	119.85	10.63	-38.3	-39.3	22.7	0.00e+00	123	42	0	1735393280	50	5734
2026-01-21 12:32:06.42	120.00	10.58	-38.5	-39.5	22.6	0.00e+00	122	42	0	1738539008	50	5914
2026-01-21 12:32:07.43	120.14	10.53	-38.5	-39.5	22.5	0.00e+00	122	42	0	1741684736	50	5890
2026-01-21 12:32:08.44	120.29	10.47	-38.7	-39.7	22.4	0.00e+00	122	42	0	1744830464	50	6008
2026-01-21 12:32:09.45	120.44	10.42	-39.1	-40.1	22.2	0.00e+00	123	42	0	1747976192	50	6340
2026-01-21 12:32:10.46	120.58	10.36	-39.1	-40.1	22.0	0.00e+00	123	42	0	1751121920	50	6324
2026-01-21 12:32:11.47	120.73	10.31	-39.1	-40.1	22.2	0.00e+00	123	42	0	1754267648	50	6300
2026-01-21 12:32:12.48	120.87	10.25	-38.8	-39.8	22.2	0.00e+00	122	42	0	1757413376	50	6092
2026-01-21 12:32:13.49	121.02	10.20	-39.2	-40.2	21.9	0.00e+00	120	42	0	1760559104	50	6403
2026-01-21 12:32:14.49	121.16	10.15	-39.3	-40.4	21.8	0.00e+00	120	42	0	1763704832	50	6500
2026-01-21 12:32:15.50	121.31	10.09	-39.3	-40.3	21.9	0.00e+00	120	42	0	1766850560	50	6482
2026-01-21 12:32:16.51	121.45	10.04	-38.8	-39.9	22.2	0.00e+00	123	42	0	1769996288	50	6136
2026-01-21 12:32:17.52	121.59	9.98	-38.9	-40.0	22.1	0.00e+00	122	42	0	1773142016	50	6210
2026-01-21 12:32:18.54	121.73	9.93	-39.1	-40.1	21.9	0.00e+00	122	42	0	1776287744	50	6329
2026-01-21 12:32:19.54	121.87	9.87	-39.1	-40.2	21.8	0.00e+00	120	42	0	1779433472	50	6363
2026-01-21 12:32:20.56	122.02	9.82	-39.0	-40.1	21.9	0.00e+00	123	42	0	1782579200	50	6297
2026-01-21 12:32:21.57	122.16	9.76	-39.1	-40.1	21.9	0.00e+00	123	42	0	1785724928	50	6324
2026-01-21 12:32:22.58	122.30	9.71	-39.1	-40.2	21.8	0.00e+00	123	42	0	1788870656	50	6351
2026-01-21 12:32:23.58	122.44	9.65	-39.0	-40.1	21.8	0.00e+00	123	42	0	1792016384	50	6291
2026-01-21 12:32:24.59	122.58	9.60	-39.1	-40.1	21.8	0.00e+00	122	42	0	1795162112	50	6343
2026-01-21 12:32:25.60	122.71	9.55	-39.3	-40.3	21.6	0.00e+00	122	42	0	1798307840	50	6490
2026-01-21 12:32:26.61	122.85	9.49	-39.3	-40.3	21.6	0.00e+00	120	42	0	1801453568	50	6480
2026-01-21 12:32:27.62	122.99	9.44	-39.2	-40.3	21.7	0.00e+00	123	42	0	1804599296	50	6450
2026-01-21 12:32:28.63	123.13	9.38	-39.4	-40.5	21.5	0.00e+00	123	42	0	1807745024	50	6598
2026-01-21 12:32:29.64	123.26	9.33	-39.3	-40.4	21.6	0.00e+00	122	42	0	1810890752	50	6540
2026-01-21 12:32:30.65	123.40	9.27	-39.3	-40.4	21.6	0.00e+00	122	42	0	1814036480	50	6538
2026-01-21 12:32:31.66	123.53	9.22	-39.4	-40.5	21.6	0.00e+00	121	42	0	1817182208	50	6602
2026-01-21 12:32:32.67	123.67	9.16	-39.4	-40.5	21.6	0.00e+00	123	42	0	1820327936	50	6574
2026-01-21 12:32:33.68	123.80	9.11	-39.5	-40.6	21.5	0.00e+00	123	42	0	1823473664	50	6697
2026-01-21 12:32:34.69	123.94	9.05	-39.0	-40.0	22.0	0.00e+00	122	42	0	1826619392	50	6237
2026-01-21 12:32:35.70	124.07	9.00	-39.2	-40.2	21.7	0.00e+00	123	42	0	1829765120	50	6423
2026-01-21 12:32:36.71	124.21	8.94	-39.5	-40.6	21.4	0.00e+00	122	42	0	1832910848	50	6667
2026-01-21 12:32:37.72	124.34	8.89	-39.3	-40.4	21.5	0.00e+00	123	42	0	1836056576	50	6557
2026-01-21 12:32:38.73	124.47	8.83	-39.5	-40.6	21.4	0.00e+00	122	42	0	1839202304	50	6654
2026-01-21 12:32:39.74	124.60	8.78	-39.6	-40.7	21.4	0.00e+00	123	42	0	1842348032	52	5997
2026-01-21 12:32:40.74	124.73	8.72	-39.5	-40.6	21.4	0.00e+00	123	42	0	1845493760	52	5979
2026-01-21 12:32:41.75	124.86	8.67	-39.5	-40.6	21.4	0.00e+00	123	42	0	1848639488	52	5942
2026-01-21 12:32:42.76	124.99	8.61	-39.6	-40.7	21.5	0.00e+00	123	42	0	1851785216	52	6022
2026-01-21 12:32:43.77	125.12	8.56	-39.3	-40.4	21.6	0.00e+00	120	42	0	1854930944	52	5833
2026-01-21 12:32:44.77	125.25	8.50	-39.4	-40.5	21.6	0.00e+00	123	42	0	1858076672	52	5904
2026-01-21 12:32:45.78	125.38	8.45	-39.5	-40.5	21.5	0.00e+00	122	42	0	1861222400	52	5908
2026-01-21 12:32:46.79	125.51	8.39	-39.8	-40.9	21.2	0.00e+00	123	42	0	1864368128	52	6156
2026-01-21 12:32:47.80	125.64	8.34	-39.7	-40.8	21.2	0.00e+00	123	42	0	1867513856	52	6109
2026-01-21 12:32:48.82	125.76	8.28	-39.7	-40.9	21.2	0.00e+00	118	42	0	1870659584	52	6141
2026-01-21 12:32:49.83	125.89	8.23	-39.6	-40.7	21.3	0.00e+00	120	42	0	1873805312	52	6035
2026-01-21 12:32:50.84	126.02	8.17	-39.9	-41.0	21.2	0.00e+00	123	42	0	1876951040	52	6256
2026-01-21 12:32:51.85	126.14	8.12	-39.6	-40.7	21.4	0.00e+00	122	42	0	1880096768	52	6002
2026-01-21 12:32:52.86	126.27	8.06	-39.5	-40.6	21.4	0.00e+00	122	42	0	1883242496	52	5968
2026-01-21 12:32:53.87	126.40	8.01	-39.5	-40.6	21.4	0.00e+00	121	42	0	1886388224	52	5977
2026-01-21 12:32:54.87	126.52	7.95	-40.0	-41.1	20.9	0.00e+00	123	42	0	1889533952	52	6333
2026-01-21 12:32:55.88	126.64	7.90	-39.6	-40.7	21.3	0.00e+00	122	42	0	1892679680	52	6036
2026-01-21 12:32:56.90	126.77	7.84	-39.7	-40.8	21.3	0.00e+00	123	42	0	1895825408	52	6070
2026-01-21 12:32:57.91	126.89	7.79	-39.7	-40.8	21.1	0.00e+00	122	42	0	1898971136	52	6109
2026-01-21 12:32:58.91	127.01	7.73	-39.9	-41.0	21.1	0.00e+00	123	42	0	1902116864	52	6263
2026-01-21 12:32:59.92	127.14	7.68	-39.8	-41.0	21.0	0.00e+00	123	42	0	1905262592	52	6213
2026-01-21 12:33:00.93	127.26	7.62	-39.6	-40.7	21.2	0.00e+00	121	42	0	1908408320	52	6022
2026-01-21 12:33:01.94	127.38	7.57	-39.8	-40.9	21.0	0.00e+00	123	42	0	1911554048	52	6197
2026-01-21 12:33:02.95	127.50	7.51	-39.8	-40.9	21.1	0.00e+00	122	42	0	1914699776	52	6192
2026-01-21 12:33:03.96	127.62	7.46	-39.7	-40.9	21.1	0.00e+00	120	42	0	1917845504	52	6139
2026-01-21 12:33:04.97	127.74	7.40	-39.9	-41.0	21.0	0.00e+00	123	42	0	1920991232	52	6223
2026-01-21 12:33:05.98	127.86	7.35	-40.0	-41.2	20.7	0.00e+00	120	42	0	1924136960	52	6395
2026-01-21 12:33:06.99	127.98	7.29	-40.0	-41.1	20.8	0.00e+00	123	42	0	1927282688	52	6343
2026-01-21 12:33:07.99	128.10	7.24	-40.4	-41.5	20.6	0.00e+00	120	42	0	1931476992	52	6642
2026-01-21 12:33:09.00	128.22	7.19	-40.2	-41.4	20.8	0.00e+00	123	42	0	1934622720	52	6522
2026-01-21 12:33:10.01	128.34	7.13	-39.8	-40.9	21.0	0.00e+00	120	42	0	1936719872	52	6195
2026-01-21 12:33:11.02	128.45	7.08	-39.9	-41.0	21.0	0.00e+00	123	42	0	1939865600	52	6277
2026-01-21 12:33:12.03	128.57	7.02	-40.3	-41.4	20.8	0.00e+00	122	42	0	1943011328	52	6545
2026-01-21 12:33:13.03	128.69	6.97	-40.1	-41.2	20.9	0.00e+00	122	42	0	1946157056	52	6405
2026-01-21 12:33:14.04	128.80	6.91	-40.1	-41.2	20.9	0.00e+00	120	42	0	1950351360	52	6410
2026-01-21 12:33:15.05	128.92	6.86	-40.0	-41.1	21.1	0.00e+00	122	42	0	1953497088	52	6308
2026-01-21 12:33:16.05	129.03	6.80	-39.9	-41.0	21.1	0.00e+00	120	42	0	1956642816	52	6219
2026-01-21 12:33:17.06	129.15	6.75	-40.3	-41.4	20.7	0.00e+00	122	42	0	1958739968	52	6531
2026-01-21 12:33:18.07	129.26	6.69	-40.1	-41.3	20.9	0.00e+00	122	42	0	1961885696	52	6428
2026-01-21 12:33:19.08	129.38	6.64	-40.6	-41.8	20.7	0.00e+00	123	42	0	1965031424	52	6845
2026-01-21 12:33:20.09	129.49	6.58	-40.4	-41.6	20.6	0.00e+00	121	42	0	1969225728	52	6668
2026-01-21 12:33:21.10	129.61	6.53	-40.3	-41.5	20.8	0.00e+00	123	42	0	1972371456	52	6583
2026-01-21 12:33:22.11	129.72	6.48	-40.6	-41.8	20.0	0.00e+00	122	42	0	1975517184	52	6876
2026-01-21 12:33:23.12	129.83	6.42	-40.8	-42.0	20.2	0.00e+00	123	42	0	1978662912	54	6253
