passes_logs/2026/01/21/R4.6S_Anadyr/R4.6S_Anadyr__20260121_235743_NOAA_21_JPSS-2_rec.log

#Pass ID: 20260121_235743_NOAA 21 (JPSS-2)
#Satellite: NOAA 21 (JPSS-2)
#Configuration: NOAA-21
#almurnet v.1.7.20251203
#Start time: 2026-01-21 23:57:45

#Version: 2.2.20231116
#Station: R4.6S_Anadyr
#Location: 177.4865 lon 64.73178 lat
#TLE: 1 54234U 22150A   26020.93347024  .00000206  00000+0  11859-3 0  9994
#TLE: 2 54234  98.7506 321.7615 0000627 245.8100 114.3011 14.19536899165654

#Time	Az	El	Level	Level2	SNR	BER	BlckErr	Temp	State	Recorded	gain1	gain2
2026-01-21 23:57:45.22	149.92	0.09	-51.6	-66.5	3.5	1.51e+00	0	38	0	0	60	76253
2026-01-21 23:57:46.22	149.92	0.15	-52.0	-64.8	3.5	1.52e+00	0	39	104	0	60	61137
2026-01-21 23:57:47.23	149.91	0.21	-51.5	-64.4	3.5	1.52e+00	0	39	104	0	60	58405
2026-01-21 23:57:48.24	149.91	0.27	-51.6	-64.5	3.5	1.52e+00	0	40	104	0	60	58707
2026-01-21 23:57:49.25	149.91	0.33	-51.5	-64.4	3.5	1.51e+00	0	40	104	0	60	58028
2026-01-21 23:57:50.26	149.90	0.39	-51.4	-64.3	3.5	1.52e+00	0	40	104	0	60	57491
2026-01-21 23:57:51.28	149.90	0.46	-51.3	-64.2	3.5	1.52e+00	0	40	104	0	60	57148
2026-01-21 23:57:52.29	149.89	0.52	-51.3	-64.1	3.5	1.51e+00	0	40	104	0	60	56555
2026-01-21 23:57:53.30	149.89	0.58	-51.1	-64.0	3.5	1.52e+00	0	40	104	0	60	55570
2026-01-21 23:57:54.31	149.89	0.64	-51.1	-64.0	3.5	1.52e+00	0	40	104	0	60	55586
2026-01-21 23:57:55.32	149.88	0.70	-51.1	-64.0	3.5	1.52e+00	0	40	104	0	60	55344
2026-01-21 23:57:56.33	149.88	0.77	-51.0	-63.9	3.5	1.52e+00	0	40	104	0	60	55080
2026-01-21 23:57:57.34	149.87	0.83	-51.0	-63.8	3.5	1.52e+00	0	40	104	0	60	54600
2026-01-21 23:57:58.35	149.87	0.89	-50.9	-63.8	3.5	1.52e+00	0	40	104	0	60	54249
2026-01-21 23:57:59.36	149.87	0.95	-50.8	-63.7	3.5	1.52e+00	0	40	104	0	60	53819
2026-01-21 23:58:00.37	149.86	1.02	-50.7	-63.6	3.5	1.52e+00	0	40	104	0	60	53154
2026-01-21 23:58:01.38	149.86	1.08	-50.7	-63.5	3.5	1.52e+00	0	40	104	0	60	52763
2026-01-21 23:58:02.39	149.85	1.14	-50.5	-63.4	3.5	1.52e+00	0	40	104	0	60	51985
2026-01-21 23:58:03.40	149.85	1.20	-50.5	-63.3	3.5	1.52e+00	0	40	104	0	60	51616
2026-01-21 23:58:04.41	149.84	1.27	-50.4	-63.3	3.5	1.52e+00	0	40	104	0	60	51040
2026-01-21 23:58:05.42	149.84	1.33	-50.2	-63.1	3.5	1.52e+00	0	40	104	0	60	50181
2026-01-21 23:58:06.43	149.84	1.39	-50.1	-62.9	3.5	1.52e+00	0	40	104	0	60	49280
2026-01-21 23:58:07.44	149.83	1.46	-49.7	-62.6	3.5	1.52e+00	0	40	104	0	60	47364
2026-01-21 23:58:08.45	149.83	1.52	-49.4	-62.3	3.5	1.51e+00	0	40	104	0	60	45489
2026-01-21 23:58:09.46	149.82	1.59	-49.3	-62.2	3.5	1.52e+00	0	40	104	0	60	45219
2026-01-21 23:58:10.47	149.82	1.65	-49.3	-62.2	3.5	1.52e+00	0	40	104	0	60	45087
2026-01-21 23:58:11.48	149.81	1.71	-49.3	-62.2	3.5	1.52e+00	0	40	104	0	60	45201
2026-01-21 23:58:12.49	149.81	1.78	-49.3	-62.2	3.5	1.52e+00	0	40	104	0	60	45222
2026-01-21 23:58:13.50	149.80	1.84	-49.3	-62.3	3.5	1.52e+00	0	40	104	0	60	45520
2026-01-21 23:58:14.51	149.80	1.91	-49.4	-62.3	3.5	1.52e+00	0	40	104	0	60	45945
2026-01-21 23:58:15.52	149.79	1.97	-49.3	-62.3	3.5	1.51e+00	0	40	104	0	60	45506
2026-01-21 23:58:16.53	149.79	2.04	-49.4	-62.2	3.5	1.52e+00	0	40	104	0	60	45000
2026-01-21 23:58:17.54	149.79	2.10	-49.4	-62.2	3.5	1.52e+00	0	40	104	0	60	45405
2026-01-21 23:58:18.56	149.78	2.17	-49.3	-62.0	3.5	1.52e+00	0	40	104	0	60	44206
2026-01-21 23:58:19.57	149.78	2.23	-49.3	-62.0	3.5	1.52e+00	0	40	104	0	60	43973
2026-01-21 23:58:20.58	149.77	2.30	-49.3	-62.0	3.5	1.52e+00	0	40	104	0	60	44425
2026-01-21 23:58:21.59	149.77	2.36	-49.3	-61.8	3.5	1.51e+00	0	40	104	0	60	43409
2026-01-21 23:58:22.60	149.76	2.43	-49.3	-61.7	3.5	1.51e+00	0	40	104	0	60	42636
2026-01-21 23:58:23.61	149.76	2.50	-49.3	-61.4	3.5	1.52e+00	0	40	104	0	60	41177
2026-01-21 23:58:24.61	149.75	2.56	-49.3	-61.6	3.5	1.52e+00	0	40	104	0	60	42059
2026-01-21 23:58:25.62	149.75	2.63	-49.3	-61.6	3.5	1.52e+00	0	40	104	0	60	42258
2026-01-21 23:58:26.63	149.74	2.69	-49.3	-61.8	3.5	1.52e+00	0	40	104	0	60	43121
2026-01-21 23:58:27.65	149.74	2.76	-49.2	-60.8	3.5	1.51e+00	0	40	104	0	60	38641
2026-01-21 23:58:28.66	149.73	2.83	-49.3	-61.1	3.5	1.51e+00	0	40	104	0	60	39816
2026-01-21 23:58:29.67	149.73	2.89	-49.2	-60.7	3.6	1.51e+00	0	40	104	0	60	38249
2026-01-21 23:58:30.67	149.72	2.96	-49.3	-61.4	3.5	1.51e+00	0	40	104	0	60	41225
2026-01-21 23:58:31.68	149.71	3.03	-49.2	-60.4	3.5	1.52e+00	0	40	104	0	60	36964
2026-01-21 23:58:32.70	149.71	3.10	-49.3	-61.3	3.5	1.52e+00	0	40	104	0	60	40946
2026-01-21 23:58:33.71	149.70	3.16	-49.3	-61.7	3.5	1.52e+00	0	40	104	0	60	42459
2026-01-21 23:58:34.72	149.70	3.23	-49.3	-61.9	3.5	1.52e+00	0	41	104	0	60	43805
2026-01-21 23:58:35.73	149.69	3.30	-49.3	-61.4	3.5	1.51e+00	0	41	104	0	60	41034
2026-01-21 23:58:36.73	149.69	3.37	-49.1	-59.8	3.9	1.51e+00	0	40	104	0	60	34263
2026-01-21 23:58:37.74	149.68	3.43	-49.0	-58.7	4.3	1.36e+00	0	41	104	0	60	30209
2026-01-21 23:58:38.75	149.68	3.50	-48.5	-55.9	5.8	1.19e+00	122	41	104	0	60	21931
2026-01-21 23:58:39.76	149.67	3.57	-48.4	-54.4	6.2	1.74e-01	123	41	0	2097152	60	18444
2026-01-21 23:58:40.77	149.67	3.64	-48.1	-53.5	7.4	1.15e-01	121	41	0	5242880	60	16646
2026-01-21 23:58:41.79	149.66	3.71	-47.0	-50.9	9.8	3.48e-03	122	41	0	8388608	60	12260
2026-01-21 23:58:42.79	149.65	3.78	-46.4	-49.7	11.6	1.63e-03	123	41	0	11534336	60	10712
2026-01-21 23:58:43.80	149.65	3.85	-49.1	-59.1	4.1	1.51e+00	0	40	104	12582912	60	31581
2026-01-21 23:58:44.81	149.64	3.92	-49.4	-61.7	3.5	1.49e+00	0	41	104	12582912	60	42741
2026-01-21 23:58:45.82	149.64	3.99	-48.3	-55.3	5.6	5.93e-01	123	41	104	12582912	60	20412
2026-01-21 23:58:46.83	149.63	4.06	-41.7	-43.5	18.0	1.84e-04	120	40	104	12582912	56	6618
2026-01-21 23:58:47.84	149.63	4.13	-49.2	-62.3	3.5	5.81e-01	0	41	104	13631488	60	45819
2026-01-21 23:58:48.85	149.62	4.20	-41.6	-43.3	18.2	1.42e+00	24	41	104	13631488	58	5789
2026-01-21 23:58:49.86	149.61	4.27	-40.1	-41.4	19.9	0.00e+00	122	41	0	13631488	54	5804
2026-01-21 23:58:50.87	149.61	4.34	-42.4	-44.1	17.4	0.00e+00	123	40	0	16777216	56	7052
2026-01-21 23:58:51.88	149.60	4.41	-39.9	-41.1	20.6	0.00e+00	122	40	0	19922944	54	5627
2026-01-21 23:58:52.88	149.60	4.48	-40.2	-41.4	20.1	0.00e+00	123	41	0	24117248	52	6556
2026-01-21 23:58:53.89	149.59	4.55	-40.4	-41.6	19.9	0.00e+00	120	41	0	27262976	52	6671
2026-01-21 23:58:54.90	149.58	4.62	-40.7	-41.9	19.6	0.00e+00	122	40	0	30408704	54	6176
2026-01-21 23:58:55.91	149.58	4.69	-40.2	-41.4	20.0	0.00e+00	123	41	0	33554432	54	5816
2026-01-21 23:58:56.92	149.57	4.76	-39.6	-40.8	20.7	0.00e+00	123	40	0	35651584	52	6071
2026-01-21 23:58:57.93	149.56	4.83	-40.3	-41.5	20.1	0.00e+00	122	40	0	39845888	52	6626
2026-01-21 23:58:58.94	149.56	4.91	-40.9	-42.2	19.4	0.00e+00	120	40	0	42991616	54	6365
2026-01-21 23:58:59.95	149.55	4.98	-39.7	-40.8	20.7	0.00e+00	123	41	0	46137344	52	6101
2026-01-21 23:59:00.96	149.54	5.05	-40.4	-41.6	20.1	0.00e+00	122	40	0	49283072	52	6698
2026-01-21 23:59:01.97	149.54	5.12	-39.7	-40.8	20.8	0.00e+00	123	41	0	52428800	52	6103
2026-01-21 23:59:02.98	149.53	5.20	-40.5	-41.8	19.9	0.00e+00	120	41	0	55574528	52	6822
2026-01-21 23:59:03.99	149.53	5.27	-39.9	-41.0	20.6	0.00e+00	123	41	0	58720256	52	6253
2026-01-21 23:59:05.00	149.52	5.34	-40.9	-42.1	19.6	0.00e+00	122	41	0	61865984	52	7104
2026-01-21 23:59:06.01	149.51	5.42	-40.5	-41.7	20.0	0.00e+00	122	41	0	65011712	54	6014
2026-01-21 23:59:07.02	149.50	5.49	-40.2	-41.4	20.2	0.00e+00	122	41	0	68157440	54	5835
2026-01-21 23:59:08.03	149.50	5.56	-40.2	-41.4	20.3	0.00e+00	123	41	0	71303168	54	5822
2026-01-21 23:59:09.04	149.49	5.64	-40.2	-41.3	20.4	0.00e+00	122	41	0	74448896	54	5789
2026-01-21 23:59:10.05	149.48	5.71	-39.7	-40.8	21.0	0.00e+00	120	41	0	77594624	52	6106
2026-01-21 23:59:11.06	149.48	5.79	-39.6	-40.7	20.8	0.00e+00	122	41	0	80740352	52	6059
2026-01-21 23:59:12.07	149.47	5.86	-39.6	-40.7	21.0	0.00e+00	123	41	0	83886080	52	6059
2026-01-21 23:59:13.08	149.46	5.94	-39.5	-40.6	20.9	0.00e+00	123	41	0	87031808	52	5983
2026-01-21 23:59:14.09	149.46	6.01	-39.9	-41.0	20.7	0.00e+00	123	41	0	90177536	52	6260
2026-01-21 23:59:15.10	149.45	6.09	-39.4	-40.6	21.2	0.00e+00	122	41	0	93323264	52	5930
2026-01-21 23:59:16.11	149.44	6.16	-39.4	-40.5	21.2	0.00e+00	122	41	0	96468992	52	5912
2026-01-21 23:59:17.12	149.43	6.24	-39.4	-40.5	21.2	0.00e+00	123	41	0	99614720	52	5921
2026-01-21 23:59:18.13	149.43	6.31	-39.8	-40.9	21.0	0.00e+00	120	41	0	102760448	52	6157
2026-01-21 23:59:19.14	149.42	6.39	-39.6	-40.7	21.0	0.00e+00	123	41	0	105906176	52	6055
2026-01-21 23:59:20.15	149.41	6.47	-39.6	-40.7	21.0	0.00e+00	123	41	0	109051904	52	6014
2026-01-21 23:59:21.16	149.40	6.54	-39.7	-40.8	21.0	0.00e+00	123	41	0	112197632	52	6091
2026-01-21 23:59:22.17	149.40	6.62	-39.6	-40.7	21.1	0.00e+00	120	41	0	115343360	52	6025
2026-01-21 23:59:23.18	149.39	6.70	-39.6	-40.7	21.3	0.00e+00	122	41	0	118489088	52	6012
2026-01-21 23:59:24.19	149.38	6.77	-39.3	-40.4	21.6	0.00e+00	123	41	0	121634816	52	5830
2026-01-21 23:59:25.20	149.37	6.85	-39.1	-40.1	21.6	0.00e+00	123	41	0	124780544	52	5641
2026-01-21 23:59:26.21	149.37	6.93	-39.1	-40.2	21.6	0.00e+00	123	41	0	127926272	52	5683
2026-01-21 23:59:27.22	149.36	7.01	-39.4	-40.5	21.3	0.00e+00	120	41	0	131072000	52	5861
2026-01-21 23:59:28.23	149.35	7.08	-39.2	-40.2	21.5	0.00e+00	122	41	0	134217728	52	5722
2026-01-21 23:59:29.24	149.34	7.16	-40.0	-41.1	20.8	0.00e+00	122	41	0	137363456	52	6319
2026-01-21 23:59:30.25	149.33	7.24	-40.5	-41.7	20.3	0.00e+00	123	41	0	140509184	54	6064
2026-01-21 23:59:31.26	149.33	7.32	-40.0	-41.2	20.7	0.00e+00	123	41	0	143654912	54	5691
2026-01-21 23:59:32.27	149.32	7.40	-39.1	-40.2	21.7	0.00e+00	120	41	0	146800640	52	5663
2026-01-21 23:59:33.28	149.31	7.48	-39.6	-40.7	21.2	0.00e+00	123	41	0	149946368	52	6032
2026-01-21 23:59:34.29	149.30	7.56	-39.8	-41.0	21.0	0.00e+00	120	41	0	153092096	52	6220
2026-01-21 23:59:35.30	149.29	7.64	-38.9	-40.0	21.9	0.00e+00	122	41	0	156237824	52	5548
2026-01-21 23:59:36.31	149.29	7.72	-39.5	-40.6	21.2	0.00e+00	123	41	0	159383552	50	6717
2026-01-21 23:59:37.32	149.28	7.80	-39.3	-40.3	21.6	0.00e+00	123	41	0	162529280	52	5786
2026-01-21 23:59:38.33	149.27	7.88	-39.9	-41.1	20.6	0.00e+00	122	41	0	165675008	52	6298
2026-01-21 23:59:39.35	149.26	7.96	-40.0	-41.1	20.8	0.00e+00	122	41	0	168820736	52	6333
2026-01-21 23:59:40.36	149.25	8.04	-39.2	-40.2	21.7	0.00e+00	123	41	0	171966464	52	5712
2026-01-21 23:59:41.37	149.24	8.12	-39.2	-40.3	21.5	0.00e+00	122	41	0	175112192	52	5746
2026-01-21 23:59:42.37	149.23	8.21	-39.4	-40.5	21.5	0.00e+00	122	41	0	178257920	52	5894
2026-01-21 23:59:43.39	149.22	8.29	-39.2	-40.3	21.6	0.00e+00	123	41	0	181403648	52	5743
2026-01-21 23:59:44.39	149.22	8.37	-40.1	-41.2	20.8	0.00e+00	123	41	0	184549376	52	6388
2026-01-21 23:59:45.40	149.21	8.45	-39.5	-40.6	21.3	0.00e+00	123	41	0	187695104	52	5960
2026-01-21 23:59:46.41	149.20	8.53	-39.2	-40.3	21.6	0.00e+00	122	41	0	190840832	52	5759
2026-01-21 23:59:47.42	149.19	8.62	-39.5	-40.6	21.4	0.00e+00	121	41	0	193986560	52	5991
2026-01-21 23:59:48.43	149.18	8.70	-39.9	-41.1	21.2	0.00e+00	123	41	0	197132288	52	6291
2026-01-21 23:59:49.44	149.17	8.78	-38.8	-39.9	22.1	0.00e+00	120	41	0	200278016	52	5468
2026-01-21 23:59:50.45	149.16	8.87	-38.9	-40.0	21.9	0.00e+00	123	41	0	203423744	50	6236
2026-01-21 23:59:51.46	149.15	8.95	-38.8	-39.9	22.0	0.00e+00	120	41	0	206569472	50	6148
2026-01-21 23:59:52.47	149.14	9.04	-38.8	-39.8	22.1	0.00e+00	123	41	0	209715200	50	6122
2026-01-21 23:59:53.48	149.13	9.12	-38.6	-39.6	22.2	0.00e+00	122	41	0	212860928	50	5964
2026-01-21 23:59:54.50	149.12	9.21	-38.6	-39.7	22.2	0.00e+00	123	41	0	216006656	50	6000
2026-01-21 23:59:55.51	149.11	9.29	-38.6	-39.6	22.1	0.00e+00	123	41	0	219152384	50	5963
2026-01-21 23:59:56.52	149.10	9.38	-39.0	-40.1	21.9	0.00e+00	120	41	0	222298112	50	6312
2026-01-21 23:59:57.53	149.09	9.46	-39.0	-40.0	21.9	0.00e+00	122	41	0	225443840	50	6260
2026-01-21 23:59:58.54	149.08	9.55	-39.1	-40.1	21.8	0.00e+00	123	41	0	228589568	50	6329
2026-01-21 23:59:59.55	149.07	9.64	-38.6	-39.6	22.3	0.00e+00	122	41	0	231735296	50	5939
2026-01-22 00:00:00.56	149.06	9.72	-38.4	-39.4	22.5	0.00e+00	121	41	0	234881024	50	5817
2026-01-22 00:00:01.57	149.05	9.81	-38.3	-39.3	22.5	0.00e+00	123	41	0	238026752	50	5770
2026-01-22 00:00:02.57	149.04	9.90	-38.5	-39.5	22.3	0.00e+00	122	41	0	241172480	50	5916
2026-01-22 00:00:03.58	149.03	9.99	-38.4	-39.4	22.5	0.00e+00	122	41	0	244318208	50	5821
2026-01-22 00:00:04.59	149.02	10.07	-38.3	-39.3	22.6	0.00e+00	123	41	0	247463936	50	5736
2026-01-22 00:00:05.60	149.01	10.16	-38.6	-39.6	22.3	0.00e+00	123	41	0	250609664	50	5956
2026-01-22 00:00:06.61	149.00	10.25	-38.0	-39.0	22.8	0.00e+00	122	41	0	253755392	50	5544
2026-01-22 00:00:07.62	148.99	10.34	-38.7	-39.7	22.2	0.00e+00	122	41	0	256901120	50	6034
2026-01-22 00:00:08.63	148.98	10.43	-38.1	-39.1	22.7	0.00e+00	123	41	0	260046848	50	5614
2026-01-22 00:00:09.64	148.97	10.52	-38.2	-39.2	22.6	0.00e+00	123	41	0	263192576	50	5687
2026-01-22 00:00:10.65	148.96	10.61	-38.2	-39.2	22.6	0.00e+00	123	41	0	266338304	50	5690
2026-01-22 00:00:11.66	148.95	10.70	-38.4	-39.4	22.5	0.00e+00	123	41	0	269484032	50	5827
2026-01-22 00:00:12.67	148.94	10.79	-37.8	-38.8	22.9	0.00e+00	122	41	0	272629760	48	6092
2026-01-22 00:00:13.67	148.92	10.88	-38.0	-39.0	22.7	0.00e+00	122	41	0	275775488	48	6231
2026-01-22 00:00:14.68	148.91	10.97	-38.0	-39.0	22.8	0.00e+00	123	41	0	278921216	48	6221
2026-01-22 00:00:15.69	148.90	11.06	-37.8	-38.8	23.0	0.00e+00	123	41	0	282066944	48	6073
2026-01-22 00:00:16.70	148.89	11.15	-38.2	-39.2	22.6	0.00e+00	122	41	0	285212672	48	6379
2026-01-22 00:00:17.71	148.88	11.25	-37.7	-38.7	23.1	0.00e+00	123	41	0	288358400	48	6004
2026-01-22 00:00:18.72	148.87	11.34	-37.9	-38.9	22.9	0.00e+00	123	41	0	291504128	48	6146
2026-01-22 00:00:19.73	148.86	11.43	-37.9	-38.9	22.9	0.00e+00	123	41	0	294649856	48	6167
2026-01-22 00:00:20.74	148.84	11.53	-37.8	-38.8	23.0	0.00e+00	123	41	0	297795584	48	6069
2026-01-22 00:00:21.75	148.83	11.62	-37.9	-38.8	23.0	0.00e+00	123	41	0	300941312	48	6132
2026-01-22 00:00:22.76	148.82	11.71	-37.9	-38.9	23.0	0.00e+00	123	41	0	304087040	48	6144
2026-01-22 00:00:23.77	148.81	11.81	-38.2	-39.1	22.7	0.00e+00	122	41	0	307232768	48	6350
2026-01-22 00:00:24.78	148.80	11.90	-37.6	-38.5	23.2	0.00e+00	122	41	0	310378496	48	5908
2026-01-22 00:00:25.79	148.78	12.00	-37.5	-38.5	23.1	0.00e+00	120	41	0	313524224	48	5884
2026-01-22 00:00:26.80	148.77	12.09	-37.7	-38.7	23.1	0.00e+00	123	41	0	316669952	48	6017
2026-01-22 00:00:27.80	148.76	12.19	-37.6	-38.6	23.3	0.00e+00	123	41	0	319815680	48	5953
2026-01-22 00:00:28.81	148.75	12.28	-37.9	-38.9	23.1	0.00e+00	123	41	0	322961408	48	6152
2026-01-22 00:00:29.82	148.73	12.38	-37.5	-38.5	23.3	0.00e+00	120	41	0	326107136	48	5883
2026-01-22 00:00:30.83	148.72	12.48	-37.7	-38.7	23.1	0.00e+00	122	41	0	329252864	48	6027
2026-01-22 00:00:31.84	148.71	12.58	-37.7	-38.7	23.2	0.00e+00	122	41	0	332398592	48	6033
2026-01-22 00:00:32.85	148.69	12.67	-37.8	-38.8	23.2	0.00e+00	120	41	0	335544320	48	6111
2026-01-22 00:00:33.86	148.68	12.77	-37.7	-38.7	23.3	0.00e+00	122	41	0	338690048	48	6010
2026-01-22 00:00:34.87	148.67	12.87	-37.3	-38.3	23.5	0.00e+00	121	41	0	341835776	48	5743
2026-01-22 00:00:35.88	148.65	12.97	-37.4	-38.4	23.4	0.00e+00	123	41	0	346030080	48	5797
2026-01-22 00:00:36.89	148.64	13.07	-37.5	-38.5	23.3	0.00e+00	123	41	0	349175808	48	5882
2026-01-22 00:00:37.90	148.63	13.17	-37.5	-38.4	23.4	0.00e+00	123	41	0	352321536	48	5831
2026-01-22 00:00:38.91	148.61	13.27	-37.5	-38.4	23.3	0.00e+00	123	41	0	354418688	48	5855
2026-01-22 00:00:39.91	148.60	13.37	-37.2	-38.1	23.6	0.00e+00	123	41	0	357564416	48	5658
2026-01-22 00:00:40.92	148.59	13.47	-37.4	-38.3	23.4	0.00e+00	123	41	0	360710144	48	5772
2026-01-22 00:00:41.93	148.57	13.57	-37.3	-38.2	23.5	0.00e+00	122	41	0	364904448	48	5705
2026-01-22 00:00:42.94	148.56	13.67	-37.2	-38.2	23.6	0.00e+00	123	41	0	368050176	48	5671
2026-01-22 00:00:43.95	148.54	13.78	-37.3	-38.3	23.6	0.00e+00	122	41	0	371195904	48	5743
2026-01-22 00:00:44.96	148.53	13.88	-37.4	-38.3	23.5	0.00e+00	122	41	0	374341632	48	5780
2026-01-22 00:00:45.97	148.52	13.98	-37.1	-38.1	23.6	0.00e+00	120	41	0	376438784	48	5613
2026-01-22 00:00:46.98	148.50	14.09	-37.3	-38.2	23.6	0.00e+00	123	41	0	379584512	48	5693
2026-01-22 00:00:47.99	148.49	14.19	-37.4	-38.4	23.5	0.00e+00	123	41	0	383778816	48	5804
2026-01-22 00:00:49.00	148.47	14.29	-37.4	-38.3	23.4	0.00e+00	122	41	0	386924544	48	5772
2026-01-22 00:00:50.01	148.46	14.40	-37.3	-38.3	23.4	0.00e+00	123	41	0	390070272	48	5747
2026-01-22 00:00:51.02	148.44	14.50	-37.2	-38.2	23.6	0.00e+00	122	41	0	393216000	48	5676
2026-01-22 00:00:52.03	148.43	14.61	-37.2	-38.2	23.6	0.00e+00	122	41	0	396361728	48	5673
2026-01-22 00:00:53.03	148.41	14.72	-37.3	-38.2	23.6	0.00e+00	123	41	0	399507456	48	5714
2026-01-22 00:00:54.05	148.39	14.82	-37.4	-38.4	23.4	0.00e+00	123	41	0	402653184	48	5806
2026-01-22 00:00:55.06	148.38	14.93	-37.5	-38.5	23.4	0.00e+00	121	41	0	405798912	48	5870
2026-01-22 00:00:56.06	148.36	15.04	-37.4	-38.3	23.5	0.00e+00	122	41	0	408944640	48	5760
2026-01-22 00:00:57.07	148.35	15.15	-37.5	-38.4	23.4	0.00e+00	123	41	0	412090368	48	5829
2026-01-22 00:00:58.08	148.33	15.25	-37.7	-38.6	23.3	0.00e+00	123	41	0	415236096	48	5990
2026-01-22 00:00:59.09	148.31	15.36	-37.4	-38.3	23.6	0.00e+00	122	41	0	418381824	48	5773
2026-01-22 00:01:00.10	148.30	15.47	-37.4	-38.3	23.5	0.00e+00	123	41	0	421527552	48	5783
2026-01-22 00:01:01.11	148.28	15.58	-37.4	-38.3	23.4	0.00e+00	123	41	0	424673280	48	5784
2026-01-22 00:01:02.12	148.27	15.69	-37.5	-38.4	23.4	0.00e+00	123	41	0	427819008	48	5857
2026-01-22 00:01:03.13	148.25	15.80	-37.4	-38.4	23.5	0.00e+00	123	41	0	430964736	48	5808
2026-01-22 00:01:04.14	148.23	15.92	-37.6	-38.5	23.4	0.00e+00	122	41	0	434110464	48	5902
2026-01-22 00:01:05.14	148.21	16.03	-37.5	-38.4	23.4	0.00e+00	122	41	0	437256192	48	5833
2026-01-22 00:01:06.15	148.20	16.14	-37.4	-38.4	23.5	0.00e+00	123	41	0	440401920	48	5803
2026-01-22 00:01:07.16	148.18	16.25	-37.5	-38.4	23.4	0.00e+00	123	41	0	443547648	48	5843
2026-01-22 00:01:08.18	148.16	16.37	-37.5	-38.5	23.4	0.00e+00	120	41	0	446693376	48	5861
2026-01-22 00:01:09.19	148.14	16.48	-37.5	-38.5	23.3	0.00e+00	123	41	0	449839104	48	5883
2026-01-22 00:01:10.20	148.13	16.60	-37.6	-38.6	23.3	0.00e+00	120	41	0	452984832	48	5934
2026-01-22 00:01:11.21	148.11	16.71	-37.6	-38.6	23.3	0.00e+00	123	41	0	456130560	48	5952
2026-01-22 00:01:12.22	148.09	16.83	-37.8	-38.7	23.2	0.00e+00	122	41	0	459276288	48	6050
2026-01-22 00:01:13.23	148.07	16.94	-37.8	-38.8	23.1	0.00e+00	122	41	0	462422016	48	6065
2026-01-22 00:01:14.24	148.05	17.06	-37.5	-38.5	23.4	0.00e+00	120	41	0	465567744	48	5879
2026-01-22 00:01:15.25	148.03	17.18	-37.7	-38.6	23.2	0.00e+00	122	41	0	468713472	48	5976
2026-01-22 00:01:16.26	148.02	17.30	-37.7	-38.7	23.2	0.00e+00	120	41	0	471859200	48	6041
2026-01-22 00:01:17.27	148.00	17.42	-37.7	-38.7	23.2	0.00e+00	122	41	0	475004928	48	6033
2026-01-22 00:01:18.28	147.98	17.54	-37.7	-38.7	23.2	0.00e+00	120	41	0	478150656	48	6027
2026-01-22 00:01:19.29	147.96	17.65	-37.8	-38.8	23.2	0.00e+00	122	41	0	481296384	48	6087
2026-01-22 00:01:20.29	147.94	17.77	-37.6	-38.5	23.2	0.00e+00	123	41	0	484442112	48	5909
2026-01-22 00:01:21.30	147.92	17.89	-37.6	-38.6	23.2	0.00e+00	122	41	0	487587840	48	5968
2026-01-22 00:01:22.31	147.90	18.02	-37.8	-38.7	23.2	0.00e+00	123	41	0	490733568	48	6059
2026-01-22 00:01:23.32	147.88	18.14	-37.8	-38.8	23.0	0.00e+00	123	41	0	493879296	48	6087
2026-01-22 00:01:24.33	147.86	18.26	-37.8	-38.7	23.1	0.00e+00	123	41	0	497025024	48	6040
2026-01-22 00:01:25.34	147.84	18.38	-37.7	-38.6	23.2	0.00e+00	123	41	0	500170752	48	5974
2026-01-22 00:01:26.35	147.82	18.51	-37.7	-38.6	23.2	0.00e+00	123	41	0	503316480	48	5971
2026-01-22 00:01:27.36	147.80	18.63	-37.6	-38.6	23.2	0.00e+00	122	41	0	506462208	48	5952
2026-01-22 00:01:28.37	147.77	18.76	-37.6	-38.6	23.2	0.00e+00	120	41	0	509607936	48	5976
2026-01-22 00:01:29.38	147.75	18.88	-37.5	-38.4	23.3	0.00e+00	123	41	0	512753664	48	5856
2026-01-22 00:01:30.39	147.73	19.01	-37.5	-38.4	23.4	0.00e+00	122	41	0	515899392	48	5832
2026-01-22 00:01:31.40	147.71	19.14	-37.6	-38.6	23.1	0.00e+00	122	41	0	519045120	48	5957
2026-01-22 00:01:32.41	147.69	19.27	-37.6	-38.5	23.3	0.00e+00	123	41	0	522190848	48	5899
2026-01-22 00:01:33.42	147.67	19.39	-37.5	-38.5	23.3	0.00e+00	120	41	0	525336576	48	5895
2026-01-22 00:01:34.43	147.64	19.52	-37.7	-38.7	23.2	0.00e+00	123	41	0	528482304	48	6021
2026-01-22 00:01:35.44	147.62	19.65	-37.5	-38.4	23.4	0.00e+00	122	41	0	531628032	48	5844
2026-01-22 00:01:36.45	147.60	19.78	-37.3	-38.3	23.6	0.00e+00	123	41	0	534773760	48	5731
2026-01-22 00:01:37.46	147.57	19.91	-37.3	-38.2	23.5	0.00e+00	123	41	0	537919488	48	5708
2026-01-22 00:01:38.47	147.55	20.05	-37.5	-38.5	23.5	0.00e+00	123	41	0	541065216	48	5891
2026-01-22 00:01:39.48	147.53	20.18	-37.5	-38.4	23.5	0.00e+00	121	41	0	544210944	48	5844
2026-01-22 00:01:40.49	147.50	20.31	-37.2	-38.2	23.7	0.00e+00	123	41	0	547356672	48	5676
2026-01-22 00:01:41.50	147.48	20.45	-37.1	-38.1	23.8	0.00e+00	123	41	0	550502400	48	5603
2026-01-22 00:01:42.51	147.46	20.58	-37.1	-38.0	23.8	0.00e+00	121	41	0	553648128	48	5559
2026-01-22 00:01:43.51	147.43	20.72	-37.1	-38.0	23.9	0.00e+00	122	41	0	556793856	48	5588
2026-01-22 00:01:44.52	147.41	20.85	-37.0	-38.0	23.9	0.00e+00	121	41	0	559939584	48	5533
2026-01-22 00:01:45.53	147.38	20.99	-36.8	-37.7	24.0	0.00e+00	122	41	0	563085312	48	5367
2026-01-22 00:01:46.54	147.36	21.13	-36.8	-37.7	24.1	0.00e+00	122	41	0	566231040	48	5404
2026-01-22 00:01:47.55	147.33	21.26	-36.7	-37.6	24.2	0.00e+00	122	41	0	569376768	46	5958
2026-01-22 00:01:48.56	147.31	21.40	-36.8	-37.7	24.1	0.00e+00	123	41	0	572522496	46	6020
2026-01-22 00:01:49.57	147.28	21.54	-36.8	-37.7	24.1	0.00e+00	120	41	0	575668224	46	6024
2026-01-22 00:01:50.58	147.25	21.68	-36.6	-37.5	24.3	0.00e+00	123	41	0	578813952	46	5880
2026-01-22 00:01:51.59	147.23	21.82	-36.4	-37.3	24.5	0.00e+00	123	41	0	581959680	46	5757
2026-01-22 00:01:52.60	147.20	21.97	-36.5	-37.5	24.4	0.00e+00	123	41	0	585105408	46	5863
2026-01-22 00:01:53.61	147.17	22.11	-36.3	-37.2	24.6	0.00e+00	120	41	0	588251136	46	5680
2026-01-22 00:01:54.62	147.15	22.25	-36.2	-37.1	24.6	0.00e+00	122	41	0	591396864	46	5613
2026-01-22 00:01:55.63	147.12	22.40	-36.1	-37.0	24.6	0.00e+00	123	41	0	594542592	46	5558
2026-01-22 00:01:56.64	147.09	22.54	-36.1	-37.0	24.6	0.00e+00	122	41	0	597688320	46	5544
2026-01-22 00:01:57.65	147.06	22.69	-36.0	-36.9	24.7	0.00e+00	122	41	0	600834048	46	5506
2026-01-22 00:01:58.66	147.03	22.84	-35.9	-36.8	24.8	0.00e+00	123	41	0	603979776	46	5451
2026-01-22 00:01:59.67	147.00	22.98	-35.9	-36.8	24.8	0.00e+00	123	41	0	607125504	46	5429
2026-01-22 00:02:00.68	146.98	23.13	-35.9	-36.8	24.9	0.00e+00	121	41	0	610271232	46	5414
2026-01-22 00:02:01.69	146.95	23.28	-35.8	-36.7	24.8	0.00e+00	123	41	0	613416960	44	6015
2026-01-22 00:02:02.70	146.92	23.43	-35.8	-36.7	24.9	0.00e+00	122	41	0	616562688	44	6002
2026-01-22 00:02:03.71	146.89	23.58	-35.8	-36.7	24.9	0.00e+00	122	41	0	619708416	44	6035
2026-01-22 00:02:04.72	146.86	23.74	-35.8	-36.7	24.9	0.00e+00	122	41	0	622854144	44	6012
2026-01-22 00:02:05.73	146.83	23.89	-35.8	-36.7	24.8	0.00e+00	123	41	0	625999872	44	6003
2026-01-22 00:02:06.74	146.79	24.04	-35.8	-36.6	24.9	0.00e+00	123	41	0	629145600	44	5983
2026-01-22 00:02:07.75	146.76	24.20	-35.9	-36.8	24.8	0.00e+00	122	41	0	632291328	44	6083
2026-01-22 00:02:08.76	146.73	24.35	-35.9	-36.8	24.8	0.00e+00	123	41	0	635437056	44	6079
2026-01-22 00:02:09.77	146.70	24.51	-36.0	-36.9	24.6	0.00e+00	123	41	0	638582784	44	6171
2026-01-22 00:02:10.78	146.67	24.67	-36.0	-36.9	24.7	0.00e+00	123	41	0	641728512	44	6166
2026-01-22 00:02:11.79	146.63	24.83	-36.1	-37.0	24.6	0.00e+00	123	41	0	644874240	44	6216
2026-01-22 00:02:12.80	146.60	24.99	-36.1	-37.0	24.6	0.00e+00	123	41	0	648019968	44	6210
2026-01-22 00:02:13.81	146.57	25.15	-36.3	-37.2	24.5	0.00e+00	122	41	0	651165696	44	6361
2026-01-22 00:02:14.82	146.53	25.31	-36.4	-37.3	24.4	0.00e+00	121	41	0	654311424	44	6459
2026-01-22 00:02:15.83	146.50	25.47	-36.6	-37.5	24.4	0.00e+00	122	41	0	657457152	44	6637
2026-01-22 00:02:16.85	146.46	25.64	-36.6	-37.5	24.4	0.00e+00	122	41	0	660602880	44	6606
2026-01-22 00:02:17.86	146.43	25.80	-36.6	-37.5	24.3	0.00e+00	122	41	0	663748608	44	6628
2026-01-22 00:02:18.87	146.39	25.96	-36.8	-37.7	24.2	0.00e+00	123	41	0	666894336	46	6049
2026-01-22 00:02:19.87	146.36	26.13	-36.9	-37.9	24.1	0.00e+00	123	41	0	670040064	46	6142
2026-01-22 00:02:20.88	146.32	26.30	-37.0	-37.9	24.1	0.00e+00	122	41	0	673185792	46	6195
2026-01-22 00:02:21.89	146.29	26.47	-37.2	-38.1	24.0	0.00e+00	123	41	0	676331520	46	6342
2026-01-22 00:02:22.90	146.25	26.63	-37.4	-38.3	23.9	0.00e+00	123	42	0	679477248	46	6494
2026-01-22 00:02:23.91	146.21	26.81	-37.3	-38.3	23.8	0.00e+00	123	41	0	682622976	46	6430
2026-01-22 00:02:24.92	146.17	26.98	-37.6	-38.6	23.8	0.00e+00	123	41	0	685768704	48	5932
2026-01-22 00:02:25.93	146.13	27.15	-37.6	-38.5	23.8	0.00e+00	123	41	0	689963008	48	5915
2026-01-22 00:02:26.94	146.10	27.32	-37.6	-38.5	23.6	0.00e+00	123	41	0	693108736	48	5913
2026-01-22 00:02:27.95	146.06	27.50	-37.9	-38.8	23.5	0.00e+00	123	41	0	695205888	48	6102
2026-01-22 00:02:28.96	146.02	27.67	-37.8	-38.8	23.6	0.00e+00	123	41	0	698351616	48	6078
2026-01-22 00:02:29.97	145.98	27.85	-37.9	-38.8	23.4	0.00e+00	123	41	0	701497344	48	6112
2026-01-22 00:02:30.98	145.93	28.03	-38.0	-38.9	23.4	0.00e+00	123	41	0	704643072	48	6195
2026-01-22 00:02:31.99	145.89	28.21	-38.0	-38.9	23.4	0.00e+00	123	41	0	708837376	48	6195
2026-01-22 00:02:33.00	145.85	28.39	-38.1	-39.1	23.3	0.00e+00	123	41	0	711983104	48	6306
2026-01-22 00:02:34.01	145.81	28.57	-38.0	-39.0	23.3	0.00e+00	122	41	0	715128832	48	6245
2026-01-22 00:02:35.02	145.77	28.75	-38.1	-39.1	23.3	0.00e+00	123	41	0	717225984	48	6293
2026-01-22 00:02:36.03	145.72	28.94	-37.9	-38.8	23.5	0.00e+00	122	41	0	721420288	48	6126
2026-01-22 00:02:37.04	145.68	29.12	-37.9	-38.9	23.4	0.00e+00	121	41	0	724566016	48	6167
2026-01-22 00:02:38.05	145.64	29.31	-37.8	-38.7	23.5	0.00e+00	120	41	0	727711744	48	6047
2026-01-22 00:02:39.06	145.59	29.50	-37.9	-38.9	23.3	0.00e+00	122	41	0	730857472	48	6150
2026-01-22 00:02:40.07	145.54	29.68	-37.7	-38.6	23.5	0.00e+00	122	41	0	734003200	48	5989
2026-01-22 00:02:41.08	145.50	29.87	-37.4	-38.3	23.7	0.00e+00	122	42	0	737148928	48	5756
2026-01-22 00:02:42.09	145.45	30.07	-37.3	-38.2	23.8	0.00e+00	122	42	0	740294656	48	5703
2026-01-22 00:02:43.10	145.40	30.26	-37.2	-38.2	23.8	0.00e+00	122	42	0	743440384	48	5676
2026-01-22 00:02:44.11	145.36	30.45	-37.0	-37.9	24.1	0.00e+00	120	42	0	746586112	48	5500
2026-01-22 00:02:45.12	145.31	30.65	-36.8	-37.7	24.2	0.00e+00	123	42	0	749731840	48	5377
2026-01-22 00:02:46.12	145.26	30.84	-36.9	-37.8	24.1	0.00e+00	123	42	0	752877568	48	5451
2026-01-22 00:02:47.13	145.21	31.04	-36.6	-37.5	24.4	0.00e+00	123	42	0	756023296	46	5912
2026-01-22 00:02:48.14	145.16	31.24	-36.6	-37.5	24.5	0.00e+00	120	42	0	759169024	46	5893
2026-01-22 00:02:49.15	145.11	31.44	-36.5	-37.5	24.5	0.00e+00	123	41	0	762314752	46	5859
2026-01-22 00:02:50.16	145.06	31.64	-36.6	-37.5	24.5	0.00e+00	122	41	0	765460480	46	5887
2026-01-22 00:02:51.18	145.00	31.85	-36.7	-37.6	24.3	0.00e+00	123	42	0	768606208	46	5962
2026-01-22 00:02:52.19	144.95	32.05	-36.5	-37.4	24.5	0.00e+00	120	41	0	771751936	46	5838
2026-01-22 00:02:53.19	144.90	32.25	-36.7	-37.6	24.3	0.00e+00	122	41	0	774897664	46	5964
2026-01-22 00:02:54.20	144.84	32.46	-36.8	-37.7	24.3	0.00e+00	121	42	0	778043392	46	6010
2026-01-22 00:02:55.21	144.79	32.67	-36.9	-37.8	24.3	0.00e+00	123	42	0	781189120	46	6087
2026-01-22 00:02:56.22	144.73	32.88	-37.0	-37.8	24.2	0.00e+00	123	41	0	784334848	46	6126
2026-01-22 00:02:57.23	144.67	33.09	-37.0	-37.9	24.2	0.00e+00	120	41	0	787480576	46	6137
2026-01-22 00:02:58.24	144.62	33.30	-37.0	-37.9	24.2	0.00e+00	123	41	0	790626304	46	6195
2026-01-22 00:02:59.25	144.56	33.52	-37.2	-38.1	24.1	0.00e+00	123	42	0	793772032	46	6295
2026-01-22 00:03:00.26	144.50	33.73	-37.2	-38.1	24.0	0.00e+00	123	42	0	796917760	46	6331
2026-01-22 00:03:01.27	144.44	33.95	-37.4	-38.3	23.9	0.00e+00	123	42	0	800063488	46	6458
2026-01-22 00:03:02.28	144.38	34.17	-38.0	-38.9	23.4	0.00e+00	123	41	0	803209216	48	6173
2026-01-22 00:03:03.29	144.31	34.39	-37.8	-38.8	23.4	0.00e+00	123	42	0	806354944	48	6076
2026-01-22 00:03:04.30	144.25	34.61	-37.7	-38.7	23.5	0.00e+00	123	42	0	809500672	48	6014
2026-01-22 00:03:05.31	144.19	34.83	-38.0	-39.0	23.3	0.00e+00	120	42	0	812646400	48	6208
2026-01-22 00:03:06.32	144.12	35.06	-38.4	-39.3	23.1	0.00e+00	123	42	0	815792128	48	6477
2026-01-22 00:03:07.33	144.06	35.29	-38.7	-39.7	22.6	0.00e+00	122	41	0	818937856	48	6734
2026-01-22 00:03:08.34	143.99	35.51	-38.6	-39.5	22.7	0.00e+00	122	41	0	822083584	50	5911
2026-01-22 00:03:09.34	143.92	35.74	-38.9	-39.9	22.5	0.00e+00	122	42	0	825229312	50	6197
2026-01-22 00:03:10.35	143.86	35.97	-38.8	-39.8	22.6	0.00e+00	122	42	0	828375040	50	6081
2026-01-22 00:03:11.36	143.79	36.21	-38.7	-39.7	22.7	0.00e+00	120	42	0	831520768	50	6012
2026-01-22 00:03:12.37	143.72	36.44	-38.5	-39.5	22.9	0.00e+00	122	42	0	834666496	50	5872
2026-01-22 00:03:13.39	143.64	36.68	-38.7	-39.7	22.7	0.00e+00	120	42	0	837812224	50	5998
2026-01-22 00:03:14.39	143.57	36.91	-38.8	-39.8	22.6	0.00e+00	123	42	0	840957952	50	6078
2026-01-22 00:03:15.40	143.50	37.15	-38.8	-39.8	22.6	0.00e+00	123	42	0	844103680	50	6108
2026-01-22 00:03:16.41	143.42	37.39	-38.9	-39.9	22.6	0.00e+00	123	42	0	847249408	50	6200
2026-01-22 00:03:17.42	143.35	37.64	-38.9	-39.9	22.6	0.00e+00	122	42	0	850395136	50	6182
2026-01-22 00:03:18.43	143.27	37.88	-38.9	-39.9	22.7	0.00e+00	123	42	0	853540864	50	6141
2026-01-22 00:03:19.44	143.19	38.13	-39.0	-40.0	22.7	0.00e+00	123	42	0	856686592	50	6227
2026-01-22 00:03:20.45	143.11	38.38	-39.0	-40.0	22.5	0.00e+00	123	42	0	859832320	50	6224
2026-01-22 00:03:21.46	143.03	38.63	-38.7	-39.7	22.8	0.00e+00	120	41	0	862978048	50	6043
2026-01-22 00:03:22.47	142.95	38.88	-39.0	-39.9	22.7	0.00e+00	123	42	0	866123776	50	6182
2026-01-22 00:03:23.48	142.86	39.13	-38.8	-39.7	22.8	0.00e+00	123	42	0	869269504	50	6055
2026-01-22 00:03:24.49	142.78	39.39	-38.5	-39.5	23.1	0.00e+00	120	42	0	872415232	50	5867
2026-01-22 00:03:25.50	142.69	39.64	-38.3	-39.3	23.1	0.00e+00	123	42	0	875560960	50	5757
2026-01-22 00:03:26.51	142.60	39.90	-38.3	-39.3	23.1	0.00e+00	122	42	0	878706688	50	5734
2026-01-22 00:03:27.52	142.51	40.16	-38.2	-39.1	23.2	0.00e+00	122	42	0	881852416	50	5642
2026-01-22 00:03:28.53	142.42	40.43	-38.1	-39.1	23.2	0.00e+00	123	42	0	884998144	50	5604
2026-01-22 00:03:29.54	142.33	40.69	-38.2	-39.1	23.3	0.00e+00	123	42	0	888143872	50	5610
2026-01-22 00:03:30.55	142.24	40.96	-38.3	-39.3	23.1	0.00e+00	123	42	0	891289600	50	5743
2026-01-22 00:03:31.55	142.14	41.22	-38.5	-39.5	23.0	0.00e+00	122	42	0	894435328	50	5896
2026-01-22 00:03:32.56	142.04	41.49	-38.7	-39.7	22.9	0.00e+00	123	42	0	897581056	50	5996
2026-01-22 00:03:33.57	141.95	41.76	-38.9	-39.9	22.7	0.00e+00	121	42	0	900726784	50	6185
2026-01-22 00:03:34.58	141.84	42.04	-39.1	-40.1	22.5	0.00e+00	120	42	0	903872512	50	6297
2026-01-22 00:03:35.59	141.74	42.31	-39.3	-40.3	22.3	0.00e+00	123	42	0	907018240	50	6425
2026-01-22 00:03:36.60	141.64	42.59	-39.5	-40.5	22.2	0.00e+00	122	42	0	910163968	50	6599
2026-01-22 00:03:37.61	141.53	42.87	-39.6	-40.6	22.1	0.00e+00	120	42	0	913309696	52	5983
2026-01-22 00:03:38.62	141.42	43.15	-39.7	-40.7	21.8	0.00e+00	122	42	0	916455424	52	6032
2026-01-22 00:03:39.63	141.31	43.44	-39.8	-40.9	21.6	0.00e+00	123	42	0	919601152	52	6177
2026-01-22 00:03:40.63	141.20	43.72	-39.9	-41.0	21.5	0.00e+00	122	42	0	922746880	52	6232
2026-01-22 00:03:41.64	141.09	44.01	-40.1	-41.2	21.4	0.00e+00	123	42	0	925892608	52	6395
2026-01-22 00:03:42.65	140.97	44.29	-40.2	-41.3	21.4	0.00e+00	123	42	0	929038336	52	6445
2026-01-22 00:03:43.66	140.85	44.59	-40.1	-41.2	21.7	0.00e+00	122	42	0	932184064	52	6351
2026-01-22 00:03:44.67	140.73	44.88	-40.1	-41.2	21.7	0.00e+00	123	42	0	935329792	52	6398
2026-01-22 00:03:45.68	140.61	45.18	-40.2	-41.3	21.5	0.00e+00	123	42	0	938475520	52	6471
2026-01-22 00:03:46.69	140.48	45.47	-40.5	-41.6	21.4	0.00e+00	122	42	0	941621248	52	6672
2026-01-22 00:03:47.70	140.35	45.77	-40.2	-41.3	21.6	0.00e+00	120	42	0	944766976	52	6435
2026-01-22 00:03:48.71	140.22	46.07	-40.1	-41.1	21.7	0.00e+00	122	42	0	947912704	52	6342
2026-01-22 00:03:49.72	140.09	46.38	-39.9	-41.0	21.8	0.00e+00	123	42	0	951058432	52	6241
2026-01-22 00:03:50.73	139.96	46.68	-39.6	-40.7	22.0	0.00e+00	123	42	0	954204160	52	6001
2026-01-22 00:03:51.74	139.82	46.99	-39.6	-40.6	21.9	0.00e+00	122	42	0	957349888	52	5972
2026-01-22 00:03:52.75	139.68	47.30	-39.1	-40.1	22.5	0.00e+00	123	42	0	960495616	52	5616
2026-01-22 00:03:53.76	139.53	47.61	-38.8	-39.8	22.7	0.00e+00	121	42	0	963641344	52	5430
2026-01-22 00:03:54.77	139.38	47.93	-39.0	-40.0	22.5	0.00e+00	122	42	0	966787072	52	5557
2026-01-22 00:03:55.78	139.23	48.25	-39.0	-40.0	22.7	0.00e+00	123	42	0	969932800	52	5563
2026-01-22 00:03:56.79	139.08	48.56	-39.1	-40.1	22.5	0.00e+00	123	42	0	973078528	52	5628
2026-01-22 00:03:57.80	138.92	48.88	-39.3	-40.3	22.4	0.00e+00	122	42	0	976224256	52	5761
2026-01-22 00:03:58.81	138.76	49.21	-39.2	-40.3	22.3	0.00e+00	122	42	0	979369984	52	5726
2026-01-22 00:03:59.82	138.60	49.53	-39.5	-40.6	22.2	0.00e+00	120	42	0	982515712	52	5933
2026-01-22 00:04:00.83	138.43	49.86	-39.3	-40.4	22.3	0.00e+00	123	42	0	985661440	52	5792
2026-01-22 00:04:01.83	138.26	50.18	-38.6	-39.6	23.0	0.00e+00	123	42	0	988807168	50	5963
2026-01-22 00:04:02.84	138.09	50.51	-38.7	-39.6	23.0	0.00e+00	122	42	0	991952896	50	5994
2026-01-22 00:04:03.85	137.91	50.85	-38.5	-39.5	23.0	0.00e+00	123	42	0	995098624	50	5893
2026-01-22 00:04:04.86	137.73	51.18	-38.7	-39.7	22.8	0.00e+00	122	42	0	998244352	50	6055
2026-01-22 00:04:05.87	137.54	51.52	-39.0	-40.0	22.6	0.00e+00	123	42	0	1001390080	50	6229
2026-01-22 00:04:06.88	137.35	51.86	-38.9	-39.9	22.8	0.00e+00	121	42	0	1004535808	50	6140
2026-01-22 00:04:07.89	137.15	52.20	-38.8	-39.8	22.8	0.00e+00	123	42	0	1007681536	50	6104
2026-01-22 00:04:08.90	136.95	52.54	-38.3	-39.2	23.1	0.00e+00	122	42	0	1010827264	50	5720
2026-01-22 00:04:09.91	136.74	52.89	-38.4	-39.3	22.9	0.00e+00	123	42	0	1013972992	50	5787
2026-01-22 00:04:10.92	136.53	53.24	-38.2	-39.2	23.2	0.00e+00	123	42	0	1017118720	50	5664
2026-01-22 00:04:11.93	136.32	53.58	-38.0	-39.0	23.5	0.00e+00	123	42	0	1020264448	50	5550
2026-01-22 00:04:12.93	136.10	53.93	-37.5	-38.4	23.8	0.00e+00	123	42	0	1023410176	48	5850
2026-01-22 00:04:13.95	135.87	54.29	-37.6	-38.5	23.8	0.00e+00	123	42	0	1026555904	48	5895
2026-01-22 00:04:14.95	135.64	54.64	-37.8	-38.7	23.6	0.00e+00	120	42	0	1029701632	48	6046
2026-01-22 00:04:15.96	135.40	55.00	-37.7	-38.7	23.7	0.00e+00	123	42	0	1032847360	48	6009
2026-01-22 00:04:16.97	135.16	55.36	-37.6	-38.5	23.8	0.00e+00	120	42	0	1035993088	48	5897
2026-01-22 00:04:17.99	134.91	55.72	-37.5	-38.4	23.8	0.00e+00	123	42	0	1039138816	48	5838
2026-01-22 00:04:18.99	134.65	56.08	-37.2	-38.1	24.1	0.00e+00	122	42	0	1042284544	48	5658
2026-01-22 00:04:20.00	134.39	56.44	-37.0	-37.9	24.3	0.00e+00	120	42	0	1045430272	48	5489
2026-01-22 00:04:21.01	134.11	56.81	-36.5	-37.4	24.6	0.00e+00	120	42	0	1048576000	46	5801
2026-01-22 00:04:22.02	133.84	57.18	-36.2	-37.0	24.8	0.00e+00	123	42	0	1051721728	46	5588
2026-01-22 00:04:23.03	133.55	57.55	-36.2	-37.1	24.7	0.00e+00	122	42	0	1055916032	46	5609
2026-01-22 00:04:24.04	133.25	57.92	-36.4	-37.3	24.3	0.00e+00	123	42	0	1058013184	46	5767
2026-01-22 00:04:25.05	132.95	58.29	-36.6	-37.6	24.2	0.00e+00	123	42	0	1061158912	46	5943
2026-01-22 00:04:26.06	132.64	58.67	-36.8	-37.7	24.5	0.00e+00	123	42	0	1064304640	46	5997
2026-01-22 00:04:27.07	132.32	59.04	-36.5	-37.4	24.6	0.00e+00	123	42	0	1067450368	46	5825
2026-01-22 00:04:28.08	131.99	59.42	-36.7	-37.6	24.3	0.00e+00	123	42	0	1070596096	46	5957
2026-01-22 00:04:29.09	131.65	59.80	-36.7	-37.6	24.5	0.00e+00	122	42	0	1074790400	46	5948
2026-01-22 00:04:30.10	131.30	60.18	-36.2	-37.1	24.8	0.00e+00	123	42	0	1077936128	46	5630
2026-01-22 00:04:31.11	130.94	60.56	-36.4	-37.3	24.4	0.00e+00	123	42	0	1081081856	46	5757
2026-01-22 00:04:32.11	130.57	60.94	-36.4	-37.3	24.6	0.00e+00	122	42	0	1083179008	46	5738
2026-01-22 00:04:33.12	130.19	61.32	-36.2	-37.1	24.6	0.00e+00	122	42	0	1086324736	46	5628
2026-01-22 00:04:34.13	129.79	61.71	-36.3	-37.2	24.5	0.00e+00	123	42	0	1090519040	46	5724
2026-01-22 00:04:35.14	129.38	62.10	-36.3	-37.2	24.8	0.00e+00	120	42	0	1093664768	46	5669
2026-01-22 00:04:36.15	128.96	62.48	-36.1	-37.0	25.1	0.00e+00	123	42	0	1096810496	46	5542
2026-01-22 00:04:37.16	128.53	62.87	-35.7	-36.5	25.2	0.00e+00	123	42	0	1099956224	44	5916
2026-01-22 00:04:38.17	128.08	63.26	-35.7	-36.5	25.3	0.00e+00	120	42	0	1103101952	44	5923
2026-01-22 00:04:39.19	127.61	63.65	-35.7	-36.6	25.2	0.00e+00	123	42	0	1106247680	44	5950
2026-01-22 00:04:40.19	127.13	64.04	-35.4	-36.3	25.2	0.00e+00	120	42	0	1109393408	44	5760
2026-01-22 00:04:41.21	126.63	64.43	-35.5	-36.4	25.2	0.00e+00	123	42	0	1112539136	44	5807
2026-01-22 00:04:42.21	126.12	64.82	-35.5	-36.3	25.3	0.00e+00	120	42	0	1115684864	44	5778
2026-01-22 00:04:43.23	125.58	65.21	-35.6	-36.5	25.3	0.00e+00	123	42	0	1118830592	44	5876
2026-01-22 00:04:44.24	125.03	65.60	-35.6	-36.4	25.2	0.00e+00	123	42	0	1121976320	44	5846
2026-01-22 00:04:45.25	124.46	65.99	-35.7	-36.6	24.9	0.00e+00	122	42	0	1125122048	44	5931
2026-01-22 00:04:46.26	123.87	66.38	-35.9	-36.7	24.8	0.00e+00	123	42	0	1128267776	44	6064
2026-01-22 00:04:47.27	123.25	66.77	-35.8	-36.7	25.2	0.00e+00	123	42	0	1131413504	44	6028
2026-01-22 00:04:48.28	122.61	67.16	-36.1	-37.0	25.0	0.00e+00	123	42	0	1134559232	44	6222
2026-01-22 00:04:49.29	121.95	67.54	-36.1	-37.0	24.9	0.00e+00	122	42	0	1137704960	44	6260
2026-01-22 00:04:50.30	121.26	67.93	-35.7	-36.6	25.2	0.00e+00	123	42	0	1140850688	44	5944
2026-01-22 00:04:51.31	120.55	68.32	-35.7	-36.5	25.3	0.00e+00	123	42	0	1143996416	44	5921
2026-01-22 00:04:52.32	119.81	68.70	-35.4	-36.2	25.4	0.00e+00	122	42	0	1147142144	44	5698
2026-01-22 00:04:53.33	119.04	69.08	-35.1	-35.9	25.6	0.00e+00	122	42	0	1150287872	44	5519
2026-01-22 00:04:54.34	118.23	69.46	-34.9	-35.7	25.8	0.00e+00	123	42	0	1153433600	44	5388
2026-01-22 00:04:55.35	117.40	69.84	-35.0	-35.8	25.5	0.00e+00	123	42	0	1156579328	44	5429
2026-01-22 00:04:56.36	116.53	70.21	-35.1	-35.9	25.7	0.00e+00	122	42	0	1159725056	44	5521
2026-01-22 00:04:57.37	115.63	70.58	-34.8	-35.6	25.8	0.00e+00	122	42	0	1162870784	44	5342
2026-01-22 00:04:58.38	114.68	70.95	-35.0	-35.9	25.4	0.00e+00	120	42	0	1166016512	44	5469
2026-01-22 00:04:59.39	113.70	71.31	-35.4	-36.2	25.3	0.00e+00	122	42	0	1169162240	44	5712
2026-01-22 00:05:00.40	112.68	71.67	-35.4	-36.3	25.0	0.00e+00	123	42	0	1172307968	44	5745
2026-01-22 00:05:01.41	111.61	72.03	-35.6	-36.5	24.9	0.00e+00	123	42	0	1175453696	44	5874
2026-01-22 00:05:02.42	110.50	72.38	-35.2	-36.1	25.4	0.00e+00	122	42	0	1178599424	44	5615
2026-01-22 00:05:03.43	109.34	72.72	-35.3	-36.1	25.3	0.00e+00	123	42	0	1181745152	44	5639
2026-01-22 00:05:04.44	108.13	73.06	-35.3	-36.1	25.4	0.00e+00	122	42	0	1184890880	44	5650
2026-01-22 00:05:05.45	106.87	73.39	-35.6	-36.5	25.3	0.00e+00	120	42	0	1188036608	44	5881
2026-01-22 00:05:06.46	105.56	73.71	-35.7	-36.5	25.5	0.00e+00	123	42	0	1191182336	44	5911
2026-01-22 00:05:07.47	104.19	74.03	-35.1	-35.9	25.5	0.00e+00	123	42	0	1194328064	44	5489
2026-01-22 00:05:08.48	102.77	74.34	-35.2	-36.1	25.4	0.00e+00	122	42	0	1197473792	44	5603
2026-01-22 00:05:09.49	101.28	74.64	-35.3	-36.1	25.5	0.00e+00	123	42	0	1200619520	44	5629
2026-01-22 00:05:10.50	99.74	74.93	-35.5	-36.4	25.3	0.00e+00	123	42	0	1203765248	44	5800
2026-01-22 00:05:11.51	98.13	75.21	-35.7	-36.5	25.3	0.00e+00	123	42	0	1206910976	44	5898
2026-01-22 00:05:12.52	96.46	75.48	-35.5	-36.4	25.3	0.00e+00	122	42	0	1210056704	44	5816
2026-01-22 00:05:13.53	94.73	75.73	-35.7	-36.6	25.2	0.00e+00	123	42	0	1213202432	44	5937
2026-01-22 00:05:14.54	92.93	75.98	-35.8	-36.6	25.2	0.00e+00	122	42	0	1216348160	44	5990
2026-01-22 00:05:15.55	91.07	76.21	-35.4	-36.2	25.3	0.00e+00	122	42	0	1219493888	44	5725
2026-01-22 00:05:16.56	89.14	76.43	-35.4	-36.2	25.4	0.00e+00	122	42	0	1222639616	44	5696
2026-01-22 00:05:17.57	87.16	76.63	-35.8	-36.7	25.2	0.00e+00	127	42	0	1225785344	44	6029
2026-01-22 00:05:18.58	85.11	76.81	-36.0	-36.9	25.0	0.00e+00	122	42	0	1228931072	44	6177
2026-01-22 00:05:19.59	83.00	76.98	-35.9	-36.7	25.2	0.00e+00	123	42	0	1232076800	44	6051
2026-01-22 00:05:20.60	80.84	77.13	-35.6	-36.5	25.2	0.00e+00	123	42	0	1235222528	44	5882
2026-01-22 00:05:21.61	78.64	77.26	-35.7	-36.5	25.2	0.00e+00	120	42	0	1238368256	44	5918
2026-01-22 00:05:22.62	76.38	77.38	-35.8	-36.6	25.2	0.00e+00	122	42	0	1241513984	44	5986
2026-01-22 00:05:23.63	74.09	77.47	-36.3	-37.2	24.8	0.00e+00	123	42	0	1244659712	44	6364
2026-01-22 00:05:24.64	71.77	77.55	-35.9	-36.8	24.6	0.00e+00	123	42	0	1247805440	44	6095
2026-01-22 00:05:25.65	69.42	77.60	-35.9	-36.8	24.2	0.00e+00	123	42	0	1250951168	44	6129
2026-01-22 00:05:26.66	67.05	77.64	-36.1	-37.0	24.5	0.00e+00	123	42	0	1254096896	44	6272
2026-01-22 00:05:27.67	64.68	77.65	-36.5	-37.4	24.5	0.00e+00	120	42	0	1257242624	44	6511
2026-01-22 00:05:28.68	62.30	77.64	-36.2	-37.1	24.8	0.00e+00	122	42	0	1260388352	44	6319
2026-01-22 00:05:29.69	59.93	77.62	-36.0	-36.9	24.9	0.00e+00	122	42	0	1263534080	44	6172
2026-01-22 00:05:30.70	57.58	77.57	-35.8	-36.7	25.1	0.00e+00	123	42	0	1266679808	44	6022
2026-01-22 00:05:31.71	55.25	77.50	-35.9	-36.8	24.9	0.00e+00	123	42	0	1269825536	44	6083
2026-01-22 00:05:32.72	52.94	77.41	-36.1	-37.0	25.1	0.00e+00	123	42	0	1272971264	44	6227
2026-01-22 00:05:33.73	50.68	77.30	-36.0	-36.9	25.1	0.00e+00	123	42	0	1276116992	44	6159
2026-01-22 00:05:34.73	48.48	77.18	-36.2	-37.1	24.9	0.00e+00	123	42	0	1279262720	44	6317
2026-01-22 00:05:35.74	46.30	77.03	-36.0	-36.9	24.9	0.00e+00	123	42	0	1282408448	44	6158
2026-01-22 00:05:36.75	44.18	76.87	-35.8	-36.7	25.0	0.00e+00	122	42	0	1285554176	44	6003
2026-01-22 00:05:37.76	42.12	76.69	-35.8	-36.7	25.0	0.00e+00	123	42	0	1288699904	44	6033
2026-01-22 00:05:38.77	40.11	76.49	-36.1	-37.0	24.8	0.00e+00	123	42	0	1291845632	44	6266
2026-01-22 00:05:39.79	38.15	76.28	-36.4	-37.3	24.8	0.00e+00	123	42	0	1294991360	44	6460
2026-01-22 00:05:40.79	36.28	76.06	-36.5	-37.4	24.8	0.00e+00	122	42	0	1298137088	44	6525
2026-01-22 00:05:41.81	34.45	75.81	-36.3	-37.2	24.9	0.00e+00	123	42	0	1301282816	44	6392
2026-01-22 00:05:42.82	32.70	75.56	-36.1	-37.0	25.0	0.00e+00	122	42	0	1304428544	44	6226
2026-01-22 00:05:43.83	31.01	75.30	-35.6	-36.4	25.5	0.00e+00	123	42	0	1307574272	44	5855
2026-01-22 00:05:44.84	29.38	75.02	-35.5	-36.4	25.4	0.00e+00	120	42	0	1310720000	44	5812
2026-01-22 00:05:45.85	27.82	74.73	-35.6	-36.5	25.4	0.00e+00	122	42	0	1313865728	44	5884
2026-01-22 00:05:46.86	26.32	74.44	-35.7	-36.5	25.3	0.00e+00	122	42	0	1317011456	44	5914
2026-01-22 00:05:47.87	24.87	74.13	-35.5	-36.4	24.8	0.00e+00	120	42	0	1320157184	44	5830
2026-01-22 00:05:48.88	23.49	73.82	-35.9	-36.8	24.4	0.00e+00	122	42	0	1323302912	44	6082
2026-01-22 00:05:49.89	22.16	73.50	-35.9	-36.8	24.8	0.00e+00	123	42	0	1326448640	44	6117
2026-01-22 00:05:50.90	20.88	73.17	-35.9	-36.7	25.0	0.00e+00	123	42	0	1329594368	44	6038
2026-01-22 00:05:51.91	19.66	72.83	-36.2	-37.1	24.7	0.00e+00	123	42	0	1332740096	44	6289
2026-01-22 00:05:52.92	18.49	72.49	-36.8	-37.7	24.2	0.00e+00	123	42	0	1335885824	46	6033
2026-01-22 00:05:53.93	17.36	72.14	-36.9	-37.9	23.5	0.00e+00	120	42	0	1339031552	46	6156
2026-01-22 00:05:54.94	16.28	71.79	-36.3	-37.3	24.4	0.00e+00	123	42	0	1342177280	46	5734
2026-01-22 00:05:55.95	15.25	71.43	-36.0	-36.9	24.8	0.00e+00	123	42	0	1345323008	46	5512
2026-01-22 00:05:56.96	14.25	71.07	-36.0	-36.8	25.2	0.00e+00	120	42	0	1348468736	46	5451
2026-01-22 00:05:57.97	13.30	70.70	-35.9	-36.7	25.3	0.00e+00	122	42	0	1351614464	46	5387
2026-01-22 00:05:58.98	12.38	70.33	-36.1	-36.9	25.0	0.00e+00	122	42	0	1354760192	46	5516
2026-01-22 00:05:59.99	11.51	69.96	-36.0	-36.9	24.6	0.00e+00	122	42	0	1357905920	46	5490
2026-01-22 00:06:01.00	10.66	69.59	-35.4	-36.3	25.0	0.00e+00	122	42	0	1361051648	44	5762
2026-01-22 00:06:02.01	9.85	69.21	-35.1	-35.9	25.5	0.00e+00	123	42	0	1364197376	44	5505
2026-01-22 00:06:03.02	9.07	68.83	-34.7	-35.5	26.1	0.00e+00	120	42	0	1367343104	42	5906
2026-01-22 00:06:04.03	8.32	68.45	-35.2	-36.0	25.7	0.00e+00	122	42	0	1371537408	42	6270
2026-01-22 00:06:05.04	7.59	68.06	-36.4	-37.3	24.7	0.00e+00	122	42	0	1374683136	44	6424
2026-01-22 00:06:06.05	6.90	67.68	-37.3	-38.3	23.4	0.00e+00	123	42	0	1376780288	46	6431
2026-01-22 00:06:07.06	6.23	67.29	-36.9	-37.8	23.4	0.00e+00	121	42	0	1379926016	46	6123
2026-01-22 00:06:08.07	5.59	66.91	-36.7	-37.6	23.6	0.00e+00	122	42	0	1383071744	46	5975
2026-01-22 00:06:09.08	4.96	66.52	-36.3	-37.1	24.4	0.00e+00	120	42	0	1387266048	46	5651
2026-01-22 00:06:10.09	4.37	66.13	-36.3	-37.2	24.8	0.00e+00	123	42	0	1390411776	46	5672
2026-01-22 00:06:11.10	3.79	65.74	-36.8	-37.7	24.4	0.00e+00	122	42	0	1393557504	46	6059
2026-01-22 00:06:12.11	3.23	65.35	-38.1	-39.1	23.3	0.00e+00	123	42	0	1396703232	48	6304
2026-01-22 00:06:13.12	2.69	64.96	-38.3	-39.4	23.4	0.00e+00	122	42	0	1398800384	48	6520
2026-01-22 00:06:14.13	2.17	64.57	-37.1	-38.0	24.1	0.00e+00	123	42	0	1402994688	48	5555
2026-01-22 00:06:15.14	1.67	64.18	-35.7	-36.6	25.0	0.00e+00	123	42	0	1406140416	46	5324
2026-01-22 00:06:16.15	1.18	63.79	-35.2	-36.0	25.4	0.00e+00	123	42	0	1409286144	44	5579
2026-01-22 00:06:17.16	0.71	63.41	-35.6	-36.5	25.2	0.00e+00	123	42	0	1412431872	44	5873
2026-01-22 00:06:18.17	0.26	63.02	-36.5	-37.4	24.6	0.00e+00	122	42	0	1415577600	44	6562
2026-01-22 00:06:19.19	359.82	62.63	-37.5	-38.5	23.8	0.00e+00	123	42	0	1418723328	46	6597
2026-01-22 00:06:20.20	359.39	62.24	-38.4	-39.4	23.0	0.00e+00	123	42	0	1421869056	48	6502
2026-01-22 00:06:21.21	358.98	61.86	-38.4	-39.5	23.1	0.00e+00	123	42	0	1425014784	50	5859
2026-01-22 00:06:22.22	358.58	61.47	-37.5	-38.5	23.7	0.00e+00	123	42	0	1428160512	50	5238
2026-01-22 00:06:23.23	358.19	61.09	-36.4	-37.3	24.2	0.00e+00	123	42	0	1431306240	46	5751
2026-01-22 00:06:24.24	357.82	60.71	-35.9	-36.7	24.7	0.00e+00	120	42	0	1434451968	46	5397
2026-01-22 00:06:25.25	357.46	60.33	-36.5	-37.4	24.6	0.00e+00	122	42	0	1437597696	46	5812
2026-01-22 00:06:26.26	357.10	59.95	-37.3	-38.2	24.0	0.00e+00	120	42	0	1440743424	46	6381
2026-01-22 00:06:27.27	356.76	59.57	-38.0	-39.0	22.7	0.00e+00	123	42	0	1443889152	48	6228
2026-01-22 00:06:28.28	356.43	59.19	-38.9	-40.1	21.8	0.00e+00	120	42	0	1447034880	50	6291
2026-01-22 00:06:29.29	356.10	58.81	-39.2	-40.4	21.8	0.00e+00	122	42	0	1450180608	50	6507
2026-01-22 00:06:30.30	355.79	58.44	-38.7	-39.8	22.7	0.00e+00	123	42	0	1453326336	50	6125
2026-01-22 00:06:31.32	355.48	58.06	-38.0	-38.9	23.6	0.00e+00	123	42	0	1456472064	50	5523
2026-01-22 00:06:32.33	355.18	57.69	-37.2	-38.1	24.4	0.00e+00	120	42	0	1459617792	48	5604
2026-01-22 00:06:33.34	354.90	57.32	-36.1	-36.9	25.2	0.00e+00	123	42	0	1462763520	46	5505
2026-01-22 00:06:34.34	354.62	56.96	-36.7	-37.6	24.3	0.00e+00	122	42	0	1465909248	46	5957
2026-01-22 00:06:35.36	354.34	56.59	-38.4	-39.4	23.0	0.00e+00	122	42	0	1469054976	48	6509
2026-01-22 00:06:36.37	354.08	56.23	-39.6	-40.7	22.0	0.00e+00	122	42	0	1472200704	50	6764
2026-01-22 00:06:37.38	353.82	55.86	-39.5	-40.6	22.4	0.00e+00	120	42	0	1475346432	52	5973
2026-01-22 00:06:38.39	353.56	55.50	-38.7	-39.7	22.9	0.00e+00	123	42	0	1478492160	52	5372
2026-01-22 00:06:39.40	353.32	55.15	-38.3	-39.2	23.2	0.00e+00	123	42	0	1481637888	50	5707
2026-01-22 00:06:40.41	353.08	54.79	-37.6	-38.5	23.8	0.00e+00	122	42	0	1484783616	48	5886
2026-01-22 00:06:41.42	352.85	54.43	-37.1	-38.0	24.2	0.00e+00	122	42	0	1487929344	48	5552
2026-01-22 00:06:42.43	352.62	54.08	-36.8	-37.7	24.5	0.00e+00	123	42	0	1491075072	48	5356
2026-01-22 00:06:43.44	352.40	53.73	-37.0	-37.9	24.3	0.00e+00	122	42	0	1494220800	46	6136
2026-01-22 00:06:44.45	352.18	53.38	-37.6	-38.5	23.9	0.00e+00	122	42	0	1497366528	46	6615
2026-01-22 00:06:45.46	351.97	53.04	-38.7	-39.7	22.9	0.00e+00	123	42	0	1500512256	48	6789
2026-01-22 00:06:46.47	351.76	52.69	-39.8	-40.9	21.9	0.00e+00	122	42	0	1503657984	50	6944
2026-01-22 00:06:47.48	351.56	52.35	-40.2	-41.3	21.6	0.00e+00	123	42	0	1506803712	52	6493
2026-01-22 00:06:48.49	351.36	52.01	-39.7	-40.7	21.8	0.00e+00	123	42	0	1509949440	52	6063
2026-01-22 00:06:49.50	351.17	51.67	-39.1	-40.1	22.2	0.00e+00	122	42	0	1513095168	52	5641
2026-01-22 00:06:50.51	350.98	51.33	-38.6	-39.6	22.6	0.00e+00	123	42	0	1516240896	50	5948
2026-01-22 00:06:51.52	350.80	51.00	-38.0	-39.0	23.3	0.00e+00	123	42	0	1519386624	50	5566
2026-01-22 00:06:52.53	350.62	50.66	-38.4	-39.4	23.1	0.00e+00	123	42	0	1522532352	50	5806
2026-01-22 00:06:53.54	350.44	50.33	-38.8	-39.8	22.8	0.00e+00	123	42	0	1525678080	50	6066
2026-01-22 00:06:54.56	350.27	50.00	-39.1	-40.1	22.6	0.00e+00	123	42	0	1528823808	50	6294
2026-01-22 00:06:55.56	350.10	49.68	-39.3	-40.3	22.5	0.00e+00	123	42	0	1531969536	50	6475
2026-01-22 00:06:56.57	349.94	49.35	-39.5	-40.5	22.3	0.00e+00	122	42	0	1535115264	50	6640
2026-01-22 00:06:57.58	349.78	49.03	-39.5	-40.5	22.3	0.00e+00	120	42	0	1538260992	50	6578
2026-01-22 00:06:58.59	349.62	48.71	-39.5	-40.5	22.3	0.00e+00	123	42	0	1541406720	50	6597
2026-01-22 00:06:59.60	349.46	48.39	-39.7	-40.8	22.1	0.00e+00	122	42	0	1544552448	50	6837
2026-01-22 00:07:00.62	349.31	48.08	-39.9	-41.0	21.9	0.00e+00	123	42	0	1547698176	52	6242
2026-01-22 00:07:01.63	349.16	47.76	-39.7	-40.8	21.7	0.00e+00	123	42	0	1550843904	52	6078
2026-01-22 00:07:02.64	349.02	47.45	-39.5	-40.5	21.8	0.00e+00	123	42	0	1553989632	52	5916
2026-01-22 00:07:03.65	348.88	47.14	-39.1	-40.1	22.3	0.00e+00	123	42	0	1557135360	52	5619
2026-01-22 00:07:04.66	348.74	46.83	-38.5	-39.5	22.9	0.00e+00	123	42	0	1560281088	50	5902
2026-01-22 00:07:05.67	348.60	46.53	-38.7	-39.7	23.0	0.00e+00	122	42	0	1563426816	50	6044
2026-01-22 00:07:06.68	348.47	46.22	-38.8	-39.8	22.8	0.00e+00	122	42	0	1566572544	50	6087
2026-01-22 00:07:07.69	348.34	45.92	-38.7	-39.7	22.9	0.00e+00	122	42	0	1569718272	50	6013
2026-01-22 00:07:08.70	348.21	45.62	-38.9	-39.9	22.7	0.00e+00	120	42	0	1572864000	50	6161
2026-01-22 00:07:09.71	348.08	45.33	-38.9	-39.9	22.7	0.00e+00	122	42	0	1576009728	50	6150
2026-01-22 00:07:10.72	347.96	45.03	-39.2	-40.2	22.5	0.00e+00	123	42	0	1579155456	50	6423
2026-01-22 00:07:11.73	347.84	44.74	-40.0	-41.0	21.7	0.00e+00	123	42	0	1582301184	52	6274
2026-01-22 00:07:12.74	347.72	44.45	-40.7	-41.8	21.1	0.00e+00	120	42	0	1585446912	52	6869
2026-01-22 00:07:13.75	347.60	44.16	-41.1	-42.4	20.6	0.00e+00	123	42	0	1588592640	54	6523
2026-01-22 00:07:14.76	347.49	43.87	-41.8	-43.1	20.1	0.00e+00	120	42	0	1591738368	54	7060
2026-01-22 00:07:15.77	347.37	43.58	-42.1	-43.5	19.7	0.00e+00	122	42	0	1594884096	56	6594
2026-01-22 00:07:16.78	347.26	43.30	-41.9	-43.2	20.0	0.00e+00	122	42	0	1598029824	56	6395
2026-01-22 00:07:17.79	347.16	43.02	-41.6	-42.9	20.3	0.00e+00	123	42	0	1601175552	56	6149
2026-01-22 00:07:18.80	347.05	42.74	-41.1	-42.2	20.9	0.00e+00	120	42	0	1604321280	56	5724
2026-01-22 00:07:19.81	346.94	42.46	-40.2	-41.3	21.5	0.00e+00	120	42	0	1607467008	54	5776
2026-01-22 00:07:20.82	346.84	42.19	-39.8	-40.9	21.9	0.00e+00	122	42	0	1610612736	54	5469
2026-01-22 00:07:21.83	346.74	41.91	-38.9	-39.9	22.7	0.00e+00	123	42	0	1613758464	52	5505
2026-01-22 00:07:22.84	346.64	41.64	-38.6	-39.6	23.0	0.00e+00	123	42	0	1616904192	52	5323
2026-01-22 00:07:23.85	346.54	41.37	-38.2	-39.1	23.5	0.00e+00	120	42	0	1620049920	50	5654
2026-01-22 00:07:24.86	346.45	41.10	-38.3	-39.3	23.3	0.00e+00	122	42	0	1623195648	50	5749
2026-01-22 00:07:25.87	346.35	40.84	-38.6	-39.6	23.0	0.00e+00	123	42	0	1626341376	50	5965
2026-01-22 00:07:26.88	346.26	40.58	-39.3	-40.3	22.4	0.00e+00	123	42	0	1629487104	50	6468
2026-01-22 00:07:27.89	346.17	40.31	-39.9	-41.0	21.9	0.00e+00	123	42	0	1632632832	52	6219
2026-01-22 00:07:28.91	346.08	40.05	-40.0	-41.1	21.7	0.00e+00	120	42	0	1635778560	52	6319
2026-01-22 00:07:29.91	345.99	39.79	-39.9	-40.9	21.8	0.00e+00	123	42	0	1638924288	52	6195
2026-01-22 00:07:30.92	345.91	39.54	-39.7	-40.8	21.9	0.00e+00	120	42	0	1642070016	52	6085
2026-01-22 00:07:31.94	345.82	39.28	-39.8	-40.8	22.0	0.00e+00	123	42	0	1645215744	52	6110
2026-01-22 00:07:32.95	345.74	39.03	-39.5	-40.6	22.2	0.00e+00	120	42	0	1648361472	52	5940
2026-01-22 00:07:33.96	345.65	38.78	-39.5	-40.5	22.3	0.00e+00	122	42	0	1651507200	52	5918
2026-01-22 00:07:34.96	345.57	38.53	-39.4	-40.4	22.4	0.00e+00	123	41	0	1654652928	52	5845
2026-01-22 00:07:35.98	345.49	38.28	-39.1	-40.1	22.7	0.00e+00	120	42	0	1657798656	52	5632
2026-01-22 00:07:36.99	345.41	38.03	-39.3	-40.3	22.5	0.00e+00	122	42	0	1661992960	52	5751
2026-01-22 00:07:38.00	345.34	37.79	-39.0	-40.0	22.7	0.00e+00	123	42	0	1665138688	52	5578
2026-01-22 00:07:39.01	345.26	37.55	-39.1	-40.1	22.6	0.00e+00	122	42	0	1667235840	52	5639
2026-01-22 00:07:40.02	345.19	37.30	-39.2	-40.2	22.6	0.00e+00	123	42	0	1670381568	52	5687
2026-01-22 00:07:41.03	345.11	37.07	-38.8	-39.8	22.9	0.00e+00	120	42	0	1673527296	52	5448
2026-01-22 00:07:42.03	345.04	36.83	-38.8	-39.8	22.8	0.00e+00	122	42	0	1677721600	50	6075
2026-01-22 00:07:43.04	344.97	36.59	-38.7	-39.7	23.0	0.00e+00	120	42	0	1680867328	50	5999
2026-01-22 00:07:44.05	344.90	36.36	-38.3	-39.2	23.3	0.00e+00	123	42	0	1684013056	50	5707
2026-01-22 00:07:45.06	344.83	36.13	-38.3	-39.2	23.3	0.00e+00	122	42	0	1687158784	50	5702
2026-01-22 00:07:46.07	344.76	35.90	-38.2	-39.1	23.4	0.00e+00	120	42	0	1689255936	50	5659
2026-01-22 00:07:47.08	344.69	35.67	-38.1	-39.1	23.4	0.00e+00	122	42	0	1693450240	50	5621
2026-01-22 00:07:48.09	344.63	35.44	-38.1	-39.0	23.5	0.00e+00	120	42	0	1696595968	50	5593
2026-01-22 00:07:49.10	344.56	35.21	-38.1	-39.1	23.4	0.00e+00	123	42	0	1699741696	50	5611
2026-01-22 00:07:50.11	344.50	34.99	-38.2	-39.2	23.3	0.00e+00	120	41	0	1702887424	50	5676
2026-01-22 00:07:51.12	344.43	34.77	-38.3	-39.3	23.2	0.00e+00	123	41	0	1706033152	50	5737
2026-01-22 00:07:52.13	344.37	34.54	-38.3	-39.3	23.2	0.00e+00	122	41	0	1709178880	50	5734
2026-01-22 00:07:53.14	344.31	34.32	-38.3	-39.3	23.2	0.00e+00	122	42	0	1712324608	50	5749
2026-01-22 00:07:54.15	344.25	34.11	-37.9	-38.9	23.5	0.00e+00	122	42	0	1715470336	50	5487
2026-01-22 00:07:55.16	344.19	33.89	-37.9	-38.8	23.6	0.00e+00	123	41	0	1718616064	50	5466
2026-01-22 00:07:56.17	344.13	33.67	-37.8	-38.8	23.6	0.00e+00	122	42	0	1721761792	50	5425
2026-01-22 00:07:57.18	344.07	33.46	-37.7	-38.6	23.6	0.00e+00	122	41	0	1724907520	48	5940
2026-01-22 00:07:58.19	344.01	33.25	-37.6	-38.6	23.6	0.00e+00	120	42	0	1728053248	48	5932
2026-01-22 00:07:59.21	343.96	33.03	-37.5	-38.5	23.7	0.00e+00	123	41	0	1731198976	48	5875
2026-01-22 00:08:00.20	343.90	32.83	-37.6	-38.5	23.7	0.00e+00	123	41	0	1734344704	48	5914
2026-01-22 00:08:01.20	343.85	32.62	-37.8	-38.7	23.6	0.00e+00	122	41	0	1737490432	48	6040
2026-01-22 00:08:02.21	343.79	32.41	-37.8	-38.7	23.6	0.00e+00	123	41	0	1740636160	48	6025
2026-01-22 00:08:03.22	343.74	32.21	-37.6	-38.5	23.7	0.00e+00	123	41	0	1743781888	48	5924
2026-01-22 00:08:04.23	343.68	32.00	-37.6	-38.5	23.8	0.00e+00	123	41	0	1746927616	48	5885
2026-01-22 00:08:05.24	343.63	31.80	-37.3	-38.2	24.0	0.00e+00	120	41	0	1750073344	48	5694
2026-01-22 00:08:06.25	343.58	31.60	-37.3	-38.2	24.1	0.00e+00	122	41	0	1753219072	48	5710
2026-01-22 00:08:07.26	343.53	31.40	-37.2	-38.1	24.1	0.00e+00	123	41	0	1756364800	48	5646
2026-01-22 00:08:08.27	343.48	31.20	-37.2	-38.1	24.1	0.00e+00	123	41	0	1759510528	48	5658
2026-01-22 00:08:09.28	343.43	31.00	-37.1	-38.0	24.1	0.00e+00	123	41	0	1762656256	48	5589
2026-01-22 00:08:10.29	343.38	30.81	-37.2	-38.1	24.1	0.00e+00	122	41	0	1765801984	48	5641
2026-01-22 00:08:11.30	343.33	30.61	-37.3	-38.2	24.0	0.00e+00	122	41	0	1768947712	48	5720
2026-01-22 00:08:12.31	343.28	30.42	-37.1	-38.0	24.1	0.00e+00	122	41	0	1772093440	48	5575
2026-01-22 00:08:13.32	343.24	30.23	-37.1	-38.0	24.2	0.00e+00	123	41	0	1775239168	48	5583
2026-01-22 00:08:14.34	343.19	30.03	-37.1	-38.0	24.2	0.00e+00	122	41	0	1778384896	48	5554
2026-01-22 00:08:15.35	343.15	29.84	-37.1	-38.0	24.2	0.00e+00	122	41	0	1781530624	48	5546
2026-01-22 00:08:16.36	343.10	29.66	-37.1	-38.0	24.1	0.00e+00	120	41	0	1784676352	48	5578
2026-01-22 00:08:17.37	343.06	29.47	-37.0	-37.9	24.2	0.00e+00	122	41	0	1787822080	48	5492
2026-01-22 00:08:18.38	343.01	29.28	-37.1	-38.0	24.1	0.00e+00	123	41	0	1790967808	48	5545
2026-01-22 00:08:19.39	342.97	29.10	-37.2	-38.2	24.1	0.00e+00	123	41	0	1794113536	48	5667
2026-01-22 00:08:20.40	342.92	28.91	-37.3	-38.2	24.1	0.00e+00	120	41	0	1797259264	48	5693
2026-01-22 00:08:21.41	342.88	28.73	-37.3	-38.3	24.0	0.00e+00	122	41	0	1800404992	48	5733
2026-01-22 00:08:22.42	342.84	28.55	-37.4	-38.4	23.9	0.00e+00	123	41	0	1803550720	48	5794
2026-01-22 00:08:23.43	342.80	28.37	-37.6	-38.6	23.8	0.00e+00	123	41	0	1806696448	48	5930
2026-01-22 00:08:24.44	342.76	28.19	-37.5	-38.4	23.8	0.00e+00	122	41	0	1809842176	48	5847
2026-01-22 00:08:25.45	342.72	28.01	-37.7	-38.6	23.7	0.00e+00	123	41	0	1812987904	48	5971
2026-01-22 00:08:26.46	342.68	27.84	-37.4	-38.4	23.9	0.00e+00	123	41	0	1816133632	48	5802
2026-01-22 00:08:27.47	342.64	27.66	-37.4	-38.3	23.9	0.00e+00	123	41	0	1819279360	48	5781
2026-01-22 00:08:28.48	342.60	27.49	-37.1	-38.0	24.1	0.00e+00	120	41	0	1822425088	48	5592
2026-01-22 00:08:29.49	342.56	27.31	-37.0	-37.9	24.3	0.00e+00	120	41	0	1825570816	48	5483
2026-01-22 00:08:30.50	342.52	27.14	-36.8	-37.7	24.4	0.00e+00	121	41	0	1828716544	48	5369
2026-01-22 00:08:31.51	342.48	26.97	-37.1	-38.0	24.3	0.00e+00	123	41	0	1831862272	48	5548
2026-01-22 00:08:32.52	342.45	26.80	-36.6	-37.4	24.5	0.00e+00	122	41	0	1835008000	46	5849
2026-01-22 00:08:33.53	342.41	26.63	-36.6	-37.5	24.5	0.00e+00	123	41	0	1838153728	46	5885
2026-01-22 00:08:34.54	342.37	26.46	-36.5	-37.4	24.5	0.00e+00	123	41	0	1841299456	46	5850
2026-01-22 00:08:35.55	342.34	26.29	-36.7	-37.6	24.3	0.00e+00	120	41	0	1844445184	46	5935
2026-01-22 00:08:36.56	342.30	26.13	-36.6	-37.5	24.3	0.00e+00	123	41	0	1847590912	46	5913
2026-01-22 00:08:37.57	342.27	25.96	-36.7	-37.5	24.3	0.00e+00	122	41	0	1850736640	46	5925
2026-01-22 00:08:38.59	342.23	25.80	-36.4	-37.3	24.4	0.00e+00	122	41	0	1853882368	46	5780
2026-01-22 00:08:39.60	342.20	25.63	-36.5	-37.4	24.4	0.00e+00	122	41	0	1857028096	46	5854
2026-01-22 00:08:40.61	342.16	25.47	-36.6	-37.5	24.4	0.00e+00	123	41	0	1860173824	46	5891
2026-01-22 00:08:41.62	342.13	25.31	-36.5	-37.4	24.4	0.00e+00	120	41	0	1863319552	46	5813
2026-01-22 00:08:42.63	342.10	25.15	-36.5	-37.4	24.4	0.00e+00	122	41	0	1866465280	46	5826
2026-01-22 00:08:43.64	342.06	24.99	-36.6	-37.5	24.3	0.00e+00	122	41	0	1869611008	46	5886
2026-01-22 00:08:44.65	342.03	24.83	-36.6	-37.5	24.2	0.00e+00	123	41	0	1872756736	46	5891
2026-01-22 00:08:45.66	342.00	24.68	-36.7	-37.6	24.1	0.00e+00	123	41	0	1875902464	46	5939
2026-01-22 00:08:46.67	341.97	24.52	-36.7	-37.7	24.1	0.00e+00	123	41	0	1879048192	46	6001
2026-01-22 00:08:47.68	341.94	24.36	-36.7	-37.7	24.0	0.00e+00	120	41	0	1882193920	46	5997
2026-01-22 00:08:48.69	341.91	24.21	-36.7	-37.6	24.1	0.00e+00	123	41	0	1885339648	46	5950
2026-01-22 00:08:49.70	341.87	24.05	-36.6	-37.5	24.2	0.00e+00	123	41	0	1888485376	46	5924
2026-01-22 00:08:50.71	341.84	23.90	-36.7	-37.6	24.1	0.00e+00	123	41	0	1891631104	46	5955
2026-01-22 00:08:51.72	341.81	23.75	-36.8	-37.7	24.1	0.00e+00	122	41	0	1894776832	46	6010
2026-01-22 00:08:52.73	341.78	23.60	-36.8	-37.7	24.1	0.00e+00	123	41	0	1897922560	46	6013
2026-01-22 00:08:53.74	341.76	23.45	-36.8	-37.7	24.1	0.00e+00	123	41	0	1901068288	46	6028
2026-01-22 00:08:54.75	341.73	23.30	-36.8	-37.7	24.3	0.00e+00	122	41	0	1904214016	46	6055
2026-01-22 00:08:55.76	341.70	23.15	-36.8	-37.7	24.4	0.00e+00	123	41	0	1907359744	46	6014
2026-01-22 00:08:56.77	341.67	23.00	-36.7	-37.6	24.4	0.00e+00	122	41	0	1910505472	46	5984
2026-01-22 00:08:57.78	341.64	22.86	-36.6	-37.5	24.5	0.00e+00	123	41	0	1913651200	46	5914
2026-01-22 00:08:58.79	341.61	22.71	-36.6	-37.5	24.5	0.00e+00	122	41	0	1916796928	46	5891
2026-01-22 00:08:59.80	341.59	22.56	-36.5	-37.3	24.6	0.00e+00	123	41	0	1919942656	46	5787
2026-01-22 00:09:00.81	341.56	22.42	-36.3	-37.1	24.7	0.00e+00	122	41	0	1923088384	46	5649
2026-01-22 00:09:01.82	341.53	22.28	-36.3	-37.2	24.7	0.00e+00	123	41	0	1926234112	46	5696
2026-01-22 00:09:02.84	341.50	22.13	-36.4	-37.3	24.7	0.00e+00	123	41	0	1929379840	46	5742
2026-01-22 00:09:03.85	341.48	21.99	-36.3	-37.2	24.7	0.00e+00	122	41	0	1932525568	46	5680
