passes_logs/2026/01/21/R4.6S_Anadyr/R4.6S_Anadyr__20260121_140223_NOAA_21_JPSS-2_rec.log

#Pass ID: 20260121_140223_NOAA 21 (JPSS-2)
#Satellite: NOAA 21 (JPSS-2)
#Configuration: NOAA-21
#almurnet v.1.7.20251203
#Start time: 2026-01-21 14:02:24

#Version: 2.2.20231116
#Station: R4.6S_Anadyr
#Location: 177.4865 lon 64.73178 lat
#TLE: 1 54234U 22150A   26020.93347024  .00000206  00000+0  11859-3 0  9994
#TLE: 2 54234  98.7506 321.7615 0000627 245.8100 114.3011 14.19536899165654

#Time	Az	El	Level	Level2	SNR	BER	BlckErr	Temp	State	Recorded	gain1	gain2
2026-01-21 14:02:24.77	19.37	0.09	-51.8	-63.4	3.5	8.45e-01	0	40	0	0	60	53675
2026-01-21 14:02:25.77	19.40	0.15	-52.2	-65.0	3.5	1.52e+00	0	41	104	0	60	62752
2026-01-21 14:02:26.78	19.42	0.21	-52.0	-64.8	3.5	1.52e+00	0	41	104	0	60	61039
2026-01-21 14:02:27.79	19.45	0.27	-51.8	-64.7	3.5	1.52e+00	0	41	104	0	60	60195
2026-01-21 14:02:28.80	19.47	0.33	-51.8	-64.7	3.5	1.51e+00	0	41	104	0	60	60082
2026-01-21 14:02:29.81	19.50	0.39	-51.8	-64.7	3.5	1.52e+00	0	41	104	0	60	60321
2026-01-21 14:02:30.82	19.52	0.45	-51.6	-64.5	3.5	1.52e+00	0	41	104	0	60	58771
2026-01-21 14:02:31.83	19.55	0.51	-51.5	-64.4	3.5	1.52e+00	0	41	104	0	60	58322
2026-01-21 14:02:32.84	19.57	0.57	-51.4	-64.4	3.5	1.52e+00	0	41	104	0	60	58027
2026-01-21 14:02:33.85	19.60	0.63	-51.4	-64.2	3.5	1.52e+00	0	41	104	0	60	57230
2026-01-21 14:02:34.86	19.62	0.69	-51.4	-64.3	3.5	1.52e+00	0	41	104	0	60	57447
2026-01-21 14:02:35.87	19.65	0.75	-51.3	-64.2	3.5	1.52e+00	0	41	104	0	60	56940
2026-01-21 14:02:36.88	19.67	0.81	-51.3	-64.1	3.5	1.52e+00	0	41	104	0	60	56543
2026-01-21 14:02:37.90	19.70	0.87	-51.2	-64.1	3.5	1.52e+00	0	41	104	0	60	56269
2026-01-21 14:02:38.91	19.73	0.93	-51.1	-64.0	3.5	1.52e+00	0	41	104	0	60	55935
2026-01-21 14:02:39.92	19.75	0.99	-51.1	-64.0	3.5	1.52e+00	0	41	104	0	60	55422
2026-01-21 14:02:40.93	19.78	1.06	-50.9	-63.9	3.5	1.52e+00	0	41	104	0	60	54963
2026-01-21 14:02:41.94	19.80	1.12	-50.9	-63.8	3.5	1.52e+00	0	41	104	0	60	54454
2026-01-21 14:02:42.95	19.83	1.18	-50.8	-63.7	3.5	1.52e+00	0	42	104	0	60	53822
2026-01-21 14:02:43.96	19.86	1.24	-50.7	-63.5	3.5	1.51e+00	0	42	104	0	60	52771
2026-01-21 14:02:44.97	19.88	1.30	-50.5	-63.4	3.5	1.52e+00	0	41	104	0	60	51851
2026-01-21 14:02:45.98	19.91	1.36	-50.3	-63.2	3.5	1.52e+00	0	42	104	0	60	50524
2026-01-21 14:02:46.99	19.94	1.42	-50.2	-63.0	3.5	1.52e+00	0	42	104	0	60	49677
2026-01-21 14:02:48.00	19.96	1.49	-50.1	-62.9	3.5	1.52e+00	0	42	104	0	60	49137
2026-01-21 14:02:49.01	19.99	1.55	-49.9	-62.7	3.5	1.52e+00	0	41	104	0	60	48152
2026-01-21 14:02:50.02	20.02	1.61	-49.6	-62.5	3.5	1.52e+00	0	41	104	0	60	46629
2026-01-21 14:02:51.03	20.04	1.67	-49.6	-62.5	3.5	1.52e+00	0	42	104	0	60	46727
2026-01-21 14:02:52.04	20.07	1.74	-49.6	-62.4	3.5	1.52e+00	0	41	104	0	60	46264
2026-01-21 14:02:53.05	20.10	1.80	-49.6	-62.4	3.5	1.52e+00	0	41	104	0	60	46414
2026-01-21 14:02:54.06	20.12	1.86	-49.6	-62.4	3.5	1.52e+00	0	41	104	0	60	46416
2026-01-21 14:02:55.07	20.15	1.92	-49.6	-62.5	3.5	1.52e+00	0	41	104	0	60	46780
2026-01-21 14:02:56.08	20.18	1.99	-49.6	-62.5	3.5	1.51e+00	0	41	104	0	60	46615
2026-01-21 14:02:57.09	20.21	2.05	-49.7	-62.6	3.5	1.52e+00	0	42	104	0	60	47285
2026-01-21 14:02:58.10	20.23	2.11	-49.7	-62.3	3.5	1.52e+00	0	41	104	0	60	45898
2026-01-21 14:02:59.11	20.26	2.18	-49.6	-62.0	3.5	1.52e+00	0	41	104	0	60	44194
2026-01-21 14:03:00.12	20.29	2.24	-49.5	-61.6	3.5	1.52e+00	0	41	104	0	60	42142
2026-01-21 14:03:01.13	20.32	2.30	-49.5	-60.9	3.5	1.51e+00	0	41	104	0	60	38992
2026-01-21 14:03:02.14	20.34	2.37	-49.4	-60.4	3.5	1.51e+00	0	42	104	0	60	36656
2026-01-21 14:03:03.15	20.37	2.43	-49.5	-60.8	3.5	1.51e+00	0	42	104	0	60	38594
2026-01-21 14:03:04.15	20.40	2.49	-49.4	-60.9	3.5	1.51e+00	0	42	104	0	60	38973
2026-01-21 14:03:05.16	20.43	2.56	-49.5	-61.3	3.5	1.52e+00	0	41	104	0	60	40737
2026-01-21 14:03:06.17	20.46	2.62	-49.4	-60.0	3.8	1.51e+00	0	42	104	0	60	35045
2026-01-21 14:03:07.18	20.49	2.69	-49.3	-58.7	4.2	9.20e-01	0	42	104	0	60	30384
2026-01-21 14:03:08.19	20.51	2.75	-48.6	-55.5	6.6	3.94e-01	123	42	104	0	60	21001
2026-01-21 14:03:09.20	20.54	2.82	-48.4	-53.7	7.4	2.29e-01	122	42	0	2097152	60	17057
2026-01-21 14:03:10.21	20.57	2.88	-47.3	-51.1	10.2	5.55e-03	122	42	0	5242880	60	12665
2026-01-21 14:03:11.22	20.60	2.95	-46.6	-50.0	11.6	5.48e-04	123	42	0	8388608	60	11044
2026-01-21 14:03:12.23	20.63	3.01	-45.6	-48.2	13.6	4.42e-05	123	41	0	11534336	60	9052
2026-01-21 14:03:13.24	20.66	3.08	-45.3	-47.7	13.7	7.00e-07	123	41	0	14680064	60	8553
2026-01-21 14:03:14.25	20.69	3.14	-43.1	-44.8	16.9	0.00e+00	123	42	0	17825792	60	6069
2026-01-21 14:03:15.26	20.72	3.21	-45.0	-47.4	14.1	5.30e-06	120	42	0	20971520	60	8237
2026-01-21 14:03:16.27	20.75	3.28	-44.7	-46.9	14.9	1.50e-06	122	42	0	24117248	60	7792
2026-01-21 14:03:17.28	20.78	3.34	-44.9	-47.3	14.4	0.00e+00	123	41	0	27262976	60	8098
2026-01-21 14:03:18.29	20.81	3.41	-46.3	-49.4	12.1	2.24e-04	123	41	0	30408704	60	10418
2026-01-21 14:03:19.30	20.84	3.47	-46.3	-49.5	12.0	6.40e-05	123	41	0	33554432	60	10468
2026-01-21 14:03:20.32	20.87	3.54	-48.0	-52.9	8.0	6.36e-02	122	42	0	36700160	60	15444
2026-01-21 14:03:21.33	20.90	3.61	-48.2	-53.3	7.7	8.61e-02	122	42	0	39845888	60	16157
2026-01-21 14:03:22.34	20.93	3.67	-47.8	-53.0	10.8	1.43e+00	21	42	104	41943040	60	15742
2026-01-21 14:03:23.35	20.96	3.74	-41.8	-43.2	18.2	0.00e+00	122	42	0	41943040	56	6382
2026-01-21 14:03:24.36	20.99	3.81	-48.9	-56.8	5.7	1.47e+00	0	42	104	44040192	60	24408
2026-01-21 14:03:25.37	21.02	3.88	-49.7	-62.3	3.5	1.52e+00	0	42	104	44040192	60	45770
2026-01-21 14:03:26.38	21.05	3.94	-44.7	-47.2	12.9	0.00e+00	123	41	104	44040192	60	8061
2026-01-21 14:03:27.39	21.08	4.01	-49.5	-61.2	3.5	1.52e+00	0	42	104	44040192	60	40494
2026-01-21 14:03:28.40	21.11	4.08	-44.6	-47.1	15.0	0.00e+00	123	42	0	44040192	60	7905
2026-01-21 14:03:29.41	21.14	4.15	-45.1	-47.3	14.6	0.00e+00	122	42	0	47185920	60	8175
2026-01-21 14:03:30.42	21.17	4.21	-44.8	-46.9	15.6	0.00e+00	123	42	0	50331648	60	7796
2026-01-21 14:03:31.43	21.20	4.28	-44.3	-46.3	15.7	0.00e+00	123	42	0	53477376	60	7231
2026-01-21 14:03:32.44	21.23	4.35	-44.1	-46.0	15.9	0.00e+00	123	42	0	56623104	60	7022
2026-01-21 14:03:33.45	21.26	4.42	-43.8	-45.7	16.4	0.00e+00	123	41	0	59768832	60	6727
2026-01-21 14:03:34.46	21.30	4.49	-44.1	-46.1	15.9	0.00e+00	122	42	0	62914560	60	7056
2026-01-21 14:03:35.47	21.33	4.56	-42.7	-44.3	17.6	0.00e+00	123	41	0	66060288	58	6468
2026-01-21 14:03:36.48	21.36	4.63	-43.0	-44.7	17.4	0.00e+00	123	41	0	69206016	58	6745
2026-01-21 14:03:37.49	21.39	4.70	-42.7	-44.3	17.5	0.00e+00	123	41	0	72351744	58	6444
2026-01-21 14:03:38.50	21.42	4.76	-43.0	-44.6	17.1	0.00e+00	123	42	0	75497472	58	6687
2026-01-21 14:03:39.51	21.46	4.83	-42.7	-44.2	17.9	0.00e+00	122	42	0	78643200	58	6410
2026-01-21 14:03:40.51	21.49	4.90	-42.7	-44.2	17.6	0.00e+00	123	42	0	81788928	58	6417
2026-01-21 14:03:41.53	21.52	4.97	-42.8	-44.4	17.9	0.00e+00	122	41	0	84934656	58	6506
2026-01-21 14:03:42.53	21.55	5.04	-42.3	-43.8	18.2	0.00e+00	123	42	0	88080384	58	6117
2026-01-21 14:03:43.54	21.59	5.11	-42.7	-44.2	18.1	0.00e+00	123	41	0	91226112	58	6377
2026-01-21 14:03:44.55	21.62	5.18	-42.4	-43.8	17.9	0.00e+00	123	41	0	94371840	58	6130
2026-01-21 14:03:45.56	21.65	5.25	-42.0	-43.4	18.7	0.00e+00	123	41	0	97517568	58	5835
2026-01-21 14:03:46.57	21.68	5.33	-42.0	-43.4	18.9	0.00e+00	122	42	0	100663296	58	5843
2026-01-21 14:03:47.58	21.72	5.40	-41.7	-43.1	19.0	0.00e+00	123	41	0	103809024	56	6296
2026-01-21 14:03:48.59	21.75	5.47	-41.2	-42.4	19.6	0.00e+00	123	41	0	106954752	56	5852
2026-01-21 14:03:49.60	21.78	5.54	-41.1	-42.4	19.2	0.00e+00	122	41	0	110100480	56	5814
2026-01-21 14:03:50.61	21.82	5.61	-41.5	-42.8	19.4	0.00e+00	122	41	0	113246208	56	6085
2026-01-21 14:03:51.62	21.85	5.68	-41.2	-42.5	19.4	0.00e+00	123	42	0	116391936	56	5905
2026-01-21 14:03:52.63	21.89	5.75	-40.8	-42.0	20.0	0.00e+00	120	42	0	119537664	54	6241
2026-01-21 14:03:53.64	21.92	5.83	-40.7	-42.0	19.9	0.00e+00	122	42	0	122683392	54	6219
2026-01-21 14:03:54.65	21.95	5.90	-40.8	-42.0	20.0	0.00e+00	122	41	0	125829120	54	6243
2026-01-21 14:03:55.66	21.99	5.97	-40.1	-41.3	20.6	0.00e+00	120	42	0	128974848	54	5742
2026-01-21 14:03:56.67	22.02	6.04	-40.1	-41.3	20.6	0.00e+00	123	42	0	132120576	54	5727
2026-01-21 14:03:57.68	22.06	6.12	-40.4	-41.5	20.3	0.00e+00	123	42	0	135266304	54	5913
2026-01-21 14:03:58.69	22.09	6.19	-40.5	-41.8	20.4	0.00e+00	122	41	0	138412032	54	6066
2026-01-21 14:03:59.70	22.13	6.26	-40.3	-41.5	20.4	0.00e+00	120	42	0	141557760	52	6627
2026-01-21 14:04:00.71	22.16	6.34	-39.9	-41.0	20.9	0.00e+00	122	42	0	144703488	52	6244
2026-01-21 14:04:01.72	22.20	6.41	-40.4	-41.6	20.5	0.00e+00	122	42	0	147849216	52	6654
2026-01-21 14:04:02.73	22.23	6.49	-39.9	-41.1	20.8	0.00e+00	122	41	0	150994944	52	6302
2026-01-21 14:04:03.74	22.27	6.56	-39.8	-40.9	21.1	0.00e+00	120	42	0	154140672	52	6164
2026-01-21 14:04:04.75	22.31	6.63	-40.3	-41.4	20.6	0.00e+00	123	42	0	157286400	52	6571
2026-01-21 14:04:05.76	22.34	6.71	-39.7	-40.8	20.9	0.00e+00	122	42	0	160432128	52	6123
2026-01-21 14:04:06.77	22.38	6.78	-39.9	-41.0	21.0	0.00e+00	123	41	0	163577856	52	6236
2026-01-21 14:04:07.78	22.41	6.86	-39.9	-41.0	20.9	0.00e+00	122	41	0	166723584	52	6247
2026-01-21 14:04:08.79	22.45	6.93	-39.9	-41.0	21.0	0.00e+00	122	41	0	169869312	52	6257
2026-01-21 14:04:09.80	22.49	7.01	-40.1	-41.3	20.8	0.00e+00	123	42	0	173015040	52	6435
2026-01-21 14:04:10.81	22.52	7.08	-40.5	-41.6	20.4	0.00e+00	122	41	0	176160768	52	6714
2026-01-21 14:04:11.82	22.56	7.16	-40.3	-41.4	20.6	0.00e+00	123	41	0	179306496	52	6571
2026-01-21 14:04:12.83	22.60	7.24	-40.7	-41.9	20.2	0.00e+00	122	42	0	182452224	54	6146
2026-01-21 14:04:13.84	22.63	7.31	-40.9	-42.1	19.9	0.00e+00	123	42	0	185597952	54	6328
2026-01-21 14:04:14.85	22.67	7.39	-40.6	-41.7	20.2	0.00e+00	122	42	0	188743680	54	6052
2026-01-21 14:04:15.86	22.71	7.47	-40.3	-41.4	20.7	0.00e+00	123	42	0	191889408	54	5819
2026-01-21 14:04:16.87	22.75	7.54	-39.9	-41.0	21.0	0.00e+00	121	41	0	195035136	54	5587
2026-01-21 14:04:17.89	22.79	7.62	-39.6	-40.7	21.2	0.00e+00	123	42	0	198180864	52	6038
2026-01-21 14:04:18.90	22.82	7.70	-39.6	-40.7	21.2	0.00e+00	120	42	0	201326592	52	6062
2026-01-21 14:04:19.90	22.86	7.77	-39.4	-40.5	21.4	0.00e+00	123	42	0	204472320	52	5866
2026-01-21 14:04:20.92	22.90	7.85	-39.5	-40.6	21.4	0.00e+00	123	42	0	207618048	52	5973
2026-01-21 14:04:21.93	22.94	7.93	-39.4	-40.4	21.5	0.00e+00	121	41	0	210763776	52	5857
2026-01-21 14:04:22.94	22.98	8.01	-39.3	-40.4	21.5	0.00e+00	120	41	0	213909504	52	5798
2026-01-21 14:04:23.95	23.02	8.09	-39.3	-40.4	21.5	0.00e+00	123	42	0	217055232	52	5837
2026-01-21 14:04:24.96	23.06	8.17	-39.4	-40.4	21.5	0.00e+00	120	42	0	220200960	52	5854
2026-01-21 14:04:25.97	23.10	8.25	-39.2	-40.3	21.7	0.00e+00	123	42	0	223346688	52	5751
2026-01-21 14:04:26.98	23.14	8.33	-39.1	-40.2	21.8	0.00e+00	120	42	0	226492416	52	5674
2026-01-21 14:04:27.99	23.18	8.41	-39.2	-40.2	21.7	0.00e+00	123	41	0	229638144	52	5714
2026-01-21 14:04:29.00	23.22	8.48	-39.2	-40.3	21.6	0.00e+00	123	41	0	232783872	52	5764
2026-01-21 14:04:30.01	23.26	8.56	-39.0	-40.1	22.0	0.00e+00	122	42	0	235929600	52	5596
2026-01-21 14:04:31.02	23.30	8.65	-39.1	-40.2	21.8	0.00e+00	120	41	0	239075328	52	5685
2026-01-21 14:04:32.03	23.34	8.73	-39.2	-40.2	21.7	0.00e+00	123	41	0	242221056	52	5695
2026-01-21 14:04:33.04	23.38	8.81	-39.1	-40.2	21.9	0.00e+00	120	41	0	245366784	52	5661
2026-01-21 14:04:34.05	23.42	8.89	-39.1	-40.1	21.8	0.00e+00	122	41	0	248512512	52	5656
2026-01-21 14:04:35.06	23.46	8.97	-39.0	-40.0	22.0	0.00e+00	122	41	0	251658240	52	5561
2026-01-21 14:04:36.07	23.50	9.05	-39.1	-40.1	21.9	0.00e+00	123	42	0	254803968	52	5617
2026-01-21 14:04:37.09	23.54	9.13	-39.2	-40.2	22.0	0.00e+00	120	41	0	257949696	52	5709
2026-01-21 14:04:38.10	23.58	9.21	-39.3	-40.4	21.7	0.00e+00	122	41	0	261095424	52	5819
2026-01-21 14:04:39.11	23.63	9.30	-39.2	-40.3	21.9	0.00e+00	122	42	0	264241152	52	5730
2026-01-21 14:04:40.12	23.67	9.38	-39.0	-40.0	22.0	0.00e+00	122	42	0	267386880	52	5560
2026-01-21 14:04:41.13	23.71	9.46	-39.1	-40.2	22.1	0.00e+00	122	41	0	270532608	52	5667
2026-01-21 14:04:42.14	23.75	9.55	-39.1	-40.2	21.9	0.00e+00	120	41	0	273678336	52	5671
2026-01-21 14:04:43.15	23.80	9.63	-38.9	-39.9	22.3	0.00e+00	122	42	0	276824064	52	5525
2026-01-21 14:04:44.16	23.84	9.71	-39.0	-40.1	22.1	0.00e+00	123	41	0	279969792	52	5619
2026-01-21 14:04:45.18	23.88	9.80	-38.6	-39.6	22.4	0.00e+00	123	41	0	283115520	50	5929
2026-01-21 14:04:46.19	23.93	9.88	-38.6	-39.6	22.5	0.00e+00	123	42	0	286261248	50	5959
2026-01-21 14:04:47.20	23.97	9.97	-38.6	-39.6	22.3	0.00e+00	123	41	0	289406976	50	5988
2026-01-21 14:04:48.21	24.01	10.05	-38.5	-39.5	22.4	0.00e+00	122	42	0	292552704	50	5876
2026-01-21 14:04:49.21	24.06	10.13	-38.7	-39.7	22.2	0.00e+00	123	42	0	295698432	50	6063
2026-01-21 14:04:50.22	24.10	10.22	-38.5	-39.6	22.4	0.00e+00	123	42	0	298844160	50	5930
2026-01-21 14:04:51.23	24.15	10.31	-38.6	-39.6	22.3	0.00e+00	121	42	0	303038464	50	5939
2026-01-21 14:04:52.24	24.19	10.39	-38.4	-39.4	22.5	0.00e+00	123	42	0	305135616	50	5841
2026-01-21 14:04:53.25	24.24	10.48	-38.5	-39.5	22.5	0.00e+00	123	42	0	308281344	50	5875
2026-01-21 14:04:54.26	24.28	10.56	-38.5	-39.5	22.5	0.00e+00	122	42	0	311427072	50	5879
2026-01-21 14:04:55.28	24.33	10.65	-38.4	-39.4	22.5	0.00e+00	120	42	0	314572800	50	5847
2026-01-21 14:04:56.29	24.37	10.74	-38.4	-39.4	22.5	0.00e+00	122	42	0	318767104	50	5799
2026-01-21 14:04:57.30	24.42	10.83	-38.3	-39.3	22.6	0.00e+00	123	42	0	321912832	50	5766
2026-01-21 14:04:58.30	24.47	10.91	-38.4	-39.4	22.5	0.00e+00	122	41	0	325058560	50	5817
2026-01-21 14:04:59.32	24.51	11.00	-38.3	-39.3	22.6	0.00e+00	123	42	0	327155712	50	5769
2026-01-21 14:05:00.33	24.56	11.09	-38.3	-39.4	22.6	0.00e+00	122	41	0	330301440	50	5795
2026-01-21 14:05:01.33	24.61	11.18	-38.2	-39.2	22.8	0.00e+00	121	42	0	334495744	50	5698
2026-01-21 14:05:02.35	24.66	11.27	-38.4	-39.4	22.5	0.00e+00	123	42	0	337641472	50	5812
2026-01-21 14:05:03.36	24.70	11.36	-38.3	-39.3	22.6	0.00e+00	123	42	0	340787200	50	5744
2026-01-21 14:05:04.37	24.75	11.44	-38.2	-39.2	22.8	0.00e+00	123	42	0	343932928	50	5674
2026-01-21 14:05:05.38	24.80	11.53	-38.2	-39.2	22.8	0.00e+00	122	42	0	347078656	50	5708
2026-01-21 14:05:06.39	24.85	11.62	-38.4	-39.4	22.7	0.00e+00	123	42	0	350224384	50	5799
2026-01-21 14:05:07.40	24.90	11.71	-38.3	-39.3	22.7	0.00e+00	123	42	0	353370112	50	5735
2026-01-21 14:05:08.41	24.94	11.81	-38.3	-39.3	22.7	0.00e+00	122	42	0	356515840	50	5736
2026-01-21 14:05:09.42	24.99	11.90	-38.2	-39.2	22.8	0.00e+00	123	42	0	359661568	50	5677
2026-01-21 14:05:10.43	25.04	11.99	-38.3	-39.2	22.7	0.00e+00	120	42	0	362807296	50	5725
2026-01-21 14:05:11.44	25.09	12.08	-38.1	-39.1	22.9	0.00e+00	123	42	0	365953024	50	5618
2026-01-21 14:05:12.45	25.14	12.17	-38.2	-39.2	22.8	0.00e+00	123	42	0	369098752	50	5692
2026-01-21 14:05:13.46	25.19	12.26	-38.3	-39.3	22.8	0.00e+00	123	42	0	372244480	50	5745
2026-01-21 14:05:14.47	25.24	12.36	-38.3	-39.3	22.7	0.00e+00	120	42	0	375390208	50	5745
2026-01-21 14:05:15.48	25.30	12.45	-38.2	-39.2	22.8	0.00e+00	122	42	0	378535936	50	5674
2026-01-21 14:05:16.49	25.35	12.54	-38.1	-39.1	22.8	0.00e+00	120	42	0	381681664	50	5614
2026-01-21 14:05:17.50	25.40	12.64	-38.1	-39.1	22.9	0.00e+00	123	42	0	384827392	50	5612
2026-01-21 14:05:18.51	25.45	12.73	-38.1	-39.1	22.9	0.00e+00	122	42	0	387973120	50	5597
2026-01-21 14:05:19.52	25.50	12.82	-38.1	-39.1	22.9	0.00e+00	120	41	0	391118848	50	5617
2026-01-21 14:05:20.53	25.55	12.92	-38.1	-39.0	23.0	0.00e+00	122	41	0	394264576	50	5584
2026-01-21 14:05:21.53	25.61	13.01	-38.2	-39.2	22.8	0.00e+00	122	42	0	397410304	50	5709
2026-01-21 14:05:22.54	25.66	13.11	-38.2	-39.2	22.8	0.00e+00	123	42	0	400556032	50	5705
2026-01-21 14:05:23.55	25.71	13.20	-38.4	-39.4	22.6	0.00e+00	123	42	0	403701760	50	5838
2026-01-21 14:05:24.57	25.77	13.30	-38.8	-39.8	22.4	0.00e+00	120	42	0	406847488	50	6101
2026-01-21 14:05:25.58	25.82	13.40	-38.2	-39.2	22.9	0.00e+00	120	41	0	409993216	50	5697
2026-01-21 14:05:26.59	25.88	13.49	-38.2	-39.2	22.8	0.00e+00	123	42	0	413138944	50	5688
2026-01-21 14:05:27.60	25.93	13.59	-38.5	-39.5	22.6	0.00e+00	122	42	0	416284672	50	5888
2026-01-21 14:05:28.61	25.99	13.69	-38.9	-39.9	22.2	0.00e+00	122	42	0	419430400	50	6203
2026-01-21 14:05:29.62	26.04	13.79	-38.5	-39.5	22.7	0.00e+00	123	42	0	422576128	50	5905
2026-01-21 14:05:30.63	26.10	13.89	-38.4	-39.4	22.8	0.00e+00	123	42	0	425721856	50	5852
2026-01-21 14:05:31.64	26.15	13.98	-38.2	-39.1	23.0	0.00e+00	123	42	0	428867584	50	5644
2026-01-21 14:05:32.65	26.21	14.08	-38.1	-39.0	23.0	0.00e+00	122	42	0	432013312	50	5573
2026-01-21 14:05:33.66	26.27	14.18	-38.1	-39.0	23.0	0.00e+00	122	42	0	435159040	50	5593
2026-01-21 14:05:34.67	26.32	14.28	-37.9	-38.8	23.2	0.00e+00	122	42	0	438304768	50	5447
2026-01-21 14:05:35.68	26.38	14.38	-38.0	-38.9	23.2	0.00e+00	122	42	0	441450496	50	5516
2026-01-21 14:05:36.69	26.44	14.48	-37.9	-38.8	23.2	0.00e+00	122	42	0	444596224	50	5459
2026-01-21 14:05:37.70	26.50	14.58	-37.9	-38.8	23.2	0.00e+00	123	42	0	447741952	50	5467
2026-01-21 14:05:38.71	26.55	14.69	-37.9	-38.9	23.2	0.00e+00	123	42	0	450887680	50	5491
2026-01-21 14:05:39.72	26.61	14.79	-37.9	-38.9	23.1	0.00e+00	123	42	0	454033408	50	5518
2026-01-21 14:05:40.73	26.67	14.89	-37.9	-38.9	23.0	0.00e+00	122	42	0	457179136	50	5497
2026-01-21 14:05:41.74	26.73	14.99	-38.1	-39.1	23.0	0.00e+00	123	42	0	460324864	50	5626
2026-01-21 14:05:42.75	26.79	15.10	-38.2	-39.1	23.1	0.00e+00	123	42	0	463470592	50	5652
2026-01-21 14:05:43.76	26.85	15.20	-37.9	-38.8	23.3	0.00e+00	123	42	0	466616320	50	5448
2026-01-21 14:05:44.77	26.91	15.30	-38.1	-39.1	23.2	0.00e+00	120	42	0	469762048	50	5597
2026-01-21 14:05:45.78	26.97	15.41	-37.9	-38.9	23.3	0.00e+00	122	42	0	472907776	50	5480
2026-01-21 14:05:46.79	27.04	15.51	-38.0	-39.0	23.1	0.00e+00	122	42	0	476053504	50	5551
2026-01-21 14:05:47.80	27.10	15.62	-37.9	-38.8	23.3	0.00e+00	122	42	0	479199232	50	5454
2026-01-21 14:05:48.81	27.16	15.72	-37.9	-38.9	23.2	0.00e+00	123	42	0	482344960	50	5473
2026-01-21 14:05:49.82	27.22	15.83	-37.9	-38.9	23.2	0.00e+00	123	42	0	485490688	50	5477
2026-01-21 14:05:50.83	27.29	15.94	-37.9	-38.8	23.2	0.00e+00	122	42	0	488636416	50	5466
2026-01-21 14:05:51.84	27.35	16.04	-37.9	-38.9	23.2	0.00e+00	123	42	0	491782144	50	5495
2026-01-21 14:05:52.85	27.41	16.15	-37.8	-38.8	23.2	0.00e+00	123	42	0	494927872	50	5436
2026-01-21 14:05:53.86	27.48	16.26	-38.0	-38.9	23.2	0.00e+00	123	42	0	498073600	50	5516
2026-01-21 14:05:54.87	27.54	16.37	-38.1	-39.0	23.1	0.00e+00	123	42	0	501219328	50	5579
2026-01-21 14:05:55.88	27.61	16.47	-38.2	-39.1	23.0	0.00e+00	122	42	0	504365056	50	5658
2026-01-21 14:05:56.89	27.67	16.58	-38.4	-39.4	22.8	0.00e+00	123	42	0	507510784	50	5799
2026-01-21 14:05:57.90	27.74	16.69	-38.6	-39.6	22.6	0.00e+00	120	42	0	510656512	50	5974
2026-01-21 14:05:58.91	27.81	16.80	-38.6	-39.5	22.6	0.00e+00	123	42	0	513802240	50	5923
2026-01-21 14:05:59.92	27.87	16.91	-38.3	-39.3	22.8	0.00e+00	122	42	0	516947968	50	5757
2026-01-21 14:06:00.91	27.94	17.02	-38.2	-39.1	22.9	0.00e+00	123	42	0	520093696	50	5658
2026-01-21 14:06:01.92	28.01	17.13	-38.2	-39.2	22.9	0.00e+00	123	42	0	523239424	50	5682
2026-01-21 14:06:02.93	28.08	17.25	-38.2	-39.2	22.9	0.00e+00	122	42	0	526385152	50	5669
2026-01-21 14:06:03.94	28.15	17.36	-38.0	-39.0	23.1	0.00e+00	120	42	0	529530880	50	5548
2026-01-21 14:06:04.95	28.22	17.47	-38.0	-39.0	23.0	0.00e+00	123	42	0	532676608	50	5573
2026-01-21 14:06:05.96	28.29	17.58	-38.1	-39.1	23.1	0.00e+00	123	42	0	535822336	50	5597
2026-01-21 14:06:06.96	28.35	17.70	-38.0	-38.9	23.2	0.00e+00	122	42	0	538968064	50	5510
2026-01-21 14:06:07.97	28.43	17.81	-38.0	-39.0	23.1	0.00e+00	120	42	0	542113792	50	5572
2026-01-21 14:06:08.98	28.50	17.93	-38.0	-39.0	23.1	0.00e+00	122	42	0	545259520	50	5554
2026-01-21 14:06:09.99	28.57	18.04	-38.0	-39.0	23.1	0.00e+00	123	42	0	548405248	50	5565
2026-01-21 14:06:11.00	28.64	18.16	-38.0	-39.0	23.1	0.00e+00	123	42	0	551550976	50	5540
2026-01-21 14:06:12.01	28.71	18.27	-38.1	-39.1	23.0	0.00e+00	120	42	0	554696704	50	5600
2026-01-21 14:06:13.02	28.79	18.39	-38.2	-39.2	22.9	0.00e+00	123	42	0	557842432	50	5695
2026-01-21 14:06:14.04	28.86	18.51	-38.2	-39.2	22.9	0.00e+00	120	42	0	560988160	50	5700
2026-01-21 14:06:15.05	28.94	18.63	-38.2	-39.1	23.0	0.00e+00	123	42	0	564133888	50	5655
2026-01-21 14:06:16.06	29.01	18.74	-38.2	-39.1	22.9	0.00e+00	122	42	0	567279616	50	5657
2026-01-21 14:06:17.07	29.09	18.86	-38.0	-38.9	23.1	0.00e+00	123	42	0	570425344	50	5519
2026-01-21 14:06:18.08	29.16	18.98	-38.0	-38.9	23.2	0.00e+00	123	42	0	573571072	50	5511
2026-01-21 14:06:19.09	29.24	19.10	-38.0	-39.0	23.1	0.00e+00	122	42	0	576716800	50	5548
2026-01-21 14:06:20.10	29.32	19.22	-38.0	-38.9	23.1	0.00e+00	122	42	0	579862528	50	5511
2026-01-21 14:06:21.11	29.40	19.34	-38.0	-39.0	23.0	0.00e+00	123	42	0	583008256	50	5550
2026-01-21 14:06:22.12	29.48	19.47	-38.1	-39.1	23.1	0.00e+00	123	42	0	586153984	50	5601
2026-01-21 14:06:23.13	29.55	19.59	-37.9	-38.8	23.2	0.00e+00	120	42	0	589299712	50	5467
2026-01-21 14:06:24.14	29.63	19.71	-37.8	-38.7	23.3	0.00e+00	123	42	0	592445440	50	5383
2026-01-21 14:06:25.15	29.71	19.83	-37.8	-38.7	23.3	0.00e+00	123	42	0	595591168	48	6062
2026-01-21 14:06:26.16	29.80	19.96	-37.8	-38.8	23.3	0.00e+00	120	42	0	598736896	48	6082
2026-01-21 14:06:27.17	29.88	20.08	-37.6	-38.6	23.4	0.00e+00	123	42	0	601882624	48	5951
2026-01-21 14:06:28.18	29.96	20.21	-37.8	-38.7	23.3	0.00e+00	120	42	0	605028352	48	6047
2026-01-21 14:06:29.19	30.04	20.33	-37.7	-38.7	23.3	0.00e+00	123	42	0	608174080	48	6016
2026-01-21 14:06:30.20	30.13	20.46	-37.6	-38.5	23.4	0.00e+00	123	42	0	611319808	48	5903
2026-01-21 14:06:31.21	30.21	20.59	-37.7	-38.7	23.4	0.00e+00	122	42	0	614465536	48	6006
2026-01-21 14:06:32.22	30.29	20.71	-37.6	-38.6	23.4	0.00e+00	123	42	0	617611264	48	5943
2026-01-21 14:06:33.23	30.38	20.84	-37.6	-38.5	23.4	0.00e+00	120	42	0	620756992	48	5909
2026-01-21 14:06:34.24	30.47	20.97	-37.6	-38.5	23.5	0.00e+00	121	42	0	623902720	48	5885
2026-01-21 14:06:35.25	30.55	21.10	-37.3	-38.2	23.7	0.00e+00	123	42	0	627048448	48	5712
2026-01-21 14:06:36.27	30.64	21.23	-37.3	-38.2	23.7	0.00e+00	123	42	0	630194176	48	5716
2026-01-21 14:06:37.28	30.73	21.36	-37.2	-38.1	23.8	0.00e+00	118	42	0	634388480	48	5650
2026-01-21 14:06:38.28	30.82	21.49	-37.1	-38.0	23.8	0.00e+00	122	42	0	637534208	48	5555
2026-01-21 14:06:39.29	30.91	21.62	-37.1	-38.1	23.8	0.00e+00	122	42	0	640679936	48	5595
2026-01-21 14:06:40.30	31.00	21.75	-37.0	-38.0	24.0	0.00e+00	123	42	0	643825664	48	5543
2026-01-21 14:06:41.31	31.09	21.89	-36.9	-37.8	24.0	0.00e+00	122	42	0	645922816	48	5458
2026-01-21 14:06:42.33	31.18	22.02	-36.9	-37.8	24.0	0.00e+00	123	42	0	649068544	48	5465
2026-01-21 14:06:43.33	31.27	22.15	-36.9	-37.8	24.1	0.00e+00	120	42	0	653262848	48	5449
2026-01-21 14:06:44.34	31.37	22.29	-36.8	-37.7	24.1	0.00e+00	122	42	0	656408576	48	5394
2026-01-21 14:06:45.35	31.46	22.42	-36.7	-37.6	24.3	0.00e+00	120	42	0	659554304	48	5339
2026-01-21 14:06:46.37	31.56	22.56	-36.8	-37.7	24.1	0.00e+00	123	42	0	662700032	46	6062
2026-01-21 14:06:47.38	31.65	22.70	-36.8	-37.7	24.2	0.00e+00	122	42	0	665845760	46	6034
2026-01-21 14:06:48.39	31.75	22.84	-37.0	-37.9	24.1	0.00e+00	122	42	0	668991488	46	6186
2026-01-21 14:06:49.40	31.85	22.97	-36.9	-37.8	24.2	0.00e+00	123	42	0	672137216	46	6096
2026-01-21 14:06:50.41	31.94	23.11	-37.0	-37.9	24.2	0.00e+00	122	42	0	675282944	46	6152
2026-01-21 14:06:51.42	32.04	23.25	-36.7	-37.6	24.3	0.00e+00	122	42	0	678428672	46	5962
2026-01-21 14:06:52.43	32.14	23.39	-36.6	-37.5	24.4	0.00e+00	122	42	0	681574400	46	5859
2026-01-21 14:06:53.44	32.24	23.53	-36.5	-37.4	24.4	0.00e+00	122	42	0	684720128	46	5823
2026-01-21 14:06:54.45	32.35	23.67	-36.4	-37.3	24.6	0.00e+00	120	42	0	687865856	46	5727
2026-01-21 14:06:55.46	32.45	23.82	-36.5	-37.4	24.5	0.00e+00	120	42	0	691011584	46	5799
2026-01-21 14:06:56.47	32.55	23.96	-36.5	-37.3	24.5	0.00e+00	122	42	0	694157312	46	5789
2026-01-21 14:06:57.48	32.66	24.10	-36.5	-37.4	24.5	0.00e+00	122	42	0	697303040	46	5831
2026-01-21 14:06:58.49	32.76	24.25	-36.7	-37.6	24.4	0.00e+00	123	42	0	700448768	46	5934
2026-01-21 14:06:59.50	32.87	24.39	-36.6	-37.5	24.5	0.00e+00	122	42	0	703594496	46	5911
2026-01-21 14:07:00.51	32.97	24.54	-36.6	-37.5	24.5	0.00e+00	123	42	0	706740224	46	5860
2026-01-21 14:07:01.52	33.08	24.68	-36.6	-37.5	24.4	0.00e+00	122	42	0	709885952	46	5862
2026-01-21 14:07:02.53	33.19	24.83	-36.7	-37.7	24.4	0.00e+00	123	42	0	713031680	46	5995
2026-01-21 14:07:03.54	33.30	24.98	-36.6	-37.5	24.5	0.00e+00	123	42	0	716177408	46	5887
2026-01-21 14:07:04.55	33.41	25.13	-36.6	-37.5	24.4	0.00e+00	122	42	0	719323136	46	5909
2026-01-21 14:07:05.56	33.52	25.27	-36.8	-37.7	24.3	0.00e+00	123	42	0	722468864	46	6021
2026-01-21 14:07:06.57	33.64	25.42	-36.7	-37.6	24.4	0.00e+00	122	42	0	725614592	46	5985
2026-01-21 14:07:07.58	33.75	25.57	-36.9	-37.8	24.2	0.00e+00	123	42	0	728760320	46	6098
2026-01-21 14:07:08.60	33.87	25.73	-36.9	-37.8	24.3	0.00e+00	120	42	0	731906048	46	6106
2026-01-21 14:07:09.61	33.98	25.88	-37.1	-38.0	24.1	0.00e+00	123	42	0	735051776	46	6234
2026-01-21 14:07:10.62	34.10	26.03	-37.2	-38.1	24.1	0.00e+00	122	42	0	738197504	46	6293
2026-01-21 14:07:11.63	34.22	26.19	-37.3	-38.2	23.9	0.00e+00	120	42	0	741343232	46	6358
2026-01-21 14:07:12.64	34.34	26.34	-37.2	-38.1	24.0	0.00e+00	122	42	0	744488960	46	6331
2026-01-21 14:07:13.65	34.46	26.50	-37.4	-38.3	23.9	0.00e+00	123	42	0	747634688	46	6442
2026-01-21 14:07:14.66	34.58	26.65	-37.4	-38.3	23.9	0.00e+00	121	42	0	750780416	46	6486
2026-01-21 14:07:15.67	34.70	26.81	-37.6	-38.5	23.7	0.00e+00	123	42	0	753926144	46	6604
2026-01-21 14:07:16.68	34.83	26.97	-37.7	-38.6	23.6	0.00e+00	120	42	0	757071872	46	6689
2026-01-21 14:07:17.69	34.95	27.12	-37.7	-38.7	23.6	0.00e+00	123	42	0	760217600	48	6022
2026-01-21 14:07:18.70	35.08	27.28	-37.9	-38.8	23.5	0.00e+00	123	42	0	763363328	48	6111
2026-01-21 14:07:19.71	35.21	27.44	-37.8	-38.7	23.5	0.00e+00	123	42	0	766509056	48	6026
2026-01-21 14:07:20.72	35.33	27.60	-38.0	-38.9	23.4	0.00e+00	123	42	0	769654784	48	6179
2026-01-21 14:07:21.73	35.47	27.77	-37.8	-38.7	23.5	0.00e+00	123	42	0	772800512	48	6049
2026-01-21 14:07:22.74	35.60	27.93	-37.5	-38.4	23.8	0.00e+00	123	42	0	775946240	48	5847
2026-01-21 14:07:23.75	35.73	28.09	-37.6	-38.5	23.7	0.00e+00	123	42	0	779091968	48	5895
2026-01-21 14:07:24.76	35.86	28.25	-37.5	-38.5	23.7	0.00e+00	122	42	0	782237696	48	5864
2026-01-21 14:07:25.78	36.00	28.42	-37.6	-38.6	23.7	0.00e+00	123	42	0	785383424	48	5949
2026-01-21 14:07:26.79	36.14	28.59	-37.8	-38.7	23.5	0.00e+00	123	42	0	788529152	48	6043
2026-01-21 14:07:27.80	36.27	28.75	-37.8	-38.7	23.5	0.00e+00	123	42	0	791674880	48	6035
2026-01-21 14:07:28.81	36.41	28.92	-37.8	-38.8	23.5	0.00e+00	122	42	0	794820608	48	6073
2026-01-21 14:07:29.82	36.56	29.09	-37.8	-38.8	23.3	0.00e+00	123	42	0	797966336	48	6094
2026-01-21 14:07:30.83	36.70	29.26	-37.7	-38.7	23.4	0.00e+00	120	42	0	801112064	48	6023
2026-01-21 14:07:31.84	36.84	29.43	-37.7	-38.7	23.4	0.00e+00	123	42	0	804257792	48	6012
2026-01-21 14:07:32.85	36.99	29.60	-37.8	-38.8	23.5	0.00e+00	123	42	0	807403520	48	6069
2026-01-21 14:07:33.86	37.13	29.77	-37.7	-38.7	23.5	0.00e+00	123	42	0	810549248	48	6022
2026-01-21 14:07:34.87	37.28	29.94	-37.7	-38.7	23.5	0.00e+00	120	42	0	813694976	48	6002
2026-01-21 14:07:35.88	37.43	30.11	-37.6	-38.6	23.5	0.00e+00	122	42	0	816840704	48	5928
2026-01-21 14:07:36.89	37.58	30.29	-37.5	-38.4	23.7	0.00e+00	123	42	0	819986432	48	5812
2026-01-21 14:07:37.90	37.74	30.46	-37.5	-38.5	23.6	0.00e+00	123	42	0	823132160	48	5863
2026-01-21 14:07:38.91	37.89	30.64	-37.5	-38.5	23.8	0.00e+00	123	42	0	826277888	48	5876
2026-01-21 14:07:39.92	38.05	30.81	-37.6	-38.5	23.7	0.00e+00	123	42	0	829423616	48	5919
2026-01-21 14:07:40.93	38.20	30.99	-37.5	-38.5	23.7	0.00e+00	122	42	0	832569344	48	5879
2026-01-21 14:07:41.95	38.37	31.17	-37.6	-38.5	23.7	0.00e+00	120	42	0	835715072	48	5894
2026-01-21 14:07:42.95	38.53	31.35	-37.7	-38.7	23.7	0.00e+00	122	42	0	838860800	48	6019
2026-01-21 14:07:43.96	38.69	31.53	-37.8	-38.7	23.7	0.00e+00	123	42	0	842006528	48	6045
2026-01-21 14:07:44.97	38.85	31.71	-37.6	-38.5	23.8	0.00e+00	122	42	0	845152256	48	5918
2026-01-21 14:07:45.98	39.02	31.89	-37.6	-38.5	23.8	0.00e+00	122	42	0	848297984	48	5911
2026-01-21 14:07:46.99	39.19	32.07	-37.6	-38.5	23.7	0.00e+00	122	42	0	851443712	48	5916
2026-01-21 14:07:48.00	39.36	32.26	-37.6	-38.5	23.8	0.00e+00	123	42	0	854589440	48	5897
2026-01-21 14:07:49.01	39.53	32.44	-37.6	-38.5	23.8	0.00e+00	122	42	0	857735168	48	5891
2026-01-21 14:07:50.02	39.71	32.63	-37.7	-38.6	23.8	0.00e+00	120	42	0	860880896	48	5953
2026-01-21 14:07:51.03	39.88	32.81	-37.9	-38.9	23.6	0.00e+00	123	42	0	864026624	48	6160
2026-01-21 14:07:52.04	40.06	33.00	-37.9	-38.9	23.5	0.00e+00	120	42	0	867172352	48	6151
2026-01-21 14:07:53.05	40.24	33.19	-38.1	-39.1	23.3	0.00e+00	123	42	0	870318080	48	6308
2026-01-21 14:07:54.07	40.42	33.38	-38.3	-39.2	23.2	0.00e+00	123	42	0	873463808	48	6411
2026-01-21 14:07:55.08	40.61	33.57	-38.6	-39.5	23.0	0.00e+00	120	42	0	876609536	48	6634
2026-01-21 14:07:56.09	40.79	33.76	-38.7	-39.7	22.9	0.00e+00	123	42	0	879755264	48	6766
2026-01-21 14:07:57.10	40.98	33.95	-38.9	-39.9	22.6	0.00e+00	122	42	0	882900992	50	6198
2026-01-21 14:07:58.11	41.17	34.14	-38.9	-39.9	22.7	0.00e+00	120	42	0	886046720	50	6169
2026-01-21 14:07:59.12	41.37	34.33	-39.0	-40.0	22.6	0.00e+00	123	42	0	889192448	50	6230
2026-01-21 14:08:00.13	41.56	34.53	-39.1	-40.1	22.6	0.00e+00	123	42	0	892338176	50	6306
2026-01-21 14:08:01.12	41.75	34.72	-39.3	-40.3	22.4	0.00e+00	123	42	0	895483904	50	6469
2026-01-21 14:08:02.13	41.95	34.91	-39.4	-40.5	22.3	0.00e+00	122	42	0	898629632	50	6588
2026-01-21 14:08:03.14	42.16	35.11	-39.1	-40.1	22.6	0.00e+00	123	42	0	901775360	50	6330
2026-01-21 14:08:04.15	42.36	35.31	-39.2	-40.3	22.5	0.00e+00	123	42	0	904921088	50	6436
2026-01-21 14:08:05.17	42.57	35.51	-39.4	-40.4	22.4	0.00e+00	123	42	0	908066816	50	6519
2026-01-21 14:08:06.18	42.78	35.70	-39.2	-40.3	22.5	0.00e+00	123	42	0	912261120	50	6424
2026-01-21 14:08:07.19	42.99	35.90	-39.4	-40.4	22.2	0.00e+00	123	42	0	914358272	50	6538
2026-01-21 14:08:08.20	43.21	36.10	-39.6	-40.6	22.1	0.00e+00	123	42	0	917504000	50	6680
2026-01-21 14:08:09.21	43.42	36.31	-39.4	-40.4	22.3	0.00e+00	122	42	0	920649728	50	6551
2026-01-21 14:08:10.22	43.64	36.51	-39.5	-40.6	22.1	0.00e+00	123	42	0	923795456	50	6665
2026-01-21 14:08:11.23	43.86	36.71	-39.7	-40.7	22.0	0.00e+00	122	42	0	927989760	50	6792
2026-01-21 14:08:12.24	44.09	36.91	-39.6	-40.6	22.3	0.00e+00	122	42	0	931135488	52	5992
2026-01-21 14:08:13.25	44.32	37.12	-39.5	-40.5	22.2	0.00e+00	123	42	0	934281216	52	5892
2026-01-21 14:08:14.26	44.55	37.32	-39.7	-40.7	22.0	0.00e+00	122	42	0	937426944	52	6022
2026-01-21 14:08:15.27	44.78	37.53	-39.9	-40.9	21.9	0.00e+00	123	42	0	939524096	52	6200
2026-01-21 14:08:16.28	45.02	37.74	-40.0	-41.0	21.9	0.00e+00	122	42	0	943718400	52	6258
2026-01-21 14:08:17.29	45.26	37.94	-40.0	-41.1	21.6	0.00e+00	122	42	0	946864128	52	6315
2026-01-21 14:08:18.30	45.50	38.15	-40.2	-41.3	21.4	0.00e+00	120	42	0	950009856	52	6492
2026-01-21 14:08:19.31	45.75	38.36	-40.2	-41.3	21.3	0.00e+00	123	42	0	953155584	52	6491
2026-01-21 14:08:20.32	46.00	38.57	-40.0	-41.1	21.4	0.00e+00	122	42	0	956301312	52	6311
2026-01-21 14:08:21.33	46.25	38.78	-40.1	-41.2	21.3	0.00e+00	122	42	0	959447040	52	6406
2026-01-21 14:08:22.34	46.50	38.99	-40.3	-41.5	21.2	0.00e+00	123	42	0	962592768	52	6585
2026-01-21 14:08:23.35	46.76	39.20	-40.5	-41.6	21.3	0.00e+00	120	42	0	965738496	52	6673
2026-01-21 14:08:24.36	47.02	39.42	-40.8	-41.9	20.9	0.00e+00	122	42	0	968884224	54	6198
2026-01-21 14:08:25.37	47.29	39.63	-40.4	-41.5	21.3	0.00e+00	120	42	0	972029952	54	5919
2026-01-21 14:08:26.38	47.56	39.84	-40.1	-41.2	21.6	0.00e+00	123	42	0	975175680	54	5671
2026-01-21 14:08:27.39	47.83	40.06	-40.3	-41.4	21.3	0.00e+00	123	42	0	978321408	54	5821
2026-01-21 14:08:28.40	48.10	40.27	-40.2	-41.3	21.5	0.00e+00	123	42	0	981467136	54	5738
2026-01-21 14:08:29.41	48.38	40.49	-39.8	-40.8	21.9	0.00e+00	123	42	0	984612864	52	6103
2026-01-21 14:08:30.42	48.67	40.70	-39.9	-40.9	21.9	0.00e+00	123	42	0	987758592	52	6204
2026-01-21 14:08:31.43	48.95	40.92	-39.8	-40.8	22.0	0.00e+00	122	42	0	990904320	52	6119
2026-01-21 14:08:32.44	49.24	41.14	-39.8	-40.8	22.0	0.00e+00	120	42	0	994050048	52	6104
2026-01-21 14:08:33.45	49.54	41.36	-39.8	-40.8	22.0	0.00e+00	122	42	0	997195776	52	6132
2026-01-21 14:08:34.46	49.84	41.57	-39.7	-40.8	22.0	0.00e+00	123	42	0	1000341504	52	6083
2026-01-21 14:08:35.47	50.14	41.79	-39.6	-40.6	22.0	0.00e+00	122	42	0	1003487232	52	5989
2026-01-21 14:08:36.48	50.44	42.01	-39.8	-40.9	21.9	0.00e+00	122	42	0	1006632960	52	6147
2026-01-21 14:08:37.49	50.75	42.23	-40.0	-41.0	21.7	0.00e+00	121	42	0	1009778688	52	6263
2026-01-21 14:08:38.50	51.07	42.45	-40.0	-41.1	21.8	0.00e+00	123	42	0	1012924416	52	6280
2026-01-21 14:08:39.51	51.39	42.67	-40.0	-41.0	21.8	0.00e+00	123	42	0	1016070144	52	6277
2026-01-21 14:08:40.52	51.71	42.89	-40.1	-41.2	21.6	0.00e+00	122	42	0	1019215872	52	6358
2026-01-21 14:08:41.53	52.04	43.11	-40.4	-41.5	21.3	0.00e+00	122	42	0	1022361600	52	6618
2026-01-21 14:08:42.54	52.37	43.33	-41.0	-42.1	20.8	0.00e+00	123	42	0	1025507328	54	6338
2026-01-21 14:08:43.55	52.71	43.55	-41.1	-42.3	20.7	0.00e+00	122	42	0	1028653056	54	6464
2026-01-21 14:08:44.57	53.05	43.78	-40.9	-42.0	20.9	0.00e+00	121	42	0	1031798784	54	6259
2026-01-21 14:08:45.58	53.40	44.00	-40.6	-41.8	21.1	0.00e+00	123	42	0	1034944512	54	6076
2026-01-21 14:08:46.59	53.75	44.22	-40.5	-41.7	21.1	0.00e+00	122	42	0	1038090240	54	6011
2026-01-21 14:08:47.60	54.11	44.44	-40.4	-41.5	21.3	0.00e+00	123	42	0	1041235968	54	5918
2026-01-21 14:08:48.61	54.47	44.67	-40.2	-41.2	21.6	0.00e+00	123	42	0	1044381696	54	5715
2026-01-21 14:08:49.62	54.83	44.89	-40.3	-41.4	21.5	0.00e+00	123	42	0	1047527424	54	5839
2026-01-21 14:08:50.63	55.20	45.11	-40.3	-41.4	21.5	0.00e+00	123	42	0	1050673152	54	5848
2026-01-21 14:08:51.64	55.58	45.33	-40.1	-41.2	21.6	0.00e+00	122	42	0	1053818880	54	5665
2026-01-21 14:08:52.65	55.96	45.55	-40.0	-41.1	21.7	0.00e+00	120	42	0	1056964608	54	5640
2026-01-21 14:08:53.66	56.35	45.78	-39.8	-40.8	22.0	0.00e+00	123	42	0	1060110336	52	6118
2026-01-21 14:08:54.67	56.74	46.00	-39.4	-40.4	22.4	0.00e+00	120	42	0	1063256064	52	5857
2026-01-21 14:08:55.68	57.14	46.22	-39.4	-40.4	22.3	0.00e+00	123	42	0	1066401792	52	5857
2026-01-21 14:08:56.69	57.54	46.44	-39.3	-40.3	22.4	0.00e+00	120	42	0	1069547520	52	5759
2026-01-21 14:08:57.70	57.95	46.66	-39.4	-40.4	22.3	0.00e+00	121	42	0	1072693248	52	5807
2026-01-21 14:08:58.71	58.36	46.88	-39.6	-40.6	22.1	0.00e+00	123	42	0	1075838976	52	5945
2026-01-21 14:08:59.72	58.78	47.10	-39.7	-40.7	22.0	0.00e+00	123	42	0	1078984704	52	6023
2026-01-21 14:09:00.73	59.21	47.32	-39.8	-40.8	22.0	0.00e+00	122	42	0	1082130432	52	6108
2026-01-21 14:09:01.74	59.64	47.54	-39.9	-41.0	21.8	0.00e+00	122	42	0	1085276160	52	6232
2026-01-21 14:09:02.75	60.08	47.75	-39.9	-41.0	21.7	0.00e+00	122	42	0	1088421888	52	6243
2026-01-21 14:09:03.76	60.52	47.97	-39.8	-40.9	21.6	0.00e+00	123	42	0	1091567616	52	6142
2026-01-21 14:09:04.77	60.97	48.19	-39.7	-40.8	21.7	0.00e+00	123	42	0	1094713344	52	6094
2026-01-21 14:09:05.79	61.43	48.41	-40.0	-41.1	21.6	0.00e+00	123	42	0	1097859072	52	6282
2026-01-21 14:09:06.80	61.90	48.62	-39.6	-40.6	22.1	0.00e+00	123	42	0	1101004800	52	5949
2026-01-21 14:09:07.81	62.37	48.84	-39.7	-40.7	21.9	0.00e+00	122	42	0	1104150528	52	6049
2026-01-21 14:09:08.82	62.84	49.05	-39.9	-41.0	21.8	0.00e+00	123	42	0	1107296256	52	6216
2026-01-21 14:09:09.83	63.33	49.26	-40.0	-41.0	21.7	0.00e+00	122	42	0	1110441984	52	6271
2026-01-21 14:09:10.84	63.81	49.47	-40.1	-41.2	21.5	0.00e+00	122	42	0	1113587712	52	6389
2026-01-21 14:09:11.85	64.31	49.68	-40.1	-41.1	21.6	0.00e+00	122	42	0	1116733440	52	6341
2026-01-21 14:09:12.86	64.81	49.89	-39.4	-40.5	22.2	0.00e+00	123	42	0	1119879168	52	5860
2026-01-21 14:09:13.87	65.32	50.10	-39.3	-40.3	22.3	0.00e+00	123	42	0	1123024896	52	5731
2026-01-21 14:09:14.88	65.84	50.30	-39.3	-40.3	22.4	0.00e+00	122	42	0	1126170624	52	5757
2026-01-21 14:09:15.89	66.36	50.50	-39.5	-40.5	22.2	0.00e+00	122	42	0	1129316352	52	5901
2026-01-21 14:09:16.90	66.89	50.71	-39.2	-40.2	22.4	0.00e+00	123	42	0	1132462080	52	5693
2026-01-21 14:09:17.91	67.43	50.91	-39.1	-40.1	22.6	0.00e+00	123	42	0	1135607808	52	5616
2026-01-21 14:09:18.92	67.98	51.11	-38.9	-39.9	22.8	0.00e+00	123	42	0	1138753536	52	5486
2026-01-21 14:09:19.93	68.53	51.30	-38.7	-39.7	22.9	0.00e+00	122	42	0	1141899264	52	5365
2026-01-21 14:09:20.94	69.09	51.50	-38.8	-39.8	22.9	0.00e+00	123	42	0	1145044992	50	6118
2026-01-21 14:09:21.95	69.65	51.69	-38.6	-39.6	22.9	0.00e+00	123	42	0	1148190720	50	5963
2026-01-21 14:09:22.97	70.23	51.88	-38.6	-39.6	23.0	0.00e+00	122	42	0	1151336448	50	5939
2026-01-21 14:09:23.98	70.81	52.07	-38.4	-39.3	23.1	0.00e+00	123	42	0	1154482176	50	5783
2026-01-21 14:09:24.99	71.40	52.26	-38.4	-39.4	23.2	0.00e+00	120	42	0	1157627904	50	5816
2026-01-21 14:09:26.00	72.00	52.44	-38.7	-39.7	22.8	0.00e+00	123	42	0	1160773632	50	6034
2026-01-21 14:09:27.01	72.60	52.62	-39.2	-40.3	22.6	0.00e+00	123	42	0	1163919360	50	6424
2026-01-21 14:09:28.02	73.21	52.80	-38.8	-39.8	22.7	0.00e+00	123	42	0	1167065088	50	6110
2026-01-21 14:09:29.03	73.83	52.98	-38.9	-39.9	22.7	0.00e+00	120	42	0	1170210816	50	6141
2026-01-21 14:09:30.04	74.46	53.15	-38.6	-39.6	23.0	0.00e+00	123	42	0	1173356544	50	5963
2026-01-21 14:09:31.06	75.10	53.33	-38.6	-39.6	23.0	0.00e+00	123	42	0	1176502272	50	5942
2026-01-21 14:09:32.07	75.74	53.49	-38.7	-39.7	23.0	0.00e+00	123	42	0	1179648000	50	6044
2026-01-21 14:09:33.08	76.38	53.66	-38.4	-39.4	23.2	0.00e+00	123	42	0	1182793728	50	5792
2026-01-21 14:09:34.09	77.04	53.82	-38.1	-39.1	23.4	0.00e+00	122	42	0	1185939456	50	5613
2026-01-21 14:09:35.10	77.70	53.98	-37.9	-38.9	23.5	0.00e+00	121	42	0	1189085184	50	5482
2026-01-21 14:09:36.11	78.37	54.13	-38.0	-38.9	23.5	0.00e+00	123	42	0	1192230912	50	5505
2026-01-21 14:09:37.12	79.05	54.28	-38.4	-39.3	23.1	0.00e+00	123	42	0	1195376640	50	5791
2026-01-21 14:09:38.13	79.73	54.43	-38.0	-39.0	23.5	0.00e+00	123	42	0	1199570944	50	5545
2026-01-21 14:09:39.14	80.42	54.57	-37.7	-38.6	23.7	0.00e+00	123	42	0	1202716672	50	5338
2026-01-21 14:09:40.15	81.12	54.72	-37.8	-38.7	23.1	0.00e+00	123	42	0	1205862400	48	6046
2026-01-21 14:09:41.16	81.82	54.85	-38.1	-39.1	23.0	0.00e+00	120	42	0	1207959552	48	6326
2026-01-21 14:09:42.17	82.53	54.98	-38.2	-39.1	23.3	0.00e+00	122	42	0	1211105280	48	6331
2026-01-21 14:09:43.18	83.25	55.11	-37.8	-38.7	23.5	0.00e+00	122	42	0	1215299584	48	6038
2026-01-21 14:09:44.19	83.97	55.24	-37.4	-38.4	23.8	0.00e+00	122	42	0	1218445312	48	5795
2026-01-21 14:09:45.20	84.70	55.36	-37.6	-38.6	23.8	0.00e+00	120	42	0	1221591040	48	5939
2026-01-21 14:09:46.21	85.44	55.47	-37.6	-38.5	23.7	0.00e+00	120	42	0	1224736768	48	5897
2026-01-21 14:09:47.22	86.18	55.59	-37.9	-38.9	23.6	0.00e+00	122	42	0	1227882496	48	6155
2026-01-21 14:09:48.23	86.93	55.69	-37.8	-38.7	23.7	0.00e+00	123	42	0	1231028224	48	6047
2026-01-21 14:09:49.24	87.68	55.80	-37.8	-38.7	23.4	0.00e+00	123	42	0	1234173952	48	6053
2026-01-21 14:09:50.25	88.44	55.89	-37.8	-38.7	23.6	0.00e+00	123	42	0	1237319680	48	6058
2026-01-21 14:09:51.26	89.21	55.99	-37.7	-38.7	23.6	0.00e+00	123	42	0	1240465408	48	5995
2026-01-21 14:09:52.27	89.97	56.08	-37.3	-38.2	24.1	0.00e+00	120	42	0	1243611136	48	5724
2026-01-21 14:09:53.29	90.76	56.16	-37.4	-38.3	24.0	0.00e+00	123	42	0	1246756864	48	5740
2026-01-21 14:09:54.30	91.53	56.24	-37.7	-38.6	23.7	0.00e+00	122	42	0	1249902592	48	5973
2026-01-21 14:09:55.31	92.32	56.31	-37.8	-38.7	23.7	0.00e+00	122	42	0	1253048320	48	6036
2026-01-21 14:09:56.32	93.10	56.38	-37.4	-38.3	24.0	0.00e+00	122	42	0	1256194048	48	5761
2026-01-21 14:09:57.33	93.90	56.45	-37.2	-38.1	23.9	0.00e+00	123	42	0	1259339776	48	5612
2026-01-21 14:09:58.34	94.69	56.50	-37.1	-38.0	24.1	0.00e+00	123	42	0	1262485504	48	5548
2026-01-21 14:09:59.35	95.49	56.56	-37.2	-38.1	24.0	0.00e+00	123	42	0	1265631232	48	5610
2026-01-21 14:10:00.36	96.29	56.61	-37.3	-38.2	23.8	0.00e+00	123	42	0	1268776960	48	5721
2026-01-21 14:10:01.37	97.09	56.65	-38.0	-38.9	23.3	0.00e+00	123	42	0	1271922688	48	6188
2026-01-21 14:10:02.38	97.89	56.69	-38.3	-39.3	23.2	0.00e+00	123	42	0	1275068416	48	6426
2026-01-21 14:10:03.39	98.70	56.72	-38.1	-39.0	23.4	0.00e+00	123	42	0	1278214144	48	6251
2026-01-21 14:10:04.40	99.51	56.75	-37.4	-38.3	24.0	0.00e+00	122	42	0	1281359872	48	5740
2026-01-21 14:10:05.41	100.32	56.77	-37.4	-38.3	24.1	0.00e+00	123	42	0	1284505600	48	5728
2026-01-21 14:10:06.42	101.13	56.78	-37.2	-38.1	24.1	0.00e+00	120	42	0	1287651328	48	5603
2026-01-21 14:10:07.43	101.95	56.79	-37.4	-38.4	23.9	0.00e+00	122	42	0	1290797056	48	5792
2026-01-21 14:10:08.44	102.76	56.80	-37.7	-38.6	23.7	0.00e+00	120	42	0	1293942784	48	5979
2026-01-21 14:10:09.45	103.57	56.80	-37.5	-38.4	23.8	0.00e+00	123	42	0	1297088512	48	5837
2026-01-21 14:10:10.46	104.38	56.79	-37.5	-38.5	23.8	0.00e+00	122	42	0	1300234240	48	5872
2026-01-21 14:10:11.47	105.20	56.78	-37.5	-38.4	23.9	0.00e+00	123	42	0	1303379968	48	5834
2026-01-21 14:10:12.48	106.01	56.76	-37.1	-38.0	24.2	0.00e+00	122	42	0	1306525696	48	5572
2026-01-21 14:10:13.49	106.82	56.74	-37.3	-38.2	23.9	0.00e+00	123	42	0	1309671424	48	5674
2026-01-21 14:10:14.50	107.63	56.71	-37.2	-38.1	24.0	0.00e+00	120	42	0	1312817152	48	5653
2026-01-21 14:10:15.51	108.43	56.68	-37.6	-38.6	23.7	0.00e+00	122	42	0	1315962880	48	5947
2026-01-21 14:10:16.52	109.24	56.64	-37.5	-38.4	24.0	0.00e+00	121	42	0	1319108608	48	5838
2026-01-21 14:10:17.53	110.04	56.60	-37.1	-38.0	24.2	0.00e+00	123	42	0	1322254336	48	5584
2026-01-21 14:10:18.54	110.84	56.55	-36.9	-37.8	24.2	0.00e+00	123	42	0	1325400064	48	5423
2026-01-21 14:10:19.56	111.65	56.50	-37.1	-38.0	24.0	0.00e+00	123	42	0	1328545792	48	5583
2026-01-21 14:10:20.57	112.44	56.44	-37.8	-38.7	23.6	0.00e+00	120	42	0	1331691520	48	6035
2026-01-21 14:10:21.57	113.22	56.37	-37.6	-38.5	23.7	0.00e+00	123	42	0	1334837248	48	5906
2026-01-21 14:10:22.59	114.02	56.30	-37.4	-38.4	23.9	0.00e+00	120	42	0	1337982976	48	5797
2026-01-21 14:10:23.60	114.80	56.23	-37.6	-38.5	23.8	0.00e+00	123	42	0	1341128704	48	5880
2026-01-21 14:10:24.61	115.58	56.15	-37.9	-38.9	23.6	0.00e+00	124	42	0	1344274432	48	6150
2026-01-21 14:10:25.62	116.35	56.06	-37.7	-38.7	23.6	0.00e+00	123	42	0	1347420160	48	6035
2026-01-21 14:10:26.63	117.12	55.97	-37.7	-38.6	23.7	0.00e+00	123	42	0	1350565888	48	5965
2026-01-21 14:10:27.64	117.89	55.88	-37.3	-38.2	23.8	0.00e+00	120	42	0	1353711616	48	5686
2026-01-21 14:10:28.65	118.65	55.78	-37.8	-38.7	23.4	0.00e+00	122	42	0	1356857344	48	6052
2026-01-21 14:10:29.66	119.40	55.68	-38.2	-39.2	23.1	0.00e+00	123	42	0	1360003072	48	6407
2026-01-21 14:10:30.67	120.15	55.57	-38.3	-39.3	23.2	0.00e+00	120	42	0	1363148800	48	6468
2026-01-21 14:10:31.68	120.89	55.45	-38.3	-39.3	23.1	0.00e+00	123	42	0	1366294528	48	6469
2026-01-21 14:10:32.69	121.63	55.34	-38.1	-39.0	23.2	0.00e+00	120	42	0	1369440256	48	6245
2026-01-21 14:10:33.70	122.35	55.22	-38.0	-39.0	23.3	0.00e+00	123	42	0	1372585984	48	6223
2026-01-21 14:10:34.71	123.08	55.09	-38.3	-39.2	23.2	0.00e+00	122	42	0	1375731712	48	6399
2026-01-21 14:10:35.72	123.80	54.96	-38.3	-39.3	23.3	0.00e+00	122	42	0	1378877440	48	6430
2026-01-21 14:10:36.73	124.51	54.83	-38.0	-38.9	23.3	0.00e+00	123	42	0	1382023168	48	6194
2026-01-21 14:10:37.74	125.21	54.69	-38.3	-39.2	23.2	0.00e+00	123	42	0	1385168896	48	6411
2026-01-21 14:10:38.75	125.91	54.55	-38.0	-39.0	23.4	0.00e+00	123	42	0	1388314624	48	6225
2026-01-21 14:10:39.76	126.60	54.40	-38.0	-38.9	23.6	0.00e+00	123	42	0	1391460352	48	6197
2026-01-21 14:10:40.77	127.28	54.26	-37.6	-38.5	23.8	0.00e+00	120	42	0	1394606080	48	5874
2026-01-21 14:10:41.78	127.96	54.10	-37.0	-37.8	24.2	0.00e+00	123	42	0	1397751808	48	5461
2026-01-21 14:10:42.79	128.63	53.95	-37.3	-38.1	24.0	0.00e+00	123	42	0	1400897536	48	5652
2026-01-21 14:10:43.80	129.29	53.79	-37.7	-38.6	23.8	0.00e+00	122	42	0	1404043264	48	5958
2026-01-21 14:10:44.81	129.94	53.63	-38.1	-39.1	23.4	0.00e+00	122	42	0	1407188992	48	6294
2026-01-21 14:10:45.81	130.58	53.46	-38.3	-39.2	23.2	0.00e+00	120	42	0	1410334720	48	6415
2026-01-21 14:10:46.82	131.22	53.29	-38.5	-39.5	22.8	0.00e+00	122	42	0	1413480448	48	6617
2026-01-21 14:10:47.83	131.86	53.12	-38.6	-39.6	22.7	0.00e+00	123	42	0	1416626176	48	6673
2026-01-21 14:10:48.84	132.48	52.95	-38.5	-39.5	22.9	0.00e+00	122	42	0	1419771904	48	6614
2026-01-21 14:10:49.86	133.11	52.77	-38.5	-39.4	23.0	0.00e+00	122	42	0	1422917632	48	6551
2026-01-21 14:10:50.87	133.72	52.59	-38.9	-39.9	22.7	0.00e+00	123	42	0	1426063360	50	6150
2026-01-21 14:10:51.88	134.32	52.41	-39.3	-40.3	22.4	0.00e+00	122	42	0	1429209088	50	6447
2026-01-21 14:10:52.89	134.92	52.22	-39.3	-40.3	22.4	0.00e+00	123	42	0	1432354816	50	6490
2026-01-21 14:10:53.90	135.50	52.03	-39.2	-40.2	22.4	0.00e+00	123	42	0	1435500544	50	6423
2026-01-21 14:10:54.91	136.09	51.84	-39.0	-40.1	22.4	0.00e+00	122	42	0	1438646272	50	6279
2026-01-21 14:10:55.92	136.66	51.65	-38.8	-39.9	22.5	0.00e+00	122	42	0	1441792000	50	6140
2026-01-21 14:10:56.93	137.23	51.46	-38.7	-39.7	22.7	0.00e+00	122	42	0	1444937728	50	6019
2026-01-21 14:10:57.94	137.79	51.26	-38.9	-39.9	22.5	0.00e+00	122	42	0	1448083456	50	6163
2026-01-21 14:10:58.95	138.34	51.07	-39.2	-40.2	22.4	0.00e+00	123	42	0	1451229184	50	6407
2026-01-21 14:10:59.97	138.89	50.86	-39.2	-40.3	22.3	0.00e+00	123	42	0	1454374912	50	6452
2026-01-21 14:11:00.98	139.42	50.66	-39.3	-40.3	22.3	0.00e+00	122	42	0	1457520640	50	6488
2026-01-21 14:11:01.99	139.96	50.46	-39.4	-40.4	22.0	0.00e+00	122	42	0	1460666368	50	6552
2026-01-21 14:11:03.00	140.48	50.25	-39.9	-41.1	21.5	0.00e+00	123	42	0	1463812096	52	6278
2026-01-21 14:11:04.01	141.00	50.05	-39.7	-40.7	22.0	0.00e+00	122	42	0	1466957824	52	6058
2026-01-21 14:11:05.02	141.50	49.84	-39.5	-40.5	22.1	0.00e+00	123	42	0	1470103552	52	5882
2026-01-21 14:11:06.03	142.01	49.63	-39.4	-40.4	22.1	0.00e+00	123	42	0	1474297856	52	5855
2026-01-21 14:11:07.04	142.50	49.42	-39.4	-40.5	22.1	0.00e+00	123	42	0	1476395008	52	5877
2026-01-21 14:11:08.05	142.99	49.21	-39.4	-40.5	22.2	0.00e+00	123	42	0	1479540736	52	5872
2026-01-21 14:11:09.06	143.47	49.00	-39.5	-40.5	22.1	0.00e+00	122	42	0	1482686464	52	5893
2026-01-21 14:11:10.07	143.95	48.78	-39.6	-40.7	22.0	0.00e+00	123	42	0	1485832192	52	5999
2026-01-21 14:11:11.08	144.42	48.57	-39.7	-40.8	21.6	0.00e+00	123	42	0	1490026496	52	6084
2026-01-21 14:11:12.09	144.88	48.35	-40.0	-41.1	21.7	0.00e+00	120	42	0	1493172224	52	6292
2026-01-21 14:11:13.10	145.34	48.13	-39.6	-40.6	21.8	0.00e+00	122	42	0	1496317952	52	5975
2026-01-21 14:11:14.11	145.79	47.92	-39.4	-40.4	21.9	0.00e+00	122	42	0	1499463680	52	5846
2026-01-21 14:11:15.12	146.23	47.70	-39.1	-40.1	22.5	0.00e+00	122	42	0	1501560832	52	5610
2026-01-21 14:11:16.13	146.67	47.48	-39.0	-39.9	22.7	0.00e+00	122	42	0	1505755136	52	5519
2026-01-21 14:11:17.14	147.10	47.26	-38.5	-39.4	23.1	0.00e+00	120	42	0	1508900864	50	5812
2026-01-21 14:11:18.15	147.53	47.04	-38.6	-39.5	22.9	0.00e+00	122	42	0	1512046592	50	5890
2026-01-21 14:11:19.16	147.95	46.82	-39.2	-40.1	22.4	0.00e+00	122	42	0	1515192320	50	6348
2026-01-21 14:11:20.17	148.36	46.60	-40.1	-41.2	21.4	0.00e+00	122	42	0	1518338048	52	6378
2026-01-21 14:11:21.18	148.77	46.38	-40.4	-41.6	20.9	0.00e+00	122	42	0	1521483776	52	6687
2026-01-21 14:11:22.19	149.18	46.15	-40.2	-41.3	21.0	0.00e+00	123	42	0	1524629504	52	6447
2026-01-21 14:11:23.20	149.57	45.93	-39.8	-40.9	21.2	0.00e+00	123	42	0	1527775232	52	6191
2026-01-21 14:11:24.21	149.96	45.71	-39.7	-40.8	21.6	0.00e+00	120	42	0	1530920960	52	6089
2026-01-21 14:11:25.22	150.35	45.49	-39.6	-40.6	21.9	0.00e+00	123	42	0	1534066688	52	5992
2026-01-21 14:11:26.24	150.74	45.26	-39.5	-40.6	22.1	0.00e+00	122	42	0	1537212416	52	5932
2026-01-21 14:11:27.25	151.11	45.04	-39.7	-40.8	21.8	0.00e+00	123	42	0	1540358144	52	6075
2026-01-21 14:11:28.26	151.48	44.82	-40.1	-41.2	21.5	0.00e+00	122	42	0	1543503872	52	6359
2026-01-21 14:11:29.27	151.85	44.59	-40.7	-41.9	20.9	0.00e+00	122	42	0	1546649600	54	6173
2026-01-21 14:11:30.28	152.21	44.37	-40.9	-42.1	20.8	0.00e+00	120	42	0	1549795328	54	6306
2026-01-21 14:11:31.28	152.56	44.15	-40.8	-41.9	20.9	0.00e+00	123	42	0	1552941056	54	6186
2026-01-21 14:11:32.29	152.91	43.93	-40.1	-41.2	21.3	0.00e+00	120	42	0	1556086784	54	5703
2026-01-21 14:11:33.31	153.26	43.70	-39.7	-40.7	21.5	0.00e+00	123	42	0	1559232512	54	5384
2026-01-21 14:11:34.32	153.60	43.48	-39.7	-40.8	21.6	0.00e+00	122	42	0	1562378240	52	6072
2026-01-21 14:11:35.33	153.94	43.26	-39.5	-40.5	22.1	0.00e+00	122	42	0	1565523968	52	5874
2026-01-21 14:11:36.34	154.27	43.04	-39.6	-40.6	22.1	0.00e+00	121	42	0	1568669696	52	5988
2026-01-21 14:11:37.35	154.60	42.81	-39.9	-41.0	21.8	0.00e+00	122	42	0	1571815424	52	6216
2026-01-21 14:11:38.36	154.92	42.59	-40.2	-41.3	21.4	0.00e+00	123	42	0	1574961152	52	6458
2026-01-21 14:11:39.37	155.24	42.37	-40.5	-41.6	21.1	0.00e+00	123	42	0	1578106880	52	6717
2026-01-21 14:11:40.38	155.55	42.15	-41.0	-42.1	20.7	0.00e+00	122	42	0	1581252608	54	6345
2026-01-21 14:11:41.39	155.86	41.93	-40.8	-42.0	20.8	0.00e+00	123	42	0	1584398336	54	6232
2026-01-21 14:11:42.40	156.17	41.71	-40.8	-41.9	20.8	0.00e+00	122	42	0	1587544064	54	6196
2026-01-21 14:11:43.41	156.47	41.49	-41.1	-42.3	20.5	0.00e+00	120	42	0	1590689792	54	6451
2026-01-21 14:11:44.42	156.77	41.27	-41.0	-42.2	20.6	0.00e+00	123	42	0	1593835520	54	6405
2026-01-21 14:11:45.43	157.07	41.05	-40.6	-41.8	20.9	0.00e+00	120	42	0	1596981248	54	6092
2026-01-21 14:11:46.44	157.36	40.83	-40.5	-41.6	21.1	0.00e+00	123	42	0	1600126976	54	5966
2026-01-21 14:11:47.45	157.64	40.62	-40.3	-41.4	21.3	0.00e+00	120	42	0	1603272704	54	5840
2026-01-21 14:11:48.46	157.92	40.40	-39.9	-40.9	21.7	0.00e+00	123	42	0	1606418432	52	6188
2026-01-21 14:11:49.47	158.20	40.18	-40.2	-41.3	21.4	0.00e+00	120	42	0	1609564160	52	6457
2026-01-21 14:11:50.48	158.48	39.97	-40.6	-41.8	21.1	0.00e+00	122	42	0	1612709888	52	6834
2026-01-21 14:11:51.49	158.75	39.75	-40.7	-41.9	20.9	0.00e+00	122	42	0	1615855616	52	6893
2026-01-21 14:11:52.50	159.02	39.54	-40.5	-41.7	21.0	0.00e+00	122	42	0	1619001344	54	6003
2026-01-21 14:11:53.51	159.28	39.32	-40.1	-41.1	21.6	0.00e+00	123	42	0	1622147072	54	5651
2026-01-21 14:11:54.52	159.55	39.11	-39.5	-40.5	22.1	0.00e+00	122	42	0	1625292800	52	5891
2026-01-21 14:11:55.53	159.80	38.90	-39.3	-40.4	22.1	0.00e+00	122	42	0	1628438528	52	5807
2026-01-21 14:11:56.54	160.06	38.69	-39.2	-40.2	22.4	0.00e+00	123	42	0	1631584256	52	5692
2026-01-21 14:11:57.55	160.31	38.47	-39.2	-40.2	22.4	0.00e+00	123	42	0	1634729984	52	5669
2026-01-21 14:11:58.56	160.56	38.26	-39.1	-40.1	22.5	0.00e+00	123	42	0	1637875712	52	5603
2026-01-21 14:11:59.57	160.80	38.05	-39.0	-40.0	22.6	0.00e+00	123	42	0	1641021440	52	5566
2026-01-21 14:12:00.58	161.05	37.85	-38.6	-39.6	22.8	0.00e+00	123	42	0	1644167168	50	5974
2026-01-21 14:12:01.59	161.29	37.64	-38.7	-39.7	22.7	0.00e+00	123	42	0	1647312896	50	6004
2026-01-21 14:12:02.60	161.52	37.43	-38.7	-39.7	22.6	0.00e+00	120	42	0	1650458624	50	6000
2026-01-21 14:12:03.61	161.76	37.22	-38.7	-39.7	22.8	0.00e+00	122	42	0	1653604352	50	5995
2026-01-21 14:12:04.62	161.99	37.02	-38.5	-39.4	22.9	0.00e+00	122	42	0	1656750080	50	5853
2026-01-21 14:12:05.63	162.21	36.81	-38.4	-39.3	23.1	0.00e+00	122	42	0	1659895808	50	5777
2026-01-21 14:12:06.64	162.44	36.61	-38.5	-39.5	22.9	0.00e+00	122	42	0	1663041536	50	5872
2026-01-21 14:12:07.65	162.66	36.40	-38.8	-39.8	22.7	0.00e+00	123	42	0	1666187264	50	6101
2026-01-21 14:12:08.66	162.88	36.20	-38.5	-39.5	22.9	0.00e+00	123	42	0	1669332992	50	5890
2026-01-21 14:12:09.67	163.10	36.00	-38.4	-39.4	23.0	0.00e+00	123	42	0	1672478720	50	5798
2026-01-21 14:12:10.68	163.31	35.80	-38.4	-39.4	23.0	0.00e+00	122	42	0	1675624448	50	5828
2026-01-21 14:12:11.69	163.52	35.60	-38.1	-39.0	23.3	0.00e+00	120	42	0	1678770176	50	5559
2026-01-21 14:12:12.70	163.73	35.40	-37.9	-38.8	23.5	0.00e+00	122	42	0	1681915904	50	5457
2026-01-21 14:12:13.71	163.94	35.20	-38.0	-38.9	23.3	0.00e+00	121	42	0	1685061632	50	5512
2026-01-21 14:12:14.72	164.14	35.00	-38.2	-39.2	23.0	0.00e+00	123	42	0	1688207360	50	5671
2026-01-21 14:12:15.73	164.34	34.80	-38.6	-39.6	22.5	0.00e+00	121	42	0	1691353088	50	5984
2026-01-21 14:12:16.74	164.54	34.61	-38.9	-39.9	22.1	0.00e+00	123	42	0	1694498816	50	6203
2026-01-21 14:12:17.75	164.74	34.41	-39.2	-40.3	21.9	0.00e+00	123	42	0	1697644544	50	6437
2026-01-21 14:12:18.76	164.94	34.22	-39.1	-40.2	21.8	0.00e+00	120	42	0	1700790272	50	6391
2026-01-21 14:12:19.77	165.13	34.02	-39.1	-40.2	22.0	0.00e+00	123	42	0	1703936000	50	6396
2026-01-21 14:12:20.78	165.32	33.83	-38.9	-40.0	22.2	0.00e+00	123	42	0	1707081728	50	6241
2026-01-21 14:12:21.79	165.51	33.64	-38.4	-39.4	22.8	0.00e+00	122	42	0	1710227456	50	5803
2026-01-21 14:12:22.80	165.69	33.45	-38.4	-39.4	22.9	0.00e+00	122	42	0	1713373184	50	5812
2026-01-21 14:12:23.81	165.88	33.26	-38.5	-39.5	22.8	0.00e+00	123	42	0	1716518912	50	5897
2026-01-21 14:12:24.82	166.06	33.07	-38.4	-39.4	23.0	0.00e+00	124	42	0	1719664640	50	5803
2026-01-21 14:12:25.83	166.24	32.88	-38.4	-39.4	23.0	0.00e+00	122	42	0	1722810368	50	5804
2026-01-21 14:12:26.84	166.42	32.69	-38.5	-39.5	22.8	0.00e+00	123	42	0	1725956096	50	5862
2026-01-21 14:12:27.85	166.59	32.51	-38.5	-39.5	22.7	0.00e+00	123	42	0	1729101824	50	5917
2026-01-21 14:12:28.86	166.77	32.32	-38.7	-39.7	22.7	0.00e+00	121	42	0	1732247552	50	6022
2026-01-21 14:12:29.87	166.94	32.14	-38.7	-39.7	22.6	0.00e+00	123	42	0	1735393280	50	6052
2026-01-21 14:12:30.88	167.11	31.95	-38.5	-39.5	22.8	0.00e+00	120	42	0	1738539008	50	5865
2026-01-21 14:12:31.89	167.28	31.77	-38.5	-39.5	23.0	0.00e+00	122	42	0	1741684736	50	5862
2026-01-21 14:12:32.90	167.44	31.59	-38.2	-39.2	23.1	0.00e+00	120	42	0	1744830464	50	5674
2026-01-21 14:12:33.91	167.61	31.40	-37.9	-38.9	23.3	0.00e+00	123	42	0	1747976192	50	5486
2026-01-21 14:12:34.92	167.77	31.22	-37.8	-38.8	23.3	0.00e+00	122	42	0	1751121920	50	5420
2026-01-21 14:12:35.93	167.93	31.04	-37.7	-38.6	23.4	0.00e+00	123	42	0	1754267648	48	5967
2026-01-21 14:12:36.95	168.09	30.86	-37.6	-38.5	23.5	0.00e+00	122	42	0	1757413376	48	5926
2026-01-21 14:12:37.96	168.25	30.69	-37.2	-38.1	23.6	0.00e+00	123	42	0	1760559104	48	5639
2026-01-21 14:12:38.97	168.41	30.51	-37.2	-38.1	23.5	0.00e+00	120	42	0	1763704832	48	5646
2026-01-21 14:12:39.98	168.56	30.33	-37.3	-38.2	23.4	0.00e+00	122	42	0	1766850560	48	5706
2026-01-21 14:12:40.99	168.71	30.16	-37.4	-38.4	23.4	0.00e+00	123	42	0	1769996288	48	5814
2026-01-21 14:12:42.00	168.86	29.98	-37.3	-38.2	23.5	0.00e+00	121	42	0	1773142016	48	5690
2026-01-21 14:12:43.01	169.01	29.81	-37.2	-38.1	23.6	0.00e+00	123	42	0	1776287744	48	5653
2026-01-21 14:12:44.02	169.16	29.64	-37.1	-38.0	23.7	0.00e+00	122	42	0	1779433472	48	5568
2026-01-21 14:12:45.03	169.31	29.46	-37.0	-37.9	23.8	0.00e+00	120	42	0	1782579200	48	5509
2026-01-21 14:12:46.04	169.45	29.29	-36.9	-37.8	23.8	0.00e+00	123	42	0	1786773504	48	5454
2026-01-21 14:12:47.05	169.60	29.12	-37.1	-38.0	23.7	0.00e+00	122	42	0	1789919232	48	5570
2026-01-21 14:12:48.06	169.74	28.95	-37.2	-38.1	23.6	0.00e+00	122	42	0	1792016384	48	5639
2026-01-21 14:12:49.07	169.88	28.78	-37.3	-38.2	23.6	0.00e+00	123	42	0	1795162112	48	5706
2026-01-21 14:12:50.08	170.02	28.62	-37.4	-38.4	23.6	0.00e+00	122	42	0	1799356416	48	5812
2026-01-21 14:12:51.09	170.15	28.45	-37.2	-38.2	23.7	0.00e+00	123	42	0	1802502144	48	5674
2026-01-21 14:12:52.10	170.29	28.28	-37.3	-38.3	23.6	0.00e+00	123	42	0	1805647872	48	5751
2026-01-21 14:12:53.11	170.43	28.12	-37.4	-38.4	23.6	0.00e+00	122	42	0	1808793600	48	5800
2026-01-21 14:12:54.12	170.56	27.95	-37.6	-38.5	23.5	0.00e+00	122	42	0	1811939328	48	5904
2026-01-21 14:12:55.13	170.69	27.79	-37.5	-38.5	23.7	0.00e+00	122	42	0	1815085056	48	5863
2026-01-21 14:12:56.14	170.82	27.63	-37.4	-38.3	23.7	0.00e+00	123	42	0	1818230784	48	5791
2026-01-21 14:12:57.15	170.95	27.46	-37.3	-38.3	23.8	0.00e+00	122	42	0	1821376512	48	5743
2026-01-21 14:12:58.16	171.08	27.30	-37.2	-38.1	23.9	0.00e+00	123	42	0	1824522240	48	5652
2026-01-21 14:12:59.17	171.21	27.14	-37.0	-38.0	24.0	0.00e+00	122	42	0	1827667968	48	5535
2026-01-21 14:13:00.18	171.33	26.98	-37.1	-38.0	24.0	0.00e+00	123	42	0	1830813696	48	5591
2026-01-21 14:13:01.19	171.46	26.82	-36.8	-37.7	24.1	0.00e+00	123	42	0	1833959424	48	5391
2026-01-21 14:13:02.20	171.58	26.67	-36.9	-37.8	24.2	0.00e+00	123	42	0	1837105152	48	5444
2026-01-21 14:13:03.21	171.70	26.51	-36.8	-37.7	24.2	0.00e+00	123	42	0	1840250880	48	5360
2026-01-21 14:13:04.22	171.83	26.35	-36.9	-37.8	24.1	0.00e+00	120	42	0	1843396608	48	5416
2026-01-21 14:13:05.23	171.95	26.20	-36.9	-37.8	24.1	0.00e+00	123	42	0	1846542336	48	5448
2026-01-21 14:13:06.24	172.07	26.04	-36.9	-37.8	24.1	0.00e+00	122	42	0	1849688064	48	5461
2026-01-21 14:13:07.25	172.18	25.89	-36.8	-37.7	24.2	0.00e+00	122	42	0	1852833792	48	5348
2026-01-21 14:13:08.27	172.30	25.73	-36.7	-37.6	24.3	0.00e+00	120	42	0	1855979520	46	5975
2026-01-21 14:13:09.28	172.42	25.58	-36.5	-37.4	24.4	0.00e+00	122	42	0	1859125248	46	5849
2026-01-21 14:13:10.29	172.53	25.43	-36.4	-37.3	24.4	0.00e+00	123	42	0	1862270976	46	5765
2026-01-21 14:13:11.30	172.64	25.28	-36.6	-37.5	24.3	0.00e+00	123	42	0	1865416704	46	5902
2026-01-21 14:13:12.31	172.76	25.13	-36.6	-37.5	24.4	0.00e+00	120	42	0	1868562432	46	5900
2026-01-21 14:13:13.32	172.87	24.98	-36.6	-37.5	24.3	0.00e+00	123	42	0	1871708160	46	5892
2026-01-21 14:13:14.33	172.98	24.83	-36.4	-37.3	24.4	0.00e+00	122	42	0	1874853888	46	5755
2026-01-21 14:13:15.33	173.09	24.68	-36.4	-37.3	24.4	0.00e+00	123	42	0	1877999616	46	5736
2026-01-21 14:13:16.35	173.20	24.53	-36.6	-37.5	24.2	0.00e+00	123	42	0	1881145344	46	5892
2026-01-21 14:13:17.36	173.31	24.38	-36.6	-37.5	24.3	0.00e+00	123	42	0	1884291072	46	5896
2026-01-21 14:13:18.37	173.41	24.24	-36.8	-37.7	24.0	0.00e+00	122	42	0	1887436800	46	6017
2026-01-21 14:13:19.38	173.52	24.09	-36.9	-37.8	24.0	0.00e+00	122	42	0	1890582528	46	6099
2026-01-21 14:13:20.39	173.62	23.95	-37.1	-38.1	23.9	0.00e+00	123	42	0	1893728256	46	6282
2026-01-21 14:13:21.40	173.73	23.81	-37.3	-38.2	23.8	0.00e+00	123	42	0	1896873984	46	6379
2026-01-21 14:13:22.41	173.83	23.66	-37.2	-38.2	23.7	0.00e+00	122	42	0	1900019712	46	6384
2026-01-21 14:13:23.42	173.93	23.52	-37.0	-37.9	24.0	0.00e+00	123	42	0	1903165440	46	6173
2026-01-21 14:13:24.43	174.03	23.38	-37.2	-38.1	23.9	0.00e+00	122	42	0	1906311168	46	6334
2026-01-21 14:13:25.44	174.13	23.24	-37.1	-38.0	23.9	0.00e+00	122	42	0	1909456896	46	6262
2026-01-21 14:13:26.45	174.23	23.10	-37.2	-38.1	23.9	0.00e+00	122	42	0	1912602624	46	6326
2026-01-21 14:13:27.46	174.33	22.96	-37.3	-38.2	23.8	0.00e+00	123	42	0	1915748352	46	6401
2026-01-21 14:13:28.47	174.43	22.82	-37.3	-38.2	23.7	0.00e+00	123	42	0	1918894080	46	6413
2026-01-21 14:13:29.48	174.52	22.68	-37.2	-38.2	23.8	0.00e+00	122	42	0	1922039808	46	6351
2026-01-21 14:13:30.49	174.62	22.54	-37.3	-38.2	23.8	0.00e+00	123	42	0	1925185536	46	6388
2026-01-21 14:13:31.50	174.72	22.40	-37.3	-38.2	23.8	0.00e+00	123	42	0	1928331264	46	6419
2026-01-21 14:13:32.51	174.81	22.27	-37.2	-38.1	23.9	0.00e+00	122	43	0	1931476992	46	6310
2026-01-21 14:13:33.52	174.90	22.13	-37.2	-38.2	23.8	0.00e+00	122	42	0	1934622720	46	6360
2026-01-21 14:13:34.53	175.00	22.00	-37.2	-38.1	23.7	0.00e+00	122	42	0	1937768448	46	6342
2026-01-21 14:13:35.54	175.09	21.86	-37.2	-38.2	23.7	0.00e+00	123	42	0	1940914176	46	6364
2026-01-21 14:13:36.56	175.18	21.73	-37.4	-38.3	23.5	0.00e+00	123	42	0	1944059904	46	6474
2026-01-21 14:13:37.57	175.27	21.59	-37.3	-38.2	23.4	0.00e+00	122	42	0	1947205632	46	6422
2026-01-21 14:13:38.58	175.36	21.46	-37.3	-38.3	23.5	0.00e+00	123	42	0	1950351360	46	6424
2026-01-21 14:13:39.59	175.45	21.33	-37.3	-38.2	23.5	0.00e+00	122	42	0	1953497088	46	6411
2026-01-21 14:13:40.60	175.54	21.20	-37.3	-38.2	23.6	0.00e+00	123	42	0	1956642816	46	6421
2026-01-21 14:13:41.61	175.63	21.07	-37.2	-38.1	23.6	0.00e+00	123	42	0	1959788544	46	6350
2026-01-21 14:13:42.62	175.71	20.94	-37.2	-38.1	23.6	0.00e+00	122	42	0	1962934272	46	6350
2026-01-21 14:13:43.63	175.80	20.81	-37.2	-38.2	23.8	0.00e+00	122	42	0	1966080000	46	6365
2026-01-21 14:13:44.64	175.89	20.68	-36.9	-37.8	23.9	0.00e+00	123	42	0	1969225728	46	6107
2026-01-21 14:13:45.65	175.97	20.55	-36.9	-37.9	23.8	0.00e+00	122	42	0	1972371456	46	6144
2026-01-21 14:13:46.66	176.06	20.42	-36.8	-37.7	24.0	0.00e+00	123	42	0	1975517184	46	6011
