passes_logs/2026/01/21/R4.6S_Anadyr/R4.6S_Anadyr__20260121_163302_NOAA_20_JPSS-1_rec.log

#Pass ID: 20260121_163302_NOAA 20 (JPSS-1)
#Satellite: NOAA 20 (JPSS-1)
#Configuration: NOAA 20
#almurnet v.1.7.20251203
#Start time: 2026-01-21 16:33:03

#Version: 2.2.20231116
#Station: R4.6S_Anadyr
#Location: 177.4865 lon 64.73178 lat
#TLE: 1 43013U 17073A   26020.82785136  .00000155  00000+0  94366-4 0  9991
#TLE: 2 43013  98.7643 321.7058 0001260  30.3785 329.7464 14.19537992423566

#Time	Az	El	Level	Level2	SNR	BER	BlckErr	Temp	State	Recorded	gain1	gain2
2026-01-21 16:33:03.37	26.62	0.06	-52.1	-69.9	3.5	3.04e+01	0	39	0	0	60	119682
2026-01-21 16:33:04.38	26.58	0.12	-52.4	-67.7	3.6	1.51e+00	0	40	104	0	60	87351
2026-01-21 16:33:05.39	26.54	0.18	-51.9	-67.2	3.6	1.51e+00	0	40	104	0	60	83060
2026-01-21 16:33:06.40	26.49	0.24	-51.9	-67.2	3.6	1.51e+00	0	40	104	0	60	82681
2026-01-21 16:33:07.40	26.45	0.29	-51.9	-67.2	3.6	1.51e+00	0	40	104	0	60	82495
2026-01-21 16:33:08.41	26.41	0.35	-51.6	-66.9	3.6	1.51e+00	0	40	104	0	60	80016
2026-01-21 16:33:09.42	26.37	0.41	-51.6	-66.9	3.6	1.51e+00	0	40	104	0	60	80301
2026-01-21 16:33:10.43	26.32	0.47	-51.6	-66.8	3.6	1.51e+00	0	40	104	0	60	79337
2026-01-21 16:33:11.44	26.28	0.52	-51.6	-66.9	3.6	1.51e+00	0	40	104	0	60	79600
2026-01-21 16:33:12.45	26.24	0.58	-51.7	-67.0	3.6	1.51e+00	0	40	104	0	60	80573
2026-01-21 16:33:13.46	26.19	0.64	-51.6	-66.9	3.6	1.51e+00	0	40	104	0	60	79811
2026-01-21 16:33:14.47	26.15	0.70	-51.5	-66.7	3.6	1.51e+00	0	40	104	0	60	78593
2026-01-21 16:33:15.49	26.10	0.76	-51.4	-66.7	3.6	1.51e+00	0	40	104	0	60	78113
2026-01-21 16:33:16.49	26.06	0.81	-51.4	-66.6	3.5	1.51e+00	0	40	104	0	60	77093
2026-01-21 16:33:17.51	26.01	0.87	-51.3	-66.5	3.6	1.51e+00	0	40	104	0	60	76761
2026-01-21 16:33:18.52	25.97	0.93	-51.2	-66.4	3.6	1.51e+00	0	40	104	0	60	75693
2026-01-21 16:33:19.53	25.92	0.99	-51.1	-66.3	3.6	1.51e+00	0	40	104	0	60	74739
2026-01-21 16:33:20.54	25.88	1.05	-50.9	-66.2	3.6	1.51e+00	0	40	104	0	60	73838
2026-01-21 16:33:21.55	25.83	1.11	-50.8	-66.0	3.6	1.51e+00	0	40	104	0	60	72432
2026-01-21 16:33:22.56	25.79	1.17	-50.7	-66.0	3.6	1.51e+00	0	40	104	0	60	71939
2026-01-21 16:33:23.57	25.74	1.22	-50.6	-65.8	3.6	1.51e+00	0	40	104	0	60	70469
2026-01-21 16:33:24.58	25.69	1.28	-50.5	-65.7	3.6	1.51e+00	0	40	104	0	60	69709
2026-01-21 16:33:25.59	25.65	1.34	-50.2	-65.5	3.6	1.51e+00	0	40	104	0	60	67847
2026-01-21 16:33:26.60	25.60	1.40	-50.0	-65.1	3.6	1.51e+00	0	40	104	0	60	65260
2026-01-21 16:33:27.61	25.56	1.46	-49.8	-65.0	3.6	1.51e+00	0	40	104	0	60	64592
2026-01-21 16:33:28.62	25.51	1.52	-49.8	-64.9	3.6	1.51e+00	0	40	104	0	60	63770
2026-01-21 16:33:29.63	25.46	1.58	-49.7	-65.0	3.6	1.51e+00	0	40	104	0	60	64260
2026-01-21 16:33:30.64	25.41	1.64	-49.7	-64.9	3.5	1.51e+00	0	40	104	0	60	63892
2026-01-21 16:33:31.65	25.37	1.70	-49.7	-65.0	3.6	1.51e+00	0	40	104	0	60	64052
2026-01-21 16:33:32.66	25.32	1.76	-49.7	-65.0	3.6	1.51e+00	0	40	104	0	60	63986
2026-01-21 16:33:33.67	25.27	1.82	-49.7	-65.0	3.6	1.51e+00	0	41	104	0	60	64136
2026-01-21 16:33:34.67	25.22	1.88	-49.7	-65.0	3.6	1.51e+00	0	40	104	0	60	64162
2026-01-21 16:33:35.69	25.17	1.94	-49.7	-65.0	3.6	1.51e+00	0	40	104	0	60	64372
2026-01-21 16:33:36.70	25.13	2.00	-49.7	-65.0	3.6	1.51e+00	0	40	104	0	60	63913
2026-01-21 16:33:37.71	25.08	2.06	-49.7	-64.9	3.6	1.51e+00	0	40	104	0	60	63353
2026-01-21 16:33:38.72	25.03	2.12	-49.7	-64.8	3.6	1.51e+00	0	41	104	0	60	62934
2026-01-21 16:33:39.73	24.98	2.18	-49.7	-64.7	3.6	1.51e+00	0	41	104	0	60	62297
2026-01-21 16:33:40.74	24.93	2.24	-49.7	-64.7	3.6	1.51e+00	0	41	104	0	60	61741
2026-01-21 16:33:41.75	24.88	2.30	-49.7	-64.7	3.6	1.51e+00	0	40	104	0	60	62255
2026-01-21 16:33:42.76	24.83	2.36	-49.7	-64.8	3.6	1.51e+00	0	40	104	0	60	62745
2026-01-21 16:33:43.77	24.78	2.42	-49.7	-64.9	3.6	1.51e+00	0	41	104	0	60	63675
2026-01-21 16:33:44.78	24.73	2.48	-49.8	-65.0	3.6	1.51e+00	0	41	104	0	60	63941
2026-01-21 16:33:45.79	24.68	2.55	-49.7	-65.0	3.6	1.51e+00	0	41	104	0	60	64243
2026-01-21 16:33:46.80	24.63	2.61	-49.7	-65.0	3.6	1.51e+00	0	41	104	0	60	64129
2026-01-21 16:33:47.81	24.58	2.67	-49.7	-64.9	3.6	1.51e+00	0	41	104	0	60	63671
2026-01-21 16:33:48.82	24.53	2.73	-49.7	-65.0	3.6	1.51e+00	0	40	104	0	60	63949
2026-01-21 16:33:49.83	24.48	2.79	-49.7	-64.9	3.6	1.51e+00	0	41	104	0	60	63905
2026-01-21 16:33:50.84	24.42	2.85	-49.7	-64.9	3.5	1.51e+00	0	41	104	0	60	63343
2026-01-21 16:33:51.85	24.37	2.92	-49.7	-64.7	3.5	1.51e+00	0	40	104	0	60	62045
2026-01-21 16:33:52.86	24.32	2.98	-49.7	-64.5	3.6	1.51e+00	0	41	104	0	60	60672
2026-01-21 16:33:53.88	24.27	3.04	-49.7	-64.1	3.6	1.51e+00	0	41	104	0	60	57757
2026-01-21 16:33:54.88	24.21	3.10	-49.7	-64.1	3.5	1.51e+00	0	41	104	0	60	57824
2026-01-21 16:33:55.89	24.16	3.16	-49.7	-64.4	3.6	1.51e+00	0	41	104	0	60	59943
2026-01-21 16:33:56.90	24.11	3.23	-49.7	-64.7	3.6	1.51e+00	0	41	104	0	60	62298
2026-01-21 16:33:57.91	24.06	3.29	-49.7	-64.2	3.6	1.51e+00	0	41	104	0	60	58785
2026-01-21 16:33:58.92	24.00	3.35	-49.6	-63.4	3.6	1.51e+00	0	41	104	0	60	53199
2026-01-21 16:33:59.93	23.95	3.41	-49.6	-62.5	3.8	1.51e+00	0	40	104	0	60	48084
2026-01-21 16:34:00.94	23.89	3.48	-49.4	-59.7	4.1	1.12e+00	92	41	0	0	60	34941
2026-01-21 16:34:01.95	23.84	3.54	-49.7	-64.9	3.6	1.50e+00	0	41	104	0	60	63705
2026-01-21 16:34:02.96	23.78	3.60	-49.8	-64.4	3.6	1.51e+00	0	41	104	0	60	60240
2026-01-21 16:34:03.97	23.73	3.67	-49.5	-62.7	3.6	1.50e+00	0	41	104	0	60	49331
2026-01-21 16:34:04.98	23.67	3.73	-44.2	-46.0	18.2	1.38e-01	47	41	0	0	60	7176
2026-01-21 16:34:05.99	23.62	3.79	-49.6	-64.7	3.6	1.51e+00	0	41	104	1048576	60	62258
2026-01-21 16:34:07.00	23.56	3.86	-44.4	-46.3	17.2	1.00e+00	34	41	104	1048576	60	7439
2026-01-21 16:34:08.01	23.51	3.92	-44.4	-46.2	17.8	0.00e+00	90	41	0	2097152	60	7384
2026-01-21 16:34:09.02	23.45	3.98	-44.6	-46.5	17.6	0.00e+00	34	41	0	3145728	60	7664
2026-01-21 16:34:10.02	23.40	4.05	-43.9	-45.6	18.5	0.00e+00	39	41	0	5242880	60	6871
2026-01-21 16:34:11.03	23.34	4.11	-44.0	-45.7	18.5	0.00e+00	0	40	0	7340032	60	6961
2026-01-21 16:34:12.04	23.28	4.18	-44.9	-46.9	17.3	0.00e+00	0	40	0	9437184	60	7976
2026-01-21 16:34:13.05	23.23	4.24	-44.6	-46.5	17.7	0.00e+00	0	41	0	11534336	60	7615
2026-01-21 16:34:14.06	23.17	4.31	-44.4	-46.3	18.0	0.00e+00	0	41	0	12582912	60	7454
2026-01-21 16:34:15.07	23.11	4.37	-44.2	-46.1	17.8	0.00e+00	92	41	0	14680064	60	7255
2026-01-21 16:34:16.08	23.05	4.43	-44.1	-45.8	18.3	0.00e+00	0	41	0	16777216	60	7087
2026-01-21 16:34:17.09	22.99	4.50	-44.5	-46.4	17.8	0.00e+00	92	41	0	18874368	60	7529
2026-01-21 16:34:18.10	22.94	4.56	-44.2	-45.9	18.4	0.00e+00	0	40	0	20971520	60	7133
2026-01-21 16:34:19.11	22.88	4.63	-44.1	-45.9	18.4	0.00e+00	0	41	0	22020096	60	7121
2026-01-21 16:34:20.12	22.82	4.70	-43.8	-45.5	18.9	0.00e+00	34	41	0	24117248	60	6807
2026-01-21 16:34:21.13	22.76	4.76	-44.1	-45.8	18.4	0.00e+00	48	41	0	26214400	60	7088
2026-01-21 16:34:22.14	22.70	4.83	-43.7	-45.3	19.0	0.00e+00	90	41	0	28311552	60	6629
2026-01-21 16:34:23.15	22.64	4.89	-43.6	-45.1	19.2	0.00e+00	35	41	0	30408704	60	6507
2026-01-21 16:34:24.16	22.58	4.96	-43.7	-45.3	19.0	0.00e+00	92	41	0	31457280	60	6619
2026-01-21 16:34:25.17	22.52	5.02	-43.6	-45.2	19.2	0.00e+00	34	41	0	33554432	60	6560
2026-01-21 16:34:26.17	22.46	5.09	-43.9	-45.5	19.0	0.00e+00	0	40	0	35651584	60	6787
2026-01-21 16:34:27.18	22.40	5.15	-43.9	-45.5	19.0	0.00e+00	0	40	0	37748736	60	6824
2026-01-21 16:34:28.19	22.33	5.22	-44.0	-45.6	18.6	0.00e+00	33	41	0	39845888	60	6902
2026-01-21 16:34:29.20	22.27	5.29	-43.9	-45.5	19.2	0.00e+00	20	41	0	40894464	60	6785
2026-01-21 16:34:30.21	22.21	5.35	-43.9	-45.6	18.7	0.00e+00	32	41	0	42991616	60	6864
2026-01-21 16:34:31.22	22.15	5.42	-43.9	-45.5	19.1	0.00e+00	91	41	0	45088768	60	6776
2026-01-21 16:34:32.23	22.09	5.49	-43.8	-45.3	19.2	0.00e+00	0	41	0	47185920	60	6683
2026-01-21 16:34:33.24	22.02	5.55	-43.8	-45.3	19.1	0.00e+00	10	40	0	49283072	60	6684
2026-01-21 16:34:34.25	21.96	5.62	-43.5	-45.0	19.5	0.00e+00	0	40	0	50331648	60	6459
2026-01-21 16:34:35.26	21.90	5.69	-44.0	-45.6	19.0	0.00e+00	0	40	0	52428800	60	6921
2026-01-21 16:34:36.27	21.83	5.76	-44.0	-45.7	18.9	0.00e+00	0	41	0	54525952	60	6933
2026-01-21 16:34:37.28	21.77	5.82	-43.8	-45.4	19.2	0.00e+00	0	41	0	56623104	60	6719
2026-01-21 16:34:38.29	21.70	5.89	-43.7	-45.2	19.3	0.00e+00	92	41	0	58720256	60	6593
2026-01-21 16:34:39.30	21.64	5.96	-43.7	-45.2	19.3	0.00e+00	0	40	0	60817408	60	6581
2026-01-21 16:34:40.31	21.57	6.03	-43.4	-44.9	19.5	0.00e+00	92	41	0	61865984	60	6364
2026-01-21 16:34:41.32	21.51	6.10	-43.5	-45.0	19.6	0.00e+00	43	41	0	63963136	60	6450
2026-01-21 16:34:42.33	21.44	6.16	-43.5	-45.0	19.6	0.00e+00	0	41	0	66060288	60	6392
2026-01-21 16:34:43.34	21.38	6.23	-43.3	-44.8	19.7	0.00e+00	0	41	0	68157440	60	6250
2026-01-21 16:34:44.34	21.31	6.30	-43.4	-44.8	19.8	0.00e+00	40	40	0	70254592	60	6292
2026-01-21 16:34:45.35	21.24	6.37	-43.2	-44.6	20.0	0.00e+00	92	41	0	71303168	60	6137
2026-01-21 16:34:46.36	21.18	6.44	-43.6	-45.1	19.7	0.00e+00	43	41	0	73400320	60	6499
2026-01-21 16:34:47.36	21.11	6.51	-43.3	-44.7	19.8	0.00e+00	90	41	0	75497472	60	6212
2026-01-21 16:34:48.37	21.04	6.57	-43.7	-45.2	19.3	0.00e+00	42	41	0	77594624	60	6564
2026-01-21 16:34:49.38	20.97	6.64	-43.9	-45.4	19.5	0.00e+00	38	41	0	78643200	60	6742
2026-01-21 16:34:50.39	20.91	6.71	-43.7	-45.2	19.5	0.00e+00	0	40	0	80740352	60	6571
2026-01-21 16:34:51.39	20.84	6.78	-43.8	-45.3	19.3	0.00e+00	5	41	0	82837504	60	6631
2026-01-21 16:34:52.41	20.77	6.85	-43.5	-45.0	19.6	0.00e+00	82	41	0	84934656	60	6428
2026-01-21 16:34:53.42	20.70	6.92	-43.6	-45.1	19.5	0.00e+00	5	41	0	87031808	60	6517
2026-01-21 16:34:54.43	20.63	6.99	-43.5	-45.0	19.7	0.00e+00	91	41	0	89128960	60	6423
2026-01-21 16:34:55.44	20.56	7.06	-43.3	-44.7	19.9	0.00e+00	5	41	0	90177536	60	6245
2026-01-21 16:34:56.45	20.49	7.13	-43.5	-45.0	19.8	0.00e+00	34	41	0	92274688	60	6392
2026-01-21 16:34:57.46	20.42	7.20	-43.4	-44.9	19.8	0.00e+00	0	41	0	94371840	60	6324
2026-01-21 16:34:58.47	20.35	7.27	-43.4	-44.8	19.9	0.00e+00	0	41	0	96468992	60	6307
2026-01-21 16:34:59.48	20.27	7.34	-43.4	-44.8	20.0	0.00e+00	0	41	0	98566144	60	6256
2026-01-21 16:35:00.49	20.20	7.41	-43.3	-44.7	20.0	0.00e+00	0	41	0	99614720	60	6174
2026-01-21 16:35:01.49	20.13	7.49	-43.3	-44.7	20.0	0.00e+00	92	41	0	101711872	60	6201
2026-01-21 16:35:02.50	20.06	7.56	-43.3	-44.7	20.1	0.00e+00	44	41	0	103809024	60	6211
2026-01-21 16:35:03.51	19.98	7.63	-43.5	-44.9	19.9	0.00e+00	91	41	0	105906176	60	6330
2026-01-21 16:35:04.52	19.91	7.70	-43.3	-44.7	20.0	0.00e+00	0	41	0	108003328	60	6213
2026-01-21 16:35:05.53	19.84	7.77	-43.3	-44.7	20.1	0.00e+00	0	41	0	109051904	60	6178
2026-01-21 16:35:06.54	19.76	7.84	-43.3	-44.7	20.1	0.00e+00	49	41	0	111149056	60	6209
2026-01-21 16:35:07.55	19.69	7.91	-43.4	-44.8	19.9	0.00e+00	48	41	0	113246208	60	6267
2026-01-21 16:35:08.55	19.61	7.99	-43.3	-44.7	20.1	0.00e+00	55	41	0	115343360	60	6222
2026-01-21 16:35:09.56	19.54	8.06	-43.5	-45.0	19.7	0.00e+00	38	41	0	117440512	60	6424
2026-01-21 16:35:10.58	19.46	8.13	-43.7	-45.2	19.5	0.00e+00	92	41	0	118489088	60	6576
2026-01-21 16:35:11.58	19.39	8.20	-44.0	-45.5	19.2	0.00e+00	6	41	0	120586240	60	6818
2026-01-21 16:35:12.60	19.31	8.28	-43.6	-45.1	19.6	0.00e+00	6	41	0	122683392	60	6507
2026-01-21 16:35:13.60	19.23	8.35	-43.6	-45.1	19.7	0.00e+00	7	41	0	124780544	60	6488
2026-01-21 16:35:14.62	19.15	8.42	-43.1	-44.5	20.3	0.00e+00	6	41	0	126877696	60	6067
2026-01-21 16:35:15.63	19.08	8.50	-43.3	-44.6	20.1	0.00e+00	74	41	0	127926272	60	6163
2026-01-21 16:35:16.64	19.00	8.57	-43.2	-44.6	20.1	0.00e+00	6	41	0	130023424	60	6139
2026-01-21 16:35:17.64	18.92	8.64	-43.2	-44.6	20.2	0.00e+00	91	41	0	132120576	60	6144
2026-01-21 16:35:18.65	18.84	8.72	-43.1	-44.5	20.1	0.00e+00	0	41	0	134217728	60	6067
2026-01-21 16:35:19.66	18.76	8.79	-43.3	-44.7	20.0	0.00e+00	37	41	0	136314880	60	6228
2026-01-21 16:35:20.67	18.68	8.86	-43.2	-44.6	20.0	0.00e+00	6	41	0	137363456	60	6111
2026-01-21 16:35:21.68	18.60	8.94	-43.1	-44.4	20.3	0.00e+00	0	41	0	139460608	60	6006
2026-01-21 16:35:22.69	18.52	9.01	-43.1	-44.4	20.3	0.00e+00	0	41	0	141557760	60	5984
2026-01-21 16:35:23.70	18.44	9.09	-43.0	-44.3	20.4	0.00e+00	0	41	0	143654912	60	5927
2026-01-21 16:35:24.70	18.36	9.16	-43.1	-44.4	20.4	0.00e+00	92	41	0	145752064	60	5986
2026-01-21 16:35:25.71	18.28	9.23	-42.9	-44.2	20.6	0.00e+00	50	41	0	146800640	60	5839
2026-01-21 16:35:26.72	18.19	9.31	-42.9	-44.2	20.5	0.00e+00	92	41	0	148897792	60	5831
2026-01-21 16:35:27.72	18.11	9.38	-42.9	-44.3	20.5	0.00e+00	49	41	0	150994944	60	5898
2026-01-21 16:35:28.73	18.03	9.46	-43.0	-44.3	20.5	0.00e+00	50	41	0	153092096	60	5954
2026-01-21 16:35:29.74	17.94	9.53	-42.8	-44.1	20.8	0.00e+00	51	41	0	155189248	60	5793
2026-01-21 16:35:30.75	17.86	9.61	-42.6	-43.9	20.8	0.00e+00	31	41	0	157286400	58	6335
2026-01-21 16:35:31.76	17.77	9.69	-42.7	-43.9	20.8	0.00e+00	90	41	0	158334976	58	6386
2026-01-21 16:35:32.77	17.69	9.76	-42.5	-43.8	20.9	0.00e+00	31	41	0	160432128	58	6275
2026-01-21 16:35:33.78	17.60	9.84	-42.6	-43.9	20.8	0.00e+00	92	41	0	162529280	58	6348
2026-01-21 16:35:34.79	17.52	9.91	-42.5	-43.8	20.9	0.00e+00	30	41	0	164626432	58	6260
2026-01-21 16:35:35.80	17.43	9.99	-42.5	-43.8	21.0	0.00e+00	92	41	0	166723584	58	6266
2026-01-21 16:35:36.81	17.34	10.07	-42.4	-43.6	21.1	0.00e+00	0	41	0	167772160	58	6128
2026-01-21 16:35:37.82	17.26	10.14	-42.4	-43.6	21.1	0.00e+00	2	41	0	169869312	58	6126
2026-01-21 16:35:38.83	17.17	10.22	-42.5	-43.7	21.0	0.00e+00	48	41	0	171966464	58	6207
2026-01-21 16:35:39.84	17.08	10.30	-42.4	-43.6	21.1	0.00e+00	0	41	0	174063616	58	6163
2026-01-21 16:35:40.84	16.99	10.38	-42.4	-43.6	21.2	0.00e+00	92	41	0	176160768	58	6141
2026-01-21 16:35:41.85	16.90	10.45	-42.5	-43.7	21.0	0.00e+00	0	41	0	177209344	58	6244
2026-01-21 16:35:42.86	16.81	10.53	-42.4	-43.6	21.2	0.00e+00	91	41	0	179306496	58	6143
2026-01-21 16:35:43.87	16.72	10.61	-42.2	-43.4	21.4	0.00e+00	0	41	0	181403648	58	5973
2026-01-21 16:35:44.88	16.63	10.69	-42.2	-43.4	21.4	0.00e+00	0	41	0	183500800	58	5991
2026-01-21 16:35:45.89	16.54	10.76	-42.2	-43.4	21.4	0.00e+00	0	41	0	185597952	58	6007
2026-01-21 16:35:46.90	16.45	10.84	-42.3	-43.5	21.3	0.00e+00	0	41	0	186646528	58	6037
2026-01-21 16:35:47.91	16.35	10.92	-42.2	-43.3	21.5	0.00e+00	90	41	0	188743680	58	5937
2026-01-21 16:35:48.92	16.26	11.00	-42.2	-43.4	21.4	0.00e+00	51	41	0	190840832	58	6005
2026-01-21 16:35:49.93	16.17	11.08	-42.2	-43.4	21.4	0.00e+00	90	41	0	192937984	58	6012
2026-01-21 16:35:50.93	16.07	11.16	-42.2	-43.4	21.4	0.00e+00	51	41	0	195035136	58	5981
2026-01-21 16:35:51.94	15.98	11.24	-42.1	-43.2	21.6	0.00e+00	45	41	0	196083712	58	5863
2026-01-21 16:35:52.95	15.88	11.32	-42.2	-43.4	21.4	0.00e+00	32	41	0	198180864	58	5990
2026-01-21 16:35:53.96	15.79	11.40	-42.2	-43.4	21.4	0.00e+00	51	41	0	200278016	58	6001
2026-01-21 16:35:54.97	15.69	11.48	-42.3	-43.5	21.3	0.00e+00	0	41	0	202375168	58	6071
2026-01-21 16:35:55.98	15.60	11.56	-42.1	-43.3	21.5	0.00e+00	30	41	0	204472320	58	5925
2026-01-21 16:35:56.99	15.50	11.64	-42.2	-43.4	21.5	0.00e+00	92	41	0	205520896	58	5980
2026-01-21 16:35:58.00	15.40	11.72	-42.1	-43.3	21.6	0.00e+00	30	41	0	207618048	58	5900
2026-01-21 16:35:59.01	15.30	11.80	-42.1	-43.3	21.6	0.00e+00	92	41	0	209715200	58	5926
2026-01-21 16:36:00.02	15.20	11.88	-42.2	-43.4	21.4	0.00e+00	2	41	0	211812352	58	6004
2026-01-21 16:36:01.03	15.10	11.96	-42.1	-43.3	21.5	0.00e+00	2	41	0	213909504	58	5932
2026-01-21 16:36:02.04	15.00	12.04	-42.0	-43.2	21.4	0.00e+00	14	41	0	214958080	58	5845
2026-01-21 16:36:03.05	14.90	12.12	-42.2	-43.4	21.3	0.00e+00	0	41	0	217055232	58	5972
2026-01-21 16:36:04.06	14.80	12.20	-42.2	-43.3	21.5	0.00e+00	92	41	0	219152384	58	5942
2026-01-21 16:36:05.07	14.70	12.28	-42.1	-43.2	21.5	0.00e+00	0	41	0	221249536	58	5891
2026-01-21 16:36:06.08	14.60	12.37	-42.2	-43.3	21.5	0.00e+00	92	41	0	223346688	58	5943
2026-01-21 16:36:07.09	14.49	12.45	-42.1	-43.3	21.6	0.00e+00	0	41	0	225443840	58	5918
2026-01-21 16:36:08.09	14.39	12.53	-41.9	-43.0	21.8	0.00e+00	52	41	0	226492416	58	5722
2026-01-21 16:36:09.10	14.29	12.61	-41.9	-43.0	21.8	0.00e+00	0	41	0	228589568	58	5746
2026-01-21 16:36:10.11	14.18	12.69	-42.0	-43.1	21.7	0.00e+00	0	41	0	230686720	58	5804
2026-01-21 16:36:11.12	14.08	12.78	-41.9	-43.0	21.8	0.00e+00	91	41	0	232783872	58	5720
2026-01-21 16:36:12.13	13.97	12.86	-41.8	-42.9	21.9	0.00e+00	45	41	0	233832448	56	6322
2026-01-21 16:36:13.14	13.86	12.94	-41.9	-43.0	21.9	0.00e+00	91	41	0	235929600	56	6428
2026-01-21 16:36:14.15	13.76	13.02	-41.8	-42.8	22.0	0.00e+00	35	41	0	238026752	56	6297
2026-01-21 16:36:15.16	13.65	13.11	-41.9	-43.0	21.9	0.00e+00	47	41	0	240123904	56	6392
2026-01-21 16:36:16.17	13.54	13.19	-41.7	-42.8	22.0	0.00e+00	46	41	0	242221056	56	6290
2026-01-21 16:36:17.18	13.43	13.28	-41.7	-42.8	22.0	0.00e+00	36	41	0	243269632	56	6273
2026-01-21 16:36:18.19	13.32	13.36	-41.9	-43.0	21.9	0.00e+00	61	41	0	245366784	56	6448
2026-01-21 16:36:19.20	13.21	13.44	-41.8	-42.9	21.9	0.00e+00	0	41	0	247463936	56	6347
2026-01-21 16:36:20.21	13.10	13.53	-41.9	-43.0	21.8	0.00e+00	90	41	0	249561088	56	6399
2026-01-21 16:36:21.22	12.99	13.61	-41.8	-42.9	21.9	0.00e+00	0	41	0	251658240	56	6346
2026-01-21 16:36:22.23	12.87	13.70	-41.8	-42.9	21.9	0.00e+00	90	41	0	253755392	56	6348
2026-01-21 16:36:23.24	12.76	13.78	-42.0	-43.1	21.7	0.00e+00	0	41	0	254803968	56	6489
2026-01-21 16:36:24.25	12.65	13.87	-41.9	-43.0	21.8	0.00e+00	0	41	0	256901120	56	6457
2026-01-21 16:36:25.25	12.53	13.95	-41.8	-42.9	21.9	0.00e+00	0	41	0	258998272	56	6359
2026-01-21 16:36:26.26	12.42	14.04	-41.9	-43.1	21.8	0.00e+00	0	41	0	261095424	56	6466
2026-01-21 16:36:27.27	12.30	14.12	-41.8	-42.9	22.0	0.00e+00	92	41	0	263192576	56	6331
2026-01-21 16:36:28.28	12.19	14.21	-42.0	-43.1	21.9	0.00e+00	51	41	0	264241152	56	6466
2026-01-21 16:36:29.29	12.07	14.29	-42.0	-43.1	21.8	0.00e+00	92	41	0	266338304	56	6467
2026-01-21 16:36:30.30	11.95	14.38	-42.0	-43.1	21.8	0.00e+00	51	41	0	268435456	56	6518
2026-01-21 16:36:31.31	11.83	14.47	-42.0	-43.1	21.8	0.00e+00	0	41	0	270532608	56	6510
2026-01-21 16:36:32.32	11.71	14.55	-42.1	-43.2	21.7	0.00e+00	0	41	0	272629760	56	6569
2026-01-21 16:36:33.33	11.59	14.64	-42.0	-43.1	21.7	0.00e+00	50	41	0	273678336	56	6477
2026-01-21 16:36:34.34	11.47	14.73	-42.1	-43.2	21.7	0.00e+00	92	41	0	275775488	56	6597
2026-01-21 16:36:35.35	11.35	14.81	-42.1	-43.2	21.5	0.00e+00	0	41	0	277872640	56	6563
2026-01-21 16:36:36.36	11.23	14.90	-42.1	-43.2	21.7	0.00e+00	92	41	0	279969792	56	6614
2026-01-21 16:36:37.37	11.11	14.99	-42.0	-43.1	21.7	0.00e+00	51	41	0	282066944	56	6536
2026-01-21 16:36:38.38	10.98	15.08	-42.1	-43.2	21.8	0.00e+00	6	41	0	283115520	56	6587
2026-01-21 16:36:39.39	10.86	15.16	-42.1	-43.2	21.7	0.00e+00	5	41	0	285212672	56	6584
2026-01-21 16:36:40.40	10.73	15.25	-42.1	-43.3	21.7	0.00e+00	6	41	0	287309824	56	6623
2026-01-21 16:36:41.41	10.61	15.34	-42.1	-43.2	21.7	0.00e+00	39	41	0	289406976	56	6553
2026-01-21 16:36:42.42	10.48	15.43	-42.0	-43.1	21.8	0.00e+00	0	41	0	291504128	56	6535
2026-01-21 16:36:43.43	10.35	15.52	-42.0	-43.1	21.8	0.00e+00	92	41	0	293601280	56	6493
2026-01-21 16:36:44.44	10.22	15.60	-42.0	-43.0	21.9	0.00e+00	0	41	0	294649856	56	6462
2026-01-21 16:36:45.45	10.09	15.69	-42.0	-43.2	21.8	0.00e+00	18	41	0	296747008	56	6553
2026-01-21 16:36:46.46	9.96	15.78	-42.1	-43.2	21.8	0.00e+00	0	41	0	298844160	56	6565
2026-01-21 16:36:47.46	9.83	15.87	-42.0	-43.1	21.9	0.00e+00	0	41	0	300941312	56	6503
2026-01-21 16:36:48.47	9.70	15.96	-41.8	-42.9	22.0	0.00e+00	4	41	0	301989888	56	6372
2026-01-21 16:36:49.48	9.57	16.05	-42.0	-43.1	21.9	0.00e+00	0	41	0	304087040	56	6468
2026-01-21 16:36:50.49	9.44	16.14	-41.9	-43.0	21.9	0.00e+00	92	41	0	306184192	56	6442
2026-01-21 16:36:51.50	9.30	16.23	-42.1	-43.2	21.8	0.00e+00	0	41	0	308281344	56	6587
2026-01-21 16:36:52.51	9.17	16.32	-42.1	-43.2	21.8	0.00e+00	92	41	0	310378496	56	6546
2026-01-21 16:36:53.52	9.03	16.41	-42.1	-43.2	21.8	0.00e+00	52	41	0	311427072	56	6570
2026-01-21 16:36:54.53	8.90	16.50	-42.1	-43.2	21.8	0.00e+00	36	41	0	313524224	56	6596
2026-01-21 16:36:55.54	8.76	16.59	-42.1	-43.2	21.8	0.00e+00	51	41	0	315621376	56	6554
2026-01-21 16:36:56.55	8.62	16.68	-42.0	-43.1	21.9	0.00e+00	40	41	0	317718528	56	6520
2026-01-21 16:36:57.56	8.48	16.77	-42.1	-43.2	21.9	0.00e+00	47	41	0	319815680	56	6548
2026-01-21 16:36:58.57	8.34	16.86	-42.2	-43.4	21.6	0.00e+00	6	41	0	321912832	56	6701
2026-01-21 16:36:59.58	8.20	16.95	-42.0	-43.0	21.9	0.00e+00	90	41	0	322961408	56	6457
2026-01-21 16:37:00.59	8.06	17.04	-42.1	-43.2	21.7	0.00e+00	35	41	0	325058560	56	6577
2026-01-21 16:37:01.59	7.92	17.13	-41.9	-43.0	22.0	0.00e+00	35	41	0	327155712	56	6445
2026-01-21 16:37:02.61	7.77	17.23	-42.0	-43.0	22.0	0.00e+00	6	41	0	329252864	56	6459
2026-01-21 16:37:03.61	7.63	17.32	-41.9	-43.0	22.0	0.00e+00	35	41	0	331350016	56	6440
2026-01-21 16:37:04.63	7.48	17.41	-42.0	-43.0	22.0	0.00e+00	90	41	0	332398592	56	6458
2026-01-21 16:37:05.64	7.34	17.50	-41.8	-42.9	22.2	0.00e+00	7	41	0	334495744	56	6320
2026-01-21 16:37:06.65	7.19	17.60	-41.9	-42.9	22.1	0.00e+00	90	41	0	336592896	56	6389
2026-01-21 16:37:07.66	7.04	17.69	-41.7	-42.8	22.2	0.00e+00	0	41	0	338690048	56	6275
2026-01-21 16:37:08.67	6.89	17.78	-41.7	-42.7	22.3	0.00e+00	92	41	0	340787200	56	6237
2026-01-21 16:37:09.68	6.75	17.87	-41.7	-42.7	22.3	0.00e+00	53	41	0	341835776	56	6206
2026-01-21 16:37:10.69	6.59	17.97	-41.7	-42.7	22.3	0.00e+00	0	41	0	343932928	56	6214
2026-01-21 16:37:11.70	6.44	18.06	-41.8	-42.8	22.2	0.00e+00	0	41	0	346030080	56	6306
2026-01-21 16:37:12.70	6.29	18.15	-41.7	-42.7	22.1	0.00e+00	0	41	0	348127232	56	6225
2026-01-21 16:37:13.71	6.14	18.24	-41.8	-42.9	22.2	0.00e+00	92	41	0	350224384	56	6337
2026-01-21 16:37:14.72	5.98	18.34	-41.8	-42.8	22.2	0.00e+00	0	41	0	351272960	56	6291
2026-01-21 16:37:15.73	5.83	18.43	-41.6	-42.7	22.3	0.00e+00	79	41	0	353370112	56	6176
2026-01-21 16:37:16.74	5.67	18.52	-41.6	-42.6	22.3	0.00e+00	29	41	0	355467264	56	6169
2026-01-21 16:37:17.75	5.51	18.62	-41.5	-42.5	22.5	0.00e+00	33	41	0	357564416	56	6056
2026-01-21 16:37:18.76	5.36	18.71	-41.6	-42.6	22.3	0.00e+00	52	41	0	359661568	56	6136
2026-01-21 16:37:19.77	5.20	18.81	-41.6	-42.6	22.3	0.00e+00	29	41	0	360710144	56	6139
2026-01-21 16:37:20.78	5.04	18.90	-41.6	-42.6	22.4	0.00e+00	92	41	0	362807296	56	6154
2026-01-21 16:37:21.79	4.87	18.99	-41.5	-42.5	22.1	0.00e+00	2	41	0	364904448	56	6068
2026-01-21 16:37:22.80	4.71	19.09	-41.5	-42.5	22.5	0.00e+00	91	41	0	367001600	56	6062
2026-01-21 16:37:23.81	4.55	19.18	-41.5	-42.5	22.5	0.00e+00	0	41	0	369098752	56	6074
2026-01-21 16:37:24.82	4.38	19.28	-41.5	-42.5	22.5	0.00e+00	2	41	0	371195904	56	6080
2026-01-21 16:37:25.83	4.22	19.37	-41.5	-42.5	22.5	0.00e+00	0	41	0	372244480	56	6054
2026-01-21 16:37:26.85	4.05	19.47	-41.3	-42.3	22.7	0.00e+00	0	41	0	374341632	56	5962
2026-01-21 16:37:27.86	3.88	19.56	-41.3	-42.3	22.6	0.00e+00	0	41	0	376438784	56	5907
2026-01-21 16:37:28.87	3.71	19.66	-41.2	-42.2	22.9	0.00e+00	0	41	0	378535936	56	5842
2026-01-21 16:37:29.88	3.54	19.75	-41.2	-42.2	22.9	0.00e+00	92	41	0	380633088	56	5829
2026-01-21 16:37:30.89	3.37	19.85	-41.2	-42.1	22.9	0.00e+00	4	41	0	381681664	56	5820
2026-01-21 16:37:31.90	3.20	19.94	-41.1	-42.1	22.9	0.00e+00	53	41	0	383778816	56	5772
2026-01-21 16:37:32.91	3.03	20.04	-41.1	-42.1	22.8	0.00e+00	0	41	0	385875968	56	5807
2026-01-21 16:37:33.92	2.85	20.13	-41.3	-42.3	22.7	0.00e+00	0	41	0	387973120	56	5909
2026-01-21 16:37:34.93	2.68	20.23	-41.2	-42.2	22.9	0.00e+00	0	41	0	390070272	56	5848
2026-01-21 16:37:35.94	2.50	20.32	-41.1	-42.1	22.9	0.00e+00	34	41	0	391118848	56	5764
2026-01-21 16:37:36.94	2.33	20.42	-40.9	-41.9	23.0	0.00e+00	92	41	0	393216000	56	5654
2026-01-21 16:37:37.95	2.15	20.52	-41.0	-42.0	23.0	0.00e+00	44	41	0	395313152	56	5702
2026-01-21 16:37:38.96	1.97	20.61	-41.1	-42.1	22.9	0.00e+00	92	41	0	397410304	56	5785
2026-01-21 16:37:39.97	1.79	20.71	-41.1	-42.0	22.9	0.00e+00	28	41	0	399507456	56	5750
2026-01-21 16:37:40.98	1.60	20.80	-41.2	-42.2	22.8	0.00e+00	2	41	0	400556032	56	5841
2026-01-21 16:37:41.99	1.42	20.90	-41.4	-42.4	22.6	0.00e+00	0	41	0	402653184	56	5971
2026-01-21 16:37:43.00	1.24	20.99	-41.6	-42.6	22.3	0.00e+00	2	41	0	404750336	56	6135
2026-01-21 16:37:44.01	1.05	21.09	-41.8	-42.9	22.1	0.00e+00	92	41	0	406847488	56	6340
2026-01-21 16:37:45.02	0.86	21.19	-41.6	-42.6	22.5	0.00e+00	33	41	0	408944640	56	6150
2026-01-21 16:37:46.03	0.68	21.28	-41.4	-42.5	22.5	0.00e+00	91	41	0	409993216	56	6046
2026-01-21 16:37:47.04	0.49	21.38	-41.6	-42.6	22.3	0.00e+00	0	41	0	412090368	56	6147
2026-01-21 16:37:48.05	0.30	21.48	-41.7	-42.7	22.3	0.00e+00	2	41	0	414187520	56	6214
2026-01-21 16:37:49.06	0.10	21.57	-41.7	-42.8	22.3	0.00e+00	2	41	0	416284672	56	6261
2026-01-21 16:37:50.07	359.91	21.67	-41.8	-42.8	22.2	0.00e+00	54	41	0	418381824	56	6284
2026-01-21 16:37:51.08	359.72	21.76	-41.7	-42.7	22.3	0.00e+00	92	41	0	419430400	56	6200
2026-01-21 16:37:52.09	359.52	21.86	-41.7	-42.7	22.3	0.00e+00	0	41	0	421527552	56	6221
2026-01-21 16:37:53.10	359.33	21.96	-41.8	-42.8	22.1	0.00e+00	92	41	0	423624704	56	6287
2026-01-21 16:37:54.11	359.13	22.05	-41.8	-42.8	22.2	0.00e+00	0	41	0	425721856	56	6292
2026-01-21 16:37:55.12	358.93	22.15	-41.9	-43.0	22.1	0.00e+00	0	41	0	427819008	56	6421
2026-01-21 16:37:56.13	358.73	22.25	-41.8	-42.9	22.2	0.00e+00	29	41	0	429916160	56	6352
2026-01-21 16:37:57.14	358.53	22.34	-41.8	-42.8	22.3	0.00e+00	26	41	0	430964736	56	6306
2026-01-21 16:37:58.15	358.33	22.44	-41.8	-42.8	22.3	0.00e+00	0	41	0	433061888	56	6284
2026-01-21 16:37:59.16	358.12	22.53	-41.7	-42.8	22.2	0.00e+00	28	41	0	435159040	56	6259
2026-01-21 16:38:00.17	357.92	22.63	-41.6	-42.6	22.4	0.00e+00	92	41	0	437256192	56	6121
2026-01-21 16:38:01.18	357.71	22.73	-41.6	-42.6	22.4	0.00e+00	0	41	0	439353344	56	6153
2026-01-21 16:38:02.19	357.50	22.82	-41.4	-42.4	22.5	0.00e+00	92	41	0	440401920	56	6008
2026-01-21 16:38:03.20	357.29	22.92	-41.4	-42.4	22.7	0.00e+00	0	41	0	442499072	56	5979
2026-01-21 16:38:04.21	357.08	23.01	-41.3	-42.3	22.7	0.00e+00	28	41	0	444596224	56	5903
2026-01-21 16:38:05.22	356.87	23.11	-41.3	-42.3	22.7	0.00e+00	26	41	0	446693376	56	5904
2026-01-21 16:38:06.22	356.66	23.21	-41.3	-42.3	22.7	0.00e+00	0	41	0	448790528	56	5944
2026-01-21 16:38:07.24	356.44	23.30	-41.3	-42.3	22.7	0.00e+00	92	41	0	449839104	56	5926
2026-01-21 16:38:08.24	356.23	23.40	-41.2	-42.2	22.8	0.00e+00	0	41	0	451936256	56	5852
2026-01-21 16:38:09.26	356.01	23.49	-41.1	-42.1	22.8	0.00e+00	92	41	0	454033408	56	5802
2026-01-21 16:38:10.27	355.79	23.59	-41.1	-42.0	22.9	0.00e+00	2	41	0	456130560	56	5739
2026-01-21 16:38:11.28	355.57	23.68	-40.9	-41.9	23.2	0.00e+00	0	41	0	458227712	56	5656
2026-01-21 16:38:12.29	355.35	23.78	-40.9	-41.8	23.2	0.00e+00	53	41	0	459276288	56	5590
2026-01-21 16:38:13.30	355.13	23.87	-40.8	-41.8	23.2	0.00e+00	0	41	0	461373440	56	5591
2026-01-21 16:38:14.31	354.90	23.97	-40.8	-41.7	23.2	0.00e+00	52	41	0	463470592	56	5529
2026-01-21 16:38:15.32	354.68	24.06	-40.7	-41.6	23.2	0.00e+00	0	41	0	465567744	54	6136
2026-01-21 16:38:16.33	354.45	24.16	-40.7	-41.6	23.2	0.00e+00	92	41	0	467664896	54	6160
2026-01-21 16:38:17.34	354.22	24.25	-40.5	-41.4	23.5	0.00e+00	47	41	0	468713472	54	5980
2026-01-21 16:38:18.35	353.99	24.35	-40.4	-41.3	23.6	0.00e+00	0	41	0	470810624	54	5908
2026-01-21 16:38:19.35	353.76	24.44	-40.4	-41.4	23.5	0.00e+00	0	41	0	472907776	54	5973
2026-01-21 16:38:20.36	353.53	24.54	-40.3	-41.2	23.7	0.00e+00	28	41	0	475004928	54	5887
2026-01-21 16:38:21.37	353.30	24.63	-40.4	-41.4	23.5	0.00e+00	53	41	0	477102080	54	5969
2026-01-21 16:38:22.38	353.06	24.72	-40.5	-41.4	23.3	0.00e+00	28	41	0	478150656	54	5975
2026-01-21 16:38:23.39	352.83	24.82	-40.6	-41.5	23.4	0.00e+00	90	41	0	480247808	54	6061
2026-01-21 16:38:24.40	352.59	24.91	-40.5	-41.4	23.5	0.00e+00	32	41	0	482344960	54	6015
2026-01-21 16:38:25.41	352.35	25.00	-40.6	-41.6	23.3	0.00e+00	92	41	0	484442112	54	6105
2026-01-21 16:38:26.42	352.11	25.10	-40.6	-41.6	23.4	0.00e+00	0	41	0	486539264	54	6112
2026-01-21 16:38:27.43	351.87	25.19	-40.6	-41.5	23.4	0.00e+00	0	41	0	487587840	54	6071
2026-01-21 16:38:28.44	351.62	25.28	-40.6	-41.5	23.3	0.00e+00	7	41	0	489684992	54	6072
2026-01-21 16:38:29.45	351.38	25.37	-40.4	-41.3	23.6	0.00e+00	5	41	0	491782144	54	5933
2026-01-21 16:38:30.46	351.13	25.47	-40.4	-41.3	23.6	0.00e+00	90	41	0	493879296	54	5899
2026-01-21 16:38:31.47	350.88	25.56	-40.3	-41.2	23.7	0.00e+00	6	41	0	495976448	54	5894
2026-01-21 16:38:32.48	350.63	25.65	-40.5	-41.4	23.5	0.00e+00	91	41	0	498073600	54	5983
2026-01-21 16:38:33.49	350.38	25.74	-40.5	-41.4	23.6	0.00e+00	5	41	0	499122176	54	5985
2026-01-21 16:38:34.50	350.13	25.83	-40.5	-41.4	23.4	0.00e+00	0	41	0	501219328	54	5985
2026-01-21 16:38:35.51	349.88	25.92	-40.5	-41.4	23.5	0.00e+00	54	41	0	503316480	54	6028
2026-01-21 16:38:36.52	349.62	26.01	-40.5	-41.4	23.6	0.00e+00	32	41	0	505413632	54	6011
2026-01-21 16:38:37.53	349.36	26.10	-40.5	-41.4	23.4	0.00e+00	91	41	0	507510784	54	6030
2026-01-21 16:38:38.54	349.11	26.19	-40.5	-41.4	23.6	0.00e+00	53	41	0	508559360	54	5965
2026-01-21 16:38:39.55	348.85	26.28	-40.6	-41.5	23.4	0.00e+00	90	41	0	510656512	54	6090
2026-01-21 16:38:40.56	348.58	26.37	-40.8	-41.7	23.3	0.00e+00	49	41	0	512753664	54	6240
2026-01-21 16:38:41.57	348.32	26.46	-41.1	-42.0	23.0	0.00e+00	23	41	0	514850816	54	6442
2026-01-21 16:38:42.58	348.06	26.54	-41.3	-42.3	22.8	0.00e+00	45	41	0	516947968	54	6675
2026-01-21 16:38:43.59	347.79	26.63	-41.5	-42.5	22.6	0.00e+00	7	41	0	517996544	54	6820
2026-01-21 16:38:44.60	347.52	26.72	-41.4	-42.4	22.5	0.00e+00	46	41	0	520093696	54	6743
2026-01-21 16:38:45.61	347.26	26.81	-41.6	-42.6	22.3	0.00e+00	7	41	0	522190848	54	6881
2026-01-21 16:38:46.62	346.99	26.89	-41.6	-42.6	22.5	0.00e+00	92	41	0	524288000	54	6872
2026-01-21 16:38:47.63	346.71	26.98	-41.4	-42.4	22.7	0.00e+00	7	41	0	526385152	54	6704
2026-01-21 16:38:48.64	346.44	27.06	-41.4	-42.3	22.7	0.00e+00	90	41	0	527433728	54	6687
2026-01-21 16:38:49.65	346.17	27.15	-41.4	-42.3	22.7	0.00e+00	0	41	0	529530880	54	6692
2026-01-21 16:38:50.66	345.89	27.23	-41.5	-42.5	22.6	0.00e+00	6	41	0	531628032	54	6836
2026-01-21 16:38:51.66	345.62	27.32	-41.5	-42.5	22.6	0.00e+00	0	41	0	533725184	54	6780
2026-01-21 16:38:52.67	345.34	27.40	-41.7	-42.8	22.3	0.00e+00	7	41	0	535822336	54	7010
2026-01-21 16:38:53.68	345.06	27.48	-42.0	-43.0	22.2	0.00e+00	92	41	0	536870912	56	6444
2026-01-21 16:38:54.69	344.77	27.57	-42.0	-43.0	22.1	0.00e+00	55	41	0	538968064	56	6433
2026-01-21 16:38:55.70	344.49	27.65	-42.1	-43.2	22.0	0.00e+00	92	41	0	541065216	56	6573
2026-01-21 16:38:56.71	344.21	27.73	-42.1	-43.2	22.0	0.00e+00	0	41	0	543162368	56	6582
2026-01-21 16:38:57.72	343.92	27.81	-42.2	-43.3	21.9	0.00e+00	0	41	0	545259520	56	6642
2026-01-21 16:38:58.73	343.63	27.89	-42.3	-43.4	21.9	0.00e+00	31	41	0	546308096	56	6706
2026-01-21 16:38:59.74	343.34	27.97	-42.2	-43.2	21.9	0.00e+00	25	41	0	548405248	56	6610
2026-01-21 16:39:00.74	343.05	28.05	-42.3	-43.4	21.9	0.00e+00	47	41	0	550502400	56	6702
2026-01-21 16:39:01.75	342.76	28.13	-42.3	-43.5	21.7	0.00e+00	56	41	0	552599552	56	6780
2026-01-21 16:39:02.76	342.47	28.20	-42.4	-43.6	21.6	0.00e+00	90	41	0	554696704	56	6860
2026-01-21 16:39:03.77	342.17	28.28	-42.6	-43.7	21.6	0.00e+00	55	41	0	555745280	56	6972
2026-01-21 16:39:04.78	341.88	28.36	-42.7	-43.9	21.4	0.00e+00	11	41	0	557842432	58	6347
2026-01-21 16:39:05.79	341.58	28.43	-42.7	-43.8	21.4	0.00e+00	33	41	0	559939584	58	6313
2026-01-21 16:39:06.80	341.28	28.51	-42.4	-43.6	21.6	0.00e+00	0	41	0	562036736	58	6117
2026-01-21 16:39:07.81	340.98	28.58	-42.5	-43.6	21.6	0.00e+00	0	41	0	564133888	58	6151
2026-01-21 16:39:08.82	340.68	28.66	-42.2	-43.3	21.9	0.00e+00	0	41	0	565182464	58	5917
2026-01-21 16:39:09.82	340.38	28.73	-42.3	-43.3	21.9	0.00e+00	91	41	0	567279616	58	5964
2026-01-21 16:39:10.83	340.07	28.80	-42.3	-43.4	21.8	0.00e+00	0	41	0	569376768	58	6020
2026-01-21 16:39:11.84	339.76	28.88	-42.4	-43.5	21.6	0.00e+00	92	41	0	571473920	58	6092
2026-01-21 16:39:12.85	339.46	28.95	-42.2	-43.3	21.9	0.00e+00	0	41	0	573571072	58	5902
2026-01-21 16:39:13.86	339.15	29.02	-42.1	-43.2	21.9	0.00e+00	0	41	0	574619648	58	5853
2026-01-21 16:39:14.87	338.84	29.09	-42.2	-43.3	21.2	0.00e+00	3	41	0	576716800	58	5936
2026-01-21 16:39:15.88	338.53	29.16	-42.3	-43.4	21.8	0.00e+00	54	41	0	578813952	58	6002
2026-01-21 16:39:16.89	338.21	29.22	-42.2	-43.3	21.9	0.00e+00	92	41	0	580911104	58	5932
2026-01-21 16:39:17.90	337.90	29.29	-42.1	-43.2	22.0	0.00e+00	55	41	0	583008256	58	5834
2026-01-21 16:39:18.91	337.58	29.36	-42.1	-43.2	22.0	0.00e+00	92	41	0	584056832	58	5839
2026-01-21 16:39:19.92	337.26	29.42	-42.2	-43.3	21.9	0.00e+00	0	41	0	586153984	58	5942
2026-01-21 16:39:20.93	336.95	29.49	-41.9	-43.0	22.2	0.00e+00	35	41	0	588251136	58	5716
2026-01-21 16:39:21.93	336.63	29.55	-42.1	-43.1	22.1	0.00e+00	32	41	0	590348288	58	5825
2026-01-21 16:39:22.94	336.31	29.61	-42.1	-43.2	22.0	0.00e+00	0	41	0	592445440	58	5860
2026-01-21 16:39:23.95	335.99	29.68	-42.3	-43.5	21.8	0.00e+00	27	41	0	594542592	58	6035
2026-01-21 16:39:24.96	335.66	29.74	-42.2	-43.3	21.9	0.00e+00	27	41	0	595591168	58	5916
2026-01-21 16:39:25.97	335.34	29.80	-42.2	-43.3	21.9	0.00e+00	92	41	0	597688320	58	5911
2026-01-21 16:39:26.98	335.01	29.86	-42.2	-43.3	22.0	0.00e+00	0	41	0	599785472	58	5919
2026-01-21 16:39:27.99	334.68	29.92	-42.2	-43.3	21.9	0.00e+00	90	41	0	601882624	58	5925
2026-01-21 16:39:29.00	334.36	29.97	-42.1	-43.2	22.1	0.00e+00	30	41	0	603979776	58	5868
2026-01-21 16:39:30.01	334.03	30.03	-42.2	-43.3	22.0	0.00e+00	28	41	0	605028352	58	5906
2026-01-21 16:39:31.02	333.70	30.09	-42.3	-43.4	21.8	0.00e+00	0	41	0	607125504	58	6029
2026-01-21 16:39:32.03	333.36	30.14	-42.3	-43.5	21.6	0.00e+00	0	41	0	609222656	58	6045
2026-01-21 16:39:33.04	333.03	30.19	-42.4	-43.5	21.7	0.00e+00	92	41	0	611319808	58	6085
2026-01-21 16:39:34.05	332.70	30.25	-42.4	-43.5	21.8	0.00e+00	0	41	0	613416960	58	6058
2026-01-21 16:39:35.06	332.36	30.30	-42.4	-43.6	21.7	0.00e+00	92	41	0	614465536	58	6104
2026-01-21 16:39:36.07	332.03	30.35	-42.5	-43.6	21.7	0.00e+00	0	41	0	616562688	58	6142
2026-01-21 16:39:37.08	331.69	30.40	-42.6	-43.7	21.5	0.00e+00	56	41	0	618659840	58	6243
2026-01-21 16:39:38.09	331.35	30.45	-42.7	-43.9	21.4	0.00e+00	0	41	0	620756992	58	6325
2026-01-21 16:39:39.10	331.01	30.50	-42.7	-43.8	21.5	0.00e+00	0	41	0	622854144	58	6308
2026-01-21 16:39:40.11	330.67	30.54	-42.8	-43.9	21.5	0.00e+00	28	41	0	623902720	58	6384
2026-01-21 16:39:41.12	330.33	30.59	-42.6	-43.7	21.5	0.00e+00	56	41	0	625999872	58	6232
2026-01-21 16:39:42.13	329.99	30.63	-42.3	-43.4	21.8	0.00e+00	92	41	0	628097024	58	6000
2026-01-21 16:39:43.14	329.64	30.68	-42.2	-43.3	21.9	0.00e+00	27	41	0	630194176	58	5921
2026-01-21 16:39:44.15	329.30	30.72	-42.1	-43.2	21.9	0.00e+00	56	41	0	632291328	58	5862
2026-01-21 16:39:45.16	328.95	30.76	-42.2	-43.3	22.0	0.00e+00	26	41	0	633339904	58	5907
2026-01-21 16:39:46.17	328.61	30.80	-42.2	-43.3	21.9	0.00e+00	2	41	0	635437056	58	5952
2026-01-21 16:39:47.18	328.26	30.84	-42.3	-43.4	21.8	0.00e+00	57	41	0	637534208	58	6005
2026-01-21 16:39:48.19	327.91	30.88	-42.1	-43.2	22.0	0.00e+00	0	41	0	639631360	58	5869
2026-01-21 16:39:49.20	327.56	30.91	-42.2	-43.2	22.0	0.00e+00	92	41	0	641728512	58	5887
2026-01-21 16:39:50.21	327.21	30.95	-42.2	-43.2	22.0	0.00e+00	0	41	0	642777088	58	5890
2026-01-21 16:39:51.22	326.86	30.98	-42.2	-43.3	21.9	0.00e+00	95	41	0	644874240	58	5924
2026-01-21 16:39:52.23	326.51	31.02	-42.0	-43.1	22.2	0.00e+00	0	41	0	646971392	58	5779
2026-01-21 16:39:53.24	326.16	31.05	-42.0	-43.0	22.2	0.00e+00	0	41	0	649068544	58	5753
2026-01-21 16:39:54.25	325.81	31.08	-42.0	-43.0	22.2	0.00e+00	0	41	0	651165696	58	5759
2026-01-21 16:39:55.26	325.46	31.11	-42.1	-43.1	22.1	0.00e+00	0	41	0	652214272	58	5814
2026-01-21 16:39:56.27	325.10	31.14	-42.0	-43.1	22.2	0.00e+00	92	41	0	654311424	58	5781
2026-01-21 16:39:57.28	324.75	31.16	-42.1	-43.1	22.2	0.00e+00	55	41	0	656408576	58	5793
2026-01-21 16:39:58.28	324.40	31.19	-42.0	-43.0	22.2	0.00e+00	92	41	0	658505728	58	5731
2026-01-21 16:39:59.29	324.04	31.21	-42.2	-43.2	22.0	0.00e+00	0	41	0	660602880	58	5894
2026-01-21 16:40:00.30	323.69	31.24	-42.2	-43.2	22.0	0.00e+00	0	41	0	662700032	58	5891
2026-01-21 16:40:01.30	323.33	31.26	-42.5	-43.6	21.7	0.00e+00	54	41	0	663748608	58	6151
2026-01-21 16:40:02.32	322.97	31.28	-42.5	-43.6	21.7	0.00e+00	0	41	0	665845760	58	6156
2026-01-21 16:40:03.33	322.62	31.30	-42.4	-43.5	21.8	0.00e+00	55	41	0	667942912	58	6098
2026-01-21 16:40:04.34	322.26	31.32	-42.4	-43.6	21.7	0.00e+00	54	41	0	670040064	58	6109
2026-01-21 16:40:05.34	321.90	31.34	-42.3	-43.4	21.9	0.00e+00	92	41	0	672137216	58	6003
2026-01-21 16:40:06.35	321.55	31.35	-42.3	-43.3	22.0	0.00e+00	27	41	0	673185792	58	5964
2026-01-21 16:40:07.36	321.19	31.37	-42.4	-43.5	21.8	0.00e+00	92	41	0	675282944	58	6099
2026-01-21 16:40:08.37	320.83	31.38	-42.8	-43.9	21.5	0.00e+00	26	41	0	677380096	58	6368
2026-01-21 16:40:09.38	320.47	31.39	-43.2	-44.4	20.9	0.00e+00	6	41	0	679477248	58	6715
2026-01-21 16:40:10.39	320.11	31.40	-43.5	-44.8	20.6	0.00e+00	0	41	0	681574400	58	7035
2026-01-21 16:40:11.40	319.75	31.41	-43.6	-44.9	20.6	0.00e+00	0	41	0	682622976	58	7113
2026-01-21 16:40:12.41	319.39	31.42	-43.4	-44.7	20.7	0.00e+00	92	41	0	684720128	58	6937
2026-01-21 16:40:13.42	319.03	31.43	-43.4	-44.7	20.6	0.00e+00	6	41	0	686817280	58	6992
2026-01-21 16:40:14.43	318.67	31.44	-43.4	-44.7	20.7	0.00e+00	36	41	0	688914432	58	6980
2026-01-21 16:40:15.44	318.31	31.44	-43.5	-44.8	20.7	0.00e+00	5	41	0	691011584	58	7023
2026-01-21 16:40:16.45	317.95	31.44	-43.3	-44.5	21.0	0.00e+00	5	41	0	692060160	58	6826
2026-01-21 16:40:17.46	317.59	31.45	-43.2	-44.4	21.1	0.00e+00	5	41	0	694157312	58	6712
2026-01-21 16:40:18.47	317.22	31.45	-43.1	-44.4	21.0	0.00e+00	5	41	0	696254464	58	6698
2026-01-21 16:40:19.48	316.86	31.45	-43.5	-44.7	20.6	0.00e+00	92	41	0	698351616	58	6993
2026-01-21 16:40:20.49	316.50	31.44	-43.5	-44.8	20.6	0.00e+00	54	41	0	700448768	58	7063
2026-01-21 16:40:21.50	316.14	31.44	-43.4	-44.7	20.7	0.00e+00	92	41	0	701497344	58	6953
2026-01-21 16:40:22.51	315.78	31.44	-43.2	-44.5	20.9	0.00e+00	0	41	0	703594496	58	6782
2026-01-21 16:40:23.51	315.42	31.43	-43.1	-44.3	21.1	0.00e+00	54	41	0	705691648	58	6668
2026-01-21 16:40:24.52	315.06	31.42	-43.1	-44.3	21.1	0.00e+00	35	41	0	707788800	58	6641
2026-01-21 16:40:25.53	314.70	31.42	-43.0	-44.2	21.2	0.00e+00	0	41	0	709885952	58	6567
2026-01-21 16:40:26.54	314.34	31.41	-42.8	-44.0	21.2	0.00e+00	55	41	0	710934528	58	6415
2026-01-21 16:40:27.55	313.98	31.40	-42.6	-43.7	21.7	0.00e+00	33	41	0	713031680	58	6183
2026-01-21 16:40:28.56	313.62	31.38	-42.6	-43.8	21.6	0.00e+00	92	41	0	715128832	58	6257
2026-01-21 16:40:29.57	313.27	31.37	-42.6	-43.8	21.7	0.00e+00	35	41	0	717225984	58	6247
2026-01-21 16:40:30.58	312.91	31.36	-42.5	-43.6	21.7	0.00e+00	6	41	0	719323136	58	6164
2026-01-21 16:40:31.59	312.55	31.34	-42.5	-43.6	21.8	0.00e+00	32	41	0	720371712	58	6128
2026-01-21 16:40:32.59	312.19	31.32	-42.8	-43.9	21.4	0.00e+00	6	41	0	722468864	58	6376
2026-01-21 16:40:33.60	311.83	31.30	-42.8	-44.0	21.5	0.00e+00	0	41	0	724566016	58	6431
2026-01-21 16:40:34.61	311.48	31.28	-43.0	-44.2	21.3	0.00e+00	35	41	0	726663168	58	6565
2026-01-21 16:40:35.62	311.12	31.26	-42.7	-43.8	21.7	0.00e+00	92	41	0	728760320	58	6267
2026-01-21 16:40:36.63	310.76	31.24	-42.6	-43.7	21.6	0.00e+00	6	41	0	730857472	58	6186
2026-01-21 16:40:37.64	310.41	31.22	-42.6	-43.7	21.5	0.00e+00	46	41	0	731906048	58	6245
2026-01-21 16:40:38.65	310.05	31.19	-42.7	-43.8	21.4	0.00e+00	6	41	0	734003200	58	6291
2026-01-21 16:40:39.66	309.70	31.17	-43.1	-44.3	21.2	0.00e+00	6	41	0	736100352	58	6680
2026-01-21 16:40:40.67	309.34	31.14	-42.9	-44.1	21.2	0.00e+00	0	41	0	738197504	58	6530
2026-01-21 16:40:41.68	308.99	31.11	-42.8	-44.0	21.4	0.00e+00	49	41	0	740294656	58	6409
2026-01-21 16:40:42.69	308.63	31.08	-42.7	-43.8	21.5	0.00e+00	92	41	0	741343232	58	6277
2026-01-21 16:40:43.70	308.28	31.05	-42.7	-43.9	21.6	0.00e+00	49	41	0	743440384	58	6322
2026-01-21 16:40:44.71	307.93	31.02	-42.7	-43.9	21.5	0.00e+00	92	41	0	745537536	58	6343
2026-01-21 16:40:45.72	307.58	30.99	-43.0	-44.1	21.3	0.00e+00	0	41	0	747634688	58	6518
2026-01-21 16:40:46.73	307.23	30.95	-42.9	-44.0	21.5	0.00e+00	49	41	0	749731840	58	6451
2026-01-21 16:40:47.74	306.88	30.92	-42.6	-43.8	21.6	0.00e+00	36	41	0	750780416	58	6258
2026-01-21 16:40:48.74	306.53	30.88	-42.5	-43.6	21.7	0.00e+00	54	41	0	752877568	58	6172
2026-01-21 16:40:49.75	306.18	30.85	-42.5	-43.7	21.7	0.00e+00	92	41	0	754974720	58	6179
2026-01-21 16:40:50.76	305.84	30.81	-42.5	-43.6	21.9	0.00e+00	26	41	0	757071872	58	6141
2026-01-21 16:40:51.77	305.49	30.77	-42.5	-43.6	21.8	0.00e+00	92	41	0	759169024	58	6128
2026-01-21 16:40:52.78	305.15	30.73	-42.4	-43.5	21.7	0.00e+00	27	41	0	760217600	58	6097
2026-01-21 16:40:53.79	304.80	30.68	-42.6	-43.8	21.5	0.00e+00	92	41	0	762314752	58	6278
2026-01-21 16:40:54.80	304.46	30.64	-42.5	-43.6	21.7	0.00e+00	26	41	0	764411904	58	6147
2026-01-21 16:40:55.81	304.11	30.60	-42.6	-43.7	21.7	0.00e+00	0	41	0	766509056	58	6223
2026-01-21 16:40:56.82	303.77	30.55	-42.6	-43.7	21.7	0.00e+00	32	41	0	768606208	58	6229
2026-01-21 16:40:57.83	303.43	30.50	-42.5	-43.7	21.7	0.00e+00	0	41	0	769654784	58	6186
2026-01-21 16:40:58.84	303.09	30.46	-42.3	-43.4	22.0	0.00e+00	92	41	0	771751936	58	5991
2026-01-21 16:40:59.85	302.75	30.41	-42.4	-43.5	21.9	0.00e+00	0	41	0	773849088	58	6043
2026-01-21 16:41:00.86	302.41	30.36	-42.6	-43.7	21.6	0.00e+00	92	41	0	775946240	58	6194
2026-01-21 16:41:01.87	302.08	30.31	-42.7	-43.9	21.5	0.00e+00	0	41	0	778043392	58	6321
2026-01-21 16:41:02.88	301.74	30.26	-42.8	-44.0	21.4	0.00e+00	0	41	0	779091968	58	6392
2026-01-21 16:41:03.89	301.41	30.20	-43.0	-44.2	21.3	0.00e+00	0	41	0	781189120	58	6572
2026-01-21 16:41:04.89	301.08	30.15	-42.9	-44.1	21.3	0.00e+00	54	41	0	783286272	58	6496
2026-01-21 16:41:05.90	300.74	30.10	-42.9	-44.1	21.4	0.00e+00	92	41	0	785383424	58	6465
2026-01-21 16:41:06.91	300.41	30.04	-42.8	-44.0	21.4	0.00e+00	0	41	0	787480576	58	6441
2026-01-21 16:41:07.92	300.08	29.98	-42.7	-43.9	21.4	0.00e+00	92	41	0	788529152	58	6330
2026-01-21 16:41:08.93	299.75	29.93	-42.8	-44.0	21.4	0.00e+00	53	41	0	790626304	58	6426
2026-01-21 16:41:09.94	299.42	29.87	-42.9	-44.1	21.3	0.00e+00	55	41	0	792723456	58	6471
2026-01-21 16:41:10.95	299.10	29.81	-43.0	-44.2	21.1	0.00e+00	32	41	0	794820608	58	6554
2026-01-21 16:41:11.96	298.77	29.75	-43.0	-44.2	21.2	0.00e+00	49	41	0	796917760	58	6570
2026-01-21 16:41:12.97	298.45	29.69	-43.2	-44.4	21.0	0.00e+00	0	41	0	797966336	58	6723
2026-01-21 16:41:13.98	298.12	29.63	-43.0	-44.2	21.2	0.00e+00	2	41	0	800063488	58	6590
2026-01-21 16:41:14.99	297.80	29.56	-43.0	-44.2	21.2	0.00e+00	90	41	0	802160640	58	6574
2026-01-21 16:41:16.00	297.48	29.50	-43.0	-44.2	21.2	0.00e+00	2	41	0	804257792	58	6604
2026-01-21 16:41:17.01	297.16	29.43	-42.9	-44.1	21.3	0.00e+00	92	41	0	806354944	58	6475
2026-01-21 16:41:18.02	296.85	29.37	-43.0	-44.2	21.2	0.00e+00	0	41	0	807403520	58	6542
2026-01-21 16:41:19.03	296.53	29.30	-43.0	-44.2	21.1	0.00e+00	2	41	0	809500672	58	6541
2026-01-21 16:41:20.04	296.21	29.23	-43.1	-44.4	21.0	0.00e+00	0	41	0	811597824	58	6700
2026-01-21 16:41:21.05	295.90	29.17	-43.3	-44.5	20.7	0.00e+00	0	41	0	813694976	58	6846
2026-01-21 16:41:22.05	295.59	29.10	-43.3	-44.6	20.8	0.00e+00	90	41	0	815792128	58	6858
2026-01-21 16:41:23.06	295.28	29.03	-43.5	-44.8	20.7	0.00e+00	0	41	0	816840704	58	7009
2026-01-21 16:41:24.07	294.97	28.96	-43.6	-44.9	20.5	0.00e+00	92	41	0	818937856	58	7140
2026-01-21 16:41:25.08	294.66	28.89	-43.3	-44.5	20.9	0.00e+00	56	41	0	821035008	58	6836
2026-01-21 16:41:26.09	294.35	28.82	-43.1	-44.3	21.1	0.00e+00	0	41	0	823132160	58	6675
2026-01-21 16:41:27.10	294.05	28.74	-42.9	-44.1	21.3	0.00e+00	0	41	0	825229312	58	6512
2026-01-21 16:41:28.11	293.74	28.67	-42.8	-44.0	21.3	0.00e+00	55	41	0	827326464	58	6433
2026-01-21 16:41:29.12	293.44	28.60	-42.9	-44.1	21.3	0.00e+00	92	41	0	828375040	58	6516
2026-01-21 16:41:30.13	293.14	28.52	-42.9	-44.0	21.3	0.00e+00	0	41	0	830472192	58	6447
2026-01-21 16:41:31.14	292.84	28.45	-42.9	-44.0	21.3	0.00e+00	92	41	0	832569344	58	6449
2026-01-21 16:41:32.15	292.54	28.37	-42.7	-43.9	21.5	0.00e+00	26	41	0	834666496	58	6340
2026-01-21 16:41:33.16	292.24	28.29	-42.7	-43.8	21.5	0.00e+00	54	41	0	836763648	58	6264
2026-01-21 16:41:34.17	291.94	28.22	-42.6	-43.8	21.7	0.00e+00	56	41	0	837812224	58	6250
2026-01-21 16:41:35.18	291.65	28.14	-42.4	-43.5	21.9	0.00e+00	2	41	0	839909376	58	6076
2026-01-21 16:41:36.19	291.36	28.06	-42.6	-43.7	21.6	0.00e+00	92	41	0	842006528	58	6192
2026-01-21 16:41:37.20	291.07	27.98	-42.6	-43.7	21.6	0.00e+00	26	41	0	844103680	58	6208
2026-01-21 16:41:38.21	290.78	27.90	-42.6	-43.8	21.5	0.00e+00	92	41	0	846200832	58	6249
2026-01-21 16:41:39.21	290.49	27.82	-42.5	-43.6	21.8	0.00e+00	0	41	0	847249408	58	6135
2026-01-21 16:41:40.22	290.20	27.74	-42.5	-43.6	21.8	0.00e+00	92	41	0	849346560	58	6126
2026-01-21 16:41:41.23	289.92	27.66	-42.2	-43.2	22.1	0.00e+00	0	41	0	851443712	58	5882
2026-01-21 16:41:42.24	289.63	27.58	-42.1	-43.2	22.0	0.00e+00	0	41	0	853540864	58	5848
2026-01-21 16:41:43.25	289.35	27.49	-42.1	-43.1	22.2	0.00e+00	0	41	0	855638016	58	5798
2026-01-21 16:41:44.26	289.07	27.41	-42.2	-43.2	22.1	0.00e+00	0	41	0	856686592	58	5881
2026-01-21 16:41:45.27	288.79	27.33	-42.1	-43.2	22.1	0.00e+00	90	41	0	858783744	58	5856
2026-01-21 16:41:46.28	288.51	27.24	-42.1	-43.1	22.2	0.00e+00	0	41	0	860880896	58	5820
2026-01-21 16:41:47.29	288.23	27.16	-42.2	-43.3	22.0	0.00e+00	0	41	0	862978048	58	5916
2026-01-21 16:41:48.30	287.96	27.07	-42.3	-43.4	21.9	0.00e+00	0	41	0	865075200	58	6004
2026-01-21 16:41:49.31	287.68	26.99	-42.4	-43.6	21.7	0.00e+00	53	41	0	866123776	58	6104
2026-01-21 16:41:50.32	287.41	26.90	-42.5	-43.6	21.8	0.00e+00	49	41	0	868220928	58	6136
2026-01-21 16:41:51.33	287.14	26.81	-42.4	-43.5	21.9	0.00e+00	28	41	0	870318080	58	6039
2026-01-21 16:41:52.34	286.87	26.73	-42.2	-43.3	22.0	0.00e+00	92	41	0	872415232	58	5944
2026-01-21 16:41:53.35	286.60	26.64	-42.1	-43.1	22.1	0.00e+00	28	41	0	874512384	58	5810
2026-01-21 16:41:54.36	286.33	26.55	-41.8	-42.9	22.4	0.00e+00	92	41	0	875560960	58	5646
2026-01-21 16:41:55.37	286.07	26.46	-41.7	-42.7	22.5	0.00e+00	0	41	0	877658112	56	6222
2026-01-21 16:41:56.37	285.81	26.38	-41.4	-42.4	22.9	0.00e+00	6	41	0	879755264	56	5974
2026-01-21 16:41:57.38	285.55	26.29	-41.3	-42.2	22.9	0.00e+00	28	41	0	881852416	56	5885
2026-01-21 16:41:58.39	285.29	26.20	-41.4	-42.4	22.7	0.00e+00	5	41	0	883949568	56	5968
2026-01-21 16:41:59.40	285.03	26.11	-41.6	-42.6	22.6	0.00e+00	43	41	0	884998144	56	6119
2026-01-21 16:42:00.41	284.77	26.02	-41.6	-42.7	22.5	0.00e+00	6	41	0	887095296	56	6176
2026-01-21 16:42:01.42	284.51	25.93	-41.6	-42.6	22.6	0.00e+00	91	41	0	889192448	56	6148
2026-01-21 16:42:02.43	284.26	25.84	-41.7	-42.7	22.6	0.00e+00	0	41	0	891289600	56	6188
2026-01-21 16:42:03.44	284.00	25.75	-41.5	-42.5	22.8	0.00e+00	0	41	0	893386752	56	6086
2026-01-21 16:42:04.45	283.75	25.66	-41.4	-42.4	22.7	0.00e+00	6	41	0	895483904	56	5989
2026-01-21 16:42:05.46	283.50	25.56	-41.4	-42.4	23.0	0.00e+00	0	41	0	896532480	56	5996
2026-01-21 16:42:06.47	283.25	25.47	-41.3	-42.2	22.9	0.00e+00	0	41	0	898629632	56	5890
2026-01-21 16:42:07.49	283.00	25.38	-41.5	-42.5	22.7	0.00e+00	52	41	0	900726784	56	6081
2026-01-21 16:42:08.49	282.76	25.29	-40.9	-41.8	23.3	0.00e+00	92	41	0	902823936	56	5614
2026-01-21 16:42:09.51	282.51	25.19	-41.2	-42.2	23.0	0.00e+00	0	41	0	904921088	56	5843
2026-01-21 16:42:10.51	282.27	25.10	-40.9	-41.8	23.3	0.00e+00	68	41	0	905969664	56	5588
2026-01-21 16:42:11.52	282.03	25.01	-40.8	-41.7	23.4	0.00e+00	47	41	0	908066816	56	5545
2026-01-21 16:42:12.53	281.79	24.92	-40.6	-41.5	23.5	0.00e+00	40	41	0	910163968	54	6050
2026-01-21 16:42:13.54	281.55	24.82	-40.5	-41.4	23.4	0.00e+00	47	41	0	912261120	54	6032
2026-01-21 16:42:14.55	281.31	24.73	-40.4	-41.2	23.8	0.00e+00	45	41	0	914358272	54	5892
2026-01-21 16:42:15.56	281.08	24.63	-40.1	-40.9	24.0	0.00e+00	65	41	0	915406848	54	5669
2026-01-21 16:42:16.57	280.84	24.54	-39.9	-40.7	24.1	0.00e+00	46	41	0	917504000	54	5552
2026-01-21 16:42:17.57	280.61	24.45	-39.9	-40.7	24.2	0.00e+00	92	41	0	919601152	54	5543
2026-01-21 16:42:18.58	280.38	24.35	-39.8	-40.7	24.2	0.00e+00	34	41	0	921698304	54	5520
2026-01-21 16:42:19.59	280.15	24.26	-39.7	-40.5	24.4	0.00e+00	7	41	0	923795456	52	6101
2026-01-21 16:42:20.60	279.92	24.16	-39.7	-40.6	24.3	0.00e+00	34	41	0	924844032	52	6104
2026-01-21 16:42:21.61	279.69	24.07	-39.7	-40.5	24.4	0.00e+00	37	41	0	926941184	52	6097
2026-01-21 16:42:22.62	279.47	23.97	-39.6	-40.4	24.4	0.00e+00	45	41	0	929038336	52	6024
2026-01-21 16:42:23.63	279.24	23.88	-39.6	-40.5	24.5	0.00e+00	0	41	0	931135488	52	6038
2026-01-21 16:42:24.64	279.02	23.78	-39.6	-40.5	24.4	0.00e+00	92	41	0	933232640	52	6053
2026-01-21 16:42:25.65	278.79	23.69	-39.6	-40.4	24.2	0.00e+00	0	41	0	934281216	52	6027
2026-01-21 16:42:26.66	278.57	23.59	-39.6	-40.5	24.4	0.00e+00	65	41	0	936378368	52	6050
2026-01-21 16:42:27.67	278.35	23.50	-39.5	-40.3	24.6	0.00e+00	7	41	0	938475520	52	5955
2026-01-21 16:42:28.68	278.14	23.40	-39.2	-40.1	24.7	0.00e+00	54	41	0	940572672	52	5770
2026-01-21 16:42:29.69	277.92	23.30	-39.2	-40.0	24.8	0.00e+00	0	41	0	942669824	52	5715
2026-01-21 16:42:30.70	277.70	23.21	-39.0	-39.8	24.9	0.00e+00	53	41	0	943718400	52	5619
2026-01-21 16:42:31.71	277.49	23.11	-39.0	-39.8	24.9	0.00e+00	92	41	0	945815552	52	5569
2026-01-21 16:42:32.72	277.28	23.02	-38.9	-39.6	25.1	0.00e+00	0	41	0	947912704	52	5498
2026-01-21 16:42:33.72	277.07	22.92	-38.9	-39.7	25.0	0.00e+00	92	41	0	950009856	52	5555
2026-01-21 16:42:34.73	276.86	22.82	-38.9	-39.7	25.0	0.00e+00	53	41	0	952107008	52	5526
2026-01-21 16:42:35.74	276.65	22.73	-39.0	-39.8	24.9	0.00e+00	29	41	0	953155584	52	5610
2026-01-21 16:42:36.75	276.44	22.63	-39.1	-39.9	24.9	0.00e+00	29	41	0	955252736	52	5642
2026-01-21 16:42:37.76	276.24	22.53	-39.0	-39.8	25.0	0.00e+00	29	41	0	957349888	52	5616
2026-01-21 16:42:38.77	276.03	22.44	-38.9	-39.7	24.9	0.00e+00	53	41	0	959447040	52	5513
2026-01-21 16:42:39.78	275.83	22.34	-38.9	-39.7	25.0	0.00e+00	0	41	0	961544192	52	5528
2026-01-21 16:42:40.79	275.62	22.25	-38.8	-39.6	25.0	0.00e+00	92	41	0	963641344	52	5491
2026-01-21 16:42:41.80	275.42	22.15	-38.7	-39.5	25.2	0.00e+00	36	41	0	964689920	50	6064
2026-01-21 16:42:42.81	275.22	22.05	-38.7	-39.4	25.2	0.00e+00	43	41	0	966787072	50	6031
2026-01-21 16:42:43.82	275.02	21.96	-38.8	-39.6	25.1	0.00e+00	35	41	0	968884224	50	6107
2026-01-21 16:42:44.83	274.83	21.86	-38.9	-39.7	25.0	0.00e+00	0	41	0	970981376	50	6224
2026-01-21 16:42:45.84	274.63	21.76	-39.0	-39.8	24.9	0.00e+00	23	41	0	973078528	50	6278
2026-01-21 16:42:46.84	274.44	21.67	-39.0	-39.8	24.9	0.00e+00	0	41	0	974127104	50	6315
2026-01-21 16:42:47.85	274.24	21.57	-39.1	-40.0	24.7	0.00e+00	92	41	0	976224256	50	6398
2026-01-21 16:42:48.86	274.05	21.47	-39.2	-40.0	24.8	0.00e+00	0	41	0	978321408	50	6403
2026-01-21 16:42:49.86	273.86	21.38	-39.2	-40.0	24.7	0.00e+00	0	41	0	980418560	50	6416
2026-01-21 16:42:50.87	273.67	21.28	-39.3	-40.1	24.0	0.00e+00	5	41	0	982515712	50	6514
2026-01-21 16:42:51.88	273.48	21.19	-39.3	-40.1	24.6	0.00e+00	0	41	0	983564288	50	6507
2026-01-21 16:42:52.89	273.30	21.09	-39.2	-40.0	24.6	0.00e+00	0	41	0	985661440	50	6453
2026-01-21 16:42:53.90	273.11	20.99	-39.4	-40.2	24.5	0.00e+00	0	41	0	987758592	50	6587
2026-01-21 16:42:54.91	272.92	20.90	-39.3	-40.2	24.6	0.00e+00	90	41	0	989855744	50	6556
2026-01-21 16:42:55.91	272.74	20.80	-39.4	-40.2	24.6	0.00e+00	50	41	0	991952896	50	6580
2026-01-21 16:42:56.92	272.56	20.70	-39.5	-40.3	24.3	0.00e+00	92	41	0	993001472	50	6677
2026-01-21 16:42:57.93	272.38	20.61	-39.4	-40.3	24.5	0.00e+00	31	41	0	995098624	50	6633
2026-01-21 16:42:58.94	272.20	20.51	-39.5	-40.4	24.3	0.00e+00	4	41	0	997195776	50	6722
2026-01-21 16:42:59.95	272.02	20.42	-39.5	-40.4	24.4	0.00e+00	52	41	0	999292928	50	6719
2026-01-21 16:43:00.96	271.84	20.32	-39.6	-40.4	24.4	0.00e+00	44	41	0	1001390080	50	6768
2026-01-21 16:43:01.97	271.66	20.22	-39.7	-40.6	24.3	0.00e+00	52	41	0	1002438656	50	6857
2026-01-21 16:43:02.98	271.48	20.13	-39.5	-40.3	24.4	0.00e+00	32	41	0	1004535808	50	6664
2026-01-21 16:43:03.98	271.31	20.03	-39.6	-40.4	24.3	0.00e+00	92	41	0	1006632960	50	6726
2026-01-21 16:43:04.99	271.14	19.94	-39.7	-40.5	24.3	0.00e+00	0	41	0	1008730112	50	6844
2026-01-21 16:43:06.00	270.96	19.84	-39.7	-40.6	24.2	0.00e+00	30	41	0	1010827264	50	6858
2026-01-21 16:43:07.01	270.79	19.75	-40.0	-40.9	24.0	0.00e+00	0	41	0	1011875840	52	6350
2026-01-21 16:43:08.02	270.62	19.65	-40.1	-41.0	23.8	0.00e+00	29	41	0	1013972992	52	6415
2026-01-21 16:43:09.03	270.45	19.56	-40.1	-41.0	23.8	0.00e+00	0	41	0	1016070144	52	6440
2026-01-21 16:43:10.04	270.28	19.46	-40.2	-41.0	23.9	0.00e+00	0	41	0	1018167296	52	6464
2026-01-21 16:43:11.05	270.12	19.37	-40.2	-41.1	23.8	0.00e+00	92	41	0	1020264448	52	6520
2026-01-21 16:43:12.06	269.95	19.27	-40.3	-41.2	23.7	0.00e+00	0	41	0	1021313024	52	6553
2026-01-21 16:43:13.07	269.78	19.18	-40.6	-41.5	23.4	0.00e+00	92	41	0	1023410176	52	6805
2026-01-21 16:43:14.08	269.62	19.08	-40.3	-41.2	23.7	0.00e+00	0	41	0	1025507328	52	6603
2026-01-21 16:43:15.09	269.46	18.99	-40.3	-41.2	23.7	0.00e+00	0	41	0	1027604480	52	6547
2026-01-21 16:43:16.10	269.29	18.89	-40.4	-41.3	23.7	0.00e+00	0	41	0	1029701632	52	6646
2026-01-21 16:43:17.11	269.13	18.80	-40.2	-41.1	23.7	0.00e+00	0	41	0	1030750208	52	6521
2026-01-21 16:43:18.12	268.97	18.70	-40.3	-41.2	23.7	0.00e+00	90	41	0	1032847360	52	6601
2026-01-21 16:43:19.12	268.81	18.61	-40.4	-41.3	23.7	0.00e+00	52	41	0	1034944512	52	6650
2026-01-21 16:43:20.13	268.66	18.52	-40.6	-41.5	23.4	0.00e+00	90	41	0	1037041664	52	6793
2026-01-21 16:43:21.14	268.50	18.42	-40.4	-41.3	23.7	0.00e+00	31	41	0	1039138816	52	6664
2026-01-21 16:43:22.15	268.34	18.33	-40.6	-41.5	23.4	0.00e+00	0	41	0	1040187392	54	6100
2026-01-21 16:43:23.16	268.19	18.24	-40.8	-41.7	23.4	0.00e+00	0	41	0	1042284544	54	6227
2026-01-21 16:43:24.17	268.03	18.14	-40.7	-41.6	23.2	0.00e+00	51	41	0	1044381696	54	6132
2026-01-21 16:43:25.18	267.88	18.05	-40.8	-41.7	23.2	0.00e+00	26	41	0	1046478848	54	6244
2026-01-21 16:43:26.19	267.73	17.96	-40.5	-41.5	23.4	0.00e+00	28	41	0	1048576000	54	6039
2026-01-21 16:43:27.20	267.57	17.86	-40.7	-41.6	23.4	0.00e+00	92	41	0	1049624576	54	6150
2026-01-21 16:43:28.21	267.42	17.77	-40.6	-41.5	23.4	0.00e+00	29	41	0	1051721728	54	6064
2026-01-21 16:43:29.22	267.27	17.68	-40.7	-41.6	23.4	0.00e+00	91	41	0	1053818880	54	6140
2026-01-21 16:43:30.23	267.13	17.58	-40.8	-41.7	23.3	0.00e+00	0	41	0	1055916032	54	6216
2026-01-21 16:43:31.24	266.98	17.49	-40.8	-41.7	23.2	0.00e+00	0	41	0	1058013184	54	6235
2026-01-21 16:43:32.24	266.83	17.40	-40.8	-41.8	23.2	0.00e+00	0	41	0	1060110336	54	6246
2026-01-21 16:43:33.25	266.69	17.31	-41.0	-41.9	23.0	0.00e+00	0	41	0	1061158912	54	6363
2026-01-21 16:43:34.26	266.54	17.22	-40.9	-41.9	23.1	0.00e+00	91	41	0	1063256064	54	6354
2026-01-21 16:43:35.27	266.40	17.12	-40.9	-41.9	23.0	0.00e+00	0	41	0	1065353216	54	6352
2026-01-21 16:43:36.28	266.25	17.03	-40.9	-41.8	23.1	0.00e+00	92	41	0	1067450368	54	6282
2026-01-21 16:43:37.29	266.11	16.94	-40.8	-41.7	23.2	0.00e+00	0	42	0	1069547520	54	6202
2026-01-21 16:43:38.30	265.97	16.85	-40.9	-41.8	23.0	0.00e+00	2	41	0	1070596096	54	6316
2026-01-21 16:43:39.31	265.83	16.76	-40.9	-41.9	23.0	0.00e+00	0	41	0	1072693248	54	6333
2026-01-21 16:43:40.32	265.69	16.67	-41.0	-41.9	23.0	0.00e+00	45	42	0	1074790400	54	6370
2026-01-21 16:43:41.33	265.55	16.58	-41.0	-42.0	22.9	0.00e+00	90	41	0	1076887552	54	6410
2026-01-21 16:43:42.34	265.41	16.49	-41.3	-42.3	22.7	0.00e+00	39	41	0	1078984704	54	6657
2026-01-21 16:43:43.35	265.27	16.40	-41.4	-42.3	22.7	0.00e+00	90	41	0	1080033280	54	6688
2026-01-21 16:43:44.36	265.14	16.30	-41.5	-42.5	22.5	0.00e+00	46	41	0	1082130432	54	6815
2026-01-21 16:43:45.37	265.00	16.21	-41.5	-42.6	22.4	0.00e+00	43	41	0	1084227584	54	6867
2026-01-21 16:43:46.38	264.87	16.12	-41.6	-42.6	22.4	0.00e+00	5	41	0	1086324736	56	6152
2026-01-21 16:43:47.38	264.74	16.04	-41.9	-42.9	22.1	0.00e+00	5	41	0	1088421888	56	6363
2026-01-21 16:43:48.39	264.60	15.95	-41.8	-42.8	22.4	0.00e+00	91	42	0	1089470464	56	6315
2026-01-21 16:43:49.40	264.47	15.86	-41.6	-42.7	22.4	0.00e+00	6	42	0	1091567616	56	6180
2026-01-21 16:43:50.41	264.34	15.77	-41.8	-42.9	22.4	0.00e+00	90	42	0	1093664768	56	6355
2026-01-21 16:43:51.42	264.21	15.68	-41.7	-42.8	22.3	0.00e+00	6	41	0	1095761920	56	6259
2026-01-21 16:43:52.43	264.08	15.59	-41.5	-42.6	22.5	0.00e+00	37	41	0	1097859072	56	6104
2026-01-21 16:43:53.44	263.95	15.50	-41.7	-42.8	22.3	0.00e+00	6	41	0	1098907648	56	6266
2026-01-21 16:43:54.45	263.82	15.41	-41.5	-42.6	22.4	0.00e+00	6	41	0	1101004800	56	6120
2026-01-21 16:43:55.46	263.69	15.32	-41.7	-42.7	22.3	0.00e+00	0	41	0	1103101952	56	6223
2026-01-21 16:43:56.47	263.57	15.23	-41.8	-42.8	22.3	0.00e+00	6	41	0	1105199104	56	6285
2026-01-21 16:43:57.48	263.44	15.15	-41.8	-42.8	22.3	0.00e+00	92	41	0	1107296256	56	6280
2026-01-21 16:43:58.49	263.31	15.06	-41.9	-43.0	22.1	0.00e+00	48	41	0	1108344832	56	6416
2026-01-21 16:43:59.50	263.19	14.97	-41.8	-42.9	22.2	0.00e+00	95	41	0	1110441984	56	6339
2026-01-21 16:44:00.51	263.07	14.88	-42.0	-43.1	22.0	0.00e+00	47	41	0	1112539136	56	6468
2026-01-21 16:44:01.52	262.94	14.79	-42.1	-43.2	21.8	0.00e+00	0	41	0	1114636288	56	6591
2026-01-21 16:44:02.52	262.82	14.71	-42.0	-43.1	22.0	0.00e+00	45	41	0	1116733440	56	6490
2026-01-21 16:44:03.53	262.70	14.62	-42.1	-43.2	21.9	0.00e+00	39	41	0	1117782016	56	6556
2026-01-21 16:44:04.54	262.58	14.53	-42.1	-43.1	21.9	0.00e+00	92	41	0	1119879168	56	6539
2026-01-21 16:44:05.55	262.46	14.45	-42.0	-43.1	21.9	0.00e+00	49	41	0	1121976320	56	6516
2026-01-21 16:44:06.56	262.34	14.36	-42.0	-43.1	22.0	0.00e+00	90	41	0	1124073472	56	6518
2026-01-21 16:44:07.57	262.22	14.27	-41.9	-43.0	22.1	0.00e+00	49	42	0	1126170624	56	6436
2026-01-21 16:44:08.58	262.10	14.19	-42.0	-43.0	22.0	0.00e+00	53	41	0	1128267776	56	6453
2026-01-21 16:44:09.59	261.98	14.10	-42.0	-43.1	22.0	0.00e+00	0	41	0	1129316352	56	6472
2026-01-21 16:44:10.60	261.87	14.02	-42.0	-43.1	22.0	0.00e+00	7	41	0	1131413504	56	6471
2026-01-21 16:44:11.61	261.75	13.93	-42.0	-43.1	22.0	0.00e+00	82	41	0	1133510656	56	6475
2026-01-21 16:44:12.62	261.64	13.85	-42.2	-43.3	21.8	0.00e+00	44	41	0	1135607808	56	6652
2026-01-21 16:44:13.63	261.52	13.76	-42.2	-43.3	21.7	0.00e+00	92	42	0	1137704960	56	6654
2026-01-21 16:44:14.64	261.41	13.67	-42.2	-43.3	21.8	0.00e+00	7	42	0	1138753536	56	6627
2026-01-21 16:44:15.65	261.29	13.59	-42.4	-43.5	21.6	0.00e+00	61	41	0	1140850688	56	6809
2026-01-21 16:44:16.66	261.18	13.51	-42.5	-43.6	21.6	0.00e+00	7	41	0	1142947840	56	6894
2026-01-21 16:44:17.67	261.07	13.42	-42.3	-43.4	21.7	0.00e+00	0	41	0	1145044992	56	6704
2026-01-21 16:44:18.68	260.96	13.34	-42.2	-43.3	21.7	0.00e+00	0	41	0	1147142144	56	6625
2026-01-21 16:44:19.68	260.85	13.25	-42.2	-43.3	21.8	0.00e+00	0	41	0	1148190720	56	6638
2026-01-21 16:44:20.69	260.74	13.17	-42.1	-43.2	21.8	0.00e+00	92	42	0	1150287872	56	6579
2026-01-21 16:44:21.70	260.63	13.09	-42.1	-43.2	21.8	0.00e+00	0	41	0	1152385024	56	6605
2026-01-21 16:44:22.71	260.52	13.00	-42.1	-43.2	21.8	0.00e+00	92	41	0	1154482176	56	6566
2026-01-21 16:44:23.72	260.41	12.92	-42.1	-43.2	21.9	0.00e+00	0	41	0	1156579328	56	6565
2026-01-21 16:44:24.73	260.31	12.83	-42.0	-43.0	22.0	0.00e+00	32	41	0	1157627904	56	6463
2026-01-21 16:44:25.74	260.20	12.75	-42.1	-43.1	21.7	0.00e+00	33	41	0	1159725056	56	6533
2026-01-21 16:44:26.75	260.09	12.67	-42.2	-43.3	21.8	0.00e+00	39	41	0	1161822208	56	6630
2026-01-21 16:44:27.76	259.99	12.59	-42.2	-43.3	21.7	0.00e+00	92	41	0	1163919360	56	6665
2026-01-21 16:44:28.77	259.88	12.50	-42.2	-43.3	21.7	0.00e+00	48	41	0	1166016512	56	6692
2026-01-21 16:44:29.78	259.78	12.42	-42.3	-43.4	21.6	0.00e+00	91	41	0	1167065088	56	6762
2026-01-21 16:44:30.79	259.67	12.34	-42.3	-43.4	21.5	0.00e+00	0	41	0	1169162240	56	6769
2026-01-21 16:44:31.80	259.57	12.26	-42.4	-43.5	21.4	0.00e+00	76	41	0	1171259392	56	6844
2026-01-21 16:44:32.81	259.47	12.17	-42.5	-43.7	21.3	0.00e+00	32	41	0	1173356544	56	6968
2026-01-21 16:44:33.82	259.37	12.09	-42.6	-43.8	21.3	0.00e+00	34	41	0	1175453696	56	7047
2026-01-21 16:44:34.83	259.26	12.01	-42.6	-43.8	21.2	0.00e+00	77	41	0	1176502272	56	7075
2026-01-21 16:44:35.83	259.16	11.93	-42.6	-43.8	21.2	0.00e+00	0	42	0	1178599424	56	7074
2026-01-21 16:44:36.84	259.06	11.85	-42.7	-43.9	21.2	0.00e+00	92	41	0	1180696576	56	7097
2026-01-21 16:44:37.85	258.96	11.77	-42.5	-43.7	21.4	0.00e+00	0	42	0	1182793728	56	6976
