passes_logs/2026/01/21/R4.6S_Anadyr/R4.6S_Anadyr__20260121_004617_SUOMI_NPP_rec.log

#Pass ID: 20260121_004617_SUOMI NPP
#Satellite: SUOMI NPP
#Configuration: NPP
#almurnet v.1.7.20251203
#Start time: 2026-01-21 00:46:20

#Version: 2.2.20231116
#Station: R4.6S_Anadyr
#Location: 177.4865 lon 64.73178 lat
#TLE: 1 37849U 11061A   26020.31993517  .00000142  00000+0  88240-4 0  9990
#TLE: 2 37849  98.7818 322.3228 0002330  54.3778 305.7615 14.19527005737466

#Time	Az	El	Level	Level2	SNR	BER	BlckErr	Temp	State	Recorded	gain1	gain2
2026-01-21 00:46:20.34	168.27	0.19	-52.2	-65.9	3.3	1.54e+00	0	40	0	0	60	71457
2026-01-21 00:46:21.34	168.29	0.25	-51.3	-66.6	3.6	1.51e+00	0	40	104	0	60	76847
2026-01-21 00:46:22.35	168.31	0.31	-51.4	-66.6	3.5	1.51e+00	0	40	104	0	60	76990
2026-01-21 00:46:23.36	168.33	0.37	-51.3	-66.4	3.6	1.51e+00	0	40	104	0	60	75844
2026-01-21 00:46:24.37	168.35	0.43	-51.3	-66.6	3.6	1.51e+00	0	40	104	0	60	76874
2026-01-21 00:46:25.38	168.36	0.49	-51.2	-66.4	3.6	1.51e+00	0	40	104	0	60	75293
2026-01-21 00:46:26.40	168.38	0.55	-51.1	-66.3	3.6	1.51e+00	0	40	104	0	60	74946
2026-01-21 00:46:27.41	168.40	0.62	-51.1	-66.4	3.6	1.51e+00	0	40	104	0	60	75382
2026-01-21 00:46:28.42	168.42	0.68	-51.0	-66.2	3.6	1.51e+00	0	40	104	0	60	73909
2026-01-21 00:46:29.42	168.44	0.74	-51.0	-66.2	3.6	1.51e+00	0	40	104	0	60	73896
2026-01-21 00:46:30.43	168.46	0.80	-51.0	-66.2	3.6	1.51e+00	0	40	104	0	60	73616
2026-01-21 00:46:31.44	168.48	0.86	-50.7	-66.0	3.6	1.51e+00	0	40	104	0	60	72403
2026-01-21 00:46:32.45	168.49	0.92	-50.7	-66.0	3.6	1.51e+00	0	40	104	0	60	71843
2026-01-21 00:46:33.46	168.51	0.99	-50.7	-65.9	3.6	1.51e+00	0	40	104	0	60	71439
2026-01-21 00:46:34.47	168.53	1.05	-50.7	-65.9	3.6	1.51e+00	0	40	104	0	60	71436
2026-01-21 00:46:35.48	168.55	1.11	-50.6	-65.8	3.6	1.51e+00	0	40	104	0	60	70834
2026-01-21 00:46:36.49	168.57	1.17	-49.7	-64.9	3.6	1.51e+00	0	40	104	0	60	63361
2026-01-21 00:46:37.50	168.59	1.24	-50.5	-65.7	3.6	1.51e+00	0	41	104	0	60	69865
2026-01-21 00:46:38.51	168.61	1.30	-50.3	-65.5	3.6	1.51e+00	0	40	104	0	60	67721
2026-01-21 00:46:39.52	168.63	1.36	-50.2	-65.5	3.6	1.51e+00	0	41	104	0	60	67729
2026-01-21 00:46:40.53	168.65	1.42	-50.0	-65.2	3.6	1.51e+00	0	41	104	0	60	65590
2026-01-21 00:46:41.54	168.67	1.49	-49.8	-64.9	3.6	1.51e+00	0	40	104	0	60	63488
2026-01-21 00:46:42.55	168.68	1.55	-49.8	-64.8	3.6	1.51e+00	0	41	104	0	60	62776
2026-01-21 00:46:43.56	168.70	1.61	-49.8	-64.7	3.6	1.51e+00	0	41	104	0	60	62312
2026-01-21 00:46:44.57	168.72	1.68	-49.8	-64.7	3.6	1.51e+00	0	41	104	0	60	61829
2026-01-21 00:46:45.58	168.74	1.74	-49.8	-64.4	3.6	1.51e+00	0	41	104	0	60	60329
2026-01-21 00:46:46.58	168.76	1.80	-49.8	-64.6	3.6	1.51e+00	0	41	104	0	60	61533
2026-01-21 00:46:47.59	168.78	1.87	-49.8	-64.7	3.6	1.51e+00	0	41	104	0	60	62081
2026-01-21 00:46:48.60	168.80	1.93	-49.8	-64.8	3.5	1.51e+00	0	41	104	0	60	62851
2026-01-21 00:46:49.61	168.82	2.00	-49.8	-64.9	3.6	1.51e+00	0	41	104	0	60	63458
2026-01-21 00:46:50.62	168.84	2.06	-49.7	-64.9	3.6	1.51e+00	0	41	104	0	60	63457
2026-01-21 00:46:51.63	168.86	2.13	-49.8	-65.0	3.6	1.51e+00	0	41	104	0	60	63943
2026-01-21 00:46:52.64	168.88	2.19	-49.8	-64.9	3.6	1.51e+00	0	41	104	0	60	63276
2026-01-21 00:46:53.65	168.90	2.25	-49.7	-64.6	3.6	1.51e+00	0	41	104	0	60	61395
2026-01-21 00:46:54.66	168.92	2.32	-49.8	-64.7	3.6	1.51e+00	0	41	104	0	60	61933
2026-01-21 00:46:55.67	168.94	2.38	-49.7	-64.5	3.6	1.51e+00	0	41	104	0	60	60344
2026-01-21 00:46:56.68	168.96	2.45	-49.7	-64.2	3.6	1.51e+00	0	41	104	0	60	58761
2026-01-21 00:46:57.69	168.98	2.52	-49.8	-64.2	3.6	1.51e+00	0	41	104	0	60	58410
2026-01-21 00:46:58.70	169.00	2.58	-49.7	-63.5	3.6	1.51e+00	0	41	104	0	60	54220
2026-01-21 00:46:59.71	169.02	2.65	-49.7	-63.7	3.6	1.51e+00	0	41	104	0	60	55588
2026-01-21 00:47:00.72	169.04	2.71	-49.7	-64.1	3.6	1.51e+00	0	41	104	0	60	58069
2026-01-21 00:47:01.73	169.07	2.78	-49.8	-64.9	3.6	1.51e+00	0	41	104	0	60	63563
2026-01-21 00:47:02.74	169.09	2.84	-49.8	-64.8	3.6	1.51e+00	0	41	104	0	60	63176
2026-01-21 00:47:03.75	169.11	2.91	-49.7	-63.2	3.6	1.51e+00	0	41	104	0	60	52191
2026-01-21 00:47:04.75	169.13	2.98	-49.5	-60.7	4.2	1.31e+00	92	41	104	0	60	38976
2026-01-21 00:47:05.76	169.15	3.04	-49.1	-56.4	6.4	5.96e-01	0	41	0	1048576	60	23788
2026-01-21 00:47:06.78	169.17	3.11	-48.8	-55.1	8.2	1.02e-01	91	41	0	3145728	60	20538
2026-01-21 00:47:07.79	169.19	3.18	-47.3	-51.0	12.6	4.81e-04	0	41	0	5242880	60	12853
2026-01-21 00:47:08.79	169.21	3.24	-47.8	-52.2	11.7	6.93e-03	91	41	0	7340032	60	14672
2026-01-21 00:47:09.80	169.23	3.31	-47.1	-50.6	13.4	3.66e-05	92	41	0	8388608	60	12274
2026-01-21 00:47:10.81	169.26	3.38	-46.5	-49.6	14.4	7.00e-07	62	41	0	10485760	60	10871
2026-01-21 00:47:11.82	169.28	3.45	-46.0	-48.7	15.2	0.00e+00	92	41	0	12582912	60	9870
2026-01-21 00:47:12.83	169.30	3.51	-45.7	-48.3	15.6	0.00e+00	0	41	0	14680064	60	9370
2026-01-21 00:47:13.84	169.32	3.58	-46.4	-49.4	14.5	0.00e+00	63	41	0	16777216	60	10681
2026-01-21 00:47:14.85	169.34	3.65	-46.3	-49.2	14.5	0.00e+00	0	41	0	17825792	60	10429
2026-01-21 00:47:15.86	169.36	3.72	-47.8	-52.1	11.6	7.24e-05	92	41	0	19922944	60	14616
2026-01-21 00:47:16.87	169.39	3.79	-49.0	-55.5	7.2	2.30e-03	56	41	0	22020096	60	21598
2026-01-21 00:47:17.88	169.41	3.86	-49.8	-61.9	3.6	3.61e-01	0	41	104	24117248	60	45180
2026-01-21 00:47:18.89	169.43	3.92	-45.6	-48.0	6.0	1.31e+00	0	41	104	24117248	60	9057
2026-01-21 00:47:19.90	169.45	3.99	-49.9	-61.5	3.6	3.80e-06	0	41	104	24117248	60	42837
2026-01-21 00:47:20.91	169.48	4.06	-44.8	-46.8	6.0	1.46e+00	0	41	104	24117248	60	7949
2026-01-21 00:47:21.91	169.50	4.13	-44.8	-46.7	17.3	0.00e+00	0	41	0	24117248	60	7844
2026-01-21 00:47:22.92	169.52	4.20	-44.4	-46.2	18.0	0.00e+00	91	41	0	26214400	60	7413
2026-01-21 00:47:23.93	169.54	4.27	-44.2	-46.0	18.1	0.00e+00	0	41	0	27262976	60	7175
2026-01-21 00:47:24.94	169.57	4.34	-43.7	-45.2	18.9	0.00e+00	92	41	0	29360128	60	6614
2026-01-21 00:47:25.95	169.59	4.41	-44.0	-45.7	18.5	0.00e+00	92	41	0	31457280	60	6993
2026-01-21 00:47:26.96	169.61	4.48	-43.5	-45.1	19.1	0.00e+00	0	41	0	33554432	60	6489
2026-01-21 00:47:27.97	169.63	4.55	-43.6	-45.1	19.0	0.00e+00	92	41	0	35651584	60	6520
2026-01-21 00:47:28.98	169.66	4.62	-43.7	-45.3	18.9	0.00e+00	0	41	0	36700160	60	6622
2026-01-21 00:47:29.99	169.68	4.69	-43.2	-44.6	19.5	0.00e+00	92	41	0	38797312	60	6161
2026-01-21 00:47:31.00	169.70	4.76	-43.3	-44.8	19.2	0.00e+00	0	41	0	40894464	60	6287
2026-01-21 00:47:32.01	169.73	4.83	-43.5	-45.0	19.1	0.00e+00	90	41	0	42991616	60	6456
2026-01-21 00:47:33.02	169.75	4.90	-43.7	-45.3	19.0	0.00e+00	85	41	0	45088768	60	6623
2026-01-21 00:47:34.02	169.77	4.98	-43.7	-45.3	19.1	0.00e+00	0	41	0	46137344	60	6656
2026-01-21 00:47:35.03	169.80	5.05	-43.6	-45.2	19.0	0.00e+00	54	41	0	48234496	60	6546
2026-01-21 00:47:36.04	169.82	5.12	-43.6	-45.1	19.0	0.00e+00	0	41	0	50331648	60	6531
2026-01-21 00:47:37.05	169.84	5.19	-43.5	-45.1	19.2	0.00e+00	92	41	0	52428800	60	6505
2026-01-21 00:47:38.06	169.87	5.26	-43.4	-44.9	19.2	0.00e+00	0	41	0	54525952	60	6349
2026-01-21 00:47:39.07	169.89	5.34	-43.3	-44.7	19.5	0.00e+00	90	41	0	55574528	60	6219
2026-01-21 00:47:40.08	169.92	5.41	-43.2	-44.7	19.6	0.00e+00	87	41	0	57671680	60	6220
2026-01-21 00:47:41.09	169.94	5.48	-43.5	-45.0	19.2	0.00e+00	30	41	0	59768832	60	6403
2026-01-21 00:47:42.09	169.97	5.55	-43.3	-44.8	19.5	0.00e+00	90	41	0	61865984	60	6254
2026-01-21 00:47:43.11	169.99	5.63	-43.3	-44.7	19.5	0.00e+00	0	41	0	63963136	60	6234
2026-01-21 00:47:44.11	170.01	5.70	-42.8	-44.2	19.7	0.00e+00	92	41	0	66060288	58	6590
2026-01-21 00:47:45.12	170.04	5.77	-43.1	-44.5	19.5	0.00e+00	0	41	0	67108864	58	6818
2026-01-21 00:47:46.13	170.06	5.85	-42.7	-44.0	20.0	0.00e+00	90	41	0	69206016	58	6457
2026-01-21 00:47:47.14	170.09	5.92	-43.1	-44.5	19.5	0.00e+00	22	41	0	71303168	58	6830
2026-01-21 00:47:48.15	170.11	6.00	-42.7	-44.0	20.0	0.00e+00	46	41	0	73400320	58	6461
2026-01-21 00:47:49.16	170.14	6.07	-43.0	-44.4	19.7	0.00e+00	91	41	0	75497472	58	6754
2026-01-21 00:47:50.17	170.16	6.14	-42.5	-43.9	20.1	0.00e+00	23	41	0	76546048	58	6332
2026-01-21 00:47:51.18	170.19	6.22	-42.2	-43.5	20.4	0.00e+00	92	41	0	78643200	58	6058
2026-01-21 00:47:52.19	170.22	6.29	-43.0	-44.5	19.8	0.00e+00	0	41	0	80740352	58	6781
2026-01-21 00:47:53.20	170.24	6.37	-42.8	-44.1	20.0	0.00e+00	92	41	0	82837504	58	6535
2026-01-21 00:47:54.21	170.27	6.44	-43.2	-44.6	19.6	0.00e+00	0	41	0	84934656	58	6924
2026-01-21 00:47:55.22	170.29	6.52	-42.7	-44.1	20.1	0.00e+00	92	41	0	85983232	58	6472
2026-01-21 00:47:56.23	170.32	6.60	-42.6	-43.9	20.3	0.00e+00	92	41	0	88080384	58	6330
2026-01-21 00:47:57.24	170.34	6.67	-42.7	-44.0	20.1	0.00e+00	0	41	0	90177536	58	6444
2026-01-21 00:47:58.25	170.37	6.75	-42.7	-44.1	20.1	0.00e+00	48	41	0	92274688	58	6505
2026-01-21 00:47:59.26	170.40	6.83	-42.9	-44.3	19.9	0.00e+00	0	41	0	94371840	58	6665
2026-01-21 00:48:00.26	170.42	6.90	-42.9	-44.3	19.9	0.00e+00	92	41	0	95420416	58	6628
2026-01-21 00:48:01.27	170.45	6.98	-42.7	-44.1	20.2	0.00e+00	0	41	0	97517568	58	6492
2026-01-21 00:48:02.28	170.48	7.06	-43.0	-44.5	19.7	0.00e+00	91	41	0	99614720	58	6776
2026-01-21 00:48:03.29	170.50	7.13	-43.2	-44.7	19.6	0.00e+00	92	41	0	101711872	58	6935
2026-01-21 00:48:04.30	170.53	7.21	-43.0	-44.4	20.0	0.00e+00	0	41	0	103809024	58	6740
2026-01-21 00:48:05.31	170.56	7.29	-42.9	-44.4	19.9	0.00e+00	72	41	0	104857600	58	6701
2026-01-21 00:48:06.32	170.58	7.37	-42.4	-43.7	20.4	0.00e+00	0	41	0	106954752	58	6235
2026-01-21 00:48:07.33	170.61	7.45	-42.5	-43.8	20.3	0.00e+00	87	41	0	109051904	58	6272
2026-01-21 00:48:08.34	170.64	7.52	-42.8	-44.1	20.2	0.00e+00	0	41	0	111149056	58	6514
2026-01-21 00:48:09.35	170.67	7.60	-42.6	-43.9	20.4	0.00e+00	92	41	0	113246208	58	6375
2026-01-21 00:48:10.36	170.69	7.68	-42.1	-43.3	20.7	0.00e+00	59	41	0	114294784	58	5960
2026-01-21 00:48:11.37	170.72	7.76	-41.9	-43.1	20.9	0.00e+00	0	41	0	116391936	56	6467
2026-01-21 00:48:12.37	170.75	7.84	-42.0	-43.2	20.8	0.00e+00	77	41	0	118489088	56	6582
2026-01-21 00:48:13.39	170.78	7.92	-42.0	-43.2	21.0	0.00e+00	0	41	0	120586240	56	6568
2026-01-21 00:48:14.39	170.81	8.00	-42.0	-43.2	20.8	0.00e+00	92	41	0	122683392	56	6578
2026-01-21 00:48:15.40	170.84	8.08	-42.3	-43.5	20.7	0.00e+00	0	41	0	123731968	56	6843
2026-01-21 00:48:16.41	170.86	8.16	-42.0	-43.2	20.9	0.00e+00	92	41	0	125829120	56	6547
2026-01-21 00:48:17.42	170.89	8.24	-41.9	-43.0	21.1	0.00e+00	35	41	0	127926272	56	6461
2026-01-21 00:48:18.43	170.92	8.32	-42.0	-43.2	21.0	0.00e+00	0	41	0	130023424	56	6565
2026-01-21 00:48:19.45	170.95	8.41	-41.6	-42.8	21.3	0.00e+00	92	41	0	132120576	56	6265
2026-01-21 00:48:20.45	170.98	8.49	-41.6	-42.7	21.3	0.00e+00	0	41	0	134217728	56	6243
2026-01-21 00:48:21.46	171.01	8.57	-41.7	-42.8	21.2	0.00e+00	70	41	0	135266304	56	6312
2026-01-21 00:48:22.47	171.04	8.65	-41.7	-42.9	21.3	0.00e+00	0	41	0	137363456	56	6330
2026-01-21 00:48:23.48	171.07	8.73	-41.6	-42.7	21.3	0.00e+00	91	41	0	139460608	56	6234
2026-01-21 00:48:24.49	171.10	8.82	-41.8	-43.0	21.0	0.00e+00	91	41	0	141557760	56	6422
2026-01-21 00:48:25.50	171.13	8.90	-41.7	-42.9	21.3	0.00e+00	0	41	0	143654912	56	6328
2026-01-21 00:48:26.51	171.16	8.98	-41.8	-43.0	21.2	0.00e+00	90	41	0	144703488	56	6424
2026-01-21 00:48:27.52	171.19	9.07	-41.8	-43.0	21.0	0.00e+00	0	41	0	146800640	56	6445
2026-01-21 00:48:28.53	171.22	9.15	-42.0	-43.2	20.9	0.00e+00	92	41	0	148897792	56	6582
2026-01-21 00:48:29.54	171.25	9.23	-42.0	-43.2	20.9	0.00e+00	0	41	0	150994944	56	6582
2026-01-21 00:48:30.55	171.28	9.32	-41.6	-42.8	21.3	0.00e+00	90	41	0	152043520	56	6284
2026-01-21 00:48:31.56	171.31	9.40	-41.1	-42.2	21.8	0.00e+00	50	41	0	154140672	56	5884
2026-01-21 00:48:32.57	171.34	9.49	-41.5	-42.6	21.5	0.00e+00	15	41	0	156237824	56	6133
2026-01-21 00:48:33.58	171.37	9.57	-41.2	-42.3	21.6	0.00e+00	92	41	0	158334976	56	5954
2026-01-21 00:48:34.59	171.40	9.66	-41.1	-42.1	21.8	0.00e+00	0	41	0	160432128	56	5822
2026-01-21 00:48:35.60	171.43	9.75	-41.1	-42.1	21.9	0.00e+00	39	41	0	162529280	56	5810
2026-01-21 00:48:36.61	171.47	9.83	-41.0	-42.0	22.0	0.00e+00	0	41	0	163577856	56	5731
2026-01-21 00:48:37.62	171.50	9.92	-40.6	-41.6	22.2	0.00e+00	92	41	0	165675008	54	6125
2026-01-21 00:48:38.63	171.53	10.00	-41.0	-42.1	21.8	0.00e+00	0	41	0	167772160	54	6503
2026-01-21 00:48:39.64	171.56	10.09	-41.0	-42.1	21.8	0.00e+00	92	41	0	169869312	54	6498
2026-01-21 00:48:40.64	171.59	10.18	-40.7	-41.7	22.1	0.00e+00	90	41	0	171966464	54	6225
2026-01-21 00:48:41.65	171.63	10.27	-40.6	-41.6	22.2	0.00e+00	26	41	0	173015040	54	6170
2026-01-21 00:48:42.66	171.66	10.35	-40.6	-41.6	22.3	0.00e+00	19	41	0	175112192	54	6113
2026-01-21 00:48:43.67	171.69	10.44	-40.5	-41.5	22.4	0.00e+00	0	41	0	177209344	54	6051
2026-01-21 00:48:44.68	171.72	10.53	-40.8	-41.8	22.2	0.00e+00	74	41	0	179306496	54	6271
2026-01-21 00:48:45.69	171.76	10.62	-40.7	-41.7	22.2	0.00e+00	0	41	0	181403648	54	6213
2026-01-21 00:48:46.70	171.79	10.71	-40.6	-41.6	22.3	0.00e+00	92	41	0	182452224	54	6149
2026-01-21 00:48:47.71	171.82	10.80	-40.6	-41.6	22.3	0.00e+00	92	41	0	184549376	54	6142
2026-01-21 00:48:48.72	171.86	10.89	-40.9	-42.0	21.8	0.00e+00	0	41	0	186646528	54	6421
2026-01-21 00:48:49.73	171.89	10.98	-40.7	-41.8	22.2	0.00e+00	27	41	0	188743680	54	6247
2026-01-21 00:48:50.74	171.93	11.07	-40.7	-41.7	22.0	0.00e+00	0	41	0	190840832	54	6223
2026-01-21 00:48:51.74	171.96	11.16	-41.2	-42.3	21.9	0.00e+00	86	41	0	191889408	54	6668
2026-01-21 00:48:52.75	171.99	11.25	-41.1	-42.2	21.4	0.00e+00	0	41	0	193986560	54	6552
2026-01-21 00:48:53.76	172.03	11.34	-40.4	-41.4	22.5	0.00e+00	92	41	0	196083712	54	6020
2026-01-21 00:48:54.77	172.06	11.43	-40.2	-41.2	22.6	0.00e+00	27	41	0	198180864	54	5877
2026-01-21 00:48:55.78	172.10	11.52	-40.1	-41.1	22.4	0.00e+00	0	41	0	200278016	54	5790
2026-01-21 00:48:56.79	172.13	11.62	-40.1	-41.0	22.5	0.00e+00	92	41	0	201326592	54	5754
2026-01-21 00:48:57.80	172.17	11.71	-40.1	-41.1	22.6	0.00e+00	0	41	0	203423744	54	5784
2026-01-21 00:48:58.81	172.20	11.80	-39.9	-40.8	22.9	0.00e+00	93	41	0	205520896	54	5606
2026-01-21 00:48:59.82	172.24	11.90	-39.8	-40.7	22.8	0.00e+00	0	41	0	207618048	54	5536
2026-01-21 00:49:00.83	172.28	11.99	-39.8	-40.7	23.0	0.00e+00	92	41	0	209715200	54	5528
2026-01-21 00:49:01.84	172.31	12.08	-39.8	-40.7	23.0	0.00e+00	28	41	0	210763776	54	5532
2026-01-21 00:49:02.85	172.35	12.18	-40.0	-40.9	22.8	0.00e+00	9	41	0	212860928	54	5671
2026-01-21 00:49:03.86	172.39	12.27	-40.0	-40.9	22.9	0.00e+00	92	41	0	214958080	54	5666
2026-01-21 00:49:04.87	172.42	12.37	-40.0	-41.0	22.8	0.00e+00	0	41	0	217055232	54	5718
2026-01-21 00:49:05.88	172.46	12.47	-40.1	-41.0	22.7	0.00e+00	73	41	0	219152384	54	5749
2026-01-21 00:49:06.89	172.50	12.56	-40.2	-41.2	22.8	0.00e+00	0	41	0	220200960	54	5842
2026-01-21 00:49:07.90	172.53	12.66	-40.2	-41.1	22.9	0.00e+00	92	41	0	222298112	54	5806
2026-01-21 00:49:08.91	172.57	12.75	-40.1	-41.0	22.7	0.00e+00	29	41	0	224395264	54	5757
2026-01-21 00:49:09.92	172.61	12.85	-40.5	-41.5	22.5	0.00e+00	78	41	0	226492416	54	6072
2026-01-21 00:49:10.93	172.65	12.95	-39.9	-40.8	23.0	0.00e+00	90	41	0	228589568	54	5608
2026-01-21 00:49:11.94	172.69	13.05	-39.9	-40.8	23.0	0.00e+00	0	41	0	230686720	54	5624
2026-01-21 00:49:12.95	172.73	13.14	-39.8	-40.7	23.1	0.00e+00	64	41	0	231735296	54	5530
2026-01-21 00:49:13.96	172.76	13.24	-39.8	-40.7	23.1	0.00e+00	0	41	0	233832448	52	6239
2026-01-21 00:49:14.97	172.80	13.34	-39.7	-40.6	23.2	0.00e+00	91	41	0	235929600	52	6143
2026-01-21 00:49:15.97	172.84	13.44	-39.8	-40.7	23.1	0.00e+00	0	41	0	238026752	52	6192
2026-01-21 00:49:16.99	172.88	13.54	-39.6	-40.5	23.3	0.00e+00	91	41	0	240123904	52	6087
2026-01-21 00:49:18.00	172.92	13.64	-39.7	-40.6	23.1	0.00e+00	92	41	0	241172480	52	6147
2026-01-21 00:49:19.01	172.96	13.74	-39.6	-40.5	23.3	0.00e+00	0	41	0	243269632	52	6070
2026-01-21 00:49:20.02	173.00	13.84	-39.7	-40.6	23.2	0.00e+00	92	41	0	245366784	52	6134
2026-01-21 00:49:21.03	173.04	13.95	-39.6	-40.5	23.4	0.00e+00	0	41	0	247463936	52	6087
2026-01-21 00:49:22.04	173.08	14.05	-39.8	-40.7	23.2	0.00e+00	92	41	0	249561088	52	6225
2026-01-21 00:49:23.04	173.12	14.15	-40.0	-40.9	23.1	0.00e+00	0	41	0	250609664	52	6351
2026-01-21 00:49:24.05	173.17	14.25	-39.6	-40.5	23.2	0.00e+00	92	41	0	252706816	52	6081
2026-01-21 00:49:25.06	173.21	14.35	-39.6	-40.5	23.3	0.00e+00	92	41	0	254803968	52	6078
2026-01-21 00:49:26.06	173.25	14.46	-39.6	-40.5	23.3	0.00e+00	0	41	0	256901120	52	6076
2026-01-21 00:49:27.07	173.29	14.56	-39.8	-40.7	23.2	0.00e+00	92	41	0	258998272	52	6199
2026-01-21 00:49:28.08	173.33	14.67	-39.9	-40.8	23.1	0.00e+00	0	42	0	260046848	52	6317
2026-01-21 00:49:29.09	173.38	14.77	-40.1	-41.1	22.9	0.00e+00	32	42	0	262144000	52	6465
2026-01-21 00:49:30.10	173.42	14.88	-40.1	-41.0	22.9	0.00e+00	0	42	0	264241152	52	6442
2026-01-21 00:49:31.11	173.46	14.98	-40.2	-41.1	22.8	0.00e+00	92	41	0	266338304	52	6517
2026-01-21 00:49:32.12	173.51	15.09	-40.1	-41.0	22.9	0.00e+00	30	42	0	268435456	52	6444
2026-01-21 00:49:33.13	173.55	15.19	-40.0	-40.9	23.1	0.00e+00	14	41	0	269484032	52	6380
2026-01-21 00:49:34.13	173.59	15.30	-39.9	-40.8	23.0	0.00e+00	92	41	0	271581184	52	6281
2026-01-21 00:49:35.14	173.64	15.41	-39.9	-40.9	23.0	0.00e+00	0	41	0	273678336	52	6340
2026-01-21 00:49:36.15	173.68	15.52	-40.0	-41.0	23.0	0.00e+00	92	41	0	275775488	52	6399
2026-01-21 00:49:37.16	173.73	15.62	-40.0	-40.9	23.0	0.00e+00	7	41	0	277872640	52	6366
2026-01-21 00:49:38.17	173.77	15.73	-40.0	-40.9	23.0	0.00e+00	92	42	0	278921216	52	6364
2026-01-21 00:49:39.18	173.82	15.84	-40.2	-41.1	22.8	0.00e+00	9	41	0	281018368	52	6530
2026-01-21 00:49:40.19	173.87	15.95	-40.1	-41.0	22.8	0.00e+00	90	41	0	283115520	52	6457
2026-01-21 00:49:41.20	173.91	16.06	-40.2	-41.2	22.9	0.00e+00	92	41	0	285212672	52	6585
2026-01-21 00:49:42.21	173.96	16.17	-40.2	-41.2	22.8	0.00e+00	0	41	0	287309824	52	6545
2026-01-21 00:49:43.22	174.00	16.29	-40.2	-41.2	22.8	0.00e+00	78	41	0	288358400	52	6544
2026-01-21 00:49:44.22	174.05	16.40	-40.3	-41.3	22.7	0.00e+00	6	41	0	290455552	52	6632
2026-01-21 00:49:45.23	174.10	16.51	-40.1	-41.1	22.8	0.00e+00	92	41	0	292552704	52	6471
2026-01-21 00:49:46.24	174.15	16.62	-40.2	-41.2	22.8	0.00e+00	0	41	0	294649856	52	6592
2026-01-21 00:49:47.25	174.20	16.73	-40.0	-41.0	22.9	0.00e+00	92	41	0	296747008	52	6399
2026-01-21 00:49:48.26	174.24	16.85	-40.0	-41.0	22.9	0.00e+00	92	41	0	298844160	52	6405
2026-01-21 00:49:49.27	174.29	16.96	-39.9	-40.8	23.1	0.00e+00	0	41	0	299892736	52	6300
2026-01-21 00:49:50.28	174.34	17.08	-40.1	-41.0	22.9	0.00e+00	92	41	0	301989888	52	6457
2026-01-21 00:49:51.29	174.39	17.19	-39.9	-40.9	23.0	0.00e+00	0	41	0	304087040	52	6336
2026-01-21 00:49:52.30	174.44	17.31	-40.1	-41.0	22.9	0.00e+00	92	41	0	306184192	52	6455
2026-01-21 00:49:53.31	174.49	17.43	-40.1	-41.0	23.0	0.00e+00	0	41	0	308281344	52	6443
2026-01-21 00:49:54.32	174.54	17.54	-40.1	-41.0	22.9	0.00e+00	92	42	0	309329920	52	6439
2026-01-21 00:49:55.33	174.59	17.66	-40.2	-41.2	22.8	0.00e+00	92	42	0	311427072	52	6545
2026-01-21 00:49:56.34	174.64	17.78	-40.3	-41.2	22.6	0.00e+00	0	41	0	313524224	52	6614
2026-01-21 00:49:57.35	174.70	17.90	-40.4	-41.4	22.5	0.00e+00	90	41	0	315621376	52	6754
2026-01-21 00:49:58.36	174.75	18.02	-40.5	-41.5	22.6	0.00e+00	0	41	0	317718528	52	6840
2026-01-21 00:49:59.37	174.80	18.14	-40.4	-41.4	22.6	0.00e+00	92	41	0	318767104	52	6734
2026-01-21 00:50:00.37	174.85	18.26	-40.6	-41.6	22.7	0.00e+00	0	42	0	320864256	52	6899
2026-01-21 00:50:01.39	174.91	18.38	-40.6	-41.6	22.6	0.00e+00	92	41	0	322961408	54	6147
2026-01-21 00:50:02.40	174.96	18.50	-40.5	-41.5	22.7	0.00e+00	29	42	0	325058560	54	6045
2026-01-21 00:50:03.41	175.01	18.62	-40.4	-41.4	22.6	0.00e+00	8	41	0	327155712	54	6029
2026-01-21 00:50:04.41	175.07	18.74	-40.3	-41.3	22.8	0.00e+00	90	41	0	328204288	54	5909
2026-01-21 00:50:05.42	175.12	18.87	-40.5	-41.5	22.6	0.00e+00	0	41	0	330301440	54	6083
2026-01-21 00:50:06.43	175.18	18.99	-40.2	-41.2	22.8	0.00e+00	92	41	0	332398592	54	5860
2026-01-21 00:50:07.44	175.23	19.12	-40.3	-41.2	22.8	0.00e+00	0	42	0	334495744	54	5891
2026-01-21 00:50:08.45	175.29	19.24	-40.1	-41.1	22.8	0.00e+00	92	42	0	336592896	54	5792
2026-01-21 00:50:09.46	175.35	19.37	-40.3	-41.3	22.7	0.00e+00	24	42	0	337641472	54	5914
2026-01-21 00:50:10.47	175.40	19.49	-40.2	-41.2	22.7	0.00e+00	90	42	0	339738624	54	5862
2026-01-21 00:50:11.48	175.46	19.62	-40.5	-41.5	22.5	0.00e+00	92	42	0	341835776	54	6080
2026-01-21 00:50:12.49	175.52	19.75	-40.6	-41.6	22.5	0.00e+00	0	42	0	343932928	54	6155
2026-01-21 00:50:13.50	175.58	19.88	-40.8	-41.8	22.4	0.00e+00	92	42	0	346030080	54	6287
2026-01-21 00:50:14.51	175.64	20.00	-40.9	-42.0	22.2	0.00e+00	0	42	0	347078656	54	6432
2026-01-21 00:50:15.52	175.70	20.13	-40.8	-41.8	22.2	0.00e+00	92	42	0	349175808	54	6304
2026-01-21 00:50:16.53	175.76	20.26	-41.1	-42.2	22.1	0.00e+00	0	42	0	351272960	54	6565
2026-01-21 00:50:17.54	175.82	20.39	-41.2	-42.3	21.9	0.00e+00	92	42	0	353370112	54	6684
2026-01-21 00:50:18.55	175.88	20.53	-41.3	-42.4	21.8	0.00e+00	92	42	0	355467264	54	6762
2026-01-21 00:50:19.56	175.94	20.66	-41.0	-42.1	22.1	0.00e+00	0	42	0	356515840	54	6517
2026-01-21 00:50:20.57	176.00	20.79	-41.0	-42.1	22.2	0.00e+00	37	42	0	358612992	54	6489
2026-01-21 00:50:21.58	176.06	20.92	-41.1	-42.2	22.1	0.00e+00	0	42	0	360710144	54	6601
2026-01-21 00:50:22.59	176.13	21.06	-41.1	-42.2	22.0	0.00e+00	92	42	0	362807296	54	6578
2026-01-21 00:50:23.60	176.19	21.19	-40.8	-41.9	22.3	0.00e+00	0	42	0	364904448	54	6341
2026-01-21 00:50:24.60	176.25	21.33	-41.0	-42.1	22.1	0.00e+00	92	42	0	367001600	54	6466
2026-01-21 00:50:25.61	176.32	21.46	-40.8	-41.8	22.3	0.00e+00	90	42	0	368050176	54	6311
2026-01-21 00:50:26.62	176.38	21.60	-40.6	-41.6	22.6	0.00e+00	0	42	0	370147328	54	6131
2026-01-21 00:50:27.63	176.45	21.74	-40.5	-41.5	22.6	0.00e+00	92	42	0	372244480	54	6051
2026-01-21 00:50:28.64	176.51	21.88	-40.5	-41.5	22.6	0.00e+00	6	42	0	374341632	54	6063
2026-01-21 00:50:29.65	176.58	22.02	-40.5	-41.5	22.6	0.00e+00	92	41	0	375390208	54	6041
2026-01-21 00:50:30.66	176.65	22.15	-40.6	-41.6	22.5	0.00e+00	0	42	0	377487360	54	6114
2026-01-21 00:50:31.67	176.71	22.30	-40.6	-41.6	22.6	0.00e+00	90	42	0	379584512	54	6127
2026-01-21 00:50:32.67	176.78	22.44	-40.3	-41.3	22.7	0.00e+00	28	42	0	381681664	54	5904
2026-01-21 00:50:33.69	176.85	22.58	-40.2	-41.1	23.0	0.00e+00	0	42	0	383778816	54	5813
2026-01-21 00:50:34.69	176.92	22.72	-40.3	-41.3	22.8	0.00e+00	92	42	0	384827392	54	5930
2026-01-21 00:50:35.70	176.99	22.86	-40.3	-41.2	22.8	0.00e+00	0	42	0	386924544	54	5889
2026-01-21 00:50:36.71	177.06	23.01	-40.2	-41.2	22.8	0.00e+00	92	42	0	389021696	54	5863
2026-01-21 00:50:37.72	177.13	23.15	-39.8	-40.7	23.2	0.00e+00	0	42	0	391118848	54	5563
2026-01-21 00:50:38.73	177.20	23.30	-40.1	-41.1	22.9	0.00e+00	90	41	0	393216000	54	5781
2026-01-21 00:50:39.74	177.27	23.45	-39.9	-40.8	23.1	0.00e+00	29	42	0	395313152	54	5609
2026-01-21 00:50:40.75	177.35	23.59	-40.0	-40.9	23.2	0.00e+00	92	42	0	396361728	52	6364
2026-01-21 00:50:41.75	177.42	23.74	-40.1	-41.0	23.0	0.00e+00	92	41	0	398458880	52	6433
2026-01-21 00:50:42.76	177.50	23.89	-39.9	-40.9	23.2	0.00e+00	0	42	0	400556032	52	6320
2026-01-21 00:50:43.77	177.57	24.04	-40.1	-41.0	23.0	0.00e+00	66	42	0	402653184	52	6438
2026-01-21 00:50:44.78	177.65	24.19	-40.2	-41.1	22.9	0.00e+00	0	42	0	404750336	52	6530
2026-01-21 00:50:45.79	177.72	24.34	-40.4	-41.3	22.9	0.00e+00	89	42	0	405798912	52	6664
2026-01-21 00:50:46.80	177.80	24.49	-40.5	-41.5	22.6	0.00e+00	0	42	0	407896064	52	6794
2026-01-21 00:50:47.81	177.88	24.65	-40.5	-41.5	22.6	0.00e+00	92	42	0	409993216	54	6065
2026-01-21 00:50:48.82	177.96	24.80	-40.5	-41.5	22.6	0.00e+00	92	42	0	412090368	54	6092
2026-01-21 00:50:49.83	178.04	24.95	-40.3	-41.3	22.8	0.00e+00	0	42	0	414187520	54	5949
2026-01-21 00:50:50.84	178.12	25.11	-40.7	-41.7	22.5	0.00e+00	90	42	0	415236096	54	6201
2026-01-21 00:50:51.85	178.20	25.27	-40.3	-41.3	22.8	0.00e+00	0	42	0	417333248	54	5913
2026-01-21 00:50:52.86	178.28	25.42	-40.3	-41.3	22.8	0.00e+00	92	42	0	419430400	54	5915
2026-01-21 00:50:53.87	178.36	25.58	-40.3	-41.3	22.8	0.00e+00	0	42	0	421527552	54	5949
2026-01-21 00:50:54.88	178.44	25.74	-40.2	-41.1	22.9	0.00e+00	92	42	0	423624704	54	5810
2026-01-21 00:50:55.89	178.53	25.90	-40.3	-41.3	22.7	0.00e+00	92	42	0	424673280	54	5937
2026-01-21 00:50:56.90	178.61	26.06	-40.5	-41.5	22.7	0.00e+00	0	42	0	426770432	54	6074
2026-01-21 00:50:57.91	178.70	26.22	-40.2	-41.1	23.0	0.00e+00	90	42	0	428867584	54	5812
2026-01-21 00:50:58.92	178.78	26.39	-40.1	-41.1	23.0	0.00e+00	0	42	0	430964736	54	5779
2026-01-21 00:50:59.92	178.87	26.55	-39.9	-40.9	23.1	0.00e+00	92	42	0	433061888	54	5659
2026-01-21 00:51:00.93	178.96	26.71	-39.9	-40.9	23.2	0.00e+00	0	42	0	434110464	54	5643
2026-01-21 00:51:01.94	179.05	26.88	-39.7	-40.6	23.5	0.00e+00	92	42	0	436207616	52	6154
2026-01-21 00:51:02.95	179.14	27.05	-39.7	-40.7	23.3	0.00e+00	81	42	0	438304768	52	6184
2026-01-21 00:51:03.96	179.23	27.21	-39.3	-40.2	23.8	0.00e+00	0	42	0	440401920	52	5865
2026-01-21 00:51:04.97	179.32	27.38	-39.3	-40.2	23.7	0.00e+00	92	42	0	442499072	52	5835
2026-01-21 00:51:05.98	179.41	27.55	-39.4	-40.2	23.6	0.00e+00	0	42	0	443547648	52	5895
2026-01-21 00:51:06.99	179.51	27.72	-38.9	-39.8	23.8	0.00e+00	92	42	0	445644800	52	5573
2026-01-21 00:51:08.00	179.60	27.89	-39.3	-40.2	23.6	0.00e+00	0	42	0	447741952	52	5860
2026-01-21 00:51:09.01	179.70	28.07	-39.7	-40.7	23.4	0.00e+00	92	42	0	449839104	52	6179
2026-01-21 00:51:10.02	179.79	28.24	-39.4	-40.3	23.4	0.00e+00	14	42	0	451936256	52	5922
2026-01-21 00:51:11.03	179.89	28.41	-39.5	-40.4	23.5	0.00e+00	26	42	0	452984832	52	6011
2026-01-21 00:51:12.04	179.99	28.59	-39.5	-40.4	23.3	0.00e+00	92	42	0	455081984	52	6018
2026-01-21 00:51:13.05	180.09	28.77	-39.6	-40.5	23.3	0.00e+00	0	42	0	457179136	52	6048
2026-01-21 00:51:14.06	180.19	28.94	-39.7	-40.7	23.4	0.00e+00	50	42	0	459276288	52	6177
2026-01-21 00:51:15.06	180.29	29.12	-39.8	-40.7	23.2	0.00e+00	0	41	0	461373440	52	6210
2026-01-21 00:51:16.07	180.39	29.30	-39.8	-40.7	23.2	0.00e+00	92	42	0	463470592	52	6235
2026-01-21 00:51:17.08	180.50	29.48	-40.2	-41.2	22.8	0.00e+00	6	42	0	464519168	52	6568
2026-01-21 00:51:18.09	180.60	29.66	-40.6	-41.6	22.6	0.00e+00	90	42	0	466616320	52	6872
2026-01-21 00:51:19.10	180.71	29.84	-40.9	-41.9	22.1	0.00e+00	92	42	0	468713472	54	6386
2026-01-21 00:51:20.11	180.82	30.03	-41.5	-42.7	21.6	0.00e+00	0	42	0	470810624	54	6939
2026-01-21 00:51:21.12	180.93	30.21	-41.6	-42.7	21.6	0.00e+00	92	42	0	472907776	54	6990
2026-01-21 00:51:22.13	181.04	30.40	-41.9	-43.1	21.5	0.00e+00	0	42	0	473956352	56	6518
2026-01-21 00:51:23.14	181.15	30.59	-41.9	-43.0	21.5	0.00e+00	92	42	0	476053504	56	6442
2026-01-21 00:51:24.16	181.26	30.78	-41.8	-43.0	21.5	0.00e+00	27	42	0	478150656	56	6404
2026-01-21 00:51:25.16	181.37	30.96	-42.1	-43.3	21.2	0.00e+00	92	42	0	480247808	56	6667
2026-01-21 00:51:26.17	181.49	31.15	-41.9	-43.0	21.3	0.00e+00	92	42	0	482344960	56	6447
2026-01-21 00:51:27.18	181.60	31.34	-42.0	-43.1	21.2	0.00e+00	0	42	0	483393536	56	6521
2026-01-21 00:51:28.19	181.72	31.54	-42.2	-43.4	21.0	0.00e+00	92	42	0	485490688	56	6705
2026-01-21 00:51:29.20	181.84	31.73	-43.0	-44.4	20.2	0.00e+00	0	42	0	487587840	58	6739
2026-01-21 00:51:30.21	181.96	31.93	-43.1	-44.6	20.1	0.00e+00	92	42	0	489684992	58	6856
2026-01-21 00:51:31.22	182.08	32.12	-43.2	-44.7	20.0	0.00e+00	3	42	0	491782144	58	6947
2026-01-21 00:51:32.23	182.21	32.32	-43.4	-44.9	19.7	0.00e+00	92	42	0	492830720	58	7160
2026-01-21 00:51:33.24	182.33	32.52	-43.6	-45.2	19.6	0.00e+00	90	42	0	494927872	58	7364
2026-01-21 00:51:34.25	182.46	32.72	-43.4	-44.8	19.9	0.00e+00	0	42	0	497025024	58	7079
2026-01-21 00:51:35.25	182.58	32.92	-43.2	-44.6	20.2	0.00e+00	92	42	0	499122176	58	6857
2026-01-21 00:51:36.27	182.71	33.12	-43.2	-44.6	19.9	0.00e+00	0	42	0	501219328	58	6925
2026-01-21 00:51:37.27	182.84	33.32	-43.2	-44.5	20.1	0.00e+00	92	42	0	502267904	58	6838
2026-01-21 00:51:38.28	182.97	33.53	-42.9	-44.3	20.4	0.00e+00	0	42	0	504365056	58	6633
2026-01-21 00:51:39.29	183.11	33.73	-42.9	-44.2	20.4	0.00e+00	92	42	0	506462208	58	6597
2026-01-21 00:51:40.30	183.24	33.94	-42.3	-43.5	21.1	0.00e+00	92	42	0	508559360	58	6067
2026-01-21 00:51:41.31	183.38	34.15	-42.4	-43.6	21.1	0.00e+00	15	42	0	510656512	58	6107
2026-01-21 00:51:42.32	183.52	34.36	-42.2	-43.4	21.3	0.00e+00	90	42	0	511705088	58	5972
2026-01-21 00:51:43.33	183.66	34.57	-42.2	-43.3	21.3	0.00e+00	0	42	0	513802240	58	5923
2026-01-21 00:51:44.34	183.80	34.78	-42.7	-43.9	20.7	0.00e+00	92	42	0	515899392	58	6387
2026-01-21 00:51:45.35	183.95	34.99	-42.7	-43.9	20.8	0.00e+00	0	42	0	517996544	58	6347
2026-01-21 00:51:46.36	184.09	35.20	-42.7	-44.0	20.7	0.00e+00	92	42	0	520093696	58	6431
2026-01-21 00:51:47.37	184.24	35.42	-43.1	-44.5	20.2	0.00e+00	32	42	0	521142272	58	6793
2026-01-21 00:51:48.38	184.39	35.64	-43.5	-45.0	19.7	0.00e+00	35	42	0	523239424	58	7180
2026-01-21 00:51:49.39	184.54	35.86	-43.2	-44.6	20.3	0.00e+00	90	42	0	525336576	58	6915
2026-01-21 00:51:50.39	184.69	36.07	-43.4	-44.9	19.6	0.00e+00	0	42	0	527433728	58	7121
2026-01-21 00:51:51.40	184.85	36.29	-43.5	-45.0	19.9	0.00e+00	65	42	0	529530880	58	7233
2026-01-21 00:51:52.41	185.01	36.51	-43.1	-44.4	20.2	0.00e+00	0	42	0	531628032	58	6756
2026-01-21 00:51:53.42	185.17	36.74	-43.6	-45.1	19.7	0.00e+00	92	42	0	532676608	58	7286
2026-01-21 00:51:54.43	185.33	36.96	-43.5	-44.9	19.9	0.00e+00	28	42	0	534773760	58	7165
2026-01-21 00:51:55.44	185.49	37.19	-43.2	-44.6	20.0	0.00e+00	92	42	0	536870912	58	6910
2026-01-21 00:51:56.45	185.66	37.41	-43.0	-44.3	20.4	0.00e+00	92	42	0	538968064	58	6644
2026-01-21 00:51:57.46	185.83	37.64	-43.0	-44.3	20.4	0.00e+00	0	42	0	541065216	58	6641
2026-01-21 00:51:58.47	186.00	37.87	-42.7	-44.0	20.6	0.00e+00	92	42	0	542113792	58	6391
2026-01-21 00:51:59.48	186.17	38.10	-42.8	-44.1	20.4	0.00e+00	0	42	0	544210944	58	6477
2026-01-21 00:52:00.49	186.35	38.34	-43.0	-44.3	20.4	0.00e+00	92	42	0	546308096	58	6657
2026-01-21 00:52:01.50	186.53	38.57	-43.3	-44.7	19.9	0.00e+00	0	42	0	548405248	58	6983
2026-01-21 00:52:02.50	186.71	38.80	-44.3	-45.9	19.0	0.00e+00	92	42	0	550502400	60	7146
2026-01-21 00:52:03.51	186.89	39.04	-44.7	-46.4	18.5	0.00e+00	90	42	0	551550976	60	7587
2026-01-21 00:52:04.52	187.08	39.27	-45.2	-47.2	18.0	0.00e+00	0	42	0	553648128	60	8237
2026-01-21 00:52:05.53	187.27	39.51	-44.8	-46.6	18.2	0.00e+00	92	42	0	555745280	60	7712
2026-01-21 00:52:06.54	187.46	39.75	-45.4	-47.5	17.5	0.00e+00	0	42	0	557842432	60	8548
2026-01-21 00:52:07.55	187.65	39.99	-45.8	-48.0	17.1	0.00e+00	92	42	0	559939584	60	9055
2026-01-21 00:52:08.56	187.85	40.24	-45.7	-47.9	17.0	0.00e+00	0	42	0	560988160	60	8975
2026-01-21 00:52:09.57	188.05	40.48	-45.8	-48.1	16.8	0.00e+00	92	42	0	563085312	60	9178
2026-01-21 00:52:10.58	188.25	40.73	-45.8	-48.2	16.7	0.00e+00	90	42	0	565182464	60	9271
2026-01-21 00:52:11.59	188.46	40.97	-44.9	-46.8	18.0	0.00e+00	0	42	0	567279616	60	7910
2026-01-21 00:52:12.60	188.67	41.22	-44.4	-46.2	18.8	0.00e+00	91	42	0	569376768	60	7356
2026-01-21 00:52:13.61	188.88	41.47	-44.1	-45.8	19.1	0.00e+00	0	42	0	570425344	60	7008
2026-01-21 00:52:14.62	189.10	41.72	-43.5	-45.0	19.9	0.00e+00	92	42	0	572522496	60	6449
2026-01-21 00:52:15.63	189.31	41.97	-42.7	-44.0	20.4	0.00e+00	0	42	0	574619648	60	5731
2026-01-21 00:52:16.63	189.53	42.22	-42.6	-43.9	20.6	0.00e+00	92	42	0	576716800	58	6358
2026-01-21 00:52:17.64	189.76	42.48	-42.0	-43.2	21.4	0.00e+00	57	42	0	578813952	58	5837
2026-01-21 00:52:18.66	189.99	42.73	-42.0	-43.2	21.1	0.00e+00	38	42	0	579862528	58	5839
2026-01-21 00:52:19.66	190.22	42.99	-42.2	-43.4	21.2	0.00e+00	92	42	0	581959680	56	6768
2026-01-21 00:52:20.67	190.46	43.25	-41.6	-42.8	21.7	0.00e+00	0	42	0	584056832	56	6256
2026-01-21 00:52:21.68	190.70	43.51	-41.8	-43.0	21.4	0.00e+00	90	42	0	586153984	56	6437
2026-01-21 00:52:22.69	190.94	43.77	-41.5	-42.6	21.7	0.00e+00	0	42	0	588251136	56	6173
2026-01-21 00:52:23.70	191.19	44.03	-41.8	-43.0	21.5	0.00e+00	90	42	0	589299712	56	6405
2026-01-21 00:52:24.71	191.44	44.29	-42.2	-43.4	21.1	0.00e+00	32	42	0	591396864	56	6743
2026-01-21 00:52:25.72	191.70	44.55	-42.3	-43.6	20.9	0.00e+00	90	42	0	593494016	56	6858
2026-01-21 00:52:26.73	191.96	44.82	-42.0	-43.1	21.4	0.00e+00	91	42	0	595591168	56	6531
2026-01-21 00:52:27.74	192.23	45.08	-41.8	-42.9	21.6	0.00e+00	0	42	0	597688320	56	6353
2026-01-21 00:52:28.75	192.49	45.35	-41.6	-42.7	21.7	0.00e+00	67	42	0	598736896	56	6222
2026-01-21 00:52:29.76	192.77	45.62	-42.0	-43.1	21.5	0.00e+00	0	42	0	600834048	56	6503
2026-01-21 00:52:30.77	193.05	45.89	-42.4	-43.7	21.0	0.00e+00	85	42	0	602931200	56	6942
2026-01-21 00:52:31.78	193.33	46.16	-42.3	-43.5	21.1	0.00e+00	0	42	0	605028352	56	6773
2026-01-21 00:52:32.79	193.62	46.43	-42.3	-43.6	21.1	0.00e+00	92	42	0	607125504	56	6874
2026-01-21 00:52:33.80	193.91	46.70	-41.9	-43.0	21.1	0.00e+00	90	42	0	608174080	56	6460
2026-01-21 00:52:34.81	194.21	46.98	-42.0	-43.2	21.0	0.00e+00	0	42	0	610271232	56	6585
2026-01-21 00:52:35.81	194.51	47.25	-42.1	-43.3	21.3	0.00e+00	92	42	0	612368384	56	6650
2026-01-21 00:52:36.82	194.82	47.52	-41.2	-42.3	22.0	0.00e+00	0	42	0	614465536	56	5927
2026-01-21 00:52:37.83	195.13	47.80	-41.4	-42.5	21.8	0.00e+00	92	42	0	616562688	56	6100
2026-01-21 00:52:38.84	195.45	48.08	-41.7	-42.8	21.9	0.00e+00	9	42	0	617611264	56	6300
2026-01-21 00:52:39.85	195.77	48.36	-42.3	-43.5	21.1	0.00e+00	92	42	0	619708416	56	6826
2026-01-21 00:52:40.86	196.11	48.63	-41.5	-42.7	21.8	0.00e+00	91	42	0	621805568	56	6190
2026-01-21 00:52:41.87	196.44	48.91	-40.3	-41.3	22.9	0.00e+00	0	42	0	623902720	54	5927
2026-01-21 00:52:42.88	196.78	49.19	-40.0	-41.0	23.0	0.00e+00	91	42	0	625999872	54	5732
2026-01-21 00:52:43.89	197.13	49.47	-39.8	-40.7	23.2	0.00e+00	0	42	0	628097024	52	6229
2026-01-21 00:52:44.90	197.49	49.76	-39.6	-40.5	23.6	0.00e+00	92	42	0	629145600	52	6097
2026-01-21 00:52:45.91	197.85	50.04	-39.8	-40.8	23.4	0.00e+00	33	42	0	631242752	52	6251
2026-01-21 00:52:46.92	198.22	50.32	-40.2	-41.2	23.1	0.00e+00	91	42	0	633339904	52	6575
2026-01-21 00:52:47.93	198.60	50.60	-40.7	-41.8	22.3	0.00e+00	91	42	0	635437056	52	7054
2026-01-21 00:52:48.93	198.97	50.88	-41.3	-42.5	21.7	0.00e+00	0	42	0	637534208	54	6797
2026-01-21 00:52:49.94	199.36	51.17	-40.9	-42.0	22.2	0.00e+00	92	42	0	638582784	54	6396
2026-01-21 00:52:50.95	199.76	51.45	-40.2	-41.1	22.7	0.00e+00	0	42	0	640679936	54	5826
2026-01-21 00:52:51.96	200.17	51.74	-39.4	-40.3	23.7	0.00e+00	92	42	0	642777088	52	5933
2026-01-21 00:52:52.97	200.58	52.02	-38.6	-39.4	24.3	0.00e+00	0	42	0	644874240	50	6033
2026-01-21 00:52:53.98	201.00	52.31	-37.9	-38.7	24.7	0.00e+00	92	42	0	646971392	50	5535
2026-01-21 00:52:54.99	201.43	52.59	-37.6	-38.4	24.8	0.00e+00	34	42	0	648019968	48	6018
2026-01-21 00:52:56.00	201.86	52.88	-37.4	-38.2	25.0	0.00e+00	0	42	0	650117120	48	5862
2026-01-21 00:52:57.01	202.31	53.16	-37.6	-38.4	24.9	0.00e+00	92	42	0	652214272	48	5976
2026-01-21 00:52:58.02	202.76	53.45	-37.8	-38.6	24.9	0.00e+00	0	42	0	654311424	48	6165
2026-01-21 00:52:59.03	203.23	53.73	-38.1	-38.9	24.4	0.00e+00	55	42	0	656408576	48	6351
2026-01-21 00:53:00.04	203.70	54.02	-39.0	-39.9	23.9	0.00e+00	0	42	0	657457152	50	6325
2026-01-21 00:53:01.05	204.18	54.30	-39.3	-40.2	23.8	0.00e+00	92	42	0	659554304	50	6607
2026-01-21 00:53:02.06	204.67	54.58	-38.7	-39.6	24.1	0.00e+00	4	42	0	661651456	50	6104
2026-01-21 00:53:03.07	205.17	54.87	-38.2	-39.0	24.6	0.00e+00	0	42	0	663748608	50	5737
2026-01-21 00:53:04.08	205.68	55.15	-38.0	-38.8	24.8	0.00e+00	90	42	0	665845760	50	5621
2026-01-21 00:53:05.08	206.19	55.43	-38.0	-38.8	24.4	0.00e+00	0	42	0	666894336	50	5611
2026-01-21 00:53:06.10	206.73	55.71	-38.6	-39.5	24.3	0.00e+00	32	42	0	668991488	50	6036
2026-01-21 00:53:07.10	207.27	55.99	-38.9	-39.7	23.9	0.00e+00	0	42	0	671088640	50	6239
2026-01-21 00:53:08.11	207.82	56.27	-39.5	-40.5	23.7	0.00e+00	92	42	0	673185792	50	6788
2026-01-21 00:53:09.12	208.38	56.54	-39.2	-40.1	23.9	0.00e+00	0	42	0	675282944	50	6483
2026-01-21 00:53:10.13	208.96	56.82	-38.6	-39.4	24.3	0.00e+00	92	42	0	676331520	50	5994
2026-01-21 00:53:11.14	209.54	57.09	-38.2	-39.0	24.7	0.00e+00	92	42	0	678428672	50	5755
2026-01-21 00:53:12.15	210.14	57.37	-38.6	-39.4	24.4	0.00e+00	0	42	0	680525824	50	6019
2026-01-21 00:53:13.16	210.75	57.64	-39.0	-39.9	23.9	0.00e+00	54	42	0	682622976	50	6372
2026-01-21 00:53:14.17	211.37	57.91	-39.2	-40.1	23.8	0.00e+00	0	42	0	684720128	50	6509
2026-01-21 00:53:15.17	212.00	58.17	-39.4	-40.2	23.9	0.00e+00	92	42	0	685768704	50	6607
2026-01-21 00:53:16.18	212.65	58.44	-38.8	-39.6	24.2	0.00e+00	0	42	0	687865856	50	6138
2026-01-21 00:53:17.19	213.31	58.70	-38.7	-39.5	24.3	0.00e+00	92	42	0	689963008	50	6041
2026-01-21 00:53:18.21	213.99	58.96	-39.5	-40.4	23.7	0.00e+00	92	42	0	692060160	50	6706
2026-01-21 00:53:19.21	214.66	59.22	-40.8	-41.9	22.4	0.00e+00	0	42	0	694157312	52	7095
2026-01-21 00:53:20.22	215.36	59.48	-41.3	-42.4	22.0	0.00e+00	92	42	0	696254464	54	6742
2026-01-21 00:53:21.23	216.08	59.73	-40.4	-41.4	22.8	0.00e+00	1	42	0	697303040	54	6007
2026-01-21 00:53:22.24	216.80	59.98	-39.9	-40.8	23.2	0.00e+00	92	42	0	699400192	54	5617
2026-01-21 00:53:23.25	217.55	60.22	-39.9	-40.9	23.1	0.00e+00	0	42	0	701497344	54	5638
2026-01-21 00:53:24.26	218.30	60.47	-40.0	-40.9	23.3	0.00e+00	92	42	0	703594496	54	5669
2026-01-21 00:53:25.27	219.07	60.71	-39.5	-40.4	23.7	0.00e+00	92	42	0	705691648	54	5340
2026-01-21 00:53:26.28	219.86	60.94	-39.7	-40.6	23.5	0.00e+00	0	42	0	706740224	52	6143
2026-01-21 00:53:27.29	220.65	61.18	-40.6	-41.6	22.8	0.00e+00	92	42	0	708837376	52	6919
2026-01-21 00:53:28.30	221.47	61.40	-41.2	-42.3	22.3	0.00e+00	0	42	0	710934528	56	5930
2026-01-21 00:53:29.31	222.30	61.63	-40.9	-41.9	22.4	0.00e+00	92	42	0	713031680	56	5685
2026-01-21 00:53:30.32	223.14	61.85	-40.6	-41.6	22.8	0.00e+00	0	42	0	715128832	54	6129
2026-01-21 00:53:31.33	224.00	62.06	-39.9	-40.8	23.5	0.00e+00	92	42	0	716177408	54	5582
2026-01-21 00:53:32.33	224.86	62.27	-39.5	-40.3	23.7	0.00e+00	14	42	0	718274560	52	5934
2026-01-21 00:53:33.34	225.75	62.47	-39.4	-40.3	23.7	0.00e+00	68	42	0	720371712	52	5936
2026-01-21 00:53:34.35	226.65	62.67	-39.1	-40.0	23.9	0.00e+00	90	42	0	722468864	52	5732
2026-01-21 00:53:35.36	227.57	62.87	-38.8	-39.6	24.2	0.00e+00	0	42	0	724566016	52	5475
2026-01-21 00:53:36.37	228.50	63.05	-38.2	-39.0	24.6	0.00e+00	66	42	0	725614592	50	5716
2026-01-21 00:53:37.38	229.45	63.24	-38.2	-39.0	24.8	0.00e+00	0	42	0	727711744	50	5706
2026-01-21 00:53:38.39	230.41	63.41	-38.2	-39.0	24.7	0.00e+00	92	42	0	729808896	50	5750
2026-01-21 00:53:39.40	231.39	63.58	-38.2	-38.9	24.7	0.00e+00	0	42	0	731906048	50	5683
2026-01-21 00:53:40.41	232.38	63.75	-38.6	-39.3	24.2	0.00e+00	19	42	0	734003200	50	5961
2026-01-21 00:53:41.41	233.37	63.90	-39.7	-40.6	23.6	0.00e+00	92	42	0	735051776	50	6855
2026-01-21 00:53:42.42	234.38	64.05	-39.1	-39.9	24.1	0.00e+00	0	42	0	737148928	50	6381
2026-01-21 00:53:43.43	235.41	64.20	-38.6	-39.4	24.4	0.00e+00	90	42	0	739246080	50	6019
2026-01-21 00:53:44.45	236.46	64.33	-38.2	-39.0	24.6	0.00e+00	0	42	0	741343232	50	5720
2026-01-21 00:53:45.45	237.51	64.46	-39.8	-40.7	23.2	0.00e+00	92	42	0	743440384	50	6960
2026-01-21 00:53:46.46	238.57	64.58	-41.5	-42.7	21.9	0.00e+00	17	42	0	744488960	54	6943
2026-01-21 00:53:47.47	239.65	64.70	-41.0	-42.1	22.5	0.00e+00	79	41	0	746586112	56	5762
2026-01-21 00:53:48.48	240.73	64.80	-40.4	-41.4	23.0	0.00e+00	90	42	0	748683264	54	5980
2026-01-21 00:53:49.49	241.83	64.90	-40.3	-41.3	22.9	0.00e+00	10	42	0	750780416	54	5950
2026-01-21 00:53:50.51	242.94	64.99	-39.9	-40.8	23.3	0.00e+00	38	42	0	752877568	54	5627
2026-01-21 00:53:51.52	244.06	65.07	-40.7	-41.6	21.5	0.00e+00	0	42	0	753926144	52	6905
2026-01-21 00:53:52.53	245.18	65.14	-41.2	-42.2	22.2	0.00e+00	90	42	0	756023296	54	6599
2026-01-21 00:53:53.54	246.31	65.21	-41.9	-43.0	21.6	0.00e+00	0	42	0	758120448	56	6463
2026-01-21 00:53:54.55	247.44	65.26	-42.1	-43.3	21.5	0.00e+00	92	42	0	760217600	56	6627
2026-01-21 00:53:55.56	248.58	65.31	-41.1	-42.1	22.6	0.00e+00	92	42	0	762314752	56	5776
2026-01-21 00:53:56.56	249.71	65.35	-41.8	-43.0	21.7	0.00e+00	0	42	0	764411904	56	6408
2026-01-21 00:53:57.57	250.86	65.38	-42.3	-43.5	21.3	0.00e+00	55	42	0	765460480	56	6802
2026-01-21 00:53:58.58	252.01	65.40	-40.4	-41.3	23.0	0.00e+00	0	42	0	767557632	54	5923
2026-01-21 00:53:59.59	253.16	65.41	-39.0	-39.8	24.1	0.00e+00	92	42	0	769654784	52	5591
2026-01-21 00:54:00.60	254.31	65.42	-38.5	-39.3	24.5	0.00e+00	0	42	0	771751936	50	5923
2026-01-21 00:54:01.61	255.46	65.41	-39.0	-39.9	24.0	0.00e+00	92	42	0	773849088	50	6344
2026-01-21 00:54:02.62	256.61	65.39	-39.0	-39.9	24.2	0.00e+00	73	41	0	774897664	50	6328
2026-01-21 00:54:03.63	257.76	65.37	-38.6	-39.4	24.3	0.00e+00	0	42	0	776994816	50	6003
2026-01-21 00:54:04.64	258.91	65.34	-39.6	-40.5	23.5	0.00e+00	92	42	0	779091968	50	6772
2026-01-21 00:54:05.65	260.05	65.30	-41.6	-42.8	21.6	0.00e+00	0	42	0	781189120	54	7024
2026-01-21 00:54:06.66	261.18	65.25	-41.6	-42.8	22.1	0.00e+00	92	42	0	783286272	56	6273
2026-01-21 00:54:07.67	262.32	65.19	-40.3	-41.3	22.8	0.00e+00	0	42	0	784334848	54	5929
2026-01-21 00:54:08.68	263.44	65.12	-39.6	-40.5	23.8	0.00e+00	92	42	0	786432000	52	6070
2026-01-21 00:54:09.69	264.56	65.05	-38.6	-39.4	24.5	0.00e+00	33	42	0	788529152	52	5360
2026-01-21 00:54:10.70	265.67	64.96	-38.4	-39.2	24.5	0.00e+00	0	42	0	790626304	50	5888
2026-01-21 00:54:11.71	266.77	64.87	-37.4	-38.1	25.3	0.00e+00	87	42	0	792723456	48	5800
2026-01-21 00:54:12.72	267.86	64.77	-38.9	-39.8	24.2	0.00e+00	0	42	0	793772032	50	6246
2026-01-21 00:54:13.72	268.94	64.67	-38.6	-39.5	24.4	0.00e+00	90	42	0	795869184	50	6042
2026-01-21 00:54:14.73	270.01	64.55	-37.9	-38.7	24.9	0.00e+00	0	42	0	797966336	50	5513
2026-01-21 00:54:15.74	271.07	64.43	-38.7	-39.5	24.3	0.00e+00	92	41	0	800063488	50	6090
2026-01-21 00:54:16.75	272.12	64.30	-38.2	-39.0	24.5	0.00e+00	56	42	0	802160640	50	5740
2026-01-21 00:54:17.76	273.15	64.16	-39.9	-40.8	23.6	0.00e+00	0	42	0	803209216	52	6269
2026-01-21 00:54:18.77	274.18	64.01	-38.1	-38.9	24.7	0.00e+00	92	41	0	805306368	50	5659
2026-01-21 00:54:19.78	275.19	63.86	-38.7	-39.5	24.5	0.00e+00	0	41	0	807403520	50	6089
2026-01-21 00:54:20.79	276.19	63.70	-37.4	-38.1	25.3	0.00e+00	40	42	0	809500672	48	5796
2026-01-21 00:54:21.80	277.17	63.54	-38.3	-39.1	24.5	0.00e+00	0	42	0	811597824	48	6515
2026-01-21 00:54:22.81	278.14	63.36	-39.1	-39.9	24.2	0.00e+00	92	42	0	812646400	50	6337
2026-01-21 00:54:23.82	279.10	63.19	-39.0	-39.8	24.1	0.00e+00	35	41	0	814743552	50	6314
2026-01-21 00:54:24.83	280.04	63.00	-41.1	-42.1	22.4	0.00e+00	84	42	0	816840704	54	6486
2026-01-21 00:54:25.83	280.96	62.82	-40.1	-41.1	23.4	0.00e+00	91	41	0	818937856	54	5770
2026-01-21 00:54:26.84	281.87	62.62	-38.0	-38.8	25.0	0.00e+00	0	41	0	821035008	50	5607
2026-01-21 00:54:27.86	282.78	62.42	-37.3	-38.1	25.4	0.00e+00	92	41	0	822083584	48	5763
2026-01-21 00:54:28.86	283.65	62.21	-39.6	-40.5	23.7	0.00e+00	0	41	0	824180736	50	6817
2026-01-21 00:54:29.87	284.52	62.00	-39.7	-40.6	23.6	0.00e+00	64	41	0	826277888	52	6155
2026-01-21 00:54:30.88	285.37	61.79	-38.9	-39.8	24.4	0.00e+00	0	41	0	828375040	52	5572
2026-01-21 00:54:31.89	286.21	61.57	-40.2	-41.2	23.4	0.00e+00	85	41	0	830472192	52	6550
2026-01-21 00:54:32.90	287.03	61.34	-39.2	-40.0	24.0	0.00e+00	92	41	0	831520768	52	5756
2026-01-21 00:54:33.91	287.84	61.12	-38.8	-39.6	24.5	0.00e+00	0	41	0	833617920	52	5461
2026-01-21 00:54:34.91	288.62	60.88	-38.3	-39.1	24.7	0.00e+00	62	41	0	835715072	50	5812
2026-01-21 00:54:35.92	289.40	60.65	-39.0	-39.9	24.1	0.00e+00	0	41	0	837812224	50	6370
2026-01-21 00:54:36.93	290.17	60.41	-39.5	-40.4	23.9	0.00e+00	78	41	0	839909376	52	6004
2026-01-21 00:54:37.94	290.92	60.16	-38.4	-39.2	24.7	0.00e+00	0	41	0	840957952	50	5868
2026-01-21 00:54:38.95	291.66	59.92	-39.1	-39.9	24.1	0.00e+00	91	41	0	843055104	50	6381
2026-01-21 00:54:39.96	292.38	59.67	-40.6	-41.6	22.8	0.00e+00	92	41	0	845152256	52	6900
2026-01-21 00:54:40.97	293.09	59.42	-40.3	-41.2	23.4	0.00e+00	0	41	0	847249408	54	5895
2026-01-21 00:54:41.98	293.78	59.16	-39.6	-40.4	23.9	0.00e+00	58	41	0	849346560	52	6024
2026-01-21 00:54:42.99	294.46	58.90	-39.9	-40.7	23.8	0.00e+00	0	41	0	850395136	52	6233
2026-01-21 00:54:44.00	295.13	58.64	-39.5	-40.3	24.1	0.00e+00	37	42	0	852492288	52	5940
2026-01-21 00:54:45.01	295.79	58.38	-37.0	-37.8	25.5	0.00e+00	0	42	0	854589440	48	5579
2026-01-21 00:54:46.02	296.43	58.11	-37.2	-37.9	25.6	0.00e+00	90	41	0	856686592	48	5695
2026-01-21 00:54:47.03	297.06	57.84	-36.8	-37.5	25.8	0.00e+00	1	41	0	858783744	46	6051
2026-01-21 00:54:48.04	297.68	57.58	-37.2	-38.0	25.4	0.00e+00	0	41	0	860880896	46	6398
2026-01-21 00:54:49.05	298.28	57.30	-37.2	-38.0	25.4	0.00e+00	92	41	0	861929472	46	6437
2026-01-21 00:54:50.06	298.87	57.03	-38.3	-39.2	24.6	0.00e+00	0	41	0	864026624	48	6587
2026-01-21 00:54:51.07	299.46	56.76	-40.0	-41.0	23.3	0.00e+00	34	41	0	866123776	52	6451
2026-01-21 00:54:52.08	300.03	56.48	-39.1	-40.0	24.1	0.00e+00	0	41	0	868220928	52	5715
2026-01-21 00:54:53.09	300.59	56.21	-38.3	-39.1	24.8	0.00e+00	90	41	0	870318080	50	5787
2026-01-21 00:54:54.09	301.13	55.93	-38.1	-38.9	24.9	0.00e+00	0	41	0	871366656	50	5649
2026-01-21 00:54:55.10	301.67	55.65	-39.5	-40.3	24.0	0.00e+00	32	41	0	873463808	50	6690
2026-01-21 00:54:56.11	302.19	55.37	-38.7	-39.5	24.7	0.00e+00	79	41	0	875560960	50	6062
2026-01-21 00:54:57.12	302.71	55.09	-37.5	-38.3	25.3	0.00e+00	0	41	0	877658112	48	5904
2026-01-21 00:54:58.13	303.22	54.81	-38.7	-39.5	24.4	0.00e+00	71	41	0	879755264	48	6827
2026-01-21 00:54:59.14	303.71	54.53	-38.8	-39.6	24.4	0.00e+00	0	41	0	880803840	50	6147
2026-01-21 00:55:00.15	304.20	54.24	-40.1	-41.1	23.2	0.00e+00	92	41	0	882900992	52	6476
2026-01-21 00:55:01.16	304.68	53.96	-40.4	-41.5	23.0	0.00e+00	0	41	0	884998144	54	6038
2026-01-21 00:55:02.17	305.15	53.68	-40.9	-42.0	22.7	0.00e+00	92	41	0	887095296	54	6408
2026-01-21 00:55:03.17	305.60	53.40	-39.1	-40.0	24.3	0.00e+00	93	41	0	889192448	52	5714
2026-01-21 00:55:04.18	306.05	53.11	-37.4	-38.2	25.4	0.00e+00	0	41	0	890241024	48	5868
2026-01-21 00:55:05.19	306.50	52.83	-38.0	-38.8	24.7	0.00e+00	92	41	0	892338176	48	6264
2026-01-21 00:55:06.20	306.93	52.55	-39.5	-40.4	23.8	0.00e+00	0	41	0	894435328	50	6708
2026-01-21 00:55:07.21	307.36	52.26	-38.8	-39.7	24.4	0.00e+00	92	41	0	896532480	50	6179
2026-01-21 00:55:08.22	307.77	51.98	-38.4	-39.2	24.7	0.00e+00	0	41	0	898629632	50	5861
2026-01-21 00:55:09.23	308.18	51.69	-38.8	-39.6	24.4	0.00e+00	67	41	0	899678208	50	6162
2026-01-21 00:55:10.24	308.59	51.41	-40.0	-40.9	23.4	0.00e+00	76	41	0	901775360	52	6365
2026-01-21 00:55:11.25	308.98	51.13	-39.7	-40.6	23.8	0.00e+00	0	41	0	903872512	52	6128
2026-01-21 00:55:12.26	309.37	50.84	-38.9	-39.8	24.2	0.00e+00	91	41	0	905969664	50	6253
2026-01-21 00:55:13.27	309.75	50.56	-38.8	-39.6	24.4	0.00e+00	0	41	0	908066816	50	6135
2026-01-21 00:55:14.28	310.12	50.28	-40.6	-41.6	22.8	0.00e+00	92	41	0	909115392	52	6869
2026-01-21 00:55:15.29	310.49	50.00	-40.2	-41.1	23.4	0.00e+00	0	41	0	911212544	54	5819
2026-01-21 00:55:16.30	310.85	49.72	-38.6	-39.4	24.7	0.00e+00	91	41	0	913309696	50	5990
2026-01-21 00:55:17.31	311.20	49.44	-39.1	-40.0	24.0	0.00e+00	36	41	0	915406848	50	6405
2026-01-21 00:55:18.31	311.54	49.16	-41.2	-42.3	22.2	0.00e+00	0	41	0	917504000	54	6646
2026-01-21 00:55:19.32	311.88	48.88	-43.1	-44.5	20.6	0.00e+00	60	41	0	918552576	58	6802
2026-01-21 00:55:20.33	312.22	48.60	-42.0	-43.2	21.8	0.00e+00	0	41	0	920649728	58	5839
2026-01-21 00:55:21.34	312.55	48.33	-41.8	-42.9	22.1	0.00e+00	86	41	0	922746880	56	6375
2026-01-21 00:55:22.35	312.87	48.05	-41.8	-43.0	21.8	0.00e+00	0	41	0	924844032	56	6415
2026-01-21 00:55:23.35	313.19	47.78	-42.5	-43.8	21.2	0.00e+00	92	41	0	926941184	56	7042
2026-01-21 00:55:24.36	313.50	47.50	-41.6	-42.8	22.4	0.00e+00	88	41	0	929038336	56	6251
2026-01-21 00:55:25.37	313.80	47.23	-40.6	-41.5	23.0	0.00e+00	0	41	0	930086912	54	6087
2026-01-21 00:55:26.38	314.11	46.95	-40.5	-41.4	23.1	0.00e+00	90	41	0	932184064	54	6000
2026-01-21 00:55:27.39	314.40	46.68	-41.5	-42.5	22.0	0.00e+00	0	41	0	934281216	54	6846
2026-01-21 00:55:28.40	314.69	46.41	-42.2	-43.5	21.4	0.00e+00	79	41	0	936378368	56	6781
2026-01-21 00:55:29.41	314.98	46.14	-42.0	-43.2	21.7	0.00e+00	0	41	0	938475520	56	6558
2026-01-21 00:55:30.42	315.26	45.87	-42.5	-43.8	21.2	0.00e+00	80	41	0	939524096	56	7026
2026-01-21 00:55:31.43	315.54	45.60	-43.5	-44.9	20.3	0.00e+00	27	41	0	941621248	60	6369
2026-01-21 00:55:32.44	315.81	45.34	-42.3	-43.5	21.4	0.00e+00	0	41	0	943718400	58	6058
2026-01-21 00:55:33.45	316.08	45.07	-42.6	-43.9	21.1	0.00e+00	92	41	0	945815552	58	6332
2026-01-21 00:55:34.46	316.34	44.81	-42.7	-44.0	21.0	0.00e+00	0	41	0	947912704	58	6406
2026-01-21 00:55:35.47	316.60	44.54	-42.9	-44.1	21.0	0.00e+00	32	41	0	948961280	58	6522
2026-01-21 00:55:36.48	316.86	44.28	-44.3	-45.9	19.4	0.00e+00	0	41	0	951058432	60	7117
2026-01-21 00:55:37.49	317.11	44.02	-43.4	-44.8	20.4	0.00e+00	92	41	0	953155584	60	6290
2026-01-21 00:55:38.50	317.35	43.76	-42.7	-44.0	21.0	0.00e+00	0	41	0	955252736	60	5733
2026-01-21 00:55:39.51	317.60	43.50	-42.6	-43.8	21.6	0.00e+00	0	41	0	957349888	58	6290
2026-01-21 00:55:40.52	317.84	43.24	-41.5	-42.5	22.4	0.00e+00	90	41	0	958398464	56	6073
2026-01-21 00:55:41.53	318.07	42.99	-40.6	-41.6	23.1	0.00e+00	0	41	0	960495616	54	6104
2026-01-21 00:55:42.54	318.30	42.73	-40.1	-41.0	23.4	0.00e+00	29	41	0	962592768	54	5757
2026-01-21 00:55:43.55	318.53	42.48	-40.9	-41.9	22.7	0.00e+00	0	41	0	964689920	54	6323
2026-01-21 00:55:44.56	318.76	42.22	-42.8	-44.1	20.9	0.00e+00	80	41	0	966787072	56	7280
2026-01-21 00:55:45.57	318.98	41.97	-42.0	-43.3	21.5	0.00e+00	0	41	0	967835648	58	5931
2026-01-21 00:55:46.58	319.19	41.72	-41.0	-42.1	22.7	0.00e+00	0	41	0	969932800	56	5765
2026-01-21 00:55:47.59	319.41	41.47	-39.3	-40.2	24.1	0.00e+00	28	41	0	972029952	52	5856
2026-01-21 00:55:48.60	319.62	41.23	-38.4	-39.1	24.7	0.00e+00	0	41	0	974127104	50	5809
2026-01-21 00:55:49.61	319.83	40.98	-39.8	-40.6	23.7	0.00e+00	78	41	0	976224256	50	6923
2026-01-21 00:55:50.61	320.03	40.74	-40.9	-41.9	22.7	0.00e+00	0	41	0	977272832	54	6332
2026-01-21 00:55:51.63	320.24	40.49	-40.6	-41.5	23.0	0.00e+00	71	41	0	979369984	54	6093
2026-01-21 00:55:52.64	320.44	40.25	-41.8	-43.0	21.2	0.00e+00	0	41	0	981467136	54	7178
2026-01-21 00:55:53.65	320.63	40.01	-43.5	-45.0	20.1	0.00e+00	64	41	0	983564288	58	7179
2026-01-21 00:55:54.66	320.83	39.77	-43.3	-44.6	20.5	0.00e+00	34	41	0	985661440	58	6927
2026-01-21 00:55:55.67	321.02	39.53	-42.0	-43.1	21.8	0.00e+00	33	41	0	986710016	58	5807
2026-01-21 00:55:56.68	321.20	39.29	-40.5	-41.4	23.2	0.00e+00	50	41	0	988807168	54	6026
2026-01-21 00:55:57.68	321.39	39.06	-39.7	-40.6	23.9	0.00e+00	0	41	0	990904320	54	5466
2026-01-21 00:55:58.70	321.57	38.82	-38.4	-39.2	24.8	0.00e+00	91	41	0	993001472	50	5868
2026-01-21 00:55:59.70	321.75	38.59	-37.7	-38.4	25.2	0.00e+00	0	41	0	995098624	50	5372
2026-01-21 00:56:00.71	321.93	38.36	-38.1	-38.9	24.9	0.00e+00	60	41	0	997195776	48	6356
2026-01-21 00:56:01.72	322.10	38.13	-39.1	-40.0	24.2	0.00e+00	30	41	0	998244352	50	6395
2026-01-21 00:56:02.73	322.28	37.90	-40.8	-41.7	22.8	0.00e+00	0	41	0	1000341504	52	7005
2026-01-21 00:56:03.74	322.45	37.67	-42.9	-44.3	20.8	0.00e+00	90	41	0	1002438656	58	6617
2026-01-21 00:56:04.74	322.61	37.44	-43.2	-44.6	20.5	0.00e+00	0	41	0	1004535808	58	6903
2026-01-21 00:56:05.75	322.78	37.22	-42.6	-43.8	21.3	0.00e+00	52	41	0	1005584384	58	6292
2026-01-21 00:56:06.76	322.94	36.99	-41.6	-42.7	22.3	0.00e+00	0	41	0	1007681536	56	6210
2026-01-21 00:56:07.77	323.11	36.77	-40.3	-41.3	23.1	0.00e+00	64	42	0	1009778688	54	5923
2026-01-21 00:56:08.78	323.27	36.55	-40.2	-41.2	23.3	0.00e+00	0	41	0	1011875840	54	5829
2026-01-21 00:56:09.79	323.42	36.33	-40.5	-41.4	23.1	0.00e+00	0	41	0	1013972992	54	6023
2026-01-21 00:56:10.80	323.58	36.11	-40.4	-41.4	23.2	0.00e+00	90	41	0	1015021568	54	5976
2026-01-21 00:56:11.81	323.73	35.89	-41.2	-42.2	22.4	0.00e+00	0	41	0	1017118720	54	6564
2026-01-21 00:56:12.82	323.88	35.67	-42.3	-43.4	21.6	0.00e+00	49	41	0	1019215872	56	6751
2026-01-21 00:56:13.82	324.03	35.46	-42.9	-44.2	20.9	0.00e+00	0	41	0	1021313024	58	6557
2026-01-21 00:56:14.83	324.18	35.25	-43.0	-44.3	20.8	0.00e+00	92	41	0	1023410176	58	6624
2026-01-21 00:56:15.84	324.32	35.03	-42.4	-43.6	21.3	0.00e+00	0	41	0	1025507328	58	6143
2026-01-21 00:56:16.85	324.47	34.82	-42.1	-43.2	21.8	0.00e+00	0	41	0	1026555904	58	5868
2026-01-21 00:56:17.86	324.61	34.61	-41.7	-42.7	22.0	0.00e+00	86	41	0	1028653056	58	5549
2026-01-21 00:56:18.87	324.75	34.40	-41.1	-42.1	22.6	0.00e+00	0	41	0	1030750208	56	5828
2026-01-21 00:56:19.88	324.89	34.19	-40.8	-41.8	22.5	0.00e+00	33	41	0	1032847360	56	5591
2026-01-21 00:56:20.89	325.03	33.99	-40.1	-41.0	23.6	0.00e+00	0	41	0	1034944512	54	5735
2026-01-21 00:56:21.90	325.16	33.78	-39.7	-40.5	23.8	0.00e+00	92	41	0	1035993088	52	6084
2026-01-21 00:56:22.91	325.30	33.58	-39.3	-40.1	24.1	0.00e+00	0	41	0	1038090240	52	5793
2026-01-21 00:56:23.92	325.43	33.37	-39.7	-40.6	23.8	0.00e+00	0	41	0	1040187392	52	6122
2026-01-21 00:56:24.92	325.56	33.17	-40.0	-40.9	23.5	0.00e+00	90	41	0	1042284544	52	6331
2026-01-21 00:56:25.93	325.69	32.97	-40.0	-40.8	23.5	0.00e+00	0	41	0	1044381696	52	6312
2026-01-21 00:56:26.94	325.81	32.77	-40.7	-41.6	22.9	0.00e+00	33	41	0	1045430272	54	6131
2026-01-21 00:56:27.95	325.94	32.57	-40.3	-41.2	23.3	0.00e+00	0	41	0	1047527424	54	5854
2026-01-21 00:56:28.96	326.06	32.38	-40.5	-41.5	22.8	0.00e+00	79	41	0	1049624576	54	6036
2026-01-21 00:56:29.98	326.19	32.18	-40.6	-41.5	23.2	0.00e+00	0	41	0	1051721728	54	6059
2026-01-21 00:56:30.99	326.31	31.98	-40.1	-41.0	23.4	0.00e+00	92	41	0	1053818880	54	5736
2026-01-21 00:56:32.00	326.43	31.79	-40.5	-41.4	23.0	0.00e+00	35	41	0	1054867456	54	6001
2026-01-21 00:56:33.01	326.55	31.60	-41.5	-42.5	22.1	0.00e+00	0	41	0	1056964608	54	6798
2026-01-21 00:56:34.02	326.67	31.41	-42.2	-43.3	21.5	0.00e+00	66	41	0	1059061760	56	6686
2026-01-21 00:56:35.03	326.78	31.22	-43.1	-44.3	20.7	0.00e+00	0	41	0	1061158912	58	6685
2026-01-21 00:56:36.04	326.90	31.03	-43.1	-44.4	20.7	0.00e+00	92	41	0	1063256064	58	6698
2026-01-21 00:56:37.04	327.01	30.84	-43.3	-44.6	20.5	0.00e+00	0	41	0	1064304640	58	6916
2026-01-21 00:56:38.05	327.12	30.65	-43.0	-44.3	20.7	0.00e+00	92	41	0	1066401792	58	6644
2026-01-21 00:56:39.06	327.23	30.47	-43.6	-45.0	20.1	0.00e+00	73	41	0	1068498944	58	7180
2026-01-21 00:56:40.07	327.34	30.28	-42.8	-44.1	20.8	0.00e+00	0	41	0	1070596096	58	6484
2026-01-21 00:56:41.08	327.45	30.10	-43.0	-44.3	20.7	0.00e+00	38	41	0	1072693248	58	6661
2026-01-21 00:56:42.09	327.56	29.91	-42.5	-43.7	21.1	0.00e+00	0	41	0	1073741824	58	6222
2026-01-21 00:56:43.10	327.66	29.73	-41.9	-43.0	21.7	0.00e+00	0	41	0	1075838976	58	5711
2026-01-21 00:56:44.11	327.77	29.55	-42.1	-43.2	21.4	0.00e+00	0	41	0	1077936128	58	5876
2026-01-21 00:56:45.12	327.87	29.37	-42.1	-43.2	21.6	0.00e+00	90	41	0	1080033280	58	5878
2026-01-21 00:56:46.12	327.97	29.20	-41.3	-42.2	22.5	0.00e+00	27	41	0	1082130432	56	5884
2026-01-21 00:56:47.14	328.08	29.02	-40.8	-41.8	22.8	0.00e+00	0	41	0	1083179008	56	5567
2026-01-21 00:56:48.15	328.18	28.84	-40.1	-41.0	23.3	0.00e+00	90	41	0	1085276160	54	5716
2026-01-21 00:56:49.15	328.28	28.67	-40.8	-41.8	22.8	0.00e+00	33	41	0	1087373312	54	6296
2026-01-21 00:56:50.16	328.38	28.49	-40.9	-41.9	22.3	0.00e+00	29	41	0	1089470464	54	6332
2026-01-21 00:56:51.17	328.47	28.32	-41.1	-42.1	22.5	0.00e+00	0	41	0	1091567616	54	6504
2026-01-21 00:56:52.18	328.57	28.15	-40.9	-41.9	22.7	0.00e+00	92	41	0	1093664768	54	6328
2026-01-21 00:56:53.20	328.67	27.97	-41.1	-42.1	22.4	0.00e+00	0	41	0	1094713344	54	6473
2026-01-21 00:56:54.21	328.76	27.80	-40.9	-41.8	22.7	0.00e+00	0	41	0	1096810496	54	6315
2026-01-21 00:56:55.21	328.85	27.63	-41.0	-42.0	22.6	0.00e+00	92	41	0	1098907648	54	6395
2026-01-21 00:56:56.23	328.95	27.46	-41.1	-42.1	22.4	0.00e+00	0	41	0	1101004800	54	6532
2026-01-21 00:56:57.24	329.04	27.30	-40.5	-41.5	22.9	0.00e+00	29	41	0	1103101952	54	6070
2026-01-21 00:56:58.25	329.13	27.13	-40.6	-41.6	22.7	0.00e+00	0	41	0	1104150528	54	6152
2026-01-21 00:56:59.25	329.22	26.97	-40.9	-41.9	22.6	0.00e+00	91	41	0	1106247680	54	6327
2026-01-21 00:57:00.26	329.31	26.80	-41.0	-42.0	22.5	0.00e+00	0	41	0	1108344832	54	6448
2026-01-21 00:57:01.27	329.40	26.64	-41.1	-42.1	22.4	0.00e+00	43	41	0	1110441984	54	6534
2026-01-21 00:57:02.28	329.48	26.47	-41.2	-42.2	22.4	0.00e+00	92	41	0	1112539136	54	6588
2026-01-21 00:57:03.29	329.57	26.31	-40.9	-41.8	22.7	0.00e+00	0	41	0	1113587712	54	6312
2026-01-21 00:57:04.30	329.66	26.15	-40.5	-41.5	22.8	0.00e+00	59	41	0	1115684864	54	6069
2026-01-21 00:57:05.31	329.74	25.99	-40.5	-41.5	22.7	0.00e+00	0	41	0	1117782016	54	6041
2026-01-21 00:57:06.32	329.83	25.83	-40.5	-41.4	22.9	0.00e+00	90	41	0	1119879168	54	6006
2026-01-21 00:57:07.33	329.91	25.67	-40.7	-41.7	22.7	0.00e+00	0	41	0	1121976320	54	6207
2026-01-21 00:57:08.34	329.99	25.52	-40.6	-41.5	22.8	0.00e+00	92	41	0	1123024896	54	6097
2026-01-21 00:57:09.35	330.07	25.36	-40.8	-41.7	22.7	0.00e+00	32	41	0	1125122048	54	6242
2026-01-21 00:57:10.35	330.15	25.21	-40.9	-41.9	22.6	0.00e+00	0	41	0	1127219200	54	6384
2026-01-21 00:57:11.36	330.23	25.05	-41.0	-42.1	22.4	0.00e+00	35	41	0	1129316352	54	6471
2026-01-21 00:57:12.37	330.31	24.90	-40.7	-41.7	22.8	0.00e+00	0	41	0	1131413504	54	6176
2026-01-21 00:57:13.38	330.39	24.74	-40.4	-41.4	23.0	0.00e+00	92	41	0	1132462080	54	5965
2026-01-21 00:57:14.39	330.47	24.59	-40.5	-41.4	22.9	0.00e+00	0	41	0	1134559232	54	6028
2026-01-21 00:57:15.40	330.55	24.44	-40.2	-41.2	23.1	0.00e+00	92	41	0	1136656384	54	5864
2026-01-21 00:57:16.40	330.62	24.29	-40.6	-41.6	22.8	0.00e+00	0	41	0	1138753536	54	6166
2026-01-21 00:57:17.41	330.70	24.14	-41.0	-42.0	22.6	0.00e+00	0	41	0	1140850688	54	6430
2026-01-21 00:57:18.43	330.78	23.99	-40.9	-41.9	22.6	0.00e+00	92	41	0	1141899264	54	6332
2026-01-21 00:57:19.44	330.85	23.84	-40.3	-41.3	23.1	0.00e+00	0	41	0	1143996416	54	5931
2026-01-21 00:57:20.44	330.92	23.70	-39.7	-40.6	23.6	0.00e+00	92	41	0	1146093568	52	6117
2026-01-21 00:57:21.45	331.00	23.55	-39.6	-40.5	23.6	0.00e+00	0	41	0	1148190720	52	6098
2026-01-21 00:57:22.46	331.07	23.40	-39.2	-40.1	23.9	0.00e+00	92	41	0	1150287872	52	5768
2026-01-21 00:57:23.48	331.14	23.26	-39.1	-39.9	24.1	0.00e+00	0	42	0	1151336448	52	5663
2026-01-21 00:57:24.48	331.21	23.11	-38.9	-39.7	24.3	0.00e+00	0	41	0	1153433600	52	5527
2026-01-21 00:57:25.50	331.29	22.97	-38.5	-39.3	24.5	0.00e+00	90	41	0	1155530752	50	5914
2026-01-21 00:57:26.50	331.35	22.83	-37.8	-38.6	25.0	0.00e+00	0	41	0	1157627904	50	5442
2026-01-21 00:57:27.51	331.42	22.69	-37.8	-38.5	25.0	0.00e+00	55	41	0	1159725056	50	5432
2026-01-21 00:57:28.52	331.49	22.54	-37.8	-38.6	24.2	0.00e+00	0	41	0	1161822208	50	5451
2026-01-21 00:57:29.53	331.56	22.40	-37.8	-38.6	24.8	0.00e+00	92	41	0	1162870784	48	6129
2026-01-21 00:57:30.54	331.63	22.26	-37.9	-38.7	25.0	0.00e+00	0	41	0	1164967936	48	6198
2026-01-21 00:57:31.55	331.70	22.12	-37.9	-38.6	25.0	0.00e+00	0	41	0	1167065088	48	6155
2026-01-21 00:57:32.56	331.76	21.99	-38.2	-38.9	24.6	0.00e+00	91	41	0	1169162240	48	6387
2026-01-21 00:57:33.57	331.83	21.85	-38.7	-39.5	24.3	0.00e+00	0	41	0	1171259392	48	6803
2026-01-21 00:57:34.58	331.90	21.71	-38.8	-39.6	24.3	0.00e+00	23	41	0	1172307968	50	6107
2026-01-21 00:57:35.59	331.96	21.58	-39.1	-39.9	24.0	0.00e+00	0	41	0	1174405120	50	6344
2026-01-21 00:57:36.59	332.03	21.44	-38.9	-39.8	24.1	0.00e+00	92	41	0	1176502272	50	6251
2026-01-21 00:57:37.61	332.09	21.31	-38.8	-39.6	24.2	0.00e+00	0	41	0	1178599424	50	6126
2026-01-21 00:57:38.62	332.15	21.17	-39.3	-40.2	23.8	0.00e+00	0	41	0	1180696576	50	6551
2026-01-21 00:57:39.63	332.22	21.04	-39.5	-40.4	23.6	0.00e+00	66	41	0	1181745152	50	6722
2026-01-21 00:57:40.64	332.28	20.90	-39.3	-40.1	23.8	0.00e+00	0	41	0	1183842304	50	6524
2026-01-21 00:57:41.65	332.34	20.77	-39.4	-40.2	23.8	0.00e+00	67	41	0	1185939456	50	6597
2026-01-21 00:57:42.66	332.40	20.64	-39.3	-40.2	23.9	0.00e+00	0	41	0	1188036608	50	6543
2026-01-21 00:57:43.66	332.46	20.51	-39.3	-40.1	24.0	0.00e+00	0	41	0	1190133760	50	6503
2026-01-21 00:57:44.67	332.52	20.38	-39.2	-40.0	23.9	0.00e+00	0	41	0	1191182336	50	6450
2026-01-21 00:57:45.68	332.58	20.25	-38.7	-39.5	24.3	0.00e+00	0	41	0	1193279488	50	6067
2026-01-21 00:57:46.69	332.64	20.12	-38.7	-39.5	24.3	0.00e+00	42	41	0	1195376640	50	6079
2026-01-21 00:57:47.70	332.70	19.99	-38.6	-39.4	24.3	0.00e+00	0	41	0	1197473792	50	6032
2026-01-21 00:57:48.71	332.76	19.87	-38.7	-39.5	24.2	0.00e+00	63	41	0	1199570944	50	6096
2026-01-21 00:57:49.72	332.82	19.74	-38.5	-39.3	24.5	0.00e+00	0	41	0	1200619520	50	5900
