passes_logs/2026/01/21/R4.6S_Anadyr/R4.6S_Anadyr__20260121_014420_FENGYUN_3D_rec.log

#Pass ID: 20260121_014420_FENGYUN 3D
#Satellite: FENGYUN 3D
#Configuration: FENGYUN 3D
#almurnet v.1.7.20251203
#Start time: 2026-01-21 01:44:23

#Version: 2.2.20231116
#Station: R4.6S_Anadyr
#Location: 177.4865 lon 64.73178 lat
#TLE: 1 43010U 17072A   26020.28933472  .00000051  00000+0  46008-4 0  9990
#TLE: 2 43010  98.9944 352.1871 0002476  99.7001 260.4455 14.19696838424006

#Time	Az	El	Level	Level2	SNR	BER	BlckErr	Temp	State	Recorded	gain1	gain2
2026-01-21 01:44:23.71	142.98	0.18	-53.8	-64.5	3.3	8.40e-01	0	40	0	0	60	60695
2026-01-21 01:44:24.71	142.97	0.24	-52.5	-64.7	3.6	8.45e-01	0	40	104	0	60	61830
2026-01-21 01:44:25.72	142.95	0.31	-52.3	-64.5	3.6	8.45e-01	0	40	104	0	60	60419
2026-01-21 01:44:26.73	142.94	0.37	-51.9	-64.0	3.6	8.45e-01	0	40	104	0	60	57568
2026-01-21 01:44:27.74	142.93	0.43	-51.9	-64.1	3.6	8.45e-01	0	40	104	0	60	58121
2026-01-21 01:44:28.75	142.92	0.49	-52.1	-64.3	3.6	8.45e-01	0	40	104	0	60	59019
2026-01-21 01:44:29.76	142.91	0.55	-51.9	-64.0	3.6	8.46e-01	0	40	104	0	60	57368
2026-01-21 01:44:30.77	142.90	0.61	-51.6	-63.8	3.6	8.44e-01	0	40	104	0	60	55939
2026-01-21 01:44:31.78	142.89	0.67	-51.5	-63.7	3.6	8.45e-01	0	40	104	0	60	55076
2026-01-21 01:44:32.79	142.88	0.74	-51.4	-63.6	3.6	8.45e-01	0	40	104	0	60	54483
2026-01-21 01:44:33.81	142.86	0.80	-51.3	-63.5	3.6	8.44e-01	0	40	104	0	60	54023
2026-01-21 01:44:34.81	142.85	0.86	-51.5	-63.6	3.6	8.46e-01	0	40	104	0	60	54511
2026-01-21 01:44:35.82	142.84	0.92	-51.7	-63.9	3.6	8.46e-01	0	40	104	0	60	56825
2026-01-21 01:44:36.83	142.83	0.98	-51.7	-63.8	3.6	8.45e-01	0	40	104	0	60	56131
2026-01-21 01:44:37.84	142.82	1.05	-51.2	-63.4	3.6	8.46e-01	0	40	104	0	60	53188
2026-01-21 01:44:38.85	142.80	1.11	-51.0	-63.2	3.6	8.45e-01	0	40	104	0	60	52120
2026-01-21 01:44:39.86	142.79	1.17	-50.8	-62.9	3.6	8.44e-01	0	40	104	0	60	50418
2026-01-21 01:44:40.87	142.78	1.23	-50.5	-62.6	3.6	8.47e-01	0	40	104	0	60	48979
2026-01-21 01:44:41.88	142.77	1.30	-50.4	-62.6	3.6	8.45e-01	0	40	104	0	60	48762
2026-01-21 01:44:42.89	142.76	1.36	-50.2	-62.4	3.6	8.45e-01	0	40	104	0	60	47559
2026-01-21 01:44:43.90	142.74	1.42	-49.1	-61.5	3.6	8.46e-01	0	40	104	0	60	42775
2026-01-21 01:44:44.91	142.73	1.49	-48.3	-60.2	3.5	8.45e-01	0	40	104	0	60	36846
2026-01-21 01:44:45.92	142.72	1.55	-48.1	-60.5	3.6	8.46e-01	0	40	104	0	60	38091
2026-01-21 01:44:46.93	142.71	1.62	-47.9	-60.3	3.6	8.46e-01	0	40	104	0	60	37504
2026-01-21 01:44:47.94	142.69	1.68	-48.4	-60.4	3.5	8.46e-01	0	40	104	0	60	38040
2026-01-21 01:44:48.95	142.68	1.74	-48.3	-60.7	3.6	8.44e-01	0	40	104	0	60	39218
2026-01-21 01:44:49.96	142.67	1.81	-48.4	-60.7	3.6	8.45e-01	0	40	104	0	60	38993
2026-01-21 01:44:50.97	142.66	1.87	-48.3	-60.7	3.6	8.45e-01	0	40	104	0	60	39012
2026-01-21 01:44:51.98	142.64	1.94	-48.1	-60.5	3.6	8.47e-01	0	40	104	0	60	38280
2026-01-21 01:44:52.99	142.63	2.00	-48.2	-60.6	3.6	8.45e-01	0	40	104	0	60	38674
2026-01-21 01:44:54.00	142.62	2.07	-48.8	-61.2	3.6	8.46e-01	0	40	104	0	60	41290
2026-01-21 01:44:55.01	142.60	2.13	-48.4	-60.8	3.6	8.45e-01	0	40	104	0	60	39575
2026-01-21 01:44:56.01	142.59	2.19	-48.3	-60.7	3.6	8.47e-01	0	40	104	0	60	39190
2026-01-21 01:44:57.02	142.58	2.26	-48.4	-60.4	3.6	8.45e-01	0	40	104	0	60	38042
2026-01-21 01:44:58.03	142.56	2.32	-48.3	-60.6	3.6	8.46e-01	0	40	104	0	60	38579
2026-01-21 01:44:59.04	142.55	2.39	-48.5	-60.8	3.6	8.46e-01	0	40	104	0	60	39639
2026-01-21 01:45:00.05	142.54	2.46	-48.2	-60.5	3.6	8.45e-01	0	41	104	0	60	38230
2026-01-21 01:45:01.06	142.52	2.52	-48.2	-60.3	3.6	8.45e-01	0	40	104	0	60	37575
2026-01-21 01:45:02.07	142.51	2.59	-47.9	-60.3	3.6	8.46e-01	0	40	104	0	60	37306
2026-01-21 01:45:03.08	142.50	2.65	-48.1	-60.2	3.6	8.45e-01	0	40	104	0	60	37164
2026-01-21 01:45:04.09	142.48	2.72	-47.9	-60.3	3.6	8.46e-01	0	40	104	0	60	37220
2026-01-21 01:45:05.10	142.47	2.79	-48.1	-60.3	3.6	8.45e-01	0	40	104	0	60	37351
2026-01-21 01:45:06.11	142.46	2.85	-48.0	-60.0	3.6	8.46e-01	0	40	104	0	60	36205
2026-01-21 01:45:07.12	142.44	2.92	-47.2	-59.5	3.6	8.45e-01	0	40	104	0	60	34140
2026-01-21 01:45:08.13	142.43	2.99	-47.8	-57.8	3.6	8.46e-01	0	40	104	0	60	28105
2026-01-21 01:45:09.14	142.41	3.05	-47.7	-59.0	3.6	8.45e-01	0	40	104	0	60	32292
2026-01-21 01:45:10.15	142.40	3.12	-47.8	-57.5	3.6	8.43e-01	0	40	104	0	60	27164
2026-01-21 01:45:11.16	142.39	3.19	-47.6	-55.8	3.7	8.41e-01	0	40	0	0	60	22314
2026-01-21 01:45:12.17	142.37	3.26	-47.6	-56.5	4.1	8.93e-01	0	40	104	0	60	24021
2026-01-21 01:45:13.18	142.36	3.32	-47.3	-54.1	4.6	7.58e-01	0	40	104	0	60	18431
2026-01-21 01:45:14.19	142.34	3.39	-47.7	-53.6	4.4	7.08e-01	0	41	0	0	60	17308
2026-01-21 01:45:15.20	142.33	3.46	-47.2	-52.6	5.9	7.64e-01	0	41	0	0	60	15505
2026-01-21 01:45:16.21	142.31	3.53	-47.3	-52.8	6.0	3.50e-01	0	41	0	5242880	60	15811
2026-01-21 01:45:17.22	142.30	3.60	-47.0	-52.1	6.0	3.04e-01	0	41	0	11534336	60	14536
2026-01-21 01:45:18.23	142.28	3.66	-47.3	-53.4	4.8	5.28e-01	0	41	0	16777216	60	16998
2026-01-21 01:45:19.24	142.27	3.73	-48.1	-58.4	3.6	8.45e-01	0	41	104	16777216	60	30198
2026-01-21 01:45:20.24	142.25	3.80	-47.9	-57.2	4.0	8.43e-01	0	41	104	16777216	60	26313
2026-01-21 01:45:21.26	142.24	3.87	-47.8	-56.9	3.9	8.41e-01	0	41	104	16777216	60	25411
2026-01-21 01:45:22.26	142.22	3.94	-45.7	-48.8	9.5	4.54e-04	0	41	0	17825792	60	9952
2026-01-21 01:45:23.27	142.21	4.01	-47.9	-58.7	3.6	8.44e-01	0	41	104	18874368	60	31263
2026-01-21 01:45:24.28	142.19	4.08	-44.5	-47.0	12.4	1.34e-01	0	41	104	18874368	60	8095
2026-01-21 01:45:25.29	142.18	4.15	-45.2	-47.7	12.3	1.50e-03	0	41	0	23068672	60	8805
2026-01-21 01:45:26.30	142.16	4.22	-44.7	-47.2	12.2	5.18e-04	0	41	0	28311552	60	8266
2026-01-21 01:45:27.31	142.15	4.29	-44.8	-47.3	12.5	1.91e-04	0	41	0	33554432	60	8352
2026-01-21 01:45:28.33	142.13	4.36	-45.2	-47.8	11.7	1.53e-04	0	41	0	39845888	60	8910
2026-01-21 01:45:29.33	142.12	4.43	-44.8	-47.2	12.4	5.42e-04	0	41	0	45088768	60	8320
2026-01-21 01:45:30.34	142.10	4.50	-45.5	-47.9	12.1	4.59e-04	0	41	0	51380224	60	9024
2026-01-21 01:45:31.35	142.08	4.57	-45.0	-47.4	12.5	5.76e-04	0	41	0	56623104	60	8476
2026-01-21 01:45:32.36	142.07	4.64	-45.0	-47.3	12.3	1.83e-04	0	41	0	61865984	60	8390
2026-01-21 01:45:33.37	142.05	4.71	-45.2	-47.6	12.5	1.14e-03	0	41	0	68157440	60	8628
2026-01-21 01:45:34.38	142.04	4.78	-45.1	-47.5	12.2	6.19e-04	0	41	0	73400320	60	8562
2026-01-21 01:45:35.39	142.02	4.85	-44.8	-47.1	12.8	5.39e-04	0	41	0	79691776	60	8226
2026-01-21 01:45:36.40	142.00	4.93	-44.9	-47.3	12.6	3.16e-04	0	41	0	84934656	60	8415
2026-01-21 01:45:37.41	141.99	5.00	-44.6	-46.9	13.0	1.02e-04	0	41	0	91226112	60	8006
2026-01-21 01:45:38.42	141.97	5.07	-44.6	-46.9	12.8	1.02e-04	0	41	0	96468992	60	7977
2026-01-21 01:45:39.43	141.95	5.14	-45.0	-47.4	12.3	2.30e-04	0	41	0	102760448	60	8505
2026-01-21 01:45:40.44	141.94	5.21	-44.9	-47.1	12.7	3.54e-04	0	41	0	108003328	60	8231
2026-01-21 01:45:41.45	141.92	5.29	-44.4	-46.6	13.4	2.54e-04	0	41	0	113246208	60	7693
2026-01-21 01:45:42.46	141.90	5.36	-44.5	-46.8	12.3	3.80e-04	0	41	0	119537664	60	7887
2026-01-21 01:45:43.47	141.88	5.43	-44.7	-47.0	12.8	2.88e-04	0	41	0	124780544	60	8049
2026-01-21 01:45:44.48	141.87	5.51	-44.5	-46.7	12.6	2.70e-04	0	41	0	131072000	60	7804
2026-01-21 01:45:45.49	141.85	5.58	-44.9	-47.3	12.8	1.87e-03	0	41	0	136314880	60	8350
2026-01-21 01:45:46.50	141.83	5.65	-44.3	-46.3	13.6	1.99e-03	0	41	0	141557760	60	7501
2026-01-21 01:45:47.51	141.82	5.73	-44.4	-46.5	13.2	6.56e-04	0	41	0	147849216	60	7628
2026-01-21 01:45:48.52	141.80	5.80	-44.1	-46.0	13.5	3.23e-04	0	41	0	153092096	60	7232
2026-01-21 01:45:49.52	141.78	5.87	-44.1	-46.1	13.6	1.02e-02	0	41	0	159383552	60	7285
2026-01-21 01:45:50.53	141.76	5.95	-44.2	-46.1	12.8	5.62e-04	0	41	0	164626432	60	7261
2026-01-21 01:45:51.55	141.74	6.02	-45.4	-47.5	12.6	2.37e-02	0	41	0	169869312	60	8593
2026-01-21 01:45:52.56	141.73	6.10	-44.3	-46.1	13.5	3.47e-03	0	41	0	176160768	60	7313
2026-01-21 01:45:53.57	141.71	6.18	-44.6	-46.4	12.4	2.14e-03	0	41	0	181403648	60	7579
2026-01-21 01:45:54.58	141.69	6.25	-44.7	-46.6	12.7	5.35e-03	0	41	0	187695104	60	7766
2026-01-21 01:45:55.59	141.67	6.33	-44.7	-46.8	13.0	4.80e-03	0	41	0	192937984	60	7885
2026-01-21 01:45:56.60	141.65	6.40	-44.1	-45.8	14.4	3.64e-03	0	41	0	199229440	60	7044
2026-01-21 01:45:57.61	141.63	6.48	-44.0	-45.6	14.3	1.43e-04	0	41	0	204472320	60	6905
2026-01-21 01:45:58.62	141.62	6.55	-43.4	-44.9	15.8	1.67e-04	0	41	0	209715200	60	6367
2026-01-21 01:45:59.63	141.60	6.63	-43.8	-45.5	15.2	1.37e-04	0	41	0	216006656	60	6805
2026-01-21 01:46:00.64	141.58	6.71	-43.3	-44.8	15.5	6.88e-04	0	41	0	221249536	60	6272
2026-01-21 01:46:01.65	141.56	6.78	-42.9	-44.3	16.4	1.12e-04	0	41	0	227540992	60	5964
2026-01-21 01:46:02.66	141.54	6.86	-42.8	-44.2	15.5	1.38e-04	0	41	0	232783872	60	5855
2026-01-21 01:46:03.67	141.52	6.94	-42.6	-44.1	15.7	3.43e-05	0	41	0	239075328	58	6505
2026-01-21 01:46:04.68	141.50	7.02	-42.7	-44.2	16.0	4.50e-06	0	41	0	244318208	58	6568
2026-01-21 01:46:05.69	141.48	7.09	-42.3	-43.7	15.9	1.25e-05	0	41	0	249561088	58	6189
2026-01-21 01:46:06.70	141.46	7.17	-42.5	-43.9	16.3	2.20e-06	0	41	0	255852544	58	6331
2026-01-21 01:46:07.71	141.44	7.25	-42.2	-43.5	16.5	1.10e-06	0	41	0	261095424	58	6074
2026-01-21 01:46:08.72	141.42	7.33	-42.4	-43.6	17.3	0.00e+00	0	41	0	267386880	58	6147
2026-01-21 01:46:09.73	141.40	7.41	-42.2	-43.4	17.2	1.10e-06	0	41	0	272629760	58	6023
2026-01-21 01:46:10.74	141.38	7.49	-42.6	-43.8	17.5	0.00e+00	0	41	0	277872640	58	6285
2026-01-21 01:46:11.75	141.36	7.57	-42.3	-43.6	17.2	0.00e+00	0	41	0	284164096	58	6140
2026-01-21 01:46:12.76	141.34	7.65	-41.9	-43.1	17.5	0.00e+00	0	41	0	289406976	58	5823
2026-01-21 01:46:13.77	141.32	7.73	-42.2	-43.5	16.7	0.00e+00	0	41	0	295698432	56	6834
2026-01-21 01:46:14.78	141.30	7.81	-41.2	-42.4	18.1	0.00e+00	0	41	0	300941312	56	6000
2026-01-21 01:46:15.79	141.28	7.89	-41.7	-42.9	18.0	0.00e+00	0	41	0	307232768	56	6384
2026-01-21 01:46:16.80	141.26	7.97	-41.7	-42.9	17.7	0.00e+00	0	41	0	312475648	56	6368
2026-01-21 01:46:17.81	141.24	8.05	-41.4	-42.5	18.6	0.00e+00	0	41	0	317718528	56	6091
2026-01-21 01:46:18.82	141.22	8.13	-41.5	-42.7	18.4	0.00e+00	0	41	0	324009984	56	6192
2026-01-21 01:46:19.83	141.20	8.21	-40.7	-41.8	18.9	0.00e+00	0	41	0	329252864	56	5598
2026-01-21 01:46:20.84	141.17	8.29	-40.8	-41.8	19.5	0.00e+00	0	41	0	335544320	54	6315
2026-01-21 01:46:21.85	141.15	8.37	-40.8	-41.8	19.2	0.00e+00	0	41	0	340787200	54	6292
2026-01-21 01:46:22.86	141.13	8.45	-41.2	-42.2	19.6	0.00e+00	0	41	0	346030080	54	6601
2026-01-21 01:46:23.87	141.11	8.54	-41.2	-42.2	19.5	0.00e+00	0	41	0	352321536	54	6584
2026-01-21 01:46:24.88	141.09	8.62	-41.4	-42.4	19.2	0.00e+00	0	41	0	357564416	54	6742
2026-01-21 01:46:25.89	141.06	8.70	-40.5	-41.5	19.9	0.00e+00	0	41	0	363855872	54	6078
2026-01-21 01:46:26.90	141.04	8.79	-41.1	-42.1	19.7	0.00e+00	0	41	0	369098752	54	6475
2026-01-21 01:46:27.92	141.02	8.87	-40.0	-41.0	20.4	0.00e+00	0	41	0	374341632	54	5728
2026-01-21 01:46:28.92	141.00	8.95	-39.9	-40.9	20.6	0.00e+00	0	41	0	380633088	54	5632
2026-01-21 01:46:29.93	140.97	9.04	-40.2	-41.2	20.3	0.00e+00	0	41	0	385875968	54	5832
2026-01-21 01:46:30.94	140.95	9.12	-39.7	-40.6	20.5	0.00e+00	0	41	0	392167424	52	6133
2026-01-21 01:46:31.95	140.93	9.20	-39.8	-40.7	20.1	0.00e+00	0	41	0	397410304	52	6229
2026-01-21 01:46:32.96	140.91	9.29	-40.1	-41.1	19.9	0.00e+00	0	41	0	403701760	52	6478
2026-01-21 01:46:33.97	140.88	9.37	-39.8	-40.7	20.2	0.00e+00	0	41	0	408944640	52	6244
2026-01-21 01:46:34.98	140.86	9.46	-39.8	-40.7	20.5	0.00e+00	0	41	0	415236096	52	6239
2026-01-21 01:46:35.99	140.84	9.55	-40.0	-40.9	20.3	0.00e+00	0	41	0	420478976	52	6368
2026-01-21 01:46:36.99	140.81	9.63	-40.3	-41.3	19.8	0.00e+00	0	41	0	425721856	52	6620
2026-01-21 01:46:38.01	140.79	9.72	-39.9	-40.8	20.3	0.00e+00	0	41	0	432013312	52	6287
2026-01-21 01:46:39.02	140.76	9.80	-39.8	-40.7	20.8	0.00e+00	0	41	0	437256192	52	6202
2026-01-21 01:46:40.02	140.74	9.89	-39.7	-40.6	20.6	0.00e+00	0	41	0	443547648	52	6126
2026-01-21 01:46:41.03	140.71	9.98	-39.8	-40.7	20.8	0.00e+00	0	41	0	448790528	52	6219
2026-01-21 01:46:42.04	140.69	10.06	-39.2	-40.1	21.2	0.00e+00	0	41	0	454033408	52	5788
2026-01-21 01:46:43.05	140.67	10.15	-39.3	-40.1	21.3	0.00e+00	0	41	0	460324864	52	5821
2026-01-21 01:46:44.06	140.64	10.24	-39.4	-40.2	21.0	0.00e+00	0	41	0	465567744	52	5884
2026-01-21 01:46:45.07	140.62	10.33	-39.1	-40.0	20.9	0.00e+00	0	41	0	470810624	52	5737
2026-01-21 01:46:46.08	140.59	10.42	-39.3	-40.1	21.5	0.00e+00	0	41	0	477102080	52	5827
2026-01-21 01:46:47.09	140.56	10.51	-39.3	-40.1	21.4	0.00e+00	0	41	0	482344960	52	5827
2026-01-21 01:46:48.10	140.54	10.60	-39.2	-40.1	21.2	0.00e+00	0	41	0	488636416	52	5765
2026-01-21 01:46:49.11	140.51	10.69	-38.6	-39.4	21.6	0.00e+00	0	41	0	493879296	50	6015
2026-01-21 01:46:50.12	140.49	10.78	-38.7	-39.5	21.5	0.00e+00	0	41	0	500170752	50	6096
2026-01-21 01:46:51.12	140.46	10.86	-38.5	-39.3	21.6	0.00e+00	0	41	0	505413632	50	5947
2026-01-21 01:46:52.14	140.43	10.96	-38.4	-39.2	21.8	0.00e+00	0	41	0	511705088	50	5868
2026-01-21 01:46:53.15	140.41	11.05	-38.3	-39.2	21.8	0.00e+00	0	41	0	516947968	50	5834
2026-01-21 01:46:54.15	140.38	11.14	-38.4	-39.2	19.0	0.00e+00	0	41	0	522190848	50	5872
2026-01-21 01:46:55.16	140.35	11.23	-38.8	-39.6	21.8	0.00e+00	0	41	0	528482304	50	6142
2026-01-21 01:46:56.17	140.33	11.32	-38.8	-39.6	22.0	0.00e+00	0	41	0	533725184	50	6160
2026-01-21 01:46:57.18	140.30	11.41	-38.5	-39.3	22.2	0.00e+00	0	41	0	540016640	50	5901
2026-01-21 01:46:58.19	140.27	11.51	-38.6	-39.4	22.0	0.00e+00	0	41	0	545259520	50	5989
2026-01-21 01:46:59.20	140.25	11.60	-38.2	-38.9	22.3	0.00e+00	0	41	0	550502400	50	5691
2026-01-21 01:47:00.21	140.22	11.69	-38.4	-39.2	22.2	0.00e+00	0	41	0	556793856	50	5845
2026-01-21 01:47:01.22	140.19	11.79	-38.7	-39.5	22.4	0.00e+00	0	41	0	562036736	50	6081
2026-01-21 01:47:02.23	140.16	11.88	-38.0	-38.8	22.8	0.00e+00	0	41	0	568328192	50	5582
2026-01-21 01:47:03.24	140.13	11.97	-37.9	-38.7	22.9	0.00e+00	0	41	0	573571072	50	5529
2026-01-21 01:47:04.25	140.10	12.07	-37.8	-38.5	22.9	0.00e+00	0	41	0	578813952	48	6091
2026-01-21 01:47:05.26	140.08	12.16	-37.5	-38.2	23.2	0.00e+00	0	41	0	585105408	48	5882
2026-01-21 01:47:06.27	140.05	12.26	-37.4	-38.1	23.4	0.00e+00	0	41	0	590348288	48	5811
2026-01-21 01:47:07.28	140.02	12.35	-37.4	-38.1	23.4	0.00e+00	0	41	0	596639744	48	5785
2026-01-21 01:47:08.29	139.99	12.45	-37.3	-38.0	23.4	0.00e+00	0	41	0	601882624	48	5750
2026-01-21 01:47:09.29	139.96	12.55	-37.9	-38.7	22.9	0.00e+00	0	41	0	608174080	48	6181
2026-01-21 01:47:10.30	139.93	12.64	-37.8	-38.6	23.4	0.00e+00	0	41	0	613416960	48	6122
2026-01-21 01:47:11.31	139.90	12.74	-36.9	-37.6	24.0	0.00e+00	0	41	0	618659840	48	5489
2026-01-21 01:47:12.32	139.87	12.84	-39.0	-39.8	23.2	0.00e+00	0	41	0	624951296	50	6265
2026-01-21 01:47:13.34	139.84	12.94	-37.6	-38.3	23.7	0.00e+00	0	41	0	630194176	48	5903
2026-01-21 01:47:14.35	139.81	13.04	-38.5	-39.2	23.6	0.00e+00	0	41	0	636485632	48	6565
2026-01-21 01:47:15.36	139.77	13.13	-36.8	-37.5	24.5	0.00e+00	0	41	0	641728512	48	5411
2026-01-21 01:47:16.36	139.74	13.23	-37.4	-38.2	24.0	0.00e+00	0	41	0	646971392	48	5836
2026-01-21 01:47:17.37	139.71	13.33	-36.4	-37.1	24.8	0.00e+00	0	41	0	653262848	46	5768
2026-01-21 01:47:18.38	139.68	13.43	-36.6	-37.3	24.7	0.00e+00	0	41	0	658505728	46	5905
2026-01-21 01:47:19.39	139.65	13.53	-36.6	-37.3	24.6	0.00e+00	0	41	0	664797184	46	5906
2026-01-21 01:47:20.40	139.62	13.63	-36.7	-37.4	24.6	0.00e+00	0	41	0	670040064	46	5987
2026-01-21 01:47:21.41	139.58	13.73	-37.2	-37.9	24.1	0.00e+00	0	41	0	676331520	46	6365
2026-01-21 01:47:22.42	139.55	13.84	-37.0	-37.7	24.2	0.00e+00	0	41	0	681574400	46	6206
2026-01-21 01:47:23.43	139.52	13.94	-37.1	-37.8	24.5	0.00e+00	0	41	0	686817280	46	6296
2026-01-21 01:47:24.44	139.49	14.04	-37.2	-37.9	24.1	0.00e+00	0	41	0	693108736	46	6352
2026-01-21 01:47:25.45	139.45	14.14	-37.3	-38.0	24.1	0.00e+00	0	41	0	698351616	46	6426
2026-01-21 01:47:26.46	139.42	14.25	-37.7	-38.5	23.7	0.00e+00	0	41	0	704643072	48	6059
2026-01-21 01:47:27.47	139.38	14.35	-36.7	-37.4	24.7	0.00e+00	0	41	0	709885952	46	6029
2026-01-21 01:47:28.48	139.35	14.46	-36.7	-37.3	24.9	0.00e+00	0	41	0	716177408	46	5957
2026-01-21 01:47:29.49	139.32	14.56	-35.9	-36.5	25.4	0.00e+00	0	41	0	721420288	46	5432
2026-01-21 01:47:30.50	139.28	14.66	-35.8	-36.5	25.4	0.00e+00	0	41	0	726663168	44	6073
2026-01-21 01:47:31.51	139.25	14.77	-35.7	-36.4	25.5	0.00e+00	0	41	0	732954624	44	5998
2026-01-21 01:47:32.52	139.21	14.88	-35.5	-36.2	25.5	0.00e+00	0	41	0	738197504	44	5858
2026-01-21 01:47:33.53	139.17	14.98	-35.7	-36.4	25.5	0.00e+00	0	41	0	744488960	44	5990
2026-01-21 01:47:34.54	139.14	15.09	-35.7	-36.4	25.6	0.00e+00	0	41	0	749731840	44	5990
2026-01-21 01:47:35.55	139.10	15.20	-35.8	-36.4	25.7	0.00e+00	0	41	0	754974720	44	6001
2026-01-21 01:47:36.56	139.07	15.30	-35.7	-36.3	25.7	0.00e+00	0	41	0	761266176	44	5960
2026-01-21 01:47:37.57	139.03	15.41	-35.7	-36.4	25.7	0.00e+00	0	41	0	766509056	44	5977
2026-01-21 01:47:38.58	138.99	15.52	-35.6	-36.3	25.6	0.00e+00	0	41	0	772800512	44	5916
2026-01-21 01:47:39.59	138.96	15.63	-35.6	-36.3	25.8	0.00e+00	0	41	0	778043392	44	5897
2026-01-21 01:47:40.61	138.92	15.74	-35.4	-36.1	25.8	0.00e+00	0	41	0	783286272	44	5793
2026-01-21 01:47:41.61	138.88	15.85	-35.4	-36.1	26.0	0.00e+00	0	41	0	789577728	44	5776
2026-01-21 01:47:42.63	138.84	15.96	-35.2	-35.8	26.0	0.00e+00	0	41	0	794820608	44	5597
2026-01-21 01:47:43.64	138.80	16.07	-35.1	-35.8	26.0	0.00e+00	0	41	0	801112064	44	5572
2026-01-21 01:47:44.65	138.76	16.19	-35.4	-36.0	26.1	0.00e+00	0	41	0	806354944	44	5737
2026-01-21 01:47:45.65	138.73	16.30	-35.4	-36.0	26.3	0.00e+00	0	41	0	812646400	44	5761
2026-01-21 01:47:46.66	138.69	16.41	-35.4	-36.0	26.1	0.00e+00	0	41	0	817889280	44	5730
2026-01-21 01:47:47.67	138.65	16.52	-35.2	-35.9	26.2	0.00e+00	0	41	0	824180736	44	5656
2026-01-21 01:47:48.68	138.61	16.64	-35.0	-35.6	26.2	0.00e+00	0	41	0	829423616	44	5489
2026-01-21 01:47:49.69	138.57	16.75	-34.6	-35.3	26.3	0.00e+00	0	41	0	834666496	42	5941
2026-01-21 01:47:50.71	138.52	16.87	-34.3	-35.0	26.5	0.00e+00	0	41	0	840957952	42	5705
2026-01-21 01:47:51.71	138.48	16.98	-34.3	-35.0	26.5	0.00e+00	0	41	0	846200832	42	5737
2026-01-21 01:47:52.73	138.44	17.10	-34.4	-35.1	26.5	0.00e+00	0	41	0	852492288	42	5766
2026-01-21 01:47:53.74	138.40	17.21	-34.4	-35.0	26.4	0.00e+00	0	41	0	857735168	42	5747
2026-01-21 01:47:54.75	138.36	17.33	-34.2	-34.9	26.6	0.00e+00	0	41	0	862978048	42	5636
2026-01-21 01:47:55.76	138.32	17.45	-34.5	-35.1	26.6	0.00e+00	0	41	0	869269504	42	5808
2026-01-21 01:47:56.77	138.27	17.57	-34.8	-35.5	26.5	0.00e+00	0	41	0	874512384	42	6034
2026-01-21 01:47:57.78	138.23	17.68	-34.9	-35.5	26.6	0.00e+00	0	41	0	880803840	42	6099
2026-01-21 01:47:58.79	138.19	17.80	-34.8	-35.4	26.6	0.00e+00	0	41	0	886046720	42	6020
2026-01-21 01:47:59.80	138.14	17.92	-34.7	-35.3	26.3	0.00e+00	0	41	0	892338176	42	5958
2026-01-21 01:48:00.81	138.10	18.04	-34.8	-35.4	26.2	0.00e+00	0	41	0	897581056	42	6000
2026-01-21 01:48:01.82	138.05	18.16	-34.8	-35.4	26.8	0.00e+00	0	41	0	902823936	42	5996
2026-01-21 01:48:02.83	138.01	18.28	-34.7	-35.4	26.7	0.00e+00	0	41	0	909115392	42	5994
2026-01-21 01:48:03.84	137.96	18.41	-34.7	-35.4	26.7	0.00e+00	0	41	0	914358272	42	5975
2026-01-21 01:48:04.85	137.92	18.53	-34.9	-35.6	26.6	0.00e+00	0	41	0	920649728	42	6113
2026-01-21 01:48:05.86	137.87	18.65	-34.4	-35.0	26.8	0.00e+00	0	41	0	925892608	42	5758
2026-01-21 01:48:06.87	137.82	18.78	-34.5	-35.1	26.6	0.00e+00	0	41	0	932184064	42	5813
2026-01-21 01:48:07.88	137.78	18.90	-34.2	-34.9	26.8	0.00e+00	0	41	0	937426944	42	5646
2026-01-21 01:48:08.89	137.73	19.02	-34.2	-34.8	26.9	0.00e+00	0	41	0	942669824	42	5619
2026-01-21 01:48:09.90	137.68	19.15	-36.1	-36.7	26.1	0.00e+00	0	41	0	948961280	42	6999
2026-01-21 01:48:10.90	137.63	19.28	-34.6	-35.2	26.6	0.00e+00	0	41	0	954204160	42	5894
2026-01-21 01:48:11.91	137.59	19.40	-35.2	-35.9	26.1	0.00e+00	0	41	0	959447040	42	6368
2026-01-21 01:48:12.92	137.54	19.53	-34.6	-35.3	26.7	0.00e+00	0	41	0	965738496	42	5916
2026-01-21 01:48:13.93	137.49	19.66	-34.8	-35.4	27.0	0.00e+00	0	41	0	970981376	42	6010
2026-01-21 01:48:14.95	137.44	19.79	-34.5	-35.1	26.9	0.00e+00	0	41	0	977272832	42	5781
2026-01-21 01:48:15.96	137.39	19.92	-34.5	-35.1	26.7	0.00e+00	0	41	0	982515712	42	5810
2026-01-21 01:48:16.97	137.34	20.05	-34.6	-35.3	26.9	0.00e+00	0	41	0	987758592	42	5902
2026-01-21 01:48:17.98	137.28	20.18	-35.0	-35.6	26.8	0.00e+00	0	41	0	994050048	42	6148
2026-01-21 01:48:18.99	137.23	20.31	-35.0	-35.7	26.7	0.00e+00	0	41	0	999292928	42	6209
2026-01-21 01:48:19.99	137.18	20.44	-34.4	-35.0	26.9	0.00e+00	0	41	0	1005584384	42	5706
2026-01-21 01:48:21.01	137.13	20.57	-34.8	-35.5	26.7	0.00e+00	0	41	0	1010827264	42	6039
2026-01-21 01:48:22.02	137.07	20.71	-34.6	-35.2	26.8	0.00e+00	0	41	0	1017118720	42	5868
2026-01-21 01:48:23.03	137.02	20.84	-35.8	-36.4	26.3	0.00e+00	0	41	0	1022361600	42	6722
2026-01-21 01:48:24.04	136.97	20.97	-34.5	-35.1	27.0	0.00e+00	0	41	0	1028653056	42	5819
2026-01-21 01:48:25.05	136.91	21.11	-34.6	-35.2	26.9	0.00e+00	0	41	0	1033895936	42	5872
2026-01-21 01:48:26.06	136.86	21.25	-35.0	-35.7	26.6	0.00e+00	0	41	0	1039138816	42	6180
2026-01-21 01:48:27.07	136.80	21.38	-34.7	-35.3	26.9	0.00e+00	0	41	0	1045430272	42	5941
2026-01-21 01:48:28.08	136.74	21.52	-34.4	-35.1	27.0	0.00e+00	0	41	0	1050673152	42	5768
2026-01-21 01:48:29.09	136.69	21.66	-34.3	-34.9	27.1	0.00e+00	0	41	0	1056964608	42	5656
2026-01-21 01:48:30.10	136.63	21.80	-34.5	-35.1	27.1	0.00e+00	0	41	0	1062207488	42	5826
2026-01-21 01:48:31.11	136.57	21.94	-34.2	-34.9	27.2	0.00e+00	0	41	0	1067450368	42	5645
2026-01-21 01:48:32.12	136.51	22.08	-34.2	-34.8	27.2	0.00e+00	0	41	0	1073741824	42	5617
2026-01-21 01:48:33.13	136.45	22.22	-34.2	-34.8	27.4	0.00e+00	0	41	0	1078984704	42	5627
2026-01-21 01:48:34.14	136.40	22.36	-33.9	-34.5	27.4	0.00e+00	0	41	0	1085276160	42	5412
2026-01-21 01:48:35.15	136.34	22.50	-34.4	-35.0	27.2	0.00e+00	0	41	0	1090519040	42	5721
2026-01-21 01:48:36.15	136.27	22.64	-33.6	-34.2	27.5	0.00e+00	0	41	0	1096810496	40	5895
2026-01-21 01:48:37.16	136.21	22.79	-33.9	-34.6	27.5	0.00e+00	0	41	0	1102053376	40	6105
2026-01-21 01:48:38.17	136.15	22.93	-33.7	-34.3	27.7	0.00e+00	0	41	0	1107296256	40	5940
2026-01-21 01:48:39.18	136.09	23.08	-33.5	-34.1	27.5	0.00e+00	0	41	0	1113587712	40	5801
2026-01-21 01:48:40.19	136.03	23.22	-33.3	-33.9	27.6	0.00e+00	0	41	0	1118830592	40	5694
2026-01-21 01:48:41.20	135.96	23.37	-33.2	-33.8	27.5	0.00e+00	0	41	0	1125122048	40	5611
2026-01-21 01:48:42.21	135.90	23.52	-33.2	-33.8	27.6	0.00e+00	0	41	0	1130364928	40	5619
2026-01-21 01:48:43.22	135.83	23.67	-33.2	-33.9	27.6	0.00e+00	0	41	0	1136656384	40	5638
2026-01-21 01:48:44.23	135.77	23.82	-33.7	-34.3	27.5	0.00e+00	0	41	0	1141899264	40	5940
2026-01-21 01:48:45.24	135.70	23.97	-33.5	-34.1	27.6	0.00e+00	0	41	0	1147142144	40	5802
2026-01-21 01:48:46.25	135.63	24.12	-33.5	-34.1	27.6	0.00e+00	0	41	0	1153433600	40	5792
2026-01-21 01:48:47.26	135.57	24.27	-33.6	-34.2	27.5	0.00e+00	0	41	0	1158676480	40	5886
2026-01-21 01:48:48.27	135.50	24.43	-33.6	-34.2	27.5	0.00e+00	0	41	0	1164967936	40	5890
2026-01-21 01:48:49.28	135.43	24.58	-33.2	-33.8	27.6	0.00e+00	0	41	0	1170210816	40	5606
2026-01-21 01:48:50.29	135.36	24.73	-33.1	-33.8	27.6	0.00e+00	0	41	0	1175453696	40	5585
2026-01-21 01:48:51.30	135.29	24.89	-33.4	-34.0	27.5	0.00e+00	0	41	0	1181745152	40	5719
2026-01-21 01:48:52.31	135.22	25.05	-33.1	-33.7	27.7	0.00e+00	0	41	0	1186988032	40	5529
2026-01-21 01:48:53.32	135.14	25.20	-33.5	-34.1	27.7	0.00e+00	0	41	0	1193279488	40	5796
2026-01-21 01:48:54.33	135.07	25.36	-33.3	-34.0	27.8	0.00e+00	0	41	0	1198522368	40	5709
2026-01-21 01:48:55.33	135.00	25.52	-33.2	-33.8	27.8	0.00e+00	0	41	0	1203765248	40	5629
2026-01-21 01:48:56.34	134.93	25.68	-33.4	-34.0	27.7	0.00e+00	0	41	0	1210056704	40	5708
2026-01-21 01:48:57.35	134.85	25.84	-33.3	-34.0	27.8	0.00e+00	0	41	0	1215299584	40	5705
2026-01-21 01:48:58.36	134.77	26.00	-33.2	-33.8	27.7	0.00e+00	0	41	0	1221591040	40	5583
2026-01-21 01:48:59.37	134.70	26.16	-32.9	-33.6	27.7	0.00e+00	0	41	0	1226833920	40	5464
2026-01-21 01:49:00.38	134.62	26.33	-33.0	-33.6	27.6	0.00e+00	0	41	0	1233125376	40	5485
2026-01-21 01:49:01.39	134.54	26.49	-32.7	-33.3	27.8	0.00e+00	0	41	0	1238368256	40	5308
2026-01-21 01:49:02.40	134.46	26.66	-32.9	-33.5	27.8	0.00e+00	0	41	0	1243611136	38	6073
2026-01-21 01:49:03.41	134.38	26.82	-33.1	-33.7	27.5	0.00e+00	0	41	0	1249902592	38	6241
2026-01-21 01:49:04.42	134.30	26.99	-33.8	-34.4	27.3	0.00e+00	0	41	0	1255145472	40	5994
2026-01-21 01:49:05.43	134.22	27.16	-33.8	-34.4	27.4	0.00e+00	0	41	0	1261436928	40	6024
2026-01-21 01:49:06.44	134.14	27.33	-33.6	-34.3	27.3	0.00e+00	0	41	0	1266679808	40	5917
2026-01-21 01:49:07.45	134.05	27.50	-33.1	-33.7	27.6	0.00e+00	0	41	0	1271922688	40	5561
2026-01-21 01:49:08.46	133.97	27.67	-33.4	-34.1	27.5	0.00e+00	0	41	0	1278214144	40	5765
2026-01-21 01:49:09.47	133.88	27.84	-33.4	-34.1	27.6	0.00e+00	0	41	0	1283457024	40	5777
2026-01-21 01:49:10.48	133.80	28.02	-33.0	-33.6	27.8	0.00e+00	0	41	0	1289748480	40	5467
2026-01-21 01:49:11.49	133.71	28.19	-33.1	-33.7	27.7	0.00e+00	0	41	0	1294991360	40	5557
2026-01-21 01:49:12.50	133.62	28.37	-33.1	-33.7	27.8	0.00e+00	0	41	0	1301282816	40	5516
2026-01-21 01:49:13.51	133.53	28.54	-33.0	-33.7	27.9	0.00e+00	0	41	0	1306525696	40	5514
2026-01-21 01:49:14.52	133.44	28.72	-33.3	-33.9	27.5	0.00e+00	0	41	0	1311768576	40	5669
2026-01-21 01:49:15.53	133.35	28.90	-34.7	-35.4	27.0	0.00e+00	0	41	0	1318060032	42	5979
2026-01-21 01:49:16.54	133.26	29.08	-33.9	-34.5	27.2	0.00e+00	0	41	0	1323302912	42	5422
2026-01-21 01:49:17.55	133.16	29.26	-33.8	-34.4	27.3	0.00e+00	0	41	0	1329594368	40	6022
2026-01-21 01:49:18.56	133.07	29.44	-34.1	-34.8	27.1	0.00e+00	0	41	0	1334837248	42	5573
2026-01-21 01:49:19.57	132.97	29.62	-34.3	-34.9	27.2	0.00e+00	0	41	0	1341128704	42	5669
2026-01-21 01:49:20.58	132.88	29.81	-34.0	-34.6	27.6	0.00e+00	0	41	0	1346371584	40	6139
2026-01-21 01:49:21.59	132.78	29.99	-34.6	-35.3	27.2	0.00e+00	0	41	0	1351614464	40	6648
2026-01-21 01:49:22.60	132.68	30.18	-33.5	-34.1	28.1	0.00e+00	0	41	0	1357905920	40	5787
2026-01-21 01:49:23.61	132.58	30.37	-33.0	-33.7	28.0	0.00e+00	0	41	0	1363148800	40	5513
2026-01-21 01:49:24.62	132.48	30.56	-32.7	-33.3	28.2	0.00e+00	0	41	0	1368391680	38	5941
2026-01-21 01:49:25.62	132.37	30.74	-32.5	-33.1	28.2	0.00e+00	0	41	0	1374683136	38	5810
2026-01-21 01:49:26.64	132.27	30.94	-32.9	-33.6	27.9	0.00e+00	0	41	0	1379926016	38	6104
2026-01-21 01:49:27.65	132.16	31.13	-33.5	-34.1	28.1	0.00e+00	0	41	0	1386217472	38	6490
2026-01-21 01:49:28.66	132.06	31.32	-33.3	-33.9	28.1	0.00e+00	0	41	0	1391460352	38	6343
2026-01-21 01:49:29.67	131.95	31.51	-33.6	-34.2	27.5	0.00e+00	0	41	0	1397751808	40	5875
2026-01-21 01:49:30.67	131.84	31.71	-32.9	-33.5	28.0	0.00e+00	0	41	0	1402994688	38	6064
2026-01-21 01:49:31.68	131.73	31.90	-32.7	-33.4	28.2	0.00e+00	0	41	0	1408237568	38	5976
2026-01-21 01:49:32.69	131.62	32.10	-32.8	-33.4	28.3	0.00e+00	0	41	0	1414529024	38	6001
2026-01-21 01:49:33.70	131.50	32.30	-32.5	-33.1	28.4	0.00e+00	0	41	0	1419771904	38	5764
2026-01-21 01:49:34.71	131.39	32.50	-32.3	-32.9	28.3	0.00e+00	0	41	0	1426063360	38	5674
2026-01-21 01:49:35.72	131.27	32.70	-32.1	-32.8	28.5	0.00e+00	0	41	0	1431306240	38	5572
2026-01-21 01:49:36.73	131.15	32.90	-32.2	-32.8	28.6	0.00e+00	0	41	0	1437597696	38	5597
2026-01-21 01:49:37.74	131.03	33.11	-32.6	-33.2	28.5	0.00e+00	0	41	0	1442840576	38	5893
2026-01-21 01:49:38.75	130.91	33.31	-32.6	-33.3	28.4	0.00e+00	0	41	0	1448083456	38	5923
2026-01-21 01:49:39.76	130.79	33.52	-32.9	-33.5	28.3	0.00e+00	0	41	0	1454374912	38	6084
2026-01-21 01:49:40.77	130.67	33.73	-33.4	-34.0	28.1	0.00e+00	0	41	0	1459617792	38	6420
2026-01-21 01:49:41.78	130.54	33.93	-33.0	-33.6	28.3	0.00e+00	0	41	0	1465909248	38	6132
2026-01-21 01:49:42.79	130.41	34.14	-33.3	-33.9	28.0	0.00e+00	0	41	0	1471152128	38	6361
2026-01-21 01:49:43.80	130.28	34.36	-33.0	-33.5	28.3	0.00e+00	0	41	0	1476395008	40	5435
2026-01-21 01:49:44.81	130.15	34.57	-33.2	-33.8	28.2	0.00e+00	0	41	0	1482686464	40	5594
2026-01-21 01:49:45.82	130.02	34.78	-33.4	-34.0	28.0	0.00e+00	0	41	0	1487929344	40	5758
2026-01-21 01:49:46.83	129.89	35.00	-33.0	-33.6	28.3	0.00e+00	0	41	0	1494220800	40	5467
2026-01-21 01:49:47.84	129.75	35.21	-33.0	-33.7	28.5	0.00e+00	0	41	0	1499463680	40	5515
2026-01-21 01:49:48.84	129.61	35.43	-32.7	-33.3	28.6	0.00e+00	0	41	0	1504706560	38	5923
2026-01-21 01:49:49.86	129.47	35.65	-33.2	-33.8	28.5	0.00e+00	0	41	0	1510998016	38	6279
2026-01-21 01:49:50.86	129.33	35.87	-33.0	-33.6	28.6	0.00e+00	0	41	0	1516240896	38	6110
2026-01-21 01:49:51.87	129.19	36.09	-33.7	-34.3	28.0	0.00e+00	0	41	0	1522532352	38	6639
2026-01-21 01:49:52.88	129.04	36.31	-32.7	-33.3	28.5	0.00e+00	0	41	0	1527775232	40	5293
2026-01-21 01:49:53.89	128.89	36.53	-33.7	-34.2	28.3	0.00e+00	0	41	0	1534066688	38	6610
2026-01-21 01:49:54.90	128.74	36.76	-33.4	-34.0	28.2	0.00e+00	0	41	0	1539309568	38	6442
2026-01-21 01:49:55.91	128.59	36.99	-33.6	-34.2	28.0	0.00e+00	0	41	0	1544552448	38	6591
2026-01-21 01:49:56.92	128.43	37.22	-33.8	-34.4	28.0	0.00e+00	0	41	0	1550843904	40	5989
2026-01-21 01:49:57.93	128.28	37.44	-33.8	-34.4	27.7	0.00e+00	0	41	0	1556086784	40	5970
2026-01-21 01:49:58.94	128.12	37.68	-33.9	-34.5	27.3	0.00e+00	0	41	0	1562378240	40	6081
2026-01-21 01:49:59.95	127.96	37.91	-33.7	-34.4	28.2	0.00e+00	0	41	0	1567621120	40	5965
2026-01-21 01:50:00.96	127.79	38.14	-33.5	-34.1	28.1	0.00e+00	0	41	0	1572864000	40	5811
2026-01-21 01:50:01.97	127.63	38.38	-33.6	-34.2	28.2	0.00e+00	0	41	0	1579155456	40	5866
2026-01-21 01:50:02.99	127.46	38.61	-33.8	-34.4	28.2	0.00e+00	0	41	0	1584398336	40	6012
2026-01-21 01:50:04.00	127.29	38.85	-33.8	-34.4	27.9	0.00e+00	0	41	0	1590689792	40	5965
2026-01-21 01:50:05.01	127.11	39.09	-33.7	-34.3	28.2	0.00e+00	0	41	0	1595932672	40	5952
2026-01-21 01:50:06.02	126.94	39.33	-33.8	-34.5	28.2	0.00e+00	0	41	0	1602224128	40	6059
2026-01-21 01:50:07.03	126.76	39.57	-33.3	-33.9	28.3	0.00e+00	0	41	0	1607467008	40	5685
2026-01-21 01:50:08.04	126.58	39.81	-32.7	-33.3	28.5	0.00e+00	0	42	0	1612709888	38	5963
2026-01-21 01:50:09.05	126.39	40.06	-33.4	-34.0	28.1	0.00e+00	0	41	0	1619001344	38	6435
2026-01-21 01:50:10.06	126.20	40.30	-33.0	-33.6	28.3	0.00e+00	0	41	0	1624244224	38	6113
2026-01-21 01:50:11.07	126.01	40.55	-33.0	-33.7	28.0	0.00e+00	0	41	0	1630535680	38	6182
2026-01-21 01:50:12.08	125.82	40.80	-33.5	-34.1	27.8	0.00e+00	0	41	0	1635778560	38	6536
2026-01-21 01:50:13.09	125.63	41.05	-33.3	-33.9	28.1	0.00e+00	0	41	0	1642070016	40	5679
2026-01-21 01:50:14.10	125.43	41.30	-32.8	-33.5	28.0	0.00e+00	0	41	0	1647312896	40	5394
2026-01-21 01:50:15.11	125.22	41.55	-32.6	-33.3	28.2	0.00e+00	0	41	0	1652555776	38	5901
2026-01-21 01:50:16.12	125.02	41.81	-32.6	-33.2	28.1	0.00e+00	0	41	0	1658847232	38	5883
2026-01-21 01:50:17.13	124.81	42.06	-32.7	-33.3	28.1	0.00e+00	0	41	0	1664090112	38	5961
2026-01-21 01:50:18.14	124.60	42.32	-32.9	-33.5	28.0	0.00e+00	0	41	0	1670381568	38	6079
2026-01-21 01:50:19.15	124.38	42.57	-33.3	-33.9	27.9	0.00e+00	0	41	0	1675624448	38	6387
2026-01-21 01:50:20.15	124.16	42.83	-34.0	-34.6	27.9	0.00e+00	0	41	0	1680867328	40	6118
2026-01-21 01:50:21.16	123.94	43.09	-33.6	-34.2	27.9	0.00e+00	0	41	0	1687158784	40	5868
2026-01-21 01:50:22.17	123.71	43.35	-33.2	-33.9	27.9	0.00e+00	0	41	0	1692401664	40	5650
2026-01-21 01:50:23.18	123.48	43.61	-33.0	-33.6	27.9	0.00e+00	0	41	0	1698693120	40	5493
2026-01-21 01:50:24.19	123.25	43.88	-33.3	-33.9	27.8	0.00e+00	0	41	0	1703936000	40	5689
2026-01-21 01:50:25.20	123.01	44.14	-33.3	-33.9	27.8	0.00e+00	0	41	0	1710227456	40	5651
2026-01-21 01:50:26.21	122.77	44.41	-33.3	-33.9	27.8	0.00e+00	0	41	0	1715470336	40	5672
2026-01-21 01:50:27.22	122.52	44.68	-33.5	-34.1	27.7	0.00e+00	0	41	0	1720713216	40	5794
2026-01-21 01:50:28.23	122.27	44.95	-33.7	-34.3	28.0	0.00e+00	0	41	0	1727004672	40	5925
2026-01-21 01:50:29.25	122.01	45.22	-33.7	-34.3	27.5	0.00e+00	0	41	0	1732247552	42	5261
2026-01-21 01:50:30.26	121.75	45.49	-33.7	-34.3	28.1	0.00e+00	0	41	0	1738539008	40	5936
2026-01-21 01:50:31.27	121.49	45.76	-33.6	-34.1	27.4	0.00e+00	0	41	0	1743781888	40	5822
2026-01-21 01:50:32.28	121.22	46.04	-35.2	-35.8	26.9	0.00e+00	0	41	0	1750073344	42	6297
2026-01-21 01:50:33.29	120.95	46.31	-34.5	-35.2	27.4	0.00e+00	0	41	0	1755316224	40	6571
2026-01-21 01:50:34.30	120.67	46.59	-33.7	-34.4	27.8	0.00e+00	0	41	0	1760559104	42	5317
2026-01-21 01:50:35.31	120.39	46.86	-34.1	-34.7	27.7	0.00e+00	0	41	0	1766850560	40	6221
2026-01-21 01:50:36.32	120.10	47.14	-33.8	-34.5	27.7	0.00e+00	0	41	0	1772093440	40	6036
2026-01-21 01:50:37.33	119.80	47.42	-33.9	-34.5	27.8	0.00e+00	0	41	0	1778384896	40	6078
2026-01-21 01:50:38.34	119.50	47.70	-33.4	-34.1	27.9	0.00e+00	0	41	0	1783627776	40	5766
2026-01-21 01:50:39.35	119.20	47.98	-33.9	-34.5	27.8	0.00e+00	0	41	0	1788870656	40	6089
2026-01-21 01:50:40.36	118.89	48.26	-34.1	-34.7	27.6	0.00e+00	0	41	0	1795162112	40	6210
2026-01-21 01:50:41.37	118.57	48.55	-34.6	-35.3	27.4	0.00e+00	0	41	0	1800404992	40	6623
2026-01-21 01:50:42.38	118.25	48.83	-34.5	-35.1	27.5	0.00e+00	0	41	0	1806696448	42	5795
2026-01-21 01:50:43.39	117.92	49.11	-33.6	-34.3	27.8	0.00e+00	0	41	0	1811939328	40	5916
2026-01-21 01:50:44.40	117.59	49.40	-33.7	-34.3	27.5	0.00e+00	0	41	0	1817182208	40	5952
2026-01-21 01:50:45.41	117.25	49.68	-34.4	-35.0	27.5	0.00e+00	0	41	0	1823473664	40	6423
2026-01-21 01:50:46.42	116.90	49.97	-34.5	-35.1	27.0	0.00e+00	0	41	0	1828716544	42	5808
2026-01-21 01:50:47.43	116.55	50.26	-34.4	-35.1	27.1	0.00e+00	0	41	0	1835008000	42	5811
2026-01-21 01:50:48.45	116.18	50.55	-34.9	-35.6	26.9	0.00e+00	0	41	0	1840250880	42	6160
2026-01-21 01:50:49.46	115.82	50.84	-34.3	-35.0	27.1	0.00e+00	0	41	0	1846542336	42	5716
2026-01-21 01:50:50.46	115.45	51.12	-34.1	-34.8	27.0	0.00e+00	0	41	0	1851785216	42	5578
2026-01-21 01:50:51.47	115.06	51.41	-34.6	-35.2	27.1	0.00e+00	0	41	0	1858076672	42	5880
2026-01-21 01:50:52.48	114.67	51.70	-35.3	-36.0	26.9	0.00e+00	0	41	0	1863319552	42	6400
2026-01-21 01:50:53.49	114.28	51.99	-34.3	-34.9	27.3	0.00e+00	0	41	0	1868562432	42	5670
2026-01-21 01:50:54.50	113.87	52.28	-34.2	-34.9	27.4	0.00e+00	0	41	0	1874853888	42	5633
2026-01-21 01:50:55.51	113.46	52.57	-34.4	-35.1	27.3	0.00e+00	0	41	0	1880096768	42	5768
2026-01-21 01:50:56.52	113.04	52.86	-34.2	-34.8	27.5	0.00e+00	0	41	0	1886388224	42	5616
2026-01-21 01:50:57.53	112.61	53.15	-35.1	-35.8	26.9	0.00e+00	0	41	0	1891631104	42	6286
2026-01-21 01:50:58.54	112.17	53.45	-34.8	-35.5	26.9	0.00e+00	0	41	0	1896873984	42	6037
2026-01-21 01:50:59.55	111.72	53.74	-34.4	-35.1	27.2	0.00e+00	0	41	0	1903165440	42	5814
2026-01-21 01:51:00.56	111.26	54.03	-34.9	-35.5	27.2	0.00e+00	0	41	0	1908408320	42	6076
2026-01-21 01:51:01.57	110.80	54.32	-34.5	-35.0	27.6	0.00e+00	0	41	0	1914699776	42	5759
2026-01-21 01:51:02.58	110.32	54.61	-34.4	-35.0	27.7	0.00e+00	0	41	0	1919942656	42	5758
2026-01-21 01:51:03.59	109.84	54.90	-34.3	-34.9	27.6	0.00e+00	0	41	0	1925185536	42	5668
2026-01-21 01:51:04.60	109.34	55.18	-34.4	-34.9	27.6	0.00e+00	0	41	0	1931476992	42	5688
2026-01-21 01:51:05.61	108.84	55.47	-34.3	-34.9	27.5	0.00e+00	0	41	0	1936719872	42	5687
2026-01-21 01:51:06.62	108.32	55.76	-34.8	-35.4	27.3	0.00e+00	0	41	0	1943011328	42	6002
2026-01-21 01:51:07.63	107.79	56.05	-35.1	-35.7	27.0	0.00e+00	0	41	0	1948254208	42	6226
2026-01-21 01:51:08.64	107.25	56.33	-34.6	-35.2	26.9	0.00e+00	0	41	0	1954545664	42	5882
2026-01-21 01:51:09.65	106.71	56.62	-34.6	-35.2	27.0	0.00e+00	0	41	0	1959788544	42	5862
2026-01-21 01:51:10.66	106.14	56.90	-34.2	-34.9	27.3	0.00e+00	0	41	0	1965031424	42	5636
2026-01-21 01:51:11.67	105.57	57.18	-34.6	-35.3	27.3	0.00e+00	0	41	0	1971322880	42	5932
2026-01-21 01:51:12.68	104.99	57.46	-34.4	-35.0	27.2	0.00e+00	0	41	0	1976565760	42	5760
2026-01-21 01:51:13.69	104.39	57.74	-34.2	-34.8	27.5	0.00e+00	0	41	0	1982857216	42	5573
2026-01-21 01:51:14.70	103.78	58.02	-34.2	-34.8	27.5	0.00e+00	0	41	0	1988100096	42	5590
2026-01-21 01:51:15.71	103.16	58.30	-34.1	-34.7	27.6	0.00e+00	0	41	0	1993342976	42	5557
2026-01-21 01:51:16.72	102.52	58.57	-34.2	-34.9	27.5	0.00e+00	0	41	0	1999634432	42	5662
2026-01-21 01:51:17.73	101.88	58.84	-34.0	-34.6	27.5	0.00e+00	0	41	0	2004877312	42	5486
2026-01-21 01:51:18.74	101.22	59.11	-35.1	-35.7	26.9	0.00e+00	0	41	0	2011168768	42	6228
2026-01-21 01:51:19.75	100.54	59.38	-35.0	-35.7	27.3	0.00e+00	0	41	0	2016411648	42	6184
2026-01-21 01:51:20.76	99.85	59.64	-34.6	-35.3	27.3	0.00e+00	0	41	0	2021654528	42	5900
2026-01-21 01:51:21.77	99.15	59.91	-34.4	-35.0	27.4	0.00e+00	0	41	0	2027945984	42	5738
2026-01-21 01:51:22.78	98.43	60.16	-34.7	-35.3	27.0	0.00e+00	0	41	0	2033188864	42	5928
2026-01-21 01:51:23.79	97.70	60.42	-34.6	-35.2	27.5	0.00e+00	0	41	0	2039480320	42	5883
2026-01-21 01:51:24.80	96.95	60.67	-34.5	-35.1	27.6	0.00e+00	0	41	0	2044723200	42	5822
2026-01-21 01:51:25.81	96.19	60.92	-33.5	-34.1	28.0	0.00e+00	0	41	0	2051014656	42	5154
2026-01-21 01:51:26.82	95.41	61.17	-33.7	-34.3	28.0	0.00e+00	0	41	0	2056257536	40	5944
2026-01-21 01:51:27.83	94.62	61.41	-33.5	-34.1	27.9	0.00e+00	0	41	0	2062548992	40	5797
2026-01-21 01:51:28.84	93.81	61.65	-33.4	-34.0	27.9	0.00e+00	0	42	0	2067791872	40	5716
2026-01-21 01:51:29.85	92.98	61.88	-33.4	-34.1	28.0	0.00e+00	0	41	0	2073034752	40	5774
2026-01-21 01:51:30.86	92.15	62.11	-33.3	-33.9	28.0	0.00e+00	0	41	0	2079326208	40	5651
2026-01-21 01:51:31.87	91.29	62.33	-33.2	-33.8	28.1	0.00e+00	0	42	0	2084569088	40	5626
2026-01-21 01:51:32.88	90.42	62.55	-32.9	-33.6	28.1	0.00e+00	0	41	0	2090860544	40	5456
2026-01-21 01:51:33.89	89.53	62.77	-32.1	-32.7	28.7	0.00e+00	0	41	0	2096103424	38	5537
2026-01-21 01:51:34.90	88.63	62.98	-33.0	-33.7	28.5	0.00e+00	0	41	0	2101346304	38	6176
2026-01-21 01:51:35.91	87.71	63.18	-33.4	-34.1	28.0	0.00e+00	0	41	0	2107637760	40	5768
2026-01-21 01:51:36.92	86.78	63.38	-33.2	-33.8	28.5	0.00e+00	0	41	0	2112880640	40	5600
2026-01-21 01:51:37.93	85.83	63.57	-32.6	-33.2	28.5	0.00e+00	0	41	0	2119172096	38	5869
2026-01-21 01:51:38.94	84.86	63.75	-33.9	-34.5	28.1	0.00e+00	0	41	0	2124414976	38	6803
2026-01-21 01:51:39.95	83.88	63.93	-33.6	-34.2	28.3	0.00e+00	0	41	0	2129657856	40	5851
2026-01-21 01:51:40.96	82.89	64.11	-32.4	-33.0	28.9	0.00e+00	0	41	0	2135949312	38	5742
2026-01-21 01:51:41.97	81.88	64.27	-32.3	-32.9	29.0	0.00e+00	0	41	0	2141192192	38	5672
2026-01-21 01:51:42.98	80.85	64.43	-33.4	-34.0	28.6	0.00e+00	0	41	0	2147483648	38	6404
2026-01-21 01:51:43.99	79.81	64.59	-32.9	-33.5	28.6	0.00e+00	0	41	0	2152726528	38	6102
2026-01-21 01:51:45.00	78.76	64.73	-33.3	-33.9	28.2	0.00e+00	0	41	0	2159017984	40	5644
2026-01-21 01:51:46.01	77.69	64.87	-32.4	-33.0	29.1	0.00e+00	0	41	0	2164260864	36	6427
2026-01-21 01:51:47.02	76.62	65.00	-32.6	-33.2	28.8	0.00e+00	0	41	0	2170552320	38	5859
2026-01-21 01:51:48.03	75.53	65.12	-32.4	-33.0	28.8	0.00e+00	0	41	0	2175795200	38	5750
2026-01-21 01:51:49.04	74.42	65.23	-31.9	-32.4	29.2	0.00e+00	0	41	0	2181038080	38	5361
2026-01-21 01:51:50.05	73.31	65.34	-32.2	-32.8	29.0	0.00e+00	0	41	0	2187329536	38	5621
2026-01-21 01:51:51.06	72.19	65.44	-32.7	-33.3	28.8	0.00e+00	0	41	0	2192572416	38	5899
2026-01-21 01:51:52.07	71.05	65.53	-33.1	-33.7	28.3	0.00e+00	0	42	0	2198863872	40	5519
2026-01-21 01:51:53.08	69.91	65.61	-33.0	-33.7	28.7	0.00e+00	0	41	0	2204106752	40	5510
2026-01-21 01:51:54.09	68.76	65.68	-34.3	-34.9	27.9	0.00e+00	0	41	0	2209349632	40	6335
2026-01-21 01:51:55.10	67.61	65.74	-32.1	-32.8	29.2	0.00e+00	0	41	0	2215641088	38	5581
2026-01-21 01:51:56.11	66.44	65.79	-32.5	-33.1	29.0	0.00e+00	0	41	0	2220883968	38	5780
2026-01-21 01:51:57.12	65.28	65.84	-32.3	-33.0	29.0	0.00e+00	0	42	0	2226126848	38	5699
2026-01-21 01:51:58.13	64.11	65.87	-32.3	-33.0	29.1	0.00e+00	0	41	0	2232418304	38	5708
2026-01-21 01:51:59.14	62.93	65.90	-32.1	-32.6	29.1	0.00e+00	0	41	0	2237661184	38	5500
2026-01-21 01:52:00.15	61.75	65.92	-32.0	-32.6	29.1	0.00e+00	0	41	0	2243952640	36	6123
2026-01-21 01:52:01.16	60.57	65.92	-32.2	-32.8	28.9	0.00e+00	0	41	0	2249195520	36	6248
2026-01-21 01:52:02.17	59.40	65.92	-32.0	-32.6	28.8	0.00e+00	0	42	0	2255486976	36	6108
2026-01-21 01:52:03.18	58.22	65.91	-32.1	-32.7	28.5	0.00e+00	0	41	0	2260729856	36	6227
2026-01-21 01:52:04.19	57.04	65.89	-32.2	-32.8	28.5	0.00e+00	0	41	0	2267021312	36	6271
2026-01-21 01:52:05.20	55.87	65.86	-31.6	-32.2	28.9	0.00e+00	0	41	0	2272264192	36	5856
2026-01-21 01:52:06.20	54.71	65.82	-31.3	-31.9	28.8	0.00e+00	0	41	0	2277507072	36	5640
2026-01-21 01:52:07.21	53.54	65.77	-31.8	-32.4	28.6	0.00e+00	0	41	0	2283798528	36	6022
2026-01-21 01:52:08.22	52.38	65.72	-31.4	-32.1	28.7	0.00e+00	0	41	0	2289041408	36	5774
2026-01-21 01:52:09.23	51.23	65.65	-31.5	-32.1	28.8	0.00e+00	0	41	0	2295332864	36	5777
2026-01-21 01:52:10.24	50.08	65.58	-31.8	-32.4	28.9	0.00e+00	0	41	0	2300575744	36	6031
2026-01-21 01:52:11.25	48.95	65.49	-31.3	-31.9	29.1	0.00e+00	0	41	0	2305818624	36	5673
2026-01-21 01:52:12.26	47.82	65.40	-31.2	-31.8	29.1	0.00e+00	0	41	0	2312110080	36	5599
2026-01-21 01:52:13.27	46.70	65.30	-31.3	-32.0	28.9	0.00e+00	0	41	0	2317352960	36	5713
2026-01-21 01:52:14.28	45.59	65.19	-31.5	-32.1	29.0	0.00e+00	0	41	0	2323644416	36	5784
2026-01-21 01:52:15.29	44.49	65.08	-31.9	-32.5	28.9	0.00e+00	0	41	0	2328887296	36	6096
2026-01-21 01:52:16.30	43.41	64.95	-32.6	-33.1	28.9	0.00e+00	0	41	0	2334130176	36	6514
2026-01-21 01:52:17.31	42.33	64.82	-32.5	-33.2	28.7	0.00e+00	0	41	0	2340421632	38	5830
2026-01-21 01:52:18.32	41.27	64.68	-33.1	-33.7	28.6	0.00e+00	0	41	0	2345664512	38	6224
2026-01-21 01:52:19.33	40.23	64.53	-33.2	-33.8	28.7	0.00e+00	0	41	0	2351955968	38	6316
2026-01-21 01:52:20.34	39.19	64.38	-32.6	-33.1	28.5	0.00e+00	0	42	0	2357198848	38	5827
2026-01-21 01:52:21.35	38.18	64.21	-32.7	-33.2	28.5	0.00e+00	0	41	0	2363490304	38	5889
2026-01-21 01:52:22.36	37.17	64.05	-32.5	-33.0	28.6	0.00e+00	0	41	0	2368733184	38	5730
2026-01-21 01:52:23.36	36.19	63.87	-32.3	-33.0	28.5	0.00e+00	0	41	0	2373976064	38	5707
2026-01-21 01:52:24.38	35.21	63.69	-32.0	-32.7	28.5	0.00e+00	0	41	0	2380267520	38	5523
2026-01-21 01:52:25.39	34.25	63.50	-32.6	-33.2	28.5	0.00e+00	0	41	0	2385510400	38	5847
2026-01-21 01:52:26.39	33.32	63.31	-32.2	-32.8	28.6	0.00e+00	0	42	0	2391801856	38	5590
2026-01-21 01:52:27.40	32.39	63.11	-32.5	-33.1	28.4	0.00e+00	0	41	0	2397044736	38	5791
2026-01-21 01:52:28.41	31.48	62.90	-32.9	-33.5	28.3	0.00e+00	0	41	0	2402287616	38	6048
2026-01-21 01:52:29.42	30.58	62.69	-33.3	-33.9	27.9	0.00e+00	0	42	0	2408579072	38	6347
2026-01-21 01:52:30.43	29.70	62.48	-33.2	-33.9	28.2	0.00e+00	0	41	0	2413821952	38	6344
2026-01-21 01:52:31.44	28.84	62.26	-32.6	-33.2	28.4	0.00e+00	0	41	0	2420113408	38	5849
2026-01-21 01:52:32.45	27.99	62.03	-32.8	-33.5	28.5	0.00e+00	0	41	0	2425356288	38	6043
2026-01-21 01:52:33.46	27.15	61.80	-33.0	-33.7	28.3	0.00e+00	0	42	0	2430599168	38	6199
2026-01-21 01:52:34.47	26.34	61.57	-32.6	-33.3	28.6	0.00e+00	0	41	0	2436890624	38	5933
2026-01-21 01:52:35.48	25.53	61.33	-32.3	-32.9	28.6	0.00e+00	0	42	0	2442133504	38	5674
2026-01-21 01:52:36.49	24.75	61.08	-32.4	-32.9	28.6	0.00e+00	0	42	0	2448424960	38	5689
2026-01-21 01:52:37.50	23.98	60.84	-33.1	-33.8	28.3	0.00e+00	0	42	0	2453667840	38	6306
2026-01-21 01:52:38.51	23.22	60.59	-33.8	-34.5	27.9	0.00e+00	0	41	0	2459959296	38	6817
2026-01-21 01:52:39.53	22.47	60.33	-33.5	-34.2	28.0	0.00e+00	0	42	0	2465202176	40	5873
2026-01-21 01:52:40.54	21.75	60.08	-33.7	-34.3	28.1	0.00e+00	0	41	0	2471493632	40	5938
2026-01-21 01:52:41.55	21.04	59.82	-34.4	-35.1	27.9	0.00e+00	0	42	0	2476736512	40	6514
2026-01-21 01:52:42.56	20.34	59.56	-33.5	-34.2	27.9	0.00e+00	0	42	0	2481979392	40	5844
2026-01-21 01:52:43.57	19.65	59.29	-33.1	-33.7	28.0	0.00e+00	0	41	0	2488270848	40	5543
2026-01-21 01:52:44.58	18.98	59.02	-33.0	-33.6	28.0	0.00e+00	0	42	0	2493513728	40	5464
2026-01-21 01:52:45.59	18.33	58.75	-32.6	-33.2	28.3	0.00e+00	0	42	0	2499805184	38	5868
2026-01-21 01:52:46.60	17.69	58.48	-32.9	-33.5	28.2	0.00e+00	0	42	0	2505048064	38	6054
2026-01-21 01:52:47.61	17.06	58.21	-33.0	-33.6	28.2	0.00e+00	0	42	0	2510290944	38	6165
2026-01-21 01:52:48.62	16.44	57.93	-33.1	-33.7	28.0	0.00e+00	0	42	0	2516582400	38	6201
2026-01-21 01:52:49.63	15.84	57.65	-33.2	-33.8	28.0	0.00e+00	0	42	0	2521825280	38	6269
2026-01-21 01:52:50.64	15.25	57.37	-33.5	-34.1	27.5	0.00e+00	0	41	0	2528116736	38	6502
2026-01-21 01:52:51.65	14.67	57.09	-33.8	-34.5	27.6	0.00e+00	0	41	0	2533359616	40	6059
2026-01-21 01:52:52.66	14.10	56.81	-33.9	-34.5	27.8	0.00e+00	0	41	0	2538602496	40	6084
2026-01-21 01:52:53.67	13.54	56.53	-33.6	-34.2	27.7	0.00e+00	0	41	0	2544893952	40	5830
2026-01-21 01:52:54.68	13.00	56.24	-33.7	-34.3	27.8	0.00e+00	0	42	0	2550136832	40	5952
2026-01-21 01:52:55.68	12.47	55.96	-34.1	-34.7	27.5	0.00e+00	0	42	0	2556428288	40	6224
2026-01-21 01:52:56.69	11.95	55.67	-33.7	-34.3	28.0	0.00e+00	0	41	0	2561671168	40	5936
2026-01-21 01:52:57.70	11.44	55.39	-34.6	-35.2	27.6	0.00e+00	0	41	0	2567962624	40	6578
2026-01-21 01:52:58.71	10.94	55.10	-34.3	-34.9	27.5	0.00e+00	0	42	0	2573205504	40	6326
2026-01-21 01:52:59.73	10.44	54.81	-35.3	-35.9	26.3	0.00e+00	0	42	0	2579496960	40	7139
2026-01-21 01:53:00.74	9.96	54.52	-34.3	-34.9	27.9	0.00e+00	0	42	0	2584739840	42	5675
2026-01-21 01:53:01.75	9.49	54.23	-34.0	-34.6	27.9	0.00e+00	0	42	0	2589982720	40	6123
2026-01-21 01:53:02.76	9.02	53.94	-33.4	-33.9	28.0	0.00e+00	0	42	0	2596274176	40	5692
2026-01-21 01:53:03.77	8.57	53.65	-34.1	-34.6	28.0	0.00e+00	0	42	0	2601517056	40	6164
2026-01-21 01:53:04.78	8.13	53.36	-34.2	-34.9	27.8	0.00e+00	0	42	0	2607808512	40	6386
2026-01-21 01:53:05.79	7.69	53.07	-34.3	-34.8	27.6	0.00e+00	0	42	0	2613051392	42	5610
2026-01-21 01:53:06.80	7.27	52.78	-33.4	-34.1	27.9	0.00e+00	0	42	0	2618294272	40	5784
2026-01-21 01:53:07.81	6.85	52.49	-33.5	-34.0	27.9	0.00e+00	0	42	0	2624585728	40	5759
2026-01-21 01:53:08.82	6.44	52.20	-34.5	-35.2	27.8	0.00e+00	0	42	0	2629828608	40	6568
2026-01-21 01:53:09.83	6.04	51.91	-34.1	-34.7	27.8	0.00e+00	0	42	0	2636120064	40	6243
2026-01-21 01:53:10.84	5.64	51.62	-34.3	-34.9	27.7	0.00e+00	0	42	0	2641362944	40	6342
2026-01-21 01:53:11.85	5.26	51.33	-33.4	-34.1	27.9	0.00e+00	0	42	0	2646605824	40	5805
2026-01-21 01:53:12.86	4.88	51.05	-33.2	-33.8	27.8	0.00e+00	0	42	0	2652897280	40	5586
2026-01-21 01:53:13.87	4.51	50.76	-33.5	-34.1	27.6	0.00e+00	0	41	0	2658140160	40	5766
2026-01-21 01:53:14.87	4.15	50.47	-33.4	-34.1	27.6	0.00e+00	0	41	0	2664431616	40	5791
2026-01-21 01:53:15.88	3.79	50.19	-32.9	-33.5	27.9	0.00e+00	0	41	0	2669674496	40	5394
2026-01-21 01:53:16.90	3.44	49.90	-33.3	-34.0	27.8	0.00e+00	0	42	0	2675965952	40	5722
2026-01-21 01:53:17.91	3.09	49.61	-33.9	-34.4	26.8	0.00e+00	0	42	0	2681208832	40	6018
2026-01-21 01:53:18.92	2.75	49.33	-34.6	-35.2	27.7	0.00e+00	0	42	0	2686451712	40	6544
2026-01-21 01:53:19.92	2.43	49.05	-33.9	-34.6	27.7	0.00e+00	0	41	0	2692743168	40	6109
2026-01-21 01:53:20.93	2.10	48.76	-33.9	-34.5	27.6	0.00e+00	0	41	0	2697986048	40	6046
2026-01-21 01:53:21.94	1.78	48.48	-34.1	-34.6	27.9	0.00e+00	0	41	0	2704277504	40	6167
2026-01-21 01:53:22.95	1.47	48.20	-33.6	-34.2	27.6	0.00e+00	0	42	0	2709520384	40	5876
2026-01-21 01:53:23.96	1.16	47.92	-33.5	-34.2	27.7	0.00e+00	0	42	0	2714763264	40	5876
2026-01-21 01:53:24.97	0.86	47.64	-33.1	-33.6	28.4	0.00e+00	0	42	0	2721054720	40	5500
2026-01-21 01:53:25.98	0.56	47.36	-33.7	-34.5	27.8	0.00e+00	0	42	0	2726297600	40	6034
2026-01-21 01:53:26.99	0.27	47.08	-33.7	-34.4	27.8	0.00e+00	0	42	0	2732589056	40	5995
2026-01-21 01:53:28.00	359.98	46.80	-33.6	-34.1	27.5	0.00e+00	0	42	0	2737831936	40	5808
2026-01-21 01:53:29.01	359.70	46.53	-33.6	-34.4	27.7	0.00e+00	0	42	0	2743074816	40	5972
2026-01-21 01:53:30.02	359.43	46.25	-32.8	-33.3	28.2	0.00e+00	0	42	0	2749366272	40	5313
2026-01-21 01:53:31.03	359.15	45.98	-32.9	-33.5	28.0	0.00e+00	0	42	0	2754609152	38	6044
2026-01-21 01:53:32.04	358.89	45.71	-32.2	-32.7	28.4	0.00e+00	0	42	0	2760900608	38	5538
2026-01-21 01:53:33.05	358.63	45.44	-32.2	-32.7	28.3	0.00e+00	0	41	0	2766143488	38	5559
2026-01-21 01:53:34.06	358.37	45.17	-32.3	-33.1	28.2	0.00e+00	0	42	0	2772434944	38	5772
2026-01-21 01:53:35.07	358.12	44.90	-32.2	-32.9	28.2	0.00e+00	0	42	0	2777677824	38	5687
2026-01-21 01:53:36.09	357.86	44.63	-32.1	-32.6	28.4	0.00e+00	0	42	0	2783969280	38	5495
2026-01-21 01:53:37.10	357.62	44.36	-32.3	-32.9	28.5	0.00e+00	0	41	0	2789212160	38	5687
2026-01-21 01:53:38.11	357.38	44.10	-33.1	-33.7	28.4	0.00e+00	0	42	0	2794455040	38	6176
2026-01-21 01:53:39.12	357.14	43.83	-32.6	-33.2	28.2	0.00e+00	0	42	0	2800746496	38	5835
2026-01-21 01:53:40.13	356.91	43.57	-32.6	-33.1	28.2	0.00e+00	0	42	0	2805989376	38	5812
2026-01-21 01:53:41.14	356.68	43.31	-32.4	-32.9	28.3	0.00e+00	0	41	0	2812280832	38	5692
2026-01-21 01:53:42.15	356.46	43.05	-32.4	-33.1	28.5	0.00e+00	0	42	0	2817523712	38	5812
2026-01-21 01:53:43.16	356.24	42.79	-32.2	-32.8	28.5	0.00e+00	0	42	0	2822766592	38	5588
2026-01-21 01:53:44.17	356.02	42.53	-32.2	-32.7	28.5	0.00e+00	0	42	0	2829058048	38	5550
2026-01-21 01:53:45.17	355.81	42.28	-32.4	-33.1	28.6	0.00e+00	0	41	0	2834300928	38	5803
2026-01-21 01:53:46.19	355.59	42.02	-32.0	-32.5	28.7	0.00e+00	0	42	0	2840592384	38	5414
2026-01-21 01:53:47.20	355.39	41.77	-32.2	-32.7	28.6	0.00e+00	0	42	0	2845835264	38	5554
2026-01-21 01:53:48.21	355.18	41.51	-32.7	-33.3	28.6	0.00e+00	0	42	0	2851078144	38	5909
2026-01-21 01:53:49.22	354.98	41.26	-32.9	-33.5	28.3	0.00e+00	0	42	0	2857369600	38	6047
2026-01-21 01:53:50.23	354.78	41.01	-32.9	-33.5	28.2	0.00e+00	0	42	0	2862612480	38	6062
2026-01-21 01:53:51.24	354.59	40.77	-33.1	-33.6	28.2	0.00e+00	0	42	0	2868903936	38	6147
2026-01-21 01:53:52.25	354.40	40.52	-33.1	-33.7	28.4	0.00e+00	0	42	0	2874146816	38	6187
2026-01-21 01:53:53.26	354.21	40.27	-33.1	-33.6	28.2	0.00e+00	0	42	0	2880438272	38	6155
2026-01-21 01:53:54.27	354.02	40.03	-32.9	-33.6	28.2	0.00e+00	0	42	0	2885681152	38	6137
2026-01-21 01:53:55.28	353.84	39.79	-32.3	-33.0	28.6	0.00e+00	0	42	0	2891972608	38	5722
2026-01-21 01:53:56.29	353.66	39.54	-32.6	-33.3	28.5	0.00e+00	0	42	0	2897215488	38	5932
2026-01-21 01:53:57.30	353.48	39.30	-32.7	-33.4	28.5	0.00e+00	0	42	0	2902458368	38	5972
2026-01-21 01:53:58.31	353.31	39.06	-32.7	-33.4	28.5	0.00e+00	0	42	0	2908749824	38	5973
2026-01-21 01:53:59.32	353.13	38.83	-32.8	-33.3	28.5	0.00e+00	0	42	0	2913992704	38	5930
2026-01-21 01:54:00.33	352.96	38.59	-31.8	-32.5	28.7	0.00e+00	0	42	0	2920284160	38	5432
2026-01-21 01:54:01.34	352.80	38.36	-32.1	-32.8	28.6	0.00e+00	0	42	0	2925527040	38	5608
2026-01-21 01:54:02.35	352.63	38.12	-32.2	-32.9	28.5	0.00e+00	0	42	0	2930769920	38	5679
2026-01-21 01:54:03.37	352.47	37.89	-32.3	-33.0	28.6	0.00e+00	0	42	0	2937061376	38	5749
2026-01-21 01:54:04.38	352.31	37.66	-32.2	-32.9	28.6	0.00e+00	0	42	0	2942304256	38	5644
2026-01-21 01:54:05.39	352.15	37.43	-32.1	-32.7	28.8	0.00e+00	0	42	0	2948595712	38	5561
2026-01-21 01:54:06.40	352.00	37.20	-32.2	-32.9	28.7	0.00e+00	0	42	0	2953838592	38	5641
2026-01-21 01:54:07.41	351.84	36.97	-32.1	-32.8	28.7	0.00e+00	0	42	0	2959081472	38	5609
2026-01-21 01:54:08.42	351.69	36.75	-32.3	-32.8	28.7	0.00e+00	0	42	0	2965372928	38	5614
2026-01-21 01:54:09.43	351.54	36.52	-32.0	-32.6	28.5	0.00e+00	0	42	0	2970615808	38	5447
2026-01-21 01:54:10.44	351.39	36.30	-32.3	-32.8	28.4	0.00e+00	0	42	0	2976907264	38	5592
2026-01-21 01:54:11.45	351.25	36.08	-32.5	-33.1	28.4	0.00e+00	0	42	0	2982150144	38	5773
2026-01-21 01:54:12.46	351.11	35.86	-32.5	-33.2	28.5	0.00e+00	0	42	0	2988441600	38	5864
2026-01-21 01:54:13.47	350.97	35.64	-32.6	-33.3	28.4	0.00e+00	0	42	0	2993684480	38	5946
2026-01-21 01:54:14.48	350.83	35.42	-32.5	-33.2	28.4	0.00e+00	0	42	0	2999975936	38	5853
2026-01-21 01:54:15.49	350.69	35.20	-32.7	-33.2	28.5	0.00e+00	0	42	0	3005218816	38	5847
2026-01-21 01:54:16.50	350.55	34.99	-32.3	-32.9	28.5	0.00e+00	0	42	0	3010461696	38	5642
2026-01-21 01:54:17.51	350.42	34.78	-32.3	-32.8	28.5	0.00e+00	0	42	0	3016753152	38	5628
2026-01-21 01:54:18.52	350.29	34.56	-32.8	-33.4	28.4	0.00e+00	0	42	0	3021996032	38	5978
2026-01-21 01:54:19.53	350.16	34.35	-33.4	-34.0	28.2	0.00e+00	0	42	0	3028287488	38	6392
2026-01-21 01:54:20.54	350.03	34.14	-33.1	-33.6	28.2	0.00e+00	0	42	0	3033530368	38	6173
2026-01-21 01:54:21.55	349.91	33.93	-33.3	-33.8	28.2	0.00e+00	0	42	0	3038773248	38	6307
2026-01-21 01:54:22.56	349.78	33.73	-33.2	-33.8	28.2	0.00e+00	0	42	0	3045064704	40	5583
2026-01-21 01:54:23.58	349.66	33.52	-33.6	-34.1	28.0	0.00e+00	0	42	0	3050307584	40	5827
2026-01-21 01:54:24.59	349.53	33.31	-33.8	-34.5	27.8	0.00e+00	0	42	0	3056599040	40	6103
2026-01-21 01:54:25.60	349.41	33.11	-33.7	-34.4	28.1	0.00e+00	0	42	0	3061841920	40	5971
2026-01-21 01:54:26.61	349.30	32.91	-33.4	-34.1	28.0	0.00e+00	0	42	0	3067084800	40	5795
2026-01-21 01:54:27.62	349.18	32.70	-33.0	-33.6	28.3	0.00e+00	0	42	0	3073376256	40	5456
2026-01-21 01:54:28.63	349.06	32.50	-32.7	-33.4	28.5	0.00e+00	0	42	0	3078619136	38	5996
2026-01-21 01:54:29.64	348.95	32.31	-32.3	-32.8	28.4	0.00e+00	0	42	0	3084910592	38	5629
2026-01-21 01:54:30.65	348.84	32.11	-32.2	-32.8	28.4	0.00e+00	0	42	0	3090153472	38	5589
2026-01-21 01:54:31.66	348.73	31.91	-32.6	-33.2	28.5	0.00e+00	0	42	0	3096444928	38	5861
2026-01-21 01:54:32.67	348.62	31.72	-32.9	-33.4	28.3	0.00e+00	0	42	0	3101687808	38	6008
2026-01-21 01:54:33.68	348.51	31.52	-32.9	-33.4	28.4	0.00e+00	0	42	0	3107979264	38	6029
2026-01-21 01:54:34.69	348.40	31.33	-32.9	-33.4	28.4	0.00e+00	0	42	0	3113222144	38	6019
2026-01-21 01:54:35.70	348.29	31.14	-33.2	-33.7	28.3	0.00e+00	0	42	0	3118465024	38	6220
2026-01-21 01:54:36.71	348.19	30.95	-32.7	-33.2	28.4	0.00e+00	0	42	0	3124756480	38	5871
2026-01-21 01:54:37.72	348.09	30.76	-32.5	-33.1	28.4	0.00e+00	0	42	0	3129999360	38	5786
2026-01-21 01:54:38.73	347.98	30.57	-32.7	-33.3	28.2	0.00e+00	0	42	0	3136290816	38	5918
2026-01-21 01:54:39.73	347.88	30.38	-32.5	-33.2	28.3	0.00e+00	0	42	0	3141533696	38	5887
2026-01-21 01:54:40.74	347.78	30.20	-32.7	-33.4	28.2	0.00e+00	0	42	0	3146776576	38	5965
2026-01-21 01:54:41.75	347.69	30.01	-32.7	-33.2	28.3	0.00e+00	0	42	0	3153068032	38	5887
2026-01-21 01:54:42.76	347.59	29.83	-32.8	-33.4	28.3	0.00e+00	0	42	0	3158310912	38	5999
2026-01-21 01:54:43.77	347.49	29.64	-33.0	-33.6	28.2	0.00e+00	0	42	0	3163553792	38	6134
2026-01-21 01:54:44.78	347.40	29.46	-32.9	-33.6	28.3	0.00e+00	0	42	0	3169845248	38	6147
2026-01-21 01:54:45.79	347.30	29.28	-33.0	-33.7	28.1	0.00e+00	0	42	0	3175088128	38	6210
2026-01-21 01:54:46.80	347.21	29.10	-32.9	-33.5	28.1	0.00e+00	0	42	0	3181379584	38	6055
2026-01-21 01:54:47.81	347.12	28.92	-33.7	-34.3	27.9	0.00e+00	0	42	0	3186622464	40	5915
2026-01-21 01:54:48.82	347.03	28.74	-33.4	-34.1	28.1	0.00e+00	0	42	0	3192913920	40	5780
2026-01-21 01:54:49.83	346.94	28.57	-33.5	-34.0	28.1	0.00e+00	0	42	0	3198156800	40	5728
2026-01-21 01:54:50.84	346.85	28.39	-33.9	-34.6	27.8	0.00e+00	0	42	0	3204448256	40	6112
2026-01-21 01:54:51.85	346.76	28.22	-33.5	-34.2	27.9	0.00e+00	0	42	0	3209691136	40	5865
2026-01-21 01:54:52.85	346.68	28.04	-33.5	-34.2	27.9	0.00e+00	0	42	0	3214934016	40	5860
2026-01-21 01:54:53.86	346.59	27.87	-33.9	-34.6	28.0	0.00e+00	0	42	0	3221225472	40	6121
2026-01-21 01:54:54.87	346.51	27.70	-33.1	-33.8	28.2	0.00e+00	0	42	0	3226468352	40	5595
2026-01-21 01:54:55.88	346.42	27.53	-33.4	-34.0	28.2	0.00e+00	0	42	0	3232759808	40	5759
2026-01-21 01:54:56.89	346.34	27.36	-33.5	-34.2	28.0	0.00e+00	0	42	0	3238002688	40	5841
2026-01-21 01:54:57.90	346.26	27.19	-33.2	-33.9	28.0	0.00e+00	0	42	0	3243245568	40	5648
2026-01-21 01:54:58.91	346.18	27.02	-33.6	-34.3	27.9	0.00e+00	0	42	0	3249537024	40	5924
2026-01-21 01:54:59.92	346.10	26.86	-34.3	-34.9	27.7	0.00e+00	0	42	0	3254779904	42	5664
2026-01-21 01:55:00.93	346.02	26.69	-34.6	-35.3	27.6	0.00e+00	0	42	0	3261071360	42	5940
2026-01-21 01:55:01.94	345.94	26.53	-34.1	-34.6	27.6	0.00e+00	0	42	0	3266314240	42	5500
2026-01-21 01:55:02.95	345.86	26.36	-34.5	-35.1	27.7	0.00e+00	0	42	0	3271557120	42	5763
2026-01-21 01:55:03.96	345.78	26.20	-34.0	-34.6	27.6	0.00e+00	0	42	0	3277848576	40	6124
2026-01-21 01:55:04.97	345.71	26.04	-33.9	-34.6	27.6	0.00e+00	0	42	0	3283091456	40	6167
2026-01-21 01:55:05.98	345.63	25.88	-34.6	-35.3	27.6	0.00e+00	0	42	0	3289382912	40	6635
2026-01-21 01:55:06.99	345.56	25.72	-34.2	-34.8	27.9	0.00e+00	0	42	0	3294625792	42	5590
2026-01-21 01:55:08.00	345.48	25.56	-34.0	-34.5	27.7	0.00e+00	0	42	0	3300917248	42	5395
2026-01-21 01:55:09.01	345.41	25.40	-34.1	-34.6	27.7	0.00e+00	0	42	0	3306160128	42	5478
2026-01-21 01:55:10.02	345.34	25.24	-34.2	-34.8	27.7	0.00e+00	0	42	0	3312451584	42	5572
2026-01-21 01:55:11.03	345.27	25.09	-34.4	-35.0	27.5	0.00e+00	0	42	0	3317694464	42	5705
2026-01-21 01:55:12.04	345.20	24.93	-34.1	-34.6	27.6	0.00e+00	0	42	0	3322937344	42	5477
2026-01-21 01:55:13.05	345.13	24.78	-34.0	-34.6	27.7	0.00e+00	0	42	0	3329228800	40	6104
2026-01-21 01:55:14.06	345.06	24.62	-33.9	-34.5	27.7	0.00e+00	0	42	0	3334471680	40	6035
2026-01-21 01:55:15.07	344.99	24.47	-34.3	-34.8	27.4	0.00e+00	0	42	0	3340763136	40	6317
2026-01-21 01:55:16.08	344.92	24.32	-34.8	-35.3	27.3	0.00e+00	0	42	0	3346006016	40	6674
2026-01-21 01:55:17.09	344.86	24.16	-34.0	-34.6	27.6	0.00e+00	0	42	0	3351248896	42	5444
2026-01-21 01:55:18.10	344.79	24.01	-34.6	-35.1	27.4	0.00e+00	0	42	0	3357540352	42	5826
2026-01-21 01:55:19.11	344.72	23.86	-34.0	-34.6	27.4	0.00e+00	0	42	0	3362783232	42	5488
2026-01-21 01:55:20.11	344.66	23.72	-34.4	-35.0	27.1	0.00e+00	0	42	0	3368026112	42	5719
2026-01-21 01:55:21.12	344.60	23.57	-33.8	-34.3	27.6	0.00e+00	0	42	0	3374317568	40	5964
2026-01-21 01:55:22.13	344.53	23.42	-34.2	-34.8	27.6	0.00e+00	0	42	0	3379560448	40	6297
2026-01-21 01:55:23.14	344.47	23.27	-34.6	-35.3	27.5	0.00e+00	0	42	0	3385851904	40	6633
2026-01-21 01:55:24.15	344.41	23.13	-34.3	-34.9	27.5	0.00e+00	0	42	0	3391094784	40	6352
2026-01-21 01:55:25.16	344.34	22.98	-34.2	-34.7	27.6	0.00e+00	0	42	0	3397386240	40	6242
2026-01-21 01:55:26.17	344.28	22.84	-34.3	-34.8	27.5	0.00e+00	0	42	0	3402629120	40	6316
2026-01-21 01:55:27.18	344.22	22.70	-34.9	-35.6	27.1	0.00e+00	0	42	0	3408920576	42	6131
2026-01-21 01:55:28.19	344.16	22.55	-35.1	-35.7	27.2	0.00e+00	0	42	0	3414163456	42	6217
2026-01-21 01:55:29.20	344.10	22.41	-34.7	-35.2	27.5	0.00e+00	0	42	0	3419406336	42	5887
2026-01-21 01:55:30.21	344.04	22.27	-34.3	-35.1	27.0	0.00e+00	0	42	0	3425697792	42	5768
2026-01-21 01:55:31.22	343.99	22.13	-35.3	-36.0	27.2	0.00e+00	0	42	0	3430940672	42	6436
2026-01-21 01:55:32.24	343.93	21.99	-34.9	-35.6	27.3	0.00e+00	0	42	0	3437232128	42	6120
2026-01-21 01:55:33.25	343.87	21.85	-35.1	-35.8	26.8	0.00e+00	0	42	0	3442475008	44	5603
2026-01-21 01:55:34.26	343.81	21.71	-34.7	-35.4	27.3	0.00e+00	0	42	0	3447717888	42	6018
2026-01-21 01:55:35.27	343.76	21.57	-34.9	-35.6	27.2	0.00e+00	0	42	0	3454009344	42	6145
2026-01-21 01:55:36.28	343.70	21.44	-34.0	-34.7	27.5	0.00e+00	0	42	0	3459252224	42	5560
2026-01-21 01:55:37.29	343.65	21.30	-34.1	-34.8	27.4	0.00e+00	0	42	0	3465543680	42	5584
2026-01-21 01:55:38.30	343.59	21.17	-34.9	-35.6	27.2	0.00e+00	0	42	0	3470786560	42	6148
2026-01-21 01:55:39.31	343.54	21.03	-34.3	-35.0	27.5	0.00e+00	0	42	0	3476029440	42	5758
2026-01-21 01:55:40.32	343.49	20.90	-34.6	-35.3	27.3	0.00e+00	0	42	0	3482320896	42	5940
2026-01-21 01:55:41.33	343.43	20.76	-34.1	-34.8	27.3	0.00e+00	0	42	0	3487563776	42	5607
2026-01-21 01:55:42.34	343.38	20.63	-34.8	-35.5	27.2	0.00e+00	0	42	0	3493855232	42	6103
2026-01-21 01:55:43.35	343.33	20.50	-34.9	-35.6	27.2	0.00e+00	0	42	0	3499098112	42	6153
2026-01-21 01:55:44.36	343.28	20.37	-35.0	-35.7	27.2	0.00e+00	0	42	0	3505389568	42	6232
2026-01-21 01:55:45.37	343.22	20.24	-35.0	-35.6	27.2	0.00e+00	0	42	0	3510632448	42	6159
2026-01-21 01:55:46.38	343.17	20.11	-34.8	-35.4	27.1	0.00e+00	0	42	0	3516923904	42	5971
2026-01-21 01:55:47.40	343.12	19.98	-35.1	-35.7	27.2	0.00e+00	0	42	0	3522166784	42	6199
2026-01-21 01:55:48.41	343.07	19.85	-35.1	-35.8	26.9	0.00e+00	0	42	0	3527409664	42	6311
2026-01-21 01:55:49.42	343.02	19.72	-35.5	-36.2	26.8	0.00e+00	0	42	0	3533701120	42	6558
2026-01-21 01:55:50.43	342.98	19.59	-35.1	-35.8	26.9	0.00e+00	0	42	0	3538944000	42	6276
2026-01-21 01:55:51.43	342.93	19.47	-34.9	-35.7	26.8	0.00e+00	0	42	0	3545235456	42	6179
2026-01-21 01:55:52.44	342.88	19.34	-34.5	-35.3	26.9	0.00e+00	0	42	0	3550478336	42	5898
2026-01-21 01:55:53.45	342.83	19.21	-34.4	-35.1	26.9	0.00e+00	0	42	0	3555721216	42	5788
2026-01-21 01:55:54.46	342.79	19.09	-34.3	-35.0	26.7	0.00e+00	0	42	0	3562012672	42	5745
2026-01-21 01:55:55.47	342.74	18.97	-35.1	-35.7	26.7	0.00e+00	0	42	0	3567255552	42	6200
