passes_logs/2026/01/21/R4.6S_Anadyr/R4.6S_Anadyr__20260121_113203_NOAA_20_JPSS-1_rec.log

#Pass ID: 20260121_113203_NOAA 20 (JPSS-1)
#Satellite: NOAA 20 (JPSS-1)
#Configuration: NOAA 20
#almurnet v.1.7.20251203
#Start time: 2026-01-21 11:32:06

#Version: 2.2.20231116
#Station: R4.6S_Anadyr
#Location: 177.4865 lon 64.73178 lat
#TLE: 1 43013U 17073A   26020.82785136  .00000155  00000+0  94366-4 0  9991
#TLE: 2 43013  98.7643 321.7058 0001260  30.3785 329.7464 14.19537992423566

#Time	Az	El	Level	Level2	SNR	BER	BlckErr	Temp	State	Recorded	gain1	gain2
2026-01-21 11:32:06.39	21.01	0.11	-53.6	-65.3	3.5	8.45e-01	0	39	0	0	60	66186
2026-01-21 11:32:07.39	21.11	0.15	-54.1	-69.4	3.6	1.51e+00	0	40	104	0	60	106087
2026-01-21 11:32:08.40	21.21	0.19	-53.6	-68.8	3.6	1.51e+00	0	40	104	0	60	99691
2026-01-21 11:32:09.41	21.30	0.23	-53.2	-68.4	3.6	1.51e+00	0	40	104	0	60	95229
2026-01-21 11:32:10.42	21.40	0.27	-52.6	-67.8	3.6	1.51e+00	0	40	104	0	60	89103
2026-01-21 11:32:11.43	21.50	0.31	-52.5	-67.7	3.6	1.51e+00	0	40	104	0	60	88202
2026-01-21 11:32:12.44	21.60	0.35	-53.0	-68.3	3.6	1.51e+00	0	40	104	0	60	93933
2026-01-21 11:32:13.45	21.70	0.38	-52.4	-67.7	3.6	1.51e+00	0	40	104	0	60	87247
2026-01-21 11:32:14.46	21.80	0.42	-52.3	-67.5	3.5	1.51e+00	0	40	104	0	60	85623
2026-01-21 11:32:15.48	21.90	0.46	-52.1	-67.4	3.6	1.51e+00	0	40	104	0	60	84266
2026-01-21 11:32:16.49	22.00	0.50	-52.0	-67.3	3.6	1.51e+00	0	40	104	0	60	83450
2026-01-21 11:32:17.50	22.10	0.54	-52.1	-67.3	3.6	1.51e+00	0	40	104	0	60	83660
2026-01-21 11:32:18.51	22.20	0.58	-52.5	-67.7	3.6	1.51e+00	0	40	104	0	60	88184
2026-01-21 11:32:19.52	22.30	0.62	-52.2	-67.4	3.6	1.51e+00	0	40	104	0	60	84940
2026-01-21 11:32:20.52	22.40	0.66	-51.9	-67.1	3.6	1.51e+00	0	40	104	0	60	81945
2026-01-21 11:32:21.53	22.50	0.70	-51.6	-66.8	3.6	1.51e+00	0	40	104	0	60	79527
2026-01-21 11:32:22.55	22.61	0.74	-51.5	-66.6	3.6	1.51e+00	0	40	104	0	60	77707
2026-01-21 11:32:23.55	22.71	0.78	-51.3	-66.5	3.6	1.51e+00	0	40	104	0	60	76825
2026-01-21 11:32:24.56	22.81	0.82	-51.0	-66.2	3.6	1.51e+00	0	40	104	0	60	74127
2026-01-21 11:32:25.57	22.91	0.86	-51.7	-66.9	3.6	1.51e+00	0	40	104	0	60	80041
2026-01-21 11:32:26.58	23.01	0.89	-51.2	-66.4	3.6	1.51e+00	0	40	104	0	60	75739
2026-01-21 11:32:27.59	23.12	0.93	-51.5	-66.7	3.6	1.51e+00	0	40	104	0	60	78391
2026-01-21 11:32:28.60	23.22	0.97	-50.8	-66.0	3.6	1.51e+00	0	40	104	0	60	72211
2026-01-21 11:32:29.61	23.32	1.01	-50.3	-65.6	3.6	1.51e+00	0	40	104	0	60	68948
2026-01-21 11:32:30.62	23.43	1.05	-49.9	-65.1	3.6	1.51e+00	0	40	104	0	60	65117
2026-01-21 11:32:31.63	23.53	1.09	-49.1	-64.3	3.6	1.51e+00	0	40	104	0	60	59018
2026-01-21 11:32:32.63	23.63	1.13	-49.0	-64.3	3.6	1.51e+00	0	40	104	0	60	58974
2026-01-21 11:32:33.64	23.74	1.17	-49.0	-64.2	3.6	1.51e+00	0	40	104	0	60	58519
2026-01-21 11:32:34.65	23.84	1.21	-49.0	-64.2	3.6	1.51e+00	0	40	104	0	60	58314
2026-01-21 11:32:35.67	23.95	1.25	-49.0	-64.2	3.6	1.51e+00	0	40	104	0	60	58876
2026-01-21 11:32:36.68	24.05	1.28	-49.0	-64.2	3.6	1.51e+00	0	40	104	0	60	58466
2026-01-21 11:32:37.69	24.16	1.32	-49.0	-64.2	3.6	1.51e+00	0	40	104	0	60	58448
2026-01-21 11:32:38.70	24.27	1.36	-49.0	-64.2	3.6	1.51e+00	0	40	104	0	60	58821
2026-01-21 11:32:39.71	24.37	1.40	-49.0	-64.1	3.6	1.51e+00	0	40	104	0	60	58257
2026-01-21 11:32:40.72	24.48	1.44	-48.9	-64.2	3.6	1.51e+00	0	40	104	0	60	58342
2026-01-21 11:32:41.73	24.58	1.48	-48.9	-64.1	3.6	1.51e+00	0	40	104	0	60	57854
2026-01-21 11:32:42.74	24.69	1.52	-48.9	-64.1	3.6	1.51e+00	0	40	104	0	60	57901
2026-01-21 11:32:43.75	24.80	1.56	-48.9	-64.2	3.6	1.51e+00	0	40	104	0	60	58316
2026-01-21 11:32:44.75	24.90	1.59	-48.9	-64.1	3.6	1.51e+00	0	40	104	0	60	58249
2026-01-21 11:32:45.76	25.01	1.63	-48.9	-64.2	3.6	1.51e+00	0	41	104	0	60	58543
2026-01-21 11:32:46.78	25.12	1.67	-49.0	-64.2	3.6	1.51e+00	0	41	104	0	60	58475
2026-01-21 11:32:47.79	25.23	1.71	-48.9	-64.1	3.6	1.51e+00	0	40	104	0	60	58210
2026-01-21 11:32:48.80	25.34	1.75	-49.0	-64.1	3.6	1.51e+00	0	40	104	0	60	58255
2026-01-21 11:32:49.81	25.45	1.79	-49.0	-64.2	3.6	1.51e+00	0	41	104	0	60	58492
2026-01-21 11:32:50.81	25.55	1.83	-49.0	-64.1	3.6	1.51e+00	0	41	104	0	60	58232
2026-01-21 11:32:51.82	25.66	1.86	-48.9	-64.1	3.6	1.51e+00	0	41	104	0	60	58233
2026-01-21 11:32:52.83	25.77	1.90	-49.0	-64.2	3.6	1.51e+00	0	41	104	0	60	58851
2026-01-21 11:32:53.84	25.88	1.94	-49.0	-64.2	3.6	1.51e+00	0	41	104	0	60	58528
2026-01-21 11:32:54.86	25.99	1.98	-49.0	-64.2	3.6	1.51e+00	0	41	104	0	60	58665
2026-01-21 11:32:55.87	26.10	2.02	-48.9	-64.2	3.6	1.51e+00	0	41	104	0	60	58417
2026-01-21 11:32:56.88	26.21	2.06	-49.0	-64.2	3.6	1.51e+00	0	41	104	0	60	58951
2026-01-21 11:32:57.89	26.33	2.10	-49.3	-64.5	3.6	1.51e+00	0	41	104	0	60	60927
2026-01-21 11:32:58.90	26.44	2.13	-49.2	-64.4	3.6	1.51e+00	0	41	104	0	60	60301
2026-01-21 11:32:59.91	26.55	2.17	-49.1	-64.2	3.6	1.51e+00	0	41	104	0	60	58742
2026-01-21 11:33:00.92	26.66	2.21	-49.1	-64.2	3.6	1.51e+00	0	41	104	0	60	58925
2026-01-21 11:33:01.93	26.77	2.25	-49.1	-64.2	3.6	1.51e+00	0	41	104	0	60	58520
2026-01-21 11:33:02.94	26.88	2.29	-49.1	-64.2	3.6	1.51e+00	0	41	104	0	60	58511
2026-01-21 11:33:03.95	27.00	2.33	-49.3	-64.4	3.6	1.51e+00	0	41	104	0	60	60289
2026-01-21 11:33:04.96	27.11	2.36	-49.1	-64.3	3.6	1.51e+00	0	41	104	0	60	58975
2026-01-21 11:33:05.97	27.22	2.40	-49.0	-64.3	3.6	1.51e+00	0	41	104	0	60	59314
2026-01-21 11:33:06.98	27.33	2.44	-49.1	-64.4	3.6	1.51e+00	0	41	104	0	60	59725
2026-01-21 11:33:07.99	27.45	2.48	-49.0	-64.1	3.6	1.51e+00	0	41	104	0	60	58033
2026-01-21 11:33:09.00	27.56	2.52	-49.0	-63.5	3.6	1.51e+00	0	41	104	0	60	54305
2026-01-21 11:33:10.01	27.68	2.55	-49.0	-63.2	3.6	1.51e+00	0	41	104	0	60	52247
2026-01-21 11:33:11.02	27.79	2.59	-49.3	-63.9	3.6	1.51e+00	0	41	104	0	60	56704
2026-01-21 11:33:12.03	27.91	2.63	-49.1	-63.6	3.6	1.51e+00	0	41	104	0	60	54723
2026-01-21 11:33:13.04	28.02	2.67	-48.8	-57.8	4.5	1.51e+00	0	41	104	0	60	28098
2026-01-21 11:33:14.05	28.14	2.70	-47.2	-51.7	11.3	2.31e-02	0	41	0	0	60	13839
2026-01-21 11:33:15.06	28.25	2.74	-46.1	-49.2	14.1	5.56e-05	0	41	0	2097152	60	10458
2026-01-21 11:33:16.07	28.37	2.78	-44.8	-47.2	16.3	0.00e+00	0	41	0	3145728	60	8252
2026-01-21 11:33:17.08	28.48	2.82	-44.2	-46.3	17.1	0.00e+00	0	41	0	5242880	60	7474
2026-01-21 11:33:18.10	28.60	2.86	-44.2	-46.4	16.6	0.00e+00	92	41	0	7340032	60	7551
2026-01-21 11:33:19.10	28.72	2.89	-44.9	-47.4	16.0	0.00e+00	0	41	0	9437184	60	8440
2026-01-21 11:33:20.11	28.83	2.93	-47.1	-51.4	11.2	6.40e-05	0	41	0	11534336	60	13436
2026-01-21 11:33:21.12	28.95	2.97	-47.9	-53.8	9.3	5.05e-03	0	41	0	13631488	60	17709
2026-01-21 11:33:22.13	29.07	3.01	-48.0	-54.1	10.2	1.59e-01	0	41	0	14680064	60	18383
2026-01-21 11:33:23.14	29.19	3.04	-49.6	-63.9	3.6	1.52e+00	0	41	104	15728640	60	56414
2026-01-21 11:33:24.15	29.30	3.08	-49.1	-64.2	3.6	1.42e+00	0	41	104	15728640	60	58863
2026-01-21 11:33:25.16	29.42	3.12	-49.3	-62.1	3.8	8.63e-01	0	41	104	15728640	60	46000
2026-01-21 11:33:26.17	29.54	3.16	-45.4	-48.0	15.0	4.92e-03	0	41	0	15728640	60	9091
2026-01-21 11:33:27.18	29.66	3.19	-49.1	-62.9	3.6	1.51e+00	0	41	104	16777216	60	50492
2026-01-21 11:33:28.19	29.78	3.23	-45.0	-47.4	15.6	8.80e-01	82	41	104	16777216	60	8507
2026-01-21 11:33:29.20	29.90	3.27	-45.6	-48.3	15.8	7.00e-07	0	41	0	17825792	60	9399
2026-01-21 11:33:30.21	30.02	3.30	-44.8	-47.1	16.5	0.00e+00	0	41	0	19922944	60	8146
2026-01-21 11:33:31.22	30.14	3.34	-45.6	-48.2	15.9	0.00e+00	0	41	0	20971520	60	9248
2026-01-21 11:33:32.23	30.26	3.38	-45.8	-48.5	15.1	0.00e+00	91	41	0	23068672	60	9608
2026-01-21 11:33:33.24	30.38	3.41	-44.3	-46.3	17.2	0.00e+00	2	41	0	25165824	60	7469
2026-01-21 11:33:34.25	30.50	3.45	-44.3	-46.3	17.5	0.00e+00	92	41	0	27262976	60	7425
2026-01-21 11:33:35.26	30.62	3.49	-44.3	-46.3	17.5	0.00e+00	0	41	0	29360128	60	7458
2026-01-21 11:33:36.27	30.74	3.53	-44.6	-46.6	17.1	0.00e+00	0	41	0	30408704	60	7767
2026-01-21 11:33:37.28	30.87	3.56	-44.4	-46.3	17.7	0.00e+00	0	41	0	32505856	60	7433
2026-01-21 11:33:38.28	30.99	3.60	-44.7	-46.7	16.8	0.00e+00	0	41	0	34603008	60	7839
2026-01-21 11:33:39.29	31.11	3.63	-44.6	-46.6	17.6	0.00e+00	0	41	0	36700160	60	7694
2026-01-21 11:33:40.30	31.23	3.67	-45.0	-47.1	17.0	0.00e+00	0	41	0	38797312	60	8151
2026-01-21 11:33:41.31	31.35	3.71	-44.8	-46.8	17.0	0.00e+00	92	41	0	39845888	60	7900
2026-01-21 11:33:42.32	31.48	3.74	-44.9	-47.1	17.1	0.00e+00	0	41	0	41943040	60	8139
2026-01-21 11:33:43.33	31.60	3.78	-44.4	-46.3	18.1	0.00e+00	81	41	0	44040192	60	7446
2026-01-21 11:33:44.34	31.73	3.82	-44.3	-46.2	17.8	0.00e+00	82	41	0	46137344	60	7396
2026-01-21 11:33:45.35	31.85	3.85	-44.5	-46.5	17.5	0.00e+00	81	41	0	48234496	60	7602
2026-01-21 11:33:46.36	31.97	3.89	-44.7	-46.7	17.2	0.00e+00	0	41	0	49283072	60	7838
2026-01-21 11:33:47.37	32.10	3.93	-44.6	-46.5	17.9	0.00e+00	0	41	0	51380224	60	7638
2026-01-21 11:33:48.38	32.22	3.96	-44.7	-46.7	17.4	0.00e+00	92	41	0	53477376	60	7854
2026-01-21 11:33:49.39	32.35	4.00	-44.2	-46.0	18.2	0.00e+00	82	41	0	55574528	60	7197
2026-01-21 11:33:50.40	32.48	4.03	-44.3	-46.0	18.3	0.00e+00	60	41	0	57671680	60	7251
2026-01-21 11:33:51.41	32.60	4.07	-44.1	-45.8	18.4	0.00e+00	0	41	0	58720256	60	7046
2026-01-21 11:33:52.42	32.73	4.11	-44.2	-46.0	18.1	0.00e+00	6	41	0	60817408	60	7238
2026-01-21 11:33:53.43	32.85	4.14	-43.8	-45.5	18.7	0.00e+00	6	41	0	62914560	60	6771
2026-01-21 11:33:54.44	32.98	4.18	-44.1	-45.8	18.5	0.00e+00	0	41	0	65011712	60	7051
2026-01-21 11:33:55.45	33.11	4.21	-44.3	-46.2	18.0	0.00e+00	90	41	0	67108864	60	7353
2026-01-21 11:33:56.46	33.24	4.25	-43.4	-44.9	19.3	0.00e+00	7	41	0	68157440	60	6386
2026-01-21 11:33:57.47	33.36	4.28	-43.9	-45.5	18.6	0.00e+00	92	41	0	70254592	60	6836
2026-01-21 11:33:58.48	33.49	4.32	-44.0	-45.7	18.3	0.00e+00	0	41	0	72351744	60	6950
2026-01-21 11:33:59.49	33.62	4.35	-44.0	-45.7	18.4	0.00e+00	45	41	0	74448896	60	6989
2026-01-21 11:34:00.50	33.75	4.39	-44.1	-45.9	18.3	0.00e+00	0	41	0	76546048	60	7107
2026-01-21 11:34:01.51	33.88	4.42	-44.3	-46.1	18.7	0.00e+00	0	41	0	77594624	60	7310
2026-01-21 11:34:02.52	34.01	4.46	-43.8	-45.4	18.9	0.00e+00	79	41	0	79691776	60	6703
2026-01-21 11:34:03.53	34.14	4.50	-43.7	-45.3	18.5	0.00e+00	0	41	0	81788928	60	6625
2026-01-21 11:34:04.54	34.27	4.53	-44.2	-45.9	18.6	0.00e+00	92	41	0	83886080	60	7128
2026-01-21 11:34:05.55	34.40	4.57	-44.5	-46.4	17.3	0.00e+00	2	41	0	85983232	60	7548
2026-01-21 11:34:06.56	34.53	4.60	-43.9	-45.5	19.0	0.00e+00	31	41	0	88080384	60	6839
2026-01-21 11:34:07.57	34.66	4.63	-44.2	-45.8	18.7	0.00e+00	4	41	0	89128960	60	7086
2026-01-21 11:34:08.58	34.79	4.67	-44.2	-45.9	18.5	0.00e+00	84	41	0	91226112	60	7165
2026-01-21 11:34:09.59	34.92	4.70	-44.2	-45.9	18.4	0.00e+00	0	41	0	93323264	60	7092
2026-01-21 11:34:10.60	35.05	4.74	-43.6	-45.2	19.2	0.00e+00	7	41	0	95420416	60	6580
2026-01-21 11:34:11.61	35.18	4.77	-43.6	-45.2	18.9	0.00e+00	91	41	0	97517568	60	6558
2026-01-21 11:34:12.62	35.32	4.81	-43.8	-45.4	19.0	0.00e+00	6	41	0	98566144	60	6710
2026-01-21 11:34:13.63	35.45	4.84	-43.4	-44.9	19.4	0.00e+00	91	41	0	100663296	60	6333
2026-01-21 11:34:14.64	35.58	4.88	-43.4	-44.9	19.4	0.00e+00	6	41	0	102760448	60	6380
2026-01-21 11:34:15.65	35.71	4.91	-44.0	-45.7	18.5	0.00e+00	7	41	0	104857600	60	6975
2026-01-21 11:34:16.66	35.85	4.94	-43.6	-45.2	19.1	0.00e+00	5	41	0	106954752	60	6547
2026-01-21 11:34:17.67	35.98	4.98	-43.2	-44.7	19.6	0.00e+00	0	41	0	108003328	60	6209
2026-01-21 11:34:18.68	36.11	5.01	-43.5	-45.0	19.2	0.00e+00	92	41	0	110100480	60	6460
2026-01-21 11:34:19.69	36.25	5.05	-43.4	-44.9	19.3	0.00e+00	7	41	0	112197632	60	6381
2026-01-21 11:34:20.70	36.38	5.08	-43.5	-45.0	19.2	0.00e+00	90	41	0	114294784	60	6435
2026-01-21 11:34:21.71	36.52	5.11	-43.3	-44.8	19.4	0.00e+00	81	41	0	116391936	60	6266
2026-01-21 11:34:22.72	36.65	5.15	-43.7	-45.4	19.0	0.00e+00	81	41	0	117440512	60	6700
2026-01-21 11:34:23.73	36.79	5.18	-43.2	-44.7	19.5	0.00e+00	0	41	0	119537664	60	6244
2026-01-21 11:34:24.74	36.93	5.21	-43.5	-45.0	19.1	0.00e+00	81	41	0	121634816	60	6450
2026-01-21 11:34:25.75	37.06	5.25	-43.3	-44.9	19.4	0.00e+00	82	41	0	123731968	60	6338
2026-01-21 11:34:26.76	37.20	5.28	-43.4	-45.0	19.2	0.00e+00	79	41	0	125829120	60	6403
2026-01-21 11:34:27.77	37.33	5.31	-43.3	-44.8	19.4	0.00e+00	92	41	0	126877696	60	6252
2026-01-21 11:34:28.78	37.47	5.35	-43.1	-44.6	19.3	0.00e+00	79	41	0	128974848	60	6153
2026-01-21 11:34:29.79	37.61	5.38	-43.2	-44.7	19.4	0.00e+00	89	41	0	131072000	60	6195
2026-01-21 11:34:30.80	37.75	5.41	-43.0	-44.5	19.7	0.00e+00	0	41	0	133169152	60	6046
2026-01-21 11:34:31.81	37.88	5.45	-43.5	-45.0	19.0	0.00e+00	0	41	0	135266304	60	6452
2026-01-21 11:34:32.82	38.02	5.48	-43.4	-45.0	19.3	0.00e+00	0	41	0	136314880	60	6441
2026-01-21 11:34:33.82	38.16	5.51	-43.2	-44.7	19.4	0.00e+00	2	41	0	138412032	60	6202
2026-01-21 11:34:34.83	38.30	5.54	-43.2	-44.7	19.4	0.00e+00	92	41	0	140509184	60	6193
2026-01-21 11:34:35.85	38.44	5.58	-43.2	-44.7	19.4	0.00e+00	1	41	0	142606336	60	6192
2026-01-21 11:34:36.85	38.58	5.61	-43.4	-45.0	19.1	0.00e+00	92	41	0	144703488	60	6418
2026-01-21 11:34:37.86	38.72	5.64	-43.4	-44.9	19.2	0.00e+00	0	41	0	145752064	60	6384
2026-01-21 11:34:38.88	38.86	5.67	-43.7	-45.3	19.0	0.00e+00	0	41	0	147849216	60	6655
2026-01-21 11:34:39.89	39.00	5.70	-43.6	-45.2	19.0	0.00e+00	0	41	0	149946368	60	6561
2026-01-21 11:34:40.90	39.14	5.74	-43.7	-45.3	19.0	0.00e+00	2	41	0	152043520	60	6627
2026-01-21 11:34:41.91	39.28	5.77	-43.4	-44.9	19.2	0.00e+00	91	41	0	154140672	60	6370
2026-01-21 11:34:42.92	39.42	5.80	-43.4	-45.0	19.1	0.00e+00	4	41	0	156237824	60	6401
2026-01-21 11:34:43.92	39.56	5.83	-43.3	-44.9	19.2	0.00e+00	92	41	0	157286400	60	6337
2026-01-21 11:34:44.93	39.70	5.86	-43.6	-45.2	19.0	0.00e+00	0	41	0	159383552	60	6544
2026-01-21 11:34:45.94	39.85	5.89	-43.4	-44.9	19.3	0.00e+00	0	41	0	161480704	60	6369
2026-01-21 11:34:46.95	39.99	5.92	-43.4	-45.0	19.1	0.00e+00	0	41	0	163577856	60	6408
2026-01-21 11:34:47.96	40.13	5.96	-43.7	-45.3	18.8	0.00e+00	0	41	0	165675008	60	6674
2026-01-21 11:34:48.97	40.27	5.99	-43.6	-45.2	18.8	0.00e+00	60	41	0	166723584	60	6597
2026-01-21 11:34:49.98	40.42	6.02	-43.5	-45.1	18.9	0.00e+00	82	41	0	168820736	60	6489
2026-01-21 11:34:50.99	40.56	6.05	-43.5	-45.1	19.0	0.00e+00	90	41	0	170917888	60	6482
2026-01-21 11:34:52.00	40.70	6.08	-43.5	-45.0	19.1	0.00e+00	1	41	0	173015040	60	6460
2026-01-21 11:34:53.01	40.85	6.11	-43.5	-45.1	19.0	0.00e+00	55	41	0	175112192	60	6480
2026-01-21 11:34:54.02	40.99	6.14	-43.6	-45.2	18.9	0.00e+00	0	41	0	176160768	60	6579
2026-01-21 11:34:55.03	41.14	6.17	-43.7	-45.4	18.7	0.00e+00	0	41	0	178257920	60	6697
2026-01-21 11:34:56.04	41.28	6.20	-43.9	-45.6	18.5	0.00e+00	0	41	0	180355072	60	6909
2026-01-21 11:34:57.05	41.43	6.23	-43.9	-45.6	18.6	0.00e+00	0	41	0	182452224	60	6852
2026-01-21 11:34:58.05	41.57	6.26	-44.0	-45.6	18.5	0.00e+00	92	41	0	184549376	60	6926
2026-01-21 11:34:59.06	41.72	6.29	-43.7	-45.4	18.8	0.00e+00	0	41	0	185597952	60	6717
2026-01-21 11:35:00.07	41.86	6.32	-43.7	-45.4	18.8	0.00e+00	90	41	0	187695104	60	6719
2026-01-21 11:35:01.08	42.01	6.35	-43.7	-45.3	18.8	0.00e+00	0	41	0	189792256	60	6674
2026-01-21 11:35:02.09	42.16	6.38	-44.0	-45.7	18.4	0.00e+00	0	41	0	191889408	60	6987
2026-01-21 11:35:03.10	42.30	6.41	-44.0	-45.7	18.6	0.00e+00	0	41	0	193986560	60	6994
2026-01-21 11:35:04.11	42.45	6.44	-43.8	-45.5	18.7	0.00e+00	0	41	0	195035136	60	6817
2026-01-21 11:35:05.12	42.60	6.47	-43.9	-45.6	18.4	0.00e+00	69	41	0	197132288	60	6918
2026-01-21 11:35:06.13	42.75	6.50	-43.9	-45.6	18.5	0.00e+00	0	41	0	199229440	60	6872
2026-01-21 11:35:07.14	42.89	6.52	-43.8	-45.5	18.7	0.00e+00	77	41	0	201326592	60	6802
2026-01-21 11:35:08.15	43.04	6.55	-43.8	-45.5	18.6	0.00e+00	81	41	0	203423744	60	6842
2026-01-21 11:35:09.16	43.19	6.58	-44.0	-45.7	18.7	0.00e+00	0	41	0	204472320	60	6950
2026-01-21 11:35:10.17	43.34	6.61	-43.9	-45.6	18.6	0.00e+00	81	41	0	206569472	60	6879
2026-01-21 11:35:11.18	43.49	6.64	-43.9	-45.6	18.4	0.00e+00	0	41	0	208666624	60	6910
2026-01-21 11:35:12.19	43.64	6.67	-44.1	-45.8	18.3	0.00e+00	58	41	0	210763776	60	7078
2026-01-21 11:35:13.20	43.79	6.70	-44.2	-46.0	18.2	0.00e+00	82	41	0	212860928	60	7207
2026-01-21 11:35:14.21	43.94	6.72	-44.2	-45.9	18.3	0.00e+00	91	41	0	213909504	60	7131
2026-01-21 11:35:15.22	44.09	6.75	-45.2	-47.3	17.3	0.00e+00	0	41	0	216006656	60	8390
2026-01-21 11:35:16.23	44.24	6.78	-43.9	-45.6	18.7	0.00e+00	44	41	0	218103808	60	6909
2026-01-21 11:35:17.24	44.39	6.81	-44.7	-46.6	17.7	0.00e+00	0	41	0	220200960	60	7753
2026-01-21 11:35:18.24	44.54	6.83	-43.9	-45.6	18.8	0.00e+00	0	41	0	222298112	60	6880
2026-01-21 11:35:19.25	44.69	6.86	-43.9	-45.6	18.5	0.00e+00	0	41	0	224395264	60	6909
2026-01-21 11:35:20.26	44.84	6.89	-43.7	-45.3	19.0	0.00e+00	0	41	0	225443840	60	6652
2026-01-21 11:35:21.27	45.00	6.92	-43.8	-45.5	18.7	0.00e+00	90	41	0	227540992	60	6799
2026-01-21 11:35:22.28	45.15	6.94	-43.7	-45.3	18.9	0.00e+00	0	41	0	229638144	60	6671
2026-01-21 11:35:23.29	45.30	6.97	-43.8	-45.5	18.7	0.00e+00	68	41	0	231735296	60	6794
2026-01-21 11:35:24.30	45.45	7.00	-43.7	-45.3	18.7	0.00e+00	0	41	0	233832448	60	6688
2026-01-21 11:35:25.32	45.61	7.02	-43.6	-45.3	18.7	0.00e+00	0	41	0	234881024	60	6644
2026-01-21 11:35:26.32	45.76	7.05	-43.7	-45.3	18.7	0.00e+00	0	41	0	236978176	60	6686
2026-01-21 11:35:27.33	45.92	7.07	-43.8	-45.5	18.5	0.00e+00	81	41	0	239075328	60	6783
2026-01-21 11:35:28.34	46.07	7.10	-43.7	-45.4	18.6	0.00e+00	58	41	0	241172480	60	6741
2026-01-21 11:35:29.35	46.22	7.13	-43.8	-45.5	18.4	0.00e+00	82	41	0	243269632	60	6842
2026-01-21 11:35:30.36	46.38	7.15	-43.9	-45.6	18.3	0.00e+00	92	41	0	244318208	60	6882
2026-01-21 11:35:31.37	46.53	7.18	-43.9	-45.6	18.2	0.00e+00	0	41	0	246415360	60	6876
2026-01-21 11:35:32.38	46.69	7.20	-43.9	-45.6	18.4	0.00e+00	0	41	0	248512512	60	6885
2026-01-21 11:35:33.39	46.84	7.23	-44.1	-45.9	18.1	0.00e+00	81	42	0	250609664	60	7106
2026-01-21 11:35:34.40	47.00	7.25	-44.0	-45.7	18.6	0.00e+00	6	41	0	252706816	60	6965
2026-01-21 11:35:35.41	47.15	7.28	-43.9	-45.6	18.4	0.00e+00	77	41	0	253755392	60	6919
2026-01-21 11:35:36.42	47.31	7.30	-43.8	-45.5	18.8	0.00e+00	6	41	0	255852544	60	6774
2026-01-21 11:35:37.43	47.47	7.33	-43.7	-45.3	18.9	0.00e+00	92	41	0	257949696	60	6681
2026-01-21 11:35:38.44	47.62	7.35	-43.7	-45.4	18.7	0.00e+00	5	41	0	260046848	60	6716
2026-01-21 11:35:39.45	47.78	7.38	-43.7	-45.3	18.9	0.00e+00	0	41	0	262144000	60	6664
2026-01-21 11:35:40.46	47.94	7.40	-43.7	-45.3	18.9	0.00e+00	0	41	0	263192576	60	6626
2026-01-21 11:35:41.47	48.09	7.42	-43.7	-45.2	19.0	0.00e+00	5	42	0	265289728	60	6608
2026-01-21 11:35:42.48	48.25	7.45	-43.8	-45.5	18.8	0.00e+00	5	41	0	267386880	60	6772
2026-01-21 11:35:43.48	48.41	7.47	-43.8	-45.4	18.8	0.00e+00	0	41	0	269484032	60	6721
2026-01-21 11:35:44.49	48.57	7.50	-43.6	-45.2	18.9	0.00e+00	92	41	0	271581184	60	6607
2026-01-21 11:35:45.50	48.72	7.52	-43.8	-45.4	18.9	0.00e+00	5	41	0	272629760	60	6728
2026-01-21 11:35:46.51	48.88	7.54	-43.7	-45.3	18.9	0.00e+00	75	41	0	274726912	60	6664
2026-01-21 11:35:47.52	49.04	7.57	-43.5	-45.0	19.3	0.00e+00	79	41	0	276824064	60	6428
2026-01-21 11:35:48.53	49.20	7.59	-43.5	-45.1	19.3	0.00e+00	0	41	0	278921216	60	6490
2026-01-21 11:35:49.54	49.36	7.61	-43.7	-45.3	19.0	0.00e+00	0	41	0	281018368	60	6620
2026-01-21 11:35:50.55	49.52	7.63	-43.8	-45.3	19.2	0.00e+00	84	41	0	282066944	60	6661
2026-01-21 11:35:51.56	49.68	7.66	-43.7	-45.3	19.2	0.00e+00	90	41	0	284164096	60	6639
2026-01-21 11:35:52.57	49.84	7.68	-43.9	-45.5	18.9	0.00e+00	85	42	0	286261248	60	6799
2026-01-21 11:35:53.58	50.00	7.70	-43.6	-45.1	19.2	0.00e+00	92	41	0	288358400	60	6523
2026-01-21 11:35:54.59	50.16	7.72	-43.8	-45.4	19.0	0.00e+00	1	41	0	290455552	60	6742
2026-01-21 11:35:55.60	50.32	7.74	-43.8	-45.4	19.1	0.00e+00	4	41	0	291504128	60	6712
2026-01-21 11:35:56.61	50.48	7.77	-44.0	-45.6	18.7	0.00e+00	0	42	0	293601280	60	6882
2026-01-21 11:35:57.62	50.64	7.79	-44.2	-45.9	19.1	0.00e+00	6	42	0	295698432	60	7119
2026-01-21 11:35:58.63	50.80	7.81	-44.0	-45.6	18.9	0.00e+00	32	42	0	297795584	60	6857
2026-01-21 11:35:59.63	50.96	7.83	-43.8	-45.3	19.4	0.00e+00	2	41	0	299892736	60	6655
2026-01-21 11:36:00.64	51.13	7.85	-44.0	-45.5	19.1	0.00e+00	92	41	0	300941312	60	6840
2026-01-21 11:36:01.65	51.29	7.87	-44.7	-46.4	18.1	0.00e+00	6	41	0	303038464	60	7585
2026-01-21 11:36:02.66	51.45	7.89	-44.0	-45.6	18.8	0.00e+00	7	41	0	305135616	60	6876
2026-01-21 11:36:03.67	51.61	7.91	-44.2	-45.8	19.4	0.00e+00	7	41	0	307232768	60	7072
2026-01-21 11:36:04.68	51.78	7.93	-43.7	-45.2	19.1	0.00e+00	0	41	0	309329920	60	6602
2026-01-21 11:36:05.69	51.94	7.95	-44.0	-45.6	19.3	0.00e+00	5	41	0	310378496	60	6863
2026-01-21 11:36:06.70	52.10	7.97	-43.7	-45.2	19.3	0.00e+00	82	41	0	312475648	60	6559
2026-01-21 11:36:07.71	52.27	7.99	-44.0	-45.6	19.1	0.00e+00	92	41	0	314572800	60	6914
2026-01-21 11:36:08.72	52.43	8.01	-43.5	-44.9	19.7	0.00e+00	0	41	0	316669952	60	6384
2026-01-21 11:36:09.73	52.59	8.03	-43.5	-44.9	19.7	0.00e+00	92	41	0	318767104	60	6378
2026-01-21 11:36:10.74	52.76	8.05	-43.3	-44.7	19.9	0.00e+00	0	41	0	320864256	60	6182
2026-01-21 11:36:11.75	52.92	8.07	-43.5	-45.0	19.7	0.00e+00	80	41	0	321912832	60	6414
2026-01-21 11:36:12.76	53.09	8.09	-43.6	-45.0	19.7	0.00e+00	81	41	0	324009984	60	6464
2026-01-21 11:36:13.77	53.25	8.10	-43.5	-45.0	19.7	0.00e+00	0	41	0	326107136	60	6415
2026-01-21 11:36:14.77	53.41	8.12	-43.8	-45.3	19.5	0.00e+00	91	41	0	328204288	60	6635
2026-01-21 11:36:15.79	53.58	8.14	-43.7	-45.2	19.6	0.00e+00	0	41	0	330301440	60	6597
2026-01-21 11:36:16.80	53.75	8.16	-43.6	-45.0	19.7	0.00e+00	92	41	0	331350016	60	6453
2026-01-21 11:36:17.80	53.91	8.18	-43.8	-45.3	19.2	0.00e+00	2	41	0	333447168	60	6671
2026-01-21 11:36:18.81	54.08	8.19	-43.6	-45.1	19.5	0.00e+00	0	41	0	335544320	60	6534
2026-01-21 11:36:19.82	54.24	8.21	-43.6	-45.1	19.4	0.00e+00	0	41	0	337641472	60	6479
2026-01-21 11:36:20.83	54.41	8.23	-43.5	-45.0	19.7	0.00e+00	0	41	0	339738624	60	6415
2026-01-21 11:36:21.84	54.57	8.24	-43.7	-45.1	19.6	0.00e+00	0	41	0	340787200	60	6539
2026-01-21 11:36:22.85	54.74	8.26	-43.4	-44.9	19.8	0.00e+00	0	41	0	342884352	60	6336
2026-01-21 11:36:23.86	54.91	8.28	-43.5	-44.9	19.8	0.00e+00	92	41	0	344981504	60	6355
2026-01-21 11:36:25.14	55.12	8.30	-44.2	-45.8	18.9	0.00e+00	0	41	0	347078656	60	7035
2026-01-21 11:36:25.86	55.24	8.31	-43.8	-45.2	19.7	0.00e+00	92	41	0	348127232	60	6596
2026-01-21 11:36:27.16	55.45	8.33	-43.7	-45.1	19.7	0.00e+00	0	41	0	350224384	60	6505
2026-01-21 11:36:27.88	55.57	8.34	-43.7	-45.2	19.8	0.00e+00	84	41	0	352321536	60	6540
2026-01-21 11:36:29.17	55.79	8.36	-43.7	-45.2	19.6	0.00e+00	0	41	0	354418688	60	6545
2026-01-21 11:36:29.89	55.91	8.37	-43.6	-45.1	19.7	0.00e+00	0	41	0	355467264	60	6474
2026-01-21 11:36:31.19	56.12	8.39	-43.9	-45.4	19.4	0.00e+00	92	41	0	358612992	60	6719
2026-01-21 11:36:31.91	56.24	8.40	-43.7	-45.1	19.7	0.00e+00	0	41	0	359661568	60	6539
2026-01-21 11:36:33.21	56.46	8.42	-43.8	-45.3	19.6	0.00e+00	92	41	0	361758720	60	6690
2026-01-21 11:36:33.93	56.58	8.43	-43.7	-45.2	19.7	0.00e+00	0	41	0	363855872	60	6556
2026-01-21 11:36:35.23	56.80	8.45	-43.4	-44.8	19.9	0.00e+00	3	41	0	365953024	60	6286
2026-01-21 11:36:35.95	56.92	8.46	-43.6	-45.0	19.5	0.00e+00	0	41	0	367001600	60	6438
2026-01-21 11:36:37.25	57.13	8.48	-43.6	-45.1	19.6	0.00e+00	81	41	0	369098752	60	6472
2026-01-21 11:36:37.97	57.25	8.49	-43.8	-45.3	19.5	0.00e+00	0	41	0	371195904	60	6630
2026-01-21 11:36:39.27	57.47	8.51	-43.9	-45.4	19.4	0.00e+00	0	41	0	373293056	60	6701
2026-01-21 11:36:39.99	57.59	8.52	-43.8	-45.3	19.5	0.00e+00	6	41	0	374341632	60	6620
2026-01-21 11:36:41.29	57.81	8.53	-44.1	-45.6	19.1	0.00e+00	3	41	0	377487360	60	6913
2026-01-21 11:36:42.01	57.93	8.54	-44.0	-45.6	19.2	0.00e+00	92	41	0	378535936	60	6859
2026-01-21 11:36:43.31	58.15	8.56	-44.1	-45.7	19.0	0.00e+00	0	41	0	380633088	60	7005
2026-01-21 11:36:44.03	58.27	8.57	-44.1	-45.7	19.0	0.00e+00	92	41	0	382730240	60	6973
2026-01-21 11:36:45.33	58.49	8.58	-44.3	-45.9	18.8	0.00e+00	2	41	0	384827392	60	7159
2026-01-21 11:36:46.05	58.61	8.59	-44.4	-46.0	18.8	0.00e+00	80	41	0	385875968	60	7207
2026-01-21 11:36:47.34	58.83	8.61	-44.4	-46.0	18.9	0.00e+00	90	41	0	389021696	60	7228
2026-01-21 11:36:48.06	58.95	8.61	-44.4	-46.1	18.7	0.00e+00	0	41	0	390070272	60	7287
2026-01-21 11:36:49.36	59.17	8.63	-44.6	-46.4	18.7	0.00e+00	92	41	0	392167424	60	7531
2026-01-21 11:36:50.08	59.29	8.64	-44.4	-46.1	18.9	0.00e+00	0	41	0	393216000	60	7262
2026-01-21 11:36:51.38	59.51	8.65	-44.3	-45.9	19.0	0.00e+00	0	41	0	396361728	60	7104
2026-01-21 11:36:52.10	59.63	8.66	-44.1	-45.7	19.0	0.00e+00	0	41	0	397410304	60	6939
2026-01-21 11:36:53.40	59.85	8.67	-43.9	-45.4	19.4	0.00e+00	82	41	0	399507456	60	6760
2026-01-21 11:36:54.12	59.98	8.68	-44.0	-45.6	19.2	0.00e+00	0	41	0	401604608	60	6853
2026-01-21 11:36:55.42	60.20	8.69	-43.8	-45.3	19.4	0.00e+00	0	41	0	403701760	60	6624
2026-01-21 11:36:56.15	60.32	8.70	-43.8	-45.2	19.3	0.00e+00	73	41	0	404750336	60	6598
2026-01-21 11:36:57.44	60.54	8.71	-44.0	-45.5	19.3	0.00e+00	81	41	0	407896064	60	6821
2026-01-21 11:36:58.17	60.66	8.72	-44.2	-45.8	19.2	0.00e+00	91	41	0	408944640	60	7056
2026-01-21 11:36:59.46	60.88	8.73	-44.2	-45.8	18.9	0.00e+00	0	41	0	411041792	60	7049
2026-01-21 11:37:00.18	61.01	8.74	-44.2	-45.8	19.0	0.00e+00	18	41	0	412090368	60	7020
2026-01-21 11:37:01.48	61.23	8.75	-44.5	-46.2	18.6	0.00e+00	92	41	0	415236096	60	7371
2026-01-21 11:37:02.20	61.35	8.75	-44.5	-46.2	18.6	0.00e+00	81	41	0	416284672	60	7373
2026-01-21 11:37:03.50	61.57	8.77	-44.5	-46.2	18.6	0.00e+00	90	41	0	418381824	60	7414
2026-01-21 11:37:04.22	61.69	8.77	-44.7	-46.4	18.6	0.00e+00	0	41	0	420478976	60	7529
2026-01-21 11:37:05.52	61.92	8.78	-44.5	-46.2	18.6	0.00e+00	73	41	0	422576128	60	7398
2026-01-21 11:37:06.24	62.04	8.79	-44.5	-46.2	18.9	0.00e+00	0	41	0	423624704	60	7347
2026-01-21 11:37:07.54	62.26	8.80	-44.5	-46.2	18.7	0.00e+00	0	41	0	426770432	60	7340
2026-01-21 11:37:08.26	62.38	8.80	-44.5	-46.2	18.7	0.00e+00	0	41	0	427819008	60	7376
2026-01-21 11:37:09.56	62.61	8.81	-44.6	-46.3	18.5	0.00e+00	0	41	0	429916160	60	7508
2026-01-21 11:37:10.28	62.73	8.82	-44.1	-45.8	19.2	0.00e+00	0	41	0	432013312	60	7013
2026-01-21 11:37:11.58	62.95	8.82	-44.0	-45.6	19.3	0.00e+00	0	41	0	434110464	60	6875
2026-01-21 11:37:12.30	63.08	8.83	-43.8	-45.3	19.4	0.00e+00	92	41	0	435159040	60	6689
2026-01-21 11:37:13.60	63.30	8.84	-43.7	-45.2	19.5	0.00e+00	80	41	0	437256192	60	6600
2026-01-21 11:37:14.32	63.42	8.84	-43.6	-45.1	19.7	0.00e+00	92	41	0	439353344	60	6475
2026-01-21 11:37:15.62	63.65	8.85	-43.7	-45.2	19.5	0.00e+00	0	41	0	441450496	60	6594
2026-01-21 11:37:16.34	63.77	8.85	-43.6	-45.1	19.7	0.00e+00	0	41	0	442499072	60	6499
2026-01-21 11:37:17.64	63.99	8.86	-43.8	-45.3	19.3	0.00e+00	81	41	0	445644800	60	6666
2026-01-21 11:37:18.36	64.12	8.86	-43.7	-45.2	19.6	0.00e+00	0	41	0	446693376	60	6570
2026-01-21 11:37:19.66	64.34	8.87	-44.8	-46.5	18.8	0.00e+00	91	41	0	448790528	60	7601
2026-01-21 11:37:20.38	64.46	8.87	-44.5	-46.1	18.6	0.00e+00	0	41	0	450887680	60	7309
2026-01-21 11:37:21.68	64.69	8.88	-44.0	-45.6	19.5	0.00e+00	6	41	0	452984832	60	6862
2026-01-21 11:37:22.40	64.81	8.88	-44.7	-46.4	18.8	0.00e+00	0	41	0	454033408	60	7565
2026-01-21 11:37:23.70	65.03	8.89	-44.0	-45.5	19.4	0.00e+00	5	41	0	457179136	60	6808
2026-01-21 11:37:24.42	65.16	8.89	-44.5	-46.1	19.3	0.00e+00	82	41	0	458227712	60	7295
2026-01-21 11:37:25.72	65.38	8.89	-43.9	-45.4	19.4	0.00e+00	5	41	0	460324864	60	6753
2026-01-21 11:37:26.44	65.50	8.90	-44.0	-45.5	19.7	0.00e+00	58	41	0	461373440	60	6819
2026-01-21 11:37:27.74	65.73	8.90	-43.9	-45.4	19.2	0.00e+00	6	41	0	464519168	60	6733
2026-01-21 11:37:28.46	65.85	8.90	-43.8	-45.3	19.7	0.00e+00	91	41	0	465567744	60	6636
2026-01-21 11:37:29.76	66.08	8.90	-43.8	-45.2	19.8	0.00e+00	0	41	0	467664896	60	6603
2026-01-21 11:37:30.48	66.20	8.91	-44.1	-45.6	19.5	0.00e+00	31	41	0	469762048	60	6894
2026-01-21 11:37:31.78	66.42	8.91	-43.4	-44.7	20.3	0.00e+00	0	41	0	471859200	60	6234
2026-01-21 11:37:32.50	66.55	8.91	-43.2	-44.5	20.3	0.00e+00	0	41	0	472907776	60	6102
2026-01-21 11:37:33.79	66.77	8.91	-42.9	-44.2	20.5	0.00e+00	90	41	0	476053504	60	5860
2026-01-21 11:37:34.51	66.89	8.91	-43.1	-44.4	20.4	0.00e+00	0	41	0	477102080	60	5991
2026-01-21 11:37:35.81	67.12	8.91	-43.0	-44.3	20.4	0.00e+00	92	41	0	479199232	60	5940
2026-01-21 11:37:36.53	67.24	8.92	-43.0	-44.3	20.3	0.00e+00	0	41	0	480247808	60	5911
2026-01-21 11:37:37.83	67.47	8.92	-43.1	-44.5	20.3	0.00e+00	5	41	0	483393536	60	6065
2026-01-21 11:37:38.56	67.59	8.92	-43.5	-44.9	20.1	0.00e+00	0	41	0	484442112	60	6331
2026-01-21 11:37:39.85	67.82	8.92	-43.9	-45.3	20.0	0.00e+00	85	41	0	486539264	60	6677
2026-01-21 11:37:40.58	67.94	8.92	-44.0	-45.5	20.1	0.00e+00	77	41	0	488636416	60	6779
2026-01-21 11:37:41.87	68.16	8.92	-44.0	-45.5	19.5	0.00e+00	5	41	0	490733568	60	6787
2026-01-21 11:37:42.60	68.29	8.92	-43.4	-44.8	20.0	0.00e+00	50	41	0	491782144	60	6258
2026-01-21 11:37:43.89	68.51	8.92	-43.0	-44.3	20.4	0.00e+00	8	41	0	494927872	60	5930
2026-01-21 11:37:44.61	68.64	8.92	-43.0	-44.3	20.6	0.00e+00	92	41	0	495976448	60	5950
2026-01-21 11:37:45.91	68.86	8.91	-42.9	-44.2	20.1	0.00e+00	0	41	0	498073600	60	5846
2026-01-21 11:37:46.63	68.98	8.91	-42.9	-44.2	20.4	0.00e+00	0	41	0	500170752	60	5856
2026-01-21 11:37:47.93	69.21	8.91	-42.5	-43.7	21.0	0.00e+00	80	41	0	502267904	58	6238
2026-01-21 11:37:48.65	69.33	8.91	-42.4	-43.6	21.1	0.00e+00	3	41	0	503316480	58	6163
2026-01-21 11:37:49.95	69.56	8.91	-42.2	-43.4	21.2	0.00e+00	91	41	0	505413632	58	6009
2026-01-21 11:37:50.67	69.68	8.91	-42.3	-43.5	21.0	0.00e+00	5	41	0	507510784	58	6074
2026-01-21 11:37:51.97	69.90	8.90	-42.3	-43.5	21.0	0.00e+00	71	41	0	509607936	58	6097
2026-01-21 11:37:52.69	70.03	8.90	-42.4	-43.7	20.9	0.00e+00	5	41	0	510656512	58	6190
2026-01-21 11:37:53.99	70.25	8.90	-42.5	-43.8	21.0	0.00e+00	0	41	0	513802240	58	6259
2026-01-21 11:37:54.71	70.38	8.89	-42.7	-44.0	20.8	0.00e+00	6	41	0	514850816	58	6391
2026-01-21 11:37:56.01	70.60	8.89	-43.2	-44.6	20.0	0.00e+00	82	41	0	516947968	58	6850
2026-01-21 11:37:56.73	70.72	8.89	-42.8	-44.1	20.6	0.00e+00	7	41	0	519045120	58	6512
2026-01-21 11:37:58.02	70.95	8.88	-42.6	-43.9	20.6	0.00e+00	0	41	0	521142272	58	6338
2026-01-21 11:37:58.74	71.07	8.88	-42.7	-44.0	20.7	0.00e+00	90	41	0	522190848	58	6437
2026-01-21 11:38:00.04	71.29	8.87	-42.7	-43.9	20.7	0.00e+00	82	41	0	525336576	58	6372
2026-01-21 11:38:00.76	71.42	8.87	-42.6	-43.9	20.7	0.00e+00	92	41	0	526385152	58	6319
2026-01-21 11:38:02.06	71.64	8.86	-42.2	-43.4	21.1	0.00e+00	0	41	0	528482304	58	5974
2026-01-21 11:38:02.78	71.76	8.86	-42.2	-43.4	21.0	0.00e+00	0	41	0	529530880	58	6026
2026-01-21 11:38:04.08	71.99	8.85	-42.5	-43.7	21.1	0.00e+00	92	41	0	532676608	58	6236
2026-01-21 11:38:04.80	72.11	8.85	-42.4	-43.6	21.1	0.00e+00	0	41	0	533725184	58	6131
2026-01-21 11:38:06.10	72.34	8.84	-42.2	-43.4	21.1	0.00e+00	92	41	0	535822336	58	5999
2026-01-21 11:38:06.83	72.46	8.84	-42.3	-43.6	20.9	0.00e+00	84	41	0	537919488	58	6108
2026-01-21 11:38:08.12	72.68	8.83	-42.6	-43.9	20.6	0.00e+00	6	41	0	540016640	58	6322
2026-01-21 11:38:08.85	72.81	8.83	-42.4	-43.6	20.9	0.00e+00	1	41	0	541065216	58	6140
2026-01-21 11:38:10.15	73.03	8.82	-42.5	-43.7	20.7	0.00e+00	0	41	0	544210944	58	6243
2026-01-21 11:38:10.87	73.15	8.81	-42.6	-43.8	20.7	0.00e+00	5	41	0	545259520	58	6307
2026-01-21 11:38:12.16	73.37	8.80	-42.3	-43.5	20.9	0.00e+00	80	41	0	547356672	58	6037
2026-01-21 11:38:12.89	73.50	8.80	-42.4	-43.6	20.8	0.00e+00	75	41	0	548405248	58	6171
2026-01-21 11:38:14.19	73.72	8.79	-42.4	-43.7	20.8	0.00e+00	81	41	0	551550976	58	6196
2026-01-21 11:38:14.91	73.84	8.78	-42.2	-43.4	21.1	0.00e+00	91	41	0	552599552	58	5992
2026-01-21 11:38:16.21	74.07	8.77	-42.2	-43.4	21.2	0.00e+00	81	41	0	554696704	58	5996
2026-01-21 11:38:16.93	74.19	8.77	-42.1	-43.3	21.2	0.00e+00	45	41	0	556793856	58	5917
2026-01-21 11:38:18.23	74.41	8.76	-42.1	-43.3	21.2	0.00e+00	63	41	0	558891008	58	5914
2026-01-21 11:38:18.95	74.53	8.75	-42.3	-43.5	21.0	0.00e+00	0	41	0	559939584	58	6089
2026-01-21 11:38:20.25	74.76	8.74	-42.4	-43.6	21.0	0.00e+00	92	41	0	563085312	58	6159
2026-01-21 11:38:20.97	74.88	8.73	-42.4	-43.6	21.0	0.00e+00	0	41	0	564133888	58	6119
2026-01-21 11:38:22.27	75.10	8.72	-42.6	-43.9	20.8	0.00e+00	92	41	0	566231040	58	6332
2026-01-21 11:38:22.99	75.22	8.72	-42.5	-43.7	21.0	0.00e+00	81	41	0	568328192	58	6204
2026-01-21 11:38:24.29	75.44	8.70	-42.4	-43.7	21.0	0.00e+00	0	41	0	570425344	58	6185
2026-01-21 11:38:25.01	75.57	8.70	-42.5	-43.7	20.8	0.00e+00	81	41	0	571473920	58	6244
2026-01-21 11:38:26.30	75.79	8.68	-42.5	-43.7	20.8	0.00e+00	0	41	0	573571072	58	6244
2026-01-21 11:38:27.02	75.91	8.68	-42.6	-43.8	20.8	0.00e+00	81	41	0	575668224	58	6312
2026-01-21 11:38:28.32	76.13	8.66	-42.6	-43.8	20.9	0.00e+00	0	41	0	577765376	58	6306
2026-01-21 11:38:29.04	76.25	8.66	-42.5	-43.8	20.9	0.00e+00	84	41	0	578813952	58	6258
2026-01-21 11:38:30.34	76.47	8.64	-42.5	-43.7	20.9	0.00e+00	0	41	0	581959680	58	6239
2026-01-21 11:38:31.06	76.59	8.63	-42.5	-43.8	20.9	0.00e+00	92	41	0	583008256	58	6287
2026-01-21 11:38:32.36	76.81	8.62	-42.4	-43.8	20.8	0.00e+00	0	41	0	585105408	58	6256
2026-01-21 11:38:33.08	76.94	8.61	-42.5	-43.8	20.8	0.00e+00	47	41	0	587202560	58	6291
2026-01-21 11:38:34.38	77.16	8.60	-42.8	-44.2	20.4	0.00e+00	44	41	0	589299712	58	6595
2026-01-21 11:38:35.10	77.28	8.59	-42.8	-44.2	20.4	0.00e+00	2	41	0	590348288	58	6597
2026-01-21 11:38:36.40	77.50	8.57	-43.0	-44.4	20.6	0.00e+00	92	41	0	593494016	60	6013
2026-01-21 11:38:37.12	77.62	8.56	-42.8	-44.3	20.4	0.00e+00	0	41	0	594542592	58	6634
2026-01-21 11:38:38.42	77.84	8.55	-42.8	-44.1	20.5	0.00e+00	84	41	0	596639744	58	6514
2026-01-21 11:38:39.13	77.96	8.54	-42.5	-43.9	20.8	0.00e+00	0	41	0	597688320	58	6331
2026-01-21 11:38:40.43	78.17	8.52	-42.5	-43.8	20.8	0.00e+00	81	41	0	600834048	58	6314
2026-01-21 11:38:41.15	78.30	8.51	-42.6	-43.9	20.8	0.00e+00	0	41	0	601882624	58	6324
2026-01-21 11:38:42.45	78.51	8.49	-42.6	-43.9	21.0	0.00e+00	0	41	0	603979776	58	6326
2026-01-21 11:38:43.18	78.64	8.48	-42.5	-43.8	20.9	0.00e+00	0	41	0	606076928	58	6251
2026-01-21 11:38:44.48	78.85	8.47	-42.5	-43.9	20.9	0.00e+00	0	41	0	608174080	58	6333
2026-01-21 11:38:45.20	78.97	8.46	-42.5	-43.9	20.8	0.00e+00	92	41	0	609222656	58	6354
2026-01-21 11:38:46.50	79.19	8.44	-42.4	-43.8	20.9	0.00e+00	0	41	0	612368384	58	6256
2026-01-21 11:38:47.22	79.31	8.43	-42.4	-43.7	20.7	0.00e+00	92	41	0	613416960	58	6230
2026-01-21 11:38:48.51	79.53	8.41	-42.5	-43.8	20.8	0.00e+00	0	41	0	615514112	58	6315
2026-01-21 11:38:49.23	79.65	8.40	-42.4	-43.8	20.8	0.00e+00	13	41	0	616562688	58	6256
2026-01-21 11:38:50.53	79.86	8.38	-42.9	-44.3	20.3	0.00e+00	92	41	0	619708416	58	6640
2026-01-21 11:38:51.25	79.98	8.37	-42.6	-43.9	20.6	0.00e+00	3	41	0	620756992	58	6386
2026-01-21 11:38:52.55	80.20	8.35	-42.6	-43.9	20.7	0.00e+00	92	41	0	622854144	58	6353
2026-01-21 11:38:53.27	80.32	8.34	-42.5	-43.8	20.8	0.00e+00	0	41	0	624951296	58	6300
2026-01-21 11:38:54.57	80.54	8.32	-42.7	-44.0	20.4	0.00e+00	0	41	0	627048448	58	6464
2026-01-21 11:38:55.29	80.66	8.30	-42.7	-44.0	20.7	0.00e+00	0	41	0	628097024	58	6412
2026-01-21 11:38:56.59	80.87	8.28	-42.5	-43.8	20.8	0.00e+00	82	41	0	631242752	58	6267
2026-01-21 11:38:57.31	80.99	8.27	-42.4	-43.7	20.8	0.00e+00	0	41	0	632291328	58	6220
2026-01-21 11:38:58.61	81.20	8.25	-42.2	-43.5	21.0	0.00e+00	0	41	0	634388480	58	6042
2026-01-21 11:38:59.33	81.32	8.24	-42.2	-43.4	21.1	0.00e+00	0	41	0	636485632	58	6023
2026-01-21 11:39:00.63	81.54	8.22	-42.3	-43.5	21.0	0.00e+00	0	41	0	638582784	58	6080
2026-01-21 11:39:01.35	81.66	8.20	-41.9	-43.1	21.3	0.00e+00	92	41	0	639631360	58	5772
2026-01-21 11:39:02.64	81.87	8.18	-42.0	-43.3	21.2	0.00e+00	81	41	0	641728512	58	5919
2026-01-21 11:39:03.37	81.99	8.17	-42.1	-43.3	21.2	0.00e+00	92	41	0	643825664	58	5946
2026-01-21 11:39:04.67	82.20	8.14	-42.1	-43.3	21.2	0.00e+00	0	41	0	645922816	58	5932
2026-01-21 11:39:05.39	82.32	8.13	-42.0	-43.3	21.4	0.00e+00	0	41	0	646971392	58	5904
2026-01-21 11:39:06.69	82.53	8.11	-41.9	-43.1	21.5	0.00e+00	92	41	0	650117120	56	6531
2026-01-21 11:39:07.41	82.65	8.10	-41.9	-43.1	21.5	0.00e+00	0	41	0	651165696	56	6466
2026-01-21 11:39:08.71	82.86	8.07	-41.8	-43.0	21.5	0.00e+00	92	41	0	653262848	56	6462
2026-01-21 11:39:09.43	82.98	8.06	-42.0	-43.2	21.3	0.00e+00	0	41	0	655360000	56	6607
2026-01-21 11:39:10.72	83.19	8.03	-42.0	-43.3	21.2	0.00e+00	6	41	0	657457152	56	6664
2026-01-21 11:39:11.44	83.31	8.02	-42.1	-43.4	21.1	0.00e+00	1	41	0	658505728	56	6742
2026-01-21 11:39:12.74	83.52	7.99	-42.0	-43.2	21.3	0.00e+00	5	41	0	661651456	56	6573
2026-01-21 11:39:13.46	83.64	7.98	-42.1	-43.3	21.3	0.00e+00	80	41	0	662700032	56	6645
2026-01-21 11:39:14.76	83.85	7.96	-42.2	-43.4	21.2	0.00e+00	7	41	0	664797184	56	6736
2026-01-21 11:39:15.48	83.96	7.94	-42.2	-43.4	21.0	0.00e+00	51	41	0	665845760	56	6739
2026-01-21 11:39:16.78	84.17	7.92	-42.4	-43.7	21.0	0.00e+00	77	41	0	668991488	56	6932
2026-01-21 11:39:17.50	84.29	7.90	-42.3	-43.6	20.9	0.00e+00	91	41	0	670040064	56	6882
2026-01-21 11:39:18.80	84.50	7.87	-42.2	-43.4	20.9	0.00e+00	0	41	0	672137216	56	6731
2026-01-21 11:39:19.52	84.62	7.86	-42.1	-43.3	21.1	0.00e+00	56	41	0	674234368	56	6692
2026-01-21 11:39:20.82	84.82	7.83	-42.4	-43.6	20.8	0.00e+00	89	41	0	676331520	58	6157
2026-01-21 11:39:21.54	84.94	7.82	-42.3	-43.5	20.9	0.00e+00	0	41	0	677380096	58	6053
2026-01-21 11:39:22.84	85.15	7.79	-42.5	-43.8	20.6	0.00e+00	90	41	0	680525824	58	6252
2026-01-21 11:39:23.56	85.26	7.78	-42.2	-43.4	20.9	0.00e+00	0	41	0	681574400	58	6028
2026-01-21 11:39:24.86	85.47	7.75	-42.4	-43.6	21.0	0.00e+00	92	41	0	683671552	58	6152
2026-01-21 11:39:25.57	85.59	7.73	-42.4	-43.7	21.0	0.00e+00	0	41	0	684720128	58	6180
2026-01-21 11:39:26.88	85.79	7.70	-42.0	-43.3	21.1	0.00e+00	5	41	0	687865856	58	5912
2026-01-21 11:39:27.60	85.91	7.69	-42.0	-43.2	21.3	0.00e+00	81	41	0	688914432	58	5845
2026-01-21 11:39:28.90	86.12	7.66	-42.3	-43.5	21.1	0.00e+00	6	41	0	691011584	58	6058
2026-01-21 11:39:29.62	86.23	7.64	-42.0	-43.1	21.5	0.00e+00	69	41	0	693108736	58	5827
2026-01-21 11:39:30.91	86.43	7.61	-41.9	-43.0	21.4	0.00e+00	7	41	0	695205888	56	6451
2026-01-21 11:39:31.63	86.55	7.60	-42.0	-43.2	21.4	0.00e+00	90	41	0	696254464	56	6563
2026-01-21 11:39:32.93	86.75	7.57	-42.0	-43.2	21.2	0.00e+00	0	41	0	699400192	56	6551
2026-01-21 11:39:33.65	86.87	7.55	-42.2	-43.5	21.0	0.00e+00	92	41	0	700448768	56	6770
2026-01-21 11:39:34.95	87.07	7.52	-42.4	-43.6	20.9	0.00e+00	4	41	0	702545920	56	6912
2026-01-21 11:39:35.67	87.19	7.51	-42.4	-43.7	20.8	0.00e+00	6	41	0	704643072	56	6980
2026-01-21 11:39:36.97	87.39	7.48	-42.5	-43.8	20.6	0.00e+00	92	41	0	706740224	56	7075
2026-01-21 11:39:37.69	87.50	7.46	-42.7	-44.0	20.6	0.00e+00	0	41	0	707788800	56	7195
2026-01-21 11:39:38.99	87.71	7.43	-42.7	-44.0	20.4	0.00e+00	92	41	0	709885952	58	6448
2026-01-21 11:39:39.71	87.82	7.41	-42.8	-44.2	20.3	0.00e+00	0	41	0	711983104	58	6543
2026-01-21 11:39:41.01	88.02	7.38	-42.9	-44.2	20.1	0.00e+00	69	41	0	714080256	58	6614
2026-01-21 11:39:41.73	88.13	7.36	-42.8	-44.1	20.1	0.00e+00	0	41	0	715128832	58	6503
2026-01-21 11:39:43.03	88.34	7.33	-42.8	-44.2	20.1	0.00e+00	3	41	0	718274560	58	6545
2026-01-21 11:39:43.75	88.45	7.31	-42.7	-44.1	20.3	0.00e+00	0	41	0	719323136	58	6465
2026-01-21 11:39:45.05	88.65	7.28	-42.5	-43.7	20.7	0.00e+00	78	41	0	721420288	58	6220
2026-01-21 11:39:45.77	88.76	7.26	-42.4	-43.7	20.7	0.00e+00	0	41	0	723517440	58	6185
2026-01-21 11:39:47.07	88.96	7.23	-42.2	-43.5	20.9	0.00e+00	1	41	0	725614592	58	6039
2026-01-21 11:39:47.79	89.07	7.21	-42.5	-43.8	20.7	0.00e+00	92	41	0	726663168	58	6247
2026-01-21 11:39:49.08	89.27	7.18	-42.8	-44.1	20.3	0.00e+00	3	41	0	729808896	58	6486
2026-01-21 11:39:49.80	89.38	7.16	-42.7	-44.0	20.4	0.00e+00	90	41	0	730857472	58	6443
2026-01-21 11:39:51.10	89.58	7.13	-42.8	-44.1	20.4	0.00e+00	0	41	0	732954624	58	6520
2026-01-21 11:39:51.82	89.69	7.11	-42.8	-44.2	20.2	0.00e+00	82	41	0	734003200	58	6560
2026-01-21 11:39:53.12	89.89	7.08	-42.9	-44.2	20.2	0.00e+00	92	41	0	737148928	58	6579
2026-01-21 11:39:53.84	90.00	7.06	-42.9	-44.3	20.1	0.00e+00	6	41	0	738197504	58	6622
2026-01-21 11:39:55.14	90.20	7.02	-42.9	-44.2	20.2	0.00e+00	92	41	0	740294656	58	6588
2026-01-21 11:39:55.86	90.31	7.00	-43.0	-44.4	20.0	0.00e+00	4	41	0	742391808	58	6709
2026-01-21 11:39:57.16	90.51	6.97	-43.3	-44.8	19.6	0.00e+00	0	41	0	744488960	58	7025
2026-01-21 11:39:57.88	90.62	6.95	-43.2	-44.8	19.5	0.00e+00	6	41	0	745537536	58	7036
2026-01-21 11:39:59.18	90.81	6.92	-43.5	-45.2	19.2	0.00e+00	82	41	0	748683264	58	7409
2026-01-21 11:39:59.90	90.92	6.90	-43.6	-45.3	19.1	0.00e+00	4	41	0	749731840	58	7431
2026-01-21 11:40:01.20	91.12	6.86	-44.1	-46.0	18.4	0.00e+00	82	41	0	751828992	60	7200
2026-01-21 11:40:01.92	91.23	6.84	-44.5	-46.4	18.1	0.00e+00	92	41	0	752877568	60	7521
2026-01-21 11:40:03.22	91.42	6.81	-44.6	-46.4	17.9	0.00e+00	3	41	0	756023296	60	7569
2026-01-21 11:40:03.94	91.53	6.79	-44.7	-46.6	17.9	0.00e+00	92	41	0	757071872	60	7687
2026-01-21 11:40:05.24	91.73	6.75	-44.6	-46.4	18.0	0.00e+00	0	41	0	759169024	60	7578
2026-01-21 11:40:05.96	91.83	6.73	-44.4	-46.3	18.1	0.00e+00	90	41	0	761266176	60	7453
2026-01-21 11:40:07.26	92.03	6.69	-44.3	-46.1	18.3	0.00e+00	49	41	0	763363328	60	7309
2026-01-21 11:40:07.98	92.14	6.67	-44.1	-45.9	18.4	0.00e+00	0	41	0	764411904	60	7154
2026-01-21 11:40:09.27	92.33	6.64	-44.2	-46.1	18.4	0.00e+00	92	41	0	767557632	60	7284
2026-01-21 11:40:10.00	92.44	6.62	-44.2	-46.0	18.4	0.00e+00	81	41	0	768606208	60	7239
2026-01-21 11:40:11.29	92.63	6.58	-44.0	-45.8	18.6	0.00e+00	83	41	0	770703360	60	7020
2026-01-21 11:40:12.01	92.73	6.56	-44.0	-45.8	18.6	0.00e+00	79	41	0	772800512	60	7016
2026-01-21 11:40:13.31	92.93	6.52	-44.0	-45.8	18.6	0.00e+00	4	41	0	774897664	60	7054
2026-01-21 11:40:14.03	93.03	6.50	-44.0	-45.8	18.6	0.00e+00	80	41	0	775946240	60	7060
2026-01-21 11:40:15.33	93.22	6.46	-43.8	-45.5	18.8	0.00e+00	2	41	0	778043392	60	6842
2026-01-21 11:40:16.05	93.33	6.44	-43.6	-45.3	19.1	0.00e+00	3	41	0	780140544	60	6677
2026-01-21 11:40:17.35	93.52	6.41	-43.7	-45.3	19.0	0.00e+00	0	41	0	782237696	60	6673
2026-01-21 11:40:18.07	93.62	6.39	-43.9	-45.6	18.8	0.00e+00	92	41	0	783286272	60	6901
2026-01-21 11:40:19.37	93.81	6.35	-43.8	-45.5	18.9	0.00e+00	0	41	0	786432000	60	6773
2026-01-21 11:40:20.09	93.92	6.33	-44.0	-45.7	18.6	0.00e+00	92	41	0	787480576	60	6950
2026-01-21 11:40:21.39	94.11	6.29	-44.2	-45.9	18.1	0.00e+00	74	41	0	789577728	60	7164
2026-01-21 11:40:22.11	94.21	6.27	-44.4	-46.2	18.0	0.00e+00	88	41	0	791674880	60	7376
2026-01-21 11:40:23.40	94.40	6.23	-44.4	-46.6	17.6	0.00e+00	41	41	0	793772032	60	7739
2026-01-21 11:40:24.12	94.50	6.21	-44.4	-46.9	17.5	0.00e+00	0	41	0	794820608	60	7955
2026-01-21 11:40:25.42	94.69	6.17	-44.8	-47.6	16.7	0.00e+00	92	41	0	796917760	60	8690
2026-01-21 11:40:26.14	94.79	6.14	-44.9	-47.6	16.8	0.00e+00	0	41	0	799014912	60	8687
2026-01-21 11:40:27.44	94.98	6.11	-45.1	-47.9	16.4	0.00e+00	0	41	0	801112064	60	8971
2026-01-21 11:40:28.16	95.08	6.08	-45.1	-47.8	16.5	0.00e+00	0	41	0	802160640	60	8886
2026-01-21 11:40:29.46	95.27	6.04	-45.3	-47.7	16.5	0.00e+00	2	41	0	805306368	60	8803
2026-01-21 11:40:30.18	95.37	6.02	-45.6	-48.0	16.3	0.00e+00	0	41	0	806354944	60	9093
2026-01-21 11:40:31.48	95.56	5.98	-45.5	-47.9	16.4	0.00e+00	2	41	0	808452096	60	8960
2026-01-21 11:40:32.20	95.66	5.96	-45.4	-47.9	16.5	0.00e+00	0	41	0	810549248	60	8946
2026-01-21 11:40:33.50	95.84	5.92	-45.3	-47.7	16.6	0.00e+00	0	41	0	812646400	60	8808
2026-01-21 11:40:34.22	95.95	5.90	-45.3	-47.8	16.4	0.00e+00	92	41	0	813694976	60	8839
2026-01-21 11:40:35.52	96.13	5.86	-45.3	-47.8	16.0	0.00e+00	0	41	0	816840704	60	8833
2026-01-21 11:40:36.24	96.23	5.83	-45.3	-47.7	16.6	0.00e+00	92	41	0	817889280	60	8821
2026-01-21 11:40:37.54	96.41	5.79	-45.0	-47.3	17.2	0.00e+00	0	41	0	819986432	60	8331
2026-01-21 11:40:38.26	96.52	5.77	-44.8	-47.0	17.2	0.00e+00	80	41	0	821035008	60	8136
2026-01-21 11:40:39.56	96.70	5.73	-45.0	-47.2	17.2	0.00e+00	91	41	0	824180736	60	8277
2026-01-21 11:40:40.28	96.80	5.71	-44.8	-46.9	17.4	0.00e+00	0	41	0	825229312	60	8001
2026-01-21 11:40:41.58	96.98	5.66	-44.8	-46.9	17.2	0.00e+00	92	41	0	827326464	60	7960
2026-01-21 11:40:42.30	97.08	5.64	-45.4	-47.8	16.3	0.00e+00	5	41	0	829423616	60	8879
2026-01-21 11:40:43.60	97.26	5.60	-44.9	-47.0	16.7	0.00e+00	0	41	0	831520768	60	8087
2026-01-21 11:40:44.32	97.36	5.58	-45.2	-47.4	16.5	0.00e+00	0	41	0	832569344	60	8506
2026-01-21 11:40:45.62	97.54	5.53	-44.9	-47.0	16.9	0.00e+00	78	41	0	835715072	60	8049
2026-01-21 11:40:46.34	97.64	5.51	-44.9	-47.0	17.0	0.00e+00	0	41	0	836763648	60	8122
2026-01-21 11:40:47.63	97.82	5.47	-45.1	-47.3	16.7	0.00e+00	6	41	0	838860800	60	8400
2026-01-21 11:40:48.35	97.92	5.45	-44.9	-47.0	16.9	0.00e+00	0	41	0	839909376	60	8127
2026-01-21 11:40:49.65	98.09	5.40	-45.0	-47.2	16.9	0.00e+00	1	41	0	843055104	60	8314
2026-01-21 11:40:50.37	98.19	5.38	-44.8	-47.0	17.3	0.00e+00	90	41	0	844103680	60	8078
2026-01-21 11:40:51.67	98.37	5.34	-44.5	-46.7	17.4	0.00e+00	6	41	0	846200832	60	7819
2026-01-21 11:40:52.39	98.47	5.31	-44.3	-46.6	17.7	0.00e+00	92	41	0	848297984	60	7696
2026-01-21 11:40:53.69	98.65	5.27	-44.2	-46.5	17.7	0.00e+00	79	41	0	850395136	60	7662
2026-01-21 11:40:54.41	98.74	5.25	-44.1	-46.4	17.8	0.00e+00	0	41	0	851443712	60	7530
2026-01-21 11:40:55.71	98.92	5.20	-44.4	-46.8	17.4	0.00e+00	91	41	0	854589440	60	7937
2026-01-21 11:40:56.43	99.02	5.18	-44.2	-46.7	17.3	0.00e+00	0	41	0	855638016	60	7799
2026-01-21 11:40:57.73	99.19	5.14	-44.6	-46.8	17.3	0.00e+00	91	41	0	857735168	60	7900
2026-01-21 11:40:58.45	99.29	5.11	-44.7	-46.8	17.3	0.00e+00	0	41	0	859832320	60	7896
2026-01-21 11:40:59.74	99.46	5.07	-45.0	-47.2	16.9	0.00e+00	0	41	0	861929472	60	8238
2026-01-21 11:41:00.46	99.56	5.04	-45.0	-47.2	16.8	0.00e+00	0	41	0	862978048	60	8253
2026-01-21 11:41:01.76	99.73	5.00	-45.0	-47.3	16.5	0.00e+00	5	41	0	865075200	60	8371
2026-01-21 11:41:02.48	99.83	4.98	-45.2	-47.7	16.2	0.00e+00	0	41	0	867172352	60	8721
2026-01-21 11:41:03.78	100.00	4.93	-45.3	-47.7	15.6	0.00e+00	81	41	0	869269504	60	8794
2026-01-21 11:41:04.50	100.10	4.91	-45.2	-47.6	15.8	0.00e+00	90	41	0	870318080	60	8661
2026-01-21 11:41:05.80	100.27	4.86	-45.0	-47.4	16.1	0.00e+00	5	41	0	873463808	60	8459
2026-01-21 11:41:06.52	100.36	4.84	-45.2	-47.8	16.4	0.00e+00	92	41	0	874512384	60	8884
2026-01-21 11:41:07.82	100.53	4.79	-44.6	-47.1	16.9	0.00e+00	7	41	0	876609536	60	8182
2026-01-21 11:41:08.54	100.63	4.77	-44.5	-47.1	17.0	0.00e+00	3	41	0	878706688	60	8165
2026-01-21 11:41:09.84	100.80	4.72	-44.3	-46.6	17.2	0.00e+00	81	41	0	880803840	60	7758
2026-01-21 11:41:10.56	100.89	4.70	-43.8	-45.8	17.8	0.00e+00	0	41	0	881852416	60	7036
2026-01-21 11:41:11.86	101.06	4.65	-44.1	-46.3	17.7	0.00e+00	90	41	0	883949568	60	7464
2026-01-21 11:41:12.58	101.16	4.63	-43.8	-45.8	18.0	0.00e+00	0	41	0	886046720	60	7071
2026-01-21 11:41:13.88	101.33	4.58	-44.0	-46.3	17.9	0.00e+00	7	41	0	888143872	60	7429
2026-01-21 11:41:14.60	101.42	4.56	-43.9	-46.1	17.9	0.00e+00	0	41	0	889192448	60	7290
2026-01-21 11:41:15.90	101.59	4.51	-43.9	-46.2	17.4	0.00e+00	11	41	0	892338176	60	7373
2026-01-21 11:41:16.62	101.68	4.49	-44.0	-46.1	17.9	0.00e+00	75	41	0	893386752	60	7301
2026-01-21 11:41:17.92	101.85	4.44	-44.6	-46.8	17.1	0.00e+00	6	41	0	895483904	60	7943
2026-01-21 11:41:18.64	101.94	4.42	-44.6	-46.8	17.3	0.00e+00	38	41	0	897581056	60	7932
2026-01-21 11:41:19.94	102.11	4.37	-44.5	-46.7	17.5	0.00e+00	0	41	0	899678208	60	7779
2026-01-21 11:41:20.66	102.20	4.35	-44.7	-46.8	17.0	0.00e+00	92	41	0	900726784	60	7933
2026-01-21 11:41:21.96	102.37	4.30	-44.5	-46.8	17.3	0.00e+00	0	41	0	903872512	60	7878
2026-01-21 11:41:22.68	102.46	4.28	-44.6	-47.0	16.9	0.00e+00	33	41	0	904921088	60	8108
2026-01-21 11:41:23.98	102.62	4.23	-44.3	-46.5	17.3	0.00e+00	0	41	0	907018240	60	7666
2026-01-21 11:41:24.70	102.71	4.20	-44.2	-46.3	17.3	0.00e+00	7	41	0	908066816	60	7426
2026-01-21 11:41:25.99	102.88	4.16	-44.5	-46.6	16.8	0.00e+00	92	41	0	911212544	60	7772
2026-01-21 11:41:26.72	102.97	4.13	-44.5	-46.6	17.1	0.00e+00	6	41	0	912261120	60	7697
2026-01-21 11:41:28.02	103.13	4.09	-44.4	-46.4	17.6	0.00e+00	92	41	0	914358272	60	7576
2026-01-21 11:41:28.74	103.22	4.06	-44.6	-46.7	17.1	0.00e+00	0	41	0	916455424	60	7787
2026-01-21 11:41:30.03	103.39	4.01	-44.5	-46.6	17.2	0.00e+00	0	41	0	918552576	60	7738
2026-01-21 11:41:30.76	103.48	3.99	-44.3	-46.5	17.1	0.00e+00	6	41	0	919601152	60	7608
2026-01-21 11:41:32.05	103.64	3.94	-44.3	-46.5	17.1	0.00e+00	82	41	0	922746880	60	7625
2026-01-21 11:41:32.78	103.73	3.91	-44.4	-46.6	17.0	0.00e+00	0	41	0	923795456	60	7738
2026-01-21 11:41:34.07	103.89	3.87	-44.3	-46.3	17.5	0.00e+00	0	41	0	925892608	60	7506
2026-01-21 11:41:34.80	103.98	3.84	-44.1	-46.1	17.9	0.00e+00	8	41	0	927989760	60	7254
2026-01-21 11:41:36.09	104.14	3.79	-43.9	-45.9	17.9	0.00e+00	0	41	0	930086912	60	7102
2026-01-21 11:41:36.81	104.23	3.77	-43.9	-46.0	17.6	0.00e+00	92	41	0	931135488	60	7203
2026-01-21 11:41:38.11	104.39	3.72	-43.8	-46.3	17.3	0.00e+00	2	41	0	933232640	60	7436
2026-01-21 11:41:38.83	104.47	3.70	-44.0	-47.0	16.8	0.00e+00	81	41	0	935329792	60	8071
2026-01-21 11:41:40.13	104.63	3.65	-43.5	-45.6	18.1	0.00e+00	0	41	0	937426944	60	6916
2026-01-21 11:41:40.85	104.72	3.62	-43.0	-44.8	19.0	0.00e+00	12	41	0	938475520	60	6266
2026-01-21 11:41:42.15	104.88	3.57	-43.2	-45.1	18.4	0.00e+00	91	41	0	941621248	60	6488
2026-01-21 11:41:42.87	104.97	3.55	-43.3	-45.4	18.0	0.00e+00	13	41	0	942669824	60	6764
2026-01-21 11:41:44.16	105.12	3.50	-43.8	-46.2	17.5	0.00e+00	91	41	0	944766976	60	7371
2026-01-21 11:41:44.88	105.21	3.47	-43.5	-45.7	17.8	0.00e+00	7	41	0	946864128	60	6952
2026-01-21 11:41:46.18	105.37	3.43	-43.7	-45.7	17.8	0.00e+00	0	41	0	948961280	60	6953
2026-01-21 11:41:46.91	105.45	3.40	-43.7	-45.8	17.8	0.00e+00	10	41	0	950009856	60	7014
2026-01-21 11:41:48.20	105.61	3.35	-43.3	-45.5	17.7	0.00e+00	76	41	0	952107008	60	6774
2026-01-21 11:41:48.93	105.70	3.32	-43.3	-45.6	17.7	0.00e+00	7	41	0	954204160	60	6865
2026-01-21 11:41:50.22	105.85	3.28	-43.8	-46.1	17.2	0.00e+00	81	41	0	956301312	60	7261
2026-01-21 11:41:50.95	105.94	3.25	-43.7	-45.7	17.5	0.00e+00	91	41	0	957349888	60	7003
2026-01-21 11:41:52.24	106.09	3.20	-43.4	-45.8	17.4	0.00e+00	0	41	0	960495616	60	7018
2026-01-21 11:41:52.96	106.18	3.17	-43.6	-46.5	16.7	0.00e+00	92	41	0	961544192	60	7612
2026-01-21 11:41:54.26	106.33	3.13	-43.0	-46.2	16.8	0.00e+00	2	41	0	963641344	60	7355
2026-01-21 11:41:54.98	106.41	3.10	-43.6	-47.1	16.1	0.00e+00	80	41	0	965738496	60	8147
2026-01-21 11:41:56.28	106.57	3.05	-44.6	-47.3	15.7	0.00e+00	51	41	0	967835648	60	8385
2026-01-21 11:41:57.00	106.65	3.02	-44.5	-47.1	16.0	0.00e+00	0	41	0	968884224	60	8181
2026-01-21 11:41:58.30	106.80	2.98	-49.8	-65.3	3.6	5.72e-01	0	41	104	969932800	60	66804
2026-01-21 11:41:59.02	106.89	2.95	-48.6	-65.3	3.6	1.51e+00	0	41	104	969932800	60	66748
2026-01-21 11:42:00.32	107.04	2.90	-50.4	-65.8	3.6	1.51e+00	0	41	104	969932800	60	70530
2026-01-21 11:42:01.04	107.12	2.87	-50.5	-66.1	3.6	1.51e+00	0	41	104	969932800	60	72683
2026-01-21 11:42:02.34	107.27	2.82	-50.9	-66.2	3.6	1.51e+00	0	41	104	969932800	60	73411
2026-01-21 11:42:03.06	107.36	2.80	-51.0	-66.3	3.6	1.51e+00	0	41	104	969932800	60	74294
2026-01-21 11:42:04.36	107.51	2.75	-51.1	-66.4	3.6	1.51e+00	0	41	104	969932800	60	75283
2026-01-21 11:42:05.08	107.59	2.72	-51.1	-66.4	3.6	1.51e+00	0	41	104	969932800	60	75212
2026-01-21 11:42:06.38	107.74	2.67	-51.0	-66.5	3.6	1.51e+00	0	41	104	969932800	60	76049
2026-01-21 11:42:07.10	107.82	2.64	-51.2	-66.5	3.6	1.51e+00	0	41	104	969932800	60	76120
2026-01-21 11:42:08.40	107.97	2.60	-51.3	-66.6	3.6	1.51e+00	0	41	104	969932800	60	77062
2026-01-21 11:42:09.13	108.05	2.57	-51.3	-66.5	3.6	1.51e+00	0	41	104	969932800	60	76481
2026-01-21 11:42:10.42	108.20	2.52	-51.4	-66.6	3.6	1.51e+00	0	41	104	969932800	60	77042
2026-01-21 11:42:11.15	108.28	2.49	-51.3	-66.6	3.6	1.51e+00	0	41	104	969932800	60	76937
2026-01-21 11:42:12.44	108.43	2.44	-51.6	-66.8	3.6	1.51e+00	0	41	104	969932800	60	78764
2026-01-21 11:42:13.17	108.51	2.41	-51.5	-66.7	3.6	1.51e+00	0	41	104	969932800	60	78597
2026-01-21 11:42:14.46	108.66	2.37	-51.5	-66.7	3.6	1.51e+00	0	41	104	969932800	60	78547
2026-01-21 11:42:15.18	108.74	2.34	-51.5	-66.7	3.6	1.51e+00	0	41	104	969932800	60	78162
2026-01-21 11:42:16.48	108.88	2.29	-51.4	-66.7	3.6	1.51e+00	0	41	104	969932800	60	78077
2026-01-21 11:42:17.20	108.96	2.26	-51.5	-66.7	3.6	1.51e+00	0	41	104	969932800	60	78468
2026-01-21 11:42:18.50	109.11	2.21	-51.8	-67.0	3.6	1.51e+00	0	41	104	969932800	60	80619
2026-01-21 11:42:19.22	109.19	2.18	-51.8	-67.1	3.6	1.51e+00	0	41	104	969932800	60	81476
2026-01-21 11:42:20.52	109.33	2.13	-52.0	-67.3	3.6	1.51e+00	0	41	104	969932800	60	83712
2026-01-21 11:42:21.24	109.41	2.11	-52.2	-67.4	3.6	1.51e+00	0	41	104	969932800	60	84968
2026-01-21 11:42:22.54	109.55	2.06	-52.0	-67.2	3.6	1.51e+00	0	41	104	969932800	60	82918
2026-01-21 11:42:23.26	109.63	2.03	-52.2	-67.4	3.5	1.51e+00	0	41	104	969932800	60	85215
2026-01-21 11:42:24.56	109.78	1.98	-52.2	-67.5	3.6	1.51e+00	0	41	104	969932800	60	85264
2026-01-21 11:42:25.28	109.86	1.95	-52.0	-67.2	3.6	1.51e+00	0	41	104	969932800	60	83115
2026-01-21 11:42:26.58	110.00	1.90	-52.0	-67.2	3.6	1.51e+00	0	41	104	969932800	60	83244
2026-01-21 11:42:27.30	110.08	1.87	-51.8	-67.1	3.6	1.51e+00	0	41	104	969932800	60	81527
2026-01-21 11:42:28.60	110.22	1.82	-52.6	-67.9	3.6	1.51e+00	0	41	104	969932800	60	89241
2026-01-21 11:42:29.32	110.30	1.80	-52.2	-67.4	3.6	1.51e+00	0	41	104	969932800	60	84967
2026-01-21 11:42:30.62	110.44	1.75	-52.3	-67.5	3.6	1.51e+00	0	41	104	969932800	60	85969
2026-01-21 11:42:31.34	110.51	1.72	-52.2	-67.4	3.6	1.51e+00	0	41	104	969932800	60	84698
2026-01-21 11:42:32.64	110.65	1.67	-51.8	-67.1	3.6	1.51e+00	0	41	104	969932800	60	81719
2026-01-21 11:42:33.36	110.73	1.64	-51.6	-66.9	3.6	1.51e+00	0	41	104	969932800	60	79685
2026-01-21 11:42:34.66	110.87	1.59	-51.6	-66.9	3.6	1.51e+00	0	41	104	969932800	60	79936
2026-01-21 11:42:35.38	110.95	1.56	-51.5	-66.8	3.6	1.51e+00	0	41	104	969932800	60	78869
2026-01-21 11:42:36.68	111.08	1.51	-51.5	-66.7	3.6	1.51e+00	0	41	104	969932800	60	78516
2026-01-21 11:42:37.40	111.16	1.48	-51.5	-66.7	3.6	1.51e+00	0	41	104	969932800	60	78427
2026-01-21 11:42:38.70	111.30	1.43	-51.4	-66.7	3.6	1.51e+00	0	41	104	969932800	60	78327
2026-01-21 11:42:39.42	111.38	1.41	-51.7	-66.9	3.6	1.51e+00	0	41	104	969932800	60	80156
2026-01-21 11:42:40.72	111.51	1.35	-51.6	-66.8	3.6	1.51e+00	0	41	104	969932800	60	79396
2026-01-21 11:42:41.44	111.59	1.33	-51.6	-66.9	3.6	1.51e+00	0	41	104	969932800	60	79645
2026-01-21 11:42:42.74	111.72	1.28	-51.5	-66.8	3.6	1.51e+00	0	41	104	969932800	60	78718
2026-01-21 11:42:43.46	111.80	1.25	-51.5	-66.7	3.6	1.51e+00	0	41	104	969932800	60	78557
2026-01-21 11:42:44.76	111.94	1.20	-51.9	-67.2	3.6	1.51e+00	0	41	104	969932800	60	83071
2026-01-21 11:42:45.48	112.01	1.17	-51.9	-67.2	3.6	1.51e+00	0	41	104	969932800	60	82415
2026-01-21 11:42:46.78	112.15	1.12	-51.8	-67.0	3.6	1.51e+00	0	41	104	969932800	60	81203
2026-01-21 11:42:47.50	112.22	1.09	-52.0	-67.2	3.6	1.51e+00	0	41	104	969932800	60	83135
2026-01-21 11:42:48.80	112.35	1.04	-51.9	-67.2	3.6	1.51e+00	0	41	104	969932800	60	82890
2026-01-21 11:42:49.52	112.43	1.01	-51.9	-67.1	3.6	1.51e+00	0	41	104	969932800	60	82103
2026-01-21 11:42:50.82	112.56	0.96	-51.6	-66.9	3.6	1.51e+00	0	41	104	969932800	60	80080
2026-01-21 11:42:51.54	112.64	0.93	-51.7	-66.9	3.6	1.51e+00	0	41	104	969932800	60	80237
2026-01-21 11:42:52.84	112.77	0.88	-52.4	-67.6	3.6	1.51e+00	0	41	104	969932800	60	87162
2026-01-21 11:42:53.56	112.84	0.85	-51.9	-67.2	3.6	1.51e+00	0	41	104	969932800	60	82487
2026-01-21 11:42:54.86	112.97	0.80	-51.7	-67.0	3.6	1.51e+00	0	41	104	969932800	60	80489
2026-01-21 11:42:55.58	113.05	0.77	-51.7	-67.0	3.6	1.51e+00	0	41	104	969932800	60	80501
2026-01-21 11:42:56.88	113.18	0.72	-52.2	-67.5	3.6	1.51e+00	0	41	104	969932800	60	85567
2026-01-21 11:42:57.60	113.25	0.70	-52.3	-67.5	3.6	1.51e+00	0	41	104	969932800	60	86016
2026-01-21 11:42:58.90	113.38	0.64	-52.6	-67.9	3.6	1.51e+00	0	41	104	969932800	60	89315
2026-01-21 11:42:59.62	113.46	0.62	-52.2	-67.4	3.6	1.51e+00	0	41	104	969932800	60	85148
2026-01-21 11:43:00.91	113.58	0.57	-52.3	-67.6	3.6	1.51e+00	0	41	104	969932800	60	86309
2026-01-21 11:43:01.64	113.66	0.54	-52.6	-67.9	3.6	1.51e+00	0	41	104	969932800	60	89966
2026-01-21 11:43:02.93	113.79	0.49	-52.4	-67.7	3.6	1.51e+00	0	41	104	969932800	60	87332
2026-01-21 11:43:03.66	113.86	0.46	-52.7	-67.9	3.6	1.51e+00	0	41	104	969932800	60	89748
2026-01-21 11:43:04.96	113.99	0.41	-52.8	-68.1	3.6	1.51e+00	0	41	104	969932800	60	91696
2026-01-21 11:43:05.68	114.06	0.38	-52.4	-67.6	3.6	1.51e+00	0	41	104	969932800	60	86671
2026-01-21 11:43:06.98	114.19	0.33	-52.8	-68.1	3.6	1.51e+00	0	41	104	969932800	60	91527
2026-01-21 11:43:07.70	114.26	0.30	-52.5	-67.8	3.6	1.51e+00	0	41	104	969932800	60	88525
2026-01-21 11:43:09.00	114.39	0.25	-52.4	-67.6	3.6	1.51e+00	0	41	104	969932800	60	86596
2026-01-21 11:43:09.72	114.46	0.22	-52.3	-67.6	3.6	1.51e+00	0	41	104	969932800	60	86397
2026-01-21 11:43:11.02	114.58	0.17	-52.4	-67.7	3.6	1.51e+00	0	41	104	969932800	60	87589
2026-01-21 11:43:11.74	114.65	0.14	-52.6	-67.8	3.6	1.51e+00	0	41	104	969932800	60	89126
2026-01-21 11:43:13.04	114.78	0.09	-52.5	-67.8	3.6	1.51e+00	0	41	104	969932800	60	88295
2026-01-21 11:43:13.76	114.85	0.06	-52.9	-68.1	3.6	1.51e+00	0	41	104	969932800	60	92368
2026-01-21 11:43:15.06	114.98	0.01	-52.7	-68.0	3.6	1.51e+00	0	41	104	969932800	60	90299
2026-01-21 11:43:15.78	115.05	-0.02	-52.3	-67.6	3.6	1.51e+00	0	41	104	969932800	60	86381

#Closed at: 2026-01-21 11:43:16
#Recorded file [969 MB]: D:/lorett/data/35029_260121_233206.dat