passes_logs/2026/01/21/R4.6S_Anadyr/R4.6S_Anadyr__20260121_205433_AQUA_rec.log

#Pass ID: 20260121_205433_AQUA
#Satellite: AQUA
#Configuration: AQUA
#almurnet v.1.7.20251203
#Start time: 2026-01-21 20:54:36

#Version: 2.2.20231116
#Station: R4.6S_Anadyr
#Location: 177.4865 lon 64.73178 lat
#TLE: 1 27424U 02022A   26020.90316333  .00002787  00000+0  56766-3 0  9999
#TLE: 2 27424  98.4095 347.4297 0002000  71.6339 309.8236 14.61840001261750

#Time	Az	El	Level	Level2	SNR	BER	BlckErr	Temp	State	Recorded	gain1	gain2
2026-01-21 20:54:36.07	44.59	0.14	-51.4	-67.8	3.3	3.04e+01	0	41	0	0	60	94575
2026-01-21 20:54:37.07	44.49	0.19	-51.5	-69.3	3.5	3.04e+01	0	41	104	0	60	112783
2026-01-21 20:54:38.08	44.40	0.23	-51.3	-69.2	3.5	3.04e+01	0	41	104	0	60	110925
2026-01-21 20:54:39.09	44.30	0.28	-51.4	-69.2	3.5	3.04e+01	0	41	104	0	60	110453
2026-01-21 20:54:40.10	44.21	0.33	-51.3	-69.1	3.5	3.04e+01	0	41	104	0	60	109921
2026-01-21 20:54:41.11	44.11	0.37	-51.4	-69.3	3.5	3.04e+01	0	41	104	0	60	112206
2026-01-21 20:54:42.12	44.01	0.42	-51.4	-69.3	3.5	3.04e+01	0	41	104	0	60	112143
2026-01-21 20:54:43.13	43.92	0.47	-51.4	-69.2	3.5	3.04e+01	0	41	104	0	60	110921
2026-01-21 20:54:44.14	43.82	0.52	-51.3	-69.2	3.5	3.04e+01	0	41	104	0	60	110760
2026-01-21 20:54:45.15	43.72	0.56	-51.2	-69.1	3.5	3.04e+01	0	41	104	0	60	109633
2026-01-21 20:54:46.16	43.63	0.61	-51.1	-69.1	3.5	3.04e+01	0	41	104	0	60	109130
2026-01-21 20:54:47.17	43.53	0.66	-51.1	-69.1	3.5	3.04e+01	0	41	104	0	60	109134
2026-01-21 20:54:48.18	43.43	0.70	-51.2	-69.0	3.5	3.04e+01	0	41	104	0	60	109078
2026-01-21 20:54:49.19	43.33	0.75	-51.2	-69.0	3.5	3.04e+01	0	41	104	0	60	108874
2026-01-21 20:54:50.20	43.23	0.80	-51.1	-68.9	3.5	3.04e+01	0	41	104	0	60	107439
2026-01-21 20:54:51.21	43.13	0.85	-50.9	-68.9	3.5	3.04e+01	0	41	104	0	60	106731
2026-01-21 20:54:52.22	43.03	0.89	-50.8	-68.9	3.5	3.04e+01	0	41	104	0	60	107371
2026-01-21 20:54:53.23	42.93	0.94	-50.8	-68.7	3.5	3.04e+01	0	41	104	0	60	104873
2026-01-21 20:54:54.23	42.83	0.99	-50.9	-68.7	3.5	3.04e+01	0	41	104	0	60	105026
2026-01-21 20:54:55.24	42.73	1.04	-50.1	-68.6	3.5	3.04e+01	0	41	104	0	60	103916
2026-01-21 20:54:56.25	42.63	1.08	-50.1	-68.6	3.5	3.04e+01	0	41	104	0	60	103001
2026-01-21 20:54:57.27	42.53	1.13	-50.2	-68.3	3.5	3.04e+01	0	41	104	0	60	99730
2026-01-21 20:54:58.27	42.43	1.18	-50.0	-68.0	3.5	3.04e+01	0	41	104	0	60	96279
2026-01-21 20:54:59.29	42.33	1.23	-49.7	-67.6	3.5	3.04e+01	0	41	104	0	60	92295
2026-01-21 20:55:00.29	42.22	1.27	-49.8	-67.6	3.5	3.04e+01	0	41	104	0	60	92638
2026-01-21 20:55:01.30	42.12	1.32	-49.7	-67.5	3.5	3.04e+01	0	41	104	0	60	91439
2026-01-21 20:55:02.31	42.02	1.37	-49.7	-67.4	3.5	3.04e+01	0	41	104	0	60	90712
2026-01-21 20:55:03.32	41.91	1.41	-49.7	-67.5	3.5	3.04e+01	0	41	104	0	60	91042
2026-01-21 20:55:04.33	41.81	1.46	-49.7	-67.5	3.5	3.04e+01	0	41	104	0	60	91291
2026-01-21 20:55:05.34	41.71	1.51	-49.7	-67.5	3.5	3.04e+01	0	41	104	0	60	90905
2026-01-21 20:55:06.35	41.60	1.56	-49.6	-67.5	3.5	3.04e+01	0	41	104	0	60	91314
2026-01-21 20:55:07.36	41.50	1.60	-49.7	-67.5	3.5	3.04e+01	0	41	104	0	60	91087
2026-01-21 20:55:08.37	41.39	1.65	-49.7	-67.5	3.5	3.04e+01	0	41	104	0	60	91298
2026-01-21 20:55:09.38	41.28	1.70	-49.7	-67.5	3.5	3.04e+01	0	41	104	0	60	91606
2026-01-21 20:55:10.39	41.18	1.75	-49.7	-67.3	3.5	3.04e+01	0	41	104	0	60	89631
2026-01-21 20:55:11.40	41.07	1.79	-49.7	-67.3	3.5	3.04e+01	0	41	104	0	60	89182
2026-01-21 20:55:12.42	40.96	1.84	-49.7	-67.4	3.5	3.04e+01	0	41	104	0	60	89778
2026-01-21 20:55:13.43	40.85	1.89	-49.7	-67.5	3.5	3.04e+01	0	41	104	0	60	90797
2026-01-21 20:55:14.44	40.75	1.94	-49.7	-67.5	3.5	3.04e+01	0	41	104	0	60	90877
2026-01-21 20:55:15.45	40.64	1.98	-49.6	-67.3	3.5	3.04e+01	0	41	104	0	60	89673
2026-01-21 20:55:16.46	40.53	2.03	-49.7	-67.3	3.5	3.04e+01	0	41	104	0	60	89007
2026-01-21 20:55:17.47	40.42	2.08	-49.6	-66.9	3.5	3.04e+01	0	41	104	0	60	85089
2026-01-21 20:55:18.48	40.31	2.13	-49.7	-67.0	3.5	3.04e+01	0	41	104	0	60	86040
2026-01-21 20:55:19.49	40.20	2.17	-49.7	-67.1	3.5	3.04e+01	0	41	104	0	60	87146
2026-01-21 20:55:20.50	40.09	2.22	-49.7	-67.3	3.5	3.04e+01	0	41	104	0	60	88838
2026-01-21 20:55:21.51	39.98	2.27	-49.7	-67.3	3.5	3.04e+01	0	41	104	0	60	89563
2026-01-21 20:55:22.52	39.87	2.32	-49.6	-67.1	3.5	3.04e+01	0	41	104	0	60	87364
2026-01-21 20:55:23.53	39.76	2.36	-49.6	-66.9	3.5	3.04e+01	0	41	104	0	60	85413
2026-01-21 20:55:24.54	39.65	2.41	-49.6	-65.7	3.6	3.04e+01	0	41	104	0	60	74237
2026-01-21 20:55:25.55	39.53	2.46	-49.6	-65.7	3.7	3.04e+01	0	41	104	0	60	73865
2026-01-21 20:55:26.56	39.42	2.51	-49.6	-65.7	3.5	3.04e+01	0	41	104	0	60	74595
2026-01-21 20:55:27.57	39.31	2.55	-49.7	-66.3	3.5	3.04e+01	0	41	104	0	60	79714
2026-01-21 20:55:28.58	39.19	2.60	-49.7	-67.5	3.5	3.04e+01	0	41	104	0	60	91295
2026-01-21 20:55:29.59	39.08	2.65	-49.7	-66.9	3.5	3.04e+01	0	41	104	0	60	85534
2026-01-21 20:55:30.60	38.97	2.70	-49.6	-66.1	3.5	3.04e+01	0	41	104	0	60	77772
2026-01-21 20:55:31.61	38.85	2.74	-49.6	-66.6	3.5	3.04e+01	0	41	104	0	60	82503
2026-01-21 20:55:32.62	38.74	2.79	-49.7	-67.3	3.5	3.04e+01	0	41	104	0	60	88700
2026-01-21 20:55:33.63	38.62	2.84	-49.6	-63.8	4.3	3.04e+01	0	41	104	0	60	59283
2026-01-21 20:55:34.64	38.50	2.88	-49.5	-62.2	5.1	3.04e+01	0	41	104	0	60	49462
2026-01-21 20:55:35.65	38.39	2.93	-49.5	-63.1	4.6	3.04e+01	0	41	104	0	60	54681
2026-01-21 20:55:36.66	38.27	2.98	-49.5	-64.7	3.9	3.04e+01	0	41	104	0	60	66113
2026-01-21 20:55:37.67	38.15	3.03	-48.5	-55.6	11.9	3.04e+01	57	41	104	0	60	23235
2026-01-21 20:55:38.69	38.03	3.07	-48.7	-56.0	10.6	3.04e+01	60	41	0	1048576	60	24334
2026-01-21 20:55:39.70	37.92	3.12	-49.7	-64.9	4.2	3.04e+01	0	41	104	2621440	60	67335
2026-01-21 20:55:40.71	37.80	3.17	-46.1	-49.7	18.6	3.04e+01	58	41	104	2621440	60	11770
2026-01-21 20:55:41.72	37.68	3.22	-40.5	-42.1	24.9	3.04e+01	58	41	0	3145728	56	6160
2026-01-21 20:55:42.73	37.56	3.26	-48.7	-56.7	4.0	3.04e+01	48	41	0	5242880	60	26174
2026-01-21 20:55:43.74	37.44	3.31	-43.0	-45.3	21.7	3.04e+01	60	41	104	5242880	60	7054
2026-01-21 20:55:44.75	37.32	3.36	-40.4	-42.0	25.1	3.04e+01	56	41	0	6815744	56	6083
2026-01-21 20:55:45.76	37.20	3.40	-40.6	-42.2	24.9	3.04e+01	58	41	0	8912896	56	6221
2026-01-21 20:55:46.77	37.08	3.45	-41.5	-43.2	24.0	3.04e+01	58	41	0	10485760	56	7025
2026-01-21 20:55:47.78	36.96	3.50	-40.6	-42.2	25.2	3.04e+01	51	41	0	12582912	56	6242
2026-01-21 20:55:48.79	36.83	3.55	-39.7	-41.2	25.9	3.04e+01	61	41	0	14155776	54	6230
2026-01-21 20:55:49.79	36.71	3.59	-40.4	-42.0	25.0	3.04e+01	54	41	0	16252928	54	6807
2026-01-21 20:55:50.80	36.59	3.64	-41.1	-42.7	24.7	3.04e+01	53	41	0	18350080	56	6620
2026-01-21 20:55:51.81	36.47	3.69	-40.4	-42.0	25.2	3.04e+01	61	41	0	19922944	56	6076
2026-01-21 20:55:52.82	36.34	3.73	-40.3	-41.9	25.3	3.04e+01	60	41	0	22020096	56	6020
2026-01-21 20:55:53.83	36.22	3.78	-39.8	-41.3	25.8	3.04e+01	60	41	0	24117248	54	6287
2026-01-21 20:55:54.84	36.09	3.83	-39.9	-41.4	25.7	3.04e+01	59	41	0	25690112	54	6382
2026-01-21 20:55:55.85	35.97	3.87	-40.2	-41.8	25.1	3.04e+01	53	41	0	27787264	54	6676
2026-01-21 20:55:56.86	35.84	3.92	-39.6	-41.1	26.0	3.04e+01	62	41	0	29360128	54	6177
2026-01-21 20:55:57.87	35.72	3.97	-39.8	-41.2	25.9	3.04e+01	61	41	0	31457280	54	6261
2026-01-21 20:55:58.88	35.59	4.01	-39.9	-41.3	25.8	3.04e+01	60	41	0	33554432	54	6346
2026-01-21 20:55:59.89	35.46	4.06	-40.1	-41.6	25.6	3.04e+01	60	41	0	35127296	54	6515
2026-01-21 20:56:00.90	35.33	4.11	-39.7	-41.1	26.3	3.04e+01	46	41	0	37224448	54	6175
2026-01-21 20:56:01.91	35.21	4.15	-39.5	-41.0	26.2	3.04e+01	59	41	0	38797312	54	6070
2026-01-21 20:56:02.92	35.08	4.20	-40.1	-41.6	25.5	3.04e+01	58	41	0	40894464	54	6558
2026-01-21 20:56:03.93	34.95	4.25	-39.4	-40.8	26.6	3.04e+01	46	41	0	42467328	54	5950
2026-01-21 20:56:04.94	34.82	4.29	-39.9	-41.4	25.7	3.04e+01	57	41	0	44564480	54	6377
2026-01-21 20:56:05.95	34.69	4.34	-39.6	-41.0	26.1	3.04e+01	58	41	0	46661632	54	6102
2026-01-21 20:56:06.96	34.56	4.39	-39.9	-41.4	25.9	3.04e+01	58	41	0	48234496	54	6375
2026-01-21 20:56:07.97	34.43	4.43	-39.4	-40.9	26.3	3.04e+01	56	41	0	50331648	54	5999
2026-01-21 20:56:08.98	34.30	4.48	-39.7	-41.2	26.0	3.04e+01	36	41	0	52428800	54	6245
2026-01-21 20:56:09.99	34.17	4.53	-39.5	-40.9	26.1	3.04e+01	58	41	0	54001664	54	6060
2026-01-21 20:56:11.00	34.03	4.57	-39.7	-41.1	26.0	3.04e+01	56	41	0	56098816	54	6195
2026-01-21 20:56:12.01	33.90	4.62	-39.7	-41.1	26.0	3.04e+01	54	41	0	57671680	54	6186
2026-01-21 20:56:13.02	33.77	4.67	-39.2	-40.6	26.5	3.04e+01	61	41	0	59768832	54	5820
2026-01-21 20:56:14.03	33.64	4.71	-39.5	-40.9	26.3	3.04e+01	58	41	0	61865984	54	6020
2026-01-21 20:56:15.04	33.50	4.76	-39.6	-41.1	26.3	3.04e+01	56	41	0	63438848	52	6890
2026-01-21 20:56:16.05	33.37	4.80	-39.3	-40.7	26.6	3.04e+01	60	41	0	65536000	52	6592
2026-01-21 20:56:17.06	33.23	4.85	-39.5	-40.9	26.3	3.04e+01	57	41	0	67633152	52	6765
2026-01-21 20:56:18.07	33.10	4.90	-39.6	-41.0	26.3	3.04e+01	61	41	0	69206016	52	6826
2026-01-21 20:56:19.08	32.96	4.94	-39.0	-40.3	26.9	3.04e+01	58	41	0	71303168	52	6346
2026-01-21 20:56:20.09	32.82	4.99	-39.2	-40.6	26.6	3.04e+01	47	41	0	72876032	52	6533
2026-01-21 20:56:21.10	32.69	5.03	-39.8	-41.2	26.1	3.04e+01	60	41	0	74973184	52	6989
2026-01-21 20:56:22.11	32.55	5.08	-40.4	-41.9	25.5	3.04e+01	57	41	0	77070336	54	6737
2026-01-21 20:56:23.12	32.41	5.13	-39.7	-41.1	26.1	3.04e+01	59	41	0	78643200	54	6203
2026-01-21 20:56:24.14	32.27	5.17	-39.6	-41.0	26.3	3.04e+01	63	41	0	80740352	54	6129
2026-01-21 20:56:25.14	32.14	5.22	-39.7	-41.2	26.1	3.04e+01	58	41	0	82313216	54	6228
2026-01-21 20:56:26.15	32.00	5.26	-39.2	-40.6	26.6	3.04e+01	57	41	0	84410368	54	5852
2026-01-21 20:56:27.16	31.86	5.31	-39.5	-40.9	26.4	3.04e+01	59	41	0	86507520	54	6060
2026-01-21 20:56:28.17	31.72	5.35	-39.3	-40.7	26.6	3.04e+01	37	41	0	88080384	54	5890
2026-01-21 20:56:29.19	31.57	5.40	-39.5	-40.9	26.4	3.04e+01	59	41	0	90177536	54	6023
2026-01-21 20:56:30.19	31.43	5.44	-39.8	-41.2	26.4	3.04e+01	45	41	0	92274688	54	6256
2026-01-21 20:56:31.20	31.29	5.49	-40.1	-41.6	25.8	3.04e+01	58	41	0	93847552	54	6533
2026-01-21 20:56:32.21	31.15	5.53	-40.0	-41.5	26.1	3.04e+01	59	41	0	95944704	54	6459
2026-01-21 20:56:33.22	31.01	5.58	-39.1	-40.5	26.9	3.04e+01	48	41	0	97517568	54	5771
2026-01-21 20:56:34.23	30.86	5.62	-39.3	-40.7	26.6	3.04e+01	59	41	0	99614720	52	6583
2026-01-21 20:56:35.24	30.72	5.67	-39.1	-40.5	26.8	3.04e+01	62	41	0	101711872	52	6450
2026-01-21 20:56:36.25	30.58	5.71	-39.2	-40.6	26.7	3.04e+01	56	41	0	103284736	52	6526
2026-01-21 20:56:37.26	30.43	5.76	-39.3	-40.7	26.7	3.04e+01	59	41	0	105381888	52	6587
2026-01-21 20:56:38.27	30.29	5.80	-39.5	-40.9	26.5	3.04e+01	47	41	0	106954752	52	6735
2026-01-21 20:56:39.28	30.14	5.85	-39.1	-40.4	26.8	3.04e+01	56	41	0	109051904	52	6402
2026-01-21 20:56:40.29	30.00	5.89	-38.9	-40.3	27.0	3.04e+01	57	41	0	111149056	52	6299
2026-01-21 20:56:41.30	29.85	5.94	-39.2	-40.6	26.7	3.04e+01	49	41	0	112721920	52	6550
2026-01-21 20:56:42.31	29.70	5.98	-39.2	-40.6	26.8	3.04e+01	57	41	0	114819072	52	6503
2026-01-21 20:56:43.32	29.55	6.03	-39.1	-40.5	26.8	3.04e+01	60	41	0	116391936	52	6463
2026-01-21 20:56:44.33	29.41	6.07	-39.3	-40.7	26.7	3.04e+01	57	41	0	118489088	52	6603
2026-01-21 20:56:45.34	29.26	6.11	-39.2	-40.5	26.9	3.04e+01	59	41	0	120586240	52	6494
2026-01-21 20:56:46.35	29.11	6.16	-39.0	-40.4	27.0	3.04e+01	63	41	0	122159104	52	6378
2026-01-21 20:56:47.36	28.96	6.20	-39.0	-40.3	27.0	3.04e+01	58	41	0	124256256	52	6350
2026-01-21 20:56:48.37	28.81	6.25	-39.0	-40.4	27.0	3.04e+01	62	41	0	125829120	52	6383
2026-01-21 20:56:49.38	28.66	6.29	-38.8	-40.1	27.3	3.04e+01	47	41	0	127926272	52	6180
2026-01-21 20:56:50.39	28.51	6.33	-39.2	-40.6	26.9	3.04e+01	59	41	0	130023424	52	6513
2026-01-21 20:56:51.40	28.36	6.38	-38.9	-40.3	27.1	3.04e+01	58	41	0	131596288	52	6307
2026-01-21 20:56:52.41	28.20	6.42	-39.5	-40.9	26.6	3.04e+01	58	41	0	133693440	52	6729
2026-01-21 20:56:53.42	28.05	6.47	-39.4	-40.8	26.6	3.04e+01	61	41	0	135790592	52	6681
2026-01-21 20:56:54.43	27.90	6.51	-39.0	-40.4	27.0	3.04e+01	46	41	0	137363456	52	6380
2026-01-21 20:56:55.44	27.74	6.55	-39.0	-40.4	27.0	3.04e+01	58	41	0	139460608	52	6373
2026-01-21 20:56:56.45	27.59	6.59	-39.0	-40.3	27.1	3.04e+01	58	41	0	141033472	52	6330
2026-01-21 20:56:57.46	27.43	6.64	-38.7	-40.0	27.3	3.04e+01	48	41	0	143130624	52	6126
2026-01-21 20:56:58.47	27.28	6.68	-38.8	-40.1	27.4	3.04e+01	62	41	0	145227776	52	6161
2026-01-21 20:56:59.48	27.12	6.72	-39.0	-40.3	27.2	3.04e+01	49	41	0	146800640	52	6348
2026-01-21 20:57:00.49	26.97	6.77	-39.0	-40.3	27.2	3.04e+01	56	41	0	148897792	52	6332
2026-01-21 20:57:01.50	26.81	6.81	-38.7	-40.0	27.4	3.04e+01	59	41	0	150470656	52	6095
2026-01-21 20:57:02.51	26.65	6.85	-38.9	-40.2	27.2	3.04e+01	57	41	0	152567808	52	6258
2026-01-21 20:57:03.52	26.50	6.89	-39.0	-40.3	27.1	3.04e+01	58	41	0	154664960	52	6308
2026-01-21 20:57:04.53	26.34	6.94	-38.9	-40.3	27.2	3.04e+01	61	41	0	156237824	52	6280
2026-01-21 20:57:05.54	26.18	6.98	-39.1	-40.5	26.9	3.04e+01	60	41	0	158334976	52	6473
2026-01-21 20:57:06.55	26.02	7.02	-38.7	-40.1	27.4	3.04e+01	61	41	0	160432128	52	6150
2026-01-21 20:57:07.57	25.86	7.06	-38.7	-40.1	27.3	3.04e+01	47	41	0	162004992	52	6141
2026-01-21 20:57:08.58	25.70	7.10	-38.8	-40.1	27.3	3.04e+01	59	41	0	164102144	52	6167
2026-01-21 20:57:09.59	25.54	7.15	-39.1	-40.5	27.0	3.04e+01	60	41	0	165675008	52	6452
2026-01-21 20:57:10.60	25.38	7.19	-39.0	-40.4	27.1	3.04e+01	46	41	0	167772160	52	6353
2026-01-21 20:57:11.61	25.21	7.23	-39.0	-40.3	27.1	3.04e+01	58	41	0	169869312	52	6328
2026-01-21 20:57:12.62	25.05	7.27	-38.7	-40.0	27.4	3.04e+01	60	41	0	171442176	52	6089
2026-01-21 20:57:13.63	24.89	7.31	-38.6	-39.9	27.5	3.04e+01	57	41	0	173539328	52	6013
2026-01-21 20:57:14.64	24.73	7.35	-38.9	-40.2	27.2	3.04e+01	59	41	0	175636480	52	6252
2026-01-21 20:57:15.65	24.56	7.39	-39.0	-40.3	27.1	3.04e+01	51	41	0	177209344	52	6328
2026-01-21 20:57:16.66	24.40	7.43	-39.0	-40.4	27.1	3.04e+01	56	41	0	179306496	52	6369
2026-01-21 20:57:17.67	24.23	7.47	-39.1	-40.5	26.9	3.04e+01	60	41	0	180879360	52	6451
2026-01-21 20:57:18.68	24.07	7.52	-38.4	-39.7	27.7	3.04e+01	53	41	0	182976512	52	5909
2026-01-21 20:57:19.69	23.90	7.56	-38.3	-39.6	27.8	3.04e+01	59	41	0	185073664	52	5804
2026-01-21 20:57:20.70	23.74	7.60	-38.7	-40.0	27.4	3.04e+01	58	41	0	186646528	52	6103
2026-01-21 20:57:21.71	23.57	7.64	-39.5	-40.9	26.6	3.04e+01	62	41	0	188743680	52	6766
2026-01-21 20:57:22.72	23.40	7.68	-38.8	-40.1	27.3	3.04e+01	55	41	0	190316544	52	6159
2026-01-21 20:57:23.73	23.23	7.72	-38.5	-39.8	27.7	3.04e+01	50	41	0	192413696	52	5979
2026-01-21 20:57:24.74	23.06	7.76	-38.6	-39.9	27.6	3.04e+01	59	41	0	194510848	52	5996
2026-01-21 20:57:25.75	22.90	7.79	-38.8	-40.2	27.4	3.04e+01	50	41	0	196083712	52	6208
2026-01-21 20:57:26.76	22.73	7.83	-38.8	-40.1	27.5	3.04e+01	44	41	0	198180864	52	6140
2026-01-21 20:57:27.77	22.56	7.87	-38.8	-40.1	27.4	3.04e+01	59	41	0	199753728	52	6194
2026-01-21 20:57:28.78	22.39	7.91	-38.6	-39.9	27.6	3.04e+01	57	41	0	201850880	52	6036
2026-01-21 20:57:29.79	22.22	7.95	-39.1	-40.5	27.1	3.04e+01	59	41	0	203948032	52	6450
2026-01-21 20:57:30.80	22.04	7.99	-39.0	-40.4	27.2	3.04e+01	58	41	0	205520896	52	6354
2026-01-21 20:57:31.81	21.87	8.03	-38.8	-40.1	27.4	3.04e+01	57	41	0	207618048	52	6201
2026-01-21 20:57:32.82	21.70	8.07	-38.7	-40.0	27.4	3.04e+01	60	41	0	209190912	52	6127
2026-01-21 20:57:33.83	21.53	8.10	-38.7	-40.0	27.5	3.04e+01	63	41	0	211288064	52	6089
2026-01-21 20:57:34.84	21.35	8.14	-38.6	-39.9	27.6	3.04e+01	52	41	0	213385216	52	6016
2026-01-21 20:57:35.85	21.18	8.18	-38.5	-39.8	27.6	3.04e+01	58	41	0	214958080	52	5991
2026-01-21 20:57:36.86	21.00	8.22	-38.7	-40.0	27.6	3.04e+01	61	41	0	217055232	52	6097
2026-01-21 20:57:37.87	20.83	8.26	-38.5	-39.8	27.6	3.04e+01	63	41	0	218628096	52	5936
2026-01-21 20:57:38.88	20.65	8.29	-38.6	-40.0	27.6	3.04e+01	61	41	0	220725248	52	6065
2026-01-21 20:57:39.89	20.48	8.33	-38.7	-40.0	27.5	3.04e+01	45	41	0	222822400	52	6080
2026-01-21 20:57:40.89	20.30	8.37	-38.7	-40.0	27.5	3.04e+01	60	41	0	224395264	52	6073
2026-01-21 20:57:41.91	20.13	8.40	-38.7	-40.1	27.4	3.04e+01	60	41	0	226492416	52	6142
2026-01-21 20:57:42.92	19.95	8.44	-38.7	-40.0	27.6	3.04e+01	62	41	0	228589568	52	6082
2026-01-21 20:57:43.93	19.77	8.48	-38.4	-39.7	27.8	3.04e+01	58	41	0	230162432	52	5890
2026-01-21 20:57:44.94	19.59	8.51	-38.4	-39.7	27.8	3.04e+01	41	41	0	232259584	52	5904
2026-01-21 20:57:45.95	19.41	8.55	-38.4	-39.7	27.8	3.04e+01	61	41	0	233832448	52	5887
2026-01-21 20:57:46.96	19.23	8.58	-38.2	-39.5	28.0	3.04e+01	57	41	0	235929600	52	5764
2026-01-21 20:57:47.97	19.05	8.62	-38.4	-39.6	27.8	3.04e+01	45	41	0	238026752	52	5856
2026-01-21 20:57:48.98	18.87	8.66	-38.5	-39.8	27.7	3.04e+01	61	41	0	239599616	52	5977
2026-01-21 20:57:49.99	18.69	8.69	-38.6	-39.9	27.6	3.04e+01	57	41	0	241696768	52	6064
2026-01-21 20:57:51.00	18.51	8.73	-38.6	-39.9	27.6	3.04e+01	60	41	0	243793920	52	6015
2026-01-21 20:57:52.01	18.33	8.76	-38.5	-39.8	27.6	3.04e+01	62	41	0	245366784	52	5972
2026-01-21 20:57:53.02	18.15	8.80	-38.7	-40.0	27.6	3.04e+01	57	41	0	247463936	52	6087
2026-01-21 20:57:54.03	17.96	8.83	-38.6	-39.9	27.7	3.04e+01	60	41	0	249036800	52	6042
2026-01-21 20:57:55.04	17.78	8.86	-38.5	-39.8	27.6	3.04e+01	59	41	0	251133952	52	5980
2026-01-21 20:57:56.05	17.60	8.90	-38.7	-40.0	27.6	3.04e+01	51	41	0	253231104	52	6131
2026-01-21 20:57:57.06	17.41	8.93	-38.5	-39.8	27.7	3.04e+01	62	41	0	254803968	52	5977
2026-01-21 20:57:58.07	17.23	8.97	-38.7	-40.0	27.5	3.04e+01	64	41	0	256901120	52	6100
2026-01-21 20:57:59.08	17.04	9.00	-38.6	-39.9	27.7	3.04e+01	62	41	0	258473984	52	6028
2026-01-21 20:58:00.09	16.86	9.03	-38.8	-40.1	27.2	3.04e+01	57	41	0	260571136	52	6203
2026-01-21 20:58:01.10	16.67	9.06	-38.8	-40.1	27.5	3.04e+01	47	41	0	262668288	52	6204
2026-01-21 20:58:02.11	16.49	9.10	-38.8	-40.1	27.3	3.04e+01	59	41	0	264241152	52	6184
2026-01-21 20:58:03.12	16.30	9.13	-38.8	-40.1	27.6	3.04e+01	60	41	0	266338304	52	6167
2026-01-21 20:58:04.13	16.11	9.16	-38.4	-39.7	27.8	3.04e+01	38	41	0	268435456	52	5894
2026-01-21 20:58:05.14	15.92	9.19	-38.3	-39.6	27.9	3.04e+01	59	41	0	270008320	52	5837
2026-01-21 20:58:06.15	15.74	9.23	-38.6	-40.0	27.6	3.04e+01	50	41	0	272105472	52	6073
2026-01-21 20:58:07.16	15.55	9.26	-38.7	-40.1	27.6	3.04e+01	60	41	0	273678336	52	6141
2026-01-21 20:58:08.17	15.36	9.29	-38.5	-39.9	27.7	3.04e+01	60	41	0	275775488	52	6006
2026-01-21 20:58:09.18	15.17	9.32	-38.7	-40.0	27.5	3.04e+01	48	41	0	277872640	52	6124
2026-01-21 20:58:10.19	14.98	9.35	-39.0	-40.3	27.3	3.04e+01	59	41	0	279445504	52	6328
2026-01-21 20:58:11.20	14.79	9.38	-38.6	-39.9	27.7	3.04e+01	61	41	0	281542656	52	6044
2026-01-21 20:58:12.22	14.59	9.41	-39.1	-40.4	27.3	3.04e+01	58	41	0	283115520	52	6379
2026-01-21 20:58:13.22	14.41	9.44	-38.9	-40.2	27.4	3.04e+01	60	41	0	285212672	52	6238
2026-01-21 20:58:14.23	14.21	9.47	-38.8	-40.1	27.4	3.04e+01	46	41	0	287309824	52	6179
2026-01-21 20:58:15.24	14.02	9.50	-38.8	-40.1	27.6	3.04e+01	59	41	0	288882688	52	6202
2026-01-21 20:58:16.25	13.83	9.53	-38.6	-39.9	27.6	3.04e+01	61	41	0	290979840	52	6049
2026-01-21 20:58:17.26	13.64	9.56	-38.6	-39.9	27.9	3.04e+01	48	41	0	292552704	52	6048
2026-01-21 20:58:18.28	13.44	9.59	-38.4	-39.7	27.8	3.04e+01	61	41	0	294649856	52	5890
2026-01-21 20:58:19.29	13.25	9.62	-38.3	-39.6	28.0	3.04e+01	60	41	0	296747008	52	5832
2026-01-21 20:58:20.30	13.05	9.65	-38.5	-39.8	27.7	3.04e+01	57	41	0	298319872	52	5972
2026-01-21 20:58:21.30	12.86	9.67	-38.4	-39.7	27.8	3.04e+01	59	41	0	300417024	52	5871
2026-01-21 20:58:22.31	12.66	9.70	-38.7	-40.0	27.5	3.04e+01	50	41	0	301989888	52	6119
2026-01-21 20:58:23.32	12.47	9.73	-38.6	-39.9	27.7	3.04e+01	59	41	0	304087040	52	6053
2026-01-21 20:58:24.33	12.27	9.76	-38.3	-39.5	28.0	3.04e+01	60	41	0	306184192	52	5780
2026-01-21 20:58:25.34	12.08	9.78	-38.5	-39.9	27.7	3.04e+01	49	41	0	307757056	52	6001
2026-01-21 20:58:26.35	11.88	9.81	-38.5	-39.8	27.8	3.04e+01	60	41	0	309854208	52	5962
2026-01-21 20:58:27.36	11.68	9.84	-38.3	-39.6	27.9	3.04e+01	61	41	0	311951360	52	5834
2026-01-21 20:58:28.37	11.48	9.86	-38.2	-39.5	28.1	3.04e+01	62	41	0	313524224	52	5734
2026-01-21 20:58:29.38	11.29	9.89	-38.3	-39.6	28.0	3.04e+01	61	41	0	315621376	52	5854
2026-01-21 20:58:30.39	11.09	9.91	-38.2	-39.5	28.0	3.04e+01	52	41	0	317194240	52	5736
2026-01-21 20:58:31.40	10.89	9.94	-38.1	-39.4	28.1	3.04e+01	62	41	0	319291392	52	5690
2026-01-21 20:58:32.41	10.69	9.96	-38.2	-39.4	28.1	3.04e+01	61	41	0	321388544	52	5722
2026-01-21 20:58:33.42	10.49	9.99	-38.1	-39.4	28.0	3.04e+01	49	41	0	322961408	52	5709
2026-01-21 20:58:34.43	10.29	10.01	-38.3	-39.6	27.9	3.04e+01	58	41	0	325058560	52	5832
2026-01-21 20:58:35.44	10.09	10.04	-38.2	-39.5	28.1	3.04e+01	59	41	0	326631424	52	5736
2026-01-21 20:58:36.45	9.89	10.06	-38.2	-39.5	27.9	3.04e+01	55	41	0	328728576	52	5772
2026-01-21 20:58:37.46	9.69	10.09	-38.2	-39.5	28.0	3.04e+01	60	41	0	330825728	52	5769
2026-01-21 20:58:38.47	9.49	10.11	-38.1	-39.4	28.0	3.04e+01	56	41	0	332398592	52	5697
2026-01-21 20:58:39.48	9.29	10.13	-38.6	-39.9	27.8	3.04e+01	57	41	0	334495744	52	6012
2026-01-21 20:58:40.49	9.09	10.15	-38.3	-39.6	28.0	3.04e+01	61	41	0	336592896	52	5810
2026-01-21 20:58:41.50	8.88	10.18	-38.5	-39.8	27.9	3.04e+01	47	41	0	338165760	52	5937
2026-01-21 20:58:42.51	8.68	10.20	-38.6	-39.9	27.7	3.04e+01	56	41	0	340262912	52	6035
2026-01-21 20:58:43.52	8.48	10.22	-38.6	-39.9	27.7	3.04e+01	47	41	0	341835776	52	5999
2026-01-21 20:58:44.53	8.27	10.24	-38.2	-39.5	28.0	3.04e+01	61	41	0	343932928	52	5769
2026-01-21 20:58:45.55	8.07	10.26	-38.2	-39.5	28.1	3.04e+01	59	41	0	346030080	52	5750
2026-01-21 20:58:46.56	7.86	10.28	-38.2	-39.5	28.1	3.04e+01	52	41	0	347602944	52	5750
2026-01-21 20:58:47.56	7.66	10.30	-38.1	-39.4	28.2	3.04e+01	62	41	0	349700096	52	5680
2026-01-21 20:58:48.58	7.46	10.32	-38.0	-39.3	28.3	3.04e+01	61	41	0	351272960	52	5618
2026-01-21 20:58:49.59	7.25	10.34	-38.1	-39.4	28.1	3.04e+01	58	41	0	353370112	52	5687
2026-01-21 20:58:50.60	7.05	10.36	-38.2	-39.5	28.1	3.04e+01	59	41	0	355467264	52	5736
2026-01-21 20:58:51.61	6.84	10.38	-38.2	-39.4	28.1	3.04e+01	52	41	0	357040128	52	5717
2026-01-21 20:58:52.61	6.64	10.40	-38.1	-39.4	28.2	3.04e+01	60	41	0	359137280	52	5662
2026-01-21 20:58:53.63	6.43	10.42	-38.3	-39.6	28.0	3.04e+01	61	41	0	360710144	52	5804
2026-01-21 20:58:54.64	6.22	10.44	-38.2	-39.4	28.2	3.04e+01	51	41	0	362807296	52	5719
2026-01-21 20:58:55.65	6.02	10.46	-38.3	-39.6	28.0	3.04e+01	58	41	0	364904448	52	5838
2026-01-21 20:58:56.66	5.81	10.48	-38.1	-39.4	28.2	3.04e+01	57	41	0	366477312	52	5681
2026-01-21 20:58:57.67	5.60	10.49	-38.1	-39.4	28.2	3.04e+01	57	41	0	368574464	52	5681
2026-01-21 20:58:58.68	5.39	10.51	-38.0	-39.3	28.3	3.04e+01	60	41	0	370147328	52	5602
2026-01-21 20:58:59.69	5.19	10.53	-38.2	-39.5	28.1	3.04e+01	59	41	0	372244480	52	5729
2026-01-21 20:59:00.70	4.98	10.54	-38.0	-39.3	28.3	3.04e+01	57	41	0	374341632	52	5630
2026-01-21 20:59:01.71	4.77	10.56	-38.0	-39.3	28.3	3.04e+01	52	41	0	375914496	52	5628
2026-01-21 20:59:02.72	4.56	10.57	-38.0	-39.2	28.3	3.04e+01	51	41	0	378011648	52	5578
2026-01-21 20:59:03.73	4.35	10.59	-38.0	-39.2	28.3	3.04e+01	59	41	0	380108800	52	5589
2026-01-21 20:59:04.74	4.14	10.61	-38.1	-39.4	28.1	3.04e+01	56	41	0	381681664	50	6366
2026-01-21 20:59:05.75	3.94	10.62	-38.2	-39.5	28.1	3.04e+01	59	41	0	383778816	50	6467
2026-01-21 20:59:06.76	3.73	10.63	-38.2	-39.5	28.0	3.04e+01	59	41	0	385351680	50	6442
2026-01-21 20:59:07.77	3.52	10.65	-38.0	-39.3	28.2	3.04e+01	46	41	0	387448832	50	6322
2026-01-21 20:59:08.78	3.31	10.66	-38.1	-39.4	28.2	3.04e+01	60	41	0	389545984	50	6362
2026-01-21 20:59:09.79	3.10	10.68	-37.9	-39.2	28.3	3.04e+01	59	41	0	391118848	50	6244
2026-01-21 20:59:10.80	2.89	10.69	-38.0	-39.3	28.2	3.04e+01	55	41	0	393216000	50	6300
2026-01-21 20:59:11.81	2.68	10.70	-38.2	-39.5	28.1	3.04e+01	61	41	0	394788864	50	6478
2026-01-21 20:59:12.82	2.47	10.71	-38.4	-39.7	27.9	3.04e+01	59	41	0	396886016	50	6621
2026-01-21 20:59:13.84	2.25	10.73	-38.6	-40.0	27.6	3.04e+01	62	41	0	398983168	50	6815
2026-01-21 20:59:14.84	2.04	10.74	-38.3	-39.6	28.0	3.04e+01	61	41	0	400556032	50	6539
2026-01-21 20:59:15.85	1.83	10.75	-38.3	-39.6	28.1	3.04e+01	54	41	0	402653184	50	6555
2026-01-21 20:59:16.86	1.62	10.76	-38.5	-39.8	27.7	3.04e+01	57	41	0	404750336	50	6667
2026-01-21 20:59:17.87	1.41	10.77	-38.2	-39.5	28.1	3.04e+01	59	41	0	406323200	50	6481
2026-01-21 20:59:18.88	1.20	10.78	-38.0	-39.2	28.3	3.04e+01	61	41	0	408420352	50	6267
2026-01-21 20:59:19.89	0.99	10.79	-38.0	-39.2	28.3	3.04e+01	55	41	0	409993216	50	6272
2026-01-21 20:59:20.90	0.77	10.80	-37.9	-39.2	28.4	3.04e+01	39	41	0	412090368	50	6237
2026-01-21 20:59:21.91	0.56	10.81	-38.0	-39.3	28.3	3.04e+01	58	41	0	414187520	50	6325
2026-01-21 20:59:22.92	0.35	10.82	-38.2	-39.4	28.1	3.04e+01	59	41	0	415760384	50	6419
2026-01-21 20:59:23.93	0.14	10.83	-38.3	-39.6	28.1	3.04e+01	47	41	0	417857536	50	6531
2026-01-21 20:59:24.94	359.92	10.83	-38.2	-39.5	28.1	3.04e+01	63	41	0	419954688	50	6460
2026-01-21 20:59:25.94	359.71	10.84	-38.3	-39.5	28.1	3.04e+01	57	41	0	421527552	50	6489
2026-01-21 20:59:26.95	359.50	10.85	-38.0	-39.3	28.3	3.04e+01	59	41	0	423624704	50	6309
2026-01-21 20:59:27.96	359.29	10.86	-38.0	-39.3	28.2	3.04e+01	58	41	0	425197568	50	6284
2026-01-21 20:59:28.97	359.07	10.86	-38.2	-39.5	28.1	3.04e+01	45	41	0	427294720	50	6472
2026-01-21 20:59:29.98	358.86	10.87	-38.3	-39.6	28.0	3.04e+01	60	41	0	429391872	50	6501
2026-01-21 20:59:30.99	358.65	10.88	-38.1	-39.4	28.2	3.04e+01	59	41	0	430964736	50	6363
2026-01-21 20:59:32.00	358.44	10.88	-38.1	-39.4	28.2	3.04e+01	45	41	0	433061888	50	6384
2026-01-21 20:59:33.01	358.22	10.89	-38.1	-39.3	28.3	3.04e+01	60	41	0	434634752	50	6331
2026-01-21 20:59:34.02	358.01	10.89	-38.1	-39.4	28.2	3.04e+01	58	41	0	436731904	50	6388
2026-01-21 20:59:35.03	357.79	10.90	-38.3	-39.5	28.1	3.04e+01	61	41	0	438304768	50	6484
2026-01-21 20:59:36.04	357.58	10.90	-38.2	-39.5	28.1	3.04e+01	59	41	0	440401920	50	6464
2026-01-21 20:59:37.05	357.37	10.90	-38.2	-39.4	28.1	3.04e+01	47	41	0	442499072	50	6416
2026-01-21 20:59:38.06	357.15	10.91	-38.1	-39.4	28.2	3.04e+01	59	41	0	444071936	50	6392
2026-01-21 20:59:39.07	356.94	10.91	-38.2	-39.4	28.1	3.04e+01	58	41	0	446169088	50	6423
2026-01-21 20:59:40.08	356.73	10.91	-38.2	-39.5	28.1	3.04e+01	46	41	0	448266240	50	6435
2026-01-21 20:59:41.09	356.51	10.91	-38.2	-39.5	28.1	3.04e+01	58	41	0	449839104	50	6469
2026-01-21 20:59:42.10	356.30	10.92	-38.1	-39.4	28.1	3.04e+01	62	41	0	451936256	50	6364
2026-01-21 20:59:43.11	356.08	10.92	-38.0	-39.3	28.3	3.04e+01	53	41	0	453509120	50	6312
2026-01-21 20:59:44.12	355.87	10.92	-38.2	-39.5	28.1	3.04e+01	62	41	0	455606272	50	6424
2026-01-21 20:59:45.13	355.66	10.92	-38.3	-39.5	28.1	3.04e+01	47	41	0	457703424	50	6486
2026-01-21 20:59:46.14	355.44	10.92	-38.3	-39.6	28.0	3.04e+01	61	41	0	459276288	50	6544
2026-01-21 20:59:47.15	355.23	10.92	-38.3	-39.6	28.0	3.04e+01	58	41	0	461373440	50	6517
2026-01-21 20:59:48.16	355.01	10.92	-38.2	-39.5	28.1	3.04e+01	56	41	0	462946304	50	6454
2026-01-21 20:59:49.17	354.80	10.92	-38.1	-39.4	28.2	3.04e+01	59	41	0	465043456	50	6399
2026-01-21 20:59:50.18	354.59	10.92	-38.2	-39.4	28.1	3.04e+01	51	41	0	467140608	50	6422
2026-01-21 20:59:51.19	354.37	10.92	-38.3	-39.5	28.1	3.04e+01	57	41	0	468713472	50	6495
2026-01-21 20:59:52.20	354.16	10.92	-38.2	-39.5	28.1	3.04e+01	58	41	0	470810624	50	6468
2026-01-21 20:59:53.21	353.94	10.91	-38.2	-39.5	28.1	3.04e+01	48	41	0	472907776	50	6477
2026-01-21 20:59:54.22	353.73	10.91	-38.3	-39.5	28.1	3.04e+01	62	41	0	474480640	50	6486
2026-01-21 20:59:55.23	353.52	10.91	-38.3	-39.6	28.0	3.04e+01	59	41	0	476577792	50	6526
2026-01-21 20:59:56.24	353.30	10.91	-38.2	-39.4	28.2	3.04e+01	58	41	0	478150656	50	6410
2026-01-21 20:59:57.25	353.09	10.90	-38.2	-39.4	28.2	3.04e+01	59	41	0	480247808	50	6404
2026-01-21 20:59:58.26	352.88	10.90	-38.4	-39.6	28.0	3.04e+01	47	41	0	482344960	50	6562
2026-01-21 20:59:59.27	352.66	10.89	-38.1	-39.3	28.1	3.04e+01	56	41	0	483917824	50	6340
2026-01-21 21:00:00.28	352.45	10.89	-38.0	-39.3	28.2	3.04e+01	56	41	0	486014976	50	6285
2026-01-21 21:00:01.29	352.23	10.89	-38.2	-39.5	28.1	3.04e+01	44	41	0	488112128	50	6465
2026-01-21 21:00:02.30	352.02	10.88	-38.3	-39.6	28.0	3.04e+01	49	41	0	489684992	50	6528
2026-01-21 21:00:03.31	351.81	10.87	-38.4	-39.7	27.8	3.04e+01	62	41	0	491782144	50	6623
2026-01-21 21:00:04.32	351.59	10.87	-38.3	-39.6	28.0	3.04e+01	58	41	0	493355008	50	6517
2026-01-21 21:00:05.33	351.38	10.86	-38.2	-39.5	28.1	3.04e+01	61	41	0	495452160	50	6450
2026-01-21 21:00:06.34	351.17	10.86	-38.1	-39.4	28.2	3.04e+01	52	41	0	497549312	50	6387
2026-01-21 21:00:07.35	350.96	10.85	-38.2	-39.5	28.2	3.04e+01	62	41	0	499122176	50	6431
2026-01-21 21:00:08.36	350.74	10.84	-38.1	-39.4	28.1	3.04e+01	56	41	0	501219328	50	6377
2026-01-21 21:00:09.37	350.53	10.83	-38.5	-39.8	27.8	3.04e+01	47	41	0	502792192	50	6687
2026-01-21 21:00:10.38	350.32	10.82	-38.6	-39.9	27.8	3.04e+01	57	41	0	504889344	50	6736
2026-01-21 21:00:11.39	350.11	10.82	-38.6	-40.0	27.7	3.04e+01	58	41	0	506986496	50	6815
2026-01-21 21:00:12.40	349.89	10.81	-38.4	-39.7	27.9	3.04e+01	59	41	0	508559360	50	6631
2026-01-21 21:00:13.41	349.68	10.80	-38.5	-39.7	27.9	3.04e+01	59	41	0	510656512	50	6649
2026-01-21 21:00:14.42	349.47	10.79	-38.4	-39.7	27.9	3.04e+01	55	41	0	512229376	50	6602
2026-01-21 21:00:15.43	349.26	10.78	-38.4	-39.7	27.9	3.04e+01	59	41	0	514326528	50	6615
2026-01-21 21:00:16.44	349.05	10.77	-38.6	-39.9	27.8	3.04e+01	57	41	0	516423680	50	6735
2026-01-21 21:00:17.45	348.83	10.76	-38.5	-39.8	27.7	3.04e+01	46	41	0	517996544	50	6699
2026-01-21 21:00:18.46	348.62	10.75	-38.5	-39.8	27.9	3.04e+01	57	41	0	520093696	50	6650
2026-01-21 21:00:19.47	348.41	10.74	-38.4	-39.7	27.9	3.04e+01	57	41	0	521666560	50	6631
2026-01-21 21:00:20.48	348.20	10.72	-38.4	-39.7	27.9	3.04e+01	62	41	0	523763712	50	6623
2026-01-21 21:00:21.49	347.99	10.71	-38.5	-39.8	27.7	3.04e+01	55	41	0	525860864	50	6690
2026-01-21 21:00:22.50	347.78	10.70	-38.8	-40.1	27.5	3.04e+01	51	41	0	527433728	50	6951
2026-01-21 21:00:23.51	347.57	10.69	-38.6	-39.9	27.8	3.04e+01	59	41	0	529530880	50	6780
2026-01-21 21:00:24.52	347.36	10.67	-38.9	-40.2	27.5	3.04e+01	57	41	0	531103744	50	7038
2026-01-21 21:00:25.53	347.15	10.66	-38.3	-39.6	28.0	3.04e+01	49	41	0	533200896	50	6554
2026-01-21 21:00:26.54	346.94	10.65	-38.4	-39.6	27.9	3.04e+01	57	41	0	535298048	50	6557
2026-01-21 21:00:27.55	346.73	10.63	-38.4	-39.7	27.9	3.04e+01	46	41	0	536870912	50	6629
2026-01-21 21:00:28.56	346.52	10.62	-38.4	-39.7	27.9	3.04e+01	59	41	0	538968064	50	6642
2026-01-21 21:00:29.57	346.31	10.60	-38.6	-39.9	27.9	3.04e+01	59	41	0	541065216	50	6789
2026-01-21 21:00:30.58	346.10	10.59	-38.5	-39.8	27.7	3.04e+01	53	41	0	542638080	50	6700
2026-01-21 21:00:31.59	345.89	10.57	-38.6	-39.9	27.8	3.04e+01	59	41	0	544735232	50	6741
2026-01-21 21:00:32.60	345.68	10.56	-38.5	-39.8	27.9	3.04e+01	57	41	0	546308096	50	6656
2026-01-21 21:00:33.61	345.48	10.54	-38.6	-39.9	27.8	3.04e+01	55	41	0	548405248	50	6731
2026-01-21 21:00:34.62	345.27	10.52	-38.4	-39.7	27.9	3.04e+01	61	41	0	550502400	50	6618
2026-01-21 21:00:35.63	345.06	10.51	-38.6	-39.9	27.7	3.04e+01	47	41	0	552075264	50	6773
2026-01-21 21:00:36.64	344.85	10.49	-38.4	-39.7	27.9	3.04e+01	60	41	0	554172416	50	6635
2026-01-21 21:00:37.65	344.65	10.47	-38.5	-39.8	27.8	3.04e+01	58	41	0	555745280	50	6676
2026-01-21 21:00:38.66	344.44	10.45	-38.4	-39.7	27.9	3.04e+01	44	41	0	557842432	50	6626
2026-01-21 21:00:39.67	344.23	10.44	-38.7	-40.0	27.7	3.04e+01	61	41	0	559939584	50	6822
2026-01-21 21:00:40.68	344.03	10.42	-38.6	-39.9	27.7	3.04e+01	57	41	0	561512448	50	6796
2026-01-21 21:00:41.68	343.82	10.40	-38.6	-39.9	27.7	3.04e+01	59	41	0	563609600	50	6756
2026-01-21 21:00:42.69	343.62	10.38	-38.5	-39.8	27.8	3.04e+01	56	41	0	565706752	50	6711
2026-01-21 21:00:43.70	343.41	10.36	-38.4	-39.7	27.9	3.04e+01	51	41	0	567279616	50	6612
2026-01-21 21:00:44.71	343.21	10.34	-38.4	-39.7	27.9	3.04e+01	58	41	0	569376768	50	6622
2026-01-21 21:00:45.72	343.00	10.32	-38.5	-39.8	27.9	3.04e+01	59	41	0	570949632	50	6668
2026-01-21 21:00:46.73	342.80	10.30	-38.7	-40.1	27.7	3.04e+01	46	41	0	573046784	50	6887
2026-01-21 21:00:47.74	342.59	10.28	-38.8	-40.2	27.5	3.04e+01	60	41	0	575143936	50	6976
2026-01-21 21:00:48.75	342.39	10.26	-39.0	-40.4	27.3	3.04e+01	58	41	0	576716800	52	6362
2026-01-21 21:00:49.76	342.19	10.24	-38.8	-40.1	27.6	3.04e+01	60	41	0	578813952	52	6181
2026-01-21 21:00:50.77	341.98	10.22	-38.6	-39.9	27.7	3.04e+01	60	41	0	580386816	52	6051
2026-01-21 21:00:51.78	341.78	10.20	-38.7	-40.0	27.7	3.04e+01	49	41	0	582483968	52	6078
2026-01-21 21:00:52.79	341.58	10.17	-38.6	-39.9	27.7	3.04e+01	60	41	0	584581120	52	6059
2026-01-21 21:00:53.80	341.37	10.15	-38.5	-39.8	27.9	3.04e+01	60	40	0	586153984	52	5931
2026-01-21 21:00:54.81	341.17	10.13	-38.6	-39.9	27.8	3.04e+01	44	41	0	588251136	52	6013
2026-01-21 21:00:55.82	340.97	10.11	-38.7	-40.0	27.6	3.04e+01	59	41	0	589824000	52	6115
2026-01-21 21:00:56.83	340.77	10.08	-38.8	-40.1	27.6	3.04e+01	44	41	0	591921152	52	6167
2026-01-21 21:00:57.84	340.57	10.06	-38.7	-40.0	27.7	3.04e+01	57	41	0	594018304	52	6087
2026-01-21 21:00:58.85	340.37	10.03	-38.8	-40.1	27.6	3.04e+01	59	41	0	595591168	52	6183
2026-01-21 21:00:59.86	340.17	10.01	-38.7	-40.0	27.6	3.04e+01	55	41	0	597688320	52	6103
2026-01-21 21:01:00.87	339.97	9.99	-38.7	-40.1	27.6	3.04e+01	60	41	0	599261184	52	6138
2026-01-21 21:01:01.88	339.77	9.96	-38.7	-40.1	27.5	3.04e+01	56	41	0	601358336	52	6145
2026-01-21 21:01:02.89	339.57	9.94	-38.7	-40.1	27.6	3.04e+01	54	40	0	603455488	52	6154
2026-01-21 21:01:03.90	339.37	9.91	-38.7	-40.0	27.6	3.04e+01	58	41	0	605028352	52	6125
2026-01-21 21:01:04.91	339.17	9.88	-38.7	-40.1	27.6	3.04e+01	45	41	0	607125504	52	6150
2026-01-21 21:01:05.92	338.98	9.86	-38.6	-39.9	27.6	3.04e+01	58	41	0	609222656	52	6042
2026-01-21 21:01:06.93	338.78	9.83	-38.9	-40.3	27.4	3.04e+01	60	41	0	610795520	52	6300
2026-01-21 21:01:07.94	338.58	9.81	-38.9	-40.2	27.5	3.04e+01	44	41	0	612892672	52	6249
2026-01-21 21:01:08.95	338.38	9.78	-39.1	-40.5	27.2	3.04e+01	63	40	0	614465536	52	6470
2026-01-21 21:01:09.96	338.19	9.75	-38.7	-40.0	27.6	3.04e+01	56	41	0	616562688	52	6090
2026-01-21 21:01:10.97	337.99	9.73	-38.8	-40.2	27.5	3.04e+01	60	41	0	618659840	52	6226
2026-01-21 21:01:11.98	337.80	9.70	-38.7	-40.0	27.6	3.04e+01	60	41	0	620232704	52	6117
2026-01-21 21:01:12.99	337.60	9.67	-38.7	-40.0	27.7	3.04e+01	59	41	0	622329856	52	6086
2026-01-21 21:01:14.00	337.41	9.64	-38.6	-39.9	27.7	3.04e+01	60	41	0	623902720	52	6025
2026-01-21 21:01:15.01	337.21	9.61	-39.1	-40.4	27.3	3.04e+01	58	41	0	625999872	52	6395
2026-01-21 21:01:16.03	337.02	9.58	-38.9	-40.2	27.4	3.04e+01	51	41	0	628097024	52	6274
2026-01-21 21:01:17.04	336.82	9.56	-39.1	-40.4	27.3	3.04e+01	59	41	0	629669888	52	6414
2026-01-21 21:01:18.05	336.63	9.53	-38.9	-40.2	27.4	3.04e+01	63	41	0	631767040	52	6243
2026-01-21 21:01:19.06	336.44	9.50	-39.2	-40.5	27.2	3.04e+01	63	41	0	633864192	52	6458
2026-01-21 21:01:20.07	336.24	9.47	-38.9	-40.3	27.4	3.04e+01	59	41	0	635437056	52	6291
2026-01-21 21:01:21.08	336.05	9.44	-39.0	-40.3	27.4	3.04e+01	48	41	0	637534208	52	6320
2026-01-21 21:01:22.09	335.86	9.41	-39.6	-41.0	26.8	3.04e+01	59	41	0	639107072	52	6828
2026-01-21 21:01:23.10	335.67	9.38	-38.9	-40.3	27.5	3.04e+01	60	41	0	641204224	52	6279
2026-01-21 21:01:24.11	335.48	9.35	-39.5	-40.9	26.8	3.04e+01	45	41	0	643301376	52	6766
2026-01-21 21:01:25.12	335.29	9.32	-38.6	-39.9	27.7	3.04e+01	59	41	0	644874240	52	6019
2026-01-21 21:01:26.13	335.10	9.28	-39.2	-40.5	27.2	3.04e+01	59	41	0	646971392	52	6478
2026-01-21 21:01:27.13	334.91	9.25	-38.9	-40.3	27.4	3.04e+01	63	41	0	649068544	52	6280
2026-01-21 21:01:28.14	334.72	9.22	-38.9	-40.3	27.4	3.04e+01	61	41	0	650641408	52	6281
2026-01-21 21:01:29.15	334.54	9.19	-39.2	-40.5	27.2	3.04e+01	55	41	0	652738560	52	6484
2026-01-21 21:01:30.16	334.35	9.16	-39.0	-40.3	27.2	3.04e+01	59	41	0	654311424	52	6330
2026-01-21 21:01:31.17	334.16	9.13	-39.5	-40.9	26.6	3.04e+01	59	40	0	656408576	52	6795
2026-01-21 21:01:32.19	333.97	9.09	-39.5	-40.9	26.6	3.04e+01	57	41	0	658505728	52	6759
2026-01-21 21:01:33.20	333.79	9.06	-39.6	-41.0	26.7	3.04e+01	61	41	0	660078592	54	6069
2026-01-21 21:01:34.21	333.60	9.03	-39.1	-40.4	26.9	3.04e+01	48	41	0	662175744	52	6417
2026-01-21 21:01:35.22	333.42	8.99	-39.6	-41.0	26.6	3.04e+01	60	41	0	663748608	52	6820
2026-01-21 21:01:36.23	333.23	8.96	-39.8	-41.2	26.4	3.04e+01	59	41	0	665845760	52	7018
2026-01-21 21:01:37.24	333.05	8.93	-39.9	-41.3	26.4	3.04e+01	45	41	0	667942912	54	6296
2026-01-21 21:01:38.25	332.86	8.89	-39.0	-40.3	27.3	3.04e+01	57	41	0	669515776	54	5657
2026-01-21 21:01:39.26	332.68	8.86	-39.6	-41.1	26.7	3.04e+01	61	41	0	671612928	54	6149
2026-01-21 21:01:40.27	332.49	8.82	-38.7	-39.9	27.7	3.04e+01	59	41	0	673185792	52	6062
2026-01-21 21:01:41.28	332.31	8.79	-39.8	-41.3	26.4	3.04e+01	53	41	0	675282944	52	7081
2026-01-21 21:01:42.29	332.13	8.76	-38.5	-39.8	27.7	3.04e+01	62	41	0	677380096	52	5929
2026-01-21 21:01:43.30	331.95	8.72	-40.0	-41.5	26.2	3.04e+01	61	41	0	678952960	54	6465
2026-01-21 21:01:44.31	331.77	8.69	-38.7	-39.9	27.6	3.04e+01	60	41	0	681050112	52	6062
2026-01-21 21:01:45.32	331.59	8.65	-39.5	-40.9	26.8	3.04e+01	46	41	0	682622976	52	6801
2026-01-21 21:01:46.33	331.41	8.62	-39.4	-40.7	27.0	3.04e+01	59	41	0	684720128	52	6633
2026-01-21 21:01:47.34	331.23	8.58	-39.7	-41.1	26.6	3.04e+01	60	41	0	686817280	52	6885
2026-01-21 21:01:48.35	331.05	8.54	-40.1	-41.5	26.0	3.04e+01	58	41	0	688390144	54	6489
2026-01-21 21:01:49.36	330.87	8.51	-39.3	-40.7	26.7	3.04e+01	61	41	0	690487296	54	5863
2026-01-21 21:01:50.37	330.69	8.47	-40.5	-42.0	25.7	3.04e+01	59	41	0	692060160	54	6856
2026-01-21 21:01:51.38	330.51	8.43	-39.0	-40.4	27.3	3.04e+01	60	41	0	694157312	52	6351
2026-01-21 21:01:52.39	330.33	8.40	-39.7	-41.1	26.5	3.04e+01	59	41	0	696254464	54	6199
2026-01-21 21:01:53.40	330.16	8.36	-39.1	-40.5	27.1	3.04e+01	50	41	0	697827328	54	5758
2026-01-21 21:01:54.41	329.98	8.32	-39.0	-40.4	27.2	3.04e+01	60	41	0	699924480	52	6403
2026-01-21 21:01:55.42	329.81	8.29	-39.3	-40.6	27.0	3.04e+01	58	41	0	702021632	52	6568
2026-01-21 21:01:56.43	329.63	8.25	-39.2	-40.6	27.1	3.04e+01	61	41	0	703594496	52	6516
2026-01-21 21:01:57.44	329.45	8.21	-39.6	-41.0	26.6	3.04e+01	63	41	0	705691648	52	6860
2026-01-21 21:01:58.45	329.28	8.17	-39.0	-40.4	27.2	3.04e+01	48	41	0	707264512	52	6361
2026-01-21 21:01:59.46	329.11	8.14	-39.9	-41.4	26.3	3.04e+01	60	41	0	709361664	52	7140
2026-01-21 21:02:00.47	328.93	8.10	-39.3	-40.6	26.9	3.04e+01	51	41	0	711458816	52	6554
2026-01-21 21:02:01.48	328.76	8.06	-39.9	-41.4	26.2	3.04e+01	48	41	0	713031680	52	7180
2026-01-21 21:02:02.49	328.59	8.02	-39.7	-41.1	26.6	3.04e+01	60	41	0	715128832	54	6193
2026-01-21 21:02:03.50	328.42	7.98	-39.6	-41.0	26.6	3.04e+01	48	41	0	717225984	54	6109
2026-01-21 21:02:04.51	328.24	7.95	-40.3	-41.8	25.9	3.04e+01	57	41	0	718798848	54	6721
2026-01-21 21:02:05.52	328.07	7.91	-39.2	-40.5	27.2	3.04e+01	57	41	0	720896000	54	5759
2026-01-21 21:02:06.53	327.90	7.87	-39.4	-40.8	27.0	3.04e+01	51	41	0	722468864	52	6699
2026-01-21 21:02:07.54	327.73	7.83	-39.6	-41.0	26.7	3.04e+01	59	41	0	724566016	52	6849
2026-01-21 21:02:08.55	327.56	7.79	-39.6	-41.0	26.7	3.04e+01	57	41	0	726663168	52	6850
2026-01-21 21:02:09.56	327.40	7.75	-39.9	-41.4	26.3	3.04e+01	59	41	0	728236032	54	6374
2026-01-21 21:02:10.57	327.23	7.71	-39.3	-40.6	27.0	3.04e+01	58	41	0	730333184	54	5856
2026-01-21 21:02:11.58	327.06	7.67	-39.6	-41.0	26.4	3.04e+01	49	41	0	731906048	54	6110
2026-01-21 21:02:12.59	326.89	7.63	-39.5	-40.9	26.7	3.04e+01	60	41	0	734003200	54	6022
2026-01-21 21:02:13.60	326.72	7.59	-39.5	-40.8	26.9	3.04e+01	61	41	0	736100352	54	5960
2026-01-21 21:02:14.61	326.56	7.55	-39.8	-41.3	26.3	3.04e+01	45	41	0	737673216	54	6285
2026-01-21 21:02:15.61	326.39	7.51	-39.5	-40.9	26.8	3.04e+01	58	41	0	739770368	54	6006
2026-01-21 21:02:16.62	326.23	7.47	-39.6	-41.0	26.7	3.04e+01	58	41	0	741343232	54	6094
2026-01-21 21:02:17.63	326.06	7.43	-39.8	-41.2	26.5	3.04e+01	57	41	0	743440384	54	6264
2026-01-21 21:02:18.64	325.90	7.39	-39.4	-40.8	26.9	3.04e+01	56	41	0	745537536	54	5962
2026-01-21 21:02:19.65	325.74	7.35	-39.6	-41.0	26.7	3.04e+01	52	41	0	747110400	54	6111
2026-01-21 21:02:20.66	325.57	7.31	-39.3	-40.7	27.0	3.04e+01	58	41	0	749207552	54	5897
2026-01-21 21:02:21.67	325.41	7.26	-39.2	-40.6	26.9	3.04e+01	59	40	0	750780416	54	5812
2026-01-21 21:02:22.68	325.25	7.22	-39.8	-41.2	26.5	3.04e+01	50	41	0	752877568	54	6231
2026-01-21 21:02:23.69	325.09	7.18	-39.6	-40.9	26.7	3.04e+01	56	41	0	754974720	54	6029
2026-01-21 21:02:24.70	324.92	7.14	-40.1	-41.6	26.1	3.04e+01	58	41	0	756547584	54	6530
2026-01-21 21:02:25.71	324.76	7.10	-39.8	-41.2	26.4	3.04e+01	57	41	0	758644736	54	6211
2026-01-21 21:02:26.72	324.60	7.06	-39.6	-41.0	26.7	3.04e+01	57	41	0	760217600	54	6072
2026-01-21 21:02:27.73	324.44	7.01	-40.1	-41.5	26.0	3.04e+01	48	41	0	762314752	54	6495
2026-01-21 21:02:28.73	324.29	6.97	-40.0	-41.4	26.2	3.04e+01	59	41	0	764411904	54	6408
2026-01-21 21:02:29.74	324.13	6.93	-40.4	-41.9	25.8	3.04e+01	56	41	0	765984768	54	6761
2026-01-21 21:02:30.75	323.97	6.89	-39.6	-40.9	26.7	3.04e+01	45	41	0	768081920	54	6055
2026-01-21 21:02:31.76	323.81	6.85	-39.7	-41.1	26.5	3.04e+01	59	41	0	770179072	54	6194
2026-01-21 21:02:32.77	323.65	6.80	-39.5	-40.9	26.7	3.04e+01	57	41	0	771751936	54	6005
2026-01-21 21:02:33.78	323.50	6.76	-39.5	-40.8	26.7	3.04e+01	59	41	0	773849088	54	5978
2026-01-21 21:02:34.79	323.34	6.72	-40.0	-41.4	26.2	3.04e+01	59	41	0	775421952	54	6420
2026-01-21 21:02:35.80	323.19	6.68	-39.7	-41.1	26.6	3.04e+01	49	41	0	777519104	54	6145
2026-01-21 21:02:36.81	323.03	6.63	-40.3	-41.8	25.9	3.04e+01	60	41	0	779616256	54	6663
2026-01-21 21:02:37.82	322.88	6.59	-40.3	-41.8	25.9	3.04e+01	57	41	0	781189120	54	6675
2026-01-21 21:02:38.83	322.72	6.55	-40.0	-41.4	25.9	3.04e+01	51	41	0	783286272	54	6378
2026-01-21 21:02:39.84	322.57	6.50	-40.6	-42.1	25.3	3.04e+01	61	41	0	785383424	54	6916
2026-01-21 21:02:40.85	322.41	6.46	-40.2	-41.6	25.8	3.04e+01	62	41	0	786956288	54	6503
2026-01-21 21:02:41.86	322.26	6.42	-41.8	-43.4	24.3	3.04e+01	53	41	0	789053440	56	7172
2026-01-21 21:02:42.87	322.11	6.37	-40.4	-41.8	26.1	3.04e+01	63	41	0	790626304	56	5977
2026-01-21 21:02:43.88	321.96	6.33	-39.2	-40.5	26.9	3.04e+01	46	41	0	792723456	52	6480
2026-01-21 21:02:44.89	321.81	6.29	-41.1	-42.7	25.1	3.04e+01	57	41	0	794820608	56	6604
2026-01-21 21:02:45.90	321.66	6.24	-39.9	-41.3	26.4	3.04e+01	58	41	0	796393472	56	5633
2026-01-21 21:02:46.91	321.51	6.20	-40.3	-41.8	25.8	3.04e+01	61	41	0	798490624	54	6692
2026-01-21 21:02:47.92	321.36	6.15	-40.6	-42.1	25.5	3.04e+01	57	41	0	800063488	56	6187
2026-01-21 21:02:48.93	321.21	6.11	-39.8	-41.1	26.4	3.04e+01	45	41	0	802160640	54	6205
2026-01-21 21:02:49.94	321.06	6.07	-40.2	-41.7	25.9	3.04e+01	59	41	0	804257792	54	6620
2026-01-21 21:02:50.95	320.91	6.02	-40.1	-41.5	25.9	3.04e+01	58	41	0	805830656	54	6460
2026-01-21 21:02:51.96	320.76	5.98	-39.7	-41.1	26.4	3.04e+01	48	41	0	807927808	54	6174
2026-01-21 21:02:52.97	320.62	5.93	-40.3	-41.8	25.8	3.04e+01	60	41	0	809500672	54	6669
2026-01-21 21:02:53.98	320.47	5.89	-39.7	-41.1	26.6	3.04e+01	59	41	0	811597824	54	6173
2026-01-21 21:02:54.99	320.32	5.84	-40.3	-41.7	25.8	3.04e+01	59	41	0	813694976	54	6646
2026-01-21 21:02:56.00	320.18	5.80	-40.7	-42.2	25.3	3.04e+01	59	41	0	815267840	54	6997
2026-01-21 21:02:57.01	320.03	5.75	-40.2	-41.6	26.0	3.04e+01	59	41	0	817364992	54	6522
2026-01-21 21:02:58.02	319.89	5.71	-40.2	-41.7	25.9	3.04e+01	61	41	0	818937856	54	6602
2026-01-21 21:02:59.03	319.74	5.66	-40.2	-41.6	25.8	3.04e+01	61	41	0	821035008	54	6558
2026-01-21 21:03:00.04	319.60	5.62	-39.9	-41.3	26.1	3.04e+01	53	41	0	823132160	54	6332
2026-01-21 21:03:01.05	319.46	5.57	-40.5	-42.0	25.5	3.04e+01	56	41	0	824705024	54	6863
2026-01-21 21:03:02.06	319.31	5.53	-40.4	-41.9	25.6	3.04e+01	57	41	0	826802176	54	6760
2026-01-21 21:03:03.07	319.17	5.48	-40.1	-41.5	26.0	3.04e+01	59	41	0	828375040	54	6484
2026-01-21 21:03:04.08	319.03	5.44	-40.9	-42.5	25.1	3.04e+01	65	41	0	830472192	54	7233
2026-01-21 21:03:05.09	318.89	5.39	-40.9	-42.5	25.0	3.04e+01	46	41	0	832569344	56	6473
2026-01-21 21:03:06.10	318.75	5.35	-40.8	-42.3	25.5	3.04e+01	58	41	0	834142208	56	6287
2026-01-21 21:03:07.11	318.61	5.30	-39.8	-41.2	26.3	3.04e+01	61	41	0	836239360	54	6268
2026-01-21 21:03:08.12	318.47	5.26	-40.6	-42.1	25.5	3.04e+01	44	41	0	838336512	54	6902
2026-01-21 21:03:09.13	318.33	5.21	-40.4	-41.9	25.7	3.04e+01	56	41	0	839909376	54	6756
2026-01-21 21:03:10.14	318.19	5.17	-40.5	-42.0	25.6	3.04e+01	52	41	0	842006528	54	6870
2026-01-21 21:03:11.15	318.05	5.12	-40.3	-41.8	25.8	3.04e+01	58	41	0	843579392	54	6684
2026-01-21 21:03:12.16	317.92	5.07	-40.4	-41.9	25.4	3.04e+01	57	41	0	845676544	54	6787
2026-01-21 21:03:13.17	317.78	5.03	-41.4	-43.0	24.7	3.04e+01	54	41	0	847773696	56	6824
2026-01-21 21:03:14.18	317.64	4.98	-40.5	-42.0	25.6	3.04e+01	60	41	0	849346560	56	6120
2026-01-21 21:03:15.19	317.50	4.94	-40.9	-42.4	25.2	3.04e+01	60	41	0	851443712	56	6382
2026-01-21 21:03:16.20	317.37	4.89	-41.2	-42.8	24.8	3.04e+01	58	41	0	853540864	56	6716
2026-01-21 21:03:17.21	317.23	4.84	-40.8	-42.4	25.2	3.04e+01	59	41	0	855113728	56	6354
2026-01-21 21:03:18.22	317.10	4.80	-40.9	-42.4	25.2	3.04e+01	46	41	0	857210880	56	6396
2026-01-21 21:03:19.23	316.96	4.75	-40.7	-42.2	25.5	3.04e+01	59	41	0	858783744	56	6236
2026-01-21 21:03:20.24	316.83	4.71	-40.3	-41.8	25.7	3.04e+01	59	41	0	860880896	56	5951
2026-01-21 21:03:21.25	316.70	4.66	-40.3	-41.8	25.7	3.04e+01	46	41	0	862978048	56	5938
2026-01-21 21:03:22.26	316.56	4.61	-40.0	-41.4	26.0	3.04e+01	60	41	0	864550912	56	5716
2026-01-21 21:03:23.27	316.43	4.57	-40.2	-41.7	25.7	3.04e+01	63	41	0	866648064	54	6617
2026-01-21 21:03:24.28	316.30	4.52	-40.0	-41.5	26.0	3.04e+01	58	41	0	868220928	54	6449
2026-01-21 21:03:25.29	316.17	4.47	-40.1	-41.5	25.8	3.04e+01	60	41	0	870318080	54	6463
2026-01-21 21:03:26.30	316.04	4.43	-40.8	-42.4	25.0	3.04e+01	62	41	0	872415232	54	7159
2026-01-21 21:03:27.31	315.91	4.38	-41.1	-42.8	24.6	3.04e+01	60	41	0	873988096	56	6704
2026-01-21 21:03:28.32	315.78	4.34	-40.2	-41.7	25.6	3.04e+01	57	41	0	876085248	56	5925
2026-01-21 21:03:29.33	315.65	4.29	-40.8	-42.4	25.1	3.04e+01	49	41	0	877658112	56	6363
2026-01-21 21:03:30.34	315.52	4.24	-40.6	-42.2	25.3	3.04e+01	57	41	0	879755264	56	6223
2026-01-21 21:03:31.35	315.39	4.20	-40.7	-42.3	25.1	3.04e+01	59	41	0	881852416	56	6309
2026-01-21 21:03:32.36	315.26	4.15	-41.0	-42.6	24.9	3.04e+01	63	41	0	883425280	56	6563
2026-01-21 21:03:33.36	315.13	4.10	-40.5	-42.0	25.7	3.04e+01	58	41	0	885522432	56	6066
2026-01-21 21:03:34.38	315.00	4.06	-40.8	-42.4	24.9	3.04e+01	53	41	0	887095296	56	6364
2026-01-21 21:03:35.38	314.88	4.01	-41.1	-42.7	24.8	3.04e+01	59	41	0	889192448	56	6614
2026-01-21 21:03:36.39	314.75	3.96	-40.5	-42.0	25.5	3.04e+01	60	41	0	891289600	56	6109
2026-01-21 21:03:37.40	314.63	3.92	-41.3	-42.9	24.6	3.04e+01	46	41	0	892862464	56	6793
2026-01-21 21:03:38.41	314.50	3.87	-41.1	-42.8	24.6	3.04e+01	60	41	0	894959616	56	6660
2026-01-21 21:03:39.43	314.37	3.82	-41.5	-43.2	24.3	3.04e+01	55	41	0	896532480	56	6971
2026-01-21 21:03:40.44	314.25	3.77	-40.6	-42.1	25.2	3.04e+01	54	41	0	898629632	56	6188
2026-01-21 21:03:41.45	314.12	3.73	-40.2	-41.7	25.6	3.04e+01	58	41	0	900726784	56	5896
2026-01-21 21:03:42.46	314.00	3.68	-40.7	-42.2	25.4	3.04e+01	60	41	0	902299648	56	6250
2026-01-21 21:03:43.47	313.88	3.63	-40.1	-41.6	25.6	3.04e+01	61	41	0	904396800	56	5794
2026-01-21 21:03:44.48	313.75	3.59	-42.7	-44.6	22.7	3.04e+01	61	41	0	906493952	58	7318
2026-01-21 21:03:45.49	313.63	3.54	-42.1	-43.9	23.6	3.04e+01	47	41	0	908066816	60	5998
2026-01-21 21:03:46.50	313.51	3.49	-40.9	-42.5	24.7	3.04e+01	58	41	0	910163968	56	6424
2026-01-21 21:03:47.51	313.39	3.45	-41.4	-43.0	24.2	3.04e+01	48	41	0	911736832	58	6088
2026-01-21 21:03:48.52	313.27	3.40	-41.2	-42.8	24.3	3.04e+01	59	41	0	913833984	58	5978
2026-01-21 21:03:49.53	313.15	3.35	-41.1	-42.8	24.4	3.04e+01	58	41	0	915931136	56	6670
2026-01-21 21:03:50.54	313.03	3.30	-40.7	-42.2	25.1	3.04e+01	49	41	0	917504000	56	6234
2026-01-21 21:03:51.55	312.91	3.26	-41.5	-43.1	24.3	3.04e+01	61	41	0	919601152	56	6939
2026-01-21 21:03:52.56	312.79	3.21	-40.1	-41.6	25.5	3.04e+01	56	41	0	921698304	56	5834
2026-01-21 21:03:53.57	312.67	3.16	-41.7	-43.5	23.8	3.04e+01	61	41	0	923271168	56	7236
2026-01-21 21:03:54.58	312.55	3.12	-41.1	-42.7	24.5	3.04e+01	57	41	0	925368320	58	5922
2026-01-21 21:03:55.59	312.43	3.07	-41.1	-42.7	24.6	3.04e+01	53	41	0	926941184	58	5907
2026-01-21 21:03:56.60	312.31	3.02	-41.4	-43.1	24.1	3.04e+01	62	41	0	929038336	56	6889
2026-01-21 21:03:57.61	312.19	2.97	-49.9	-65.4	3.5	3.04e+01	0	41	104	930611200	60	71259
2026-01-21 21:03:58.62	312.08	2.93	-50.1	-68.4	3.5	3.04e+01	0	41	104	930611200	60	100787
2026-01-21 21:03:59.63	311.96	2.88	-50.5	-68.7	3.5	3.04e+01	0	41	104	930611200	60	105015
2026-01-21 21:04:00.64	311.85	2.83	-50.8	-68.9	3.5	3.04e+01	0	41	104	930611200	60	107236
2026-01-21 21:04:01.65	311.73	2.78	-51.1	-69.1	3.5	3.04e+01	0	41	104	930611200	60	109138
2026-01-21 21:04:02.66	311.61	2.74	-51.3	-69.1	3.5	3.04e+01	0	41	104	930611200	60	109617
2026-01-21 21:04:03.67	311.50	2.69	-51.3	-69.2	3.5	3.04e+01	0	41	104	930611200	60	110457
2026-01-21 21:04:04.67	311.39	2.64	-51.4	-69.2	3.5	3.04e+01	0	41	104	930611200	60	110478
2026-01-21 21:04:05.68	311.27	2.60	-51.4	-69.2	3.5	3.04e+01	0	41	104	930611200	60	110918
2026-01-21 21:04:06.69	311.16	2.55	-51.4	-69.2	3.5	3.04e+01	0	41	104	930611200	60	111239
2026-01-21 21:04:07.70	311.05	2.50	-51.4	-69.2	3.5	3.04e+01	0	41	104	930611200	60	111580
2026-01-21 21:04:08.71	310.93	2.45	-51.5	-69.2	3.5	3.04e+01	0	41	104	930611200	60	111321
2026-01-21 21:04:09.72	310.82	2.41	-51.4	-69.2	3.5	3.04e+01	0	41	104	930611200	60	111157
2026-01-21 21:04:10.73	310.71	2.36	-51.5	-69.2	3.5	3.04e+01	0	41	104	930611200	60	111506
2026-01-21 21:04:11.74	310.60	2.31	-51.4	-69.2	3.5	3.04e+01	0	41	104	930611200	60	111169
2026-01-21 21:04:12.75	310.49	2.26	-51.2	-69.2	3.5	3.04e+01	0	41	104	930611200	60	110472
2026-01-21 21:04:13.76	310.38	2.22	-51.2	-69.2	3.5	3.04e+01	0	41	104	930611200	60	110469
2026-01-21 21:04:14.77	310.26	2.17	-51.4	-69.2	3.5	3.04e+01	0	41	104	930611200	60	111026
2026-01-21 21:04:15.78	310.15	2.12	-51.2	-69.1	3.5	3.04e+01	0	41	104	930611200	60	110339
2026-01-21 21:04:16.79	310.05	2.07	-51.3	-69.2	3.5	3.04e+01	0	41	104	930611200	60	111000
2026-01-21 21:04:17.80	309.94	2.03	-51.3	-69.2	3.5	3.04e+01	0	41	104	930611200	60	110973
2026-01-21 21:04:18.81	309.83	1.98	-51.4	-69.2	3.5	3.04e+01	0	41	104	930611200	60	111032
2026-01-21 21:04:19.82	309.72	1.93	-51.4	-69.2	3.5	3.04e+01	0	41	104	930611200	60	110645
2026-01-21 21:04:20.83	309.61	1.88	-51.1	-69.2	3.5	3.04e+01	0	41	104	930611200	60	110506
2026-01-21 21:04:21.84	309.50	1.84	-51.3	-69.2	3.5	3.04e+01	0	41	104	930611200	60	110970
2026-01-21 21:04:22.85	309.40	1.79	-51.4	-69.2	3.5	3.04e+01	0	41	104	930611200	60	110781
2026-01-21 21:04:23.86	309.29	1.74	-51.4	-69.2	3.5	3.04e+01	0	41	104	930611200	60	111616
2026-01-21 21:04:24.87	309.18	1.69	-51.4	-69.2	3.5	3.04e+01	0	41	104	930611200	60	110698
2026-01-21 21:04:25.88	309.08	1.65	-51.4	-69.2	3.5	3.04e+01	0	41	104	930611200	60	110894
2026-01-21 21:04:26.89	308.97	1.60	-51.4	-69.2	3.5	3.04e+01	0	41	104	930611200	60	110559
2026-01-21 21:04:27.90	308.87	1.55	-51.4	-69.2	3.5	3.04e+01	0	41	104	930611200	60	110692
2026-01-21 21:04:28.91	308.76	1.50	-51.3	-69.2	3.5	3.04e+01	0	41	104	930611200	60	110888
2026-01-21 21:04:29.92	308.66	1.46	-51.3	-69.2	3.5	3.04e+01	0	41	104	930611200	60	110665
2026-01-21 21:04:30.93	308.55	1.41	-51.3	-69.1	3.5	3.04e+01	0	41	104	930611200	60	110169
2026-01-21 21:04:31.94	308.45	1.36	-51.4	-69.2	3.5	3.04e+01	0	41	104	930611200	60	110959
2026-01-21 21:04:32.95	308.35	1.32	-51.4	-69.2	3.5	3.04e+01	0	41	104	930611200	60	111426
2026-01-21 21:04:33.96	308.24	1.27	-51.5	-69.3	3.5	3.04e+01	0	41	104	930611200	60	111835
2026-01-21 21:04:34.97	308.14	1.22	-51.4	-69.3	3.5	3.04e+01	0	41	104	930611200	60	111652
2026-01-21 21:04:35.98	308.04	1.17	-51.4	-69.2	3.5	3.04e+01	0	41	104	930611200	60	110925
2026-01-21 21:04:36.99	307.94	1.13	-51.4	-69.2	3.5	3.04e+01	0	41	104	930611200	60	111439
2026-01-21 21:04:38.00	307.83	1.08	-51.4	-69.2	3.5	3.04e+01	0	41	104	930611200	60	110999
2026-01-21 21:04:39.01	307.73	1.03	-51.4	-69.2	3.5	3.04e+01	0	41	104	930611200	60	110778
2026-01-21 21:04:40.02	307.63	0.98	-51.4	-69.3	3.5	3.04e+01	0	41	104	930611200	60	111656
2026-01-21 21:04:41.03	307.53	0.94	-51.5	-69.3	3.5	3.04e+01	0	41	104	930611200	60	112908
2026-01-21 21:04:42.04	307.43	0.89	-51.5	-69.3	3.5	3.04e+01	0	41	104	930611200	60	112634
2026-01-21 21:04:43.05	307.33	0.84	-51.4	-69.2	3.5	3.04e+01	0	41	104	930611200	60	110381
2026-01-21 21:04:44.06	307.23	0.79	-51.4	-69.2	3.5	3.04e+01	0	41	104	930611200	60	111077
2026-01-21 21:04:45.07	307.13	0.75	-51.3	-69.1	3.5	3.04e+01	0	41	104	930611200	60	110143
2026-01-21 21:04:46.08	307.03	0.70	-51.5	-69.3	3.5	3.04e+01	0	41	104	930611200	60	112301
2026-01-21 21:04:47.09	306.94	0.65	-51.5	-69.3	3.5	3.04e+01	0	41	104	930611200	60	111853
2026-01-21 21:04:48.10	306.84	0.61	-51.4	-69.2	3.5	3.04e+01	0	41	104	930611200	60	111547
2026-01-21 21:04:49.11	306.74	0.56	-51.5	-69.3	3.5	3.04e+01	0	41	104	930611200	60	112196
2026-01-21 21:04:50.12	306.64	0.51	-51.5	-69.3	3.5	3.04e+01	0	41	104	930611200	60	112798
2026-01-21 21:04:51.13	306.55	0.46	-51.4	-69.3	3.5	3.04e+01	0	41	104	930611200	60	111986
2026-01-21 21:04:52.14	306.45	0.42	-51.5	-69.3	3.5	3.04e+01	0	41	104	930611200	60	112068
2026-01-21 21:04:53.15	306.35	0.37	-51.5	-69.3	3.5	3.04e+01	0	41	104	930611200	60	112537
2026-01-21 21:04:54.16	306.26	0.32	-51.5	-69.3	3.5	3.04e+01	0	41	104	930611200	60	112025
2026-01-21 21:04:55.17	306.16	0.27	-51.4	-69.2	3.5	3.04e+01	0	41	104	930611200	60	111364
2026-01-21 21:04:56.18	306.07	0.23	-51.5	-69.3	3.5	3.04e+01	0	41	104	930611200	60	112072
2026-01-21 21:04:57.19	305.97	0.18	-51.5	-69.3	3.5	3.04e+01	0	41	104	930611200	60	111938
2026-01-21 21:04:58.20	305.88	0.13	-51.4	-69.2	3.5	3.04e+01	0	41	104	930611200	60	110799
2026-01-21 21:04:59.22	305.78	0.09	-51.4	-69.3	3.5	3.04e+01	0	41	104	930611200	60	111725
2026-01-21 21:05:00.23	305.69	0.04	-51.5	-69.3	3.5	3.04e+01	0	41	104	930611200	60	112487
2026-01-21 21:05:01.24	305.60	-0.01	-51.5	-69.3	3.5	3.04e+01	0	41	104	930611200	60	112652
2026-01-21 21:05:02.25	305.50	-0.06	-51.5	-69.3	3.5	3.04e+01	0	41	104	930611200	60	112055

#Closed at: 2026-01-21 21:05:02
#Recorded file [930 MB]: D:/lorett/data/35029_260122_085436.dat