passes_logs/2026/01/21/R4.6S_Anadyr/R4.6S_Anadyr__20260121_143208_SUOMI_NPP_rec.log

#Pass ID: 20260121_143208_SUOMI NPP
#Satellite: SUOMI NPP
#Configuration: NPP
#almurnet v.1.7.20251203
#Start time: 2026-01-21 14:32:09

#Version: 2.2.20231116
#Station: R4.6S_Anadyr
#Location: 177.4865 lon 64.73178 lat
#TLE: 1 37849U 11061A   26020.95430537  .00000198  00000+0  11470-3 0  9999
#TLE: 2 37849  98.7819 322.9518 0002315  53.3069 306.8320 14.19527555737555

#Time	Az	El	Level	Level2	SNR	BER	BlckErr	Temp	State	Recorded	gain1	gain2
2026-01-21 14:32:09.35	20.06	0.08	-51.4	-63.9	3.4	1.52e+00	0	38	0	0	60	55241
2026-01-21 14:32:10.36	20.07	0.14	-51.7	-66.9	3.6	1.51e+00	0	39	104	0	60	80369
2026-01-21 14:32:11.37	20.08	0.20	-51.6	-66.8	3.6	1.51e+00	0	40	104	0	60	79306
2026-01-21 14:32:12.38	20.09	0.26	-51.5	-66.8	3.6	1.51e+00	0	40	104	0	60	78999
2026-01-21 14:32:13.39	20.11	0.32	-51.5	-66.8	3.6	1.51e+00	0	40	104	0	60	78881
2026-01-21 14:32:14.40	20.12	0.38	-51.5	-66.8	3.6	1.51e+00	0	40	104	0	60	78717
2026-01-21 14:32:15.41	20.13	0.44	-51.5	-66.7	3.6	1.51e+00	0	40	104	0	60	78122
2026-01-21 14:32:16.42	20.15	0.51	-51.5	-66.7	3.6	1.51e+00	0	40	104	0	60	78011
2026-01-21 14:32:17.43	20.16	0.57	-51.5	-66.7	3.6	1.51e+00	0	40	104	0	60	77995
2026-01-21 14:32:18.44	20.17	0.63	-51.7	-66.9	3.6	1.51e+00	0	40	104	0	60	79702
2026-01-21 14:32:19.45	20.18	0.69	-51.5	-66.7	3.6	1.51e+00	0	40	104	0	60	78595
2026-01-21 14:32:20.46	20.20	0.75	-51.4	-66.6	3.6	1.51e+00	0	40	104	0	60	77400
2026-01-21 14:32:21.47	20.21	0.81	-51.3	-66.6	3.6	1.51e+00	0	40	104	0	60	76882
2026-01-21 14:32:22.47	20.22	0.87	-51.3	-66.5	3.6	1.51e+00	0	40	104	0	60	76100
2026-01-21 14:32:23.48	20.23	0.93	-51.2	-66.4	3.6	1.51e+00	0	40	104	0	60	75433
2026-01-21 14:32:24.49	20.25	1.00	-51.1	-66.3	3.6	1.51e+00	0	40	104	0	60	74804
2026-01-21 14:32:25.50	20.26	1.06	-51.0	-66.2	3.6	1.51e+00	0	40	104	0	60	73820
2026-01-21 14:32:26.51	20.27	1.12	-50.9	-66.1	3.6	1.51e+00	0	40	104	0	60	72612
2026-01-21 14:32:27.52	20.29	1.18	-50.8	-66.0	3.6	1.51e+00	0	40	104	0	60	72228
2026-01-21 14:32:28.53	20.30	1.24	-50.6	-65.9	3.6	1.51e+00	0	40	104	0	60	71195
2026-01-21 14:32:29.54	20.31	1.31	-50.5	-65.8	3.6	1.51e+00	0	40	104	0	60	70190
2026-01-21 14:32:30.55	20.33	1.37	-50.4	-65.6	3.6	1.51e+00	0	40	104	0	60	69147
2026-01-21 14:32:31.56	20.34	1.43	-50.2	-65.4	3.6	1.51e+00	0	40	104	0	60	67512
2026-01-21 14:32:32.58	20.35	1.50	-50.0	-65.2	3.6	1.51e+00	0	40	104	0	60	65794
2026-01-21 14:32:33.59	20.37	1.56	-49.7	-64.9	3.6	1.51e+00	0	40	104	0	60	63666
2026-01-21 14:32:34.60	20.38	1.62	-49.7	-64.8	3.6	1.51e+00	0	40	104	0	60	62707
2026-01-21 14:32:35.61	20.39	1.69	-49.7	-64.9	3.6	1.51e+00	0	40	104	0	60	63481
2026-01-21 14:32:36.62	20.41	1.75	-49.7	-64.8	3.6	1.51e+00	0	40	104	0	60	63157
2026-01-21 14:32:37.63	20.42	1.81	-49.7	-64.9	3.6	1.51e+00	0	40	104	0	60	63763
2026-01-21 14:32:38.64	20.43	1.88	-49.7	-64.9	3.6	1.51e+00	0	40	104	0	60	63357
2026-01-21 14:32:39.65	20.45	1.94	-49.7	-64.9	3.6	1.51e+00	0	40	104	0	60	63797
2026-01-21 14:32:40.66	20.46	2.00	-49.7	-64.9	3.6	1.51e+00	0	40	104	0	60	63281
2026-01-21 14:32:41.66	20.47	2.07	-49.7	-64.9	3.6	1.51e+00	0	40	104	0	60	63778
2026-01-21 14:32:42.67	20.49	2.13	-49.7	-64.9	3.6	1.51e+00	0	40	104	0	60	63530
2026-01-21 14:32:43.68	20.50	2.20	-49.7	-64.8	3.6	1.51e+00	0	40	104	0	60	62707
2026-01-21 14:32:44.69	20.51	2.26	-49.7	-64.3	3.6	1.51e+00	0	40	104	0	60	59312
2026-01-21 14:32:45.70	20.53	2.33	-49.7	-64.5	3.6	1.51e+00	0	40	104	0	60	60579
2026-01-21 14:32:46.71	20.54	2.39	-49.6	-63.5	3.6	1.51e+00	0	40	104	0	60	53921
2026-01-21 14:32:47.72	20.55	2.46	-49.6	-63.6	3.6	1.51e+00	0	40	104	0	60	54921
2026-01-21 14:32:48.74	20.57	2.52	-49.6	-63.7	3.5	1.51e+00	0	40	104	0	60	55551
2026-01-21 14:32:49.75	20.58	2.59	-49.6	-63.6	3.6	1.51e+00	0	40	104	0	60	54464
2026-01-21 14:32:50.76	20.60	2.65	-49.6	-63.6	3.6	1.51e+00	0	40	104	0	60	54962
2026-01-21 14:32:51.77	20.61	2.72	-49.6	-63.9	3.6	1.51e+00	0	40	104	0	60	56755
2026-01-21 14:32:52.78	20.62	2.79	-49.6	-62.8	3.6	1.51e+00	0	40	104	0	60	49838
2026-01-21 14:32:53.79	20.64	2.85	-49.5	-61.2	4.1	1.41e+00	0	40	104	0	60	41353
2026-01-21 14:32:54.80	20.65	2.92	-49.4	-59.0	4.3	9.33e-01	0	40	0	1048576	60	32083
2026-01-21 14:32:55.81	20.67	2.98	-48.9	-55.9	7.1	4.24e-01	0	40	0	3145728	60	22538
2026-01-21 14:32:56.82	20.68	3.05	-48.8	-55.5	7.7	9.53e-02	0	40	0	5242880	60	21545
2026-01-21 14:32:57.83	20.69	3.12	-48.5	-54.5	8.7	5.41e-02	0	40	0	7340032	60	19156
2026-01-21 14:32:58.84	20.71	3.18	-48.3	-53.6	9.7	7.79e-03	0	40	0	8388608	60	17344
2026-01-21 14:32:59.85	20.72	3.25	-48.2	-53.4	10.0	4.82e-03	0	40	0	10485760	60	16932
2026-01-21 14:33:00.86	20.74	3.32	-48.2	-53.6	9.8	8.46e-03	0	40	0	12582912	60	17380
2026-01-21 14:33:01.87	20.75	3.38	-48.3	-53.8	9.4	5.72e-03	0	40	0	14680064	60	17803
2026-01-21 14:33:02.88	20.77	3.45	-48.0	-52.9	10.7	3.65e-02	0	40	0	16777216	60	15893
2026-01-21 14:33:03.89	20.78	3.52	-48.6	-54.6	8.8	4.88e-02	0	40	0	17825792	60	19433
2026-01-21 14:33:04.90	20.80	3.59	-48.9	-55.9	7.2	8.22e-02	0	40	0	19922944	60	22428
2026-01-21 14:33:05.91	20.81	3.66	-49.2	-57.6	5.4	1.64e-01	0	40	0	22020096	60	27282
2026-01-21 14:33:06.92	20.82	3.72	-49.4	-58.6	4.4	5.89e-01	0	40	0	24117248	60	30719
2026-01-21 14:33:07.93	20.84	3.79	-46.6	-49.7	14.1	5.80e-03	0	40	0	26214400	60	11082
2026-01-21 14:33:08.94	20.85	3.86	-47.7	-52.3	10.9	0.00e+00	0	40	0	27262976	60	14840
2026-01-21 14:33:09.95	20.87	3.93	-49.7	-63.7	3.6	3.37e-02	0	40	104	29360128	60	55415
2026-01-21 14:33:10.96	20.88	4.00	-45.7	-48.3	15.5	1.27e+00	1	40	104	29360128	60	9449
2026-01-21 14:33:11.97	20.90	4.07	-49.6	-64.6	3.6	2.97e-01	0	40	104	29360128	60	61047
2026-01-21 14:33:12.98	20.91	4.14	-45.5	-48.0	15.8	1.51e+00	0	40	104	29360128	60	9081
2026-01-21 14:33:13.99	20.93	4.21	-45.5	-47.9	16.2	0.00e+00	0	41	0	29360128	60	8926
2026-01-21 14:33:15.00	20.94	4.27	-45.3	-47.5	16.6	0.00e+00	0	40	0	31457280	60	8586
2026-01-21 14:33:16.01	20.96	4.34	-45.6	-48.1	15.9	0.00e+00	0	40	0	33554432	60	9222
2026-01-21 14:33:17.01	20.97	4.41	-44.4	-46.4	17.7	0.00e+00	0	40	0	35651584	60	7531
2026-01-21 14:33:18.02	20.99	4.48	-44.7	-46.8	17.2	0.00e+00	0	40	0	37748736	60	7928
2026-01-21 14:33:19.03	21.00	4.55	-44.6	-46.6	17.5	0.00e+00	0	40	0	38797312	60	7699
2026-01-21 14:33:20.04	21.02	4.62	-44.5	-46.6	17.6	0.00e+00	0	41	0	40894464	60	7691
2026-01-21 14:33:21.05	21.03	4.69	-44.8	-46.8	17.4	0.00e+00	0	40	0	42991616	60	7938
2026-01-21 14:33:22.06	21.05	4.77	-45.0	-47.1	17.0	0.00e+00	0	40	0	45088768	60	8215
2026-01-21 14:33:23.07	21.06	4.84	-44.9	-47.0	16.9	0.00e+00	0	40	0	47185920	60	8096
2026-01-21 14:33:24.08	21.08	4.91	-45.2	-47.5	16.5	0.00e+00	0	41	0	48234496	60	8582
2026-01-21 14:33:25.09	21.10	4.98	-45.2	-47.4	16.5	0.00e+00	0	40	0	50331648	60	8500
2026-01-21 14:33:26.10	21.11	5.05	-45.0	-47.2	16.9	0.00e+00	0	40	0	52428800	60	8259
2026-01-21 14:33:27.11	21.13	5.12	-45.1	-47.2	16.7	0.00e+00	0	40	0	54525952	60	8303
2026-01-21 14:33:28.12	21.14	5.19	-45.2	-47.4	16.7	0.00e+00	0	40	0	56623104	60	8494
2026-01-21 14:33:29.13	21.16	5.27	-44.7	-46.7	17.4	0.00e+00	0	41	0	57671680	60	7830
2026-01-21 14:33:30.13	21.17	5.34	-44.6	-46.6	17.3	0.00e+00	0	40	0	59768832	60	7771
2026-01-21 14:33:31.14	21.19	5.41	-44.1	-45.9	18.1	0.00e+00	0	41	0	61865984	60	7098
2026-01-21 14:33:32.15	21.21	5.48	-43.9	-45.6	18.5	0.00e+00	0	40	0	63963136	60	6884
2026-01-21 14:33:33.16	21.22	5.56	-44.0	-45.7	18.2	0.00e+00	0	40	0	66060288	60	6996
2026-01-21 14:33:34.17	21.24	5.63	-43.9	-45.6	18.7	0.00e+00	0	40	0	67108864	60	6922
2026-01-21 14:33:35.18	21.25	5.70	-43.6	-45.2	18.8	0.00e+00	0	40	0	69206016	60	6570
2026-01-21 14:33:36.19	21.27	5.78	-43.5	-45.1	19.1	0.00e+00	0	40	0	71303168	60	6516
2026-01-21 14:33:37.20	21.29	5.85	-43.6	-45.3	18.8	0.00e+00	0	40	0	73400320	60	6634
2026-01-21 14:33:38.21	21.30	5.92	-43.3	-44.8	19.2	0.00e+00	0	41	0	75497472	60	6297
2026-01-21 14:33:39.22	21.32	6.00	-43.5	-45.1	19.0	0.00e+00	0	40	0	76546048	60	6492
2026-01-21 14:33:40.23	21.33	6.07	-43.3	-44.8	19.3	0.00e+00	0	40	0	78643200	60	6291
2026-01-21 14:33:41.24	21.35	6.15	-43.2	-44.8	19.4	0.00e+00	0	41	0	80740352	60	6247
2026-01-21 14:33:42.25	21.37	6.22	-43.1	-44.6	19.5	0.00e+00	0	41	0	82837504	60	6172
2026-01-21 14:33:43.26	21.38	6.30	-43.2	-44.7	19.3	0.00e+00	0	41	0	84934656	60	6244
2026-01-21 14:33:44.27	21.40	6.37	-43.3	-44.8	19.4	0.00e+00	0	41	0	85983232	60	6279
2026-01-21 14:33:45.28	21.42	6.45	-43.1	-44.5	19.5	0.00e+00	0	40	0	88080384	60	6101
2026-01-21 14:33:46.28	21.43	6.52	-43.0	-44.5	19.7	0.00e+00	0	41	0	90177536	60	6079
2026-01-21 14:33:47.29	21.45	6.60	-43.1	-44.5	19.6	0.00e+00	0	41	0	92274688	60	6087
2026-01-21 14:33:48.30	21.47	6.67	-43.1	-44.6	19.5	0.00e+00	0	41	0	94371840	60	6163
2026-01-21 14:33:49.31	21.48	6.75	-42.9	-44.4	19.7	0.00e+00	0	41	0	95420416	60	5995
2026-01-21 14:33:50.32	21.50	6.83	-43.1	-44.5	19.7	0.00e+00	0	40	0	97517568	60	6082
2026-01-21 14:33:51.33	21.52	6.90	-42.9	-44.3	19.9	0.00e+00	0	40	0	99614720	60	5957
2026-01-21 14:33:52.34	21.53	6.98	-43.1	-44.6	19.6	0.00e+00	0	41	0	101711872	60	6123
2026-01-21 14:33:53.35	21.55	7.06	-42.9	-44.4	19.8	0.00e+00	0	41	0	103809024	60	5970
2026-01-21 14:33:54.36	21.57	7.13	-42.7	-44.1	19.9	0.00e+00	0	41	0	104857600	58	6496
2026-01-21 14:33:55.37	21.59	7.21	-42.7	-44.1	20.1	0.00e+00	0	41	0	106954752	58	6469
2026-01-21 14:33:56.38	21.60	7.29	-42.6	-44.0	20.1	0.00e+00	0	41	0	109051904	58	6414
2026-01-21 14:33:57.39	21.62	7.37	-42.8	-44.2	19.9	0.00e+00	0	41	0	111149056	58	6579
2026-01-21 14:33:58.40	21.64	7.45	-42.7	-44.1	19.9	0.00e+00	0	41	0	113246208	58	6491
2026-01-21 14:33:59.41	21.66	7.53	-42.5	-43.8	20.2	0.00e+00	0	41	0	114294784	58	6303
2026-01-21 14:34:00.42	21.67	7.60	-42.5	-43.9	20.3	0.00e+00	0	41	0	116391936	58	6319
2026-01-21 14:34:01.43	21.69	7.68	-42.5	-43.8	20.2	0.00e+00	0	41	0	118489088	58	6299
2026-01-21 14:34:02.44	21.71	7.76	-42.4	-43.7	20.4	0.00e+00	0	41	0	120586240	58	6187
2026-01-21 14:34:03.45	21.73	7.84	-42.4	-43.7	20.4	0.00e+00	0	41	0	122683392	58	6218
2026-01-21 14:34:04.46	21.74	7.92	-42.5	-43.8	20.4	0.00e+00	0	41	0	123731968	58	6283
2026-01-21 14:34:05.47	21.76	8.00	-42.4	-43.7	20.5	0.00e+00	0	41	0	125829120	58	6187
2026-01-21 14:34:06.48	21.78	8.08	-42.3	-43.6	20.5	0.00e+00	0	41	0	127926272	58	6158
2026-01-21 14:34:07.49	21.80	8.16	-42.2	-43.5	20.6	0.00e+00	0	41	0	130023424	58	6072
2026-01-21 14:34:08.50	21.82	8.24	-42.1	-43.4	20.7	0.00e+00	0	41	0	132120576	58	5992
2026-01-21 14:34:09.51	21.84	8.33	-42.2	-43.4	20.7	0.00e+00	0	41	0	134217728	58	6013
2026-01-21 14:34:10.52	21.85	8.41	-42.1	-43.3	20.8	0.00e+00	0	41	0	135266304	58	5944
2026-01-21 14:34:11.52	21.87	8.49	-42.2	-43.4	20.7	0.00e+00	0	41	0	137363456	58	6009
2026-01-21 14:34:12.53	21.89	8.57	-42.2	-43.4	20.7	0.00e+00	0	41	0	139460608	58	6016
2026-01-21 14:34:13.54	21.91	8.65	-42.4	-43.7	20.6	0.00e+00	0	41	0	141557760	58	6180
2026-01-21 14:34:14.55	21.93	8.73	-42.2	-43.4	20.8	0.00e+00	0	41	0	143654912	58	6029
2026-01-21 14:34:15.56	21.95	8.82	-42.2	-43.4	20.8	0.00e+00	0	41	0	144703488	58	6021
2026-01-21 14:34:16.57	21.97	8.90	-42.2	-43.5	20.7	0.00e+00	0	41	0	146800640	58	6044
2026-01-21 14:34:17.58	21.98	8.98	-42.2	-43.5	20.8	0.00e+00	0	41	0	148897792	58	6069
2026-01-21 14:34:18.59	22.00	9.07	-42.2	-43.4	20.8	0.00e+00	0	41	0	150994944	58	6011
2026-01-21 14:34:19.60	22.02	9.15	-42.0	-43.2	21.0	0.00e+00	0	41	0	153092096	58	5893
2026-01-21 14:34:20.61	22.04	9.23	-41.9	-43.1	21.1	0.00e+00	0	41	0	154140672	56	6485
2026-01-21 14:34:21.62	22.06	9.32	-42.1	-43.3	20.9	0.00e+00	0	41	0	156237824	56	6663
2026-01-21 14:34:22.63	22.08	9.40	-41.9	-43.1	21.1	0.00e+00	0	41	0	158334976	56	6507
2026-01-21 14:34:23.64	22.10	9.49	-41.8	-43.0	21.2	0.00e+00	0	41	0	160432128	56	6403
2026-01-21 14:34:24.65	22.12	9.57	-42.0	-43.2	21.1	0.00e+00	0	41	0	162529280	56	6589
2026-01-21 14:34:25.66	22.14	9.66	-41.9	-43.1	21.2	0.00e+00	0	41	0	163577856	56	6479
2026-01-21 14:34:26.67	22.16	9.75	-41.8	-43.0	21.2	0.00e+00	0	41	0	165675008	56	6426
2026-01-21 14:34:27.68	22.18	9.83	-41.8	-43.0	21.3	0.00e+00	0	41	0	167772160	56	6416
2026-01-21 14:34:28.69	22.20	9.92	-41.7	-42.8	21.4	0.00e+00	0	41	0	169869312	56	6312
2026-01-21 14:34:29.70	22.22	10.00	-41.7	-42.9	21.3	0.00e+00	0	41	0	171966464	56	6346
2026-01-21 14:34:30.70	22.24	10.09	-41.7	-42.9	21.5	0.00e+00	0	41	0	173015040	56	6324
2026-01-21 14:34:31.71	22.26	10.18	-41.4	-42.5	21.6	0.00e+00	0	41	0	175112192	56	6062
2026-01-21 14:34:32.72	22.28	10.27	-41.7	-42.8	21.4	0.00e+00	0	41	0	177209344	56	6295
2026-01-21 14:34:33.73	22.30	10.35	-41.5	-42.6	21.6	0.00e+00	0	41	0	179306496	56	6153
2026-01-21 14:34:34.74	22.32	10.44	-41.4	-42.5	21.7	0.00e+00	0	41	0	181403648	56	6079
2026-01-21 14:34:35.75	22.34	10.53	-41.5	-42.7	21.6	0.00e+00	0	41	0	182452224	56	6177
2026-01-21 14:34:36.76	22.36	10.62	-41.2	-42.3	21.9	0.00e+00	0	41	0	184549376	56	5906
2026-01-21 14:34:37.77	22.38	10.71	-41.2	-42.2	21.9	0.00e+00	0	41	0	186646528	56	5889
2026-01-21 14:34:38.78	22.40	10.80	-41.3	-42.3	21.9	0.00e+00	0	41	0	188743680	56	5956
2026-01-21 14:34:39.79	22.42	10.89	-41.2	-42.3	21.9	0.00e+00	0	41	0	190840832	56	5920
2026-01-21 14:34:40.80	22.44	10.98	-41.1	-42.1	22.0	0.00e+00	0	41	0	191889408	56	5800
2026-01-21 14:34:41.81	22.47	11.07	-41.2	-42.3	21.9	0.00e+00	0	41	0	193986560	56	5908
2026-01-21 14:34:42.81	22.49	11.16	-41.1	-42.1	22.0	0.00e+00	0	41	0	196083712	56	5820
2026-01-21 14:34:43.82	22.51	11.25	-41.0	-42.0	22.2	0.00e+00	0	41	0	198180864	56	5739
2026-01-21 14:34:44.83	22.53	11.34	-41.1	-42.1	22.0	0.00e+00	0	41	0	200278016	56	5820
2026-01-21 14:34:45.84	22.55	11.43	-41.0	-42.0	22.2	0.00e+00	0	41	0	202375168	56	5749
2026-01-21 14:34:46.85	22.57	11.53	-40.9	-41.9	22.2	0.00e+00	0	41	0	203423744	56	5658
2026-01-21 14:34:47.86	22.59	11.62	-40.8	-41.9	22.2	0.00e+00	0	41	0	205520896	54	6334
2026-01-21 14:34:48.87	22.62	11.71	-40.8	-41.8	22.3	0.00e+00	0	41	0	207618048	54	6304
2026-01-21 14:34:49.88	22.64	11.80	-40.6	-41.6	22.4	0.00e+00	0	41	0	209715200	54	6146
2026-01-21 14:34:50.89	22.66	11.90	-40.7	-41.7	22.4	0.00e+00	0	41	0	211812352	54	6201
2026-01-21 14:34:51.90	22.68	11.99	-40.8	-41.9	22.2	0.00e+00	0	41	0	212860928	54	6327
2026-01-21 14:34:52.91	22.70	12.09	-40.8	-41.9	22.1	0.00e+00	0	41	0	214958080	54	6333
2026-01-21 14:34:53.92	22.73	12.18	-40.5	-41.5	22.5	0.00e+00	0	41	0	217055232	54	6087
2026-01-21 14:34:54.93	22.75	12.28	-40.6	-41.6	22.4	0.00e+00	0	41	0	219152384	54	6150
2026-01-21 14:34:55.94	22.77	12.37	-40.7	-41.7	22.4	0.00e+00	0	41	0	221249536	54	6187
2026-01-21 14:34:56.95	22.79	12.47	-40.7	-41.7	22.4	0.00e+00	0	41	0	222298112	54	6234
2026-01-21 14:34:57.96	22.82	12.56	-40.6	-41.6	22.4	0.00e+00	0	41	0	224395264	54	6135
2026-01-21 14:34:58.97	22.84	12.66	-40.6	-41.6	22.4	0.00e+00	0	41	0	226492416	54	6158
2026-01-21 14:34:59.98	22.86	12.76	-40.6	-41.6	22.4	0.00e+00	0	41	0	228589568	54	6147
2026-01-21 14:35:00.99	22.89	12.86	-40.7	-41.7	22.3	0.00e+00	0	41	0	230686720	54	6242
2026-01-21 14:35:02.00	22.91	12.95	-40.7	-41.7	22.4	0.00e+00	0	41	0	231735296	54	6202
2026-01-21 14:35:03.00	22.93	13.05	-40.7	-41.7	22.5	0.00e+00	0	41	0	233832448	54	6211
2026-01-21 14:35:04.01	22.96	13.15	-40.7	-41.7	22.4	0.00e+00	0	41	0	235929600	54	6216
2026-01-21 14:35:05.03	22.98	13.25	-40.6	-41.6	22.4	0.00e+00	0	41	0	238026752	54	6127
2026-01-21 14:35:06.04	23.01	13.35	-40.7	-41.7	22.4	0.00e+00	0	41	0	240123904	54	6216
2026-01-21 14:35:07.05	23.03	13.45	-40.6	-41.6	22.4	0.00e+00	0	41	0	241172480	54	6141
2026-01-21 14:35:08.05	23.05	13.55	-40.6	-41.6	22.3	0.00e+00	0	41	0	243269632	54	6163
2026-01-21 14:35:09.06	23.08	13.65	-40.6	-41.6	22.3	0.00e+00	0	41	0	245366784	54	6172
2026-01-21 14:35:10.07	23.10	13.75	-40.8	-41.8	22.1	0.00e+00	0	41	0	247463936	54	6290
2026-01-21 14:35:11.08	23.13	13.85	-40.7	-41.7	22.0	0.00e+00	0	41	0	249561088	54	6219
2026-01-21 14:35:12.09	23.15	13.95	-40.5	-41.5	22.1	0.00e+00	0	41	0	250609664	54	6074
2026-01-21 14:35:13.11	23.18	14.05	-40.4	-41.3	22.4	0.00e+00	0	41	0	252706816	54	5960
2026-01-21 14:35:14.12	23.20	14.16	-40.6	-41.6	22.6	0.00e+00	0	41	0	254803968	54	6129
2026-01-21 14:35:15.12	23.23	14.26	-40.6	-41.6	22.4	0.00e+00	0	41	0	256901120	54	6132
2026-01-21 14:35:16.14	23.25	14.36	-40.6	-41.7	22.4	0.00e+00	0	41	0	258998272	54	6180
2026-01-21 14:35:17.14	23.28	14.47	-40.6	-41.6	22.4	0.00e+00	0	41	0	260046848	54	6162
2026-01-21 14:35:18.15	23.30	14.57	-40.6	-41.6	22.4	0.00e+00	0	41	0	262144000	54	6158
2026-01-21 14:35:19.16	23.33	14.68	-40.6	-41.6	22.5	0.00e+00	0	41	0	264241152	54	6120
2026-01-21 14:35:20.17	23.35	14.78	-40.6	-41.6	22.5	0.00e+00	0	41	0	266338304	54	6134
2026-01-21 14:35:21.18	23.38	14.89	-40.8	-41.8	22.4	0.00e+00	0	41	0	268435456	54	6270
2026-01-21 14:35:22.20	23.41	14.99	-40.7	-41.7	22.5	0.00e+00	0	41	0	270532608	54	6222
2026-01-21 14:35:23.20	23.43	15.10	-40.6	-41.6	22.4	0.00e+00	0	41	0	271581184	54	6107
2026-01-21 14:35:24.22	23.46	15.21	-40.6	-41.6	22.6	0.00e+00	0	41	0	273678336	54	6163
2026-01-21 14:35:25.23	23.49	15.32	-40.6	-41.6	22.6	0.00e+00	0	41	0	275775488	54	6123
2026-01-21 14:35:26.23	23.51	15.42	-40.5	-41.5	22.7	0.00e+00	0	41	0	277872640	54	6080
2026-01-21 14:35:27.24	23.54	15.53	-40.7	-41.7	22.5	0.00e+00	0	41	0	279969792	54	6199
2026-01-21 14:35:28.25	23.57	15.64	-40.9	-42.0	22.3	0.00e+00	0	41	0	281018368	54	6405
2026-01-21 14:35:29.26	23.59	15.75	-40.8	-41.8	22.4	0.00e+00	0	41	0	283115520	54	6256
2026-01-21 14:35:30.27	23.62	15.86	-40.8	-41.8	22.4	0.00e+00	0	41	0	285212672	54	6287
2026-01-21 14:35:31.28	23.65	15.97	-41.0	-42.0	22.2	0.00e+00	0	41	0	287309824	54	6420
2026-01-21 14:35:32.29	23.68	16.08	-40.9	-42.0	22.3	0.00e+00	0	41	0	289406976	54	6403
2026-01-21 14:35:33.30	23.71	16.19	-41.0	-42.0	22.3	0.00e+00	0	41	0	290455552	54	6419
2026-01-21 14:35:34.31	23.73	16.31	-41.2	-42.3	22.1	0.00e+00	0	41	0	292552704	54	6643
2026-01-21 14:35:35.32	23.76	16.42	-41.3	-42.4	22.0	0.00e+00	0	41	0	294649856	54	6716
2026-01-21 14:35:36.33	23.79	16.53	-41.2	-42.2	22.1	0.00e+00	0	41	0	296747008	54	6615
2026-01-21 14:35:37.34	23.82	16.65	-41.3	-42.3	22.1	0.00e+00	0	41	0	298844160	54	6672
2026-01-21 14:35:38.35	23.85	16.76	-41.3	-42.3	22.1	0.00e+00	0	41	0	299892736	54	6690
2026-01-21 14:35:39.36	23.88	16.87	-41.4	-42.5	21.9	0.00e+00	0	41	0	301989888	54	6773
2026-01-21 14:35:40.37	23.91	16.99	-41.3	-42.4	22.0	0.00e+00	0	41	0	304087040	54	6748
2026-01-21 14:35:41.38	23.94	17.10	-41.5	-42.6	21.8	0.00e+00	0	41	0	306184192	54	6885
2026-01-21 14:35:42.39	23.97	17.22	-41.4	-42.5	22.0	0.00e+00	0	41	0	308281344	54	6799
2026-01-21 14:35:43.40	24.00	17.34	-41.6	-42.7	21.7	0.00e+00	0	41	0	309329920	54	6980
2026-01-21 14:35:44.41	24.03	17.46	-41.8	-43.0	21.6	0.00e+00	0	41	0	311427072	56	6405
2026-01-21 14:35:45.42	24.06	17.57	-41.8	-42.9	21.5	0.00e+00	0	41	0	313524224	56	6388
2026-01-21 14:35:46.43	24.09	17.69	-41.7	-42.8	21.8	0.00e+00	0	41	0	315621376	56	6299
2026-01-21 14:35:47.43	24.12	17.81	-41.8	-42.9	21.7	0.00e+00	0	41	0	317718528	56	6382
2026-01-21 14:35:48.45	24.15	17.93	-41.9	-43.1	21.4	0.00e+00	0	41	0	318767104	56	6493
2026-01-21 14:35:49.45	24.18	18.05	-41.9	-43.0	21.5	0.00e+00	0	41	0	320864256	56	6452
2026-01-21 14:35:50.47	24.21	18.17	-42.0	-43.1	21.4	0.00e+00	0	41	0	322961408	56	6523
2026-01-21 14:35:51.47	24.24	18.29	-42.1	-43.2	21.5	0.00e+00	0	41	0	325058560	56	6598
2026-01-21 14:35:52.48	24.27	18.41	-41.8	-43.0	21.5	0.00e+00	0	41	0	327155712	56	6411
2026-01-21 14:35:53.49	24.31	18.54	-42.1	-43.3	21.5	0.00e+00	0	41	0	328204288	56	6639
2026-01-21 14:35:54.50	24.34	18.66	-42.1	-43.3	21.3	0.00e+00	0	41	0	330301440	56	6669
2026-01-21 14:35:55.51	24.37	18.78	-42.3	-43.5	21.2	0.00e+00	0	41	0	332398592	56	6847
2026-01-21 14:35:56.52	24.40	18.91	-42.7	-44.0	20.8	0.00e+00	0	41	0	334495744	56	7237
2026-01-21 14:35:57.53	24.44	19.03	-42.6	-43.8	20.8	0.00e+00	0	41	0	336592896	56	7060
2026-01-21 14:35:58.54	24.47	19.16	-42.7	-43.9	20.8	0.00e+00	0	41	0	338690048	56	7158
2026-01-21 14:35:59.55	24.50	19.29	-42.4	-43.6	21.1	0.00e+00	0	41	0	339738624	56	6865
2026-01-21 14:36:00.56	24.54	19.41	-42.5	-43.8	20.9	0.00e+00	0	41	0	341835776	56	7018
2026-01-21 14:36:01.56	24.57	19.54	-42.5	-43.8	21.0	0.00e+00	0	41	0	343932928	56	7008
2026-01-21 14:36:02.57	24.60	19.67	-42.8	-44.0	20.8	0.00e+00	0	41	0	346030080	56	7253
2026-01-21 14:36:03.58	24.64	19.80	-42.4	-43.6	21.1	0.00e+00	0	41	0	348127232	58	6144
2026-01-21 14:36:04.59	24.67	19.93	-42.6	-43.8	20.8	0.00e+00	0	41	0	349175808	58	6306
2026-01-21 14:36:05.60	24.71	20.06	-42.3	-43.6	21.1	0.00e+00	0	41	0	351272960	58	6113
2026-01-21 14:36:06.61	24.74	20.19	-42.4	-43.6	21.0	0.00e+00	0	41	0	353370112	58	6140
2026-01-21 14:36:07.62	24.78	20.32	-42.2	-43.5	21.2	0.00e+00	0	41	0	355467264	58	6039
2026-01-21 14:36:08.63	24.81	20.45	-42.2	-43.4	21.4	0.00e+00	0	41	0	357564416	58	5972
2026-01-21 14:36:09.64	24.85	20.58	-42.2	-43.4	21.2	0.00e+00	0	41	0	358612992	58	5967
2026-01-21 14:36:10.65	24.89	20.72	-42.2	-43.4	21.3	0.00e+00	0	41	0	360710144	58	5989
2026-01-21 14:36:11.66	24.92	20.85	-42.2	-43.4	21.2	0.00e+00	0	41	0	362807296	58	6024
2026-01-21 14:36:12.67	24.96	20.99	-42.1	-43.2	21.4	0.00e+00	0	41	0	364904448	58	5895
2026-01-21 14:36:13.68	25.00	21.12	-42.1	-43.3	21.4	0.00e+00	0	41	0	367001600	58	5925
2026-01-21 14:36:14.69	25.03	21.26	-42.0	-43.2	21.5	0.00e+00	0	41	0	368050176	58	5833
2026-01-21 14:36:15.70	25.07	21.40	-42.3	-43.5	21.2	0.00e+00	0	41	0	370147328	58	6051
2026-01-21 14:36:16.71	25.11	21.54	-42.1	-43.3	21.3	0.00e+00	0	41	0	372244480	58	5928
2026-01-21 14:36:17.72	25.15	21.67	-42.2	-43.3	21.3	0.00e+00	0	41	0	374341632	58	5956
2026-01-21 14:36:18.73	25.19	21.81	-42.0	-43.2	21.5	0.00e+00	0	41	0	376438784	58	5858
2026-01-21 14:36:19.74	25.22	21.95	-41.9	-43.0	21.6	0.00e+00	0	41	0	377487360	58	5753
2026-01-21 14:36:20.75	25.26	22.10	-42.0	-43.1	21.3	0.00e+00	0	41	0	379584512	58	5818
2026-01-21 14:36:21.76	25.30	22.24	-42.1	-43.3	21.4	0.00e+00	0	41	0	381681664	56	6625
2026-01-21 14:36:22.77	25.34	22.38	-41.8	-42.9	21.7	0.00e+00	0	41	0	383778816	56	6340
2026-01-21 14:36:23.78	25.38	22.52	-42.0	-43.1	21.6	0.00e+00	0	41	0	385875968	56	6537
2026-01-21 14:36:24.76	25.42	22.66	-42.0	-43.1	21.6	0.00e+00	0	41	0	386924544	56	6521
2026-01-21 14:36:25.77	25.46	22.81	-41.8	-42.9	21.8	0.00e+00	0	41	0	389021696	56	6366
2026-01-21 14:36:26.78	25.50	22.96	-42.0	-43.2	21.7	0.00e+00	0	41	0	391118848	56	6549
2026-01-21 14:36:27.79	25.54	23.10	-42.0	-43.1	21.6	0.00e+00	0	41	0	393216000	56	6519
2026-01-21 14:36:28.79	25.59	23.25	-41.8	-43.0	21.7	0.00e+00	0	41	0	395313152	56	6438
2026-01-21 14:36:29.80	25.63	23.40	-42.0	-43.2	21.5	0.00e+00	0	41	0	396361728	56	6567
2026-01-21 14:36:30.81	25.67	23.55	-42.3	-43.5	21.2	0.00e+00	0	41	0	398458880	56	6810
2026-01-21 14:36:31.82	25.71	23.70	-42.1	-43.3	21.4	0.00e+00	0	41	0	400556032	56	6648
2026-01-21 14:36:32.83	25.76	23.85	-42.2	-43.4	21.5	0.00e+00	0	41	0	402653184	56	6704
2026-01-21 14:36:33.84	25.80	24.00	-42.2	-43.5	21.2	0.00e+00	0	41	0	404750336	56	6786
2026-01-21 14:36:34.85	25.84	24.15	-42.2	-43.4	21.3	0.00e+00	0	41	0	406847488	56	6768
2026-01-21 14:36:35.86	25.89	24.30	-42.4	-43.6	21.3	0.00e+00	0	41	0	407896064	56	6915
2026-01-21 14:36:36.87	25.93	24.46	-42.1	-43.3	21.4	0.00e+00	0	41	0	409993216	56	6624
2026-01-21 14:36:37.88	25.98	24.61	-41.9	-43.1	21.6	0.00e+00	0	41	0	412090368	56	6490
2026-01-21 14:36:38.89	26.02	24.77	-41.5	-42.6	21.9	0.00e+00	0	41	0	414187520	56	6146
2026-01-21 14:36:39.90	26.07	24.93	-41.5	-42.6	21.9	0.00e+00	0	41	0	416284672	56	6155
2026-01-21 14:36:40.91	26.12	25.09	-41.7	-42.9	21.8	0.00e+00	0	41	0	417333248	56	6335
2026-01-21 14:36:41.92	26.16	25.25	-41.7	-42.8	21.8	0.00e+00	0	41	0	419430400	56	6286
2026-01-21 14:36:42.93	26.21	25.41	-42.0	-43.2	21.7	0.00e+00	0	41	0	421527552	56	6547
2026-01-21 14:36:43.94	26.26	25.57	-41.7	-42.8	21.9	0.00e+00	0	41	0	423624704	56	6248
2026-01-21 14:36:44.95	26.31	25.73	-41.7	-42.7	21.9	0.00e+00	0	41	0	425721856	56	6241
2026-01-21 14:36:45.96	26.36	25.89	-41.5	-42.6	22.0	0.00e+00	0	41	0	426770432	56	6133
2026-01-21 14:36:46.97	26.41	26.06	-41.8	-42.9	21.9	0.00e+00	0	41	0	428867584	56	6328
2026-01-21 14:36:47.98	26.45	26.22	-41.9	-43.0	21.8	0.00e+00	0	41	0	430964736	56	6411
2026-01-21 14:36:48.99	26.50	26.39	-41.9	-43.0	21.7	0.00e+00	0	41	0	433061888	56	6445
2026-01-21 14:36:50.00	26.56	26.55	-41.7	-42.8	21.9	0.00e+00	0	41	0	435159040	56	6251
2026-01-21 14:36:51.01	26.61	26.72	-41.8	-42.8	21.9	0.00e+00	0	41	0	436207616	56	6316
2026-01-21 14:36:52.02	26.66	26.89	-41.7	-42.8	21.9	0.00e+00	0	41	0	438304768	56	6256
2026-01-21 14:36:53.02	26.71	27.06	-41.5	-42.5	22.2	0.00e+00	0	41	0	440401920	56	6044
2026-01-21 14:36:54.04	26.76	27.23	-41.5	-42.5	22.2	0.00e+00	0	41	0	442499072	56	6073
2026-01-21 14:36:55.05	26.82	27.40	-41.4	-42.4	22.2	0.00e+00	0	41	0	444596224	56	6013
2026-01-21 14:36:56.05	26.87	27.57	-41.7	-42.8	22.1	0.00e+00	0	41	0	445644800	56	6249
2026-01-21 14:36:57.06	26.92	27.75	-41.5	-42.6	22.2	0.00e+00	0	41	0	447741952	56	6104
2026-01-21 14:36:58.07	26.98	27.92	-41.7	-42.7	22.1	0.00e+00	0	41	0	449839104	56	6203
2026-01-21 14:36:59.08	27.03	28.10	-41.7	-42.8	21.8	0.00e+00	0	41	0	451936256	56	6265
2026-01-21 14:37:00.09	27.09	28.28	-41.5	-42.5	22.1	0.00e+00	0	41	0	454033408	56	6080
2026-01-21 14:37:01.10	27.14	28.46	-41.6	-42.6	22.0	0.00e+00	0	41	0	455081984	56	6129
2026-01-21 14:37:02.11	27.20	28.64	-41.3	-42.3	22.5	0.00e+00	0	41	0	457179136	56	5956
2026-01-21 14:37:03.12	27.26	28.82	-41.4	-42.4	22.3	0.00e+00	0	41	0	459276288	56	5987
2026-01-21 14:37:04.13	27.32	29.00	-41.1	-42.1	22.5	0.00e+00	0	41	0	461373440	56	5813
2026-01-21 14:37:05.14	27.38	29.18	-41.4	-42.4	22.1	0.00e+00	0	41	0	463470592	56	5984
2026-01-21 14:37:06.15	27.44	29.37	-41.4	-42.4	22.4	0.00e+00	0	41	0	464519168	56	6021
2026-01-21 14:37:07.15	27.49	29.55	-41.3	-42.3	22.5	0.00e+00	0	41	0	466616320	56	5919
2026-01-21 14:37:08.16	27.56	29.74	-41.4	-42.5	22.3	0.00e+00	0	41	0	468713472	56	6038
2026-01-21 14:37:09.17	27.62	29.93	-41.6	-42.6	22.2	0.00e+00	0	41	0	470810624	56	6144
2026-01-21 14:37:10.18	27.68	30.11	-41.9	-43.0	21.8	0.00e+00	0	41	0	472907776	56	6443
2026-01-21 14:37:11.19	27.74	30.31	-42.2	-43.4	21.6	0.00e+00	0	41	0	475004928	56	6713
2026-01-21 14:37:12.20	27.80	30.50	-41.7	-42.8	21.8	0.00e+00	0	41	0	476053504	56	6263
2026-01-21 14:37:13.21	27.87	30.69	-42.3	-43.5	21.3	0.00e+00	0	41	0	478150656	56	6793
2026-01-21 14:37:14.22	27.93	30.88	-42.1	-43.2	21.6	0.00e+00	0	41	0	480247808	56	6607
2026-01-21 14:37:15.23	28.00	31.08	-42.4	-43.6	21.2	0.00e+00	0	41	0	482344960	56	6856
2026-01-21 14:37:16.25	28.07	31.28	-42.6	-43.7	21.1	0.00e+00	0	41	0	484442112	56	6998
2026-01-21 14:37:17.25	28.13	31.47	-42.4	-43.5	21.2	0.00e+00	0	41	0	485490688	56	6830
2026-01-21 14:37:18.27	28.20	31.68	-42.9	-44.2	20.6	0.00e+00	0	41	0	487587840	58	6554
2026-01-21 14:37:19.28	28.27	31.88	-43.0	-44.3	20.3	0.00e+00	0	41	0	489684992	58	6675
2026-01-21 14:37:20.29	28.34	32.08	-43.5	-44.9	20.1	0.00e+00	0	41	0	491782144	58	7096
2026-01-21 14:37:21.30	28.41	32.28	-43.8	-45.3	19.9	0.00e+00	0	41	0	493879296	60	6651
2026-01-21 14:37:22.31	28.48	32.49	-43.5	-44.9	20.1	0.00e+00	0	41	0	494927872	60	6359
2026-01-21 14:37:23.32	28.55	32.69	-44.0	-45.5	19.6	0.00e+00	0	41	0	497025024	60	6804
2026-01-21 14:37:24.33	28.62	32.90	-43.7	-45.2	19.9	0.00e+00	0	41	0	499122176	60	6601
2026-01-21 14:37:25.34	28.70	33.11	-44.2	-45.9	19.4	0.00e+00	0	41	0	501219328	60	7145
2026-01-21 14:37:26.35	28.77	33.32	-43.9	-45.5	19.7	0.00e+00	0	41	0	503316480	60	6805
2026-01-21 14:37:27.36	28.85	33.53	-44.1	-45.6	19.7	0.00e+00	0	41	0	504365056	60	6911
2026-01-21 14:37:28.37	28.92	33.74	-44.1	-45.7	19.5	0.00e+00	0	41	0	506462208	60	6997
2026-01-21 14:37:29.38	29.00	33.96	-44.0	-45.5	19.7	0.00e+00	0	41	0	508559360	60	6835
2026-01-21 14:37:30.38	29.08	34.17	-44.0	-45.5	19.6	0.00e+00	0	41	0	510656512	60	6848
2026-01-21 14:37:31.39	29.16	34.39	-43.9	-45.3	19.9	0.00e+00	0	41	0	512753664	60	6682
2026-01-21 14:37:32.40	29.24	34.61	-43.6	-45.0	20.2	0.00e+00	0	41	0	513802240	60	6421
2026-01-21 14:37:33.40	29.32	34.83	-43.3	-44.6	20.8	0.00e+00	0	41	0	515899392	60	6169
2026-01-21 14:37:34.41	29.40	35.05	-42.0	-43.2	21.7	0.00e+00	0	41	0	517996544	58	5842
2026-01-21 14:37:35.42	29.49	35.27	-42.2	-43.4	21.8	0.00e+00	0	41	0	520093696	58	5974
2026-01-21 14:37:36.43	29.57	35.50	-41.9	-43.0	21.8	0.00e+00	0	41	0	522190848	56	6422
2026-01-21 14:37:37.44	29.66	35.73	-41.9	-43.0	21.8	0.00e+00	0	41	0	523239424	56	6437
2026-01-21 14:37:38.44	29.74	35.95	-41.8	-42.8	22.0	0.00e+00	0	41	0	525336576	56	6316
2026-01-21 14:37:39.45	29.83	36.18	-41.5	-42.6	22.2	0.00e+00	0	41	0	527433728	56	6120
2026-01-21 14:37:40.46	29.92	36.41	-41.4	-42.4	22.2	0.00e+00	0	41	0	529530880	56	6004
2026-01-21 14:37:41.47	30.01	36.64	-41.6	-42.6	22.2	0.00e+00	0	41	0	531628032	56	6142
2026-01-21 14:37:42.48	30.10	36.88	-41.7	-42.8	22.0	0.00e+00	0	41	0	532676608	56	6247
2026-01-21 14:37:43.49	30.19	37.12	-42.1	-43.2	21.9	0.00e+00	0	41	0	534773760	56	6566
2026-01-21 14:37:44.50	30.29	37.35	-41.9	-43.0	21.9	0.00e+00	0	41	0	536870912	56	6450
2026-01-21 14:37:45.51	30.38	37.59	-42.3	-43.5	21.5	0.00e+00	0	41	0	538968064	56	6788
2026-01-21 14:37:46.52	30.48	37.83	-42.6	-43.8	21.4	0.00e+00	0	41	0	541065216	58	6295
2026-01-21 14:37:47.53	30.58	38.08	-43.1	-44.5	20.4	0.00e+00	0	41	0	542113792	58	6824
2026-01-21 14:37:48.54	30.68	38.32	-43.2	-44.5	20.5	0.00e+00	0	41	0	544210944	58	6838
2026-01-21 14:37:49.55	30.78	38.57	-43.8	-45.4	19.9	0.00e+00	0	41	0	546308096	60	6718
2026-01-21 14:37:50.56	30.88	38.81	-43.4	-44.9	20.2	0.00e+00	0	41	0	548405248	60	6336
2026-01-21 14:37:51.57	30.99	39.06	-43.2	-44.6	20.6	0.00e+00	0	41	0	550502400	60	6152
2026-01-21 14:37:52.58	31.09	39.31	-44.0	-45.6	19.8	0.00e+00	0	41	0	551550976	60	6861
2026-01-21 14:37:53.59	31.20	39.57	-44.0	-45.6	19.4	0.00e+00	0	41	0	553648128	60	6917
2026-01-21 14:37:54.60	31.31	39.82	-44.2	-45.8	19.4	0.00e+00	0	41	0	555745280	60	7016
2026-01-21 14:37:55.61	31.42	40.08	-44.4	-46.1	19.5	0.00e+00	0	41	0	557842432	60	7306
2026-01-21 14:37:56.61	31.53	40.33	-44.2	-45.8	19.5	0.00e+00	0	41	0	559939584	60	7011
2026-01-21 14:37:57.62	31.64	40.59	-43.9	-45.4	19.7	0.00e+00	0	41	0	560988160	60	6757
2026-01-21 14:37:58.63	31.76	40.86	-44.1	-45.7	19.3	0.00e+00	0	41	0	563085312	60	6930
2026-01-21 14:37:59.64	31.88	41.12	-43.9	-45.4	19.8	0.00e+00	0	41	0	565182464	60	6753
2026-01-21 14:38:00.65	32.00	41.39	-43.7	-45.1	20.2	0.00e+00	0	41	0	567279616	60	6508
2026-01-21 14:38:01.66	32.12	41.65	-43.7	-45.2	20.0	0.00e+00	0	41	0	569376768	60	6549
2026-01-21 14:38:02.67	32.24	41.92	-42.6	-43.8	21.1	0.00e+00	0	41	0	571473920	58	6297
2026-01-21 14:38:03.68	32.37	42.19	-42.2	-43.3	21.6	0.00e+00	0	41	0	572522496	58	5948
2026-01-21 14:38:04.69	32.49	42.46	-42.2	-43.2	21.7	0.00e+00	0	41	0	574619648	56	6611
2026-01-21 14:38:05.70	32.62	42.74	-41.7	-42.8	22.1	0.00e+00	0	41	0	576716800	56	6249
2026-01-21 14:38:06.71	32.76	43.02	-41.5	-42.6	22.3	0.00e+00	0	41	0	578813952	56	6109
2026-01-21 14:38:07.72	32.89	43.29	-41.5	-42.5	22.4	0.00e+00	0	41	0	580911104	56	6075
2026-01-21 14:38:08.73	33.03	43.57	-41.5	-42.5	22.3	0.00e+00	0	41	0	581959680	56	6062
2026-01-21 14:38:09.73	33.16	43.85	-42.0	-43.1	21.9	0.00e+00	0	41	0	584056832	56	6511
2026-01-21 14:38:10.74	33.30	44.14	-42.3	-43.4	21.6	0.00e+00	0	41	0	586153984	56	6742
2026-01-21 14:38:11.75	33.45	44.42	-42.1	-43.2	21.9	0.00e+00	0	41	0	588251136	56	6569
2026-01-21 14:38:12.76	33.59	44.71	-42.6	-43.7	20.9	0.00e+00	0	41	0	590348288	56	6987
2026-01-21 14:38:13.77	33.74	45.00	-42.3	-43.4	21.3	0.00e+00	0	41	0	591396864	58	6017
2026-01-21 14:38:14.78	33.89	45.29	-42.8	-44.0	20.9	0.00e+00	0	41	0	593494016	58	6431
2026-01-21 14:38:15.79	34.05	45.59	-43.1	-44.4	20.6	0.00e+00	0	41	0	595591168	58	6743
2026-01-21 14:38:16.80	34.20	45.88	-43.4	-44.7	20.2	0.00e+00	0	41	0	597688320	58	6958
2026-01-21 14:38:17.80	34.36	46.18	-43.6	-44.9	20.2	0.00e+00	0	41	0	599785472	60	6388
2026-01-21 14:38:18.82	34.53	46.48	-43.4	-44.7	20.5	0.00e+00	0	41	0	600834048	60	6197
2026-01-21 14:38:19.83	34.69	46.78	-43.7	-45.1	20.1	0.00e+00	0	41	0	602931200	60	6502
2026-01-21 14:38:20.83	34.86	47.08	-43.9	-45.4	19.6	0.00e+00	0	41	0	605028352	60	6721
2026-01-21 14:38:21.84	35.03	47.39	-44.2	-45.7	19.8	0.00e+00	0	41	0	607125504	60	6979
2026-01-21 14:38:22.85	35.21	47.69	-44.2	-45.7	19.5	0.00e+00	0	41	0	609222656	60	6992
2026-01-21 14:38:23.86	35.38	48.00	-43.9	-45.5	19.7	0.00e+00	0	41	0	610271232	60	6773
2026-01-21 14:38:24.87	35.57	48.31	-43.9	-45.4	19.7	0.00e+00	0	41	0	612368384	60	6710
2026-01-21 14:38:25.88	35.75	48.63	-43.2	-44.5	20.6	0.00e+00	0	41	0	614465536	60	6058
2026-01-21 14:38:26.89	35.94	48.94	-42.8	-44.0	21.1	0.00e+00	0	41	0	616562688	58	6451
2026-01-21 14:38:27.90	36.14	49.26	-42.3	-43.5	21.6	0.00e+00	0	41	0	618659840	58	6041
2026-01-21 14:38:28.91	36.33	49.58	-41.6	-42.7	22.0	0.00e+00	0	41	0	619708416	56	6222
2026-01-21 14:38:29.92	36.53	49.90	-41.4	-42.5	22.2	0.00e+00	0	41	0	621805568	56	6082
2026-01-21 14:38:30.93	36.74	50.22	-41.1	-42.2	22.9	0.00e+00	0	41	0	623902720	56	5863
2026-01-21 14:38:31.94	36.95	50.55	-40.7	-41.7	23.0	0.00e+00	0	41	0	625999872	54	6243
2026-01-21 14:38:32.95	37.17	50.87	-40.4	-41.4	23.2	0.00e+00	0	41	0	628097024	54	5980
2026-01-21 14:38:33.96	37.38	51.20	-40.2	-41.1	23.3	0.00e+00	0	41	0	629145600	54	5821
2026-01-21 14:38:34.97	37.61	51.53	-40.3	-41.2	23.2	0.00e+00	0	41	0	631242752	54	5885
2026-01-21 14:38:35.98	37.84	51.86	-39.8	-40.7	22.8	0.00e+00	0	41	0	633339904	54	5522
2026-01-21 14:38:36.99	38.07	52.20	-39.6	-40.4	23.9	0.00e+00	0	42	0	635437056	52	6027
2026-01-21 14:38:38.00	38.31	52.53	-39.1	-39.9	24.2	0.00e+00	0	41	0	637534208	52	5686
2026-01-21 14:38:39.00	38.55	52.87	-38.8	-39.6	24.4	0.00e+00	0	41	0	639631360	52	5486
2026-01-21 14:38:40.01	38.80	53.21	-39.1	-40.0	24.3	0.00e+00	0	41	0	640679936	50	6423
2026-01-21 14:38:41.02	39.06	53.55	-39.1	-39.9	24.2	0.00e+00	0	41	0	642777088	50	6375
2026-01-21 14:38:42.03	39.32	53.89	-39.3	-40.1	24.1	0.00e+00	0	41	0	644874240	50	6530
2026-01-21 14:38:43.04	39.59	54.24	-38.8	-39.7	24.4	0.00e+00	0	41	0	646971392	50	6194
2026-01-21 14:38:44.05	39.87	54.58	-38.7	-39.5	24.6	0.00e+00	0	41	0	649068544	50	6048
2026-01-21 14:38:45.06	40.15	54.93	-38.0	-38.8	24.9	0.00e+00	0	41	0	650117120	50	5611
2026-01-21 14:38:46.07	40.44	55.28	-37.6	-38.4	25.2	0.00e+00	0	41	0	652214272	48	5976
2026-01-21 14:38:47.08	40.73	55.63	-37.5	-38.2	25.3	0.00e+00	0	41	0	654311424	48	5871
2026-01-21 14:38:48.09	41.03	55.98	-38.0	-38.7	25.0	0.00e+00	0	41	0	656408576	48	6237
2026-01-21 14:38:49.10	41.34	56.34	-37.9	-38.6	25.1	0.00e+00	0	41	0	658505728	48	6169
2026-01-21 14:38:50.11	41.66	56.70	-38.1	-38.9	24.9	0.00e+00	0	41	0	659554304	48	6359
2026-01-21 14:38:51.12	41.99	57.05	-38.1	-38.9	24.6	0.00e+00	0	41	0	661651456	48	6384
2026-01-21 14:38:52.13	42.33	57.41	-38.0	-38.8	25.0	0.00e+00	0	41	0	663748608	48	6274
2026-01-21 14:38:53.13	42.67	57.77	-37.7	-38.4	25.2	0.00e+00	0	41	0	665845760	48	6014
2026-01-21 14:38:54.14	43.02	58.13	-37.9	-38.7	25.0	0.00e+00	0	41	0	667942912	48	6217
2026-01-21 14:38:55.15	43.38	58.49	-38.3	-39.1	24.8	0.00e+00	0	41	0	668991488	48	6510
2026-01-21 14:38:56.16	43.76	58.85	-39.2	-40.1	24.0	0.00e+00	0	41	0	671088640	50	6507
2026-01-21 14:38:57.18	44.14	59.22	-38.8	-39.6	24.5	0.00e+00	0	41	0	673185792	50	6159
2026-01-21 14:38:58.18	44.53	59.59	-38.5	-39.3	24.6	0.00e+00	0	41	0	675282944	50	5914
2026-01-21 14:38:59.19	44.94	59.95	-37.9	-38.6	25.1	0.00e+00	0	41	0	677380096	50	5497
2026-01-21 14:39:00.20	45.36	60.32	-37.6	-38.4	25.2	0.00e+00	0	41	0	678428672	48	5997
2026-01-21 14:39:01.21	45.78	60.69	-37.8	-38.5	25.1	0.00e+00	0	41	0	680525824	48	6087
2026-01-21 14:39:02.21	46.22	61.05	-38.1	-38.9	25.0	0.00e+00	0	41	0	682622976	48	6390
2026-01-21 14:39:03.23	46.68	61.43	-38.1	-38.9	24.9	0.00e+00	0	41	0	684720128	48	6358
2026-01-21 14:39:04.24	47.15	61.80	-38.0	-38.8	24.6	0.00e+00	0	41	0	686817280	48	6262
2026-01-21 14:39:05.25	47.63	62.17	-38.3	-39.1	24.8	0.00e+00	0	41	0	687865856	48	6486
2026-01-21 14:39:06.26	48.13	62.54	-38.5	-39.3	24.6	0.00e+00	0	41	0	689963008	48	6674
2026-01-21 14:39:07.27	48.64	62.91	-38.9	-39.8	24.2	0.00e+00	0	41	0	692060160	50	6290
2026-01-21 14:39:08.28	49.17	63.28	-39.5	-40.4	23.8	0.00e+00	0	41	0	694157312	50	6748
2026-01-21 14:39:09.29	49.71	63.65	-38.6	-39.4	24.6	0.00e+00	0	41	0	696254464	50	6013
2026-01-21 14:39:10.30	50.28	64.02	-37.3	-38.1	25.3	0.00e+00	0	41	0	697303040	48	5763
2026-01-21 14:39:11.30	50.85	64.39	-37.2	-37.9	25.6	0.00e+00	0	41	0	699400192	48	5663
2026-01-21 14:39:12.31	51.45	64.76	-37.3	-38.0	25.4	0.00e+00	0	41	0	701497344	48	5747
2026-01-21 14:39:13.32	52.07	65.13	-38.3	-39.2	24.8	0.00e+00	0	41	0	703594496	48	6541
2026-01-21 14:39:14.33	52.71	65.49	-38.8	-39.6	24.5	0.00e+00	0	41	0	705691648	50	6168
2026-01-21 14:39:15.34	53.37	65.86	-39.1	-40.0	24.1	0.00e+00	0	41	0	707788800	50	6403
2026-01-21 14:39:16.35	54.05	66.23	-39.4	-40.3	24.0	0.00e+00	0	41	0	708837376	50	6639
2026-01-21 14:39:17.36	54.76	66.59	-39.3	-40.1	24.1	0.00e+00	0	41	0	710934528	50	6510
2026-01-21 14:39:18.37	55.49	66.95	-39.0	-39.8	24.5	0.00e+00	0	41	0	713031680	50	6261
2026-01-21 14:39:19.38	56.25	67.31	-40.1	-41.1	23.6	0.00e+00	0	41	0	715128832	52	6477
2026-01-21 14:39:20.39	57.03	67.67	-41.3	-42.4	22.0	0.00e+00	0	41	0	717225984	54	6730
2026-01-21 14:39:21.40	57.84	68.03	-42.4	-43.6	21.3	0.00e+00	0	41	0	718274560	56	6884
2026-01-21 14:39:22.41	58.68	68.38	-42.2	-43.3	22.0	0.00e+00	0	41	0	720371712	56	6675
2026-01-21 14:39:23.42	59.55	68.73	-41.3	-42.3	22.3	0.00e+00	0	41	0	722468864	56	5942
2026-01-21 14:39:24.43	60.45	69.08	-41.5	-42.5	22.2	0.00e+00	0	41	0	724566016	56	6100
2026-01-21 14:39:25.44	61.39	69.42	-41.9	-43.0	21.9	0.00e+00	0	41	0	726663168	56	6434
2026-01-21 14:39:26.45	62.35	69.76	-41.5	-42.5	22.4	0.00e+00	0	41	0	727711744	56	6047
2026-01-21 14:39:27.46	63.36	70.10	-41.0	-41.9	22.5	0.00e+00	0	41	0	729808896	56	5667
2026-01-21 14:39:28.46	64.38	70.43	-41.9	-42.9	22.0	0.00e+00	0	41	0	731906048	56	6376
2026-01-21 14:39:29.47	65.46	70.75	-43.5	-44.8	20.3	0.00e+00	0	41	0	734003200	58	7085
2026-01-21 14:39:30.48	66.58	71.07	-43.8	-45.3	20.0	0.00e+00	0	41	0	736100352	60	6642
2026-01-21 14:39:31.49	67.73	71.38	-43.3	-44.6	20.6	0.00e+00	0	41	0	737148928	60	6128
2026-01-21 14:39:32.50	68.93	71.69	-42.9	-44.1	21.1	0.00e+00	0	42	0	739246080	60	5808
2026-01-21 14:39:33.51	70.17	71.99	-41.7	-42.8	22.3	0.00e+00	0	41	0	741343232	58	5598
2026-01-21 14:39:34.52	71.45	72.29	-41.1	-42.1	22.8	0.00e+00	0	42	0	743440384	56	5785
2026-01-21 14:39:35.53	72.78	72.57	-40.9	-41.9	23.0	0.00e+00	0	41	0	745537536	54	6320
2026-01-21 14:39:36.54	74.15	72.85	-40.2	-41.1	23.3	0.00e+00	0	42	0	746586112	54	5764
2026-01-21 14:39:37.55	75.57	73.12	-40.5	-41.4	23.2	0.00e+00	0	41	0	748683264	54	6005
2026-01-21 14:39:38.56	77.04	73.37	-40.9	-41.9	22.5	0.00e+00	0	42	0	750780416	54	6352
2026-01-21 14:39:39.57	78.56	73.62	-40.5	-41.4	23.2	0.00e+00	0	41	0	752877568	54	5992
2026-01-21 14:39:40.58	80.12	73.86	-40.0	-40.9	23.4	0.00e+00	0	42	0	754974720	54	5632
2026-01-21 14:39:41.59	81.73	74.09	-40.5	-41.4	23.1	0.00e+00	0	41	0	756023296	54	5983
2026-01-21 14:39:42.60	83.39	74.30	-40.7	-41.6	22.7	0.00e+00	0	41	0	758120448	54	6169
2026-01-21 14:39:43.61	85.09	74.50	-41.2	-42.2	22.4	0.00e+00	0	41	0	760217600	54	6556
2026-01-21 14:39:44.62	86.84	74.69	-41.6	-42.7	22.3	0.00e+00	0	41	0	762314752	56	6186
2026-01-21 14:39:45.63	88.63	74.87	-40.9	-41.8	23.1	0.00e+00	0	41	0	764411904	56	5618
2026-01-21 14:39:46.64	90.47	75.03	-40.2	-41.1	23.5	0.00e+00	0	41	0	765460480	52	6538
2026-01-21 14:39:47.65	92.34	75.17	-40.2	-41.1	23.3	0.00e+00	0	41	0	767557632	52	6501
2026-01-21 14:39:48.66	94.25	75.30	-41.4	-42.4	22.3	0.00e+00	0	41	0	769654784	54	6762
2026-01-21 14:39:49.67	96.19	75.42	-43.3	-44.8	20.3	0.00e+00	0	41	0	771751936	58	7009
2026-01-21 14:39:50.68	98.17	75.52	-43.6	-45.1	20.1	0.00e+00	0	41	0	773849088	60	6520
2026-01-21 14:39:51.69	100.17	75.60	-43.4	-44.8	20.4	0.00e+00	0	42	0	775946240	60	6317
2026-01-21 14:39:52.70	102.19	75.66	-43.1	-44.5	21.0	0.00e+00	0	41	0	776994816	60	6045
2026-01-21 14:39:53.70	104.20	75.71	-42.2	-43.3	21.6	0.00e+00	0	41	0	779091968	58	5961
2026-01-21 14:39:54.72	106.27	75.74	-41.4	-42.4	22.6	0.00e+00	0	41	0	781189120	56	5993
2026-01-21 14:39:55.73	108.32	75.75	-40.7	-41.7	22.9	0.00e+00	0	42	0	783286272	54	6184
2026-01-21 14:39:56.74	110.38	75.75	-40.6	-41.5	22.9	0.00e+00	0	42	0	785383424	54	6087
2026-01-21 14:39:57.75	112.43	75.72	-40.3	-41.2	23.1	0.00e+00	0	42	0	786432000	54	5877
2026-01-21 14:39:58.75	114.45	75.68	-41.6	-42.7	22.0	0.00e+00	0	41	0	788529152	54	6939
2026-01-21 14:39:59.76	116.48	75.63	-41.7	-42.8	22.0	0.00e+00	0	41	0	790626304	56	6266
2026-01-21 14:40:00.78	118.51	75.55	-41.1	-42.0	22.6	0.00e+00	0	41	0	792723456	56	5744
2026-01-21 14:40:01.78	120.47	75.46	-42.1	-43.1	21.3	0.00e+00	0	41	0	793772032	56	6527
2026-01-21 14:40:02.79	122.43	75.35	-43.5	-44.9	20.3	0.00e+00	0	41	0	795869184	58	7114
2026-01-21 14:40:03.80	124.35	75.23	-43.1	-44.3	20.9	0.00e+00	0	41	0	797966336	60	5938
2026-01-21 14:40:04.81	126.24	75.09	-41.9	-43.0	22.1	0.00e+00	0	42	0	800063488	58	5760
2026-01-21 14:40:05.82	128.10	74.93	-42.3	-43.4	21.5	0.00e+00	0	41	0	802160640	58	6015
2026-01-21 14:40:06.83	129.91	74.76	-42.5	-43.7	21.3	0.00e+00	0	41	0	804257792	58	6203
2026-01-21 14:40:07.84	131.68	74.58	-41.6	-42.6	22.4	0.00e+00	0	41	0	805306368	56	6156
2026-01-21 14:40:08.85	133.40	74.38	-42.0	-43.0	21.9	0.00e+00	0	41	0	807403520	56	6464
2026-01-21 14:40:09.86	135.08	74.18	-43.6	-45.0	20.0	0.00e+00	0	41	0	809500672	58	7211
2026-01-21 14:40:10.87	136.71	73.95	-43.3	-44.6	20.4	0.00e+00	0	41	0	811597824	60	6127
2026-01-21 14:40:11.88	138.29	73.72	-42.3	-43.5	21.2	0.00e+00	0	42	0	813694976	58	6041
2026-01-21 14:40:12.89	139.83	73.48	-42.4	-43.6	21.0	0.00e+00	0	41	0	814743552	58	6111
2026-01-21 14:40:13.90	141.31	73.22	-41.7	-42.7	22.2	0.00e+00	0	41	0	816840704	58	5543
2026-01-21 14:40:14.91	142.75	72.96	-41.9	-43.0	21.8	0.00e+00	0	41	0	818937856	56	6428
2026-01-21 14:40:15.92	144.15	72.68	-42.1	-43.2	21.5	0.00e+00	0	41	0	821035008	58	5887
2026-01-21 14:40:16.93	145.50	72.40	-41.5	-42.5	22.3	0.00e+00	0	41	0	823132160	58	5435
2026-01-21 14:40:17.94	146.80	72.11	-40.5	-41.5	23.1	0.00e+00	0	41	0	824180736	56	5383
2026-01-21 14:40:18.95	148.06	71.81	-42.5	-43.7	21.2	0.00e+00	0	41	0	826277888	56	7004
2026-01-21 14:40:19.96	149.27	71.51	-43.6	-45.0	20.3	0.00e+00	0	41	0	828375040	58	7186
2026-01-21 14:40:20.97	150.44	71.20	-44.0	-45.6	19.8	0.00e+00	0	41	0	830472192	60	6852
2026-01-21 14:40:21.98	151.58	70.88	-43.5	-44.8	20.4	0.00e+00	0	41	0	832569344	60	6316
2026-01-21 14:40:22.99	152.67	70.55	-41.6	-42.6	22.3	0.00e+00	0	41	0	833617920	56	6138
2026-01-21 14:40:24.00	153.72	70.23	-42.0	-43.1	21.7	0.00e+00	0	41	0	835715072	56	6475
2026-01-21 14:40:25.01	154.74	69.89	-42.9	-44.2	20.9	0.00e+00	0	42	0	837812224	58	6576
2026-01-21 14:40:26.01	155.71	69.56	-41.5	-42.5	22.4	0.00e+00	0	42	0	839909376	58	5391
2026-01-21 14:40:27.02	156.66	69.21	-41.5	-42.5	22.4	0.00e+00	0	41	0	842006528	56	6080
2026-01-21 14:40:28.04	157.58	68.86	-42.5	-43.6	21.4	0.00e+00	0	41	0	844103680	56	6914
2026-01-21 14:40:29.05	158.47	68.51	-42.1	-43.2	22.1	0.00e+00	0	42	0	845152256	56	6545
2026-01-21 14:40:30.06	159.32	68.16	-41.2	-42.2	22.5	0.00e+00	0	42	0	847249408	56	5851
2026-01-21 14:40:31.07	160.14	67.81	-41.4	-42.5	22.4	0.00e+00	0	42	0	849346560	56	6052
2026-01-21 14:40:32.08	160.94	67.45	-41.0	-42.1	22.8	0.00e+00	0	42	0	851443712	56	5769
2026-01-21 14:40:33.09	161.70	67.09	-40.5	-41.5	23.1	0.00e+00	0	42	0	852492288	54	6063
2026-01-21 14:40:34.10	162.44	66.73	-41.2	-42.2	22.4	0.00e+00	0	42	0	854589440	54	6611
2026-01-21 14:40:35.10	163.15	66.36	-41.7	-42.9	22.0	0.00e+00	0	42	0	856686592	56	6335
2026-01-21 14:40:36.12	163.86	65.99	-40.5	-41.5	23.2	0.00e+00	0	42	0	858783744	56	5419
2026-01-21 14:40:37.13	164.53	65.63	-38.8	-39.6	24.5	0.00e+00	0	42	0	860880896	52	5477
2026-01-21 14:40:38.14	165.17	65.26	-38.4	-39.2	24.7	0.00e+00	0	42	0	862978048	50	5847
2026-01-21 14:40:39.15	165.80	64.89	-37.9	-38.7	25.1	0.00e+00	0	42	0	864026624	48	6188
2026-01-21 14:40:40.16	166.41	64.52	-37.0	-37.8	25.6	0.00e+00	0	42	0	866123776	48	5574
2026-01-21 14:40:41.17	167.00	64.15	-36.9	-37.6	25.6	0.00e+00	0	42	0	868220928	46	6167
2026-01-21 14:40:42.18	167.57	63.78	-37.2	-38.0	25.5	0.00e+00	0	41	0	870318080	46	6398
2026-01-21 14:40:43.19	168.12	63.41	-37.4	-38.1	25.4	0.00e+00	0	42	0	872415232	46	6487
2026-01-21 14:40:44.20	168.65	63.03	-38.1	-38.8	24.2	0.00e+00	0	42	0	873463808	48	6310
2026-01-21 14:40:45.21	169.17	62.66	-39.3	-40.2	23.9	0.00e+00	0	41	0	875560960	50	6608
2026-01-21 14:40:46.22	169.68	62.29	-39.9	-40.9	23.5	0.00e+00	0	42	0	877658112	52	6343
2026-01-21 14:40:47.23	170.16	61.92	-39.6	-40.6	23.6	0.00e+00	0	41	0	879755264	52	6105
2026-01-21 14:40:48.23	170.63	61.55	-39.8	-40.7	23.6	0.00e+00	0	42	0	881852416	52	6243
2026-01-21 14:40:49.25	171.10	61.18	-39.8	-40.7	23.6	0.00e+00	0	42	0	882900992	52	6212
2026-01-21 14:40:50.26	171.54	60.81	-39.3	-40.2	24.0	0.00e+00	0	41	0	884998144	52	5848
2026-01-21 14:40:51.27	171.98	60.44	-39.3	-40.2	24.0	0.00e+00	0	42	0	887095296	52	5832
2026-01-21 14:40:52.27	172.40	60.07	-39.5	-40.3	23.7	0.00e+00	0	41	0	889192448	52	5958
2026-01-21 14:40:53.28	172.81	59.70	-40.2	-41.1	23.3	0.00e+00	0	41	0	891289600	52	6537
2026-01-21 14:40:54.29	173.20	59.34	-40.1	-41.0	23.4	0.00e+00	0	41	0	892338176	52	6447
2026-01-21 14:40:55.30	173.59	58.97	-40.0	-40.9	23.4	0.00e+00	0	41	0	894435328	52	6386
2026-01-21 14:40:56.31	173.97	58.61	-39.4	-40.3	24.0	0.00e+00	0	41	0	896532480	52	5916
2026-01-21 14:40:57.33	174.34	58.24	-38.2	-38.9	24.8	0.00e+00	0	41	0	898629632	50	5695
2026-01-21 14:40:58.33	174.69	57.88	-38.0	-38.8	24.9	0.00e+00	0	42	0	900726784	50	5627
2026-01-21 14:40:59.34	175.04	57.52	-38.4	-39.3	24.5	0.00e+00	0	42	0	901775360	50	5913
2026-01-21 14:41:00.35	175.38	57.16	-37.9	-39.5	24.4	0.00e+00	0	42	0	903872512	48	6828
2026-01-21 14:41:01.36	175.71	56.80	-38.2	-39.0	24.8	0.00e+00	0	41	0	905969664	48	6411
2026-01-21 14:41:02.37	176.03	56.44	-37.5	-38.3	25.2	0.00e+00	0	42	0	908066816	48	5916
2026-01-21 14:41:03.38	176.35	56.09	-37.9	-38.7	25.0	0.00e+00	0	42	0	910163968	48	6237
2026-01-21 14:41:04.39	176.65	55.73	-38.1	-38.9	24.9	0.00e+00	0	42	0	912261120	48	6357
2026-01-21 14:41:05.40	176.95	55.38	-38.6	-39.4	24.4	0.00e+00	0	42	0	913309696	48	6769
2026-01-21 14:41:06.41	177.24	55.03	-38.7	-39.5	24.6	0.00e+00	0	41	0	915406848	48	6819
2026-01-21 14:41:07.43	177.53	54.68	-38.3	-39.2	24.8	0.00e+00	0	41	0	917504000	48	6547
2026-01-21 14:41:08.44	177.81	54.33	-38.5	-39.4	24.5	0.00e+00	0	41	0	919601152	48	6711
2026-01-21 14:41:09.45	178.08	53.98	-39.3	-40.2	24.0	0.00e+00	0	42	0	921698304	50	6577
2026-01-21 14:41:10.46	178.34	53.64	-39.6	-40.5	23.8	0.00e+00	0	42	0	922746880	50	6834
2026-01-21 14:41:11.47	178.60	53.29	-39.0	-39.8	24.0	0.00e+00	0	41	0	924844032	50	6291
2026-01-21 14:41:12.48	178.85	52.95	-39.1	-40.0	24.0	0.00e+00	0	41	0	926941184	50	6423
2026-01-21 14:41:13.49	179.10	52.61	-39.8	-40.8	23.3	0.00e+00	0	41	0	929038336	50	7013
2026-01-21 14:41:14.50	179.34	52.28	-41.4	-42.6	22.0	0.00e+00	0	42	0	931135488	54	6900
2026-01-21 14:41:15.51	179.58	51.94	-42.4	-43.8	21.0	0.00e+00	0	42	0	932184064	56	7035
2026-01-21 14:41:16.52	179.81	51.61	-41.8	-43.1	22.0	0.00e+00	0	41	0	934281216	56	6471
2026-01-21 14:41:17.53	180.03	51.27	-41.4	-42.5	22.3	0.00e+00	0	42	0	936378368	56	6066
2026-01-21 14:41:18.54	180.25	50.94	-40.6	-41.6	22.8	0.00e+00	0	41	0	938475520	54	6144
2026-01-21 14:41:19.55	180.47	50.62	-39.9	-40.8	23.2	0.00e+00	0	42	0	940572672	52	6261
2026-01-21 14:41:20.56	180.68	50.29	-40.3	-41.2	22.9	0.00e+00	0	42	0	941621248	52	6602
2026-01-21 14:41:21.57	180.89	49.97	-42.3	-43.5	21.2	0.00e+00	0	41	0	943718400	56	6814
2026-01-21 14:41:22.58	181.09	49.64	-44.2	-45.9	19.1	0.00e+00	0	41	0	945815552	60	7144
2026-01-21 14:41:23.59	181.29	49.32	-45.5	-47.8	17.4	0.00e+00	0	42	0	947912704	60	8874
2026-01-21 14:41:24.60	181.48	49.00	-46.0	-48.5	16.7	0.00e+00	0	42	0	950009856	60	9617
2026-01-21 14:41:25.61	181.68	48.69	-45.4	-47.5	17.8	0.00e+00	0	42	0	951058432	60	8561
2026-01-21 14:41:26.62	181.86	48.37	-43.2	-44.6	20.4	0.00e+00	0	42	0	953155584	60	6139
2026-01-21 14:41:27.63	182.05	48.06	-41.9	-43.0	21.8	0.00e+00	0	42	0	955252736	58	5729
2026-01-21 14:41:28.64	182.23	47.75	-41.2	-42.2	22.4	0.00e+00	0	42	0	957349888	56	5857
2026-01-21 14:41:29.65	182.40	47.44	-41.1	-42.1	22.6	0.00e+00	0	41	0	959447040	56	5805
2026-01-21 14:41:30.66	182.58	47.13	-41.9	-43.0	21.7	0.00e+00	0	42	0	960495616	56	6457
2026-01-21 14:41:31.67	182.75	46.83	-43.1	-44.4	20.3	0.00e+00	0	41	0	962592768	58	6747
2026-01-21 14:41:32.68	182.91	46.53	-43.5	-45.0	19.9	0.00e+00	0	42	0	964689920	58	7192
2026-01-21 14:41:33.69	183.08	46.22	-43.5	-45.0	19.8	0.00e+00	0	41	0	966787072	60	6435
2026-01-21 14:41:34.70	183.24	45.93	-43.7	-45.1	20.0	0.00e+00	0	41	0	968884224	60	6520
2026-01-21 14:41:35.71	183.39	45.63	-43.0	-44.3	20.9	0.00e+00	0	42	0	969932800	60	5957
2026-01-21 14:41:36.72	183.55	45.33	-42.3	-43.5	21.6	0.00e+00	0	42	0	972029952	58	6052
2026-01-21 14:41:37.73	183.70	45.04	-41.0	-42.0	22.8	0.00e+00	0	41	0	974127104	56	5730
2026-01-21 14:41:38.74	183.85	44.75	-39.9	-40.8	23.4	0.00e+00	0	42	0	976224256	54	5578
2026-01-21 14:41:39.75	184.00	44.46	-39.4	-40.2	23.6	0.00e+00	0	42	0	978321408	52	5887
2026-01-21 14:41:40.76	184.14	44.17	-38.9	-39.7	24.3	0.00e+00	0	42	0	980418560	52	5515
2026-01-21 14:41:41.77	184.28	43.89	-39.6	-40.5	23.3	0.00e+00	0	41	0	981467136	52	6041
2026-01-21 14:41:42.78	184.42	43.60	-41.2	-42.2	22.2	0.00e+00	0	42	0	983564288	54	6587
2026-01-21 14:41:43.79	184.56	43.32	-42.4	-43.6	21.2	0.00e+00	0	42	0	985661440	56	6904
2026-01-21 14:41:44.80	184.69	43.04	-43.3	-44.7	20.0	0.00e+00	0	42	0	987758592	58	6941
2026-01-21 14:41:45.81	184.82	42.76	-44.0	-45.6	19.6	0.00e+00	0	42	0	989855744	60	6913
2026-01-21 14:41:46.82	184.95	42.49	-42.9	-44.2	20.9	0.00e+00	0	42	0	990904320	60	5887
2026-01-21 14:41:47.83	185.08	42.21	-41.6	-42.7	22.1	0.00e+00	0	42	0	993001472	56	6227
2026-01-21 14:41:48.84	185.21	41.94	-40.2	-41.1	23.3	0.00e+00	0	42	0	995098624	54	5825
2026-01-21 14:41:49.85	185.33	41.67	-39.8	-40.7	23.8	0.00e+00	0	42	0	997195776	52	6183
2026-01-21 14:41:50.86	185.45	41.40	-38.4	-39.1	24.7	0.00e+00	0	42	0	999292928	50	5826
2026-01-21 14:41:51.87	185.57	41.13	-38.4	-39.2	24.5	0.00e+00	0	42	0	1000341504	50	5858
2026-01-21 14:41:52.88	185.69	40.87	-38.8	-39.6	24.2	0.00e+00	0	42	0	1002438656	50	6166
2026-01-21 14:41:53.89	185.81	40.61	-38.8	-39.6	24.3	0.00e+00	0	42	0	1004535808	50	6172
2026-01-21 14:41:54.90	185.92	40.35	-39.8	-40.8	23.5	0.00e+00	0	42	0	1006632960	50	7016
2026-01-21 14:41:55.91	186.04	40.09	-40.6	-41.6	22.8	0.00e+00	0	42	0	1008730112	52	6871
2026-01-21 14:41:56.92	186.15	39.83	-41.2	-42.3	22.3	0.00e+00	0	42	0	1009778688	54	6675
2026-01-21 14:41:57.92	186.25	39.57	-42.2	-43.5	21.4	0.00e+00	0	42	0	1011875840	56	6779
2026-01-21 14:41:58.93	186.36	39.32	-42.3	-43.6	21.2	0.00e+00	0	42	0	1013972992	56	6908
2026-01-21 14:41:59.94	186.47	39.07	-42.3	-43.6	21.1	0.00e+00	0	42	0	1016070144	58	6160
2026-01-21 14:42:00.95	186.57	38.82	-42.3	-43.5	21.2	0.00e+00	0	42	0	1018167296	58	6081
2026-01-21 14:42:01.96	186.67	38.57	-41.9	-43.0	21.7	0.00e+00	0	42	0	1019215872	58	5720
2026-01-21 14:42:02.98	186.78	38.32	-40.5	-41.4	22.9	0.00e+00	0	42	0	1021313024	54	6020
2026-01-21 14:42:03.99	186.88	38.07	-40.0	-40.9	23.4	0.00e+00	0	42	0	1023410176	54	5637
2026-01-21 14:42:04.99	186.97	37.83	-39.4	-40.3	23.9	0.00e+00	0	42	0	1025507328	52	5897
2026-01-21 14:42:06.00	187.07	37.59	-39.6	-40.4	23.7	0.00e+00	0	42	0	1027604480	52	6028
2026-01-21 14:42:07.01	187.17	37.35	-40.1	-41.0	23.3	0.00e+00	0	42	0	1028653056	52	6398
2026-01-21 14:42:08.02	187.26	37.11	-41.1	-42.1	22.3	0.00e+00	0	42	0	1030750208	54	6532
2026-01-21 14:42:09.03	187.35	36.87	-42.3	-43.6	21.3	0.00e+00	0	42	0	1032847360	56	6875
2026-01-21 14:42:10.04	187.45	36.64	-43.6	-45.1	19.9	0.00e+00	0	42	0	1034944512	58	7303
2026-01-21 14:42:11.05	187.54	36.40	-45.3	-47.4	17.8	0.00e+00	0	42	0	1037041664	60	8446
2026-01-21 14:42:12.06	187.63	36.17	-44.6	-46.6	18.6	0.00e+00	0	42	0	1038090240	60	7688
2026-01-21 14:42:13.07	187.71	35.94	-44.4	-46.3	18.8	0.00e+00	0	42	0	1040187392	60	7467
2026-01-21 14:42:14.08	187.80	35.71	-42.9	-44.3	20.6	0.00e+00	0	42	0	1042284544	60	5934
2026-01-21 14:42:15.09	187.89	35.48	-42.1	-43.3	21.4	0.00e+00	0	42	0	1044381696	58	5933
2026-01-21 14:42:16.10	187.97	35.26	-41.5	-42.6	22.0	0.00e+00	0	42	0	1046478848	56	6161
2026-01-21 14:42:17.11	188.06	35.03	-40.4	-41.4	23.0	0.00e+00	0	42	0	1047527424	54	6024
2026-01-21 14:42:18.12	188.14	34.81	-39.9	-40.9	23.3	0.00e+00	0	42	0	1049624576	54	5645
2026-01-21 14:42:19.13	188.22	34.59	-40.0	-40.9	23.4	0.00e+00	0	42	0	1051721728	52	6390
2026-01-21 14:42:20.14	188.30	34.37	-40.6	-41.5	22.8	0.00e+00	0	42	0	1053818880	52	6845
2026-01-21 14:42:21.15	188.38	34.15	-41.2	-42.2	22.2	0.00e+00	0	42	0	1055916032	54	6608
2026-01-21 14:42:22.15	188.46	33.93	-42.7	-44.0	20.6	0.00e+00	0	42	0	1058013184	56	7212
2026-01-21 14:42:23.16	188.53	33.72	-43.9	-45.4	19.5	0.00e+00	0	42	0	1059061760	58	7544
2026-01-21 14:42:24.17	188.61	33.50	-44.5	-46.1	19.0	0.00e+00	0	42	0	1061158912	60	7337
2026-01-21 14:42:25.18	188.69	33.29	-45.2	-47.1	18.1	0.00e+00	0	42	0	1063256064	60	8174
2026-01-21 14:42:26.19	188.76	33.08	-45.4	-47.4	17.8	0.00e+00	0	42	0	1065353216	60	8495
2026-01-21 14:42:27.20	188.83	32.87	-45.3	-47.3	17.9	0.00e+00	0	42	0	1067450368	60	8337
2026-01-21 14:42:28.21	188.91	32.66	-44.3	-45.9	19.1	0.00e+00	0	42	0	1068498944	60	7168
2026-01-21 14:42:29.22	188.98	32.45	-44.6	-46.3	19.0	0.00e+00	0	42	0	1070596096	60	7474
2026-01-21 14:42:30.23	189.05	32.25	-43.7	-45.1	20.0	0.00e+00	0	42	0	1072693248	60	6527
2026-01-21 14:42:31.24	189.12	32.04	-42.6	-43.8	21.1	0.00e+00	0	42	0	1074790400	60	5619
2026-01-21 14:42:32.25	189.19	31.84	-42.5	-43.7	21.1	0.00e+00	0	42	0	1076887552	58	6223
2026-01-21 14:42:33.26	189.26	31.64	-42.0	-43.1	21.7	0.00e+00	0	42	0	1077936128	58	5820
2026-01-21 14:42:34.27	189.33	31.44	-41.6	-42.6	22.1	0.00e+00	0	42	0	1080033280	56	6172
2026-01-21 14:42:35.28	189.39	31.24	-41.3	-42.3	22.4	0.00e+00	0	42	0	1082130432	56	5957
2026-01-21 14:42:36.29	189.46	31.04	-41.0	-42.0	22.5	0.00e+00	0	42	0	1084227584	56	5723
2026-01-21 14:42:37.30	189.52	30.84	-41.0	-42.0	22.5	0.00e+00	0	41	0	1086324736	56	5710
2026-01-21 14:42:38.31	189.59	30.65	-41.1	-42.1	22.4	0.00e+00	0	42	0	1087373312	56	5821
2026-01-21 14:42:39.32	189.65	30.45	-41.0	-41.9	22.6	0.00e+00	0	42	0	1089470464	56	5688
2026-01-21 14:42:40.33	189.72	30.26	-40.6	-41.6	22.9	0.00e+00	0	42	0	1091567616	54	6115
2026-01-21 14:42:41.34	189.78	30.07	-40.3	-41.2	23.1	0.00e+00	0	42	0	1093664768	54	5848
2026-01-21 14:42:42.35	189.84	29.88	-40.1	-41.0	23.3	0.00e+00	0	42	0	1095761920	54	5702
2026-01-21 14:42:43.36	189.90	29.69	-39.9	-40.8	23.2	0.00e+00	0	42	0	1096810496	54	5605
2026-01-21 14:42:44.37	189.96	29.50	-40.2	-41.1	23.1	0.00e+00	0	42	0	1098907648	54	5804
2026-01-21 14:42:45.38	190.02	29.32	-40.4	-41.4	22.8	0.00e+00	0	42	0	1101004800	54	5976
2026-01-21 14:42:46.39	190.08	29.13	-40.9	-41.8	22.6	0.00e+00	0	42	0	1103101952	54	6304
2026-01-21 14:42:47.40	190.14	28.95	-41.5	-42.6	22.0	0.00e+00	0	42	0	1105199104	54	6866
2026-01-21 14:42:48.41	190.20	28.76	-41.6	-42.7	21.9	0.00e+00	0	42	0	1106247680	54	6939
2026-01-21 14:42:49.42	190.25	28.58	-42.4	-43.5	21.2	0.00e+00	0	42	0	1108344832	56	6847
2026-01-21 14:42:50.43	190.31	28.40	-42.9	-44.2	20.6	0.00e+00	0	42	0	1110441984	58	6582
2026-01-21 14:42:51.43	190.37	28.22	-42.8	-44.1	20.7	0.00e+00	0	42	0	1112539136	58	6488
2026-01-21 14:42:52.44	190.42	28.05	-43.1	-44.4	20.4	0.00e+00	0	42	0	1114636288	58	6754
2026-01-21 14:42:53.45	190.48	27.87	-43.2	-44.5	20.4	0.00e+00	0	42	0	1115684864	58	6821
2026-01-21 14:42:54.46	190.53	27.69	-43.0	-44.3	20.8	0.00e+00	0	42	0	1117782016	58	6620
2026-01-21 14:42:55.47	190.59	27.52	-42.5	-43.8	20.9	0.00e+00	0	42	0	1119879168	58	6251
2026-01-21 14:42:56.48	190.64	27.34	-42.5	-43.7	21.0	0.00e+00	0	42	0	1121976320	58	6201
2026-01-21 14:42:57.49	190.69	27.17	-41.9	-43.1	21.7	0.00e+00	0	42	0	1124073472	58	5787
2026-01-21 14:42:58.50	190.74	27.00	-42.0	-43.1	21.9	0.00e+00	0	42	0	1126170624	56	6534
2026-01-21 14:42:59.51	190.80	26.83	-41.4	-42.5	22.1	0.00e+00	0	42	0	1127219200	56	6036
2026-01-21 14:43:00.52	190.85	26.66	-41.3	-42.4	22.3	0.00e+00	0	42	0	1129316352	56	5979
2026-01-21 14:43:01.53	190.90	26.49	-40.8	-41.8	22.7	0.00e+00	0	42	0	1131413504	56	5576
2026-01-21 14:43:02.54	190.95	26.32	-40.4	-41.4	23.0	0.00e+00	0	42	0	1133510656	54	5995
2026-01-21 14:43:03.55	191.00	26.16	-40.1	-41.0	23.3	0.00e+00	0	42	0	1135607808	54	5738
2026-01-21 14:43:04.56	191.05	25.99	-40.2	-41.1	23.2	0.00e+00	0	42	0	1136656384	54	5803
2026-01-21 14:43:05.57	191.10	25.83	-39.8	-40.8	23.4	0.00e+00	0	42	0	1138753536	54	5571
2026-01-21 14:43:06.58	191.14	25.66	-39.7	-40.6	23.6	0.00e+00	0	42	0	1140850688	52	6160
2026-01-21 14:43:07.59	191.19	25.50	-39.5	-40.4	23.7	0.00e+00	0	42	0	1142947840	52	6019
2026-01-21 14:43:08.60	191.24	25.34	-39.9	-40.8	23.5	0.00e+00	0	42	0	1145044992	52	6264
2026-01-21 14:43:09.61	191.29	25.18	-39.4	-40.3	23.9	0.00e+00	0	42	0	1146093568	52	5902
2026-01-21 14:43:10.62	191.33	25.02	-39.3	-40.2	23.9	0.00e+00	0	42	0	1148190720	52	5832
2026-01-21 14:43:11.63	191.38	24.86	-39.2	-40.1	23.9	0.00e+00	0	42	0	1150287872	52	5804
2026-01-21 14:43:12.64	191.42	24.70	-39.3	-40.1	24.0	0.00e+00	0	42	0	1152385024	52	5825
2026-01-21 14:43:13.65	191.47	24.54	-39.1	-39.9	24.0	0.00e+00	0	42	0	1154482176	52	5687
2026-01-21 14:43:14.66	191.52	24.39	-39.0	-39.8	24.1	0.00e+00	0	42	0	1155530752	52	5610
2026-01-21 14:43:15.67	191.56	24.23	-38.7	-39.5	24.3	0.00e+00	0	42	0	1157627904	50	6080
2026-01-21 14:43:16.68	191.60	24.08	-38.5	-39.3	24.4	0.00e+00	0	42	0	1159725056	50	5924
2026-01-21 14:43:17.69	191.65	23.92	-38.7	-39.5	24.4	0.00e+00	0	42	0	1161822208	50	6072
2026-01-21 14:43:18.70	191.69	23.77	-38.3	-39.1	24.6	0.00e+00	0	42	0	1163919360	50	5823
2026-01-21 14:43:19.71	191.73	23.62	-38.1	-38.9	24.8	0.00e+00	0	42	0	1164967936	50	5679
2026-01-21 14:43:20.72	191.78	23.47	-38.4	-39.3	24.5	0.00e+00	0	42	0	1167065088	50	5903
2026-01-21 14:43:21.72	191.82	23.32	-38.5	-39.3	24.5	0.00e+00	0	42	0	1169162240	50	5943
2026-01-21 14:43:22.73	191.86	23.17	-38.6	-39.5	24.4	0.00e+00	0	42	0	1171259392	50	6047
2026-01-21 14:43:23.74	191.90	23.02	-38.7	-39.5	24.3	0.00e+00	0	42	0	1173356544	50	6094
2026-01-21 14:43:24.76	191.94	22.87	-39.0	-39.9	24.2	0.00e+00	0	42	0	1174405120	50	6342
2026-01-21 14:43:25.76	191.98	22.73	-39.3	-40.2	23.8	0.00e+00	0	42	0	1176502272	50	6594
2026-01-21 14:43:26.77	192.02	22.58	-39.6	-40.5	23.6	0.00e+00	0	42	0	1178599424	50	6838
2026-01-21 14:43:27.78	192.06	22.44	-39.6	-40.5	23.5	0.00e+00	0	42	0	1180696576	50	6824
2026-01-21 14:43:28.79	192.10	22.29	-39.8	-40.7	23.5	0.00e+00	0	41	0	1182793728	52	6196
2026-01-21 14:43:29.80	192.14	22.15	-39.8	-40.7	23.4	0.00e+00	0	42	0	1183842304	52	6245
2026-01-21 14:43:30.81	192.18	22.01	-39.8	-40.7	23.4	0.00e+00	0	42	0	1185939456	52	6197
2026-01-21 14:43:31.82	192.22	21.87	-39.6	-40.5	23.6	0.00e+00	0	41	0	1188036608	52	6088
2026-01-21 14:43:32.83	192.26	21.73	-39.7	-40.6	23.6	0.00e+00	0	42	0	1190133760	52	6138
2026-01-21 14:43:33.84	192.30	21.59	-39.7	-40.6	23.6	0.00e+00	0	41	0	1192230912	52	6106
2026-01-21 14:43:34.85	192.33	21.45	-39.2	-40.0	24.0	0.00e+00	0	41	0	1194328064	52	5758
2026-01-21 14:43:35.86	192.37	21.31	-39.2	-40.0	24.0	0.00e+00	0	41	0	1195376640	52	5755
2026-01-21 14:43:36.87	192.41	21.17	-39.3	-40.1	23.9	0.00e+00	0	42	0	1197473792	52	5798
2026-01-21 14:43:37.88	192.45	21.03	-39.0	-39.8	24.0	0.00e+00	0	42	0	1199570944	52	5610
2026-01-21 14:43:38.88	192.48	20.90	-39.0	-39.9	24.0	0.00e+00	0	42	0	1201668096	52	5649
2026-01-21 14:43:39.89	192.52	20.76	-39.1	-40.0	24.1	0.00e+00	0	41	0	1203765248	52	5702
2026-01-21 14:43:40.91	192.55	20.63	-39.1	-40.0	23.8	0.00e+00	0	42	0	1204813824	52	5731
2026-01-21 14:43:41.91	192.59	20.49	-39.2	-40.1	23.9	0.00e+00	0	41	0	1206910976	52	5808
2026-01-21 14:43:42.93	192.63	20.36	-39.5	-40.4	23.8	0.00e+00	0	41	0	1209008128	52	5965
2026-01-21 14:43:43.94	192.66	20.23	-39.5	-40.4	23.6	0.00e+00	0	41	0	1211105280	52	6017
2026-01-21 14:43:44.95	192.70	20.09	-39.5	-40.5	23.5	0.00e+00	0	42	0	1213202432	52	6037
2026-01-21 14:43:45.96	192.73	19.96	-39.9	-40.8	23.3	0.00e+00	0	41	0	1214251008	52	6300
2026-01-21 14:43:46.97	192.77	19.83	-39.9	-40.8	23.3	0.00e+00	0	42	0	1216348160	52	6299
2026-01-21 14:43:47.98	192.80	19.70	-39.9	-40.8	23.5	0.00e+00	0	42	0	1218445312	52	6303
