passes_logs/2026/01/21/R4.6S_Anadyr/R4.6S_Anadyr__20260121_221833_NOAA_21_JPSS-2_rec.log

#Pass ID: 20260121_221833_NOAA 21 (JPSS-2)
#Satellite: NOAA 21 (JPSS-2)
#Configuration: NOAA-21
#almurnet v.1.7.20251203
#Start time: 2026-01-21 22:18:39

#Version: 2.2.20231116
#Station: R4.6S_Anadyr
#Location: 177.4865 lon 64.73178 lat
#TLE: 1 54234U 22150A   26020.93347024  .00000206  00000+0  11859-3 0  9994
#TLE: 2 54234  98.7506 321.7615 0000627 245.8100 114.3011 14.19536899165654

#Time	Az	El	Level	Level2	SNR	BER	BlckErr	Temp	State	Recorded	gain1	gain2
2026-01-21 22:18:39.17	109.97	0.32	-51.1	-52.7	5.7	0.00e+00	0	38	0	0	60	52747
2026-01-21 22:18:40.14	109.92	0.37	-51.5	-64.4	3.5	1.52e+00	0	40	104	0	60	58148
2026-01-21 22:18:41.12	109.88	0.43	-51.2	-64.1	3.5	1.52e+00	0	40	104	0	60	56080
2026-01-21 22:18:42.09	109.83	0.48	-51.0	-63.9	3.5	1.52e+00	0	40	104	0	60	55095
2026-01-21 22:18:43.07	109.79	0.54	-51.0	-63.9	3.5	1.51e+00	0	40	104	0	60	54770
2026-01-21 22:18:44.05	109.74	0.59	-51.0	-63.9	3.5	1.52e+00	0	40	104	0	60	54893
2026-01-21 22:18:45.02	109.70	0.65	-51.0	-63.9	3.5	1.52e+00	0	40	104	0	60	54751
2026-01-21 22:18:46.00	109.65	0.71	-50.9	-63.8	3.5	1.52e+00	0	40	104	0	60	54214
2026-01-21 22:18:46.98	109.60	0.76	-51.0	-63.8	3.5	1.52e+00	0	40	104	0	60	54169
2026-01-21 22:18:47.95	109.56	0.82	-50.9	-63.8	3.5	1.52e+00	0	40	104	0	60	54337
2026-01-21 22:18:48.93	109.51	0.87	-50.9	-63.8	3.5	1.52e+00	0	40	104	0	60	54450
2026-01-21 22:18:49.91	109.46	0.93	-50.9	-63.8	3.5	1.52e+00	0	40	104	0	60	54361
2026-01-21 22:18:50.88	109.42	0.99	-50.9	-63.7	3.5	1.52e+00	0	40	104	0	60	53944
2026-01-21 22:18:51.86	109.37	1.04	-50.9	-63.7	3.5	1.52e+00	0	40	104	0	60	54009
2026-01-21 22:18:52.84	109.32	1.10	-50.8	-63.7	3.5	1.52e+00	0	40	104	0	60	53578
2026-01-21 22:18:53.81	109.28	1.16	-50.7	-63.6	3.5	1.52e+00	0	40	104	0	60	52977
2026-01-21 22:18:54.79	109.23	1.21	-50.7	-63.5	3.5	1.52e+00	0	40	104	0	60	52570
2026-01-21 22:18:55.77	109.18	1.27	-50.7	-63.5	3.5	1.52e+00	0	40	104	0	60	52235
2026-01-21 22:18:56.75	109.13	1.33	-50.4	-63.3	3.5	1.52e+00	0	40	104	0	60	51615
2026-01-21 22:18:57.73	109.08	1.38	-50.5	-63.4	3.5	1.52e+00	0	40	104	0	60	51716
2026-01-21 22:18:58.71	109.04	1.44	-50.2	-63.2	3.5	1.52e+00	0	40	104	0	60	51003
2026-01-21 22:18:59.68	108.99	1.50	-50.1	-62.9	3.5	1.52e+00	0	40	104	0	60	48872
2026-01-21 22:19:00.66	108.94	1.56	-50.1	-62.9	3.5	1.51e+00	0	40	104	0	60	48851
2026-01-21 22:19:01.64	108.89	1.61	-48.1	-62.3	3.5	1.52e+00	0	40	104	0	60	45613
2026-01-21 22:19:02.61	108.84	1.67	-48.2	-61.8	3.5	1.52e+00	0	40	104	0	60	43243
2026-01-21 22:19:03.58	108.79	1.73	-48.3	-61.8	3.5	1.51e+00	0	40	104	0	60	43025
2026-01-21 22:19:04.56	108.74	1.78	-48.3	-61.8	3.5	1.52e+00	0	40	104	0	60	43034
2026-01-21 22:19:05.54	108.69	1.84	-48.1	-61.7	3.5	1.52e+00	0	40	104	0	60	42649
2026-01-21 22:19:06.52	108.64	1.90	-48.0	-61.7	3.5	1.52e+00	0	40	104	0	60	42515
2026-01-21 22:19:07.49	108.59	1.96	-48.0	-61.7	3.5	1.52e+00	0	40	104	0	60	42603
2026-01-21 22:19:08.47	108.54	2.02	-48.0	-61.7	3.5	1.52e+00	0	40	104	0	60	42815
2026-01-21 22:19:09.44	108.49	2.07	-47.7	-61.7	3.5	1.52e+00	0	40	104	0	60	42666
2026-01-21 22:19:10.42	108.44	2.13	-47.7	-61.8	3.5	1.52e+00	0	40	104	0	60	43037
2026-01-21 22:19:11.40	108.39	2.19	-47.6	-61.8	3.5	1.52e+00	0	40	104	0	60	43253
2026-01-21 22:19:12.38	108.34	2.25	-47.8	-61.7	3.5	1.52e+00	0	40	104	0	60	42922
2026-01-21 22:19:13.35	108.29	2.31	-47.7	-61.8	3.5	1.52e+00	0	40	104	0	60	42944
2026-01-21 22:19:14.33	108.24	2.37	-47.6	-61.8	3.5	1.52e+00	0	40	104	0	60	43076
2026-01-21 22:19:15.31	108.18	2.43	-47.4	-61.7	3.5	1.52e+00	0	40	104	0	60	42867
2026-01-21 22:19:16.29	108.13	2.48	-47.8	-61.7	3.5	1.51e+00	0	40	104	0	60	42712
2026-01-21 22:19:17.27	108.08	2.54	-47.6	-61.7	3.5	1.52e+00	0	40	104	0	60	42795
2026-01-21 22:19:18.25	108.03	2.60	-47.5	-61.7	3.5	1.52e+00	0	40	104	0	60	42477
2026-01-21 22:19:19.22	107.97	2.66	-47.7	-61.6	3.5	1.52e+00	0	41	104	0	60	42392
2026-01-21 22:19:20.20	107.92	2.72	-47.8	-61.5	3.5	1.52e+00	0	41	104	0	60	41888
2026-01-21 22:19:21.17	107.87	2.78	-47.6	-61.3	3.5	1.52e+00	0	40	104	0	60	40621
2026-01-21 22:19:22.15	107.82	2.84	-47.7	-61.4	3.5	1.52e+00	0	40	104	0	60	41237
2026-01-21 22:19:23.13	107.76	2.90	-47.8	-61.3	3.5	1.52e+00	0	40	104	0	60	40693
2026-01-21 22:19:24.11	107.71	2.96	-47.8	-61.3	3.5	1.52e+00	0	41	104	0	60	40619
2026-01-21 22:19:25.09	107.65	3.02	-47.7	-61.1	3.5	1.51e+00	0	41	104	0	60	39959
2026-01-21 22:19:26.06	107.60	3.08	-47.4	-60.7	3.5	1.52e+00	0	41	104	0	60	38093
2026-01-21 22:19:27.04	107.54	3.14	-47.7	-60.4	3.5	1.51e+00	0	41	104	0	60	36957
2026-01-21 22:19:28.02	107.49	3.20	-47.6	-59.8	3.6	1.51e+00	0	41	104	0	60	34191
2026-01-21 22:19:29.00	107.43	3.26	-47.6	-59.9	3.5	1.51e+00	0	41	104	0	60	34612
2026-01-21 22:19:29.99	107.38	3.32	-47.3	-59.6	3.7	1.51e+00	0	41	104	0	60	33552
2026-01-21 22:19:30.96	107.32	3.38	-47.2	-59.8	3.7	1.50e+00	0	40	104	0	60	34199
2026-01-21 22:19:31.94	107.27	3.44	-46.9	-58.0	4.4	1.45e+00	0	41	104	0	60	28024
2026-01-21 22:19:32.91	107.21	3.50	-46.5	-55.4	6.2	6.40e-01	0	41	104	0	60	20576
2026-01-21 22:19:33.89	107.16	3.56	-46.0	-51.9	8.9	3.94e-02	0	41	0	2097152	60	13772
2026-01-21 22:19:34.87	107.10	3.62	-48.5	-62.3	3.5	1.46e+00	0	41	104	3145728	60	45577
2026-01-21 22:19:35.85	107.04	3.68	-47.8	-55.7	4.3	1.51e+00	0	41	104	3145728	60	21460
2026-01-21 22:19:36.82	106.99	3.74	-45.9	-60.6	3.5	9.10e-01	0	41	104	3145728	60	37416
2026-01-21 22:19:37.80	106.93	3.81	-48.6	-61.0	3.5	1.50e+00	0	41	104	3145728	60	39318
2026-01-21 22:19:38.78	106.87	3.87	-43.3	-46.4	5.1	1.43e+00	0	41	104	3145728	60	7331
2026-01-21 22:19:39.76	106.81	3.93	-42.7	-45.4	16.0	0.00e+00	0	41	0	3145728	58	7343
2026-01-21 22:19:40.74	106.76	3.99	-42.5	-44.8	16.6	0.00e+00	0	41	0	3145728	58	6838
2026-01-21 22:19:41.72	106.70	4.05	-43.1	-45.4	16.2	0.00e+00	0	41	0	3145728	58	7312
2026-01-21 22:19:42.70	106.64	4.11	-42.8	-44.9	16.5	0.00e+00	0	41	0	3145728	58	6914
2026-01-21 22:19:43.67	106.58	4.18	-42.3	-44.0	17.2	0.00e+00	0	41	0	3145728	58	6264
2026-01-21 22:19:44.65	106.52	4.24	-43.4	-45.4	16.1	0.00e+00	0	41	0	3145728	60	6504
2026-01-21 22:19:45.62	106.46	4.30	-42.8	-44.8	16.5	0.00e+00	0	41	0	3145728	58	6812
2026-01-21 22:19:46.60	106.40	4.36	-41.5	-43.2	18.3	0.00e+00	0	41	0	3145728	56	6362
2026-01-21 22:19:47.58	106.34	4.42	-42.0	-43.8	17.3	0.00e+00	0	41	0	3145728	56	6830
2026-01-21 22:19:48.56	106.28	4.49	-42.2	-44.0	17.4	0.00e+00	0	41	0	3145728	56	6963
2026-01-21 22:19:49.54	106.22	4.55	-42.0	-43.7	17.8	0.00e+00	0	41	0	3145728	56	6802
2026-01-21 22:19:50.51	106.16	4.61	-42.2	-44.0	17.7	0.00e+00	0	41	101	3145728	56	6984
2026-01-21 22:19:51.49	106.10	4.67	-41.1	-42.7	18.6	0.00e+00	0	41	101	3145728	56	6045
2026-01-21 22:19:52.46	106.04	4.74	-41.2	-42.8	18.9	0.00e+00	0	41	101	3145728	56	6086
2026-01-21 22:19:53.44	105.98	4.80	-41.0	-42.6	18.8	0.00e+00	0	41	101	3145728	56	5934
2026-01-21 22:19:54.42	105.92	4.86	-40.6	-42.2	19.4	0.00e+00	0	41	101	3145728	54	6383
2026-01-21 22:19:55.40	105.85	4.93	-40.5	-42.1	19.5	0.00e+00	0	41	101	3145728	54	6301
2026-01-21 22:19:56.38	105.79	4.99	-40.5	-42.0	19.5	0.00e+00	0	41	101	3145728	54	6239
2026-01-21 22:19:57.36	105.73	5.05	-40.2	-41.7	20.0	0.00e+00	0	41	101	3145728	54	6050
2026-01-21 22:19:58.33	105.67	5.12	-39.8	-41.4	20.2	0.00e+00	0	41	101	3145728	52	6500
2026-01-21 22:19:59.31	105.60	5.18	-39.6	-41.1	20.3	0.00e+00	0	41	101	3145728	52	6333
2026-01-21 22:20:00.29	105.54	5.24	-39.7	-41.2	20.3	0.00e+00	0	41	101	3145728	52	6397
2026-01-21 22:20:01.27	105.48	5.31	-39.3	-40.7	20.7	0.00e+00	0	41	101	3145728	52	6003
2026-01-21 22:20:02.25	105.41	5.37	-39.4	-40.8	20.5	0.00e+00	0	41	101	3145728	52	6093
2026-01-21 22:20:03.23	105.35	5.44	-39.4	-40.7	20.6	0.00e+00	0	41	101	3145728	52	6049
2026-01-21 22:20:04.21	105.28	5.50	-39.5	-40.8	20.6	0.00e+00	0	41	101	3145728	52	6134
2026-01-21 22:20:05.18	105.22	5.57	-39.8	-41.1	20.2	0.00e+00	0	41	101	3145728	52	6281
2026-01-21 22:20:06.16	105.15	5.63	-39.7	-40.9	20.5	0.00e+00	0	41	101	3145728	52	6162
2026-01-21 22:20:07.14	105.09	5.70	-39.4	-40.6	20.9	0.00e+00	0	41	101	3145728	52	5945
2026-01-21 22:20:08.12	105.02	5.76	-39.0	-40.1	21.3	0.00e+00	0	41	101	3145728	52	5654
2026-01-21 22:20:09.09	104.96	5.82	-39.6	-40.8	20.8	0.00e+00	0	41	101	3145728	52	6099
2026-01-21 22:20:10.07	104.89	5.89	-39.6	-40.8	20.8	0.00e+00	0	41	101	3145728	52	6091
2026-01-21 22:20:11.05	104.82	5.96	-39.5	-40.6	20.9	0.00e+00	0	41	101	3145728	52	5990
2026-01-21 22:20:12.03	104.76	6.02	-39.5	-40.6	21.0	0.00e+00	0	41	101	3145728	52	5972
2026-01-21 22:20:13.01	104.69	6.09	-39.5	-40.7	20.9	0.00e+00	0	41	101	3145728	52	6000
2026-01-21 22:20:13.99	104.62	6.15	-39.7	-40.8	20.7	0.00e+00	0	41	101	3145728	52	6128
2026-01-21 22:20:14.97	104.55	6.22	-39.4	-40.6	20.9	0.00e+00	0	41	101	3145728	52	5935
2026-01-21 22:20:15.94	104.48	6.28	-39.6	-40.8	20.9	0.00e+00	0	41	101	3145728	52	6068
2026-01-21 22:20:16.92	104.42	6.35	-39.5	-40.6	21.0	0.00e+00	0	41	101	3145728	52	5948
2026-01-21 22:20:17.90	104.35	6.42	-39.8	-41.0	20.7	0.00e+00	0	41	101	3145728	52	6221
2026-01-21 22:20:18.88	104.28	6.48	-39.3	-40.4	21.3	0.00e+00	0	41	101	3145728	52	5808
2026-01-21 22:20:19.86	104.21	6.55	-39.3	-40.3	21.4	0.00e+00	0	41	101	3145728	52	5786
2026-01-21 22:20:20.83	104.14	6.61	-39.4	-40.5	21.3	0.00e+00	0	41	101	3145728	52	5880
2026-01-21 22:20:21.81	104.07	6.68	-39.4	-40.5	21.2	0.00e+00	0	41	101	3145728	52	5899
2026-01-21 22:20:22.79	104.00	6.75	-39.5	-40.7	21.0	0.00e+00	0	41	101	3145728	52	6026
2026-01-21 22:20:23.77	103.93	6.81	-39.6	-40.8	21.1	0.00e+00	0	41	101	3145728	52	6086
2026-01-21 22:20:24.75	103.85	6.88	-39.3	-40.4	21.3	0.00e+00	0	41	101	3145728	52	5815
2026-01-21 22:20:25.72	103.78	6.95	-39.1	-40.2	21.5	0.00e+00	0	41	101	3145728	52	5676
2026-01-21 22:20:26.70	103.71	7.02	-39.2	-40.4	21.3	0.00e+00	0	41	101	3145728	52	5796
2026-01-21 22:20:27.68	103.64	7.08	-39.0	-40.1	21.6	0.00e+00	0	41	101	3145728	52	5598
2026-01-21 22:20:28.66	103.57	7.15	-39.3	-40.5	21.2	0.00e+00	0	41	101	3145728	52	5861
2026-01-21 22:20:29.63	103.49	7.22	-38.7	-39.7	21.7	0.00e+00	0	41	101	3145728	50	6044
2026-01-21 22:20:30.61	103.42	7.29	-38.8	-39.9	21.5	0.00e+00	0	41	101	3145728	50	6142
2026-01-21 22:20:31.58	103.35	7.35	-38.8	-39.9	21.6	0.00e+00	0	41	101	3145728	50	6171
2026-01-21 22:20:32.56	103.27	7.42	-38.8	-39.8	21.6	0.00e+00	0	41	101	3145728	50	6127
2026-01-21 22:20:33.54	103.20	7.49	-38.7	-39.8	21.7	0.00e+00	0	41	101	3145728	50	6080
2026-01-21 22:20:34.51	103.12	7.56	-38.9	-40.0	21.5	0.00e+00	0	41	101	3145728	50	6229
2026-01-21 22:20:35.49	103.05	7.63	-38.9	-39.9	21.4	0.00e+00	0	41	101	3145728	50	6183
2026-01-21 22:20:36.47	102.97	7.69	-38.7	-39.8	21.5	0.00e+00	0	41	101	3145728	50	6084
2026-01-21 22:20:37.45	102.90	7.76	-38.8	-39.9	21.3	0.00e+00	0	41	101	3145728	50	6182
2026-01-21 22:20:38.43	102.82	7.83	-38.8	-40.0	21.2	0.00e+00	0	41	101	3145728	50	6246
2026-01-21 22:20:39.41	102.74	7.90	-38.4	-39.6	21.7	0.00e+00	0	41	101	3145728	50	5945
2026-01-21 22:20:40.38	102.67	7.97	-38.6	-39.9	21.5	0.00e+00	0	41	101	3145728	50	6169
2026-01-21 22:20:41.36	102.59	8.04	-38.2	-39.5	21.9	0.00e+00	0	41	101	3145728	50	5879
2026-01-21 22:20:42.34	102.51	8.11	-38.5	-39.8	21.7	0.00e+00	0	41	101	3145728	50	6098
2026-01-21 22:20:43.32	102.43	8.18	-38.5	-39.8	21.8	0.00e+00	0	41	101	3145728	50	6072
2026-01-21 22:20:44.30	102.35	8.25	-38.7	-39.9	21.8	0.00e+00	0	41	101	3145728	50	6186
2026-01-21 22:20:45.27	102.28	8.32	-38.4	-39.7	21.9	0.00e+00	0	41	101	3145728	50	6004
2026-01-21 22:20:46.25	102.20	8.39	-38.8	-40.0	21.7	0.00e+00	0	41	101	3145728	50	6270
2026-01-21 22:20:47.23	102.12	8.46	-39.6	-40.9	20.9	0.00e+00	0	41	101	3145728	50	6932
2026-01-21 22:20:48.21	102.04	8.53	-38.9	-40.1	21.6	0.00e+00	0	41	101	3145728	50	6316
2026-01-21 22:20:49.19	101.96	8.60	-38.8	-40.0	21.7	0.00e+00	0	41	101	3145728	50	6219
2026-01-21 22:20:50.16	101.88	8.67	-38.8	-39.9	21.9	0.00e+00	0	41	101	3145728	50	6155
2026-01-21 22:20:51.14	101.79	8.74	-38.4	-39.5	22.3	0.00e+00	0	41	101	3145728	50	5881
2026-01-21 22:20:52.11	101.71	8.81	-38.3	-39.4	22.4	0.00e+00	0	41	101	3145728	50	5808
2026-01-21 22:20:53.09	101.63	8.88	-38.4	-39.4	22.3	0.00e+00	0	41	101	3145728	50	5829
2026-01-21 22:20:54.07	101.55	8.95	-38.4	-39.4	22.3	0.00e+00	0	41	101	3145728	50	5832
2026-01-21 22:20:55.05	101.46	9.02	-38.6	-39.6	22.2	0.00e+00	0	41	101	3145728	50	5967
2026-01-21 22:20:56.02	101.38	9.10	-38.1	-39.1	22.7	0.00e+00	0	41	101	3145728	50	5603
2026-01-21 22:20:57.00	101.30	9.17	-38.2	-39.2	22.5	0.00e+00	0	41	101	3145728	50	5701
2026-01-21 22:20:57.98	101.21	9.24	-38.3	-39.3	22.5	0.00e+00	0	41	101	3145728	50	5758
2026-01-21 22:20:58.95	101.13	9.31	-38.1	-39.1	22.7	0.00e+00	0	41	101	3145728	50	5598
2026-01-21 22:20:59.93	101.04	9.38	-38.2	-39.2	22.5	0.00e+00	0	41	101	3145728	50	5683
2026-01-21 22:21:00.90	100.96	9.45	-38.3	-39.3	22.4	0.00e+00	0	41	101	3145728	50	5745
2026-01-21 22:21:01.88	100.87	9.53	-38.2	-39.2	22.5	0.00e+00	0	41	101	3145728	50	5700
2026-01-21 22:21:02.86	100.79	9.60	-38.2	-39.2	22.5	0.00e+00	0	41	101	3145728	50	5706
2026-01-21 22:21:03.83	100.70	9.67	-38.3	-39.3	22.4	0.00e+00	0	41	101	3145728	50	5735
2026-01-21 22:21:04.81	100.61	9.74	-38.2	-39.2	22.4	0.00e+00	0	41	101	3145728	50	5693
2026-01-21 22:21:05.79	100.52	9.82	-38.1	-39.1	22.6	0.00e+00	0	41	101	3145728	50	5640
2026-01-21 22:21:06.77	100.44	9.89	-38.1	-39.2	22.6	0.00e+00	0	41	101	3145728	50	5674
2026-01-21 22:21:07.75	100.35	9.96	-38.3	-39.3	22.4	0.00e+00	0	41	101	3145728	50	5741
2026-01-21 22:21:08.73	100.26	10.04	-37.9	-38.9	22.8	0.00e+00	0	41	101	3145728	50	5509
2026-01-21 22:21:09.70	100.17	10.11	-38.1	-39.1	22.5	0.00e+00	0	41	101	3145728	50	5634
2026-01-21 22:21:10.68	100.08	10.18	-38.1	-39.0	22.6	0.00e+00	0	41	101	3145728	50	5590
2026-01-21 22:21:11.66	99.99	10.26	-38.1	-39.1	22.5	0.00e+00	0	41	101	3145728	50	5634
2026-01-21 22:21:12.63	99.90	10.33	-38.1	-39.1	22.4	0.00e+00	0	41	101	3145728	50	5648
2026-01-21 22:21:13.61	99.81	10.40	-38.1	-39.1	22.5	0.00e+00	0	41	101	3145728	50	5622
2026-01-21 22:21:14.59	99.71	10.48	-38.2	-39.2	22.5	0.00e+00	0	41	101	3145728	50	5697
2026-01-21 22:21:15.57	99.62	10.55	-37.9	-38.9	22.8	0.00e+00	0	41	101	3145728	50	5477
2026-01-21 22:21:16.54	99.53	10.63	-37.9	-38.9	22.8	0.00e+00	0	41	101	3145728	50	5471
2026-01-21 22:21:17.51	99.44	10.70	-38.0	-39.0	22.6	0.00e+00	0	41	101	3145728	50	5574
2026-01-21 22:21:18.49	99.34	10.78	-37.8	-38.8	22.7	0.00e+00	0	41	101	3145728	50	5442
2026-01-21 22:21:19.47	99.25	10.85	-37.8	-38.8	22.7	0.00e+00	0	41	101	3145728	48	6108
2026-01-21 22:21:20.45	99.15	10.93	-37.8	-38.8	22.8	0.00e+00	0	41	101	3145728	48	6090
2026-01-21 22:21:21.43	99.06	11.00	-37.9	-38.9	22.8	0.00e+00	0	41	101	3145728	48	6183
2026-01-21 22:21:22.40	98.96	11.08	-37.8	-38.8	23.0	0.00e+00	0	41	101	3145728	48	6084
2026-01-21 22:21:23.38	98.87	11.15	-37.8	-38.8	22.9	0.00e+00	0	41	101	3145728	48	6124
2026-01-21 22:21:24.36	98.77	11.23	-37.6	-38.6	23.1	0.00e+00	0	41	101	3145728	48	5969
2026-01-21 22:21:25.33	98.67	11.30	-37.7	-38.7	23.0	0.00e+00	0	41	101	3145728	48	6041
2026-01-21 22:21:26.31	98.57	11.38	-37.7	-38.7	23.0	0.00e+00	0	41	101	3145728	48	6033
2026-01-21 22:21:27.29	98.48	11.46	-37.6	-38.6	23.0	0.00e+00	0	41	101	3145728	48	5948
2026-01-21 22:21:28.27	98.38	11.53	-37.7	-38.7	23.0	0.00e+00	0	41	101	3145728	48	6039
2026-01-21 22:21:29.24	98.28	11.61	-37.5	-38.5	23.2	0.00e+00	0	41	101	3145728	48	5863
2026-01-21 22:21:30.22	98.18	11.69	-37.5	-38.5	23.0	0.00e+00	0	41	101	3145728	48	5901
2026-01-21 22:21:31.20	98.08	11.76	-37.4	-38.4	23.2	0.00e+00	0	41	101	3145728	48	5814
2026-01-21 22:21:32.18	97.98	11.84	-37.6	-38.6	23.0	0.00e+00	0	41	101	3145728	48	5958
2026-01-21 22:21:33.16	97.87	11.92	-37.4	-38.4	23.2	0.00e+00	0	41	101	3145728	48	5828
2026-01-21 22:21:34.13	97.77	11.99	-37.3	-38.2	23.3	0.00e+00	0	41	101	3145728	48	5708
2026-01-21 22:21:35.11	97.67	12.07	-37.4	-38.4	23.2	0.00e+00	0	41	101	3145728	48	5807
2026-01-21 22:21:36.09	97.57	12.15	-37.3	-38.2	23.4	0.00e+00	0	41	101	3145728	48	5706
2026-01-21 22:21:37.06	97.46	12.23	-37.5	-38.4	23.2	0.00e+00	0	41	101	3145728	48	5840
2026-01-21 22:21:38.04	97.36	12.30	-37.5	-38.5	23.2	0.00e+00	0	41	101	3145728	48	5881
2026-01-21 22:21:39.02	97.25	12.38	-37.4	-38.3	23.4	0.00e+00	0	41	101	3145728	48	5763
2026-01-21 22:21:40.00	97.15	12.46	-37.4	-38.3	23.4	0.00e+00	0	41	101	3145728	48	5768
2026-01-21 22:21:40.97	97.04	12.54	-37.3	-38.2	23.4	0.00e+00	0	41	101	3145728	48	5703
2026-01-21 22:21:41.95	96.93	12.62	-37.3	-38.2	23.4	0.00e+00	0	41	101	3145728	48	5690
2026-01-21 22:21:42.92	96.83	12.69	-37.1	-38.1	23.5	0.00e+00	0	41	101	3145728	48	5614
2026-01-21 22:21:43.90	96.72	12.77	-37.4	-38.3	23.5	0.00e+00	0	41	101	3145728	48	5777
2026-01-21 22:21:44.88	96.61	12.85	-37.4	-38.3	23.4	0.00e+00	0	41	101	3145728	48	5759
2026-01-21 22:21:45.86	96.50	12.93	-37.5	-38.5	23.3	0.00e+00	0	41	101	3145728	48	5876
2026-01-21 22:21:46.84	96.39	13.01	-37.1	-38.0	23.6	0.00e+00	0	41	101	3145728	48	5588
2026-01-21 22:21:47.82	96.28	13.09	-37.1	-38.0	23.6	0.00e+00	0	41	101	3145728	48	5583
2026-01-21 22:21:48.79	96.17	13.17	-37.2	-38.1	23.6	0.00e+00	0	41	101	3145728	48	5653
2026-01-21 22:21:49.77	96.06	13.25	-37.2	-38.1	23.5	0.00e+00	0	41	101	3145728	48	5643
2026-01-21 22:21:50.74	95.95	13.33	-37.1	-38.1	23.6	0.00e+00	0	41	101	3145728	48	5611
2026-01-21 22:21:51.72	95.84	13.41	-37.0	-38.0	23.6	0.00e+00	0	41	101	3145728	48	5540
2026-01-21 22:21:52.69	95.72	13.49	-37.1	-38.0	23.6	0.00e+00	0	41	101	3145728	48	5553
2026-01-21 22:21:53.67	95.61	13.57	-37.0	-38.0	23.7	0.00e+00	0	41	101	3145728	48	5561
2026-01-21 22:21:54.64	95.50	13.65	-36.9	-37.9	23.7	0.00e+00	0	41	101	3145728	48	5482
2026-01-21 22:21:55.62	95.38	13.73	-37.3	-38.2	23.5	0.00e+00	0	41	101	3145728	48	5710
2026-01-21 22:21:56.59	95.27	13.81	-36.9	-37.9	23.8	0.00e+00	0	41	101	3145728	48	5470
2026-01-21 22:21:57.57	95.15	13.89	-37.0	-37.9	23.8	0.00e+00	0	41	101	3145728	48	5507
2026-01-21 22:21:58.55	95.03	13.97	-37.0	-37.9	23.9	0.00e+00	0	41	101	3145728	48	5490
2026-01-21 22:21:59.53	94.91	14.05	-37.0	-38.0	23.8	0.00e+00	0	41	101	3145728	48	5532
2026-01-21 22:22:00.50	94.80	14.13	-36.9	-37.8	23.9	0.00e+00	0	41	101	3145728	48	5442
2026-01-21 22:22:01.48	94.68	14.21	-36.9	-37.9	23.9	0.00e+00	0	41	101	3145728	48	5476
2026-01-21 22:22:02.46	94.56	14.30	-36.8	-37.7	23.9	0.00e+00	0	41	101	3145728	46	6013
2026-01-21 22:22:03.44	94.44	14.38	-37.0	-37.9	23.8	0.00e+00	0	41	101	3145728	46	6150
2026-01-21 22:22:04.41	94.32	14.46	-37.0	-37.9	23.8	0.00e+00	0	41	101	3145728	46	6169
2026-01-21 22:22:05.39	94.19	14.54	-37.0	-37.9	23.7	0.00e+00	0	41	101	3145728	46	6197
2026-01-21 22:22:06.36	94.07	14.62	-37.1	-38.1	23.5	0.00e+00	0	41	101	3145728	46	6295
2026-01-21 22:22:07.34	93.95	14.70	-37.1	-38.0	23.7	0.00e+00	0	41	101	3145728	46	6233
2026-01-21 22:22:08.32	93.82	14.79	-37.0	-38.0	23.7	0.00e+00	0	41	101	3145728	46	6219
2026-01-21 22:22:09.30	93.70	14.87	-37.0	-38.0	23.7	0.00e+00	0	41	101	3145728	46	6207
2026-01-21 22:22:10.27	93.57	14.95	-37.3	-38.2	23.5	0.00e+00	0	41	101	3145728	46	6378
2026-01-21 22:22:11.25	93.45	15.04	-37.1	-38.1	23.6	0.00e+00	0	41	101	3145728	46	6289
2026-01-21 22:22:12.23	93.32	15.12	-37.2	-38.1	23.7	0.00e+00	0	41	101	3145728	46	6304
2026-01-21 22:22:13.21	93.19	15.20	-37.2	-38.1	23.7	0.00e+00	0	41	101	3145728	46	6334
2026-01-21 22:22:14.19	93.07	15.29	-37.3	-38.2	23.6	0.00e+00	0	41	101	3145728	46	6372
2026-01-21 22:22:15.17	92.94	15.37	-37.4	-38.3	23.6	0.00e+00	0	41	101	3145728	46	6464
2026-01-21 22:22:16.14	92.81	15.45	-37.4	-38.4	23.6	0.00e+00	0	41	101	3145728	46	6511
2026-01-21 22:22:17.12	92.68	15.54	-37.1	-38.0	23.8	0.00e+00	0	41	101	3145728	46	6253
2026-01-21 22:22:18.10	92.55	15.62	-37.2	-38.2	23.7	0.00e+00	0	41	101	3145728	46	6351
2026-01-21 22:22:19.07	92.41	15.70	-37.1	-38.1	23.7	0.00e+00	0	41	101	3145728	46	6279
2026-01-21 22:22:20.05	92.28	15.79	-37.1	-38.0	23.8	0.00e+00	0	41	101	3145728	46	6264
2026-01-21 22:22:21.03	92.15	15.87	-37.1	-38.0	23.7	0.00e+00	0	41	101	3145728	46	6268
2026-01-21 22:22:22.01	92.01	15.96	-37.0	-37.9	23.7	0.00e+00	0	41	101	3145728	46	6202
2026-01-21 22:22:22.99	91.88	16.04	-37.3	-38.3	23.4	0.00e+00	0	41	101	3145728	46	6432
2026-01-21 22:22:23.97	91.74	16.13	-37.2	-38.1	23.6	0.00e+00	0	41	101	3145728	46	6306
2026-01-21 22:22:24.95	91.61	16.21	-37.4	-38.4	23.5	0.00e+00	0	41	101	3145728	46	6517
2026-01-21 22:22:25.93	91.47	16.30	-37.3	-38.3	23.4	0.00e+00	0	41	101	3145728	46	6450
2026-01-21 22:22:26.92	91.33	16.38	-37.3	-38.3	23.4	0.00e+00	0	41	101	3145728	46	6432
2026-01-21 22:22:27.90	91.19	16.47	-37.3	-38.3	23.5	0.00e+00	0	41	101	3145728	46	6435
2026-01-21 22:22:28.88	91.05	16.55	-37.3	-38.3	23.5	0.00e+00	0	41	101	3145728	46	6429
2026-01-21 22:22:29.86	90.91	16.64	-37.3	-38.2	23.6	0.00e+00	0	41	101	3145728	46	6402
2026-01-21 22:22:30.84	90.77	16.72	-37.1	-38.1	23.8	0.00e+00	0	41	101	3145728	46	6292
2026-01-21 22:22:31.81	90.62	16.81	-37.3	-38.2	23.6	0.00e+00	0	41	101	3145728	46	6398
2026-01-21 22:22:32.79	90.48	16.89	-37.1	-38.0	23.8	0.00e+00	0	41	101	3145728	46	6240
2026-01-21 22:22:33.77	90.34	16.98	-37.1	-38.0	23.8	0.00e+00	0	41	101	3145728	46	6260
2026-01-21 22:22:34.74	90.19	17.07	-37.0	-38.0	23.9	0.00e+00	0	41	101	3145728	46	6207
2026-01-21 22:22:35.72	90.05	17.15	-37.0	-38.0	23.8	0.00e+00	0	41	101	3145728	46	6230
2026-01-21 22:22:36.70	89.90	17.24	-37.2	-38.1	23.7	0.00e+00	0	41	101	3145728	46	6337
2026-01-21 22:22:37.67	89.76	17.32	-37.1	-38.0	23.8	0.00e+00	0	41	101	3145728	46	6257
2026-01-21 22:22:38.65	89.61	17.41	-37.2	-38.1	23.7	0.00e+00	0	41	101	3145728	46	6326
2026-01-21 22:22:39.63	89.46	17.50	-37.2	-38.2	23.7	0.00e+00	0	41	101	3145728	46	6375
2026-01-21 22:22:40.61	89.31	17.58	-37.3	-38.2	23.7	0.00e+00	0	41	101	3145728	46	6391
2026-01-21 22:22:41.58	89.16	17.67	-37.4	-38.4	23.6	0.00e+00	0	41	101	3145728	46	6526
2026-01-21 22:22:42.57	89.01	17.76	-37.2	-38.2	23.7	0.00e+00	0	41	101	3145728	46	6358
2026-01-21 22:22:43.54	88.85	17.84	-37.2	-38.1	23.7	0.00e+00	0	41	101	3145728	46	6313
2026-01-21 22:22:44.52	88.70	17.93	-37.1	-38.1	23.8	0.00e+00	0	41	101	3145728	46	6278
2026-01-21 22:22:45.50	88.55	18.02	-37.1	-38.1	23.9	0.00e+00	0	41	101	3145728	46	6284
2026-01-21 22:22:46.47	88.39	18.10	-37.2	-38.1	23.9	0.00e+00	0	41	101	3145728	46	6300
2026-01-21 22:22:47.45	88.24	18.19	-37.1	-38.0	23.9	0.00e+00	0	41	101	3145728	46	6218
2026-01-21 22:22:48.43	88.08	18.28	-37.2	-38.1	23.8	0.00e+00	0	41	101	3145728	46	6310
2026-01-21 22:22:49.41	87.92	18.37	-37.0	-38.0	23.8	0.00e+00	0	41	101	3145728	46	6212
2026-01-21 22:22:50.38	87.76	18.45	-37.2	-38.1	23.8	0.00e+00	0	41	101	3145728	46	6327
2026-01-21 22:22:51.37	87.60	18.54	-37.2	-38.1	23.8	0.00e+00	0	41	101	3145728	46	6288
2026-01-21 22:22:52.34	87.44	18.63	-37.3	-38.2	23.7	0.00e+00	0	41	101	3145728	46	6383
2026-01-21 22:22:53.32	87.28	18.72	-37.4	-38.4	23.6	0.00e+00	0	41	101	3145728	46	6502
2026-01-21 22:22:54.30	87.12	18.81	-37.2	-38.1	23.9	0.00e+00	0	41	101	3145728	46	6325
2026-01-21 22:22:55.27	86.96	18.89	-37.0	-38.0	23.9	0.00e+00	0	41	101	3145728	46	6215
2026-01-21 22:22:56.25	86.79	18.98	-37.0	-37.9	24.0	0.00e+00	0	41	101	3145728	46	6180
2026-01-21 22:22:57.22	86.63	19.07	-37.0	-37.9	23.9	0.00e+00	0	41	101	3145728	46	6156
2026-01-21 22:22:58.20	86.46	19.16	-37.0	-37.9	24.0	0.00e+00	0	41	101	3145728	46	6166
2026-01-21 22:22:59.18	86.29	19.24	-36.9	-37.8	24.0	0.00e+00	0	41	101	3145728	46	6085
2026-01-21 22:23:00.16	86.12	19.33	-37.0	-37.8	23.9	0.00e+00	0	41	101	3145728	46	6133
2026-01-21 22:23:01.14	85.95	19.42	-37.2	-38.1	23.9	0.00e+00	0	41	101	3145728	46	6296
2026-01-21 22:23:02.12	85.78	19.51	-37.0	-38.0	23.9	0.00e+00	0	41	101	3145728	46	6212
2026-01-21 22:23:03.10	85.61	19.60	-36.8	-37.7	24.1	0.00e+00	0	41	101	3145728	46	6047
2026-01-21 22:23:04.08	85.44	19.69	-36.8	-37.7	24.1	0.00e+00	0	41	101	3145728	46	6025
2026-01-21 22:23:05.05	85.27	19.77	-36.8	-37.8	24.0	0.00e+00	0	41	101	3145728	46	6071
2026-01-21 22:23:06.03	85.09	19.86	-36.7	-37.6	24.1	0.00e+00	0	41	101	3145728	46	5991
2026-01-21 22:23:07.01	84.92	19.95	-36.7	-37.6	24.1	0.00e+00	0	41	101	3145728	46	5954
2026-01-21 22:23:07.99	84.74	20.04	-36.8	-37.7	24.1	0.00e+00	0	41	101	3145728	46	6006
2026-01-21 22:23:08.97	84.56	20.13	-36.9	-37.8	24.0	0.00e+00	0	41	101	3145728	46	6114
2026-01-21 22:23:09.95	84.38	20.22	-36.8	-37.7	24.1	0.00e+00	0	41	101	3145728	46	6027
2026-01-21 22:23:10.93	84.20	20.31	-36.6	-37.5	24.2	0.00e+00	0	41	101	3145728	46	5870
2026-01-21 22:23:11.91	84.02	20.40	-36.6	-37.5	24.1	0.00e+00	0	41	101	3145728	46	5919
2026-01-21 22:23:12.88	83.84	20.48	-36.7	-37.6	23.9	0.00e+00	0	41	101	3145728	46	5987
2026-01-21 22:23:13.86	83.66	20.57	-36.9	-37.8	24.0	0.00e+00	0	41	101	3145728	46	6128
2026-01-21 22:23:14.84	83.48	20.66	-36.9	-37.9	23.9	0.00e+00	0	41	101	3145728	46	6136
2026-01-21 22:23:15.82	83.29	20.75	-36.9	-37.8	24.0	0.00e+00	0	41	101	3145728	46	6109
2026-01-21 22:23:16.80	83.10	20.84	-36.8	-37.7	24.2	0.00e+00	0	41	101	3145728	46	6046
2026-01-21 22:23:17.77	82.92	20.93	-36.9	-37.8	24.1	0.00e+00	0	41	101	3145728	46	6091
2026-01-21 22:23:18.75	82.73	21.01	-36.8	-37.7	24.2	0.00e+00	0	41	101	3145728	46	6040
2026-01-21 22:23:19.73	82.54	21.10	-36.6	-37.5	24.3	0.00e+00	0	41	101	3145728	46	5874
2026-01-21 22:23:20.71	82.35	21.19	-36.5	-37.4	24.3	0.00e+00	0	41	101	3145728	46	5798
2026-01-21 22:23:21.68	82.16	21.28	-36.5	-37.4	24.2	0.00e+00	0	41	101	3145728	46	5857
2026-01-21 22:23:22.66	81.97	21.37	-36.5	-37.4	24.3	0.00e+00	0	41	101	3145728	46	5832
2026-01-21 22:23:23.64	81.77	21.46	-36.4	-37.3	24.4	0.00e+00	0	41	101	3145728	46	5748
2026-01-21 22:23:24.62	81.58	21.55	-36.3	-37.2	24.5	0.00e+00	0	41	101	3145728	46	5692
2026-01-21 22:23:25.59	81.38	21.63	-36.3	-37.2	24.5	0.00e+00	0	41	101	3145728	46	5662
2026-01-21 22:23:26.57	81.19	21.72	-36.2	-37.1	24.6	0.00e+00	0	41	101	3145728	46	5640
2026-01-21 22:23:27.55	80.99	21.81	-36.2	-37.1	24.6	0.00e+00	0	41	101	3145728	46	5628
2026-01-21 22:23:28.53	80.79	21.90	-36.4	-37.3	24.5	0.00e+00	0	41	101	3145728	46	5738
2026-01-21 22:23:29.51	80.59	21.99	-36.3	-37.2	24.5	0.00e+00	0	41	101	3145728	46	5702
2026-01-21 22:23:30.48	80.39	22.07	-36.3	-37.2	24.5	0.00e+00	0	41	101	3145728	46	5723
2026-01-21 22:23:31.46	80.19	22.16	-36.4	-37.3	24.4	0.00e+00	0	41	101	3145728	46	5740
2026-01-21 22:23:32.43	79.98	22.25	-36.4	-37.3	24.3	0.00e+00	0	41	101	3145728	46	5770
2026-01-21 22:23:33.41	79.78	22.34	-36.5	-37.4	24.3	0.00e+00	0	41	101	3145728	46	5835
2026-01-21 22:23:34.39	79.57	22.42	-36.2	-37.1	24.6	0.00e+00	0	41	101	3145728	46	5638
2026-01-21 22:23:35.37	79.36	22.51	-36.2	-37.1	24.6	0.00e+00	0	41	101	3145728	46	5616
2026-01-21 22:23:36.35	79.16	22.60	-36.1	-37.1	24.7	0.00e+00	0	41	101	3145728	46	5596
2026-01-21 22:23:37.32	78.95	22.69	-36.0	-36.9	24.8	0.00e+00	0	41	101	3145728	46	5499
2026-01-21 22:23:38.30	78.74	22.77	-36.2	-37.1	24.5	0.00e+00	0	42	101	3145728	46	5638
2026-01-21 22:23:39.28	78.52	22.86	-36.0	-36.9	24.7	0.00e+00	0	41	101	3145728	46	5484
2026-01-21 22:23:40.25	78.31	22.95	-36.0	-36.9	24.6	0.00e+00	0	42	101	3145728	46	5514
2026-01-21 22:23:41.23	78.10	23.03	-36.1	-37.0	24.6	0.00e+00	0	42	101	3145728	46	5579
2026-01-21 22:23:42.21	77.88	23.12	-36.1	-37.0	24.7	0.00e+00	0	41	101	3145728	46	5564
2026-01-21 22:23:43.19	77.66	23.21	-36.1	-37.0	24.7	0.00e+00	0	42	101	3145728	46	5556
2026-01-21 22:23:44.17	77.45	23.29	-36.0	-36.9	24.7	0.00e+00	0	42	101	3145728	46	5483
2026-01-21 22:23:45.15	77.23	23.38	-35.9	-36.8	24.8	0.00e+00	0	41	101	3145728	46	5428
2026-01-21 22:23:46.12	77.01	23.47	-35.9	-36.8	24.7	0.00e+00	0	41	101	3145728	46	5431
2026-01-21 22:23:47.10	76.79	23.55	-35.8	-36.7	24.9	0.00e+00	0	41	101	3145728	46	5361
2026-01-21 22:23:48.08	76.56	23.64	-35.9	-36.8	24.8	0.00e+00	0	41	101	3145728	46	5432
2026-01-21 22:23:49.06	76.34	23.72	-35.9	-36.8	24.7	0.00e+00	0	41	101	3145728	46	5450
2026-01-21 22:23:50.04	76.11	23.81	-35.9	-36.8	24.8	0.00e+00	0	42	101	3145728	46	5426
2026-01-21 22:23:51.02	75.88	23.89	-36.0	-36.9	24.7	0.00e+00	0	42	101	3145728	46	5481
2026-01-21 22:23:51.99	75.66	23.98	-36.1	-37.0	24.6	0.00e+00	0	41	101	3145728	46	5547
2026-01-21 22:23:52.97	75.43	24.06	-36.2	-37.1	24.5	0.00e+00	0	41	101	3145728	46	5596
2026-01-21 22:23:53.95	75.20	24.15	-36.3	-37.3	24.4	0.00e+00	0	41	101	3145728	46	5726
2026-01-21 22:23:54.93	74.97	24.23	-36.3	-37.2	24.4	0.00e+00	0	42	101	3145728	46	5712
2026-01-21 22:23:55.90	74.74	24.31	-36.4	-37.3	24.3	0.00e+00	0	42	101	3145728	46	5772
2026-01-21 22:23:56.88	74.50	24.40	-36.6	-37.5	24.2	0.00e+00	0	41	101	3145728	46	5916
2026-01-21 22:23:57.87	74.26	24.48	-37.0	-38.0	23.9	0.00e+00	0	41	101	3145728	46	6214
2026-01-21 22:23:58.84	74.03	24.56	-36.9	-37.8	24.1	0.00e+00	0	41	101	3145728	46	6134
2026-01-21 22:23:59.82	73.79	24.65	-37.3	-38.2	24.0	0.00e+00	0	41	101	3145728	46	6394
2026-01-21 22:24:00.80	73.55	24.73	-36.8	-37.7	24.2	0.00e+00	0	41	101	3145728	46	6010
2026-01-21 22:24:01.78	73.31	24.81	-37.1	-38.0	24.1	0.00e+00	0	41	101	3145728	46	6250
2026-01-21 22:24:02.75	73.07	24.89	-37.2	-38.1	24.2	0.00e+00	0	41	101	3145728	48	5633
2026-01-21 22:24:03.73	72.83	24.98	-36.9	-37.8	24.1	0.00e+00	0	41	101	3145728	48	5429
2026-01-21 22:24:04.71	72.58	25.06	-36.7	-37.6	24.3	0.00e+00	0	42	101	3145728	46	5944
2026-01-21 22:24:05.68	72.34	25.14	-36.8	-37.7	24.3	0.00e+00	0	42	101	3145728	46	6042
2026-01-21 22:24:06.66	72.09	25.22	-36.8	-37.7	24.2	0.00e+00	0	42	101	3145728	46	6043
2026-01-21 22:24:07.64	71.84	25.30	-37.0	-37.9	24.2	0.00e+00	0	42	101	3145728	46	6187
2026-01-21 22:24:08.62	71.59	25.38	-36.9	-37.8	24.2	0.00e+00	0	41	101	3145728	46	6075
2026-01-21 22:24:09.60	71.34	25.46	-36.7	-37.6	24.3	0.00e+00	0	41	101	3145728	46	5932
2026-01-21 22:24:10.57	71.09	25.54	-36.6	-37.5	24.4	0.00e+00	0	41	101	3145728	46	5895
2026-01-21 22:24:11.55	70.84	25.62	-36.6	-37.5	24.2	0.00e+00	0	41	101	3145728	46	5912
2026-01-21 22:24:12.53	70.58	25.69	-36.6	-37.5	24.2	0.00e+00	0	42	101	3145728	46	5883
2026-01-21 22:24:13.51	70.33	25.77	-36.8	-37.7	24.2	0.00e+00	0	41	101	3145728	46	6060
2026-01-21 22:24:14.49	70.07	25.85	-36.8	-37.7	24.0	0.00e+00	0	42	101	3145728	46	6036
2026-01-21 22:24:15.47	69.81	25.93	-37.0	-37.9	23.9	0.00e+00	0	42	101	3145728	46	6156
2026-01-21 22:24:16.45	69.55	26.00	-36.7	-37.6	24.3	0.00e+00	0	42	101	3145728	46	5929
2026-01-21 22:24:17.43	69.29	26.08	-36.4	-37.3	24.5	0.00e+00	0	41	101	3145728	46	5767
2026-01-21 22:24:18.41	69.03	26.16	-36.4	-37.3	24.3	0.00e+00	0	41	101	3145728	46	5791
2026-01-21 22:24:19.38	68.77	26.23	-36.4	-37.3	24.3	0.00e+00	0	41	101	3145728	46	5743
2026-01-21 22:24:20.36	68.50	26.31	-36.7	-37.6	24.1	0.00e+00	0	41	101	3145728	46	5934
2026-01-21 22:24:21.34	68.24	26.38	-36.7	-37.6	24.1	0.00e+00	0	42	101	3145728	46	5987
2026-01-21 22:24:22.32	67.97	26.46	-36.8	-37.8	24.0	0.00e+00	0	42	101	3145728	46	6072
2026-01-21 22:24:23.29	67.70	26.53	-36.8	-37.8	24.1	0.00e+00	0	42	101	3145728	46	6083
2026-01-21 22:24:24.27	67.43	26.60	-36.9	-37.8	24.1	0.00e+00	0	42	101	3145728	46	6083
2026-01-21 22:24:25.25	67.16	26.68	-37.0	-38.0	23.9	0.00e+00	0	42	101	3145728	46	6206
2026-01-21 22:24:26.23	66.89	26.75	-36.9	-37.9	24.1	0.00e+00	0	42	101	3145728	46	6141
2026-01-21 22:24:27.22	66.61	26.82	-37.0	-37.9	24.1	0.00e+00	0	42	101	3145728	46	6170
2026-01-21 22:24:28.19	66.34	26.89	-37.0	-37.9	24.1	0.00e+00	0	42	101	3145728	46	6146
2026-01-21 22:24:29.17	66.07	26.96	-37.2	-38.1	23.9	0.00e+00	0	42	101	3145728	46	6295
2026-01-21 22:24:30.15	65.79	27.03	-37.0	-37.9	24.0	0.00e+00	0	42	101	3145728	46	6157
2026-01-21 22:24:31.13	65.51	27.10	-36.9	-37.9	24.0	0.00e+00	0	42	101	3145728	46	6137
2026-01-21 22:24:32.11	65.23	27.17	-37.0	-37.9	24.1	0.00e+00	0	42	101	3145728	46	6164
2026-01-21 22:24:33.09	64.95	27.24	-36.9	-37.8	24.1	0.00e+00	0	42	101	3145728	46	6084
2026-01-21 22:24:34.07	64.67	27.31	-36.5	-37.4	24.4	0.00e+00	0	42	101	3145728	46	5828
2026-01-21 22:24:35.04	64.39	27.37	-36.4	-37.3	24.5	0.00e+00	0	42	101	3145728	46	5762
2026-01-21 22:24:36.02	64.10	27.44	-36.5	-37.3	24.3	0.00e+00	0	42	101	3145728	46	5782
2026-01-21 22:24:36.99	63.82	27.50	-36.5	-37.4	24.2	0.00e+00	0	42	101	3145728	46	5854
2026-01-21 22:24:37.97	63.53	27.57	-36.7	-37.6	24.3	0.00e+00	0	41	101	3145728	46	5939
2026-01-21 22:24:38.94	63.25	27.63	-36.8	-37.7	24.3	0.00e+00	0	42	101	3145728	46	6011
2026-01-21 22:24:39.92	62.96	27.70	-36.6	-37.5	24.4	0.00e+00	0	42	101	3145728	46	5910
2026-01-21 22:24:40.90	62.67	27.76	-36.4	-37.3	24.5	0.00e+00	0	42	101	3145728	46	5756
2026-01-21 22:24:41.88	62.38	27.82	-36.3	-37.2	24.7	0.00e+00	0	42	101	3145728	46	5683
2026-01-21 22:24:42.86	62.08	27.88	-36.3	-37.2	24.6	0.00e+00	0	41	101	3145728	46	5693
2026-01-21 22:24:43.84	61.79	27.95	-36.3	-37.2	24.6	0.00e+00	0	42	101	3145728	46	5671
2026-01-21 22:24:44.82	61.49	28.01	-36.5	-37.4	24.3	0.00e+00	0	42	101	3145728	46	5818
2026-01-21 22:24:45.80	61.20	28.07	-36.8	-37.7	24.2	0.00e+00	0	42	101	3145728	46	6019
2026-01-21 22:24:46.77	60.90	28.12	-36.7	-37.6	24.3	0.00e+00	0	42	101	3145728	46	5983
2026-01-21 22:24:47.75	60.61	28.18	-36.6	-37.6	24.3	0.00e+00	0	42	101	3145728	46	5927
2026-01-21 22:24:48.73	60.31	28.24	-36.7	-37.6	24.3	0.00e+00	0	41	101	3145728	46	5982
2026-01-21 22:24:49.71	60.01	28.30	-36.6	-37.5	24.3	0.00e+00	0	41	101	3145728	46	5916
2026-01-21 22:24:50.68	59.71	28.35	-36.8	-37.7	24.3	0.00e+00	0	41	101	3145728	46	6017
2026-01-21 22:24:51.66	59.40	28.41	-36.8	-37.8	24.2	0.00e+00	0	42	101	3145728	46	6066
2026-01-21 22:24:52.63	59.10	28.46	-36.6	-37.5	24.5	0.00e+00	0	42	101	3145728	46	5917
2026-01-21 22:24:53.61	58.80	28.52	-36.8	-37.7	24.4	0.00e+00	0	41	101	3145728	46	6009
2026-01-21 22:24:54.59	58.49	28.57	-36.6	-37.5	24.5	0.00e+00	0	41	101	3145728	46	5863
2026-01-21 22:24:55.57	58.19	28.62	-36.6	-37.5	24.4	0.00e+00	0	41	101	3145728	46	5861
2026-01-21 22:24:56.55	57.88	28.67	-36.6	-37.5	24.4	0.00e+00	0	41	101	3145728	46	5901
2026-01-21 22:24:57.53	57.57	28.72	-36.8	-37.7	24.2	0.00e+00	0	41	101	3145728	46	6044
2026-01-21 22:24:58.51	57.26	28.77	-36.8	-37.7	24.2	0.00e+00	0	42	101	3145728	46	6045
2026-01-21 22:24:59.49	56.95	28.82	-36.8	-37.7	24.3	0.00e+00	0	41	101	3145728	46	6008
2026-01-21 22:25:00.47	56.64	28.87	-37.0	-37.9	24.0	0.00e+00	0	42	101	3145728	46	6141
2026-01-21 22:25:01.45	56.33	28.92	-36.9	-37.8	24.2	0.00e+00	0	41	101	3145728	46	6117
2026-01-21 22:25:02.42	56.02	28.96	-36.9	-37.8	24.2	0.00e+00	0	41	101	3145728	46	6114
2026-01-21 22:25:03.40	55.70	29.01	-37.0	-37.9	24.1	0.00e+00	0	41	101	3145728	46	6185
2026-01-21 22:25:04.38	55.39	29.05	-37.0	-37.9	24.0	0.00e+00	0	42	101	3145728	46	6199
2026-01-21 22:25:05.35	55.08	29.09	-37.1	-38.1	23.9	0.00e+00	0	41	101	3145728	46	6298
2026-01-21 22:25:06.33	54.76	29.14	-37.0	-37.9	24.2	0.00e+00	0	42	101	3145728	46	6165
2026-01-21 22:25:07.31	54.44	29.18	-36.9	-37.8	24.2	0.00e+00	0	41	101	3145728	46	6077
2026-01-21 22:25:08.29	54.12	29.22	-37.0	-37.9	24.3	0.00e+00	0	41	101	3145728	46	6147
2026-01-21 22:25:09.27	53.80	29.26	-37.0	-37.9	24.2	0.00e+00	0	41	101	3145728	46	6168
2026-01-21 22:25:10.25	53.48	29.30	-37.1	-38.0	24.1	0.00e+00	0	41	101	3145728	46	6229
2026-01-21 22:25:11.22	53.17	29.33	-37.0	-37.9	24.2	0.00e+00	0	42	101	3145728	46	6153
2026-01-21 22:25:12.20	52.85	29.37	-37.1	-38.0	24.1	0.00e+00	0	42	101	3145728	46	6253
2026-01-21 22:25:13.18	52.52	29.41	-37.2	-38.1	24.0	0.00e+00	0	42	101	3145728	46	6305
2026-01-21 22:25:14.16	52.20	29.44	-37.6	-38.5	23.7	0.00e+00	0	42	101	3145728	46	6640
2026-01-21 22:25:15.14	51.88	29.48	-37.1	-38.1	24.0	0.00e+00	0	42	101	3145728	46	6278
2026-01-21 22:25:16.11	51.56	29.51	-37.3	-38.2	23.7	0.00e+00	0	42	101	3145728	46	6419
2026-01-21 22:25:17.09	51.23	29.54	-37.4	-38.3	23.7	0.00e+00	0	41	101	3145728	46	6486
2026-01-21 22:25:18.08	50.90	29.57	-37.2	-38.1	23.9	0.00e+00	0	41	101	3145728	46	6337
2026-01-21 22:25:19.05	50.58	29.60	-37.2	-38.2	23.8	0.00e+00	0	42	101	3145728	46	6355
2026-01-21 22:25:20.03	50.25	29.63	-37.2	-38.1	23.9	0.00e+00	0	42	101	3145728	46	6305
2026-01-21 22:25:21.02	49.92	29.66	-37.2	-38.1	23.9	0.00e+00	0	42	101	3145728	46	6314
2026-01-21 22:25:22.00	49.60	29.69	-37.1	-38.0	24.1	0.00e+00	0	42	101	3145728	46	6227
2026-01-21 22:25:22.97	49.27	29.71	-36.8	-37.7	24.3	0.00e+00	0	42	101	3145728	46	6003
2026-01-21 22:25:23.96	48.94	29.74	-36.8	-37.7	24.3	0.00e+00	0	42	101	3145728	46	6017
2026-01-21 22:25:24.93	48.61	29.76	-36.9	-37.8	24.2	0.00e+00	0	42	101	3145728	46	6104
2026-01-21 22:25:25.91	48.28	29.78	-36.9	-37.8	24.2	0.00e+00	0	42	101	3145728	46	6120
2026-01-21 22:25:26.89	47.95	29.80	-37.2	-38.1	24.0	0.00e+00	0	42	101	3145728	46	6305
2026-01-21 22:25:27.86	47.62	29.83	-36.8	-37.7	24.2	0.00e+00	0	42	101	3145728	46	6017
2026-01-21 22:25:28.84	47.29	29.85	-36.8	-37.7	24.1	0.00e+00	0	42	101	3145728	46	6040
2026-01-21 22:25:29.82	46.96	29.86	-36.7	-37.6	24.2	0.00e+00	0	42	101	3145728	46	5994
2026-01-21 22:25:30.80	46.63	29.88	-36.5	-37.4	24.5	0.00e+00	0	42	101	3145728	46	5848
2026-01-21 22:25:31.78	46.30	29.90	-36.5	-37.4	24.4	0.00e+00	0	42	101	3145728	46	5834
2026-01-21 22:25:32.75	45.97	29.91	-36.2	-37.1	24.6	0.00e+00	0	42	101	3145728	46	5608
2026-01-21 22:25:33.73	45.64	29.93	-36.2	-37.1	24.7	0.00e+00	0	42	101	3145728	46	5641
2026-01-21 22:25:34.71	45.30	29.94	-36.3	-37.2	24.5	0.00e+00	0	42	101	3145728	46	5687
2026-01-21 22:25:35.69	44.97	29.95	-36.5	-37.4	24.4	0.00e+00	0	42	101	3145728	46	5841
2026-01-21 22:25:36.67	44.64	29.96	-36.8	-37.6	24.3	0.00e+00	0	42	101	3145728	46	5993
2026-01-21 22:25:37.64	44.31	29.97	-36.8	-37.7	24.1	0.00e+00	0	42	101	3145728	46	6033
2026-01-21 22:25:38.63	43.97	29.98	-36.6	-37.4	24.2	0.00e+00	0	42	101	3145728	46	5855
2026-01-21 22:25:39.61	43.63	29.99	-36.5	-37.4	24.1	0.00e+00	0	42	101	3145728	46	5833
2026-01-21 22:25:40.59	43.30	30.00	-36.5	-37.4	24.1	0.00e+00	0	42	101	3145728	46	5854
2026-01-21 22:25:41.56	42.97	30.00	-36.5	-37.4	24.2	0.00e+00	0	42	101	3145728	46	5829
2026-01-21 22:25:42.54	42.63	30.01	-36.5	-37.4	24.3	0.00e+00	0	42	101	3145728	46	5815
2026-01-21 22:25:43.52	42.30	30.01	-36.5	-37.4	24.4	0.00e+00	0	42	101	3145728	46	5841
2026-01-21 22:25:44.50	41.96	30.01	-36.5	-37.3	24.5	0.00e+00	0	42	101	3145728	46	5786
2026-01-21 22:25:45.47	41.63	30.01	-36.4	-37.3	24.5	0.00e+00	0	42	101	3145728	46	5730
2026-01-21 22:25:46.45	41.30	30.01	-36.6	-37.5	24.4	0.00e+00	0	42	101	3145728	46	5860
2026-01-21 22:25:47.43	40.96	30.01	-36.5	-37.4	24.3	0.00e+00	0	42	101	3145728	46	5854
2026-01-21 22:25:48.41	40.63	30.01	-36.7	-37.6	24.2	0.00e+00	0	42	101	3145728	46	5948
2026-01-21 22:25:49.38	40.30	30.01	-36.7	-37.6	24.2	0.00e+00	0	42	101	3145728	46	5940
2026-01-21 22:25:50.36	39.96	30.00	-36.8	-37.7	24.1	0.00e+00	0	42	101	3145728	46	6003
2026-01-21 22:25:51.34	39.63	30.00	-36.6	-37.5	24.3	0.00e+00	0	42	101	3145728	46	5901
2026-01-21 22:25:52.32	39.29	29.99	-36.7	-37.6	24.2	0.00e+00	0	42	101	3145728	46	5991
2026-01-21 22:25:53.30	38.96	29.98	-36.9	-37.9	24.0	0.00e+00	0	42	101	3145728	46	6140
2026-01-21 22:25:54.27	38.63	29.98	-37.1	-38.0	23.8	0.00e+00	0	42	101	3145728	46	6269
2026-01-21 22:25:55.25	38.30	29.97	-37.3	-38.3	23.7	0.00e+00	0	42	101	3145728	46	6480
2026-01-21 22:25:56.22	37.97	29.96	-37.5	-38.5	23.6	0.00e+00	0	42	101	3145728	46	6607
2026-01-21 22:25:57.20	37.63	29.94	-37.4	-38.4	23.7	0.00e+00	0	42	101	3145728	46	6523
2026-01-21 22:25:58.18	37.30	29.93	-37.4	-38.4	23.8	0.00e+00	0	42	101	3145728	46	6532
2026-01-21 22:25:59.16	36.97	29.92	-37.4	-38.3	23.7	0.00e+00	0	42	101	3145728	46	6494
2026-01-21 22:26:00.14	36.63	29.90	-37.4	-38.3	23.9	0.00e+00	0	42	101	3145728	46	6482
2026-01-21 22:26:01.11	36.30	29.89	-37.0	-37.9	24.0	0.00e+00	0	42	101	3145728	46	6176
2026-01-21 22:26:02.09	35.97	29.87	-37.0	-37.9	24.0	0.00e+00	0	42	101	3145728	46	6199
2026-01-21 22:26:03.07	35.64	29.85	-36.9	-37.8	24.2	0.00e+00	0	42	101	3145728	46	6103
2026-01-21 22:26:04.05	35.31	29.83	-36.9	-37.8	24.0	0.00e+00	0	42	101	3145728	46	6130
2026-01-21 22:26:05.02	34.98	29.81	-36.8	-37.7	24.2	0.00e+00	0	42	101	3145728	46	6015
2026-01-21 22:26:06.00	34.65	29.79	-36.8	-37.7	24.2	0.00e+00	0	42	101	3145728	46	6024
2026-01-21 22:26:06.98	34.32	29.77	-36.7	-37.7	24.3	0.00e+00	0	42	101	3145728	46	5999
2026-01-21 22:26:07.96	33.99	29.74	-36.7	-37.5	24.4	0.00e+00	0	42	101	3145728	46	5924
2026-01-21 22:26:08.94	33.67	29.72	-37.1	-38.0	24.0	0.00e+00	0	42	101	3145728	46	6259
2026-01-21 22:26:09.92	33.34	29.69	-36.7	-37.7	24.2	0.00e+00	0	42	101	3145728	46	5998
2026-01-21 22:26:10.89	33.01	29.67	-36.8	-37.7	24.0	0.00e+00	0	42	101	3145728	46	6059
2026-01-21 22:26:11.87	32.69	29.64	-36.9	-37.8	23.9	0.00e+00	0	42	101	3145728	46	6116
2026-01-21 22:26:12.84	32.36	29.61	-37.0	-38.0	23.8	0.00e+00	0	42	101	3145728	46	6213
2026-01-21 22:26:13.82	32.04	29.58	-36.9	-37.9	24.0	0.00e+00	0	42	101	3145728	46	6150
2026-01-21 22:26:14.80	31.71	29.55	-36.7	-37.6	24.2	0.00e+00	0	42	101	3145728	46	5978
2026-01-21 22:26:15.77	31.39	29.52	-36.9	-37.8	24.0	0.00e+00	0	42	101	3145728	46	6076
2026-01-21 22:26:16.75	31.07	29.48	-36.9	-37.9	24.0	0.00e+00	0	42	101	3145728	46	6152
2026-01-21 22:26:17.72	30.75	29.45	-37.0	-38.0	24.0	0.00e+00	0	42	101	3145728	46	6234
2026-01-21 22:26:18.70	30.42	29.42	-37.0	-38.0	24.1	0.00e+00	0	42	101	3145728	46	6214
2026-01-21 22:26:19.68	30.10	29.38	-37.0	-37.9	24.1	0.00e+00	0	42	101	3145728	46	6177
2026-01-21 22:26:20.66	29.78	29.34	-37.0	-37.9	24.1	0.00e+00	0	42	101	3145728	46	6205
2026-01-21 22:26:21.63	29.46	29.31	-36.9	-37.8	24.2	0.00e+00	0	42	101	3145728	46	6114
2026-01-21 22:26:22.61	29.14	29.27	-36.7	-37.6	24.3	0.00e+00	0	42	101	3145728	46	5980
2026-01-21 22:26:23.59	28.82	29.23	-36.8	-37.7	24.1	0.00e+00	0	42	101	3145728	46	6036
2026-01-21 22:26:24.57	28.51	29.19	-36.9	-37.9	24.0	0.00e+00	0	42	101	3145728	46	6147
2026-01-21 22:26:25.54	28.19	29.15	-37.1	-38.0	23.8	0.00e+00	0	42	101	3145728	46	6271
2026-01-21 22:26:26.52	27.88	29.11	-37.3	-38.2	23.8	0.00e+00	0	42	101	3145728	46	6404
2026-01-21 22:26:27.50	27.56	29.06	-37.5	-38.5	23.7	0.00e+00	0	42	101	3145728	46	6599
2026-01-21 22:26:28.47	27.25	29.02	-37.5	-38.4	23.7	0.00e+00	0	42	101	3145728	46	6558
2026-01-21 22:26:29.45	26.93	28.97	-37.3	-38.3	23.9	0.00e+00	0	42	101	3145728	46	6429
2026-01-21 22:26:30.43	26.62	28.93	-37.2	-38.2	23.9	0.00e+00	0	42	101	3145728	46	6352
2026-01-21 22:26:31.41	26.31	28.88	-37.4	-38.4	23.6	0.00e+00	0	42	101	3145728	46	6516
2026-01-21 22:26:32.38	26.00	28.83	-37.6	-38.6	23.5	0.00e+00	0	42	101	3145728	46	6683
2026-01-21 22:26:33.36	25.69	28.79	-37.2	-38.1	24.0	0.00e+00	0	42	101	3145728	46	6292
2026-01-21 22:26:34.34	25.38	28.74	-37.2	-38.1	24.0	0.00e+00	0	42	101	3145728	46	6313
2026-01-21 22:26:35.32	25.07	28.69	-37.4	-38.3	24.0	0.00e+00	0	42	101	3145728	46	6437
2026-01-21 22:26:36.30	24.77	28.64	-37.7	-38.6	23.7	0.00e+00	0	42	101	3145728	46	6694
2026-01-21 22:26:37.27	24.46	28.58	-37.3	-38.2	24.0	0.00e+00	0	42	101	3145728	46	6367
2026-01-21 22:26:38.25	24.16	28.53	-37.3	-38.2	23.8	0.00e+00	0	42	101	3145728	46	6387
2026-01-21 22:26:39.22	23.86	28.48	-37.1	-38.0	23.9	0.00e+00	0	42	101	3145728	46	6270
2026-01-21 22:26:40.20	23.55	28.43	-37.2	-38.2	23.9	0.00e+00	0	42	101	3145728	46	6353
2026-01-21 22:26:41.18	23.25	28.37	-37.3	-38.2	23.8	0.00e+00	0	42	101	3145728	46	6412
2026-01-21 22:26:42.15	22.95	28.32	-37.1	-38.0	24.0	0.00e+00	0	42	101	3145728	46	6234
2026-01-21 22:26:43.13	22.65	28.26	-37.5	-38.5	23.7	0.00e+00	0	42	101	3145728	46	6578
2026-01-21 22:26:44.11	22.35	28.20	-37.3	-38.2	23.9	0.00e+00	0	42	101	3145728	46	6418
2026-01-21 22:26:45.09	22.05	28.14	-37.3	-38.2	23.8	0.00e+00	0	42	101	3145728	46	6402
2026-01-21 22:26:46.07	21.76	28.08	-37.2	-38.1	23.9	0.00e+00	0	42	101	3145728	46	6306
2026-01-21 22:26:47.05	21.46	28.03	-36.9	-37.8	24.0	0.00e+00	0	42	101	3145728	46	6076
2026-01-21 22:26:48.02	21.17	27.97	-36.9	-37.8	24.0	0.00e+00	0	42	101	3145728	46	6101
2026-01-21 22:26:49.00	20.88	27.90	-36.8	-37.7	23.9	0.00e+00	0	42	101	3145728	46	6051
2026-01-21 22:26:49.98	20.58	27.84	-37.1	-38.0	23.9	0.00e+00	0	42	101	3145728	46	6261
2026-01-21 22:26:50.96	20.29	27.78	-36.4	-37.3	24.5	0.00e+00	0	42	101	3145728	46	5774
2026-01-21 22:26:51.94	20.00	27.72	-36.2	-37.1	24.7	0.00e+00	0	42	101	3145728	46	5625
2026-01-21 22:26:52.91	19.72	27.66	-36.6	-37.5	24.6	0.00e+00	0	42	101	3145728	46	5864
2026-01-21 22:26:53.89	19.43	27.59	-36.6	-37.5	24.4	0.00e+00	0	42	101	3145728	46	5901
2026-01-21 22:26:54.87	19.14	27.53	-36.7	-37.6	24.3	0.00e+00	0	42	101	3145728	46	5970
2026-01-21 22:26:55.85	18.86	27.46	-37.1	-38.0	24.1	0.00e+00	0	42	101	3145728	46	6268
2026-01-21 22:26:56.83	18.57	27.39	-37.2	-38.1	24.0	0.00e+00	0	42	101	3145728	46	6349
2026-01-21 22:26:57.80	18.29	27.33	-37.3	-38.2	23.8	0.00e+00	0	42	101	3145728	46	6397
2026-01-21 22:26:58.77	18.01	27.26	-37.2	-38.2	23.8	0.00e+00	0	42	101	3145728	46	6390
2026-01-21 22:26:59.75	17.73	27.19	-37.3	-38.3	23.7	0.00e+00	0	42	101	3145728	46	6433
2026-01-21 22:27:00.72	17.46	27.13	-37.2	-38.1	23.8	0.00e+00	0	42	101	3145728	46	6325
2026-01-21 22:27:01.70	17.18	27.06	-37.0	-37.9	24.0	0.00e+00	0	42	101	3145728	46	6174
2026-01-21 22:27:02.68	16.90	26.99	-36.9	-37.9	24.1	0.00e+00	0	42	101	3145728	46	6136
2026-01-21 22:27:03.66	16.62	26.92	-36.8	-37.8	24.2	0.00e+00	0	42	101	3145728	46	6072
2026-01-21 22:27:04.63	16.35	26.85	-36.9	-37.8	24.2	0.00e+00	0	42	101	3145728	46	6087
2026-01-21 22:27:05.61	16.08	26.78	-36.7	-37.6	24.2	0.00e+00	0	42	101	3145728	46	5982
2026-01-21 22:27:06.59	15.81	26.70	-36.5	-37.4	24.4	0.00e+00	0	42	101	3145728	46	5812
2026-01-21 22:27:07.57	15.54	26.63	-36.3	-37.2	24.4	0.00e+00	0	42	101	3145728	46	5699
2026-01-21 22:27:08.55	15.27	26.56	-36.2	-37.1	24.5	0.00e+00	0	42	101	3145728	46	5641
2026-01-21 22:27:09.53	15.00	26.48	-35.9	-36.8	24.7	0.00e+00	0	42	101	3145728	46	5456
2026-01-21 22:27:10.50	14.73	26.41	-36.0	-36.9	24.7	0.00e+00	0	42	101	3145728	46	5496
2026-01-21 22:27:11.48	14.47	26.34	-36.3	-37.2	24.5	0.00e+00	0	42	101	3145728	46	5682
2026-01-21 22:27:12.46	14.20	26.26	-36.5	-37.4	24.3	0.00e+00	0	42	101	3145728	46	5829
2026-01-21 22:27:13.44	13.94	26.19	-36.7	-37.6	24.0	0.00e+00	0	42	101	3145728	46	5992
2026-01-21 22:27:14.42	13.68	26.11	-36.8	-37.8	23.9	0.00e+00	0	42	101	3145728	46	6072
2026-01-21 22:27:15.39	13.42	26.04	-36.7	-37.7	23.9	0.00e+00	0	42	101	3145728	46	6011
2026-01-21 22:27:16.37	13.16	25.96	-36.7	-37.7	23.8	0.00e+00	0	42	101	3145728	46	6006
2026-01-21 22:27:17.35	12.90	25.88	-36.5	-37.4	24.0	0.00e+00	0	42	101	3145728	46	5803
2026-01-21 22:27:18.33	12.64	25.80	-36.0	-36.9	24.5	0.00e+00	0	42	101	3145728	46	5477
2026-01-21 22:27:19.31	12.39	25.73	-36.0	-36.9	24.6	0.00e+00	0	42	101	3145728	46	5483
2026-01-21 22:27:20.29	12.13	25.65	-35.8	-36.7	24.8	0.00e+00	0	42	101	3145728	46	5354
2026-01-21 22:27:21.27	11.88	25.57	-35.9	-36.8	24.8	0.00e+00	0	42	101	3145728	46	5409
2026-01-21 22:27:22.24	11.63	25.49	-36.1	-37.0	24.7	0.00e+00	0	42	101	3145728	46	5533
2026-01-21 22:27:23.22	11.38	25.41	-36.3	-37.2	24.6	0.00e+00	0	42	101	3145728	46	5677
2026-01-21 22:27:24.20	11.13	25.33	-36.4	-37.3	24.5	0.00e+00	0	42	101	3145728	46	5783
2026-01-21 22:27:25.18	10.88	25.25	-36.6	-37.6	24.3	0.00e+00	0	42	101	3145728	46	5934
2026-01-21 22:27:26.16	10.64	25.17	-36.6	-37.5	24.4	0.00e+00	0	42	101	3145728	46	5901
2026-01-21 22:27:27.13	10.39	25.09	-36.6	-37.5	24.4	0.00e+00	0	42	101	3145728	46	5863
2026-01-21 22:27:28.11	10.15	25.01	-36.5	-37.4	24.5	0.00e+00	0	42	101	3145728	46	5855
2026-01-21 22:27:29.08	9.91	24.93	-36.3	-37.2	24.6	0.00e+00	0	42	101	3145728	46	5715
2026-01-21 22:27:30.06	9.67	24.85	-36.4	-37.4	24.4	0.00e+00	0	42	101	3145728	46	5797
2026-01-21 22:27:31.04	9.43	24.77	-36.5	-37.4	24.4	0.00e+00	0	42	101	3145728	46	5851
2026-01-21 22:27:32.01	9.19	24.68	-36.7	-37.6	24.4	0.00e+00	0	42	101	3145728	46	5939
2026-01-21 22:27:32.99	8.95	24.60	-36.6	-37.6	24.3	0.00e+00	0	42	101	3145728	46	5935
2026-01-21 22:27:33.98	8.71	24.52	-36.7	-37.7	24.2	0.00e+00	0	42	101	3145728	46	6006
2026-01-21 22:27:34.96	8.48	24.43	-36.7	-37.6	24.2	0.00e+00	0	42	101	3145728	46	5986
2026-01-21 22:27:35.93	8.25	24.35	-36.6	-37.5	24.4	0.00e+00	0	42	101	3145728	46	5922
2026-01-21 22:27:36.91	8.01	24.27	-36.4	-37.3	24.5	0.00e+00	0	42	101	3145728	46	5783
2026-01-21 22:27:37.89	7.78	24.18	-36.3	-37.2	24.6	0.00e+00	0	42	101	3145728	46	5679
2026-01-21 22:27:38.86	7.55	24.10	-36.1	-37.0	24.8	0.00e+00	0	42	101	3145728	46	5558
2026-01-21 22:27:39.84	7.32	24.02	-36.3	-37.2	24.6	0.00e+00	0	42	101	3145728	46	5699
2026-01-21 22:27:40.82	7.10	23.93	-36.2	-37.1	24.6	0.00e+00	0	42	101	3145728	46	5638
2026-01-21 22:27:41.80	6.87	23.85	-36.5	-37.4	24.4	0.00e+00	0	42	101	3145728	46	5853
2026-01-21 22:27:42.78	6.64	23.76	-36.7	-37.6	24.3	0.00e+00	0	42	101	3145728	46	5940
2026-01-21 22:27:43.76	6.42	23.68	-36.7	-37.6	24.1	0.00e+00	0	42	101	3145728	46	5993
2026-01-21 22:27:44.73	6.20	23.59	-36.9	-37.8	24.0	0.00e+00	0	42	101	3145728	46	6107
2026-01-21 22:27:45.71	5.98	23.51	-36.9	-37.9	23.9	0.00e+00	0	42	101	3145728	46	6152
2026-01-21 22:27:46.69	5.76	23.42	-36.7	-37.6	24.0	0.00e+00	0	42	101	3145728	46	5971
2026-01-21 22:27:47.67	5.54	23.33	-36.8	-37.7	24.1	0.00e+00	0	42	101	3145728	46	6012
2026-01-21 22:27:48.65	5.32	23.25	-36.7	-37.6	24.1	0.00e+00	0	42	101	3145728	46	5976
2026-01-21 22:27:49.62	5.10	23.16	-36.7	-37.6	24.3	0.00e+00	0	42	101	3145728	46	5959
2026-01-21 22:27:50.60	4.89	23.08	-36.5	-37.4	24.3	0.00e+00	0	42	101	3145728	46	5803
2026-01-21 22:27:51.58	4.67	22.99	-36.4	-37.3	24.4	0.00e+00	0	42	101	3145728	46	5755
2026-01-21 22:27:52.56	4.46	22.90	-36.4	-37.3	24.5	0.00e+00	0	42	101	3145728	46	5741
2026-01-21 22:27:53.54	4.25	22.82	-36.7	-37.6	24.3	0.00e+00	0	42	101	3145728	46	5983
2026-01-21 22:27:54.52	4.04	22.73	-36.4	-37.2	24.5	0.00e+00	0	42	101	3145728	46	5718
2026-01-21 22:27:55.50	3.83	22.64	-36.3	-37.1	24.6	0.00e+00	0	42	101	3145728	46	5658
2026-01-21 22:27:56.48	3.62	22.55	-36.3	-37.1	24.6	0.00e+00	0	42	101	3145728	46	5653
2026-01-21 22:27:57.45	3.41	22.47	-36.2	-37.1	24.6	0.00e+00	0	42	101	3145728	46	5596
2026-01-21 22:27:58.42	3.21	22.38	-36.3	-37.2	24.4	0.00e+00	0	42	101	3145728	46	5704
2026-01-21 22:27:59.40	3.00	22.29	-36.2	-37.1	24.5	0.00e+00	0	42	101	3145728	46	5658
2026-01-21 22:28:00.38	2.80	22.21	-36.3	-37.2	24.5	0.00e+00	0	42	101	3145728	46	5675
2026-01-21 22:28:01.35	2.60	22.12	-36.4	-37.3	24.5	0.00e+00	0	42	101	3145728	46	5746
2026-01-21 22:28:02.33	2.40	22.03	-36.3	-37.2	24.5	0.00e+00	0	42	101	3145728	46	5678
2026-01-21 22:28:03.31	2.20	21.94	-36.5	-37.4	24.4	0.00e+00	0	42	101	3145728	46	5838
2026-01-21 22:28:04.28	2.00	21.86	-36.6	-37.5	24.3	0.00e+00	0	42	101	3145728	46	5884
2026-01-21 22:28:05.26	1.80	21.77	-36.4	-37.3	24.4	0.00e+00	0	42	101	3145728	46	5781
2026-01-21 22:28:06.24	1.61	21.68	-36.6	-37.5	24.2	0.00e+00	0	42	101	3145728	46	5869
2026-01-21 22:28:07.22	1.41	21.59	-36.5	-37.5	24.1	0.00e+00	0	42	101	3145728	46	5869
2026-01-21 22:28:08.20	1.22	21.50	-36.7	-37.6	24.1	0.00e+00	0	42	101	3145728	46	5979
2026-01-21 22:28:09.18	1.02	21.42	-36.6	-37.5	24.1	0.00e+00	0	42	101	3145728	46	5924
2026-01-21 22:28:10.16	0.83	21.33	-36.6	-37.5	24.2	0.00e+00	0	42	101	3145728	46	5914
2026-01-21 22:28:11.14	0.64	21.24	-36.6	-37.6	24.1	0.00e+00	0	42	101	3145728	46	5928
2026-01-21 22:28:12.12	0.45	21.15	-36.6	-37.5	24.1	0.00e+00	0	42	101	3145728	46	5922
2026-01-21 22:28:13.10	0.26	21.06	-36.4	-37.3	24.3	0.00e+00	0	42	101	3145728	46	5755
2026-01-21 22:28:14.07	0.07	20.98	-36.6	-37.5	24.1	0.00e+00	0	42	101	3145728	46	5894
2026-01-21 22:28:15.05	359.89	20.89	-36.5	-37.4	24.2	0.00e+00	0	42	101	3145728	46	5838
2026-01-21 22:28:16.03	359.70	20.80	-36.6	-37.5	24.2	0.00e+00	0	42	101	3145728	46	5883
2026-01-21 22:28:17.01	359.51	20.71	-36.6	-37.6	24.1	0.00e+00	0	42	101	3145728	46	5935
2026-01-21 22:28:17.98	359.33	20.62	-36.5	-37.4	24.2	0.00e+00	0	42	101	3145728	46	5848
2026-01-21 22:28:18.96	359.15	20.53	-36.6	-37.5	24.3	0.00e+00	0	42	101	3145728	46	5907
2026-01-21 22:28:19.94	358.97	20.45	-36.6	-37.5	24.3	0.00e+00	0	42	101	3145728	46	5906
2026-01-21 22:28:20.91	358.79	20.36	-36.6	-37.5	24.3	0.00e+00	0	42	101	3145728	46	5877
2026-01-21 22:28:21.89	358.61	20.27	-36.6	-37.5	24.1	0.00e+00	0	42	101	3145728	46	5922
2026-01-21 22:28:22.87	358.43	20.18	-36.6	-37.5	24.2	0.00e+00	0	42	101	3145728	46	5902
2026-01-21 22:28:23.84	358.26	20.09	-36.5	-37.4	24.2	0.00e+00	0	42	101	3145728	46	5805
2026-01-21 22:28:24.82	358.08	20.00	-36.6	-37.5	24.1	0.00e+00	0	42	101	3145728	46	5875
2026-01-21 22:28:25.80	357.90	19.92	-36.2	-37.1	24.3	0.00e+00	0	42	101	3145728	46	5645
2026-01-21 22:28:26.77	357.73	19.83	-36.3	-37.2	24.3	0.00e+00	0	42	101	3145728	46	5699
2026-01-21 22:28:27.75	357.56	19.74	-36.1	-36.9	24.5	0.00e+00	0	42	101	3145728	46	5526
2026-01-21 22:28:28.72	357.39	19.65	-36.1	-36.9	24.5	0.00e+00	0	42	101	3145728	46	5529
2026-01-21 22:28:29.70	357.22	19.57	-36.1	-37.0	24.5	0.00e+00	0	42	101	3145728	46	5537
2026-01-21 22:28:30.68	357.05	19.48	-35.7	-36.5	24.9	0.00e+00	0	42	101	3145728	44	5914
2026-01-21 22:28:31.66	356.88	19.39	-35.7	-36.6	24.9	0.00e+00	0	42	101	3145728	44	5927
2026-01-21 22:28:32.64	356.71	19.30	-35.9	-36.8	24.7	0.00e+00	0	42	101	3145728	44	6087
2026-01-21 22:28:33.61	356.54	19.21	-36.2	-37.1	24.5	0.00e+00	0	42	101	3145728	44	6298
2026-01-21 22:28:34.59	356.38	19.13	-36.5	-37.4	24.2	0.00e+00	0	42	101	3145728	44	6507
2026-01-21 22:28:35.57	356.21	19.04	-36.9	-37.8	24.0	0.00e+00	0	42	101	3145728	46	6090
2026-01-21 22:28:36.55	356.05	18.95	-36.9	-37.9	24.0	0.00e+00	0	42	101	3145728	46	6149
2026-01-21 22:28:37.52	355.89	18.86	-37.0	-37.9	23.9	0.00e+00	0	42	101	3145728	46	6148
2026-01-21 22:28:38.50	355.72	18.78	-36.8	-37.8	23.9	0.00e+00	0	42	101	3145728	46	6093
2026-01-21 22:28:39.48	355.56	18.69	-36.9	-37.9	23.8	0.00e+00	0	42	101	3145728	46	6167
2026-01-21 22:28:40.45	355.40	18.60	-36.9	-37.8	23.8	0.00e+00	0	42	101	3145728	46	6103
2026-01-21 22:28:41.43	355.24	18.51	-36.7	-37.7	23.9	0.00e+00	0	42	101	3145728	46	5998
2026-01-21 22:28:42.41	355.08	18.43	-36.6	-37.5	24.0	0.00e+00	0	42	101	3145728	46	5924
2026-01-21 22:28:43.39	354.93	18.34	-36.6	-37.5	23.9	0.00e+00	0	42	101	3145728	46	5912
2026-01-21 22:28:44.37	354.77	18.25	-36.7	-37.6	24.0	0.00e+00	0	42	101	3145728	46	5940
2026-01-21 22:28:45.35	354.61	18.16	-36.7	-37.7	24.0	0.00e+00	0	42	101	3145728	46	6018
2026-01-21 22:28:46.32	354.46	18.08	-36.9	-37.8	23.9	0.00e+00	0	42	101	3145728	46	6133
2026-01-21 22:28:47.30	354.31	17.99	-37.0	-38.0	23.8	0.00e+00	0	42	101	3145728	46	6216
2026-01-21 22:28:48.28	354.15	17.90	-37.2	-38.1	23.7	0.00e+00	0	42	101	3145728	46	6327
2026-01-21 22:28:49.26	354.00	17.82	-37.1	-38.1	23.7	0.00e+00	0	42	101	3145728	46	6303
2026-01-21 22:28:50.24	353.85	17.73	-37.1	-38.1	23.7	0.00e+00	0	42	101	3145728	46	6315
2026-01-21 22:28:51.21	353.70	17.65	-37.2	-38.1	23.6	0.00e+00	0	42	101	3145728	46	6343
2026-01-21 22:28:52.19	353.55	17.56	-37.3	-38.2	23.5	0.00e+00	0	42	101	3145728	46	6391
2026-01-21 22:28:53.17	353.40	17.47	-37.1	-38.1	23.5	0.00e+00	0	42	101	3145728	46	6311
2026-01-21 22:28:54.15	353.25	17.39	-37.0	-37.9	23.7	0.00e+00	0	42	101	3145728	46	6195
2026-01-21 22:28:55.12	353.11	17.30	-37.0	-38.0	23.6	0.00e+00	0	42	101	3145728	46	6235
2026-01-21 22:28:56.10	352.96	17.21	-36.8	-37.8	23.9	0.00e+00	0	42	101	3145728	46	6088
2026-01-21 22:28:57.08	352.82	17.13	-36.7	-37.6	24.0	0.00e+00	0	42	101	3145728	46	5985
2026-01-21 22:28:58.06	352.67	17.04	-36.7	-37.6	24.1	0.00e+00	0	42	101	3145728	46	5947
2026-01-21 22:28:59.04	352.53	16.96	-36.7	-37.6	24.1	0.00e+00	0	42	101	3145728	46	5958
2026-01-21 22:29:00.02	352.39	16.87	-36.6	-37.5	24.2	0.00e+00	0	42	101	3145728	46	5910
2026-01-21 22:29:01.00	352.24	16.79	-36.7	-37.6	24.1	0.00e+00	0	42	101	3145728	46	5966
2026-01-21 22:29:01.98	352.10	16.70	-36.9	-37.8	23.9	0.00e+00	0	42	101	3145728	46	6106
2026-01-21 22:29:02.96	351.96	16.61	-37.1	-38.0	23.8	0.00e+00	0	42	101	3145728	46	6271
2026-01-21 22:29:03.94	351.82	16.53	-37.2	-38.1	23.7	0.00e+00	0	42	101	3145728	46	6309
2026-01-21 22:29:04.92	351.68	16.44	-37.2	-38.2	23.5	0.00e+00	0	42	101	3145728	46	6387
2026-01-21 22:29:05.90	351.55	16.36	-37.4	-38.3	23.4	0.00e+00	0	42	101	3145728	46	6495
2026-01-21 22:29:06.88	351.41	16.27	-37.5	-38.5	23.3	0.00e+00	0	42	101	3145728	46	6575
2026-01-21 22:29:07.85	351.27	16.19	-37.4	-38.3	23.4	0.00e+00	0	42	101	3145728	46	6479
2026-01-21 22:29:08.83	351.14	16.11	-37.3	-38.2	23.4	0.00e+00	0	42	101	3145728	46	6409
2026-01-21 22:29:09.81	351.00	16.02	-37.0	-38.0	23.7	0.00e+00	0	42	101	3145728	46	6218
2026-01-21 22:29:10.79	350.87	15.94	-37.0	-37.9	23.7	0.00e+00	0	42	101	3145728	46	6192
2026-01-21 22:29:11.76	350.74	15.85	-36.9	-37.9	23.7	0.00e+00	0	42	101	3145728	46	6139
2026-01-21 22:29:12.75	350.60	15.77	-37.3	-38.2	23.6	0.00e+00	0	42	101	3145728	46	6392
2026-01-21 22:29:13.72	350.47	15.69	-37.1	-38.0	23.7	0.00e+00	0	42	101	3145728	46	6235
2026-01-21 22:29:14.70	350.34	15.60	-37.3	-38.3	23.4	0.00e+00	0	42	101	3145728	46	6424
2026-01-21 22:29:15.68	350.21	15.52	-37.0	-37.9	23.8	0.00e+00	0	42	101	3145728	46	6158
2026-01-21 22:29:16.66	350.08	15.44	-37.1	-38.0	23.7	0.00e+00	0	42	101	3145728	46	6247
2026-01-21 22:29:17.64	349.95	15.35	-37.0	-37.9	23.7	0.00e+00	0	42	101	3145728	46	6198
2026-01-21 22:29:18.62	349.82	15.27	-37.3	-38.3	23.6	0.00e+00	0	42	101	3145728	46	6449
2026-01-21 22:29:19.59	349.70	15.19	-37.5	-38.5	23.3	0.00e+00	0	42	101	3145728	46	6602
2026-01-21 22:29:20.57	349.57	15.10	-37.7	-38.6	23.2	0.00e+00	0	42	101	3145728	46	6712
2026-01-21 22:29:21.55	349.45	15.02	-38.0	-39.0	23.0	0.00e+00	0	42	101	3145728	48	6259
2026-01-21 22:29:22.53	349.32	14.94	-38.0	-38.9	23.0	0.00e+00	0	42	101	3145728	48	6197
2026-01-21 22:29:23.51	349.20	14.86	-37.5	-38.4	23.3	0.00e+00	0	42	101	3145728	48	5856
2026-01-21 22:29:24.49	349.07	14.77	-37.4	-38.4	23.3	0.00e+00	0	42	101	3145728	48	5829
2026-01-21 22:29:25.46	348.95	14.69	-37.4	-38.4	23.3	0.00e+00	0	42	101	3145728	48	5837
2026-01-21 22:29:26.44	348.83	14.61	-37.3	-38.2	23.5	0.00e+00	0	42	101	3145728	48	5699
2026-01-21 22:29:27.41	348.71	14.53	-37.0	-37.9	23.6	0.00e+00	0	42	101	3145728	48	5506
2026-01-21 22:29:28.39	348.59	14.45	-37.0	-37.9	23.6	0.00e+00	0	42	101	3145728	48	5529
2026-01-21 22:29:29.37	348.47	14.36	-36.9	-37.9	23.7	0.00e+00	0	42	101	3145728	48	5486
2026-01-21 22:29:30.34	348.35	14.28	-37.0	-38.0	23.6	0.00e+00	0	42	101	3145728	48	5541
2026-01-21 22:29:31.32	348.23	14.20	-37.0	-38.0	23.7	0.00e+00	0	42	101	3145728	48	5537
2026-01-21 22:29:32.30	348.11	14.12	-37.1	-38.1	23.6	0.00e+00	0	42	101	3145728	48	5630
2026-01-21 22:29:33.28	347.99	14.04	-36.9	-37.8	23.8	0.00e+00	0	42	101	3145728	48	5446
2026-01-21 22:29:34.26	347.88	13.96	-36.8	-37.7	23.9	0.00e+00	0	42	101	3145728	48	5398
2026-01-21 22:29:35.23	347.76	13.88	-36.8	-37.8	23.9	0.00e+00	0	42	101	3145728	48	5407
2026-01-21 22:29:36.21	347.65	13.80	-37.0	-38.0	23.6	0.00e+00	0	42	101	3145728	48	5545
2026-01-21 22:29:37.19	347.53	13.72	-37.3	-38.2	23.6	0.00e+00	0	42	101	3145728	48	5689
2026-01-21 22:29:38.17	347.42	13.64	-37.3	-38.3	23.5	0.00e+00	0	42	101	3145728	48	5727
2026-01-21 22:29:39.14	347.30	13.56	-37.3	-38.3	23.4	0.00e+00	0	42	101	3145728	48	5742
2026-01-21 22:29:40.12	347.19	13.48	-37.5	-38.5	23.3	0.00e+00	0	42	101	3145728	48	5867
2026-01-21 22:29:41.10	347.08	13.40	-37.7	-38.7	23.1	0.00e+00	0	42	101	3145728	48	6031
2026-01-21 22:29:42.08	346.97	13.32	-37.8	-38.8	23.0	0.00e+00	0	42	101	3145728	48	6089
2026-01-21 22:29:43.06	346.85	13.24	-37.8	-38.8	23.0	0.00e+00	0	42	101	3145728	48	6102
2026-01-21 22:29:44.04	346.74	13.16	-37.9	-38.9	22.8	0.00e+00	0	42	101	3145728	48	6173
2026-01-21 22:29:45.02	346.63	13.08	-38.0	-39.1	22.7	0.00e+00	0	42	101	3145728	48	6281
2026-01-21 22:29:46.00	346.52	13.00	-37.7	-38.7	22.9	0.00e+00	0	42	101	3145728	48	6036
2026-01-21 22:29:46.98	346.42	12.92	-37.7	-38.7	22.9	0.00e+00	0	42	101	3145728	48	6057
2026-01-21 22:29:47.96	346.31	12.84	-37.7	-38.7	23.0	0.00e+00	0	42	101	3145728	48	6001
2026-01-21 22:29:48.93	346.20	12.76	-37.8	-38.8	22.9	0.00e+00	0	42	101	3145728	48	6130
2026-01-21 22:29:49.91	346.09	12.69	-37.7	-38.7	23.0	0.00e+00	0	42	101	3145728	48	6005
2026-01-21 22:29:50.89	345.99	12.61	-37.7	-38.7	23.0	0.00e+00	0	42	101	3145728	48	6002
2026-01-21 22:29:51.86	345.88	12.53	-37.6	-38.5	23.2	0.00e+00	0	42	101	3145728	48	5918
2026-01-21 22:29:52.84	345.78	12.45	-37.6	-38.6	23.1	0.00e+00	0	42	101	3145728	48	5949
2026-01-21 22:29:53.81	345.67	12.37	-37.6	-38.6	23.2	0.00e+00	0	42	101	3145728	48	5942
2026-01-21 22:29:54.79	345.57	12.30	-37.6	-38.6	23.1	0.00e+00	0	42	101	3145728	48	5959
2026-01-21 22:29:55.77	345.47	12.22	-37.5	-38.5	23.3	0.00e+00	0	42	101	3145728	48	5860
2026-01-21 22:29:56.75	345.36	12.14	-37.8	-38.8	23.0	0.00e+00	0	42	101	3145728	48	6126
2026-01-21 22:29:57.73	345.26	12.06	-38.0	-38.9	23.0	0.00e+00	0	42	101	3145728	48	6204
