passes_logs/2026/01/21/R4.6S_Anadyr/R4.6S_Anadyr__20260121_032500_FENGYUN_3D_rec.log

#Pass ID: 20260121_032500_FENGYUN 3D
#Satellite: FENGYUN 3D
#Configuration: FENGYUN 3D
#almurnet v.1.7.20251203
#Start time: 2026-01-21 03:25:03

#Version: 2.2.20231116
#Station: R4.6S_Anadyr
#Location: 177.4865 lon 64.73178 lat
#TLE: 1 43010U 17072A   26020.28933472  .00000051  00000+0  46008-4 0  9990
#TLE: 2 43010  98.9944 352.1871 0002476  99.7001 260.4455 14.19696838424006

#Time	Az	El	Level	Level2	SNR	BER	BlckErr	Temp	State	Recorded	gain1	gain2
2026-01-21 03:25:03.25	185.28	0.16	-54.7	-72.5	3.5	3.02e+01	0	38	0	0	60	161380
2026-01-21 03:25:04.25	185.32	0.21	-53.6	-65.9	3.6	8.45e-01	0	39	104	0	60	71408
2026-01-21 03:25:05.26	185.35	0.27	-53.8	-66.0	3.6	8.46e-01	0	39	104	0	60	71900
2026-01-21 03:25:06.27	185.39	0.33	-53.6	-65.7	3.5	8.45e-01	0	40	104	0	60	70063
2026-01-21 03:25:07.28	185.43	0.39	-53.9	-66.1	3.6	8.45e-01	0	40	104	0	60	72974
2026-01-21 03:25:08.29	185.47	0.45	-53.3	-65.5	3.6	8.45e-01	0	40	104	0	60	67992
2026-01-21 03:25:09.30	185.51	0.51	-53.7	-65.9	3.6	8.46e-01	0	40	104	0	60	70942
2026-01-21 03:25:10.31	185.55	0.57	-53.8	-65.9	3.6	8.45e-01	0	40	104	0	60	71462
2026-01-21 03:25:11.32	185.59	0.62	-53.4	-65.6	3.6	8.45e-01	0	40	104	0	60	68620
2026-01-21 03:25:12.33	185.63	0.68	-52.9	-65.0	3.6	8.46e-01	0	40	104	0	60	64340
2026-01-21 03:25:13.34	185.67	0.74	-52.2	-64.3	3.6	8.46e-01	0	40	104	0	60	59622
2026-01-21 03:25:14.35	185.71	0.80	-51.8	-64.0	3.6	8.45e-01	0	40	104	0	60	57283
2026-01-21 03:25:15.36	185.75	0.86	-51.5	-63.8	3.6	8.45e-01	0	40	104	0	60	55858
2026-01-21 03:25:16.37	185.79	0.92	-51.5	-63.7	3.6	8.46e-01	0	40	104	0	60	55499
2026-01-21 03:25:17.38	185.83	0.98	-51.7	-63.8	3.6	8.45e-01	0	40	104	0	60	55956
2026-01-21 03:25:18.39	185.87	1.04	-51.6	-63.7	3.6	8.45e-01	0	40	104	0	60	55470
2026-01-21 03:25:19.41	185.91	1.10	-51.3	-63.4	3.6	8.46e-01	0	40	104	0	60	53555
2026-01-21 03:25:20.42	185.95	1.16	-52.4	-64.6	3.6	8.45e-01	0	40	104	0	60	61353
2026-01-21 03:25:21.43	186.00	1.22	-51.9	-64.0	3.6	8.46e-01	0	40	104	0	60	57318
2026-01-21 03:25:22.44	186.04	1.28	-51.6	-63.8	3.6	8.45e-01	0	40	104	0	60	55729
2026-01-21 03:25:23.45	186.08	1.34	-51.5	-63.6	3.6	8.45e-01	0	40	104	0	60	54950
2026-01-21 03:25:24.46	186.12	1.40	-50.9	-63.0	3.6	8.45e-01	0	40	104	0	60	50831
2026-01-21 03:25:25.47	186.16	1.46	-50.4	-62.5	3.6	8.45e-01	0	40	104	0	60	48149
2026-01-21 03:25:26.48	186.20	1.52	-50.1	-62.2	3.6	8.45e-01	0	40	104	0	60	46622
2026-01-21 03:25:27.49	186.25	1.59	-50.0	-62.2	3.6	8.46e-01	0	40	104	0	60	46319
2026-01-21 03:25:28.50	186.29	1.65	-50.0	-62.1	3.6	8.46e-01	0	40	104	0	60	45835
2026-01-21 03:25:29.51	186.33	1.71	-50.1	-62.2	3.6	8.46e-01	0	40	104	0	60	46615
2026-01-21 03:25:30.52	186.37	1.77	-50.1	-62.2	3.6	8.45e-01	0	40	104	0	60	46579
2026-01-21 03:25:31.53	186.42	1.83	-50.2	-62.3	3.6	8.44e-01	0	40	104	0	60	47039
2026-01-21 03:25:32.54	186.46	1.89	-50.5	-62.6	3.6	8.44e-01	0	40	104	0	60	48799
2026-01-21 03:25:33.55	186.50	1.95	-50.6	-62.7	3.6	8.45e-01	0	40	104	0	60	49512
2026-01-21 03:25:34.56	186.55	2.01	-50.5	-62.5	3.6	8.45e-01	0	40	104	0	60	48350
2026-01-21 03:25:35.57	186.59	2.08	-50.6	-62.6	3.6	8.46e-01	0	40	104	0	60	48897
2026-01-21 03:25:36.58	186.63	2.14	-50.3	-62.1	3.6	8.46e-01	0	40	104	0	60	46182
2026-01-21 03:25:37.59	186.68	2.20	-50.7	-62.7	3.6	8.45e-01	0	40	104	0	60	49192
2026-01-21 03:25:38.60	186.72	2.26	-50.8	-62.8	3.6	8.46e-01	0	40	104	0	60	49880
2026-01-21 03:25:39.61	186.77	2.32	-50.8	-62.8	3.6	8.44e-01	0	40	104	0	60	49906
2026-01-21 03:25:40.62	186.81	2.39	-50.9	-62.9	3.6	8.45e-01	0	40	104	0	60	50650
2026-01-21 03:25:41.63	186.85	2.45	-51.3	-63.1	3.6	8.45e-01	0	40	104	0	60	51428
2026-01-21 03:25:42.64	186.90	2.51	-51.2	-63.1	3.6	8.46e-01	0	40	104	0	60	51572
2026-01-21 03:25:43.65	186.94	2.58	-51.1	-63.1	3.6	8.45e-01	0	40	104	0	60	51759
2026-01-21 03:25:44.66	186.99	2.64	-51.2	-63.2	3.6	8.46e-01	0	40	104	0	60	52311
2026-01-21 03:25:45.67	187.03	2.70	-51.0	-63.1	3.6	8.45e-01	0	40	104	0	60	51681
2026-01-21 03:25:46.68	187.08	2.76	-50.8	-62.6	3.6	8.45e-01	0	40	104	0	60	49015
2026-01-21 03:25:47.69	187.12	2.83	-50.6	-61.8	3.6	8.46e-01	0	40	104	0	60	44259
2026-01-21 03:25:48.70	187.17	2.89	-50.3	-60.5	3.6	8.45e-01	0	40	104	0	60	38331
2026-01-21 03:25:49.71	187.22	2.96	-49.9	-59.2	3.9	8.43e-01	0	40	104	0	60	32962
2026-01-21 03:25:50.72	187.26	3.02	-50.3	-59.7	3.9	8.43e-01	0	40	104	0	60	34983
2026-01-21 03:25:51.73	187.31	3.08	-50.5	-60.9	3.6	8.45e-01	0	40	104	0	60	39963
2026-01-21 03:25:52.74	187.36	3.15	-50.5	-60.8	3.6	8.44e-01	0	40	104	0	60	39848
2026-01-21 03:25:53.75	187.40	3.21	-50.4	-58.7	4.2	8.34e-01	0	40	104	0	60	31147
2026-01-21 03:25:54.76	187.45	3.27	-49.6	-54.7	6.4	6.62e-01	0	40	0	2097152	60	19597
2026-01-21 03:25:55.77	187.50	3.34	-48.1	-51.4	10.2	4.02e-02	0	40	0	7340032	60	13369
2026-01-21 03:25:56.78	187.54	3.40	-46.2	-48.2	13.7	2.06e-04	0	40	0	12582912	60	9342
2026-01-21 03:25:57.79	187.59	3.47	-45.4	-47.3	14.2	9.10e-06	0	40	0	18874368	60	8410
2026-01-21 03:25:58.80	187.64	3.53	-43.2	-44.5	17.1	0.00e+00	0	40	0	24117248	60	6090
2026-01-21 03:25:59.81	187.69	3.60	-41.8	-42.9	18.6	0.00e+00	0	40	0	29360128	56	6370
2026-01-21 03:26:00.81	187.73	3.66	-41.3	-42.3	18.8	0.00e+00	0	40	0	35651584	56	5939
2026-01-21 03:26:01.82	187.78	3.73	-41.0	-42.1	18.8	0.00e+00	0	40	0	40894464	54	6481
2026-01-21 03:26:02.84	187.83	3.79	-48.1	-51.6	9.0	3.62e-04	0	40	0	47185920	60	13737
2026-01-21 03:26:03.85	187.88	3.86	-46.3	-48.7	11.5	0.00e+00	0	40	0	52428800	60	9803
2026-01-21 03:26:04.85	187.93	3.92	-49.9	-59.5	3.9	8.45e-01	0	40	104	54525952	60	34161
2026-01-21 03:26:05.87	187.98	3.99	-39.6	-40.5	20.8	3.23e-02	0	40	0	56623104	54	5425
2026-01-21 03:26:06.88	188.03	4.06	-40.3	-41.3	19.7	0.00e+00	0	40	0	61865984	52	6627
2026-01-21 03:26:07.89	188.08	4.12	-40.4	-41.3	19.7	0.00e+00	0	40	0	67108864	54	5955
2026-01-21 03:26:08.90	188.13	4.19	-40.4	-41.3	20.2	0.00e+00	0	40	0	73400320	54	5946
2026-01-21 03:26:09.91	188.18	4.26	-41.2	-42.2	19.6	0.00e+00	0	40	0	78643200	54	6600
2026-01-21 03:26:10.92	188.23	4.32	-40.3	-41.3	20.1	0.00e+00	0	40	0	84934656	52	6617
2026-01-21 03:26:11.93	188.28	4.39	-41.9	-43.0	18.4	0.00e+00	0	40	0	90177536	56	6422
2026-01-21 03:26:12.94	188.33	4.46	-39.0	-39.9	21.3	0.00e+00	0	40	0	95420416	52	5633
2026-01-21 03:26:13.94	188.38	4.52	-40.5	-41.5	19.6	0.00e+00	0	40	0	101711872	52	6838
2026-01-21 03:26:14.95	188.43	4.59	-39.3	-40.2	21.0	0.00e+00	0	40	0	106954752	52	5838
2026-01-21 03:26:15.96	188.48	4.66	-40.0	-40.9	20.2	0.00e+00	0	40	0	113246208	52	6334
2026-01-21 03:26:16.97	188.53	4.72	-40.3	-41.2	19.9	0.00e+00	0	40	0	118489088	52	6600
2026-01-21 03:26:17.98	188.58	4.79	-40.3	-41.3	19.7	0.00e+00	0	40	0	123731968	52	6621
2026-01-21 03:26:18.99	188.63	4.86	-39.7	-40.5	21.4	0.00e+00	0	41	0	130023424	52	6092
2026-01-21 03:26:20.00	188.69	4.93	-41.1	-42.0	19.9	0.00e+00	0	40	0	135266304	54	6457
2026-01-21 03:26:21.01	188.74	5.00	-41.7	-42.8	19.4	0.00e+00	0	40	0	141557760	54	7032
2026-01-21 03:26:22.02	188.79	5.06	-41.2	-42.2	19.3	0.00e+00	0	40	0	146800640	54	6581
2026-01-21 03:26:23.03	188.84	5.13	-40.6	-41.5	20.4	0.00e+00	0	40	0	153092096	54	6098
2026-01-21 03:26:24.04	188.90	5.20	-40.4	-41.4	20.3	0.00e+00	0	40	0	158334976	54	5992
2026-01-21 03:26:25.05	188.95	5.27	-40.4	-41.3	20.5	0.00e+00	0	41	0	163577856	52	6692
2026-01-21 03:26:26.06	189.00	5.34	-39.5	-40.3	21.4	0.00e+00	0	40	0	169869312	52	5925
2026-01-21 03:26:27.07	189.06	5.41	-39.5	-40.4	21.5	0.00e+00	0	40	0	175112192	52	5967
2026-01-21 03:26:28.08	189.11	5.48	-40.5	-41.4	20.8	0.00e+00	0	40	0	181403648	52	6760
2026-01-21 03:26:29.09	189.16	5.55	-40.2	-41.0	20.9	0.00e+00	0	40	0	186646528	52	6464
2026-01-21 03:26:30.10	189.22	5.61	-40.3	-41.2	19.7	0.00e+00	0	40	0	191889408	52	6562
2026-01-21 03:26:31.11	189.27	5.68	-40.8	-41.8	20.4	0.00e+00	0	41	0	198180864	54	6268
2026-01-21 03:26:32.12	189.33	5.75	-40.7	-41.6	20.1	0.00e+00	0	40	0	203423744	54	6153
2026-01-21 03:26:33.13	189.38	5.82	-39.9	-40.8	21.3	0.00e+00	0	40	0	209715200	54	5568
2026-01-21 03:26:34.14	189.44	5.89	-40.1	-40.9	20.9	0.00e+00	0	41	0	214958080	54	5693
2026-01-21 03:26:35.15	189.49	5.96	-40.1	-40.9	21.4	0.00e+00	0	40	0	220200960	54	5683
2026-01-21 03:26:36.16	189.55	6.04	-40.1	-41.0	21.2	0.00e+00	0	40	0	226492416	54	5721
2026-01-21 03:26:37.17	189.61	6.11	-39.6	-40.4	21.8	0.00e+00	0	40	0	231735296	52	6033
2026-01-21 03:26:38.18	189.66	6.18	-39.7	-40.5	21.2	0.00e+00	0	41	0	238026752	52	6072
2026-01-21 03:26:39.19	189.72	6.25	-40.1	-40.9	21.4	0.00e+00	0	40	0	243269632	52	6373
2026-01-21 03:26:40.20	189.78	6.32	-39.4	-40.2	21.5	0.00e+00	0	41	0	249561088	52	5892
2026-01-21 03:26:41.21	189.83	6.39	-39.4	-40.2	22.0	0.00e+00	0	41	0	254803968	52	5868
2026-01-21 03:26:42.22	189.89	6.46	-39.4	-40.2	21.8	0.00e+00	0	40	0	261095424	52	5891
2026-01-21 03:26:43.23	189.95	6.53	-38.6	-39.4	22.5	0.00e+00	0	41	0	266338304	50	5997
2026-01-21 03:26:44.24	190.01	6.61	-37.9	-38.7	23.0	0.00e+00	0	41	0	271581184	50	5528
2026-01-21 03:26:45.25	190.06	6.68	-37.8	-38.6	23.0	0.00e+00	0	41	0	277872640	48	6124
2026-01-21 03:26:46.26	190.12	6.75	-38.1	-38.9	22.7	0.00e+00	0	41	0	283115520	48	6354
2026-01-21 03:26:47.27	190.18	6.82	-38.3	-39.0	22.9	0.00e+00	0	41	0	289406976	48	6456
2026-01-21 03:26:48.28	190.24	6.89	-38.2	-39.0	22.9	0.00e+00	0	41	0	294649856	48	6439
2026-01-21 03:26:49.29	190.30	6.97	-38.5	-39.3	23.1	0.00e+00	0	41	0	299892736	48	6624
2026-01-21 03:26:50.30	190.36	7.04	-37.9	-38.6	23.5	0.00e+00	0	41	0	306184192	48	6129
2026-01-21 03:26:51.31	190.42	7.11	-38.0	-38.7	23.2	0.00e+00	0	41	0	311427072	48	6245
2026-01-21 03:26:52.32	190.48	7.19	-37.6	-38.3	23.5	0.00e+00	0	41	0	317718528	48	5960
2026-01-21 03:26:53.33	190.54	7.26	-38.0	-38.7	23.4	0.00e+00	0	41	0	322961408	48	6236
2026-01-21 03:26:54.34	190.60	7.33	-38.0	-38.7	23.3	0.00e+00	0	41	0	328204288	48	6213
2026-01-21 03:26:55.35	190.66	7.41	-37.8	-38.5	23.6	0.00e+00	0	41	0	334495744	48	6083
2026-01-21 03:26:56.36	190.72	7.48	-39.2	-39.9	22.7	0.00e+00	0	41	0	339738624	50	6390
2026-01-21 03:26:57.37	190.79	7.56	-38.8	-39.5	23.3	0.00e+00	0	41	0	346030080	50	6080
2026-01-21 03:26:58.38	190.85	7.63	-37.8	-38.5	23.5	0.00e+00	0	41	0	351272960	50	5415
2026-01-21 03:26:59.39	190.91	7.71	-38.2	-39.0	23.4	0.00e+00	0	41	0	357564416	50	5712
2026-01-21 03:27:00.40	190.97	7.78	-38.5	-39.2	23.3	0.00e+00	0	41	0	362807296	50	5895
2026-01-21 03:27:01.41	191.03	7.86	-38.6	-39.4	23.2	0.00e+00	0	41	0	369098752	50	5980
2026-01-21 03:27:02.42	191.10	7.93	-38.3	-39.0	23.4	0.00e+00	0	41	0	374341632	50	5759
2026-01-21 03:27:03.43	191.16	8.01	-38.5	-39.3	23.5	0.00e+00	0	41	0	379584512	50	5908
2026-01-21 03:27:04.44	191.22	8.08	-38.8	-39.5	23.2	0.00e+00	0	41	0	385875968	50	6088
2026-01-21 03:27:05.45	191.29	8.16	-38.7	-39.5	23.1	0.00e+00	0	41	0	391118848	50	6066
2026-01-21 03:27:06.46	191.35	8.23	-38.9	-39.7	22.9	0.00e+00	0	41	0	397410304	50	6183
2026-01-21 03:27:07.47	191.42	8.31	-38.3	-39.0	23.4	0.00e+00	0	41	0	402653184	50	5706
2026-01-21 03:27:08.48	191.48	8.39	-38.5	-39.3	23.4	0.00e+00	0	41	0	407896064	50	5902
2026-01-21 03:27:09.49	191.55	8.46	-38.1	-38.9	23.5	0.00e+00	0	41	0	414187520	50	5644
2026-01-21 03:27:10.50	191.61	8.54	-38.1	-38.8	23.8	0.00e+00	0	41	0	419430400	50	5613
2026-01-21 03:27:11.51	191.68	8.62	-37.5	-38.2	24.1	0.00e+00	0	41	0	425721856	48	5890
2026-01-21 03:27:12.52	191.75	8.69	-37.2	-37.9	24.0	0.00e+00	0	41	0	430964736	48	5675
2026-01-21 03:27:13.53	191.81	8.77	-37.0	-37.7	24.1	0.00e+00	0	41	0	436207616	48	5504
2026-01-21 03:27:14.54	191.88	8.85	-37.0	-37.7	24.1	0.00e+00	0	41	0	442499072	48	5564
2026-01-21 03:27:15.55	191.95	8.93	-36.8	-37.6	24.1	0.00e+00	0	41	0	447741952	46	6112
2026-01-21 03:27:16.56	192.01	9.01	-37.5	-38.2	23.7	0.00e+00	0	41	0	454033408	46	6608
2026-01-21 03:27:17.57	192.08	9.08	-36.8	-37.5	24.3	0.00e+00	0	41	0	459276288	46	6067
2026-01-21 03:27:18.58	192.15	9.16	-36.5	-37.2	24.3	0.00e+00	0	41	0	465567744	46	5865
2026-01-21 03:27:19.60	192.22	9.24	-36.8	-37.5	24.0	0.00e+00	0	41	0	470810624	46	6070
2026-01-21 03:27:20.61	192.29	9.32	-36.7	-37.4	24.1	0.00e+00	0	41	0	476053504	46	5982
2026-01-21 03:27:21.62	192.36	9.40	-36.7	-37.3	24.3	0.00e+00	0	41	0	482344960	46	5964
2026-01-21 03:27:22.63	192.43	9.48	-36.7	-37.4	24.4	0.00e+00	0	41	0	487587840	46	6009
2026-01-21 03:27:23.64	192.50	9.56	-37.0	-37.7	24.2	0.00e+00	0	41	0	493879296	46	6197
2026-01-21 03:27:24.65	192.57	9.64	-36.6	-37.3	24.3	0.00e+00	0	41	0	499122176	46	5940
2026-01-21 03:27:25.66	192.64	9.72	-36.6	-37.3	24.5	0.00e+00	0	41	0	505413632	46	5906
2026-01-21 03:27:26.67	192.71	9.80	-36.8	-37.5	24.1	0.00e+00	0	41	0	510656512	46	6050
2026-01-21 03:27:27.68	192.78	9.88	-36.4	-37.0	24.6	0.00e+00	0	41	0	515899392	46	5760
2026-01-21 03:27:28.69	192.86	9.96	-36.8	-37.4	24.5	0.00e+00	0	41	0	522190848	46	6033
2026-01-21 03:27:29.70	192.93	10.04	-36.7	-37.4	24.6	0.00e+00	0	41	0	527433728	46	5994
2026-01-21 03:27:30.71	193.00	10.12	-37.0	-37.6	24.4	0.00e+00	0	41	0	533725184	46	6144
2026-01-21 03:27:31.72	193.07	10.20	-37.3	-38.0	24.3	0.00e+00	0	41	0	538968064	46	6431
2026-01-21 03:27:32.73	193.15	10.29	-37.0	-37.7	24.3	0.00e+00	0	41	0	544210944	46	6191
2026-01-21 03:27:33.75	193.22	10.37	-36.5	-37.2	24.5	0.00e+00	0	41	0	550502400	46	5873
2026-01-21 03:27:34.76	193.30	10.45	-36.4	-37.1	24.4	0.00e+00	0	41	0	555745280	46	5799
2026-01-21 03:27:35.77	193.37	10.53	-36.4	-37.1	24.5	0.00e+00	0	41	0	562036736	46	5813
2026-01-21 03:27:36.77	193.44	10.61	-36.5	-37.2	24.4	0.00e+00	0	41	0	567279616	46	5851
2026-01-21 03:27:37.78	193.52	10.70	-36.4	-37.1	24.4	0.00e+00	0	41	0	573571072	46	5803
2026-01-21 03:27:38.79	193.60	10.78	-36.2	-37.0	24.5	0.00e+00	0	41	0	578813952	46	5696
2026-01-21 03:27:39.81	193.67	10.86	-36.3	-36.9	24.5	0.00e+00	0	41	0	584056832	46	5686
2026-01-21 03:27:40.81	193.75	10.95	-36.0	-36.7	24.5	0.00e+00	0	41	0	590348288	46	5562
2026-01-21 03:27:41.82	193.83	11.03	-36.1	-36.8	24.6	0.00e+00	0	41	0	595591168	46	5628
2026-01-21 03:27:42.83	193.90	11.11	-36.0	-36.7	24.6	0.00e+00	0	41	0	601882624	46	5536
2026-01-21 03:27:43.84	193.98	11.20	-35.9	-36.7	24.7	0.00e+00	0	41	0	607125504	46	5507
2026-01-21 03:27:44.85	194.06	11.28	-36.3	-37.0	24.3	0.00e+00	0	41	0	612368384	46	5748
2026-01-21 03:27:45.86	194.14	11.37	-36.4	-37.1	24.3	0.00e+00	0	41	0	618659840	46	5790
2026-01-21 03:27:46.87	194.22	11.45	-36.2	-36.9	24.5	0.00e+00	0	41	0	623902720	46	5638
2026-01-21 03:27:47.88	194.30	11.54	-36.1	-36.8	24.5	0.00e+00	0	41	0	630194176	46	5612
2026-01-21 03:27:48.89	194.38	11.62	-36.2	-36.8	24.5	0.00e+00	0	41	0	635437056	46	5626
2026-01-21 03:27:49.90	194.46	11.71	-36.0	-36.7	24.7	0.00e+00	0	41	0	640679936	46	5530
2026-01-21 03:27:50.91	194.54	11.80	-36.1	-36.8	24.6	0.00e+00	0	41	0	646971392	46	5574
2026-01-21 03:27:51.92	194.62	11.88	-36.0	-36.7	24.6	0.00e+00	0	41	0	652214272	46	5563
2026-01-21 03:27:52.93	194.70	11.97	-36.0	-36.7	24.6	0.00e+00	0	41	0	658505728	46	5543
2026-01-21 03:27:53.94	194.79	12.06	-36.1	-36.8	24.6	0.00e+00	0	41	0	663748608	46	5599
2026-01-21 03:27:54.95	194.87	12.14	-36.4	-37.1	24.5	0.00e+00	0	41	0	670040064	46	5767
2026-01-21 03:27:55.96	194.95	12.23	-36.2	-36.9	24.5	0.00e+00	0	41	0	675282944	46	5644
2026-01-21 03:27:56.97	195.04	12.32	-36.2	-36.9	24.7	0.00e+00	0	41	0	681574400	46	5648
2026-01-21 03:27:57.98	195.12	12.40	-35.9	-36.5	24.9	0.00e+00	0	41	0	686817280	46	5432
2026-01-21 03:27:58.99	195.21	12.49	-35.7	-36.4	24.9	0.00e+00	0	41	0	692060160	46	5366
2026-01-21 03:28:00.00	195.29	12.58	-36.2	-36.9	24.7	0.00e+00	0	41	0	698351616	44	6340
2026-01-21 03:28:01.01	195.38	12.67	-35.9	-36.6	24.8	0.00e+00	0	41	0	703594496	44	6107
2026-01-21 03:28:02.02	195.46	12.76	-35.7	-36.3	25.0	0.00e+00	0	41	0	709885952	44	5964
2026-01-21 03:28:03.03	195.55	12.85	-35.8	-36.4	25.1	0.00e+00	0	41	0	715128832	44	6022
2026-01-21 03:28:04.04	195.64	12.94	-35.8	-36.5	24.9	0.00e+00	0	41	0	720371712	44	6081
2026-01-21 03:28:05.05	195.72	13.03	-35.6	-36.3	25.2	0.00e+00	0	41	0	726663168	44	5915
2026-01-21 03:28:06.06	195.81	13.12	-35.6	-36.3	25.2	0.00e+00	0	41	0	731906048	44	5925
2026-01-21 03:28:07.07	195.90	13.21	-35.9	-36.5	25.0	0.00e+00	0	41	0	738197504	44	6097
2026-01-21 03:28:08.08	195.99	13.30	-35.8	-36.5	25.1	0.00e+00	0	41	0	743440384	44	6063
2026-01-21 03:28:09.09	196.08	13.39	-35.8	-36.5	25.1	0.00e+00	0	41	0	748683264	44	6034
2026-01-21 03:28:10.10	196.17	13.48	-36.7	-37.4	25.2	0.00e+00	0	41	0	754974720	46	5989
2026-01-21 03:28:11.11	196.26	13.57	-36.6	-37.3	25.2	0.00e+00	0	41	0	760217600	46	5901
2026-01-21 03:28:12.12	196.35	13.66	-36.4	-37.1	25.1	0.00e+00	0	41	0	766509056	46	5788
2026-01-21 03:28:13.13	196.45	13.75	-36.0	-36.6	25.3	0.00e+00	0	41	0	771751936	46	5501
2026-01-21 03:28:14.14	196.54	13.85	-35.8	-36.5	25.2	0.00e+00	0	41	0	778043392	46	5415
2026-01-21 03:28:15.15	196.63	13.94	-36.4	-37.1	25.0	0.00e+00	0	41	0	783286272	46	5763
2026-01-21 03:28:16.16	196.72	14.03	-36.4	-37.1	25.1	0.00e+00	0	41	0	789577728	46	5788
2026-01-21 03:28:17.17	196.82	14.13	-37.2	-37.8	25.3	0.00e+00	0	41	0	794820608	46	6314
2026-01-21 03:28:18.18	196.91	14.22	-37.1	-37.8	25.0	0.00e+00	0	41	0	800063488	46	6271
2026-01-21 03:28:19.19	197.01	14.31	-36.5	-37.1	25.1	0.00e+00	0	41	0	806354944	46	5827
2026-01-21 03:28:20.20	197.10	14.41	-37.5	-38.2	25.1	0.00e+00	0	41	0	811597824	46	6547
2026-01-21 03:28:21.21	197.20	14.50	-37.5	-38.2	25.3	0.00e+00	0	41	0	817889280	48	5848
2026-01-21 03:28:22.22	197.30	14.59	-36.6	-37.3	25.5	0.00e+00	0	41	0	823132160	46	5904
2026-01-21 03:28:23.23	197.40	14.69	-36.8	-37.4	25.3	0.00e+00	0	41	0	828375040	46	6018
2026-01-21 03:28:24.24	197.49	14.78	-36.5	-37.1	25.5	0.00e+00	0	41	0	834666496	46	5810
2026-01-21 03:28:25.25	197.59	14.88	-36.1	-36.8	25.5	0.00e+00	0	41	0	839909376	46	5572
2026-01-21 03:28:26.26	197.69	14.98	-35.9	-36.6	25.6	0.00e+00	0	41	0	846200832	44	6169
2026-01-21 03:28:27.27	197.79	15.07	-36.4	-37.1	25.6	0.00e+00	0	41	0	851443712	44	6474
2026-01-21 03:28:28.28	197.89	15.17	-35.9	-36.6	25.7	0.00e+00	0	41	0	856686592	44	6144
2026-01-21 03:28:29.29	198.00	15.26	-36.2	-36.9	25.6	0.00e+00	0	41	0	862978048	44	6341
2026-01-21 03:28:30.30	198.10	15.36	-37.4	-38.1	25.4	0.00e+00	0	41	0	868220928	46	6477
2026-01-21 03:28:31.31	198.20	15.46	-36.7	-37.4	25.5	0.00e+00	0	41	0	874512384	46	5969
2026-01-21 03:28:32.32	198.30	15.56	-36.7	-37.3	25.1	0.00e+00	0	41	0	879755264	46	5962
2026-01-21 03:28:33.33	198.41	15.65	-36.5	-37.2	25.3	0.00e+00	0	41	0	886046720	46	5875
2026-01-21 03:28:34.34	198.51	15.75	-35.2	-35.9	25.9	0.00e+00	0	41	0	891289600	44	5672
2026-01-21 03:28:35.35	198.62	15.85	-35.5	-36.1	25.9	0.00e+00	0	41	0	896532480	44	5796
2026-01-21 03:28:36.37	198.72	15.95	-35.3	-36.0	26.1	0.00e+00	0	41	0	902823936	44	5724
2026-01-21 03:28:37.38	198.83	16.05	-35.6	-36.2	26.0	0.00e+00	0	41	0	908066816	44	5877
2026-01-21 03:28:38.39	198.94	16.15	-35.6	-36.3	26.0	0.00e+00	0	41	0	914358272	44	5909
2026-01-21 03:28:39.40	199.05	16.25	-35.8	-36.5	26.0	0.00e+00	0	41	0	919601152	44	6045
2026-01-21 03:28:40.41	199.15	16.35	-35.9	-36.6	25.9	0.00e+00	0	41	0	925892608	44	6146
2026-01-21 03:28:41.42	199.26	16.45	-36.5	-37.1	25.9	0.00e+00	0	41	0	931135488	44	6523
2026-01-21 03:28:42.43	199.37	16.55	-36.0	-36.6	26.1	0.00e+00	0	41	0	936378368	44	6166
2026-01-21 03:28:43.44	199.48	16.65	-35.8	-36.5	26.3	0.00e+00	0	41	0	942669824	44	6059
2026-01-21 03:28:44.45	199.60	16.75	-35.6	-36.2	26.3	0.00e+00	0	41	0	947912704	44	5877
2026-01-21 03:28:45.46	199.71	16.85	-35.1	-35.8	26.2	0.00e+00	0	41	0	954204160	44	5581
2026-01-21 03:28:46.47	199.82	16.96	-35.0	-35.6	26.3	0.00e+00	0	41	0	959447040	44	5487
2026-01-21 03:28:47.48	199.93	17.06	-35.3	-35.9	26.3	0.00e+00	0	41	0	964689920	44	5690
2026-01-21 03:28:48.49	200.05	17.16	-35.5	-36.2	26.4	0.00e+00	0	41	0	970981376	44	5873
2026-01-21 03:28:49.50	200.16	17.26	-35.8	-36.5	26.2	0.00e+00	0	41	0	976224256	44	6045
2026-01-21 03:28:50.51	200.28	17.37	-35.9	-36.5	26.2	0.00e+00	0	41	0	982515712	44	6085
2026-01-21 03:28:51.51	200.40	17.47	-35.8	-36.4	26.3	0.00e+00	0	41	0	987758592	44	6003
2026-01-21 03:28:52.53	200.51	17.57	-35.7	-36.4	26.4	0.00e+00	0	41	0	994050048	44	5972
2026-01-21 03:28:53.53	200.63	17.68	-35.3	-35.9	26.6	0.00e+00	0	41	0	999292928	44	5657
2026-01-21 03:28:54.55	200.75	17.78	-35.1	-35.8	26.5	0.00e+00	0	41	0	1004535808	44	5575
2026-01-21 03:28:55.55	200.87	17.89	-34.7	-35.4	26.6	0.00e+00	0	41	0	1010827264	44	5322
2026-01-21 03:28:56.56	200.99	17.99	-34.7	-35.3	26.5	0.00e+00	0	41	0	1016070144	42	5912
2026-01-21 03:28:57.57	201.11	18.10	-34.8	-35.4	26.4	0.00e+00	0	41	0	1022361600	42	6000
2026-01-21 03:28:58.59	201.24	18.20	-35.2	-35.8	26.6	0.00e+00	0	41	0	1027604480	42	6279
2026-01-21 03:28:59.59	201.36	18.31	-35.1	-35.8	26.6	0.00e+00	0	41	0	1032847360	42	6254
2026-01-21 03:29:00.60	201.48	18.42	-35.0	-35.6	26.7	0.00e+00	0	41	0	1039138816	42	6172
2026-01-21 03:29:01.61	201.61	18.52	-35.1	-35.7	26.7	0.00e+00	0	41	0	1044381696	42	6227
2026-01-21 03:29:02.62	201.73	18.63	-34.7	-35.3	26.8	0.00e+00	0	41	0	1050673152	42	5942
2026-01-21 03:29:03.63	201.86	18.74	-34.5	-35.1	26.9	0.00e+00	0	41	0	1055916032	42	5802
2026-01-21 03:29:04.64	201.99	18.84	-34.4	-35.1	26.6	0.00e+00	0	41	0	1061158912	42	5770
2026-01-21 03:29:05.65	202.11	18.95	-34.3	-34.9	26.8	0.00e+00	0	41	0	1067450368	42	5669
2026-01-21 03:29:06.66	202.24	19.06	-34.0	-34.7	26.8	0.00e+00	0	41	0	1072693248	42	5513
2026-01-21 03:29:07.67	202.37	19.17	-34.2	-34.8	26.7	0.00e+00	0	41	0	1078984704	42	5623
2026-01-21 03:29:08.68	202.50	19.28	-34.4	-35.1	26.7	0.00e+00	0	41	0	1084227584	42	5778
2026-01-21 03:29:09.69	202.64	19.39	-34.6	-35.3	26.7	0.00e+00	0	41	0	1090519040	42	5912
2026-01-21 03:29:10.70	202.77	19.50	-34.6	-35.2	26.5	0.00e+00	0	41	0	1095761920	42	5885
2026-01-21 03:29:11.71	202.90	19.61	-34.5	-35.2	26.7	0.00e+00	0	41	0	1102053376	42	5860
2026-01-21 03:29:12.72	203.04	19.72	-34.6	-35.2	26.6	0.00e+00	0	41	0	1107296256	42	5879
2026-01-21 03:29:13.73	203.17	19.83	-34.5	-35.2	26.7	0.00e+00	0	41	0	1112539136	42	5831
2026-01-21 03:29:14.74	203.31	19.94	-34.3	-34.9	26.8	0.00e+00	0	41	0	1118830592	42	5680
2026-01-21 03:29:15.75	203.45	20.05	-34.1	-34.7	26.8	0.00e+00	0	41	0	1124073472	42	5548
2026-01-21 03:29:16.76	203.59	20.17	-34.3	-34.9	26.7	0.00e+00	0	41	0	1130364928	42	5684
2026-01-21 03:29:17.77	203.72	20.28	-34.2	-34.8	26.8	0.00e+00	0	41	0	1135607808	42	5589
2026-01-21 03:29:18.78	203.87	20.39	-34.4	-35.0	26.9	0.00e+00	0	41	0	1140850688	42	5723
2026-01-21 03:29:19.79	204.01	20.50	-34.2	-34.8	27.1	0.00e+00	0	41	0	1147142144	42	5604
2026-01-21 03:29:20.80	204.15	20.62	-33.9	-34.5	27.1	0.00e+00	0	41	0	1152385024	42	5430
2026-01-21 03:29:21.81	204.29	20.73	-34.1	-34.7	27.1	0.00e+00	0	41	0	1158676480	42	5528
2026-01-21 03:29:22.82	204.44	20.84	-33.9	-34.5	27.1	0.00e+00	0	41	0	1163919360	42	5385
2026-01-21 03:29:23.83	204.58	20.96	-34.1	-34.7	27.1	0.00e+00	0	41	0	1169162240	42	5552
2026-01-21 03:29:24.83	204.73	21.07	-33.9	-34.5	27.3	0.00e+00	0	41	0	1175453696	42	5430
2026-01-21 03:29:25.84	204.88	21.19	-34.2	-34.8	27.3	0.00e+00	0	41	0	1180696576	42	5597
2026-01-21 03:29:26.85	205.02	21.30	-34.7	-35.3	26.9	0.00e+00	0	41	0	1186988032	42	5939
2026-01-21 03:29:27.86	205.17	21.42	-34.7	-35.4	27.0	0.00e+00	0	41	0	1192230912	42	5968
2026-01-21 03:29:28.87	205.32	21.53	-34.8	-35.5	27.1	0.00e+00	0	41	0	1198522368	42	6044
2026-01-21 03:29:29.88	205.48	21.65	-34.7	-35.3	27.0	0.00e+00	0	41	0	1203765248	42	5936
2026-01-21 03:29:30.89	205.63	21.77	-34.5	-35.2	27.0	0.00e+00	0	41	0	1209008128	42	5847
2026-01-21 03:29:31.91	205.78	21.89	-34.3	-35.0	26.9	0.00e+00	0	41	0	1215299584	42	5704
2026-01-21 03:29:32.92	205.94	22.00	-34.3	-34.9	26.9	0.00e+00	0	41	0	1220542464	42	5668
2026-01-21 03:29:33.93	206.10	22.12	-34.3	-35.0	27.0	0.00e+00	0	41	0	1226833920	42	5703
2026-01-21 03:29:34.94	206.25	22.24	-34.2	-34.8	27.1	0.00e+00	0	41	0	1232076800	42	5625
2026-01-21 03:29:35.95	206.41	22.36	-34.3	-34.9	27.2	0.00e+00	0	41	0	1237319680	42	5656
2026-01-21 03:29:36.96	206.57	22.48	-34.2	-34.9	27.3	0.00e+00	0	41	0	1243611136	42	5655
2026-01-21 03:29:37.97	206.73	22.59	-34.7	-35.3	27.0	0.00e+00	0	41	0	1248854016	42	5952
2026-01-21 03:29:38.98	206.90	22.71	-34.5	-35.1	27.4	0.00e+00	0	41	0	1255145472	42	5777
2026-01-21 03:29:39.99	207.06	22.83	-34.4	-35.0	27.4	0.00e+00	0	41	0	1260388352	42	5749
2026-01-21 03:29:41.00	207.23	22.95	-34.5	-35.1	27.3	0.00e+00	0	41	0	1265631232	42	5799
2026-01-21 03:29:42.01	207.39	23.07	-34.6	-35.2	27.4	0.00e+00	0	41	0	1271922688	42	5862
2026-01-21 03:29:43.02	207.56	23.19	-34.3	-34.9	27.4	0.00e+00	0	41	0	1277165568	42	5676
2026-01-21 03:29:44.03	207.73	23.32	-33.8	-34.4	27.5	0.00e+00	0	41	0	1283457024	42	5360
2026-01-21 03:29:45.04	207.90	23.44	-33.6	-34.2	27.6	0.00e+00	0	41	0	1288699904	40	5868
2026-01-21 03:29:46.05	208.07	23.56	-33.9	-34.5	27.6	0.00e+00	0	41	0	1294991360	40	6054
2026-01-21 03:29:47.06	208.24	23.68	-33.7	-34.3	27.7	0.00e+00	0	41	0	1300234240	40	5957
2026-01-21 03:29:48.07	208.41	23.80	-33.7	-34.3	27.5	0.00e+00	0	41	0	1306525696	40	5910
2026-01-21 03:29:49.08	208.59	23.93	-33.7	-34.3	27.6	0.00e+00	0	41	0	1311768576	40	5899
2026-01-21 03:29:50.09	208.77	24.05	-33.6	-34.2	27.6	0.00e+00	0	41	0	1317011456	40	5850
2026-01-21 03:29:51.10	208.94	24.17	-34.1	-34.7	27.5	0.00e+00	0	41	0	1323302912	40	6192
2026-01-21 03:29:52.11	209.12	24.29	-34.2	-34.8	27.1	0.00e+00	0	41	0	1328545792	40	6274
2026-01-21 03:29:53.12	209.30	24.42	-34.0	-34.6	27.4	0.00e+00	0	41	0	1334837248	40	6159
2026-01-21 03:29:54.13	209.48	24.54	-34.0	-34.6	27.2	0.00e+00	0	41	0	1340080128	40	6163
2026-01-21 03:29:55.14	209.67	24.67	-34.0	-34.7	27.2	0.00e+00	0	41	0	1345323008	40	6177
2026-01-21 03:29:56.15	209.85	24.79	-33.6	-34.2	27.5	0.00e+00	0	41	0	1351614464	40	5871
2026-01-21 03:29:57.16	210.04	24.92	-33.5	-34.1	27.5	0.00e+00	0	41	0	1356857344	40	5797
2026-01-21 03:29:58.17	210.23	25.04	-33.3	-33.9	27.5	0.00e+00	0	41	0	1363148800	40	5688
2026-01-21 03:29:59.18	210.42	25.17	-33.2	-33.8	27.6	0.00e+00	0	41	0	1368391680	40	5607
2026-01-21 03:30:00.19	210.61	25.29	-33.4	-34.0	27.5	0.00e+00	0	41	0	1373634560	40	5714
2026-01-21 03:30:01.20	210.80	25.42	-33.2	-33.8	27.7	0.00e+00	0	41	0	1379926016	40	5607
2026-01-21 03:30:02.21	210.99	25.54	-33.3	-33.9	27.7	0.00e+00	0	41	0	1385168896	40	5662
2026-01-21 03:30:03.22	211.19	25.67	-32.9	-33.6	27.9	0.00e+00	0	41	0	1391460352	40	5442
2026-01-21 03:30:04.23	211.38	25.80	-32.8	-33.5	27.8	0.00e+00	0	41	0	1396703232	38	6035
2026-01-21 03:30:05.24	211.58	25.92	-33.0	-33.6	28.0	0.00e+00	0	41	0	1402994688	38	6141
2026-01-21 03:30:06.25	211.78	26.05	-33.4	-34.1	27.8	0.00e+00	0	41	0	1408237568	38	6467
2026-01-21 03:30:07.26	211.98	26.18	-33.6	-34.2	27.9	0.00e+00	0	41	0	1414529024	40	5838
2026-01-21 03:30:08.26	212.18	26.31	-33.4	-34.0	28.0	0.00e+00	0	41	0	1419771904	40	5716
2026-01-21 03:30:09.27	212.39	26.43	-33.4	-34.0	27.8	0.00e+00	0	41	0	1425014784	40	5741
2026-01-21 03:30:10.28	212.59	26.56	-33.2	-33.8	27.9	0.00e+00	0	41	0	1431306240	40	5591
2026-01-21 03:30:11.29	212.80	26.69	-33.1	-33.7	27.9	0.00e+00	0	41	0	1436549120	40	5565
2026-01-21 03:30:12.31	213.01	26.82	-33.1	-33.7	27.9	0.00e+00	0	41	0	1441792000	40	5532
2026-01-21 03:30:13.31	213.22	26.95	-32.9	-33.5	27.9	0.00e+00	0	41	0	1448083456	40	5402
2026-01-21 03:30:14.32	213.43	27.08	-32.6	-33.2	28.1	0.00e+00	0	41	0	1453326336	38	5874
2026-01-21 03:30:15.33	213.65	27.21	-32.6	-33.3	27.9	0.00e+00	0	41	0	1459617792	38	5901
2026-01-21 03:30:16.34	213.86	27.34	-32.6	-33.2	28.1	0.00e+00	0	41	0	1464860672	38	5871
2026-01-21 03:30:17.35	214.08	27.47	-32.4	-33.0	28.2	0.00e+00	0	41	0	1470103552	38	5748
2026-01-21 03:30:18.36	214.30	27.60	-32.6	-33.2	28.1	0.00e+00	0	41	0	1476395008	38	5868
2026-01-21 03:30:19.37	214.52	27.73	-32.9	-33.5	27.9	0.00e+00	0	41	0	1481637888	38	6087
2026-01-21 03:30:20.38	214.74	27.86	-32.9	-33.5	27.9	0.00e+00	0	41	0	1487929344	38	6059
2026-01-21 03:30:21.39	214.97	27.99	-33.1	-33.7	27.9	0.00e+00	0	41	0	1493172224	38	6242
2026-01-21 03:30:22.40	215.19	28.12	-33.2	-33.8	27.8	0.00e+00	0	41	0	1499463680	38	6249
2026-01-21 03:30:23.41	215.42	28.25	-33.4	-34.0	27.7	0.00e+00	0	41	0	1504706560	40	5759
2026-01-21 03:30:24.42	215.65	28.38	-33.2	-33.8	27.9	0.00e+00	0	41	0	1510998016	40	5581
2026-01-21 03:30:25.43	215.88	28.51	-32.9	-33.5	28.0	0.00e+00	0	41	0	1516240896	40	5403
2026-01-21 03:30:26.43	216.12	28.64	-32.7	-33.2	28.0	0.00e+00	0	41	0	1521483776	40	5252
2026-01-21 03:30:27.45	216.35	28.77	-32.4	-33.0	28.1	0.00e+00	0	41	0	1527775232	38	5710
2026-01-21 03:30:28.46	216.59	28.90	-32.6	-33.2	28.2	0.00e+00	0	41	0	1533018112	38	5852
2026-01-21 03:30:29.47	216.83	29.03	-32.6	-33.2	28.1	0.00e+00	0	41	0	1539309568	38	5835
2026-01-21 03:30:30.48	217.07	29.16	-32.4	-33.0	28.2	0.00e+00	0	41	0	1544552448	38	5760
2026-01-21 03:30:31.49	217.32	29.30	-32.3	-32.9	28.2	0.00e+00	0	41	0	1549795328	38	5685
2026-01-21 03:30:32.50	217.56	29.43	-32.4	-33.0	28.2	0.00e+00	0	41	0	1556086784	38	5719
2026-01-21 03:30:33.51	217.81	29.56	-32.5	-33.1	28.1	0.00e+00	0	41	0	1561329664	38	5788
2026-01-21 03:30:34.52	218.06	29.69	-32.4	-33.0	28.2	0.00e+00	0	41	0	1567621120	38	5743
2026-01-21 03:30:35.53	218.31	29.82	-32.7	-33.3	28.0	0.00e+00	0	41	0	1572864000	38	5943
2026-01-21 03:30:36.54	218.56	29.95	-32.9	-33.5	27.8	0.00e+00	0	41	0	1578106880	38	6081
2026-01-21 03:30:37.55	218.82	30.08	-32.6	-33.2	28.0	0.00e+00	0	41	0	1584398336	38	5853
2026-01-21 03:30:38.56	219.07	30.22	-32.6	-33.2	27.8	0.00e+00	0	41	0	1589641216	38	5893
2026-01-21 03:30:39.57	219.33	30.35	-33.0	-33.6	27.9	0.00e+00	0	41	0	1595932672	38	6125
2026-01-21 03:30:40.58	219.59	30.48	-33.0	-33.6	27.8	0.00e+00	0	41	0	1601175552	38	6162
2026-01-21 03:30:41.59	219.86	30.61	-33.0	-33.6	27.7	0.00e+00	0	41	0	1607467008	38	6161
2026-01-21 03:30:42.60	220.12	30.74	-32.9	-33.5	27.8	0.00e+00	0	41	0	1612709888	38	6068
2026-01-21 03:30:43.61	220.39	30.87	-33.2	-33.8	27.8	0.00e+00	0	41	0	1617952768	38	6297
2026-01-21 03:30:44.61	220.66	31.00	-33.4	-34.0	27.6	0.00e+00	0	41	0	1624244224	38	6439
2026-01-21 03:30:45.63	220.93	31.14	-33.5	-34.1	27.4	0.00e+00	0	41	0	1629487104	38	6528
2026-01-21 03:30:46.63	221.21	31.27	-33.0	-33.6	27.9	0.00e+00	0	41	0	1635778560	38	6163
2026-01-21 03:30:47.64	221.48	31.40	-33.1	-33.7	27.8	0.00e+00	0	41	0	1641021440	38	6243
2026-01-21 03:30:48.65	221.76	31.53	-33.6	-34.2	27.6	0.00e+00	0	41	0	1646264320	40	5878
2026-01-21 03:30:49.66	222.04	31.66	-33.7	-34.3	27.6	0.00e+00	0	41	0	1652555776	40	5919
2026-01-21 03:30:50.67	222.32	31.79	-32.8	-33.4	28.2	0.00e+00	0	41	0	1657798656	40	5359
2026-01-21 03:30:51.68	222.61	31.92	-32.8	-33.3	28.3	0.00e+00	0	41	0	1664090112	38	5963
2026-01-21 03:30:52.69	222.90	32.05	-32.5	-33.1	28.4	0.00e+00	0	42	0	1669332992	38	5801
2026-01-21 03:30:53.70	223.19	32.18	-32.6	-33.3	28.5	0.00e+00	0	41	0	1674575872	38	5899
2026-01-21 03:30:54.70	223.48	32.31	-32.5	-33.1	28.4	0.00e+00	0	41	0	1680867328	38	5785
2026-01-21 03:30:55.72	223.77	32.44	-32.7	-33.3	28.3	0.00e+00	0	41	0	1686110208	38	5956
2026-01-21 03:30:56.73	224.07	32.57	-33.0	-33.6	28.3	0.00e+00	0	41	0	1692401664	38	6160
2026-01-21 03:30:57.73	224.37	32.69	-33.3	-33.9	28.0	0.00e+00	0	41	0	1697644544	38	6358
2026-01-21 03:30:58.74	224.67	32.82	-33.3	-33.9	27.9	0.00e+00	0	42	0	1703936000	38	6375
2026-01-21 03:30:59.75	224.97	32.95	-33.2	-33.8	28.3	0.00e+00	0	42	0	1709178880	40	5628
2026-01-21 03:31:00.76	225.28	33.08	-33.1	-33.6	28.3	0.00e+00	0	41	0	1715470336	40	5500
2026-01-21 03:31:01.77	225.58	33.21	-33.2	-33.8	28.3	0.00e+00	0	41	0	1720713216	40	5603
2026-01-21 03:31:02.78	225.90	33.33	-33.6	-34.3	28.1	0.00e+00	0	41	0	1725956096	40	5922
2026-01-21 03:31:03.79	226.21	33.46	-33.6	-34.1	28.3	0.00e+00	0	41	0	1732247552	40	5817
2026-01-21 03:31:04.80	226.52	33.59	-33.1	-33.7	28.4	0.00e+00	0	41	0	1737490432	40	5514
2026-01-21 03:31:05.81	226.84	33.71	-33.3	-33.9	28.2	0.00e+00	0	41	0	1742733312	40	5660
2026-01-21 03:31:06.82	227.16	33.84	-33.0	-33.6	28.2	0.00e+00	0	41	0	1749024768	40	5445
2026-01-21 03:31:07.83	227.48	33.96	-33.2	-33.9	28.2	0.00e+00	0	41	0	1754267648	40	5632
2026-01-21 03:31:08.84	227.81	34.09	-33.0	-33.6	28.2	0.00e+00	0	41	0	1760559104	40	5479
2026-01-21 03:31:09.85	228.14	34.21	-32.9	-33.5	27.9	0.00e+00	0	41	0	1765801984	40	5415
2026-01-21 03:31:10.86	228.47	34.34	-33.3	-33.9	27.9	0.00e+00	0	41	0	1771044864	40	5656
2026-01-21 03:31:11.87	228.80	34.46	-33.5	-34.1	28.1	0.00e+00	0	41	0	1777336320	40	5782
2026-01-21 03:31:12.88	229.14	34.58	-32.8	-33.4	28.2	0.00e+00	0	41	0	1782579200	38	5970
2026-01-21 03:31:13.89	229.47	34.70	-32.7	-33.3	28.4	0.00e+00	0	41	0	1788870656	38	5956
2026-01-21 03:31:14.90	229.81	34.82	-32.4	-33.0	28.4	0.00e+00	0	41	0	1794113536	38	5733
2026-01-21 03:31:15.90	230.15	34.94	-32.7	-33.3	28.2	0.00e+00	0	41	0	1800404992	38	5954
2026-01-21 03:31:16.91	230.50	35.06	-32.8	-33.4	28.0	0.00e+00	0	41	0	1805647872	38	5974
2026-01-21 03:31:17.92	230.84	35.18	-32.7	-33.3	28.1	0.00e+00	0	41	0	1811939328	38	5953
2026-01-21 03:31:18.93	231.19	35.30	-32.2	-32.8	28.5	0.00e+00	0	42	0	1817182208	38	5621
2026-01-21 03:31:19.94	231.55	35.42	-32.3	-32.9	28.4	0.00e+00	0	41	0	1822425088	38	5672
2026-01-21 03:31:20.95	231.90	35.53	-32.5	-33.1	28.6	0.00e+00	0	41	0	1828716544	38	5811
2026-01-21 03:31:21.96	232.26	35.65	-32.7	-33.3	28.3	0.00e+00	0	41	0	1833959424	38	5917
2026-01-21 03:31:22.97	232.62	35.77	-32.1	-32.7	28.6	0.00e+00	0	41	0	1840250880	38	5505
2026-01-21 03:31:23.98	232.98	35.88	-32.1	-32.7	28.6	0.00e+00	0	41	0	1845493760	38	5532
2026-01-21 03:31:24.99	233.35	35.99	-32.4	-33.0	28.3	0.00e+00	0	41	0	1850736640	38	5720
2026-01-21 03:31:26.00	233.71	36.11	-32.4	-33.0	28.4	0.00e+00	0	41	0	1857028096	38	5731
2026-01-21 03:31:27.01	234.08	36.22	-32.4	-33.0	28.4	0.00e+00	0	41	0	1862270976	38	5725
2026-01-21 03:31:28.02	234.46	36.33	-32.0	-32.7	28.5	0.00e+00	0	41	0	1868562432	38	5503
2026-01-21 03:31:29.03	234.83	36.44	-32.1	-32.7	28.5	0.00e+00	0	42	0	1873805312	38	5515
2026-01-21 03:31:30.04	235.21	36.55	-32.1	-32.8	28.4	0.00e+00	0	42	0	1879048192	38	5571
2026-01-21 03:31:31.04	235.58	36.65	-32.0	-32.6	28.5	0.00e+00	0	42	0	1885339648	38	5472
2026-01-21 03:31:32.05	235.97	36.76	-32.1	-32.7	28.3	0.00e+00	0	42	0	1890582528	38	5515
2026-01-21 03:31:33.06	236.35	36.87	-31.7	-32.4	28.6	0.00e+00	0	41	0	1896873984	38	5319
2026-01-21 03:31:34.07	236.74	36.97	-31.8	-32.5	28.5	0.00e+00	0	41	0	1902116864	36	6039
2026-01-21 03:31:35.08	237.13	37.07	-31.6	-32.2	28.6	0.00e+00	0	42	0	1908408320	36	5873
2026-01-21 03:31:36.09	237.52	37.18	-31.9	-32.5	28.4	0.00e+00	0	42	0	1913651200	36	6092
2026-01-21 03:31:37.10	237.91	37.28	-31.8	-32.4	28.5	0.00e+00	0	41	0	1918894080	36	5998
2026-01-21 03:31:38.11	238.31	37.38	-32.0	-32.6	28.6	0.00e+00	0	41	0	1925185536	36	6113
2026-01-21 03:31:39.12	238.71	37.48	-32.1	-32.7	28.4	0.00e+00	0	41	0	1930428416	36	6193
2026-01-21 03:31:40.13	239.11	37.57	-32.1	-32.7	28.4	0.00e+00	0	41	0	1936719872	36	6183
2026-01-21 03:31:41.14	239.51	37.67	-31.9	-32.5	28.6	0.00e+00	0	41	0	1941962752	36	6055
2026-01-21 03:31:42.15	239.92	37.77	-31.9	-32.5	28.4	0.00e+00	0	41	0	1947205632	36	6099
2026-01-21 03:31:43.16	240.33	37.86	-31.8	-32.4	28.6	0.00e+00	0	41	0	1953497088	36	6009
2026-01-21 03:31:44.17	240.74	37.95	-32.0	-32.6	28.5	0.00e+00	0	41	0	1958739968	36	6105
2026-01-21 03:31:45.18	241.15	38.04	-31.6	-32.1	28.7	0.00e+00	0	41	0	1965031424	36	5813
2026-01-21 03:31:46.19	241.57	38.13	-31.6	-32.2	28.7	0.00e+00	0	41	0	1970274304	36	5854
2026-01-21 03:31:47.20	241.99	38.22	-31.8	-32.4	28.6	0.00e+00	0	41	0	1975517184	36	5978
2026-01-21 03:31:48.21	242.41	38.31	-31.6	-32.2	28.7	0.00e+00	0	41	0	1981808640	36	5861
2026-01-21 03:31:49.22	242.83	38.39	-31.9	-32.5	28.5	0.00e+00	0	42	0	1987051520	36	6047
2026-01-21 03:31:50.23	243.25	38.48	-32.1	-32.7	28.4	0.00e+00	0	41	0	1993342976	36	6228
2026-01-21 03:31:51.24	243.68	38.56	-32.0	-32.5	28.5	0.00e+00	0	41	0	1998585856	36	6100
2026-01-21 03:31:52.25	244.11	38.64	-31.8	-32.4	28.5	0.00e+00	0	41	0	2004877312	36	5994
2026-01-21 03:31:53.26	244.54	38.72	-31.9	-32.5	28.4	0.00e+00	0	42	0	2010120192	36	6059
2026-01-21 03:31:54.27	244.97	38.79	-32.2	-32.8	28.3	0.00e+00	0	41	0	2016411648	36	6270
2026-01-21 03:31:55.28	245.41	38.87	-31.8	-32.5	28.5	0.00e+00	0	42	0	2021654528	36	6037
2026-01-21 03:31:56.29	245.84	38.94	-31.8	-32.3	28.6	0.00e+00	0	42	0	2026897408	36	5953
2026-01-21 03:31:57.30	246.28	39.02	-31.8	-32.3	28.6	0.00e+00	0	42	0	2033188864	36	5939
2026-01-21 03:31:58.31	246.72	39.09	-31.8	-32.5	28.5	0.00e+00	0	42	0	2038431744	36	6049
2026-01-21 03:31:59.32	247.16	39.16	-32.0	-32.6	28.5	0.00e+00	0	41	0	2044723200	36	6125
2026-01-21 03:32:00.33	247.61	39.22	-32.1	-32.7	28.3	0.00e+00	0	42	0	2049966080	36	6236
2026-01-21 03:32:01.34	248.05	39.29	-31.9	-32.5	28.5	0.00e+00	0	42	0	2055208960	36	6063
2026-01-21 03:32:02.35	248.50	39.35	-31.9	-32.5	28.5	0.00e+00	0	42	0	2061500416	36	6073
2026-01-21 03:32:03.36	248.95	39.41	-32.3	-32.9	28.0	0.00e+00	0	41	0	2066743296	36	6348
2026-01-21 03:32:04.38	249.40	39.47	-32.0	-32.6	28.5	0.00e+00	0	41	0	2073034752	36	6143
2026-01-21 03:32:05.39	249.86	39.53	-32.4	-33.0	28.6	0.00e+00	0	41	0	2078277632	36	6401
2026-01-21 03:32:06.40	250.31	39.59	-32.4	-32.9	28.6	0.00e+00	0	41	0	2083520512	36	6389
2026-01-21 03:32:07.41	250.77	39.64	-32.2	-32.8	28.8	0.00e+00	0	42	0	2089811968	36	6281
2026-01-21 03:32:08.41	251.22	39.69	-31.9	-32.5	28.8	0.00e+00	0	42	0	2095054848	36	6075
2026-01-21 03:32:09.42	251.68	39.75	-32.0	-32.6	28.6	0.00e+00	0	41	0	2101346304	36	6152
2026-01-21 03:32:10.43	252.14	39.79	-32.2	-32.8	28.4	0.00e+00	0	41	0	2106589184	36	6301
2026-01-21 03:32:11.44	252.60	39.84	-32.1	-32.7	28.5	0.00e+00	0	42	0	2112880640	36	6183
2026-01-21 03:32:12.45	253.06	39.88	-32.1	-32.7	28.6	0.00e+00	0	41	0	2118123520	36	6205
2026-01-21 03:32:13.46	253.53	39.93	-32.0	-32.6	28.6	0.00e+00	0	41	0	2124414976	36	6164
2026-01-21 03:32:14.47	253.99	39.97	-32.4	-33.0	28.5	0.00e+00	0	42	0	2129657856	36	6409
2026-01-21 03:32:15.48	254.46	40.01	-32.4	-32.9	28.5	0.00e+00	0	42	0	2134900736	36	6371
2026-01-21 03:32:16.49	254.92	40.04	-31.9	-32.5	28.8	0.00e+00	0	42	0	2141192192	36	6039
2026-01-21 03:32:17.50	255.39	40.08	-31.8	-32.5	28.7	0.00e+00	0	42	0	2146435072	36	6046
2026-01-21 03:32:18.51	255.86	40.11	-32.4	-32.9	28.5	0.00e+00	0	42	0	2151677952	36	6387
2026-01-21 03:32:19.52	256.33	40.14	-32.7	-33.3	28.4	0.00e+00	0	41	0	2157969408	36	6662
2026-01-21 03:32:20.53	256.80	40.17	-33.0	-33.6	28.2	0.00e+00	0	42	0	2163212288	38	6123
2026-01-21 03:32:21.54	257.27	40.19	-33.0	-33.6	28.1	0.00e+00	0	42	0	2169503744	38	6137
2026-01-21 03:32:22.55	257.74	40.22	-32.7	-33.3	28.2	0.00e+00	0	41	0	2174746624	38	5937
2026-01-21 03:32:23.55	258.21	40.24	-32.6	-33.2	28.2	0.00e+00	0	42	0	2179989504	38	5882
2026-01-21 03:32:24.56	258.69	40.26	-32.3	-32.9	28.4	0.00e+00	0	42	0	2186280960	38	5672
2026-01-21 03:32:25.57	259.16	40.28	-32.2	-32.8	28.4	0.00e+00	0	42	0	2191523840	38	5570
2026-01-21 03:32:26.58	259.63	40.29	-32.1	-32.7	28.5	0.00e+00	0	42	0	2197815296	38	5555
2026-01-21 03:32:27.59	260.11	40.30	-32.4	-33.0	28.4	0.00e+00	0	42	0	2203058176	38	5750
2026-01-21 03:32:28.60	260.58	40.32	-32.3	-32.9	28.5	0.00e+00	0	42	0	2209349632	38	5669
2026-01-21 03:32:29.61	261.06	40.32	-32.5	-33.2	28.3	0.00e+00	0	42	0	2214592512	38	5831
2026-01-21 03:32:30.62	261.53	40.33	-32.4	-33.1	28.4	0.00e+00	0	42	0	2220883968	38	5803
2026-01-21 03:32:31.63	262.01	40.34	-32.2	-32.8	28.6	0.00e+00	0	42	0	2226126848	38	5625
2026-01-21 03:32:32.64	262.49	40.34	-32.3	-32.9	28.5	0.00e+00	0	42	0	2231369728	38	5659
2026-01-21 03:32:33.65	262.96	40.34	-32.6	-33.1	28.4	0.00e+00	0	42	0	2237661184	38	5828
2026-01-21 03:32:34.66	263.44	40.34	-32.7	-33.3	28.3	0.00e+00	0	41	0	2242904064	38	5925
2026-01-21 03:32:35.67	263.91	40.33	-32.3	-32.9	28.4	0.00e+00	0	42	0	2249195520	38	5683
2026-01-21 03:32:36.68	264.39	40.33	-32.6	-33.2	28.2	0.00e+00	0	42	0	2254438400	38	5857
2026-01-21 03:32:37.69	264.86	40.32	-32.4	-32.9	28.5	0.00e+00	0	42	0	2259681280	38	5672
2026-01-21 03:32:38.70	265.34	40.31	-32.5	-33.1	28.2	0.00e+00	0	42	0	2265972736	38	5783
2026-01-21 03:32:39.71	265.81	40.29	-32.6	-33.2	28.1	0.00e+00	0	42	0	2271215616	38	5882
2026-01-21 03:32:40.72	266.29	40.28	-32.8	-33.3	27.8	0.00e+00	0	42	0	2277507072	38	5952
2026-01-21 03:32:41.73	266.76	40.26	-33.4	-34.0	27.9	0.00e+00	0	42	0	2282749952	38	6453
2026-01-21 03:32:42.75	267.24	40.24	-33.5	-34.1	27.8	0.00e+00	0	42	0	2287992832	38	6476
2026-01-21 03:32:43.75	267.71	40.22	-33.3	-33.9	28.1	0.00e+00	0	42	0	2294284288	40	5668
2026-01-21 03:32:44.77	268.18	40.20	-33.9	-34.6	27.8	0.00e+00	0	42	0	2299527168	40	6107
2026-01-21 03:32:45.77	268.65	40.17	-34.3	-34.9	27.7	0.00e+00	0	42	0	2305818624	40	6386
2026-01-21 03:32:46.79	269.12	40.14	-34.1	-34.7	28.0	0.00e+00	0	42	0	2311061504	40	6203
2026-01-21 03:32:47.80	269.59	40.11	-34.2	-34.7	28.0	0.00e+00	0	42	0	2317352960	40	6242
2026-01-21 03:32:48.81	270.06	40.08	-34.3	-34.8	28.4	0.00e+00	0	42	0	2322595840	40	6310
2026-01-21 03:32:49.82	270.53	40.05	-35.1	-35.7	27.8	0.00e+00	0	41	0	2328887296	42	6212
2026-01-21 03:32:50.83	271.00	40.01	-34.1	-34.7	28.5	0.00e+00	0	42	0	2334130176	42	5532
2026-01-21 03:32:51.83	271.46	39.97	-34.0	-34.6	28.4	0.00e+00	0	42	0	2339373056	42	5482
2026-01-21 03:32:52.84	271.92	39.93	-33.8	-34.4	28.3	0.00e+00	0	42	0	2345664512	42	5360
2026-01-21 03:32:53.85	272.39	39.89	-33.5	-34.1	28.4	0.00e+00	0	42	0	2350907392	40	5772
2026-01-21 03:32:54.86	272.85	39.85	-34.6	-35.3	28.4	0.00e+00	0	41	0	2357198848	44	5298
2026-01-21 03:32:55.87	273.31	39.80	-34.6	-35.2	28.1	0.00e+00	0	42	0	2362441728	42	5836
2026-01-21 03:32:56.88	273.77	39.75	-34.6	-35.2	28.4	0.00e+00	0	42	0	2367684608	42	5870
2026-01-21 03:32:57.89	274.23	39.70	-34.0	-34.5	28.5	0.00e+00	0	42	0	2373976064	42	5431
2026-01-21 03:32:58.90	274.68	39.65	-33.4	-34.0	28.6	0.00e+00	0	41	0	2379218944	40	5758
2026-01-21 03:32:59.91	275.14	39.60	-33.7	-34.2	28.7	0.00e+00	0	41	0	2385510400	40	5878
2026-01-21 03:33:00.92	275.59	39.54	-33.9	-34.5	28.5	0.00e+00	0	41	0	2390753280	40	6064
2026-01-21 03:33:01.93	276.04	39.48	-33.2	-33.9	28.5	0.00e+00	0	41	0	2395996160	40	5651
2026-01-21 03:33:02.94	276.50	39.42	-33.4	-34.0	28.6	0.00e+00	0	42	0	2402287616	40	5728
2026-01-21 03:33:03.95	276.94	39.36	-33.5	-34.1	28.6	0.00e+00	0	41	0	2407530496	40	5812
2026-01-21 03:33:04.96	277.39	39.30	-33.5	-34.1	28.4	0.00e+00	0	42	0	2413821952	40	5775
2026-01-21 03:33:05.97	277.84	39.23	-33.6	-34.2	28.3	0.00e+00	0	42	0	2419064832	40	5867
2026-01-21 03:33:06.98	278.28	39.17	-33.0	-33.6	28.7	0.00e+00	0	42	0	2425356288	40	5477
2026-01-21 03:33:07.99	278.72	39.10	-33.2	-33.8	28.8	0.00e+00	0	42	0	2430599168	40	5585
2026-01-21 03:33:09.00	279.16	39.03	-33.3	-33.9	28.6	0.00e+00	0	42	0	2435842048	40	5672
2026-01-21 03:33:10.01	279.60	38.96	-32.9	-33.6	28.5	0.00e+00	0	42	0	2442133504	40	5464
2026-01-21 03:33:11.02	280.04	38.88	-33.0	-33.6	28.5	0.00e+00	0	42	0	2447376384	40	5499
2026-01-21 03:33:12.03	280.47	38.81	-33.1	-33.7	28.4	0.00e+00	0	42	0	2453667840	40	5535
2026-01-21 03:33:13.04	280.90	38.73	-33.1	-33.8	28.5	0.00e+00	0	42	0	2458910720	40	5570
2026-01-21 03:33:14.05	281.33	38.65	-33.6	-34.2	28.4	0.00e+00	0	42	0	2464153600	40	5839
2026-01-21 03:33:15.06	281.76	38.57	-33.8	-34.3	28.2	0.00e+00	0	42	0	2470445056	40	5934
2026-01-21 03:33:16.07	282.19	38.49	-33.1	-33.8	28.4	0.00e+00	0	42	0	2475687936	40	5586
2026-01-21 03:33:17.08	282.61	38.41	-33.5	-34.2	28.1	0.00e+00	0	42	0	2481979392	40	5858
2026-01-21 03:33:18.10	283.04	38.32	-33.4	-34.1	28.0	0.00e+00	0	42	0	2487222272	40	5807
2026-01-21 03:33:19.11	283.45	38.24	-32.9	-33.6	28.5	0.00e+00	0	42	0	2492465152	40	5451
2026-01-21 03:33:20.11	283.87	38.15	-33.0	-33.5	28.7	0.00e+00	0	42	0	2498756608	38	6061
2026-01-21 03:33:21.12	284.28	38.06	-32.5	-33.0	28.7	0.00e+00	0	41	0	2503999488	38	5730
2026-01-21 03:33:22.13	284.70	37.97	-32.4	-32.9	28.7	0.00e+00	0	42	0	2510290944	38	5668
2026-01-21 03:33:23.14	285.11	37.88	-32.3	-33.0	28.7	0.00e+00	0	42	0	2515533824	38	5712
2026-01-21 03:33:24.16	285.52	37.78	-32.4	-33.0	28.5	0.00e+00	0	41	0	2521825280	38	5758
2026-01-21 03:33:25.17	285.92	37.69	-32.4	-33.1	28.5	0.00e+00	0	42	0	2527068160	38	5767
2026-01-21 03:33:26.17	286.32	37.59	-32.4	-32.9	28.6	0.00e+00	0	42	0	2533359616	38	5647
2026-01-21 03:33:27.18	286.72	37.50	-32.5	-33.0	28.4	0.00e+00	0	41	0	2538602496	38	5734
2026-01-21 03:33:28.19	287.12	37.40	-32.5	-33.1	28.5	0.00e+00	0	41	0	2543845376	38	5807
2026-01-21 03:33:29.20	287.52	37.30	-32.9	-33.6	28.4	0.00e+00	0	41	0	2550136832	38	6147
2026-01-21 03:33:30.21	287.91	37.20	-32.8	-33.4	28.4	0.00e+00	0	42	0	2555379712	38	6026
2026-01-21 03:33:31.22	288.30	37.10	-32.8	-33.4	28.4	0.00e+00	0	42	0	2561671168	38	5982
2026-01-21 03:33:32.23	288.69	36.99	-32.5	-33.1	28.6	0.00e+00	0	42	0	2566914048	38	5777
2026-01-21 03:33:33.24	289.08	36.89	-32.3	-32.9	28.6	0.00e+00	0	42	0	2572156928	38	5673
2026-01-21 03:33:34.25	289.46	36.78	-32.5	-33.0	28.4	0.00e+00	0	42	0	2578448384	38	5758
2026-01-21 03:33:35.26	289.85	36.68	-32.3	-32.9	28.4	0.00e+00	0	42	0	2583691264	38	5635
2026-01-21 03:33:36.27	290.23	36.57	-32.2	-32.8	28.4	0.00e+00	0	42	0	2589982720	38	5574
2026-01-21 03:33:37.28	290.60	36.46	-32.4	-33.0	28.4	0.00e+00	0	42	0	2595225600	38	5696
2026-01-21 03:33:38.29	290.98	36.35	-32.8	-33.4	28.1	0.00e+00	0	42	0	2600468480	38	5991
2026-01-21 03:33:39.30	291.35	36.24	-32.5	-33.1	28.3	0.00e+00	0	42	0	2606759936	38	5763
2026-01-21 03:33:40.31	291.72	36.13	-32.6	-33.2	28.1	0.00e+00	0	42	0	2612002816	38	5867
2026-01-21 03:33:41.32	292.08	36.02	-32.5	-33.2	28.2	0.00e+00	0	41	0	2618294272	38	5862
2026-01-21 03:33:42.33	292.45	35.91	-32.3	-32.9	28.5	0.00e+00	0	42	0	2623537152	38	5673
2026-01-21 03:33:43.34	292.81	35.79	-32.4	-33.0	28.5	0.00e+00	0	41	0	2629828608	38	5741
2026-01-21 03:33:44.35	293.17	35.68	-32.2	-32.8	28.5	0.00e+00	0	42	0	2635071488	38	5616
2026-01-21 03:33:45.36	293.53	35.56	-32.6	-33.1	28.3	0.00e+00	0	42	0	2641362944	38	5807
2026-01-21 03:33:46.37	293.88	35.45	-32.7	-33.3	28.3	0.00e+00	0	42	0	2646605824	38	5952
2026-01-21 03:33:47.38	294.23	35.33	-32.5	-33.2	28.2	0.00e+00	0	42	0	2651848704	38	5863
2026-01-21 03:33:48.40	294.59	35.21	-32.7	-33.3	28.1	0.00e+00	0	42	0	2658140160	38	5948
2026-01-21 03:33:49.41	294.93	35.09	-33.0	-33.6	28.1	0.00e+00	0	42	0	2663383040	38	6165
2026-01-21 03:33:50.42	295.28	34.97	-32.6	-33.2	28.0	0.00e+00	0	42	0	2669674496	38	5878
2026-01-21 03:33:51.43	295.62	34.85	-32.7	-33.3	28.2	0.00e+00	0	42	0	2674917376	38	5903
2026-01-21 03:33:52.43	295.95	34.73	-33.2	-33.9	27.8	0.00e+00	0	42	0	2680160256	38	6333
2026-01-21 03:33:53.44	296.29	34.61	-33.2	-33.8	27.8	0.00e+00	0	42	0	2686451712	38	6274
2026-01-21 03:33:54.46	296.63	34.49	-33.7	-34.4	27.2	0.00e+00	0	42	0	2691694592	38	6752
2026-01-21 03:33:55.46	296.96	34.37	-33.6	-34.2	27.5	0.00e+00	0	41	0	2697986048	40	5883
2026-01-21 03:33:56.47	297.29	34.25	-34.0	-34.6	27.3	0.00e+00	0	42	0	2703228928	40	6157
2026-01-21 03:33:57.48	297.61	34.12	-33.0	-33.7	28.1	0.00e+00	0	42	0	2708471808	40	5506
2026-01-21 03:33:58.49	297.94	34.00	-33.4	-34.1	28.3	0.00e+00	0	41	0	2714763264	40	5766
2026-01-21 03:33:59.50	298.26	33.87	-33.3	-33.8	27.9	0.00e+00	0	42	0	2720006144	40	5627
2026-01-21 03:34:00.51	298.58	33.75	-33.9	-34.6	28.1	0.00e+00	0	42	0	2726297600	40	6113
2026-01-21 03:34:01.52	298.90	33.62	-33.5	-34.1	28.2	0.00e+00	0	42	0	2731540480	40	5784
2026-01-21 03:34:02.53	299.21	33.50	-34.2	-34.8	27.7	0.00e+00	0	42	0	2737831936	40	6250
2026-01-21 03:34:03.54	299.53	33.37	-33.6	-34.2	27.7	0.00e+00	0	42	0	2743074816	40	5879
2026-01-21 03:34:04.55	299.84	33.25	-34.1	-34.7	28.1	0.00e+00	0	42	0	2748317696	40	6182
2026-01-21 03:34:05.56	300.14	33.12	-33.7	-34.4	27.7	0.00e+00	0	42	0	2754609152	40	6016
2026-01-21 03:34:06.57	300.45	32.99	-34.0	-34.6	27.5	0.00e+00	0	42	0	2759852032	40	6126
2026-01-21 03:34:07.58	300.75	32.86	-33.5	-34.0	27.9	0.00e+00	0	41	0	2766143488	40	5759
2026-01-21 03:34:08.60	301.06	32.74	-33.1	-33.7	28.1	0.00e+00	0	42	0	2771386368	40	5549
2026-01-21 03:34:09.60	301.35	32.61	-33.2	-33.9	28.2	0.00e+00	0	42	0	2776629248	40	5647
2026-01-21 03:34:10.61	301.65	32.48	-33.0	-33.7	28.2	0.00e+00	0	42	0	2782920704	40	5556
2026-01-21 03:34:11.63	301.95	32.35	-33.0	-33.6	28.2	0.00e+00	0	42	0	2788163584	40	5454
2026-01-21 03:34:12.64	302.24	32.22	-33.2	-33.8	28.0	0.00e+00	0	42	0	2794455040	40	5620
2026-01-21 03:34:13.65	302.53	32.09	-33.1	-33.6	28.1	0.00e+00	0	42	0	2799697920	40	5480
2026-01-21 03:34:14.65	302.81	31.96	-32.9	-33.4	28.0	0.00e+00	0	42	0	2804940800	40	5364
2026-01-21 03:34:15.66	303.10	31.83	-33.0	-33.5	28.1	0.00e+00	0	42	0	2811232256	40	5394
2026-01-21 03:34:16.67	303.38	31.70	-33.0	-33.5	27.8	0.00e+00	0	42	0	2816475136	40	5425
2026-01-21 03:34:17.68	303.66	31.57	-33.2	-33.9	27.7	0.00e+00	0	42	0	2822766592	40	5667
2026-01-21 03:34:18.69	303.94	31.44	-33.1	-33.7	27.8	0.00e+00	0	42	0	2828009472	40	5505
2026-01-21 03:34:19.70	304.21	31.31	-33.0	-33.5	27.9	0.00e+00	0	42	0	2834300928	40	5409
2026-01-21 03:34:20.71	304.49	31.18	-32.9	-33.5	27.8	0.00e+00	0	42	0	2839543808	40	5431
2026-01-21 03:34:21.72	304.76	31.05	-33.1	-33.6	27.8	0.00e+00	0	42	0	2845835264	38	6125
2026-01-21 03:34:22.73	305.03	30.92	-33.3	-33.8	27.7	0.00e+00	0	42	0	2851078144	38	6284
2026-01-21 03:34:23.74	305.29	30.79	-33.6	-34.1	27.7	0.00e+00	0	42	0	2856321024	40	5790
2026-01-21 03:34:24.75	305.56	30.66	-33.7	-34.2	27.7	0.00e+00	0	42	0	2862612480	40	5887
2026-01-21 03:34:25.76	305.82	30.53	-33.8	-34.3	27.7	0.00e+00	0	42	0	2867855360	40	5928
2026-01-21 03:34:26.77	306.08	30.40	-33.9	-34.4	27.5	0.00e+00	0	42	0	2874146816	40	6032
2026-01-21 03:34:27.78	306.34	30.27	-33.9	-34.4	27.5	0.00e+00	0	42	0	2879389696	40	6023
2026-01-21 03:34:28.79	306.60	30.14	-33.4	-34.1	27.7	0.00e+00	0	42	0	2884632576	40	5818
2026-01-21 03:34:29.80	306.85	30.01	-33.9	-34.4	27.5	0.00e+00	0	42	0	2890924032	40	6004
2026-01-21 03:34:30.81	307.11	29.88	-33.6	-34.3	27.7	0.00e+00	0	42	0	2896166912	40	5945
2026-01-21 03:34:31.81	307.36	29.75	-33.9	-34.6	27.6	0.00e+00	0	42	0	2902458368	40	6149
2026-01-21 03:34:32.83	307.61	29.62	-33.6	-34.3	27.7	0.00e+00	0	42	0	2907701248	40	5924
2026-01-21 03:34:33.84	307.85	29.48	-34.1	-34.7	27.7	0.00e+00	0	42	0	2912944128	40	6240
2026-01-21 03:34:34.85	308.10	29.35	-34.0	-34.7	27.6	0.00e+00	0	42	0	2919235584	40	6231
2026-01-21 03:34:35.86	308.34	29.22	-34.4	-35.0	27.5	0.00e+00	0	42	0	2924478464	40	6397
2026-01-21 03:34:36.87	308.58	29.09	-34.0	-34.7	27.5	0.00e+00	0	42	0	2930769920	40	6245
2026-01-21 03:34:37.88	308.82	28.96	-33.9	-34.5	27.8	0.00e+00	0	42	0	2936012800	40	6092
2026-01-21 03:34:38.89	309.06	28.83	-33.9	-34.4	27.7	0.00e+00	0	42	0	2942304256	40	6006
2026-01-21 03:34:39.90	309.29	28.70	-33.7	-34.3	27.8	0.00e+00	0	42	0	2947547136	40	5912
2026-01-21 03:34:40.91	309.53	28.57	-33.8	-34.3	28.0	0.00e+00	0	42	0	2953838592	40	5951
2026-01-21 03:34:41.92	309.76	28.44	-34.1	-34.7	27.9	0.00e+00	0	42	0	2959081472	40	6236
2026-01-21 03:34:42.93	309.99	28.31	-34.4	-35.0	27.7	0.00e+00	0	42	0	2964324352	42	5697
2026-01-21 03:34:43.94	310.22	28.18	-34.6	-35.2	27.8	0.00e+00	0	41	0	2970615808	42	5896
2026-01-21 03:34:44.95	310.44	28.05	-35.0	-35.7	27.9	0.00e+00	0	41	0	2975858688	42	6209
2026-01-21 03:34:45.96	310.67	27.92	-34.9	-35.5	27.7	0.00e+00	0	42	0	2981101568	42	6067
2026-01-21 03:34:46.97	310.89	27.79	-34.7	-35.3	27.6	0.00e+00	0	42	0	2987393024	42	5926
2026-01-21 03:34:47.98	311.11	27.66	-34.6	-35.1	27.7	0.00e+00	0	42	0	2992635904	42	5808
2026-01-21 03:34:48.99	311.33	27.53	-34.5	-35.1	27.5	0.00e+00	0	42	0	2998927360	42	5796
2026-01-21 03:34:50.00	311.55	27.40	-35.1	-35.6	27.1	0.00e+00	0	42	0	3004170240	42	6152
2026-01-21 03:34:51.01	311.76	27.28	-35.0	-35.7	27.8	0.00e+00	0	42	0	3009413120	42	6175
2026-01-21 03:34:52.02	311.98	27.15	-34.6	-35.3	27.8	0.00e+00	0	42	0	3015704576	42	5924
2026-01-21 03:34:53.03	312.19	27.02	-34.7	-35.2	27.8	0.00e+00	0	42	0	3020947456	42	5862
2026-01-21 03:34:54.04	312.40	26.89	-34.3	-35.0	27.6	0.00e+00	0	42	0	3027238912	42	5727
2026-01-21 03:34:55.05	312.61	26.76	-34.2	-34.8	27.6	0.00e+00	0	42	0	3032481792	42	5609
2026-01-21 03:34:56.06	312.82	26.64	-33.7	-34.3	27.8	0.00e+00	0	42	0	3038773248	40	5919
2026-01-21 03:34:57.07	313.02	26.51	-33.7	-34.4	27.8	0.00e+00	0	42	0	3044016128	40	5995
2026-01-21 03:34:58.08	313.23	26.38	-33.9	-34.4	27.8	0.00e+00	0	42	0	3050307584	40	5988
2026-01-21 03:34:59.09	313.43	26.25	-33.8	-34.4	27.9	0.00e+00	0	42	0	3055550464	40	5995
2026-01-21 03:35:00.10	313.63	26.13	-33.8	-34.4	27.9	0.00e+00	0	42	0	3060793344	40	5976
2026-01-21 03:35:01.11	313.83	26.00	-33.7	-34.2	27.8	0.00e+00	0	42	0	3067084800	40	5892
2026-01-21 03:35:02.12	314.03	25.87	-34.3	-35.0	27.7	0.00e+00	0	42	0	3072327680	40	6428
2026-01-21 03:35:03.13	314.22	25.75	-34.2	-34.8	27.8	0.00e+00	0	42	0	3078619136	40	6316
2026-01-21 03:35:04.14	314.42	25.62	-34.1	-34.6	27.8	0.00e+00	0	42	0	3083862016	40	6171
2026-01-21 03:35:05.15	314.61	25.50	-34.0	-34.7	27.5	0.00e+00	0	42	0	3089104896	40	6234
2026-01-21 03:35:06.16	314.80	25.37	-34.1	-34.6	27.6	0.00e+00	0	42	0	3095396352	40	6167
2026-01-21 03:35:07.17	314.99	25.25	-34.4	-35.1	27.5	0.00e+00	0	42	0	3100639232	40	6522
2026-01-21 03:35:08.18	315.18	25.12	-34.1	-34.8	27.2	0.00e+00	0	42	0	3106930688	40	6310
2026-01-21 03:35:09.19	315.37	25.00	-34.5	-35.2	27.3	0.00e+00	0	42	0	3112173568	40	6587
2026-01-21 03:35:10.20	315.56	24.87	-34.8	-35.5	27.5	0.00e+00	0	42	0	3117416448	42	6060
2026-01-21 03:35:11.21	315.74	24.75	-34.7	-35.3	27.4	0.00e+00	0	42	0	3123707904	42	5907
2026-01-21 03:35:12.22	315.92	24.62	-34.7	-35.3	27.3	0.00e+00	0	42	0	3128950784	42	5909
2026-01-21 03:35:13.23	316.11	24.50	-34.1	-34.8	27.4	0.00e+00	0	42	0	3135242240	42	5597
2026-01-21 03:35:14.24	316.29	24.38	-34.3	-34.8	27.5	0.00e+00	0	42	0	3140485120	42	5601
2026-01-21 03:35:15.25	316.47	24.26	-34.1	-34.6	27.7	0.00e+00	0	42	0	3146776576	42	5469
2026-01-21 03:35:16.26	316.64	24.13	-34.3	-34.9	27.6	0.00e+00	0	42	0	3152019456	42	5688
2026-01-21 03:35:17.27	316.82	24.01	-34.4	-35.0	27.4	0.00e+00	0	42	0	3158310912	42	5720
2026-01-21 03:35:18.27	316.99	23.89	-34.1	-34.6	27.4	0.00e+00	0	42	0	3163553792	42	5480
2026-01-21 03:35:19.29	317.17	23.77	-34.1	-34.7	27.3	0.00e+00	0	42	0	3168796672	42	5515
2026-01-21 03:35:20.30	317.34	23.65	-34.4	-35.0	27.2	0.00e+00	0	42	0	3175088128	42	5724
2026-01-21 03:35:21.30	317.51	23.53	-34.5	-35.1	27.3	0.00e+00	0	42	0	3180331008	42	5791
2026-01-21 03:35:22.31	317.68	23.41	-34.5	-35.1	27.3	0.00e+00	0	42	0	3186622464	42	5765
2026-01-21 03:35:23.32	317.85	23.29	-34.4	-35.1	27.2	0.00e+00	0	42	0	3191865344	42	5804
2026-01-21 03:35:24.34	318.02	23.16	-34.3	-34.8	27.3	0.00e+00	0	42	0	3197108224	42	5611
2026-01-21 03:35:25.35	318.18	23.05	-34.2	-34.9	27.1	0.00e+00	0	42	0	3203399680	42	5664
2026-01-21 03:35:26.36	318.35	22.93	-34.0	-34.7	27.2	0.00e+00	0	42	0	3208642560	42	5545
2026-01-21 03:35:27.37	318.51	22.81	-34.5	-35.1	27.4	0.00e+00	0	42	0	3214934016	42	5816
2026-01-21 03:35:28.37	318.67	22.69	-34.2	-34.9	27.3	0.00e+00	0	42	0	3220176896	42	5639
2026-01-21 03:35:29.38	318.83	22.57	-34.5	-35.2	27.1	0.00e+00	0	42	0	3225419776	42	5892
2026-01-21 03:35:30.39	318.99	22.45	-34.5	-35.0	27.1	0.00e+00	0	42	0	3231711232	42	5736
2026-01-21 03:35:31.40	319.15	22.33	-34.5	-35.1	27.0	0.00e+00	0	42	0	3236954112	42	5778
2026-01-21 03:35:32.41	319.31	22.22	-33.8	-34.4	27.3	0.00e+00	0	42	0	3243245568	42	5331
2026-01-21 03:35:33.42	319.47	22.10	-34.1	-34.6	27.2	0.00e+00	0	42	0	3248488448	42	5497
2026-01-21 03:35:34.43	319.62	21.98	-34.2	-34.7	27.1	0.00e+00	0	42	0	3253731328	42	5536
2026-01-21 03:35:35.44	319.78	21.87	-34.3	-34.9	27.0	0.00e+00	0	42	0	3260022784	42	5655
2026-01-21 03:35:36.45	319.93	21.75	-34.6	-35.2	26.9	0.00e+00	0	42	0	3265265664	42	5835
2026-01-21 03:35:37.46	320.08	21.64	-34.7	-35.4	26.9	0.00e+00	0	42	0	3271557120	42	6011
2026-01-21 03:35:38.47	320.23	21.52	-34.3	-35.0	26.9	0.00e+00	0	41	0	3276800000	42	5715
2026-01-21 03:35:39.48	320.38	21.41	-34.4	-35.0	26.9	0.00e+00	0	42	0	3283091456	42	5727
2026-01-21 03:35:40.49	320.53	21.29	-35.0	-35.7	26.8	0.00e+00	0	42	0	3288334336	42	6217
2026-01-21 03:35:41.50	320.68	21.18	-34.8	-35.3	26.8	0.00e+00	0	42	0	3293577216	42	5935
2026-01-21 03:35:42.51	320.83	21.06	-34.5	-35.2	26.9	0.00e+00	0	42	0	3299868672	42	5869
2026-01-21 03:35:43.52	320.97	20.95	-34.7	-35.2	26.8	0.00e+00	0	42	0	3305111552	42	5873
2026-01-21 03:35:44.52	321.12	20.84	-34.5	-35.2	26.9	0.00e+00	0	42	0	3311403008	42	5879
2026-01-21 03:35:45.53	321.26	20.72	-34.4	-34.9	26.9	0.00e+00	0	42	0	3316645888	42	5676
2026-01-21 03:35:46.54	321.40	20.61	-34.6	-35.1	26.7	0.00e+00	0	42	0	3321888768	42	5828
2026-01-21 03:35:47.55	321.54	20.50	-34.7	-35.4	26.5	0.00e+00	0	42	0	3328180224	42	6007
2026-01-21 03:35:48.57	321.69	20.38	-34.5	-35.2	26.6	0.00e+00	0	42	0	3333423104	42	5851
2026-01-21 03:35:49.58	321.82	20.27	-34.8	-35.5	26.5	0.00e+00	0	42	0	3339714560	42	6075
2026-01-21 03:35:50.59	321.96	20.16	-35.1	-35.8	26.3	0.00e+00	0	41	0	3344957440	42	6316
2026-01-21 03:35:51.60	322.10	20.05	-34.8	-35.5	26.4	0.00e+00	0	42	0	3350200320	42	6058
2026-01-21 03:35:52.61	322.24	19.94	-35.0	-35.7	26.4	0.00e+00	0	41	0	3356491776	42	6208
2026-01-21 03:35:53.62	322.37	19.83	-35.0	-35.7	26.5	0.00e+00	0	41	0	3361734656	42	6196
2026-01-21 03:35:54.63	322.51	19.72	-34.9	-35.5	26.4	0.00e+00	0	41	0	3368026112	42	6059
2026-01-21 03:35:55.64	322.64	19.61	-34.8	-35.4	26.4	0.00e+00	0	41	0	3373268992	42	6009
2026-01-21 03:35:56.65	322.78	19.50	-34.9	-35.6	26.3	0.00e+00	0	41	0	3379560448	42	6123
2026-01-21 03:35:57.66	322.91	19.39	-35.6	-36.2	26.3	0.00e+00	0	41	0	3384803328	42	6596
2026-01-21 03:35:58.67	323.04	19.28	-35.7	-36.3	26.2	0.00e+00	0	42	0	3391094784	44	5901
2026-01-21 03:35:59.68	323.17	19.17	-35.3	-35.8	26.4	0.00e+00	0	41	0	3396337664	44	5618
2026-01-21 03:36:00.69	323.30	19.07	-35.3	-35.8	26.2	0.00e+00	0	41	0	3401580544	44	5614
2026-01-21 03:36:01.70	323.43	18.96	-35.2	-35.9	26.2	0.00e+00	0	41	0	3407872000	44	5659
2026-01-21 03:36:02.71	323.55	18.85	-35.4	-36.0	26.1	0.00e+00	0	41	0	3413114880	44	5722
2026-01-21 03:36:03.71	323.68	18.75	-35.9	-36.5	26.2	0.00e+00	0	42	0	3419406336	44	6045
2026-01-21 03:36:04.72	323.81	18.64	-35.9	-36.6	26.3	0.00e+00	0	41	0	3424649216	44	6162
2026-01-21 03:36:05.73	323.93	18.53	-36.0	-36.7	26.1	0.00e+00	0	41	0	3429892096	44	6182
2026-01-21 03:36:06.74	324.05	18.43	-35.7	-36.4	26.2	0.00e+00	0	41	0	3436183552	44	5982
2026-01-21 03:36:07.75	324.18	18.32	-35.6	-36.4	26.1	0.00e+00	0	41	0	3441426432	44	5967
2026-01-21 03:36:08.76	324.30	18.22	-35.7	-36.4	26.2	0.00e+00	0	42	0	3447717888	44	6001
2026-01-21 03:36:09.77	324.42	18.11	-35.8	-36.5	26.2	0.00e+00	0	41	0	3452960768	44	6066
2026-01-21 03:36:10.78	324.54	18.01	-35.9	-36.6	26.2	0.00e+00	0	42	0	3458203648	44	6159
2026-01-21 03:36:11.79	324.66	17.90	-35.7	-36.5	26.1	0.00e+00	0	41	0	3464495104	44	6049
2026-01-21 03:36:12.80	324.78	17.80	-36.2	-36.7	26.2	0.00e+00	0	41	0	3469737984	44	6243
2026-01-21 03:36:13.81	324.90	17.69	-36.2	-36.8	26.1	0.00e+00	0	41	0	3476029440	44	6257
2026-01-21 03:36:14.83	325.02	17.59	-36.3	-36.9	26.0	0.00e+00	0	41	0	3481272320	44	6380
2026-01-21 03:36:15.83	325.14	17.49	-36.6	-37.2	25.9	0.00e+00	0	41	0	3487563776	44	6593
2026-01-21 03:36:16.84	325.25	17.38	-36.4	-37.0	25.9	0.00e+00	0	41	0	3492806656	44	6443
2026-01-21 03:36:17.85	325.37	17.28	-36.2	-36.9	25.9	0.00e+00	0	41	0	3498049536	44	6357
2026-01-21 03:36:18.86	325.48	17.18	-36.3	-36.9	25.9	0.00e+00	0	41	0	3504340992	44	6378
2026-01-21 03:36:19.87	325.60	17.08	-35.9	-36.6	25.9	0.00e+00	0	41	0	3509583872	44	6158
2026-01-21 03:36:20.88	325.71	16.98	-36.0	-36.6	25.9	0.00e+00	0	41	0	3515875328	44	6139
2026-01-21 03:36:21.89	325.82	16.88	-36.1	-36.7	25.8	0.00e+00	0	41	0	3521118208	44	6230
2026-01-21 03:36:22.90	325.93	16.78	-36.3	-36.8	25.8	0.00e+00	0	41	0	3526361088	44	6310
2026-01-21 03:36:23.90	326.04	16.68	-36.4	-37.0	25.9	0.00e+00	0	41	0	3532652544	44	6427
2026-01-21 03:36:24.91	326.15	16.58	-36.4	-37.0	25.6	0.00e+00	0	41	0	3537895424	44	6416
2026-01-21 03:36:25.92	326.26	16.48	-36.0	-36.7	25.9	0.00e+00	0	41	0	3544186880	44	6199
2026-01-21 03:36:26.93	326.37	16.38	-36.2	-36.8	25.8	0.00e+00	0	41	0	3549429760	44	6317
2026-01-21 03:36:27.94	326.48	16.28	-36.0	-36.6	25.9	0.00e+00	0	41	0	3554672640	44	6161
2026-01-21 03:36:28.95	326.59	16.18	-36.5	-37.1	26.0	0.00e+00	0	41	0	3560964096	44	6476
2026-01-21 03:36:29.95	326.70	16.08	-36.5	-37.2	25.6	0.00e+00	0	41	0	3566206976	44	6591
2026-01-21 03:36:30.97	326.80	15.98	-36.2	-36.8	25.6	0.00e+00	0	41	0	3572498432	44	6251
2026-01-21 03:36:31.98	326.91	15.88	-36.6	-37.3	25.5	0.00e+00	0	41	0	3577741312	46	5908
2026-01-21 03:36:32.99	327.01	15.79	-36.3	-37.0	25.9	0.00e+00	0	41	0	3584032768	46	5734
