passes_logs/2026/01/21/R4.6S_Anadyr/R4.6S_Anadyr__20260121_042047_AQUA_rec.log

#Pass ID: 20260121_042047_AQUA
#Satellite: AQUA
#Configuration: AQUA
#almurnet v.1.7.20251203
#Start time: 2026-01-21 04:20:49

#Version: 2.2.20231116
#Station: R4.6S_Anadyr
#Location: 177.4865 lon 64.73178 lat
#TLE: 1 27424U 02022A   26020.30984080  .00001497  00000+0  30942-3 0  9998
#TLE: 2 27424  98.4092 346.8266 0001984  71.7888  69.0903 14.61835321261661

#Time	Az	El	Level	Level2	SNR	BER	BlckErr	Temp	State	Recorded	gain1	gain2
2026-01-21 04:20:49.11	222.53	0.07	-53.0	-64.6	3.5	8.45e-01	0	39	0	0	60	61636
2026-01-21 04:20:50.11	222.62	0.12	-53.4	-71.5	3.5	3.02e+01	0	40	104	0	60	143888
2026-01-21 04:20:51.12	222.71	0.17	-53.9	-71.7	3.5	3.02e+01	0	40	104	0	60	148261
2026-01-21 04:20:52.14	222.80	0.22	-53.6	-71.5	3.5	3.02e+01	0	40	104	0	60	144134
2026-01-21 04:20:53.15	222.89	0.27	-53.4	-71.3	3.5	3.02e+01	0	40	104	0	60	141117
2026-01-21 04:20:54.16	222.98	0.32	-53.2	-71.1	3.5	3.02e+01	0	40	104	0	60	138411
2026-01-21 04:20:55.17	223.07	0.37	-52.9	-70.9	3.5	3.02e+01	0	40	104	0	60	134970
2026-01-21 04:20:56.18	223.16	0.42	-53.6	-71.6	3.5	3.02e+01	0	40	104	0	60	145603
2026-01-21 04:20:57.19	223.25	0.47	-53.5	-71.5	3.5	3.02e+01	0	40	104	0	60	144756
2026-01-21 04:20:58.20	223.34	0.52	-53.0	-70.9	3.5	3.02e+01	0	40	104	0	60	134974
2026-01-21 04:20:59.21	223.43	0.57	-53.2	-71.0	3.5	3.02e+01	0	40	104	0	60	136987
2026-01-21 04:21:00.22	223.52	0.62	-53.0	-70.9	3.5	3.02e+01	0	40	104	0	60	134742
2026-01-21 04:21:01.22	223.61	0.67	-52.8	-70.7	3.5	3.02e+01	0	40	104	0	60	131799
2026-01-21 04:21:02.23	223.70	0.72	-53.2	-71.0	3.5	3.02e+01	0	40	104	0	60	137173
2026-01-21 04:21:03.25	223.80	0.77	-53.5	-71.5	3.5	3.02e+01	0	40	104	0	60	144279
2026-01-21 04:21:04.26	223.89	0.82	-53.6	-71.4	3.5	3.02e+01	0	41	104	0	60	143574
2026-01-21 04:21:05.27	223.98	0.87	-53.2	-71.1	3.5	3.02e+01	0	41	104	0	60	138019
2026-01-21 04:21:06.28	224.07	0.92	-52.8	-70.7	3.5	3.02e+01	0	40	104	0	60	132478
2026-01-21 04:21:07.29	224.17	0.97	-52.3	-70.4	3.5	3.02e+01	0	41	104	0	60	127501
2026-01-21 04:21:08.30	224.26	1.02	-52.4	-70.3	3.5	3.02e+01	0	40	104	0	60	125388
2026-01-21 04:21:09.31	224.36	1.07	-52.0	-69.9	3.5	3.02e+01	0	40	104	0	60	120731
2026-01-21 04:21:10.32	224.45	1.12	-51.6	-69.6	3.5	3.02e+01	0	40	104	0	60	115999
2026-01-21 04:21:11.33	224.54	1.17	-51.5	-69.7	3.5	3.02e+01	0	40	104	0	60	117000
2026-01-21 04:21:12.34	224.64	1.22	-49.0	-69.3	3.5	3.02e+01	0	41	104	0	60	112255
2026-01-21 04:21:13.35	224.74	1.27	-50.4	-68.4	3.5	3.02e+01	0	41	104	0	60	101359
2026-01-21 04:21:14.36	224.83	1.32	-46.1	-68.0	3.5	3.02e+01	0	40	104	0	60	96846
2026-01-21 04:21:15.37	224.93	1.38	-46.7	-67.8	3.5	3.02e+01	0	41	104	0	60	94807
2026-01-21 04:21:16.38	225.02	1.43	-46.6	-68.1	3.5	3.02e+01	0	41	104	0	60	97973
2026-01-21 04:21:17.39	225.12	1.48	-46.6	-67.8	3.5	3.02e+01	0	41	104	0	60	94970
2026-01-21 04:21:18.40	225.22	1.53	-45.9	-67.5	3.5	3.02e+01	0	41	104	0	60	91204
2026-01-21 04:21:19.41	225.32	1.58	-46.0	-67.4	3.5	3.02e+01	0	41	104	0	60	89997
2026-01-21 04:21:20.43	225.41	1.63	-45.7	-67.3	3.5	3.02e+01	0	41	104	0	60	88762
2026-01-21 04:21:21.43	225.51	1.68	-45.4	-67.1	3.5	3.02e+01	0	41	104	0	60	87282
2026-01-21 04:21:22.45	225.61	1.73	-45.6	-67.0	3.5	3.02e+01	0	41	104	0	60	85951
2026-01-21 04:21:23.46	225.71	1.78	-45.7	-67.1	3.5	3.02e+01	0	41	104	0	60	86815
2026-01-21 04:21:24.47	225.81	1.83	-45.8	-67.2	3.5	3.02e+01	0	41	104	0	60	88092
2026-01-21 04:21:25.48	225.91	1.89	-46.3	-67.5	3.5	3.02e+01	0	41	104	0	60	91650
2026-01-21 04:21:26.49	226.01	1.94	-46.6	-67.8	3.5	3.02e+01	0	41	104	0	60	94364
2026-01-21 04:21:27.50	226.11	1.99	-46.5	-68.0	3.5	3.02e+01	0	41	104	0	60	96193
2026-01-21 04:21:28.51	226.21	2.04	-47.5	-68.5	3.5	3.02e+01	0	41	104	0	60	101986
2026-01-21 04:21:29.52	226.31	2.09	-48.0	-68.6	3.5	3.02e+01	0	41	104	0	60	103221
2026-01-21 04:21:30.53	226.41	2.14	-47.1	-68.3	3.5	3.02e+01	0	41	104	0	60	100544
2026-01-21 04:21:31.54	226.52	2.19	-46.8	-68.3	3.5	3.02e+01	0	41	104	0	60	100076
2026-01-21 04:21:32.55	226.62	2.24	-48.0	-69.0	3.5	3.02e+01	0	41	104	0	60	108655
2026-01-21 04:21:33.56	226.72	2.30	-47.1	-68.6	3.5	3.02e+01	0	41	104	0	60	103144
2026-01-21 04:21:34.57	226.82	2.35	-46.8	-68.1	3.5	3.02e+01	0	41	104	0	60	97928
2026-01-21 04:21:35.58	226.93	2.40	-46.6	-67.7	3.5	3.02e+01	0	41	104	0	60	93139
2026-01-21 04:21:36.59	227.03	2.45	-46.2	-67.6	3.5	3.02e+01	0	41	104	0	60	92417
2026-01-21 04:21:37.60	227.14	2.50	-46.7	-67.4	3.5	3.02e+01	0	41	104	0	60	89865
2026-01-21 04:21:38.61	227.24	2.55	-46.2	-66.9	3.5	3.02e+01	0	41	104	0	60	85356
2026-01-21 04:21:39.62	227.34	2.60	-45.6	-66.4	3.5	3.02e+01	0	41	104	0	60	80339
2026-01-21 04:21:40.63	227.45	2.66	-45.4	-64.8	3.8	3.02e+01	0	41	104	0	60	66887
2026-01-21 04:21:41.64	227.56	2.71	-45.5	-64.0	4.0	3.02e+01	0	41	104	0	60	60833
2026-01-21 04:21:42.65	227.66	2.76	-45.6	-62.2	5.1	3.02e+01	0	41	104	0	60	49770
2026-01-21 04:21:43.66	227.77	2.81	-45.4	-57.9	7.8	3.02e+01	47	41	0	1048576	60	30118
2026-01-21 04:21:44.67	227.88	2.86	-45.6	-57.4	8.1	3.02e+01	23	41	0	3145728	60	28472
2026-01-21 04:21:45.68	227.98	2.91	-45.5	-55.5	10.7	3.02e+01	0	41	0	4718592	60	22804
2026-01-21 04:21:46.69	228.09	2.97	-45.7	-57.4	8.5	3.02e+01	6	41	0	6815744	60	28394
2026-01-21 04:21:47.70	228.20	3.02	-45.7	-57.9	8.0	3.02e+01	71	41	0	8388608	60	30386
2026-01-21 04:21:48.71	228.31	3.07	-46.2	-55.5	10.5	3.02e+01	0	41	0	10485760	60	22824
2026-01-21 04:21:49.72	228.42	3.12	-47.1	-61.3	3.7	3.02e+01	8	41	104	12058624	60	44740
2026-01-21 04:21:50.73	228.53	3.17	-46.8	-55.4	11.8	3.02e+01	0	41	0	12058624	60	22603
2026-01-21 04:21:51.74	228.64	3.23	-49.4	-61.7	3.7	3.02e+01	0	41	104	13631488	60	46833
2026-01-21 04:21:52.74	228.74	3.28	-47.2	-55.1	12.2	3.02e+01	0	41	0	13631488	60	21768
2026-01-21 04:21:53.75	228.85	3.33	-47.4	-55.2	11.5	3.02e+01	0	41	0	15204352	60	22263
2026-01-21 04:21:54.77	228.97	3.38	-48.1	-55.2	11.5	3.02e+01	0	41	0	17301504	60	22176
2026-01-21 04:21:55.77	229.08	3.43	-48.2	-55.7	10.9	3.02e+01	0	41	0	19398656	60	23465
2026-01-21 04:21:56.78	229.19	3.49	-48.0	-54.5	12.2	3.02e+01	0	41	0	20971520	60	20478
2026-01-21 04:21:57.79	229.30	3.54	-48.3	-55.9	10.6	3.02e+01	0	41	0	23068672	60	23908
2026-01-21 04:21:58.80	229.41	3.59	-47.9	-53.7	13.0	3.02e+01	0	41	0	24641536	60	18528
2026-01-21 04:21:59.81	229.53	3.64	-48.5	-56.5	9.7	3.02e+01	0	41	0	26738688	60	25629
2026-01-21 04:22:00.82	229.64	3.69	-47.9	-55.3	11.2	3.02e+01	0	41	0	28835840	60	22450
2026-01-21 04:22:01.83	229.75	3.75	-47.6	-54.8	11.9	3.02e+01	0	41	0	30408704	60	21069
2026-01-21 04:22:02.84	229.87	3.80	-47.4	-54.9	12.0	3.02e+01	0	41	0	32505856	60	21312
2026-01-21 04:22:03.85	229.98	3.85	-47.9	-54.9	11.8	3.02e+01	0	41	0	34078720	60	21486
2026-01-21 04:22:04.86	230.10	3.90	-47.9	-54.3	12.5	3.02e+01	0	41	0	36175872	60	19858
2026-01-21 04:22:05.88	230.22	3.96	-48.2	-55.1	11.3	3.02e+01	0	41	0	38273024	60	21932
2026-01-21 04:22:06.88	230.33	4.01	-48.1	-55.1	11.4	3.02e+01	0	41	0	39845888	60	21932
2026-01-21 04:22:07.89	230.45	4.06	-48.1	-55.5	11.0	3.02e+01	0	41	0	41943040	60	23033
2026-01-21 04:22:08.90	230.56	4.11	-48.4	-56.0	10.6	3.02e+01	0	41	0	43515904	60	24375
2026-01-21 04:22:09.91	230.68	4.16	-48.7	-56.7	9.8	3.02e+01	0	41	0	45613056	60	26302
2026-01-21 04:22:10.92	230.80	4.22	-48.8	-56.2	10.7	3.02e+01	0	41	0	47710208	60	24730
2026-01-21 04:22:11.93	230.92	4.27	-48.3	-55.6	11.1	3.02e+01	0	41	0	49283072	60	23290
2026-01-21 04:22:12.94	231.04	4.32	-48.2	-56.5	10.1	3.02e+01	0	41	0	51380224	60	25583
2026-01-21 04:22:13.95	231.16	4.37	-48.6	-56.5	10.2	3.02e+01	0	41	0	52953088	60	25763
2026-01-21 04:22:14.96	231.27	4.43	-48.7	-56.7	10.3	3.02e+01	0	41	0	55050240	60	26195
2026-01-21 04:22:15.97	231.39	4.48	-48.9	-56.1	10.6	3.02e+01	0	41	0	57147392	60	24603
2026-01-21 04:22:16.98	231.52	4.53	-49.3	-57.5	9.2	3.02e+01	0	41	0	58720256	60	28889
2026-01-21 04:22:17.99	231.64	4.58	-49.2	-56.7	10.3	3.02e+01	0	41	0	60817408	60	26283
2026-01-21 04:22:19.00	231.76	4.64	-49.2	-57.1	9.6	3.02e+01	0	41	0	62390272	60	27701
2026-01-21 04:22:20.01	231.88	4.69	-49.4	-57.1	9.7	3.02e+01	0	41	0	64487424	60	27684
2026-01-21 04:22:21.02	232.00	4.74	-49.5	-57.5	9.7	3.02e+01	0	41	0	66584576	60	28952
2026-01-21 04:22:22.03	232.12	4.80	-49.4	-57.2	9.9	3.02e+01	0	41	0	68157440	60	27904
2026-01-21 04:22:23.04	232.25	4.85	-49.3	-57.2	9.9	3.02e+01	0	41	0	70254592	60	27854
2026-01-21 04:22:24.04	232.37	4.90	-49.1	-56.7	10.3	3.02e+01	0	41	0	72351744	60	26331
2026-01-21 04:22:25.05	232.49	4.95	-49.4	-57.3	9.8	3.02e+01	0	41	0	73924608	60	28233
2026-01-21 04:22:26.06	232.62	5.01	-49.7	-57.9	9.7	3.02e+01	0	41	0	76021760	60	30080
2026-01-21 04:22:27.07	232.74	5.06	-49.9	-57.9	9.5	3.02e+01	0	41	0	77594624	60	30056
2026-01-21 04:22:28.08	232.87	5.11	-49.9	-57.7	9.8	3.02e+01	0	41	0	79691776	60	29563
2026-01-21 04:22:29.09	233.00	5.16	-50.0	-58.1	9.3	3.02e+01	0	41	0	81788928	60	30867
2026-01-21 04:22:30.10	233.12	5.22	-50.1	-58.3	9.4	3.02e+01	0	41	0	83361792	60	31719
2026-01-21 04:22:31.11	233.25	5.27	-49.9	-57.9	9.3	3.02e+01	0	41	0	85458944	60	30206
2026-01-21 04:22:32.12	233.38	5.32	-49.6	-57.3	10.1	3.02e+01	0	41	0	87556096	60	28089
2026-01-21 04:22:33.13	233.51	5.37	-49.5	-57.4	10.0	3.02e+01	0	41	0	89128960	60	28576
2026-01-21 04:22:34.14	233.63	5.43	-49.5	-57.1	10.5	3.02e+01	0	41	0	91226112	60	27564
2026-01-21 04:22:35.15	233.76	5.48	-49.5	-58.0	9.4	3.02e+01	0	41	0	92798976	60	30480
2026-01-21 04:22:36.16	233.89	5.53	-49.2	-56.8	10.3	3.02e+01	0	41	0	94896128	60	26767
2026-01-21 04:22:37.17	234.02	5.59	-49.2	-57.0	10.3	3.02e+01	0	41	0	96993280	60	27167
2026-01-21 04:22:38.18	234.15	5.64	-49.3	-57.1	10.0	3.02e+01	0	41	0	98566144	60	27446
2026-01-21 04:22:39.19	234.28	5.69	-49.3	-56.9	10.4	3.02e+01	0	41	0	100663296	60	26866
2026-01-21 04:22:40.20	234.42	5.74	-49.3	-56.8	10.6	3.02e+01	0	41	0	102236160	60	26552
2026-01-21 04:22:41.21	234.55	5.80	-49.3	-56.9	10.3	3.02e+01	0	41	0	104333312	60	26962
2026-01-21 04:22:42.22	234.68	5.85	-49.3	-56.5	10.7	3.02e+01	0	41	0	105906176	60	25674
2026-01-21 04:22:43.23	234.81	5.90	-49.3	-56.5	10.6	3.02e+01	0	41	0	108003328	60	25821
2026-01-21 04:22:44.24	234.95	5.95	-49.5	-56.9	10.6	3.02e+01	0	41	0	110100480	60	26797
2026-01-21 04:22:45.25	235.08	6.01	-49.4	-56.2	11.1	3.02e+01	0	41	0	111673344	60	24986
2026-01-21 04:22:46.26	235.22	6.06	-49.5	-56.5	11.3	3.02e+01	0	41	0	113770496	60	25653
2026-01-21 04:22:47.27	235.35	6.11	-49.4	-56.4	11.3	3.02e+01	0	41	0	115867648	60	25297
2026-01-21 04:22:48.28	235.49	6.17	-49.2	-56.2	11.3	3.02e+01	0	41	0	117440512	60	24961
2026-01-21 04:22:49.29	235.62	6.22	-49.0	-56.1	11.5	3.02e+01	0	41	0	119537664	60	24564
2026-01-21 04:22:50.30	235.76	6.27	-48.9	-55.9	11.6	3.02e+01	0	41	0	121110528	60	24002
2026-01-21 04:22:51.31	235.90	6.32	-48.8	-55.8	11.7	3.02e+01	0	41	0	123207680	60	23631
2026-01-21 04:22:52.32	236.03	6.38	-48.8	-55.4	12.3	3.02e+01	0	41	0	125304832	60	22561
2026-01-21 04:22:53.33	236.17	6.43	-48.6	-55.2	12.4	3.02e+01	0	41	0	126877696	60	22100
2026-01-21 04:22:54.34	236.31	6.48	-48.7	-55.3	12.4	3.02e+01	0	41	0	128974848	60	22420
2026-01-21 04:22:55.35	236.45	6.53	-48.3	-54.4	13.2	3.02e+01	0	41	0	130547712	60	20245
2026-01-21 04:22:56.36	236.59	6.59	-48.2	-54.1	13.7	3.02e+01	0	41	0	132644864	60	19431
2026-01-21 04:22:57.37	236.73	6.64	-48.3	-53.9	13.8	3.02e+01	0	41	0	134742016	60	18978
2026-01-21 04:22:58.38	236.87	6.69	-48.0	-53.5	14.2	3.02e+01	0	41	0	136314880	60	18115
2026-01-21 04:22:59.39	237.01	6.75	-47.9	-53.3	14.3	3.02e+01	0	41	0	138412032	60	17853
2026-01-21 04:23:00.40	237.15	6.80	-47.9	-53.4	14.4	3.02e+01	0	41	0	140509184	60	18039
2026-01-21 04:23:01.41	237.30	6.85	-47.9	-53.2	14.5	3.02e+01	0	41	0	142082048	60	17527
2026-01-21 04:23:02.42	237.44	6.90	-47.7	-52.5	15.1	3.02e+01	0	41	0	144179200	60	16251
2026-01-21 04:23:03.43	237.58	6.96	-47.9	-52.5	15.1	3.02e+01	0	41	0	145752064	60	16241
2026-01-21 04:23:04.44	237.73	7.01	-47.8	-52.1	15.6	3.02e+01	0	41	0	147849216	60	15411
2026-01-21 04:23:05.45	237.87	7.06	-47.7	-51.9	15.8	3.02e+01	0	41	0	149946368	60	15165
2026-01-21 04:23:06.46	238.02	7.11	-47.3	-51.2	16.5	3.02e+01	0	41	0	151519232	60	14016
2026-01-21 04:23:07.47	238.16	7.17	-47.4	-51.3	16.5	3.02e+01	0	41	0	153616384	60	14076
2026-01-21 04:23:08.48	238.31	7.22	-47.3	-51.1	16.9	3.02e+01	0	41	0	155713536	60	13738
2026-01-21 04:23:09.49	238.46	7.27	-47.2	-51.0	17.0	3.02e+01	0	41	0	157286400	60	13596
2026-01-21 04:23:10.49	238.60	7.32	-47.0	-50.8	17.1	3.02e+01	0	41	0	159383552	60	13365
2026-01-21 04:23:11.50	238.75	7.37	-46.5	-50.1	17.9	3.02e+01	0	41	0	160956416	60	12241
2026-01-21 04:23:12.51	238.90	7.43	-46.7	-50.4	17.4	3.02e+01	0	41	0	163053568	60	12761
2026-01-21 04:23:13.52	239.05	7.48	-46.2	-49.8	18.2	3.02e+01	0	41	0	165150720	60	11906
2026-01-21 04:23:14.53	239.20	7.53	-46.2	-49.7	18.3	3.02e+01	0	41	0	166723584	60	11748
2026-01-21 04:23:15.54	239.35	7.58	-46.3	-49.6	18.7	3.02e+01	0	41	0	168820736	60	11594
2026-01-21 04:23:16.55	239.50	7.64	-46.2	-49.4	18.7	3.02e+01	0	41	0	170393600	60	11396
2026-01-21 04:23:17.56	239.65	7.69	-46.1	-49.2	18.7	3.02e+01	0	41	0	172490752	60	11119
2026-01-21 04:23:18.57	239.80	7.74	-45.8	-48.6	19.4	3.02e+01	0	41	0	174587904	60	10370
2026-01-21 04:23:19.58	239.95	7.79	-45.5	-48.4	19.6	3.02e+01	0	41	0	176160768	60	10068
2026-01-21 04:23:20.59	240.11	7.84	-45.3	-48.0	20.1	3.02e+01	0	41	0	178257920	60	9615
2026-01-21 04:23:21.60	240.26	7.90	-45.2	-47.7	20.3	3.02e+01	0	41	0	179830784	60	9384
2026-01-21 04:23:22.61	240.41	7.95	-45.2	-47.6	20.4	3.02e+01	0	41	0	181927936	60	9247
2026-01-21 04:23:23.62	240.57	8.00	-45.2	-47.6	20.5	3.02e+01	0	41	0	184025088	60	9184
2026-01-21 04:23:24.63	240.72	8.05	-45.2	-47.5	20.8	3.02e+01	0	41	0	185597952	60	9102
2026-01-21 04:23:25.64	240.88	8.10	-45.1	-47.4	21.0	3.02e+01	0	41	0	187695104	60	9012
2026-01-21 04:23:26.64	241.03	8.15	-45.1	-47.3	21.1	3.02e+01	0	41	0	189267968	60	8950
2026-01-21 04:23:27.66	241.19	8.21	-44.6	-46.8	21.5	3.02e+01	0	41	0	191365120	60	8420
2026-01-21 04:23:28.66	241.35	8.26	-44.8	-46.9	21.6	3.02e+01	0	41	0	193462272	60	8519
2026-01-21 04:23:29.67	241.51	8.31	-45.2	-47.2	22.2	3.02e+01	0	41	0	195035136	60	8797
2026-01-21 04:23:30.68	241.67	8.36	-44.7	-46.7	22.4	3.02e+01	0	41	0	197132288	60	8322
2026-01-21 04:23:31.69	241.83	8.41	-44.4	-46.3	22.4	3.02e+01	0	41	0	198705152	60	7933
2026-01-21 04:23:32.70	241.99	8.46	-44.2	-46.1	22.6	3.02e+01	0	41	0	200802304	60	7742
2026-01-21 04:23:33.71	242.15	8.51	-44.0	-45.9	22.8	3.02e+01	0	41	0	202899456	60	7566
2026-01-21 04:23:34.72	242.31	8.56	-43.8	-45.7	23.0	3.02e+01	0	41	0	204472320	60	7390
2026-01-21 04:23:35.73	242.47	8.62	-43.4	-45.2	23.3	3.02e+01	0	41	0	206569472	60	6987
2026-01-21 04:23:36.74	242.63	8.67	-43.5	-45.2	23.7	3.02e+01	0	41	0	208666624	60	7033
2026-01-21 04:23:37.75	242.79	8.72	-43.3	-44.9	23.6	3.02e+01	0	41	0	210239488	60	6798
2026-01-21 04:23:38.76	242.96	8.77	-43.3	-45.0	23.8	3.02e+01	0	41	0	212336640	60	6810
2026-01-21 04:23:39.77	243.12	8.82	-42.9	-44.6	24.3	3.02e+01	0	41	0	213909504	60	6499
2026-01-21 04:23:40.78	243.29	8.87	-42.7	-44.3	24.2	3.02e+01	0	41	0	216006656	60	6310
2026-01-21 04:23:41.79	243.45	8.92	-42.7	-44.3	24.4	3.02e+01	0	41	0	218103808	60	6311
2026-01-21 04:23:42.80	243.62	8.97	-42.6	-44.2	24.8	3.02e+01	0	41	0	219676672	60	6206
2026-01-21 04:23:43.81	243.78	9.02	-42.4	-44.0	24.8	3.02e+01	0	41	0	221773824	60	6104
2026-01-21 04:23:44.82	243.95	9.07	-42.1	-43.6	25.1	3.02e+01	0	41	0	223346688	60	5836
2026-01-21 04:23:45.83	244.12	9.12	-42.0	-43.5	25.4	3.02e+01	0	41	0	225443840	60	5735
2026-01-21 04:23:46.84	244.29	9.17	-41.8	-43.4	25.2	3.02e+01	0	41	0	227540992	58	6355
2026-01-21 04:23:47.85	244.46	9.22	-41.4	-42.9	25.5	3.02e+01	0	41	0	229113856	58	6029
2026-01-21 04:23:48.85	244.62	9.27	-41.5	-43.0	25.4	3.02e+01	0	41	0	231211008	58	6097
2026-01-21 04:23:49.87	244.80	9.32	-41.0	-42.4	25.8	3.02e+01	0	41	0	232783872	58	5716
2026-01-21 04:23:50.88	244.97	9.37	-41.0	-42.4	25.9	3.02e+01	0	41	0	234881024	56	6413
2026-01-21 04:23:51.89	245.14	9.42	-40.9	-42.4	26.1	3.02e+01	0	41	0	236978176	56	6361
2026-01-21 04:23:52.89	245.31	9.47	-41.0	-42.5	25.9	3.02e+01	0	41	0	238551040	56	6451
2026-01-21 04:23:53.90	245.48	9.52	-40.9	-42.3	26.1	3.02e+01	0	41	0	240648192	56	6299
2026-01-21 04:23:54.91	245.66	9.57	-40.6	-42.0	26.2	3.02e+01	0	41	0	242221056	56	6113
2026-01-21 04:23:55.92	245.83	9.62	-40.8	-42.2	26.0	3.02e+01	0	41	0	244318208	56	6242
2026-01-21 04:23:56.93	246.00	9.67	-41.0	-42.4	25.9	3.02e+01	0	41	0	246415360	56	6410
2026-01-21 04:23:57.94	246.18	9.72	-40.7	-42.2	26.0	3.02e+01	0	41	0	247988224	56	6208
2026-01-21 04:23:58.95	246.35	9.77	-40.7	-42.1	26.0	3.02e+01	0	41	0	250085376	56	6178
2026-01-21 04:23:59.96	246.53	9.82	-39.7	-41.1	26.8	3.02e+01	0	41	0	252182528	54	6155
2026-01-21 04:24:00.97	246.71	9.86	-39.9	-41.3	26.6	3.02e+01	0	41	0	253755392	54	6296
2026-01-21 04:24:01.98	246.88	9.91	-39.7	-41.1	26.8	3.02e+01	0	41	0	255852544	54	6153
2026-01-21 04:24:02.99	247.06	9.96	-39.6	-40.9	26.9	3.02e+01	0	41	0	257425408	54	6059
2026-01-21 04:24:04.00	247.24	10.01	-39.5	-40.9	27.1	3.02e+01	0	41	0	259522560	54	6005
2026-01-21 04:24:05.01	247.42	10.06	-39.4	-40.7	27.2	3.02e+01	0	41	0	261619712	54	5902
2026-01-21 04:24:06.02	247.60	10.11	-39.4	-40.7	27.2	3.02e+01	0	41	0	263192576	54	5913
2026-01-21 04:24:07.02	247.78	10.15	-39.5	-40.8	27.2	3.02e+01	0	41	0	265289728	54	5955
2026-01-21 04:24:08.03	247.96	10.20	-39.5	-40.9	27.1	3.02e+01	0	41	0	266862592	54	6019
2026-01-21 04:24:09.04	248.14	10.25	-39.6	-40.9	27.0	3.02e+01	0	41	0	268959744	54	6063
2026-01-21 04:24:10.05	248.33	10.30	-39.5	-40.8	27.0	3.02e+01	0	41	0	271056896	54	5994
2026-01-21 04:24:11.06	248.51	10.34	-39.5	-40.9	27.1	3.02e+01	0	41	0	272629760	54	6006
2026-01-21 04:24:12.07	248.69	10.39	-39.2	-40.6	27.3	3.02e+01	0	41	0	274726912	54	5793
2026-01-21 04:24:13.08	248.88	10.44	-39.4	-40.7	27.3	3.02e+01	0	41	0	276824064	54	5921
2026-01-21 04:24:14.09	249.06	10.49	-39.1	-40.4	27.4	3.02e+01	0	41	0	278396928	54	5724
2026-01-21 04:24:15.10	249.25	10.53	-39.2	-40.5	27.3	3.02e+01	0	41	0	280494080	54	5763
2026-01-21 04:24:16.11	249.43	10.58	-39.2	-40.5	27.3	3.02e+01	0	41	0	282066944	54	5776
2026-01-21 04:24:17.12	249.62	10.63	-39.2	-40.5	27.4	3.02e+01	0	41	0	284164096	54	5750
2026-01-21 04:24:18.13	249.81	10.67	-39.2	-40.5	27.5	3.02e+01	0	41	0	286261248	54	5744
2026-01-21 04:24:19.13	249.99	10.72	-39.1	-40.4	27.5	3.02e+01	0	41	0	287834112	54	5705
2026-01-21 04:24:20.14	250.18	10.76	-38.9	-40.2	27.6	3.02e+01	0	41	0	289931264	52	6267
2026-01-21 04:24:21.15	250.37	10.81	-39.1	-40.5	27.4	3.02e+01	0	41	0	291504128	52	6437
2026-01-21 04:24:22.17	250.56	10.86	-39.1	-40.4	27.5	3.02e+01	0	41	0	293601280	52	6388
2026-01-21 04:24:23.18	250.75	10.90	-38.9	-40.2	27.5	3.02e+01	0	41	0	295698432	52	6274
2026-01-21 04:24:24.18	250.94	10.95	-38.9	-40.2	27.6	3.02e+01	0	41	0	297271296	52	6209
2026-01-21 04:24:25.19	251.14	10.99	-39.5	-40.8	27.2	3.02e+01	0	41	0	299368448	52	6710
2026-01-21 04:24:26.21	251.33	11.04	-39.3	-40.6	27.5	3.02e+01	0	41	0	300941312	52	6554
2026-01-21 04:24:27.21	251.52	11.08	-39.4	-40.7	27.4	3.02e+01	0	41	0	303038464	52	6596
2026-01-21 04:24:28.22	251.71	11.13	-39.1	-40.4	27.7	3.02e+01	0	41	0	305135616	52	6392
2026-01-21 04:24:29.23	251.91	11.17	-39.2	-40.5	27.7	3.02e+01	0	41	0	306708480	52	6474
2026-01-21 04:24:30.24	252.10	11.21	-39.1	-40.4	27.7	3.02e+01	0	41	0	308805632	52	6364
2026-01-21 04:24:31.25	252.30	11.26	-39.6	-41.0	27.3	3.02e+01	0	41	0	310378496	52	6816
2026-01-21 04:24:32.26	252.50	11.30	-39.4	-40.7	27.5	3.02e+01	0	41	0	312475648	52	6589
2026-01-21 04:24:33.27	252.69	11.35	-39.1	-40.4	27.7	3.02e+01	0	41	0	314572800	52	6391
2026-01-21 04:24:34.28	252.89	11.39	-39.1	-40.4	27.6	3.02e+01	0	41	0	316145664	52	6396
2026-01-21 04:24:35.29	253.09	11.43	-39.0	-40.3	27.8	3.02e+01	0	41	0	318242816	52	6284
2026-01-21 04:24:36.30	253.29	11.48	-39.2	-40.5	27.6	3.02e+01	0	41	0	320339968	52	6444
2026-01-21 04:24:37.31	253.49	11.52	-39.3	-40.6	27.7	3.02e+01	0	41	0	321912832	52	6530
2026-01-21 04:24:38.32	253.68	11.56	-39.2	-40.5	27.7	3.02e+01	0	41	0	324009984	52	6427
2026-01-21 04:24:39.33	253.89	11.60	-39.1	-40.4	27.7	3.02e+01	0	41	0	325582848	52	6375
2026-01-21 04:24:40.34	254.09	11.65	-39.4	-40.7	27.4	3.02e+01	0	41	0	327680000	52	6608
2026-01-21 04:24:41.35	254.29	11.69	-39.2	-40.5	27.9	3.02e+01	0	41	0	329777152	52	6440
2026-01-21 04:24:42.36	254.49	11.73	-39.3	-40.6	27.5	3.02e+01	0	41	0	331350016	52	6561
2026-01-21 04:24:43.37	254.69	11.77	-39.3	-40.6	27.8	3.02e+01	0	41	0	333447168	52	6531
2026-01-21 04:24:44.38	254.90	11.81	-39.7	-41.0	28.1	3.02e+01	0	41	0	335020032	52	6830
2026-01-21 04:24:45.39	255.10	11.85	-39.6	-40.8	27.8	3.02e+01	0	41	0	337117184	52	6723
2026-01-21 04:24:46.40	255.30	11.89	-39.8	-41.1	27.6	3.02e+01	0	41	0	339214336	54	6177
2026-01-21 04:24:47.41	255.51	11.93	-39.6	-40.8	28.1	3.02e+01	0	41	0	340787200	54	5986
2026-01-21 04:24:48.42	255.72	11.98	-39.3	-40.6	28.0	3.02e+01	0	41	0	342884352	54	5834
2026-01-21 04:24:49.43	255.92	12.02	-39.1	-40.4	28.1	3.02e+01	0	41	0	344981504	54	5700
2026-01-21 04:24:50.44	256.13	12.06	-39.4	-40.7	27.8	3.02e+01	0	41	0	346554368	54	5881
2026-01-21 04:24:51.45	256.34	12.09	-39.4	-40.7	27.8	3.02e+01	0	41	0	348651520	54	5873
2026-01-21 04:24:52.46	256.54	12.13	-39.4	-40.6	28.0	3.02e+01	0	41	0	350224384	54	5832
2026-01-21 04:24:53.47	256.75	12.17	-39.2	-40.5	28.1	3.02e+01	0	41	0	352321536	54	5738
2026-01-21 04:24:54.48	256.96	12.21	-39.3	-40.6	28.1	3.02e+01	0	41	0	354418688	54	5819
2026-01-21 04:24:55.49	257.17	12.25	-39.3	-40.6	28.0	3.02e+01	0	41	0	355991552	54	5829
2026-01-21 04:24:56.50	257.38	12.29	-39.6	-40.8	28.0	3.02e+01	0	41	0	358088704	54	5987
2026-01-21 04:24:57.51	257.59	12.33	-39.3	-40.6	28.0	3.02e+01	0	41	0	359661568	54	5808
2026-01-21 04:24:58.52	257.80	12.36	-39.3	-40.5	28.2	3.02e+01	0	41	0	361758720	54	5775
2026-01-21 04:24:59.53	258.02	12.40	-39.4	-40.6	28.1	3.02e+01	0	41	0	363855872	54	5846
2026-01-21 04:25:00.54	258.23	12.44	-39.3	-40.5	28.1	3.02e+01	0	41	0	365428736	54	5786
2026-01-21 04:25:01.55	258.44	12.48	-39.2	-40.5	28.1	3.02e+01	0	41	0	367525888	54	5726
2026-01-21 04:25:02.56	258.66	12.51	-39.2	-40.5	28.2	3.02e+01	0	41	0	369098752	54	5737
2026-01-21 04:25:03.57	258.87	12.55	-39.0	-40.2	28.2	3.02e+01	0	41	0	371195904	54	5576
2026-01-21 04:25:04.58	259.08	12.59	-39.1	-40.4	28.1	3.02e+01	0	41	0	373293056	52	6366
2026-01-21 04:25:05.59	259.30	12.62	-39.4	-40.7	27.9	3.02e+01	0	41	0	374865920	52	6623
2026-01-21 04:25:06.60	259.52	12.66	-39.4	-40.7	27.9	3.02e+01	0	41	0	376963072	52	6578
2026-01-21 04:25:07.61	259.73	12.69	-39.5	-40.7	28.1	3.02e+01	0	41	0	378535936	52	6628
2026-01-21 04:25:08.61	259.95	12.73	-39.5	-40.8	28.0	3.02e+01	0	41	0	380633088	52	6696
2026-01-21 04:25:09.63	260.17	12.76	-39.3	-40.6	28.1	3.02e+01	0	41	0	382730240	52	6519
2026-01-21 04:25:10.63	260.38	12.80	-39.3	-40.6	28.2	3.02e+01	0	41	0	384303104	52	6513
2026-01-21 04:25:11.64	260.60	12.83	-39.1	-40.4	28.3	3.02e+01	0	41	0	386400256	52	6366
2026-01-21 04:25:12.66	260.82	12.86	-39.3	-40.5	28.1	3.02e+01	0	41	0	388497408	52	6479
2026-01-21 04:25:13.66	261.04	12.90	-39.1	-40.4	28.1	3.02e+01	0	41	0	390070272	52	6388
2026-01-21 04:25:14.67	261.26	12.93	-39.1	-40.4	28.0	3.02e+01	0	41	0	392167424	52	6364
2026-01-21 04:25:15.68	261.48	12.96	-38.8	-40.1	28.1	3.02e+01	0	41	0	393740288	52	6183
2026-01-21 04:25:16.69	261.70	13.00	-39.0	-40.3	28.1	3.02e+01	0	41	0	395837440	52	6285
2026-01-21 04:25:17.70	261.92	13.03	-38.9	-40.1	28.2	3.02e+01	0	41	0	397934592	52	6176
2026-01-21 04:25:18.71	262.15	13.06	-39.1	-40.4	28.2	3.02e+01	0	41	0	399507456	52	6353
2026-01-21 04:25:19.72	262.37	13.09	-38.9	-40.2	28.2	3.02e+01	0	41	0	401604608	52	6210
2026-01-21 04:25:20.73	262.59	13.12	-39.0	-40.3	28.0	3.02e+01	0	41	0	403177472	52	6316
2026-01-21 04:25:21.74	262.81	13.15	-39.0	-40.2	28.1	3.02e+01	0	41	0	405274624	52	6271
2026-01-21 04:25:22.75	263.04	13.18	-39.4	-40.7	27.6	3.02e+01	0	41	0	407371776	52	6621
2026-01-21 04:25:23.76	263.26	13.21	-39.0	-40.3	27.9	3.02e+01	0	41	0	408944640	52	6315
2026-01-21 04:25:24.77	263.49	13.24	-39.0	-40.3	27.8	3.02e+01	0	41	0	411041792	52	6315
2026-01-21 04:25:25.78	263.71	13.27	-38.6	-39.8	28.3	3.02e+01	0	41	0	413138944	52	5970
2026-01-21 04:25:26.79	263.94	13.30	-38.8	-40.0	28.4	3.02e+01	0	41	0	414711808	52	6113
2026-01-21 04:25:27.80	264.17	13.33	-38.9	-40.2	28.3	3.02e+01	0	41	0	416808960	52	6239
2026-01-21 04:25:28.81	264.39	13.36	-38.9	-40.2	28.3	3.02e+01	0	41	0	418381824	52	6233
2026-01-21 04:25:29.82	264.62	13.39	-38.8	-40.0	28.4	3.02e+01	0	41	0	420478976	52	6127
2026-01-21 04:25:30.83	264.85	13.41	-39.4	-40.7	27.6	3.02e+01	0	41	0	422576128	54	5887
2026-01-21 04:25:31.84	265.08	13.44	-39.6	-40.9	28.4	3.02e+01	0	41	0	424148992	54	6025
2026-01-21 04:25:32.85	265.31	13.47	-39.4	-40.7	28.2	3.02e+01	0	41	0	426246144	54	5886
2026-01-21 04:25:33.86	265.53	13.50	-39.2	-40.4	28.1	3.02e+01	0	41	0	427819008	54	5723
2026-01-21 04:25:34.87	265.76	13.52	-38.8	-40.0	28.5	3.02e+01	0	41	0	429916160	52	6122
2026-01-21 04:25:35.88	265.99	13.55	-39.0	-40.2	28.3	3.02e+01	0	41	0	432013312	52	6277
2026-01-21 04:25:36.89	266.22	13.57	-38.8	-40.1	28.4	3.02e+01	0	41	0	433586176	52	6160
2026-01-21 04:25:37.90	266.45	13.60	-38.6	-39.9	28.5	3.02e+01	0	41	0	435683328	52	6011
2026-01-21 04:25:38.91	266.69	13.62	-38.9	-40.1	28.4	3.02e+01	0	41	0	437256192	52	6183
2026-01-21 04:25:39.91	266.91	13.65	-38.7	-39.9	28.4	3.02e+01	0	41	0	439353344	52	6063
2026-01-21 04:25:40.92	267.15	13.67	-38.8	-40.1	28.2	3.02e+01	0	41	0	441450496	52	6161
2026-01-21 04:25:41.93	267.38	13.69	-38.6	-39.8	28.4	3.02e+01	0	41	0	443023360	52	5966
2026-01-21 04:25:42.94	267.61	13.72	-38.5	-39.7	28.5	3.02e+01	0	41	0	445120512	52	5885
2026-01-21 04:25:43.95	267.84	13.74	-39.0	-40.2	28.1	3.02e+01	0	41	0	446693376	52	6258
2026-01-21 04:25:44.96	268.08	13.76	-39.0	-40.2	28.3	3.02e+01	0	41	0	448790528	52	6241
2026-01-21 04:25:45.98	268.31	13.79	-39.1	-40.4	28.2	3.02e+01	0	41	0	450887680	52	6372
2026-01-21 04:25:46.99	268.55	13.81	-38.9	-40.2	28.3	3.02e+01	0	41	0	452460544	52	6221
2026-01-21 04:25:48.00	268.78	13.83	-39.0	-40.2	28.0	3.02e+01	0	41	0	454557696	52	6275
2026-01-21 04:25:49.00	269.02	13.85	-39.0	-40.2	28.1	3.02e+01	0	41	0	456654848	52	6273
2026-01-21 04:25:50.02	269.25	13.87	-40.0	-41.4	27.3	3.02e+01	0	41	0	458227712	54	6358
2026-01-21 04:25:51.02	269.49	13.89	-39.0	-40.3	28.3	3.02e+01	0	41	0	460324864	54	5627
2026-01-21 04:25:52.04	269.72	13.91	-39.4	-40.6	27.9	3.02e+01	0	41	0	461897728	54	5853
2026-01-21 04:25:53.05	269.96	13.93	-39.6	-40.9	27.6	3.02e+01	0	41	0	463994880	54	6005
2026-01-21 04:25:54.06	270.20	13.95	-39.8	-41.0	27.4	3.02e+01	0	41	0	466092032	54	6134
2026-01-21 04:25:55.06	270.43	13.96	-39.5	-40.7	28.2	3.02e+01	0	41	0	467664896	54	5916
2026-01-21 04:25:56.07	270.67	13.98	-39.0	-40.3	28.4	3.02e+01	0	41	0	469762048	52	6316
2026-01-21 04:25:57.08	270.91	14.00	-38.8	-40.0	28.1	3.02e+01	0	41	0	471334912	52	6134
2026-01-21 04:25:58.09	271.14	14.02	-38.6	-39.8	28.4	3.02e+01	0	41	0	473432064	52	5991
2026-01-21 04:25:59.10	271.38	14.03	-38.8	-40.1	28.6	3.02e+01	0	41	0	475529216	52	6137
2026-01-21 04:26:00.11	271.62	14.05	-39.0	-40.2	28.4	3.02e+01	0	41	0	477102080	52	6260
2026-01-21 04:26:01.12	271.86	14.07	-39.0	-40.2	28.3	3.02e+01	0	41	0	479199232	52	6264
2026-01-21 04:26:02.13	272.10	14.08	-39.1	-40.4	28.2	3.02e+01	0	41	0	481296384	52	6366
2026-01-21 04:26:03.13	272.33	14.10	-38.8	-40.0	28.5	3.02e+01	0	41	0	482869248	52	6133
2026-01-21 04:26:04.14	272.57	14.11	-39.4	-40.7	28.3	3.02e+01	0	41	0	484966400	52	6575
2026-01-21 04:26:05.15	272.81	14.13	-39.3	-40.5	28.5	3.02e+01	0	41	0	486539264	52	6460
2026-01-21 04:26:06.16	273.05	14.14	-40.0	-41.3	28.0	3.02e+01	0	41	0	488636416	54	6304
2026-01-21 04:26:07.17	273.29	14.15	-39.8	-41.0	28.2	3.02e+01	0	41	0	490733568	54	6124
2026-01-21 04:26:08.18	273.53	14.16	-39.4	-40.6	28.4	3.02e+01	0	41	0	492306432	54	5844
2026-01-21 04:26:09.19	273.77	14.18	-39.3	-40.5	28.4	3.02e+01	0	41	0	494403584	54	5784
2026-01-21 04:26:10.20	274.01	14.19	-40.0	-41.3	28.0	3.02e+01	0	41	0	495976448	52	7099
2026-01-21 04:26:11.21	274.25	14.20	-39.3	-40.5	28.2	3.02e+01	0	41	0	498073600	54	5752
2026-01-21 04:26:12.22	274.49	14.21	-39.5	-40.8	28.5	3.02e+01	0	41	0	500170752	54	5930
2026-01-21 04:26:13.23	274.73	14.22	-39.3	-40.6	28.4	3.02e+01	0	41	0	501743616	54	5815
2026-01-21 04:26:14.24	274.97	14.23	-39.5	-40.7	28.4	3.02e+01	0	41	0	503840768	54	5898
2026-01-21 04:26:15.25	275.22	14.24	-39.7	-40.9	28.2	3.02e+01	0	41	0	505413632	54	6042
2026-01-21 04:26:16.26	275.46	14.25	-39.3	-40.6	28.4	3.02e+01	0	41	0	507510784	54	5811
2026-01-21 04:26:17.27	275.70	14.26	-39.3	-40.5	28.5	3.02e+01	0	41	0	509607936	54	5774
2026-01-21 04:26:18.28	275.94	14.27	-39.4	-40.6	28.3	3.02e+01	0	41	0	511180800	54	5834
2026-01-21 04:26:19.29	276.18	14.28	-38.9	-40.2	28.6	3.02e+01	0	41	0	513277952	54	5541
2026-01-21 04:26:20.30	276.42	14.28	-39.1	-40.3	28.7	3.02e+01	0	41	0	514850816	52	6334
2026-01-21 04:26:21.31	276.67	14.29	-39.1	-40.3	28.7	3.02e+01	0	41	0	516947968	52	6317
2026-01-21 04:26:22.32	276.91	14.30	-39.3	-40.6	28.3	3.02e+01	0	41	0	519045120	52	6542
2026-01-21 04:26:23.33	277.15	14.30	-38.8	-40.1	28.6	3.02e+01	0	41	0	520617984	52	6152
2026-01-21 04:26:24.34	277.39	14.31	-39.0	-40.2	28.7	3.02e+01	0	41	0	522715136	52	6237
2026-01-21 04:26:25.35	277.64	14.32	-39.0	-40.3	28.6	3.02e+01	0	41	0	524812288	52	6292
2026-01-21 04:26:26.36	277.88	14.32	-38.7	-40.0	28.7	3.02e+01	0	41	0	526385152	52	6065
2026-01-21 04:26:27.37	278.12	14.32	-39.2	-40.5	28.4	3.02e+01	0	41	0	528482304	52	6444
2026-01-21 04:26:28.38	278.36	14.33	-39.4	-40.7	28.3	3.02e+01	0	41	0	530055168	52	6579
2026-01-21 04:26:29.38	278.61	14.33	-39.1	-40.4	28.7	3.02e+01	0	41	0	532152320	52	6361
2026-01-21 04:26:30.39	278.85	14.33	-39.0	-40.2	28.8	3.02e+01	0	41	0	534249472	52	6229
2026-01-21 04:26:31.40	279.09	14.34	-39.0	-40.3	28.7	3.02e+01	0	41	0	535822336	52	6293
2026-01-21 04:26:32.41	279.33	14.34	-39.6	-40.9	28.4	3.02e+01	0	41	0	537919488	52	6749
2026-01-21 04:26:33.42	279.58	14.34	-39.6	-40.8	28.5	3.02e+01	0	41	0	539492352	54	5959
2026-01-21 04:26:34.43	279.82	14.34	-39.5	-40.8	28.4	3.02e+01	0	41	0	541589504	54	5928
2026-01-21 04:26:35.44	280.06	14.34	-38.9	-40.1	28.8	3.02e+01	0	41	0	543686656	54	5495
2026-01-21 04:26:36.45	280.31	14.34	-39.2	-40.4	28.5	3.02e+01	0	41	0	545259520	52	6387
2026-01-21 04:26:37.46	280.55	14.34	-39.3	-40.6	28.6	3.02e+01	0	41	0	547356672	52	6526
2026-01-21 04:26:38.47	280.79	14.34	-39.2	-40.4	28.6	3.02e+01	0	41	0	548929536	52	6388
2026-01-21 04:26:39.47	281.03	14.34	-39.0	-40.2	28.7	3.02e+01	0	41	0	551026688	52	6247
2026-01-21 04:26:40.48	281.28	14.34	-39.1	-40.4	28.8	3.02e+01	0	41	0	553123840	52	6351
2026-01-21 04:26:41.49	281.52	14.34	-39.5	-40.7	28.4	3.02e+01	0	41	0	554696704	52	6645
2026-01-21 04:26:42.50	281.76	14.33	-39.2	-40.4	28.5	3.02e+01	0	41	0	556793856	52	6419
2026-01-21 04:26:43.50	282.00	14.33	-39.4	-40.6	28.6	3.02e+01	0	41	0	558366720	52	6521
2026-01-21 04:26:44.51	282.24	14.33	-39.8	-41.0	28.1	3.02e+01	0	41	0	560463872	52	6875
2026-01-21 04:26:45.52	282.49	14.32	-39.5	-40.8	28.3	3.02e+01	0	41	0	562561024	52	6693
2026-01-21 04:26:46.53	282.73	14.32	-39.4	-40.6	28.2	3.02e+01	0	41	0	564133888	52	6541
2026-01-21 04:26:47.55	282.97	14.32	-39.2	-40.5	28.2	3.02e+01	0	41	0	566231040	52	6448
2026-01-21 04:26:48.56	283.22	14.31	-39.2	-40.4	28.9	3.02e+01	0	41	0	567803904	52	6419
2026-01-21 04:26:49.57	283.46	14.30	-38.9	-40.2	28.7	3.02e+01	0	41	0	569901056	52	6218
2026-01-21 04:26:50.57	283.70	14.30	-39.1	-40.4	28.5	3.02e+01	0	41	0	571998208	52	6359
2026-01-21 04:26:51.58	283.94	14.29	-39.2	-40.4	28.4	3.02e+01	0	41	0	573571072	52	6422
2026-01-21 04:26:52.59	284.18	14.29	-39.0	-40.2	28.5	3.02e+01	0	41	0	575668224	52	6241
2026-01-21 04:26:53.60	284.42	14.28	-38.6	-39.9	28.6	3.02e+01	0	41	0	577765376	52	5996
2026-01-21 04:26:54.61	284.67	14.27	-38.6	-39.8	28.5	3.02e+01	0	41	0	579338240	52	5968
2026-01-21 04:26:55.62	284.91	14.26	-38.8	-40.0	28.4	3.02e+01	0	41	0	581435392	52	6126
2026-01-21 04:26:56.63	285.15	14.25	-38.4	-39.6	28.8	3.02e+01	0	41	0	583008256	52	5821
2026-01-21 04:26:57.64	285.39	14.24	-38.4	-39.6	28.7	3.02e+01	0	41	0	585105408	52	5816
2026-01-21 04:26:58.65	285.63	14.23	-38.6	-39.8	28.6	3.02e+01	0	41	0	587202560	52	5981
2026-01-21 04:26:59.66	285.87	14.22	-38.6	-39.9	28.4	3.02e+01	0	41	0	588775424	52	6029
2026-01-21 04:27:00.67	286.11	14.21	-38.5	-39.7	28.4	3.02e+01	0	41	0	590872576	52	5913
2026-01-21 04:27:01.68	286.35	14.20	-38.3	-39.5	28.6	3.02e+01	0	41	0	592969728	52	5787
2026-01-21 04:27:02.69	286.59	14.19	-38.3	-39.5	28.7	3.02e+01	0	41	0	594542592	52	5752
2026-01-21 04:27:03.70	286.83	14.18	-38.3	-39.5	28.7	3.02e+01	0	41	0	596639744	52	5788
2026-01-21 04:27:04.71	287.07	14.17	-38.8	-40.1	28.6	3.02e+01	0	41	0	598212608	52	6142
2026-01-21 04:27:05.72	287.31	14.15	-38.6	-39.9	28.5	3.02e+01	0	41	0	600309760	52	6012
2026-01-21 04:27:06.73	287.55	14.14	-38.3	-39.5	28.8	3.02e+01	0	41	0	602406912	52	5782
2026-01-21 04:27:07.74	287.79	14.13	-38.3	-39.6	28.6	3.02e+01	0	41	0	603979776	52	5797
2026-01-21 04:27:08.75	288.03	14.11	-38.3	-39.5	28.6	3.02e+01	0	41	0	606076928	52	5790
2026-01-21 04:27:09.76	288.27	14.10	-38.4	-39.6	28.7	3.02e+01	0	41	0	607649792	52	5839
2026-01-21 04:27:10.77	288.51	14.08	-38.1	-39.4	28.8	3.02e+01	0	41	0	609746944	52	5676
2026-01-21 04:27:11.78	288.75	14.07	-38.4	-39.6	28.6	3.02e+01	0	41	0	611844096	52	5832
2026-01-21 04:27:12.78	288.98	14.05	-38.2	-39.5	28.7	3.02e+01	0	41	0	613416960	52	5745
2026-01-21 04:27:13.79	289.22	14.04	-38.5	-39.7	28.6	3.02e+01	0	41	0	615514112	52	5918
2026-01-21 04:27:14.80	289.46	14.02	-38.3	-39.6	28.7	3.02e+01	0	41	0	617086976	52	5803
2026-01-21 04:27:15.80	289.69	14.00	-38.6	-39.8	28.7	3.02e+01	0	41	0	619184128	52	5975
2026-01-21 04:27:16.81	289.93	13.99	-38.6	-39.9	28.4	3.02e+01	0	41	0	621281280	52	6032
2026-01-21 04:27:17.83	290.17	13.97	-38.7	-39.9	28.4	3.02e+01	0	41	0	622854144	52	6050
2026-01-21 04:27:18.83	290.40	13.95	-38.1	-39.3	28.9	3.02e+01	0	41	0	624951296	52	5653
2026-01-21 04:27:19.85	290.64	13.93	-38.3	-39.5	28.6	3.02e+01	0	41	0	626524160	52	5754
2026-01-21 04:27:20.86	290.88	13.91	-38.3	-39.6	28.8	3.02e+01	0	41	0	628621312	52	5799
2026-01-21 04:27:21.87	291.11	13.89	-38.6	-39.8	28.6	3.02e+01	0	41	0	630718464	52	5955
2026-01-21 04:27:22.88	291.35	13.87	-38.5	-39.7	28.5	3.02e+01	0	41	0	632291328	52	5904
2026-01-21 04:27:23.89	291.58	13.85	-38.5	-39.8	28.5	3.02e+01	0	41	0	634388480	52	5941
2026-01-21 04:27:24.89	291.81	13.83	-38.4	-39.7	28.6	3.02e+01	0	41	0	635961344	52	5862
2026-01-21 04:27:25.90	292.05	13.81	-38.3	-39.6	28.6	3.02e+01	0	41	0	638058496	52	5807
2026-01-21 04:27:26.91	292.28	13.79	-38.3	-39.6	28.6	3.02e+01	0	41	0	640155648	52	5796
2026-01-21 04:27:27.93	292.52	13.77	-38.4	-39.7	28.5	3.02e+01	0	41	0	641728512	52	5868
2026-01-21 04:27:28.93	292.75	13.74	-38.4	-39.6	28.4	3.02e+01	0	41	0	643825664	52	5853
2026-01-21 04:27:29.94	292.98	13.72	-39.1	-40.4	27.8	3.02e+01	0	41	0	645922816	52	6375
2026-01-21 04:27:30.95	293.21	13.70	-38.2	-39.5	28.7	3.02e+01	0	41	0	647495680	52	5730
2026-01-21 04:27:31.96	293.44	13.68	-38.2	-39.5	28.7	3.02e+01	0	41	0	649592832	52	5733
2026-01-21 04:27:32.97	293.68	13.65	-38.2	-39.5	28.6	3.02e+01	0	41	0	651165696	52	5741
2026-01-21 04:27:33.98	293.91	13.63	-38.3	-39.5	28.8	3.02e+01	0	41	0	653262848	52	5762
2026-01-21 04:27:34.99	294.14	13.60	-38.5	-39.7	28.7	3.02e+01	0	41	0	655360000	52	5894
2026-01-21 04:27:36.00	294.37	13.58	-38.4	-39.7	28.6	3.02e+01	0	41	0	656932864	52	5879
2026-01-21 04:27:37.02	294.60	13.55	-38.3	-39.6	28.7	3.02e+01	0	41	0	659030016	52	5799
2026-01-21 04:27:38.02	294.83	13.53	-38.7	-39.9	28.5	3.02e+01	0	41	0	661127168	52	6055
2026-01-21 04:27:39.03	295.05	13.50	-38.6	-39.9	28.7	3.02e+01	0	41	0	662700032	52	6012
2026-01-21 04:27:40.04	295.28	13.47	-38.9	-40.1	28.4	3.02e+01	0	41	0	664797184	52	6181
2026-01-21 04:27:41.05	295.51	13.45	-38.8	-40.1	28.5	3.02e+01	0	41	0	666370048	52	6138
2026-01-21 04:27:42.06	295.74	13.42	-38.8	-40.1	28.2	3.02e+01	0	41	0	668467200	52	6141
2026-01-21 04:27:43.07	295.97	13.39	-38.2	-39.4	28.8	3.02e+01	0	41	0	670040064	52	5724
2026-01-21 04:27:44.08	296.19	13.37	-38.6	-39.9	28.5	3.02e+01	0	41	0	672137216	52	6009
2026-01-21 04:27:45.09	296.42	13.34	-38.4	-39.6	28.7	3.02e+01	0	41	0	674234368	52	5816
2026-01-21 04:27:46.10	296.64	13.31	-38.2	-39.5	28.7	3.02e+01	0	41	0	675807232	52	5731
2026-01-21 04:27:47.10	296.87	13.28	-38.3	-39.6	28.7	3.02e+01	0	41	0	677904384	52	5807
2026-01-21 04:27:48.12	297.09	13.25	-38.4	-39.6	28.6	3.02e+01	0	41	0	679477248	52	5840
2026-01-21 04:27:49.13	297.32	13.22	-38.3	-39.5	28.8	3.02e+01	0	41	0	681574400	52	5790
2026-01-21 04:27:50.13	297.54	13.19	-38.3	-39.5	28.7	3.02e+01	0	41	0	683671552	52	5770
2026-01-21 04:27:51.14	297.76	13.16	-38.2	-39.4	28.8	3.02e+01	0	41	0	685244416	52	5702
2026-01-21 04:27:52.16	297.99	13.13	-38.4	-39.7	28.5	3.02e+01	0	41	0	687341568	52	5874
2026-01-21 04:27:53.17	298.21	13.10	-38.4	-39.7	28.5	3.02e+01	0	41	0	689438720	52	5880
2026-01-21 04:27:54.17	298.43	13.07	-38.3	-39.5	28.7	3.02e+01	0	41	0	691011584	52	5765
2026-01-21 04:27:55.18	298.65	13.04	-38.3	-39.5	28.7	3.02e+01	0	41	0	693108736	52	5766
2026-01-21 04:27:56.19	298.87	13.00	-38.4	-39.7	28.3	3.02e+01	0	41	0	694681600	52	5882
2026-01-21 04:27:57.20	299.09	12.97	-38.6	-39.9	28.3	3.02e+01	0	41	0	696778752	52	6023
2026-01-21 04:27:58.21	299.31	12.94	-38.8	-40.1	28.1	3.02e+01	0	41	0	698875904	52	6155
2026-01-21 04:27:59.22	299.53	12.91	-38.9	-40.2	27.9	3.02e+01	0	41	0	700448768	52	6216
2026-01-21 04:28:00.23	299.75	12.87	-39.2	-40.5	27.7	3.02e+01	0	41	0	702545920	52	6427
2026-01-21 04:28:01.24	299.97	12.84	-39.0	-40.3	27.9	3.02e+01	0	41	0	704118784	52	6326
2026-01-21 04:28:02.25	300.19	12.81	-38.6	-39.9	28.3	3.02e+01	0	41	0	706215936	52	6004
2026-01-21 04:28:03.26	300.41	12.77	-38.4	-39.7	28.5	3.02e+01	0	41	0	708313088	52	5865
2026-01-21 04:28:04.27	300.62	12.74	-38.3	-39.5	28.6	3.02e+01	0	41	0	709885952	52	5780
2026-01-21 04:28:05.28	300.84	12.70	-38.3	-39.6	28.5	3.02e+01	0	41	0	711983104	52	5807
2026-01-21 04:28:06.29	301.05	12.67	-38.0	-39.3	28.7	3.02e+01	0	41	0	714080256	52	5618
2026-01-21 04:28:07.30	301.27	12.63	-38.3	-39.6	28.5	3.02e+01	0	41	0	715653120	50	6521
2026-01-21 04:28:08.31	301.48	12.60	-38.1	-39.3	28.8	3.02e+01	0	41	0	717750272	50	6320
2026-01-21 04:28:09.31	301.70	12.56	-38.4	-39.7	28.4	3.02e+01	0	41	0	719323136	50	6589
2026-01-21 04:28:10.33	301.91	12.53	-38.4	-39.6	28.5	3.02e+01	0	41	0	721420288	50	6562
2026-01-21 04:28:11.33	302.12	12.49	-38.4	-39.6	28.3	3.02e+01	0	41	0	723517440	50	6550
2026-01-21 04:28:12.34	302.33	12.45	-38.3	-39.6	28.4	3.02e+01	0	41	0	725090304	50	6545
2026-01-21 04:28:13.35	302.55	12.42	-38.3	-39.5	28.7	3.02e+01	0	41	0	727187456	50	6486
2026-01-21 04:28:14.36	302.76	12.38	-38.1	-39.3	28.8	3.02e+01	0	41	0	728760320	50	6350
2026-01-21 04:28:15.37	302.97	12.34	-38.3	-39.5	28.5	3.02e+01	0	41	0	730857472	50	6476
2026-01-21 04:28:16.38	303.18	12.30	-38.1	-39.4	28.6	3.02e+01	0	41	0	732954624	50	6395
2026-01-21 04:28:17.39	303.39	12.27	-38.2	-39.4	28.6	3.02e+01	0	41	0	734527488	50	6407
2026-01-21 04:28:18.40	303.60	12.23	-38.1	-39.4	28.7	3.02e+01	0	41	0	736624640	50	6390
2026-01-21 04:28:19.41	303.81	12.19	-38.5	-39.8	28.4	3.02e+01	0	41	0	738197504	50	6653
2026-01-21 04:28:20.42	304.01	12.15	-38.4	-39.7	28.4	3.02e+01	0	41	0	740294656	50	6579
2026-01-21 04:28:21.43	304.22	12.11	-38.0	-39.3	28.7	3.02e+01	0	41	0	742391808	50	6321
2026-01-21 04:28:22.44	304.43	12.07	-38.0	-39.3	28.7	3.02e+01	0	41	0	743964672	50	6308
2026-01-21 04:28:23.45	304.63	12.03	-38.2	-39.4	28.7	3.02e+01	0	41	0	746061824	50	6408
2026-01-21 04:28:24.45	304.84	11.99	-38.1	-39.4	28.7	3.02e+01	0	41	0	747634688	50	6372
2026-01-21 04:28:25.46	305.04	11.95	-38.2	-39.5	28.6	3.02e+01	0	41	0	749731840	50	6433
2026-01-21 04:28:26.48	305.25	11.91	-38.4	-39.7	28.5	3.02e+01	0	41	0	751828992	50	6584
2026-01-21 04:28:27.48	305.45	11.87	-38.3	-39.6	28.5	3.02e+01	0	41	0	753401856	50	6500
2026-01-21 04:28:28.50	305.65	11.83	-38.1	-39.3	28.8	3.02e+01	0	41	0	755499008	50	6331
2026-01-21 04:28:29.50	305.86	11.79	-38.2	-39.4	28.6	3.02e+01	0	41	0	757071872	50	6422
2026-01-21 04:28:30.51	306.06	11.75	-38.3	-39.6	28.5	3.02e+01	0	41	0	759169024	50	6549
2026-01-21 04:28:31.52	306.26	11.71	-38.5	-39.8	28.4	3.02e+01	0	41	0	761266176	50	6716
2026-01-21 04:28:32.52	306.46	11.67	-38.4	-39.6	28.5	3.02e+01	0	41	0	762839040	50	6561
2026-01-21 04:28:33.53	306.66	11.62	-38.5	-39.9	28.4	3.02e+01	0	41	0	764936192	50	6734
2026-01-21 04:28:34.54	306.86	11.58	-38.6	-39.9	28.3	3.02e+01	0	41	0	767033344	50	6780
2026-01-21 04:28:35.55	307.06	11.54	-38.5	-39.9	28.4	3.02e+01	0	41	0	768606208	50	6730
2026-01-21 04:28:36.56	307.25	11.50	-38.4	-39.7	28.4	3.02e+01	0	41	0	770703360	50	6594
2026-01-21 04:28:37.57	307.45	11.45	-38.5	-39.7	28.4	3.02e+01	0	41	0	772276224	50	6649
2026-01-21 04:28:38.58	307.65	11.41	-38.9	-40.3	28.1	3.02e+01	0	41	0	774373376	50	7065
2026-01-21 04:28:39.59	307.85	11.37	-38.4	-39.7	28.6	3.02e+01	0	41	0	776470528	50	6614
2026-01-21 04:28:40.60	308.04	11.32	-38.6	-39.9	28.2	3.02e+01	0	41	0	778043392	50	6779
2026-01-21 04:28:41.61	308.24	11.28	-38.5	-39.8	28.4	3.02e+01	0	41	0	780140544	50	6706
2026-01-21 04:28:42.62	308.43	11.24	-38.6	-39.9	28.3	3.02e+01	0	41	0	781713408	50	6733
2026-01-21 04:28:43.63	308.63	11.19	-38.5	-39.7	28.4	3.02e+01	0	41	0	783810560	50	6638
2026-01-21 04:28:44.64	308.82	11.15	-38.6	-39.9	28.4	3.02e+01	0	41	0	785907712	50	6758
2026-01-21 04:28:45.65	309.01	11.11	-38.5	-39.7	28.5	3.02e+01	0	41	0	787480576	50	6641
2026-01-21 04:28:46.66	309.20	11.06	-39.1	-40.4	28.0	3.02e+01	0	41	0	789577728	50	7149
2026-01-21 04:28:47.67	309.40	11.02	-39.1	-40.3	27.9	3.02e+01	0	41	0	791150592	52	6350
2026-01-21 04:28:48.68	309.59	10.97	-39.1	-40.5	27.9	3.02e+01	0	41	0	793247744	52	6429
2026-01-21 04:28:49.69	309.78	10.93	-39.2	-40.5	27.9	3.02e+01	0	41	0	795344896	52	6441
2026-01-21 04:28:50.70	309.97	10.88	-38.9	-40.2	28.1	3.02e+01	0	41	0	796917760	52	6252
2026-01-21 04:28:51.71	310.16	10.84	-38.8	-40.0	28.2	3.02e+01	0	41	0	799014912	52	6120
2026-01-21 04:28:52.72	310.35	10.79	-38.9	-40.2	28.1	3.02e+01	0	41	0	800587776	52	6210
2026-01-21 04:28:53.73	310.53	10.75	-39.6	-40.9	27.7	3.02e+01	0	41	0	802684928	52	6747
2026-01-21 04:28:54.74	310.72	10.70	-39.6	-40.9	28.1	3.02e+01	0	41	0	804782080	54	6005
2026-01-21 04:28:55.75	310.91	10.65	-39.2	-40.5	28.3	3.02e+01	0	41	0	806354944	54	5748
2026-01-21 04:28:56.76	311.09	10.61	-39.1	-40.4	28.0	3.02e+01	0	41	0	808452096	52	6369
2026-01-21 04:28:57.77	311.28	10.56	-39.0	-40.3	28.0	3.02e+01	0	41	0	810549248	52	6296
2026-01-21 04:28:58.78	311.46	10.51	-38.9	-40.2	28.0	3.02e+01	0	41	0	812122112	52	6242
2026-01-21 04:28:59.79	311.65	10.47	-39.6	-40.9	27.5	3.02e+01	0	41	0	814219264	52	6790
2026-01-21 04:29:00.80	311.83	10.42	-39.2	-40.6	27.8	3.02e+01	0	41	0	815792128	52	6513
2026-01-21 04:29:01.81	312.01	10.37	-39.8	-41.2	27.3	3.02e+01	0	41	0	817889280	52	6973
2026-01-21 04:29:02.81	312.20	10.33	-39.3	-40.6	27.6	3.02e+01	0	41	0	819986432	52	6571
2026-01-21 04:29:03.83	312.38	10.28	-38.8	-40.1	28.1	3.02e+01	0	41	0	821559296	52	6162
2026-01-21 04:29:04.83	312.56	10.23	-38.8	-40.0	28.1	3.02e+01	0	41	0	823656448	52	6121
2026-01-21 04:29:05.84	312.74	10.19	-39.0	-40.2	28.1	3.02e+01	0	41	0	825229312	52	6274
2026-01-21 04:29:06.85	312.92	10.14	-38.9	-40.2	28.2	3.02e+01	0	41	0	827326464	52	6209
2026-01-21 04:29:07.86	313.10	10.09	-38.9	-40.2	28.0	3.02e+01	0	41	0	829423616	52	6221
2026-01-21 04:29:08.87	313.28	10.04	-39.1	-40.4	28.1	3.02e+01	0	41	0	830996480	52	6389
2026-01-21 04:29:09.88	313.45	10.00	-39.4	-40.7	27.8	3.02e+01	0	41	0	833093632	52	6625
2026-01-21 04:29:10.89	313.63	9.95	-39.6	-40.9	27.5	3.02e+01	0	41	0	835190784	52	6755
2026-01-21 04:29:11.90	313.81	9.90	-39.5	-40.8	27.6	3.02e+01	0	41	0	836763648	52	6679
2026-01-21 04:29:12.91	313.98	9.85	-39.3	-40.6	27.7	3.02e+01	0	41	0	838860800	52	6573
2026-01-21 04:29:13.92	314.16	9.80	-39.2	-40.4	27.9	3.02e+01	0	41	0	840433664	52	6420
2026-01-21 04:29:14.93	314.34	9.75	-38.8	-40.1	28.1	3.02e+01	0	41	0	842530816	52	6154
2026-01-21 04:29:15.94	314.51	9.71	-39.0	-40.3	27.8	3.02e+01	0	41	0	844627968	52	6300
2026-01-21 04:29:16.94	314.68	9.66	-39.0	-40.3	28.0	3.02e+01	0	41	0	846200832	52	6321
2026-01-21 04:29:17.95	314.86	9.61	-38.8	-40.1	28.0	3.02e+01	0	41	0	848297984	52	6164
2026-01-21 04:29:18.96	315.03	9.56	-39.2	-40.5	27.6	3.02e+01	0	41	0	849870848	52	6484
2026-01-21 04:29:19.97	315.20	9.51	-39.3	-40.6	27.7	3.02e+01	0	41	0	851968000	52	6523
2026-01-21 04:29:20.98	315.37	9.46	-39.4	-40.7	27.6	3.02e+01	0	41	0	854065152	52	6605
2026-01-21 04:29:21.99	315.54	9.41	-38.9	-40.2	27.9	3.02e+01	0	41	0	855638016	52	6230
2026-01-21 04:29:23.00	315.71	9.36	-39.3	-40.6	27.7	3.02e+01	0	41	0	857735168	52	6561
2026-01-21 04:29:24.01	315.88	9.31	-37.9	-39.1	28.8	3.02e+01	0	41	0	859308032	52	5509
2026-01-21 04:29:25.02	316.05	9.26	-38.7	-40.0	28.0	3.02e+01	0	41	0	861405184	50	6868
2026-01-21 04:29:26.03	316.22	9.21	-38.6	-39.9	28.0	3.02e+01	0	41	0	863502336	52	6001
2026-01-21 04:29:27.04	316.39	9.16	-37.8	-39.0	26.9	3.02e+01	0	41	0	865075200	52	5456
2026-01-21 04:29:28.05	316.55	9.11	-39.0	-40.3	27.7	3.02e+01	0	41	0	867172352	52	6329
2026-01-21 04:29:29.05	316.72	9.06	-39.1	-40.5	27.5	3.02e+01	0	41	0	868745216	52	6429
2026-01-21 04:29:30.07	316.89	9.01	-38.9	-40.2	27.4	3.02e+01	0	41	0	870842368	52	6232
2026-01-21 04:29:31.08	317.05	8.96	-39.2	-40.5	27.4	3.02e+01	0	41	0	872939520	52	6464
2026-01-21 04:29:32.08	317.21	8.91	-39.4	-40.8	27.1	3.02e+01	0	41	0	874512384	52	6679
2026-01-21 04:29:33.09	317.38	8.86	-38.7	-39.9	28.0	3.02e+01	0	41	0	876609536	52	6062
2026-01-21 04:29:34.10	317.54	8.81	-39.3	-40.6	27.3	3.02e+01	0	41	0	878706688	52	6549
2026-01-21 04:29:35.11	317.70	8.76	-39.9	-41.3	26.7	3.02e+01	0	41	0	880279552	54	6326
2026-01-21 04:29:36.12	317.87	8.71	-39.4	-40.8	27.1	3.02e+01	0	41	0	882376704	52	6665
2026-01-21 04:29:37.13	318.03	8.66	-39.6	-41.0	27.0	3.02e+01	0	41	0	883949568	52	6846
2026-01-21 04:29:38.14	318.19	8.61	-38.8	-40.1	27.8	3.02e+01	0	41	0	886046720	52	6144
2026-01-21 04:29:39.15	318.35	8.56	-38.8	-40.1	27.7	3.02e+01	0	41	0	888143872	52	6183
2026-01-21 04:29:40.16	318.51	8.51	-39.0	-40.3	27.8	3.02e+01	0	41	0	889716736	52	6305
2026-01-21 04:29:41.17	318.67	8.46	-39.2	-40.5	27.4	3.02e+01	0	41	0	891813888	52	6489
2026-01-21 04:29:42.18	318.83	8.41	-39.3	-40.7	27.1	3.02e+01	0	41	0	893386752	50	7377
2026-01-21 04:29:43.19	318.99	8.36	-39.6	-41.0	26.7	3.02e+01	0	41	0	895483904	52	6840
2026-01-21 04:29:44.20	319.14	8.31	-39.4	-40.7	27.4	3.02e+01	0	41	0	897581056	52	6611
2026-01-21 04:29:45.21	319.30	8.26	-38.8	-40.1	27.8	3.02e+01	0	41	0	899153920	52	6195
2026-01-21 04:29:46.22	319.46	8.20	-39.6	-40.9	26.9	3.02e+01	0	41	0	901251072	52	6777
2026-01-21 04:29:47.23	319.61	8.15	-39.4	-40.8	27.0	3.02e+01	0	41	0	903348224	54	5944
2026-01-21 04:29:48.24	319.77	8.10	-39.3	-40.6	27.2	3.02e+01	0	41	0	904921088	54	5840
2026-01-21 04:29:49.25	319.92	8.05	-39.1	-40.4	27.5	3.02e+01	0	41	0	907018240	52	6379
2026-01-21 04:29:50.26	320.08	8.00	-39.5	-40.9	26.9	3.02e+01	0	41	0	908591104	52	6736
2026-01-21 04:29:51.27	320.23	7.95	-39.4	-40.7	27.1	3.02e+01	0	41	0	910688256	54	5884
2026-01-21 04:29:52.28	320.39	7.90	-39.0	-40.3	27.2	3.02e+01	0	41	0	912785408	54	5614
2026-01-21 04:29:53.29	320.54	7.85	-39.9	-41.3	26.8	3.02e+01	0	41	0	914358272	54	6298
2026-01-21 04:29:54.30	320.69	7.79	-39.9	-41.3	26.7	3.02e+01	0	41	0	916455424	54	6314
2026-01-21 04:29:55.31	320.84	7.74	-40.0	-41.4	26.6	3.02e+01	0	41	0	918028288	54	6420
2026-01-21 04:29:56.31	320.99	7.69	-40.1	-41.5	26.5	3.02e+01	0	41	0	920125440	54	6463
2026-01-21 04:29:57.33	321.14	7.64	-39.1	-40.4	27.3	3.02e+01	0	41	0	922222592	54	5724
2026-01-21 04:29:58.33	321.29	7.59	-39.4	-40.7	27.1	3.02e+01	0	41	0	923795456	54	5913
2026-01-21 04:29:59.34	321.44	7.54	-39.2	-40.5	27.2	3.02e+01	0	41	0	925892608	54	5763
2026-01-21 04:30:00.35	321.59	7.48	-39.3	-40.6	27.3	3.02e+01	0	41	0	927465472	54	5834
2026-01-21 04:30:01.36	321.74	7.43	-40.2	-41.7	26.4	3.02e+01	0	41	0	929562624	54	6593
2026-01-21 04:30:02.37	321.88	7.38	-39.6	-41.0	27.0	3.02e+01	0	41	0	931659776	54	6079
2026-01-21 04:30:03.38	322.03	7.33	-39.7	-41.1	26.8	3.02e+01	0	41	0	933232640	54	6171
2026-01-21 04:30:04.38	322.18	7.28	-39.9	-41.3	26.5	3.02e+01	0	41	0	935329792	54	6301
2026-01-21 04:30:05.39	322.32	7.23	-39.8	-41.2	26.7	3.02e+01	0	41	0	936902656	54	6214
2026-01-21 04:30:06.40	322.47	7.17	-39.5	-40.8	26.8	3.02e+01	0	41	0	938999808	54	5970
2026-01-21 04:30:07.41	322.61	7.12	-40.4	-41.8	26.2	3.02e+01	0	41	0	941096960	54	6695
2026-01-21 04:30:08.42	322.76	7.07	-39.5	-40.9	27.0	3.02e+01	0	41	0	942669824	54	6010
2026-01-21 04:30:09.43	322.90	7.02	-39.3	-40.6	27.2	3.02e+01	0	41	0	944766976	54	5812
2026-01-21 04:30:10.44	323.04	6.97	-39.7	-41.0	26.8	3.02e+01	0	41	0	946864128	54	6115
2026-01-21 04:30:11.45	323.18	6.91	-39.4	-40.8	27.1	3.02e+01	0	41	0	948436992	54	5936
2026-01-21 04:30:12.46	323.33	6.86	-40.2	-41.6	26.3	3.02e+01	0	41	0	950534144	54	6509
2026-01-21 04:30:13.47	323.47	6.81	-39.9	-41.3	26.6	3.02e+01	0	41	0	952107008	54	6300
2026-01-21 04:30:14.48	323.61	6.76	-39.8	-41.2	26.4	3.02e+01	0	41	0	954204160	54	6228
2026-01-21 04:30:15.49	323.75	6.71	-40.0	-41.4	26.6	3.02e+01	0	41	0	956301312	54	6361
2026-01-21 04:30:16.50	323.89	6.65	-39.8	-41.2	26.7	3.02e+01	0	41	0	957874176	54	6266
2026-01-21 04:30:17.50	324.03	6.60	-40.1	-41.5	26.3	3.02e+01	0	41	0	959971328	54	6485
2026-01-21 04:30:18.51	324.17	6.55	-39.8	-41.2	26.4	3.02e+01	0	41	0	961544192	54	6219
2026-01-21 04:30:19.52	324.30	6.50	-39.9	-41.3	26.4	3.02e+01	0	41	0	963641344	54	6328
2026-01-21 04:30:20.53	324.44	6.45	-39.4	-40.8	26.9	3.02e+01	0	41	0	965738496	54	5969
2026-01-21 04:30:21.54	324.58	6.39	-39.9	-41.3	26.5	3.02e+01	0	41	0	967311360	54	6294
2026-01-21 04:30:22.55	324.72	6.34	-39.7	-41.1	26.4	3.02e+01	0	41	0	969408512	54	6191
2026-01-21 04:30:23.56	324.85	6.29	-40.2	-41.6	26.2	3.02e+01	0	41	0	970981376	54	6524
2026-01-21 04:30:24.57	324.99	6.24	-40.3	-41.7	26.1	3.02e+01	0	41	0	973078528	54	6592
2026-01-21 04:30:25.58	325.12	6.18	-40.2	-41.7	26.1	3.02e+01	0	41	0	975175680	54	6586
2026-01-21 04:30:26.59	325.26	6.13	-40.2	-41.7	26.0	3.02e+01	0	41	0	976748544	54	6603
2026-01-21 04:30:27.60	325.39	6.08	-39.5	-40.9	26.7	3.02e+01	0	41	0	978845696	54	6024
2026-01-21 04:30:28.61	325.53	6.03	-40.2	-41.6	26.1	3.02e+01	0	41	0	980418560	54	6560
2026-01-21 04:30:29.62	325.66	5.98	-39.5	-40.9	26.8	3.02e+01	0	41	0	982515712	54	6027
2026-01-21 04:30:30.63	325.79	5.92	-40.3	-41.8	26.0	3.02e+01	0	41	0	984612864	54	6697
2026-01-21 04:30:31.64	325.92	5.87	-40.1	-41.6	26.2	3.02e+01	0	41	0	986185728	54	6541
2026-01-21 04:30:32.65	326.06	5.82	-40.3	-41.9	25.8	3.02e+01	0	41	0	988282880	54	6748
2026-01-21 04:30:33.66	326.19	5.77	-40.3	-41.8	25.9	3.02e+01	0	41	0	989855744	54	6675
2026-01-21 04:30:34.66	326.32	5.71	-39.6	-41.0	26.6	3.02e+01	0	41	0	991952896	54	6130
2026-01-21 04:30:35.67	326.45	5.66	-40.2	-41.7	25.9	3.02e+01	0	41	0	994050048	54	6646
2026-01-21 04:30:36.68	326.58	5.61	-40.2	-41.6	26.1	3.02e+01	0	41	0	995622912	54	6570
2026-01-21 04:30:37.69	326.71	5.56	-40.3	-41.8	26.2	3.02e+01	0	41	0	997720064	54	6672
2026-01-21 04:30:38.70	326.84	5.51	-40.0	-41.4	26.3	3.02e+01	0	41	0	999817216	54	6394
2026-01-21 04:30:39.71	326.96	5.45	-40.2	-41.7	25.8	3.02e+01	0	41	0	1001390080	54	6580
2026-01-21 04:30:40.72	327.09	5.40	-40.0	-41.4	26.4	3.02e+01	0	41	0	1003487232	54	6405
2026-01-21 04:30:41.73	327.22	5.35	-40.4	-41.8	25.9	3.02e+01	0	41	0	1005060096	54	6720
2026-01-21 04:30:42.74	327.35	5.30	-41.0	-42.5	25.5	3.02e+01	0	41	0	1007157248	56	6449
2026-01-21 04:30:43.75	327.47	5.24	-40.4	-41.9	25.9	3.02e+01	0	41	0	1009254400	56	6013
2026-01-21 04:30:44.76	327.60	5.19	-40.6	-42.0	25.9	3.02e+01	0	41	0	1010827264	56	6102
2026-01-21 04:30:45.77	327.72	5.14	-40.4	-41.9	25.9	3.02e+01	0	41	0	1012924416	56	5997
2026-01-21 04:30:46.78	327.85	5.09	-41.1	-42.6	25.3	3.02e+01	0	41	0	1015021568	56	6532
2026-01-21 04:30:47.79	327.97	5.04	-40.6	-42.1	25.8	3.02e+01	0	41	0	1016594432	56	6178
2026-01-21 04:30:48.80	328.10	4.98	-41.2	-42.7	25.1	3.02e+01	0	41	0	1018691584	56	6616
2026-01-21 04:30:49.81	328.22	4.93	-41.3	-42.8	25.3	3.02e+01	0	41	0	1020264448	56	6704
2026-01-21 04:30:50.81	328.34	4.88	-40.9	-42.4	25.5	3.02e+01	0	41	0	1022361600	56	6367
2026-01-21 04:30:51.83	328.47	4.83	-40.9	-42.4	25.9	3.02e+01	0	41	0	1024458752	56	6384
2026-01-21 04:30:52.83	328.59	4.78	-41.0	-42.5	25.6	3.02e+01	0	41	0	1026031616	56	6475
2026-01-21 04:30:53.84	328.71	4.72	-41.3	-42.9	25.1	3.02e+01	0	41	0	1028128768	56	6731
2026-01-21 04:30:54.85	328.83	4.67	-40.2	-41.6	26.1	3.02e+01	0	41	0	1029701632	56	5830
2026-01-21 04:30:55.86	328.95	4.62	-40.7	-42.2	25.3	3.02e+01	0	41	0	1031798784	56	6207
2026-01-21 04:30:56.87	329.07	4.57	-42.1	-43.7	24.1	3.02e+01	0	41	0	1033895936	58	6629
2026-01-21 04:30:57.88	329.19	4.52	-41.5	-43.2	24.6	3.02e+01	0	41	0	1035468800	58	6209
2026-01-21 04:30:58.89	329.31	4.46	-41.0	-42.5	25.2	3.02e+01	0	41	0	1037565952	56	6465
2026-01-21 04:30:59.90	329.43	4.41	-40.1	-41.5	26.0	3.02e+01	0	41	0	1039138816	56	5778
2026-01-21 04:31:00.91	329.55	4.36	-41.1	-42.6	25.1	3.02e+01	0	41	0	1041235968	56	6519
2026-01-21 04:31:01.92	329.67	4.31	-41.3	-42.9	25.0	3.02e+01	0	41	0	1043333120	56	6753
2026-01-21 04:31:02.93	329.78	4.26	-41.3	-42.8	24.8	3.02e+01	0	41	0	1044905984	56	6691
2026-01-21 04:31:03.94	329.90	4.20	-42.2	-43.9	24.2	3.02e+01	0	41	0	1047003136	58	6746
2026-01-21 04:31:04.95	330.02	4.15	-42.3	-44.0	23.9	3.02e+01	0	41	0	1048576000	58	6846
2026-01-21 04:31:05.96	330.13	4.10	-41.8	-43.4	24.8	3.02e+01	0	41	0	1050673152	58	6374
2026-01-21 04:31:06.96	330.25	4.05	-41.5	-43.0	24.6	3.02e+01	0	41	0	1052770304	58	6124
2026-01-21 04:31:07.97	330.37	4.00	-41.4	-43.0	24.8	3.02e+01	0	41	0	1054343168	58	6079
2026-01-21 04:31:08.98	330.48	3.94	-42.5	-44.2	24.0	3.02e+01	0	41	0	1056440320	58	7035
2026-01-21 04:31:09.99	330.60	3.89	-42.1	-43.8	24.2	3.02e+01	0	41	0	1058013184	58	6696
2026-01-21 04:31:11.01	330.71	3.84	-42.1	-43.8	23.8	3.02e+01	0	41	0	1060110336	58	6670
2026-01-21 04:31:12.01	330.82	3.79	-41.2	-42.8	24.5	3.02e+01	0	41	0	1062207488	58	5937
2026-01-21 04:31:13.02	330.94	3.74	-41.6	-43.2	24.0	3.02e+01	0	41	0	1063780352	58	6267
2026-01-21 04:31:14.03	331.05	3.69	-42.4	-44.2	22.9	3.02e+01	0	41	0	1065877504	58	7022
2026-01-21 04:31:15.04	331.16	3.63	-43.4	-45.5	21.4	3.02e+01	0	41	0	1067974656	60	7281
2026-01-21 04:31:16.05	331.27	3.58	-43.8	-46.2	20.3	3.02e+01	0	41	0	1069547520	60	7841
2026-01-21 04:31:17.06	331.39	3.53	-44.0	-46.7	19.7	3.02e+01	0	41	0	1071644672	60	8280
2026-01-21 04:31:18.07	331.50	3.48	-45.1	-48.4	17.6	3.02e+01	0	41	0	1073217536	60	10140
2026-01-21 04:31:19.08	331.61	3.43	-45.6	-49.7	16.4	3.02e+01	0	41	0	1075314688	60	11713
2026-01-21 04:31:20.09	331.72	3.38	-46.2	-51.3	13.9	3.02e+01	0	41	0	1077411840	60	14110
2026-01-21 04:31:21.10	331.83	3.32	-46.7	-53.5	11.6	3.02e+01	0	41	0	1078984704	60	18243
2026-01-21 04:31:22.11	331.94	3.27	-46.4	-53.0	11.4	3.02e+01	0	41	0	1081081856	60	17235
2026-01-21 04:31:23.12	332.05	3.22	-46.7	-55.0	9.1	3.02e+01	0	41	0	1082654720	60	21762
2026-01-21 04:31:24.13	332.16	3.17	-46.9	-56.9	6.6	3.02e+01	92	41	0	1084751872	60	27031
2026-01-21 04:31:25.14	332.27	3.12	-46.9	-59.5	3.9	3.02e+01	0	41	104	1085800448	60	36192
2026-01-21 04:31:26.15	332.37	3.07	-47.0	-60.9	4.3	3.02e+01	0	41	104	1085800448	60	42879
2026-01-21 04:31:27.16	332.48	3.02	-46.9	-62.5	3.7	3.02e+01	0	41	104	1085800448	60	51607
2026-01-21 04:31:28.17	332.59	2.97	-50.3	-68.1	3.5	3.02e+01	0	41	104	1085800448	60	97783
2026-01-21 04:31:29.18	332.70	2.91	-50.4	-68.5	3.5	3.02e+01	0	41	104	1085800448	60	102630
2026-01-21 04:31:30.19	332.80	2.86	-51.0	-68.9	3.5	3.02e+01	0	42	104	1085800448	60	107646
2026-01-21 04:31:31.20	332.91	2.81	-51.1	-69.2	3.5	3.02e+01	0	41	104	1085800448	60	110416
2026-01-21 04:31:32.21	333.02	2.76	-51.4	-69.3	3.5	3.02e+01	0	41	104	1085800448	60	111898
2026-01-21 04:31:33.22	333.12	2.71	-51.5	-69.3	3.5	3.02e+01	0	41	104	1085800448	60	112486
2026-01-21 04:31:34.23	333.23	2.66	-51.3	-69.4	3.5	3.02e+01	0	41	104	1085800448	60	112961
2026-01-21 04:31:35.24	333.33	2.61	-51.5	-69.4	3.5	3.02e+01	0	41	104	1085800448	60	113361
2026-01-21 04:31:36.25	333.43	2.56	-51.4	-69.4	3.5	3.02e+01	0	42	104	1085800448	60	114084
2026-01-21 04:31:37.26	333.54	2.51	-51.6	-69.6	3.5	3.02e+01	0	41	104	1085800448	60	115819
2026-01-21 04:31:38.27	333.64	2.45	-51.5	-69.4	3.5	3.02e+01	0	41	104	1085800448	60	113793
2026-01-21 04:31:39.28	333.75	2.40	-51.5	-69.5	3.5	3.02e+01	0	41	104	1085800448	60	114366
2026-01-21 04:31:40.29	333.85	2.35	-51.4	-69.4	3.5	3.02e+01	0	42	104	1085800448	60	114154
2026-01-21 04:31:41.30	333.95	2.30	-51.4	-69.4	3.5	3.02e+01	0	41	104	1085800448	60	113405
2026-01-21 04:31:42.31	334.05	2.25	-51.5	-69.4	3.5	3.02e+01	0	42	104	1085800448	60	113024
2026-01-21 04:31:43.32	334.15	2.20	-51.4	-69.4	3.5	3.02e+01	0	42	104	1085800448	60	113359
2026-01-21 04:31:44.33	334.26	2.15	-51.4	-69.4	3.5	3.02e+01	0	41	104	1085800448	60	113836
2026-01-21 04:31:45.34	334.36	2.10	-51.6	-69.4	3.5	3.02e+01	0	42	104	1085800448	60	113855
2026-01-21 04:31:46.35	334.46	2.05	-51.6	-69.4	3.5	3.02e+01	0	42	104	1085800448	60	114166
2026-01-21 04:31:47.36	334.56	2.00	-51.8	-69.6	3.5	3.02e+01	0	41	104	1085800448	60	116338
2026-01-21 04:31:48.37	334.66	1.95	-52.2	-70.1	3.5	3.02e+01	0	41	104	1085800448	60	123473
2026-01-21 04:31:49.38	334.76	1.90	-52.0	-70.0	3.5	3.02e+01	0	41	104	1085800448	60	121560
2026-01-21 04:31:50.39	334.86	1.85	-52.5	-70.4	3.5	3.02e+01	0	42	104	1085800448	60	127560
2026-01-21 04:31:51.40	334.95	1.79	-52.6	-70.4	3.5	3.02e+01	0	42	104	1085800448	60	128139
2026-01-21 04:31:52.41	335.05	1.74	-52.6	-70.4	3.5	3.02e+01	0	42	104	1085800448	60	127824
2026-01-21 04:31:53.42	335.15	1.69	-52.4	-70.2	3.5	3.02e+01	0	42	104	1085800448	60	124934
2026-01-21 04:31:54.43	335.25	1.64	-52.2	-70.1	3.5	3.02e+01	0	42	104	1085800448	60	123087
2026-01-21 04:31:55.44	335.35	1.59	-52.5	-70.3	3.5	3.02e+01	0	42	104	1085800448	60	125748
2026-01-21 04:31:56.45	335.44	1.54	-52.7	-70.6	3.5	3.02e+01	0	42	104	1085800448	60	129894
2026-01-21 04:31:57.46	335.54	1.49	-52.5	-70.3	3.5	3.02e+01	0	42	104	1085800448	60	126044
2026-01-21 04:31:58.47	335.64	1.44	-52.4	-70.3	3.5	3.02e+01	0	42	104	1085800448	60	125853
2026-01-21 04:31:59.48	335.73	1.39	-52.5	-70.4	3.5	3.02e+01	0	42	104	1085800448	60	126987
2026-01-21 04:32:00.49	335.83	1.34	-52.5	-70.3	3.5	3.02e+01	0	42	104	1085800448	60	125882
2026-01-21 04:32:01.50	335.92	1.29	-52.3	-70.1	3.5	3.02e+01	0	42	104	1085800448	60	123374
2026-01-21 04:32:02.51	336.02	1.24	-52.2	-70.0	3.5	3.02e+01	0	42	104	1085800448	60	122190
2026-01-21 04:32:03.52	336.11	1.19	-52.7	-70.5	3.5	3.02e+01	0	42	104	1085800448	60	128857
2026-01-21 04:32:04.53	336.21	1.14	-53.0	-70.8	3.5	3.02e+01	0	42	104	1085800448	60	133104
2026-01-21 04:32:05.54	336.30	1.09	-52.6	-70.5	3.5	3.02e+01	0	42	104	1085800448	60	128551
2026-01-21 04:32:06.55	336.40	1.04	-52.8	-70.6	3.5	3.02e+01	0	42	104	1085800448	60	130460
2026-01-21 04:32:07.56	336.49	0.99	-52.7	-70.6	3.5	3.02e+01	0	41	104	1085800448	60	130116
2026-01-21 04:32:08.56	336.58	0.94	-52.7	-70.5	3.5	3.02e+01	0	42	104	1085800448	60	129057
2026-01-21 04:32:09.57	336.67	0.89	-52.5	-70.4	3.5	3.02e+01	0	42	104	1085800448	60	127374
2026-01-21 04:32:10.58	336.77	0.84	-52.6	-70.4	3.5	3.02e+01	0	41	104	1085800448	60	127693
2026-01-21 04:32:11.59	336.86	0.79	-53.1	-70.9	3.5	3.02e+01	0	41	104	1085800448	60	135656
2026-01-21 04:32:12.60	336.95	0.74	-53.1	-71.0	3.5	3.02e+01	0	41	104	1085800448	60	136004
2026-01-21 04:32:13.61	337.04	0.69	-52.8	-70.6	3.5	3.02e+01	0	41	104	1085800448	60	129977
2026-01-21 04:32:14.62	337.13	0.64	-52.8	-70.6	3.5	3.02e+01	0	42	104	1085800448	60	131034
2026-01-21 04:32:15.63	337.22	0.59	-52.6	-70.5	3.5	3.02e+01	0	42	104	1085800448	60	128957
2026-01-21 04:32:16.64	337.32	0.55	-53.3	-71.1	3.5	3.02e+01	0	41	104	1085800448	60	138414
2026-01-21 04:32:17.65	337.41	0.50	-53.0	-70.9	3.5	3.02e+01	0	42	104	1085800448	60	134267
2026-01-21 04:32:18.66	337.50	0.45	-52.9	-70.7	3.5	3.02e+01	0	42	104	1085800448	60	132422
2026-01-21 04:32:19.67	337.59	0.40	-52.9	-70.7	3.5	3.02e+01	0	42	104	1085800448	60	131665
2026-01-21 04:32:20.68	337.67	0.35	-52.9	-70.6	3.5	3.02e+01	0	42	104	1085800448	60	131018
2026-01-21 04:32:21.69	337.76	0.30	-53.0	-70.8	3.5	3.02e+01	0	42	104	1085800448	60	133634
2026-01-21 04:32:22.70	337.85	0.25	-52.7	-70.5	3.5	3.02e+01	0	42	104	1085800448	60	129311
