passes_logs/2026/01/21/R4.6S_Anadyr/R4.6S_Anadyr__20260121_022822_SUOMI_NPP_rec.log

#Pass ID: 20260121_022822_SUOMI NPP
#Satellite: SUOMI NPP
#Configuration: NPP
#almurnet v.1.7.20251203
#Start time: 2026-01-21 02:28:23

#Version: 2.2.20231116
#Station: R4.6S_Anadyr
#Location: 177.4865 lon 64.73178 lat
#TLE: 1 37849U 11061A   26020.31993517  .00000142  00000+0  88240-4 0  9990
#TLE: 2 37849  98.7818 322.3228 0002330  54.3778 305.7615 14.19527005737466

#Time	Az	El	Level	Level2	SNR	BER	BlckErr	Temp	State	Recorded	gain1	gain2
2026-01-21 02:28:23.10	213.15	0.04	-52.0	-63.7	3.5	8.46e-01	0	38	0	0	60	55313
2026-01-21 02:28:24.11	213.22	0.09	-53.1	-68.4	3.6	1.51e+00	0	39	104	0	60	95129
2026-01-21 02:28:25.12	213.29	0.15	-53.2	-68.6	3.6	1.51e+00	0	40	104	0	60	97072
2026-01-21 02:28:26.13	213.36	0.20	-53.1	-68.3	3.6	1.51e+00	0	40	104	0	60	93580
2026-01-21 02:28:27.14	213.43	0.25	-54.0	-69.2	3.6	1.51e+00	0	40	104	0	60	104603
2026-01-21 02:28:28.15	213.50	0.30	-53.8	-69.0	3.6	1.51e+00	0	40	104	0	60	102107
2026-01-21 02:28:29.16	213.57	0.35	-54.3	-69.6	3.6	1.51e+00	0	40	104	0	60	108743
2026-01-21 02:28:30.17	213.64	0.40	-54.1	-69.5	3.6	1.51e+00	0	40	104	0	60	108107
2026-01-21 02:28:31.18	213.71	0.46	-53.8	-69.0	3.6	1.51e+00	0	40	104	0	60	101504
2026-01-21 02:28:32.19	213.78	0.51	-53.7	-68.9	3.6	1.51e+00	0	40	104	0	60	100647
2026-01-21 02:28:33.20	213.85	0.56	-53.6	-68.8	3.6	1.51e+00	0	40	104	0	60	99895
2026-01-21 02:28:34.21	213.92	0.61	-54.7	-69.9	3.6	1.51e+00	0	40	104	0	60	112507
2026-01-21 02:28:35.22	213.99	0.66	-54.4	-69.7	3.6	1.51e+00	0	40	104	0	60	110054
2026-01-21 02:28:36.23	214.06	0.72	-53.3	-68.6	3.6	1.51e+00	0	40	104	0	60	96788
2026-01-21 02:28:37.24	214.14	0.77	-53.0	-68.3	3.6	1.51e+00	0	40	104	0	60	93783
2026-01-21 02:28:38.25	214.21	0.82	-53.1	-68.2	3.6	1.51e+00	0	40	104	0	60	93434
2026-01-21 02:28:39.26	214.28	0.87	-52.6	-67.9	3.6	1.51e+00	0	40	104	0	60	90022
2026-01-21 02:28:40.27	214.35	0.93	-52.7	-67.9	3.6	1.51e+00	0	40	104	0	60	89720
2026-01-21 02:28:41.28	214.43	0.98	-53.2	-68.4	3.6	1.51e+00	0	40	104	0	60	95431
2026-01-21 02:28:42.29	214.50	1.03	-53.0	-68.4	3.6	1.51e+00	0	40	104	0	60	94756
2026-01-21 02:28:43.30	214.57	1.08	-52.9	-68.2	3.6	1.51e+00	0	40	104	0	60	92698
2026-01-21 02:28:44.31	214.65	1.14	-52.6	-67.8	3.6	1.51e+00	0	40	104	0	60	88870
2026-01-21 02:28:45.32	214.72	1.19	-52.3	-67.5	3.6	1.51e+00	0	40	104	0	60	85704
2026-01-21 02:28:46.33	214.79	1.24	-51.8	-67.0	3.6	1.51e+00	0	40	104	0	60	80662
2026-01-21 02:28:47.34	214.87	1.30	-51.0	-66.1	3.6	1.51e+00	0	40	104	0	60	73211
2026-01-21 02:28:48.35	214.94	1.35	-50.5	-65.7	3.6	1.51e+00	0	40	104	0	60	69278
2026-01-21 02:28:49.36	215.02	1.40	-50.3	-65.4	3.6	1.51e+00	0	40	104	0	60	67233
2026-01-21 02:28:50.37	215.09	1.46	-50.1	-65.2	3.6	1.51e+00	0	40	104	0	60	65936
2026-01-21 02:28:51.38	215.17	1.51	-50.0	-65.2	3.6	1.51e+00	0	40	104	0	60	66052
2026-01-21 02:28:52.39	215.24	1.56	-49.9	-65.1	3.6	1.51e+00	0	40	104	0	60	64842
2026-01-21 02:28:53.40	215.32	1.61	-49.9	-65.1	3.6	1.51e+00	0	40	104	0	60	64815
2026-01-21 02:28:54.41	215.40	1.67	-49.9	-65.0	3.6	1.51e+00	0	40	104	0	60	64452
2026-01-21 02:28:55.42	215.47	1.72	-49.9	-65.0	3.6	1.51e+00	0	40	104	0	60	64573
2026-01-21 02:28:56.43	215.55	1.78	-50.5	-65.7	3.6	1.51e+00	0	40	104	0	60	69511
2026-01-21 02:28:57.44	215.63	1.83	-50.9	-66.1	3.6	1.51e+00	0	40	104	0	60	73226
2026-01-21 02:28:58.45	215.70	1.88	-50.9	-66.2	3.6	1.51e+00	0	40	104	0	60	73437
2026-01-21 02:28:59.46	215.78	1.94	-50.7	-65.8	3.6	1.51e+00	0	40	104	0	60	70818
2026-01-21 02:29:00.47	215.86	1.99	-50.6	-65.8	3.6	1.51e+00	0	40	104	0	60	70407
2026-01-21 02:29:01.48	215.94	2.04	-50.9	-66.0	3.6	1.51e+00	0	40	104	0	60	71870
2026-01-21 02:29:02.49	216.01	2.10	-50.6	-65.7	3.6	1.51e+00	0	40	104	0	60	69469
2026-01-21 02:29:03.50	216.09	2.15	-50.3	-65.4	3.6	1.51e+00	0	40	104	0	60	67659
2026-01-21 02:29:04.51	216.17	2.21	-50.1	-65.2	3.6	1.51e+00	0	40	104	0	60	65870
2026-01-21 02:29:05.52	216.25	2.26	-50.0	-64.9	3.6	1.51e+00	0	40	104	0	60	63702
2026-01-21 02:29:06.53	216.33	2.31	-50.1	-65.2	3.5	1.51e+00	0	40	104	0	60	65744
2026-01-21 02:29:07.54	216.41	2.37	-50.1	-64.9	3.6	1.51e+00	0	40	104	0	60	63788
2026-01-21 02:29:08.55	216.49	2.42	-50.2	-65.2	3.6	1.51e+00	0	40	104	0	60	66155
2026-01-21 02:29:09.56	216.57	2.48	-50.2	-65.1	3.6	1.51e+00	0	40	104	0	60	64737
2026-01-21 02:29:10.57	216.65	2.53	-50.1	-65.0	3.6	1.51e+00	0	40	104	0	60	63971
2026-01-21 02:29:11.58	216.73	2.58	-50.2	-64.3	3.5	1.51e+00	0	40	104	0	60	59550
2026-01-21 02:29:12.59	216.81	2.64	-50.4	-63.6	3.7	1.49e+00	0	40	104	0	60	54980
2026-01-21 02:29:13.60	216.89	2.69	-50.3	-64.0	3.6	1.51e+00	0	40	104	0	60	57381
2026-01-21 02:29:14.61	216.98	2.75	-50.2	-64.7	3.6	1.51e+00	0	40	104	0	60	62047
2026-01-21 02:29:15.62	217.06	2.80	-50.2	-64.1	3.6	1.51e+00	0	40	104	0	60	58044
2026-01-21 02:29:16.63	217.14	2.86	-50.0	-61.0	4.4	1.51e+00	27	41	104	0	60	40623
2026-01-21 02:29:17.64	217.22	2.91	-49.7	-57.3	6.4	4.28e-01	81	40	0	1048576	60	26494
2026-01-21 02:29:18.65	217.30	2.97	-48.5	-53.0	11.0	1.36e-02	92	41	0	3145728	60	16211
2026-01-21 02:29:19.66	217.39	3.02	-48.6	-53.2	11.6	1.12e-04	92	41	0	4194304	60	16473
2026-01-21 02:29:20.67	217.47	3.08	-47.9	-51.6	12.6	1.83e-05	0	41	0	6291456	60	13808
2026-01-21 02:29:21.68	217.55	3.13	-49.6	-57.0	4.9	5.18e-05	95	41	0	8388608	60	25719
2026-01-21 02:29:22.70	217.64	3.19	-49.8	-58.5	6.4	1.40e+00	0	41	104	8388608	60	30302
2026-01-21 02:29:23.70	217.72	3.24	-48.2	-52.9	10.1	1.99e-04	90	41	0	9437184	60	15914
2026-01-21 02:29:24.71	217.81	3.30	-50.1	-64.0	3.6	1.34e+00	0	40	104	10485760	60	57228
2026-01-21 02:29:25.72	217.89	3.35	-45.6	-47.6	17.0	1.51e+00	90	41	104	10485760	60	8673
2026-01-21 02:29:26.73	217.98	3.41	-44.7	-46.2	19.7	0.00e+00	92	40	0	10485760	60	7390
2026-01-21 02:29:27.74	218.06	3.46	-44.7	-46.3	19.0	0.00e+00	0	40	0	12582912	60	7437
2026-01-21 02:29:28.75	218.15	3.52	-44.9	-46.5	19.0	0.00e+00	90	41	0	14680064	60	7648
2026-01-21 02:29:29.76	218.24	3.57	-45.6	-47.3	18.5	0.00e+00	0	41	0	16777216	60	8400
2026-01-21 02:29:30.77	218.32	3.63	-45.2	-46.9	18.5	0.00e+00	92	41	0	18874368	60	8002
2026-01-21 02:29:31.78	218.41	3.69	-45.1	-46.8	18.4	0.00e+00	0	41	0	19922944	60	7921
2026-01-21 02:29:32.79	218.50	3.74	-44.3	-45.9	18.9	0.00e+00	92	40	0	22020096	60	7149
2026-01-21 02:29:33.80	218.58	3.80	-45.0	-46.5	19.3	0.00e+00	92	41	0	24117248	60	7634
2026-01-21 02:29:34.81	218.67	3.85	-45.1	-46.7	19.4	0.00e+00	90	40	0	26214400	60	7808
2026-01-21 02:29:35.82	218.76	3.91	-45.0	-46.6	19.0	0.00e+00	92	41	0	28311552	60	7724
2026-01-21 02:29:36.83	218.85	3.96	-45.0	-46.5	19.2	0.00e+00	0	41	0	30408704	60	7663
2026-01-21 02:29:37.84	218.94	4.02	-45.9	-47.6	17.9	0.00e+00	92	40	0	31457280	60	8704
2026-01-21 02:29:38.85	219.02	4.08	-44.4	-45.7	19.7	0.00e+00	17	40	0	33554432	60	7007
2026-01-21 02:29:39.86	219.11	4.13	-46.0	-47.7	18.3	0.00e+00	92	40	0	35651584	60	8747
2026-01-21 02:29:40.87	219.20	4.19	-45.7	-47.5	18.5	0.00e+00	92	41	0	37748736	60	8527
2026-01-21 02:29:41.88	219.29	4.24	-45.0	-46.7	18.3	0.00e+00	0	41	0	39845888	60	7787
2026-01-21 02:29:42.89	219.38	4.30	-45.2	-46.9	17.9	0.00e+00	92	41	0	40894464	60	7956
2026-01-21 02:29:43.90	219.47	4.36	-45.3	-46.9	18.8	0.00e+00	0	41	0	42991616	60	8042
2026-01-21 02:29:44.91	219.56	4.41	-45.9	-47.7	18.5	0.00e+00	92	41	0	45088768	60	8731
2026-01-21 02:29:45.92	219.66	4.47	-45.1	-46.7	18.9	0.00e+00	0	41	0	47185920	60	7850
2026-01-21 02:29:46.93	219.75	4.53	-46.0	-47.6	18.8	0.00e+00	92	41	0	49283072	60	8713
2026-01-21 02:29:47.94	219.84	4.58	-46.4	-48.1	18.7	0.00e+00	92	41	0	50331648	60	9159
2026-01-21 02:29:48.95	219.93	4.64	-46.2	-47.9	18.7	0.00e+00	92	41	0	52428800	60	9006
2026-01-21 02:29:49.96	220.02	4.70	-45.7	-47.3	18.9	0.00e+00	92	41	0	54525952	60	8378
2026-01-21 02:29:50.97	220.12	4.75	-46.1	-47.9	18.1	0.00e+00	0	40	0	56623104	60	9018
2026-01-21 02:29:51.98	220.21	4.81	-45.3	-46.9	18.9	0.00e+00	92	41	0	58720256	60	8026
2026-01-21 02:29:52.99	220.30	4.87	-45.4	-47.2	18.3	0.00e+00	0	41	0	59768832	60	8239
2026-01-21 02:29:54.00	220.40	4.92	-44.6	-46.1	19.2	0.00e+00	90	41	0	61865984	60	7303
2026-01-21 02:29:55.01	220.49	4.98	-45.1	-46.8	18.4	0.00e+00	89	40	0	63963136	60	7900
2026-01-21 02:29:56.02	220.59	5.04	-44.7	-46.3	18.8	0.00e+00	90	41	0	66060288	60	7480
2026-01-21 02:29:57.03	220.68	5.09	-44.6	-46.2	18.7	0.00e+00	92	41	0	68157440	60	7412
2026-01-21 02:29:58.04	220.78	5.15	-44.5	-46.0	19.1	0.00e+00	0	41	0	69206016	60	7213
2026-01-21 02:29:59.05	220.87	5.21	-45.1	-46.7	18.7	0.00e+00	56	41	0	71303168	60	7843
2026-01-21 02:30:00.07	220.97	5.27	-44.5	-46.1	18.9	0.00e+00	0	41	0	73400320	60	7297
2026-01-21 02:30:01.07	221.07	5.32	-44.0	-45.6	19.3	0.00e+00	92	41	0	75497472	60	6859
2026-01-21 02:30:02.09	221.16	5.38	-44.5	-46.1	19.0	0.00e+00	76	41	0	77594624	60	7298
2026-01-21 02:30:03.10	221.26	5.44	-44.0	-45.5	19.5	0.00e+00	92	41	0	78643200	60	6778
2026-01-21 02:30:04.11	221.36	5.50	-44.4	-45.9	19.2	0.00e+00	84	41	0	80740352	60	7120
2026-01-21 02:30:05.12	221.46	5.55	-44.5	-46.0	19.2	0.00e+00	0	41	0	82837504	60	7245
2026-01-21 02:30:06.12	221.55	5.61	-44.1	-45.7	19.0	0.00e+00	89	41	0	84934656	60	6938
2026-01-21 02:30:07.13	221.65	5.67	-44.1	-45.7	19.2	0.00e+00	0	41	0	87031808	60	6931
2026-01-21 02:30:08.14	221.75	5.73	-43.9	-45.4	19.2	0.00e+00	92	41	0	88080384	60	6745
2026-01-21 02:30:09.15	221.85	5.78	-44.0	-45.6	19.0	0.00e+00	85	41	0	90177536	60	6870
2026-01-21 02:30:10.16	221.95	5.84	-44.0	-45.5	19.2	0.00e+00	89	41	0	92274688	60	6802
2026-01-21 02:30:11.17	222.05	5.90	-44.1	-45.5	19.3	0.00e+00	92	41	0	94371840	60	6841
2026-01-21 02:30:12.18	222.15	5.96	-43.8	-45.3	19.5	0.00e+00	0	41	0	96468992	60	6650
2026-01-21 02:30:13.19	222.25	6.02	-44.1	-45.6	19.4	0.00e+00	90	41	0	98566144	60	6908
2026-01-21 02:30:14.20	222.36	6.07	-44.3	-45.8	19.4	0.00e+00	0	41	0	99614720	60	7052
2026-01-21 02:30:15.21	222.46	6.13	-44.1	-45.5	19.6	0.00e+00	92	41	0	101711872	60	6814
2026-01-21 02:30:16.22	222.56	6.19	-44.8	-46.4	19.0	0.00e+00	65	41	0	103809024	60	7525
2026-01-21 02:30:17.23	222.66	6.25	-45.0	-46.6	18.9	0.00e+00	90	41	0	105906176	60	7697
2026-01-21 02:30:18.24	222.76	6.31	-44.3	-45.8	19.3	0.00e+00	92	41	0	108003328	60	7026
2026-01-21 02:30:19.25	222.87	6.37	-44.9	-46.6	18.5	0.00e+00	0	41	0	109051904	60	7756
2026-01-21 02:30:20.26	222.97	6.42	-44.6	-46.2	18.9	0.00e+00	92	41	0	111149056	60	7343
2026-01-21 02:30:21.27	223.08	6.48	-44.9	-46.6	18.7	0.00e+00	0	41	0	113246208	60	7707
2026-01-21 02:30:22.28	223.18	6.54	-44.6	-46.3	18.7	0.00e+00	92	41	0	115343360	60	7432
2026-01-21 02:30:23.29	223.29	6.60	-45.0	-46.8	18.0	0.00e+00	0	41	0	117440512	60	7874
2026-01-21 02:30:24.30	223.39	6.66	-45.1	-46.8	18.5	0.00e+00	92	41	0	118489088	60	7888
2026-01-21 02:30:25.30	223.50	6.72	-45.7	-47.5	17.8	0.00e+00	88	41	0	120586240	60	8604
2026-01-21 02:30:26.32	223.60	6.78	-45.4	-47.1	18.0	0.00e+00	3	41	0	122683392	60	8229
2026-01-21 02:30:27.32	223.71	6.83	-45.4	-47.2	18.1	0.00e+00	88	41	0	124780544	60	8273
2026-01-21 02:30:28.33	223.82	6.89	-45.2	-47.0	18.2	0.00e+00	0	41	0	126877696	60	8088
2026-01-21 02:30:29.34	223.92	6.95	-45.6	-47.4	17.9	0.00e+00	90	41	0	127926272	60	8522
2026-01-21 02:30:30.35	224.03	7.01	-45.4	-47.2	18.0	0.00e+00	0	41	0	130023424	60	8317
2026-01-21 02:30:31.36	224.14	7.07	-45.5	-47.4	17.9	0.00e+00	92	41	0	132120576	60	8431
2026-01-21 02:30:32.37	224.25	7.13	-45.5	-47.3	18.3	0.00e+00	92	41	0	134217728	60	8354
2026-01-21 02:30:33.38	224.36	7.19	-45.4	-47.1	18.3	0.00e+00	92	41	0	136314880	60	8220
2026-01-21 02:30:34.39	224.47	7.25	-45.2	-46.9	18.4	0.00e+00	92	41	0	137363456	60	7997
2026-01-21 02:30:35.40	224.58	7.31	-45.4	-47.1	18.5	0.00e+00	0	41	0	139460608	60	8156
2026-01-21 02:30:36.41	224.69	7.37	-45.5	-47.2	18.5	0.00e+00	90	41	0	141557760	60	8289
2026-01-21 02:30:37.42	224.80	7.43	-45.9	-47.5	18.4	0.00e+00	0	41	0	143654912	60	8612
2026-01-21 02:30:38.43	224.91	7.48	-45.6	-47.3	18.4	0.00e+00	92	41	0	145752064	60	8343
2026-01-21 02:30:39.43	225.02	7.54	-45.4	-47.1	18.5	0.00e+00	0	41	0	146800640	60	8155
2026-01-21 02:30:40.45	225.13	7.60	-45.8	-47.7	17.9	0.00e+00	91	41	0	148897792	60	8758
2026-01-21 02:30:41.45	225.24	7.66	-46.1	-47.8	18.3	0.00e+00	90	41	0	150994944	60	8882
2026-01-21 02:30:42.46	225.36	7.72	-46.9	-48.6	18.2	0.00e+00	0	41	0	153092096	60	9770
2026-01-21 02:30:43.47	225.47	7.78	-46.7	-48.4	18.5	0.00e+00	92	41	0	155189248	60	9498
2026-01-21 02:30:44.48	225.58	7.84	-46.5	-48.2	18.3	0.00e+00	0	41	0	156237824	60	9302
2026-01-21 02:30:45.49	225.70	7.90	-46.2	-47.9	18.3	0.00e+00	92	41	0	158334976	60	8986
2026-01-21 02:30:46.50	225.81	7.96	-47.0	-48.8	18.4	0.00e+00	9	41	0	160432128	60	9936
2026-01-21 02:30:47.51	225.93	8.02	-46.4	-48.0	18.7	0.00e+00	92	41	0	162529280	60	9080
2026-01-21 02:30:48.52	226.04	8.08	-45.7	-47.3	18.5	0.00e+00	92	41	0	164626432	60	8336
2026-01-21 02:30:49.53	226.16	8.14	-46.5	-48.2	18.5	0.00e+00	0	41	0	166723584	60	9268
2026-01-21 02:30:50.54	226.28	8.20	-46.4	-47.9	18.8	0.00e+00	86	41	0	167772160	60	8998
2026-01-21 02:30:51.55	226.39	8.26	-46.2	-47.7	19.2	0.00e+00	0	41	0	169869312	60	8797
2026-01-21 02:30:52.56	226.51	8.32	-45.9	-47.4	19.0	0.00e+00	92	41	0	171966464	60	8499
2026-01-21 02:30:53.57	226.63	8.38	-45.9	-47.5	19.1	0.00e+00	0	41	0	174063616	60	8539
2026-01-21 02:30:54.58	226.75	8.44	-45.7	-47.2	19.4	0.00e+00	92	41	0	176160768	60	8283
2026-01-21 02:30:55.59	226.87	8.50	-46.2	-47.8	19.0	0.00e+00	92	41	0	177209344	60	8861
2026-01-21 02:30:56.60	226.99	8.56	-46.2	-47.8	18.8	0.00e+00	0	41	0	179306496	60	8852
2026-01-21 02:30:57.61	227.11	8.62	-45.9	-47.5	19.1	0.00e+00	81	41	0	181403648	60	8525
2026-01-21 02:30:58.62	227.23	8.68	-46.1	-47.6	19.2	0.00e+00	0	41	0	183500800	60	8687
2026-01-21 02:30:59.63	227.35	8.74	-46.3	-47.9	19.2	0.00e+00	92	41	0	185597952	60	8938
2026-01-21 02:31:00.64	227.47	8.80	-46.2	-47.7	19.0	0.00e+00	0	41	0	186646528	60	8777
2026-01-21 02:31:01.65	227.59	8.86	-46.3	-47.9	18.9	0.00e+00	90	41	0	188743680	60	8966
2026-01-21 02:31:02.66	227.71	8.92	-46.8	-48.4	19.0	0.00e+00	92	41	0	190840832	60	9467
2026-01-21 02:31:03.67	227.84	8.98	-46.4	-48.0	19.0	0.00e+00	0	41	0	192937984	60	9028
2026-01-21 02:31:04.68	227.96	9.04	-46.7	-48.4	18.7	0.00e+00	92	41	0	195035136	60	9492
2026-01-21 02:31:05.69	228.08	9.10	-46.3	-47.9	18.6	0.00e+00	0	41	0	196083712	60	8971
2026-01-21 02:31:06.70	228.21	9.16	-46.1	-47.8	18.5	0.00e+00	90	41	0	198180864	60	8890
2026-01-21 02:31:07.71	228.33	9.22	-45.8	-47.6	18.3	0.00e+00	0	41	0	200278016	60	8644
2026-01-21 02:31:08.72	228.46	9.29	-45.8	-47.6	18.0	0.00e+00	92	41	0	202375168	60	8628
2026-01-21 02:31:09.73	228.58	9.35	-47.3	-49.1	17.9	0.00e+00	92	41	0	204472320	60	10323
2026-01-21 02:31:10.74	228.71	9.41	-47.5	-49.4	16.7	0.00e+00	0	41	0	205520896	60	10656
2026-01-21 02:31:11.75	228.84	9.47	-47.3	-49.3	17.5	0.00e+00	92	41	0	207618048	60	10539
2026-01-21 02:31:12.76	228.96	9.53	-47.6	-49.5	17.8	0.00e+00	0	41	0	209715200	60	10791
2026-01-21 02:31:13.77	229.09	9.59	-46.7	-48.4	18.4	0.00e+00	92	41	0	211812352	60	9455
2026-01-21 02:31:14.78	229.22	9.65	-46.8	-48.5	18.6	0.00e+00	0	41	0	213909504	60	9597
2026-01-21 02:31:15.79	229.35	9.71	-46.6	-48.1	18.8	0.00e+00	92	41	0	214958080	60	9222
2026-01-21 02:31:16.80	229.48	9.77	-46.7	-48.4	18.1	0.00e+00	1	41	0	217055232	60	9492
2026-01-21 02:31:17.81	229.61	9.83	-47.0	-48.7	18.4	0.00e+00	72	41	0	219152384	60	9857
2026-01-21 02:31:18.82	229.74	9.89	-47.0	-48.7	18.2	0.00e+00	92	41	0	221249536	60	9837
2026-01-21 02:31:19.83	229.87	9.95	-47.0	-48.7	18.2	0.00e+00	0	41	0	223346688	60	9857
2026-01-21 02:31:20.84	230.00	10.01	-46.7	-48.3	18.6	0.00e+00	56	41	0	224395264	60	9405
2026-01-21 02:31:21.85	230.13	10.07	-46.8	-48.7	18.1	0.00e+00	0	41	0	226492416	60	9840
2026-01-21 02:31:22.86	230.26	10.14	-46.7	-48.4	17.8	0.00e+00	92	41	0	228589568	60	9491
2026-01-21 02:31:23.87	230.40	10.20	-46.8	-48.5	18.8	0.00e+00	73	41	0	230686720	60	9595
2026-01-21 02:31:24.88	230.53	10.26	-46.6	-48.2	19.1	0.00e+00	92	41	0	232783872	60	9316
2026-01-21 02:31:25.89	230.66	10.32	-46.5	-48.1	19.1	0.00e+00	90	41	0	234881024	60	9196
2026-01-21 02:31:26.90	230.80	10.38	-46.5	-48.2	18.8	0.00e+00	1	41	0	235929600	60	9279
2026-01-21 02:31:27.91	230.93	10.44	-46.7	-48.3	19.0	0.00e+00	70	41	0	238026752	60	9398
2026-01-21 02:31:28.92	231.07	10.50	-46.2	-47.8	18.7	0.00e+00	0	41	0	240123904	60	8922
2026-01-21 02:31:29.93	231.21	10.56	-46.4	-48.1	18.5	0.00e+00	92	41	0	242221056	60	9183
2026-01-21 02:31:30.94	231.34	10.62	-46.0	-47.6	18.6	0.00e+00	41	41	0	244318208	60	8701
2026-01-21 02:31:31.95	231.48	10.68	-45.7	-47.3	18.9	0.00e+00	92	41	0	245366784	60	8349
2026-01-21 02:31:32.96	231.62	10.75	-46.3	-48.1	18.1	0.00e+00	92	41	0	247463936	60	9164
2026-01-21 02:31:33.97	231.76	10.81	-45.2	-46.8	18.9	0.00e+00	0	41	0	249561088	60	7894
2026-01-21 02:31:34.98	231.90	10.87	-45.3	-46.7	19.6	0.00e+00	69	41	0	251658240	60	7859
2026-01-21 02:31:35.99	232.04	10.93	-45.7	-47.2	19.6	0.00e+00	0	41	0	253755392	60	8246
2026-01-21 02:31:37.00	232.18	10.99	-45.7	-47.1	19.3	0.00e+00	90	41	0	254803968	60	8227
2026-01-21 02:31:38.01	232.32	11.05	-45.5	-47.0	19.3	0.00e+00	0	41	0	256901120	60	8137
2026-01-21 02:31:39.01	232.46	11.11	-45.9	-47.4	19.4	0.00e+00	92	41	0	258998272	60	8425
2026-01-21 02:31:40.02	232.60	11.17	-45.5	-47.0	19.5	0.00e+00	83	41	0	261095424	60	8101
2026-01-21 02:31:41.03	232.74	11.23	-46.1	-47.7	18.8	0.00e+00	0	41	0	263192576	60	8772
2026-01-21 02:31:42.04	232.88	11.29	-45.5	-47.0	18.9	0.00e+00	75	41	0	264241152	60	8132
2026-01-21 02:31:43.05	233.03	11.35	-45.3	-46.8	19.3	0.00e+00	0	41	0	266338304	60	7938
2026-01-21 02:31:44.06	233.17	11.42	-47.0	-48.8	18.4	0.00e+00	90	41	0	268435456	60	9952
2026-01-21 02:31:45.07	233.32	11.48	-46.1	-47.7	19.1	0.00e+00	0	41	0	270532608	60	8748
2026-01-21 02:31:46.08	233.46	11.54	-46.5	-48.0	19.1	0.00e+00	92	41	0	272629760	60	9072
2026-01-21 02:31:47.09	233.61	11.60	-46.9	-48.6	18.3	0.00e+00	59	41	0	273678336	60	9715
2026-01-21 02:31:48.09	233.75	11.66	-45.9	-47.4	19.2	0.00e+00	58	41	0	275775488	60	8519
2026-01-21 02:31:49.10	233.90	11.72	-45.2	-46.7	19.3	0.00e+00	90	41	0	277872640	60	7849
2026-01-21 02:31:50.11	234.05	11.78	-45.5	-47.0	19.6	0.00e+00	32	41	0	279969792	60	8048
2026-01-21 02:31:51.12	234.20	11.84	-45.9	-47.3	19.4	0.00e+00	92	41	0	282066944	60	8402
2026-01-21 02:31:52.13	234.34	11.90	-45.9	-47.3	19.8	0.00e+00	0	41	0	283115520	60	8355
2026-01-21 02:31:53.14	234.49	11.96	-45.6	-47.0	20.0	0.00e+00	91	41	0	285212672	60	8072
2026-01-21 02:31:54.15	234.64	12.02	-45.8	-47.2	19.9	0.00e+00	0	41	0	287309824	60	8275
2026-01-21 02:31:55.16	234.79	12.09	-45.9	-47.4	19.8	0.00e+00	92	41	0	289406976	60	8449
2026-01-21 02:31:56.17	234.95	12.15	-45.5	-46.9	20.1	0.00e+00	92	41	0	291504128	60	7968
2026-01-21 02:31:57.18	235.10	12.21	-45.5	-46.9	19.9	0.00e+00	31	41	0	292552704	60	8026
2026-01-21 02:31:58.19	235.25	12.27	-45.0	-46.4	20.0	0.00e+00	88	41	0	294649856	60	7559
2026-01-21 02:31:59.20	235.40	12.33	-45.0	-46.3	20.2	0.00e+00	0	41	0	296747008	60	7468
2026-01-21 02:32:00.21	235.56	12.39	-44.8	-46.2	20.1	0.00e+00	89	41	0	298844160	60	7360
2026-01-21 02:32:01.22	235.71	12.45	-44.5	-45.8	20.4	0.00e+00	92	41	0	300941312	60	7012
2026-01-21 02:32:02.23	235.87	12.51	-45.3	-46.5	20.5	0.00e+00	67	41	0	303038464	60	7661
2026-01-21 02:32:03.24	236.02	12.57	-44.4	-45.6	20.9	0.00e+00	91	41	0	304087040	60	6925
2026-01-21 02:32:04.25	236.18	12.63	-44.5	-45.8	21.0	0.00e+00	0	41	0	306184192	60	7010
2026-01-21 02:32:05.26	236.33	12.69	-44.7	-45.8	21.0	0.00e+00	91	41	0	308281344	60	7084
2026-01-21 02:32:06.27	236.49	12.75	-44.7	-45.8	21.2	0.00e+00	0	41	0	310378496	60	7074
2026-01-21 02:32:07.27	236.65	12.81	-45.1	-46.3	20.4	0.00e+00	90	41	0	312475648	60	7455
2026-01-21 02:32:08.28	236.81	12.87	-44.7	-45.8	21.4	0.00e+00	0	41	0	313524224	60	7046
2026-01-21 02:32:09.29	236.97	12.93	-44.3	-45.4	21.5	0.00e+00	92	41	0	315621376	60	6711
2026-01-21 02:32:10.30	237.13	12.99	-44.8	-46.0	21.5	0.00e+00	92	41	0	317718528	60	7171
2026-01-21 02:32:11.31	237.29	13.05	-44.5	-45.7	21.3	0.00e+00	0	41	0	319815680	60	6930
2026-01-21 02:32:12.32	237.45	13.11	-43.9	-45.0	21.4	0.00e+00	91	41	0	321912832	60	6433
2026-01-21 02:32:13.33	237.61	13.17	-43.6	-44.7	21.5	0.00e+00	0	41	0	322961408	60	6242
2026-01-21 02:32:14.34	237.77	13.23	-43.7	-44.9	21.3	0.00e+00	91	41	0	325058560	60	6339
2026-01-21 02:32:15.34	237.93	13.29	-43.4	-44.5	21.6	0.00e+00	0	41	0	327155712	60	6057
2026-01-21 02:32:16.35	238.10	13.35	-43.1	-44.2	21.5	0.00e+00	92	41	0	329252864	60	5848
2026-01-21 02:32:17.36	238.26	13.41	-42.7	-43.8	21.6	0.00e+00	90	41	0	331350016	58	6282
2026-01-21 02:32:18.38	238.43	13.47	-42.6	-43.8	21.5	0.00e+00	24	41	0	332398592	58	6253
2026-01-21 02:32:19.39	238.59	13.53	-42.1	-43.2	21.7	0.00e+00	92	41	0	334495744	58	5882
2026-01-21 02:32:20.40	238.76	13.59	-42.0	-43.1	21.8	0.00e+00	0	41	0	336592896	58	5779
2026-01-21 02:32:21.41	238.93	13.65	-42.0	-43.1	21.7	0.00e+00	90	41	0	338690048	58	5792
2026-01-21 02:32:22.42	239.09	13.71	-42.0	-43.1	21.8	0.00e+00	0	41	0	340787200	58	5767
2026-01-21 02:32:23.43	239.26	13.77	-42.2	-43.3	21.8	0.00e+00	92	41	0	341835776	58	5933
2026-01-21 02:32:24.44	239.43	13.83	-42.3	-43.4	21.8	0.00e+00	0	41	0	343932928	58	5966
2026-01-21 02:32:25.45	239.60	13.89	-42.3	-43.4	21.7	0.00e+00	54	41	0	346030080	58	5994
2026-01-21 02:32:26.46	239.77	13.95	-42.5	-43.7	21.5	0.00e+00	92	41	0	348127232	58	6210
2026-01-21 02:32:27.47	239.94	14.01	-42.6	-43.7	21.6	0.00e+00	0	41	0	350224384	58	6224
2026-01-21 02:32:28.48	240.11	14.07	-42.5	-43.6	21.5	0.00e+00	92	41	0	351272960	58	6133
2026-01-21 02:32:29.49	240.28	14.12	-43.3	-44.4	21.5	0.00e+00	0	41	0	353370112	58	6724
2026-01-21 02:32:30.50	240.46	14.18	-43.6	-44.7	21.9	0.00e+00	92	41	0	355467264	60	6208
2026-01-21 02:32:31.51	240.63	14.24	-43.4	-44.5	22.1	0.00e+00	17	41	0	357564416	60	6066
2026-01-21 02:32:32.51	240.80	14.30	-42.4	-43.4	22.5	0.00e+00	92	41	0	359661568	58	6021
2026-01-21 02:32:33.52	240.98	14.36	-42.5	-43.5	22.2	0.00e+00	92	41	0	360710144	58	6070
2026-01-21 02:32:34.53	241.15	14.42	-41.9	-42.9	22.7	0.00e+00	0	41	0	362807296	58	5662
2026-01-21 02:32:35.54	241.33	14.48	-42.0	-43.0	22.5	0.00e+00	87	41	0	364904448	58	5707
2026-01-21 02:32:36.55	241.51	14.53	-41.9	-42.9	22.5	0.00e+00	0	41	0	367001600	58	5688
2026-01-21 02:32:37.56	241.68	14.59	-42.4	-43.4	22.2	0.00e+00	86	41	0	369098752	58	5999
2026-01-21 02:32:38.57	241.86	14.65	-42.2	-43.2	22.3	0.00e+00	0	41	0	371195904	58	5864
2026-01-21 02:32:39.58	242.04	14.71	-41.9	-43.0	22.5	0.00e+00	90	41	0	372244480	58	5697
2026-01-21 02:32:40.59	242.22	14.77	-41.9	-42.9	22.4	0.00e+00	91	41	0	374341632	58	5642
2026-01-21 02:32:41.60	242.40	14.82	-41.6	-42.6	22.5	0.00e+00	0	41	0	376438784	56	6153
2026-01-21 02:32:42.61	242.58	14.88	-41.5	-42.4	22.9	0.00e+00	73	41	0	378535936	56	6013
2026-01-21 02:32:43.61	242.76	14.94	-41.5	-42.5	22.8	0.00e+00	0	41	0	379584512	56	6071
2026-01-21 02:32:44.62	242.94	14.99	-41.5	-42.4	23.0	0.00e+00	92	41	0	381681664	56	6004
2026-01-21 02:32:45.63	243.13	15.05	-41.5	-42.5	22.9	0.00e+00	0	41	0	383778816	56	6065
2026-01-21 02:32:46.64	243.31	15.11	-41.3	-42.2	22.9	0.00e+00	92	41	0	385875968	56	5893
2026-01-21 02:32:47.65	243.49	15.16	-40.9	-41.9	23.0	0.00e+00	92	41	0	387973120	56	5639
2026-01-21 02:32:48.66	243.68	15.22	-41.1	-42.0	23.1	0.00e+00	89	41	0	389021696	56	5747
2026-01-21 02:32:49.67	243.86	15.28	-41.9	-42.8	23.0	0.00e+00	92	41	0	391118848	56	6294
2026-01-21 02:32:50.68	244.05	15.33	-41.8	-42.8	23.2	0.00e+00	0	41	0	393216000	56	6263
2026-01-21 02:32:51.69	244.24	15.39	-41.7	-42.6	23.1	0.00e+00	92	41	0	395313152	56	6172
2026-01-21 02:32:52.70	244.42	15.45	-42.0	-42.9	22.9	0.00e+00	0	41	0	397410304	56	6364
2026-01-21 02:32:53.71	244.61	15.50	-41.8	-42.7	22.7	0.00e+00	92	41	0	399507456	56	6228
2026-01-21 02:32:54.72	244.80	15.56	-42.2	-43.2	22.6	0.00e+00	88	41	0	400556032	56	6592
2026-01-21 02:32:55.73	244.99	15.61	-41.7	-42.7	23.0	0.00e+00	71	41	0	402653184	56	6195
2026-01-21 02:32:56.74	245.18	15.67	-42.0	-43.0	22.7	0.00e+00	92	41	0	404750336	56	6392
2026-01-21 02:32:57.75	245.37	15.72	-41.9	-42.9	22.9	0.00e+00	0	41	0	406847488	56	6360
2026-01-21 02:32:58.76	245.56	15.78	-41.8	-42.8	22.9	0.00e+00	90	41	0	408944640	56	6265
2026-01-21 02:32:59.77	245.76	15.83	-42.0	-42.9	22.9	0.00e+00	0	41	0	409993216	56	6349
2026-01-21 02:33:00.78	245.95	15.89	-42.2	-43.2	22.7	0.00e+00	92	41	0	412090368	56	6559
2026-01-21 02:33:01.78	246.14	15.94	-41.5	-42.5	22.8	0.00e+00	56	41	0	414187520	56	6067
2026-01-21 02:33:02.80	246.34	16.00	-41.2	-42.1	23.1	0.00e+00	92	41	0	416284672	56	5798
2026-01-21 02:33:03.80	246.53	16.05	-41.3	-42.3	22.8	0.00e+00	92	41	0	418381824	56	5915
2026-01-21 02:33:04.81	246.73	16.10	-41.6	-42.5	22.9	0.00e+00	0	41	0	419430400	56	6077
2026-01-21 02:33:05.82	246.92	16.16	-41.8	-42.8	22.5	0.00e+00	85	41	0	421527552	56	6299
2026-01-21 02:33:06.83	247.12	16.21	-42.2	-43.2	22.6	0.00e+00	0	41	0	423624704	56	6567
2026-01-21 02:33:07.84	247.32	16.26	-42.6	-43.6	22.5	0.00e+00	90	41	0	425721856	56	6882
2026-01-21 02:33:08.85	247.52	16.32	-42.5	-43.5	22.4	0.00e+00	92	41	0	427819008	56	6798
2026-01-21 02:33:09.86	247.72	16.37	-43.3	-44.4	22.1	0.00e+00	92	41	0	428867584	58	6712
2026-01-21 02:33:10.87	247.92	16.42	-43.0	-44.1	22.2	0.00e+00	92	41	0	430964736	58	6482
2026-01-21 02:33:11.88	248.12	16.48	-43.0	-44.0	22.2	0.00e+00	0	41	0	433061888	58	6445
2026-01-21 02:33:12.89	248.32	16.53	-42.5	-43.5	22.3	0.00e+00	69	41	0	435159040	58	6088
2026-01-21 02:33:13.89	248.52	16.58	-42.5	-43.5	22.6	0.00e+00	0	41	0	437256192	58	6060
2026-01-21 02:33:14.90	248.72	16.63	-42.7	-43.7	22.5	0.00e+00	92	41	0	438304768	58	6203
2026-01-21 02:33:15.91	248.92	16.68	-43.0	-44.1	22.4	0.00e+00	2	41	0	440401920	58	6465
2026-01-21 02:33:16.92	249.13	16.73	-43.2	-44.3	22.1	0.00e+00	90	41	0	442499072	58	6623
2026-01-21 02:33:17.93	249.33	16.78	-43.1	-44.2	22.2	0.00e+00	92	41	0	444596224	58	6559
2026-01-21 02:33:18.94	249.54	16.84	-43.0	-44.1	21.8	0.00e+00	0	41	0	446693376	58	6483
2026-01-21 02:33:19.95	249.74	16.89	-42.8	-43.9	22.0	0.00e+00	61	41	0	447741952	58	6325
2026-01-21 02:33:20.96	249.95	16.94	-43.0	-44.0	22.0	0.00e+00	0	41	0	449839104	58	6444
2026-01-21 02:33:21.97	250.16	16.99	-43.3	-44.3	22.0	0.00e+00	91	41	0	451936256	58	6686
2026-01-21 02:33:22.98	250.37	17.04	-43.5	-44.6	22.0	0.00e+00	0	41	0	454033408	58	6863
2026-01-21 02:33:23.99	250.57	17.09	-44.9	-46.1	20.8	0.00e+00	92	41	0	456130560	60	7291
2026-01-21 02:33:25.00	250.78	17.13	-43.7	-44.8	21.9	0.00e+00	91	41	0	457179136	60	6291
2026-01-21 02:33:26.01	250.99	17.18	-43.9	-45.0	21.9	0.00e+00	0	41	0	459276288	60	6407
2026-01-21 02:33:27.01	251.20	17.23	-44.1	-45.1	21.9	0.00e+00	74	41	0	461373440	60	6507
2026-01-21 02:33:28.02	251.41	17.28	-43.9	-44.9	21.8	0.00e+00	0	41	0	463470592	60	6385
2026-01-21 02:33:29.03	251.62	17.33	-43.5	-44.6	21.8	0.00e+00	62	41	0	465567744	60	6136
2026-01-21 02:33:30.04	251.84	17.38	-44.0	-45.1	21.8	0.00e+00	0	41	0	467664896	60	6506
2026-01-21 02:33:31.05	252.05	17.42	-43.8	-44.9	21.8	0.00e+00	92	41	0	468713472	60	6361
2026-01-21 02:33:32.06	252.26	17.47	-43.9	-45.0	21.3	0.00e+00	64	41	0	470810624	60	6425
2026-01-21 02:33:33.07	252.48	17.52	-43.6	-44.7	21.4	0.00e+00	0	41	0	472907776	60	6209
2026-01-21 02:33:34.08	252.69	17.57	-43.6	-44.8	21.4	0.00e+00	78	41	0	475004928	60	6263
2026-01-21 02:33:35.09	252.91	17.61	-43.7	-44.8	21.3	0.00e+00	0	41	0	477102080	60	6298
2026-01-21 02:33:36.10	253.13	17.66	-43.3	-44.4	21.3	0.00e+00	92	41	0	478150656	60	6025
2026-01-21 02:33:37.11	253.34	17.70	-44.2	-45.3	21.1	0.00e+00	0	41	0	480247808	60	6688
2026-01-21 02:33:38.12	253.56	17.75	-45.0	-46.2	21.2	0.00e+00	92	41	0	482344960	60	7380
2026-01-21 02:33:39.12	253.78	17.79	-44.5	-45.6	21.3	0.00e+00	1	41	0	484442112	60	6924
2026-01-21 02:33:40.14	254.00	17.84	-44.9	-46.1	21.0	0.00e+00	0	41	0	486539264	60	7285
2026-01-21 02:33:41.15	254.22	17.88	-44.8	-46.0	20.8	0.00e+00	90	41	0	487587840	60	7211
2026-01-21 02:33:42.16	254.44	17.93	-44.7	-46.0	20.9	0.00e+00	0	41	0	489684992	60	7192
2026-01-21 02:33:43.17	254.66	17.97	-44.6	-45.8	20.8	0.00e+00	92	41	0	491782144	60	7062
2026-01-21 02:33:44.17	254.88	18.02	-43.9	-45.0	21.3	0.00e+00	32	41	0	493879296	60	6441
2026-01-21 02:33:45.18	255.10	18.06	-43.9	-45.0	21.5	0.00e+00	92	41	0	495976448	60	6430
2026-01-21 02:33:46.19	255.32	18.10	-43.8	-44.9	21.8	0.00e+00	2	41	0	497025024	60	6329
2026-01-21 02:33:47.20	255.55	18.14	-43.9	-45.0	22.0	0.00e+00	92	41	0	499122176	60	6402
2026-01-21 02:33:48.21	255.77	18.19	-43.6	-44.7	22.0	0.00e+00	92	41	0	501219328	60	6199
2026-01-21 02:33:49.22	255.99	18.23	-43.8	-45.0	21.7	0.00e+00	0	41	0	503316480	60	6396
2026-01-21 02:33:50.23	256.22	18.27	-44.1	-45.2	21.7	0.00e+00	80	41	0	505413632	60	6545
2026-01-21 02:33:51.24	256.45	18.31	-43.8	-44.8	21.8	0.00e+00	0	41	0	506462208	60	6300
2026-01-21 02:33:52.25	256.67	18.35	-43.4	-44.5	21.9	0.00e+00	92	41	0	508559360	60	6047
2026-01-21 02:33:53.26	256.90	18.39	-43.1	-44.1	22.1	0.00e+00	0	42	0	510656512	60	5821
2026-01-21 02:33:54.27	257.13	18.43	-42.9	-43.9	22.1	0.00e+00	92	42	0	512753664	60	5678
2026-01-21 02:33:55.27	257.35	18.47	-42.3	-43.3	22.4	0.00e+00	92	41	0	514850816	58	5900
2026-01-21 02:33:56.28	257.58	18.51	-42.5	-43.5	22.3	0.00e+00	0	42	0	515899392	58	6060
2026-01-21 02:33:57.29	257.81	18.55	-42.8	-43.8	22.0	0.00e+00	86	42	0	517996544	58	6280
2026-01-21 02:33:58.30	258.04	18.59	-42.8	-43.8	21.5	0.00e+00	0	41	0	520093696	58	6308
2026-01-21 02:33:59.31	258.27	18.63	-42.7	-43.8	22.0	0.00e+00	92	42	0	522190848	58	6264
2026-01-21 02:34:00.32	258.50	18.66	-42.6	-43.6	21.9	0.00e+00	0	41	0	524288000	58	6163
2026-01-21 02:34:01.33	258.73	18.70	-42.9	-44.0	22.3	0.00e+00	92	41	0	525336576	58	6439
2026-01-21 02:34:02.34	258.96	18.74	-43.0	-43.9	22.2	0.00e+00	67	42	0	527433728	58	6361
2026-01-21 02:34:03.35	259.20	18.77	-43.0	-44.0	23.0	0.00e+00	0	41	0	529530880	58	6425
2026-01-21 02:34:04.36	259.43	18.81	-43.2	-44.1	22.3	0.00e+00	92	41	0	531628032	58	6517
2026-01-21 02:34:05.37	259.66	18.85	-43.2	-44.1	22.8	0.00e+00	0	41	0	533725184	60	5803
2026-01-21 02:34:06.38	259.90	18.88	-43.0	-44.0	22.6	0.00e+00	78	41	0	535822336	60	5717
2026-01-21 02:34:07.39	260.13	18.92	-43.4	-44.3	22.6	0.00e+00	0	42	0	536870912	60	5954
2026-01-21 02:34:08.39	260.36	18.95	-43.0	-43.9	22.6	0.00e+00	92	41	0	538968064	60	5687
2026-01-21 02:34:09.41	260.60	18.99	-42.8	-43.7	22.9	0.00e+00	91	42	0	541065216	60	5553
2026-01-21 02:34:10.41	260.84	19.02	-42.3	-43.2	22.7	0.00e+00	0	42	0	543162368	58	5869
2026-01-21 02:34:11.42	261.07	19.05	-42.6	-43.5	23.3	0.00e+00	92	41	0	545259520	58	6101
2026-01-21 02:34:12.43	261.31	19.08	-42.2	-43.2	23.3	0.00e+00	0	41	0	546308096	58	5829
2026-01-21 02:34:13.44	261.55	19.12	-42.4	-43.3	23.2	0.00e+00	79	42	0	548405248	58	5940
2026-01-21 02:34:14.45	261.79	19.15	-42.6	-43.6	23.1	0.00e+00	33	42	0	550502400	58	6121
2026-01-21 02:34:15.46	262.02	19.18	-42.4	-43.4	23.2	0.00e+00	92	42	0	552599552	58	5974
2026-01-21 02:34:16.48	262.27	19.21	-41.8	-42.7	23.4	0.00e+00	0	42	0	554696704	58	5507
2026-01-21 02:34:17.48	262.50	19.24	-41.5	-42.4	23.5	0.00e+00	75	42	0	555745280	56	5982
2026-01-21 02:34:18.49	262.74	19.27	-41.8	-42.6	23.6	0.00e+00	92	42	0	557842432	56	6157
2026-01-21 02:34:19.50	262.98	19.30	-41.4	-42.2	23.8	0.00e+00	0	41	0	559939584	56	5862
2026-01-21 02:34:20.51	263.22	19.33	-41.6	-42.5	23.5	0.00e+00	92	42	0	562036736	56	6076
2026-01-21 02:34:21.52	263.47	19.36	-41.5	-42.3	23.3	0.00e+00	0	42	0	564133888	56	5952
2026-01-21 02:34:22.53	263.71	19.39	-41.7	-42.6	23.1	0.00e+00	92	42	0	565182464	56	6128
2026-01-21 02:34:23.54	263.95	19.42	-41.6	-42.6	23.1	0.00e+00	0	41	0	567279616	56	6119
2026-01-21 02:34:24.55	264.19	19.44	-41.7	-42.6	23.1	0.00e+00	74	41	0	569376768	56	6139
2026-01-21 02:34:25.56	264.44	19.47	-41.4	-42.3	23.0	0.00e+00	90	42	0	571473920	56	5941
2026-01-21 02:34:26.57	264.68	19.50	-41.1	-42.0	23.3	0.00e+00	0	42	0	573571072	56	5715
2026-01-21 02:34:27.58	264.92	19.52	-43.1	-43.9	23.2	0.00e+00	66	42	0	574619648	60	5693
2026-01-21 02:34:28.59	265.17	19.55	-43.2	-44.2	22.8	0.00e+00	0	42	0	576716800	60	5831
2026-01-21 02:34:29.60	265.41	19.57	-44.0	-45.0	22.0	0.00e+00	90	42	0	578813952	60	6450
2026-01-21 02:34:30.61	265.66	19.60	-43.1	-44.0	23.0	0.00e+00	0	42	0	580911104	60	5743
2026-01-21 02:34:31.62	265.90	19.62	-43.3	-44.3	22.8	0.00e+00	92	42	0	583008256	60	5897
2026-01-21 02:34:32.63	266.15	19.64	-42.8	-43.8	22.4	0.00e+00	92	42	0	584056832	58	6284
2026-01-21 02:34:33.64	266.39	19.67	-42.5	-43.4	23.0	0.00e+00	0	42	0	586153984	58	5987
2026-01-21 02:34:34.65	266.64	19.69	-42.4	-43.3	22.8	0.00e+00	85	42	0	588251136	58	5937
2026-01-21 02:34:35.66	266.89	19.71	-42.7	-43.6	22.8	0.00e+00	0	42	0	590348288	58	6173
2026-01-21 02:34:36.67	267.13	19.73	-42.7	-43.6	22.8	0.00e+00	92	42	0	592445440	58	6154
2026-01-21 02:34:37.68	267.38	19.75	-42.3	-43.3	23.0	0.00e+00	0	42	0	593494016	58	5898
2026-01-21 02:34:38.68	267.63	19.77	-42.2	-43.2	22.8	0.00e+00	92	42	0	595591168	58	5856
2026-01-21 02:34:39.69	267.88	19.79	-41.9	-42.9	22.8	0.00e+00	89	42	0	597688320	58	5632
2026-01-21 02:34:40.70	268.12	19.81	-41.4	-42.3	23.3	0.00e+00	0	42	0	599785472	56	5927
2026-01-21 02:34:41.71	268.37	19.83	-41.1	-42.0	23.4	0.00e+00	77	42	0	601882624	56	5697
2026-01-21 02:34:42.72	268.62	19.85	-41.1	-42.1	23.1	0.00e+00	0	42	0	602931200	56	5767
2026-01-21 02:34:43.73	268.87	19.87	-41.6	-42.6	22.6	0.00e+00	92	42	0	605028352	56	6133
2026-01-21 02:34:44.74	269.12	19.89	-42.4	-43.4	22.3	0.00e+00	0	42	0	607125504	56	6757
2026-01-21 02:34:45.75	269.37	19.90	-42.5	-43.5	22.4	0.00e+00	92	42	0	609222656	58	6091
2026-01-21 02:34:46.76	269.62	19.92	-42.3	-43.3	22.6	0.00e+00	0	41	0	611319808	58	5938
2026-01-21 02:34:47.77	269.87	19.93	-42.3	-43.2	22.5	0.00e+00	0	42	0	613416960	58	5885
2026-01-21 02:34:48.78	270.12	19.95	-42.2	-43.2	22.5	0.00e+00	92	42	0	614465536	58	5838
2026-01-21 02:34:49.79	270.37	19.96	-41.9	-42.9	22.5	0.00e+00	0	42	0	616562688	58	5650
2026-01-21 02:34:50.80	270.62	19.98	-42.3	-43.3	22.1	0.00e+00	91	42	0	618659840	58	5947
2026-01-21 02:34:51.81	270.87	19.99	-42.6	-43.7	22.0	0.00e+00	0	42	0	620756992	58	6187
2026-01-21 02:34:52.82	271.13	20.01	-42.2	-43.3	22.3	0.00e+00	90	42	0	622854144	58	5909
2026-01-21 02:34:53.83	271.38	20.02	-41.8	-42.8	22.5	0.00e+00	91	42	0	623902720	58	5610
2026-01-21 02:34:54.83	271.63	20.03	-41.7	-42.7	22.8	0.00e+00	14	42	0	625999872	56	6191
2026-01-21 02:34:55.84	271.88	20.04	-41.4	-42.3	22.9	0.00e+00	92	42	0	628097024	56	5920
2026-01-21 02:34:56.85	272.13	20.05	-41.4	-42.3	22.9	0.00e+00	0	42	0	630194176	56	5950
2026-01-21 02:34:57.86	272.38	20.06	-41.3	-42.2	23.0	0.00e+00	91	42	0	632291328	56	5860
2026-01-21 02:34:58.87	272.64	20.07	-41.6	-42.6	22.9	0.00e+00	0	42	0	633339904	56	6132
2026-01-21 02:34:59.88	272.89	20.08	-41.8	-42.8	22.8	0.00e+00	91	42	0	635437056	56	6262
2026-01-21 02:35:00.89	273.14	20.09	-41.9	-42.8	22.9	0.00e+00	0	42	0	637534208	56	6282
2026-01-21 02:35:01.90	273.39	20.10	-41.5	-42.4	23.1	0.00e+00	92	42	0	639631360	56	5988
2026-01-21 02:35:02.91	273.65	20.11	-41.4	-42.3	22.9	0.00e+00	92	42	0	641728512	56	5914
2026-01-21 02:35:03.91	273.90	20.11	-41.6	-42.6	22.8	0.00e+00	0	42	0	642777088	56	6136
2026-01-21 02:35:04.92	274.15	20.12	-41.6	-42.6	22.7	0.00e+00	92	42	0	644874240	56	6124
2026-01-21 02:35:05.93	274.41	20.13	-42.0	-43.0	22.4	0.00e+00	0	42	0	646971392	56	6404
2026-01-21 02:35:06.94	274.66	20.13	-42.6	-43.6	22.0	0.00e+00	92	42	0	649068544	56	6907
2026-01-21 02:35:07.96	274.91	20.14	-42.5	-43.6	22.0	0.00e+00	0	42	0	651165696	56	6862
2026-01-21 02:35:08.96	275.17	20.14	-42.7	-43.8	21.7	0.00e+00	91	42	0	652214272	58	6273
2026-01-21 02:35:09.97	275.42	20.14	-42.4	-43.5	21.8	0.00e+00	91	42	0	654311424	58	6049
2026-01-21 02:35:10.98	275.67	20.15	-42.5	-43.6	21.9	0.00e+00	0	42	0	656408576	58	6128
2026-01-21 02:35:11.99	275.93	20.15	-42.3	-43.4	21.8	0.00e+00	46	42	0	658505728	58	5998
2026-01-21 02:35:13.00	276.18	20.15	-42.6	-43.7	21.5	0.00e+00	0	42	0	660602880	58	6213
2026-01-21 02:35:14.01	276.43	20.15	-42.7	-43.8	21.7	0.00e+00	92	42	0	661651456	58	6298
2026-01-21 02:35:15.02	276.69	20.15	-42.8	-43.9	21.8	0.00e+00	0	42	0	663748608	58	6322
2026-01-21 02:35:16.03	276.94	20.16	-43.3	-44.4	21.6	0.00e+00	89	42	0	665845760	58	6737
2026-01-21 02:35:17.04	277.20	20.16	-44.0	-45.1	21.4	0.00e+00	11	42	0	667942912	60	6516
2026-01-21 02:35:18.05	277.45	20.15	-43.5	-44.6	21.8	0.00e+00	0	42	0	670040064	60	6135
2026-01-21 02:35:19.06	277.70	20.15	-43.5	-44.6	21.7	0.00e+00	90	42	0	671088640	60	6167
2026-01-21 02:35:20.07	277.96	20.15	-43.8	-44.9	21.7	0.00e+00	0	42	0	673185792	60	6356
2026-01-21 02:35:21.08	278.21	20.15	-44.0	-45.1	21.2	0.00e+00	92	42	0	675282944	60	6505
2026-01-21 02:35:22.09	278.47	20.15	-44.6	-45.9	20.8	0.00e+00	0	42	0	677380096	60	7116
2026-01-21 02:35:23.10	278.72	20.14	-44.0	-45.2	21.3	0.00e+00	70	42	0	679477248	60	6583
2026-01-21 02:35:24.10	278.97	20.14	-43.9	-45.1	21.1	0.00e+00	12	42	0	680525824	60	6517
2026-01-21 02:35:25.11	279.22	20.13	-43.5	-44.6	21.7	0.00e+00	0	42	0	682622976	60	6142
2026-01-21 02:35:26.12	279.48	20.13	-43.0	-44.1	22.0	0.00e+00	92	42	0	684720128	60	5810
2026-01-21 02:35:27.13	279.73	20.12	-43.5	-44.6	21.1	0.00e+00	0	42	0	686817280	60	6172
2026-01-21 02:35:28.14	279.98	20.12	-43.1	-44.2	21.9	0.00e+00	90	42	0	688914432	60	5830
2026-01-21 02:35:29.15	280.24	20.11	-42.6	-43.7	21.9	0.00e+00	0	42	0	689963008	58	6217
2026-01-21 02:35:30.16	280.49	20.10	-42.8	-43.9	21.9	0.00e+00	92	42	0	692060160	58	6336
2026-01-21 02:35:31.17	280.74	20.10	-42.7	-43.7	22.1	0.00e+00	25	42	0	694157312	58	6217
2026-01-21 02:35:32.18	280.99	20.09	-42.6	-43.7	21.9	0.00e+00	2	42	0	696254464	58	6181
2026-01-21 02:35:33.19	281.25	20.08	-42.8	-43.8	22.0	0.00e+00	92	42	0	698351616	58	6300
2026-01-21 02:35:34.20	281.50	20.07	-42.7	-43.7	21.6	0.00e+00	0	42	0	699400192	58	6239
2026-01-21 02:35:35.21	281.75	20.06	-43.2	-44.3	21.6	0.00e+00	90	42	0	701497344	58	6616
2026-01-21 02:35:36.22	282.00	20.05	-43.7	-44.8	21.7	0.00e+00	0	42	0	703594496	60	6295
2026-01-21 02:35:37.23	282.26	20.04	-43.5	-44.6	21.7	0.00e+00	92	42	0	705691648	60	6108
2026-01-21 02:35:38.24	282.51	20.03	-43.9	-45.1	21.7	0.00e+00	23	42	0	707788800	60	6476
2026-01-21 02:35:39.25	282.76	20.01	-43.7	-44.9	21.4	0.00e+00	83	42	0	709885952	60	6345
2026-01-21 02:35:40.26	283.01	20.00	-43.5	-44.6	22.2	0.00e+00	92	42	0	710934528	60	6124
2026-01-21 02:35:41.27	283.26	19.99	-43.9	-45.0	21.7	0.00e+00	0	42	0	713031680	60	6435
2026-01-21 02:35:42.28	283.51	19.97	-43.2	-44.2	22.6	0.00e+00	44	42	0	715128832	60	5883
2026-01-21 02:35:43.28	283.76	19.96	-43.1	-44.1	21.7	0.00e+00	0	42	0	717225984	60	5821
2026-01-21 02:35:44.29	284.01	19.95	-43.5	-44.4	22.8	0.00e+00	92	42	0	719323136	60	6031
2026-01-21 02:35:45.30	284.26	19.93	-43.2	-44.2	22.7	0.00e+00	0	42	0	720371712	60	5832
2026-01-21 02:35:46.31	284.51	19.91	-43.4	-44.4	22.2	0.00e+00	92	42	0	722468864	60	6012
2026-01-21 02:35:47.32	284.76	19.90	-43.5	-44.5	22.1	0.00e+00	91	42	0	724566016	60	6103
2026-01-21 02:35:48.33	285.01	19.88	-44.2	-45.4	22.2	0.00e+00	0	42	0	726663168	60	6696
2026-01-21 02:35:49.34	285.26	19.86	-43.4	-44.5	22.2	0.00e+00	83	42	0	728760320	60	6043
2026-01-21 02:35:50.35	285.51	19.85	-44.0	-45.1	21.8	0.00e+00	0	42	0	729808896	60	6485
2026-01-21 02:35:51.36	285.76	19.83	-44.9	-46.1	20.9	0.00e+00	92	42	0	731906048	60	7277
2026-01-21 02:35:52.37	286.01	19.81	-44.1	-45.2	22.0	0.00e+00	0	42	0	734003200	60	6576
2026-01-21 02:35:53.38	286.25	19.79	-43.8	-44.9	22.2	0.00e+00	92	42	0	736100352	60	6340
2026-01-21 02:35:54.39	286.50	19.77	-43.4	-44.4	22.4	0.00e+00	91	42	0	738197504	60	5988
2026-01-21 02:35:55.40	286.75	19.75	-43.4	-44.4	22.3	0.00e+00	0	42	0	739246080	60	6011
2026-01-21 02:35:56.41	286.99	19.73	-43.7	-44.7	22.4	0.00e+00	92	42	0	741343232	60	6178
2026-01-21 02:35:57.42	287.24	19.71	-44.4	-45.4	22.5	0.00e+00	0	42	0	743440384	60	6706
2026-01-21 02:35:58.43	287.49	19.68	-44.2	-45.3	22.0	0.00e+00	92	42	0	745537536	60	6647
2026-01-21 02:35:59.43	287.73	19.66	-44.8	-45.8	22.0	0.00e+00	0	42	0	747634688	60	7067
2026-01-21 02:36:00.44	287.98	19.64	-44.0	-45.0	22.0	0.00e+00	92	42	0	748683264	60	6448
2026-01-21 02:36:01.45	288.22	19.61	-44.2	-45.3	22.0	0.00e+00	0	42	0	750780416	60	6624
2026-01-21 02:36:02.46	288.47	19.59	-43.8	-44.8	22.3	0.00e+00	0	42	0	752877568	60	6306
2026-01-21 02:36:03.47	288.71	19.57	-43.4	-44.4	22.6	0.00e+00	79	42	0	754974720	60	6001
2026-01-21 02:36:04.48	288.95	19.54	-43.3	-44.2	22.7	0.00e+00	0	42	0	757071872	60	5880
2026-01-21 02:36:05.49	289.20	19.52	-44.8	-46.0	21.9	0.00e+00	81	42	0	758120448	60	7184
2026-01-21 02:36:06.50	289.44	19.49	-43.9	-44.9	22.5	0.00e+00	0	42	0	760217600	60	6336
2026-01-21 02:36:07.51	289.68	19.46	-44.2	-45.2	21.8	0.00e+00	87	42	0	762314752	60	6604
2026-01-21 02:36:08.52	289.93	19.44	-44.2	-45.3	21.9	0.00e+00	0	42	0	764411904	60	6682
2026-01-21 02:36:09.53	290.17	19.41	-43.7	-44.7	22.5	0.00e+00	0	42	0	766509056	60	6182
2026-01-21 02:36:10.54	290.41	19.38	-44.3	-45.3	22.6	0.00e+00	90	42	0	767557632	60	6690
2026-01-21 02:36:11.55	290.65	19.35	-44.0	-45.0	22.6	0.00e+00	0	42	0	769654784	60	6411
2026-01-21 02:36:12.56	290.89	19.32	-43.8	-44.8	22.6	0.00e+00	87	42	0	771751936	60	6280
2026-01-21 02:36:13.57	291.13	19.29	-43.6	-44.6	22.1	0.00e+00	0	42	0	773849088	60	6167
2026-01-21 02:36:14.58	291.37	19.26	-43.4	-44.5	21.9	0.00e+00	90	42	0	775946240	60	6063
2026-01-21 02:36:15.59	291.61	19.23	-43.8	-44.9	21.5	0.00e+00	0	42	0	778043392	60	6350
2026-01-21 02:36:16.59	291.85	19.20	-44.1	-45.3	21.1	0.00e+00	92	42	0	779091968	60	6654
2026-01-21 02:36:17.61	292.09	19.17	-43.4	-44.6	21.4	0.00e+00	85	42	0	781189120	60	6118
2026-01-21 02:36:18.61	292.32	19.14	-42.6	-43.7	21.9	0.00e+00	0	42	0	783286272	58	6237
2026-01-21 02:36:19.62	292.56	19.11	-43.0	-44.1	22.3	0.00e+00	0	42	0	785383424	58	6497
2026-01-21 02:36:20.63	292.80	19.08	-42.8	-43.8	22.7	0.00e+00	0	42	0	787480576	58	6287
2026-01-21 02:36:21.64	293.03	19.04	-42.3	-43.3	22.9	0.00e+00	88	42	0	788529152	58	5915
2026-01-21 02:36:22.65	293.27	19.01	-42.0	-42.9	22.9	0.00e+00	0	42	0	790626304	58	5663
2026-01-21 02:36:23.65	293.50	18.98	-42.7	-43.7	23.0	0.00e+00	90	42	0	792723456	58	6208
2026-01-21 02:36:24.66	293.74	18.94	-43.7	-44.7	21.8	0.00e+00	92	42	0	794820608	60	6202
2026-01-21 02:36:25.67	293.97	18.91	-44.4	-45.5	21.9	0.00e+00	0	42	0	796917760	60	6835
2026-01-21 02:36:26.68	294.21	18.88	-43.4	-44.4	21.9	0.00e+00	39	42	0	797966336	60	5999
2026-01-21 02:36:27.69	294.44	18.84	-42.7	-43.7	22.7	0.00e+00	31	42	0	800063488	58	6198
2026-01-21 02:36:28.70	294.67	18.80	-42.2	-43.1	22.6	0.00e+00	59	42	0	802160640	58	5818
2026-01-21 02:36:29.71	294.90	18.77	-41.3	-42.2	23.2	0.00e+00	0	42	0	804257792	56	5868
2026-01-21 02:36:30.72	295.14	18.73	-43.2	-44.1	23.1	0.00e+00	92	42	0	806354944	58	6507
2026-01-21 02:36:31.72	295.36	18.70	-42.6	-43.6	23.0	0.00e+00	0	42	0	807403520	58	6116
2026-01-21 02:36:32.73	295.60	18.66	-43.6	-44.6	22.7	0.00e+00	0	42	0	809500672	58	6882
2026-01-21 02:36:33.74	295.83	18.62	-43.3	-44.3	22.9	0.00e+00	92	42	0	811597824	58	6625
2026-01-21 02:36:34.75	296.05	18.58	-42.9	-43.9	22.8	0.00e+00	0	42	0	813694976	58	6330
2026-01-21 02:36:35.76	296.28	18.54	-43.0	-44.0	22.8	0.00e+00	71	42	0	815792128	58	6394
2026-01-21 02:36:36.77	296.51	18.50	-42.5	-43.4	22.9	0.00e+00	0	42	0	816840704	58	6029
2026-01-21 02:36:37.78	296.74	18.47	-42.2	-43.1	22.9	0.00e+00	92	42	0	818937856	58	5815
2026-01-21 02:36:38.79	296.97	18.43	-41.7	-42.6	23.2	0.00e+00	0	42	0	821035008	56	6173
2026-01-21 02:36:39.80	297.19	18.39	-41.4	-42.3	23.3	0.00e+00	0	42	0	823132160	56	5923
2026-01-21 02:36:40.80	297.42	18.35	-41.1	-42.0	23.5	0.00e+00	92	42	0	825229312	56	5718
2026-01-21 02:36:41.81	297.64	18.31	-41.0	-42.0	23.2	0.00e+00	0	42	0	826277888	54	6391
2026-01-21 02:36:42.82	297.87	18.26	-41.1	-42.1	23.3	0.00e+00	70	42	0	828375040	54	6471
2026-01-21 02:36:43.83	298.09	18.22	-41.5	-42.4	23.3	0.00e+00	0	42	0	830472192	54	6745
2026-01-21 02:36:44.84	298.31	18.18	-41.3	-42.3	23.0	0.00e+00	90	42	0	832569344	54	6620
2026-01-21 02:36:45.85	298.54	18.14	-41.8	-42.7	23.1	0.00e+00	0	42	0	834666496	56	6229
2026-01-21 02:36:46.86	298.76	18.10	-41.9	-42.8	23.2	0.00e+00	0	42	0	835715072	56	6287
2026-01-21 02:36:47.87	298.98	18.05	-41.8	-42.7	23.0	0.00e+00	92	42	0	837812224	56	6244
2026-01-21 02:36:48.88	299.20	18.01	-41.6	-42.5	23.1	0.00e+00	0	42	0	839909376	56	6083
2026-01-21 02:36:49.89	299.42	17.97	-42.6	-43.6	22.8	0.00e+00	62	42	0	842006528	56	6870
2026-01-21 02:36:50.90	299.64	17.92	-42.9	-43.8	22.7	0.00e+00	0	42	0	844103680	58	6301
2026-01-21 02:36:51.91	299.86	17.88	-43.0	-43.9	22.7	0.00e+00	92	42	0	846200832	58	6389
2026-01-21 02:36:52.92	300.08	17.84	-42.2	-43.2	22.7	0.00e+00	0	42	0	847249408	58	5876
2026-01-21 02:36:53.93	300.30	17.79	-42.4	-43.3	22.6	0.00e+00	0	42	0	849346560	58	5964
2026-01-21 02:36:54.94	300.52	17.75	-42.4	-43.4	22.7	0.00e+00	92	42	0	851443712	58	5987
2026-01-21 02:36:55.95	300.73	17.70	-43.3	-44.3	21.9	0.00e+00	0	42	0	853540864	58	6690
2026-01-21 02:36:56.96	300.95	17.65	-42.6	-43.6	22.3	0.00e+00	37	42	0	855638016	58	6161
2026-01-21 02:36:57.97	301.16	17.61	-42.6	-43.6	22.6	0.00e+00	0	41	0	856686592	58	6140
2026-01-21 02:36:58.98	301.38	17.56	-43.0	-44.0	22.4	0.00e+00	91	41	0	858783744	58	6460
2026-01-21 02:36:59.99	301.59	17.52	-42.7	-43.7	22.7	0.00e+00	0	41	0	860880896	58	6214
2026-01-21 02:37:01.00	301.81	17.47	-43.8	-44.9	22.2	0.00e+00	92	42	0	862978048	58	7089
2026-01-21 02:37:02.01	302.02	17.42	-43.3	-44.2	22.8	0.00e+00	56	42	0	865075200	60	5886
2026-01-21 02:37:03.01	302.23	17.38	-43.8	-44.8	22.2	0.00e+00	0	41	0	866123776	60	6314
2026-01-21 02:37:04.02	302.44	17.33	-43.3	-44.3	22.7	0.00e+00	0	41	0	868220928	60	5924
2026-01-21 02:37:05.03	302.65	17.28	-43.3	-44.3	22.3	0.00e+00	0	42	0	870318080	60	5945
2026-01-21 02:37:06.04	302.86	17.23	-43.3	-44.3	22.2	0.00e+00	65	42	0	872415232	60	5935
2026-01-21 02:37:07.05	303.07	17.18	-43.8	-44.9	21.6	0.00e+00	0	41	0	874512384	60	6344
2026-01-21 02:37:08.06	303.28	17.13	-44.2	-45.4	21.6	0.00e+00	92	41	0	875560960	60	6713
2026-01-21 02:37:09.07	303.49	17.09	-43.8	-44.9	21.9	0.00e+00	92	41	0	877658112	60	6359
2026-01-21 02:37:10.08	303.70	17.04	-44.3	-45.4	21.7	0.00e+00	0	41	0	879755264	60	6733
2026-01-21 02:37:11.09	303.90	16.99	-44.0	-45.1	22.2	0.00e+00	4	42	0	881852416	60	6472
2026-01-21 02:37:12.10	304.11	16.94	-44.0	-45.1	21.7	0.00e+00	0	42	0	883949568	60	6508
2026-01-21 02:37:13.10	304.31	16.89	-43.2	-44.2	22.1	0.00e+00	92	41	0	884998144	60	5859
2026-01-21 02:37:14.11	304.52	16.84	-43.6	-44.7	21.9	0.00e+00	0	41	0	887095296	60	6211
2026-01-21 02:37:15.12	304.72	16.79	-43.8	-44.8	22.1	0.00e+00	92	41	0	889192448	60	6270
2026-01-21 02:37:16.13	304.93	16.74	-43.1	-44.1	22.8	0.00e+00	1	41	0	891289600	60	5812
2026-01-21 02:37:17.14	305.13	16.68	-43.3	-44.3	22.6	0.00e+00	0	41	0	893386752	60	5939
2026-01-21 02:37:18.15	305.33	16.63	-42.9	-43.8	22.8	0.00e+00	89	41	0	894435328	60	5607
2026-01-21 02:37:19.16	305.53	16.58	-42.7	-43.7	22.7	0.00e+00	0	41	0	896532480	58	6199
2026-01-21 02:37:20.17	305.73	16.53	-42.4	-43.4	22.8	0.00e+00	92	41	0	898629632	58	5990
2026-01-21 02:37:21.18	305.93	16.48	-42.2	-43.2	22.8	0.00e+00	32	41	0	900726784	58	5831
2026-01-21 02:37:22.19	306.13	16.43	-42.2	-43.2	22.6	0.00e+00	91	41	0	902823936	56	6579
2026-01-21 02:37:23.20	306.33	16.37	-42.5	-43.5	22.4	0.00e+00	2	41	0	903872512	58	6089
2026-01-21 02:37:24.21	306.53	16.32	-42.6	-43.6	22.3	0.00e+00	0	41	0	905969664	58	6148
2026-01-21 02:37:25.22	306.73	16.27	-43.2	-44.3	21.8	0.00e+00	92	41	0	908066816	58	6619
2026-01-21 02:37:26.23	306.93	16.22	-43.7	-44.8	21.4	0.00e+00	0	41	0	910163968	58	7085
2026-01-21 02:37:27.24	307.12	16.16	-44.8	-46.0	21.1	0.00e+00	90	41	0	912261120	60	7220
2026-01-21 02:37:28.25	307.32	16.11	-45.0	-46.2	21.0	0.00e+00	0	41	0	913309696	60	7369
2026-01-21 02:37:29.26	307.51	16.06	-45.1	-46.3	20.8	0.00e+00	92	41	0	915406848	60	7477
2026-01-21 02:37:30.26	307.70	16.00	-44.8	-46.0	21.2	0.00e+00	0	41	0	917504000	60	7227
2026-01-21 02:37:31.27	307.90	15.95	-44.1	-45.3	21.3	0.00e+00	0	41	0	919601152	60	6653
2026-01-21 02:37:32.28	308.09	15.89	-44.3	-45.5	21.3	0.00e+00	92	41	0	921698304	60	6815
2026-01-21 02:37:33.29	308.28	15.84	-44.1	-45.3	21.4	0.00e+00	0	41	0	922746880	60	6654
2026-01-21 02:37:34.30	308.47	15.79	-44.4	-45.5	21.3	0.00e+00	30	41	0	924844032	60	6842
2026-01-21 02:37:35.31	308.66	15.73	-43.4	-44.4	22.0	0.00e+00	0	41	0	926941184	60	6014
2026-01-21 02:37:36.32	308.86	15.68	-43.1	-44.2	22.2	0.00e+00	88	41	0	929038336	60	5840
2026-01-21 02:37:37.33	309.04	15.62	-42.5	-43.6	22.3	0.00e+00	0	41	0	931135488	58	6110
2026-01-21 02:37:38.34	309.23	15.57	-42.3	-43.2	22.5	0.00e+00	62	41	0	932184064	58	5896
2026-01-21 02:37:39.35	309.42	15.51	-42.3	-43.3	22.6	0.00e+00	89	41	0	934281216	58	5926
2026-01-21 02:37:40.36	309.61	15.46	-42.8	-43.8	22.3	0.00e+00	0	41	0	936378368	58	6262
2026-01-21 02:37:41.37	309.80	15.40	-43.0	-44.0	22.3	0.00e+00	13	41	0	938475520	58	6443
2026-01-21 02:37:42.38	309.98	15.34	-43.4	-44.4	22.4	0.00e+00	0	41	0	940572672	60	5990
2026-01-21 02:37:43.39	310.17	15.29	-43.7	-44.8	21.7	0.00e+00	92	41	0	942669824	60	6260
2026-01-21 02:37:44.40	310.35	15.23	-43.7	-44.9	21.5	0.00e+00	0	41	0	943718400	60	6331
2026-01-21 02:37:45.41	310.53	15.18	-43.7	-44.9	21.3	0.00e+00	72	41	0	945815552	60	6358
2026-01-21 02:37:46.42	310.72	15.12	-43.6	-44.9	21.0	0.00e+00	84	41	0	947912704	60	6343
2026-01-21 02:37:47.42	310.90	15.06	-43.5	-44.7	21.3	0.00e+00	0	41	0	950009856	60	6200
2026-01-21 02:37:48.43	311.08	15.01	-43.7	-44.9	21.3	0.00e+00	35	41	0	952107008	60	6368
2026-01-21 02:37:49.44	311.26	14.95	-44.1	-45.2	21.6	0.00e+00	0	41	0	953155584	60	6590
2026-01-21 02:37:50.45	311.44	14.89	-43.8	-44.9	21.8	0.00e+00	79	41	0	955252736	60	6345
2026-01-21 02:37:51.46	311.62	14.84	-43.7	-44.7	22.1	0.00e+00	0	41	0	957349888	60	6235
2026-01-21 02:37:52.47	311.80	14.78	-43.7	-44.8	21.8	0.00e+00	89	41	0	959447040	60	6296
2026-01-21 02:37:53.48	311.98	14.72	-43.4	-44.5	21.7	0.00e+00	0	41	0	961544192	60	6103
2026-01-21 02:37:54.49	312.16	14.67	-42.9	-44.0	21.7	0.00e+00	0	41	0	962592768	60	5749
2026-01-21 02:37:55.50	312.34	14.61	-43.2	-44.4	21.8	0.00e+00	57	41	0	964689920	60	5965
2026-01-21 02:37:56.50	312.51	14.55	-43.6	-44.7	21.7	0.00e+00	0	41	0	966787072	60	6196
2026-01-21 02:37:57.51	312.69	14.49	-43.4	-44.4	22.1	0.00e+00	85	41	0	968884224	60	6009
2026-01-21 02:37:58.52	312.86	14.44	-43.0	-44.1	22.3	0.00e+00	0	41	0	970981376	60	5769
2026-01-21 02:37:59.53	313.04	14.38	-42.4	-43.4	22.4	0.00e+00	92	41	0	972029952	58	6007
2026-01-21 02:38:00.54	313.21	14.32	-42.8	-43.8	22.6	0.00e+00	0	41	0	974127104	58	6297
2026-01-21 02:38:01.55	313.38	14.26	-43.1	-44.2	21.9	0.00e+00	0	41	0	976224256	58	6563
2026-01-21 02:38:02.56	313.56	14.20	-42.6	-43.7	22.2	0.00e+00	85	41	0	978321408	58	6184
2026-01-21 02:38:03.57	313.73	14.15	-43.3	-44.4	22.0	0.00e+00	0	41	0	980418560	58	6735
2026-01-21 02:38:04.58	313.90	14.09	-44.0	-45.2	21.3	0.00e+00	77	41	0	981467136	60	6563
2026-01-21 02:38:05.59	314.07	14.03	-44.1	-45.3	21.4	0.00e+00	0	41	0	983564288	60	6652
2026-01-21 02:38:06.60	314.24	13.97	-43.4	-44.5	21.8	0.00e+00	75	41	0	985661440	60	6099
2026-01-21 02:38:07.60	314.41	13.91	-43.3	-44.4	21.7	0.00e+00	0	41	0	987758592	60	6013
2026-01-21 02:38:08.61	314.58	13.85	-43.6	-44.7	22.1	0.00e+00	0	41	0	989855744	60	6222
2026-01-21 02:38:09.62	314.74	13.79	-43.7	-44.8	22.1	0.00e+00	86	41	0	990904320	60	6265
2026-01-21 02:38:10.63	314.91	13.74	-44.0	-45.0	22.3	0.00e+00	0	41	0	993001472	60	6442
2026-01-21 02:38:11.64	315.08	13.68	-43.9	-45.0	22.2	0.00e+00	0	41	0	995098624	60	6416
2026-01-21 02:38:12.65	315.24	13.62	-43.3	-44.4	22.2	0.00e+00	0	41	0	997195776	60	5982
2026-01-21 02:38:13.66	315.41	13.56	-43.3	-44.4	22.3	0.00e+00	87	41	0	999292928	60	5975
2026-01-21 02:38:14.67	315.57	13.50	-43.7	-44.8	21.4	0.00e+00	0	41	0	1000341504	60	6247
2026-01-21 02:38:15.68	315.74	13.44	-44.7	-45.9	21.8	0.00e+00	0	41	0	1002438656	60	7153
2026-01-21 02:38:16.69	315.90	13.38	-44.3	-45.4	21.8	0.00e+00	75	41	0	1004535808	60	6754
2026-01-21 02:38:17.70	316.07	13.32	-43.9	-45.0	22.1	0.00e+00	0	41	0	1006632960	60	6409
2026-01-21 02:38:18.71	316.23	13.26	-44.0	-45.0	21.8	0.00e+00	0	41	0	1008730112	60	6454
2026-01-21 02:38:19.72	316.39	13.20	-43.9	-45.0	22.1	0.00e+00	0	41	0	1010827264	60	6400
2026-01-21 02:38:20.73	316.55	13.14	-44.2	-45.3	22.0	0.00e+00	38	41	0	1011875840	60	6637
2026-01-21 02:38:21.74	316.71	13.08	-44.4	-45.5	21.8	0.00e+00	0	41	0	1013972992	60	6779
2026-01-21 02:38:22.75	316.87	13.02	-44.1	-45.2	22.2	0.00e+00	75	41	0	1016070144	60	6547
2026-01-21 02:38:23.76	317.03	12.96	-44.1	-45.2	22.0	0.00e+00	32	41	0	1018167296	60	6600
2026-01-21 02:38:24.77	317.19	12.90	-44.2	-45.2	21.8	0.00e+00	0	41	0	1020264448	60	6615
2026-01-21 02:38:25.77	317.34	12.84	-44.0	-45.1	22.0	0.00e+00	88	41	0	1021313024	60	6496
2026-01-21 02:38:26.78	317.50	12.78	-45.2	-46.3	21.7	0.00e+00	0	41	0	1023410176	60	7461
2026-01-21 02:38:27.79	317.66	12.72	-44.5	-45.7	21.5	0.00e+00	81	41	0	1025507328	60	6942
2026-01-21 02:38:28.80	317.81	12.66	-43.9	-44.9	22.2	0.00e+00	0	41	0	1027604480	60	6325
2026-01-21 02:38:29.81	317.97	12.60	-43.6	-44.6	22.6	0.00e+00	92	41	0	1029701632	60	6169
2026-01-21 02:38:30.82	318.12	12.54	-43.4	-44.4	22.8	0.00e+00	0	41	0	1030750208	60	5979
2026-01-21 02:38:31.83	318.28	12.48	-42.7	-43.7	22.9	0.00e+00	0	41	0	1032847360	60	5520
2026-01-21 02:38:32.84	318.43	12.42	-42.6	-43.5	22.9	0.00e+00	92	41	0	1034944512	58	6055
2026-01-21 02:38:33.85	318.59	12.36	-42.0	-43.0	23.2	0.00e+00	0	41	0	1037041664	56	6400
2026-01-21 02:38:34.86	318.74	12.30	-42.4	-43.3	22.9	0.00e+00	87	41	0	1039138816	56	6681
2026-01-21 02:38:35.87	318.89	12.24	-42.4	-43.3	22.9	0.00e+00	0	41	0	1040187392	56	6691
2026-01-21 02:38:36.88	319.04	12.18	-42.3	-43.3	22.7	0.00e+00	85	41	0	1042284544	56	6625
2026-01-21 02:38:37.89	319.19	12.12	-41.8	-42.8	22.6	0.00e+00	0	41	0	1044381696	56	6274
2026-01-21 02:38:38.90	319.34	12.06	-42.3	-43.3	22.4	0.00e+00	0	41	0	1046478848	56	6665
2026-01-21 02:38:39.90	319.49	12.00	-43.4	-44.4	22.2	0.00e+00	90	41	0	1048576000	58	6760
2026-01-21 02:38:40.91	319.64	11.94	-43.2	-44.3	22.1	0.00e+00	0	41	0	1049624576	58	6620
2026-01-21 02:38:41.92	319.79	11.88	-43.0	-44.1	22.0	0.00e+00	8	41	0	1051721728	58	6488
2026-01-21 02:38:42.93	319.93	11.82	-43.4	-44.5	22.0	0.00e+00	0	41	0	1053818880	58	6816
2026-01-21 02:38:43.94	320.08	11.76	-42.7	-43.7	22.4	0.00e+00	92	41	0	1055916032	58	6235
2026-01-21 02:38:44.95	320.23	11.70	-42.9	-44.0	22.3	0.00e+00	0	41	0	1058013184	58	6399
2026-01-21 02:38:45.96	320.37	11.64	-42.2	-43.2	22.3	0.00e+00	0	41	0	1059061760	58	5890
2026-01-21 02:38:46.96	320.52	11.58	-42.5	-43.5	22.3	0.00e+00	89	41	0	1061158912	58	6079
2026-01-21 02:38:47.97	320.66	11.52	-42.3	-43.3	22.4	0.00e+00	0	41	0	1063256064	58	5927
2026-01-21 02:38:48.98	320.81	11.46	-42.2	-43.3	22.1	0.00e+00	88	41	0	1065353216	58	5911
2026-01-21 02:38:49.99	320.95	11.40	-42.6	-43.6	21.8	0.00e+00	0	41	0	1067450368	58	6172
2026-01-21 02:38:51.00	321.09	11.34	-43.4	-44.5	21.5	0.00e+00	89	41	0	1068498944	58	6829
2026-01-21 02:38:52.01	321.23	11.28	-43.7	-44.8	21.5	0.00e+00	0	41	0	1070596096	60	6294
2026-01-21 02:38:53.02	321.38	11.22	-44.1	-45.4	20.9	0.00e+00	0	41	0	1072693248	60	6697
2026-01-21 02:38:54.03	321.52	11.16	-44.2	-45.3	21.2	0.00e+00	0	41	0	1074790400	60	6680
2026-01-21 02:38:55.03	321.66	11.10	-43.6	-44.6	21.6	0.00e+00	0	41	0	1076887552	60	6150
2026-01-21 02:38:56.04	321.80	11.04	-43.5	-44.6	22.1	0.00e+00	49	41	0	1077936128	60	6129
2026-01-21 02:38:57.05	321.94	10.98	-43.1	-44.1	22.5	0.00e+00	0	41	0	1080033280	60	5768
2026-01-21 02:38:58.06	322.08	10.92	-43.0	-44.0	22.5	0.00e+00	62	41	0	1082130432	60	5729
2026-01-21 02:38:59.07	322.21	10.86	-42.9	-43.9	22.3	0.00e+00	0	41	0	1084227584	60	5678
2026-01-21 02:39:00.08	322.35	10.80	-44.0	-45.1	21.7	0.00e+00	59	41	0	1086324736	60	6501
2026-01-21 02:39:01.09	322.49	10.74	-44.5	-45.7	21.1	0.00e+00	0	41	0	1087373312	60	6988
2026-01-21 02:39:02.10	322.63	10.68	-44.6	-45.8	21.0	0.00e+00	0	41	0	1089470464	60	7038
2026-01-21 02:39:03.11	322.76	10.61	-44.5	-45.7	20.9	0.00e+00	72	41	0	1091567616	60	6974
2026-01-21 02:39:04.12	322.90	10.55	-44.3	-45.5	20.7	0.00e+00	0	41	0	1093664768	60	6815
2026-01-21 02:39:05.12	323.03	10.49	-43.9	-45.2	21.0	0.00e+00	90	41	0	1095761920	60	6556
2026-01-21 02:39:06.13	323.17	10.43	-44.0	-45.3	20.8	0.00e+00	0	41	0	1096810496	60	6647
2026-01-21 02:39:07.14	323.30	10.37	-43.8	-45.2	20.4	0.00e+00	86	41	0	1098907648	60	6552
2026-01-21 02:39:08.15	323.44	10.31	-44.4	-45.8	20.2	0.00e+00	33	41	0	1101004800	60	7032
2026-01-21 02:39:09.15	323.57	10.25	-44.0	-45.3	20.7	0.00e+00	0	41	0	1103101952	60	6690
2026-01-21 02:39:10.17	323.70	10.19	-43.8	-45.0	20.3	0.00e+00	85	41	0	1105199104	60	6460
2026-01-21 02:39:11.17	323.83	10.13	-44.3	-45.6	20.4	0.00e+00	0	41	0	1107296256	60	6868
2026-01-21 02:39:12.18	323.96	10.07	-43.4	-44.6	21.2	0.00e+00	90	41	0	1108344832	60	6137
2026-01-21 02:39:13.19	324.09	10.01	-43.3	-44.5	21.3	0.00e+00	0	41	0	1110441984	60	6047
2026-01-21 02:39:14.20	324.22	9.95	-44.1	-45.3	20.8	0.00e+00	0	41	0	1112539136	60	6627
2026-01-21 02:39:15.21	324.35	9.89	-44.4	-45.6	20.9	0.00e+00	0	41	0	1114636288	60	6862
2026-01-21 02:39:16.22	324.48	9.83	-44.2	-45.4	20.8	0.00e+00	0	41	0	1116733440	60	6730
2026-01-21 02:39:17.23	324.61	9.77	-44.0	-45.2	20.9	0.00e+00	0	41	0	1117782016	60	6560
2026-01-21 02:39:18.24	324.74	9.71	-44.4	-45.6	20.5	0.00e+00	0	41	0	1119879168	60	6925
2026-01-21 02:39:19.25	324.87	9.65	-44.5	-45.7	20.9	0.00e+00	86	41	0	1121976320	60	6987
2026-01-21 02:39:20.26	325.00	9.59	-44.0	-45.2	21.0	0.00e+00	0	41	0	1124073472	60	6580
2026-01-21 02:39:21.27	325.12	9.53	-44.2	-45.4	20.9	0.00e+00	0	41	0	1126170624	60	6695
2026-01-21 02:39:22.28	325.25	9.47	-44.3	-45.5	20.5	0.00e+00	0	41	0	1127219200	60	6806
2026-01-21 02:39:23.28	325.38	9.41	-44.6	-46.0	19.8	0.00e+00	0	41	0	1129316352	60	7190
2026-01-21 02:39:24.29	325.50	9.35	-45.1	-46.3	20.2	0.00e+00	2	41	0	1131413504	60	7506
2026-01-21 02:39:25.30	325.63	9.29	-44.5	-45.7	21.0	0.00e+00	0	41	0	1133510656	60	6949
2026-01-21 02:39:26.31	325.75	9.23	-44.8	-46.1	20.4	0.00e+00	87	41	0	1135607808	60	7335
2026-01-21 02:39:27.31	325.87	9.17	-45.1	-46.3	20.6	0.00e+00	0	41	0	1136656384	60	7483
2026-01-21 02:39:28.32	326.00	9.11	-45.2	-46.6	20.0	0.00e+00	0	41	0	1138753536	60	7694
2026-01-21 02:39:29.33	326.12	9.05	-44.3	-45.5	20.9	0.00e+00	0	41	0	1140850688	60	6809
2026-01-21 02:39:30.34	326.24	8.99	-44.3	-45.6	20.4	0.00e+00	0	41	0	1142947840	60	6861
2026-01-21 02:39:31.35	326.36	8.93	-44.5	-45.7	20.8	0.00e+00	86	41	0	1145044992	60	6966
2026-01-21 02:39:32.36	326.49	8.87	-44.0	-45.2	21.0	0.00e+00	0	41	0	1146093568	60	6569
2026-01-21 02:39:33.37	326.61	8.81	-44.1	-45.3	20.9	0.00e+00	43	41	0	1148190720	60	6652
2026-01-21 02:39:34.38	326.73	8.75	-43.8	-44.9	21.4	0.00e+00	33	41	0	1150287872	60	6384
2026-01-21 02:39:35.39	326.85	8.69	-43.6	-44.8	21.5	0.00e+00	0	41	0	1152385024	60	6257
2026-01-21 02:39:36.40	326.97	8.63	-43.8	-45.0	21.4	0.00e+00	0	41	0	1154482176	60	6436
2026-01-21 02:39:37.41	327.09	8.57	-43.5	-44.6	21.6	0.00e+00	0	41	0	1155530752	60	6156
2026-01-21 02:39:38.42	327.20	8.51	-43.1	-44.2	21.8	0.00e+00	81	41	0	1157627904	60	5849
2026-01-21 02:39:39.43	327.32	8.46	-42.5	-43.5	21.8	0.00e+00	0	41	0	1159725056	58	6084
2026-01-21 02:39:40.44	327.44	8.40	-42.7	-43.8	21.6	0.00e+00	51	41	0	1161822208	58	6302
2026-01-21 02:39:41.45	327.56	8.34	-42.7	-43.8	21.5	0.00e+00	0	41	0	1163919360	58	6248
2026-01-21 02:39:42.46	327.67	8.28	-42.9	-44.0	21.6	0.00e+00	0	41	0	1164967936	58	6399
2026-01-21 02:39:43.47	327.79	8.22	-43.9	-45.2	21.0	0.00e+00	0	41	0	1167065088	58	7343
2026-01-21 02:39:44.48	327.91	8.16	-44.4	-45.6	20.7	0.00e+00	0	41	0	1169162240	60	6879
2026-01-21 02:39:45.49	328.02	8.10	-44.7	-46.0	20.6	0.00e+00	0	41	0	1171259392	60	7201
2026-01-21 02:39:46.50	328.14	8.04	-44.6	-45.8	20.6	0.00e+00	0	41	0	1173356544	60	7048
2026-01-21 02:39:47.51	328.25	7.98	-44.1	-45.3	20.9	0.00e+00	15	41	0	1175453696	60	6685
2026-01-21 02:39:48.52	328.37	7.92	-44.4	-45.7	20.5	0.00e+00	0	41	0	1176502272	60	6983
2026-01-21 02:39:49.53	328.48	7.86	-45.0	-46.3	19.9	0.00e+00	90	41	0	1178599424	60	7460
2026-01-21 02:39:50.54	328.59	7.80	-44.4	-45.7	20.5	0.00e+00	0	41	0	1180696576	60	6953
2026-01-21 02:39:51.55	328.71	7.74	-44.0	-45.2	20.8	0.00e+00	0	41	0	1182793728	60	6608
2026-01-21 02:39:52.56	328.82	7.69	-44.0	-45.2	20.9	0.00e+00	0	41	0	1184890880	60	6584
2026-01-21 02:39:53.57	328.93	7.63	-43.1	-44.2	21.3	0.00e+00	0	41	0	1185939456	60	5855
2026-01-21 02:39:54.58	329.04	7.57	-43.2	-44.4	20.9	0.00e+00	20	41	0	1188036608	60	6009
