passes_logs/2026/01/21/R4.6S_Anadyr/R4.6S_Anadyr__20260121_154247_NOAA_21_JPSS-2_rec.log

#Pass ID: 20260121_154247_NOAA 21 (JPSS-2)
#Satellite: NOAA 21 (JPSS-2)
#Configuration: NOAA-21
#almurnet v.1.7.20251203
#Start time: 2026-01-21 15:42:48

#Version: 2.2.20231116
#Station: R4.6S_Anadyr
#Location: 177.4865 lon 64.73178 lat
#TLE: 1 54234U 22150A   26020.93347024  .00000206  00000+0  11859-3 0  9994
#TLE: 2 54234  98.7506 321.7615 0000627 245.8100 114.3011 14.19536899165654

#Time	Az	El	Level	Level2	SNR	BER	BlckErr	Temp	State	Recorded	gain1	gain2
2026-01-21 15:42:48.43	23.17	0.04	-51.5	-66.4	3.5	1.51e+00	0	38	0	0	60	75348
2026-01-21 15:42:49.44	23.15	0.10	-52.9	-65.7	3.5	1.52e+00	0	40	104	0	60	68027
2026-01-21 15:42:50.44	23.12	0.16	-52.1	-65.1	3.5	1.52e+00	0	40	104	0	60	62897
2026-01-21 15:42:51.45	23.10	0.22	-52.5	-65.4	3.5	1.52e+00	0	40	104	0	60	65035
2026-01-21 15:42:52.46	23.08	0.28	-52.4	-65.2	3.5	1.52e+00	0	40	104	0	60	64053
2026-01-21 15:42:53.47	23.06	0.34	-52.2	-65.1	3.5	1.52e+00	0	40	104	0	60	62992
2026-01-21 15:42:54.48	23.03	0.40	-52.0	-64.9	3.5	1.52e+00	0	40	104	0	60	61449
2026-01-21 15:42:55.49	23.01	0.46	-51.8	-64.7	3.5	1.52e+00	0	40	104	0	60	60308
2026-01-21 15:42:56.50	22.99	0.52	-51.9	-64.8	3.5	1.52e+00	0	40	104	0	60	60960
2026-01-21 15:42:57.51	22.96	0.58	-51.8	-64.7	3.5	1.52e+00	0	40	104	0	60	60200
2026-01-21 15:42:58.52	22.94	0.64	-51.6	-64.4	3.5	1.52e+00	0	40	104	0	60	58327
2026-01-21 15:42:59.53	22.92	0.70	-51.7	-64.6	3.5	1.52e+00	0	40	104	0	60	59851
2026-01-21 15:43:00.54	22.89	0.76	-51.5	-64.4	3.5	1.52e+00	0	40	104	0	60	58035
2026-01-21 15:43:01.55	22.87	0.82	-51.5	-64.3	3.5	1.51e+00	0	40	104	0	60	57488
2026-01-21 15:43:02.56	22.84	0.89	-51.4	-64.2	3.5	1.52e+00	0	40	104	0	60	56913
2026-01-21 15:43:03.57	22.82	0.95	-51.3	-64.2	3.5	1.52e+00	0	40	104	0	60	56643
2026-01-21 15:43:04.58	22.80	1.01	-51.2	-64.0	3.5	1.51e+00	0	40	104	0	60	55714
2026-01-21 15:43:05.59	22.77	1.07	-51.0	-63.9	3.5	1.52e+00	0	40	104	0	60	55043
2026-01-21 15:43:06.60	22.75	1.13	-50.9	-63.7	3.5	1.52e+00	0	40	104	0	60	54038
2026-01-21 15:43:07.61	22.72	1.19	-50.7	-63.6	3.5	1.52e+00	0	40	104	0	60	53006
2026-01-21 15:43:08.62	22.70	1.25	-50.6	-63.5	3.5	1.52e+00	0	40	104	0	60	52406
2026-01-21 15:43:09.64	22.67	1.32	-50.6	-63.4	3.5	1.52e+00	0	40	104	0	60	52095
2026-01-21 15:43:10.65	22.65	1.38	-50.4	-63.2	3.5	1.52e+00	0	40	104	0	60	50829
2026-01-21 15:43:11.66	22.62	1.44	-50.3	-63.1	3.5	1.52e+00	0	40	104	0	60	49996
2026-01-21 15:43:12.67	22.60	1.50	-49.9	-62.8	3.5	1.51e+00	0	40	104	0	60	48182
2026-01-21 15:43:13.68	22.57	1.56	-49.8	-62.8	3.5	1.52e+00	0	40	104	0	60	48357
2026-01-21 15:43:14.69	22.55	1.63	-49.8	-62.7	3.5	1.52e+00	0	40	104	0	60	48163
2026-01-21 15:43:15.70	22.52	1.69	-49.8	-62.7	3.5	1.52e+00	0	40	104	0	60	47689
2026-01-21 15:43:16.70	22.50	1.75	-49.8	-62.6	3.5	1.52e+00	0	40	104	0	60	47140
2026-01-21 15:43:17.71	22.47	1.81	-49.8	-62.5	3.5	1.52e+00	0	41	104	0	60	46783
2026-01-21 15:43:18.72	22.44	1.88	-49.8	-62.4	3.5	1.52e+00	0	40	104	0	60	46259
2026-01-21 15:43:19.73	22.42	1.94	-49.8	-62.3	3.5	1.52e+00	0	40	104	0	60	45601
2026-01-21 15:43:20.75	22.39	2.00	-49.8	-62.5	3.5	1.51e+00	0	40	104	0	60	46779
2026-01-21 15:43:21.76	22.36	2.07	-49.8	-62.4	3.5	1.52e+00	0	40	104	0	60	46102
2026-01-21 15:43:22.77	22.34	2.13	-49.8	-62.6	3.5	1.52e+00	0	40	104	0	60	47483
2026-01-21 15:43:23.78	22.31	2.19	-49.8	-62.7	3.5	1.52e+00	0	41	104	0	60	47759
2026-01-21 15:43:24.79	22.28	2.26	-49.8	-62.7	3.5	1.52e+00	0	41	104	0	60	47842
2026-01-21 15:43:25.80	22.26	2.32	-49.8	-62.7	3.5	1.52e+00	0	41	104	0	60	47745
2026-01-21 15:43:26.81	22.23	2.39	-49.8	-62.6	3.5	1.52e+00	0	41	104	0	60	47291
2026-01-21 15:43:27.82	22.20	2.45	-49.8	-62.5	3.5	1.52e+00	0	41	104	0	60	46946
2026-01-21 15:43:28.83	22.18	2.51	-49.8	-62.4	3.5	1.52e+00	0	40	104	0	60	46462
2026-01-21 15:43:29.83	22.15	2.58	-49.8	-62.4	3.5	1.52e+00	0	40	104	0	60	46022
2026-01-21 15:43:30.84	22.12	2.64	-49.8	-62.2	3.5	1.52e+00	0	41	104	0	60	45366
2026-01-21 15:43:31.85	22.09	2.71	-49.8	-62.1	3.5	1.52e+00	0	41	104	0	60	44885
2026-01-21 15:43:32.86	22.07	2.77	-49.7	-61.7	3.5	1.51e+00	0	41	104	0	60	42515
2026-01-21 15:43:33.87	22.04	2.84	-49.7	-61.9	3.5	1.52e+00	0	41	104	0	60	43624
2026-01-21 15:43:34.88	22.01	2.90	-49.7	-62.0	3.5	1.51e+00	0	41	104	0	60	44100
2026-01-21 15:43:35.89	21.98	2.97	-49.7	-62.0	3.5	1.51e+00	0	41	104	0	60	44061
2026-01-21 15:43:36.90	21.95	3.03	-49.8	-62.2	3.5	1.52e+00	0	41	104	0	60	44981
2026-01-21 15:43:37.91	21.93	3.10	-49.8	-62.5	3.5	1.52e+00	0	41	104	0	60	47046
2026-01-21 15:43:38.92	21.90	3.16	-49.8	-62.6	3.5	1.52e+00	0	41	104	0	60	47267
2026-01-21 15:43:39.93	21.87	3.23	-49.8	-62.2	3.5	1.52e+00	0	41	104	0	60	45115
2026-01-21 15:43:40.94	21.84	3.29	-49.5	-59.7	3.8	1.51e+00	0	41	104	0	60	34060
2026-01-21 15:43:41.95	21.81	3.36	-49.6	-60.3	3.5	1.51e+00	0	41	104	0	60	36535
2026-01-21 15:43:42.96	21.78	3.43	-49.1	-57.1	5.6	8.11e-01	123	41	104	0	60	25146
2026-01-21 15:43:43.97	21.75	3.49	-49.2	-57.7	4.9	6.21e-01	123	41	104	0	60	26991
2026-01-21 15:43:44.98	21.72	3.56	-49.1	-56.8	5.6	9.32e-01	123	41	104	0	60	24334
2026-01-21 15:43:45.99	21.69	3.63	-49.0	-56.7	4.0	3.85e-01	0	41	104	0	60	24072
2026-01-21 15:43:47.00	21.66	3.69	-49.9	-62.6	3.5	1.50e+00	0	41	104	0	60	47549
2026-01-21 15:43:48.01	21.63	3.76	-42.1	-43.9	17.7	1.39e+00	123	41	104	0	58	6136
2026-01-21 15:43:49.02	21.60	3.83	-49.6	-61.3	3.6	1.51e+00	0	41	104	0	60	40844
2026-01-21 15:43:50.03	21.57	3.90	-49.8	-60.4	3.6	1.24e+00	0	41	104	0	60	36561
2026-01-21 15:43:51.04	21.54	3.96	-46.2	-49.1	13.1	0.00e+00	123	41	0	0	60	10016
2026-01-21 15:43:52.05	21.51	4.03	-42.8	-44.3	17.8	0.00e+00	123	41	0	3145728	60	5783
2026-01-21 15:43:53.06	21.48	4.10	-42.6	-44.1	17.9	0.00e+00	120	41	0	6291456	56	7049
2026-01-21 15:43:54.07	21.45	4.17	-40.9	-42.2	19.7	0.00e+00	122	41	0	9437184	56	5667
2026-01-21 15:43:55.08	21.42	4.23	-41.0	-42.3	19.8	0.00e+00	123	41	0	12582912	56	5742
2026-01-21 15:43:56.09	21.39	4.30	-41.1	-42.4	19.6	0.00e+00	122	41	0	15728640	56	5815
2026-01-21 15:43:57.10	21.35	4.37	-40.8	-42.0	20.0	0.00e+00	120	41	0	18874368	54	6251
2026-01-21 15:43:58.11	21.32	4.44	-40.5	-41.8	20.2	0.00e+00	122	41	0	22020096	54	6066
2026-01-21 15:43:59.12	21.29	4.51	-40.6	-41.8	20.0	0.00e+00	123	41	0	25165824	54	6120
2026-01-21 15:44:00.13	21.26	4.58	-40.4	-41.6	20.3	0.00e+00	120	41	0	28311552	54	5949
2026-01-21 15:44:01.14	21.23	4.65	-40.3	-41.4	20.5	0.00e+00	123	41	0	31457280	54	5849
2026-01-21 15:44:02.15	21.19	4.72	-40.3	-41.5	20.5	0.00e+00	122	41	0	34603008	54	5887
2026-01-21 15:44:03.16	21.16	4.79	-40.8	-42.1	19.9	0.00e+00	122	41	0	37748736	54	6306
2026-01-21 15:44:04.17	21.13	4.85	-40.0	-41.1	20.7	0.00e+00	122	41	0	40894464	54	5657
2026-01-21 15:44:05.18	21.10	4.92	-40.4	-41.6	20.4	0.00e+00	123	41	0	44040192	54	5938
2026-01-21 15:44:06.19	21.06	4.99	-40.4	-41.6	20.3	0.00e+00	122	41	0	47185920	54	5949
2026-01-21 15:44:07.20	21.03	5.06	-40.4	-41.6	20.3	0.00e+00	123	41	0	50331648	54	5942
2026-01-21 15:44:08.21	21.00	5.14	-40.3	-41.5	20.5	0.00e+00	123	41	0	53477376	54	5894
2026-01-21 15:44:09.22	20.96	5.21	-40.4	-41.5	20.5	0.00e+00	122	41	0	56623104	54	5925
2026-01-21 15:44:10.23	20.93	5.28	-40.8	-42.0	20.1	0.00e+00	123	41	0	59768832	54	6267
2026-01-21 15:44:11.24	20.89	5.35	-40.3	-41.5	20.4	0.00e+00	120	41	0	62914560	54	5861
2026-01-21 15:44:12.25	20.86	5.42	-40.4	-41.6	20.5	0.00e+00	122	41	0	67108864	54	5941
2026-01-21 15:44:13.25	20.83	5.49	-40.4	-41.6	20.4	0.00e+00	122	41	0	69206016	54	5993
2026-01-21 15:44:14.26	20.79	5.56	-40.4	-41.6	20.5	0.00e+00	122	41	0	72351744	54	5950
2026-01-21 15:44:15.27	20.76	5.63	-40.4	-41.6	20.5	0.00e+00	122	41	0	75497472	54	5936
2026-01-21 15:44:16.29	20.72	5.70	-40.2	-41.3	20.7	0.00e+00	122	41	0	78643200	54	5776
2026-01-21 15:44:17.30	20.69	5.78	-40.2	-41.3	20.7	0.00e+00	123	41	0	82837504	54	5761
2026-01-21 15:44:18.31	20.65	5.85	-40.3	-41.4	20.6	0.00e+00	123	41	0	85983232	54	5838
2026-01-21 15:44:19.32	20.62	5.92	-40.5	-41.7	20.4	0.00e+00	122	41	0	89128960	54	6008
2026-01-21 15:44:20.33	20.58	5.99	-40.1	-41.2	20.9	0.00e+00	123	41	0	92274688	54	5699
2026-01-21 15:44:21.34	20.54	6.07	-40.4	-41.6	20.5	0.00e+00	123	41	0	94371840	54	5933
2026-01-21 15:44:22.35	20.51	6.14	-40.5	-41.7	20.3	0.00e+00	123	41	0	98566144	54	6055
2026-01-21 15:44:23.36	20.47	6.21	-40.0	-41.1	20.9	0.00e+00	120	41	0	101711872	54	5639
2026-01-21 15:44:24.37	20.44	6.28	-40.0	-41.1	21.0	0.00e+00	123	41	0	104857600	54	5617
2026-01-21 15:44:25.38	20.40	6.36	-40.1	-41.2	20.9	0.00e+00	122	41	0	108003328	54	5692
2026-01-21 15:44:26.39	20.36	6.43	-40.1	-41.2	20.9	0.00e+00	120	41	0	111149056	54	5708
2026-01-21 15:44:27.40	20.32	6.51	-40.1	-41.3	20.9	0.00e+00	122	41	0	114294784	54	5734
2026-01-21 15:44:28.41	20.29	6.58	-40.2	-41.4	20.9	0.00e+00	123	41	0	117440512	52	6515
2026-01-21 15:44:29.42	20.25	6.65	-40.3	-41.4	20.7	0.00e+00	122	41	0	120586240	52	6548
2026-01-21 15:44:30.43	20.21	6.73	-40.5	-41.7	20.5	0.00e+00	122	41	0	123731968	54	6028
2026-01-21 15:44:31.44	20.17	6.80	-40.7	-41.9	20.3	0.00e+00	123	41	0	126877696	54	6144
2026-01-21 15:44:32.46	20.14	6.88	-40.7	-41.9	20.5	0.00e+00	122	41	0	130023424	54	6160
2026-01-21 15:44:33.46	20.10	6.95	-40.0	-41.1	21.1	0.00e+00	122	41	0	133169152	54	5616
2026-01-21 15:44:34.48	20.06	7.03	-40.4	-41.6	20.7	0.00e+00	123	41	0	136314880	54	5931
2026-01-21 15:44:35.49	20.02	7.10	-40.0	-41.2	21.0	0.00e+00	123	41	0	139460608	54	5672
2026-01-21 15:44:36.50	19.98	7.18	-39.9	-41.0	21.3	0.00e+00	123	41	0	142606336	54	5553
2026-01-21 15:44:37.51	19.94	7.26	-39.8	-40.9	21.3	0.00e+00	121	41	0	145752064	54	5515
2026-01-21 15:44:38.52	19.90	7.33	-39.7	-40.8	21.3	0.00e+00	123	41	0	148897792	52	6094
2026-01-21 15:44:39.53	19.86	7.41	-39.8	-40.9	21.4	0.00e+00	123	41	0	152043520	52	6191
2026-01-21 15:44:40.54	19.82	7.49	-39.4	-40.5	21.7	0.00e+00	122	41	0	155189248	52	5894
2026-01-21 15:44:41.55	19.78	7.56	-39.6	-40.7	21.6	0.00e+00	123	41	0	158334976	52	6024
2026-01-21 15:44:42.56	19.74	7.64	-39.2	-40.3	21.8	0.00e+00	123	41	0	161480704	52	5740
2026-01-21 15:44:43.57	19.70	7.72	-39.3	-40.3	21.8	0.00e+00	122	41	0	164626432	52	5786
2026-01-21 15:44:44.58	19.66	7.79	-39.4	-40.4	21.8	0.00e+00	122	41	0	167772160	52	5834
2026-01-21 15:44:45.59	19.62	7.87	-39.1	-40.1	22.0	0.00e+00	123	41	0	170917888	52	5630
2026-01-21 15:44:46.60	19.58	7.95	-39.0	-40.0	22.0	0.00e+00	123	41	0	174063616	52	5593
2026-01-21 15:44:47.61	19.54	8.03	-39.0	-40.1	22.0	0.00e+00	122	41	0	177209344	52	5598
2026-01-21 15:44:48.62	19.49	8.11	-39.0	-40.1	22.1	0.00e+00	122	41	0	180355072	52	5615
2026-01-21 15:44:49.63	19.45	8.18	-39.0	-40.0	22.1	0.00e+00	122	41	0	183500800	52	5584
2026-01-21 15:44:50.64	19.41	8.26	-39.0	-40.0	22.1	0.00e+00	123	41	0	186646528	52	5588
2026-01-21 15:44:51.65	19.37	8.34	-38.9	-39.9	22.2	0.00e+00	123	41	0	189792256	52	5529
2026-01-21 15:44:52.66	19.32	8.42	-38.8	-39.8	22.3	0.00e+00	122	41	0	192937984	50	6094
2026-01-21 15:44:53.67	19.28	8.50	-38.9	-39.9	22.2	0.00e+00	120	41	0	196083712	50	6175
2026-01-21 15:44:54.68	19.24	8.58	-38.8	-39.8	22.3	0.00e+00	123	41	0	199229440	50	6076
2026-01-21 15:44:55.69	19.19	8.66	-38.8	-39.8	22.4	0.00e+00	122	41	0	202375168	50	6075
2026-01-21 15:44:56.70	19.15	8.74	-38.9	-39.9	22.4	0.00e+00	123	41	0	205520896	50	6139
2026-01-21 15:44:57.71	19.10	8.82	-39.0	-40.0	22.2	0.00e+00	123	41	0	208666624	50	6257
2026-01-21 15:44:58.72	19.06	8.90	-38.9	-39.9	22.2	0.00e+00	123	41	0	211812352	50	6201
2026-01-21 15:44:59.73	19.02	8.98	-38.6	-39.6	22.4	0.00e+00	122	41	0	214958080	50	5984
2026-01-21 15:45:00.74	18.97	9.06	-38.6	-39.6	22.5	0.00e+00	123	41	0	218103808	50	5961
2026-01-21 15:45:01.75	18.93	9.14	-38.8	-39.8	22.4	0.00e+00	122	41	0	221249536	50	6068
2026-01-21 15:45:02.76	18.88	9.23	-38.5	-39.5	22.5	0.00e+00	122	41	0	224395264	50	5896
2026-01-21 15:45:03.77	18.83	9.31	-38.5	-39.5	22.6	0.00e+00	123	41	0	227540992	50	5870
2026-01-21 15:45:04.78	18.79	9.39	-38.5	-39.5	22.6	0.00e+00	123	41	0	230686720	50	5920
2026-01-21 15:45:05.79	18.74	9.47	-38.6	-39.6	22.5	0.00e+00	123	41	0	233832448	50	5983
2026-01-21 15:45:06.80	18.69	9.56	-38.3	-39.3	22.7	0.00e+00	123	41	0	236978176	50	5741
2026-01-21 15:45:07.81	18.65	9.64	-38.3	-39.3	22.7	0.00e+00	123	41	0	240123904	50	5776
2026-01-21 15:45:08.82	18.60	9.72	-38.5	-39.5	22.6	0.00e+00	122	41	0	243269632	50	5869
2026-01-21 15:45:09.83	18.55	9.80	-38.3	-39.3	22.7	0.00e+00	123	41	0	246415360	50	5770
2026-01-21 15:45:10.84	18.50	9.89	-38.3	-39.3	22.8	0.00e+00	123	41	0	249561088	50	5758
2026-01-21 15:45:11.85	18.46	9.97	-38.2	-39.2	22.7	0.00e+00	122	41	0	252706816	50	5719
2026-01-21 15:45:12.86	18.41	10.06	-38.3	-39.3	22.7	0.00e+00	123	41	0	255852544	50	5774
2026-01-21 15:45:13.87	18.36	10.14	-38.3	-39.3	22.7	0.00e+00	123	41	0	258998272	50	5750
2026-01-21 15:45:14.88	18.31	10.23	-38.3	-39.3	22.7	0.00e+00	123	41	0	262144000	50	5762
2026-01-21 15:45:15.89	18.26	10.31	-38.3	-39.3	22.7	0.00e+00	122	41	0	265289728	50	5757
2026-01-21 15:45:16.90	18.21	10.40	-38.3	-39.3	22.7	0.00e+00	122	41	0	268435456	50	5760
2026-01-21 15:45:17.91	18.16	10.48	-38.2	-39.2	22.8	0.00e+00	123	41	0	271581184	50	5690
2026-01-21 15:45:18.92	18.11	10.57	-38.2	-39.2	22.8	0.00e+00	122	41	0	274726912	50	5707
2026-01-21 15:45:19.93	18.06	10.65	-38.3	-39.3	22.8	0.00e+00	122	41	0	277872640	50	5728
2026-01-21 15:45:20.94	18.01	10.74	-38.3	-39.3	22.8	0.00e+00	123	41	0	281018368	50	5748
2026-01-21 15:45:21.95	17.96	10.83	-38.4	-39.4	22.8	0.00e+00	123	41	0	284164096	50	5801
2026-01-21 15:45:22.96	17.91	10.91	-38.4	-39.4	22.6	0.00e+00	122	41	0	287309824	50	5801
2026-01-21 15:45:23.97	17.85	11.00	-38.2	-39.2	22.9	0.00e+00	120	41	0	290455552	50	5693
2026-01-21 15:45:24.98	17.80	11.09	-38.3	-39.2	22.9	0.00e+00	123	41	0	293601280	50	5725
2026-01-21 15:45:25.99	17.75	11.18	-38.3	-39.3	22.9	0.00e+00	122	41	0	296747008	50	5760
2026-01-21 15:45:27.00	17.70	11.26	-38.1	-39.1	22.9	0.00e+00	123	41	0	299892736	50	5630
2026-01-21 15:45:28.01	17.64	11.35	-38.2	-39.2	22.8	0.00e+00	123	41	0	303038464	50	5712
2026-01-21 15:45:29.02	17.59	11.44	-38.3	-39.2	23.0	0.00e+00	123	41	0	306184192	50	5721
2026-01-21 15:45:30.03	17.54	11.53	-38.2	-39.2	23.0	0.00e+00	122	41	0	309329920	50	5697
2026-01-21 15:45:31.04	17.48	11.62	-38.4	-39.4	22.8	0.00e+00	120	41	0	312475648	50	5799
2026-01-21 15:45:32.05	17.43	11.71	-38.1	-39.1	23.0	0.00e+00	122	41	0	315621376	50	5623
2026-01-21 15:45:33.06	17.37	11.80	-38.2	-39.2	23.0	0.00e+00	123	41	0	318767104	50	5674
2026-01-21 15:45:34.07	17.32	11.89	-38.1	-39.1	23.1	0.00e+00	122	41	0	321912832	50	5638
2026-01-21 15:45:35.08	17.26	11.98	-38.1	-39.0	23.1	0.00e+00	122	41	0	325058560	50	5581
2026-01-21 15:45:36.09	17.20	12.07	-38.0	-39.0	23.1	0.00e+00	120	41	0	328204288	50	5566
2026-01-21 15:45:37.10	17.15	12.16	-38.0	-38.9	23.2	0.00e+00	123	41	0	331350016	50	5523
2026-01-21 15:45:38.11	17.09	12.25	-37.9	-38.9	23.2	0.00e+00	120	41	0	334495744	50	5485
2026-01-21 15:45:39.12	17.03	12.34	-37.9	-38.9	23.2	0.00e+00	123	41	0	337641472	50	5510
2026-01-21 15:45:40.13	16.98	12.44	-37.8	-38.8	23.3	0.00e+00	122	41	0	340787200	50	5438
2026-01-21 15:45:41.15	16.92	12.53	-37.8	-38.8	23.3	0.00e+00	122	41	0	343932928	50	5419
2026-01-21 15:45:42.16	16.86	12.62	-37.8	-38.7	23.3	0.00e+00	122	41	0	347078656	48	6058
2026-01-21 15:45:43.17	16.80	12.71	-37.7	-38.6	23.4	0.00e+00	122	41	0	350224384	48	5974
2026-01-21 15:45:44.18	16.74	12.81	-37.6	-38.5	23.5	0.00e+00	120	41	0	353370112	48	5901
2026-01-21 15:45:45.19	16.68	12.90	-37.6	-38.6	23.6	0.00e+00	122	41	0	356515840	48	5943
2026-01-21 15:45:46.20	16.62	12.99	-37.6	-38.5	23.5	0.00e+00	123	41	0	360710144	48	5916
2026-01-21 15:45:47.21	16.56	13.09	-37.6	-38.5	23.6	0.00e+00	123	41	0	362807296	48	5921
2026-01-21 15:45:48.22	16.50	13.18	-37.5	-38.5	23.6	0.00e+00	123	41	0	365953024	48	5862
2026-01-21 15:45:49.23	16.44	13.28	-37.6	-38.6	23.5	0.00e+00	123	41	0	369098752	48	5954
2026-01-21 15:45:50.24	16.38	13.37	-37.5	-38.4	23.7	0.00e+00	122	41	0	373293056	48	5835
2026-01-21 15:45:51.25	16.31	13.47	-37.7	-38.6	23.7	0.00e+00	120	41	0	376438784	48	5953
2026-01-21 15:45:52.26	16.25	13.57	-37.5	-38.4	23.8	0.00e+00	123	41	0	379584512	48	5823
2026-01-21 15:45:53.27	16.19	13.66	-37.4	-38.4	23.6	0.00e+00	122	41	0	382730240	48	5810
2026-01-21 15:45:54.29	16.12	13.76	-37.4	-38.3	23.7	0.00e+00	122	41	0	385875968	48	5784
2026-01-21 15:45:55.29	16.06	13.86	-37.4	-38.3	23.7	0.00e+00	122	41	0	389021696	48	5778
2026-01-21 15:45:56.30	16.00	13.95	-37.5	-38.4	23.6	0.00e+00	122	41	0	392167424	48	5842
2026-01-21 15:45:57.31	15.93	14.05	-37.3	-38.3	23.8	0.00e+00	120	41	0	395313152	48	5732
2026-01-21 15:45:58.33	15.87	14.15	-37.4	-38.3	23.7	0.00e+00	123	42	0	398458880	48	5744
2026-01-21 15:45:59.34	15.80	14.25	-37.4	-38.3	23.7	0.00e+00	123	41	0	401604608	48	5742
2026-01-21 15:46:00.34	15.73	14.35	-37.4	-38.3	23.6	0.00e+00	122	42	0	404750336	48	5770
2026-01-21 15:46:01.35	15.67	14.44	-37.5	-38.4	23.7	0.00e+00	120	42	0	407896064	48	5822
2026-01-21 15:46:02.36	15.60	14.54	-37.5	-38.4	23.6	0.00e+00	123	41	0	411041792	48	5853
2026-01-21 15:46:03.37	15.53	14.64	-37.5	-38.5	23.7	0.00e+00	122	41	0	414187520	48	5883
2026-01-21 15:46:04.38	15.47	14.74	-37.7	-38.6	23.5	0.00e+00	122	41	0	417333248	48	5975
2026-01-21 15:46:05.39	15.40	14.84	-37.5	-38.5	23.6	0.00e+00	120	42	0	420478976	48	5863
2026-01-21 15:46:06.40	15.33	14.95	-37.4	-38.3	23.7	0.00e+00	123	42	0	423624704	48	5776
2026-01-21 15:46:07.42	15.26	15.05	-37.6	-38.5	23.6	0.00e+00	122	42	0	426770432	48	5887
2026-01-21 15:46:08.43	15.19	15.15	-37.6	-38.5	23.7	0.00e+00	120	42	0	429916160	48	5911
2026-01-21 15:46:09.43	15.12	15.25	-37.7	-38.6	23.6	0.00e+00	123	41	0	433061888	48	5963
2026-01-21 15:46:10.45	15.05	15.35	-37.6	-38.6	23.5	0.00e+00	120	42	0	436207616	48	5949
2026-01-21 15:46:11.46	14.97	15.46	-37.6	-38.6	23.6	0.00e+00	122	41	0	439353344	48	5938
2026-01-21 15:46:12.47	14.90	15.56	-37.7	-38.6	23.6	0.00e+00	123	42	0	442499072	48	5963
2026-01-21 15:46:13.48	14.83	15.66	-37.6	-38.6	23.6	0.00e+00	122	41	0	445644800	48	5952
2026-01-21 15:46:14.49	14.76	15.77	-37.6	-38.6	23.6	0.00e+00	122	42	0	448790528	48	5963
2026-01-21 15:46:15.50	14.68	15.87	-37.6	-38.6	23.6	0.00e+00	122	41	0	451936256	48	5939
2026-01-21 15:46:16.51	14.61	15.98	-37.6	-38.5	23.6	0.00e+00	123	42	0	455081984	48	5899
2026-01-21 15:46:17.52	14.53	16.08	-37.7	-38.7	23.5	0.00e+00	122	42	0	458227712	48	6016
2026-01-21 15:46:18.53	14.46	16.19	-37.8	-38.8	23.5	0.00e+00	123	42	0	461373440	48	6073
2026-01-21 15:46:19.54	14.38	16.29	-37.9	-38.8	23.5	0.00e+00	123	41	0	464519168	48	6132
2026-01-21 15:46:20.55	14.31	16.40	-37.7	-38.6	23.6	0.00e+00	123	42	0	467664896	48	5954
2026-01-21 15:46:21.56	14.23	16.51	-37.7	-38.6	23.6	0.00e+00	123	41	0	470810624	48	5957
2026-01-21 15:46:22.57	14.15	16.61	-37.8	-38.8	23.6	0.00e+00	123	41	0	473956352	48	6080
2026-01-21 15:46:23.58	14.07	16.72	-37.8	-38.7	23.6	0.00e+00	122	42	0	477102080	48	6039
2026-01-21 15:46:24.60	13.99	16.83	-37.8	-38.8	23.4	0.00e+00	123	42	0	480247808	48	6066
2026-01-21 15:46:25.61	13.91	16.94	-37.8	-38.8	23.5	0.00e+00	120	41	0	483393536	48	6071
2026-01-21 15:46:26.62	13.83	17.05	-37.9	-38.9	23.4	0.00e+00	123	41	0	486539264	48	6157
2026-01-21 15:46:27.63	13.75	17.16	-37.7	-38.7	23.5	0.00e+00	122	41	0	489684992	48	6005
2026-01-21 15:46:28.64	13.67	17.27	-37.9	-38.8	23.3	0.00e+00	123	41	0	492830720	48	6132
2026-01-21 15:46:29.65	13.59	17.38	-38.0	-38.9	23.3	0.00e+00	121	41	0	495976448	48	6184
2026-01-21 15:46:30.66	13.51	17.49	-38.0	-39.0	23.3	0.00e+00	123	41	0	499122176	48	6237
2026-01-21 15:46:31.67	13.43	17.60	-38.0	-39.0	23.2	0.00e+00	122	41	0	502267904	48	6245
2026-01-21 15:46:32.68	13.34	17.71	-38.0	-39.0	23.2	0.00e+00	123	41	0	505413632	48	6224
2026-01-21 15:46:33.69	13.26	17.82	-37.9	-38.9	23.4	0.00e+00	120	42	0	508559360	48	6151
2026-01-21 15:46:34.70	13.17	17.93	-38.2	-39.1	23.2	0.00e+00	123	41	0	511705088	48	6332
2026-01-21 15:46:35.71	13.09	18.05	-38.2	-39.2	23.1	0.00e+00	123	41	0	514850816	48	6362
2026-01-21 15:46:36.72	13.00	18.16	-38.2	-39.2	23.1	0.00e+00	122	41	0	517996544	48	6404
2026-01-21 15:46:37.73	12.91	18.27	-38.3	-39.3	23.1	0.00e+00	123	42	0	521142272	48	6469
2026-01-21 15:46:38.74	12.83	18.39	-38.2	-39.1	23.3	0.00e+00	123	42	0	524288000	48	6330
2026-01-21 15:46:39.75	12.74	18.50	-38.2	-39.2	23.2	0.00e+00	122	42	0	527433728	48	6353
2026-01-21 15:46:40.76	12.65	18.62	-38.1	-39.1	23.2	0.00e+00	122	42	0	530579456	48	6326
2026-01-21 15:46:41.77	12.56	18.73	-38.1	-39.1	23.4	0.00e+00	123	42	0	533725184	48	6314
2026-01-21 15:46:42.78	12.47	18.85	-38.2	-39.2	23.2	0.00e+00	120	41	0	536870912	48	6374
2026-01-21 15:46:43.79	12.38	18.97	-38.1	-39.1	23.3	0.00e+00	122	42	0	540016640	48	6299
2026-01-21 15:46:44.79	12.29	19.08	-38.0	-39.0	23.4	0.00e+00	120	42	0	543162368	48	6231
2026-01-21 15:46:45.80	12.19	19.20	-38.2	-39.1	23.3	0.00e+00	120	42	0	546308096	48	6336
2026-01-21 15:46:46.82	12.10	19.32	-38.1	-39.0	23.4	0.00e+00	122	42	0	549453824	48	6238
2026-01-21 15:46:47.83	12.00	19.44	-37.7	-38.6	23.6	0.00e+00	122	42	0	552599552	48	5979
2026-01-21 15:46:48.84	11.91	19.56	-37.8	-38.7	23.5	0.00e+00	122	42	0	555745280	48	6061
2026-01-21 15:46:49.85	11.81	19.68	-37.7	-38.6	23.6	0.00e+00	122	42	0	558891008	48	5976
2026-01-21 15:46:50.86	11.72	19.80	-37.7	-38.6	23.6	0.00e+00	122	41	0	562036736	48	5958
2026-01-21 15:46:51.87	11.62	19.92	-37.6	-38.6	23.7	0.00e+00	122	42	0	565182464	48	5938
2026-01-21 15:46:52.88	11.52	20.04	-37.6	-38.6	23.7	0.00e+00	122	42	0	568328192	48	5931
2026-01-21 15:46:53.89	11.42	20.16	-37.6	-38.6	23.7	0.00e+00	123	42	0	571473920	48	5946
2026-01-21 15:46:54.90	11.32	20.28	-37.6	-38.5	23.7	0.00e+00	123	42	0	574619648	48	5882
2026-01-21 15:46:55.91	11.22	20.40	-37.2	-38.1	24.0	0.00e+00	122	42	0	577765376	48	5626
2026-01-21 15:46:56.92	11.12	20.53	-37.3	-38.2	24.0	0.00e+00	120	42	0	580911104	48	5675
2026-01-21 15:46:57.93	11.02	20.65	-37.2	-38.1	24.1	0.00e+00	121	42	0	584056832	48	5649
2026-01-21 15:46:58.94	10.91	20.77	-37.2	-38.1	24.1	0.00e+00	122	41	0	587202560	48	5616
2026-01-21 15:46:59.95	10.81	20.90	-37.1	-38.0	24.2	0.00e+00	123	42	0	590348288	48	5547
2026-01-21 15:47:00.96	10.71	21.02	-37.0	-37.9	24.2	0.00e+00	123	42	0	593494016	48	5510
2026-01-21 15:47:01.97	10.60	21.15	-37.0	-38.0	24.1	0.00e+00	122	42	0	596639744	48	5547
2026-01-21 15:47:02.98	10.49	21.27	-36.9	-37.8	24.3	0.00e+00	122	42	0	599785472	48	5442
2026-01-21 15:47:03.99	10.39	21.40	-36.8	-37.7	24.5	0.00e+00	122	42	0	602931200	48	5374
2026-01-21 15:47:05.01	10.28	21.53	-36.9	-37.8	24.3	0.00e+00	123	42	0	606076928	48	5442
2026-01-21 15:47:06.02	10.17	21.66	-36.6	-37.5	24.5	0.00e+00	120	42	0	609222656	46	5884
2026-01-21 15:47:07.03	10.06	21.78	-36.7	-37.6	24.6	0.00e+00	120	42	0	612368384	46	5948
2026-01-21 15:47:08.04	9.95	21.91	-36.5	-37.4	24.7	0.00e+00	122	42	0	615514112	46	5824
2026-01-21 15:47:09.04	9.83	22.04	-36.5	-37.4	24.6	0.00e+00	122	42	0	618659840	46	5829
2026-01-21 15:47:10.05	9.72	22.17	-36.4	-37.3	24.7	0.00e+00	122	42	0	621805568	46	5780
2026-01-21 15:47:11.06	9.61	22.30	-36.4	-37.3	24.6	0.00e+00	122	42	0	624951296	46	5766
2026-01-21 15:47:12.07	9.49	22.43	-36.3	-37.2	24.7	0.00e+00	121	42	0	628097024	46	5700
2026-01-21 15:47:13.08	9.38	22.56	-36.5	-37.4	24.6	0.00e+00	123	42	0	631242752	46	5840
2026-01-21 15:47:14.09	9.26	22.69	-36.4	-37.3	24.7	0.00e+00	122	42	0	634388480	46	5753
2026-01-21 15:47:15.10	9.14	22.83	-36.5	-37.4	24.7	0.00e+00	123	42	0	637534208	46	5801
2026-01-21 15:47:16.11	9.02	22.96	-36.6	-37.5	24.5	0.00e+00	120	42	0	640679936	46	5908
2026-01-21 15:47:17.12	8.90	23.09	-36.7	-37.6	24.5	0.00e+00	122	42	0	643825664	46	5980
2026-01-21 15:47:18.13	8.78	23.23	-36.8	-37.7	24.5	0.00e+00	122	42	0	646971392	46	6057
2026-01-21 15:47:19.14	8.66	23.36	-36.9	-37.8	24.3	0.00e+00	120	42	0	651165696	46	6121
2026-01-21 15:47:20.15	8.53	23.50	-37.0	-37.9	24.3	0.00e+00	122	42	0	654311424	46	6166
2026-01-21 15:47:21.16	8.41	23.63	-36.8	-37.7	24.5	0.00e+00	123	42	0	656408576	46	6040
2026-01-21 15:47:22.17	8.28	23.77	-36.6	-37.5	24.7	0.00e+00	122	42	0	659554304	46	5864
2026-01-21 15:47:23.18	8.16	23.90	-36.6	-37.5	24.6	0.00e+00	121	42	0	662700032	46	5861
2026-01-21 15:47:24.19	8.03	24.04	-36.8	-37.7	24.5	0.00e+00	122	42	0	665845760	46	6003
2026-01-21 15:47:25.20	7.90	24.18	-36.6	-37.5	24.7	0.00e+00	120	42	0	670040064	46	5869
2026-01-21 15:47:26.21	7.77	24.32	-36.6	-37.4	24.8	0.00e+00	123	42	0	673185792	46	5855
2026-01-21 15:47:27.22	7.64	24.46	-36.5	-37.4	24.7	0.00e+00	120	42	0	676331520	46	5820
2026-01-21 15:47:28.23	7.50	24.60	-36.6	-37.5	24.6	0.00e+00	123	42	0	679477248	46	5872
2026-01-21 15:47:29.24	7.37	24.74	-36.7	-37.6	24.4	0.00e+00	120	42	0	682622976	46	5949
2026-01-21 15:47:30.25	7.24	24.88	-36.8	-37.7	24.3	0.00e+00	122	42	0	685768704	46	6002
2026-01-21 15:47:31.26	7.10	25.02	-36.8	-37.8	24.4	0.00e+00	123	42	0	688914432	46	6065
2026-01-21 15:47:32.27	6.96	25.16	-36.9	-37.8	24.2	0.00e+00	123	42	0	692060160	46	6089
2026-01-21 15:47:33.28	6.82	25.30	-37.0	-37.9	24.2	0.00e+00	123	42	0	695205888	46	6149
2026-01-21 15:47:34.29	6.68	25.45	-37.0	-37.9	24.1	0.00e+00	122	42	0	698351616	46	6182
2026-01-21 15:47:35.31	6.54	25.59	-37.0	-38.0	24.2	0.00e+00	123	42	0	701497344	46	6217
2026-01-21 15:47:36.31	6.40	25.73	-37.1	-37.9	24.3	0.00e+00	123	42	0	704643072	46	6203
2026-01-21 15:47:37.32	6.25	25.88	-37.2	-38.1	24.1	0.00e+00	122	42	0	707788800	46	6287
2026-01-21 15:47:38.33	6.11	26.03	-37.3	-38.2	24.1	0.00e+00	122	42	0	710934528	46	6373
2026-01-21 15:47:39.34	5.96	26.17	-37.3	-38.2	24.0	0.00e+00	123	42	0	714080256	46	6411
2026-01-21 15:47:40.35	5.81	26.32	-37.5	-38.4	23.9	0.00e+00	122	42	0	717225984	46	6562
2026-01-21 15:47:41.36	5.66	26.46	-37.6	-38.5	23.8	0.00e+00	122	42	0	720371712	46	6633
2026-01-21 15:47:42.37	5.51	26.61	-37.6	-38.5	23.8	0.00e+00	122	42	0	723517440	46	6637
2026-01-21 15:47:43.38	5.36	26.76	-37.5	-38.4	23.9	0.00e+00	122	42	0	726663168	46	6560
2026-01-21 15:47:44.39	5.20	26.91	-37.5	-38.4	23.8	0.00e+00	122	42	0	729808896	46	6565
2026-01-21 15:47:45.40	5.05	27.06	-37.6	-38.5	23.7	0.00e+00	123	42	0	732954624	46	6612
2026-01-21 15:47:46.41	4.89	27.21	-37.8	-38.7	23.5	0.00e+00	123	42	0	736100352	46	6770
2026-01-21 15:47:47.42	4.73	27.36	-37.7	-38.7	23.5	0.00e+00	122	42	0	739246080	48	6010
2026-01-21 15:47:48.43	4.57	27.51	-37.8	-38.8	23.4	0.00e+00	123	42	0	742391808	48	6108
2026-01-21 15:47:49.44	4.41	27.66	-38.0	-39.0	23.4	0.00e+00	123	42	0	745537536	48	6254
2026-01-21 15:47:50.45	4.25	27.82	-37.9	-38.9	23.5	0.00e+00	122	42	0	748683264	48	6166
2026-01-21 15:47:51.46	4.08	27.97	-37.9	-38.8	23.6	0.00e+00	122	42	0	751828992	48	6121
2026-01-21 15:47:52.48	3.92	28.12	-37.8	-38.8	23.7	0.00e+00	122	42	0	754974720	48	6075
2026-01-21 15:47:53.49	3.75	28.28	-37.7	-38.7	23.8	0.00e+00	122	42	0	758120448	48	5995
2026-01-21 15:47:54.50	3.58	28.43	-37.5	-38.4	23.9	0.00e+00	123	42	0	761266176	48	5855
2026-01-21 15:47:55.51	3.41	28.59	-37.5	-38.5	23.9	0.00e+00	123	42	0	764411904	48	5867
2026-01-21 15:47:56.52	3.23	28.74	-37.4	-38.3	24.0	0.00e+00	123	42	0	767557632	48	5755
2026-01-21 15:47:57.53	3.06	28.90	-37.4	-38.3	24.0	0.00e+00	122	42	0	770703360	48	5751
2026-01-21 15:47:58.54	2.88	29.06	-37.4	-38.3	23.9	0.00e+00	123	42	0	773849088	48	5769
2026-01-21 15:47:59.55	2.70	29.21	-37.6	-38.6	23.7	0.00e+00	123	42	0	776994816	48	5929
2026-01-21 15:48:00.56	2.52	29.37	-37.6	-38.5	23.8	0.00e+00	123	42	0	780140544	48	5891
2026-01-21 15:48:01.57	2.34	29.53	-37.7	-38.6	23.7	0.00e+00	123	42	0	783286272	48	5972
2026-01-21 15:48:02.58	2.16	29.69	-37.7	-38.6	23.8	0.00e+00	123	42	0	786432000	48	5984
2026-01-21 15:48:03.59	1.97	29.85	-37.9	-38.9	23.6	0.00e+00	120	42	0	789577728	48	6153
2026-01-21 15:48:04.60	1.78	30.01	-37.9	-38.9	23.6	0.00e+00	123	42	0	792723456	48	6153
2026-01-21 15:48:05.61	1.59	30.17	-37.7	-38.6	23.8	0.00e+00	120	42	0	795869184	48	5960
2026-01-21 15:48:06.62	1.40	30.33	-37.7	-38.6	23.9	0.00e+00	120	42	0	799014912	48	5945
2026-01-21 15:48:07.63	1.21	30.50	-37.6	-38.6	23.9	0.00e+00	123	42	0	802160640	48	5927
2026-01-21 15:48:08.64	1.01	30.66	-37.7	-38.6	23.8	0.00e+00	123	42	0	805306368	48	5946
2026-01-21 15:48:09.65	0.81	30.82	-37.4	-38.3	24.1	0.00e+00	122	42	0	808452096	48	5775
2026-01-21 15:48:10.66	0.62	30.98	-37.5	-38.4	23.9	0.00e+00	120	42	0	811597824	48	5815
2026-01-21 15:48:11.68	0.41	31.15	-37.8	-38.8	23.5	0.00e+00	123	42	0	814743552	48	6079
2026-01-21 15:48:12.69	0.21	31.32	-37.6	-38.5	23.7	0.00e+00	123	42	0	817889280	48	5911
2026-01-21 15:48:13.70	0.00	31.48	-37.7	-38.7	23.6	0.00e+00	122	42	0	821035008	48	6035
2026-01-21 15:48:14.71	359.79	31.65	-37.6	-38.5	23.7	0.00e+00	120	42	0	824180736	48	5926
2026-01-21 15:48:15.72	359.58	31.81	-37.7	-38.7	23.7	0.00e+00	122	42	0	827326464	48	6005
2026-01-21 15:48:16.73	359.37	31.98	-37.6	-38.5	23.9	0.00e+00	122	42	0	830472192	48	5915
2026-01-21 15:48:17.74	359.16	32.15	-37.6	-38.5	23.9	0.00e+00	123	42	0	833617920	48	5904
2026-01-21 15:48:18.75	358.94	32.31	-37.4	-38.4	24.1	0.00e+00	120	42	0	836763648	48	5806
2026-01-21 15:48:19.76	358.72	32.48	-37.6	-38.5	23.9	0.00e+00	122	42	0	839909376	48	5878
2026-01-21 15:48:20.77	358.50	32.65	-37.4	-38.3	24.1	0.00e+00	123	42	0	843055104	48	5770
2026-01-21 15:48:21.78	358.28	32.82	-37.3	-38.2	24.2	0.00e+00	122	42	0	846200832	48	5679
2026-01-21 15:48:22.79	358.05	32.99	-37.3	-38.3	24.1	0.00e+00	122	42	0	849346560	48	5736
2026-01-21 15:48:23.80	357.82	33.16	-37.4	-38.3	24.0	0.00e+00	123	42	0	852492288	48	5779
2026-01-21 15:48:24.81	357.59	33.33	-37.6	-38.5	23.9	0.00e+00	122	42	0	855638016	48	5906
2026-01-21 15:48:25.82	357.36	33.50	-37.6	-38.6	23.9	0.00e+00	120	42	0	858783744	48	5940
2026-01-21 15:48:26.83	357.12	33.67	-37.8	-38.7	23.8	0.00e+00	123	42	0	861929472	48	6046
2026-01-21 15:48:27.84	356.88	33.84	-37.8	-38.8	23.7	0.00e+00	123	42	0	865075200	48	6068
2026-01-21 15:48:28.85	356.64	34.01	-38.0	-38.9	23.6	0.00e+00	122	42	0	868220928	48	6153
2026-01-21 15:48:29.86	356.40	34.19	-37.9	-38.9	23.5	0.00e+00	123	42	0	871366656	48	6148
2026-01-21 15:48:30.87	356.15	34.36	-38.1	-39.0	23.4	0.00e+00	122	42	0	874512384	48	6248
2026-01-21 15:48:31.88	355.90	34.53	-38.2	-39.2	23.3	0.00e+00	123	42	0	877658112	48	6383
2026-01-21 15:48:32.89	355.65	34.71	-38.5	-39.4	23.1	0.00e+00	120	42	0	880803840	48	6554
2026-01-21 15:48:33.91	355.39	34.88	-38.5	-39.5	23.1	0.00e+00	123	42	0	883949568	48	6605
2026-01-21 15:48:34.92	355.14	35.05	-38.7	-39.7	23.0	0.00e+00	120	42	0	887095296	50	5995
2026-01-21 15:48:35.93	354.88	35.23	-38.9	-39.9	22.8	0.00e+00	123	42	0	890241024	50	6176
2026-01-21 15:48:36.94	354.61	35.40	-39.1	-40.1	22.6	0.00e+00	123	42	0	893386752	50	6288
2026-01-21 15:48:37.95	354.35	35.58	-39.2	-40.2	22.5	0.00e+00	122	42	0	896532480	50	6394
2026-01-21 15:48:38.96	354.08	35.75	-39.4	-40.4	22.3	0.00e+00	123	42	0	899678208	50	6540
2026-01-21 15:48:39.97	353.81	35.93	-39.4	-40.5	22.3	0.00e+00	123	42	0	902823936	50	6595
2026-01-21 15:48:40.98	353.53	36.10	-39.5	-40.5	22.3	0.00e+00	122	42	0	905969664	50	6648
2026-01-21 15:48:41.99	353.26	36.28	-39.6	-40.7	22.2	0.00e+00	123	42	0	909115392	50	6751
2026-01-21 15:48:43.00	352.98	36.46	-39.7	-40.8	22.1	0.00e+00	123	42	0	912261120	52	6081
2026-01-21 15:48:44.01	352.69	36.63	-39.8	-40.8	22.1	0.00e+00	123	42	0	915406848	52	6114
2026-01-21 15:48:45.02	352.40	36.81	-39.9	-41.0	21.9	0.00e+00	122	42	0	918552576	52	6208
2026-01-21 15:48:46.03	352.12	36.98	-39.8	-40.9	21.9	0.00e+00	120	42	0	921698304	52	6183
2026-01-21 15:48:47.04	351.82	37.16	-39.8	-40.8	22.0	0.00e+00	122	42	0	924844032	52	6123
2026-01-21 15:48:48.05	351.53	37.34	-39.8	-40.9	22.0	0.00e+00	122	42	0	927989760	52	6142
2026-01-21 15:48:49.06	351.23	37.51	-39.6	-40.6	22.4	0.00e+00	123	42	0	931135488	52	5957
2026-01-21 15:48:50.07	350.92	37.69	-39.2	-40.2	22.6	0.00e+00	120	42	0	934281216	52	5692
2026-01-21 15:48:51.08	350.62	37.87	-39.3	-40.3	22.6	0.00e+00	123	42	0	937426944	52	5736
2026-01-21 15:48:52.09	350.31	38.04	-39.1	-40.1	22.7	0.00e+00	122	42	0	941621248	52	5613
2026-01-21 15:48:53.11	349.99	38.22	-39.0	-39.9	22.9	0.00e+00	122	42	0	944766976	52	5525
2026-01-21 15:48:54.12	349.67	38.40	-38.8	-39.8	22.9	0.00e+00	122	42	0	947912704	52	5424
2026-01-21 15:48:55.13	349.35	38.57	-38.8	-39.8	22.7	0.00e+00	123	42	0	950009856	52	5442
2026-01-21 15:48:56.14	349.03	38.75	-38.9	-39.9	22.6	0.00e+00	120	42	0	953155584	52	5510
2026-01-21 15:48:57.15	348.70	38.93	-39.0	-40.0	22.6	0.00e+00	122	42	0	957349888	52	5587
2026-01-21 15:48:58.16	348.37	39.10	-38.9	-39.9	23.0	0.00e+00	122	42	0	960495616	52	5480
2026-01-21 15:48:59.17	348.04	39.28	-39.1	-40.0	22.8	0.00e+00	123	42	0	963641344	52	5594
2026-01-21 15:49:00.18	347.70	39.45	-39.0	-40.0	22.7	0.00e+00	123	42	0	966787072	52	5566
2026-01-21 15:49:01.19	347.36	39.63	-39.0	-40.0	22.7	0.00e+00	123	42	0	969932800	52	5589
2026-01-21 15:49:02.20	347.01	39.80	-39.2	-40.2	22.6	0.00e+00	124	42	0	973078528	52	5677
2026-01-21 15:49:03.20	346.67	39.97	-39.3	-40.3	22.6	0.00e+00	123	42	0	976224256	52	5777
2026-01-21 15:49:04.22	346.31	40.15	-39.4	-40.5	22.5	0.00e+00	122	42	0	979369984	52	5871
2026-01-21 15:49:05.23	345.96	40.32	-39.6	-40.6	22.3	0.00e+00	123	42	0	982515712	52	5991
2026-01-21 15:49:06.24	345.60	40.50	-39.3	-40.4	22.4	0.00e+00	122	42	0	985661440	52	5801
2026-01-21 15:49:07.25	345.23	40.67	-39.4	-40.4	22.5	0.00e+00	122	42	0	988807168	52	5797
2026-01-21 15:49:08.26	344.86	40.84	-39.6	-40.7	22.3	0.00e+00	122	42	0	991952896	52	6001
2026-01-21 15:49:09.27	344.49	41.01	-39.8	-40.8	22.2	0.00e+00	123	42	0	995098624	52	6099
2026-01-21 15:49:10.28	344.11	41.19	-40.0	-41.1	21.9	0.00e+00	123	42	0	998244352	52	6296
2026-01-21 15:49:11.29	343.73	41.36	-40.0	-41.0	22.0	0.00e+00	123	42	0	1001390080	52	6253
2026-01-21 15:49:12.30	343.35	41.53	-40.0	-41.0	21.9	0.00e+00	123	42	0	1004535808	52	6276
2026-01-21 15:49:13.31	342.96	41.70	-40.1	-41.2	21.9	0.00e+00	124	42	0	1007681536	52	6366
2026-01-21 15:49:14.32	342.57	41.86	-40.3	-41.3	21.7	0.00e+00	122	42	0	1010827264	52	6497
2026-01-21 15:49:15.33	342.17	42.03	-40.2	-41.3	21.8	0.00e+00	122	42	0	1013972992	52	6440
2026-01-21 15:49:16.34	341.77	42.20	-40.4	-41.5	21.6	0.00e+00	122	42	0	1017118720	52	6610
2026-01-21 15:49:17.35	341.36	42.36	-40.6	-41.7	21.3	0.00e+00	122	42	0	1020264448	52	6761
2026-01-21 15:49:18.36	340.95	42.53	-40.8	-41.9	21.3	0.00e+00	120	42	0	1023410176	52	6911
2026-01-21 15:49:19.37	340.54	42.69	-40.7	-41.8	21.4	0.00e+00	123	42	0	1026555904	54	6085
2026-01-21 15:49:20.38	340.12	42.86	-40.8	-42.0	21.1	0.00e+00	123	42	0	1029701632	54	6221
2026-01-21 15:49:21.40	339.70	43.02	-40.9	-42.1	21.0	0.00e+00	123	42	0	1032847360	54	6309
2026-01-21 15:49:22.41	339.27	43.18	-41.2	-42.4	20.8	0.00e+00	123	42	0	1035993088	54	6512
2026-01-21 15:49:23.42	338.84	43.34	-41.2	-42.4	20.8	0.00e+00	122	42	0	1039138816	54	6513
2026-01-21 15:49:24.42	338.41	43.50	-40.8	-41.9	21.2	0.00e+00	123	42	0	1042284544	54	6189
2026-01-21 15:49:25.43	337.97	43.66	-40.5	-41.7	21.4	0.00e+00	122	42	0	1045430272	54	6001
2026-01-21 15:49:26.44	337.52	43.81	-40.5	-41.6	21.4	0.00e+00	120	42	0	1048576000	54	5982
2026-01-21 15:49:27.45	337.07	43.97	-40.4	-41.5	21.6	0.00e+00	122	42	0	1051721728	54	5907
2026-01-21 15:49:28.47	336.62	44.12	-40.4	-41.6	21.5	0.00e+00	123	42	0	1054867456	54	5942
2026-01-21 15:49:29.48	336.16	44.28	-40.0	-41.1	21.9	0.00e+00	120	42	0	1058013184	54	5615
2026-01-21 15:49:30.49	335.70	44.43	-40.0	-41.0	22.0	0.00e+00	123	42	0	1061158912	54	5582
2026-01-21 15:49:31.50	335.23	44.58	-39.9	-40.9	22.1	0.00e+00	120	42	0	1064304640	54	5512
2026-01-21 15:49:32.51	334.76	44.72	-39.4	-40.5	22.4	0.00e+00	123	42	0	1067450368	52	5868
2026-01-21 15:49:33.52	334.29	44.87	-39.5	-40.5	22.3	0.00e+00	120	42	0	1070596096	52	5891
2026-01-21 15:49:34.53	333.81	45.01	-39.6	-40.7	22.2	0.00e+00	122	42	0	1073741824	52	6011
2026-01-21 15:49:35.54	333.32	45.16	-39.8	-40.9	22.1	0.00e+00	122	42	0	1076887552	52	6136
2026-01-21 15:49:36.55	332.84	45.30	-40.0	-41.1	21.9	0.00e+00	120	42	0	1080033280	52	6298
2026-01-21 15:49:37.56	332.34	45.44	-40.2	-41.3	21.6	0.00e+00	123	42	0	1083179008	52	6460
2026-01-21 15:49:38.57	331.85	45.57	-40.2	-41.3	21.6	0.00e+00	120	42	0	1086324736	52	6463
2026-01-21 15:49:39.58	331.35	45.71	-40.6	-41.8	21.1	0.00e+00	122	42	0	1089470464	52	6813
2026-01-21 15:49:40.59	330.84	45.84	-40.5	-41.7	21.3	0.00e+00	123	42	0	1092616192	54	5995
2026-01-21 15:49:41.60	330.33	45.97	-40.5	-41.6	21.5	0.00e+00	123	42	0	1095761920	54	5987
2026-01-21 15:49:42.61	329.82	46.10	-40.4	-41.5	21.6	0.00e+00	123	42	0	1098907648	54	5869
2026-01-21 15:49:43.62	329.30	46.23	-40.6	-41.7	21.4	0.00e+00	123	42	0	1102053376	54	6046
2026-01-21 15:49:44.63	328.78	46.35	-40.7	-41.9	21.1	0.00e+00	123	42	0	1105199104	54	6157
2026-01-21 15:49:45.64	328.25	46.47	-40.9	-42.0	21.1	0.00e+00	122	42	0	1108344832	54	6259
2026-01-21 15:49:46.65	327.72	46.59	-40.2	-41.3	21.8	0.00e+00	123	42	0	1111490560	54	5777
2026-01-21 15:49:47.66	327.18	46.71	-40.1	-41.2	21.9	0.00e+00	123	42	0	1114636288	54	5706
2026-01-21 15:49:48.67	326.65	46.83	-40.4	-41.5	21.4	0.00e+00	122	42	0	1117782016	54	5874
2026-01-21 15:49:49.69	326.10	46.94	-40.5	-41.6	21.5	0.00e+00	120	42	0	1120927744	54	5967
2026-01-21 15:49:50.70	325.55	47.05	-40.1	-41.2	21.8	0.00e+00	123	42	0	1124073472	54	5666
2026-01-21 15:49:51.71	325.00	47.16	-40.0	-41.1	21.8	0.00e+00	122	42	0	1127219200	54	5630
2026-01-21 15:49:52.72	324.45	47.26	-39.9	-40.9	22.1	0.00e+00	123	42	0	1130364928	54	5524
2026-01-21 15:49:53.73	323.89	47.36	-40.0	-41.1	21.9	0.00e+00	123	42	0	1133510656	52	6333
2026-01-21 15:49:54.74	323.33	47.46	-40.1	-41.2	21.7	0.00e+00	122	42	0	1136656384	52	6394
2026-01-21 15:49:55.75	322.76	47.56	-40.2	-41.3	21.6	0.00e+00	122	42	0	1139802112	52	6471
2026-01-21 15:49:56.76	322.19	47.65	-39.9	-41.0	22.1	0.00e+00	122	42	0	1142947840	52	6236
2026-01-21 15:49:57.77	321.62	47.74	-40.0	-41.1	21.9	0.00e+00	123	42	0	1146093568	52	6290
2026-01-21 15:49:58.78	321.05	47.83	-40.3	-41.4	21.5	0.00e+00	120	42	0	1149239296	52	6539
2026-01-21 15:49:59.79	320.47	47.92	-41.0	-42.2	20.9	0.00e+00	123	42	0	1152385024	54	6422
2026-01-21 15:50:00.80	319.88	48.00	-41.2	-42.4	20.8	0.00e+00	122	42	0	1155530752	54	6551
2026-01-21 15:50:01.81	319.30	48.08	-40.9	-42.1	21.0	0.00e+00	122	42	0	1158676480	54	6287
2026-01-21 15:50:02.82	318.71	48.15	-40.6	-41.8	21.4	0.00e+00	123	42	0	1161822208	54	6090
2026-01-21 15:50:03.83	318.12	48.23	-40.5	-41.6	21.4	0.00e+00	120	42	0	1164967936	54	5991
2026-01-21 15:50:04.84	317.53	48.29	-40.2	-41.3	21.7	0.00e+00	123	42	0	1168113664	54	5771
2026-01-21 15:50:05.85	316.93	48.36	-40.0	-41.1	21.9	0.00e+00	120	42	0	1171259392	54	5622
2026-01-21 15:50:06.86	316.33	48.42	-39.7	-40.8	22.1	0.00e+00	123	42	0	1174405120	52	6067
2026-01-21 15:50:07.87	315.73	48.48	-39.5	-40.5	22.5	0.00e+00	122	42	0	1177550848	52	5879
2026-01-21 15:50:08.88	315.13	48.54	-39.5	-40.5	22.5	0.00e+00	120	42	0	1180696576	52	5914
2026-01-21 15:50:09.89	314.52	48.59	-39.5	-40.5	22.6	0.00e+00	123	42	0	1183842304	52	5890
2026-01-21 15:50:10.90	313.92	48.64	-39.2	-40.2	22.7	0.00e+00	123	42	0	1186988032	52	5701
2026-01-21 15:50:11.91	313.31	48.69	-39.4	-40.4	22.6	0.00e+00	121	42	0	1190133760	52	5856
2026-01-21 15:50:12.92	312.70	48.73	-39.9	-41.0	22.0	0.00e+00	123	42	0	1193279488	52	6256
2026-01-21 15:50:13.93	312.09	48.77	-40.4	-41.5	21.6	0.00e+00	122	42	0	1196425216	52	6590
2026-01-21 15:50:14.94	311.47	48.80	-40.3	-41.4	21.7	0.00e+00	122	42	0	1199570944	52	6554
2026-01-21 15:50:15.95	310.86	48.83	-40.1	-41.1	21.9	0.00e+00	123	42	0	1202716672	52	6341
2026-01-21 15:50:16.96	310.24	48.86	-40.1	-41.2	21.8	0.00e+00	120	42	0	1205862400	52	6359
2026-01-21 15:50:17.97	309.62	48.89	-40.0	-41.0	22.1	0.00e+00	123	42	0	1209008128	52	6272
2026-01-21 15:50:18.98	309.00	48.91	-40.1	-41.2	22.0	0.00e+00	120	42	0	1212153856	52	6388
2026-01-21 15:50:19.99	308.38	48.93	-40.3	-41.4	21.7	0.00e+00	122	42	0	1216348160	52	6552
2026-01-21 15:50:21.00	307.76	48.94	-40.1	-41.2	21.9	0.00e+00	123	42	0	1218445312	52	6385
2026-01-21 15:50:22.01	307.14	48.95	-40.0	-41.0	21.9	0.00e+00	122	42	0	1221591040	52	6252
2026-01-21 15:50:23.02	306.52	48.96	-40.1	-41.2	21.8	0.00e+00	121	42	0	1224736768	52	6416
2026-01-21 15:50:24.03	305.90	48.96	-39.8	-40.9	22.0	0.00e+00	123	42	0	1227882496	52	6135
2026-01-21 15:50:25.05	305.27	48.96	-39.8	-40.8	22.1	0.00e+00	124	42	0	1232076800	52	6131
2026-01-21 15:50:26.05	304.66	48.95	-39.6	-40.6	22.1	0.00e+00	123	42	0	1235222528	52	5976
2026-01-21 15:50:27.06	304.04	48.95	-40.1	-41.2	21.8	0.00e+00	122	42	0	1238368256	52	6361
2026-01-21 15:50:28.07	303.42	48.94	-39.9	-41.0	22.1	0.00e+00	122	42	0	1241513984	52	6229
2026-01-21 15:50:29.08	302.80	48.92	-39.8	-40.8	22.1	0.00e+00	123	42	0	1243611136	52	6100
2026-01-21 15:50:30.09	302.18	48.90	-39.3	-40.4	22.4	0.00e+00	123	42	0	1247805440	52	5792
2026-01-21 15:50:31.10	301.56	48.88	-39.3	-40.3	22.3	0.00e+00	123	42	0	1250951168	52	5764
2026-01-21 15:50:32.11	300.94	48.85	-39.1	-40.1	22.6	0.00e+00	123	42	0	1254096896	52	5606
2026-01-21 15:50:33.12	300.32	48.82	-39.3	-40.3	22.6	0.00e+00	123	42	0	1257242624	52	5775
2026-01-21 15:50:34.14	299.70	48.79	-39.2	-40.2	22.6	0.00e+00	123	42	0	1260388352	52	5718
2026-01-21 15:50:35.15	299.09	48.75	-39.3	-40.3	22.6	0.00e+00	122	42	0	1263534080	52	5759
2026-01-21 15:50:36.16	298.48	48.71	-39.8	-40.8	22.2	0.00e+00	123	42	0	1266679808	52	6110
2026-01-21 15:50:37.17	297.87	48.67	-40.2	-41.3	21.7	0.00e+00	122	42	0	1269825536	52	6468
2026-01-21 15:50:38.18	297.26	48.62	-40.4	-41.5	21.6	0.00e+00	122	42	0	1272971264	52	6611
2026-01-21 15:50:39.19	296.65	48.57	-39.9	-41.0	22.0	0.00e+00	123	42	0	1276116992	52	6223
2026-01-21 15:50:40.20	296.05	48.52	-40.2	-41.3	21.9	0.00e+00	122	42	0	1279262720	52	6443
2026-01-21 15:50:41.21	295.44	48.46	-40.1	-41.1	22.0	0.00e+00	123	42	0	1282408448	52	6337
2026-01-21 15:50:42.22	294.84	48.40	-40.1	-41.1	21.9	0.00e+00	122	42	0	1285554176	52	6330
2026-01-21 15:50:43.23	294.24	48.34	-40.3	-41.4	21.7	0.00e+00	120	42	0	1288699904	52	6523
2026-01-21 15:50:44.24	293.65	48.27	-40.4	-41.5	21.7	0.00e+00	122	42	0	1291845632	52	6582
2026-01-21 15:50:45.25	293.06	48.20	-40.3	-41.4	21.7	0.00e+00	121	42	0	1294991360	52	6534
2026-01-21 15:50:46.26	292.47	48.12	-39.6	-40.6	22.2	0.00e+00	123	42	0	1298137088	52	5954
2026-01-21 15:50:47.27	291.88	48.05	-39.2	-40.1	22.6	0.00e+00	123	42	0	1301282816	52	5654
2026-01-21 15:50:48.28	291.29	47.97	-38.9	-39.8	23.0	0.00e+00	120	42	0	1304428544	52	5436
2026-01-21 15:50:49.29	290.71	47.89	-39.2	-40.1	22.8	0.00e+00	123	42	0	1307574272	52	5651
2026-01-21 15:50:50.30	290.14	47.80	-39.7	-40.7	22.3	0.00e+00	120	42	0	1310720000	52	6061
2026-01-21 15:50:51.31	289.56	47.71	-40.3	-41.4	21.5	0.00e+00	123	42	0	1313865728	52	6566
2026-01-21 15:50:52.32	288.99	47.62	-41.1	-42.3	21.0	0.00e+00	122	42	0	1317011456	54	6449
2026-01-21 15:50:53.33	288.42	47.52	-41.2	-42.4	20.6	0.00e+00	123	42	0	1320157184	54	6523
2026-01-21 15:50:54.34	287.86	47.43	-40.9	-42.1	21.0	0.00e+00	123	42	0	1323302912	54	6335
2026-01-21 15:50:55.34	287.30	47.33	-40.8	-41.9	21.2	0.00e+00	122	42	0	1326448640	54	6164
2026-01-21 15:50:56.35	286.74	47.22	-40.3	-41.3	21.8	0.00e+00	122	42	0	1329594368	54	5791
2026-01-21 15:50:57.36	286.19	47.12	-40.2	-41.3	21.8	0.00e+00	122	42	0	1332740096	54	5754
2026-01-21 15:50:58.37	285.64	47.01	-39.9	-40.9	22.1	0.00e+00	122	42	0	1335885824	54	5522
2026-01-21 15:50:59.39	285.09	46.90	-39.8	-40.8	22.2	0.00e+00	123	42	0	1339031552	52	6090
2026-01-21 15:51:00.40	284.55	46.78	-40.5	-41.5	21.7	0.00e+00	122	42	0	1342177280	52	6636
2026-01-21 15:51:01.41	284.01	46.67	-40.8	-42.0	21.2	0.00e+00	122	42	0	1345323008	54	6215
2026-01-21 15:51:02.42	283.48	46.55	-40.9	-42.0	21.2	0.00e+00	123	42	0	1348468736	54	6276
2026-01-21 15:51:03.43	282.95	46.43	-40.4	-41.5	21.7	0.00e+00	123	42	0	1351614464	54	5902
2026-01-21 15:51:04.44	282.42	46.30	-39.2	-40.1	22.7	0.00e+00	122	42	0	1354760192	52	5641
2026-01-21 15:51:05.45	281.90	46.18	-38.4	-39.3	23.5	0.00e+00	122	42	0	1357905920	50	5790
2026-01-21 15:51:06.46	281.38	46.05	-38.6	-39.5	23.1	0.00e+00	123	42	0	1361051648	50	5874
2026-01-21 15:51:07.47	280.87	45.92	-39.6	-40.6	22.3	0.00e+00	123	42	0	1364197376	50	6709
2026-01-21 15:51:08.48	280.36	45.79	-40.8	-41.9	21.4	0.00e+00	122	42	0	1367343104	54	6151
2026-01-21 15:51:09.49	279.85	45.65	-41.2	-42.3	21.0	0.00e+00	122	42	0	1370488832	54	6470
2026-01-21 15:51:10.50	279.35	45.52	-40.3	-41.4	21.7	0.00e+00	123	42	0	1373634560	54	5841
2026-01-21 15:51:11.51	278.86	45.38	-39.7	-40.8	22.1	0.00e+00	120	42	0	1376780288	52	6079
2026-01-21 15:51:12.52	278.37	45.24	-38.9	-39.9	22.9	0.00e+00	123	42	0	1379926016	52	5512
2026-01-21 15:51:13.53	277.88	45.10	-38.8	-39.8	23.1	0.00e+00	120	42	0	1383071744	52	5406
2026-01-21 15:51:14.54	277.39	44.95	-37.7	-39.7	20.0	7.50e-03	122	42	0	1386217472	48	6791
2026-01-21 15:51:15.55	276.92	44.81	-38.1	-40.3	19.5	1.44e-02	120	42	0	1389363200	48	7235
2026-01-21 15:51:16.56	276.44	44.66	-38.8	-41.0	18.8	1.21e-02	123	42	0	1392508928	48	7883
2026-01-21 15:51:17.57	275.97	44.51	-39.0	-41.4	18.9	1.38e-02	122	42	0	1395654656	50	7362
2026-01-21 15:51:18.58	275.51	44.36	-39.1	-41.0	20.0	9.16e-03	120	42	0	1398800384	50	6973
2026-01-21 15:51:19.59	275.05	44.21	-38.7	-40.4	19.1	1.11e-02	123	42	0	1401946112	50	6545
2026-01-21 15:51:20.60	274.59	44.06	-39.1	-40.1	22.8	0.00e+00	123	42	0	1405091840	50	6279
2026-01-21 15:51:21.61	274.14	43.90	-39.0	-40.0	22.8	0.00e+00	122	42	0	1408237568	50	6247
2026-01-21 15:51:22.62	273.69	43.75	-39.7	-40.8	22.1	0.00e+00	123	42	0	1411383296	50	6824
2026-01-21 15:51:23.63	273.25	43.59	-40.7	-41.8	21.2	0.00e+00	123	42	0	1414529024	52	6855
2026-01-21 15:51:24.64	272.81	43.43	-41.2	-42.5	20.6	0.00e+00	122	42	0	1417674752	54	6584
2026-01-21 15:51:25.65	272.37	43.27	-40.6	-41.8	20.8	0.00e+00	122	42	0	1420820480	54	6118
2026-01-21 15:51:26.66	271.94	43.11	-39.9	-41.0	21.3	0.00e+00	122	42	0	1423966208	54	5571
2026-01-21 15:51:27.67	271.52	42.95	-39.4	-40.5	21.8	0.00e+00	121	42	0	1427111936	52	5904
2026-01-21 15:51:28.67	271.10	42.79	-39.4	-40.4	22.3	0.00e+00	122	42	0	1430257664	52	5846
2026-01-21 15:51:29.69	270.68	42.62	-39.7	-40.7	22.0	0.00e+00	123	42	0	1433403392	52	6038
2026-01-21 15:51:30.70	270.26	42.46	-40.1	-41.2	21.1	0.00e+00	123	42	0	1436549120	52	6391
2026-01-21 15:51:31.70	269.86	42.29	-40.8	-42.0	20.7	0.00e+00	122	42	0	1439694848	54	6215
2026-01-21 15:51:32.71	269.45	42.13	-41.0	-42.2	20.9	0.00e+00	123	42	0	1442840576	54	6357
2026-01-21 15:51:33.72	269.05	41.96	-40.1	-41.2	21.4	0.00e+00	123	42	0	1445986304	54	5707
2026-01-21 15:51:34.73	268.66	41.79	-38.8	-39.9	22.2	0.00e+00	121	42	0	1449132032	52	5478
2026-01-21 15:51:35.74	268.26	41.62	-38.3	-39.3	22.9	0.00e+00	123	42	0	1452277760	50	5726
2026-01-21 15:51:36.75	267.88	41.45	-38.0	-38.9	23.0	0.00e+00	120	42	0	1455423488	50	5522
2026-01-21 15:51:37.76	267.49	41.28	-38.4	-39.3	23.0	0.00e+00	123	42	0	1458569216	50	5776
2026-01-21 15:51:38.77	267.11	41.11	-39.5	-40.5	22.3	0.00e+00	123	42	0	1461714944	50	6627
2026-01-21 15:51:39.78	266.74	40.94	-40.8	-41.9	21.2	0.00e+00	123	42	0	1464860672	52	6916
2026-01-21 15:51:40.79	266.36	40.76	-42.1	-43.4	19.9	0.00e+00	121	42	0	1468006400	56	6566
2026-01-21 15:51:41.80	266.00	40.59	-42.6	-44.0	19.4	0.00e+00	122	42	0	1471152128	56	6979
2026-01-21 15:51:42.81	265.63	40.42	-42.2	-43.6	19.4	0.00e+00	122	42	0	1474297856	56	6650
2026-01-21 15:51:43.82	265.27	40.24	-41.4	-42.7	20.0	0.00e+00	123	42	0	1477443584	56	6037
2026-01-21 15:51:44.83	264.91	40.07	-40.5	-41.6	21.2	0.00e+00	123	42	0	1480589312	56	5296
2026-01-21 15:51:45.84	264.56	39.89	-40.2	-41.3	22.1	0.00e+00	120	42	0	1483735040	52	6457
2026-01-21 15:51:46.86	264.21	39.72	-39.8	-40.8	22.2	0.00e+00	122	42	0	1486880768	52	6134
2026-01-21 15:51:47.86	263.87	39.54	-39.8	-40.9	22.1	0.00e+00	123	42	0	1490026496	52	6151
2026-01-21 15:51:48.87	263.53	39.37	-40.3	-41.4	21.7	0.00e+00	122	42	0	1493172224	52	6540
2026-01-21 15:51:49.88	263.19	39.19	-40.7	-41.8	21.3	0.00e+00	123	42	0	1496317952	52	6830
2026-01-21 15:51:50.89	262.86	39.02	-40.5	-41.6	21.7	0.00e+00	123	42	0	1499463680	54	5943
2026-01-21 15:51:51.90	262.53	38.84	-39.8	-40.8	22.4	0.00e+00	120	42	0	1502609408	54	5430
2026-01-21 15:51:52.91	262.20	38.66	-39.1	-40.1	22.7	0.00e+00	123	42	0	1505755136	52	5632
2026-01-21 15:51:53.93	261.87	38.48	-39.1	-40.1	22.7	0.00e+00	123	42	0	1508900864	52	5615
2026-01-21 15:51:54.94	261.55	38.31	-39.0	-40.0	22.9	0.00e+00	122	42	0	1512046592	52	5576
2026-01-21 15:51:55.95	261.24	38.13	-38.9	-39.9	23.0	0.00e+00	123	42	0	1515192320	52	5492
2026-01-21 15:51:56.96	260.93	37.95	-39.1	-40.1	22.8	0.00e+00	122	42	0	1518338048	52	5606
2026-01-21 15:51:57.97	260.62	37.78	-39.7	-40.8	22.1	0.00e+00	123	42	0	1521483776	52	6079
2026-01-21 15:51:58.98	260.31	37.60	-40.4	-41.5	21.5	0.00e+00	123	42	0	1524629504	52	6611
2026-01-21 15:51:59.99	260.01	37.42	-40.8	-41.9	21.2	0.00e+00	123	42	0	1527775232	54	6184
2026-01-21 15:52:01.00	259.71	37.24	-40.5	-41.6	21.2	0.00e+00	123	42	0	1531969536	54	5985
2026-01-21 15:52:02.01	259.41	37.07	-40.3	-41.4	21.1	0.00e+00	121	42	0	1534066688	54	5831
2026-01-21 15:52:03.02	259.12	36.89	-40.0	-41.0	21.6	0.00e+00	122	42	0	1537212416	54	5581
2026-01-21 15:52:04.03	258.83	36.71	-39.4	-40.4	22.3	0.00e+00	122	42	0	1540358144	52	5816
2026-01-21 15:52:05.04	258.54	36.54	-38.8	-39.8	23.0	0.00e+00	122	42	0	1544552448	52	5410
2026-01-21 15:52:06.05	258.26	36.36	-39.0	-39.9	22.9	0.00e+00	123	42	0	1547698176	52	5519
2026-01-21 15:52:07.06	257.98	36.18	-38.8	-39.8	23.2	0.00e+00	123	42	0	1550843904	52	5435
2026-01-21 15:52:08.07	257.70	36.01	-38.7	-39.7	23.0	0.00e+00	120	42	0	1553989632	50	6002
2026-01-21 15:52:09.08	257.43	35.83	-38.9	-39.9	23.1	0.00e+00	122	42	0	1557135360	50	6165
2026-01-21 15:52:10.09	257.16	35.66	-38.8	-39.8	23.0	0.00e+00	120	42	0	1560281088	50	6087
2026-01-21 15:52:11.10	256.89	35.48	-38.8	-39.8	23.1	0.00e+00	123	42	0	1563426816	50	6076
2026-01-21 15:52:12.11	256.62	35.31	-38.6	-39.6	23.1	0.00e+00	122	42	0	1566572544	50	5973
2026-01-21 15:52:13.12	256.36	35.13	-38.5	-39.4	23.2	0.00e+00	120	42	0	1569718272	50	5836
2026-01-21 15:52:14.13	256.10	34.96	-38.1	-39.0	23.6	0.00e+00	122	42	0	1572864000	50	5561
2026-01-21 15:52:15.14	255.84	34.78	-37.6	-38.5	23.8	0.00e+00	123	42	0	1576009728	48	5916
2026-01-21 15:52:16.15	255.59	34.61	-37.5	-38.4	23.9	0.00e+00	120	42	0	1579155456	48	5853
2026-01-21 15:52:17.16	255.34	34.43	-37.7	-38.7	23.9	0.00e+00	122	42	0	1582301184	48	6001
2026-01-21 15:52:18.17	255.09	34.26	-38.2	-39.2	23.5	0.00e+00	120	42	0	1585446912	48	6356
2026-01-21 15:52:19.18	254.84	34.09	-38.7	-39.7	23.2	0.00e+00	120	42	0	1588592640	48	6741
2026-01-21 15:52:20.19	254.60	33.91	-39.2	-40.2	22.6	0.00e+00	123	42	0	1591738368	50	6416
2026-01-21 15:52:21.20	254.36	33.74	-39.4	-40.4	22.5	0.00e+00	123	42	0	1594884096	50	6540
2026-01-21 15:52:22.21	254.12	33.57	-39.2	-40.2	22.7	0.00e+00	123	42	0	1598029824	50	6391
2026-01-21 15:52:23.21	253.89	33.40	-38.7	-39.7	23.2	0.00e+00	120	42	0	1601175552	50	6020
2026-01-21 15:52:24.22	253.65	33.23	-38.4	-39.3	23.4	0.00e+00	122	42	0	1604321280	50	5789
2026-01-21 15:52:25.23	253.42	33.06	-38.2	-39.2	23.7	0.00e+00	120	42	0	1607467008	50	5669
2026-01-21 15:52:26.24	253.19	32.89	-38.0	-38.9	23.6	0.00e+00	122	42	0	1610612736	50	5510
2026-01-21 15:52:27.25	252.97	32.72	-37.6	-38.5	24.1	0.00e+00	123	42	0	1613758464	48	5869
2026-01-21 15:52:28.26	252.74	32.55	-37.5	-38.4	23.9	0.00e+00	120	42	0	1616904192	48	5806
2026-01-21 15:52:29.27	252.52	32.38	-37.7	-38.6	23.8	0.00e+00	123	42	0	1620049920	48	5968
2026-01-21 15:52:30.29	252.30	32.21	-37.6	-38.5	23.7	0.00e+00	121	42	0	1623195648	48	5893
2026-01-21 15:52:31.29	252.09	32.04	-37.5	-38.4	23.8	0.00e+00	120	42	0	1626341376	48	5831
2026-01-21 15:52:32.30	251.87	31.87	-37.5	-38.4	24.0	0.00e+00	123	42	0	1629487104	48	5819
2026-01-21 15:52:33.31	251.66	31.71	-37.4	-38.3	24.1	0.00e+00	122	42	0	1632632832	48	5749
2026-01-21 15:52:34.32	251.45	31.54	-37.5	-38.4	24.1	0.00e+00	120	42	0	1635778560	48	5839
2026-01-21 15:52:35.33	251.24	31.37	-37.4	-38.3	24.2	0.00e+00	122	42	0	1638924288	48	5762
2026-01-21 15:52:36.34	251.04	31.21	-37.2	-38.1	24.3	0.00e+00	120	42	0	1642070016	48	5646
2026-01-21 15:52:37.35	250.83	31.04	-37.3	-38.2	24.2	0.00e+00	123	42	0	1645215744	48	5669
2026-01-21 15:52:38.36	250.63	30.88	-37.2	-38.1	24.3	0.00e+00	123	42	0	1648361472	48	5652
2026-01-21 15:52:39.37	250.43	30.71	-37.2	-38.1	24.3	0.00e+00	123	42	0	1651507200	48	5615
2026-01-21 15:52:40.38	250.23	30.55	-37.1	-38.0	24.2	0.00e+00	120	42	0	1654652928	48	5580
2026-01-21 15:52:41.39	250.04	30.39	-37.2	-38.1	24.2	0.00e+00	123	42	0	1657798656	48	5646
2026-01-21 15:52:42.40	249.85	30.23	-37.3	-38.2	24.0	0.00e+00	120	42	0	1660944384	48	5703
2026-01-21 15:52:43.40	249.66	30.07	-37.5	-38.4	23.9	0.00e+00	122	42	0	1664090112	48	5858
2026-01-21 15:52:44.41	249.47	29.90	-37.6	-38.5	24.0	0.00e+00	123	42	0	1667235840	48	5896
2026-01-21 15:52:45.42	249.28	29.74	-37.5	-38.4	23.9	0.00e+00	123	42	0	1670381568	48	5854
2026-01-21 15:52:46.43	249.09	29.58	-37.5	-38.4	23.9	0.00e+00	123	42	0	1673527296	48	5848
2026-01-21 15:52:47.44	248.91	29.42	-37.4	-38.3	24.1	0.00e+00	120	42	0	1676673024	48	5776
2026-01-21 15:52:48.45	248.73	29.26	-37.3	-38.3	24.1	0.00e+00	122	42	0	1679818752	48	5732
2026-01-21 15:52:49.46	248.55	29.11	-37.5	-38.4	24.0	0.00e+00	123	42	0	1682964480	48	5843
2026-01-21 15:52:50.47	248.37	28.95	-37.5	-38.5	24.0	0.00e+00	121	42	0	1686110208	48	5865
2026-01-21 15:52:51.48	248.19	28.79	-37.6	-38.5	24.0	0.00e+00	120	42	0	1689255936	48	5882
2026-01-21 15:52:52.48	248.02	28.63	-37.7	-38.6	24.0	0.00e+00	123	42	0	1692401664	48	5967
2026-01-21 15:52:53.49	247.84	28.48	-37.8	-38.8	23.7	0.00e+00	122	42	0	1695547392	48	6085
2026-01-21 15:52:54.50	247.67	28.32	-37.9	-38.8	23.7	0.00e+00	123	42	0	1698693120	48	6134
2026-01-21 15:52:55.51	247.50	28.17	-37.9	-38.8	23.6	0.00e+00	123	42	0	1701838848	48	6121
2026-01-21 15:52:56.52	247.33	28.01	-37.9	-38.8	23.6	0.00e+00	120	42	0	1704984576	48	6130
2026-01-21 15:52:57.53	247.17	27.86	-38.0	-39.0	23.5	0.00e+00	122	42	0	1708130304	48	6230
2026-01-21 15:52:58.54	247.00	27.71	-37.8	-38.8	23.6	0.00e+00	123	42	0	1711276032	48	6085
2026-01-21 15:52:59.55	246.84	27.55	-37.5	-38.4	23.9	0.00e+00	123	42	0	1714421760	48	5851
2026-01-21 15:53:00.56	246.68	27.40	-37.3	-38.3	24.0	0.00e+00	122	42	0	1717567488	48	5742
2026-01-21 15:53:01.56	246.52	27.25	-37.3	-38.2	24.1	0.00e+00	122	42	0	1720713216	48	5708
2026-01-21 15:53:02.57	246.36	27.10	-37.2	-38.1	24.2	0.00e+00	123	42	0	1723858944	48	5630
2026-01-21 15:53:03.58	246.20	26.95	-37.1	-38.1	24.1	0.00e+00	122	42	0	1727004672	48	5604
2026-01-21 15:53:04.59	246.05	26.80	-37.2	-38.1	24.1	0.00e+00	123	42	0	1730150400	48	5607
2026-01-21 15:53:05.60	245.89	26.65	-37.3	-38.2	24.0	0.00e+00	122	42	0	1733296128	48	5683
2026-01-21 15:53:06.61	245.74	26.50	-37.3	-38.3	24.0	0.00e+00	122	42	0	1736441856	48	5757
2026-01-21 15:53:07.62	245.59	26.35	-37.5	-38.4	24.0	0.00e+00	122	42	0	1739587584	48	5829
2026-01-21 15:53:08.63	245.44	26.21	-37.6	-38.6	23.9	0.00e+00	123	42	0	1742733312	48	5933
2026-01-21 15:53:09.64	245.29	26.06	-37.7	-38.7	23.9	0.00e+00	122	42	0	1745879040	48	6007
2026-01-21 15:53:10.65	245.14	25.91	-37.8	-38.8	23.8	0.00e+00	122	42	0	1749024768	48	6066
2026-01-21 15:53:11.66	245.00	25.77	-37.7	-38.6	23.9	0.00e+00	122	42	0	1752170496	48	5981
2026-01-21 15:53:12.67	244.85	25.62	-37.8	-38.7	23.9	0.00e+00	123	42	0	1755316224	48	6038
2026-01-21 15:53:13.68	244.71	25.48	-37.3	-38.3	24.2	0.00e+00	123	42	0	1758461952	48	5729
2026-01-21 15:53:14.69	244.57	25.33	-37.2	-38.1	24.3	0.00e+00	122	42	0	1761607680	48	5644
2026-01-21 15:53:15.70	244.43	25.19	-37.2	-38.1	24.3	0.00e+00	122	41	0	1764753408	48	5605
2026-01-21 15:53:16.71	244.29	25.05	-37.1	-38.0	24.3	0.00e+00	123	41	0	1767899136	48	5586
2026-01-21 15:53:17.72	244.15	24.90	-37.2	-38.1	24.3	0.00e+00	120	42	0	1771044864	48	5657
2026-01-21 15:53:18.73	244.01	24.76	-37.0	-37.9	24.4	0.00e+00	122	42	0	1774190592	48	5485
2026-01-21 15:53:19.74	243.88	24.62	-37.2	-38.1	24.4	0.00e+00	123	42	0	1777336320	48	5647
2026-01-21 15:53:20.75	243.74	24.48	-37.3	-38.2	24.3	0.00e+00	123	42	0	1780482048	48	5682
2026-01-21 15:53:21.76	243.61	24.34	-37.2	-38.1	24.3	0.00e+00	122	42	0	1783627776	48	5617
2026-01-21 15:53:22.77	243.48	24.20	-37.1	-38.0	24.3	0.00e+00	123	42	0	1786773504	48	5567
2026-01-21 15:53:23.78	243.35	24.06	-37.2	-38.1	24.3	0.00e+00	122	42	0	1789919232	48	5650
2026-01-21 15:53:24.79	243.22	23.92	-37.1	-38.0	24.3	0.00e+00	123	42	0	1793064960	48	5594
2026-01-21 15:53:25.80	243.09	23.79	-37.2	-38.1	24.3	0.00e+00	122	42	0	1796210688	48	5616
2026-01-21 15:53:26.81	242.96	23.65	-37.1	-38.0	24.4	0.00e+00	123	42	0	1799356416	48	5557
2026-01-21 15:53:27.82	242.84	23.51	-37.2	-38.1	24.2	0.00e+00	123	42	0	1802502144	48	5629
2026-01-21 15:53:28.82	242.71	23.38	-37.5	-38.4	24.1	0.00e+00	122	42	0	1805647872	48	5817
2026-01-21 15:53:29.83	242.59	23.24	-37.2	-38.1	24.1	0.00e+00	123	42	0	1808793600	48	5658
2026-01-21 15:53:30.84	242.47	23.11	-37.4	-38.3	24.0	0.00e+00	122	42	0	1811939328	48	5777
2026-01-21 15:53:31.85	242.34	22.97	-37.3	-38.2	24.1	0.00e+00	120	42	0	1815085056	48	5703
2026-01-21 15:53:32.86	242.22	22.84	-37.2	-38.1	24.2	0.00e+00	122	42	0	1818230784	48	5649
2026-01-21 15:53:33.87	242.10	22.71	-37.3	-38.2	24.1	0.00e+00	123	42	0	1821376512	48	5674
2026-01-21 15:53:34.88	241.99	22.57	-37.2	-38.1	24.2	0.00e+00	123	42	0	1824522240	48	5641
2026-01-21 15:53:35.89	241.87	22.44	-37.1	-38.0	24.3	0.00e+00	123	42	0	1827667968	48	5543
2026-01-21 15:53:36.90	241.75	22.31	-37.1	-38.0	24.2	0.00e+00	123	42	0	1830813696	48	5551
2026-01-21 15:53:37.91	241.64	22.18	-37.0	-38.0	24.3	0.00e+00	123	42	0	1833959424	48	5536
2026-01-21 15:53:38.92	241.52	22.05	-37.0	-37.9	24.3	0.00e+00	123	42	0	1837105152	48	5505
2026-01-21 15:53:39.93	241.41	21.92	-37.2	-38.1	24.2	0.00e+00	122	41	0	1840250880	48	5603
2026-01-21 15:53:40.94	241.30	21.79	-37.0	-37.9	24.3	0.00e+00	120	41	0	1843396608	48	5510
2026-01-21 15:53:41.95	241.18	21.66	-37.1	-38.0	24.2	0.00e+00	123	42	0	1846542336	48	5548
2026-01-21 15:53:42.96	241.07	21.53	-37.2	-38.1	24.2	0.00e+00	122	41	0	1849688064	48	5608
2026-01-21 15:53:43.96	240.97	21.41	-37.1	-38.0	24.3	0.00e+00	123	42	0	1852833792	48	5559
2026-01-21 15:53:44.97	240.86	21.28	-37.1	-38.0	24.3	0.00e+00	123	42	0	1855979520	48	5586
2026-01-21 15:53:45.98	240.75	21.15	-37.1	-38.0	24.4	0.00e+00	123	42	0	1859125248	48	5569
2026-01-21 15:53:46.99	240.64	21.03	-37.2	-38.1	24.4	0.00e+00	122	42	0	1862270976	48	5611
2026-01-21 15:53:48.00	240.54	20.90	-37.2	-38.1	24.4	0.00e+00	123	42	0	1865416704	48	5613
2026-01-21 15:53:49.01	240.43	20.78	-37.2	-38.1	24.3	0.00e+00	123	42	0	1868562432	48	5645
2026-01-21 15:53:50.02	240.33	20.65	-37.3	-38.2	24.2	0.00e+00	123	41	0	1871708160	48	5708
2026-01-21 15:53:51.03	240.22	20.53	-37.3	-38.2	24.1	0.00e+00	123	42	0	1874853888	48	5698
2026-01-21 15:53:52.04	240.12	20.40	-37.4	-38.4	24.0	0.00e+00	122	41	0	1877999616	48	5798
2026-01-21 15:53:53.05	240.02	20.28	-37.5	-38.5	24.0	0.00e+00	123	41	0	1881145344	48	5862
2026-01-21 15:53:54.06	239.92	20.16	-37.5	-38.4	23.9	0.00e+00	123	42	0	1884291072	48	5854
2026-01-21 15:53:55.07	239.82	20.04	-37.5	-38.4	23.9	0.00e+00	124	42	0	1887436800	48	5843
2026-01-21 15:53:56.08	239.72	19.91	-37.3	-38.2	24.1	0.00e+00	121	42	0	1890582528	48	5682
2026-01-21 15:53:57.09	239.62	19.79	-37.2	-38.1	24.0	0.00e+00	123	41	0	1893728256	48	5657
2026-01-21 15:53:58.10	239.52	19.67	-37.2	-38.1	24.1	0.00e+00	123	42	0	1896873984	48	5638
2026-01-21 15:53:59.11	239.42	19.55	-37.3	-38.2	23.8	0.00e+00	123	41	0	1900019712	48	5714
2026-01-21 15:54:00.12	239.33	19.43	-37.0	-37.9	24.1	0.00e+00	122	41	0	1903165440	48	5514
2026-01-21 15:54:01.13	239.23	19.31	-37.1	-38.0	24.0	0.00e+00	123	41	0	1906311168	48	5562
2026-01-21 15:54:02.14	239.14	19.19	-37.1	-38.0	24.2	0.00e+00	123	41	0	1910505472	48	5549
2026-01-21 15:54:03.15	239.04	19.08	-37.1	-38.0	24.1	0.00e+00	122	41	0	1913651200	48	5575
2026-01-21 15:54:04.16	238.95	18.96	-37.1	-38.0	24.1	0.00e+00	122	41	0	1916796928	48	5533
2026-01-21 15:54:05.17	238.86	18.84	-37.1	-38.0	24.1	0.00e+00	123	41	0	1919942656	48	5551
2026-01-21 15:54:06.18	238.77	18.72	-37.2	-38.1	24.1	0.00e+00	123	42	0	1922039808	48	5630
2026-01-21 15:54:07.19	238.68	18.61	-37.2	-38.2	24.0	0.00e+00	123	42	0	1925185536	48	5667
2026-01-21 15:54:08.20	238.59	18.49	-37.3	-38.2	24.0	0.00e+00	122	42	0	1929379840	48	5709
2026-01-21 15:54:09.21	238.50	18.38	-37.4	-38.3	24.0	0.00e+00	123	42	0	1932525568	48	5752
2026-01-21 15:54:10.22	238.41	18.26	-37.3	-38.2	24.0	0.00e+00	123	41	0	1935671296	48	5719
2026-01-21 15:54:11.23	238.32	18.15	-37.4	-38.4	24.0	0.00e+00	122	41	0	1938817024	48	5798
