passes_logs/2026/01/21/R4.6S_Anadyr/R4.6S_Anadyr__20260121_171024_FENGYUN_3D_rec.log

#Pass ID: 20260121_171024_FENGYUN 3D
#Satellite: FENGYUN 3D
#Configuration: FENGYUN 3D
#almurnet v.1.7.20251203
#Start time: 2026-01-21 17:10:27

#Version: 2.2.20231116
#Station: R4.6S_Anadyr
#Location: 177.4865 lon 64.73178 lat
#TLE: 1 43010U 17072A   26020.92362722 -.00000077  00000+0 -14488-4 0  9992
#TLE: 2 43010  98.9946 352.8312 0002486  99.3651 260.7806 14.19696535424099

#Time	Az	El	Level	Level2	SNR	BER	BlckErr	Temp	State	Recorded	gain1	gain2
2026-01-21 17:10:27.57	21.85	0.18	-52.5	-63.3	3.3	8.41e-01	0	40	0	0	60	52604
2026-01-21 17:10:28.58	21.85	0.24	-52.3	-64.5	3.6	8.46e-01	0	40	104	0	60	60923
2026-01-21 17:10:29.59	21.84	0.30	-52.0	-64.2	3.6	8.45e-01	0	40	104	0	60	58399
2026-01-21 17:10:30.60	21.84	0.36	-51.8	-64.0	3.6	8.45e-01	0	40	104	0	60	57217
2026-01-21 17:10:31.61	21.83	0.42	-51.8	-63.9	3.6	8.43e-01	0	40	104	0	60	56894
2026-01-21 17:10:32.62	21.83	0.48	-51.7	-63.8	3.6	8.45e-01	0	40	104	0	60	56071
2026-01-21 17:10:33.63	21.82	0.55	-51.6	-63.7	3.6	8.46e-01	0	40	104	0	60	55444
2026-01-21 17:10:34.64	21.82	0.61	-51.5	-63.7	3.5	8.45e-01	0	40	104	0	60	55098
2026-01-21 17:10:35.65	21.81	0.67	-51.6	-63.7	3.6	8.47e-01	0	40	104	0	60	55116
2026-01-21 17:10:36.66	21.80	0.73	-51.4	-63.6	3.6	8.44e-01	0	40	104	0	60	54569
2026-01-21 17:10:37.67	21.80	0.79	-51.4	-63.5	3.6	8.46e-01	0	40	104	0	60	54334
2026-01-21 17:10:38.68	21.79	0.85	-51.3	-63.4	3.6	8.46e-01	0	40	104	0	60	53769
2026-01-21 17:10:39.69	21.79	0.92	-51.3	-63.4	3.6	8.45e-01	0	40	104	0	60	53535
2026-01-21 17:10:40.70	21.78	0.98	-51.1	-63.3	3.6	8.46e-01	0	40	104	0	60	52629
2026-01-21 17:10:41.71	21.78	1.04	-51.1	-63.2	3.6	8.45e-01	0	40	104	0	60	52446
2026-01-21 17:10:42.72	21.77	1.10	-51.0	-63.1	3.6	8.46e-01	0	40	104	0	60	51396
2026-01-21 17:10:43.73	21.77	1.17	-50.7	-62.9	3.6	8.45e-01	0	40	104	0	60	50365
2026-01-21 17:10:44.74	21.76	1.23	-50.7	-62.7	3.6	8.45e-01	0	40	104	0	60	49512
2026-01-21 17:10:45.75	21.75	1.29	-50.5	-62.6	3.6	8.45e-01	0	40	104	0	60	48779
2026-01-21 17:10:46.76	21.75	1.35	-50.5	-62.6	3.6	8.46e-01	0	40	104	0	60	48796
2026-01-21 17:10:47.77	21.74	1.42	-50.2	-62.3	3.6	8.45e-01	0	40	104	0	60	47210
2026-01-21 17:10:48.78	21.74	1.48	-49.8	-61.6	3.6	8.45e-01	0	40	104	0	60	43520
2026-01-21 17:10:49.79	21.73	1.54	-49.7	-61.2	3.6	8.44e-01	0	40	104	0	60	41604
2026-01-21 17:10:50.80	21.72	1.61	-49.7	-61.1	3.6	8.45e-01	0	40	104	0	60	41134
2026-01-21 17:10:51.81	21.72	1.67	-49.7	-61.3	3.6	8.45e-01	0	40	104	0	60	41785
2026-01-21 17:10:52.82	21.71	1.73	-49.7	-61.5	3.6	8.46e-01	0	40	104	0	60	43023
2026-01-21 17:10:53.83	21.70	1.80	-49.7	-61.7	3.5	8.46e-01	0	40	104	0	60	43965
2026-01-21 17:10:54.84	21.70	1.86	-49.8	-61.9	3.6	8.45e-01	0	40	104	0	60	44859
2026-01-21 17:10:55.85	21.69	1.93	-49.8	-61.9	3.6	8.45e-01	0	41	104	0	60	45090
2026-01-21 17:10:56.86	21.69	1.99	-49.8	-61.9	3.6	8.45e-01	0	41	104	0	60	44986
2026-01-21 17:10:57.87	21.68	2.05	-49.8	-61.9	3.6	8.45e-01	0	40	104	0	60	44979
2026-01-21 17:10:58.88	21.67	2.12	-49.8	-61.8	3.6	8.45e-01	0	41	104	0	60	44623
2026-01-21 17:10:59.89	21.67	2.18	-49.7	-61.6	3.6	8.46e-01	0	40	104	0	60	43624
2026-01-21 17:11:00.90	21.66	2.25	-49.7	-61.4	3.6	8.46e-01	0	40	104	0	60	42302
2026-01-21 17:11:01.91	21.65	2.31	-49.7	-61.2	3.6	8.46e-01	0	40	104	0	60	41741
2026-01-21 17:11:02.92	21.65	2.38	-49.7	-61.1	3.6	8.45e-01	0	41	104	0	60	41015
2026-01-21 17:11:03.93	21.64	2.44	-49.6	-60.7	3.6	8.44e-01	0	41	104	0	60	39194
2026-01-21 17:11:04.94	21.63	2.51	-49.7	-60.5	3.6	8.45e-01	0	41	104	0	60	38341
2026-01-21 17:11:05.96	21.63	2.58	-49.6	-60.3	3.6	8.45e-01	0	41	104	0	60	37400
2026-01-21 17:11:06.97	21.62	2.64	-49.6	-60.0	3.6	8.44e-01	0	41	104	0	60	36335
2026-01-21 17:11:07.98	21.61	2.71	-49.6	-61.0	3.6	8.45e-01	0	41	104	0	60	40381
2026-01-21 17:11:08.99	21.61	2.77	-49.8	-61.6	3.6	8.45e-01	0	41	104	0	60	43399
2026-01-21 17:11:10.00	21.60	2.84	-49.8	-61.8	3.6	8.44e-01	0	40	104	0	60	44225
2026-01-21 17:11:11.01	21.59	2.91	-49.7	-61.2	3.6	8.46e-01	0	41	104	0	60	41436
2026-01-21 17:11:12.02	21.58	2.97	-49.6	-59.8	3.6	8.44e-01	0	41	104	0	60	35464
2026-01-21 17:11:13.03	21.58	3.04	-49.4	-59.1	3.6	8.45e-01	0	41	104	0	60	32548
2026-01-21 17:11:14.03	21.57	3.11	-49.0	-55.3	5.1	7.83e-01	0	41	0	0	60	21157
2026-01-21 17:11:15.04	21.56	3.17	-48.7	-54.1	6.0	3.54e-01	0	41	0	4194304	60	18262
2026-01-21 17:11:16.05	21.56	3.24	-48.6	-53.6	5.7	6.41e-01	0	41	0	8388608	60	17360
2026-01-21 17:11:17.06	21.55	3.31	-48.6	-53.6	6.5	2.75e-01	0	41	0	13631488	60	17244
2026-01-21 17:11:18.07	21.54	3.37	-48.2	-52.5	7.5	1.46e-01	0	41	0	19922944	60	15198
2026-01-21 17:11:19.08	21.53	3.44	-48.0	-52.2	7.8	8.68e-02	0	41	0	25165824	60	14687
2026-01-21 17:11:20.09	21.53	3.51	-48.3	-52.8	7.2	1.02e-01	0	41	0	31457280	60	15860
2026-01-21 17:11:21.10	21.52	3.58	-48.6	-53.7	6.2	2.24e-01	0	41	0	36700160	60	17562
2026-01-21 17:11:22.11	21.51	3.65	-48.4	-53.0	7.0	3.85e-01	0	41	0	42991616	60	16231
2026-01-21 17:11:23.12	21.50	3.71	-42.7	-44.0	17.2	0.00e+00	0	41	0	48234496	58	6429
2026-01-21 17:11:24.13	21.49	3.78	-41.3	-42.5	17.5	0.00e+00	0	41	0	54525952	54	6777
2026-01-21 17:11:25.14	21.49	3.85	-49.5	-59.0	3.9	8.44e-01	0	41	104	55574528	60	32103
2026-01-21 17:11:26.16	21.48	3.92	-43.5	-44.8	17.5	4.50e-06	0	41	0	58720256	60	6309
2026-01-21 17:11:27.17	21.47	3.99	-49.7	-60.7	3.6	8.44e-01	0	41	104	61865984	60	38977
2026-01-21 17:11:28.17	21.46	4.06	-43.6	-45.3	15.6	7.91e-01	0	41	104	61865984	60	6623
2026-01-21 17:11:29.18	21.45	4.13	-43.7	-45.2	16.3	0.00e+00	0	41	0	63963136	60	6597
2026-01-21 17:11:30.20	21.45	4.20	-42.1	-43.4	18.1	0.00e+00	0	41	0	69206016	58	5966
2026-01-21 17:11:31.21	21.44	4.27	-41.9	-43.1	18.2	0.00e+00	0	41	0	75497472	56	6516
2026-01-21 17:11:32.22	21.43	4.34	-41.0	-42.1	18.5	0.00e+00	0	41	0	80740352	54	6508
2026-01-21 17:11:33.23	21.42	4.41	-41.9	-43.1	18.7	0.00e+00	0	41	0	85983232	56	6517
2026-01-21 17:11:34.24	21.41	4.48	-41.4	-42.5	18.4	0.00e+00	0	41	0	92274688	56	6061
2026-01-21 17:11:35.25	21.40	4.55	-41.8	-42.9	18.1	0.00e+00	0	41	0	97517568	56	6382
2026-01-21 17:11:36.26	21.40	4.62	-41.7	-42.8	18.1	0.00e+00	0	41	0	103809024	56	6296
2026-01-21 17:11:37.27	21.39	4.69	-42.2	-43.4	17.8	0.00e+00	0	41	0	109051904	56	6710
2026-01-21 17:11:38.28	21.38	4.76	-41.2	-42.2	19.2	0.00e+00	0	41	0	114294784	56	5882
2026-01-21 17:11:39.29	21.37	4.83	-40.6	-41.7	20.0	0.00e+00	0	41	0	120586240	54	6180
2026-01-21 17:11:40.30	21.36	4.90	-39.8	-40.7	20.3	0.00e+00	0	41	0	125829120	54	5557
2026-01-21 17:11:41.31	21.35	4.98	-40.1	-41.1	20.2	0.00e+00	0	41	0	132120576	52	6473
2026-01-21 17:11:42.32	21.34	5.05	-40.3	-41.2	19.9	0.00e+00	0	41	0	137363456	52	6605
2026-01-21 17:11:43.33	21.33	5.12	-40.2	-41.1	20.4	0.00e+00	0	41	0	142606336	52	6504
2026-01-21 17:11:44.34	21.33	5.19	-39.6	-40.5	20.4	0.00e+00	0	41	0	148897792	52	6090
2026-01-21 17:11:45.35	21.32	5.26	-39.5	-40.3	21.0	0.00e+00	0	41	0	154140672	52	5941
2026-01-21 17:11:46.36	21.31	5.34	-39.2	-40.1	20.9	0.00e+00	0	41	0	160432128	52	5776
2026-01-21 17:11:47.37	21.30	5.41	-40.2	-41.2	20.6	0.00e+00	0	41	0	165675008	52	6566
2026-01-21 17:11:48.38	21.29	5.48	-39.4	-40.3	20.7	0.00e+00	0	41	0	171966464	52	5938
2026-01-21 17:11:49.39	21.28	5.56	-39.0	-39.9	21.3	0.00e+00	0	41	0	177209344	52	5671
2026-01-21 17:11:50.40	21.27	5.63	-39.3	-40.1	21.1	0.00e+00	0	41	0	183500800	52	5815
2026-01-21 17:11:51.41	21.26	5.70	-39.0	-39.9	21.4	0.00e+00	0	41	0	188743680	50	6329
2026-01-21 17:11:52.42	21.25	5.78	-38.8	-39.6	21.5	0.00e+00	0	41	0	193986560	50	6151
2026-01-21 17:11:53.43	21.24	5.85	-38.3	-39.1	21.9	0.00e+00	0	41	0	200278016	50	5803
2026-01-21 17:11:54.44	21.23	5.93	-38.7	-39.5	21.8	0.00e+00	0	41	0	205520896	50	6070
2026-01-21 17:11:55.45	21.22	6.00	-38.7	-39.5	21.6	0.00e+00	0	41	0	211812352	50	6095
2026-01-21 17:11:56.46	21.21	6.07	-39.3	-40.1	21.3	0.00e+00	0	41	0	217055232	50	6539
2026-01-21 17:11:57.47	21.20	6.15	-39.2	-40.1	21.2	0.00e+00	0	41	0	222298112	50	6506
2026-01-21 17:11:58.48	21.19	6.22	-38.6	-39.4	21.9	0.00e+00	0	41	0	228589568	50	6001
2026-01-21 17:11:59.49	21.18	6.30	-39.1	-39.9	21.2	0.00e+00	0	41	0	233832448	50	6381
2026-01-21 17:12:00.50	21.17	6.37	-39.1	-39.9	21.6	0.00e+00	0	41	0	240123904	50	6342
2026-01-21 17:12:01.51	21.16	6.45	-39.3	-40.1	21.0	0.00e+00	0	41	0	245366784	50	6537
2026-01-21 17:12:02.51	21.15	6.53	-38.7	-39.5	21.9	0.00e+00	0	41	0	250609664	50	6044
2026-01-21 17:12:03.52	21.14	6.60	-38.8	-39.6	21.8	0.00e+00	0	41	0	256901120	50	6156
2026-01-21 17:12:04.53	21.13	6.68	-39.1	-39.9	21.8	0.00e+00	0	41	0	262144000	50	6365
2026-01-21 17:12:05.55	21.12	6.76	-39.2	-40.0	21.5	0.00e+00	0	41	0	268435456	50	6451
2026-01-21 17:12:06.56	21.11	6.83	-39.0	-39.8	22.3	0.00e+00	0	41	0	273678336	50	6268
2026-01-21 17:12:07.57	21.10	6.91	-38.9	-39.8	21.6	0.00e+00	0	41	0	279969792	50	6272
2026-01-21 17:12:08.58	21.09	6.99	-39.3	-40.1	21.5	0.00e+00	0	41	0	285212672	50	6528
2026-01-21 17:12:09.59	21.08	7.06	-39.1	-39.9	21.6	0.00e+00	0	41	0	291504128	50	6366
2026-01-21 17:12:10.60	21.07	7.14	-38.7	-39.5	21.9	0.00e+00	0	41	0	296747008	50	6101
2026-01-21 17:12:11.61	21.06	7.22	-38.0	-38.8	22.6	0.00e+00	0	41	0	301989888	50	5588
2026-01-21 17:12:12.62	21.04	7.30	-37.7	-38.5	22.9	0.00e+00	0	41	0	308281344	50	5411
2026-01-21 17:12:13.63	21.03	7.38	-38.0	-38.7	22.7	0.00e+00	0	41	0	313524224	48	6243
2026-01-21 17:12:14.64	21.02	7.46	-37.6	-38.3	23.0	0.00e+00	0	41	0	319815680	48	5956
2026-01-21 17:12:15.65	21.01	7.53	-37.7	-38.5	23.0	0.00e+00	0	41	0	325058560	48	6076
2026-01-21 17:12:16.66	21.00	7.61	-37.6	-38.4	23.0	0.00e+00	0	41	0	330301440	48	6000
2026-01-21 17:12:17.67	20.99	7.69	-37.5	-38.2	23.2	0.00e+00	0	41	0	336592896	48	5893
2026-01-21 17:12:18.68	20.98	7.77	-37.6	-38.4	23.1	0.00e+00	0	41	0	341835776	48	6000
2026-01-21 17:12:19.69	20.96	7.85	-37.5	-38.3	23.2	0.00e+00	0	41	0	348127232	48	5911
2026-01-21 17:12:20.70	20.95	7.93	-37.7	-38.4	23.1	0.00e+00	0	41	0	353370112	48	6006
2026-01-21 17:12:21.71	20.94	8.01	-37.2	-37.9	23.5	0.00e+00	0	41	0	358612992	48	5663
2026-01-21 17:12:22.72	20.93	8.09	-37.4	-38.2	23.3	0.00e+00	0	41	0	364904448	48	5863
2026-01-21 17:12:23.73	20.92	8.18	-37.5	-38.2	23.3	0.00e+00	0	41	0	370147328	48	5883
2026-01-21 17:12:24.74	20.90	8.26	-37.6	-38.3	23.1	0.00e+00	0	41	0	376438784	48	5958
2026-01-21 17:12:25.75	20.89	8.34	-37.7	-38.4	23.0	0.00e+00	0	41	0	381681664	48	6032
2026-01-21 17:12:26.76	20.88	8.42	-37.3	-38.1	23.4	0.00e+00	0	41	0	387973120	48	5771
2026-01-21 17:12:27.77	20.87	8.50	-37.7	-38.4	23.1	0.00e+00	0	41	0	393216000	48	6018
2026-01-21 17:12:28.78	20.85	8.58	-37.8	-38.6	22.9	0.00e+00	0	41	0	398458880	48	6138
2026-01-21 17:12:29.79	20.84	8.67	-37.4	-38.2	23.3	0.00e+00	0	41	0	404750336	48	5858
2026-01-21 17:12:30.80	20.83	8.75	-37.3	-38.0	23.5	0.00e+00	0	41	0	409993216	48	5754
2026-01-21 17:12:31.81	20.82	8.83	-37.2	-37.9	23.5	0.00e+00	0	41	0	416284672	48	5684
2026-01-21 17:12:32.82	20.80	8.92	-37.0	-37.7	23.7	0.00e+00	0	41	0	421527552	48	5560
2026-01-21 17:12:33.83	20.79	9.00	-37.0	-37.8	23.7	0.00e+00	0	41	0	426770432	48	5575
2026-01-21 17:12:34.84	20.78	9.08	-36.8	-37.5	23.9	0.00e+00	0	41	0	433061888	48	5425
2026-01-21 17:12:35.85	20.76	9.17	-36.9	-37.6	23.9	0.00e+00	0	41	0	438304768	48	5467
2026-01-21 17:12:36.86	20.75	9.25	-36.7	-37.4	24.1	0.00e+00	0	41	0	444596224	46	5974
2026-01-21 17:12:37.87	20.74	9.34	-36.8	-37.5	23.9	0.00e+00	0	41	0	449839104	46	6084
2026-01-21 17:12:38.87	20.72	9.42	-36.6	-37.3	24.2	0.00e+00	0	41	0	455081984	46	5946
2026-01-21 17:12:39.89	20.71	9.51	-36.6	-37.3	24.1	0.00e+00	0	41	0	461373440	46	5962
2026-01-21 17:12:40.90	20.70	9.59	-36.7	-37.4	24.1	0.00e+00	0	41	0	466616320	46	5985
2026-01-21 17:12:41.91	20.68	9.68	-36.7	-37.4	24.1	0.00e+00	0	41	0	472907776	46	5974
2026-01-21 17:12:42.91	20.67	9.76	-36.6	-37.3	24.2	0.00e+00	0	41	0	478150656	46	5919
2026-01-21 17:12:43.92	20.65	9.85	-36.7	-37.4	24.1	0.00e+00	0	41	0	484442112	46	5996
2026-01-21 17:12:44.94	20.64	9.94	-36.5	-37.2	24.3	0.00e+00	0	41	0	489684992	46	5867
2026-01-21 17:12:45.95	20.63	10.03	-36.5	-37.3	24.3	0.00e+00	0	41	0	495976448	46	5901
2026-01-21 17:12:46.96	20.61	10.11	-36.5	-37.2	24.3	0.00e+00	0	41	0	501219328	46	5867
2026-01-21 17:12:47.97	20.60	10.20	-36.4	-37.1	24.1	0.00e+00	0	41	0	506462208	46	5767
2026-01-21 17:12:48.98	20.58	10.29	-36.5	-37.2	24.3	0.00e+00	0	41	0	512753664	46	5853
2026-01-21 17:12:49.99	20.57	10.38	-36.6	-37.3	24.3	0.00e+00	0	41	0	517996544	46	5942
2026-01-21 17:12:51.00	20.55	10.47	-36.7	-37.4	23.9	0.00e+00	0	41	0	524288000	46	6015
2026-01-21 17:12:52.01	20.54	10.55	-36.5	-37.2	24.3	0.00e+00	0	41	0	529530880	46	5878
2026-01-21 17:12:53.02	20.52	10.64	-36.5	-37.2	24.2	0.00e+00	0	41	0	534773760	46	5847
2026-01-21 17:12:54.03	20.51	10.73	-36.8	-37.5	24.0	0.00e+00	0	41	0	541065216	46	6095
2026-01-21 17:12:55.03	20.49	10.82	-36.6	-37.3	24.2	0.00e+00	0	41	0	546308096	46	5921
2026-01-21 17:12:56.04	20.48	10.91	-36.3	-37.0	24.5	0.00e+00	0	41	0	552599552	46	5700
2026-01-21 17:12:57.05	20.46	11.00	-36.4	-37.1	24.4	0.00e+00	0	41	0	557842432	46	5781
2026-01-21 17:12:58.06	20.45	11.09	-36.1	-36.8	24.6	0.00e+00	0	41	0	563085312	46	5598
2026-01-21 17:12:59.07	20.43	11.19	-36.3	-37.0	24.5	0.00e+00	0	41	0	569376768	46	5719
2026-01-21 17:13:00.08	20.41	11.28	-36.3	-37.0	24.6	0.00e+00	0	41	0	574619648	46	5712
2026-01-21 17:13:01.09	20.40	11.37	-36.4	-37.1	24.4	0.00e+00	0	41	0	580911104	46	5777
2026-01-21 17:13:02.10	20.38	11.46	-36.5	-37.2	24.3	0.00e+00	0	41	0	586153984	46	5844
2026-01-21 17:13:03.11	20.37	11.55	-36.2	-36.9	24.6	0.00e+00	0	41	0	592445440	46	5644
2026-01-21 17:13:04.12	20.35	11.65	-36.1	-36.8	24.7	0.00e+00	0	41	0	597688320	46	5606
2026-01-21 17:13:05.13	20.33	11.74	-36.2	-36.9	24.7	0.00e+00	0	41	0	602931200	46	5636
2026-01-21 17:13:06.13	20.32	11.83	-36.1	-36.8	24.6	0.00e+00	0	41	0	609222656	46	5623
2026-01-21 17:13:07.14	20.30	11.93	-36.3	-37.0	24.6	0.00e+00	0	41	0	614465536	46	5706
2026-01-21 17:13:08.15	20.28	12.02	-36.1	-36.8	24.6	0.00e+00	0	41	0	620756992	46	5588
2026-01-21 17:13:09.16	20.27	12.12	-36.2	-36.9	24.6	0.00e+00	0	41	0	625999872	46	5643
2026-01-21 17:13:10.17	20.25	12.21	-36.2	-36.9	24.7	0.00e+00	0	41	0	631242752	46	5667
2026-01-21 17:13:11.18	20.23	12.31	-36.2	-36.9	24.7	0.00e+00	0	41	0	637534208	46	5675
2026-01-21 17:13:12.19	20.21	12.40	-36.2	-36.9	24.7	0.00e+00	0	41	0	642777088	46	5663
2026-01-21 17:13:13.21	20.20	12.50	-36.1	-36.7	24.6	0.00e+00	0	41	0	649068544	46	5562
2026-01-21 17:13:14.21	20.18	12.60	-36.0	-36.7	24.8	0.00e+00	0	41	0	654311424	46	5543
2026-01-21 17:13:15.23	20.16	12.70	-36.0	-36.7	24.9	0.00e+00	0	41	0	659554304	46	5515
2026-01-21 17:13:16.24	20.14	12.79	-36.0	-36.7	24.7	0.00e+00	0	41	0	665845760	46	5519
2026-01-21 17:13:17.25	20.12	12.89	-36.0	-36.7	24.8	0.00e+00	0	41	0	671088640	46	5551
2026-01-21 17:13:18.26	20.10	12.99	-35.8	-36.4	25.1	0.00e+00	0	41	0	677380096	46	5367
2026-01-21 17:13:19.27	20.09	13.09	-35.9	-36.5	25.0	0.00e+00	0	41	0	682622976	46	5438
2026-01-21 17:13:20.28	20.07	13.19	-36.1	-36.8	24.7	0.00e+00	0	41	0	688914432	46	5575
2026-01-21 17:13:21.29	20.05	13.29	-35.9	-36.6	24.8	0.00e+00	0	41	0	694157312	46	5485
2026-01-21 17:13:22.30	20.03	13.39	-36.0	-36.7	24.9	0.00e+00	0	41	0	700448768	46	5534
2026-01-21 17:13:23.31	20.01	13.49	-36.0	-36.7	24.8	0.00e+00	0	41	0	705691648	46	5531
2026-01-21 17:13:24.31	19.99	13.59	-35.8	-36.5	25.0	0.00e+00	0	41	0	710934528	46	5423
2026-01-21 17:13:25.32	19.97	13.69	-35.9	-36.6	24.9	0.00e+00	0	41	0	717225984	46	5443
2026-01-21 17:13:26.33	19.95	13.79	-35.9	-36.5	24.9	0.00e+00	0	41	0	722468864	46	5439
2026-01-21 17:13:27.34	19.93	13.89	-35.8	-36.4	25.1	0.00e+00	0	41	0	728760320	44	6023
2026-01-21 17:13:28.35	19.91	13.99	-35.8	-36.5	25.1	0.00e+00	0	41	0	734003200	44	6058
2026-01-21 17:13:29.36	19.89	14.10	-35.7	-36.4	25.1	0.00e+00	0	41	0	739246080	44	5965
2026-01-21 17:13:30.37	19.87	14.20	-35.7	-36.4	25.1	0.00e+00	0	41	0	745537536	44	6012
2026-01-21 17:13:31.38	19.85	14.30	-35.6	-36.3	25.2	0.00e+00	0	41	0	750780416	44	5949
2026-01-21 17:13:32.39	19.83	14.41	-35.5	-36.2	25.3	0.00e+00	0	41	0	757071872	44	5848
2026-01-21 17:13:33.39	19.81	14.51	-35.5	-36.2	25.2	0.00e+00	0	41	0	762314752	44	5874
2026-01-21 17:13:34.40	19.79	14.61	-35.5	-36.2	25.3	0.00e+00	0	41	0	767557632	44	5865
2026-01-21 17:13:35.41	19.77	14.72	-35.6	-36.3	25.2	0.00e+00	0	42	0	773849088	44	5930
2026-01-21 17:13:36.42	19.75	14.83	-35.5	-36.2	25.2	0.00e+00	0	41	0	779091968	44	5842
2026-01-21 17:13:37.43	19.72	14.93	-35.4	-36.1	25.4	0.00e+00	0	41	0	785383424	44	5818
2026-01-21 17:13:38.44	19.70	15.04	-35.4	-36.1	25.4	0.00e+00	0	41	0	790626304	44	5796
2026-01-21 17:13:39.45	19.68	15.15	-35.3	-36.0	25.4	0.00e+00	0	41	0	796917760	44	5708
2026-01-21 17:13:40.46	19.66	15.25	-35.4	-36.0	25.4	0.00e+00	0	41	0	802160640	44	5751
2026-01-21 17:13:41.47	19.64	15.36	-35.3	-36.0	25.6	0.00e+00	0	41	0	807403520	44	5703
2026-01-21 17:13:42.48	19.61	15.47	-35.3	-36.0	25.6	0.00e+00	0	41	0	813694976	44	5718
2026-01-21 17:13:43.49	19.59	15.58	-35.2	-35.9	25.7	0.00e+00	0	41	0	818937856	44	5663
2026-01-21 17:13:44.50	19.57	15.69	-35.1	-35.7	25.7	0.00e+00	0	42	0	825229312	44	5558
2026-01-21 17:13:45.51	19.55	15.80	-35.1	-35.8	25.7	0.00e+00	0	41	0	830472192	44	5594
2026-01-21 17:13:46.51	19.52	15.91	-35.0	-35.7	25.8	0.00e+00	0	41	0	835715072	44	5510
2026-01-21 17:13:47.52	19.50	16.02	-35.0	-35.7	25.7	0.00e+00	0	41	0	842006528	44	5504
2026-01-21 17:13:48.53	19.47	16.13	-34.9	-35.6	25.9	0.00e+00	0	41	0	847249408	44	5476
2026-01-21 17:13:49.54	19.45	16.24	-35.0	-35.7	25.9	0.00e+00	0	41	0	853540864	44	5507
2026-01-21 17:13:50.55	19.43	16.36	-35.2	-35.9	25.6	0.00e+00	0	41	0	858783744	44	5659
2026-01-21 17:13:51.56	19.40	16.47	-35.1	-35.8	25.8	0.00e+00	0	41	0	864026624	44	5591
2026-01-21 17:13:52.57	19.38	16.58	-34.8	-35.5	26.0	0.00e+00	0	41	0	870318080	44	5381
2026-01-21 17:13:53.58	19.35	16.70	-35.1	-35.8	25.7	0.00e+00	0	41	0	875560960	42	6289
2026-01-21 17:13:54.59	19.33	16.81	-35.6	-36.2	25.3	0.00e+00	0	41	0	881852416	42	6592
2026-01-21 17:13:55.59	19.30	16.93	-35.7	-36.4	25.3	0.00e+00	0	41	0	887095296	42	6703
2026-01-21 17:13:56.60	19.28	17.04	-34.8	-35.4	26.1	0.00e+00	0	41	0	893386752	42	6033
2026-01-21 17:13:57.61	19.25	17.16	-35.0	-35.7	25.9	0.00e+00	0	41	0	898629632	42	6183
2026-01-21 17:13:58.62	19.23	17.28	-35.1	-35.8	25.9	0.00e+00	0	41	0	903872512	42	6249
2026-01-21 17:13:59.63	19.20	17.39	-34.6	-35.2	26.3	0.00e+00	0	41	0	910163968	42	5891
2026-01-21 17:14:00.64	19.17	17.51	-34.6	-35.2	26.3	0.00e+00	0	41	0	915406848	42	5890
2026-01-21 17:14:01.65	19.15	17.63	-34.5	-35.1	26.4	0.00e+00	0	41	0	921698304	42	5814
2026-01-21 17:14:02.66	19.12	17.75	-34.4	-35.1	26.5	0.00e+00	0	41	0	926941184	42	5762
2026-01-21 17:14:03.67	19.09	17.87	-34.3	-34.9	26.5	0.00e+00	0	41	0	932184064	42	5683
2026-01-21 17:14:04.68	19.07	17.99	-34.5	-35.1	26.3	0.00e+00	0	41	0	938475520	42	5803
2026-01-21 17:14:05.69	19.04	18.11	-34.6	-35.2	26.4	0.00e+00	0	41	0	943718400	42	5859
2026-01-21 17:14:06.70	19.01	18.23	-34.4	-35.0	26.4	0.00e+00	0	41	0	950009856	42	5750
2026-01-21 17:14:07.71	18.98	18.35	-34.7	-35.3	26.2	0.00e+00	0	41	0	955252736	42	5943
2026-01-21 17:14:08.72	18.95	18.48	-34.4	-35.1	26.5	0.00e+00	0	41	0	960495616	42	5766
2026-01-21 17:14:09.73	18.93	18.60	-34.4	-35.1	26.5	0.00e+00	0	41	0	966787072	42	5778
2026-01-21 17:14:10.75	18.90	18.72	-34.2	-34.9	26.7	0.00e+00	0	41	0	972029952	42	5643
2026-01-21 17:14:11.75	18.87	18.85	-34.3	-34.9	26.7	0.00e+00	0	41	0	978321408	42	5647
2026-01-21 17:14:12.76	18.84	18.97	-34.3	-34.9	26.6	0.00e+00	0	41	0	983564288	42	5678
2026-01-21 17:14:13.77	18.81	19.10	-34.3	-34.9	26.6	0.00e+00	0	41	0	989855744	42	5688
2026-01-21 17:14:14.79	18.78	19.23	-34.2	-34.9	26.7	0.00e+00	0	41	0	995098624	42	5633
2026-01-21 17:14:15.80	18.75	19.35	-34.2	-34.8	26.6	0.00e+00	0	41	0	1001390080	42	5627
2026-01-21 17:14:16.81	18.72	19.48	-34.1	-34.8	26.8	0.00e+00	0	41	0	1006632960	42	5589
2026-01-21 17:14:17.82	18.69	19.61	-34.2	-34.8	26.7	0.00e+00	0	41	0	1011875840	42	5596
2026-01-21 17:14:18.83	18.65	19.74	-34.3	-34.9	26.7	0.00e+00	0	41	0	1018167296	42	5671
2026-01-21 17:14:19.84	18.62	19.87	-34.3	-35.0	26.6	0.00e+00	0	41	0	1023410176	42	5704
2026-01-21 17:14:20.85	18.59	20.00	-34.4	-35.0	26.5	0.00e+00	0	41	0	1029701632	42	5736
2026-01-21 17:14:21.86	18.56	20.13	-34.3	-35.0	26.6	0.00e+00	0	41	0	1034944512	42	5728
2026-01-21 17:14:22.87	18.53	20.26	-34.2	-34.8	26.7	0.00e+00	0	41	0	1040187392	42	5585
2026-01-21 17:14:23.88	18.49	20.39	-34.2	-34.9	26.6	0.00e+00	0	41	0	1046478848	42	5659
2026-01-21 17:14:24.89	18.46	20.53	-34.4	-35.1	26.6	0.00e+00	0	41	0	1051721728	42	5784
2026-01-21 17:14:25.90	18.43	20.66	-34.3	-34.9	26.7	0.00e+00	0	41	0	1058013184	42	5670
2026-01-21 17:14:26.91	18.39	20.80	-34.2	-34.8	26.8	0.00e+00	0	41	0	1063256064	42	5613
2026-01-21 17:14:27.92	18.36	20.93	-34.0	-34.7	26.9	0.00e+00	0	41	0	1068498944	42	5504
2026-01-21 17:14:28.93	18.33	21.07	-33.9	-34.6	26.9	0.00e+00	0	41	0	1074790400	42	5453
2026-01-21 17:14:29.94	18.29	21.20	-34.0	-34.6	26.9	0.00e+00	0	41	0	1080033280	42	5499
2026-01-21 17:14:30.95	18.26	21.34	-34.0	-34.7	26.9	0.00e+00	0	41	0	1086324736	42	5510
2026-01-21 17:14:31.96	18.22	21.48	-34.1	-34.8	26.8	0.00e+00	0	41	0	1091567616	42	5591
2026-01-21 17:14:32.97	18.18	21.62	-34.0	-34.6	26.9	0.00e+00	0	41	0	1097859072	42	5487
2026-01-21 17:14:33.98	18.15	21.76	-33.9	-34.5	27.0	0.00e+00	0	41	0	1103101952	40	6078
2026-01-21 17:14:34.99	18.11	21.90	-33.8	-34.5	27.1	0.00e+00	0	41	0	1109393408	40	6042
2026-01-21 17:14:36.00	18.08	22.04	-33.7	-34.4	27.0	0.00e+00	0	41	0	1114636288	40	5979
2026-01-21 17:14:37.01	18.04	22.18	-33.7	-34.3	27.2	0.00e+00	0	41	0	1119879168	40	5935
2026-01-21 17:14:38.02	18.00	22.32	-33.6	-34.3	27.2	0.00e+00	0	42	0	1126170624	40	5905
2026-01-21 17:14:39.03	17.96	22.47	-33.6	-34.3	27.2	0.00e+00	0	41	0	1131413504	40	5918
2026-01-21 17:14:40.04	17.92	22.61	-33.7	-34.3	27.2	0.00e+00	0	41	0	1137704960	40	5908
2026-01-21 17:14:41.05	17.89	22.76	-33.6	-34.3	27.2	0.00e+00	0	41	0	1142947840	40	5901
2026-01-21 17:14:42.06	17.85	22.90	-33.6	-34.2	27.2	0.00e+00	0	41	0	1148190720	40	5880
2026-01-21 17:14:43.07	17.81	23.05	-33.8	-34.4	27.2	0.00e+00	0	41	0	1154482176	40	6013
2026-01-21 17:14:44.08	17.77	23.20	-33.6	-34.2	27.2	0.00e+00	0	42	0	1159725056	40	5848
2026-01-21 17:14:45.09	17.73	23.35	-33.7	-34.3	27.2	0.00e+00	0	42	0	1166016512	40	5954
2026-01-21 17:14:46.10	17.69	23.49	-33.5	-34.2	27.3	0.00e+00	0	42	0	1171259392	40	5859
2026-01-21 17:14:47.11	17.64	23.64	-33.6	-34.2	27.2	0.00e+00	0	41	0	1176502272	40	5872
2026-01-21 17:14:48.11	17.60	23.79	-33.4	-34.0	27.4	0.00e+00	0	42	0	1182793728	40	5726
2026-01-21 17:14:49.12	17.56	23.95	-33.4	-34.0	27.3	0.00e+00	0	42	0	1188036608	40	5753
2026-01-21 17:14:50.13	17.52	24.10	-33.4	-34.1	27.4	0.00e+00	0	41	0	1194328064	40	5767
2026-01-21 17:14:51.14	17.48	24.25	-33.3	-33.9	27.4	0.00e+00	0	42	0	1199570944	40	5691
2026-01-21 17:14:52.15	17.43	24.41	-33.3	-34.0	27.5	0.00e+00	0	41	0	1205862400	40	5705
2026-01-21 17:14:53.16	17.39	24.56	-33.4	-34.0	27.4	0.00e+00	0	41	0	1211105280	40	5698
2026-01-21 17:14:54.17	17.34	24.72	-33.4	-34.0	27.4	0.00e+00	0	42	0	1216348160	40	5760
2026-01-21 17:14:55.19	17.30	24.88	-33.4	-34.1	27.3	0.00e+00	0	41	0	1222639616	40	5777
2026-01-21 17:14:56.20	17.25	25.04	-33.3	-33.9	27.4	0.00e+00	0	42	0	1227882496	40	5681
2026-01-21 17:14:57.21	17.21	25.19	-33.5	-34.1	27.4	0.00e+00	0	42	0	1234173952	40	5802
2026-01-21 17:14:58.22	17.16	25.35	-33.2	-33.8	27.5	0.00e+00	0	41	0	1239416832	40	5626
2026-01-21 17:14:59.23	17.11	25.52	-33.3	-33.9	27.5	0.00e+00	0	42	0	1244659712	40	5674
2026-01-21 17:15:00.24	17.07	25.68	-33.2	-33.9	27.6	0.00e+00	0	41	0	1250951168	40	5634
2026-01-21 17:15:01.25	17.02	25.84	-33.2	-33.8	27.6	0.00e+00	0	41	0	1256194048	40	5617
2026-01-21 17:15:02.26	16.97	26.00	-33.2	-33.9	27.6	0.00e+00	0	42	0	1262485504	40	5641
2026-01-21 17:15:03.27	16.92	26.17	-33.1	-33.7	27.8	0.00e+00	0	42	0	1267728384	40	5535
2026-01-21 17:15:04.28	16.87	26.33	-33.2	-33.8	27.7	0.00e+00	0	42	0	1272971264	40	5614
2026-01-21 17:15:05.29	16.82	26.50	-33.2	-33.8	27.6	0.00e+00	0	41	0	1279262720	40	5623
2026-01-21 17:15:06.30	16.77	26.67	-33.2	-33.9	27.6	0.00e+00	0	41	0	1284505600	40	5645
2026-01-21 17:15:07.31	16.72	26.84	-33.2	-33.9	27.6	0.00e+00	0	41	0	1290797056	40	5657
2026-01-21 17:15:08.31	16.67	27.01	-33.5	-34.1	27.6	0.00e+00	0	41	0	1296039936	40	5798
2026-01-21 17:15:09.32	16.61	27.18	-33.3	-34.0	27.6	0.00e+00	0	42	0	1302331392	40	5705
2026-01-21 17:15:10.33	16.56	27.35	-33.1	-33.8	27.6	0.00e+00	0	42	0	1307574272	40	5605
2026-01-21 17:15:11.34	16.51	27.52	-33.1	-33.7	27.7	0.00e+00	0	41	0	1313865728	40	5554
2026-01-21 17:15:12.35	16.45	27.70	-33.2	-33.8	27.6	0.00e+00	0	41	0	1319108608	40	5613
2026-01-21 17:15:13.36	16.40	27.87	-33.2	-33.8	27.6	0.00e+00	0	41	0	1324351488	40	5607
2026-01-21 17:15:14.37	16.34	28.05	-33.2	-33.8	27.6	0.00e+00	0	41	0	1330642944	40	5630
2026-01-21 17:15:15.38	16.29	28.23	-33.2	-33.8	27.6	0.00e+00	0	41	0	1335885824	40	5607
2026-01-21 17:15:16.39	16.23	28.40	-33.1	-33.7	27.7	0.00e+00	0	42	0	1342177280	40	5520
2026-01-21 17:15:17.40	16.17	28.58	-33.1	-33.8	27.7	0.00e+00	0	41	0	1347420160	40	5572
2026-01-21 17:15:18.41	16.11	28.76	-33.0	-33.6	27.8	0.00e+00	0	42	0	1352663040	40	5497
2026-01-21 17:15:19.42	16.05	28.95	-32.9	-33.5	27.8	0.00e+00	0	41	0	1358954496	40	5409
2026-01-21 17:15:20.43	15.99	29.13	-32.9	-33.6	27.9	0.00e+00	0	41	0	1364197376	40	5463
2026-01-21 17:15:21.44	15.93	29.31	-32.9	-33.5	27.9	0.00e+00	0	41	0	1370488832	40	5417
2026-01-21 17:15:22.45	15.87	29.50	-32.8	-33.4	27.9	0.00e+00	0	41	0	1375731712	40	5376
2026-01-21 17:15:23.46	15.81	29.69	-32.9	-33.5	28.0	0.00e+00	0	41	0	1380974592	40	5407
2026-01-21 17:15:24.46	15.75	29.87	-32.9	-33.5	27.9	0.00e+00	0	41	0	1387266048	40	5433
2026-01-21 17:15:25.47	15.68	30.06	-32.9	-33.6	27.8	0.00e+00	0	41	0	1392508928	40	5467
2026-01-21 17:15:26.48	15.62	30.25	-33.0	-33.7	27.9	0.00e+00	0	41	0	1398800384	40	5527
2026-01-21 17:15:27.49	15.56	30.44	-32.9	-33.6	27.9	0.00e+00	0	41	0	1404043264	40	5453
2026-01-21 17:15:28.51	15.49	30.64	-32.9	-33.6	27.9	0.00e+00	0	41	0	1410334720	40	5461
2026-01-21 17:15:29.51	15.42	30.83	-32.9	-33.6	27.8	0.00e+00	0	42	0	1415577600	40	5472
2026-01-21 17:15:30.52	15.35	31.02	-32.8	-33.5	28.0	0.00e+00	0	41	0	1420820480	40	5380
2026-01-21 17:15:31.53	15.29	31.22	-32.8	-33.5	28.0	0.00e+00	0	41	0	1427111936	38	6057
2026-01-21 17:15:32.54	15.22	31.42	-32.9	-33.5	27.9	0.00e+00	0	41	0	1432354816	38	6053
2026-01-21 17:15:33.55	15.15	31.62	-32.7	-33.3	28.1	0.00e+00	0	41	0	1438646272	38	5951
2026-01-21 17:15:34.56	15.07	31.82	-32.8	-33.4	28.0	0.00e+00	0	41	0	1443889152	38	6008
2026-01-21 17:15:35.57	15.00	32.02	-32.6	-33.2	28.1	0.00e+00	0	41	0	1449132032	38	5849
2026-01-21 17:15:36.58	14.93	32.22	-32.7	-33.3	28.0	0.00e+00	0	41	0	1455423488	38	5915
2026-01-21 17:15:37.59	14.86	32.43	-32.4	-33.1	28.2	0.00e+00	0	42	0	1460666368	38	5779
2026-01-21 17:15:38.60	14.78	32.63	-32.4	-33.0	28.3	0.00e+00	0	41	0	1466957824	38	5738
2026-01-21 17:15:39.61	14.70	32.84	-32.5	-33.1	28.2	0.00e+00	0	41	0	1472200704	38	5805
2026-01-21 17:15:40.62	14.63	33.05	-32.4	-33.0	28.3	0.00e+00	0	41	0	1477443584	38	5744
2026-01-21 17:15:41.63	14.55	33.26	-32.4	-33.0	28.3	0.00e+00	0	41	0	1483735040	38	5743
2026-01-21 17:15:42.64	14.47	33.47	-32.6	-33.2	28.2	0.00e+00	0	41	0	1488977920	38	5891
2026-01-21 17:15:43.65	14.39	33.68	-32.6	-33.3	28.1	0.00e+00	0	41	0	1495269376	38	5916
2026-01-21 17:15:44.66	14.31	33.89	-32.6	-33.2	28.2	0.00e+00	0	41	0	1500512256	38	5859
2026-01-21 17:15:45.67	14.22	34.11	-32.5	-33.1	28.3	0.00e+00	0	41	0	1506803712	38	5788
2026-01-21 17:15:46.68	14.14	34.33	-32.4	-33.1	28.3	0.00e+00	0	41	0	1512046592	38	5768
2026-01-21 17:15:47.69	14.06	34.54	-32.2	-32.9	28.5	0.00e+00	0	41	0	1518338048	38	5635
2026-01-21 17:15:48.70	13.97	34.76	-32.2	-32.8	28.5	0.00e+00	0	41	0	1523580928	38	5614
2026-01-21 17:15:49.71	13.88	34.99	-32.0	-32.6	28.6	0.00e+00	0	41	0	1528823808	38	5452
2026-01-21 17:15:50.72	13.79	35.21	-31.9	-32.5	28.7	0.00e+00	0	41	0	1535115264	38	5402
2026-01-21 17:15:51.73	13.70	35.43	-32.0	-32.6	28.7	0.00e+00	0	41	0	1540358144	38	5450
2026-01-21 17:15:52.74	13.61	35.66	-31.8	-32.5	28.7	0.00e+00	0	41	0	1546649600	38	5384
2026-01-21 17:15:53.74	13.52	35.88	-32.1	-32.7	28.5	0.00e+00	0	41	0	1551892480	38	5531
2026-01-21 17:15:54.75	13.43	36.11	-32.2	-32.8	28.4	0.00e+00	0	41	0	1557135360	38	5624
2026-01-21 17:15:55.77	13.33	36.34	-32.4	-33.1	28.3	0.00e+00	0	41	0	1563426816	38	5768
2026-01-21 17:15:56.78	13.23	36.58	-32.4	-33.0	28.4	0.00e+00	0	41	0	1568669696	38	5705
2026-01-21 17:15:57.79	13.14	36.81	-32.3	-32.9	28.4	0.00e+00	0	41	0	1574961152	38	5642
2026-01-21 17:15:58.80	13.04	37.04	-32.2	-32.8	28.5	0.00e+00	0	41	0	1580204032	38	5571
2026-01-21 17:15:59.81	12.93	37.28	-32.3	-32.9	28.4	0.00e+00	0	41	0	1585446912	38	5663
2026-01-21 17:16:00.81	12.83	37.52	-32.3	-32.9	28.3	0.00e+00	0	41	0	1591738368	38	5670
2026-01-21 17:16:01.83	12.73	37.76	-32.3	-32.9	28.4	0.00e+00	0	41	0	1596981248	38	5669
2026-01-21 17:16:02.83	12.62	38.00	-32.3	-32.9	28.4	0.00e+00	0	41	0	1603272704	38	5633
2026-01-21 17:16:03.85	12.51	38.24	-32.3	-32.9	28.3	0.00e+00	0	41	0	1608515584	38	5683
2026-01-21 17:16:04.86	12.40	38.49	-32.5	-33.1	28.2	0.00e+00	0	41	0	1614807040	38	5775
2026-01-21 17:16:05.87	12.29	38.74	-32.7	-33.4	28.0	0.00e+00	0	41	0	1620049920	38	5980
2026-01-21 17:16:06.87	12.18	38.98	-32.8	-33.4	28.1	0.00e+00	0	41	0	1625292800	38	6000
2026-01-21 17:16:07.88	12.07	39.23	-32.8	-33.4	28.2	0.00e+00	0	41	0	1631584256	38	6010
2026-01-21 17:16:08.89	11.95	39.48	-32.5	-33.1	28.3	0.00e+00	0	41	0	1636827136	38	5803
2026-01-21 17:16:09.91	11.83	39.74	-32.5	-33.1	28.2	0.00e+00	0	41	0	1643118592	38	5792
2026-01-21 17:16:10.92	11.71	39.99	-32.6	-33.2	28.1	0.00e+00	0	41	0	1648361472	38	5833
2026-01-21 17:16:11.93	11.59	40.25	-32.4	-33.0	28.3	0.00e+00	0	41	0	1653604352	38	5743
2026-01-21 17:16:12.94	11.47	40.51	-32.6	-33.2	28.2	0.00e+00	0	41	0	1659895808	38	5874
2026-01-21 17:16:13.94	11.34	40.76	-32.7	-33.4	28.0	0.00e+00	0	41	0	1665138688	38	5970
2026-01-21 17:16:14.96	11.21	41.03	-32.8	-33.5	28.0	0.00e+00	0	41	0	1671430144	38	6037
2026-01-21 17:16:15.97	11.08	41.29	-33.1	-33.7	27.9	0.00e+00	0	41	0	1676673024	38	6200
2026-01-21 17:16:16.98	10.95	41.56	-33.0	-33.6	27.8	0.00e+00	0	41	0	1681915904	38	6134
2026-01-21 17:16:17.99	10.81	41.82	-33.1	-33.7	27.8	0.00e+00	0	41	0	1688207360	38	6196
2026-01-21 17:16:19.00	10.68	42.09	-33.2	-33.8	27.7	0.00e+00	0	41	0	1693450240	38	6315
2026-01-21 17:16:20.01	10.54	42.36	-33.2	-33.9	27.7	0.00e+00	0	41	0	1699741696	38	6341
2026-01-21 17:16:21.02	10.39	42.64	-32.9	-33.5	27.9	0.00e+00	0	41	0	1704984576	38	6097
2026-01-21 17:16:22.03	10.25	42.91	-32.8	-33.4	27.9	0.00e+00	0	41	0	1711276032	38	6010
2026-01-21 17:16:23.04	10.10	43.19	-32.9	-33.5	28.0	0.00e+00	0	41	0	1716518912	38	6062
2026-01-21 17:16:24.05	9.95	43.46	-33.2	-33.8	27.7	0.00e+00	0	41	0	1722810368	38	6298
2026-01-21 17:16:25.06	9.80	43.74	-33.3	-33.9	27.6	0.00e+00	0	41	0	1728053248	38	6362
2026-01-21 17:16:26.07	9.65	44.02	-33.4	-34.1	27.5	0.00e+00	0	41	0	1733296128	38	6466
2026-01-21 17:16:27.08	9.49	44.31	-33.1	-33.8	27.8	0.00e+00	0	41	0	1739587584	38	6255
2026-01-21 17:16:28.09	9.33	44.59	-32.9	-33.5	28.0	0.00e+00	0	41	0	1744830464	38	6091
2026-01-21 17:16:29.10	9.16	44.88	-33.0	-33.6	27.9	0.00e+00	0	41	0	1751121920	38	6117
2026-01-21 17:16:30.10	9.00	45.17	-33.1	-33.8	27.8	0.00e+00	0	41	0	1756364800	38	6259
2026-01-21 17:16:31.11	8.83	45.46	-33.5	-34.1	27.6	0.00e+00	0	41	0	1761607680	38	6508
2026-01-21 17:16:32.12	8.65	45.75	-33.3	-34.0	27.6	0.00e+00	0	41	0	1767899136	38	6394
2026-01-21 17:16:33.13	8.48	46.04	-33.2	-33.8	27.7	0.00e+00	0	41	0	1773142016	38	6311
2026-01-21 17:16:34.14	8.30	46.34	-33.0	-33.6	27.9	0.00e+00	0	41	0	1779433472	38	6107
2026-01-21 17:16:35.15	8.11	46.64	-33.0	-33.6	27.8	0.00e+00	0	41	0	1784676352	38	6140
2026-01-21 17:16:36.16	7.93	46.93	-33.0	-33.6	27.9	0.00e+00	0	41	0	1789919232	38	6148
2026-01-21 17:16:37.17	7.74	47.24	-33.1	-33.7	27.8	0.00e+00	0	41	0	1796210688	38	6197
2026-01-21 17:16:38.18	7.54	47.54	-32.8	-33.5	28.0	0.00e+00	0	41	0	1801453568	38	6047
2026-01-21 17:16:39.19	7.34	47.84	-33.0	-33.6	27.8	0.00e+00	0	41	0	1807745024	38	6170
2026-01-21 17:16:40.20	7.14	48.15	-33.0	-33.7	27.9	0.00e+00	0	41	0	1812987904	38	6184
2026-01-21 17:16:41.21	6.93	48.46	-32.8	-33.4	28.0	0.00e+00	0	41	0	1819279360	38	5984
2026-01-21 17:16:42.22	6.72	48.77	-32.7	-33.3	28.2	0.00e+00	0	41	0	1824522240	38	5922
2026-01-21 17:16:43.22	6.51	49.08	-32.7	-33.3	28.1	0.00e+00	0	41	0	1829765120	38	5936
2026-01-21 17:16:44.23	6.29	49.39	-33.0	-33.7	27.8	0.00e+00	0	41	0	1836056576	38	6187
2026-01-21 17:16:45.24	6.06	49.71	-33.4	-34.0	27.6	0.00e+00	0	41	0	1841299456	38	6403
2026-01-21 17:16:46.25	5.83	50.02	-33.5	-34.1	27.4	0.00e+00	0	41	0	1847590912	38	6487
2026-01-21 17:16:47.26	5.60	50.34	-33.6	-34.2	27.5	0.00e+00	0	41	0	1852833792	38	6588
2026-01-21 17:16:48.27	5.36	50.66	-33.7	-34.3	27.3	0.00e+00	0	41	0	1858076672	38	6644
2026-01-21 17:16:49.28	5.12	50.99	-33.9	-34.5	27.2	0.00e+00	0	41	0	1864368128	40	6076
2026-01-21 17:16:50.29	4.87	51.31	-34.3	-34.9	26.8	0.00e+00	0	41	0	1869611008	40	6357
2026-01-21 17:16:51.30	4.61	51.64	-34.6	-35.2	26.6	0.00e+00	0	41	0	1875902464	40	6596
2026-01-21 17:16:52.31	4.35	51.96	-34.4	-35.0	26.8	0.00e+00	0	41	0	1881145344	40	6438
2026-01-21 17:16:53.32	4.08	52.29	-34.2	-34.8	27.0	0.00e+00	0	41	0	1886388224	40	6299
2026-01-21 17:16:54.33	3.81	52.62	-33.9	-34.5	27.1	0.00e+00	0	41	0	1892679680	40	6102
2026-01-21 17:16:55.34	3.53	52.96	-34.1	-34.8	27.0	0.00e+00	0	41	0	1897922560	40	6279
2026-01-21 17:16:56.35	3.24	53.29	-34.2	-34.8	26.9	0.00e+00	0	41	0	1904214016	40	6292
2026-01-21 17:16:57.36	2.95	53.62	-34.1	-34.8	27.0	0.00e+00	0	41	0	1909456896	40	6274
2026-01-21 17:16:58.38	2.65	53.96	-34.2	-34.9	26.9	0.00e+00	0	41	0	1915748352	40	6346
2026-01-21 17:16:59.39	2.34	54.30	-34.6	-35.2	26.6	0.00e+00	0	41	0	1920991232	40	6609
2026-01-21 17:17:00.40	2.03	54.64	-34.2	-34.9	26.9	0.00e+00	0	41	0	1927282688	42	5676
2026-01-21 17:17:01.41	1.70	54.98	-34.3	-35.0	26.9	0.00e+00	0	41	0	1932525568	42	5710
2026-01-21 17:17:02.42	1.37	55.32	-34.2	-34.8	26.9	0.00e+00	0	41	0	1937768448	42	5619
2026-01-21 17:17:03.43	1.04	55.67	-34.0	-34.6	27.1	0.00e+00	0	41	0	1944059904	42	5472
2026-01-21 17:17:04.44	0.69	56.01	-34.3	-34.9	26.9	0.00e+00	0	41	0	1949302784	42	5673
2026-01-21 17:17:05.45	0.33	56.36	-33.9	-34.5	27.3	0.00e+00	0	41	0	1955594240	42	5399
2026-01-21 17:17:06.46	359.97	56.70	-33.4	-34.1	27.6	0.00e+00	0	41	0	1960837120	40	5763
2026-01-21 17:17:07.47	359.59	57.05	-33.4	-34.0	27.6	0.00e+00	0	41	0	1966080000	40	5751
2026-01-21 17:17:08.48	359.21	57.40	-33.4	-34.0	27.6	0.00e+00	0	41	0	1972371456	40	5703
2026-01-21 17:17:09.49	358.82	57.75	-33.3	-34.0	27.6	0.00e+00	0	41	0	1977614336	40	5705
2026-01-21 17:17:10.50	358.41	58.10	-33.2	-33.7	27.7	0.00e+00	0	41	0	1983905792	40	5562
2026-01-21 17:17:11.51	358.00	58.45	-32.9	-33.5	27.8	0.00e+00	0	41	0	1989148672	40	5409
2026-01-21 17:17:12.52	357.57	58.80	-33.1	-33.7	27.7	0.00e+00	0	41	0	1994391552	40	5528
2026-01-21 17:17:13.53	357.13	59.15	-33.2	-33.8	27.7	0.00e+00	0	41	0	2000683008	40	5595
2026-01-21 17:17:14.54	356.68	59.50	-33.0	-33.5	27.8	0.00e+00	0	41	0	2005925888	40	5432
2026-01-21 17:17:15.55	356.22	59.85	-32.9	-33.5	27.9	0.00e+00	0	41	0	2012217344	40	5414
2026-01-21 17:17:16.56	355.74	60.21	-33.0	-33.6	27.8	0.00e+00	0	41	0	2017460224	40	5457
2026-01-21 17:17:17.57	355.26	60.56	-33.2	-33.8	27.7	0.00e+00	0	41	0	2023751680	40	5624
2026-01-21 17:17:18.57	354.76	60.91	-33.3	-33.9	27.6	0.00e+00	0	41	0	2028994560	40	5689
2026-01-21 17:17:19.59	354.24	61.27	-33.2	-33.8	27.6	0.00e+00	0	41	0	2035286016	40	5608
2026-01-21 17:17:20.60	353.70	61.62	-33.0	-33.7	27.8	0.00e+00	0	41	0	2040528896	40	5536
2026-01-21 17:17:21.61	353.16	61.97	-33.3	-34.0	27.6	0.00e+00	0	41	0	2045771776	40	5703
2026-01-21 17:17:22.61	352.60	62.32	-33.4	-34.1	27.5	0.00e+00	0	41	0	2052063232	40	5799
2026-01-21 17:17:23.62	352.02	62.67	-33.1	-33.7	27.8	0.00e+00	0	41	0	2057306112	40	5539
2026-01-21 17:17:24.63	351.42	63.02	-32.9	-33.6	27.9	0.00e+00	0	41	0	2063597568	40	5440
2026-01-21 17:17:25.65	350.80	63.37	-32.9	-33.5	28.0	0.00e+00	0	41	0	2068840448	40	5405
2026-01-21 17:17:26.65	350.17	63.72	-33.2	-33.9	27.7	0.00e+00	0	41	0	2074083328	40	5670
2026-01-21 17:17:27.67	349.51	64.07	-33.3	-33.9	27.6	0.00e+00	0	41	0	2080374784	40	5683
2026-01-21 17:17:28.68	348.84	64.41	-33.0	-33.7	27.8	0.00e+00	0	41	0	2085617664	40	5511
2026-01-21 17:17:29.68	348.15	64.76	-33.0	-33.7	27.8	0.00e+00	0	41	0	2091909120	40	5508
2026-01-21 17:17:30.69	347.44	65.10	-32.5	-33.1	28.2	0.00e+00	0	41	0	2097152000	38	5790
2026-01-21 17:17:31.71	346.69	65.44	-32.5	-33.1	28.3	0.00e+00	0	41	0	2102394880	38	5821
2026-01-21 17:17:32.71	345.94	65.77	-32.4	-33.0	28.4	0.00e+00	0	41	0	2108686336	38	5727
2026-01-21 17:17:33.72	345.16	66.11	-32.1	-32.8	28.5	0.00e+00	0	41	0	2113929216	38	5582
2026-01-21 17:17:34.73	344.35	66.44	-32.1	-32.8	28.5	0.00e+00	0	41	0	2120220672	38	5587
2026-01-21 17:17:35.74	343.51	66.77	-32.1	-32.6	28.6	0.00e+00	0	41	0	2125463552	38	5498
2026-01-21 17:17:36.76	342.64	67.10	-31.9	-32.5	28.7	0.00e+00	0	41	0	2131755008	38	5423
2026-01-21 17:17:37.77	341.76	67.42	-32.2	-32.8	28.4	0.00e+00	0	41	0	2136997888	38	5619
2026-01-21 17:17:38.78	340.84	67.74	-32.0	-32.6	28.6	0.00e+00	0	41	0	2142240768	38	5498
2026-01-21 17:17:39.79	339.89	68.05	-31.6	-32.2	29.0	0.00e+00	0	41	0	2148532224	36	5863
2026-01-21 17:17:40.80	338.92	68.36	-31.7	-32.3	28.9	0.00e+00	0	41	0	2153775104	36	5959
2026-01-21 17:17:41.81	337.91	68.67	-31.5	-32.1	28.9	0.00e+00	0	41	0	2160066560	36	5793
2026-01-21 17:17:42.82	336.88	68.97	-31.5	-32.1	29.0	0.00e+00	0	41	0	2165309440	36	5770
2026-01-21 17:17:43.83	335.81	69.26	-31.6	-32.2	28.9	0.00e+00	0	41	0	2170552320	36	5878
2026-01-21 17:17:44.84	334.71	69.55	-32.0	-32.6	28.6	0.00e+00	0	41	0	2176843776	36	6146
2026-01-21 17:17:45.84	333.58	69.83	-32.2	-32.9	28.5	0.00e+00	0	41	0	2182086656	36	6321
2026-01-21 17:17:46.85	332.42	70.10	-32.0	-32.6	28.6	0.00e+00	0	41	0	2188378112	36	6136
2026-01-21 17:17:47.86	331.21	70.37	-32.3	-32.9	28.3	0.00e+00	0	41	0	2193620992	36	6390
2026-01-21 17:17:48.87	329.97	70.63	-32.5	-33.1	28.4	0.00e+00	0	41	0	2198863872	36	6499
2026-01-21 17:17:49.88	328.70	70.88	-31.9	-32.5	28.8	0.00e+00	0	41	0	2205155328	36	6070
2026-01-21 17:17:50.89	327.39	71.12	-31.9	-32.5	28.7	0.00e+00	0	41	0	2210398208	36	6079
2026-01-21 17:17:51.90	326.05	71.35	-31.7	-32.4	28.7	0.00e+00	0	41	0	2216689664	36	5975
2026-01-21 17:17:52.91	324.67	71.58	-31.7	-32.3	28.8	0.00e+00	0	41	0	2221932544	36	5922
2026-01-21 17:17:53.92	323.25	71.79	-32.0	-32.6	28.6	0.00e+00	0	41	0	2228224000	36	6171
2026-01-21 17:17:54.93	321.80	71.99	-32.0	-32.6	28.6	0.00e+00	0	41	0	2233466880	36	6149
2026-01-21 17:17:55.94	320.32	72.19	-31.8	-32.4	28.8	0.00e+00	0	41	0	2239758336	36	5972
2026-01-21 17:17:56.95	318.80	72.37	-31.9	-32.5	28.8	0.00e+00	0	41	0	2245001216	36	6085
2026-01-21 17:17:57.96	317.25	72.54	-32.1	-32.7	28.5	0.00e+00	0	41	0	2250244096	36	6240
2026-01-21 17:17:58.97	315.67	72.70	-32.3	-32.9	28.5	0.00e+00	0	41	0	2256535552	36	6338
2026-01-21 17:17:59.98	314.05	72.84	-31.7	-32.3	28.7	0.00e+00	0	41	0	2261778432	36	5942
2026-01-21 17:18:00.99	312.42	72.97	-31.9	-32.6	28.6	0.00e+00	0	41	0	2268069888	36	6138
2026-01-21 17:18:01.99	310.77	73.09	-32.3	-33.0	28.4	0.00e+00	0	41	0	2273312768	36	6406
2026-01-21 17:18:03.00	309.08	73.19	-32.4	-33.1	28.4	0.00e+00	0	41	0	2278555648	36	6469
2026-01-21 17:18:04.02	307.36	73.29	-31.7	-32.4	28.8	0.00e+00	0	41	0	2284847104	36	5971
2026-01-21 17:18:05.03	305.63	73.36	-31.9	-32.6	28.8	0.00e+00	0	41	0	2290089984	36	6110
2026-01-21 17:18:06.04	303.89	73.42	-31.7	-32.3	29.0	0.00e+00	0	41	0	2296381440	36	5929
2026-01-21 17:18:07.05	302.13	73.47	-31.7	-32.3	29.0	0.00e+00	0	41	0	2301624320	36	5924
2026-01-21 17:18:08.06	300.37	73.50	-31.8	-32.4	28.9	0.00e+00	0	41	0	2306867200	36	5987
2026-01-21 17:18:09.07	298.60	73.52	-31.9	-32.4	28.7	0.00e+00	0	41	0	2313158656	36	6032
2026-01-21 17:18:10.07	296.85	73.52	-32.1	-32.7	28.6	0.00e+00	0	41	0	2318401536	36	6234
2026-01-21 17:18:11.08	295.08	73.51	-32.3	-32.9	28.6	0.00e+00	0	41	0	2324692992	36	6353
2026-01-21 17:18:12.09	293.32	73.48	-31.8	-32.4	28.7	0.00e+00	0	41	0	2329935872	36	6018
2026-01-21 17:18:13.10	291.56	73.44	-31.7	-32.3	28.8	0.00e+00	0	41	0	2336227328	36	5947
2026-01-21 17:18:14.12	289.80	73.38	-32.2	-32.9	28.6	0.00e+00	0	41	0	2341470208	36	6357
2026-01-21 17:18:15.12	288.08	73.31	-31.7	-32.3	28.5	0.00e+00	0	41	0	2346713088	36	5908
2026-01-21 17:18:16.13	286.37	73.22	-31.8	-32.4	28.7	0.00e+00	0	41	0	2353004544	36	5987
2026-01-21 17:18:17.14	284.67	73.12	-32.0	-32.6	28.7	0.00e+00	0	41	0	2358247424	36	6136
2026-01-21 17:18:18.15	283.00	73.01	-32.2	-32.8	28.6	0.00e+00	0	41	0	2364538880	36	6264
2026-01-21 17:18:19.16	281.35	72.88	-32.1	-32.7	28.6	0.00e+00	0	41	0	2369781760	36	6206
2026-01-21 17:18:20.17	279.73	72.74	-32.1	-32.7	28.5	0.00e+00	0	41	0	2375024640	36	6230
2026-01-21 17:18:21.18	278.14	72.58	-32.4	-33.0	28.5	0.00e+00	0	41	0	2381316096	36	6405
2026-01-21 17:18:22.19	276.58	72.42	-32.3	-32.9	28.7	0.00e+00	0	41	0	2386558976	36	6356
2026-01-21 17:18:23.20	275.05	72.24	-32.4	-33.0	28.7	0.00e+00	0	41	0	2392850432	36	6427
2026-01-21 17:18:24.21	273.56	72.05	-32.6	-33.2	28.6	0.00e+00	0	41	0	2398093312	36	6548
2026-01-21 17:18:25.22	272.10	71.85	-32.6	-33.2	28.6	0.00e+00	0	41	0	2403336192	36	6585
2026-01-21 17:18:26.23	270.67	71.64	-32.5	-33.1	28.4	0.00e+00	0	41	0	2409627648	36	6523
2026-01-21 17:18:27.24	269.28	71.42	-32.4	-33.1	28.6	0.00e+00	0	41	0	2414870528	38	5764
2026-01-21 17:18:28.25	267.92	71.19	-32.0	-32.7	28.6	0.00e+00	0	41	0	2421161984	38	5524
2026-01-21 17:18:29.26	266.60	70.95	-32.7	-33.3	28.7	0.00e+00	0	41	0	2426404864	38	5928
2026-01-21 17:18:30.27	265.32	70.70	-32.3	-32.9	28.8	0.00e+00	0	41	0	2432696320	38	5680
2026-01-21 17:18:31.28	264.07	70.44	-32.1	-32.7	28.9	0.00e+00	0	41	0	2437939200	36	6178
2026-01-21 17:18:32.29	262.85	70.18	-32.1	-32.7	28.8	0.00e+00	0	41	0	2444230656	36	6230
2026-01-21 17:18:33.30	261.67	69.90	-32.1	-32.7	28.9	0.00e+00	0	41	0	2449473536	36	6202
2026-01-21 17:18:34.31	260.53	69.62	-31.9	-32.6	28.7	0.00e+00	0	41	0	2454716416	36	6140
2026-01-21 17:18:35.32	259.42	69.34	-32.2	-32.8	28.8	0.00e+00	0	41	0	2461007872	36	6290
2026-01-21 17:18:36.33	258.34	69.05	-31.8	-32.5	29.0	0.00e+00	0	41	0	2466250752	36	6038
2026-01-21 17:18:37.34	257.29	68.75	-32.1	-32.8	28.7	0.00e+00	0	41	0	2472542208	36	6263
2026-01-21 17:18:38.35	256.28	68.44	-32.5	-33.2	28.4	0.00e+00	0	41	0	2477785088	36	6613
2026-01-21 17:18:39.36	255.29	68.14	-32.4	-33.1	28.4	0.00e+00	0	41	0	2483027968	36	6476
2026-01-21 17:18:40.37	254.34	67.82	-32.0	-32.6	28.8	0.00e+00	0	41	0	2489319424	36	6117
2026-01-21 17:18:41.38	253.41	67.51	-31.9	-32.6	28.8	0.00e+00	0	41	0	2494562304	36	6112
2026-01-21 17:18:42.39	252.52	67.18	-32.1	-32.8	28.6	0.00e+00	0	41	0	2500853760	36	6280
2026-01-21 17:18:43.40	251.65	66.86	-32.5	-33.2	28.5	0.00e+00	0	41	0	2506096640	36	6541
2026-01-21 17:18:44.41	250.80	66.53	-32.4	-33.0	28.7	0.00e+00	0	41	0	2511339520	36	6402
2026-01-21 17:18:45.42	249.99	66.20	-32.2	-32.8	28.6	0.00e+00	0	41	0	2517630976	36	6253
2026-01-21 17:18:46.43	249.20	65.86	-32.5	-33.2	28.4	0.00e+00	0	41	0	2522873856	36	6543
2026-01-21 17:18:47.44	248.43	65.53	-32.6	-33.2	28.3	0.00e+00	0	41	0	2529165312	38	5859
2026-01-21 17:18:48.45	247.68	65.19	-32.5	-33.1	28.5	0.00e+00	0	41	0	2534408192	38	5819
2026-01-21 17:18:49.46	246.96	64.84	-32.8	-33.4	28.3	0.00e+00	0	41	0	2540699648	38	5965
2026-01-21 17:18:50.47	246.26	64.50	-32.9	-33.6	28.1	0.00e+00	0	41	0	2545942528	38	6120
2026-01-21 17:18:51.48	245.58	64.15	-32.4	-33.0	28.4	0.00e+00	0	41	0	2551185408	38	5728
2026-01-21 17:18:52.49	244.92	63.81	-32.5	-33.1	28.6	0.00e+00	0	41	0	2557476864	38	5824
2026-01-21 17:18:53.50	244.28	63.46	-33.2	-33.8	28.2	0.00e+00	0	41	0	2562719744	38	6249
2026-01-21 17:18:54.51	243.66	63.11	-33.3	-34.0	27.9	0.00e+00	0	41	0	2569011200	38	6399
2026-01-21 17:18:55.51	243.06	62.76	-32.5	-33.0	28.4	0.00e+00	0	41	0	2574254080	38	5740
2026-01-21 17:18:56.53	242.47	62.41	-32.8	-33.4	28.4	0.00e+00	0	41	0	2579496960	38	6010
2026-01-21 17:18:57.54	241.90	62.05	-33.1	-33.8	28.2	0.00e+00	0	41	0	2585788416	38	6259
2026-01-21 17:18:58.55	241.35	61.70	-33.0	-33.6	28.0	0.00e+00	0	41	0	2591031296	38	6170
2026-01-21 17:18:59.56	240.81	61.35	-33.0	-33.6	28.0	0.00e+00	0	41	0	2597322752	38	6143
2026-01-21 17:19:00.57	240.29	60.99	-33.0	-33.5	28.0	0.00e+00	0	41	0	2602565632	38	6079
2026-01-21 17:19:01.58	239.78	60.64	-33.1	-33.7	28.0	0.00e+00	0	41	0	2607808512	38	6227
2026-01-21 17:19:02.59	239.29	60.29	-33.0	-33.7	28.0	0.00e+00	0	41	0	2614099968	38	6222
2026-01-21 17:19:03.59	238.82	59.94	-32.8	-33.4	28.1	0.00e+00	0	41	0	2619342848	38	5999
2026-01-21 17:19:04.60	238.35	59.58	-32.9	-33.6	28.1	0.00e+00	0	41	0	2625634304	38	6119
2026-01-21 17:19:05.61	237.90	59.23	-33.0	-33.5	27.9	0.00e+00	0	41	0	2630877184	38	6092
2026-01-21 17:19:06.62	237.45	58.88	-33.1	-33.6	28.1	0.00e+00	0	41	0	2637168640	38	6173
2026-01-21 17:19:07.63	237.02	58.52	-32.8	-33.5	28.1	0.00e+00	0	41	0	2642411520	38	6087
2026-01-21 17:19:08.64	236.61	58.17	-33.1	-33.7	27.9	0.00e+00	0	41	0	2648702976	38	6184
2026-01-21 17:19:09.65	236.20	57.82	-33.1	-33.8	27.8	0.00e+00	0	41	0	2653945856	38	6295
2026-01-21 17:19:10.66	235.80	57.47	-33.4	-34.1	27.7	0.00e+00	0	41	0	2659188736	38	6480
2026-01-21 17:19:11.67	235.41	57.12	-33.5	-34.2	27.7	0.00e+00	0	41	0	2665480192	38	6561
2026-01-21 17:19:12.68	235.04	56.77	-33.6	-34.3	27.6	0.00e+00	0	41	0	2670723072	38	6631
2026-01-21 17:19:13.69	234.67	56.43	-33.6	-34.2	27.5	0.00e+00	0	41	0	2677014528	38	6567
2026-01-21 17:19:14.70	234.31	56.08	-33.6	-34.3	27.5	0.00e+00	0	41	0	2682257408	38	6662
2026-01-21 17:19:15.71	233.96	55.73	-33.9	-34.6	27.4	0.00e+00	0	41	0	2687500288	40	6153
2026-01-21 17:19:16.72	233.62	55.39	-33.7	-34.3	27.5	0.00e+00	0	41	0	2693791744	40	5902
2026-01-21 17:19:17.73	233.29	55.05	-33.9	-34.6	27.3	0.00e+00	0	41	0	2699034624	40	6166
2026-01-21 17:19:18.74	232.96	54.70	-34.0	-34.7	27.3	0.00e+00	0	41	0	2705326080	40	6231
2026-01-21 17:19:19.75	232.64	54.36	-33.9	-34.6	27.3	0.00e+00	0	41	0	2710568960	40	6138
2026-01-21 17:19:20.76	232.33	54.02	-34.0	-34.7	27.1	0.00e+00	0	41	0	2715811840	40	6203
2026-01-21 17:19:21.77	232.03	53.69	-33.8	-34.5	27.3	0.00e+00	0	41	0	2722103296	40	6072
2026-01-21 17:19:22.78	231.74	53.35	-34.1	-34.7	27.2	0.00e+00	0	41	0	2727346176	40	6213
2026-01-21 17:19:23.79	231.45	53.02	-33.8	-34.4	27.2	0.00e+00	0	41	0	2733637632	40	6015
2026-01-21 17:19:24.80	231.17	52.68	-33.7	-34.4	27.2	0.00e+00	0	41	0	2738880512	40	6028
2026-01-21 17:19:25.81	230.89	52.35	-33.3	-34.0	27.4	0.00e+00	0	41	0	2745171968	40	5732
2026-01-21 17:19:26.82	230.62	52.02	-33.1	-33.7	27.2	0.00e+00	0	41	0	2750414848	40	5515
2026-01-21 17:19:27.83	230.36	51.69	-33.2	-33.8	27.6	0.00e+00	0	41	0	2755657728	40	5568
2026-01-21 17:19:28.84	230.10	51.36	-33.2	-33.8	27.5	0.00e+00	0	41	0	2761949184	40	5626
2026-01-21 17:19:29.85	229.85	51.04	-33.3	-33.9	27.7	0.00e+00	0	41	0	2767192064	40	5645
2026-01-21 17:19:30.86	229.60	50.72	-33.1	-33.6	27.9	0.00e+00	0	41	0	2773483520	40	5476
2026-01-21 17:19:31.86	229.36	50.40	-33.2	-33.8	27.8	0.00e+00	0	41	0	2778726400	40	5572
2026-01-21 17:19:32.87	229.13	50.08	-33.3	-34.0	27.6	0.00e+00	0	41	0	2783969280	40	5748
2026-01-21 17:19:33.88	228.89	49.76	-33.4	-33.9	27.6	0.00e+00	0	41	0	2790260736	40	5675
2026-01-21 17:19:34.89	228.67	49.44	-33.3	-34.0	27.7	0.00e+00	0	41	0	2795503616	40	5736
2026-01-21 17:19:35.90	228.45	49.13	-33.0	-33.7	27.9	0.00e+00	0	41	0	2801795072	40	5543
2026-01-21 17:19:36.91	228.23	48.81	-33.1	-33.6	27.9	0.00e+00	0	41	0	2807037952	40	5476
2026-01-21 17:19:37.92	228.02	48.50	-33.0	-33.6	27.8	0.00e+00	0	41	0	2812280832	40	5452
2026-01-21 17:19:38.93	227.81	48.19	-33.0	-33.6	27.9	0.00e+00	0	41	0	2818572288	40	5479
2026-01-21 17:19:39.94	227.60	47.88	-33.0	-33.6	27.9	0.00e+00	0	41	0	2823815168	40	5466
2026-01-21 17:19:40.95	227.40	47.58	-33.1	-33.8	27.9	0.00e+00	0	41	0	2830106624	40	5605
2026-01-21 17:19:41.96	227.21	47.27	-32.8	-33.5	28.0	0.00e+00	0	41	0	2835349504	40	5416
2026-01-21 17:19:42.97	227.02	46.97	-32.8	-33.3	28.1	0.00e+00	0	41	0	2841640960	38	5927
2026-01-21 17:19:43.98	226.83	46.67	-32.9	-33.4	27.9	0.00e+00	0	41	0	2846883840	38	6003
2026-01-21 17:19:44.98	226.64	46.37	-32.9	-33.5	28.0	0.00e+00	0	41	0	2853175296	38	6096
2026-01-21 17:19:45.99	226.46	46.07	-32.6	-33.3	28.0	0.00e+00	0	41	0	2858418176	38	5940
2026-01-21 17:19:47.01	226.28	45.78	-32.5	-33.0	28.2	0.00e+00	0	41	0	2863661056	38	5756
2026-01-21 17:19:48.02	226.11	45.48	-32.5	-33.0	28.2	0.00e+00	0	41	0	2869952512	38	5730
2026-01-21 17:19:49.03	225.94	45.19	-32.6	-33.3	28.1	0.00e+00	0	41	0	2875195392	38	5923
2026-01-21 17:19:50.03	225.77	44.90	-32.8	-33.5	28.1	0.00e+00	0	41	0	2881486848	38	6044
2026-01-21 17:19:51.05	225.60	44.61	-32.9	-33.5	28.0	0.00e+00	0	41	0	2886729728	38	6043
2026-01-21 17:19:52.06	225.44	44.33	-32.8	-33.5	28.0	0.00e+00	0	41	0	2891972608	38	6045
2026-01-21 17:19:53.07	225.28	44.04	-32.4	-32.9	28.3	0.00e+00	0	41	0	2898264064	38	5687
2026-01-21 17:19:54.08	225.13	43.76	-32.3	-32.8	28.3	0.00e+00	0	41	0	2903506944	38	5619
2026-01-21 17:19:55.09	224.97	43.48	-32.4	-33.0	28.4	0.00e+00	0	41	0	2909798400	38	5715
2026-01-21 17:19:56.10	224.82	43.20	-32.6	-33.2	28.2	0.00e+00	0	41	0	2915041280	38	5858
2026-01-21 17:19:57.11	224.67	42.92	-32.7	-33.2	28.2	0.00e+00	0	41	0	2920284160	38	5882
2026-01-21 17:19:58.12	224.53	42.65	-32.8	-33.3	28.1	0.00e+00	0	41	0	2926575616	38	5963
2026-01-21 17:19:59.13	224.38	42.37	-32.8	-33.3	28.1	0.00e+00	0	41	0	2931818496	38	5957
2026-01-21 17:20:00.14	224.24	42.10	-32.5	-33.1	28.3	0.00e+00	0	41	0	2938109952	38	5785
2026-01-21 17:20:01.15	224.11	41.83	-32.6	-33.2	28.2	0.00e+00	0	41	0	2943352832	38	5845
2026-01-21 17:20:02.16	223.97	41.56	-32.4	-32.9	28.3	0.00e+00	0	41	0	2949644288	38	5691
2026-01-21 17:20:03.17	223.84	41.30	-32.5	-33.2	28.2	0.00e+00	0	41	0	2954887168	38	5845
2026-01-21 17:20:04.18	223.70	41.03	-32.2	-32.7	28.4	0.00e+00	0	41	0	2960130048	38	5563
2026-01-21 17:20:05.19	223.58	40.77	-32.2	-32.8	28.5	0.00e+00	0	41	0	2966421504	38	5623
2026-01-21 17:20:06.20	223.45	40.51	-32.2	-32.9	28.4	0.00e+00	0	41	0	2971664384	38	5632
2026-01-21 17:20:07.21	223.32	40.25	-32.2	-32.9	28.5	0.00e+00	0	41	0	2977955840	38	5641
2026-01-21 17:20:08.22	223.20	39.99	-32.4	-33.1	28.5	0.00e+00	0	41	0	2983198720	38	5762
2026-01-21 17:20:09.23	223.08	39.73	-32.4	-33.2	28.3	0.00e+00	0	41	0	2988441600	38	5830
2026-01-21 17:20:10.24	222.96	39.48	-32.6	-33.3	28.3	0.00e+00	0	41	0	2994733056	38	5920
2026-01-21 17:20:11.25	222.84	39.23	-32.4	-33.1	28.3	0.00e+00	0	41	0	2999975936	38	5821
2026-01-21 17:20:12.26	222.73	38.98	-32.5	-33.2	28.2	0.00e+00	0	41	0	3006267392	38	5886
2026-01-21 17:20:13.27	222.61	38.73	-32.3	-33.0	28.5	0.00e+00	0	41	0	3011510272	38	5734
2026-01-21 17:20:14.28	222.50	38.48	-32.6	-33.3	28.3	0.00e+00	0	41	0	3017801728	38	5940
2026-01-21 17:20:15.29	222.39	38.23	-32.4	-33.1	28.3	0.00e+00	0	41	0	3023044608	38	5778
2026-01-21 17:20:16.31	222.28	37.99	-32.3	-33.0	28.3	0.00e+00	0	41	0	3028287488	38	5745
2026-01-21 17:20:17.31	222.18	37.75	-32.2	-32.8	28.4	0.00e+00	0	41	0	3034578944	38	5572
2026-01-21 17:20:18.33	222.07	37.50	-32.3	-32.9	28.3	0.00e+00	0	41	0	3039821824	38	5642
2026-01-21 17:20:19.33	221.97	37.27	-32.3	-32.9	28.3	0.00e+00	0	41	0	3046113280	38	5640
2026-01-21 17:20:20.34	221.87	37.03	-32.2	-32.8	28.4	0.00e+00	0	41	0	3051356160	38	5593
2026-01-21 17:20:21.35	221.77	36.79	-32.1	-32.7	28.5	0.00e+00	0	41	0	3057647616	38	5507
2026-01-21 17:20:22.36	221.67	36.56	-32.2	-32.7	28.4	0.00e+00	0	41	0	3062890496	38	5560
2026-01-21 17:20:23.37	221.57	36.32	-32.2	-32.7	28.4	0.00e+00	0	41	0	3068133376	38	5532
2026-01-21 17:20:24.38	221.47	36.09	-32.4	-32.9	28.4	0.00e+00	0	41	0	3074424832	38	5667
2026-01-21 17:20:25.39	221.38	35.86	-32.5	-33.2	28.2	0.00e+00	0	41	0	3079667712	38	5843
2026-01-21 17:20:26.40	221.29	35.64	-32.4	-33.0	28.2	0.00e+00	0	41	0	3085959168	38	5725
2026-01-21 17:20:27.41	221.19	35.41	-32.5	-33.1	28.2	0.00e+00	0	41	0	3091202048	38	5762
2026-01-21 17:20:28.42	221.10	35.18	-32.5	-33.3	28.1	0.00e+00	0	41	0	3096444928	38	5899
2026-01-21 17:20:29.43	221.01	34.96	-32.5	-33.0	28.0	0.00e+00	0	41	0	3102736384	38	5739
2026-01-21 17:20:30.44	220.93	34.74	-32.5	-33.2	28.2	0.00e+00	0	41	0	3107979264	38	5845
2026-01-21 17:20:31.45	220.84	34.52	-32.5	-33.2	28.2	0.00e+00	0	41	0	3114270720	38	5862
2026-01-21 17:20:32.46	220.75	34.30	-32.6	-33.2	28.1	0.00e+00	0	41	0	3119513600	38	5847
2026-01-21 17:20:33.47	220.67	34.08	-32.7	-33.3	28.1	0.00e+00	0	41	0	3124756480	38	5899
2026-01-21 17:20:34.48	220.59	33.86	-32.7	-33.2	28.2	0.00e+00	0	41	0	3131047936	38	5894
2026-01-21 17:20:35.49	220.50	33.65	-32.8	-33.3	28.1	0.00e+00	0	41	0	3136290816	38	5935
2026-01-21 17:20:36.50	220.42	33.43	-32.6	-33.2	28.2	0.00e+00	0	41	0	3142582272	38	5868
2026-01-21 17:20:37.51	220.34	33.22	-32.6	-33.1	28.2	0.00e+00	0	41	0	3147825152	38	5812
2026-01-21 17:20:38.52	220.26	33.01	-32.6	-33.1	28.2	0.00e+00	0	41	0	3154116608	38	5804
2026-01-21 17:20:39.53	220.19	32.80	-32.5	-33.1	28.1	0.00e+00	0	41	0	3159359488	38	5781
2026-01-21 17:20:40.54	220.11	32.59	-32.6	-33.2	28.1	0.00e+00	0	41	0	3165650944	38	5852
2026-01-21 17:20:41.55	220.03	32.39	-33.2	-33.7	27.9	0.00e+00	0	41	0	3170893824	38	6208
2026-01-21 17:20:42.56	219.96	32.18	-32.8	-33.3	28.0	0.00e+00	0	41	0	3176136704	38	5942
2026-01-21 17:20:43.57	219.88	31.98	-32.8	-33.3	28.0	0.00e+00	0	41	0	3182428160	38	5954
2026-01-21 17:20:44.58	219.81	31.78	-32.9	-33.4	28.0	0.00e+00	0	41	0	3187671040	38	6015
2026-01-21 17:20:45.59	219.74	31.57	-32.9	-33.4	28.0	0.00e+00	0	41	0	3193962496	38	6017
2026-01-21 17:20:46.60	219.67	31.37	-32.9	-33.4	28.0	0.00e+00	0	41	0	3199205376	38	6019
2026-01-21 17:20:47.61	219.60	31.18	-32.7	-33.3	28.0	0.00e+00	0	41	0	3204448256	38	5908
2026-01-21 17:20:48.62	219.53	30.98	-32.8	-33.3	28.0	0.00e+00	0	41	0	3210739712	38	5937
2026-01-21 17:20:49.62	219.46	30.78	-32.7	-33.2	27.9	0.00e+00	0	41	0	3215982592	38	5888
2026-01-21 17:20:50.63	219.39	30.59	-32.7	-33.3	28.1	0.00e+00	0	41	0	3221225472	38	5901
2026-01-21 17:20:51.64	219.33	30.40	-32.7	-33.3	28.0	0.00e+00	0	41	0	3227516928	38	5923
2026-01-21 17:20:52.65	219.26	30.20	-32.7	-33.2	28.1	0.00e+00	0	41	0	3232759808	38	5869
2026-01-21 17:20:53.66	219.20	30.01	-32.6	-33.3	28.1	0.00e+00	0	41	0	3239051264	38	5928
2026-01-21 17:20:54.68	219.13	29.82	-32.6	-33.1	28.1	0.00e+00	0	41	0	3244294144	38	5818
2026-01-21 17:20:55.69	219.07	29.63	-32.7	-33.2	28.0	0.00e+00	0	41	0	3250585600	38	5895
2026-01-21 17:20:56.70	219.01	29.45	-32.6	-33.2	28.0	0.00e+00	0	41	0	3255828480	38	5847
2026-01-21 17:20:57.71	218.94	29.26	-32.8	-33.3	28.0	0.00e+00	0	41	0	3262119936	38	5950
2026-01-21 17:20:58.72	218.88	29.07	-32.7	-33.3	27.9	0.00e+00	0	41	0	3267362816	38	5898
2026-01-21 17:20:59.73	218.82	28.89	-32.9	-33.5	27.9	0.00e+00	0	41	0	3272605696	38	6035
2026-01-21 17:21:00.74	218.76	28.71	-32.8	-33.4	27.9	0.00e+00	0	41	0	3278897152	38	5990
2026-01-21 17:21:01.75	218.70	28.53	-32.8	-33.4	27.8	0.00e+00	0	41	0	3284140032	38	5995
2026-01-21 17:21:02.76	218.64	28.35	-32.8	-33.4	27.9	0.00e+00	0	41	0	3290431488	38	5967
2026-01-21 17:21:03.77	218.59	28.17	-33.0	-33.6	27.8	0.00e+00	0	41	0	3295674368	38	6127
2026-01-21 17:21:04.78	218.53	27.99	-32.9	-33.6	27.8	0.00e+00	0	41	0	3300917248	38	6147
2026-01-21 17:21:05.79	218.47	27.81	-32.8	-33.5	27.9	0.00e+00	0	41	0	3307208704	38	6053
2026-01-21 17:21:06.80	218.42	27.64	-32.9	-33.6	27.9	0.00e+00	0	41	0	3312451584	38	6105
2026-01-21 17:21:07.81	218.36	27.46	-32.7	-33.4	27.9	0.00e+00	0	41	0	3318743040	38	5996
2026-01-21 17:21:08.82	218.31	27.29	-32.5	-33.2	28.0	0.00e+00	0	41	0	3323985920	38	5887
2026-01-21 17:21:09.83	218.26	27.11	-32.6	-33.3	27.9	0.00e+00	0	41	0	3330277376	38	5947
2026-01-21 17:21:10.84	218.20	26.94	-32.9	-33.6	27.9	0.00e+00	0	41	0	3335520256	38	6126
2026-01-21 17:21:11.85	218.15	26.77	-32.7	-33.4	27.9	0.00e+00	0	41	0	3340763136	38	5977
2026-01-21 17:21:12.86	218.10	26.60	-32.6	-33.3	28.0	0.00e+00	0	41	0	3347054592	38	5900
2026-01-21 17:21:13.87	218.05	26.43	-32.8	-33.5	27.9	0.00e+00	0	41	0	3352297472	38	6042
2026-01-21 17:21:14.89	218.00	26.26	-32.9	-33.6	27.8	0.00e+00	0	41	0	3358588928	38	6142
2026-01-21 17:21:15.90	217.95	26.10	-32.9	-33.6	27.8	0.00e+00	0	41	0	3363831808	38	6131
2026-01-21 17:21:16.91	217.90	25.93	-32.9	-33.6	27.9	0.00e+00	0	41	0	3370123264	38	6117
2026-01-21 17:21:17.92	217.85	25.77	-32.9	-33.6	27.8	0.00e+00	0	41	0	3375366144	38	6147
2026-01-21 17:21:18.93	217.80	25.60	-33.0	-33.7	27.7	0.00e+00	0	41	0	3380609024	38	6214
2026-01-21 17:21:19.94	217.75	25.44	-33.0	-33.8	27.6	0.00e+00	0	41	0	3386900480	38	6247
2026-01-21 17:21:20.95	217.70	25.28	-33.1	-33.8	27.6	0.00e+00	0	41	0	3392143360	38	6279
2026-01-21 17:21:21.96	217.66	25.12	-33.2	-33.9	27.5	0.00e+00	0	41	0	3398434816	38	6353
2026-01-21 17:21:22.97	217.61	24.96	-33.0	-33.7	27.7	0.00e+00	0	41	0	3403677696	38	6237
2026-01-21 17:21:23.98	217.56	24.80	-33.2	-33.7	27.6	0.00e+00	0	41	0	3408920576	38	6236
2026-01-21 17:21:24.99	217.52	24.64	-33.0	-33.6	27.6	0.00e+00	0	41	0	3415212032	38	6143
2026-01-21 17:21:26.00	217.47	24.49	-33.2	-33.7	27.6	0.00e+00	0	41	0	3420454912	38	6234
2026-01-21 17:21:27.01	217.43	24.33	-33.3	-33.9	27.4	0.00e+00	0	41	0	3426746368	38	6335
2026-01-21 17:21:28.02	217.38	24.18	-33.4	-33.9	27.6	0.00e+00	0	41	0	3431989248	38	6375
2026-01-21 17:21:29.03	217.34	24.02	-33.1	-33.7	27.6	0.00e+00	0	41	0	3437232128	38	6204
2026-01-21 17:21:30.04	217.30	23.87	-33.1	-33.7	27.6	0.00e+00	0	41	0	3443523584	38	6210
2026-01-21 17:21:31.05	217.25	23.72	-33.2	-33.8	27.6	0.00e+00	0	41	0	3448766464	38	6268
2026-01-21 17:21:32.06	217.21	23.56	-33.3	-33.8	27.5	0.00e+00	0	41	0	3455057920	38	6299
2026-01-21 17:21:33.07	217.17	23.41	-33.3	-33.8	27.5	0.00e+00	0	41	0	3460300800	38	6305
2026-01-21 17:21:34.08	217.13	23.26	-33.4	-33.9	27.4	0.00e+00	0	41	0	3465543680	38	6384
2026-01-21 17:21:35.09	217.09	23.11	-33.4	-33.9	27.5	0.00e+00	0	41	0	3471835136	38	6376
2026-01-21 17:21:36.10	217.05	22.97	-33.3	-34.0	27.5	0.00e+00	0	41	0	3477078016	38	6405
2026-01-21 17:21:37.11	217.01	22.82	-33.2	-34.0	27.4	0.00e+00	0	41	0	3483369472	38	6400
2026-01-21 17:21:38.12	216.97	22.67	-33.5	-34.2	27.3	0.00e+00	0	41	0	3488612352	38	6555
2026-01-21 17:21:39.13	216.93	22.53	-33.4	-34.1	27.4	0.00e+00	0	41	0	3494903808	38	6492
2026-01-21 17:21:40.14	216.89	22.38	-33.9	-34.6	27.2	0.00e+00	0	41	0	3500146688	38	6891
2026-01-21 17:21:41.15	216.85	22.24	-33.4	-34.1	27.4	0.00e+00	0	41	0	3506438144	40	5812
2026-01-21 17:21:42.16	216.81	22.09	-33.6	-34.2	27.2	0.00e+00	0	41	0	3511681024	40	5848
2026-01-21 17:21:43.17	216.77	21.95	-33.5	-34.1	27.3	0.00e+00	0	41	0	3516923904	40	5774
2026-01-21 17:21:44.18	216.74	21.81	-33.7	-34.3	27.3	0.00e+00	0	41	0	3523215360	40	5907
2026-01-21 17:21:45.19	216.70	21.67	-34.0	-34.5	27.0	0.00e+00	0	41	0	3528458240	40	6087
2026-01-21 17:21:46.20	216.66	21.53	-33.9	-34.5	27.0	0.00e+00	0	41	0	3534749696	40	6050
2026-01-21 17:21:47.21	216.63	21.39	-33.9	-34.5	27.0	0.00e+00	0	41	0	3539992576	40	6065
2026-01-21 17:21:48.22	216.59	21.25	-33.6	-34.2	27.2	0.00e+00	0	41	0	3545235456	40	5843
2026-01-21 17:21:49.23	216.56	21.11	-33.8	-34.3	27.1	0.00e+00	0	41	0	3551526912	40	5937
2026-01-21 17:21:50.24	216.52	20.98	-33.7	-34.4	27.1	0.00e+00	0	41	0	3556769792	40	6014
2026-01-21 17:21:51.24	216.49	20.84	-33.7	-34.5	27.1	0.00e+00	0	41	0	3563061248	40	6036
2026-01-21 17:21:52.25	216.45	20.71	-33.8	-34.5	27.1	0.00e+00	0	41	0	3568304128	40	6064
2026-01-21 17:21:53.26	216.42	20.57	-34.0	-34.6	26.9	0.00e+00	0	41	0	3573547008	40	6105
2026-01-21 17:21:54.28	216.38	20.43	-33.9	-34.5	27.0	0.00e+00	0	41	0	3579838464	40	6074
2026-01-21 17:21:55.29	216.35	20.30	-34.1	-34.6	26.9	0.00e+00	0	41	0	3585081344	40	6170
2026-01-21 17:21:56.30	216.32	20.17	-34.2	-34.7	26.8	0.00e+00	0	41	0	3591372800	40	6242
2026-01-21 17:21:57.31	216.28	20.04	-34.2	-34.8	26.8	0.00e+00	0	41	0	3596615680	40	6286
2026-01-21 17:21:58.32	216.25	19.90	-34.2	-34.8	26.7	0.00e+00	0	41	0	3602907136	40	6284
2026-01-21 17:21:59.33	216.22	19.77	-34.1	-34.9	26.7	0.00e+00	0	41	0	3608150016	40	6329
2026-01-21 17:22:00.34	216.19	19.64	-34.1	-34.9	26.7	0.00e+00	0	41	0	3614441472	40	6319
2026-01-21 17:22:01.35	216.15	19.51	-33.9	-34.7	26.8	0.00e+00	0	41	0	3619684352	40	6187
2026-01-21 17:22:02.36	216.12	19.39	-34.1	-34.7	26.7	0.00e+00	0	41	0	3624927232	40	6220
