passes_logs/2026/01/21/R4.6S_Anadyr/R4.6S_Anadyr__20260121_010706_NOAA_20_JPSS-1_rec.log

#Pass ID: 20260121_010706_NOAA 20 (JPSS-1)
#Satellite: NOAA 20 (JPSS-1)
#Configuration: NOAA 20
#almurnet v.1.7.20251203
#Start time: 2026-01-21 01:07:09

#Version: 2.2.20231116
#Station: R4.6S_Anadyr
#Location: 177.4865 lon 64.73178 lat
#TLE: 1 43013U 17073A   26020.26397077  .00000127  00000+0  80954-4 0  9999
#TLE: 2 43013  98.7643 321.1479 0001288  31.3158 328.8095 14.19537595423482

#Time	Az	El	Level	Level2	SNR	BER	BlckErr	Temp	State	Recorded	gain1	gain2
2026-01-21 01:07:09.57	179.04	0.21	-52.1	-65.9	3.3	1.54e+00	0	40	0	0	60	71307
2026-01-21 01:07:10.58	179.07	0.26	-51.6	-66.8	3.6	1.51e+00	0	41	104	0	60	79169
2026-01-21 01:07:11.59	179.10	0.32	-51.5	-66.7	3.5	1.51e+00	0	41	104	0	60	78353
2026-01-21 01:07:12.60	179.13	0.38	-51.5	-66.6	3.6	1.51e+00	0	41	104	0	60	77651
2026-01-21 01:07:13.61	179.16	0.44	-51.4	-66.6	3.6	1.51e+00	0	41	104	0	60	77317
2026-01-21 01:07:14.62	179.20	0.50	-51.3	-66.6	3.6	1.51e+00	0	41	104	0	60	76882
2026-01-21 01:07:15.63	179.23	0.56	-51.2	-66.5	3.6	1.51e+00	0	41	104	0	60	76081
2026-01-21 01:07:16.64	179.26	0.62	-51.2	-66.4	3.6	1.51e+00	0	41	104	0	60	75661
2026-01-21 01:07:17.65	179.29	0.68	-51.2	-66.5	3.6	1.51e+00	0	41	104	0	60	76036
2026-01-21 01:07:18.66	179.32	0.74	-51.2	-66.4	3.6	1.51e+00	0	41	104	0	60	75684
2026-01-21 01:07:19.67	179.35	0.80	-51.1	-66.4	3.6	1.51e+00	0	41	104	0	60	75839
2026-01-21 01:07:20.68	179.39	0.87	-51.1	-66.3	3.6	1.51e+00	0	41	104	0	60	74894
2026-01-21 01:07:21.69	179.42	0.93	-51.1	-66.3	3.6	1.51e+00	0	41	104	0	60	74545
2026-01-21 01:07:22.69	179.45	0.99	-51.0	-66.3	3.6	1.51e+00	0	41	104	0	60	74371
2026-01-21 01:07:23.70	179.48	1.05	-51.0	-66.2	3.6	1.51e+00	0	41	104	0	60	73671
2026-01-21 01:07:24.71	179.51	1.11	-50.9	-66.1	3.6	1.51e+00	0	41	104	0	60	73114
2026-01-21 01:07:25.72	179.55	1.17	-50.9	-66.1	3.6	1.51e+00	0	41	104	0	60	72692
2026-01-21 01:07:26.73	179.58	1.23	-50.7	-66.0	3.6	1.51e+00	0	41	104	0	60	71770
2026-01-21 01:07:27.74	179.61	1.29	-50.6	-65.8	3.6	1.51e+00	0	41	104	0	60	70633
2026-01-21 01:07:28.75	179.64	1.35	-50.4	-65.6	3.6	1.51e+00	0	41	104	0	60	69041
2026-01-21 01:07:29.76	179.68	1.42	-50.2	-65.4	3.6	1.51e+00	0	41	104	0	60	67576
2026-01-21 01:07:30.77	179.71	1.48	-50.1	-65.3	3.6	1.51e+00	0	41	104	0	60	66262
2026-01-21 01:07:31.78	179.74	1.54	-50.0	-65.2	3.6	1.51e+00	0	41	104	0	60	65416
2026-01-21 01:07:32.79	179.78	1.60	-50.0	-65.2	3.6	1.51e+00	0	41	104	0	60	65441
2026-01-21 01:07:33.80	179.81	1.66	-50.0	-65.2	3.6	1.51e+00	0	41	104	0	60	65474
2026-01-21 01:07:34.81	179.84	1.73	-50.0	-65.1	3.6	1.51e+00	0	41	104	0	60	65302
2026-01-21 01:07:35.82	179.88	1.79	-50.0	-65.1	3.6	1.51e+00	0	41	104	0	60	65272
2026-01-21 01:07:36.83	179.91	1.85	-49.9	-65.0	3.6	1.51e+00	0	41	104	0	60	64178
2026-01-21 01:07:37.84	179.95	1.91	-50.0	-65.1	3.6	1.51e+00	0	41	104	0	60	64806
2026-01-21 01:07:38.85	179.98	1.98	-49.9	-65.0	3.6	1.51e+00	0	41	104	0	60	64389
2026-01-21 01:07:39.86	180.01	2.04	-50.0	-65.1	3.6	1.51e+00	0	41	104	0	60	64723
2026-01-21 01:07:40.87	180.05	2.10	-50.0	-65.1	3.6	1.51e+00	0	41	104	0	60	64911
2026-01-21 01:07:41.88	180.08	2.17	-50.0	-65.1	3.6	1.51e+00	0	41	104	0	60	65065
2026-01-21 01:07:42.89	180.12	2.23	-49.9	-65.0	3.6	1.51e+00	0	41	104	0	60	64586
2026-01-21 01:07:43.90	180.15	2.29	-49.9	-65.1	3.6	1.51e+00	0	41	104	0	60	65022
2026-01-21 01:07:44.91	180.19	2.36	-49.9	-65.1	3.6	1.51e+00	0	41	104	0	60	65286
2026-01-21 01:07:45.92	180.22	2.42	-50.0	-65.2	3.6	1.51e+00	0	41	104	0	60	65420
2026-01-21 01:07:46.93	180.26	2.48	-50.0	-65.2	3.6	1.51e+00	0	41	104	0	60	65403
2026-01-21 01:07:47.94	180.29	2.55	-49.9	-64.9	3.6	1.51e+00	0	41	104	0	60	63356
2026-01-21 01:07:48.95	180.33	2.61	-49.9	-64.3	3.6	1.51e+00	0	41	104	0	60	59157
2026-01-21 01:07:49.96	180.36	2.68	-49.9	-63.7	3.6	1.51e+00	0	41	104	0	60	55362
2026-01-21 01:07:50.97	180.40	2.74	-49.9	-63.5	3.6	1.51e+00	0	41	104	0	60	54216
2026-01-21 01:07:51.98	180.44	2.81	-49.9	-63.5	3.6	1.51e+00	0	41	104	0	60	54095
2026-01-21 01:07:52.99	180.47	2.87	-49.9	-63.6	3.6	1.51e+00	0	41	104	0	60	54476
2026-01-21 01:07:54.00	180.51	2.94	-50.0	-64.7	3.6	1.51e+00	0	41	104	0	60	62171
2026-01-21 01:07:55.01	180.55	3.00	-49.9	-64.0	3.6	1.51e+00	0	41	104	0	60	57214
2026-01-21 01:07:56.02	180.58	3.07	-49.8	-61.7	4.2	1.50e+00	0	41	104	0	60	43811
2026-01-21 01:07:57.02	180.62	3.13	-49.4	-57.0	6.5	3.68e-01	91	41	0	0	60	25518
2026-01-21 01:07:58.03	180.65	3.20	-48.7	-54.2	9.4	6.21e-02	91	41	0	2097152	60	18488
2026-01-21 01:07:59.04	180.69	3.26	-47.2	-50.6	13.8	4.58e-03	92	41	0	4194304	60	12270
2026-01-21 01:08:00.05	180.73	3.33	-46.0	-48.5	15.7	0.00e+00	92	41	0	6291456	60	9629
2026-01-21 01:08:01.06	180.77	3.39	-46.7	-49.6	15.4	1.37e-05	0	41	0	7340032	60	10929
2026-01-21 01:08:02.07	180.80	3.46	-45.1	-47.2	17.0	0.00e+00	92	41	0	9437184	60	8296
2026-01-21 01:08:03.09	180.84	3.53	-44.5	-46.3	17.9	0.00e+00	11	41	0	11534336	60	7472
2026-01-21 01:08:04.09	180.88	3.59	-45.5	-47.8	16.3	0.00e+00	90	41	0	13631488	60	8921
2026-01-21 01:08:05.10	180.92	3.66	-46.4	-49.2	15.1	0.00e+00	92	41	0	15728640	60	10410
2026-01-21 01:08:06.11	180.95	3.72	-49.9	-63.3	3.7	3.40e-02	0	41	104	16777216	60	52695
2026-01-21 01:08:07.12	180.99	3.79	-46.2	-48.7	16.0	0.00e+00	90	41	0	16777216	60	9805
2026-01-21 01:08:08.13	181.03	3.86	-50.2	-65.3	3.6	8.33e-01	0	41	104	17825792	60	66187
2026-01-21 01:08:09.14	181.07	3.93	-47.0	-50.2	13.6	1.46e+00	92	41	104	17825792	60	11750
2026-01-21 01:08:10.15	181.11	3.99	-45.0	-47.0	17.3	0.00e+00	0	41	0	17825792	60	8047
2026-01-21 01:08:11.16	181.15	4.06	-45.8	-48.1	16.8	0.00e+00	92	41	0	19922944	60	9208
2026-01-21 01:08:12.16	181.19	4.13	-45.7	-48.0	16.5	0.00e+00	92	41	0	22020096	60	9083
2026-01-21 01:08:13.17	181.23	4.20	-45.7	-48.0	16.8	0.00e+00	90	41	0	24117248	60	9093
2026-01-21 01:08:14.18	181.26	4.26	-46.1	-48.6	16.0	0.00e+00	92	41	0	26214400	60	9740
2026-01-21 01:08:15.19	181.30	4.33	-45.0	-46.9	17.7	0.00e+00	0	41	0	27262976	60	8036
2026-01-21 01:08:16.20	181.34	4.40	-44.8	-46.7	17.6	0.00e+00	92	41	0	29360128	60	7841
2026-01-21 01:08:17.21	181.38	4.47	-44.6	-46.4	18.0	0.00e+00	0	41	0	31457280	60	7555
2026-01-21 01:08:18.23	181.42	4.54	-45.4	-47.5	16.9	0.00e+00	92	41	0	33554432	60	8538
2026-01-21 01:08:19.24	181.46	4.61	-45.2	-47.2	17.3	0.00e+00	92	41	0	35651584	60	8297
2026-01-21 01:08:20.25	181.50	4.68	-45.7	-47.9	16.4	0.00e+00	92	41	0	37748736	60	9001
2026-01-21 01:08:21.25	181.54	4.74	-44.6	-46.3	18.3	0.00e+00	92	41	0	38797312	60	7496
2026-01-21 01:08:22.26	181.59	4.81	-44.8	-46.6	18.2	0.00e+00	91	41	0	40894464	60	7734
2026-01-21 01:08:23.27	181.63	4.88	-44.6	-46.4	18.2	0.00e+00	91	41	0	42991616	60	7519
2026-01-21 01:08:24.28	181.67	4.95	-44.7	-46.5	18.2	0.00e+00	0	41	0	45088768	60	7683
2026-01-21 01:08:25.29	181.71	5.02	-44.5	-46.2	18.3	0.00e+00	92	41	0	47185920	60	7373
2026-01-21 01:08:26.30	181.75	5.09	-44.1	-45.7	18.8	0.00e+00	2	41	0	48234496	60	6985
2026-01-21 01:08:27.31	181.79	5.16	-43.6	-45.1	19.4	0.00e+00	90	41	0	50331648	60	6467
2026-01-21 01:08:28.32	181.83	5.23	-43.6	-45.2	19.4	0.00e+00	91	41	0	52428800	60	6546
2026-01-21 01:08:29.33	181.88	5.30	-43.5	-45.0	19.6	0.00e+00	90	41	0	54525952	60	6397
2026-01-21 01:08:30.34	181.92	5.37	-43.3	-44.7	19.6	0.00e+00	92	41	0	56623104	60	6242
2026-01-21 01:08:31.35	181.96	5.44	-43.8	-45.4	19.3	0.00e+00	74	41	0	57671680	60	6711
2026-01-21 01:08:32.36	182.00	5.51	-43.5	-45.0	19.4	0.00e+00	92	41	0	59768832	60	6460
2026-01-21 01:08:33.37	182.05	5.59	-43.7	-45.2	19.4	0.00e+00	0	41	0	61865984	60	6572
2026-01-21 01:08:34.38	182.09	5.66	-43.6	-45.1	19.5	0.00e+00	90	41	0	63963136	60	6500
2026-01-21 01:08:35.39	182.13	5.73	-43.2	-44.6	19.8	0.00e+00	92	41	0	66060288	60	6161
2026-01-21 01:08:36.40	182.17	5.80	-43.3	-44.8	19.7	0.00e+00	92	41	0	67108864	60	6278
2026-01-21 01:08:37.41	182.22	5.87	-43.6	-45.1	19.4	0.00e+00	92	41	0	69206016	60	6513
2026-01-21 01:08:38.42	182.26	5.94	-43.7	-45.3	19.2	0.00e+00	84	41	0	71303168	60	6658
2026-01-21 01:08:39.43	182.31	6.02	-43.4	-44.9	19.7	0.00e+00	92	41	0	73400320	60	6330
2026-01-21 01:08:40.44	182.35	6.09	-43.4	-44.9	19.7	0.00e+00	0	41	0	75497472	60	6332
2026-01-21 01:08:41.45	182.39	6.16	-43.2	-44.6	20.0	0.00e+00	92	41	0	76546048	60	6128
2026-01-21 01:08:42.46	182.44	6.24	-43.1	-44.5	20.0	0.00e+00	83	41	0	78643200	60	6078
2026-01-21 01:08:43.47	182.48	6.31	-42.8	-44.2	20.4	0.00e+00	92	41	0	80740352	60	5831
2026-01-21 01:08:44.48	182.53	6.38	-43.1	-44.5	20.0	0.00e+00	92	41	0	82837504	60	6083
2026-01-21 01:08:45.49	182.57	6.45	-42.8	-44.1	20.3	0.00e+00	85	41	0	84934656	58	6525
2026-01-21 01:08:46.50	182.62	6.53	-43.1	-44.5	20.0	0.00e+00	92	41	0	85983232	58	6808
2026-01-21 01:08:47.51	182.66	6.60	-43.0	-44.3	20.2	0.00e+00	12	41	0	88080384	58	6653
2026-01-21 01:08:48.52	182.71	6.68	-42.5	-43.8	20.8	0.00e+00	92	42	0	90177536	58	6247
2026-01-21 01:08:49.53	182.76	6.75	-42.8	-44.1	20.5	0.00e+00	0	41	0	92274688	58	6523
2026-01-21 01:08:50.54	182.80	6.82	-43.0	-44.3	20.2	0.00e+00	90	41	0	94371840	58	6653
2026-01-21 01:08:51.54	182.85	6.90	-42.8	-44.2	20.5	0.00e+00	90	41	0	95420416	58	6544
2026-01-21 01:08:52.55	182.90	6.97	-42.3	-43.5	20.7	0.00e+00	17	41	0	97517568	58	6068
2026-01-21 01:08:53.56	182.94	7.05	-42.6	-43.9	20.6	0.00e+00	90	41	0	99614720	58	6320
2026-01-21 01:08:54.57	182.99	7.12	-42.1	-43.3	21.2	0.00e+00	1	41	0	101711872	58	5904
2026-01-21 01:08:55.58	183.04	7.20	-42.5	-43.7	20.7	0.00e+00	92	42	0	103809024	58	6215
2026-01-21 01:08:56.59	183.08	7.28	-42.7	-44.0	20.5	0.00e+00	78	42	0	105906176	58	6441
2026-01-21 01:08:57.59	183.13	7.35	-42.6	-43.9	20.6	0.00e+00	92	42	0	106954752	58	6371
2026-01-21 01:08:58.60	183.18	7.43	-42.7	-44.0	20.5	0.00e+00	90	41	0	109051904	58	6404
2026-01-21 01:08:59.61	183.23	7.50	-42.5	-43.8	20.8	0.00e+00	90	42	0	111149056	58	6262
2026-01-21 01:09:00.63	183.28	7.58	-42.3	-43.5	20.9	0.00e+00	92	42	0	113246208	58	6082
2026-01-21 01:09:01.63	183.32	7.66	-42.3	-43.5	20.9	0.00e+00	76	42	0	114294784	58	6086
2026-01-21 01:09:02.64	183.37	7.73	-42.4	-43.6	21.0	0.00e+00	92	41	0	116391936	58	6121
2026-01-21 01:09:03.65	183.42	7.81	-42.7	-44.0	20.6	0.00e+00	0	41	0	118489088	58	6433
2026-01-21 01:09:04.66	183.47	7.89	-42.7	-43.9	20.6	0.00e+00	93	41	0	120586240	58	6369
2026-01-21 01:09:05.67	183.52	7.96	-42.2	-43.4	21.2	0.00e+00	83	41	0	122683392	58	5980
2026-01-21 01:09:06.68	183.57	8.04	-42.6	-43.9	20.7	0.00e+00	65	41	0	123731968	58	6336
2026-01-21 01:09:07.69	183.62	8.12	-42.1	-43.3	21.3	0.00e+00	92	42	0	125829120	58	5944
2026-01-21 01:09:08.70	183.67	8.20	-42.3	-43.5	21.1	0.00e+00	10	41	0	127926272	58	6069
2026-01-21 01:09:09.71	183.72	8.28	-42.1	-43.3	21.3	0.00e+00	90	41	0	130023424	58	5944
2026-01-21 01:09:10.72	183.77	8.36	-42.4	-43.6	21.0	0.00e+00	10	42	0	132120576	58	6157
2026-01-21 01:09:11.72	183.83	8.43	-42.3	-43.5	21.2	0.00e+00	92	42	0	134217728	58	6081
2026-01-21 01:09:12.74	183.88	8.51	-42.4	-43.6	21.0	0.00e+00	0	41	0	135266304	58	6150
2026-01-21 01:09:13.74	183.93	8.59	-42.3	-43.5	21.1	0.00e+00	90	42	0	137363456	58	6065
2026-01-21 01:09:14.75	183.98	8.67	-42.1	-43.3	21.4	0.00e+00	92	42	0	139460608	58	5927
2026-01-21 01:09:15.76	184.03	8.75	-42.3	-43.5	21.2	0.00e+00	75	41	0	141557760	58	6093
2026-01-21 01:09:16.77	184.09	8.83	-42.2	-43.4	21.2	0.00e+00	92	41	0	143654912	58	5977
2026-01-21 01:09:17.78	184.14	8.91	-42.2	-43.4	21.2	0.00e+00	82	42	0	144703488	58	5987
2026-01-21 01:09:18.79	184.19	8.99	-42.3	-43.5	21.0	0.00e+00	91	42	0	146800640	58	6085
2026-01-21 01:09:19.80	184.24	9.07	-42.4	-43.6	21.0	0.00e+00	0	42	0	148897792	58	6139
2026-01-21 01:09:20.81	184.30	9.16	-41.8	-42.9	21.7	0.00e+00	92	41	0	150994944	56	6356
2026-01-21 01:09:21.82	184.35	9.24	-42.2	-43.4	21.3	0.00e+00	92	41	0	153092096	56	6702
2026-01-21 01:09:22.83	184.41	9.32	-41.9	-43.1	21.6	0.00e+00	92	42	0	154140672	56	6472
2026-01-21 01:09:23.84	184.46	9.40	-42.1	-43.2	21.5	0.00e+00	90	42	0	156237824	56	6586
2026-01-21 01:09:24.85	184.52	9.48	-41.8	-42.9	21.7	0.00e+00	6	42	0	158334976	56	6362
2026-01-21 01:09:25.86	184.57	9.56	-41.7	-42.8	21.8	0.00e+00	92	42	0	160432128	56	6294
2026-01-21 01:09:26.87	184.63	9.65	-41.8	-42.9	21.8	0.00e+00	0	42	0	162529280	56	6356
2026-01-21 01:09:27.88	184.68	9.73	-41.8	-42.9	21.8	0.00e+00	92	42	0	163577856	56	6364
2026-01-21 01:09:28.89	184.74	9.81	-41.6	-42.7	22.1	0.00e+00	0	42	0	165675008	56	6183
2026-01-21 01:09:29.90	184.79	9.90	-41.7	-42.8	21.8	0.00e+00	92	42	0	167772160	56	6252
2026-01-21 01:09:30.91	184.85	9.98	-41.8	-42.9	21.8	0.00e+00	90	42	0	169869312	56	6334
2026-01-21 01:09:31.92	184.91	10.06	-41.5	-42.6	22.1	0.00e+00	4	42	0	171966464	56	6131
2026-01-21 01:09:32.93	184.96	10.15	-41.5	-42.6	22.0	0.00e+00	92	42	0	173015040	56	6123
2026-01-21 01:09:33.94	185.02	10.23	-41.6	-42.7	22.0	0.00e+00	9	42	0	175112192	56	6183
2026-01-21 01:09:34.94	185.08	10.32	-41.6	-42.7	22.0	0.00e+00	92	42	0	177209344	56	6194
2026-01-21 01:09:35.95	185.14	10.40	-41.6	-42.6	22.1	0.00e+00	0	42	0	179306496	56	6171
2026-01-21 01:09:36.96	185.19	10.49	-41.4	-42.5	22.2	0.00e+00	92	42	0	181403648	56	6063
2026-01-21 01:09:37.97	185.25	10.57	-41.6	-42.6	22.1	0.00e+00	90	42	0	182452224	56	6168
2026-01-21 01:09:38.98	185.31	10.66	-41.4	-42.4	22.3	0.00e+00	20	42	0	184549376	56	6021
2026-01-21 01:09:39.99	185.37	10.74	-41.6	-42.7	22.0	0.00e+00	90	42	0	186646528	56	6177
2026-01-21 01:09:41.00	185.43	10.83	-41.6	-42.6	22.0	0.00e+00	0	42	0	188743680	56	6170
2026-01-21 01:09:42.00	185.49	10.92	-41.6	-42.7	22.0	0.00e+00	91	42	0	190840832	56	6198
2026-01-21 01:09:43.01	185.55	11.00	-41.7	-42.8	22.0	0.00e+00	0	42	0	191889408	56	6277
2026-01-21 01:09:44.02	185.61	11.09	-41.7	-42.8	21.8	0.00e+00	92	42	0	193986560	56	6271
2026-01-21 01:09:45.03	185.67	11.18	-41.6	-42.6	22.1	0.00e+00	0	42	0	196083712	56	6171
2026-01-21 01:09:46.04	185.73	11.27	-41.6	-42.6	22.1	0.00e+00	90	42	0	198180864	56	6168
2026-01-21 01:09:47.05	185.80	11.35	-41.6	-42.6	22.0	0.00e+00	92	42	0	200278016	56	6158
2026-01-21 01:09:48.06	185.86	11.44	-41.6	-42.7	22.0	0.00e+00	0	42	0	202375168	56	6219
2026-01-21 01:09:49.07	185.92	11.53	-41.4	-42.5	22.2	0.00e+00	92	42	0	203423744	56	6040
2026-01-21 01:09:50.08	185.98	11.62	-41.3	-42.4	22.3	0.00e+00	0	42	0	205520896	56	5979
2026-01-21 01:09:51.09	186.05	11.71	-41.2	-42.2	22.4	0.00e+00	92	42	0	207618048	56	5892
2026-01-21 01:09:52.10	186.11	11.80	-41.4	-42.4	22.2	0.00e+00	1	42	0	209715200	56	6010
2026-01-21 01:09:53.11	186.17	11.89	-41.2	-42.2	22.4	0.00e+00	92	42	0	211812352	56	5880
2026-01-21 01:09:54.12	186.24	11.98	-41.2	-42.2	22.5	0.00e+00	92	42	0	212860928	56	5869
2026-01-21 01:09:55.13	186.30	12.07	-41.0	-42.0	22.6	0.00e+00	7	42	0	214958080	56	5752
2026-01-21 01:09:56.14	186.37	12.16	-41.0	-42.0	22.7	0.00e+00	92	42	0	217055232	56	5740
2026-01-21 01:09:57.15	186.43	12.25	-41.0	-42.0	22.7	0.00e+00	6	42	0	219152384	56	5719
2026-01-21 01:09:58.15	186.50	12.34	-41.0	-42.0	22.7	0.00e+00	92	42	0	221249536	56	5748
2026-01-21 01:09:59.16	186.56	12.43	-40.8	-41.8	22.9	0.00e+00	12	42	0	222298112	56	5581
2026-01-21 01:10:00.17	186.63	12.52	-40.9	-41.9	22.8	0.00e+00	92	42	0	224395264	56	5667
2026-01-21 01:10:01.18	186.70	12.62	-40.9	-41.9	22.8	0.00e+00	92	42	0	226492416	56	5632
2026-01-21 01:10:02.19	186.76	12.71	-40.7	-41.7	22.8	0.00e+00	90	42	0	228589568	54	6216
2026-01-21 01:10:03.20	186.83	12.80	-40.6	-41.6	22.9	0.00e+00	92	42	0	230686720	54	6135
2026-01-21 01:10:04.21	186.90	12.89	-40.7	-41.7	22.9	0.00e+00	69	42	0	231735296	54	6224
2026-01-21 01:10:05.22	186.97	12.99	-40.6	-41.6	22.9	0.00e+00	92	42	0	233832448	54	6136
2026-01-21 01:10:06.23	187.04	13.08	-40.7	-41.6	23.0	0.00e+00	74	42	0	235929600	54	6152
2026-01-21 01:10:07.24	187.11	13.18	-40.6	-41.5	23.0	0.00e+00	92	42	0	238026752	54	6103
2026-01-21 01:10:08.25	187.18	13.27	-40.6	-41.6	22.9	0.00e+00	92	42	0	240123904	54	6130
2026-01-21 01:10:09.26	187.25	13.36	-40.7	-41.7	23.0	0.00e+00	91	42	0	241172480	54	6185
2026-01-21 01:10:10.27	187.32	13.46	-40.7	-41.6	23.0	0.00e+00	91	42	0	243269632	54	6166
2026-01-21 01:10:11.28	187.39	13.56	-40.6	-41.6	23.0	0.00e+00	29	42	0	245366784	54	6145
2026-01-21 01:10:12.29	187.46	13.65	-40.8	-41.7	22.9	0.00e+00	90	42	0	247463936	54	6234
2026-01-21 01:10:13.30	187.53	13.75	-40.8	-41.8	22.9	0.00e+00	7	42	0	249561088	54	6278
2026-01-21 01:10:14.31	187.60	13.84	-40.4	-41.4	23.2	0.00e+00	91	42	0	250609664	54	5968
2026-01-21 01:10:15.31	187.68	13.94	-40.4	-41.3	23.2	0.00e+00	7	42	0	252706816	54	5963
2026-01-21 01:10:16.32	187.75	14.04	-40.4	-41.3	23.3	0.00e+00	92	42	0	254803968	54	5928
2026-01-21 01:10:17.33	187.82	14.13	-40.4	-41.4	23.2	0.00e+00	90	42	0	256901120	54	5968
2026-01-21 01:10:18.34	187.90	14.23	-40.4	-41.3	23.3	0.00e+00	92	42	0	258998272	54	5938
2026-01-21 01:10:19.35	187.97	14.33	-40.2	-41.2	23.4	0.00e+00	92	42	0	260046848	54	5836
2026-01-21 01:10:20.36	188.05	14.43	-40.4	-41.3	23.3	0.00e+00	6	42	0	262144000	54	5957
2026-01-21 01:10:21.37	188.12	14.53	-40.1	-41.0	23.5	0.00e+00	92	42	0	264241152	54	5723
2026-01-21 01:10:22.38	188.20	14.63	-40.1	-41.0	23.6	0.00e+00	82	42	0	266338304	54	5756
2026-01-21 01:10:23.39	188.27	14.73	-40.0	-40.9	23.6	0.00e+00	92	42	0	268435456	54	5637
2026-01-21 01:10:24.39	188.35	14.83	-39.9	-40.8	23.7	0.00e+00	92	42	0	270532608	54	5579
2026-01-21 01:10:25.40	188.43	14.93	-39.9	-40.8	23.7	0.00e+00	95	42	0	271581184	54	5604
2026-01-21 01:10:26.41	188.51	15.03	-40.0	-40.9	23.7	0.00e+00	92	42	0	273678336	54	5648
2026-01-21 01:10:27.42	188.58	15.13	-39.9	-40.8	23.8	0.00e+00	2	42	0	275775488	54	5571
2026-01-21 01:10:28.43	188.66	15.23	-39.9	-40.8	23.7	0.00e+00	91	42	0	277872640	54	5606
2026-01-21 01:10:29.44	188.74	15.33	-39.8	-40.7	23.8	0.00e+00	0	42	0	279969792	54	5540
2026-01-21 01:10:30.45	188.82	15.43	-40.0	-40.9	23.6	0.00e+00	92	42	0	281018368	54	5634
2026-01-21 01:10:31.46	188.90	15.54	-39.8	-40.7	23.8	0.00e+00	92	42	0	283115520	54	5505
2026-01-21 01:10:32.47	188.98	15.64	-39.9	-40.8	23.7	0.00e+00	91	42	0	285212672	54	5572
2026-01-21 01:10:33.48	189.07	15.74	-39.9	-40.8	23.7	0.00e+00	91	42	0	287309824	54	5595
2026-01-21 01:10:34.49	189.15	15.85	-39.9	-40.8	23.7	0.00e+00	32	42	0	289406976	54	5604
2026-01-21 01:10:35.49	189.23	15.95	-39.9	-40.8	23.6	0.00e+00	91	42	0	290455552	54	5612
2026-01-21 01:10:36.50	189.31	16.06	-40.0	-40.9	23.7	0.00e+00	12	42	0	292552704	54	5632
2026-01-21 01:10:37.51	189.40	16.16	-40.0	-40.9	23.7	0.00e+00	92	42	0	294649856	54	5662
2026-01-21 01:10:38.53	189.48	16.27	-39.8	-40.6	24.0	0.00e+00	6	42	0	296747008	52	6155
2026-01-21 01:10:39.53	189.57	16.37	-39.8	-40.7	23.9	0.00e+00	92	42	0	298844160	52	6185
2026-01-21 01:10:40.54	189.65	16.48	-39.6	-40.5	24.0	0.00e+00	90	42	0	299892736	52	6050
2026-01-21 01:10:41.55	189.74	16.58	-39.7	-40.6	24.0	0.00e+00	92	42	0	301989888	52	6109
2026-01-21 01:10:42.56	189.82	16.69	-39.6	-40.5	23.9	0.00e+00	92	42	0	304087040	52	6043
2026-01-21 01:10:43.57	189.91	16.80	-39.7	-40.6	24.0	0.00e+00	11	41	0	306184192	52	6141
2026-01-21 01:10:44.58	190.00	16.91	-39.6	-40.5	24.1	0.00e+00	92	42	0	308281344	52	6039
2026-01-21 01:10:45.59	190.09	17.01	-39.6	-40.5	24.1	0.00e+00	84	42	0	309329920	52	6043
2026-01-21 01:10:46.60	190.18	17.12	-39.5	-40.4	24.1	0.00e+00	92	42	0	311427072	52	5998
2026-01-21 01:10:47.61	190.27	17.23	-39.5	-40.4	24.2	0.00e+00	90	42	0	313524224	52	5996
2026-01-21 01:10:48.62	190.36	17.34	-39.5	-40.3	24.1	0.00e+00	92	42	0	315621376	52	5962
2026-01-21 01:10:49.63	190.45	17.45	-39.6	-40.5	24.1	0.00e+00	92	42	0	317718528	52	6049
2026-01-21 01:10:50.64	190.54	17.56	-39.7	-40.5	23.7	0.00e+00	13	42	0	318767104	52	6091
2026-01-21 01:10:51.65	190.63	17.67	-39.6	-40.4	24.0	0.00e+00	90	42	0	320864256	52	6014
2026-01-21 01:10:52.66	190.72	17.78	-39.7	-40.6	23.9	0.00e+00	12	42	0	322961408	52	6138
2026-01-21 01:10:53.67	190.82	17.90	-39.7	-40.6	23.9	0.00e+00	91	42	0	325058560	52	6110
2026-01-21 01:10:54.67	190.91	18.01	-39.7	-40.6	24.0	0.00e+00	92	42	0	327155712	52	6129
2026-01-21 01:10:55.68	191.01	18.12	-39.5	-40.3	24.1	0.00e+00	90	42	0	328204288	52	5964
2026-01-21 01:10:56.69	191.10	18.23	-39.6	-40.4	24.0	0.00e+00	92	42	0	330301440	52	6017
2026-01-21 01:10:57.70	191.20	18.35	-39.5	-40.3	24.2	0.00e+00	36	42	0	332398592	52	5946
2026-01-21 01:10:58.71	191.29	18.46	-39.6	-40.5	24.1	0.00e+00	92	42	0	334495744	52	6038
2026-01-21 01:10:59.72	191.39	18.57	-39.6	-40.4	24.1	0.00e+00	7	42	0	336592896	52	6010
2026-01-21 01:11:00.73	191.49	18.69	-39.5	-40.4	24.2	0.00e+00	92	42	0	337641472	52	5967
2026-01-21 01:11:01.74	191.59	18.80	-39.6	-40.4	24.2	0.00e+00	0	42	0	339738624	52	6025
2026-01-21 01:11:02.75	191.69	18.92	-39.5	-40.4	24.2	0.00e+00	92	41	0	341835776	52	5987
2026-01-21 01:11:03.76	191.79	19.04	-39.6	-40.5	24.1	0.00e+00	90	41	0	343932928	52	6061
2026-01-21 01:11:04.77	191.89	19.15	-39.6	-40.5	24.1	0.00e+00	92	42	0	346030080	52	6073
2026-01-21 01:11:05.77	191.99	19.27	-39.5	-40.4	24.1	0.00e+00	92	41	0	347078656	52	5971
2026-01-21 01:11:06.78	192.09	19.39	-39.6	-40.4	24.2	0.00e+00	7	41	0	349175808	52	6003
2026-01-21 01:11:07.79	192.20	19.50	-39.7	-40.6	24.0	0.00e+00	92	41	0	351272960	52	6141
2026-01-21 01:11:08.80	192.30	19.62	-39.7	-40.6	24.0	0.00e+00	67	41	0	353370112	52	6111
2026-01-21 01:11:09.80	192.41	19.74	-39.8	-40.6	24.0	0.00e+00	92	41	0	355467264	52	6166
2026-01-21 01:11:10.81	192.51	19.86	-39.6	-40.4	24.2	0.00e+00	92	41	0	356515840	52	6024
2026-01-21 01:11:11.82	192.62	19.98	-39.7	-40.5	24.0	0.00e+00	90	41	0	358612992	52	6102
2026-01-21 01:11:12.83	192.73	20.10	-39.5	-40.4	24.3	0.00e+00	92	42	0	360710144	52	5983
2026-01-21 01:11:13.84	192.83	20.22	-39.5	-40.3	24.2	0.00e+00	45	42	0	362807296	52	5943
2026-01-21 01:11:14.85	192.94	20.34	-39.5	-40.4	24.2	0.00e+00	91	42	0	364904448	52	5988
2026-01-21 01:11:15.86	193.05	20.47	-39.5	-40.3	24.3	0.00e+00	1	41	0	367001600	52	5938
2026-01-21 01:11:16.87	193.16	20.59	-39.5	-40.4	24.2	0.00e+00	92	42	0	368050176	52	5983
2026-01-21 01:11:17.88	193.28	20.71	-39.6	-40.4	24.2	0.00e+00	0	42	0	370147328	52	6019
2026-01-21 01:11:18.89	193.39	20.83	-39.5	-40.3	24.3	0.00e+00	92	42	0	372244480	52	5936
2026-01-21 01:11:19.90	193.50	20.96	-39.5	-40.3	24.3	0.00e+00	92	41	0	374341632	52	5962
2026-01-21 01:11:20.91	193.61	21.08	-39.5	-40.4	24.3	0.00e+00	92	42	0	376438784	52	5967
2026-01-21 01:11:21.92	193.73	21.21	-39.7	-40.5	24.1	0.00e+00	92	41	0	377487360	52	6082
2026-01-21 01:11:22.93	193.85	21.33	-39.6	-40.4	24.1	0.00e+00	1	41	0	379584512	52	6012
2026-01-21 01:11:23.94	193.96	21.46	-39.5	-40.4	24.2	0.00e+00	92	41	0	381681664	52	5978
2026-01-21 01:11:24.95	194.08	21.59	-39.6	-40.5	24.1	0.00e+00	0	41	0	383778816	52	6065
2026-01-21 01:11:25.96	194.20	21.71	-39.7	-40.5	24.1	0.00e+00	92	41	0	385875968	52	6085
2026-01-21 01:11:26.97	194.32	21.84	-39.7	-40.5	24.2	0.00e+00	92	41	0	386924544	52	6090
2026-01-21 01:11:27.98	194.44	21.97	-39.6	-40.5	24.2	0.00e+00	92	41	0	389021696	52	6054
2026-01-21 01:11:28.99	194.56	22.10	-39.7	-40.5	24.1	0.00e+00	92	41	0	391118848	52	6085
2026-01-21 01:11:30.00	194.68	22.23	-39.7	-40.6	24.1	0.00e+00	7	41	0	393216000	52	6108
2026-01-21 01:11:31.01	194.81	22.35	-39.7	-40.5	24.1	0.00e+00	90	41	0	395313152	52	6091
2026-01-21 01:11:32.01	194.93	22.48	-39.5	-40.4	24.3	0.00e+00	86	41	0	396361728	52	5992
2026-01-21 01:11:33.02	195.06	22.61	-39.6	-40.4	24.2	0.00e+00	92	41	0	398458880	52	6011
2026-01-21 01:11:34.03	195.18	22.75	-39.5	-40.3	24.3	0.00e+00	92	41	0	400556032	52	5956
2026-01-21 01:11:35.04	195.31	22.88	-39.5	-40.4	24.3	0.00e+00	92	41	0	402653184	52	5977
2026-01-21 01:11:36.05	195.44	23.01	-39.6	-40.5	24.1	0.00e+00	92	41	0	404750336	52	6074
2026-01-21 01:11:37.06	195.57	23.14	-39.6	-40.5	24.2	0.00e+00	12	41	0	405798912	52	6078
2026-01-21 01:11:38.07	195.70	23.28	-39.8	-40.7	24.0	0.00e+00	92	41	0	407896064	52	6181
2026-01-21 01:11:39.08	195.83	23.41	-39.8	-40.7	24.1	0.00e+00	2	41	0	409993216	52	6206
2026-01-21 01:11:40.09	195.96	23.54	-40.0	-40.9	23.8	0.00e+00	92	41	0	412090368	52	6326
2026-01-21 01:11:41.10	196.10	23.68	-39.8	-40.7	24.1	0.00e+00	67	41	0	414187520	52	6183
2026-01-21 01:11:42.11	196.23	23.81	-39.9	-40.8	24.0	0.00e+00	92	41	0	415236096	52	6286
2026-01-21 01:11:43.12	196.37	23.95	-39.8	-40.7	24.0	0.00e+00	92	41	0	417333248	52	6211
2026-01-21 01:11:44.13	196.51	24.09	-39.8	-40.6	24.1	0.00e+00	92	41	0	419430400	52	6162
2026-01-21 01:11:45.14	196.65	24.22	-39.8	-40.6	24.1	0.00e+00	90	41	0	421527552	52	6164
2026-01-21 01:11:46.15	196.78	24.36	-39.9	-40.8	23.8	0.00e+00	0	41	0	423624704	52	6277
2026-01-21 01:11:47.15	196.92	24.50	-40.0	-40.9	23.8	0.00e+00	90	41	0	424673280	52	6353
2026-01-21 01:11:48.16	197.07	24.64	-40.1	-41.0	23.9	0.00e+00	0	41	0	426770432	52	6407
2026-01-21 01:11:49.17	197.21	24.78	-39.8	-40.7	24.0	0.00e+00	91	41	0	428867584	52	6178
2026-01-21 01:11:50.17	197.35	24.91	-39.9	-40.7	23.9	0.00e+00	91	41	0	430964736	52	6237
2026-01-21 01:11:51.19	197.50	25.06	-39.9	-40.8	23.9	0.00e+00	92	41	0	433061888	52	6291
2026-01-21 01:11:52.19	197.65	25.20	-40.2	-41.1	23.8	0.00e+00	91	41	0	435159040	52	6467
2026-01-21 01:11:53.20	197.79	25.34	-40.1	-41.0	23.8	0.00e+00	20	41	0	436207616	52	6439
2026-01-21 01:11:54.21	197.94	25.48	-40.3	-41.2	23.5	0.00e+00	92	41	0	438304768	52	6595
2026-01-21 01:11:55.22	198.10	25.62	-40.4	-41.3	23.7	0.00e+00	0	41	0	440401920	52	6628
2026-01-21 01:11:56.23	198.25	25.77	-40.2	-41.1	23.7	0.00e+00	92	41	0	442499072	52	6513
2026-01-21 01:11:57.24	198.40	25.91	-40.1	-41.0	23.7	0.00e+00	91	41	0	444596224	52	6453
2026-01-21 01:11:58.25	198.56	26.05	-40.2	-41.0	23.7	0.00e+00	92	41	0	445644800	52	6455
2026-01-21 01:11:59.26	198.71	26.20	-40.2	-41.1	23.7	0.00e+00	92	41	0	447741952	52	6490
2026-01-21 01:12:00.27	198.87	26.34	-40.4	-41.3	23.5	0.00e+00	92	41	0	449839104	52	6644
2026-01-21 01:12:01.28	199.03	26.49	-40.3	-41.2	23.5	0.00e+00	92	41	0	451936256	52	6615
2026-01-21 01:12:02.28	199.19	26.64	-40.4	-41.3	23.6	0.00e+00	0	41	0	454033408	52	6651
2026-01-21 01:12:03.29	199.35	26.78	-40.6	-41.5	23.4	0.00e+00	92	41	0	455081984	52	6811
2026-01-21 01:12:04.30	199.51	26.93	-40.7	-41.6	23.2	0.00e+00	0	41	0	457179136	52	6924
2026-01-21 01:12:05.31	199.68	27.08	-40.6	-41.6	23.3	0.00e+00	92	41	0	459276288	52	6878
2026-01-21 01:12:06.32	199.85	27.23	-40.7	-41.7	23.1	0.00e+00	92	41	0	461373440	54	6184
2026-01-21 01:12:07.33	200.01	27.38	-40.7	-41.7	23.2	0.00e+00	92	41	0	463470592	54	6201
2026-01-21 01:12:08.34	200.18	27.53	-40.8	-41.8	23.1	0.00e+00	90	41	0	464519168	54	6259
2026-01-21 01:12:09.35	200.35	27.68	-41.0	-42.0	22.8	0.00e+00	80	41	0	466616320	54	6429
2026-01-21 01:12:10.36	200.53	27.83	-40.7	-41.6	23.2	0.00e+00	92	41	0	468713472	54	6133
2026-01-21 01:12:11.37	200.70	27.98	-40.8	-41.7	23.1	0.00e+00	0	41	0	470810624	54	6195
2026-01-21 01:12:12.38	200.88	28.13	-40.8	-41.7	23.1	0.00e+00	92	41	0	472907776	54	6240
2026-01-21 01:12:13.39	201.06	28.29	-41.0	-42.0	22.9	0.00e+00	91	41	0	473956352	54	6441
2026-01-21 01:12:14.40	201.23	28.44	-40.9	-41.9	23.0	0.00e+00	91	41	0	476053504	54	6328
2026-01-21 01:12:15.41	201.42	28.59	-41.2	-42.2	22.7	0.00e+00	90	41	0	478150656	54	6593
2026-01-21 01:12:16.42	201.60	28.75	-41.2	-42.2	22.8	0.00e+00	92	41	0	480247808	54	6569
2026-01-21 01:12:17.43	201.78	28.90	-41.3	-42.3	22.6	0.00e+00	90	41	0	482344960	54	6688
2026-01-21 01:12:18.43	201.97	29.06	-41.5	-42.5	22.4	0.00e+00	2	41	0	483393536	54	6796
2026-01-21 01:12:19.44	202.15	29.21	-41.8	-42.9	22.1	0.00e+00	96	41	0	485490688	54	7094
2026-01-21 01:12:20.45	202.34	29.37	-42.0	-43.1	22.0	0.00e+00	67	41	0	487587840	56	6487
2026-01-21 01:12:21.46	202.54	29.53	-42.2	-43.4	21.7	0.00e+00	90	41	0	489684992	56	6702
2026-01-21 01:12:22.47	202.73	29.68	-42.5	-43.6	21.4	0.00e+00	92	41	0	491782144	56	6914
2026-01-21 01:12:23.48	202.92	29.84	-42.6	-43.7	21.4	0.00e+00	90	41	0	492830720	56	6963
2026-01-21 01:12:24.49	203.12	30.00	-42.6	-43.8	21.3	0.00e+00	92	41	0	494927872	56	7044
2026-01-21 01:12:25.50	203.32	30.16	-42.8	-44.0	20.4	0.00e+00	5	41	0	497025024	58	6391
2026-01-21 01:12:26.51	203.52	30.32	-42.9	-44.1	20.9	0.00e+00	92	41	0	499122176	58	6526
2026-01-21 01:12:27.52	203.72	30.48	-42.9	-44.1	21.0	0.00e+00	10	41	0	501219328	58	6472
2026-01-21 01:12:28.53	203.93	30.64	-42.9	-44.1	21.0	0.00e+00	90	41	0	502267904	58	6514
2026-01-21 01:12:29.54	204.13	30.80	-43.0	-44.2	20.8	0.00e+00	92	41	0	504365056	58	6556
2026-01-21 01:12:30.54	204.34	30.96	-43.1	-44.3	20.8	0.00e+00	92	41	0	506462208	58	6671
2026-01-21 01:12:31.55	204.55	31.12	-43.0	-44.3	20.9	0.00e+00	90	41	0	508559360	58	6650
2026-01-21 01:12:32.56	204.77	31.29	-43.2	-44.5	20.7	0.00e+00	92	41	0	510656512	58	6787
2026-01-21 01:12:33.57	204.98	31.45	-43.2	-44.5	20.6	0.00e+00	92	41	0	511705088	58	6806
2026-01-21 01:12:34.58	205.20	31.61	-43.3	-44.7	20.7	0.00e+00	90	41	0	513802240	58	6939
2026-01-21 01:12:35.58	205.41	31.78	-42.9	-44.1	21.1	0.00e+00	90	41	0	515899392	58	6497
2026-01-21 01:12:36.59	205.64	31.94	-42.8	-44.0	21.1	0.00e+00	92	41	0	517996544	58	6419
2026-01-21 01:12:37.60	205.86	32.11	-42.7	-43.8	21.3	0.00e+00	92	41	0	520093696	58	6315
2026-01-21 01:12:38.62	206.09	32.27	-42.5	-43.7	21.4	0.00e+00	92	41	0	521142272	58	6204
2026-01-21 01:12:39.63	206.32	32.44	-42.2	-43.3	21.8	0.00e+00	90	41	0	523239424	58	5923
2026-01-21 01:12:40.64	206.55	32.61	-42.2	-43.3	21.8	0.00e+00	92	41	0	525336576	58	5963
2026-01-21 01:12:41.65	206.78	32.77	-42.4	-43.5	21.6	0.00e+00	0	41	0	527433728	58	6089
2026-01-21 01:12:42.66	207.01	32.94	-42.3	-43.4	21.8	0.00e+00	92	41	0	529530880	58	5996
2026-01-21 01:12:43.67	207.25	33.11	-42.0	-43.1	22.0	0.00e+00	82	41	0	531628032	58	5780
2026-01-21 01:12:44.68	207.49	33.28	-41.8	-42.8	22.2	0.00e+00	92	41	0	532676608	58	5616
2026-01-21 01:12:45.69	207.73	33.44	-41.3	-42.4	22.7	0.00e+00	92	41	0	534773760	56	5968
2026-01-21 01:12:46.70	207.98	33.61	-41.3	-42.3	22.8	0.00e+00	92	41	0	536870912	56	5907
2026-01-21 01:12:47.70	208.22	33.78	-41.2	-42.1	22.8	0.00e+00	92	41	0	538968064	56	5826
2026-01-21 01:12:48.71	208.47	33.95	-40.8	-41.8	23.2	0.00e+00	17	41	0	541065216	56	5575
2026-01-21 01:12:49.72	208.73	34.12	-40.9	-41.8	23.2	0.00e+00	92	41	0	542113792	56	5626
2026-01-21 01:12:50.73	208.98	34.29	-40.5	-41.4	23.4	0.00e+00	6	41	0	544210944	54	6017
2026-01-21 01:12:51.74	209.24	34.46	-40.4	-41.3	23.5	0.00e+00	91	41	0	546308096	54	5922
2026-01-21 01:12:52.75	209.50	34.63	-40.6	-41.5	23.4	0.00e+00	92	41	0	548405248	54	6098
2026-01-21 01:12:53.76	209.76	34.80	-40.3	-41.2	23.7	0.00e+00	90	41	0	550502400	54	5857
2026-01-21 01:12:54.77	210.03	34.97	-39.9	-40.8	24.0	0.00e+00	90	41	0	551550976	54	5593
2026-01-21 01:12:55.78	210.30	35.14	-39.9	-40.7	24.1	0.00e+00	92	41	0	553648128	54	5556
2026-01-21 01:12:56.79	210.57	35.32	-39.8	-40.7	24.2	0.00e+00	92	41	0	555745280	52	6184
2026-01-21 01:12:57.80	210.84	35.49	-39.9	-40.8	23.9	0.00e+00	83	41	0	557842432	52	6283
2026-01-21 01:12:58.81	211.12	35.66	-40.0	-40.9	23.8	0.00e+00	92	41	0	559939584	52	6375
2026-01-21 01:12:59.82	211.40	35.83	-40.5	-41.4	23.6	0.00e+00	90	41	0	560988160	52	6699
2026-01-21 01:13:00.83	211.68	36.01	-40.6	-41.5	23.4	0.00e+00	92	41	0	563085312	52	6841
2026-01-21 01:13:01.84	211.97	36.18	-40.8	-41.8	23.2	0.00e+00	92	41	0	565182464	54	6256
2026-01-21 01:13:02.85	212.25	36.35	-40.8	-41.8	23.2	0.00e+00	91	41	0	567279616	54	6253
2026-01-21 01:13:03.86	212.55	36.52	-40.8	-41.7	23.2	0.00e+00	92	41	0	569376768	54	6227
2026-01-21 01:13:04.86	212.84	36.70	-40.6	-41.5	23.4	0.00e+00	0	41	0	570425344	54	6087
2026-01-21 01:13:05.87	213.14	36.87	-40.5	-41.5	23.4	0.00e+00	90	41	0	572522496	54	6048
2026-01-21 01:13:06.89	213.44	37.04	-39.9	-40.7	24.1	0.00e+00	92	41	0	574619648	54	5548
2026-01-21 01:13:07.89	213.74	37.22	-39.7	-40.5	24.3	0.00e+00	92	41	0	576716800	52	6096
2026-01-21 01:13:08.91	214.05	37.39	-39.6	-40.5	24.3	0.00e+00	92	41	0	578813952	52	6042
2026-01-21 01:13:09.92	214.36	37.56	-39.4	-40.2	24.6	0.00e+00	92	41	0	579862528	52	5855
2026-01-21 01:13:10.93	214.67	37.74	-39.6	-40.4	24.4	0.00e+00	90	41	0	581959680	52	6003
2026-01-21 01:13:11.93	214.99	37.91	-39.7	-40.5	24.2	0.00e+00	11	41	0	584056832	52	6083
2026-01-21 01:13:12.94	215.31	38.08	-40.0	-40.9	24.0	0.00e+00	92	41	0	586153984	52	6334
2026-01-21 01:13:13.95	215.63	38.25	-40.2	-41.1	23.8	0.00e+00	0	41	0	588251136	52	6483
2026-01-21 01:13:14.96	215.96	38.43	-40.2	-41.1	23.7	0.00e+00	92	41	0	589299712	52	6521
2026-01-21 01:13:15.97	216.29	38.60	-40.2	-41.1	23.8	0.00e+00	91	41	0	591396864	52	6494
2026-01-21 01:13:16.98	216.62	38.77	-40.2	-41.1	23.8	0.00e+00	92	41	0	593494016	52	6473
2026-01-21 01:13:17.99	216.96	38.94	-40.0	-40.8	24.1	0.00e+00	91	41	0	595591168	52	6301
2026-01-21 01:13:19.00	217.30	39.12	-39.8	-40.7	24.3	0.00e+00	92	41	0	597688320	52	6210
2026-01-21 01:13:20.01	217.65	39.29	-39.6	-40.5	24.3	0.00e+00	91	41	0	599785472	52	6057
2026-01-21 01:13:21.02	218.00	39.46	-39.8	-40.7	24.2	0.00e+00	0	41	0	600834048	52	6187
2026-01-21 01:13:22.03	218.35	39.63	-40.1	-41.0	23.9	0.00e+00	92	41	0	602931200	52	6392
2026-01-21 01:13:23.04	218.70	39.80	-40.1	-41.0	23.9	0.00e+00	92	41	0	605028352	52	6428
2026-01-21 01:13:24.05	219.06	39.97	-40.4	-41.3	23.6	0.00e+00	92	41	0	607125504	52	6644
2026-01-21 01:13:25.06	219.42	40.14	-40.5	-41.4	23.5	0.00e+00	90	41	0	609222656	52	6758
2026-01-21 01:13:26.07	219.79	40.31	-40.7	-41.6	23.3	0.00e+00	92	41	0	610271232	54	6156
2026-01-21 01:13:27.08	220.16	40.48	-40.9	-41.8	23.2	0.00e+00	90	41	0	612368384	54	6282
2026-01-21 01:13:28.09	220.54	40.65	-40.9	-41.8	23.2	0.00e+00	0	41	0	614465536	54	6293
2026-01-21 01:13:29.10	220.91	40.82	-40.8	-41.8	23.2	0.00e+00	91	41	0	616562688	54	6256
2026-01-21 01:13:30.10	221.29	40.98	-40.9	-41.9	23.1	0.00e+00	92	41	0	618659840	54	6339
2026-01-21 01:13:31.11	221.68	41.15	-40.8	-41.7	23.2	0.00e+00	92	41	0	619708416	54	6238
2026-01-21 01:13:32.12	222.07	41.32	-41.1	-42.1	22.9	0.00e+00	92	41	0	621805568	54	6477
2026-01-21 01:13:33.13	222.46	41.48	-41.2	-42.2	22.8	0.00e+00	90	41	0	623902720	54	6581
2026-01-21 01:13:34.14	222.86	41.65	-41.5	-42.5	22.5	0.00e+00	90	41	0	625999872	54	6792
2026-01-21 01:13:35.15	223.26	41.81	-41.5	-42.6	22.5	0.00e+00	11	41	0	628097024	54	6850
2026-01-21 01:13:36.16	223.67	41.97	-41.5	-42.6	22.5	0.00e+00	90	41	0	629145600	54	6850
2026-01-21 01:13:37.17	224.08	42.14	-41.5	-42.5	22.5	0.00e+00	0	41	0	631242752	54	6823
2026-01-21 01:13:38.18	224.49	42.30	-41.5	-42.6	22.4	0.00e+00	90	41	0	633339904	54	6861
2026-01-21 01:13:39.18	224.90	42.45	-41.9	-42.9	22.2	0.00e+00	92	41	0	635437056	56	6386
2026-01-21 01:13:40.19	225.33	42.61	-42.2	-43.3	22.0	0.00e+00	92	41	0	637534208	56	6623
2026-01-21 01:13:41.20	225.75	42.77	-42.4	-43.5	21.7	0.00e+00	92	41	0	638582784	56	6810
2026-01-21 01:13:42.21	226.18	42.93	-41.7	-42.8	22.5	0.00e+00	84	41	0	640679936	56	6249
2026-01-21 01:13:43.22	226.62	43.09	-41.6	-42.6	22.5	0.00e+00	92	41	0	642777088	56	6165
2026-01-21 01:13:44.23	227.06	43.24	-41.4	-42.4	22.7	0.00e+00	0	41	0	644874240	56	6008
2026-01-21 01:13:45.24	227.50	43.39	-41.3	-42.3	22.8	0.00e+00	92	41	0	646971392	56	5914
2026-01-21 01:13:46.25	227.94	43.55	-41.4	-42.4	22.8	0.00e+00	90	41	0	648019968	56	5976
2026-01-21 01:13:47.26	228.40	43.70	-41.8	-42.8	22.1	0.00e+00	92	41	0	650117120	56	6297
2026-01-21 01:13:48.27	228.85	43.85	-42.4	-43.5	21.7	0.00e+00	92	41	0	652214272	56	6804
2026-01-21 01:13:49.28	229.31	43.99	-42.6	-43.7	21.5	0.00e+00	92	41	0	654311424	56	6977
2026-01-21 01:13:50.29	229.77	44.14	-42.1	-43.2	22.0	0.00e+00	92	41	0	656408576	56	6573
2026-01-21 01:13:51.30	230.24	44.29	-41.7	-42.7	22.5	0.00e+00	14	41	0	657457152	56	6235
2026-01-21 01:13:52.30	230.71	44.43	-40.9	-41.8	23.2	0.00e+00	92	41	0	659554304	56	5616
2026-01-21 01:13:53.31	231.19	44.57	-40.9	-41.8	23.2	0.00e+00	52	41	0	661651456	56	5614
2026-01-21 01:13:54.32	231.67	44.71	-40.9	-41.8	23.2	0.00e+00	90	41	0	663748608	56	5618
2026-01-21 01:13:55.33	232.15	44.85	-41.5	-42.5	22.6	0.00e+00	92	41	0	665845760	56	6052
2026-01-21 01:13:56.34	232.64	44.99	-42.1	-43.2	22.0	0.00e+00	66	41	0	667942912	56	6590
2026-01-21 01:13:57.35	233.13	45.12	-42.1	-43.2	22.0	0.00e+00	92	41	0	668991488	56	6582
2026-01-21 01:13:58.36	233.63	45.26	-41.9	-42.9	22.2	0.00e+00	65	41	0	671088640	56	6375
2026-01-21 01:13:59.37	234.13	45.39	-41.3	-42.3	22.8	0.00e+00	92	41	0	673185792	56	5904
2026-01-21 01:14:00.38	234.64	45.52	-40.8	-41.7	23.3	0.00e+00	11	41	0	675282944	56	5566
2026-01-21 01:14:01.39	235.15	45.64	-40.4	-41.3	23.7	0.00e+00	91	41	0	677380096	54	5943
2026-01-21 01:14:02.40	235.66	45.77	-40.7	-41.6	23.3	0.00e+00	92	41	0	678428672	54	6171
2026-01-21 01:14:03.41	236.18	45.89	-41.3	-42.3	22.6	0.00e+00	1	41	0	680525824	54	6657
2026-01-21 01:14:04.42	236.70	46.01	-42.5	-43.7	21.5	0.00e+00	91	41	0	682622976	56	6986
2026-01-21 01:14:05.43	237.22	46.13	-42.9	-44.1	21.1	0.00e+00	91	41	0	684720128	58	6538
2026-01-21 01:14:06.44	237.75	46.25	-42.8	-44.0	21.3	0.00e+00	92	41	0	686817280	58	6420
2026-01-21 01:14:07.45	238.29	46.36	-42.4	-43.5	21.7	0.00e+00	0	41	0	687865856	58	6086
2026-01-21 01:14:08.46	238.82	46.48	-42.3	-43.4	21.8	0.00e+00	92	41	0	689963008	58	5996
2026-01-21 01:14:09.47	239.36	46.58	-42.1	-43.2	22.0	0.00e+00	91	41	0	692060160	58	5880
2026-01-21 01:14:10.48	239.91	46.69	-42.4	-43.6	21.6	0.00e+00	91	41	0	694157312	58	6130
2026-01-21 01:14:11.49	240.46	46.80	-42.5	-43.7	21.5	0.00e+00	91	41	0	696254464	58	6198
2026-01-21 01:14:12.50	241.01	46.90	-42.7	-44.0	21.3	0.00e+00	12	41	0	697303040	58	6402
2026-01-21 01:14:13.51	241.56	47.00	-42.5	-43.7	21.5	0.00e+00	91	41	0	699400192	58	6219
2026-01-21 01:14:14.52	242.12	47.09	-42.7	-43.9	21.4	0.00e+00	12	41	0	701497344	58	6367
2026-01-21 01:14:15.53	242.68	47.19	-42.8	-44.0	21.2	0.00e+00	91	41	0	703594496	58	6441
2026-01-21 01:14:16.54	243.25	47.28	-43.0	-44.3	21.1	0.00e+00	15	41	0	705691648	58	6655
2026-01-21 01:14:17.55	243.82	47.37	-43.0	-44.3	21.0	0.00e+00	91	41	0	706740224	58	6656
2026-01-21 01:14:18.56	244.39	47.45	-43.0	-44.3	21.3	0.00e+00	92	41	0	708837376	58	6628
2026-01-21 01:14:19.56	244.96	47.53	-42.6	-43.7	21.6	0.00e+00	8	41	0	710934528	58	6233
2026-01-21 01:14:20.58	245.54	47.61	-42.3	-43.4	21.9	0.00e+00	91	41	0	713031680	58	5977
2026-01-21 01:14:21.58	246.12	47.69	-41.7	-42.7	22.5	0.00e+00	0	41	0	715128832	58	5547
2026-01-21 01:14:22.59	246.70	47.76	-41.8	-42.9	22.4	0.00e+00	91	41	0	716177408	56	6328
2026-01-21 01:14:23.60	247.28	47.84	-42.2	-43.3	22.1	0.00e+00	70	41	0	718274560	56	6655
2026-01-21 01:14:24.61	247.87	47.90	-42.7	-43.9	21.5	0.00e+00	92	41	0	720371712	56	7126
2026-01-21 01:14:25.62	248.46	47.97	-42.9	-44.1	21.2	0.00e+00	92	41	0	722468864	58	6534
2026-01-21 01:14:26.63	249.06	48.03	-42.7	-43.9	21.4	0.00e+00	0	41	0	724566016	58	6340
2026-01-21 01:14:27.64	249.65	48.09	-42.2	-43.3	22.0	0.00e+00	91	41	0	725614592	58	5954
2026-01-21 01:14:28.65	250.25	48.14	-42.0	-43.1	22.4	0.00e+00	2	41	0	727711744	58	5774
2026-01-21 01:14:29.66	250.85	48.19	-41.9	-42.9	22.3	0.00e+00	92	41	0	729808896	58	5691
2026-01-21 01:14:30.67	251.45	48.24	-42.4	-43.5	21.8	0.00e+00	3	41	0	731906048	58	6056
2026-01-21 01:14:31.68	252.05	48.29	-42.6	-43.7	21.5	0.00e+00	91	41	0	734003200	58	6216
2026-01-21 01:14:32.69	252.66	48.33	-42.7	-43.9	21.5	0.00e+00	90	41	0	736100352	58	6352
2026-01-21 01:14:33.70	253.27	48.37	-42.6	-43.7	21.7	0.00e+00	91	41	0	737148928	58	6239
2026-01-21 01:14:34.71	253.87	48.40	-42.1	-43.2	22.1	0.00e+00	92	41	0	739246080	58	5833
2026-01-21 01:14:35.72	254.48	48.43	-42.5	-43.6	21.7	0.00e+00	4	41	0	741343232	58	6140
2026-01-21 01:14:36.73	255.09	48.46	-42.5	-43.6	21.7	0.00e+00	92	41	0	743440384	58	6167
2026-01-21 01:14:37.74	255.71	48.49	-42.5	-43.6	21.7	0.00e+00	16	41	0	745537536	58	6119
2026-01-21 01:14:38.75	256.32	48.51	-41.9	-43.0	22.3	0.00e+00	90	41	0	746586112	58	5708
2026-01-21 01:14:39.76	256.93	48.53	-41.8	-42.9	22.4	0.00e+00	23	41	0	748683264	58	5635
2026-01-21 01:14:40.77	257.54	48.54	-41.8	-42.8	22.5	0.00e+00	90	41	0	750780416	56	6257
2026-01-21 01:14:41.78	258.16	48.55	-41.9	-42.9	22.3	0.00e+00	91	41	0	752877568	56	6383
2026-01-21 01:14:42.79	258.77	48.56	-42.1	-43.2	22.3	0.00e+00	72	41	0	754974720	56	6540
2026-01-21 01:14:43.80	259.39	48.56	-42.1	-43.2	22.1	0.00e+00	92	41	0	756023296	56	6578
2026-01-21 01:14:44.81	260.00	48.56	-41.9	-42.9	22.5	0.00e+00	0	41	0	758120448	56	6342
2026-01-21 01:14:45.82	260.62	48.56	-41.7	-42.8	22.5	0.00e+00	92	41	0	760217600	56	6263
2026-01-21 01:14:46.83	261.23	48.55	-41.7	-42.7	22.6	0.00e+00	86	41	0	762314752	56	6243
2026-01-21 01:14:47.84	261.85	48.54	-41.6	-42.5	22.8	0.00e+00	92	41	0	764411904	56	6099
2026-01-21 01:14:48.85	262.46	48.53	-41.5	-42.4	22.9	0.00e+00	90	41	0	765460480	56	6023
2026-01-21 01:14:49.86	263.07	48.51	-41.5	-42.4	22.8	0.00e+00	92	41	0	767557632	56	6028
2026-01-21 01:14:50.87	263.69	48.49	-41.7	-42.7	22.7	0.00e+00	89	41	0	769654784	56	6195
2026-01-21 01:14:51.88	264.30	48.47	-41.7	-42.7	22.5	0.00e+00	8	41	0	771751936	56	6204
2026-01-21 01:14:52.89	264.91	48.44	-41.8	-42.9	22.4	0.00e+00	92	41	0	773849088	56	6339
2026-01-21 01:14:53.90	265.52	48.41	-42.2	-43.3	22.2	0.00e+00	0	41	0	774897664	56	6624
2026-01-21 01:14:54.91	266.13	48.38	-42.2	-43.3	22.1	0.00e+00	92	41	0	776994816	56	6664
2026-01-21 01:14:55.92	266.73	48.34	-41.9	-42.9	22.5	0.00e+00	92	41	0	779091968	56	6338
2026-01-21 01:14:56.93	267.34	48.30	-41.4	-42.4	23.0	0.00e+00	90	41	0	781189120	56	5977
2026-01-21 01:14:57.94	267.94	48.26	-41.3	-42.2	23.0	0.00e+00	92	41	0	783286272	56	5895
2026-01-21 01:14:58.95	268.54	48.21	-41.8	-42.8	22.5	0.00e+00	0	41	0	784334848	56	6301
2026-01-21 01:14:59.96	269.14	48.16	-42.3	-43.4	22.1	0.00e+00	92	41	0	786432000	56	6700
2026-01-21 01:15:00.97	269.74	48.11	-42.5	-43.6	21.9	0.00e+00	64	41	0	788529152	56	6874
2026-01-21 01:15:01.98	270.34	48.05	-42.4	-43.5	21.9	0.00e+00	92	41	0	790626304	56	6818
2026-01-21 01:15:02.98	270.92	47.99	-42.0	-43.1	22.2	0.00e+00	2	41	0	792723456	56	6500
2026-01-21 01:15:03.99	271.51	47.93	-42.0	-43.0	22.3	0.00e+00	92	41	0	793772032	56	6428
2026-01-21 01:15:05.00	272.10	47.86	-42.3	-43.4	22.0	0.00e+00	92	41	0	795869184	56	6748
2026-01-21 01:15:06.01	272.69	47.79	-42.7	-43.8	21.6	0.00e+00	0	41	0	797966336	56	7079
2026-01-21 01:15:07.02	273.27	47.72	-42.5	-43.5	21.9	0.00e+00	92	41	0	800063488	56	6835
2026-01-21 01:15:08.03	273.85	47.64	-42.2	-43.3	22.3	0.00e+00	2	41	0	802160640	56	6645
2026-01-21 01:15:09.04	274.43	47.56	-41.9	-42.9	22.4	0.00e+00	91	41	0	804257792	56	6359
2026-01-21 01:15:10.05	275.01	47.48	-42.7	-43.9	20.6	0.00e+00	0	41	0	805306368	56	7114
2026-01-21 01:15:11.05	275.57	47.40	-43.5	-44.8	20.5	0.00e+00	92	41	0	807403520	58	7041
2026-01-21 01:15:12.06	276.14	47.31	-44.2	-45.6	20.0	0.00e+00	90	41	0	809500672	60	6871
2026-01-21 01:15:13.07	276.71	47.22	-43.5	-44.8	20.9	0.00e+00	92	41	0	811597824	60	6268
2026-01-21 01:15:14.08	277.27	47.13	-43.0	-44.1	21.3	0.00e+00	92	41	0	813694976	60	5826
2026-01-21 01:15:15.09	277.83	47.03	-43.4	-44.7	20.8	0.00e+00	3	41	0	814743552	60	6186
2026-01-21 01:15:16.10	278.38	46.93	-44.3	-45.8	19.7	0.00e+00	91	41	0	816840704	60	7031
2026-01-21 01:15:17.11	278.93	46.83	-44.8	-46.3	19.1	0.00e+00	0	41	0	818937856	60	7492
2026-01-21 01:15:18.12	279.48	46.73	-44.5	-46.0	19.6	0.00e+00	91	41	0	821035008	60	7219
2026-01-21 01:15:19.13	280.03	46.62	-44.2	-45.5	19.9	0.00e+00	91	41	0	822083584	60	6835
2026-01-21 01:15:20.14	280.57	46.52	-44.2	-45.5	20.1	0.00e+00	92	41	0	824180736	60	6837
2026-01-21 01:15:21.15	281.11	46.41	-44.1	-45.4	20.1	0.00e+00	90	41	0	826277888	60	6748
2026-01-21 01:15:22.16	281.64	46.29	-44.2	-45.6	20.0	0.00e+00	7	41	0	828375040	60	6915
2026-01-21 01:15:23.17	282.17	46.18	-44.4	-45.9	19.6	0.00e+00	92	41	0	830472192	60	7119
2026-01-21 01:15:24.17	282.69	46.06	-44.2	-45.6	20.0	0.00e+00	75	41	0	832569344	60	6868
2026-01-21 01:15:25.18	283.21	45.94	-43.4	-44.7	20.9	0.00e+00	92	41	0	833617920	60	6193
2026-01-21 01:15:26.20	283.73	45.82	-43.4	-44.6	20.9	0.00e+00	0	41	0	835715072	60	6130
2026-01-21 01:15:27.20	284.24	45.69	-44.1	-45.5	19.9	0.00e+00	91	41	0	837812224	60	6797
2026-01-21 01:15:28.21	284.75	45.57	-44.7	-46.3	19.2	0.00e+00	91	41	0	839909376	60	7452
2026-01-21 01:15:29.22	285.26	45.44	-43.3	-44.5	21.0	0.00e+00	76	41	0	842006528	60	6091
2026-01-21 01:15:30.23	285.76	45.31	-42.1	-43.1	22.3	0.00e+00	92	41	0	843055104	58	5824
2026-01-21 01:15:31.24	286.26	45.18	-41.6	-42.5	22.7	0.00e+00	2	41	0	845152256	56	6093
2026-01-21 01:15:32.25	286.75	45.04	-42.1	-43.1	22.2	0.00e+00	92	41	0	847249408	56	6508
2026-01-21 01:15:33.26	287.24	44.91	-42.6	-43.7	21.8	0.00e+00	0	41	0	849346560	56	6938
2026-01-21 01:15:34.27	287.73	44.77	-42.1	-43.1	22.2	0.00e+00	91	41	0	851443712	58	5819
2026-01-21 01:15:35.28	288.21	44.63	-41.6	-42.6	22.7	0.00e+00	92	41	0	852492288	58	5448
2026-01-21 01:15:36.29	288.68	44.49	-40.9	-41.8	23.4	0.00e+00	8	41	0	854589440	56	5623
2026-01-21 01:15:37.30	289.16	44.35	-40.9	-41.8	23.3	0.00e+00	92	41	0	856686592	54	6281
2026-01-21 01:15:38.31	289.62	44.20	-41.0	-42.0	23.2	0.00e+00	0	41	0	858783744	54	6405
2026-01-21 01:15:39.32	290.09	44.06	-41.3	-42.3	22.9	0.00e+00	91	41	0	860880896	54	6643
2026-01-21 01:15:40.33	290.55	43.91	-40.6	-41.5	23.6	0.00e+00	0	41	0	861929472	54	6079
2026-01-21 01:15:41.34	291.00	43.76	-40.6	-41.5	23.7	0.00e+00	91	41	0	864026624	54	6047
2026-01-21 01:15:42.35	291.46	43.61	-40.3	-41.2	23.8	0.00e+00	92	41	0	866123776	54	5849
2026-01-21 01:15:43.36	291.90	43.46	-40.7	-41.6	23.7	0.00e+00	92	41	0	868220928	54	6158
2026-01-21 01:15:44.37	292.35	43.31	-39.9	-40.7	24.3	0.00e+00	92	41	0	870318080	54	5554
2026-01-21 01:15:45.38	292.79	43.15	-39.8	-40.6	24.5	0.00e+00	15	41	0	871366656	52	6144
2026-01-21 01:15:46.39	293.22	43.00	-39.2	-40.0	24.9	0.00e+00	92	41	0	873463808	52	5747
2026-01-21 01:15:47.39	293.65	42.84	-39.6	-40.4	24.6	0.00e+00	0	42	0	875560960	52	6025
2026-01-21 01:15:48.40	294.07	42.69	-40.0	-40.8	24.2	0.00e+00	92	41	0	877658112	52	6299
2026-01-21 01:15:49.41	294.50	42.53	-40.0	-40.8	24.3	0.00e+00	10	41	0	879755264	52	6289
2026-01-21 01:15:50.42	294.91	42.37	-39.8	-40.6	24.4	0.00e+00	92	41	0	880803840	52	6148
2026-01-21 01:15:51.43	295.33	42.21	-39.6	-40.4	24.6	0.00e+00	92	41	0	882900992	52	6002
2026-01-21 01:15:52.44	295.74	42.05	-39.6	-40.4	24.6	0.00e+00	11	41	0	884998144	52	6033
2026-01-21 01:15:53.45	296.14	41.89	-40.0	-40.8	24.2	0.00e+00	92	42	0	887095296	52	6282
2026-01-21 01:15:54.46	296.55	41.72	-40.3	-41.2	23.9	0.00e+00	13	41	0	889192448	52	6550
2026-01-21 01:15:55.47	296.95	41.56	-40.4	-41.3	23.8	0.00e+00	92	41	0	890241024	52	6656
2026-01-21 01:15:56.48	297.34	41.40	-40.2	-41.1	24.0	0.00e+00	0	41	0	892338176	52	6489
2026-01-21 01:15:57.49	297.73	41.23	-40.4	-41.3	23.8	0.00e+00	92	41	0	894435328	52	6635
2026-01-21 01:15:58.50	298.12	41.07	-41.1	-42.0	23.2	0.00e+00	92	41	0	896532480	54	6433
2026-01-21 01:15:59.50	298.49	40.90	-41.7	-42.7	22.6	0.00e+00	11	41	0	898629632	54	6949
2026-01-21 01:16:00.51	298.87	40.73	-42.5	-43.7	21.7	0.00e+00	92	41	0	900726784	56	6948
2026-01-21 01:16:01.52	299.25	40.57	-41.9	-42.9	22.4	0.00e+00	3	42	0	901775360	56	6351
2026-01-21 01:16:02.53	299.62	40.40	-40.7	-41.6	23.7	0.00e+00	92	41	0	903872512	56	5457
2026-01-21 01:16:03.54	299.99	40.23	-40.4	-41.3	23.5	0.00e+00	12	41	0	905969664	54	5911
2026-01-21 01:16:04.55	300.35	40.06	-40.3	-41.1	23.9	0.00e+00	92	41	0	908066816	54	5800
2026-01-21 01:16:05.56	300.71	39.89	-40.7	-41.6	23.4	0.00e+00	52	41	0	910163968	54	6149
2026-01-21 01:16:06.57	301.06	39.72	-41.5	-42.4	22.9	0.00e+00	82	41	0	911212544	54	6763
2026-01-21 01:16:07.58	301.42	39.55	-41.6	-42.6	22.7	0.00e+00	92	41	0	913309696	54	6867
2026-01-21 01:16:08.59	301.77	39.38	-41.3	-42.3	22.9	0.00e+00	71	41	0	915406848	54	6650
2026-01-21 01:16:09.60	302.11	39.21	-41.0	-42.0	23.3	0.00e+00	92	41	0	917504000	54	6403
2026-01-21 01:16:10.61	302.45	39.04	-40.6	-41.5	23.5	0.00e+00	3	41	0	919601152	54	6061
2026-01-21 01:16:11.62	302.79	38.87	-40.9	-41.8	23.3	0.00e+00	92	41	0	920649728	54	6287
2026-01-21 01:16:12.62	303.12	38.70	-42.0	-43.1	22.3	0.00e+00	5	41	0	922746880	56	6493
2026-01-21 01:16:13.63	303.45	38.53	-42.7	-43.8	21.6	0.00e+00	92	41	0	924844032	58	6296
2026-01-21 01:16:14.64	303.78	38.35	-41.7	-42.7	22.7	0.00e+00	92	41	0	926941184	56	6243
2026-01-21 01:16:15.65	304.10	38.18	-40.5	-41.4	23.8	0.00e+00	2	41	0	929038336	54	5972
2026-01-21 01:16:16.66	304.42	38.01	-40.1	-41.0	24.0	0.00e+00	91	41	0	930086912	54	5704
2026-01-21 01:16:17.66	304.74	37.84	-40.7	-41.6	23.5	0.00e+00	2	41	0	932184064	54	6116
2026-01-21 01:16:18.67	305.05	37.67	-42.3	-43.4	22.1	0.00e+00	92	41	0	934281216	56	6693
2026-01-21 01:16:19.68	305.36	37.49	-43.7	-45.0	20.4	0.00e+00	12	42	0	936378368	58	7242
2026-01-21 01:16:20.69	305.67	37.32	-43.6	-44.9	20.7	0.00e+00	90	41	0	938475520	60	6353
2026-01-21 01:16:21.70	305.98	37.15	-42.7	-43.8	21.6	0.00e+00	92	41	0	939524096	60	5623
2026-01-21 01:16:22.71	306.28	36.98	-42.4	-43.5	22.1	0.00e+00	22	41	0	941621248	58	6095
2026-01-21 01:16:23.72	306.58	36.81	-41.7	-42.7	22.6	0.00e+00	92	41	0	943718400	56	6210
2026-01-21 01:16:24.73	306.87	36.63	-42.4	-43.5	21.9	0.00e+00	12	41	0	945815552	56	6808
2026-01-21 01:16:25.74	307.16	36.46	-43.3	-44.6	20.8	0.00e+00	92	41	0	947912704	58	6861
2026-01-21 01:16:26.75	307.45	36.29	-44.7	-46.3	19.3	0.00e+00	66	42	0	948961280	60	7476
2026-01-21 01:16:27.76	307.74	36.12	-44.6	-46.2	19.4	0.00e+00	65	41	0	951058432	60	7366
2026-01-21 01:16:28.77	308.02	35.95	-43.5	-44.8	20.7	0.00e+00	92	42	0	953155584	60	6290
2026-01-21 01:16:29.78	308.30	35.77	-41.7	-42.7	22.7	0.00e+00	16	41	0	955252736	58	5518
2026-01-21 01:16:30.79	308.58	35.60	-41.1	-42.0	23.3	0.00e+00	92	42	0	957349888	56	5741
2026-01-21 01:16:31.80	308.85	35.43	-40.6	-41.5	23.7	0.00e+00	0	41	0	958398464	54	6064
2026-01-21 01:16:32.81	309.13	35.26	-41.0	-42.0	23.2	0.00e+00	92	41	0	960495616	54	6392
2026-01-21 01:16:33.82	309.39	35.09	-42.2	-43.2	22.2	0.00e+00	2	41	0	962592768	56	6599
2026-01-21 01:16:34.83	309.66	34.92	-43.3	-44.5	20.9	0.00e+00	92	41	0	964689920	58	6831
2026-01-21 01:16:35.84	309.92	34.75	-43.7	-45.0	20.8	0.00e+00	0	41	0	966787072	58	7180
2026-01-21 01:16:36.85	310.18	34.58	-42.7	-43.9	21.6	0.00e+00	47	42	0	968884224	58	6331
2026-01-21 01:16:37.86	310.44	34.41	-42.4	-43.5	22.1	0.00e+00	92	41	0	969932800	58	6071
2026-01-21 01:16:38.87	310.70	34.24	-41.3	-42.3	23.1	0.00e+00	0	41	0	972029952	56	5917
2026-01-21 01:16:39.88	310.95	34.07	-41.4	-42.3	22.9	0.00e+00	90	41	0	974127104	56	5945
2026-01-21 01:16:40.89	311.20	33.90	-41.6	-42.6	22.7	0.00e+00	0	41	0	976224256	56	6146
2026-01-21 01:16:41.90	311.45	33.73	-42.5	-43.6	21.8	0.00e+00	90	41	0	978321408	56	6856
2026-01-21 01:16:42.91	311.69	33.57	-43.6	-44.9	20.3	0.00e+00	0	41	0	979369984	58	7125
2026-01-21 01:16:43.92	311.94	33.40	-44.7	-46.3	19.3	0.00e+00	18	41	0	981467136	60	7460
2026-01-21 01:16:44.92	312.17	33.23	-45.0	-46.7	19.0	0.00e+00	92	41	0	983564288	60	7806
2026-01-21 01:16:45.93	312.41	33.07	-43.9	-45.3	20.3	0.00e+00	2	42	0	985661440	60	6651
2026-01-21 01:16:46.94	312.65	32.90	-43.1	-44.3	21.2	0.00e+00	91	41	0	987758592	60	5910
2026-01-21 01:16:47.95	312.88	32.73	-41.9	-42.9	22.5	0.00e+00	66	42	0	988807168	58	5661
2026-01-21 01:16:48.96	313.11	32.57	-41.0	-41.9	23.3	0.00e+00	91	41	0	990904320	56	5687
2026-01-21 01:16:49.97	313.34	32.40	-41.0	-41.9	23.3	0.00e+00	68	41	0	993001472	56	5674
2026-01-21 01:16:50.98	313.57	32.24	-41.7	-42.7	22.6	0.00e+00	92	41	0	995098624	56	6224
2026-01-21 01:16:51.99	313.79	32.07	-42.9	-44.1	21.2	0.00e+00	91	41	0	997195776	58	6500
2026-01-21 01:16:53.00	314.01	31.91	-44.3	-45.8	19.6	0.00e+00	0	41	0	998244352	60	7055
2026-01-21 01:16:54.01	314.23	31.75	-45.6	-47.4	18.2	0.00e+00	91	41	0	1000341504	60	8481
2026-01-21 01:16:55.02	314.45	31.58	-45.3	-47.1	18.6	0.00e+00	68	41	0	1002438656	60	8151
2026-01-21 01:16:56.03	314.67	31.42	-44.3	-45.9	19.8	0.00e+00	90	41	0	1004535808	60	7112
2026-01-21 01:16:57.04	314.88	31.26	-43.9	-45.2	20.3	0.00e+00	0	41	0	1006632960	60	6600
2026-01-21 01:16:58.05	315.09	31.10	-43.4	-44.6	20.8	0.00e+00	90	41	0	1007681536	60	6148
2026-01-21 01:16:59.06	315.30	30.94	-41.7	-42.7	22.6	0.00e+00	0	41	0	1009778688	58	5544
2026-01-21 01:17:00.06	315.51	30.78	-41.0	-41.9	23.4	0.00e+00	0	42	0	1011875840	56	5679
2026-01-21 01:17:01.07	315.71	30.62	-40.9	-41.8	23.3	0.00e+00	92	41	0	1013972992	56	5587
2026-01-21 01:17:02.08	315.91	30.46	-41.5	-42.4	22.9	0.00e+00	15	41	0	1016070144	56	6024
2026-01-21 01:17:03.09	316.12	30.30	-42.2	-43.2	22.0	0.00e+00	92	41	0	1017118720	56	6607
2026-01-21 01:17:04.10	316.31	30.14	-42.9	-44.1	21.2	0.00e+00	15	41	0	1019215872	58	6482
2026-01-21 01:17:05.12	316.51	29.98	-43.2	-44.5	20.9	0.00e+00	92	41	0	1021313024	58	6806
2026-01-21 01:17:06.12	316.71	29.82	-43.3	-44.6	20.9	0.00e+00	0	41	0	1023410176	58	6873
2026-01-21 01:17:07.13	316.90	29.67	-42.8	-43.9	21.5	0.00e+00	0	41	0	1025507328	58	6383
2026-01-21 01:17:08.14	317.09	29.51	-42.2	-43.3	22.0	0.00e+00	92	41	0	1026555904	58	5940
2026-01-21 01:17:09.15	317.28	29.36	-41.9	-42.9	22.4	0.00e+00	14	42	0	1028653056	58	5651
2026-01-21 01:17:10.16	317.47	29.20	-41.8	-42.8	22.6	0.00e+00	92	42	0	1030750208	58	5604
2026-01-21 01:17:11.17	317.66	29.04	-41.7	-42.7	22.5	0.00e+00	67	42	0	1032847360	56	6181
2026-01-21 01:17:12.18	317.84	28.89	-42.0	-43.0	22.4	0.00e+00	92	41	0	1034944512	56	6445
2026-01-21 01:17:13.19	318.03	28.74	-42.2	-43.3	22.1	0.00e+00	0	41	0	1037041664	56	6650
2026-01-21 01:17:14.20	318.21	28.58	-42.4	-43.5	21.8	0.00e+00	92	42	0	1038090240	56	6787
2026-01-21 01:17:15.20	318.39	28.43	-42.5	-43.6	21.7	0.00e+00	66	41	0	1040187392	56	6891
2026-01-21 01:17:16.21	318.56	28.28	-42.6	-43.7	21.7	0.00e+00	0	41	0	1042284544	56	6958
2026-01-21 01:17:17.22	318.74	28.13	-42.3	-43.4	21.9	0.00e+00	92	42	0	1044381696	56	6731
2026-01-21 01:17:18.22	318.91	27.98	-42.1	-43.2	22.2	0.00e+00	67	42	0	1045430272	56	6540
2026-01-21 01:17:19.23	319.09	27.83	-41.5	-42.5	22.8	0.00e+00	92	42	0	1047527424	56	6080
2026-01-21 01:17:20.24	319.26	27.68	-40.5	-41.4	23.7	0.00e+00	0	42	0	1049624576	54	5972
2026-01-21 01:17:21.25	319.43	27.53	-40.1	-40.9	24.0	0.00e+00	92	42	0	1051721728	54	5693
2026-01-21 01:17:22.27	319.60	27.38	-40.1	-41.0	24.1	0.00e+00	2	41	0	1053818880	54	5724
2026-01-21 01:17:23.28	319.77	27.23	-39.9	-40.7	24.3	0.00e+00	0	41	0	1054867456	54	5528
2026-01-21 01:17:24.28	319.93	27.08	-40.1	-40.9	24.1	0.00e+00	92	41	0	1056964608	54	5656
2026-01-21 01:17:25.30	320.10	26.94	-40.4	-41.3	23.7	0.00e+00	15	41	0	1059061760	54	5947
2026-01-21 01:17:26.31	320.26	26.79	-40.7	-41.6	23.4	0.00e+00	92	41	0	1061158912	54	6141
2026-01-21 01:17:27.32	320.42	26.64	-41.1	-42.0	23.1	0.00e+00	14	41	0	1063256064	54	6458
2026-01-21 01:17:28.33	320.58	26.50	-41.2	-42.2	23.0	0.00e+00	92	41	0	1065353216	54	6551
2026-01-21 01:17:29.34	320.74	26.35	-41.2	-42.1	23.0	0.00e+00	0	41	0	1066401792	54	6522
2026-01-21 01:17:30.35	320.89	26.21	-41.3	-42.2	22.9	0.00e+00	0	41	0	1068498944	54	6600
2026-01-21 01:17:31.36	321.05	26.06	-41.2	-42.2	23.0	0.00e+00	91	42	0	1070596096	54	6543
2026-01-21 01:17:32.36	321.20	25.92	-41.1	-42.0	23.1	0.00e+00	12	41	0	1072693248	54	6424
2026-01-21 01:17:33.37	321.36	25.78	-40.9	-41.8	23.3	0.00e+00	92	41	0	1074790400	54	6261
2026-01-21 01:17:34.38	321.51	25.64	-40.8	-41.7	23.3	0.00e+00	69	41	0	1075838976	54	6237
2026-01-21 01:17:35.39	321.66	25.50	-40.7	-41.6	23.4	0.00e+00	92	41	0	1077936128	54	6150
2026-01-21 01:17:36.40	321.81	25.36	-40.6	-41.5	23.5	0.00e+00	69	41	0	1080033280	54	6088
2026-01-21 01:17:37.41	321.95	25.21	-40.7	-41.7	23.3	0.00e+00	92	41	0	1082130432	54	6180
2026-01-21 01:17:38.42	322.10	25.07	-40.6	-41.5	23.5	0.00e+00	47	41	0	1084227584	54	6085
2026-01-21 01:17:39.43	322.25	24.94	-40.6	-41.5	23.6	0.00e+00	0	41	0	1085276160	54	6051
2026-01-21 01:17:40.44	322.39	24.80	-40.6	-41.5	23.5	0.00e+00	90	42	0	1087373312	54	6075
2026-01-21 01:17:41.45	322.53	24.66	-40.8	-41.7	23.4	0.00e+00	0	41	0	1089470464	54	6195
2026-01-21 01:17:42.46	322.67	24.52	-40.8	-41.7	23.3	0.00e+00	91	41	0	1091567616	54	6237
2026-01-21 01:17:43.47	322.81	24.38	-40.9	-41.9	23.2	0.00e+00	0	42	0	1093664768	54	6333
2026-01-21 01:17:44.48	322.95	24.25	-41.3	-42.3	22.8	0.00e+00	90	41	0	1094713344	54	6635
2026-01-21 01:17:45.49	323.09	24.11	-41.5	-42.5	22.5	0.00e+00	11	41	0	1096810496	54	6823
2026-01-21 01:17:46.50	323.23	23.98	-42.2	-43.2	22.1	0.00e+00	7	41	0	1098907648	56	6597
2026-01-21 01:17:47.51	323.36	23.84	-42.2	-43.3	22.0	0.00e+00	91	41	0	1101004800	56	6656
2026-01-21 01:17:48.52	323.50	23.71	-42.3	-43.4	22.0	0.00e+00	11	42	0	1103101952	56	6739
2026-01-21 01:17:49.53	323.63	23.57	-42.3	-43.4	21.9	0.00e+00	91	42	0	1104150528	56	6738
2026-01-21 01:17:50.54	323.76	23.44	-42.0	-43.0	22.3	0.00e+00	76	42	0	1106247680	56	6458
2026-01-21 01:17:51.55	323.89	23.31	-41.8	-42.8	22.5	0.00e+00	92	41	0	1108344832	56	6285
2026-01-21 01:17:52.56	324.02	23.17	-41.3	-42.3	22.8	0.00e+00	86	41	0	1110441984	56	5929
2026-01-21 01:17:53.57	324.15	23.04	-41.2	-42.1	23.0	0.00e+00	13	41	0	1112539136	56	5809
2026-01-21 01:17:54.58	324.28	22.91	-41.0	-41.9	23.2	0.00e+00	92	42	0	1113587712	56	5656
2026-01-21 01:17:55.58	324.41	22.78	-41.1	-42.0	23.2	0.00e+00	74	41	0	1115684864	56	5714
2026-01-21 01:17:56.59	324.53	22.65	-41.1	-42.0	23.2	0.00e+00	92	41	0	1117782016	56	5727
2026-01-21 01:17:57.60	324.66	22.52	-41.3	-42.3	22.9	0.00e+00	0	41	0	1119879168	56	5922
2026-01-21 01:17:58.61	324.78	22.39	-41.3	-42.3	22.9	0.00e+00	92	42	0	1121976320	56	5918
2026-01-21 01:17:59.62	324.91	22.26	-41.4	-42.3	22.9	0.00e+00	75	42	0	1123024896	56	5952
2026-01-21 01:18:00.63	325.03	22.14	-41.8	-42.8	22.4	0.00e+00	92	41	0	1125122048	56	6267
2026-01-21 01:18:01.64	325.15	22.01	-41.9	-43.0	22.5	0.00e+00	90	42	0	1127219200	56	6412
2026-01-21 01:18:02.65	325.27	21.88	-41.7	-42.7	22.5	0.00e+00	6	41	0	1129316352	56	6195
2026-01-21 01:18:03.66	325.39	21.75	-41.6	-42.6	22.7	0.00e+00	92	42	0	1131413504	56	6112
2026-01-21 01:18:04.67	325.51	21.63	-41.5	-42.5	22.8	0.00e+00	0	41	0	1133510656	56	6057
2026-01-21 01:18:05.68	325.62	21.50	-41.5	-42.5	22.8	0.00e+00	90	41	0	1134559232	56	6055
2026-01-21 01:18:06.69	325.74	21.38	-41.5	-42.5	22.6	0.00e+00	12	41	0	1136656384	56	6072
2026-01-21 01:18:07.70	325.86	21.25	-41.3	-42.3	22.9	0.00e+00	90	41	0	1138753536	56	5914
2026-01-21 01:18:08.71	325.97	21.13	-41.4	-42.4	22.8	0.00e+00	0	41	0	1140850688	56	5973
2026-01-21 01:18:09.72	326.09	21.01	-41.3	-42.3	22.9	0.00e+00	11	42	0	1142947840	56	5900
2026-01-21 01:18:10.72	326.20	20.88	-41.2	-42.2	22.9	0.00e+00	91	41	0	1143996416	56	5847
2026-01-21 01:18:11.73	326.31	20.76	-41.4	-42.3	22.9	0.00e+00	10	42	0	1146093568	56	5937
2026-01-21 01:18:12.74	326.42	20.64	-41.4	-42.4	22.8	0.00e+00	92	41	0	1148190720	56	5974
2026-01-21 01:18:13.75	326.53	20.52	-41.5	-42.5	22.8	0.00e+00	71	41	0	1150287872	56	6065
2026-01-21 01:18:14.76	326.64	20.40	-41.5	-42.5	22.7	0.00e+00	92	42	0	1152385024	56	6056
2026-01-21 01:18:15.77	326.75	20.28	-41.6	-42.6	22.7	0.00e+00	72	41	0	1153433600	56	6146
2026-01-21 01:18:16.78	326.86	20.16	-41.4	-42.4	22.7	0.00e+00	92	41	0	1155530752	56	5995
2026-01-21 01:18:17.79	326.96	20.04	-41.6	-42.6	22.5	0.00e+00	92	41	0	1157627904	56	6165
2026-01-21 01:18:18.80	327.07	19.92	-41.4	-42.3	22.8	0.00e+00	70	42	0	1159725056	56	5950
2026-01-21 01:18:19.80	327.17	19.80	-41.2	-42.1	23.0	0.00e+00	92	41	0	1161822208	56	5818
2026-01-21 01:18:20.81	327.28	19.68	-41.3	-42.2	22.9	0.00e+00	0	42	0	1162870784	56	5876
2026-01-21 01:18:21.82	327.38	19.57	-41.3	-42.3	22.8	0.00e+00	92	41	0	1164967936	56	5900
2026-01-21 01:18:22.83	327.49	19.45	-41.5	-42.5	22.7	0.00e+00	0	41	0	1167065088	56	6040
2026-01-21 01:18:23.84	327.59	19.33	-41.6	-42.6	22.5	0.00e+00	8	42	0	1169162240	56	6143
2026-01-21 01:18:24.85	327.69	19.22	-41.6	-42.6	22.6	0.00e+00	74	41	0	1171259392	56	6110
2026-01-21 01:18:25.86	327.79	19.10	-41.5	-42.5	22.6	0.00e+00	0	42	0	1172307968	56	6065
2026-01-21 01:18:26.87	327.89	18.98	-41.7	-42.7	22.5	0.00e+00	91	41	0	1174405120	56	6197
2026-01-21 01:18:27.88	327.99	18.87	-42.0	-43.1	22.1	0.00e+00	0	41	0	1176502272	56	6490
2026-01-21 01:18:28.89	328.09	18.75	-41.6	-42.6	22.4	0.00e+00	18	41	0	1178599424	56	6152
2026-01-21 01:18:29.90	328.19	18.64	-41.6	-42.7	22.4	0.00e+00	12	41	0	1180696576	56	6189
2026-01-21 01:18:30.91	328.29	18.53	-41.7	-42.7	22.3	0.00e+00	0	41	0	1181745152	56	6244
2026-01-21 01:18:31.92	328.38	18.41	-41.9	-42.9	22.2	0.00e+00	2	41	0	1183842304	56	6384
2026-01-21 01:18:32.93	328.48	18.30	-41.8	-42.8	22.3	0.00e+00	0	41	0	1185939456	56	6314
2026-01-21 01:18:33.94	328.58	18.19	-41.8	-42.8	22.3	0.00e+00	92	41	0	1188036608	56	6276
2026-01-21 01:18:34.95	328.67	18.08	-41.6	-42.6	22.6	0.00e+00	3	41	0	1190133760	56	6148
2026-01-21 01:18:35.96	328.76	17.97	-41.6	-42.6	22.4	0.00e+00	92	41	0	1191182336	56	6153
2026-01-21 01:18:36.97	328.86	17.86	-41.5	-42.6	22.6	0.00e+00	10	42	0	1193279488	56	6108
