passes_logs/2026/01/21/R4.6S_Anadyr/R4.6S_Anadyr__20260121_181244_NOAA_20_JPSS-1_rec.log

#Pass ID: 20260121_181244_NOAA 20 (JPSS-1)
#Satellite: NOAA 20 (JPSS-1)
#Configuration: NOAA 20
#almurnet v.1.7.20251203
#Start time: 2026-01-21 18:12:45

#Version: 2.2.20231116
#Station: R4.6S_Anadyr
#Location: 177.4865 lon 64.73178 lat
#TLE: 1 43013U 17073A   26020.82785136  .00000155  00000+0  94366-4 0  9991
#TLE: 2 43013  98.7643 321.7058 0001260  30.3785 329.7464 14.19537992423566

#Time	Az	El	Level	Level2	SNR	BER	BlckErr	Temp	State	Recorded	gain1	gain2
2026-01-21 18:12:45.38	38.38	0.04	-52.1	-69.8	3.5	3.02e+01	0	39	0	0	60	119132
2026-01-21 18:12:46.38	38.31	0.09	-52.4	-67.6	3.6	1.51e+00	0	40	104	0	60	87021
2026-01-21 18:12:47.39	38.24	0.14	-52.4	-67.7	3.6	1.51e+00	0	40	104	0	60	87664
2026-01-21 18:12:48.40	38.17	0.20	-52.2	-67.5	3.6	1.51e+00	0	40	104	0	60	85995
2026-01-21 18:12:49.41	38.10	0.25	-52.0	-67.4	3.6	1.51e+00	0	40	104	0	60	84590
2026-01-21 18:12:50.42	38.03	0.30	-52.1	-67.4	3.6	1.51e+00	0	40	104	0	60	84483
2026-01-21 18:12:51.43	37.96	0.35	-51.9	-67.1	3.6	1.51e+00	0	40	104	0	60	81721
2026-01-21 18:12:52.45	37.89	0.40	-52.0	-67.2	3.6	1.51e+00	0	40	104	0	60	83278
2026-01-21 18:12:53.46	37.82	0.45	-51.9	-67.1	3.6	1.51e+00	0	40	104	0	60	81908
2026-01-21 18:12:54.47	37.75	0.50	-51.7	-66.9	3.6	1.51e+00	0	40	104	0	60	79894
2026-01-21 18:12:55.47	37.68	0.55	-51.6	-66.8	3.6	1.51e+00	0	40	104	0	60	79191
2026-01-21 18:12:56.48	37.60	0.61	-51.6	-66.8	3.6	1.51e+00	0	40	104	0	60	78729
2026-01-21 18:12:57.49	37.53	0.66	-51.5	-66.7	3.6	1.51e+00	0	40	104	0	60	78149
2026-01-21 18:12:58.50	37.46	0.71	-51.4	-66.6	3.5	1.51e+00	0	40	104	0	60	77102
2026-01-21 18:12:59.51	37.39	0.76	-51.3	-66.6	3.6	1.51e+00	0	40	104	0	60	76956
2026-01-21 18:13:00.52	37.32	0.81	-51.3	-66.5	3.5	1.51e+00	0	40	104	0	60	76141
2026-01-21 18:13:01.53	37.24	0.86	-51.3	-66.4	3.6	1.51e+00	0	40	104	0	60	75774
2026-01-21 18:13:02.54	37.17	0.92	-51.1	-66.4	3.6	1.51e+00	0	40	104	0	60	75186
2026-01-21 18:13:03.55	37.10	0.97	-51.1	-66.3	3.6	1.51e+00	0	40	104	0	60	74465
2026-01-21 18:13:04.56	37.02	1.02	-51.0	-66.2	3.6	1.51e+00	0	40	104	0	60	74022
2026-01-21 18:13:05.57	36.95	1.07	-50.9	-66.2	3.6	1.51e+00	0	40	104	0	60	73422
2026-01-21 18:13:06.58	36.87	1.12	-50.9	-66.1	3.6	1.51e+00	0	40	104	0	60	73090
2026-01-21 18:13:07.59	36.80	1.17	-50.8	-66.0	3.6	1.51e+00	0	40	104	0	60	72355
2026-01-21 18:13:08.60	36.72	1.23	-50.5	-65.7	3.6	1.51e+00	0	40	104	0	60	69980
2026-01-21 18:13:09.61	36.65	1.28	-50.2	-65.4	3.6	1.51e+00	0	40	104	0	60	67002
2026-01-21 18:13:10.62	36.57	1.33	-49.7	-64.9	3.6	1.51e+00	0	40	104	0	60	63356
2026-01-21 18:13:11.63	36.50	1.38	-49.7	-64.9	3.6	1.51e+00	0	40	104	0	60	63371
2026-01-21 18:13:12.64	36.42	1.44	-49.7	-64.9	3.6	1.51e+00	0	40	104	0	60	63290
2026-01-21 18:13:13.65	36.34	1.49	-49.6	-64.8	3.6	1.51e+00	0	40	104	0	60	63121
2026-01-21 18:13:14.66	36.27	1.54	-49.7	-64.8	3.6	1.51e+00	0	40	104	0	60	63071
2026-01-21 18:13:15.67	36.19	1.59	-49.6	-64.9	3.6	1.51e+00	0	40	104	0	60	63300
2026-01-21 18:13:16.68	36.11	1.64	-49.6	-64.8	3.6	1.51e+00	0	40	104	0	60	62542
2026-01-21 18:13:17.69	36.04	1.70	-49.6	-64.8	3.6	1.51e+00	0	40	104	0	60	62553
2026-01-21 18:13:18.70	35.96	1.75	-49.6	-64.8	3.6	1.51e+00	0	40	104	0	60	62642
2026-01-21 18:13:19.71	35.88	1.80	-49.6	-64.8	3.6	1.51e+00	0	40	104	0	60	62769
2026-01-21 18:13:20.73	35.80	1.85	-49.6	-64.8	3.6	1.51e+00	0	40	104	0	60	62945
2026-01-21 18:13:21.73	35.72	1.91	-49.6	-64.8	3.6	1.51e+00	0	40	104	0	60	62804
2026-01-21 18:13:22.74	35.64	1.96	-49.6	-64.8	3.6	1.51e+00	0	40	104	0	60	62663
2026-01-21 18:13:23.75	35.56	2.01	-49.5	-64.7	3.6	1.51e+00	0	40	104	0	60	61858
2026-01-21 18:13:24.77	35.48	2.07	-49.6	-64.7	3.6	1.51e+00	0	40	104	0	60	62012
2026-01-21 18:13:25.78	35.40	2.12	-49.6	-64.6	3.6	1.51e+00	0	40	104	0	60	61573
2026-01-21 18:13:26.79	35.32	2.17	-49.6	-64.5	3.6	1.51e+00	0	40	104	0	60	60626
2026-01-21 18:13:27.79	35.24	2.22	-49.6	-64.5	3.6	1.51e+00	0	40	104	0	60	60863
2026-01-21 18:13:28.81	35.16	2.28	-49.6	-64.7	3.6	1.51e+00	0	40	104	0	60	61747
2026-01-21 18:13:29.82	35.08	2.33	-49.6	-64.8	3.6	1.51e+00	0	40	104	0	60	62804
2026-01-21 18:13:30.83	35.00	2.38	-49.6	-64.8	3.6	1.51e+00	0	40	104	0	60	62721
2026-01-21 18:13:31.84	34.92	2.44	-49.6	-64.7	3.6	1.51e+00	0	40	104	0	60	62449
2026-01-21 18:13:32.85	34.84	2.49	-49.6	-64.7	3.6	1.51e+00	0	41	104	0	60	62037
2026-01-21 18:13:33.86	34.75	2.54	-49.6	-64.7	3.6	1.51e+00	0	40	104	0	60	62301
2026-01-21 18:13:34.87	34.67	2.60	-49.6	-64.8	3.6	1.51e+00	0	41	104	0	60	62692
2026-01-21 18:13:35.88	34.59	2.65	-49.6	-64.8	3.6	1.51e+00	0	41	104	0	60	62619
2026-01-21 18:13:36.89	34.51	2.70	-49.6	-64.2	3.6	1.51e+00	0	41	104	0	60	58767
2026-01-21 18:13:37.90	34.42	2.76	-49.6	-64.1	3.6	1.51e+00	0	40	104	0	60	57790
2026-01-21 18:13:38.90	34.34	2.81	-49.6	-64.2	3.6	1.51e+00	0	40	104	0	60	58413
2026-01-21 18:13:39.91	34.25	2.86	-49.6	-64.4	3.6	1.51e+00	0	40	104	0	60	59892
2026-01-21 18:13:40.92	34.17	2.92	-49.6	-64.4	3.6	1.51e+00	0	40	104	0	60	59819
2026-01-21 18:13:41.93	34.09	2.97	-49.5	-63.7	3.6	1.51e+00	0	41	104	0	60	55461
2026-01-21 18:13:42.95	34.00	3.02	-49.4	-59.9	4.3	1.23e+00	75	40	0	0	60	35714
2026-01-21 18:13:43.95	33.91	3.08	-49.8	-64.5	3.6	1.51e+00	0	40	104	0	60	60428
2026-01-21 18:13:44.96	33.83	3.13	-48.8	-55.9	5.1	1.50e+00	0	41	104	0	60	22422
2026-01-21 18:13:45.97	33.74	3.18	-49.4	-64.3	3.6	1.10e+00	0	40	104	0	60	59179
2026-01-21 18:13:46.99	33.66	3.24	-49.7	-64.5	3.6	1.51e+00	0	41	104	0	60	60916
2026-01-21 18:13:48.00	33.57	3.29	-45.9	-48.7	15.0	1.26e+00	2	41	104	0	60	9818
2026-01-21 18:13:49.00	33.48	3.34	-46.0	-48.7	15.4	7.00e-07	2	40	0	0	60	9896
2026-01-21 18:13:50.02	33.39	3.40	-46.6	-49.8	14.2	0.00e+00	9	41	0	2097152	60	11219
2026-01-21 18:13:51.02	33.31	3.45	-45.1	-47.3	16.4	7.00e-07	79	40	0	4194304	60	8350
2026-01-21 18:13:52.04	33.22	3.51	-45.9	-48.5	15.8	0.00e+00	0	40	0	6291456	60	9586
2026-01-21 18:13:53.05	33.13	3.56	-45.2	-47.5	16.7	0.00e+00	92	40	0	7340032	60	8543
2026-01-21 18:13:54.06	33.04	3.61	-45.1	-47.3	16.7	0.00e+00	0	40	0	9437184	60	8388
2026-01-21 18:13:55.07	32.95	3.67	-45.0	-47.2	16.9	0.00e+00	0	41	0	11534336	60	8251
2026-01-21 18:13:56.08	32.86	3.72	-44.9	-47.0	17.0	0.00e+00	0	40	0	13631488	60	8101
2026-01-21 18:13:57.09	32.77	3.78	-44.7	-46.7	17.2	0.00e+00	75	40	0	15728640	60	7814
2026-01-21 18:13:58.10	32.68	3.83	-44.8	-46.9	17.4	0.00e+00	0	40	0	16777216	60	7978
2026-01-21 18:13:59.11	32.59	3.89	-44.4	-46.3	17.8	0.00e+00	69	41	0	18874368	60	7487
2026-01-21 18:14:00.12	32.50	3.94	-44.3	-46.1	18.0	0.00e+00	91	41	0	20971520	60	7291
2026-01-21 18:14:01.13	32.41	3.99	-43.8	-45.4	18.5	0.00e+00	74	41	0	23068672	60	6767
2026-01-21 18:14:02.14	32.32	4.05	-45.7	-48.1	16.1	0.00e+00	90	40	0	25165824	60	9197
2026-01-21 18:14:03.15	32.23	4.10	-44.8	-46.8	17.3	0.00e+00	0	41	0	26214400	60	7900
2026-01-21 18:14:04.16	32.13	4.16	-44.3	-46.1	18.0	0.00e+00	5	41	0	28311552	60	7307
2026-01-21 18:14:05.17	32.04	4.21	-44.7	-46.6	17.7	0.00e+00	75	41	0	30408704	60	7771
2026-01-21 18:14:06.18	31.95	4.27	-44.5	-46.5	17.7	0.00e+00	6	41	0	32505856	60	7609
2026-01-21 18:14:07.19	31.86	4.32	-44.6	-46.6	17.4	0.00e+00	75	41	0	34603008	60	7710
2026-01-21 18:14:08.20	31.76	4.37	-44.4	-46.3	17.8	0.00e+00	2	41	0	36700160	60	7485
2026-01-21 18:14:09.21	31.67	4.43	-44.9	-46.9	17.2	0.00e+00	92	41	0	37748736	60	8017
2026-01-21 18:14:10.21	31.57	4.48	-44.5	-46.4	17.7	0.00e+00	0	41	0	39845888	60	7589
2026-01-21 18:14:11.23	31.48	4.54	-44.8	-46.8	17.4	0.00e+00	2	40	0	41943040	60	7891
2026-01-21 18:14:12.24	31.38	4.59	-44.9	-46.9	17.4	0.00e+00	0	40	0	44040192	60	8025
2026-01-21 18:14:13.25	31.29	4.65	-44.8	-46.8	17.4	0.00e+00	2	41	0	46137344	60	7872
2026-01-21 18:14:14.26	31.19	4.70	-44.9	-46.9	17.4	0.00e+00	0	40	0	47185920	60	7961
2026-01-21 18:14:15.27	31.10	4.76	-44.8	-46.8	17.4	0.00e+00	2	41	0	49283072	60	7945
2026-01-21 18:14:16.28	31.00	4.81	-44.8	-46.8	17.4	0.00e+00	92	41	0	51380224	60	7875
2026-01-21 18:14:17.29	30.90	4.87	-44.1	-45.8	18.5	0.00e+00	74	41	0	53477376	60	7039
2026-01-21 18:14:18.29	30.81	4.92	-44.9	-47.0	17.2	0.00e+00	2	40	0	55574528	60	8071
2026-01-21 18:14:19.30	30.71	4.98	-44.3	-46.2	18.0	0.00e+00	0	40	0	56623104	60	7352
2026-01-21 18:14:20.31	30.61	5.03	-45.0	-47.1	17.4	0.00e+00	0	40	0	58720256	60	8144
2026-01-21 18:14:21.32	30.51	5.09	-44.9	-46.9	17.4	0.00e+00	0	40	0	60817408	60	7974
2026-01-21 18:14:22.33	30.41	5.14	-44.3	-46.1	18.2	0.00e+00	73	40	0	62914560	60	7319
2026-01-21 18:14:23.34	30.31	5.20	-44.5	-46.4	18.0	0.00e+00	90	41	0	65011712	60	7545
2026-01-21 18:14:24.35	30.21	5.25	-44.9	-46.8	17.5	0.00e+00	76	41	0	66060288	60	7936
2026-01-21 18:14:25.36	30.11	5.31	-44.8	-46.8	17.6	0.00e+00	90	40	0	68157440	60	7866
2026-01-21 18:14:26.37	30.01	5.36	-45.0	-47.0	17.4	0.00e+00	0	40	0	70254592	60	8119
2026-01-21 18:14:27.38	29.91	5.42	-44.7	-46.6	17.8	0.00e+00	0	40	0	72351744	60	7763
2026-01-21 18:14:28.39	29.81	5.47	-44.5	-46.3	18.1	0.00e+00	7	40	0	74448896	60	7502
2026-01-21 18:14:29.40	29.71	5.53	-44.9	-46.9	17.5	0.00e+00	6	41	0	75497472	60	7982
2026-01-21 18:14:30.41	29.61	5.58	-44.5	-46.3	18.1	0.00e+00	92	41	0	77594624	60	7457
2026-01-21 18:14:31.42	29.50	5.64	-45.2	-47.2	17.1	0.00e+00	8	40	0	79691776	60	8323
2026-01-21 18:14:32.43	29.40	5.69	-44.8	-46.7	17.7	0.00e+00	90	40	0	81788928	60	7844
2026-01-21 18:14:33.44	29.30	5.75	-44.6	-46.4	18.0	0.00e+00	8	41	0	83886080	60	7542
2026-01-21 18:14:34.45	29.19	5.81	-45.2	-47.3	17.3	0.00e+00	0	41	0	84934656	60	8337
2026-01-21 18:14:35.46	29.09	5.86	-44.9	-46.8	17.7	0.00e+00	0	40	0	87031808	60	7884
2026-01-21 18:14:36.47	28.99	5.92	-44.3	-46.0	18.6	0.00e+00	0	40	0	89128960	60	7173
2026-01-21 18:14:37.48	28.88	5.97	-44.8	-46.7	17.8	0.00e+00	18	40	0	91226112	60	7802
2026-01-21 18:14:38.49	28.78	6.03	-44.7	-46.5	18.0	0.00e+00	0	40	0	93323264	60	7668
2026-01-21 18:14:39.50	28.67	6.08	-44.5	-46.3	18.3	0.00e+00	91	41	0	94371840	60	7429
2026-01-21 18:14:40.51	28.56	6.14	-44.8	-46.7	17.9	0.00e+00	74	40	0	96468992	60	7824
2026-01-21 18:14:41.52	28.46	6.19	-44.6	-46.4	18.2	0.00e+00	46	41	0	98566144	60	7545
2026-01-21 18:14:42.53	28.35	6.25	-44.9	-46.8	17.7	0.00e+00	76	41	0	100663296	60	7905
2026-01-21 18:14:43.54	28.24	6.31	-44.4	-46.1	18.5	0.00e+00	0	41	0	102760448	60	7302
2026-01-21 18:14:44.55	28.13	6.36	-44.2	-45.8	18.7	0.00e+00	66	40	0	104857600	60	7085
2026-01-21 18:14:45.56	28.03	6.42	-44.4	-46.1	18.4	0.00e+00	12	41	0	105906176	60	7301
2026-01-21 18:14:46.57	27.92	6.47	-44.2	-45.9	18.7	0.00e+00	92	41	0	108003328	60	7139
2026-01-21 18:14:47.58	27.81	6.53	-44.5	-46.2	18.4	0.00e+00	12	41	0	110100480	60	7392
2026-01-21 18:14:48.58	27.70	6.58	-44.3	-46.0	18.6	0.00e+00	90	40	0	112197632	60	7249
2026-01-21 18:14:49.59	27.59	6.64	-44.6	-46.3	18.4	0.00e+00	0	40	0	114294784	60	7478
2026-01-21 18:14:50.60	27.48	6.69	-44.4	-46.1	18.5	0.00e+00	6	41	0	115343360	60	7300
2026-01-21 18:14:51.62	27.37	6.75	-44.5	-46.2	18.4	0.00e+00	6	41	0	117440512	60	7398
2026-01-21 18:14:52.62	27.26	6.81	-44.2	-45.9	18.8	0.00e+00	6	41	0	119537664	60	7118
2026-01-21 18:14:53.63	27.15	6.86	-44.2	-45.8	18.9	0.00e+00	92	40	0	121634816	60	7064
2026-01-21 18:14:54.64	27.03	6.92	-44.2	-45.9	18.8	0.00e+00	7	40	0	123731968	60	7111
2026-01-21 18:14:55.66	26.92	6.97	-44.1	-45.8	18.9	0.00e+00	92	40	0	124780544	60	7019
2026-01-21 18:14:56.67	26.81	7.03	-43.9	-45.4	19.3	0.00e+00	6	41	0	126877696	60	6757
2026-01-21 18:14:57.67	26.69	7.09	-44.0	-45.6	18.9	0.00e+00	0	41	0	128974848	60	6915
2026-01-21 18:14:58.68	26.58	7.14	-44.3	-45.9	18.8	0.00e+00	6	41	0	131072000	60	7143
2026-01-21 18:14:59.69	26.47	7.20	-43.6	-45.0	19.4	0.00e+00	0	40	0	133169152	60	6443
2026-01-21 18:15:00.70	26.35	7.25	-43.8	-45.3	19.3	0.00e+00	75	40	0	134217728	60	6651
2026-01-21 18:15:01.71	26.24	7.31	-43.6	-45.1	19.4	0.00e+00	77	41	0	136314880	60	6516
2026-01-21 18:15:02.72	26.12	7.37	-43.5	-45.0	19.7	0.00e+00	90	41	0	138412032	60	6428
2026-01-21 18:15:03.73	26.00	7.42	-43.6	-45.1	19.5	0.00e+00	0	41	0	140509184	60	6510
2026-01-21 18:15:04.74	25.89	7.48	-43.5	-45.0	19.7	0.00e+00	74	41	0	142606336	60	6396
2026-01-21 18:15:05.75	25.77	7.53	-43.6	-45.1	19.7	0.00e+00	5	41	0	143654912	60	6476
2026-01-21 18:15:06.77	25.65	7.59	-43.3	-44.7	19.9	0.00e+00	4	41	0	145752064	60	6237
2026-01-21 18:15:07.78	25.53	7.65	-43.3	-44.7	20.0	0.00e+00	19	40	0	147849216	60	6214
2026-01-21 18:15:08.79	25.41	7.70	-43.6	-45.0	19.7	0.00e+00	76	41	0	149946368	60	6438
2026-01-21 18:15:09.80	25.29	7.76	-43.6	-45.0	19.6	0.00e+00	92	41	0	152043520	60	6448
2026-01-21 18:15:10.80	25.18	7.81	-43.4	-44.8	19.8	0.00e+00	6	41	0	153092096	60	6286
2026-01-21 18:15:11.81	25.06	7.87	-43.4	-44.8	19.9	0.00e+00	90	40	0	155189248	60	6302
2026-01-21 18:15:12.82	24.94	7.93	-43.3	-44.7	20.0	0.00e+00	0	41	0	157286400	60	6215
2026-01-21 18:15:13.83	24.82	7.98	-43.5	-44.9	19.8	0.00e+00	5	41	0	159383552	60	6357
2026-01-21 18:15:14.84	24.69	8.04	-43.4	-44.9	19.9	0.00e+00	0	41	0	161480704	60	6322
2026-01-21 18:15:15.85	24.57	8.09	-43.7	-45.1	19.6	0.00e+00	0	41	0	162529280	60	6523
2026-01-21 18:15:16.86	24.45	8.15	-43.5	-44.9	19.9	0.00e+00	91	41	0	164626432	60	6352
2026-01-21 18:15:17.88	24.33	8.21	-43.4	-44.9	19.9	0.00e+00	0	41	0	166723584	60	6327
2026-01-21 18:15:18.88	24.20	8.26	-43.5	-44.9	19.9	0.00e+00	92	41	0	168820736	60	6356
2026-01-21 18:15:19.89	24.08	8.32	-43.3	-44.7	20.0	0.00e+00	0	41	0	170917888	60	6225
2026-01-21 18:15:20.90	23.96	8.37	-43.1	-44.4	20.3	0.00e+00	76	41	0	173015040	60	5992
2026-01-21 18:15:21.91	23.83	8.43	-43.7	-45.2	19.5	0.00e+00	75	41	0	174063616	60	6555
2026-01-21 18:15:22.92	23.70	8.49	-43.5	-44.9	19.8	0.00e+00	0	41	0	176160768	60	6381
2026-01-21 18:15:23.93	23.58	8.54	-43.2	-44.6	20.1	0.00e+00	76	41	0	178257920	60	6135
2026-01-21 18:15:24.94	23.45	8.60	-43.0	-44.3	20.3	0.00e+00	69	41	0	180355072	60	5954
2026-01-21 18:15:25.95	23.33	8.65	-43.3	-44.6	20.0	0.00e+00	92	41	0	182452224	60	6163
2026-01-21 18:15:26.96	23.20	8.71	-43.4	-44.8	19.9	0.00e+00	77	41	0	183500800	60	6288
2026-01-21 18:15:27.96	23.07	8.77	-43.5	-45.0	19.8	0.00e+00	84	41	0	185597952	60	6393
2026-01-21 18:15:28.98	22.94	8.82	-43.4	-44.8	20.0	0.00e+00	5	41	0	187695104	60	6262
2026-01-21 18:15:29.99	22.81	8.88	-43.5	-44.9	19.8	0.00e+00	5	41	0	189792256	60	6380
2026-01-21 18:15:30.99	22.69	8.93	-43.6	-45.0	19.7	0.00e+00	0	41	0	191889408	60	6440
2026-01-21 18:15:32.01	22.55	8.99	-43.2	-44.5	20.3	0.00e+00	0	41	0	192937984	60	6088
2026-01-21 18:15:33.01	22.43	9.05	-43.7	-45.2	19.7	0.00e+00	91	41	0	195035136	60	6551
2026-01-21 18:15:34.02	22.29	9.10	-43.3	-44.7	20.1	0.00e+00	2	41	0	197132288	60	6218
2026-01-21 18:15:35.03	22.16	9.16	-43.6	-45.0	19.9	0.00e+00	92	41	0	199229440	60	6417
2026-01-21 18:15:36.04	22.03	9.21	-43.4	-44.8	20.1	0.00e+00	0	41	0	201326592	60	6285
2026-01-21 18:15:37.05	21.90	9.27	-43.3	-44.7	20.1	0.00e+00	0	41	0	202375168	60	6191
2026-01-21 18:15:38.06	21.77	9.32	-43.3	-44.6	20.3	0.00e+00	0	41	0	204472320	60	6152
2026-01-21 18:15:39.07	21.63	9.38	-43.2	-44.6	20.2	0.00e+00	0	40	0	206569472	60	6121
2026-01-21 18:15:40.08	21.50	9.44	-43.1	-44.5	20.4	0.00e+00	83	41	0	208666624	60	6049
2026-01-21 18:15:41.09	21.36	9.49	-43.4	-44.8	20.2	0.00e+00	0	41	0	210763776	60	6251
2026-01-21 18:15:42.10	21.23	9.55	-43.6	-45.0	20.2	0.00e+00	90	41	0	211812352	60	6391
2026-01-21 18:15:43.11	21.09	9.60	-43.6	-45.0	19.8	0.00e+00	72	41	0	213909504	60	6452
2026-01-21 18:15:44.12	20.96	9.66	-43.7	-45.1	19.9	0.00e+00	72	41	0	216006656	60	6503
2026-01-21 18:15:45.13	20.82	9.71	-43.5	-44.9	20.1	0.00e+00	71	41	0	218103808	60	6349
2026-01-21 18:15:46.13	20.69	9.77	-43.3	-44.7	20.0	0.00e+00	0	41	0	220200960	60	6206
2026-01-21 18:15:47.14	20.55	9.82	-43.4	-44.8	20.1	0.00e+00	65	41	0	221249536	60	6296
2026-01-21 18:15:48.15	20.41	9.88	-43.4	-44.8	20.0	0.00e+00	8	41	0	223346688	60	6281
2026-01-21 18:15:49.16	20.27	9.94	-43.4	-44.8	20.3	0.00e+00	92	41	0	225443840	60	6302
2026-01-21 18:15:50.17	20.13	9.99	-43.2	-44.5	20.4	0.00e+00	79	41	0	227540992	60	6057
2026-01-21 18:15:51.18	19.99	10.05	-42.9	-44.1	20.7	0.00e+00	71	40	0	229638144	60	5811
2026-01-21 18:15:52.19	19.85	10.10	-42.9	-44.2	20.7	0.00e+00	0	41	0	230686720	60	5832
2026-01-21 18:15:53.20	19.71	10.16	-43.0	-44.4	20.5	0.00e+00	5	41	0	232783872	60	5967
2026-01-21 18:15:54.21	19.57	10.21	-43.0	-44.3	20.6	0.00e+00	0	41	0	234881024	60	5941
2026-01-21 18:15:55.22	19.43	10.27	-43.3	-44.6	20.3	0.00e+00	0	40	0	236978176	60	6145
2026-01-21 18:15:56.23	19.28	10.32	-43.0	-44.3	20.6	0.00e+00	91	41	0	239075328	60	5913
2026-01-21 18:15:57.24	19.14	10.38	-43.1	-44.5	20.3	0.00e+00	0	41	0	241172480	60	6054
2026-01-21 18:15:58.25	19.00	10.43	-42.9	-44.2	20.6	0.00e+00	90	40	0	242221056	60	5884
2026-01-21 18:15:59.26	18.85	10.49	-43.0	-44.3	20.5	0.00e+00	0	40	0	244318208	60	5936
2026-01-21 18:16:00.27	18.71	10.54	-43.3	-44.6	20.3	0.00e+00	0	41	0	246415360	60	6147
2026-01-21 18:16:01.28	18.56	10.60	-43.2	-44.6	20.3	0.00e+00	2	41	0	248512512	60	6113
2026-01-21 18:16:02.29	18.42	10.65	-43.2	-44.5	20.3	0.00e+00	0	41	0	250609664	60	6100
2026-01-21 18:16:03.29	18.27	10.71	-43.0	-44.3	20.6	0.00e+00	91	41	0	251658240	60	5953
2026-01-21 18:16:04.31	18.12	10.76	-43.0	-44.3	20.6	0.00e+00	0	41	0	253755392	60	5943
2026-01-21 18:16:05.31	17.98	10.82	-43.1	-44.5	20.3	0.00e+00	91	40	0	255852544	60	6052
2026-01-21 18:16:06.32	17.83	10.87	-43.1	-44.4	20.4	0.00e+00	76	41	0	257949696	60	5992
2026-01-21 18:16:07.33	17.68	10.92	-43.0	-44.4	20.5	0.00e+00	78	40	0	258998272	60	5965
2026-01-21 18:16:08.34	17.53	10.98	-43.0	-44.3	20.6	0.00e+00	78	41	0	261095424	60	5924
2026-01-21 18:16:09.35	17.38	11.03	-43.2	-44.5	20.4	0.00e+00	76	40	0	263192576	60	6048
2026-01-21 18:16:10.36	17.23	11.09	-43.1	-44.3	20.4	0.00e+00	2	41	0	265289728	60	5960
2026-01-21 18:16:11.37	17.08	11.14	-42.9	-44.1	20.6	0.00e+00	0	41	0	267386880	60	5823
2026-01-21 18:16:12.38	16.93	11.20	-42.9	-44.2	20.7	0.00e+00	92	41	0	269484032	60	5844
2026-01-21 18:16:13.39	16.78	11.25	-42.9	-44.2	20.7	0.00e+00	6	40	0	270532608	60	5862
2026-01-21 18:16:14.40	16.62	11.30	-43.0	-44.3	20.6	0.00e+00	92	41	0	272629760	60	5942
2026-01-21 18:16:15.41	16.47	11.36	-43.0	-44.3	20.6	0.00e+00	6	41	0	274726912	60	5935
2026-01-21 18:16:16.42	16.32	11.41	-43.1	-44.4	20.4	0.00e+00	9	40	0	276824064	60	6019
2026-01-21 18:16:17.43	16.16	11.47	-43.1	-44.4	20.5	0.00e+00	0	40	0	278921216	60	5981
2026-01-21 18:16:18.44	16.01	11.52	-43.1	-44.4	20.5	0.00e+00	0	41	0	279969792	60	6033
2026-01-21 18:16:19.45	15.85	11.57	-43.2	-44.6	20.4	0.00e+00	90	40	0	282066944	60	6130
2026-01-21 18:16:20.46	15.70	11.63	-43.1	-44.4	20.5	0.00e+00	0	40	0	284164096	60	6017
2026-01-21 18:16:21.47	15.54	11.68	-43.1	-44.4	20.6	0.00e+00	92	41	0	286261248	60	6011
2026-01-21 18:16:22.48	15.38	11.73	-43.0	-44.2	20.8	0.00e+00	6	41	0	288358400	60	5892
2026-01-21 18:16:23.49	15.22	11.79	-42.9	-44.2	20.7	0.00e+00	0	41	0	289406976	60	5859
2026-01-21 18:16:24.50	15.07	11.84	-42.8	-44.1	20.8	0.00e+00	0	41	0	291504128	60	5767
2026-01-21 18:16:25.51	14.91	11.89	-42.9	-44.1	20.8	0.00e+00	5	41	0	293601280	60	5807
2026-01-21 18:16:26.53	14.75	11.95	-42.8	-44.0	20.9	0.00e+00	37	41	0	295698432	60	5741
2026-01-21 18:16:27.53	14.59	12.00	-42.5	-43.7	21.1	0.00e+00	0	41	0	297795584	58	6236
2026-01-21 18:16:28.55	14.43	12.05	-42.6	-43.8	21.0	0.00e+00	90	41	0	298844160	58	6259
2026-01-21 18:16:29.56	14.26	12.10	-42.7	-43.9	20.9	0.00e+00	75	41	0	300941312	58	6387
2026-01-21 18:16:30.56	14.10	12.16	-42.2	-43.4	21.3	0.00e+00	8	41	0	303038464	58	6003
2026-01-21 18:16:31.57	13.94	12.21	-42.3	-43.5	21.4	0.00e+00	10	41	0	305135616	58	6045
2026-01-21 18:16:32.58	13.78	12.26	-42.4	-43.6	21.2	0.00e+00	6	41	0	307232768	58	6159
2026-01-21 18:16:33.59	13.61	12.31	-42.4	-43.6	21.3	0.00e+00	66	41	0	309329920	58	6110
2026-01-21 18:16:34.60	13.45	12.36	-42.2	-43.4	21.3	0.00e+00	8	41	0	310378496	58	5990
2026-01-21 18:16:35.61	13.28	12.42	-42.2	-43.3	21.5	0.00e+00	92	41	0	312475648	58	5939
2026-01-21 18:16:36.62	13.12	12.47	-42.1	-43.3	21.5	0.00e+00	8	41	0	314572800	58	5905
2026-01-21 18:16:37.63	12.95	12.52	-41.9	-43.0	21.8	0.00e+00	92	41	0	316669952	58	5740
2026-01-21 18:16:38.64	12.79	12.57	-41.7	-42.8	21.9	0.00e+00	0	41	0	318767104	56	6275
2026-01-21 18:16:39.65	12.62	12.62	-41.8	-42.9	22.0	0.00e+00	0	41	0	319815680	56	6320
2026-01-21 18:16:40.66	12.45	12.67	-41.6	-42.6	22.2	0.00e+00	5	41	0	321912832	56	6164
2026-01-21 18:16:41.67	12.28	12.72	-41.5	-42.5	22.2	0.00e+00	6	41	0	324009984	56	6088
2026-01-21 18:16:42.68	12.11	12.77	-41.5	-42.6	22.2	0.00e+00	90	41	0	326107136	56	6133
2026-01-21 18:16:43.69	11.94	12.83	-41.6	-42.6	22.2	0.00e+00	73	41	0	328204288	56	6156
2026-01-21 18:16:44.70	11.77	12.88	-41.4	-42.4	22.3	0.00e+00	90	41	0	329252864	56	6028
2026-01-21 18:16:45.71	11.60	12.93	-41.4	-42.4	22.3	0.00e+00	74	41	0	331350016	56	5991
2026-01-21 18:16:46.72	11.43	12.98	-41.4	-42.5	22.3	0.00e+00	74	41	0	333447168	56	6050
2026-01-21 18:16:47.73	11.26	13.03	-41.4	-42.5	22.3	0.00e+00	0	41	0	335544320	56	6038
2026-01-21 18:16:48.74	11.09	13.08	-41.3	-42.4	22.4	0.00e+00	72	41	0	337641472	56	5968
2026-01-21 18:16:49.75	10.91	13.13	-41.3	-42.3	22.3	0.00e+00	77	41	0	338690048	56	5964
2026-01-21 18:16:50.76	10.74	13.18	-41.4	-42.5	22.3	0.00e+00	10	41	0	340787200	56	6039
2026-01-21 18:16:51.77	10.57	13.23	-41.5	-42.5	22.3	0.00e+00	91	41	0	342884352	56	6087
2026-01-21 18:16:52.78	10.39	13.28	-41.3	-42.4	22.4	0.00e+00	78	41	0	344981504	56	5972
2026-01-21 18:16:53.79	10.22	13.32	-41.3	-42.4	22.4	0.00e+00	0	41	0	347078656	56	5972
2026-01-21 18:16:54.80	10.04	13.37	-41.3	-42.3	22.4	0.00e+00	3	41	0	348127232	56	5955
2026-01-21 18:16:55.81	9.86	13.42	-41.3	-42.3	22.5	0.00e+00	2	41	0	350224384	56	5936
2026-01-21 18:16:56.82	9.69	13.47	-41.1	-42.1	22.6	0.00e+00	75	41	0	352321536	56	5820
2026-01-21 18:16:57.83	9.51	13.52	-41.0	-42.0	22.8	0.00e+00	2	41	0	354418688	56	5725
2026-01-21 18:16:58.84	9.33	13.57	-41.1	-42.1	22.8	0.00e+00	91	41	0	356515840	56	5767
2026-01-21 18:16:59.85	9.15	13.62	-41.0	-42.0	22.8	0.00e+00	0	41	0	357564416	56	5702
2026-01-21 18:17:00.86	8.97	13.66	-40.8	-41.8	22.9	0.00e+00	92	41	0	359661568	56	5576
2026-01-21 18:17:01.87	8.79	13.71	-40.7	-41.7	22.6	0.00e+00	0	41	0	361758720	54	6178
2026-01-21 18:17:02.88	8.61	13.76	-40.7	-41.6	22.8	0.00e+00	0	41	0	363855872	54	6164
2026-01-21 18:17:03.89	8.43	13.81	-40.6	-41.6	23.0	0.00e+00	0	41	0	365953024	54	6107
2026-01-21 18:17:04.90	8.25	13.85	-40.6	-41.5	23.1	0.00e+00	0	41	0	367001600	54	6095
2026-01-21 18:17:05.91	8.06	13.90	-40.7	-41.6	23.0	0.00e+00	91	41	0	369098752	54	6152
2026-01-21 18:17:06.92	7.88	13.95	-40.6	-41.5	23.2	0.00e+00	2	41	0	371195904	54	6080
2026-01-21 18:17:07.93	7.70	13.99	-40.5	-41.5	23.2	0.00e+00	90	41	0	373293056	54	6056
2026-01-21 18:17:08.94	7.51	14.04	-40.4	-41.3	23.3	0.00e+00	4	41	0	375390208	54	5964
2026-01-21 18:17:09.95	7.33	14.09	-40.4	-41.4	23.2	0.00e+00	7	41	0	377487360	54	5976
2026-01-21 18:17:10.96	7.14	14.13	-40.5	-41.4	23.2	0.00e+00	10	41	0	378535936	54	6009
2026-01-21 18:17:11.96	6.96	14.18	-40.4	-41.3	23.3	0.00e+00	9	41	0	380633088	54	5936
2026-01-21 18:17:12.97	6.77	14.22	-40.4	-41.3	23.3	0.00e+00	92	41	0	382730240	54	5940
2026-01-21 18:17:13.98	6.58	14.27	-40.4	-41.4	23.3	0.00e+00	7	41	0	384827392	54	5983
2026-01-21 18:17:14.99	6.39	14.31	-40.4	-41.3	23.2	0.00e+00	92	41	0	385875968	54	5936
2026-01-21 18:17:16.00	6.21	14.36	-40.4	-41.3	23.2	0.00e+00	0	41	0	387973120	54	5960
2026-01-21 18:17:17.01	6.02	14.40	-40.6	-41.5	22.8	0.00e+00	0	41	0	390070272	54	6079
2026-01-21 18:17:18.02	5.83	14.45	-40.7	-41.6	23.0	0.00e+00	7	41	0	392167424	54	6152
2026-01-21 18:17:19.03	5.64	14.49	-40.9	-41.8	22.8	0.00e+00	2	41	0	394264576	54	6311
2026-01-21 18:17:20.04	5.45	14.54	-40.9	-41.9	22.8	0.00e+00	47	41	0	396361728	54	6370
2026-01-21 18:17:21.05	5.25	14.58	-40.9	-41.9	22.8	0.00e+00	0	41	0	397410304	54	6364
2026-01-21 18:17:22.06	5.06	14.62	-40.7	-41.7	23.0	0.00e+00	92	41	0	399507456	54	6226
2026-01-21 18:17:23.07	4.87	14.67	-40.9	-41.9	22.8	0.00e+00	0	41	0	401604608	54	6342
2026-01-21 18:17:24.08	4.68	14.71	-41.0	-42.0	22.6	0.00e+00	0	41	0	403701760	54	6435
2026-01-21 18:17:25.09	4.48	14.75	-41.2	-42.2	22.6	0.00e+00	79	41	0	405798912	54	6592
2026-01-21 18:17:26.10	4.29	14.79	-41.2	-42.2	22.6	0.00e+00	0	41	0	406847488	54	6591
2026-01-21 18:17:27.11	4.09	14.84	-41.0	-42.0	22.5	0.00e+00	0	41	0	408944640	54	6407
2026-01-21 18:17:28.12	3.90	14.88	-41.4	-42.5	22.4	0.00e+00	81	41	0	411041792	54	6811
2026-01-21 18:17:29.13	3.70	14.92	-41.2	-42.2	22.4	0.00e+00	90	41	0	413138944	54	6575
2026-01-21 18:17:30.14	3.51	14.96	-41.0	-42.0	22.7	0.00e+00	0	41	0	415236096	54	6399
2026-01-21 18:17:31.16	3.31	15.00	-40.9	-41.8	22.6	0.00e+00	90	41	0	416284672	54	6310
2026-01-21 18:17:32.17	3.11	15.04	-40.9	-41.9	22.8	0.00e+00	80	41	0	418381824	54	6367
2026-01-21 18:17:33.17	2.91	15.08	-41.2	-42.2	22.6	0.00e+00	80	41	0	420478976	54	6571
2026-01-21 18:17:34.18	2.72	15.12	-41.1	-42.1	22.7	0.00e+00	4	41	0	422576128	54	6531
2026-01-21 18:17:35.19	2.52	15.16	-40.9	-41.9	22.9	0.00e+00	2	41	0	424673280	54	6332
2026-01-21 18:17:36.20	2.32	15.20	-40.8	-41.8	22.9	0.00e+00	70	41	0	425721856	54	6247
2026-01-21 18:17:37.21	2.12	15.24	-40.7	-41.7	23.1	0.00e+00	3	41	0	427819008	54	6196
2026-01-21 18:17:38.22	1.92	15.28	-40.6	-41.5	23.2	0.00e+00	90	41	0	429916160	54	6074
2026-01-21 18:17:39.23	1.71	15.32	-40.5	-41.5	23.2	0.00e+00	0	41	0	432013312	54	6036
2026-01-21 18:17:40.24	1.51	15.36	-40.7	-41.6	23.1	0.00e+00	59	41	0	434110464	54	6166
2026-01-21 18:17:41.25	1.31	15.40	-40.5	-41.5	23.2	0.00e+00	2	41	0	435159040	54	6037
2026-01-21 18:17:42.26	1.11	15.44	-40.4	-41.3	23.3	0.00e+00	2	41	0	437256192	54	5931
2026-01-21 18:17:43.27	0.90	15.47	-40.4	-41.4	23.2	0.00e+00	13	41	0	439353344	54	5982
2026-01-21 18:17:44.28	0.70	15.51	-40.2	-41.1	22.6	0.00e+00	0	41	0	441450496	54	5795
2026-01-21 18:17:45.29	0.50	15.55	-40.3	-41.2	23.5	0.00e+00	92	41	0	443547648	54	5883
2026-01-21 18:17:46.30	0.29	15.58	-40.4	-41.3	23.4	0.00e+00	2	41	0	445644800	54	5922
2026-01-21 18:17:47.31	0.09	15.62	-40.2	-41.1	23.5	0.00e+00	0	41	0	446693376	54	5792
2026-01-21 18:17:48.32	359.88	15.66	-40.5	-41.4	23.3	0.00e+00	0	41	0	448790528	54	6010
2026-01-21 18:17:49.33	359.67	15.69	-40.4	-41.3	23.4	0.00e+00	79	41	0	450887680	54	5955
2026-01-21 18:17:50.34	359.47	15.73	-40.3	-41.3	23.4	0.00e+00	75	41	0	452984832	54	5899
2026-01-21 18:17:51.35	359.26	15.76	-40.2	-41.1	23.7	0.00e+00	3	41	0	455081984	54	5807
2026-01-21 18:17:52.36	359.05	15.80	-40.2	-41.1	23.5	0.00e+00	90	41	0	456130560	54	5767
2026-01-21 18:17:53.37	358.84	15.83	-40.3	-41.2	23.5	0.00e+00	3	41	0	458227712	54	5876
2026-01-21 18:17:54.38	358.63	15.87	-40.3	-41.2	23.5	0.00e+00	13	41	0	460324864	54	5866
2026-01-21 18:17:55.39	358.42	15.90	-40.4	-41.3	23.5	0.00e+00	0	41	0	462422016	54	5958
2026-01-21 18:17:56.40	358.21	15.93	-40.1	-41.0	23.6	0.00e+00	6	41	0	464519168	54	5717
2026-01-21 18:17:57.41	358.00	15.97	-40.1	-41.1	23.5	0.00e+00	5	41	0	465567744	54	5767
2026-01-21 18:17:58.42	357.79	16.00	-39.9	-40.8	23.8	0.00e+00	4	41	0	467664896	54	5601
2026-01-21 18:17:59.43	357.58	16.03	-40.0	-40.9	23.7	0.00e+00	92	41	0	469762048	54	5635
2026-01-21 18:18:00.44	357.37	16.06	-40.0	-40.9	23.7	0.00e+00	6	41	0	471859200	54	5687
2026-01-21 18:18:01.45	357.16	16.09	-40.0	-40.9	23.7	0.00e+00	92	41	0	473956352	54	5690
2026-01-21 18:18:02.46	356.94	16.13	-40.1	-41.0	23.6	0.00e+00	7	41	0	475004928	54	5743
2026-01-21 18:18:03.47	356.73	16.16	-40.3	-41.3	23.3	0.00e+00	0	41	0	477102080	54	5903
2026-01-21 18:18:04.48	356.52	16.19	-40.3	-41.2	23.5	0.00e+00	0	41	0	479199232	54	5845
2026-01-21 18:18:05.49	356.30	16.22	-40.1	-41.0	23.6	0.00e+00	79	41	0	481296384	54	5739
2026-01-21 18:18:06.50	356.09	16.25	-40.3	-41.2	23.5	0.00e+00	77	41	0	483393536	54	5844
2026-01-21 18:18:07.51	355.87	16.28	-40.4	-41.3	23.3	0.00e+00	78	41	0	484442112	54	5963
2026-01-21 18:18:08.52	355.66	16.31	-40.5	-41.4	23.3	0.00e+00	92	41	0	486539264	54	6004
2026-01-21 18:18:09.53	355.44	16.33	-40.3	-41.3	23.2	0.00e+00	6	41	0	488636416	54	5903
2026-01-21 18:18:10.54	355.23	16.36	-40.2	-41.1	23.5	0.00e+00	72	41	0	490733568	54	5811
2026-01-21 18:18:11.55	355.01	16.39	-40.1	-41.0	23.6	0.00e+00	14	41	0	492830720	54	5759
2026-01-21 18:18:12.56	354.79	16.42	-40.3	-41.2	23.4	0.00e+00	72	41	0	493879296	54	5856
2026-01-21 18:18:13.57	354.58	16.44	-40.2	-41.1	23.5	0.00e+00	19	41	0	495976448	54	5823
2026-01-21 18:18:14.58	354.36	16.47	-40.1	-41.0	23.6	0.00e+00	76	41	0	498073600	54	5748
2026-01-21 18:18:15.59	354.14	16.50	-40.1	-41.0	23.6	0.00e+00	92	41	0	500170752	54	5759
2026-01-21 18:18:16.60	353.92	16.52	-40.2	-41.1	23.6	0.00e+00	13	41	0	502267904	54	5779
2026-01-21 18:18:17.61	353.70	16.55	-40.2	-41.1	23.7	0.00e+00	92	41	0	503316480	54	5763
2026-01-21 18:18:18.62	353.48	16.57	-40.3	-41.2	23.5	0.00e+00	6	41	0	505413632	54	5894
2026-01-21 18:18:19.63	353.26	16.60	-40.4	-41.3	23.4	0.00e+00	6	41	0	507510784	54	5914
2026-01-21 18:18:20.64	353.04	16.62	-40.3	-41.2	23.4	0.00e+00	5	41	0	509607936	54	5881
2026-01-21 18:18:21.65	352.82	16.65	-40.2	-41.2	23.5	0.00e+00	0	41	0	511705088	54	5829
2026-01-21 18:18:22.66	352.60	16.67	-40.3	-41.2	23.5	0.00e+00	92	41	0	513802240	54	5836
2026-01-21 18:18:23.67	352.38	16.69	-40.3	-41.3	23.4	0.00e+00	7	41	0	514850816	54	5905
2026-01-21 18:18:24.68	352.16	16.72	-40.5	-41.5	23.2	0.00e+00	92	41	0	516947968	54	6051
2026-01-21 18:18:25.68	351.94	16.74	-40.8	-41.7	23.0	0.00e+00	0	41	0	519045120	54	6226
2026-01-21 18:18:26.69	351.72	16.76	-40.8	-41.7	23.0	0.00e+00	73	41	0	521142272	54	6229
2026-01-21 18:18:27.70	351.50	16.78	-40.8	-41.8	23.0	0.00e+00	0	41	0	523239424	54	6258
2026-01-21 18:18:28.71	351.27	16.80	-40.9	-41.9	22.8	0.00e+00	0	41	0	524288000	54	6358
2026-01-21 18:18:29.72	351.05	16.82	-40.9	-41.9	22.8	0.00e+00	7	41	0	526385152	54	6358
2026-01-21 18:18:30.73	350.83	16.84	-40.9	-41.9	22.8	0.00e+00	80	41	0	528482304	54	6356
2026-01-21 18:18:31.74	350.61	16.86	-41.0	-42.0	22.8	0.00e+00	92	41	0	530579456	54	6413
2026-01-21 18:18:32.75	350.38	16.88	-41.0	-41.9	22.7	0.00e+00	1	41	0	532676608	54	6383
2026-01-21 18:18:33.76	350.16	16.90	-41.0	-42.0	22.8	0.00e+00	3	41	0	533725184	54	6415
2026-01-21 18:18:34.77	349.93	16.92	-41.1	-42.1	22.7	0.00e+00	7	41	0	535822336	54	6477
2026-01-21 18:18:35.78	349.71	16.94	-40.9	-41.9	22.8	0.00e+00	72	41	0	537919488	54	6343
2026-01-21 18:18:36.79	349.48	16.96	-41.0	-41.9	22.8	0.00e+00	72	41	0	540016640	54	6375
2026-01-21 18:18:37.80	349.26	16.97	-40.7	-41.6	23.2	0.00e+00	0	41	0	542113792	54	6149
2026-01-21 18:18:38.81	349.03	16.99	-40.7	-41.7	23.0	0.00e+00	90	41	0	543162368	54	6217
2026-01-21 18:18:39.82	348.81	17.01	-40.5	-41.5	23.3	0.00e+00	4	41	0	545259520	54	6054
2026-01-21 18:18:40.83	348.58	17.02	-40.7	-41.7	23.0	0.00e+00	92	41	0	547356672	54	6208
2026-01-21 18:18:41.84	348.35	17.04	-40.8	-41.8	23.0	0.00e+00	2	41	0	549453824	54	6265
2026-01-21 18:18:42.84	348.13	17.05	-40.9	-41.9	22.8	0.00e+00	0	41	0	551550976	54	6350
2026-01-21 18:18:43.85	347.90	17.07	-40.9	-41.8	22.9	0.00e+00	0	41	0	552599552	54	6293
2026-01-21 18:18:44.86	347.68	17.08	-41.0	-42.0	22.8	0.00e+00	0	41	0	554696704	54	6398
2026-01-21 18:18:45.87	347.45	17.09	-40.8	-41.8	23.0	0.00e+00	74	41	0	556793856	54	6274
2026-01-21 18:18:46.88	347.22	17.11	-40.9	-41.9	23.0	0.00e+00	0	41	0	558891008	54	6325
2026-01-21 18:18:47.89	346.99	17.12	-40.9	-41.9	22.9	0.00e+00	92	41	0	560988160	54	6356
2026-01-21 18:18:48.90	346.77	17.13	-41.0	-42.0	22.7	0.00e+00	77	41	0	562036736	54	6407
2026-01-21 18:18:49.91	346.54	17.14	-41.2	-42.2	22.7	0.00e+00	0	41	0	564133888	54	6590
2026-01-21 18:18:50.92	346.31	17.15	-41.3	-42.3	22.5	0.00e+00	0	41	0	566231040	54	6639
2026-01-21 18:18:51.93	346.08	17.16	-41.4	-42.5	22.3	0.00e+00	72	41	0	568328192	54	6778
2026-01-21 18:18:52.94	345.85	17.17	-41.5	-42.5	22.3	0.00e+00	0	41	0	570425344	54	6818
2026-01-21 18:18:53.95	345.63	17.18	-41.4	-42.5	22.4	0.00e+00	79	41	0	571473920	54	6772
2026-01-21 18:18:54.96	345.40	17.19	-41.4	-42.4	22.4	0.00e+00	91	41	0	573571072	54	6744
2026-01-21 18:18:55.97	345.17	17.20	-41.3	-42.3	22.6	0.00e+00	78	41	0	575668224	54	6635
2026-01-21 18:18:56.98	344.94	17.21	-41.2	-42.3	22.5	0.00e+00	90	41	0	577765376	54	6640
2026-01-21 18:18:57.99	344.71	17.22	-41.1	-42.1	22.7	0.00e+00	5	41	0	579862528	54	6470
2026-01-21 18:18:59.00	344.48	17.23	-41.1	-42.1	22.7	0.00e+00	0	41	0	581959680	54	6536
2026-01-21 18:19:00.01	344.25	17.23	-41.3	-42.3	22.5	0.00e+00	7	41	0	583008256	54	6672
2026-01-21 18:19:01.01	344.02	17.24	-41.4	-42.4	22.4	0.00e+00	0	41	0	585105408	54	6763
2026-01-21 18:19:02.02	343.79	17.25	-41.2	-42.2	22.5	0.00e+00	92	41	0	587202560	54	6600
2026-01-21 18:19:03.03	343.56	17.25	-41.2	-42.2	22.6	0.00e+00	0	41	0	589299712	54	6592
2026-01-21 18:19:04.04	343.33	17.26	-41.2	-42.2	22.6	0.00e+00	91	41	0	591396864	54	6578
2026-01-21 18:19:05.05	343.10	17.26	-41.0	-42.0	22.9	0.00e+00	0	41	0	592445440	54	6400
2026-01-21 18:19:06.06	342.88	17.27	-41.2	-42.2	22.7	0.00e+00	2	41	0	594542592	54	6592
2026-01-21 18:19:07.07	342.65	17.27	-40.9	-41.9	22.8	0.00e+00	0	41	0	596639744	54	6350
2026-01-21 18:19:08.08	342.42	17.27	-41.1	-42.1	22.7	0.00e+00	0	41	0	598736896	54	6509
2026-01-21 18:19:09.08	342.19	17.28	-41.0	-42.0	22.9	0.00e+00	0	41	0	599785472	54	6400
2026-01-21 18:19:10.09	341.96	17.28	-41.0	-42.0	22.8	0.00e+00	0	41	0	601882624	54	6396
2026-01-21 18:19:11.10	341.73	17.28	-41.0	-42.0	22.8	0.00e+00	92	41	0	603979776	54	6443
2026-01-21 18:19:12.11	341.50	17.28	-41.1	-42.1	22.8	0.00e+00	0	41	0	606076928	54	6470
2026-01-21 18:19:13.12	341.27	17.28	-41.0	-42.1	22.8	0.00e+00	79	41	0	608174080	54	6465
2026-01-21 18:19:14.12	341.04	17.28	-41.0	-42.0	22.8	0.00e+00	0	41	0	610271232	54	6444
2026-01-21 18:19:15.14	340.81	17.28	-41.3	-42.3	22.5	0.00e+00	0	41	0	611319808	54	6652
2026-01-21 18:19:16.15	340.58	17.28	-41.3	-42.3	22.5	0.00e+00	57	41	0	613416960	54	6691
2026-01-21 18:19:17.16	340.35	17.28	-41.4	-42.5	22.1	0.00e+00	1	41	0	615514112	54	6804
2026-01-21 18:19:18.17	340.12	17.28	-41.3	-42.3	22.4	0.00e+00	92	41	0	617611264	54	6684
2026-01-21 18:19:19.18	339.89	17.28	-41.4	-42.5	22.3	0.00e+00	2	41	0	619708416	54	6793
2026-01-21 18:19:20.19	339.66	17.28	-41.1	-42.2	22.7	0.00e+00	92	41	0	620756992	54	6550
2026-01-21 18:19:21.20	339.43	17.27	-41.1	-42.1	22.6	0.00e+00	1	41	0	622854144	54	6530
2026-01-21 18:19:22.21	339.20	17.27	-41.1	-42.1	22.6	0.00e+00	0	41	0	624951296	54	6497
2026-01-21 18:19:23.22	338.97	17.27	-41.0	-42.0	22.8	0.00e+00	0	41	0	627048448	54	6401
2026-01-21 18:19:24.23	338.74	17.26	-40.9	-41.9	22.9	0.00e+00	9	41	0	629145600	54	6347
2026-01-21 18:19:25.24	338.51	17.26	-41.0	-42.0	22.8	0.00e+00	92	41	0	630194176	54	6457
2026-01-21 18:19:26.25	338.28	17.25	-41.0	-42.0	22.8	0.00e+00	0	41	0	632291328	54	6416
2026-01-21 18:19:27.26	338.05	17.25	-40.9	-41.9	22.8	0.00e+00	90	41	0	634388480	54	6379
2026-01-21 18:19:28.27	337.82	17.24	-41.1	-42.1	22.7	0.00e+00	0	41	0	636485632	54	6479
2026-01-21 18:19:29.27	337.59	17.23	-41.2	-42.2	22.6	0.00e+00	0	41	0	638582784	54	6561
2026-01-21 18:19:30.28	337.36	17.23	-41.3	-42.4	22.4	0.00e+00	0	41	0	639631360	54	6693
2026-01-21 18:19:31.29	337.13	17.22	-41.2	-42.3	22.6	0.00e+00	0	41	0	641728512	54	6618
2026-01-21 18:19:32.30	336.90	17.21	-41.3	-42.3	22.6	0.00e+00	46	41	0	643825664	54	6652
2026-01-21 18:19:33.31	336.67	17.20	-41.3	-42.3	22.5	0.00e+00	78	41	0	645922816	54	6691
2026-01-21 18:19:34.32	336.44	17.19	-41.2	-42.2	22.6	0.00e+00	90	41	0	648019968	54	6580
2026-01-21 18:19:35.33	336.22	17.18	-41.0	-42.0	22.8	0.00e+00	0	41	0	649068544	54	6444
2026-01-21 18:19:36.34	335.99	17.17	-41.0	-42.0	22.9	0.00e+00	81	41	0	651165696	54	6394
2026-01-21 18:19:37.35	335.76	17.16	-40.8	-41.8	23.0	0.00e+00	4	41	0	653262848	54	6263
2026-01-21 18:19:38.36	335.53	17.15	-40.9	-41.8	22.9	0.00e+00	2	41	0	655360000	54	6305
2026-01-21 18:19:39.37	335.30	17.14	-40.5	-41.5	23.2	0.00e+00	0	41	0	657457152	54	6050
2026-01-21 18:19:40.38	335.07	17.13	-40.6	-41.6	23.1	0.00e+00	7	41	0	658505728	54	6105
2026-01-21 18:19:41.39	334.85	17.12	-40.6	-41.5	23.2	0.00e+00	92	41	0	660602880	54	6082
2026-01-21 18:19:42.40	334.62	17.10	-40.7	-41.7	23.1	0.00e+00	6	41	0	662700032	54	6204
2026-01-21 18:19:43.41	334.39	17.09	-40.9	-41.9	23.0	0.00e+00	92	41	0	664797184	54	6322
2026-01-21 18:19:44.42	334.16	17.08	-40.9	-41.9	22.9	0.00e+00	2	41	0	666894336	54	6370
2026-01-21 18:19:45.43	333.94	17.06	-41.0	-42.0	22.9	0.00e+00	4	41	0	667942912	54	6394
2026-01-21 18:19:46.44	333.71	17.05	-40.9	-41.8	23.0	0.00e+00	0	41	0	670040064	54	6315
2026-01-21 18:19:47.45	333.48	17.03	-40.8	-41.8	23.0	0.00e+00	0	41	0	672137216	54	6293
2026-01-21 18:19:48.46	333.26	17.02	-40.8	-41.7	23.1	0.00e+00	90	41	0	674234368	54	6225
2026-01-21 18:19:49.47	333.03	17.00	-40.5	-41.5	23.3	0.00e+00	0	41	0	676331520	54	6041
2026-01-21 18:19:50.48	332.81	16.99	-40.5	-41.4	23.3	0.00e+00	90	41	0	678428672	54	6020
2026-01-21 18:19:51.50	332.58	16.97	-40.4	-41.3	23.3	0.00e+00	78	41	0	679477248	54	5916
2026-01-21 18:19:52.51	332.35	16.95	-40.4	-41.3	23.5	0.00e+00	0	41	0	681574400	54	5923
2026-01-21 18:19:53.52	332.13	16.93	-40.4	-41.3	23.4	0.00e+00	5	41	0	683671552	54	5963
2026-01-21 18:19:54.53	331.90	16.92	-40.3	-41.2	23.5	0.00e+00	0	41	0	685768704	54	5894
2026-01-21 18:19:55.54	331.68	16.90	-40.2	-41.1	23.5	0.00e+00	66	41	0	687865856	54	5807
2026-01-21 18:19:56.55	331.45	16.88	-40.2	-41.1	23.6	0.00e+00	14	41	0	688914432	54	5827
2026-01-21 18:19:57.56	331.23	16.86	-40.3	-41.2	23.6	0.00e+00	92	41	0	691011584	54	5849
2026-01-21 18:19:58.57	331.01	16.84	-40.2	-41.1	23.7	0.00e+00	8	41	0	693108736	54	5771
2026-01-21 18:19:59.58	330.78	16.82	-40.1	-41.0	23.7	0.00e+00	92	41	0	695205888	54	5753
2026-01-21 18:20:00.59	330.56	16.80	-40.3	-41.2	23.6	0.00e+00	5	41	0	697303040	54	5867
2026-01-21 18:20:01.60	330.34	16.78	-40.5	-41.4	23.4	0.00e+00	0	41	0	698351616	54	5985
2026-01-21 18:20:02.61	330.11	16.76	-40.3	-41.2	23.4	0.00e+00	46	41	0	700448768	54	5850
2026-01-21 18:20:03.62	329.89	16.73	-40.3	-41.2	23.5	0.00e+00	7	41	0	702545920	54	5880
2026-01-21 18:20:04.63	329.67	16.71	-40.5	-41.4	23.3	0.00e+00	92	41	0	704643072	54	5995
2026-01-21 18:20:05.64	329.45	16.69	-40.4	-41.3	23.4	0.00e+00	7	41	0	706740224	54	5951
2026-01-21 18:20:06.64	329.23	16.67	-40.5	-41.4	23.4	0.00e+00	10	41	0	707788800	54	5994
2026-01-21 18:20:07.65	329.01	16.64	-40.5	-41.5	23.3	0.00e+00	6	41	0	709885952	54	6044
2026-01-21 18:20:08.66	328.79	16.62	-40.5	-41.4	23.4	0.00e+00	6	41	0	711983104	54	5999
2026-01-21 18:20:09.68	328.57	16.59	-40.6	-41.5	23.3	0.00e+00	8	41	0	714080256	54	6092
2026-01-21 18:20:10.68	328.35	16.57	-40.7	-41.6	23.2	0.00e+00	6	41	0	716177408	54	6139
2026-01-21 18:20:11.69	328.13	16.54	-40.6	-41.6	23.3	0.00e+00	92	41	0	718274560	54	6124
2026-01-21 18:20:12.70	327.91	16.52	-40.6	-41.5	23.3	0.00e+00	73	41	0	719323136	54	6094
2026-01-21 18:20:13.71	327.69	16.49	-40.5	-41.5	23.3	0.00e+00	91	41	0	721420288	54	6045
2026-01-21 18:20:14.72	327.47	16.47	-40.7	-41.6	23.0	0.00e+00	0	41	0	723517440	54	6167
2026-01-21 18:20:15.73	327.26	16.44	-40.6	-41.6	23.2	0.00e+00	78	41	0	725614592	54	6129
2026-01-21 18:20:16.74	327.04	16.41	-40.7	-41.6	23.2	0.00e+00	77	41	0	727711744	54	6164
2026-01-21 18:20:17.76	326.82	16.38	-40.7	-41.6	23.1	0.00e+00	78	41	0	728760320	54	6144
2026-01-21 18:20:18.76	326.61	16.36	-40.7	-41.7	23.0	0.00e+00	91	41	0	730857472	54	6199
2026-01-21 18:20:19.77	326.39	16.33	-40.8	-41.8	23.0	0.00e+00	9	41	0	732954624	54	6267
2026-01-21 18:20:20.78	326.17	16.30	-41.0	-42.0	22.9	0.00e+00	92	41	0	735051776	54	6391
2026-01-21 18:20:21.79	325.96	16.27	-41.1	-42.1	22.8	0.00e+00	3	41	0	737148928	54	6517
2026-01-21 18:20:22.80	325.74	16.24	-41.2	-42.2	22.7	0.00e+00	2	41	0	738197504	54	6550
2026-01-21 18:20:23.81	325.53	16.21	-41.2	-42.3	22.6	0.00e+00	2	41	0	740294656	54	6619
2026-01-21 18:20:24.82	325.32	16.18	-41.3	-42.3	22.6	0.00e+00	3	41	0	742391808	54	6643
2026-01-21 18:20:25.83	325.10	16.15	-41.3	-42.3	22.5	0.00e+00	15	41	0	744488960	54	6690
2026-01-21 18:20:26.84	324.89	16.12	-41.3	-42.3	22.5	0.00e+00	0	41	0	746586112	54	6664
2026-01-21 18:20:27.84	324.68	16.09	-41.2	-42.2	22.6	0.00e+00	92	41	0	747634688	54	6572
2026-01-21 18:20:28.85	324.47	16.06	-41.5	-42.5	22.5	0.00e+00	0	41	0	749731840	54	6793
2026-01-21 18:20:29.86	324.25	16.02	-41.3	-42.3	22.5	0.00e+00	91	41	0	751828992	54	6630
2026-01-21 18:20:30.87	324.04	15.99	-41.4	-42.4	22.4	0.00e+00	0	41	0	753926144	54	6745
2026-01-21 18:20:31.88	323.83	15.96	-41.2	-42.2	22.7	0.00e+00	0	41	0	756023296	54	6542
2026-01-21 18:20:32.89	323.62	15.93	-41.3	-42.3	22.5	0.00e+00	0	41	0	757071872	54	6641
2026-01-21 18:20:33.90	323.41	15.89	-41.3	-42.3	22.5	0.00e+00	78	41	0	759169024	54	6681
2026-01-21 18:20:34.91	323.20	15.86	-41.2	-42.2	22.6	0.00e+00	92	41	0	761266176	54	6572
2026-01-21 18:20:35.92	322.99	15.82	-41.3	-42.3	22.6	0.00e+00	72	41	0	763363328	54	6676
2026-01-21 18:20:36.93	322.78	15.79	-41.3	-42.4	22.5	0.00e+00	92	41	0	765460480	54	6706
2026-01-21 18:20:37.94	322.58	15.76	-41.4	-42.5	22.4	0.00e+00	3	41	0	766509056	54	6776
2026-01-21 18:20:38.95	322.37	15.72	-41.5	-42.5	22.3	0.00e+00	3	41	0	768606208	54	6813
2026-01-21 18:20:39.96	322.16	15.68	-41.2	-42.2	22.6	0.00e+00	5	41	0	770703360	54	6580
2026-01-21 18:20:40.97	321.95	15.65	-41.1	-42.0	22.8	0.00e+00	77	41	0	772800512	54	6456
2026-01-21 18:20:41.97	321.75	15.61	-41.2	-42.2	22.7	0.00e+00	0	41	0	774897664	54	6544
2026-01-21 18:20:42.99	321.54	15.58	-40.9	-41.9	22.8	0.00e+00	2	41	0	775946240	54	6319
2026-01-21 18:20:43.99	321.34	15.54	-40.9	-41.9	22.9	0.00e+00	92	41	0	778043392	54	6328
2026-01-21 18:20:45.00	321.14	15.50	-40.8	-41.8	23.0	0.00e+00	2	41	0	780140544	54	6278
2026-01-21 18:20:46.01	320.93	15.47	-40.8	-41.8	22.9	0.00e+00	66	41	0	782237696	54	6290
2026-01-21 18:20:47.02	320.73	15.43	-40.9	-41.9	22.8	0.00e+00	2	41	0	784334848	54	6363
2026-01-21 18:20:48.03	320.52	15.39	-41.0	-42.0	22.9	0.00e+00	0	41	0	785383424	54	6420
2026-01-21 18:20:49.04	320.32	15.35	-41.1	-42.1	22.8	0.00e+00	0	41	0	787480576	54	6495
2026-01-21 18:20:50.04	320.12	15.31	-40.9	-41.9	22.9	0.00e+00	0	41	0	789577728	54	6365
2026-01-21 18:20:51.05	319.92	15.27	-40.9	-41.9	22.9	0.00e+00	92	41	0	791674880	54	6365
2026-01-21 18:20:52.06	319.72	15.24	-40.9	-41.9	22.7	0.00e+00	2	41	0	793772032	54	6339
2026-01-21 18:20:53.07	319.52	15.20	-41.0	-42.0	22.8	0.00e+00	92	41	0	794820608	54	6442
2026-01-21 18:20:54.08	319.32	15.16	-40.8	-41.8	23.0	0.00e+00	0	41	0	796917760	54	6296
2026-01-21 18:20:55.09	319.12	15.12	-40.9	-41.8	22.9	0.00e+00	78	41	0	799014912	54	6295
2026-01-21 18:20:56.10	318.92	15.08	-41.0	-41.9	22.9	0.00e+00	57	41	0	801112064	54	6390
2026-01-21 18:20:57.11	318.72	15.04	-40.9	-41.9	22.9	0.00e+00	78	41	0	803209216	54	6352
2026-01-21 18:20:58.12	318.53	14.99	-40.8	-41.7	23.0	0.00e+00	92	41	0	804257792	54	6236
2026-01-21 18:20:59.12	318.33	14.95	-40.8	-41.8	23.0	0.00e+00	0	41	0	806354944	54	6270
2026-01-21 18:21:00.13	318.13	14.91	-40.6	-41.6	23.2	0.00e+00	92	41	0	808452096	54	6121
2026-01-21 18:21:01.14	317.94	14.87	-40.8	-41.8	23.0	0.00e+00	4	41	0	810549248	54	6285
2026-01-21 18:21:02.15	317.74	14.83	-40.9	-41.9	23.0	0.00e+00	2	41	0	812646400	54	6363
2026-01-21 18:21:03.16	317.55	14.79	-40.9	-41.8	23.0	0.00e+00	4	41	0	814743552	54	6291
2026-01-21 18:21:04.17	317.35	14.74	-41.0	-42.0	22.8	0.00e+00	0	41	0	815792128	54	6443
2026-01-21 18:21:05.18	317.16	14.70	-41.1	-42.1	22.6	0.00e+00	0	41	0	817889280	54	6529
2026-01-21 18:21:06.19	316.97	14.66	-41.1	-42.1	22.8	0.00e+00	0	41	0	819986432	54	6513
2026-01-21 18:21:07.20	316.77	14.62	-41.2	-42.2	22.6	0.00e+00	91	41	0	822083584	54	6543
2026-01-21 18:21:08.21	316.58	14.57	-41.2	-42.2	22.7	0.00e+00	10	41	0	824180736	54	6588
2026-01-21 18:21:09.22	316.39	14.53	-41.2	-42.3	22.6	0.00e+00	74	41	0	825229312	54	6619
2026-01-21 18:21:10.23	316.20	14.48	-41.1	-42.1	22.7	0.00e+00	0	41	0	827326464	54	6509
2026-01-21 18:21:11.24	316.01	14.44	-41.2	-42.2	22.6	0.00e+00	0	41	0	829423616	54	6553
2026-01-21 18:21:12.25	315.82	14.40	-41.2	-42.2	22.7	0.00e+00	0	41	0	831520768	54	6557
2026-01-21 18:21:13.26	315.63	14.35	-41.0	-42.0	22.7	0.00e+00	0	41	0	833617920	54	6436
2026-01-21 18:21:14.27	315.44	14.31	-41.1	-42.1	22.6	0.00e+00	91	41	0	834666496	54	6534
2026-01-21 18:21:15.28	315.25	14.26	-41.4	-42.4	22.4	0.00e+00	0	41	0	836763648	54	6719
2026-01-21 18:21:16.29	315.07	14.22	-41.5	-42.5	22.2	0.00e+00	91	41	0	838860800	54	6845
2026-01-21 18:21:17.30	314.88	14.17	-41.4	-42.5	22.4	0.00e+00	77	41	0	840957952	54	6786
2026-01-21 18:21:18.31	314.69	14.12	-41.5	-42.6	22.3	0.00e+00	0	41	0	843055104	54	6853
2026-01-21 18:21:19.32	314.51	14.08	-41.7	-42.7	22.1	0.00e+00	0	41	0	844103680	54	6972
2026-01-21 18:21:20.33	314.32	14.03	-41.8	-42.8	21.9	0.00e+00	0	41	0	846200832	54	7067
2026-01-21 18:21:21.34	314.14	13.99	-42.0	-43.0	21.9	0.00e+00	61	41	0	848297984	56	6458
2026-01-21 18:21:22.35	313.95	13.94	-41.9	-43.0	22.0	0.00e+00	0	41	0	850395136	56	6413
2026-01-21 18:21:23.36	313.77	13.89	-41.8	-42.9	22.0	0.00e+00	5	41	0	852492288	56	6343
2026-01-21 18:21:24.37	313.59	13.84	-41.9	-43.0	21.9	0.00e+00	76	41	0	853540864	56	6417
2026-01-21 18:21:25.38	313.40	13.80	-41.9	-43.0	21.9	0.00e+00	5	41	0	855638016	56	6404
2026-01-21 18:21:26.39	313.22	13.75	-42.0	-43.1	21.9	0.00e+00	6	41	0	857735168	56	6479
2026-01-21 18:21:27.40	313.04	13.70	-42.1	-43.2	21.7	0.00e+00	6	41	0	859832320	56	6582
2026-01-21 18:21:28.41	312.86	13.65	-42.1	-43.2	21.8	0.00e+00	87	41	0	861929472	56	6553
2026-01-21 18:21:29.42	312.68	13.61	-42.1	-43.2	21.8	0.00e+00	6	41	0	862978048	56	6563
2026-01-21 18:21:30.43	312.50	13.56	-42.1	-43.2	21.7	0.00e+00	92	41	0	865075200	56	6597
2026-01-21 18:21:31.43	312.33	13.51	-42.1	-43.2	21.7	0.00e+00	0	41	0	867172352	56	6603
2026-01-21 18:21:32.45	312.15	13.46	-42.2	-43.3	21.6	0.00e+00	90	41	0	869269504	56	6651
2026-01-21 18:21:33.46	311.97	13.41	-42.3	-43.4	21.6	0.00e+00	6	41	0	871366656	56	6766
2026-01-21 18:21:34.47	311.79	13.36	-42.3	-43.5	21.4	0.00e+00	7	41	0	872415232	56	6799
2026-01-21 18:21:35.48	311.61	13.31	-42.5	-43.7	21.2	0.00e+00	0	41	0	874512384	56	6982
2026-01-21 18:21:36.49	311.44	13.27	-42.6	-43.8	21.2	0.00e+00	5	41	0	876609536	56	7067
2026-01-21 18:21:37.50	311.26	13.22	-42.8	-44.1	20.9	0.00e+00	92	41	0	878706688	58	6476
2026-01-21 18:21:38.50	311.09	13.17	-42.8	-44.0	21.0	0.00e+00	0	41	0	880803840	58	6415
2026-01-21 18:21:39.51	310.92	13.12	-42.8	-44.1	20.9	0.00e+00	0	41	0	882900992	58	6483
2026-01-21 18:21:40.52	310.74	13.07	-42.8	-44.0	21.0	0.00e+00	71	41	0	883949568	58	6436
2026-01-21 18:21:41.53	310.57	13.02	-42.8	-44.0	21.0	0.00e+00	71	41	0	886046720	58	6441
2026-01-21 18:21:42.54	310.40	12.97	-42.8	-44.1	20.9	0.00e+00	70	41	0	888143872	58	6470
2026-01-21 18:21:43.55	310.23	12.92	-42.5	-43.7	21.2	0.00e+00	70	41	0	890241024	58	6233
2026-01-21 18:21:44.56	310.06	12.87	-42.5	-43.6	21.3	0.00e+00	90	41	0	892338176	58	6165
2026-01-21 18:21:45.57	309.89	12.82	-42.5	-43.7	21.3	0.00e+00	5	41	0	893386752	58	6181
2026-01-21 18:21:46.58	309.72	12.76	-42.5	-43.7	21.1	0.00e+00	92	41	0	895483904	58	6223
2026-01-21 18:21:47.59	309.55	12.71	-42.6	-43.8	21.0	0.00e+00	16	41	0	897581056	58	6308
2026-01-21 18:21:48.60	309.38	12.66	-43.0	-44.2	20.7	0.00e+00	6	41	0	899678208	58	6601
2026-01-21 18:21:49.61	309.21	12.61	-43.3	-44.7	20.4	0.00e+00	7	41	0	901775360	58	6930
2026-01-21 18:21:50.62	309.04	12.56	-43.4	-44.8	20.2	0.00e+00	6	41	0	902823936	58	7051
2026-01-21 18:21:51.63	308.88	12.51	-43.7	-45.1	20.0	0.00e+00	61	41	0	904921088	58	7256
2026-01-21 18:21:52.64	308.71	12.46	-43.5	-44.8	20.1	0.00e+00	10	41	0	907018240	58	7062
2026-01-21 18:21:53.65	308.54	12.40	-43.3	-44.6	20.4	0.00e+00	92	41	0	909115392	58	6927
2026-01-21 18:21:54.66	308.38	12.35	-43.2	-44.5	20.4	0.00e+00	0	41	0	911212544	58	6842
2026-01-21 18:21:55.67	308.21	12.30	-43.2	-44.5	20.5	0.00e+00	0	41	0	912261120	58	6808
2026-01-21 18:21:56.68	308.05	12.25	-43.3	-44.7	20.3	0.00e+00	7	41	0	914358272	58	6949
2026-01-21 18:21:57.68	307.89	12.20	-43.1	-44.3	20.6	0.00e+00	6	41	0	916455424	58	6691
2026-01-21 18:21:58.69	307.73	12.14	-43.2	-44.6	20.4	0.00e+00	0	41	0	918552576	58	6853
2026-01-21 18:21:59.70	307.56	12.09	-43.3	-44.6	20.4	0.00e+00	0	41	0	920649728	58	6872
2026-01-21 18:22:00.71	307.40	12.04	-43.3	-44.6	20.4	0.00e+00	90	41	0	921698304	58	6877
2026-01-21 18:22:01.72	307.24	11.99	-43.2	-44.5	20.4	0.00e+00	0	41	0	923795456	58	6832
2026-01-21 18:22:02.73	307.08	11.93	-43.3	-44.7	20.4	0.00e+00	91	41	0	925892608	58	6944
2026-01-21 18:22:03.74	306.92	11.88	-43.3	-44.6	20.4	0.00e+00	5	41	0	927989760	58	6912
2026-01-21 18:22:04.75	306.76	11.83	-43.4	-44.7	20.3	0.00e+00	75	41	0	930086912	58	6978
2026-01-21 18:22:05.76	306.60	11.78	-43.3	-44.6	20.4	0.00e+00	76	41	0	931135488	58	6904
2026-01-21 18:22:06.77	306.45	11.72	-43.2	-44.5	20.4	0.00e+00	4	41	0	933232640	58	6831
2026-01-21 18:22:07.78	306.29	11.67	-43.3	-44.6	20.4	0.00e+00	75	41	0	935329792	58	6879
2026-01-21 18:22:08.79	306.13	11.62	-43.4	-44.7	20.3	0.00e+00	4	41	0	937426944	58	6955
2026-01-21 18:22:09.79	305.98	11.56	-43.3	-44.6	20.3	0.00e+00	92	41	0	939524096	58	6872
2026-01-21 18:22:10.80	305.82	11.51	-43.1	-44.4	20.5	0.00e+00	11	41	0	940572672	58	6725
2026-01-21 18:22:11.81	305.67	11.45	-43.0	-44.3	20.6	0.00e+00	13	41	0	942669824	58	6669
2026-01-21 18:22:12.82	305.51	11.40	-43.2	-44.5	20.4	0.00e+00	0	41	0	944766976	58	6794
2026-01-21 18:22:13.83	305.36	11.35	-43.3	-44.6	20.3	0.00e+00	0	41	0	946864128	58	6906
2026-01-21 18:22:14.84	305.20	11.29	-43.3	-44.6	20.4	0.00e+00	50	41	0	948961280	58	6875
2026-01-21 18:22:15.85	305.05	11.24	-43.3	-44.6	20.3	0.00e+00	0	41	0	951058432	58	6916
2026-01-21 18:22:16.86	304.90	11.19	-43.4	-44.8	20.3	0.00e+00	92	41	0	952107008	58	7026
2026-01-21 18:22:17.87	304.75	11.13	-43.2	-44.5	20.4	0.00e+00	0	41	0	954204160	58	6847
2026-01-21 18:22:18.88	304.59	11.08	-43.2	-44.5	20.4	0.00e+00	92	41	0	956301312	58	6789
2026-01-21 18:22:19.89	304.44	11.02	-43.0	-44.3	20.7	0.00e+00	0	41	0	958398464	58	6620
2026-01-21 18:22:20.90	304.29	10.97	-42.9	-44.1	20.8	0.00e+00	0	41	0	960495616	58	6502
2026-01-21 18:22:21.91	304.14	10.91	-42.8	-44.0	20.9	0.00e+00	0	41	0	961544192	58	6433
2026-01-21 18:22:22.92	304.00	10.86	-42.6	-43.8	21.1	0.00e+00	0	41	0	963641344	58	6269
2026-01-21 18:22:23.93	303.85	10.80	-42.6	-43.8	21.1	0.00e+00	92	41	0	965738496	58	6297
2026-01-21 18:22:24.93	303.70	10.75	-42.7	-44.0	20.9	0.00e+00	0	41	0	967835648	58	6400
2026-01-21 18:22:25.94	303.55	10.70	-42.8	-44.1	20.9	0.00e+00	92	41	0	969932800	58	6468
2026-01-21 18:22:26.95	303.41	10.64	-42.7	-43.9	21.0	0.00e+00	4	41	0	970981376	58	6331
2026-01-21 18:22:27.96	303.26	10.59	-42.7	-43.9	20.9	0.00e+00	7	41	0	973078528	58	6373
2026-01-21 18:22:28.97	303.12	10.53	-42.7	-43.9	21.0	0.00e+00	7	41	0	975175680	58	6372
2026-01-21 18:22:29.98	302.97	10.48	-42.7	-43.9	21.0	0.00e+00	6	41	0	977272832	58	6351
2026-01-21 18:22:30.99	302.83	10.42	-42.4	-43.6	21.2	0.00e+00	90	41	0	979369984	58	6147
2026-01-21 18:22:32.00	302.68	10.37	-42.4	-43.6	21.2	0.00e+00	0	41	0	980418560	58	6134
2026-01-21 18:22:33.01	302.54	10.31	-42.4	-43.5	21.3	0.00e+00	92	41	0	982515712	58	6096
2026-01-21 18:22:34.02	302.40	10.26	-42.4	-43.5	21.2	0.00e+00	11	41	0	984612864	58	6103
2026-01-21 18:22:35.03	302.25	10.20	-42.3	-43.5	21.3	0.00e+00	12	41	0	986710016	58	6041
2026-01-21 18:22:36.03	302.11	10.15	-42.4	-43.5	21.4	0.00e+00	6	41	0	988807168	58	6096
2026-01-21 18:22:37.04	301.97	10.09	-42.2	-43.4	21.4	0.00e+00	0	41	0	989855744	58	5974
2026-01-21 18:22:38.05	301.83	10.03	-42.2	-43.4	21.4	0.00e+00	33	41	0	991952896	58	6012
2026-01-21 18:22:39.06	301.69	9.98	-42.1	-43.2	21.5	0.00e+00	2	41	0	994050048	58	5896
2026-01-21 18:22:40.07	301.55	9.92	-42.2	-43.4	21.4	0.00e+00	92	41	0	996147200	58	5980
2026-01-21 18:22:41.08	301.41	9.87	-42.1	-43.2	21.5	0.00e+00	2	41	0	998244352	58	5892
2026-01-21 18:22:42.09	301.28	9.81	-42.1	-43.3	21.5	0.00e+00	30	41	0	999292928	58	5918
2026-01-21 18:22:43.10	301.14	9.76	-41.9	-43.1	21.6	0.00e+00	0	41	0	1001390080	58	5777
2026-01-21 18:22:44.11	301.00	9.70	-41.8	-42.9	21.9	0.00e+00	0	41	0	1003487232	56	6333
2026-01-21 18:22:45.12	300.86	9.65	-41.8	-42.9	21.8	0.00e+00	0	41	0	1005584384	56	6367
2026-01-21 18:22:46.13	300.73	9.59	-41.9	-43.0	21.7	0.00e+00	0	41	0	1007681536	56	6448
2026-01-21 18:22:47.14	300.59	9.53	-41.7	-42.7	22.0	0.00e+00	92	41	0	1008730112	56	6234
2026-01-21 18:22:48.15	300.46	9.48	-41.7	-42.7	22.0	0.00e+00	11	41	0	1010827264	56	6228
2026-01-21 18:22:49.16	300.32	9.42	-41.6	-42.7	22.0	0.00e+00	92	41	0	1012924416	56	6199
2026-01-21 18:22:50.17	300.19	9.37	-41.6	-42.7	21.9	0.00e+00	2	41	0	1015021568	56	6189
2026-01-21 18:22:51.18	300.05	9.31	-41.6	-42.6	21.8	0.00e+00	0	41	0	1017118720	56	6168
2026-01-21 18:22:52.20	299.92	9.26	-41.6	-42.7	21.8	0.00e+00	0	41	0	1019215872	56	6194
2026-01-21 18:22:53.21	299.79	9.20	-41.5	-42.6	22.0	0.00e+00	6	41	0	1020264448	56	6119
2026-01-21 18:22:54.22	299.65	9.14	-41.5	-42.5	22.2	0.00e+00	92	41	0	1022361600	56	6093
2026-01-21 18:22:55.23	299.52	9.09	-41.5	-42.6	22.0	0.00e+00	8	41	0	1024458752	56	6138
2026-01-21 18:22:56.24	299.39	9.03	-41.6	-42.6	22.0	0.00e+00	92	41	0	1026555904	56	6156
2026-01-21 18:22:57.25	299.26	8.98	-41.5	-42.5	21.7	0.00e+00	0	41	0	1028653056	56	6070
2026-01-21 18:22:58.26	299.13	8.92	-41.4	-42.5	22.0	0.00e+00	0	41	0	1029701632	56	6052
2026-01-21 18:22:59.27	299.00	8.86	-41.3	-42.3	22.3	0.00e+00	0	41	0	1031798784	56	5962
2026-01-21 18:23:00.28	298.87	8.81	-41.3	-42.4	22.2	0.00e+00	0	41	0	1033895936	56	5988
2026-01-21 18:23:01.29	298.74	8.75	-41.3	-42.3	22.3	0.00e+00	0	41	0	1035993088	56	5964
2026-01-21 18:23:02.30	298.62	8.70	-41.3	-42.4	22.2	0.00e+00	72	41	0	1038090240	56	5967
2026-01-21 18:23:03.31	298.49	8.64	-41.6	-42.6	22.1	0.00e+00	92	41	0	1039138816	56	6154
2026-01-21 18:23:04.32	298.36	8.58	-41.4	-42.5	22.1	0.00e+00	0	41	0	1041235968	56	6034
2026-01-21 18:23:05.33	298.23	8.53	-41.5	-42.6	22.2	0.00e+00	92	41	0	1043333120	56	6111
2026-01-21 18:23:06.33	298.11	8.47	-41.3	-42.4	22.3	0.00e+00	0	41	0	1045430272	56	5977
2026-01-21 18:23:07.34	297.98	8.42	-41.5	-42.6	22.2	0.00e+00	0	41	0	1047527424	56	6125
2026-01-21 18:23:08.35	297.86	8.36	-41.4	-42.4	22.3	0.00e+00	48	41	0	1048576000	56	6027
2026-01-21 18:23:09.36	297.73	8.30	-41.4	-42.5	22.1	0.00e+00	74	41	0	1050673152	56	6062
2026-01-21 18:23:10.37	297.61	8.25	-41.7	-42.8	22.0	0.00e+00	92	41	0	1052770304	56	6298
2026-01-21 18:23:11.38	297.49	8.19	-41.5	-42.5	22.1	0.00e+00	13	41	0	1054867456	56	6084
2026-01-21 18:23:12.39	297.36	8.14	-41.4	-42.5	22.1	0.00e+00	92	41	0	1056964608	56	6056
2026-01-21 18:23:13.40	297.24	8.08	-41.3	-42.4	22.3	0.00e+00	5	41	0	1058013184	56	5970
2026-01-21 18:23:14.41	297.12	8.02	-41.4	-42.5	22.2	0.00e+00	0	41	0	1060110336	56	6041
2026-01-21 18:23:15.42	297.00	7.97	-41.4	-42.5	22.2	0.00e+00	0	41	0	1062207488	56	6063
2026-01-21 18:23:16.43	296.88	7.91	-41.4	-42.5	22.1	0.00e+00	13	41	0	1064304640	56	6070
2026-01-21 18:23:17.44	296.76	7.86	-41.5	-42.5	22.2	0.00e+00	90	41	0	1066401792	56	6078
2026-01-21 18:23:18.45	296.63	7.80	-41.6	-42.7	21.9	0.00e+00	0	41	0	1067450368	56	6183
2026-01-21 18:23:19.46	296.52	7.74	-41.7	-42.8	21.9	0.00e+00	92	41	0	1069547520	56	6246
2026-01-21 18:23:20.47	296.40	7.69	-41.6	-42.7	22.0	0.00e+00	6	41	0	1071644672	56	6204
2026-01-21 18:23:21.48	296.28	7.63	-41.6	-42.7	21.9	0.00e+00	32	41	0	1073741824	56	6211
2026-01-21 18:23:22.49	296.16	7.57	-41.8	-42.9	21.8	0.00e+00	72	41	0	1075838976	56	6360
2026-01-21 18:23:23.50	296.04	7.52	-41.9	-43.0	21.6	0.00e+00	70	41	0	1076887552	56	6413
2026-01-21 18:23:24.51	295.92	7.46	-41.7	-42.8	21.8	0.00e+00	5	41	0	1078984704	56	6306
2026-01-21 18:23:25.52	295.81	7.41	-41.9	-43.0	21.7	0.00e+00	73	41	0	1081081856	56	6415
2026-01-21 18:23:26.53	295.69	7.35	-41.9	-43.1	21.6	0.00e+00	92	41	0	1083179008	56	6470
2026-01-21 18:23:27.54	295.57	7.29	-42.1	-43.2	21.5	0.00e+00	72	41	0	1085276160	56	6590
2026-01-21 18:23:28.55	295.46	7.24	-42.0	-43.2	21.5	0.00e+00	87	41	0	1087373312	56	6575
2026-01-21 18:23:29.56	295.34	7.18	-42.2	-43.4	21.2	0.00e+00	0	41	0	1088421888	56	6727
2026-01-21 18:23:30.57	295.23	7.13	-42.2	-43.4	21.3	0.00e+00	74	41	0	1090519040	56	6727
2026-01-21 18:23:31.59	295.11	7.07	-42.1	-43.2	21.4	0.00e+00	62	41	0	1092616192	56	6577
2026-01-21 18:23:32.59	295.00	7.01	-41.9	-43.0	21.7	0.00e+00	13	41	0	1094713344	56	6418
2026-01-21 18:23:33.60	294.89	6.96	-41.8	-42.9	21.8	0.00e+00	92	41	0	1096810496	56	6341
2026-01-21 18:23:34.61	294.77	6.90	-41.8	-42.9	21.7	0.00e+00	7	41	0	1097859072	56	6337
2026-01-21 18:23:35.62	294.66	6.85	-41.6	-42.7	21.8	0.00e+00	92	41	0	1099956224	56	6239
2026-01-21 18:23:36.63	294.55	6.79	-41.9	-43.0	21.6	0.00e+00	13	41	0	1102053376	56	6458
2026-01-21 18:23:37.64	294.44	6.73	-41.8	-43.0	21.6	0.00e+00	7	41	0	1104150528	56	6411
2026-01-21 18:23:38.65	294.33	6.68	-41.8	-43.0	21.5	0.00e+00	0	41	0	1106247680	56	6419
2026-01-21 18:23:39.67	294.22	6.62	-41.7	-42.8	21.8	0.00e+00	7	41	0	1107296256	56	6277
2026-01-21 18:23:40.68	294.10	6.57	-41.9	-43.1	21.5	0.00e+00	92	41	0	1109393408	56	6480
2026-01-21 18:23:41.69	293.99	6.51	-42.3	-43.5	21.1	0.00e+00	7	41	0	1111490560	56	6776
2026-01-21 18:23:42.70	293.89	6.46	-42.1	-43.3	21.2	0.00e+00	92	41	0	1113587712	56	6638
2026-01-21 18:23:43.71	293.78	6.40	-42.1	-43.2	21.3	0.00e+00	67	41	0	1115684864	56	6602
2026-01-21 18:23:44.72	293.67	6.34	-42.2	-43.4	21.1	0.00e+00	23	41	0	1116733440	56	6732
2026-01-21 18:23:45.72	293.56	6.29	-42.3	-43.5	21.0	0.00e+00	0	41	0	1118830592	56	6811
2026-01-21 18:23:46.73	293.45	6.23	-42.3	-43.5	21.1	0.00e+00	68	41	0	1120927744	56	6809
2026-01-21 18:23:47.74	293.35	6.18	-42.6	-43.8	20.7	0.00e+00	67	41	0	1123024896	56	7076
2026-01-21 18:23:48.75	293.24	6.12	-42.6	-43.8	20.7	0.00e+00	9	41	0	1125122048	56	7072
2026-01-21 18:23:49.76	293.13	6.07	-42.5	-43.8	20.8	0.00e+00	92	41	0	1126170624	56	7017
2026-01-21 18:23:50.77	293.03	6.01	-42.5	-43.8	20.8	0.00e+00	72	41	0	1128267776	56	7026
2026-01-21 18:23:51.78	292.92	5.95	-42.4	-43.6	20.8	0.00e+00	92	41	0	1130364928	56	6925
2026-01-21 18:23:52.79	292.82	5.90	-42.7	-44.0	20.5	0.00e+00	8	41	0	1132462080	56	7201
2026-01-21 18:23:53.80	292.71	5.84	-42.7	-44.0	20.5	0.00e+00	8	41	0	1134559232	58	6430
2026-01-21 18:23:54.81	292.61	5.79	-42.5	-43.8	20.7	0.00e+00	0	41	0	1135607808	58	6273
2026-01-21 18:23:55.82	292.50	5.73	-42.7	-44.0	20.4	0.00e+00	2	41	0	1137704960	58	6414
2026-01-21 18:23:56.83	292.40	5.68	-43.2	-44.6	19.9	0.00e+00	92	41	0	1139802112	58	6916
2026-01-21 18:23:57.84	292.30	5.62	-43.2	-44.5	20.1	0.00e+00	0	41	0	1141899264	58	6840
2026-01-21 18:23:58.85	292.19	5.57	-43.0	-44.3	20.2	0.00e+00	92	41	0	1143996416	58	6680
2026-01-21 18:23:59.87	292.09	5.51	-42.7	-44.0	20.4	0.00e+00	0	41	0	1145044992	58	6457
2026-01-21 18:24:00.88	291.99	5.46	-42.9	-44.2	20.2	0.00e+00	0	41	0	1147142144	58	6597
2026-01-21 18:24:01.89	291.89	5.40	-42.8	-44.1	20.3	0.00e+00	0	41	0	1149239296	58	6493
2026-01-21 18:24:02.90	291.79	5.34	-42.9	-44.3	20.1	0.00e+00	0	41	0	1151336448	58	6632
2026-01-21 18:24:03.90	291.69	5.29	-43.0	-44.4	20.0	0.00e+00	91	41	0	1153433600	58	6714
2026-01-21 18:24:04.91	291.59	5.23	-43.1	-44.5	19.9	0.00e+00	0	41	0	1155530752	58	6806
2026-01-21 18:24:05.92	291.49	5.18	-43.4	-44.9	19.6	0.00e+00	90	41	0	1156579328	58	7111
2026-01-21 18:24:06.93	291.39	5.12	-43.5	-45.0	19.5	0.00e+00	72	41	0	1158676480	58	7196
2026-01-21 18:24:07.94	291.29	5.07	-44.0	-45.6	18.6	0.00e+00	72	41	0	1160773632	60	6907
2026-01-21 18:24:08.95	291.19	5.01	-43.5	-45.0	19.6	0.00e+00	72	41	0	1162870784	60	6437
2026-01-21 18:24:09.96	291.09	4.96	-44.1	-45.7	18.7	0.00e+00	71	41	0	1164967936	60	6990
2026-01-21 18:24:10.97	290.99	4.90	-43.3	-44.7	19.6	0.00e+00	15	41	0	1166016512	60	6220
2026-01-21 18:24:11.97	290.89	4.85	-43.8	-45.4	19.1	0.00e+00	66	41	0	1168113664	60	6698
2026-01-21 18:24:12.98	290.80	4.80	-44.0	-45.6	18.8	0.00e+00	91	41	0	1170210816	60	6888
2026-01-21 18:24:13.99	290.70	4.74	-43.7	-45.3	19.2	0.00e+00	13	41	0	1172307968	60	6644
2026-01-21 18:24:15.00	290.60	4.69	-43.8	-45.4	19.0	0.00e+00	92	41	0	1174405120	60	6757
2026-01-21 18:24:16.01	290.51	4.63	-43.8	-45.4	19.1	0.00e+00	15	41	0	1175453696	60	6700
2026-01-21 18:24:17.02	290.41	4.58	-43.9	-45.5	18.9	0.00e+00	2	41	0	1177550848	60	6812
2026-01-21 18:24:18.03	290.32	4.52	-44.1	-45.8	18.7	0.00e+00	15	41	0	1179648000	60	7049
2026-01-21 18:24:19.04	290.22	4.47	-43.9	-45.5	18.8	0.00e+00	0	41	0	1181745152	60	6802
2026-01-21 18:24:20.05	290.13	4.41	-43.5	-45.0	19.5	0.00e+00	90	41	0	1183842304	60	6414
2026-01-21 18:24:21.06	290.03	4.36	-43.5	-45.0	19.3	0.00e+00	0	41	0	1184890880	60	6441
2026-01-21 18:24:22.07	289.94	4.30	-43.6	-45.1	19.3	0.00e+00	91	41	0	1186988032	60	6498
2026-01-21 18:24:23.08	289.84	4.25	-43.6	-45.2	19.2	0.00e+00	0	41	0	1189085184	60	6542
