passes_logs/2026/01/21/R4.6S_Anadyr/R4.6S_Anadyr__20260121_224751_SUOMI_NPP_rec.log

#Pass ID: 20260121_224751_SUOMI NPP
#Satellite: SUOMI NPP
#Configuration: NPP
#almurnet v.1.7.20251203
#Start time: 2026-01-21 22:47:53

#Version: 2.2.20231116
#Station: R4.6S_Anadyr
#Location: 177.4865 lon 64.73178 lat
#TLE: 1 37849U 11061A   26020.95430537  .00000198  00000+0  11470-3 0  9999
#TLE: 2 37849  98.7819 322.9518 0002315  53.3069 306.8320 14.19527555737555

#Time	Az	El	Level	Level2	SNR	BER	BlckErr	Temp	State	Recorded	gain1	gain2
2026-01-21 22:47:53.20	119.80	0.11	-51.0	-63.6	3.4	1.52e+00	0	39	0	0	60	53155
2026-01-21 22:47:54.21	119.77	0.17	-52.1	-67.4	3.6	1.51e+00	0	40	104	0	60	84389
2026-01-21 22:47:55.22	119.73	0.23	-51.6	-66.9	3.6	1.51e+00	0	40	104	0	60	79583
2026-01-21 22:47:56.23	119.69	0.29	-51.3	-66.5	3.6	1.51e+00	0	40	104	0	60	76592
2026-01-21 22:47:57.23	119.66	0.34	-51.1	-66.3	3.6	1.51e+00	0	40	104	0	60	74462
2026-01-21 22:47:58.25	119.62	0.40	-51.0	-66.2	3.6	1.51e+00	0	40	104	0	60	73933
2026-01-21 22:47:59.26	119.58	0.46	-51.0	-66.2	3.6	1.51e+00	0	40	104	0	60	73876
2026-01-21 22:48:00.27	119.55	0.52	-50.8	-66.2	3.6	1.51e+00	0	40	104	0	60	73485
2026-01-21 22:48:01.28	119.51	0.58	-50.9	-66.1	3.6	1.51e+00	0	40	104	0	60	72861
2026-01-21 22:48:02.29	119.47	0.64	-50.8	-66.1	3.6	1.51e+00	0	40	104	0	60	72576
2026-01-21 22:48:03.30	119.43	0.70	-50.8	-66.0	3.6	1.51e+00	0	40	104	0	60	72166
2026-01-21 22:48:04.31	119.39	0.76	-50.8	-66.1	3.6	1.51e+00	0	40	104	0	60	72668
2026-01-21 22:48:05.32	119.36	0.82	-50.8	-66.0	3.6	1.51e+00	0	40	104	0	60	72359
2026-01-21 22:48:06.33	119.32	0.88	-50.9	-66.0	3.6	1.51e+00	0	40	104	0	60	72528
2026-01-21 22:48:07.34	119.28	0.94	-50.8	-66.0	3.6	1.51e+00	0	40	104	0	60	72356
2026-01-21 22:48:08.35	119.24	1.00	-50.7	-65.9	3.6	1.51e+00	0	40	104	0	60	71388
2026-01-21 22:48:09.36	119.20	1.06	-50.7	-65.9	3.6	1.51e+00	0	40	104	0	60	71278
2026-01-21 22:48:10.37	119.16	1.12	-50.2	-65.8	3.6	1.51e+00	0	40	104	0	60	70773
2026-01-21 22:48:11.38	119.12	1.18	-50.5	-65.8	3.6	1.51e+00	0	40	104	0	60	70472
2026-01-21 22:48:12.39	119.08	1.24	-50.4	-65.7	3.6	1.51e+00	0	40	104	0	60	69414
2026-01-21 22:48:13.40	119.05	1.30	-50.0	-65.4	3.6	1.51e+00	0	40	104	0	60	67614
2026-01-21 22:48:14.40	119.01	1.36	-50.1	-65.5	3.6	1.51e+00	0	40	104	0	60	68060
2026-01-21 22:48:15.41	118.97	1.42	-50.0	-65.4	3.6	1.51e+00	0	40	104	0	60	67199
2026-01-21 22:48:16.42	118.93	1.48	-49.7	-65.2	3.6	1.51e+00	0	40	104	0	60	65583
2026-01-21 22:48:17.44	118.89	1.54	-49.3	-64.6	3.6	1.51e+00	0	40	104	0	60	61279
2026-01-21 22:48:18.45	118.84	1.60	-48.9	-64.5	3.6	1.51e+00	0	40	104	0	60	60437
2026-01-21 22:48:19.46	118.80	1.66	-48.9	-64.5	3.6	1.51e+00	0	40	104	0	60	60733
2026-01-21 22:48:20.47	118.76	1.73	-48.9	-64.5	3.6	1.51e+00	0	40	104	0	60	60648
2026-01-21 22:48:21.48	118.72	1.79	-48.9	-64.5	3.6	1.51e+00	0	40	104	0	60	60920
2026-01-21 22:48:22.48	118.68	1.85	-48.8	-64.5	3.6	1.51e+00	0	40	104	0	60	60741
2026-01-21 22:48:23.49	118.64	1.91	-48.9	-64.5	3.6	1.51e+00	0	40	104	0	60	60453
2026-01-21 22:48:24.50	118.60	1.97	-48.9	-64.5	3.6	1.51e+00	0	40	104	0	60	60871
2026-01-21 22:48:25.51	118.56	2.03	-48.9	-64.5	3.6	1.51e+00	0	40	104	0	60	60414
2026-01-21 22:48:26.52	118.52	2.10	-48.9	-64.4	3.6	1.51e+00	0	40	104	0	60	60165
2026-01-21 22:48:27.53	118.47	2.16	-48.9	-64.4	3.6	1.51e+00	0	40	104	0	60	59792
2026-01-21 22:48:28.54	118.43	2.22	-48.9	-64.4	3.6	1.51e+00	0	40	104	0	60	59801
2026-01-21 22:48:29.56	118.39	2.28	-48.8	-64.3	3.6	1.51e+00	0	40	104	0	60	59483
2026-01-21 22:48:30.57	118.35	2.35	-48.8	-64.4	3.6	1.51e+00	0	40	104	0	60	59669
2026-01-21 22:48:31.58	118.30	2.41	-48.8	-64.4	3.6	1.51e+00	0	40	104	0	60	59792
2026-01-21 22:48:32.59	118.26	2.47	-48.8	-64.4	3.6	1.51e+00	0	40	104	0	60	59736
2026-01-21 22:48:33.60	118.22	2.53	-48.8	-64.4	3.6	1.51e+00	0	40	104	0	60	60163
2026-01-21 22:48:34.61	118.17	2.60	-48.9	-64.5	3.6	1.51e+00	0	40	104	0	60	60871
2026-01-21 22:48:35.62	118.13	2.66	-48.8	-64.5	3.6	1.51e+00	0	40	104	0	60	60696
2026-01-21 22:48:36.63	118.09	2.72	-48.9	-64.5	3.6	1.51e+00	0	40	104	0	60	60624
2026-01-21 22:48:37.64	118.04	2.79	-48.8	-64.4	3.5	1.51e+00	0	40	104	0	60	60332
2026-01-21 22:48:38.65	118.00	2.85	-48.8	-64.4	3.6	1.51e+00	0	40	104	0	60	60094
2026-01-21 22:48:39.66	117.95	2.91	-48.8	-64.3	3.6	1.51e+00	0	40	104	0	60	59452
2026-01-21 22:48:40.67	117.91	2.98	-48.8	-64.1	3.6	1.51e+00	0	40	104	0	60	58189
2026-01-21 22:48:41.68	117.86	3.04	-48.8	-63.9	3.6	1.51e+00	0	40	104	0	60	56774
2026-01-21 22:48:42.69	117.82	3.10	-48.8	-63.8	3.6	1.51e+00	0	40	104	0	60	55816
2026-01-21 22:48:43.70	117.77	3.17	-48.7	-63.5	3.6	1.51e+00	0	40	104	0	60	54330
2026-01-21 22:48:44.71	117.73	3.23	-48.7	-63.7	3.6	1.51e+00	0	40	104	0	60	55296
2026-01-21 22:48:45.72	117.68	3.30	-48.8	-64.2	3.6	1.51e+00	0	40	104	0	60	58724
2026-01-21 22:48:46.73	117.64	3.36	-48.8	-64.3	3.6	1.51e+00	0	40	104	0	60	59084
2026-01-21 22:48:47.74	117.59	3.43	-48.7	-62.9	3.6	1.51e+00	0	40	104	0	60	50511
2026-01-21 22:48:48.75	117.54	3.49	-48.6	-61.7	3.8	1.48e+00	0	40	104	0	60	43736
2026-01-21 22:48:49.76	117.50	3.56	-48.3	-57.4	6.5	1.17e+00	0	40	104	0	60	26841
2026-01-21 22:48:50.77	117.45	3.62	-47.7	-53.8	9.0	5.80e-02	91	40	0	1048576	60	17717
2026-01-21 22:48:51.78	117.40	3.69	-48.1	-63.0	3.6	7.39e-01	0	40	104	2097152	60	50843
2026-01-21 22:48:52.79	117.36	3.75	-47.7	-55.6	8.1	1.51e+00	91	40	104	2097152	60	21779
2026-01-21 22:48:53.79	117.31	3.82	-48.4	-64.1	3.6	4.04e-01	0	40	104	2097152	60	58227
2026-01-21 22:48:54.81	117.26	3.88	-47.8	-63.8	3.6	1.51e+00	0	40	104	2097152	60	55835
2026-01-21 22:48:55.82	117.21	3.95	-45.9	-49.4	13.4	1.50e+00	92	40	104	2097152	60	10719
2026-01-21 22:48:56.82	117.17	4.01	-45.9	-49.3	14.2	6.80e-06	0	40	0	2097152	60	10581
2026-01-21 22:48:57.83	117.12	4.08	-45.9	-49.3	14.1	0.00e+00	72	40	0	4194304	60	10590
2026-01-21 22:48:58.84	117.07	4.15	-46.0	-49.6	13.7	7.00e-07	0	40	0	6291456	60	10951
2026-01-21 22:48:59.85	117.02	4.21	-45.5	-48.7	14.5	0.00e+00	92	40	0	8388608	60	9891
2026-01-21 22:49:00.86	116.97	4.28	-44.7	-47.3	16.1	0.00e+00	92	40	0	10485760	60	8399
2026-01-21 22:49:01.87	116.92	4.35	-44.4	-47.1	16.5	0.00e+00	0	40	0	11534336	60	8153
2026-01-21 22:49:02.88	116.87	4.41	-44.5	-47.2	16.3	0.00e+00	92	40	0	13631488	60	8255
2026-01-21 22:49:03.89	116.82	4.48	-44.5	-47.2	16.2	0.00e+00	0	40	0	15728640	60	8277
2026-01-21 22:49:04.90	116.77	4.55	-44.9	-47.9	15.9	7.00e-07	92	40	0	17825792	60	9001
2026-01-21 22:49:05.91	116.72	4.61	-44.1	-46.6	16.7	0.00e+00	0	40	0	19922944	60	7767
2026-01-21 22:49:06.92	116.67	4.68	-44.2	-46.7	16.9	0.00e+00	92	40	0	20971520	60	7816
2026-01-21 22:49:07.93	116.62	4.75	-43.7	-45.8	17.9	0.00e+00	92	40	0	23068672	60	7047
2026-01-21 22:49:08.94	116.57	4.82	-43.4	-45.4	18.0	0.00e+00	0	40	0	25165824	60	6739
2026-01-21 22:49:09.95	116.52	4.88	-43.6	-45.6	18.0	0.00e+00	92	40	0	27262976	60	6896
2026-01-21 22:49:10.96	116.47	4.95	-43.3	-45.2	18.2	0.00e+00	0	40	0	28311552	60	6555
2026-01-21 22:49:11.97	116.42	5.02	-43.2	-45.0	18.4	0.00e+00	92	40	0	30408704	60	6401
2026-01-21 22:49:12.98	116.36	5.09	-43.4	-45.1	18.3	0.00e+00	0	40	0	32505856	60	6489
2026-01-21 22:49:13.99	116.31	5.16	-43.6	-45.4	18.2	0.00e+00	91	40	0	34603008	60	6715
2026-01-21 22:49:15.00	116.26	5.23	-43.2	-44.8	18.6	0.00e+00	91	40	0	36700160	60	6301
2026-01-21 22:49:16.01	116.21	5.29	-43.6	-45.4	18.1	0.00e+00	91	40	0	38797312	60	6695
2026-01-21 22:49:17.02	116.15	5.36	-43.2	-44.9	18.8	0.00e+00	90	40	0	39845888	60	6326
2026-01-21 22:49:18.02	116.10	5.43	-43.2	-44.8	18.9	0.00e+00	0	40	0	41943040	60	6313
2026-01-21 22:49:19.03	116.05	5.50	-43.1	-44.7	19.1	0.00e+00	72	40	0	44040192	60	6233
2026-01-21 22:49:20.05	115.99	5.57	-43.3	-44.9	18.6	0.00e+00	0	40	0	46137344	60	6358
2026-01-21 22:49:21.06	115.94	5.64	-43.2	-44.8	19.0	0.00e+00	92	40	0	48234496	60	6297
2026-01-21 22:49:22.07	115.88	5.71	-43.1	-44.7	19.1	0.00e+00	21	40	0	49283072	60	6235
2026-01-21 22:49:23.08	115.83	5.78	-43.3	-45.0	18.7	0.00e+00	92	40	0	51380224	60	6462
2026-01-21 22:49:24.09	115.77	5.85	-43.8	-45.7	18.2	0.00e+00	92	40	0	53477376	60	6934
2026-01-21 22:49:25.10	115.72	5.92	-43.5	-45.4	18.4	0.00e+00	0	40	0	55574528	60	6693
2026-01-21 22:49:26.11	115.66	5.99	-43.7	-45.6	18.2	0.00e+00	70	40	0	57671680	60	6860
2026-01-21 22:49:27.12	115.61	6.06	-43.6	-45.6	18.3	0.00e+00	6	40	0	58720256	60	6862
2026-01-21 22:49:28.13	115.55	6.13	-43.2	-45.0	18.8	0.00e+00	90	40	0	60817408	60	6462
2026-01-21 22:49:29.14	115.50	6.20	-43.6	-45.5	18.4	0.00e+00	46	40	0	62914560	60	6780
2026-01-21 22:49:30.15	115.44	6.27	-42.8	-44.4	19.5	0.00e+00	92	40	0	65011712	60	6000
2026-01-21 22:49:31.16	115.38	6.34	-42.6	-44.2	19.4	0.00e+00	92	40	0	67108864	58	6571
2026-01-21 22:49:32.17	115.32	6.41	-42.5	-43.9	19.8	0.00e+00	0	40	0	68157440	58	6384
2026-01-21 22:49:33.18	115.27	6.49	-42.1	-43.6	20.0	0.00e+00	92	40	0	70254592	58	6106
2026-01-21 22:49:34.19	115.21	6.56	-42.5	-44.0	19.6	0.00e+00	0	40	0	72351744	58	6443
2026-01-21 22:49:35.19	115.15	6.63	-42.2	-43.7	19.9	0.00e+00	92	40	0	74448896	58	6180
2026-01-21 22:49:36.20	115.09	6.70	-42.5	-44.1	19.6	0.00e+00	8	40	0	76546048	58	6484
2026-01-21 22:49:37.21	115.03	6.77	-42.8	-44.4	19.2	0.00e+00	92	40	0	78643200	58	6743
2026-01-21 22:49:38.22	114.98	6.84	-42.7	-44.2	19.6	0.00e+00	92	40	0	79691776	58	6585
2026-01-21 22:49:39.23	114.92	6.92	-42.9	-44.5	19.3	0.00e+00	0	40	0	81788928	58	6802
2026-01-21 22:49:40.24	114.86	6.99	-43.0	-44.6	19.3	0.00e+00	90	40	0	83886080	58	6849
2026-01-21 22:49:41.25	114.80	7.06	-42.9	-44.4	19.3	0.00e+00	0	40	0	85983232	58	6750
2026-01-21 22:49:42.26	114.74	7.14	-42.9	-44.5	19.2	0.00e+00	90	40	0	88080384	58	6776
2026-01-21 22:49:43.27	114.68	7.21	-42.6	-44.0	19.8	0.00e+00	0	40	0	89128960	58	6444
2026-01-21 22:49:44.28	114.61	7.28	-42.1	-43.4	20.3	0.00e+00	92	40	0	91226112	58	6018
2026-01-21 22:49:45.29	114.55	7.36	-42.1	-43.4	20.3	0.00e+00	92	40	0	93323264	58	5987
2026-01-21 22:49:46.30	114.49	7.43	-41.6	-42.8	21.0	0.00e+00	38	40	0	95420416	56	6263
2026-01-21 22:49:47.31	114.43	7.50	-42.1	-43.4	20.4	0.00e+00	92	40	0	96468992	56	6699
2026-01-21 22:49:48.32	114.37	7.58	-41.6	-42.8	20.9	0.00e+00	0	40	0	98566144	56	6315
2026-01-21 22:49:49.32	114.31	7.65	-41.9	-43.2	20.4	0.00e+00	92	40	0	100663296	56	6563
2026-01-21 22:49:50.33	114.24	7.73	-42.2	-43.6	20.1	0.00e+00	0	41	0	102760448	56	6849
2026-01-21 22:49:51.34	114.18	7.80	-42.7	-44.3	19.5	0.00e+00	91	41	0	104857600	56	7425
2026-01-21 22:49:52.35	114.12	7.88	-42.6	-44.2	19.7	0.00e+00	8	40	0	106954752	58	6552
2026-01-21 22:49:53.36	114.05	7.95	-42.4	-44.0	19.8	0.00e+00	92	40	0	108003328	58	6398
2026-01-21 22:49:54.37	113.99	8.03	-41.9	-43.3	20.4	0.00e+00	90	40	0	110100480	58	5950
2026-01-21 22:49:55.38	113.92	8.10	-42.1	-43.5	20.3	0.00e+00	0	40	0	112197632	58	6089
2026-01-21 22:49:56.39	113.86	8.18	-42.1	-43.5	20.4	0.00e+00	90	40	0	114294784	58	6042
2026-01-21 22:49:57.40	113.79	8.25	-41.8	-43.1	20.7	0.00e+00	0	40	0	116391936	56	6491
2026-01-21 22:49:58.41	113.73	8.33	-41.9	-43.2	20.6	0.00e+00	91	40	0	117440512	56	6575
2026-01-21 22:49:59.42	113.66	8.40	-41.5	-42.7	21.0	0.00e+00	92	40	0	119537664	56	6222
2026-01-21 22:50:00.43	113.60	8.48	-41.7	-43.0	20.8	0.00e+00	90	40	0	121634816	56	6430
2026-01-21 22:50:01.43	113.53	8.56	-41.8	-43.0	20.8	0.00e+00	91	40	0	123731968	56	6447
2026-01-21 22:50:02.44	113.46	8.63	-41.8	-43.1	20.6	0.00e+00	0	40	0	125829120	56	6479
2026-01-21 22:50:03.45	113.39	8.71	-42.2	-43.5	20.4	0.00e+00	91	41	0	126877696	56	6835
2026-01-21 22:50:04.46	113.33	8.79	-42.3	-43.6	20.3	0.00e+00	0	40	0	128974848	56	6910
2026-01-21 22:50:05.47	113.26	8.86	-42.5	-43.9	20.0	0.00e+00	92	40	0	131072000	56	7162
2026-01-21 22:50:06.48	113.19	8.94	-42.3	-43.6	20.2	0.00e+00	3	41	0	133169152	56	6916
2026-01-21 22:50:07.49	113.12	9.02	-42.3	-43.6	20.3	0.00e+00	92	41	0	135266304	56	6918
2026-01-21 22:50:08.50	113.05	9.10	-42.3	-43.7	20.3	0.00e+00	91	40	0	136314880	56	6972
2026-01-21 22:50:09.51	112.98	9.18	-42.2	-43.6	20.3	0.00e+00	1	40	0	138412032	56	6887
2026-01-21 22:50:10.52	112.91	9.25	-42.0	-43.4	20.5	0.00e+00	77	40	0	140509184	56	6694
2026-01-21 22:50:11.53	112.84	9.33	-42.0	-43.4	20.6	0.00e+00	0	41	0	142606336	56	6713
2026-01-21 22:50:12.54	112.77	9.41	-42.2	-43.6	20.3	0.00e+00	92	40	0	144703488	56	6898
2026-01-21 22:50:13.54	112.70	9.49	-41.9	-43.2	20.7	0.00e+00	0	40	0	145752064	56	6576
2026-01-21 22:50:14.55	112.63	9.57	-42.3	-43.6	20.3	0.00e+00	90	40	0	147849216	56	6886
2026-01-21 22:50:15.56	112.56	9.65	-42.4	-43.8	20.2	0.00e+00	92	40	0	149946368	56	7039
2026-01-21 22:50:16.57	112.48	9.73	-42.6	-44.0	20.0	0.00e+00	0	41	0	152043520	56	7242
2026-01-21 22:50:17.58	112.41	9.81	-43.2	-44.7	19.3	0.00e+00	92	40	0	154140672	58	7006
2026-01-21 22:50:18.59	112.34	9.89	-42.9	-44.3	19.6	0.00e+00	0	40	0	155189248	58	6673
2026-01-21 22:50:19.60	112.26	9.97	-42.7	-44.2	19.8	0.00e+00	91	41	0	157286400	58	6560
2026-01-21 22:50:20.61	112.19	10.05	-42.4	-43.8	20.2	0.00e+00	0	40	0	159383552	58	6277
2026-01-21 22:50:21.62	112.11	10.13	-41.9	-43.3	20.6	0.00e+00	90	40	0	161480704	58	5904
2026-01-21 22:50:22.63	112.04	10.21	-41.3	-42.7	21.0	0.00e+00	91	41	0	163577856	56	6235
2026-01-21 22:50:23.64	111.96	10.29	-41.2	-42.8	21.0	0.00e+00	58	41	0	164626432	56	6259
2026-01-21 22:50:24.65	111.89	10.37	-41.7	-43.5	20.4	0.00e+00	92	41	0	166723584	56	6805
2026-01-21 22:50:25.66	111.81	10.45	-41.3	-43.0	20.9	0.00e+00	11	41	0	168820736	56	6402
2026-01-21 22:50:26.67	111.73	10.53	-41.6	-43.2	20.6	0.00e+00	90	41	0	170917888	56	6562
2026-01-21 22:50:27.68	111.66	10.62	-41.8	-43.3	20.6	0.00e+00	0	41	0	173015040	56	6628
2026-01-21 22:50:28.68	111.58	10.70	-42.0	-43.4	20.5	0.00e+00	91	41	0	175112192	56	6734
2026-01-21 22:50:29.69	111.50	10.78	-41.8	-43.1	20.8	0.00e+00	4	41	0	176160768	56	6478
2026-01-21 22:50:30.70	111.42	10.86	-42.0	-43.3	20.5	0.00e+00	92	41	0	178257920	56	6636
2026-01-21 22:50:31.71	111.34	10.95	-41.1	-42.2	21.5	0.00e+00	92	41	0	180355072	56	5877
2026-01-21 22:50:32.72	111.27	11.03	-40.7	-41.8	21.9	0.00e+00	0	41	0	182452224	54	6263
2026-01-21 22:50:33.73	111.19	11.11	-40.8	-41.9	21.8	0.00e+00	77	41	0	184549376	54	6360
2026-01-21 22:50:34.74	111.10	11.20	-40.4	-41.5	22.1	0.00e+00	0	41	0	185597952	54	6079
2026-01-21 22:50:35.74	111.02	11.28	-40.7	-41.9	21.8	0.00e+00	92	41	0	187695104	54	6319
2026-01-21 22:50:36.75	110.94	11.36	-41.0	-42.1	21.7	0.00e+00	6	41	0	189792256	54	6532
2026-01-21 22:50:37.76	110.86	11.45	-41.1	-42.3	21.5	0.00e+00	90	41	0	191889408	54	6669
2026-01-21 22:50:38.77	110.78	11.53	-41.0	-42.2	21.6	0.00e+00	92	41	0	193986560	54	6551
2026-01-21 22:50:39.78	110.70	11.62	-41.0	-42.2	21.5	0.00e+00	0	41	0	195035136	54	6576
2026-01-21 22:50:40.79	110.61	11.70	-40.8	-41.9	21.8	0.00e+00	63	41	0	197132288	54	6385
2026-01-21 22:50:41.80	110.53	11.79	-40.6	-41.8	21.8	0.00e+00	0	41	0	199229440	54	6253
2026-01-21 22:50:42.81	110.44	11.87	-40.4	-41.6	22.2	0.00e+00	92	41	0	201326592	54	6105
2026-01-21 22:50:43.82	110.36	11.96	-40.3	-41.4	22.3	0.00e+00	9	41	0	203423744	54	5996
2026-01-21 22:50:44.83	110.27	12.04	-40.3	-41.3	22.3	0.00e+00	92	41	0	204472320	54	5937
2026-01-21 22:50:45.84	110.19	12.13	-40.4	-41.5	22.1	0.00e+00	92	41	0	206569472	54	6054
2026-01-21 22:50:46.85	110.10	12.21	-40.7	-41.8	21.7	0.00e+00	0	41	0	208666624	54	6306
2026-01-21 22:50:47.86	110.01	12.30	-40.8	-41.9	21.6	0.00e+00	90	41	0	210763776	54	6389
2026-01-21 22:50:48.87	109.93	12.39	-41.3	-42.5	21.2	0.00e+00	0	41	0	212860928	54	6806
2026-01-21 22:50:49.88	109.84	12.47	-41.5	-42.7	21.0	0.00e+00	92	41	0	213909504	54	6956
2026-01-21 22:50:50.89	109.75	12.56	-41.1	-42.3	21.4	0.00e+00	0	41	0	216006656	54	6635
2026-01-21 22:50:51.90	109.66	12.65	-41.2	-42.3	21.4	0.00e+00	92	41	0	218103808	54	6687
2026-01-21 22:50:52.91	109.57	12.74	-40.9	-42.0	21.6	0.00e+00	90	41	0	220200960	54	6455
2026-01-21 22:50:53.92	109.48	12.83	-40.9	-42.0	21.8	0.00e+00	0	41	0	222298112	54	6399
2026-01-21 22:50:54.92	109.39	12.91	-41.0	-42.0	21.8	0.00e+00	91	41	0	223346688	54	6462
2026-01-21 22:50:55.93	109.30	13.00	-40.9	-41.9	21.9	0.00e+00	0	41	0	225443840	54	6382
2026-01-21 22:50:56.94	109.21	13.09	-40.8	-41.9	21.9	0.00e+00	91	41	0	227540992	54	6356
2026-01-21 22:50:57.95	109.12	13.18	-41.1	-42.2	21.7	0.00e+00	0	41	0	229638144	54	6571
2026-01-21 22:50:58.96	109.02	13.27	-41.3	-42.5	21.3	0.00e+00	91	41	0	231735296	54	6797
2026-01-21 22:50:59.97	108.93	13.36	-41.4	-42.6	21.4	0.00e+00	51	41	0	232783872	54	6861
2026-01-21 22:51:00.98	108.84	13.45	-41.2	-42.4	21.4	0.00e+00	90	41	0	234881024	54	6719
2026-01-21 22:51:01.99	108.74	13.54	-41.2	-42.4	21.5	0.00e+00	92	41	0	236978176	54	6705
2026-01-21 22:51:03.00	108.64	13.63	-41.2	-42.4	21.4	0.00e+00	0	41	0	239075328	54	6699
2026-01-21 22:51:04.01	108.55	13.72	-40.9	-42.0	21.7	0.00e+00	68	41	0	241172480	54	6435
2026-01-21 22:51:05.02	108.45	13.81	-41.0	-42.2	21.6	0.00e+00	0	41	0	243269632	54	6558
2026-01-21 22:51:06.03	108.36	13.90	-41.3	-42.5	21.4	0.00e+00	75	41	0	244318208	54	6792
2026-01-21 22:51:07.04	108.26	13.99	-41.3	-42.5	21.5	0.00e+00	0	41	0	246415360	54	6784
2026-01-21 22:51:08.05	108.16	14.08	-41.3	-42.5	21.3	0.00e+00	92	41	0	248512512	54	6830
2026-01-21 22:51:09.06	108.06	14.17	-41.3	-42.5	21.3	0.00e+00	92	41	0	250609664	54	6827
2026-01-21 22:51:10.07	107.96	14.27	-41.5	-42.7	21.2	0.00e+00	0	41	0	252706816	54	6961
2026-01-21 22:51:11.08	107.86	14.36	-41.3	-42.5	21.6	0.00e+00	92	41	0	253755392	54	6777
2026-01-21 22:51:12.09	107.76	14.45	-40.9	-42.0	22.0	0.00e+00	0	41	0	255852544	54	6399
2026-01-21 22:51:13.09	107.66	14.54	-41.0	-42.2	21.8	0.00e+00	92	41	0	257949696	54	6545
2026-01-21 22:51:14.10	107.56	14.64	-41.0	-42.1	21.8	0.00e+00	9	41	0	260046848	54	6525
2026-01-21 22:51:15.11	107.45	14.73	-40.8	-42.0	22.0	0.00e+00	89	41	0	262144000	54	6396
2026-01-21 22:51:16.12	107.35	14.82	-40.8	-42.0	21.9	0.00e+00	90	41	0	263192576	54	6405
2026-01-21 22:51:17.13	107.24	14.92	-40.8	-41.9	22.0	0.00e+00	9	41	0	265289728	54	6372
2026-01-21 22:51:18.14	107.14	15.01	-40.5	-41.7	22.1	0.00e+00	39	41	0	267386880	54	6182
2026-01-21 22:51:19.15	107.03	15.10	-40.4	-41.5	22.1	0.00e+00	0	41	0	269484032	54	6101
2026-01-21 22:51:20.16	106.93	15.20	-40.5	-41.7	22.1	0.00e+00	90	41	0	271581184	54	6210
2026-01-21 22:51:21.17	106.82	15.29	-40.5	-41.6	22.2	0.00e+00	11	41	0	272629760	54	6133
2026-01-21 22:51:22.18	106.71	15.39	-40.2	-41.2	22.5	0.00e+00	92	41	0	274726912	54	5883
2026-01-21 22:51:23.19	106.60	15.49	-40.1	-41.2	22.6	0.00e+00	92	41	0	276824064	54	5830
2026-01-21 22:51:24.20	106.50	15.58	-40.2	-41.2	22.6	0.00e+00	24	41	0	278921216	54	5831
2026-01-21 22:51:25.21	106.39	15.68	-40.0	-41.0	22.9	0.00e+00	48	41	0	281018368	54	5705
2026-01-21 22:51:26.22	106.28	15.77	-39.6	-40.5	23.2	0.00e+00	0	41	0	282066944	52	6062
2026-01-21 22:51:27.22	106.17	15.87	-39.9	-40.9	22.8	0.00e+00	92	41	0	284164096	52	6335
2026-01-21 22:51:28.23	106.05	15.97	-39.7	-40.6	22.9	0.00e+00	0	41	0	286261248	52	6163
2026-01-21 22:51:29.24	105.94	16.06	-40.1	-41.1	22.7	0.00e+00	92	41	0	288358400	52	6470
2026-01-21 22:51:30.26	105.83	16.16	-40.3	-41.3	22.4	0.00e+00	90	41	0	290455552	52	6663
2026-01-21 22:51:31.27	105.71	16.26	-40.2	-41.2	22.6	0.00e+00	0	41	0	291504128	52	6613
2026-01-21 22:51:32.28	105.60	16.36	-40.3	-41.3	22.5	0.00e+00	92	41	0	293601280	52	6623
2026-01-21 22:51:33.29	105.48	16.45	-40.3	-41.3	22.7	0.00e+00	0	41	0	295698432	52	6659
2026-01-21 22:51:34.30	105.36	16.55	-40.1	-41.0	22.7	0.00e+00	92	41	0	297795584	52	6440
2026-01-21 22:51:35.31	105.25	16.65	-40.0	-41.0	22.8	0.00e+00	0	41	0	299892736	52	6417
2026-01-21 22:51:36.32	105.13	16.75	-40.2	-41.1	22.6	0.00e+00	92	41	0	300941312	52	6512
2026-01-21 22:51:37.32	105.01	16.85	-40.3	-41.3	22.5	0.00e+00	0	41	0	303038464	52	6675
2026-01-21 22:51:38.34	104.89	16.95	-40.6	-41.7	22.1	0.00e+00	45	41	0	305135616	52	6931
2026-01-21 22:51:39.34	104.77	17.05	-40.7	-41.8	22.1	0.00e+00	92	41	0	307232768	54	6285
2026-01-21 22:51:40.35	104.65	17.15	-40.6	-41.7	22.0	0.00e+00	0	41	0	309329920	54	6232
2026-01-21 22:51:41.36	104.53	17.25	-40.6	-41.7	22.0	0.00e+00	92	41	0	311427072	54	6235
2026-01-21 22:51:42.37	104.40	17.35	-40.8	-42.0	21.8	0.00e+00	0	41	0	312475648	54	6458
2026-01-21 22:51:43.38	104.28	17.45	-40.3	-41.4	22.1	0.00e+00	92	41	0	314572800	54	6002
2026-01-21 22:51:44.39	104.15	17.55	-40.3	-41.3	22.4	0.00e+00	6	41	0	316669952	54	5939
2026-01-21 22:51:45.40	104.03	17.65	-40.4	-41.4	22.4	0.00e+00	90	41	0	318767104	54	6018
2026-01-21 22:51:46.41	103.90	17.75	-40.7	-41.7	22.2	0.00e+00	92	41	0	319815680	54	6243
2026-01-21 22:51:47.42	103.78	17.86	-40.4	-41.4	22.5	0.00e+00	0	41	0	321912832	54	5976
2026-01-21 22:51:48.43	103.65	17.96	-40.3	-41.3	22.6	0.00e+00	92	41	0	324009984	54	5953
2026-01-21 22:51:49.44	103.52	18.06	-40.2	-41.2	22.7	0.00e+00	0	41	0	326107136	54	5861
2026-01-21 22:51:50.45	103.39	18.16	-40.2	-41.2	22.6	0.00e+00	92	41	0	328204288	54	5858
2026-01-21 22:51:51.46	103.26	18.27	-40.4	-41.4	22.5	0.00e+00	0	41	0	330301440	54	5974
2026-01-21 22:51:52.47	103.12	18.37	-40.5	-41.5	22.4	0.00e+00	91	41	0	331350016	54	6065
2026-01-21 22:51:53.48	102.99	18.47	-40.5	-41.6	22.5	0.00e+00	92	41	0	333447168	54	6106
2026-01-21 22:51:54.49	102.86	18.58	-40.9	-42.0	22.1	0.00e+00	0	41	0	335544320	54	6464
2026-01-21 22:51:55.50	102.72	18.68	-40.8	-41.9	22.1	0.00e+00	63	41	0	337641472	54	6328
2026-01-21 22:51:56.51	102.59	18.79	-40.9	-42.0	22.1	0.00e+00	0	41	0	339738624	54	6395
2026-01-21 22:51:57.52	102.45	18.89	-41.4	-42.5	21.5	0.00e+00	92	41	0	340787200	54	6822
2026-01-21 22:51:58.53	102.31	19.00	-41.6	-42.8	21.4	0.00e+00	0	41	0	342884352	54	7023
2026-01-21 22:51:59.54	102.18	19.10	-41.4	-42.5	21.5	0.00e+00	91	41	0	344981504	54	6828
2026-01-21 22:52:00.55	102.04	19.21	-41.2	-42.4	21.6	0.00e+00	59	41	0	347078656	54	6703
2026-01-21 22:52:01.56	101.90	19.31	-41.0	-42.1	21.9	0.00e+00	0	41	0	349175808	54	6516
2026-01-21 22:52:02.57	101.75	19.42	-41.2	-42.3	21.8	0.00e+00	91	41	0	350224384	54	6634
2026-01-21 22:52:03.58	101.61	19.53	-41.2	-42.3	21.8	0.00e+00	0	41	0	352321536	54	6623
2026-01-21 22:52:04.59	101.47	19.63	-41.0	-42.1	22.0	0.00e+00	88	41	0	354418688	54	6480
2026-01-21 22:52:05.60	101.32	19.74	-41.0	-42.1	22.0	0.00e+00	0	41	0	356515840	54	6511
2026-01-21 22:52:06.61	101.18	19.85	-41.1	-42.2	21.9	0.00e+00	92	41	0	358612992	54	6562
2026-01-21 22:52:07.62	101.03	19.95	-41.2	-42.3	21.6	0.00e+00	36	41	0	359661568	54	6674
2026-01-21 22:52:08.63	100.89	20.06	-41.1	-42.2	21.9	0.00e+00	0	41	0	361758720	54	6601
2026-01-21 22:52:09.63	100.74	20.17	-41.2	-42.3	21.7	0.00e+00	91	41	0	363855872	54	6655
2026-01-21 22:52:10.64	100.59	20.28	-41.4	-42.6	21.6	0.00e+00	0	41	0	365953024	56	6108
2026-01-21 22:52:11.65	100.44	20.38	-41.5	-42.7	21.6	0.00e+00	80	41	0	368050176	56	6204
2026-01-21 22:52:12.66	100.29	20.49	-41.4	-42.5	21.4	0.00e+00	0	41	0	369098752	56	6099
2026-01-21 22:52:13.67	100.13	20.60	-41.3	-42.4	21.7	0.00e+00	92	41	0	371195904	56	5982
2026-01-21 22:52:14.68	99.98	20.71	-41.1	-42.2	22.0	0.00e+00	9	41	0	373293056	56	5862
2026-01-21 22:52:15.69	99.82	20.82	-41.4	-42.5	21.6	0.00e+00	92	41	0	375390208	56	6078
2026-01-21 22:52:16.69	99.67	20.93	-41.1	-42.1	22.2	0.00e+00	92	41	0	377487360	56	5784
2026-01-21 22:52:17.70	99.51	21.04	-40.9	-41.9	22.0	0.00e+00	0	41	0	378535936	56	5693
2026-01-21 22:52:18.71	99.35	21.15	-41.4	-42.5	21.6	0.00e+00	73	41	0	380633088	56	6068
2026-01-21 22:52:19.72	99.19	21.26	-41.5	-42.6	21.7	0.00e+00	0	41	0	382730240	56	6116
2026-01-21 22:52:20.73	99.03	21.37	-41.8	-42.9	21.6	0.00e+00	92	41	0	384827392	56	6365
2026-01-21 22:52:21.74	98.87	21.48	-41.5	-42.5	21.6	0.00e+00	10	41	0	386924544	56	6102
2026-01-21 22:52:22.75	98.71	21.59	-41.5	-42.6	21.7	0.00e+00	92	41	0	387973120	56	6127
2026-01-21 22:52:23.76	98.54	21.70	-41.4	-42.5	21.8	0.00e+00	92	41	0	390070272	56	6081
2026-01-21 22:52:24.77	98.38	21.82	-41.1	-42.1	21.9	0.00e+00	0	41	0	392167424	56	5822
2026-01-21 22:52:25.77	98.21	21.93	-41.5	-42.7	21.9	0.00e+00	92	41	0	394264576	56	6190
2026-01-21 22:52:26.78	98.04	22.04	-41.0	-42.1	22.0	0.00e+00	0	41	0	396361728	56	5791
2026-01-21 22:52:27.79	97.87	22.15	-41.2	-42.2	22.0	0.00e+00	92	41	0	397410304	56	5877
2026-01-21 22:52:28.80	97.70	22.26	-40.3	-41.3	22.6	0.00e+00	0	41	0	399507456	54	5942
2026-01-21 22:52:29.81	97.53	22.38	-40.1	-41.0	22.8	0.00e+00	92	41	0	401604608	54	5730
2026-01-21 22:52:30.82	97.36	22.49	-40.3	-41.2	22.8	0.00e+00	90	41	0	403701760	54	5875
2026-01-21 22:52:31.83	97.19	22.60	-40.5	-41.6	22.5	0.00e+00	0	41	0	405798912	54	6108
2026-01-21 22:52:32.84	97.01	22.72	-40.7	-41.8	22.2	0.00e+00	92	41	0	407896064	54	6284
2026-01-21 22:52:33.85	96.83	22.83	-41.0	-42.1	22.2	0.00e+00	0	41	0	408944640	54	6480
2026-01-21 22:52:34.86	96.65	22.94	-40.5	-41.5	22.4	0.00e+00	92	41	0	411041792	54	6090
2026-01-21 22:52:35.86	96.48	23.06	-40.7	-41.8	22.3	0.00e+00	0	41	0	413138944	54	6271
2026-01-21 22:52:36.87	96.30	23.17	-40.7	-41.8	22.2	0.00e+00	92	41	0	415236096	54	6262
2026-01-21 22:52:37.88	96.11	23.28	-40.7	-41.7	22.4	0.00e+00	92	41	0	417333248	54	6210
2026-01-21 22:52:38.89	95.93	23.40	-40.7	-41.7	22.3	0.00e+00	0	41	0	418381824	54	6219
2026-01-21 22:52:39.90	95.75	23.51	-41.3	-42.4	21.8	0.00e+00	90	41	0	420478976	54	6708
2026-01-21 22:52:40.91	95.56	23.63	-41.3	-42.4	21.7	0.00e+00	0	41	0	422576128	54	6715
2026-01-21 22:52:41.92	95.37	23.74	-41.5	-42.7	21.6	0.00e+00	92	41	0	424673280	54	6975
2026-01-21 22:52:42.93	95.18	23.86	-41.8	-42.9	21.4	0.00e+00	0	41	0	426770432	56	6385
2026-01-21 22:52:43.94	94.99	23.98	-41.6	-42.8	21.6	0.00e+00	90	41	0	427819008	56	6257
2026-01-21 22:52:44.95	94.80	24.09	-42.2	-43.4	21.0	0.00e+00	92	41	0	429916160	56	6709
2026-01-21 22:52:45.96	94.61	24.21	-42.1	-43.4	21.0	0.00e+00	15	41	0	432013312	56	6694
2026-01-21 22:52:46.97	94.41	24.32	-42.2	-43.4	20.9	0.00e+00	92	41	0	434110464	56	6741
2026-01-21 22:52:47.98	94.22	24.44	-42.2	-43.5	20.5	0.00e+00	0	41	0	436207616	56	6804
2026-01-21 22:52:48.98	94.02	24.55	-42.1	-43.3	20.8	0.00e+00	80	41	0	437256192	56	6618
2026-01-21 22:52:50.00	93.82	24.67	-42.0	-43.2	21.1	0.00e+00	0	41	0	439353344	56	6600
2026-01-21 22:52:51.00	93.62	24.79	-42.2	-43.5	21.0	0.00e+00	90	41	0	441450496	56	6785
2026-01-21 22:52:52.01	93.42	24.90	-42.1	-43.3	20.9	0.00e+00	70	41	0	443547648	56	6691
2026-01-21 22:52:53.02	93.21	25.02	-42.0	-43.3	21.1	0.00e+00	92	41	0	445644800	56	6618
2026-01-21 22:52:54.03	93.01	25.14	-42.0	-43.2	21.1	0.00e+00	92	41	0	446693376	56	6577
2026-01-21 22:52:55.04	92.80	25.25	-41.8	-43.0	21.4	0.00e+00	0	41	0	448790528	56	6421
2026-01-21 22:52:56.05	92.59	25.37	-41.9	-43.1	21.2	0.00e+00	61	41	0	450887680	56	6496
2026-01-21 22:52:57.06	92.38	25.49	-42.0	-43.2	21.1	0.00e+00	0	41	0	452984832	56	6563
2026-01-21 22:52:58.07	92.17	25.61	-41.9	-43.1	21.2	0.00e+00	72	41	0	455081984	56	6499
2026-01-21 22:52:59.08	91.96	25.72	-41.9	-43.1	21.4	0.00e+00	10	41	0	456130560	56	6468
2026-01-21 22:53:00.08	91.75	25.84	-41.9	-43.1	21.4	0.00e+00	92	41	0	458227712	56	6496
2026-01-21 22:53:01.09	91.53	25.96	-41.5	-42.6	21.7	0.00e+00	92	41	0	460324864	56	6160
2026-01-21 22:53:02.10	91.31	26.07	-41.7	-42.9	21.4	0.00e+00	0	41	0	462422016	56	6351
2026-01-21 22:53:03.11	91.09	26.19	-41.9	-43.1	21.4	0.00e+00	44	41	0	464519168	56	6469
2026-01-21 22:53:04.12	90.87	26.31	-41.6	-42.7	21.7	0.00e+00	20	41	0	465567744	56	6215
2026-01-21 22:53:05.13	90.65	26.43	-41.4	-42.6	21.8	0.00e+00	90	41	0	467664896	56	6110
2026-01-21 22:53:06.14	90.42	26.54	-41.7	-42.8	21.4	0.00e+00	0	41	0	469762048	56	6296
2026-01-21 22:53:07.15	90.20	26.66	-41.5	-42.7	21.8	0.00e+00	92	41	0	471859200	56	6180
2026-01-21 22:53:08.16	89.97	26.78	-41.8	-43.0	21.4	0.00e+00	92	41	0	473956352	56	6430
2026-01-21 22:53:09.17	89.74	26.90	-41.5	-42.7	21.5	0.00e+00	0	41	0	476053504	56	6187
2026-01-21 22:53:10.18	89.51	27.02	-41.9	-43.1	21.3	0.00e+00	92	41	0	477102080	56	6499
2026-01-21 22:53:11.19	89.28	27.13	-42.1	-43.3	20.9	0.00e+00	0	41	0	479199232	56	6659
2026-01-21 22:53:12.20	89.04	27.25	-41.9	-43.1	21.4	0.00e+00	92	41	0	481296384	56	6501
2026-01-21 22:53:13.21	88.81	27.37	-41.6	-42.7	21.6	0.00e+00	0	41	0	483393536	56	6233
2026-01-21 22:53:14.22	88.57	27.49	-41.7	-42.8	21.7	0.00e+00	92	41	0	485490688	56	6286
2026-01-21 22:53:15.23	88.33	27.60	-42.0	-43.2	21.0	0.00e+00	71	41	0	486539264	56	6546
2026-01-21 22:53:16.24	88.09	27.72	-41.3	-42.4	22.0	0.00e+00	0	41	0	488636416	56	5996
2026-01-21 22:53:17.25	87.84	27.84	-41.5	-42.6	21.7	0.00e+00	92	41	0	490733568	56	6115
2026-01-21 22:53:18.26	87.60	27.96	-41.5	-42.6	21.8	0.00e+00	0	41	0	492830720	56	6123
2026-01-21 22:53:19.27	87.35	28.07	-41.6	-42.7	21.3	0.00e+00	92	41	0	494927872	56	6221
2026-01-21 22:53:20.28	87.10	28.19	-42.4	-43.7	20.9	0.00e+00	0	41	0	495976448	56	6957
2026-01-21 22:53:21.29	86.85	28.31	-42.0	-43.2	21.1	0.00e+00	92	41	0	498073600	56	6548
2026-01-21 22:53:22.30	86.60	28.42	-42.1	-43.3	20.9	0.00e+00	66	41	0	500170752	56	6667
2026-01-21 22:53:23.31	86.34	28.54	-42.6	-43.9	20.9	0.00e+00	9	41	0	502267904	56	7108
2026-01-21 22:53:24.32	86.09	28.66	-42.1	-43.3	21.1	0.00e+00	90	41	0	504365056	56	6639
2026-01-21 22:53:25.33	85.83	28.77	-42.1	-43.4	21.4	0.00e+00	0	41	0	505413632	56	6697
2026-01-21 22:53:26.34	85.57	28.89	-41.5	-42.6	21.7	0.00e+00	61	41	0	507510784	56	6167
2026-01-21 22:53:27.35	85.30	29.01	-41.3	-42.4	21.7	0.00e+00	0	41	0	509607936	56	5991
2026-01-21 22:53:28.36	85.04	29.12	-41.0	-42.0	22.1	0.00e+00	92	41	0	511705088	56	5736
2026-01-21 22:53:29.37	84.77	29.24	-41.1	-42.2	22.1	0.00e+00	7	41	0	513802240	56	5844
2026-01-21 22:53:30.38	84.51	29.35	-41.1	-42.2	22.1	0.00e+00	83	41	0	514850816	56	5833
2026-01-21 22:53:31.39	84.24	29.47	-41.3	-42.4	21.9	0.00e+00	92	41	0	516947968	56	5980
2026-01-21 22:53:32.40	83.96	29.58	-41.5	-42.6	21.7	0.00e+00	0	41	0	519045120	56	6164
2026-01-21 22:53:33.41	83.69	29.70	-41.5	-42.7	21.7	0.00e+00	77	41	0	521142272	56	6195
2026-01-21 22:53:34.41	83.42	29.81	-41.7	-42.9	21.4	0.00e+00	0	41	0	523239424	56	6346
2026-01-21 22:53:35.42	83.14	29.93	-41.6	-42.7	22.0	0.00e+00	91	41	0	524288000	56	6233
2026-01-21 22:53:36.43	82.86	30.04	-41.4	-42.5	21.8	0.00e+00	7	41	0	526385152	56	6078
2026-01-21 22:53:37.44	82.58	30.15	-41.8	-42.9	21.4	0.00e+00	92	41	0	528482304	56	6373
2026-01-21 22:53:38.45	82.29	30.27	-42.2	-43.3	21.0	0.00e+00	92	41	0	530579456	56	6692
2026-01-21 22:53:39.46	82.01	30.38	-42.5	-43.8	20.6	0.00e+00	0	41	0	532676608	58	6268
2026-01-21 22:53:40.47	81.72	30.49	-42.9	-44.3	20.2	0.00e+00	92	41	0	533725184	58	6652
2026-01-21 22:53:41.48	81.43	30.60	-43.8	-45.4	19.4	0.00e+00	0	41	0	535822336	60	6743
2026-01-21 22:53:42.49	81.14	30.72	-44.0	-45.7	19.2	0.00e+00	91	41	0	537919488	60	6932
2026-01-21 22:53:43.50	80.85	30.83	-43.7	-45.3	19.2	0.00e+00	10	41	0	540016640	60	6649
2026-01-21 22:53:44.51	80.55	30.94	-43.8	-45.3	19.6	0.00e+00	92	41	0	542113792	60	6681
2026-01-21 22:53:45.52	80.25	31.05	-43.0	-44.4	20.3	0.00e+00	92	41	0	544210944	60	5973
2026-01-21 22:53:46.53	79.95	31.16	-43.1	-44.5	20.2	0.00e+00	0	41	0	545259520	60	6041
2026-01-21 22:53:47.54	79.65	31.27	-42.8	-44.1	20.4	0.00e+00	42	41	0	547356672	58	6529
2026-01-21 22:53:48.55	79.35	31.38	-43.0	-44.4	20.2	0.00e+00	0	41	0	549453824	58	6755
2026-01-21 22:53:49.56	79.04	31.48	-43.2	-44.7	19.9	0.00e+00	90	41	0	551550976	58	6928
2026-01-21 22:53:50.56	78.74	31.59	-44.0	-45.6	19.1	0.00e+00	9	41	0	553648128	60	6893
2026-01-21 22:53:51.57	78.43	31.70	-43.8	-45.3	19.6	0.00e+00	92	41	0	554696704	60	6689
2026-01-21 22:53:52.58	78.11	31.80	-44.3	-46.2	18.8	0.00e+00	92	41	0	556793856	60	7338
2026-01-21 22:53:53.60	77.80	31.91	-44.4	-46.1	18.7	0.00e+00	0	41	0	558891008	60	7289
2026-01-21 22:53:54.61	77.48	32.02	-44.5	-46.2	18.5	0.00e+00	91	41	0	560988160	60	7392
2026-01-21 22:53:55.62	77.16	32.12	-44.1	-45.8	19.0	0.00e+00	0	41	0	563085312	60	7026
2026-01-21 22:53:56.63	76.84	32.23	-43.9	-45.5	19.5	0.00e+00	92	41	0	564133888	60	6783
2026-01-21 22:53:57.64	76.52	32.33	-43.9	-45.5	19.3	0.00e+00	0	41	0	566231040	60	6780
2026-01-21 22:53:58.65	76.19	32.43	-44.0	-45.6	19.1	0.00e+00	90	41	0	568328192	60	6886
2026-01-21 22:53:59.66	75.87	32.54	-44.6	-46.4	18.0	0.00e+00	92	41	0	570425344	60	7571
2026-01-21 22:54:00.67	75.54	32.64	-44.9	-46.9	17.8	0.00e+00	0	41	0	572522496	60	8029
2026-01-21 22:54:01.68	75.21	32.74	-45.3	-47.5	17.3	0.00e+00	92	41	0	573571072	60	8549
2026-01-21 22:54:02.69	74.87	32.84	-45.6	-47.8	17.0	0.00e+00	0	41	0	575668224	60	8894
2026-01-21 22:54:03.70	74.54	32.94	-45.9	-48.3	16.5	0.00e+00	92	41	0	577765376	60	9347
2026-01-21 22:54:04.71	74.20	33.03	-45.8	-48.1	17.1	0.00e+00	0	41	0	579862528	60	9150
2026-01-21 22:54:05.71	73.87	33.13	-45.1	-47.1	17.7	0.00e+00	92	41	0	581959680	60	8196
2026-01-21 22:54:06.72	73.53	33.23	-44.4	-46.1	18.7	0.00e+00	92	41	0	583008256	60	7292
2026-01-21 22:54:07.74	73.18	33.32	-44.5	-46.2	18.5	0.00e+00	33	41	0	585105408	60	7382
2026-01-21 22:54:08.74	72.84	33.42	-45.2	-47.2	17.7	0.00e+00	92	41	0	587202560	60	8276
2026-01-21 22:54:09.75	72.49	33.51	-45.5	-47.6	17.3	0.00e+00	0	41	0	589299712	60	8703
2026-01-21 22:54:10.76	72.14	33.61	-44.9	-46.7	18.2	0.00e+00	80	41	0	591396864	60	7809
2026-01-21 22:54:11.77	71.79	33.70	-44.9	-46.9	18.0	0.00e+00	0	41	0	592445440	60	7958
2026-01-21 22:54:12.78	71.44	33.79	-44.4	-46.1	18.7	0.00e+00	92	41	0	594542592	60	7268
2026-01-21 22:54:13.79	71.08	33.88	-43.6	-45.1	19.6	0.00e+00	0	41	0	596639744	60	6492
2026-01-21 22:54:14.80	70.73	33.97	-43.4	-44.8	19.8	0.00e+00	92	41	0	598736896	60	6305
2026-01-21 22:54:15.81	70.37	34.06	-42.4	-43.6	20.9	0.00e+00	92	41	0	600834048	58	6151
2026-01-21 22:54:16.82	70.01	34.14	-42.7	-44.0	20.5	0.00e+00	0	41	0	601882624	58	6399
2026-01-21 22:54:17.83	69.64	34.23	-43.2	-44.7	19.7	0.00e+00	92	41	0	603979776	58	6960
2026-01-21 22:54:18.84	69.28	34.32	-44.5	-46.4	18.6	0.00e+00	0	41	0	606076928	60	7515
2026-01-21 22:54:19.85	68.91	34.40	-43.8	-45.4	19.2	0.00e+00	90	41	0	608174080	60	6715
2026-01-21 22:54:20.86	68.54	34.48	-43.3	-44.8	20.3	0.00e+00	0	41	0	610271232	60	6254
2026-01-21 22:54:21.87	68.17	34.56	-42.8	-44.2	20.5	0.00e+00	92	41	0	612368384	60	5853
2026-01-21 22:54:22.87	67.80	34.64	-43.1	-44.5	20.1	0.00e+00	90	41	0	613416960	60	6080
2026-01-21 22:54:23.88	67.43	34.72	-43.2	-44.7	20.0	0.00e+00	0	41	0	615514112	60	6209
2026-01-21 22:54:24.89	67.05	34.80	-43.2	-44.7	20.1	0.00e+00	81	41	0	617611264	60	6201
2026-01-21 22:54:25.90	66.68	34.88	-42.8	-44.2	20.5	0.00e+00	16	41	0	619708416	60	5882
2026-01-21 22:54:26.91	66.30	34.96	-42.7	-44.1	20.7	0.00e+00	65	41	0	621805568	60	5808
2026-01-21 22:54:27.92	65.92	35.03	-42.2	-43.5	20.9	0.00e+00	0	41	0	622854144	58	6082
2026-01-21 22:54:28.93	65.53	35.10	-41.7	-42.9	21.5	0.00e+00	90	41	0	624951296	56	6334
2026-01-21 22:54:29.94	65.15	35.17	-40.2	-41.2	22.8	0.00e+00	91	41	0	627048448	54	5838
2026-01-21 22:54:30.95	64.76	35.25	-39.9	-40.9	23.1	0.00e+00	0	41	0	629145600	54	5635
2026-01-21 22:54:31.96	64.37	35.31	-39.4	-40.3	23.4	0.00e+00	0	41	0	631242752	52	5923
2026-01-21 22:54:32.97	63.98	35.38	-39.2	-40.1	23.7	0.00e+00	0	41	0	632291328	52	5771
2026-01-21 22:54:33.98	63.59	35.45	-39.0	-39.9	23.9	0.00e+00	92	41	0	634388480	52	5646
2026-01-21 22:54:34.99	63.20	35.51	-39.3	-40.2	23.5	0.00e+00	0	41	0	636485632	52	5849
2026-01-21 22:54:36.00	62.80	35.58	-39.3	-40.1	23.8	0.00e+00	72	41	0	638582784	52	5797
2026-01-21 22:54:37.01	62.41	35.64	-38.8	-39.6	24.1	0.00e+00	0	41	0	640679936	52	5480
2026-01-21 22:54:38.02	62.01	35.70	-39.4	-40.3	23.6	0.00e+00	0	41	0	641728512	52	5921
2026-01-21 22:54:39.03	61.61	35.76	-39.8	-40.7	23.0	0.00e+00	92	41	0	643825664	52	6228
2026-01-21 22:54:40.04	61.21	35.82	-40.0	-41.0	23.1	0.00e+00	0	41	0	645922816	52	6408
2026-01-21 22:54:41.05	60.81	35.87	-40.0	-40.9	23.1	0.00e+00	71	41	0	648019968	52	6359
2026-01-21 22:54:42.06	60.41	35.93	-39.4	-40.2	23.6	0.00e+00	0	41	0	650117120	52	5893
2026-01-21 22:54:43.07	60.00	35.98	-39.0	-39.9	23.8	0.00e+00	90	41	0	651165696	52	5668
2026-01-21 22:54:44.08	59.60	36.03	-39.0	-39.9	23.9	0.00e+00	25	41	0	653262848	52	5637
2026-01-21 22:54:45.09	59.19	36.08	-39.5	-40.5	23.5	0.00e+00	0	41	0	655360000	52	6054
2026-01-21 22:54:46.10	58.78	36.13	-39.6	-40.5	23.5	0.00e+00	91	41	0	657457152	52	6090
2026-01-21 22:54:47.10	58.38	36.18	-39.8	-40.8	23.2	0.00e+00	0	41	0	659554304	52	6275
2026-01-21 22:54:48.11	57.97	36.23	-40.0	-41.0	23.1	0.00e+00	92	41	0	660602880	52	6395
2026-01-21 22:54:49.12	57.55	36.27	-40.2	-41.2	22.9	0.00e+00	0	41	0	662700032	52	6592
2026-01-21 22:54:50.13	57.14	36.31	-40.4	-41.4	23.0	0.00e+00	91	41	0	664797184	52	6758
2026-01-21 22:54:51.14	56.73	36.35	-40.2	-41.2	22.8	0.00e+00	11	41	0	666894336	52	6607
2026-01-21 22:54:52.15	56.31	36.39	-40.3	-41.3	22.9	0.00e+00	19	41	0	668991488	52	6635
2026-01-21 22:54:53.16	55.90	36.43	-39.6	-40.5	23.5	0.00e+00	91	41	0	670040064	52	6088
2026-01-21 22:54:54.17	55.48	36.46	-38.8	-39.6	24.1	0.00e+00	0	41	0	672137216	50	6136
2026-01-21 22:54:55.18	55.06	36.50	-38.6	-39.4	24.2	0.00e+00	91	41	0	674234368	50	6000
2026-01-21 22:54:56.19	54.64	36.53	-38.7	-39.6	24.1	0.00e+00	0	41	0	676331520	50	6123
2026-01-21 22:54:57.20	54.22	36.56	-38.7	-39.5	24.1	0.00e+00	91	41	0	678428672	50	6052
2026-01-21 22:54:58.21	53.80	36.59	-38.9	-39.7	24.0	0.00e+00	0	41	0	679477248	50	6244
2026-01-21 22:54:59.22	53.38	36.62	-39.5	-40.4	23.4	0.00e+00	38	41	0	681574400	50	6730
2026-01-21 22:55:00.23	52.96	36.64	-40.0	-41.0	23.1	0.00e+00	92	41	0	683671552	52	6395
2026-01-21 22:55:01.24	52.54	36.66	-40.1	-41.1	22.8	0.00e+00	0	41	0	685768704	52	6511
2026-01-21 22:55:02.25	52.12	36.69	-40.3	-41.3	22.9	0.00e+00	14	41	0	687865856	52	6661
2026-01-21 22:55:03.25	51.70	36.70	-40.3	-41.2	22.8	0.00e+00	0	41	0	688914432	52	6614
2026-01-21 22:55:04.27	51.27	36.72	-40.6	-41.6	22.7	0.00e+00	92	41	0	691011584	52	6864
2026-01-21 22:55:05.27	50.85	36.74	-41.0	-42.1	22.4	0.00e+00	0	41	0	693108736	54	6480
2026-01-21 22:55:06.28	50.43	36.75	-41.1	-42.2	22.0	0.00e+00	92	41	0	695205888	54	6608
2026-01-21 22:55:07.30	50.00	36.77	-41.2	-42.3	22.0	0.00e+00	60	41	0	697303040	54	6628
2026-01-21 22:55:08.30	49.58	36.78	-41.4	-42.5	21.7	0.00e+00	18	41	0	698351616	54	6815
2026-01-21 22:55:09.31	49.15	36.79	-41.6	-42.8	21.5	0.00e+00	92	41	0	700448768	54	7047
2026-01-21 22:55:10.32	48.72	36.79	-41.5	-42.7	21.7	0.00e+00	0	41	0	702545920	54	6952
2026-01-21 22:55:11.33	48.30	36.80	-41.1	-42.2	22.1	0.00e+00	90	41	0	704643072	54	6593
2026-01-21 22:55:12.34	47.87	36.80	-40.6	-41.6	22.6	0.00e+00	0	41	0	706740224	54	6165
2026-01-21 22:55:13.35	47.45	36.81	-40.9	-42.0	22.3	0.00e+00	92	41	0	708837376	54	6402
2026-01-21 22:55:14.36	47.02	36.81	-41.5	-42.7	21.8	0.00e+00	92	41	0	709885952	54	6976
2026-01-21 22:55:15.37	46.60	36.80	-41.9	-43.1	21.4	0.00e+00	0	41	0	711983104	56	6469
2026-01-21 22:55:16.38	46.17	36.80	-41.7	-42.8	21.7	0.00e+00	74	41	0	714080256	56	6259
2026-01-21 22:55:17.39	45.74	36.80	-41.2	-42.3	22.2	0.00e+00	0	41	0	716177408	56	5922
2026-01-21 22:55:18.40	45.32	36.79	-41.3	-42.4	22.0	0.00e+00	72	41	0	718274560	56	5988
2026-01-21 22:55:19.41	44.89	36.78	-41.9	-43.1	21.5	0.00e+00	0	41	0	719323136	56	6536
2026-01-21 22:55:20.42	44.47	36.77	-42.7	-44.1	20.5	0.00e+00	90	41	0	721420288	58	6482
2026-01-21 22:55:21.43	44.04	36.76	-42.2	-43.4	21.4	0.00e+00	80	41	0	723517440	58	6031
2026-01-21 22:55:22.44	43.62	36.74	-41.9	-43.1	21.2	0.00e+00	0	41	0	725614592	56	6470
2026-01-21 22:55:23.45	43.19	36.73	-41.4	-42.5	21.8	0.00e+00	85	41	0	727711744	56	6076
2026-01-21 22:55:24.45	42.78	36.71	-42.7	-44.0	20.6	0.00e+00	0	41	0	728760320	56	7172
2026-01-21 22:55:25.47	42.35	36.69	-43.3	-44.8	19.9	0.00e+00	92	41	0	730857472	58	7023
2026-01-21 22:55:26.47	41.93	36.67	-44.5	-46.3	18.7	0.00e+00	0	41	0	732954624	60	7480
2026-01-21 22:55:27.48	41.51	36.64	-44.0	-45.7	19.3	0.00e+00	74	41	0	735051776	60	6946
2026-01-21 22:55:28.49	41.09	36.62	-42.6	-43.9	20.8	0.00e+00	8	41	0	737148928	58	6323
2026-01-21 22:55:29.50	40.67	36.59	-41.7	-42.8	21.6	0.00e+00	16	41	0	738197504	58	5604
2026-01-21 22:55:30.51	40.25	36.56	-41.7	-42.8	21.4	0.00e+00	92	41	0	740294656	56	6259
2026-01-21 22:55:31.52	39.83	36.53	-41.6	-42.7	21.8	0.00e+00	0	41	0	742391808	56	6225
2026-01-21 22:55:32.53	39.41	36.50	-42.0	-43.1	21.4	0.00e+00	92	41	0	744488960	56	6511
2026-01-21 22:55:33.54	38.99	36.47	-41.6	-42.7	21.7	0.00e+00	0	41	0	746586112	56	6234
2026-01-21 22:55:34.55	38.57	36.43	-41.9	-43.1	21.4	0.00e+00	82	41	0	747634688	56	6470
2026-01-21 22:55:35.55	38.16	36.40	-42.5	-43.8	20.7	0.00e+00	0	41	0	749731840	56	7052
2026-01-21 22:55:36.57	37.74	36.36	-42.4	-43.7	20.6	0.00e+00	6	41	0	751828992	56	6945
2026-01-21 22:55:37.57	37.33	36.32	-42.0	-43.1	21.4	0.00e+00	92	41	0	753926144	56	6517
2026-01-21 22:55:38.58	36.92	36.28	-41.8	-43.0	21.5	0.00e+00	0	41	0	756023296	56	6408
2026-01-21 22:55:39.59	36.51	36.23	-41.8	-42.9	21.6	0.00e+00	92	41	0	757071872	56	6349
2026-01-21 22:55:40.60	36.10	36.19	-42.1	-43.3	21.3	0.00e+00	0	41	0	759169024	56	6626
2026-01-21 22:55:41.61	35.69	36.14	-42.4	-43.6	20.8	0.00e+00	92	41	0	761266176	56	6900
2026-01-21 22:55:42.62	35.28	36.09	-42.7	-44.0	20.8	0.00e+00	0	41	0	763363328	58	6411
2026-01-21 22:55:43.63	34.88	36.04	-42.2	-43.4	21.0	0.00e+00	74	41	0	765460480	58	5991
2026-01-21 22:55:44.64	34.47	35.99	-42.4	-43.7	20.7	0.00e+00	16	41	0	766509056	58	6208
2026-01-21 22:55:45.65	34.07	35.94	-43.7	-45.3	19.3	0.00e+00	0	41	0	768606208	58	7443
2026-01-21 22:55:46.66	33.66	35.89	-44.0	-45.6	19.0	0.00e+00	14	41	0	770703360	60	6920
2026-01-21 22:55:47.67	33.26	35.83	-43.9	-45.6	19.2	0.00e+00	0	41	0	772800512	60	6851
2026-01-21 22:55:48.68	32.86	35.77	-43.6	-45.2	19.7	0.00e+00	91	41	0	774897664	60	6545
2026-01-21 22:55:49.69	32.46	35.71	-42.9	-44.3	20.3	0.00e+00	0	41	0	776994816	58	6651
2026-01-21 22:55:50.70	32.07	35.65	-42.2	-43.4	21.1	0.00e+00	91	41	0	778043392	58	6031
2026-01-21 22:55:51.71	31.67	35.59	-41.9	-43.0	21.4	0.00e+00	12	41	0	780140544	56	6456
2026-01-21 22:55:52.72	31.28	35.53	-41.0	-42.1	22.2	0.00e+00	0	41	0	782237696	56	5786
2026-01-21 22:55:53.73	30.88	35.46	-41.9	-43.0	21.4	0.00e+00	68	41	0	784334848	56	6461
2026-01-21 22:55:54.74	30.49	35.40	-42.8	-44.3	20.4	0.00e+00	0	41	0	786432000	58	6623
2026-01-21 22:55:55.75	30.10	35.33	-43.0	-44.4	20.2	0.00e+00	92	41	0	787480576	58	6718
2026-01-21 22:55:56.76	29.71	35.26	-42.7	-44.0	20.3	0.00e+00	0	41	0	789577728	58	6432
2026-01-21 22:55:57.77	29.33	35.19	-41.8	-42.9	21.6	0.00e+00	92	41	0	791674880	56	6370
2026-01-21 22:55:58.78	28.94	35.12	-41.4	-42.5	22.0	0.00e+00	0	41	0	793772032	56	6058
2026-01-21 22:55:59.79	28.56	35.05	-40.5	-41.5	22.6	0.00e+00	0	41	0	795869184	54	6096
2026-01-21 22:56:00.80	28.18	34.97	-40.2	-41.1	22.9	0.00e+00	90	41	0	796917760	54	5821
2026-01-21 22:56:01.81	27.80	34.90	-40.6	-41.6	22.5	0.00e+00	0	41	0	799014912	54	6157
2026-01-21 22:56:02.82	27.42	34.82	-41.4	-42.5	21.8	0.00e+00	73	41	0	801112064	54	6808
2026-01-21 22:56:03.83	27.05	34.74	-41.8	-43.0	21.5	0.00e+00	0	41	0	803209216	54	7194
2026-01-21 22:56:04.84	26.67	34.66	-42.4	-43.7	20.9	0.00e+00	92	41	0	805306368	56	6952
2026-01-21 22:56:05.85	26.30	34.58	-42.8	-44.2	20.4	0.00e+00	0	41	0	806354944	56	7362
2026-01-21 22:56:06.86	25.93	34.50	-43.0	-44.5	20.1	0.00e+00	0	41	0	808452096	58	6827
2026-01-21 22:56:07.87	25.56	34.42	-42.2	-43.5	21.0	0.00e+00	92	41	0	810549248	58	6052
2026-01-21 22:56:08.87	25.20	34.34	-41.6	-42.8	21.6	0.00e+00	0	41	0	812646400	56	6261
2026-01-21 22:56:09.88	24.84	34.25	-41.3	-42.4	22.0	0.00e+00	79	41	0	814743552	56	6002
2026-01-21 22:56:10.89	24.48	34.17	-41.6	-42.7	21.6	0.00e+00	0	41	0	815792128	56	6238
2026-01-21 22:56:11.90	24.11	34.08	-41.9	-43.2	21.3	0.00e+00	92	41	0	817889280	56	6542
2026-01-21 22:56:12.91	23.76	33.99	-42.5	-43.8	20.8	0.00e+00	0	41	0	819986432	56	7067
2026-01-21 22:56:13.92	23.40	33.90	-42.8	-44.2	20.2	0.00e+00	0	41	0	822083584	58	6561
2026-01-21 22:56:14.93	23.04	33.81	-43.2	-44.8	19.9	0.00e+00	91	41	0	824180736	58	7046
2026-01-21 22:56:15.94	22.69	33.72	-43.2	-44.7	20.0	0.00e+00	0	41	0	825229312	58	6974
2026-01-21 22:56:16.95	22.34	33.63	-42.6	-44.0	20.6	0.00e+00	91	41	0	827326464	58	6409
2026-01-21 22:56:17.96	21.99	33.54	-41.9	-43.2	21.3	0.00e+00	0	41	0	829423616	58	5855
2026-01-21 22:56:18.97	21.65	33.44	-42.2	-43.5	21.0	0.00e+00	79	41	0	831520768	56	6779
2026-01-21 22:56:19.98	21.30	33.35	-41.8	-43.0	21.5	0.00e+00	0	41	0	833617920	56	6419
2026-01-21 22:56:20.99	20.96	33.25	-41.8	-43.0	21.4	0.00e+00	48	41	0	834666496	56	6394
2026-01-21 22:56:22.00	20.62	33.16	-41.0	-42.0	22.2	0.00e+00	56	41	0	836763648	56	5745
2026-01-21 22:56:23.01	20.28	33.06	-40.7	-41.7	22.4	0.00e+00	0	41	0	838860800	56	5559
2026-01-21 22:56:24.02	19.94	32.96	-40.7	-41.8	22.2	0.00e+00	72	41	0	840957952	54	6273
2026-01-21 22:56:25.03	19.61	32.86	-42.0	-43.3	21.1	0.00e+00	0	41	0	843055104	56	6631
2026-01-21 22:56:26.04	19.28	32.76	-42.4	-43.7	20.9	0.00e+00	39	41	0	845152256	56	6953
2026-01-21 22:56:27.05	18.95	32.66	-42.5	-43.7	20.8	0.00e+00	0	41	0	846200832	58	6233
2026-01-21 22:56:28.06	18.62	32.56	-42.0	-43.2	21.2	0.00e+00	56	41	0	848297984	58	5861
2026-01-21 22:56:29.07	18.29	32.46	-41.7	-42.8	21.8	0.00e+00	30	41	0	850395136	56	6298
2026-01-21 22:56:30.08	17.97	32.36	-40.7	-41.6	22.6	0.00e+00	0	41	0	852492288	56	5500
2026-01-21 22:56:31.09	17.65	32.25	-40.7	-41.7	22.6	0.00e+00	57	41	0	854589440	54	6213
2026-01-21 22:56:32.10	17.33	32.15	-40.5	-41.5	22.7	0.00e+00	0	41	0	855638016	54	6036
2026-01-21 22:56:33.11	17.01	32.05	-41.2	-42.3	21.9	0.00e+00	71	41	0	857735168	54	6665
2026-01-21 22:56:34.12	16.69	31.94	-41.9	-43.1	21.5	0.00e+00	0	41	0	859832320	56	6496
2026-01-21 22:56:35.13	16.38	31.84	-41.8	-42.9	21.6	0.00e+00	90	41	0	861929472	56	6364
2026-01-21 22:56:36.14	16.07	31.73	-41.1	-42.2	22.1	0.00e+00	79	41	0	864026624	56	5846
2026-01-21 22:56:37.15	15.76	31.62	-41.4	-42.4	22.1	0.00e+00	0	41	0	865075200	56	6028
2026-01-21 22:56:38.15	15.45	31.52	-41.4	-42.4	21.9	0.00e+00	92	41	0	867172352	56	6011
2026-01-21 22:56:39.16	15.15	31.41	-41.7	-42.8	21.6	0.00e+00	0	41	0	869269504	56	6297
2026-01-21 22:56:40.17	14.84	31.30	-42.4	-43.6	21.0	0.00e+00	92	41	0	871366656	56	6885
2026-01-21 22:56:41.18	14.54	31.19	-42.5	-43.7	20.9	0.00e+00	0	41	0	873463808	56	6998
2026-01-21 22:56:42.19	14.24	31.08	-42.5	-43.7	21.0	0.00e+00	92	41	0	874512384	56	6984
2026-01-21 22:56:43.20	13.94	30.97	-42.8	-44.1	20.5	0.00e+00	0	41	0	876609536	58	6529
2026-01-21 22:56:44.21	13.65	30.86	-43.7	-45.2	19.3	0.00e+00	0	41	0	878706688	58	7375
2026-01-21 22:56:45.22	13.36	30.75	-44.3	-46.1	18.7	0.00e+00	92	41	0	880803840	60	7257
2026-01-21 22:56:46.23	13.06	30.64	-44.0	-45.6	19.4	0.00e+00	0	41	0	882900992	60	6876
2026-01-21 22:56:47.24	12.78	30.53	-43.7	-45.2	19.5	0.00e+00	92	41	0	883949568	60	6595
2026-01-21 22:56:48.25	12.49	30.42	-43.5	-44.9	19.8	0.00e+00	0	41	0	886046720	60	6376
2026-01-21 22:56:49.26	12.20	30.30	-43.2	-44.6	20.1	0.00e+00	89	41	0	888143872	60	6158
2026-01-21 22:56:50.27	11.92	30.19	-43.3	-44.8	20.1	0.00e+00	0	41	0	890241024	60	6246
2026-01-21 22:56:51.28	11.64	30.08	-43.3	-44.7	20.1	0.00e+00	0	41	0	892338176	60	6196
2026-01-21 22:56:52.29	11.36	29.97	-42.8	-44.1	20.5	0.00e+00	92	41	0	893386752	60	5815
2026-01-21 22:56:53.30	11.08	29.85	-42.6	-43.8	20.9	0.00e+00	0	41	0	895483904	58	6316
2026-01-21 22:56:54.31	10.81	29.74	-42.0	-43.2	21.3	0.00e+00	13	41	0	897581056	58	5844
2026-01-21 22:56:55.31	10.54	29.62	-41.9	-43.0	21.4	0.00e+00	0	41	0	899678208	58	5741
2026-01-21 22:56:56.32	10.26	29.51	-41.5	-42.6	21.8	0.00e+00	92	41	0	901775360	56	6139
2026-01-21 22:56:57.33	10.00	29.40	-41.2	-42.2	22.1	0.00e+00	0	41	0	902823936	56	5874
2026-01-21 22:56:58.34	9.73	29.28	-40.6	-41.6	22.5	0.00e+00	63	41	0	904921088	54	6168
2026-01-21 22:56:59.35	9.46	29.16	-40.1	-41.0	23.1	0.00e+00	14	41	0	907018240	54	5729
2026-01-21 22:57:00.36	9.20	29.05	-39.9	-40.9	23.2	0.00e+00	0	41	0	909115392	54	5633
2026-01-21 22:57:01.37	8.94	28.93	-40.1	-41.0	23.0	0.00e+00	8	41	0	911212544	54	5741
2026-01-21 22:57:02.38	8.68	28.82	-40.8	-41.8	22.5	0.00e+00	0	41	0	913309696	54	6313
2026-01-21 22:57:03.39	8.42	28.70	-40.9	-42.0	22.3	0.00e+00	77	41	0	914358272	54	6391
2026-01-21 22:57:04.40	8.16	28.59	-41.4	-42.5	21.9	0.00e+00	0	41	0	916455424	54	6781
2026-01-21 22:57:05.41	7.91	28.47	-41.7	-42.9	21.5	0.00e+00	63	41	0	918552576	54	7125
2026-01-21 22:57:06.42	7.66	28.35	-41.9	-43.1	21.1	0.00e+00	92	41	0	920649728	56	6502
2026-01-21 22:57:07.43	7.41	28.24	-42.0	-43.2	21.3	0.00e+00	0	41	0	922746880	56	6580
2026-01-21 22:57:08.44	7.16	28.12	-41.7	-42.8	21.7	0.00e+00	46	41	0	923795456	56	6275
2026-01-21 22:57:09.45	6.91	28.00	-41.3	-42.4	21.9	0.00e+00	0	41	0	925892608	56	5995
2026-01-21 22:57:10.46	6.67	27.89	-41.1	-42.2	22.2	0.00e+00	80	41	0	927989760	56	5834
2026-01-21 22:57:11.47	6.42	27.77	-40.8	-41.8	22.4	0.00e+00	0	41	0	930086912	56	5628
2026-01-21 22:57:12.48	6.18	27.65	-41.4	-42.5	21.9	0.00e+00	0	41	0	932184064	56	6080
2026-01-21 22:57:13.49	5.94	27.53	-41.5	-42.7	21.7	0.00e+00	7	41	0	933232640	56	6187
2026-01-21 22:57:14.50	5.70	27.42	-41.3	-42.4	21.9	0.00e+00	0	41	0	935329792	56	5984
2026-01-21 22:57:15.50	5.47	27.30	-41.0	-42.1	22.1	0.00e+00	91	41	0	937426944	56	5782
2026-01-21 22:57:16.51	5.24	27.18	-40.7	-41.7	22.3	0.00e+00	0	41	0	939524096	54	6241
2026-01-21 22:57:17.52	5.00	27.07	-40.7	-41.8	22.6	0.00e+00	0	41	0	941621248	54	6252
2026-01-21 22:57:18.53	4.77	26.95	-40.1	-41.1	22.9	0.00e+00	0	41	0	942669824	54	5788
2026-01-21 22:57:19.54	4.54	26.83	-40.2	-41.2	22.7	0.00e+00	0	41	0	944766976	54	5842
2026-01-21 22:57:20.55	4.32	26.72	-40.3	-41.3	22.9	0.00e+00	0	41	0	946864128	54	5907
2026-01-21 22:57:21.56	4.09	26.60	-40.6	-41.6	22.6	0.00e+00	0	41	0	948961280	54	6127
2026-01-21 22:57:22.57	3.87	26.48	-40.3	-41.2	23.0	0.00e+00	50	41	0	951058432	54	5892
2026-01-21 22:57:23.58	3.64	26.36	-40.4	-41.4	22.7	0.00e+00	0	41	0	952107008	54	6009
2026-01-21 22:57:24.59	3.42	26.25	-40.5	-41.5	22.6	0.00e+00	78	41	0	954204160	54	6073
2026-01-21 22:57:25.61	3.20	26.13	-40.7	-41.7	22.2	0.00e+00	0	41	0	956301312	54	6233
2026-01-21 22:57:26.61	2.99	26.01	-41.0	-42.1	22.2	0.00e+00	0	41	0	958398464	54	6490
2026-01-21 22:57:27.62	2.77	25.89	-41.4	-42.6	21.7	0.00e+00	0	41	0	960495616	54	6917
2026-01-21 22:57:28.63	2.56	25.78	-41.1	-42.2	22.0	0.00e+00	0	41	0	961544192	54	6586
2026-01-21 22:57:29.64	2.34	25.66	-41.1	-42.3	22.0	0.00e+00	9	41	0	963641344	54	6629
2026-01-21 22:57:30.65	2.13	25.54	-41.2	-42.3	22.1	0.00e+00	5	41	0	965738496	54	6659
2026-01-21 22:57:31.66	1.92	25.43	-40.8	-41.8	22.2	0.00e+00	46	41	0	967835648	54	6304
2026-01-21 22:57:32.67	1.72	25.31	-40.9	-42.0	22.1	0.00e+00	0	41	0	969932800	54	6445
2026-01-21 22:57:33.68	1.51	25.19	-40.8	-41.9	22.3	0.00e+00	0	41	0	970981376	54	6358
2026-01-21 22:57:34.69	1.31	25.08	-40.8	-41.8	22.4	0.00e+00	0	41	0	973078528	54	6314
2026-01-21 22:57:35.70	1.10	24.96	-40.5	-41.6	22.5	0.00e+00	0	41	0	975175680	54	6112
2026-01-21 22:57:36.71	0.90	24.85	-40.3	-41.4	22.6	0.00e+00	60	41	0	977272832	54	5976
2026-01-21 22:57:37.72	0.70	24.73	-40.1	-41.1	22.9	0.00e+00	0	41	0	979369984	54	5784
2026-01-21 22:57:38.73	0.50	24.61	-40.2	-41.2	22.8	0.00e+00	83	41	0	980418560	54	5875
2026-01-21 22:57:39.74	0.30	24.50	-40.2	-41.2	22.8	0.00e+00	0	41	0	982515712	54	5848
2026-01-21 22:57:40.75	0.11	24.38	-40.0	-41.0	22.9	0.00e+00	0	41	0	984612864	54	5743
2026-01-21 22:57:41.76	359.91	24.27	-40.1	-41.1	22.7	0.00e+00	0	41	0	986710016	54	5823
2026-01-21 22:57:42.77	359.72	24.15	-40.4	-41.4	22.7	0.00e+00	0	41	0	988807168	54	5984
2026-01-21 22:57:43.78	359.53	24.04	-40.4	-41.4	22.7	0.00e+00	14	41	0	990904320	54	5991
2026-01-21 22:57:44.79	359.34	23.92	-40.6	-41.6	22.1	0.00e+00	0	41	0	991952896	54	6119
2026-01-21 22:57:45.80	359.15	23.81	-40.6	-41.6	22.5	0.00e+00	92	41	0	994050048	54	6151
2026-01-21 22:57:46.81	358.96	23.69	-39.8	-40.7	23.1	0.00e+00	0	41	0	996147200	54	5528
2026-01-21 22:57:47.82	358.78	23.58	-40.0	-40.9	22.8	0.00e+00	0	41	0	998244352	54	5682
2026-01-21 22:57:48.83	358.59	23.46	-40.1	-41.1	22.3	0.00e+00	0	41	0	1000341504	54	5791
2026-01-21 22:57:49.84	358.41	23.35	-40.0	-40.9	22.9	0.00e+00	0	41	0	1001390080	54	5685
2026-01-21 22:57:50.85	358.23	23.23	-40.2	-41.2	22.8	0.00e+00	54	41	0	1003487232	54	5841
2026-01-21 22:57:51.85	358.05	23.12	-40.7	-41.7	22.3	0.00e+00	0	41	0	1005584384	54	6239
2026-01-21 22:57:52.86	357.87	23.01	-40.4	-41.3	22.7	0.00e+00	12	41	0	1007681536	54	5963
2026-01-21 22:57:53.87	357.69	22.89	-40.8	-41.8	22.3	0.00e+00	0	41	0	1009778688	54	6311
2026-01-21 22:57:54.88	357.52	22.78	-41.1	-42.2	22.1	0.00e+00	86	41	0	1010827264	54	6584
2026-01-21 22:57:55.89	357.34	22.67	-41.5	-42.6	21.6	0.00e+00	0	41	0	1012924416	54	6921
2026-01-21 22:57:56.90	357.17	22.55	-41.6	-42.7	21.7	0.00e+00	21	41	0	1015021568	56	6196
2026-01-21 22:57:57.91	357.00	22.44	-42.3	-43.6	21.1	0.00e+00	51	41	0	1017118720	56	6852
2026-01-21 22:57:58.92	356.83	22.33	-42.3	-43.5	20.9	0.00e+00	0	41	0	1019215872	56	6839
2026-01-21 22:57:59.93	356.66	22.22	-42.2	-43.4	20.9	0.00e+00	9	41	0	1020264448	56	6720
2026-01-21 22:58:00.94	356.49	22.11	-41.7	-42.9	21.6	0.00e+00	0	41	0	1022361600	56	6321
2026-01-21 22:58:01.95	356.32	21.99	-41.4	-42.5	21.6	0.00e+00	92	41	0	1024458752	56	6092
2026-01-21 22:58:02.95	356.15	21.88	-40.8	-41.9	22.4	0.00e+00	0	41	0	1026555904	56	5645
2026-01-21 22:58:03.96	355.99	21.77	-39.9	-40.8	23.0	0.00e+00	0	41	0	1028653056	54	5611
2026-01-21 22:58:04.97	355.83	21.66	-39.9	-40.8	23.1	0.00e+00	0	41	0	1029701632	54	5614
2026-01-21 22:58:05.99	355.66	21.55	-40.0	-40.9	22.9	0.00e+00	0	41	0	1031798784	52	6361
2026-01-21 22:58:06.99	355.50	21.44	-39.8	-40.8	23.1	0.00e+00	0	41	0	1033895936	52	6254
2026-01-21 22:58:08.00	355.34	21.33	-40.0	-41.0	23.0	0.00e+00	0	41	0	1035993088	52	6419
2026-01-21 22:58:09.01	355.18	21.22	-40.4	-41.4	22.6	0.00e+00	43	41	0	1038090240	52	6748
2026-01-21 22:58:10.02	355.02	21.11	-40.7	-41.7	22.6	0.00e+00	0	41	0	1039138816	52	6969
2026-01-21 22:58:11.03	354.87	21.00	-40.6	-41.6	22.5	0.00e+00	0	41	0	1041235968	52	6927
2026-01-21 22:58:12.04	354.71	20.89	-40.7	-41.7	22.4	0.00e+00	0	41	0	1043333120	54	6180
2026-01-21 22:58:13.05	354.56	20.78	-40.1	-41.1	22.9	0.00e+00	0	41	0	1045430272	54	5769
2026-01-21 22:58:14.06	354.40	20.67	-39.9	-40.8	23.1	0.00e+00	77	41	0	1047527424	54	5622
2026-01-21 22:58:15.07	354.25	20.56	-39.7	-40.6	23.4	0.00e+00	0	41	0	1048576000	52	6164
2026-01-21 22:58:16.08	354.10	20.46	-39.7	-40.6	23.1	0.00e+00	70	41	0	1050673152	52	6148
2026-01-21 22:58:17.09	353.95	20.35	-39.4	-40.3	23.4	0.00e+00	0	41	0	1052770304	52	5957
2026-01-21 22:58:18.10	353.80	20.24	-39.6	-40.6	23.3	0.00e+00	0	41	0	1054867456	52	6124
2026-01-21 22:58:19.11	353.65	20.13	-39.9	-40.8	23.1	0.00e+00	0	41	0	1056964608	52	6310
2026-01-21 22:58:20.12	353.50	20.03	-40.4	-41.4	22.6	0.00e+00	0	41	0	1059061760	52	6765
2026-01-21 22:58:21.13	353.36	19.92	-41.1	-42.2	21.9	0.00e+00	79	41	0	1060110336	54	6590
2026-01-21 22:58:22.14	353.21	19.81	-41.6	-42.8	21.4	0.00e+00	9	41	0	1062207488	54	7015
2026-01-21 22:58:23.15	353.07	19.70	-42.2	-43.4	20.7	0.00e+00	92	41	0	1064304640	56	6751
2026-01-21 22:58:24.15	352.93	19.60	-42.5	-43.9	20.2	0.00e+00	0	41	0	1066401792	56	7091
2026-01-21 22:58:25.16	352.79	19.49	-43.4	-44.8	19.7	0.00e+00	20	41	0	1068498944	58	7068
2026-01-21 22:58:26.17	352.65	19.39	-43.6	-45.1	19.6	0.00e+00	24	41	0	1069547520	58	7309
2026-01-21 22:58:27.18	352.51	19.28	-43.7	-45.2	19.4	0.00e+00	0	41	0	1071644672	60	6614
2026-01-21 22:58:28.19	352.37	19.18	-43.4	-44.9	19.7	0.00e+00	0	41	0	1073741824	60	6349
2026-01-21 22:58:29.20	352.23	19.07	-43.1	-44.6	20.1	0.00e+00	24	41	0	1075838976	60	6111
2026-01-21 22:58:30.21	352.09	18.97	-42.7	-44.1	20.2	0.00e+00	47	41	0	1077936128	58	6481
2026-01-21 22:58:31.22	351.96	18.86	-41.8	-43.0	21.3	0.00e+00	0	41	0	1078984704	58	5721
2026-01-21 22:58:32.23	351.82	18.76	-41.6	-42.8	21.6	0.00e+00	92	41	0	1081081856	56	6255
2026-01-21 22:58:33.24	351.69	18.66	-41.3	-42.4	21.8	0.00e+00	0	41	0	1083179008	56	6000
2026-01-21 22:58:34.25	351.55	18.55	-41.5	-42.6	21.8	0.00e+00	0	41	0	1085276160	56	6170
2026-01-21 22:58:35.26	351.42	18.45	-41.0	-42.0	22.1	0.00e+00	0	41	0	1087373312	56	5748
2026-01-21 22:58:36.27	351.29	18.35	-41.0	-42.1	22.1	0.00e+00	0	41	0	1088421888	54	6479
2026-01-21 22:58:37.28	351.16	18.24	-41.1	-42.2	21.9	0.00e+00	44	41	0	1090519040	54	6580
2026-01-21 22:58:38.29	351.03	18.14	-41.2	-42.3	21.7	0.00e+00	0	41	0	1092616192	54	6674
2026-01-21 22:58:39.30	350.90	18.04	-41.6	-42.7	21.4	0.00e+00	90	41	0	1094713344	54	7002
2026-01-21 22:58:40.30	350.78	17.94	-41.6	-42.8	21.4	0.00e+00	0	41	0	1096810496	54	7035
2026-01-21 22:58:41.31	350.65	17.83	-41.8	-42.9	21.4	0.00e+00	0	41	0	1097859072	56	6378
2026-01-21 22:58:42.32	350.52	17.73	-41.5	-42.6	21.7	0.00e+00	0	41	0	1099956224	56	6132
2026-01-21 22:58:43.33	350.40	17.63	-41.2	-42.3	21.8	0.00e+00	0	41	0	1102053376	56	5938
2026-01-21 22:58:44.34	350.27	17.53	-40.7	-41.7	22.4	0.00e+00	91	41	0	1104150528	56	5526
2026-01-21 22:58:45.35	350.15	17.43	-40.1	-41.1	22.8	0.00e+00	0	41	0	1106247680	54	5792
2026-01-21 22:58:46.36	350.03	17.33	-40.0	-41.0	23.0	0.00e+00	84	41	0	1107296256	54	5697
2026-01-21 22:58:47.37	349.91	17.23	-40.0	-40.9	22.9	0.00e+00	0	41	0	1109393408	54	5669
2026-01-21 22:58:48.38	349.78	17.13	-40.0	-40.9	22.9	0.00e+00	0	41	0	1111490560	54	5679
2026-01-21 22:58:49.39	349.66	17.03	-39.8	-40.7	23.0	0.00e+00	0	41	0	1113587712	52	6244
2026-01-21 22:58:50.40	349.55	16.93	-40.0	-41.0	22.9	0.00e+00	0	41	0	1115684864	52	6394
2026-01-21 22:58:51.41	349.43	16.83	-40.3	-41.3	22.7	0.00e+00	62	41	0	1116733440	52	6646
2026-01-21 22:58:52.42	349.31	16.73	-40.4	-41.5	22.5	0.00e+00	0	41	0	1118830592	52	6777
2026-01-21 22:58:53.43	349.19	16.64	-40.7	-41.8	22.2	0.00e+00	92	41	0	1120927744	54	6277
2026-01-21 22:58:54.44	349.08	16.54	-41.0	-42.1	21.6	0.00e+00	0	41	0	1123024896	54	6471
2026-01-21 22:58:55.45	348.96	16.44	-41.0	-42.1	21.9	0.00e+00	0	41	0	1125122048	54	6484
2026-01-21 22:58:56.45	348.85	16.34	-41.0	-42.1	22.0	0.00e+00	0	41	0	1126170624	54	6479
2026-01-21 22:58:57.46	348.73	16.25	-41.0	-42.0	21.9	0.00e+00	0	41	0	1128267776	54	6460
2026-01-21 22:58:58.47	348.62	16.15	-41.1	-42.2	21.9	0.00e+00	61	41	0	1130364928	54	6550
2026-01-21 22:58:59.49	348.51	16.05	-41.3	-42.3	21.8	0.00e+00	0	41	0	1132462080	54	6675
2026-01-21 22:59:00.49	348.40	15.96	-41.1	-42.2	21.9	0.00e+00	91	41	0	1134559232	54	6544
2026-01-21 22:59:01.50	348.29	15.86	-41.4	-42.5	21.6	0.00e+00	0	41	0	1135607808	54	6833
2026-01-21 22:59:02.51	348.18	15.76	-41.3	-42.3	21.7	0.00e+00	19	41	0	1137704960	54	6672
2026-01-21 22:59:03.52	348.07	15.67	-41.5	-42.6	21.5	0.00e+00	0	41	0	1139802112	54	6870
2026-01-21 22:59:04.53	347.96	15.57	-41.3	-42.3	21.7	0.00e+00	0	41	0	1141899264	54	6680
2026-01-21 22:59:05.54	347.85	15.48	-41.4	-42.5	21.6	0.00e+00	47	41	0	1143996416	54	6813
2026-01-21 22:59:06.55	347.74	15.38	-41.3	-42.3	21.8	0.00e+00	0	41	0	1145044992	54	6677
2026-01-21 22:59:07.56	347.64	15.29	-41.2	-42.3	21.7	0.00e+00	74	41	0	1147142144	54	6648
2026-01-21 22:59:08.57	347.53	15.19	-41.1	-42.1	21.9	0.00e+00	0	41	0	1149239296	54	6514
2026-01-21 22:59:09.58	347.43	15.10	-40.9	-42.0	21.9	0.00e+00	40	41	0	1151336448	54	6408
2026-01-21 22:59:10.59	347.32	15.01	-41.3	-42.4	21.5	0.00e+00	0	41	0	1153433600	54	6734
2026-01-21 22:59:11.60	347.22	14.91	-41.5	-42.6	21.5	0.00e+00	0	41	0	1155530752	54	6925
2026-01-21 22:59:12.60	347.12	14.82	-41.7	-42.8	21.4	0.00e+00	9	41	0	1156579328	54	7075
2026-01-21 22:59:13.61	347.01	14.73	-41.5	-42.6	21.4	0.00e+00	0	41	0	1158676480	54	6899
2026-01-21 22:59:14.62	346.91	14.63	-41.8	-42.9	21.2	0.00e+00	1	41	0	1160773632	56	6364
2026-01-21 22:59:15.63	346.81	14.54	-42.2	-43.4	20.8	0.00e+00	0	41	0	1162870784	56	6742
2026-01-21 22:59:16.64	346.71	14.45	-42.4	-43.7	20.6	0.00e+00	40	41	0	1164967936	56	6953
2026-01-21 22:59:17.65	346.61	14.36	-42.7	-44.1	20.1	0.00e+00	0	41	0	1166016512	56	7289
2026-01-21 22:59:18.66	346.51	14.26	-42.9	-44.4	20.0	0.00e+00	0	41	0	1168113664	58	6704
2026-01-21 22:59:19.67	346.41	14.17	-42.9	-44.4	19.9	0.00e+00	0	41	0	1170210816	58	6701
2026-01-21 22:59:20.68	346.31	14.08	-43.2	-44.7	19.8	0.00e+00	0	41	0	1172307968	58	6946
2026-01-21 22:59:21.69	346.22	13.99	-43.1	-44.5	19.8	0.00e+00	8	41	0	1174405120	58	6808
2026-01-21 22:59:22.70	346.12	13.90	-42.8	-44.2	19.9	0.00e+00	0	41	0	1175453696	58	6615
2026-01-21 22:59:23.71	346.02	13.81	-42.9	-44.3	20.4	0.00e+00	36	41	0	1177550848	58	6620
2026-01-21 22:59:24.72	345.93	13.72	-42.5	-43.8	20.5	0.00e+00	0	41	0	1179648000	58	6288
2026-01-21 22:59:25.73	345.83	13.63	-42.0	-43.2	20.9	0.00e+00	0	41	0	1181745152	58	5893
2026-01-21 22:59:26.74	345.74	13.54	-42.1	-43.4	20.9	0.00e+00	0	41	0	1183842304	58	5990
2026-01-21 22:59:27.75	345.65	13.45	-41.9	-43.0	21.2	0.00e+00	0	41	0	1184890880	58	5745
2026-01-21 22:59:28.76	345.55	13.36	-41.6	-42.8	21.3	0.00e+00	8	41	0	1186988032	56	6280
