passes_logs/2026/01/21/R4.6S_Anadyr/R4.6S_Anadyr__20260121_230806_NOAA_20_JPSS-1_rec.log

#Pass ID: 20260121_230806_NOAA 20 (JPSS-1)
#Satellite: NOAA 20 (JPSS-1)
#Configuration: NOAA 20
#almurnet v.1.7.20251203
#Start time: 2026-01-21 23:08:09

#Version: 2.2.20231116
#Station: R4.6S_Anadyr
#Location: 177.4865 lon 64.73178 lat
#TLE: 1 43013U 17073A   26020.82785136  .00000155  00000+0  94366-4 0  9991
#TLE: 2 43013  98.7643 321.7058 0001260  30.3785 329.7464 14.19537992423566

#Time	Az	El	Level	Level2	SNR	BER	BlckErr	Temp	State	Recorded	gain1	gain2
2026-01-21 23:08:09.71	129.63	0.18	-51.7	-65.5	3.3	1.54e+00	0	39	0	0	60	68047
2026-01-21 23:08:10.71	129.60	0.24	-51.1	-66.3	3.6	1.51e+00	0	39	104	0	60	74871
2026-01-21 23:08:11.72	129.57	0.30	-51.0	-66.1	3.6	1.51e+00	0	39	104	0	60	73162
2026-01-21 23:08:12.73	129.55	0.36	-51.0	-66.2	3.6	1.51e+00	0	39	104	0	60	73791
2026-01-21 23:08:13.74	129.52	0.42	-50.9	-66.1	3.6	1.51e+00	0	40	104	0	60	73009
2026-01-21 23:08:14.75	129.49	0.48	-50.8	-66.2	3.6	1.51e+00	0	40	104	0	60	73498
2026-01-21 23:08:15.76	129.47	0.54	-51.4	-66.5	3.6	1.51e+00	0	40	104	0	60	76829
2026-01-21 23:08:16.77	129.44	0.60	-51.0	-66.3	3.6	1.51e+00	0	40	104	0	60	74297
2026-01-21 23:08:17.78	129.41	0.66	-50.9	-66.1	3.6	1.51e+00	0	40	104	0	60	72914
2026-01-21 23:08:18.79	129.39	0.72	-50.8	-66.0	3.6	1.51e+00	0	40	104	0	60	72422
2026-01-21 23:08:19.80	129.36	0.78	-50.7	-65.9	3.6	1.51e+00	0	40	104	0	60	71673
2026-01-21 23:08:20.81	129.33	0.84	-50.7	-65.9	3.6	1.51e+00	0	40	104	0	60	71357
2026-01-21 23:08:21.82	129.30	0.90	-50.4	-65.8	3.6	1.51e+00	0	40	104	0	60	70257
2026-01-21 23:08:22.83	129.27	0.96	-50.1	-65.7	3.6	1.51e+00	0	40	104	0	60	69805
2026-01-21 23:08:23.84	129.25	1.02	-50.1	-65.7	3.6	1.51e+00	0	40	104	0	60	70029
2026-01-21 23:08:24.85	129.22	1.09	-50.5	-65.7	3.6	1.51e+00	0	40	104	0	60	69714
2026-01-21 23:08:25.85	129.19	1.15	-49.5	-65.6	3.6	1.51e+00	0	40	104	0	60	69152
2026-01-21 23:08:26.87	129.16	1.21	-50.4	-65.6	3.6	1.51e+00	0	40	104	0	60	68673
2026-01-21 23:08:27.87	129.13	1.27	-50.2	-65.4	3.6	1.51e+00	0	40	104	0	60	67295
2026-01-21 23:08:28.88	129.10	1.33	-50.0	-65.3	3.5	1.51e+00	0	40	104	0	60	66651
2026-01-21 23:08:29.89	129.08	1.39	-49.8	-65.1	3.6	1.51e+00	0	40	104	0	60	64930
2026-01-21 23:08:30.90	129.05	1.46	-49.6	-64.9	3.6	1.51e+00	0	40	104	0	60	63738
2026-01-21 23:08:31.91	129.02	1.52	-49.3	-64.4	3.6	1.51e+00	0	40	104	0	60	60129
2026-01-21 23:08:32.92	128.99	1.58	-49.2	-64.3	3.6	1.51e+00	0	40	104	0	60	59638
2026-01-21 23:08:33.93	128.96	1.64	-49.2	-64.4	3.6	1.51e+00	0	40	104	0	60	59936
2026-01-21 23:08:34.94	128.93	1.71	-49.2	-64.4	3.6	1.51e+00	0	40	104	0	60	60142
2026-01-21 23:08:35.95	128.90	1.77	-49.2	-64.4	3.5	1.51e+00	0	40	104	0	60	60037
2026-01-21 23:08:36.96	128.87	1.83	-49.2	-64.4	3.6	1.51e+00	0	40	104	0	60	60289
2026-01-21 23:08:37.97	128.84	1.89	-49.2	-64.4	3.6	1.51e+00	0	40	104	0	60	60273
2026-01-21 23:08:38.98	128.81	1.96	-49.2	-64.5	3.6	1.51e+00	0	40	104	0	60	60400
2026-01-21 23:08:39.99	128.78	2.02	-49.2	-64.3	3.6	1.51e+00	0	40	104	0	60	59417
2026-01-21 23:08:41.00	128.75	2.08	-49.2	-64.2	3.6	1.51e+00	0	40	104	0	60	58648
2026-01-21 23:08:42.01	128.72	2.15	-49.2	-64.2	3.6	1.51e+00	0	40	104	0	60	58649
2026-01-21 23:08:43.02	128.69	2.21	-49.2	-64.0	3.6	1.51e+00	0	40	104	0	60	57583
2026-01-21 23:08:44.03	128.66	2.28	-49.2	-64.3	3.6	1.51e+00	0	40	104	0	60	59071
2026-01-21 23:08:45.04	128.63	2.34	-49.2	-64.3	3.6	1.51e+00	0	40	104	0	60	59108
2026-01-21 23:08:46.05	128.59	2.40	-49.2	-64.5	3.6	1.51e+00	0	40	104	0	60	60358
2026-01-21 23:08:47.06	128.56	2.47	-49.2	-64.4	3.6	1.51e+00	0	40	104	0	60	60230
2026-01-21 23:08:48.07	128.53	2.53	-49.2	-64.5	3.6	1.51e+00	0	40	104	0	60	60418
2026-01-21 23:08:49.08	128.50	2.60	-49.2	-64.5	3.6	1.51e+00	0	40	104	0	60	60424
2026-01-21 23:08:50.09	128.47	2.66	-49.2	-64.4	3.6	1.51e+00	0	40	104	0	60	59890
2026-01-21 23:08:51.10	128.44	2.73	-49.2	-64.4	3.6	1.51e+00	0	40	104	0	60	60001
2026-01-21 23:08:52.11	128.40	2.79	-49.2	-64.3	3.6	1.51e+00	0	40	104	0	60	59360
2026-01-21 23:08:53.12	128.37	2.86	-49.2	-64.0	3.6	1.51e+00	0	40	104	0	60	57517
2026-01-21 23:08:54.13	128.34	2.92	-49.1	-63.8	3.6	1.51e+00	0	40	104	0	60	55817
2026-01-21 23:08:55.14	128.31	2.99	-49.1	-63.6	3.6	1.51e+00	0	40	104	0	60	54414
2026-01-21 23:08:56.15	128.28	3.05	-49.1	-63.6	3.6	1.51e+00	0	40	104	0	60	54950
2026-01-21 23:08:57.16	128.24	3.12	-49.1	-64.0	3.5	1.51e+00	0	40	104	0	60	57151
2026-01-21 23:08:58.17	128.21	3.18	-49.1	-64.2	3.6	1.51e+00	0	40	104	0	60	58640
2026-01-21 23:08:59.18	128.18	3.25	-49.1	-63.7	3.6	1.51e+00	0	40	104	0	60	55053
2026-01-21 23:09:00.19	128.14	3.32	-49.0	-61.4	3.7	1.51e+00	0	40	104	0	60	42464
2026-01-21 23:09:01.20	128.11	3.38	-48.7	-58.4	5.0	7.84e-01	48	40	0	0	60	29929
2026-01-21 23:09:02.21	128.08	3.45	-48.4	-55.6	7.1	3.20e-01	92	40	0	2097152	60	21802
2026-01-21 23:09:03.22	128.04	3.52	-48.0	-53.7	9.1	4.65e-02	0	40	0	3145728	60	17588
2026-01-21 23:09:04.22	128.01	3.58	-48.0	-54.4	8.0	6.76e-03	92	40	0	5242880	60	18886
2026-01-21 23:09:05.24	127.97	3.65	-48.8	-63.3	3.6	1.51e+00	0	40	104	6291456	60	53050
2026-01-21 23:09:06.24	127.94	3.72	-45.6	-48.5	14.9	3.46e-01	92	40	104	6291456	60	9583
2026-01-21 23:09:07.25	127.91	3.78	-48.9	-63.4	3.6	9.11e-01	0	41	104	6291456	60	53734
2026-01-21 23:09:08.26	127.87	3.85	-49.5	-64.7	3.7	1.51e+00	0	40	104	6291456	60	61817
2026-01-21 23:09:09.27	127.84	3.92	-45.7	-48.7	14.9	2.75e-01	92	41	104	6291456	60	9847
2026-01-21 23:09:10.28	127.80	3.99	-44.2	-46.2	17.4	0.00e+00	0	40	0	7340032	60	7391
2026-01-21 23:09:11.29	127.77	4.05	-43.3	-45.0	18.7	0.00e+00	92	40	0	9437184	60	6430
2026-01-21 23:09:12.30	127.73	4.12	-43.3	-45.1	18.5	0.00e+00	92	40	0	11534336	58	7260
2026-01-21 23:09:13.31	127.70	4.19	-43.0	-44.6	18.9	0.00e+00	92	40	0	12582912	58	6914
2026-01-21 23:09:14.32	127.66	4.26	-42.8	-44.4	19.3	0.00e+00	92	40	0	14680064	58	6733
2026-01-21 23:09:15.33	127.62	4.33	-42.8	-44.4	19.3	0.00e+00	0	40	0	16777216	58	6708
2026-01-21 23:09:16.34	127.59	4.39	-42.4	-43.8	19.9	0.00e+00	90	40	0	18874368	58	6277
2026-01-21 23:09:17.35	127.55	4.46	-42.2	-43.5	20.1	0.00e+00	59	40	0	20971520	58	6093
2026-01-21 23:09:18.36	127.52	4.53	-43.2	-44.8	18.7	0.00e+00	92	40	0	22020096	58	7058
2026-01-21 23:09:19.37	127.48	4.60	-42.4	-43.8	19.9	0.00e+00	0	40	0	24117248	58	6308
2026-01-21 23:09:20.38	127.44	4.67	-42.4	-43.8	19.9	0.00e+00	92	40	0	26214400	58	6280
2026-01-21 23:09:21.39	127.40	4.74	-43.0	-44.6	18.8	0.00e+00	92	40	0	28311552	58	6911
2026-01-21 23:09:22.40	127.37	4.81	-42.7	-44.2	19.7	0.00e+00	92	40	0	30408704	58	6557
2026-01-21 23:09:23.40	127.33	4.88	-42.5	-44.0	19.8	0.00e+00	92	40	0	32505856	58	6425
2026-01-21 23:09:24.41	127.29	4.95	-42.3	-43.7	20.0	0.00e+00	12	40	0	33554432	58	6209
2026-01-21 23:09:25.42	127.26	5.02	-42.2	-43.6	20.1	0.00e+00	90	40	0	35651584	58	6105
2026-01-21 23:09:26.43	127.22	5.09	-42.0	-43.3	20.3	0.00e+00	0	40	0	37748736	58	5937
2026-01-21 23:09:27.44	127.18	5.16	-42.2	-43.5	20.2	0.00e+00	91	40	0	39845888	58	6086
2026-01-21 23:09:28.45	127.14	5.23	-42.2	-43.6	20.1	0.00e+00	91	40	0	41943040	58	6171
2026-01-21 23:09:29.46	127.10	5.30	-42.3	-43.7	20.1	0.00e+00	91	40	0	42991616	58	6182
2026-01-21 23:09:30.47	127.06	5.37	-42.4	-43.8	20.0	0.00e+00	91	41	0	45088768	58	6271
2026-01-21 23:09:31.48	127.03	5.44	-42.0	-43.3	20.5	0.00e+00	0	40	0	47185920	58	5942
2026-01-21 23:09:32.49	126.99	5.51	-42.6	-44.1	19.7	0.00e+00	92	40	0	49283072	58	6504
2026-01-21 23:09:33.50	126.95	5.59	-41.8	-43.2	20.6	0.00e+00	0	40	0	51380224	58	5832
2026-01-21 23:09:34.51	126.91	5.66	-42.3	-43.7	20.1	0.00e+00	90	40	0	52428800	58	6235
2026-01-21 23:09:35.52	126.87	5.73	-42.4	-43.9	19.8	0.00e+00	92	40	0	54525952	58	6340
2026-01-21 23:09:36.53	126.83	5.80	-42.3	-43.7	20.3	0.00e+00	91	40	0	56623104	58	6212
2026-01-21 23:09:37.54	126.79	5.87	-42.3	-43.7	20.0	0.00e+00	92	40	0	58720256	56	6960
2026-01-21 23:09:38.55	126.75	5.95	-42.6	-44.1	19.9	0.00e+00	34	40	0	60817408	58	6537
2026-01-21 23:09:39.56	126.71	6.02	-42.1	-43.5	20.3	0.00e+00	92	40	0	61865984	58	6079
2026-01-21 23:09:40.56	126.67	6.09	-42.3	-43.7	20.1	0.00e+00	34	41	0	63963136	58	6240
2026-01-21 23:09:41.57	126.62	6.16	-41.9	-43.2	20.6	0.00e+00	92	40	0	66060288	58	5871
2026-01-21 23:09:42.58	126.58	6.24	-41.9	-43.3	20.5	0.00e+00	92	40	0	68157440	58	5933
2026-01-21 23:09:43.59	126.54	6.31	-41.9	-43.3	20.6	0.00e+00	92	41	0	70254592	58	5912
2026-01-21 23:09:44.60	126.50	6.38	-42.0	-43.3	20.5	0.00e+00	92	40	0	71303168	58	5954
2026-01-21 23:09:45.61	126.46	6.46	-42.1	-43.5	20.4	0.00e+00	92	41	0	73400320	58	6095
2026-01-21 23:09:46.62	126.42	6.53	-41.9	-43.3	20.6	0.00e+00	92	41	0	75497472	56	6632
2026-01-21 23:09:47.63	126.37	6.61	-41.8	-43.1	20.9	0.00e+00	7	41	0	77594624	56	6515
2026-01-21 23:09:48.64	126.33	6.68	-42.0	-43.3	20.5	0.00e+00	92	41	0	79691776	56	6688
2026-01-21 23:09:49.64	126.29	6.75	-42.5	-43.9	20.1	0.00e+00	12	41	0	80740352	56	7117
2026-01-21 23:09:50.65	126.25	6.83	-42.3	-43.7	20.2	0.00e+00	92	41	0	82837504	56	6932
2026-01-21 23:09:51.66	126.20	6.90	-42.2	-43.6	20.3	0.00e+00	91	41	0	84934656	56	6902
2026-01-21 23:09:52.67	126.16	6.98	-42.3	-43.7	20.3	0.00e+00	92	41	0	87031808	56	6959
2026-01-21 23:09:53.68	126.11	7.05	-41.9	-43.2	20.6	0.00e+00	92	40	0	89128960	56	6545
2026-01-21 23:09:54.69	126.07	7.13	-42.0	-43.3	20.7	0.00e+00	0	40	0	90177536	56	6623
2026-01-21 23:09:55.70	126.03	7.21	-41.8	-43.1	20.8	0.00e+00	90	40	0	92274688	56	6482
2026-01-21 23:09:56.71	125.98	7.28	-41.5	-42.7	21.2	0.00e+00	29	40	0	94371840	56	6200
2026-01-21 23:09:57.72	125.94	7.36	-41.7	-43.0	20.9	0.00e+00	92	40	0	96468992	56	6427
2026-01-21 23:09:58.73	125.89	7.43	-41.9	-43.2	20.8	0.00e+00	92	41	0	98566144	56	6610
2026-01-21 23:09:59.74	125.85	7.51	-41.9	-43.3	20.8	0.00e+00	92	41	0	100663296	56	6621
2026-01-21 23:10:00.74	125.80	7.59	-42.1	-43.4	20.6	0.00e+00	92	41	0	101711872	56	6750
2026-01-21 23:10:01.75	125.76	7.66	-42.0	-43.4	20.7	0.00e+00	92	40	0	103809024	56	6695
2026-01-21 23:10:02.76	125.71	7.74	-42.1	-43.4	20.6	0.00e+00	92	41	0	105906176	56	6695
2026-01-21 23:10:03.77	125.66	7.82	-41.8	-43.0	21.2	0.00e+00	46	41	0	108003328	56	6440
2026-01-21 23:10:04.78	125.62	7.90	-41.9	-43.1	20.8	0.00e+00	90	41	0	110100480	56	6538
2026-01-21 23:10:05.79	125.57	7.97	-41.9	-43.1	21.0	0.00e+00	30	41	0	111149056	56	6507
2026-01-21 23:10:06.79	125.52	8.05	-42.0	-43.3	20.8	0.00e+00	92	41	0	113246208	56	6634
2026-01-21 23:10:07.80	125.48	8.13	-41.6	-42.8	21.3	0.00e+00	92	41	0	115343360	56	6307
2026-01-21 23:10:08.82	125.43	8.21	-41.6	-42.8	21.3	0.00e+00	91	40	0	117440512	56	6269
2026-01-21 23:10:09.83	125.38	8.29	-41.7	-43.0	21.1	0.00e+00	92	41	0	119537664	56	6398
2026-01-21 23:10:10.84	125.33	8.37	-41.6	-42.8	21.3	0.00e+00	0	41	0	120586240	56	6281
2026-01-21 23:10:11.84	125.28	8.45	-41.3	-42.4	21.7	0.00e+00	91	41	0	122683392	56	6015
2026-01-21 23:10:12.85	125.23	8.53	-41.3	-42.5	21.5	0.00e+00	0	41	0	124780544	56	6055
2026-01-21 23:10:13.86	125.19	8.61	-41.3	-42.4	21.6	0.00e+00	90	41	0	126877696	56	6020
2026-01-21 23:10:14.88	125.14	8.69	-41.6	-42.7	21.2	0.00e+00	92	41	0	128974848	56	6241
2026-01-21 23:10:15.89	125.09	8.77	-41.6	-42.8	21.2	0.00e+00	92	41	0	130023424	56	6282
2026-01-21 23:10:16.90	125.04	8.85	-41.7	-43.0	21.0	0.00e+00	92	41	0	132120576	56	6398
2026-01-21 23:10:17.91	124.99	8.93	-41.6	-42.8	21.3	0.00e+00	90	41	0	134217728	56	6296
2026-01-21 23:10:18.92	124.94	9.01	-41.4	-42.5	21.5	0.00e+00	92	41	0	136314880	56	6080
2026-01-21 23:10:19.92	124.89	9.09	-41.5	-42.7	21.5	0.00e+00	32	41	0	138412032	56	6201
2026-01-21 23:10:20.93	124.83	9.17	-41.5	-42.6	21.5	0.00e+00	90	41	0	139460608	56	6166
2026-01-21 23:10:21.94	124.78	9.25	-41.7	-42.9	21.3	0.00e+00	31	41	0	141557760	56	6338
2026-01-21 23:10:22.95	124.73	9.33	-41.4	-42.5	21.6	0.00e+00	90	41	0	143654912	56	6097
2026-01-21 23:10:23.96	124.68	9.42	-41.2	-42.3	21.9	0.00e+00	92	41	0	145752064	56	5920
2026-01-21 23:10:24.97	124.63	9.50	-41.1	-42.1	22.0	0.00e+00	92	41	0	147849216	56	5828
2026-01-21 23:10:25.98	124.57	9.58	-41.3	-42.4	21.9	0.00e+00	92	41	0	148897792	56	5968
2026-01-21 23:10:26.99	124.52	9.66	-40.9	-41.9	22.2	0.00e+00	6	41	0	150994944	56	5668
2026-01-21 23:10:28.00	124.47	9.75	-41.1	-42.2	21.9	0.00e+00	90	41	0	153092096	56	5873
2026-01-21 23:10:29.00	124.41	9.83	-41.0	-42.1	22.0	0.00e+00	0	41	0	155189248	56	5806
2026-01-21 23:10:30.01	124.36	9.91	-41.4	-42.5	21.6	0.00e+00	90	41	0	157286400	56	6078
2026-01-21 23:10:31.02	124.31	10.00	-41.1	-42.2	21.8	0.00e+00	92	41	0	158334976	56	5892
2026-01-21 23:10:32.03	124.25	10.08	-41.0	-42.1	22.0	0.00e+00	90	41	0	160432128	56	5774
2026-01-21 23:10:33.04	124.20	10.17	-41.0	-42.1	22.0	0.00e+00	92	41	0	162529280	56	5816
2026-01-21 23:10:34.05	124.14	10.25	-41.0	-42.0	22.2	0.00e+00	54	41	0	164626432	56	5744
2026-01-21 23:10:35.06	124.09	10.33	-41.1	-42.1	22.1	0.00e+00	92	41	0	166723584	56	5815
2026-01-21 23:10:36.07	124.03	10.42	-40.6	-41.7	22.4	0.00e+00	0	41	0	168820736	54	6189
2026-01-21 23:10:37.08	123.97	10.51	-40.8	-41.8	22.3	0.00e+00	92	41	0	169869312	54	6274
2026-01-21 23:10:38.09	123.92	10.59	-40.7	-41.8	22.2	0.00e+00	90	41	0	171966464	54	6264
2026-01-21 23:10:39.10	123.86	10.68	-40.7	-41.7	22.3	0.00e+00	92	41	0	174063616	54	6236
2026-01-21 23:10:40.11	123.80	10.76	-40.6	-41.6	22.4	0.00e+00	92	41	0	176160768	54	6141
2026-01-21 23:10:41.12	123.75	10.85	-40.6	-41.6	22.4	0.00e+00	92	41	0	178257920	54	6114
2026-01-21 23:10:42.13	123.69	10.94	-40.9	-41.9	22.2	0.00e+00	92	41	0	179306496	54	6362
2026-01-21 23:10:43.14	123.63	11.02	-40.8	-41.8	22.3	0.00e+00	0	41	0	181403648	54	6292
2026-01-21 23:10:44.15	123.57	11.11	-40.8	-41.8	22.3	0.00e+00	92	41	0	183500800	54	6277
2026-01-21 23:10:45.16	123.51	11.20	-40.9	-41.9	22.2	0.00e+00	90	40	0	185597952	54	6365
2026-01-21 23:10:46.17	123.45	11.29	-41.1	-42.2	22.1	0.00e+00	92	41	0	187695104	54	6576
2026-01-21 23:10:47.18	123.39	11.37	-40.9	-42.0	22.0	0.00e+00	92	41	0	188743680	54	6434
2026-01-21 23:10:48.19	123.33	11.46	-40.5	-41.4	22.6	0.00e+00	92	41	0	190840832	54	6031
2026-01-21 23:10:49.20	123.27	11.55	-40.3	-41.2	22.8	0.00e+00	90	41	0	192937984	54	5878
2026-01-21 23:10:50.22	123.21	11.64	-40.3	-41.2	22.8	0.00e+00	0	41	0	195035136	54	5895
2026-01-21 23:10:51.22	123.15	11.73	-40.3	-41.3	22.8	0.00e+00	90	41	0	197132288	54	5948
2026-01-21 23:10:52.23	123.09	11.82	-40.2	-41.1	23.0	0.00e+00	15	41	0	198180864	54	5799
2026-01-21 23:10:53.24	123.02	11.91	-40.4	-41.3	22.8	0.00e+00	91	41	0	200278016	54	5964
2026-01-21 23:10:54.25	122.96	12.00	-40.3	-41.3	22.7	0.00e+00	92	41	0	202375168	54	5936
2026-01-21 23:10:55.26	122.90	12.09	-40.3	-41.2	22.8	0.00e+00	91	41	0	204472320	54	5882
2026-01-21 23:10:56.27	122.83	12.18	-40.4	-41.4	22.7	0.00e+00	91	41	0	206569472	54	5984
2026-01-21 23:10:57.28	122.77	12.27	-40.3	-41.3	22.8	0.00e+00	88	41	0	207618048	54	5912
2026-01-21 23:10:58.29	122.71	12.36	-40.3	-41.3	22.8	0.00e+00	92	41	0	209715200	54	5932
2026-01-21 23:10:59.30	122.64	12.46	-40.3	-41.3	22.8	0.00e+00	0	41	0	211812352	54	5938
2026-01-21 23:11:00.31	122.58	12.55	-40.2	-41.2	22.9	0.00e+00	92	41	0	213909504	54	5869
2026-01-21 23:11:01.32	122.51	12.64	-40.2	-41.2	22.9	0.00e+00	91	41	0	216006656	54	5838
2026-01-21 23:11:02.33	122.45	12.73	-40.2	-41.2	22.9	0.00e+00	92	41	0	217055232	54	5844
2026-01-21 23:11:03.34	122.38	12.83	-40.3	-41.3	22.8	0.00e+00	90	41	0	219152384	54	5914
2026-01-21 23:11:04.35	122.31	12.92	-40.1	-41.1	23.0	0.00e+00	92	41	0	221249536	54	5784
2026-01-21 23:11:05.35	122.25	13.01	-40.2	-41.2	22.9	0.00e+00	92	41	0	223346688	54	5842
2026-01-21 23:11:06.36	122.18	13.11	-40.3	-41.3	22.8	0.00e+00	0	41	0	225443840	54	5941
2026-01-21 23:11:07.37	122.11	13.20	-40.3	-41.3	22.8	0.00e+00	92	41	0	226492416	54	5922
2026-01-21 23:11:08.38	122.04	13.30	-40.2	-41.1	23.0	0.00e+00	92	41	0	228589568	54	5825
2026-01-21 23:11:09.39	121.97	13.39	-40.4	-41.4	22.9	0.00e+00	92	41	0	230686720	54	5988
2026-01-21 23:11:10.40	121.90	13.49	-40.4	-41.4	22.8	0.00e+00	92	41	0	232783872	54	6009
2026-01-21 23:11:11.41	121.83	13.58	-40.2	-41.3	22.8	0.00e+00	92	41	0	234881024	54	5898
2026-01-21 23:11:12.42	121.76	13.68	-40.3	-41.4	22.8	0.00e+00	92	41	0	236978176	54	5972
2026-01-21 23:11:13.43	121.69	13.77	-40.4	-41.4	22.9	0.00e+00	12	41	0	238026752	54	6007
2026-01-21 23:11:14.44	121.62	13.87	-40.2	-41.2	22.9	0.00e+00	92	41	0	240123904	54	5884
2026-01-21 23:11:15.45	121.55	13.97	-40.1	-41.1	23.1	0.00e+00	5	41	0	242221056	54	5808
2026-01-21 23:11:16.46	121.48	14.06	-40.1	-41.2	23.0	0.00e+00	92	41	0	244318208	54	5850
2026-01-21 23:11:17.47	121.40	14.16	-40.0	-41.1	23.0	0.00e+00	92	41	0	246415360	54	5780
2026-01-21 23:11:18.48	121.33	14.26	-40.3	-41.4	22.9	0.00e+00	92	41	0	247463936	54	5968
2026-01-21 23:11:19.49	121.26	14.36	-40.2	-41.3	22.8	0.00e+00	90	41	0	249561088	54	5907
2026-01-21 23:11:20.50	121.18	14.46	-40.5	-41.6	22.6	0.00e+00	92	41	0	251658240	54	6135
2026-01-21 23:11:21.51	121.11	14.56	-40.4	-41.5	22.7	0.00e+00	92	41	0	253755392	54	6064
2026-01-21 23:11:22.52	121.03	14.66	-40.1	-41.2	23.1	0.00e+00	16	41	0	255852544	54	5840
2026-01-21 23:11:23.53	120.95	14.76	-40.3	-41.3	23.0	0.00e+00	92	41	0	256901120	54	5923
2026-01-21 23:11:24.54	120.88	14.86	-40.1	-41.2	23.0	0.00e+00	92	41	0	258998272	54	5833
2026-01-21 23:11:25.55	120.80	14.96	-40.3	-41.4	22.8	0.00e+00	92	41	0	261095424	54	5985
2026-01-21 23:11:26.56	120.72	15.06	-40.2	-41.2	23.0	0.00e+00	92	41	0	263192576	54	5867
2026-01-21 23:11:27.57	120.65	15.16	-40.1	-41.1	23.1	0.00e+00	92	41	0	265289728	54	5796
2026-01-21 23:11:28.58	120.57	15.26	-40.1	-41.1	23.1	0.00e+00	92	41	0	266338304	54	5793
2026-01-21 23:11:29.59	120.49	15.36	-40.3	-41.4	22.8	0.00e+00	12	41	0	268435456	54	6002
2026-01-21 23:11:30.59	120.41	15.46	-40.3	-41.4	22.9	0.00e+00	92	41	0	270532608	54	5968
2026-01-21 23:11:31.60	120.33	15.57	-40.2	-41.2	23.0	0.00e+00	13	41	0	272629760	54	5894
2026-01-21 23:11:32.61	120.25	15.67	-40.3	-41.3	22.9	0.00e+00	92	41	0	274726912	54	5934
2026-01-21 23:11:33.62	120.17	15.77	-40.3	-41.3	23.0	0.00e+00	92	41	0	275775488	54	5932
2026-01-21 23:11:34.63	120.08	15.88	-40.2	-41.2	23.0	0.00e+00	92	41	0	277872640	54	5867
2026-01-21 23:11:35.64	120.00	15.98	-40.2	-41.2	23.0	0.00e+00	92	41	0	279969792	54	5894
2026-01-21 23:11:36.65	119.92	16.08	-40.2	-41.2	23.1	0.00e+00	0	41	0	282066944	54	5875
2026-01-21 23:11:37.66	119.83	16.19	-40.3	-41.2	23.0	0.00e+00	92	41	0	284164096	54	5880
2026-01-21 23:11:38.67	119.75	16.29	-40.6	-41.6	22.8	0.00e+00	33	41	0	285212672	54	6123
2026-01-21 23:11:39.68	119.66	16.40	-40.4	-41.3	22.9	0.00e+00	90	41	0	287309824	54	5957
2026-01-21 23:11:40.69	119.58	16.51	-40.6	-41.6	22.6	0.00e+00	92	41	0	289406976	54	6170
2026-01-21 23:11:41.70	119.49	16.61	-40.4	-41.3	22.9	0.00e+00	92	41	0	291504128	54	5950
2026-01-21 23:11:42.71	119.40	16.72	-40.3	-41.2	22.9	0.00e+00	92	41	0	293601280	54	5891
2026-01-21 23:11:43.72	119.32	16.83	-40.2	-41.2	23.0	0.00e+00	48	41	0	294649856	54	5846
2026-01-21 23:11:44.73	119.23	16.93	-40.3	-41.3	22.9	0.00e+00	91	41	0	296747008	54	5932
2026-01-21 23:11:45.74	119.14	17.04	-40.4	-41.4	22.9	0.00e+00	26	41	0	298844160	54	5996
2026-01-21 23:11:46.75	119.05	17.15	-40.4	-41.4	23.0	0.00e+00	92	41	0	300941312	54	5981
2026-01-21 23:11:47.76	118.96	17.26	-40.4	-41.4	22.9	0.00e+00	89	41	0	303038464	54	5976
2026-01-21 23:11:48.77	118.87	17.37	-40.5	-41.5	22.9	0.00e+00	90	41	0	305135616	54	6049
2026-01-21 23:11:49.78	118.78	17.48	-40.8	-41.8	22.6	0.00e+00	92	41	0	306184192	54	6294
2026-01-21 23:11:50.79	118.68	17.59	-40.8	-41.8	22.5	0.00e+00	92	41	0	308281344	54	6310
2026-01-21 23:11:51.80	118.59	17.70	-40.6	-41.6	22.7	0.00e+00	92	41	0	310378496	54	6143
2026-01-21 23:11:52.81	118.50	17.81	-40.7	-41.7	22.6	0.00e+00	0	41	0	312475648	54	6229
2026-01-21 23:11:53.82	118.40	17.92	-40.6	-41.7	22.7	0.00e+00	92	41	0	314572800	54	6192
2026-01-21 23:11:54.83	118.31	18.03	-40.5	-41.6	22.8	0.00e+00	92	41	0	315621376	54	6135
2026-01-21 23:11:55.84	118.21	18.15	-40.5	-41.5	22.8	0.00e+00	92	41	0	317718528	54	6092
2026-01-21 23:11:56.85	118.12	18.26	-40.4	-41.5	22.8	0.00e+00	92	41	0	319815680	54	6065
2026-01-21 23:11:57.86	118.02	18.37	-40.7	-41.7	22.6	0.00e+00	92	41	0	321912832	54	6239
2026-01-21 23:11:58.87	117.92	18.49	-40.7	-41.7	22.6	0.00e+00	90	41	0	324009984	54	6240
2026-01-21 23:11:59.88	117.82	18.60	-40.7	-41.7	22.7	0.00e+00	35	41	0	325058560	54	6218
2026-01-21 23:12:00.89	117.72	18.71	-40.7	-41.7	22.6	0.00e+00	90	41	0	327155712	54	6238
2026-01-21 23:12:01.89	117.62	18.83	-40.9	-41.9	22.5	0.00e+00	0	41	0	329252864	54	6366
2026-01-21 23:12:02.90	117.52	18.94	-40.8	-41.8	22.5	0.00e+00	90	41	0	331350016	54	6297
2026-01-21 23:12:03.91	117.42	19.06	-40.5	-41.5	22.7	0.00e+00	91	41	0	333447168	54	6064
2026-01-21 23:12:04.92	117.32	19.17	-40.6	-41.6	22.8	0.00e+00	91	41	0	334495744	54	6145
2026-01-21 23:12:05.93	117.21	19.29	-40.6	-41.5	22.8	0.00e+00	90	41	0	336592896	54	6101
2026-01-21 23:12:06.94	117.11	19.41	-40.6	-41.6	22.9	0.00e+00	54	41	0	338690048	54	6117
2026-01-21 23:12:07.95	117.00	19.53	-40.5	-41.5	22.8	0.00e+00	91	41	0	340787200	54	6087
2026-01-21 23:12:08.96	116.90	19.64	-40.7	-41.7	22.7	0.00e+00	31	41	0	342884352	54	6192
2026-01-21 23:12:09.97	116.79	19.76	-40.6	-41.6	22.8	0.00e+00	92	41	0	343932928	54	6112
2026-01-21 23:12:10.98	116.68	19.88	-40.9	-41.9	22.5	0.00e+00	92	41	0	346030080	54	6370
2026-01-21 23:12:11.98	116.58	20.00	-40.9	-41.9	22.6	0.00e+00	92	41	0	348127232	54	6320
2026-01-21 23:12:13.00	116.46	20.12	-40.8	-41.8	22.4	0.00e+00	92	41	0	350224384	54	6310
2026-01-21 23:12:14.01	116.35	20.24	-40.7	-41.8	22.5	0.00e+00	70	41	0	352321536	54	6249
2026-01-21 23:12:15.02	116.24	20.36	-40.8	-41.8	22.5	0.00e+00	92	41	0	353370112	54	6276
2026-01-21 23:12:16.03	116.13	20.48	-40.8	-41.8	22.5	0.00e+00	7	41	0	355467264	54	6317
2026-01-21 23:12:17.04	116.02	20.60	-40.8	-41.9	22.6	0.00e+00	92	41	0	357564416	54	6336
2026-01-21 23:12:18.05	115.90	20.73	-41.0	-42.1	22.3	0.00e+00	84	41	0	359661568	54	6478
2026-01-21 23:12:19.06	115.79	20.85	-40.9	-41.9	22.5	0.00e+00	92	41	0	361758720	54	6359
2026-01-21 23:12:20.06	115.67	20.97	-40.9	-41.9	22.6	0.00e+00	90	41	0	362807296	54	6377
2026-01-21 23:12:21.07	115.56	21.09	-40.9	-42.0	22.4	0.00e+00	92	41	0	364904448	54	6409
2026-01-21 23:12:22.08	115.44	21.22	-40.8	-41.8	22.6	0.00e+00	92	41	0	367001600	54	6304
2026-01-21 23:12:23.09	115.32	21.34	-41.0	-42.0	22.5	0.00e+00	40	41	0	369098752	54	6452
2026-01-21 23:12:24.10	115.20	21.47	-40.8	-41.8	22.7	0.00e+00	90	41	0	371195904	54	6297
2026-01-21 23:12:25.11	115.08	21.59	-40.9	-41.9	22.6	0.00e+00	0	41	0	372244480	54	6355
2026-01-21 23:12:26.12	114.96	21.72	-40.9	-41.9	22.6	0.00e+00	92	41	0	374341632	54	6339
2026-01-21 23:12:27.14	114.84	21.85	-40.9	-41.9	22.5	0.00e+00	92	41	0	376438784	54	6340
2026-01-21 23:12:28.14	114.71	21.97	-41.0	-42.0	22.5	0.00e+00	90	41	0	378535936	54	6424
2026-01-21 23:12:29.15	114.59	22.10	-40.8	-41.8	22.7	0.00e+00	92	41	0	380633088	54	6299
2026-01-21 23:12:30.16	114.46	22.23	-40.9	-41.9	22.5	0.00e+00	58	41	0	381681664	54	6361
2026-01-21 23:12:31.17	114.34	22.36	-41.0	-42.0	22.5	0.00e+00	92	41	0	383778816	54	6448
2026-01-21 23:12:32.18	114.21	22.49	-40.9	-41.9	22.7	0.00e+00	49	41	0	385875968	54	6376
2026-01-21 23:12:33.19	114.08	22.61	-41.1	-42.1	22.1	0.00e+00	92	41	0	387973120	54	6529
2026-01-21 23:12:34.20	113.95	22.74	-41.1	-42.2	22.6	0.00e+00	92	41	0	390070272	54	6548
2026-01-21 23:12:35.21	113.82	22.87	-40.9	-41.9	22.6	0.00e+00	92	41	0	391118848	54	6365
2026-01-21 23:12:36.22	113.68	23.01	-40.9	-42.0	22.7	0.00e+00	90	41	0	393216000	54	6392
2026-01-21 23:12:37.23	113.55	23.14	-41.0	-42.0	22.5	0.00e+00	48	41	0	395313152	54	6454
2026-01-21 23:12:38.24	113.42	23.27	-41.1	-42.1	22.4	0.00e+00	92	41	0	397410304	54	6535
2026-01-21 23:12:39.25	113.28	23.40	-41.1	-42.1	22.3	0.00e+00	0	41	0	399507456	54	6516
2026-01-21 23:12:40.26	113.14	23.53	-40.8	-41.8	22.6	0.00e+00	92	41	0	401604608	54	6279
2026-01-21 23:12:41.27	113.01	23.67	-40.7	-41.7	22.7	0.00e+00	15	41	0	402653184	54	6207
2026-01-21 23:12:42.28	112.87	23.80	-40.7	-41.7	22.7	0.00e+00	92	41	0	404750336	54	6244
2026-01-21 23:12:43.28	112.73	23.93	-40.6	-41.6	22.9	0.00e+00	92	41	0	406847488	54	6138
2026-01-21 23:12:44.30	112.58	24.07	-40.6	-41.6	22.8	0.00e+00	0	41	0	408944640	54	6145
2026-01-21 23:12:45.31	112.44	24.21	-40.7	-41.7	22.7	0.00e+00	91	41	0	411041792	54	6224
2026-01-21 23:12:46.32	112.30	24.34	-40.8	-41.8	22.7	0.00e+00	0	41	0	412090368	54	6287
2026-01-21 23:12:47.32	112.15	24.48	-40.6	-41.6	22.9	0.00e+00	92	41	0	414187520	54	6139
2026-01-21 23:12:48.34	112.00	24.61	-40.8	-41.8	22.8	0.00e+00	31	41	0	416284672	54	6264
2026-01-21 23:12:49.35	111.86	24.75	-40.9	-41.9	22.7	0.00e+00	92	41	0	418381824	54	6338
2026-01-21 23:12:50.36	111.71	24.89	-40.8	-41.8	22.7	0.00e+00	92	41	0	420478976	54	6306
2026-01-21 23:12:51.36	111.56	25.03	-40.9	-41.9	22.8	0.00e+00	0	41	0	421527552	54	6358
2026-01-21 23:12:52.37	111.40	25.17	-40.8	-41.8	22.7	0.00e+00	92	41	0	423624704	54	6308
2026-01-21 23:12:53.38	111.25	25.30	-40.9	-41.9	22.7	0.00e+00	5	41	0	425721856	54	6343
2026-01-21 23:12:54.39	111.10	25.44	-40.9	-41.9	22.7	0.00e+00	92	41	0	427819008	54	6322
2026-01-21 23:12:55.40	110.94	25.59	-40.9	-42.0	22.6	0.00e+00	41	41	0	429916160	54	6400
2026-01-21 23:12:56.41	110.78	25.73	-41.0	-42.1	22.5	0.00e+00	92	41	0	430964736	54	6469
2026-01-21 23:12:57.42	110.62	25.87	-40.9	-41.9	22.6	0.00e+00	92	41	0	433061888	54	6381
2026-01-21 23:12:58.43	110.46	26.01	-40.8	-41.8	22.8	0.00e+00	92	41	0	435159040	54	6278
2026-01-21 23:12:59.44	110.30	26.15	-40.8	-41.8	22.8	0.00e+00	91	41	0	437256192	54	6298
2026-01-21 23:13:00.45	110.14	26.29	-40.7	-41.7	22.9	0.00e+00	25	41	0	439353344	54	6218
2026-01-21 23:13:01.46	109.97	26.44	-40.8	-41.7	22.8	0.00e+00	92	41	0	440401920	54	6237
2026-01-21 23:13:02.47	109.80	26.58	-40.7	-41.7	22.9	0.00e+00	40	41	0	442499072	54	6206
2026-01-21 23:13:03.48	109.64	26.73	-40.8	-41.8	22.9	0.00e+00	92	41	0	444596224	54	6251
2026-01-21 23:13:04.49	109.47	26.87	-40.9	-41.9	22.7	0.00e+00	78	41	0	446693376	54	6350
2026-01-21 23:13:05.50	109.29	27.02	-40.8	-41.7	22.8	0.00e+00	92	41	0	448790528	54	6240
2026-01-21 23:13:06.51	109.12	27.16	-40.9	-41.9	22.6	0.00e+00	92	41	0	449839104	54	6348
2026-01-21 23:13:07.51	108.95	27.31	-40.8	-41.9	22.7	0.00e+00	39	41	0	451936256	54	6327
2026-01-21 23:13:08.53	108.77	27.46	-40.8	-41.8	22.7	0.00e+00	92	41	0	454033408	54	6299
2026-01-21 23:13:09.54	108.59	27.60	-40.9	-41.9	22.7	0.00e+00	34	41	0	456130560	54	6387
2026-01-21 23:13:10.55	108.41	27.75	-41.3	-42.4	22.3	0.00e+00	92	41	0	458227712	54	6734
2026-01-21 23:13:11.55	108.23	27.90	-40.9	-41.8	22.7	0.00e+00	32	41	0	459276288	54	6311
2026-01-21 23:13:12.56	108.05	28.05	-40.9	-41.9	22.7	0.00e+00	92	41	0	461373440	54	6343
2026-01-21 23:13:13.57	107.87	28.19	-41.5	-42.6	22.3	0.00e+00	92	41	0	463470592	54	6882
2026-01-21 23:13:14.58	107.68	28.34	-40.9	-41.9	22.7	0.00e+00	92	41	0	465567744	54	6357
2026-01-21 23:13:15.59	107.49	28.49	-41.0	-42.0	22.6	0.00e+00	92	41	0	467664896	54	6432
2026-01-21 23:13:16.60	107.30	28.65	-41.0	-42.0	22.6	0.00e+00	12	41	0	469762048	54	6464
2026-01-21 23:13:17.61	107.11	28.80	-41.1	-42.2	22.4	0.00e+00	92	41	0	470810624	54	6590
2026-01-21 23:13:18.62	106.92	28.95	-41.1	-42.2	22.4	0.00e+00	51	41	0	472907776	54	6597
2026-01-21 23:13:19.63	106.72	29.10	-41.2	-42.4	22.2	0.00e+00	92	41	0	475004928	54	6731
2026-01-21 23:13:20.64	106.52	29.25	-41.3	-42.5	22.2	0.00e+00	92	41	0	477102080	54	6810
2026-01-21 23:13:21.65	106.32	29.40	-41.7	-42.9	21.8	0.00e+00	91	41	0	479199232	54	7102
2026-01-21 23:13:22.66	106.12	29.56	-42.0	-43.2	21.6	0.00e+00	92	41	0	480247808	56	6551
2026-01-21 23:13:23.66	105.92	29.71	-42.3	-43.5	21.3	0.00e+00	0	41	0	482344960	56	6800
2026-01-21 23:13:24.67	105.72	29.86	-42.6	-43.8	21.1	0.00e+00	91	41	0	484442112	56	7063
2026-01-21 23:13:25.68	105.51	30.02	-43.0	-44.3	20.6	0.00e+00	40	41	0	486539264	58	6621
2026-01-21 23:13:26.69	105.30	30.17	-42.9	-44.2	20.6	0.00e+00	91	41	0	488636416	58	6544
2026-01-21 23:13:27.70	105.09	30.33	-42.9	-44.1	20.6	0.00e+00	6	41	0	489684992	58	6522
2026-01-21 23:13:28.71	104.88	30.48	-43.2	-44.5	20.5	0.00e+00	92	41	0	491782144	58	6845
2026-01-21 23:13:29.72	104.66	30.64	-43.2	-44.5	20.5	0.00e+00	91	41	0	493879296	58	6799
2026-01-21 23:13:30.73	104.44	30.80	-43.3	-44.7	20.3	0.00e+00	74	41	0	495976448	58	6956
2026-01-21 23:13:31.74	104.23	30.95	-43.7	-45.1	20.0	0.00e+00	92	41	0	498073600	58	7266
2026-01-21 23:13:32.75	104.00	31.11	-43.8	-45.2	19.8	0.00e+00	42	41	0	499122176	60	6577
2026-01-21 23:13:33.76	103.78	31.27	-43.9	-45.3	19.7	0.00e+00	92	41	0	501219328	60	6674
2026-01-21 23:13:34.77	103.55	31.43	-43.8	-45.3	19.7	0.00e+00	63	41	0	503316480	60	6655
2026-01-21 23:13:35.78	103.33	31.58	-44.1	-45.6	19.5	0.00e+00	90	41	0	505413632	60	6872
2026-01-21 23:13:36.79	103.10	31.74	-44.0	-45.4	19.6	0.00e+00	92	41	0	507510784	60	6768
2026-01-21 23:13:37.80	102.86	31.90	-43.8	-45.3	19.7	0.00e+00	90	41	0	508559360	60	6629
2026-01-21 23:13:38.80	102.63	32.06	-43.8	-45.3	19.7	0.00e+00	92	41	0	510656512	60	6646
2026-01-21 23:13:39.81	102.39	32.22	-43.5	-44.9	20.1	0.00e+00	51	41	0	512753664	60	6333
2026-01-21 23:13:40.82	102.15	32.38	-43.5	-44.9	20.1	0.00e+00	92	41	0	514850816	60	6338
2026-01-21 23:13:41.83	101.91	32.54	-43.5	-44.8	20.3	0.00e+00	0	41	0	516947968	60	6292
2026-01-21 23:13:42.84	101.67	32.70	-43.5	-44.9	20.2	0.00e+00	91	41	0	517996544	60	6345
2026-01-21 23:13:43.85	101.42	32.86	-43.5	-44.9	20.1	0.00e+00	89	41	0	520093696	60	6385
2026-01-21 23:13:44.86	101.17	33.02	-43.5	-44.9	20.1	0.00e+00	91	41	0	522190848	60	6368
2026-01-21 23:13:45.87	100.92	33.18	-43.5	-44.8	20.2	0.00e+00	91	41	0	524288000	60	6315
2026-01-21 23:13:46.88	100.66	33.34	-43.6	-45.0	20.2	0.00e+00	34	41	0	526385152	60	6424
2026-01-21 23:13:47.89	100.41	33.50	-43.6	-45.0	20.0	0.00e+00	90	41	0	527433728	60	6451
2026-01-21 23:13:48.90	100.15	33.66	-43.6	-45.0	19.9	0.00e+00	0	41	0	529530880	60	6458
2026-01-21 23:13:49.91	99.88	33.83	-43.7	-45.1	19.9	0.00e+00	92	41	0	531628032	60	6523
2026-01-21 23:13:50.92	99.62	33.99	-43.5	-44.9	20.1	0.00e+00	0	41	0	533725184	60	6369
2026-01-21 23:13:51.93	99.35	34.15	-43.5	-44.8	20.3	0.00e+00	91	41	0	535822336	60	6304
2026-01-21 23:13:52.94	99.08	34.31	-43.4	-44.7	20.3	0.00e+00	92	41	0	537919488	60	6223
2026-01-21 23:13:53.95	98.81	34.47	-43.2	-44.6	20.4	0.00e+00	90	41	0	538968064	60	6117
2026-01-21 23:13:54.96	98.53	34.64	-43.1	-44.4	20.6	0.00e+00	92	41	0	541065216	60	6016
2026-01-21 23:13:55.96	98.26	34.80	-43.1	-44.5	20.5	0.00e+00	36	41	0	543162368	60	6039
2026-01-21 23:13:56.97	97.97	34.96	-43.5	-44.8	20.6	0.00e+00	92	41	0	545259520	60	6297
2026-01-21 23:13:57.98	97.69	35.12	-43.0	-44.3	20.6	0.00e+00	43	41	0	547356672	60	5903
2026-01-21 23:13:58.99	97.40	35.28	-42.6	-43.8	21.2	0.00e+00	92	41	0	548405248	58	6288
2026-01-21 23:14:00.00	97.11	35.45	-42.4	-43.5	21.4	0.00e+00	92	41	0	550502400	58	6081
2026-01-21 23:14:01.00	96.82	35.61	-42.2	-43.3	21.7	0.00e+00	92	41	0	552599552	58	5964
2026-01-21 23:14:02.02	96.52	35.77	-42.1	-43.2	21.7	0.00e+00	92	41	0	554696704	58	5896
2026-01-21 23:14:03.03	96.23	35.93	-42.1	-43.2	21.6	0.00e+00	0	41	0	556793856	58	5893
2026-01-21 23:14:04.04	95.92	36.10	-42.1	-43.2	21.7	0.00e+00	92	41	0	557842432	58	5838
2026-01-21 23:14:05.05	95.62	36.26	-42.2	-43.4	21.5	0.00e+00	0	41	0	559939584	58	5998
2026-01-21 23:14:06.05	95.31	36.42	-42.0	-43.1	21.8	0.00e+00	92	41	0	562036736	58	5797
2026-01-21 23:14:07.06	95.00	36.58	-42.1	-43.2	21.7	0.00e+00	92	41	0	564133888	58	5871
2026-01-21 23:14:08.07	94.69	36.74	-41.9	-42.9	21.9	0.00e+00	93	41	0	566231040	58	5691
2026-01-21 23:14:09.08	94.37	36.90	-41.9	-43.0	21.9	0.00e+00	92	41	0	567279616	58	5748
2026-01-21 23:14:10.09	94.05	37.07	-42.1	-43.2	21.7	0.00e+00	92	41	0	569376768	58	5860
2026-01-21 23:14:11.10	93.73	37.23	-42.0	-43.2	21.7	0.00e+00	92	41	0	571473920	58	5834
2026-01-21 23:14:12.11	93.40	37.39	-42.1	-43.3	21.7	0.00e+00	44	41	0	573571072	58	5912
2026-01-21 23:14:13.12	93.07	37.55	-41.9	-42.9	21.9	0.00e+00	90	41	0	575668224	58	5687
2026-01-21 23:14:14.13	92.74	37.71	-41.8	-42.9	22.0	0.00e+00	26	41	0	576716800	58	5684
2026-01-21 23:14:15.14	92.40	37.87	-42.0	-43.1	21.8	0.00e+00	92	41	0	578813952	58	5803
2026-01-21 23:14:16.15	92.06	38.03	-42.2	-43.4	21.5	0.00e+00	92	41	0	580911104	58	6012
2026-01-21 23:14:17.16	91.72	38.19	-42.5	-43.7	21.4	0.00e+00	92	41	0	583008256	58	6186
2026-01-21 23:14:18.17	91.37	38.34	-42.4	-43.6	21.3	0.00e+00	92	41	0	585105408	58	6170
2026-01-21 23:14:19.18	91.02	38.50	-42.3	-43.4	21.5	0.00e+00	0	41	0	586153984	58	6027
2026-01-21 23:14:20.19	90.67	38.66	-42.1	-43.3	21.6	0.00e+00	92	41	0	588251136	58	5924
2026-01-21 23:14:21.20	90.31	38.82	-42.4	-43.6	21.4	0.00e+00	0	41	0	590348288	58	6113
2026-01-21 23:14:22.21	89.95	38.97	-42.7	-43.9	21.2	0.00e+00	92	41	0	592445440	58	6366
2026-01-21 23:14:23.22	89.59	39.13	-42.8	-44.1	20.7	0.00e+00	92	41	0	594542592	58	6474
2026-01-21 23:14:24.23	89.22	39.28	-43.1	-44.3	20.8	0.00e+00	92	41	0	595591168	58	6681
2026-01-21 23:14:25.24	88.85	39.44	-43.1	-44.4	20.6	0.00e+00	92	41	0	597688320	58	6726
2026-01-21 23:14:26.24	88.48	39.59	-42.9	-44.1	20.7	0.00e+00	6	41	0	599785472	58	6503
2026-01-21 23:14:27.25	88.10	39.74	-43.1	-44.4	21.0	0.00e+00	92	41	0	601882624	58	6720
2026-01-21 23:14:28.26	87.72	39.90	-42.8	-44.1	21.0	0.00e+00	0	41	0	603979776	58	6513
2026-01-21 23:14:29.27	87.33	40.05	-42.6	-43.8	21.3	0.00e+00	92	41	0	606076928	58	6289
2026-01-21 23:14:30.28	86.94	40.20	-42.2	-43.4	21.7	0.00e+00	90	41	0	607125504	58	5971
2026-01-21 23:14:31.29	86.55	40.35	-42.3	-43.4	21.5	0.00e+00	92	41	0	609222656	58	6013
2026-01-21 23:14:32.30	86.15	40.50	-41.8	-42.9	21.9	0.00e+00	92	41	0	611319808	58	5652
2026-01-21 23:14:33.31	85.75	40.64	-42.0	-43.1	21.8	0.00e+00	35	41	0	613416960	58	5812
2026-01-21 23:14:34.32	85.35	40.79	-42.2	-43.3	21.7	0.00e+00	92	41	0	615514112	58	5952
2026-01-21 23:14:35.33	84.94	40.94	-41.7	-42.8	22.3	0.00e+00	0	41	0	616562688	56	6246
2026-01-21 23:14:36.34	84.53	41.08	-41.2	-42.2	22.6	0.00e+00	92	41	0	618659840	56	5890
2026-01-21 23:14:37.35	84.12	41.23	-41.0	-42.0	23.1	0.00e+00	0	41	0	620756992	56	5696
2026-01-21 23:14:38.36	83.70	41.37	-40.4	-41.4	23.4	0.00e+00	92	41	0	622854144	54	5967
2026-01-21 23:14:39.37	83.28	41.51	-40.4	-41.3	23.5	0.00e+00	92	41	0	624951296	54	5931
2026-01-21 23:14:40.38	82.85	41.65	-40.4	-41.3	23.4	0.00e+00	92	41	0	625999872	54	5948
2026-01-21 23:14:41.39	82.42	41.79	-40.2	-41.1	23.6	0.00e+00	91	41	0	628097024	54	5795
2026-01-21 23:14:42.40	81.99	41.93	-39.9	-40.8	23.8	0.00e+00	5	41	0	630194176	54	5625
2026-01-21 23:14:43.41	81.55	42.06	-39.8	-40.6	24.0	0.00e+00	92	41	0	632291328	52	6152
2026-01-21 23:14:44.42	81.11	42.20	-40.0	-40.8	23.9	0.00e+00	12	41	0	634388480	52	6312
2026-01-21 23:14:45.43	80.67	42.33	-40.1	-41.0	23.7	0.00e+00	92	41	0	635437056	52	6435
2026-01-21 23:14:46.44	80.22	42.46	-40.2	-41.1	23.6	0.00e+00	92	41	0	637534208	52	6530
2026-01-21 23:14:47.46	79.76	42.59	-40.2	-41.1	23.6	0.00e+00	92	41	0	639631360	52	6524
2026-01-21 23:14:48.46	79.31	42.72	-39.9	-40.7	24.0	0.00e+00	92	41	0	641728512	52	6222
2026-01-21 23:14:49.48	78.85	42.85	-40.0	-40.9	23.9	0.00e+00	0	41	0	643825664	52	6348
2026-01-21 23:14:50.49	78.39	42.97	-40.1	-41.0	23.9	0.00e+00	92	41	0	644874240	52	6408
2026-01-21 23:14:51.50	77.92	43.10	-40.2	-41.1	23.6	0.00e+00	26	41	0	646971392	52	6500
2026-01-21 23:14:52.51	77.45	43.22	-40.4	-41.3	23.3	0.00e+00	92	41	0	649068544	52	6687
2026-01-21 23:14:53.52	76.98	43.34	-40.7	-41.6	23.1	0.00e+00	78	41	0	651165696	54	6168
2026-01-21 23:14:54.53	76.50	43.46	-41.1	-42.1	22.9	0.00e+00	93	41	0	653262848	54	6483
2026-01-21 23:14:55.54	76.02	43.57	-41.1	-42.0	22.7	0.00e+00	92	41	0	654311424	54	6461
2026-01-21 23:14:56.55	75.54	43.69	-41.2	-42.2	22.6	0.00e+00	72	41	0	656408576	54	6603
2026-01-21 23:14:57.55	75.05	43.80	-41.3	-42.3	22.5	0.00e+00	91	41	0	658505728	54	6631
2026-01-21 23:14:58.56	74.56	43.91	-41.2	-42.2	22.6	0.00e+00	36	41	0	660602880	54	6594
2026-01-21 23:14:59.58	74.07	44.02	-41.6	-42.6	22.4	0.00e+00	91	41	0	662700032	54	6916
2026-01-21 23:15:00.59	73.57	44.13	-41.0	-42.0	23.0	0.00e+00	83	41	0	663748608	54	6406
2026-01-21 23:15:01.60	73.07	44.23	-41.0	-42.0	22.9	0.00e+00	91	41	0	665845760	54	6412
2026-01-21 23:15:02.60	72.57	44.33	-42.0	-43.1	21.8	0.00e+00	90	41	0	667942912	56	6526
2026-01-21 23:15:03.61	72.06	44.43	-41.8	-42.9	22.1	0.00e+00	92	41	0	670040064	56	6361
2026-01-21 23:15:04.62	71.55	44.53	-41.2	-42.2	22.5	0.00e+00	92	41	0	672137216	56	5891
2026-01-21 23:15:05.63	71.04	44.62	-41.4	-42.4	22.5	0.00e+00	7	41	0	674234368	56	5984
2026-01-21 23:15:06.64	70.52	44.72	-41.7	-42.8	22.2	0.00e+00	92	41	0	675282944	56	6247
2026-01-21 23:15:07.65	70.00	44.81	-41.4	-42.4	22.6	0.00e+00	0	41	0	677380096	56	5998
2026-01-21 23:15:08.66	69.48	44.89	-41.4	-42.4	22.6	0.00e+00	92	41	0	679477248	56	5991
2026-01-21 23:15:09.67	68.95	44.98	-41.5	-42.6	22.4	0.00e+00	92	41	0	681574400	56	6127
2026-01-21 23:15:10.68	68.43	45.06	-41.3	-42.4	22.7	0.00e+00	92	41	0	683671552	56	5966
2026-01-21 23:15:11.69	67.90	45.14	-41.4	-42.4	22.6	0.00e+00	92	41	0	684720128	56	6031
2026-01-21 23:15:12.70	67.36	45.22	-41.6	-42.6	22.4	0.00e+00	45	41	0	686817280	56	6169
2026-01-21 23:15:13.71	66.83	45.30	-41.9	-43.0	22.0	0.00e+00	92	41	0	688914432	56	6455
2026-01-21 23:15:14.72	66.29	45.37	-41.9	-43.0	22.1	0.00e+00	0	41	0	691011584	56	6413
2026-01-21 23:15:15.73	65.75	45.44	-41.8	-42.8	22.1	0.00e+00	92	41	0	693108736	56	6299
2026-01-21 23:15:16.74	65.20	45.51	-42.0	-43.1	21.9	0.00e+00	47	41	0	694157312	56	6518
2026-01-21 23:15:17.74	64.66	45.57	-42.5	-43.7	21.4	0.00e+00	92	41	0	696254464	56	6940
2026-01-21 23:15:18.75	64.12	45.63	-42.2	-43.3	21.8	0.00e+00	91	41	0	698351616	56	6686
2026-01-21 23:15:19.76	63.57	45.69	-42.0	-43.0	21.9	0.00e+00	67	41	0	700448768	56	6458
2026-01-21 23:15:20.77	63.02	45.74	-41.8	-42.9	22.2	0.00e+00	92	41	0	702545920	56	6346
2026-01-21 23:15:21.78	62.46	45.80	-41.9	-42.9	21.9	0.00e+00	6	41	0	703594496	56	6372
2026-01-21 23:15:22.79	61.91	45.85	-42.0	-43.0	21.8	0.00e+00	91	41	0	705691648	56	6457
2026-01-21 23:15:23.79	61.36	45.89	-42.5	-43.6	21.4	0.00e+00	86	41	0	707788800	56	6925
2026-01-21 23:15:24.80	60.80	45.94	-43.0	-44.3	20.9	0.00e+00	92	41	0	709885952	58	6623
2026-01-21 23:15:25.81	60.24	45.98	-43.2	-44.6	20.6	0.00e+00	92	41	0	711983104	58	6860
2026-01-21 23:15:26.82	59.67	46.02	-43.0	-44.3	20.8	0.00e+00	0	41	0	713031680	58	6626
2026-01-21 23:15:27.84	59.11	46.05	-42.6	-43.8	21.2	0.00e+00	92	41	0	715128832	58	6305
2026-01-21 23:15:28.84	58.55	46.09	-43.0	-44.2	20.8	0.00e+00	7	41	0	717225984	58	6594
2026-01-21 23:15:29.85	57.98	46.11	-42.9	-44.2	20.8	0.00e+00	92	41	0	719323136	58	6577
2026-01-21 23:15:30.86	57.42	46.14	-43.1	-44.3	20.7	0.00e+00	0	41	0	721420288	58	6685
2026-01-21 23:15:31.87	56.85	46.16	-43.6	-45.0	20.3	0.00e+00	92	41	0	722468864	60	6418
2026-01-21 23:15:32.88	56.28	46.18	-43.4	-44.7	20.5	0.00e+00	92	41	0	724566016	60	6196
2026-01-21 23:15:33.89	55.71	46.20	-43.5	-44.8	20.2	0.00e+00	48	41	0	726663168	60	6285
2026-01-21 23:15:34.90	55.14	46.21	-43.4	-44.8	20.3	0.00e+00	92	41	0	728760320	60	6253
2026-01-21 23:15:35.91	54.58	46.22	-42.6	-43.7	21.3	0.00e+00	38	41	0	730857472	58	6237
2026-01-21 23:15:36.92	54.01	46.23	-42.5	-43.6	21.4	0.00e+00	92	41	0	731906048	58	6136
2026-01-21 23:15:37.93	53.44	46.24	-42.0	-43.1	22.0	0.00e+00	39	41	0	734003200	58	5815
2026-01-21 23:15:38.94	52.87	46.24	-42.0	-43.1	22.0	0.00e+00	92	41	0	736100352	58	5811
2026-01-21 23:15:39.95	52.30	46.23	-42.2	-43.3	21.7	0.00e+00	92	41	0	738197504	58	5913
2026-01-21 23:15:40.96	51.73	46.23	-42.5	-43.6	21.2	0.00e+00	90	41	0	740294656	58	6156
2026-01-21 23:15:41.97	51.16	46.22	-42.9	-44.2	20.8	0.00e+00	92	41	0	741343232	58	6551
2026-01-21 23:15:42.98	50.59	46.21	-42.9	-44.1	21.1	0.00e+00	40	41	0	743440384	58	6487
2026-01-21 23:15:43.99	50.02	46.20	-43.0	-44.2	21.0	0.00e+00	92	41	0	745537536	58	6579
2026-01-21 23:15:45.00	49.45	46.18	-42.8	-44.1	21.2	0.00e+00	41	41	0	747634688	58	6482
2026-01-21 23:15:46.01	48.88	46.16	-42.5	-43.7	21.5	0.00e+00	92	41	0	749731840	58	6187
2026-01-21 23:15:47.02	48.32	46.13	-42.3	-43.5	21.5	0.00e+00	0	41	0	750780416	58	6044
2026-01-21 23:15:48.03	47.75	46.11	-42.5	-43.7	21.3	0.00e+00	4	41	0	752877568	58	6200
2026-01-21 23:15:49.04	47.19	46.08	-43.0	-44.2	20.9	0.00e+00	92	41	0	754974720	58	6587
2026-01-21 23:15:50.05	46.62	46.04	-43.0	-44.2	21.0	0.00e+00	0	41	0	757071872	58	6596
2026-01-21 23:15:51.06	46.06	46.01	-42.9	-44.1	21.0	0.00e+00	92	41	0	759169024	58	6501
2026-01-21 23:15:52.07	45.50	45.97	-43.6	-44.9	20.3	0.00e+00	0	41	0	760217600	58	7130
2026-01-21 23:15:53.07	44.95	45.93	-44.1	-45.5	19.8	0.00e+00	92	41	0	762314752	60	6843
2026-01-21 23:15:54.08	44.39	45.88	-43.7	-45.0	20.3	0.00e+00	0	41	0	764411904	60	6462
2026-01-21 23:15:55.09	43.83	45.83	-43.2	-44.5	20.9	0.00e+00	92	41	0	766509056	60	6044
2026-01-21 23:15:56.10	43.28	45.78	-43.2	-44.4	21.0	0.00e+00	92	41	0	768606208	60	5993
2026-01-21 23:15:57.11	42.73	45.73	-43.2	-44.5	20.6	0.00e+00	45	41	0	770703360	60	6087
2026-01-21 23:15:58.12	42.17	45.67	-43.7	-45.0	20.2	0.00e+00	92	41	0	771751936	60	6455
2026-01-21 23:15:59.13	41.63	45.61	-43.8	-45.2	20.2	0.00e+00	44	41	0	773849088	60	6550
2026-01-21 23:16:00.14	41.08	45.55	-43.9	-45.3	20.0	0.00e+00	92	41	0	775946240	60	6685
2026-01-21 23:16:01.15	40.54	45.49	-43.5	-44.8	20.4	0.00e+00	43	41	0	778043392	60	6294
2026-01-21 23:16:02.16	39.99	45.42	-43.3	-44.6	20.6	0.00e+00	92	41	0	780140544	60	6156
2026-01-21 23:16:03.17	39.45	45.35	-43.2	-44.5	20.5	0.00e+00	90	41	0	781189120	60	6070
2026-01-21 23:16:04.18	38.92	45.28	-42.8	-44.0	21.3	0.00e+00	39	41	0	783286272	60	5703
2026-01-21 23:16:05.19	38.38	45.20	-42.9	-44.1	21.1	0.00e+00	92	41	0	785383424	60	5828
2026-01-21 23:16:06.20	37.85	45.12	-42.7	-43.9	21.3	0.00e+00	37	41	0	787480576	58	6328
2026-01-21 23:16:07.21	37.32	45.04	-42.6	-43.8	21.4	0.00e+00	92	41	0	789577728	58	6247
2026-01-21 23:16:08.22	36.79	44.96	-42.4	-43.6	21.5	0.00e+00	37	41	0	790626304	58	6132
2026-01-21 23:16:09.23	36.27	44.87	-41.9	-42.9	22.0	0.00e+00	90	41	0	792723456	58	5691
2026-01-21 23:16:10.24	35.75	44.78	-41.8	-42.8	22.2	0.00e+00	23	41	0	794820608	56	6280
2026-01-21 23:16:11.24	35.24	44.69	-41.7	-42.7	22.3	0.00e+00	0	41	0	796917760	56	6234
2026-01-21 23:16:12.26	34.72	44.60	-41.7	-42.8	22.2	0.00e+00	92	41	0	799014912	56	6273
2026-01-21 23:16:13.26	34.21	44.50	-41.7	-42.7	22.4	0.00e+00	0	41	0	800063488	56	6216
2026-01-21 23:16:14.28	33.70	44.41	-41.4	-42.4	22.7	0.00e+00	90	41	0	802160640	56	5985
2026-01-21 23:16:15.28	33.20	44.31	-41.0	-42.0	23.0	0.00e+00	42	41	0	804257792	56	5725
2026-01-21 23:16:16.29	32.69	44.20	-41.0	-41.9	23.0	0.00e+00	90	41	0	806354944	56	5688
2026-01-21 23:16:17.30	32.20	44.10	-40.5	-41.4	23.5	0.00e+00	0	41	0	808452096	54	5974
2026-01-21 23:16:18.31	31.70	43.99	-40.5	-41.5	23.4	0.00e+00	0	41	0	809500672	54	6050
2026-01-21 23:16:19.32	31.21	43.89	-40.8	-41.8	23.1	0.00e+00	92	41	0	811597824	54	6283
2026-01-21 23:16:20.33	30.72	43.77	-40.6	-41.5	23.5	0.00e+00	42	41	0	813694976	54	6086
2026-01-21 23:16:21.34	30.23	43.66	-40.4	-41.3	23.7	0.00e+00	90	41	0	815792128	54	5906
2026-01-21 23:16:22.35	29.75	43.55	-40.1	-40.9	24.0	0.00e+00	41	41	0	817889280	54	5687
2026-01-21 23:16:23.36	29.27	43.43	-40.3	-41.2	23.8	0.00e+00	90	41	0	818937856	54	5861
2026-01-21 23:16:24.37	28.80	43.31	-40.0	-40.9	23.8	0.00e+00	39	41	0	821035008	54	5638
2026-01-21 23:16:25.38	28.33	43.19	-39.5	-40.3	24.4	0.00e+00	92	41	0	823132160	52	5956
2026-01-21 23:16:26.39	27.86	43.07	-39.2	-40.0	24.7	0.00e+00	19	41	0	825229312	52	5729
2026-01-21 23:16:27.40	27.39	42.95	-39.2	-40.0	24.7	0.00e+00	5	41	0	827326464	52	5729
2026-01-21 23:16:28.41	26.93	42.82	-39.0	-39.8	24.8	0.00e+00	92	41	0	828375040	52	5620
2026-01-21 23:16:29.42	26.48	42.69	-39.1	-39.9	24.7	0.00e+00	7	41	0	830472192	52	5679
2026-01-21 23:16:30.43	26.02	42.56	-39.0	-39.9	24.9	0.00e+00	92	41	0	832569344	52	5637
2026-01-21 23:16:31.44	25.57	42.43	-39.1	-39.9	24.8	0.00e+00	5	41	0	834666496	52	5639
2026-01-21 23:16:32.44	25.13	42.30	-39.1	-39.9	24.7	0.00e+00	92	41	0	836763648	52	5688
2026-01-21 23:16:33.45	24.69	42.17	-38.9	-39.7	24.9	0.00e+00	0	41	0	838860800	52	5512
2026-01-21 23:16:34.46	24.25	42.04	-39.0	-39.8	24.7	0.00e+00	7	41	0	839909376	52	5586
2026-01-21 23:16:35.47	23.82	41.90	-38.9	-39.7	24.9	0.00e+00	92	41	0	842006528	52	5534
2026-01-21 23:16:36.48	23.38	41.76	-39.1	-39.9	24.8	0.00e+00	0	41	0	844103680	52	5680
2026-01-21 23:16:37.49	22.96	41.62	-39.2	-40.1	24.7	0.00e+00	90	41	0	846200832	52	5790
2026-01-21 23:16:38.50	22.53	41.48	-39.0	-39.8	24.8	0.00e+00	0	41	0	848297984	52	5623
2026-01-21 23:16:39.51	22.11	41.34	-39.3	-40.1	24.6	0.00e+00	92	41	0	849346560	52	5782
2026-01-21 23:16:40.52	21.70	41.20	-39.0	-39.8	24.9	0.00e+00	20	41	0	851443712	52	5599
2026-01-21 23:16:41.53	21.28	41.06	-38.6	-39.4	25.2	0.00e+00	59	41	0	853540864	50	5988
2026-01-21 23:16:42.54	20.88	40.91	-38.6	-39.4	25.2	0.00e+00	92	41	0	855638016	50	6004
2026-01-21 23:16:43.55	20.47	40.77	-38.7	-39.5	25.0	0.00e+00	47	41	0	857735168	50	6079
2026-01-21 23:16:44.56	20.07	40.62	-38.9	-39.7	24.9	0.00e+00	90	41	0	858783744	50	6234
2026-01-21 23:16:45.57	19.67	40.47	-39.2	-40.0	24.6	0.00e+00	44	41	0	860880896	50	6450
2026-01-21 23:16:46.58	19.28	40.32	-39.3	-40.1	24.6	0.00e+00	92	41	0	862978048	50	6515
2026-01-21 23:16:47.59	18.89	40.17	-39.5	-40.3	24.5	0.00e+00	46	41	0	865075200	50	6648
2026-01-21 23:16:48.60	18.50	40.02	-39.5	-40.3	24.5	0.00e+00	92	41	0	867172352	50	6691
2026-01-21 23:16:49.61	18.11	39.87	-39.4	-40.2	24.5	0.00e+00	45	41	0	868220928	50	6579
2026-01-21 23:16:50.62	17.73	39.72	-39.5	-40.4	24.4	0.00e+00	5	41	0	870318080	50	6729
2026-01-21 23:16:51.63	17.36	39.57	-39.4	-40.2	24.5	0.00e+00	90	41	0	872415232	50	6607
2026-01-21 23:16:52.64	16.99	39.41	-39.7	-40.6	23.7	0.00e+00	6	41	0	874512384	50	6853
2026-01-21 23:16:53.65	16.62	39.26	-39.6	-40.5	24.2	0.00e+00	92	41	0	876609536	52	6062
2026-01-21 23:16:54.66	16.25	39.10	-39.7	-40.6	24.2	0.00e+00	6	41	0	877658112	52	6145
2026-01-21 23:16:55.67	15.89	38.95	-39.8	-40.7	24.1	0.00e+00	92	41	0	879755264	52	6219
2026-01-21 23:16:56.68	15.53	38.79	-40.0	-40.9	24.0	0.00e+00	43	41	0	881852416	52	6347
2026-01-21 23:16:57.68	15.18	38.64	-40.3	-41.2	23.5	0.00e+00	41	41	0	883949568	52	6562
2026-01-21 23:16:58.69	14.83	38.48	-40.2	-41.1	23.9	0.00e+00	92	41	0	886046720	52	6465
2026-01-21 23:16:59.70	14.48	38.32	-40.1	-41.0	23.8	0.00e+00	41	41	0	887095296	52	6427
2026-01-21 23:17:00.71	14.13	38.17	-40.2	-41.1	23.8	0.00e+00	92	41	0	889192448	52	6496
2026-01-21 23:17:01.72	13.79	38.01	-40.0	-40.8	24.1	0.00e+00	41	41	0	891289600	52	6296
2026-01-21 23:17:02.73	13.45	37.85	-40.2	-41.1	23.7	0.00e+00	92	41	0	893386752	52	6486
2026-01-21 23:17:03.74	13.12	37.69	-40.3	-41.2	23.7	0.00e+00	50	41	0	895483904	52	6573
2026-01-21 23:17:04.75	12.79	37.53	-40.6	-41.5	23.4	0.00e+00	92	41	0	896532480	52	6801
2026-01-21 23:17:05.76	12.46	37.37	-40.7	-41.6	23.2	0.00e+00	90	41	0	898629632	54	6155
2026-01-21 23:17:06.76	12.14	37.21	-41.2	-42.2	22.4	0.00e+00	42	41	0	900726784	54	6581
2026-01-21 23:17:07.77	11.81	37.05	-41.3	-42.3	22.9	0.00e+00	92	41	0	902823936	54	6624
2026-01-21 23:17:08.78	11.50	36.89	-41.3	-42.3	22.8	0.00e+00	0	41	0	904921088	54	6685
2026-01-21 23:17:09.79	11.18	36.73	-41.3	-42.3	22.8	0.00e+00	90	41	0	907018240	54	6620
2026-01-21 23:17:10.80	10.87	36.57	-41.3	-42.3	22.8	0.00e+00	39	41	0	908066816	54	6678
2026-01-21 23:17:11.81	10.56	36.41	-41.5	-42.5	22.5	0.00e+00	90	41	0	910163968	54	6842
2026-01-21 23:17:12.82	10.25	36.24	-41.9	-43.0	22.1	0.00e+00	91	41	0	912261120	56	6415
2026-01-21 23:17:13.83	9.95	36.08	-42.0	-43.1	22.1	0.00e+00	0	41	0	914358272	56	6482
2026-01-21 23:17:14.84	9.65	35.92	-42.1	-43.2	22.0	0.00e+00	90	41	0	916455424	56	6560
2026-01-21 23:17:15.85	9.35	35.76	-42.3	-43.4	21.8	0.00e+00	0	41	0	917504000	56	6731
2026-01-21 23:17:16.86	9.06	35.60	-42.9	-44.0	21.4	0.00e+00	91	41	0	919601152	56	7227
2026-01-21 23:17:17.87	8.77	35.44	-42.8	-44.0	21.3	0.00e+00	0	41	0	921698304	58	6404
2026-01-21 23:17:18.88	8.48	35.27	-42.6	-43.8	21.3	0.00e+00	92	41	0	923795456	58	6279
2026-01-21 23:17:19.89	8.19	35.11	-42.9	-44.2	21.1	0.00e+00	0	41	0	925892608	58	6542
2026-01-21 23:17:20.90	7.91	34.95	-43.0	-44.3	20.9	0.00e+00	41	41	0	926941184	58	6658
2026-01-21 23:17:21.90	7.63	34.79	-43.5	-44.8	20.4	0.00e+00	91	41	0	929038336	58	7087
2026-01-21 23:17:22.91	7.36	34.63	-43.6	-44.9	20.4	0.00e+00	4	41	0	931135488	58	7143
2026-01-21 23:17:23.92	7.08	34.47	-43.9	-45.3	20.1	0.00e+00	92	41	0	933232640	60	6651
2026-01-21 23:17:24.93	6.81	34.30	-44.3	-45.8	19.6	0.00e+00	41	41	0	935329792	60	7067
2026-01-21 23:17:25.94	6.54	34.14	-44.6	-46.2	19.1	0.00e+00	90	41	0	936378368	60	7408
2026-01-21 23:17:26.95	6.27	33.98	-44.7	-46.3	19.3	0.00e+00	38	41	0	938475520	60	7455
2026-01-21 23:17:27.96	6.01	33.82	-44.6	-46.2	19.2	0.00e+00	49	41	0	940572672	60	7422
2026-01-21 23:17:28.97	5.75	33.66	-44.5	-46.1	19.4	0.00e+00	90	41	0	942669824	60	7322
2026-01-21 23:17:29.98	5.49	33.50	-44.9	-46.7	18.7	0.00e+00	42	41	0	944766976	60	7822
2026-01-21 23:17:30.99	5.24	33.34	-44.3	-45.8	19.4	0.00e+00	92	41	0	945815552	60	7080
2026-01-21 23:17:32.00	4.98	33.18	-44.1	-45.7	19.5	0.00e+00	0	41	0	947912704	60	6939
2026-01-21 23:17:33.01	4.73	33.02	-44.1	-45.5	19.7	0.00e+00	90	41	0	950009856	60	6843
2026-01-21 23:17:34.02	4.48	32.86	-44.4	-45.9	19.4	0.00e+00	0	41	0	952107008	60	7143
2026-01-21 23:17:35.03	4.24	32.70	-44.4	-46.0	19.4	0.00e+00	91	41	0	954204160	60	7176
2026-01-21 23:17:36.04	4.00	32.54	-44.4	-46.0	19.4	0.00e+00	83	41	0	955252736	60	7171
2026-01-21 23:17:37.05	3.75	32.38	-43.9	-45.3	19.8	0.00e+00	0	41	0	957349888	60	6671
2026-01-21 23:17:38.05	3.52	32.22	-43.9	-45.3	20.1	0.00e+00	91	41	0	959447040	60	6628
2026-01-21 23:17:39.06	3.28	32.06	-43.6	-45.0	20.3	0.00e+00	0	41	0	961544192	60	6402
2026-01-21 23:17:40.08	3.05	31.90	-43.6	-44.9	20.5	0.00e+00	90	41	0	963641344	60	6352
2026-01-21 23:17:41.08	2.82	31.75	-43.1	-44.3	20.8	0.00e+00	41	42	0	964689920	60	5948
2026-01-21 23:17:42.09	2.59	31.59	-43.0	-44.3	20.9	0.00e+00	90	41	0	966787072	60	5914
2026-01-21 23:17:43.10	2.36	31.43	-42.8	-44.0	21.2	0.00e+00	0	41	0	968884224	60	5742
2026-01-21 23:17:44.11	2.14	31.27	-42.6	-43.8	21.2	0.00e+00	43	41	0	970981376	58	6266
2026-01-21 23:17:45.12	1.91	31.12	-42.3	-43.4	21.5	0.00e+00	92	41	0	973078528	58	5993
2026-01-21 23:17:46.12	1.70	30.96	-42.3	-43.4	21.6	0.00e+00	0	41	0	975175680	58	6027
2026-01-21 23:17:47.13	1.48	30.81	-42.4	-43.5	21.6	0.00e+00	90	41	0	976224256	58	6084
2026-01-21 23:17:48.14	1.26	30.65	-42.6	-43.7	21.3	0.00e+00	40	41	0	978321408	58	6244
2026-01-21 23:17:49.15	1.05	30.50	-42.7	-43.9	21.2	0.00e+00	92	41	0	980418560	58	6381
2026-01-21 23:17:50.16	0.84	30.34	-42.9	-44.1	21.1	0.00e+00	41	41	0	982515712	58	6473
2026-01-21 23:17:51.17	0.63	30.19	-42.8	-44.0	21.1	0.00e+00	40	41	0	984612864	58	6427
2026-01-21 23:17:52.18	0.42	30.03	-42.6	-43.8	21.3	0.00e+00	92	41	0	985661440	58	6280
2026-01-21 23:17:53.19	0.21	29.88	-42.7	-43.9	21.3	0.00e+00	41	41	0	987758592	58	6329
2026-01-21 23:17:54.20	0.01	29.72	-42.6	-43.8	21.3	0.00e+00	92	41	0	989855744	58	6246
2026-01-21 23:17:55.21	359.81	29.57	-42.4	-43.5	21.4	0.00e+00	0	41	0	991952896	58	6103
2026-01-21 23:17:56.22	359.61	29.42	-42.4	-43.6	21.4	0.00e+00	92	41	0	993001472	58	6138
2026-01-21 23:17:57.23	359.41	29.27	-42.6	-43.7	21.3	0.00e+00	0	41	0	995098624	58	6236
2026-01-21 23:17:58.24	359.21	29.12	-42.4	-43.6	21.4	0.00e+00	0	41	0	997195776	58	6148
2026-01-21 23:17:59.24	359.02	28.97	-42.6	-43.8	21.3	0.00e+00	29	41	0	999292928	58	6258
2026-01-21 23:18:00.26	358.83	28.81	-42.5	-43.7	21.3	0.00e+00	0	41	0	1001390080	58	6212
2026-01-21 23:18:01.27	358.63	28.66	-42.4	-43.6	21.4	0.00e+00	92	41	0	1003487232	58	6129
2026-01-21 23:18:02.28	358.45	28.51	-42.4	-43.6	21.3	0.00e+00	0	41	0	1004535808	58	6120
2026-01-21 23:18:03.29	358.26	28.36	-42.2	-43.3	21.6	0.00e+00	0	41	0	1006632960	58	5950
2026-01-21 23:18:04.30	358.07	28.21	-42.1	-43.2	21.7	0.00e+00	39	41	0	1008730112	58	5853
2026-01-21 23:18:05.30	357.89	28.07	-42.0	-43.2	21.7	0.00e+00	39	41	0	1010827264	58	5832
2026-01-21 23:18:06.31	357.71	27.92	-42.0	-43.1	21.8	0.00e+00	0	41	0	1012924416	58	5801
2026-01-21 23:18:07.32	357.53	27.77	-42.3	-43.5	21.4	0.00e+00	38	41	0	1013972992	58	6045
2026-01-21 23:18:08.33	357.35	27.63	-42.4	-43.6	21.3	0.00e+00	90	41	0	1016070144	58	6160
2026-01-21 23:18:09.34	357.17	27.48	-42.5	-43.8	21.2	0.00e+00	38	41	0	1018167296	58	6260
2026-01-21 23:18:10.34	357.00	27.33	-42.5	-43.7	21.3	0.00e+00	91	41	0	1020264448	58	6238
2026-01-21 23:18:11.35	356.83	27.19	-42.4	-43.6	21.3	0.00e+00	0	41	0	1022361600	58	6147
2026-01-21 23:18:12.36	356.66	27.04	-42.1	-43.3	21.6	0.00e+00	42	41	0	1023410176	58	5904
2026-01-21 23:18:13.37	356.49	26.90	-42.0	-43.1	21.7	0.00e+00	42	41	0	1025507328	58	5824
2026-01-21 23:18:14.38	356.32	26.75	-42.3	-43.5	21.5	0.00e+00	6	41	0	1027604480	58	6059
2026-01-21 23:18:15.39	356.15	26.61	-42.3	-43.5	21.5	0.00e+00	92	41	0	1029701632	58	6071
2026-01-21 23:18:16.40	355.98	26.47	-42.0	-43.2	21.8	0.00e+00	42	41	0	1031798784	58	5852
2026-01-21 23:18:17.41	355.82	26.32	-41.8	-42.9	21.8	0.00e+00	92	41	0	1032847360	58	5677
2026-01-21 23:18:18.42	355.66	26.18	-41.9	-43.1	21.9	0.00e+00	6	41	0	1034944512	58	5772
2026-01-21 23:18:19.43	355.50	26.04	-41.8	-43.0	22.0	0.00e+00	5	41	0	1037041664	56	6392
2026-01-21 23:18:20.44	355.34	25.90	-41.9	-43.0	21.9	0.00e+00	6	41	0	1039138816	56	6426
2026-01-21 23:18:21.45	355.18	25.76	-41.7	-42.8	22.0	0.00e+00	0	41	0	1041235968	56	6297
2026-01-21 23:18:22.46	355.02	25.62	-41.7	-42.8	22.1	0.00e+00	0	41	0	1042284544	56	6317
2026-01-21 23:18:23.47	354.87	25.48	-41.9	-43.0	21.8	0.00e+00	0	41	0	1044381696	56	6445
2026-01-21 23:18:24.48	354.71	25.34	-41.8	-42.9	22.0	0.00e+00	90	41	0	1046478848	56	6361
2026-01-21 23:18:25.49	354.56	25.20	-41.9	-43.0	22.0	0.00e+00	5	41	0	1048576000	56	6436
2026-01-21 23:18:26.50	354.41	25.06	-41.9	-43.1	21.8	0.00e+00	0	41	0	1050673152	56	6511
2026-01-21 23:18:27.51	354.26	24.92	-42.0	-43.1	21.8	0.00e+00	37	41	0	1051721728	56	6535
2026-01-21 23:18:28.52	354.11	24.79	-42.1	-43.2	21.7	0.00e+00	49	41	0	1053818880	56	6592
2026-01-21 23:18:29.53	353.96	24.65	-41.9	-43.0	21.9	0.00e+00	0	41	0	1055916032	56	6427
2026-01-21 23:18:30.54	353.82	24.51	-42.2	-43.3	21.6	0.00e+00	38	41	0	1058013184	56	6681
2026-01-21 23:18:31.55	353.67	24.38	-41.7	-42.7	22.1	0.00e+00	90	41	0	1060110336	56	6245
2026-01-21 23:18:32.56	353.53	24.24	-41.5	-42.6	22.3	0.00e+00	46	41	0	1061158912	56	6121
2026-01-21 23:18:33.57	353.39	24.11	-41.5	-42.6	22.3	0.00e+00	91	41	0	1063256064	56	6115
2026-01-21 23:18:34.58	353.25	23.97	-41.3	-42.4	22.5	0.00e+00	45	41	0	1065353216	56	5965
2026-01-21 23:18:35.59	353.11	23.84	-41.2	-42.3	22.5	0.00e+00	48	41	0	1067450368	56	5902
2026-01-21 23:18:36.60	352.97	23.71	-41.0	-42.0	22.8	0.00e+00	47	41	0	1069547520	56	5731
2026-01-21 23:18:37.61	352.83	23.58	-41.0	-42.0	22.9	0.00e+00	48	41	0	1071644672	56	5738
2026-01-21 23:18:38.62	352.69	23.44	-41.2	-42.2	22.6	0.00e+00	92	41	0	1072693248	56	5838
2026-01-21 23:18:39.63	352.56	23.31	-41.2	-42.2	22.6	0.00e+00	6	41	0	1074790400	56	5896
2026-01-21 23:18:40.64	352.42	23.18	-41.2	-42.2	22.7	0.00e+00	92	41	0	1076887552	56	5856
2026-01-21 23:18:41.65	352.29	23.05	-41.4	-42.4	22.3	0.00e+00	8	41	0	1078984704	56	6019
2026-01-21 23:18:42.66	352.16	22.92	-41.6	-42.7	22.2	0.00e+00	0	41	0	1081081856	56	6174
2026-01-21 23:18:43.67	352.03	22.79	-41.4	-42.5	22.4	0.00e+00	38	41	0	1082130432	56	6036
2026-01-21 23:18:44.69	351.90	22.66	-41.3	-42.3	22.4	0.00e+00	0	41	0	1084227584	56	5925
2026-01-21 23:18:45.69	351.77	22.53	-41.1	-42.1	22.6	0.00e+00	2	41	0	1086324736	56	5826
2026-01-21 23:18:46.71	351.64	22.40	-41.1	-42.1	22.7	0.00e+00	0	41	0	1088421888	56	5820
2026-01-21 23:18:47.72	351.52	22.27	-41.0	-42.1	22.7	0.00e+00	90	41	0	1090519040	56	5764
2026-01-21 23:18:48.73	351.39	22.15	-41.1	-42.1	22.7	0.00e+00	42	41	0	1091567616	56	5765
2026-01-21 23:18:49.74	351.27	22.02	-41.0	-42.0	22.8	0.00e+00	36	41	0	1093664768	56	5712
2026-01-21 23:18:50.75	351.15	21.89	-41.2	-42.2	22.6	0.00e+00	39	41	0	1095761920	56	5870
2026-01-21 23:18:51.76	351.03	21.77	-41.4	-42.4	22.6	0.00e+00	43	41	0	1097859072	56	6012
2026-01-21 23:18:52.77	350.90	21.64	-41.4	-42.4	22.5	0.00e+00	34	41	0	1099956224	56	5996
2026-01-21 23:18:53.78	350.78	21.52	-41.3	-42.3	22.6	0.00e+00	0	41	0	1101004800	56	5930
2026-01-21 23:18:54.79	350.67	21.39	-41.2	-42.2	22.5	0.00e+00	92	41	0	1103101952	56	5894
2026-01-21 23:18:55.79	350.55	21.27	-41.3	-42.3	22.6	0.00e+00	41	41	0	1105199104	56	5915
2026-01-21 23:18:56.80	350.43	21.15	-41.3	-42.4	22.4	0.00e+00	92	41	0	1107296256	56	5980
2026-01-21 23:18:57.81	350.32	21.02	-41.4	-42.4	22.4	0.00e+00	0	41	0	1109393408	56	6033
2026-01-21 23:18:58.82	350.20	20.90	-41.1	-42.1	22.6	0.00e+00	0	41	0	1111490560	56	5823
2026-01-21 23:18:59.83	350.09	20.78	-41.1	-42.1	22.6	0.00e+00	0	41	0	1112539136	56	5819
2026-01-21 23:19:00.84	349.97	20.66	-41.3	-42.3	22.5	0.00e+00	2	41	0	1114636288	56	5950
2026-01-21 23:19:01.85	349.86	20.54	-41.5	-42.5	22.3	0.00e+00	92	41	0	1116733440	56	6082
2026-01-21 23:19:02.86	349.75	20.42	-41.2	-42.3	22.5	0.00e+00	0	41	0	1118830592	56	5909
2026-01-21 23:19:03.87	349.64	20.30	-41.3	-42.3	22.5	0.00e+00	92	41	0	1120927744	56	5951
2026-01-21 23:19:04.88	349.53	20.18	-41.3	-42.3	22.4	0.00e+00	37	41	0	1121976320	56	5963
2026-01-21 23:19:05.89	349.42	20.06	-41.2	-42.3	22.5	0.00e+00	37	41	0	1124073472	56	5908
2026-01-21 23:19:06.90	349.31	19.94	-41.4	-42.5	22.4	0.00e+00	5	41	0	1126170624	56	6067
2026-01-21 23:19:07.91	349.21	19.82	-41.3	-42.4	22.4	0.00e+00	38	41	0	1128267776	56	5979
2026-01-21 23:19:08.92	349.10	19.70	-41.6	-42.6	22.1	0.00e+00	37	41	0	1129316352	56	6171
2026-01-21 23:19:09.93	349.00	19.58	-41.2	-42.2	22.5	0.00e+00	37	41	0	1131413504	56	5890
2026-01-21 23:19:10.94	348.89	19.47	-41.3	-42.3	22.3	0.00e+00	92	41	0	1133510656	56	5960
2026-01-21 23:19:11.95	348.79	19.35	-41.3	-42.4	22.3	0.00e+00	36	41	0	1135607808	56	5969
2026-01-21 23:19:12.96	348.69	19.23	-41.3	-42.3	22.4	0.00e+00	88	41	0	1137704960	56	5948
2026-01-21 23:19:13.96	348.58	19.12	-41.4	-42.5	22.2	0.00e+00	44	41	0	1139802112	56	6047
2026-01-21 23:19:14.97	348.48	19.00	-41.6	-42.7	22.1	0.00e+00	0	41	0	1140850688	56	6204
2026-01-21 23:19:15.98	348.38	18.89	-41.3	-42.4	22.3	0.00e+00	59	41	0	1142947840	56	5978
2026-01-21 23:19:16.99	348.28	18.78	-41.4	-42.4	22.3	0.00e+00	2	41	0	1145044992	56	6032
2026-01-21 23:19:18.00	348.18	18.66	-41.2	-42.2	22.4	0.00e+00	92	41	0	1147142144	56	5895
2026-01-21 23:19:19.01	348.09	18.55	-41.3	-42.3	22.3	0.00e+00	0	41	0	1149239296	56	5949
2026-01-21 23:19:20.02	347.99	18.43	-41.3	-42.3	22.3	0.00e+00	29	41	0	1150287872	56	5926
2026-01-21 23:19:21.03	347.89	18.32	-41.3	-42.4	22.3	0.00e+00	2	41	0	1152385024	56	5974
2026-01-21 23:19:22.04	347.80	18.21	-41.5	-42.5	22.1	0.00e+00	0	41	0	1154482176	56	6093
2026-01-21 23:19:23.05	347.70	18.10	-41.8	-42.9	21.9	0.00e+00	0	41	0	1156579328	56	6330
2026-01-21 23:19:24.06	347.61	17.99	-41.7	-42.8	22.0	0.00e+00	0	41	0	1158676480	56	6249
2026-01-21 23:19:25.07	347.51	17.88	-41.7	-42.8	22.0	0.00e+00	92	41	0	1159725056	56	6275
2026-01-21 23:19:26.08	347.42	17.77	-41.8	-42.9	21.8	0.00e+00	39	41	0	1161822208	56	6357
2026-01-21 23:19:27.09	347.33	17.66	-41.8	-42.9	21.8	0.00e+00	91	41	0	1163919360	56	6367
2026-01-21 23:19:28.10	347.24	17.55	-41.8	-43.0	21.7	0.00e+00	0	41	0	1166016512	56	6391
2026-01-21 23:19:29.10	347.15	17.44	-41.9	-43.1	21.6	0.00e+00	37	41	0	1168113664	56	6498
2026-01-21 23:19:30.11	347.06	17.33	-41.9	-43.1	21.6	0.00e+00	2	41	0	1169162240	56	6489
2026-01-21 23:19:31.12	346.97	17.22	-42.1	-43.2	21.5	0.00e+00	0	41	0	1171259392	56	6605
2026-01-21 23:19:32.13	346.88	17.11	-41.8	-42.9	21.8	0.00e+00	0	41	0	1173356544	56	6375
2026-01-21 23:19:33.14	346.79	17.00	-41.8	-43.0	21.7	0.00e+00	37	41	0	1175453696	56	6402
2026-01-21 23:19:34.15	346.70	16.90	-41.9	-43.0	21.6	0.00e+00	92	41	0	1177550848	56	6442
2026-01-21 23:19:35.16	346.62	16.79	-41.7	-42.8	21.8	0.00e+00	37	41	0	1178599424	56	6310
2026-01-21 23:19:36.17	346.53	16.68	-41.7	-42.8	21.9	0.00e+00	92	41	0	1180696576	56	6269
2026-01-21 23:19:37.18	346.44	16.58	-41.8	-42.9	21.7	0.00e+00	2	41	0	1182793728	56	6344
2026-01-21 23:19:38.19	346.36	16.47	-41.9	-43.0	21.8	0.00e+00	2	41	0	1184890880	56	6462
2026-01-21 23:19:39.20	346.27	16.37	-41.8	-42.9	21.6	0.00e+00	0	41	0	1186988032	56	6374
2026-01-21 23:19:40.21	346.19	16.26	-41.5	-42.6	22.0	0.00e+00	0	41	0	1188036608	56	6139
2026-01-21 23:19:41.22	346.11	16.16	-41.5	-42.6	22.0	0.00e+00	92	41	0	1190133760	56	6115
