passes_logs/2026/01/21/R4.6S_Anadyr/R4.6S_Anadyr__20260121_145245_NOAA_20_JPSS-1_rec.log

#Pass ID: 20260121_145245_NOAA 20 (JPSS-1)
#Satellite: NOAA 20 (JPSS-1)
#Configuration: NOAA 20
#almurnet v.1.7.20251203
#Start time: 2026-01-21 14:52:46

#Version: 2.2.20231116
#Station: R4.6S_Anadyr
#Location: 177.4865 lon 64.73178 lat
#TLE: 1 43013U 17073A   26020.82785136  .00000155  00000+0  94366-4 0  9991
#TLE: 2 43013  98.7643 321.7058 0001260  30.3785 329.7464 14.19537992423566

#Time	Az	El	Level	Level2	SNR	BER	BlckErr	Temp	State	Recorded	gain1	gain2
2026-01-21 14:52:46.66	20.84	0.04	-51.4	-66.3	3.5	1.51e+00	0	39	0	0	60	74828
2026-01-21 14:52:47.67	20.84	0.10	-51.5	-66.8	3.6	1.51e+00	0	40	104	0	60	78669
2026-01-21 14:52:48.68	20.84	0.16	-51.5	-66.7	3.6	1.51e+00	0	40	104	0	60	78190
2026-01-21 14:52:49.69	20.84	0.22	-51.5	-66.7	3.6	1.51e+00	0	40	104	0	60	78570
2026-01-21 14:52:50.70	20.84	0.28	-51.5	-66.8	3.6	1.51e+00	0	40	104	0	60	78743
2026-01-21 14:52:51.71	20.84	0.35	-51.5	-66.7	3.6	1.51e+00	0	40	104	0	60	78192
2026-01-21 14:52:52.72	20.84	0.41	-51.5	-66.7	3.6	1.51e+00	0	40	104	0	60	78168
2026-01-21 14:52:53.73	20.84	0.47	-51.5	-66.7	3.6	1.51e+00	0	40	104	0	60	78362
2026-01-21 14:52:54.74	20.84	0.53	-51.5	-66.7	3.6	1.51e+00	0	40	104	0	60	78328
2026-01-21 14:52:55.75	20.84	0.59	-51.5	-66.7	3.6	1.51e+00	0	40	104	0	60	78115
2026-01-21 14:52:56.76	20.84	0.65	-51.4	-66.6	3.6	1.51e+00	0	40	104	0	60	77544
2026-01-21 14:52:57.77	20.84	0.71	-51.4	-66.6	3.6	1.51e+00	0	40	104	0	60	77236
2026-01-21 14:52:58.78	20.84	0.77	-51.3	-66.6	3.6	1.51e+00	0	40	104	0	60	77046
2026-01-21 14:52:59.78	20.84	0.84	-51.3	-66.5	3.6	1.51e+00	0	40	104	0	60	76013
2026-01-21 14:53:00.79	20.84	0.90	-51.2	-66.5	3.6	1.51e+00	0	40	104	0	60	76258
2026-01-21 14:53:01.80	20.84	0.96	-51.1	-66.4	3.6	1.51e+00	0	40	104	0	60	75165
2026-01-21 14:53:02.81	20.84	1.02	-51.1	-66.3	3.6	1.51e+00	0	40	104	0	60	74823
2026-01-21 14:53:03.83	20.84	1.09	-51.0	-66.2	3.6	1.51e+00	0	40	104	0	60	73575
2026-01-21 14:53:04.84	20.84	1.15	-50.8	-66.0	3.6	1.51e+00	0	41	104	0	60	72494
2026-01-21 14:53:05.85	20.84	1.21	-50.7	-65.9	3.6	1.51e+00	0	41	104	0	60	71264
2026-01-21 14:53:06.86	20.84	1.27	-50.5	-65.8	3.6	1.51e+00	0	41	104	0	60	70477
2026-01-21 14:53:07.87	20.84	1.34	-50.4	-65.6	3.5	1.51e+00	0	41	104	0	60	68678
2026-01-21 14:53:08.88	20.84	1.40	-50.2	-65.4	3.6	1.51e+00	0	40	104	0	60	67522
2026-01-21 14:53:09.88	20.84	1.46	-50.0	-65.2	3.6	1.51e+00	0	40	104	0	60	66115
2026-01-21 14:53:10.89	20.84	1.52	-49.8	-64.8	3.6	1.51e+00	0	40	104	0	60	63060
2026-01-21 14:53:11.90	20.84	1.59	-49.8	-64.8	3.6	1.51e+00	0	41	104	0	60	62689
2026-01-21 14:53:12.91	20.84	1.65	-49.8	-64.9	3.6	1.51e+00	0	41	104	0	60	63712
2026-01-21 14:53:13.92	20.84	1.72	-49.8	-65.0	3.6	1.51e+00	0	41	104	0	60	63946
2026-01-21 14:53:14.93	20.84	1.78	-49.8	-65.0	3.6	1.51e+00	0	41	104	0	60	64298
2026-01-21 14:53:15.94	20.84	1.84	-49.8	-65.1	3.6	1.51e+00	0	41	104	0	60	64716
2026-01-21 14:53:16.95	20.84	1.91	-49.8	-65.1	3.6	1.51e+00	0	41	104	0	60	64707
2026-01-21 14:53:17.96	20.84	1.97	-49.8	-65.1	3.6	1.51e+00	0	41	104	0	60	64728
2026-01-21 14:53:18.97	20.84	2.04	-49.8	-65.0	3.6	1.51e+00	0	41	104	0	60	64462
2026-01-21 14:53:19.98	20.84	2.10	-49.8	-65.0	3.6	1.51e+00	0	41	104	0	60	64314
2026-01-21 14:53:20.99	20.84	2.17	-49.8	-64.9	3.6	1.51e+00	0	41	104	0	60	63762
2026-01-21 14:53:22.01	20.84	2.23	-49.8	-64.9	3.6	1.51e+00	0	41	104	0	60	63280
2026-01-21 14:53:23.01	20.84	2.30	-49.8	-64.8	3.6	1.51e+00	0	41	104	0	60	62598
2026-01-21 14:53:24.02	20.84	2.36	-49.8	-64.5	3.6	1.51e+00	0	41	104	0	60	60715
2026-01-21 14:53:25.04	20.84	2.43	-49.8	-64.4	3.6	1.51e+00	0	41	104	0	60	60210
2026-01-21 14:53:26.05	20.84	2.49	-49.8	-64.3	3.6	1.51e+00	0	41	104	0	60	59012
2026-01-21 14:53:27.06	20.84	2.56	-49.7	-64.1	3.6	1.51e+00	0	41	104	0	60	58053
2026-01-21 14:53:28.06	20.84	2.62	-49.7	-64.3	3.6	1.51e+00	0	41	104	0	60	59442
2026-01-21 14:53:29.07	20.83	2.69	-49.7	-64.6	3.6	1.51e+00	0	41	104	0	60	61643
2026-01-21 14:53:30.08	20.83	2.75	-49.7	-64.7	3.6	1.51e+00	0	41	104	0	60	62286
2026-01-21 14:53:31.10	20.83	2.82	-49.7	-64.7	3.6	1.51e+00	0	41	104	0	60	61966
2026-01-21 14:53:32.10	20.83	2.89	-49.7	-63.9	3.6	1.51e+00	0	41	104	0	60	56940
2026-01-21 14:53:33.12	20.83	2.95	-49.7	-63.4	3.6	1.51e+00	0	41	104	0	60	53341
2026-01-21 14:53:34.12	20.83	3.02	-49.6	-62.0	3.8	1.50e+00	0	41	104	0	60	45676
2026-01-21 14:53:35.13	20.83	3.09	-49.5	-59.4	4.1	1.29e+00	18	41	0	1048576	60	33914
2026-01-21 14:53:36.14	20.83	3.15	-49.3	-57.4	5.4	6.50e-01	0	41	0	2097152	60	26837
2026-01-21 14:53:37.15	20.83	3.22	-49.2	-57.0	5.9	5.08e-01	0	41	0	4194304	60	25530
2026-01-21 14:53:38.16	20.83	3.29	-49.1	-56.7	6.4	3.69e-01	0	41	0	6291456	60	24627
2026-01-21 14:53:39.17	20.83	3.36	-49.0	-56.0	7.0	1.47e-01	0	41	0	8388608	60	22752
2026-01-21 14:53:40.18	20.83	3.42	-49.1	-56.4	6.6	1.28e-01	0	41	0	10485760	60	24011
2026-01-21 14:53:41.19	20.83	3.49	-49.2	-57.1	5.8	2.72e-01	0	41	0	11534336	60	25944
2026-01-21 14:53:42.20	20.83	3.56	-49.3	-57.9	5.0	4.28e-01	0	41	0	13631488	60	28487
2026-01-21 14:53:43.21	20.82	3.63	-49.4	-58.4	4.6	6.79e-01	0	41	0	15728640	60	30135
2026-01-21 14:53:44.22	20.82	3.70	-49.2	-57.2	6.5	9.18e-01	0	41	0	17825792	60	26178
2026-01-21 14:53:45.23	20.82	3.77	-48.1	-52.5	12.1	1.88e-02	0	41	0	19922944	60	15300
2026-01-21 14:53:46.24	20.82	3.83	-47.1	-50.7	13.0	7.00e-07	0	41	0	20971520	60	12388
2026-01-21 14:53:47.26	20.82	3.90	-49.7	-64.0	3.6	1.46e+00	0	41	104	22020096	60	56966
2026-01-21 14:53:48.26	20.82	3.97	-46.8	-50.1	14.4	1.25e+00	0	41	104	22020096	60	11554
2026-01-21 14:53:49.28	20.82	4.04	-49.7	-64.6	3.6	1.51e+00	0	41	104	22020096	60	61276
2026-01-21 14:53:50.28	20.82	4.11	-46.4	-49.5	14.8	9.08e-01	0	41	104	22020096	60	10752
2026-01-21 14:53:51.30	20.82	4.18	-46.4	-49.2	15.0	0.00e+00	0	41	0	23068672	60	10398
2026-01-21 14:53:52.31	20.81	4.25	-45.6	-48.0	16.2	0.00e+00	0	41	0	24117248	60	9101
2026-01-21 14:53:53.32	20.81	4.32	-46.0	-48.5	15.9	0.00e+00	0	41	0	26214400	60	9615
2026-01-21 14:53:54.33	20.81	4.39	-45.6	-47.9	16.3	0.00e+00	0	41	0	28311552	60	9003
2026-01-21 14:53:55.34	20.81	4.46	-45.4	-47.6	16.6	0.00e+00	0	41	0	30408704	60	8714
2026-01-21 14:53:56.35	20.81	4.53	-45.1	-47.2	17.0	0.00e+00	0	41	0	32505856	60	8315
2026-01-21 14:53:57.36	20.81	4.60	-45.0	-47.0	17.1	0.00e+00	0	41	0	33554432	60	8094
2026-01-21 14:53:58.37	20.81	4.67	-44.9	-46.9	17.5	0.00e+00	0	41	0	35651584	60	7962
2026-01-21 14:53:59.38	20.81	4.74	-45.1	-47.3	16.9	0.00e+00	0	41	0	37748736	60	8337
2026-01-21 14:54:00.39	20.80	4.82	-45.0	-47.1	17.2	0.00e+00	0	41	0	39845888	60	8171
2026-01-21 14:54:01.40	20.80	4.89	-44.9	-46.9	17.5	0.00e+00	0	41	0	41943040	60	7971
2026-01-21 14:54:02.40	20.80	4.96	-44.9	-47.0	17.3	0.00e+00	0	41	0	42991616	60	8067
2026-01-21 14:54:03.42	20.80	5.03	-44.7	-46.6	17.8	0.00e+00	0	41	0	45088768	60	7699
2026-01-21 14:54:04.42	20.80	5.10	-45.2	-47.3	17.1	0.00e+00	0	41	0	47185920	60	8363
2026-01-21 14:54:05.44	20.80	5.17	-44.8	-46.7	17.6	0.00e+00	0	41	0	49283072	60	7825
2026-01-21 14:54:06.45	20.80	5.25	-44.8	-46.8	17.5	0.00e+00	0	41	0	51380224	60	7872
2026-01-21 14:54:07.45	20.79	5.32	-45.1	-47.2	17.2	0.00e+00	0	41	0	53477376	60	8290
2026-01-21 14:54:08.47	20.79	5.39	-44.9	-46.9	17.5	0.00e+00	0	41	0	54525952	60	7990
2026-01-21 14:54:09.48	20.79	5.46	-45.0	-47.1	17.3	0.00e+00	0	41	0	56623104	60	8184
2026-01-21 14:54:10.49	20.79	5.54	-44.8	-46.7	17.5	0.00e+00	0	41	0	58720256	60	7829
2026-01-21 14:54:11.50	20.79	5.61	-44.7	-46.6	17.8	0.00e+00	0	41	0	60817408	60	7762
2026-01-21 14:54:12.51	20.78	5.69	-44.7	-46.6	17.8	0.00e+00	0	41	0	62914560	60	7753
2026-01-21 14:54:13.51	20.78	5.76	-44.7	-46.6	17.9	0.00e+00	0	41	0	63963136	60	7742
2026-01-21 14:54:14.52	20.78	5.83	-44.8	-46.8	17.9	0.00e+00	0	41	0	66060288	60	7869
2026-01-21 14:54:15.53	20.78	5.91	-44.9	-46.8	17.5	0.00e+00	0	41	0	68157440	60	7951
2026-01-21 14:54:16.54	20.78	5.98	-44.7	-46.6	17.9	0.00e+00	0	41	0	70254592	60	7713
2026-01-21 14:54:17.55	20.78	6.06	-44.8	-46.6	17.8	0.00e+00	0	41	0	72351744	60	7771
2026-01-21 14:54:18.56	20.77	6.13	-44.7	-46.5	18.0	0.00e+00	0	41	0	73400320	60	7676
2026-01-21 14:54:19.57	20.77	6.21	-44.6	-46.4	18.1	0.00e+00	0	41	0	75497472	60	7553
2026-01-21 14:54:20.58	20.77	6.28	-44.5	-46.3	18.2	0.00e+00	0	41	0	77594624	60	7452
2026-01-21 14:54:21.59	20.77	6.36	-44.4	-46.1	18.4	0.00e+00	0	41	0	79691776	60	7337
2026-01-21 14:54:22.60	20.77	6.43	-44.5	-46.3	18.2	0.00e+00	0	41	0	81788928	60	7441
2026-01-21 14:54:23.61	20.76	6.51	-44.3	-46.0	18.5	0.00e+00	0	41	0	82837504	60	7211
2026-01-21 14:54:24.62	20.76	6.58	-44.5	-46.3	18.2	0.00e+00	0	41	0	84934656	60	7475
2026-01-21 14:54:25.63	20.76	6.66	-44.5	-46.3	18.2	0.00e+00	0	41	0	87031808	60	7426
2026-01-21 14:54:26.64	20.76	6.74	-44.4	-46.2	18.3	0.00e+00	0	41	0	89128960	60	7362
2026-01-21 14:54:27.65	20.75	6.81	-44.6	-46.4	18.0	0.00e+00	0	41	0	91226112	60	7577
2026-01-21 14:54:28.66	20.75	6.89	-44.7	-46.6	18.1	0.00e+00	0	41	0	92274688	60	7726
2026-01-21 14:54:29.67	20.75	6.97	-44.8	-46.7	17.8	0.00e+00	0	41	0	94371840	60	7784
2026-01-21 14:54:30.68	20.75	7.05	-44.6	-46.5	18.1	0.00e+00	0	41	0	96468992	60	7616
2026-01-21 14:54:31.69	20.75	7.12	-44.5	-46.2	18.2	0.00e+00	0	41	0	98566144	60	7419
2026-01-21 14:54:32.70	20.74	7.20	-44.3	-46.0	18.5	0.00e+00	0	41	0	100663296	60	7233
2026-01-21 14:54:33.70	20.74	7.28	-44.4	-46.2	18.3	0.00e+00	0	41	0	101711872	60	7338
2026-01-21 14:54:34.71	20.74	7.36	-44.4	-46.1	18.4	0.00e+00	0	41	0	103809024	60	7310
2026-01-21 14:54:35.72	20.74	7.44	-44.4	-46.1	18.5	0.00e+00	0	41	0	105906176	60	7328
2026-01-21 14:54:36.73	20.73	7.52	-44.4	-46.1	18.5	0.00e+00	0	41	0	108003328	60	7312
2026-01-21 14:54:37.74	20.73	7.60	-44.1	-45.7	18.8	0.00e+00	0	41	0	110100480	60	7001
2026-01-21 14:54:38.75	20.73	7.67	-44.1	-45.8	18.8	0.00e+00	0	41	0	111149056	60	7016
2026-01-21 14:54:39.76	20.72	7.75	-44.1	-45.8	18.8	0.00e+00	0	41	0	113246208	60	7033
2026-01-21 14:54:40.77	20.72	7.83	-44.0	-45.6	18.9	0.00e+00	0	41	0	115343360	60	6924
2026-01-21 14:54:41.78	20.72	7.91	-44.1	-45.7	18.9	0.00e+00	0	41	0	117440512	60	6971
2026-01-21 14:54:42.79	20.72	8.00	-44.2	-45.8	18.8	0.00e+00	0	41	0	119537664	60	7074
2026-01-21 14:54:43.80	20.71	8.08	-44.1	-45.8	19.0	0.00e+00	0	41	0	121634816	60	7015
2026-01-21 14:54:44.81	20.71	8.16	-44.0	-45.6	19.0	0.00e+00	0	41	0	122683392	60	6926
2026-01-21 14:54:45.82	20.71	8.24	-44.0	-45.6	19.1	0.00e+00	0	41	0	124780544	60	6883
2026-01-21 14:54:46.83	20.70	8.32	-44.1	-45.7	19.0	0.00e+00	0	41	0	126877696	60	6958
2026-01-21 14:54:47.84	20.70	8.40	-44.0	-45.6	19.1	0.00e+00	0	41	0	128974848	60	6860
2026-01-21 14:54:48.85	20.70	8.48	-43.8	-45.4	19.3	0.00e+00	0	41	0	131072000	60	6716
2026-01-21 14:54:49.86	20.70	8.57	-43.9	-45.4	19.3	0.00e+00	0	41	0	132120576	60	6729
2026-01-21 14:54:50.87	20.69	8.65	-44.0	-45.5	19.2	0.00e+00	0	41	0	134217728	60	6831
2026-01-21 14:54:51.88	20.69	8.73	-44.0	-45.6	19.0	0.00e+00	0	41	0	136314880	60	6905
2026-01-21 14:54:52.89	20.69	8.81	-44.1	-45.7	19.0	0.00e+00	0	41	0	138412032	60	6954
2026-01-21 14:54:53.90	20.68	8.90	-43.8	-45.4	19.4	0.00e+00	0	41	0	140509184	60	6710
2026-01-21 14:54:54.91	20.68	8.98	-43.9	-45.4	19.3	0.00e+00	0	41	0	141557760	60	6742
2026-01-21 14:54:55.92	20.68	9.07	-43.6	-45.0	19.7	0.00e+00	0	41	0	143654912	60	6453
2026-01-21 14:54:56.93	20.67	9.15	-43.6	-45.1	19.6	0.00e+00	0	41	0	145752064	60	6521
2026-01-21 14:54:57.94	20.67	9.23	-43.7	-45.2	19.5	0.00e+00	0	41	0	147849216	60	6588
2026-01-21 14:54:58.95	20.67	9.32	-43.6	-45.1	19.7	0.00e+00	0	41	0	149946368	60	6487
2026-01-21 14:54:59.97	20.66	9.41	-43.5	-45.0	19.8	0.00e+00	0	41	0	150994944	60	6411
2026-01-21 14:55:00.97	20.66	9.49	-43.5	-44.9	19.9	0.00e+00	0	41	0	153092096	60	6379
2026-01-21 14:55:01.98	20.65	9.58	-43.4	-44.9	19.9	0.00e+00	0	41	0	155189248	60	6320
2026-01-21 14:55:02.99	20.65	9.66	-43.6	-45.0	19.8	0.00e+00	0	41	0	157286400	60	6457
2026-01-21 14:55:04.00	20.65	9.75	-43.5	-44.9	19.9	0.00e+00	0	41	0	159383552	60	6357
2026-01-21 14:55:05.01	20.64	9.83	-43.5	-44.9	19.9	0.00e+00	0	41	0	160432128	60	6366
2026-01-21 14:55:06.03	20.64	9.92	-43.4	-44.8	20.0	0.00e+00	0	41	0	162529280	60	6299
2026-01-21 14:55:07.04	20.64	10.01	-43.4	-44.8	20.0	0.00e+00	0	41	0	164626432	60	6251
2026-01-21 14:55:08.04	20.63	10.10	-43.3	-44.6	20.1	0.00e+00	0	41	0	166723584	60	6156
2026-01-21 14:55:09.06	20.63	10.19	-43.3	-44.6	20.2	0.00e+00	0	41	0	168820736	60	6172
2026-01-21 14:55:10.07	20.62	10.27	-43.4	-44.8	20.2	0.00e+00	0	41	0	169869312	60	6269
2026-01-21 14:55:11.08	20.62	10.36	-43.3	-44.7	20.2	0.00e+00	0	41	0	171966464	60	6205
2026-01-21 14:55:12.09	20.62	10.45	-43.3	-44.7	20.2	0.00e+00	0	41	0	174063616	60	6190
2026-01-21 14:55:13.10	20.61	10.54	-43.3	-44.6	20.2	0.00e+00	0	41	0	176160768	60	6163
2026-01-21 14:55:14.11	20.61	10.63	-43.3	-44.7	20.1	0.00e+00	0	41	0	178257920	60	6230
2026-01-21 14:55:15.12	20.60	10.72	-43.3	-44.7	20.2	0.00e+00	0	41	0	179306496	60	6175
2026-01-21 14:55:16.13	20.60	10.81	-43.2	-44.5	20.3	0.00e+00	0	41	0	181403648	60	6084
2026-01-21 14:55:17.14	20.59	10.90	-43.2	-44.5	20.3	0.00e+00	0	41	0	183500800	60	6099
2026-01-21 14:55:18.15	20.59	10.99	-43.1	-44.4	20.5	0.00e+00	0	41	0	185597952	60	6020
2026-01-21 14:55:19.16	20.59	11.08	-43.2	-44.5	20.4	0.00e+00	0	41	0	187695104	60	6054
2026-01-21 14:55:20.17	20.58	11.17	-43.2	-44.5	20.4	0.00e+00	0	41	0	189792256	60	6069
2026-01-21 14:55:21.18	20.58	11.26	-43.0	-44.4	20.5	0.00e+00	0	42	0	190840832	60	5971
2026-01-21 14:55:22.19	20.57	11.36	-43.0	-44.4	20.5	0.00e+00	0	41	0	192937984	60	5966
2026-01-21 14:55:23.20	20.57	11.45	-43.0	-44.3	20.6	0.00e+00	0	41	0	195035136	60	5926
2026-01-21 14:55:24.21	20.56	11.54	-43.0	-44.3	20.6	0.00e+00	0	41	0	197132288	60	5954
2026-01-21 14:55:25.22	20.56	11.64	-42.9	-44.2	20.7	0.00e+00	0	41	0	199229440	60	5884
2026-01-21 14:55:26.23	20.55	11.73	-43.0	-44.3	20.5	0.00e+00	0	41	0	200278016	60	5941
2026-01-21 14:55:27.23	20.55	11.82	-43.1	-44.4	20.5	0.00e+00	0	41	0	202375168	60	6025
2026-01-21 14:55:28.24	20.54	11.92	-43.0	-44.3	20.6	0.00e+00	0	41	0	204472320	60	5953
2026-01-21 14:55:29.25	20.54	12.01	-43.1	-44.4	20.5	0.00e+00	0	41	0	206569472	60	6012
2026-01-21 14:55:30.26	20.53	12.11	-43.1	-44.5	20.5	0.00e+00	0	41	0	208666624	60	6041
2026-01-21 14:55:31.27	20.53	12.20	-42.8	-44.1	20.9	0.00e+00	0	41	0	209715200	60	5777
2026-01-21 14:55:32.28	20.52	12.30	-42.9	-44.1	20.8	0.00e+00	0	41	0	211812352	60	5823
2026-01-21 14:55:33.29	20.52	12.39	-42.9	-44.2	20.7	0.00e+00	0	41	0	213909504	60	5860
2026-01-21 14:55:34.29	20.51	12.49	-42.6	-43.9	21.0	0.00e+00	0	41	0	216006656	58	6331
2026-01-21 14:55:35.30	20.51	12.59	-42.7	-43.9	21.0	0.00e+00	0	41	0	218103808	58	6343
2026-01-21 14:55:36.31	20.50	12.68	-42.8	-44.0	20.8	0.00e+00	0	41	0	219152384	58	6431
2026-01-21 14:55:37.32	20.49	12.78	-42.6	-43.8	21.1	0.00e+00	0	41	0	221249536	58	6275
2026-01-21 14:55:38.33	20.49	12.88	-42.7	-43.9	21.0	0.00e+00	0	41	0	223346688	58	6373
2026-01-21 14:55:39.35	20.48	12.98	-42.7	-44.0	20.9	0.00e+00	0	41	0	225443840	58	6411
2026-01-21 14:55:40.36	20.48	13.08	-42.5	-43.7	21.0	0.00e+00	0	41	0	227540992	58	6242
2026-01-21 14:55:41.37	20.47	13.18	-42.5	-43.7	21.1	0.00e+00	0	41	0	228589568	58	6180
2026-01-21 14:55:42.38	20.47	13.28	-42.5	-43.6	21.2	0.00e+00	0	41	0	230686720	58	6166
2026-01-21 14:55:43.39	20.46	13.38	-42.4	-43.6	21.2	0.00e+00	0	41	0	232783872	58	6161
2026-01-21 14:55:44.40	20.45	13.48	-42.4	-43.6	21.3	0.00e+00	0	41	0	234881024	58	6136
2026-01-21 14:55:45.41	20.45	13.58	-42.5	-43.7	21.2	0.00e+00	0	41	0	236978176	58	6223
2026-01-21 14:55:46.41	20.44	13.68	-42.4	-43.6	21.3	0.00e+00	0	41	0	238026752	58	6111
2026-01-21 14:55:47.42	20.43	13.78	-42.4	-43.6	21.3	0.00e+00	0	41	0	240123904	58	6131
2026-01-21 14:55:48.43	20.43	13.88	-42.4	-43.5	21.3	0.00e+00	0	41	0	242221056	58	6098
2026-01-21 14:55:49.44	20.42	13.98	-42.4	-43.5	21.3	0.00e+00	0	41	0	244318208	58	6103
2026-01-21 14:55:50.45	20.42	14.09	-42.4	-43.5	21.3	0.00e+00	0	42	0	246415360	58	6098
2026-01-21 14:55:51.46	20.41	14.19	-42.3	-43.5	21.4	0.00e+00	0	42	0	247463936	58	6044
2026-01-21 14:55:52.47	20.40	14.29	-42.3	-43.5	21.4	0.00e+00	0	42	0	249561088	58	6041
2026-01-21 14:55:53.48	20.40	14.40	-42.4	-43.6	21.3	0.00e+00	0	42	0	251658240	58	6149
2026-01-21 14:55:54.50	20.39	14.50	-42.2	-43.4	21.4	0.00e+00	0	42	0	253755392	58	5991
2026-01-21 14:55:55.51	20.38	14.61	-42.1	-43.2	21.6	0.00e+00	0	41	0	255852544	58	5895
2026-01-21 14:55:56.52	20.38	14.72	-42.1	-43.2	21.6	0.00e+00	0	41	0	257949696	58	5879
2026-01-21 14:55:57.53	20.37	14.82	-42.1	-43.2	21.7	0.00e+00	0	42	0	258998272	58	5841
2026-01-21 14:55:58.54	20.36	14.93	-42.2	-43.3	21.6	0.00e+00	0	41	0	261095424	58	5948
2026-01-21 14:55:59.55	20.35	15.04	-42.1	-43.2	21.7	0.00e+00	0	41	0	263192576	58	5859
2026-01-21 14:56:00.55	20.35	15.14	-42.0	-43.1	21.7	0.00e+00	0	41	0	265289728	58	5823
2026-01-21 14:56:01.56	20.34	15.25	-42.0	-43.1	21.8	0.00e+00	0	42	0	267386880	58	5821
2026-01-21 14:56:02.57	20.33	15.36	-42.0	-43.1	21.8	0.00e+00	0	42	0	268435456	58	5807
2026-01-21 14:56:03.58	20.32	15.47	-42.0	-43.1	21.8	0.00e+00	0	41	0	270532608	58	5787
2026-01-21 14:56:04.59	20.32	15.58	-42.1	-43.2	21.8	0.00e+00	0	41	0	272629760	58	5868
2026-01-21 14:56:05.60	20.31	15.69	-41.9	-42.9	21.9	0.00e+00	0	41	0	274726912	58	5694
2026-01-21 14:56:06.61	20.30	15.80	-41.9	-43.0	21.8	0.00e+00	0	41	0	276824064	58	5757
2026-01-21 14:56:07.62	20.29	15.91	-41.8	-42.9	21.9	0.00e+00	0	41	0	277872640	58	5639
2026-01-21 14:56:08.63	20.29	16.02	-41.8	-42.8	22.1	0.00e+00	0	41	0	279969792	58	5629
2026-01-21 14:56:09.63	20.28	16.13	-41.7	-42.8	22.2	0.00e+00	0	42	0	282066944	56	6256
2026-01-21 14:56:10.64	20.27	16.24	-41.7	-42.8	22.2	0.00e+00	0	41	0	284164096	56	6250
2026-01-21 14:56:11.65	20.26	16.36	-41.7	-42.8	22.1	0.00e+00	0	41	0	286261248	56	6275
2026-01-21 14:56:12.65	20.25	16.47	-41.7	-42.7	22.3	0.00e+00	0	41	0	287309824	56	6220
2026-01-21 14:56:13.67	20.24	16.58	-41.6	-42.7	22.2	0.00e+00	0	41	0	289406976	56	6195
2026-01-21 14:56:14.68	20.24	16.70	-41.6	-42.7	22.3	0.00e+00	0	41	0	291504128	56	6180
2026-01-21 14:56:15.69	20.23	16.81	-41.6	-42.6	22.3	0.00e+00	0	41	0	293601280	56	6152
2026-01-21 14:56:16.70	20.22	16.93	-41.5	-42.5	22.4	0.00e+00	0	41	0	295698432	56	6101
2026-01-21 14:56:17.70	20.21	17.05	-41.5	-42.5	22.4	0.00e+00	0	41	0	296747008	56	6083
2026-01-21 14:56:18.71	20.20	17.16	-41.5	-42.5	22.5	0.00e+00	0	41	0	298844160	56	6089
2026-01-21 14:56:19.72	20.19	17.28	-41.5	-42.6	22.4	0.00e+00	0	41	0	300941312	56	6128
2026-01-21 14:56:20.73	20.18	17.40	-41.5	-42.5	22.4	0.00e+00	0	41	0	303038464	56	6064
2026-01-21 14:56:21.74	20.17	17.52	-41.5	-42.5	22.3	0.00e+00	0	41	0	305135616	56	6091
2026-01-21 14:56:22.75	20.16	17.63	-41.4	-42.4	22.5	0.00e+00	0	41	0	306184192	56	6031
2026-01-21 14:56:23.76	20.15	17.75	-41.5	-42.5	22.4	0.00e+00	0	42	0	308281344	56	6093
2026-01-21 14:56:24.77	20.14	17.87	-41.3	-42.3	22.6	0.00e+00	0	41	0	310378496	56	5914
2026-01-21 14:56:25.78	20.14	18.00	-41.3	-42.4	22.6	0.00e+00	0	41	0	312475648	56	5971
2026-01-21 14:56:26.79	20.13	18.12	-41.3	-42.3	22.7	0.00e+00	0	41	0	314572800	56	5905
2026-01-21 14:56:27.80	20.12	18.24	-41.4	-42.4	22.5	0.00e+00	0	41	0	315621376	56	6015
2026-01-21 14:56:28.81	20.11	18.36	-41.4	-42.4	22.6	0.00e+00	0	41	0	317718528	56	5976
2026-01-21 14:56:29.82	20.10	18.49	-41.3	-42.3	22.6	0.00e+00	0	41	0	319815680	56	5918
2026-01-21 14:56:30.83	20.09	18.61	-41.5	-42.5	22.4	0.00e+00	0	41	0	321912832	56	6098
2026-01-21 14:56:31.84	20.07	18.73	-41.2	-42.1	22.8	0.00e+00	0	41	0	324009984	56	5822
2026-01-21 14:56:32.85	20.06	18.86	-41.1	-42.1	22.9	0.00e+00	0	41	0	326107136	56	5783
2026-01-21 14:56:33.86	20.05	18.98	-41.2	-42.2	22.8	0.00e+00	0	41	0	327155712	56	5864
2026-01-21 14:56:34.87	20.04	19.11	-41.2	-42.2	22.7	0.00e+00	0	41	0	329252864	56	5854
2026-01-21 14:56:35.88	20.03	19.24	-41.2	-42.2	22.8	0.00e+00	0	41	0	331350016	56	5836
2026-01-21 14:56:36.89	20.02	19.37	-41.2	-42.2	22.8	0.00e+00	0	41	0	333447168	56	5881
2026-01-21 14:56:37.90	20.01	19.49	-41.1	-42.1	22.8	0.00e+00	0	42	0	335544320	56	5807
2026-01-21 14:56:38.91	20.00	19.62	-41.2	-42.2	22.8	0.00e+00	0	41	0	336592896	56	5848
2026-01-21 14:56:39.91	19.99	19.75	-41.2	-42.2	22.8	0.00e+00	0	41	0	338690048	56	5834
2026-01-21 14:56:40.92	19.98	19.88	-41.3	-42.3	22.7	0.00e+00	0	41	0	340787200	56	5948
2026-01-21 14:56:41.93	19.96	20.01	-41.1	-42.1	22.9	0.00e+00	0	41	0	342884352	56	5808
2026-01-21 14:56:42.94	19.95	20.15	-41.2	-42.1	22.9	0.00e+00	0	42	0	344981504	56	5820
2026-01-21 14:56:43.94	19.94	20.28	-41.2	-42.2	22.8	0.00e+00	0	41	0	346030080	56	5836
2026-01-21 14:56:44.95	19.93	20.41	-41.2	-42.2	22.7	0.00e+00	0	41	0	348127232	56	5878
2026-01-21 14:56:45.97	19.92	20.55	-41.2	-42.1	22.9	0.00e+00	0	41	0	350224384	56	5828
2026-01-21 14:56:46.98	19.90	20.68	-41.2	-42.2	22.9	0.00e+00	0	42	0	352321536	56	5853
2026-01-21 14:56:47.99	19.89	20.82	-41.0	-42.0	23.0	0.00e+00	0	41	0	354418688	56	5739
2026-01-21 14:56:49.00	19.88	20.95	-41.1	-42.1	22.9	0.00e+00	0	42	0	355467264	56	5771
2026-01-21 14:56:50.01	19.87	21.09	-41.1	-42.0	22.9	0.00e+00	0	41	0	357564416	56	5748
2026-01-21 14:56:51.02	19.85	21.23	-41.0	-42.0	23.0	0.00e+00	0	41	0	359661568	56	5713
2026-01-21 14:56:52.03	19.84	21.36	-41.0	-42.0	22.9	0.00e+00	0	42	0	361758720	56	5738
2026-01-21 14:56:53.04	19.83	21.50	-41.0	-42.0	23.1	0.00e+00	0	41	0	363855872	56	5736
2026-01-21 14:56:54.05	19.81	21.64	-41.1	-42.0	23.0	0.00e+00	0	41	0	364904448	56	5755
2026-01-21 14:56:55.06	19.80	21.78	-41.0	-42.0	23.0	0.00e+00	0	41	0	367001600	56	5740
2026-01-21 14:56:56.07	19.79	21.92	-40.9	-41.9	23.1	0.00e+00	0	41	0	369098752	56	5649
2026-01-21 14:56:57.08	19.77	22.07	-41.0	-41.9	23.1	0.00e+00	0	41	0	371195904	56	5681
2026-01-21 14:56:58.09	19.76	22.21	-40.9	-41.9	23.1	0.00e+00	0	41	0	373293056	56	5659
2026-01-21 14:56:59.10	19.74	22.35	-41.0	-42.0	23.0	0.00e+00	0	41	0	374341632	56	5712
2026-01-21 14:57:00.11	19.73	22.50	-41.1	-42.1	23.0	0.00e+00	0	41	0	376438784	56	5776
2026-01-21 14:57:01.11	19.72	22.64	-40.9	-41.8	23.2	0.00e+00	0	41	0	378535936	56	5627
2026-01-21 14:57:02.12	19.70	22.79	-40.7	-41.7	23.3	0.00e+00	0	41	0	380633088	56	5525
2026-01-21 14:57:03.13	19.69	22.94	-40.7	-41.7	23.2	0.00e+00	0	41	0	382730240	54	6196
2026-01-21 14:57:04.14	19.67	23.08	-40.8	-41.7	23.1	0.00e+00	0	41	0	383778816	54	6212
2026-01-21 14:57:05.15	19.66	23.23	-40.7	-41.6	23.2	0.00e+00	0	41	0	385875968	54	6156
2026-01-21 14:57:06.16	19.64	23.38	-40.7	-41.7	23.2	0.00e+00	0	41	0	387973120	54	6176
2026-01-21 14:57:07.18	19.63	23.53	-40.6	-41.6	23.4	0.00e+00	0	41	0	390070272	54	6114
2026-01-21 14:57:08.19	19.61	23.69	-40.6	-41.6	23.3	0.00e+00	0	41	0	392167424	54	6109
2026-01-21 14:57:09.19	19.59	23.84	-40.7	-41.6	23.2	0.00e+00	0	41	0	394264576	54	6147
2026-01-21 14:57:10.20	19.58	23.99	-40.6	-41.5	23.4	0.00e+00	0	41	0	395313152	54	6084
2026-01-21 14:57:11.21	19.56	24.14	-40.9	-41.8	23.1	0.00e+00	0	41	0	397410304	54	6312
2026-01-21 14:57:12.22	19.54	24.30	-40.8	-41.8	23.2	0.00e+00	0	41	0	399507456	54	6255
2026-01-21 14:57:13.23	19.53	24.45	-40.8	-41.7	23.3	0.00e+00	0	41	0	401604608	54	6229
2026-01-21 14:57:14.24	19.51	24.61	-40.6	-41.5	23.3	0.00e+00	0	41	0	403701760	54	6090
2026-01-21 14:57:15.25	19.49	24.77	-40.7	-41.6	23.4	0.00e+00	0	41	0	404750336	54	6130
2026-01-21 14:57:16.26	19.48	24.93	-40.7	-41.6	23.3	0.00e+00	0	41	0	406847488	54	6162
2026-01-21 14:57:17.27	19.46	25.09	-40.7	-41.6	23.3	0.00e+00	0	41	0	408944640	54	6162
2026-01-21 14:57:18.28	19.44	25.25	-40.8	-41.7	23.3	0.00e+00	0	41	0	411041792	54	6227
2026-01-21 14:57:19.29	19.42	25.41	-40.7	-41.7	23.4	0.00e+00	0	42	0	413138944	54	6194
2026-01-21 14:57:20.30	19.40	25.57	-41.0	-41.9	23.1	0.00e+00	0	41	0	414187520	54	6366
2026-01-21 14:57:21.31	19.39	25.74	-40.9	-41.8	23.2	0.00e+00	0	41	0	416284672	54	6278
2026-01-21 14:57:22.32	19.37	25.90	-40.9	-41.8	23.1	0.00e+00	0	41	0	418381824	54	6311
2026-01-21 14:57:23.32	19.35	26.07	-41.0	-41.9	23.0	0.00e+00	0	41	0	420478976	54	6384
2026-01-21 14:57:24.33	19.33	26.23	-41.1	-42.1	22.9	0.00e+00	0	41	0	422576128	54	6465
2026-01-21 14:57:25.34	19.31	26.40	-41.2	-42.1	22.8	0.00e+00	0	41	0	423624704	54	6539
2026-01-21 14:57:26.35	19.29	26.57	-41.2	-42.2	22.8	0.00e+00	0	41	0	425721856	54	6575
2026-01-21 14:57:27.36	19.27	26.74	-41.2	-42.1	22.8	0.00e+00	0	41	0	427819008	54	6536
2026-01-21 14:57:28.37	19.25	26.91	-41.4	-42.4	22.7	0.00e+00	0	41	0	429916160	54	6721
2026-01-21 14:57:29.38	19.23	27.08	-41.5	-42.5	22.6	0.00e+00	0	41	0	432013312	54	6781
2026-01-21 14:57:30.39	19.21	27.25	-41.5	-42.5	22.5	0.00e+00	0	41	0	433061888	54	6816
2026-01-21 14:57:31.40	19.19	27.43	-41.8	-42.8	22.3	0.00e+00	0	41	0	435159040	54	7052
2026-01-21 14:57:32.41	19.16	27.60	-41.8	-42.9	22.3	0.00e+00	0	41	0	437256192	56	6336
2026-01-21 14:57:33.42	19.14	27.78	-42.0	-43.1	22.2	0.00e+00	0	41	0	439353344	56	6493
2026-01-21 14:57:34.43	19.12	27.96	-42.1	-43.2	22.1	0.00e+00	0	41	0	441450496	56	6547
2026-01-21 14:57:35.44	19.10	28.14	-42.3	-43.3	22.0	0.00e+00	0	41	0	442499072	56	6688
2026-01-21 14:57:36.45	19.08	28.32	-42.4	-43.5	21.7	0.00e+00	0	41	0	444596224	56	6795
2026-01-21 14:57:37.46	19.05	28.50	-42.6	-43.7	21.5	0.00e+00	0	41	0	446693376	56	6985
2026-01-21 14:57:38.47	19.03	28.68	-42.8	-43.9	21.2	0.00e+00	0	41	0	448790528	58	6387
2026-01-21 14:57:39.48	19.01	28.86	-43.0	-44.3	21.0	0.00e+00	0	41	0	450887680	58	6621
2026-01-21 14:57:40.49	18.98	29.05	-43.1	-44.3	21.0	0.00e+00	0	41	0	451936256	58	6664
2026-01-21 14:57:41.50	18.96	29.23	-43.3	-44.5	20.8	0.00e+00	0	41	0	454033408	58	6848
2026-01-21 14:57:42.51	18.93	29.42	-43.4	-44.6	20.7	0.00e+00	0	41	0	456130560	58	6921
2026-01-21 14:57:43.52	18.91	29.61	-43.6	-44.9	20.5	0.00e+00	0	41	0	458227712	58	7102
2026-01-21 14:57:44.53	18.89	29.80	-43.9	-45.2	20.1	0.00e+00	0	41	0	460324864	60	6612
2026-01-21 14:57:45.54	18.86	29.99	-44.0	-45.4	20.0	0.00e+00	0	41	0	462422016	60	6699
2026-01-21 14:57:46.55	18.83	30.18	-44.3	-45.8	19.7	0.00e+00	0	41	0	463470592	60	7049
2026-01-21 14:57:47.56	18.81	30.37	-44.4	-45.9	19.6	0.00e+00	0	41	0	465567744	60	7145
2026-01-21 14:57:48.57	18.78	30.57	-44.6	-46.1	19.4	0.00e+00	0	41	0	467664896	60	7302
2026-01-21 14:57:49.58	18.75	30.77	-44.6	-46.2	19.2	0.00e+00	0	41	0	469762048	60	7360
2026-01-21 14:57:50.59	18.73	30.96	-44.8	-46.4	19.0	0.00e+00	0	41	0	471859200	60	7529
2026-01-21 14:57:51.60	18.70	31.16	-44.8	-46.4	19.1	0.00e+00	0	41	0	472907776	60	7550
2026-01-21 14:57:52.61	18.67	31.36	-44.8	-46.4	19.0	0.00e+00	0	41	0	475004928	60	7576
2026-01-21 14:57:53.62	18.64	31.56	-44.9	-46.5	19.0	0.00e+00	0	41	0	477102080	60	7610
2026-01-21 14:57:54.63	18.61	31.77	-45.0	-46.7	18.9	0.00e+00	0	41	0	479199232	60	7814
2026-01-21 14:57:55.64	18.59	31.97	-44.8	-46.4	19.2	0.00e+00	0	41	0	481296384	60	7526
2026-01-21 14:57:56.65	18.56	32.18	-44.8	-46.5	19.1	0.00e+00	0	41	0	482344960	60	7600
2026-01-21 14:57:57.66	18.53	32.38	-44.4	-45.9	19.6	0.00e+00	0	41	0	484442112	60	7140
2026-01-21 14:57:58.67	18.49	32.59	-44.4	-45.9	19.7	0.00e+00	0	41	0	486539264	60	7121
2026-01-21 14:57:59.68	18.46	32.80	-44.1	-45.5	19.9	0.00e+00	0	41	0	488636416	60	6842
2026-01-21 14:58:00.69	18.43	33.01	-43.8	-45.2	20.3	0.00e+00	0	41	0	490733568	60	6548
2026-01-21 14:58:01.70	18.40	33.23	-43.4	-44.6	20.7	0.00e+00	0	41	0	491782144	60	6171
2026-01-21 14:58:02.71	18.37	33.44	-43.3	-44.6	20.9	0.00e+00	0	41	0	493879296	60	6147
2026-01-21 14:58:03.71	18.34	33.65	-42.9	-44.1	21.4	0.00e+00	0	41	0	495976448	60	5778
2026-01-21 14:58:04.72	18.30	33.87	-42.7	-43.9	21.5	0.00e+00	0	41	0	498073600	58	6336
2026-01-21 14:58:05.73	18.27	34.09	-42.2	-43.3	22.0	0.00e+00	0	41	0	500170752	58	5959
2026-01-21 14:58:06.74	18.23	34.31	-42.1	-43.1	22.3	0.00e+00	0	41	0	501219328	58	5814
2026-01-21 14:58:07.75	18.20	34.53	-41.7	-42.8	22.6	0.00e+00	0	41	0	503316480	56	6249
2026-01-21 14:58:08.76	18.16	34.76	-41.7	-42.7	22.6	0.00e+00	0	41	0	505413632	56	6218
2026-01-21 14:58:09.77	18.13	34.98	-41.2	-42.2	23.0	0.00e+00	0	41	0	507510784	56	5835
2026-01-21 14:58:10.79	18.09	35.21	-41.3	-42.3	23.1	0.00e+00	0	41	0	509607936	56	5953
2026-01-21 14:58:11.80	18.05	35.44	-41.0	-41.9	23.3	0.00e+00	0	41	0	510656512	56	5692
2026-01-21 14:58:12.81	18.02	35.67	-40.9	-41.8	23.5	0.00e+00	0	41	0	512753664	56	5607
2026-01-21 14:58:13.81	17.98	35.90	-40.8	-41.7	23.4	0.00e+00	0	41	0	514850816	54	6191
2026-01-21 14:58:14.82	17.94	36.13	-40.5	-41.4	23.7	0.00e+00	0	41	0	516947968	54	6010
2026-01-21 14:58:15.83	17.90	36.37	-40.4	-41.3	23.9	0.00e+00	0	41	0	519045120	54	5904
2026-01-21 14:58:16.84	17.86	36.60	-40.2	-41.1	23.8	0.00e+00	0	41	0	520093696	54	5789
2026-01-21 14:58:17.85	17.82	36.84	-39.9	-40.8	24.3	0.00e+00	0	41	0	522190848	54	5570
2026-01-21 14:58:18.86	17.78	37.08	-39.8	-40.7	24.3	0.00e+00	0	41	0	524288000	54	5530
2026-01-21 14:58:19.87	17.74	37.32	-39.7	-40.5	24.1	0.00e+00	0	41	0	526385152	52	6063
2026-01-21 14:58:20.88	17.69	37.57	-39.8	-40.6	24.2	0.00e+00	0	41	0	528482304	52	6156
2026-01-21 14:58:21.89	17.65	37.81	-39.7	-40.6	24.4	0.00e+00	0	41	0	530579456	52	6133
2026-01-21 14:58:22.90	17.61	38.06	-39.7	-40.5	24.4	0.00e+00	0	41	0	531628032	52	6076
2026-01-21 14:58:23.91	17.56	38.31	-39.8	-40.6	24.4	0.00e+00	0	41	0	533725184	52	6171
2026-01-21 14:58:24.92	17.51	38.56	-39.8	-40.6	24.4	0.00e+00	0	41	0	535822336	52	6168
2026-01-21 14:58:25.93	17.47	38.81	-40.0	-40.9	24.1	0.00e+00	0	41	0	537919488	52	6355
2026-01-21 14:58:26.94	17.42	39.07	-40.1	-41.0	24.1	0.00e+00	0	41	0	540016640	52	6429
2026-01-21 14:58:27.95	17.37	39.32	-40.4	-41.3	23.9	0.00e+00	0	41	0	541065216	52	6636
2026-01-21 14:58:28.96	17.32	39.58	-40.5	-41.4	23.8	0.00e+00	0	41	0	543162368	52	6695
2026-01-21 14:58:29.97	17.27	39.84	-40.5	-41.4	23.7	0.00e+00	0	41	0	545259520	52	6758
2026-01-21 14:58:30.97	17.22	40.10	-40.6	-41.5	23.6	0.00e+00	0	41	0	547356672	52	6819
2026-01-21 14:58:31.98	17.17	40.37	-40.7	-41.6	23.6	0.00e+00	0	41	0	549453824	52	6910
2026-01-21 14:58:32.99	17.12	40.63	-40.8	-41.7	23.5	0.00e+00	0	41	0	550502400	54	6196
2026-01-21 14:58:34.00	17.07	40.90	-40.7	-41.6	23.5	0.00e+00	0	41	0	552599552	54	6161
2026-01-21 14:58:35.01	17.01	41.17	-41.0	-42.0	23.2	0.00e+00	0	41	0	554696704	54	6416
2026-01-21 14:58:36.02	16.96	41.44	-41.0	-42.0	23.1	0.00e+00	0	41	0	556793856	54	6405
2026-01-21 14:58:37.03	16.90	41.72	-41.2	-42.1	23.1	0.00e+00	0	41	0	558891008	54	6515
2026-01-21 14:58:38.04	16.84	41.99	-41.2	-42.2	23.1	0.00e+00	0	41	0	559939584	54	6589
2026-01-21 14:58:39.05	16.78	42.27	-41.1	-42.1	23.1	0.00e+00	0	41	0	562036736	54	6484
2026-01-21 14:58:40.06	16.73	42.55	-41.0	-42.0	23.2	0.00e+00	0	41	0	564133888	54	6403
2026-01-21 14:58:41.07	16.66	42.83	-40.9	-41.9	23.3	0.00e+00	0	41	0	566231040	54	6335
2026-01-21 14:58:42.08	16.60	43.12	-41.0	-42.0	23.2	0.00e+00	0	41	0	568328192	54	6403
2026-01-21 14:58:43.09	16.54	43.40	-41.2	-42.2	23.1	0.00e+00	0	41	0	569376768	54	6546
2026-01-21 14:58:44.10	16.48	43.69	-41.2	-42.2	23.1	0.00e+00	0	41	0	571473920	54	6560
2026-01-21 14:58:45.11	16.41	43.98	-41.4	-42.4	22.8	0.00e+00	0	41	0	573571072	54	6754
2026-01-21 14:58:46.12	16.34	44.28	-41.7	-42.7	22.5	0.00e+00	0	41	0	575668224	54	6991
2026-01-21 14:58:47.13	16.28	44.57	-41.9	-43.0	22.5	0.00e+00	0	41	0	577765376	56	6399
2026-01-21 14:58:48.14	16.21	44.87	-42.0	-43.0	22.3	0.00e+00	0	41	0	578813952	56	6463
2026-01-21 14:58:49.15	16.14	45.17	-42.6	-43.8	21.6	0.00e+00	0	41	0	580911104	56	7019
2026-01-21 14:58:50.16	16.06	45.47	-43.1	-44.3	21.1	0.00e+00	0	41	0	583008256	58	6662
2026-01-21 14:58:51.17	15.99	45.77	-43.4	-44.7	20.9	0.00e+00	0	41	0	585105408	58	6963
2026-01-21 14:58:52.17	15.92	46.08	-43.8	-45.2	20.6	0.00e+00	0	41	0	587202560	60	6556
2026-01-21 14:58:53.18	15.84	46.39	-44.0	-45.4	20.2	0.00e+00	0	41	0	588251136	60	6708
2026-01-21 14:58:54.19	15.76	46.70	-44.2	-45.6	20.0	0.00e+00	0	41	0	590348288	60	6921
2026-01-21 14:58:55.20	15.68	47.01	-44.5	-46.0	19.6	0.00e+00	0	41	0	592445440	60	7179
2026-01-21 14:58:56.21	15.60	47.33	-44.5	-46.0	19.6	0.00e+00	0	41	0	594542592	60	7199
2026-01-21 14:58:57.23	15.51	47.65	-44.5	-46.0	19.7	0.00e+00	0	41	0	596639744	60	7206
2026-01-21 14:58:58.23	15.43	47.96	-44.2	-45.6	20.0	0.00e+00	0	41	0	598736896	60	6897
2026-01-21 14:58:59.24	15.34	48.29	-44.1	-45.4	20.1	0.00e+00	0	41	0	599785472	60	6764
2026-01-21 14:59:00.25	15.25	48.61	-43.9	-45.2	20.4	0.00e+00	0	41	0	601882624	60	6594
2026-01-21 14:59:01.26	15.16	48.94	-43.6	-44.9	20.6	0.00e+00	0	41	0	603979776	60	6378
2026-01-21 14:59:02.27	15.07	49.27	-43.4	-44.6	21.0	0.00e+00	0	41	0	606076928	60	6159
2026-01-21 14:59:03.28	14.97	49.60	-43.4	-44.7	20.9	0.00e+00	0	41	0	608174080	60	6180
2026-01-21 14:59:04.29	14.88	49.93	-43.5	-44.8	20.7	0.00e+00	0	41	0	609222656	60	6289
2026-01-21 14:59:05.30	14.78	50.27	-42.6	-43.7	21.7	0.00e+00	0	41	0	611319808	58	6217
2026-01-21 14:59:06.31	14.68	50.61	-42.0	-43.1	22.4	0.00e+00	0	41	0	613416960	58	5767
2026-01-21 14:59:07.32	14.57	50.95	-41.3	-42.3	23.1	0.00e+00	0	41	0	615514112	56	5924
2026-01-21 14:59:08.33	14.46	51.29	-41.1	-42.1	23.2	0.00e+00	0	41	0	617611264	56	5763
2026-01-21 14:59:09.34	14.36	51.64	-40.5	-41.4	23.8	0.00e+00	0	41	0	618659840	54	5977
2026-01-21 14:59:10.34	14.24	51.98	-39.7	-40.5	24.5	0.00e+00	0	41	0	620756992	52	6076
2026-01-21 14:59:11.35	14.13	52.33	-39.6	-40.5	24.5	0.00e+00	0	41	0	622854144	52	6047
2026-01-21 14:59:12.36	14.01	52.69	-39.4	-40.2	24.6	0.00e+00	0	41	0	624951296	52	5878
2026-01-21 14:59:13.37	13.89	53.04	-39.5	-40.4	24.6	0.00e+00	0	41	0	627048448	52	5976
2026-01-21 14:59:14.38	13.77	53.40	-39.6	-40.4	24.6	0.00e+00	0	41	0	628097024	52	6022
2026-01-21 14:59:15.39	13.64	53.76	-40.0	-40.8	24.4	0.00e+00	0	41	0	630194176	52	6313
2026-01-21 14:59:16.40	13.51	54.12	-40.0	-40.9	24.2	0.00e+00	0	41	0	632291328	52	6335
2026-01-21 14:59:17.41	13.38	54.49	-40.0	-40.9	24.2	0.00e+00	0	41	0	634388480	52	6352
2026-01-21 14:59:18.42	13.24	54.86	-40.1	-40.9	24.2	0.00e+00	0	41	0	636485632	52	6389
2026-01-21 14:59:19.43	13.10	55.23	-40.1	-40.9	24.1	0.00e+00	0	41	0	637534208	52	6384
2026-01-21 14:59:20.44	12.95	55.60	-40.4	-41.3	23.8	0.00e+00	0	41	0	639631360	52	6668
2026-01-21 14:59:21.45	12.80	55.97	-40.9	-41.8	23.3	0.00e+00	0	41	0	641728512	54	6269
2026-01-21 14:59:22.46	12.65	56.35	-41.7	-42.7	22.6	0.00e+00	0	41	0	643825664	54	6966
2026-01-21 14:59:23.47	12.49	56.73	-42.4	-43.5	21.8	0.00e+00	0	41	0	645922816	56	6832
2026-01-21 14:59:24.48	12.33	57.11	-43.0	-44.2	21.2	0.00e+00	0	41	0	646971392	58	6569
2026-01-21 14:59:25.49	12.17	57.50	-43.9	-45.2	20.4	0.00e+00	0	41	0	649068544	60	6586
2026-01-21 14:59:26.50	11.99	57.89	-44.5	-45.9	19.7	0.00e+00	0	41	0	651165696	60	7169
2026-01-21 14:59:27.51	11.82	58.27	-45.1	-46.8	18.8	0.00e+00	0	41	0	653262848	60	7875
2026-01-21 14:59:28.52	11.64	58.67	-45.3	-47.0	18.6	0.00e+00	0	41	0	655360000	60	8076
2026-01-21 14:59:29.53	11.45	59.06	-45.2	-46.9	18.9	0.00e+00	0	41	0	656408576	60	7976
2026-01-21 14:59:30.53	11.26	59.45	-44.7	-46.2	19.5	0.00e+00	0	41	0	658505728	60	7420
2026-01-21 14:59:31.54	11.06	59.85	-44.2	-45.6	20.0	0.00e+00	0	41	0	660602880	60	6877
2026-01-21 14:59:32.56	10.85	60.25	-43.0	-44.2	21.4	0.00e+00	0	41	0	662700032	60	5863
2026-01-21 14:59:33.57	10.64	60.66	-42.2	-43.2	22.3	0.00e+00	0	41	0	664797184	58	5889
2026-01-21 14:59:34.57	10.42	61.06	-41.7	-42.7	22.6	0.00e+00	0	41	0	665845760	56	6236
2026-01-21 14:59:35.58	10.19	61.47	-41.1	-42.0	23.2	0.00e+00	0	41	0	667942912	56	5760
2026-01-21 14:59:36.59	9.96	61.87	-40.5	-41.5	23.7	0.00e+00	0	41	0	670040064	54	6043
2026-01-21 14:59:37.60	9.72	62.29	-40.4	-41.2	23.3	0.00e+00	0	41	0	672137216	54	5895
2026-01-21 14:59:38.61	9.46	62.70	-40.4	-41.3	23.9	0.00e+00	0	41	0	674234368	54	5898
2026-01-21 14:59:39.62	9.20	63.11	-40.1	-40.9	24.2	0.00e+00	0	41	0	675282944	54	5695
2026-01-21 14:59:40.63	8.94	63.53	-40.3	-41.2	23.9	0.00e+00	0	41	0	677380096	54	5837
2026-01-21 14:59:41.64	8.66	63.95	-40.0	-40.9	24.2	0.00e+00	0	41	0	679477248	54	5651
2026-01-21 14:59:42.65	8.37	64.37	-40.1	-41.0	24.1	0.00e+00	0	41	0	681574400	54	5722
2026-01-21 14:59:43.66	8.06	64.79	-40.4	-41.3	23.5	0.00e+00	0	41	0	683671552	54	5911
2026-01-21 14:59:44.67	7.75	65.22	-40.7	-41.6	23.5	0.00e+00	0	41	0	684720128	54	6142
2026-01-21 14:59:45.68	7.43	65.64	-41.1	-42.1	23.1	0.00e+00	0	41	0	686817280	54	6489
2026-01-21 14:59:46.69	7.09	66.07	-41.4	-42.3	22.8	0.00e+00	0	41	0	688914432	54	6682
2026-01-21 14:59:47.70	6.74	66.50	-41.9	-43.0	22.4	0.00e+00	0	41	0	691011584	56	6409
2026-01-21 14:59:48.71	6.37	66.93	-42.1	-43.2	22.1	0.00e+00	0	41	0	693108736	56	6580
2026-01-21 14:59:49.72	5.99	67.36	-42.1	-43.1	22.3	0.00e+00	0	41	0	695205888	56	6523
2026-01-21 14:59:50.73	5.59	67.80	-41.7	-42.7	22.6	0.00e+00	0	41	0	696254464	56	6202
2026-01-21 14:59:51.74	5.18	68.23	-41.7	-42.7	22.7	0.00e+00	0	41	0	698351616	56	6194
2026-01-21 14:59:52.75	4.74	68.67	-41.6	-42.6	22.7	0.00e+00	0	41	0	700448768	56	6159
2026-01-21 14:59:53.76	4.29	69.10	-41.1	-42.1	23.1	0.00e+00	0	41	0	702545920	56	5785
2026-01-21 14:59:54.77	3.81	69.54	-40.9	-41.8	23.3	0.00e+00	0	41	0	704643072	56	5587
2026-01-21 14:59:55.78	3.32	69.98	-41.4	-42.4	22.8	0.00e+00	0	41	0	705691648	56	5998
2026-01-21 14:59:56.79	2.80	70.42	-41.4	-42.4	22.9	0.00e+00	0	41	0	707788800	56	5978
2026-01-21 14:59:57.80	2.25	70.85	-41.4	-42.3	22.8	0.00e+00	0	41	0	709885952	56	5947
2026-01-21 14:59:58.82	1.67	71.30	-41.8	-42.8	22.5	0.00e+00	0	41	0	711983104	56	6267
2026-01-21 14:59:59.83	1.06	71.74	-41.8	-42.9	22.6	0.00e+00	0	41	0	714080256	56	6347
2026-01-21 15:00:00.84	0.43	72.17	-41.5	-42.5	22.8	0.00e+00	0	41	0	715128832	56	6060
2026-01-21 15:00:01.85	359.76	72.61	-41.1	-42.0	23.2	0.00e+00	0	41	0	717225984	56	5735
2026-01-21 15:00:02.86	359.05	73.05	-41.9	-43.0	22.7	0.00e+00	0	41	0	719323136	56	6399
2026-01-21 15:00:03.87	358.30	73.49	-42.1	-43.2	22.3	0.00e+00	0	41	0	721420288	56	6592
2026-01-21 15:00:04.88	357.52	73.92	-42.8	-44.0	21.4	0.00e+00	0	41	0	723517440	58	6406
2026-01-21 15:00:05.89	356.68	74.35	-43.1	-44.3	21.0	0.00e+00	0	41	0	724566016	58	6688
2026-01-21 15:00:06.90	355.80	74.79	-43.0	-44.3	21.1	0.00e+00	0	41	0	726663168	58	6627
2026-01-21 15:00:07.91	354.86	75.22	-42.6	-43.7	21.8	0.00e+00	0	41	0	728760320	58	6239
2026-01-21 15:00:08.91	353.87	75.64	-42.1	-43.2	21.9	0.00e+00	0	41	0	730857472	58	5844
2026-01-21 15:00:09.92	352.81	76.06	-42.0	-43.1	22.2	0.00e+00	0	41	0	732954624	58	5809
2026-01-21 15:00:10.93	351.68	76.48	-42.1	-43.2	22.0	0.00e+00	0	41	0	735051776	58	5852
2026-01-21 15:00:11.94	350.48	76.90	-42.5	-43.7	21.6	0.00e+00	0	41	0	736100352	58	6176
2026-01-21 15:00:12.95	349.19	77.31	-43.0	-44.1	21.3	0.00e+00	0	41	0	738197504	58	6532
2026-01-21 15:00:13.96	347.82	77.71	-42.9	-44.0	21.4	0.00e+00	0	41	0	740294656	58	6453
2026-01-21 15:00:14.97	346.35	78.11	-42.6	-43.7	21.7	0.00e+00	0	41	0	742391808	58	6232
2026-01-21 15:00:15.98	344.78	78.50	-42.4	-43.5	21.9	0.00e+00	0	41	0	744488960	58	6083
2026-01-21 15:00:16.99	343.10	78.89	-41.6	-42.6	22.9	0.00e+00	0	41	0	745537536	56	6169
2026-01-21 15:00:18.00	341.29	79.26	-40.6	-41.5	23.7	0.00e+00	0	41	0	747634688	54	6076
2026-01-21 15:00:19.01	339.36	79.62	-40.1	-41.0	24.1	0.00e+00	0	41	0	749731840	54	5709
2026-01-21 15:00:20.02	337.28	79.98	-40.2	-41.1	24.0	0.00e+00	0	41	0	751828992	54	5774
2026-01-21 15:00:21.03	335.05	80.31	-39.9	-40.7	24.4	0.00e+00	0	41	0	753926144	54	5550
2026-01-21 15:00:22.04	332.66	80.64	-40.1	-41.0	23.9	0.00e+00	0	41	0	754974720	54	5715
2026-01-21 15:00:23.05	330.10	80.94	-40.9	-41.8	23.5	0.00e+00	0	41	0	757071872	54	6272
2026-01-21 15:00:24.06	327.36	81.23	-41.1	-42.1	23.2	0.00e+00	0	41	0	759169024	54	6479
2026-01-21 15:00:25.07	324.45	81.50	-41.3	-42.3	22.8	0.00e+00	0	41	0	761266176	54	6649
2026-01-21 15:00:26.08	321.35	81.74	-42.3	-43.4	22.0	0.00e+00	0	41	0	763363328	56	6693
2026-01-21 15:00:27.09	318.06	81.96	-43.2	-44.4	21.1	0.00e+00	0	41	0	764411904	58	6738
2026-01-21 15:00:28.10	314.61	82.15	-43.9	-45.3	20.2	0.00e+00	0	41	0	766509056	58	7432
2026-01-21 15:00:29.11	310.99	82.32	-44.3	-45.7	19.8	0.00e+00	0	41	0	768606208	60	6974
2026-01-21 15:00:30.12	307.23	82.45	-44.3	-45.7	20.0	0.00e+00	0	41	0	770703360	60	6971
2026-01-21 15:00:31.13	303.35	82.54	-44.2	-45.6	19.9	0.00e+00	0	41	0	772800512	60	6880
2026-01-21 15:00:32.14	299.39	82.61	-44.1	-45.5	20.1	0.00e+00	0	41	0	773849088	60	6831
2026-01-21 15:00:33.15	295.38	82.63	-44.2	-45.7	20.1	0.00e+00	0	41	0	775946240	60	6942
2026-01-21 15:00:34.16	291.36	82.63	-44.5	-46.0	19.7	0.00e+00	0	41	0	778043392	60	7212
2026-01-21 15:00:35.17	287.37	82.58	-44.2	-45.6	19.8	0.00e+00	0	41	0	780140544	60	6912
2026-01-21 15:00:36.18	283.45	82.50	-43.8	-45.2	20.5	0.00e+00	0	41	0	782237696	60	6577
2026-01-21 15:00:37.19	279.62	82.39	-43.6	-44.9	20.7	0.00e+00	0	41	0	783286272	60	6328
2026-01-21 15:00:38.19	275.97	82.24	-43.3	-44.6	20.7	0.00e+00	0	41	0	785383424	60	6111
2026-01-21 15:00:39.20	272.43	82.07	-43.1	-44.3	21.1	0.00e+00	0	41	0	787480576	60	5937
2026-01-21 15:00:40.21	269.05	81.86	-43.3	-44.6	20.9	0.00e+00	0	41	0	789577728	60	6143
2026-01-21 15:00:41.22	265.86	81.63	-43.3	-44.6	20.9	0.00e+00	0	41	0	791674880	60	6169
2026-01-21 15:00:42.23	262.84	81.37	-43.0	-44.2	21.4	0.00e+00	0	41	0	792723456	60	5845
2026-01-21 15:00:43.24	260.01	81.09	-41.5	-42.5	22.6	0.00e+00	0	41	0	794820608	56	6080
2026-01-21 15:00:44.25	257.36	80.80	-40.9	-41.8	23.2	0.00e+00	0	41	0	796917760	56	5629
2026-01-21 15:00:45.26	254.88	80.48	-40.5	-41.4	23.5	0.00e+00	0	41	0	799014912	54	6031
2026-01-21 15:00:46.27	252.57	80.15	-40.3	-41.2	23.9	0.00e+00	0	41	0	801112064	54	5841
2026-01-21 15:00:47.28	250.42	79.81	-40.6	-41.5	23.5	0.00e+00	0	41	0	803209216	54	6100
2026-01-21 15:00:48.29	248.41	79.45	-41.1	-42.1	23.1	0.00e+00	0	41	0	804257792	54	6488
2026-01-21 15:00:49.30	246.53	79.08	-41.4	-42.4	22.6	0.00e+00	0	41	0	806354944	54	6697
2026-01-21 15:00:50.31	244.79	78.70	-42.3	-43.4	21.9	0.00e+00	0	41	0	808452096	56	6739
2026-01-21 15:00:51.32	243.16	78.31	-43.4	-44.6	20.7	0.00e+00	0	41	0	810549248	58	6914
2026-01-21 15:00:52.33	241.64	77.92	-44.0	-45.4	19.9	0.00e+00	0	41	0	812646400	60	6697
2026-01-21 15:00:53.34	240.22	77.51	-44.1	-45.5	20.2	0.00e+00	0	41	0	813694976	60	6790
2026-01-21 15:00:54.35	238.89	77.11	-43.1	-44.4	21.2	0.00e+00	0	41	0	815792128	60	5969
2026-01-21 15:00:55.36	237.64	76.69	-42.4	-43.5	21.9	0.00e+00	0	41	0	817889280	58	6065
2026-01-21 15:00:56.36	236.49	76.28	-42.0	-43.0	22.3	0.00e+00	0	41	0	819986432	58	5756
2026-01-21 15:00:57.38	235.38	75.85	-42.0	-43.1	22.3	0.00e+00	0	41	0	822083584	56	6469
2026-01-21 15:00:58.38	234.36	75.43	-42.6	-43.8	21.6	0.00e+00	0	41	0	823132160	58	6268
2026-01-21 15:00:59.39	233.39	75.00	-43.2	-44.4	21.0	0.00e+00	0	41	0	825229312	58	6729
2026-01-21 15:01:00.40	232.48	74.57	-42.3	-43.4	21.9	0.00e+00	0	41	0	827326464	58	5971
2026-01-21 15:01:01.41	231.62	74.14	-41.4	-42.4	22.8	0.00e+00	0	41	0	829423616	56	6003
2026-01-21 15:01:02.42	230.81	73.70	-40.8	-41.7	23.3	0.00e+00	0	41	0	831520768	56	5557
2026-01-21 15:01:03.43	230.04	73.27	-40.5	-41.4	23.9	0.00e+00	0	41	0	832569344	54	5967
2026-01-21 15:01:04.44	229.31	72.83	-40.2	-41.0	24.1	0.00e+00	0	41	0	834666496	54	5750
2026-01-21 15:01:05.45	228.62	72.39	-39.4	-40.2	24.7	0.00e+00	0	41	0	836763648	52	5878
2026-01-21 15:01:06.46	227.97	71.95	-39.0	-39.7	25.2	0.00e+00	0	41	0	838860800	52	5561
2026-01-21 15:01:07.47	227.35	71.51	-38.9	-39.7	25.2	0.00e+00	0	41	0	840957952	52	5539
2026-01-21 15:01:08.48	226.76	71.07	-39.3	-40.1	24.8	0.00e+00	0	41	0	842006528	52	5784
2026-01-21 15:01:09.49	226.20	70.63	-39.5	-40.3	24.3	0.00e+00	0	41	0	844103680	52	5907
2026-01-21 15:01:10.50	225.66	70.19	-39.7	-40.5	24.4	0.00e+00	0	41	0	846200832	52	6091
2026-01-21 15:01:11.51	225.15	69.76	-40.7	-41.6	23.5	0.00e+00	0	41	0	848297984	52	6883
2026-01-21 15:01:12.52	224.67	69.32	-42.1	-43.1	22.1	0.00e+00	0	41	0	850395136	56	6537
2026-01-21 15:01:13.53	224.20	68.88	-42.9	-44.1	21.2	0.00e+00	0	41	0	851443712	58	6517
2026-01-21 15:01:14.54	223.76	68.44	-43.0	-44.1	21.3	0.00e+00	0	41	0	853540864	58	6529
2026-01-21 15:01:15.56	223.33	68.00	-42.7	-43.8	21.5	0.00e+00	0	41	0	855638016	58	6293
2026-01-21 15:01:16.57	222.92	67.57	-43.3	-44.6	20.6	0.00e+00	0	41	0	857735168	58	6855
2026-01-21 15:01:17.58	222.53	67.14	-44.3	-45.7	19.7	0.00e+00	0	41	0	859832320	60	7000
2026-01-21 15:01:18.59	222.15	66.70	-45.0	-46.7	18.9	0.00e+00	0	41	0	860880896	60	7777
2026-01-21 15:01:19.59	221.80	66.28	-44.8	-46.4	19.1	0.00e+00	0	41	0	862978048	60	7584
2026-01-21 15:01:20.60	221.45	65.85	-44.1	-45.6	20.1	0.00e+00	0	41	0	865075200	60	6870
2026-01-21 15:01:21.61	221.12	65.42	-43.2	-44.5	21.1	0.00e+00	0	41	0	867172352	60	6042
2026-01-21 15:01:22.62	220.80	64.99	-41.9	-43.0	22.4	0.00e+00	0	41	0	869269504	58	5719
2026-01-21 15:01:23.63	220.50	64.57	-41.3	-42.3	23.0	0.00e+00	0	41	0	871366656	56	5898
2026-01-21 15:01:24.64	220.20	64.15	-40.4	-41.3	23.8	0.00e+00	0	41	0	872415232	54	5925
2026-01-21 15:01:25.65	219.92	63.73	-39.6	-40.4	24.7	0.00e+00	0	41	0	874512384	52	5983
2026-01-21 15:01:26.66	219.64	63.31	-39.0	-39.8	25.1	0.00e+00	0	41	0	876609536	52	5567
2026-01-21 15:01:27.67	219.38	62.89	-39.2	-40.0	24.9	0.00e+00	0	41	0	878706688	52	5717
2026-01-21 15:01:28.68	219.12	62.48	-39.6	-40.4	24.4	0.00e+00	0	41	0	880803840	52	6022
2026-01-21 15:01:29.69	218.87	62.06	-39.9	-40.8	24.3	0.00e+00	0	41	0	881852416	52	6248
2026-01-21 15:01:30.70	218.63	61.65	-40.2	-41.1	24.0	0.00e+00	0	41	0	883949568	52	6469
2026-01-21 15:01:31.71	218.40	61.24	-40.3	-41.1	23.9	0.00e+00	0	41	0	886046720	52	6532
2026-01-21 15:01:32.72	218.18	60.83	-40.4	-41.3	23.7	0.00e+00	0	41	0	888143872	52	6623
2026-01-21 15:01:33.73	217.96	60.43	-41.1	-42.0	23.0	0.00e+00	0	41	0	890241024	54	6448
2026-01-21 15:01:34.74	217.75	60.03	-42.2	-43.2	22.0	0.00e+00	0	41	0	891289600	56	6615
2026-01-21 15:01:35.75	217.55	59.63	-43.3	-44.6	20.7	0.00e+00	0	41	0	893386752	58	6900
2026-01-21 15:01:36.76	217.35	59.23	-43.9	-45.3	20.1	0.00e+00	0	41	0	895483904	60	6670
2026-01-21 15:01:37.77	217.16	58.83	-43.6	-45.0	20.7	0.00e+00	0	41	0	897581056	60	6410
2026-01-21 15:01:38.78	216.98	58.44	-43.1	-44.3	21.0	0.00e+00	0	41	0	899678208	60	5957
2026-01-21 15:01:39.79	216.80	58.05	-43.1	-44.3	21.2	0.00e+00	0	41	0	900726784	60	5964
2026-01-21 15:01:40.80	216.62	57.66	-43.3	-44.6	20.8	0.00e+00	0	41	0	902823936	60	6104
2026-01-21 15:01:41.81	216.45	57.27	-43.3	-44.6	20.8	0.00e+00	0	41	0	904921088	60	6125
2026-01-21 15:01:42.82	216.29	56.89	-42.9	-44.0	21.5	0.00e+00	0	41	0	907018240	60	5738
2026-01-21 15:01:43.83	216.13	56.51	-42.2	-43.3	22.1	0.00e+00	0	41	0	909115392	58	5906
2026-01-21 15:01:44.84	215.98	56.13	-41.8	-42.9	21.9	0.00e+00	0	41	0	910163968	58	5653
2026-01-21 15:01:45.85	215.82	55.75	-41.1	-42.1	23.1	0.00e+00	0	41	0	912261120	56	5764
2026-01-21 15:01:46.86	215.68	55.37	-41.0	-41.9	23.4	0.00e+00	0	41	0	914358272	56	5663
2026-01-21 15:01:47.87	215.53	55.00	-39.7	-40.5	24.5	0.00e+00	0	41	0	916455424	52	6081
2026-01-21 15:01:48.88	215.39	54.63	-39.6	-40.4	24.5	0.00e+00	0	41	0	918552576	52	6024
2026-01-21 15:01:49.89	215.26	54.27	-39.3	-40.1	24.7	0.00e+00	0	41	0	919601152	52	5792
2026-01-21 15:01:50.90	215.13	53.90	-39.5	-40.4	24.5	0.00e+00	0	41	0	921698304	52	5972
2026-01-21 15:01:51.91	215.00	53.54	-39.6	-40.5	24.5	0.00e+00	0	41	0	923795456	52	6048
2026-01-21 15:01:52.92	214.87	53.18	-39.4	-40.3	24.6	0.00e+00	0	41	0	925892608	52	5907
2026-01-21 15:01:53.93	214.75	52.82	-39.8	-40.6	24.2	0.00e+00	0	41	0	927989760	52	6167
2026-01-21 15:01:54.94	214.63	52.46	-39.8	-40.7	24.2	0.00e+00	0	41	0	929038336	52	6203
2026-01-21 15:01:55.95	214.51	52.11	-39.9	-40.8	24.2	0.00e+00	0	41	0	931135488	52	6259
2026-01-21 15:01:56.96	214.40	51.76	-40.0	-40.9	24.1	0.00e+00	0	41	0	933232640	52	6341
2026-01-21 15:01:57.96	214.29	51.42	-40.5	-41.4	23.5	0.00e+00	0	41	0	935329792	52	6720
2026-01-21 15:01:58.97	214.18	51.07	-41.2	-42.2	22.9	0.00e+00	0	41	0	937426944	54	6550
2026-01-21 15:01:59.98	214.08	50.73	-42.2	-43.3	21.9	0.00e+00	0	41	0	939524096	56	6633
2026-01-21 15:02:00.99	213.97	50.39	-42.8	-44.0	21.4	0.00e+00	0	41	0	940572672	58	6406
2026-01-21 15:02:02.00	213.87	50.05	-43.2	-44.4	20.8	0.00e+00	0	41	0	942669824	58	6768
2026-01-21 15:02:03.01	213.77	49.71	-43.5	-44.8	20.5	0.00e+00	0	41	0	944766976	58	7036
2026-01-21 15:02:04.02	213.68	49.38	-44.0	-45.4	20.0	0.00e+00	0	41	0	946864128	60	6763
2026-01-21 15:02:05.03	213.58	49.05	-44.3	-45.8	19.5	0.00e+00	0	41	0	948961280	60	7085
2026-01-21 15:02:06.04	213.49	48.72	-44.3	-45.8	19.6	0.00e+00	0	41	0	950009856	60	7014
2026-01-21 15:02:07.05	213.40	48.39	-44.2	-45.6	19.6	0.00e+00	0	41	0	952107008	60	6916
2026-01-21 15:02:08.06	213.31	48.07	-44.7	-46.2	19.2	0.00e+00	0	41	0	954204160	60	7417
2026-01-21 15:02:09.07	213.23	47.74	-45.3	-47.1	18.1	0.00e+00	0	41	0	956301312	60	8222
2026-01-21 15:02:10.08	213.14	47.42	-45.2	-47.0	18.6	0.00e+00	0	41	0	958398464	60	8092
2026-01-21 15:02:11.09	213.06	47.11	-44.5	-46.1	19.5	0.00e+00	0	41	0	959447040	60	7266
2026-01-21 15:02:12.10	212.98	46.79	-43.6	-44.9	20.4	0.00e+00	0	41	0	961544192	60	6371
2026-01-21 15:02:13.11	212.90	46.48	-42.9	-44.1	21.3	0.00e+00	0	41	0	963641344	60	5824
2026-01-21 15:02:14.12	212.82	46.17	-42.1	-43.2	22.0	0.00e+00	0	41	0	965738496	58	5875
2026-01-21 15:02:15.13	212.74	45.86	-42.2	-43.3	21.9	0.00e+00	0	41	0	967835648	58	5904
2026-01-21 15:02:16.14	212.67	45.55	-42.5	-43.6	21.5	0.00e+00	0	41	0	968884224	58	6150
2026-01-21 15:02:17.15	212.60	45.25	-42.7	-43.8	21.3	0.00e+00	0	41	0	970981376	58	6307
2026-01-21 15:02:18.16	212.52	44.95	-42.9	-44.1	21.0	0.00e+00	0	41	0	973078528	58	6512
2026-01-21 15:02:19.17	212.45	44.65	-43.6	-44.9	20.4	0.00e+00	0	41	0	975175680	58	7142
2026-01-21 15:02:20.18	212.38	44.35	-44.2	-45.7	19.7	0.00e+00	0	41	0	977272832	60	6943
2026-01-21 15:02:21.19	212.32	44.06	-44.6	-46.1	19.3	0.00e+00	0	41	0	978321408	60	7327
2026-01-21 15:02:22.20	212.25	43.77	-44.2	-45.7	19.8	0.00e+00	0	41	0	980418560	60	6994
2026-01-21 15:02:23.21	212.19	43.48	-44.1	-45.6	19.9	0.00e+00	0	41	0	982515712	60	6855
2026-01-21 15:02:24.21	212.12	43.19	-43.5	-44.8	20.7	0.00e+00	0	41	0	984612864	60	6287
2026-01-21 15:02:25.22	212.06	42.90	-43.1	-44.3	21.3	0.00e+00	0	41	0	986710016	60	5930
2026-01-21 15:02:26.23	212.00	42.62	-43.0	-44.2	21.3	0.00e+00	0	41	0	987758592	60	5830
2026-01-21 15:02:27.24	211.94	42.34	-43.0	-44.2	21.2	0.00e+00	0	41	0	989855744	60	5836
2026-01-21 15:02:28.25	211.88	42.06	-43.1	-44.3	21.2	0.00e+00	0	41	0	991952896	60	5931
2026-01-21 15:02:29.26	211.82	41.78	-42.9	-44.1	21.3	0.00e+00	0	41	0	994050048	60	5780
2026-01-21 15:02:30.27	211.76	41.50	-43.3	-44.5	20.9	0.00e+00	0	41	0	996147200	60	6059
2026-01-21 15:02:31.28	211.71	41.23	-43.4	-44.6	20.7	0.00e+00	0	41	0	997195776	60	6170
2026-01-21 15:02:32.29	211.65	40.96	-43.6	-44.9	20.5	0.00e+00	0	41	0	999292928	60	6384
2026-01-21 15:02:33.30	211.60	40.69	-44.0	-45.3	20.1	0.00e+00	0	41	0	1001390080	60	6690
2026-01-21 15:02:34.31	211.54	40.42	-44.2	-45.7	19.8	0.00e+00	0	41	0	1003487232	60	6960
2026-01-21 15:02:35.32	211.49	40.15	-44.2	-45.6	19.8	0.00e+00	0	41	0	1005584384	60	6912
2026-01-21 15:02:36.33	211.44	39.89	-44.2	-45.6	19.8	0.00e+00	0	41	0	1007681536	60	6908
2026-01-21 15:02:37.34	211.39	39.63	-44.1	-45.5	20.0	0.00e+00	0	41	0	1008730112	60	6800
2026-01-21 15:02:38.35	211.34	39.37	-43.9	-45.3	20.2	0.00e+00	0	41	0	1010827264	60	6635
2026-01-21 15:02:39.36	211.29	39.11	-43.6	-44.9	20.6	0.00e+00	0	41	0	1012924416	60	6341
2026-01-21 15:02:40.37	211.24	38.85	-43.5	-44.8	20.6	0.00e+00	0	41	0	1015021568	60	6263
2026-01-21 15:02:41.38	211.20	38.60	-43.2	-44.4	21.0	0.00e+00	0	41	0	1017118720	60	5998
2026-01-21 15:02:42.39	211.15	38.35	-43.1	-44.3	21.1	0.00e+00	0	41	0	1018167296	60	5947
2026-01-21 15:02:43.40	211.11	38.10	-43.2	-44.5	20.9	0.00e+00	0	41	0	1020264448	60	6047
2026-01-21 15:02:44.41	211.06	37.85	-43.4	-44.6	20.7	0.00e+00	0	41	0	1022361600	60	6160
2026-01-21 15:02:45.42	211.02	37.60	-43.5	-44.8	20.6	0.00e+00	0	41	0	1024458752	60	6294
2026-01-21 15:02:46.43	210.97	37.35	-43.3	-44.6	20.8	0.00e+00	0	41	0	1026555904	60	6147
2026-01-21 15:02:47.44	210.93	37.11	-43.1	-44.3	21.1	0.00e+00	0	41	0	1027604480	60	5947
2026-01-21 15:02:48.45	210.89	36.87	-43.0	-44.2	21.2	0.00e+00	0	41	0	1029701632	60	5833
2026-01-21 15:02:49.46	210.85	36.63	-42.8	-43.9	21.5	0.00e+00	0	41	0	1031798784	60	5695
2026-01-21 15:02:50.47	210.81	36.39	-42.6	-43.8	21.5	0.00e+00	0	41	0	1033895936	58	6267
2026-01-21 15:02:51.48	210.77	36.15	-42.5	-43.7	21.7	0.00e+00	0	41	0	1035993088	58	6176
2026-01-21 15:02:52.49	210.73	35.92	-42.5	-43.6	21.6	0.00e+00	0	41	0	1037041664	58	6138
2026-01-21 15:02:53.50	210.69	35.69	-42.4	-43.5	21.6	0.00e+00	0	41	0	1039138816	58	6100
2026-01-21 15:02:54.51	210.65	35.46	-42.4	-43.5	21.7	0.00e+00	0	41	0	1041235968	58	6101
2026-01-21 15:02:55.52	210.61	35.23	-42.2	-43.3	21.9	0.00e+00	0	41	0	1043333120	58	5941
2026-01-21 15:02:56.53	210.57	35.00	-42.2	-43.3	21.9	0.00e+00	0	41	0	1045430272	58	5938
2026-01-21 15:02:57.54	210.54	34.77	-42.1	-43.2	22.0	0.00e+00	0	41	0	1046478848	58	5865
2026-01-21 15:02:58.54	210.50	34.55	-42.2	-43.3	21.9	0.00e+00	0	41	0	1048576000	58	5942
2026-01-21 15:02:59.55	210.47	34.32	-42.1	-43.2	21.9	0.00e+00	0	41	0	1050673152	58	5871
2026-01-21 15:03:00.56	210.43	34.10	-42.2	-43.3	21.9	0.00e+00	0	41	0	1052770304	58	5913
2026-01-21 15:03:01.57	210.40	33.88	-42.0	-43.1	22.0	0.00e+00	0	41	0	1054867456	58	5769
2026-01-21 15:03:02.58	210.36	33.66	-42.1	-43.2	22.0	0.00e+00	0	41	0	1055916032	58	5838
2026-01-21 15:03:03.59	210.33	33.45	-42.1	-43.2	21.9	0.00e+00	0	41	0	1058013184	58	5873
2026-01-21 15:03:04.60	210.30	33.23	-42.5	-43.7	21.5	0.00e+00	0	41	0	1060110336	58	6179
2026-01-21 15:03:05.61	210.26	33.02	-43.0	-44.2	21.1	0.00e+00	0	41	0	1062207488	58	6550
2026-01-21 15:03:06.62	210.23	32.80	-43.2	-44.5	20.7	0.00e+00	0	41	0	1064304640	58	6820
2026-01-21 15:03:07.63	210.20	32.59	-43.7	-45.0	20.3	0.00e+00	0	41	0	1065353216	58	7237
2026-01-21 15:03:08.64	210.17	32.38	-44.0	-45.4	19.9	0.00e+00	0	41	0	1067450368	60	6767
2026-01-21 15:03:09.66	210.14	32.17	-44.0	-45.4	20.0	0.00e+00	0	41	0	1069547520	60	6746
2026-01-21 15:03:10.66	210.11	31.97	-44.0	-45.5	20.0	0.00e+00	0	41	0	1071644672	60	6782
2026-01-21 15:03:11.68	210.08	31.76	-43.9	-45.2	20.2	0.00e+00	0	41	0	1073741824	60	6615
2026-01-21 15:03:12.69	210.05	31.56	-43.7	-45.0	20.4	0.00e+00	0	41	0	1075838976	60	6462
2026-01-21 15:03:13.69	210.02	31.36	-43.4	-44.7	20.7	0.00e+00	0	41	0	1076887552	60	6213
2026-01-21 15:03:14.70	209.99	31.16	-43.2	-44.4	20.9	0.00e+00	0	41	0	1078984704	60	6030
2026-01-21 15:03:15.71	209.96	30.96	-43.2	-44.4	21.0	0.00e+00	0	41	0	1081081856	60	6001
2026-01-21 15:03:16.73	209.94	30.76	-43.2	-44.4	21.1	0.00e+00	0	41	0	1083179008	60	6013
2026-01-21 15:03:17.74	209.91	30.56	-42.9	-44.1	21.2	0.00e+00	0	41	0	1085276160	60	5763
2026-01-21 15:03:18.74	209.88	30.36	-42.7	-43.9	21.4	0.00e+00	0	41	0	1086324736	60	5677
2026-01-21 15:03:19.75	209.85	30.17	-42.6	-43.8	21.4	0.00e+00	0	41	0	1088421888	58	6256
2026-01-21 15:03:20.76	209.83	29.98	-42.6	-43.7	21.5	0.00e+00	0	41	0	1090519040	58	6238
2026-01-21 15:03:21.78	209.80	29.78	-42.4	-43.5	21.7	0.00e+00	0	41	0	1092616192	58	6089
2026-01-21 15:03:22.78	209.78	29.59	-42.5	-43.6	21.6	0.00e+00	0	41	0	1094713344	58	6121
2026-01-21 15:03:23.79	209.75	29.40	-42.6	-43.7	21.4	0.00e+00	0	41	0	1095761920	58	6227
2026-01-21 15:03:24.80	209.73	29.22	-42.6	-43.8	21.3	0.00e+00	0	41	0	1097859072	58	6266
2026-01-21 15:03:25.82	209.70	29.03	-42.9	-44.1	21.0	0.00e+00	0	41	0	1099956224	58	6482
2026-01-21 15:03:26.83	209.68	28.84	-43.1	-44.3	21.0	0.00e+00	0	41	0	1102053376	58	6653
2026-01-21 15:03:27.84	209.65	28.66	-43.2	-44.5	20.8	0.00e+00	0	41	0	1104150528	58	6770
2026-01-21 15:03:28.85	209.63	28.47	-43.1	-44.3	21.0	0.00e+00	0	41	0	1105199104	58	6654
2026-01-21 15:03:29.85	209.61	28.29	-43.3	-44.6	20.7	0.00e+00	0	41	0	1107296256	58	6867
2026-01-21 15:03:30.86	209.58	28.11	-43.2	-44.5	20.8	0.00e+00	0	41	0	1109393408	58	6791
2026-01-21 15:03:31.87	209.56	27.93	-43.0	-44.3	21.0	0.00e+00	0	41	0	1111490560	58	6647
2026-01-21 15:03:32.88	209.54	27.75	-43.1	-44.3	21.0	0.00e+00	0	41	0	1113587712	58	6676
2026-01-21 15:03:33.89	209.52	27.58	-43.1	-44.4	21.0	0.00e+00	0	41	0	1114636288	58	6707
2026-01-21 15:03:34.90	209.49	27.40	-42.9	-44.2	21.0	0.00e+00	0	41	0	1116733440	58	6554
2026-01-21 15:03:35.91	209.47	27.23	-43.0	-44.2	21.1	0.00e+00	0	41	0	1118830592	58	6579
2026-01-21 15:03:36.92	209.45	27.05	-42.9	-44.2	21.0	0.00e+00	0	41	0	1120927744	58	6541
2026-01-21 15:03:37.93	209.43	26.88	-42.9	-44.1	21.2	0.00e+00	0	41	0	1123024896	58	6509
2026-01-21 15:03:38.93	209.41	26.71	-43.0	-44.2	21.2	0.00e+00	0	41	0	1124073472	58	6602
2026-01-21 15:03:39.94	209.39	26.54	-42.8	-44.0	21.3	0.00e+00	0	41	0	1126170624	58	6400
2026-01-21 15:03:40.96	209.37	26.37	-42.2	-43.3	21.8	0.00e+00	0	41	0	1128267776	58	5956
2026-01-21 15:03:41.97	209.35	26.20	-42.3	-43.4	21.9	0.00e+00	0	41	0	1130364928	58	5988
2026-01-21 15:03:42.98	209.33	26.03	-42.2	-43.3	22.0	0.00e+00	0	41	0	1132462080	58	5897
2026-01-21 15:03:43.99	209.31	25.86	-41.9	-43.0	22.2	0.00e+00	0	41	0	1133510656	58	5735
2026-01-21 15:03:44.99	209.29	25.70	-41.9	-42.9	22.1	0.00e+00	0	41	0	1135607808	58	5691
2026-01-21 15:03:46.00	209.27	25.54	-41.8	-42.8	22.3	0.00e+00	0	41	0	1137704960	56	6290
2026-01-21 15:03:47.01	209.25	25.37	-41.9	-42.9	22.2	0.00e+00	0	41	0	1139802112	56	6378
2026-01-21 15:03:48.03	209.23	25.21	-41.8	-42.8	22.4	0.00e+00	0	41	0	1141899264	56	6295
2026-01-21 15:03:49.04	209.21	25.05	-41.8	-42.8	22.3	0.00e+00	0	41	0	1143996416	56	6296
2026-01-21 15:03:50.04	209.20	24.89	-41.8	-42.8	22.3	0.00e+00	0	41	0	1145044992	56	6274
2026-01-21 15:03:51.06	209.18	24.73	-41.8	-42.9	22.3	0.00e+00	0	41	0	1147142144	56	6330
2026-01-21 15:03:52.07	209.16	24.57	-41.8	-42.9	22.2	0.00e+00	0	41	0	1149239296	56	6343
2026-01-21 15:03:53.08	209.14	24.41	-41.8	-42.9	22.3	0.00e+00	0	41	0	1151336448	56	6323
2026-01-21 15:03:54.09	209.13	24.25	-41.8	-42.9	22.1	0.00e+00	0	41	0	1153433600	56	6323
2026-01-21 15:03:55.09	209.11	24.10	-41.8	-42.8	22.2	0.00e+00	0	41	0	1154482176	56	6285
2026-01-21 15:03:56.11	209.09	23.94	-41.8	-42.9	22.2	0.00e+00	0	41	0	1156579328	56	6322
2026-01-21 15:03:57.12	209.07	23.79	-41.8	-42.9	22.3	0.00e+00	0	41	0	1158676480	56	6348
2026-01-21 15:03:58.13	209.06	23.63	-41.8	-42.9	22.3	0.00e+00	0	41	0	1160773632	56	6324
2026-01-21 15:03:59.14	209.04	23.48	-41.8	-42.9	22.2	0.00e+00	0	41	0	1162870784	56	6340
2026-01-21 15:04:00.15	209.03	23.33	-41.9	-43.0	22.2	0.00e+00	0	41	0	1163919360	56	6397
2026-01-21 15:04:01.15	209.01	23.18	-41.9	-42.9	22.2	0.00e+00	0	41	0	1166016512	56	6387
2026-01-21 15:04:02.16	208.99	23.03	-41.8	-42.8	22.3	0.00e+00	0	41	0	1168113664	56	6317
2026-01-21 15:04:03.17	208.98	22.88	-41.7	-42.8	22.3	0.00e+00	0	41	0	1170210816	56	6248
2026-01-21 15:04:04.18	208.96	22.74	-41.7	-42.8	22.3	0.00e+00	0	41	0	1172307968	56	6266
2026-01-21 15:04:05.19	208.95	22.59	-41.7	-42.7	22.4	0.00e+00	0	41	0	1173356544	56	6226
2026-01-21 15:04:06.20	208.93	22.44	-41.8	-42.8	22.4	0.00e+00	0	41	0	1175453696	56	6290
2026-01-21 15:04:07.21	208.92	22.30	-41.7	-42.8	22.3	0.00e+00	0	41	0	1177550848	56	6272
2026-01-21 15:04:08.22	208.90	22.15	-41.8	-42.9	22.3	0.00e+00	0	41	0	1179648000	56	6321
2026-01-21 15:04:09.23	208.89	22.01	-41.8	-42.8	22.3	0.00e+00	0	41	0	1181745152	56	6309
2026-01-21 15:04:10.24	208.87	21.87	-41.6	-42.7	22.5	0.00e+00	0	41	0	1182793728	56	6183
2026-01-21 15:04:11.25	208.86	21.72	-41.9	-43.0	22.2	0.00e+00	0	41	0	1184890880	56	6433
2026-01-21 15:04:12.26	208.85	21.58	-41.8	-42.8	22.3	0.00e+00	0	41	0	1186988032	56	6296
2026-01-21 15:04:13.28	208.83	21.44	-41.9	-42.9	22.2	0.00e+00	0	41	0	1189085184	56	6375
2026-01-21 15:04:14.29	208.82	21.30	-42.0	-43.1	22.1	0.00e+00	0	41	0	1191182336	56	6469
2026-01-21 15:04:15.30	208.80	21.16	-41.9	-43.0	22.1	0.00e+00	0	41	0	1192230912	56	6460
2026-01-21 15:04:16.31	208.79	21.02	-42.0	-43.1	21.9	0.00e+00	0	41	0	1194328064	56	6536
2026-01-21 15:04:17.32	208.78	20.89	-42.2	-43.4	21.8	0.00e+00	0	41	0	1196425216	56	6697
2026-01-21 15:04:18.33	208.76	20.75	-42.2	-43.3	21.8	0.00e+00	0	41	0	1198522368	56	6686
2026-01-21 15:04:19.34	208.75	20.61	-42.2	-43.3	21.8	0.00e+00	0	41	0	1200619520	56	6683
2026-01-21 15:04:20.35	208.74	20.48	-42.4	-43.5	21.6	0.00e+00	0	41	0	1201668096	56	6827
2026-01-21 15:04:21.36	208.72	20.34	-42.4	-43.5	21.6	0.00e+00	0	41	0	1203765248	56	6836
2026-01-21 15:04:22.36	208.71	20.21	-42.5	-43.7	21.4	0.00e+00	0	41	0	1205862400	56	6964
2026-01-21 15:04:23.37	208.70	20.08	-42.5	-43.7	21.5	0.00e+00	0	41	0	1207959552	56	6948
2026-01-21 15:04:24.38	208.69	19.95	-42.6	-43.7	21.4	0.00e+00	0	41	0	1210056704	56	6977
2026-01-21 15:04:25.39	208.68	19.81	-42.4	-43.5	21.5	0.00e+00	0	41	0	1212153856	56	6831
