passes_logs/2026/01/21/R4.6S_Anadyr/R4.6S_Anadyr__20260121_131218_NOAA_20_JPSS-1_rec.log

#Pass ID: 20260121_131218_NOAA 20 (JPSS-1)
#Satellite: NOAA 20 (JPSS-1)
#Configuration: NOAA 20
#almurnet v.1.7.20251203
#Start time: 2026-01-21 13:12:20

#Version: 2.2.20231116
#Station: R4.6S_Anadyr
#Location: 177.4865 lon 64.73178 lat
#TLE: 1 43013U 17073A   26020.82785136  .00000155  00000+0  94366-4 0  9991
#TLE: 2 43013  98.7643 321.7058 0001260  30.3785 329.7464 14.19537992423566

#Time	Az	El	Level	Level2	SNR	BER	BlckErr	Temp	State	Recorded	gain1	gain2
2026-01-21 13:12:20.43	18.82	0.12	-51.8	-66.8	3.5	1.51e+00	0	39	0	0	60	78786
2026-01-21 13:12:21.44	18.87	0.17	-52.2	-67.4	3.6	1.51e+00	0	40	104	0	60	84886
2026-01-21 13:12:22.45	18.92	0.23	-52.3	-67.4	3.6	1.51e+00	0	40	104	0	60	85131
2026-01-21 13:12:23.46	18.97	0.28	-52.3	-67.5	3.6	1.51e+00	0	40	104	0	60	86083
2026-01-21 13:12:24.47	19.03	0.34	-52.6	-67.8	3.6	1.51e+00	0	40	104	0	60	88574
2026-01-21 13:12:25.48	19.08	0.40	-52.2	-67.5	3.6	1.51e+00	0	40	104	0	60	85449
2026-01-21 13:12:26.49	19.13	0.45	-51.9	-67.2	3.6	1.51e+00	0	40	104	0	60	82653
2026-01-21 13:12:27.50	19.18	0.51	-51.7	-66.9	3.6	1.51e+00	0	40	104	0	60	80406
2026-01-21 13:12:28.51	19.23	0.57	-51.6	-66.8	3.6	1.51e+00	0	40	104	0	60	78942
2026-01-21 13:12:29.52	19.28	0.62	-51.5	-66.8	3.6	1.51e+00	0	40	104	0	60	78676
2026-01-21 13:12:30.53	19.33	0.68	-51.7	-66.9	3.6	1.51e+00	0	40	104	0	60	80233
2026-01-21 13:12:31.54	19.39	0.73	-51.6	-66.9	3.5	1.51e+00	0	40	104	0	60	79690
2026-01-21 13:12:32.55	19.44	0.79	-51.6	-66.8	3.6	1.51e+00	0	40	104	0	60	79465
2026-01-21 13:12:33.56	19.49	0.85	-51.5	-66.6	3.6	1.51e+00	0	40	104	0	60	77566
2026-01-21 13:12:34.57	19.54	0.90	-51.3	-66.5	3.6	1.51e+00	0	40	104	0	60	76573
2026-01-21 13:12:35.58	19.60	0.96	-51.1	-66.3	3.6	1.51e+00	0	40	104	0	60	74483
2026-01-21 13:12:36.59	19.65	1.02	-51.0	-66.2	3.6	1.51e+00	0	40	104	0	60	74110
2026-01-21 13:12:37.60	19.70	1.08	-50.9	-66.2	3.5	1.51e+00	0	41	104	0	60	73828
2026-01-21 13:12:38.61	19.75	1.13	-50.7	-65.9	3.6	1.51e+00	0	41	104	0	60	71617
2026-01-21 13:12:39.62	19.81	1.19	-50.6	-65.8	3.6	1.51e+00	0	41	104	0	60	70551
2026-01-21 13:12:40.63	19.86	1.25	-50.4	-65.7	3.6	1.51e+00	0	41	104	0	60	69444
2026-01-21 13:12:41.64	19.92	1.31	-50.3	-65.5	3.6	1.51e+00	0	41	104	0	60	68277
2026-01-21 13:12:42.65	19.97	1.36	-50.2	-65.4	3.6	1.51e+00	0	40	104	0	60	67030
2026-01-21 13:12:43.66	20.02	1.42	-50.0	-65.2	3.6	1.51e+00	0	41	104	0	60	65778
2026-01-21 13:12:44.68	20.08	1.48	-49.7	-64.9	3.6	1.51e+00	0	41	104	0	60	63450
2026-01-21 13:12:45.69	20.13	1.54	-49.6	-64.8	3.6	1.51e+00	0	41	104	0	60	62506
2026-01-21 13:12:46.70	20.19	1.60	-49.6	-64.8	3.6	1.51e+00	0	41	104	0	60	62566
2026-01-21 13:12:47.70	20.24	1.65	-49.6	-64.8	3.6	1.51e+00	0	41	104	0	60	62610
2026-01-21 13:12:48.72	20.30	1.71	-49.6	-64.8	3.6	1.51e+00	0	41	104	0	60	62622
2026-01-21 13:12:49.73	20.35	1.77	-49.6	-64.7	3.5	1.51e+00	0	41	104	0	60	62445
2026-01-21 13:12:50.74	20.41	1.83	-49.6	-64.7	3.5	1.51e+00	0	41	104	0	60	62196
2026-01-21 13:12:51.75	20.46	1.89	-49.5	-64.7	3.6	1.51e+00	0	41	104	0	60	61986
2026-01-21 13:12:52.76	20.52	1.95	-49.5	-64.7	3.6	1.51e+00	0	41	104	0	60	62364
2026-01-21 13:12:53.77	20.58	2.00	-49.5	-64.7	3.6	1.51e+00	0	41	104	0	60	62429
2026-01-21 13:12:54.78	20.63	2.06	-49.5	-64.8	3.6	1.51e+00	0	41	104	0	60	62495
2026-01-21 13:12:55.79	20.69	2.12	-49.5	-64.7	3.6	1.51e+00	0	41	104	0	60	61991
2026-01-21 13:12:56.80	20.75	2.18	-49.5	-64.6	3.6	1.51e+00	0	41	104	0	60	61343
2026-01-21 13:12:57.81	20.80	2.24	-49.5	-64.5	3.6	1.51e+00	0	41	104	0	60	60521
2026-01-21 13:12:58.82	20.86	2.30	-49.5	-64.2	3.6	1.51e+00	0	41	104	0	60	58865
2026-01-21 13:12:59.83	20.92	2.36	-49.5	-63.9	3.6	1.51e+00	0	41	104	0	60	56375
2026-01-21 13:13:00.84	20.97	2.42	-49.5	-64.0	3.6	1.51e+00	0	41	104	0	60	57432
2026-01-21 13:13:01.85	21.03	2.48	-49.5	-64.5	3.6	1.51e+00	0	41	104	0	60	60439
2026-01-21 13:13:02.86	21.09	2.54	-49.5	-64.6	3.6	1.51e+00	0	41	104	0	60	61607
2026-01-21 13:13:03.87	21.15	2.60	-49.5	-63.7	3.6	1.51e+00	0	41	104	0	60	55079
2026-01-21 13:13:04.88	21.21	2.66	-49.2	-59.8	4.7	1.45e+00	0	41	104	0	60	35289
2026-01-21 13:13:05.89	21.27	2.72	-48.6	-55.1	7.8	1.40e-01	0	41	0	1048576	60	20453
2026-01-21 13:13:06.90	21.32	2.78	-48.1	-53.5	10.1	2.66e-02	0	41	0	3145728	60	17164
2026-01-21 13:13:07.91	21.38	2.84	-47.8	-52.6	10.6	1.04e-04	0	41	0	5242880	60	15381
2026-01-21 13:13:08.92	21.44	2.90	-45.8	-48.5	15.5	4.78e-04	0	41	0	7340032	60	9564
2026-01-21 13:13:09.93	21.50	2.96	-46.1	-49.1	14.6	0.00e+00	0	41	0	8388608	60	10344
2026-01-21 13:13:10.94	21.56	3.02	-45.4	-48.0	15.7	0.00e+00	0	41	0	10485760	60	9065
2026-01-21 13:13:11.95	21.62	3.08	-45.8	-48.5	15.1	0.00e+00	0	41	0	12582912	60	9604
2026-01-21 13:13:12.96	21.68	3.14	-46.2	-49.2	14.3	0.00e+00	0	41	0	14680064	60	10422
2026-01-21 13:13:13.97	21.74	3.20	-46.6	-49.9	13.6	1.14e-05	0	41	0	16777216	60	11324
2026-01-21 13:13:14.98	21.80	3.26	-47.0	-50.7	12.9	6.10e-06	0	41	0	17825792	60	12375
2026-01-21 13:13:15.99	21.86	3.32	-47.9	-52.9	10.3	1.30e-03	0	41	0	19922944	60	15975
2026-01-21 13:13:17.01	21.93	3.38	-48.8	-56.1	6.5	3.79e-02	0	41	0	22020096	60	22962
2026-01-21 13:13:18.01	21.99	3.44	-49.2	-58.5	4.4	3.30e-01	0	41	0	24117248	60	30423
2026-01-21 13:13:19.03	22.05	3.51	-45.1	-47.4	16.5	1.48e-02	0	41	0	26214400	60	8434
2026-01-21 13:13:20.04	22.11	3.57	-49.4	-64.5	3.6	5.98e-01	0	41	104	27262976	60	60825
2026-01-21 13:13:21.05	22.17	3.63	-49.7	-64.9	3.6	1.46e+00	0	41	104	27262976	60	63361
2026-01-21 13:13:22.06	22.24	3.69	-48.1	-53.3	10.7	6.15e-01	0	41	104	27262976	60	16799
2026-01-21 13:13:23.07	22.30	3.75	-49.5	-63.6	3.6	1.42e+00	0	41	104	27262976	60	54968
2026-01-21 13:13:24.08	22.36	3.82	-48.6	-55.0	8.2	1.38e+00	0	41	104	27262976	60	20266
2026-01-21 13:13:25.09	22.42	3.88	-48.6	-54.7	8.7	5.15e-02	0	41	0	28311552	60	19648
2026-01-21 13:13:26.10	22.49	3.94	-48.3	-53.5	10.0	1.71e-02	0	41	0	29360128	60	17181
2026-01-21 13:13:27.11	22.55	4.00	-47.6	-51.8	11.9	5.91e-04	0	41	0	31457280	60	14073
2026-01-21 13:13:28.12	22.62	4.06	-46.9	-50.2	13.6	1.26e-03	0	41	0	33554432	60	11764
2026-01-21 13:13:29.13	22.68	4.13	-47.6	-51.6	12.1	1.30e-04	0	41	0	35651584	60	13744
2026-01-21 13:13:30.14	22.74	4.19	-47.0	-50.4	13.6	7.70e-05	0	41	0	37748736	60	11945
2026-01-21 13:13:31.15	22.81	4.25	-47.1	-50.6	13.4	1.37e-05	0	41	0	38797312	60	12257
2026-01-21 13:13:32.16	22.87	4.32	-46.5	-49.5	14.3	3.80e-06	0	41	0	40894464	60	10842
2026-01-21 13:13:33.17	22.94	4.38	-46.5	-49.5	14.6	1.50e-06	0	41	0	42991616	60	10778
2026-01-21 13:13:34.18	23.00	4.44	-46.4	-49.2	14.9	0.00e+00	0	41	0	45088768	60	10406
2026-01-21 13:13:35.19	23.07	4.50	-45.9	-48.4	15.7	7.00e-07	0	41	0	47185920	60	9558
2026-01-21 13:13:36.20	23.13	4.57	-45.8	-48.3	15.6	0.00e+00	0	41	0	48234496	60	9444
2026-01-21 13:13:37.21	23.20	4.63	-45.3	-47.5	17.1	0.00e+00	0	41	0	50331648	60	8598
2026-01-21 13:13:38.22	23.27	4.69	-45.5	-47.9	16.2	0.00e+00	0	41	0	52428800	60	8932
2026-01-21 13:13:39.23	23.33	4.76	-45.6	-48.0	16.6	0.00e+00	0	41	0	54525952	60	9069
2026-01-21 13:13:40.24	23.40	4.82	-45.3	-47.5	17.1	0.00e+00	0	41	0	56623104	60	8579
2026-01-21 13:13:41.25	23.47	4.89	-44.8	-46.8	17.4	0.00e+00	0	41	0	58720256	60	7953
2026-01-21 13:13:42.26	23.54	4.95	-44.8	-46.8	17.4	0.00e+00	0	41	0	59768832	60	7893
2026-01-21 13:13:43.27	23.60	5.01	-44.3	-46.2	18.1	0.00e+00	0	41	0	61865984	60	7344
2026-01-21 13:13:44.28	23.67	5.08	-45.2	-47.4	17.0	0.00e+00	0	41	0	63963136	60	8425
2026-01-21 13:13:45.29	23.74	5.14	-44.4	-46.3	18.1	0.00e+00	0	41	0	66060288	60	7434
2026-01-21 13:13:46.30	23.81	5.21	-44.0	-45.6	18.7	0.00e+00	0	41	0	68157440	60	6915
2026-01-21 13:13:47.31	23.88	5.27	-44.2	-46.0	18.2	0.00e+00	0	41	0	69206016	60	7196
2026-01-21 13:13:48.32	23.95	5.34	-44.2	-46.0	18.1	0.00e+00	0	41	0	71303168	60	7217
2026-01-21 13:13:49.33	24.02	5.40	-43.8	-45.4	19.0	0.00e+00	0	41	0	73400320	60	6764
2026-01-21 13:13:50.34	24.09	5.47	-44.0	-45.7	18.7	0.00e+00	0	41	0	75497472	60	6955
2026-01-21 13:13:51.35	24.16	5.53	-43.9	-45.5	19.0	0.00e+00	0	41	0	77594624	60	6790
2026-01-21 13:13:52.36	24.23	5.60	-43.5	-45.0	19.1	0.00e+00	0	41	0	78643200	60	6457
2026-01-21 13:13:53.37	24.30	5.66	-43.6	-45.2	19.2	0.00e+00	0	41	0	80740352	60	6579
2026-01-21 13:13:54.38	24.37	5.73	-43.7	-45.2	19.0	0.00e+00	0	41	0	82837504	60	6598
2026-01-21 13:13:55.39	24.44	5.80	-43.1	-44.6	19.8	0.00e+00	0	41	0	84934656	60	6128
2026-01-21 13:13:56.40	24.51	5.86	-43.8	-45.4	19.0	0.00e+00	0	41	0	87031808	60	6698
2026-01-21 13:13:57.41	24.58	5.93	-42.6	-44.0	20.3	0.00e+00	0	41	0	88080384	58	6403
2026-01-21 13:13:58.42	24.65	5.99	-43.1	-44.5	19.7	0.00e+00	0	41	0	90177536	58	6830
2026-01-21 13:13:59.43	24.73	6.06	-43.0	-44.4	19.8	0.00e+00	0	41	0	92274688	58	6699
2026-01-21 13:14:00.44	24.80	6.13	-43.0	-44.3	20.1	0.00e+00	0	41	0	94371840	58	6683
2026-01-21 13:14:01.45	24.87	6.19	-43.5	-45.0	19.2	0.00e+00	0	41	0	96468992	58	7212
2026-01-21 13:14:02.46	24.95	6.26	-43.7	-45.3	19.3	0.00e+00	0	41	0	97517568	60	6659
2026-01-21 13:14:03.47	25.02	6.33	-43.6	-45.1	19.3	0.00e+00	0	41	0	99614720	60	6490
2026-01-21 13:14:04.48	25.09	6.39	-43.5	-45.0	19.5	0.00e+00	0	41	0	101711872	60	6399
2026-01-21 13:14:05.49	25.17	6.46	-43.3	-44.8	19.6	0.00e+00	0	41	0	103809024	60	6278
2026-01-21 13:14:06.50	25.24	6.53	-43.6	-45.1	19.3	0.00e+00	0	41	0	105906176	60	6496
2026-01-21 13:14:07.51	25.32	6.60	-43.1	-44.5	19.9	0.00e+00	0	41	0	106954752	60	6100
2026-01-21 13:14:08.52	25.39	6.66	-42.6	-44.0	20.2	0.00e+00	0	41	0	109051904	58	6397
2026-01-21 13:14:09.53	25.47	6.73	-43.1	-44.5	20.0	0.00e+00	0	41	0	111149056	58	6772
2026-01-21 13:14:10.54	25.54	6.80	-42.8	-44.1	20.2	0.00e+00	0	41	0	113246208	58	6497
2026-01-21 13:14:11.55	25.62	6.87	-42.8	-44.2	20.1	0.00e+00	0	41	0	115343360	58	6565
2026-01-21 13:14:12.56	25.70	6.93	-42.5	-43.8	20.5	0.00e+00	0	41	0	116391936	58	6289
2026-01-21 13:14:13.57	25.77	7.00	-42.3	-43.5	20.7	0.00e+00	0	41	0	118489088	58	6095
2026-01-21 13:14:14.57	25.85	7.07	-42.5	-43.7	20.6	0.00e+00	0	41	0	120586240	58	6244
2026-01-21 13:14:15.58	25.93	7.14	-42.3	-43.5	20.7	0.00e+00	0	41	0	122683392	58	6088
2026-01-21 13:14:16.59	26.01	7.21	-42.5	-43.7	20.7	0.00e+00	0	41	0	124780544	58	6226
2026-01-21 13:14:17.60	26.08	7.28	-43.2	-44.6	19.6	0.00e+00	0	41	0	126877696	58	6897
2026-01-21 13:14:18.61	26.16	7.34	-42.8	-44.2	20.3	0.00e+00	0	41	0	127926272	58	6547
2026-01-21 13:14:19.62	26.24	7.41	-42.4	-43.7	20.7	0.00e+00	0	41	0	130023424	58	6222
2026-01-21 13:14:20.63	26.32	7.48	-42.6	-43.8	20.6	0.00e+00	0	41	0	132120576	58	6317
2026-01-21 13:14:21.64	26.40	7.55	-42.7	-44.0	20.5	0.00e+00	0	41	0	134217728	58	6444
2026-01-21 13:14:22.65	26.48	7.62	-43.0	-44.4	20.1	0.00e+00	0	41	0	136314880	58	6712
2026-01-21 13:14:23.66	26.56	7.69	-43.0	-44.4	20.1	0.00e+00	0	41	0	137363456	58	6745
2026-01-21 13:14:24.67	26.64	7.76	-42.6	-43.9	20.6	0.00e+00	0	41	0	139460608	58	6341
2026-01-21 13:14:25.68	26.72	7.83	-42.4	-43.6	20.8	0.00e+00	0	41	0	141557760	58	6168
2026-01-21 13:14:26.68	26.80	7.90	-42.4	-43.7	20.8	0.00e+00	0	41	0	143654912	58	6174
2026-01-21 13:14:27.69	26.88	7.97	-42.5	-43.8	20.8	0.00e+00	0	41	0	144703488	58	6257
2026-01-21 13:14:28.70	26.97	8.04	-42.6	-43.9	20.7	0.00e+00	0	41	0	146800640	58	6363
2026-01-21 13:14:29.71	27.05	8.11	-42.2	-43.4	21.0	0.00e+00	0	41	0	148897792	58	6029
2026-01-21 13:14:30.72	27.13	8.18	-42.3	-43.6	20.8	0.00e+00	0	41	0	150994944	58	6114
2026-01-21 13:14:31.73	27.22	8.25	-42.4	-43.6	21.0	0.00e+00	0	41	0	153092096	58	6137
2026-01-21 13:14:32.74	27.30	8.32	-42.3	-43.5	21.1	0.00e+00	0	41	0	155189248	58	6062
2026-01-21 13:14:33.75	27.38	8.40	-42.3	-43.6	21.0	0.00e+00	0	41	0	156237824	58	6108
2026-01-21 13:14:34.76	27.47	8.47	-42.3	-43.5	21.1	0.00e+00	0	41	0	158334976	58	6064
2026-01-21 13:14:35.77	27.55	8.54	-42.2	-43.4	21.2	0.00e+00	0	41	0	160432128	58	6019
2026-01-21 13:14:36.78	27.64	8.61	-42.2	-43.4	21.2	0.00e+00	0	41	0	162529280	58	5995
2026-01-21 13:14:37.79	27.72	8.68	-42.1	-43.3	21.4	0.00e+00	0	41	0	164626432	58	5921
2026-01-21 13:14:38.80	27.81	8.75	-42.6	-43.9	21.0	0.00e+00	0	41	0	165675008	58	6335
2026-01-21 13:14:39.81	27.90	8.83	-42.1	-43.3	21.4	0.00e+00	0	41	0	167772160	58	5902
2026-01-21 13:14:40.82	27.98	8.90	-42.2	-43.4	21.1	0.00e+00	0	41	0	169869312	58	6011
2026-01-21 13:14:41.83	28.07	8.97	-42.1	-43.3	21.3	0.00e+00	0	41	0	171966464	58	5926
2026-01-21 13:14:42.84	28.16	9.04	-42.2	-43.3	21.2	0.00e+00	0	41	0	174063616	58	5958
2026-01-21 13:14:43.85	28.25	9.12	-42.2	-43.4	21.3	0.00e+00	0	41	0	175112192	58	6026
2026-01-21 13:14:44.86	28.34	9.19	-42.3	-43.5	21.0	0.00e+00	0	41	0	177209344	58	6077
2026-01-21 13:14:45.87	28.42	9.26	-42.3	-43.5	20.8	0.00e+00	0	41	0	179306496	58	6099
2026-01-21 13:14:46.88	28.51	9.33	-42.3	-43.5	21.0	0.00e+00	0	41	0	181403648	58	6071
2026-01-21 13:14:47.88	28.60	9.41	-42.1	-43.2	21.4	0.00e+00	0	41	0	183500800	58	5894
2026-01-21 13:14:48.89	28.69	9.48	-41.9	-43.0	21.6	0.00e+00	0	41	0	184549376	58	5723
2026-01-21 13:14:49.90	28.78	9.55	-41.9	-43.0	21.6	0.00e+00	0	41	0	186646528	58	5731
2026-01-21 13:14:50.91	28.87	9.63	-42.0	-43.2	21.4	0.00e+00	0	41	0	188743680	58	5843
2026-01-21 13:14:51.92	28.97	9.70	-42.0	-43.2	21.4	0.00e+00	0	41	0	190840832	58	5837
2026-01-21 13:14:52.93	29.06	9.78	-42.0	-43.2	21.4	0.00e+00	0	41	0	192937984	58	5863
2026-01-21 13:14:53.94	29.15	9.85	-42.0	-43.2	21.4	0.00e+00	0	41	0	193986560	58	5835
2026-01-21 13:14:54.95	29.24	9.92	-42.0	-43.2	21.3	0.00e+00	0	41	0	196083712	58	5874
2026-01-21 13:14:55.96	29.34	10.00	-42.1	-43.2	21.4	0.00e+00	0	41	0	198180864	58	5877
2026-01-21 13:14:56.97	29.43	10.07	-42.0	-43.1	21.6	0.00e+00	0	41	0	200278016	58	5792
2026-01-21 13:14:57.98	29.52	10.15	-42.0	-43.1	21.5	0.00e+00	0	41	0	202375168	58	5806
2026-01-21 13:14:58.99	29.62	10.22	-41.8	-42.9	21.7	0.00e+00	0	41	0	203423744	56	6384
2026-01-21 13:15:00.00	29.71	10.30	-41.6	-42.7	21.9	0.00e+00	0	41	0	205520896	56	6208
2026-01-21 13:15:01.01	29.81	10.37	-41.6	-42.7	21.9	0.00e+00	0	41	0	207618048	56	6181
2026-01-21 13:15:02.02	29.91	10.45	-41.6	-42.7	21.9	0.00e+00	0	41	0	209715200	56	6208
2026-01-21 13:15:03.03	30.00	10.53	-41.7	-42.8	21.9	0.00e+00	0	41	0	211812352	56	6255
2026-01-21 13:15:04.04	30.10	10.60	-41.8	-42.9	21.6	0.00e+00	0	41	0	212860928	56	6354
2026-01-21 13:15:05.05	30.20	10.68	-41.6	-42.6	21.9	0.00e+00	0	41	0	214958080	56	6159
2026-01-21 13:15:06.06	30.30	10.75	-41.7	-42.8	21.7	0.00e+00	0	41	0	217055232	56	6283
2026-01-21 13:15:07.07	30.39	10.83	-41.6	-42.7	21.9	0.00e+00	0	41	0	219152384	56	6226
2026-01-21 13:15:08.08	30.49	10.91	-41.8	-42.9	21.8	0.00e+00	0	41	0	221249536	56	6332
2026-01-21 13:15:09.09	30.59	10.98	-41.5	-42.5	22.1	0.00e+00	0	41	0	223346688	56	6096
2026-01-21 13:15:10.10	30.69	11.06	-41.7	-42.8	21.9	0.00e+00	0	41	0	224395264	56	6254
2026-01-21 13:15:11.11	30.79	11.14	-41.4	-42.4	22.3	0.00e+00	0	41	0	226492416	56	6022
2026-01-21 13:15:12.11	30.89	11.21	-41.4	-42.4	22.2	0.00e+00	0	41	0	228589568	56	6033
2026-01-21 13:15:13.12	30.99	11.29	-41.4	-42.4	22.2	0.00e+00	0	41	0	230686720	56	6032
2026-01-21 13:15:14.13	31.10	11.37	-41.3	-42.4	22.3	0.00e+00	0	41	0	232783872	56	5979
2026-01-21 13:15:15.14	31.20	11.45	-41.4	-42.4	22.2	0.00e+00	0	41	0	233832448	56	6003
2026-01-21 13:15:16.15	31.30	11.53	-41.3	-42.4	22.2	0.00e+00	0	41	0	235929600	56	5965
2026-01-21 13:15:17.16	31.40	11.60	-41.3	-42.3	22.4	0.00e+00	0	41	0	238026752	56	5928
2026-01-21 13:15:18.17	31.51	11.68	-41.4	-42.4	22.2	0.00e+00	0	41	0	240123904	56	6019
2026-01-21 13:15:19.18	31.61	11.76	-41.4	-42.4	22.3	0.00e+00	0	41	0	242221056	56	6000
2026-01-21 13:15:20.19	31.72	11.84	-41.4	-42.4	22.2	0.00e+00	0	41	0	243269632	56	6011
2026-01-21 13:15:21.20	31.82	11.92	-41.4	-42.4	22.2	0.00e+00	0	41	0	245366784	56	6026
2026-01-21 13:15:22.21	31.93	12.00	-41.4	-42.5	22.3	0.00e+00	0	41	0	247463936	56	6048
2026-01-21 13:15:23.22	32.04	12.08	-41.5	-42.6	22.0	0.00e+00	0	41	0	249561088	56	6141
2026-01-21 13:15:24.23	32.14	12.15	-41.5	-42.6	22.1	0.00e+00	0	42	0	251658240	56	6106
2026-01-21 13:15:25.24	32.25	12.23	-41.5	-42.6	22.2	0.00e+00	0	42	0	252706816	56	6105
2026-01-21 13:15:26.25	32.36	12.31	-41.7	-42.8	22.0	0.00e+00	0	42	0	254803968	56	6303
2026-01-21 13:15:27.26	32.47	12.39	-41.7	-42.8	21.9	0.00e+00	0	41	0	256901120	56	6252
2026-01-21 13:15:28.27	32.58	12.47	-41.7	-42.8	21.9	0.00e+00	0	42	0	258998272	56	6283
2026-01-21 13:15:29.27	32.69	12.55	-41.7	-42.8	22.0	0.00e+00	0	42	0	261095424	56	6263
2026-01-21 13:15:30.28	32.80	12.63	-41.7	-42.8	21.9	0.00e+00	0	41	0	262144000	56	6284
2026-01-21 13:15:31.29	32.91	12.71	-41.7	-42.7	22.0	0.00e+00	0	41	0	264241152	56	6226
2026-01-21 13:15:32.30	33.02	12.79	-42.0	-43.1	21.7	0.00e+00	0	41	0	266338304	56	6483
2026-01-21 13:15:33.31	33.13	12.88	-41.7	-42.8	22.0	0.00e+00	0	41	0	268435456	56	6264
2026-01-21 13:15:34.32	33.25	12.96	-41.8	-42.9	21.7	0.00e+00	0	41	0	270532608	56	6342
2026-01-21 13:15:35.33	33.36	13.04	-41.6	-42.7	22.1	0.00e+00	0	41	0	271581184	56	6210
2026-01-21 13:15:36.34	33.48	13.12	-41.6	-42.6	22.1	0.00e+00	0	41	0	273678336	56	6172
2026-01-21 13:15:37.35	33.59	13.20	-42.0	-43.1	22.0	0.00e+00	0	41	0	275775488	56	6524
2026-01-21 13:15:38.36	33.71	13.28	-41.9	-43.0	21.8	0.00e+00	0	41	0	277872640	56	6437
2026-01-21 13:15:39.37	33.82	13.36	-41.8	-42.8	22.0	0.00e+00	0	41	0	279969792	56	6307
2026-01-21 13:15:40.38	33.94	13.45	-42.0	-43.1	21.6	0.00e+00	0	41	0	281018368	56	6490
2026-01-21 13:15:41.39	34.06	13.53	-42.5	-43.7	21.4	0.00e+00	0	41	0	283115520	56	6965
2026-01-21 13:15:42.40	34.17	13.61	-42.2	-43.3	21.3	0.00e+00	0	41	0	285212672	56	6684
2026-01-21 13:15:43.41	34.29	13.69	-42.3	-43.4	21.3	0.00e+00	0	41	0	287309824	56	6736
2026-01-21 13:15:44.42	34.41	13.78	-41.9	-43.1	21.7	0.00e+00	0	41	0	289406976	56	6472
2026-01-21 13:15:45.43	34.53	13.86	-42.1	-43.3	21.5	0.00e+00	0	41	0	291504128	56	6624
2026-01-21 13:15:46.44	34.65	13.94	-41.7	-42.8	22.0	0.00e+00	0	41	0	292552704	56	6304
2026-01-21 13:15:47.46	34.77	14.03	-41.7	-42.8	21.9	0.00e+00	0	42	0	294649856	56	6297
2026-01-21 13:15:48.46	34.89	14.11	-42.0	-43.0	21.7	0.00e+00	0	41	0	296747008	56	6463
2026-01-21 13:15:49.47	35.02	14.19	-41.7	-42.8	22.0	0.00e+00	0	41	0	298844160	56	6268
2026-01-21 13:15:50.48	35.14	14.28	-42.0	-43.1	21.8	0.00e+00	0	41	0	300941312	56	6518
2026-01-21 13:15:51.49	35.26	14.36	-41.7	-42.8	22.1	0.00e+00	0	41	0	301989888	56	6261
2026-01-21 13:15:52.50	35.39	14.44	-41.9	-43.0	21.9	0.00e+00	0	41	0	304087040	56	6414
2026-01-21 13:15:53.51	35.51	14.53	-41.6	-42.6	22.1	0.00e+00	0	42	0	306184192	56	6162
2026-01-21 13:15:54.52	35.64	14.61	-41.7	-42.7	22.0	0.00e+00	0	42	0	308281344	56	6224
2026-01-21 13:15:55.53	35.77	14.70	-41.6	-42.6	22.2	0.00e+00	0	42	0	310378496	56	6173
2026-01-21 13:15:56.54	35.89	14.78	-41.6	-42.6	22.2	0.00e+00	0	41	0	311427072	56	6171
2026-01-21 13:15:57.55	36.02	14.87	-41.6	-42.7	22.1	0.00e+00	0	41	0	313524224	56	6211
2026-01-21 13:15:58.56	36.15	14.95	-41.8	-42.9	21.9	0.00e+00	0	42	0	315621376	56	6320
2026-01-21 13:15:59.57	36.28	15.04	-41.7	-42.8	21.9	0.00e+00	0	41	0	317718528	56	6292
2026-01-21 13:16:00.58	36.41	15.12	-41.7	-42.8	22.0	0.00e+00	0	41	0	319815680	56	6267
2026-01-21 13:16:01.59	36.54	15.21	-41.9	-43.0	21.9	0.00e+00	0	42	0	320864256	56	6407
2026-01-21 13:16:02.60	36.67	15.29	-41.7	-42.8	22.0	0.00e+00	0	41	0	322961408	56	6279
2026-01-21 13:16:03.61	36.80	15.38	-41.7	-42.8	22.0	0.00e+00	0	41	0	325058560	56	6267
2026-01-21 13:16:04.62	36.94	15.47	-41.8	-42.8	22.0	0.00e+00	0	42	0	327155712	56	6309
2026-01-21 13:16:05.63	37.07	15.55	-41.6	-42.6	22.2	0.00e+00	0	41	0	329252864	56	6159
2026-01-21 13:16:06.64	37.20	15.64	-41.5	-42.6	22.2	0.00e+00	0	41	0	330301440	56	6135
2026-01-21 13:16:07.65	37.34	15.73	-41.8	-42.8	22.2	0.00e+00	0	42	0	332398592	56	6311
2026-01-21 13:16:08.66	37.47	15.81	-41.6	-42.7	22.1	0.00e+00	0	42	0	334495744	56	6190
2026-01-21 13:16:09.67	37.61	15.90	-41.4	-42.4	22.4	0.00e+00	0	42	0	336592896	56	5996
2026-01-21 13:16:10.68	37.75	15.99	-41.6	-42.6	22.2	0.00e+00	0	42	0	338690048	56	6145
2026-01-21 13:16:11.69	37.89	16.07	-41.4	-42.4	22.1	0.00e+00	0	42	0	340787200	56	6029
2026-01-21 13:16:12.70	38.03	16.16	-41.6	-42.6	22.2	0.00e+00	0	42	0	341835776	56	6157
2026-01-21 13:16:13.71	38.17	16.25	-41.4	-42.5	22.3	0.00e+00	0	42	0	343932928	56	6043
2026-01-21 13:16:14.72	38.31	16.34	-41.6	-42.6	22.3	0.00e+00	0	41	0	346030080	56	6142
2026-01-21 13:16:15.73	38.45	16.42	-41.6	-42.7	22.2	0.00e+00	0	42	0	348127232	56	6187
2026-01-21 13:16:16.74	38.59	16.51	-41.6	-42.7	22.3	0.00e+00	0	42	0	349175808	56	6184
2026-01-21 13:16:17.75	38.73	16.60	-41.7	-42.7	22.1	0.00e+00	0	42	0	351272960	56	6228
2026-01-21 13:16:18.76	38.88	16.69	-41.7	-42.8	22.0	0.00e+00	0	42	0	353370112	56	6278
2026-01-21 13:16:19.77	39.02	16.78	-41.7	-42.8	22.1	0.00e+00	0	42	0	355467264	56	6275
2026-01-21 13:16:20.78	39.17	16.87	-41.6	-42.6	22.3	0.00e+00	0	42	0	357564416	56	6137
2026-01-21 13:16:21.79	39.31	16.95	-41.6	-42.7	22.2	0.00e+00	0	42	0	359661568	56	6181
2026-01-21 13:16:22.80	39.46	17.04	-41.4	-42.5	22.4	0.00e+00	0	42	0	360710144	56	6052
2026-01-21 13:16:23.81	39.61	17.13	-41.5	-42.6	22.4	0.00e+00	0	41	0	362807296	56	6114
2026-01-21 13:16:24.82	39.76	17.22	-41.4	-42.4	22.4	0.00e+00	0	42	0	364904448	56	5996
2026-01-21 13:16:25.83	39.91	17.31	-41.2	-42.2	22.6	0.00e+00	0	42	0	367001600	56	5842
2026-01-21 13:16:26.84	40.06	17.40	-41.3	-42.3	22.5	0.00e+00	0	42	0	369098752	56	5936
2026-01-21 13:16:27.85	40.21	17.49	-41.3	-42.3	22.6	0.00e+00	0	42	0	370147328	56	5952
2026-01-21 13:16:28.86	40.36	17.58	-41.3	-42.3	22.5	0.00e+00	0	42	0	372244480	56	5937
2026-01-21 13:16:29.87	40.51	17.67	-41.2	-42.2	22.6	0.00e+00	0	42	0	374341632	56	5888
2026-01-21 13:16:30.88	40.67	17.76	-41.5	-42.5	22.4	0.00e+00	0	42	0	376438784	56	6077
2026-01-21 13:16:31.89	40.82	17.85	-41.8	-42.8	22.3	0.00e+00	0	42	0	378535936	56	6299
2026-01-21 13:16:32.90	40.98	17.94	-41.4	-42.5	22.3	0.00e+00	0	42	0	379584512	56	6043
2026-01-21 13:16:33.91	41.13	18.03	-41.1	-42.1	22.8	0.00e+00	0	42	0	381681664	56	5776
2026-01-21 13:16:34.92	41.29	18.12	-40.9	-41.9	22.4	0.00e+00	0	41	0	383778816	56	5653
2026-01-21 13:16:35.92	41.45	18.21	-40.8	-41.8	23.0	0.00e+00	0	42	0	385875968	56	5589
2026-01-21 13:16:36.93	41.61	18.30	-40.7	-41.7	22.9	0.00e+00	0	42	0	387973120	54	6204
2026-01-21 13:16:37.94	41.77	18.39	-40.5	-41.4	23.3	0.00e+00	0	42	0	389021696	54	6006
2026-01-21 13:16:38.95	41.93	18.49	-40.5	-41.5	23.3	0.00e+00	0	42	0	391118848	54	6035
2026-01-21 13:16:39.96	42.09	18.58	-40.3	-41.2	23.4	0.00e+00	0	42	0	393216000	54	5885
2026-01-21 13:16:40.97	42.25	18.67	-40.3	-41.2	23.5	0.00e+00	0	42	0	395313152	54	5844
2026-01-21 13:16:41.98	42.42	18.76	-40.5	-41.4	23.3	0.00e+00	0	42	0	397410304	54	6008
2026-01-21 13:16:42.99	42.58	18.85	-40.2	-41.1	23.6	0.00e+00	0	42	0	398458880	54	5806
2026-01-21 13:16:44.00	42.75	18.94	-40.2	-41.2	23.5	0.00e+00	0	42	0	400556032	54	5837
2026-01-21 13:16:45.01	42.92	19.03	-40.1	-41.0	23.7	0.00e+00	0	42	0	402653184	54	5727
2026-01-21 13:16:46.02	43.08	19.13	-40.2	-41.1	23.5	0.00e+00	0	42	0	404750336	54	5818
2026-01-21 13:16:47.03	43.25	19.22	-40.1	-41.0	23.6	0.00e+00	0	42	0	406847488	54	5724
2026-01-21 13:16:48.04	43.42	19.31	-40.1	-41.0	23.6	0.00e+00	0	42	0	407896064	54	5751
2026-01-21 13:16:49.05	43.59	19.40	-40.3	-41.2	23.6	0.00e+00	0	42	0	409993216	54	5858
2026-01-21 13:16:50.06	43.77	19.50	-40.2	-41.1	23.5	0.00e+00	0	42	0	412090368	54	5827
2026-01-21 13:16:51.07	43.94	19.59	-40.3	-41.3	23.4	0.00e+00	0	42	0	414187520	54	5920
2026-01-21 13:16:52.08	44.11	19.68	-40.3	-41.2	23.5	0.00e+00	0	42	0	416284672	54	5854
2026-01-21 13:16:53.09	44.29	19.77	-40.4	-41.3	23.5	0.00e+00	0	42	0	417333248	54	5933
2026-01-21 13:16:54.10	44.47	19.87	-40.4	-41.4	23.3	0.00e+00	0	42	0	419430400	54	5981
2026-01-21 13:16:55.11	44.64	19.96	-40.1	-41.1	23.7	0.00e+00	0	42	0	421527552	54	5763
2026-01-21 13:16:56.12	44.82	20.05	-40.3	-41.2	23.6	0.00e+00	0	42	0	423624704	54	5860
2026-01-21 13:16:57.13	45.00	20.14	-40.3	-41.2	23.6	0.00e+00	0	42	0	425721856	54	5877
2026-01-21 13:16:58.14	45.18	20.24	-40.0	-40.8	23.9	0.00e+00	0	42	0	427819008	54	5629
2026-01-21 13:16:59.14	45.36	20.33	-39.9	-40.8	23.9	0.00e+00	0	42	0	428867584	54	5612
2026-01-21 13:17:00.15	45.54	20.42	-40.1	-41.0	23.6	0.00e+00	0	42	0	430964736	54	5759
2026-01-21 13:17:01.16	45.73	20.52	-40.0	-40.9	23.8	0.00e+00	0	42	0	433061888	54	5687
2026-01-21 13:17:02.17	45.91	20.61	-39.9	-40.8	23.8	0.00e+00	0	42	0	435159040	54	5615
2026-01-21 13:17:03.18	46.10	20.70	-40.0	-40.8	23.8	0.00e+00	0	42	0	437256192	54	5628
2026-01-21 13:17:04.19	46.28	20.80	-40.0	-40.9	23.8	0.00e+00	0	42	0	438304768	54	5681
2026-01-21 13:17:05.20	46.47	20.89	-40.0	-40.8	23.9	0.00e+00	0	42	0	440401920	54	5625
2026-01-21 13:17:06.21	46.66	20.98	-40.0	-40.9	23.8	0.00e+00	0	42	0	442499072	54	5683
2026-01-21 13:17:07.22	46.85	21.08	-39.9	-40.8	23.9	0.00e+00	0	42	0	444596224	54	5613
2026-01-21 13:17:08.23	47.04	21.17	-39.9	-40.8	24.0	0.00e+00	0	42	0	446693376	54	5577
2026-01-21 13:17:09.23	47.23	21.26	-39.7	-40.5	24.1	0.00e+00	0	42	0	447741952	52	6094
2026-01-21 13:17:10.24	47.42	21.36	-39.7	-40.6	24.2	0.00e+00	0	42	0	449839104	52	6116
2026-01-21 13:17:11.25	47.62	21.45	-39.5	-40.3	24.4	0.00e+00	0	42	0	451936256	52	5939
2026-01-21 13:17:12.26	47.81	21.54	-39.5	-40.4	24.3	0.00e+00	0	42	0	454033408	52	5970
2026-01-21 13:17:13.27	48.01	21.64	-39.4	-40.2	24.4	0.00e+00	0	42	0	456130560	52	5868
2026-01-21 13:17:14.28	48.21	21.73	-39.3	-40.2	24.5	0.00e+00	0	42	0	457179136	52	5843
2026-01-21 13:17:15.29	48.41	21.83	-39.6	-40.4	24.2	0.00e+00	0	42	0	459276288	52	6031
2026-01-21 13:17:16.30	48.61	21.92	-39.5	-40.3	24.3	0.00e+00	0	42	0	461373440	52	5944
2026-01-21 13:17:17.31	48.81	22.01	-39.3	-40.2	24.4	0.00e+00	0	42	0	463470592	52	5842
2026-01-21 13:17:18.32	49.01	22.11	-39.9	-40.8	24.3	0.00e+00	0	42	0	465567744	52	6251
2026-01-21 13:17:19.33	49.22	22.20	-39.8	-40.7	24.1	0.00e+00	0	42	0	466616320	52	6225
2026-01-21 13:17:20.34	49.42	22.29	-39.5	-40.3	24.5	0.00e+00	0	42	0	468713472	52	5945
2026-01-21 13:17:21.35	49.63	22.39	-39.3	-40.1	24.6	0.00e+00	0	42	0	470810624	52	5783
2026-01-21 13:17:22.36	49.84	22.48	-39.3	-40.2	24.4	0.00e+00	0	42	0	472907776	52	5829
2026-01-21 13:17:23.37	50.05	22.57	-39.4	-40.3	24.4	0.00e+00	0	42	0	475004928	52	5902
2026-01-21 13:17:24.38	50.26	22.67	-39.7	-40.5	24.2	0.00e+00	0	42	0	476053504	52	6090
2026-01-21 13:17:25.39	50.47	22.76	-39.8	-40.7	24.0	0.00e+00	0	42	0	478150656	52	6197
2026-01-21 13:17:26.40	50.68	22.86	-39.8	-40.6	24.1	0.00e+00	0	42	0	480247808	52	6171
2026-01-21 13:17:27.41	50.89	22.95	-39.9	-40.8	23.9	0.00e+00	0	42	0	482344960	52	6276
2026-01-21 13:17:28.42	51.11	23.04	-39.9	-40.8	23.5	0.00e+00	0	42	0	484442112	52	6279
2026-01-21 13:17:29.43	51.33	23.14	-39.9	-40.8	24.0	0.00e+00	0	42	0	485490688	52	6288
2026-01-21 13:17:30.44	51.54	23.23	-40.0	-40.9	23.9	0.00e+00	0	42	0	487587840	52	6337
2026-01-21 13:17:31.45	51.76	23.32	-39.9	-40.8	24.0	0.00e+00	0	42	0	489684992	52	6280
2026-01-21 13:17:32.46	51.98	23.41	-40.0	-40.8	23.9	0.00e+00	0	42	0	491782144	52	6307
2026-01-21 13:17:33.47	52.20	23.51	-39.9	-40.8	24.0	0.00e+00	0	42	0	493879296	52	6295
2026-01-21 13:17:34.47	52.42	23.60	-39.9	-40.7	24.1	0.00e+00	0	42	0	495976448	52	6230
2026-01-21 13:17:35.48	52.65	23.69	-39.9	-40.8	23.9	0.00e+00	0	42	0	497025024	52	6296
2026-01-21 13:17:36.49	52.87	23.78	-40.2	-41.1	23.9	0.00e+00	0	42	0	499122176	52	6497
2026-01-21 13:17:37.50	53.10	23.88	-40.3	-41.2	23.7	0.00e+00	0	42	0	501219328	52	6588
2026-01-21 13:17:38.51	53.33	23.97	-40.0	-40.9	23.8	0.00e+00	0	42	0	503316480	52	6362
2026-01-21 13:17:39.52	53.56	24.06	-40.1	-41.0	23.8	0.00e+00	0	42	0	505413632	52	6396
2026-01-21 13:17:40.53	53.79	24.15	-40.3	-41.2	23.9	0.00e+00	0	42	0	506462208	52	6548
2026-01-21 13:17:41.54	54.02	24.25	-40.3	-41.2	23.7	0.00e+00	0	42	0	508559360	52	6556
2026-01-21 13:17:42.55	54.25	24.34	-40.5	-41.4	23.6	0.00e+00	0	42	0	510656512	52	6712
2026-01-21 13:17:43.56	54.49	24.43	-40.4	-41.3	23.5	0.00e+00	0	42	0	512753664	52	6660
2026-01-21 13:17:44.57	54.72	24.52	-40.5	-41.4	23.4	0.00e+00	0	42	0	514850816	52	6763
2026-01-21 13:17:45.58	54.96	24.61	-40.7	-41.7	23.2	0.00e+00	0	42	0	515899392	52	6949
2026-01-21 13:17:46.59	55.20	24.70	-40.9	-41.8	23.1	0.00e+00	0	42	0	517996544	54	6310
2026-01-21 13:17:47.60	55.44	24.79	-41.0	-41.9	22.9	0.00e+00	0	42	0	520093696	54	6385
2026-01-21 13:17:48.61	55.68	24.88	-41.0	-42.0	22.9	0.00e+00	0	42	0	522190848	54	6427
2026-01-21 13:17:49.62	55.92	24.97	-41.1	-42.0	22.9	0.00e+00	0	42	0	524288000	54	6455
2026-01-21 13:17:50.63	56.17	25.06	-40.9	-41.9	22.9	0.00e+00	0	42	0	525336576	54	6336
2026-01-21 13:17:51.64	56.41	25.15	-41.0	-41.9	23.0	0.00e+00	0	42	0	527433728	54	6367
2026-01-21 13:17:52.65	56.66	25.24	-41.1	-42.0	22.9	0.00e+00	0	42	0	529530880	54	6453
2026-01-21 13:17:53.66	56.91	25.33	-41.1	-42.1	22.8	0.00e+00	0	42	0	531628032	54	6507
2026-01-21 13:17:54.67	57.16	25.42	-41.1	-42.0	22.7	0.00e+00	0	42	0	533725184	54	6460
2026-01-21 13:17:55.68	57.41	25.51	-41.0	-42.0	22.8	0.00e+00	0	42	0	534773760	54	6435
2026-01-21 13:17:56.69	57.66	25.60	-40.8	-41.7	23.1	0.00e+00	0	42	0	536870912	54	6241
2026-01-21 13:17:57.70	57.92	25.69	-40.9	-41.8	23.0	0.00e+00	0	42	0	538968064	54	6314
2026-01-21 13:17:58.70	58.17	25.78	-40.7	-41.7	23.1	0.00e+00	0	42	0	541065216	54	6202
2026-01-21 13:17:59.72	58.43	25.87	-41.0	-42.0	22.9	0.00e+00	0	42	0	543162368	54	6394
2026-01-21 13:18:00.73	58.69	25.95	-40.9	-41.9	23.0	0.00e+00	0	42	0	544210944	54	6328
2026-01-21 13:18:01.74	58.94	26.04	-41.0	-42.0	22.9	0.00e+00	0	42	0	546308096	54	6412
2026-01-21 13:18:02.75	59.21	26.13	-41.5	-42.5	22.4	0.00e+00	0	42	0	548405248	54	6816
2026-01-21 13:18:03.76	59.47	26.21	-41.8	-42.8	22.2	0.00e+00	0	42	0	550502400	56	6291
2026-01-21 13:18:04.77	59.73	26.30	-41.8	-42.9	22.1	0.00e+00	0	42	0	552599552	56	6340
2026-01-21 13:18:05.78	60.00	26.39	-41.8	-42.9	22.1	0.00e+00	0	42	0	553648128	56	6354
2026-01-21 13:18:06.79	60.26	26.47	-42.0	-43.2	21.8	0.00e+00	0	42	0	555745280	56	6541
2026-01-21 13:18:07.80	60.53	26.56	-42.4	-43.5	21.5	0.00e+00	0	42	0	557842432	56	6812
2026-01-21 13:18:08.81	60.80	26.64	-42.3	-43.4	21.7	0.00e+00	0	42	0	559939584	56	6747
2026-01-21 13:18:09.82	61.07	26.73	-42.3	-43.4	21.7	0.00e+00	0	42	0	562036736	56	6765
2026-01-21 13:18:10.83	61.34	26.81	-42.2	-43.3	21.7	0.00e+00	0	42	0	564133888	56	6654
2026-01-21 13:18:11.84	61.62	26.89	-42.3	-43.5	21.6	0.00e+00	0	42	0	565182464	56	6785
2026-01-21 13:18:12.85	61.89	26.98	-42.6	-43.8	21.4	0.00e+00	0	42	0	567279616	56	7029
2026-01-21 13:18:13.86	62.17	27.06	-42.8	-44.0	21.1	0.00e+00	0	42	0	569376768	58	6398
2026-01-21 13:18:14.87	62.44	27.14	-42.6	-43.8	21.3	0.00e+00	0	42	0	571473920	58	6297
2026-01-21 13:18:15.88	62.72	27.22	-42.7	-43.8	21.2	0.00e+00	0	42	0	573571072	58	6314
2026-01-21 13:18:16.89	63.00	27.30	-42.7	-43.9	21.2	0.00e+00	0	42	0	574619648	58	6326
2026-01-21 13:18:17.90	63.29	27.38	-42.7	-44.0	21.0	0.00e+00	0	42	0	576716800	58	6391
2026-01-21 13:18:18.91	63.57	27.46	-43.0	-44.2	20.9	0.00e+00	0	42	0	578813952	58	6585
2026-01-21 13:18:19.92	63.85	27.54	-42.9	-44.2	20.9	0.00e+00	0	42	0	580911104	58	6566
2026-01-21 13:18:20.92	64.14	27.62	-43.0	-44.3	20.8	0.00e+00	0	42	0	583008256	58	6660
2026-01-21 13:18:21.93	64.42	27.70	-43.1	-44.4	20.8	0.00e+00	0	42	0	584056832	58	6697
2026-01-21 13:18:22.94	64.71	27.78	-42.9	-44.1	21.0	0.00e+00	0	42	0	586153984	58	6503
2026-01-21 13:18:23.95	65.00	27.86	-42.8	-44.0	21.1	0.00e+00	0	42	0	588251136	58	6450
2026-01-21 13:18:24.96	65.29	27.93	-42.7	-43.9	21.2	0.00e+00	0	42	0	590348288	58	6353
2026-01-21 13:18:25.97	65.59	28.01	-42.6	-43.8	21.3	0.00e+00	0	42	0	592445440	58	6253
2026-01-21 13:18:26.98	65.88	28.09	-42.6	-43.8	21.3	0.00e+00	0	42	0	593494016	58	6246
2026-01-21 13:18:27.99	66.18	28.16	-42.3	-43.5	21.5	0.00e+00	0	42	0	595591168	58	6061
2026-01-21 13:18:29.00	66.48	28.24	-42.6	-43.8	21.3	0.00e+00	0	42	0	597688320	58	6276
2026-01-21 13:18:30.01	66.77	28.31	-42.9	-44.2	21.0	0.00e+00	0	42	0	599785472	58	6544
2026-01-21 13:18:31.02	67.07	28.38	-42.5	-43.7	21.4	0.00e+00	0	42	0	601882624	58	6204
2026-01-21 13:18:32.03	67.37	28.46	-42.6	-43.8	21.3	0.00e+00	0	42	0	602931200	58	6264
2026-01-21 13:18:33.04	67.68	28.53	-42.4	-43.6	21.5	0.00e+00	0	42	0	605028352	58	6109
2026-01-21 13:18:34.05	67.98	28.60	-42.3	-43.5	21.6	0.00e+00	0	42	0	607125504	58	6057
2026-01-21 13:18:35.06	68.29	28.67	-42.4	-43.5	21.6	0.00e+00	0	42	0	609222656	58	6086
2026-01-21 13:18:36.07	68.59	28.74	-42.3	-43.4	21.7	0.00e+00	0	42	0	611319808	58	5990
2026-01-21 13:18:37.08	68.90	28.81	-42.3	-43.5	21.7	0.00e+00	0	42	0	612368384	58	6045
2026-01-21 13:18:38.09	69.21	28.88	-42.3	-43.5	21.0	0.00e+00	0	42	0	614465536	58	6055
2026-01-21 13:18:39.10	69.52	28.95	-42.6	-43.8	21.5	0.00e+00	0	42	0	616562688	58	6259
2026-01-21 13:18:40.10	69.83	29.02	-42.7	-43.9	21.3	0.00e+00	0	42	0	618659840	58	6354
2026-01-21 13:18:41.11	70.14	29.08	-42.8	-44.1	21.1	0.00e+00	0	42	0	620756992	58	6498
2026-01-21 13:18:42.12	70.46	29.15	-43.1	-44.4	20.7	0.00e+00	0	42	0	621805568	58	6736
2026-01-21 13:18:43.13	70.77	29.21	-43.4	-44.7	20.4	0.00e+00	0	42	0	623902720	58	6990
2026-01-21 13:18:44.14	71.09	29.28	-43.6	-45.0	20.2	0.00e+00	0	42	0	625999872	58	7189
2026-01-21 13:18:45.15	71.41	29.34	-43.9	-45.3	19.9	0.00e+00	0	42	0	628097024	60	6683
2026-01-21 13:18:46.16	71.73	29.40	-44.0	-45.6	19.6	0.00e+00	0	42	0	630194176	60	6854
2026-01-21 13:18:47.17	72.05	29.46	-44.4	-45.9	19.5	0.00e+00	0	42	0	632291328	60	7146
2026-01-21 13:18:48.18	72.37	29.53	-44.4	-45.9	19.4	0.00e+00	0	42	0	633339904	60	7120
2026-01-21 13:18:49.19	72.69	29.59	-44.4	-45.9	19.4	0.00e+00	0	42	0	635437056	60	7145
2026-01-21 13:18:50.20	73.02	29.65	-44.4	-46.0	19.3	0.00e+00	0	42	0	637534208	60	7240
2026-01-21 13:18:51.20	73.34	29.70	-44.7	-46.4	19.0	0.00e+00	0	42	0	639631360	60	7559
2026-01-21 13:18:52.21	73.66	29.76	-44.7	-46.3	19.0	0.00e+00	0	42	0	641728512	60	7429
2026-01-21 13:18:53.22	73.99	29.82	-44.9	-46.6	18.7	0.00e+00	0	42	0	642777088	60	7706
2026-01-21 13:18:54.23	74.32	29.87	-45.0	-46.7	18.6	0.00e+00	0	42	0	644874240	60	7812
2026-01-21 13:18:55.24	74.65	29.93	-45.1	-46.8	18.4	0.00e+00	0	42	0	646971392	60	7925
2026-01-21 13:18:56.25	74.98	29.98	-44.9	-46.6	18.7	0.00e+00	0	42	0	649068544	60	7700
2026-01-21 13:18:57.26	75.31	30.04	-44.9	-46.6	18.7	0.00e+00	0	42	0	651165696	60	7731
2026-01-21 13:18:58.27	75.65	30.09	-44.8	-46.4	19.0	0.00e+00	0	42	0	652214272	60	7532
2026-01-21 13:18:59.29	75.98	30.14	-44.5	-46.1	19.2	0.00e+00	0	42	0	654311424	60	7262
2026-01-21 13:19:00.29	76.32	30.19	-44.4	-46.0	19.2	0.00e+00	0	42	0	656408576	60	7200
2026-01-21 13:19:01.31	76.66	30.24	-44.8	-46.4	19.2	0.00e+00	0	42	0	658505728	60	7532
2026-01-21 13:19:02.31	76.99	30.29	-44.4	-46.0	19.4	0.00e+00	0	41	0	660602880	60	7196
2026-01-21 13:19:03.32	77.33	30.33	-44.1	-45.6	19.5	0.00e+00	0	42	0	661651456	60	6914
2026-01-21 13:19:04.33	77.67	30.38	-45.0	-46.5	19.0	0.00e+00	0	42	0	663748608	60	7638
2026-01-21 13:19:05.34	78.01	30.43	-44.5	-46.0	19.5	0.00e+00	0	42	0	665845760	60	7228
2026-01-21 13:19:06.35	78.35	30.47	-44.5	-46.0	19.6	0.00e+00	0	42	0	667942912	60	7241
2026-01-21 13:19:07.36	78.69	30.51	-44.5	-46.0	19.5	0.00e+00	0	42	0	670040064	60	7238
2026-01-21 13:19:08.37	79.03	30.55	-44.3	-45.7	19.7	0.00e+00	0	42	0	671088640	60	6983
2026-01-21 13:19:09.38	79.38	30.60	-44.2	-45.6	19.8	0.00e+00	0	42	0	673185792	60	6877
2026-01-21 13:19:10.39	79.72	30.64	-44.0	-45.4	20.0	0.00e+00	0	42	0	675282944	60	6748
2026-01-21 13:19:11.40	80.07	30.68	-43.7	-45.0	20.5	0.00e+00	0	42	0	677380096	60	6430
2026-01-21 13:19:12.41	80.41	30.71	-43.2	-44.5	20.9	0.00e+00	0	41	0	679477248	60	6058
2026-01-21 13:19:13.42	80.76	30.75	-43.3	-44.6	20.8	0.00e+00	0	42	0	680525824	60	6109
2026-01-21 13:19:14.43	81.11	30.79	-43.4	-44.7	20.7	0.00e+00	0	42	0	682622976	60	6175
2026-01-21 13:19:15.44	81.46	30.82	-43.4	-44.7	20.6	0.00e+00	0	42	0	684720128	60	6237
2026-01-21 13:19:16.45	81.81	30.85	-43.6	-45.0	20.3	0.00e+00	0	42	0	686817280	60	6399
2026-01-21 13:19:17.46	82.16	30.89	-43.5	-44.9	20.4	0.00e+00	0	42	0	688914432	60	6327
2026-01-21 13:19:18.47	82.51	30.92	-43.6	-45.0	20.3	0.00e+00	0	41	0	689963008	60	6400
2026-01-21 13:19:19.48	82.86	30.95	-43.5	-44.8	20.6	0.00e+00	0	42	0	692060160	60	6273
2026-01-21 13:19:20.49	83.21	30.98	-43.2	-44.4	20.9	0.00e+00	0	42	0	694157312	60	6028
2026-01-21 13:19:21.50	83.56	31.01	-43.1	-44.4	21.0	0.00e+00	0	42	0	696254464	60	5965
2026-01-21 13:19:22.51	83.92	31.03	-43.1	-44.3	20.9	0.00e+00	0	42	0	698351616	60	5908
2026-01-21 13:19:23.52	84.27	31.06	-43.4	-44.7	20.7	0.00e+00	0	42	0	700448768	60	6195
2026-01-21 13:19:24.53	84.62	31.08	-44.0	-45.4	19.9	0.00e+00	0	42	0	701497344	60	6758
2026-01-21 13:19:25.54	84.98	31.11	-44.1	-45.5	19.9	0.00e+00	0	42	0	703594496	60	6813
2026-01-21 13:19:26.55	85.33	31.13	-44.6	-46.2	19.1	0.00e+00	0	42	0	705691648	60	7386
2026-01-21 13:19:27.56	85.69	31.15	-44.4	-46.0	19.3	0.00e+00	0	41	0	707788800	60	7194
2026-01-21 13:19:28.57	86.05	31.17	-44.0	-45.4	20.0	0.00e+00	0	41	0	709885952	60	6759
2026-01-21 13:19:29.57	86.40	31.19	-44.0	-45.4	20.0	0.00e+00	0	42	0	710934528	60	6759
2026-01-21 13:19:30.58	86.76	31.20	-44.0	-45.4	19.8	0.00e+00	0	42	0	713031680	60	6769
2026-01-21 13:19:31.59	87.12	31.22	-44.2	-45.6	19.6	0.00e+00	0	41	0	715128832	60	6920
2026-01-21 13:19:32.60	87.47	31.24	-43.5	-44.9	20.5	0.00e+00	0	41	0	717225984	60	6319
2026-01-21 13:19:33.61	87.83	31.25	-43.6	-44.9	20.3	0.00e+00	0	41	0	719323136	60	6364
2026-01-21 13:19:34.62	88.19	31.26	-43.6	-44.9	20.6	0.00e+00	0	42	0	720371712	60	6350
2026-01-21 13:19:35.63	88.55	31.27	-43.3	-44.6	20.9	0.00e+00	0	42	0	722468864	60	6159
2026-01-21 13:19:36.64	88.91	31.28	-42.8	-44.0	21.5	0.00e+00	0	41	0	724566016	60	5696
2026-01-21 13:19:37.65	89.27	31.29	-42.1	-43.2	22.0	0.00e+00	0	42	0	726663168	58	5844
2026-01-21 13:19:38.66	89.63	31.30	-41.8	-42.9	22.2	0.00e+00	0	42	0	728760320	58	5647
2026-01-21 13:19:39.67	89.99	31.31	-41.9	-42.9	22.2	0.00e+00	0	42	0	729808896	58	5677
2026-01-21 13:19:40.68	90.35	31.31	-42.0	-43.1	22.0	0.00e+00	0	41	0	731906048	58	5786
2026-01-21 13:19:41.69	90.71	31.32	-42.2	-43.3	21.8	0.00e+00	0	41	0	734003200	58	5925
2026-01-21 13:19:42.70	91.07	31.32	-42.3	-43.4	21.8	0.00e+00	0	41	0	736100352	58	5989
2026-01-21 13:19:43.71	91.43	31.32	-42.4	-43.6	21.6	0.00e+00	0	41	0	738197504	58	6108
2026-01-21 13:19:44.72	91.79	31.32	-42.5	-43.7	21.4	0.00e+00	0	42	0	739246080	58	6191
2026-01-21 13:19:45.73	92.15	31.32	-42.9	-44.2	21.0	0.00e+00	0	41	0	741343232	58	6563
2026-01-21 13:19:46.74	92.51	31.32	-43.3	-44.5	20.6	0.00e+00	0	41	0	743440384	58	6848
2026-01-21 13:19:47.75	92.87	31.32	-43.4	-44.7	20.4	0.00e+00	0	41	0	745537536	58	7002
2026-01-21 13:19:48.76	93.23	31.31	-43.5	-44.9	20.3	0.00e+00	0	41	0	747634688	58	7116
2026-01-21 13:19:49.77	93.59	31.31	-43.6	-44.9	20.3	0.00e+00	0	41	0	748683264	58	7162
2026-01-21 13:19:50.78	93.95	31.30	-43.6	-44.9	20.2	0.00e+00	0	41	0	750780416	58	7133
2026-01-21 13:19:51.79	94.30	31.29	-43.4	-44.8	20.4	0.00e+00	0	41	0	752877568	58	7017
2026-01-21 13:19:52.80	94.66	31.28	-43.2	-44.5	20.7	0.00e+00	0	41	0	754974720	58	6778
2026-01-21 13:19:53.81	95.02	31.27	-43.1	-44.4	20.9	0.00e+00	0	41	0	757071872	58	6711
2026-01-21 13:19:54.82	95.38	31.26	-43.0	-44.2	21.0	0.00e+00	0	41	0	758120448	58	6584
2026-01-21 13:19:55.83	95.74	31.25	-43.4	-44.7	20.8	0.00e+00	0	41	0	760217600	58	6942
2026-01-21 13:19:56.83	96.10	31.23	-43.5	-44.9	20.4	0.00e+00	0	41	0	762314752	58	7111
2026-01-21 13:19:57.84	96.45	31.22	-43.4	-44.8	20.3	0.00e+00	0	41	0	764411904	58	7018
2026-01-21 13:19:58.85	96.81	31.20	-43.4	-44.7	20.6	0.00e+00	0	41	0	766509056	58	6951
2026-01-21 13:19:59.86	97.17	31.18	-43.2	-44.5	20.7	0.00e+00	0	41	0	768606208	58	6787
2026-01-21 13:20:00.87	97.53	31.16	-43.1	-44.4	20.7	0.00e+00	0	41	0	769654784	58	6737
2026-01-21 13:20:01.89	97.89	31.14	-43.2	-44.5	20.7	0.00e+00	0	41	0	771751936	58	6810
2026-01-21 13:20:02.90	98.24	31.12	-43.3	-44.6	20.5	0.00e+00	0	41	0	773849088	58	6851
2026-01-21 13:20:03.91	98.60	31.10	-43.6	-44.9	20.1	0.00e+00	0	41	0	775946240	58	7169
2026-01-21 13:20:04.91	98.95	31.08	-44.4	-46.0	19.3	0.00e+00	0	41	0	778043392	60	7177
2026-01-21 13:20:05.92	99.30	31.05	-44.4	-45.9	19.5	0.00e+00	0	41	0	779091968	60	7136
2026-01-21 13:20:06.93	99.66	31.03	-44.5	-46.0	19.3	0.00e+00	0	41	0	781189120	60	7239
2026-01-21 13:20:07.94	100.01	31.00	-44.7	-46.4	18.9	0.00e+00	0	41	0	783286272	60	7554
2026-01-21 13:20:08.95	100.36	30.97	-44.6	-46.2	19.2	0.00e+00	0	41	0	785383424	60	7387
2026-01-21 13:20:09.96	100.72	30.94	-44.4	-46.0	19.2	0.00e+00	0	41	0	787480576	60	7191
2026-01-21 13:20:10.97	101.07	30.91	-44.3	-45.8	19.5	0.00e+00	0	41	0	788529152	60	7072
2026-01-21 13:20:11.98	101.42	30.88	-44.1	-45.5	19.8	0.00e+00	0	41	0	790626304	60	6827
2026-01-21 13:20:12.99	101.77	30.85	-43.7	-45.2	20.1	0.00e+00	0	41	0	792723456	60	6550
2026-01-21 13:20:14.00	102.12	30.81	-43.6	-45.0	20.3	0.00e+00	0	41	0	794820608	60	6437
2026-01-21 13:20:15.01	102.47	30.78	-44.0	-45.5	20.0	0.00e+00	0	41	0	796917760	60	6781
2026-01-21 13:20:16.02	102.82	30.74	-44.4	-46.0	19.4	0.00e+00	0	41	0	797966336	60	7183
2026-01-21 13:20:17.03	103.16	30.70	-44.8	-46.4	19.0	0.00e+00	0	41	0	800063488	60	7545
2026-01-21 13:20:18.04	103.51	30.67	-44.8	-46.5	18.9	0.00e+00	0	41	0	802160640	60	7622
2026-01-21 13:20:19.05	103.86	30.63	-44.4	-45.9	19.4	0.00e+00	0	41	0	804257792	60	7164
2026-01-21 13:20:20.05	104.20	30.59	-44.2	-45.6	19.9	0.00e+00	0	41	0	806354944	60	6885
2026-01-21 13:20:21.06	104.54	30.54	-43.9	-45.2	20.4	0.00e+00	0	41	0	807403520	60	6601
2026-01-21 13:20:22.08	104.89	30.50	-43.6	-44.9	20.4	0.00e+00	0	41	0	809500672	60	6360
2026-01-21 13:20:23.09	105.23	30.46	-43.4	-44.7	20.7	0.00e+00	0	41	0	811597824	60	6190
2026-01-21 13:20:24.10	105.57	30.41	-43.0	-44.3	21.0	0.00e+00	0	41	0	813694976	60	5897
2026-01-21 13:20:25.11	105.91	30.37	-42.8	-44.0	21.4	0.00e+00	0	41	0	815792128	60	5734
2026-01-21 13:20:26.12	106.25	30.32	-42.5	-43.6	21.5	0.00e+00	0	41	0	816840704	58	6149
2026-01-21 13:20:27.13	106.59	30.27	-42.4	-43.6	21.5	0.00e+00	0	41	0	818937856	58	6105
2026-01-21 13:20:28.14	106.93	30.22	-42.3	-43.5	21.6	0.00e+00	0	41	0	821035008	58	6070
2026-01-21 13:20:29.15	107.27	30.17	-42.6	-43.8	21.4	0.00e+00	0	41	0	823132160	58	6266
2026-01-21 13:20:30.16	107.60	30.12	-42.5	-43.6	21.5	0.00e+00	0	41	0	825229312	58	6171
2026-01-21 13:20:31.17	107.94	30.07	-42.6	-43.8	21.3	0.00e+00	0	41	0	826277888	58	6246
2026-01-21 13:20:32.18	108.27	30.02	-43.0	-44.3	20.9	0.00e+00	0	41	0	828375040	58	6623
2026-01-21 13:20:33.19	108.60	29.97	-43.3	-44.6	20.7	0.00e+00	0	41	0	830472192	58	6878
2026-01-21 13:20:34.19	108.93	29.91	-43.5	-44.9	20.5	0.00e+00	0	41	0	832569344	58	7101
2026-01-21 13:20:35.21	109.26	29.86	-43.3	-44.6	20.6	0.00e+00	0	41	0	834666496	58	6906
2026-01-21 13:20:36.22	109.59	29.80	-43.0	-44.3	21.0	0.00e+00	0	41	0	836763648	58	6621
2026-01-21 13:20:37.23	109.92	29.74	-42.6	-43.7	21.4	0.00e+00	0	41	0	837812224	58	6205
2026-01-21 13:20:38.24	110.25	29.69	-42.5	-43.7	21.6	0.00e+00	0	41	0	839909376	58	6194
2026-01-21 13:20:39.25	110.57	29.63	-42.3	-43.4	21.7	0.00e+00	0	41	0	842006528	58	6030
2026-01-21 13:20:40.26	110.90	29.57	-42.4	-43.6	21.5	0.00e+00	0	41	0	844103680	58	6140
2026-01-21 13:20:41.27	111.22	29.51	-42.5	-43.7	21.5	0.00e+00	0	41	0	846200832	58	6199
2026-01-21 13:20:42.28	111.54	29.44	-42.7	-43.9	21.3	0.00e+00	0	41	0	847249408	58	6332
2026-01-21 13:20:43.29	111.86	29.38	-42.7	-43.9	21.3	0.00e+00	0	41	0	849346560	58	6331
2026-01-21 13:20:44.30	112.18	29.32	-42.8	-44.0	21.2	0.00e+00	0	41	0	851443712	58	6397
2026-01-21 13:20:45.31	112.50	29.26	-43.2	-44.4	20.7	0.00e+00	0	41	0	853540864	58	6764
2026-01-21 13:20:46.32	112.82	29.19	-43.7	-45.0	20.3	0.00e+00	0	41	0	855638016	58	7241
2026-01-21 13:20:47.33	113.14	29.13	-44.0	-45.5	19.9	0.00e+00	0	41	0	856686592	60	6791
2026-01-21 13:20:48.34	113.45	29.06	-43.8	-45.3	20.0	0.00e+00	0	41	0	858783744	60	6621
2026-01-21 13:20:49.35	113.76	28.99	-43.8	-45.2	20.1	0.00e+00	0	41	0	860880896	60	6607
2026-01-21 13:20:50.36	114.08	28.92	-43.5	-44.8	20.2	0.00e+00	0	41	0	862978048	60	6314
2026-01-21 13:20:51.37	114.39	28.86	-43.0	-44.3	20.9	0.00e+00	0	41	0	865075200	60	5930
2026-01-21 13:20:52.37	114.69	28.79	-43.1	-44.4	20.8	0.00e+00	0	41	0	866123776	60	5997
2026-01-21 13:20:53.39	115.00	28.72	-43.0	-44.2	21.0	0.00e+00	0	41	0	868220928	60	5879
2026-01-21 13:20:54.39	115.31	28.65	-43.0	-44.2	21.0	0.00e+00	0	41	0	870318080	60	5877
2026-01-21 13:20:55.40	115.61	28.58	-43.0	-44.2	20.9	0.00e+00	0	41	0	872415232	60	5887
2026-01-21 13:20:56.41	115.92	28.50	-43.3	-44.6	20.7	0.00e+00	0	41	0	874512384	60	6136
2026-01-21 13:20:57.42	116.22	28.43	-43.5	-44.8	20.2	0.00e+00	0	41	0	875560960	60	6306
2026-01-21 13:20:58.43	116.52	28.36	-43.8	-45.2	20.0	0.00e+00	0	41	0	877658112	60	6586
2026-01-21 13:20:59.44	116.82	28.28	-43.9	-45.3	20.0	0.00e+00	0	41	0	879755264	60	6632
2026-01-21 13:21:00.45	117.12	28.21	-43.9	-45.4	19.9	0.00e+00	0	41	0	881852416	60	6706
2026-01-21 13:21:01.46	117.42	28.13	-44.1	-45.6	19.7	0.00e+00	0	41	0	883949568	60	6899
2026-01-21 13:21:02.47	117.72	28.06	-44.3	-45.8	19.7	0.00e+00	0	41	0	884998144	60	7017
2026-01-21 13:21:03.48	118.01	27.98	-44.2	-45.7	19.5	0.00e+00	0	41	0	887095296	60	6990
2026-01-21 13:21:04.49	118.30	27.90	-43.9	-45.3	19.9	0.00e+00	0	41	0	889192448	60	6643
2026-01-21 13:21:05.50	118.60	27.83	-43.8	-45.2	20.0	0.00e+00	0	41	0	891289600	60	6580
2026-01-21 13:21:06.51	118.89	27.75	-43.4	-44.7	20.5	0.00e+00	0	41	0	893386752	60	6235
2026-01-21 13:21:07.52	119.18	27.67	-43.3	-44.6	20.7	0.00e+00	0	41	0	894435328	60	6141
2026-01-21 13:21:08.53	119.46	27.59	-43.0	-44.3	20.9	0.00e+00	0	41	0	896532480	60	5929
2026-01-21 13:21:09.54	119.75	27.51	-43.0	-44.2	21.0	0.00e+00	0	41	0	898629632	60	5874
2026-01-21 13:21:10.55	120.04	27.43	-42.6	-43.8	21.3	0.00e+00	0	41	0	900726784	58	6283
2026-01-21 13:21:11.56	120.32	27.35	-42.6	-43.8	21.3	0.00e+00	0	41	0	902823936	58	6257
2026-01-21 13:21:12.57	120.60	27.27	-42.3	-43.4	21.5	0.00e+00	0	41	0	904921088	58	6028
2026-01-21 13:21:13.58	120.88	27.19	-41.9	-42.9	22.1	0.00e+00	0	41	0	905969664	58	5689
2026-01-21 13:21:14.60	121.17	27.10	-41.6	-42.7	22.3	0.00e+00	0	41	0	908066816	56	6188
2026-01-21 13:21:15.61	121.44	27.02	-41.5	-42.5	22.5	0.00e+00	0	41	0	910163968	56	6062
2026-01-21 13:21:16.62	121.72	26.94	-41.6	-42.6	22.3	0.00e+00	0	41	0	912261120	56	6160
2026-01-21 13:21:17.62	121.99	26.85	-42.1	-43.2	21.7	0.00e+00	0	41	0	914358272	56	6580
2026-01-21 13:21:18.64	122.27	26.77	-42.4	-43.5	21.6	0.00e+00	0	41	0	915406848	56	6815
2026-01-21 13:21:19.65	122.54	26.68	-42.6	-43.7	21.4	0.00e+00	0	41	0	917504000	56	6987
2026-01-21 13:21:20.66	122.81	26.60	-42.6	-43.8	21.2	0.00e+00	0	41	0	919601152	56	7044
2026-01-21 13:21:21.67	123.08	26.51	-42.7	-43.9	21.1	0.00e+00	0	41	0	921698304	58	6379
2026-01-21 13:21:22.68	123.35	26.43	-42.6	-43.8	21.2	0.00e+00	0	41	0	923795456	58	6248
2026-01-21 13:21:23.69	123.62	26.34	-42.7	-43.9	21.2	0.00e+00	0	41	0	924844032	58	6333
2026-01-21 13:21:24.70	123.88	26.26	-42.6	-43.8	21.3	0.00e+00	0	41	0	926941184	58	6267
2026-01-21 13:21:25.71	124.15	26.17	-42.1	-43.2	21.8	0.00e+00	0	41	0	929038336	58	5882
2026-01-21 13:21:26.71	124.41	26.08	-42.1	-43.2	21.8	0.00e+00	0	41	0	931135488	58	5883
2026-01-21 13:21:27.72	124.67	26.00	-41.6	-42.7	22.2	0.00e+00	0	41	0	933232640	58	5536
2026-01-21 13:21:28.73	124.93	25.91	-41.3	-42.3	22.7	0.00e+00	0	41	0	934281216	56	5914
2026-01-21 13:21:29.74	125.19	25.82	-41.5	-42.5	22.2	0.00e+00	0	41	0	936378368	56	6088
2026-01-21 13:21:30.75	125.44	25.73	-41.8	-43.0	22.0	0.00e+00	0	41	0	938475520	56	6407
2026-01-21 13:21:31.76	125.70	25.64	-41.9	-43.1	21.9	0.00e+00	0	41	0	940572672	56	6474
2026-01-21 13:21:32.77	125.95	25.55	-41.7	-42.7	22.2	0.00e+00	0	41	0	942669824	56	6236
2026-01-21 13:21:33.77	126.20	25.47	-41.3	-42.4	22.6	0.00e+00	0	41	0	943718400	56	5991
2026-01-21 13:21:34.78	126.45	25.38	-41.3	-42.4	22.6	0.00e+00	0	41	0	945815552	56	6001
2026-01-21 13:21:35.79	126.70	25.29	-41.3	-42.4	22.3	0.00e+00	0	41	0	947912704	56	5988
2026-01-21 13:21:36.80	126.95	25.20	-41.9	-43.0	21.8	0.00e+00	0	41	0	950009856	56	6442
2026-01-21 13:21:37.82	127.20	25.10	-42.9	-44.2	20.8	0.00e+00	0	41	0	952107008	58	6584
2026-01-21 13:21:38.83	127.45	25.01	-43.8	-45.3	19.7	0.00e+00	0	41	0	953155584	58	7472
2026-01-21 13:21:39.84	127.69	24.92	-43.6	-45.1	20.1	0.00e+00	0	41	0	955252736	60	6501
2026-01-21 13:21:40.85	127.93	24.83	-43.6	-45.1	20.3	0.00e+00	0	41	0	957349888	60	6476
2026-01-21 13:21:41.86	128.18	24.74	-42.9	-44.2	21.0	0.00e+00	0	41	0	959447040	60	5881
2026-01-21 13:21:42.87	128.42	24.65	-42.5	-43.6	21.2	0.00e+00	0	41	0	961544192	58	6169
2026-01-21 13:21:43.88	128.66	24.56	-42.1	-43.2	21.6	0.00e+00	0	41	0	962592768	58	5880
2026-01-21 13:21:44.89	128.89	24.47	-42.3	-43.5	21.2	0.00e+00	0	41	0	964689920	58	6063
2026-01-21 13:21:45.90	129.13	24.37	-42.9	-44.2	20.7	0.00e+00	0	41	0	966787072	58	6563
2026-01-21 13:21:46.91	129.36	24.28	-43.6	-45.0	20.0	0.00e+00	0	41	0	968884224	58	7202
2026-01-21 13:21:47.92	129.60	24.19	-42.7	-43.9	21.2	0.00e+00	0	41	0	970981376	58	6365
2026-01-21 13:21:48.93	129.83	24.10	-41.6	-42.7	22.3	0.00e+00	0	41	0	973078528	58	5526
2026-01-21 13:21:49.94	130.06	24.00	-40.8	-41.8	23.1	0.00e+00	0	41	0	974127104	56	5577
2026-01-21 13:21:50.94	130.29	23.91	-40.3	-41.2	23.5	0.00e+00	0	41	0	976224256	54	5879
2026-01-21 13:21:51.95	130.52	23.82	-40.4	-41.4	23.4	0.00e+00	0	41	0	978321408	54	5990
2026-01-21 13:21:52.96	130.74	23.73	-41.2	-42.2	22.7	0.00e+00	0	41	0	980418560	54	6558
2026-01-21 13:21:53.97	130.97	23.63	-41.6	-42.7	22.3	0.00e+00	0	41	0	982515712	54	6955
2026-01-21 13:21:54.98	131.19	23.54	-42.0	-43.2	21.7	0.00e+00	0	41	0	983564288	56	6580
2026-01-21 13:21:55.99	131.42	23.45	-41.8	-43.0	22.0	0.00e+00	0	41	0	985661440	56	6398
2026-01-21 13:21:57.00	131.64	23.35	-41.6	-42.7	22.2	0.00e+00	0	41	0	987758592	56	6223
2026-01-21 13:21:58.01	131.86	23.26	-40.9	-41.9	22.9	0.00e+00	0	41	0	989855744	56	5679
2026-01-21 13:21:59.02	132.08	23.16	-40.8	-41.8	23.0	0.00e+00	0	41	0	991952896	56	5607
2026-01-21 13:22:00.03	132.30	23.07	-41.0	-42.0	22.9	0.00e+00	0	41	0	993001472	56	5714
2026-01-21 13:22:01.04	132.51	22.98	-41.5	-42.6	22.3	0.00e+00	0	41	0	995098624	56	6129
2026-01-21 13:22:02.05	132.73	22.88	-41.9	-43.0	21.8	0.00e+00	0	41	0	997195776	56	6445
2026-01-21 13:22:03.06	132.94	22.79	-42.3	-43.5	21.5	0.00e+00	0	41	0	999292928	56	6809
2026-01-21 13:22:04.07	133.16	22.69	-42.2	-43.4	21.7	0.00e+00	0	41	0	1001390080	56	6719
2026-01-21 13:22:05.08	133.37	22.60	-41.8	-42.9	22.1	0.00e+00	0	41	0	1002438656	56	6372
2026-01-21 13:22:06.09	133.58	22.51	-41.6	-42.6	22.4	0.00e+00	0	41	0	1004535808	56	6142
2026-01-21 13:22:07.10	133.79	22.41	-41.0	-42.0	23.0	0.00e+00	0	41	0	1006632960	56	5708
2026-01-21 13:22:08.11	133.99	22.32	-41.1	-42.1	22.8	0.00e+00	0	41	0	1008730112	56	5788
2026-01-21 13:22:09.12	134.20	22.22	-40.9	-41.9	23.0	0.00e+00	0	41	0	1010827264	56	5657
2026-01-21 13:22:10.13	134.41	22.13	-41.0	-42.0	22.9	0.00e+00	0	41	0	1011875840	56	5728
2026-01-21 13:22:11.14	134.61	22.04	-41.1	-42.1	22.8	0.00e+00	0	41	0	1013972992	56	5812
2026-01-21 13:22:12.15	134.81	21.94	-41.1	-42.1	22.7	0.00e+00	0	41	0	1016070144	56	5815
2026-01-21 13:22:13.16	135.02	21.85	-41.1	-42.1	22.7	0.00e+00	0	41	0	1018167296	56	5821
2026-01-21 13:22:14.17	135.22	21.75	-41.0	-42.0	22.9	0.00e+00	0	41	0	1020264448	56	5741
2026-01-21 13:22:15.18	135.42	21.66	-40.7	-41.7	23.1	0.00e+00	0	41	0	1021313024	54	6190
2026-01-21 13:22:16.19	135.61	21.56	-40.5	-41.5	23.2	0.00e+00	0	41	0	1023410176	54	6048
2026-01-21 13:22:17.20	135.81	21.47	-40.6	-41.5	23.1	0.00e+00	0	41	0	1025507328	54	6086
2026-01-21 13:22:18.21	136.01	21.37	-40.8	-41.8	23.0	0.00e+00	0	41	0	1027604480	54	6248
2026-01-21 13:22:19.22	136.20	21.28	-41.0	-42.0	22.7	0.00e+00	0	41	0	1029701632	54	6428
2026-01-21 13:22:20.23	136.40	21.19	-41.1	-42.1	22.7	0.00e+00	0	41	0	1030750208	54	6507
2026-01-21 13:22:21.24	136.59	21.09	-41.1	-42.1	22.7	0.00e+00	0	41	0	1032847360	54	6528
2026-01-21 13:22:22.25	136.78	21.00	-40.8	-41.8	22.8	0.00e+00	0	41	0	1034944512	54	6304
2026-01-21 13:22:23.26	136.97	20.90	-40.6	-41.5	23.1	0.00e+00	0	41	0	1037041664	54	6088
2026-01-21 13:22:24.27	137.16	20.81	-40.3	-41.2	23.4	0.00e+00	0	41	0	1039138816	54	5862
2026-01-21 13:22:25.28	137.35	20.72	-40.2	-41.1	23.4	0.00e+00	0	41	0	1041235968	54	5817
2026-01-21 13:22:26.29	137.53	20.62	-40.2	-41.1	23.1	0.00e+00	0	41	0	1042284544	54	5808
2026-01-21 13:22:27.30	137.72	20.53	-40.3	-41.2	23.4	0.00e+00	0	41	0	1044381696	54	5858
2026-01-21 13:22:28.31	137.90	20.43	-40.3	-41.3	23.4	0.00e+00	0	41	0	1046478848	54	5903
2026-01-21 13:22:29.32	138.09	20.34	-40.1	-41.0	23.4	0.00e+00	0	41	0	1048576000	54	5754
2026-01-21 13:22:30.33	138.27	20.25	-40.1	-41.0	23.0	0.00e+00	0	41	0	1050673152	54	5731
2026-01-21 13:22:31.33	138.45	20.15	-40.1	-41.0	23.6	0.00e+00	0	41	0	1051721728	54	5726
2026-01-21 13:22:32.34	138.63	20.06	-40.0	-40.9	23.6	0.00e+00	0	41	0	1053818880	54	5680
2026-01-21 13:22:33.35	138.81	19.97	-39.8	-40.7	23.8	0.00e+00	0	41	0	1055916032	54	5540
2026-01-21 13:22:34.36	138.99	19.87	-39.9	-40.8	23.8	0.00e+00	0	41	0	1058013184	52	6295
2026-01-21 13:22:35.37	139.16	19.78	-39.8	-40.7	23.9	0.00e+00	0	41	0	1060110336	52	6185
2026-01-21 13:22:36.38	139.34	19.69	-39.6	-40.5	24.0	0.00e+00	0	41	0	1061158912	52	6079
2026-01-21 13:22:37.38	139.51	19.59	-39.7	-40.6	23.9	0.00e+00	0	41	0	1063256064	52	6164
2026-01-21 13:22:38.40	139.69	19.50	-39.9	-40.8	23.8	0.00e+00	0	41	0	1065353216	52	6295
2026-01-21 13:22:39.41	139.86	19.41	-40.0	-40.9	23.7	0.00e+00	0	41	0	1067450368	52	6326
2026-01-21 13:22:40.41	140.03	19.31	-40.0	-40.9	23.6	0.00e+00	0	41	0	1069547520	52	6320
2026-01-21 13:22:41.42	140.20	19.22	-40.0	-40.9	23.7	0.00e+00	0	41	0	1070596096	52	6355
2026-01-21 13:22:42.43	140.37	19.13	-40.0	-40.9	23.7	0.00e+00	0	41	0	1072693248	52	6372
2026-01-21 13:22:43.44	140.54	19.04	-40.0	-40.9	23.7	0.00e+00	0	41	0	1074790400	52	6377
2026-01-21 13:22:44.45	140.71	18.94	-40.0	-40.9	23.5	0.00e+00	0	41	0	1076887552	52	6368
2026-01-21 13:22:45.46	140.88	18.85	-39.9	-40.8	23.7	0.00e+00	0	41	0	1078984704	52	6250
2026-01-21 13:22:46.47	141.04	18.76	-39.7	-40.6	23.9	0.00e+00	0	41	0	1080033280	52	6153
2026-01-21 13:22:47.48	141.21	18.67	-40.0	-40.9	23.6	0.00e+00	0	41	0	1082130432	52	6345
2026-01-21 13:22:48.49	141.37	18.57	-39.8	-40.7	23.8	0.00e+00	0	41	0	1084227584	52	6226
2026-01-21 13:22:49.50	141.54	18.48	-39.7	-40.6	23.8	0.00e+00	0	41	0	1086324736	52	6134
2026-01-21 13:22:50.51	141.70	18.39	-39.8	-40.7	23.8	0.00e+00	0	41	0	1088421888	52	6187
2026-01-21 13:22:51.52	141.86	18.30	-39.8	-40.7	23.8	0.00e+00	0	41	0	1089470464	52	6232
2026-01-21 13:22:52.53	142.02	18.21	-40.1	-41.0	23.5	0.00e+00	0	41	0	1091567616	52	6415
2026-01-21 13:22:53.54	142.18	18.12	-40.4	-41.3	23.3	0.00e+00	0	41	0	1093664768	52	6672
2026-01-21 13:22:54.55	142.34	18.02	-40.4	-41.3	23.2	0.00e+00	0	41	0	1095761920	52	6690
2026-01-21 13:22:55.56	142.50	17.93	-40.6	-41.5	23.0	0.00e+00	0	41	0	1097859072	52	6840
2026-01-21 13:22:56.57	142.65	17.84	-40.7	-41.7	22.9	0.00e+00	0	41	0	1098907648	52	6948
2026-01-21 13:22:57.58	142.81	17.75	-40.5	-41.5	23.1	0.00e+00	0	41	0	1101004800	54	6039
2026-01-21 13:22:58.59	142.96	17.66	-40.5	-41.4	23.1	0.00e+00	0	41	0	1103101952	54	6023
2026-01-21 13:22:59.60	143.12	17.57	-40.4	-41.4	23.0	0.00e+00	0	41	0	1105199104	54	5999
2026-01-21 13:23:00.61	143.27	17.48	-40.4	-41.4	23.2	0.00e+00	0	41	0	1107296256	54	5975
2026-01-21 13:23:01.61	143.42	17.39	-40.5	-41.5	23.0	0.00e+00	0	41	0	1109393408	54	6072
2026-01-21 13:23:02.62	143.57	17.30	-40.5	-41.5	23.1	0.00e+00	0	41	0	1110441984	54	6060
2026-01-21 13:23:03.63	143.72	17.21	-40.5	-41.5	23.1	0.00e+00	0	41	0	1112539136	54	6069
2026-01-21 13:23:04.64	143.87	17.12	-40.7	-41.7	23.0	0.00e+00	0	41	0	1114636288	54	6200
2026-01-21 13:23:05.65	144.02	17.03	-40.7	-41.6	22.8	0.00e+00	0	41	0	1116733440	54	6170
2026-01-21 13:23:06.67	144.17	16.94	-40.8	-41.8	22.7	0.00e+00	0	41	0	1118830592	54	6268
2026-01-21 13:23:07.68	144.32	16.85	-40.7	-41.7	22.8	0.00e+00	0	41	0	1119879168	54	6228
2026-01-21 13:23:08.69	144.46	16.76	-40.7	-41.7	22.9	0.00e+00	0	41	0	1121976320	54	6192
2026-01-21 13:23:09.70	144.61	16.67	-40.6	-41.6	22.9	0.00e+00	0	41	0	1124073472	54	6149
2026-01-21 13:23:10.71	144.75	16.58	-40.7	-41.7	22.8	0.00e+00	0	41	0	1126170624	54	6199
2026-01-21 13:23:11.72	144.90	16.49	-40.8	-41.8	22.8	0.00e+00	0	41	0	1128267776	54	6275
2026-01-21 13:23:12.73	145.04	16.40	-41.0	-42.0	22.5	0.00e+00	0	41	0	1129316352	54	6456
2026-01-21 13:23:13.74	145.18	16.32	-41.0	-42.0	22.5	0.00e+00	0	41	0	1131413504	54	6427
2026-01-21 13:23:14.75	145.32	16.23	-41.2	-42.3	22.4	0.00e+00	0	41	0	1133510656	54	6632
2026-01-21 13:23:15.76	145.46	16.14	-41.3	-42.4	22.3	0.00e+00	0	41	0	1135607808	54	6700
2026-01-21 13:23:16.76	145.60	16.05	-41.4	-42.5	22.2	0.00e+00	0	41	0	1137704960	54	6808
2026-01-21 13:23:17.77	145.74	15.96	-41.5	-42.6	22.0	0.00e+00	0	41	0	1138753536	54	6915
2026-01-21 13:23:18.78	145.88	15.88	-41.6	-42.7	21.8	0.00e+00	0	41	0	1140850688	54	7006
2026-01-21 13:23:19.79	146.01	15.79	-41.7	-42.8	21.8	0.00e+00	0	41	0	1142947840	54	7067
2026-01-21 13:23:20.80	146.15	15.70	-41.7	-42.8	21.9	0.00e+00	0	41	0	1145044992	54	7021
2026-01-21 13:23:21.81	146.29	15.61	-41.7	-42.8	21.8	0.00e+00	0	41	0	1147142144	56	6299
2026-01-21 13:23:22.82	146.42	15.53	-41.7	-42.8	21.8	0.00e+00	0	41	0	1148190720	56	6308
2026-01-21 13:23:23.83	146.56	15.44	-42.0	-43.1	21.6	0.00e+00	0	41	0	1150287872	56	6527
2026-01-21 13:23:24.84	146.69	15.35	-41.9	-43.1	21.6	0.00e+00	0	41	0	1152385024	56	6485
2026-01-21 13:23:25.85	146.82	15.27	-42.0	-43.1	21.6	0.00e+00	0	41	0	1154482176	56	6520
2026-01-21 13:23:26.86	146.95	15.18	-42.1	-43.2	21.5	0.00e+00	0	41	0	1156579328	56	6587
2026-01-21 13:23:27.87	147.08	15.09	-41.8	-42.9	21.7	0.00e+00	0	41	0	1157627904	56	6367
2026-01-21 13:23:28.88	147.22	15.01	-41.8	-42.9	21.8	0.00e+00	0	41	0	1159725056	56	6351
2026-01-21 13:23:29.89	147.35	14.92	-41.6	-42.7	22.0	0.00e+00	0	41	0	1161822208	56	6199
2026-01-21 13:23:30.90	147.47	14.83	-41.4	-42.5	22.1	0.00e+00	0	41	0	1163919360	56	6071
2026-01-21 13:23:31.91	147.60	14.75	-41.1	-42.2	22.4	0.00e+00	0	41	0	1166016512	56	5830
2026-01-21 13:23:32.92	147.73	14.66	-41.1	-42.1	22.4	0.00e+00	0	41	0	1167065088	56	5824
2026-01-21 13:23:33.93	147.86	14.58	-41.0	-42.1	22.5	0.00e+00	0	41	0	1169162240	56	5767
2026-01-21 13:23:34.94	147.98	14.49	-41.2	-42.2	22.4	0.00e+00	0	41	0	1171259392	56	5895
2026-01-21 13:23:35.95	148.11	14.41	-41.1	-42.1	22.4	0.00e+00	0	41	0	1173356544	56	5807
2026-01-21 13:23:36.96	148.23	14.32	-41.5	-42.5	22.1	0.00e+00	0	41	0	1175453696	56	6083
2026-01-21 13:23:37.97	148.36	14.24	-41.4	-42.5	22.1	0.00e+00	0	41	0	1177550848	56	6081
2026-01-21 13:23:38.98	148.48	14.15	-41.6	-42.7	21.9	0.00e+00	0	41	0	1178599424	56	6187
2026-01-21 13:23:40.00	148.61	14.07	-41.9	-43.0	21.5	0.00e+00	0	41	0	1180696576	56	6450
2026-01-21 13:23:41.01	148.73	13.99	-41.9	-43.0	21.6	0.00e+00	0	41	0	1182793728	56	6433
2026-01-21 13:23:42.02	148.85	13.90	-42.1	-43.2	21.4	0.00e+00	0	41	0	1184890880	56	6611
2026-01-21 13:23:43.02	148.97	13.82	-42.1	-43.2	21.4	0.00e+00	0	41	0	1186988032	56	6612
2026-01-21 13:23:44.03	149.09	13.73	-41.9	-43.0	21.6	0.00e+00	0	41	0	1188036608	56	6435
2026-01-21 13:23:45.04	149.21	13.65	-41.7	-42.8	21.8	0.00e+00	0	41	0	1190133760	56	6259
2026-01-21 13:23:46.05	149.33	13.57	-41.5	-42.6	22.0	0.00e+00	0	41	0	1192230912	56	6140
2026-01-21 13:23:47.06	149.45	13.49	-41.7	-42.8	21.8	0.00e+00	0	41	0	1194328064	56	6272
2026-01-21 13:23:48.07	149.56	13.40	-41.2	-42.2	22.4	0.00e+00	0	41	0	1196425216	56	5887
2026-01-21 13:23:49.08	149.68	13.32	-41.0	-42.1	22.4	0.00e+00	0	41	0	1197473792	56	5769
2026-01-21 13:23:50.10	149.80	13.24	-41.4	-42.4	22.1	0.00e+00	0	41	0	1199570944	56	6020
2026-01-21 13:23:51.10	149.91	13.15	-41.7	-42.8	21.8	0.00e+00	0	41	0	1201668096	56	6264
2026-01-21 13:23:52.11	150.03	13.07	-41.5	-42.6	22.0	0.00e+00	0	41	0	1203765248	56	6112
2026-01-21 13:23:53.12	150.14	12.99	-41.6	-42.6	22.0	0.00e+00	0	41	0	1205862400	56	6170
2026-01-21 13:23:54.13	150.25	12.91	-41.5	-42.6	21.9	0.00e+00	0	41	0	1206910976	56	6172
2026-01-21 13:23:55.14	150.37	12.83	-41.6	-42.7	21.8	0.00e+00	0	41	0	1209008128	56	6238
2026-01-21 13:23:56.15	150.48	12.75	-41.8	-43.0	21.6	0.00e+00	0	41	0	1211105280	56	6397
2026-01-21 13:23:57.16	150.59	12.66	-41.9	-43.1	21.4	0.00e+00	0	41	0	1213202432	56	6504
2026-01-21 13:23:58.17	150.70	12.58	-42.1	-43.3	21.3	0.00e+00	0	41	0	1215299584	56	6668
2026-01-21 13:23:59.18	150.82	12.50	-41.9	-43.1	21.5	0.00e+00	0	41	0	1216348160	56	6498
