passes_logs/2026/01/21/R4.6S_Anadyr/R4.6S_Anadyr__20260121_193122_SUOMI_NPP_rec.log

#Pass ID: 20260121_193122_SUOMI NPP
#Satellite: SUOMI NPP
#Configuration: NPP
#almurnet v.1.7.20251203
#Start time: 2026-01-21 19:31:26

#Version: 2.2.20231116
#Station: R4.6S_Anadyr
#Location: 177.4865 lon 64.73178 lat
#TLE: 1 37849U 11061A   26020.95430537  .00000198  00000+0  11470-3 0  9999
#TLE: 2 37849  98.7819 322.9518 0002315  53.3069 306.8320 14.19527555737555

#Time	Az	El	Level	Level2	SNR	BER	BlckErr	Temp	State	Recorded	gain1	gain2
2026-01-21 19:31:26.01	53.25	0.15	-51.4	-65.2	3.3	1.54e+00	0	40	0	0	60	65425
2026-01-21 19:31:27.02	53.17	0.20	-51.3	-66.5	3.6	1.51e+00	0	40	104	0	60	76626
2026-01-21 19:31:28.03	53.10	0.25	-51.3	-66.5	3.6	1.51e+00	0	40	104	0	60	76091
2026-01-21 19:31:29.04	53.02	0.30	-51.2	-66.5	3.6	1.51e+00	0	40	104	0	60	76154
2026-01-21 19:31:30.05	52.94	0.34	-51.2	-66.4	3.6	1.51e+00	0	40	104	0	60	75630
2026-01-21 19:31:31.06	52.86	0.39	-51.1	-66.3	3.6	1.51e+00	0	40	104	0	60	74901
2026-01-21 19:31:32.07	52.79	0.44	-51.1	-66.3	3.6	1.51e+00	0	40	104	0	60	74633
2026-01-21 19:31:33.08	52.71	0.49	-51.0	-66.3	3.6	1.51e+00	0	40	104	0	60	75033
2026-01-21 19:31:34.09	52.63	0.54	-51.0	-66.3	3.6	1.51e+00	0	40	104	0	60	74561
2026-01-21 19:31:35.10	52.55	0.59	-51.1	-66.3	3.6	1.51e+00	0	40	104	0	60	74232
2026-01-21 19:31:36.10	52.47	0.64	-51.1	-66.3	3.6	1.51e+00	0	40	104	0	60	74367
2026-01-21 19:31:37.11	52.39	0.69	-51.1	-66.3	3.6	1.51e+00	0	40	104	0	60	74385
2026-01-21 19:31:38.12	52.31	0.74	-50.8	-66.2	3.6	1.51e+00	0	40	104	0	60	73940
2026-01-21 19:31:39.13	52.23	0.79	-50.9	-66.2	3.6	1.51e+00	0	40	104	0	60	73386
2026-01-21 19:31:40.14	52.15	0.84	-50.9	-66.1	3.6	1.51e+00	0	40	104	0	60	73150
2026-01-21 19:31:41.15	52.07	0.89	-50.8	-66.0	3.6	1.51e+00	0	40	104	0	60	72526
2026-01-21 19:31:42.16	51.99	0.93	-50.8	-66.0	3.6	1.51e+00	0	40	104	0	60	72151
2026-01-21 19:31:43.17	51.91	0.98	-50.7	-65.9	3.6	1.51e+00	0	40	104	0	60	71440
2026-01-21 19:31:44.18	51.83	1.03	-50.6	-65.8	3.6	1.51e+00	0	40	104	0	60	70292
2026-01-21 19:31:45.19	51.75	1.08	-50.5	-65.6	3.6	1.51e+00	0	40	104	0	60	69221
2026-01-21 19:31:46.20	51.67	1.13	-50.3	-65.5	3.6	1.51e+00	0	40	104	0	60	68132
2026-01-21 19:31:47.21	51.58	1.18	-50.1	-65.3	3.6	1.51e+00	0	40	104	0	60	66354
2026-01-21 19:31:48.22	51.50	1.23	-49.4	-64.7	3.6	1.51e+00	0	40	104	0	60	61756
2026-01-21 19:31:49.23	51.42	1.28	-49.2	-64.4	3.6	1.51e+00	0	40	104	0	60	60168
2026-01-21 19:31:50.24	51.34	1.33	-49.2	-64.5	3.6	1.51e+00	0	40	104	0	60	60603
2026-01-21 19:31:51.25	51.25	1.38	-49.2	-64.5	3.6	1.51e+00	0	40	104	0	60	60400
2026-01-21 19:31:52.26	51.17	1.43	-49.2	-64.5	3.6	1.51e+00	0	40	104	0	60	60362
2026-01-21 19:31:53.27	51.08	1.48	-49.2	-64.4	3.6	1.51e+00	0	40	104	0	60	60257
2026-01-21 19:31:54.28	51.00	1.53	-49.2	-64.5	3.6	1.51e+00	0	40	104	0	60	60964
2026-01-21 19:31:55.29	50.92	1.58	-49.2	-64.5	3.6	1.51e+00	0	40	104	0	60	60509
2026-01-21 19:31:56.30	50.83	1.63	-49.2	-64.5	3.6	1.51e+00	0	40	104	0	60	60367
2026-01-21 19:31:57.31	50.75	1.68	-49.2	-64.4	3.6	1.51e+00	0	40	104	0	60	60172
2026-01-21 19:31:58.32	50.66	1.73	-49.2	-64.4	3.6	1.51e+00	0	40	104	0	60	60091
2026-01-21 19:31:59.33	50.58	1.78	-49.3	-64.5	3.6	1.51e+00	0	40	104	0	60	60695
2026-01-21 19:32:00.34	50.49	1.83	-49.2	-64.4	3.6	1.51e+00	0	41	104	0	60	60271
2026-01-21 19:32:01.35	50.40	1.88	-49.2	-64.4	3.6	1.51e+00	0	40	104	0	60	60139
2026-01-21 19:32:02.36	50.32	1.93	-49.2	-64.4	3.6	1.51e+00	0	41	104	0	60	60029
2026-01-21 19:32:03.37	50.23	1.98	-49.2	-64.4	3.5	1.51e+00	0	40	104	0	60	60266
2026-01-21 19:32:04.38	50.14	2.03	-49.2	-64.4	3.6	1.51e+00	0	41	104	0	60	60094
2026-01-21 19:32:05.39	50.05	2.08	-49.2	-64.4	3.6	1.51e+00	0	40	104	0	60	59766
2026-01-21 19:32:06.40	49.97	2.13	-49.2	-64.3	3.6	1.51e+00	0	40	104	0	60	59621
2026-01-21 19:32:07.41	49.88	2.18	-49.2	-64.2	3.6	1.51e+00	0	41	104	0	60	58890
2026-01-21 19:32:08.42	49.79	2.23	-49.2	-64.2	3.6	1.51e+00	0	40	104	0	60	58346
2026-01-21 19:32:09.43	49.70	2.28	-49.2	-64.3	3.6	1.51e+00	0	41	104	0	60	58996
2026-01-21 19:32:10.44	49.61	2.33	-49.2	-64.2	3.6	1.51e+00	0	41	104	0	60	58878
2026-01-21 19:32:11.45	49.52	2.38	-49.2	-64.4	3.6	1.51e+00	0	41	104	0	60	60236
2026-01-21 19:32:12.46	49.43	2.43	-49.2	-64.5	3.6	1.51e+00	0	41	104	0	60	60494
2026-01-21 19:32:13.47	49.34	2.48	-49.2	-64.4	3.6	1.51e+00	0	41	104	0	60	60150
2026-01-21 19:32:14.48	49.25	2.53	-49.2	-64.3	3.6	1.51e+00	0	41	104	0	60	59559
2026-01-21 19:32:15.49	49.16	2.58	-49.2	-64.4	3.6	1.51e+00	0	41	104	0	60	59908
2026-01-21 19:32:16.50	49.07	2.63	-49.2	-64.4	3.6	1.51e+00	0	41	104	0	60	60230
2026-01-21 19:32:17.51	48.98	2.68	-49.2	-64.3	3.6	1.51e+00	0	41	104	0	60	59624
2026-01-21 19:32:18.52	48.89	2.73	-49.2	-63.9	3.6	1.51e+00	0	41	104	0	60	56746
2026-01-21 19:32:19.53	48.80	2.78	-49.1	-63.5	3.6	1.51e+00	0	41	104	0	60	53935
2026-01-21 19:32:20.54	48.70	2.83	-49.2	-63.7	3.6	1.51e+00	0	41	104	0	60	55423
2026-01-21 19:32:21.55	48.61	2.88	-49.2	-64.2	3.6	1.51e+00	0	41	104	0	60	58626
2026-01-21 19:32:22.56	48.52	2.93	-49.1	-63.4	3.6	1.51e+00	0	41	104	0	60	53647
2026-01-21 19:32:23.57	48.43	2.99	-49.0	-61.0	4.2	1.50e+00	10	41	104	0	60	40510
2026-01-21 19:32:24.58	48.33	3.04	-48.8	-57.0	4.7	6.29e-01	92	41	0	0	60	25611
2026-01-21 19:32:25.59	48.24	3.09	-49.5	-64.2	3.6	1.51e+00	0	41	104	0	60	58791
2026-01-21 19:32:26.60	48.14	3.14	-49.4	-64.3	3.6	1.51e+00	0	41	104	0	60	59515
2026-01-21 19:32:27.61	48.05	3.19	-46.0	-49.1	14.9	3.33e-02	0	41	0	0	60	10276
2026-01-21 19:32:28.62	47.95	3.24	-45.1	-47.6	15.7	0.00e+00	90	41	0	2097152	60	8647
2026-01-21 19:32:29.63	47.86	3.29	-49.2	-64.1	3.6	1.51e+00	0	41	104	2097152	60	57948
2026-01-21 19:32:30.64	47.76	3.34	-45.5	-48.3	14.6	6.93e-01	0	41	104	2097152	60	9375
2026-01-21 19:32:31.65	47.67	3.39	-45.3	-47.9	15.7	0.00e+00	65	41	0	3145728	60	9015
2026-01-21 19:32:32.66	47.57	3.44	-45.1	-47.5	16.0	0.00e+00	0	41	0	5242880	60	8617
2026-01-21 19:32:33.67	47.47	3.49	-44.9	-47.2	16.4	0.00e+00	56	41	0	7340032	60	8324
2026-01-21 19:32:34.68	47.38	3.54	-45.3	-47.8	15.8	0.00e+00	0	41	0	8388608	60	8860
2026-01-21 19:32:35.70	47.28	3.59	-44.8	-47.0	16.9	0.00e+00	90	41	0	10485760	60	8110
2026-01-21 19:32:36.70	47.18	3.64	-44.6	-46.8	17.0	0.00e+00	0	41	0	12582912	60	7923
2026-01-21 19:32:37.71	47.08	3.69	-44.9	-47.3	16.2	0.00e+00	37	41	0	14680064	60	8341
2026-01-21 19:32:38.72	46.99	3.74	-44.5	-46.7	16.9	0.00e+00	58	41	0	16777216	60	7799
2026-01-21 19:32:39.73	46.89	3.80	-44.8	-47.0	16.5	0.00e+00	0	41	0	17825792	60	8118
2026-01-21 19:32:40.74	46.79	3.85	-44.7	-46.9	16.7	0.00e+00	58	40	0	19922944	60	8038
2026-01-21 19:32:41.75	46.69	3.90	-44.3	-46.3	17.5	0.00e+00	0	40	0	22020096	60	7445
2026-01-21 19:32:42.76	46.59	3.95	-44.0	-45.9	17.7	0.00e+00	92	41	0	24117248	60	7151
2026-01-21 19:32:43.77	46.49	4.00	-44.8	-47.0	16.6	0.00e+00	0	40	0	26214400	60	8137
2026-01-21 19:32:44.78	46.39	4.05	-44.5	-46.6	17.2	0.00e+00	92	40	0	27262976	60	7735
2026-01-21 19:32:45.79	46.29	4.10	-44.7	-46.9	16.8	0.00e+00	14	41	0	29360128	60	8015
2026-01-21 19:32:46.80	46.19	4.15	-44.5	-46.5	17.2	0.00e+00	0	40	0	31457280	60	7655
2026-01-21 19:32:47.81	46.08	4.20	-44.4	-46.4	17.4	0.00e+00	41	41	0	33554432	60	7512
2026-01-21 19:32:48.82	45.98	4.25	-44.0	-45.8	18.0	0.00e+00	0	41	0	35651584	60	7084
2026-01-21 19:32:49.83	45.88	4.30	-44.5	-46.6	17.2	0.00e+00	79	41	0	37748736	60	7723
2026-01-21 19:32:50.84	45.78	4.36	-44.6	-46.7	17.0	0.00e+00	0	41	0	38797312	60	7816
2026-01-21 19:32:51.85	45.67	4.41	-44.4	-46.4	17.4	0.00e+00	68	41	0	40894464	60	7551
2026-01-21 19:32:52.86	45.57	4.46	-45.0	-47.2	17.0	0.00e+00	49	41	0	42991616	60	8275
2026-01-21 19:32:53.87	45.47	4.51	-44.4	-46.4	17.6	0.00e+00	0	41	0	45088768	60	7588
2026-01-21 19:32:54.88	45.36	4.56	-44.2	-46.2	17.7	0.00e+00	56	41	0	47185920	60	7347
2026-01-21 19:32:55.89	45.26	4.61	-44.4	-46.4	17.5	0.00e+00	0	41	0	48234496	60	7564
2026-01-21 19:32:56.90	45.15	4.66	-44.3	-46.3	17.7	0.00e+00	78	41	0	50331648	60	7428
2026-01-21 19:32:57.91	45.05	4.71	-44.4	-46.3	17.6	0.00e+00	0	41	0	52428800	60	7491
2026-01-21 19:32:58.92	44.94	4.76	-44.8	-47.0	17.0	0.00e+00	92	41	0	54525952	60	8056
2026-01-21 19:32:59.93	44.84	4.81	-44.1	-45.9	17.9	0.00e+00	9	41	0	56623104	60	7146
2026-01-21 19:33:00.94	44.73	4.86	-44.3	-46.2	17.8	0.00e+00	0	41	0	57671680	60	7375
2026-01-21 19:33:01.95	44.62	4.92	-44.7	-46.8	17.3	0.00e+00	69	41	0	59768832	60	7874
2026-01-21 19:33:02.96	44.52	4.97	-44.9	-47.1	17.0	0.00e+00	0	41	0	61865984	60	8169
2026-01-21 19:33:03.97	44.41	5.02	-45.0	-47.2	16.8	0.00e+00	66	41	0	63963136	60	8248
2026-01-21 19:33:04.98	44.30	5.07	-44.8	-46.9	17.1	0.00e+00	0	41	0	66060288	60	8003
2026-01-21 19:33:05.99	44.19	5.12	-44.8	-47.0	17.1	0.00e+00	90	41	0	67108864	60	8049
2026-01-21 19:33:07.00	44.08	5.17	-44.6	-46.7	17.5	0.00e+00	9	41	0	69206016	60	7809
2026-01-21 19:33:08.01	43.97	5.22	-44.6	-46.6	17.4	0.00e+00	0	41	0	71303168	60	7710
2026-01-21 19:33:09.02	43.86	5.27	-44.5	-46.5	17.5	0.00e+00	92	41	0	73400320	60	7679
2026-01-21 19:33:10.03	43.75	5.32	-44.1	-45.9	18.0	0.00e+00	0	41	0	75497472	60	7159
2026-01-21 19:33:11.04	43.64	5.37	-44.2	-46.0	18.0	0.00e+00	92	41	0	76546048	60	7247
2026-01-21 19:33:12.05	43.53	5.43	-43.8	-45.6	18.4	0.00e+00	0	41	0	78643200	60	6903
2026-01-21 19:33:13.06	43.42	5.48	-44.1	-45.9	18.1	0.00e+00	92	41	0	80740352	60	7157
2026-01-21 19:33:14.07	43.31	5.53	-44.1	-45.9	18.2	0.00e+00	0	41	0	82837504	60	7136
2026-01-21 19:33:15.08	43.20	5.58	-44.2	-46.1	18.1	0.00e+00	33	41	0	84934656	60	7266
2026-01-21 19:33:16.09	43.09	5.63	-43.6	-45.2	18.8	0.00e+00	87	41	0	85983232	60	6614
2026-01-21 19:33:17.10	42.97	5.68	-43.6	-45.3	18.7	0.00e+00	0	41	0	88080384	60	6621
2026-01-21 19:33:18.11	42.86	5.73	-43.8	-45.5	18.6	0.00e+00	4	41	0	90177536	60	6845
2026-01-21 19:33:19.12	42.75	5.78	-43.6	-45.2	18.7	0.00e+00	0	41	0	92274688	60	6568
2026-01-21 19:33:20.13	42.63	5.83	-43.3	-44.8	19.1	0.00e+00	92	41	0	94371840	60	6280
2026-01-21 19:33:21.14	42.52	5.88	-43.1	-44.6	19.4	0.00e+00	0	41	0	95420416	60	6116
2026-01-21 19:33:22.15	42.40	5.94	-43.0	-44.5	19.5	0.00e+00	29	41	0	97517568	60	6048
2026-01-21 19:33:23.16	42.29	5.99	-43.2	-44.7	19.3	0.00e+00	88	41	0	99614720	60	6197
2026-01-21 19:33:24.18	42.17	6.04	-42.9	-44.3	19.7	0.00e+00	0	41	0	101711872	60	5939
2026-01-21 19:33:25.19	42.05	6.09	-43.1	-44.7	19.4	0.00e+00	0	41	0	103809024	60	6174
2026-01-21 19:33:26.20	41.94	6.14	-43.0	-44.4	19.6	0.00e+00	0	41	0	105906176	60	5997
2026-01-21 19:33:27.21	41.82	6.19	-43.2	-44.7	19.3	0.00e+00	66	41	0	106954752	60	6200
2026-01-21 19:33:28.22	41.70	6.24	-43.4	-44.9	18.9	0.00e+00	0	41	0	109051904	60	6385
2026-01-21 19:33:29.23	41.59	6.29	-43.0	-44.5	19.2	0.00e+00	82	41	0	111149056	60	6076
2026-01-21 19:33:30.24	41.47	6.34	-43.1	-44.6	19.2	0.00e+00	63	41	0	113246208	60	6121
2026-01-21 19:33:31.25	41.35	6.39	-43.0	-44.5	19.6	0.00e+00	0	41	0	115343360	60	6071
2026-01-21 19:33:32.26	41.23	6.45	-42.9	-44.4	19.7	0.00e+00	0	41	0	116391936	60	5990
2026-01-21 19:33:33.27	41.11	6.50	-43.1	-44.6	19.5	0.00e+00	0	41	0	118489088	60	6138
2026-01-21 19:33:34.28	40.99	6.55	-43.2	-44.7	19.5	0.00e+00	87	41	0	120586240	60	6192
2026-01-21 19:33:35.29	40.87	6.60	-43.5	-45.1	19.0	0.00e+00	0	41	0	122683392	60	6516
2026-01-21 19:33:36.30	40.75	6.65	-43.4	-45.0	19.2	0.00e+00	29	41	0	124780544	60	6433
2026-01-21 19:33:37.31	40.63	6.70	-43.4	-45.0	19.2	0.00e+00	0	41	0	125829120	60	6444
2026-01-21 19:33:38.32	40.51	6.75	-43.3	-44.8	19.3	0.00e+00	0	41	0	127926272	60	6273
2026-01-21 19:33:39.33	40.38	6.80	-42.6	-44.1	19.9	0.00e+00	53	41	0	130023424	58	6469
2026-01-21 19:33:40.34	40.26	6.85	-43.2	-44.7	19.4	0.00e+00	0	41	0	132120576	58	6948
2026-01-21 19:33:41.35	40.14	6.90	-43.4	-44.9	19.2	0.00e+00	39	41	0	134217728	58	7164
2026-01-21 19:33:42.36	40.02	6.95	-43.2	-44.7	19.4	0.00e+00	0	41	0	135266304	58	6940
2026-01-21 19:33:43.37	39.89	7.00	-43.0	-44.4	19.6	0.00e+00	91	41	0	137363456	58	6745
2026-01-21 19:33:44.38	39.77	7.05	-43.9	-45.6	18.7	0.00e+00	0	41	0	139460608	60	6866
2026-01-21 19:33:45.39	39.64	7.10	-43.5	-45.1	19.0	0.00e+00	0	41	0	141557760	60	6534
2026-01-21 19:33:46.40	39.52	7.15	-43.5	-45.1	19.1	0.00e+00	89	41	0	143654912	60	6507
2026-01-21 19:33:47.41	39.39	7.20	-43.5	-45.1	19.2	0.00e+00	0	41	0	144703488	60	6478
2026-01-21 19:33:48.42	39.27	7.26	-43.3	-44.8	19.5	0.00e+00	63	41	0	146800640	60	6278
2026-01-21 19:33:49.43	39.14	7.31	-43.6	-45.3	19.0	0.00e+00	31	41	0	148897792	60	6630
2026-01-21 19:33:50.44	39.01	7.36	-43.5	-45.1	19.1	0.00e+00	92	41	0	150994944	60	6519
2026-01-21 19:33:51.45	38.89	7.41	-43.5	-45.1	19.0	0.00e+00	0	41	0	153092096	60	6465
2026-01-21 19:33:52.46	38.76	7.46	-43.4	-44.9	19.3	0.00e+00	0	41	0	154140672	60	6347
2026-01-21 19:33:53.47	38.63	7.51	-43.3	-44.8	19.4	0.00e+00	90	41	0	156237824	60	6276
2026-01-21 19:33:54.48	38.50	7.56	-43.8	-45.4	18.9	0.00e+00	0	41	0	158334976	60	6726
2026-01-21 19:33:55.49	38.37	7.61	-43.9	-45.5	18.7	0.00e+00	65	41	0	160432128	60	6828
2026-01-21 19:33:56.50	38.24	7.66	-43.3	-44.8	19.4	0.00e+00	0	41	0	162529280	60	6316
2026-01-21 19:33:57.51	38.11	7.71	-42.9	-44.3	19.9	0.00e+00	92	41	0	163577856	60	5914
2026-01-21 19:33:58.52	37.98	7.76	-43.2	-44.6	19.7	0.00e+00	0	41	0	165675008	60	6148
2026-01-21 19:33:59.53	37.85	7.81	-43.1	-44.5	19.7	0.00e+00	34	41	0	167772160	60	6069
2026-01-21 19:34:00.54	37.72	7.86	-43.1	-44.6	19.7	0.00e+00	90	41	0	169869312	60	6148
2026-01-21 19:34:01.55	37.59	7.91	-43.3	-44.7	19.5	0.00e+00	0	41	0	171966464	60	6244
2026-01-21 19:34:02.56	37.46	7.96	-42.9	-44.3	19.9	0.00e+00	33	41	0	174063616	60	5942
2026-01-21 19:34:03.57	37.32	8.01	-42.9	-44.3	19.9	0.00e+00	0	41	0	175112192	60	5905
2026-01-21 19:34:04.58	37.19	8.06	-42.8	-44.1	19.9	0.00e+00	85	41	0	177209344	58	6524
2026-01-21 19:34:05.59	37.06	8.11	-42.7	-44.0	20.1	0.00e+00	0	41	0	179306496	58	6433
2026-01-21 19:34:06.60	36.92	8.16	-42.7	-44.0	20.1	0.00e+00	92	41	0	181403648	58	6445
2026-01-21 19:34:07.61	36.79	8.21	-42.8	-44.2	19.9	0.00e+00	67	41	0	183500800	58	6583
2026-01-21 19:34:08.62	36.65	8.26	-43.0	-44.5	19.8	0.00e+00	0	41	0	184549376	58	6799
2026-01-21 19:34:09.63	36.52	8.30	-43.0	-44.5	19.7	0.00e+00	6	41	0	186646528	58	6808
2026-01-21 19:34:10.64	36.38	8.35	-43.3	-44.8	19.4	0.00e+00	0	41	0	188743680	58	7051
2026-01-21 19:34:11.65	36.24	8.40	-43.1	-44.6	19.6	0.00e+00	0	41	0	190840832	58	6853
2026-01-21 19:34:12.66	36.11	8.45	-43.3	-44.8	19.4	0.00e+00	0	41	0	192937984	58	7038
2026-01-21 19:34:13.67	35.97	8.50	-43.4	-45.0	19.3	0.00e+00	0	41	0	193986560	58	7185
2026-01-21 19:34:14.68	35.83	8.55	-43.4	-45.0	19.1	0.00e+00	0	41	0	196083712	58	7230
2026-01-21 19:34:15.69	35.69	8.60	-43.8	-45.4	19.0	0.00e+00	0	41	0	198180864	58	7588
2026-01-21 19:34:16.70	35.55	8.65	-43.7	-45.3	19.0	0.00e+00	92	41	0	200278016	60	6681
2026-01-21 19:34:17.71	35.41	8.70	-43.5	-45.1	19.2	0.00e+00	0	41	0	202375168	60	6533
2026-01-21 19:34:18.72	35.27	8.75	-43.5	-45.1	19.4	0.00e+00	0	41	0	203423744	60	6520
2026-01-21 19:34:19.73	35.13	8.80	-43.4	-44.9	19.4	0.00e+00	0	41	0	205520896	60	6347
2026-01-21 19:34:20.74	34.99	8.85	-43.3	-44.7	19.5	0.00e+00	0	41	0	207618048	60	6244
2026-01-21 19:34:21.75	34.85	8.89	-43.0	-44.5	19.8	0.00e+00	0	41	0	209715200	60	6040
2026-01-21 19:34:22.76	34.71	8.94	-42.9	-44.4	19.9	0.00e+00	0	41	0	211812352	60	5969
2026-01-21 19:34:23.77	34.57	8.99	-43.1	-44.6	19.7	0.00e+00	57	41	0	212860928	60	6148
2026-01-21 19:34:24.78	34.42	9.04	-43.0	-44.5	19.8	0.00e+00	0	41	0	214958080	60	6064
2026-01-21 19:34:25.79	34.28	9.09	-43.1	-44.6	19.8	0.00e+00	92	41	0	217055232	60	6125
2026-01-21 19:34:26.80	34.14	9.14	-42.6	-44.0	20.2	0.00e+00	0	41	0	219152384	58	6405
2026-01-21 19:34:27.81	33.99	9.18	-42.7	-44.1	20.1	0.00e+00	0	41	0	221249536	58	6491
2026-01-21 19:34:28.82	33.85	9.23	-42.4	-43.7	20.4	0.00e+00	0	41	0	222298112	58	6224
2026-01-21 19:34:29.83	33.70	9.28	-42.2	-43.5	20.6	0.00e+00	0	41	0	224395264	58	6047
2026-01-21 19:34:30.84	33.56	9.33	-42.2	-43.5	20.6	0.00e+00	92	41	0	226492416	58	6078
2026-01-21 19:34:31.85	33.41	9.38	-42.2	-43.5	20.6	0.00e+00	0	41	0	228589568	58	6073
2026-01-21 19:34:32.86	33.26	9.43	-42.3	-43.6	20.5	0.00e+00	92	41	0	230686720	58	6162
2026-01-21 19:34:33.87	33.12	9.47	-42.2	-43.5	20.5	0.00e+00	0	41	0	231735296	58	6084
2026-01-21 19:34:34.88	32.97	9.52	-41.9	-43.1	21.0	0.00e+00	0	41	0	233832448	58	5792
2026-01-21 19:34:35.89	32.82	9.57	-42.1	-43.3	20.8	0.00e+00	0	41	0	235929600	58	5921
2026-01-21 19:34:36.90	32.67	9.62	-42.0	-43.2	20.6	0.00e+00	0	41	0	238026752	58	5896
2026-01-21 19:34:37.91	32.52	9.66	-41.8	-43.0	21.1	0.00e+00	18	41	0	240123904	56	6430
2026-01-21 19:34:38.92	32.37	9.71	-41.8	-43.0	21.1	0.00e+00	0	41	0	242221056	56	6422
2026-01-21 19:34:39.93	32.22	9.76	-41.6	-42.8	21.2	0.00e+00	65	41	0	243269632	56	6263
2026-01-21 19:34:40.94	32.07	9.80	-41.6	-42.7	21.4	0.00e+00	0	41	0	245366784	56	6239
2026-01-21 19:34:41.95	31.92	9.85	-41.5	-42.6	21.6	0.00e+00	0	41	0	247463936	56	6126
2026-01-21 19:34:42.96	31.77	9.90	-41.5	-42.6	21.5	0.00e+00	0	41	0	249561088	56	6151
2026-01-21 19:34:43.97	31.62	9.95	-41.2	-42.3	21.7	0.00e+00	0	41	0	251658240	56	5921
2026-01-21 19:34:44.98	31.46	9.99	-41.3	-42.4	21.7	0.00e+00	64	41	0	252706816	56	5966
2026-01-21 19:34:45.98	31.31	10.04	-41.4	-42.5	21.6	0.00e+00	0	41	0	254803968	56	6072
2026-01-21 19:34:46.99	31.16	10.08	-41.5	-42.6	21.5	0.00e+00	92	41	0	256901120	56	6132
2026-01-21 19:34:48.00	31.01	10.13	-41.5	-42.7	21.4	0.00e+00	0	41	0	258998272	56	6216
2026-01-21 19:34:49.01	30.85	10.18	-41.5	-42.7	21.4	0.00e+00	1	41	0	261095424	56	6209
2026-01-21 19:34:50.02	30.70	10.22	-41.4	-42.5	21.5	0.00e+00	0	41	0	262144000	56	6099
2026-01-21 19:34:51.03	30.54	10.27	-41.7	-43.0	21.1	0.00e+00	0	41	0	264241152	56	6392
2026-01-21 19:34:52.04	30.38	10.31	-41.6	-42.9	21.3	0.00e+00	10	41	0	266338304	56	6323
2026-01-21 19:34:53.05	30.23	10.36	-41.8	-43.0	21.0	0.00e+00	0	41	0	268435456	56	6408
2026-01-21 19:34:54.06	30.07	10.41	-41.7	-42.9	21.2	0.00e+00	92	41	0	270532608	56	6327
2026-01-21 19:34:55.07	29.91	10.45	-41.7	-42.9	21.2	0.00e+00	0	41	0	271581184	56	6384
2026-01-21 19:34:56.08	29.75	10.50	-41.6	-42.8	21.2	0.00e+00	22	41	0	273678336	56	6258
2026-01-21 19:34:57.09	29.60	10.54	-41.7	-42.9	21.3	0.00e+00	0	41	0	275775488	56	6357
2026-01-21 19:34:58.10	29.44	10.59	-41.7	-42.8	21.3	0.00e+00	0	41	0	277872640	56	6302
2026-01-21 19:34:59.11	29.28	10.63	-41.3	-42.4	21.7	0.00e+00	0	41	0	279969792	56	6014
2026-01-21 19:35:00.12	29.12	10.68	-41.4	-42.6	21.5	0.00e+00	0	41	0	281018368	56	6131
2026-01-21 19:35:01.13	28.96	10.72	-41.0	-42.1	21.8	0.00e+00	65	41	0	283115520	56	5809
2026-01-21 19:35:02.14	28.80	10.77	-41.2	-42.3	21.8	0.00e+00	0	41	0	285212672	56	5935
2026-01-21 19:35:03.15	28.63	10.81	-40.6	-41.6	22.3	0.00e+00	88	41	0	287309824	54	6162
2026-01-21 19:35:04.16	28.47	10.86	-40.6	-41.6	22.3	0.00e+00	0	41	0	289406976	54	6135
2026-01-21 19:35:05.17	28.31	10.90	-40.3	-41.3	22.5	0.00e+00	0	41	0	290455552	54	5919
2026-01-21 19:35:06.18	28.15	10.94	-40.6	-41.6	22.3	0.00e+00	17	41	0	292552704	54	6117
2026-01-21 19:35:07.19	27.98	10.99	-40.3	-41.3	22.6	0.00e+00	0	41	0	294649856	54	5944
2026-01-21 19:35:08.20	27.82	11.03	-40.4	-41.4	22.4	0.00e+00	14	41	0	296747008	54	6021
2026-01-21 19:35:09.21	27.65	11.07	-40.5	-41.6	22.3	0.00e+00	0	41	0	298844160	54	6106
2026-01-21 19:35:10.23	27.49	11.12	-40.6	-41.7	22.3	0.00e+00	78	41	0	300941312	54	6190
2026-01-21 19:35:11.24	27.32	11.16	-40.7	-41.7	22.1	0.00e+00	0	41	0	301989888	54	6245
2026-01-21 19:35:12.25	27.16	11.20	-41.0	-42.1	21.8	0.00e+00	0	41	0	304087040	54	6535
2026-01-21 19:35:13.26	26.99	11.25	-40.7	-41.7	22.1	0.00e+00	0	41	0	306184192	54	6227
2026-01-21 19:35:14.27	26.82	11.29	-40.5	-41.5	22.4	0.00e+00	0	41	0	308281344	54	6085
2026-01-21 19:35:15.28	26.65	11.33	-40.3	-41.3	22.5	0.00e+00	28	41	0	310378496	54	5945
2026-01-21 19:35:16.29	26.49	11.37	-40.2	-41.2	22.6	0.00e+00	0	41	0	311427072	54	5873
2026-01-21 19:35:17.30	26.32	11.42	-40.0	-41.0	22.8	0.00e+00	37	41	0	313524224	54	5700
2026-01-21 19:35:18.31	26.15	11.46	-40.1	-41.1	22.7	0.00e+00	0	41	0	315621376	54	5773
2026-01-21 19:35:19.32	25.98	11.50	-40.1	-41.1	22.7	0.00e+00	0	41	0	317718528	54	5795
2026-01-21 19:35:20.33	25.81	11.54	-40.1	-41.1	22.7	0.00e+00	0	41	0	319815680	54	5788
2026-01-21 19:35:21.34	25.64	11.58	-40.0	-40.9	22.8	0.00e+00	0	41	0	320864256	54	5671
2026-01-21 19:35:22.35	25.47	11.63	-40.2	-41.2	22.7	0.00e+00	36	41	0	322961408	54	5856
2026-01-21 19:35:23.36	25.30	11.67	-40.2	-41.2	22.5	0.00e+00	0	41	0	325058560	54	5882
2026-01-21 19:35:24.37	25.12	11.71	-40.5	-41.6	22.4	0.00e+00	35	41	0	327155712	54	6106
2026-01-21 19:35:25.38	24.95	11.75	-40.4	-41.5	22.4	0.00e+00	0	41	0	329252864	54	6047
2026-01-21 19:35:26.39	24.78	11.79	-40.7	-41.8	22.1	0.00e+00	0	41	0	330301440	54	6300
2026-01-21 19:35:27.40	24.60	11.83	-40.7	-41.8	22.1	0.00e+00	0	41	0	332398592	54	6291
2026-01-21 19:35:28.41	24.43	11.87	-40.7	-41.8	21.9	0.00e+00	0	41	0	334495744	54	6263
2026-01-21 19:35:29.42	24.26	11.91	-40.7	-41.7	22.0	0.00e+00	16	41	0	336592896	54	6227
2026-01-21 19:35:30.43	24.08	11.95	-40.9	-42.0	22.0	0.00e+00	33	41	0	338690048	54	6405
2026-01-21 19:35:31.44	23.91	11.99	-41.0	-42.0	22.0	0.00e+00	66	41	0	339738624	54	6455
2026-01-21 19:35:32.45	23.73	12.03	-40.8	-41.8	22.1	0.00e+00	0	41	0	341835776	54	6303
2026-01-21 19:35:33.46	23.55	12.07	-40.8	-41.9	22.2	0.00e+00	90	41	0	343932928	54	6361
2026-01-21 19:35:34.47	23.38	12.11	-40.6	-41.6	22.3	0.00e+00	0	41	0	346030080	54	6135
2026-01-21 19:35:35.48	23.20	12.15	-40.6	-41.6	22.3	0.00e+00	0	41	0	348127232	54	6144
2026-01-21 19:35:36.49	23.02	12.18	-40.7	-41.8	22.3	0.00e+00	64	41	0	350224384	54	6271
2026-01-21 19:35:37.50	22.84	12.22	-40.9	-41.9	22.0	0.00e+00	0	41	0	351272960	54	6369
2026-01-21 19:35:38.51	22.67	12.26	-41.2	-42.3	21.7	0.00e+00	77	41	0	353370112	54	6658
2026-01-21 19:35:39.52	22.49	12.30	-41.4	-42.5	21.7	0.00e+00	0	41	0	355467264	54	6842
2026-01-21 19:35:40.53	22.31	12.34	-41.2	-42.4	21.8	0.00e+00	92	41	0	357564416	54	6695
2026-01-21 19:35:41.54	22.13	12.37	-41.2	-42.4	21.7	0.00e+00	0	41	0	359661568	54	6741
2026-01-21 19:35:42.55	21.95	12.41	-41.2	-42.4	21.7	0.00e+00	0	41	0	360710144	54	6737
2026-01-21 19:35:43.56	21.76	12.45	-41.2	-42.3	21.8	0.00e+00	0	41	0	362807296	54	6681
2026-01-21 19:35:44.57	21.58	12.49	-40.9	-42.0	21.9	0.00e+00	0	41	0	364904448	54	6463
2026-01-21 19:35:45.58	21.40	12.52	-40.8	-41.8	22.1	0.00e+00	65	41	0	367001600	54	6305
2026-01-21 19:35:46.59	21.22	12.56	-40.7	-41.8	22.3	0.00e+00	0	41	0	369098752	54	6275
2026-01-21 19:35:47.60	21.04	12.60	-40.6	-41.7	22.4	0.00e+00	78	41	0	370147328	54	6187
2026-01-21 19:35:48.62	20.85	12.63	-40.6	-41.6	22.3	0.00e+00	0	41	0	372244480	54	6156
2026-01-21 19:35:49.62	20.67	12.67	-40.3	-41.3	22.6	0.00e+00	0	41	0	374341632	54	5919
2026-01-21 19:35:50.63	20.48	12.70	-40.5	-41.5	22.5	0.00e+00	0	41	0	376438784	54	6075
2026-01-21 19:35:51.64	20.30	12.74	-40.7	-41.8	22.2	0.00e+00	0	41	0	378535936	54	6256
2026-01-21 19:35:52.65	20.11	12.77	-40.6	-41.7	22.3	0.00e+00	70	41	0	379584512	54	6195
2026-01-21 19:35:53.66	19.93	12.81	-40.8	-41.9	22.2	0.00e+00	0	41	0	381681664	54	6342
2026-01-21 19:35:54.67	19.74	12.84	-40.8	-41.9	22.2	0.00e+00	91	41	0	383778816	54	6334
2026-01-21 19:35:55.68	19.56	12.88	-40.5	-41.5	22.5	0.00e+00	0	41	0	385875968	54	6050
2026-01-21 19:35:56.69	19.37	12.91	-40.3	-41.3	22.6	0.00e+00	0	41	0	387973120	54	5900
2026-01-21 19:35:57.70	19.18	12.94	-40.4	-41.4	22.5	0.00e+00	0	41	0	389021696	54	6010
2026-01-21 19:35:58.71	18.99	12.98	-40.3	-41.3	22.4	0.00e+00	0	41	0	391118848	54	5953
2026-01-21 19:35:59.72	18.81	13.01	-40.5	-41.5	22.5	0.00e+00	62	41	0	393216000	54	6053
2026-01-21 19:36:00.73	18.62	13.04	-40.4	-41.4	22.5	0.00e+00	0	41	0	395313152	54	6019
2026-01-21 19:36:01.74	18.43	13.08	-40.4	-41.4	22.5	0.00e+00	91	41	0	397410304	54	6031
2026-01-21 19:36:02.75	18.24	13.11	-40.5	-41.6	22.3	0.00e+00	0	41	0	398458880	54	6125
2026-01-21 19:36:03.76	18.05	13.14	-40.9	-42.0	22.2	0.00e+00	0	41	0	400556032	54	6440
2026-01-21 19:36:04.77	17.86	13.17	-41.1	-42.2	21.8	0.00e+00	0	41	0	402653184	54	6587
2026-01-21 19:36:05.78	17.67	13.20	-41.5	-42.6	21.5	0.00e+00	0	41	0	404750336	54	6916
2026-01-21 19:36:06.79	17.48	13.24	-41.7	-42.9	21.2	0.00e+00	63	41	0	406847488	54	7139
2026-01-21 19:36:07.80	17.29	13.27	-41.6	-42.8	21.5	0.00e+00	0	41	0	407896064	56	6281
2026-01-21 19:36:08.81	17.09	13.30	-41.2	-42.4	21.7	0.00e+00	83	41	0	409993216	56	5983
2026-01-21 19:36:09.82	16.90	13.33	-41.1	-42.2	21.9	0.00e+00	0	41	0	412090368	56	5867
2026-01-21 19:36:10.83	16.71	13.36	-40.5	-41.6	22.4	0.00e+00	0	41	0	414187520	54	6112
2026-01-21 19:36:11.84	16.52	13.39	-40.3	-41.3	22.1	0.00e+00	0	41	0	416284672	54	5901
2026-01-21 19:36:12.85	16.32	13.42	-40.1	-41.1	22.5	0.00e+00	0	41	0	418381824	54	5775
2026-01-21 19:36:13.86	16.13	13.45	-39.9	-40.9	22.9	0.00e+00	25	41	0	419430400	54	5648
2026-01-21 19:36:14.87	15.93	13.48	-39.9	-40.9	23.0	0.00e+00	0	41	0	421527552	54	5650
2026-01-21 19:36:15.87	15.74	13.51	-40.1	-41.1	22.8	0.00e+00	92	41	0	423624704	54	5780
2026-01-21 19:36:16.88	15.55	13.53	-39.7	-40.6	23.2	0.00e+00	0	41	0	425721856	52	6151
2026-01-21 19:36:17.89	15.35	13.56	-39.7	-40.6	23.3	0.00e+00	15	41	0	427819008	52	6123
2026-01-21 19:36:18.90	15.15	13.59	-39.9	-40.9	23.0	0.00e+00	0	41	0	428867584	52	6348
2026-01-21 19:36:19.91	14.96	13.62	-40.1	-41.1	22.8	0.00e+00	0	41	0	430964736	52	6499
2026-01-21 19:36:20.92	14.76	13.64	-40.3	-41.3	22.7	0.00e+00	0	41	0	433061888	52	6665
2026-01-21 19:36:21.93	14.57	13.67	-40.2	-41.2	22.7	0.00e+00	0	41	0	435159040	52	6579
2026-01-21 19:36:22.94	14.37	13.70	-40.3	-41.3	22.7	0.00e+00	92	41	0	437256192	52	6643
2026-01-21 19:36:23.95	14.17	13.72	-39.5	-40.4	23.3	0.00e+00	0	41	0	438304768	52	5977
2026-01-21 19:36:24.96	13.97	13.75	-39.6	-40.5	23.1	0.00e+00	72	41	0	440401920	52	6044
2026-01-21 19:36:25.76	13.81	13.77	-39.6	-40.5	23.2	0.00e+00	0	41	0	442499072	52	6079
2026-01-21 19:36:26.91	13.59	13.80	-39.8	-40.7	23.2	0.00e+00	0	41	0	444596224	52	6195
2026-01-21 19:36:27.78	13.42	13.82	-39.9	-40.8	23.0	0.00e+00	0	41	0	446693376	52	6281
2026-01-21 19:36:28.93	13.19	13.85	-40.2	-41.2	22.8	0.00e+00	0	41	0	448790528	52	6582
2026-01-21 19:36:29.80	13.02	13.87	-40.7	-41.7	22.4	0.00e+00	67	41	0	449839104	52	6942
2026-01-21 19:36:30.95	12.79	13.90	-40.7	-41.7	22.3	0.00e+00	0	41	0	451936256	52	6975
2026-01-21 19:36:31.82	12.62	13.92	-40.6	-41.6	22.3	0.00e+00	92	41	0	454033408	54	6166
2026-01-21 19:36:32.97	12.39	13.95	-40.6	-41.6	22.3	0.00e+00	0	41	0	456130560	54	6149
2026-01-21 19:36:33.84	12.22	13.97	-40.7	-41.8	22.4	0.00e+00	0	41	0	457179136	54	6258
2026-01-21 19:36:34.99	11.99	13.99	-40.7	-41.8	22.2	0.00e+00	65	41	0	459276288	54	6253
2026-01-21 19:36:35.86	11.81	14.01	-40.9	-42.0	22.1	0.00e+00	0	41	0	461373440	54	6403
2026-01-21 19:36:37.01	11.58	14.04	-41.1	-42.2	21.9	0.00e+00	66	41	0	463470592	54	6579
2026-01-21 19:36:37.88	11.41	14.06	-41.0	-42.0	21.7	0.00e+00	0	41	0	465567744	54	6458
2026-01-21 19:36:39.03	11.18	14.08	-41.0	-42.1	22.0	0.00e+00	90	41	0	467664896	54	6485
2026-01-21 19:36:39.90	11.00	14.10	-40.8	-41.9	22.1	0.00e+00	0	41	0	468713472	54	6340
2026-01-21 19:36:41.05	10.77	14.12	-40.8	-41.9	22.1	0.00e+00	0	41	0	470810624	54	6346
2026-01-21 19:36:41.92	10.60	14.14	-40.8	-41.9	22.1	0.00e+00	0	41	0	472907776	54	6370
2026-01-21 19:36:43.07	10.37	14.16	-41.1	-42.2	21.9	0.00e+00	0	41	0	475004928	54	6608
2026-01-21 19:36:43.93	10.19	14.18	-41.1	-42.3	21.9	0.00e+00	0	41	0	476053504	54	6619
2026-01-21 19:36:45.09	9.96	14.20	-41.4	-42.5	21.5	0.00e+00	0	41	0	479199232	54	6826
2026-01-21 19:36:45.95	9.78	14.22	-41.2	-42.3	21.8	0.00e+00	67	41	0	480247808	54	6639
2026-01-21 19:36:47.11	9.55	14.24	-40.8	-41.9	22.1	0.00e+00	0	41	0	482344960	54	6360
2026-01-21 19:36:47.97	9.37	14.26	-40.8	-41.8	22.2	0.00e+00	25	41	0	484442112	54	6304
2026-01-21 19:36:49.12	9.14	14.28	-40.5	-41.5	22.4	0.00e+00	0	41	0	486539264	54	6076
2026-01-21 19:36:49.99	8.96	14.29	-40.3	-41.3	22.5	0.00e+00	0	41	0	487587840	54	5925
2026-01-21 19:36:51.14	8.73	14.31	-40.4	-41.4	22.6	0.00e+00	63	41	0	489684992	54	6012
2026-01-21 19:36:52.01	8.55	14.33	-40.6	-41.6	22.4	0.00e+00	0	41	0	491782144	54	6142
2026-01-21 19:36:53.16	8.32	14.35	-40.1	-41.1	22.8	0.00e+00	40	41	0	493879296	54	5796
2026-01-21 19:36:54.03	8.14	14.36	-40.2	-41.1	22.8	0.00e+00	0	41	0	495976448	54	5821
2026-01-21 19:36:55.18	7.90	14.38	-40.1	-41.1	22.8	0.00e+00	0	41	0	498073600	54	5763
2026-01-21 19:36:56.05	7.72	14.39	-40.2	-41.2	22.6	0.00e+00	0	41	0	499122176	54	5857
2026-01-21 19:36:57.20	7.49	14.41	-40.2	-41.1	22.8	0.00e+00	0	41	0	501219328	54	5824
2026-01-21 19:36:58.07	7.31	14.42	-40.3	-41.3	22.7	0.00e+00	0	41	0	503316480	54	5919
2026-01-21 19:36:59.22	7.07	14.44	-40.6	-41.7	22.3	0.00e+00	0	41	0	505413632	54	6177
2026-01-21 19:37:00.08	6.90	14.45	-40.6	-41.6	22.3	0.00e+00	32	41	0	506462208	54	6157
2026-01-21 19:37:01.24	6.66	14.47	-40.8	-41.8	22.1	0.00e+00	30	41	0	508559360	54	6294
2026-01-21 19:37:02.10	6.48	14.48	-40.6	-41.7	22.3	0.00e+00	76	41	0	510656512	54	6204
2026-01-21 19:37:03.26	6.24	14.49	-40.4	-41.4	22.4	0.00e+00	0	41	0	512753664	54	6015
2026-01-21 19:37:04.12	6.06	14.50	-40.3	-41.3	22.7	0.00e+00	0	41	0	514850816	54	5936
2026-01-21 19:37:05.27	5.83	14.52	-40.1	-41.1	22.8	0.00e+00	0	41	0	516947968	54	5763
2026-01-21 19:37:06.14	5.65	14.53	-40.1	-41.1	22.8	0.00e+00	0	41	0	517996544	54	5812
2026-01-21 19:37:07.29	5.41	14.54	-40.2	-41.2	22.7	0.00e+00	92	41	0	520093696	54	5870
2026-01-21 19:37:08.15	5.23	14.55	-40.3	-41.3	22.6	0.00e+00	0	41	0	522190848	54	5960
2026-01-21 19:37:09.31	4.99	14.56	-40.5	-41.6	22.4	0.00e+00	19	41	0	524288000	54	6116
2026-01-21 19:37:10.17	4.81	14.57	-40.7	-41.8	22.3	0.00e+00	0	41	0	525336576	54	6271
2026-01-21 19:37:11.33	4.57	14.58	-40.6	-41.7	22.3	0.00e+00	0	41	0	527433728	54	6207
2026-01-21 19:37:12.19	4.39	14.59	-40.7	-41.7	22.3	0.00e+00	0	41	0	529530880	54	6223
2026-01-21 19:37:13.35	4.15	14.60	-40.8	-41.9	22.2	0.00e+00	0	41	0	531628032	54	6329
2026-01-21 19:37:14.21	3.97	14.61	-40.7	-41.8	22.2	0.00e+00	65	41	0	533725184	54	6251
2026-01-21 19:37:15.36	3.73	14.62	-40.7	-41.8	22.2	0.00e+00	0	41	0	535822336	54	6269
2026-01-21 19:37:16.23	3.55	14.63	-40.8	-41.9	22.3	0.00e+00	71	41	0	536870912	54	6344
2026-01-21 19:37:17.39	3.31	14.63	-40.9	-42.1	22.2	0.00e+00	0	41	0	538968064	54	6465
2026-01-21 19:37:18.25	3.13	14.64	-40.9	-42.0	22.1	0.00e+00	40	41	0	541065216	54	6432
2026-01-21 19:37:19.40	2.89	14.65	-40.7	-41.8	22.3	0.00e+00	0	41	0	543162368	54	6263
2026-01-21 19:37:20.27	2.71	14.65	-40.7	-41.8	22.3	0.00e+00	0	41	0	544210944	54	6250
2026-01-21 19:37:21.42	2.47	14.66	-40.5	-41.5	22.5	0.00e+00	85	41	0	547356672	54	6072
2026-01-21 19:37:22.29	2.29	14.67	-40.8	-41.9	22.1	0.00e+00	0	41	0	548405248	54	6323
2026-01-21 19:37:23.44	2.05	14.67	-40.7	-41.7	22.3	0.00e+00	91	41	0	550502400	54	6208
2026-01-21 19:37:24.31	1.87	14.68	-40.5	-41.6	22.5	0.00e+00	0	41	0	552599552	54	6120
2026-01-21 19:37:25.46	1.63	14.68	-40.5	-41.5	22.3	0.00e+00	0	41	0	554696704	54	6097
2026-01-21 19:37:26.33	1.44	14.68	-40.8	-41.8	22.3	0.00e+00	0	41	0	555745280	54	6301
2026-01-21 19:37:27.49	1.20	14.69	-40.6	-41.6	22.3	0.00e+00	0	41	0	557842432	54	6130
2026-01-21 19:37:28.35	1.02	14.69	-40.7	-41.8	22.3	0.00e+00	0	41	0	559939584	54	6254
2026-01-21 19:37:29.51	0.78	14.70	-40.6	-41.7	22.4	0.00e+00	0	41	0	562036736	54	6180
2026-01-21 19:37:30.37	0.60	14.70	-40.6	-41.7	22.3	0.00e+00	67	41	0	564133888	54	6196
2026-01-21 19:37:31.52	0.36	14.70	-40.9	-41.9	22.1	0.00e+00	0	41	0	566231040	54	6373
2026-01-21 19:37:32.39	0.18	14.70	-40.9	-42.0	22.2	0.00e+00	92	41	0	567279616	54	6396
2026-01-21 19:37:33.54	359.93	14.70	-40.7	-41.8	22.2	0.00e+00	0	41	0	569376768	54	6275
2026-01-21 19:37:34.41	359.75	14.70	-40.8	-41.9	22.2	0.00e+00	0	41	0	571473920	54	6344
2026-01-21 19:37:35.56	359.51	14.71	-40.8	-41.8	22.2	0.00e+00	62	41	0	573571072	54	6316
2026-01-21 19:37:36.43	359.33	14.71	-40.6	-41.7	22.4	0.00e+00	0	41	0	574619648	54	6179
2026-01-21 19:37:37.58	359.09	14.71	-40.5	-41.5	22.4	0.00e+00	92	41	0	576716800	54	6066
2026-01-21 19:37:38.45	358.91	14.71	-40.3	-41.3	22.5	0.00e+00	0	41	0	578813952	54	5926
2026-01-21 19:37:39.60	358.67	14.70	-40.0	-41.0	22.8	0.00e+00	2	41	0	580911104	54	5727
2026-01-21 19:37:40.46	358.49	14.70	-39.9	-40.9	22.9	0.00e+00	0	41	0	583008256	54	5657
2026-01-21 19:37:41.62	358.24	14.70	-40.0	-41.0	22.9	0.00e+00	0	41	0	585105408	54	5699
2026-01-21 19:37:42.49	358.06	14.70	-40.1	-41.1	22.7	0.00e+00	0	41	0	586153984	54	5782
2026-01-21 19:37:43.64	357.82	14.70	-40.3	-41.3	22.6	0.00e+00	0	41	0	588251136	54	5953
2026-01-21 19:37:44.50	357.64	14.69	-40.5	-41.6	22.3	0.00e+00	63	41	0	590348288	54	6122
2026-01-21 19:37:45.66	357.40	14.69	-40.8	-41.9	22.1	0.00e+00	0	41	0	592445440	54	6333
2026-01-21 19:37:46.52	357.22	14.69	-40.9	-42.0	22.1	0.00e+00	64	41	0	593494016	54	6394
2026-01-21 19:37:47.68	356.97	14.68	-40.9	-42.0	22.0	0.00e+00	0	41	0	595591168	54	6457
2026-01-21 19:37:48.55	356.79	14.68	-41.0	-42.1	22.0	0.00e+00	0	41	0	597688320	54	6466
2026-01-21 19:37:49.70	356.55	14.67	-40.9	-42.0	21.9	0.00e+00	66	41	0	599785472	54	6439
2026-01-21 19:37:50.56	356.37	14.67	-41.0	-42.1	21.8	0.00e+00	0	41	0	601882624	54	6526
2026-01-21 19:37:51.72	356.13	14.66	-41.0	-42.0	22.0	0.00e+00	62	41	0	603979776	54	6458
2026-01-21 19:37:52.58	355.95	14.66	-40.9	-41.9	22.1	0.00e+00	0	41	0	605028352	54	6384
2026-01-21 19:37:53.73	355.71	14.65	-41.1	-42.2	21.7	0.00e+00	39	41	0	607125504	54	6582
2026-01-21 19:37:54.60	355.53	14.65	-41.2	-42.4	21.7	0.00e+00	0	41	0	609222656	54	6723
2026-01-21 19:37:55.75	355.29	14.64	-41.4	-42.6	21.6	0.00e+00	0	41	0	611319808	54	6870
2026-01-21 19:37:56.62	355.11	14.63	-41.4	-42.6	21.6	0.00e+00	0	41	0	612368384	54	6901
2026-01-21 19:37:57.77	354.87	14.62	-41.4	-42.6	21.7	0.00e+00	0	41	0	615514112	54	6851
2026-01-21 19:37:58.64	354.69	14.61	-41.2	-42.3	21.9	0.00e+00	0	41	0	616562688	54	6657
2026-01-21 19:37:59.79	354.45	14.61	-41.0	-42.1	22.0	0.00e+00	0	41	0	618659840	54	6524
2026-01-21 19:38:00.66	354.27	14.60	-40.7	-41.8	22.2	0.00e+00	63	41	0	620756992	54	6278
2026-01-21 19:38:01.81	354.03	14.59	-40.5	-41.6	22.5	0.00e+00	0	41	0	622854144	54	6107
2026-01-21 19:38:02.68	353.85	14.58	-40.3	-41.3	22.6	0.00e+00	0	41	0	623902720	54	5959
2026-01-21 19:38:03.83	353.61	14.57	-40.2	-41.3	22.7	0.00e+00	0	41	0	625999872	54	5900
2026-01-21 19:38:04.70	353.43	14.56	-40.3	-41.4	22.5	0.00e+00	0	41	0	628097024	54	5967
2026-01-21 19:38:05.85	353.19	14.55	-40.2	-41.2	22.7	0.00e+00	66	41	0	630194176	54	5844
2026-01-21 19:38:06.72	353.01	14.54	-40.2	-41.3	22.7	0.00e+00	0	41	0	632291328	54	5904
2026-01-21 19:38:07.87	352.77	14.52	-40.3	-41.3	22.4	0.00e+00	69	41	0	634388480	54	5951
2026-01-21 19:38:08.74	352.59	14.51	-40.5	-41.6	22.5	0.00e+00	0	41	0	635437056	54	6119
2026-01-21 19:38:09.89	352.36	14.50	-40.8	-41.9	22.4	0.00e+00	0	41	0	637534208	54	6323
2026-01-21 19:38:10.76	352.18	14.49	-41.0	-42.1	22.0	0.00e+00	0	41	0	639631360	54	6506
2026-01-21 19:38:11.91	351.94	14.47	-40.9	-42.0	22.2	0.00e+00	0	41	0	641728512	54	6422
2026-01-21 19:38:12.78	351.76	14.46	-40.6	-41.6	22.4	0.00e+00	9	41	0	642777088	54	6139
2026-01-21 19:38:13.93	351.52	14.44	-40.5	-41.5	22.5	0.00e+00	0	41	0	644874240	54	6074
2026-01-21 19:38:14.80	351.34	14.43	-40.2	-41.2	22.7	0.00e+00	61	41	0	646971392	54	5841
2026-01-21 19:38:15.95	351.11	14.42	-40.3	-41.3	22.7	0.00e+00	0	41	0	649068544	54	5909
2026-01-21 19:38:16.82	350.93	14.40	-40.1	-41.1	22.8	0.00e+00	65	41	0	651165696	54	5793
2026-01-21 19:38:17.97	350.69	14.38	-39.9	-40.8	23.0	0.00e+00	0	41	0	653262848	54	5613
2026-01-21 19:38:18.84	350.52	14.37	-40.2	-41.1	22.8	0.00e+00	0	41	0	654311424	54	5815
2026-01-21 19:38:19.99	350.28	14.35	-40.3	-41.3	22.7	0.00e+00	0	41	0	656408576	54	5910
2026-01-21 19:38:20.85	350.10	14.34	-40.3	-41.3	22.6	0.00e+00	0	41	0	658505728	54	5962
2026-01-21 19:38:22.01	349.87	14.32	-40.5	-41.5	22.5	0.00e+00	84	41	0	660602880	54	6063
2026-01-21 19:38:22.87	349.69	14.31	-40.6	-41.6	22.4	0.00e+00	0	41	0	661651456	54	6152
2026-01-21 19:38:24.03	349.46	14.29	-40.6	-41.6	22.5	0.00e+00	0	41	0	663748608	54	6128
2026-01-21 19:38:24.89	349.28	14.27	-40.8	-41.8	22.2	0.00e+00	0	41	0	665845760	54	6312
2026-01-21 19:38:26.04	349.05	14.25	-40.9	-42.0	22.0	0.00e+00	0	41	0	667942912	54	6442
2026-01-21 19:38:26.91	348.87	14.23	-41.1	-42.2	21.9	0.00e+00	0	41	0	670040064	54	6576
2026-01-21 19:38:28.06	348.64	14.21	-41.1	-42.2	21.7	0.00e+00	0	41	0	672137216	54	6611
2026-01-21 19:38:28.93	348.46	14.19	-40.9	-42.0	22.1	0.00e+00	34	41	0	673185792	54	6447
2026-01-21 19:38:30.08	348.23	14.17	-40.5	-41.6	22.4	0.00e+00	0	41	0	675282944	54	6118
2026-01-21 19:38:30.95	348.05	14.16	-40.7	-41.8	22.2	0.00e+00	65	41	0	677380096	54	6264
2026-01-21 19:38:32.11	347.82	14.13	-40.6	-41.6	22.3	0.00e+00	0	41	0	679477248	54	6160
2026-01-21 19:38:32.97	347.65	14.11	-40.7	-41.8	22.2	0.00e+00	0	41	0	680525824	54	6293
2026-01-21 19:38:34.13	347.41	14.09	-40.9	-42.1	21.9	0.00e+00	0	41	0	683671552	54	6467
2026-01-21 19:38:34.99	347.24	14.07	-41.0	-42.1	21.8	0.00e+00	0	41	0	684720128	54	6533
2026-01-21 19:38:36.14	347.01	14.05	-40.6	-41.7	22.4	0.00e+00	71	41	0	686817280	54	6183
2026-01-21 19:38:37.01	346.84	14.03	-40.2	-41.3	22.8	0.00e+00	0	41	0	688914432	54	5898
2026-01-21 19:38:38.16	346.61	14.00	-40.2	-41.2	22.7	0.00e+00	92	41	0	691011584	54	5860
2026-01-21 19:38:39.03	346.43	13.98	-39.9	-40.8	23.0	0.00e+00	0	41	0	692060160	54	5616
2026-01-21 19:38:40.18	346.21	13.96	-40.0	-41.0	22.7	0.00e+00	0	41	0	694157312	54	5759
2026-01-21 19:38:41.05	346.03	13.94	-40.1	-41.1	22.7	0.00e+00	0	41	0	696254464	54	5803
2026-01-21 19:38:42.20	345.80	13.91	-40.1	-41.2	22.7	0.00e+00	0	41	0	698351616	54	5839
2026-01-21 19:38:43.07	345.63	13.89	-40.3	-41.3	22.5	0.00e+00	0	41	0	700448768	54	5940
2026-01-21 19:38:44.22	345.40	13.86	-40.3	-41.3	22.7	0.00e+00	0	41	0	702545920	54	5938
2026-01-21 19:38:45.09	345.23	13.84	-40.3	-41.3	22.7	0.00e+00	38	41	0	703594496	54	5962
2026-01-21 19:38:46.24	345.01	13.81	-40.0	-41.0	22.8	0.00e+00	0	41	0	705691648	54	5754
2026-01-21 19:38:47.10	344.84	13.79	-39.9	-40.9	22.9	0.00e+00	92	41	0	707788800	54	5653
2026-01-21 19:38:48.26	344.61	13.76	-40.1	-41.1	22.7	0.00e+00	32	41	0	709885952	54	5828
2026-01-21 19:38:49.12	344.44	13.74	-40.1	-41.1	22.8	0.00e+00	0	41	0	710934528	54	5795
2026-01-21 19:38:50.28	344.21	13.71	-40.3	-41.3	22.6	0.00e+00	0	41	0	713031680	54	5911
2026-01-21 19:38:51.14	344.04	13.69	-40.7	-41.8	22.3	0.00e+00	0	41	0	715128832	54	6272
2026-01-21 19:38:52.30	343.82	13.66	-40.8	-42.0	22.1	0.00e+00	84	41	0	717225984	54	6394
2026-01-21 19:38:53.16	343.65	13.63	-40.9	-42.0	22.0	0.00e+00	0	41	0	719323136	54	6421
2026-01-21 19:38:54.31	343.43	13.60	-40.9	-42.0	22.0	0.00e+00	4	41	0	721420288	54	6436
2026-01-21 19:38:55.18	343.26	13.58	-40.6	-41.8	22.3	0.00e+00	0	41	0	722468864	54	6252
2026-01-21 19:38:56.34	343.03	13.55	-40.5	-41.6	22.4	0.00e+00	0	41	0	724566016	54	6135
2026-01-21 19:38:57.20	342.87	13.52	-40.5	-41.6	22.3	0.00e+00	0	41	0	726663168	54	6116
2026-01-21 19:38:58.36	342.64	13.49	-40.8	-41.9	22.1	0.00e+00	0	41	0	728760320	54	6363
2026-01-21 19:38:59.22	342.48	13.46	-40.7	-41.8	22.3	0.00e+00	21	41	0	729808896	54	6277
2026-01-21 19:39:00.37	342.26	13.43	-40.7	-41.8	22.2	0.00e+00	0	41	0	731906048	54	6298
2026-01-21 19:39:01.24	342.09	13.40	-41.0	-42.2	22.0	0.00e+00	89	41	0	734003200	54	6541
2026-01-21 19:39:02.39	341.87	13.37	-41.0	-42.2	22.0	0.00e+00	0	41	0	736100352	54	6546
2026-01-21 19:39:03.26	341.70	13.34	-41.1	-42.3	21.9	0.00e+00	0	41	0	738197504	54	6623
2026-01-21 19:39:04.41	341.48	13.31	-41.1	-42.3	21.9	0.00e+00	0	41	0	740294656	54	6618
2026-01-21 19:39:05.28	341.32	13.28	-41.1	-42.2	21.9	0.00e+00	0	41	0	741343232	54	6612
2026-01-21 19:39:06.43	341.10	13.25	-40.8	-41.8	22.3	0.00e+00	92	41	0	743440384	54	6298
2026-01-21 19:39:07.30	340.94	13.22	-40.6	-41.7	22.4	0.00e+00	0	41	0	745537536	54	6202
2026-01-21 19:39:08.45	340.72	13.19	-40.4	-41.5	22.6	0.00e+00	68	41	0	747634688	54	6050
2026-01-21 19:39:09.32	340.55	13.16	-40.3	-41.4	22.6	0.00e+00	0	41	0	748683264	54	5967
2026-01-21 19:39:10.47	340.34	13.12	-40.3	-41.3	22.7	0.00e+00	0	41	0	751828992	54	5910
2026-01-21 19:39:11.34	340.17	13.09	-40.3	-41.3	22.6	0.00e+00	0	41	0	752877568	54	5963
2026-01-21 19:39:12.49	339.96	13.06	-40.3	-41.3	22.6	0.00e+00	0	41	0	754974720	54	5959
2026-01-21 19:39:13.36	339.80	13.03	-40.2	-41.2	22.7	0.00e+00	0	41	0	757071872	54	5851
2026-01-21 19:39:14.51	339.58	12.99	-40.1	-41.2	22.7	0.00e+00	0	41	0	759169024	54	5833
2026-01-21 19:39:15.37	339.42	12.96	-40.2	-41.2	22.7	0.00e+00	73	41	0	760217600	54	5848
2026-01-21 19:39:16.53	339.21	12.92	-40.2	-41.2	22.8	0.00e+00	0	41	0	762314752	54	5890
2026-01-21 19:39:17.39	339.05	12.90	-39.9	-40.9	22.9	0.00e+00	17	41	0	764411904	54	5681
2026-01-21 19:39:18.55	338.83	12.86	-40.0	-41.0	22.9	0.00e+00	0	41	0	766509056	54	5698
2026-01-21 19:39:19.41	338.68	12.83	-39.6	-40.6	23.2	0.00e+00	0	41	0	767557632	52	6126
2026-01-21 19:39:20.56	338.46	12.79	-39.6	-40.5	23.0	0.00e+00	60	41	0	770703360	52	6064
2026-01-21 19:39:21.43	338.30	12.76	-39.7	-40.6	23.1	0.00e+00	0	41	0	771751936	52	6127
2026-01-21 19:39:22.58	338.09	12.72	-39.6	-40.6	23.2	0.00e+00	63	41	0	773849088	52	6112
2026-01-21 19:39:23.45	337.93	12.69	-39.5	-40.4	23.3	0.00e+00	0	41	0	775946240	52	6013
2026-01-21 19:39:24.60	337.73	12.65	-39.7	-40.6	22.8	0.00e+00	0	41	0	778043392	52	6161
2026-01-21 19:39:25.47	337.57	12.62	-39.8	-40.8	22.9	0.00e+00	0	41	0	779091968	52	6259
2026-01-21 19:39:26.62	337.36	12.57	-40.1	-41.1	22.7	0.00e+00	0	41	0	781189120	52	6479
2026-01-21 19:39:27.49	337.20	12.54	-40.2	-41.2	22.6	0.00e+00	0	41	0	783286272	52	6565
2026-01-21 19:39:28.64	336.99	12.50	-40.3	-41.3	22.5	0.00e+00	0	41	0	785383424	52	6684
2026-01-21 19:39:29.51	336.84	12.47	-40.2	-41.2	22.6	0.00e+00	0	41	0	787480576	52	6570
2026-01-21 19:39:30.66	336.63	12.43	-40.6	-41.6	22.3	0.00e+00	0	41	0	789577728	52	6892
2026-01-21 19:39:31.52	336.48	12.40	-40.6	-41.7	22.3	0.00e+00	61	41	0	790626304	52	6941
2026-01-21 19:39:32.68	336.27	12.35	-40.9	-42.0	22.0	0.00e+00	0	41	0	792723456	54	6415
2026-01-21 19:39:33.55	336.12	12.32	-41.1	-42.3	21.7	0.00e+00	0	41	0	794820608	54	6632
2026-01-21 19:39:34.70	335.91	12.28	-41.2	-42.3	21.7	0.00e+00	0	41	0	796917760	54	6675
2026-01-21 19:39:35.57	335.76	12.24	-41.2	-42.4	21.4	0.00e+00	0	41	0	797966336	54	6711
2026-01-21 19:39:36.71	335.56	12.20	-41.3	-42.5	21.5	0.00e+00	41	41	0	800063488	54	6781
2026-01-21 19:39:37.58	335.40	12.17	-41.3	-42.4	21.6	0.00e+00	0	41	0	802160640	54	6737
2026-01-21 19:39:38.73	335.20	12.12	-41.2	-42.3	21.6	0.00e+00	73	41	0	804257792	54	6645
2026-01-21 19:39:39.60	335.05	12.09	-41.2	-42.3	21.5	0.00e+00	0	41	0	806354944	54	6654
2026-01-21 19:39:40.76	334.85	12.05	-41.1	-42.2	21.8	0.00e+00	0	41	0	808452096	54	6543
2026-01-21 19:39:41.62	334.70	12.01	-41.1	-42.2	21.8	0.00e+00	0	41	0	809500672	54	6576
2026-01-21 19:39:42.77	334.50	11.97	-41.2	-42.4	21.6	0.00e+00	0	41	0	811597824	54	6704
2026-01-21 19:39:43.64	334.35	11.93	-41.3	-42.4	21.5	0.00e+00	57	41	0	813694976	54	6749
2026-01-21 19:39:44.80	334.14	11.89	-41.4	-42.5	21.6	0.00e+00	0	41	0	815792128	54	6833
2026-01-21 19:39:45.66	334.00	11.85	-41.3	-42.5	21.5	0.00e+00	92	41	0	816840704	54	6779
2026-01-21 19:39:46.82	333.80	11.81	-41.5	-42.7	21.4	0.00e+00	30	41	0	819986432	54	6960
2026-01-21 19:39:47.68	333.65	11.77	-41.5	-42.7	21.4	0.00e+00	0	41	0	821035008	54	6940
2026-01-21 19:39:48.84	333.45	11.73	-41.3	-42.4	21.7	0.00e+00	0	41	0	823132160	54	6736
2026-01-21 19:39:49.70	333.30	11.69	-41.3	-42.4	21.7	0.00e+00	0	41	0	825229312	54	6731
2026-01-21 19:39:50.86	333.11	11.64	-41.2	-42.3	21.7	0.00e+00	1	41	0	827326464	54	6680
2026-01-21 19:39:51.72	332.96	11.61	-41.2	-42.3	21.7	0.00e+00	0	41	0	828375040	54	6647
2026-01-21 19:39:52.87	332.77	11.56	-41.4	-42.5	21.5	0.00e+00	91	41	0	830472192	54	6846
2026-01-21 19:39:53.73	332.62	11.53	-41.6	-42.7	21.4	0.00e+00	0	41	0	832569344	54	6982
2026-01-21 19:39:54.89	332.43	11.48	-41.6	-42.8	21.4	0.00e+00	0	41	0	834666496	54	7024
2026-01-21 19:39:55.75	332.28	11.44	-41.7	-42.8	21.4	0.00e+00	0	41	0	835715072	56	6283
2026-01-21 19:39:56.91	332.09	11.39	-41.8	-42.9	21.4	0.00e+00	0	41	0	838860800	56	6352
2026-01-21 19:39:57.77	331.95	11.36	-41.6	-42.7	21.5	0.00e+00	33	41	0	839909376	56	6235
2026-01-21 19:39:58.93	331.75	11.31	-41.5	-42.5	21.7	0.00e+00	0	41	0	842006528	56	6099
2026-01-21 19:39:59.79	331.61	11.27	-41.3	-42.3	21.8	0.00e+00	6	41	0	844103680	56	5957
2026-01-21 19:40:00.95	331.42	11.22	-40.9	-42.0	22.1	0.00e+00	0	41	0	846200832	56	5696
2026-01-21 19:40:01.81	331.28	11.19	-41.0	-42.0	22.0	0.00e+00	92	41	0	847249408	56	5753
2026-01-21 19:40:02.97	331.09	11.14	-41.0	-42.1	22.1	0.00e+00	0	41	0	849346560	56	5768
2026-01-21 19:40:03.83	330.95	11.10	-41.2	-42.2	21.9	0.00e+00	0	41	0	851443712	56	5885
2026-01-21 19:40:04.99	330.76	11.05	-41.4	-42.5	21.6	0.00e+00	67	41	0	853540864	56	6063
2026-01-21 19:40:05.85	330.62	11.01	-41.7	-42.8	21.4	0.00e+00	0	41	0	855638016	56	6275
2026-01-21 19:40:07.00	330.43	10.96	-42.1	-43.2	21.0	0.00e+00	64	41	0	857735168	56	6607
2026-01-21 19:40:07.87	330.29	10.93	-42.2	-43.5	20.8	0.00e+00	0	41	0	858783744	56	6776
2026-01-21 19:40:09.02	330.11	10.88	-42.8	-44.1	20.2	0.00e+00	11	41	0	860880896	56	7310
2026-01-21 19:40:09.89	329.97	10.84	-42.7	-44.0	20.3	0.00e+00	0	41	0	862978048	58	6442
2026-01-21 19:40:11.04	329.78	10.79	-42.6	-43.9	20.3	0.00e+00	0	41	0	865075200	58	6361
2026-01-21 19:40:11.91	329.64	10.75	-42.7	-44.0	20.3	0.00e+00	0	41	0	866123776	58	6411
2026-01-21 19:40:13.07	329.46	10.70	-42.7	-43.9	20.4	0.00e+00	0	41	0	868220928	58	6390
2026-01-21 19:40:13.93	329.32	10.66	-42.2	-43.4	20.9	0.00e+00	13	41	0	870318080	58	6007
2026-01-21 19:40:15.09	329.14	10.61	-42.0	-43.2	21.0	0.00e+00	0	41	0	872415232	58	5847
2026-01-21 19:40:15.95	329.00	10.57	-42.3	-43.5	20.8	0.00e+00	78	41	0	874512384	56	6793
2026-01-21 19:40:17.11	328.82	10.52	-41.9	-43.0	21.2	0.00e+00	0	41	0	876609536	56	6452
2026-01-21 19:40:17.97	328.69	10.48	-41.7	-42.8	21.4	0.00e+00	0	41	0	877658112	56	6311
2026-01-21 19:40:19.13	328.50	10.43	-42.2	-43.4	20.7	0.00e+00	0	41	0	879755264	56	6758
2026-01-21 19:40:19.99	328.37	10.39	-42.4	-43.7	20.5	0.00e+00	0	41	0	881852416	56	6932
2026-01-21 19:40:21.14	328.19	10.34	-43.2	-44.7	19.7	0.00e+00	92	41	0	883949568	58	6945
2026-01-21 19:40:22.01	328.06	10.30	-43.6	-45.2	18.5	0.00e+00	0	41	0	884998144	58	7375
2026-01-21 19:40:23.16	327.88	10.24	-44.5	-46.2	18.2	0.00e+00	92	41	0	887095296	60	7417
2026-01-21 19:40:24.03	327.75	10.20	-44.7	-46.6	17.9	0.00e+00	0	41	0	889192448	60	7725
2026-01-21 19:40:25.18	327.57	10.15	-44.9	-46.9	17.6	0.00e+00	0	41	0	891289600	60	7982
2026-01-21 19:40:26.05	327.44	10.11	-44.8	-46.7	17.8	0.00e+00	0	41	0	893386752	60	7843
2026-01-21 19:40:27.20	327.26	10.06	-44.4	-46.1	18.5	0.00e+00	0	41	0	895483904	60	7282
2026-01-21 19:40:28.07	327.13	10.02	-44.3	-46.0	18.5	0.00e+00	36	41	0	896532480	60	7193
2026-01-21 19:40:29.22	326.96	9.97	-44.2	-45.9	18.6	0.00e+00	0	41	0	898629632	60	7138
2026-01-21 19:40:30.09	326.82	9.93	-43.9	-45.5	19.1	0.00e+00	35	41	0	900726784	60	6796
2026-01-21 19:40:31.24	326.65	9.87	-43.9	-45.5	19.0	0.00e+00	0	41	0	902823936	60	6823
2026-01-21 19:40:32.11	326.52	9.83	-43.9	-45.5	18.8	0.00e+00	92	41	0	903872512	60	6843
2026-01-21 19:40:33.26	326.35	9.78	-43.8	-45.3	19.1	0.00e+00	0	41	0	907018240	60	6680
2026-01-21 19:40:34.13	326.22	9.74	-43.8	-45.3	19.1	0.00e+00	0	41	0	908066816	60	6666
2026-01-21 19:40:35.28	326.05	9.68	-43.5	-45.0	19.4	0.00e+00	65	41	0	910163968	60	6443
2026-01-21 19:40:36.15	325.92	9.64	-43.6	-45.1	19.4	0.00e+00	0	41	0	912261120	60	6497
2026-01-21 19:40:37.30	325.75	9.59	-43.2	-44.6	19.7	0.00e+00	90	41	0	914358272	60	6159
2026-01-21 19:40:38.17	325.62	9.55	-43.2	-44.6	19.8	0.00e+00	32	41	0	915406848	60	6140
2026-01-21 19:40:39.32	325.45	9.49	-43.1	-44.5	19.9	0.00e+00	0	41	0	917504000	60	6078
2026-01-21 19:40:40.19	325.33	9.45	-43.1	-44.5	19.9	0.00e+00	0	41	0	919601152	60	6075
2026-01-21 19:40:41.34	325.16	9.40	-43.1	-44.5	19.9	0.00e+00	0	41	0	921698304	60	6097
2026-01-21 19:40:42.21	325.03	9.36	-43.0	-44.4	19.9	0.00e+00	31	41	0	923795456	60	6020
2026-01-21 19:40:43.37	324.87	9.30	-43.2	-44.6	19.8	0.00e+00	0	41	0	925892608	60	6125
2026-01-21 19:40:44.23	324.74	9.26	-43.1	-44.5	19.8	0.00e+00	62	41	0	926941184	60	6068
2026-01-21 19:40:45.39	324.58	9.21	-43.1	-44.5	19.8	0.00e+00	0	41	0	929038336	60	6096
2026-01-21 19:40:46.25	324.45	9.17	-43.1	-44.5	20.0	0.00e+00	92	41	0	931135488	60	6038
2026-01-21 19:40:47.40	324.29	9.11	-43.0	-44.4	19.9	0.00e+00	0	41	0	933232640	60	5998
2026-01-21 19:40:48.27	324.17	9.07	-42.9	-44.2	20.1	0.00e+00	0	42	0	934281216	60	5884
2026-01-21 19:40:49.42	324.00	9.01	-42.6	-43.9	20.3	0.00e+00	0	41	0	936378368	60	5664
2026-01-21 19:40:50.29	323.88	8.97	-42.4	-43.7	20.6	0.00e+00	0	41	0	938475520	58	6228
2026-01-21 19:40:51.44	323.72	8.92	-42.5	-43.7	20.5	0.00e+00	63	41	0	940572672	58	6223
2026-01-21 19:40:52.30	323.60	8.88	-42.4	-43.6	20.5	0.00e+00	0	41	0	942669824	58	6140
2026-01-21 19:40:53.46	323.44	8.82	-42.2	-43.5	20.7	0.00e+00	55	41	0	944766976	58	6047
2026-01-21 19:40:54.32	323.32	8.78	-42.3	-43.6	20.6	0.00e+00	0	41	0	945815552	58	6105
2026-01-21 19:40:55.48	323.16	8.72	-42.2	-43.4	20.7	0.00e+00	0	41	0	947912704	58	6022
2026-01-21 19:40:56.34	323.04	8.68	-42.3	-43.5	20.7	0.00e+00	0	41	0	950009856	58	6100
2026-01-21 19:40:57.50	322.88	8.62	-42.3	-43.5	20.6	0.00e+00	0	41	0	952107008	58	6080
2026-01-21 19:40:58.36	322.76	8.58	-42.3	-43.6	20.6	0.00e+00	0	41	0	953155584	58	6111
2026-01-21 19:40:59.52	322.60	8.53	-42.4	-43.7	20.4	0.00e+00	0	41	0	956301312	58	6218
2026-01-21 19:41:00.38	322.48	8.48	-42.6	-43.9	20.3	0.00e+00	92	41	0	957349888	58	6347
2026-01-21 19:41:01.54	322.32	8.43	-42.5	-43.8	20.5	0.00e+00	0	41	0	959447040	58	6287
2026-01-21 19:41:02.40	322.21	8.39	-42.7	-44.0	20.2	0.00e+00	3	42	0	961544192	58	6423
2026-01-21 19:41:03.56	322.05	8.33	-42.8	-44.2	20.2	0.00e+00	0	41	0	963641344	58	6577
2026-01-21 19:41:04.42	321.94	8.29	-42.7	-44.1	20.0	0.00e+00	0	41	0	964689920	58	6482
2026-01-21 19:41:05.58	321.78	8.23	-42.7	-44.1	20.0	0.00e+00	22	42	0	966787072	58	6495
2026-01-21 19:41:06.44	321.67	8.19	-42.8	-44.2	20.0	0.00e+00	0	41	0	968884224	58	6558
2026-01-21 19:41:07.60	321.51	8.13	-42.7	-44.1	20.1	0.00e+00	66	41	0	970981376	58	6469
2026-01-21 19:41:08.46	321.40	8.09	-42.7	-44.1	20.1	0.00e+00	0	41	0	972029952	58	6490
2026-01-21 19:41:09.61	321.25	8.03	-42.9	-44.2	20.1	0.00e+00	0	41	0	975175680	58	6595
2026-01-21 19:41:10.48	321.13	7.99	-42.5	-43.8	20.4	0.00e+00	0	41	0	976224256	58	6251
2026-01-21 19:41:11.63	320.98	7.93	-42.6	-43.9	20.1	0.00e+00	0	41	0	978321408	58	6363
2026-01-21 19:41:12.50	320.87	7.89	-43.0	-44.4	19.8	0.00e+00	0	41	0	980418560	58	6726
2026-01-21 19:41:13.65	320.72	7.83	-42.5	-43.8	20.4	0.00e+00	0	41	0	982515712	58	6250
2026-01-21 19:41:14.52	320.60	7.79	-42.4	-43.6	20.5	0.00e+00	90	41	0	983564288	58	6159
2026-01-21 19:41:15.67	320.45	7.73	-42.5	-43.7	20.4	0.00e+00	0	41	0	985661440	58	6242
2026-01-21 19:41:16.54	320.34	7.69	-42.4	-43.7	20.5	0.00e+00	57	41	0	987758592	58	6204
2026-01-21 19:41:17.69	320.19	7.63	-42.0	-43.2	20.9	0.00e+00	0	41	0	989855744	58	5858
2026-01-21 19:41:18.56	320.08	7.59	-42.2	-43.4	20.7	0.00e+00	0	41	0	991952896	58	6016
2026-01-21 19:41:19.71	319.94	7.53	-42.1	-43.3	20.9	0.00e+00	61	41	0	994050048	58	5924
2026-01-21 19:41:20.58	319.83	7.49	-41.7	-42.9	21.1	0.00e+00	0	41	0	995098624	56	6359
2026-01-21 19:41:21.73	319.68	7.43	-41.7	-42.9	21.1	0.00e+00	57	41	0	997195776	56	6375
2026-01-21 19:41:22.60	319.57	7.39	-41.6	-42.7	21.3	0.00e+00	0	41	0	999292928	56	6225
2026-01-21 19:41:23.75	319.43	7.33	-41.4	-42.5	21.5	0.00e+00	39	41	0	1001390080	56	6075
2026-01-21 19:41:24.62	319.32	7.29	-41.4	-42.5	21.4	0.00e+00	0	41	0	1002438656	56	6086
2026-01-21 19:41:25.77	319.17	7.23	-41.2	-42.3	21.6	0.00e+00	0	41	0	1004535808	56	5930
2026-01-21 19:41:26.64	319.06	7.19	-41.1	-42.2	21.7	0.00e+00	0	41	0	1006632960	56	5860
2026-01-21 19:41:27.79	318.92	7.13	-41.3	-42.4	21.6	0.00e+00	0	41	0	1008730112	56	5972
2026-01-21 19:41:28.66	318.81	7.09	-41.1	-42.2	21.6	0.00e+00	60	41	0	1010827264	56	5879
2026-01-21 19:41:29.81	318.67	7.03	-41.3	-42.4	21.5	0.00e+00	0	41	0	1012924416	56	6011
2026-01-21 19:41:30.68	318.57	6.98	-41.5	-42.7	21.3	0.00e+00	82	41	0	1013972992	56	6208
2026-01-21 19:41:31.83	318.43	6.93	-41.6	-42.8	21.3	0.00e+00	0	41	0	1016070144	56	6247
2026-01-21 19:41:32.70	318.32	6.88	-41.8	-43.0	21.1	0.00e+00	7	41	0	1018167296	56	6396
2026-01-21 19:41:33.85	318.18	6.83	-41.3	-42.5	21.4	0.00e+00	0	41	0	1020264448	56	6043
2026-01-21 19:41:34.72	318.07	6.78	-41.2	-42.3	21.5	0.00e+00	0	42	0	1021313024	56	5932
2026-01-21 19:41:35.87	317.94	6.72	-41.5	-42.7	21.3	0.00e+00	61	41	0	1024458752	56	6176
2026-01-21 19:41:36.74	317.83	6.68	-41.3	-42.5	21.4	0.00e+00	0	41	0	1025507328	56	6054
2026-01-21 19:41:37.89	317.69	6.62	-41.1	-42.2	21.6	0.00e+00	79	41	0	1027604480	56	5877
2026-01-21 19:41:38.76	317.59	6.58	-41.2	-42.4	21.6	0.00e+00	0	41	0	1029701632	56	5967
2026-01-21 19:41:39.91	317.45	6.52	-41.1	-42.2	21.7	0.00e+00	0	41	0	1031798784	56	5883
2026-01-21 19:41:40.78	317.35	6.48	-41.0	-42.0	21.8	0.00e+00	0	41	0	1032847360	56	5757
2026-01-21 19:41:41.94	317.21	6.42	-41.0	-42.1	21.7	0.00e+00	0	41	0	1034944512	56	5794
2026-01-21 19:41:42.80	317.11	6.38	-41.4	-42.6	21.3	0.00e+00	0	41	0	1037041664	56	6110
2026-01-21 19:41:43.96	316.98	6.32	-41.3	-42.4	21.4	0.00e+00	0	41	0	1039138816	56	5995
2026-01-21 19:41:44.82	316.88	6.27	-41.5	-42.6	21.2	0.00e+00	92	41	0	1041235968	56	6158
2026-01-21 19:41:45.98	316.74	6.22	-41.5	-42.7	21.2	0.00e+00	0	41	0	1043333120	56	6200
2026-01-21 19:41:46.84	316.64	6.17	-41.7	-42.9	21.0	0.00e+00	67	41	0	1044381696	56	6358
2026-01-21 19:41:48.00	316.51	6.11	-41.8	-43.1	20.9	0.00e+00	0	41	0	1046478848	56	6480
2026-01-21 19:41:48.86	316.41	6.07	-41.6	-42.9	21.0	0.00e+00	0	41	0	1048576000	56	6322
2026-01-21 19:41:50.02	316.28	6.01	-41.8	-43.1	20.8	0.00e+00	64	41	0	1050673152	56	6480
2026-01-21 19:41:50.88	316.18	5.97	-41.9	-43.1	20.8	0.00e+00	0	41	0	1051721728	56	6534
2026-01-21 19:41:52.04	316.05	5.91	-42.0	-43.3	20.6	0.00e+00	81	41	0	1053818880	56	6656
2026-01-21 19:41:52.90	315.95	5.87	-42.1	-43.3	20.7	0.00e+00	0	41	0	1055916032	56	6680
2026-01-21 19:41:54.06	315.82	5.81	-42.0	-43.3	20.6	0.00e+00	0	41	0	1058013184	56	6647
2026-01-21 19:41:54.92	315.72	5.77	-42.0	-43.2	20.6	0.00e+00	0	41	0	1060110336	56	6614
2026-01-21 19:41:56.08	315.59	5.71	-41.7	-42.9	20.7	0.00e+00	0	41	0	1062207488	56	6366
2026-01-21 19:41:56.95	315.49	5.66	-41.9	-43.1	20.8	0.00e+00	0	41	0	1063256064	56	6505
2026-01-21 19:41:58.10	315.36	5.61	-42.0	-43.3	20.6	0.00e+00	0	41	0	1065353216	56	6640
2026-01-21 19:41:58.96	315.27	5.56	-41.7	-42.9	20.9	0.00e+00	62	41	0	1067450368	56	6356
2026-01-21 19:42:00.12	315.14	5.50	-41.9	-43.1	20.6	0.00e+00	0	41	0	1069547520	56	6496
2026-01-21 19:42:00.98	315.05	5.46	-41.8	-43.1	20.7	0.00e+00	64	41	0	1070596096	56	6481
2026-01-21 19:42:02.14	314.92	5.40	-41.9	-43.2	20.6	0.00e+00	0	41	0	1072693248	56	6556
2026-01-21 19:42:03.00	314.82	5.36	-41.9	-43.1	20.2	0.00e+00	0	41	0	1074790400	56	6535
2026-01-21 19:42:04.15	314.70	5.30	-41.7	-43.0	20.6	0.00e+00	0	41	0	1076887552	56	6392
2026-01-21 19:42:05.02	314.60	5.26	-41.6	-42.8	20.9	0.00e+00	0	41	0	1078984704	56	6270
2026-01-21 19:42:06.17	314.48	5.20	-41.6	-42.8	20.9	0.00e+00	91	41	0	1081081856	56	6311
2026-01-21 19:42:07.03	314.39	5.15	-41.7	-42.9	20.8	0.00e+00	0	41	0	1082130432	56	6328
2026-01-21 19:42:08.19	314.26	5.10	-41.5	-42.6	21.1	0.00e+00	91	41	0	1084227584	56	6156
2026-01-21 19:42:09.06	314.17	5.05	-41.5	-42.7	21.1	0.00e+00	0	41	0	1086324736	56	6177
2026-01-21 19:42:10.21	314.05	4.99	-41.5	-42.7	21.1	0.00e+00	0	41	0	1088421888	56	6176
2026-01-21 19:42:11.07	313.95	4.95	-41.2	-42.4	21.1	0.00e+00	0	41	0	1089470464	56	5970
2026-01-21 19:42:12.22	313.83	4.89	-41.4	-42.6	21.1	0.00e+00	0	41	0	1092616192	56	6115
2026-01-21 19:42:13.08	313.74	4.85	-41.5	-42.7	20.9	0.00e+00	0	41	0	1093664768	56	6222
2026-01-21 19:42:14.24	313.62	4.79	-41.9	-43.1	20.6	0.00e+00	0	41	0	1095761920	56	6529
2026-01-21 19:42:15.10	313.53	4.75	-41.5	-42.7	21.0	0.00e+00	38	41	0	1097859072	56	6212
2026-01-21 19:42:16.25	313.41	4.69	-42.2	-43.6	20.2	0.00e+00	0	41	0	1099956224	56	6860
2026-01-21 19:42:17.12	313.32	4.65	-42.4	-43.7	20.1	0.00e+00	0	41	0	1101004800	56	6998
2026-01-21 19:42:18.28	313.20	4.59	-42.4	-43.7	20.1	0.00e+00	0	41	0	1103101952	56	6963
2026-01-21 19:42:19.14	313.11	4.54	-41.9	-43.2	20.5	0.00e+00	0	41	0	1105199104	56	6588
2026-01-21 19:42:20.29	312.99	4.49	-42.7	-44.1	19.6	0.00e+00	62	41	0	1107296256	56	7312
2026-01-21 19:42:21.16	312.90	4.44	-42.0	-43.3	20.4	0.00e+00	0	41	0	1108344832	58	5900
2026-01-21 19:42:22.32	312.78	4.38	-42.5	-43.9	19.7	0.00e+00	92	41	0	1111490560	58	6332
2026-01-21 19:42:23.18	312.70	4.34	-42.5	-43.9	19.7	0.00e+00	0	41	0	1112539136	58	6363
2026-01-21 19:42:24.33	312.58	4.28	-42.9	-44.4	19.4	0.00e+00	0	41	0	1114636288	58	6750
2026-01-21 19:42:25.20	312.49	4.24	-42.7	-44.2	19.5	0.00e+00	0	41	0	1116733440	58	6552
2026-01-21 19:42:26.35	312.38	4.18	-42.6	-44.0	19.8	0.00e+00	0	41	0	1118830592	58	6417
2026-01-21 19:42:27.22	312.29	4.14	-42.5	-43.9	19.9	0.00e+00	0	41	0	1119879168	58	6378
2026-01-21 19:42:28.37	312.17	4.08	-42.5	-43.9	19.8	0.00e+00	0	41	0	1121976320	58	6329
2026-01-21 19:42:29.24	312.09	4.03	-42.5	-43.9	19.8	0.00e+00	77	41	0	1124073472	58	6353
2026-01-21 19:42:30.39	311.97	3.98	-42.1	-43.4	20.2	0.00e+00	0	41	0	1126170624	58	6001
2026-01-21 19:42:31.26	311.89	3.93	-42.1	-43.4	20.3	0.00e+00	92	41	0	1128267776	58	5968
2026-01-21 19:42:32.41	311.77	3.87	-42.2	-43.5	20.2	0.00e+00	0	41	0	1130364928	58	6078
2026-01-21 19:42:33.28	311.69	3.83	-42.2	-43.5	20.0	0.00e+00	0	41	0	1131413504	58	6094
2026-01-21 19:42:34.43	311.57	3.77	-42.0	-43.3	20.3	0.00e+00	56	41	0	1133510656	58	5904
2026-01-21 19:42:35.30	311.49	3.73	-41.4	-42.6	20.9	0.00e+00	0	41	0	1135607808	56	6115
2026-01-21 19:42:36.45	311.38	3.67	-42.0	-43.3	20.2	0.00e+00	58	41	0	1137704960	56	6649
2026-01-21 19:42:37.32	311.29	3.63	-42.2	-43.5	19.9	0.00e+00	0	41	0	1138753536	56	6826
2026-01-21 19:42:38.47	311.18	3.57	-41.5	-42.8	20.6	0.00e+00	51	41	0	1140850688	56	6247
2026-01-21 19:42:39.34	311.10	3.53	-42.1	-43.4	20.0	0.00e+00	0	41	0	1142947840	56	6710
2026-01-21 19:42:40.49	310.99	3.47	-42.2	-43.5	20.0	0.00e+00	0	41	0	1145044992	56	6843
2026-01-21 19:42:41.36	310.91	3.43	-42.2	-43.6	20.0	0.00e+00	0	41	0	1147142144	56	6854
2026-01-21 19:42:42.51	310.80	3.37	-42.1	-43.4	19.9	0.00e+00	0	41	0	1149239296	56	6752
2026-01-21 19:42:43.38	310.71	3.32	-42.4	-43.8	19.6	0.00e+00	63	41	0	1150287872	56	7013
2026-01-21 19:42:44.53	310.60	3.27	-42.6	-44.1	19.4	0.00e+00	0	41	0	1152385024	58	6474
2026-01-21 19:42:45.40	310.52	3.22	-41.9	-43.2	20.3	0.00e+00	92	41	0	1154482176	58	5856
2026-01-21 19:42:46.55	310.42	3.17	-43.3	-44.9	18.6	0.00e+00	0	41	0	1156579328	58	7123
2026-01-21 19:42:47.42	310.33	3.12	-43.2	-44.8	18.7	0.00e+00	0	41	0	1157627904	58	7066
2026-01-21 19:42:48.57	310.23	3.06	-42.7	-44.2	19.2	0.00e+00	0	41	0	1160773632	58	6569
2026-01-21 19:42:49.44	310.15	3.02	-48.7	-55.4	6.7	0.00e+00	0	41	0	1161822208	60	21163
2026-01-21 19:42:50.60	310.04	2.96	-50.2	-65.4	3.6	1.51e+00	0	41	104	1161822208	60	67077
2026-01-21 19:42:51.46	309.96	2.92	-50.4	-65.6	3.6	1.51e+00	0	41	104	1161822208	60	68968
2026-01-21 19:42:52.62	309.85	2.86	-50.6	-65.9	3.6	1.51e+00	0	41	104	1161822208	60	70959
2026-01-21 19:42:53.48	309.77	2.82	-50.7	-65.9	3.6	1.51e+00	0	41	104	1161822208	60	71545
2026-01-21 19:42:54.63	309.67	2.76	-50.8	-66.0	3.6	1.51e+00	0	41	104	1161822208	60	72511
2026-01-21 19:42:55.50	309.59	2.72	-50.9	-66.0	3.6	1.51e+00	0	41	104	1161822208	60	72369
2026-01-21 19:42:56.65	309.49	2.66	-50.9	-66.1	3.6	1.51e+00	0	41	104	1161822208	60	73156
2026-01-21 19:42:57.52	309.41	2.62	-51.0	-66.2	3.6	1.51e+00	0	41	104	1161822208	60	73584
2026-01-21 19:42:58.67	309.30	2.56	-51.0	-66.2	3.6	1.51e+00	0	41	104	1161822208	60	73854
2026-01-21 19:42:59.54	309.23	2.52	-51.0	-66.2	3.6	1.51e+00	0	41	104	1161822208	60	73855
2026-01-21 19:43:00.69	309.12	2.46	-51.0	-66.2	3.6	1.51e+00	0	41	104	1161822208	60	73744
2026-01-21 19:43:01.56	309.05	2.42	-51.0	-66.2	3.6	1.51e+00	0	41	104	1161822208	60	74220
2026-01-21 19:43:02.71	308.94	2.36	-50.9	-66.2	3.6	1.51e+00	0	41	104	1161822208	60	73991
2026-01-21 19:43:03.58	308.87	2.32	-50.9	-66.2	3.6	1.51e+00	0	41	104	1161822208	60	73882
2026-01-21 19:43:04.73	308.77	2.26	-50.7	-66.1	3.6	1.51e+00	0	41	104	1161822208	60	73219
2026-01-21 19:43:05.60	308.69	2.22	-50.7	-66.1	3.6	1.51e+00	0	41	104	1161822208	60	73321
