passes_logs/2026/01/21/R4.6S_Anadyr/R4.6S_Anadyr__20260121_195130_NOAA_20_JPSS-1_rec.log

#Pass ID: 20260121_195130_NOAA 20 (JPSS-1)
#Satellite: NOAA 20 (JPSS-1)
#Configuration: NOAA 20
#almurnet v.1.7.20251203
#Start time: 2026-01-21 19:51:32

#Version: 2.2.20231116
#Station: R4.6S_Anadyr
#Location: 177.4865 lon 64.73178 lat
#TLE: 1 43013U 17073A   26020.82785136  .00000155  00000+0  94366-4 0  9991
#TLE: 2 43013  98.7643 321.7058 0001260  30.3785 329.7464 14.19537992423566

#Time	Az	El	Level	Level2	SNR	BER	BlckErr	Temp	State	Recorded	gain1	gain2
2026-01-21 19:51:32.56	59.69	0.12	-50.9	-65.9	3.5	1.51e+00	0	38	0	0	60	70905
2026-01-21 19:51:33.57	59.61	0.17	-51.2	-66.4	3.6	1.51e+00	0	39	104	0	60	75289
2026-01-21 19:51:34.58	59.54	0.22	-51.0	-66.3	3.6	1.51e+00	0	39	104	0	60	74775
2026-01-21 19:51:35.59	59.46	0.27	-51.0	-66.3	3.6	1.51e+00	0	40	104	0	60	74699
2026-01-21 19:51:36.60	59.38	0.32	-50.9	-66.2	3.6	1.51e+00	0	40	104	0	60	74087
2026-01-21 19:51:37.61	59.31	0.37	-51.0	-66.2	3.6	1.51e+00	0	40	104	0	60	74101
2026-01-21 19:51:38.62	59.23	0.42	-50.9	-66.2	3.6	1.51e+00	0	40	104	0	60	73812
2026-01-21 19:51:39.63	59.15	0.47	-51.0	-66.2	3.6	1.51e+00	0	40	104	0	60	74018
2026-01-21 19:51:40.64	59.07	0.52	-51.0	-66.2	3.6	1.51e+00	0	40	104	0	60	73791
2026-01-21 19:51:41.65	59.00	0.57	-51.0	-66.2	3.6	1.51e+00	0	40	104	0	60	73763
2026-01-21 19:51:42.66	58.92	0.61	-50.9	-66.1	3.6	1.51e+00	0	40	104	0	60	73298
2026-01-21 19:51:43.67	58.84	0.66	-50.9	-66.2	3.6	1.51e+00	0	40	104	0	60	73515
2026-01-21 19:51:44.68	58.76	0.71	-50.9	-66.2	3.6	1.51e+00	0	40	104	0	60	73651
2026-01-21 19:51:45.69	58.68	0.76	-50.9	-66.2	3.6	1.51e+00	0	40	104	0	60	73427
2026-01-21 19:51:46.70	58.60	0.81	-50.8	-66.1	3.5	1.51e+00	0	40	104	0	60	73109
2026-01-21 19:51:47.71	58.52	0.86	-50.9	-66.1	3.6	1.51e+00	0	40	104	0	60	72939
2026-01-21 19:51:48.72	58.44	0.91	-50.9	-66.1	3.6	1.51e+00	0	40	104	0	60	73107
2026-01-21 19:51:49.73	58.36	0.96	-50.8	-66.0	3.6	1.51e+00	0	40	104	0	60	72219
2026-01-21 19:51:50.74	58.28	1.01	-50.5	-66.0	3.6	1.51e+00	0	40	104	0	60	71729
2026-01-21 19:51:51.75	58.20	1.06	-50.7	-65.9	3.6	1.51e+00	0	40	104	0	60	71270
2026-01-21 19:51:52.76	58.12	1.11	-50.7	-65.9	3.6	1.51e+00	0	40	104	0	60	71041
2026-01-21 19:51:53.77	58.04	1.16	-50.5	-65.8	3.6	1.51e+00	0	40	104	0	60	70371
2026-01-21 19:51:54.78	57.95	1.21	-50.4	-65.6	3.6	1.51e+00	0	40	104	0	60	68834
2026-01-21 19:51:55.79	57.87	1.26	-50.3	-65.5	3.6	1.51e+00	0	40	104	0	60	68098
2026-01-21 19:51:56.81	57.79	1.31	-50.1	-65.2	3.6	1.51e+00	0	40	104	0	60	66009
2026-01-21 19:51:57.82	57.71	1.36	-49.7	-64.9	3.6	1.51e+00	0	40	104	0	60	63292
2026-01-21 19:51:58.83	57.62	1.41	-49.4	-64.7	3.6	1.51e+00	0	40	104	0	60	61867
2026-01-21 19:51:59.84	57.54	1.46	-49.4	-64.6	3.6	1.51e+00	0	40	104	0	60	61421
2026-01-21 19:52:00.85	57.46	1.51	-49.4	-64.5	3.6	1.51e+00	0	40	104	0	60	61001
2026-01-21 19:52:01.86	57.37	1.56	-49.4	-64.6	3.6	1.51e+00	0	40	104	0	60	61175
2026-01-21 19:52:02.87	57.29	1.61	-49.3	-64.6	3.6	1.51e+00	0	40	104	0	60	61147
2026-01-21 19:52:03.88	57.20	1.66	-49.4	-64.6	3.6	1.51e+00	0	40	104	0	60	61114
2026-01-21 19:52:04.88	57.12	1.71	-49.4	-64.6	3.6	1.51e+00	0	40	104	0	60	61240
2026-01-21 19:52:05.89	57.03	1.76	-49.4	-64.5	3.6	1.51e+00	0	40	104	0	60	60778
2026-01-21 19:52:06.90	56.95	1.81	-49.4	-64.5	3.6	1.51e+00	0	40	104	0	60	60951
2026-01-21 19:52:07.91	56.86	1.86	-49.4	-64.6	3.6	1.51e+00	0	40	104	0	60	61220
2026-01-21 19:52:08.92	56.78	1.91	-49.4	-64.6	3.6	1.51e+00	0	40	104	0	60	61264
2026-01-21 19:52:09.93	56.69	1.96	-49.4	-64.6	3.5	1.51e+00	0	40	104	0	60	61429
2026-01-21 19:52:10.94	56.60	2.01	-49.4	-64.6	3.6	1.51e+00	0	40	104	0	60	61278
2026-01-21 19:52:11.95	56.52	2.06	-49.4	-64.5	3.6	1.51e+00	0	41	104	0	60	60964
2026-01-21 19:52:12.96	56.43	2.11	-49.4	-64.5	3.6	1.51e+00	0	40	104	0	60	60701
2026-01-21 19:52:13.97	56.34	2.16	-49.3	-64.4	3.6	1.51e+00	0	41	104	0	60	60021
2026-01-21 19:52:14.98	56.26	2.21	-49.3	-64.3	3.6	1.51e+00	0	40	104	0	60	58967
2026-01-21 19:52:15.99	56.17	2.26	-49.3	-64.4	3.6	1.51e+00	0	40	104	0	60	59674
2026-01-21 19:52:17.00	56.08	2.31	-49.4	-64.4	3.6	1.51e+00	0	40	104	0	60	59930
2026-01-21 19:52:18.01	55.99	2.36	-49.3	-64.5	3.6	1.51e+00	0	41	104	0	60	60919
2026-01-21 19:52:19.02	55.90	2.41	-49.3	-64.5	3.6	1.51e+00	0	40	104	0	60	60972
2026-01-21 19:52:20.03	55.81	2.46	-49.3	-64.5	3.6	1.51e+00	0	40	104	0	60	60760
2026-01-21 19:52:21.04	55.72	2.51	-49.4	-64.5	3.6	1.51e+00	0	40	104	0	60	60543
2026-01-21 19:52:22.05	55.63	2.56	-49.4	-64.4	3.6	1.51e+00	0	40	104	0	60	60254
2026-01-21 19:52:23.06	55.54	2.62	-49.3	-64.5	3.6	1.51e+00	0	40	104	0	60	60678
2026-01-21 19:52:24.07	55.45	2.67	-49.3	-64.5	3.6	1.51e+00	0	41	104	0	60	60761
2026-01-21 19:52:25.08	55.36	2.72	-49.3	-64.3	3.5	1.51e+00	0	41	104	0	60	59052
2026-01-21 19:52:26.09	55.27	2.77	-49.3	-63.9	3.6	1.51e+00	0	40	104	0	60	56423
2026-01-21 19:52:27.09	55.18	2.82	-49.3	-63.9	3.6	1.51e+00	0	40	104	0	60	56481
2026-01-21 19:52:28.10	55.09	2.87	-49.3	-64.3	3.6	1.51e+00	0	40	104	0	60	59227
2026-01-21 19:52:29.11	54.99	2.92	-49.3	-63.4	3.6	1.51e+00	0	41	104	0	60	53615
2026-01-21 19:52:30.12	54.90	2.97	-49.2	-61.6	3.9	1.51e+00	0	40	104	0	60	43452
2026-01-21 19:52:31.13	54.81	3.02	-48.7	-56.0	6.5	7.03e-01	91	41	0	0	60	22797
2026-01-21 19:52:32.14	54.72	3.07	-49.6	-64.7	3.6	1.18e+00	0	40	104	1048576	60	62430
2026-01-21 19:52:33.15	54.62	3.12	-49.0	-58.0	6.4	1.51e+00	2	41	104	1048576	60	28609
2026-01-21 19:52:34.16	54.53	3.17	-49.2	-64.0	3.6	1.51e+00	0	41	104	1048576	60	57606
2026-01-21 19:52:35.17	54.43	3.22	-49.5	-64.1	3.6	1.51e+00	0	41	104	1048576	60	58161
2026-01-21 19:52:36.18	54.34	3.27	-46.7	-50.5	13.0	1.03e+00	92	41	104	1048576	60	12075
2026-01-21 19:52:37.19	54.24	3.32	-47.1	-51.1	12.2	6.63e-05	0	41	0	2097152	60	13040
2026-01-21 19:52:38.20	54.15	3.38	-46.8	-50.4	13.4	2.04e-04	92	41	0	4194304	60	12037
2026-01-21 19:52:39.21	54.05	3.43	-46.4	-49.7	13.4	9.90e-06	92	41	0	5242880	60	11051
2026-01-21 19:52:40.22	53.96	3.48	-46.8	-50.4	13.6	2.28e-05	40	41	0	7340032	60	11919
2026-01-21 19:52:41.23	53.86	3.53	-46.3	-49.4	14.3	4.50e-06	92	41	0	9437184	60	10712
2026-01-21 19:52:42.24	53.76	3.58	-46.1	-49.1	14.6	0.00e+00	2	41	0	11534336	60	10272
2026-01-21 19:52:43.25	53.67	3.63	-45.6	-48.3	15.5	1.50e-06	92	41	0	13631488	60	9347
2026-01-21 19:52:44.26	53.57	3.68	-46.0	-48.8	14.8	0.00e+00	87	41	0	14680064	60	9970
2026-01-21 19:52:45.27	53.47	3.73	-45.3	-47.7	16.0	0.00e+00	92	41	0	16777216	60	8812
2026-01-21 19:52:46.28	53.37	3.78	-45.5	-48.0	15.8	0.00e+00	90	41	0	18874368	60	9083
2026-01-21 19:52:47.29	53.28	3.83	-45.3	-47.7	16.1	0.00e+00	2	41	0	20971520	60	8808
2026-01-21 19:52:48.30	53.18	3.89	-44.5	-46.6	17.3	0.00e+00	90	41	0	23068672	60	7686
2026-01-21 19:52:49.31	53.08	3.94	-44.3	-46.3	17.5	0.00e+00	8	41	0	25165824	60	7476
2026-01-21 19:52:50.32	52.98	3.99	-44.6	-46.7	17.1	0.00e+00	92	41	0	26214400	60	7782
2026-01-21 19:52:51.33	52.88	4.04	-44.5	-46.5	17.3	0.00e+00	4	41	0	28311552	60	7627
2026-01-21 19:52:52.34	52.78	4.09	-44.4	-46.3	17.3	0.00e+00	90	41	0	30408704	60	7499
2026-01-21 19:52:53.34	52.68	4.14	-44.7	-46.8	17.1	0.00e+00	60	41	0	32505856	60	7894
2026-01-21 19:52:54.35	52.58	4.19	-44.6	-46.6	17.2	0.00e+00	92	40	0	34603008	60	7771
2026-01-21 19:52:55.36	52.48	4.24	-44.6	-46.7	17.2	0.00e+00	92	40	0	35651584	60	7790
2026-01-21 19:52:56.37	52.37	4.29	-44.8	-46.9	16.9	0.00e+00	0	40	0	37748736	60	7971
2026-01-21 19:52:57.38	52.27	4.35	-44.8	-46.9	16.9	0.00e+00	90	41	0	39845888	60	7998
2026-01-21 19:52:58.39	52.17	4.40	-44.8	-46.9	16.9	0.00e+00	0	41	0	41943040	60	8032
2026-01-21 19:52:59.40	52.07	4.45	-44.7	-46.7	17.4	0.00e+00	92	41	0	44040192	60	7847
2026-01-21 19:53:00.41	51.96	4.50	-44.3	-46.2	17.7	0.00e+00	0	41	0	45088768	60	7394
2026-01-21 19:53:01.42	51.86	4.55	-44.0	-45.8	18.1	0.00e+00	92	41	0	47185920	60	7048
2026-01-21 19:53:02.43	51.76	4.60	-44.3	-46.2	17.8	0.00e+00	90	41	0	49283072	60	7352
2026-01-21 19:53:03.44	51.65	4.65	-44.1	-45.9	18.0	0.00e+00	75	41	0	51380224	60	7134
2026-01-21 19:53:04.45	51.55	4.70	-44.3	-46.2	17.8	0.00e+00	91	41	0	53477376	60	7413
2026-01-21 19:53:05.46	51.44	4.76	-44.2	-46.1	18.0	0.00e+00	75	41	0	54525952	60	7261
2026-01-21 19:53:06.47	51.34	4.81	-43.7	-45.4	18.5	0.00e+00	92	41	0	56623104	60	6722
2026-01-21 19:53:07.48	51.23	4.86	-43.8	-45.6	18.5	0.00e+00	0	41	0	58720256	60	6866
2026-01-21 19:53:08.49	51.13	4.91	-43.9	-45.7	18.4	0.00e+00	92	41	0	60817408	60	6937
2026-01-21 19:53:09.49	51.02	4.96	-43.8	-45.5	18.6	0.00e+00	92	41	0	62914560	60	6795
2026-01-21 19:53:10.50	50.91	5.01	-43.7	-45.4	18.3	0.00e+00	7	41	0	63963136	60	6738
2026-01-21 19:53:11.51	50.81	5.06	-43.8	-45.5	18.6	0.00e+00	92	41	0	66060288	60	6805
2026-01-21 19:53:12.52	50.70	5.11	-43.9	-45.7	18.3	0.00e+00	0	41	0	68157440	60	6954
2026-01-21 19:53:13.53	50.59	5.17	-44.0	-45.8	18.4	0.00e+00	92	41	0	70254592	60	7022
2026-01-21 19:53:14.54	50.48	5.22	-43.8	-45.5	18.2	0.00e+00	4	41	0	72351744	60	6826
2026-01-21 19:53:15.55	50.37	5.27	-43.7	-45.3	18.7	0.00e+00	92	41	0	73400320	60	6679
2026-01-21 19:53:16.56	50.26	5.32	-43.7	-45.4	18.7	0.00e+00	46	41	0	75497472	60	6748
2026-01-21 19:53:17.57	50.15	5.37	-44.2	-46.0	18.0	0.00e+00	6	41	0	77594624	60	7253
2026-01-21 19:53:18.58	50.04	5.42	-43.7	-45.4	18.7	0.00e+00	92	41	0	79691776	60	6731
2026-01-21 19:53:19.59	49.93	5.47	-43.8	-45.5	18.5	0.00e+00	5	41	0	81788928	60	6844
2026-01-21 19:53:20.60	49.82	5.52	-43.4	-44.9	19.1	0.00e+00	92	41	0	82837504	60	6371
2026-01-21 19:53:21.61	49.71	5.58	-43.3	-44.9	19.2	0.00e+00	0	41	0	84934656	60	6340
2026-01-21 19:53:22.62	49.60	5.63	-43.2	-44.7	19.3	0.00e+00	92	41	0	87031808	60	6241
2026-01-21 19:53:23.63	49.49	5.68	-43.3	-44.8	19.2	0.00e+00	81	41	0	89128960	60	6278
2026-01-21 19:53:24.64	49.38	5.73	-43.8	-45.5	18.7	0.00e+00	9	41	0	91226112	60	6817
2026-01-21 19:53:25.65	49.26	5.78	-43.4	-45.0	19.1	0.00e+00	92	41	0	93323264	60	6441
2026-01-21 19:53:26.66	49.15	5.83	-43.1	-44.6	19.4	0.00e+00	0	41	0	94371840	60	6106
2026-01-21 19:53:27.67	49.04	5.88	-43.1	-44.6	19.4	0.00e+00	92	41	0	96468992	60	6154
2026-01-21 19:53:28.68	48.92	5.94	-43.6	-45.2	18.6	0.00e+00	6	41	0	98566144	60	6614
2026-01-21 19:53:29.69	48.81	5.99	-44.0	-45.7	18.4	0.00e+00	90	41	0	100663296	60	6968
2026-01-21 19:53:30.70	48.69	6.04	-43.7	-45.4	18.8	0.00e+00	0	41	0	102760448	60	6718
2026-01-21 19:53:31.71	48.58	6.09	-43.9	-45.6	18.7	0.00e+00	7	41	0	103809024	60	6900
2026-01-21 19:53:32.71	48.46	6.14	-43.7	-45.4	18.9	0.00e+00	60	41	0	105906176	60	6695
2026-01-21 19:53:33.72	48.35	6.19	-43.3	-44.9	19.3	0.00e+00	21	41	0	108003328	60	6331
2026-01-21 19:53:34.73	48.23	6.24	-43.5	-45.0	19.1	0.00e+00	92	41	0	110100480	60	6449
2026-01-21 19:53:35.74	48.11	6.29	-43.6	-45.2	19.0	0.00e+00	6	41	0	112197632	60	6582
2026-01-21 19:53:36.75	48.00	6.35	-43.6	-45.1	19.1	0.00e+00	92	41	0	113246208	60	6526
2026-01-21 19:53:37.76	47.88	6.40	-43.5	-45.1	19.1	0.00e+00	6	41	0	115343360	60	6503
2026-01-21 19:53:38.77	47.76	6.45	-43.6	-45.2	19.1	0.00e+00	92	41	0	117440512	60	6548
2026-01-21 19:53:39.78	47.64	6.50	-43.4	-44.9	19.2	0.00e+00	91	41	0	119537664	60	6390
2026-01-21 19:53:40.79	47.52	6.55	-43.5	-45.1	19.1	0.00e+00	75	41	0	121634816	60	6513
2026-01-21 19:53:41.80	47.40	6.60	-43.5	-45.1	19.2	0.00e+00	92	41	0	122683392	60	6494
2026-01-21 19:53:42.81	47.28	6.65	-43.7	-45.3	19.0	0.00e+00	7	41	0	124780544	60	6632
2026-01-21 19:53:43.82	47.16	6.70	-43.6	-45.2	19.1	0.00e+00	91	41	0	126877696	60	6544
2026-01-21 19:53:44.83	47.04	6.75	-43.5	-45.0	19.2	0.00e+00	0	41	0	128974848	60	6416
2026-01-21 19:53:45.84	46.92	6.81	-43.4	-45.0	19.3	0.00e+00	92	41	0	131072000	60	6396
2026-01-21 19:53:46.84	46.80	6.86	-43.4	-44.9	19.3	0.00e+00	2	41	0	132120576	60	6347
2026-01-21 19:53:47.85	46.68	6.91	-43.4	-45.0	19.3	0.00e+00	0	41	0	134217728	60	6414
2026-01-21 19:53:48.86	46.55	6.96	-43.2	-44.7	19.6	0.00e+00	92	41	0	136314880	60	6191
2026-01-21 19:53:49.88	46.43	7.01	-43.4	-44.9	19.4	0.00e+00	0	41	0	138412032	60	6336
2026-01-21 19:53:50.88	46.31	7.06	-43.3	-44.8	19.5	0.00e+00	91	41	0	140509184	60	6271
2026-01-21 19:53:51.89	46.18	7.11	-43.1	-44.6	19.6	0.00e+00	0	41	0	141557760	60	6153
2026-01-21 19:53:52.90	46.06	7.16	-43.2	-44.7	19.6	0.00e+00	92	41	0	143654912	60	6225
2026-01-21 19:53:53.91	45.93	7.21	-43.3	-44.8	19.5	0.00e+00	2	41	0	145752064	60	6264
2026-01-21 19:53:54.92	45.81	7.26	-43.3	-44.8	19.3	0.00e+00	0	41	0	147849216	60	6316
2026-01-21 19:53:55.93	45.68	7.31	-43.6	-45.2	19.0	0.00e+00	92	41	0	149946368	60	6572
2026-01-21 19:53:56.94	45.56	7.37	-43.8	-45.4	18.8	0.00e+00	2	41	0	152043520	60	6762
2026-01-21 19:53:57.95	45.43	7.42	-43.5	-45.1	19.2	0.00e+00	92	41	0	153092096	60	6497
2026-01-21 19:53:58.96	45.30	7.47	-43.4	-44.8	19.5	0.00e+00	7	41	0	155189248	60	6316
2026-01-21 19:53:59.96	45.18	7.52	-43.4	-44.9	19.4	0.00e+00	91	41	0	157286400	60	6367
2026-01-21 19:54:00.97	45.05	7.57	-43.4	-44.9	19.4	0.00e+00	0	41	0	159383552	60	6370
2026-01-21 19:54:01.98	44.92	7.62	-43.4	-44.9	19.6	0.00e+00	90	41	0	161480704	60	6323
2026-01-21 19:54:02.99	44.79	7.67	-43.2	-44.6	19.6	0.00e+00	8	41	0	162529280	60	6149
2026-01-21 19:54:04.00	44.66	7.72	-43.3	-44.7	19.6	0.00e+00	8	41	0	164626432	60	6234
2026-01-21 19:54:05.01	44.53	7.77	-43.0	-44.4	19.9	0.00e+00	92	41	0	166723584	60	6020
2026-01-21 19:54:06.02	44.40	7.82	-43.1	-44.5	19.8	0.00e+00	8	41	0	168820736	60	6087
2026-01-21 19:54:07.03	44.27	7.87	-42.9	-44.3	20.0	0.00e+00	92	41	0	170917888	60	5959
2026-01-21 19:54:08.04	44.14	7.92	-43.0	-44.4	20.0	0.00e+00	74	41	0	171966464	60	5987
2026-01-21 19:54:09.05	44.01	7.97	-42.9	-44.2	20.1	0.00e+00	92	41	0	174063616	60	5890
2026-01-21 19:54:10.06	43.88	8.02	-42.8	-44.2	20.1	0.00e+00	1	41	0	176160768	60	5874
2026-01-21 19:54:11.07	43.74	8.07	-43.0	-44.4	19.9	0.00e+00	0	41	0	178257920	60	5975
2026-01-21 19:54:12.09	43.61	8.12	-43.1	-44.5	19.9	0.00e+00	92	41	0	180355072	60	6088
2026-01-21 19:54:13.10	43.48	8.17	-43.0	-44.4	20.0	0.00e+00	0	41	0	181403648	60	5999
2026-01-21 19:54:14.11	43.34	8.22	-43.0	-44.4	19.9	0.00e+00	92	41	0	183500800	60	6005
2026-01-21 19:54:15.12	43.21	8.27	-42.5	-43.8	20.4	0.00e+00	0	41	0	185597952	58	6304
2026-01-21 19:54:16.13	43.07	8.32	-42.6	-43.9	20.3	0.00e+00	92	41	0	187695104	58	6378
2026-01-21 19:54:17.14	42.94	8.37	-42.5	-43.9	20.4	0.00e+00	0	41	0	189792256	58	6337
2026-01-21 19:54:18.15	42.80	8.42	-42.5	-43.9	20.4	0.00e+00	0	41	0	190840832	58	6330
2026-01-21 19:54:19.16	42.67	8.47	-42.6	-44.0	20.3	0.00e+00	92	41	0	192937984	58	6422
2026-01-21 19:54:20.17	42.53	8.52	-42.5	-43.8	20.4	0.00e+00	2	41	0	195035136	58	6310
2026-01-21 19:54:21.18	42.39	8.57	-42.7	-44.0	20.3	0.00e+00	92	41	0	197132288	58	6428
2026-01-21 19:54:22.19	42.25	8.62	-42.7	-44.0	20.3	0.00e+00	71	41	0	199229440	58	6418
2026-01-21 19:54:23.20	42.12	8.67	-42.6	-43.9	20.4	0.00e+00	92	41	0	200278016	58	6324
2026-01-21 19:54:24.21	41.98	8.72	-42.8	-44.1	20.2	0.00e+00	9	41	0	202375168	58	6524
2026-01-21 19:54:25.22	41.84	8.77	-42.5	-43.8	20.5	0.00e+00	92	41	0	204472320	58	6313
2026-01-21 19:54:26.23	41.70	8.82	-42.6	-43.9	20.4	0.00e+00	0	41	0	206569472	58	6383
2026-01-21 19:54:27.24	41.56	8.87	-42.6	-43.9	20.2	0.00e+00	0	41	0	208666624	58	6363
2026-01-21 19:54:28.25	41.42	8.92	-42.7	-44.0	20.3	0.00e+00	92	41	0	209715200	58	6414
2026-01-21 19:54:29.26	41.28	8.97	-42.4	-43.7	20.6	0.00e+00	73	41	0	211812352	58	6212
2026-01-21 19:54:30.27	41.13	9.02	-42.8	-44.2	20.2	0.00e+00	91	41	0	213909504	58	6560
2026-01-21 19:54:31.28	40.99	9.07	-42.9	-44.2	20.2	0.00e+00	0	41	0	216006656	58	6603
2026-01-21 19:54:32.29	40.85	9.12	-42.6	-43.9	20.3	0.00e+00	92	41	0	218103808	58	6372
2026-01-21 19:54:33.30	40.71	9.16	-42.7	-44.0	20.3	0.00e+00	0	41	0	220200960	58	6444
2026-01-21 19:54:34.31	40.56	9.21	-42.7	-44.1	20.3	0.00e+00	2	41	0	221249536	58	6465
2026-01-21 19:54:35.32	40.42	9.26	-42.7	-44.0	20.4	0.00e+00	92	41	0	223346688	58	6463
2026-01-21 19:54:36.33	40.27	9.31	-42.7	-44.0	20.3	0.00e+00	0	41	0	225443840	58	6428
2026-01-21 19:54:37.34	40.13	9.36	-42.6	-43.9	20.5	0.00e+00	91	41	0	227540992	58	6387
2026-01-21 19:54:38.35	39.98	9.41	-42.6	-43.9	20.5	0.00e+00	6	41	0	229638144	58	6339
2026-01-21 19:54:39.36	39.84	9.46	-42.6	-43.9	20.5	0.00e+00	92	41	0	230686720	58	6355
2026-01-21 19:54:40.37	39.69	9.50	-42.4	-43.7	20.7	0.00e+00	0	41	0	232783872	58	6177
2026-01-21 19:54:41.38	39.54	9.55	-42.3	-43.6	20.8	0.00e+00	6	41	0	234881024	58	6130
2026-01-21 19:54:42.39	39.40	9.60	-42.2	-43.4	20.9	0.00e+00	91	41	0	236978176	58	6012
2026-01-21 19:54:43.41	39.25	9.65	-42.4	-43.7	20.7	0.00e+00	0	41	0	239075328	58	6200
2026-01-21 19:54:44.42	39.10	9.70	-42.5	-43.8	20.6	0.00e+00	92	41	0	240123904	58	6253
2026-01-21 19:54:45.43	38.95	9.75	-42.1	-43.3	21.0	0.00e+00	72	41	0	242221056	58	5933
2026-01-21 19:54:46.44	38.80	9.79	-42.2	-43.5	20.9	0.00e+00	92	41	0	244318208	58	6060
2026-01-21 19:54:47.45	38.65	9.84	-42.0	-43.2	21.0	0.00e+00	0	41	0	246415360	58	5861
2026-01-21 19:54:48.46	38.50	9.89	-41.9	-43.1	21.1	0.00e+00	92	41	0	248512512	58	5805
2026-01-21 19:54:49.46	38.35	9.94	-41.9	-43.1	21.2	0.00e+00	0	41	0	249561088	58	5815
2026-01-21 19:54:50.47	38.20	9.98	-41.9	-43.1	21.2	0.00e+00	0	41	0	251658240	58	5805
2026-01-21 19:54:51.48	38.05	10.03	-42.0	-43.2	21.1	0.00e+00	90	41	0	253755392	58	5890
2026-01-21 19:54:52.49	37.89	10.08	-41.5	-42.6	21.7	0.00e+00	5	41	0	255852544	56	6125
2026-01-21 19:54:53.50	37.74	10.12	-41.6	-42.7	21.7	0.00e+00	92	41	0	257949696	56	6229
2026-01-21 19:54:54.51	37.59	10.17	-41.6	-42.8	21.6	0.00e+00	5	41	0	258998272	56	6267
2026-01-21 19:54:55.52	37.43	10.22	-41.7	-42.8	21.5	0.00e+00	92	41	0	261095424	56	6276
2026-01-21 19:54:56.53	37.28	10.26	-41.3	-42.3	22.0	0.00e+00	15	41	0	263192576	56	5951
2026-01-21 19:54:57.54	37.12	10.31	-41.2	-42.3	22.0	0.00e+00	0	41	0	265289728	56	5938
2026-01-21 19:54:58.55	36.97	10.36	-41.2	-42.2	22.0	0.00e+00	92	41	0	267386880	56	5882
2026-01-21 19:54:59.56	36.81	10.40	-41.2	-42.3	21.9	0.00e+00	6	41	0	268435456	56	5936
2026-01-21 19:55:00.57	36.66	10.45	-41.2	-42.3	21.9	0.00e+00	92	41	0	270532608	56	5914
2026-01-21 19:55:01.57	36.50	10.50	-41.1	-42.2	22.1	0.00e+00	6	41	0	272629760	56	5851
2026-01-21 19:55:02.58	36.34	10.54	-41.4	-42.5	21.9	0.00e+00	8	41	0	274726912	56	6069
2026-01-21 19:55:03.59	36.18	10.59	-41.6	-42.7	21.6	0.00e+00	0	41	0	276824064	56	6215
2026-01-21 19:55:04.60	36.03	10.63	-41.7	-42.9	21.6	0.00e+00	83	41	0	277872640	56	6351
2026-01-21 19:55:05.61	35.87	10.68	-41.3	-42.3	22.1	0.00e+00	92	41	0	279969792	56	5950
2026-01-21 19:55:06.63	35.71	10.73	-41.1	-42.1	22.2	0.00e+00	79	41	0	282066944	56	5827
2026-01-21 19:55:07.64	35.55	10.77	-41.3	-42.4	22.0	0.00e+00	90	41	0	284164096	56	6003
2026-01-21 19:55:08.65	35.39	10.82	-41.1	-42.1	22.2	0.00e+00	78	41	0	286261248	56	5813
2026-01-21 19:55:09.65	35.23	10.86	-41.1	-42.1	22.2	0.00e+00	77	41	0	288358400	56	5801
2026-01-21 19:55:10.67	35.06	10.91	-40.9	-42.0	22.4	0.00e+00	0	41	0	289406976	56	5717
2026-01-21 19:55:11.67	34.90	10.95	-41.0	-42.0	22.3	0.00e+00	0	41	0	291504128	56	5756
2026-01-21 19:55:12.69	34.74	11.00	-40.9	-41.9	22.4	0.00e+00	69	41	0	293601280	56	5667
2026-01-21 19:55:13.70	34.57	11.04	-40.8	-41.8	22.5	0.00e+00	0	41	0	295698432	56	5614
2026-01-21 19:55:14.71	34.41	11.08	-40.9	-41.9	22.5	0.00e+00	92	41	0	297795584	56	5677
2026-01-21 19:55:15.72	34.25	11.13	-40.6	-41.7	22.6	0.00e+00	6	41	0	298844160	54	6175
2026-01-21 19:55:16.73	34.08	11.17	-40.6	-41.6	22.6	0.00e+00	9	41	0	300941312	54	6156
2026-01-21 19:55:17.74	33.92	11.22	-40.6	-41.6	22.6	0.00e+00	1	41	0	303038464	54	6152
2026-01-21 19:55:18.75	33.75	11.26	-40.6	-41.6	22.6	0.00e+00	6	41	0	305135616	54	6151
2026-01-21 19:55:19.76	33.59	11.30	-40.6	-41.6	22.6	0.00e+00	0	41	0	307232768	54	6164
2026-01-21 19:55:20.77	33.42	11.35	-40.8	-41.8	22.5	0.00e+00	9	41	0	308281344	54	6273
2026-01-21 19:55:21.78	33.25	11.39	-40.6	-41.6	22.6	0.00e+00	90	41	0	310378496	54	6165
2026-01-21 19:55:22.79	33.08	11.43	-40.5	-41.4	22.1	0.00e+00	72	41	0	312475648	54	6029
2026-01-21 19:55:23.80	32.92	11.48	-40.5	-41.5	22.6	0.00e+00	88	41	0	314572800	54	6077
2026-01-21 19:55:24.81	32.75	11.52	-40.2	-41.1	23.1	0.00e+00	8	41	0	316669952	54	5802
2026-01-21 19:55:25.82	32.58	11.56	-40.1	-41.0	23.2	0.00e+00	9	41	0	317718528	54	5747
2026-01-21 19:55:26.83	32.41	11.61	-40.0	-41.0	23.2	0.00e+00	0	41	0	319815680	54	5720
2026-01-21 19:55:27.84	32.24	11.65	-40.0	-41.0	23.2	0.00e+00	74	41	0	321912832	54	5707
2026-01-21 19:55:28.85	32.07	11.69	-40.2	-41.1	23.0	0.00e+00	90	41	0	324009984	54	5797
2026-01-21 19:55:29.86	31.90	11.73	-40.2	-41.1	23.1	0.00e+00	0	41	0	326107136	54	5824
2026-01-21 19:55:30.87	31.73	11.77	-40.4	-41.3	22.8	0.00e+00	92	41	0	327155712	54	5953
2026-01-21 19:55:31.87	31.55	11.82	-40.5	-41.5	22.8	0.00e+00	71	41	0	329252864	54	6054
2026-01-21 19:55:32.88	31.38	11.86	-40.4	-41.3	23.0	0.00e+00	0	41	0	331350016	54	5948
2026-01-21 19:55:33.89	31.21	11.90	-40.2	-41.2	23.1	0.00e+00	0	41	0	333447168	54	5840
2026-01-21 19:55:34.90	31.04	11.94	-40.7	-41.7	22.6	0.00e+00	0	41	0	335544320	54	6188
2026-01-21 19:55:35.91	30.86	11.98	-40.8	-41.8	22.5	0.00e+00	78	41	0	336592896	54	6294
2026-01-21 19:55:36.92	30.69	12.02	-40.5	-41.5	22.8	0.00e+00	0	41	0	338690048	54	6041
2026-01-21 19:55:37.93	30.51	12.06	-40.7	-41.7	22.6	0.00e+00	91	41	0	340787200	54	6234
2026-01-21 19:55:38.94	30.34	12.10	-40.5	-41.5	22.6	0.00e+00	2	41	0	342884352	54	6035
2026-01-21 19:55:39.95	30.16	12.14	-40.5	-41.5	22.8	0.00e+00	82	41	0	344981504	54	6067
2026-01-21 19:55:40.96	29.98	12.18	-40.7	-41.7	22.5	0.00e+00	9	41	0	346030080	54	6242
2026-01-21 19:55:41.97	29.81	12.22	-40.8	-41.8	22.5	0.00e+00	10	41	0	348127232	54	6281
2026-01-21 19:55:42.98	29.63	12.26	-40.6	-41.6	22.7	0.00e+00	0	41	0	350224384	54	6160
2026-01-21 19:55:43.99	29.45	12.30	-40.7	-41.7	22.6	0.00e+00	11	41	0	352321536	54	6177
2026-01-21 19:55:45.00	29.27	12.34	-40.7	-41.7	22.6	0.00e+00	92	41	0	354418688	54	6226
2026-01-21 19:55:46.01	29.09	12.38	-40.7	-41.7	22.6	0.00e+00	9	41	0	356515840	54	6194
2026-01-21 19:55:47.02	28.92	12.42	-40.9	-41.9	22.5	0.00e+00	71	41	0	357564416	54	6339
2026-01-21 19:55:48.03	28.74	12.45	-41.0	-42.0	22.3	0.00e+00	72	41	0	359661568	54	6437
2026-01-21 19:55:49.04	28.55	12.49	-40.8	-41.8	22.5	0.00e+00	72	41	0	361758720	54	6301
2026-01-21 19:55:50.05	28.37	12.53	-40.8	-41.8	22.5	0.00e+00	0	41	0	363855872	54	6278
2026-01-21 19:55:51.06	28.19	12.57	-40.7	-41.7	22.6	0.00e+00	72	41	0	365953024	54	6196
2026-01-21 19:55:52.08	28.01	12.61	-40.6	-41.6	22.6	0.00e+00	92	41	0	367001600	54	6152
2026-01-21 19:55:53.08	27.83	12.64	-40.7	-41.7	22.5	0.00e+00	0	41	0	369098752	54	6212
2026-01-21 19:55:54.09	27.65	12.68	-40.8	-41.8	22.6	0.00e+00	92	41	0	371195904	54	6264
2026-01-21 19:55:55.10	27.46	12.72	-40.7	-41.7	22.7	0.00e+00	0	41	0	373293056	54	6182
2026-01-21 19:55:56.11	27.28	12.75	-40.6	-41.5	22.7	0.00e+00	4	41	0	375390208	54	6103
2026-01-21 19:55:57.12	27.10	12.79	-40.6	-41.5	22.8	0.00e+00	0	41	0	376438784	54	6103
2026-01-21 19:55:58.13	26.91	12.83	-40.4	-41.4	22.9	0.00e+00	10	41	0	378535936	54	6016
2026-01-21 19:55:59.14	26.73	12.86	-40.5	-41.5	22.7	0.00e+00	89	41	0	380633088	54	6084
2026-01-21 19:56:00.15	26.54	12.90	-40.5	-41.5	22.8	0.00e+00	12	41	0	382730240	54	6073
2026-01-21 19:56:01.16	26.35	12.93	-40.6	-41.6	22.7	0.00e+00	91	41	0	384827392	54	6137
2026-01-21 19:56:02.17	26.17	12.97	-40.6	-41.6	22.8	0.00e+00	0	41	0	385875968	54	6157
2026-01-21 19:56:03.18	25.98	13.00	-40.5	-41.5	22.8	0.00e+00	0	41	0	387973120	54	6084
2026-01-21 19:56:04.19	25.79	13.04	-40.4	-41.4	22.9	0.00e+00	74	41	0	390070272	54	5970
2026-01-21 19:56:05.19	25.61	13.07	-40.4	-41.3	23.0	0.00e+00	70	41	0	392167424	54	5953
2026-01-21 19:56:06.20	25.42	13.11	-40.3	-41.2	23.0	0.00e+00	0	41	0	394264576	54	5875
2026-01-21 19:56:07.21	25.23	13.14	-40.4	-41.4	22.7	0.00e+00	72	41	0	395313152	54	6000
2026-01-21 19:56:08.22	25.04	13.17	-40.4	-41.4	22.8	0.00e+00	92	41	0	397410304	54	6007
2026-01-21 19:56:09.23	24.85	13.21	-40.5	-41.5	22.8	0.00e+00	72	41	0	399507456	54	6034
2026-01-21 19:56:10.24	24.66	13.24	-40.6	-41.6	22.7	0.00e+00	90	41	0	401604608	54	6121
2026-01-21 19:56:11.25	24.47	13.27	-40.9	-41.9	22.5	0.00e+00	0	41	0	403701760	54	6329
2026-01-21 19:56:12.26	24.28	13.30	-40.4	-41.4	23.0	0.00e+00	70	41	0	404750336	54	5995
2026-01-21 19:56:13.28	24.09	13.34	-40.7	-41.7	22.7	0.00e+00	0	41	0	406847488	54	6214
2026-01-21 19:56:14.29	23.90	13.37	-40.5	-41.5	22.8	0.00e+00	0	41	0	408944640	54	6052
2026-01-21 19:56:15.30	23.71	13.40	-40.6	-41.6	22.7	0.00e+00	92	41	0	411041792	54	6160
2026-01-21 19:56:16.31	23.51	13.43	-40.6	-41.6	22.8	0.00e+00	0	41	0	413138944	54	6142
2026-01-21 19:56:17.32	23.32	13.46	-40.4	-41.4	22.9	0.00e+00	92	41	0	414187520	54	6016
2026-01-21 19:56:18.33	23.13	13.49	-40.1	-41.0	23.2	0.00e+00	0	41	0	416284672	54	5760
2026-01-21 19:56:19.34	22.93	13.53	-40.3	-41.2	23.0	0.00e+00	0	41	0	418381824	54	5876
2026-01-21 19:56:20.35	22.74	13.56	-40.3	-41.3	23.0	0.00e+00	0	41	0	420478976	54	5905
2026-01-21 19:56:21.36	22.55	13.59	-40.4	-41.4	22.9	0.00e+00	0	41	0	422576128	54	5980
2026-01-21 19:56:22.37	22.35	13.62	-40.3	-41.2	23.1	0.00e+00	4	41	0	424673280	54	5892
2026-01-21 19:56:23.38	22.16	13.64	-40.0	-40.9	23.4	0.00e+00	73	41	0	425721856	54	5657
2026-01-21 19:56:24.39	21.96	13.67	-40.2	-41.1	23.2	0.00e+00	90	41	0	427819008	54	5804
2026-01-21 19:56:25.40	21.76	13.70	-40.2	-41.1	23.1	0.00e+00	74	41	0	429916160	54	5815
2026-01-21 19:56:26.41	21.57	13.73	-40.3	-41.2	23.1	0.00e+00	0	41	0	432013312	54	5878
2026-01-21 19:56:27.42	21.37	13.76	-40.3	-41.2	23.1	0.00e+00	0	41	0	434110464	54	5895
2026-01-21 19:56:28.43	21.17	13.79	-40.5	-41.5	22.8	0.00e+00	0	41	0	435159040	54	6045
2026-01-21 19:56:29.44	20.98	13.81	-40.8	-41.8	22.6	0.00e+00	3	41	0	437256192	54	6250
2026-01-21 19:56:30.45	20.78	13.84	-40.6	-41.6	22.7	0.00e+00	0	41	0	439353344	54	6137
2026-01-21 19:56:31.46	20.58	13.87	-40.5	-41.4	22.8	0.00e+00	92	41	0	441450496	54	6009
2026-01-21 19:56:32.47	20.38	13.90	-40.1	-41.0	23.3	0.00e+00	0	41	0	443547648	54	5754
2026-01-21 19:56:33.48	20.18	13.92	-40.1	-41.1	23.2	0.00e+00	92	41	0	444596224	54	5786
2026-01-21 19:56:34.49	19.98	13.95	-40.3	-41.3	22.8	0.00e+00	0	41	0	446693376	54	5926
2026-01-21 19:56:35.50	19.78	13.97	-40.4	-41.4	22.8	0.00e+00	0	41	0	448790528	54	5999
2026-01-21 19:56:36.51	19.58	14.00	-40.6	-41.6	22.8	0.00e+00	0	41	0	450887680	54	6108
2026-01-21 19:56:37.51	19.39	14.02	-40.6	-41.5	22.8	0.00e+00	5	41	0	452984832	54	6099
2026-01-21 19:56:38.53	19.18	14.05	-40.5	-41.5	22.9	0.00e+00	92	41	0	454033408	54	6052
2026-01-21 19:56:39.53	18.98	14.07	-40.5	-41.4	22.9	0.00e+00	9	41	0	456130560	54	6026
2026-01-21 19:56:40.54	18.78	14.10	-40.5	-41.5	22.8	0.00e+00	92	41	0	458227712	54	6044
2026-01-21 19:56:41.55	18.58	14.12	-40.6	-41.6	22.8	0.00e+00	0	41	0	460324864	54	6110
2026-01-21 19:56:42.56	18.38	14.14	-40.7	-41.7	22.6	0.00e+00	6	41	0	462422016	54	6236
2026-01-21 19:56:43.57	18.18	14.17	-40.7	-41.7	22.6	0.00e+00	6	41	0	463470592	54	6228
2026-01-21 19:56:44.58	17.97	14.19	-40.8	-41.7	22.6	0.00e+00	8	41	0	465567744	54	6243
2026-01-21 19:56:45.59	17.77	14.21	-40.6	-41.6	22.8	0.00e+00	44	41	0	467664896	54	6153
2026-01-21 19:56:46.60	17.57	14.24	-40.7	-41.7	22.7	0.00e+00	79	41	0	469762048	54	6175
2026-01-21 19:56:47.61	17.36	14.26	-40.8	-41.8	22.6	0.00e+00	92	41	0	471859200	54	6258
2026-01-21 19:56:48.62	17.16	14.28	-40.8	-41.8	22.6	0.00e+00	10	41	0	472907776	54	6271
2026-01-21 19:56:49.63	16.96	14.30	-41.1	-42.2	22.3	0.00e+00	0	41	0	475004928	54	6562
2026-01-21 19:56:50.64	16.75	14.32	-41.3	-42.3	22.1	0.00e+00	75	41	0	477102080	54	6664
2026-01-21 19:56:51.65	16.55	14.34	-41.3	-42.3	22.1	0.00e+00	80	41	0	479199232	54	6679
2026-01-21 19:56:52.66	16.34	14.36	-41.2	-42.2	22.2	0.00e+00	0	41	0	481296384	54	6603
2026-01-21 19:56:53.67	16.14	14.38	-41.0	-42.1	22.2	0.00e+00	0	41	0	482344960	54	6487
2026-01-21 19:56:54.68	15.93	14.40	-41.2	-42.2	22.2	0.00e+00	92	41	0	484442112	54	6597
2026-01-21 19:56:55.69	15.73	14.42	-41.3	-42.4	22.1	0.00e+00	7	41	0	486539264	54	6693
2026-01-21 19:56:56.70	15.52	14.44	-41.2	-42.3	22.1	0.00e+00	92	41	0	488636416	54	6639
2026-01-21 19:56:57.71	15.31	14.46	-41.1	-42.2	22.2	0.00e+00	8	41	0	490733568	54	6563
2026-01-21 19:56:58.72	15.11	14.47	-41.2	-42.2	22.2	0.00e+00	0	41	0	492830720	54	6609
2026-01-21 19:56:59.73	14.90	14.49	-40.7	-41.7	22.5	0.00e+00	0	41	0	493879296	54	6225
2026-01-21 19:57:00.74	14.69	14.51	-40.6	-41.6	22.8	0.00e+00	7	41	0	495976448	54	6118
2026-01-21 19:57:01.75	14.48	14.53	-40.4	-41.4	22.9	0.00e+00	92	41	0	498073600	54	5968
2026-01-21 19:57:02.76	14.28	14.54	-40.4	-41.4	22.9	0.00e+00	7	41	0	500170752	54	6009
2026-01-21 19:57:03.77	14.07	14.56	-40.5	-41.5	22.9	0.00e+00	90	41	0	502267904	54	6069
2026-01-21 19:57:04.78	13.86	14.57	-40.5	-41.5	22.9	0.00e+00	10	41	0	503316480	54	6049
2026-01-21 19:57:05.79	13.65	14.59	-40.4	-41.4	23.0	0.00e+00	9	41	0	505413632	54	6000
2026-01-21 19:57:06.80	13.44	14.60	-40.5	-41.5	22.9	0.00e+00	71	41	0	507510784	54	6051
2026-01-21 19:57:07.81	13.24	14.62	-40.4	-41.3	23.1	0.00e+00	9	41	0	509607936	54	5932
2026-01-21 19:57:08.82	13.03	14.63	-40.5	-41.4	22.9	0.00e+00	91	41	0	511705088	54	6027
2026-01-21 19:57:09.83	12.82	14.65	-40.5	-41.4	22.9	0.00e+00	0	41	0	512753664	54	6013
2026-01-21 19:57:10.84	12.61	14.66	-40.7	-41.7	22.7	0.00e+00	90	41	0	514850816	54	6184
2026-01-21 19:57:11.85	12.40	14.67	-40.7	-41.7	22.6	0.00e+00	77	41	0	516947968	54	6193
2026-01-21 19:57:12.86	12.19	14.69	-40.9	-42.0	22.4	0.00e+00	45	41	0	519045120	54	6397
2026-01-21 19:57:13.87	11.98	14.70	-40.9	-41.9	22.5	0.00e+00	0	41	0	521142272	54	6345
2026-01-21 19:57:14.88	11.77	14.71	-40.8	-41.8	22.8	0.00e+00	0	41	0	522190848	54	6264
2026-01-21 19:57:15.89	11.56	14.72	-40.6	-41.6	22.7	0.00e+00	5	41	0	524288000	54	6154
2026-01-21 19:57:16.90	11.35	14.73	-40.5	-41.5	22.9	0.00e+00	0	41	0	526385152	54	6078
2026-01-21 19:57:17.92	11.14	14.74	-40.6	-41.6	22.7	0.00e+00	92	41	0	528482304	54	6144
2026-01-21 19:57:18.92	10.93	14.75	-40.6	-41.6	22.8	0.00e+00	0	41	0	530579456	54	6128
2026-01-21 19:57:19.93	10.72	14.76	-40.7	-41.7	22.6	0.00e+00	11	41	0	532676608	54	6211
2026-01-21 19:57:20.94	10.51	14.77	-40.7	-41.7	22.8	0.00e+00	0	41	0	533725184	54	6175
2026-01-21 19:57:21.95	10.30	14.78	-40.5	-41.5	22.8	0.00e+00	2	41	0	535822336	54	6082
2026-01-21 19:57:22.96	10.08	14.79	-40.5	-41.4	23.0	0.00e+00	0	41	0	537919488	54	6020
2026-01-21 19:57:23.97	9.87	14.80	-40.5	-41.5	22.9	0.00e+00	2	41	0	540016640	54	6057
2026-01-21 19:57:24.98	9.66	14.81	-40.4	-41.3	23.1	0.00e+00	92	41	0	542113792	54	5943
2026-01-21 19:57:25.99	9.45	14.82	-40.5	-41.5	22.9	0.00e+00	71	41	0	543162368	54	6066
2026-01-21 19:57:26.99	9.24	14.82	-40.7	-41.7	22.7	0.00e+00	92	41	0	545259520	54	6207
2026-01-21 19:57:28.01	9.03	14.83	-40.8	-41.8	22.6	0.00e+00	9	41	0	547356672	54	6305
2026-01-21 19:57:29.02	8.82	14.84	-40.9	-42.0	22.5	0.00e+00	72	41	0	549453824	54	6398
2026-01-21 19:57:30.03	8.60	14.84	-40.9	-42.0	22.4	0.00e+00	72	41	0	551550976	54	6402
2026-01-21 19:57:31.04	8.39	14.85	-40.7	-41.7	22.7	0.00e+00	0	41	0	552599552	54	6196
2026-01-21 19:57:32.05	8.18	14.85	-40.7	-41.7	22.7	0.00e+00	92	41	0	554696704	54	6213
2026-01-21 19:57:33.06	7.97	14.86	-40.4	-41.4	23.0	0.00e+00	0	41	0	556793856	54	5969
2026-01-21 19:57:34.07	7.75	14.86	-40.5	-41.5	22.9	0.00e+00	90	41	0	558891008	54	6048
2026-01-21 19:57:35.08	7.54	14.87	-40.5	-41.5	22.9	0.00e+00	0	41	0	560988160	54	6087
2026-01-21 19:57:36.09	7.33	14.87	-40.5	-41.5	22.7	0.00e+00	50	41	0	562036736	54	6081
2026-01-21 19:57:37.10	7.12	14.88	-40.6	-41.5	22.8	0.00e+00	2	41	0	564133888	54	6098
2026-01-21 19:57:38.11	6.91	14.88	-40.7	-41.7	22.7	0.00e+00	2	41	0	566231040	54	6209
2026-01-21 19:57:39.12	6.69	14.88	-40.6	-41.6	22.8	0.00e+00	0	41	0	568328192	54	6107
2026-01-21 19:57:40.13	6.48	14.88	-40.5	-41.5	22.9	0.00e+00	2	41	0	570425344	54	6082
2026-01-21 19:57:41.14	6.27	14.89	-40.4	-41.4	23.0	0.00e+00	92	41	0	571473920	54	5967
2026-01-21 19:57:42.15	6.05	14.89	-40.5	-41.4	22.9	0.00e+00	5	41	0	573571072	54	6013
2026-01-21 19:57:43.16	5.84	14.89	-40.5	-41.4	22.9	0.00e+00	81	41	0	575668224	54	6026
2026-01-21 19:57:44.17	5.63	14.89	-40.5	-41.4	22.9	0.00e+00	0	41	0	577765376	54	6019
2026-01-21 19:57:45.18	5.42	14.89	-40.6	-41.6	22.8	0.00e+00	77	41	0	579862528	54	6133
2026-01-21 19:57:46.19	5.20	14.89	-40.7	-41.7	22.8	0.00e+00	0	41	0	580911104	54	6184
2026-01-21 19:57:47.20	4.99	14.89	-40.7	-41.7	22.6	0.00e+00	0	41	0	583008256	54	6239
2026-01-21 19:57:48.21	4.78	14.89	-40.7	-41.7	22.7	0.00e+00	92	41	0	585105408	54	6211
2026-01-21 19:57:49.22	4.57	14.89	-40.6	-41.6	22.7	0.00e+00	76	41	0	587202560	54	6139
2026-01-21 19:57:50.23	4.35	14.88	-40.4	-41.4	22.9	0.00e+00	92	41	0	589299712	54	5987
2026-01-21 19:57:51.23	4.14	14.88	-40.4	-41.4	22.9	0.00e+00	72	41	0	590348288	54	5977
2026-01-21 19:57:52.24	3.93	14.88	-40.6	-41.6	22.9	0.00e+00	71	41	0	592445440	54	6109
2026-01-21 19:57:53.25	3.72	14.88	-40.4	-41.3	23.0	0.00e+00	72	41	0	594542592	54	5959
2026-01-21 19:57:54.26	3.51	14.87	-40.5	-41.4	22.9	0.00e+00	0	41	0	596639744	54	6031
2026-01-21 19:57:55.27	3.29	14.87	-40.5	-41.5	22.9	0.00e+00	0	41	0	598736896	54	6039
2026-01-21 19:57:56.28	3.08	14.87	-40.6	-41.6	22.9	0.00e+00	0	41	0	599785472	54	6119
2026-01-21 19:57:57.29	2.87	14.86	-40.7	-41.7	22.7	0.00e+00	92	41	0	601882624	54	6215
2026-01-21 19:57:58.30	2.66	14.86	-40.8	-41.8	22.6	0.00e+00	0	41	0	603979776	54	6297
2026-01-21 19:57:59.31	2.45	14.85	-40.9	-41.9	22.6	0.00e+00	41	41	0	606076928	54	6337
2026-01-21 19:58:00.32	2.23	14.84	-40.8	-41.8	22.6	0.00e+00	0	41	0	608174080	54	6315
2026-01-21 19:58:01.33	2.02	14.84	-40.9	-41.9	22.6	0.00e+00	8	41	0	610271232	54	6328
2026-01-21 19:58:02.34	1.81	14.83	-41.0	-42.1	22.4	0.00e+00	8	41	0	611319808	54	6487
2026-01-21 19:58:03.35	1.60	14.83	-40.9	-42.0	22.5	0.00e+00	0	41	0	613416960	54	6399
2026-01-21 19:58:04.36	1.39	14.82	-40.9	-42.0	22.4	0.00e+00	92	41	0	615514112	54	6392
2026-01-21 19:58:05.37	1.17	14.81	-41.0	-42.1	22.3	0.00e+00	0	41	0	617611264	54	6482
2026-01-21 19:58:06.38	0.96	14.80	-41.1	-42.1	22.4	0.00e+00	92	41	0	619708416	54	6515
2026-01-21 19:58:07.39	0.75	14.79	-41.1	-42.1	22.4	0.00e+00	9	41	0	620756992	54	6530
2026-01-21 19:58:08.40	0.54	14.79	-41.3	-42.4	22.1	0.00e+00	9	41	0	622854144	54	6698
2026-01-21 19:58:09.41	0.33	14.78	-40.9	-41.9	22.5	0.00e+00	0	41	0	624951296	54	6387
2026-01-21 19:58:10.42	0.12	14.77	-40.7	-41.7	22.7	0.00e+00	2	41	0	627048448	54	6229
2026-01-21 19:58:11.43	359.91	14.76	-40.6	-41.6	22.8	0.00e+00	92	41	0	629145600	54	6121
2026-01-21 19:58:12.44	359.70	14.75	-40.7	-41.7	22.5	0.00e+00	0	41	0	630194176	54	6228
2026-01-21 19:58:13.45	359.49	14.74	-40.7	-41.7	22.7	0.00e+00	92	41	0	632291328	54	6213
2026-01-21 19:58:14.46	359.28	14.72	-40.8	-41.8	22.5	0.00e+00	0	41	0	634388480	54	6299
2026-01-21 19:58:15.47	359.07	14.71	-41.0	-42.0	22.4	0.00e+00	0	41	0	636485632	54	6425
2026-01-21 19:58:16.48	358.86	14.70	-40.9	-42.0	22.5	0.00e+00	6	41	0	638582784	54	6395
2026-01-21 19:58:17.49	358.65	14.69	-41.0	-42.1	22.3	0.00e+00	3	41	0	639631360	54	6488
2026-01-21 19:58:18.50	358.44	14.68	-41.0	-42.1	22.3	0.00e+00	81	41	0	641728512	54	6484
2026-01-21 19:58:19.50	358.23	14.66	-41.1	-42.2	22.2	0.00e+00	0	41	0	643825664	54	6577
2026-01-21 19:58:20.51	358.02	14.65	-41.3	-42.4	22.1	0.00e+00	92	41	0	645922816	54	6698
2026-01-21 19:58:21.52	357.81	14.64	-40.6	-41.6	22.8	0.00e+00	0	41	0	648019968	54	6148
2026-01-21 19:58:22.53	357.60	14.62	-40.7	-41.7	22.6	0.00e+00	3	41	0	649068544	54	6197
2026-01-21 19:58:23.54	357.39	14.61	-40.5	-41.5	22.8	0.00e+00	5	41	0	651165696	54	6092
2026-01-21 19:58:24.55	357.19	14.59	-40.6	-41.6	22.8	0.00e+00	8	41	0	653262848	54	6104
2026-01-21 19:58:25.56	356.98	14.58	-40.6	-41.6	22.8	0.00e+00	5	41	0	655360000	54	6112
2026-01-21 19:58:26.57	356.77	14.56	-40.7	-41.7	22.7	0.00e+00	8	41	0	657457152	54	6241
2026-01-21 19:58:27.59	356.56	14.55	-40.6	-41.6	22.7	0.00e+00	92	41	0	658505728	54	6142
2026-01-21 19:58:28.60	356.35	14.53	-40.6	-41.6	22.8	0.00e+00	77	41	0	660602880	54	6111
2026-01-21 19:58:29.61	356.14	14.51	-40.7	-41.7	22.7	0.00e+00	91	41	0	662700032	54	6180
2026-01-21 19:58:30.62	355.94	14.50	-40.5	-41.5	22.8	0.00e+00	79	41	0	664797184	54	6048
2026-01-21 19:58:31.63	355.73	14.48	-40.6	-41.6	22.8	0.00e+00	76	41	0	666894336	54	6117
2026-01-21 19:58:32.64	355.52	14.46	-40.3	-41.2	23.1	0.00e+00	0	41	0	667942912	54	5895
2026-01-21 19:58:33.65	355.32	14.44	-40.4	-41.3	23.0	0.00e+00	0	41	0	670040064	54	5960
2026-01-21 19:58:34.65	355.11	14.42	-40.4	-41.4	22.9	0.00e+00	92	41	0	672137216	54	5991
2026-01-21 19:58:35.66	354.91	14.41	-40.5	-41.4	22.9	0.00e+00	79	41	0	674234368	54	6028
2026-01-21 19:58:36.67	354.70	14.39	-40.4	-41.4	22.9	0.00e+00	92	41	0	676331520	54	5970
2026-01-21 19:58:37.68	354.50	14.37	-40.4	-41.4	22.9	0.00e+00	6	41	0	678428672	54	5972
2026-01-21 19:58:38.69	354.29	14.35	-40.4	-41.4	23.0	0.00e+00	6	41	0	679477248	54	5982
2026-01-21 19:58:39.70	354.09	14.33	-40.4	-41.4	22.9	0.00e+00	4	41	0	681574400	54	5979
2026-01-21 19:58:40.71	353.88	14.31	-40.4	-41.4	23.0	0.00e+00	0	41	0	683671552	54	5972
2026-01-21 19:58:41.72	353.68	14.28	-40.3	-41.3	23.0	0.00e+00	4	41	0	685768704	54	5900
2026-01-21 19:58:42.73	353.47	14.26	-40.4	-41.3	23.0	0.00e+00	5	41	0	687865856	54	5955
2026-01-21 19:58:43.74	353.27	14.24	-40.5	-41.5	22.8	0.00e+00	90	41	0	688914432	54	6054
2026-01-21 19:58:44.75	353.07	14.22	-40.5	-41.5	22.8	0.00e+00	7	41	0	691011584	54	6094
2026-01-21 19:58:45.76	352.86	14.20	-40.6	-41.6	22.8	0.00e+00	5	41	0	693108736	54	6119
2026-01-21 19:58:46.77	352.66	14.17	-40.6	-41.5	22.8	0.00e+00	6	41	0	695205888	54	6100
2026-01-21 19:58:47.77	352.46	14.15	-40.7	-41.7	22.6	0.00e+00	6	41	0	696254464	54	6243
2026-01-21 19:58:48.78	352.26	14.13	-40.7	-41.7	22.6	0.00e+00	0	41	0	698351616	54	6236
2026-01-21 19:58:49.79	352.06	14.10	-40.7	-41.7	22.5	0.00e+00	8	41	0	700448768	54	6229
2026-01-21 19:58:50.80	351.86	14.08	-40.8	-41.8	22.5	0.00e+00	92	41	0	702545920	54	6267
2026-01-21 19:58:51.81	351.66	14.06	-40.6	-41.5	22.8	0.00e+00	73	41	0	704643072	54	6098
2026-01-21 19:58:52.82	351.45	14.03	-40.8	-41.7	22.6	0.00e+00	92	41	0	706740224	54	6245
2026-01-21 19:58:53.83	351.25	14.01	-40.5	-41.5	22.9	0.00e+00	0	41	0	707788800	54	6075
2026-01-21 19:58:54.84	351.05	13.98	-40.7	-41.7	22.7	0.00e+00	74	41	0	709885952	54	6186
2026-01-21 19:58:55.85	350.85	13.96	-40.6	-41.5	22.8	0.00e+00	0	41	0	711983104	54	6103
2026-01-21 19:58:56.86	350.66	13.93	-40.5	-41.5	22.9	0.00e+00	0	41	0	714080256	54	6052
2026-01-21 19:58:57.87	350.46	13.90	-40.7	-41.7	22.6	0.00e+00	92	41	0	716177408	54	6213
2026-01-21 19:58:58.88	350.26	13.88	-40.8	-41.8	22.5	0.00e+00	0	41	0	717225984	54	6298
2026-01-21 19:58:59.89	350.06	13.85	-40.9	-42.0	22.4	0.00e+00	91	41	0	719323136	54	6405
2026-01-21 19:59:00.90	349.86	13.82	-40.8	-41.9	22.5	0.00e+00	0	41	0	721420288	54	6337
2026-01-21 19:59:01.91	349.66	13.80	-40.9	-42.0	22.5	0.00e+00	0	41	0	723517440	54	6423
2026-01-21 19:59:02.92	349.47	13.77	-40.9	-41.9	22.4	0.00e+00	0	41	0	725614592	54	6372
2026-01-21 19:59:03.93	349.27	13.74	-40.9	-42.0	22.4	0.00e+00	0	41	0	726663168	54	6392
2026-01-21 19:59:04.94	349.07	13.71	-40.9	-41.9	22.5	0.00e+00	0	41	0	728760320	54	6387
2026-01-21 19:59:05.95	348.88	13.68	-40.9	-41.9	22.5	0.00e+00	0	41	0	730857472	54	6361
2026-01-21 19:59:06.96	348.68	13.65	-40.8	-41.8	22.5	0.00e+00	92	41	0	732954624	54	6279
2026-01-21 19:59:07.97	348.49	13.62	-40.8	-41.8	22.5	0.00e+00	0	41	0	735051776	54	6302
2026-01-21 19:59:08.98	348.29	13.59	-40.7	-41.7	22.7	0.00e+00	72	41	0	736100352	54	6212
2026-01-21 19:59:09.99	348.10	13.56	-40.8	-41.8	22.6	0.00e+00	72	41	0	738197504	54	6267
2026-01-21 19:59:11.00	347.90	13.53	-40.6	-41.6	22.8	0.00e+00	73	41	0	740294656	54	6106
2026-01-21 19:59:12.01	347.71	13.50	-40.7	-41.7	22.6	0.00e+00	0	41	0	742391808	54	6206
2026-01-21 19:59:13.02	347.52	13.47	-40.7	-41.7	22.7	0.00e+00	78	41	0	744488960	54	6175
2026-01-21 19:59:14.03	347.32	13.44	-40.6	-41.6	22.8	0.00e+00	92	41	0	746586112	54	6115
2026-01-21 19:59:15.04	347.13	13.41	-40.4	-41.4	22.9	0.00e+00	0	41	0	747634688	54	6006
2026-01-21 19:59:16.05	346.94	13.38	-40.5	-41.4	22.8	0.00e+00	92	41	0	749731840	54	6023
2026-01-21 19:59:17.06	346.75	13.35	-40.6	-41.6	22.8	0.00e+00	0	41	0	751828992	54	6135
2026-01-21 19:59:18.07	346.56	13.31	-40.4	-41.4	22.9	0.00e+00	0	41	0	753926144	54	5973
2026-01-21 19:59:19.08	346.37	13.28	-40.5	-41.5	22.6	0.00e+00	0	41	0	756023296	54	6052
2026-01-21 19:59:20.09	346.18	13.25	-40.6	-41.7	22.6	0.00e+00	0	41	0	757071872	54	6176
2026-01-21 19:59:21.10	345.99	13.22	-40.6	-41.6	22.7	0.00e+00	92	41	0	759169024	54	6150
2026-01-21 19:59:22.11	345.80	13.18	-40.4	-41.4	22.9	0.00e+00	0	41	0	761266176	54	6011
2026-01-21 19:59:23.12	345.61	13.15	-40.5	-41.5	22.8	0.00e+00	91	41	0	763363328	54	6062
2026-01-21 19:59:24.13	345.42	13.12	-40.3	-41.3	22.9	0.00e+00	2	41	0	765460480	54	5924
2026-01-21 19:59:25.14	345.23	13.08	-40.2	-41.2	23.2	0.00e+00	9	41	0	766509056	54	5835
2026-01-21 19:59:26.15	345.04	13.05	-40.3	-41.2	23.0	0.00e+00	2	41	0	768606208	54	5892
2026-01-21 19:59:27.16	344.86	13.01	-40.4	-41.3	22.9	0.00e+00	0	41	0	770703360	54	5964
2026-01-21 19:59:28.17	344.67	12.98	-40.5	-41.5	22.8	0.00e+00	68	41	0	772800512	54	6036
2026-01-21 19:59:29.18	344.48	12.94	-40.5	-41.5	22.7	0.00e+00	73	41	0	774897664	54	6085
2026-01-21 19:59:30.20	344.30	12.91	-40.6	-41.6	22.7	0.00e+00	91	41	0	775946240	54	6125
2026-01-21 19:59:31.21	344.11	12.87	-40.5	-41.5	22.7	0.00e+00	0	41	0	778043392	54	6061
2026-01-21 19:59:32.22	343.93	12.84	-40.6	-41.6	22.7	0.00e+00	8	41	0	780140544	54	6121
2026-01-21 19:59:33.23	343.74	12.80	-40.5	-41.5	22.7	0.00e+00	0	41	0	782237696	54	6044
2026-01-21 19:59:34.24	343.56	12.76	-40.5	-41.6	22.7	0.00e+00	72	41	0	784334848	54	6105
2026-01-21 19:59:35.25	343.37	12.73	-40.4	-41.4	22.9	0.00e+00	71	41	0	785383424	54	5988
2026-01-21 19:59:36.25	343.19	12.69	-40.6	-41.6	22.7	0.00e+00	0	41	0	787480576	54	6135
2026-01-21 19:59:37.26	343.01	12.65	-40.4	-41.4	22.8	0.00e+00	92	41	0	789577728	54	6001
2026-01-21 19:59:38.27	342.83	12.62	-40.4	-41.4	22.9	0.00e+00	0	41	0	791674880	54	5984
2026-01-21 19:59:39.28	342.65	12.58	-40.4	-41.3	23.0	0.00e+00	0	41	0	793772032	54	5957
2026-01-21 19:59:40.29	342.46	12.54	-40.5	-41.5	22.8	0.00e+00	2	41	0	794820608	54	6061
2026-01-21 19:59:41.30	342.28	12.50	-40.6	-41.7	22.7	0.00e+00	0	41	0	796917760	54	6174
2026-01-21 19:59:42.30	342.10	12.47	-40.7	-41.7	22.6	0.00e+00	2	41	0	799014912	54	6244
2026-01-21 19:59:43.31	341.92	12.43	-40.8	-41.9	22.5	0.00e+00	0	41	0	801112064	54	6330
2026-01-21 19:59:44.32	341.75	12.39	-40.5	-41.4	22.8	0.00e+00	89	41	0	803209216	54	6016
2026-01-21 19:59:45.33	341.57	12.35	-40.5	-41.5	22.8	0.00e+00	0	41	0	804257792	54	6044
2026-01-21 19:59:46.34	341.39	12.31	-40.6	-41.5	22.8	0.00e+00	63	41	0	806354944	54	6098
2026-01-21 19:59:47.35	341.21	12.27	-40.6	-41.5	22.8	0.00e+00	0	41	0	808452096	54	6094
2026-01-21 19:59:48.36	341.03	12.23	-40.5	-41.5	22.9	0.00e+00	0	41	0	810549248	54	6040
2026-01-21 19:59:49.37	340.86	12.19	-40.4	-41.4	22.8	0.00e+00	0	41	0	812646400	54	6015
2026-01-21 19:59:50.38	340.68	12.15	-40.6	-41.6	22.7	0.00e+00	1	41	0	814743552	54	6151
2026-01-21 19:59:51.39	340.50	12.11	-40.8	-41.9	22.6	0.00e+00	92	41	0	815792128	54	6335
2026-01-21 19:59:52.40	340.33	12.07	-41.0	-42.0	22.3	0.00e+00	7	41	0	817889280	54	6448
2026-01-21 19:59:53.40	340.15	12.03	-41.2	-42.2	22.2	0.00e+00	92	41	0	819986432	54	6589
2026-01-21 19:59:54.42	339.98	11.99	-41.2	-42.3	22.1	0.00e+00	0	41	0	822083584	54	6631
2026-01-21 19:59:55.43	339.80	11.95	-41.3	-42.4	22.1	0.00e+00	0	41	0	824180736	54	6696
2026-01-21 19:59:56.44	339.63	11.91	-41.5	-42.7	21.7	0.00e+00	0	41	0	825229312	54	6939
2026-01-21 19:59:57.45	339.46	11.87	-41.5	-42.6	21.8	0.00e+00	0	41	0	827326464	54	6883
2026-01-21 19:59:58.46	339.29	11.83	-41.4	-42.5	21.9	0.00e+00	79	41	0	829423616	54	6816
2026-01-21 19:59:59.47	339.11	11.79	-41.5	-42.6	21.8	0.00e+00	80	41	0	831520768	54	6878
2026-01-21 20:00:00.48	338.94	11.75	-41.5	-42.7	21.7	0.00e+00	92	41	0	833617920	54	6959
2026-01-21 20:00:01.49	338.77	11.70	-41.6	-42.7	21.7	0.00e+00	6	41	0	834666496	54	6987
2026-01-21 20:00:02.50	338.60	11.66	-41.6	-42.7	21.7	0.00e+00	0	41	0	836763648	54	6976
2026-01-21 20:00:03.51	338.43	11.62	-41.6	-42.8	21.6	0.00e+00	5	41	0	838860800	54	7024
2026-01-21 20:00:04.52	338.26	11.58	-41.6	-42.8	21.6	0.00e+00	0	41	0	840957952	54	7019
2026-01-21 20:00:05.53	338.09	11.53	-41.7	-42.9	21.6	0.00e+00	0	41	0	843055104	54	7123
2026-01-21 20:00:06.54	337.92	11.49	-41.7	-42.8	21.5	0.00e+00	7	41	0	844103680	54	7081
2026-01-21 20:00:07.55	337.75	11.45	-41.8	-42.9	21.5	0.00e+00	92	41	0	846200832	56	6384
2026-01-21 20:00:08.56	337.59	11.41	-42.0	-43.1	21.3	0.00e+00	8	41	0	848297984	56	6539
2026-01-21 20:00:09.57	337.42	11.36	-42.2	-43.4	21.1	0.00e+00	92	41	0	850395136	56	6768
2026-01-21 20:00:10.57	337.25	11.32	-42.3	-43.5	21.0	0.00e+00	8	41	0	852492288	56	6828
2026-01-21 20:00:11.58	337.09	11.28	-42.6	-43.9	20.6	0.00e+00	80	41	0	853540864	56	7101
2026-01-21 20:00:12.59	336.92	11.23	-42.4	-43.7	20.8	0.00e+00	7	41	0	855638016	56	6962
2026-01-21 20:00:13.61	336.76	11.19	-42.5	-43.8	20.8	0.00e+00	83	41	0	857735168	56	7017
2026-01-21 20:00:14.61	336.59	11.14	-42.6	-43.9	20.6	0.00e+00	92	41	0	859832320	56	7109
2026-01-21 20:00:15.62	336.43	11.10	-42.7	-44.1	20.5	0.00e+00	83	41	0	861929472	58	6478
2026-01-21 20:00:16.64	336.26	11.05	-42.8	-44.2	20.3	0.00e+00	92	41	0	862978048	58	6561
2026-01-21 20:00:17.65	336.10	11.01	-42.8	-44.2	20.3	0.00e+00	0	41	0	865075200	58	6551
2026-01-21 20:00:18.65	335.94	10.97	-42.9	-44.3	20.2	0.00e+00	78	41	0	867172352	58	6664
2026-01-21 20:00:19.66	335.78	10.92	-43.0	-44.4	20.1	0.00e+00	0	41	0	869269504	58	6715
2026-01-21 20:00:20.67	335.62	10.88	-42.9	-44.3	20.1	0.00e+00	82	41	0	871366656	58	6617
2026-01-21 20:00:21.68	335.46	10.83	-43.0	-44.4	20.3	0.00e+00	0	41	0	872415232	58	6726
2026-01-21 20:00:22.69	335.29	10.79	-42.8	-44.1	20.3	0.00e+00	0	41	0	874512384	58	6484
2026-01-21 20:00:23.70	335.13	10.74	-42.8	-44.1	20.4	0.00e+00	92	41	0	876609536	58	6524
2026-01-21 20:00:24.71	334.97	10.70	-43.2	-44.7	19.8	0.00e+00	0	41	0	878706688	58	6942
2026-01-21 20:00:25.72	334.82	10.65	-43.4	-44.8	19.9	0.00e+00	77	41	0	880803840	58	7068
2026-01-21 20:00:26.72	334.66	10.60	-43.3	-44.8	19.6	0.00e+00	0	41	0	881852416	58	7039
2026-01-21 20:00:27.74	334.50	10.56	-43.4	-44.9	19.7	0.00e+00	8	41	0	883949568	58	7135
2026-01-21 20:00:28.75	334.34	10.51	-43.5	-45.0	19.5	0.00e+00	6	41	0	886046720	58	7230
2026-01-21 20:00:29.75	334.19	10.47	-43.3	-44.7	19.8	0.00e+00	7	41	0	888143872	58	6971
2026-01-21 20:00:30.77	334.03	10.42	-43.2	-44.7	19.8	0.00e+00	90	41	0	890241024	58	6942
2026-01-21 20:00:31.77	333.87	10.37	-43.3	-44.8	19.7	0.00e+00	7	41	0	891289600	58	7009
2026-01-21 20:00:32.79	333.72	10.33	-43.4	-44.8	19.7	0.00e+00	91	41	0	893386752	58	7046
2026-01-21 20:00:33.80	333.56	10.28	-43.2	-44.6	19.9	0.00e+00	7	41	0	895483904	58	6852
2026-01-21 20:00:34.80	333.41	10.23	-43.2	-44.6	19.9	0.00e+00	7	41	0	897581056	58	6855
2026-01-21 20:00:35.81	333.25	10.19	-43.4	-44.8	19.7	0.00e+00	73	41	0	899678208	58	7046
2026-01-21 20:00:36.82	333.10	10.14	-43.4	-44.9	19.6	0.00e+00	74	41	0	900726784	58	7109
2026-01-21 20:00:37.83	332.95	10.09	-43.4	-44.9	19.5	0.00e+00	3	41	0	902823936	58	7096
2026-01-21 20:00:38.84	332.80	10.05	-43.5	-45.0	19.4	0.00e+00	0	41	0	904921088	58	7203
2026-01-21 20:00:39.85	332.64	10.00	-43.5	-45.0	19.4	0.00e+00	92	41	0	907018240	58	7236
2026-01-21 20:00:40.86	332.49	9.95	-43.6	-45.0	19.5	0.00e+00	0	41	0	909115392	58	7252
2026-01-21 20:00:41.88	332.34	9.90	-43.6	-45.1	19.4	0.00e+00	74	41	0	911212544	58	7327
2026-01-21 20:00:42.89	332.19	9.86	-43.6	-45.2	19.4	0.00e+00	2	41	0	912261120	58	7338
2026-01-21 20:00:43.90	332.04	9.81	-43.5	-45.0	19.4	0.00e+00	0	41	0	914358272	58	7220
2026-01-21 20:00:44.91	331.89	9.76	-43.5	-45.0	19.5	0.00e+00	0	41	0	916455424	58	7202
2026-01-21 20:00:45.92	331.74	9.71	-43.6	-45.1	19.5	0.00e+00	0	41	0	918552576	58	7266
2026-01-21 20:00:46.93	331.59	9.67	-43.6	-45.1	19.3	0.00e+00	92	41	0	920649728	58	7329
2026-01-21 20:00:47.94	331.44	9.62	-43.6	-45.1	19.4	0.00e+00	6	41	0	921698304	58	7270
2026-01-21 20:00:48.95	331.30	9.57	-43.5	-45.0	19.5	0.00e+00	92	41	0	923795456	58	7181
2026-01-21 20:00:49.96	331.15	9.52	-43.6	-45.1	19.4	0.00e+00	2	41	0	925892608	58	7332
2026-01-21 20:00:50.97	331.00	9.47	-43.6	-45.1	19.5	0.00e+00	0	41	0	927989760	58	7277
2026-01-21 20:00:51.98	330.86	9.42	-43.6	-45.1	19.3	0.00e+00	0	41	0	930086912	58	7283
2026-01-21 20:00:52.99	330.71	9.38	-43.7	-45.3	19.2	0.00e+00	6	41	0	931135488	60	6646
2026-01-21 20:00:54.00	330.57	9.33	-43.7	-45.2	19.3	0.00e+00	90	41	0	933232640	60	6591
2026-01-21 20:00:55.01	330.42	9.28	-43.7	-45.3	19.2	0.00e+00	80	41	0	935329792	60	6628
2026-01-21 20:00:56.02	330.28	9.23	-43.8	-45.3	19.3	0.00e+00	92	41	0	937426944	60	6678
2026-01-21 20:00:57.03	330.13	9.18	-43.7	-45.2	19.3	0.00e+00	0	41	0	939524096	60	6586
2026-01-21 20:00:58.04	329.99	9.13	-43.4	-44.9	19.6	0.00e+00	0	41	0	940572672	60	6328
2026-01-21 20:00:59.05	329.85	9.08	-43.3	-44.8	19.7	0.00e+00	0	41	0	942669824	60	6267
2026-01-21 20:01:00.06	329.71	9.03	-43.3	-44.7	19.8	0.00e+00	73	41	0	944766976	60	6229
2026-01-21 20:01:01.07	329.56	8.99	-43.1	-44.5	19.9	0.00e+00	76	41	0	946864128	60	6043
2026-01-21 20:01:02.08	329.42	8.94	-43.0	-44.4	20.0	0.00e+00	0	41	0	948961280	60	5976
2026-01-21 20:01:03.09	329.28	8.89	-43.1	-44.4	20.1	0.00e+00	92	41	0	951058432	60	6022
2026-01-21 20:01:04.10	329.14	8.84	-43.2	-44.6	19.9	0.00e+00	0	41	0	952107008	60	6149
2026-01-21 20:01:05.11	329.00	8.79	-43.2	-44.6	19.8	0.00e+00	2	41	0	954204160	60	6171
2026-01-21 20:01:06.12	328.86	8.74	-43.3	-44.8	19.7	0.00e+00	2	41	0	956301312	60	6258
2026-01-21 20:01:07.13	328.72	8.69	-43.3	-44.7	19.7	0.00e+00	0	41	0	958398464	60	6232
2026-01-21 20:01:08.14	328.59	8.64	-43.4	-44.9	19.6	0.00e+00	0	41	0	960495616	60	6334
2026-01-21 20:01:09.15	328.45	8.59	-43.2	-44.7	19.8	0.00e+00	7	41	0	961544192	60	6183
2026-01-21 20:01:10.16	328.31	8.54	-43.4	-44.9	19.6	0.00e+00	92	41	0	963641344	60	6320
2026-01-21 20:01:11.17	328.17	8.49	-43.3	-44.8	19.7	0.00e+00	1	41	0	965738496	60	6247
2026-01-21 20:01:12.18	328.04	8.44	-42.9	-44.3	20.1	0.00e+00	90	41	0	967835648	60	5915
2026-01-21 20:01:13.19	327.90	8.39	-42.9	-44.3	20.1	0.00e+00	75	41	0	969932800	60	5928
2026-01-21 20:01:14.20	327.77	8.34	-42.9	-44.3	20.2	0.00e+00	0	41	0	970981376	60	5910
2026-01-21 20:01:15.21	327.63	8.29	-43.0	-44.3	20.1	0.00e+00	0	41	0	973078528	60	5960
2026-01-21 20:01:16.21	327.50	8.24	-42.9	-44.3	20.3	0.00e+00	76	41	0	975175680	60	5938
2026-01-21 20:01:17.22	327.37	8.19	-42.5	-43.8	20.5	0.00e+00	91	41	0	977272832	58	6291
2026-01-21 20:01:18.23	327.23	8.14	-42.5	-43.9	20.4	0.00e+00	0	41	0	979369984	58	6329
2026-01-21 20:01:19.24	327.10	8.09	-42.6	-43.9	20.5	0.00e+00	90	41	0	980418560	58	6337
2026-01-21 20:01:20.25	326.97	8.04	-42.5	-43.8	20.4	0.00e+00	0	41	0	982515712	58	6311
2026-01-21 20:01:21.26	326.83	7.99	-42.3	-43.5	20.8	0.00e+00	0	41	0	984612864	58	6086
2026-01-21 20:01:22.27	326.70	7.94	-42.2	-43.5	20.8	0.00e+00	0	41	0	986710016	58	6062
2026-01-21 20:01:23.28	326.57	7.89	-42.0	-43.2	21.1	0.00e+00	0	41	0	988807168	58	5848
2026-01-21 20:01:24.29	326.44	7.84	-42.0	-43.2	21.0	0.00e+00	92	41	0	989855744	58	5877
2026-01-21 20:01:25.30	326.31	7.79	-41.9	-43.1	21.1	0.00e+00	0	41	0	991952896	58	5825
2026-01-21 20:01:26.31	326.18	7.74	-41.8	-43.0	21.3	0.00e+00	90	41	0	994050048	58	5698
2026-01-21 20:01:27.32	326.05	7.69	-41.8	-43.0	21.2	0.00e+00	0	41	0	996147200	58	5724
2026-01-21 20:01:28.33	325.92	7.64	-41.7	-42.9	21.3	0.00e+00	5	41	0	998244352	58	5670
2026-01-21 20:01:29.34	325.79	7.59	-41.8	-43.0	21.2	0.00e+00	4	41	0	999292928	56	6441
2026-01-21 20:01:30.35	325.67	7.54	-41.9	-43.0	21.3	0.00e+00	0	41	0	1001390080	56	6449
2026-01-21 20:01:31.36	325.54	7.49	-41.9	-43.1	21.2	0.00e+00	0	41	0	1003487232	56	6465
2026-01-21 20:01:32.37	325.41	7.44	-41.8	-43.0	21.3	0.00e+00	5	41	0	1005584384	56	6428
2026-01-21 20:01:33.38	325.28	7.39	-41.9	-43.1	21.2	0.00e+00	92	41	0	1007681536	56	6471
2026-01-21 20:01:34.39	325.16	7.33	-41.9	-43.1	21.2	0.00e+00	0	41	0	1008730112	56	6466
2026-01-21 20:01:35.40	325.03	7.28	-41.8	-43.0	21.2	0.00e+00	92	41	0	1010827264	56	6408
2026-01-21 20:01:36.41	324.91	7.23	-41.7	-42.9	21.2	0.00e+00	76	41	0	1012924416	56	6367
2026-01-21 20:01:37.42	324.78	7.18	-41.9	-43.1	21.0	0.00e+00	1	41	0	1015021568	56	6495
2026-01-21 20:01:38.43	324.66	7.13	-41.9	-43.0	21.0	0.00e+00	0	41	0	1017118720	56	6460
2026-01-21 20:01:39.44	324.53	7.08	-41.3	-42.4	21.7	0.00e+00	0	41	0	1019215872	56	5974
2026-01-21 20:01:40.45	324.41	7.03	-41.2	-42.3	21.9	0.00e+00	91	41	0	1020264448	56	5921
2026-01-21 20:01:41.46	324.29	6.98	-41.7	-42.9	21.3	0.00e+00	80	41	0	1022361600	56	6323
2026-01-21 20:01:42.47	324.17	6.93	-41.3	-42.4	21.8	0.00e+00	91	41	0	1024458752	56	6011
2026-01-21 20:01:43.48	324.04	6.88	-41.3	-42.5	21.4	0.00e+00	4	41	0	1026555904	56	6042
2026-01-21 20:01:44.49	323.92	6.83	-41.5	-42.7	21.0	0.00e+00	6	41	0	1028653056	56	6179
2026-01-21 20:01:45.50	323.80	6.77	-41.8	-43.0	21.1	0.00e+00	3	41	0	1029701632	56	6405
2026-01-21 20:01:46.51	323.68	6.72	-41.4	-42.5	21.6	0.00e+00	0	41	0	1031798784	56	6048
2026-01-21 20:01:47.52	323.56	6.67	-41.3	-42.4	21.7	0.00e+00	83	41	0	1033895936	56	6012
2026-01-21 20:01:48.53	323.44	6.62	-41.5	-42.7	21.5	0.00e+00	4	41	0	1035993088	56	6180
2026-01-21 20:01:49.54	323.32	6.57	-41.5	-42.7	21.5	0.00e+00	92	41	0	1038090240	56	6183
2026-01-21 20:01:50.55	323.20	6.52	-41.6	-42.7	21.4	0.00e+00	0	41	0	1039138816	56	6218
2026-01-21 20:01:51.56	323.08	6.47	-41.6	-42.8	21.3	0.00e+00	81	41	0	1041235968	56	6276
2026-01-21 20:01:52.56	322.97	6.42	-41.7	-42.9	21.3	0.00e+00	3	41	0	1043333120	56	6335
2026-01-21 20:01:53.57	322.85	6.37	-41.7	-42.9	21.3	0.00e+00	4	41	0	1045430272	56	6341
2026-01-21 20:01:54.58	322.73	6.31	-41.7	-42.9	21.3	0.00e+00	0	41	0	1047527424	56	6353
2026-01-21 20:01:55.59	322.61	6.26	-41.7	-42.9	21.3	0.00e+00	82	41	0	1048576000	56	6347
2026-01-21 20:01:56.60	322.50	6.21	-41.5	-42.7	21.5	0.00e+00	92	41	0	1050673152	56	6176
2026-01-21 20:01:57.61	322.38	6.16	-41.5	-42.6	21.5	0.00e+00	0	41	0	1052770304	56	6172
2026-01-21 20:01:58.62	322.26	6.11	-41.5	-42.6	21.5	0.00e+00	90	41	0	1054867456	56	6137
2026-01-21 20:01:59.63	322.15	6.06	-41.4	-42.5	21.6	0.00e+00	86	41	0	1056964608	56	6087
2026-01-21 20:02:00.64	322.03	6.01	-41.4	-42.6	21.6	0.00e+00	0	41	0	1058013184	56	6120
2026-01-21 20:02:01.65	321.92	5.96	-41.4	-42.5	21.5	0.00e+00	2	41	0	1060110336	56	6082
2026-01-21 20:02:02.66	321.81	5.90	-41.5	-42.6	21.4	0.00e+00	0	41	0	1062207488	56	6156
2026-01-21 20:02:03.67	321.69	5.85	-41.6	-42.8	21.2	0.00e+00	92	41	0	1064304640	56	6276
2026-01-21 20:02:04.68	321.58	5.80	-41.6	-42.8	21.3	0.00e+00	0	41	0	1066401792	56	6269
2026-01-21 20:02:05.69	321.47	5.75	-41.7	-42.9	21.1	0.00e+00	92	41	0	1067450368	56	6386
2026-01-21 20:02:06.69	321.35	5.70	-41.9	-43.1	21.0	0.00e+00	0	41	0	1069547520	56	6513
2026-01-21 20:02:07.70	321.24	5.65	-41.8	-43.0	21.0	0.00e+00	8	41	0	1071644672	56	6442
2026-01-21 20:02:08.71	321.13	5.60	-41.8	-43.0	21.1	0.00e+00	0	41	0	1073741824	56	6399
2026-01-21 20:02:09.72	321.02	5.55	-42.0	-43.3	20.7	0.00e+00	6	41	0	1075838976	56	6621
2026-01-21 20:02:10.73	320.91	5.50	-42.0	-43.3	20.7	0.00e+00	78	41	0	1076887552	56	6656
2026-01-21 20:02:11.74	320.80	5.44	-41.9	-43.1	21.0	0.00e+00	4	41	0	1078984704	56	6504
2026-01-21 20:02:12.75	320.69	5.39	-42.2	-43.4	20.7	0.00e+00	92	41	0	1081081856	56	6744
2026-01-21 20:02:13.76	320.58	5.34	-42.0	-43.3	20.8	0.00e+00	5	41	0	1083179008	56	6621
2026-01-21 20:02:14.77	320.47	5.29	-42.4	-43.7	20.4	0.00e+00	92	41	0	1085276160	56	6961
2026-01-21 20:02:15.78	320.36	5.24	-42.3	-43.7	20.4	0.00e+00	2	41	0	1087373312	56	6935
2026-01-21 20:02:16.79	320.25	5.19	-42.2	-43.5	20.5	0.00e+00	77	41	0	1088421888	56	6825
2026-01-21 20:02:17.80	320.14	5.14	-42.4	-43.7	20.5	0.00e+00	0	41	0	1090519040	56	6972
2026-01-21 20:02:18.81	320.04	5.08	-42.0	-43.3	20.7	0.00e+00	78	41	0	1092616192	56	6642
2026-01-21 20:02:19.82	319.93	5.03	-42.0	-43.3	20.7	0.00e+00	92	41	0	1094713344	56	6637
2026-01-21 20:02:20.83	319.82	4.98	-42.1	-43.3	20.9	0.00e+00	79	41	0	1096810496	56	6656
2026-01-21 20:02:21.84	319.72	4.93	-42.0	-43.3	20.8	0.00e+00	92	41	0	1097859072	56	6631
2026-01-21 20:02:22.85	319.61	4.88	-42.0	-43.3	20.8	0.00e+00	0	41	0	1099956224	56	6616
2026-01-21 20:02:23.86	319.50	4.83	-42.0	-43.3	20.7	0.00e+00	81	41	0	1102053376	56	6656
2026-01-21 20:02:24.87	319.40	4.78	-42.2	-43.5	20.6	0.00e+00	0	41	0	1104150528	56	6793
2026-01-21 20:02:25.88	319.29	4.73	-42.0	-43.3	20.8	0.00e+00	0	41	0	1106247680	56	6621
2026-01-21 20:02:26.89	319.19	4.67	-42.2	-43.5	20.4	0.00e+00	92	41	0	1107296256	56	6846
2026-01-21 20:02:27.90	319.09	4.62	-42.1	-43.4	20.5	0.00e+00	2	41	0	1109393408	56	6747
2026-01-21 20:02:28.91	318.98	4.57	-42.1	-43.4	20.6	0.00e+00	90	41	0	1111490560	56	6698
2026-01-21 20:02:29.92	318.88	4.52	-42.4	-43.7	20.3	0.00e+00	0	41	0	1113587712	56	6986
2026-01-21 20:02:30.93	318.78	4.47	-42.9	-44.3	19.7	0.00e+00	3	41	0	1115684864	58	6676
2026-01-21 20:02:31.94	318.67	4.42	-42.8	-44.3	19.6	0.00e+00	0	41	0	1116733440	58	6637
2026-01-21 20:02:32.95	318.57	4.37	-42.8	-44.2	19.7	0.00e+00	0	41	0	1118830592	58	6571
2026-01-21 20:02:33.96	318.47	4.32	-43.4	-45.0	19.0	0.00e+00	55	41	0	1120927744	58	7247
2026-01-21 20:02:34.97	318.37	4.27	-43.1	-44.6	19.4	0.00e+00	0	41	0	1123024896	58	6877
2026-01-21 20:02:35.98	318.27	4.21	-42.5	-43.8	20.0	0.00e+00	92	41	0	1125122048	58	6314
2026-01-21 20:02:36.99	318.16	4.16	-42.5	-43.9	20.0	0.00e+00	79	41	0	1126170624	58	6326
2026-01-21 20:02:38.00	318.06	4.11	-42.6	-44.1	19.7	0.00e+00	11	41	0	1128267776	58	6477
2026-01-21 20:02:39.01	317.96	4.06	-42.7	-44.1	19.8	0.00e+00	80	41	0	1130364928	58	6525
2026-01-21 20:02:40.02	317.86	4.01	-42.9	-44.4	19.5	0.00e+00	0	41	0	1132462080	58	6709
2026-01-21 20:02:41.03	317.76	3.96	-43.0	-44.5	19.4	0.00e+00	75	41	0	1134559232	58	6797
2026-01-21 20:02:42.04	317.67	3.91	-42.6	-44.1	19.8	0.00e+00	2	41	0	1135607808	58	6468
2026-01-21 20:02:43.05	317.57	3.86	-43.3	-44.9	18.9	0.00e+00	92	41	0	1137704960	58	7153
2026-01-21 20:02:44.06	317.47	3.81	-42.8	-44.3	19.5	0.00e+00	79	41	0	1139802112	58	6665
2026-01-21 20:02:45.07	317.37	3.75	-43.7	-45.4	18.5	0.00e+00	92	41	0	1141899264	58	7560
2026-01-21 20:02:46.08	317.27	3.70	-43.6	-45.3	18.5	0.00e+00	0	41	0	1143996416	60	6631
2026-01-21 20:02:47.08	317.18	3.65	-43.1	-44.6	19.0	0.00e+00	2	41	0	1145044992	58	6902
2026-01-21 20:02:48.09	317.08	3.60	-42.9	-44.5	19.2	0.00e+00	0	41	0	1147142144	58	6770
2026-01-21 20:02:49.10	316.98	3.55	-43.1	-44.6	19.2	0.00e+00	0	41	0	1149239296	58	6895
2026-01-21 20:02:50.11	316.89	3.50	-43.2	-44.7	19.0	0.00e+00	82	41	0	1151336448	58	6993
2026-01-21 20:02:51.12	316.79	3.45	-43.4	-45.0	18.9	0.00e+00	0	41	0	1153433600	58	7245
2026-01-21 20:02:52.13	316.70	3.40	-43.0	-44.5	19.3	0.00e+00	92	41	0	1155530752	58	6838
2026-01-21 20:02:53.14	316.60	3.35	-43.6	-45.3	18.7	0.00e+00	0	41	0	1156579328	60	6632
2026-01-21 20:02:54.15	316.51	3.30	-43.9	-45.8	17.7	0.00e+00	4	41	0	1158676480	60	7024
2026-01-21 20:02:55.16	316.41	3.25	-43.7	-45.4	18.2	0.00e+00	4	41	0	1160773632	60	6755
2026-01-21 20:02:56.17	316.32	3.20	-44.1	-46.0	17.9	0.00e+00	3	41	0	1162870784	60	7194
2026-01-21 20:02:57.18	316.22	3.14	-43.6	-45.4	18.4	0.00e+00	17	41	0	1164967936	60	6695
2026-01-21 20:02:58.19	316.13	3.09	-43.9	-45.7	18.0	0.00e+00	0	41	0	1166016512	60	7005
2026-01-21 20:02:59.20	316.04	3.04	-44.4	-46.5	17.3	0.00e+00	92	41	0	1168113664	60	7603
2026-01-21 20:03:00.21	315.94	2.99	-43.7	-45.5	18.1	0.00e+00	79	41	0	1170210816	60	6822
2026-01-21 20:03:01.22	315.85	2.94	-50.0	-65.1	3.6	1.25e+00	0	41	104	1171259392	60	65068
2026-01-21 20:03:02.23	315.76	2.89	-50.3	-65.5	3.6	1.51e+00	0	41	104	1171259392	60	67998
2026-01-21 20:03:03.24	315.67	2.84	-50.5	-65.7	3.6	1.51e+00	0	41	104	1171259392	60	70069
2026-01-21 20:03:04.25	315.58	2.79	-50.6	-65.9	3.6	1.51e+00	0	41	104	1171259392	60	70975
2026-01-21 20:03:05.26	315.48	2.74	-50.8	-66.0	3.6	1.51e+00	0	41	104	1171259392	60	71779
2026-01-21 20:03:06.27	315.39	2.69	-50.8	-66.1	3.6	1.51e+00	0	41	104	1171259392	60	72726
2026-01-21 20:03:07.28	315.30	2.64	-50.9	-66.1	3.6	1.51e+00	0	41	104	1171259392	60	73099
2026-01-21 20:03:08.29	315.21	2.59	-50.9	-66.2	3.6	1.51e+00	0	41	104	1171259392	60	73515
2026-01-21 20:03:09.30	315.12	2.54	-50.9	-66.1	3.6	1.51e+00	0	41	104	1171259392	60	73320
2026-01-21 20:03:10.31	315.03	2.49	-51.0	-66.2	3.6	1.51e+00	0	41	104	1171259392	60	73841
2026-01-21 20:03:11.32	314.94	2.44	-51.0	-66.2	3.6	1.51e+00	0	41	104	1171259392	60	73802
