passes_logs/2026/01/21/R4.6S_Anadyr/R4.6S_Anadyr__20260121_174052_AQUA_rec.log

#Pass ID: 20260121_174052_AQUA
#Satellite: AQUA
#Configuration: AQUA
#almurnet v.1.7.20251203
#Start time: 2026-01-21 17:40:53

#Version: 2.2.20231116
#Station: R4.6S_Anadyr
#Location: 177.4865 lon 64.73178 lat
#TLE: 1 27424U 02022A   26020.90316333  .00002787  00000+0  56766-3 0  9999
#TLE: 2 27424  98.4095 347.4297 0002000  71.6339 309.8236 14.61840001261750

#Time	Az	El	Level	Level2	SNR	BER	BlckErr	Temp	State	Recorded	gain1	gain2
2026-01-21 17:40:53.56	22.04	0.04	-51.6	-63.3	3.5	8.45e-01	0	39	0	0	60	52819
2026-01-21 17:40:54.57	22.00	0.10	-53.3	-71.1	3.5	3.02e+01	0	41	104	0	60	138574
2026-01-21 17:40:55.58	21.97	0.16	-52.7	-70.7	3.5	3.02e+01	0	41	104	0	60	131623
2026-01-21 17:40:56.59	21.93	0.22	-52.7	-70.6	3.5	3.02e+01	0	41	104	0	60	129988
2026-01-21 17:40:57.60	21.89	0.28	-52.5	-70.4	3.5	3.02e+01	0	41	104	0	60	126975
2026-01-21 17:40:58.61	21.85	0.34	-52.7	-70.6	3.5	3.02e+01	0	41	104	0	60	130104
2026-01-21 17:40:59.62	21.81	0.40	-52.6	-70.4	3.5	3.02e+01	0	41	104	0	60	127079
2026-01-21 17:41:00.63	21.78	0.46	-52.4	-70.3	3.5	3.02e+01	0	41	104	0	60	125974
2026-01-21 17:41:01.64	21.74	0.52	-52.2	-70.1	3.5	3.02e+01	0	41	104	0	60	123103
2026-01-21 17:41:02.65	21.70	0.58	-52.3	-70.2	3.5	3.02e+01	0	41	104	0	60	124335
2026-01-21 17:41:03.66	21.66	0.64	-52.3	-70.3	3.5	3.02e+01	0	41	104	0	60	125842
2026-01-21 17:41:04.67	21.62	0.71	-52.3	-70.2	3.5	3.02e+01	0	41	104	0	60	124024
2026-01-21 17:41:05.68	21.58	0.77	-52.1	-70.0	3.5	3.02e+01	0	41	104	0	60	121514
2026-01-21 17:41:06.69	21.54	0.83	-52.0	-70.0	3.5	3.02e+01	0	41	104	0	60	121757
2026-01-21 17:41:07.70	21.50	0.89	-52.0	-69.9	3.5	3.02e+01	0	41	104	0	60	120492
2026-01-21 17:41:08.71	21.46	0.95	-52.0	-69.8	3.5	3.02e+01	0	41	104	0	60	118296
2026-01-21 17:41:09.72	21.42	1.01	-51.9	-69.7	3.5	3.02e+01	0	41	104	0	60	117566
2026-01-21 17:41:10.73	21.38	1.08	-51.7	-69.5	3.5	3.02e+01	0	41	104	0	60	115075
2026-01-21 17:41:11.74	21.34	1.14	-51.4	-69.3	3.5	3.02e+01	0	41	104	0	60	111807
2026-01-21 17:41:12.75	21.30	1.20	-51.4	-69.2	3.5	3.02e+01	0	41	104	0	60	111391
2026-01-21 17:41:13.76	21.26	1.26	-51.2	-69.1	3.5	3.02e+01	0	41	104	0	60	109256
2026-01-21 17:41:14.77	21.22	1.32	-51.1	-68.8	3.5	3.02e+01	0	41	104	0	60	106480
2026-01-21 17:41:15.78	21.18	1.39	-50.8	-68.6	3.5	3.02e+01	0	41	104	0	60	103837
2026-01-21 17:41:16.79	21.14	1.45	-50.6	-68.2	3.5	3.02e+01	0	41	104	0	60	98679
2026-01-21 17:41:17.80	21.10	1.51	-50.3	-68.2	3.5	3.02e+01	0	41	104	0	60	98575
2026-01-21 17:41:18.81	21.06	1.58	-50.3	-68.1	3.5	3.02e+01	0	41	104	0	60	97427
2026-01-21 17:41:19.82	21.01	1.64	-50.3	-68.0	3.5	3.02e+01	0	41	104	0	60	97012
2026-01-21 17:41:20.82	20.97	1.70	-50.3	-68.0	3.5	3.02e+01	0	41	104	0	60	96309
2026-01-21 17:41:21.84	20.93	1.77	-50.4	-68.0	3.5	3.02e+01	0	41	104	0	60	97214
2026-01-21 17:41:22.85	20.89	1.83	-50.5	-68.2	3.5	3.02e+01	0	41	104	0	60	99468
2026-01-21 17:41:23.86	20.84	1.89	-50.4	-68.1	3.5	3.02e+01	0	41	104	0	60	98083
2026-01-21 17:41:24.87	20.80	1.96	-50.3	-68.1	3.5	3.02e+01	0	41	104	0	60	97229
2026-01-21 17:41:25.88	20.76	2.02	-50.3	-68.1	3.5	3.02e+01	0	41	104	0	60	97995
2026-01-21 17:41:26.89	20.71	2.09	-50.3	-68.1	3.5	3.02e+01	0	41	104	0	60	97991
2026-01-21 17:41:27.90	20.67	2.15	-50.3	-68.1	3.5	3.02e+01	0	41	104	0	60	97542
2026-01-21 17:41:28.91	20.62	2.21	-50.3	-68.0	3.5	3.02e+01	0	41	104	0	60	96856
2026-01-21 17:41:29.91	20.58	2.28	-50.3	-68.0	3.5	3.02e+01	0	41	104	0	60	96742
2026-01-21 17:41:30.92	20.54	2.34	-50.3	-68.0	3.5	3.02e+01	0	41	104	0	60	96230
2026-01-21 17:41:31.93	20.49	2.41	-50.2	-67.9	3.5	3.02e+01	0	41	104	0	60	95812
2026-01-21 17:41:32.94	20.45	2.47	-50.3	-68.1	3.5	3.02e+01	0	41	104	0	60	97477
2026-01-21 17:41:33.95	20.40	2.54	-50.3	-68.1	3.5	3.02e+01	0	41	104	0	60	97528
2026-01-21 17:41:34.96	20.36	2.60	-50.3	-68.1	3.5	3.02e+01	0	41	104	0	60	97702
2026-01-21 17:41:35.96	20.31	2.67	-50.3	-68.1	3.5	3.02e+01	0	41	104	0	60	97328
2026-01-21 17:41:36.98	20.26	2.73	-50.2	-68.1	3.5	3.02e+01	0	41	104	0	60	97543
2026-01-21 17:41:37.99	20.22	2.80	-50.3	-68.0	3.5	3.02e+01	0	41	104	0	60	97180
2026-01-21 17:41:39.00	20.17	2.87	-50.2	-68.1	3.5	3.02e+01	0	41	104	0	60	97260
2026-01-21 17:41:40.00	20.13	2.93	-50.3	-68.0	3.5	3.02e+01	0	41	104	0	60	97179
2026-01-21 17:41:41.01	20.08	3.00	-50.2	-68.0	3.5	3.02e+01	0	41	104	0	60	96317
2026-01-21 17:41:42.02	20.03	3.06	-50.2	-67.8	3.5	3.02e+01	0	41	104	0	60	94460
2026-01-21 17:41:43.04	19.98	3.13	-50.2	-67.6	3.5	3.02e+01	0	41	104	0	60	92174
2026-01-21 17:41:44.05	19.94	3.20	-50.2	-67.5	3.5	3.02e+01	0	41	104	0	60	91578
2026-01-21 17:41:45.06	19.89	3.27	-50.2	-67.6	3.5	3.02e+01	0	41	104	0	60	92369
2026-01-21 17:41:46.06	19.84	3.33	-50.2	-67.7	3.5	3.02e+01	0	42	104	0	60	93542
2026-01-21 17:41:47.08	19.79	3.40	-50.2	-67.8	3.5	3.02e+01	0	41	104	0	60	94384
2026-01-21 17:41:48.09	19.74	3.47	-50.1	-67.5	3.5	3.02e+01	0	41	104	0	60	90855
2026-01-21 17:41:49.10	19.69	3.53	-50.0	-66.9	3.5	3.02e+01	0	41	104	0	60	85225
2026-01-21 17:41:50.11	19.64	3.60	-49.8	-66.0	3.5	3.02e+01	0	41	104	0	60	76586
2026-01-21 17:41:51.12	19.59	3.67	-49.5	-64.8	3.5	3.02e+01	0	41	104	0	60	66887
2026-01-21 17:41:52.12	19.54	3.74	-50.2	-67.3	3.5	3.02e+01	0	41	104	0	60	88920
2026-01-21 17:41:53.13	19.49	3.81	-50.2	-67.7	3.5	3.02e+01	0	41	104	0	60	93480
2026-01-21 17:41:54.14	19.44	3.87	-50.0	-66.8	3.5	3.02e+01	0	41	104	0	60	84616
2026-01-21 17:41:55.15	19.39	3.94	-42.4	-53.0	3.5	3.02e+01	0	41	104	0	56	21575
2026-01-21 17:41:56.16	19.34	4.01	-50.2	-68.0	3.5	3.02e+01	0	41	104	0	60	97135
2026-01-21 17:41:57.17	19.29	4.08	-41.3	-51.9	3.5	3.02e+01	0	41	104	0	58	16912
2026-01-21 17:41:58.18	19.24	4.15	-40.7	-51.1	3.5	3.02e+01	0	41	104	0	56	17416
2026-01-21 17:41:59.19	19.19	4.22	-40.8	-51.3	3.5	3.02e+01	0	41	104	0	56	17707
2026-01-21 17:42:00.20	19.14	4.29	-40.9	-51.4	3.5	3.02e+01	0	41	104	0	56	18079
2026-01-21 17:42:01.21	19.08	4.36	-50.5	-67.5	3.5	3.02e+01	0	41	104	0	60	90954
2026-01-21 17:42:02.22	19.03	4.43	-44.3	-55.4	3.5	3.02e+01	0	42	104	0	60	22553
2026-01-21 17:42:03.23	18.98	4.50	-50.3	-67.2	3.5	3.02e+01	0	41	104	0	60	87712
2026-01-21 17:42:04.23	18.93	4.57	-50.6	-68.0	3.5	3.02e+01	0	42	104	0	60	96483
2026-01-21 17:42:05.25	18.87	4.64	-42.6	-53.3	3.5	3.02e+01	0	42	104	0	60	17747
2026-01-21 17:42:06.26	18.82	4.71	-40.8	-51.2	3.5	3.02e+01	0	41	104	0	56	17636
2026-01-21 17:42:07.26	18.76	4.78	-41.0	-51.4	3.5	3.02e+01	0	41	104	0	56	18092
2026-01-21 17:42:08.27	18.71	4.85	-40.8	-51.2	3.5	3.02e+01	0	41	104	0	56	17661
2026-01-21 17:42:09.28	18.65	4.92	-41.0	-51.5	3.5	3.02e+01	0	41	104	0	56	18134
2026-01-21 17:42:10.29	18.60	4.99	-40.4	-50.8	3.5	3.02e+01	0	41	104	0	56	16828
2026-01-21 17:42:11.30	18.54	5.06	-44.3	-55.3	3.5	3.02e+01	0	42	104	0	60	22285
2026-01-21 17:42:12.31	18.49	5.13	-50.3	-66.9	3.5	3.02e+01	0	42	104	0	60	84739
2026-01-21 17:42:13.31	18.43	5.21	-49.3	-63.6	3.5	3.02e+01	0	41	104	0	60	58268
2026-01-21 17:42:14.32	18.38	5.28	-42.7	-53.4	3.5	3.02e+01	0	42	104	0	60	18011
2026-01-21 17:42:15.33	18.32	5.35	-41.7	-52.2	3.5	3.02e+01	0	42	104	0	58	17607
2026-01-21 17:42:16.34	18.26	5.42	-41.4	-51.9	3.5	3.02e+01	0	41	104	0	58	16913
2026-01-21 17:42:17.35	18.20	5.50	-41.4	-51.9	3.5	3.02e+01	0	41	104	0	58	17072
2026-01-21 17:42:18.36	18.15	5.57	-42.4	-53.0	3.5	3.02e+01	0	41	104	0	58	19328
2026-01-21 17:42:19.37	18.09	5.64	-44.3	-55.2	3.5	3.02e+01	0	41	104	0	60	22169
2026-01-21 17:42:20.38	18.03	5.71	-49.6	-64.3	3.5	3.02e+01	0	41	104	0	60	63153
2026-01-21 17:42:21.39	17.97	5.79	-50.7	-68.6	3.5	3.02e+01	0	41	104	0	60	103006
2026-01-21 17:42:22.40	17.91	5.86	-47.2	-59.2	3.5	3.02e+01	0	41	104	0	60	34901
2026-01-21 17:42:23.41	17.85	5.93	-50.3	-67.0	3.5	3.02e+01	0	42	104	0	60	86463
2026-01-21 17:42:24.42	17.79	6.01	-48.3	-61.0	3.5	3.02e+01	0	41	104	0	60	43246
2026-01-21 17:42:25.43	17.73	6.08	-47.8	-60.3	3.5	3.02e+01	0	42	104	0	60	39781
2026-01-21 17:42:26.44	17.67	6.16	-48.0	-60.6	3.5	3.02e+01	0	42	104	0	60	41162
2026-01-21 17:42:27.45	17.61	6.23	-50.8	-68.5	3.5	3.02e+01	0	42	104	0	60	102128
2026-01-21 17:42:28.46	17.55	6.31	-50.7	-68.4	3.5	3.02e+01	0	42	104	0	60	100925
2026-01-21 17:42:29.47	17.49	6.38	-49.8	-64.6	3.5	3.02e+01	0	41	104	0	60	65078
2026-01-21 17:42:30.48	17.43	6.46	-50.7	-68.0	3.5	3.02e+01	0	41	104	0	60	97056
2026-01-21 17:42:31.49	17.36	6.53	-44.4	-55.3	3.6	3.02e+01	0	42	104	0	60	22519
2026-01-21 17:42:32.50	17.30	6.61	-41.9	-52.4	3.5	3.02e+01	0	41	104	0	58	17978
2026-01-21 17:42:33.51	17.24	6.68	-40.6	-51.0	3.5	3.02e+01	0	41	104	0	56	17173
2026-01-21 17:42:34.52	17.18	6.76	-40.4	-50.8	3.5	3.02e+01	0	41	104	0	56	16784
2026-01-21 17:42:35.53	17.11	6.84	-40.5	-50.9	3.5	3.02e+01	0	41	104	0	56	17012
2026-01-21 17:42:36.54	17.05	6.91	-39.5	-49.8	3.5	3.02e+01	0	41	104	0	54	16802
2026-01-21 17:42:37.55	16.98	6.99	-41.2	-51.7	3.5	3.02e+01	0	41	104	0	54	20861
2026-01-21 17:42:38.56	16.92	7.07	-50.4	-66.3	3.5	3.02e+01	0	42	104	0	60	79276
2026-01-21 17:42:39.57	16.85	7.14	-50.7	-68.1	3.5	3.02e+01	0	42	104	0	60	98267
2026-01-21 17:42:40.58	16.79	7.22	-42.2	-52.8	3.5	3.02e+01	0	41	104	0	60	16797
2026-01-21 17:42:41.59	16.72	7.30	-42.3	-52.9	3.5	3.02e+01	0	42	104	0	60	16921
2026-01-21 17:42:42.60	16.65	7.38	-42.8	-53.4	3.5	3.02e+01	0	42	104	0	60	18073
2026-01-21 17:42:43.61	16.59	7.45	-42.2	-52.8	3.5	3.02e+01	0	42	104	0	58	18771
2026-01-21 17:42:44.62	16.52	7.53	-41.8	-52.3	3.5	3.02e+01	0	42	104	0	58	17865
2026-01-21 17:42:45.63	16.45	7.61	-41.5	-52.0	3.6	3.02e+01	0	42	104	0	58	17218
2026-01-21 17:42:46.64	16.38	7.69	-48.6	-61.6	3.5	3.02e+01	0	42	104	0	60	46366
2026-01-21 17:42:47.65	16.31	7.77	-50.8	-68.1	3.5	3.02e+01	0	42	104	0	60	97741
2026-01-21 17:42:48.66	16.24	7.85	-49.0	-62.6	3.5	3.02e+01	0	42	104	0	60	51822
2026-01-21 17:42:49.67	16.18	7.93	-50.5	-66.8	3.5	3.02e+01	0	42	104	0	60	84328
2026-01-21 17:42:50.68	16.11	8.01	-50.6	-66.7	3.5	3.02e+01	0	42	104	0	60	83096
2026-01-21 17:42:51.69	16.03	8.09	-47.9	-60.2	3.5	3.02e+01	0	42	104	0	60	39299
2026-01-21 17:42:52.70	15.96	8.17	-48.3	-60.9	3.5	3.02e+01	0	42	104	0	60	42594
2026-01-21 17:42:53.71	15.89	8.25	-47.6	-59.7	3.5	3.02e+01	0	42	104	0	60	37122
2026-01-21 17:42:54.72	15.82	8.33	-50.8	-67.9	3.5	3.02e+01	0	42	104	0	60	95217
2026-01-21 17:42:55.73	15.75	8.41	-46.6	-58.2	3.5	3.02e+01	0	42	104	0	60	31270
2026-01-21 17:42:56.73	15.68	8.49	-50.6	-67.1	3.5	3.02e+01	0	42	104	0	60	87056
2026-01-21 17:42:57.74	15.60	8.57	-50.7	-68.4	3.5	3.02e+01	0	42	104	0	60	101192
2026-01-21 17:42:58.75	15.53	8.65	-39.9	-50.2	3.5	3.02e+01	0	42	104	0	54	17525
2026-01-21 17:42:59.76	15.45	8.74	-40.4	-50.8	3.5	3.02e+01	0	42	104	0	56	16726
2026-01-21 17:43:00.77	15.38	8.82	-39.8	-50.1	3.5	3.02e+01	0	42	104	0	54	17437
2026-01-21 17:43:01.78	15.31	8.90	-39.3	-49.6	3.5	3.02e+01	0	42	104	0	54	16397
2026-01-21 17:43:02.79	15.23	8.98	-39.8	-50.1	3.5	3.02e+01	0	42	104	0	54	17417
2026-01-21 17:43:03.80	15.15	9.07	-39.5	-49.8	3.5	3.02e+01	0	42	104	0	54	16835
2026-01-21 17:43:04.81	15.08	9.15	-42.3	-52.8	3.5	3.02e+01	0	42	104	0	56	21076
2026-01-21 17:43:05.82	15.00	9.23	-50.8	-67.6	3.5	3.02e+01	0	42	104	0	60	92720
2026-01-21 17:43:06.83	14.92	9.32	-51.0	-68.3	3.5	3.02e+01	0	42	104	0	60	100012
2026-01-21 17:43:07.84	14.84	9.40	-40.4	-50.7	3.5	3.02e+01	0	42	104	0	54	18656
2026-01-21 17:43:08.85	14.77	9.48	-39.5	-49.8	3.5	3.02e+01	0	42	104	0	54	16823
2026-01-21 17:43:09.86	14.69	9.57	-40.1	-50.5	3.5	3.02e+01	0	42	104	0	54	18160
2026-01-21 17:43:10.87	14.61	9.65	-39.6	-49.9	3.5	3.02e+01	0	42	104	0	54	16981
2026-01-21 17:43:11.88	14.53	9.74	-39.6	-49.9	3.5	3.02e+01	0	42	104	0	54	16970
2026-01-21 17:43:12.89	14.45	9.82	-40.5	-50.8	3.5	3.02e+01	0	42	104	0	54	18858
2026-01-21 17:43:13.90	14.36	9.91	-42.1	-52.6	3.5	3.02e+01	0	42	104	0	56	20605
2026-01-21 17:43:14.91	14.28	10.00	-50.9	-67.8	3.5	3.02e+01	0	42	104	0	60	95009
2026-01-21 17:43:15.92	14.20	10.08	-50.9	-68.3	3.5	3.02e+01	0	42	104	0	60	100103
2026-01-21 17:43:16.93	14.12	10.17	-42.2	-52.7	3.5	3.02e+01	0	42	104	0	58	18624
2026-01-21 17:43:17.94	14.03	10.26	-41.7	-52.2	3.5	3.02e+01	0	42	104	0	58	17605
2026-01-21 17:43:18.95	13.95	10.34	-41.4	-51.8	3.5	3.02e+01	0	42	104	0	56	18946
2026-01-21 17:43:19.96	13.87	10.43	-41.7	-52.2	3.5	3.02e+01	0	42	104	0	56	19647
2026-01-21 17:43:20.97	13.78	10.52	-42.3	-52.9	3.5	3.02e+01	0	42	104	0	56	21378
2026-01-21 17:43:21.98	13.69	10.61	-39.0	-49.3	3.6	3.02e+01	0	42	104	0	54	15865
2026-01-21 17:43:22.99	13.61	10.69	-50.6	-67.5	3.5	3.02e+01	0	42	104	0	60	91339
2026-01-21 17:43:24.00	13.52	10.78	-51.0	-68.0	3.5	3.02e+01	0	42	104	0	60	96602
2026-01-21 17:43:25.01	13.43	10.87	-45.1	-56.2	3.5	3.02e+01	0	42	104	0	60	24912
2026-01-21 17:43:26.02	13.35	10.96	-50.9	-68.3	3.5	3.02e+01	0	42	104	0	60	100609
2026-01-21 17:43:27.03	13.26	11.05	-45.6	-56.7	3.5	3.02e+01	0	42	104	0	60	26221
2026-01-21 17:43:28.03	13.17	11.14	-44.8	-55.7	3.5	3.02e+01	0	42	104	0	60	23448
2026-01-21 17:43:29.05	13.08	11.23	-45.3	-56.3	3.5	3.02e+01	0	42	104	0	60	25162
2026-01-21 17:43:30.06	12.99	11.32	-45.0	-56.0	3.5	3.02e+01	0	42	104	0	60	24287
2026-01-21 17:43:31.07	12.90	11.41	-51.2	-68.7	3.5	3.02e+01	0	42	104	0	60	104330
2026-01-21 17:43:32.07	12.80	11.50	-41.3	-51.7	3.5	3.02e+01	0	42	104	0	60	14784
2026-01-21 17:43:33.08	12.71	11.59	-51.0	-68.2	3.5	3.02e+01	0	42	104	0	60	99220
2026-01-21 17:43:34.09	12.62	11.68	-50.9	-67.1	3.5	3.02e+01	0	42	104	0	60	87351
2026-01-21 17:43:35.10	12.53	11.77	-40.9	-51.3	3.5	3.02e+01	0	42	104	0	56	17824
2026-01-21 17:43:36.11	12.43	11.87	-39.9	-50.2	3.5	3.02e+01	0	42	104	0	54	17660
2026-01-21 17:43:37.12	12.34	11.96	-39.4	-49.7	3.5	3.02e+01	0	42	104	0	54	16611
2026-01-21 17:43:38.13	12.24	12.05	-39.1	-49.3	3.5	3.02e+01	0	42	104	0	52	17868
2026-01-21 17:43:39.14	12.14	12.14	-38.6	-48.8	3.5	3.02e+01	0	42	104	0	52	16832
2026-01-21 17:43:40.15	12.05	12.24	-39.5	-49.7	3.5	3.02e+01	0	42	104	0	52	18678
2026-01-21 17:43:41.16	11.95	12.33	-40.5	-50.8	3.6	3.02e+01	0	42	104	0	54	18934
2026-01-21 17:43:42.17	11.85	12.43	-51.1	-68.0	3.5	3.02e+01	0	42	104	0	60	96635
2026-01-21 17:43:43.18	11.75	12.52	-50.7	-66.6	3.6	3.02e+01	0	42	104	0	60	82013
2026-01-21 17:43:44.19	11.65	12.61	-42.7	-53.2	3.5	3.02e+01	0	42	104	0	58	19745
2026-01-21 17:43:45.20	11.55	12.71	-41.0	-51.4	3.5	3.02e+01	0	42	104	0	56	17973
2026-01-21 17:43:46.21	11.45	12.80	-40.9	-51.2	3.5	3.02e+01	0	42	104	0	56	17584
2026-01-21 17:43:47.22	11.35	12.90	-40.3	-50.6	3.5	3.02e+01	0	42	104	0	56	16343
2026-01-21 17:43:48.23	11.24	13.00	-38.6	-48.8	3.5	3.02e+01	0	42	104	0	52	16781
2026-01-21 17:43:49.24	11.14	13.09	-38.4	-48.7	3.5	3.02e+01	0	42	104	0	52	16546
2026-01-21 17:43:50.25	11.04	13.19	-41.8	-52.2	3.6	3.02e+01	0	42	104	0	54	22098
2026-01-21 17:43:51.26	10.93	13.29	-51.0	-67.2	3.5	3.02e+01	0	42	104	0	60	87732
2026-01-21 17:43:52.27	10.83	13.38	-49.6	-63.5	3.6	3.02e+01	0	42	104	0	60	57534
2026-01-21 17:43:53.28	10.72	13.48	-41.2	-51.5	3.5	3.02e+01	0	42	104	0	56	18310
2026-01-21 17:43:54.29	10.61	13.58	-39.3	-49.6	3.5	3.02e+01	0	42	104	0	54	16378
2026-01-21 17:43:55.30	10.50	13.68	-39.4	-49.6	3.6	3.02e+01	0	41	104	0	54	16421
2026-01-21 17:43:56.31	10.39	13.78	-39.2	-49.4	3.6	3.02e+01	0	42	104	0	54	16130
2026-01-21 17:43:57.32	10.28	13.87	-38.2	-48.3	3.5	3.02e+01	0	42	104	0	52	15908
2026-01-21 17:43:58.33	10.17	13.97	-38.4	-48.6	3.5	3.02e+01	0	41	104	0	50	18468
2026-01-21 17:43:59.33	10.06	14.07	-41.9	-52.4	3.5	3.02e+01	0	41	104	0	54	22712
2026-01-21 17:44:00.34	9.95	14.17	-50.8	-66.9	3.5	3.02e+01	0	42	104	0	60	84855
2026-01-21 17:44:01.35	9.84	14.27	-47.2	-59.0	3.6	3.02e+01	0	42	104	0	60	34318
2026-01-21 17:44:02.36	9.72	14.37	-39.9	-50.3	3.5	3.02e+01	0	42	104	0	54	17711
2026-01-21 17:44:03.37	9.61	14.47	-38.3	-48.6	3.5	3.02e+01	0	42	104	0	50	18318
2026-01-21 17:44:04.38	9.49	14.58	-38.1	-48.3	3.5	3.02e+01	0	42	104	0	50	17802
2026-01-21 17:44:05.39	9.38	14.68	-37.9	-48.2	3.5	3.02e+01	0	42	104	0	50	17561
2026-01-21 17:44:06.40	9.26	14.78	-38.4	-48.6	3.6	3.02e+01	0	41	104	0	50	18516
2026-01-21 17:44:07.41	9.14	14.88	-40.7	-51.0	3.6	3.02e+01	0	42	104	0	56	17244
2026-01-21 17:44:08.42	9.02	14.98	-46.3	-57.5	3.5	3.02e+01	0	41	104	0	58	32328
2026-01-21 17:44:09.43	8.90	15.09	-51.0	-67.3	3.5	3.02e+01	0	41	104	0	60	88737
2026-01-21 17:44:10.44	8.78	15.19	-41.8	-52.3	3.6	3.02e+01	0	42	104	0	60	15826
2026-01-21 17:44:11.45	8.66	15.30	-41.2	-51.6	3.5	3.02e+01	0	41	104	0	58	16483
2026-01-21 17:44:12.45	8.54	15.40	-39.5	-49.8	3.5	3.02e+01	0	41	104	0	54	16741
2026-01-21 17:44:13.46	8.41	15.50	-39.2	-49.4	3.6	3.02e+01	0	42	104	0	54	16104
2026-01-21 17:44:14.47	8.29	15.61	-38.8	-49.0	3.5	3.02e+01	0	41	104	0	52	17160
2026-01-21 17:44:15.48	8.16	15.71	-39.1	-49.3	3.5	3.02e+01	0	41	104	0	52	17866
2026-01-21 17:44:16.49	8.04	15.82	-39.4	-49.7	3.5	3.02e+01	0	41	104	0	54	16630
2026-01-21 17:44:17.51	7.91	15.93	-49.0	-61.7	3.5	3.02e+01	0	41	104	0	60	46976
2026-01-21 17:44:18.52	7.78	16.03	-51.4	-68.9	3.5	3.02e+01	0	41	104	0	60	107411
2026-01-21 17:44:19.53	7.65	16.14	-40.6	-50.9	3.6	3.02e+01	0	42	104	0	60	13484
2026-01-21 17:44:20.54	7.52	16.25	-39.9	-50.1	3.5	3.02e+01	0	41	104	0	56	15570
2026-01-21 17:44:21.55	7.39	16.35	-39.5	-49.7	3.5	3.02e+01	0	41	104	0	52	18547
2026-01-21 17:44:22.55	7.25	16.46	-39.0	-49.3	3.5	3.02e+01	0	41	104	0	52	17778
2026-01-21 17:44:23.56	7.12	16.57	-38.2	-48.4	3.5	3.02e+01	0	41	104	0	52	16059
2026-01-21 17:44:24.57	6.99	16.68	-38.4	-48.6	3.5	3.02e+01	0	41	104	0	52	16479
2026-01-21 17:44:25.58	6.85	16.79	-39.8	-50.1	3.5	3.02e+01	0	41	104	0	54	17312
2026-01-21 17:44:26.59	6.71	16.90	-51.1	-67.7	3.5	3.02e+01	0	41	104	0	60	93106
2026-01-21 17:44:27.60	6.57	17.01	-50.1	-64.2	3.5	3.02e+01	0	41	104	0	60	62240
2026-01-21 17:44:28.61	6.43	17.12	-38.7	-48.9	3.6	3.02e+01	0	41	104	0	52	17074
2026-01-21 17:44:29.62	6.29	17.23	-39.7	-50.0	3.6	3.02e+01	0	41	104	0	56	15282
2026-01-21 17:44:30.63	6.15	17.34	-38.6	-48.9	3.5	3.02e+01	0	41	104	0	52	16937
2026-01-21 17:44:31.63	6.01	17.45	-38.8	-49.0	3.5	3.02e+01	0	41	104	0	52	17201
2026-01-21 17:44:32.65	5.87	17.56	-38.4	-48.5	3.5	3.02e+01	0	41	104	0	52	16301
2026-01-21 17:44:33.65	5.72	17.67	-38.8	-49.1	3.6	3.02e+01	0	41	104	0	50	19408
2026-01-21 17:44:34.66	5.58	17.79	-39.1	-49.4	3.6	3.02e+01	0	41	104	0	54	16015
2026-01-21 17:44:35.67	5.43	17.90	-51.1	-67.7	3.5	3.02e+01	0	41	104	0	60	92871
2026-01-21 17:44:36.68	5.28	18.01	-50.7	-65.7	3.5	3.02e+01	0	41	104	0	60	74448
2026-01-21 17:44:37.69	5.13	18.13	-40.4	-50.6	3.6	3.02e+01	0	41	104	0	56	16442
2026-01-21 17:44:38.70	4.98	18.24	-41.5	-51.8	3.5	3.02e+01	0	41	104	0	60	15055
2026-01-21 17:44:39.70	4.83	18.35	-40.9	-51.3	3.6	3.02e+01	0	41	104	0	56	17791
2026-01-21 17:44:40.71	4.68	18.47	-41.7	-52.1	3.5	3.02e+01	0	41	104	0	56	19602
2026-01-21 17:44:41.72	4.52	18.58	-41.4	-51.7	3.6	3.02e+01	0	41	104	0	56	18694
2026-01-21 17:44:42.73	4.36	18.70	-43.3	-53.8	3.5	3.02e+01	0	41	104	0	58	21223
2026-01-21 17:44:43.74	4.21	18.81	-38.9	-49.2	3.6	3.02e+01	0	41	104	0	52	17497
2026-01-21 17:44:44.75	4.05	18.93	-51.4	-68.2	3.5	3.02e+01	0	41	104	0	60	99207
2026-01-21 17:44:45.76	3.89	19.05	-48.9	-61.8	3.5	3.02e+01	0	41	104	0	60	47538
2026-01-21 17:44:46.77	3.73	19.16	-40.7	-51.1	3.7	3.02e+01	0	41	104	0	52	21818
2026-01-21 17:44:47.78	3.57	19.28	-39.4	-49.6	3.5	3.02e+01	0	41	104	0	54	16502
2026-01-21 17:44:48.79	3.40	19.40	-38.8	-49.0	3.6	3.02e+01	0	41	104	0	52	17283
2026-01-21 17:44:49.80	3.24	19.52	-38.2	-48.4	3.5	3.02e+01	0	41	104	0	52	15967
2026-01-21 17:44:50.81	3.07	19.64	-38.2	-48.4	3.5	3.02e+01	0	41	104	0	52	16109
2026-01-21 17:44:51.82	2.90	19.75	-42.0	-52.4	3.5	3.02e+01	0	41	104	0	56	20243
2026-01-21 17:44:52.83	2.73	19.87	-38.8	-49.0	3.5	3.02e+01	0	41	104	0	54	15343
2026-01-21 17:44:53.83	2.56	19.99	-51.4	-68.8	3.5	3.02e+01	0	41	104	0	60	105867
2026-01-21 17:44:54.84	2.39	20.11	-48.9	-61.8	3.5	3.02e+01	0	41	104	0	60	47245
2026-01-21 17:44:55.85	2.22	20.23	-41.9	-52.4	3.5	3.02e+01	0	41	104	0	52	25385
2026-01-21 17:44:56.86	2.04	20.35	-38.8	-49.0	3.5	3.02e+01	0	41	104	0	54	15266
2026-01-21 17:44:57.87	1.87	20.48	-38.3	-48.6	3.6	3.02e+01	0	41	104	0	52	16383
2026-01-21 17:44:58.88	1.69	20.60	-38.2	-48.5	3.5	3.02e+01	0	41	104	0	52	16163
2026-01-21 17:44:59.89	1.51	20.72	-38.3	-48.5	3.6	3.02e+01	0	41	104	0	52	16255
2026-01-21 17:45:00.90	1.33	20.84	-42.7	-53.3	3.5	3.02e+01	0	41	104	0	58	20062
2026-01-21 17:45:01.91	1.14	20.96	-38.8	-49.1	3.5	3.02e+01	0	41	104	0	54	15461
2026-01-21 17:45:02.92	0.96	21.09	-51.5	-68.9	3.5	3.02e+01	0	41	104	0	60	107716
2026-01-21 17:45:03.93	0.77	21.21	-49.2	-62.3	3.5	3.02e+01	0	41	104	0	60	50373
2026-01-21 17:45:04.94	0.58	21.33	-46.8	-58.3	3.5	3.02e+01	0	41	104	0	60	31651
2026-01-21 17:45:05.95	0.40	21.46	-42.0	-52.5	3.6	3.02e+01	0	41	104	0	58	18242
2026-01-21 17:45:06.95	0.21	21.58	-42.2	-52.6	3.5	3.02e+01	0	41	104	0	58	18513
2026-01-21 17:45:07.96	0.01	21.70	-41.8	-52.2	3.5	3.02e+01	0	41	104	0	58	17656
2026-01-21 17:45:08.97	359.82	21.83	-42.1	-52.6	3.5	3.02e+01	0	41	104	0	58	18366
2026-01-21 17:45:09.98	359.62	21.95	-40.8	-51.1	3.5	3.02e+01	0	41	104	0	56	17393
2026-01-21 17:45:10.99	359.43	22.08	-38.4	-48.6	3.5	3.02e+01	0	41	104	0	52	16374
2026-01-21 17:45:12.00	359.23	22.21	-51.5	-69.3	3.5	3.02e+01	0	41	104	0	60	111639
2026-01-21 17:45:13.01	359.03	22.33	-48.8	-61.4	3.5	3.02e+01	0	41	104	0	60	45226
2026-01-21 17:45:14.02	358.82	22.46	-46.1	-57.3	3.5	3.02e+01	0	41	104	0	60	28340
2026-01-21 17:45:15.03	358.62	22.59	-40.7	-50.9	3.5	3.02e+01	0	41	104	0	56	17088
2026-01-21 17:45:16.04	358.41	22.71	-40.4	-50.7	3.5	3.02e+01	0	41	104	0	56	16585
2026-01-21 17:45:17.05	358.21	22.84	-39.2	-49.5	3.6	3.02e+01	0	41	104	0	54	16210
2026-01-21 17:45:18.06	358.00	22.97	-39.2	-49.4	3.5	3.02e+01	0	41	104	0	52	18030
2026-01-21 17:45:19.07	357.78	23.10	-41.6	-52.1	3.5	3.02e+01	0	41	104	0	56	19450
2026-01-21 17:45:20.08	357.57	23.22	-38.5	-48.7	3.5	3.02e+01	0	41	104	0	52	16619
2026-01-21 17:45:21.08	357.36	23.35	-51.5	-69.4	3.5	3.02e+01	0	41	104	0	60	113957
2026-01-21 17:45:22.09	357.14	23.48	-46.9	-58.4	3.5	3.02e+01	0	41	104	0	60	32142
2026-01-21 17:45:23.10	356.92	23.61	-46.7	-58.3	3.5	3.02e+01	0	41	104	0	60	31530
2026-01-21 17:45:24.11	356.70	23.74	-38.8	-49.1	3.5	3.02e+01	0	41	104	0	52	17434
2026-01-21 17:45:25.12	356.48	23.87	-38.5	-48.7	3.5	3.02e+01	0	41	104	0	52	16574
2026-01-21 17:45:26.13	356.25	24.00	-38.6	-48.9	3.6	3.02e+01	0	41	104	0	52	16901
2026-01-21 17:45:27.13	356.03	24.13	-38.3	-48.5	3.5	3.02e+01	0	41	104	0	52	16149
2026-01-21 17:45:28.14	355.80	24.26	-45.7	-56.8	3.5	3.02e+01	0	41	104	0	60	26726
2026-01-21 17:45:29.15	355.57	24.39	-38.3	-48.5	3.5	3.02e+01	0	41	104	0	52	16167
2026-01-21 17:45:30.16	355.33	24.52	-51.5	-69.2	3.5	3.02e+01	0	41	104	0	60	111602
2026-01-21 17:45:31.17	355.10	24.65	-44.9	-55.9	3.5	3.02e+01	0	41	104	0	60	23885
2026-01-21 17:45:32.18	354.86	24.78	-48.3	-60.7	3.6	3.02e+01	0	41	104	0	60	41856
2026-01-21 17:45:33.19	354.62	24.91	-39.0	-49.2	3.6	3.02e+01	0	41	104	0	52	17615
2026-01-21 17:45:34.20	354.38	25.04	-39.2	-49.4	3.5	3.02e+01	0	41	104	0	52	17911
2026-01-21 17:45:35.21	354.14	25.18	-38.9	-49.1	3.5	3.02e+01	0	41	104	0	52	17455
2026-01-21 17:45:36.22	353.89	25.31	-38.7	-48.9	3.5	3.02e+01	0	41	104	0	52	17079
2026-01-21 17:45:37.23	353.64	25.44	-41.4	-51.9	3.5	3.02e+01	0	41	104	0	60	15103
2026-01-21 17:45:38.24	353.39	25.57	-39.1	-49.4	3.5	3.02e+01	0	41	104	0	52	17907
2026-01-21 17:45:39.25	353.14	25.70	-51.5	-68.8	3.5	3.02e+01	0	41	104	0	60	106461
2026-01-21 17:45:40.26	352.89	25.84	-41.7	-52.2	3.4	3.02e+01	0	41	104	0	60	15625
2026-01-21 17:45:41.27	352.63	25.97	-49.3	-62.5	3.5	3.02e+01	0	41	104	0	60	51524
2026-01-21 17:45:42.28	352.37	26.10	-40.1	-50.4	3.6	3.02e+01	0	41	104	0	56	15953
2026-01-21 17:45:43.29	352.11	26.23	-40.5	-50.8	3.5	3.02e+01	0	41	104	0	56	16827
2026-01-21 17:45:44.30	351.85	26.37	-39.1	-49.3	3.5	3.02e+01	0	41	104	0	54	15825
2026-01-21 17:45:45.31	351.58	26.50	-39.1	-49.3	3.6	3.02e+01	0	41	104	0	52	17742
2026-01-21 17:45:46.32	351.31	26.63	-42.6	-53.1	3.5	3.02e+01	0	41	104	0	60	17343
2026-01-21 17:45:47.33	351.04	26.77	-39.3	-49.5	3.5	3.02e+01	0	41	104	0	52	18219
2026-01-21 17:45:48.34	350.77	26.90	-51.5	-68.7	3.5	3.02e+01	0	41	104	0	60	104603
2026-01-21 17:45:49.36	350.49	27.03	-40.0	-50.3	3.5	3.02e+01	0	41	104	0	60	12557
2026-01-21 17:45:50.37	350.21	27.17	-47.9	-59.9	3.5	3.02e+01	0	41	104	0	60	37877
2026-01-21 17:45:51.37	349.93	27.30	-39.1	-49.3	3.5	3.02e+01	0	41	104	0	54	15812
2026-01-21 17:45:52.38	349.65	27.43	-38.2	-48.4	3.5	3.02e+01	0	41	104	0	52	15956
2026-01-21 17:45:53.39	349.37	27.56	-37.9	-48.1	3.5	3.02e+01	0	41	104	0	50	17362
2026-01-21 17:45:54.40	349.08	27.69	-39.8	-50.0	3.8	3.02e+01	0	41	104	0	50	21667
2026-01-21 17:45:55.41	348.79	27.83	-41.6	-52.0	3.5	3.02e+01	0	41	104	0	60	15284
2026-01-21 17:45:56.42	348.49	27.96	-44.4	-55.0	3.7	3.02e+01	0	41	104	0	54	30618
2026-01-21 17:45:57.43	348.20	28.09	-51.3	-67.7	3.6	3.02e+01	0	41	104	0	60	93834
2026-01-21 17:45:58.44	347.90	28.22	-37.7	-47.8	3.5	3.02e+01	0	41	104	0	52	14990
2026-01-21 17:45:59.45	347.60	28.36	-45.0	-55.9	3.6	3.02e+01	0	41	104	0	60	24026
2026-01-21 17:46:00.46	347.30	28.49	-38.9	-49.1	3.5	3.02e+01	0	41	104	0	52	17344
2026-01-21 17:46:01.47	346.99	28.62	-38.1	-48.3	3.5	3.02e+01	0	41	104	0	52	15769
2026-01-21 17:46:02.48	346.68	28.75	-38.1	-48.3	3.5	3.02e+01	0	41	104	0	52	15903
2026-01-21 17:46:03.49	346.37	28.88	-38.1	-48.3	3.5	3.02e+01	0	41	104	0	50	17791
2026-01-21 17:46:04.50	346.06	29.01	-39.3	-49.5	3.5	3.02e+01	0	41	104	0	54	16289
2026-01-21 17:46:05.51	345.74	29.14	-44.7	-55.4	3.5	3.02e+01	0	41	104	0	54	32118
2026-01-21 17:46:06.52	345.42	29.27	-48.7	-61.1	3.6	3.02e+01	0	41	104	0	60	43843
2026-01-21 17:46:07.52	345.11	29.40	-37.6	-47.8	3.5	3.02e+01	0	41	104	0	50	16803
2026-01-21 17:46:08.53	344.78	29.53	-41.9	-52.4	3.4	3.02e+01	0	41	104	0	60	16012
2026-01-21 17:46:09.54	344.45	29.66	-39.0	-49.2	3.5	3.02e+01	0	41	104	0	52	17531
2026-01-21 17:46:10.55	344.12	29.79	-39.6	-49.9	3.6	3.02e+01	0	41	104	0	52	19014
2026-01-21 17:46:11.56	343.79	29.92	-39.7	-49.9	3.5	3.02e+01	0	41	104	0	52	19172
2026-01-21 17:46:12.57	343.46	30.04	-37.6	-47.8	3.5	3.02e+01	0	41	104	0	52	14978
2026-01-21 17:46:13.58	343.12	30.17	-37.8	-48.0	3.5	3.02e+01	0	41	104	0	50	17169
2026-01-21 17:46:14.59	342.78	30.30	-51.4	-68.0	3.5	3.02e+01	0	41	104	0	60	96348
2026-01-21 17:46:15.60	342.43	30.42	-45.0	-55.9	3.5	3.02e+01	0	41	104	0	60	24098
2026-01-21 17:46:16.61	342.09	30.55	-40.1	-50.4	3.5	3.02e+01	0	41	104	0	50	22538
2026-01-21 17:46:17.62	341.74	30.68	-40.0	-50.2	3.5	3.02e+01	0	41	104	0	60	12454
2026-01-21 17:46:18.63	341.38	30.80	-38.0	-48.2	3.5	3.02e+01	0	41	104	0	50	17654
2026-01-21 17:46:19.63	341.03	30.92	-37.9	-48.1	3.5	3.02e+01	0	41	104	0	50	17402
2026-01-21 17:46:20.64	340.67	31.05	-37.5	-47.7	3.5	3.02e+01	0	41	104	0	50	16526
2026-01-21 17:46:21.65	340.31	31.17	-41.0	-51.3	3.5	3.02e+01	0	41	104	0	52	22329
2026-01-21 17:46:22.66	339.95	31.29	-38.0	-48.1	3.5	3.02e+01	0	41	104	0	50	17438
2026-01-21 17:46:23.67	339.58	31.41	-51.6	-68.9	3.5	3.02e+01	0	41	104	0	60	107768
2026-01-21 17:46:24.68	339.22	31.53	-44.0	-54.7	3.5	3.02e+01	0	41	104	0	60	20903
2026-01-21 17:46:25.69	338.84	31.65	-41.3	-51.6	3.4	3.02e+01	0	41	104	0	50	26054
2026-01-21 17:46:26.70	338.47	31.77	-41.7	-52.1	3.5	3.02e+01	0	41	104	0	60	15470
2026-01-21 17:46:27.71	338.09	31.89	-40.1	-50.4	3.5	3.02e+01	0	41	104	0	56	15969
2026-01-21 17:46:28.72	337.71	32.00	-39.7	-50.0	3.5	3.02e+01	0	41	104	0	54	17213
2026-01-21 17:46:29.73	337.33	32.12	-38.5	-48.7	3.5	3.02e+01	0	41	104	0	52	16616
2026-01-21 17:46:30.74	336.94	32.24	-43.6	-54.2	3.5	3.02e+01	0	41	104	0	58	22054
2026-01-21 17:46:31.75	336.55	32.35	-38.0	-48.1	3.6	3.02e+01	0	41	104	0	50	17450
2026-01-21 17:46:32.76	336.16	32.46	-51.5	-68.3	3.5	3.02e+01	0	41	104	0	60	100414
2026-01-21 17:46:33.77	335.76	32.58	-42.9	-53.4	3.5	3.02e+01	0	41	104	0	60	18015
2026-01-21 17:46:34.78	335.37	32.69	-46.7	-58.0	3.5	3.02e+01	0	41	104	0	60	30643
2026-01-21 17:46:35.79	334.97	32.80	-38.5	-48.8	3.5	3.02e+01	0	41	104	0	52	16780
2026-01-21 17:46:36.80	334.56	32.91	-37.8	-47.9	3.5	3.02e+01	0	41	104	0	50	16972
2026-01-21 17:46:37.81	334.16	33.01	-37.6	-47.8	3.5	3.02e+01	0	41	104	0	50	16708
2026-01-21 17:46:38.82	333.75	33.12	-37.7	-47.9	3.5	3.02e+01	0	41	104	0	50	17091
2026-01-21 17:46:39.83	333.34	33.22	-51.4	-67.7	3.5	3.02e+01	0	41	104	0	60	93093
2026-01-21 17:46:40.84	332.92	33.33	-38.1	-48.2	3.5	3.02e+01	0	41	104	0	52	15758
2026-01-21 17:46:41.85	332.50	33.43	-51.5	-68.3	3.5	3.02e+01	0	41	104	0	60	99748
2026-01-21 17:46:42.86	332.08	33.53	-43.3	-53.9	3.5	3.02e+01	0	41	104	0	60	19157
2026-01-21 17:46:43.87	331.66	33.63	-48.4	-60.4	3.5	3.02e+01	0	41	104	0	60	40410
2026-01-21 17:46:44.87	331.24	33.73	-38.6	-48.8	3.5	3.02e+01	0	41	104	0	52	16833
2026-01-21 17:46:45.88	330.81	33.83	-38.0	-48.2	3.5	3.02e+01	0	41	104	0	52	15679
2026-01-21 17:46:46.89	330.38	33.92	-37.9	-48.0	3.5	3.02e+01	0	41	104	0	50	17216
2026-01-21 17:46:47.91	329.94	34.02	-38.1	-48.2	3.5	3.02e+01	0	41	104	0	50	17612
2026-01-21 17:46:48.92	329.51	34.11	-51.4	-68.1	3.5	3.02e+01	0	41	104	0	60	98253
2026-01-21 17:46:49.93	329.07	34.20	-39.1	-49.4	3.5	3.02e+01	0	41	104	0	52	17920
2026-01-21 17:46:50.93	328.63	34.29	-51.5	-68.5	3.5	3.02e+01	0	41	104	0	60	102702
2026-01-21 17:46:51.94	328.19	34.38	-43.6	-54.3	3.5	3.02e+01	0	41	104	0	60	19925
2026-01-21 17:46:52.95	327.74	34.46	-51.0	-66.3	3.5	3.02e+01	0	41	104	0	60	79523
2026-01-21 17:46:53.96	327.30	34.55	-41.1	-51.4	3.5	3.02e+01	0	41	104	0	58	16088
2026-01-21 17:46:54.97	326.85	34.63	-41.1	-51.3	3.6	3.02e+01	0	41	104	0	58	15949
2026-01-21 17:46:55.98	326.39	34.71	-39.6	-49.8	3.5	3.02e+01	0	41	104	0	54	16833
2026-01-21 17:46:56.99	325.94	34.79	-38.8	-49.0	3.5	3.02e+01	0	41	104	0	52	17174
2026-01-21 17:46:58.00	325.48	34.87	-47.7	-59.7	3.5	3.02e+01	0	41	104	0	60	36981
2026-01-21 17:46:59.01	325.02	34.94	-39.9	-50.3	3.5	3.02e+01	0	41	104	0	54	17775
2026-01-21 17:47:00.02	324.56	35.02	-51.5	-68.4	3.5	3.02e+01	0	41	104	0	60	101594
2026-01-21 17:47:01.03	324.10	35.09	-44.7	-55.4	3.6	3.02e+01	0	41	104	0	60	22589
2026-01-21 17:47:02.04	323.63	35.16	-51.3	-68.5	3.5	3.02e+01	0	41	104	0	60	102969
2026-01-21 17:47:03.05	323.16	35.23	-40.4	-50.7	3.5	3.02e+01	0	41	104	0	56	16675
2026-01-21 17:47:04.05	322.70	35.29	-39.4	-49.6	3.5	3.02e+01	0	41	104	0	54	16452
2026-01-21 17:47:05.06	322.22	35.36	-39.3	-49.5	3.5	3.02e+01	0	41	104	0	54	16169
2026-01-21 17:47:06.07	321.75	35.42	-38.9	-49.2	3.5	3.02e+01	0	41	104	0	54	15643
2026-01-21 17:47:07.08	321.27	35.48	-50.2	-64.2	3.5	3.02e+01	0	41	104	0	60	62532
2026-01-21 17:47:08.09	320.80	35.54	-40.4	-50.8	3.5	3.02e+01	0	41	104	0	54	18746
2026-01-21 17:47:09.10	320.32	35.59	-51.6	-68.5	3.5	3.02e+01	0	41	104	0	60	102558
2026-01-21 17:47:10.11	319.84	35.64	-42.3	-52.9	3.5	3.02e+01	0	41	104	0	60	17029
2026-01-21 17:47:11.12	319.35	35.70	-51.4	-68.7	3.5	3.02e+01	0	41	104	0	60	104610
2026-01-21 17:47:12.13	318.87	35.74	-39.2	-49.4	3.5	3.02e+01	0	41	104	0	54	16055
2026-01-21 17:47:13.14	318.38	35.79	-39.3	-49.6	3.5	3.02e+01	0	41	104	0	54	16365
2026-01-21 17:47:14.15	317.90	35.84	-38.9	-49.1	3.5	3.02e+01	0	41	104	0	52	17456
2026-01-21 17:47:15.16	317.41	35.88	-38.9	-49.0	3.5	3.02e+01	0	41	104	0	52	17288
2026-01-21 17:47:16.17	316.92	35.92	-45.7	-56.7	3.5	3.02e+01	0	41	104	0	60	26465
2026-01-21 17:47:17.18	316.43	35.96	-39.7	-50.0	3.5	3.02e+01	0	41	104	0	54	17245
2026-01-21 17:47:18.19	315.94	35.99	-51.6	-68.3	3.6	3.02e+01	0	41	104	0	60	99555
2026-01-21 17:47:19.20	315.44	36.03	-40.0	-50.2	3.5	3.02e+01	0	41	104	0	56	15712
2026-01-21 17:47:20.20	314.95	36.06	-51.6	-68.8	3.5	3.02e+01	0	41	104	0	60	106126
2026-01-21 17:47:21.21	314.46	36.08	-39.5	-49.8	3.5	3.02e+01	0	41	104	0	54	16760
2026-01-21 17:47:22.22	313.96	36.11	-38.9	-49.2	3.6	3.02e+01	0	41	104	0	54	15677
2026-01-21 17:47:23.23	313.47	36.13	-38.8	-48.9	3.5	3.02e+01	0	41	104	0	52	17011
2026-01-21 17:47:24.24	312.97	36.16	-39.1	-49.3	3.6	3.02e+01	0	41	104	0	52	17698
2026-01-21 17:47:25.25	312.47	36.17	-48.2	-60.3	3.5	3.02e+01	0	41	104	0	60	39764
2026-01-21 17:47:26.26	311.97	36.19	-40.3	-50.7	3.5	3.02e+01	0	41	104	0	56	16528
2026-01-21 17:47:27.27	311.47	36.20	-51.6	-68.3	3.5	3.02e+01	0	41	104	0	60	100182
2026-01-21 17:47:28.28	310.97	36.22	-41.0	-51.3	3.5	3.02e+01	0	41	104	0	60	14103
2026-01-21 17:47:29.29	310.47	36.23	-51.5	-68.0	3.5	3.02e+01	0	41	104	0	60	96784
2026-01-21 17:47:30.30	309.97	36.23	-41.0	-51.2	3.5	3.02e+01	0	41	104	0	56	17525
2026-01-21 17:47:31.31	309.47	36.24	-41.8	-51.9	3.5	3.02e+01	0	41	104	0	56	19172
2026-01-21 17:47:32.32	308.97	36.24	-40.6	-50.9	3.5	3.02e+01	0	41	104	0	56	17047
2026-01-21 17:47:33.33	308.47	36.24	-40.9	-51.4	3.5	3.02e+01	0	41	104	0	56	17936
2026-01-21 17:47:34.33	307.98	36.24	-46.5	-58.2	3.5	3.02e+01	0	41	104	0	60	31288
2026-01-21 17:47:35.34	307.48	36.23	-40.2	-50.7	3.5	3.02e+01	0	41	104	0	54	18573
2026-01-21 17:47:36.35	306.98	36.22	-51.6	-68.6	3.5	3.02e+01	0	41	104	0	60	103543
2026-01-21 17:47:37.36	306.48	36.21	-39.4	-49.7	3.6	3.02e+01	0	41	104	0	56	14877
2026-01-21 17:47:38.37	305.98	36.20	-50.9	-66.1	3.5	3.02e+01	0	41	104	0	60	77614
2026-01-21 17:47:39.38	305.48	36.18	-39.5	-49.6	3.5	3.02e+01	0	41	104	0	54	16445
2026-01-21 17:47:40.39	304.98	36.17	-39.2	-49.1	3.5	3.02e+01	0	41	104	0	54	15528
2026-01-21 17:47:41.40	304.48	36.15	-39.1	-49.1	3.5	3.02e+01	0	41	104	0	54	15509
2026-01-21 17:47:42.41	303.99	36.13	-39.6	-49.7	3.5	3.02e+01	0	41	104	0	54	16650
2026-01-21 17:47:43.42	303.49	36.10	-41.3	-51.4	3.5	3.02e+01	0	41	104	0	60	14330
2026-01-21 17:47:44.43	302.99	36.07	-42.6	-52.7	3.5	3.02e+01	0	41	104	0	54	23371
2026-01-21 17:47:45.44	302.50	36.04	-51.0	-67.1	3.6	3.02e+01	0	41	104	0	60	86987
2026-01-21 17:47:46.45	302.00	36.01	-39.3	-49.6	3.5	3.02e+01	0	41	104	0	54	16457
2026-01-21 17:47:47.46	301.51	35.98	-47.2	-59.0	3.6	3.02e+01	0	41	104	0	60	34376
2026-01-21 17:47:48.47	301.02	35.94	-40.0	-50.4	3.5	3.02e+01	0	41	104	0	54	17913
2026-01-21 17:47:49.47	300.53	35.90	-39.9	-50.5	3.5	3.02e+01	0	41	104	0	54	18142
2026-01-21 17:47:50.48	300.04	35.86	-39.5	-50.2	3.5	3.02e+01	0	41	104	0	54	17537
2026-01-21 17:47:51.49	299.56	35.82	-39.6	-50.1	3.5	3.02e+01	0	41	104	0	54	17408
2026-01-21 17:47:52.50	299.07	35.77	-41.6	-52.1	3.6	3.02e+01	0	41	104	0	60	15460
2026-01-21 17:47:53.51	298.58	35.73	-44.0	-54.5	3.5	3.02e+01	0	41	104	0	56	25648
2026-01-21 17:47:54.52	298.10	35.68	-50.9	-67.1	3.5	3.02e+01	0	41	104	0	60	86697
2026-01-21 17:47:55.53	297.62	35.62	-42.6	-52.7	3.5	3.02e+01	0	41	104	0	56	20963
2026-01-21 17:47:56.54	297.14	35.57	-43.9	-54.2	3.5	3.02e+01	0	41	104	0	60	19677
2026-01-21 17:47:57.54	296.66	35.51	-40.5	-50.4	3.5	3.02e+01	0	41	104	0	56	15986
2026-01-21 17:47:58.55	296.18	35.46	-40.6	-50.5	3.6	3.02e+01	0	41	104	0	56	16265
2026-01-21 17:47:59.56	295.71	35.39	-40.1	-49.8	3.5	3.02e+01	0	41	104	0	56	15020
2026-01-21 17:48:00.57	295.24	35.33	-42.3	-52.0	3.5	3.02e+01	0	41	104	0	54	21731
2026-01-21 17:48:01.58	294.76	35.27	-38.6	-40.1	16.7	3.02e+01	0	41	104	0	54	5499
2026-01-21 17:48:02.59	294.29	35.20	-50.4	-57.1	5.0	3.02e+01	58	41	0	524288	60	27453
2026-01-21 17:48:03.60	293.83	35.13	-47.9	-51.4	18.8	3.02e+01	58	41	104	524288	60	14321
2026-01-21 17:48:04.62	293.36	35.06	-42.0	-43.5	24.3	3.02e+01	59	41	0	2097152	54	8160
2026-01-21 17:48:05.63	292.89	34.99	-41.9	-43.7	22.9	3.02e+01	61	41	104	2621440	60	5901
2026-01-21 17:48:06.64	292.43	34.91	-41.7	-43.2	25.6	3.02e+01	36	41	0	3670016	58	6213
2026-01-21 17:48:07.65	291.97	34.84	-41.0	-42.4	26.1	3.02e+01	59	41	0	5242880	58	5721
2026-01-21 17:48:08.65	291.52	34.76	-40.9	-42.3	26.6	3.02e+01	59	41	0	7340032	56	6313
2026-01-21 17:48:09.66	291.06	34.68	-40.2	-41.6	27.4	3.02e+01	59	41	0	8912896	54	6502
2026-01-21 17:48:10.66	290.61	34.60	-40.0	-41.4	27.4	3.02e+01	59	41	0	11010048	52	7147
2026-01-21 17:48:11.67	290.16	34.51	-39.4	-40.7	27.5	3.02e+01	45	41	0	12582912	52	6629
2026-01-21 17:48:12.68	289.72	34.43	-39.0	-40.2	28.2	3.02e+01	62	41	0	14680064	52	6273
2026-01-21 17:48:13.69	289.27	34.34	-38.3	-39.5	29.0	3.02e+01	60	41	0	16777216	52	5779
2026-01-21 17:48:14.70	288.83	34.25	-38.6	-39.8	28.8	3.02e+01	44	41	0	18350080	52	5983
2026-01-21 17:48:15.71	288.39	34.16	-38.8	-40.1	28.5	3.02e+01	57	41	0	20447232	52	6136
2026-01-21 17:48:16.71	287.95	34.07	-39.3	-40.6	28.2	3.02e+01	58	41	0	22544384	52	6525
2026-01-21 17:48:17.72	287.52	33.98	-40.3	-41.7	27.2	3.02e+01	59	41	0	24117248	52	7416
2026-01-21 17:48:18.73	287.08	33.88	-39.7	-41.0	27.9	3.02e+01	57	41	0	26214400	54	6094
2026-01-21 17:48:19.74	286.65	33.79	-39.4	-40.6	28.0	3.02e+01	52	41	0	27787264	54	5833
2026-01-21 17:48:20.74	286.23	33.69	-39.9	-41.2	27.6	3.02e+01	60	41	0	29884416	54	6246
2026-01-21 17:48:21.75	285.81	33.59	-38.7	-39.9	28.7	3.02e+01	61	41	0	31981568	52	6026
2026-01-21 17:48:22.76	285.38	33.49	-39.0	-40.2	28.3	3.02e+01	61	41	0	33554432	52	6253
2026-01-21 17:48:23.77	284.96	33.39	-39.5	-40.8	27.9	3.02e+01	58	41	0	35651584	52	6667
2026-01-21 17:48:24.78	284.55	33.29	-38.7	-39.9	28.4	3.02e+01	45	41	0	37224448	52	6025
2026-01-21 17:48:25.79	284.13	33.18	-38.6	-39.8	28.5	3.02e+01	60	41	0	39321600	52	5971
2026-01-21 17:48:26.80	283.72	33.08	-39.2	-40.5	28.0	3.02e+01	59	41	0	41418752	52	6494
2026-01-21 17:48:27.81	283.31	32.97	-39.0	-40.2	28.3	3.02e+01	53	41	0	42991616	52	6261
2026-01-21 17:48:28.82	282.91	32.86	-39.7	-41.0	27.7	3.02e+01	57	41	0	45088768	54	6119
2026-01-21 17:48:29.83	282.50	32.75	-39.0	-40.3	28.3	3.02e+01	61	41	0	46661632	52	6303
2026-01-21 17:48:30.84	282.10	32.64	-38.7	-39.9	28.6	3.02e+01	59	41	0	48758784	52	6030
2026-01-21 17:48:31.84	281.71	32.53	-38.8	-40.0	28.6	3.02e+01	58	41	0	50855936	52	6117
2026-01-21 17:48:32.85	281.31	32.42	-38.4	-39.6	28.9	3.02e+01	49	41	0	52428800	52	5835
2026-01-21 17:48:33.86	280.92	32.30	-38.9	-40.1	28.6	3.02e+01	59	41	0	54525952	52	6172
2026-01-21 17:48:34.87	280.53	32.19	-38.8	-40.0	28.6	3.02e+01	59	41	0	56098816	52	6134
2026-01-21 17:48:35.88	280.15	32.07	-38.6	-39.8	28.7	3.02e+01	50	41	0	58195968	52	5963
2026-01-21 17:48:36.89	279.76	31.96	-38.6	-39.8	28.4	3.02e+01	58	41	0	60293120	52	5948
2026-01-21 17:48:37.90	279.38	31.84	-39.0	-40.3	28.1	3.02e+01	60	41	0	61865984	52	6325
2026-01-21 17:48:38.90	279.01	31.72	-38.5	-39.7	28.8	3.02e+01	60	41	0	63963136	52	5863
2026-01-21 17:48:39.91	278.63	31.60	-39.9	-41.3	27.3	3.02e+01	59	41	0	65536000	54	6300
2026-01-21 17:48:40.92	278.26	31.48	-38.2	-39.4	29.0	3.02e+01	61	41	0	67633152	52	5707
2026-01-21 17:48:41.93	277.89	31.36	-39.2	-40.5	28.1	3.02e+01	61	41	0	69730304	52	6439
2026-01-21 17:48:42.94	277.53	31.24	-38.1	-39.3	29.1	3.02e+01	59	41	0	71303168	52	5644
2026-01-21 17:48:43.95	277.16	31.12	-38.7	-39.9	28.4	3.02e+01	51	41	0	73400320	52	6043
2026-01-21 17:48:44.96	276.80	30.99	-38.0	-39.2	29.0	3.02e+01	58	41	0	75497472	50	6234
2026-01-21 17:48:45.96	276.45	30.87	-39.1	-40.4	27.5	3.02e+01	61	41	0	77070336	52	6388
2026-01-21 17:48:46.97	276.09	30.75	-37.9	-39.1	28.8	3.02e+01	61	41	0	79167488	50	6144
2026-01-21 17:48:47.98	275.74	30.62	-38.7	-40.0	27.5	3.02e+01	56	41	0	80740352	52	6118
2026-01-21 17:48:48.99	275.39	30.49	-37.7	-38.9	28.6	3.02e+01	54	41	0	82837504	50	6002
2026-01-21 17:48:50.00	275.04	30.37	-39.0	-40.3	27.1	3.02e+01	63	41	0	84934656	52	6341
2026-01-21 17:48:51.01	274.70	30.24	-37.7	-38.8	28.9	3.02e+01	62	41	0	86507520	50	5965
2026-01-21 17:48:52.02	274.36	30.11	-39.1	-40.4	27.8	3.02e+01	45	41	0	88604672	52	6410
2026-01-21 17:48:53.03	274.02	29.99	-38.2	-39.4	28.8	3.02e+01	63	41	0	90701824	50	6369
2026-01-21 17:48:54.04	273.69	29.86	-39.5	-40.9	27.0	3.02e+01	61	41	0	92274688	52	6776
2026-01-21 17:48:55.05	273.35	29.73	-38.8	-40.0	28.4	3.02e+01	55	41	0	94371840	52	6086
2026-01-21 17:48:56.06	273.02	29.60	-39.6	-40.9	27.6	3.02e+01	59	41	0	95944704	52	6791
2026-01-21 17:48:57.07	272.70	29.47	-38.1	-39.3	25.8	3.02e+01	58	41	0	98041856	52	5619
2026-01-21 17:48:58.07	272.38	29.34	-37.9	-39.1	28.4	3.02e+01	58	41	0	99614720	50	6141
2026-01-21 17:48:59.08	272.05	29.21	-38.8	-40.1	27.6	3.02e+01	58	41	0	101711872	52	6163
2026-01-21 17:49:00.09	271.73	29.08	-38.2	-39.4	28.5	3.02e+01	47	41	0	103809024	52	5682
2026-01-21 17:49:01.10	271.42	28.95	-40.0	-41.5	26.9	3.02e+01	57	41	0	105381888	54	6481
2026-01-21 17:49:02.11	271.10	28.82	-38.8	-40.0	28.0	3.02e+01	48	41	0	107479040	52	6084
2026-01-21 17:49:03.12	270.79	28.69	-39.4	-40.7	27.2	3.02e+01	61	41	0	109051904	52	6616
2026-01-21 17:49:04.13	270.49	28.55	-40.0	-41.4	26.6	3.02e+01	59	41	0	111149056	54	6392
2026-01-21 17:49:05.14	270.18	28.42	-38.6	-39.7	28.6	3.02e+01	47	41	0	113246208	52	5925
2026-01-21 17:49:06.15	269.88	28.29	-39.5	-40.8	27.5	3.02e+01	60	41	0	114819072	52	6711
2026-01-21 17:49:07.16	269.58	28.16	-39.4	-40.7	27.4	3.02e+01	60	41	0	116916224	54	5906
2026-01-21 17:49:08.17	269.28	28.03	-38.2	-39.4	29.0	3.02e+01	59	41	0	119013376	52	5698
2026-01-21 17:49:09.18	268.98	27.89	-38.7	-40.0	28.4	3.02e+01	60	41	0	120586240	52	6109
2026-01-21 17:49:10.19	268.69	27.76	-38.8	-40.1	28.1	3.02e+01	53	41	0	122683392	52	6135
2026-01-21 17:49:11.20	268.40	27.63	-38.4	-39.6	28.9	3.02e+01	56	41	0	124256256	52	5801
2026-01-21 17:49:12.21	268.11	27.49	-39.0	-40.3	27.9	3.02e+01	61	41	0	126353408	52	6281
2026-01-21 17:49:13.22	267.83	27.36	-39.7	-41.0	27.5	3.02e+01	44	41	0	128450560	52	6843
2026-01-21 17:49:14.23	267.54	27.23	-38.3	-39.5	28.8	3.02e+01	60	41	0	130023424	52	5757
2026-01-21 17:49:15.24	267.26	27.09	-38.4	-39.6	28.7	3.02e+01	57	41	0	132120576	52	5848
2026-01-21 17:49:16.25	266.99	26.96	-39.2	-40.5	28.1	3.02e+01	58	41	0	133693440	52	6484
2026-01-21 17:49:17.26	266.71	26.83	-38.7	-40.0	28.3	3.02e+01	59	41	0	135790592	52	6082
2026-01-21 17:49:18.27	266.44	26.69	-38.2	-39.4	29.0	3.02e+01	50	41	0	137887744	52	5690
2026-01-21 17:49:19.28	266.17	26.56	-38.6	-39.8	28.7	3.02e+01	59	41	0	139460608	52	5972
2026-01-21 17:49:20.29	265.90	26.43	-39.0	-40.3	28.2	3.02e+01	58	41	0	141557760	52	6312
2026-01-21 17:49:21.30	265.63	26.29	-38.3	-39.6	28.8	3.02e+01	44	41	0	143654912	52	5797
2026-01-21 17:49:22.31	265.37	26.16	-38.2	-39.4	29.0	3.02e+01	63	41	0	145227776	52	5713
2026-01-21 17:49:23.32	265.11	26.03	-38.7	-40.0	28.5	3.02e+01	62	41	0	147324928	52	6102
2026-01-21 17:49:24.33	264.85	25.90	-39.1	-40.4	27.9	3.02e+01	59	41	0	148897792	52	6378
2026-01-21 17:49:25.34	264.59	25.76	-38.8	-40.1	28.4	3.02e+01	59	41	0	150994944	52	6146
2026-01-21 17:49:26.35	264.34	25.63	-38.5	-39.6	29.0	3.02e+01	49	41	0	153092096	52	5850
2026-01-21 17:49:27.36	264.08	25.50	-38.4	-39.6	28.9	3.02e+01	58	41	0	154664960	52	5838
2026-01-21 17:49:28.37	263.83	25.36	-38.7	-39.9	28.7	3.02e+01	59	41	0	156762112	52	6039
2026-01-21 17:49:29.38	263.59	25.23	-38.9	-40.1	28.4	3.02e+01	38	41	0	158859264	52	6196
2026-01-21 17:49:30.39	263.34	25.10	-38.7	-40.0	28.5	3.02e+01	57	41	0	160432128	52	6073
2026-01-21 17:49:31.40	263.10	24.97	-38.5	-39.7	28.8	3.02e+01	57	41	0	162529280	52	5904
2026-01-21 17:49:32.41	262.85	24.84	-38.6	-39.9	28.7	3.02e+01	60	41	0	164102144	52	5999
2026-01-21 17:49:33.42	262.61	24.70	-38.8	-40.1	28.5	3.02e+01	59	41	0	166199296	52	6139
2026-01-21 17:49:34.43	262.38	24.57	-38.8	-40.0	28.4	3.02e+01	55	41	0	167772160	52	6126
2026-01-21 17:49:35.44	262.14	24.44	-38.5	-39.8	28.7	3.02e+01	56	41	0	169869312	52	5934
2026-01-21 17:49:36.45	261.91	24.31	-38.6	-39.8	28.8	3.02e+01	61	41	0	171966464	52	5937
2026-01-21 17:49:37.46	261.68	24.18	-38.8	-40.1	28.5	3.02e+01	53	41	0	173539328	52	6135
2026-01-21 17:49:38.47	261.45	24.05	-38.9	-40.2	28.5	3.02e+01	62	41	0	175636480	52	6213
2026-01-21 17:49:39.47	261.22	23.92	-39.0	-40.2	28.5	3.02e+01	45	41	0	177209344	52	6263
2026-01-21 17:49:40.48	261.00	23.79	-39.1	-40.3	28.3	3.02e+01	60	41	0	179306496	52	6341
2026-01-21 17:49:41.49	260.78	23.66	-38.8	-40.0	28.5	3.02e+01	60	41	0	181403648	52	6117
2026-01-21 17:49:42.50	260.55	23.53	-38.8	-40.1	28.5	3.02e+01	54	41	0	182976512	52	6148
2026-01-21 17:49:43.51	260.34	23.40	-38.6	-39.9	28.6	3.02e+01	58	41	0	185073664	52	6004
2026-01-21 17:49:44.51	260.12	23.27	-38.8	-40.1	28.4	3.02e+01	61	41	0	187170816	52	6143
2026-01-21 17:49:45.52	259.90	23.14	-38.9	-40.1	28.6	3.02e+01	59	41	0	188743680	52	6165
2026-01-21 17:49:46.53	259.69	23.01	-38.7	-40.0	28.6	3.02e+01	57	41	0	190840832	52	6090
2026-01-21 17:49:47.54	259.48	22.89	-38.9	-40.1	28.5	3.02e+01	59	41	0	192413696	52	6190
2026-01-21 17:49:48.55	259.27	22.76	-38.9	-40.1	28.5	3.02e+01	51	41	0	194510848	52	6174
2026-01-21 17:49:49.56	259.06	22.63	-38.8	-40.0	28.5	3.02e+01	58	41	0	196608000	52	6112
2026-01-21 17:49:50.57	258.85	22.50	-38.6	-39.9	28.7	3.02e+01	44	41	0	198180864	52	6000
2026-01-21 17:49:51.58	258.65	22.37	-38.5	-39.8	28.6	3.02e+01	61	41	0	200278016	52	5936
2026-01-21 17:49:52.59	258.45	22.25	-38.3	-39.5	28.9	3.02e+01	57	41	0	201850880	52	5757
2026-01-21 17:49:53.59	258.25	22.12	-38.6	-39.8	28.7	3.02e+01	58	41	0	203948032	52	5975
2026-01-21 17:49:54.60	258.05	22.00	-38.7	-39.9	28.6	3.02e+01	59	41	0	206045184	52	6056
2026-01-21 17:49:55.61	257.85	21.87	-38.8	-40.0	28.6	3.02e+01	57	41	0	207618048	52	6108
2026-01-21 17:49:56.62	257.65	21.74	-38.9	-40.2	28.4	3.02e+01	61	41	0	209715200	52	6222
2026-01-21 17:49:57.63	257.46	21.62	-39.0	-40.2	28.4	3.02e+01	58	41	0	211812352	52	6264
2026-01-21 17:49:58.64	257.27	21.49	-39.0	-40.2	28.3	3.02e+01	52	41	0	213385216	52	6263
2026-01-21 17:49:59.65	257.08	21.37	-38.7	-39.9	28.6	3.02e+01	59	41	0	215482368	52	6059
2026-01-21 17:50:00.67	256.89	21.24	-38.6	-39.8	28.7	3.02e+01	59	41	0	217055232	52	5956
2026-01-21 17:50:01.68	256.70	21.12	-38.8	-40.0	28.6	3.02e+01	59	41	0	219152384	52	6100
2026-01-21 17:50:02.68	256.51	21.00	-38.4	-39.6	28.9	3.02e+01	60	41	0	221249536	52	5831
2026-01-21 17:50:03.69	256.33	20.87	-38.5	-39.7	28.8	3.02e+01	44	41	0	222822400	52	5924
2026-01-21 17:50:04.70	256.15	20.75	-38.6	-39.9	28.7	3.02e+01	58	41	0	224919552	52	6000
2026-01-21 17:50:05.71	255.96	20.63	-38.8	-40.1	28.5	3.02e+01	59	41	0	226492416	52	6156
2026-01-21 17:50:06.72	255.78	20.51	-38.8	-40.1	28.5	3.02e+01	44	41	0	228589568	52	6137
2026-01-21 17:50:07.73	255.61	20.39	-38.8	-40.0	28.5	3.02e+01	57	41	0	230686720	52	6105
2026-01-21 17:50:08.74	255.43	20.26	-38.9	-40.1	28.4	3.02e+01	51	41	0	232259584	52	6167
2026-01-21 17:50:09.75	255.25	20.14	-38.6	-39.8	28.8	3.02e+01	62	41	0	234356736	52	5988
2026-01-21 17:50:10.76	255.08	20.02	-38.4	-39.7	28.8	3.02e+01	54	41	0	235929600	52	5865
2026-01-21 17:50:11.77	254.91	19.90	-38.4	-39.6	28.8	3.02e+01	54	41	0	238026752	52	5856
2026-01-21 17:50:12.78	254.74	19.78	-38.5	-39.7	28.8	3.02e+01	60	41	0	240123904	52	5909
2026-01-21 17:50:13.79	254.57	19.66	-38.5	-39.8	28.7	3.02e+01	58	41	0	241696768	52	5953
2026-01-21 17:50:14.80	254.40	19.54	-38.5	-39.8	28.7	3.02e+01	60	41	0	243793920	52	5946
2026-01-21 17:50:15.81	254.23	19.42	-38.6	-39.8	28.7	3.02e+01	58	41	0	245366784	52	5964
2026-01-21 17:50:16.82	254.07	19.31	-38.6	-39.8	28.6	3.02e+01	44	41	0	247463936	52	5957
2026-01-21 17:50:17.83	253.90	19.19	-38.6	-39.8	28.7	3.02e+01	56	41	0	249561088	52	5964
2026-01-21 17:50:18.84	253.74	19.07	-38.8	-40.0	28.5	3.02e+01	60	41	0	251133952	52	6122
2026-01-21 17:50:19.85	253.58	18.95	-38.9	-40.2	28.4	3.02e+01	45	41	0	253231104	52	6221
2026-01-21 17:50:20.86	253.42	18.84	-38.8	-40.1	28.4	3.02e+01	60	41	0	255328256	52	6137
2026-01-21 17:50:21.87	253.26	18.72	-38.4	-39.6	28.7	3.02e+01	60	41	0	256901120	52	5846
2026-01-21 17:50:22.88	253.10	18.60	-38.5	-39.8	28.6	3.02e+01	56	41	0	258998272	52	5931
2026-01-21 17:50:23.89	252.94	18.49	-38.4	-39.6	28.8	3.02e+01	59	41	0	260571136	52	5856
2026-01-21 17:50:24.90	252.79	18.37	-38.5	-39.7	28.7	3.02e+01	62	41	0	262668288	52	5914
2026-01-21 17:50:25.91	252.64	18.26	-38.7	-40.0	28.6	3.02e+01	57	41	0	264765440	52	6080
2026-01-21 17:50:26.92	252.48	18.14	-38.9	-40.1	28.5	3.02e+01	59	41	0	266338304	52	6191
2026-01-21 17:50:27.93	252.33	18.03	-38.7	-40.0	28.5	3.02e+01	47	41	0	268435456	52	6099
2026-01-21 17:50:28.94	252.18	17.91	-38.6	-39.8	28.6	3.02e+01	61	41	0	270008320	52	5950
2026-01-21 17:50:29.95	252.03	17.80	-38.6	-39.9	28.6	3.02e+01	51	41	0	272105472	52	6010
2026-01-21 17:50:30.96	251.89	17.69	-38.4	-39.7	28.8	3.02e+01	60	41	0	274202624	52	5865
2026-01-21 17:50:31.97	251.74	17.57	-38.4	-39.6	28.8	3.02e+01	61	41	0	275775488	52	5832
2026-01-21 17:50:32.97	251.60	17.46	-38.6	-39.8	28.7	3.02e+01	53	41	0	277872640	52	5962
2026-01-21 17:50:33.98	251.45	17.35	-38.5	-39.7	28.7	3.02e+01	60	41	0	279969792	52	5916
2026-01-21 17:50:34.99	251.31	17.24	-38.6	-39.8	28.6	3.02e+01	57	41	0	281542656	52	5994
2026-01-21 17:50:36.00	251.17	17.13	-38.6	-39.8	28.7	3.02e+01	46	41	0	283639808	52	5949
2026-01-21 17:50:37.01	251.03	17.02	-38.6	-39.9	28.6	3.02e+01	60	41	0	285212672	52	6013
2026-01-21 17:50:38.02	250.89	16.91	-38.4	-39.6	28.9	3.02e+01	62	41	0	287309824	52	5827
2026-01-21 17:50:39.03	250.75	16.80	-38.5	-39.7	28.8	3.02e+01	59	41	0	289406976	52	5883
2026-01-21 17:50:40.04	250.61	16.69	-38.5	-39.8	28.7	3.02e+01	59	41	0	290979840	52	5927
2026-01-21 17:50:41.05	250.47	16.58	-38.5	-39.8	28.7	3.02e+01	55	41	0	293076992	52	5939
2026-01-21 17:50:42.06	250.34	16.47	-38.8	-40.1	28.4	3.02e+01	56	41	0	294649856	52	6165
2026-01-21 17:50:43.07	250.21	16.36	-38.9	-40.1	28.4	3.02e+01	59	41	0	296747008	52	6197
2026-01-21 17:50:44.08	250.07	16.25	-39.1	-40.4	28.2	3.02e+01	45	41	0	298844160	52	6378
2026-01-21 17:50:45.09	249.94	16.14	-39.0	-40.3	28.2	3.02e+01	58	41	0	300417024	52	6299
2026-01-21 17:50:46.09	249.81	16.04	-39.2	-40.5	28.2	3.02e+01	59	41	0	302514176	52	6437
2026-01-21 17:50:47.10	249.68	15.93	-39.1	-40.3	28.1	3.02e+01	56	41	0	304087040	52	6349
2026-01-21 17:50:48.11	249.55	15.82	-38.8	-40.0	28.4	3.02e+01	60	41	0	306184192	52	6117
2026-01-21 17:50:49.12	249.42	15.72	-38.4	-39.7	28.8	3.02e+01	56	41	0	308281344	52	5876
2026-01-21 17:50:50.13	249.30	15.61	-38.7	-40.0	28.6	3.02e+01	59	41	0	309854208	52	6082
2026-01-21 17:50:51.14	249.17	15.51	-38.7	-39.9	28.6	3.02e+01	60	41	0	311951360	52	6025
2026-01-21 17:50:52.15	249.04	15.40	-38.7	-39.9	28.5	3.02e+01	55	41	0	313524224	52	6049
2026-01-21 17:50:53.16	248.92	15.30	-38.6	-39.9	28.6	3.02e+01	57	41	0	315621376	52	6005
2026-01-21 17:50:54.17	248.80	15.19	-38.7	-39.9	28.5	3.02e+01	45	41	0	317718528	52	6032
2026-01-21 17:50:55.18	248.68	15.09	-38.8	-40.0	28.5	3.02e+01	59	41	0	319291392	52	6119
2026-01-21 17:50:56.19	248.55	14.98	-38.7	-39.9	28.6	3.02e+01	56	41	0	321388544	52	6045
2026-01-21 17:50:57.20	248.43	14.88	-38.8	-40.0	28.5	3.02e+01	44	41	0	322961408	52	6111
2026-01-21 17:50:58.21	248.31	14.78	-38.8	-40.1	28.4	3.02e+01	59	41	0	325058560	52	6160
2026-01-21 17:50:59.22	248.20	14.68	-38.8	-40.1	28.4	3.02e+01	59	41	0	327155712	52	6175
2026-01-21 17:51:00.23	248.08	14.57	-38.8	-40.1	28.3	3.02e+01	58	41	0	328728576	52	6155
2026-01-21 17:51:01.24	247.96	14.47	-38.8	-40.0	28.4	3.02e+01	60	41	0	330825728	52	6114
2026-01-21 17:51:02.25	247.84	14.37	-38.7	-40.0	28.3	3.02e+01	51	41	0	332922880	52	6095
2026-01-21 17:51:03.26	247.73	14.27	-38.6	-39.8	28.6	3.02e+01	58	41	0	334495744	52	5951
2026-01-21 17:51:04.27	247.61	14.17	-38.6	-39.8	28.6	3.02e+01	59	41	0	336592896	52	5967
2026-01-21 17:51:05.28	247.50	14.07	-38.6	-39.8	28.6	3.02e+01	53	41	0	338165760	52	5991
2026-01-21 17:51:06.29	247.39	13.97	-39.0	-40.2	28.3	3.02e+01	61	41	0	340262912	52	6263
2026-01-21 17:51:07.29	247.28	13.87	-38.8	-40.1	28.4	3.02e+01	56	41	0	342360064	52	6143
2026-01-21 17:51:08.30	247.17	13.77	-38.7	-40.0	28.4	3.02e+01	57	41	0	343932928	52	6072
2026-01-21 17:51:09.31	247.06	13.67	-39.0	-40.3	28.1	3.02e+01	60	41	0	346030080	52	6299
2026-01-21 17:51:10.32	246.95	13.57	-38.8	-40.0	28.4	3.02e+01	50	41	0	347602944	52	6114
2026-01-21 17:51:11.33	246.84	13.47	-38.9	-40.2	28.1	3.02e+01	57	41	0	349700096	52	6229
2026-01-21 17:51:12.34	246.73	13.37	-38.9	-40.1	28.3	3.02e+01	56	41	0	351797248	52	6178
2026-01-21 17:51:13.35	246.62	13.28	-38.8	-40.0	28.3	3.02e+01	46	41	0	353370112	52	6122
2026-01-21 17:51:14.36	246.52	13.18	-38.8	-40.0	28.3	3.02e+01	63	41	0	355467264	52	6129
2026-01-21 17:51:15.37	246.41	13.08	-38.8	-40.1	28.2	3.02e+01	60	41	0	357040128	52	6140
2026-01-21 17:51:16.38	246.31	12.99	-38.9	-40.2	28.1	3.02e+01	58	41	0	359137280	52	6239
2026-01-21 17:51:17.38	246.20	12.89	-38.9	-40.2	28.1	3.02e+01	57	41	0	361234432	52	6238
2026-01-21 17:51:18.39	246.10	12.79	-39.0	-40.2	28.1	3.02e+01	53	41	0	362807296	52	6267
2026-01-21 17:51:19.40	246.00	12.70	-39.0	-40.3	28.0	3.02e+01	61	41	0	364904448	52	6306
2026-01-21 17:51:20.41	245.90	12.60	-39.2	-40.5	27.9	3.02e+01	58	41	0	366477312	52	6436
2026-01-21 17:51:21.42	245.80	12.51	-39.1	-40.4	28.0	3.02e+01	53	41	0	368574464	52	6378
2026-01-21 17:51:22.43	245.70	12.41	-39.2	-40.4	27.9	3.02e+01	60	41	0	370671616	52	6419
2026-01-21 17:51:23.44	245.60	12.32	-39.3	-40.6	27.8	3.02e+01	56	41	0	372244480	52	6507
2026-01-21 17:51:24.45	245.50	12.22	-39.2	-40.5	27.7	3.02e+01	57	41	0	374341632	52	6467
2026-01-21 17:51:25.46	245.40	12.13	-39.3	-40.6	27.7	3.02e+01	57	41	0	376438784	52	6544
2026-01-21 17:51:26.47	245.30	12.04	-39.3	-40.6	27.6	3.02e+01	51	41	0	378011648	52	6533
2026-01-21 17:51:27.48	245.20	11.94	-39.5	-40.7	27.7	3.02e+01	52	41	0	380108800	52	6647
2026-01-21 17:51:28.49	245.11	11.85	-39.6	-40.9	27.4	3.02e+01	64	41	0	381681664	52	6757
2026-01-21 17:51:29.50	245.01	11.76	-39.4	-40.7	27.6	3.02e+01	59	41	0	383778816	52	6610
2026-01-21 17:51:30.51	244.92	11.67	-39.3	-40.6	27.6	3.02e+01	58	41	0	385875968	52	6571
2026-01-21 17:51:31.52	244.82	11.57	-39.5	-40.8	27.6	3.02e+01	47	41	0	387448832	52	6699
2026-01-21 17:51:32.52	244.73	11.48	-39.5	-40.8	27.6	3.02e+01	58	41	0	389545984	52	6695
2026-01-21 17:51:33.54	244.64	11.39	-39.7	-41.0	27.4	3.02e+01	58	41	0	391118848	52	6865
2026-01-21 17:51:34.54	244.55	11.30	-39.9	-41.3	27.1	3.02e+01	45	41	0	393216000	52	7052
2026-01-21 17:51:35.55	244.45	11.21	-39.6	-40.9	27.4	3.02e+01	58	41	0	395313152	52	6755
2026-01-21 17:51:36.56	244.36	11.12	-39.8	-41.1	27.1	3.02e+01	59	41	0	396886016	52	6930
2026-01-21 17:51:37.57	244.27	11.03	-39.9	-41.2	27.1	3.02e+01	61	41	0	398983168	52	6993
2026-01-21 17:51:38.58	244.18	10.94	-39.9	-41.2	27.0	3.02e+01	59	41	0	401080320	52	6998
2026-01-21 17:51:39.59	244.09	10.85	-40.0	-41.3	26.9	3.02e+01	57	41	0	402653184	54	6346
2026-01-21 17:51:40.60	244.01	10.76	-40.2	-41.5	26.7	3.02e+01	57	41	0	404750336	54	6497
2026-01-21 17:51:41.61	243.92	10.67	-40.4	-41.8	26.5	3.02e+01	58	41	0	406323200	54	6668
2026-01-21 17:51:42.62	243.83	10.58	-40.3	-41.6	26.6	3.02e+01	46	41	0	408420352	54	6566
2026-01-21 17:51:43.63	243.74	10.50	-40.4	-41.8	26.4	3.02e+01	61	41	0	410517504	54	6672
2026-01-21 17:51:44.64	243.66	10.41	-40.6	-42.0	26.3	3.02e+01	57	41	0	412090368	54	6832
2026-01-21 17:51:45.65	243.57	10.32	-40.5	-41.9	26.3	3.02e+01	57	41	0	414187520	54	6801
2026-01-21 17:51:46.66	243.49	10.23	-40.7	-42.1	26.2	3.02e+01	58	41	0	415760384	54	6930
2026-01-21 17:51:47.67	243.40	10.15	-40.6	-42.0	26.3	3.02e+01	44	41	0	417857536	54	6811
2026-01-21 17:51:48.68	243.32	10.06	-40.7	-42.1	26.1	3.02e+01	58	41	0	419430400	54	6935
2026-01-21 17:51:49.69	243.23	9.97	-40.9	-42.4	25.8	3.02e+01	61	41	0	421527552	54	7131
2026-01-21 17:51:50.69	243.15	9.89	-41.2	-42.6	25.7	3.02e+01	46	41	0	423624704	56	6543
2026-01-21 17:51:51.71	243.07	9.80	-41.1	-42.6	25.7	3.02e+01	60	41	0	425197568	56	6535
2026-01-21 17:51:52.71	242.99	9.71	-41.1	-42.6	25.7	3.02e+01	59	41	0	427294720	56	6523
2026-01-21 17:51:53.72	242.91	9.63	-41.6	-43.1	25.3	3.02e+01	60	41	0	429391872	56	6892
2026-01-21 17:51:54.73	242.83	9.54	-41.6	-43.1	25.3	3.02e+01	60	41	0	430964736	56	6946
2026-01-21 17:51:55.74	242.75	9.46	-41.8	-43.3	25.0	3.02e+01	58	41	0	433061888	58	6316
2026-01-21 17:51:56.75	242.67	9.37	-41.7	-43.2	25.0	3.02e+01	60	41	0	434634752	58	6270
2026-01-21 17:51:57.76	242.59	9.29	-41.9	-43.4	24.6	3.02e+01	59	41	0	436731904	58	6421
2026-01-21 17:51:58.77	242.51	9.21	-42.0	-43.5	24.6	3.02e+01	57	41	0	438829056	58	6485
2026-01-21 17:51:59.78	242.43	9.12	-42.1	-43.7	24.4	3.02e+01	60	41	0	440401920	58	6609
2026-01-21 17:52:00.79	242.35	9.04	-42.3	-43.9	24.3	3.02e+01	53	41	0	442499072	58	6768
2026-01-21 17:52:01.80	242.28	8.96	-42.3	-44.0	24.2	3.02e+01	58	41	0	444596224	58	6859
2026-01-21 17:52:02.81	242.20	8.87	-42.4	-44.1	24.0	3.02e+01	60	41	0	446169088	58	6954
2026-01-21 17:52:03.82	242.12	8.79	-42.6	-44.4	23.8	3.02e+01	54	41	0	448266240	58	7141
2026-01-21 17:52:04.83	242.05	8.71	-42.9	-44.7	23.5	3.02e+01	59	41	0	449839104	58	7421
2026-01-21 17:52:05.84	241.97	8.62	-43.1	-44.8	23.4	3.02e+01	61	41	0	451936256	60	6706
2026-01-21 17:52:06.85	241.90	8.54	-43.3	-45.1	23.1	3.02e+01	56	41	0	454033408	60	6926
2026-01-21 17:52:07.86	241.82	8.46	-43.3	-45.1	23.1	3.02e+01	60	41	0	455606272	60	6936
2026-01-21 17:52:08.86	241.75	8.38	-43.3	-45.2	23.0	3.02e+01	50	41	0	457703424	60	6963
2026-01-21 17:52:09.87	241.68	8.30	-43.6	-45.5	22.8	3.02e+01	59	41	0	459276288	60	7220
2026-01-21 17:52:10.88	241.61	8.22	-43.8	-45.8	22.5	3.02e+01	59	41	0	461373440	60	7484
2026-01-21 17:52:11.89	241.53	8.14	-44.1	-46.1	22.2	3.02e+01	50	41	0	463470592	60	7786
2026-01-21 17:52:12.90	241.46	8.06	-44.3	-46.4	22.0	3.02e+01	59	41	0	465043456	60	8001
2026-01-21 17:52:13.91	241.39	7.98	-44.4	-46.5	21.7	3.02e+01	59	41	0	467140608	60	8153
2026-01-21 17:52:14.91	241.32	7.90	-44.5	-46.6	21.6	3.02e+01	57	41	0	468713472	60	8237
2026-01-21 17:52:15.92	241.25	7.82	-44.6	-46.7	21.4	3.02e+01	60	41	0	470810624	60	8368
2026-01-21 17:52:16.93	241.18	7.74	-44.7	-47.0	21.3	3.02e+01	56	41	0	472907776	60	8568
2026-01-21 17:52:17.94	241.11	7.66	-44.7	-46.9	21.2	3.02e+01	56	41	0	474480640	60	8521
2026-01-21 17:52:18.95	241.04	7.58	-44.9	-47.1	20.9	3.02e+01	59	41	0	476577792	60	8748
2026-01-21 17:52:19.96	240.97	7.50	-44.9	-47.3	20.8	3.02e+01	50	41	0	478150656	60	8901
2026-01-21 17:52:20.97	240.90	7.42	-45.1	-47.5	20.6	3.02e+01	58	41	0	480247808	60	9161
2026-01-21 17:52:21.97	240.83	7.34	-45.2	-47.7	20.3	3.02e+01	63	41	0	482344960	60	9386
2026-01-21 17:52:22.98	240.77	7.27	-45.4	-48.0	19.9	3.02e+01	57	41	0	483917824	60	9663
2026-01-21 17:52:23.99	240.70	7.19	-45.4	-48.1	19.9	3.02e+01	62	41	0	486014976	60	9752
2026-01-21 17:52:25.00	240.63	7.11	-45.6	-48.5	19.5	3.02e+01	46	41	0	487587840	60	10239
2026-01-21 17:52:26.01	240.57	7.03	-45.6	-48.5	19.5	3.02e+01	60	41	0	489684992	60	10238
2026-01-21 17:52:27.02	240.50	6.95	-46.0	-49.0	19.1	3.02e+01	59	41	0	491782144	60	10901
2026-01-21 17:52:28.03	240.43	6.88	-46.0	-49.0	19.0	3.02e+01	46	41	0	493355008	60	10796
2026-01-21 17:52:29.04	240.37	6.80	-46.3	-49.3	18.8	3.02e+01	60	41	0	495452160	60	11208
2026-01-21 17:52:30.05	240.30	6.72	-46.4	-49.4	18.6	3.02e+01	60	41	0	497549312	60	11309
2026-01-21 17:52:31.06	240.24	6.65	-46.5	-49.7	18.3	3.02e+01	53	41	0	499122176	60	11773
2026-01-21 17:52:32.07	240.18	6.57	-46.6	-50.0	18.0	3.02e+01	59	41	0	501219328	60	12200
2026-01-21 17:52:33.08	240.11	6.50	-46.7	-50.5	17.5	3.02e+01	46	42	0	502792192	60	12916
2026-01-21 17:52:34.09	240.05	6.42	-46.7	-50.7	17.2	3.02e+01	58	41	0	504889344	60	13153
2026-01-21 17:52:35.09	239.99	6.35	-46.7	-50.8	16.9	3.02e+01	58	41	0	506986496	60	13398
2026-01-21 17:52:36.10	239.92	6.27	-46.7	-51.0	16.7	3.02e+01	44	41	0	508559360	60	13715
2026-01-21 17:52:37.11	239.86	6.19	-47.0	-51.5	16.3	3.02e+01	61	41	0	510656512	60	14520
2026-01-21 17:52:38.12	239.80	6.12	-47.3	-51.8	16.1	3.02e+01	50	41	0	512229376	60	15002
2026-01-21 17:52:39.13	239.74	6.05	-47.5	-52.1	15.6	3.02e+01	58	41	0	514326528	60	15492
2026-01-21 17:52:40.14	239.68	5.97	-48.0	-52.7	15.1	3.02e+01	61	41	0	516423680	60	16679
2026-01-21 17:52:41.15	239.62	5.90	-47.9	-52.7	15.0	3.02e+01	52	41	0	517996544	60	16697
2026-01-21 17:52:42.16	239.56	5.82	-47.9	-53.3	14.4	3.02e+01	59	41	0	520093696	60	17699
2026-01-21 17:52:43.16	239.50	5.75	-48.0	-53.5	14.2	3.02e+01	60	41	0	521666560	60	18173
2026-01-21 17:52:44.17	239.44	5.68	-48.1	-53.8	13.8	3.02e+01	59	42	0	523763712	60	18747
2026-01-21 17:52:45.18	239.38	5.60	-48.2	-54.1	13.5	3.02e+01	59	41	0	525860864	60	19454
2026-01-21 17:52:46.19	239.32	5.53	-48.5	-54.7	12.9	3.02e+01	52	41	0	527433728	60	20830
2026-01-21 17:52:47.20	239.26	5.46	-48.6	-54.8	12.8	3.02e+01	57	41	0	529530880	60	21167
2026-01-21 17:52:48.21	239.20	5.38	-48.6	-55.1	12.5	3.02e+01	57	41	0	531103744	60	22016
2026-01-21 17:52:49.22	239.14	5.31	-48.7	-55.8	11.6	3.02e+01	45	42	0	533200896	60	23813
2026-01-21 17:52:50.23	239.09	5.24	-48.7	-55.7	11.8	3.02e+01	59	42	0	535298048	60	23455
2026-01-21 17:52:51.24	239.03	5.17	-48.9	-56.3	11.1	3.02e+01	56	42	0	536870912	60	25050
2026-01-21 17:52:52.25	238.97	5.09	-49.1	-56.7	10.5	3.02e+01	57	41	0	538968064	60	26258
2026-01-21 17:52:53.25	238.92	5.02	-49.3	-56.9	10.4	3.02e+01	54	42	0	541065216	60	26961
2026-01-21 17:52:54.26	238.86	4.95	-49.5	-57.5	9.7	3.02e+01	50	42	0	542638080	60	28723
2026-01-21 17:52:55.27	238.80	4.88	-49.5	-57.8	9.2	3.02e+01	60	42	0	544735232	60	29777
