passes_logs/2026/01/09/R2M6_AANII_01/R2M6_AANII_01__20260109_055404_FENGYUN_3E_rec.log

#Pass ID: 20260109_055404_FENGYUN 3E
#Satellite: FENGYUN 3E
#Configuration: FENGYUN 3E
#almurnet v.1.7.20240730
#Start time: 2026-01-09 05:54:04

#Version: 2.2.20231116
#Station: R2M6_AANII_01
#Location: 30.233357 lon 59.946436 lat
#TLE: 1 49008U 21062A   26008.52265380 -.00000112  00000+0 -32190-4 0  9993
#TLE: 2 49008  98.7483  13.7266 0001697 149.3310 210.7966 14.19883994233927

#Time	Az	El	Level	Level2	SNR	BER	BlckErr	Temp	State	Recorded	gain1	gain2
2026-01-09 05:54:04.75	12.50	7.01	-30.8	-34.5	4.7	8.08e-01	0	41	0	0	21	5560
2026-01-09 05:54:05.75	12.44	7.08	-30.8	-34.7	4.7	8.10e-01	0	40	104	0	21	5655
2026-01-09 05:54:06.75	12.38	7.15	-30.6	-34.0	6.9	1.64e-01	0	41	0	0	21	5325
2026-01-09 05:54:07.76	12.31	7.22	-30.7	-34.1	6.9	1.65e-01	0	40	0	7340032	21	5358
2026-01-09 05:54:08.76	12.25	7.29	-30.7	-34.2	6.8	1.78e-01	0	41	0	14680064	21	5410
2026-01-09 05:54:09.77	12.19	7.37	-30.8	-34.4	6.7	1.93e-01	0	41	0	22020096	21	5495
2026-01-09 05:54:10.78	12.12	7.44	-30.8	-34.5	6.7	1.87e-01	0	41	0	28311552	21	5516
2026-01-09 05:54:11.79	12.06	7.51	-31.0	-35.3	6.2	2.56e-01	0	41	0	35651584	21	5891
2026-01-09 05:54:12.80	11.99	7.59	-30.8	-34.6	6.6	2.39e-01	0	41	0	42991616	21	5563
2026-01-09 05:54:13.80	11.93	7.66	-30.4	-33.3	7.5	1.07e-01	0	41	0	50331648	21	5010
2026-01-09 05:54:14.80	11.86	7.73	-29.8	-32.1	8.6	4.85e-02	0	41	0	57671680	20	4673
2026-01-09 05:54:15.81	11.80	7.80	-29.5	-31.4	9.5	1.51e-02	0	41	0	65011712	19	4523
2026-01-09 05:54:16.82	11.73	7.88	-29.0	-30.3	10.2	5.67e-03	0	41	0	72351744	19	4178
2026-01-09 05:54:17.82	11.66	7.95	-28.6	-29.7	11.0	2.18e-03	0	41	0	79691776	18	4095
2026-01-09 05:54:18.83	11.60	8.02	-28.1	-28.9	11.8	8.41e-04	0	41	0	87031808	17	3986
2026-01-09 05:54:19.83	11.53	8.10	-27.7	-28.6	12.3	2.85e-04	0	41	0	94371840	16	3984
2026-01-09 05:54:20.84	11.46	8.17	-27.4	-28.0	12.6	2.59e-04	0	41	0	101711872	16	3832
2026-01-09 05:54:21.85	11.39	8.25	-27.1	-27.6	13.0	3.43e-05	0	41	0	108003328	15	3841
2026-01-09 05:54:22.85	11.33	8.32	-27.1	-27.7	13.0	2.74e-05	0	41	0	116391936	15	3868
2026-01-09 05:54:23.86	11.26	8.40	-27.0	-28.1	13.0	2.37e-04	0	41	0	123731968	14	4056
2026-01-09 05:54:24.86	11.19	8.47	-26.8	-27.6	13.3	1.60e-05	0	41	0	130023424	14	3936
2026-01-09 05:54:25.87	11.12	8.55	-26.7	-27.3	13.5	1.48e-05	0	41	0	137363456	14	3860
2026-01-09 05:54:26.88	11.05	8.62	-26.8	-27.9	13.5	2.89e-04	0	41	0	144703488	13	4124
2026-01-09 05:54:27.89	10.98	8.70	-26.8	-28.0	13.4	2.59e-04	0	41	0	152043520	13	4151
2026-01-09 05:54:28.89	10.91	8.77	-26.8	-28.1	13.4	1.83e-05	0	41	0	159383552	13	4167
2026-01-09 05:54:29.90	10.84	8.85	-26.7	-27.8	13.5	8.00e-06	0	41	0	166723584	13	4087
2026-01-09 05:54:30.91	10.76	8.92	-26.7	-27.9	13.5	3.10e-04	0	41	0	174063616	13	4112
2026-01-09 05:54:31.91	10.69	9.00	-27.0	-28.5	13.1	2.40e-05	0	41	0	181403648	13	4287
2026-01-09 05:54:32.91	10.62	9.07	-26.9	-28.2	13.3	2.37e-04	0	41	0	188743680	13	4191
2026-01-09 05:54:33.92	10.55	9.15	-26.7	-27.9	13.5	2.40e-04	0	41	0	196083712	13	4104
2026-01-09 05:54:34.93	10.48	9.23	-26.7	-27.7	13.7	1.02e-05	0	41	0	203423744	13	4059
2026-01-09 05:54:35.93	10.40	9.30	-26.8	-28.0	13.5	1.85e-04	0	41	0	210763776	13	4125
2026-01-09 05:54:36.94	10.33	9.38	-26.5	-27.4	13.8	1.73e-04	0	41	0	217055232	13	3989
2026-01-09 05:54:37.94	10.25	9.46	-26.6	-27.6	13.7	5.70e-06	0	41	0	224395264	13	4023
2026-01-09 05:54:38.95	10.18	9.54	-26.6	-27.6	13.7	2.14e-04	0	41	0	232783872	13	4025
2026-01-09 05:54:39.96	10.10	9.61	-26.5	-27.4	13.8	0.00e+00	0	42	0	239075328	13	3976
2026-01-09 05:54:40.95	10.03	9.69	-26.7	-27.7	13.7	5.70e-06	0	41	0	246415360	13	4043
2026-01-09 05:54:41.96	9.95	9.77	-26.5	-27.2	14.0	1.10e-06	0	42	0	253755392	13	3931
2026-01-09 05:54:42.96	9.88	9.85	-26.2	-27.2	14.2	2.64e-04	0	42	0	261095424	12	4034
2026-01-09 05:54:43.97	9.80	9.93	-26.3	-27.4	14.2	2.20e-06	0	42	0	268435456	12	4070
2026-01-09 05:54:44.98	9.72	10.00	-26.2	-27.2	14.2	1.10e-06	0	41	0	275775488	12	4033
2026-01-09 05:54:45.99	9.65	10.08	-26.4	-27.0	14.1	2.71e-04	0	42	0	283115520	13	3876
2026-01-09 05:54:46.99	9.57	10.16	-26.7	-27.7	13.7	5.70e-06	0	42	0	290455552	13	4045
2026-01-09 05:54:48.00	9.49	10.24	-26.4	-27.0	14.1	3.40e-06	0	42	0	297795584	13	3868
2026-01-09 05:54:49.01	9.41	10.32	-26.2	-27.1	14.3	1.10e-06	0	42	0	305135616	12	4001
2026-01-09 05:54:50.01	9.33	10.40	-26.2	-27.2	14.3	0.00e+00	0	42	0	312475648	12	4031
2026-01-09 05:54:51.01	9.25	10.48	-26.3	-27.4	14.2	1.10e-06	0	41	0	318767104	12	4087
2026-01-09 05:54:52.02	9.17	10.56	-26.1	-27.0	14.4	0.00e+00	0	42	0	326107136	12	3967
2026-01-09 05:54:53.03	9.09	10.64	-26.3	-27.3	14.2	0.00e+00	0	42	0	333447168	12	4044
2026-01-09 05:54:54.04	9.01	10.72	-26.2	-27.0	14.4	0.00e+00	0	42	0	340787200	12	3983
2026-01-09 05:54:55.04	8.93	10.80	-26.2	-27.2	14.3	0.00e+00	0	42	0	348127232	12	4019
2026-01-09 05:54:56.04	8.85	10.88	-26.2	-27.1	14.3	0.00e+00	0	42	0	355467264	12	4004
2026-01-09 05:54:57.05	8.76	10.96	-26.7	-27.6	13.8	5.70e-06	0	42	0	362807296	13	4033
2026-01-09 05:54:58.06	8.68	11.04	-26.3	-26.8	14.3	0.00e+00	0	42	0	370147328	13	3813
2026-01-09 05:54:59.05	8.60	11.12	-26.3	-26.8	14.3	0.00e+00	0	42	0	377487360	13	3829
2026-01-09 05:55:00.06	8.51	11.21	-26.4	-27.5	14.2	1.10e-06	0	42	0	384827392	12	4089
2026-01-09 05:55:01.06	8.43	11.29	-26.1	-27.0	14.4	1.10e-06	0	42	0	392167424	12	3979
2026-01-09 05:55:02.07	8.34	11.37	-26.3	-27.3	14.3	1.10e-06	0	42	0	399507456	12	4067
2026-01-09 05:55:03.07	8.26	11.45	-26.2	-27.1	14.4	0.00e+00	0	42	0	405798912	12	4014
2026-01-09 05:55:04.08	8.17	11.53	-26.3	-27.2	14.3	0.00e+00	0	42	0	413138944	12	4036
2026-01-09 05:55:05.09	8.09	11.62	-26.2	-27.1	14.4	1.10e-06	0	42	0	420478976	12	4015
2026-01-09 05:55:06.10	8.00	11.70	-26.2	-27.1	14.4	0.00e+00	0	42	0	427819008	12	3990
2026-01-09 05:55:07.11	7.91	11.78	-26.2	-27.1	14.4	0.00e+00	0	42	0	435159040	12	4004
2026-01-09 05:55:08.10	7.82	11.86	-26.1	-26.9	14.6	0.00e+00	0	42	0	442499072	12	3941
2026-01-09 05:55:09.11	7.73	11.95	-26.0	-26.7	14.7	0.00e+00	0	42	0	449839104	12	3900
2026-01-09 05:55:10.11	7.65	12.03	-26.1	-26.8	14.6	0.00e+00	0	42	0	457179136	12	3931
2026-01-09 05:55:11.12	7.56	12.12	-26.2	-27.1	14.4	0.00e+00	0	42	0	464519168	12	4006
2026-01-09 05:55:12.13	7.47	12.20	-26.0	-26.6	14.7	0.00e+00	0	42	0	471859200	12	3880
2026-01-09 05:55:13.13	7.38	12.28	-25.9	-26.5	14.8	0.00e+00	0	42	0	479199232	12	3852
2026-01-09 05:55:14.14	7.28	12.37	-25.9	-26.4	14.8	0.00e+00	0	42	0	486539264	12	3835
2026-01-09 05:55:15.14	7.19	12.45	-25.9	-26.4	14.9	0.00e+00	0	42	0	492830720	12	3816
2026-01-09 05:55:16.15	7.10	12.54	-25.9	-26.6	14.8	0.00e+00	0	42	0	501219328	12	3860
2026-01-09 05:55:17.16	7.01	12.62	-26.2	-27.1	14.5	1.10e-06	0	42	0	508559360	12	4007
2026-01-09 05:55:18.17	6.91	12.71	-26.0	-26.7	14.7	0.00e+00	0	42	0	514850816	12	3893
2026-01-09 05:55:19.17	6.82	12.80	-25.9	-26.3	14.9	0.00e+00	0	42	0	522190848	12	3810
2026-01-09 05:55:20.17	6.73	12.88	-25.8	-26.3	14.9	0.00e+00	0	42	0	529530880	12	3796
2026-01-09 05:55:21.17	6.63	12.97	-25.9	-26.4	14.9	0.00e+00	0	42	0	536870912	12	3822
2026-01-09 05:55:22.17	6.54	13.05	-25.7	-26.0	15.1	0.00e+00	0	42	0	544210944	12	3726
2026-01-09 05:55:23.17	6.44	13.14	-25.7	-26.1	15.1	0.00e+00	0	42	0	551550976	12	3750
2026-01-09 05:55:24.19	6.34	13.23	-25.8	-26.3	15.0	0.00e+00	0	42	0	558891008	12	3798
2026-01-09 05:55:25.20	6.24	13.31	-25.7	-25.9	15.2	0.00e+00	0	42	0	566231040	12	3709
2026-01-09 05:55:26.20	6.15	13.40	-25.8	-26.3	15.0	0.00e+00	0	42	0	573571072	12	3795
2026-01-09 05:55:27.21	6.05	13.49	-25.5	-25.5	15.4	0.00e+00	0	42	0	580911104	12	3610
2026-01-09 05:55:28.22	5.95	13.58	-25.6	-26.3	15.3	0.00e+00	0	42	0	588251136	11	3904
2026-01-09 05:55:29.23	5.85	13.66	-25.7	-26.4	15.2	0.00e+00	0	42	0	594542592	11	3922
2026-01-09 05:55:30.24	5.75	13.75	-25.6	-26.4	15.3	0.00e+00	0	42	0	601882624	11	3910
2026-01-09 05:55:31.24	5.64	13.84	-25.6	-26.3	15.3	0.00e+00	0	42	0	609222656	11	3893
2026-01-09 05:55:32.24	5.54	13.93	-25.6	-26.3	15.3	0.00e+00	0	42	0	616562688	11	3896
2026-01-09 05:55:33.25	5.44	14.02	-25.6	-26.3	15.3	0.00e+00	0	42	0	623902720	11	3904
2026-01-09 05:55:34.26	5.34	14.11	-25.8	-26.6	15.2	0.00e+00	0	42	0	631242752	11	3965
2026-01-09 05:55:35.26	5.23	14.20	-25.6	-26.3	15.2	0.00e+00	0	42	0	638582784	11	3885
2026-01-09 05:55:36.28	5.13	14.29	-25.5	-26.2	15.1	0.00e+00	0	42	0	645922816	11	3866
2026-01-09 05:55:37.28	5.02	14.38	-25.5	-26.1	15.5	0.00e+00	0	42	0	653262848	11	3847
2026-01-09 05:55:38.29	4.92	14.47	-25.5	-26.1	15.5	0.00e+00	0	42	0	660602880	11	3836
2026-01-09 05:55:39.28	4.81	14.56	-25.6	-26.2	15.4	0.00e+00	0	42	0	667942912	11	3872
2026-01-09 05:55:40.29	4.70	14.65	-25.5	-26.0	15.5	0.00e+00	0	43	0	675282944	11	3832
2026-01-09 05:55:41.29	4.60	14.74	-25.5	-26.1	15.4	0.00e+00	0	42	0	681574400	11	3854
2026-01-09 05:55:42.30	4.49	14.83	-25.4	-25.8	15.6	0.00e+00	0	42	0	688914432	11	3768
2026-01-09 05:55:43.30	4.38	14.92	-25.3	-25.5	15.8	0.00e+00	0	42	0	696254464	11	3710
2026-01-09 05:55:44.31	4.27	15.01	-25.2	-25.5	15.8	0.00e+00	0	43	0	703594496	11	3697
2026-01-09 05:55:45.31	4.16	15.10	-25.2	-25.4	15.8	0.00e+00	0	42	0	710934528	11	3688
2026-01-09 05:55:46.31	4.05	15.19	-25.2	-25.5	15.8	0.00e+00	0	42	0	718274560	11	3705
2026-01-09 05:55:47.32	3.94	15.29	-25.1	-25.3	15.9	0.00e+00	0	42	0	725614592	11	3655
2026-01-09 05:55:48.33	3.82	15.38	-25.2	-25.4	15.9	0.00e+00	0	42	0	732954624	11	3676
2026-01-09 05:55:49.33	3.71	15.47	-25.0	-25.0	16.1	0.00e+00	0	42	0	740294656	11	3594
2026-01-09 05:55:50.34	3.60	15.56	-25.1	-25.1	16.0	0.00e+00	0	43	0	747634688	11	3608
2026-01-09 05:55:51.34	3.48	15.66	-25.1	-25.1	16.0	0.00e+00	0	42	0	754974720	11	3610
2026-01-09 05:55:52.35	3.37	15.75	-25.1	-25.2	16.0	0.00e+00	0	42	0	762314752	11	3626
2026-01-09 05:55:53.35	3.25	15.84	-25.3	-25.6	15.8	0.00e+00	0	43	0	769654784	11	3733
2026-01-09 05:55:54.36	3.13	15.94	-25.1	-25.3	16.0	0.00e+00	0	42	0	776994816	11	3647
2026-01-09 05:55:55.36	3.02	16.03	-25.2	-25.5	15.9	0.00e+00	0	43	0	783286272	11	3693
2026-01-09 05:55:56.38	2.90	16.13	-25.3	-25.7	15.7	0.00e+00	0	43	0	790626304	11	3744
2026-01-09 05:55:57.38	2.78	16.22	-25.2	-25.4	16.0	0.00e+00	0	42	0	797966336	11	3672
2026-01-09 05:55:58.38	2.66	16.31	-25.1	-25.1	16.1	0.00e+00	0	43	0	805306368	11	3617
2026-01-09 05:55:59.38	2.54	16.41	-25.0	-25.0	16.1	0.00e+00	0	43	0	812646400	11	3590
2026-01-09 05:56:00.39	2.42	16.50	-25.0	-25.0	16.1	0.00e+00	0	42	0	819986432	11	3588
2026-01-09 05:56:01.40	2.29	16.60	-25.0	-25.0	16.1	0.00e+00	0	42	0	827326464	11	3586
2026-01-09 05:56:02.40	2.17	16.69	-24.9	-24.8	16.3	0.00e+00	0	43	0	834666496	11	3551
2026-01-09 05:56:03.41	2.05	16.79	-24.8	-25.0	16.4	0.00e+00	0	42	0	842006528	10	3698
2026-01-09 05:56:04.42	1.92	16.89	-24.9	-25.2	16.3	0.00e+00	0	43	0	849346560	10	3730
2026-01-09 05:56:05.43	1.79	16.98	-24.8	-25.0	16.4	0.00e+00	0	42	0	856686592	10	3681
2026-01-09 05:56:06.43	1.67	17.08	-24.7	-24.8	16.5	0.00e+00	0	42	0	864026624	10	3653
2026-01-09 05:56:07.43	1.54	17.18	-24.9	-25.2	16.3	0.00e+00	0	43	0	870318080	10	3735
2026-01-09 05:56:08.43	1.41	17.27	-24.9	-25.1	16.4	0.00e+00	0	43	0	877658112	10	3722
2026-01-09 05:56:09.44	1.28	17.37	-24.7	-24.9	16.5	0.00e+00	0	42	0	884998144	10	3667
2026-01-09 05:56:10.44	1.15	17.47	-24.7	-24.9	16.5	0.00e+00	0	43	0	892338176	10	3656
2026-01-09 05:56:11.45	1.02	17.57	-24.8	-25.0	16.5	0.00e+00	0	42	0	899678208	10	3682
2026-01-09 05:56:12.46	0.89	17.66	-24.7	-24.7	16.6	0.00e+00	0	42	0	907018240	10	3622
2026-01-09 05:56:13.47	0.76	17.76	-24.7	-24.8	16.6	0.00e+00	0	43	0	914358272	10	3637
2026-01-09 05:56:14.47	0.63	17.86	-24.4	-24.7	16.8	0.00e+00	0	42	0	921698304	9	3713
2026-01-09 05:56:15.46	0.49	17.96	-24.5	-25.0	16.7	0.00e+00	0	43	0	929038336	9	3783
2026-01-09 05:56:16.47	0.36	18.06	-24.5	-24.9	16.7	0.00e+00	0	43	0	936378368	9	3774
2026-01-09 05:56:17.48	0.22	18.16	-24.6	-25.0	16.7	0.00e+00	0	43	0	943718400	9	3787
2026-01-09 05:56:18.48	0.08	18.26	-24.5	-24.9	16.7	0.00e+00	0	43	0	951058432	9	3776
2026-01-09 05:56:19.49	359.95	18.36	-24.7	-25.3	16.6	0.00e+00	0	43	0	957349888	9	3861
2026-01-09 05:56:20.49	359.81	18.46	-24.6	-25.1	16.7	0.00e+00	0	43	0	964689920	9	3803
2026-01-09 05:56:21.51	359.67	18.56	-24.5	-25.4	16.8	0.00e+00	0	43	0	973078528	8	3994
2026-01-09 05:56:22.51	359.53	18.66	-24.5	-25.4	16.8	0.00e+00	0	43	0	979369984	8	3981
2026-01-09 05:56:23.52	359.38	18.76	-24.5	-25.5	16.7	0.00e+00	0	43	0	986710016	8	4009
2026-01-09 05:56:24.53	359.24	18.86	-24.5	-25.3	16.8	0.00e+00	0	43	0	994050048	8	3972
2026-01-09 05:56:25.54	359.10	18.96	-24.5	-25.0	16.7	0.00e+00	0	43	0	1001390080	9	3778
2026-01-09 05:56:26.55	358.95	19.06	-24.7	-25.3	16.6	0.00e+00	0	43	0	1008730112	9	3848
2026-01-09 05:56:27.56	358.80	19.16	-24.6	-25.0	16.7	0.00e+00	0	43	0	1016070144	9	3800
2026-01-09 05:56:28.56	358.66	19.26	-24.6	-25.1	16.7	0.00e+00	0	43	0	1023410176	9	3810
2026-01-09 05:56:29.57	358.51	19.37	-24.6	-25.1	16.7	0.00e+00	0	43	0	1030750208	9	3807
2026-01-09 05:56:30.57	358.36	19.47	-24.5	-24.9	16.8	0.00e+00	0	43	0	1038090240	9	3766
2026-01-09 05:56:31.58	358.21	19.57	-24.7	-25.4	16.5	0.00e+00	0	43	0	1045430272	9	3879
2026-01-09 05:56:32.58	358.06	19.67	-24.5	-24.9	16.8	0.00e+00	0	43	0	1052770304	9	3770
2026-01-09 05:56:33.60	357.91	19.78	-24.3	-24.9	17.0	0.00e+00	0	43	0	1059061760	8	3873
2026-01-09 05:56:34.61	357.75	19.88	-24.1	-24.6	17.2	0.00e+00	0	43	0	1067450368	8	3803
2026-01-09 05:56:35.61	357.60	19.98	-24.2	-24.7	17.2	0.00e+00	0	43	0	1074790400	8	3821
2026-01-09 05:56:36.61	357.45	20.09	-24.4	-25.1	17.0	0.00e+00	0	43	0	1081081856	8	3904
2026-01-09 05:56:37.62	357.29	20.19	-24.3	-24.8	17.1	0.00e+00	0	43	0	1088421888	8	3850
2026-01-09 05:56:38.63	357.13	20.29	-24.0	-24.3	17.4	0.00e+00	0	43	0	1095761920	8	3735
2026-01-09 05:56:39.63	356.97	20.40	-23.9	-24.5	17.5	0.00e+00	0	43	0	1103101952	7	3886
2026-01-09 05:56:40.64	356.81	20.50	-24.3	-24.9	17.1	0.00e+00	0	43	0	1110441984	8	3864
2026-01-09 05:56:41.65	356.65	20.61	-23.8	-24.0	17.6	0.00e+00	0	43	0	1117782016	8	3659
2026-01-09 05:56:42.65	356.49	20.71	-23.8	-24.5	17.5	0.00e+00	0	43	0	1125122048	7	3868
2026-01-09 05:56:43.66	356.33	20.82	-23.9	-24.7	17.4	0.00e+00	0	43	0	1132462080	7	3915
2026-01-09 05:56:44.67	356.17	20.92	-24.0	-24.8	17.4	0.00e+00	0	43	0	1139802112	7	3938
2026-01-09 05:56:45.68	356.00	21.03	-24.0	-24.8	17.4	0.00e+00	0	43	0	1147142144	7	3945
2026-01-09 05:56:46.69	355.83	21.13	-24.2	-24.8	17.2	0.00e+00	0	43	0	1154482176	8	3847
2026-01-09 05:56:47.69	355.67	21.24	-24.3	-24.9	17.1	0.00e+00	0	43	0	1161822208	8	3867
2026-01-09 05:56:48.69	355.50	21.34	-24.3	-25.0	17.1	0.00e+00	0	43	0	1168113664	8	3888
2026-01-09 05:56:49.70	355.33	21.45	-24.3	-24.9	17.1	0.00e+00	0	43	0	1176502272	8	3880
2026-01-09 05:56:50.71	355.16	21.56	-24.1	-24.6	17.3	0.00e+00	0	43	0	1183842304	8	3800
2026-01-09 05:56:51.72	354.98	21.66	-24.3	-25.1	17.1	0.00e+00	0	43	0	1190133760	8	3904
2026-01-09 05:56:52.72	354.81	21.77	-24.3	-24.9	17.1	0.00e+00	0	43	0	1197473792	8	3877
2026-01-09 05:56:53.72	354.64	21.87	-24.2	-24.8	17.2	0.00e+00	0	43	0	1204813824	8	3851
2026-01-09 05:56:54.73	354.46	21.98	-24.3	-24.8	17.2	0.00e+00	0	43	0	1212153856	8	3851
2026-01-09 05:56:55.73	354.29	22.09	-24.1	-24.5	17.4	0.00e+00	0	43	0	1219493888	8	3768
2026-01-09 05:56:56.74	354.11	22.19	-24.0	-24.4	17.4	0.00e+00	0	43	0	1226833920	8	3744
2026-01-09 05:56:57.74	353.93	22.30	-23.9	-24.6	17.5	0.00e+00	0	43	0	1234173952	7	3900
2026-01-09 05:56:58.75	353.75	22.41	-23.9	-24.6	17.5	0.00e+00	0	43	0	1241513984	7	3907
2026-01-09 05:56:59.76	353.56	22.52	-24.0	-24.8	17.5	0.00e+00	0	43	0	1248854016	7	3937
2026-01-09 05:57:00.77	353.38	22.62	-24.0	-24.2	17.5	0.00e+00	0	43	0	1256194048	8	3714
2026-01-09 05:57:01.78	353.20	22.73	-24.0	-24.2	17.5	7.89e-05	0	43	0	1263534080	8	3706
2026-01-09 05:57:02.78	353.01	22.84	-24.0	-24.2	17.5	0.00e+00	0	43	0	1269825536	8	3708
2026-01-09 05:57:03.79	352.82	22.95	-23.9	-24.1	17.6	0.00e+00	0	43	0	1277165568	8	3675
2026-01-09 05:57:04.79	352.63	23.06	-23.9	-24.0	17.7	1.05e-04	0	43	0	1284505600	8	3663
2026-01-09 05:57:05.80	352.44	23.16	-24.0	-24.2	17.6	1.02e-04	0	43	0	1291845632	8	3707
2026-01-09 05:57:06.81	352.25	23.27	-23.8	-23.8	17.8	0.00e+00	0	43	0	1299185664	8	3625
2026-01-09 05:57:07.82	352.06	23.38	-24.0	-24.3	17.5	0.00e+00	0	43	0	1306525696	8	3723
2026-01-09 05:57:08.83	351.86	23.49	-23.8	-23.8	17.8	0.00e+00	0	43	0	1313865728	8	3624
2026-01-09 05:57:09.83	351.67	23.60	-23.7	-23.7	17.8	0.00e+00	0	43	0	1321205760	8	3597
2026-01-09 05:57:10.84	351.47	23.71	-23.9	-24.2	17.6	0.00e+00	0	43	0	1328545792	8	3701
2026-01-09 05:57:11.85	351.27	23.82	-24.0	-24.4	17.5	0.00e+00	0	43	0	1335885824	8	3744
2026-01-09 05:57:12.86	351.07	23.93	-24.2	-24.8	17.3	0.00e+00	0	43	0	1343225856	8	3832
2026-01-09 05:57:13.86	350.87	24.03	-24.0	-24.3	17.5	0.00e+00	0	43	0	1350565888	8	3737
2026-01-09 05:57:14.87	350.67	24.14	-23.9	-24.1	17.6	0.00e+00	0	43	0	1357905920	8	3677
2026-01-09 05:57:15.87	350.47	24.25	-23.9	-24.0	17.7	0.00e+00	0	43	0	1365245952	8	3671
2026-01-09 05:57:16.87	350.26	24.36	-23.8	-23.9	17.7	0.00e+00	0	43	0	1372585984	8	3644
2026-01-09 05:57:17.87	350.06	24.47	-23.8	-24.0	17.7	0.00e+00	0	43	0	1378877440	8	3657
2026-01-09 05:57:18.87	349.85	24.58	-24.0	-24.4	17.5	0.00e+00	0	43	0	1386217472	8	3749
2026-01-09 05:57:19.88	349.64	24.69	-23.6	-23.5	18.0	0.00e+00	0	42	0	1393557504	8	3542
2026-01-09 05:57:20.88	349.43	24.80	-23.3	-23.3	18.3	0.00e+00	0	43	0	1400897536	7	3599
2026-01-09 05:57:21.89	349.22	24.91	-23.2	-23.2	18.3	0.00e+00	0	43	0	1408237568	7	3582
2026-01-09 05:57:22.89	349.00	25.01	-23.2	-23.0	18.4	0.00e+00	0	43	0	1415577600	7	3543
2026-01-09 05:57:23.90	348.79	25.12	-23.4	-23.6	18.2	0.00e+00	0	43	0	1422917632	7	3665
2026-01-09 05:57:24.91	348.57	25.23	-23.1	-23.0	18.5	0.00e+00	0	43	0	1430257664	7	3529
2026-01-09 05:57:25.92	348.35	25.34	-23.1	-22.9	18.5	0.00e+00	0	43	0	1437597696	7	3508
2026-01-09 05:57:26.92	348.13	25.45	-23.1	-22.9	18.5	9.61e-05	0	43	0	1444937728	7	3524
2026-01-09 05:57:27.92	347.91	25.56	-23.1	-23.4	18.5	0.00e+00	0	43	0	1452277760	6	3721
2026-01-09 05:57:28.93	347.69	25.67	-23.2	-23.6	18.4	1.48e-05	0	43	0	1459617792	6	3780
2026-01-09 05:57:29.94	347.46	25.78	-23.2	-23.5	18.4	0.00e+00	0	43	0	1465909248	6	3762
2026-01-09 05:57:30.94	347.24	25.89	-23.3	-23.7	18.3	0.00e+00	0	43	0	1473249280	6	3804
2026-01-09 05:57:31.95	347.01	26.00	-23.1	-23.4	18.5	0.00e+00	0	43	0	1481637888	6	3732
2026-01-09 05:57:32.95	346.78	26.11	-23.2	-23.7	18.3	0.00e+00	0	43	0	1487929344	6	3800
2026-01-09 05:57:33.96	346.55	26.22	-23.2	-23.5	18.4	0.00e+00	0	43	0	1495269376	6	3753
2026-01-09 05:57:34.96	346.32	26.33	-23.3	-23.9	18.3	0.00e+00	0	43	0	1502609408	6	3840
2026-01-09 05:57:35.97	346.08	26.43	-23.3	-23.7	18.3	0.00e+00	0	43	0	1509949440	6	3798
2026-01-09 05:57:36.98	345.84	26.54	-23.1	-23.4	18.5	0.00e+00	0	43	0	1517289472	6	3732
2026-01-09 05:57:37.99	345.60	26.65	-23.1	-23.5	18.5	0.00e+00	0	43	0	1524629504	6	3749
2026-01-09 05:57:38.99	345.37	26.76	-23.3	-23.8	18.3	0.00e+00	0	43	0	1531969536	6	3816
2026-01-09 05:57:39.99	345.13	26.87	-23.4	-24.0	18.2	0.00e+00	0	43	0	1539309568	6	3858
2026-01-09 05:57:41.00	344.88	26.98	-23.5	-24.2	18.1	0.00e+00	0	43	0	1546649600	6	3909
2026-01-09 05:57:42.01	344.64	27.09	-23.6	-23.9	18.0	0.00e+00	0	43	0	1553989632	7	3729
2026-01-09 05:57:43.02	344.39	27.19	-23.6	-24.0	18.0	0.00e+00	0	43	0	1561329664	7	3751
2026-01-09 05:57:44.03	344.14	27.30	-23.8	-24.3	17.8	0.00e+00	0	43	0	1567621120	7	3834
2026-01-09 05:57:45.03	343.89	27.41	-23.7	-24.2	17.9	0.00e+00	0	43	0	1574961152	7	3807
2026-01-09 05:57:46.04	343.64	27.52	-23.9	-24.6	17.6	0.00e+00	0	43	0	1582301184	7	3908
2026-01-09 05:57:47.05	343.39	27.63	-23.8	-24.4	17.7	0.00e+00	0	43	0	1589641216	7	3859
2026-01-09 05:57:48.06	343.13	27.73	-23.7	-24.2	17.8	0.00e+00	0	43	0	1596981248	7	3811
2026-01-09 05:57:49.06	342.88	27.84	-23.7	-24.2	17.9	0.00e+00	0	43	0	1604321280	7	3796
2026-01-09 05:57:50.07	342.62	27.95	-23.8	-24.4	17.7	0.00e+00	0	43	0	1611661312	7	3858
2026-01-09 05:57:51.08	342.36	28.05	-23.7	-24.1	17.9	0.00e+00	0	43	0	1619001344	7	3772
2026-01-09 05:57:52.08	342.10	28.16	-23.6	-23.9	18.1	0.00e+00	0	43	0	1626341376	7	3739
2026-01-09 05:57:53.09	341.83	28.26	-23.6	-23.8	18.1	0.00e+00	0	43	0	1633681408	7	3723
2026-01-09 05:57:54.09	341.57	28.37	-23.6	-23.9	18.0	0.00e+00	0	43	0	1641021440	7	3735
2026-01-09 05:57:55.09	341.30	28.47	-23.7	-24.2	17.9	0.00e+00	0	43	0	1648361472	7	3798
2026-01-09 05:57:56.10	341.03	28.58	-23.9	-24.6	17.6	0.00e+00	0	43	0	1654652928	7	3908
2026-01-09 05:57:57.11	340.76	28.69	-23.7	-24.2	17.9	0.00e+00	0	43	0	1663041536	7	3797
2026-01-09 05:57:58.11	340.49	28.79	-23.6	-24.0	17.9	0.00e+00	0	43	0	1670381568	7	3761
2026-01-09 05:57:59.12	340.22	28.89	-23.7	-24.1	17.9	0.00e+00	0	43	0	1676673024	7	3774
2026-01-09 05:58:00.11	339.94	29.00	-23.5	-23.7	18.1	0.00e+00	0	43	0	1684013056	7	3697
2026-01-09 05:58:01.11	339.67	29.10	-23.4	-23.4	18.3	0.00e+00	0	43	0	1691353088	7	3634
2026-01-09 05:58:02.11	339.39	29.20	-23.3	-23.8	18.3	0.00e+00	0	43	0	1698693120	6	3815
2026-01-09 05:58:03.12	339.11	29.30	-23.1	-23.4	18.5	0.00e+00	0	43	0	1706033152	6	3726
2026-01-09 05:58:04.12	338.83	29.40	-23.0	-23.2	18.6	0.00e+00	0	43	0	1713373184	6	3681
2026-01-09 05:58:05.13	338.54	29.51	-23.2	-23.5	18.4	0.00e+00	0	43	0	1720713216	6	3756
2026-01-09 05:58:06.14	338.25	29.61	-23.0	-23.7	18.6	0.00e+00	0	43	0	1728053248	5	3909
2026-01-09 05:58:07.14	337.97	29.71	-23.3	-23.8	18.3	0.00e+00	0	43	0	1735393280	6	3826
2026-01-09 05:58:08.14	337.68	29.81	-23.1	-23.4	18.5	0.00e+00	0	43	0	1741684736	6	3735
2026-01-09 05:58:09.15	337.38	29.91	-22.8	-22.9	18.8	0.00e+00	0	43	0	1750073344	6	3609
2026-01-09 05:58:10.16	337.09	30.01	-22.9	-23.0	18.7	0.00e+00	0	43	0	1756364800	6	3636
2026-01-09 05:58:11.16	336.79	30.11	-23.0	-23.7	18.6	0.00e+00	0	43	0	1763704832	5	3899
2026-01-09 05:58:12.17	336.50	30.21	-22.8	-23.3	18.8	0.00e+00	0	43	0	1771044864	5	3800
2026-01-09 05:58:13.17	336.20	30.30	-22.8	-23.3	18.8	0.00e+00	0	43	0	1778384896	5	3815
2026-01-09 05:58:14.18	335.90	30.40	-23.0	-23.7	18.6	0.00e+00	0	43	0	1785724928	5	3903
2026-01-09 05:58:15.19	335.59	30.50	-23.0	-23.6	18.6	0.00e+00	0	43	0	1793064960	5	3885
2026-01-09 05:58:16.20	335.28	30.59	-23.2	-23.7	18.4	0.00e+00	0	43	0	1800404992	6	3787
2026-01-09 05:58:17.21	334.98	30.69	-23.4	-24.1	18.2	0.00e+00	0	43	0	1807745024	6	3882
2026-01-09 05:58:18.22	334.67	30.79	-23.5	-24.2	18.1	0.00e+00	0	43	0	1815085056	6	3907
2026-01-09 05:58:19.22	334.36	30.88	-23.6	-24.0	18.0	0.00e+00	0	43	0	1822425088	7	3757
2026-01-09 05:58:20.23	334.04	30.97	-23.5	-23.8	18.0	0.00e+00	0	43	0	1829765120	7	3718
2026-01-09 05:58:21.24	333.73	31.07	-23.4	-23.5	18.2	0.00e+00	0	43	0	1837105152	7	3652
2026-01-09 05:58:22.24	333.41	31.16	-23.4	-23.6	18.2	0.00e+00	0	43	0	1844445184	7	3667
2026-01-09 05:58:23.24	333.10	31.25	-23.7	-24.1	17.9	2.28e-05	0	43	0	1850736640	7	3774
2026-01-09 05:58:24.24	332.78	31.34	-23.3	-23.4	18.3	0.00e+00	0	43	0	1858076672	7	3621
2026-01-09 05:58:25.24	332.46	31.43	-23.2	-23.2	18.4	5.14e-05	0	43	0	1865416704	7	3582
2026-01-09 05:58:26.25	332.14	31.52	-23.2	-23.1	18.4	5.72e-05	0	43	0	1872756736	7	3570
2026-01-09 05:58:27.25	331.81	31.61	-23.1	-22.9	18.5	0.00e+00	0	43	0	1880096768	7	3515
2026-01-09 05:58:28.26	331.48	31.69	-23.1	-23.4	18.5	3.12e-04	0	43	0	1887436800	6	3732
2026-01-09 05:58:29.27	331.15	31.78	-23.0	-23.3	18.6	0.00e+00	0	43	0	1894776832	6	3705
2026-01-09 05:58:30.28	330.82	31.87	-22.9	-23.0	18.7	0.00e+00	0	43	0	1902116864	6	3650
2026-01-09 05:58:31.28	330.49	31.95	-22.9	-23.6	18.6	1.83e-04	0	43	0	1909456896	5	3876
2026-01-09 05:58:32.29	330.16	32.04	-23.1	-23.4	18.5	0.00e+00	0	43	0	1916796928	6	3733
2026-01-09 05:58:33.29	329.82	32.12	-23.0	-23.3	18.6	0.00e+00	0	43	0	1924136960	6	3706
2026-01-09 05:58:34.30	329.48	32.20	-23.1	-23.3	18.6	0.00e+00	0	43	0	1931476992	6	3708
2026-01-09 05:58:35.30	329.15	32.29	-23.0	-23.1	18.7	0.00e+00	0	43	0	1938817024	6	3658
2026-01-09 05:58:36.30	328.81	32.37	-23.0	-23.2	18.7	0.00e+00	0	43	0	1946157056	6	3675
2026-01-09 05:58:37.31	328.46	32.45	-23.0	-23.2	18.6	0.00e+00	0	43	0	1952448512	6	3679
2026-01-09 05:58:38.32	328.12	32.53	-22.9	-23.1	18.7	0.00e+00	0	43	0	1959788544	6	3654
2026-01-09 05:58:39.32	327.77	32.60	-22.9	-22.9	18.8	0.00e+00	0	43	0	1967128576	6	3623
2026-01-09 05:58:40.33	327.43	32.68	-22.9	-23.0	18.7	1.45e-04	0	43	0	1974468608	6	3633
2026-01-09 05:58:41.33	327.08	32.76	-22.8	-22.7	18.9	1.32e-04	0	43	0	1981808640	6	3583
2026-01-09 05:58:42.34	326.73	32.83	-22.8	-22.8	18.8	0.00e+00	0	43	0	1989148672	6	3596
2026-01-09 05:58:43.35	326.37	32.91	-22.8	-22.8	18.8	1.86e-04	0	43	0	1996488704	6	3594
2026-01-09 05:58:44.36	326.02	32.98	-23.0	-23.7	18.6	0.00e+00	0	43	0	2003828736	5	3892
2026-01-09 05:58:45.36	325.66	33.05	-23.0	-23.7	18.6	0.00e+00	0	43	0	2011168768	5	3893
2026-01-09 05:58:46.36	325.31	33.12	-23.2	-23.6	18.4	0.00e+00	0	43	0	2018508800	6	3777
2026-01-09 05:58:47.37	324.95	33.19	-23.1	-23.5	18.5	0.00e+00	0	43	0	2025848832	6	3743
2026-01-09 05:58:48.38	324.58	33.26	-22.8	-22.8	18.8	0.00e+00	0	43	0	2032140288	6	3595
2026-01-09 05:58:49.39	324.22	33.33	-22.6	-22.8	19.1	0.00e+00	0	43	0	2039480320	5	3700
2026-01-09 05:58:50.39	323.86	33.39	-22.5	-22.6	19.2	0.00e+00	0	43	0	2047868928	5	3652
2026-01-09 05:58:51.40	323.49	33.46	-22.5	-22.7	19.1	0.00e+00	0	43	0	2054160384	5	3664
2026-01-09 05:58:52.40	323.13	33.52	-22.6	-22.8	19.1	0.00e+00	0	43	0	2061500416	5	3696
2026-01-09 05:58:53.41	322.76	33.58	-22.7	-23.1	19.0	0.00e+00	0	43	0	2068840448	5	3762
2026-01-09 05:58:54.42	322.39	33.65	-22.9	-23.6	18.7	0.00e+00	0	43	0	2076180480	5	3871
2026-01-09 05:58:55.42	322.02	33.71	-23.0	-23.7	18.6	0.00e+00	0	43	0	2083520512	5	3893
2026-01-09 05:58:56.43	321.64	33.77	-23.0	-23.7	18.6	0.00e+00	0	43	0	2090860544	5	3906
2026-01-09 05:58:57.44	321.27	33.82	-23.3	-23.8	18.3	0.00e+00	0	43	0	2098200576	6	3818
2026-01-09 05:58:58.45	320.89	33.88	-23.3	-23.9	18.3	0.00e+00	0	43	0	2105540608	6	3833
2026-01-09 05:58:59.46	320.52	33.94	-23.1	-23.3	18.6	0.00e+00	0	43	0	2112880640	6	3706
2026-01-09 05:59:00.47	320.14	33.99	-23.0	-23.3	18.6	0.00e+00	0	43	0	2120220672	6	3693
2026-01-09 05:59:01.47	319.76	34.04	-23.0	-23.3	18.6	0.00e+00	0	43	0	2127560704	6	3697
2026-01-09 05:59:02.47	319.38	34.09	-23.0	-23.2	18.6	0.00e+00	0	43	0	2134900736	6	3692
2026-01-09 05:59:03.48	319.00	34.14	-23.1	-23.3	18.6	0.00e+00	0	43	0	2141192192	6	3716
2026-01-09 05:59:04.48	318.62	34.19	-23.1	-23.3	18.6	0.00e+00	0	43	0	2148532224	6	3707
2026-01-09 05:59:05.48	318.24	34.24	-22.8	-22.8	18.9	0.00e+00	0	43	0	2155872256	6	3586
2026-01-09 05:59:06.49	317.85	34.28	-22.7	-22.6	19.0	0.00e+00	0	43	0	2163212288	6	3543
2026-01-09 05:59:07.50	317.46	34.33	-22.6	-22.5	19.0	0.00e+00	0	43	0	2170552320	6	3525
2026-01-09 05:59:08.51	317.08	34.37	-22.8	-22.7	18.9	0.00e+00	0	43	0	2177892352	6	3570
2026-01-09 05:59:09.50	316.69	34.41	-22.7	-22.6	18.9	0.00e+00	0	43	0	2185232384	6	3560
2026-01-09 05:59:10.51	316.30	34.45	-22.6	-22.4	19.0	0.00e+00	0	43	0	2192572416	6	3506
2026-01-09 05:59:11.52	315.91	34.49	-22.6	-22.4	19.0	0.00e+00	0	43	0	2199912448	6	3517
2026-01-09 05:59:12.53	315.52	34.53	-22.7	-22.5	18.9	0.00e+00	0	43	0	2207252480	6	3530
2026-01-09 05:59:13.53	315.13	34.56	-22.7	-22.5	19.0	0.00e+00	0	43	0	2214592512	6	3534
2026-01-09 05:59:14.54	314.74	34.60	-22.7	-22.5	19.0	0.00e+00	0	43	0	2221932544	6	3532
2026-01-09 05:59:15.55	314.34	34.63	-22.5	-22.2	19.1	0.00e+00	0	43	0	2229272576	6	3475
2026-01-09 05:59:16.55	313.95	34.66	-22.7	-22.5	19.0	0.00e+00	0	43	0	2236612608	6	3527
2026-01-09 05:59:17.56	313.56	34.69	-22.6	-23.0	19.0	0.00e+00	0	43	0	2243952640	5	3736
2026-01-09 05:59:18.56	313.16	34.72	-22.5	-22.6	19.1	0.00e+00	0	43	0	2250244096	5	3660
2026-01-09 05:59:19.57	312.76	34.74	-22.6	-22.8	19.0	0.00e+00	0	43	0	2257584128	5	3698
2026-01-09 05:59:20.58	312.37	34.77	-22.6	-22.9	19.0	0.00e+00	0	43	0	2264924160	5	3730
2026-01-09 05:59:21.58	311.97	34.79	-22.8	-23.2	18.9	0.00e+00	0	43	0	2272264192	5	3779
2026-01-09 05:59:22.59	311.57	34.81	-22.8	-23.3	18.8	0.00e+00	0	43	0	2279604224	5	3823
2026-01-09 05:59:23.59	311.18	34.83	-22.9	-23.5	18.8	0.00e+00	0	43	0	2286944256	5	3853
2026-01-09 05:59:24.59	310.78	34.85	-23.0	-23.6	18.7	0.00e+00	0	43	0	2294284288	5	3882
2026-01-09 05:59:25.59	310.38	34.87	-22.9	-23.5	18.8	0.00e+00	0	43	0	2301624320	5	3844
2026-01-09 05:59:26.60	309.98	34.89	-22.7	-23.1	18.9	0.00e+00	0	43	0	2308964352	5	3766
2026-01-09 05:59:27.61	309.58	34.90	-22.7	-23.1	18.9	0.00e+00	0	43	0	2316304384	5	3750
2026-01-09 05:59:28.61	309.18	34.91	-22.6	-22.9	19.0	0.00e+00	0	43	0	2323644416	5	3710
2026-01-09 05:59:29.62	308.78	34.92	-22.6	-22.9	19.0	0.00e+00	0	43	0	2329935872	5	3718
2026-01-09 05:59:30.63	308.38	34.93	-22.7	-23.1	18.9	0.00e+00	0	43	0	2337275904	5	3774
2026-01-09 05:59:31.63	307.98	34.94	-22.8	-23.2	18.9	0.00e+00	0	43	0	2344615936	5	3796
2026-01-09 05:59:32.63	307.58	34.95	-22.8	-23.4	18.8	0.00e+00	0	43	0	2351955968	5	3821
2026-01-09 05:59:33.64	307.18	34.95	-22.8	-23.2	18.9	0.00e+00	0	43	0	2359296000	5	3795
2026-01-09 05:59:34.64	306.78	34.95	-22.8	-23.2	18.9	0.00e+00	0	43	0	2366636032	5	3793
2026-01-09 05:59:35.65	306.37	34.95	-22.8	-23.2	18.9	0.00e+00	0	43	0	2373976064	5	3786
2026-01-09 05:59:36.66	305.97	34.95	-22.8	-23.2	18.9	0.00e+00	0	43	0	2381316096	5	3795
2026-01-09 05:59:37.67	305.57	34.95	-22.9	-23.6	18.7	0.00e+00	0	43	0	2388656128	5	3884
2026-01-09 05:59:38.67	305.17	34.95	-22.9	-23.0	18.7	0.00e+00	0	43	0	2395996160	6	3645
2026-01-09 05:59:39.68	304.76	34.94	-22.7	-22.5	19.0	0.00e+00	0	43	0	2403336192	6	3542
2026-01-09 05:59:40.69	304.36	34.94	-22.6	-22.9	19.0	0.00e+00	0	43	0	2410676224	5	3727
2026-01-09 05:59:41.70	303.96	34.93	-22.6	-22.9	19.0	0.00e+00	0	43	0	2418016256	5	3717
2026-01-09 05:59:42.71	303.56	34.92	-22.7	-23.1	18.9	0.00e+00	0	43	0	2425356288	5	3767
2026-01-09 05:59:43.71	303.16	34.91	-22.7	-23.1	18.9	0.00e+00	0	43	0	2432696320	5	3770
2026-01-09 05:59:44.72	302.76	34.89	-22.8	-23.3	18.8	0.00e+00	0	43	0	2438987776	5	3815
2026-01-09 05:59:45.73	302.35	34.88	-22.9	-23.4	18.8	0.00e+00	0	43	0	2446327808	5	3837
2026-01-09 05:59:46.74	301.95	34.86	-22.8	-23.3	18.8	0.00e+00	0	43	0	2453667840	5	3811
2026-01-09 05:59:47.74	301.56	34.84	-23.0	-23.7	18.6	0.00e+00	0	43	0	2461007872	5	3889
2026-01-09 05:59:48.75	301.15	34.82	-22.9	-23.4	18.8	0.00e+00	0	43	0	2468347904	5	3829
2026-01-09 05:59:49.75	300.76	34.80	-22.9	-23.5	18.7	0.00e+00	0	43	0	2475687936	5	3857
2026-01-09 05:59:50.76	300.36	34.78	-22.8	-23.2	18.9	0.00e+00	0	43	0	2483027968	5	3791
2026-01-09 05:59:51.77	299.96	34.76	-22.6	-22.9	19.0	8.92e-05	0	43	0	2490368000	5	3710
2026-01-09 05:59:52.78	299.56	34.73	-22.7	-23.1	18.9	0.00e+00	0	43	0	2497708032	5	3776
2026-01-09 05:59:53.79	299.16	34.70	-22.9	-23.5	18.7	0.00e+00	0	43	0	2505048064	5	3853
2026-01-09 05:59:54.79	298.77	34.67	-22.9	-23.5	18.7	0.00e+00	0	43	0	2512388096	5	3857
2026-01-09 05:59:55.79	298.38	34.64	-22.9	-23.5	18.7	0.00e+00	0	43	0	2519728128	5	3852
2026-01-09 05:59:56.80	297.98	34.61	-22.8	-23.2	18.9	0.00e+00	0	43	0	2527068160	5	3788
2026-01-09 05:59:57.81	297.59	34.58	-22.7	-23.1	19.0	0.00e+00	0	43	0	2534408192	5	3758
2026-01-09 05:59:58.82	297.19	34.54	-22.7	-23.0	19.0	2.20e-06	0	43	0	2540699648	5	3739
2026-01-09 05:59:59.82	296.81	34.51	-22.7	-23.0	19.0	0.00e+00	0	43	0	2548039680	5	3754
2026-01-09 06:00:00.83	296.41	34.47	-22.5	-22.7	19.1	0.00e+00	0	43	0	2555379712	5	3677
2026-01-09 06:00:01.83	296.03	34.43	-22.4	-22.5	19.2	2.62e-04	0	43	0	2562719744	5	3643
2026-01-09 06:00:02.84	295.64	34.39	-22.6	-22.9	19.0	0.00e+00	0	43	0	2570059776	5	3712
2026-01-09 06:00:03.85	295.25	34.35	-22.6	-22.8	19.1	0.00e+00	0	43	0	2577399808	5	3698
2026-01-09 06:00:04.85	294.86	34.30	-22.6	-23.0	19.0	0.00e+00	0	43	0	2584739840	5	3733
2026-01-09 06:00:05.86	294.48	34.26	-22.5	-22.7	19.1	0.00e+00	0	43	0	2592079872	5	3684
2026-01-09 06:00:06.87	294.09	34.21	-22.5	-22.6	19.1	0.00e+00	0	43	0	2599419904	5	3654
2026-01-09 06:00:07.88	293.70	34.16	-22.6	-22.8	19.1	0.00e+00	0	43	0	2606759936	5	3692
2026-01-09 06:00:08.89	293.32	34.11	-22.5	-22.6	19.2	0.00e+00	0	43	0	2614099968	5	3644
2026-01-09 06:00:09.90	292.94	34.06	-22.5	-22.6	19.1	0.00e+00	0	43	0	2621440000	5	3663
2026-01-09 06:00:10.90	292.56	34.01	-22.7	-23.2	18.9	0.00e+00	0	43	0	2628780032	5	3777
2026-01-09 06:00:11.91	292.18	33.96	-22.9	-23.4	18.7	0.00e+00	0	43	0	2636120064	5	3845
2026-01-09 06:00:12.92	291.80	33.90	-22.8	-23.3	18.8	0.00e+00	0	43	0	2643460096	5	3816
2026-01-09 06:00:13.93	291.42	33.85	-22.7	-23.1	18.9	0.00e+00	0	43	0	2649751552	5	3768
2026-01-09 06:00:14.94	291.05	33.79	-22.7	-23.0	19.0	0.00e+00	0	43	0	2658140160	5	3739
2026-01-09 06:00:15.95	290.67	33.73	-22.9	-23.4	18.8	0.00e+00	0	43	0	2665480192	5	3834
2026-01-09 06:00:16.95	290.30	33.67	-22.7	-23.2	18.8	0.00e+00	0	43	0	2671771648	5	3787
2026-01-09 06:00:17.96	289.93	33.61	-22.9	-23.6	18.6	0.00e+00	0	43	0	2679111680	5	3872
2026-01-09 06:00:18.97	289.56	33.55	-22.8	-23.2	18.9	0.00e+00	0	43	0	2686451712	5	3788
2026-01-09 06:00:19.98	289.19	33.48	-22.7	-23.1	18.9	0.00e+00	0	43	0	2693791744	5	3765
2026-01-09 06:00:20.99	288.82	33.42	-22.8	-23.3	18.8	0.00e+00	0	43	0	2701131776	5	3818
2026-01-09 06:00:21.99	288.46	33.35	-22.9	-23.5	18.7	0.00e+00	0	43	0	2708471808	5	3854
2026-01-09 06:00:23.00	288.09	33.29	-23.0	-23.7	18.6	0.00e+00	0	43	0	2715811840	5	3900
2026-01-09 06:00:24.00	287.73	33.22	-22.9	-23.5	18.7	0.00e+00	0	43	0	2723151872	5	3859
2026-01-09 06:00:25.01	287.37	33.15	-22.8	-23.2	18.8	0.00e+00	0	43	0	2730491904	5	3791
2026-01-09 06:00:26.01	287.01	33.08	-22.8	-23.3	18.8	0.00e+00	0	43	0	2737831936	5	3816
2026-01-09 06:00:27.01	286.66	33.01	-22.7	-23.1	18.9	0.00e+00	0	43	0	2745171968	5	3762
2026-01-09 06:00:28.02	286.30	32.93	-22.7	-23.1	18.9	0.00e+00	0	43	0	2751463424	5	3765
2026-01-09 06:00:29.01	285.95	32.86	-22.9	-23.5	18.7	0.00e+00	0	43	0	2758803456	5	3855
2026-01-09 06:00:30.01	285.60	32.79	-22.7	-23.0	18.9	0.00e+00	0	43	0	2766143488	5	3750
2026-01-09 06:00:31.02	285.25	32.71	-22.8	-23.2	18.8	0.00e+00	0	43	0	2773483520	5	3776
2026-01-09 06:00:32.02	284.90	32.64	-22.9	-23.4	18.7	0.00e+00	0	43	0	2780823552	5	3829
2026-01-09 06:00:33.03	284.55	32.56	-23.0	-23.6	18.6	0.00e+00	0	43	0	2788163584	5	3879
2026-01-09 06:00:34.04	284.21	32.48	-23.0	-23.6	18.6	0.00e+00	0	43	0	2795503616	5	3887
2026-01-09 06:00:35.04	283.86	32.40	-23.2	-23.6	18.4	0.00e+00	0	43	0	2802843648	6	3766
2026-01-09 06:00:36.04	283.52	32.32	-23.7	-24.2	17.8	0.00e+00	0	43	0	2810183680	7	3816
2026-01-09 06:00:37.04	283.18	32.24	-23.6	-23.9	18.0	0.00e+00	0	43	0	2817523712	7	3749
2026-01-09 06:00:38.05	282.84	32.15	-24.1	-24.5	17.4	0.00e+00	0	43	0	2824863744	8	3773
2026-01-09 06:00:39.06	282.50	32.07	-23.5	-23.2	18.1	0.00e+00	0	43	0	2832203776	8	3493
2026-01-09 06:00:40.06	282.17	31.99	-23.3	-23.4	18.2	0.00e+00	0	43	0	2838495232	7	3621
2026-01-09 06:00:41.07	281.84	31.90	-23.1	-23.0	18.4	0.00e+00	0	43	0	2845835264	7	3549
2026-01-09 06:00:42.07	281.50	31.82	-23.0	-22.6	18.6	0.00e+00	0	43	0	2853175296	7	3463
2026-01-09 06:00:43.07	281.18	31.73	-23.0	-23.1	18.6	0.00e+00	0	43	0	2860515328	6	3664
2026-01-09 06:00:44.08	280.85	31.64	-22.9	-22.9	18.7	0.00e+00	0	43	0	2867855360	6	3614
2026-01-09 06:00:45.08	280.52	31.55	-22.6	-22.4	18.9	0.00e+00	0	43	0	2875195392	6	3511
2026-01-09 06:00:46.09	280.19	31.46	-22.6	-22.3	19.0	0.00e+00	0	43	0	2882535424	6	3495
2026-01-09 06:00:47.09	279.87	31.37	-22.5	-22.7	19.0	0.00e+00	0	43	0	2889875456	5	3680
2026-01-09 06:00:48.09	279.55	31.28	-22.5	-22.6	19.1	0.00e+00	0	43	0	2897215488	5	3660
2026-01-09 06:00:49.10	279.23	31.19	-22.6	-22.8	19.0	0.00e+00	0	43	0	2904555520	5	3704
2026-01-09 06:00:50.11	278.91	31.10	-22.6	-22.8	19.0	0.00e+00	0	43	0	2911895552	5	3689
2026-01-09 06:00:51.11	278.60	31.01	-22.6	-22.9	18.9	0.00e+00	0	43	0	2919235584	5	3713
2026-01-09 06:00:52.11	278.29	30.91	-22.8	-23.2	18.8	0.00e+00	0	43	0	2925527040	5	3794
2026-01-09 06:00:53.12	277.97	30.82	-22.7	-23.2	18.8	0.00e+00	0	43	0	2932867072	5	3785
2026-01-09 06:00:54.12	277.66	30.73	-22.9	-23.5	18.6	0.00e+00	0	43	0	2940207104	5	3859
2026-01-09 06:00:55.13	277.35	30.63	-22.9	-23.4	18.7	0.00e+00	0	43	0	2947547136	5	3833
2026-01-09 06:00:56.14	277.05	30.53	-22.9	-23.5	18.6	0.00e+00	0	43	0	2954887168	5	3851
2026-01-09 06:00:57.14	276.74	30.44	-23.0	-23.6	18.6	0.00e+00	0	43	0	2962227200	5	3883
2026-01-09 06:00:58.15	276.44	30.34	-22.9	-23.6	18.6	0.00e+00	0	43	0	2969567232	5	3870
2026-01-09 06:00:59.16	276.14	30.24	-22.9	-23.5	18.6	0.00e+00	0	43	0	2976907264	5	3861
2026-01-09 06:01:00.17	275.83	30.14	-22.8	-23.4	18.7	0.00e+00	0	43	0	2984247296	5	3826
2026-01-09 06:01:01.18	275.54	30.04	-22.9	-23.4	18.6	0.00e+00	0	43	0	2991587328	5	3833
2026-01-09 06:01:02.18	275.24	29.94	-22.9	-23.5	18.6	0.00e+00	0	43	0	2998927360	5	3853
2026-01-09 06:01:03.19	274.95	29.84	-22.9	-23.5	18.6	0.00e+00	0	43	0	3006267392	5	3849
2026-01-09 06:01:04.19	274.66	29.74	-23.1	-23.9	18.4	3.40e-06	0	43	0	3012558848	5	3945
2026-01-09 06:01:05.19	274.37	29.64	-22.9	-23.1	18.6	0.00e+00	0	43	0	3020947456	6	3662
2026-01-09 06:01:06.19	274.08	29.54	-23.0	-23.1	18.5	0.00e+00	0	43	0	3027238912	6	3670
2026-01-09 06:01:07.20	273.79	29.44	-23.0	-23.2	18.5	0.00e+00	0	43	0	3034578944	6	3682
2026-01-09 06:01:08.20	273.51	29.34	-23.1	-23.3	18.4	0.00e+00	0	43	0	3041918976	6	3715
2026-01-09 06:01:09.21	273.22	29.23	-23.2	-23.5	18.3	2.20e-06	0	43	0	3049259008	6	3764
2026-01-09 06:01:10.22	272.94	29.13	-23.0	-23.3	18.5	0.00e+00	0	43	0	3056599040	6	3700
2026-01-09 06:01:11.22	272.66	29.03	-23.1	-23.5	18.4	0.00e+00	0	43	0	3063939072	6	3747
2026-01-09 06:01:12.23	272.38	28.92	-23.1	-23.4	18.4	2.20e-06	0	43	0	3071279104	6	3735
2026-01-09 06:01:13.23	272.11	28.82	-23.2	-23.7	18.2	0.00e+00	0	43	0	3078619136	6	3799
2026-01-09 06:01:14.23	271.84	28.72	-23.2	-23.6	18.3	0.00e+00	0	43	0	3085959168	6	3781
2026-01-09 06:01:15.24	271.56	28.61	-23.2	-23.7	18.2	0.00e+00	0	43	0	3093299200	6	3803
2026-01-09 06:01:16.25	271.29	28.50	-23.3	-23.9	18.1	0.00e+00	0	43	0	3100639232	6	3838
2026-01-09 06:01:17.26	271.02	28.40	-23.2	-23.6	18.3	0.00e+00	0	43	0	3107979264	6	3780
2026-01-09 06:01:18.27	270.75	28.29	-23.1	-23.4	18.4	0.00e+00	0	43	0	3114270720	6	3736
2026-01-09 06:01:19.28	270.49	28.19	-23.2	-23.6	18.3	0.00e+00	0	43	0	3121610752	6	3768
2026-01-09 06:01:20.28	270.23	28.08	-23.2	-23.7	18.2	0.00e+00	0	43	0	3128950784	6	3800
2026-01-09 06:01:21.29	269.96	27.97	-23.4	-24.0	18.1	0.00e+00	0	43	0	3136290816	6	3861
2026-01-09 06:01:22.30	269.70	27.86	-23.3	-23.8	18.1	0.00e+00	0	43	0	3143630848	6	3822
2026-01-09 06:01:23.30	269.45	27.76	-23.3	-23.8	18.2	0.00e+00	0	43	0	3150970880	6	3834
2026-01-09 06:01:24.31	269.19	27.65	-23.5	-24.3	17.9	0.00e+00	0	43	0	3158310912	6	3940
2026-01-09 06:01:25.32	268.93	27.54	-23.5	-23.7	18.0	0.00e+00	0	43	0	3165650944	7	3704
2026-01-09 06:01:26.32	268.68	27.43	-23.3	-23.3	18.2	0.00e+00	0	43	0	3172990976	7	3600
2026-01-09 06:01:27.32	268.43	27.33	-23.0	-22.7	18.5	0.00e+00	0	43	0	3180331008	7	3476
2026-01-09 06:01:28.33	268.18	27.22	-23.0	-22.7	18.5	0.00e+00	0	43	0	3187671040	7	3476
2026-01-09 06:01:29.34	267.93	27.11	-23.0	-22.8	18.5	0.00e+00	0	43	0	3193962496	7	3497
2026-01-09 06:01:30.34	267.69	27.00	-23.1	-23.0	18.4	0.00e+00	0	43	0	3202351104	7	3533
2026-01-09 06:01:31.35	267.44	26.89	-23.3	-23.3	18.1	0.00e+00	0	43	0	3209691136	7	3613
2026-01-09 06:01:32.36	267.20	26.78	-23.1	-23.0	18.3	0.00e+00	0	43	0	3215982592	7	3539
2026-01-09 06:01:33.36	266.96	26.68	-23.1	-23.0	18.3	0.00e+00	0	43	0	3223322624	7	3535
2026-01-09 06:01:34.37	266.72	26.57	-23.2	-23.1	18.3	0.00e+00	0	43	0	3230662656	7	3554
2026-01-09 06:01:35.37	266.48	26.46	-23.3	-23.4	18.1	0.00e+00	0	43	0	3238002688	7	3637
2026-01-09 06:01:36.39	266.24	26.35	-23.1	-23.4	18.4	0.00e+00	0	43	0	3245342720	6	3739
2026-01-09 06:01:37.39	266.01	26.24	-23.2	-23.6	18.3	0.00e+00	0	43	0	3252682752	6	3769
2026-01-09 06:01:38.40	265.77	26.13	-23.2	-23.7	18.2	0.00e+00	0	43	0	3260022784	6	3793
2026-01-09 06:01:39.41	265.54	26.02	-23.3	-24.0	18.1	0.00e+00	0	43	0	3267362816	6	3859
2026-01-09 06:01:40.42	265.31	25.91	-23.3	-23.8	18.1	0.00e+00	0	43	0	3274702848	6	3828
2026-01-09 06:01:41.43	265.08	25.80	-23.2	-23.6	18.2	0.00e+00	0	43	0	3282042880	6	3780
2026-01-09 06:01:42.43	264.86	25.69	-23.3	-23.9	18.1	0.00e+00	0	43	0	3289382912	6	3848
2026-01-09 06:01:43.44	264.63	25.58	-23.6	-24.5	17.8	0.00e+00	0	43	0	3296722944	6	3980
2026-01-09 06:01:44.45	264.41	25.47	-23.7	-24.1	17.7	0.00e+00	0	43	0	3304062976	7	3794
2026-01-09 06:01:45.45	264.19	25.36	-23.4	-23.6	18.0	0.00e+00	0	43	0	3311403008	7	3671
2026-01-09 06:01:46.46	263.96	25.25	-23.3	-23.8	18.1	0.00e+00	0	43	0	3318743040	6	3832
2026-01-09 06:01:47.46	263.75	25.14	-23.3	-23.9	18.1	0.00e+00	0	43	0	3325034496	6	3853
2026-01-09 06:01:48.47	263.53	25.03	-23.3	-23.8	18.1	0.00e+00	0	43	0	3332374528	6	3833
2026-01-09 06:01:49.48	263.31	24.92	-23.2	-23.6	18.2	0.00e+00	0	43	0	3339714560	6	3779
2026-01-09 06:01:50.48	263.10	24.81	-23.1	-23.4	18.3	0.00e+00	0	43	0	3347054592	6	3741
2026-01-09 06:01:51.49	262.89	24.70	-23.0	-23.8	18.4	0.00e+00	0	43	0	3354394624	5	3921
2026-01-09 06:01:52.50	262.67	24.59	-23.0	-23.8	18.3	0.00e+00	0	43	0	3361734656	5	3930
2026-01-09 06:01:53.50	262.47	24.48	-23.0	-23.2	18.4	0.00e+00	0	43	0	3369074688	6	3691
2026-01-09 06:01:54.51	262.26	24.37	-23.0	-23.1	18.4	0.00e+00	0	43	0	3376414720	6	3676
2026-01-09 06:01:55.51	262.05	24.26	-23.0	-23.7	18.4	0.00e+00	0	43	0	3383754752	5	3915
2026-01-09 06:01:56.51	261.85	24.15	-23.2	-23.7	18.2	0.00e+00	0	43	0	3391094784	6	3798
2026-01-09 06:01:57.52	261.64	24.04	-23.4	-24.1	17.9	0.00e+00	0	43	0	3398434816	6	3896
2026-01-09 06:01:58.52	261.44	23.93	-23.5	-23.8	17.8	0.00e+00	0	43	0	3405774848	7	3726
2026-01-09 06:01:59.52	261.24	23.82	-23.4	-23.5	18.0	0.00e+00	0	43	0	3412066304	7	3651
2026-01-09 06:02:00.53	261.04	23.71	-23.3	-23.3	18.1	0.00e+00	0	43	0	3419406336	7	3601
2026-01-09 06:02:01.54	260.84	23.60	-23.3	-23.3	18.1	0.00e+00	0	43	0	3426746368	7	3609
2026-01-09 06:02:02.54	260.65	23.50	-23.1	-23.0	18.2	0.00e+00	0	43	0	3434086400	7	3548
2026-01-09 06:02:03.54	260.45	23.39	-23.1	-23.0	18.2	0.00e+00	0	43	0	3441426432	7	3544
2026-01-09 06:02:04.54	260.26	23.28	-23.1	-23.4	18.3	0.00e+00	0	43	0	3448766464	6	3736
2026-01-09 06:02:05.55	260.06	23.17	-23.1	-23.4	18.3	0.00e+00	0	43	0	3456106496	6	3722
2026-01-09 06:02:06.55	259.87	23.06	-23.1	-23.4	18.3	0.00e+00	0	43	0	3463446528	6	3736
2026-01-09 06:02:07.55	259.68	22.95	-23.1	-23.4	18.2	0.00e+00	0	43	0	3470786560	6	3739
2026-01-09 06:02:08.55	259.50	22.85	-23.2	-23.7	18.1	0.00e+00	0	43	0	3478126592	6	3801
2026-01-09 06:02:09.55	259.31	22.74	-23.3	-23.8	18.1	0.00e+00	0	43	0	3485466624	6	3822
2026-01-09 06:02:10.56	259.12	22.63	-23.3	-23.8	18.1	0.00e+00	0	43	0	3491758080	6	3820
2026-01-09 06:02:11.56	258.94	22.52	-23.2	-23.7	18.1	0.00e+00	0	43	0	3499098112	6	3793
2026-01-09 06:02:12.57	258.76	22.41	-23.4	-24.0	18.0	0.00e+00	0	43	0	3506438144	6	3860
2026-01-09 06:02:13.58	258.57	22.31	-23.4	-24.0	18.0	0.00e+00	0	43	0	3513778176	6	3862
2026-01-09 06:02:14.58	258.39	22.20	-23.3	-23.9	18.0	1.10e-06	0	43	0	3521118208	6	3843
2026-01-09 06:02:15.58	258.21	22.09	-23.4	-24.0	17.9	0.00e+00	0	43	0	3528458240	6	3873
2026-01-09 06:02:16.59	258.03	21.98	-23.5	-24.4	17.7	0.00e+00	0	43	0	3535798272	6	3957
2026-01-09 06:02:17.59	257.86	21.88	-23.8	-24.4	17.5	2.20e-06	0	43	0	3543138304	7	3861
2026-01-09 06:02:18.59	257.68	21.77	-23.8	-24.5	17.4	0.00e+00	0	43	0	3550478336	7	3890
2026-01-09 06:02:19.60	257.51	21.66	-23.8	-24.5	17.4	0.00e+00	0	43	0	3557818368	7	3881
2026-01-09 06:02:20.60	257.34	21.56	-23.9	-24.6	17.3	6.29e-04	0	43	0	3565158400	7	3901
2026-01-09 06:02:21.61	257.16	21.45	-23.9	-24.5	17.4	0.00e+00	0	43	0	3572498432	7	3895
2026-01-09 06:02:22.61	256.99	21.34	-23.9	-24.6	17.4	0.00e+00	0	43	0	3578789888	7	3897
2026-01-09 06:02:23.62	256.82	21.24	-23.8	-24.4	17.4	1.10e-06	0	43	0	3586129920	7	3862
2026-01-09 06:02:24.63	256.65	21.13	-23.6	-24.1	17.5	0.00e+00	0	43	0	3593469952	7	3784
2026-01-09 06:02:25.63	256.49	21.03	-23.6	-24.0	17.6	0.00e+00	0	43	0	3600809984	7	3776
2026-01-09 06:02:26.63	256.32	20.92	-23.6	-24.0	17.6	0.00e+00	0	43	0	3608150016	7	3776
2026-01-09 06:02:27.64	256.15	20.81	-23.6	-24.0	17.6	8.25e-04	0	43	0	3615490048	7	3759
2026-01-09 06:02:28.65	255.99	20.71	-23.6	-24.1	17.6	0.00e+00	0	43	0	3622830080	7	3778
2026-01-09 06:02:29.65	255.83	20.60	-23.7	-24.2	17.5	1.10e-06	0	43	0	3630170112	7	3803
2026-01-09 06:02:30.66	255.66	20.50	-23.7	-24.2	17.5	8.37e-04	0	43	0	3637510144	7	3821
2026-01-09 06:02:31.66	255.50	20.39	-23.8	-24.5	17.4	0.00e+00	0	43	0	3644850176	7	3874
2026-01-09 06:02:32.66	255.35	20.29	-23.9	-24.6	17.3	7.52e-04	0	43	0	3652190208	7	3900
2026-01-09 06:02:33.67	255.19	20.19	-23.9	-24.6	17.3	4.58e-04	0	43	0	3658481664	7	3910
2026-01-09 06:02:34.68	255.03	20.08	-23.9	-24.5	17.3	0.00e+00	0	43	0	3665821696	7	3888
2026-01-09 06:02:35.68	254.87	19.98	-23.8	-24.4	17.4	2.16e-04	0	43	0	3673161728	7	3850
2026-01-09 06:02:36.69	254.72	19.87	-23.8	-24.5	17.3	2.28e-05	0	43	0	3680501760	7	3876
2026-01-09 06:02:37.70	254.56	19.77	-23.7	-24.2	17.5	0.00e+00	0	43	0	3687841792	7	3822
2026-01-09 06:02:38.70	254.41	19.67	-23.7	-24.1	17.5	2.40e-05	0	43	0	3695181824	7	3785
2026-01-09 06:02:39.71	254.26	19.56	-23.7	-24.3	17.4	1.22e-04	0	43	0	3702521856	7	3829
2026-01-09 06:02:40.72	254.10	19.46	-23.7	-24.3	17.4	0.00e+00	0	43	0	3709861888	7	3838
2026-01-09 06:02:41.71	253.96	19.36	-23.9	-24.6	17.3	3.72e-04	0	43	0	3717201920	7	3902
2026-01-09 06:02:42.72	253.81	19.26	-24.0	-24.9	17.1	5.38e-04	0	43	0	3724541952	7	3984
2026-01-09 06:02:43.74	253.66	19.15	-24.2	-24.8	16.9	0.00e+00	0	43	0	3731881984	8	3849
2026-01-09 06:02:44.74	253.51	19.05	-24.4	-25.3	16.7	8.50e-04	0	43	0	3739222016	8	3960
2026-01-09 06:02:45.75	253.36	18.95	-24.4	-24.8	16.7	9.23e-04	0	43	0	3746562048	9	3739
2026-01-09 06:02:46.75	253.22	18.85	-24.4	-24.8	16.7	0.00e+00	0	43	0	3753902080	9	3737
2026-01-09 06:02:47.76	253.07	18.75	-24.4	-25.3	16.7	9.19e-04	0	43	0	3761242112	8	3966
2026-01-09 06:02:48.77	252.93	18.65	-24.4	-25.2	16.7	1.10e-06	0	43	0	3767533568	8	3944
2026-01-09 06:02:49.77	252.79	18.54	-24.7	-25.2	16.4	0.00e+00	0	43	0	3774873600	9	3848
2026-01-09 06:02:50.78	252.65	18.44	-24.3	-25.0	16.8	9.17e-04	0	43	0	3782213632	8	3901
2026-01-09 06:02:51.78	252.51	18.34	-24.3	-25.0	16.8	0.00e+00	0	43	0	3789553664	8	3897
2026-01-09 06:02:52.79	252.37	18.24	-24.3	-25.1	16.8	0.00e+00	0	43	0	3796893696	8	3914
2026-01-09 06:02:53.79	252.23	18.14	-24.3	-24.9	16.8	0.00e+00	0	43	0	3804233728	8	3883
2026-01-09 06:02:54.80	252.09	18.04	-24.4	-25.2	16.7	0.00e+00	0	43	0	3811573760	8	3938
2026-01-09 06:02:55.81	251.95	17.94	-24.3	-25.1	16.7	0.00e+00	0	43	0	3818913792	8	3914
2026-01-09 06:02:56.81	251.82	17.85	-24.3	-24.9	16.8	0.00e+00	0	43	0	3826253824	8	3886
2026-01-09 06:02:57.82	251.68	17.75	-24.4	-25.1	16.7	0.00e+00	0	43	0	3833593856	8	3928
2026-01-09 06:02:58.82	251.55	17.65	-24.4	-25.2	16.7	0.00e+00	0	43	0	3840933888	8	3947
2026-01-09 06:02:59.82	251.42	17.55	-24.5	-25.4	16.5	0.00e+00	0	43	0	3848273920	8	3999
2026-01-09 06:03:00.82	251.29	17.45	-24.6	-25.5	16.5	0.00e+00	0	43	0	3854565376	8	4026
2026-01-09 06:03:01.82	251.16	17.35	-24.7	-25.4	16.3	0.00e+00	0	43	0	3861905408	9	3894
2026-01-09 06:03:02.83	251.03	17.26	-25.0	-26.0	16.0	0.00e+00	0	43	0	3869245440	9	4037
2026-01-09 06:03:03.84	250.90	17.16	-25.0	-26.1	15.9	0.00e+00	0	43	0	3876585472	9	4055
2026-01-09 06:03:04.85	250.77	17.06	-25.2	-26.0	15.7	0.00e+00	0	43	0	3883925504	10	3918
2026-01-09 06:03:05.85	250.64	16.96	-25.6	-26.8	15.3	0.00e+00	0	43	0	3891265536	10	4120
2026-01-09 06:03:06.86	250.51	16.87	-25.4	-26.4	15.5	0.00e+00	0	43	0	3898605568	10	4030
2026-01-09 06:03:07.86	250.39	16.77	-25.4	-26.3	15.5	0.00e+00	0	43	0	3905945600	10	3995
2026-01-09 06:03:08.86	250.26	16.67	-25.5	-26.6	15.3	0.00e+00	0	43	0	3913285632	10	4084
2026-01-09 06:03:09.86	250.14	16.58	-25.4	-26.3	15.5	0.00e+00	0	43	0	3920625664	10	3995
2026-01-09 06:03:10.86	250.01	16.48	-25.2	-25.9	15.7	0.00e+00	0	43	0	3927965696	10	3901
2026-01-09 06:03:11.85	249.89	16.39	-25.2	-25.9	15.7	0.00e+00	0	43	0	3934257152	10	3906
2026-01-09 06:03:12.86	249.77	16.29	-25.1	-25.6	15.8	0.00e+00	0	43	0	3941597184	10	3841
2026-01-09 06:03:13.86	249.65	16.20	-24.8	-25.0	16.2	0.00e+00	0	43	0	3948937216	10	3698
2026-01-09 06:03:14.87	249.53	16.10	-24.6	-24.6	16.4	0.00e+00	0	43	0	3956277248	10	3608
2026-01-09 06:03:15.88	249.41	16.01	-24.5	-24.5	16.5	0.00e+00	0	43	0	3963617280	10	3572
2026-01-09 06:03:16.89	249.29	15.91	-24.9	-25.2	16.1	0.00e+00	0	43	0	3970957312	10	3725
2026-01-09 06:03:17.89	249.17	15.82	-24.7	-24.9	16.3	0.00e+00	0	43	0	3978297344	10	3663
2026-01-09 06:03:18.90	249.05	15.72	-24.7	-24.8	16.3	0.00e+00	0	43	0	3985637376	10	3633
2026-01-09 06:03:19.90	248.94	15.63	-24.8	-25.0	16.2	0.00e+00	0	43	0	3992977408	10	3692
2026-01-09 06:03:20.91	248.82	15.54	-24.9	-25.3	16.0	0.00e+00	0	43	0	4000317440	10	3768
2026-01-09 06:03:21.91	248.71	15.44	-24.9	-25.8	16.0	0.00e+00	0	43	0	4007657472	9	3984
2026-01-09 06:03:22.92	248.59	15.35	-24.9	-25.8	16.0	0.00e+00	0	43	0	4014997504	9	3972
2026-01-09 06:03:23.92	248.48	15.26	-25.0	-26.0	15.9	0.00e+00	0	43	0	4021288960	9	4026
2026-01-09 06:03:24.93	248.36	15.17	-25.1	-25.8	15.8	0.00e+00	0	43	0	4028628992	10	3880
2026-01-09 06:03:25.94	248.25	15.07	-25.6	-26.8	15.2	0.00e+00	0	43	0	4035969024	10	4131
2026-01-09 06:03:26.93	248.14	14.98	-25.4	-25.7	15.5	0.00e+00	0	43	0	4043309056	11	3765
2026-01-09 06:03:27.94	248.03	14.89	-25.4	-26.3	15.5	0.00e+00	0	43	0	4050649088	10	4012
2026-01-09 06:03:28.95	247.92	14.80	-25.2	-26.0	15.6	0.00e+00	0	43	0	4057989120	10	3917
2026-01-09 06:03:29.95	247.81	14.71	-25.2	-25.9	15.7	0.00e+00	0	43	0	4065329152	10	3912
2026-01-09 06:03:30.96	247.70	14.62	-25.2	-26.0	15.6	0.00e+00	0	43	0	4072669184	10	3922
2026-01-09 06:03:31.97	247.59	14.52	-25.3	-26.2	15.5	0.00e+00	0	43	0	4080009216	10	3981
2026-01-09 06:03:32.97	247.48	14.43	-25.3	-26.0	15.6	0.00e+00	0	43	0	4087349248	10	3940
2026-01-09 06:03:33.97	247.38	14.34	-25.3	-26.1	15.5	0.00e+00	0	43	0	4094689280	10	3963
2026-01-09 06:03:34.98	247.27	14.25	-25.4	-26.5	15.3	0.00e+00	0	43	0	4100980736	10	4046
2026-01-09 06:03:35.98	247.17	14.16	-25.5	-26.5	15.3	0.00e+00	0	43	0	4108320768	10	4067
2026-01-09 06:03:36.98	247.06	14.07	-25.6	-26.3	15.2	0.00e+00	0	43	0	4115660800	11	3905
2026-01-09 06:03:37.98	246.96	13.99	-25.6	-26.3	15.2	0.00e+00	0	43	0	4123000832	11	3902
2026-01-09 06:03:38.99	246.85	13.90	-25.6	-26.4	15.1	0.00e+00	0	43	0	4130340864	11	3934
2026-01-09 06:03:40.00	246.75	13.81	-25.6	-26.3	15.1	0.00e+00	0	43	0	4137680896	11	3908
2026-01-09 06:03:41.01	246.65	13.72	-25.8	-26.7	14.9	2.20e-06	0	43	0	4145020928	11	3996
2026-01-09 06:03:42.01	246.55	13.63	-25.7	-26.5	15.0	0.00e+00	0	43	0	4152360960	11	3948
2026-01-09 06:03:43.02	246.44	13.54	-25.5	-26.0	15.3	0.00e+00	0	43	0	4159700992	11	3834
2026-01-09 06:03:44.03	246.34	13.45	-25.5	-26.1	15.2	2.20e-06	0	43	0	4167041024	11	3858
2026-01-09 06:03:45.03	246.24	13.36	-25.4	-26.0	15.3	0.00e+00	0	43	0	4174381056	11	3817
2026-01-09 06:03:46.04	246.14	13.28	-25.4	-26.4	15.3	0.00e+00	0	43	0	4181721088	10	4024
2026-01-09 06:03:47.04	246.05	13.19	-25.4	-26.4	13.6	0.00e+00	0	43	0	4189061120	10	4021
2026-01-09 06:03:48.06	245.95	13.10	-25.4	-26.3	15.2	0.00e+00	0	43	0	4196401152	10	4005
2026-01-09 06:03:49.06	245.85	13.01	-25.4	-26.3	15.3	0.00e+00	0	43	0	4203741184	10	4015
2026-01-09 06:03:50.07	245.75	12.93	-25.4	-26.3	15.4	6.49e-04	0	43	0	4210032640	10	4001
2026-01-09 06:03:51.08	245.66	12.84	-25.5	-26.5	15.2	0.00e+00	0	43	0	4217372672	10	4050
2026-01-09 06:03:52.08	245.56	12.75	-25.4	-26.5	15.2	0.00e+00	0	43	0	4224712704	10	4046
2026-01-09 06:03:53.09	245.46	12.67	-25.5	-26.7	15.1	1.10e-06	0	43	0	4232052736	10	4104
2026-01-09 06:03:54.09	245.37	12.58	-25.6	-26.7	15.1	0.00e+00	0	43	0	4239392768	10	4115
2026-01-09 06:03:55.10	245.28	12.50	-25.7	-26.6	14.9	0.00e+00	0	43	0	4246732800	11	3974
2026-01-09 06:03:56.11	245.18	12.41	-26.1	-27.3	14.5	1.10e-06	0	43	0	4254072832	11	4164
2026-01-09 06:03:57.10	245.09	12.33	-25.8	-26.8	14.8	3.96e-04	0	43	0	4261412864	11	4026
2026-01-09 06:03:58.11	245.00	12.24	-25.8	-26.7	14.8	0.00e+00	0	43	0	4268752896	11	4010
2026-01-09 06:03:59.12	244.91	12.16	-25.7	-26.5	14.9	0.00e+00	0	43	0	4276092928	11	3962
2026-01-09 06:04:00.12	244.81	12.07	-25.7	-26.5	14.9	3.83e-04	0	43	0	4283432960	11	3961
2026-01-09 06:04:01.13	244.72	11.99	-25.9	-26.9	14.7	0.00e+00	0	43	0	4289724416	11	4048
2026-01-09 06:04:02.12	244.63	11.91	-25.8	-26.7	14.8	3.72e-04	0	43	0	4297064448	11	3999
2026-01-09 06:04:03.13	244.54	11.82	-25.9	-26.9	14.7	3.89e-04	0	43	0	4304404480	11	4053
2026-01-09 06:04:04.14	244.45	11.74	-26.0	-26.8	14.4	0.00e+00	0	43	0	4311744512	12	3919
2026-01-09 06:04:05.15	244.37	11.65	-26.0	-26.7	14.5	4.39e-04	0	43	0	4319084544	12	3896
2026-01-09 06:04:06.15	244.28	11.57	-26.0	-27.3	14.5	4.05e-04	0	43	0	4326424576	11	4154
2026-01-09 06:04:07.16	244.19	11.49	-26.1	-26.8	14.4	0.00e+00	0	43	0	4333764608	12	3943
2026-01-09 06:04:08.16	244.10	11.40	-26.0	-27.2	14.5	4.71e-04	0	43	0	4341104640	11	4139
2026-01-09 06:04:09.16	244.02	11.32	-26.0	-27.2	14.5	4.70e-04	0	43	0	4348444672	11	4126
2026-01-09 06:04:10.16	243.93	11.24	-26.1	-27.3	14.4	0.00e+00	0	43	0	4355784704	11	4171
2026-01-09 06:04:11.17	243.85	11.16	-26.0	-27.2	14.5	1.10e-06	0	43	0	4363124736	11	4144
2026-01-09 06:04:12.17	243.76	11.08	-26.1	-27.3	14.4	3.84e-04	0	43	0	4370464768	11	4175
2026-01-09 06:04:13.18	243.68	10.99	-26.0	-27.3	14.4	1.10e-06	0	43	0	4376756224	11	4165
2026-01-09 06:04:14.18	243.59	10.91	-26.1	-27.4	14.4	3.03e-04	0	43	0	4384096256	11	4177
2026-01-09 06:04:15.19	243.51	10.83	-26.0	-27.2	14.5	2.31e-04	0	43	0	4392484864	11	4137
2026-01-09 06:04:16.20	243.42	10.75	-26.1	-27.4	14.4	0.00e+00	0	43	0	4398776320	11	4183
2026-01-09 06:04:17.21	243.34	10.67	-26.2	-27.2	14.1	1.75e-04	0	43	0	4406116352	12	4045
2026-01-09 06:04:18.21	243.26	10.59	-26.3	-27.5	13.9	1.10e-06	0	43	0	4413456384	12	4107
2026-01-09 06:04:19.22	243.18	10.51	-26.1	-26.8	14.3	2.20e-06	0	43	0	4420796416	12	3940
2026-01-09 06:04:20.22	243.10	10.43	-25.9	-26.5	14.5	1.44e-04	0	43	0	4428136448	12	3866
2026-01-09 06:04:21.23	243.01	10.35	-25.8	-26.3	14.6	0.00e+00	0	43	0	4435476480	12	3809
2026-01-09 06:04:22.24	242.93	10.27	-25.8	-26.3	14.6	0.00e+00	0	43	0	4442816512	12	3804
2026-01-09 06:04:23.24	242.85	10.19	-25.9	-27.1	14.5	0.00e+00	0	43	0	4450156544	11	4104
2026-01-09 06:04:24.24	242.78	10.11	-26.0	-27.2	14.4	0.00e+00	0	43	0	4457496576	11	4133
2026-01-09 06:04:25.25	242.70	10.03	-25.8	-26.8	14.6	1.10e-06	0	43	0	4464836608	11	4037
2026-01-09 06:04:26.26	242.62	9.95	-25.8	-26.7	14.7	0.00e+00	0	43	0	4472176640	11	4011
2026-01-09 06:04:27.26	242.54	9.87	-25.9	-26.9	14.6	1.99e-04	0	43	0	4479516672	11	4052
2026-01-09 06:04:28.27	242.46	9.79	-25.8	-26.8	14.6	0.00e+00	0	43	0	4485808128	11	4029
2026-01-09 06:04:29.28	242.38	9.71	-26.0	-27.2	14.4	0.00e+00	0	43	0	4493148160	11	4145
2026-01-09 06:04:30.28	242.31	9.64	-26.1	-26.9	14.2	2.20e-06	0	43	0	4500488192	12	3966
2026-01-09 06:04:31.29	242.23	9.56	-26.2	-27.3	14.0	3.40e-06	0	43	0	4507828224	12	4063
2026-01-09 06:04:32.29	242.15	9.48	-26.3	-27.4	13.9	2.20e-06	0	43	0	4515168256	12	4098
2026-01-09 06:04:33.31	242.08	9.40	-26.5	-27.8	13.7	6.80e-06	0	43	0	4522508288	12	4187
2026-01-09 06:04:34.32	242.00	9.32	-26.1	-27.0	14.1	0.00e+00	0	43	0	4529848320	12	3993
2026-01-09 06:04:35.32	241.93	9.25	-26.0	-26.7	14.3	1.10e-06	0	43	0	4537188352	12	3915
2026-01-09 06:04:36.33	241.85	9.17	-26.2	-27.2	14.0	1.10e-06	0	43	0	4544528384	12	4050
2026-01-09 06:04:37.34	241.78	9.09	-26.4	-27.7	13.7	9.10e-06	0	43	0	4551868416	12	4164
2026-01-09 06:04:38.35	241.70	9.02	-26.6	-28.1	13.5	6.80e-06	0	43	0	4559208448	12	4270
2026-01-09 06:04:39.35	241.63	8.94	-26.7	-27.8	13.3	8.00e-06	0	43	0	4566548480	13	4102
2026-01-09 06:04:40.36	241.56	8.86	-26.8	-28.0	13.2	2.51e-05	0	43	0	4573888512	13	4164
2026-01-09 06:04:41.36	241.49	8.79	-26.8	-28.0	13.2	3.31e-05	0	43	0	4581228544	13	4153
2026-01-09 06:04:42.36	241.41	8.71	-26.9	-28.2	13.1	3.08e-05	0	43	0	4587520000	13	4208
2026-01-09 06:04:43.37	241.34	8.64	-26.9	-28.3	13.0	3.89e-05	0	43	0	4594860032	13	4238
2026-01-09 06:04:44.37	241.27	8.56	-27.0	-28.6	12.8	4.69e-05	0	43	0	4602200064	13	4331
2026-01-09 06:04:45.38	241.20	8.48	-27.1	-28.3	12.7	5.60e-05	0	43	0	4609540096	14	4129
2026-01-09 06:04:46.39	241.13	8.41	-27.1	-28.3	12.7	7.09e-05	0	43	0	4616880128	14	4138
2026-01-09 06:04:47.39	241.06	8.33	-27.1	-28.3	12.7	5.49e-05	0	43	0	4624220160	14	4141
2026-01-09 06:04:48.40	240.99	8.26	-27.2	-28.4	12.6	9.95e-05	0	43	0	4631560192	14	4163
2026-01-09 06:04:49.41	240.92	8.18	-27.2	-28.4	12.6	9.15e-05	0	43	0	4638900224	14	4164
2026-01-09 06:04:50.42	240.85	8.11	-27.2	-28.5	12.6	1.03e-04	0	43	0	4646240256	14	4186
2026-01-09 06:04:51.42	240.78	8.04	-27.1	-28.3	12.7	6.17e-05	0	43	0	4653580288	14	4122
2026-01-09 06:04:52.43	240.71	7.96	-27.0	-28.7	12.7	7.32e-05	0	43	0	4660920320	13	4340
2026-01-09 06:04:53.44	240.65	7.89	-27.1	-28.7	12.7	3.63e-03	0	43	0	4668260352	13	4355
2026-01-09 06:04:54.44	240.58	7.81	-27.0	-28.6	12.7	6.75e-05	0	43	0	4675600384	13	4333
2026-01-09 06:04:55.45	240.51	7.74	-27.1	-28.4	12.6	3.55e-03	0	43	0	4682940416	14	4161
2026-01-09 06:04:56.44	240.44	7.67	-27.3	-28.7	12.4	1.11e-04	0	43	0	4690280448	14	4243
2026-01-09 06:04:57.44	240.38	7.59	-27.3	-28.7	12.4	3.60e-04	0	43	0	4696571904	14	4237
2026-01-09 06:04:58.45	240.31	7.52	-27.3	-28.8	12.3	3.73e-03	0	43	0	4703911936	14	4263
2026-01-09 06:04:59.45	240.25	7.45	-27.2	-28.6	12.4	1.42e-04	0	43	0	4711251968	14	4221
2026-01-09 06:05:00.46	240.18	7.37	-27.1	-28.3	12.6	1.75e-04	0	43	0	4718592000	14	4136
2026-01-09 06:05:01.47	240.12	7.30	-27.2	-28.5	12.4	2.44e-03	0	43	0	4725932032	14	4193
2026-01-09 06:05:02.48	240.05	7.23	-27.3	-28.7	12.3	3.21e-03	0	43	0	4733272064	14	4243
2026-01-09 06:05:03.48	239.99	7.16	-27.1	-28.2	12.6	1.12e-04	0	43	0	4740612096	14	4108
2026-01-09 06:05:04.49	239.92	7.08	-32.6	-41.6	3.8	4.47e-01	0	43	104	4746903552	25	10218
2026-01-09 06:05:05.50	239.86	7.01	-33.0	-42.8	3.8	8.46e-01	0	43	104	4746903552	25	11200

#Closed at: 2026-01-09 06:05:06
#Recorded file [4746 MB]: D:/data/31010_260109_085406.dat