passes_logs/2026/01/09/R2M6_AANII_01/R2M6_AANII_01__20260109_112046_SUOMI_NPP_rec.log

#Pass ID: 20260109_112046_SUOMI NPP
#Satellite: SUOMI NPP
#Configuration: NPP
#almurnet v.1.7.20240730
#Start time: 2026-01-09 11:20:45

#Version: 2.2.20231116
#Station: R2M6_AANII_01
#Location: 30.233357 lon 59.946436 lat
#TLE: 1 37849U 11061A   26008.05542337  .00000108  00000+0  71976-4 0  9997
#TLE: 2 37849  98.7805 310.1641 0002540  75.6410 284.5048 14.19523335735721

#Time	Az	El	Level	Level2	SNR	BER	BlckErr	Temp	State	Recorded	gain1	gain2
2026-01-09 11:20:45.92	190.48	6.98	-30.9	-33.8	5.3	1.23e+00	0	40	0	0	23	5027
2026-01-09 11:20:46.92	190.53	7.05	-31.5	-36.0	4.9	1.28e+00	0	40	104	0	23	6089
2026-01-09 11:20:47.93	190.59	7.12	-31.5	-36.1	7.6	1.01e-01	0	40	0	0	23	6123
2026-01-09 11:20:48.94	190.65	7.20	-31.2	-34.8	8.6	6.15e-02	0	40	0	1048576	23	5450
2026-01-09 11:20:49.94	190.71	7.27	-31.4	-35.8	7.9	5.42e-02	0	40	0	3145728	23	5936
2026-01-09 11:20:50.95	190.77	7.34	-31.2	-34.9	8.6	4.80e-02	0	40	0	5242880	23	5473
2026-01-09 11:20:51.96	190.83	7.42	-31.1	-34.2	9.1	3.05e-02	0	40	0	7340032	23	5146
2026-01-09 11:20:52.97	190.89	7.49	-30.9	-33.5	9.6	1.41e-02	0	40	0	9437184	23	4859
2026-01-09 11:20:53.97	190.95	7.57	-30.8	-33.2	9.9	9.77e-03	0	40	0	10485760	23	4752
2026-01-09 11:20:54.97	191.01	7.64	-30.6	-33.1	10.4	7.75e-03	0	40	0	12582912	22	4788
2026-01-09 11:20:55.97	191.08	7.72	-30.7	-33.3	10.2	4.22e-03	0	40	0	14680064	22	4878
2026-01-09 11:20:56.97	191.14	7.79	-30.8	-33.8	9.9	8.20e-03	0	40	0	16777216	22	5052
2026-01-09 11:20:57.98	191.20	7.86	-30.7	-33.2	10.3	6.83e-03	0	40	0	18874368	22	4819
2026-01-09 11:20:58.98	191.26	7.94	-30.5	-32.7	10.7	3.31e-03	0	40	0	19922944	22	4627
2026-01-09 11:20:59.99	191.32	8.02	-30.6	-32.9	10.6	3.55e-03	0	41	0	22020096	22	4682
2026-01-09 11:21:01.00	191.39	8.09	-30.6	-32.9	10.6	3.76e-03	0	41	0	24117248	22	4686
2026-01-09 11:21:02.00	191.45	8.17	-30.5	-32.6	10.8	2.90e-03	0	41	0	26214400	22	4591
2026-01-09 11:21:03.00	191.51	8.24	-30.5	-32.7	10.8	2.31e-03	0	40	0	28311552	22	4599
2026-01-09 11:21:04.00	191.58	8.32	-30.6	-32.7	10.8	1.66e-03	0	41	0	29360128	22	4628
2026-01-09 11:21:05.01	191.64	8.39	-30.6	-33.0	10.6	3.39e-03	0	41	0	31457280	22	4715
2026-01-09 11:21:06.02	191.70	8.47	-30.5	-32.5	11.0	1.59e-03	0	41	0	33554432	22	4530
2026-01-09 11:21:07.02	191.77	8.55	-30.7	-33.1	10.6	2.46e-03	0	40	0	35651584	22	4766
2026-01-09 11:21:08.03	191.83	8.62	-30.5	-32.5	11.0	2.99e-03	0	41	0	37748736	22	4531
2026-01-09 11:21:09.04	191.90	8.70	-30.6	-32.7	10.9	2.01e-03	0	41	0	38797312	22	4581
2026-01-09 11:21:10.04	191.97	8.78	-30.6	-32.7	10.9	2.96e-03	0	41	0	40894464	22	4608
2026-01-09 11:21:11.05	192.03	8.86	-30.5	-32.5	11.0	1.62e-03	0	41	0	42991616	22	4533
2026-01-09 11:21:12.06	192.10	8.94	-30.6	-32.8	10.8	2.39e-03	0	41	0	45088768	22	4637
2026-01-09 11:21:13.07	192.17	9.01	-30.5	-32.4	11.2	1.84e-03	0	41	0	46137344	22	4476
2026-01-09 11:21:14.07	192.23	9.09	-30.6	-33.0	10.7	2.11e-03	0	41	0	48234496	22	4732
2026-01-09 11:21:15.08	192.30	9.17	-30.5	-32.5	11.1	2.01e-03	0	41	0	50331648	22	4534
2026-01-09 11:21:16.09	192.37	9.25	-30.5	-32.5	11.1	1.30e-03	0	41	0	52428800	22	4504
2026-01-09 11:21:17.09	192.44	9.33	-30.6	-32.8	10.8	2.10e-03	0	41	0	54525952	22	4645
2026-01-09 11:21:18.10	192.50	9.41	-30.6	-32.8	10.8	2.26e-03	0	41	0	56623104	22	4653
2026-01-09 11:21:19.10	192.57	9.49	-30.5	-32.3	11.1	1.71e-03	0	41	0	57671680	22	4468
2026-01-09 11:21:20.10	192.64	9.56	-30.3	-32.0	11.3	1.44e-03	0	41	0	59768832	22	4375
2026-01-09 11:21:21.11	192.71	9.64	-30.4	-32.3	11.1	1.40e-03	0	41	0	61865984	22	4457
2026-01-09 11:21:22.11	192.78	9.72	-30.6	-32.8	10.7	2.92e-03	0	41	0	63963136	22	4652
2026-01-09 11:21:23.12	192.85	9.80	-30.6	-32.7	10.8	2.23e-03	0	41	0	65011712	22	4602
2026-01-09 11:21:24.12	192.92	9.88	-30.6	-32.9	10.7	2.13e-03	0	41	0	67108864	22	4676
2026-01-09 11:21:25.13	192.99	9.97	-30.4	-32.4	11.1	3.00e-03	0	41	0	69206016	22	4501
2026-01-09 11:21:26.13	193.06	10.05	-30.5	-32.4	11.0	1.60e-03	0	41	0	71303168	22	4520
2026-01-09 11:21:27.14	193.14	10.13	-30.5	-32.7	10.8	1.87e-03	0	41	0	73400320	22	4623
2026-01-09 11:21:28.14	193.21	10.21	-30.3	-32.1	11.3	1.60e-03	0	41	0	74448896	22	4392
2026-01-09 11:21:29.15	193.28	10.29	-30.2	-32.3	11.4	9.89e-04	0	41	0	76546048	21	4550
2026-01-09 11:21:30.16	193.35	10.37	-30.2	-32.2	11.5	9.96e-04	0	41	0	78643200	21	4513
2026-01-09 11:21:31.16	193.43	10.45	-30.2	-32.2	11.4	9.52e-04	0	41	0	80740352	21	4544
2026-01-09 11:21:32.17	193.50	10.54	-30.1	-32.0	11.6	6.51e-04	0	41	0	82837504	21	4455
2026-01-09 11:21:33.18	193.58	10.62	-30.0	-31.5	12.0	4.68e-04	0	41	0	84934656	21	4280
2026-01-09 11:21:34.19	193.65	10.70	-29.9	-31.4	12.0	2.94e-04	0	41	0	85983232	21	4249
2026-01-09 11:21:35.19	193.72	10.79	-30.0	-31.5	11.9	2.57e-04	0	41	0	88080384	21	4302
2026-01-09 11:21:36.19	193.80	10.87	-30.0	-31.6	11.9	3.17e-04	0	41	0	90177536	21	4320
2026-01-09 11:21:37.19	193.87	10.95	-30.1	-31.7	11.8	5.17e-04	0	41	0	92274688	21	4354
2026-01-09 11:21:38.20	193.95	11.03	-30.0	-31.6	11.9	4.47e-04	0	41	0	93323264	21	4321
2026-01-09 11:21:39.20	194.03	11.12	-30.0	-31.7	11.9	4.57e-04	0	42	0	95420416	21	4331
2026-01-09 11:21:40.21	194.10	11.20	-29.9	-31.1	12.4	2.27e-04	0	41	0	97517568	21	4137
2026-01-09 11:21:41.22	194.18	11.29	-29.8	-31.4	12.5	1.28e-04	0	42	0	99614720	20	4317
2026-01-09 11:21:42.23	194.26	11.37	-30.0	-31.9	12.2	1.79e-04	0	42	0	101711872	20	4491
2026-01-09 11:21:43.23	194.34	11.46	-29.9	-31.6	12.4	1.59e-04	0	41	0	102760448	20	4386
2026-01-09 11:21:44.24	194.42	11.54	-30.0	-31.8	12.3	1.65e-04	0	41	0	104857600	20	4445
2026-01-09 11:21:45.24	194.50	11.63	-30.1	-32.2	12.0	2.82e-04	0	42	0	106954752	20	4583
2026-01-09 11:21:46.25	194.58	11.71	-29.8	-31.4	12.6	1.29e-04	0	41	0	109051904	20	4308
2026-01-09 11:21:47.26	194.66	11.80	-29.8	-31.1	12.8	7.01e-05	0	42	0	111149056	20	4224
2026-01-09 11:21:48.27	194.74	11.89	-29.7	-31.0	12.9	4.57e-05	0	42	0	112197632	20	4171
2026-01-09 11:21:49.28	194.82	11.97	-29.6	-30.8	13.0	4.04e-05	0	42	0	114294784	20	4125
2026-01-09 11:21:50.28	194.90	12.06	-29.6	-30.8	13.0	4.95e-05	0	42	0	116391936	20	4131
2026-01-09 11:21:51.29	194.98	12.15	-29.7	-31.0	12.9	4.34e-05	0	42	0	118489088	20	4182
2026-01-09 11:21:52.30	195.06	12.23	-29.6	-30.8	13.0	3.43e-05	0	41	0	120586240	20	4142
2026-01-09 11:21:53.30	195.15	12.32	-29.8	-31.2	12.7	7.47e-05	0	42	0	121634816	20	4264
2026-01-09 11:21:54.31	195.23	12.41	-29.9	-31.5	12.4	1.07e-04	0	42	0	123731968	20	4353
2026-01-09 11:21:55.32	195.31	12.50	-29.6	-30.6	13.0	4.57e-05	0	42	0	125829120	20	4079
2026-01-09 11:21:56.33	195.40	12.59	-29.4	-30.3	13.2	3.58e-05	0	42	0	127926272	20	3989
2026-01-09 11:21:57.34	195.48	12.68	-29.4	-30.2	13.4	1.83e-05	0	42	0	130023424	20	3947
2026-01-09 11:21:58.34	195.57	12.76	-29.4	-30.6	13.5	9.90e-06	0	42	0	131072000	19	4155
2026-01-09 11:21:59.35	195.65	12.85	-29.4	-30.7	13.5	9.10e-06	0	42	0	133169152	19	4171
2026-01-09 11:22:00.35	195.74	12.94	-29.3	-30.4	13.8	6.10e-06	0	42	0	135266304	19	4063
2026-01-09 11:22:01.36	195.83	13.03	-29.7	-31.5	13.0	8.30e-06	0	42	0	137363456	19	4428
2026-01-09 11:22:02.37	195.91	13.12	-29.4	-30.5	13.8	1.22e-05	0	42	0	139460608	19	4089
2026-01-09 11:22:03.37	196.00	13.21	-29.4	-30.7	13.7	2.20e-06	0	42	0	140509184	19	4151
2026-01-09 11:22:04.37	196.09	13.30	-29.6	-31.0	13.5	7.60e-06	0	42	0	142606336	19	4256
2026-01-09 11:22:05.38	196.18	13.39	-29.5	-30.9	13.5	1.75e-05	0	42	0	144703488	19	4228
2026-01-09 11:22:06.38	196.27	13.48	-29.6	-31.0	13.5	1.06e-05	0	42	0	146800640	19	4254
2026-01-09 11:22:07.39	196.36	13.58	-29.6	-31.1	13.4	1.60e-05	0	42	0	148897792	19	4273
2026-01-09 11:22:08.38	196.44	13.67	-29.6	-31.1	13.4	5.30e-06	0	42	0	149946368	19	4279
2026-01-09 11:22:09.39	196.54	13.76	-29.7	-31.2	13.3	2.05e-05	0	42	0	152043520	19	4320
2026-01-09 11:22:10.39	196.63	13.85	-29.7	-31.3	13.3	1.67e-05	0	42	0	154140672	19	4352
2026-01-09 11:22:11.39	196.72	13.94	-29.7	-31.4	13.3	2.28e-05	0	42	0	156237824	19	4370
2026-01-09 11:22:12.40	196.81	14.03	-29.6	-31.1	13.5	1.75e-05	0	42	0	158334976	19	4263
2026-01-09 11:22:13.40	196.90	14.13	-29.7	-31.3	13.4	1.60e-05	0	42	0	159383552	19	4334
2026-01-09 11:22:14.41	197.00	14.22	-29.6	-31.1	13.4	1.67e-05	0	42	0	161480704	19	4278
2026-01-09 11:22:15.40	197.09	14.31	-29.5	-30.8	13.7	8.30e-06	0	42	0	163577856	19	4183
2026-01-09 11:22:16.41	197.18	14.41	-29.5	-30.7	13.7	7.60e-06	0	42	0	165675008	19	4152
2026-01-09 11:22:17.42	197.28	14.50	-29.6	-31.0	13.6	6.80e-06	0	42	0	167772160	19	4234
2026-01-09 11:22:18.42	197.38	14.60	-29.6	-31.2	13.5	5.30e-06	0	42	0	168820736	19	4288
2026-01-09 11:22:19.42	197.47	14.69	-29.8	-31.6	13.1	4.11e-05	0	42	0	170917888	19	4428
2026-01-09 11:22:20.42	197.57	14.78	-29.7	-31.2	13.4	2.59e-05	0	42	0	173015040	19	4304
2026-01-09 11:22:21.43	197.67	14.88	-29.8	-31.5	13.3	2.05e-05	0	42	0	175112192	19	4384
2026-01-09 11:22:22.44	197.76	14.98	-29.8	-31.5	13.3	1.37e-05	0	42	0	177209344	19	4384
2026-01-09 11:22:23.44	197.86	15.07	-29.8	-31.7	13.1	2.67e-05	0	42	0	178257920	19	4466
2026-01-09 11:22:24.45	197.96	15.17	-29.9	-31.9	13.0	4.65e-05	0	42	0	180355072	19	4526
2026-01-09 11:22:25.45	198.06	15.26	-30.0	-31.6	12.7	5.03e-05	0	42	0	182452224	20	4349
2026-01-09 11:22:26.46	198.16	15.36	-30.1	-32.0	12.5	1.04e-04	0	42	0	184549376	20	4465
2026-01-09 11:22:27.47	198.27	15.46	-30.0	-31.6	12.7	6.17e-05	0	42	0	186646528	20	4357
2026-01-09 11:22:28.48	198.37	15.56	-29.8	-31.2	13.0	4.42e-05	0	42	0	187695104	20	4205
2026-01-09 11:22:29.48	198.47	15.65	-29.7	-31.0	13.2	3.20e-05	0	42	0	189792256	20	4162
2026-01-09 11:22:30.48	198.57	15.75	-29.8	-31.1	13.0	5.11e-05	0	42	0	191889408	20	4198
2026-01-09 11:22:31.49	198.68	15.85	-29.8	-31.1	13.2	2.74e-05	0	42	0	193986560	20	4170
2026-01-09 11:22:32.50	198.78	15.95	-29.6	-30.7	13.4	2.36e-05	0	42	0	196083712	20	4066
2026-01-09 11:22:33.51	198.89	16.05	-29.8	-31.0	13.2	2.97e-05	0	42	0	197132288	20	4152
2026-01-09 11:22:34.51	198.99	16.15	-30.0	-31.6	12.8	4.11e-05	0	42	0	199229440	20	4351
2026-01-09 11:22:35.52	199.10	16.25	-30.0	-31.6	12.8	6.17e-05	0	42	0	201326592	20	4334
2026-01-09 11:22:36.52	199.21	16.35	-29.9	-31.4	13.0	6.56e-05	0	42	0	203423744	20	4259
2026-01-09 11:22:37.53	199.31	16.45	-30.1	-31.9	12.7	4.19e-05	0	42	0	205520896	20	4441
2026-01-09 11:22:38.53	199.42	16.55	-30.2	-32.4	12.3	9.07e-05	0	42	0	206569472	20	4603
2026-01-09 11:22:39.54	199.53	16.65	-30.1	-31.9	12.6	2.97e-05	0	42	0	208666624	20	4419
2026-01-09 11:22:40.55	199.64	16.75	-30.4	-32.7	12.1	9.30e-05	0	42	0	210763776	20	4710
2026-01-09 11:22:41.56	199.75	16.85	-30.3	-32.0	12.2	3.87e-04	0	42	0	212860928	21	4372
2026-01-09 11:22:42.56	199.86	16.95	-30.0	-31.2	12.8	4.73e-05	0	42	0	214958080	21	4117
2026-01-09 11:22:43.56	199.98	17.06	-30.2	-31.6	12.6	9.46e-05	0	42	0	216006656	21	4240
2026-01-09 11:22:44.56	200.09	17.16	-30.2	-31.6	12.6	1.59e-04	0	42	0	218103808	21	4227
2026-01-09 11:22:45.57	200.20	17.26	-30.2	-31.6	12.5	8.08e-05	0	42	0	220200960	21	4255
2026-01-09 11:22:46.57	200.32	17.36	-30.1	-31.4	12.8	6.17e-05	0	42	0	222298112	21	4166
2026-01-09 11:22:47.58	200.43	17.47	-30.2	-31.6	12.5	1.52e-04	0	42	0	224395264	21	4253
2026-01-09 11:22:48.58	200.55	17.57	-30.0	-31.1	13.0	1.11e-04	0	42	0	225443840	21	4083
2026-01-09 11:22:49.58	200.66	17.67	-30.1	-31.3	12.8	4.65e-05	0	42	0	227540992	21	4149
2026-01-09 11:22:50.58	200.78	17.78	-29.9	-30.9	13.0	8.39e-05	0	42	0	229638144	21	4041
2026-01-09 11:22:51.58	200.90	17.88	-29.9	-31.5	13.0	2.59e-05	0	42	0	231735296	20	4293
2026-01-09 11:22:52.59	201.02	17.99	-30.3	-32.3	12.4	9.76e-05	0	42	0	232783872	20	4568
2026-01-09 11:22:53.60	201.14	18.09	-30.0	-31.5	12.9	3.50e-05	0	42	0	234881024	20	4312
2026-01-09 11:22:54.61	201.26	18.20	-30.1	-32.0	12.6	3.58e-05	0	42	0	236978176	20	4469
2026-01-09 11:22:55.62	201.38	18.31	-30.1	-32.0	12.6	6.33e-05	0	42	0	239075328	20	4458
2026-01-09 11:22:56.62	201.50	18.41	-29.8	-31.0	13.3	2.74e-05	0	42	0	241172480	20	4150
2026-01-09 11:22:57.62	201.63	18.52	-29.6	-30.6	13.6	2.36e-05	0	42	0	243269632	20	4029
2026-01-09 11:22:58.63	201.75	18.63	-29.5	-30.3	13.8	6.80e-06	0	42	0	244318208	20	3947
2026-01-09 11:22:59.63	201.87	18.73	-29.6	-30.4	13.7	8.30e-06	0	42	0	246415360	20	3960
2026-01-09 11:23:00.65	202.00	18.84	-29.7	-30.8	13.5	1.29e-05	0	42	0	248512512	20	4074
2026-01-09 11:23:01.65	202.13	18.95	-29.9	-31.2	13.2	5.30e-06	0	42	0	250609664	20	4201
2026-01-09 11:23:02.65	202.25	19.06	-29.8	-31.2	13.2	2.13e-05	0	42	0	251658240	20	4188
2026-01-09 11:23:03.66	202.38	19.17	-29.8	-31.1	13.3	1.52e-05	0	42	0	253755392	20	4174
2026-01-09 11:23:04.66	202.51	19.28	-29.8	-31.1	13.3	1.75e-05	0	42	0	255852544	20	4156
2026-01-09 11:23:05.67	202.64	19.39	-30.0	-31.5	13.0	2.36e-05	0	42	0	257949696	20	4305
2026-01-09 11:23:06.68	202.77	19.50	-30.0	-31.5	13.0	3.35e-05	0	42	0	260046848	20	4290
2026-01-09 11:23:07.68	202.91	19.61	-30.0	-31.5	13.1	3.73e-05	0	42	0	261095424	20	4294
2026-01-09 11:23:08.68	203.04	19.72	-30.1	-31.8	12.8	4.73e-05	0	42	0	263192576	20	4398
2026-01-09 11:23:09.68	203.17	19.83	-29.8	-31.1	13.4	4.42e-05	0	42	0	265289728	20	4159
2026-01-09 11:23:10.69	203.31	19.94	-30.3	-32.3	12.6	6.63e-05	0	42	0	267386880	20	4555
2026-01-09 11:23:11.70	203.44	20.05	-30.3	-32.3	12.5	1.01e-04	0	42	0	269484032	20	4557
2026-01-09 11:23:12.70	203.58	20.16	-30.0	-31.7	13.0	2.13e-05	0	42	0	270532608	20	4350
2026-01-09 11:23:13.71	203.72	20.28	-30.2	-32.0	12.7	4.34e-05	0	42	0	272629760	20	4455
2026-01-09 11:23:14.71	203.85	20.39	-30.4	-32.7	12.3	1.32e-04	0	42	0	274726912	20	4700
2026-01-09 11:23:15.71	203.99	20.50	-30.2	-32.2	12.7	7.78e-05	0	42	0	276824064	20	4502
2026-01-09 11:23:16.72	204.13	20.61	-30.2	-32.3	12.6	1.04e-04	0	42	0	278921216	20	4546
2026-01-09 11:23:17.72	204.28	20.73	-30.6	-32.7	11.9	1.01e-04	0	42	0	279969792	21	4604
2026-01-09 11:23:18.73	204.42	20.84	-30.3	-31.9	12.5	1.94e-04	0	42	0	282066944	21	4316
2026-01-09 11:23:19.74	204.56	20.96	-30.3	-31.9	12.5	1.93e-04	0	42	0	284164096	21	4329
2026-01-09 11:23:20.75	204.71	21.07	-30.5	-32.6	12.0	2.31e-04	0	42	0	286261248	21	4572
2026-01-09 11:23:21.75	204.85	21.19	-30.2	-31.7	12.6	1.90e-04	0	42	0	288358400	21	4255
2026-01-09 11:23:22.76	205.00	21.30	-30.2	-31.6	12.7	5.87e-05	0	42	0	289406976	21	4240
2026-01-09 11:23:23.77	205.15	21.42	-30.4	-32.1	12.5	5.34e-05	0	42	0	291504128	21	4393
2026-01-09 11:23:24.77	205.30	21.53	-30.0	-31.1	13.1	7.32e-05	0	42	0	293601280	21	4058
2026-01-09 11:23:25.77	205.45	21.65	-29.9	-30.7	13.3	2.28e-05	0	42	0	295698432	21	3953
2026-01-09 11:23:26.78	205.60	21.77	-30.0	-31.0	13.1	2.67e-05	0	42	0	297795584	21	4046
2026-01-09 11:23:27.79	205.75	21.88	-30.0	-31.1	13.1	2.89e-05	0	42	0	298844160	21	4073
2026-01-09 11:23:28.80	205.90	22.00	-30.1	-31.3	13.0	3.96e-05	0	42	0	300941312	21	4132
2026-01-09 11:23:29.80	206.06	22.12	-30.2	-31.4	12.9	4.95e-05	0	42	0	303038464	21	4168
2026-01-09 11:23:30.81	206.21	22.24	-30.3	-31.7	12.7	1.23e-04	0	42	0	305135616	21	4249
2026-01-09 11:23:31.81	206.37	22.36	-30.4	-32.1	12.5	9.00e-05	0	42	0	307232768	21	4382
2026-01-09 11:23:32.82	206.53	22.48	-30.4	-32.3	12.4	6.10e-05	0	42	0	308281344	21	4441
2026-01-09 11:23:33.83	206.69	22.60	-30.2	-31.5	12.8	7.62e-05	0	42	0	310378496	21	4196
2026-01-09 11:23:34.83	206.85	22.71	-30.2	-31.5	12.9	3.96e-05	0	42	0	312475648	21	4202
2026-01-09 11:23:35.84	207.01	22.83	-30.1	-31.3	13.1	3.28e-05	0	42	0	314572800	21	4115
2026-01-09 11:23:36.84	207.17	22.95	-30.3	-31.7	12.7	7.55e-05	0	42	0	316669952	21	4245
2026-01-09 11:23:37.85	207.34	23.08	-30.2	-31.4	13.0	6.94e-05	0	42	0	317718528	21	4162
2026-01-09 11:23:38.86	207.50	23.20	-30.2	-31.4	13.0	2.89e-05	0	42	0	319815680	21	4139
2026-01-09 11:23:39.87	207.67	23.32	-30.1	-31.3	13.1	2.51e-05	0	42	0	321912832	21	4116
2026-01-09 11:23:40.87	207.84	23.44	-30.0	-30.9	13.3	3.35e-05	0	42	0	324009984	21	4016
2026-01-09 11:23:41.88	208.01	23.56	-29.9	-30.8	13.4	2.13e-05	0	42	0	326107136	21	3967
2026-01-09 11:23:42.88	208.18	23.68	-29.7	-30.7	13.7	7.60e-06	0	42	0	327155712	20	4041
2026-01-09 11:23:43.88	208.35	23.80	-29.5	-30.2	14.1	6.80e-06	0	42	0	329252864	20	3885
2026-01-09 11:23:44.88	208.52	23.93	-29.4	-30.4	14.4	7.00e-07	0	42	0	331350016	19	4008
2026-01-09 11:23:45.88	208.69	24.05	-29.4	-30.3	14.5	0.00e+00	0	42	0	333447168	19	3992
2026-01-09 11:23:46.89	208.87	24.17	-29.3	-30.1	14.6	4.50e-06	0	42	0	335544320	19	3941
2026-01-09 11:23:47.90	209.05	24.30	-29.5	-30.4	14.3	2.20e-06	0	42	0	336592896	19	4037
2026-01-09 11:23:48.91	209.23	24.42	-29.5	-30.5	14.3	7.00e-07	0	42	0	338690048	19	4045
2026-01-09 11:23:49.91	209.40	24.55	-29.3	-30.0	14.6	1.50e-06	0	42	0	340787200	19	3902
2026-01-09 11:23:50.92	209.59	24.67	-29.5	-30.6	14.2	0.00e+00	0	42	0	342884352	19	4096
2026-01-09 11:23:51.92	209.77	24.79	-29.6	-30.9	14.1	7.00e-07	0	42	0	344981504	19	4161
2026-01-09 11:23:52.93	209.95	24.92	-29.9	-31.7	13.6	1.37e-05	0	42	0	346030080	19	4404
2026-01-09 11:23:53.94	210.14	25.05	-30.0	-31.3	13.4	1.22e-05	0	42	0	348127232	20	4213
2026-01-09 11:23:54.94	210.32	25.17	-30.0	-31.5	13.3	1.52e-05	0	42	0	350224384	20	4271
2026-01-09 11:23:55.95	210.51	25.30	-30.0	-31.3	13.4	2.67e-05	0	42	0	352321536	20	4206
2026-01-09 11:23:56.96	210.70	25.42	-29.8	-31.0	13.6	1.22e-05	0	42	0	354418688	20	4109
2026-01-09 11:23:57.97	210.90	25.55	-29.6	-30.5	13.9	8.30e-06	0	42	0	355467264	20	3972
2026-01-09 11:23:58.98	211.09	25.68	-29.6	-30.4	14.0	1.50e-06	0	42	0	357564416	20	3925
2026-01-09 11:23:59.98	211.28	25.81	-29.7	-30.7	13.8	4.50e-06	0	42	0	359661568	20	4032
2026-01-09 11:24:00.98	211.48	25.93	-29.6	-30.4	14.0	2.20e-06	0	42	0	361758720	20	3948
2026-01-09 11:24:01.99	211.67	26.06	-29.9	-31.2	13.5	4.50e-06	0	42	0	363855872	20	4172
2026-01-09 11:24:03.00	211.87	26.19	-29.9	-31.1	13.6	4.50e-06	0	42	0	364904448	20	4133
2026-01-09 11:24:04.00	212.07	26.32	-30.0	-31.5	13.4	1.06e-05	0	42	0	367001600	20	4275
2026-01-09 11:24:05.00	212.27	26.44	-30.2	-31.9	13.1	3.12e-05	0	42	0	369098752	20	4404
2026-01-09 11:24:06.01	212.48	26.57	-30.3	-32.2	12.9	7.40e-05	0	43	0	371195904	20	4494
2026-01-09 11:24:07.01	212.68	26.70	-30.3	-32.3	12.8	5.34e-05	0	43	0	373293056	20	4519
2026-01-09 11:24:08.02	212.89	26.83	-30.6	-32.5	12.3	6.17e-05	0	42	0	374341632	21	4488
2026-01-09 11:24:09.02	213.10	26.96	-30.8	-33.2	11.9	3.55e-04	0	42	0	376438784	21	4731
2026-01-09 11:24:10.03	213.31	27.09	-30.6	-32.7	12.2	1.65e-04	0	42	0	378535936	21	4554
2026-01-09 11:24:11.03	213.52	27.22	-30.3	-31.7	12.9	1.46e-04	0	43	0	380633088	21	4238
2026-01-09 11:24:12.04	213.73	27.35	-30.2	-31.4	13.1	3.58e-05	0	42	0	382730240	21	4157
2026-01-09 11:24:13.05	213.95	27.48	-30.3	-31.6	12.9	4.73e-05	0	42	0	383778816	21	4201
2026-01-09 11:24:14.05	214.17	27.61	-30.4	-32.0	12.8	6.79e-05	0	43	0	385875968	21	4313
2026-01-09 11:24:15.05	214.38	27.74	-30.5	-32.4	12.5	7.55e-05	0	42	0	387973120	21	4447
2026-01-09 11:24:16.06	214.60	27.87	-30.5	-32.2	12.5	1.23e-04	0	42	0	390070272	21	4389
2026-01-09 11:24:17.06	214.83	28.00	-30.7	-32.9	12.1	1.67e-04	0	42	0	391118848	21	4645
2026-01-09 11:24:18.07	215.05	28.13	-30.8	-33.3	11.8	2.83e-04	0	42	0	393216000	21	4795
2026-01-09 11:24:19.08	215.28	28.27	-31.1	-33.7	11.2	7.52e-04	0	42	0	395313152	22	4841
2026-01-09 11:24:20.08	215.50	28.40	-31.0	-33.4	11.5	8.00e-04	0	42	0	397410304	22	4715
2026-01-09 11:24:21.08	215.73	28.53	-31.2	-33.8	11.1	9.96e-04	0	42	0	399507456	22	4863
2026-01-09 11:24:22.09	215.96	28.66	-30.9	-32.8	11.8	5.91e-04	0	42	0	401604608	22	4516
2026-01-09 11:24:23.09	216.20	28.79	-30.5	-31.8	12.6	2.10e-04	0	42	0	402653184	22	4183
2026-01-09 11:24:24.11	216.43	28.92	-30.5	-31.6	12.7	9.76e-05	0	43	0	404750336	22	4101
2026-01-09 11:24:25.11	216.67	29.06	-30.5	-32.4	12.5	4.50e-05	0	42	0	406847488	21	4451
2026-01-09 11:24:26.12	216.91	29.19	-30.4	-32.0	12.8	7.24e-05	0	43	0	408944640	21	4317
2026-01-09 11:24:27.12	217.15	29.32	-30.5	-32.2	12.6	6.71e-05	0	43	0	409993216	21	4405
2026-01-09 11:24:28.13	217.39	29.45	-30.7	-32.7	12.3	1.59e-04	0	42	0	412090368	21	4578
2026-01-09 11:24:29.14	217.64	29.59	-30.8	-33.3	11.9	3.08e-04	0	42	0	414187520	21	4763
2026-01-09 11:24:30.13	217.88	29.72	-30.9	-32.8	11.8	7.60e-04	0	43	0	416284672	22	4517
2026-01-09 11:24:31.14	218.13	29.85	-30.5	-31.7	12.6	1.85e-04	0	43	0	418381824	22	4147
2026-01-09 11:24:32.15	218.38	29.98	-30.4	-31.4	12.8	7.70e-05	0	42	0	419430400	22	4040
2026-01-09 11:24:33.15	218.63	30.11	-30.3	-31.6	13.0	5.11e-05	0	42	0	421527552	21	4206
2026-01-09 11:24:34.15	218.89	30.25	-30.3	-31.7	13.1	3.28e-05	0	43	0	423624704	21	4212
2026-01-09 11:24:35.16	219.14	30.38	-30.1	-31.2	13.3	2.67e-05	0	42	0	425721856	21	4083
2026-01-09 11:24:36.17	219.40	30.51	-30.3	-31.7	13.0	3.20e-05	0	42	0	427819008	21	4216
2026-01-09 11:24:37.17	219.66	30.64	-30.5	-32.2	12.7	8.54e-05	0	43	0	429916160	21	4407
2026-01-09 11:24:38.18	219.93	30.78	-30.5	-32.4	12.5	1.09e-04	0	42	0	430964736	21	4460
2026-01-09 11:24:39.19	220.19	30.91	-30.8	-33.1	12.0	2.24e-04	0	42	0	433061888	21	4699
2026-01-09 11:24:40.19	220.46	31.04	-30.7	-32.8	12.2	2.99e-04	0	42	0	435159040	21	4608
2026-01-09 11:24:41.20	220.73	31.17	-30.8	-33.3	11.9	1.87e-04	0	43	0	437256192	21	4753
2026-01-09 11:24:42.20	221.00	31.30	-31.0	-33.7	11.7	4.26e-04	0	43	0	438304768	21	4905
2026-01-09 11:24:43.21	221.27	31.44	-30.7	-32.5	12.2	1.98e-04	0	43	0	440401920	22	4396
2026-01-09 11:24:44.21	221.55	31.57	-30.7	-32.3	12.3	1.70e-04	0	42	0	442499072	22	4320
2026-01-09 11:24:45.22	221.83	31.70	-30.8	-32.5	12.2	2.30e-04	0	43	0	444596224	22	4386
2026-01-09 11:24:46.23	222.11	31.83	-30.9	-32.7	11.9	5.20e-04	0	43	0	446693376	22	4475
2026-01-09 11:24:47.23	222.39	31.96	-31.0	-33.1	11.7	3.71e-04	0	42	0	447741952	22	4614
2026-01-09 11:24:48.23	222.67	32.09	-31.1	-33.4	11.5	6.35e-04	0	42	0	449839104	22	4714
2026-01-09 11:24:49.24	222.96	32.23	-31.3	-34.1	11.0	1.31e-03	0	42	0	451936256	22	4988
2026-01-09 11:24:50.24	223.25	32.36	-31.7	-35.1	10.0	6.47e-03	0	43	0	454033408	23	5301
2026-01-09 11:24:51.24	223.54	32.49	-32.0	-35.8	9.0	1.26e-02	0	42	0	456130560	24	5549
2026-01-09 11:24:52.25	223.84	32.62	-32.4	-37.2	7.9	6.94e-02	0	42	0	457179136	24	6279
2026-01-09 11:24:53.26	224.13	32.75	-32.5	-37.2	7.5	9.36e-02	0	43	0	459276288	25	6201
2026-01-09 11:24:54.26	224.43	32.88	-32.5	-37.1	7.6	1.43e-01	0	42	0	461373440	25	6156
2026-01-09 11:24:55.27	224.73	33.01	-32.1	-35.5	8.8	5.71e-02	0	43	0	463470592	25	5312
2026-01-09 11:24:56.28	225.04	33.14	-31.8	-34.4	9.8	1.60e-02	0	43	0	465567744	25	4823
2026-01-09 11:24:57.28	225.34	33.27	-31.9	-35.1	9.6	1.17e-02	0	42	0	466616320	24	5229
2026-01-09 11:24:58.28	225.65	33.39	-32.0	-35.5	9.2	1.21e-02	0	43	0	468713472	24	5405
2026-01-09 11:24:59.29	225.96	33.52	-32.0	-35.6	9.3	1.57e-02	0	43	0	470810624	24	5434
2026-01-09 11:25:00.30	226.27	33.65	-32.2	-36.3	8.7	3.90e-02	0	43	0	472907776	24	5783
2026-01-09 11:25:01.29	226.58	33.78	-32.2	-36.2	8.7	4.19e-02	0	43	0	475004928	24	5739
2026-01-09 11:25:02.30	226.90	33.90	-32.4	-37.0	8.1	6.04e-02	0	43	0	476053504	24	6135
2026-01-09 11:25:03.29	227.22	34.03	-32.2	-36.4	8.5	5.26e-02	0	43	0	478150656	24	5820
2026-01-09 11:25:04.30	227.54	34.15	-32.2	-36.3	8.7	2.59e-02	0	43	0	480247808	24	5770
2026-01-09 11:25:05.30	227.87	34.28	-31.9	-35.3	9.5	3.01e-02	0	43	0	482344960	24	5282
2026-01-09 11:25:06.31	228.19	34.41	-31.8	-34.7	9.9	1.03e-02	0	42	0	484442112	24	5043
2026-01-09 11:25:07.31	228.52	34.53	-31.8	-34.7	9.9	1.24e-02	0	43	0	485490688	24	5031
2026-01-09 11:25:08.32	228.86	34.65	-31.8	-34.8	9.9	8.57e-03	0	42	0	487587840	24	5069
2026-01-09 11:25:09.33	229.19	34.78	-31.8	-34.8	9.8	1.26e-02	0	43	0	489684992	24	5069
2026-01-09 11:25:10.33	229.53	34.90	-32.0	-35.4	9.4	1.51e-02	0	43	0	491782144	24	5357
2026-01-09 11:25:11.33	229.87	35.02	-32.1	-36.0	9.2	2.03e-02	0	43	0	493879296	24	5629
2026-01-09 11:25:12.34	230.21	35.14	-32.1	-36.1	8.9	2.91e-02	0	43	0	494927872	24	5666
2026-01-09 11:25:13.35	230.56	35.27	-32.0	-35.4	9.4	2.83e-02	0	42	0	497025024	24	5344
2026-01-09 11:25:14.36	230.91	35.39	-31.8	-34.9	9.7	1.55e-02	0	42	0	499122176	24	5119
2026-01-09 11:25:15.36	231.25	35.50	-31.9	-35.2	9.6	1.03e-02	0	43	0	501219328	24	5243
2026-01-09 11:25:16.37	231.61	35.62	-31.9	-35.2	9.5	1.57e-02	0	43	0	503316480	24	5279
2026-01-09 11:25:17.37	231.96	35.74	-31.8	-34.9	9.8	1.55e-02	0	43	0	504365056	24	5113
2026-01-09 11:25:18.38	232.32	35.86	-31.8	-34.7	9.9	1.01e-02	0	43	0	506462208	24	5030
2026-01-09 11:25:19.39	232.68	35.98	-32.0	-35.5	9.4	1.08e-02	0	42	0	508559360	24	5396
2026-01-09 11:25:20.39	233.04	36.09	-32.2	-36.1	8.9	2.04e-02	0	42	0	510656512	24	5679
2026-01-09 11:25:21.40	233.41	36.21	-32.0	-35.4	9.4	1.65e-02	0	43	0	512753664	24	5348
2026-01-09 11:25:22.40	233.77	36.32	-31.9	-35.2	9.5	1.93e-02	0	43	0	513802240	24	5238
2026-01-09 11:25:23.41	234.15	36.43	-31.9	-35.1	9.7	1.31e-02	0	43	0	515899392	24	5182
2026-01-09 11:25:24.42	234.52	36.55	-31.5	-33.8	10.5	4.63e-03	0	43	0	517996544	24	4657
2026-01-09 11:25:25.43	234.90	36.66	-31.5	-33.6	10.8	3.02e-03	0	43	0	520093696	24	4581
2026-01-09 11:25:26.43	235.27	36.77	-31.7	-34.4	10.2	4.10e-03	0	43	0	522190848	24	4902
2026-01-09 11:25:27.44	235.66	36.88	-32.0	-35.6	9.3	1.19e-02	0	43	0	523239424	24	5394
2026-01-09 11:25:28.44	236.04	36.98	-32.2	-36.1	8.9	1.98e-02	0	43	0	525336576	24	5639
2026-01-09 11:25:29.44	236.42	37.09	-31.9	-35.1	9.6	3.00e-02	0	42	0	527433728	24	5203
2026-01-09 11:25:30.45	236.81	37.20	-31.9	-35.2	9.6	8.15e-03	0	43	0	529530880	24	5235
2026-01-09 11:25:31.45	237.20	37.30	-31.9	-35.2	9.7	1.25e-02	0	43	0	531628032	24	5228
2026-01-09 11:25:32.46	237.59	37.40	-31.2	-33.1	11.4	1.64e-03	0	43	0	532676608	23	4511
2026-01-09 11:25:33.46	237.98	37.51	-31.1	-32.8	11.8	1.01e-03	0	43	0	534773760	23	4377
2026-01-09 11:25:34.46	238.38	37.61	-31.1	-32.9	11.7	5.90e-04	0	43	0	536870912	23	4426
2026-01-09 11:25:35.47	238.78	37.71	-31.3	-33.6	11.1	8.37e-04	0	43	0	538968064	23	4660
2026-01-09 11:25:36.47	239.18	37.81	-31.8	-35.2	10.0	2.40e-03	0	43	0	541065216	23	5299
2026-01-09 11:25:37.48	239.59	37.90	-31.5	-34.2	10.7	4.47e-03	0	43	0	542113792	23	4904
2026-01-09 11:25:38.49	240.00	38.00	-31.5	-34.0	10.8	1.92e-03	0	43	0	544210944	23	4827
2026-01-09 11:25:39.50	240.41	38.10	-31.3	-33.3	11.4	1.24e-03	0	43	0	546308096	23	4566
2026-01-09 11:25:40.50	240.82	38.19	-31.2	-33.3	11.4	1.35e-03	0	43	0	548405248	23	4562
2026-01-09 11:25:41.51	241.23	38.28	-31.5	-34.0	10.8	1.48e-03	0	43	0	550502400	23	4835
2026-01-09 11:25:42.52	241.65	38.37	-31.7	-34.8	10.4	4.03e-03	0	42	0	551550976	23	5130
2026-01-09 11:25:43.52	242.07	38.46	-31.8	-35.0	10.1	5.55e-03	0	43	0	553648128	23	5216
2026-01-09 11:25:44.53	242.49	38.55	-31.9	-35.3	9.9	4.52e-03	0	43	0	555745280	23	5348
2026-01-09 11:25:45.54	242.92	38.64	-31.9	-35.4	9.9	8.40e-03	0	43	0	557842432	23	5390
2026-01-09 11:25:46.55	243.34	38.72	-32.0	-35.2	9.6	1.47e-02	0	43	0	559939584	24	5247
2026-01-09 11:25:47.55	243.77	38.80	-31.7	-34.1	10.4	1.05e-02	0	42	0	560988160	24	4800
2026-01-09 11:25:48.56	244.20	38.89	-31.3	-33.0	11.2	2.60e-03	0	43	0	563085312	24	4373
2026-01-09 11:25:49.56	244.63	38.97	-31.1	-32.8	11.8	4.54e-04	0	43	0	565182464	23	4375
2026-01-09 11:25:50.57	245.06	39.04	-31.0	-32.5	12.0	4.82e-04	0	42	0	567279616	23	4296
2026-01-09 11:25:51.58	245.50	39.12	-31.1	-32.7	11.8	3.23e-04	0	43	0	569376768	23	4368
2026-01-09 11:25:52.58	245.94	39.20	-31.4	-33.7	11.2	8.43e-04	0	43	0	570425344	23	4688
2026-01-09 11:25:53.59	246.38	39.27	-31.8	-35.2	10.0	5.25e-03	0	43	0	572522496	23	5314
2026-01-09 11:25:54.60	246.82	39.34	-32.4	-36.7	8.4	1.70e-02	0	43	0	574619648	24	5963
2026-01-09 11:25:55.60	247.26	39.41	-32.3	-36.2	8.5	7.11e-02	0	43	0	576716800	25	5590
2026-01-09 11:25:56.61	247.71	39.48	-31.9	-34.5	9.8	1.97e-02	0	43	0	578813952	25	4855
2026-01-09 11:25:57.61	248.16	39.55	-31.3	-33.1	11.1	2.94e-03	0	43	0	579862528	24	4402
2026-01-09 11:25:58.62	248.61	39.61	-31.3	-33.5	11.4	8.01e-04	0	43	0	581959680	23	4621
2026-01-09 11:25:59.62	249.06	39.67	-31.3	-33.6	11.2	8.68e-04	0	43	0	584056832	23	4654
2026-01-09 11:26:00.62	249.51	39.73	-31.2	-33.1	11.6	6.20e-04	0	43	0	586153984	23	4491
2026-01-09 11:26:01.63	249.96	39.79	-30.9	-32.2	12.1	3.13e-04	0	43	0	588251136	23	4199
2026-01-09 11:26:02.64	250.42	39.85	-31.2	-33.1	11.5	4.78e-04	0	43	0	589299712	23	4480
2026-01-09 11:26:03.64	250.88	39.91	-31.6	-34.5	10.5	2.38e-03	0	43	0	591396864	23	5036
2026-01-09 11:26:04.64	251.33	39.96	-32.0	-35.5	9.4	8.41e-03	0	42	0	593494016	24	5371
2026-01-09 11:26:05.65	251.79	40.01	-31.9	-35.0	9.7	1.52e-02	0	43	0	595591168	24	5151
2026-01-09 11:26:06.66	252.26	40.06	-31.8	-34.5	10.2	7.46e-03	0	43	0	596639744	24	4926
2026-01-09 11:26:07.66	252.72	40.11	-31.8	-34.5	10.2	6.30e-03	0	43	0	598736896	24	4927
2026-01-09 11:26:08.66	253.18	40.15	-31.8	-34.8	10.0	6.48e-03	0	43	0	600834048	24	5054
2026-01-09 11:26:09.67	253.65	40.20	-31.4	-33.2	11.1	2.64e-03	0	42	0	602931200	24	4452
2026-01-09 11:26:10.67	254.11	40.24	-30.8	-31.9	12.4	3.41e-04	0	42	0	605028352	23	4088
2026-01-09 11:26:11.67	254.58	40.28	-30.6	-31.8	12.8	1.01e-04	0	42	0	607125504	22	4151
2026-01-09 11:26:12.68	255.05	40.31	-31.3	-33.9	11.4	3.72e-04	0	43	0	608174080	22	4869
2026-01-09 11:26:13.69	255.52	40.35	-32.0	-35.7	9.7	5.73e-03	0	43	0	610271232	23	5545
2026-01-09 11:26:14.70	255.99	40.38	-32.3	-36.3	8.8	2.60e-02	0	42	0	612368384	24	5750
2026-01-09 11:26:15.70	256.46	40.41	-32.3	-36.7	8.5	3.31e-02	0	43	0	614465536	24	5935
2026-01-09 11:26:16.70	256.93	40.44	-32.0	-35.5	9.3	2.07e-02	0	43	0	615514112	24	5373
2026-01-09 11:26:17.71	257.41	40.47	-31.9	-34.9	9.8	8.98e-03	0	43	0	617611264	24	5091
2026-01-09 11:26:18.71	257.88	40.49	-32.0	-35.2	9.6	8.04e-03	0	43	0	619708416	24	5206
2026-01-09 11:26:19.72	258.36	40.51	-32.0	-35.5	9.4	1.32e-02	0	43	0	621805568	24	5330
2026-01-09 11:26:20.71	258.83	40.53	-31.8	-34.6	10.0	7.95e-03	0	43	0	623902720	24	4979
2026-01-09 11:26:21.72	259.30	40.55	-32.0	-35.5	9.5	8.80e-03	0	43	0	624951296	24	5334
2026-01-09 11:26:22.73	259.78	40.57	-32.3	-36.5	8.6	2.95e-02	0	43	0	627048448	24	5839
2026-01-09 11:26:23.73	260.26	40.58	-32.9	-38.7	6.6	1.05e-01	0	43	0	629145600	25	7007
2026-01-09 11:26:24.74	260.74	40.59	-33.0	-38.9	6.1	2.26e-01	0	43	0	631242752	26	7109
2026-01-09 11:26:25.75	261.22	40.60	-32.9	-38.2	6.6	2.56e-01	0	43	0	633339904	26	6621
2026-01-09 11:26:26.75	261.69	40.61	-32.4	-36.0	8.3	8.43e-02	0	43	0	634388480	26	5417
2026-01-09 11:26:27.76	262.17	40.62	-32.1	-35.3	9.2	3.75e-02	0	43	0	636485632	25	5171
2026-01-09 11:26:28.76	262.65	40.62	-31.5	-33.6	10.8	7.73e-03	0	43	0	638582784	24	4565
2026-01-09 11:26:29.77	263.13	40.62	-30.9	-32.3	12.1	7.93e-04	0	42	0	640679936	23	4234
2026-01-09 11:26:30.78	263.61	40.62	-31.1	-33.0	11.7	4.06e-04	0	43	0	642777088	23	4443
2026-01-09 11:26:31.78	264.08	40.61	-31.7	-34.8	10.4	1.30e-03	0	43	0	643825664	23	5131
2026-01-09 11:26:32.79	264.56	40.61	-32.5	-36.9	7.9	4.67e-02	0	43	0	645922816	25	5949
2026-01-09 11:26:33.79	265.04	40.60	-32.7	-37.8	7.3	1.25e-01	0	43	0	648019968	25	6450
2026-01-09 11:26:34.80	265.52	40.59	-32.3	-36.0	8.7	7.75e-02	0	43	0	650117120	25	5505
2026-01-09 11:26:35.81	266.00	40.58	-31.9	-34.4	9.9	8.96e-03	0	42	0	652214272	25	4796
2026-01-09 11:26:36.81	266.47	40.56	-31.7	-34.4	10.2	5.47e-03	0	43	0	653262848	24	4882
2026-01-09 11:26:37.82	266.95	40.55	-31.5	-33.4	11.0	5.29e-03	0	42	0	655360000	24	4524
2026-01-09 11:26:38.82	267.42	40.53	-31.2	-33.3	11.5	2.00e-03	0	43	0	657457152	23	4539
2026-01-09 11:26:39.83	267.90	40.51	-31.1	-33.0	11.6	5.16e-04	0	43	0	659554304	23	4440
2026-01-09 11:26:40.84	268.37	40.48	-31.1	-32.8	11.8	5.31e-04	0	43	0	661651456	23	4384
2026-01-09 11:26:41.85	268.85	40.46	-31.2	-33.0	11.5	6.40e-04	0	43	0	662700032	23	4470
2026-01-09 11:26:42.84	269.32	40.43	-30.8	-32.1	12.2	4.87e-04	0	42	0	664797184	23	4159
2026-01-09 11:26:43.85	269.79	40.40	-30.4	-31.4	13.0	9.61e-05	0	43	0	666894336	22	4042
2026-01-09 11:26:44.86	270.26	40.37	-30.7	-32.0	12.6	2.59e-05	0	43	0	668991488	22	4220
2026-01-09 11:26:45.86	270.73	40.33	-31.2	-33.7	11.5	6.48e-04	0	42	0	671088640	22	4790
2026-01-09 11:26:46.87	271.20	40.30	-31.8	-35.3	9.9	4.69e-03	0	42	0	672137216	23	5345
2026-01-09 11:26:47.87	271.67	40.26	-31.7	-34.7	10.5	6.75e-03	0	42	0	674234368	23	5101
2026-01-09 11:26:48.88	272.14	40.22	-31.5	-34.1	10.8	2.00e-03	0	43	0	676331520	23	4834
2026-01-09 11:26:49.89	272.60	40.18	-31.7	-34.6	10.4	2.41e-03	0	43	0	678428672	23	5069
2026-01-09 11:26:50.89	273.07	40.13	-31.8	-35.1	10.1	7.47e-03	0	43	0	680525824	23	5266
2026-01-09 11:26:51.90	273.53	40.09	-32.0	-35.2	9.6	8.95e-03	0	43	0	681574400	24	5209
2026-01-09 11:26:52.90	273.99	40.04	-31.7	-34.2	10.6	7.49e-03	0	43	0	683671552	24	4799
2026-01-09 11:26:53.91	274.45	39.99	-31.4	-33.3	11.1	1.95e-03	0	42	0	685768704	24	4491
2026-01-09 11:26:54.92	274.91	39.94	-31.5	-34.1	10.9	1.14e-03	0	42	0	687865856	23	4835
2026-01-09 11:26:55.91	275.36	39.88	-31.7	-34.9	10.3	3.63e-03	0	43	0	689963008	23	5157
2026-01-09 11:26:56.91	275.82	39.83	-31.8	-35.0	10.2	4.49e-03	0	43	0	691011584	23	5213
2026-01-09 11:26:57.92	276.27	39.77	-31.5	-34.0	10.9	4.48e-03	0	43	0	693108736	23	4805
2026-01-09 11:26:58.92	276.73	39.71	-31.0	-32.6	12.0	8.38e-04	0	43	0	695205888	23	4300
2026-01-09 11:26:59.93	277.18	39.65	-30.5	-31.7	12.9	1.16e-04	0	43	0	697303040	22	4102
2026-01-09 11:27:00.93	277.63	39.59	-31.0	-33.1	11.9	1.03e-04	0	43	0	699400192	22	4579
2026-01-09 11:27:01.94	278.07	39.52	-31.5	-34.0	10.9	7.96e-04	0	43	0	700448768	23	4823
2026-01-09 11:27:02.94	278.52	39.45	-31.0	-32.5	12.0	9.21e-04	0	42	0	702545920	23	4277
2026-01-09 11:27:03.94	278.96	39.39	-30.5	-31.6	13.0	1.30e-04	0	43	0	704643072	22	4097
2026-01-09 11:27:04.94	279.40	39.32	-30.1	-30.9	13.7	1.14e-05	0	43	0	706740224	21	3972
2026-01-09 11:27:05.94	279.84	39.24	-30.1	-30.9	13.7	4.50e-06	0	43	0	708837376	21	3973
2026-01-09 11:27:06.95	280.28	39.17	-30.3	-31.7	13.2	1.83e-05	0	43	0	709885952	21	4198
2026-01-09 11:27:07.95	280.71	39.09	-30.2	-31.3	13.5	1.60e-05	0	43	0	711983104	21	4073
2026-01-09 11:27:08.96	281.15	39.02	-29.8	-30.7	14.1	4.50e-06	0	43	0	714080256	20	3989
2026-01-09 11:27:09.97	281.58	38.94	-29.7	-30.5	14.3	7.00e-07	0	43	0	716177408	20	3937
2026-01-09 11:27:10.97	282.01	38.86	-30.0	-31.3	13.8	1.50e-06	0	43	0	717225984	20	4166
2026-01-09 11:27:11.98	282.44	38.77	-29.6	-30.3	14.3	1.50e-06	0	43	0	719323136	20	3885
2026-01-09 11:27:12.98	282.86	38.69	-29.5	-29.9	14.6	0.00e+00	0	43	0	721420288	20	3792
2026-01-09 11:27:13.99	283.29	38.61	-29.4	-30.2	14.8	0.00e+00	0	43	0	723517440	19	3931
2026-01-09 11:27:14.99	283.71	38.52	-29.4	-30.2	14.8	0.00e+00	0	43	0	725614592	19	3953
2026-01-09 11:27:16.00	284.13	38.43	-29.6	-30.8	14.5	0.00e+00	0	43	0	726663168	19	4100
2026-01-09 11:27:17.01	284.55	38.34	-29.9	-31.6	14.0	7.00e-07	0	43	0	728760320	19	4346
2026-01-09 11:27:18.02	284.96	38.25	-30.2	-31.9	13.4	8.30e-06	0	43	0	730857472	20	4349
2026-01-09 11:27:19.02	285.37	38.16	-30.3	-32.0	13.3	1.14e-05	0	43	0	732954624	20	4390
2026-01-09 11:27:20.03	285.78	38.06	-30.0	-31.3	13.7	3.80e-06	0	43	0	735051776	20	4167
2026-01-09 11:27:21.03	286.19	37.97	-29.7	-30.4	14.3	1.50e-06	0	43	0	737148928	20	3921
2026-01-09 11:27:22.04	286.60	37.87	-29.5	-30.0	14.5	1.50e-06	0	43	0	738197504	20	3812
2026-01-09 11:27:23.05	287.00	37.78	-29.4	-29.7	14.7	0.00e+00	0	43	0	740294656	20	3738
2026-01-09 11:27:24.05	287.40	37.68	-29.8	-30.7	14.1	6.10e-06	0	43	0	742391808	20	3997
2026-01-09 11:27:25.07	287.80	37.58	-29.5	-29.8	14.6	0.00e+00	0	43	0	744488960	20	3762
2026-01-09 11:27:26.07	288.20	37.48	-29.8	-31.1	14.2	0.00e+00	0	43	0	745537536	19	4206
2026-01-09 11:27:27.07	288.59	37.37	-30.3	-32.1	13.3	1.14e-05	0	43	0	747634688	20	4420
2026-01-09 11:27:28.08	288.98	37.27	-30.5	-32.0	12.9	2.44e-05	0	43	0	749731840	21	4307
2026-01-09 11:27:29.09	289.37	37.16	-29.8	-30.3	14.0	3.80e-06	0	43	0	751828992	21	3816
2026-01-09 11:27:30.09	289.75	37.06	-29.6	-30.3	14.4	7.00e-07	0	43	0	753926144	20	3894
2026-01-09 11:27:31.10	290.14	36.95	-29.5	-30.0	14.6	0.00e+00	0	43	0	754974720	20	3800
2026-01-09 11:27:32.10	290.52	36.84	-29.2	-29.7	15.1	0.00e+00	0	43	0	757071872	19	3803
2026-01-09 11:27:33.11	290.90	36.73	-28.2	-28.2	16.6	0.00e+00	0	43	0	759169024	17	3605
2026-01-09 11:27:34.11	291.27	36.63	-27.1	-26.7	17.7	0.00e+00	0	43	0	761266176	15	3446
2026-01-09 11:27:35.12	291.65	36.51	-26.6	-26.1	18.3	0.00e+00	0	43	0	763363328	14	3397
2026-01-09 11:27:36.13	292.02	36.40	-26.9	-26.7	18.0	0.00e+00	0	43	0	765460480	14	3545
2026-01-09 11:27:37.13	292.38	36.29	-27.6	-27.9	17.1	0.00e+00	0	43	0	766509056	15	3734
2026-01-09 11:27:38.13	292.75	36.18	-28.5	-29.0	16.1	0.00e+00	0	43	0	768606208	17	3799
2026-01-09 11:27:39.14	293.11	36.06	-28.9	-29.9	15.6	0.00e+00	0	43	0	770703360	17	4048
2026-01-09 11:27:40.15	293.48	35.95	-29.1	-29.8	15.4	0.00e+00	0	43	0	772800512	18	3918
2026-01-09 11:27:41.16	293.83	35.83	-28.9	-29.3	15.7	0.00e+00	0	43	0	773849088	18	3801
2026-01-09 11:27:42.17	294.19	35.71	-29.3	-30.5	14.9	0.00e+00	0	42	0	775946240	18	4126
2026-01-09 11:27:43.17	294.54	35.59	-29.8	-31.1	14.3	0.00e+00	0	42	0	778043392	19	4197
2026-01-09 11:27:44.17	294.89	35.48	-30.5	-32.1	12.9	2.13e-05	0	43	0	780140544	21	4324
2026-01-09 11:27:45.18	295.24	35.36	-30.4	-31.9	13.0	6.17e-05	0	43	0	782237696	21	4271
2026-01-09 11:27:46.18	295.58	35.24	-30.1	-30.9	13.8	9.10e-06	0	43	0	783286272	21	3961
2026-01-09 11:27:47.19	295.93	35.12	-29.6	-30.2	14.4	1.50e-06	0	43	0	785383424	20	3859
2026-01-09 11:27:48.20	296.27	35.00	-29.8	-30.7	14.1	7.00e-07	0	43	0	787480576	20	3999
2026-01-09 11:27:49.21	296.61	34.87	-30.2	-31.8	13.5	7.60e-06	0	43	0	789577728	20	4316
2026-01-09 11:27:50.21	296.94	34.75	-31.0	-33.0	12.0	2.25e-04	0	43	0	791674880	22	4550
2026-01-09 11:27:51.22	297.28	34.63	-31.3	-34.0	11.3	6.64e-04	0	43	0	792723456	22	4907
2026-01-09 11:27:52.22	297.61	34.50	-31.3	-34.0	11.2	9.17e-04	0	43	0	794820608	22	4925
2026-01-09 11:27:53.23	297.94	34.38	-31.1	-33.4	11.7	6.17e-04	0	43	0	796917760	22	4695
2026-01-09 11:27:54.24	298.26	34.25	-31.1	-33.3	11.7	4.84e-04	0	42	0	799014912	22	4655
2026-01-09 11:27:55.24	298.59	34.13	-31.4	-34.2	11.2	6.90e-04	0	43	0	801112064	22	4984
2026-01-09 11:27:56.24	298.90	34.01	-31.9	-35.5	9.7	7.55e-03	0	43	0	802160640	23	5449
2026-01-09 11:27:57.25	299.22	33.88	-32.4	-37.0	8.3	2.73e-02	0	43	0	804257792	24	6082
2026-01-09 11:27:58.26	299.54	33.75	-32.5	-36.9	7.9	4.71e-02	0	43	0	806354944	25	5956
2026-01-09 11:27:59.26	299.85	33.63	-32.0	-34.8	9.4	2.01e-02	0	42	0	808452096	25	4982
2026-01-09 11:28:00.27	300.16	33.50	-31.8	-34.6	10.1	6.86e-03	0	43	0	810549248	24	4955
2026-01-09 11:28:01.27	300.47	33.37	-31.9	-34.8	9.9	7.68e-03	0	43	0	811597824	24	5043
2026-01-09 11:28:02.28	300.78	33.24	-31.8	-34.7	10.0	9.52e-03	0	43	0	813694976	24	5004
2026-01-09 11:28:03.29	301.08	33.11	-32.3	-36.3	8.7	1.86e-02	0	43	0	815792128	24	5737
2026-01-09 11:28:04.29	301.38	32.99	-32.5	-37.1	8.2	3.35e-02	0	43	0	817889280	24	6144
2026-01-09 11:28:05.30	301.68	32.86	-32.7	-37.7	7.3	7.33e-02	0	43	0	819986432	25	6401
2026-01-09 11:28:06.30	301.98	32.73	-32.5	-36.9	8.0	8.43e-02	0	43	0	821035008	25	5948
2026-01-09 11:28:07.30	302.27	32.60	-32.5	-37.0	7.9	6.13e-02	0	43	0	823132160	25	5998
2026-01-09 11:28:08.31	302.57	32.47	-32.8	-38.1	7.0	9.51e-02	0	43	0	825229312	25	6656
2026-01-09 11:28:09.31	302.85	32.34	-33.1	-39.4	5.8	3.44e-01	0	43	0	827326464	26	7452
2026-01-09 11:28:10.31	303.14	32.21	-33.3	-40.6	5.1	5.65e-01	0	42	0	829423616	26	8407
2026-01-09 11:28:11.32	303.43	32.08	-33.1	-39.3	5.9	5.37e-01	0	43	0	830472192	26	7379
2026-01-09 11:28:12.33	303.71	31.95	-32.6	-36.7	7.6	1.46e-01	0	43	0	832569344	26	5784
2026-01-09 11:28:13.33	303.99	31.82	-31.7	-34.4	10.2	1.58e-02	0	42	0	834666496	24	4891
2026-01-09 11:28:14.34	304.27	31.69	-31.1	-32.9	11.6	9.50e-04	0	42	0	836763648	23	4426
2026-01-09 11:28:15.34	304.55	31.56	-30.8	-32.4	12.4	1.50e-04	0	43	0	838860800	22	4327
2026-01-09 11:28:16.35	304.82	31.42	-31.2	-33.7	11.5	5.02e-04	0	43	0	839909376	22	4793
2026-01-09 11:28:17.36	305.09	31.29	-31.4	-34.4	11.0	1.24e-03	0	43	0	842006528	22	5060
2026-01-09 11:28:18.36	305.36	31.16	-31.7	-34.9	10.2	2.64e-03	0	43	0	844103680	23	5202
2026-01-09 11:28:19.36	305.63	31.03	-31.9	-35.5	9.7	1.10e-02	0	43	0	846200832	23	5454
2026-01-09 11:28:20.36	305.89	30.90	-31.6	-34.4	10.5	5.71e-03	0	43	0	848297984	23	4995
2026-01-09 11:28:21.37	306.16	30.77	-31.4	-33.9	10.9	2.32e-03	0	43	0	849346560	23	4790
2026-01-09 11:28:22.36	306.42	30.64	-31.3	-33.5	11.2	2.12e-03	0	43	0	851443712	23	4653
2026-01-09 11:28:23.37	306.68	30.51	-31.2	-33.1	11.5	7.19e-04	0	43	0	853540864	23	4507
2026-01-09 11:28:24.37	306.93	30.38	-31.4	-33.7	11.0	9.42e-04	0	43	0	855638016	23	4725
2026-01-09 11:28:25.38	307.19	30.24	-31.7	-34.9	10.2	2.15e-03	0	43	0	857735168	23	5172
2026-01-09 11:28:26.38	307.44	30.11	-31.5	-34.2	10.7	4.38e-03	0	43	0	858783744	23	4903
2026-01-09 11:28:27.38	307.69	29.98	-30.9	-32.3	12.0	1.18e-03	0	43	0	860880896	23	4222
2026-01-09 11:28:28.38	307.94	29.85	-30.4	-31.4	12.9	1.36e-04	0	42	0	862978048	22	4035
2026-01-09 11:28:29.39	308.19	29.72	-29.9	-30.5	13.8	6.80e-06	0	43	0	865075200	21	3866
2026-01-09 11:28:30.39	308.43	29.59	-30.0	-30.8	13.6	4.50e-06	0	43	0	867172352	21	3954
2026-01-09 11:28:31.40	308.67	29.46	-30.3	-31.6	13.1	2.28e-05	0	43	0	868220928	21	4169
2026-01-09 11:28:32.40	308.91	29.32	-30.7	-32.7	12.5	2.89e-05	0	42	0	870318080	21	4523
2026-01-09 11:28:33.40	309.15	29.19	-31.1	-33.3	11.7	4.74e-04	0	43	0	872415232	22	4652
2026-01-09 11:28:34.40	309.39	29.06	-30.9	-32.9	11.9	4.94e-04	0	43	0	874512384	22	4506
2026-01-09 11:28:35.41	309.62	28.93	-30.9	-32.8	12.0	5.84e-04	0	43	0	875560960	22	4491
2026-01-09 11:28:36.41	309.86	28.80	-30.3	-31.1	13.2	5.41e-05	0	43	0	877658112	22	3934
2026-01-09 11:28:37.41	310.09	28.67	-29.9	-30.5	13.8	9.10e-06	0	43	0	879755264	21	3855
2026-01-09 11:28:38.42	310.32	28.54	-29.7	-30.5	14.1	1.50e-06	0	42	0	881852416	20	3959
2026-01-09 11:28:39.43	310.55	28.41	-30.0	-31.2	13.7	6.10e-06	0	43	0	883949568	20	4150
2026-01-09 11:28:40.44	310.78	28.28	-30.6	-32.3	12.6	2.51e-05	0	42	0	884998144	21	4407
2026-01-09 11:28:41.44	311.00	28.15	-31.0	-33.1	11.8	4.15e-04	0	43	0	887095296	22	4587
2026-01-09 11:28:42.44	311.22	28.02	-30.7	-32.1	12.4	4.31e-04	0	43	0	889192448	22	4255
2026-01-09 11:28:43.45	311.44	27.89	-30.2	-31.5	13.2	6.63e-05	0	43	0	891289600	21	4152
2026-01-09 11:28:44.46	311.66	27.76	-29.6	-30.3	14.2	5.30e-06	0	43	0	893386752	20	3895
2026-01-09 11:28:45.46	311.88	27.63	-29.1	-29.4	15.2	0.00e+00	0	43	0	894435328	19	3725
2026-01-09 11:28:46.47	312.10	27.50	-28.5	-28.6	15.9	0.00e+00	0	43	0	896532480	18	3626
2026-01-09 11:28:47.48	312.31	27.37	-28.4	-28.3	16.1	0.00e+00	0	43	0	898629632	18	3559
2026-01-09 11:28:48.48	312.52	27.24	-28.5	-28.4	16.0	0.00e+00	0	43	0	900726784	18	3584
2026-01-09 11:28:49.49	312.73	27.11	-28.6	-28.9	15.9	0.00e+00	0	43	0	902823936	18	3693
2026-01-09 11:28:50.49	312.94	26.98	-28.7	-29.1	15.6	0.00e+00	0	43	0	903872512	18	3737
2026-01-09 11:28:51.50	313.15	26.85	-28.9	-29.5	15.4	0.00e+00	0	43	0	905969664	18	3853
2026-01-09 11:28:52.50	313.35	26.73	-28.8	-29.3	15.4	0.00e+00	0	43	0	908066816	18	3814
2026-01-09 11:28:53.51	313.56	26.60	-28.7	-29.1	15.6	0.00e+00	0	43	0	910163968	18	3738
2026-01-09 11:28:54.51	313.76	26.47	-28.3	-28.1	16.2	0.00e+00	0	43	0	912261120	18	3516
2026-01-09 11:28:55.52	313.96	26.34	-28.3	-28.6	16.2	0.00e+00	0	43	0	913309696	17	3718
2026-01-09 11:28:56.52	314.16	26.22	-28.2	-28.3	16.3	0.00e+00	0	43	0	915406848	17	3648
2026-01-09 11:28:57.53	314.36	26.09	-28.2	-28.3	16.3	0.00e+00	0	43	0	917504000	17	3643
2026-01-09 11:28:58.54	314.56	25.96	-28.6	-29.3	15.8	0.00e+00	0	43	0	919601152	17	3888
2026-01-09 11:28:59.54	314.75	25.84	-29.0	-30.2	15.3	0.00e+00	0	43	0	921698304	17	4138
2026-01-09 11:29:00.54	314.94	25.71	-29.3	-30.6	14.7	0.00e+00	0	43	0	922746880	18	4148
2026-01-09 11:29:01.55	315.14	25.58	-29.5	-30.4	14.5	1.50e-06	0	42	0	924844032	19	4016
2026-01-09 11:29:02.56	315.33	25.46	-29.3	-30.0	14.8	1.50e-06	0	43	0	926941184	19	3903
2026-01-09 11:29:03.56	315.51	25.33	-29.1	-29.4	15.1	0.00e+00	0	43	0	929038336	19	3756
2026-01-09 11:29:04.57	315.70	25.21	-29.0	-29.3	15.2	0.00e+00	0	42	0	931135488	19	3723
2026-01-09 11:29:05.58	315.89	25.08	-28.9	-29.1	15.3	0.00e+00	0	43	0	932184064	19	3660
2026-01-09 11:29:06.58	316.07	24.96	-29.2	-29.7	15.0	7.00e-07	0	43	0	934281216	19	3812
2026-01-09 11:29:07.59	316.26	24.83	-29.1	-29.6	15.0	0.00e+00	0	43	0	936378368	19	3792
2026-01-09 11:29:08.59	316.44	24.71	-29.0	-29.2	15.2	0.00e+00	0	43	0	938475520	19	3691
2026-01-09 11:29:09.60	316.62	24.59	-29.1	-29.6	15.0	7.00e-07	0	43	0	940572672	19	3792
2026-01-09 11:29:10.60	316.80	24.46	-29.3	-29.9	14.8	7.00e-07	0	43	0	941621248	19	3868
2026-01-09 11:29:11.61	316.98	24.34	-29.3	-30.1	14.7	0.00e+00	0	43	0	943718400	19	3923
2026-01-09 11:29:12.61	317.15	24.22	-29.3	-30.0	14.8	7.00e-07	0	43	0	945815552	19	3903
2026-01-09 11:29:13.62	317.33	24.09	-29.3	-30.1	14.7	0.00e+00	0	43	0	947912704	19	3924
2026-01-09 11:29:14.63	317.50	23.97	-29.1	-29.5	15.0	7.00e-07	0	43	0	950009856	19	3783
2026-01-09 11:29:15.63	317.67	23.85	-28.8	-28.9	15.4	0.00e+00	0	43	0	951058432	19	3607
2026-01-09 11:29:16.63	317.84	23.73	-28.3	-28.1	16.1	0.00e+00	0	43	0	953155584	18	3523
2026-01-09 11:29:17.64	318.01	23.61	-28.1	-28.2	16.3	0.00e+00	0	43	0	955252736	17	3613
2026-01-09 11:29:18.64	318.18	23.49	-28.1	-28.1	16.4	0.00e+00	0	43	0	957349888	17	3597
2026-01-09 11:29:19.64	318.35	23.37	-28.2	-28.4	16.2	0.00e+00	0	43	0	959447040	17	3667
2026-01-09 11:29:20.65	318.51	23.25	-28.3	-28.5	16.2	0.00e+00	0	42	0	960495616	17	3710
2026-01-09 11:29:21.65	318.68	23.13	-28.6	-29.3	15.7	0.00e+00	0	42	0	962592768	17	3916
2026-01-09 11:29:22.66	318.84	23.01	-28.7	-29.6	15.5	0.00e+00	0	43	0	964689920	17	3992
2026-01-09 11:29:23.66	319.00	22.89	-28.9	-30.0	15.3	0.00e+00	0	43	0	966787072	17	4095
2026-01-09 11:29:24.67	319.16	22.77	-29.1	-29.9	15.1	0.00e+00	0	43	0	968884224	18	3971
2026-01-09 11:29:25.67	319.32	22.65	-29.0	-29.8	15.1	0.00e+00	0	43	0	969932800	18	3953
2026-01-09 11:29:26.67	319.48	22.53	-29.2	-30.2	14.9	0.00e+00	0	43	0	972029952	18	4053
2026-01-09 11:29:27.67	319.64	22.42	-29.1	-30.0	15.0	0.00e+00	0	43	0	974127104	18	3996
2026-01-09 11:29:28.68	319.79	22.30	-28.9	-29.6	15.4	0.00e+00	0	43	0	976224256	18	3883
2026-01-09 11:29:29.69	319.95	22.18	-29.3	-30.4	14.8	0.00e+00	0	43	0	978321408	18	4111
2026-01-09 11:29:30.69	320.10	22.06	-29.0	-29.8	15.1	7.00e-07	0	43	0	979369984	18	3942
2026-01-09 11:29:31.70	320.26	21.95	-29.0	-29.8	15.1	0.00e+00	0	43	0	981467136	18	3952
2026-01-09 11:29:32.70	320.41	21.83	-29.1	-30.0	15.0	0.00e+00	0	43	0	983564288	18	4007
2026-01-09 11:29:33.71	320.56	21.72	-29.0	-29.8	15.1	0.00e+00	0	43	0	985661440	18	3944
2026-01-09 11:29:34.72	320.71	21.60	-29.2	-30.2	14.9	0.00e+00	0	43	0	986710016	18	4065
2026-01-09 11:29:35.72	320.86	21.48	-29.1	-30.0	14.9	7.00e-07	0	43	0	988807168	18	4007
2026-01-09 11:29:36.73	321.01	21.37	-29.1	-30.0	15.0	0.00e+00	0	43	0	990904320	18	3994
2026-01-09 11:29:37.73	321.15	21.26	-29.1	-30.0	15.0	0.00e+00	0	43	0	993001472	18	4013
2026-01-09 11:29:38.74	321.30	21.14	-29.1	-29.9	15.0	0.00e+00	0	43	0	995098624	18	3969
2026-01-09 11:29:39.75	321.44	21.03	-29.2	-30.4	14.8	2.20e-06	0	43	0	997195776	18	4095
2026-01-09 11:29:40.76	321.59	20.91	-29.2	-30.4	14.7	0.00e+00	0	43	0	998244352	18	4097
2026-01-09 11:29:41.76	321.73	20.80	-29.3	-30.5	14.7	0.00e+00	0	43	0	1000341504	18	4150
2026-01-09 11:29:42.76	321.87	20.69	-29.4	-30.2	14.5	1.50e-06	0	43	0	1002438656	19	3968
2026-01-09 11:29:43.76	322.01	20.58	-29.4	-30.4	14.5	7.00e-07	0	43	0	1004535808	19	4006
2026-01-09 11:29:44.77	322.15	20.46	-29.5	-30.4	14.4	0.00e+00	0	43	0	1006632960	19	4030
2026-01-09 11:29:45.78	322.29	20.35	-29.3	-30.1	14.6	0.00e+00	0	43	0	1007681536	19	3948
2026-01-09 11:29:46.78	322.42	20.24	-29.5	-30.5	14.3	0.00e+00	0	43	0	1009778688	19	4051
2026-01-09 11:29:47.79	322.56	20.13	-29.3	-30.0	14.7	0.00e+00	0	43	0	1011875840	19	3894
2026-01-09 11:29:48.79	322.70	20.02	-29.3	-30.1	14.6	0.00e+00	0	43	0	1013972992	19	3934
2026-01-09 11:29:49.80	322.83	19.91	-29.6	-30.8	14.2	1.50e-06	0	43	0	1015021568	19	4136
2026-01-09 11:29:50.80	322.96	19.80	-29.5	-30.6	14.3	2.20e-06	0	43	0	1017118720	19	4090
2026-01-09 11:29:51.80	323.10	19.69	-29.8	-31.3	13.9	1.50e-06	0	43	0	1019215872	19	4295
2026-01-09 11:29:52.80	323.23	19.58	-30.2	-31.8	13.1	1.44e-05	0	43	0	1021313024	20	4371
2026-01-09 11:29:53.80	323.36	19.47	-30.3	-32.4	12.7	4.57e-05	0	43	0	1023410176	20	4561
2026-01-09 11:29:54.81	323.49	19.36	-30.9	-33.4	11.7	2.11e-04	0	43	0	1024458752	21	4813
2026-01-09 11:29:55.81	323.62	19.25	-31.1	-33.7	11.2	9.46e-04	0	43	0	1026555904	22	4828
2026-01-09 11:29:56.82	323.74	19.14	-31.2	-33.9	11.0	1.62e-03	0	43	0	1028653056	22	4909
2026-01-09 11:29:57.82	323.87	19.04	-31.3	-34.4	10.6	3.46e-03	0	43	0	1030750208	22	5115
2026-01-09 11:29:58.82	324.00	18.93	-31.1	-33.6	11.2	2.68e-03	0	43	0	1032847360	22	4809
2026-01-09 11:29:59.83	324.12	18.82	-31.2	-33.8	11.0	1.49e-03	0	43	0	1033895936	22	4900
2026-01-09 11:30:00.84	324.25	18.72	-30.9	-32.9	11.6	9.63e-04	0	43	0	1035993088	22	4561
2026-01-09 11:30:01.84	324.37	18.61	-30.4	-31.6	12.6	1.91e-04	0	43	0	1038090240	22	4119
2026-01-09 11:30:02.85	324.50	18.50	-30.3	-31.4	12.7	9.15e-05	0	43	0	1040187392	22	4058
2026-01-09 11:30:03.85	324.62	18.40	-30.2	-31.5	12.9	5.03e-05	0	43	0	1042284544	21	4195
2026-01-09 11:30:04.85	324.74	18.29	-30.0	-30.9	13.4	2.74e-05	0	43	0	1043333120	21	3989
2026-01-09 11:30:05.86	324.86	18.19	-29.7	-30.5	13.8	8.30e-06	0	43	0	1045430272	20	3982
2026-01-09 11:30:06.87	324.98	18.08	-29.6	-30.5	13.9	2.20e-06	0	43	0	1047527424	20	3971
2026-01-09 11:30:07.88	325.10	17.98	-29.6	-30.3	14.0	6.10e-06	0	43	0	1049624576	20	3917
2026-01-09 11:30:08.88	325.22	17.87	-29.7	-30.6	13.8	1.50e-06	0	43	0	1051721728	20	3998
2026-01-09 11:30:09.89	325.33	17.77	-30.0	-31.3	13.4	1.06e-05	0	43	0	1052770304	20	4215
2026-01-09 11:30:10.90	325.45	17.67	-29.9	-31.2	13.5	8.30e-06	0	43	0	1054867456	20	4174
2026-01-09 11:30:11.90	325.57	17.56	-29.9	-31.3	13.3	1.90e-05	0	43	0	1056964608	20	4220
2026-01-09 11:30:12.91	325.68	17.46	-30.1	-31.8	13.0	2.51e-05	0	43	0	1059061760	20	4368
2026-01-09 11:30:13.92	325.80	17.36	-30.1	-31.7	13.0	2.97e-05	0	43	0	1061158912	20	4349
2026-01-09 11:30:14.93	325.91	17.26	-30.3	-32.3	12.8	4.11e-05	0	43	0	1062207488	20	4521
2026-01-09 11:30:15.93	326.02	17.15	-30.2	-32.0	12.9	8.54e-05	0	43	0	1064304640	20	4425
2026-01-09 11:30:16.94	326.14	17.05	-30.1	-31.6	13.1	3.05e-05	0	43	0	1066401792	20	4305
2026-01-09 11:30:17.94	326.25	16.95	-30.2	-31.9	13.0	3.12e-05	0	43	0	1068498944	20	4395
2026-01-09 11:30:18.95	326.36	16.85	-29.9	-31.3	13.4	2.67e-05	0	43	0	1070596096	20	4211
2026-01-09 11:30:19.95	326.47	16.75	-30.0	-31.3	13.3	9.90e-06	0	43	0	1071644672	20	4222
2026-01-09 11:30:20.96	326.58	16.65	-30.1	-31.7	13.1	2.05e-05	0	43	0	1073741824	20	4344
2026-01-09 11:30:21.96	326.69	16.55	-30.0	-31.4	13.2	2.05e-05	0	43	0	1075838976	20	4250
2026-01-09 11:30:22.97	326.80	16.45	-30.0	-31.5	13.1	2.28e-05	0	43	0	1077936128	20	4284
2026-01-09 11:30:23.98	326.90	16.35	-30.0	-31.5	13.2	2.44e-05	0	43	0	1080033280	20	4267
2026-01-09 11:30:24.99	327.01	16.25	-30.0	-31.4	13.2	3.20e-05	0	43	0	1081081856	20	4247
2026-01-09 11:30:26.00	327.12	16.15	-30.1	-31.7	13.1	2.28e-05	0	43	0	1083179008	20	4335
2026-01-09 11:30:27.01	327.22	16.05	-30.2	-32.2	12.7	5.56e-05	0	43	0	1085276160	20	4497
2026-01-09 11:30:28.01	327.33	15.96	-30.0	-31.6	13.1	3.81e-05	0	43	0	1087373312	20	4310
2026-01-09 11:30:29.01	327.43	15.86	-30.0	-31.4	13.2	2.51e-05	0	43	0	1089470464	20	4253
2026-01-09 11:30:30.02	327.53	15.76	-30.0	-31.5	13.1	4.19e-05	0	43	0	1090519040	20	4290
2026-01-09 11:30:31.03	327.64	15.66	-29.9	-31.3	13.1	3.05e-05	0	43	0	1092616192	20	4212
2026-01-09 11:30:32.03	327.74	15.57	-30.0	-31.5	13.1	2.44e-05	0	43	0	1094713344	20	4278
2026-01-09 11:30:33.04	327.84	15.47	-30.1	-31.9	12.8	5.41e-05	0	43	0	1096810496	20	4419
2026-01-09 11:30:34.04	327.94	15.37	-30.0	-31.5	13.1	4.65e-05	0	43	0	1098907648	20	4285
2026-01-09 11:30:35.05	328.04	15.28	-30.2	-32.0	12.8	4.34e-05	0	43	0	1099956224	20	4448
2026-01-09 11:30:36.06	328.14	15.18	-30.1	-31.8	12.9	4.50e-05	0	43	0	1102053376	20	4364
2026-01-09 11:30:37.07	328.24	15.09	-30.0	-31.6	13.0	4.95e-05	0	43	0	1104150528	20	4316
2026-01-09 11:30:38.07	328.34	14.99	-30.0	-31.4	13.1	3.81e-05	0	42	0	1106247680	20	4259
2026-01-09 11:30:39.07	328.44	14.90	-30.0	-31.4	13.1	2.21e-05	0	43	0	1108344832	20	4267
2026-01-09 11:30:40.08	328.53	14.80	-30.1	-31.9	12.8	5.49e-05	0	42	0	1109393408	20	4418
2026-01-09 11:30:41.09	328.63	14.71	-30.0	-31.5	13.1	3.81e-05	0	43	0	1111490560	20	4282
2026-01-09 11:30:42.10	328.73	14.61	-30.0	-31.4	13.1	3.20e-05	0	43	0	1113587712	20	4263
2026-01-09 11:30:43.11	328.82	14.52	-30.0	-31.6	13.0	3.28e-05	0	43	0	1115684864	20	4310
2026-01-09 11:30:44.12	328.92	14.43	-30.0	-31.6	13.0	4.19e-05	0	43	0	1117782016	20	4317
2026-01-09 11:30:45.13	329.01	14.33	-30.1	-31.7	13.0	4.27e-05	0	43	0	1118830592	20	4346
2026-01-09 11:30:46.14	329.11	14.24	-30.3	-32.5	12.4	1.16e-04	0	43	0	1120927744	20	4611
2026-01-09 11:30:47.14	329.20	14.15	-30.3	-32.5	12.5	1.56e-04	0	43	0	1123024896	20	4609
2026-01-09 11:30:48.15	329.29	14.06	-30.5	-32.4	12.2	1.88e-04	0	43	0	1125122048	21	4491
2026-01-09 11:30:49.16	329.39	13.96	-30.8	-33.3	11.5	4.53e-04	0	43	0	1127219200	21	4823
2026-01-09 11:30:50.16	329.48	13.87	-30.8	-33.4	11.4	6.69e-04	0	43	0	1128267776	21	4871
2026-01-09 11:30:51.16	329.57	13.78	-31.0	-33.6	10.9	1.18e-03	0	43	0	1130364928	22	4847
2026-01-09 11:30:52.16	329.66	13.69	-31.0	-33.4	11.1	1.64e-03	0	43	0	1132462080	22	4774
2026-01-09 11:30:53.17	329.75	13.60	-31.1	-33.7	10.9	2.47e-03	0	43	0	1134559232	22	4869
2026-01-09 11:30:54.17	329.84	13.51	-31.1	-33.9	10.7	2.61e-03	0	43	0	1136656384	22	4953
2026-01-09 11:30:55.18	329.93	13.42	-31.2	-34.2	10.5	2.86e-03	0	43	0	1137704960	22	5080
2026-01-09 11:30:56.19	330.02	13.33	-31.1	-34.0	10.6	2.33e-03	0	43	0	1139802112	22	4996
2026-01-09 11:30:57.19	330.10	13.24	-31.0	-33.6	10.9	2.07e-03	0	43	0	1141899264	22	4849
2026-01-09 11:30:58.20	330.19	13.15	-31.0	-33.7	10.9	2.43e-03	0	43	0	1143996416	22	4884
2026-01-09 11:30:59.20	330.28	13.06	-31.1	-34.0	10.6	2.35e-03	0	43	0	1146093568	22	5018
2026-01-09 11:31:00.21	330.36	12.97	-30.9	-33.2	11.1	1.74e-03	0	43	0	1147142144	22	4715
2026-01-09 11:31:01.22	330.45	12.89	-30.7	-32.8	11.5	1.30e-03	0	43	0	1149239296	22	4540
2026-01-09 11:31:02.23	330.54	12.80	-30.8	-32.8	11.4	9.76e-04	0	43	0	1151336448	22	4558
2026-01-09 11:31:03.23	330.62	12.71	-30.8	-33.0	11.3	1.16e-03	0	43	0	1153433600	22	4631
2026-01-09 11:31:04.24	330.71	12.62	-30.7	-32.8	11.4	6.46e-04	0	43	0	1155530752	22	4558
2026-01-09 11:31:05.24	330.79	12.53	-30.8	-32.8	11.4	1.14e-03	0	43	0	1156579328	22	4552
2026-01-09 11:31:06.25	330.87	12.45	-30.6	-32.2	11.8	5.65e-04	0	43	0	1158676480	22	4358
2026-01-09 11:31:07.25	330.96	12.36	-30.3	-31.3	12.5	1.65e-04	0	43	0	1160773632	22	4072
2026-01-09 11:31:08.26	331.04	12.27	-30.2	-31.6	12.6	1.23e-04	0	43	0	1162870784	21	4243
2026-01-09 11:31:09.27	331.12	12.19	-30.1	-31.4	12.7	9.61e-05	0	43	0	1164967936	21	4177
2026-01-09 11:31:10.27	331.20	12.10	-30.2	-31.6	12.5	1.29e-04	0	43	0	1166016512	21	4241
2026-01-09 11:31:11.27	331.28	12.02	-30.1	-31.5	12.6	1.27e-04	0	42	0	1168113664	21	4225
2026-01-09 11:31:12.28	331.36	11.93	-30.1	-31.5	12.6	8.08e-05	0	43	0	1170210816	21	4212
2026-01-09 11:31:13.28	331.44	11.85	-30.1	-31.4	12.7	1.22e-04	0	43	0	1172307968	21	4176
2026-01-09 11:31:14.28	331.52	11.76	-30.0	-31.1	12.8	8.01e-05	0	43	0	1174405120	21	4092
2026-01-09 11:31:15.28	331.60	11.68	-30.0	-31.2	12.7	6.33e-05	0	43	0	1175453696	21	4129
2026-01-09 11:31:16.29	331.68	11.59	-30.0	-31.2	12.7	7.47e-05	0	43	0	1177550848	21	4132
2026-01-09 11:31:17.30	331.76	11.51	-29.9	-30.9	13.0	6.10e-05	0	43	0	1179648000	21	4022
2026-01-09 11:31:18.30	331.84	11.42	-30.0	-31.0	12.9	4.34e-05	0	43	0	1181745152	21	4072
2026-01-09 11:31:19.31	331.92	11.34	-30.1	-31.4	12.6	5.72e-05	0	43	0	1183842304	21	4167
2026-01-09 11:31:20.31	331.99	11.26	-30.1	-31.4	12.6	6.02e-05	0	43	0	1184890880	21	4184
2026-01-09 11:31:21.32	332.07	11.17	-30.1	-31.4	12.6	7.09e-05	0	43	0	1186988032	21	4202
2026-01-09 11:31:22.33	332.15	11.09	-30.0	-31.3	12.7	9.91e-05	0	43	0	1189085184	21	4139
2026-01-09 11:31:23.33	332.22	11.01	-30.0	-31.1	12.8	6.79e-05	0	43	0	1191182336	21	4085
2026-01-09 11:31:24.34	332.30	10.92	-30.1	-31.4	12.6	7.85e-05	0	43	0	1193279488	21	4182
2026-01-09 11:31:25.34	332.38	10.84	-30.1	-31.3	12.7	8.69e-05	0	43	0	1194328064	21	4150
2026-01-09 11:31:26.34	332.45	10.76	-30.2	-31.8	12.3	1.16e-04	0	43	0	1196425216	21	4310
2026-01-09 11:31:27.35	332.53	10.68	-30.2	-31.7	12.3	1.67e-04	0	43	0	1198522368	21	4294
2026-01-09 11:31:28.36	332.60	10.60	-30.2	-31.7	12.4	1.05e-04	0	43	0	1200619520	21	4275
2026-01-09 11:31:29.36	332.67	10.51	-30.1	-31.4	12.6	1.29e-04	0	43	0	1201668096	21	4182
2026-01-09 11:31:30.37	332.75	10.43	-30.2	-31.7	12.3	2.48e-04	0	43	0	1203765248	21	4291
2026-01-09 11:31:31.37	332.82	10.35	-30.3	-32.0	12.2	2.95e-04	0	43	0	1205862400	21	4369
2026-01-09 11:31:32.38	332.89	10.27	-30.4	-32.2	12.1	2.77e-04	0	43	0	1207959552	21	4434
2026-01-09 11:31:33.38	332.96	10.19	-30.3	-32.0	12.2	2.32e-04	0	43	0	1210056704	21	4375
2026-01-09 11:31:34.39	333.04	10.11	-30.4	-32.4	11.8	3.32e-04	0	43	0	1212153856	21	4536
2026-01-09 11:31:35.40	333.11	10.03	-30.6	-32.9	11.5	6.07e-04	0	43	0	1213202432	21	4699
2026-01-09 11:31:36.41	333.18	9.95	-30.4	-32.4	11.8	5.14e-04	0	43	0	1215299584	21	4542
2026-01-09 11:31:37.41	333.25	9.87	-30.6	-32.8	11.6	8.06e-04	0	43	0	1217396736	21	4673
2026-01-09 11:31:38.42	333.32	9.79	-30.5	-32.8	11.6	1.05e-03	0	43	0	1219493888	21	4661
2026-01-09 11:31:39.43	333.39	9.71	-30.6	-33.1	11.3	7.80e-04	0	43	0	1221591040	21	4794
2026-01-09 11:31:40.43	333.46	9.63	-30.7	-33.3	11.1	1.37e-03	0	43	0	1222639616	21	4860
2026-01-09 11:31:41.44	333.53	9.55	-30.7	-33.4	11.1	1.30e-03	0	43	0	1224736768	21	4903
2026-01-09 11:31:42.45	333.60	9.47	-30.7	-33.4	11.1	1.80e-03	0	43	0	1226833920	21	4880
2026-01-09 11:31:43.45	333.67	9.40	-30.8	-33.6	10.9	2.05e-03	0	42	0	1228931072	21	4994
2026-01-09 11:31:44.45	333.74	9.32	-30.8	-33.7	10.9	1.79e-03	0	43	0	1229979648	21	5000
2026-01-09 11:31:45.45	333.80	9.24	-30.8	-33.7	10.9	2.77e-03	0	43	0	1232076800	21	5000
2026-01-09 11:31:46.45	333.87	9.16	-30.8	-33.8	10.8	2.95e-03	0	43	0	1234173952	21	5039
2026-01-09 11:31:47.46	333.94	9.09	-30.9	-33.9	10.7	3.31e-03	0	43	0	1236271104	21	5094
2026-01-09 11:31:48.46	334.01	9.01	-30.9	-33.9	10.7	3.23e-03	0	43	0	1238368256	21	5084
2026-01-09 11:31:49.47	334.07	8.93	-30.9	-33.8	10.7	3.35e-03	0	43	0	1239416832	21	5078
2026-01-09 11:31:50.48	334.14	8.85	-30.9	-33.9	10.6	3.18e-03	0	43	0	1241513984	21	5125
2026-01-09 11:31:51.48	334.21	8.78	-30.9	-34.1	10.5	3.85e-03	0	43	0	1243611136	21	5199
2026-01-09 11:31:52.48	334.27	8.70	-30.8	-33.8	10.7	2.93e-03	0	43	0	1245708288	21	5077
2026-01-09 11:31:53.48	334.34	8.63	-30.9	-34.0	10.6	3.21e-03	0	43	0	1247805440	21	5143
2026-01-09 11:31:54.49	334.40	8.55	-30.9	-34.0	10.6	2.75e-03	0	43	0	1248854016	21	5139
2026-01-09 11:31:55.50	334.47	8.47	-30.9	-34.2	10.4	3.64e-03	0	43	0	1250951168	21	5262
2026-01-09 11:31:56.51	334.53	8.40	-31.0	-33.8	10.4	5.55e-03	0	43	0	1253048320	22	4985
2026-01-09 11:31:57.51	334.59	8.32	-31.0	-34.0	10.2	4.40e-03	0	43	0	1255145472	22	5063
2026-01-09 11:31:58.52	334.66	8.25	-31.1	-34.2	10.0	6.92e-03	0	43	0	1257242624	22	5137
2026-01-09 11:31:59.52	334.72	8.17	-30.9	-33.6	10.5	5.16e-03	0	43	0	1258291200	22	4901
2026-01-09 11:32:00.52	334.79	8.10	-30.9	-33.6	10.4	4.76e-03	0	43	0	1260388352	22	4919
2026-01-09 11:32:01.53	334.85	8.02	-30.9	-33.7	10.4	3.89e-03	0	43	0	1262485504	22	4955
2026-01-09 11:32:02.53	334.91	7.95	-30.8	-33.1	10.8	5.62e-03	0	43	0	1264582656	22	4706
2026-01-09 11:32:03.53	334.97	7.88	-30.8	-33.2	10.7	2.88e-03	0	43	0	1266679808	22	4773
2026-01-09 11:32:04.53	335.03	7.80	-30.8	-33.3	10.7	4.00e-03	0	43	0	1267728384	22	4798
2026-01-09 11:32:05.54	335.10	7.73	-30.7	-33.1	10.8	3.48e-03	0	43	0	1269825536	22	4707
2026-01-09 11:32:06.54	335.16	7.65	-30.7	-33.0	10.8	2.54e-03	0	43	0	1271922688	22	4686
2026-01-09 11:32:07.55	335.22	7.58	-30.8	-33.2	10.7	2.91e-03	0	43	0	1274019840	22	4746
2026-01-09 11:32:08.56	335.28	7.51	-30.8	-33.5	10.5	2.96e-03	0	43	0	1276116992	22	4871
2026-01-09 11:32:09.56	335.34	7.43	-30.9	-33.5	10.4	4.08e-03	0	43	0	1277165568	22	4898
2026-01-09 11:32:10.57	335.40	7.36	-30.7	-32.9	10.8	3.18e-03	0	43	0	1279262720	22	4671
2026-01-09 11:32:11.57	335.46	7.29	-30.9	-33.7	10.2	3.77e-03	0	43	0	1281359872	22	4991
2026-01-09 11:32:12.58	335.52	7.22	-31.0	-34.1	10.0	7.57e-03	0	43	0	1283457024	22	5138
2026-01-09 11:32:13.58	335.58	7.14	-30.9	-33.7	10.2	5.29e-03	0	43	0	1285554176	22	4987
