passes_logs/2026/01/09/R2M6_AANII_01/R2M6_AANII_01__20260109_234907_NOAA_20_JPSS-1_rec.log

#Pass ID: 20260109_234907_NOAA 20 (JPSS-1)
#Satellite: NOAA 20 (JPSS-1)
#Configuration: NOAA 20
#almurnet v.1.7.20240730
#Start time: 2026-01-09 23:49:09

#Version: 2.2.20231116
#Station: R2M6_AANII_01
#Location: 30.233357 lon 59.946436 lat
#TLE: 1 43013U 17073A   26009.26828276  .00000112  00000+0  74203-4 0  9990
#TLE: 2 43013  98.7631 310.2683 0001700  47.4387 312.6933 14.19534764421920

#Time	Az	El	Level	Level2	SNR	BER	BlckErr	Temp	State	Recorded	gain1	gain2
2026-01-09 23:49:09.45	21.17	7.14	-31.5	-38.3	4.8	1.28e+00	0	40	0	0	23	7868
2026-01-09 23:49:10.45	21.21	7.22	-31.9	-40.5	4.4	1.41e+00	0	39	104	0	24	9643
2026-01-09 23:49:11.45	21.24	7.29	-32.2	-42.3	4.8	9.88e-01	0	40	0	0	24	11507
2026-01-09 23:49:12.46	21.27	7.37	-32.0	-40.3	5.4	8.18e-01	0	39	0	1048576	24	9372
2026-01-09 23:49:13.47	21.31	7.45	-31.8	-39.5	5.9	4.30e-01	0	40	0	3145728	24	8685
2026-01-09 23:49:14.47	21.34	7.52	-31.9	-39.9	5.7	4.90e-01	0	40	0	5242880	24	8987
2026-01-09 23:49:15.46	21.38	7.60	-31.9	-40.1	5.6	3.34e-01	0	40	0	7340032	24	9225
2026-01-09 23:49:16.46	21.41	7.68	-31.5	-38.2	7.2	1.21e-01	0	40	0	9437184	23	7741
2026-01-09 23:49:17.46	21.44	7.75	-31.6	-38.7	6.8	1.75e-01	0	40	0	10485760	23	8106
2026-01-09 23:49:18.46	21.48	7.83	-31.8	-39.6	6.1	3.04e-01	0	40	0	12582912	23	8856
2026-01-09 23:49:19.46	21.51	7.91	-31.5	-38.1	7.2	1.56e-01	0	40	0	14680064	23	7665
2026-01-09 23:49:20.47	21.55	7.99	-31.3	-37.8	7.9	8.39e-02	0	40	0	16777216	22	7541
2026-01-09 23:49:21.46	21.58	8.07	-30.9	-36.0	9.2	5.54e-02	0	40	0	17825792	22	6487
2026-01-09 23:49:22.46	21.62	8.14	-31.0	-36.5	8.9	2.07e-02	0	40	0	19922944	22	6726
2026-01-09 23:49:23.47	21.65	8.22	-30.6	-34.9	10.2	6.77e-03	0	40	0	22020096	22	5884
2026-01-09 23:49:24.47	21.69	8.30	-30.4	-34.1	10.7	5.89e-03	0	40	0	24117248	22	5534
2026-01-09 23:49:25.46	21.72	8.38	-30.8	-36.0	9.8	5.91e-03	0	40	0	26214400	21	6568
2026-01-09 23:49:26.47	21.76	8.46	-31.0	-36.3	9.1	3.14e-02	0	40	0	27262976	22	6637
2026-01-09 23:49:27.47	21.80	8.54	-30.6	-34.8	10.2	4.11e-03	0	40	0	29360128	22	5830
2026-01-09 23:49:28.47	21.83	8.62	-30.6	-35.3	10.2	5.17e-03	0	40	0	31457280	21	6162
2026-01-09 23:49:29.47	21.87	8.70	-30.7	-35.7	9.9	6.74e-03	0	40	0	33554432	21	6381
2026-01-09 23:49:30.47	21.91	8.78	-30.6	-35.3	10.4	6.45e-03	0	40	0	35651584	21	6183
2026-01-09 23:49:31.46	21.94	8.86	-30.4	-34.6	10.7	3.18e-03	0	40	0	36700160	21	5845
2026-01-09 23:49:32.46	21.98	8.94	-30.5	-34.9	10.5	5.01e-03	0	40	0	38797312	21	5987
2026-01-09 23:49:33.47	22.02	9.02	-30.5	-35.1	10.4	4.52e-03	0	40	0	40894464	21	6058
2026-01-09 23:49:34.47	22.05	9.11	-30.7	-35.6	10.2	9.28e-03	0	41	0	42991616	21	6316
2026-01-09 23:49:35.47	22.09	9.19	-30.4	-34.5	11.0	3.31e-03	0	40	0	44040192	21	5785
2026-01-09 23:49:36.46	22.13	9.27	-30.4	-34.7	10.9	1.28e-03	0	40	0	46137344	21	5856
2026-01-09 23:49:37.46	22.17	9.35	-30.2	-33.8	11.4	1.15e-03	0	40	0	48234496	21	5478
2026-01-09 23:49:38.46	22.20	9.43	-30.5	-34.7	10.7	2.08e-03	0	40	0	50331648	21	5892
2026-01-09 23:49:39.47	22.24	9.52	-30.3	-34.1	11.1	1.12e-03	0	40	0	52428800	21	5576
2026-01-09 23:49:40.47	22.28	9.60	-30.8	-35.3	10.0	1.63e-02	0	40	0	53477376	22	6036
2026-01-09 23:49:41.47	22.32	9.68	-30.6	-35.1	10.6	1.52e-03	0	40	0	55574528	21	6037
2026-01-09 23:49:42.47	22.36	9.77	-30.7	-35.1	10.5	5.68e-03	0	40	0	57671680	22	5969
2026-01-09 23:49:43.47	22.40	9.85	-30.6	-35.1	10.6	4.07e-03	0	41	0	59768832	21	6024
2026-01-09 23:49:44.47	22.44	9.93	-30.7	-35.5	10.2	1.68e-03	0	41	0	61865984	21	6274
2026-01-09 23:49:45.48	22.47	10.02	-30.4	-34.3	11.3	8.51e-04	0	40	0	62914560	21	5690
2026-01-09 23:49:46.48	22.51	10.10	-30.3	-34.2	11.1	8.93e-04	0	41	0	65011712	21	5633
2026-01-09 23:49:47.48	22.55	10.19	-30.5	-34.9	10.7	2.88e-03	0	41	0	67108864	21	5943
2026-01-09 23:49:48.48	22.59	10.27	-30.2	-33.8	11.5	1.95e-03	0	41	0	69206016	21	5447
2026-01-09 23:49:49.47	22.63	10.36	-30.4	-34.6	10.9	9.67e-04	0	41	0	71303168	21	5783
2026-01-09 23:49:50.47	22.67	10.44	-30.1	-33.4	11.7	1.86e-03	0	41	0	72351744	21	5295
2026-01-09 23:49:51.47	22.71	10.53	-29.8	-32.6	12.2	2.05e-04	0	41	0	74448896	21	4966
2026-01-09 23:49:52.47	22.76	10.62	-29.8	-32.9	12.8	1.08e-04	0	41	0	76546048	20	5181
2026-01-09 23:49:53.47	22.80	10.70	-29.9	-33.5	12.3	1.82e-04	0	41	0	78643200	20	5397
2026-01-09 23:49:54.47	22.84	10.79	-29.8	-33.2	12.4	1.69e-04	0	41	0	79691776	20	5275
2026-01-09 23:49:55.48	22.88	10.88	-29.0	-32.4	12.3	3.06e-04	0	41	0	81788928	20	5330
2026-01-09 23:49:56.48	22.92	10.97	-30.1	-33.8	12.0	1.89e-04	0	41	0	83886080	20	5522
2026-01-09 23:49:57.48	22.96	11.05	-29.8	-33.6	12.1	2.19e-04	0	41	0	85983232	19	5558
2026-01-09 23:49:58.48	23.00	11.14	-29.8	-33.6	12.4	5.32e-04	0	41	0	88080384	19	5534
2026-01-09 23:49:59.49	23.05	11.23	-30.1	-33.8	12.1	1.99e-04	0	41	0	89128960	20	5528
2026-01-09 23:50:00.48	23.09	11.32	-30.0	-33.8	11.5	5.48e-04	0	41	0	91226112	20	5520
2026-01-09 23:50:01.49	23.13	11.41	-30.0	-34.0	12.0	2.98e-04	0	41	0	93323264	19	5734
2026-01-09 23:50:02.50	23.18	11.50	-30.5	-34.8	11.1	4.11e-04	0	41	0	95420416	21	5872
2026-01-09 23:50:03.49	23.22	11.59	-30.4	-34.4	10.9	2.68e-03	0	41	0	97517568	21	5715
2026-01-09 23:50:04.49	23.26	11.68	-30.3	-34.6	11.3	6.05e-04	0	41	0	98566144	20	5879
2026-01-09 23:50:05.49	23.31	11.77	-30.6	-34.9	11.0	9.89e-04	0	41	0	100663296	21	5932
2026-01-09 23:50:06.49	23.35	11.86	-30.6	-35.1	10.9	2.84e-03	0	41	0	102760448	21	6016
2026-01-09 23:50:07.50	23.39	11.95	-30.4	-34.8	11.3	2.14e-03	0	41	0	104857600	20	5957
2026-01-09 23:50:08.50	23.44	12.04	-30.2	-33.5	11.8	1.27e-03	0	41	0	106954752	21	5310
2026-01-09 23:50:09.50	23.48	12.13	-29.9	-33.6	12.7	2.97e-04	0	41	0	108003328	19	5554
2026-01-09 23:50:10.51	23.53	12.23	-29.6	-33.0	13.1	1.26e-04	0	41	0	110100480	19	5272
2026-01-09 23:50:11.51	23.57	12.32	-29.5	-32.5	13.3	2.36e-05	0	41	0	112197632	19	5082
2026-01-09 23:50:12.51	23.62	12.41	-29.7	-33.0	13.0	2.74e-05	0	41	0	114294784	19	5309
2026-01-09 23:50:13.51	23.67	12.50	-29.4	-32.4	13.4	3.81e-05	0	41	0	116391936	19	5058
2026-01-09 23:50:14.51	23.71	12.60	-29.6	-32.9	13.2	1.90e-05	0	41	0	117440512	19	5257
2026-01-09 23:50:15.51	23.76	12.69	-29.7	-33.1	13.0	4.50e-05	0	41	0	119537664	19	5351
2026-01-09 23:50:16.51	23.80	12.78	-29.6	-32.8	13.1	2.89e-05	0	41	0	121634816	19	5203
2026-01-09 23:50:17.51	23.85	12.88	-29.7	-33.1	13.0	2.51e-05	0	41	0	123731968	19	5324
2026-01-09 23:50:18.52	23.90	12.97	-29.6	-32.7	13.2	9.70e-04	0	41	0	124780544	19	5190
2026-01-09 23:50:19.52	23.95	13.07	-29.6	-32.9	13.1	4.11e-05	0	41	0	126877696	19	5234
2026-01-09 23:50:20.51	23.99	13.16	-29.9	-33.6	12.5	4.88e-05	0	41	0	128974848	19	5539
2026-01-09 23:50:21.51	24.04	13.26	-29.6	-32.9	13.2	1.15e-03	0	41	0	131072000	19	5252
2026-01-09 23:50:22.52	24.09	13.36	-29.6	-32.8	13.1	3.58e-05	0	41	0	133169152	19	5210
2026-01-09 23:50:23.52	24.14	13.45	-29.6	-33.0	13.1	3.58e-05	0	41	0	134217728	19	5268
2026-01-09 23:50:24.53	24.19	13.55	-29.5	-32.5	13.3	1.10e-03	0	41	0	136314880	19	5103
2026-01-09 23:50:25.53	24.24	13.65	-29.6	-32.7	13.3	1.31e-03	0	41	0	138412032	19	5171
2026-01-09 23:50:26.53	24.29	13.75	-29.8	-33.3	12.9	4.50e-05	0	41	0	140509184	19	5384
2026-01-09 23:50:27.53	24.33	13.84	-29.6	-32.9	13.2	2.05e-05	0	41	0	142606336	19	5244
2026-01-09 23:50:28.54	24.39	13.94	-29.7	-33.0	13.0	1.50e-03	0	41	0	143654912	19	5275
2026-01-09 23:50:29.54	24.44	14.04	-29.7	-33.1	13.0	2.44e-05	0	41	0	145752064	19	5323
2026-01-09 23:50:30.54	24.49	14.14	-29.6	-32.9	13.1	1.37e-05	0	41	0	147849216	19	5254
2026-01-09 23:50:31.54	24.54	14.24	-29.8	-33.3	12.9	1.30e-03	0	42	0	149946368	19	5410
2026-01-09 23:50:32.55	24.59	14.34	-29.6	-32.9	13.2	2.44e-05	0	41	0	152043520	19	5242
2026-01-09 23:50:33.55	24.64	14.44	-29.4	-32.7	13.7	1.22e-05	0	41	0	153092096	18	5267
2026-01-09 23:50:34.55	24.69	14.54	-29.5	-32.9	13.5	5.30e-06	0	41	0	155189248	18	5338
2026-01-09 23:50:35.55	24.74	14.64	-29.5	-32.4	13.5	1.67e-05	0	41	0	157286400	19	5053
2026-01-09 23:50:36.56	24.80	14.75	-29.5	-32.6	13.3	2.05e-05	0	41	0	159383552	19	5112
2026-01-09 23:50:37.56	24.85	14.85	-29.5	-32.4	13.5	1.14e-05	0	41	0	161480704	19	5052
2026-01-09 23:50:38.56	24.90	14.95	-29.4	-32.3	13.6	4.50e-06	0	41	0	162529280	19	5014
2026-01-09 23:50:39.56	24.96	15.05	-29.5	-32.5	13.4	3.96e-04	0	41	0	164626432	19	5108
2026-01-09 23:50:40.56	25.01	15.16	-29.4	-32.4	13.5	1.44e-05	0	41	0	166723584	19	5043
2026-01-09 23:50:41.56	25.06	15.26	-29.6	-32.9	13.2	1.44e-05	0	41	0	168820736	19	5235
2026-01-09 23:50:42.56	25.12	15.36	-29.4	-32.2	13.5	2.27e-04	0	41	0	169869312	19	4968
2026-01-09 23:50:43.56	25.17	15.47	-29.7	-33.1	13.0	2.44e-05	0	41	0	171966464	19	5300
2026-01-09 23:50:44.56	25.23	15.57	-29.6	-32.8	13.2	1.75e-05	0	41	0	174063616	19	5216
2026-01-09 23:50:45.56	25.28	15.68	-29.8	-33.2	13.0	3.35e-05	0	41	0	176160768	19	5365
2026-01-09 23:50:46.56	25.34	15.79	-29.9	-33.5	12.8	5.56e-05	0	41	0	178257920	19	5496
2026-01-09 23:50:47.56	25.40	15.89	-29.2	-31.5	14.1	1.06e-05	0	41	0	179306496	19	4726
2026-01-09 23:50:48.56	25.45	16.00	-29.3	-31.8	14.2	3.50e-05	0	41	0	181403648	19	4816
2026-01-09 23:50:49.56	25.51	16.11	-29.4	-32.3	13.7	2.20e-06	0	41	0	183500800	19	4995
2026-01-09 23:50:50.56	25.57	16.21	-29.4	-31.7	13.6	2.13e-05	0	41	0	185597952	20	4702
2026-01-09 23:50:51.56	25.62	16.32	-29.2	-31.7	14.1	5.30e-06	0	41	0	187695104	19	4801
2026-01-09 23:50:52.57	25.68	16.43	-29.3	-31.9	14.0	2.74e-05	0	41	0	188743680	19	4863
2026-01-09 23:50:53.57	25.74	16.54	-29.5	-32.5	13.6	9.10e-06	0	41	0	190840832	19	5090
2026-01-09 23:50:54.57	25.80	16.65	-29.2	-31.7	14.0	1.06e-05	0	41	0	192937984	19	4779
2026-01-09 23:50:55.57	25.86	16.76	-29.8	-33.4	13.1	2.30e-04	0	41	0	195035136	19	5422
2026-01-09 23:50:56.58	25.92	16.87	-29.3	-31.8	14.0	4.50e-06	0	42	0	197132288	19	4817
2026-01-09 23:50:57.58	25.98	16.98	-29.3	-31.8	14.0	4.55e-04	0	42	0	198180864	19	4820
2026-01-09 23:50:58.58	26.04	17.09	-29.2	-32.2	14.1	3.00e-06	0	41	0	200278016	18	5054
2026-01-09 23:50:59.58	26.10	17.20	-29.3	-31.8	14.0	3.80e-06	0	42	0	202375168	19	4835
2026-01-09 23:51:00.58	26.16	17.32	-29.2	-32.1	14.2	8.80e-04	0	41	0	204472320	18	5042
2026-01-09 23:51:01.58	26.23	17.43	-29.4	-32.1	13.9	5.30e-06	0	42	0	205520896	19	4919
2026-01-09 23:51:02.59	26.29	17.54	-29.4	-32.2	13.7	4.50e-06	0	42	0	207618048	19	4966
2026-01-09 23:51:03.58	26.35	17.66	-29.5	-32.5	13.6	1.50e-03	0	42	0	209715200	19	5074
2026-01-09 23:51:04.58	26.41	17.77	-29.1	-31.9	14.4	1.58e-03	0	41	0	211812352	18	4955
2026-01-09 23:51:05.58	26.48	17.88	-29.2	-32.1	14.3	7.00e-07	0	41	0	213909504	18	5040
2026-01-09 23:51:06.59	26.54	18.00	-29.3	-32.5	13.9	1.31e-03	0	42	0	214958080	18	5191
2026-01-09 23:51:07.58	26.61	18.12	-29.7	-32.9	13.3	1.34e-03	0	41	0	217055232	19	5208
2026-01-09 23:51:08.59	26.67	18.23	-29.7	-32.5	13.2	5.41e-05	0	42	0	219152384	20	4969
2026-01-09 23:51:09.59	26.74	18.35	-29.1	-31.8	14.3	1.22e-03	0	41	0	221249536	18	4940
2026-01-09 23:51:10.59	26.80	18.47	-29.0	-31.7	14.3	1.01e-03	0	42	0	223346688	18	4890
2026-01-09 23:51:11.59	26.87	18.59	-29.2	-32.1	14.3	7.00e-07	0	42	0	224395264	18	5027
2026-01-09 23:51:12.60	26.94	18.70	-29.1	-31.9	14.4	9.01e-04	0	42	0	226492416	18	4960
2026-01-09 23:51:13.60	27.00	18.82	-29.2	-31.6	14.2	5.70e-04	0	42	0	228589568	19	4745
2026-01-09 23:51:14.60	27.07	18.94	-29.6	-32.5	13.9	3.80e-06	0	41	0	230686720	19	5069
2026-01-09 23:51:15.61	27.14	19.06	-29.3	-31.9	14.0	9.10e-06	0	41	0	232783872	19	4847
2026-01-09 23:51:16.61	27.21	19.19	-29.0	-31.6	14.4	5.02e-04	0	42	0	233832448	18	4861
2026-01-09 23:51:17.61	27.28	19.31	-29.0	-31.5	14.6	7.00e-07	0	42	0	235929600	18	4805
2026-01-09 23:51:18.61	27.35	19.43	-29.0	-31.5	14.6	3.29e-04	0	42	0	238026752	18	4816
2026-01-09 23:51:19.62	27.42	19.55	-29.3	-32.3	14.1	3.61e-04	0	42	0	240123904	18	5090
2026-01-09 23:51:20.62	27.49	19.67	-29.1	-31.9	14.3	7.00e-07	0	42	0	242221056	18	4964
2026-01-09 23:51:21.63	27.56	19.80	-29.0	-31.5	14.7	8.54e-05	0	42	0	243269632	18	4804
2026-01-09 23:51:22.63	27.63	19.92	-28.5	-30.4	15.3	0.00e+00	0	42	0	245366784	18	4445
2026-01-09 23:51:23.64	27.71	20.05	-28.8	-31.2	14.8	7.00e-07	0	42	0	247463936	18	4708
2026-01-09 23:51:24.65	27.78	20.18	-29.8	-33.1	13.2	1.45e-04	0	42	0	249561088	19	5291
2026-01-09 23:51:25.65	27.86	20.30	-29.8	-33.2	13.1	1.45e-04	0	42	0	250609664	19	5343
2026-01-09 23:51:26.65	27.93	20.43	-28.7	-30.8	15.1	0.00e+00	0	42	0	252706816	18	4588
2026-01-09 23:51:27.66	28.01	20.56	-29.4	-32.1	13.9	3.80e-06	0	42	0	254803968	19	4931
2026-01-09 23:51:28.66	28.08	20.68	-29.2	-31.5	14.4	3.28e-05	0	42	0	256901120	19	4721
2026-01-09 23:51:29.66	28.16	20.81	-28.9	-30.7	14.7	1.50e-06	0	42	0	258998272	19	4432
2026-01-09 23:51:30.67	28.23	20.94	-29.3	-32.3	14.2	0.00e+00	0	42	0	260046848	18	5082
2026-01-09 23:51:31.67	28.31	21.07	-29.1	-31.8	14.4	3.00e-06	0	42	0	262144000	18	4919
2026-01-09 23:51:32.68	28.39	21.20	-29.5	-32.4	13.7	1.50e-06	0	42	0	264241152	19	5034
2026-01-09 23:51:33.68	28.47	21.33	-29.6	-32.7	13.6	7.60e-06	0	42	0	266338304	19	5113
2026-01-09 23:51:34.68	28.55	21.46	-29.9	-33.6	13.0	9.90e-06	0	41	0	268435456	19	5469
2026-01-09 23:51:35.68	28.63	21.60	-29.7	-32.4	13.3	4.04e-05	0	42	0	269484032	20	4928
2026-01-09 23:51:36.69	28.71	21.73	-29.3	-31.3	14.1	3.80e-06	0	42	0	271581184	20	4548
2026-01-09 23:51:37.69	28.79	21.86	-28.8	-30.6	14.9	3.89e-05	0	41	0	273678336	19	4421
2026-01-09 23:51:38.69	28.87	22.00	-28.7	-30.8	15.1	0.00e+00	0	42	0	275775488	18	4580
2026-01-09 23:51:39.70	28.95	22.13	-28.5	-30.2	15.5	0.00e+00	0	42	0	277872640	18	4386
2026-01-09 23:51:40.70	29.04	22.27	-28.3	-30.3	15.8	3.78e-04	0	42	0	278921216	17	4520
2026-01-09 23:51:41.70	29.12	22.40	-28.4	-30.5	15.6	0.00e+00	0	42	0	281018368	17	4592
2026-01-09 23:51:42.70	29.21	22.54	-28.4	-30.5	15.6	0.00e+00	0	41	0	283115520	17	4583
2026-01-09 23:51:43.71	29.29	22.68	-28.4	-30.9	15.7	0.00e+00	0	42	0	285212672	16	4826
2026-01-09 23:51:44.71	29.38	22.82	-28.5	-31.2	15.5	0.00e+00	0	42	0	287309824	16	4933
2026-01-09 23:51:45.71	29.46	22.96	-28.4	-30.6	15.6	5.08e-04	0	42	0	288358400	17	4608
2026-01-09 23:51:46.71	29.55	23.09	-28.3	-30.7	15.8	0.00e+00	0	42	0	290455552	16	4776
2026-01-09 23:51:47.71	29.64	23.23	-28.3	-30.7	15.8	0.00e+00	0	42	0	292552704	16	4773
2026-01-09 23:51:48.70	29.73	23.37	-28.1	-30.3	16.1	2.25e-04	0	42	0	294649856	16	4633
2026-01-09 23:51:49.71	29.82	23.52	-28.1	-30.3	16.0	0.00e+00	0	42	0	296747008	16	4649
2026-01-09 23:51:50.71	29.91	23.66	-28.1	-30.3	16.1	0.00e+00	0	42	0	297795584	16	4631
2026-01-09 23:51:51.71	30.00	23.80	-28.0	-30.0	16.3	2.08e-04	0	42	0	299892736	16	4532
2026-01-09 23:51:52.72	30.09	23.95	-28.0	-29.9	16.3	7.47e-05	0	42	0	301989888	16	4503
2026-01-09 23:51:53.72	30.19	24.09	-28.0	-30.1	16.2	0.00e+00	0	42	0	304087040	16	4573
2026-01-09 23:51:54.72	30.28	24.24	-28.0	-30.1	16.2	0.00e+00	0	42	0	305135616	16	4571
2026-01-09 23:51:55.72	30.37	24.38	-27.9	-29.9	16.3	0.00e+00	0	42	0	307232768	16	4499
2026-01-09 23:51:56.71	30.47	24.53	-28.0	-30.1	16.2	0.00e+00	0	42	0	309329920	16	4564
2026-01-09 23:51:57.71	30.56	24.67	-28.0	-30.1	16.2	0.00e+00	0	42	0	311427072	16	4579
2026-01-09 23:51:58.72	30.66	24.82	-28.2	-30.4	16.1	0.00e+00	0	42	0	313524224	16	4650
2026-01-09 23:51:59.72	30.76	24.97	-28.2	-30.5	16.0	0.00e+00	0	42	0	314572800	16	4702
2026-01-09 23:52:00.72	30.86	25.12	-28.2	-30.5	16.0	0.00e+00	0	42	0	316669952	16	4681
2026-01-09 23:52:01.72	30.96	25.27	-28.5	-30.7	15.6	0.00e+00	0	42	0	318767104	17	4655
2026-01-09 23:52:02.72	31.06	25.42	-28.5	-30.6	15.7	0.00e+00	0	42	0	320864256	17	4603
2026-01-09 23:52:03.71	31.16	25.57	-28.4	-30.5	15.7	0.00e+00	0	42	0	322961408	17	4579
2026-01-09 23:52:04.72	31.26	25.73	-28.4	-30.5	15.7	0.00e+00	0	42	0	324009984	17	4572
2026-01-09 23:52:05.71	31.37	25.88	-28.4	-30.5	15.7	0.00e+00	0	42	0	326107136	17	4592
2026-01-09 23:52:06.72	31.47	26.03	-28.4	-30.6	15.7	3.58e-05	0	42	0	328204288	17	4595
2026-01-09 23:52:07.72	31.58	26.19	-28.5	-30.6	15.7	0.00e+00	0	42	0	330301440	17	4613
2026-01-09 23:52:08.72	31.68	26.35	-28.6	-31.1	15.6	0.00e+00	0	42	0	332398592	17	4759
2026-01-09 23:52:09.72	31.79	26.50	-29.0	-31.6	14.8	0.00e+00	0	42	0	333447168	18	4807
2026-01-09 23:52:10.72	31.90	26.66	-28.6	-30.3	15.6	0.00e+00	0	42	0	335544320	18	4416
2026-01-09 23:52:11.71	32.01	26.82	-28.6	-30.5	15.5	0.00e+00	0	42	0	337641472	18	4485
2026-01-09 23:52:12.72	32.12	26.98	-28.9	-31.1	15.1	0.00e+00	0	42	0	339738624	18	4660
2026-01-09 23:52:13.71	32.23	27.13	-29.0	-31.4	15.0	0.00e+00	0	42	0	340787200	18	4741
2026-01-09 23:52:14.71	32.34	27.30	-29.0	-31.5	14.9	0.00e+00	0	42	0	342884352	18	4799
2026-01-09 23:52:15.71	32.46	27.46	-29.1	-31.6	14.8	0.00e+00	0	42	0	344981504	18	4809
2026-01-09 23:52:16.72	32.57	27.62	-29.1	-31.8	14.7	0.00e+00	0	42	0	347078656	18	4873
2026-01-09 23:52:17.72	32.69	27.78	-29.1	-31.7	14.8	0.00e+00	0	42	0	349175808	18	4865
2026-01-09 23:52:18.72	32.80	27.95	-29.3	-32.1	14.5	1.50e-06	0	42	0	350224384	18	4993
2026-01-09 23:52:19.73	32.92	28.12	-29.4	-32.4	14.3	1.50e-06	0	42	0	352321536	18	5082
2026-01-09 23:52:20.73	33.04	28.28	-29.6	-32.4	14.1	7.00e-07	0	42	0	354418688	19	4984
2026-01-09 23:52:21.73	33.16	28.45	-29.6	-32.6	13.9	2.20e-06	0	42	0	356515840	19	5057
2026-01-09 23:52:22.74	33.29	28.62	-29.7	-32.8	13.8	5.30e-06	0	42	0	358612992	19	5115
2026-01-09 23:52:23.74	33.41	28.79	-29.8	-33.1	13.6	7.60e-06	0	42	0	359661568	19	5252
2026-01-09 23:52:24.74	33.54	28.95	-30.0	-33.0	13.3	1.44e-05	0	42	0	361758720	20	5122
2026-01-09 23:52:25.75	33.66	29.13	-30.1	-33.2	13.3	1.83e-05	0	42	0	363855872	20	5198
2026-01-09 23:52:26.75	33.79	29.30	-30.1	-33.3	13.0	6.25e-05	0	42	0	365953024	20	5234
2026-01-09 23:52:27.75	33.92	29.47	-30.4	-34.1	12.6	7.17e-05	0	42	0	368050176	20	5542
2026-01-09 23:52:28.75	34.05	29.64	-30.4	-33.8	12.4	1.29e-04	0	42	0	369098752	21	5304
2026-01-09 23:52:29.75	34.18	29.82	-30.3	-33.5	12.6	9.15e-05	0	42	0	371195904	21	5202
2026-01-09 23:52:30.75	34.31	29.99	-30.3	-33.5	12.6	1.11e-04	0	42	0	373293056	21	5197
2026-01-09 23:52:31.75	34.44	30.17	-30.5	-34.1	12.2	1.75e-04	0	42	0	375390208	21	5445
2026-01-09 23:52:32.76	34.58	30.35	-30.6	-34.2	12.2	2.14e-04	0	42	0	377487360	21	5479
2026-01-09 23:52:33.76	34.72	30.52	-30.6	-34.4	12.0	2.34e-04	0	42	0	378535936	21	5549
2026-01-09 23:52:34.76	34.86	30.70	-30.7	-34.6	11.9	3.83e-04	0	42	0	380633088	21	5658
2026-01-09 23:52:35.77	35.00	30.88	-30.7	-34.7	11.8	4.36e-04	0	42	0	382730240	21	5708
2026-01-09 23:52:36.77	35.14	31.06	-30.9	-35.1	11.5	6.95e-04	0	42	0	384827392	21	5875
2026-01-09 23:52:37.77	35.28	31.25	-30.9	-35.3	11.4	8.12e-04	0	42	0	385875968	21	5962
2026-01-09 23:52:38.77	35.42	31.43	-30.9	-35.3	11.4	1.03e-03	0	42	0	387973120	21	5957
2026-01-09 23:52:39.77	35.57	31.61	-31.1	-35.2	11.2	1.30e-03	0	42	0	390070272	22	5803
2026-01-09 23:52:40.77	35.72	31.79	-31.0	-35.0	11.3	1.25e-03	0	42	0	392167424	22	5719
2026-01-09 23:52:41.77	35.87	31.98	-31.2	-35.7	10.8	1.74e-03	0	42	0	394264576	22	6023
2026-01-09 23:52:42.78	36.02	32.17	-31.0	-35.1	11.2	2.19e-03	0	42	0	395313152	22	5739
2026-01-09 23:52:43.78	36.17	32.36	-30.9	-34.6	11.6	1.10e-03	0	42	0	397410304	22	5542
2026-01-09 23:52:44.78	36.33	32.54	-30.9	-34.7	11.4	7.14e-04	0	42	0	399507456	22	5585
2026-01-09 23:52:45.78	36.48	32.73	-30.7	-34.0	12.0	3.74e-04	0	42	0	401604608	22	5252
2026-01-09 23:52:46.78	36.64	32.92	-30.6	-33.7	12.2	2.83e-04	0	42	0	403701760	22	5168
2026-01-09 23:52:47.78	36.80	33.11	-30.8	-34.2	11.9	2.71e-04	0	42	0	404750336	22	5353
2026-01-09 23:52:48.78	36.96	33.31	-30.6	-33.6	12.3	2.45e-04	0	42	0	406847488	22	5121
2026-01-09 23:52:49.79	37.13	33.50	-30.4	-33.5	12.7	9.00e-05	0	42	0	408944640	21	5190
2026-01-09 23:52:50.79	37.29	33.69	-30.4	-33.6	12.6	8.77e-05	0	42	0	411041792	21	5234
2026-01-09 23:52:51.79	37.46	33.89	-30.4	-33.8	12.5	1.16e-04	0	42	0	413138944	21	5286
2026-01-09 23:52:52.80	37.63	34.09	-30.4	-33.6	12.7	1.11e-04	0	42	0	414187520	21	5198
2026-01-09 23:52:53.80	37.80	34.28	-30.8	-34.7	11.8	1.13e-04	0	42	0	416284672	21	5696
2026-01-09 23:52:54.80	37.97	34.48	-30.7	-34.5	12.0	4.50e-04	0	42	0	418381824	21	5600
2026-01-09 23:52:55.80	38.15	34.68	-30.6	-34.1	12.3	1.86e-04	0	42	0	420478976	21	5432
2026-01-09 23:52:56.80	38.32	34.88	-30.5	-33.9	12.5	1.20e-04	0	42	0	422576128	21	5327
2026-01-09 23:52:57.81	38.51	35.08	-30.4	-33.6	12.7	8.77e-05	0	42	0	423624704	21	5233
2026-01-09 23:52:58.81	38.69	35.28	-30.4	-33.6	12.7	7.01e-05	0	42	0	425721856	21	5209
2026-01-09 23:52:59.81	38.87	35.49	-30.3	-33.4	12.9	4.27e-05	0	42	0	427819008	21	5131
2026-01-09 23:53:00.81	39.06	35.69	-30.1	-32.9	13.1	4.27e-05	0	42	0	429916160	21	4945
2026-01-09 23:53:01.81	39.25	35.90	-29.9	-32.2	13.6	1.37e-05	0	42	0	430964736	21	4708
2026-01-09 23:53:02.82	39.44	36.10	-30.0	-32.5	13.5	9.90e-06	0	42	0	433061888	21	4802
2026-01-09 23:53:03.82	39.63	36.31	-29.7	-32.2	13.9	4.50e-06	0	42	0	435159040	20	4792
2026-01-09 23:53:04.82	39.83	36.52	-29.7	-32.2	14.0	3.00e-06	0	42	0	437256192	20	4780
2026-01-09 23:53:05.82	40.03	36.73	-29.7	-32.2	14.0	3.80e-06	0	42	0	439353344	20	4808
2026-01-09 23:53:06.82	40.23	36.94	-29.9	-32.7	13.7	3.00e-06	0	42	0	440401920	20	4981
2026-01-09 23:53:07.82	40.43	37.15	-29.8	-32.4	13.9	6.10e-06	0	42	0	442499072	20	4870
2026-01-09 23:53:08.82	40.63	37.36	-30.0	-32.9	13.6	4.50e-06	0	42	0	444596224	20	5056
2026-01-09 23:53:09.82	40.84	37.57	-29.8	-32.5	13.8	5.30e-06	0	42	0	446693376	20	4877
2026-01-09 23:53:10.82	41.05	37.79	-29.8	-32.4	13.9	2.20e-06	0	42	0	448790528	20	4867
2026-01-09 23:53:11.82	41.27	38.00	-30.1	-33.2	13.4	9.10e-06	0	42	0	449839104	20	5139
2026-01-09 23:53:12.82	41.48	38.22	-30.1	-33.2	13.3	1.06e-05	0	42	0	451936256	20	5164
2026-01-09 23:53:13.82	41.70	38.43	-30.1	-33.3	13.3	2.82e-05	0	42	0	454033408	20	5202
2026-01-09 23:53:14.82	41.93	38.65	-30.3	-33.7	13.1	1.98e-05	0	42	0	456130560	20	5351
2026-01-09 23:53:15.82	42.15	38.87	-30.1	-33.3	13.3	2.13e-05	0	42	0	458227712	20	5179
2026-01-09 23:53:16.82	42.38	39.09	-29.8	-32.4	13.9	7.60e-06	0	42	0	459276288	20	4866
2026-01-09 23:53:17.82	42.61	39.31	-29.6	-31.9	14.2	6.10e-06	0	42	0	461373440	20	4689
2026-01-09 23:53:18.82	42.84	39.53	-29.6	-31.8	14.3	7.00e-07	0	42	0	463470592	20	4643
2026-01-09 23:53:19.82	43.08	39.75	-29.2	-31.3	15.0	0.00e+00	0	42	0	465567744	19	4583
2026-01-09 23:53:20.82	43.32	39.97	-29.6	-32.4	14.3	0.00e+00	0	42	0	466616320	19	4954
2026-01-09 23:53:21.82	43.57	40.20	-29.4	-31.8	14.7	0.00e+00	0	42	0	468713472	19	4744
2026-01-09 23:53:22.82	43.81	40.42	-29.6	-32.4	14.3	7.00e-07	0	42	0	470810624	19	4940
2026-01-09 23:53:23.82	44.06	40.64	-29.6	-32.4	14.3	1.50e-06	0	42	0	472907776	19	4947
2026-01-09 23:53:24.81	44.31	40.87	-29.9	-33.0	14.0	0.00e+00	0	42	0	475004928	19	5174
2026-01-09 23:53:25.81	44.57	41.10	-29.8	-32.9	14.1	3.00e-06	0	42	0	476053504	19	5119
2026-01-09 23:53:26.81	44.83	41.32	-29.9	-33.0	13.9	7.00e-07	0	42	0	478150656	19	5168
2026-01-09 23:53:27.81	45.10	41.55	-29.9	-33.1	13.9	3.00e-06	0	42	0	480247808	19	5221
2026-01-09 23:53:28.81	45.37	41.78	-30.3	-33.4	13.0	5.87e-05	0	42	0	482344960	21	5104
2026-01-09 23:53:29.81	45.64	42.01	-30.7	-34.3	12.5	1.51e-04	0	42	0	484442112	21	5469
2026-01-09 23:53:30.81	45.91	42.24	-30.6	-34.0	12.6	1.52e-04	0	42	0	485490688	21	5351
2026-01-09 23:53:31.80	46.19	42.47	-30.2	-33.0	13.3	4.65e-05	0	42	0	487587840	21	4951
2026-01-09 23:53:32.80	46.48	42.70	-30.1	-32.6	13.5	1.75e-05	0	42	0	489684992	21	4830
2026-01-09 23:53:33.80	46.76	42.94	-30.1	-32.7	13.4	1.52e-05	0	42	0	491782144	21	4875
2026-01-09 23:53:34.80	47.06	43.17	-30.1	-32.7	13.4	1.06e-05	0	42	0	492830720	21	4863
2026-01-09 23:53:35.80	47.35	43.40	-30.4	-33.4	13.1	6.10e-06	0	42	0	494927872	21	5122
2026-01-09 23:53:36.80	47.65	43.64	-30.1	-32.6	13.5	1.06e-05	0	42	0	497025024	21	4805
2026-01-09 23:53:37.80	47.96	43.87	-30.0	-32.3	13.7	5.30e-06	0	42	0	499122176	21	4707
2026-01-09 23:53:38.80	48.27	44.11	-30.0	-32.4	13.6	1.50e-06	0	42	0	501219328	21	4753
2026-01-09 23:53:39.81	48.59	44.35	-30.2	-32.9	13.4	1.14e-05	0	42	0	502267904	21	4907
2026-01-09 23:53:40.81	48.91	44.58	-30.1	-32.6	13.5	8.30e-06	0	42	0	504365056	21	4808
2026-01-09 23:53:41.81	49.23	44.82	-30.4	-33.5	13.0	1.98e-05	0	42	0	506462208	21	5141
2026-01-09 23:53:42.81	49.56	45.06	-30.4	-33.5	13.0	4.42e-05	0	42	0	508559360	21	5137
2026-01-09 23:53:43.82	49.89	45.30	-30.6	-34.0	12.6	6.40e-05	0	42	0	510656512	21	5328
2026-01-09 23:53:44.82	50.23	45.54	-30.7	-34.2	12.4	1.81e-04	0	42	0	511705088	21	5435
2026-01-09 23:53:45.82	50.58	45.78	-30.7	-34.5	12.3	2.01e-04	0	42	0	513802240	21	5554
2026-01-09 23:53:46.81	50.92	46.01	-30.8	-34.8	12.0	2.98e-04	0	42	0	515899392	21	5680
2026-01-09 23:53:47.81	51.27	46.25	-31.0	-34.8	11.7	4.08e-04	0	42	0	517996544	22	5574
2026-01-09 23:53:48.81	51.63	46.49	-31.4	-36.0	10.9	9.57e-04	0	42	0	520093696	22	6103
2026-01-09 23:53:49.82	52.00	46.74	-31.4	-36.1	10.8	2.75e-03	0	42	0	521142272	22	6161
2026-01-09 23:53:50.82	52.37	46.98	-31.8	-37.0	9.8	8.34e-03	0	42	0	523239424	23	6505
2026-01-09 23:53:51.82	52.75	47.22	-32.0	-37.2	9.3	1.40e-02	0	42	0	525336576	24	6511
2026-01-09 23:53:52.82	53.13	47.46	-32.4	-38.6	8.2	3.01e-02	0	42	0	527433728	24	7397
2026-01-09 23:53:53.82	53.52	47.70	-32.3	-38.4	8.3	5.46e-02	0	42	0	528482304	24	7256
2026-01-09 23:53:54.82	53.91	47.94	-32.3	-38.4	8.4	4.63e-02	0	42	0	530579456	24	7291
2026-01-09 23:53:55.81	54.31	48.17	-32.2	-37.8	8.8	3.66e-02	0	42	0	532676608	24	6895
2026-01-09 23:53:56.82	54.72	48.42	-32.1	-37.7	8.9	3.67e-02	0	42	0	534773760	24	6833
2026-01-09 23:53:57.82	55.13	48.66	-32.3	-38.2	8.5	3.60e-02	0	42	0	536870912	24	7172
2026-01-09 23:53:58.82	55.55	48.90	-32.3	-38.6	8.3	4.74e-02	0	42	0	537919488	24	7391
2026-01-09 23:53:59.83	55.98	49.14	-32.3	-38.6	8.2	6.05e-02	0	42	0	540016640	24	7427
2026-01-09 23:54:00.83	56.41	49.38	-32.3	-38.6	8.2	5.79e-02	0	42	0	542113792	24	7381
2026-01-09 23:54:01.83	56.85	49.61	-32.3	-38.2	8.3	3.72e-02	0	42	0	544210944	24	7147
2026-01-09 23:54:02.83	57.29	49.85	-31.9	-36.8	9.4	3.73e-02	0	42	0	546308096	24	6334
2026-01-09 23:54:03.83	57.75	50.09	-32.2	-38.0	8.7	2.15e-02	0	42	0	547356672	24	6999
2026-01-09 23:54:04.82	58.20	50.32	-32.1	-37.5	9.1	3.57e-02	0	42	0	549453824	24	6706
2026-01-09 23:54:05.82	58.67	50.56	-31.8	-36.5	9.8	8.37e-03	0	42	0	551550976	24	6151
2026-01-09 23:54:06.82	59.14	50.79	-31.4	-35.2	11.0	7.62e-03	0	42	0	553648128	24	5584
2026-01-09 23:54:07.82	59.62	51.03	-31.1	-34.6	11.6	1.02e-03	0	42	0	555745280	23	5388
2026-01-09 23:54:08.82	60.11	51.26	-30.6	-33.6	12.7	1.13e-04	0	42	0	556793856	22	5093
2026-01-09 23:54:09.82	60.61	51.49	-30.3	-32.6	13.4	4.42e-05	0	42	0	558891008	22	4701
2026-01-09 23:54:10.83	61.12	51.73	-30.0	-32.5	13.8	5.30e-06	0	42	0	560988160	21	4765
2026-01-09 23:54:11.83	61.63	51.96	-29.9	-32.0	14.1	7.60e-06	0	42	0	563085312	21	4604
2026-01-09 23:54:12.83	62.15	52.19	-30.1	-32.6	13.7	3.80e-06	0	42	0	564133888	21	4808
2026-01-09 23:54:13.84	62.68	52.41	-29.8	-32.3	14.2	2.20e-06	0	42	0	566231040	20	4823
2026-01-09 23:54:14.84	63.22	52.64	-29.9	-32.5	14.1	1.50e-06	0	42	0	568328192	20	4872
2026-01-09 23:54:15.84	63.76	52.86	-29.9	-32.6	14.0	3.00e-06	0	42	0	570425344	20	4894
2026-01-09 23:54:16.84	64.31	53.09	-29.6	-31.8	14.5	1.50e-06	0	42	0	572522496	20	4632
2026-01-09 23:54:17.84	64.87	53.31	-29.4	-31.3	14.8	0.00e+00	0	42	0	573571072	20	4465
2026-01-09 23:54:18.83	65.44	53.53	-29.5	-31.4	14.7	0.00e+00	0	42	0	575668224	20	4517
2026-01-09 23:54:19.84	66.02	53.75	-29.5	-31.9	14.8	7.00e-07	0	42	0	577765376	19	4781
2026-01-09 23:54:20.84	66.61	53.96	-29.8	-32.9	14.1	0.00e+00	0	42	0	579862528	19	5123
2026-01-09 23:54:21.84	67.20	54.17	-29.9	-32.7	13.9	2.20e-06	0	42	0	581959680	20	4931
2026-01-09 23:54:22.83	67.80	54.38	-29.7	-32.2	14.2	7.00e-07	0	42	0	583008256	20	4769
2026-01-09 23:54:23.83	68.41	54.59	-29.6	-31.9	14.3	1.50e-06	0	42	0	585105408	20	4655
2026-01-09 23:54:24.83	69.03	54.80	-29.7	-32.1	14.0	1.50e-06	0	42	0	587202560	20	4733
2026-01-09 23:54:25.83	69.66	55.00	-29.4	-31.6	15.0	0.00e+00	0	42	0	589299712	19	4676
2026-01-09 23:54:26.83	70.30	55.20	-29.6	-32.1	14.6	3.80e-06	0	42	0	590348288	19	4843
2026-01-09 23:54:27.83	70.95	55.40	-30.0	-33.2	14.1	7.00e-07	0	42	0	592445440	19	5218
2026-01-09 23:54:28.84	71.62	55.60	-30.1	-33.1	13.7	3.80e-06	0	42	0	594542592	20	5079
2026-01-09 23:54:29.84	72.28	55.79	-30.1	-33.1	13.7	4.50e-06	0	42	0	596639744	20	5100
2026-01-09 23:54:30.84	72.96	55.98	-29.7	-32.2	14.3	6.10e-06	0	42	0	598736896	20	4749
2026-01-09 23:54:31.84	73.65	56.17	-29.6	-31.8	14.5	1.50e-06	0	42	0	599785472	20	4636
2026-01-09 23:54:32.85	74.35	56.35	-29.7	-32.1	14.4	1.50e-06	0	42	0	601882624	20	4714
2026-01-09 23:54:33.85	75.05	56.53	-30.2	-33.3	13.7	1.50e-06	0	42	0	603979776	20	5150
2026-01-09 23:54:34.85	75.76	56.70	-30.3	-33.6	13.4	1.90e-05	0	42	0	606076928	20	5283
2026-01-09 23:54:35.85	76.48	56.88	-30.6	-33.9	12.9	2.13e-05	0	42	0	608174080	21	5266
2026-01-09 23:54:36.85	77.21	57.04	-29.9	-32.0	14.1	4.50e-06	0	42	0	609222656	21	4597
2026-01-09 23:54:37.85	77.95	57.21	-29.9	-32.4	14.2	7.00e-07	0	42	0	611319808	20	4835
2026-01-09 23:54:38.86	78.71	57.37	-30.1	-33.0	13.8	1.75e-05	0	42	0	613416960	20	5034
2026-01-09 23:54:39.85	79.46	57.52	-30.5	-33.8	12.9	2.89e-05	0	42	0	615514112	21	5229
2026-01-09 23:54:40.85	80.22	57.68	-30.6	-34.1	12.8	5.72e-05	0	42	0	617611264	21	5351
2026-01-09 23:54:41.85	81.00	57.82	-30.7	-34.1	12.7	5.49e-05	0	42	0	618659840	21	5375
2026-01-09 23:54:42.85	81.78	57.97	-30.8	-34.6	12.4	9.76e-05	0	42	0	620756992	21	5565
2026-01-09 23:54:43.85	82.57	58.10	-30.9	-34.2	12.3	3.44e-04	0	42	0	622854144	22	5280
2026-01-09 23:54:44.85	83.37	58.24	-30.4	-32.8	13.2	5.87e-05	0	42	0	624951296	22	4778
2026-01-09 23:54:45.86	84.18	58.37	-30.1	-32.6	13.8	4.50e-06	0	42	0	627048448	21	4792
2026-01-09 23:54:46.86	85.00	58.49	-30.1	-32.5	13.9	3.80e-06	0	42	0	628097024	21	4746
2026-01-09 23:54:47.87	85.83	58.61	-30.0	-32.2	13.9	6.10e-06	0	42	0	630194176	21	4663
2026-01-09 23:54:48.87	86.66	58.72	-30.1	-33.1	13.8	1.37e-04	0	42	0	632291328	20	5094
2026-01-09 23:54:49.87	87.49	58.83	-30.7	-34.1	12.8	2.36e-05	0	42	0	634388480	21	5357
2026-01-09 23:54:50.87	88.33	58.93	-30.8	-34.5	12.6	1.01e-04	0	42	0	635437056	21	5504
2026-01-09 23:54:51.87	89.18	59.03	-30.6	-34.0	12.9	5.18e-05	0	42	0	637534208	21	5295
2026-01-09 23:54:52.86	90.03	59.12	-31.0	-35.0	12.2	1.11e-04	0	42	0	639631360	21	5747
2026-01-09 23:54:53.87	90.90	59.20	-31.5	-36.2	11.0	4.45e-04	0	42	0	641728512	22	6154
2026-01-09 23:54:54.87	91.76	59.28	-32.1	-37.3	9.4	5.07e-03	0	42	0	643825664	24	6566
2026-01-09 23:54:55.86	92.62	59.36	-32.2	-37.8	9.0	2.57e-02	0	42	0	644874240	24	6844
2026-01-09 23:54:56.87	93.51	59.43	-32.0	-37.1	9.6	2.47e-02	0	42	0	646971392	24	6438
2026-01-09 23:54:57.87	94.39	59.49	-31.8	-36.4	10.1	6.12e-03	0	42	0	649068544	24	6075
2026-01-09 23:54:58.87	95.27	59.54	-31.6	-35.8	10.6	6.49e-03	0	42	0	651165696	24	5782
2026-01-09 23:54:59.87	96.16	59.59	-31.9	-36.6	10.0	8.77e-03	0	42	0	653262848	24	6201
2026-01-09 23:55:00.88	97.06	59.64	-31.7	-36.3	10.5	9.89e-03	0	42	0	654311424	23	6134
2026-01-09 23:55:01.88	97.95	59.67	-30.9	-33.8	12.1	1.65e-03	0	42	0	656408576	23	5039
2026-01-09 23:55:02.88	98.85	59.71	-30.1	-32.6	13.8	3.07e-04	0	42	0	658505728	21	4770
2026-01-09 23:55:03.88	99.75	59.73	-29.6	-32.3	14.0	2.20e-06	0	42	0	660602880	20	4932
2026-01-09 23:55:04.88	100.65	59.75	-29.4	-32.4	13.7	9.10e-06	0	42	0	662700032	20	5102
2026-01-09 23:55:05.88	101.55	59.76	-30.0	-33.5	13.3	1.23e-04	0	42	0	663748608	20	5370
2026-01-09 23:55:06.88	102.45	59.77	-30.2	-33.4	13.4	4.21e-04	0	42	0	665845760	20	5235
2026-01-09 23:55:07.88	103.35	59.77	-30.0	-32.8	14.1	7.60e-06	0	42	0	667942912	20	4970
2026-01-09 23:55:08.89	104.26	59.76	-30.5	-34.1	13.2	3.80e-06	0	42	0	670040064	20	5459
2026-01-09 23:55:09.88	105.15	59.75	-30.3	-33.8	13.3	4.29e-04	0	42	0	671088640	20	5366
2026-01-09 23:55:10.89	106.06	59.73	-30.7	-34.3	12.6	2.51e-05	0	42	0	673185792	21	5442
2026-01-09 23:55:11.88	106.95	59.70	-30.7	-34.3	12.5	5.41e-05	0	42	0	675282944	21	5459
2026-01-09 23:55:12.89	107.85	59.67	-31.0	-34.5	12.2	3.67e-04	0	42	0	677380096	22	5403
2026-01-09 23:55:13.89	108.75	59.63	-31.2	-35.2	11.7	6.30e-04	0	42	0	679477248	22	5723
2026-01-09 23:55:14.89	109.64	59.59	-31.4	-36.3	10.8	1.40e-03	0	42	0	680525824	22	6272
2026-01-09 23:55:15.89	110.53	59.54	-31.7	-36.9	9.9	5.13e-03	0	42	0	682622976	23	6553
2026-01-09 23:55:16.90	111.42	59.48	-32.1	-37.7	9.1	2.42e-02	0	42	0	684720128	24	6859
2026-01-09 23:55:17.90	112.30	59.42	-32.5	-39.4	7.7	5.09e-02	0	42	0	686817280	24	7995
2026-01-09 23:55:18.91	113.18	59.35	-32.3	-38.9	7.9	9.41e-02	0	42	0	688914432	24	7716
2026-01-09 23:55:19.91	114.05	59.27	-32.5	-39.4	7.7	5.34e-02	0	42	0	689963008	24	7972
2026-01-09 23:55:20.91	114.92	59.19	-32.6	-38.7	7.8	7.09e-02	0	42	0	692060160	25	7321
2026-01-09 23:55:21.92	115.79	59.10	-32.8	-39.7	7.3	7.68e-02	0	42	0	694157312	25	8002
2026-01-09 23:55:22.92	116.64	59.01	-32.8	-40.0	6.8	1.89e-01	0	42	0	696254464	25	8213
2026-01-09 23:55:23.92	117.49	58.92	-33.3	-42.7	5.0	4.47e-01	0	42	0	698351616	26	10559
2026-01-09 23:55:24.92	118.33	58.81	-33.1	-41.3	5.6	6.24e-01	0	42	0	699400192	26	9263
2026-01-09 23:55:25.92	119.17	58.70	-32.5	-38.0	8.1	1.59e-01	0	42	0	701497344	26	6732
2026-01-09 23:55:26.92	120.00	58.59	-32.5	-38.0	8.1	5.74e-02	0	42	0	703594496	26	6766
2026-01-09 23:55:27.93	120.83	58.47	-32.5	-37.8	8.3	5.81e-02	0	42	0	705691648	26	6640
2026-01-09 23:55:28.93	121.64	58.35	-32.0	-36.4	9.7	3.22e-02	0	42	0	707788800	25	5988
2026-01-09 23:55:29.93	122.45	58.22	-31.7	-35.8	10.6	3.86e-03	0	42	0	708837376	24	5794
2026-01-09 23:55:30.93	123.24	58.08	-31.9	-36.7	9.9	5.42e-03	0	42	0	710934528	24	6230
2026-01-09 23:55:31.93	124.03	57.94	-32.0	-37.1	9.6	1.63e-02	0	42	0	713031680	24	6422
2026-01-09 23:55:32.93	124.82	57.80	-31.8	-36.3	10.2	8.61e-03	0	42	0	715128832	24	6012
2026-01-09 23:55:33.93	125.59	57.65	-31.4	-35.0	11.2	1.87e-03	0	42	0	716177408	24	5398
2026-01-09 23:55:34.93	126.35	57.50	-31.5	-35.2	10.9	1.66e-03	0	42	0	718274560	24	5499
2026-01-09 23:55:35.93	127.11	57.34	-31.5	-35.1	11.1	1.87e-03	0	42	0	720371712	24	5448
2026-01-09 23:55:36.93	127.86	57.18	-31.3	-34.9	11.6	1.51e-03	0	42	0	722468864	23	5455
2026-01-09 23:55:37.93	128.60	57.02	-31.3	-34.9	11.5	1.38e-03	0	42	0	724566016	23	5465
2026-01-09 23:55:38.93	129.33	56.85	-31.5	-35.7	11.1	2.26e-03	0	42	0	725614592	23	5844
2026-01-09 23:55:39.93	130.05	56.67	-31.3	-35.5	11.5	6.30e-04	0	42	0	727711744	22	5863
2026-01-09 23:55:40.93	130.76	56.50	-31.3	-35.7	11.5	8.22e-04	0	42	0	729808896	22	5937
2026-01-09 23:55:41.93	131.46	56.32	-31.5	-36.1	11.1	2.91e-03	0	42	0	731906048	22	6119
2026-01-09 23:55:42.93	132.16	56.13	-31.2	-35.1	11.7	1.34e-03	0	42	0	734003200	22	5676
2026-01-09 23:55:43.93	132.84	55.95	-30.6	-33.4	12.9	7.40e-05	0	42	0	735051776	22	4984
2026-01-09 23:55:44.93	133.52	55.76	-30.4	-33.3	13.3	7.12e-04	0	42	0	737148928	21	5071
2026-01-09 23:55:45.94	134.19	55.56	-30.5	-33.7	13.1	9.41e-04	0	42	0	739246080	21	5204
2026-01-09 23:55:46.94	134.85	55.37	-30.8	-34.4	12.5	5.64e-05	0	42	0	741343232	21	5494
2026-01-09 23:55:47.94	135.50	55.17	-30.0	-32.8	13.9	1.23e-03	0	42	0	742391808	20	4957
2026-01-09 23:55:48.94	136.14	54.96	-29.5	-32.0	14.8	1.12e-03	0	42	0	744488960	19	4786
2026-01-09 23:55:49.94	136.77	54.76	-29.7	-32.5	14.5	7.00e-07	0	42	0	746586112	19	4972
2026-01-09 23:55:50.94	137.39	54.55	-30.4	-33.9	13.2	9.47e-04	0	42	0	748683264	20	5388
2026-01-09 23:55:51.94	138.00	54.34	-30.4	-33.4	13.1	4.88e-04	0	42	0	750780416	21	5107
2026-01-09 23:55:52.94	138.61	54.13	-29.4	-31.2	14.9	6.80e-06	0	42	0	751828992	20	4433
2026-01-09 23:55:53.94	139.20	53.92	-28.6	-30.1	16.2	0.00e+00	0	42	0	753926144	18	4324
2026-01-09 23:55:54.95	139.79	53.70	-28.5	-30.4	16.4	8.72e-04	0	42	0	756023296	17	4506
2026-01-09 23:55:55.95	140.37	53.48	-28.1	-29.7	16.7	0.00e+00	0	42	0	758120448	17	4289
2026-01-09 23:55:56.95	140.94	53.26	-28.1	-30.1	16.8	1.41e-03	0	42	0	760217600	16	4527
2026-01-09 23:55:57.95	141.50	53.04	-27.9	-29.7	17.0	1.42e-03	0	42	0	761266176	16	4407
2026-01-09 23:55:58.96	142.06	52.81	-27.6	-28.8	17.5	0.00e+00	0	42	0	763363328	16	4165
2026-01-09 23:55:59.96	142.60	52.59	-27.8	-29.8	17.1	1.54e-03	0	42	0	765460480	15	4564
2026-01-09 23:56:00.96	143.14	52.36	-27.8	-30.0	17.0	1.37e-03	0	42	0	767557632	15	4625
2026-01-09 23:56:01.96	143.66	52.13	-29.0	-31.7	15.6	0.00e+00	0	42	0	769654784	17	4935
2026-01-09 23:56:02.95	144.18	51.90	-28.8	-31.3	15.8	8.69e-04	0	42	0	770703360	17	4791
2026-01-09 23:56:03.95	144.69	51.67	-29.0	-31.3	15.5	5.71e-04	0	42	0	772800512	18	4687
2026-01-09 23:56:04.95	145.19	51.44	-28.9	-31.0	15.7	0.00e+00	0	42	0	774897664	18	4588
2026-01-09 23:56:05.96	145.69	51.21	-28.8	-30.7	15.9	3.73e-04	0	42	0	776994816	18	4501
2026-01-09 23:56:06.96	146.18	50.97	-29.3	-31.9	15.2	2.77e-04	0	42	0	779091968	18	4869
2026-01-09 23:56:07.96	146.66	50.74	-29.7	-32.6	14.3	0.00e+00	0	42	0	780140544	19	5025
2026-01-09 23:56:08.97	147.14	50.50	-30.4	-33.9	13.2	2.74e-05	0	42	0	782237696	20	5378
2026-01-09 23:56:09.97	147.61	50.26	-30.2	-33.3	13.6	1.75e-05	0	42	0	784334848	20	5151
2026-01-09 23:56:10.97	148.07	50.02	-30.5	-34.1	13.0	2.05e-05	0	42	0	786432000	20	5489
2026-01-09 23:56:11.97	148.52	49.79	-30.6	-34.0	12.8	3.66e-05	0	42	0	788529152	21	5306
2026-01-09 23:56:12.97	148.96	49.55	-31.4	-36.0	11.1	7.16e-04	0	42	0	789577728	22	6111
2026-01-09 23:56:13.97	149.40	49.31	-31.4	-35.4	11.1	3.20e-03	0	42	0	791674880	23	5704
2026-01-09 23:56:14.98	149.84	49.07	-31.3	-35.0	11.4	8.68e-04	0	42	0	793772032	23	5508
2026-01-09 23:56:15.98	150.26	48.83	-31.5	-35.7	10.9	1.40e-03	0	42	0	795869184	23	5849
2026-01-09 23:56:16.98	150.68	48.59	-31.6	-36.0	10.6	2.04e-03	0	42	0	796917760	23	5990
2026-01-09 23:56:17.98	151.09	48.35	-32.1	-37.3	9.4	1.48e-02	0	42	0	799014912	24	6556
2026-01-09 23:56:18.99	151.50	48.10	-32.4	-38.5	8.3	3.98e-02	0	42	0	801112064	24	7311
2026-01-09 23:56:19.98	151.89	47.86	-32.6	-39.0	7.5	8.59e-02	0	42	0	803209216	25	7580
2026-01-09 23:56:20.99	152.29	47.62	-32.4	-38.4	8.1	8.28e-02	0	42	0	805306368	25	7126
2026-01-09 23:56:21.99	152.68	47.38	-32.2	-37.6	8.6	6.23e-02	0	42	0	806354944	25	6662
2026-01-09 23:56:22.99	153.06	47.14	-31.7	-36.1	10.2	1.37e-02	0	42	0	808452096	24	5928
2026-01-09 23:56:24.00	153.44	46.89	-31.8	-36.4	10.0	5.61e-03	0	42	0	810549248	24	6073
2026-01-09 23:56:25.00	153.81	46.65	-32.2	-38.0	8.7	2.23e-02	0	42	0	812646400	24	7008
2026-01-09 23:56:26.00	154.17	46.41	-32.9	-40.6	6.3	1.33e-01	0	42	0	814743552	25	8827
2026-01-09 23:56:27.00	154.53	46.17	-32.5	-38.8	7.6	2.06e-01	0	42	0	815792128	25	7456
2026-01-09 23:56:28.01	154.89	45.93	-31.6	-35.7	10.4	8.71e-03	0	42	0	817889280	24	5743
2026-01-09 23:56:29.01	155.24	45.69	-31.1	-34.5	11.7	8.84e-04	0	42	0	819986432	23	5330
2026-01-09 23:56:30.02	155.58	45.45	-31.3	-35.1	11.2	5.78e-04	0	42	0	822083584	23	5600
2026-01-09 23:56:31.02	155.92	45.21	-31.8	-36.9	9.9	3.15e-03	0	42	0	824180736	23	6472
2026-01-09 23:56:32.03	156.26	44.97	-32.0	-37.5	9.5	1.43e-02	0	42	0	825229312	23	6799
2026-01-09 23:56:33.03	156.59	44.73	-31.4	-35.6	10.8	5.23e-03	0	42	0	827326464	23	5825
2026-01-09 23:56:34.03	156.91	44.49	-31.2	-34.9	11.4	1.33e-03	0	42	0	829423616	23	5514
2026-01-09 23:56:35.02	157.22	44.25	-31.1	-34.4	11.7	7.29e-04	0	42	0	831520768	23	5308
2026-01-09 23:56:36.03	157.54	44.01	-31.2	-35.0	11.3	8.17e-04	0	42	0	833617920	23	5539
2026-01-09 23:56:37.04	157.85	43.77	-30.8	-34.1	12.3	5.53e-04	0	42	0	834666496	22	5257
2026-01-09 23:56:38.04	158.16	43.54	-30.3	-32.8	13.2	7.93e-05	0	42	0	836763648	22	4785
2026-01-09 23:56:39.05	158.46	43.30	-30.4	-33.4	13.0	5.49e-05	0	42	0	838860800	21	5122
2026-01-09 23:56:40.05	158.76	43.07	-30.4	-33.6	12.9	4.57e-05	0	42	0	840957952	21	5178
2026-01-09 23:56:41.05	159.05	42.83	-30.1	-32.7	13.5	4.34e-05	0	42	0	843055104	21	4853
2026-01-09 23:56:42.05	159.33	42.60	-29.5	-31.6	14.6	0.00e+00	0	42	0	844103680	20	4576
2026-01-09 23:56:43.05	159.62	42.36	-29.7	-32.5	14.4	7.00e-07	0	42	0	846200832	19	4987
2026-01-09 23:56:44.05	159.90	42.13	-29.9	-33.0	14.1	7.00e-07	0	42	0	848297984	19	5171
2026-01-09 23:56:45.05	160.17	41.90	-30.4	-34.0	13.0	1.60e-05	0	42	0	850395136	20	5462
2026-01-09 23:56:46.06	160.45	41.67	-30.4	-33.6	12.9	8.08e-05	0	42	0	851443712	21	5185
2026-01-09 23:56:47.06	160.72	41.44	-29.6	-31.9	14.3	1.67e-05	0	42	0	853540864	20	4695
2026-01-09 23:56:48.06	160.98	41.21	-29.0	-30.8	15.4	5.98e-04	0	42	0	855638016	19	4406
2026-01-09 23:56:49.07	161.24	40.98	-28.9	-30.9	15.6	0.00e+00	0	42	0	857735168	18	4572
2026-01-09 23:56:50.07	161.50	40.75	-29.3	-32.1	15.0	1.50e-06	0	42	0	859832320	18	4939
2026-01-09 23:56:51.07	161.75	40.52	-29.7	-32.7	14.4	6.06e-04	0	42	0	860880896	19	5037
2026-01-09 23:56:52.07	162.00	40.30	-30.6	-34.2	12.6	4.50e-05	0	42	0	862978048	21	5439
2026-01-09 23:56:53.07	162.25	40.07	-30.7	-34.4	12.4	1.33e-04	0	42	0	865075200	21	5502
2026-01-09 23:56:54.07	162.49	39.85	-30.0	-32.4	13.8	6.10e-05	0	42	0	867172352	21	4744
2026-01-09 23:56:55.08	162.73	39.62	-29.5	-31.5	14.8	5.34e-04	0	42	0	869269504	20	4534
2026-01-09 23:56:56.08	162.97	39.40	-29.6	-31.7	14.5	0.00e+00	0	42	0	870318080	20	4589
2026-01-09 23:56:57.09	163.21	39.17	-29.4	-31.8	14.8	0.00e+00	0	42	0	872415232	19	4725
2026-01-09 23:56:58.09	163.44	38.95	-30.5	-33.7	13.0	2.24e-04	0	42	0	874512384	21	5193
2026-01-09 23:56:59.09	163.66	38.73	-30.5	-33.7	13.0	7.60e-06	0	42	0	876609536	21	5191
2026-01-09 23:57:00.09	163.89	38.52	-31.1	-35.1	11.6	1.96e-04	0	42	0	878706688	22	5689
2026-01-09 23:57:01.09	164.11	38.30	-31.2	-35.5	11.4	7.39e-04	0	42	0	879755264	22	5872
2026-01-09 23:57:02.09	164.33	38.08	-31.3	-35.8	11.1	1.34e-03	0	42	0	881852416	22	6007
2026-01-09 23:57:03.09	164.54	37.86	-30.6	-33.6	12.7	4.37e-04	0	42	0	883949568	22	5070
2026-01-09 23:57:04.10	164.76	37.65	-29.8	-31.9	14.2	1.44e-05	0	42	0	886046720	21	4555
2026-01-09 23:57:05.09	164.97	37.43	-29.2	-31.2	15.3	7.00e-07	0	42	0	887095296	19	4532
2026-01-09 23:57:06.10	165.18	37.22	-29.2	-31.7	15.3	0.00e+00	0	42	0	889192448	18	4805
2026-01-09 23:57:07.10	165.38	37.01	-29.3	-31.9	15.1	0.00e+00	0	42	0	891289600	18	4853
2026-01-09 23:57:08.11	165.59	36.79	-29.3	-31.6	15.0	3.80e-06	0	42	0	893386752	19	4651
2026-01-09 23:57:09.11	165.79	36.58	-30.1	-33.0	13.9	3.00e-06	0	42	0	895483904	20	5055
2026-01-09 23:57:10.11	165.98	36.37	-30.3	-33.5	13.4	9.90e-06	0	42	0	896532480	20	5255
2026-01-09 23:57:11.11	166.18	36.17	-30.8	-34.6	12.4	7.47e-05	0	42	0	898629632	21	5566
2026-01-09 23:57:12.12	166.37	35.96	-30.6	-34.0	12.8	1.53e-04	0	42	0	900726784	21	5348
2026-01-09 23:57:13.12	166.56	35.75	-30.3	-33.1	13.3	4.50e-05	0	42	0	902823936	21	5009
2026-01-09 23:57:14.12	166.75	35.54	-30.4	-33.5	12.9	7.60e-06	0	42	0	904921088	21	5152
2026-01-09 23:57:15.13	166.94	35.34	-30.2	-33.5	13.3	6.80e-06	0	42	0	905969664	20	5226
2026-01-09 23:57:16.14	167.12	35.13	-29.7	-32.2	14.3	3.80e-06	0	42	0	908066816	20	4768
2026-01-09 23:57:17.13	167.30	34.93	-29.7	-32.0	14.4	7.00e-07	0	42	0	910163968	20	4706
2026-01-09 23:57:18.13	167.48	34.73	-30.0	-32.9	13.7	6.10e-06	0	42	0	912261120	20	5029
2026-01-09 23:57:19.14	167.66	34.53	-30.0	-33.0	13.7	4.50e-06	0	42	0	914358272	20	5047
2026-01-09 23:57:20.14	167.83	34.33	-30.6	-34.2	12.6	3.81e-05	0	42	0	915406848	21	5427
2026-01-09 23:57:21.14	168.00	34.13	-30.8	-34.7	12.3	1.23e-04	0	42	0	917504000	21	5619
2026-01-09 23:57:22.14	168.17	33.93	-31.4	-35.9	11.0	4.58e-04	0	42	0	919601152	22	6071
2026-01-09 23:57:23.13	168.34	33.74	-31.2	-35.3	11.5	1.32e-03	0	42	0	921698304	22	5776
2026-01-09 23:57:24.13	168.51	33.54	-31.3	-35.9	11.1	1.63e-03	0	42	0	923795456	22	6053
2026-01-09 23:57:25.12	168.67	33.35	-31.2	-35.3	11.5	2.34e-03	0	42	0	924844032	22	5788
2026-01-09 23:57:26.11	168.83	33.16	-30.9	-34.3	12.2	1.81e-04	0	42	0	926941184	22	5369
2026-01-09 23:57:27.11	168.99	32.97	-30.7	-34.5	12.4	9.23e-05	0	42	0	929038336	21	5527
2026-01-09 23:57:28.11	169.15	32.78	-30.7	-34.2	12.7	1.15e-04	0	42	0	931135488	21	5410
2026-01-09 23:57:29.11	169.31	32.58	-30.8	-34.5	12.3	9.84e-05	0	42	0	932184064	21	5545
2026-01-09 23:57:30.11	169.46	32.40	-30.6	-34.0	12.8	7.32e-05	0	42	0	934281216	21	5350
2026-01-09 23:57:31.11	169.62	32.21	-30.7	-34.4	12.3	1.20e-04	0	42	0	936378368	21	5502
2026-01-09 23:57:32.11	169.77	32.02	-30.7	-34.3	12.5	1.02e-04	0	42	0	938475520	21	5451
2026-01-09 23:57:33.11	169.92	31.83	-30.8	-34.5	12.3	2.06e-04	0	42	0	940572672	21	5557
2026-01-09 23:57:34.12	170.07	31.64	-30.8	-34.7	12.2	1.83e-04	0	42	0	941621248	21	5607
2026-01-09 23:57:35.11	170.21	31.46	-30.9	-35.0	11.9	2.72e-04	0	42	0	943718400	21	5753
2026-01-09 23:57:36.12	170.36	31.28	-31.1	-35.0	11.7	6.94e-04	0	42	0	945815552	22	5635
2026-01-09 23:57:37.12	170.50	31.09	-31.0	-34.7	11.9	4.80e-04	0	42	0	947912704	22	5533
2026-01-09 23:57:38.12	170.65	30.91	-31.2	-35.2	11.6	6.96e-04	0	42	0	950009856	22	5722
2026-01-09 23:57:39.12	170.79	30.73	-31.2	-35.3	11.5	6.48e-04	0	42	0	951058432	22	5789
2026-01-09 23:57:40.12	170.93	30.55	-31.3	-35.5	11.3	1.69e-03	0	42	0	953155584	22	5895
2026-01-09 23:57:41.11	171.06	30.37	-31.1	-34.9	11.7	6.11e-04	0	42	0	955252736	22	5621
2026-01-09 23:57:42.11	171.20	30.19	-31.2	-35.2	11.4	1.18e-03	0	42	0	957349888	22	5759
2026-01-09 23:57:43.11	171.33	30.02	-31.1	-34.9	11.7	9.45e-04	0	42	0	958398464	22	5626
2026-01-09 23:57:44.11	171.47	29.84	-31.2	-35.5	11.2	1.49e-03	0	42	0	960495616	22	5868
2026-01-09 23:57:45.11	171.60	29.67	-30.5	-34.7	11.2	1.13e-03	0	42	0	962592768	22	5878
2026-01-09 23:57:46.11	171.73	29.49	-31.0	-34.7	11.7	5.00e-04	0	42	0	964689920	22	5553
2026-01-09 23:57:47.11	171.86	29.32	-30.9	-35.0	11.8	4.03e-04	0	42	0	966787072	21	5771
2026-01-09 23:57:48.11	171.98	29.15	-30.8	-34.7	11.6	3.79e-04	0	42	0	967835648	21	5654
2026-01-09 23:57:49.12	172.11	28.97	-30.7	-34.5	12.1	2.39e-04	0	42	0	969932800	21	5563
2026-01-09 23:57:50.12	172.24	28.80	-30.7	-34.5	12.0	1.69e-04	0	42	0	972029952	21	5555
2026-01-09 23:57:51.13	172.36	28.63	-30.7	-34.3	12.1	1.44e-04	0	42	0	974127104	21	5468
2026-01-09 23:57:52.13	172.49	28.46	-30.7	-34.4	12.3	1.90e-04	0	42	0	976224256	21	5515
2026-01-09 23:57:53.13	172.61	28.29	-30.6	-34.2	12.4	1.10e-04	0	42	0	977272832	21	5444
2026-01-09 23:57:54.13	172.73	28.13	-30.5	-33.8	12.7	5.18e-04	0	42	0	979369984	21	5283
2026-01-09 23:57:55.14	172.85	27.96	-30.4	-33.6	12.8	8.16e-05	0	42	0	981467136	21	5220
2026-01-09 23:57:56.13	172.96	27.79	-30.4	-33.5	12.8	5.79e-05	0	42	0	983564288	21	5180
2026-01-09 23:57:57.13	173.08	27.63	-30.5	-33.8	12.7	8.54e-05	0	42	0	985661440	21	5265
2026-01-09 23:57:58.13	173.20	27.47	-30.6	-34.2	12.5	7.62e-05	0	42	0	986710016	21	5427
2026-01-09 23:57:59.13	173.31	27.30	-30.6	-34.0	12.5	7.93e-05	0	42	0	988807168	21	5350
2026-01-09 23:58:00.14	173.42	27.14	-30.7	-34.6	12.2	1.86e-04	0	42	0	990904320	21	5592
2026-01-09 23:58:01.14	173.54	26.98	-30.7	-34.5	12.2	1.85e-04	0	42	0	993001472	21	5574
2026-01-09 23:58:02.14	173.65	26.82	-30.4	-33.7	12.9	1.33e-04	0	42	0	994050048	21	5220
2026-01-09 23:58:03.14	173.76	26.66	-30.4	-33.5	12.9	7.85e-05	0	42	0	996147200	21	5160
2026-01-09 23:58:04.15	173.87	26.50	-30.5	-33.9	12.7	3.89e-05	0	42	0	998244352	21	5322
2026-01-09 23:58:05.15	173.97	26.34	-30.3	-33.2	13.1	3.20e-05	0	42	0	1000341504	21	5046
2026-01-09 23:58:06.15	174.08	26.18	-30.0	-32.5	13.5	1.52e-05	0	42	0	1002438656	21	4797
2026-01-09 23:58:07.15	174.19	26.03	-30.1	-32.7	13.4	6.80e-06	0	42	0	1003487232	21	4869
2026-01-09 23:58:08.15	174.29	25.87	-30.0	-32.3	13.6	7.78e-05	0	42	0	1005584384	21	4735
2026-01-09 23:58:09.15	174.40	25.72	-29.7	-32.2	14.0	6.80e-06	0	42	0	1007681536	20	4806
2026-01-09 23:58:10.15	174.50	25.56	-29.4	-31.4	14.5	7.00e-07	0	42	0	1009778688	20	4530
2026-01-09 23:58:11.15	174.60	25.41	-29.4	-31.8	14.6	3.65e-04	0	42	0	1011875840	19	4757
2026-01-09 23:58:12.15	174.70	25.26	-29.4	-31.9	14.6	7.00e-07	0	42	0	1012924416	19	4789
2026-01-09 23:58:13.15	174.80	25.11	-29.5	-32.1	14.5	1.50e-06	0	42	0	1015021568	19	4856
2026-01-09 23:58:14.15	174.90	24.96	-29.6	-32.4	14.2	1.50e-06	0	42	0	1017118720	19	4967
2026-01-09 23:58:15.15	175.00	24.81	-29.7	-32.8	14.0	9.46e-05	0	42	0	1019215872	19	5098
2026-01-09 23:58:16.15	175.10	24.66	-30.0	-33.0	13.4	6.80e-06	0	42	0	1020264448	20	5109
2026-01-09 23:58:17.15	175.19	24.51	-29.8	-32.4	13.8	4.50e-06	0	42	0	1022361600	20	4884
2026-01-09 23:58:18.15	175.29	24.36	-29.8	-32.6	13.7	6.25e-05	0	42	0	1024458752	20	4942
2026-01-09 23:58:19.15	175.38	24.21	-29.9	-32.8	13.6	7.60e-06	0	42	0	1026555904	20	5013
2026-01-09 23:58:20.15	175.48	24.07	-29.9	-32.7	13.7	9.10e-06	0	42	0	1028653056	20	4976
2026-01-09 23:58:21.15	175.57	23.92	-29.6	-32.0	14.1	4.50e-06	0	42	0	1029701632	20	4747
2026-01-09 23:58:22.16	175.66	23.78	-29.5	-31.7	14.3	4.50e-06	0	42	0	1031798784	20	4648
2026-01-09 23:58:23.15	175.75	23.63	-29.5	-31.8	14.2	2.20e-06	0	42	0	1033895936	20	4670
2026-01-09 23:58:24.16	175.84	23.49	-29.7	-32.1	14.0	0.00e+00	0	42	0	1035993088	20	4767
2026-01-09 23:58:25.16	175.93	23.35	-29.3	-31.2	14.5	6.10e-06	0	42	0	1038090240	20	4460
2026-01-09 23:58:26.15	176.02	23.21	-29.0	-30.8	15.2	2.89e-05	0	42	0	1039138816	19	4433
2026-01-09 23:58:27.16	176.11	23.06	-28.9	-31.2	15.2	0.00e+00	0	42	0	1041235968	18	4659
2026-01-09 23:58:28.16	176.20	22.92	-28.7	-30.6	15.6	7.00e-07	0	42	0	1043333120	18	4493
2026-01-09 23:58:29.16	176.28	22.78	-28.6	-30.4	15.6	4.95e-05	0	42	0	1045430272	18	4437
2026-01-09 23:58:30.16	176.37	22.64	-28.6	-30.3	15.8	0.00e+00	0	42	0	1047527424	18	4387
2026-01-09 23:58:31.16	176.46	22.51	-28.5	-30.2	15.8	0.00e+00	0	42	0	1048576000	18	4378
2026-01-09 23:58:32.16	176.54	22.37	-28.7	-30.5	15.7	1.21e-04	0	42	0	1050673152	18	4448
2026-01-09 23:58:33.17	176.63	22.23	-28.5	-30.2	15.8	9.53e-05	0	42	0	1052770304	18	4363
2026-01-09 23:58:34.17	176.71	22.09	-28.6	-30.4	15.7	0.00e+00	0	42	0	1054867456	18	4438
2026-01-09 23:58:35.17	176.79	21.96	-28.6	-30.8	15.8	9.99e-05	0	42	0	1056964608	17	4671
2026-01-09 23:58:36.17	176.87	21.82	-28.9	-31.7	15.2	8.54e-05	0	42	0	1058013184	17	4954
2026-01-09 23:58:37.17	176.95	21.69	-29.0	-31.5	15.1	0.00e+00	0	42	0	1060110336	18	4771
2026-01-09 23:58:38.18	177.03	21.55	-29.0	-31.4	15.1	0.00e+00	0	42	0	1062207488	18	4736
2026-01-09 23:58:39.18	177.11	21.42	-29.3	-32.2	14.6	1.23e-04	0	42	0	1064304640	18	5017
2026-01-09 23:58:40.17	177.19	21.29	-29.2	-31.8	14.9	0.00e+00	0	42	0	1066401792	18	4860
2026-01-09 23:58:41.17	177.27	21.16	-29.5	-32.1	14.3	0.00e+00	0	42	0	1067450368	19	4860
2026-01-09 23:58:42.18	177.35	21.03	-29.3	-31.6	14.7	4.95e-05	0	42	0	1069547520	19	4688
2026-01-09 23:58:43.18	177.43	20.90	-29.4	-31.8	14.5	6.80e-06	0	42	0	1071644672	19	4782
2026-01-09 23:58:44.18	177.50	20.77	-29.5	-32.1	14.4	0.00e+00	0	42	0	1073741824	19	4864
2026-01-09 23:58:45.18	177.58	20.64	-29.7	-32.8	13.9	0.00e+00	0	42	0	1074790400	19	5132
2026-01-09 23:58:46.18	177.66	20.51	-29.6	-32.5	14.1	7.60e-06	0	42	0	1076887552	19	5019
2026-01-09 23:58:47.18	177.73	20.38	-29.4	-31.9	14.4	5.87e-05	0	42	0	1078984704	19	4810
2026-01-09 23:58:48.17	177.80	20.26	-29.4	-31.8	14.4	7.00e-07	0	42	0	1081081856	19	4777
2026-01-09 23:58:49.17	177.88	20.13	-29.2	-31.5	14.7	3.80e-06	0	42	0	1083179008	19	4660
2026-01-09 23:58:50.17	177.95	20.00	-29.3	-31.7	14.5	1.04e-04	0	42	0	1084227584	19	4754
2026-01-09 23:58:51.16	178.02	19.88	-29.1	-31.3	14.8	6.02e-05	0	42	0	1086324736	19	4603
2026-01-09 23:58:52.16	178.09	19.75	-28.9	-30.6	15.2	7.00e-07	0	42	0	1088421888	19	4396
2026-01-09 23:58:53.16	178.16	19.63	-29.0	-31.3	15.1	3.71e-04	0	42	0	1090519040	18	4726
2026-01-09 23:58:54.17	178.24	19.50	-28.8	-30.9	15.3	5.39e-04	0	42	0	1092616192	18	4592
2026-01-09 23:58:55.17	178.31	19.38	-29.0	-31.5	14.9	0.00e+00	0	42	0	1093664768	18	4800
2026-01-09 23:58:56.17	178.38	19.26	-29.3	-32.2	14.5	5.66e-04	0	42	0	1095761920	18	5014
2026-01-09 23:58:57.16	178.44	19.14	-29.5	-32.2	14.2	9.74e-04	0	42	0	1097859072	19	4933
2026-01-09 23:58:58.16	178.51	19.02	-29.4	-32.0	14.3	7.00e-07	0	42	0	1099956224	19	4839
2026-01-09 23:58:59.16	178.58	18.89	-29.2	-32.0	14.6	0.00e+00	0	42	0	1101004800	18	4965
2026-01-09 23:59:00.16	178.65	18.77	-29.3	-32.2	14.5	1.18e-03	0	42	0	1103101952	18	5027
2026-01-09 23:59:01.14	178.72	18.66	-29.4	-32.5	14.3	7.60e-06	0	42	0	1105199104	18	5151
2026-01-09 23:59:02.14	178.78	18.54	-29.6	-32.6	14.0	7.00e-07	0	42	0	1107296256	19	5059
2026-01-09 23:59:03.14	178.85	18.42	-29.4	-31.9	14.4	1.40e-03	0	42	0	1109393408	19	4822
2026-01-09 23:59:04.13	178.91	18.30	-29.4	-32.0	14.3	3.80e-06	0	42	0	1110441984	19	4868
2026-01-09 23:59:05.13	178.98	18.18	-29.3	-32.1	14.6	1.53e-03	0	42	0	1112539136	18	5005
2026-01-09 23:59:06.12	179.04	18.07	-29.4	-32.5	14.3	0.00e+00	0	42	0	1114636288	18	5122
2026-01-09 23:59:07.12	179.11	17.95	-29.4	-31.9	14.3	5.30e-06	0	42	0	1116733440	19	4807
2026-01-09 23:59:08.12	179.17	17.84	-29.3	-32.2	14.5	1.80e-03	0	42	0	1117782016	18	5038
2026-01-09 23:59:09.12	179.23	17.72	-29.5	-32.4	14.1	0.00e+00	0	42	0	1119879168	19	4990
2026-01-09 23:59:10.11	179.30	17.61	-29.8	-33.1	13.6	1.44e-05	0	42	0	1121976320	19	5243
2026-01-09 23:59:11.11	179.36	17.49	-30.0	-33.2	13.1	1.92e-03	0	42	0	1124073472	20	5207
2026-01-09 23:59:12.11	179.42	17.38	-30.4	-34.3	12.3	1.90e-03	0	42	0	1126170624	20	5645
2026-01-09 23:59:13.12	179.48	17.26	-30.4	-34.3	12.3	2.31e-04	0	42	0	1127219200	20	5658
2026-01-09 23:59:14.11	179.54	17.15	-30.3	-34.1	12.4	2.03e-03	0	42	0	1129316352	20	5568
2026-01-09 23:59:15.11	179.60	17.04	-30.1	-33.3	13.0	1.82e-03	0	42	0	1131413504	20	5253
2026-01-09 23:59:16.11	179.66	16.93	-30.3	-34.0	12.4	5.87e-05	0	42	0	1133510656	20	5506
2026-01-09 23:59:17.11	179.72	16.81	-30.2	-33.6	12.8	1.94e-03	0	42	0	1135607808	20	5371
2026-01-09 23:59:18.11	179.78	16.70	-29.9	-33.0	13.2	1.95e-03	0	42	0	1136656384	20	5113
2026-01-09 23:59:19.12	179.84	16.59	-29.9	-32.9	13.2	2.05e-05	0	42	0	1138753536	20	5101
2026-01-09 23:59:20.11	179.90	16.48	-29.8	-33.2	13.5	1.22e-05	0	42	0	1140850688	19	5284
2026-01-09 23:59:21.11	179.96	16.37	-30.0	-33.1	13.1	1.80e-03	0	42	0	1142947840	20	5164
2026-01-09 23:59:22.12	180.02	16.26	-30.2	-33.7	12.7	3.58e-05	0	42	0	1145044992	20	5393
2026-01-09 23:59:23.12	180.08	16.15	-30.4	-34.3	12.3	9.07e-05	0	42	0	1146093568	20	5638
2026-01-09 23:59:24.12	180.13	16.04	-30.2	-33.8	12.7	1.70e-03	0	42	0	1148190720	20	5442
2026-01-09 23:59:25.12	180.19	15.94	-30.5	-34.2	12.0	3.39e-04	0	42	0	1150287872	21	5489
2026-01-09 23:59:26.13	180.25	15.83	-30.3	-33.9	12.5	1.61e-03	0	42	0	1152385024	20	5507
2026-01-09 23:59:27.13	180.30	15.72	-30.4	-34.4	12.2	1.10e-04	0	42	0	1153433600	20	5682
2026-01-09 23:59:28.13	180.36	15.61	-30.4	-33.9	12.2	3.62e-04	0	42	0	1155530752	21	5361
2026-01-09 23:59:29.13	180.41	15.51	-30.5	-34.7	12.0	1.32e-03	0	42	0	1157627904	20	5842
2026-01-09 23:59:30.13	180.47	15.40	-30.5	-34.1	12.1	3.74e-04	0	42	0	1159725056	21	5471
2026-01-09 23:59:31.14	180.52	15.30	-30.7	-34.7	11.7	5.40e-04	0	42	0	1161822208	21	5727
2026-01-09 23:59:32.14	180.58	15.19	-30.9	-35.3	11.1	1.78e-03	0	42	0	1162870784	21	6019
2026-01-09 23:59:33.15	180.63	15.09	-30.5	-34.2	11.9	1.22e-03	0	42	0	1164967936	21	5522
2026-01-09 23:59:34.15	180.68	14.98	-30.6	-34.5	11.7	5.47e-04	0	42	0	1167065088	21	5646
2026-01-09 23:59:35.15	180.74	14.88	-30.6	-34.7	11.7	1.16e-03	0	42	0	1169162240	21	5709
2026-01-09 23:59:36.15	180.79	14.78	-30.9	-35.6	10.9	1.72e-03	0	42	0	1171259392	21	6134
2026-01-09 23:59:37.15	180.84	14.67	-30.5	-34.3	11.8	1.76e-03	0	42	0	1172307968	21	5573
2026-01-09 23:59:38.16	180.89	14.57	-30.3	-33.7	12.3	3.33e-04	0	42	0	1174405120	21	5305
2026-01-09 23:59:39.16	180.95	14.47	-30.2	-33.3	12.5	2.04e-04	0	42	0	1176502272	21	5163
2026-01-09 23:59:40.17	181.00	14.37	-30.1	-33.1	12.6	1.03e-04	0	42	0	1178599424	21	5084
2026-01-09 23:59:41.17	181.05	14.26	-30.3	-33.7	12.2	2.16e-04	0	42	0	1180696576	21	5320
2026-01-09 23:59:42.17	181.10	14.16	-30.4	-33.9	12.1	3.43e-04	0	42	0	1181745152	21	5382
2026-01-09 23:59:43.18	181.15	14.06	-30.5	-34.1	11.9	3.23e-04	0	42	0	1183842304	21	5495
2026-01-09 23:59:44.19	181.20	13.96	-30.5	-34.2	11.9	3.36e-04	0	42	0	1185939456	21	5502
2026-01-09 23:59:45.18	181.25	13.86	-30.6	-34.5	11.6	7.93e-04	0	42	0	1188036608	21	5653
2026-01-09 23:59:46.19	181.30	13.76	-30.7	-34.8	11.4	6.67e-04	0	42	0	1190133760	21	5788
2026-01-09 23:59:47.19	181.35	13.66	-30.7	-34.9	11.4	1.51e-03	0	42	0	1191182336	21	5822
2026-01-09 23:59:48.20	181.40	13.56	-30.3	-33.7	12.2	5.71e-04	0	42	0	1193279488	21	5296
2026-01-09 23:59:49.20	181.45	13.47	-30.2	-33.3	12.4	2.02e-04	0	42	0	1195376640	21	5162
2026-01-09 23:59:50.21	181.50	13.37	-30.2	-33.8	12.5	5.87e-04	0	42	0	1197473792	20	5451
2026-01-09 23:59:51.20	181.54	13.27	-30.2	-33.8	12.5	5.95e-04	0	42	0	1199570944	20	5449
2026-01-09 23:59:52.20	181.59	13.18	-30.2	-34.0	12.3	1.27e-04	0	42	0	1200619520	20	5540
2026-01-09 23:59:53.20	181.64	13.08	-30.3	-34.2	12.2	7.40e-04	0	42	0	1202716672	20	5648
2026-01-09 23:59:54.20	181.69	12.98	-30.2	-33.9	12.3	6.04e-04	0	42	0	1204813824	20	5521
2026-01-09 23:59:55.21	181.73	12.89	-30.3	-34.2	12.1	2.78e-04	0	42	0	1206910976	20	5656
2026-01-09 23:59:56.21	181.78	12.79	-30.3	-34.2	12.1	7.81e-04	0	42	0	1207959552	20	5632
2026-01-09 23:59:57.21	181.83	12.70	-30.3	-34.1	12.3	7.03e-04	0	42	0	1210056704	20	5574
2026-01-09 23:59:58.21	181.87	12.60	-30.2	-33.9	12.4	1.34e-04	0	42	0	1212153856	20	5505
2026-01-09 23:59:59.22	181.92	12.51	-30.2	-33.8	12.4	4.42e-04	0	42	0	1214251008	20	5474
2026-01-10 00:00:00.22	181.96	12.41	-30.3	-34.2	12.1	7.06e-04	0	42	0	1216348160	20	5651
2026-01-10 00:00:01.21	182.01	12.32	-30.4	-34.4	12.0	3.27e-04	0	42	0	1217396736	20	5751
2026-01-10 00:00:02.22	182.05	12.23	-30.5	-34.3	11.7	8.21e-04	0	42	0	1219493888	21	5586
2026-01-10 00:00:03.23	182.10	12.13	-30.4	-33.9	12.0	6.68e-04	0	42	0	1221591040	21	5418
2026-01-10 00:00:04.23	182.14	12.04	-30.4	-34.1	11.8	4.52e-04	0	42	0	1223688192	21	5507
2026-01-10 00:00:05.23	182.19	11.95	-30.6	-34.7	11.4	1.52e-03	0	42	0	1225785344	21	5768
2026-01-10 00:00:06.23	182.23	11.86	-30.6	-34.8	11.3	1.00e-03	0	42	0	1226833920	21	5808
2026-01-10 00:00:07.23	182.27	11.76	-30.1	-33.2	12.4	2.24e-04	0	42	0	1228931072	21	5113
2026-01-10 00:00:08.23	182.32	11.67	-30.1	-33.6	12.5	1.22e-04	0	42	0	1231028224	20	5388
2026-01-10 00:00:09.24	182.36	11.58	-30.2	-33.9	12.3	3.08e-04	0	42	0	1233125376	20	5526
2026-01-10 00:00:10.24	182.40	11.49	-30.5	-34.5	11.5	9.95e-04	0	42	0	1235222528	21	5654
2026-01-10 00:00:11.24	182.45	11.40	-30.1	-33.3	12.3	3.41e-04	0	42	0	1236271104	21	5156
2026-01-10 00:00:12.24	182.49	11.31	-30.1	-33.5	12.5	1.56e-04	0	42	0	1238368256	20	5374
2026-01-10 00:00:13.25	182.53	11.22	-30.1	-33.8	12.3	1.16e-04	0	42	0	1240465408	20	5472
2026-01-10 00:00:14.25	182.57	11.13	-30.2	-33.9	12.2	2.86e-04	0	42	0	1242562560	20	5527
2026-01-10 00:00:15.26	182.62	11.04	-30.2	-33.8	12.3	2.28e-04	0	42	0	1244659712	20	5492
2026-01-10 00:00:16.26	182.66	10.95	-30.3	-34.4	11.9	2.88e-04	0	42	0	1245708288	20	5723
2026-01-10 00:00:17.26	182.70	10.86	-30.5	-34.4	11.5	7.14e-04	0	42	0	1247805440	21	5637
2026-01-10 00:00:18.27	182.74	10.77	-30.2	-33.4	12.2	1.90e-04	0	42	0	1249902592	21	5214
2026-01-10 00:00:19.27	182.78	10.69	-29.9	-32.5	12.8	9.30e-05	0	42	0	1251999744	21	4867
2026-01-10 00:00:20.27	182.82	10.60	-29.8	-32.8	13.0	1.91e-04	0	42	0	1253048320	20	5067
2026-01-10 00:00:21.27	182.86	10.51	-29.7	-32.6	13.0	1.27e-04	0	42	0	1255145472	20	5025
2026-01-10 00:00:22.27	182.90	10.42	-29.8	-32.8	12.9	4.57e-05	0	42	0	1257242624	20	5103
2026-01-10 00:00:23.27	182.94	10.34	-29.9	-33.0	12.8	1.50e-04	0	42	0	1259339776	20	5157
2026-01-10 00:00:24.27	182.98	10.25	-29.9	-33.1	12.6	2.01e-04	0	42	0	1261436928	20	5217
2026-01-10 00:00:25.27	183.02	10.17	-29.7	-32.5	13.2	5.34e-05	0	42	0	1262485504	20	4958
2026-01-10 00:00:26.27	183.06	10.08	-29.9	-33.0	12.7	2.23e-04	0	42	0	1264582656	20	5167
2026-01-10 00:00:27.27	183.10	10.00	-30.0	-33.2	12.6	1.72e-04	0	42	0	1266679808	20	5253
2026-01-10 00:00:28.27	183.14	9.91	-30.3	-34.2	11.9	2.71e-04	0	42	0	1268776960	20	5640
2026-01-10 00:00:29.27	183.17	9.83	-30.0	-33.4	12.5	4.27e-04	0	42	0	1270874112	20	5307
2026-01-10 00:00:30.27	183.21	9.74	-30.0	-33.3	12.6	3.47e-04	0	42	0	1271922688	20	5269
2026-01-10 00:00:31.28	183.25	9.66	-30.0	-33.6	12.4	3.85e-04	0	42	0	1274019840	20	5389
2026-01-10 00:00:32.28	183.29	9.57	-30.3	-34.4	11.8	3.11e-04	0	42	0	1276116992	20	5754
2026-01-10 00:00:33.28	183.33	9.49	-30.0	-33.4	12.4	7.97e-04	0	42	0	1278214144	20	5349
2026-01-10 00:00:34.28	183.37	9.40	-30.1	-33.7	12.3	3.83e-04	0	42	0	1280311296	20	5451
2026-01-10 00:00:35.28	183.40	9.32	-29.9	-33.1	12.6	5.96e-04	0	42	0	1281359872	20	5211
2026-01-10 00:00:36.29	183.44	9.24	-29.8	-32.9	12.7	7.73e-04	0	42	0	1283457024	20	5148
2026-01-10 00:00:37.29	183.48	9.15	-29.9	-33.1	12.7	9.23e-05	0	42	0	1285554176	20	5205
