passes_logs/2026/01/09/R2M6_AANII_01/R2M6_AANII_01__20260109_080222_SUOMI_NPP_rec.log

#Pass ID: 20260109_080222_SUOMI NPP
#Satellite: SUOMI NPP
#Configuration: NPP
#almurnet v.1.7.20240730
#Start time: 2026-01-09 08:02:22

#Version: 2.2.20231116
#Station: R2M6_AANII_01
#Location: 30.233357 lon 59.946436 lat
#TLE: 1 37849U 11061A   26008.05542337  .00000108  00000+0  71976-4 0  9997
#TLE: 2 37849  98.7805 310.1641 0002540  75.6410 284.5048 14.19523335735721

#Time	Az	El	Level	Level2	SNR	BER	BlckErr	Temp	State	Recorded	gain1	gain2
2026-01-09 08:02:22.87	87.00	7.03	-32.3	-39.3	4.1	1.44e+00	0	40	0	0	26	8092
2026-01-09 08:02:23.87	86.89	7.09	-32.2	-38.7	4.3	1.39e+00	0	40	104	0	25	7673
2026-01-09 08:02:24.88	86.78	7.15	-32.1	-38.3	5.5	5.52e-01	0	40	0	0	25	7314
2026-01-09 08:02:25.89	86.67	7.20	-32.1	-38.0	5.7	4.13e-01	0	40	0	1048576	25	7127
2026-01-09 08:02:26.90	86.55	7.26	-32.1	-38.2	5.6	3.99e-01	0	40	0	3145728	25	7236
2026-01-09 08:02:27.90	86.44	7.32	-32.2	-38.4	5.5	4.31e-01	0	40	0	5242880	25	7352
2026-01-09 08:02:28.91	86.33	7.38	-32.3	-38.8	5.3	4.41e-01	0	41	0	7340032	25	7674
2026-01-09 08:02:29.92	86.22	7.44	-32.3	-39.6	4.9	6.70e-01	0	40	0	9437184	25	8341
2026-01-09 08:02:30.92	86.11	7.49	-32.3	-39.0	5.2	7.00e-01	0	41	0	10485760	25	7828
2026-01-09 08:02:31.92	85.99	7.55	-32.2	-38.1	5.7	5.12e-01	0	41	0	12582912	25	7163
2026-01-09 08:02:32.93	85.88	7.61	-31.9	-36.7	6.7	2.44e-01	0	41	0	14680064	25	6235
2026-01-09 08:02:33.93	85.76	7.67	-31.7	-36.0	7.6	1.33e-01	0	41	0	16777216	24	5917
2026-01-09 08:02:34.94	85.65	7.73	-31.5	-35.1	8.3	7.90e-02	0	41	0	18874368	24	5442
2026-01-09 08:02:35.94	85.54	7.78	-31.2	-34.5	9.2	2.58e-02	0	41	0	19922944	23	5261
2026-01-09 08:02:36.95	85.42	7.84	-31.2	-34.5	9.2	1.89e-02	0	41	0	22020096	23	5251
2026-01-09 08:02:37.95	85.30	7.90	-31.4	-35.0	8.9	2.26e-02	0	41	0	24117248	23	5474
2026-01-09 08:02:38.96	85.19	7.96	-31.4	-35.0	8.9	2.90e-02	0	41	0	26214400	23	5447
2026-01-09 08:02:39.96	85.07	8.02	-31.5	-35.3	8.6	3.51e-02	0	41	0	28311552	23	5624
2026-01-09 08:02:40.96	84.95	8.07	-31.5	-35.3	8.6	3.27e-02	0	41	0	29360128	23	5625
2026-01-09 08:02:41.96	84.84	8.13	-31.5	-35.4	8.5	3.83e-02	0	41	0	31457280	23	5669
2026-01-09 08:02:42.97	84.72	8.19	-31.6	-35.7	8.3	4.26e-02	0	41	0	33554432	23	5801
2026-01-09 08:02:43.97	84.60	8.25	-31.5	-35.4	8.6	4.00e-02	0	41	0	35651584	23	5641
2026-01-09 08:02:44.98	84.48	8.31	-31.7	-36.3	7.9	4.18e-02	0	41	0	37748736	23	6104
2026-01-09 08:02:45.99	84.36	8.37	-31.5	-35.5	8.5	4.67e-02	0	41	0	38797312	23	5713
2026-01-09 08:02:46.99	84.24	8.42	-31.3	-34.7	9.2	2.31e-02	0	41	0	40894464	23	5294
2026-01-09 08:02:47.99	84.12	8.48	-31.2	-34.4	9.4	1.63e-02	0	41	0	42991616	23	5156
2026-01-09 08:02:49.00	84.00	8.54	-31.1	-34.1	9.7	1.32e-02	0	41	0	45088768	23	5040
2026-01-09 08:02:50.01	83.87	8.60	-31.1	-33.7	10.0	8.19e-03	0	41	0	46137344	23	4874
2026-01-09 08:02:51.02	83.75	8.66	-31.0	-33.5	10.2	7.01e-03	0	41	0	48234496	23	4789
2026-01-09 08:02:52.02	83.63	8.72	-31.1	-33.9	9.9	6.64e-03	0	41	0	50331648	23	4942
2026-01-09 08:02:53.02	83.51	8.77	-31.0	-33.5	10.2	5.81e-03	0	41	0	52428800	23	4783
2026-01-09 08:02:54.02	83.38	8.83	-30.9	-33.1	10.4	4.71e-03	0	41	0	54525952	23	4646
2026-01-09 08:02:55.03	83.26	8.89	-30.8	-32.9	10.6	3.91e-03	0	41	0	56623104	23	4568
2026-01-09 08:02:56.04	83.13	8.95	-30.8	-33.1	10.8	2.84e-03	0	41	0	57671680	22	4728
2026-01-09 08:02:57.04	83.01	9.01	-30.7	-33.0	10.9	2.38e-03	0	41	0	59768832	22	4695
2026-01-09 08:02:58.05	82.88	9.07	-30.8	-33.3	10.7	2.30e-03	0	41	0	61865984	22	4774
2026-01-09 08:02:59.05	82.75	9.12	-30.8	-33.3	10.7	3.35e-03	0	41	0	63963136	22	4806
2026-01-09 08:03:00.06	82.63	9.18	-30.8	-33.3	10.7	2.70e-03	0	41	0	65011712	22	4804
2026-01-09 08:03:01.06	82.50	9.24	-31.0	-33.8	10.4	3.12e-03	0	41	0	67108864	22	4985
2026-01-09 08:03:02.07	82.37	9.30	-30.8	-33.3	10.7	3.49e-03	0	41	0	69206016	22	4779
2026-01-09 08:03:03.08	82.24	9.36	-30.9	-33.4	10.7	2.45e-03	0	41	0	71303168	22	4837
2026-01-09 08:03:04.08	82.11	9.42	-31.0	-33.7	10.5	3.69e-03	0	41	0	73400320	22	4927
2026-01-09 08:03:05.09	81.98	9.48	-30.8	-33.3	10.7	3.33e-03	0	41	0	74448896	22	4801
2026-01-09 08:03:06.09	81.85	9.53	-30.8	-33.3	10.8	2.05e-03	0	42	0	76546048	22	4777
2026-01-09 08:03:07.10	81.72	9.59	-30.7	-33.1	10.9	2.15e-03	0	42	0	78643200	22	4740
2026-01-09 08:03:08.10	81.59	9.65	-30.7	-33.0	10.9	2.19e-03	0	41	0	80740352	22	4697
2026-01-09 08:03:09.11	81.46	9.71	-30.7	-33.1	10.8	2.41e-03	0	41	0	82837504	22	4753
2026-01-09 08:03:10.11	81.33	9.77	-30.8	-33.4	10.7	2.71e-03	0	41	0	83886080	22	4850
2026-01-09 08:03:11.12	81.20	9.83	-30.9	-33.8	10.4	4.50e-03	0	41	0	85983232	22	5006
2026-01-09 08:03:12.12	81.06	9.88	-30.8	-33.4	10.7	3.45e-03	0	42	0	88080384	22	4850
2026-01-09 08:03:13.13	80.93	9.94	-30.7	-33.2	10.8	2.74e-03	0	41	0	90177536	22	4775
2026-01-09 08:03:14.14	80.79	10.00	-30.7	-33.1	10.8	2.32e-03	0	42	0	92274688	22	4751
2026-01-09 08:03:15.14	80.66	10.06	-30.9	-33.7	10.5	2.35e-03	0	42	0	93323264	22	4959
2026-01-09 08:03:16.15	80.52	10.12	-31.0	-34.0	10.2	6.74e-03	0	42	0	95420416	22	5091
2026-01-09 08:03:17.15	80.39	10.18	-30.9	-33.7	10.4	5.86e-03	0	41	0	97517568	22	4973
2026-01-09 08:03:18.16	80.25	10.23	-30.8	-33.3	10.7	3.33e-03	0	41	0	99614720	22	4833
2026-01-09 08:03:19.16	80.11	10.29	-30.8	-33.3	10.7	3.07e-03	0	42	0	101711872	22	4819
2026-01-09 08:03:20.16	79.98	10.35	-30.7	-32.9	11.0	2.11e-03	0	42	0	102760448	22	4687
2026-01-09 08:03:21.16	79.84	10.41	-30.7	-33.1	10.9	2.00e-03	0	42	0	104857600	22	4726
2026-01-09 08:03:22.17	79.70	10.47	-30.7	-32.9	11.0	1.73e-03	0	42	0	106954752	22	4669
2026-01-09 08:03:23.17	79.56	10.52	-30.6	-32.8	11.1	1.36e-03	0	42	0	109051904	22	4638
2026-01-09 08:03:24.18	79.42	10.58	-30.7	-33.0	11.0	1.59e-03	0	42	0	111149056	22	4708
2026-01-09 08:03:25.19	79.28	10.64	-30.7	-33.2	10.8	2.02e-03	0	42	0	112197632	22	4768
2026-01-09 08:03:26.19	79.14	10.70	-30.9	-33.6	10.6	3.62e-03	0	42	0	114294784	22	4918
2026-01-09 08:03:27.20	79.00	10.76	-30.8	-33.5	10.6	3.40e-03	0	42	0	116391936	22	4892
2026-01-09 08:03:28.21	78.85	10.82	-30.7	-33.2	10.9	3.64e-03	0	42	0	118489088	22	4760
2026-01-09 08:03:29.22	78.71	10.87	-30.7	-33.1	11.0	2.28e-03	0	42	0	120586240	22	4729
2026-01-09 08:03:30.22	78.57	10.93	-30.7	-32.9	11.1	1.58e-03	0	42	0	121634816	22	4673
2026-01-09 08:03:31.23	78.42	10.99	-30.8	-33.4	10.7	1.60e-03	0	42	0	123731968	22	4859
2026-01-09 08:03:32.24	78.28	11.05	-30.9	-33.6	10.6	3.23e-03	0	42	0	125829120	22	4919
2026-01-09 08:03:33.24	78.13	11.10	-30.8	-33.4	10.7	3.56e-03	0	42	0	127926272	22	4867
2026-01-09 08:03:34.25	77.99	11.16	-31.0	-34.0	10.3	4.86e-03	0	42	0	130023424	22	5072
2026-01-09 08:03:35.26	77.84	11.22	-30.9	-33.7	10.6	4.34e-03	0	42	0	131072000	22	4963
2026-01-09 08:03:36.26	77.69	11.28	-31.0	-34.0	10.3	5.26e-03	0	42	0	133169152	22	5103
2026-01-09 08:03:37.27	77.55	11.34	-31.1	-34.3	10.1	5.37e-03	0	42	0	135266304	22	5210
2026-01-09 08:03:38.27	77.40	11.39	-31.2	-34.8	9.7	7.28e-03	0	42	0	137363456	22	5437
2026-01-09 08:03:39.28	77.25	11.45	-31.2	-34.8	9.7	8.15e-03	0	42	0	139460608	22	5432
2026-01-09 08:03:40.28	77.10	11.51	-31.2	-34.8	9.7	8.68e-03	0	42	0	140509184	22	5417
2026-01-09 08:03:41.29	76.95	11.57	-31.2	-34.7	9.8	1.14e-02	0	42	0	142606336	22	5377
2026-01-09 08:03:42.29	76.80	11.62	-31.3	-35.0	9.6	1.18e-02	0	42	0	144703488	22	5493
2026-01-09 08:03:43.30	76.65	11.68	-31.4	-35.2	9.4	1.61e-02	0	42	0	146800640	22	5633
2026-01-09 08:03:44.31	76.50	11.74	-31.2	-34.6	9.9	1.17e-02	0	42	0	148897792	22	5340
2026-01-09 08:03:45.32	76.34	11.80	-31.1	-34.2	10.2	7.20e-03	0	42	0	149946368	22	5167
2026-01-09 08:03:46.33	76.19	11.85	-31.0	-33.8	10.5	4.24e-03	0	42	0	152043520	22	4992
2026-01-09 08:03:47.33	76.04	11.91	-30.9	-33.6	10.7	3.00e-03	0	42	0	154140672	22	4911
2026-01-09 08:03:48.34	75.88	11.97	-31.0	-33.8	10.5	2.91e-03	0	42	0	156237824	22	5003
2026-01-09 08:03:49.35	75.73	12.02	-30.9	-33.5	10.8	3.01e-03	0	42	0	158334976	22	4856
2026-01-09 08:03:50.35	75.57	12.08	-30.9	-33.5	10.8	2.33e-03	0	42	0	159383552	22	4871
2026-01-09 08:03:51.36	75.42	12.14	-31.0	-33.7	10.6	2.97e-03	0	42	0	161480704	22	4966
2026-01-09 08:03:52.36	75.26	12.19	-30.9	-33.6	10.7	2.96e-03	0	42	0	163577856	22	4903
2026-01-09 08:03:53.36	75.10	12.25	-30.9	-33.7	10.6	3.58e-03	0	42	0	165675008	22	4953
2026-01-09 08:03:54.37	74.95	12.31	-30.8	-33.4	10.9	3.22e-03	0	42	0	167772160	22	4828
2026-01-09 08:03:55.37	74.79	12.36	-31.0	-34.0	10.5	2.21e-03	0	42	0	168820736	22	5050
2026-01-09 08:03:56.37	74.63	12.42	-30.9	-33.5	10.8	3.40e-03	0	42	0	170917888	22	4881
2026-01-09 08:03:57.38	74.47	12.48	-30.8	-33.1	11.1	2.11e-03	0	42	0	173015040	22	4726
2026-01-09 08:03:58.39	74.31	12.53	-30.8	-33.2	11.1	1.77e-03	0	42	0	175112192	22	4739
2026-01-09 08:03:59.40	74.15	12.59	-30.8	-33.2	11.0	1.52e-03	0	42	0	177209344	22	4764
2026-01-09 08:04:00.40	73.99	12.64	-30.7	-32.9	11.2	1.74e-03	0	42	0	178257920	22	4629
2026-01-09 08:04:01.41	73.82	12.70	-30.5	-32.2	11.7	9.15e-04	0	42	0	180355072	22	4392
2026-01-09 08:04:02.41	73.66	12.76	-30.5	-32.2	11.7	5.31e-04	0	42	0	182452224	22	4407
2026-01-09 08:04:03.42	73.50	12.81	-30.4	-31.9	11.9	4.01e-04	0	42	0	184549376	22	4302
2026-01-09 08:04:04.42	73.34	12.87	-30.2	-31.9	12.3	2.20e-04	0	42	0	186646528	21	4385
2026-01-09 08:04:05.43	73.17	12.92	-30.1	-31.8	12.3	1.94e-04	0	42	0	187695104	21	4375
2026-01-09 08:04:06.44	73.00	12.98	-30.1	-31.6	12.5	1.36e-04	0	42	0	189792256	21	4293
2026-01-09 08:04:07.44	72.84	13.03	-29.9	-31.2	12.7	8.62e-05	0	42	0	191889408	21	4151
2026-01-09 08:04:08.45	72.67	13.09	-29.9	-31.2	12.8	1.35e-04	0	42	0	193986560	21	4154
2026-01-09 08:04:09.46	72.51	13.14	-29.8	-30.9	13.0	4.80e-05	0	42	0	196083712	21	4068
2026-01-09 08:04:10.47	72.34	13.20	-29.9	-31.1	12.8	5.79e-05	0	42	0	197132288	21	4134
2026-01-09 08:04:11.47	72.17	13.25	-29.9	-31.1	12.8	4.04e-05	0	42	0	199229440	21	4147
2026-01-09 08:04:12.47	72.00	13.31	-30.0	-31.2	12.7	5.41e-05	0	42	0	201326592	21	4173
2026-01-09 08:04:13.47	71.83	13.36	-30.0	-31.3	12.7	1.01e-04	0	42	0	203423744	21	4188
2026-01-09 08:04:14.48	71.66	13.42	-29.9	-31.2	12.8	6.17e-05	0	42	0	205520896	21	4149
2026-01-09 08:04:15.48	71.49	13.47	-30.0	-31.2	12.8	3.73e-05	0	42	0	206569472	21	4163
2026-01-09 08:04:16.49	71.32	13.53	-30.1	-31.5	12.6	8.23e-05	0	42	0	208666624	21	4263
2026-01-09 08:04:17.50	71.15	13.58	-30.0	-31.3	12.7	1.20e-04	0	42	0	210763776	21	4194
2026-01-09 08:04:18.51	70.97	13.63	-29.9	-31.2	12.8	5.56e-05	0	42	0	212860928	21	4155
2026-01-09 08:04:19.52	70.80	13.69	-30.0	-31.3	12.7	9.53e-05	0	42	0	214958080	21	4192
2026-01-09 08:04:20.52	70.63	13.74	-30.0	-31.3	12.7	7.55e-05	0	42	0	216006656	21	4198
2026-01-09 08:04:21.53	70.45	13.79	-29.9	-31.1	12.9	5.26e-05	0	42	0	218103808	21	4124
2026-01-09 08:04:22.54	70.27	13.85	-30.0	-31.2	12.8	5.87e-05	0	42	0	220200960	21	4166
2026-01-09 08:04:23.54	70.10	13.90	-29.8	-30.7	13.1	6.25e-05	0	42	0	222298112	21	4010
2026-01-09 08:04:24.54	69.92	13.95	-29.9	-31.0	12.9	5.03e-05	0	42	0	224395264	21	4098
2026-01-09 08:04:25.55	69.75	14.01	-30.0	-31.3	12.7	5.95e-05	0	42	0	225443840	21	4200
2026-01-09 08:04:26.56	69.57	14.06	-30.1	-31.7	12.4	1.20e-04	0	42	0	227540992	21	4337
2026-01-09 08:04:27.57	69.39	14.11	-30.2	-31.9	12.3	1.44e-04	0	42	0	229638144	21	4378
2026-01-09 08:04:28.58	69.21	14.16	-30.2	-31.9	12.3	1.84e-04	0	43	0	231735296	21	4399
2026-01-09 08:04:29.58	69.03	14.22	-30.1	-31.7	12.4	1.25e-04	0	42	0	233832448	21	4339
2026-01-09 08:04:30.59	68.85	14.27	-30.2	-32.0	12.2	1.51e-04	0	42	0	234881024	21	4442
2026-01-09 08:04:31.59	68.67	14.32	-30.3	-32.2	12.1	2.39e-04	0	42	0	236978176	21	4487
2026-01-09 08:04:32.59	68.49	14.37	-30.3	-32.2	12.1	2.37e-04	0	42	0	239075328	21	4496
2026-01-09 08:04:33.60	68.30	14.42	-30.3	-32.3	12.1	2.62e-04	0	42	0	241172480	21	4508
2026-01-09 08:04:34.60	68.12	14.47	-30.3	-32.2	12.1	2.74e-04	0	42	0	243269632	21	4494
2026-01-09 08:04:35.60	67.94	14.53	-30.1	-31.7	12.5	1.83e-04	0	42	0	244318208	21	4300
2026-01-09 08:04:36.61	67.75	14.58	-30.0	-31.3	12.8	8.92e-05	0	42	0	246415360	21	4172
2026-01-09 08:04:37.62	67.57	14.63	-30.0	-31.4	12.8	5.72e-05	0	42	0	248512512	21	4195
2026-01-09 08:04:38.62	67.38	14.68	-29.9	-31.0	13.1	6.79e-05	0	43	0	250609664	21	4071
2026-01-09 08:04:39.62	67.20	14.73	-29.8	-31.2	13.2	1.44e-05	0	42	0	252706816	20	4225
2026-01-09 08:04:40.63	67.01	14.78	-29.6	-30.6	13.6	1.14e-05	0	42	0	253755392	20	4040
2026-01-09 08:04:41.63	66.83	14.83	-29.8	-31.1	13.3	1.29e-05	0	42	0	255852544	20	4191
2026-01-09 08:04:42.64	66.64	14.88	-29.7	-30.9	13.5	1.98e-05	0	42	0	257949696	20	4127
2026-01-09 08:04:43.64	66.45	14.93	-29.7	-30.8	13.5	9.10e-06	0	42	0	260046848	20	4099
2026-01-09 08:04:44.65	66.26	14.98	-29.8	-31.1	13.3	1.14e-05	0	42	0	261095424	20	4193
2026-01-09 08:04:45.66	66.07	15.03	-29.8	-31.1	13.3	1.52e-05	0	42	0	263192576	20	4183
2026-01-09 08:04:46.67	65.88	15.07	-29.9	-31.4	13.2	2.13e-05	0	43	0	265289728	20	4273
2026-01-09 08:04:47.67	65.69	15.12	-29.8	-31.1	13.3	2.13e-05	0	42	0	267386880	20	4195
2026-01-09 08:04:48.67	65.50	15.17	-30.0	-31.6	13.0	1.75e-05	0	42	0	269484032	20	4353
2026-01-09 08:04:49.68	65.30	15.22	-30.1	-32.0	12.7	6.48e-05	0	42	0	271581184	20	4471
2026-01-09 08:04:50.69	65.11	15.27	-30.2	-32.2	12.6	1.01e-04	0	42	0	272629760	20	4566
2026-01-09 08:04:51.69	64.92	15.32	-29.9	-31.5	13.1	7.40e-05	0	42	0	274726912	20	4317
2026-01-09 08:04:52.70	64.72	15.36	-29.8	-31.2	13.3	2.67e-05	0	42	0	276824064	20	4213
2026-01-09 08:04:53.70	64.53	15.41	-29.8	-31.2	13.3	2.36e-05	0	42	0	278921216	20	4220
2026-01-09 08:04:54.70	64.33	15.46	-29.7	-30.9	13.4	2.13e-05	0	42	0	279969792	20	4146
2026-01-09 08:04:55.71	64.14	15.50	-29.6	-30.5	13.7	1.22e-05	0	42	0	282066944	20	4018
2026-01-09 08:04:56.72	63.94	15.55	-29.6	-30.6	13.7	7.60e-06	0	42	0	284164096	20	4052
2026-01-09 08:04:57.72	63.74	15.60	-29.7	-30.9	13.5	1.06e-05	0	42	0	286261248	20	4134
2026-01-09 08:04:58.73	63.54	15.64	-29.8	-31.1	13.4	1.44e-05	0	42	0	288358400	20	4179
2026-01-09 08:04:59.74	63.34	15.69	-29.7	-31.0	13.5	1.06e-05	0	43	0	289406976	20	4152
2026-01-09 08:05:00.75	63.14	15.73	-29.7	-31.0	13.4	1.29e-05	0	43	0	291504128	20	4160
2026-01-09 08:05:01.76	62.94	15.78	-29.8	-31.1	13.4	1.14e-05	0	43	0	293601280	20	4178
2026-01-09 08:05:02.76	62.74	15.82	-29.8	-31.0	13.4	1.14e-05	0	43	0	295698432	20	4167
2026-01-09 08:05:03.77	62.54	15.87	-29.8	-31.2	13.3	1.22e-05	0	42	0	297795584	20	4213
2026-01-09 08:05:04.77	62.34	15.91	-29.7	-30.8	13.6	8.30e-06	0	42	0	298844160	20	4081
2026-01-09 08:05:05.78	62.14	15.96	-29.7	-30.8	13.6	1.37e-05	0	42	0	300941312	20	4102
2026-01-09 08:05:06.79	61.93	16.00	-29.8	-31.0	13.4	1.29e-05	0	42	0	303038464	20	4156
2026-01-09 08:05:07.79	61.73	16.05	-29.7	-30.9	13.5	1.90e-05	0	42	0	305135616	20	4111
2026-01-09 08:05:08.80	61.53	16.09	-29.5	-30.3	13.9	3.00e-06	0	42	0	307232768	20	3940
2026-01-09 08:05:09.80	61.32	16.13	-29.3	-29.8	14.2	3.00e-06	0	42	0	308281344	20	3794
2026-01-09 08:05:10.80	61.12	16.17	-29.4	-30.5	14.2	7.00e-07	0	43	0	310378496	19	4078
2026-01-09 08:05:11.81	60.91	16.22	-29.6	-31.0	13.8	7.00e-07	0	43	0	312475648	19	4237
2026-01-09 08:05:12.82	60.70	16.26	-29.7	-31.3	13.7	7.60e-06	0	43	0	314572800	19	4314
2026-01-09 08:05:13.83	60.50	16.30	-29.8	-31.6	13.4	6.10e-06	0	43	0	316669952	19	4427
2026-01-09 08:05:14.83	60.29	16.34	-30.0	-32.0	13.2	1.22e-05	0	42	0	317718528	19	4555
2026-01-09 08:05:15.83	60.08	16.38	-29.9	-31.9	13.2	2.21e-05	0	42	0	319815680	19	4526
2026-01-09 08:05:16.83	59.88	16.42	-29.8	-31.6	13.5	1.98e-05	0	42	0	321912832	19	4415
2026-01-09 08:05:17.84	59.66	16.46	-29.9	-31.9	13.3	1.06e-05	0	42	0	324009984	19	4533
2026-01-09 08:05:18.84	59.46	16.50	-29.8	-31.1	13.4	2.05e-05	0	42	0	326107136	20	4185
2026-01-09 08:05:19.85	59.24	16.54	-29.6	-30.6	13.8	7.60e-06	0	42	0	327155712	20	4032
2026-01-09 08:05:20.85	59.04	16.58	-29.6	-30.6	13.8	4.50e-06	0	43	0	329252864	20	4035
2026-01-09 08:05:21.86	58.82	16.62	-29.8	-31.1	13.4	7.60e-06	0	42	0	331350016	20	4191
2026-01-09 08:05:22.86	58.61	16.66	-29.7	-30.8	13.7	1.83e-05	0	42	0	333447168	20	4089
2026-01-09 08:05:23.87	58.40	16.70	-29.2	-30.0	14.5	2.20e-06	0	43	0	335544320	19	3947
2026-01-09 08:05:24.87	58.19	16.74	-29.2	-29.9	14.5	7.00e-07	0	43	0	336592896	19	3907
2026-01-09 08:05:25.88	57.97	16.78	-29.0	-29.5	14.9	0.00e+00	0	42	0	338690048	19	3795
2026-01-09 08:05:26.88	57.76	16.81	-28.9	-29.2	15.0	0.00e+00	0	42	0	340787200	19	3719
2026-01-09 08:05:27.89	57.54	16.85	-29.1	-29.7	14.7	0.00e+00	0	42	0	342884352	19	3861
2026-01-09 08:05:28.90	57.33	16.89	-28.9	-29.2	15.0	0.00e+00	0	43	0	344981504	19	3732
2026-01-09 08:05:29.90	57.11	16.92	-28.8	-29.4	15.3	0.00e+00	0	43	0	346030080	18	3870
2026-01-09 08:05:30.90	56.90	16.96	-28.9	-29.6	15.1	0.00e+00	0	42	0	348127232	18	3901
2026-01-09 08:05:31.91	56.68	16.99	-28.7	-29.2	15.4	0.00e+00	0	43	0	350224384	18	3800
2026-01-09 08:05:32.92	56.46	17.03	-28.8	-29.3	15.2	0.00e+00	0	43	0	352321536	18	3836
2026-01-09 08:05:33.92	56.24	17.06	-29.1	-30.0	14.9	0.00e+00	0	43	0	354418688	18	4021
2026-01-09 08:05:34.92	56.03	17.10	-29.2	-30.4	14.6	0.00e+00	0	43	0	355467264	18	4126
2026-01-09 08:05:35.93	55.81	17.13	-29.3	-30.7	14.5	0.00e+00	0	43	0	357564416	18	4217
2026-01-09 08:05:36.94	55.59	17.17	-29.3	-30.6	14.5	0.00e+00	0	43	0	359661568	18	4203
2026-01-09 08:05:37.94	55.37	17.20	-29.4	-30.9	14.4	0.00e+00	0	43	0	361758720	18	4281
2026-01-09 08:05:38.95	55.15	17.23	-29.6	-30.9	14.0	7.00e-07	0	42	0	363855872	19	4174
2026-01-09 08:05:39.96	54.92	17.27	-29.8	-31.5	13.6	3.00e-06	0	43	0	364904448	19	4370
2026-01-09 08:05:40.96	54.70	17.30	-29.7	-31.2	13.8	4.50e-06	0	42	0	367001600	19	4290
2026-01-09 08:05:41.96	54.48	17.33	-30.0	-31.9	13.4	5.30e-06	0	43	0	369098752	19	4502
2026-01-09 08:05:42.97	54.26	17.36	-29.8	-31.5	13.7	6.10e-06	0	42	0	371195904	19	4360
2026-01-09 08:05:43.98	54.04	17.39	-29.7	-31.2	13.8	2.20e-06	0	43	0	373293056	19	4277
2026-01-09 08:05:44.98	53.81	17.42	-29.7	-31.3	13.7	3.00e-06	0	42	0	374341632	19	4307
2026-01-09 08:05:45.99	53.59	17.45	-29.9	-31.8	13.5	1.44e-05	0	42	0	376438784	19	4470
2026-01-09 08:05:46.99	53.37	17.48	-30.0	-31.6	13.2	1.75e-05	0	43	0	378535936	20	4330
2026-01-09 08:05:48.00	53.14	17.51	-30.0	-31.4	13.3	1.83e-05	0	43	0	380633088	20	4273
2026-01-09 08:05:49.00	52.92	17.54	-29.8	-31.1	13.4	1.44e-05	0	42	0	382730240	20	4184
2026-01-09 08:05:50.01	52.69	17.57	-29.9	-31.3	13.4	1.44e-05	0	42	0	383778816	20	4223
2026-01-09 08:05:51.01	52.47	17.60	-29.9	-31.3	13.3	1.52e-05	0	43	0	385875968	20	4249
2026-01-09 08:05:52.02	52.24	17.63	-30.0	-31.7	13.1	1.22e-05	0	43	0	387973120	20	4358
2026-01-09 08:05:53.03	52.01	17.65	-30.0	-31.6	13.1	2.28e-05	0	42	0	390070272	20	4343
2026-01-09 08:05:54.03	51.79	17.68	-30.1	-31.8	13.0	2.13e-05	0	42	0	392167424	20	4402
2026-01-09 08:05:55.04	51.56	17.71	-29.9	-31.4	13.3	3.05e-05	0	42	0	393216000	20	4254
2026-01-09 08:05:56.04	51.33	17.73	-29.8	-31.0	13.6	8.30e-06	0	43	0	395313152	20	4132
2026-01-09 08:05:57.05	51.10	17.76	-29.8	-31.0	13.6	6.10e-06	0	43	0	397410304	20	4147
2026-01-09 08:05:58.06	50.87	17.78	-29.9	-31.2	13.4	1.52e-05	0	42	0	399507456	20	4199
2026-01-09 08:05:59.06	50.64	17.81	-29.7	-30.6	13.8	6.10e-06	0	43	0	401604608	20	4025
2026-01-09 08:06:00.07	50.41	17.83	-29.6	-30.4	14.0	7.00e-07	0	43	0	402653184	20	3958
2026-01-09 08:06:01.07	50.19	17.86	-29.5	-30.3	14.0	1.50e-06	0	43	0	404750336	20	3929
2026-01-09 08:06:02.08	49.95	17.88	-29.6	-30.6	13.8	1.50e-06	0	42	0	406847488	20	4017
2026-01-09 08:06:03.09	49.72	17.90	-29.6	-30.5	13.9	3.00e-06	0	43	0	408944640	20	3998
2026-01-09 08:06:04.10	49.49	17.92	-29.5	-30.1	14.1	3.00e-06	0	43	0	411041792	20	3882
2026-01-09 08:06:05.10	49.26	17.95	-29.3	-29.6	14.4	7.00e-07	0	43	0	412090368	20	3760
2026-01-09 08:06:06.11	49.03	17.97	-29.5	-30.8	14.0	1.50e-06	0	43	0	414187520	19	4164
2026-01-09 08:06:07.12	48.80	17.99	-29.5	-30.8	14.0	7.00e-07	0	43	0	416284672	19	4177
2026-01-09 08:06:08.13	48.56	18.01	-29.6	-31.0	14.0	2.20e-06	0	43	0	418381824	19	4235
2026-01-09 08:06:09.12	48.33	18.03	-29.6	-31.0	13.9	1.50e-06	0	43	0	420478976	19	4242
2026-01-09 08:06:10.13	48.10	18.05	-29.8	-31.5	13.5	6.80e-06	0	43	0	421527552	19	4387
2026-01-09 08:06:11.14	47.87	18.07	-29.9	-32.0	13.3	1.75e-05	0	43	0	423624704	19	4549
2026-01-09 08:06:12.15	47.63	18.09	-30.1	-32.0	12.8	2.97e-05	0	43	0	425721856	20	4480
2026-01-09 08:06:13.15	47.40	18.10	-30.4	-33.0	12.2	1.30e-04	0	42	0	427819008	20	4836
2026-01-09 08:06:14.16	47.16	18.12	-30.5	-32.7	12.0	2.33e-04	0	43	0	429916160	21	4647
2026-01-09 08:06:15.16	46.93	18.14	-30.6	-33.0	11.8	3.47e-04	0	43	0	430964736	21	4739
2026-01-09 08:06:16.16	46.70	18.16	-30.6	-33.0	11.7	5.61e-04	0	43	0	433061888	21	4760
2026-01-09 08:06:17.17	46.46	18.17	-30.5	-32.6	12.0	4.43e-04	0	43	0	435159040	21	4622
2026-01-09 08:06:18.18	46.23	18.19	-30.4	-32.4	12.1	2.97e-04	0	43	0	437256192	21	4523
2026-01-09 08:06:19.19	45.99	18.20	-30.4	-32.5	12.2	2.66e-04	0	43	0	439353344	21	4559
2026-01-09 08:06:20.19	45.76	18.22	-30.6	-32.8	11.9	2.53e-04	0	43	0	440401920	21	4677
2026-01-09 08:06:21.20	45.52	18.23	-30.6	-32.9	11.9	4.36e-04	0	43	0	442499072	21	4715
2026-01-09 08:06:22.20	45.29	18.25	-30.4	-32.5	12.2	4.25e-04	0	43	0	444596224	21	4556
2026-01-09 08:06:23.21	45.05	18.26	-30.4	-32.3	12.2	2.56e-04	0	43	0	446693376	21	4487
2026-01-09 08:06:24.21	44.81	18.27	-30.3	-32.0	12.4	2.27e-04	0	43	0	447741952	21	4407
2026-01-09 08:06:25.22	44.58	18.28	-30.5	-32.6	12.2	1.89e-04	0	43	0	449839104	21	4590
2026-01-09 08:06:26.22	44.34	18.30	-30.2	-31.9	12.6	1.30e-04	0	43	0	451936256	21	4354
2026-01-09 08:06:27.23	44.10	18.31	-30.1	-31.5	12.8	7.47e-05	0	42	0	454033408	21	4235
2026-01-09 08:06:28.24	43.87	18.32	-30.1	-31.6	12.8	5.95e-05	0	42	0	456130560	21	4260
2026-01-09 08:06:29.25	43.63	18.33	-30.1	-31.4	12.8	7.78e-05	0	43	0	458227712	21	4215
2026-01-09 08:06:30.25	43.39	18.34	-30.0	-31.3	12.9	5.18e-05	0	42	0	459276288	21	4179
2026-01-09 08:06:31.25	43.16	18.35	-29.6	-30.7	13.7	1.67e-05	0	43	0	461373440	20	4072
2026-01-09 08:06:32.27	42.91	18.36	-29.5	-30.4	13.8	3.00e-06	0	43	0	463470592	20	4002
2026-01-09 08:06:33.27	42.68	18.36	-29.6	-30.5	13.9	5.30e-06	0	43	0	465567744	20	4005
2026-01-09 08:06:34.28	42.44	18.37	-29.4	-30.0	14.1	4.50e-06	0	43	0	467664896	20	3870
2026-01-09 08:06:35.28	42.20	18.38	-29.5	-30.4	13.8	3.00e-06	0	43	0	468713472	20	3994
2026-01-09 08:06:36.29	41.96	18.39	-29.8	-31.1	13.5	9.90e-06	0	42	0	470810624	20	4176
2026-01-09 08:06:37.29	41.73	18.39	-29.9	-31.4	13.2	1.37e-05	0	42	0	472907776	20	4283
2026-01-09 08:06:38.30	41.49	18.40	-29.9	-31.3	13.3	1.75e-05	0	43	0	475004928	20	4247
2026-01-09 08:06:39.30	41.25	18.40	-30.0	-31.8	13.0	2.13e-05	0	42	0	476053504	20	4406
2026-01-09 08:06:40.31	41.01	18.41	-30.0	-31.7	13.1	3.28e-05	0	43	0	478150656	20	4376
2026-01-09 08:06:41.32	40.77	18.41	-30.1	-31.8	12.9	5.72e-05	0	43	0	480247808	20	4414
2026-01-09 08:06:42.32	40.53	18.42	-30.1	-31.9	12.8	4.65e-05	0	42	0	482344960	20	4432
2026-01-09 08:06:43.32	40.30	18.42	-30.0	-31.6	13.0	3.50e-05	0	43	0	484442112	20	4348
2026-01-09 08:06:44.33	40.06	18.42	-30.0	-31.7	12.9	3.73e-05	0	42	0	486539264	20	4387
2026-01-09 08:06:45.34	39.82	18.42	-29.9	-31.5	13.1	4.88e-05	0	43	0	487587840	20	4306
2026-01-09 08:06:46.35	39.58	18.43	-29.9	-31.4	13.1	2.28e-05	0	43	0	489684992	20	4281
2026-01-09 08:06:47.36	39.34	18.43	-29.8	-31.1	13.4	2.21e-05	0	43	0	491782144	20	4193
2026-01-09 08:06:48.36	39.10	18.43	-29.8	-31.2	13.3	2.05e-05	0	43	0	493879296	20	4207
2026-01-09 08:06:49.37	38.86	18.43	-29.8	-31.1	13.4	2.13e-05	0	43	0	494927872	20	4189
2026-01-09 08:06:50.37	38.62	18.43	-30.0	-31.6	13.1	1.83e-05	0	43	0	497025024	20	4326
2026-01-09 08:06:51.38	38.38	18.43	-29.9	-31.5	13.1	1.90e-05	0	43	0	499122176	20	4315
2026-01-09 08:06:52.38	38.15	18.42	-30.2	-32.1	12.7	8.31e-05	0	43	0	501219328	20	4516
2026-01-09 08:06:53.39	37.91	18.42	-30.3	-32.7	12.4	1.36e-04	0	43	0	503316480	20	4709
2026-01-09 08:06:54.39	37.67	18.42	-30.6	-32.9	11.8	3.10e-04	0	43	0	504365056	21	4688
2026-01-09 08:06:55.39	37.43	18.42	-30.5	-32.7	11.9	4.58e-04	0	43	0	506462208	21	4630
2026-01-09 08:06:56.40	37.19	18.41	-30.5	-32.7	12.0	3.34e-04	0	43	0	508559360	21	4620
2026-01-09 08:06:57.41	36.95	18.41	-30.5	-32.6	12.0	3.80e-04	0	43	0	510656512	21	4594
2026-01-09 08:06:58.42	36.72	18.40	-30.3	-32.0	12.4	2.35e-04	0	43	0	512753664	21	4389
2026-01-09 08:06:59.42	36.48	18.40	-30.2	-31.7	12.7	1.33e-04	0	43	0	513802240	21	4277
2026-01-09 08:07:00.42	36.24	18.39	-30.0	-31.3	12.9	5.18e-05	0	43	0	515899392	21	4154
2026-01-09 08:07:01.43	36.00	18.39	-30.0	-31.2	13.0	4.11e-05	0	43	0	517996544	21	4134
2026-01-09 08:07:02.44	35.76	18.38	-30.0	-31.1	13.0	3.73e-05	0	43	0	520093696	21	4094
2026-01-09 08:07:03.45	35.52	18.37	-30.1	-31.5	12.8	6.17e-05	0	43	0	522190848	21	4200
2026-01-09 08:07:04.45	35.29	18.37	-29.9	-31.3	13.2	1.98e-05	0	43	0	523239424	20	4240
2026-01-09 08:07:05.46	35.05	18.36	-29.9	-31.5	13.1	2.59e-05	0	43	0	525336576	20	4301
2026-01-09 08:07:06.47	34.81	18.35	-30.1	-32.0	12.7	6.33e-05	0	43	0	527433728	20	4456
2026-01-09 08:07:07.47	34.57	18.34	-30.0	-31.7	13.0	3.20e-05	0	43	0	529530880	20	4360
2026-01-09 08:07:08.48	34.34	18.33	-29.9	-31.4	13.2	2.89e-05	0	43	0	531628032	20	4282
2026-01-09 08:07:09.49	34.10	18.32	-30.0	-31.6	13.1	1.98e-05	0	43	0	532676608	20	4312
2026-01-09 08:07:10.49	33.86	18.31	-30.2	-32.2	12.7	2.28e-05	0	43	0	534773760	20	4527
2026-01-09 08:07:11.49	33.63	18.30	-30.1	-31.9	13.0	5.03e-05	0	43	0	536870912	20	4412
2026-01-09 08:07:12.50	33.39	18.29	-30.1	-32.0	12.9	6.25e-05	0	43	0	538968064	20	4443
2026-01-09 08:07:13.51	33.15	18.28	-29.9	-31.3	13.3	2.44e-05	0	43	0	541065216	20	4231
2026-01-09 08:07:14.51	32.92	18.26	-29.7	-30.8	13.5	1.14e-05	0	43	0	542113792	20	4099
2026-01-09 08:07:15.52	32.68	18.25	-29.4	-30.0	14.1	1.50e-06	0	43	0	544210944	20	3855
2026-01-09 08:07:16.53	32.44	18.24	-29.3	-30.2	14.4	0.00e+00	0	43	0	546308096	19	4008
2026-01-09 08:07:17.53	32.21	18.22	-29.1	-29.6	14.8	0.00e+00	0	43	0	548405248	19	3834
2026-01-09 08:07:18.54	31.97	18.21	-29.1	-29.7	14.6	0.00e+00	0	43	0	550502400	19	3864
2026-01-09 08:07:19.54	31.74	18.19	-28.9	-29.2	15.0	0.00e+00	0	43	0	551550976	19	3716
2026-01-09 08:07:20.55	31.51	18.18	-28.8	-29.4	15.2	7.00e-07	0	43	0	553648128	18	3867
2026-01-09 08:07:21.56	31.27	18.16	-28.7	-29.3	15.2	0.00e+00	0	43	0	555745280	18	3832
2026-01-09 08:07:22.57	31.03	18.14	-28.7	-29.2	15.2	0.00e+00	0	43	0	557842432	18	3811
2026-01-09 08:07:23.57	30.80	18.13	-28.9	-29.6	15.0	1.50e-06	0	43	0	559939584	18	3924
2026-01-09 08:07:24.57	30.57	18.11	-28.8	-29.5	15.1	0.00e+00	0	43	0	560988160	18	3894
2026-01-09 08:07:25.58	30.33	18.09	-29.0	-29.9	14.8	0.00e+00	0	43	0	563085312	18	3999
2026-01-09 08:07:26.58	30.10	18.07	-29.0	-29.8	14.9	0.00e+00	0	43	0	565182464	18	3973
2026-01-09 08:07:27.59	29.87	18.05	-29.1	-30.2	14.7	0.00e+00	0	43	0	567279616	18	4075
2026-01-09 08:07:28.60	29.64	18.03	-29.1	-30.3	14.6	0.00e+00	0	43	0	569376768	18	4106
2026-01-09 08:07:29.60	29.40	18.01	-29.1	-30.1	14.7	7.00e-07	0	43	0	570425344	18	4063
2026-01-09 08:07:30.60	29.17	17.99	-29.3	-30.8	14.3	7.00e-07	0	43	0	572522496	18	4245
2026-01-09 08:07:31.61	28.94	17.97	-29.5	-30.8	14.0	1.50e-06	0	43	0	574619648	19	4160
2026-01-09 08:07:32.62	28.71	17.95	-29.5	-30.7	14.0	2.20e-06	0	43	0	576716800	19	4129
2026-01-09 08:07:33.62	28.48	17.93	-29.5	-30.6	14.1	3.80e-06	0	43	0	578813952	19	4108
2026-01-09 08:07:34.63	28.25	17.91	-29.4	-30.4	14.2	0.00e+00	0	43	0	579862528	19	4047
2026-01-09 08:07:35.64	28.02	17.89	-29.2	-30.0	14.5	0.00e+00	0	43	0	581959680	19	3929
2026-01-09 08:07:36.64	27.79	17.86	-29.2	-30.1	14.5	0.00e+00	0	43	0	584056832	19	3952
2026-01-09 08:07:37.65	27.56	17.84	-29.4	-30.5	14.1	1.50e-06	0	43	0	586153984	19	4088
2026-01-09 08:07:38.66	27.33	17.81	-29.5	-30.7	14.1	4.50e-06	0	43	0	588251136	19	4133
2026-01-09 08:07:39.66	27.10	17.79	-29.7	-31.3	13.6	3.80e-06	0	43	0	589299712	19	4320
2026-01-09 08:07:40.66	26.87	17.77	-29.8	-31.4	13.6	1.14e-05	0	43	0	591396864	19	4360
2026-01-09 08:07:41.67	26.64	17.74	-30.1	-31.8	12.9	2.59e-05	0	43	0	593494016	20	4400
2026-01-09 08:07:42.68	26.42	17.71	-30.2	-32.2	12.6	7.40e-05	0	43	0	595591168	20	4530
2026-01-09 08:07:43.69	26.19	17.69	-30.4	-32.3	12.2	1.74e-04	0	43	0	597688320	21	4472
2026-01-09 08:07:44.70	25.96	17.66	-30.4	-32.2	12.3	1.23e-04	0	43	0	598736896	21	4434
2026-01-09 08:07:45.70	25.73	17.63	-30.4	-32.1	12.4	1.36e-04	0	43	0	600834048	21	4410
2026-01-09 08:07:46.71	25.51	17.61	-30.3	-31.9	12.5	9.68e-05	0	43	0	602931200	21	4336
2026-01-09 08:07:47.71	25.28	17.58	-30.5	-32.5	12.1	1.81e-04	0	43	0	605028352	21	4534
2026-01-09 08:07:48.72	25.06	17.55	-30.4	-32.1	12.3	3.05e-04	0	43	0	607125504	21	4417
2026-01-09 08:07:49.72	24.83	17.52	-30.2	-31.7	12.6	7.85e-05	0	43	0	608174080	21	4261
2026-01-09 08:07:50.73	24.61	17.49	-30.2	-31.6	12.7	5.11e-05	0	43	0	610271232	21	4232
2026-01-09 08:07:51.74	24.38	17.46	-30.2	-31.8	12.5	5.41e-05	0	43	0	612368384	21	4295
2026-01-09 08:07:52.74	24.16	17.43	-30.4	-32.4	12.2	1.15e-04	0	43	0	614465536	21	4499
2026-01-09 08:07:53.75	23.94	17.40	-30.3	-32.1	12.4	2.01e-04	0	43	0	616562688	21	4416
2026-01-09 08:07:54.76	23.71	17.37	-30.3	-32.1	12.3	1.63e-04	0	43	0	617611264	21	4420
2026-01-09 08:07:55.77	23.49	17.34	-30.5	-32.5	12.1	2.00e-04	0	43	0	619708416	21	4543
2026-01-09 08:07:56.77	23.27	17.31	-30.5	-32.6	12.0	3.54e-04	0	43	0	621805568	21	4589
2026-01-09 08:07:57.78	23.05	17.28	-30.6	-33.0	11.7	3.15e-04	0	43	0	623902720	21	4740
2026-01-09 08:07:58.79	22.83	17.24	-30.7	-33.2	11.6	6.84e-04	0	43	0	625999872	21	4811
2026-01-09 08:07:59.80	22.61	17.21	-30.5	-32.7	11.9	4.10e-04	0	43	0	627048448	21	4624
2026-01-09 08:08:00.80	22.39	17.18	-30.6	-33.0	11.7	3.82e-04	0	43	0	629145600	21	4712
2026-01-09 08:08:01.81	22.17	17.14	-30.4	-32.4	12.2	4.60e-04	0	43	0	631242752	21	4500
2026-01-09 08:08:02.81	21.95	17.11	-30.1	-31.5	12.8	9.53e-05	0	43	0	633339904	21	4217
2026-01-09 08:08:03.82	21.73	17.07	-30.1	-31.3	12.9	5.95e-05	0	43	0	635437056	21	4147
2026-01-09 08:08:04.82	21.52	17.04	-30.1	-31.4	12.9	4.65e-05	0	43	0	636485632	21	4186
2026-01-09 08:08:05.82	21.30	17.01	-30.1	-31.3	12.8	4.27e-05	0	43	0	638582784	21	4164
2026-01-09 08:08:06.82	21.08	16.97	-30.3	-31.8	12.5	6.79e-05	0	43	0	640679936	21	4325
2026-01-09 08:08:07.83	20.87	16.93	-30.2	-31.7	12.6	1.07e-04	0	43	0	642777088	21	4275
2026-01-09 08:08:08.84	20.65	16.90	-30.3	-31.9	12.4	1.06e-04	0	43	0	644874240	21	4359
2026-01-09 08:08:09.85	20.44	16.86	-30.1	-31.5	12.7	1.11e-04	0	43	0	645922816	21	4203
2026-01-09 08:08:10.85	20.22	16.82	-29.9	-31.0	13.0	6.40e-05	0	43	0	648019968	21	4055
2026-01-09 08:08:11.85	20.01	16.79	-29.9	-31.0	13.0	4.42e-05	0	43	0	650117120	21	4068
2026-01-09 08:08:12.86	19.80	16.75	-29.8	-30.7	13.3	2.97e-05	0	43	0	652214272	21	3977
2026-01-09 08:08:13.87	19.58	16.71	-29.7	-30.7	13.6	9.90e-06	0	43	0	654311424	20	4061
2026-01-09 08:08:14.87	19.37	16.67	-29.4	-30.0	14.0	3.80e-06	0	43	0	655360000	20	3865
2026-01-09 08:08:15.88	19.16	16.63	-29.4	-30.4	14.1	7.00e-07	0	43	0	657457152	19	4058
2026-01-09 08:08:16.88	18.95	16.60	-29.3	-30.2	14.3	2.20e-06	0	43	0	659554304	19	3999
2026-01-09 08:08:17.89	18.74	16.56	-29.2	-30.0	14.4	1.50e-06	0	43	0	661651456	19	3943
2026-01-09 08:08:18.89	18.53	16.52	-29.3	-30.2	14.3	1.50e-06	0	43	0	663748608	19	3979
2026-01-09 08:08:19.90	18.32	16.48	-29.2	-29.9	14.4	0.00e+00	0	43	0	664797184	19	3928
2026-01-09 08:08:20.90	18.11	16.44	-29.2	-30.0	14.3	7.00e-07	0	43	0	666894336	19	3944
2026-01-09 08:08:21.91	17.90	16.40	-29.3	-30.2	14.2	0.00e+00	0	43	0	668991488	19	4007
2026-01-09 08:08:22.92	17.69	16.35	-29.4	-30.6	14.0	3.00e-06	0	43	0	671088640	19	4111
2026-01-09 08:08:23.93	17.48	16.31	-29.7	-31.4	13.5	1.14e-05	0	43	0	673185792	19	4355
2026-01-09 08:08:24.93	17.28	16.27	-30.0	-31.6	13.0	9.90e-06	0	43	0	674234368	20	4319
2026-01-09 08:08:25.93	17.07	16.23	-30.2	-32.2	12.6	6.02e-05	0	43	0	676331520	20	4544
2026-01-09 08:08:26.94	16.87	16.19	-30.5	-32.6	11.9	2.10e-04	0	43	0	678428672	21	4605
2026-01-09 08:08:27.95	16.66	16.14	-30.6	-32.9	11.8	5.88e-04	0	43	0	680525824	21	4681
2026-01-09 08:08:28.95	16.46	16.10	-30.7	-33.1	11.6	1.21e-03	0	43	0	682622976	21	4783
2026-01-09 08:08:29.96	16.25	16.06	-30.6	-32.9	11.7	5.58e-04	0	43	0	683671552	21	4700
2026-01-09 08:08:30.97	16.05	16.02	-30.4	-32.2	12.1	3.49e-04	0	43	0	685768704	21	4476
2026-01-09 08:08:31.97	15.85	15.97	-30.2	-31.8	12.4	2.18e-04	0	43	0	687865856	21	4342
2026-01-09 08:08:32.98	15.65	15.93	-30.2	-31.7	12.5	1.13e-04	0	43	0	689963008	21	4288
2026-01-09 08:08:33.99	15.44	15.88	-30.1	-31.5	12.6	7.93e-05	0	43	0	692060160	21	4221
2026-01-09 08:08:34.99	15.24	15.84	-30.1	-31.5	12.6	1.14e-04	0	43	0	693108736	21	4244
2026-01-09 08:08:36.00	15.04	15.79	-30.3	-32.0	12.3	1.12e-04	0	43	0	695205888	21	4394
2026-01-09 08:08:37.01	14.84	15.75	-30.4	-32.4	12.0	1.62e-04	0	43	0	697303040	21	4520
2026-01-09 08:08:38.02	14.64	15.70	-30.4	-32.5	12.0	3.18e-04	0	43	0	699400192	21	4559
2026-01-09 08:08:39.03	14.44	15.66	-30.4	-32.4	12.1	3.30e-04	0	43	0	701497344	21	4513
2026-01-09 08:08:40.03	14.25	15.61	-30.3	-32.2	12.2	2.40e-04	0	43	0	702545920	21	4470
2026-01-09 08:08:41.03	14.05	15.57	-30.4	-32.3	12.0	2.93e-04	0	43	0	704643072	21	4503
2026-01-09 08:08:42.04	13.86	15.52	-30.2	-31.9	12.3	1.58e-04	0	43	0	706740224	21	4366
2026-01-09 08:08:43.05	13.66	15.47	-30.1	-31.5	12.6	1.14e-04	0	43	0	708837376	21	4236
2026-01-09 08:08:44.06	13.46	15.43	-30.2	-31.9	12.4	1.36e-04	0	43	0	710934528	21	4347
2026-01-09 08:08:45.07	13.27	15.38	-30.0	-31.2	12.9	1.30e-04	0	43	0	711983104	21	4129
2026-01-09 08:08:46.08	13.07	15.33	-29.9	-31.0	12.9	5.03e-05	0	43	0	714080256	21	4091
2026-01-09 08:08:47.08	12.88	15.28	-29.9	-30.9	13.0	3.20e-05	0	43	0	716177408	21	4048
2026-01-09 08:08:48.09	12.69	15.24	-29.9	-30.9	12.9	3.89e-05	0	43	0	718274560	21	4054
2026-01-09 08:08:49.09	12.50	15.19	-29.9	-30.9	13.0	4.42e-05	0	43	0	720371712	21	4055
2026-01-09 08:08:50.10	12.30	15.14	-30.0	-31.3	12.7	5.26e-05	0	43	0	721420288	21	4177
2026-01-09 08:08:51.10	12.11	15.09	-29.7	-31.0	13.2	5.41e-05	0	43	0	723517440	20	4180
2026-01-09 08:08:52.11	11.92	15.04	-29.6	-30.7	13.4	1.29e-05	0	43	0	725614592	20	4089
2026-01-09 08:08:53.12	11.73	14.99	-29.6	-30.6	13.5	1.06e-05	0	43	0	727711744	20	4051
2026-01-09 08:08:54.13	11.54	14.94	-29.8	-31.2	13.1	1.67e-05	0	43	0	729808896	20	4237
2026-01-09 08:08:55.14	11.36	14.89	-30.0	-31.7	12.7	7.09e-05	0	43	0	730857472	20	4408
2026-01-09 08:08:56.14	11.17	14.84	-30.1	-32.0	12.6	7.17e-05	0	43	0	732954624	20	4475
2026-01-09 08:08:57.15	10.98	14.79	-30.0	-31.8	12.7	9.00e-05	0	43	0	735051776	20	4427
2026-01-09 08:08:58.16	10.79	14.74	-29.9	-31.5	12.9	6.48e-05	0	43	0	737148928	20	4323
2026-01-09 08:08:59.16	10.61	14.69	-29.7	-31.0	13.2	2.36e-05	0	43	0	739246080	20	4166
2026-01-09 08:09:00.17	10.42	14.64	-29.9	-31.3	13.0	3.12e-05	0	43	0	740294656	20	4267
2026-01-09 08:09:01.18	10.24	14.59	-29.7	-30.9	13.3	2.13e-05	0	43	0	742391808	20	4128
2026-01-09 08:09:02.19	10.05	14.54	-29.8	-31.2	13.0	3.35e-05	0	43	0	744488960	20	4213
2026-01-09 08:09:03.20	9.87	14.49	-29.8	-31.2	13.0	1.52e-05	0	43	0	746586112	20	4233
2026-01-09 08:09:04.20	9.69	14.44	-30.1	-32.1	12.5	8.39e-05	0	43	0	748683264	20	4512
2026-01-09 08:09:05.20	9.51	14.39	-30.1	-32.1	12.5	1.04e-04	0	43	0	749731840	20	4520
2026-01-09 08:09:06.21	9.33	14.34	-30.4	-33.0	11.8	2.61e-04	0	43	0	751828992	20	4850
2026-01-09 08:09:07.21	9.15	14.29	-30.7	-33.4	11.3	7.75e-04	0	43	0	753926144	21	4891
2026-01-09 08:09:08.22	8.97	14.23	-31.0	-34.2	10.7	2.13e-03	0	43	0	756023296	21	5218
2026-01-09 08:09:09.22	8.79	14.18	-31.2	-34.6	10.0	7.12e-03	0	43	0	758120448	22	5298
2026-01-09 08:09:10.22	8.61	14.13	-31.3	-35.0	9.7	1.03e-02	0	43	0	759169024	22	5501
2026-01-09 08:09:11.22	8.43	14.08	-31.6	-35.6	8.8	1.61e-02	0	43	0	761266176	23	5701
2026-01-09 08:09:12.23	8.26	14.03	-31.4	-34.9	9.3	1.84e-02	0	43	0	763363328	23	5376
2026-01-09 08:09:13.24	8.08	13.97	-31.2	-34.1	10.0	1.03e-02	0	43	0	765460480	23	5010
2026-01-09 08:09:14.24	7.90	13.92	-31.2	-34.0	10.1	6.09e-03	0	43	0	767557632	23	4971
2026-01-09 08:09:15.24	7.73	13.87	-31.0	-33.3	10.5	4.37e-03	0	43	0	768606208	23	4716
2026-01-09 08:09:16.24	7.56	13.81	-30.8	-32.9	10.9	3.34e-03	0	43	0	770703360	23	4542
2026-01-09 08:09:17.25	7.38	13.76	-30.9	-33.2	10.5	2.82e-03	0	43	0	772800512	23	4666
2026-01-09 08:09:18.26	7.21	13.71	-31.0	-33.2	10.6	2.79e-03	0	43	0	774897664	23	4680
2026-01-09 08:09:19.26	7.03	13.65	-31.0	-33.4	10.5	3.95e-03	0	43	0	776994816	23	4748
2026-01-09 08:09:20.27	6.86	13.60	-30.8	-33.2	11.0	2.56e-03	0	43	0	778043392	22	4723
2026-01-09 08:09:21.28	6.69	13.55	-30.7	-32.8	11.3	1.42e-03	0	43	0	780140544	22	4580
2026-01-09 08:09:22.29	6.52	13.49	-30.6	-32.5	11.5	1.21e-03	0	43	0	782237696	22	4492
2026-01-09 08:09:23.29	6.35	13.44	-30.7	-32.8	11.3	1.16e-03	0	43	0	784334848	22	4585
2026-01-09 08:09:24.30	6.18	13.38	-30.7	-32.9	11.2	1.51e-03	0	43	0	786432000	22	4630
2026-01-09 08:09:25.31	6.01	13.33	-30.6	-32.4	11.5	6.81e-04	0	43	0	787480576	22	4468
2026-01-09 08:09:26.31	5.84	13.28	-30.6	-32.6	11.4	7.74e-04	0	43	0	789577728	22	4522
2026-01-09 08:09:27.32	5.67	13.22	-30.8	-33.2	10.9	1.59e-03	0	43	0	791674880	22	4743
2026-01-09 08:09:28.32	5.51	13.17	-30.8	-33.2	11.0	1.98e-03	0	43	0	793772032	22	4726
2026-01-09 08:09:29.33	5.34	13.11	-31.0	-33.7	10.6	3.14e-03	0	43	0	795869184	22	4951
2026-01-09 08:09:30.34	5.17	13.06	-30.8	-33.2	10.9	2.12e-03	0	43	0	796917760	22	4758
2026-01-09 08:09:31.34	5.01	13.00	-30.7	-32.9	11.2	1.91e-03	0	43	0	799014912	22	4628
2026-01-09 08:09:32.35	4.84	12.95	-30.7	-33.0	11.1	1.38e-03	0	43	0	801112064	22	4668
2026-01-09 08:09:33.35	4.68	12.89	-30.7	-33.0	11.1	1.90e-03	0	43	0	803209216	22	4668
2026-01-09 08:09:34.36	4.52	12.83	-30.3	-31.8	12.0	7.51e-04	0	43	0	805306368	22	4242
2026-01-09 08:09:35.36	4.35	12.78	-30.2	-31.7	12.4	1.75e-04	0	43	0	806354944	21	4310
2026-01-09 08:09:36.37	4.19	12.72	-30.1	-31.6	12.4	8.92e-05	0	43	0	808452096	21	4270
2026-01-09 08:09:37.38	4.03	12.67	-30.0	-31.3	12.7	7.01e-05	0	43	0	810549248	21	4169
2026-01-09 08:09:38.39	3.87	12.61	-30.0	-31.3	12.7	1.05e-04	0	43	0	812646400	21	4167
2026-01-09 08:09:39.39	3.71	12.56	-30.0	-31.3	12.6	9.84e-05	0	43	0	814743552	21	4171
2026-01-09 08:09:40.40	3.55	12.50	-30.1	-31.6	12.5	1.17e-04	0	43	0	815792128	21	4261
2026-01-09 08:09:41.40	3.39	12.44	-30.2	-31.8	12.4	1.17e-04	0	43	0	817889280	21	4328
2026-01-09 08:09:42.41	3.23	12.39	-30.3	-32.2	12.0	3.21e-04	0	43	0	819986432	21	4475
2026-01-09 08:09:43.41	3.07	12.33	-30.2	-31.9	12.2	2.50e-04	0	43	0	822083584	21	4375
2026-01-09 08:09:44.42	2.92	12.28	-30.2	-32.0	12.1	2.45e-04	0	43	0	823132160	21	4398
2026-01-09 08:09:45.42	2.76	12.22	-30.3	-32.1	12.0	3.04e-04	0	43	0	825229312	21	4457
2026-01-09 08:09:46.42	2.61	12.16	-30.5	-32.7	11.6	5.04e-04	0	43	0	827326464	21	4653
2026-01-09 08:09:47.43	2.45	12.11	-30.4	-32.6	11.7	8.48e-04	0	43	0	829423616	21	4631
2026-01-09 08:09:48.44	2.29	12.05	-30.5	-32.9	11.5	9.45e-04	0	43	0	831520768	21	4721
2026-01-09 08:09:49.45	2.14	11.99	-30.6	-33.2	11.2	1.30e-03	0	43	0	833617920	21	4828
2026-01-09 08:09:50.45	1.99	11.94	-30.6	-33.0	11.5	1.07e-03	0	43	0	834666496	21	4739
2026-01-09 08:09:51.45	1.84	11.88	-30.6	-33.2	11.3	1.28e-03	0	43	0	836763648	21	4822
2026-01-09 08:09:52.46	1.68	11.82	-30.7	-33.3	11.2	1.08e-03	0	43	0	838860800	21	4851
2026-01-09 08:09:53.47	1.53	11.76	-30.6	-33.0	11.4	1.49e-03	0	43	0	840957952	21	4761
2026-01-09 08:09:54.47	1.38	11.71	-30.3	-32.2	11.9	6.77e-04	0	43	0	843055104	21	4490
2026-01-09 08:09:55.48	1.23	11.65	-30.1	-31.6	12.3	1.96e-04	0	43	0	844103680	21	4287
2026-01-09 08:09:56.48	1.08	11.59	-30.0	-31.3	12.5	1.51e-04	0	43	0	846200832	21	4190
2026-01-09 08:09:57.49	0.93	11.54	-29.9	-31.1	12.7	1.01e-04	0	43	0	848297984	21	4107
2026-01-09 08:09:58.49	0.78	11.48	-29.9	-31.1	12.7	6.86e-05	0	43	0	850395136	21	4105
2026-01-09 08:09:59.50	0.63	11.42	-29.8	-31.1	13.1	5.56e-05	0	43	0	851443712	20	4202
2026-01-09 08:10:00.50	0.49	11.36	-29.7	-30.9	13.2	2.21e-05	0	43	0	853540864	20	4128
2026-01-09 08:10:01.52	0.34	11.31	-29.7	-31.0	13.1	3.28e-05	0	43	0	855638016	20	4157
2026-01-09 08:10:02.52	0.19	11.25	-29.4	-30.2	13.6	6.80e-06	0	43	0	857735168	20	3930
2026-01-09 08:10:03.53	0.05	11.19	-29.3	-30.0	13.7	6.10e-06	0	43	0	859832320	20	3874
2026-01-09 08:10:04.54	359.90	11.13	-29.3	-30.4	13.9	1.50e-06	0	43	0	861929472	19	4069
2026-01-09 08:10:05.54	359.76	11.08	-29.4	-30.6	13.7	6.10e-06	0	43	0	862978048	19	4129
2026-01-09 08:10:06.54	359.61	11.02	-29.5	-30.8	13.6	3.80e-06	0	43	0	865075200	19	4207
2026-01-09 08:10:07.55	359.47	10.96	-29.7	-31.3	13.2	1.14e-05	0	43	0	867172352	19	4364
2026-01-09 08:10:08.55	359.33	10.90	-29.8	-31.7	13.0	3.73e-05	0	43	0	869269504	19	4475
2026-01-09 08:10:09.56	359.18	10.85	-29.9	-31.9	12.9	3.50e-05	0	43	0	870318080	19	4550
2026-01-09 08:10:10.56	359.04	10.79	-29.9	-31.9	12.9	6.48e-05	0	43	0	872415232	19	4532
2026-01-09 08:10:11.56	358.90	10.73	-29.9	-31.9	12.9	3.58e-05	0	43	0	874512384	19	4540
2026-01-09 08:10:12.57	358.76	10.67	-29.8	-31.8	13.0	3.73e-05	0	43	0	876609536	19	4499
2026-01-09 08:10:13.57	358.62	10.61	-29.7	-31.4	13.3	2.82e-05	0	43	0	878706688	19	4367
2026-01-09 08:10:14.57	358.48	10.56	-29.9	-32.0	12.8	2.82e-05	0	43	0	879755264	19	4577
2026-01-09 08:10:15.58	358.35	10.50	-29.8	-31.2	12.9	8.62e-05	0	43	0	881852416	20	4246
2026-01-09 08:10:16.59	358.21	10.44	-29.7	-30.9	13.0	3.50e-05	0	43	0	883949568	20	4149
2026-01-09 08:10:17.60	358.07	10.38	-29.5	-30.5	13.4	9.90e-06	0	43	0	886046720	20	4029
2026-01-09 08:10:18.61	357.93	10.32	-29.5	-30.5	13.3	1.98e-05	0	43	0	888143872	20	4038
2026-01-09 08:10:19.61	357.79	10.27	-29.6	-30.6	13.3	1.75e-05	0	43	0	889192448	20	4059
2026-01-09 08:10:20.62	357.66	10.21	-29.5	-30.4	13.4	1.60e-05	0	43	0	891289600	20	4005
2026-01-09 08:10:21.62	357.52	10.15	-29.6	-30.7	13.3	1.83e-05	0	43	0	893386752	20	4078
2026-01-09 08:10:22.63	357.39	10.09	-29.5	-30.5	13.4	2.13e-05	0	43	0	895483904	20	4031
2026-01-09 08:10:23.64	357.25	10.03	-29.6	-30.8	13.2	1.37e-05	0	43	0	897581056	20	4120
2026-01-09 08:10:24.65	357.12	9.97	-29.7	-31.0	13.0	4.04e-05	0	43	0	898629632	20	4195
2026-01-09 08:10:25.65	356.99	9.92	-29.8	-31.3	12.8	6.25e-05	0	43	0	900726784	20	4291
2026-01-09 08:10:26.65	356.85	9.86	-29.9	-31.7	12.5	9.00e-05	0	43	0	902823936	20	4400
2026-01-09 08:10:27.66	356.72	9.80	-30.0	-31.9	12.4	1.27e-04	0	43	0	904921088	20	4463
2026-01-09 08:10:28.66	356.59	9.74	-30.2	-32.4	12.1	2.69e-04	0	43	0	907018240	20	4644
2026-01-09 08:10:29.67	356.46	9.68	-30.1	-32.3	12.1	2.89e-04	0	43	0	908066816	20	4618
2026-01-09 08:10:30.68	356.33	9.63	-30.2	-32.6	11.8	4.88e-04	0	43	0	910163968	20	4719
2026-01-09 08:10:31.69	356.20	9.57	-30.2	-32.5	11.9	4.86e-04	0	43	0	912261120	20	4676
2026-01-09 08:10:32.69	356.07	9.51	-30.3	-32.8	11.7	5.18e-04	0	43	0	914358272	20	4802
2026-01-09 08:10:33.70	355.94	9.45	-30.4	-32.9	11.6	6.90e-04	0	43	0	916455424	20	4852
2026-01-09 08:10:34.71	355.81	9.39	-30.3	-32.9	11.6	7.03e-04	0	43	0	917504000	20	4833
2026-01-09 08:10:35.71	355.68	9.33	-30.2	-32.4	11.9	4.22e-04	0	43	0	919601152	20	4669
2026-01-09 08:10:36.72	355.56	9.28	-30.1	-32.2	12.1	2.84e-04	0	43	0	921698304	20	4578
2026-01-09 08:10:37.72	355.43	9.22	-30.0	-31.9	12.3	2.22e-04	0	43	0	923795456	20	4488
2026-01-09 08:10:38.73	355.30	9.16	-29.9	-31.6	12.5	1.42e-04	0	43	0	925892608	20	4372
2026-01-09 08:10:39.74	355.18	9.10	-30.0	-32.1	12.2	1.27e-04	0	43	0	926941184	20	4535
2026-01-09 08:10:40.74	355.05	9.04	-30.0	-32.0	12.3	1.55e-04	0	43	0	929038336	20	4501
2026-01-09 08:10:41.74	354.93	8.98	-29.9	-31.7	12.4	1.14e-04	0	43	0	931135488	20	4404
2026-01-09 08:10:42.74	354.80	8.93	-29.9	-31.7	12.5	1.20e-04	0	43	0	933232640	20	4413
2026-01-09 08:10:43.75	354.68	8.87	-30.1	-32.1	12.2	2.40e-04	0	43	0	935329792	20	4553
2026-01-09 08:10:44.75	354.56	8.81	-30.3	-32.8	11.7	5.32e-04	0	43	0	936378368	20	4776
2026-01-09 08:10:45.76	354.43	8.75	-30.2	-32.6	11.9	4.54e-04	0	43	0	938475520	20	4714
2026-01-09 08:10:46.76	354.31	8.69	-30.3	-32.9	11.6	5.87e-04	0	43	0	940572672	20	4823
2026-01-09 08:10:47.77	354.19	8.64	-30.4	-33.1	11.5	8.98e-04	0	43	0	942669824	20	4910
2026-01-09 08:10:48.77	354.07	8.58	-30.7	-33.6	10.7	2.03e-03	0	43	0	944766976	21	5030
2026-01-09 08:10:49.78	353.95	8.52	-30.7	-33.5	10.8	2.89e-03	0	43	0	945815552	21	4981
2026-01-09 08:10:50.78	353.83	8.46	-30.5	-33.0	11.1	1.97e-03	0	43	0	947912704	21	4787
2026-01-09 08:10:51.79	353.71	8.40	-30.4	-32.7	11.3	1.33e-03	0	43	0	950009856	21	4682
2026-01-09 08:10:52.80	353.59	8.34	-30.3	-32.2	11.5	1.08e-03	0	43	0	952107008	21	4504
2026-01-09 08:10:53.81	353.47	8.29	-30.2	-32.2	11.7	7.84e-04	0	43	0	954204160	21	4492
2026-01-09 08:10:54.82	353.35	8.23	-30.2	-32.0	11.8	4.15e-04	0	43	0	955252736	21	4428
2026-01-09 08:10:55.82	353.23	8.17	-30.2	-32.1	11.7	3.86e-04	0	43	0	957349888	21	4480
2026-01-09 08:10:56.83	353.12	8.11	-30.0	-31.4	12.2	4.45e-04	0	43	0	959447040	21	4233
2026-01-09 08:10:57.83	353.00	8.05	-30.0	-31.5	12.2	2.27e-04	0	43	0	961544192	21	4254
2026-01-09 08:10:58.84	352.88	8.00	-30.0	-31.4	12.1	3.71e-04	0	43	0	963641344	21	4253
2026-01-09 08:10:59.85	352.77	7.94	-29.8	-31.3	12.6	1.51e-04	0	43	0	964689920	20	4285
2026-01-09 08:11:00.86	352.65	7.88	-29.8	-31.4	12.6	9.76e-05	0	43	0	966787072	20	4315
2026-01-09 08:11:01.86	352.54	7.82	-29.8	-31.3	12.6	9.68e-05	0	43	0	968884224	20	4300
2026-01-09 08:11:02.87	352.42	7.76	-29.9	-31.6	12.4	1.40e-04	0	43	0	970981376	20	4398
2026-01-09 08:11:03.88	352.31	7.70	-29.9	-31.7	12.2	1.94e-04	0	43	0	973078528	20	4427
2026-01-09 08:11:04.89	352.19	7.65	-30.0	-31.8	12.2	1.94e-04	0	43	0	974127104	20	4476
2026-01-09 08:11:05.89	352.08	7.59	-30.1	-32.3	11.9	3.38e-04	0	43	0	976224256	20	4645
2026-01-09 08:11:06.90	351.97	7.53	-30.0	-31.9	12.1	3.23e-04	0	43	0	978321408	20	4495
2026-01-09 08:11:07.90	351.86	7.47	-30.2	-32.5	11.7	3.68e-04	0	43	0	980418560	20	4689
2026-01-09 08:11:08.91	351.74	7.42	-30.0	-32.1	11.9	4.13e-04	0	43	0	982515712	20	4572
2026-01-09 08:11:09.92	351.63	7.36	-30.2	-32.6	11.6	4.61e-04	0	43	0	983564288	20	4737
2026-01-09 08:11:10.92	351.52	7.30	-30.3	-32.9	11.4	7.01e-04	0	43	0	985661440	20	4857
2026-01-09 08:11:11.93	351.41	7.24	-30.4	-33.2	11.2	1.02e-03	0	43	0	987758592	20	4968
2026-01-09 08:11:12.94	351.30	7.18	-30.4	-33.2	11.2	1.73e-03	0	43	0	989855744	20	4967
2026-01-09 08:11:13.95	351.19	7.13	-30.6	-33.4	10.7	1.76e-03	0	43	0	991952896	21	4966
2026-01-09 08:11:14.95	351.08	7.07	-30.8	-34.1	10.2	3.53e-03	0	43	0	993001472	21	5251
2026-01-09 08:11:15.95	350.97	7.01	-32.8	-43.2	3.8	1.22e+00	0	43	104	994050048	25	11845
2026-01-09 08:11:16.96	350.87	6.95	-33.3	-45.6	3.8	1.49e+00	0	43	104	994050048	26	14960
2026-01-09 08:11:17.97	350.76	6.90	-33.5	-46.1	3.8	1.49e+00	0	43	104	994050048	26	15517

#Closed at: 2026-01-09 08:11:18
#Recorded file [994 MB]: D:/data/31010_260109_110224.dat