passes_logs/2026/01/09/R2M6_AANII_01/R2M6_AANII_01__20260109_004740_FENGYUN_3D_rec.log

#Pass ID: 20260109_004740_FENGYUN 3D
#Satellite: FENGYUN 3D
#Configuration: FENGYUN 3D
#almurnet v.1.7.20240730
#Start time: 2026-01-09 00:47:40

#Version: 2.2.20231116
#Station: R2M6_AANII_01
#Location: 30.233357 lon 59.946436 lat
#TLE: 1 43010U 17072A   26008.51967461  .00000013  00000+0  27718-4 0  9992
#TLE: 2 43010  98.9935 340.2353 0002115 119.1573 240.9815 14.19693759422336

#Time	Az	El	Level	Level2	SNR	BER	BlckErr	Temp	State	Recorded	gain1	gain2
2026-01-09 00:47:40.47	30.60	6.99	-29.2	-32.3	5.5	7.71e-01	0	41	0	0	18	5140
2026-01-09 00:47:41.48	30.69	7.05	-30.9	-35.9	4.8	8.04e-01	0	40	104	0	21	6443
2026-01-09 00:47:42.48	30.79	7.11	-30.8	-35.6	7.1	1.37e-01	0	41	0	0	21	6250
2026-01-09 00:47:43.49	30.88	7.18	-30.8	-35.6	7.2	1.05e-01	0	40	0	5242880	21	6255
2026-01-09 00:47:44.49	30.98	7.24	-30.8	-35.6	7.2	1.48e-01	0	40	0	11534336	21	6225
2026-01-09 00:47:45.50	31.08	7.30	-30.5	-34.5	7.9	7.14e-02	0	41	0	16777216	21	5716
2026-01-09 00:47:46.51	31.18	7.36	-30.2	-34.0	8.6	3.65e-02	0	41	0	22020096	20	5564
2026-01-09 00:47:47.52	31.27	7.43	-29.8	-32.9	9.5	1.53e-02	0	40	0	28311552	20	5123
2026-01-09 00:47:48.52	31.37	7.49	-29.5	-31.9	10.1	7.02e-03	0	41	0	33554432	20	4749
2026-01-09 00:47:49.52	31.47	7.55	-29.2	-32.1	10.8	3.07e-03	0	41	0	39845888	18	5013
2026-01-09 00:47:50.53	31.57	7.62	-29.1	-32.0	10.9	1.86e-03	0	41	0	45088768	18	4982
2026-01-09 00:47:51.54	31.67	7.68	-29.2	-32.1	10.8	2.18e-03	0	41	0	50331648	18	5024
2026-01-09 00:47:52.55	31.77	7.74	-28.8	-31.5	11.5	1.25e-03	0	41	0	56623104	17	4926
2026-01-09 00:47:53.55	31.87	7.81	-28.3	-30.4	12.2	1.66e-04	0	41	0	61865984	17	4558
2026-01-09 00:47:54.56	31.97	7.87	-28.0	-29.6	12.7	6.06e-05	0	41	0	67108864	17	4311
2026-01-09 00:47:55.57	32.07	7.94	-28.0	-30.2	12.7	4.31e-04	0	41	0	73400320	16	4609
2026-01-09 00:47:56.58	32.17	8.00	-28.0	-30.1	12.7	4.46e-04	0	41	0	78643200	16	4594
2026-01-09 00:47:57.58	32.27	8.06	-27.9	-29.8	12.9	4.69e-05	0	41	0	84934656	16	4489
2026-01-09 00:47:58.59	32.38	8.13	-27.4	-29.2	13.4	1.25e-05	0	41	0	90177536	15	4436
2026-01-09 00:47:59.60	32.48	8.19	-27.2	-29.2	13.8	5.95e-04	0	41	0	96468992	14	4524
2026-01-09 00:48:00.61	32.58	8.26	-27.0	-28.8	14.0	0.00e+00	0	41	0	101711872	14	4418
2026-01-09 00:48:01.62	32.69	8.32	-26.9	-29.0	14.2	3.47e-04	0	41	0	106954752	13	4584
2026-01-09 00:48:02.62	32.79	8.39	-26.8	-28.9	14.2	0.00e+00	0	41	0	113246208	13	4556
2026-01-09 00:48:03.63	32.90	8.45	-26.9	-28.9	14.2	2.20e-06	0	41	0	118489088	13	4576
2026-01-09 00:48:04.64	33.00	8.52	-26.7	-28.6	14.4	1.10e-06	0	41	0	124780544	13	4460
2026-01-09 00:48:05.65	33.11	8.58	-26.7	-28.6	14.4	0.00e+00	0	41	0	130023424	13	4471
2026-01-09 00:48:06.65	33.21	8.65	-26.6	-28.4	14.6	0.00e+00	0	41	0	135266304	13	4414
2026-01-09 00:48:07.65	33.32	8.71	-26.7	-28.5	14.5	0.00e+00	0	41	0	141557760	13	4438
2026-01-09 00:48:08.65	33.43	8.77	-26.7	-28.4	14.5	3.32e-04	0	41	0	146800640	13	4419
2026-01-09 00:48:09.66	33.53	8.84	-26.5	-28.1	14.7	0.00e+00	0	41	0	152043520	13	4327
2026-01-09 00:48:10.66	33.64	8.90	-26.5	-28.1	14.7	1.10e-06	0	41	0	158334976	13	4322
2026-01-09 00:48:11.67	33.75	8.97	-26.5	-28.0	14.8	0.00e+00	0	41	0	163577856	13	4294
2026-01-09 00:48:12.68	33.86	9.04	-26.6	-28.3	14.6	2.20e-06	0	41	0	169869312	13	4377
2026-01-09 00:48:13.69	33.97	9.10	-26.4	-27.9	14.8	0.00e+00	0	41	0	175112192	13	4264
2026-01-09 00:48:14.69	34.08	9.17	-26.4	-27.9	14.9	2.20e-06	0	41	0	181403648	13	4264
2026-01-09 00:48:15.70	34.19	9.23	-26.4	-27.9	14.9	0.00e+00	0	41	0	186646528	13	4254
2026-01-09 00:48:16.71	34.30	9.30	-26.4	-28.3	14.9	0.00e+00	0	42	0	191889408	12	4484
2026-01-09 00:48:17.71	34.41	9.36	-26.4	-27.9	14.9	0.00e+00	0	41	0	198180864	13	4263
2026-01-09 00:48:18.71	34.52	9.43	-26.4	-27.9	14.9	0.00e+00	0	41	0	203423744	13	4269
2026-01-09 00:48:19.71	34.63	9.49	-26.4	-27.8	14.9	0.00e+00	0	41	0	208666624	13	4247
2026-01-09 00:48:20.72	34.74	9.56	-26.3	-27.7	15.1	0.00e+00	0	42	0	214958080	13	4198
2026-01-09 00:48:21.72	34.86	9.63	-26.4	-27.8	14.9	0.00e+00	0	42	0	220200960	13	4243
2026-01-09 00:48:22.72	34.97	9.69	-26.3	-27.6	15.1	0.00e+00	0	42	0	226492416	13	4171
2026-01-09 00:48:23.72	35.08	9.76	-26.1	-27.2	15.3	0.00e+00	0	42	0	231735296	13	4074
2026-01-09 00:48:24.73	35.20	9.82	-26.1	-27.2	15.3	0.00e+00	0	41	0	236978176	13	4081
2026-01-09 00:48:25.73	35.31	9.89	-26.1	-27.1	15.4	0.00e+00	0	42	0	243269632	13	4032
2026-01-09 00:48:26.73	35.43	9.96	-26.0	-27.5	15.4	0.00e+00	0	42	0	248512512	12	4265
2026-01-09 00:48:27.73	35.54	10.02	-26.0	-27.5	15.4	0.00e+00	0	42	0	254803968	12	4257
2026-01-09 00:48:28.74	35.66	10.09	-26.1	-27.7	15.3	0.00e+00	0	41	0	260046848	12	4313
2026-01-09 00:48:29.74	35.77	10.16	-26.1	-27.6	15.4	0.00e+00	0	42	0	265289728	12	4279
2026-01-09 00:48:30.74	35.89	10.22	-26.0	-27.5	15.5	0.00e+00	0	42	0	271581184	12	4258
2026-01-09 00:48:31.74	36.01	10.29	-26.0	-27.5	15.4	0.00e+00	0	42	0	276824064	12	4272
2026-01-09 00:48:32.75	36.13	10.36	-26.2	-27.8	15.3	0.00e+00	0	42	0	282066944	12	4345
2026-01-09 00:48:33.76	36.25	10.42	-26.1	-27.6	15.4	0.00e+00	0	42	0	288358400	12	4302
2026-01-09 00:48:34.77	36.37	10.49	-26.1	-27.6	15.4	0.00e+00	0	42	0	293601280	12	4286
2026-01-09 00:48:35.78	36.49	10.56	-26.2	-27.8	15.3	0.00e+00	0	42	0	299892736	12	4347
2026-01-09 00:48:36.78	36.61	10.63	-26.1	-27.7	15.4	0.00e+00	0	42	0	305135616	12	4309
2026-01-09 00:48:37.79	36.73	10.69	-26.1	-27.6	15.4	0.00e+00	0	42	0	310378496	12	4302
2026-01-09 00:48:38.80	36.85	10.76	-26.2	-27.8	15.4	0.00e+00	0	42	0	316669952	12	4340
2026-01-09 00:48:39.80	36.97	10.83	-26.2	-27.8	15.3	0.00e+00	0	42	0	321912832	12	4347
2026-01-09 00:48:40.81	37.10	10.90	-26.2	-28.0	15.2	2.02e-04	0	42	0	328204288	12	4395
2026-01-09 00:48:41.81	37.22	10.96	-26.2	-27.9	15.3	0.00e+00	0	42	0	333447168	12	4366
2026-01-09 00:48:42.82	37.34	11.03	-26.2	-27.8	15.3	1.45e-04	0	42	0	338690048	12	4341
2026-01-09 00:48:43.83	37.47	11.10	-26.3	-28.0	15.2	0.00e+00	0	42	0	344981504	12	4419
2026-01-09 00:48:44.83	37.59	11.17	-26.1	-27.6	15.4	0.00e+00	0	42	0	350224384	12	4311
2026-01-09 00:48:45.83	37.72	11.23	-26.1	-27.8	15.2	0.00e+00	0	42	0	356515840	12	4346
2026-01-09 00:48:46.84	37.84	11.30	-26.0	-27.5	15.5	1.14e-05	0	42	0	361758720	12	4257
2026-01-09 00:48:47.85	37.97	11.37	-25.9	-27.1	15.7	0.00e+00	0	42	0	367001600	12	4159
2026-01-09 00:48:48.85	38.10	11.44	-25.8	-26.9	15.9	0.00e+00	0	42	0	373293056	12	4107
2026-01-09 00:48:49.86	38.23	11.51	-25.9	-27.2	15.7	8.00e-06	0	42	0	378535936	12	4192
2026-01-09 00:48:50.87	38.35	11.58	-25.7	-26.8	15.9	0.00e+00	0	42	0	383778816	12	4083
2026-01-09 00:48:51.88	38.48	11.64	-25.7	-26.8	15.9	1.11e-04	0	42	0	390070272	12	4078
2026-01-09 00:48:52.88	38.61	11.71	-25.7	-26.8	15.9	1.09e-04	0	42	0	395313152	12	4073
2026-01-09 00:48:53.89	38.74	11.78	-25.9	-27.1	15.8	0.00e+00	0	42	0	401604608	12	4149
2026-01-09 00:48:54.89	38.87	11.85	-25.9	-27.2	15.7	9.84e-05	0	42	0	406847488	12	4168
2026-01-09 00:48:55.90	39.00	11.92	-26.0	-27.4	15.6	1.14e-04	0	42	0	412090368	12	4246
2026-01-09 00:48:56.90	39.14	11.99	-25.8	-27.1	15.8	0.00e+00	0	42	0	418381824	12	4143
2026-01-09 00:48:57.91	39.27	12.05	-26.0	-27.4	15.6	1.40e-04	0	42	0	423624704	12	4245
2026-01-09 00:48:58.92	39.40	12.12	-25.9	-27.3	15.7	9.04e-05	0	42	0	429916160	12	4198
2026-01-09 00:48:59.93	39.54	12.19	-26.1	-27.7	15.5	0.00e+00	0	42	0	435159040	12	4311
2026-01-09 00:49:00.93	39.67	12.26	-25.9	-27.2	15.7	1.19e-04	0	42	0	441450496	12	4185
2026-01-09 00:49:01.94	39.81	12.33	-25.8	-27.0	15.8	4.50e-06	0	42	0	446693376	12	4136
2026-01-09 00:49:02.94	39.94	12.40	-25.8	-27.0	15.8	0.00e+00	0	42	0	451936256	12	4140
2026-01-09 00:49:03.94	40.08	12.47	-25.6	-26.6	16.1	0.00e+00	0	42	0	458227712	12	4026
2026-01-09 00:49:04.95	40.21	12.54	-25.6	-26.6	16.1	0.00e+00	0	42	0	463470592	12	4010
2026-01-09 00:49:05.96	40.35	12.61	-25.7	-26.6	16.1	0.00e+00	0	42	0	468713472	12	4032
2026-01-09 00:49:06.96	40.49	12.68	-25.5	-26.2	16.3	0.00e+00	0	42	0	475004928	12	3924
2026-01-09 00:49:07.97	40.63	12.74	-25.5	-26.2	16.3	1.51e-04	0	42	0	480247808	12	3933
2026-01-09 00:49:08.98	40.77	12.81	-25.5	-26.3	16.3	0.00e+00	0	42	0	486539264	12	3947
2026-01-09 00:49:09.99	40.91	12.88	-25.5	-26.4	16.2	0.00e+00	0	42	0	491782144	12	3971
2026-01-09 00:49:10.99	41.05	12.95	-25.6	-26.5	16.2	7.78e-05	0	42	0	498073600	12	4005
2026-01-09 00:49:11.99	41.19	13.02	-25.5	-26.3	16.3	0.00e+00	0	42	0	503316480	12	3943
2026-01-09 00:49:13.00	41.33	13.09	-25.6	-26.5	16.1	1.10e-06	0	42	0	508559360	12	3998
2026-01-09 00:49:14.01	41.47	13.16	-25.6	-26.5	16.2	0.00e+00	0	42	0	514850816	12	3987
2026-01-09 00:49:15.02	41.62	13.23	-25.7	-26.8	16.0	0.00e+00	0	42	0	520093696	12	4065
2026-01-09 00:49:16.02	41.76	13.30	-25.6	-26.6	16.2	0.00e+00	0	42	0	526385152	12	4023
2026-01-09 00:49:17.03	41.90	13.37	-26.0	-27.4	15.7	0.00e+00	0	42	0	531628032	12	4235
2026-01-09 00:49:18.03	42.05	13.44	-25.6	-26.5	16.2	0.00e+00	0	42	0	536870912	12	3996
2026-01-09 00:49:19.04	42.19	13.51	-25.5	-26.3	16.3	0.00e+00	0	42	0	543162368	12	3948
2026-01-09 00:49:20.05	42.34	13.58	-25.4	-26.1	16.5	0.00e+00	0	42	0	548405248	12	3894
2026-01-09 00:49:21.06	42.49	13.65	-25.5	-26.2	16.3	0.00e+00	0	42	0	553648128	12	3929
2026-01-09 00:49:22.06	42.64	13.72	-25.4	-26.1	16.4	0.00e+00	0	42	0	559939584	12	3909
2026-01-09 00:49:23.07	42.79	13.79	-25.4	-26.1	16.5	0.00e+00	0	42	0	565182464	12	3906
2026-01-09 00:49:24.08	42.93	13.86	-25.4	-26.0	16.5	0.00e+00	0	42	0	571473920	12	3879
2026-01-09 00:49:25.08	43.08	13.93	-25.4	-26.1	16.4	0.00e+00	0	42	0	576716800	12	3905
2026-01-09 00:49:26.08	43.23	14.00	-25.3	-25.9	16.6	0.00e+00	0	42	0	583008256	12	3840
2026-01-09 00:49:27.08	43.38	14.07	-25.4	-26.5	16.5	0.00e+00	0	42	0	588251136	11	4099
2026-01-09 00:49:28.09	43.54	14.14	-25.3	-26.4	16.6	0.00e+00	0	42	0	593494016	11	4088
2026-01-09 00:49:29.09	43.69	14.21	-25.4	-26.5	16.6	0.00e+00	0	42	0	599785472	11	4109
2026-01-09 00:49:30.09	43.84	14.28	-25.5	-26.8	16.4	0.00e+00	0	42	0	605028352	11	4171
2026-01-09 00:49:31.10	43.99	14.35	-25.4	-26.6	16.5	0.00e+00	0	42	0	610271232	11	4126
2026-01-09 00:49:32.11	44.15	14.42	-25.5	-26.7	16.5	0.00e+00	0	43	0	616562688	11	4148
2026-01-09 00:49:33.10	44.30	14.49	-25.4	-26.6	16.5	0.00e+00	0	42	0	621805568	11	4120
2026-01-09 00:49:34.11	44.46	14.56	-25.4	-26.6	16.5	0.00e+00	0	42	0	627048448	11	4130
2026-01-09 00:49:35.12	44.62	14.63	-25.5	-26.7	16.5	0.00e+00	0	43	0	633339904	11	4165
2026-01-09 00:49:36.13	44.78	14.70	-25.3	-26.4	16.6	0.00e+00	0	42	0	638582784	11	4077
2026-01-09 00:49:37.13	44.93	14.77	-25.3	-26.3	16.7	0.00e+00	0	42	0	644874240	11	4045
2026-01-09 00:49:38.14	45.09	14.84	-25.4	-26.5	16.6	0.00e+00	0	42	0	650117120	11	4105
2026-01-09 00:49:39.15	45.25	14.91	-25.3	-26.3	16.7	0.00e+00	0	43	0	656408576	11	4040
2026-01-09 00:49:40.16	45.41	14.98	-25.3	-26.3	16.7	0.00e+00	0	42	0	661651456	11	4050
2026-01-09 00:49:41.16	45.57	15.05	-25.4	-26.5	16.6	0.00e+00	0	42	0	666894336	11	4094
2026-01-09 00:49:42.17	45.74	15.12	-25.1	-25.8	17.0	0.00e+00	0	42	0	673185792	11	3934
2026-01-09 00:49:43.18	45.90	15.19	-25.0	-25.8	17.0	0.00e+00	0	43	0	678428672	11	3914
2026-01-09 00:49:44.18	46.06	15.26	-25.2	-26.0	16.9	0.00e+00	0	42	0	684720128	11	3976
2026-01-09 00:49:45.19	46.23	15.33	-25.1	-26.0	16.9	0.00e+00	0	43	0	689963008	11	3966
2026-01-09 00:49:46.20	46.39	15.40	-25.1	-26.0	16.9	0.00e+00	0	43	0	695205888	11	3972
2026-01-09 00:49:47.20	46.56	15.47	-25.2	-26.0	16.9	0.00e+00	0	42	0	701497344	11	3975
2026-01-09 00:49:48.20	46.72	15.54	-25.3	-26.3	16.7	0.00e+00	0	42	0	706740224	11	4045
2026-01-09 00:49:49.21	46.89	15.61	-25.1	-25.8	17.0	0.00e+00	0	43	0	711983104	11	3933
2026-01-09 00:49:50.22	47.06	15.68	-25.0	-26.2	17.1	0.00e+00	0	43	0	718274560	10	4126
2026-01-09 00:49:51.21	47.22	15.75	-25.1	-26.4	16.9	0.00e+00	0	42	0	723517440	10	4185
2026-01-09 00:49:52.22	47.39	15.82	-25.0	-26.1	17.1	0.00e+00	0	43	0	729808896	10	4107
2026-01-09 00:49:53.22	47.56	15.89	-24.9	-26.1	17.2	0.00e+00	0	43	0	735051776	10	4096
2026-01-09 00:49:54.23	47.74	15.96	-24.9	-26.0	17.2	0.00e+00	0	43	0	741343232	10	4074
2026-01-09 00:49:55.24	47.91	16.03	-24.8	-25.8	17.3	0.00e+00	0	42	0	746586112	10	4037
2026-01-09 00:49:56.24	48.08	16.10	-24.8	-25.6	17.4	0.00e+00	0	43	0	751828992	10	3992
2026-01-09 00:49:57.25	48.25	16.17	-24.7	-25.6	17.4	0.00e+00	0	43	0	758120448	10	3974
2026-01-09 00:49:58.26	48.43	16.24	-24.9	-26.0	17.1	0.00e+00	0	42	0	763363328	10	4070
2026-01-09 00:49:59.27	48.60	16.31	-25.0	-26.2	17.1	0.00e+00	0	42	0	768606208	10	4117
2026-01-09 00:50:00.28	48.78	16.38	-25.0	-26.1	17.2	2.97e-05	0	42	0	774897664	10	4097
2026-01-09 00:50:01.29	48.96	16.45	-25.3	-26.7	16.8	0.00e+00	0	42	0	780140544	10	4270
2026-01-09 00:50:02.30	49.14	16.52	-25.2	-26.6	16.9	0.00e+00	0	42	0	786432000	10	4236
2026-01-09 00:50:03.30	49.31	16.59	-25.1	-26.4	17.0	0.00e+00	0	43	0	791674880	10	4190
2026-01-09 00:50:04.31	49.49	16.66	-24.9	-26.1	17.2	0.00e+00	0	43	0	796917760	10	4101
2026-01-09 00:50:05.31	49.67	16.72	-24.9	-26.0	17.2	0.00e+00	0	42	0	803209216	10	4074
2026-01-09 00:50:06.32	49.85	16.79	-24.9	-26.0	17.2	0.00e+00	0	43	0	808452096	10	4086
2026-01-09 00:50:07.33	50.03	16.86	-24.7	-25.5	17.5	3.23e-04	0	43	0	814743552	10	3949
2026-01-09 00:50:08.33	50.22	16.93	-24.6	-25.4	17.6	0.00e+00	0	43	0	819986432	10	3920
2026-01-09 00:50:09.33	50.40	17.00	-24.6	-25.4	17.6	3.64e-04	0	42	0	826277888	10	3918
2026-01-09 00:50:10.33	50.58	17.07	-24.6	-25.3	17.6	0.00e+00	0	43	0	831520768	10	3919
2026-01-09 00:50:11.34	50.77	17.14	-24.5	-25.2	17.7	0.00e+00	0	43	0	836763648	10	3877
2026-01-09 00:50:12.35	50.95	17.21	-24.5	-25.2	17.7	3.82e-04	0	43	0	843055104	10	3878
2026-01-09 00:50:13.35	51.14	17.28	-24.5	-25.2	17.7	0.00e+00	0	43	0	848297984	10	3880
2026-01-09 00:50:14.36	51.32	17.34	-24.6	-25.3	17.6	0.00e+00	0	43	0	853540864	10	3899
2026-01-09 00:50:15.36	51.51	17.41	-24.7	-26.0	17.5	0.00e+00	0	43	0	859832320	9	4175
2026-01-09 00:50:16.37	51.70	17.48	-24.6	-25.9	17.5	3.82e-04	0	43	0	865075200	9	4165
2026-01-09 00:50:17.37	51.89	17.55	-24.7	-26.0	17.5	0.00e+00	0	43	0	871366656	9	4192
2026-01-09 00:50:18.38	52.08	17.62	-24.6	-25.8	17.6	2.84e-04	0	43	0	876609536	9	4147
2026-01-09 00:50:19.39	52.27	17.69	-24.7	-26.0	17.5	3.68e-04	0	43	0	881852416	9	4185
2026-01-09 00:50:20.40	52.47	17.75	-24.7	-26.0	17.5	0.00e+00	0	43	0	888143872	9	4193
2026-01-09 00:50:21.40	52.66	17.82	-24.7	-26.1	17.5	3.84e-04	0	43	0	893386752	9	4217
2026-01-09 00:50:22.41	52.85	17.89	-24.8	-26.3	17.3	3.65e-04	0	43	0	899678208	9	4267
2026-01-09 00:50:23.41	53.05	17.96	-24.7	-25.9	17.6	0.00e+00	0	43	0	904921088	9	4166
2026-01-09 00:50:24.42	53.24	18.02	-24.6	-25.8	17.6	2.30e-04	0	43	0	910163968	9	4146
2026-01-09 00:50:25.42	53.44	18.09	-24.6	-25.8	17.6	1.19e-04	0	43	0	916455424	9	4147
2026-01-09 00:50:26.43	53.64	18.16	-24.6	-25.7	17.6	0.00e+00	0	43	0	921698304	9	4123
2026-01-09 00:50:27.43	53.83	18.23	-24.6	-25.8	17.6	1.09e-04	0	43	0	927989760	9	4138
2026-01-09 00:50:28.44	54.03	18.29	-24.6	-25.9	17.6	1.70e-04	0	43	0	933232640	9	4165
2026-01-09 00:50:29.45	54.23	18.36	-24.5	-25.7	17.7	0.00e+00	0	43	0	938475520	9	4114
2026-01-09 00:50:30.45	54.43	18.43	-24.4	-25.3	17.9	2.55e-04	0	43	0	944766976	9	4019
2026-01-09 00:50:31.46	54.63	18.49	-24.4	-25.3	17.9	0.00e+00	0	43	0	950009856	9	4011
2026-01-09 00:50:32.47	54.84	18.56	-24.4	-25.3	17.9	0.00e+00	0	43	0	955252736	9	4012
2026-01-09 00:50:33.48	55.04	18.62	-24.3	-25.3	17.9	0.00e+00	0	43	0	961544192	9	4002
2026-01-09 00:50:34.48	55.24	18.69	-24.5	-25.6	17.8	1.59e-04	0	43	0	966787072	9	4094
2026-01-09 00:50:35.48	55.45	18.76	-24.6	-25.8	17.7	0.00e+00	0	43	0	973078528	9	4132
2026-01-09 00:50:36.49	55.65	18.82	-24.7	-26.0	17.6	0.00e+00	0	43	0	978321408	9	4186
2026-01-09 00:50:37.50	55.86	18.89	-24.7	-26.1	17.5	8.23e-05	0	43	0	984612864	9	4207
2026-01-09 00:50:38.51	56.07	18.95	-24.5	-25.5	17.8	0.00e+00	0	43	0	989855744	9	4059
2026-01-09 00:50:39.51	56.28	19.02	-24.3	-25.1	18.0	1.02e-04	0	43	0	995098624	9	3972
2026-01-09 00:50:40.51	56.49	19.08	-24.3	-25.1	18.0	0.00e+00	0	43	0	1001390080	9	3954
2026-01-09 00:50:41.52	56.70	19.15	-24.2	-25.0	18.1	0.00e+00	0	43	0	1006632960	9	3934
2026-01-09 00:50:42.53	56.91	19.21	-24.2	-25.0	18.1	0.00e+00	0	43	0	1012924416	9	3925
2026-01-09 00:50:43.54	57.12	19.28	-24.4	-25.3	17.9	0.00e+00	0	43	0	1018167296	9	4017
2026-01-09 00:50:44.54	57.33	19.34	-24.5	-25.6	17.8	0.00e+00	0	43	0	1023410176	9	4077
2026-01-09 00:50:45.55	57.55	19.40	-24.3	-25.3	18.0	0.00e+00	0	43	0	1029701632	9	3997
2026-01-09 00:50:46.55	57.76	19.47	-24.4	-25.5	17.8	1.74e-04	0	43	0	1034944512	9	4058
2026-01-09 00:50:47.56	57.98	19.53	-24.5	-25.6	17.8	0.00e+00	0	43	0	1040187392	9	4075
2026-01-09 00:50:48.57	58.19	19.59	-24.4	-25.4	17.9	0.00e+00	0	43	0	1046478848	9	4045
2026-01-09 00:50:49.58	58.41	19.66	-24.3	-25.3	18.0	0.00e+00	0	43	0	1051721728	9	4010
2026-01-09 00:50:50.58	58.63	19.72	-24.3	-25.1	18.1	0.00e+00	0	43	0	1058013184	9	3955
2026-01-09 00:50:51.59	58.85	19.78	-24.1	-24.8	18.2	0.00e+00	0	43	0	1063256064	9	3888
2026-01-09 00:50:52.60	59.07	19.84	-24.2	-24.9	18.1	0.00e+00	0	43	0	1069547520	9	3916
2026-01-09 00:50:53.60	59.29	19.90	-24.3	-25.2	18.0	0.00e+00	0	43	0	1074790400	9	3977
2026-01-09 00:50:54.61	59.51	19.97	-24.5	-25.5	17.8	0.00e+00	0	43	0	1080033280	9	4070
2026-01-09 00:50:55.61	59.73	20.03	-24.6	-25.9	17.7	0.00e+00	0	43	0	1086324736	9	4167
2026-01-09 00:50:56.62	59.96	20.09	-24.9	-26.4	17.4	0.00e+00	0	43	0	1091567616	9	4285
2026-01-09 00:50:57.63	60.18	20.15	-24.6	-25.9	17.6	0.00e+00	0	43	0	1097859072	9	4151
2026-01-09 00:50:58.64	60.41	20.21	-24.5	-25.5	17.8	0.00e+00	0	43	0	1103101952	9	4064
2026-01-09 00:50:59.65	60.63	20.27	-24.5	-25.5	17.9	0.00e+00	0	43	0	1108344832	9	4059
2026-01-09 00:51:00.65	60.86	20.33	-24.5	-25.5	17.9	0.00e+00	0	43	0	1114636288	9	4069
2026-01-09 00:51:01.66	61.09	20.39	-24.5	-25.7	17.8	0.00e+00	0	43	0	1119879168	9	4106
2026-01-09 00:51:02.67	61.32	20.45	-24.3	-25.2	18.0	0.00e+00	0	43	0	1125122048	9	3998
2026-01-09 00:51:03.68	61.55	20.51	-24.1	-24.7	18.3	0.00e+00	0	43	0	1131413504	9	3870
2026-01-09 00:51:04.69	61.78	20.57	-23.9	-24.3	18.5	0.00e+00	0	43	0	1136656384	9	3770
2026-01-09 00:51:05.69	62.01	20.62	-23.7	-24.4	18.7	0.00e+00	0	43	0	1142947840	8	3905
2026-01-09 00:51:06.69	62.24	20.68	-23.7	-24.3	18.8	0.00e+00	0	43	0	1148190720	8	3885
2026-01-09 00:51:07.70	62.47	20.74	-23.7	-24.4	18.7	0.00e+00	0	43	0	1154482176	8	3897
2026-01-09 00:51:08.71	62.71	20.80	-23.6	-24.3	18.8	0.00e+00	0	43	0	1159725056	8	3868
2026-01-09 00:51:09.72	62.94	20.85	-23.8	-24.6	18.6	0.00e+00	0	43	0	1164967936	8	3943
2026-01-09 00:51:10.72	63.18	20.91	-23.8	-24.6	18.7	0.00e+00	0	43	0	1171259392	8	3939
2026-01-09 00:51:11.73	63.42	20.97	-23.8	-24.7	18.6	0.00e+00	0	43	0	1176502272	8	3982
2026-01-09 00:51:12.73	63.65	21.02	-23.8	-24.6	18.6	0.00e+00	0	43	0	1182793728	8	3955
2026-01-09 00:51:13.73	63.89	21.08	-23.7	-24.4	18.7	0.00e+00	0	43	0	1188036608	8	3911
2026-01-09 00:51:14.74	64.13	21.13	-23.9	-24.9	18.5	0.00e+00	0	43	0	1193279488	8	4009
2026-01-09 00:51:15.75	64.37	21.19	-23.8	-24.5	18.6	0.00e+00	0	43	0	1199570944	8	3928
2026-01-09 00:51:16.76	64.61	21.24	-23.8	-24.6	18.7	0.00e+00	0	43	0	1204813824	8	3942
2026-01-09 00:51:17.76	64.85	21.30	-23.6	-24.1	18.9	0.00e+00	0	43	0	1210056704	8	3838
2026-01-09 00:51:18.77	65.09	21.35	-23.5	-23.9	19.0	0.00e+00	0	43	0	1216348160	8	3776
2026-01-09 00:51:19.78	65.34	21.40	-23.5	-24.5	18.9	0.00e+00	0	43	0	1221591040	7	4029
2026-01-09 00:51:20.78	65.58	21.46	-23.6	-24.7	18.8	0.00e+00	0	43	0	1227882496	7	4086
2026-01-09 00:51:21.79	65.82	21.51	-23.7	-25.0	18.6	6.08e-04	0	43	0	1233125376	7	4168
2026-01-09 00:51:22.80	66.07	21.56	-23.9	-25.4	18.4	0.00e+00	0	43	0	1239416832	7	4276
2026-01-09 00:51:23.81	66.32	21.61	-23.9	-24.8	18.5	0.00e+00	0	43	0	1244659712	8	4004
2026-01-09 00:51:24.82	66.57	21.66	-23.7	-24.5	18.7	0.00e+00	0	43	0	1249902592	8	3930
2026-01-09 00:51:25.83	66.81	21.72	-23.6	-24.2	18.8	0.00e+00	0	43	0	1256194048	8	3855
2026-01-09 00:51:26.83	67.06	21.77	-23.8	-24.7	18.6	3.81e-04	0	43	0	1261436928	8	3958
2026-01-09 00:51:27.83	67.31	21.81	-23.7	-24.4	18.7	0.00e+00	0	43	0	1267728384	8	3900
2026-01-09 00:51:28.84	67.56	21.86	-23.7	-24.4	18.8	0.00e+00	0	43	0	1272971264	8	3890
2026-01-09 00:51:29.84	67.81	21.91	-23.7	-24.4	18.7	0.00e+00	0	43	0	1278214144	8	3898
2026-01-09 00:51:30.85	68.06	21.96	-23.8	-24.6	18.7	1.72e-04	0	43	0	1284505600	8	3944
2026-01-09 00:51:31.85	68.31	22.01	-23.8	-24.6	18.7	0.00e+00	0	43	0	1289748480	8	3956
2026-01-09 00:51:32.86	68.57	22.06	-23.9	-24.8	18.5	0.00e+00	0	43	0	1294991360	8	4005
2026-01-09 00:51:33.85	68.82	22.10	-23.8	-24.7	18.6	1.23e-04	0	43	0	1301282816	8	3977
2026-01-09 00:51:34.86	69.07	22.15	-23.9	-24.8	18.5	0.00e+00	0	43	0	1306525696	8	4002
2026-01-09 00:51:35.86	69.33	22.20	-24.0	-25.1	18.4	1.77e-04	0	43	0	1312817152	8	4075
2026-01-09 00:51:36.88	69.59	22.24	-23.9	-24.8	18.6	0.00e+00	0	43	0	1318060032	8	4008
2026-01-09 00:51:37.88	69.84	22.29	-23.5	-24.0	18.9	0.00e+00	0	43	0	1324351488	8	3815
2026-01-09 00:51:38.89	70.10	22.33	-23.4	-23.8	19.1	2.18e-04	0	43	0	1329594368	8	3753
2026-01-09 00:51:39.89	70.36	22.38	-23.4	-23.7	19.1	1.73e-04	0	43	0	1334837248	8	3750
2026-01-09 00:51:40.90	70.62	22.42	-23.4	-23.8	19.1	0.00e+00	0	43	0	1341128704	8	3755
2026-01-09 00:51:41.90	70.88	22.46	-23.4	-23.8	19.0	2.31e-04	0	43	0	1346371584	8	3762
2026-01-09 00:51:42.91	71.14	22.50	-23.4	-24.2	19.0	3.02e-04	0	43	0	1351614464	7	3973
2026-01-09 00:51:43.91	71.40	22.55	-23.4	-24.3	19.0	0.00e+00	0	43	0	1357905920	7	3987
2026-01-09 00:51:44.92	71.66	22.59	-23.5	-24.7	18.6	3.66e-04	0	43	0	1363148800	7	4092
2026-01-09 00:51:45.93	71.93	22.63	-23.6	-24.7	18.6	3.39e-04	0	43	0	1369440256	7	4116
2026-01-09 00:51:46.93	72.19	22.67	-23.5	-24.5	18.8	0.00e+00	0	43	0	1374683136	7	4058
2026-01-09 00:51:47.94	72.45	22.71	-23.6	-24.9	18.6	2.08e-04	0	43	0	1379926016	7	4140
2026-01-09 00:51:48.95	72.72	22.75	-23.5	-24.6	18.7	0.00e+00	0	43	0	1386217472	7	4090
2026-01-09 00:51:49.96	72.99	22.79	-23.6	-24.7	18.7	0.00e+00	0	43	0	1391460352	7	4103
2026-01-09 00:51:50.96	73.25	22.83	-23.6	-24.8	18.6	0.00e+00	0	43	0	1397751808	7	4133
2026-01-09 00:51:51.97	73.52	22.86	-23.7	-24.9	18.5	1.29e-04	0	43	0	1402994688	7	4160
2026-01-09 00:51:52.98	73.79	22.90	-23.6	-24.9	18.6	0.00e+00	0	43	0	1409286144	7	4143
2026-01-09 00:51:53.99	74.06	22.94	-23.8	-25.3	18.4	1.22e-04	0	43	0	1414529024	7	4254
2026-01-09 00:51:54.99	74.32	22.97	-23.8	-25.1	18.4	3.48e-04	0	43	0	1419771904	7	4203
2026-01-09 00:51:56.00	74.59	23.01	-23.5	-24.7	18.7	3.40e-06	0	43	0	1426063360	7	4094
2026-01-09 00:51:57.00	74.86	23.04	-23.4	-24.3	18.9	2.36e-04	0	43	0	1431306240	7	4000
2026-01-09 00:51:58.01	75.13	23.08	-23.3	-24.2	18.9	0.00e+00	0	43	0	1436549120	7	3983
2026-01-09 00:51:59.01	75.40	23.11	-23.2	-23.8	19.1	4.50e-06	0	43	0	1442840576	7	3890
2026-01-09 00:52:00.02	75.67	23.14	-23.1	-23.8	19.1	0.00e+00	0	43	0	1448083456	7	3875
2026-01-09 00:52:01.03	75.95	23.18	-23.4	-24.3	18.9	0.00e+00	0	43	0	1454374912	7	3997
2026-01-09 00:52:02.04	76.22	23.21	-23.2	-24.0	19.1	0.00e+00	0	43	0	1459617792	7	3925
2026-01-09 00:52:03.04	76.49	23.24	-23.2	-24.0	19.0	0.00e+00	0	43	0	1464860672	7	3922
2026-01-09 00:52:04.05	76.77	23.27	-23.3	-24.0	19.0	0.00e+00	0	43	0	1471152128	7	3936
2026-01-09 00:52:05.05	77.04	23.30	-23.4	-24.3	18.9	0.00e+00	0	43	0	1476395008	7	3994
2026-01-09 00:52:06.06	77.32	23.33	-23.1	-23.8	19.1	0.00e+00	0	43	0	1482686464	7	3874
2026-01-09 00:52:07.06	77.59	23.36	-23.2	-23.8	19.1	0.00e+00	0	43	0	1487929344	7	3891
2026-01-09 00:52:08.07	77.87	23.38	-23.4	-24.3	18.8	2.20e-06	0	43	0	1493172224	7	4013
2026-01-09 00:52:09.07	78.14	23.41	-23.3	-24.1	19.0	0.00e+00	0	43	0	1499463680	7	3951
2026-01-09 00:52:10.08	78.42	23.44	-23.3	-24.2	18.9	0.00e+00	0	43	0	1504706560	7	3975
2026-01-09 00:52:11.09	78.70	23.46	-23.1	-23.7	19.1	0.00e+00	0	43	0	1510998016	7	3857
2026-01-09 00:52:12.10	78.98	23.49	-23.2	-23.8	19.1	0.00e+00	0	43	0	1516240896	7	3889
2026-01-09 00:52:13.10	79.25	23.51	-23.3	-24.2	18.9	0.00e+00	0	43	0	1521483776	7	3979
2026-01-09 00:52:14.11	79.53	23.54	-23.1	-23.6	19.2	0.00e+00	0	43	0	1527775232	7	3847
2026-01-09 00:52:15.11	79.81	23.56	-23.1	-23.6	19.2	0.00e+00	0	43	0	1533018112	7	3842
2026-01-09 00:52:16.12	80.09	23.58	-23.2	-24.0	19.0	0.00e+00	0	43	0	1539309568	7	3941
2026-01-09 00:52:17.13	80.37	23.60	-23.3	-24.1	18.9	0.00e+00	0	43	0	1544552448	7	3960
2026-01-09 00:52:18.13	80.65	23.62	-23.3	-24.0	19.0	0.00e+00	0	43	0	1549795328	7	3946
2026-01-09 00:52:19.14	80.93	23.65	-23.1	-23.8	19.1	0.00e+00	0	43	0	1556086784	7	3880
2026-01-09 00:52:20.14	81.21	23.66	-23.2	-23.9	19.0	0.00e+00	0	43	0	1561329664	7	3917
2026-01-09 00:52:21.14	81.49	23.68	-23.4	-24.4	18.8	0.00e+00	0	43	0	1567621120	7	4032
2026-01-09 00:52:22.15	81.77	23.70	-23.8	-25.3	18.3	0.00e+00	0	43	0	1572864000	7	4251
2026-01-09 00:52:23.15	82.05	23.72	-23.4	-24.3	18.8	0.00e+00	0	43	0	1578106880	7	4012
2026-01-09 00:52:24.16	82.34	23.74	-23.5	-24.6	18.7	0.00e+00	0	43	0	1584398336	7	4065
2026-01-09 00:52:25.17	82.62	23.75	-23.6	-24.8	18.6	0.00e+00	0	43	0	1589641216	7	4135
2026-01-09 00:52:26.17	82.90	23.77	-23.5	-24.6	18.7	0.00e+00	0	43	0	1594884096	7	4072
2026-01-09 00:52:27.17	83.18	23.78	-23.4	-24.4	18.8	0.00e+00	0	43	0	1601175552	7	4027
2026-01-09 00:52:28.18	83.47	23.80	-23.4	-24.4	18.8	0.00e+00	0	43	0	1606418432	7	4019
2026-01-09 00:52:29.19	83.75	23.81	-23.3	-24.1	18.9	0.00e+00	0	43	0	1612709888	7	3959
2026-01-09 00:52:30.20	84.04	23.82	-23.6	-24.7	18.7	0.00e+00	0	43	0	1617952768	7	4099
2026-01-09 00:52:31.20	84.32	23.84	-23.3	-24.1	19.0	0.00e+00	0	43	0	1623195648	7	3950
2026-01-09 00:52:32.21	84.60	23.85	-23.1	-23.7	19.2	0.00e+00	0	43	0	1629487104	7	3853
2026-01-09 00:52:33.22	84.89	23.86	-23.1	-23.7	19.1	0.00e+00	0	43	0	1634729984	7	3868
2026-01-09 00:52:34.22	85.17	23.87	-23.2	-23.8	19.1	0.00e+00	0	43	0	1641021440	7	3893
2026-01-09 00:52:35.22	85.46	23.88	-23.2	-24.0	19.0	0.00e+00	0	43	0	1646264320	7	3923
2026-01-09 00:52:36.23	85.74	23.89	-23.1	-23.7	19.1	0.00e+00	0	43	0	1652555776	7	3868
2026-01-09 00:52:37.23	86.03	23.89	-23.2	-23.8	19.1	0.00e+00	0	43	0	1657798656	7	3891
2026-01-09 00:52:38.24	86.31	23.90	-23.1	-23.7	19.1	0.00e+00	0	43	0	1663041536	7	3869
2026-01-09 00:52:39.25	86.60	23.91	-23.2	-24.0	18.9	0.00e+00	0	43	0	1669332992	7	3917
2026-01-09 00:52:40.25	86.88	23.91	-23.6	-24.7	18.7	0.00e+00	0	43	0	1674575872	7	4098
2026-01-09 00:52:41.26	87.17	23.92	-23.3	-24.0	18.0	0.00e+00	0	43	0	1679818752	7	3941
2026-01-09 00:52:42.26	87.45	23.92	-23.2	-23.9	19.0	0.00e+00	0	43	0	1686110208	7	3900
2026-01-09 00:52:43.27	87.74	23.92	-23.2	-23.9	19.0	0.00e+00	0	43	0	1691353088	7	3919
2026-01-09 00:52:44.27	88.02	23.93	-23.2	-24.0	19.0	3.24e-04	0	43	0	1697644544	7	3928
2026-01-09 00:52:45.28	88.31	23.93	-23.4	-24.4	18.8	0.00e+00	0	43	0	1702887424	7	4032
2026-01-09 00:52:46.28	88.59	23.93	-23.0	-23.5	19.2	0.00e+00	0	43	0	1708130304	7	3823
2026-01-09 00:52:47.28	88.88	23.93	-22.9	-23.4	19.3	0.00e+00	0	43	0	1714421760	7	3784
2026-01-09 00:52:48.29	89.17	23.93	-22.9	-23.8	19.3	0.00e+00	0	43	0	1719664640	6	3985
2026-01-09 00:52:49.29	89.45	23.93	-22.9	-23.7	19.4	0.00e+00	0	43	0	1725956096	6	3974
2026-01-09 00:52:50.31	89.74	23.93	-22.8	-23.6	19.4	0.00e+00	0	43	0	1731198976	6	3954
2026-01-09 00:52:51.32	90.03	23.92	-22.8	-23.6	19.4	2.40e-04	0	43	0	1736441856	6	3944
2026-01-09 00:52:52.32	90.31	23.92	-22.9	-23.9	19.3	0.00e+00	0	43	0	1742733312	6	4021
2026-01-09 00:52:53.33	90.60	23.92	-23.0	-24.0	19.2	2.28e-04	0	43	0	1747976192	6	4049
2026-01-09 00:52:54.34	90.89	23.91	-23.1	-24.2	19.1	0.00e+00	0	43	0	1754267648	6	4098
2026-01-09 00:52:55.35	91.17	23.91	-22.9	-23.8	19.3	0.00e+00	0	43	0	1759510528	6	4007
2026-01-09 00:52:56.35	91.46	23.90	-22.9	-23.9	19.3	2.12e-04	0	43	0	1764753408	6	4010
2026-01-09 00:52:57.36	91.74	23.89	-22.9	-23.8	19.3	1.85e-04	0	43	0	1771044864	6	3995
2026-01-09 00:52:58.36	92.03	23.89	-23.0	-24.0	19.2	0.00e+00	0	43	0	1776287744	6	4048
2026-01-09 00:52:59.37	92.31	23.88	-23.1	-24.2	19.1	3.43e-05	0	43	0	1782579200	6	4103
2026-01-09 00:53:00.38	92.60	23.87	-23.2	-24.4	19.0	7.43e-05	0	43	0	1787822080	6	4142
2026-01-09 00:53:01.38	92.88	23.86	-23.1	-24.3	19.0	0.00e+00	0	43	0	1794113536	6	4122
2026-01-09 00:53:02.39	93.17	23.85	-22.9	-23.9	19.2	0.00e+00	0	43	0	1799356416	6	4014
2026-01-09 00:53:03.39	93.45	23.84	-22.9	-23.8	19.3	8.58e-05	0	43	0	1804599296	6	3999
2026-01-09 00:53:04.40	93.74	23.83	-23.0	-24.1	19.1	0.00e+00	0	43	0	1810890752	6	4065
2026-01-09 00:53:05.41	94.02	23.81	-22.9	-23.9	19.2	0.00e+00	0	43	0	1816133632	6	4022
2026-01-09 00:53:06.41	94.30	23.80	-22.9	-23.8	19.3	0.00e+00	0	43	0	1821376512	6	3999
2026-01-09 00:53:07.42	94.59	23.79	-23.1	-24.2	19.1	0.00e+00	0	43	0	1827667968	6	4089
2026-01-09 00:53:08.43	94.87	23.77	-23.1	-24.1	19.1	0.00e+00	0	43	0	1832910848	6	4077
2026-01-09 00:53:09.43	95.15	23.76	-22.9	-23.9	19.3	0.00e+00	0	43	0	1839202304	6	4006
2026-01-09 00:53:10.44	95.44	23.74	-23.0	-24.0	19.2	0.00e+00	0	43	0	1844445184	6	4035
2026-01-09 00:53:11.44	95.72	23.72	-23.0	-24.0	19.2	0.00e+00	0	43	0	1849688064	6	4046
2026-01-09 00:53:12.45	96.00	23.70	-23.0	-24.1	19.1	0.00e+00	0	43	0	1855979520	6	4076
2026-01-09 00:53:13.46	96.28	23.69	-23.1	-24.2	19.1	0.00e+00	0	43	0	1861222400	6	4093
2026-01-09 00:53:14.47	96.57	23.67	-23.1	-24.3	19.0	0.00e+00	0	43	0	1867513856	6	4122
2026-01-09 00:53:15.47	96.85	23.65	-23.1	-24.3	19.0	0.00e+00	0	43	0	1872756736	6	4126
2026-01-09 00:53:16.48	97.13	23.63	-23.1	-24.2	19.1	0.00e+00	0	43	0	1879048192	6	4091
2026-01-09 00:53:17.48	97.41	23.61	-23.0	-24.0	19.2	0.00e+00	0	43	0	1884291072	6	4034
2026-01-09 00:53:18.49	97.69	23.58	-23.0	-24.0	19.2	0.00e+00	0	43	0	1889533952	6	4042
2026-01-09 00:53:19.49	97.97	23.56	-23.0	-24.1	19.1	0.00e+00	0	43	0	1895825408	6	4068
2026-01-09 00:53:20.50	98.25	23.54	-23.0	-24.1	19.1	0.00e+00	0	43	0	1901068288	6	4056
2026-01-09 00:53:21.51	98.53	23.51	-23.2	-24.5	18.9	4.50e-06	0	43	0	1906311168	6	4169
2026-01-09 00:53:22.51	98.81	23.49	-23.1	-24.3	19.0	0.00e+00	0	43	0	1912602624	6	4114
2026-01-09 00:53:23.52	99.08	23.47	-23.1	-24.2	19.1	0.00e+00	0	43	0	1917845504	6	4088
2026-01-09 00:53:24.53	99.36	23.44	-23.3	-24.7	18.8	0.00e+00	0	43	0	1924136960	6	4219
2026-01-09 00:53:25.54	99.64	23.41	-23.4	-24.3	18.8	0.00e+00	0	43	0	1929379840	7	4005
2026-01-09 00:53:26.55	99.92	23.39	-23.4	-24.3	18.8	0.00e+00	0	43	0	1934622720	7	4002
2026-01-09 00:53:27.56	100.20	23.36	-23.4	-24.4	18.8	0.00e+00	0	43	0	1940914176	7	4020
2026-01-09 00:53:28.57	100.47	23.33	-23.4	-24.4	18.7	0.00e+00	0	43	0	1946157056	7	4025
2026-01-09 00:53:29.57	100.75	23.30	-23.5	-24.5	18.7	0.00e+00	0	43	0	1952448512	7	4062
2026-01-09 00:53:30.58	101.02	23.27	-23.4	-24.3	18.8	0.00e+00	0	43	0	1957691392	7	4011
2026-01-09 00:53:31.58	101.30	23.24	-23.3	-24.2	18.8	0.00e+00	0	43	0	1963982848	7	3992
2026-01-09 00:53:32.59	101.57	23.21	-23.1	-23.8	19.0	0.00e+00	0	43	0	1969225728	7	3886
2026-01-09 00:53:33.59	101.84	23.18	-23.3	-24.1	18.9	0.00e+00	0	43	0	1974468608	7	3960
2026-01-09 00:53:34.60	102.12	23.15	-23.3	-24.1	18.9	0.00e+00	0	43	0	1980760064	7	3947
2026-01-09 00:53:35.60	102.39	23.11	-23.2	-23.9	19.0	0.00e+00	0	43	0	1986002944	7	3902
2026-01-09 00:53:36.61	102.66	23.08	-23.2	-23.9	19.0	0.00e+00	0	43	0	1991245824	7	3909
2026-01-09 00:53:37.61	102.93	23.04	-23.2	-24.0	18.9	0.00e+00	0	43	0	1997537280	7	3927
2026-01-09 00:53:38.62	103.20	23.01	-23.3	-24.2	18.9	0.00e+00	0	43	0	2002780160	7	3974
2026-01-09 00:53:39.63	103.47	22.97	-23.4	-24.3	18.8	0.00e+00	0	43	0	2009071616	7	4002
2026-01-09 00:53:40.63	103.74	22.94	-23.5	-24.5	18.7	0.00e+00	0	43	0	2014314496	7	4064
2026-01-09 00:53:41.63	104.01	22.90	-23.6	-24.7	18.5	0.00e+00	0	43	0	2019557376	7	4114
2026-01-09 00:53:42.64	104.28	22.87	-23.4	-24.4	18.7	0.00e+00	0	43	0	2025848832	7	4025
2026-01-09 00:53:43.65	104.55	22.83	-23.3	-24.2	18.8	0.00e+00	0	43	0	2031091712	7	3980
2026-01-09 00:53:44.66	104.81	22.79	-23.4	-24.3	18.8	0.00e+00	0	43	0	2037383168	7	3998
2026-01-09 00:53:45.66	105.08	22.75	-23.5	-24.7	18.6	0.00e+00	0	43	0	2042626048	7	4099
2026-01-09 00:53:46.67	105.35	22.71	-23.5	-24.6	18.6	0.00e+00	0	43	0	2047868928	7	4072
2026-01-09 00:53:47.68	105.61	22.67	-23.5	-24.5	18.7	0.00e+00	0	43	0	2054160384	7	4049
2026-01-09 00:53:48.68	105.87	22.63	-23.6	-24.8	18.5	0.00e+00	0	43	0	2059403264	7	4121
2026-01-09 00:53:49.69	106.14	22.59	-23.4	-24.4	18.7	0.00e+00	0	43	0	2065694720	7	4035
2026-01-09 00:53:50.70	106.40	22.55	-23.3	-24.2	18.8	0.00e+00	0	43	0	2070937600	7	3980
2026-01-09 00:53:51.71	106.67	22.51	-23.4	-24.4	18.7	0.00e+00	0	43	0	2076180480	7	4019
2026-01-09 00:53:52.72	106.93	22.46	-23.5	-24.6	18.6	0.00e+00	0	43	0	2082471936	7	4089
2026-01-09 00:53:53.72	107.19	22.42	-23.7	-25.1	18.4	0.00e+00	0	43	0	2087714816	7	4201
2026-01-09 00:53:54.73	107.45	22.38	-23.7	-24.9	18.4	0.00e+00	0	43	0	2094006272	7	4167
2026-01-09 00:53:55.74	107.71	22.33	-23.6	-24.7	18.5	0.00e+00	0	43	0	2099249152	7	4119
2026-01-09 00:53:56.75	107.97	22.29	-23.6	-24.8	18.5	0.00e+00	0	43	0	2104492032	7	4121
2026-01-09 00:53:57.75	108.23	22.24	-23.5	-24.5	18.6	0.00e+00	0	43	0	2110783488	7	4061
2026-01-09 00:53:58.76	108.48	22.20	-23.5	-24.5	18.6	0.00e+00	0	43	0	2116026368	7	4052
2026-01-09 00:53:59.77	108.74	22.15	-23.6	-24.7	18.5	0.00e+00	0	43	0	2122317824	7	4113
2026-01-09 00:54:00.77	109.00	22.10	-23.7	-25.1	18.3	0.00e+00	0	43	0	2127560704	7	4205
2026-01-09 00:54:01.77	109.25	22.06	-23.7	-24.9	18.4	0.00e+00	0	43	0	2133852160	7	4166
2026-01-09 00:54:02.78	109.50	22.01	-23.8	-25.2	18.2	0.00e+00	0	43	0	2139095040	7	4237
2026-01-09 00:54:03.79	109.76	21.96	-23.9	-25.3	18.2	0.00e+00	0	43	0	2144337920	7	4274
2026-01-09 00:54:04.79	110.01	21.91	-23.8	-25.2	18.3	0.00e+00	0	43	0	2150629376	7	4232
2026-01-09 00:54:05.81	110.27	21.86	-24.0	-25.2	18.0	2.53e-04	0	43	0	2155872256	8	4123
2026-01-09 00:54:06.81	110.51	21.81	-24.4	-25.9	17.7	0.00e+00	0	43	0	2161115136	8	4299
2026-01-09 00:54:07.81	110.76	21.76	-24.4	-25.9	17.6	0.00e+00	0	43	0	2167406592	8	4313
2026-01-09 00:54:08.82	111.01	21.71	-24.6	-25.8	17.5	0.00e+00	0	43	0	2172649472	9	4177
2026-01-09 00:54:09.83	111.26	21.66	-24.3	-25.3	17.7	0.00e+00	0	43	0	2178940928	9	4037
2026-01-09 00:54:10.83	111.51	21.61	-24.2	-25.0	17.9	1.94e-04	0	43	0	2184183808	9	3960
2026-01-09 00:54:11.84	111.76	21.56	-23.9	-24.5	18.1	0.00e+00	0	43	0	2189426688	9	3842
2026-01-09 00:54:12.85	112.01	21.50	-24.1	-24.9	17.9	0.00e+00	0	43	0	2195718144	9	3929
2026-01-09 00:54:13.86	112.25	21.45	-24.0	-24.7	18.1	0.00e+00	0	43	0	2200961024	9	3880
2026-01-09 00:54:14.87	112.50	21.40	-24.3	-25.3	17.8	8.69e-05	0	43	0	2207252480	9	4028
2026-01-09 00:54:15.88	112.74	21.34	-24.5	-25.8	17.5	0.00e+00	0	43	0	2212495360	9	4153
2026-01-09 00:54:16.89	112.99	21.29	-24.4	-25.4	17.6	1.27e-04	0	43	0	2218786816	9	4072
2026-01-09 00:54:17.89	113.23	21.24	-24.9	-26.6	17.1	1.25e-04	0	43	0	2224029696	9	4362
2026-01-09 00:54:18.90	113.47	21.18	-24.3	-24.9	17.7	0.00e+00	0	43	0	2229272576	10	3834
2026-01-09 00:54:19.90	113.71	21.13	-24.2	-25.2	17.8	9.26e-05	0	43	0	2235564032	9	4005
2026-01-09 00:54:20.91	113.95	21.07	-24.5	-25.7	17.5	0.00e+00	0	43	0	2240806912	9	4146
2026-01-09 00:54:21.92	114.19	21.01	-24.3	-25.4	17.7	0.00e+00	0	43	0	2246049792	9	4053
2026-01-09 00:54:22.92	114.43	20.96	-24.8	-26.3	17.2	9.26e-05	0	43	0	2252341248	9	4278
2026-01-09 00:54:23.93	114.67	20.90	-24.3	-25.3	17.7	7.55e-05	0	43	0	2257584128	9	4039
2026-01-09 00:54:24.94	114.90	20.84	-24.6	-25.8	17.4	0.00e+00	0	43	0	2263875584	9	4162
2026-01-09 00:54:25.95	115.14	20.79	-24.6	-25.9	17.4	7.66e-05	0	43	0	2269118464	9	4198
2026-01-09 00:54:26.95	115.37	20.73	-25.1	-26.5	16.9	1.72e-04	0	43	0	2274361344	10	4227
2026-01-09 00:54:27.95	115.60	20.67	-25.2	-26.7	16.7	0.00e+00	0	43	0	2280652800	10	4297
2026-01-09 00:54:28.96	115.84	20.61	-25.7	-27.4	16.1	1.72e-04	0	43	0	2285895680	11	4361
2026-01-09 00:54:29.97	116.07	20.56	-25.2	-26.2	16.7	0.00e+00	0	43	0	2292187136	11	4047
2026-01-09 00:54:30.98	116.30	20.50	-24.5	-25.2	17.5	0.00e+00	0	43	0	2297430016	10	3907
2026-01-09 00:54:31.98	116.53	20.44	-24.3	-24.8	17.7	0.00e+00	0	43	0	2303721472	10	3811
2026-01-09 00:54:32.99	116.76	20.38	-24.2	-25.1	17.8	0.00e+00	0	43	0	2308964352	9	3984
2026-01-09 00:54:34.00	116.99	20.32	-24.2	-25.1	17.8	0.00e+00	0	43	0	2314207232	9	3984
2026-01-09 00:54:35.00	117.22	20.26	-24.2	-25.1	17.7	0.00e+00	0	43	0	2320498688	9	3989
2026-01-09 00:54:36.01	117.45	20.20	-24.3	-25.3	17.6	0.00e+00	0	43	0	2325741568	9	4041
2026-01-09 00:54:37.02	117.67	20.14	-24.2	-25.2	17.7	0.00e+00	0	43	0	2330984448	9	4020
2026-01-09 00:54:38.02	117.90	20.07	-24.3	-25.4	17.6	4.50e-06	0	43	0	2337275904	9	4062
2026-01-09 00:54:39.03	118.12	20.01	-24.4	-25.5	17.6	0.00e+00	0	43	0	2342518784	9	4084
2026-01-09 00:54:40.04	118.35	19.95	-24.1	-25.0	17.8	0.00e+00	0	43	0	2348810240	9	3956
2026-01-09 00:54:41.04	118.57	19.89	-24.2	-25.1	17.7	0.00e+00	0	43	0	2354053120	9	3994
2026-01-09 00:54:42.04	118.79	19.83	-24.1	-25.0	17.8	0.00e+00	0	43	0	2359296000	9	3963
2026-01-09 00:54:43.05	119.01	19.76	-24.1	-24.9	17.8	0.00e+00	0	43	0	2365587456	9	3949
2026-01-09 00:54:44.04	119.23	19.70	-24.3	-25.3	17.7	0.00e+00	0	43	0	2370830336	9	4028
2026-01-09 00:54:45.05	119.45	19.64	-24.2	-25.1	17.7	6.06e-05	0	43	0	2377121792	9	3982
2026-01-09 00:54:46.05	119.66	19.58	-24.3	-25.2	17.7	0.00e+00	0	43	0	2382364672	9	4020
2026-01-09 00:54:47.06	119.88	19.51	-24.3	-25.2	17.7	0.00e+00	0	43	0	2387607552	9	4015
2026-01-09 00:54:48.06	120.10	19.45	-24.4	-25.6	17.5	0.00e+00	0	43	0	2393899008	9	4111
2026-01-09 00:54:49.07	120.31	19.39	-24.3	-25.3	17.6	0.00e+00	0	43	0	2399141888	9	4031
2026-01-09 00:54:50.07	120.53	19.32	-24.3	-25.3	17.6	0.00e+00	0	43	0	2405433344	9	4048
2026-01-09 00:54:51.08	120.74	19.26	-24.5	-25.7	17.4	0.00e+00	0	43	0	2410676224	9	4134
2026-01-09 00:54:52.09	120.95	19.19	-24.5	-25.7	17.4	0.00e+00	0	43	0	2415919104	9	4151
2026-01-09 00:54:53.10	121.17	19.13	-24.6	-25.9	17.3	0.00e+00	0	43	0	2422210560	9	4187
2026-01-09 00:54:54.10	121.38	19.06	-24.5	-25.7	17.4	0.00e+00	0	43	0	2427453440	9	4142
2026-01-09 00:54:55.11	121.59	19.00	-24.5	-25.7	17.4	0.00e+00	0	43	0	2432696320	9	4129
2026-01-09 00:54:56.11	121.80	18.93	-24.6	-25.9	17.3	0.00e+00	0	43	0	2438987776	9	4184
2026-01-09 00:54:57.12	122.01	18.87	-24.5	-25.7	17.4	0.00e+00	0	43	0	2444230656	9	4143
2026-01-09 00:54:58.13	122.21	18.80	-24.5	-25.8	17.3	0.00e+00	0	43	0	2450522112	9	4155
2026-01-09 00:54:59.14	122.42	18.73	-24.6	-26.0	17.2	0.00e+00	0	43	0	2455764992	9	4222
2026-01-09 00:55:00.14	122.63	18.67	-24.8	-26.5	16.9	0.00e+00	0	43	0	2462056448	9	4350
2026-01-09 00:55:01.15	122.83	18.60	-24.9	-26.7	16.9	0.00e+00	0	43	0	2467299328	9	4404
2026-01-09 00:55:02.16	123.04	18.53	-24.8	-26.5	17.0	0.00e+00	0	43	0	2472542208	9	4347
2026-01-09 00:55:03.17	123.24	18.47	-24.8	-26.4	17.0	0.00e+00	0	43	0	2478833664	9	4325
2026-01-09 00:55:04.17	123.44	18.40	-24.8	-26.4	17.0	0.00e+00	0	43	0	2484076544	9	4338
2026-01-09 00:55:05.18	123.65	18.33	-24.7	-26.1	17.1	0.00e+00	0	43	0	2490368000	9	4256
2026-01-09 00:55:06.19	123.85	18.27	-24.6	-26.1	17.2	0.00e+00	0	43	0	2495610880	9	4241
2026-01-09 00:55:07.19	124.05	18.20	-24.8	-26.4	17.0	0.00e+00	0	43	0	2500853760	9	4324
2026-01-09 00:55:08.20	124.25	18.13	-25.1	-26.6	16.7	0.00e+00	0	43	0	2507145216	10	4269
2026-01-09 00:55:09.20	124.44	18.06	-25.0	-26.3	16.8	0.00e+00	0	43	0	2512388096	10	4171
2026-01-09 00:55:10.21	124.64	18.00	-24.7	-25.6	17.1	0.00e+00	0	43	0	2517630976	10	4016
2026-01-09 00:55:11.22	124.84	17.93	-24.5	-25.3	17.3	0.00e+00	0	43	0	2523922432	10	3929
2026-01-09 00:55:12.21	125.03	17.86	-24.6	-25.4	17.3	0.00e+00	0	43	0	2529165312	10	3947
2026-01-09 00:55:13.21	125.22	17.79	-24.5	-25.3	17.3	0.00e+00	0	43	0	2535456768	10	3928
2026-01-09 00:55:14.22	125.42	17.72	-24.6	-25.4	17.2	0.00e+00	0	43	0	2540699648	10	3968
2026-01-09 00:55:15.23	125.61	17.65	-24.6	-25.5	17.2	0.00e+00	0	43	0	2546991104	10	3973
2026-01-09 00:55:16.24	125.80	17.59	-24.6	-25.5	17.2	1.10e-06	0	43	0	2552233984	10	3976
2026-01-09 00:55:17.24	125.99	17.52	-24.5	-25.2	17.4	5.70e-06	0	43	0	2557476864	10	3910
2026-01-09 00:55:18.24	126.18	17.45	-24.6	-25.5	17.2	0.00e+00	0	43	0	2563768320	10	3985
2026-01-09 00:55:19.25	126.37	17.38	-24.7	-25.7	17.1	0.00e+00	0	43	0	2569011200	10	4027
2026-01-09 00:55:20.26	126.56	17.31	-24.9	-26.2	16.8	1.10e-06	0	43	0	2574254080	10	4162
2026-01-09 00:55:21.27	126.75	17.24	-25.1	-26.5	16.7	0.00e+00	0	43	0	2580545536	10	4238
2026-01-09 00:55:22.28	126.94	17.17	-25.2	-26.7	16.6	0.00e+00	0	43	0	2585788416	10	4282
2026-01-09 00:55:23.28	127.13	17.10	-25.2	-26.7	16.6	0.00e+00	0	43	0	2592079872	10	4285
2026-01-09 00:55:24.29	127.31	17.03	-25.1	-26.6	16.6	0.00e+00	0	43	0	2597322752	10	4264
2026-01-09 00:55:25.29	127.50	16.96	-25.2	-26.7	16.5	0.00e+00	0	43	0	2602565632	10	4284
2026-01-09 00:55:26.31	127.68	16.89	-25.3	-26.9	16.4	0.00e+00	0	43	0	2608857088	10	4348
2026-01-09 00:55:27.31	127.86	16.82	-25.1	-26.6	16.6	0.00e+00	0	43	0	2614099968	10	4257
2026-01-09 00:55:28.32	128.05	16.75	-25.1	-26.5	16.6	0.00e+00	0	43	0	2620391424	10	4250
2026-01-09 00:55:29.33	128.23	16.68	-25.1	-26.5	16.1	0.00e+00	0	43	0	2625634304	10	4247
2026-01-09 00:55:30.33	128.41	16.61	-25.3	-27.0	16.4	0.00e+00	0	43	0	2631925760	10	4367
2026-01-09 00:55:31.34	128.59	16.54	-25.3	-27.0	16.3	0.00e+00	0	43	0	2637168640	10	4380
2026-01-09 00:55:32.35	128.77	16.47	-25.5	-26.9	16.1	0.00e+00	0	43	0	2642411520	11	4228
2026-01-09 00:55:33.36	128.95	16.40	-25.5	-26.9	16.1	0.00e+00	0	43	0	2648702976	11	4240
2026-01-09 00:55:34.36	129.12	16.33	-25.6	-27.1	16.0	1.32e-04	0	43	0	2653945856	11	4286
2026-01-09 00:55:35.37	129.30	16.26	-25.8	-27.5	15.8	0.00e+00	0	43	0	2659188736	11	4400
2026-01-09 00:55:36.38	129.48	16.19	-25.5	-27.0	16.1	0.00e+00	0	43	0	2665480192	11	4246
2026-01-09 00:55:37.38	129.65	16.12	-25.3	-26.5	16.3	0.00e+00	0	43	0	2670723072	11	4129
2026-01-09 00:55:38.39	129.82	16.05	-25.2	-26.2	16.5	0.00e+00	0	43	0	2677014528	11	4060
2026-01-09 00:55:39.40	130.00	15.98	-25.2	-26.4	16.3	0.00e+00	0	43	0	2682257408	11	4093
2026-01-09 00:55:40.41	130.17	15.91	-25.3	-26.6	16.3	0.00e+00	0	43	0	2687500288	11	4145
2026-01-09 00:55:41.42	130.34	15.84	-25.4	-26.6	16.2	1.93e-04	0	43	0	2693791744	11	4168
2026-01-09 00:55:42.43	130.52	15.77	-25.2	-26.2	16.4	0.00e+00	0	43	0	2699034624	11	4051
2026-01-09 00:55:43.44	130.69	15.70	-25.2	-26.2	16.4	1.99e-04	0	43	0	2705326080	11	4054
2026-01-09 00:55:44.44	130.85	15.63	-25.2	-26.2	16.4	0.00e+00	0	43	0	2710568960	11	4063
2026-01-09 00:55:45.45	131.02	15.56	-25.3	-26.4	16.3	0.00e+00	0	43	0	2716860416	11	4115
2026-01-09 00:55:46.46	131.19	15.49	-25.2	-26.4	16.3	7.43e-05	0	43	0	2722103296	11	4100
2026-01-09 00:55:47.46	131.36	15.42	-25.3	-26.6	16.2	9.15e-05	0	43	0	2727346176	11	4158
2026-01-09 00:55:48.47	131.52	15.35	-25.3	-26.6	16.2	0.00e+00	0	43	0	2733637632	11	4150
2026-01-09 00:55:49.48	131.69	15.27	-25.3	-26.5	16.2	1.03e-04	0	43	0	2738880512	11	4130
2026-01-09 00:55:50.48	131.85	15.20	-25.3	-26.4	16.2	8.81e-05	0	43	0	2745171968	11	4112
2026-01-09 00:55:51.49	132.02	15.13	-25.2	-26.3	16.3	0.00e+00	0	43	0	2750414848	11	4084
2026-01-09 00:55:52.50	132.18	15.06	-25.3	-26.5	16.2	1.64e-04	0	43	0	2755657728	11	4120
2026-01-09 00:55:53.50	132.34	14.99	-25.4	-26.8	16.0	1.79e-04	0	43	0	2761949184	11	4208
2026-01-09 00:55:54.51	132.51	14.92	-25.4	-26.8	16.0	0.00e+00	0	43	0	2767192064	11	4206
2026-01-09 00:55:55.52	132.67	14.85	-25.4	-26.7	16.1	2.14e-04	0	43	0	2772434944	11	4188
2026-01-09 00:55:56.53	132.83	14.78	-25.5	-27.0	15.9	3.05e-04	0	43	0	2778726400	11	4254
2026-01-09 00:55:57.53	132.99	14.71	-25.9	-27.7	15.5	0.00e+00	0	43	0	2783969280	11	4460
2026-01-09 00:55:58.54	133.15	14.64	-26.0	-27.6	15.2	0.00e+00	0	43	0	2790260736	12	4312
2026-01-09 00:55:59.54	133.30	14.57	-26.2	-28.1	14.9	4.42e-04	0	43	0	2795503616	12	4464
2026-01-09 00:56:00.55	133.46	14.50	-26.5	-28.1	14.7	0.00e+00	0	43	0	2801795072	13	4350
2026-01-09 00:56:01.55	133.62	14.43	-26.1	-27.3	15.1	4.07e-04	0	43	0	2807037952	13	4124
2026-01-09 00:56:02.55	133.77	14.35	-25.7	-27.0	15.5	3.94e-04	0	43	0	2812280832	12	4168
2026-01-09 00:56:03.56	133.93	14.28	-25.7	-26.9	15.6	0.00e+00	0	43	0	2818572288	12	4140
2026-01-09 00:56:04.56	134.08	14.21	-26.0	-27.5	15.2	3.35e-04	0	43	0	2823815168	12	4296
2026-01-09 00:56:05.57	134.24	14.14	-26.1	-27.9	15.0	0.00e+00	0	43	0	2830106624	12	4414
2026-01-09 00:56:06.58	134.39	14.07	-26.1	-27.8	15.0	0.00e+00	0	43	0	2835349504	12	4385
2026-01-09 00:56:07.58	134.54	14.00	-26.2	-28.0	15.0	0.00e+00	0	43	0	2840592384	12	4425
2026-01-09 00:56:08.59	134.69	13.93	-26.3	-28.2	14.8	2.60e-04	0	43	0	2846883840	12	4480
2026-01-09 00:56:09.59	134.84	13.86	-26.2	-28.0	14.9	0.00e+00	0	43	0	2852126720	12	4437
2026-01-09 00:56:10.60	134.99	13.79	-26.5	-28.7	14.5	0.00e+00	0	43	0	2857369600	12	4636
2026-01-09 00:56:11.61	135.14	13.72	-26.5	-28.2	14.5	2.85e-04	0	43	0	2863661056	13	4385
2026-01-09 00:56:12.62	135.29	13.65	-26.6	-28.5	14.4	0.00e+00	0	43	0	2868903936	13	4466
2026-01-09 00:56:13.62	135.44	13.58	-26.5	-28.3	14.5	2.52e-04	0	43	0	2875195392	13	4416
2026-01-09 00:56:14.62	135.59	13.51	-26.4	-28.0	14.6	1.10e-06	0	43	0	2880438272	13	4327
2026-01-09 00:56:15.63	135.73	13.44	-26.2	-27.5	14.9	0.00e+00	0	43	0	2886729728	13	4200
2026-01-09 00:56:16.63	135.88	13.37	-26.1	-27.3	15.1	1.10e-06	0	43	0	2891972608	13	4132
2026-01-09 00:56:17.64	136.03	13.30	-26.0	-27.2	15.1	0.00e+00	0	43	0	2897215488	13	4106
2026-01-09 00:56:18.64	136.17	13.23	-26.1	-27.4	15.0	0.00e+00	0	43	0	2903506944	13	4153
2026-01-09 00:56:19.65	136.31	13.16	-26.3	-27.8	14.7	0.00e+00	0	43	0	2908749824	13	4269
2026-01-09 00:56:20.66	136.46	13.09	-26.2	-27.6	14.8	0.00e+00	0	43	0	2913992704	13	4214
2026-01-09 00:56:21.66	136.60	13.02	-26.0	-27.0	15.1	0.00e+00	0	43	0	2920284160	13	4065
2026-01-09 00:56:22.67	136.74	12.95	-25.8	-27.0	15.4	0.00e+00	0	43	0	2925527040	12	4176
2026-01-09 00:56:23.68	136.89	12.87	-25.7	-27.0	15.4	2.20e-06	0	43	0	2931818496	12	4173
2026-01-09 00:56:24.69	137.03	12.80	-25.8	-27.2	15.3	0.00e+00	0	43	0	2937061376	12	4232
2026-01-09 00:56:25.70	137.17	12.73	-26.0	-27.5	15.1	0.00e+00	0	43	0	2942304256	12	4319
2026-01-09 00:56:26.71	137.31	12.66	-26.0	-27.6	15.1	2.20e-06	0	43	0	2948595712	12	4323
2026-01-09 00:56:27.71	137.45	12.59	-26.0	-27.5	15.1	0.00e+00	0	43	0	2953838592	12	4311
2026-01-09 00:56:28.72	137.58	12.52	-26.1	-27.8	14.9	0.00e+00	0	43	0	2960130048	12	4384
2026-01-09 00:56:29.72	137.72	12.46	-26.1	-27.8	14.9	0.00e+00	0	43	0	2965372928	12	4382
2026-01-09 00:56:30.73	137.86	12.38	-26.2	-28.0	14.8	0.00e+00	0	43	0	2971664384	12	4433
2026-01-09 00:56:31.73	137.99	12.32	-26.1	-27.8	14.9	0.00e+00	0	43	0	2976907264	12	4378
2026-01-09 00:56:32.74	138.13	12.25	-26.1	-27.8	14.9	0.00e+00	0	43	0	2982150144	12	4372
2026-01-09 00:56:33.74	138.26	12.18	-26.1	-27.9	14.9	0.00e+00	0	43	0	2988441600	12	4395
2026-01-09 00:56:34.74	138.40	12.11	-26.2	-28.1	14.8	0.00e+00	0	43	0	2993684480	12	4464
2026-01-09 00:56:35.75	138.53	12.04	-26.3	-28.2	14.7	0.00e+00	0	43	0	2998927360	12	4488
2026-01-09 00:56:36.76	138.67	11.97	-26.2	-28.0	14.8	0.00e+00	0	43	0	3005218816	12	4437
2026-01-09 00:56:37.76	138.80	11.90	-26.3	-28.2	14.7	0.00e+00	0	43	0	3010461696	12	4503
2026-01-09 00:56:38.76	138.93	11.83	-26.2	-28.1	14.7	0.00e+00	0	43	0	3015704576	12	4479
2026-01-09 00:56:39.77	139.06	11.76	-26.4	-28.6	14.5	0.00e+00	0	43	0	3021996032	12	4616
2026-01-09 00:56:40.77	139.19	11.69	-26.4	-27.9	14.5	0.00e+00	0	43	0	3027238912	13	4310
2026-01-09 00:56:41.78	139.32	11.62	-26.1	-27.4	14.8	2.20e-06	0	43	0	3033530368	13	4156
2026-01-09 00:56:42.78	139.45	11.55	-26.0	-27.1	15.0	0.00e+00	0	43	0	3038773248	13	4091
2026-01-09 00:56:43.78	139.58	11.49	-26.0	-27.1	15.0	0.00e+00	0	43	0	3045064704	13	4079
2026-01-09 00:56:44.78	139.71	11.42	-26.0	-27.6	15.0	0.00e+00	0	43	0	3050307584	12	4319
2026-01-09 00:56:45.78	139.84	11.35	-26.0	-27.6	15.0	0.00e+00	0	43	0	3055550464	12	4315
2026-01-09 00:56:46.79	139.96	11.28	-26.0	-27.6	15.0	0.00e+00	0	43	0	3061841920	12	4334
2026-01-09 00:56:47.79	140.09	11.21	-26.1	-27.8	14.8	0.00e+00	0	43	0	3067084800	12	4376
2026-01-09 00:56:48.80	140.22	11.14	-26.0	-27.6	14.9	0.00e+00	0	43	0	3072327680	12	4334
2026-01-09 00:56:49.81	140.34	11.07	-25.9	-27.5	15.0	0.00e+00	0	43	0	3078619136	12	4293
2026-01-09 00:56:50.81	140.47	11.00	-26.0	-27.7	14.9	1.10e-06	0	43	0	3083862016	12	4342
2026-01-09 00:56:51.82	140.59	10.94	-26.0	-27.6	14.9	0.00e+00	0	43	0	3089104896	12	4338
2026-01-09 00:56:52.82	140.71	10.87	-26.1	-27.9	14.7	1.10e-06	0	43	0	3095396352	12	4419
2026-01-09 00:56:53.83	140.84	10.80	-26.1	-27.8	14.8	2.20e-06	0	43	0	3100639232	12	4388
2026-01-09 00:56:54.84	140.96	10.73	-26.1	-27.8	14.7	0.00e+00	0	43	0	3106930688	12	4393
2026-01-09 00:56:55.84	141.08	10.66	-26.1	-27.9	14.7	0.00e+00	0	43	0	3112173568	12	4425
2026-01-09 00:56:56.85	141.21	10.60	-26.1	-28.0	14.6	0.00e+00	0	43	0	3118465024	12	4442
2026-01-09 00:56:57.85	141.33	10.53	-25.9	-27.8	14.3	0.00e+00	0	43	0	3123707904	12	4492
2026-01-09 00:56:58.86	141.45	10.46	-26.2	-28.2	13.1	0.00e+00	0	43	0	3128950784	12	4516
2026-01-09 00:56:59.87	141.57	10.39	-26.3	-28.4	14.3	0.00e+00	0	43	0	3135242240	12	4583
2026-01-09 00:57:00.87	141.69	10.32	-26.3	-28.4	14.1	5.21e-04	0	43	0	3140485120	12	4577
2026-01-09 00:57:01.87	141.81	10.26	-26.4	-28.6	14.1	1.10e-06	0	43	0	3146776576	12	4644
2026-01-09 00:57:02.88	141.92	10.19	-26.5	-28.4	14.0	2.20e-06	0	43	0	3152019456	13	4447
2026-01-09 00:57:03.89	142.04	10.12	-26.4	-28.1	14.2	1.10e-06	0	43	0	3157262336	13	4365
2026-01-09 00:57:04.90	142.16	10.05	-26.5	-28.3	14.0	2.20e-06	0	43	0	3163553792	13	4440
2026-01-09 00:57:05.90	142.28	9.99	-26.5	-28.2	14.1	1.10e-06	0	43	0	3168796672	13	4411
2026-01-09 00:57:06.91	142.39	9.92	-26.4	-28.2	14.1	1.10e-06	0	43	0	3174039552	13	4390
2026-01-09 00:57:07.92	142.51	9.85	-26.6	-28.5	13.9	3.71e-04	0	43	0	3180331008	13	4504
2026-01-09 00:57:08.92	142.62	9.78	-26.5	-28.3	14.0	1.10e-06	0	43	0	3185573888	13	4446
2026-01-09 00:57:09.93	142.74	9.72	-26.5	-28.4	13.9	4.38e-04	0	43	0	3191865344	13	4462
2026-01-09 00:57:10.94	142.86	9.65	-26.5	-28.3	13.9	1.10e-06	0	43	0	3197108224	13	4453
2026-01-09 00:57:11.94	142.97	9.58	-26.5	-28.4	13.9	1.10e-06	0	43	0	3203399680	13	4465
2026-01-09 00:57:12.95	143.08	9.52	-26.5	-28.4	13.8	6.68e-04	0	43	0	3208642560	13	4485
2026-01-09 00:57:13.95	143.19	9.45	-26.5	-28.5	13.8	8.27e-04	0	43	0	3213885440	13	4505
2026-01-09 00:57:14.95	143.31	9.38	-26.6	-28.6	13.7	1.10e-06	0	43	0	3220176896	13	4548
2026-01-09 00:57:15.95	143.42	9.32	-26.6	-28.7	13.7	2.20e-06	0	43	0	3225419776	13	4566
2026-01-09 00:57:16.96	143.53	9.25	-26.7	-28.8	13.6	9.21e-04	0	43	0	3230662656	13	4612
2026-01-09 00:57:17.96	143.64	9.19	-26.9	-29.3	13.3	6.80e-06	0	43	0	3236954112	13	4769
2026-01-09 00:57:18.97	143.75	9.12	-26.9	-29.4	13.2	1.02e-03	0	43	0	3242196992	13	4798
2026-01-09 00:57:19.97	143.86	9.05	-26.9	-29.5	13.2	1.13e-03	0	43	0	3248488448	13	4824
2026-01-09 00:57:20.98	143.97	8.99	-27.0	-29.6	13.1	1.60e-05	0	43	0	3253731328	13	4862
2026-01-09 00:57:21.99	144.08	8.92	-26.9	-29.4	13.2	1.05e-03	0	43	0	3258974208	13	4798
2026-01-09 00:57:23.00	144.19	8.85	-26.8	-29.3	13.2	1.02e-03	0	43	0	3265265664	13	4766
2026-01-09 00:57:24.01	144.30	8.79	-26.8	-29.3	13.3	1.02e-05	0	43	0	3270508544	13	4760
2026-01-09 00:57:25.01	144.40	8.72	-27.1	-29.3	12.9	1.08e-03	0	43	0	3276800000	14	4669
2026-01-09 00:57:26.01	144.51	8.66	-26.9	-28.8	13.2	1.04e-03	0	43	0	3282042880	14	4513
2026-01-09 00:57:27.02	144.62	8.59	-26.8	-28.5	13.4	8.00e-06	0	43	0	3287285760	14	4426
2026-01-09 00:57:28.02	144.72	8.53	-26.7	-29.0	13.4	9.74e-04	0	43	0	3293577216	13	4669
2026-01-09 00:57:29.02	144.83	8.46	-26.8	-29.1	13.4	9.65e-04	0	43	0	3298820096	13	4701
2026-01-09 00:57:30.02	144.93	8.40	-26.9	-29.3	13.2	1.25e-04	0	43	0	3304062976	13	4788
2026-01-09 00:57:31.02	145.04	8.33	-26.8	-29.2	13.3	1.11e-03	0	43	0	3310354432	13	4743
2026-01-09 00:57:32.02	145.14	8.27	-26.9	-29.3	13.2	1.05e-03	0	43	0	3315597312	13	4786
2026-01-09 00:57:33.02	145.24	8.20	-26.9	-29.4	13.2	1.25e-05	0	43	0	3320840192	13	4799
2026-01-09 00:57:34.02	145.35	8.14	-27.0	-29.2	13.0	1.09e-03	0	43	0	3327131648	14	4633
2026-01-09 00:57:35.03	145.45	8.07	-27.0	-29.2	13.0	6.86e-05	0	43	0	3332374528	14	4617
2026-01-09 00:57:36.03	145.55	8.01	-27.0	-29.0	13.1	2.40e-05	0	43	0	3338665984	14	4575
2026-01-09 00:57:37.04	145.65	7.94	-27.1	-29.3	13.0	1.60e-05	0	43	0	3343908864	14	4650
2026-01-09 00:57:38.05	145.76	7.88	-27.0	-29.2	13.0	1.11e-03	0	43	0	3350200320	14	4624
2026-01-09 00:57:39.05	145.86	7.81	-27.2	-29.7	12.7	4.46e-05	0	43	0	3355443200	14	4774
2026-01-09 00:57:40.05	145.96	7.75	-27.1	-29.4	12.8	1.15e-03	0	43	0	3360686080	14	4687
2026-01-09 00:57:41.06	146.06	7.69	-27.1	-29.4	12.9	3.43e-05	0	43	0	3366977536	14	4680
2026-01-09 00:57:42.07	146.16	7.62	-27.2	-29.7	12.7	3.77e-05	0	43	0	3372220416	14	4771
2026-01-09 00:57:43.08	146.26	7.56	-27.2	-29.6	12.8	3.20e-05	0	43	0	3378511872	14	4743
2026-01-09 00:57:44.08	146.36	7.49	-27.0	-29.3	12.9	4.00e-05	0	43	0	3383754752	14	4669
2026-01-09 00:57:45.09	146.46	7.43	-27.1	-29.6	12.7	3.31e-05	0	43	0	3388997632	14	4759
2026-01-09 00:57:46.09	146.55	7.36	-27.3	-30.1	12.3	8.35e-05	0	43	0	3395289088	14	4948
2026-01-09 00:57:47.10	146.65	7.30	-27.3	-30.1	12.3	1.14e-04	0	43	0	3400531968	14	4970
2026-01-09 00:57:48.10	146.75	7.24	-27.3	-30.1	12.3	1.07e-04	0	43	0	3405774848	14	4992
2026-01-09 00:57:49.11	146.85	7.17	-27.3	-30.1	12.3	1.25e-04	0	43	0	3412066304	14	4980
2026-01-09 00:57:50.11	146.94	7.11	-27.5	-30.7	12.0	1.26e-04	0	43	0	3417309184	14	5180
2026-01-09 00:57:51.12	147.04	7.05	-32.5	-43.9	3.8	8.47e-01	0	43	104	3418357760	24	13495
2026-01-09 00:57:52.13	147.14	6.98	-33.2	-44.4	3.8	8.46e-01	0	43	104	3418357760	26	13100
2026-01-09 00:57:53.14	147.23	6.92	-33.5	-45.0	3.8	8.47e-01	0	43	104	3418357760	26	13530

#Closed at: 2026-01-09 00:57:53
#Recorded file [3418 MB]: D:/data/31010_260109_034742.dat