passes_logs/2026/01/09/R2M6_AANII_01/R2M6_AANII_01__20260109_100043_NOAA_20_JPSS-1_rec.log

#Pass ID: 20260109_100043_NOAA 20 (JPSS-1)
#Satellite: NOAA 20 (JPSS-1)
#Configuration: NOAA 20
#almurnet v.1.7.20240730
#Start time: 2026-01-09 10:00:43

#Version: 2.2.20231116
#Station: R2M6_AANII_01
#Location: 30.233357 lon 59.946436 lat
#TLE: 1 43013U 17073A   26008.42245989  .00000120  00000+0  77990-4 0  9996
#TLE: 2 43013  98.7631 309.4315 0001737  48.7960 311.3365 14.19534455421802

#Time	Az	El	Level	Level2	SNR	BER	BlckErr	Temp	State	Recorded	gain1	gain2
2026-01-09 10:00:43.46	150.64	6.97	-30.7	-36.9	5.1	1.27e+00	0	41	0	0	22	7314
2026-01-09 10:00:44.46	150.63	7.05	-31.2	-38.7	4.7	1.35e+00	0	41	104	0	23	8509
2026-01-09 10:00:45.47	150.62	7.13	-31.2	-38.0	7.1	1.83e-01	0	41	0	0	23	7885
2026-01-09 10:00:46.47	150.60	7.21	-31.3	-38.1	7.1	1.37e-01	0	41	0	1048576	23	7874
2026-01-09 10:00:47.48	150.59	7.29	-31.4	-38.1	7.1	1.84e-01	0	41	0	3145728	23	7827
2026-01-09 10:00:48.48	150.58	7.37	-31.3	-37.3	7.9	1.06e-01	0	41	0	5242880	23	7170
2026-01-09 10:00:49.49	150.57	7.44	-31.2	-36.5	8.6	5.53e-02	0	42	0	7340032	23	6648
2026-01-09 10:00:50.49	150.55	7.52	-31.1	-36.0	9.0	3.14e-02	0	42	0	9437184	23	6335
2026-01-09 10:00:51.49	150.54	7.60	-30.9	-35.2	9.6	1.73e-02	0	42	0	10485760	23	5963
2026-01-09 10:00:52.50	150.53	7.68	-30.7	-35.4	9.9	1.17e-02	0	41	0	12582912	22	6118
2026-01-09 10:00:53.50	150.51	7.76	-30.7	-35.2	10.0	7.46e-03	0	42	0	14680064	22	6031
2026-01-09 10:00:54.51	150.50	7.84	-30.6	-35.1	10.0	8.46e-03	0	42	0	16777216	22	5993
2026-01-09 10:00:55.52	150.49	7.92	-30.4	-34.4	10.6	5.06e-03	0	42	0	18874368	22	5674
2026-01-09 10:00:56.53	150.47	8.00	-30.3	-34.2	10.7	3.25e-03	0	42	0	19922944	22	5622
2026-01-09 10:00:57.54	150.46	8.09	-30.2	-34.4	10.8	2.30e-03	0	42	0	22020096	21	5832
2026-01-09 10:00:58.54	150.45	8.17	-30.2	-34.4	10.9	2.15e-03	0	42	0	24117248	21	5845
2026-01-09 10:00:59.54	150.43	8.25	-30.1	-34.2	11.0	2.79e-03	0	42	0	26214400	21	5756
2026-01-09 10:01:00.54	150.42	8.33	-30.1	-34.2	10.9	2.15e-03	0	42	0	28311552	21	5790
2026-01-09 10:01:01.55	150.41	8.41	-30.0	-33.9	11.1	1.55e-03	0	42	0	29360128	21	5669
2026-01-09 10:01:02.56	150.39	8.49	-30.1	-34.1	11.1	1.56e-03	0	42	0	31457280	21	5699
2026-01-09 10:01:03.56	150.38	8.58	-30.1	-34.3	10.9	1.60e-03	0	42	0	33554432	21	5836
2026-01-09 10:01:04.57	150.37	8.66	-30.1	-34.1	11.1	2.18e-03	0	42	0	35651584	21	5718
2026-01-09 10:01:05.57	150.35	8.74	-30.1	-34.0	11.2	1.43e-03	0	42	0	37748736	21	5654
2026-01-09 10:01:06.58	150.34	8.83	-30.2	-34.1	11.2	1.49e-03	0	42	0	38797312	21	5663
2026-01-09 10:01:07.58	150.32	8.91	-30.3	-34.4	10.9	1.32e-03	0	42	0	40894464	21	5824
2026-01-09 10:01:08.58	150.31	8.99	-30.2	-34.1	11.2	2.07e-03	0	42	0	42991616	21	5657
2026-01-09 10:01:09.59	150.29	9.08	-30.2	-34.1	11.3	1.21e-03	0	42	0	45088768	21	5629
2026-01-09 10:01:10.60	150.28	9.16	-30.3	-34.2	11.3	1.08e-03	0	42	0	46137344	21	5636
2026-01-09 10:01:11.60	150.27	9.25	-30.4	-34.5	11.0	1.32e-03	0	42	0	48234496	21	5781
2026-01-09 10:01:12.61	150.25	9.33	-30.3	-34.3	11.2	1.47e-03	0	42	0	50331648	21	5656
2026-01-09 10:01:13.62	150.24	9.42	-30.3	-34.0	11.4	1.02e-03	0	42	0	52428800	21	5552
2026-01-09 10:01:14.62	150.22	9.50	-30.3	-34.1	11.5	8.75e-04	0	42	0	54525952	21	5555
2026-01-09 10:01:15.62	150.21	9.59	-30.2	-33.9	11.6	7.18e-04	0	42	0	56623104	21	5482
2026-01-09 10:01:16.63	150.19	9.67	-30.1	-33.6	11.8	6.05e-04	0	42	0	57671680	21	5358
2026-01-09 10:01:17.63	150.18	9.76	-30.1	-33.5	11.8	5.26e-04	0	42	0	59768832	21	5360
2026-01-09 10:01:18.64	150.16	9.85	-30.0	-33.4	11.9	4.03e-04	0	42	0	61865984	21	5306
2026-01-09 10:01:19.64	150.14	9.93	-30.1	-33.5	11.8	5.10e-04	0	42	0	63963136	21	5372
2026-01-09 10:01:20.64	150.13	10.02	-29.9	-33.1	12.1	3.96e-04	0	42	0	65011712	21	5179
2026-01-09 10:01:21.64	150.11	10.11	-29.9	-33.2	12.1	2.99e-04	0	42	0	67108864	21	5224
2026-01-09 10:01:22.65	150.10	10.20	-29.9	-33.2	12.0	3.81e-04	0	42	0	69206016	21	5230
2026-01-09 10:01:23.66	150.08	10.29	-29.9	-33.1	12.1	2.40e-04	0	42	0	71303168	21	5203
2026-01-09 10:01:24.67	150.07	10.38	-29.9	-32.9	12.2	3.07e-04	0	42	0	73400320	21	5129
2026-01-09 10:01:25.68	150.05	10.46	-29.8	-32.8	12.3	1.85e-04	0	42	0	74448896	21	5097
2026-01-09 10:01:26.68	150.03	10.55	-29.8	-33.3	12.4	1.68e-04	0	42	0	76546048	20	5363
2026-01-09 10:01:27.69	150.02	10.64	-29.8	-33.3	12.3	1.72e-04	0	42	0	78643200	20	5384
2026-01-09 10:01:28.69	150.00	10.73	-29.9	-33.4	12.3	2.23e-04	0	42	0	80740352	20	5391
2026-01-09 10:01:29.70	149.98	10.82	-29.8	-33.3	12.4	1.47e-04	0	42	0	82837504	20	5381
2026-01-09 10:01:30.71	149.97	10.91	-29.9	-33.3	12.4	1.45e-04	0	42	0	83886080	20	5374
2026-01-09 10:01:31.72	149.95	11.01	-29.9	-33.4	12.3	1.85e-04	0	42	0	85983232	20	5419
2026-01-09 10:01:32.72	149.93	11.10	-30.0	-33.7	12.1	1.86e-04	0	42	0	88080384	20	5519
2026-01-09 10:01:33.73	149.91	11.19	-29.9	-33.6	12.2	2.70e-04	0	42	0	90177536	20	5471
2026-01-09 10:01:34.73	149.90	11.28	-29.9	-33.4	12.4	1.50e-04	0	42	0	92274688	20	5369
2026-01-09 10:01:35.74	149.88	11.37	-29.9	-33.3	12.5	9.99e-05	0	42	0	93323264	20	5306
2026-01-09 10:01:36.74	149.86	11.47	-29.9	-33.2	12.6	1.24e-04	0	42	0	95420416	20	5277
2026-01-09 10:01:37.75	149.85	11.56	-29.9	-33.1	12.7	8.69e-05	0	42	0	97517568	20	5225
2026-01-09 10:01:38.76	149.83	11.65	-29.9	-33.3	12.6	7.24e-05	0	42	0	99614720	20	5291
2026-01-09 10:01:39.77	149.81	11.75	-29.9	-33.1	12.7	7.47e-05	0	42	0	101711872	20	5215
2026-01-09 10:01:40.78	149.79	11.84	-29.8	-32.9	12.9	5.26e-05	0	42	0	102760448	20	5127
2026-01-09 10:01:41.79	149.77	11.94	-29.7	-32.5	13.2	3.58e-05	0	42	0	104857600	20	4964
2026-01-09 10:01:42.78	149.75	12.03	-29.7	-32.6	13.1	2.13e-05	0	42	0	106954752	20	5018
2026-01-09 10:01:43.79	149.74	12.13	-29.7	-32.4	13.2	2.59e-05	0	42	0	109051904	20	4958
2026-01-09 10:01:44.79	149.72	12.22	-29.7	-32.4	13.3	1.98e-05	0	42	0	111149056	20	4938
2026-01-09 10:01:45.80	149.70	12.32	-29.7	-32.6	13.1	3.43e-05	0	42	0	112197632	20	5003
2026-01-09 10:01:46.80	149.68	12.41	-29.7	-32.4	13.2	2.05e-05	0	42	0	114294784	20	4954
2026-01-09 10:01:47.81	149.66	12.51	-29.7	-32.5	13.2	1.67e-05	0	42	0	116391936	20	4982
2026-01-09 10:01:48.82	149.64	12.61	-29.7	-32.5	13.2	1.83e-05	0	42	0	118489088	20	4985
2026-01-09 10:01:49.83	149.62	12.71	-29.8	-32.8	13.0	4.19e-05	0	42	0	120586240	20	5103
2026-01-09 10:01:50.83	149.60	12.80	-29.8	-32.9	13.0	4.57e-05	0	42	0	121634816	20	5130
2026-01-09 10:01:51.83	149.58	12.90	-29.8	-32.9	12.9	5.87e-05	0	42	0	123731968	20	5121
2026-01-09 10:01:52.84	149.56	13.00	-29.8	-32.9	12.9	4.73e-05	0	42	0	125829120	20	5124
2026-01-09 10:01:53.85	149.54	13.10	-29.8	-32.9	12.9	4.73e-05	0	42	0	127926272	20	5131
2026-01-09 10:01:54.85	149.52	13.20	-30.0	-33.5	12.6	4.19e-05	0	43	0	130023424	20	5356
2026-01-09 10:01:55.86	149.50	13.30	-30.0	-33.4	12.6	1.17e-04	0	42	0	131072000	20	5309
2026-01-09 10:01:56.87	149.48	13.40	-30.0	-33.4	12.6	7.32e-05	0	42	0	133169152	20	5345
2026-01-09 10:01:57.87	149.46	13.50	-30.2	-33.9	12.3	8.77e-05	0	43	0	135266304	20	5526
2026-01-09 10:01:58.88	149.44	13.60	-30.0	-33.3	12.7	1.03e-04	0	43	0	137363456	20	5305
2026-01-09 10:01:59.88	149.42	13.70	-29.8	-32.8	13.0	3.96e-05	0	42	0	139460608	20	5117
2026-01-09 10:02:00.88	149.40	13.80	-29.8	-32.8	13.1	2.05e-05	0	43	0	140509184	20	5097
2026-01-09 10:02:01.89	149.38	13.91	-29.8	-32.9	13.0	2.51e-05	0	42	0	142606336	20	5124
2026-01-09 10:02:02.89	149.36	14.01	-29.8	-32.9	13.0	5.56e-05	0	43	0	144703488	20	5156
2026-01-09 10:02:03.90	149.34	14.11	-29.7	-32.4	13.3	2.05e-05	0	43	0	146800640	20	4957
2026-01-09 10:02:04.90	149.31	14.21	-29.5	-32.1	13.6	1.22e-05	0	42	0	148897792	20	4819
2026-01-09 10:02:05.91	149.29	14.32	-29.6	-32.1	13.6	9.90e-06	0	42	0	149946368	20	4821
2026-01-09 10:02:06.92	149.27	14.42	-29.6	-32.2	13.6	9.10e-06	0	42	0	152043520	20	4843
2026-01-09 10:02:07.92	149.25	14.53	-29.6	-32.1	13.7	1.52e-05	0	42	0	154140672	20	4796
2026-01-09 10:02:08.93	149.23	14.63	-29.6	-32.1	13.7	9.10e-06	0	43	0	156237824	20	4806
2026-01-09 10:02:09.93	149.20	14.74	-29.6	-32.2	13.6	6.80e-06	0	43	0	158334976	20	4828
2026-01-09 10:02:10.94	149.18	14.85	-29.6	-32.1	13.6	6.10e-06	0	42	0	159383552	20	4800
2026-01-09 10:02:11.95	149.16	14.95	-29.6	-32.2	13.6	5.30e-06	0	42	0	161480704	20	4847
2026-01-09 10:02:12.95	149.13	15.06	-29.7	-32.5	13.4	1.22e-05	0	43	0	163577856	20	4943
2026-01-09 10:02:13.96	149.11	15.17	-29.6	-32.2	13.6	1.60e-05	0	43	0	165675008	20	4824
2026-01-09 10:02:14.97	149.09	15.28	-29.5	-31.7	13.9	1.50e-06	0	43	0	167772160	20	4689
2026-01-09 10:02:15.97	149.06	15.38	-29.4	-31.6	14.0	3.00e-06	0	43	0	168820736	20	4636
2026-01-09 10:02:16.98	149.04	15.49	-29.4	-31.6	14.0	6.10e-06	0	43	0	170917888	20	4645
2026-01-09 10:02:17.98	149.02	15.60	-29.3	-31.4	14.1	7.00e-07	0	43	0	173015040	20	4597
2026-01-09 10:02:18.99	148.99	15.71	-29.3	-31.4	14.1	7.00e-07	0	43	0	175112192	20	4576
2026-01-09 10:02:19.99	148.97	15.82	-29.3	-31.4	14.1	7.60e-06	0	43	0	177209344	20	4586
2026-01-09 10:02:21.00	148.94	15.94	-29.5	-31.9	13.8	2.20e-06	0	43	0	178257920	20	4744
2026-01-09 10:02:22.01	148.92	16.05	-29.4	-31.8	13.9	6.10e-06	0	43	0	180355072	20	4696
2026-01-09 10:02:23.01	148.89	16.16	-29.5	-31.9	13.9	8.30e-06	0	42	0	182452224	20	4730
2026-01-09 10:02:24.01	148.87	16.27	-29.7	-32.3	13.6	8.30e-06	0	43	0	184549376	20	4880
2026-01-09 10:02:25.02	148.84	16.39	-29.5	-32.0	13.8	6.10e-06	0	43	0	186646528	20	4765
2026-01-09 10:02:26.03	148.82	16.50	-29.6	-32.0	13.8	9.90e-06	0	43	0	187695104	20	4763
2026-01-09 10:02:27.04	148.79	16.61	-29.6	-32.1	13.7	3.80e-06	0	43	0	189792256	20	4792
2026-01-09 10:02:28.04	148.76	16.73	-29.7	-32.4	13.5	6.10e-06	0	43	0	191889408	20	4923
2026-01-09 10:02:29.05	148.74	16.84	-29.5	-31.7	14.0	1.14e-05	0	43	0	193986560	20	4665
2026-01-09 10:02:30.05	148.71	16.96	-29.5	-31.6	14.1	1.50e-06	0	43	0	196083712	20	4636
2026-01-09 10:02:31.06	148.68	17.08	-29.4	-31.4	14.2	3.00e-06	0	43	0	197132288	20	4547
2026-01-09 10:02:32.06	148.66	17.19	-29.4	-31.4	14.3	2.20e-06	0	43	0	199229440	20	4544
2026-01-09 10:02:33.07	148.63	17.31	-29.6	-32.0	14.0	3.80e-06	0	42	0	201326592	20	4733
2026-01-09 10:02:34.08	148.60	17.43	-29.5	-31.7	14.2	7.00e-07	0	43	0	203423744	20	4637
2026-01-09 10:02:35.09	148.57	17.55	-29.2	-31.5	14.6	3.00e-06	0	43	0	205520896	19	4686
2026-01-09 10:02:36.09	148.55	17.67	-29.2	-31.5	14.6	0.00e+00	0	43	0	206569472	19	4682
2026-01-09 10:02:37.10	148.52	17.79	-29.4	-32.0	14.4	0.00e+00	0	43	0	208666624	19	4832
2026-01-09 10:02:38.10	148.49	17.91	-29.4	-32.0	14.4	1.50e-06	0	43	0	210763776	19	4838
2026-01-09 10:02:39.10	148.46	18.03	-29.5	-32.2	14.2	1.50e-06	0	43	0	212860928	19	4920
2026-01-09 10:02:40.11	148.43	18.15	-29.4	-32.0	14.4	7.00e-07	0	43	0	214958080	19	4836
2026-01-09 10:02:41.12	148.40	18.27	-29.3	-31.7	14.5	7.00e-07	0	43	0	216006656	19	4755
2026-01-09 10:02:42.12	148.37	18.39	-29.2	-31.5	14.7	7.00e-07	0	43	0	218103808	19	4686
2026-01-09 10:02:43.13	148.34	18.52	-29.3	-31.7	14.5	7.00e-07	0	43	0	220200960	19	4761
2026-01-09 10:02:44.14	148.31	18.64	-29.1	-31.2	14.9	0.00e+00	0	43	0	222298112	19	4580
2026-01-09 10:02:45.15	148.28	18.77	-28.9	-30.8	15.1	0.00e+00	0	43	0	224395264	19	4466
2026-01-09 10:02:46.15	148.25	18.89	-29.0	-30.9	15.0	0.00e+00	0	43	0	225443840	19	4492
2026-01-09 10:02:47.16	148.22	19.02	-28.9	-30.6	15.2	0.00e+00	0	43	0	227540992	19	4386
2026-01-09 10:02:48.16	148.19	19.14	-28.9	-30.6	15.2	0.00e+00	0	43	0	229638144	19	4399
2026-01-09 10:02:49.17	148.16	19.27	-28.9	-30.6	15.2	7.00e-07	0	43	0	231735296	19	4397
2026-01-09 10:02:50.17	148.13	19.40	-29.0	-31.0	15.0	0.00e+00	0	43	0	233832448	19	4495
2026-01-09 10:02:51.18	148.09	19.53	-28.9	-30.6	15.2	0.00e+00	0	43	0	234881024	19	4397
2026-01-09 10:02:52.18	148.06	19.66	-29.0	-31.0	15.1	0.00e+00	0	43	0	236978176	19	4495
2026-01-09 10:02:53.19	148.03	19.79	-28.9	-30.6	15.3	0.00e+00	0	43	0	239075328	19	4375
2026-01-09 10:02:54.20	148.00	19.92	-28.8	-30.3	15.5	0.00e+00	0	43	0	241172480	19	4291
2026-01-09 10:02:55.21	147.96	20.05	-28.7	-30.7	15.6	0.00e+00	0	43	0	243269632	18	4517
2026-01-09 10:02:56.21	147.93	20.18	-28.8	-30.9	15.4	0.00e+00	0	43	0	244318208	18	4589
2026-01-09 10:02:57.22	147.90	20.31	-28.8	-31.0	15.4	0.00e+00	0	43	0	246415360	18	4595
2026-01-09 10:02:58.22	147.86	20.44	-28.8	-30.9	15.5	0.00e+00	0	43	0	248512512	18	4573
2026-01-09 10:02:59.23	147.83	20.58	-28.8	-30.8	15.5	0.00e+00	0	43	0	250609664	18	4542
2026-01-09 10:03:00.23	147.79	20.71	-28.7	-30.6	15.7	0.00e+00	0	43	0	252706816	18	4471
2026-01-09 10:03:01.24	147.76	20.85	-28.7	-30.5	15.7	0.00e+00	0	43	0	253755392	18	4456
2026-01-09 10:03:02.25	147.72	20.98	-28.8	-30.8	15.6	0.00e+00	0	43	0	255852544	18	4528
2026-01-09 10:03:03.26	147.68	21.12	-28.7	-30.6	15.7	0.00e+00	0	43	0	257949696	18	4480
2026-01-09 10:03:04.27	147.65	21.26	-28.8	-30.9	15.5	0.00e+00	0	43	0	260046848	18	4555
2026-01-09 10:03:05.27	147.61	21.40	-28.8	-30.7	15.6	0.00e+00	0	43	0	262144000	18	4521
2026-01-09 10:03:06.28	147.58	21.54	-28.9	-31.0	15.4	0.00e+00	0	43	0	263192576	18	4617
2026-01-09 10:03:07.29	147.54	21.68	-28.7	-30.7	15.7	0.00e+00	0	43	0	265289728	18	4501
2026-01-09 10:03:08.30	147.50	21.82	-28.6	-30.4	15.8	0.00e+00	0	43	0	267386880	18	4424
2026-01-09 10:03:09.30	147.46	21.96	-28.7	-30.5	15.8	0.00e+00	0	43	0	269484032	18	4458
2026-01-09 10:03:10.30	147.42	22.10	-28.7	-30.5	15.8	0.00e+00	0	43	0	271581184	18	4453
2026-01-09 10:03:11.31	147.38	22.24	-28.6	-30.4	15.8	0.00e+00	0	43	0	272629760	18	4428
2026-01-09 10:03:12.32	147.35	22.39	-28.7	-30.6	15.8	0.00e+00	0	43	0	274726912	18	4468
2026-01-09 10:03:13.33	147.31	22.53	-28.7	-30.5	15.8	7.00e-07	0	43	0	276824064	18	4457
2026-01-09 10:03:14.33	147.27	22.68	-28.6	-30.4	15.9	0.00e+00	0	43	0	278921216	18	4408
2026-01-09 10:03:15.34	147.23	22.82	-28.7	-30.5	15.9	0.00e+00	0	43	0	281018368	18	4442
2026-01-09 10:03:16.34	147.19	22.97	-28.7	-30.6	15.8	7.00e-07	0	43	0	282066944	18	4479
2026-01-09 10:03:17.35	147.14	23.12	-28.7	-30.6	15.8	0.00e+00	0	43	0	284164096	18	4474
2026-01-09 10:03:18.36	147.10	23.27	-28.7	-30.5	15.8	0.00e+00	0	43	0	286261248	18	4440
2026-01-09 10:03:19.36	147.06	23.41	-28.7	-30.6	15.8	0.00e+00	0	43	0	288358400	18	4481
2026-01-09 10:03:20.36	147.02	23.56	-28.7	-30.5	15.8	0.00e+00	0	43	0	289406976	18	4453
2026-01-09 10:03:21.36	146.98	23.71	-28.7	-30.6	15.8	0.00e+00	0	42	0	291504128	18	4477
2026-01-09 10:03:22.37	146.93	23.87	-28.8	-30.8	15.7	0.00e+00	0	43	0	293601280	18	4519
2026-01-09 10:03:23.38	146.89	24.02	-28.8	-30.8	15.7	0.00e+00	0	43	0	295698432	18	4539
2026-01-09 10:03:24.39	146.84	24.17	-28.9	-31.0	15.6	0.00e+00	0	43	0	297795584	18	4593
2026-01-09 10:03:25.39	146.80	24.33	-29.0	-31.3	15.4	7.00e-07	0	43	0	299892736	18	4696
2026-01-09 10:03:26.40	146.75	24.48	-29.1	-31.5	15.3	0.00e+00	0	43	0	300941312	18	4754
2026-01-09 10:03:27.40	146.71	24.64	-29.1	-31.5	15.3	0.00e+00	0	43	0	303038464	18	4764
2026-01-09 10:03:28.41	146.66	24.80	-29.1	-31.5	15.3	7.00e-07	0	43	0	305135616	18	4768
2026-01-09 10:03:29.41	146.62	24.95	-29.3	-31.9	15.0	0.00e+00	0	43	0	307232768	18	4902
2026-01-09 10:03:30.42	146.57	25.11	-29.3	-32.1	15.0	0.00e+00	0	43	0	309329920	18	4944
2026-01-09 10:03:31.42	146.52	25.27	-29.4	-32.1	15.0	2.20e-06	0	43	0	310378496	18	4963
2026-01-09 10:03:32.43	146.47	25.43	-29.5	-32.4	14.8	0.00e+00	0	43	0	312475648	18	5069
2026-01-09 10:03:33.43	146.42	25.59	-29.6	-32.3	14.6	0.00e+00	0	43	0	314572800	19	4910
2026-01-09 10:03:34.44	146.37	25.76	-29.8	-32.7	14.3	2.20e-06	0	43	0	316669952	19	5050
2026-01-09 10:03:35.44	146.33	25.92	-29.8	-32.8	14.2	0.00e+00	0	43	0	317718528	19	5088
2026-01-09 10:03:36.44	146.28	26.08	-29.9	-33.0	14.2	1.50e-06	0	43	0	319815680	19	5134
2026-01-09 10:03:37.45	146.22	26.25	-29.9	-32.6	14.0	2.20e-06	0	43	0	321912832	20	4905
2026-01-09 10:03:38.45	146.17	26.42	-30.0	-32.9	13.9	3.80e-06	0	43	0	324009984	20	5001
2026-01-09 10:03:39.46	146.12	26.59	-30.1	-33.1	13.7	3.80e-06	0	43	0	326107136	20	5063
2026-01-09 10:03:40.47	146.07	26.75	-30.2	-33.3	13.6	9.10e-06	0	43	0	328204288	20	5170
2026-01-09 10:03:41.47	146.02	26.92	-30.3	-33.6	13.4	1.44e-05	0	43	0	329252864	20	5260
2026-01-09 10:03:42.48	145.96	27.09	-30.3	-33.6	13.4	1.06e-05	0	43	0	331350016	20	5288
2026-01-09 10:03:43.48	145.91	27.27	-30.4	-33.9	13.3	1.67e-05	0	43	0	333447168	20	5370
2026-01-09 10:03:44.48	145.85	27.44	-30.4	-34.0	13.1	3.81e-05	0	43	0	335544320	20	5422
2026-01-09 10:03:45.48	145.80	27.61	-30.5	-33.6	13.1	2.82e-05	0	43	0	336592896	21	5141
2026-01-09 10:03:46.49	145.74	27.79	-30.6	-34.0	12.9	5.41e-05	0	43	0	338690048	21	5297
2026-01-09 10:03:47.50	145.68	27.96	-30.8	-34.4	12.6	1.14e-04	0	43	0	340787200	21	5491
2026-01-09 10:03:48.50	145.63	28.14	-30.8	-34.4	12.6	1.40e-04	0	43	0	342884352	21	5451
2026-01-09 10:03:49.51	145.57	28.32	-30.7	-34.3	12.6	9.38e-05	0	43	0	344981504	21	5441
2026-01-09 10:03:50.52	145.51	28.50	-31.0	-35.0	12.2	1.73e-04	0	43	0	346030080	21	5733
2026-01-09 10:03:51.53	145.45	28.68	-31.0	-34.7	12.0	3.23e-04	0	43	0	348127232	22	5505
2026-01-09 10:03:52.53	145.39	28.86	-31.2	-35.1	11.8	3.62e-04	0	43	0	350224384	22	5676
2026-01-09 10:03:53.54	145.33	29.04	-31.2	-35.3	11.6	6.76e-04	0	43	0	352321536	22	5735
2026-01-09 10:03:54.55	145.26	29.23	-31.3	-35.7	11.4	6.38e-04	0	43	0	354418688	22	5922
2026-01-09 10:03:55.55	145.20	29.41	-31.4	-35.8	11.3	1.35e-03	0	43	0	355467264	22	5978
2026-01-09 10:03:56.56	145.14	29.60	-31.3	-35.5	11.5	8.14e-04	0	43	0	357564416	22	5855
2026-01-09 10:03:57.57	145.07	29.79	-31.4	-35.7	11.4	7.99e-04	0	43	0	359661568	22	5932
2026-01-09 10:03:58.57	145.01	29.98	-31.4	-35.7	11.4	7.95e-04	0	43	0	361758720	22	5925
2026-01-09 10:03:59.57	144.94	30.17	-31.4	-35.8	11.4	1.13e-03	0	43	0	363855872	22	5965
2026-01-09 10:04:00.58	144.88	30.36	-31.5	-36.0	11.2	1.36e-03	0	43	0	364904448	22	6084
2026-01-09 10:04:01.59	144.81	30.55	-31.6	-36.1	10.8	1.77e-03	0	43	0	367001600	23	6013
2026-01-09 10:04:02.59	144.74	30.74	-31.7	-36.4	10.5	2.89e-03	0	43	0	369098752	23	6183
2026-01-09 10:04:03.60	144.67	30.94	-31.7	-36.4	10.6	4.37e-03	0	43	0	371195904	23	6144
2026-01-09 10:04:04.60	144.60	31.13	-31.6	-35.9	10.9	2.66e-03	0	43	0	373293056	23	5928
2026-01-09 10:04:05.61	144.53	31.33	-31.7	-36.2	10.7	2.50e-03	0	43	0	374341632	23	6073
2026-01-09 10:04:06.61	144.46	31.53	-31.8	-36.5	10.5	3.47e-03	0	43	0	376438784	23	6179
2026-01-09 10:04:07.62	144.39	31.73	-31.8	-36.7	10.3	4.19e-03	0	43	0	378535936	23	6292
2026-01-09 10:04:08.62	144.32	31.93	-31.8	-36.7	10.4	4.97e-03	0	43	0	380633088	23	6283
2026-01-09 10:04:09.62	144.24	32.13	-31.9	-37.0	10.1	6.84e-03	0	43	0	382730240	23	6461
2026-01-09 10:04:10.62	144.17	32.34	-31.9	-37.0	10.2	6.22e-03	0	43	0	383778816	23	6442
2026-01-09 10:04:11.63	144.09	32.54	-31.9	-37.0	10.2	5.09e-03	0	43	0	385875968	23	6445
2026-01-09 10:04:12.64	144.01	32.75	-32.1	-36.9	9.8	8.64e-03	0	43	0	387973120	24	6316
2026-01-09 10:04:13.64	143.93	32.96	-32.0	-36.8	9.9	1.04e-02	0	43	0	390070272	24	6257
2026-01-09 10:04:14.65	143.85	33.17	-32.1	-37.0	9.8	7.54e-03	0	43	0	392167424	24	6315
2026-01-09 10:04:15.65	143.77	33.38	-32.1	-37.0	9.8	1.28e-02	0	43	0	393216000	24	6359
2026-01-09 10:04:16.66	143.69	33.59	-32.0	-36.5	10.2	8.92e-03	0	43	0	395313152	24	6095
2026-01-09 10:04:17.67	143.61	33.80	-32.0	-36.7	10.1	6.98e-03	0	43	0	397410304	24	6163
2026-01-09 10:04:18.68	143.52	34.02	-32.0	-36.8	9.9	7.92e-03	0	43	0	399507456	24	6236
2026-01-09 10:04:19.68	143.44	34.24	-32.0	-36.8	9.9	6.70e-03	0	43	0	401604608	24	6235
2026-01-09 10:04:20.68	143.35	34.45	-32.0	-36.6	10.1	7.76e-03	0	43	0	402653184	24	6130
2026-01-09 10:04:21.68	143.27	34.67	-31.9	-36.5	10.1	5.88e-03	0	43	0	404750336	24	6113
2026-01-09 10:04:22.69	143.18	34.89	-31.9	-36.2	10.4	4.63e-03	0	43	0	406847488	24	5952
2026-01-09 10:04:23.70	143.09	35.11	-31.8	-36.0	10.6	4.25e-03	0	43	0	408944640	24	5813
2026-01-09 10:04:24.71	143.00	35.34	-31.6	-35.4	11.0	2.70e-03	0	43	0	411041792	24	5572
2026-01-09 10:04:25.71	142.90	35.56	-31.6	-35.4	11.0	1.88e-03	0	43	0	412090368	24	5574
2026-01-09 10:04:26.72	142.81	35.79	-31.7	-35.6	10.9	2.06e-03	0	43	0	414187520	24	5640
2026-01-09 10:04:27.73	142.71	36.02	-31.7	-35.6	10.9	1.89e-03	0	43	0	416284672	24	5638
2026-01-09 10:04:28.73	142.62	36.25	-31.5	-35.1	11.3	1.22e-03	0	43	0	418381824	24	5411
2026-01-09 10:04:29.74	142.52	36.48	-31.5	-34.8	11.4	8.11e-04	0	43	0	420478976	24	5319
2026-01-09 10:04:30.74	142.42	36.71	-31.5	-35.0	11.4	9.71e-04	0	43	0	421527552	24	5360
2026-01-09 10:04:31.74	142.32	36.95	-31.6	-35.4	11.1	1.16e-03	0	43	0	423624704	24	5565
2026-01-09 10:04:32.75	142.22	37.18	-31.6	-35.2	11.2	2.05e-03	0	43	0	425721856	24	5457
2026-01-09 10:04:33.75	142.11	37.42	-31.7	-35.6	10.9	1.71e-03	0	43	0	427819008	24	5622
2026-01-09 10:04:34.76	142.01	37.66	-31.5	-35.1	11.3	1.94e-03	0	43	0	429916160	24	5402
2026-01-09 10:04:35.77	141.90	37.90	-31.5	-34.9	11.5	1.35e-03	0	43	0	430964736	24	5311
2026-01-09 10:04:36.78	141.79	38.15	-31.4	-34.7	11.6	6.35e-04	0	43	0	433061888	24	5252
2026-01-09 10:04:37.78	141.68	38.39	-31.5	-34.8	11.5	7.14e-04	0	43	0	435159040	24	5292
2026-01-09 10:04:38.79	141.57	38.63	-31.6	-35.1	11.3	1.19e-03	0	43	0	437256192	24	5428
2026-01-09 10:04:39.79	141.45	38.88	-31.7	-35.7	10.9	2.17e-03	0	43	0	439353344	24	5665
2026-01-09 10:04:40.80	141.34	39.13	-31.9	-36.4	10.3	3.20e-03	0	43	0	440401920	24	6036
2026-01-09 10:04:41.81	141.22	39.38	-31.9	-36.3	10.4	6.17e-03	0	43	0	442499072	24	5979
2026-01-09 10:04:42.82	141.10	39.64	-31.9	-36.1	10.6	3.61e-03	0	43	0	444596224	24	5883
2026-01-09 10:04:43.82	140.98	39.89	-31.7	-35.6	10.9	1.91e-03	0	43	0	446693376	24	5658
2026-01-09 10:04:44.83	140.85	40.15	-31.7	-35.5	11.0	1.76e-03	0	43	0	448790528	24	5589
2026-01-09 10:04:45.84	140.73	40.40	-31.5	-34.9	11.4	1.55e-03	0	43	0	449839104	24	5347
2026-01-09 10:04:46.84	140.60	40.66	-31.6	-35.3	11.2	1.14e-03	0	43	0	451936256	24	5495
2026-01-09 10:04:47.84	140.47	40.92	-31.5	-34.8	11.5	1.07e-03	0	43	0	454033408	24	5291
2026-01-09 10:04:48.85	140.34	41.19	-31.4	-34.6	11.7	7.80e-04	0	43	0	456130560	24	5186
2026-01-09 10:04:49.86	140.20	41.45	-31.4	-34.7	11.6	6.48e-04	0	43	0	458227712	24	5229
2026-01-09 10:04:50.86	140.07	41.72	-31.4	-34.6	11.7	5.03e-04	0	43	0	459276288	24	5224
2026-01-09 10:04:51.87	139.93	41.98	-31.4	-34.6	11.7	4.86e-04	0	43	0	461373440	24	5191
2026-01-09 10:04:52.88	139.79	42.26	-31.5	-34.9	11.5	8.09e-04	0	43	0	463470592	24	5331
2026-01-09 10:04:53.88	139.65	42.53	-31.5	-34.9	11.5	8.27e-04	0	43	0	465567744	24	5330
2026-01-09 10:04:54.89	139.50	42.80	-31.4	-34.7	11.6	6.93e-04	0	43	0	467664896	24	5240
2026-01-09 10:04:55.90	139.35	43.08	-31.4	-34.5	11.7	5.13e-04	0	43	0	468713472	24	5166
2026-01-09 10:04:56.91	139.20	43.35	-31.5	-34.9	11.5	6.72e-04	0	43	0	470810624	24	5340
2026-01-09 10:04:57.91	139.05	43.63	-31.5	-34.9	11.5	8.97e-04	0	43	0	472907776	24	5305
2026-01-09 10:04:58.92	138.89	43.91	-31.5	-35.0	11.5	7.67e-04	0	43	0	475004928	24	5349
2026-01-09 10:04:59.93	138.73	44.20	-31.3	-34.7	12.1	4.38e-04	0	43	0	477102080	23	5321
2026-01-09 10:05:00.93	138.57	44.48	-31.0	-33.9	12.5	1.78e-04	0	43	0	478150656	23	5033
2026-01-09 10:05:01.93	138.40	44.76	-30.9	-33.6	12.7	7.70e-05	0	43	0	480247808	23	4921
2026-01-09 10:05:02.94	138.23	45.05	-30.9	-33.6	12.7	5.26e-05	0	43	0	482344960	23	4926
2026-01-09 10:05:03.95	138.06	45.34	-31.1	-34.2	12.4	7.85e-05	0	43	0	484442112	23	5124
2026-01-09 10:05:04.95	137.89	45.63	-30.9	-33.5	12.8	1.04e-04	0	43	0	486539264	23	4882
2026-01-09 10:05:05.95	137.71	45.92	-30.7	-33.4	13.3	4.04e-05	0	43	0	487587840	22	4933
2026-01-09 10:05:06.96	137.53	46.22	-30.5	-33.0	13.5	1.22e-05	0	43	0	489684992	22	4795
2026-01-09 10:05:07.97	137.34	46.52	-30.7	-33.4	13.3	2.05e-05	0	43	0	491782144	22	4936
2026-01-09 10:05:08.97	137.15	46.81	-30.7	-33.6	13.2	1.52e-05	0	43	0	493879296	22	4991
2026-01-09 10:05:09.98	136.96	47.11	-30.8	-33.7	13.1	2.44e-05	0	43	0	495976448	22	5029
2026-01-09 10:05:10.98	136.77	47.41	-30.7	-33.4	13.3	1.75e-05	0	43	0	497025024	22	4924
2026-01-09 10:05:11.99	136.57	47.72	-30.5	-32.9	13.6	1.06e-05	0	43	0	499122176	22	4759
2026-01-09 10:05:13.00	136.36	48.03	-30.4	-32.8	13.7	6.10e-06	0	43	0	501219328	22	4718
2026-01-09 10:05:14.00	136.15	48.33	-30.6	-33.3	13.4	4.50e-06	0	43	0	503316480	22	4892
2026-01-09 10:05:15.01	135.94	48.64	-30.6	-33.3	13.3	1.22e-05	0	43	0	505413632	22	4892
2026-01-09 10:05:16.01	135.73	48.95	-30.7	-33.5	13.3	1.52e-05	0	43	0	506462208	22	4953
2026-01-09 10:05:17.01	135.51	49.26	-30.9	-34.0	12.9	2.82e-05	0	43	0	508559360	22	5173
2026-01-09 10:05:18.02	135.28	49.58	-30.6	-33.1	13.5	2.36e-05	0	43	0	510656512	22	4821
2026-01-09 10:05:19.03	135.05	49.89	-30.4	-32.6	13.8	1.29e-05	0	43	0	512753664	22	4655
2026-01-09 10:05:20.03	134.81	50.21	-30.2	-32.6	14.1	7.00e-07	0	43	0	514850816	21	4778
2026-01-09 10:05:21.04	134.57	50.53	-30.1	-32.5	14.2	3.80e-06	0	43	0	515899392	21	4736
2026-01-09 10:05:22.05	134.33	50.85	-30.1	-32.5	14.2	0.00e+00	0	43	0	517996544	21	4731
2026-01-09 10:05:23.06	134.07	51.17	-30.2	-32.5	14.1	7.00e-07	0	43	0	520093696	21	4740
2026-01-09 10:05:24.06	133.82	51.50	-30.4	-33.4	13.6	6.10e-06	0	43	0	522190848	21	5040
2026-01-09 10:05:25.07	133.55	51.82	-29.9	-31.9	14.5	1.50e-06	0	43	0	524288000	21	4544
2026-01-09 10:05:26.08	133.29	52.15	-29.8	-32.2	14.7	1.50e-06	0	43	0	525336576	20	4718
2026-01-09 10:05:27.08	133.01	52.48	-29.9	-32.5	14.5	0.00e+00	0	43	0	527433728	20	4826
2026-01-09 10:05:28.09	132.73	52.81	-30.0	-32.7	14.4	0.00e+00	0	43	0	529530880	20	4912
2026-01-09 10:05:29.09	132.45	53.14	-30.2	-33.1	14.1	1.50e-06	0	43	0	531628032	20	5060
2026-01-09 10:05:30.10	132.15	53.48	-30.2	-33.2	14.1	7.00e-07	0	43	0	533725184	20	5090
2026-01-09 10:05:31.11	131.85	53.81	-30.1	-33.0	14.2	0.00e+00	0	43	0	534773760	20	5004
2026-01-09 10:05:32.12	131.54	54.15	-30.4	-33.6	13.9	3.00e-06	0	43	0	536870912	20	5199
2026-01-09 10:05:33.13	131.22	54.49	-30.4	-33.6	13.8	2.20e-06	0	43	0	538968064	20	5230
2026-01-09 10:05:34.14	130.90	54.83	-30.9	-34.6	12.9	1.22e-05	0	43	0	541065216	21	5504
2026-01-09 10:05:35.13	130.57	55.16	-30.5	-33.4	13.6	1.75e-05	0	43	0	543162368	21	5042
2026-01-09 10:05:36.14	130.23	55.50	-30.2	-32.7	14.1	4.50e-06	0	43	0	544210944	21	4801
2026-01-09 10:05:37.15	129.88	55.85	-30.3	-32.9	14.0	3.00e-06	0	43	0	546308096	21	4850
2026-01-09 10:05:38.16	129.53	56.19	-30.4	-33.1	13.8	3.00e-06	0	43	0	548405248	21	4937
2026-01-09 10:05:39.16	129.16	56.53	-30.9	-34.5	13.0	8.30e-06	0	43	0	550502400	21	5438
2026-01-09 10:05:40.17	128.79	56.88	-31.3	-35.0	12.3	9.91e-05	0	43	0	552599552	22	5551
2026-01-09 10:05:41.18	128.40	57.23	-31.5	-35.4	11.7	2.24e-04	0	43	0	553648128	23	5623
2026-01-09 10:05:42.19	128.01	57.58	-31.8	-36.3	11.0	1.20e-03	0	43	0	555745280	23	6053
2026-01-09 10:05:43.19	127.61	57.92	-31.9	-36.5	10.9	2.40e-03	0	43	0	557842432	23	6150
2026-01-09 10:05:44.20	127.19	58.27	-31.9	-36.5	10.8	2.29e-03	0	43	0	559939584	23	6109
2026-01-09 10:05:45.20	126.77	58.62	-32.1	-36.7	10.4	2.97e-03	0	43	0	562036736	24	6116
2026-01-09 10:05:46.20	126.33	58.97	-32.0	-36.5	10.5	5.43e-03	0	43	0	563085312	24	6025
2026-01-09 10:05:47.21	125.88	59.32	-31.5	-34.8	11.8	1.31e-03	0	43	0	565182464	24	5237
2026-01-09 10:05:48.22	125.42	59.67	-31.2	-34.2	12.6	2.67e-04	0	43	0	567279616	23	5125
2026-01-09 10:05:49.23	124.94	60.02	-31.0	-33.6	12.9	4.57e-05	0	43	0	569376768	23	4891
2026-01-09 10:05:50.23	124.46	60.37	-31.0	-33.6	12.9	3.28e-05	0	43	0	571473920	23	4898
2026-01-09 10:05:51.24	123.96	60.72	-30.8	-33.2	13.2	2.67e-05	0	43	0	572522496	23	4740
2026-01-09 10:05:52.24	123.44	61.07	-30.7	-33.5	13.4	1.90e-05	0	43	0	574619648	22	4944
2026-01-09 10:05:53.25	122.91	61.42	-30.7	-33.3	13.5	1.52e-05	0	43	0	576716800	22	4867
2026-01-09 10:05:54.26	122.37	61.77	-31.2	-34.8	12.5	4.80e-05	0	43	0	578813952	22	5440
2026-01-09 10:05:55.26	121.81	62.12	-31.0	-34.4	12.8	3.89e-05	0	43	0	580911104	22	5272
2026-01-09 10:05:56.27	121.23	62.47	-31.2	-34.8	12.6	6.63e-05	0	43	0	581959680	22	5430
2026-01-09 10:05:57.28	120.63	62.82	-31.3	-35.1	12.3	2.20e-04	0	43	0	584056832	22	5565
2026-01-09 10:05:58.28	120.03	63.17	-30.4	-32.5	14.0	2.74e-05	0	43	0	586153984	22	4597
2026-01-09 10:05:59.28	119.40	63.51	-30.2	-32.5	14.4	7.00e-07	0	43	0	588251136	21	4696
2026-01-09 10:06:00.29	118.75	63.86	-30.5	-33.4	13.8	1.50e-06	0	43	0	590348288	21	5013
2026-01-09 10:06:01.29	118.08	64.20	-31.2	-34.7	12.6	3.50e-05	0	43	0	591396864	22	5404
2026-01-09 10:06:02.29	117.40	64.54	-31.5	-35.6	12.0	1.89e-04	0	43	0	593494016	22	5801
2026-01-09 10:06:03.30	116.69	64.88	-31.6	-35.6	11.6	4.17e-04	0	43	0	595591168	23	5706
2026-01-09 10:06:04.31	115.96	65.22	-31.9	-36.5	11.0	1.18e-03	0	43	0	597688320	23	6113
2026-01-09 10:06:05.32	115.20	65.55	-32.1	-36.6	10.5	3.69e-03	0	43	0	599785472	24	6071
2026-01-09 10:06:06.32	114.43	65.88	-31.9	-36.0	11.0	1.97e-03	0	43	0	600834048	24	5748
2026-01-09 10:06:07.32	113.63	66.21	-31.9	-36.1	10.9	1.78e-03	0	43	0	602931200	24	5803
2026-01-09 10:06:08.33	112.80	66.54	-32.0	-36.5	10.6	2.07e-03	0	43	0	605028352	24	5987
2026-01-09 10:06:09.34	111.95	66.86	-32.0	-36.2	10.8	3.46e-03	0	43	0	607125504	24	5871
2026-01-09 10:06:10.34	111.08	67.18	-31.9	-35.8	11.2	1.46e-03	0	43	0	608174080	24	5679
2026-01-09 10:06:11.35	110.17	67.50	-31.9	-35.9	11.1	1.43e-03	0	43	0	610271232	24	5716
2026-01-09 10:06:12.35	109.25	67.81	-31.8	-35.5	11.4	9.90e-04	0	43	0	612368384	24	5531
2026-01-09 10:06:13.36	108.28	68.12	-31.4	-34.2	12.2	4.84e-04	0	43	0	614465536	24	5001
2026-01-09 10:06:14.37	107.29	68.42	-31.0	-33.8	12.9	9.00e-05	0	43	0	616562688	23	4930
2026-01-09 10:06:15.37	106.27	68.72	-31.1	-34.0	12.7	5.26e-05	0	43	0	618659840	23	5028
2026-01-09 10:06:16.37	105.23	69.01	-31.4	-34.9	12.2	2.26e-04	0	43	0	619708416	23	5355
2026-01-09 10:06:17.38	104.14	69.29	-31.3	-34.5	12.4	1.66e-04	0	43	0	621805568	23	5226
2026-01-09 10:06:18.38	103.03	69.57	-31.3	-34.7	12.3	1.81e-04	0	43	0	623902720	23	5306
2026-01-09 10:06:19.38	101.89	69.84	-31.3	-34.4	12.4	1.36e-04	0	43	0	625999872	23	5187
2026-01-09 10:06:20.39	100.70	70.11	-31.2	-34.2	12.6	2.61e-04	0	43	0	627048448	23	5097
2026-01-09 10:06:21.40	99.48	70.37	-30.6	-33.0	13.8	8.30e-06	0	43	0	629145600	22	4745
2026-01-09 10:06:22.39	98.25	70.62	-30.3	-32.4	14.2	6.10e-06	0	43	0	631242752	22	4556
2026-01-09 10:06:23.40	96.96	70.86	-30.1	-32.3	14.5	7.00e-07	0	43	0	633339904	21	4647
2026-01-09 10:06:24.40	95.65	71.09	-30.2	-32.6	14.3	2.20e-06	0	43	0	635437056	21	4747
2026-01-09 10:06:25.41	94.30	71.32	-30.5	-33.4	13.8	1.50e-06	0	43	0	636485632	21	4999
2026-01-09 10:06:26.42	92.90	71.53	-30.3	-32.7	14.2	3.80e-06	0	43	0	638582784	21	4761
2026-01-09 10:06:27.42	91.49	71.74	-30.0	-32.0	14.7	1.50e-06	0	43	0	640679936	21	4524
2026-01-09 10:06:28.42	90.05	71.93	-30.2	-32.5	14.4	0.00e+00	0	43	0	642777088	21	4691
2026-01-09 10:06:29.43	88.55	72.11	-30.2	-32.6	14.3	2.20e-06	0	43	0	644874240	21	4748
2026-01-09 10:06:30.43	87.04	72.28	-30.1	-32.2	14.6	1.50e-06	0	43	0	645922816	21	4596
2026-01-09 10:06:31.44	85.49	72.44	-30.5	-33.2	13.9	7.00e-07	0	43	0	648019968	21	4944
2026-01-09 10:06:32.44	83.92	72.59	-31.0	-34.7	12.9	1.52e-05	0	43	0	650117120	21	5519
2026-01-09 10:06:33.45	82.31	72.73	-31.2	-34.9	12.5	1.02e-04	0	43	0	652214272	22	5482
2026-01-09 10:06:34.46	80.68	72.85	-31.5	-35.2	12.0	2.45e-04	0	43	0	654311424	23	5510
2026-01-09 10:06:35.46	79.03	72.96	-31.3	-34.5	12.4	4.33e-04	0	43	0	655360000	23	5217
2026-01-09 10:06:36.47	77.35	73.05	-31.4	-34.7	12.4	1.01e-04	0	43	0	657457152	23	5303
2026-01-09 10:06:37.47	75.67	73.13	-31.9	-36.5	11.0	7.19e-04	0	43	0	659554304	23	6082
2026-01-09 10:06:38.48	73.96	73.20	-32.1	-36.5	10.6	3.63e-03	0	43	0	661651456	24	5994
2026-01-09 10:06:39.49	72.23	73.25	-31.8	-35.6	11.3	1.26e-03	0	43	0	663748608	24	5562
2026-01-09 10:06:40.49	70.51	73.29	-31.9	-35.9	11.1	1.23e-03	0	43	0	664797184	24	5718
2026-01-09 10:06:41.50	68.77	73.32	-31.9	-35.8	11.1	2.58e-03	0	43	0	666894336	24	5647
2026-01-09 10:06:42.51	67.02	73.33	-31.6	-34.9	11.8	9.36e-04	0	43	0	668991488	24	5254
2026-01-09 10:06:43.51	65.29	73.32	-31.7	-35.3	11.4	1.00e-03	0	43	0	671088640	24	5469
2026-01-09 10:06:44.52	63.55	73.30	-31.7	-35.2	11.6	7.55e-04	0	43	0	673185792	24	5398
2026-01-09 10:06:45.53	61.81	73.26	-31.8	-35.4	11.5	5.37e-04	0	43	0	674234368	24	5507
2026-01-09 10:06:46.53	60.09	73.21	-31.9	-35.9	11.1	3.38e-03	0	43	0	676331520	24	5703
2026-01-09 10:06:47.54	58.38	73.15	-31.4	-34.4	12.1	8.00e-04	0	43	0	678428672	24	5097
2026-01-09 10:06:48.55	56.68	73.07	-30.8	-33.2	13.3	1.03e-04	0	43	0	680525824	23	4737
2026-01-09 10:06:49.55	55.01	72.98	-30.4	-32.7	13.9	3.80e-06	0	43	0	682622976	22	4654
2026-01-09 10:06:50.56	53.35	72.87	-30.1	-32.3	14.5	0.00e+00	0	43	0	683671552	21	4631
2026-01-09 10:06:51.56	51.72	72.76	-30.3	-32.9	14.1	3.00e-06	0	43	0	685768704	21	4842
2026-01-09 10:06:52.56	50.12	72.62	-30.3	-32.8	14.1	5.30e-06	0	43	0	687865856	21	4819
2026-01-09 10:06:53.57	48.53	72.48	-30.2	-32.4	14.4	3.00e-06	0	43	0	689963008	21	4683
2026-01-09 10:06:54.58	46.98	72.32	-30.3	-32.9	14.0	1.50e-06	0	43	0	692060160	21	4863
2026-01-09 10:06:55.59	45.45	72.15	-30.3	-32.9	14.1	7.00e-07	0	43	0	693108736	21	4849
2026-01-09 10:06:56.59	43.96	71.97	-30.6	-33.7	13.6	6.10e-06	0	43	0	695205888	21	5141
2026-01-09 10:06:57.60	42.50	71.78	-30.8	-34.3	13.2	9.10e-06	0	43	0	697303040	21	5358
2026-01-09 10:06:58.61	41.07	71.58	-30.8	-34.3	13.1	2.67e-05	0	43	0	699400192	21	5362
2026-01-09 10:06:59.61	39.68	71.36	-31.2	-34.9	12.5	5.11e-05	0	43	0	701497344	22	5503
2026-01-09 10:07:00.62	38.32	71.14	-31.5	-35.1	11.8	4.43e-04	0	43	0	702545920	23	5476
2026-01-09 10:07:01.63	36.99	70.91	-31.3	-34.6	12.2	3.11e-04	0	43	0	704643072	23	5279
2026-01-09 10:07:02.63	35.71	70.67	-31.2	-34.3	12.5	1.26e-04	0	43	0	706740224	23	5139
2026-01-09 10:07:03.64	34.45	70.42	-31.1	-33.9	12.7	9.07e-05	0	43	0	708837376	23	5003
2026-01-09 10:07:04.64	33.23	70.17	-30.8	-33.2	13.3	3.43e-05	0	43	0	710934528	23	4746
2026-01-09 10:07:05.64	32.05	69.90	-30.9	-33.9	13.1	2.97e-05	0	43	0	711983104	22	5107
2026-01-09 10:07:06.64	30.90	69.63	-31.0	-34.1	12.9	4.27e-05	0	43	0	714080256	22	5185
2026-01-09 10:07:07.65	29.78	69.35	-31.2	-34.9	12.4	9.61e-05	0	43	0	716177408	22	5483
2026-01-09 10:07:08.65	28.70	69.07	-31.7	-35.8	11.4	3.60e-04	0	43	0	718274560	23	5774
2026-01-09 10:07:09.66	27.64	68.78	-31.7	-35.9	11.4	1.55e-03	0	43	0	720371712	23	5829
2026-01-09 10:07:10.66	26.62	68.49	-31.7	-35.8	11.4	9.77e-04	0	43	0	721420288	23	5781
2026-01-09 10:07:11.67	25.62	68.18	-31.7	-35.9	11.3	1.47e-03	0	43	0	723517440	23	5840
2026-01-09 10:07:12.67	24.66	67.88	-31.8	-36.3	11.1	1.33e-03	0	43	0	725614592	23	6035
2026-01-09 10:07:13.67	23.73	67.57	-31.7	-35.7	11.5	1.31e-03	0	43	0	727711744	23	5757
2026-01-09 10:07:14.68	22.81	67.26	-31.5	-35.2	11.9	7.05e-04	0	43	0	729808896	23	5537
2026-01-09 10:07:15.69	21.93	66.94	-31.2	-34.3	12.5	2.89e-04	0	43	0	730857472	23	5165
2026-01-09 10:07:16.69	21.08	66.62	-31.2	-34.4	12.3	1.97e-04	0	43	0	732954624	23	5216
2026-01-09 10:07:17.70	20.25	66.29	-30.6	-33.2	13.4	6.63e-05	0	43	0	735051776	22	4849
2026-01-09 10:07:18.70	19.45	65.96	-30.2	-32.7	14.1	3.00e-06	0	43	0	737148928	21	4778
2026-01-09 10:07:19.71	18.66	65.63	-30.2	-32.5	14.2	3.00e-06	0	43	0	738197504	21	4722
2026-01-09 10:07:20.72	17.90	65.30	-29.6	-31.6	15.1	0.00e+00	0	43	0	740294656	20	4508
2026-01-09 10:07:21.72	17.17	64.96	-29.2	-31.0	15.8	0.00e+00	0	43	0	742391808	19	4421
2026-01-09 10:07:22.73	16.46	64.62	-29.0	-30.5	16.1	0.00e+00	0	43	0	744488960	19	4298
2026-01-09 10:07:23.74	15.76	64.28	-28.6	-30.1	16.6	0.00e+00	0	43	0	746586112	18	4269
2026-01-09 10:07:24.75	15.09	63.94	-28.6	-30.0	16.7	0.00e+00	0	43	0	748683264	18	4264
2026-01-09 10:07:25.75	14.44	63.60	-28.3	-29.4	17.1	0.00e+00	0	43	0	749731840	18	4094
2026-01-09 10:07:26.76	13.81	63.25	-28.0	-29.3	17.3	0.00e+00	0	43	0	751828992	17	4157
2026-01-09 10:07:27.77	13.19	62.90	-28.5	-30.3	16.8	0.00e+00	0	43	0	753926144	17	4449
2026-01-09 10:07:28.78	12.59	62.55	-28.6	-30.7	16.5	0.00e+00	0	43	0	756023296	17	4578
2026-01-09 10:07:29.78	12.02	62.21	-28.9	-31.3	16.3	0.00e+00	0	43	0	758120448	17	4765
2026-01-09 10:07:30.79	11.45	61.86	-28.9	-31.3	16.2	0.00e+00	0	43	0	759169024	17	4751
2026-01-09 10:07:31.79	10.91	61.51	-29.3	-31.7	15.7	0.00e+00	0	43	0	761266176	18	4764
2026-01-09 10:07:32.80	10.37	61.16	-29.8	-32.5	14.9	0.00e+00	0	43	0	763363328	19	4922
2026-01-09 10:07:33.80	9.86	60.81	-30.3	-33.3	14.0	0.00e+00	0	43	0	765460480	20	5098
2026-01-09 10:07:34.81	9.36	60.46	-30.9	-34.6	12.8	2.21e-05	0	43	0	766509056	21	5526
2026-01-09 10:07:35.81	8.87	60.12	-31.3	-35.2	12.1	1.86e-04	0	43	0	768606208	22	5637
2026-01-09 10:07:36.82	8.39	59.76	-31.4	-35.5	11.9	4.86e-04	0	43	0	770703360	22	5760
2026-01-09 10:07:37.83	7.93	59.41	-31.8	-36.2	11.0	1.09e-03	0	43	0	772800512	23	5988
2026-01-09 10:07:38.84	7.47	59.06	-31.7	-36.1	11.0	2.28e-03	0	43	0	774897664	23	5944
2026-01-09 10:07:39.84	7.04	58.72	-31.9	-36.5	10.7	2.74e-03	0	43	0	776994816	23	6157
2026-01-09 10:07:40.85	6.61	58.37	-32.4	-38.0	9.3	7.25e-03	0	43	0	778043392	24	6851
2026-01-09 10:07:41.86	6.19	58.02	-32.5	-37.9	9.0	2.75e-02	0	43	0	780140544	25	6721
2026-01-09 10:07:42.87	5.78	57.67	-32.1	-36.5	9.9	1.04e-02	0	43	0	782237696	25	5967
2026-01-09 10:07:43.87	5.39	57.33	-31.9	-35.7	10.7	4.12e-03	0	43	0	784334848	25	5545
2026-01-09 10:07:44.87	5.01	56.98	-31.8	-36.0	10.8	2.08e-03	0	43	0	786432000	24	5782
2026-01-09 10:07:45.88	4.63	56.64	-31.6	-35.1	11.5	1.30e-03	0	43	0	787480576	24	5391
2026-01-09 10:07:46.89	4.26	56.29	-31.8	-36.0	11.0	1.17e-03	0	43	0	789577728	24	5794
2026-01-09 10:07:47.90	3.91	55.95	-31.6	-35.2	11.4	1.65e-03	0	43	0	791674880	24	5424
2026-01-09 10:07:48.90	3.56	55.61	-31.2	-34.3	12.3	6.06e-04	0	43	0	793772032	23	5161
2026-01-09 10:07:49.90	3.22	55.27	-30.6	-33.1	13.5	3.05e-05	0	43	0	794820608	22	4815
2026-01-09 10:07:50.91	2.89	54.93	-30.4	-32.7	13.8	9.10e-06	0	43	0	796917760	22	4666
2026-01-09 10:07:51.92	2.56	54.59	-30.4	-32.6	13.7	3.00e-06	0	43	0	799014912	22	4666
2026-01-09 10:07:52.92	2.25	54.26	-30.6	-33.3	13.3	9.10e-06	0	43	0	801112064	22	4902
2026-01-09 10:07:53.93	1.94	53.92	-31.2	-35.0	12.3	8.01e-05	0	43	0	803209216	22	5540
2026-01-09 10:07:54.94	1.64	53.59	-31.2	-34.8	12.3	3.35e-04	0	43	0	805306368	22	5492
2026-01-09 10:07:55.94	1.34	53.26	-31.4	-35.6	11.8	4.43e-04	0	43	0	806354944	22	5826
2026-01-09 10:07:56.95	1.05	52.92	-31.1	-34.6	12.4	2.80e-04	0	43	0	808452096	22	5403
2026-01-09 10:07:57.96	0.77	52.59	-30.8	-33.9	12.9	8.23e-05	0	43	0	810549248	22	5103
2026-01-09 10:07:58.96	0.50	52.27	-30.5	-33.0	13.5	1.44e-05	0	43	0	812646400	22	4779
2026-01-09 10:07:59.97	0.23	51.94	-30.3	-32.3	13.9	3.00e-06	0	43	0	814743552	22	4562
2026-01-09 10:08:00.98	359.96	51.61	-30.3	-32.9	13.9	4.50e-06	0	43	0	815792128	21	4868
2026-01-09 10:08:01.98	359.71	51.29	-30.7	-34.0	13.2	5.30e-06	0	43	0	817889280	21	5259
2026-01-09 10:08:02.99	359.46	50.97	-30.8	-34.2	13.0	3.35e-05	0	43	0	819986432	21	5358
2026-01-09 10:08:04.00	359.21	50.65	-31.2	-35.1	12.2	1.17e-04	0	43	0	822083584	22	5591
2026-01-09 10:08:05.01	358.97	50.33	-31.1	-34.7	12.4	2.01e-04	0	43	0	823132160	22	5417
2026-01-09 10:08:06.01	358.73	50.01	-31.4	-35.5	11.8	3.78e-04	0	43	0	825229312	22	5798
2026-01-09 10:08:07.02	358.50	49.70	-31.2	-35.0	12.2	2.47e-04	0	43	0	827326464	22	5577
2026-01-09 10:08:08.02	358.27	49.38	-31.3	-35.2	12.1	2.67e-04	0	43	0	829423616	22	5641
2026-01-09 10:08:09.03	358.05	49.07	-31.6	-35.5	11.4	7.06e-04	0	43	0	831520768	23	5701
2026-01-09 10:08:10.03	357.84	48.76	-31.9	-36.6	10.6	2.52e-03	0	43	0	833617920	23	6191
2026-01-09 10:08:11.04	357.62	48.45	-31.6	-35.8	11.2	2.20e-03	0	43	0	834666496	23	5798
2026-01-09 10:08:12.04	357.41	48.15	-31.4	-35.2	11.7	8.86e-04	0	43	0	836763648	23	5554
2026-01-09 10:08:13.04	357.21	47.85	-31.2	-34.4	12.1	2.49e-04	0	43	0	838860800	23	5233
2026-01-09 10:08:14.05	357.01	47.54	-31.2	-34.4	12.2	2.39e-04	0	43	0	840957952	23	5221
2026-01-09 10:08:15.06	356.81	47.24	-31.0	-33.8	12.6	1.50e-04	0	43	0	842006528	23	4978
2026-01-09 10:08:16.06	356.62	46.94	-31.0	-33.9	12.5	1.15e-04	0	43	0	844103680	23	5006
2026-01-09 10:08:17.07	356.43	46.64	-30.8	-33.9	12.9	7.17e-05	0	43	0	846200832	22	5107
2026-01-09 10:08:18.08	356.25	46.35	-30.9	-34.1	12.7	6.94e-05	0	43	0	848297984	22	5186
2026-01-09 10:08:19.08	356.07	46.05	-30.9	-34.0	12.8	7.85e-05	0	43	0	850395136	22	5159
2026-01-09 10:08:20.08	355.89	45.76	-30.9	-34.2	12.7	8.08e-05	0	43	0	851443712	22	5227
2026-01-09 10:08:21.08	355.71	45.48	-31.1	-34.6	12.4	7.93e-05	0	43	0	853540864	22	5396
2026-01-09 10:08:22.09	355.54	45.19	-31.3	-35.2	12.0	1.87e-04	0	43	0	855638016	22	5681
2026-01-09 10:08:23.10	355.37	44.90	-31.3	-35.2	11.9	3.96e-04	0	43	0	857735168	22	5658
2026-01-09 10:08:24.10	355.21	44.61	-31.3	-35.2	12.0	3.61e-04	0	43	0	859832320	22	5661
2026-01-09 10:08:25.10	355.05	44.33	-31.3	-35.4	11.8	4.04e-04	0	43	0	860880896	22	5744
2026-01-09 10:08:26.11	354.89	44.05	-31.4	-35.8	11.5	6.32e-04	0	43	0	862978048	22	5938
2026-01-09 10:08:27.12	354.73	43.77	-31.5	-35.6	11.3	1.38e-03	0	43	0	865075200	23	5752
2026-01-09 10:08:28.13	354.57	43.49	-31.7	-36.1	10.9	1.54e-03	0	43	0	867172352	23	5989
2026-01-09 10:08:29.13	354.42	43.22	-31.8	-36.3	10.8	2.27e-03	0	43	0	869269504	23	6071
2026-01-09 10:08:30.13	354.28	42.94	-31.9	-36.7	10.5	3.56e-03	0	43	0	870318080	23	6257
2026-01-09 10:08:31.14	354.13	42.67	-31.8	-36.3	10.8	3.74e-03	0	43	0	872415232	23	6062
2026-01-09 10:08:32.15	353.98	42.40	-31.9	-36.7	10.4	3.52e-03	0	43	0	874512384	23	6300
2026-01-09 10:08:33.15	353.84	42.13	-31.8	-36.5	10.6	4.10e-03	0	43	0	876609536	23	6146
2026-01-09 10:08:34.16	353.70	41.86	-31.8	-36.3	10.8	3.45e-03	0	43	0	878706688	23	6074
2026-01-09 10:08:35.17	353.57	41.59	-31.8	-36.4	10.8	2.66e-03	0	43	0	879755264	23	6095
2026-01-09 10:08:36.17	353.43	41.33	-31.8	-36.4	10.7	2.62e-03	0	43	0	881852416	23	6112
2026-01-09 10:08:37.18	353.30	41.07	-31.8	-36.5	10.7	3.34e-03	0	43	0	883949568	23	6175
2026-01-09 10:08:38.19	353.17	40.81	-31.8	-36.3	10.7	3.11e-03	0	43	0	886046720	23	6061
2026-01-09 10:08:39.20	353.04	40.55	-31.8	-36.5	10.7	3.36e-03	0	43	0	888143872	23	6154
2026-01-09 10:08:40.20	352.92	40.29	-31.9	-36.7	10.4	4.23e-03	0	43	0	889192448	23	6297
2026-01-09 10:08:41.21	352.79	40.04	-31.9	-36.8	10.4	4.55e-03	0	43	0	891289600	23	6303
2026-01-09 10:08:42.22	352.67	39.78	-32.0	-37.1	10.2	5.17e-03	0	43	0	893386752	23	6484
2026-01-09 10:08:43.23	352.55	39.53	-32.1	-37.2	9.7	1.08e-02	0	43	0	895483904	24	6439
2026-01-09 10:08:44.23	352.44	39.28	-31.9	-36.4	10.3	6.58e-03	0	43	0	897581056	24	6044
2026-01-09 10:08:45.23	352.32	39.03	-31.8	-35.9	10.7	4.18e-03	0	43	0	898629632	24	5788
2026-01-09 10:08:46.24	352.21	38.78	-31.7	-35.6	11.0	1.77e-03	0	43	0	900726784	24	5621
2026-01-09 10:08:47.25	352.09	38.54	-31.7	-35.8	10.7	2.44e-03	0	43	0	902823936	24	5727
2026-01-09 10:08:48.25	351.98	38.30	-31.7	-35.8	10.7	2.57e-03	0	43	0	904921088	24	5717
2026-01-09 10:08:49.26	351.87	38.05	-31.8	-36.0	10.6	3.10e-03	0	43	0	907018240	24	5839
2026-01-09 10:08:50.26	351.77	37.81	-31.7	-35.6	10.9	3.08e-03	0	43	0	908066816	24	5630
2026-01-09 10:08:51.26	351.66	37.58	-31.3	-34.5	11.7	9.48e-04	0	43	0	910163968	24	5163
2026-01-09 10:08:52.26	351.56	37.34	-31.0	-34.0	12.3	1.94e-04	0	43	0	912261120	23	5078
2026-01-09 10:08:53.27	351.46	37.10	-30.9	-33.6	12.6	1.21e-04	0	43	0	914358272	23	4941
2026-01-09 10:08:54.27	351.36	36.87	-30.9	-33.7	12.5	1.04e-04	0	43	0	916455424	23	4965
2026-01-09 10:08:55.28	351.26	36.64	-31.0	-33.9	12.4	1.33e-04	0	43	0	917504000	23	5032
2026-01-09 10:08:56.28	351.16	36.41	-30.9	-33.7	12.5	1.45e-04	0	43	0	919601152	23	4971
2026-01-09 10:08:57.29	351.06	36.18	-30.9	-33.6	12.6	7.55e-05	0	43	0	921698304	23	4934
2026-01-09 10:08:58.30	350.97	35.95	-30.9	-33.8	12.5	8.23e-05	0	43	0	923795456	23	4991
2026-01-09 10:08:59.30	350.87	35.72	-30.9	-33.8	12.5	1.42e-04	0	43	0	925892608	23	4992
2026-01-09 10:09:00.31	350.78	35.50	-30.9	-33.7	12.5	9.23e-05	0	43	0	926941184	23	4970
2026-01-09 10:09:01.32	350.69	35.27	-30.9	-33.7	12.5	1.02e-04	0	43	0	929038336	23	4975
2026-01-09 10:09:02.33	350.60	35.05	-31.0	-33.8	12.5	1.36e-04	0	43	0	931135488	23	5018
2026-01-09 10:09:03.32	350.51	34.83	-31.0	-33.9	12.4	1.50e-04	0	43	0	933232640	23	5048
2026-01-09 10:09:04.33	350.42	34.61	-31.0	-34.1	12.3	2.25e-04	0	43	0	935329792	23	5111
2026-01-09 10:09:05.34	350.34	34.40	-30.9	-33.5	12.6	1.45e-04	0	43	0	936378368	23	4905
2026-01-09 10:09:06.35	350.25	34.18	-30.8	-33.4	12.7	9.30e-05	0	43	0	938475520	23	4859
2026-01-09 10:09:07.35	350.17	33.97	-30.9	-33.6	12.6	9.38e-05	0	43	0	940572672	23	4934
2026-01-09 10:09:08.36	350.08	33.75	-31.0	-33.9	12.4	9.30e-05	0	43	0	942669824	23	5039
2026-01-09 10:09:09.37	350.00	33.54	-31.0	-34.1	12.3	2.45e-04	0	43	0	944766976	23	5114
2026-01-09 10:09:10.37	349.92	33.33	-31.0	-34.1	12.2	2.50e-04	0	43	0	945815552	23	5120
2026-01-09 10:09:11.38	349.84	33.12	-31.1	-34.3	12.1	3.02e-04	0	43	0	947912704	23	5208
2026-01-09 10:09:12.39	349.76	32.91	-31.2	-34.5	11.9	4.14e-04	0	43	0	950009856	23	5295
2026-01-09 10:09:13.39	349.69	32.71	-31.3	-34.8	11.7	5.49e-04	0	43	0	952107008	23	5403
2026-01-09 10:09:14.40	349.61	32.50	-31.4	-35.1	11.5	6.72e-04	0	43	0	954204160	23	5541
2026-01-09 10:09:15.40	349.54	32.30	-31.5	-35.5	11.3	9.26e-04	0	43	0	955252736	23	5704
2026-01-09 10:09:16.41	349.46	32.09	-31.6	-35.8	11.0	1.90e-03	0	43	0	957349888	23	5857
2026-01-09 10:09:17.41	349.39	31.89	-31.6	-36.1	10.8	2.25e-03	0	43	0	959447040	23	5981
2026-01-09 10:09:18.42	349.32	31.69	-31.7	-36.3	10.6	3.50e-03	0	43	0	961544192	23	6131
2026-01-09 10:09:19.42	349.25	31.50	-31.7	-36.2	10.7	3.28e-03	0	43	0	963641344	23	6071
2026-01-09 10:09:20.42	349.17	31.30	-31.7	-36.4	10.6	3.44e-03	0	43	0	964689920	23	6140
2026-01-09 10:09:21.43	349.11	31.10	-31.8	-36.5	10.5	3.43e-03	0	43	0	966787072	23	6215
2026-01-09 10:09:22.44	349.04	30.91	-31.8	-36.6	10.4	4.75e-03	0	43	0	968884224	23	6266
2026-01-09 10:09:23.44	348.97	30.72	-31.8	-36.5	10.5	3.80e-03	0	43	0	970981376	23	6205
2026-01-09 10:09:24.44	348.90	30.53	-31.7	-36.3	10.6	4.12e-03	0	43	0	973078528	23	6114
2026-01-09 10:09:25.45	348.84	30.33	-31.6	-35.8	11.0	2.85e-03	0	43	0	974127104	23	5864
2026-01-09 10:09:26.46	348.77	30.14	-31.6	-35.8	11.0	1.80e-03	0	43	0	976224256	23	5856
2026-01-09 10:09:27.46	348.71	29.96	-31.5	-35.5	11.2	1.35e-03	0	43	0	978321408	23	5710
2026-01-09 10:09:28.47	348.64	29.77	-31.5	-35.6	11.1	1.36e-03	0	43	0	980418560	23	5771
2026-01-09 10:09:29.48	348.58	29.58	-31.5	-35.4	11.3	1.27e-03	0	43	0	982515712	23	5677
2026-01-09 10:09:30.48	348.52	29.40	-31.6	-35.8	11.0	1.47e-03	0	43	0	983564288	23	5878
2026-01-09 10:09:31.49	348.45	29.21	-31.7	-36.3	10.7	2.44e-03	0	43	0	985661440	23	6096
2026-01-09 10:09:32.49	348.39	29.03	-31.8	-36.4	10.5	3.17e-03	0	43	0	987758592	23	6170
2026-01-09 10:09:33.50	348.33	28.85	-31.8	-36.5	10.5	5.24e-03	0	43	0	989855744	23	6203
2026-01-09 10:09:34.51	348.27	28.67	-31.6	-35.9	10.9	2.53e-03	0	43	0	991952896	23	5891
2026-01-09 10:09:35.51	348.22	28.49	-31.5	-35.5	11.2	1.68e-03	0	43	0	993001472	23	5735
2026-01-09 10:09:36.52	348.16	28.31	-31.3	-34.9	11.7	8.24e-04	0	43	0	995098624	23	5438
2026-01-09 10:09:37.53	348.10	28.13	-31.3	-34.8	11.6	5.39e-04	0	43	0	997195776	23	5428
2026-01-09 10:09:38.53	348.04	27.96	-31.2	-34.7	11.8	6.04e-04	0	43	0	999292928	23	5369
2026-01-09 10:09:39.54	347.99	27.78	-31.1	-34.2	12.1	3.26e-04	0	43	0	1001390080	23	5172
2026-01-09 10:09:40.55	347.93	27.61	-31.0	-33.9	12.3	2.03e-04	0	43	0	1002438656	23	5057
2026-01-09 10:09:41.55	347.88	27.44	-30.9	-33.8	12.4	1.46e-04	0	43	0	1004535808	23	5035
2026-01-09 10:09:42.56	347.82	27.27	-31.0	-34.1	12.2	1.88e-04	0	43	0	1006632960	23	5123
2026-01-09 10:09:43.56	347.77	27.10	-30.9	-33.9	12.3	1.59e-04	0	43	0	1008730112	23	5059
2026-01-09 10:09:44.56	347.72	26.93	-31.0	-34.0	12.2	2.08e-04	0	43	0	1010827264	23	5104
2026-01-09 10:09:45.57	347.67	26.76	-31.0	-34.1	12.1	2.12e-04	0	43	0	1011875840	23	5143
2026-01-09 10:09:46.57	347.61	26.59	-31.0	-34.1	12.1	2.35e-04	0	43	0	1013972992	23	5143
2026-01-09 10:09:47.57	347.56	26.43	-31.1	-34.3	12.0	3.29e-04	0	43	0	1016070144	23	5218
2026-01-09 10:09:48.58	347.51	26.26	-31.1	-34.2	12.0	3.46e-04	0	43	0	1018167296	23	5201
2026-01-09 10:09:49.58	347.46	26.10	-31.1	-34.4	11.9	3.93e-04	0	43	0	1020264448	23	5265
2026-01-09 10:09:50.58	347.41	25.93	-31.1	-34.3	11.9	4.49e-04	0	43	0	1021313024	23	5240
2026-01-09 10:09:51.59	347.37	25.77	-31.1	-34.4	11.9	4.54e-04	0	43	0	1023410176	23	5257
2026-01-09 10:09:52.60	347.32	25.61	-31.1	-34.3	11.9	3.91e-04	0	43	0	1025507328	23	5243
2026-01-09 10:09:53.60	347.27	25.45	-31.1	-34.5	11.9	3.97e-04	0	43	0	1027604480	23	5288
2026-01-09 10:09:54.61	347.22	25.29	-31.1	-34.5	11.8	5.30e-04	0	43	0	1028653056	23	5302
2026-01-09 10:09:55.62	347.18	25.13	-30.9	-33.9	12.2	2.20e-04	0	43	0	1030750208	23	5060
2026-01-09 10:09:56.62	347.13	24.97	-30.9	-33.8	12.2	1.70e-04	0	43	0	1032847360	23	5034
2026-01-09 10:09:57.63	347.08	24.82	-30.8	-33.9	12.6	1.52e-04	0	43	0	1034944512	22	5168
2026-01-09 10:09:58.63	347.04	24.66	-30.8	-33.9	12.5	9.00e-05	0	43	0	1037041664	22	5175
2026-01-09 10:09:59.63	346.99	24.51	-30.7	-33.6	12.8	7.62e-05	0	43	0	1039138816	22	5060
2026-01-09 10:10:00.64	346.95	24.35	-30.5	-33.0	13.2	3.73e-05	0	43	0	1040187392	22	4840
2026-01-09 10:10:01.65	346.91	24.20	-30.4	-32.8	13.3	2.13e-05	0	43	0	1042284544	22	4756
2026-01-09 10:10:02.65	346.86	24.05	-30.4	-32.9	13.2	2.36e-05	0	43	0	1044381696	22	4797
2026-01-09 10:10:03.66	346.82	23.89	-30.3	-32.7	13.3	1.90e-05	0	43	0	1046478848	22	4742
2026-01-09 10:10:04.67	346.78	23.74	-30.5	-33.1	13.2	2.13e-05	0	43	0	1048576000	22	4859
2026-01-09 10:10:05.67	346.74	23.59	-30.4	-33.0	13.2	2.74e-05	0	43	0	1049624576	22	4831
2026-01-09 10:10:06.68	346.69	23.44	-30.3	-32.7	13.3	2.21e-05	0	43	0	1051721728	22	4723
2026-01-09 10:10:07.68	346.65	23.30	-30.3	-33.1	13.4	9.90e-06	0	43	0	1053818880	21	4970
2026-01-09 10:10:08.68	346.61	23.15	-30.4	-33.4	13.2	1.83e-05	0	43	0	1055916032	21	5085
2026-01-09 10:10:09.69	346.57	23.00	-30.4	-33.4	13.2	2.36e-05	0	43	0	1056964608	21	5082
2026-01-09 10:10:10.69	346.53	22.86	-30.5	-33.6	13.1	5.18e-05	0	43	0	1059061760	21	5156
2026-01-09 10:10:11.69	346.49	22.71	-30.5	-33.7	13.0	2.97e-05	0	43	0	1061158912	21	5198
2026-01-09 10:10:12.70	346.45	22.57	-30.7	-34.1	12.7	6.94e-05	0	43	0	1063256064	21	5367
2026-01-09 10:10:13.71	346.41	22.43	-30.6	-33.9	12.8	6.02e-05	0	43	0	1065353216	21	5294
2026-01-09 10:10:14.71	346.38	22.28	-30.5	-33.8	12.9	5.95e-05	0	43	0	1066401792	21	5239
2026-01-09 10:10:15.72	346.34	22.14	-30.5	-33.6	13.0	3.05e-05	0	43	0	1068498944	21	5177
2026-01-09 10:10:16.72	346.30	22.00	-30.5	-33.7	13.0	2.82e-05	0	43	0	1070596096	21	5193
2026-01-09 10:10:17.73	346.26	21.86	-30.6	-33.9	12.8	4.50e-05	0	43	0	1072693248	21	5279
2026-01-09 10:10:18.74	346.23	21.72	-30.5	-33.8	12.8	5.56e-05	0	43	0	1074790400	21	5246
2026-01-09 10:10:19.74	346.19	21.58	-30.5	-33.8	12.8	4.04e-05	0	43	0	1075838976	21	5238
2026-01-09 10:10:20.75	346.15	21.44	-30.5	-33.9	12.8	6.33e-05	0	43	0	1077936128	21	5290
2026-01-09 10:10:21.75	346.12	21.31	-30.5	-33.8	12.8	5.34e-05	0	43	0	1080033280	21	5254
2026-01-09 10:10:22.76	346.08	21.17	-30.6	-34.0	12.7	7.01e-05	0	43	0	1082130432	21	5320
2026-01-09 10:10:23.77	346.05	21.04	-30.6	-34.1	12.6	9.15e-05	0	43	0	1084227584	21	5385
2026-01-09 10:10:24.77	346.01	20.90	-30.7	-34.3	12.4	1.14e-04	0	43	0	1085276160	21	5480
2026-01-09 10:10:25.77	345.98	20.77	-30.7	-34.4	12.4	1.84e-04	0	43	0	1087373312	21	5522
2026-01-09 10:10:26.78	345.95	20.63	-30.9	-34.8	12.1	1.77e-04	0	43	0	1089470464	21	5693
2026-01-09 10:10:27.79	345.91	20.50	-30.9	-34.9	12.0	2.59e-04	0	43	0	1091567616	21	5730
2026-01-09 10:10:28.80	345.88	20.37	-31.0	-35.2	11.8	2.49e-04	0	43	0	1093664768	21	5865
2026-01-09 10:10:29.80	345.85	20.24	-31.1	-35.0	11.6	5.56e-04	0	43	0	1094713344	22	5656
2026-01-09 10:10:30.81	345.81	20.10	-31.0	-34.6	11.9	4.98e-04	0	43	0	1096810496	22	5503
2026-01-09 10:10:31.81	345.78	19.98	-30.9	-34.5	12.0	3.26e-04	0	43	0	1098907648	22	5453
2026-01-09 10:10:32.82	345.75	19.85	-31.0	-34.8	11.8	4.96e-04	0	43	0	1101004800	22	5563
2026-01-09 10:10:33.82	345.72	19.72	-31.0	-34.8	11.8	4.39e-04	0	43	0	1103101952	22	5550
2026-01-09 10:10:34.83	345.69	19.59	-31.0	-34.6	11.8	3.97e-04	0	43	0	1104150528	22	5501
2026-01-09 10:10:35.83	345.65	19.46	-31.1	-35.2	11.4	7.40e-04	0	43	0	1106247680	22	5758
2026-01-09 10:10:36.84	345.62	19.33	-31.0	-34.8	11.7	5.42e-04	0	43	0	1108344832	22	5569
2026-01-09 10:10:37.85	345.59	19.21	-31.0	-34.7	11.8	5.13e-04	0	43	0	1110441984	22	5515
2026-01-09 10:10:38.85	345.56	19.08	-30.8	-34.3	12.1	3.84e-04	0	43	0	1112539136	22	5345
2026-01-09 10:10:39.85	345.53	18.96	-31.0	-34.7	11.8	3.62e-04	0	43	0	1113587712	22	5531
2026-01-09 10:10:40.86	345.50	18.83	-31.0	-34.8	11.8	5.32e-04	0	43	0	1115684864	22	5551
2026-01-09 10:10:41.87	345.47	18.71	-31.1	-35.0	11.7	3.59e-04	0	43	0	1117782016	22	5632
2026-01-09 10:10:42.87	345.44	18.59	-31.0	-34.6	11.9	4.79e-04	0	43	0	1119879168	22	5498
2026-01-09 10:10:43.88	345.41	18.46	-30.9	-34.4	12.0	4.16e-04	0	43	0	1121976320	22	5403
2026-01-09 10:10:44.88	345.39	18.34	-31.0	-34.7	11.8	4.20e-04	0	43	0	1123024896	22	5545
2026-01-09 10:10:45.89	345.36	18.22	-30.9	-34.4	12.0	3.08e-04	0	43	0	1125122048	22	5392
2026-01-09 10:10:46.90	345.33	18.10	-30.9	-34.5	12.0	3.42e-04	0	43	0	1127219200	22	5431
2026-01-09 10:10:47.90	345.30	17.98	-30.9	-34.5	11.9	2.94e-04	0	43	0	1129316352	22	5442
2026-01-09 10:10:48.90	345.27	17.86	-30.9	-34.5	11.9	2.79e-04	0	43	0	1131413504	22	5451
2026-01-09 10:10:49.91	345.25	17.74	-31.2	-35.5	11.1	1.36e-03	0	43	0	1132462080	22	5915
2026-01-09 10:10:50.92	345.22	17.62	-31.1	-35.1	11.4	1.66e-03	0	43	0	1134559232	22	5744
2026-01-09 10:10:51.92	345.19	17.51	-31.1	-35.1	11.5	7.24e-04	0	43	0	1136656384	22	5719
2026-01-09 10:10:52.93	345.17	17.39	-31.1	-35.1	11.4	8.52e-04	0	43	0	1138753536	22	5737
2026-01-09 10:10:53.94	345.14	17.27	-31.2	-35.6	11.0	1.15e-03	0	43	0	1140850688	22	5949
2026-01-09 10:10:54.95	345.11	17.15	-31.2	-35.4	11.1	1.61e-03	0	43	0	1141899264	22	5880
2026-01-09 10:10:55.95	345.09	17.04	-31.2	-35.4	11.2	1.28e-03	0	43	0	1143996416	22	5870
2026-01-09 10:10:56.96	345.06	16.92	-31.1	-35.1	11.3	1.11e-03	0	43	0	1146093568	22	5742
2026-01-09 10:10:57.97	345.04	16.81	-31.1	-35.3	11.2	1.41e-03	0	43	0	1148190720	22	5827
2026-01-09 10:10:58.97	345.01	16.69	-31.1	-35.3	11.3	1.31e-03	0	43	0	1150287872	22	5801
2026-01-09 10:10:59.98	344.98	16.58	-31.2	-35.5	11.1	1.52e-03	0	43	0	1151336448	22	5926
2026-01-09 10:11:00.99	344.96	16.47	-31.2	-35.4	11.1	1.51e-03	0	43	0	1153433600	22	5892
2026-01-09 10:11:02.00	344.94	16.35	-31.3	-35.7	11.0	1.52e-03	0	43	0	1155530752	22	5997
2026-01-09 10:11:03.01	344.91	16.24	-31.3	-36.1	10.7	2.17e-03	0	43	0	1157627904	22	6197
2026-01-09 10:11:04.01	344.89	16.13	-31.2	-35.7	10.9	2.10e-03	0	43	0	1159725056	22	6011
2026-01-09 10:11:05.02	344.86	16.02	-31.1	-35.4	11.1	1.80e-03	0	43	0	1160773632	22	5874
2026-01-09 10:11:06.02	344.84	15.91	-31.1	-35.4	11.1	1.47e-03	0	43	0	1162870784	22	5871
2026-01-09 10:11:07.03	344.81	15.80	-31.2	-35.6	10.9	1.72e-03	0	43	0	1164967936	22	5973
2026-01-09 10:11:08.04	344.79	15.69	-31.2	-35.5	11.0	2.19e-03	0	43	0	1167065088	22	5925
2026-01-09 10:11:09.05	344.77	15.58	-31.2	-35.6	11.0	1.70e-03	0	43	0	1169162240	22	5948
2026-01-09 10:11:10.05	344.75	15.47	-31.3	-35.8	10.8	2.49e-03	0	43	0	1170210816	22	6076
2026-01-09 10:11:11.05	344.72	15.36	-31.2	-35.5	11.0	2.21e-03	0	43	0	1172307968	22	5922
2026-01-09 10:11:12.06	344.70	15.26	-31.1	-35.4	11.1	1.69e-03	0	43	0	1174405120	22	5859
2026-01-09 10:11:13.07	344.68	15.15	-31.2	-35.8	10.8	2.11e-03	0	43	0	1176502272	22	6053
2026-01-09 10:11:14.08	344.66	15.04	-31.2	-35.7	10.9	2.12e-03	0	43	0	1178599424	22	6000
2026-01-09 10:11:15.08	344.63	14.94	-31.3	-36.0	10.6	2.42e-03	0	43	0	1179648000	22	6173
2026-01-09 10:11:16.09	344.61	14.83	-31.3	-36.0	10.6	2.99e-03	0	43	0	1181745152	22	6161
2026-01-09 10:11:17.10	344.59	14.72	-31.2	-35.7	10.8	2.55e-03	0	43	0	1183842304	22	6041
2026-01-09 10:11:18.11	344.57	14.62	-31.3	-36.1	10.5	3.44e-03	0	43	0	1185939456	22	6219
2026-01-09 10:11:19.11	344.55	14.51	-31.3	-35.9	10.6	3.53e-03	0	43	0	1188036608	22	6152
2026-01-09 10:11:20.11	344.53	14.41	-31.2	-35.7	10.8	3.04e-03	0	43	0	1189085184	22	6024
2026-01-09 10:11:21.12	344.50	14.31	-31.4	-36.2	10.4	4.63e-03	0	43	0	1191182336	22	6266
2026-01-09 10:11:22.12	344.48	14.20	-31.3	-35.9	10.7	2.89e-03	0	43	0	1193279488	22	6119
2026-01-09 10:11:23.13	344.46	14.10	-31.4	-36.4	10.2	4.77e-03	0	43	0	1195376640	22	6390
2026-01-09 10:11:24.13	344.44	14.00	-31.4	-36.4	10.2	5.35e-03	0	43	0	1197473792	22	6377
2026-01-09 10:11:25.14	344.42	13.90	-31.3	-36.1	10.5	4.55e-03	0	43	0	1198522368	22	6226
2026-01-09 10:11:26.14	344.40	13.80	-31.2	-35.5	10.9	2.74e-03	0	43	0	1200619520	22	5946
2026-01-09 10:11:27.14	344.38	13.70	-31.1	-35.2	11.1	2.41e-03	0	43	0	1202716672	22	5809
2026-01-09 10:11:28.14	344.36	13.60	-31.0	-35.1	11.2	1.67e-03	0	43	0	1204813824	22	5758
2026-01-09 10:11:29.15	344.34	13.50	-31.0	-35.2	11.1	1.54e-03	0	43	0	1206910976	22	5801
2026-01-09 10:11:30.15	344.32	13.40	-31.1	-35.4	10.9	2.38e-03	0	43	0	1207959552	22	5901
2026-01-09 10:11:31.16	344.30	13.30	-30.9	-34.9	11.3	1.70e-03	0	43	0	1210056704	22	5649
2026-01-09 10:11:32.16	344.29	13.20	-31.0	-35.1	11.1	1.73e-03	0	43	0	1212153856	22	5774
2026-01-09 10:11:33.17	344.27	13.10	-31.2	-35.6	10.8	2.21e-03	0	43	0	1214251008	22	5992
2026-01-09 10:11:34.17	344.25	13.00	-31.0	-35.0	11.2	2.20e-03	0	43	0	1216348160	22	5713
2026-01-09 10:11:35.18	344.23	12.90	-30.9	-34.6	11.5	1.69e-03	0	43	0	1217396736	22	5553
2026-01-09 10:11:36.18	344.21	12.81	-31.0	-35.0	11.2	1.28e-03	0	43	0	1219493888	22	5695
2026-01-09 10:11:37.18	344.19	12.71	-31.0	-35.1	11.2	1.26e-03	0	43	0	1221591040	22	5764
2026-01-09 10:11:38.18	344.17	12.61	-31.3	-35.9	10.5	2.70e-03	0	43	0	1223688192	22	6168
2026-01-09 10:11:39.18	344.16	12.52	-31.2	-35.9	10.5	4.22e-03	0	43	0	1225785344	22	6165
2026-01-09 10:11:40.18	344.14	12.42	-31.1	-35.5	10.8	2.61e-03	0	43	0	1226833920	22	5959
2026-01-09 10:11:41.19	344.12	12.33	-31.2	-35.7	10.6	3.17e-03	0	43	0	1228931072	22	6059
2026-01-09 10:11:42.19	344.10	12.23	-31.2	-35.9	10.5	3.98e-03	0	43	0	1231028224	22	6141
2026-01-09 10:11:43.20	344.08	12.14	-31.3	-36.0	10.4	4.72e-03	0	43	0	1233125376	22	6233
2026-01-09 10:11:44.21	344.07	12.04	-31.2	-35.7	10.5	3.59e-03	0	43	0	1234173952	22	6078
2026-01-09 10:11:45.21	344.05	11.95	-31.3	-36.4	10.1	4.91e-03	0	43	0	1236271104	22	6409
2026-01-09 10:11:46.22	344.03	11.86	-31.2	-35.9	10.4	4.99e-03	0	43	0	1238368256	22	6186
2026-01-09 10:11:47.23	344.02	11.76	-31.1	-35.6	10.7	3.54e-03	0	43	0	1240465408	22	6020
2026-01-09 10:11:48.24	344.00	11.67	-31.0	-35.3	10.9	2.62e-03	0	43	0	1242562560	22	5858
2026-01-09 10:11:49.24	343.98	11.58	-31.1	-35.5	10.7	2.67e-03	0	43	0	1243611136	22	5990
2026-01-09 10:11:50.25	343.97	11.48	-31.0	-35.2	10.9	2.59e-03	0	43	0	1245708288	22	5858
2026-01-09 10:11:51.26	343.95	11.39	-31.1	-35.6	10.6	2.50e-03	0	43	0	1247805440	22	6016
2026-01-09 10:11:52.26	343.93	11.30	-31.1	-35.6	10.6	3.35e-03	0	43	0	1249902592	22	6015
2026-01-09 10:11:53.27	343.92	11.21	-31.1	-35.5	10.7	2.92e-03	0	43	0	1251999744	22	5989
2026-01-09 10:11:54.28	343.90	11.12	-31.1	-35.7	10.6	3.27e-03	0	43	0	1254096896	22	6060
2026-01-09 10:11:55.28	343.88	11.03	-31.3	-36.1	10.2	5.16e-03	0	43	0	1255145472	22	6278
2026-01-09 10:11:56.29	343.87	10.94	-31.3	-36.1	10.2	5.93e-03	0	43	0	1257242624	22	6290
2026-01-09 10:11:57.29	343.85	10.85	-31.3	-36.1	10.2	6.08e-03	0	43	0	1259339776	22	6300
2026-01-09 10:11:58.30	343.84	10.76	-31.3	-36.2	10.1	7.10e-03	0	43	0	1261436928	22	6350
2026-01-09 10:11:59.30	343.82	10.67	-31.3	-36.2	10.1	6.81e-03	0	43	0	1262485504	22	6337
2026-01-09 10:12:00.31	343.81	10.58	-31.2	-36.0	10.3	5.94e-03	0	43	0	1264582656	22	6251
2026-01-09 10:12:01.32	343.79	10.49	-31.3	-36.3	10.0	6.86e-03	0	43	0	1266679808	22	6393
2026-01-09 10:12:02.33	343.78	10.40	-31.3	-36.3	10.0	6.70e-03	0	43	0	1268776960	22	6394
2026-01-09 10:12:03.33	343.76	10.31	-31.3	-36.4	9.9	9.05e-03	0	43	0	1270874112	22	6460
2026-01-09 10:12:04.34	343.75	10.23	-31.3	-36.2	10.1	8.53e-03	0	43	0	1271922688	22	6336
2026-01-09 10:12:05.35	343.73	10.14	-31.3	-36.2	10.0	6.89e-03	0	43	0	1274019840	22	6361
2026-01-09 10:12:06.35	343.72	10.05	-31.2	-36.1	10.1	7.45e-03	0	43	0	1276116992	22	6315
2026-01-09 10:12:07.35	343.70	9.97	-31.3	-36.3	10.0	7.97e-03	0	43	0	1278214144	22	6398
2026-01-09 10:12:08.36	343.69	9.88	-31.3	-36.4	9.9	9.30e-03	0	43	0	1280311296	22	6482
2026-01-09 10:12:09.36	343.67	9.79	-31.3	-36.3	10.0	8.71e-03	0	43	0	1281359872	22	6424
2026-01-09 10:12:10.36	343.66	9.71	-31.3	-36.3	9.9	8.43e-03	0	43	0	1283457024	22	6429
2026-01-09 10:12:11.37	343.65	9.62	-31.3	-36.5	9.8	9.52e-03	0	43	0	1285554176	22	6513
