passes_logs/2026/01/09/R2M6_AANII_01/R2M6_AANII_01__20260109_154718_FENGYUN_3E_rec.log

#Pass ID: 20260109_154718_FENGYUN 3E
#Satellite: FENGYUN 3E
#Configuration: FENGYUN 3E
#almurnet v.1.7.20240730
#Start time: 2026-01-09 15:47:19

#Version: 2.2.20231116
#Station: R2M6_AANII_01
#Location: 30.233357 lon 59.946436 lat
#TLE: 1 49008U 21062A   26008.59312205 -.00000223  00000+0 -84486-4 0  9997
#TLE: 2 49008  98.7483  13.7961 0001692 149.3118 210.8157 14.19883502233939

#Time	Az	El	Level	Level2	SNR	BER	BlckErr	Temp	State	Recorded	gain1	gain2
2026-01-09 15:47:19.12	198.34	7.06	-29.2	-31.3	5.4	7.72e-01	0	40	0	0	18	4622
2026-01-09 15:47:20.11	198.41	7.13	-29.9	-32.7	5.1	7.83e-01	0	41	104	0	19	5008
2026-01-09 15:47:21.11	198.48	7.20	-29.5	-31.6	9.3	2.08e-02	0	41	0	0	19	4592
2026-01-09 15:47:22.12	198.56	7.27	-29.7	-32.2	8.9	3.20e-02	0	40	0	7340032	19	4805
2026-01-09 15:47:23.13	198.63	7.34	-29.4	-31.3	9.6	2.05e-02	0	40	0	14680064	19	4482
2026-01-09 15:47:24.13	198.70	7.41	-29.0	-30.3	10.2	7.98e-03	0	41	0	22020096	19	4189
2026-01-09 15:47:25.13	198.78	7.48	-28.8	-30.3	10.6	4.35e-03	0	41	0	28311552	18	4282
2026-01-09 15:47:26.13	198.85	7.55	-28.4	-29.2	11.3	2.74e-03	0	41	0	35651584	18	3959
2026-01-09 15:47:27.14	198.93	7.63	-28.4	-29.8	11.2	1.31e-03	0	41	0	42991616	17	4238
2026-01-09 15:47:28.14	199.00	7.70	-28.2	-29.4	11.5	1.07e-03	0	41	0	50331648	17	4101
2026-01-09 15:47:29.13	199.07	7.77	-28.2	-29.4	11.5	9.53e-04	0	41	0	57671680	17	4094
2026-01-09 15:47:30.13	199.15	7.84	-28.2	-29.3	11.5	6.75e-04	0	41	0	65011712	17	4087
2026-01-09 15:47:31.12	199.22	7.91	-28.6	-30.2	11.0	2.63e-03	0	41	0	72351744	17	4328
2026-01-09 15:47:32.13	199.30	7.98	-28.2	-29.2	11.6	1.48e-03	0	41	0	79691776	17	4048
2026-01-09 15:47:33.14	199.38	8.06	-27.7	-28.5	12.4	1.88e-04	0	41	0	85983232	16	3944
2026-01-09 15:47:34.14	199.45	8.13	-27.2	-27.9	12.8	6.29e-05	0	41	0	93323264	15	3900
2026-01-09 15:47:35.14	199.53	8.20	-26.6	-27.2	13.6	1.94e-05	0	41	0	100663296	14	3821
2026-01-09 15:47:36.15	199.61	8.27	-26.5	-26.9	13.8	6.80e-06	0	41	0	108003328	14	3761
2026-01-09 15:47:37.15	199.69	8.35	-26.3	-26.8	14.1	2.20e-06	0	41	0	115343360	13	3823
2026-01-09 15:47:38.15	199.76	8.42	-26.4	-27.1	13.9	4.50e-06	0	41	0	122683392	13	3896
2026-01-09 15:47:39.16	199.84	8.49	-26.5	-27.3	13.8	2.20e-06	0	41	0	130023424	13	3957
2026-01-09 15:47:40.16	199.92	8.57	-26.5	-27.3	13.8	5.70e-06	0	41	0	137363456	13	3947
2026-01-09 15:47:41.16	200.00	8.64	-26.5	-27.3	13.8	3.40e-06	0	41	0	144703488	13	3960
2026-01-09 15:47:42.16	200.08	8.71	-26.5	-27.3	13.8	6.80e-06	0	41	0	150994944	13	3944
2026-01-09 15:47:43.16	200.16	8.79	-26.3	-26.8	14.1	2.20e-06	0	41	0	158334976	13	3836
2026-01-09 15:47:44.15	200.24	8.86	-26.2	-26.7	14.1	3.40e-06	0	41	0	165675008	13	3807
2026-01-09 15:47:45.16	200.32	8.93	-26.3	-26.8	14.1	1.10e-06	0	41	0	173015040	13	3836
2026-01-09 15:47:46.17	200.40	9.01	-26.5	-27.3	13.8	3.40e-06	0	41	0	180355072	13	3954
2026-01-09 15:47:47.17	200.49	9.08	-26.6	-27.6	13.6	1.02e-05	0	41	0	187695104	13	4031
2026-01-09 15:47:48.17	200.57	9.16	-26.5	-27.3	13.9	9.10e-06	0	41	0	195035136	13	3947
2026-01-09 15:47:49.17	200.65	9.23	-26.2	-26.7	14.2	3.40e-06	0	41	0	202375168	13	3809
2026-01-09 15:47:50.17	200.73	9.31	-26.3	-26.9	14.1	3.40e-06	0	41	0	209715200	13	3851
2026-01-09 15:47:51.18	200.82	9.38	-26.5	-27.4	13.8	8.00e-06	0	41	0	217055232	13	3979
2026-01-09 15:47:52.18	200.90	9.46	-26.2	-26.7	14.2	2.20e-06	0	41	0	224395264	13	3812
2026-01-09 15:47:53.19	200.98	9.53	-26.4	-27.0	14.0	1.10e-06	0	42	0	230686720	13	3888
2026-01-09 15:47:54.19	201.07	9.61	-26.4	-27.0	14.0	4.50e-06	0	41	0	238026752	13	3879
2026-01-09 15:47:55.19	201.15	9.69	-26.3	-27.0	14.0	3.40e-06	0	42	0	245366784	13	3871
2026-01-09 15:47:56.20	201.24	9.76	-26.2	-26.6	14.3	1.10e-06	0	42	0	252706816	13	3786
2026-01-09 15:47:57.20	201.33	9.84	-26.4	-27.0	14.1	2.20e-06	0	42	0	260046848	13	3883
2026-01-09 15:47:58.20	201.41	9.92	-26.4	-27.1	14.0	4.50e-06	0	42	0	267386880	13	3904
2026-01-09 15:47:59.20	201.50	9.99	-26.5	-27.3	13.9	6.80e-06	0	42	0	274726912	13	3963
2026-01-09 15:48:00.21	201.59	10.07	-26.3	-27.0	14.1	0.00e+00	0	42	0	282066944	13	3865
2026-01-09 15:48:01.20	201.67	10.15	-26.7	-27.7	13.6	5.70e-06	0	42	0	289406976	13	4066
2026-01-09 15:48:02.20	201.76	10.22	-26.3	-26.8	14.2	2.20e-06	0	42	0	295698432	13	3814
2026-01-09 15:48:03.20	201.85	10.30	-26.0	-26.3	14.5	5.70e-06	0	42	0	303038464	13	3709
2026-01-09 15:48:04.21	201.94	10.38	-26.1	-26.4	14.4	0.00e+00	0	42	0	310378496	13	3729
2026-01-09 15:48:05.22	202.03	10.46	-26.2	-26.6	14.3	1.10e-06	0	42	0	317718528	13	3779
2026-01-09 15:48:06.22	202.12	10.53	-26.1	-26.4	14.4	5.70e-06	0	42	0	325058560	13	3743
2026-01-09 15:48:07.22	202.21	10.61	-25.9	-26.6	14.6	0.00e+00	0	42	0	332398592	12	3870
2026-01-09 15:48:08.23	202.30	10.69	-25.9	-26.6	14.6	0.00e+00	0	42	0	339738624	12	3868
2026-01-09 15:48:09.23	202.39	10.77	-25.9	-26.5	14.6	0.00e+00	0	42	0	347078656	12	3864
2026-01-09 15:48:10.23	202.48	10.85	-25.9	-26.5	14.6	0.00e+00	0	42	0	354418688	12	3853
2026-01-09 15:48:11.23	202.57	10.93	-26.1	-26.9	14.5	1.10e-06	0	42	0	361758720	12	3947
2026-01-09 15:48:12.23	202.67	11.00	-25.9	-26.4	14.7	0.00e+00	0	42	0	369098752	12	3836
2026-01-09 15:48:13.24	202.76	11.08	-25.9	-26.5	14.7	0.00e+00	0	42	0	376438784	12	3851
2026-01-09 15:48:14.23	202.85	11.16	-26.0	-26.7	14.5	0.00e+00	0	42	0	382730240	12	3917
2026-01-09 15:48:15.23	202.95	11.24	-26.0	-26.7	14.6	0.00e+00	0	42	0	390070272	12	3902
2026-01-09 15:48:16.23	203.04	11.32	-25.8	-26.4	14.7	0.00e+00	0	42	0	397410304	12	3825
2026-01-09 15:48:17.22	203.13	11.40	-25.8	-26.2	14.9	0.00e+00	0	42	0	404750336	12	3766
2026-01-09 15:48:18.23	203.23	11.48	-25.9	-26.5	14.7	0.00e+00	0	42	0	412090368	12	3842
2026-01-09 15:48:19.23	203.33	11.56	-25.8	-26.1	14.9	0.00e+00	0	42	0	419430400	12	3765
2026-01-09 15:48:20.23	203.42	11.64	-25.9	-26.4	14.8	0.00e+00	0	42	0	426770432	12	3830
2026-01-09 15:48:21.23	203.52	11.72	-25.8	-26.3	14.9	1.10e-06	0	42	0	434110464	12	3797
2026-01-09 15:48:22.24	203.62	11.81	-26.0	-26.6	14.6	0.00e+00	0	42	0	440401920	12	3882
2026-01-09 15:48:23.24	203.72	11.89	-25.8	-26.3	14.9	0.00e+00	0	42	0	447741952	12	3795
2026-01-09 15:48:24.24	203.81	11.97	-25.8	-26.2	14.9	0.00e+00	0	42	0	455081984	12	3768
2026-01-09 15:48:25.24	203.91	12.05	-26.0	-26.8	14.6	0.00e+00	0	42	0	462422016	12	3913
2026-01-09 15:48:26.24	204.01	12.13	-25.8	-26.2	14.9	0.00e+00	0	42	0	469762048	12	3784
2026-01-09 15:48:27.24	204.11	12.21	-25.9	-26.4	14.8	0.00e+00	0	42	0	477102080	12	3825
2026-01-09 15:48:28.24	204.21	12.29	-26.2	-27.2	14.4	1.10e-06	0	42	0	484442112	12	4017
2026-01-09 15:48:29.24	204.31	12.38	-26.1	-27.0	14.5	0.00e+00	0	42	0	491782144	12	3974
2026-01-09 15:48:30.25	204.42	12.46	-26.1	-26.9	14.5	0.00e+00	0	42	0	499122176	12	3941
2026-01-09 15:48:31.25	204.52	12.54	-26.0	-26.7	14.6	0.00e+00	0	42	0	505413632	12	3902
2026-01-09 15:48:32.24	204.62	12.62	-25.9	-26.5	14.8	1.10e-06	0	42	0	512753664	12	3840
2026-01-09 15:48:33.24	204.72	12.71	-25.7	-26.0	15.0	0.00e+00	0	42	0	520093696	12	3743
2026-01-09 15:48:34.25	204.83	12.79	-25.6	-25.8	15.2	0.00e+00	0	42	0	527433728	12	3692
2026-01-09 15:48:35.24	204.93	12.87	-25.5	-25.7	15.2	0.00e+00	0	42	0	534773760	12	3658
2026-01-09 15:48:36.25	205.04	12.96	-25.6	-25.8	15.1	0.00e+00	0	42	0	542113792	12	3695
2026-01-09 15:48:37.24	205.14	13.04	-25.7	-25.9	15.1	0.00e+00	0	42	0	549453824	12	3717
2026-01-09 15:48:38.25	205.25	13.13	-25.7	-26.0	15.0	0.00e+00	0	42	0	556793856	12	3742
2026-01-09 15:48:39.25	205.36	13.21	-25.8	-26.2	14.9	0.00e+00	0	42	0	564133888	12	3789
2026-01-09 15:48:40.26	205.46	13.30	-25.6	-25.8	15.1	0.00e+00	0	42	0	570425344	12	3688
2026-01-09 15:48:41.26	205.57	13.38	-25.4	-25.4	15.4	0.00e+00	0	42	0	577765376	12	3598
2026-01-09 15:48:42.26	205.68	13.47	-25.5	-25.5	15.4	0.00e+00	0	42	0	585105408	12	3610
2026-01-09 15:48:43.26	205.79	13.55	-25.4	-25.5	15.4	0.00e+00	0	42	0	592445440	12	3613
2026-01-09 15:48:44.26	205.90	13.64	-25.5	-25.6	15.3	0.00e+00	0	42	0	599785472	12	3647
2026-01-09 15:48:45.26	206.01	13.72	-25.7	-26.0	15.1	0.00e+00	0	42	0	607125504	12	3728
2026-01-09 15:48:46.26	206.12	13.81	-25.5	-25.6	15.4	0.00e+00	0	42	0	614465536	12	3623
2026-01-09 15:48:47.26	206.23	13.89	-25.7	-26.0	15.1	0.00e+00	0	42	0	621805568	12	3727
2026-01-09 15:48:48.26	206.34	13.98	-25.7	-25.9	15.2	0.00e+00	0	42	0	628097024	12	3715
2026-01-09 15:48:49.26	206.46	14.06	-25.7	-26.0	15.1	0.00e+00	0	42	0	635437056	12	3729
2026-01-09 15:48:50.25	206.57	14.15	-25.6	-25.8	15.2	0.00e+00	0	42	0	642777088	12	3683
2026-01-09 15:48:51.26	206.69	14.24	-25.5	-25.7	15.3	0.00e+00	0	42	0	650117120	12	3648
2026-01-09 15:48:52.25	206.80	14.32	-25.7	-26.0	15.2	0.00e+00	0	42	0	657457152	12	3723
2026-01-09 15:48:53.25	206.91	14.41	-25.7	-25.9	15.2	0.00e+00	0	42	0	664797184	12	3708
2026-01-09 15:48:54.25	207.03	14.50	-25.9	-26.4	14.9	0.00e+00	0	42	0	672137216	12	3838
2026-01-09 15:48:55.25	207.15	14.59	-26.0	-26.6	14.8	0.00e+00	0	42	0	679477248	12	3866
2026-01-09 15:48:56.25	207.26	14.67	-25.7	-26.0	15.1	0.00e+00	0	42	0	686817280	12	3730
2026-01-09 15:48:57.26	207.38	14.76	-25.3	-25.6	15.7	0.00e+00	0	42	0	693108736	11	3738
2026-01-09 15:48:58.26	207.50	14.85	-25.1	-25.3	15.9	0.00e+00	0	42	0	700448768	11	3658
2026-01-09 15:48:59.26	207.62	14.94	-25.0	-25.0	16.1	0.00e+00	0	42	0	707788800	11	3596
2026-01-09 15:49:00.26	207.74	15.03	-25.4	-25.8	15.7	0.00e+00	0	42	0	715128832	11	3765
2026-01-09 15:49:01.27	207.86	15.12	-25.3	-25.6	15.7	0.00e+00	0	42	0	722468864	11	3736
2026-01-09 15:49:02.27	207.98	15.21	-25.4	-25.7	15.6	0.00e+00	0	42	0	729808896	11	3765
2026-01-09 15:49:03.27	208.11	15.29	-25.2	-25.4	15.9	0.00e+00	0	42	0	737148928	11	3680
2026-01-09 15:49:04.27	208.23	15.38	-25.2	-25.4	15.8	0.00e+00	0	43	0	744488960	11	3693
2026-01-09 15:49:05.27	208.35	15.47	-25.2	-25.4	15.9	0.00e+00	0	43	0	751828992	11	3680
2026-01-09 15:49:06.27	208.48	15.56	-25.3	-25.5	15.8	0.00e+00	0	42	0	759169024	11	3712
2026-01-09 15:49:07.27	208.60	15.65	-25.2	-25.5	15.8	0.00e+00	0	43	0	766509056	11	3702
2026-01-09 15:49:08.28	208.73	15.74	-25.1	-25.2	16.0	0.00e+00	0	43	0	773849088	11	3640
2026-01-09 15:49:09.28	208.86	15.84	-25.3	-25.5	15.8	0.00e+00	0	43	0	780140544	11	3715
2026-01-09 15:49:10.28	208.98	15.93	-25.0	-25.0	16.1	0.00e+00	0	43	0	787480576	11	3587
2026-01-09 15:49:11.29	209.11	16.02	-24.7	-24.8	16.4	0.00e+00	0	43	0	794820608	10	3654
2026-01-09 15:49:12.30	209.24	16.11	-24.8	-24.9	16.4	0.00e+00	0	43	0	802160640	10	3676
2026-01-09 15:49:13.31	209.37	16.20	-24.6	-24.7	16.5	0.00e+00	0	43	0	809500672	10	3613
2026-01-09 15:49:14.31	209.50	16.29	-24.7	-24.8	16.5	6.80e-06	0	43	0	816840704	10	3645
2026-01-09 15:49:15.31	209.64	16.38	-24.8	-25.0	16.3	0.00e+00	0	42	0	824180736	10	3699
2026-01-09 15:49:16.31	209.77	16.48	-25.0	-25.4	16.1	0.00e+00	0	43	0	831520768	10	3788
2026-01-09 15:49:17.31	209.90	16.57	-24.8	-25.1	16.3	0.00e+00	0	43	0	837812224	10	3709
2026-01-09 15:49:18.31	210.03	16.66	-24.8	-25.0	16.4	0.00e+00	0	43	0	845152256	10	3690
2026-01-09 15:49:19.31	210.17	16.75	-24.9	-25.2	16.3	0.00e+00	0	42	0	852492288	10	3724
2026-01-09 15:49:20.31	210.30	16.85	-24.8	-25.0	16.4	2.20e-06	0	43	0	859832320	10	3694
2026-01-09 15:49:21.32	210.44	16.94	-25.0	-25.4	16.2	0.00e+00	0	42	0	867172352	10	3782
2026-01-09 15:49:22.31	210.57	17.03	-24.7	-24.7	16.5	0.00e+00	0	43	0	874512384	10	3632
2026-01-09 15:49:23.32	210.71	17.13	-24.8	-24.9	16.4	3.40e-06	0	43	0	881852416	10	3676
2026-01-09 15:49:24.32	210.85	17.22	-24.9	-25.3	16.3	0.00e+00	0	43	0	889192448	10	3761
2026-01-09 15:49:25.33	210.99	17.31	-25.1	-25.8	16.0	0.00e+00	0	42	0	896532480	10	3874
2026-01-09 15:49:26.32	211.13	17.41	-24.9	-25.2	16.3	3.40e-06	0	43	0	903872512	10	3732
2026-01-09 15:49:27.32	211.27	17.50	-24.8	-25.1	16.4	0.00e+00	0	43	0	911212544	10	3720
2026-01-09 15:49:28.32	211.41	17.60	-25.0	-25.4	16.2	0.00e+00	0	43	0	918552576	10	3776
2026-01-09 15:49:29.32	211.56	17.69	-25.0	-25.4	16.2	2.20e-06	0	43	0	924844032	10	3783
2026-01-09 15:49:30.33	211.70	17.79	-24.7	-24.8	16.5	0.00e+00	0	43	0	932184064	10	3651
2026-01-09 15:49:31.33	211.84	17.88	-24.6	-24.6	16.7	0.00e+00	0	43	0	939524096	10	3608
2026-01-09 15:49:32.34	211.99	17.98	-24.5	-24.5	16.7	0.00e+00	0	43	0	946864128	10	3573
2026-01-09 15:49:33.34	212.14	18.07	-24.5	-24.3	16.8	0.00e+00	0	43	0	954204160	10	3530
2026-01-09 15:49:34.35	212.29	18.17	-24.5	-24.4	16.8	0.00e+00	0	43	0	961544192	10	3547
2026-01-09 15:49:35.35	212.43	18.26	-24.4	-24.3	16.8	0.00e+00	0	43	0	968884224	10	3527
2026-01-09 15:49:36.36	212.58	18.36	-24.3	-24.4	17.0	0.00e+00	0	43	0	976224256	9	3656
2026-01-09 15:49:37.36	212.73	18.46	-24.1	-24.1	17.2	0.00e+00	0	43	0	983564288	9	3578
2026-01-09 15:49:38.36	212.88	18.55	-24.1	-24.1	17.2	0.00e+00	0	43	0	989855744	9	3584
2026-01-09 15:49:39.36	213.04	18.65	-24.2	-24.2	17.1	0.00e+00	0	43	0	997195776	9	3612
2026-01-09 15:49:40.36	213.19	18.75	-24.2	-24.3	17.1	0.00e+00	0	43	0	1004535808	9	3632
2026-01-09 15:49:41.36	213.34	18.84	-24.2	-24.2	17.1	0.00e+00	0	43	0	1011875840	9	3596
2026-01-09 15:49:42.36	213.50	18.94	-24.2	-24.3	17.1	0.00e+00	0	43	0	1019215872	9	3633
2026-01-09 15:49:43.36	213.65	19.04	-24.2	-24.1	17.2	0.00e+00	0	43	0	1026555904	9	3592
2026-01-09 15:49:44.35	213.81	19.13	-24.1	-24.1	17.2	0.00e+00	0	43	0	1033895936	9	3580
2026-01-09 15:49:45.36	213.96	19.23	-24.3	-24.5	17.0	0.00e+00	0	43	0	1041235968	9	3681
2026-01-09 15:49:46.36	214.12	19.33	-24.3	-24.4	17.1	0.00e+00	0	43	0	1047527424	9	3643
2026-01-09 15:49:47.37	214.28	19.43	-24.3	-24.5	17.0	0.00e+00	0	43	0	1055916032	9	3677
2026-01-09 15:49:48.38	214.45	19.53	-24.2	-24.3	17.1	0.00e+00	0	43	0	1063256064	9	3632
2026-01-09 15:49:49.38	214.61	19.63	-24.2	-24.2	17.2	0.00e+00	0	43	0	1069547520	9	3610
2026-01-09 15:49:50.37	214.77	19.72	-24.4	-24.6	17.0	0.00e+00	0	43	0	1076887552	9	3700
2026-01-09 15:49:51.38	214.93	19.82	-24.5	-24.8	16.8	0.00e+00	0	43	0	1084227584	9	3752
2026-01-09 15:49:52.38	215.10	19.92	-24.2	-24.3	17.1	0.00e+00	0	43	0	1091567616	9	3638
2026-01-09 15:49:53.39	215.26	20.02	-24.2	-24.3	17.1	0.00e+00	0	43	0	1098907648	9	3642
2026-01-09 15:49:54.39	215.43	20.12	-24.3	-24.5	17.1	0.00e+00	0	43	0	1106247680	9	3677
2026-01-09 15:49:55.39	215.60	20.22	-24.3	-24.5	17.1	0.00e+00	0	43	0	1113587712	9	3670
2026-01-09 15:49:56.39	215.77	20.32	-24.4	-24.6	17.0	0.00e+00	0	43	0	1120927744	9	3689
2026-01-09 15:49:57.40	215.94	20.42	-24.3	-24.3	17.1	0.00e+00	0	43	0	1128267776	9	3638
2026-01-09 15:49:58.40	216.11	20.52	-24.0	-23.8	17.4	0.00e+00	0	43	0	1134559232	9	3528
2026-01-09 15:49:59.40	216.28	20.62	-24.0	-23.8	17.4	0.00e+00	0	43	0	1141899264	9	3510
2026-01-09 15:50:00.40	216.45	20.72	-24.1	-24.0	17.3	0.00e+00	0	43	0	1149239296	9	3565
2026-01-09 15:50:01.40	216.63	20.82	-24.0	-23.9	17.4	0.00e+00	0	43	0	1156579328	9	3529
2026-01-09 15:50:02.41	216.80	20.92	-23.8	-23.9	17.7	0.00e+00	0	43	0	1163919360	8	3632
2026-01-09 15:50:03.42	216.98	21.02	-23.9	-24.2	17.5	0.00e+00	0	43	0	1171259392	8	3698
2026-01-09 15:50:04.42	217.16	21.12	-24.0	-24.3	17.4	0.00e+00	0	43	0	1178599424	8	3729
2026-01-09 15:50:05.42	217.34	21.22	-24.0	-24.2	17.5	0.00e+00	0	43	0	1185939456	8	3703
2026-01-09 15:50:06.43	217.52	21.32	-24.1	-24.5	17.4	0.00e+00	0	43	0	1193279488	8	3765
2026-01-09 15:50:07.43	217.70	21.42	-24.1	-24.5	17.3	0.00e+00	0	43	0	1200619520	8	3768
2026-01-09 15:50:08.43	217.88	21.52	-24.0	-24.3	17.5	0.00e+00	0	43	0	1207959552	8	3721
2026-01-09 15:50:09.43	218.06	21.62	-24.0	-24.2	17.5	0.00e+00	0	43	0	1214251008	8	3710
2026-01-09 15:50:10.43	218.25	21.73	-24.1	-24.6	17.3	0.00e+00	0	43	0	1221591040	8	3798
2026-01-09 15:50:11.43	218.43	21.83	-24.1	-24.6	17.3	0.00e+00	0	43	0	1228931072	8	3797
2026-01-09 15:50:12.44	218.62	21.93	-23.9	-24.1	17.5	0.00e+00	0	43	0	1236271104	8	3695
2026-01-09 15:50:13.44	218.81	22.03	-23.8	-24.0	17.6	0.00e+00	0	43	0	1243611136	8	3660
2026-01-09 15:50:14.44	219.00	22.13	-23.9	-24.2	17.5	0.00e+00	0	43	0	1250951168	8	3705
2026-01-09 15:50:15.44	219.19	22.23	-23.9	-24.1	17.6	0.00e+00	0	43	0	1258291200	8	3679
2026-01-09 15:50:16.43	219.38	22.33	-23.7	-23.7	17.8	0.00e+00	0	43	0	1265631232	8	3602
2026-01-09 15:50:17.44	219.57	22.44	-23.9	-24.1	17.6	0.00e+00	0	43	0	1272971264	8	3693
2026-01-09 15:50:18.44	219.76	22.54	-23.6	-23.6	17.8	0.00e+00	0	43	0	1279262720	8	3565
2026-01-09 15:50:19.45	219.96	22.64	-23.7	-23.6	17.8	0.00e+00	0	43	0	1286602752	8	3581
2026-01-09 15:50:20.44	220.16	22.74	-23.7	-23.7	17.8	0.00e+00	0	43	0	1293942784	8	3598
2026-01-09 15:50:21.45	220.35	22.85	-23.7	-23.7	17.9	0.00e+00	0	43	0	1301282816	8	3589
2026-01-09 15:50:22.45	220.55	22.95	-23.8	-23.8	17.8	0.00e+00	0	43	0	1308622848	8	3618
2026-01-09 15:50:23.45	220.75	23.05	-23.8	-23.8	17.7	0.00e+00	0	43	0	1315962880	8	3616
2026-01-09 15:50:24.46	220.96	23.15	-23.7	-23.6	17.9	0.00e+00	0	43	0	1323302912	8	3570
2026-01-09 15:50:25.46	221.16	23.26	-23.8	-23.8	17.8	0.00e+00	0	43	0	1330642944	8	3605
2026-01-09 15:50:26.47	221.37	23.36	-23.7	-23.6	17.9	0.00e+00	0	43	0	1337982976	8	3567
2026-01-09 15:50:27.47	221.57	23.46	-23.7	-23.7	17.8	0.00e+00	0	43	0	1344274432	8	3597
2026-01-09 15:50:28.47	221.78	23.56	-23.8	-23.9	17.7	0.00e+00	0	43	0	1352663040	8	3639
2026-01-09 15:50:29.48	221.99	23.67	-23.8	-24.0	17.7	0.00e+00	0	43	0	1360003072	8	3659
2026-01-09 15:50:30.48	222.20	23.77	-23.7	-23.8	17.8	0.00e+00	0	43	0	1366294528	8	3616
2026-01-09 15:50:31.49	222.41	23.87	-23.8	-23.8	17.8	0.00e+00	0	43	0	1373634560	8	3622
2026-01-09 15:50:32.49	222.62	23.98	-23.9	-24.1	17.6	0.00e+00	0	43	0	1380974592	8	3680
2026-01-09 15:50:33.49	222.83	24.08	-23.9	-24.1	17.7	0.00e+00	0	43	0	1388314624	8	3675
2026-01-09 15:50:34.50	223.05	24.18	-24.0	-24.3	17.6	0.00e+00	0	43	0	1395654656	8	3720
2026-01-09 15:50:35.50	223.27	24.28	-24.2	-24.8	17.3	0.00e+00	0	43	0	1402994688	8	3837
2026-01-09 15:50:36.50	223.48	24.39	-24.1	-24.6	17.4	0.00e+00	0	43	0	1410334720	8	3803
2026-01-09 15:50:37.50	223.70	24.49	-23.8	-24.0	17.7	0.00e+00	0	43	0	1417674752	8	3657
2026-01-09 15:50:38.50	223.92	24.59	-23.7	-23.6	17.9	0.00e+00	0	43	0	1423966208	8	3582
2026-01-09 15:50:39.51	224.15	24.69	-23.6	-23.4	18.0	0.00e+00	0	43	0	1431306240	8	3528
2026-01-09 15:50:40.50	224.37	24.80	-23.8	-23.9	17.8	0.00e+00	0	43	0	1438646272	8	3632
2026-01-09 15:50:41.51	224.59	24.90	-23.5	-23.2	18.1	0.00e+00	0	43	0	1445986304	8	3490
2026-01-09 15:50:42.50	224.82	25.00	-23.3	-23.4	18.2	0.00e+00	0	43	0	1453326336	7	3624
2026-01-09 15:50:43.51	225.05	25.10	-23.5	-23.8	18.0	0.00e+00	0	43	0	1460666368	7	3712
2026-01-09 15:50:44.51	225.28	25.21	-23.5	-23.8	18.1	0.00e+00	0	43	0	1468006400	7	3705
2026-01-09 15:50:45.52	225.51	25.31	-23.3	-23.3	18.3	0.00e+00	0	43	0	1475346432	7	3596
2026-01-09 15:50:46.52	225.74	25.41	-23.3	-23.4	18.3	0.00e+00	0	43	0	1482686464	7	3629
2026-01-09 15:50:47.52	225.97	25.51	-23.3	-23.4	18.3	0.00e+00	0	43	0	1490026496	7	3624
2026-01-09 15:50:48.52	226.21	25.61	-23.4	-23.5	18.2	0.00e+00	0	43	0	1497366528	7	3640
2026-01-09 15:50:49.52	226.44	25.72	-23.3	-23.3	18.3	0.00e+00	0	43	0	1504706560	7	3615
2026-01-09 15:50:50.53	226.68	25.82	-23.3	-23.2	18.3	0.00e+00	0	43	0	1510998016	7	3597
2026-01-09 15:50:51.53	226.92	25.92	-23.3	-23.4	18.3	0.00e+00	0	43	0	1518338048	7	3636
2026-01-09 15:50:52.54	227.17	26.02	-23.3	-23.3	18.3	0.00e+00	0	43	0	1525678080	7	3618
2026-01-09 15:50:53.54	227.41	26.12	-23.2	-23.2	18.3	0.00e+00	0	43	0	1533018112	7	3591
2026-01-09 15:50:54.54	227.65	26.22	-23.3	-23.3	18.3	0.00e+00	0	43	0	1540358144	7	3612
2026-01-09 15:50:55.54	227.90	26.32	-23.5	-23.8	18.1	0.00e+00	0	43	0	1547698176	7	3711
2026-01-09 15:50:56.54	228.14	26.42	-23.5	-23.8	18.0	0.00e+00	0	43	0	1555038208	7	3725
2026-01-09 15:50:57.54	228.39	26.52	-23.4	-23.6	18.2	0.00e+00	0	43	0	1562378240	7	3666
2026-01-09 15:50:58.54	228.64	26.62	-23.4	-23.6	18.2	0.00e+00	0	43	0	1569718272	7	3667
2026-01-09 15:50:59.55	228.89	26.73	-23.5	-23.8	18.1	0.00e+00	0	43	0	1576009728	7	3710
2026-01-09 15:51:00.54	229.14	26.82	-23.4	-23.5	18.2	0.00e+00	0	43	0	1583349760	7	3659
2026-01-09 15:51:01.54	229.40	26.92	-23.5	-23.7	18.1	0.00e+00	0	43	0	1590689792	7	3698
2026-01-09 15:51:02.54	229.65	27.02	-23.5	-23.7	18.1	0.00e+00	0	43	0	1598029824	7	3694
2026-01-09 15:51:03.53	229.91	27.12	-23.5	-23.7	18.1	0.00e+00	0	43	0	1605369856	7	3703
2026-01-09 15:51:04.54	230.17	27.22	-23.4	-23.6	18.2	0.00e+00	0	43	0	1612709888	7	3664
2026-01-09 15:51:05.54	230.43	27.32	-23.1	-23.0	18.5	0.00e+00	0	43	0	1620049920	7	3537
2026-01-09 15:51:06.55	230.70	27.42	-23.0	-22.8	18.6	0.00e+00	0	43	0	1627389952	7	3497
2026-01-09 15:51:07.54	230.96	27.51	-23.1	-22.9	18.5	0.00e+00	0	43	0	1633681408	7	3522
2026-01-09 15:51:08.55	231.22	27.61	-23.1	-22.9	18.5	0.00e+00	0	43	0	1641021440	7	3527
2026-01-09 15:51:09.55	231.49	27.71	-23.1	-22.8	18.6	0.00e+00	0	43	0	1648361472	7	3508
2026-01-09 15:51:10.56	231.76	27.81	-23.0	-22.8	18.6	0.00e+00	0	43	0	1655701504	7	3494
2026-01-09 15:51:11.56	232.03	27.91	-23.0	-22.8	18.6	0.00e+00	0	43	0	1663041536	7	3495
2026-01-09 15:51:12.56	232.30	28.00	-23.2	-23.1	18.4	0.00e+00	0	43	0	1670381568	7	3571
2026-01-09 15:51:13.56	232.58	28.10	-23.4	-23.6	18.2	0.00e+00	0	43	0	1677721600	7	3674
2026-01-09 15:51:14.57	232.85	28.19	-23.1	-22.9	18.5	0.00e+00	0	43	0	1685061632	7	3527
2026-01-09 15:51:15.57	233.13	28.29	-23.2	-23.2	18.4	0.00e+00	0	43	0	1692401664	7	3579
2026-01-09 15:51:16.57	233.41	28.38	-23.3	-23.4	18.3	0.00e+00	0	43	0	1699741696	7	3629
2026-01-09 15:51:17.57	233.69	28.48	-23.4	-23.5	18.3	0.00e+00	0	43	0	1707081728	7	3655
2026-01-09 15:51:18.57	233.97	28.57	-23.5	-23.7	18.1	0.00e+00	0	43	0	1714421760	7	3694
2026-01-09 15:51:19.57	234.25	28.67	-23.5	-23.8	18.1	0.00e+00	0	43	0	1720713216	7	3707
2026-01-09 15:51:20.58	234.54	28.76	-23.5	-23.8	18.1	0.00e+00	0	43	0	1728053248	7	3714
2026-01-09 15:51:21.58	234.83	28.85	-23.5	-23.7	18.2	0.00e+00	0	43	0	1735393280	7	3697
2026-01-09 15:51:22.58	235.11	28.95	-23.4	-23.5	18.3	0.00e+00	0	43	0	1742733312	7	3642
2026-01-09 15:51:23.58	235.40	29.04	-23.3	-23.2	18.4	0.00e+00	0	43	0	1750073344	7	3585
2026-01-09 15:51:24.58	235.69	29.13	-23.2	-23.1	18.5	0.00e+00	0	43	0	1757413376	7	3560
2026-01-09 15:51:25.59	235.99	29.22	-23.3	-23.2	18.4	0.00e+00	0	43	0	1764753408	7	3585
2026-01-09 15:51:26.59	236.28	29.31	-23.3	-23.3	18.4	0.00e+00	0	43	0	1772093440	7	3603
2026-01-09 15:51:27.59	236.58	29.40	-23.3	-23.3	18.4	0.00e+00	0	43	0	1778384896	7	3596
2026-01-09 15:51:28.59	236.88	29.49	-23.5	-23.7	18.2	0.00e+00	0	43	0	1785724928	7	3693
2026-01-09 15:51:29.59	237.18	29.58	-23.2	-23.2	18.5	0.00e+00	0	43	0	1793064960	7	3574
2026-01-09 15:51:30.60	237.48	29.67	-23.0	-22.7	18.7	0.00e+00	0	43	0	1800404992	7	3468
2026-01-09 15:51:31.60	237.78	29.75	-23.0	-22.7	18.7	0.00e+00	0	43	0	1807745024	7	3479
2026-01-09 15:51:32.60	238.09	29.84	-22.8	-22.8	18.8	0.00e+00	0	43	0	1815085056	6	3602
2026-01-09 15:51:33.61	238.40	29.93	-22.9	-23.1	18.8	0.00e+00	0	43	0	1822425088	6	3659
2026-01-09 15:51:34.61	238.70	30.01	-23.0	-23.2	18.7	0.00e+00	0	43	0	1829765120	6	3683
2026-01-09 15:51:35.61	239.01	30.10	-23.1	-23.5	18.6	0.00e+00	0	43	0	1837105152	6	3742
2026-01-09 15:51:36.61	239.32	30.18	-23.0	-23.3	18.7	0.00e+00	0	43	0	1843396608	6	3695
2026-01-09 15:51:37.61	239.63	30.27	-23.1	-23.5	18.5	0.00e+00	0	43	0	1850736640	6	3749
2026-01-09 15:51:38.61	239.95	30.35	-23.3	-23.8	18.4	0.00e+00	0	43	0	1858076672	6	3824
2026-01-09 15:51:39.61	240.26	30.43	-23.5	-24.3	18.2	0.00e+00	0	43	0	1865416704	6	3930
2026-01-09 15:51:40.62	240.58	30.52	-23.6	-23.9	18.1	0.00e+00	0	43	0	1872756736	7	3729
2026-01-09 15:51:41.61	240.90	30.60	-23.3	-23.3	18.4	0.00e+00	0	43	0	1880096768	7	3612
2026-01-09 15:51:42.62	241.22	30.68	-23.2	-23.2	18.5	0.00e+00	0	43	0	1887436800	7	3581
2026-01-09 15:51:43.63	241.54	30.76	-23.4	-23.5	18.3	0.00e+00	0	43	0	1894776832	7	3648
2026-01-09 15:51:44.63	241.87	30.84	-23.5	-23.7	18.2	0.00e+00	0	43	0	1902116864	7	3690
2026-01-09 15:51:45.63	242.19	30.91	-23.4	-23.6	18.3	0.00e+00	0	43	0	1909456896	7	3671
2026-01-09 15:51:46.63	242.52	30.99	-23.3	-23.2	18.4	0.00e+00	0	43	0	1916796928	7	3596
2026-01-09 15:51:47.63	242.85	31.07	-23.3	-23.3	18.4	0.00e+00	0	43	0	1924136960	7	3598
2026-01-09 15:51:48.64	243.18	31.14	-23.3	-23.3	18.4	0.00e+00	0	43	0	1930428416	7	3610
2026-01-09 15:51:49.64	243.51	31.22	-23.2	-23.1	18.5	0.00e+00	0	43	0	1937768448	7	3564
2026-01-09 15:51:50.64	243.84	31.29	-23.0	-22.8	18.7	0.00e+00	0	43	0	1945108480	7	3494
2026-01-09 15:51:51.65	244.18	31.37	-23.2	-23.1	18.6	0.00e+00	0	43	0	1952448512	7	3553
2026-01-09 15:51:52.65	244.51	31.44	-23.0	-22.8	18.7	0.00e+00	0	43	0	1959788544	7	3497
2026-01-09 15:51:53.66	244.85	31.51	-23.1	-22.9	18.6	0.00e+00	0	43	0	1967128576	7	3524
2026-01-09 15:51:54.66	245.19	31.58	-23.0	-22.7	18.7	2.20e-06	0	43	0	1974468608	7	3484
2026-01-09 15:51:55.66	245.53	31.65	-23.0	-22.8	18.7	0.00e+00	0	43	0	1981808640	7	3490
2026-01-09 15:51:56.66	245.87	31.72	-23.0	-22.7	18.7	0.00e+00	0	43	0	1988100096	7	3483
2026-01-09 15:51:57.67	246.22	31.79	-23.1	-23.0	18.6	0.00e+00	0	43	0	1996488704	7	3536
2026-01-09 15:51:58.67	246.56	31.85	-23.1	-22.9	18.7	0.00e+00	0	43	0	2003828736	7	3518
2026-01-09 15:51:59.68	246.91	31.92	-23.0	-22.8	18.7	0.00e+00	0	43	0	2010120192	7	3486
2026-01-09 15:52:00.67	247.25	31.98	-23.1	-22.8	18.7	0.00e+00	0	43	0	2017460224	7	3496
2026-01-09 15:52:01.68	247.60	32.05	-23.3	-23.3	18.5	0.00e+00	0	43	0	2024800256	7	3598
2026-01-09 15:52:02.68	247.95	32.11	-23.3	-23.3	18.4	0.00e+00	0	43	0	2032140288	7	3610
2026-01-09 15:52:03.68	248.30	32.17	-23.1	-22.9	18.6	0.00e+00	0	43	0	2039480320	7	3524
2026-01-09 15:52:04.68	248.65	32.23	-22.9	-22.9	18.9	0.00e+00	0	43	0	2046820352	6	3623
2026-01-09 15:52:05.69	249.01	32.29	-22.9	-22.9	18.9	0.00e+00	0	43	0	2054160384	6	3609
2026-01-09 15:52:06.69	249.36	32.35	-23.1	-23.4	18.7	0.00e+00	0	43	0	2061500416	6	3725
2026-01-09 15:52:07.70	249.72	32.41	-22.8	-22.8	18.9	0.00e+00	0	43	0	2068840448	6	3591
2026-01-09 15:52:08.70	250.08	32.46	-22.6	-22.4	19.2	0.00e+00	0	43	0	2075131904	6	3505
2026-01-09 15:52:09.71	250.44	32.52	-22.7	-22.5	19.1	0.00e+00	0	43	0	2082471936	6	3537
2026-01-09 15:52:10.71	250.80	32.57	-22.9	-22.9	18.9	0.00e+00	0	43	0	2089811968	6	3614
2026-01-09 15:52:11.71	251.16	32.62	-23.0	-23.2	18.7	0.00e+00	0	43	0	2097152000	6	3692
2026-01-09 15:52:12.71	251.52	32.68	-23.1	-23.5	18.6	1.10e-06	0	43	0	2104492032	6	3743
2026-01-09 15:52:13.71	251.88	32.73	-23.1	-23.4	18.6	0.00e+00	0	43	0	2111832064	6	3730
2026-01-09 15:52:14.72	252.25	32.78	-23.1	-23.5	18.6	0.00e+00	0	43	0	2119172096	6	3749
2026-01-09 15:52:15.72	252.61	32.82	-23.1	-23.4	18.6	0.00e+00	0	43	0	2126512128	6	3730
2026-01-09 15:52:16.72	252.98	32.87	-23.1	-23.4	18.7	0.00e+00	0	43	0	2133852160	6	3721
2026-01-09 15:52:17.73	253.35	32.92	-23.2	-23.6	18.5	0.00e+00	0	43	0	2141192192	6	3772
2026-01-09 15:52:18.73	253.72	32.96	-23.4	-24.0	18.4	0.00e+00	0	43	0	2148532224	6	3855
2026-01-09 15:52:19.73	254.09	33.00	-23.4	-24.1	18.3	0.00e+00	0	43	0	2155872256	6	3891
2026-01-09 15:52:20.73	254.45	33.05	-23.5	-24.3	18.2	0.00e+00	0	43	0	2162163712	6	3928
2026-01-09 15:52:21.73	254.82	33.09	-23.5	-24.2	18.2	0.00e+00	0	43	0	2169503744	6	3910
2026-01-09 15:52:22.73	255.20	33.13	-23.3	-23.8	18.5	0.00e+00	0	43	0	2176843776	6	3816
2026-01-09 15:52:23.73	255.57	33.17	-23.1	-23.3	18.7	0.00e+00	0	43	0	2184183808	6	3708
2026-01-09 15:52:24.73	255.94	33.20	-23.1	-23.5	18.6	0.00e+00	0	43	0	2191523840	6	3741
2026-01-09 15:52:25.73	256.32	33.24	-23.0	-23.1	18.8	0.00e+00	0	43	0	2198863872	6	3668
2026-01-09 15:52:26.73	256.69	33.27	-23.2	-23.5	18.6	0.00e+00	0	43	0	2206203904	6	3754
2026-01-09 15:52:27.72	257.06	33.30	-23.0	-23.2	18.8	4.50e-06	0	43	0	2213543936	6	3685
2026-01-09 15:52:28.73	257.44	33.34	-23.0	-23.2	18.7	0.00e+00	0	43	0	2219835392	6	3694
2026-01-09 15:52:29.73	257.82	33.37	-23.1	-23.4	18.6	0.00e+00	0	43	0	2227175424	6	3736
2026-01-09 15:52:30.73	258.20	33.40	-23.2	-23.6	18.6	0.00e+00	0	43	0	2234515456	6	3774
2026-01-09 15:52:31.73	258.57	33.42	-23.2	-23.7	18.5	0.00e+00	0	43	0	2241855488	6	3797
2026-01-09 15:52:32.73	258.95	33.45	-23.1	-23.5	18.6	0.00e+00	0	43	0	2249195520	6	3740
2026-01-09 15:52:33.73	259.33	33.48	-23.2	-23.7	18.5	0.00e+00	0	43	0	2256535552	6	3783
2026-01-09 15:52:34.74	259.71	33.50	-23.1	-23.4	18.7	0.00e+00	0	43	0	2263875584	6	3730
2026-01-09 15:52:35.74	260.10	33.52	-23.1	-23.5	18.6	0.00e+00	0	43	0	2271215616	6	3745
2026-01-09 15:52:36.74	260.48	33.54	-23.2	-23.5	18.6	0.00e+00	0	43	0	2278555648	6	3760
2026-01-09 15:52:37.74	260.86	33.56	-23.3	-23.8	18.5	0.00e+00	0	43	0	2284847104	6	3809
2026-01-09 15:52:38.75	261.24	33.58	-23.2	-23.7	18.5	0.00e+00	0	43	0	2292187136	6	3793
2026-01-09 15:52:39.75	261.62	33.60	-23.2	-23.6	18.6	0.00e+00	0	43	0	2299527168	6	3779
2026-01-09 15:52:40.74	262.00	33.61	-23.3	-23.8	18.5	0.00e+00	0	43	0	2306867200	6	3816
2026-01-09 15:52:41.74	262.39	33.63	-23.1	-23.5	18.6	0.00e+00	0	43	0	2314207232	6	3737
2026-01-09 15:52:42.74	262.77	33.64	-23.1	-23.5	18.6	0.00e+00	0	43	0	2321547264	6	3745
2026-01-09 15:52:43.74	263.15	33.65	-23.1	-23.4	18.7	0.00e+00	0	43	0	2328887296	6	3736
2026-01-09 15:52:44.73	263.53	33.66	-23.1	-23.4	18.7	0.00e+00	0	43	0	2336227328	6	3730
2026-01-09 15:52:45.73	263.92	33.67	-23.0	-23.2	18.8	0.00e+00	0	43	0	2343567360	6	3680
2026-01-09 15:52:46.72	264.30	33.68	-23.1	-23.4	18.7	0.00e+00	0	43	0	2349858816	6	3716
2026-01-09 15:52:47.72	264.68	33.68	-23.2	-23.6	18.6	0.00e+00	0	43	0	2357198848	6	3762
2026-01-09 15:52:48.73	265.07	33.69	-23.3	-23.7	18.5	0.00e+00	0	43	0	2364538880	6	3802
2026-01-09 15:52:49.73	265.45	33.69	-23.1	-23.4	18.7	0.00e+00	0	43	0	2371878912	6	3716
2026-01-09 15:52:50.74	265.84	33.69	-23.2	-23.6	18.6	0.00e+00	0	43	0	2379218944	6	3772
2026-01-09 15:52:51.74	266.23	33.69	-23.0	-23.2	18.8	0.00e+00	0	43	0	2386558976	6	3676
2026-01-09 15:52:52.74	266.61	33.69	-22.9	-23.1	18.8	0.00e+00	0	43	0	2393899008	6	3657
2026-01-09 15:52:53.74	266.99	33.69	-23.0	-23.1	18.8	0.00e+00	0	43	0	2401239040	6	3669
2026-01-09 15:52:54.75	267.38	33.68	-23.1	-23.3	18.7	0.00e+00	0	43	0	2407530496	6	3706
2026-01-09 15:52:55.75	267.77	33.68	-23.0	-23.2	18.8	0.00e+00	0	43	0	2414870528	6	3671
2026-01-09 15:52:56.75	268.15	33.67	-22.9	-23.0	18.9	0.00e+00	0	43	0	2422210560	6	3628
2026-01-09 15:52:57.75	268.53	33.66	-23.0	-23.1	18.8	0.00e+00	0	43	0	2429550592	6	3669
2026-01-09 15:52:58.75	268.92	33.65	-23.1	-23.4	18.7	0.00e+00	0	43	0	2436890624	6	3722
2026-01-09 15:52:59.75	269.30	33.64	-23.1	-23.4	18.7	0.00e+00	0	43	0	2444230656	6	3733
2026-01-09 15:53:00.76	269.69	33.63	-23.2	-23.6	18.6	0.00e+00	0	43	0	2451570688	6	3766
2026-01-09 15:53:01.75	270.07	33.61	-23.3	-23.7	18.5	0.00e+00	0	43	0	2458910720	6	3798
2026-01-09 15:53:02.76	270.45	33.60	-23.5	-24.2	18.3	0.00e+00	0	43	0	2466250752	6	3916
2026-01-09 15:53:03.76	270.83	33.58	-23.4	-24.0	18.4	0.00e+00	0	43	0	2472542208	6	3852
2026-01-09 15:53:04.77	271.22	33.56	-23.8	-24.3	18.0	0.00e+00	0	43	0	2479882240	7	3820
2026-01-09 15:53:05.76	271.60	33.54	-23.7	-24.2	18.0	0.00e+00	0	43	0	2487222272	7	3797
2026-01-09 15:53:06.77	271.98	33.52	-23.5	-23.8	18.2	0.00e+00	0	43	0	2494562304	7	3716
2026-01-09 15:53:07.77	272.36	33.50	-23.4	-23.5	18.4	0.00e+00	0	43	0	2501902336	7	3640
2026-01-09 15:53:08.77	272.74	33.48	-23.6	-24.0	18.1	0.00e+00	0	43	0	2509242368	7	3761
2026-01-09 15:53:09.78	273.12	33.45	-23.6	-23.9	18.1	0.00e+00	0	43	0	2516582400	7	3742
2026-01-09 15:53:10.78	273.50	33.43	-23.4	-23.6	18.3	0.00e+00	0	43	0	2523922432	7	3661
2026-01-09 15:53:11.78	273.88	33.40	-23.4	-23.6	18.3	0.00e+00	0	43	0	2531262464	7	3658
2026-01-09 15:53:12.78	274.26	33.37	-23.4	-23.5	18.4	0.00e+00	0	43	0	2538602496	7	3648
2026-01-09 15:53:13.78	274.63	33.34	-23.3	-23.3	18.5	0.00e+00	0	43	0	2545942528	7	3603
2026-01-09 15:53:14.78	275.01	33.31	-22.9	-22.5	18.8	0.00e+00	0	43	0	2552233984	7	3438
2026-01-09 15:53:15.78	275.38	33.27	-22.8	-22.8	19.0	0.00e+00	0	43	0	2559574016	6	3586
2026-01-09 15:53:16.78	275.76	33.24	-22.7	-22.5	19.1	0.00e+00	0	43	0	2566914048	6	3542
2026-01-09 15:53:17.78	276.13	33.20	-22.8	-22.7	18.9	0.00e+00	0	43	0	2574254080	6	3563
2026-01-09 15:53:18.79	276.51	33.17	-22.9	-22.9	18.9	0.00e+00	0	43	0	2581594112	6	3614
2026-01-09 15:53:19.79	276.88	33.13	-23.1	-23.3	18.7	0.00e+00	0	43	0	2588934144	6	3703
2026-01-09 15:53:20.80	277.25	33.09	-23.3	-23.8	18.5	0.00e+00	0	43	0	2596274176	6	3815
2026-01-09 15:53:21.80	277.62	33.05	-23.2	-23.7	18.5	0.00e+00	0	43	0	2603614208	6	3793
2026-01-09 15:53:22.80	277.99	33.01	-23.3	-23.7	18.5	0.00e+00	0	43	0	2610954240	6	3805
2026-01-09 15:53:23.80	278.36	32.96	-23.3	-23.9	18.4	0.00e+00	0	43	0	2617245696	6	3847
2026-01-09 15:53:24.81	278.73	32.92	-23.3	-23.9	18.4	0.00e+00	0	43	0	2624585728	6	3831
2026-01-09 15:53:25.81	279.10	32.87	-23.3	-23.9	18.4	0.00e+00	0	43	0	2631925760	6	3842
2026-01-09 15:53:26.81	279.46	32.83	-23.5	-24.3	18.2	0.00e+00	0	43	0	2639265792	6	3936
2026-01-09 15:53:27.81	279.83	32.78	-23.4	-24.0	18.3	0.00e+00	0	43	0	2646605824	6	3869
2026-01-09 15:53:28.82	280.19	32.73	-23.4	-24.0	18.3	0.00e+00	0	43	0	2653945856	6	3857
2026-01-09 15:53:29.82	280.55	32.68	-23.4	-24.1	18.3	0.00e+00	0	43	0	2661285888	6	3892
2026-01-09 15:53:30.82	280.91	32.63	-23.3	-23.9	18.4	0.00e+00	0	43	0	2668625920	6	3840
2026-01-09 15:53:31.82	281.27	32.57	-23.2	-23.7	18.5	0.00e+00	0	43	0	2675965952	6	3799
2026-01-09 15:53:32.82	281.63	32.52	-23.2	-23.7	18.5	0.00e+00	0	43	0	2683305984	6	3797
2026-01-09 15:53:33.83	281.99	32.47	-23.1	-23.4	18.6	0.00e+00	0	43	0	2690646016	6	3716
2026-01-09 15:53:34.83	282.35	32.41	-23.2	-23.6	18.5	0.00e+00	0	43	0	2697986048	6	3778
2026-01-09 15:53:35.83	282.70	32.35	-23.1	-23.3	18.7	0.00e+00	0	43	0	2704277504	6	3697
2026-01-09 15:53:36.83	283.06	32.29	-22.9	-23.0	18.8	0.00e+00	0	43	0	2711617536	6	3623
2026-01-09 15:53:37.83	283.41	32.24	-22.9	-23.0	18.8	0.00e+00	0	43	0	2718957568	6	3645
2026-01-09 15:53:38.83	283.76	32.18	-23.1	-23.3	18.6	0.00e+00	0	43	0	2726297600	6	3715
2026-01-09 15:53:39.82	284.11	32.12	-22.9	-23.0	18.8	0.00e+00	0	43	0	2733637632	6	3647
2026-01-09 15:53:40.82	284.45	32.05	-23.1	-23.4	18.7	0.00e+00	0	43	0	2740977664	6	3720
2026-01-09 15:53:41.83	284.80	31.99	-23.0	-23.2	18.7	0.00e+00	0	43	0	2748317696	6	3673
2026-01-09 15:53:42.83	285.15	31.92	-23.1	-23.3	18.7	0.00e+00	0	43	0	2755657728	6	3709
2026-01-09 15:53:43.83	285.49	31.86	-23.1	-23.4	18.7	0.00e+00	0	43	0	2761949184	6	3713
2026-01-09 15:53:44.83	285.84	31.79	-23.2	-23.5	18.6	0.00e+00	0	43	0	2769289216	6	3751
2026-01-09 15:53:45.82	286.17	31.73	-23.1	-23.5	18.6	0.00e+00	0	43	0	2776629248	6	3743
2026-01-09 15:53:46.82	286.51	31.66	-23.0	-23.2	18.8	0.00e+00	0	43	0	2783969280	6	3685
2026-01-09 15:53:47.82	286.85	31.59	-23.1	-23.3	18.7	0.00e+00	0	43	0	2791309312	6	3706
2026-01-09 15:53:48.82	287.19	31.52	-23.0	-23.1	18.8	0.00e+00	0	43	0	2798649344	6	3665
2026-01-09 15:53:49.82	287.53	31.45	-23.0	-23.1	18.8	0.00e+00	0	43	0	2805989376	6	3664
2026-01-09 15:53:50.82	287.86	31.38	-23.0	-23.2	18.8	0.00e+00	0	43	0	2812280832	6	3678
2026-01-09 15:53:51.82	288.19	31.30	-22.9	-23.1	18.8	1.10e-06	0	43	0	2820669440	6	3650
2026-01-09 15:53:52.82	288.52	31.23	-22.9	-22.9	18.9	0.00e+00	0	43	0	2826960896	6	3620
2026-01-09 15:53:53.81	288.85	31.16	-23.1	-23.3	18.7	0.00e+00	0	43	0	2834300928	6	3699
2026-01-09 15:53:54.82	289.18	31.08	-23.0	-23.1	18.8	0.00e+00	0	43	0	2841640960	6	3666
2026-01-09 15:53:55.82	289.51	31.01	-22.9	-22.9	18.9	0.00e+00	0	43	0	2848980992	6	3610
2026-01-09 15:53:56.83	289.84	30.93	-23.1	-23.3	18.7	0.00e+00	0	43	0	2856321024	6	3702
2026-01-09 15:53:57.82	290.16	30.85	-23.0	-23.2	18.7	0.00e+00	0	43	0	2863661056	6	3690
2026-01-09 15:53:58.83	290.48	30.77	-23.2	-23.6	18.5	0.00e+00	0	43	0	2871001088	6	3770
2026-01-09 15:53:59.83	290.80	30.69	-23.2	-23.7	18.5	0.00e+00	0	43	0	2878341120	6	3788
2026-01-09 15:54:00.83	291.12	30.61	-23.4	-24.1	18.3	0.00e+00	0	43	0	2885681152	6	3885
2026-01-09 15:54:01.83	291.44	30.53	-23.6	-24.0	18.1	0.00e+00	0	43	0	2891972608	7	3768
2026-01-09 15:54:02.82	291.75	30.45	-23.8	-24.4	17.9	0.00e+00	0	43	0	2899312640	7	3850
2026-01-09 15:54:03.82	292.07	30.37	-23.6	-23.9	18.1	0.00e+00	0	43	0	2906652672	7	3739
2026-01-09 15:54:04.83	292.38	30.29	-23.4	-23.5	18.3	0.00e+00	0	43	0	2913992704	7	3638
2026-01-09 15:54:05.84	292.70	30.20	-23.3	-23.3	18.4	0.00e+00	0	43	0	2921332736	7	3610
2026-01-09 15:54:06.84	293.01	30.12	-23.4	-23.5	18.3	0.00e+00	0	43	0	2928672768	7	3644
2026-01-09 15:54:07.84	293.32	30.04	-23.3	-23.3	18.4	0.00e+00	0	43	0	2936012800	7	3598
2026-01-09 15:54:08.84	293.62	29.95	-23.4	-23.5	18.3	0.00e+00	0	43	0	2943352832	7	3651
2026-01-09 15:54:09.83	293.92	29.87	-23.4	-23.5	18.3	0.00e+00	0	43	0	2949644288	7	3642
2026-01-09 15:54:10.83	294.23	29.78	-23.3	-23.3	18.4	0.00e+00	0	43	0	2956984320	7	3594
2026-01-09 15:54:11.83	294.53	29.69	-23.2	-23.1	18.5	0.00e+00	0	43	0	2964324352	7	3557
2026-01-09 15:54:12.84	294.83	29.60	-23.5	-23.7	18.2	0.00e+00	0	43	0	2971664384	7	3695
2026-01-09 15:54:13.84	295.13	29.52	-23.2	-23.0	18.6	0.00e+00	0	43	0	2979004416	7	3540
2026-01-09 15:54:14.84	295.43	29.43	-23.0	-22.7	18.7	0.00e+00	0	43	0	2986344448	7	3479
2026-01-09 15:54:15.84	295.72	29.34	-23.0	-22.7	18.7	0.00e+00	0	43	0	2993684480	7	3480
2026-01-09 15:54:16.85	296.02	29.25	-23.0	-22.7	18.7	0.00e+00	0	43	0	3001024512	7	3473
2026-01-09 15:54:17.85	296.31	29.16	-23.1	-22.8	18.7	0.00e+00	0	43	0	3008364544	7	3507
2026-01-09 15:54:18.85	296.60	29.07	-23.2	-23.2	18.5	0.00e+00	0	43	0	3014656000	7	3575
2026-01-09 15:54:19.86	296.89	28.97	-23.3	-23.2	18.5	0.00e+00	0	43	0	3021996032	7	3585
2026-01-09 15:54:20.86	297.18	28.88	-23.1	-22.8	18.6	0.00e+00	0	43	0	3029336064	7	3496
2026-01-09 15:54:21.87	297.47	28.79	-23.3	-23.3	18.4	0.00e+00	0	43	0	3036676096	7	3608
2026-01-09 15:54:22.87	297.75	28.70	-23.3	-23.3	18.4	0.00e+00	0	43	0	3044016128	7	3587
2026-01-09 15:54:23.87	298.03	28.60	-23.3	-23.4	18.4	0.00e+00	0	43	0	3051356160	7	3617
2026-01-09 15:54:24.87	298.31	28.51	-23.5	-23.8	18.2	0.00e+00	0	43	0	3058696192	7	3702
2026-01-09 15:54:25.87	298.59	28.42	-23.4	-23.5	18.3	0.00e+00	0	43	0	3066036224	7	3655
2026-01-09 15:54:26.87	298.87	28.32	-23.4	-23.5	18.3	0.00e+00	0	43	0	3073376256	7	3638
2026-01-09 15:54:27.87	299.15	28.23	-23.5	-23.7	18.1	0.00e+00	0	43	0	3080716288	7	3693
2026-01-09 15:54:28.87	299.42	28.13	-23.5	-23.8	18.1	0.00e+00	0	43	0	3088056320	7	3719
2026-01-09 15:54:29.88	299.70	28.04	-23.5	-23.8	18.1	0.00e+00	0	43	0	3094347776	7	3706
2026-01-09 15:54:30.88	299.97	27.94	-23.7	-24.1	18.0	0.00e+00	0	43	0	3101687808	7	3776
2026-01-09 15:54:31.89	300.24	27.84	-23.5	-23.8	18.1	0.00e+00	0	43	0	3109027840	7	3719
2026-01-09 15:54:32.90	300.51	27.75	-23.4	-23.5	18.3	0.00e+00	0	43	0	3116367872	7	3642
2026-01-09 15:54:33.90	300.78	27.65	-23.4	-23.5	18.3	0.00e+00	0	43	0	3123707904	7	3655
2026-01-09 15:54:34.90	301.04	27.55	-23.3	-23.4	18.4	0.00e+00	0	43	0	3131047936	7	3617
2026-01-09 15:54:35.90	301.30	27.46	-23.2	-23.0	18.5	0.00e+00	0	43	0	3138387968	7	3540
2026-01-09 15:54:36.91	301.57	27.36	-23.2	-23.1	18.5	0.00e+00	0	43	0	3145728000	7	3557
2026-01-09 15:54:37.91	301.83	27.26	-23.2	-23.2	18.5	0.00e+00	0	43	0	3153068032	7	3574
2026-01-09 15:54:38.91	302.09	27.16	-23.5	-23.7	18.2	0.00e+00	0	43	0	3159359488	7	3683
2026-01-09 15:54:39.91	302.34	27.06	-23.4	-23.6	18.2	0.00e+00	0	43	0	3166699520	7	3682
2026-01-09 15:54:40.92	302.60	26.96	-23.6	-24.0	18.1	0.00e+00	0	43	0	3174039552	7	3756
2026-01-09 15:54:41.92	302.85	26.86	-23.7	-24.1	18.0	0.00e+00	0	43	0	3181379584	7	3793
2026-01-09 15:54:42.92	303.11	26.77	-23.6	-24.0	18.1	0.00e+00	0	43	0	3188719616	7	3751
2026-01-09 15:54:43.92	303.36	26.67	-23.7	-24.1	18.0	0.00e+00	0	43	0	3196059648	7	3772
2026-01-09 15:54:44.93	303.61	26.57	-23.6	-23.8	18.1	0.00e+00	0	43	0	3203399680	7	3723
2026-01-09 15:54:45.94	303.86	26.47	-23.5	-23.7	18.2	0.00e+00	0	43	0	3210739712	7	3684
2026-01-09 15:54:46.94	304.10	26.37	-23.5	-23.8	18.1	0.00e+00	0	43	0	3218079744	7	3704
2026-01-09 15:54:47.95	304.35	26.26	-23.4	-23.6	18.3	0.00e+00	0	43	0	3225419776	7	3658
2026-01-09 15:54:48.95	304.59	26.16	-23.4	-23.5	18.3	0.00e+00	0	43	0	3232759808	7	3642
2026-01-09 15:54:49.95	304.84	26.06	-23.2	-23.2	18.5	0.00e+00	0	43	0	3240099840	7	3574
2026-01-09 15:54:50.96	305.08	25.96	-23.2	-23.1	18.4	0.00e+00	0	43	0	3246391296	7	3569
2026-01-09 15:54:51.96	305.32	25.86	-23.3	-23.4	18.4	0.00e+00	0	43	0	3253731328	7	3613
2026-01-09 15:54:52.96	305.55	25.76	-23.3	-23.3	18.3	0.00e+00	0	43	0	3261071360	7	3601
2026-01-09 15:54:53.96	305.79	25.66	-23.5	-23.6	18.2	0.00e+00	0	43	0	3268411392	7	3673
2026-01-09 15:54:54.96	306.02	25.56	-23.7	-24.2	17.9	0.00e+00	0	43	0	3275751424	7	3812
2026-01-09 15:54:55.96	306.25	25.46	-23.7	-24.1	17.9	0.00e+00	0	43	0	3283091456	7	3792
2026-01-09 15:54:56.96	306.49	25.36	-23.7	-24.1	18.0	0.00e+00	0	43	0	3290431488	7	3783
2026-01-09 15:54:57.96	306.72	25.26	-23.8	-24.4	17.8	0.00e+00	0	43	0	3297771520	7	3855
2026-01-09 15:54:58.97	306.95	25.15	-23.8	-24.3	17.9	0.00e+00	0	43	0	3304062976	7	3821
2026-01-09 15:54:59.97	307.17	25.05	-23.9	-24.5	17.7	0.00e+00	0	43	0	3312451584	7	3881
2026-01-09 15:55:00.97	307.40	24.95	-23.8	-24.4	17.8	0.00e+00	0	43	0	3319791616	7	3839
2026-01-09 15:55:01.98	307.62	24.85	-23.6	-23.9	18.1	0.00e+00	0	43	0	3326083072	7	3728
2026-01-09 15:55:02.98	307.85	24.75	-23.5	-23.8	18.1	0.00e+00	0	43	0	3333423104	7	3724
2026-01-09 15:55:03.98	308.07	24.65	-23.6	-24.0	18.0	0.00e+00	0	43	0	3340763136	7	3747
2026-01-09 15:55:04.98	308.29	24.54	-23.5	-23.7	18.2	0.00e+00	0	43	0	3348103168	7	3695
2026-01-09 15:55:05.99	308.51	24.44	-23.4	-23.6	18.2	0.00e+00	0	43	0	3355443200	7	3665
2026-01-09 15:55:06.99	308.72	24.34	-23.5	-23.7	18.1	0.00e+00	0	43	0	3362783232	7	3685
2026-01-09 15:55:07.99	308.94	24.24	-23.6	-24.0	18.0	0.00e+00	0	43	0	3370123264	7	3753
2026-01-09 15:55:09.00	309.16	24.14	-23.6	-23.9	18.0	0.00e+00	0	43	0	3377463296	7	3741
2026-01-09 15:55:09.99	309.37	24.03	-23.8	-24.4	17.8	0.00e+00	0	43	0	3384803328	7	3839
2026-01-09 15:55:11.00	309.58	23.93	-23.8	-24.3	17.8	0.00e+00	0	43	0	3391094784	7	3820
2026-01-09 15:55:12.00	309.79	23.83	-23.8	-24.4	17.8	0.00e+00	0	43	0	3398434816	7	3839
2026-01-09 15:55:13.00	310.00	23.73	-24.0	-24.9	17.5	0.00e+00	0	43	0	3405774848	7	3962
2026-01-09 15:55:14.00	310.21	23.63	-24.1	-24.6	17.4	0.00e+00	0	43	0	3413114880	8	3789
2026-01-09 15:55:15.00	310.41	23.52	-24.4	-25.1	17.2	0.00e+00	0	43	0	3420454912	8	3897
2026-01-09 15:55:16.00	310.62	23.42	-24.2	-24.8	17.3	0.00e+00	0	43	0	3427794944	8	3835
2026-01-09 15:55:17.01	310.82	23.32	-24.3	-24.8	17.3	0.00e+00	0	43	0	3435134976	8	3842
2026-01-09 15:55:18.00	311.02	23.22	-24.2	-24.8	17.3	0.00e+00	0	43	0	3442475008	8	3842
2026-01-09 15:55:19.01	311.23	23.12	-24.3	-24.9	17.3	0.00e+00	0	43	0	3449815040	8	3870
2026-01-09 15:55:20.01	311.43	23.02	-24.1	-24.6	17.5	0.00e+00	0	43	0	3456106496	8	3791
2026-01-09 15:55:21.01	311.62	22.91	-24.4	-25.1	17.2	0.00e+00	0	43	0	3463446528	8	3916
2026-01-09 15:55:22.02	311.82	22.81	-24.0	-24.3	17.5	0.00e+00	0	43	0	3471835136	8	3734
2026-01-09 15:55:23.02	312.02	22.71	-23.8	-24.0	17.7	0.00e+00	0	43	0	3478126592	8	3650
2026-01-09 15:55:24.02	312.21	22.61	-23.8	-23.9	17.8	0.00e+00	0	43	0	3485466624	8	3636
2026-01-09 15:55:25.03	312.41	22.51	-23.9	-24.1	17.7	0.00e+00	0	43	0	3492806656	8	3685
2026-01-09 15:55:26.03	312.60	22.41	-24.0	-24.3	17.5	0.00e+00	0	43	0	3500146688	8	3736
2026-01-09 15:55:27.03	312.79	22.31	-24.1	-24.5	17.5	0.00e+00	0	43	0	3507486720	8	3779
2026-01-09 15:55:28.03	312.98	22.20	-24.3	-24.9	17.2	0.00e+00	0	43	0	3514826752	8	3861
2026-01-09 15:55:29.03	313.17	22.10	-24.2	-24.7	17.3	0.00e+00	0	43	0	3522166784	8	3827
2026-01-09 15:55:30.03	313.36	22.00	-24.4	-25.1	17.1	0.00e+00	0	43	0	3529506816	8	3915
2026-01-09 15:55:31.03	313.54	21.90	-24.3	-24.9	17.2	0.00e+00	0	43	0	3535798272	8	3875
2026-01-09 15:55:32.02	313.73	21.80	-24.5	-25.3	17.0	0.00e+00	0	43	0	3543138304	8	3953
2026-01-09 15:55:33.02	313.91	21.70	-24.3	-24.9	17.2	0.00e+00	0	43	0	3550478336	8	3868
2026-01-09 15:55:34.02	314.09	21.60	-24.4	-25.1	17.1	0.00e+00	0	43	0	3557818368	8	3922
2026-01-09 15:55:35.02	314.28	21.50	-24.2	-24.7	17.3	0.00e+00	0	43	0	3565158400	8	3819
2026-01-09 15:55:36.02	314.46	21.40	-24.1	-24.5	17.4	0.00e+00	0	43	0	3572498432	8	3765
2026-01-09 15:55:37.03	314.64	21.30	-24.2	-24.7	17.4	0.00e+00	0	43	0	3579838464	8	3808
2026-01-09 15:55:38.04	314.82	21.20	-24.0	-24.3	17.5	0.00e+00	0	43	0	3587178496	8	3727
2026-01-09 15:55:39.04	314.99	21.10	-24.0	-24.2	17.6	0.00e+00	0	43	0	3594518528	8	3710
2026-01-09 15:55:40.04	315.17	21.00	-23.9	-24.0	17.6	0.00e+00	0	43	0	3600809984	8	3664
2026-01-09 15:55:41.05	315.35	20.90	-23.8	-23.9	17.7	0.00e+00	0	43	0	3608150016	8	3643
2026-01-09 15:55:42.05	315.52	20.80	-23.9	-24.1	17.6	0.00e+00	0	43	0	3615490048	8	3679
2026-01-09 15:55:43.05	315.69	20.70	-23.9	-24.2	17.6	0.00e+00	0	43	0	3622830080	8	3690
2026-01-09 15:55:44.06	315.87	20.60	-24.0	-24.4	17.5	0.00e+00	0	43	0	3630170112	8	3739
2026-01-09 15:55:45.07	316.04	20.50	-24.1	-24.4	17.4	0.00e+00	0	43	0	3637510144	8	3753
2026-01-09 15:55:46.07	316.21	20.40	-24.2	-24.8	17.3	0.00e+00	0	43	0	3644850176	8	3836
2026-01-09 15:55:47.07	316.38	20.30	-24.3	-24.9	17.2	0.00e+00	0	43	0	3652190208	8	3871
2026-01-09 15:55:48.07	316.54	20.21	-24.4	-25.2	17.1	0.00e+00	0	43	0	3659530240	8	3924
2026-01-09 15:55:49.07	316.71	20.11	-24.5	-25.3	17.0	0.00e+00	0	43	0	3666870272	8	3968
2026-01-09 15:55:50.07	316.88	20.01	-24.6	-25.5	16.8	0.00e+00	0	43	0	3674210304	8	4003
2026-01-09 15:55:51.07	317.04	19.91	-24.5	-24.9	16.9	0.00e+00	0	43	0	3680501760	9	3765
2026-01-09 15:55:52.08	317.20	19.81	-24.8	-25.4	16.6	0.00e+00	0	43	0	3687841792	9	3889
2026-01-09 15:55:53.08	317.37	19.72	-24.7	-25.2	16.8	0.00e+00	0	43	0	3695181824	9	3826
2026-01-09 15:55:54.09	317.53	19.62	-24.8	-25.4	16.6	0.00e+00	0	43	0	3702521856	9	3876
2026-01-09 15:55:55.09	317.69	19.52	-24.5	-24.9	16.9	0.00e+00	0	43	0	3709861888	9	3755
2026-01-09 15:55:56.09	317.85	19.42	-24.5	-24.9	16.9	0.00e+00	0	43	0	3717201920	9	3769
2026-01-09 15:55:57.10	318.01	19.32	-24.4	-24.7	17.1	0.00e+00	0	43	0	3724541952	9	3723
2026-01-09 15:55:58.10	318.17	19.23	-24.5	-24.8	17.0	0.00e+00	0	43	0	3731881984	9	3745
2026-01-09 15:55:59.10	318.32	19.13	-24.4	-24.7	17.1	0.00e+00	0	43	0	3739222016	9	3706
2026-01-09 15:56:00.10	318.48	19.03	-24.4	-24.6	17.1	0.00e+00	0	43	0	3745513472	9	3691
2026-01-09 15:56:01.11	318.63	18.94	-24.5	-24.8	17.0	0.00e+00	0	43	0	3752853504	9	3744
2026-01-09 15:56:02.11	318.79	18.84	-24.5	-24.7	17.1	0.00e+00	0	43	0	3760193536	9	3724
2026-01-09 15:56:03.10	318.94	18.75	-24.6	-25.1	16.9	0.00e+00	0	43	0	3767533568	9	3799
2026-01-09 15:56:04.11	319.09	18.65	-24.6	-25.1	16.9	0.00e+00	0	43	0	3774873600	9	3806
2026-01-09 15:56:05.11	319.24	18.55	-24.8	-25.5	16.7	0.00e+00	0	43	0	3782213632	9	3898
2026-01-09 15:56:06.12	319.39	18.46	-25.0	-25.8	16.5	0.00e+00	0	43	0	3789553664	9	3979
2026-01-09 15:56:07.12	319.54	18.36	-25.1	-26.1	16.3	0.00e+00	0	43	0	3796893696	9	4056
2026-01-09 15:56:08.14	319.69	18.27	-25.1	-25.6	16.4	0.00e+00	0	43	0	3804233728	10	3822
2026-01-09 15:56:09.14	319.84	18.17	-25.3	-26.0	16.2	0.00e+00	0	43	0	3811573760	10	3920
2026-01-09 15:56:10.14	319.98	18.08	-25.3	-26.0	16.2	0.00e+00	0	43	0	3818913792	10	3901
2026-01-09 15:56:11.14	320.13	17.98	-25.4	-26.3	16.0	0.00e+00	0	43	0	3826253824	10	3997
2026-01-09 15:56:12.14	320.27	17.89	-25.2	-25.8	16.3	0.00e+00	0	43	0	3832545280	10	3856
2026-01-09 15:56:13.14	320.42	17.79	-25.3	-26.0	16.1	0.00e+00	0	43	0	3839885312	10	3912
2026-01-09 15:56:14.15	320.56	17.70	-25.4	-26.2	16.1	0.00e+00	0	43	0	3847225344	10	3949
2026-01-09 15:56:15.15	320.70	17.61	-25.3	-26.1	16.1	0.00e+00	0	43	0	3854565376	10	3932
2026-01-09 15:56:16.15	320.84	17.51	-25.5	-26.1	15.9	0.00e+00	0	43	0	3861905408	11	3828
2026-01-09 15:56:17.15	320.98	17.42	-25.8	-26.7	15.6	0.00e+00	0	43	0	3869245440	11	3967
2026-01-09 15:56:18.15	321.12	17.33	-25.6	-26.2	15.8	0.00e+00	0	43	0	3876585472	11	3856
2026-01-09 15:56:19.15	321.26	17.23	-25.9	-26.9	15.4	0.00e+00	0	43	0	3883925504	11	4025
2026-01-09 15:56:20.15	321.40	17.14	-25.6	-26.1	15.8	0.00e+00	0	43	0	3890216960	11	3839
2026-01-09 15:56:21.15	321.54	17.05	-25.4	-25.8	16.0	0.00e+00	0	43	0	3897556992	11	3771
2026-01-09 15:56:22.15	321.67	16.96	-25.3	-25.5	16.1	0.00e+00	0	43	0	3904897024	11	3706
2026-01-09 15:56:23.15	321.81	16.86	-25.3	-25.5	16.2	0.00e+00	0	43	0	3912237056	11	3696
2026-01-09 15:56:24.16	321.94	16.77	-25.4	-25.8	16.0	0.00e+00	0	43	0	3919577088	11	3763
2026-01-09 15:56:25.17	322.08	16.68	-25.3	-25.5	16.1	0.00e+00	0	43	0	3926917120	11	3693
2026-01-09 15:56:26.17	322.21	16.59	-25.1	-25.2	16.3	0.00e+00	0	43	0	3934257152	11	3629
2026-01-09 15:56:27.18	322.34	16.49	-25.2	-25.3	16.3	0.00e+00	0	43	0	3941597184	11	3644
2026-01-09 15:56:28.18	322.47	16.40	-25.1	-25.2	16.3	0.00e+00	0	43	0	3948937216	11	3628
2026-01-09 15:56:29.18	322.61	16.31	-25.2	-25.3	16.2	0.00e+00	0	43	0	3956277248	11	3656
2026-01-09 15:56:30.18	322.73	16.22	-25.1	-25.2	16.3	0.00e+00	0	43	0	3963617280	11	3634
2026-01-09 15:56:31.18	322.86	16.13	-25.2	-25.3	16.2	0.00e+00	0	43	0	3970957312	11	3652
2026-01-09 15:56:32.19	322.99	16.04	-25.1	-25.1	16.3	0.00e+00	0	43	0	3977248768	11	3610
2026-01-09 15:56:33.20	323.12	15.95	-25.2	-25.3	16.2	0.00e+00	0	43	0	3984588800	11	3656
2026-01-09 15:56:34.20	323.25	15.86	-25.2	-25.5	16.1	0.00e+00	0	43	0	3991928832	11	3691
2026-01-09 15:56:35.20	323.37	15.77	-25.3	-25.6	16.0	0.00e+00	0	43	0	3999268864	11	3714
2026-01-09 15:56:36.20	323.50	15.68	-25.3	-25.7	15.9	1.10e-06	0	43	0	4006608896	11	3733
2026-01-09 15:56:37.20	323.62	15.59	-25.5	-26.0	15.8	1.10e-06	0	43	0	4013948928	11	3812
2026-01-09 15:56:38.20	323.75	15.50	-25.5	-26.0	15.8	0.00e+00	0	43	0	4021288960	11	3823
2026-01-09 15:56:39.20	323.87	15.41	-25.5	-26.0	15.7	0.00e+00	0	43	0	4028628992	11	3828
2026-01-09 15:56:40.19	323.99	15.33	-25.5	-26.0	15.7	0.00e+00	0	43	0	4034920448	11	3816
2026-01-09 15:56:41.20	324.12	15.24	-25.5	-26.1	15.7	0.00e+00	0	43	0	4042260480	11	3844
2026-01-09 15:56:42.20	324.24	15.15	-25.6	-26.1	15.7	0.00e+00	0	43	0	4049600512	11	3850
2026-01-09 15:56:43.21	324.36	15.06	-25.6	-26.2	15.7	0.00e+00	0	43	0	4056940544	11	3864
2026-01-09 15:56:44.21	324.48	14.97	-25.6	-26.3	15.6	0.00e+00	0	43	0	4064280576	11	3898
2026-01-09 15:56:45.21	324.60	14.88	-25.5	-25.9	15.8	0.00e+00	0	43	0	4071620608	11	3799
2026-01-09 15:56:46.21	324.72	14.80	-25.6	-26.2	15.7	0.00e+00	0	43	0	4078960640	11	3863
2026-01-09 15:56:47.21	324.83	14.71	-25.4	-25.8	15.8	0.00e+00	0	43	0	4086300672	11	3771
2026-01-09 15:56:48.22	324.95	14.62	-25.5	-26.0	15.7	0.00e+00	0	43	0	4093640704	11	3815
2026-01-09 15:56:49.22	325.07	14.54	-25.6	-26.2	15.6	0.00e+00	0	43	0	4100980736	11	3865
2026-01-09 15:56:50.22	325.18	14.45	-25.5	-26.1	15.7	0.00e+00	0	43	0	4108320768	11	3840
2026-01-09 15:56:51.22	325.30	14.36	-25.6	-26.1	15.6	0.00e+00	0	43	0	4115660800	11	3849
2026-01-09 15:56:52.22	325.41	14.28	-25.7	-26.5	15.5	0.00e+00	0	43	0	4121952256	11	3939
2026-01-09 15:56:53.22	325.53	14.19	-25.9	-26.8	15.3	0.00e+00	0	43	0	4129292288	11	4002
2026-01-09 15:56:54.22	325.64	14.11	-25.8	-26.7	15.3	0.00e+00	0	43	0	4136632320	11	3994
2026-01-09 15:56:55.21	325.75	14.02	-26.0	-27.2	15.1	1.10e-06	0	43	0	4143972352	11	4116
2026-01-09 15:56:56.21	325.86	13.94	-25.9	-26.8	15.2	0.00e+00	0	43	0	4151312384	11	4012
2026-01-09 15:56:57.22	325.97	13.85	-25.8	-26.8	15.2	0.00e+00	0	43	0	4158652416	11	4008
2026-01-09 15:56:58.23	326.09	13.76	-26.0	-27.1	15.1	0.00e+00	0	43	0	4165992448	11	4086
2026-01-09 15:56:59.23	326.20	13.68	-26.0	-27.1	15.1	0.00e+00	0	43	0	4173332480	11	4078
2026-01-09 15:57:00.24	326.31	13.59	-26.0	-27.2	15.0	0.00e+00	0	43	0	4180672512	11	4115
2026-01-09 15:57:01.24	326.42	13.51	-26.0	-27.1	15.0	0.00e+00	0	43	0	4186963968	11	4075
2026-01-09 15:57:02.25	326.53	13.42	-26.0	-27.2	15.0	0.00e+00	0	43	0	4194304000	11	4117
2026-01-09 15:57:03.24	326.63	13.34	-26.1	-27.2	14.9	0.00e+00	0	43	0	4201644032	11	4122
2026-01-09 15:57:04.24	326.74	13.26	-26.2	-27.0	14.8	0.00e+00	0	43	0	4208984064	12	3950
2026-01-09 15:57:05.25	326.85	13.17	-26.2	-27.0	14.8	0.00e+00	0	43	0	4216324096	12	3952
2026-01-09 15:57:06.24	326.95	13.09	-26.1	-26.9	14.8	0.00e+00	0	43	0	4223664128	12	3928
2026-01-09 15:57:07.25	327.06	13.01	-26.1	-26.9	14.8	0.00e+00	0	43	0	4231004160	12	3942
2026-01-09 15:57:08.25	327.16	12.92	-25.9	-26.4	15.1	0.00e+00	0	43	0	4238344192	12	3823
2026-01-09 15:57:09.25	327.27	12.84	-25.8	-26.3	15.1	0.00e+00	0	43	0	4244635648	12	3783
2026-01-09 15:57:10.25	327.37	12.76	-25.9	-26.5	15.0	1.10e-06	0	43	0	4251975680	12	3831
2026-01-09 15:57:11.24	327.47	12.68	-25.9	-26.4	15.1	0.00e+00	0	43	0	4259315712	12	3809
2026-01-09 15:57:12.24	327.58	12.60	-25.9	-26.3	15.1	0.00e+00	0	43	0	4266655744	12	3792
2026-01-09 15:57:13.25	327.68	12.51	-25.9	-26.3	15.2	0.00e+00	0	43	0	4273995776	12	3799
2026-01-09 15:57:14.24	327.78	12.43	-25.9	-26.4	15.1	1.10e-06	0	43	0	4281335808	12	3806
2026-01-09 15:57:15.25	327.88	12.35	-25.9	-26.3	15.1	0.00e+00	0	43	0	4288675840	12	3799
2026-01-09 15:57:16.25	327.98	12.27	-26.0	-26.6	14.9	1.10e-06	0	43	0	4296015872	12	3874
2026-01-09 15:57:17.25	328.08	12.19	-25.9	-26.5	15.0	0.00e+00	0	43	0	4303355904	12	3827
2026-01-09 15:57:18.25	328.18	12.11	-25.9	-26.5	15.0	0.00e+00	0	43	0	4309647360	12	3827
2026-01-09 15:57:19.26	328.28	12.03	-26.0	-26.6	15.0	0.00e+00	0	43	0	4316987392	12	3854
2026-01-09 15:57:20.26	328.38	11.94	-26.1	-26.8	14.8	0.00e+00	0	43	0	4324327424	12	3917
2026-01-09 15:57:21.26	328.48	11.86	-26.1	-26.9	14.8	0.00e+00	0	43	0	4331667456	12	3930
2026-01-09 15:57:22.26	328.57	11.78	-26.1	-26.9	14.7	1.10e-06	0	43	0	4339007488	12	3947
2026-01-09 15:57:23.27	328.67	11.70	-26.1	-26.9	14.7	0.00e+00	0	43	0	4346347520	12	3949
2026-01-09 15:57:24.27	328.77	11.62	-26.1	-26.9	14.7	1.10e-06	0	43	0	4353687552	12	3945
2026-01-09 15:57:25.27	328.86	11.54	-26.2	-27.0	14.6	2.20e-06	0	43	0	4361027584	12	3970
2026-01-09 15:57:26.28	328.96	11.46	-26.2	-27.1	14.6	0.00e+00	0	43	0	4368367616	12	3994
2026-01-09 15:57:27.28	329.05	11.39	-26.3	-27.2	14.5	1.10e-06	0	43	0	4375707648	12	4027
2026-01-09 15:57:28.28	329.15	11.31	-26.2	-27.1	14.6	0.00e+00	0	43	0	4383047680	12	3983
2026-01-09 15:57:29.29	329.24	11.23	-26.3	-27.3	14.4	1.10e-06	0	43	0	4390387712	12	4049
2026-01-09 15:57:30.29	329.34	11.15	-26.3	-27.3	14.5	1.10e-06	0	43	0	4396679168	12	4034
2026-01-09 15:57:31.29	329.43	11.07	-26.3	-27.2	14.5	0.00e+00	0	43	0	4404019200	12	4026
2026-01-09 15:57:32.29	329.52	10.99	-26.3	-27.2	14.5	0.00e+00	0	43	0	4411359232	12	4028
2026-01-09 15:57:33.29	329.61	10.91	-26.4	-27.4	14.3	0.00e+00	0	43	0	4418699264	12	4078
2026-01-09 15:57:34.30	329.71	10.83	-26.3	-27.3	14.4	2.20e-06	0	43	0	4426039296	12	4047
2026-01-09 15:57:35.30	329.80	10.76	-26.4	-27.6	14.2	1.10e-06	0	43	0	4433379328	12	4122
2026-01-09 15:57:36.30	329.89	10.68	-26.6	-27.4	14.1	2.20e-06	0	43	0	4440719360	13	3965
2026-01-09 15:57:37.30	329.98	10.60	-26.4	-27.0	14.3	1.10e-06	0	43	0	4448059392	13	3878
2026-01-09 15:57:38.31	330.07	10.52	-26.5	-27.3	14.1	0.00e+00	0	43	0	4454350848	13	3940
2026-01-09 15:57:39.31	330.16	10.45	-26.4	-27.1	14.2	3.40e-06	0	43	0	4461690880	13	3903
2026-01-09 15:57:40.31	330.25	10.37	-26.4	-27.1	14.2	1.10e-06	0	43	0	4469030912	13	3883
2026-01-09 15:57:41.31	330.34	10.29	-26.4	-27.2	14.1	2.20e-06	0	43	0	4476370944	13	3912
2026-01-09 15:57:42.31	330.42	10.22	-26.6	-27.5	13.9	8.00e-06	0	43	0	4483710976	13	3991
2026-01-09 15:57:43.31	330.51	10.14	-26.4	-27.1	14.2	1.10e-06	0	43	0	4491051008	13	3886
2026-01-09 15:57:44.31	330.60	10.07	-26.4	-27.0	14.3	1.10e-06	0	43	0	4498391040	13	3858
2026-01-09 15:57:45.32	330.69	9.99	-26.5	-27.2	14.1	0.00e+00	0	43	0	4505731072	13	3929
2026-01-09 15:57:46.32	330.77	9.91	-26.5	-27.2	14.1	1.10e-06	0	43	0	4513071104	13	3926
2026-01-09 15:57:47.32	330.86	9.84	-26.4	-27.0	14.2	0.00e+00	0	43	0	4520411136	13	3878
2026-01-09 15:57:48.32	330.94	9.76	-26.5	-27.2	14.1	3.40e-06	0	43	0	4527751168	13	3918
2026-01-09 15:57:49.32	331.03	9.69	-26.7	-27.7	13.8	2.20e-06	0	43	0	4535091200	13	4039
2026-01-09 15:57:50.32	331.11	9.61	-26.4	-27.2	14.1	3.40e-06	0	43	0	4541382656	13	3913
2026-01-09 15:57:51.32	331.20	9.54	-26.7	-27.7	13.8	4.50e-06	0	43	0	4548722688	13	4051
2026-01-09 15:57:52.32	331.28	9.46	-26.5	-27.3	14.0	2.20e-06	0	43	0	4556062720	13	3953
2026-01-09 15:57:53.32	331.36	9.39	-26.6	-27.4	14.0	2.20e-06	0	43	0	4563402752	13	3982
2026-01-09 15:57:54.32	331.45	9.31	-26.6	-27.6	13.9	4.50e-06	0	43	0	4570742784	13	4012
2026-01-09 15:57:55.32	331.53	9.24	-26.6	-27.6	13.9	2.20e-06	0	43	0	4578082816	13	4020
2026-01-09 15:57:56.32	331.61	9.17	-26.6	-27.5	13.9	3.40e-06	0	43	0	4585422848	13	4008
2026-01-09 15:57:57.32	331.69	9.09	-26.6	-27.6	13.9	1.14e-05	0	43	0	4592762880	13	4012
2026-01-09 15:57:58.32	331.77	9.02	-26.6	-27.6	13.8	3.40e-06	0	43	0	4599054336	13	4029
2026-01-09 15:57:59.32	331.86	8.95	-26.6	-27.6	13.8	6.80e-06	0	43	0	4606394368	13	4023
2026-01-09 15:58:00.32	331.94	8.87	-26.8	-27.9	13.6	1.14e-05	0	43	0	4613734400	13	4115
2026-01-09 15:58:01.33	332.02	8.80	-26.8	-28.0	13.6	1.25e-05	0	43	0	4621074432	13	4121
2026-01-09 15:58:02.32	332.10	8.73	-26.9	-28.3	13.4	8.00e-06	0	43	0	4628414464	13	4211
2026-01-09 15:58:03.33	332.18	8.65	-26.8	-28.0	13.6	9.10e-06	0	43	0	4635754496	13	4122
2026-01-09 15:58:04.32	332.25	8.58	-26.9	-28.2	13.4	1.83e-05	0	43	0	4643094528	13	4175
2026-01-09 15:58:05.32	332.33	8.51	-27.0	-28.4	13.3	2.17e-05	0	43	0	4650434560	13	4251
2026-01-09 15:58:06.33	332.41	8.44	-27.0	-28.4	13.3	1.25e-05	0	43	0	4657774592	13	4239
2026-01-09 15:58:07.34	332.49	8.36	-27.2	-28.4	13.0	4.00e-05	0	43	0	4664066048	14	4134
2026-01-09 15:58:08.34	332.57	8.29	-27.2	-28.5	13.0	4.92e-05	0	43	0	4671406080	14	4147
2026-01-09 15:58:09.35	332.65	8.22	-27.2	-28.3	13.1	4.00e-05	0	43	0	4678746112	14	4108
2026-01-09 15:58:10.35	332.72	8.15	-27.2	-28.3	13.1	3.66e-05	0	43	0	4686086144	14	4115
2026-01-09 15:58:11.36	332.80	8.08	-27.0	-27.9	13.3	2.40e-05	0	43	0	4693426176	14	4012
2026-01-09 15:58:12.35	332.88	8.01	-27.0	-27.9	13.3	9.10e-06	0	43	0	4700766208	14	3987
2026-01-09 15:58:13.34	332.95	7.94	-27.0	-28.0	13.3	1.71e-05	0	43	0	4708106240	14	4023
2026-01-09 15:58:14.34	333.03	7.86	-27.0	-28.0	13.2	2.74e-05	0	43	0	4715446272	14	4016
2026-01-09 15:58:15.35	333.10	7.79	-27.1	-28.1	13.1	2.05e-05	0	43	0	4722786304	14	4056
2026-01-09 15:58:16.35	333.18	7.72	-27.2	-28.4	13.0	5.26e-05	0	43	0	4729077760	14	4137
2026-01-09 15:58:17.35	333.25	7.65	-27.0	-27.9	13.3	2.51e-05	0	43	0	4736417792	14	4001
2026-01-09 15:58:18.35	333.33	7.58	-26.8	-27.5	13.5	2.05e-05	0	43	0	4743757824	14	3900
2026-01-09 15:58:19.35	333.40	7.51	-26.8	-27.5	13.5	9.10e-06	0	43	0	4751097856	14	3901
2026-01-09 15:58:20.36	333.47	7.44	-26.9	-27.8	13.3	6.80e-06	0	43	0	4758437888	14	3966
2026-01-09 15:58:21.36	333.55	7.37	-27.0	-28.0	13.2	3.31e-05	0	43	0	4765777920	14	4019
2026-01-09 15:58:22.37	333.62	7.30	-26.7	-27.4	13.5	1.48e-05	0	43	0	4773117952	14	3871
2026-01-09 15:58:23.36	333.69	7.23	-26.9	-27.8	13.3	1.83e-05	0	43	0	4780457984	14	3985
2026-01-09 15:58:24.37	333.77	7.16	-26.9	-27.7	13.3	5.26e-05	0	43	0	4787798016	14	3958
2026-01-09 15:58:25.37	333.84	7.09	-31.1	-35.3	7.0	1.83e-05	0	43	0	4795138048	21	5836
2026-01-09 15:58:26.38	333.91	7.02	-33.2	-42.8	3.8	8.47e-01	0	43	104	4795138048	26	10892
2026-01-09 15:58:27.38	333.98	6.95	-33.4	-43.3	3.8	8.45e-01	0	43	104	4795138048	26	11146
2026-01-09 15:58:28.39	334.05	6.88	-33.6	-43.1	3.8	8.46e-01	0	43	104	4795138048	27	10678
2026-01-09 15:58:29.38	334.12	6.82	-33.8	-43.4	3.8	8.47e-01	0	43	104	4795138048	27	10887

#Closed at: 2026-01-09 15:58:29
#Recorded file [4795 MB]: D:/data/31010_260109_184721.dat