passes_logs/2026/01/09/R2M6_AANII_01/R2M6_AANII_01__20260109_091100_NOAA_21_JPSS-2_rec.log

#Pass ID: 20260109_091100_NOAA 21 (JPSS-2)
#Satellite: NOAA 21 (JPSS-2)
#Configuration: NOAA 21
#almurnet v.1.7.20240730
#Start time: 2026-01-09 09:11:02

#Version: 2.2.20231116
#Station: R2M6_AANII_01
#Location: 30.233357 lon 59.946436 lat
#TLE: 1 54234U 22150A   26008.45757862  .00000119  00000+0  77172-4 0  9996
#TLE: 2 54234  98.7494 309.4367 0000894 328.2777  31.8345 14.19533328163889

#Time	Az	El	Level	Level2	SNR	BER	BlckErr	Temp	State	Recorded	gain1	gain2
2026-01-09 09:11:02.48	125.07	7.13	-30.6	-35.1	4.6	1.40e+00	0	40	0	0	22	6014
2026-01-09 09:11:03.48	125.01	7.21	-30.5	-34.7	4.7	1.39e+00	0	40	104	0	22	5838
2026-01-09 09:11:04.49	124.96	7.28	-30.6	-34.1	8.9	2.85e-02	0	40	0	0	22	5408
2026-01-09 09:11:05.50	124.90	7.35	-30.5	-33.9	9.0	2.44e-02	0	40	0	3145728	22	5337
2026-01-09 09:11:06.50	124.84	7.43	-30.4	-33.6	9.3	1.90e-02	0	40	0	6291456	22	5176
2026-01-09 09:11:07.50	124.79	7.50	-30.2	-33.5	9.7	1.13e-02	0	40	0	9437184	21	5257
2026-01-09 09:11:08.51	124.73	7.58	-30.2	-33.3	9.8	1.41e-02	0	41	0	12582912	21	5178
2026-01-09 09:11:09.50	124.67	7.65	-29.8	-32.2	10.6	5.23e-03	0	40	0	15728640	21	4768
2026-01-09 09:11:10.51	124.61	7.73	-29.5	-32.0	11.0	2.04e-03	0	40	0	18874368	20	4803
2026-01-09 09:11:11.51	124.55	7.80	-29.3	-31.8	11.6	8.54e-04	0	41	0	22020096	19	4804
2026-01-09 09:11:12.51	124.50	7.88	-29.3	-31.7	11.8	4.80e-04	0	41	0	24117248	19	4751
2026-01-09 09:11:13.52	124.44	7.95	-29.2	-31.5	11.8	5.18e-04	0	41	0	27262976	19	4697
2026-01-09 09:11:14.52	124.38	8.03	-28.9	-30.7	12.3	1.77e-04	0	41	0	30408704	19	4443
2026-01-09 09:11:15.53	124.32	8.10	-28.7	-30.7	12.7	8.39e-05	0	41	0	34603008	18	4544
2026-01-09 09:11:16.53	124.26	8.18	-28.6	-30.5	12.9	4.50e-05	0	41	0	37748736	18	4456
2026-01-09 09:11:17.54	124.20	8.26	-28.6	-30.5	12.9	5.03e-05	0	41	0	40894464	18	4463
2026-01-09 09:11:18.55	124.14	8.33	-28.5	-30.3	13.0	3.43e-05	0	41	0	44040192	18	4403
2026-01-09 09:11:19.55	124.07	8.41	-28.6	-30.4	13.0	3.73e-05	0	41	0	47185920	18	4429
2026-01-09 09:11:20.55	124.01	8.49	-28.5	-30.2	13.1	3.35e-05	0	41	0	49283072	18	4383
2026-01-09 09:11:21.55	123.95	8.56	-28.6	-30.3	13.0	3.58e-05	0	41	0	52428800	18	4405
2026-01-09 09:11:22.56	123.89	8.64	-28.5	-30.1	13.2	2.67e-05	0	41	0	55574528	18	4341
2026-01-09 09:11:23.57	123.83	8.72	-28.5	-30.2	13.1	3.35e-05	0	41	0	58720256	18	4376
2026-01-09 09:11:24.57	123.76	8.79	-28.5	-30.2	13.1	2.67e-05	0	41	0	61865984	18	4383
2026-01-09 09:11:25.58	123.70	8.87	-28.5	-30.1	13.2	2.21e-05	0	41	0	66060288	18	4350
2026-01-09 09:11:26.59	123.64	8.95	-28.6	-30.4	13.0	2.67e-05	0	41	0	69206016	18	4443
2026-01-09 09:11:27.60	123.57	9.03	-28.5	-30.2	13.1	3.43e-05	0	41	0	71303168	18	4370
2026-01-09 09:11:28.60	123.51	9.11	-28.4	-29.9	13.3	2.97e-05	0	41	0	74448896	18	4285
2026-01-09 09:11:29.61	123.44	9.19	-28.5	-30.0	13.3	1.29e-05	0	41	0	77594624	18	4319
2026-01-09 09:11:30.61	123.38	9.27	-28.4	-30.0	13.3	1.37e-05	0	41	0	80740352	18	4292
2026-01-09 09:11:31.61	123.31	9.35	-28.4	-29.9	13.4	1.14e-05	0	41	0	83886080	18	4262
2026-01-09 09:11:32.62	123.25	9.42	-28.4	-29.9	13.4	1.98e-05	0	41	0	87031808	18	4277
2026-01-09 09:11:33.63	123.18	9.50	-28.6	-30.3	13.2	2.05e-05	0	41	0	90177536	18	4381
2026-01-09 09:11:34.63	123.11	9.58	-28.5	-30.1	13.3	2.21e-05	0	41	0	94371840	18	4330
2026-01-09 09:11:35.64	123.05	9.66	-28.4	-29.8	13.4	1.29e-05	0	41	0	96468992	18	4259
2026-01-09 09:11:36.65	122.98	9.75	-28.4	-29.8	13.4	1.75e-05	0	41	0	99614720	18	4259
2026-01-09 09:11:37.65	122.91	9.83	-28.3	-29.7	13.5	1.60e-05	0	41	0	102760448	18	4221
2026-01-09 09:11:38.66	122.84	9.91	-28.3	-29.7	13.6	6.10e-06	0	41	0	105906176	18	4205
2026-01-09 09:11:39.67	122.78	9.99	-28.3	-30.0	13.6	1.60e-05	0	41	0	109051904	17	4421
2026-01-09 09:11:40.67	122.71	10.07	-28.2	-30.0	13.7	5.30e-06	0	41	0	112197632	17	4404
2026-01-09 09:11:41.68	122.64	10.15	-28.2	-29.9	13.7	1.37e-05	0	41	0	116391936	17	4383
2026-01-09 09:11:42.69	122.57	10.23	-28.1	-29.7	13.8	4.50e-06	0	42	0	118489088	17	4331
2026-01-09 09:11:43.69	122.50	10.31	-28.1	-29.7	13.8	1.50e-06	0	41	0	121634816	17	4327
2026-01-09 09:11:44.69	122.43	10.40	-28.3	-30.1	13.7	1.06e-05	0	41	0	124780544	17	4424
2026-01-09 09:11:45.70	122.36	10.48	-28.4	-30.4	13.5	1.14e-05	0	41	0	127926272	17	4513
2026-01-09 09:11:46.70	122.29	10.56	-28.2	-29.9	13.7	7.60e-06	0	41	0	131072000	17	4385
2026-01-09 09:11:47.70	122.21	10.64	-28.2	-29.9	13.8	1.37e-05	0	42	0	134217728	17	4363
2026-01-09 09:11:48.70	122.14	10.73	-28.3	-30.0	13.7	5.30e-06	0	42	0	137363456	17	4411
2026-01-09 09:11:49.71	122.07	10.81	-28.3	-30.0	13.7	7.60e-06	0	41	0	140509184	17	4410
2026-01-09 09:11:50.72	122.00	10.89	-28.3	-30.1	13.7	1.29e-05	0	41	0	143654912	17	4428
2026-01-09 09:11:51.72	121.92	10.98	-28.2	-29.8	13.8	4.50e-06	0	41	0	146800640	17	4349
2026-01-09 09:11:52.73	121.85	11.06	-28.0	-29.4	14.1	4.50e-06	0	42	0	149946368	17	4233
2026-01-09 09:11:53.73	121.77	11.14	-27.9	-29.2	14.2	1.14e-05	0	42	0	153092096	17	4168
2026-01-09 09:11:54.74	121.70	11.23	-27.9	-29.1	14.3	2.20e-06	0	41	0	156237824	17	4131
2026-01-09 09:11:55.74	121.62	11.31	-28.0	-29.4	14.1	3.00e-06	0	42	0	159383552	17	4233
2026-01-09 09:11:56.75	121.55	11.40	-27.9	-29.2	14.3	2.36e-05	0	42	0	162529280	17	4158
2026-01-09 09:11:57.75	121.47	11.48	-27.9	-29.2	14.2	7.00e-07	0	42	0	165675008	17	4165
2026-01-09 09:11:58.76	121.40	11.57	-28.0	-29.4	14.2	7.00e-07	0	42	0	168820736	17	4221
2026-01-09 09:11:59.77	121.32	11.66	-28.0	-29.4	14.1	0.00e+00	0	42	0	171966464	17	4225
2026-01-09 09:12:00.78	121.24	11.74	-28.0	-29.3	14.2	1.50e-06	0	42	0	175112192	17	4192
2026-01-09 09:12:01.78	121.16	11.83	-27.9	-29.3	14.2	7.00e-07	0	42	0	178257920	17	4185
2026-01-09 09:12:02.79	121.08	11.92	-27.9	-29.2	14.3	1.50e-06	0	42	0	181403648	17	4160
2026-01-09 09:12:03.80	121.01	12.00	-27.9	-29.1	14.4	7.00e-07	0	42	0	184549376	17	4130
2026-01-09 09:12:04.81	120.93	12.09	-27.9	-29.0	14.4	1.50e-06	0	42	0	187695104	17	4127
2026-01-09 09:12:05.81	120.85	12.18	-28.0	-29.3	14.2	0.00e+00	0	42	0	190840832	17	4188
2026-01-09 09:12:06.82	120.77	12.26	-27.9	-29.1	14.4	0.00e+00	0	42	0	193986560	17	4141
2026-01-09 09:12:07.83	120.68	12.35	-27.8	-28.9	14.5	7.00e-07	0	42	0	197132288	17	4075
2026-01-09 09:12:08.84	120.60	12.44	-27.8	-29.3	14.5	7.00e-07	0	42	0	200278016	16	4306
2026-01-09 09:12:09.84	120.52	12.53	-27.7	-29.2	14.6	7.00e-07	0	42	0	203423744	16	4282
2026-01-09 09:12:10.84	120.44	12.62	-27.7	-29.2	14.6	7.00e-07	0	42	0	206569472	16	4268
2026-01-09 09:12:11.85	120.36	12.71	-27.7	-29.2	14.6	0.00e+00	0	42	0	209715200	16	4271
2026-01-09 09:12:12.86	120.27	12.80	-27.9	-29.6	14.4	0.00e+00	0	42	0	212860928	16	4403
2026-01-09 09:12:13.87	120.19	12.88	-27.8	-29.3	14.5	0.00e+00	0	42	0	216006656	16	4300
2026-01-09 09:12:14.87	120.10	12.97	-27.7	-29.1	14.7	0.00e+00	0	42	0	219152384	16	4236
2026-01-09 09:12:15.87	120.02	13.06	-27.6	-28.9	14.8	0.00e+00	0	42	0	222298112	16	4184
2026-01-09 09:12:16.88	119.93	13.15	-27.5	-28.8	14.8	0.00e+00	0	42	0	225443840	16	4166
2026-01-09 09:12:17.89	119.85	13.24	-27.7	-29.3	14.6	0.00e+00	0	42	0	228589568	16	4300
2026-01-09 09:12:18.89	119.76	13.33	-27.6	-29.0	14.8	1.50e-06	0	42	0	231735296	16	4224
2026-01-09 09:12:19.90	119.67	13.43	-27.6	-28.9	14.8	0.00e+00	0	42	0	234881024	16	4201
2026-01-09 09:12:20.91	119.59	13.52	-27.7	-29.2	14.6	0.00e+00	0	42	0	238026752	16	4273
2026-01-09 09:12:21.91	119.50	13.61	-27.7	-29.1	14.7	0.00e+00	0	42	0	241172480	16	4235
2026-01-09 09:12:22.92	119.41	13.70	-27.6	-29.0	14.8	0.00e+00	0	42	0	244318208	16	4208
2026-01-09 09:12:23.93	119.32	13.79	-27.7	-29.2	14.7	0.00e+00	0	42	0	247463936	16	4266
2026-01-09 09:12:24.93	119.23	13.89	-27.7	-29.1	14.7	0.00e+00	0	42	0	250609664	16	4233
2026-01-09 09:12:25.94	119.14	13.98	-27.6	-29.0	14.8	0.00e+00	0	42	0	253755392	16	4207
2026-01-09 09:12:26.94	119.05	14.07	-27.7	-29.1	14.7	7.00e-07	0	42	0	256901120	16	4235
2026-01-09 09:12:27.95	118.96	14.16	-27.6	-28.9	14.8	0.00e+00	0	42	0	260046848	16	4188
2026-01-09 09:12:28.96	118.86	14.26	-27.6	-28.9	14.8	0.00e+00	0	42	0	263192576	16	4185
2026-01-09 09:12:29.96	118.77	14.35	-27.6	-28.9	14.9	0.00e+00	0	42	0	266338304	16	4181
2026-01-09 09:12:30.96	118.68	14.44	-27.6	-28.9	14.8	7.00e-07	0	42	0	269484032	16	4192
2026-01-09 09:12:31.96	118.58	14.54	-27.6	-28.8	14.9	0.00e+00	0	42	0	272629760	16	4159
2026-01-09 09:12:32.97	118.49	14.63	-27.6	-28.9	14.9	0.00e+00	0	42	0	275775488	16	4178
2026-01-09 09:12:33.97	118.39	14.73	-27.8	-29.3	14.7	0.00e+00	0	42	0	278921216	16	4284
2026-01-09 09:12:34.97	118.30	14.82	-27.6	-29.0	14.8	0.00e+00	0	42	0	282066944	16	4210
2026-01-09 09:12:35.98	118.20	14.92	-27.5	-28.8	15.0	0.00e+00	0	42	0	285212672	16	4145
2026-01-09 09:12:36.98	118.10	15.01	-27.6	-28.8	14.9	0.00e+00	0	42	0	288358400	16	4158
2026-01-09 09:12:37.99	118.01	15.11	-27.6	-29.0	14.8	7.00e-07	0	42	0	291504128	16	4197
2026-01-09 09:12:38.99	117.91	15.21	-27.6	-28.8	14.9	0.00e+00	0	42	0	294649856	16	4159
2026-01-09 09:12:39.99	117.81	15.30	-27.7	-29.0	14.8	0.00e+00	0	42	0	297795584	16	4217
2026-01-09 09:12:40.99	117.71	15.40	-27.6	-29.0	14.9	0.00e+00	0	42	0	300941312	16	4200
2026-01-09 09:12:42.00	117.61	15.50	-27.6	-29.0	14.8	0.00e+00	0	42	0	304087040	16	4206
2026-01-09 09:12:43.00	117.51	15.59	-27.7	-29.0	14.8	0.00e+00	0	42	0	307232768	16	4216
2026-01-09 09:12:44.01	117.41	15.69	-27.7	-29.2	14.7	7.00e-07	0	42	0	310378496	16	4250
2026-01-09 09:12:45.02	117.30	15.79	-27.7	-29.2	14.7	0.00e+00	0	42	0	313524224	16	4267
2026-01-09 09:12:46.02	117.20	15.89	-27.7	-29.2	14.7	0.00e+00	0	42	0	316669952	16	4276
2026-01-09 09:12:47.03	117.10	15.99	-27.8	-29.4	14.6	0.00e+00	0	42	0	319815680	16	4334
2026-01-09 09:12:48.04	116.99	16.09	-28.0	-29.9	14.3	1.50e-06	0	42	0	322961408	16	4463
2026-01-09 09:12:49.05	116.89	16.19	-27.8	-29.4	14.7	0.00e+00	0	42	0	326107136	16	4320
2026-01-09 09:12:50.05	116.78	16.28	-27.7	-29.1	14.9	7.60e-06	0	42	0	329252864	16	4227
2026-01-09 09:12:51.06	116.67	16.39	-27.7	-29.2	14.8	0.00e+00	0	42	0	332398592	16	4261
2026-01-09 09:12:52.07	116.56	16.49	-27.8	-29.2	14.8	0.00e+00	0	42	0	335544320	16	4275
2026-01-09 09:12:53.07	116.46	16.59	-27.7	-29.1	14.8	0.00e+00	0	42	0	338690048	16	4249
2026-01-09 09:12:54.08	116.35	16.69	-27.8	-29.4	14.7	7.00e-07	0	42	0	341835776	16	4315
2026-01-09 09:12:55.08	116.24	16.79	-27.9	-29.7	14.5	1.50e-06	0	42	0	344981504	16	4391
2026-01-09 09:12:56.09	116.13	16.89	-27.8	-29.4	14.7	7.00e-07	0	42	0	348127232	16	4314
2026-01-09 09:12:57.09	116.02	16.99	-27.7	-29.2	14.8	0.00e+00	0	42	0	351272960	16	4257
2026-01-09 09:12:58.10	115.90	17.09	-27.7	-29.2	14.8	0.00e+00	0	42	0	354418688	16	4266
2026-01-09 09:12:59.11	115.79	17.20	-27.8	-29.2	14.8	3.80e-06	0	42	0	357564416	16	4261
2026-01-09 09:13:00.12	115.68	17.30	-27.9	-29.5	14.7	0.00e+00	0	42	0	360710144	16	4340
2026-01-09 09:13:01.12	115.56	17.40	-27.8	-29.3	14.8	0.00e+00	0	42	0	363855872	16	4286
2026-01-09 09:13:02.13	115.45	17.51	-27.7	-29.2	14.9	4.50e-06	0	42	0	367001600	16	4262
2026-01-09 09:13:03.13	115.33	17.61	-27.8	-29.4	14.8	7.00e-07	0	42	0	370147328	16	4305
2026-01-09 09:13:04.14	115.21	17.71	-27.8	-29.4	14.8	0.00e+00	0	42	0	373293056	16	4303
2026-01-09 09:13:05.15	115.10	17.82	-27.9	-29.6	14.7	8.30e-06	0	42	0	376438784	16	4356
2026-01-09 09:13:06.16	114.98	17.92	-27.8	-29.4	14.7	7.00e-07	0	42	0	379584512	16	4315
2026-01-09 09:13:07.17	114.86	18.03	-27.9	-29.6	14.7	1.50e-06	0	42	0	382730240	16	4358
2026-01-09 09:13:08.18	114.74	18.13	-27.9	-29.6	14.7	0.00e+00	0	42	0	385875968	16	4355
2026-01-09 09:13:09.18	114.62	18.24	-28.0	-29.7	14.6	0.00e+00	0	42	0	389021696	16	4394
2026-01-09 09:13:10.19	114.49	18.35	-27.9	-29.5	14.7	7.00e-07	0	42	0	392167424	16	4355
2026-01-09 09:13:11.19	114.37	18.45	-27.9	-29.5	14.7	7.00e-07	0	42	0	395313152	16	4349
2026-01-09 09:13:12.19	114.25	18.56	-27.9	-29.5	14.7	0.00e+00	0	42	0	398458880	16	4347
2026-01-09 09:13:13.20	114.12	18.66	-27.7	-29.0	15.0	0.00e+00	0	42	0	401604608	16	4209
2026-01-09 09:13:14.20	114.00	18.77	-27.7	-29.2	14.9	0.00e+00	0	42	0	404750336	16	4252
2026-01-09 09:13:15.21	113.87	18.88	-27.7	-29.2	14.9	0.00e+00	0	42	0	407896064	16	4257
2026-01-09 09:13:16.22	113.74	18.99	-27.8	-29.3	14.9	1.50e-06	0	42	0	411041792	16	4271
2026-01-09 09:13:17.22	113.62	19.09	-27.6	-28.9	15.1	0.00e+00	0	42	0	414187520	16	4175
2026-01-09 09:13:18.23	113.49	19.20	-27.5	-28.6	15.3	0.00e+00	0	42	0	417333248	16	4087
2026-01-09 09:13:19.23	113.36	19.31	-27.5	-28.6	15.3	0.00e+00	0	43	0	420478976	16	4098
2026-01-09 09:13:20.23	113.23	19.42	-27.5	-28.7	15.2	0.00e+00	0	42	0	423624704	16	4114
2026-01-09 09:13:21.24	113.10	19.53	-27.5	-28.7	15.2	0.00e+00	0	42	0	426770432	16	4126
2026-01-09 09:13:22.25	112.96	19.64	-27.6	-29.0	15.1	0.00e+00	0	42	0	429916160	16	4187
2026-01-09 09:13:23.25	112.83	19.75	-27.5	-28.7	15.3	0.00e+00	0	42	0	433061888	16	4117
2026-01-09 09:13:24.26	112.69	19.86	-27.6	-28.8	15.2	0.00e+00	0	42	0	436207616	16	4138
2026-01-09 09:13:25.27	112.56	19.97	-27.8	-29.3	15.0	0.00e+00	0	42	0	439353344	16	4269
2026-01-09 09:13:26.28	112.42	20.08	-27.4	-28.5	15.4	0.00e+00	0	42	0	442499072	16	4055
2026-01-09 09:13:27.28	112.28	20.19	-27.4	-28.5	15.4	0.00e+00	0	42	0	445644800	16	4053
2026-01-09 09:13:28.28	112.14	20.30	-27.5	-28.6	15.3	0.00e+00	0	42	0	448790528	16	4102
2026-01-09 09:13:29.29	112.00	20.42	-27.3	-28.2	15.5	0.00e+00	0	42	0	451936256	16	3992
2026-01-09 09:13:30.29	111.86	20.53	-27.4	-28.4	15.5	0.00e+00	0	42	0	455081984	16	4029
2026-01-09 09:13:31.30	111.72	20.64	-27.3	-28.1	15.6	0.00e+00	0	42	0	458227712	16	3966
2026-01-09 09:13:32.31	111.58	20.75	-27.1	-28.3	15.7	0.00e+00	0	42	0	461373440	15	4108
2026-01-09 09:13:33.31	111.43	20.87	-27.0	-28.1	15.7	0.00e+00	0	42	0	464519168	15	4066
2026-01-09 09:13:34.32	111.29	20.98	-27.0	-27.9	15.8	0.00e+00	0	42	0	467664896	15	4013
2026-01-09 09:13:35.32	111.14	21.09	-26.9	-27.8	15.9	0.00e+00	0	42	0	470810624	15	3985
2026-01-09 09:13:36.32	111.00	21.21	-26.9	-27.8	15.9	0.00e+00	0	42	0	473956352	15	3979
2026-01-09 09:13:37.33	110.85	21.32	-26.9	-27.7	16.0	0.00e+00	0	42	0	477102080	15	3968
2026-01-09 09:13:38.33	110.70	21.44	-27.0	-27.9	15.9	0.00e+00	0	42	0	480247808	15	4020
2026-01-09 09:13:39.34	110.55	21.55	-26.8	-27.7	16.0	0.00e+00	0	42	0	483393536	15	3956
2026-01-09 09:13:40.35	110.39	21.67	-26.9	-27.8	15.9	0.00e+00	0	42	0	486539264	15	3994
2026-01-09 09:13:41.35	110.24	21.78	-26.9	-27.8	15.9	0.00e+00	0	42	0	489684992	15	3999
2026-01-09 09:13:42.35	110.09	21.90	-26.9	-27.8	15.9	0.00e+00	0	42	0	492830720	15	3982
2026-01-09 09:13:43.36	109.93	22.02	-26.8	-27.6	16.0	0.00e+00	0	42	0	495976448	15	3933
2026-01-09 09:13:44.37	109.78	22.13	-26.7	-27.9	16.2	0.00e+00	0	42	0	499122176	14	4124
2026-01-09 09:13:45.38	109.62	22.25	-26.6	-27.7	16.3	0.00e+00	0	42	0	502267904	14	4058
2026-01-09 09:13:46.38	109.46	22.37	-26.7	-27.8	16.2	0.00e+00	0	42	0	505413632	14	4103
2026-01-09 09:13:47.39	109.30	22.48	-26.8	-28.1	16.1	0.00e+00	0	43	0	508559360	14	4170
2026-01-09 09:13:48.39	109.14	22.60	-26.8	-28.0	16.1	0.00e+00	0	43	0	511705088	14	4151
2026-01-09 09:13:49.40	108.97	22.72	-26.8	-28.0	16.1	0.00e+00	0	42	0	514850816	14	4148
2026-01-09 09:13:50.40	108.81	22.84	-26.8	-28.0	16.1	0.00e+00	0	42	0	517996544	14	4135
2026-01-09 09:13:51.41	108.65	22.96	-26.7	-27.9	16.2	0.00e+00	0	43	0	521142272	14	4123
2026-01-09 09:13:52.42	108.48	23.08	-26.7	-27.9	16.2	0.00e+00	0	42	0	524288000	14	4106
2026-01-09 09:13:53.43	108.31	23.20	-26.7	-27.9	16.2	0.00e+00	0	42	0	527433728	14	4125
2026-01-09 09:13:54.44	108.14	23.32	-26.8	-28.0	16.1	0.00e+00	0	42	0	530579456	14	4136
2026-01-09 09:13:55.44	107.97	23.44	-26.6	-27.7	16.3	0.00e+00	0	42	0	533725184	14	4067
2026-01-09 09:13:56.45	107.80	23.56	-26.6	-27.5	16.4	0.00e+00	0	42	0	536870912	14	4018
2026-01-09 09:13:57.45	107.63	23.68	-26.6	-27.5	16.4	0.00e+00	0	42	0	540016640	14	4018
2026-01-09 09:13:58.46	107.45	23.80	-26.6	-27.6	16.4	0.00e+00	0	42	0	543162368	14	4036
2026-01-09 09:13:59.47	107.28	23.92	-26.5	-27.5	16.4	0.00e+00	0	43	0	546308096	14	4005
2026-01-09 09:14:00.48	107.10	24.04	-26.6	-27.6	16.4	0.00e+00	0	42	0	549453824	14	4033
2026-01-09 09:14:01.48	106.92	24.16	-26.6	-27.6	16.4	0.00e+00	0	42	0	552599552	14	4043
2026-01-09 09:14:02.49	106.74	24.28	-26.6	-27.5	16.4	0.00e+00	0	43	0	555745280	14	4023
2026-01-09 09:14:03.49	106.56	24.40	-26.5	-27.4	16.5	0.00e+00	0	42	0	558891008	14	3990
2026-01-09 09:14:04.49	106.38	24.53	-26.5	-27.4	16.5	7.00e-07	0	42	0	562036736	14	3989
2026-01-09 09:14:05.50	106.19	24.65	-26.5	-27.5	16.5	0.00e+00	0	42	0	565182464	14	4005
2026-01-09 09:14:06.51	106.01	24.77	-26.5	-27.4	16.5	0.00e+00	0	43	0	568328192	14	3996
2026-01-09 09:14:07.52	105.82	24.89	-26.6	-27.5	16.4	0.00e+00	0	42	0	571473920	14	4011
2026-01-09 09:14:08.52	105.63	25.02	-26.6	-27.6	16.4	0.00e+00	0	42	0	574619648	14	4024
2026-01-09 09:14:09.53	105.44	25.14	-26.8	-28.0	16.2	0.00e+00	0	43	0	577765376	14	4145
2026-01-09 09:14:10.52	105.25	25.26	-26.7	-27.8	16.3	1.50e-06	0	42	0	580911104	14	4096
2026-01-09 09:14:11.52	105.06	25.39	-26.8	-27.9	16.2	0.00e+00	0	42	0	584056832	14	4127
2026-01-09 09:14:12.53	104.86	25.51	-26.8	-27.9	16.2	0.00e+00	0	43	0	587202560	14	4126
2026-01-09 09:14:13.53	104.67	25.63	-26.8	-28.0	16.2	1.50e-06	0	43	0	590348288	14	4151
2026-01-09 09:14:14.54	104.47	25.76	-26.8	-28.1	16.2	0.00e+00	0	42	0	593494016	14	4158
2026-01-09 09:14:15.54	104.27	25.88	-26.7	-27.8	16.3	0.00e+00	0	42	0	596639744	14	4090
2026-01-09 09:14:16.55	104.07	26.01	-26.8	-28.0	16.2	0.00e+00	0	43	0	599785472	14	4140
2026-01-09 09:14:17.56	103.87	26.13	-26.8	-28.0	16.2	0.00e+00	0	43	0	602931200	14	4150
2026-01-09 09:14:18.57	103.66	26.26	-26.8	-28.0	16.2	0.00e+00	0	42	0	606076928	14	4134
2026-01-09 09:14:19.57	103.46	26.38	-26.9	-28.3	16.1	3.00e-06	0	42	0	609222656	14	4216
2026-01-09 09:14:20.58	103.25	26.51	-27.0	-28.4	16.0	0.00e+00	0	43	0	612368384	14	4252
2026-01-09 09:14:21.58	103.04	26.64	-27.0	-28.6	15.9	0.00e+00	0	42	0	615514112	14	4307
2026-01-09 09:14:22.59	102.83	26.76	-27.0	-28.5	15.9	0.00e+00	0	43	0	618659840	14	4290
2026-01-09 09:14:23.60	102.62	26.89	-27.1	-28.8	15.8	0.00e+00	0	42	0	621805568	14	4373
2026-01-09 09:14:24.61	102.40	27.02	-27.1	-28.7	15.8	0.00e+00	0	43	0	624951296	14	4329
2026-01-09 09:14:25.61	102.19	27.14	-27.0	-28.5	16.0	0.00e+00	0	43	0	628097024	14	4272
2026-01-09 09:14:26.61	101.97	27.27	-27.0	-28.5	16.0	0.00e+00	0	43	0	631242752	14	4277
2026-01-09 09:14:27.61	101.75	27.39	-27.0	-28.5	16.0	0.00e+00	0	43	0	634388480	14	4283
2026-01-09 09:14:28.62	101.53	27.52	-27.0	-28.5	16.0	0.00e+00	0	43	0	637534208	14	4263
2026-01-09 09:14:29.63	101.31	27.65	-27.1	-28.7	15.8	0.00e+00	0	43	0	640679936	14	4337
2026-01-09 09:14:30.64	101.08	27.77	-27.2	-29.0	15.7	0.00e+00	0	43	0	643825664	14	4413
2026-01-09 09:14:31.65	100.85	27.90	-27.4	-29.4	15.5	0.00e+00	0	42	0	646971392	14	4537
2026-01-09 09:14:32.66	100.62	28.03	-27.5	-29.2	15.3	0.00e+00	0	43	0	650117120	15	4353
2026-01-09 09:14:33.67	100.39	28.16	-27.7	-29.6	15.1	7.00e-07	0	43	0	653262848	15	4483
2026-01-09 09:14:34.67	100.16	28.28	-27.6	-29.5	15.2	0.00e+00	0	42	0	656408576	15	4436
2026-01-09 09:14:35.68	99.93	28.41	-27.4	-28.8	15.5	0.00e+00	0	43	0	659554304	15	4250
2026-01-09 09:14:36.69	99.69	28.54	-27.3	-28.6	15.7	0.00e+00	0	42	0	662700032	15	4184
2026-01-09 09:14:37.69	99.45	28.67	-27.3	-28.7	15.7	0.00e+00	0	42	0	665845760	15	4216
2026-01-09 09:14:38.70	99.21	28.79	-27.2	-28.4	15.8	0.00e+00	0	43	0	668991488	15	4134
2026-01-09 09:14:39.71	98.97	28.92	-27.3	-28.6	15.7	0.00e+00	0	42	0	672137216	15	4195
2026-01-09 09:14:40.71	98.73	29.05	-27.3	-28.5	15.7	0.00e+00	0	43	0	675282944	15	4174
2026-01-09 09:14:41.71	98.49	29.17	-27.2	-28.5	15.7	0.00e+00	0	43	0	678428672	15	4152
2026-01-09 09:14:42.72	98.24	29.30	-27.3	-28.7	15.6	0.00e+00	0	42	0	681574400	15	4218
2026-01-09 09:14:43.72	97.99	29.43	-27.4	-28.8	15.6	0.00e+00	0	43	0	684720128	15	4230
2026-01-09 09:14:44.73	97.74	29.56	-27.4	-29.0	15.5	0.00e+00	0	43	0	687865856	15	4291
2026-01-09 09:14:45.73	97.49	29.68	-27.6	-29.4	15.3	0.00e+00	0	42	0	691011584	15	4404
2026-01-09 09:14:46.73	97.23	29.81	-27.6	-29.3	15.3	0.00e+00	0	43	0	694157312	15	4395
2026-01-09 09:14:47.74	96.97	29.94	-27.5	-29.2	15.4	0.00e+00	0	43	0	697303040	15	4343
2026-01-09 09:14:48.75	96.71	30.06	-27.6	-29.4	15.2	0.00e+00	0	43	0	700448768	15	4416
2026-01-09 09:14:49.75	96.45	30.19	-27.7	-29.6	15.2	0.00e+00	0	42	0	703594496	15	4458
2026-01-09 09:14:50.75	96.19	30.32	-27.8	-29.8	15.0	0.00e+00	0	42	0	706740224	15	4528
2026-01-09 09:14:51.76	95.92	30.44	-27.8	-29.9	15.0	0.00e+00	0	42	0	709885952	15	4555
2026-01-09 09:14:52.77	95.66	30.57	-27.9	-30.0	14.9	7.00e-07	0	43	0	713031680	15	4596
2026-01-09 09:14:53.78	95.39	30.70	-27.8	-29.8	15.1	7.00e-07	0	43	0	716177408	15	4523
2026-01-09 09:14:54.79	95.11	30.82	-27.7	-29.4	15.3	0.00e+00	0	43	0	719323136	15	4418
2026-01-09 09:14:55.80	94.84	30.95	-27.6	-29.4	15.3	0.00e+00	0	42	0	722468864	15	4414
2026-01-09 09:14:56.80	94.56	31.07	-27.6	-29.4	15.3	0.00e+00	0	43	0	725614592	15	4408
2026-01-09 09:14:57.81	94.28	31.20	-27.8	-29.7	15.1	0.00e+00	0	43	0	728760320	15	4506
2026-01-09 09:14:58.82	94.00	31.33	-27.8	-29.7	15.1	0.00e+00	0	43	0	731906048	15	4498
2026-01-09 09:14:59.81	93.72	31.45	-27.7	-29.5	15.2	0.00e+00	0	43	0	735051776	15	4456
2026-01-09 09:15:00.81	93.44	31.57	-27.8	-29.7	15.1	0.00e+00	0	43	0	738197504	15	4499
2026-01-09 09:15:01.82	93.15	31.70	-27.6	-29.4	15.3	0.00e+00	0	43	0	741343232	15	4402
2026-01-09 09:15:02.82	92.86	31.82	-27.5	-29.1	15.5	0.00e+00	0	43	0	744488960	15	4323
2026-01-09 09:15:03.83	92.57	31.95	-27.5	-29.1	15.5	0.00e+00	0	43	0	747634688	15	4326
2026-01-09 09:15:04.83	92.28	32.07	-27.6	-29.2	15.4	0.00e+00	0	43	0	750780416	15	4359
2026-01-09 09:15:05.83	91.99	32.19	-27.5	-29.2	15.5	0.00e+00	0	42	0	753926144	15	4333
2026-01-09 09:15:06.84	91.69	32.31	-27.5	-29.0	15.6	0.00e+00	0	43	0	757071872	15	4280
2026-01-09 09:15:07.84	91.39	32.44	-27.7	-29.5	15.2	0.00e+00	0	42	0	760217600	15	4446
2026-01-09 09:15:08.84	91.09	32.56	-27.6	-29.2	15.4	0.00e+00	0	43	0	763363328	15	4347
2026-01-09 09:15:09.85	90.78	32.68	-27.4	-28.9	15.6	0.00e+00	0	42	0	766509056	15	4271
2026-01-09 09:15:10.85	90.47	32.80	-27.5	-29.1	15.5	0.00e+00	0	43	0	769654784	15	4328
2026-01-09 09:15:11.85	90.17	32.92	-27.6	-29.3	15.4	0.00e+00	0	43	0	772800512	15	4370
2026-01-09 09:15:12.85	89.86	33.04	-27.7	-29.4	15.3	1.50e-06	0	43	0	775946240	15	4415
2026-01-09 09:15:13.86	89.54	33.16	-27.6	-29.4	15.4	0.00e+00	0	43	0	779091968	15	4396
2026-01-09 09:15:14.86	89.23	33.28	-27.7	-29.6	15.2	0.00e+00	0	43	0	782237696	15	4461
2026-01-09 09:15:15.87	88.91	33.40	-27.7	-29.5	15.2	0.00e+00	0	43	0	785383424	15	4423
2026-01-09 09:15:16.87	88.59	33.51	-27.7	-29.5	15.3	0.00e+00	0	43	0	788529152	15	4429
2026-01-09 09:15:17.87	88.26	33.63	-27.6	-29.4	15.3	0.00e+00	0	43	0	791674880	15	4394
2026-01-09 09:15:18.88	87.94	33.75	-27.8	-29.7	15.2	0.00e+00	0	43	0	794820608	15	4498
2026-01-09 09:15:19.88	87.61	33.86	-27.7	-29.6	15.2	0.00e+00	0	43	0	797966336	15	4446
2026-01-09 09:15:20.89	87.28	33.98	-27.8	-29.6	15.2	0.00e+00	0	43	0	801112064	15	4468
2026-01-09 09:15:21.90	86.94	34.10	-27.7	-29.6	15.2	0.00e+00	0	43	0	804257792	15	4445
2026-01-09 09:15:22.90	86.61	34.21	-27.7	-29.6	15.3	0.00e+00	0	43	0	807403520	15	4444
2026-01-09 09:15:23.90	86.28	34.32	-27.8	-29.6	15.2	0.00e+00	0	43	0	810549248	15	4469
2026-01-09 09:15:24.91	85.93	34.44	-27.7	-29.6	15.2	1.50e-06	0	43	0	813694976	15	4460
2026-01-09 09:15:25.92	85.59	34.55	-27.9	-30.0	15.0	0.00e+00	0	43	0	816840704	15	4570
2026-01-09 09:15:26.93	85.24	34.66	-28.2	-30.0	14.9	0.00e+00	0	43	0	819986432	16	4455
2026-01-09 09:15:27.93	84.90	34.77	-28.1	-30.0	14.9	7.00e-07	0	43	0	823132160	16	4452
2026-01-09 09:15:28.93	84.55	34.88	-28.3	-30.3	14.7	0.00e+00	0	43	0	826277888	16	4558
2026-01-09 09:15:29.94	84.20	34.99	-28.3	-30.4	14.7	0.00e+00	0	43	0	829423616	16	4564
2026-01-09 09:15:30.95	83.84	35.10	-28.4	-30.5	14.6	7.00e-07	0	43	0	832569344	16	4613
2026-01-09 09:15:31.96	83.48	35.20	-28.3	-30.3	14.7	0.00e+00	0	42	0	835715072	16	4549
2026-01-09 09:15:32.96	83.13	35.31	-28.6	-30.4	14.4	0.00e+00	0	43	0	838860800	17	4465
2026-01-09 09:15:33.97	82.77	35.42	-28.3	-29.8	14.8	5.30e-06	0	43	0	842006528	17	4276
2026-01-09 09:15:34.98	82.40	35.52	-28.1	-29.3	15.0	0.00e+00	0	43	0	845152256	17	4145
2026-01-09 09:15:35.99	82.03	35.62	-28.0	-29.1	15.1	0.00e+00	0	43	0	848297984	17	4089
2026-01-09 09:15:37.00	81.66	35.73	-28.0	-29.2	15.1	0.00e+00	0	43	0	851443712	17	4114
2026-01-09 09:15:38.01	81.29	35.83	-28.2	-29.5	14.9	7.00e-07	0	43	0	854589440	17	4212
2026-01-09 09:15:39.02	80.92	35.93	-28.1	-29.4	15.0	0.00e+00	0	43	0	857735168	17	4183
2026-01-09 09:15:40.02	80.54	36.03	-28.4	-30.2	14.5	7.00e-07	0	43	0	860880896	17	4399
2026-01-09 09:15:41.03	80.16	36.12	-28.6	-30.5	14.4	1.50e-06	0	43	0	864026624	17	4493
2026-01-09 09:15:42.04	79.78	36.22	-28.7	-30.8	14.2	1.50e-06	0	43	0	867172352	17	4568
2026-01-09 09:15:43.05	79.40	36.32	-28.6	-30.6	14.3	0.00e+00	0	43	0	870318080	17	4528
2026-01-09 09:15:44.05	79.02	36.41	-28.7	-30.7	14.2	0.00e+00	0	43	0	873463808	17	4537
2026-01-09 09:15:45.06	78.63	36.51	-28.9	-31.2	13.9	3.00e-06	0	43	0	876609536	17	4709
2026-01-09 09:15:46.07	78.24	36.60	-28.8	-31.1	14.0	3.00e-06	0	43	0	879755264	17	4668
2026-01-09 09:15:47.08	77.85	36.69	-29.3	-31.6	13.4	1.06e-05	0	42	0	882900992	18	4717
2026-01-09 09:15:48.08	77.46	36.78	-29.1	-31.4	13.6	6.80e-06	0	43	0	886046720	18	4641
2026-01-09 09:15:49.08	77.06	36.87	-29.0	-30.9	13.8	6.10e-06	0	43	0	889192448	18	4506
2026-01-09 09:15:50.09	76.67	36.95	-29.0	-31.0	13.8	3.00e-06	0	43	0	892338176	18	4535
2026-01-09 09:15:51.10	76.26	37.04	-29.1	-31.1	13.8	3.00e-06	0	43	0	895483904	18	4557
2026-01-09 09:15:52.10	75.87	37.12	-29.3	-31.7	13.4	9.10e-06	0	43	0	898629632	18	4746
2026-01-09 09:15:53.10	75.46	37.20	-29.2	-31.5	13.5	6.80e-06	0	43	0	901775360	18	4684
2026-01-09 09:15:54.11	75.06	37.29	-29.4	-31.9	13.3	1.98e-05	0	43	0	904921088	18	4802
2026-01-09 09:15:55.12	74.65	37.37	-29.1	-31.3	13.6	1.06e-05	0	42	0	908066816	18	4632
2026-01-09 09:15:56.12	74.24	37.44	-28.8	-30.5	14.1	1.50e-06	0	43	0	911212544	18	4373
2026-01-09 09:15:57.13	73.83	37.52	-28.7	-30.3	14.3	2.20e-06	0	43	0	914358272	18	4308
2026-01-09 09:15:58.14	73.41	37.60	-28.7	-30.3	14.3	7.00e-07	0	43	0	917504000	18	4311
2026-01-09 09:15:59.15	73.00	37.67	-29.1	-31.1	13.8	1.50e-06	0	43	0	920649728	18	4542
2026-01-09 09:16:00.15	72.58	37.74	-28.9	-30.8	14.0	4.50e-06	0	43	0	923795456	18	4456
2026-01-09 09:16:01.16	72.16	37.81	-29.0	-31.0	13.8	5.30e-06	0	43	0	926941184	18	4535
2026-01-09 09:16:02.16	71.74	37.88	-29.1	-31.3	13.7	3.00e-06	0	43	0	930086912	18	4603
2026-01-09 09:16:03.16	71.32	37.95	-29.1	-31.1	13.8	6.80e-06	0	43	0	933232640	18	4545
2026-01-09 09:16:04.17	70.90	38.01	-29.2	-31.5	13.6	8.30e-06	0	43	0	936378368	18	4670
2026-01-09 09:16:05.18	70.47	38.08	-29.4	-31.8	13.3	1.60e-05	0	43	0	939524096	18	4779
2026-01-09 09:16:06.18	70.04	38.14	-29.1	-31.2	13.7	6.80e-06	0	43	0	942669824	18	4600
2026-01-09 09:16:07.18	69.62	38.20	-28.9	-30.7	14.0	2.20e-06	0	43	0	945815552	18	4430
2026-01-09 09:16:08.18	69.19	38.26	-28.7	-30.3	14.2	2.20e-06	0	43	0	948961280	18	4325
2026-01-09 09:16:09.18	68.76	38.32	-28.7	-30.2	14.3	7.00e-07	0	43	0	952107008	18	4286
2026-01-09 09:16:10.19	68.32	38.37	-28.8	-30.5	14.1	2.20e-06	0	43	0	955252736	18	4371
2026-01-09 09:16:11.19	67.89	38.43	-28.8	-30.5	14.1	1.50e-06	0	43	0	958398464	18	4376
2026-01-09 09:16:12.20	67.45	38.48	-28.9	-30.7	14.0	0.00e+00	0	43	0	961544192	18	4433
2026-01-09 09:16:13.21	67.01	38.53	-28.9	-30.7	14.0	2.20e-06	0	43	0	964689920	18	4433
2026-01-09 09:16:14.21	66.58	38.58	-29.5	-31.6	13.2	3.12e-05	0	43	0	967835648	19	4604
2026-01-09 09:16:15.22	66.13	38.62	-28.7	-30.2	14.3	2.20e-06	0	43	0	970981376	18	4288
2026-01-09 09:16:16.22	65.69	38.67	-28.5	-29.7	14.6	0.00e+00	0	43	0	974127104	18	4146
2026-01-09 09:16:17.23	65.25	38.71	-28.6	-29.9	14.4	0.00e+00	0	43	0	977272832	18	4212
2026-01-09 09:16:18.24	64.80	38.75	-28.8	-30.5	14.1	6.80e-06	0	43	0	980418560	18	4388
2026-01-09 09:16:19.24	64.36	38.79	-28.8	-30.6	14.0	3.00e-06	0	43	0	983564288	18	4394
2026-01-09 09:16:20.24	63.92	38.82	-29.2	-31.5	13.5	1.22e-05	0	43	0	986710016	18	4678
2026-01-09 09:16:21.24	63.47	38.86	-29.3	-31.8	13.4	9.10e-06	0	43	0	989855744	18	4771
2026-01-09 09:16:22.25	63.02	38.89	-29.3	-31.8	13.3	2.13e-05	0	43	0	993001472	18	4782
2026-01-09 09:16:23.26	62.57	38.92	-29.2	-31.6	13.5	1.52e-05	0	43	0	996147200	18	4714
2026-01-09 09:16:24.26	62.12	38.95	-29.2	-31.4	13.6	1.29e-05	0	43	0	999292928	18	4642
2026-01-09 09:16:25.26	61.68	38.98	-28.9	-30.7	14.0	2.20e-06	0	43	0	1002438656	18	4443
2026-01-09 09:16:26.27	61.22	39.00	-29.0	-31.0	13.8	3.00e-06	0	43	0	1005584384	18	4526
2026-01-09 09:16:27.27	60.77	39.03	-29.4	-31.9	13.3	1.06e-05	0	43	0	1008730112	18	4813
2026-01-09 09:16:28.28	60.32	39.05	-29.2	-31.5	13.5	1.37e-05	0	43	0	1011875840	18	4701
2026-01-09 09:16:29.29	59.86	39.07	-29.4	-31.9	13.2	1.67e-05	0	43	0	1015021568	18	4820
2026-01-09 09:16:30.29	59.41	39.08	-29.5	-32.1	13.1	3.28e-05	0	43	0	1018167296	18	4880
2026-01-09 09:16:31.30	58.96	39.10	-29.5	-31.7	13.1	2.21e-05	0	43	0	1021313024	19	4624
2026-01-09 09:16:32.31	58.50	39.11	-29.6	-32.0	12.9	4.95e-05	0	43	0	1024458752	19	4745
2026-01-09 09:16:33.32	58.05	39.12	-29.7	-32.3	12.7	5.64e-05	0	43	0	1027604480	19	4824
2026-01-09 09:16:34.33	57.59	39.13	-29.9	-32.7	12.4	9.99e-05	0	43	0	1030750208	19	4967
2026-01-09 09:16:35.33	57.14	39.14	-29.9	-32.2	12.4	1.72e-04	0	43	0	1033895936	20	4706
2026-01-09 09:16:36.34	56.68	39.14	-30.2	-32.9	11.9	3.97e-04	0	43	0	1037041664	20	4952
2026-01-09 09:16:37.34	56.23	39.14	-29.8	-31.9	12.6	1.21e-04	0	43	0	1040187392	20	4603
2026-01-09 09:16:38.35	55.77	39.14	-29.3	-30.8	13.2	3.89e-05	0	43	0	1043333120	20	4270
2026-01-09 09:16:39.36	55.31	39.14	-29.2	-31.0	13.5	1.83e-05	0	43	0	1046478848	19	4431
2026-01-09 09:16:40.36	54.86	39.14	-29.0	-30.5	13.8	9.10e-06	0	43	0	1049624576	19	4272
2026-01-09 09:16:41.37	54.40	39.13	-28.8	-30.4	14.1	4.50e-06	0	43	0	1052770304	18	4356
2026-01-09 09:16:42.37	53.95	39.13	-28.7	-30.3	14.2	7.00e-07	0	43	0	1055916032	18	4313
2026-01-09 09:16:43.38	53.49	39.12	-29.0	-30.9	13.9	3.80e-06	0	43	0	1059061760	18	4479
2026-01-09 09:16:44.39	53.04	39.10	-28.9	-30.7	13.9	0.00e+00	0	43	0	1062207488	18	4431
2026-01-09 09:16:45.39	52.59	39.09	-29.3	-31.7	13.3	1.67e-05	0	43	0	1065353216	18	4735
2026-01-09 09:16:46.40	52.13	39.07	-29.3	-31.8	13.3	1.22e-05	0	43	0	1068498944	18	4776
2026-01-09 09:16:47.40	51.68	39.06	-29.5	-31.6	13.1	4.57e-05	0	43	0	1071644672	19	4592
2026-01-09 09:16:48.41	51.23	39.04	-29.3	-31.1	13.4	1.75e-05	0	43	0	1074790400	19	4456
2026-01-09 09:16:49.42	50.77	39.01	-29.1	-30.8	13.6	7.60e-06	0	43	0	1077936128	19	4366
2026-01-09 09:16:50.42	50.32	38.99	-29.0	-30.5	13.8	3.80e-06	0	43	0	1081081856	19	4264
2026-01-09 09:16:51.42	49.88	38.96	-28.9	-30.3	13.9	2.20e-06	0	43	0	1084227584	19	4218
2026-01-09 09:16:52.43	49.42	38.94	-29.0	-30.4	13.8	9.10e-06	0	43	0	1087373312	19	4258
2026-01-09 09:16:53.44	48.97	38.91	-28.9	-30.3	13.9	5.30e-06	0	43	0	1090519040	19	4221
2026-01-09 09:16:54.44	48.53	38.87	-28.8	-30.0	14.1	1.50e-06	0	43	0	1093664768	19	4142
2026-01-09 09:16:55.45	48.08	38.84	-29.0	-30.4	13.9	4.50e-06	0	43	0	1096810496	19	4238
2026-01-09 09:16:56.45	47.64	38.80	-28.9	-30.2	13.9	7.00e-07	0	43	0	1099956224	19	4189
2026-01-09 09:16:57.46	47.19	38.77	-28.9	-30.3	13.8	5.30e-06	0	43	0	1103101952	19	4228
2026-01-09 09:16:58.47	46.74	38.73	-29.0	-30.6	13.7	3.80e-06	0	43	0	1106247680	19	4294
2026-01-09 09:16:59.47	46.30	38.68	-29.0	-30.5	13.7	3.80e-06	0	43	0	1108344832	19	4275
2026-01-09 09:17:00.47	45.86	38.64	-29.2	-31.0	13.5	6.10e-06	0	43	0	1111490560	19	4413
2026-01-09 09:17:01.48	45.42	38.59	-29.3	-31.2	13.3	1.22e-05	0	43	0	1115684864	19	4490
2026-01-09 09:17:02.49	44.98	38.55	-29.0	-30.6	13.7	8.30e-06	0	43	0	1118830592	19	4293
2026-01-09 09:17:03.49	44.54	38.50	-28.9	-30.2	13.9	3.80e-06	0	43	0	1121976320	19	4191
2026-01-09 09:17:04.49	44.11	38.45	-28.9	-30.2	13.9	1.50e-06	0	43	0	1125122048	19	4187
2026-01-09 09:17:05.50	43.67	38.39	-28.6	-30.0	14.3	3.00e-06	0	43	0	1128267776	18	4245
2026-01-09 09:17:06.50	43.24	38.34	-28.3	-29.4	14.6	7.00e-07	0	43	0	1131413504	18	4081
2026-01-09 09:17:07.51	42.81	38.28	-28.6	-30.1	14.3	7.00e-07	0	43	0	1133510656	18	4253
2026-01-09 09:17:08.52	42.38	38.23	-28.9	-30.7	13.9	2.20e-06	0	43	0	1136656384	18	4460
2026-01-09 09:17:09.53	41.94	38.17	-29.0	-31.1	13.7	7.60e-06	0	43	0	1139802112	18	4559
2026-01-09 09:17:10.53	41.52	38.10	-29.3	-31.7	13.2	1.52e-05	0	43	0	1142947840	18	4758
2026-01-09 09:17:11.54	41.09	38.04	-29.2	-31.5	13.4	1.75e-05	0	43	0	1147142144	18	4690
2026-01-09 09:17:12.54	40.67	37.98	-29.2	-31.6	13.3	7.60e-06	0	43	0	1150287872	18	4712
2026-01-09 09:17:13.54	40.25	37.91	-29.2	-31.4	13.4	1.52e-05	0	43	0	1153433600	18	4668
2026-01-09 09:17:14.55	39.83	37.84	-29.0	-31.1	13.7	8.30e-06	0	43	0	1155530752	18	4555
2026-01-09 09:17:15.56	39.41	37.77	-28.8	-30.5	14.0	1.50e-06	0	43	0	1158676480	18	4381
2026-01-09 09:17:16.57	38.99	37.70	-28.9	-30.8	13.8	7.00e-07	0	43	0	1161822208	18	4474
2026-01-09 09:17:17.57	38.58	37.63	-29.4	-31.9	13.1	2.28e-05	0	43	0	1164967936	18	4830
2026-01-09 09:17:18.58	38.16	37.55	-29.8	-32.4	12.6	7.32e-05	0	43	0	1168113664	19	4871
2026-01-09 09:17:19.58	37.75	37.48	-29.9	-32.2	12.2	2.20e-04	0	43	0	1172307968	20	4714
2026-01-09 09:17:20.58	37.34	37.40	-29.6	-31.6	12.7	1.16e-04	0	43	0	1175453696	20	4511
2026-01-09 09:17:21.59	36.94	37.32	-29.3	-31.3	13.2	3.43e-05	0	43	0	1178599424	19	4525
2026-01-09 09:17:22.59	36.53	37.24	-29.1	-30.7	13.6	9.90e-06	0	43	0	1180696576	19	4335
2026-01-09 09:17:23.60	36.13	37.16	-28.9	-30.3	13.9	3.80e-06	0	43	0	1183842304	19	4223
2026-01-09 09:17:24.60	35.73	37.08	-29.0	-30.6	13.7	8.30e-06	0	43	0	1186988032	19	4294
2026-01-09 09:17:25.61	35.33	36.99	-29.0	-30.4	13.7	3.80e-06	0	43	0	1190133760	19	4247
2026-01-09 09:17:26.62	34.93	36.90	-29.2	-30.9	13.4	1.29e-05	0	43	0	1193279488	19	4410
2026-01-09 09:17:27.63	34.53	36.82	-29.2	-30.9	13.5	9.90e-06	0	43	0	1196425216	19	4410
2026-01-09 09:17:28.63	34.14	36.73	-29.0	-30.6	13.6	7.60e-06	0	43	0	1200619520	19	4307
2026-01-09 09:17:29.64	33.75	36.64	-28.8	-30.0	14.0	4.50e-06	0	43	0	1203765248	19	4147
2026-01-09 09:17:30.65	33.36	36.55	-28.9	-30.3	13.8	6.10e-06	0	43	0	1205862400	19	4229
2026-01-09 09:17:31.65	32.97	36.45	-29.0	-30.6	13.6	8.30e-06	0	43	0	1209008128	19	4305
2026-01-09 09:17:32.66	32.59	36.36	-28.7	-30.3	14.1	1.50e-06	0	43	0	1212153856	18	4332
2026-01-09 09:17:33.66	32.21	36.27	-28.9	-30.8	13.8	3.80e-06	0	43	0	1215299584	18	4466
2026-01-09 09:17:34.67	31.83	36.17	-29.2	-31.6	13.3	1.14e-05	0	43	0	1218445312	18	4730
2026-01-09 09:17:35.67	31.45	36.07	-29.0	-30.9	13.8	6.80e-06	0	43	0	1221591040	18	4510
2026-01-09 09:17:36.68	31.08	35.97	-28.6	-30.1	14.2	2.20e-06	0	43	0	1224736768	18	4277
2026-01-09 09:17:37.68	30.71	35.87	-28.4	-29.6	14.5	0.00e+00	0	43	0	1227882496	18	4135
2026-01-09 09:17:38.69	30.33	35.77	-28.6	-30.1	14.2	0.00e+00	0	43	0	1231028224	18	4269
2026-01-09 09:17:39.70	29.96	35.67	-28.7	-30.3	14.1	2.20e-06	0	43	0	1234173952	18	4318
2026-01-09 09:17:40.71	29.60	35.57	-29.0	-31.1	13.6	6.80e-06	0	43	0	1237319680	18	4556
2026-01-09 09:17:41.71	29.24	35.47	-29.2	-31.5	13.4	1.52e-05	0	43	0	1240465408	18	4690
2026-01-09 09:17:42.72	28.87	35.36	-29.3	-31.7	13.2	2.36e-05	0	43	0	1243611136	18	4777
2026-01-09 09:17:43.72	28.52	35.26	-29.0	-30.4	13.7	1.29e-05	0	43	0	1246756864	19	4247
2026-01-09 09:17:44.73	28.16	35.15	-28.3	-29.4	14.5	2.20e-06	0	43	0	1249902592	18	4080
2026-01-09 09:17:45.73	27.81	35.04	-28.0	-29.1	15.0	0.00e+00	0	43	0	1253048320	17	4099
2026-01-09 09:17:46.74	27.45	34.93	-27.8	-29.2	15.2	7.00e-07	0	43	0	1256194048	16	4238
2026-01-09 09:17:47.75	27.10	34.83	-27.8	-29.1	15.3	0.00e+00	0	43	0	1259339776	16	4212
2026-01-09 09:17:48.76	26.75	34.72	-28.3	-30.4	14.6	0.00e+00	0	43	0	1262485504	16	4579
2026-01-09 09:17:49.77	26.41	34.60	-28.7	-30.7	14.1	7.00e-07	0	43	0	1265631232	17	4566
2026-01-09 09:17:50.77	26.07	34.49	-29.0	-31.5	13.6	6.80e-06	0	43	0	1268776960	17	4798
2026-01-09 09:17:51.77	25.73	34.38	-28.7	-30.7	14.0	2.20e-06	0	43	0	1271922688	17	4565
2026-01-09 09:17:52.78	25.39	34.27	-28.0	-29.2	14.9	7.00e-07	0	43	0	1275068416	17	4140
2026-01-09 09:17:53.79	25.05	34.15	-27.6	-28.7	15.5	0.00e+00	0	43	0	1278214144	16	4093
2026-01-09 09:17:54.79	24.72	34.04	-27.5	-28.5	15.7	0.00e+00	0	43	0	1281359872	16	4039
2026-01-09 09:17:55.80	24.39	33.93	-27.8	-29.2	15.3	0.00e+00	0	43	0	1284505600	16	4227
2026-01-09 09:17:56.81	24.06	33.81	-28.1	-29.9	14.8	0.00e+00	0	43	0	1287651328	16	4442
2026-01-09 09:17:57.81	23.74	33.69	-28.5	-30.8	14.3	0.00e+00	0	43	0	1290797056	16	4704
2026-01-09 09:17:58.81	23.42	33.58	-28.7	-30.8	14.0	2.20e-06	0	43	0	1293942784	17	4591
2026-01-09 09:17:59.82	23.09	33.46	-28.5	-30.4	14.2	3.00e-06	0	43	0	1297088512	17	4472
2026-01-09 09:18:00.82	22.78	33.34	-28.3	-29.8	14.6	1.50e-06	0	43	0	1300234240	17	4295
2026-01-09 09:18:01.83	22.46	33.22	-28.1	-29.4	14.8	0.00e+00	0	43	0	1303379968	17	4174
2026-01-09 09:18:02.83	22.15	33.11	-27.9	-29.1	15.0	0.00e+00	0	43	0	1306525696	17	4098
2026-01-09 09:18:03.83	21.84	32.99	-28.4	-30.0	14.4	7.00e-07	0	43	0	1309671424	17	4367
2026-01-09 09:18:04.84	21.53	32.87	-28.7	-30.9	13.9	3.00e-06	0	43	0	1312817152	17	4625
2026-01-09 09:18:05.85	21.22	32.75	-29.1	-31.3	13.4	1.29e-05	0	43	0	1315962880	18	4648
2026-01-09 09:18:06.86	20.91	32.62	-29.0	-31.2	13.5	8.30e-06	0	43	0	1319108608	18	4598
2026-01-09 09:18:07.86	20.61	32.50	-28.9	-30.8	13.7	6.80e-06	0	43	0	1322254336	18	4486
2026-01-09 09:18:08.87	20.31	32.38	-28.5	-29.8	14.3	3.80e-06	0	43	0	1325400064	18	4198
2026-01-09 09:18:09.87	20.01	32.26	-28.3	-29.4	14.5	7.00e-07	0	43	0	1328545792	18	4080
2026-01-09 09:18:10.88	19.72	32.14	-28.1	-29.4	14.7	0.00e+00	0	43	0	1331691520	17	4194
2026-01-09 09:18:11.89	19.42	32.01	-27.7	-29.0	15.3	0.00e+00	0	43	0	1334837248	16	4186
2026-01-09 09:18:12.89	19.13	31.89	-27.3	-28.2	15.7	0.00e+00	0	43	0	1337982976	16	3963
2026-01-09 09:18:13.90	18.84	31.77	-27.0	-27.9	15.9	0.00e+00	0	43	0	1341128704	15	4009
2026-01-09 09:18:14.91	18.55	31.64	-27.1	-28.2	15.8	0.00e+00	0	43	0	1344274432	15	4086
2026-01-09 09:18:15.91	18.27	31.52	-27.5	-29.2	15.3	0.00e+00	0	43	0	1347420160	15	4354
2026-01-09 09:18:16.92	17.99	31.40	-27.7	-29.6	15.0	0.00e+00	0	43	0	1350565888	15	4464
2026-01-09 09:18:17.92	17.71	31.27	-28.0	-30.2	14.7	0.00e+00	0	43	0	1353711616	15	4638
2026-01-09 09:18:18.93	17.43	31.15	-28.3	-30.5	14.4	7.00e-07	0	43	0	1356857344	16	4603
2026-01-09 09:18:19.93	17.15	31.02	-27.9	-29.5	14.9	0.00e+00	0	43	0	1360003072	16	4334
2026-01-09 09:18:20.94	16.88	30.90	-27.6	-28.8	15.3	0.00e+00	0	43	0	1363148800	16	4130
2026-01-09 09:18:21.95	16.61	30.77	-27.5	-28.6	15.5	0.00e+00	0	43	0	1366294528	16	4079
2026-01-09 09:18:22.96	16.34	30.64	-27.6	-28.7	15.4	0.00e+00	0	43	0	1369440256	16	4102
2026-01-09 09:18:23.97	16.07	30.52	-27.7	-29.0	15.2	0.00e+00	0	43	0	1372585984	16	4183
2026-01-09 09:18:24.97	15.80	30.39	-27.6	-28.9	15.3	0.00e+00	0	43	0	1375731712	16	4148
2026-01-09 09:18:25.98	15.54	30.27	-27.4	-28.2	15.6	0.00e+00	0	43	0	1378877440	16	3980
2026-01-09 09:18:26.98	15.28	30.14	-27.0	-28.0	15.9	0.00e+00	0	43	0	1382023168	15	4026
2026-01-09 09:18:27.99	15.02	30.01	-26.9	-27.7	16.1	0.00e+00	0	43	0	1385168896	15	3958
2026-01-09 09:18:29.00	14.76	29.89	-27.0	-27.9	15.9	0.00e+00	0	43	0	1388314624	15	4013
2026-01-09 09:18:30.00	14.51	29.76	-26.8	-27.5	16.1	0.00e+00	0	43	0	1391460352	15	3914
2026-01-09 09:18:31.01	14.25	29.63	-27.0	-27.9	16.0	0.00e+00	0	43	0	1394606080	15	4004
2026-01-09 09:18:32.02	14.00	29.51	-27.2	-28.4	15.7	0.00e+00	0	43	0	1397751808	15	4129
2026-01-09 09:18:33.03	13.75	29.38	-27.2	-28.3	15.7	0.00e+00	0	43	0	1400897536	15	4121
2026-01-09 09:18:34.03	13.51	29.25	-27.4	-28.9	15.4	0.00e+00	0	43	0	1404043264	15	4278
2026-01-09 09:18:35.04	13.26	29.13	-27.5	-29.1	15.2	0.00e+00	0	43	0	1407188992	15	4331
2026-01-09 09:18:36.05	13.02	29.00	-27.5	-29.1	15.2	7.00e-07	0	43	0	1410334720	15	4339
2026-01-09 09:18:37.05	12.78	28.87	-27.5	-29.2	15.2	0.00e+00	0	43	0	1413480448	15	4352
2026-01-09 09:18:38.06	12.54	28.75	-27.6	-29.2	15.2	0.00e+00	0	43	0	1416626176	15	4371
2026-01-09 09:18:39.06	12.30	28.62	-27.1	-28.3	15.7	0.00e+00	0	43	0	1419771904	15	4107
2026-01-09 09:18:40.08	12.06	28.49	-26.8	-27.6	16.1	0.00e+00	0	43	0	1422917632	15	3931
2026-01-09 09:18:41.08	11.83	28.36	-27.0	-28.4	15.9	0.00e+00	0	43	0	1426063360	14	4237
2026-01-09 09:18:42.09	11.60	28.24	-26.8	-28.1	16.1	0.00e+00	0	43	0	1429209088	14	4169
2026-01-09 09:18:43.09	11.37	28.11	-27.0	-28.4	15.9	0.00e+00	0	43	0	1432354816	14	4256
2026-01-09 09:18:44.10	11.14	27.98	-27.1	-28.7	15.8	0.00e+00	0	43	0	1435500544	14	4324
2026-01-09 09:18:45.11	10.91	27.86	-27.2	-28.9	15.6	0.00e+00	0	43	0	1438646272	14	4386
2026-01-09 09:18:46.12	10.69	27.73	-27.2	-29.0	15.6	0.00e+00	0	43	0	1441792000	14	4426
2026-01-09 09:18:47.12	10.47	27.61	-27.2	-28.9	15.6	0.00e+00	0	43	0	1444937728	14	4397
2026-01-09 09:18:48.13	10.25	27.48	-27.3	-29.1	15.5	0.00e+00	0	43	0	1448083456	14	4442
2026-01-09 09:18:49.14	10.03	27.35	-26.8	-28.0	16.1	0.00e+00	0	43	0	1451229184	14	4153
2026-01-09 09:18:50.15	9.81	27.23	-26.7	-27.7	16.3	0.00e+00	0	43	0	1454374912	14	4055
2026-01-09 09:18:51.15	9.59	27.10	-26.7	-27.8	16.2	0.00e+00	0	43	0	1457520640	14	4089
2026-01-09 09:18:52.16	9.38	26.97	-26.8	-28.0	16.1	0.00e+00	0	43	0	1460666368	14	4138
2026-01-09 09:18:53.17	9.17	26.85	-26.7	-27.8	16.3	0.00e+00	0	43	0	1463812096	14	4077
2026-01-09 09:18:54.17	8.96	26.72	-26.9	-28.3	16.0	0.00e+00	0	43	0	1466957824	14	4211
2026-01-09 09:18:55.17	8.75	26.60	-27.0	-28.4	15.9	0.00e+00	0	43	0	1470103552	14	4254
2026-01-09 09:18:56.18	8.54	26.47	-27.3	-29.1	15.5	3.00e-06	0	43	0	1473249280	14	4451
2026-01-09 09:18:57.19	8.33	26.35	-27.2	-29.0	15.6	0.00e+00	0	43	0	1476395008	14	4413
2026-01-09 09:18:58.19	8.13	26.22	-27.3	-29.1	15.5	0.00e+00	0	43	0	1479540736	14	4452
2026-01-09 09:18:59.20	7.93	26.10	-27.2	-28.9	15.6	0.00e+00	0	43	0	1482686464	14	4386
2026-01-09 09:19:00.20	7.73	25.98	-27.0	-28.4	15.8	0.00e+00	0	43	0	1485832192	14	4265
2026-01-09 09:19:01.21	7.53	25.85	-26.9	-28.4	15.8	0.00e+00	0	43	0	1488977920	14	4242
2026-01-09 09:19:02.22	7.33	25.73	-27.0	-28.5	15.8	0.00e+00	0	43	0	1492123648	14	4291
2026-01-09 09:19:03.22	7.14	25.60	-27.1	-28.6	15.7	0.00e+00	0	43	0	1495269376	14	4313
2026-01-09 09:19:04.22	6.94	25.48	-26.8	-28.1	16.0	0.00e+00	0	43	0	1498415104	14	4177
2026-01-09 09:19:05.23	6.75	25.36	-26.7	-27.9	16.1	0.00e+00	0	43	0	1501560832	14	4107
2026-01-09 09:19:06.24	6.56	25.23	-26.9	-28.3	15.9	0.00e+00	0	43	0	1504706560	14	4236
2026-01-09 09:19:07.25	6.37	25.11	-27.0	-28.6	15.8	0.00e+00	0	43	0	1507852288	14	4295
2026-01-09 09:19:08.25	6.18	24.99	-27.3	-29.2	15.4	0.00e+00	0	43	0	1510998016	14	4479
2026-01-09 09:19:09.26	5.99	24.87	-27.2	-29.0	15.6	0.00e+00	0	43	0	1514143744	14	4407
2026-01-09 09:19:10.26	5.81	24.74	-27.2	-28.9	15.6	0.00e+00	0	43	0	1517289472	14	4386
2026-01-09 09:19:11.27	5.63	24.62	-27.1	-28.7	15.7	0.00e+00	0	43	0	1520435200	14	4327
2026-01-09 09:19:12.27	5.44	24.50	-26.9	-28.4	15.8	0.00e+00	0	43	0	1523580928	14	4244
2026-01-09 09:19:13.28	5.26	24.38	-27.0	-28.4	15.9	0.00e+00	0	43	0	1526726656	14	4253
2026-01-09 09:19:14.29	5.08	24.26	-27.0	-28.4	15.8	0.00e+00	0	43	0	1529872384	14	4260
2026-01-09 09:19:15.30	4.90	24.14	-26.7	-27.9	16.1	0.00e+00	0	43	0	1533018112	14	4114
2026-01-09 09:19:16.30	4.73	24.02	-26.8	-28.0	16.0	0.00e+00	0	43	0	1536163840	14	4149
2026-01-09 09:19:17.31	4.55	23.89	-26.8	-28.1	16.0	0.00e+00	0	43	0	1539309568	14	4164
2026-01-09 09:19:18.31	4.38	23.77	-26.6	-27.6	16.2	0.00e+00	0	43	0	1542455296	14	4046
2026-01-09 09:19:19.32	4.21	23.65	-26.4	-27.1	16.5	0.00e+00	0	43	0	1545601024	14	3924
2026-01-09 09:19:20.32	4.03	23.54	-26.5	-27.4	16.4	0.00e+00	0	43	0	1548746752	14	3981
2026-01-09 09:19:21.33	3.86	23.42	-26.7	-27.8	16.1	0.00e+00	0	43	0	1551892480	14	4097
2026-01-09 09:19:22.33	3.70	23.30	-26.8	-27.9	16.1	0.00e+00	0	43	0	1555038208	14	4131
2026-01-09 09:19:23.34	3.53	23.18	-27.0	-28.4	15.8	0.00e+00	0	43	0	1558183936	14	4266
2026-01-09 09:19:24.35	3.36	23.06	-27.0	-28.5	15.7	0.00e+00	0	43	0	1561329664	14	4283
2026-01-09 09:19:25.36	3.20	22.94	-27.1	-28.7	15.6	0.00e+00	0	43	0	1564475392	14	4332
2026-01-09 09:19:26.36	3.03	22.82	-27.0	-28.6	15.7	0.00e+00	0	43	0	1567621120	14	4321
2026-01-09 09:19:27.36	2.87	22.71	-27.0	-28.6	15.7	0.00e+00	0	43	0	1570766848	14	4304
2026-01-09 09:19:28.37	2.71	22.59	-26.9	-28.2	15.9	0.00e+00	0	43	0	1573912576	14	4195
2026-01-09 09:19:29.37	2.55	22.47	-26.8	-28.1	15.9	0.00e+00	0	43	0	1577058304	14	4184
2026-01-09 09:19:30.38	2.39	22.35	-26.8	-28.2	15.9	0.00e+00	0	43	0	1580204032	14	4188
2026-01-09 09:19:31.39	2.24	22.24	-26.8	-28.0	16.0	0.00e+00	0	43	0	1583349760	14	4144
2026-01-09 09:19:32.40	2.08	22.12	-26.8	-28.1	15.9	0.00e+00	0	43	0	1586495488	14	4174
2026-01-09 09:19:33.40	1.92	22.01	-27.0	-28.5	15.8	0.00e+00	0	43	0	1589641216	14	4267
2026-01-09 09:19:34.42	1.77	21.89	-27.0	-28.5	15.7	0.00e+00	0	43	0	1592786944	14	4284
2026-01-09 09:19:35.42	1.62	21.77	-27.3	-29.1	15.4	0.00e+00	0	43	0	1595932672	14	4448
2026-01-09 09:19:36.42	1.47	21.66	-27.2	-28.9	15.5	0.00e+00	0	43	0	1599078400	14	4380
2026-01-09 09:19:37.43	1.32	21.54	-27.3	-29.1	15.4	0.00e+00	0	43	0	1602224128	14	4461
2026-01-09 09:19:38.44	1.17	21.43	-27.2	-29.0	15.4	0.00e+00	0	43	0	1605369856	14	4417
2026-01-09 09:19:39.45	1.02	21.31	-27.0	-28.6	15.6	0.00e+00	0	43	0	1608515584	14	4316
2026-01-09 09:19:40.45	0.87	21.20	-26.9	-28.4	15.8	0.00e+00	0	43	0	1611661312	14	4251
2026-01-09 09:19:41.46	0.72	21.09	-26.9	-28.3	15.8	0.00e+00	0	43	0	1614807040	14	4220
2026-01-09 09:19:42.46	0.58	20.98	-26.8	-28.2	15.8	0.00e+00	0	43	0	1617952768	14	4203
2026-01-09 09:19:43.47	0.44	20.86	-26.9	-28.2	15.8	0.00e+00	0	43	0	1621098496	14	4205
2026-01-09 09:19:44.47	0.29	20.75	-26.7	-27.9	16.0	0.00e+00	0	43	0	1624244224	14	4119
2026-01-09 09:19:45.48	0.15	20.64	-26.7	-27.8	16.0	0.00e+00	0	43	0	1627389952	14	4112
2026-01-09 09:19:46.48	0.01	20.53	-26.8	-28.1	15.9	0.00e+00	0	43	0	1630535680	14	4167
2026-01-09 09:19:47.49	359.87	20.41	-26.7	-27.9	16.0	0.00e+00	0	43	0	1633681408	14	4121
2026-01-09 09:19:48.49	359.74	20.30	-26.7	-27.9	16.0	0.00e+00	0	43	0	1636827136	14	4112
2026-01-09 09:19:49.50	359.60	20.19	-26.7	-27.9	16.0	0.00e+00	0	43	0	1639972864	14	4127
2026-01-09 09:19:50.50	359.46	20.08	-26.7	-27.9	16.0	0.00e+00	0	43	0	1643118592	14	4127
2026-01-09 09:19:51.50	359.33	19.97	-26.7	-27.8	16.0	0.00e+00	0	43	0	1646264320	14	4103
2026-01-09 09:19:52.51	359.19	19.86	-26.6	-27.7	16.1	0.00e+00	0	43	0	1649410048	14	4069
2026-01-09 09:19:53.51	359.06	19.75	-26.7	-27.7	16.0	0.00e+00	0	43	0	1652555776	14	4080
2026-01-09 09:19:54.52	358.93	19.64	-26.8	-28.1	15.8	0.00e+00	0	43	0	1655701504	14	4170
2026-01-09 09:19:55.53	358.79	19.53	-26.8	-28.0	15.9	0.00e+00	0	43	0	1658847232	14	4164
2026-01-09 09:19:56.53	358.67	19.43	-26.7	-27.9	16.0	0.00e+00	0	43	0	1661992960	14	4119
2026-01-09 09:19:57.54	358.54	19.32	-26.8	-28.0	15.9	0.00e+00	0	43	0	1665138688	14	4164
2026-01-09 09:19:58.54	358.41	19.21	-26.9	-28.2	15.8	7.00e-07	0	43	0	1668284416	14	4207
2026-01-09 09:19:59.54	358.28	19.10	-26.7	-27.9	15.9	0.00e+00	0	43	0	1671430144	14	4129
2026-01-09 09:20:00.55	358.15	18.99	-26.9	-28.2	15.8	0.00e+00	0	43	0	1674575872	14	4217
2026-01-09 09:20:01.55	358.03	18.89	-26.9	-28.4	15.7	0.00e+00	0	43	0	1677721600	14	4249
2026-01-09 09:20:02.56	357.90	18.78	-26.9	-28.2	15.7	7.00e-07	0	43	0	1680867328	14	4216
2026-01-09 09:20:03.57	357.78	18.67	-26.9	-28.4	15.7	0.00e+00	0	43	0	1684013056	14	4257
2026-01-09 09:20:04.56	357.66	18.57	-27.0	-28.6	15.6	0.00e+00	0	43	0	1687158784	14	4303
2026-01-09 09:20:05.56	357.54	18.46	-27.0	-28.5	15.6	0.00e+00	0	43	0	1690304512	14	4300
2026-01-09 09:20:06.57	357.41	18.36	-27.1	-28.8	15.4	0.00e+00	0	43	0	1693450240	14	4377
2026-01-09 09:20:07.57	357.29	18.25	-27.2	-29.0	15.3	0.00e+00	0	43	0	1696595968	14	4426
2026-01-09 09:20:08.58	357.17	18.15	-27.1	-28.8	15.4	0.00e+00	0	43	0	1699741696	14	4383
2026-01-09 09:20:09.57	357.06	18.05	-27.3	-29.2	15.2	0.00e+00	0	43	0	1702887424	14	4472
2026-01-09 09:20:10.57	356.94	17.94	-27.3	-29.1	15.2	0.00e+00	0	43	0	1706033152	14	4466
2026-01-09 09:20:11.57	356.82	17.84	-27.2	-29.1	15.2	0.00e+00	0	43	0	1709178880	14	4465
2026-01-09 09:20:12.57	356.71	17.73	-27.3	-29.2	15.2	0.00e+00	0	43	0	1712324608	14	4498
2026-01-09 09:20:13.58	356.59	17.63	-27.3	-29.3	15.1	0.00e+00	0	43	0	1715470336	14	4514
2026-01-09 09:20:14.59	356.48	17.53	-27.4	-29.4	15.0	0.00e+00	0	43	0	1718616064	14	4547
2026-01-09 09:20:15.58	356.36	17.43	-27.4	-29.4	15.0	0.00e+00	0	43	0	1721761792	14	4540
2026-01-09 09:20:16.59	356.25	17.32	-27.3	-29.1	15.1	0.00e+00	0	43	0	1724907520	14	4472
2026-01-09 09:20:17.59	356.14	17.22	-27.2	-29.1	15.2	0.00e+00	0	43	0	1728053248	14	4460
2026-01-09 09:20:18.60	356.03	17.12	-27.2	-29.0	15.2	0.00e+00	0	43	0	1731198976	14	4431
2026-01-09 09:20:19.61	355.92	17.02	-27.1	-28.8	15.3	0.00e+00	0	43	0	1734344704	14	4380
2026-01-09 09:20:20.61	355.81	16.92	-27.0	-28.5	15.5	0.00e+00	0	43	0	1737490432	14	4294
2026-01-09 09:20:21.62	355.70	16.82	-27.1	-28.7	15.4	0.00e+00	0	43	0	1740636160	14	4337
2026-01-09 09:20:22.62	355.59	16.72	-27.0	-28.5	15.5	0.00e+00	0	43	0	1743781888	14	4288
2026-01-09 09:20:23.63	355.48	16.62	-26.7	-27.9	15.8	0.00e+00	0	43	0	1746927616	14	4138
2026-01-09 09:20:24.64	355.37	16.51	-26.7	-27.9	15.8	0.00e+00	0	43	0	1750073344	14	4135
2026-01-09 09:20:25.65	355.27	16.41	-26.8	-28.0	15.8	0.00e+00	0	43	0	1753219072	14	4149
2026-01-09 09:20:26.65	355.16	16.32	-26.8	-28.0	15.8	0.00e+00	0	43	0	1756364800	14	4155
2026-01-09 09:20:27.66	355.06	16.22	-26.8	-28.1	15.7	0.00e+00	0	43	0	1759510528	14	4173
2026-01-09 09:20:28.67	354.95	16.12	-26.8	-28.2	15.7	0.00e+00	0	43	0	1762656256	14	4206
2026-01-09 09:20:29.67	354.85	16.02	-26.9	-28.4	15.5	0.00e+00	0	43	0	1765801984	14	4265
2026-01-09 09:20:30.67	354.75	15.92	-27.0	-28.5	15.5	0.00e+00	0	43	0	1768947712	14	4304
2026-01-09 09:20:31.68	354.64	15.82	-27.1	-28.7	15.3	0.00e+00	0	43	0	1772093440	14	4361
2026-01-09 09:20:32.69	354.54	15.73	-27.1	-28.9	15.2	0.00e+00	0	43	0	1775239168	14	4408
2026-01-09 09:20:33.69	354.44	15.63	-27.2	-29.1	15.1	0.00e+00	0	43	0	1778384896	14	4472
2026-01-09 09:20:34.70	354.34	15.53	-27.3	-29.4	14.9	0.00e+00	0	43	0	1781530624	14	4539
2026-01-09 09:20:35.71	354.24	15.43	-27.3	-29.3	15.0	0.00e+00	0	43	0	1784676352	14	4529
2026-01-09 09:20:36.72	354.14	15.34	-27.3	-29.4	15.0	0.00e+00	0	43	0	1787822080	14	4550
2026-01-09 09:20:37.73	354.04	15.24	-27.4	-29.5	14.9	0.00e+00	0	43	0	1790967808	14	4593
2026-01-09 09:20:38.74	353.95	15.15	-27.3	-29.4	14.9	0.00e+00	0	43	0	1794113536	14	4544
2026-01-09 09:20:39.75	353.85	15.05	-27.4	-29.6	14.8	0.00e+00	0	43	0	1797259264	14	4615
2026-01-09 09:20:40.75	353.75	14.95	-27.3	-29.3	15.0	0.00e+00	0	43	0	1800404992	14	4527
2026-01-09 09:20:41.76	353.66	14.86	-27.2	-29.1	15.1	0.00e+00	0	43	0	1803550720	14	4466
2026-01-09 09:20:42.76	353.56	14.77	-27.2	-29.1	15.1	0.00e+00	0	43	0	1806696448	14	4467
2026-01-09 09:20:43.77	353.47	14.67	-27.1	-28.8	15.2	0.00e+00	0	43	0	1809842176	14	4388
2026-01-09 09:20:44.78	353.38	14.58	-27.1	-28.9	15.2	7.00e-07	0	43	0	1812987904	14	4421
2026-01-09 09:20:45.77	353.28	14.48	-27.1	-28.7	15.3	0.00e+00	0	43	0	1816133632	14	4362
2026-01-09 09:20:46.77	353.19	14.39	-27.1	-28.9	15.2	0.00e+00	0	43	0	1819279360	14	4407
2026-01-09 09:20:47.78	353.10	14.30	-27.1	-28.9	15.2	0.00e+00	0	43	0	1822425088	14	4409
2026-01-09 09:20:48.79	353.01	14.20	-27.2	-29.0	15.1	0.00e+00	0	43	0	1825570816	14	4429
2026-01-09 09:20:49.80	352.92	14.11	-27.2	-29.1	15.1	0.00e+00	0	43	0	1828716544	14	4460
2026-01-09 09:20:50.80	352.83	14.02	-27.2	-29.1	15.1	0.00e+00	0	43	0	1831862272	14	4469
2026-01-09 09:20:51.81	352.74	13.93	-27.4	-29.5	14.8	0.00e+00	0	43	0	1835008000	14	4585
2026-01-09 09:20:52.81	352.65	13.84	-27.3	-29.4	14.9	0.00e+00	0	43	0	1838153728	14	4550
2026-01-09 09:20:53.82	352.56	13.74	-27.3	-29.4	14.9	0.00e+00	0	43	0	1841299456	14	4556
2026-01-09 09:20:54.83	352.47	13.65	-27.3	-29.4	14.9	7.00e-07	0	43	0	1844445184	14	4552
2026-01-09 09:20:55.83	352.39	13.56	-27.4	-29.5	14.8	0.00e+00	0	43	0	1847590912	14	4587
2026-01-09 09:20:56.84	352.30	13.47	-27.4	-29.4	14.9	0.00e+00	0	43	0	1850736640	14	4560
2026-01-09 09:20:57.84	352.21	13.38	-27.3	-29.4	14.8	0.00e+00	0	43	0	1853882368	14	4560
2026-01-09 09:20:58.85	352.13	13.29	-27.4	-29.5	14.8	7.00e-07	0	43	0	1857028096	14	4585
2026-01-09 09:20:59.86	352.04	13.20	-27.5	-29.7	14.7	0.00e+00	0	43	0	1860173824	14	4651
2026-01-09 09:21:00.87	351.96	13.11	-27.5	-29.2	14.7	0.00e+00	0	43	0	1863319552	15	4380
2026-01-09 09:21:01.87	351.88	13.02	-27.4	-28.9	14.8	0.00e+00	0	43	0	1866465280	15	4308
2026-01-09 09:21:02.87	351.79	12.93	-27.4	-28.9	14.8	0.00e+00	0	43	0	1869611008	15	4310
2026-01-09 09:21:03.89	351.71	12.84	-27.3	-28.9	14.8	0.00e+00	0	43	0	1872756736	15	4310
2026-01-09 09:21:04.89	351.63	12.75	-27.4	-29.1	14.7	0.00e+00	0	43	0	1875902464	15	4363
2026-01-09 09:21:05.90	351.54	12.66	-27.5	-29.3	14.6	0.00e+00	0	43	0	1879048192	15	4415
2026-01-09 09:21:06.90	351.46	12.58	-27.5	-29.3	14.6	7.00e-07	0	43	0	1882193920	15	4415
2026-01-09 09:21:07.90	351.38	12.49	-27.6	-29.4	14.5	7.00e-07	0	43	0	1885339648	15	4447
2026-01-09 09:21:08.91	351.30	12.40	-27.6	-29.4	14.5	7.00e-07	0	43	0	1888485376	15	4453
2026-01-09 09:21:09.90	351.22	12.32	-27.7	-29.6	14.4	0.00e+00	0	43	0	1891631104	15	4525
2026-01-09 09:21:10.91	351.14	12.23	-27.6	-29.6	14.4	0.00e+00	0	43	0	1894776832	15	4507
2026-01-09 09:21:11.91	351.07	12.14	-27.8	-30.0	14.2	2.20e-06	0	43	0	1897922560	15	4625
2026-01-09 09:21:12.91	350.99	12.06	-27.7	-29.7	14.3	1.50e-06	0	43	0	1901068288	15	4540
2026-01-09 09:21:13.92	350.91	11.97	-27.8	-29.9	14.2	3.00e-06	0	43	0	1904214016	15	4594
2026-01-09 09:21:14.93	350.83	11.88	-27.7	-29.8	14.2	1.50e-06	0	43	0	1907359744	15	4581
2026-01-09 09:21:15.93	350.76	11.80	-27.9	-30.1	14.0	3.80e-06	0	43	0	1910505472	15	4674
2026-01-09 09:21:16.94	350.68	11.71	-27.9	-30.2	14.0	3.00e-06	0	43	0	1913651200	15	4685
2026-01-09 09:21:17.95	350.60	11.63	-28.0	-30.4	13.9	2.20e-06	0	43	0	1916796928	15	4760
2026-01-09 09:21:18.95	350.53	11.54	-28.2	-30.4	13.8	6.80e-06	0	43	0	1919942656	16	4628
2026-01-09 09:21:19.96	350.45	11.46	-28.2	-30.4	13.8	9.10e-06	0	43	0	1923088384	16	4631
2026-01-09 09:21:20.96	350.38	11.37	-28.3	-30.8	13.5	1.29e-05	0	43	0	1926234112	16	4749
2026-01-09 09:21:21.96	350.31	11.29	-28.4	-30.8	13.5	1.14e-05	0	43	0	1929379840	16	4769
2026-01-09 09:21:22.97	350.23	11.20	-28.5	-31.1	13.3	1.29e-05	0	43	0	1932525568	16	4848
2026-01-09 09:21:23.98	350.16	11.12	-28.4	-30.8	13.5	4.50e-06	0	43	0	1935671296	16	4778
2026-01-09 09:21:24.99	350.08	11.04	-28.5	-30.7	13.2	1.52e-05	0	43	0	1938817024	17	4629
2026-01-09 09:21:26.00	350.01	10.95	-28.4	-30.3	13.5	1.29e-05	0	43	0	1941962752	17	4494
2026-01-09 09:21:27.01	349.94	10.87	-28.3	-30.1	13.6	8.30e-06	0	43	0	1945108480	17	4430
2026-01-09 09:21:28.01	349.87	10.79	-28.2	-29.8	13.7	5.30e-06	0	43	0	1948254208	17	4351
2026-01-09 09:21:29.01	349.80	10.70	-28.2	-29.8	13.7	5.30e-06	0	43	0	1951399936	17	4358
2026-01-09 09:21:30.02	349.73	10.62	-28.2	-29.9	13.7	5.30e-06	0	43	0	1954545664	17	4388
2026-01-09 09:21:31.03	349.66	10.54	-28.3	-30.1	13.5	9.10e-06	0	43	0	1957691392	17	4446
2026-01-09 09:21:32.03	349.59	10.46	-28.3	-30.1	13.5	1.14e-05	0	43	0	1960837120	17	4442
2026-01-09 09:21:33.04	349.52	10.37	-28.4	-30.4	13.4	1.83e-05	0	43	0	1963982848	17	4518
2026-01-09 09:21:34.05	349.45	10.29	-28.4	-30.3	13.4	8.30e-06	0	43	0	1967128576	17	4513
2026-01-09 09:21:35.05	349.38	10.21	-28.3	-30.2	13.4	1.14e-05	0	43	0	1970274304	17	4485
2026-01-09 09:21:36.06	349.31	10.13	-28.4	-30.4	13.3	9.10e-06	0	43	0	1973420032	17	4529
2026-01-09 09:21:37.07	349.24	10.05	-28.5	-30.6	13.2	3.20e-05	0	43	0	1976565760	17	4609
2026-01-09 09:21:38.07	349.18	9.97	-28.5	-30.7	13.2	1.75e-05	0	43	0	1979711488	17	4625
2026-01-09 09:21:39.08	349.11	9.89	-28.6	-30.8	13.1	2.89e-05	0	43	0	1982857216	17	4667
2026-01-09 09:21:40.09	349.04	9.81	-28.7	-31.1	12.9	4.73e-05	0	43	0	1986002944	17	4769
2026-01-09 09:21:41.10	348.98	9.73	-28.6	-31.0	12.9	4.65e-05	0	43	0	1989148672	17	4736
2026-01-09 09:21:42.10	348.91	9.65	-28.5	-30.7	13.1	3.12e-05	0	43	0	1992294400	17	4629
2026-01-09 09:21:43.11	348.85	9.57	-28.5	-30.8	13.1	3.12e-05	0	43	0	1995440128	17	4657
2026-01-09 09:21:44.12	348.78	9.49	-28.6	-30.9	13.0	2.59e-05	0	43	0	1998585856	17	4700
2026-01-09 09:21:45.12	348.72	9.41	-28.7	-31.1	12.8	6.10e-05	0	43	0	2001731584	17	4774
2026-01-09 09:21:46.12	348.65	9.33	-28.6	-30.8	13.0	4.73e-05	0	43	0	2004877312	17	4682
2026-01-09 09:21:47.13	348.59	9.25	-28.6	-31.0	12.9	4.27e-05	0	43	0	2008023040	17	4728
2026-01-09 09:21:48.14	348.52	9.17	-28.8	-31.4	12.6	8.08e-05	0	43	0	2011168768	17	4869
2026-01-09 09:21:49.15	348.46	9.10	-28.7	-31.2	12.7	7.70e-05	0	43	0	2014314496	17	4804
2026-01-09 09:21:50.16	348.40	9.02	-28.6	-30.8	13.0	4.50e-05	0	43	0	2017460224	17	4669
2026-01-09 09:21:51.17	348.33	8.94	-28.6	-31.0	12.9	3.73e-05	0	43	0	2020605952	17	4722
2026-01-09 09:21:52.17	348.27	8.86	-28.7	-31.2	12.7	7.62e-05	0	43	0	2023751680	17	4812
2026-01-09 09:21:53.18	348.21	8.78	-28.8	-31.4	12.6	6.94e-05	0	43	0	2026897408	17	4861
2026-01-09 09:21:54.19	348.15	8.71	-28.8	-31.4	12.6	8.69e-05	0	43	0	2030043136	17	4856
2026-01-09 09:21:55.19	348.09	8.63	-28.8	-31.5	12.5	1.11e-04	0	43	0	2033188864	17	4892
2026-01-09 09:21:56.20	348.03	8.55	-28.8	-31.4	12.6	1.22e-04	0	43	0	2036334592	17	4869
2026-01-09 09:21:57.21	347.97	8.48	-28.9	-31.8	12.4	1.19e-04	0	43	0	2039480320	17	4993
2026-01-09 09:21:58.22	347.91	8.40	-29.0	-31.4	12.3	2.04e-04	0	43	0	2042626048	18	4751
2026-01-09 09:21:59.22	347.85	8.32	-29.0	-31.4	12.3	1.89e-04	0	43	0	2045771776	18	4769
2026-01-09 09:22:00.23	347.79	8.25	-29.0	-31.4	12.3	2.07e-04	0	43	0	2048917504	18	4763
2026-01-09 09:22:01.23	347.73	8.17	-29.0	-31.5	12.1	2.44e-04	0	43	0	2052063232	18	4813
2026-01-09 09:22:02.24	347.67	8.10	-29.0	-31.6	12.1	2.23e-04	0	43	0	2055208960	18	4813
2026-01-09 09:22:03.25	347.61	8.02	-29.0	-31.6	12.2	2.42e-04	0	43	0	2058354688	18	4813
2026-01-09 09:22:04.25	347.55	7.95	-29.1	-31.7	12.1	3.20e-04	0	43	0	2061500416	18	4848
2026-01-09 09:22:05.26	347.49	7.87	-28.9	-31.3	12.3	1.81e-04	0	43	0	2064646144	18	4726
2026-01-09 09:22:06.27	347.44	7.79	-29.0	-31.5	12.1	2.46e-04	0	43	0	2067791872	18	4802
2026-01-09 09:22:07.28	347.38	7.72	-29.1	-31.6	12.1	2.43e-04	0	43	0	2070937600	18	4843
2026-01-09 09:22:08.29	347.32	7.64	-29.0	-31.4	12.2	3.00e-04	0	43	0	2074083328	18	4770
2026-01-09 09:22:09.29	347.27	7.57	-29.1	-31.8	11.9	2.49e-04	0	43	0	2077229056	18	4909
2026-01-09 09:22:10.30	347.21	7.50	-29.1	-31.7	12.0	3.63e-04	0	43	0	2080374784	18	4865
2026-01-09 09:22:11.31	347.15	7.42	-29.3	-32.2	11.7	6.03e-04	0	43	0	2083520512	18	5053
2026-01-09 09:22:12.31	347.10	7.35	-29.4	-32.4	11.6	5.94e-04	0	43	0	2086666240	18	5119
2026-01-09 09:22:13.32	347.04	7.28	-29.5	-32.3	11.3	1.01e-03	0	43	0	2089811968	19	4973
2026-01-09 09:22:14.33	346.99	7.20	-29.6	-32.5	11.1	1.56e-03	0	43	0	2092957696	19	5049
2026-01-09 09:22:15.34	346.93	7.13	-29.5	-32.2	11.3	1.14e-03	0	43	0	2096103424	19	4939
2026-01-09 09:22:16.35	346.88	7.06	-32.5	-41.1	4.6	7.67e-03	0	43	0	2099249152	24	9768
2026-01-09 09:22:17.35	346.82	6.98	-33.1	-44.8	3.8	1.49e+00	0	43	104	2099249152	26	13745
2026-01-09 09:22:18.36	346.77	6.91	-33.4	-45.6	3.8	1.49e+00	0	43	104	2099249152	26	14739

#Closed at: 2026-01-09 09:22:19
#Recorded file [2099 MB]: D:/data/31010_260109_121104.dat