passes_logs/2026/01/09/R2M6_AANII_01/R2M6_AANII_01__20260109_022737_FENGYUN_3D_rec.log

#Pass ID: 20260109_022737_FENGYUN 3D
#Satellite: FENGYUN 3D
#Configuration: FENGYUN 3D
#almurnet v.1.7.20240730
#Start time: 2026-01-09 02:27:36

#Version: 2.2.20231116
#Station: R2M6_AANII_01
#Location: 30.233357 lon 59.946436 lat
#TLE: 1 43010U 17072A   26008.51967461  .00000013  00000+0  27718-4 0  9992
#TLE: 2 43010  98.9935 340.2353 0002115 119.1573 240.9815 14.19693759422336

#Time	Az	El	Level	Level2	SNR	BER	BlckErr	Temp	State	Recorded	gain1	gain2
2026-01-09 02:27:36.93	18.39	6.96	-28.2	-31.3	5.5	7.81e-01	0	40	0	0	17	5142
2026-01-09 02:27:37.94	18.39	7.04	-30.4	-34.8	5.0	8.02e-01	0	40	104	0	20	5948
2026-01-09 02:27:38.94	18.39	7.11	-30.4	-34.6	8.2	7.30e-02	0	40	0	0	20	5873
2026-01-09 02:27:39.95	18.39	7.19	-30.0	-33.5	8.9	4.30e-02	0	40	0	5242880	20	5388
2026-01-09 02:27:40.96	18.39	7.27	-30.4	-34.7	8.1	4.83e-02	0	40	0	10485760	20	5882
2026-01-09 02:27:41.97	18.39	7.35	-30.0	-33.5	8.9	4.19e-02	0	40	0	16777216	20	5358
2026-01-09 02:27:42.97	18.40	7.43	-29.5	-32.5	10.0	1.46e-02	0	40	0	22020096	19	5082
2026-01-09 02:27:43.98	18.40	7.51	-29.1	-31.8	11.0	5.49e-03	0	40	0	28311552	18	4919
2026-01-09 02:27:44.98	18.40	7.59	-28.5	-30.9	11.8	1.14e-03	0	40	0	33554432	17	4736
2026-01-09 02:27:45.99	18.40	7.66	-28.0	-30.2	12.6	3.20e-04	0	41	0	39845888	16	4600
2026-01-09 02:27:47.00	18.40	7.74	-27.4	-29.2	13.3	9.04e-05	0	41	0	45088768	15	4430
2026-01-09 02:27:48.01	18.40	7.82	-27.2	-29.1	13.7	1.53e-03	0	40	0	50331648	14	4514
2026-01-09 02:27:49.02	18.40	7.90	-27.0	-28.7	13.9	1.22e-04	0	41	0	56623104	14	4389
2026-01-09 02:27:50.02	18.41	7.98	-26.9	-29.0	14.1	1.53e-03	0	41	0	61865984	13	4594
2026-01-09 02:27:51.03	18.41	8.07	-26.9	-29.1	14.0	1.51e-03	0	41	0	67108864	13	4624
2026-01-09 02:27:52.04	18.41	8.15	-26.9	-29.0	14.1	1.40e-04	0	41	0	73400320	13	4593
2026-01-09 02:27:53.04	18.41	8.23	-26.9	-29.0	14.1	1.65e-03	0	41	0	78643200	13	4594
2026-01-09 02:27:54.05	18.41	8.31	-26.8	-28.8	14.2	1.47e-03	0	41	0	84934656	13	4517
2026-01-09 02:27:55.06	18.41	8.39	-26.7	-28.6	14.3	1.29e-04	0	41	0	90177536	13	4482
2026-01-09 02:27:56.07	18.41	8.47	-26.7	-28.5	14.4	1.47e-03	0	41	0	95420416	13	4440
2026-01-09 02:27:57.07	18.42	8.55	-25.8	-27.6	14.2	1.36e-03	0	41	0	101711872	13	4408
2026-01-09 02:27:58.08	18.42	8.64	-26.6	-28.4	13.3	9.72e-05	0	41	0	106954752	13	4411
2026-01-09 02:27:59.09	18.42	8.72	-26.8	-28.7	14.3	1.10e-06	0	41	0	113246208	13	4489
2026-01-09 02:28:00.09	18.42	8.80	-26.6	-28.3	14.5	1.42e-03	0	41	0	118489088	13	4380
2026-01-09 02:28:01.10	18.42	8.89	-26.5	-28.2	14.6	5.89e-04	0	41	0	124780544	13	4348
2026-01-09 02:28:02.11	18.42	8.97	-26.6	-28.3	14.6	1.46e-03	0	41	0	130023424	13	4376
2026-01-09 02:28:03.12	18.42	9.05	-26.4	-27.9	14.8	1.42e-03	0	41	0	135266304	13	4281
2026-01-09 02:28:04.13	18.42	9.14	-26.5	-28.5	14.7	9.95e-05	0	41	0	141557760	12	4549
2026-01-09 02:28:05.13	18.43	9.22	-26.5	-28.2	14.6	1.46e-03	0	41	0	146800640	13	4344
2026-01-09 02:28:06.12	18.43	9.30	-26.4	-28.2	14.9	5.83e-04	0	41	0	152043520	12	4468
2026-01-09 02:28:07.13	18.43	9.39	-26.4	-28.3	14.8	9.38e-05	0	41	0	158334976	12	4495
2026-01-09 02:28:08.13	18.43	9.47	-26.4	-28.3	14.9	1.10e-06	0	41	0	163577856	12	4495
2026-01-09 02:28:09.14	18.43	9.56	-26.3	-28.1	15.0	1.31e-03	0	41	0	169869312	12	4423
2026-01-09 02:28:10.15	18.43	9.65	-26.4	-28.3	14.9	5.22e-04	0	41	0	175112192	12	4497
2026-01-09 02:28:11.16	18.43	9.73	-26.4	-28.3	14.9	1.10e-06	0	41	0	181403648	12	4500
2026-01-09 02:28:12.17	18.43	9.82	-26.2	-28.0	15.0	4.71e-04	0	41	0	186646528	12	4403
2026-01-09 02:28:13.18	18.44	9.91	-26.2	-27.9	15.1	4.63e-04	0	41	0	192937984	12	4377
2026-01-09 02:28:14.19	18.44	9.99	-26.3	-28.1	15.1	0.00e+00	0	41	0	198180864	12	4428
2026-01-09 02:28:15.19	18.44	10.08	-26.3	-28.1	15.0	5.50e-04	0	41	0	203423744	12	4442
2026-01-09 02:28:16.20	18.44	10.17	-26.3	-28.2	15.0	2.17e-05	0	41	0	209715200	12	4449
2026-01-09 02:28:17.21	18.44	10.26	-26.4	-28.3	14.9	0.00e+00	0	41	0	214958080	12	4504
2026-01-09 02:28:18.21	18.44	10.34	-26.3	-28.1	15.0	4.50e-04	0	41	0	220200960	12	4440
2026-01-09 02:28:19.21	18.44	10.43	-26.5	-28.5	14.8	4.39e-04	0	41	0	226492416	12	4556
2026-01-09 02:28:20.22	18.44	10.52	-26.7	-28.6	14.5	0.00e+00	0	41	0	231735296	13	4455
2026-01-09 02:28:21.23	18.44	10.61	-27.0	-28.8	14.1	4.07e-04	0	42	0	238026752	14	4408
2026-01-09 02:28:22.24	18.44	10.70	-26.7	-28.1	14.5	4.00e-04	0	42	0	243269632	14	4213
2026-01-09 02:28:23.24	18.44	10.79	-26.6	-28.2	14.7	1.10e-06	0	41	0	248512512	13	4343
2026-01-09 02:28:24.25	18.45	10.88	-26.8	-28.7	14.5	3.98e-04	0	41	0	254803968	13	4493
2026-01-09 02:28:25.26	18.45	10.97	-26.6	-28.3	14.7	2.20e-06	0	41	0	260046848	13	4387
2026-01-09 02:28:26.27	18.45	11.06	-26.7	-28.4	14.6	0.00e+00	0	42	0	266338304	13	4416
2026-01-09 02:28:27.28	18.45	11.15	-26.7	-28.6	14.6	0.00e+00	0	41	0	271581184	13	4442
2026-01-09 02:28:28.29	18.45	11.24	-26.9	-28.8	14.4	2.20e-06	0	41	0	277872640	13	4526
2026-01-09 02:28:29.29	18.45	11.34	-26.4	-27.9	14.9	1.10e-06	0	42	0	283115520	13	4273
2026-01-09 02:28:30.30	18.45	11.43	-26.4	-27.8	15.0	0.00e+00	0	42	0	288358400	13	4236
2026-01-09 02:28:31.31	18.45	11.52	-26.4	-27.8	15.0	4.53e-04	0	42	0	294649856	13	4239
2026-01-09 02:28:32.31	18.45	11.61	-26.5	-28.1	14.9	0.00e+00	0	42	0	299892736	13	4306
2026-01-09 02:28:33.32	18.45	11.71	-26.3	-27.6	15.1	0.00e+00	0	42	0	305135616	13	4173
2026-01-09 02:28:34.32	18.45	11.80	-26.5	-28.1	14.9	1.10e-06	0	42	0	311427072	13	4313
2026-01-09 02:28:35.32	18.45	11.89	-26.6	-28.2	14.8	0.00e+00	0	42	0	316669952	13	4347
2026-01-09 02:28:36.33	18.45	11.99	-26.4	-27.7	15.0	1.10e-06	0	42	0	322961408	13	4218
2026-01-09 02:28:37.34	18.45	12.08	-26.2	-27.9	15.2	1.10e-06	0	42	0	328204288	12	4367
2026-01-09 02:28:38.34	18.45	12.18	-25.9	-27.2	15.7	0.00e+00	0	42	0	333447168	12	4168
2026-01-09 02:28:39.35	18.46	12.27	-26.0	-27.4	15.6	0.00e+00	0	42	0	339738624	12	4223
2026-01-09 02:28:40.36	18.46	12.37	-25.9	-27.7	15.7	0.00e+00	0	42	0	344981504	11	4428
2026-01-09 02:28:41.36	18.46	12.47	-25.9	-27.7	15.7	0.00e+00	0	42	0	351272960	11	4436
2026-01-09 02:28:42.37	18.46	12.56	-26.1	-27.7	15.4	0.00e+00	0	42	0	356515840	12	4317
2026-01-09 02:28:43.37	18.46	12.66	-26.1	-27.6	15.5	0.00e+00	0	42	0	361758720	12	4288
2026-01-09 02:28:44.38	18.46	12.76	-25.8	-27.0	15.8	0.00e+00	0	42	0	368050176	12	4132
2026-01-09 02:28:45.38	18.46	12.85	-25.8	-27.4	15.9	0.00e+00	0	42	0	373293056	11	4337
2026-01-09 02:28:46.38	18.46	12.95	-25.8	-27.5	15.8	0.00e+00	0	42	0	379584512	11	4364
2026-01-09 02:28:47.39	18.46	13.05	-25.9	-27.7	15.8	0.00e+00	0	42	0	384827392	11	4413
2026-01-09 02:28:48.40	18.46	13.15	-25.7	-27.3	16.0	0.00e+00	0	42	0	390070272	11	4324
2026-01-09 02:28:49.41	18.46	13.25	-25.8	-27.5	15.9	0.00e+00	0	42	0	396361728	11	4363
2026-01-09 02:28:50.42	18.46	13.35	-25.7	-27.2	16.0	0.00e+00	0	42	0	401604608	11	4295
2026-01-09 02:28:51.42	18.46	13.45	-25.6	-27.1	16.1	0.00e+00	0	42	0	406847488	11	4260
2026-01-09 02:28:52.43	18.46	13.55	-25.6	-27.0	16.1	0.00e+00	0	42	0	413138944	11	4247
2026-01-09 02:28:53.43	18.46	13.65	-25.6	-27.0	16.1	0.00e+00	0	42	0	418381824	11	4237
2026-01-09 02:28:54.44	18.46	13.75	-25.5	-26.8	16.2	0.00e+00	0	42	0	424673280	11	4188
2026-01-09 02:28:55.45	18.46	13.85	-25.5	-26.8	16.2	0.00e+00	0	42	0	429916160	11	4183
2026-01-09 02:28:56.45	18.46	13.96	-25.5	-26.9	16.2	1.39e-03	0	42	0	436207616	11	4203
2026-01-09 02:28:57.46	18.46	14.06	-25.4	-26.6	16.3	0.00e+00	0	42	0	441450496	11	4132
2026-01-09 02:28:58.47	18.46	14.16	-25.4	-27.0	16.4	1.33e-03	0	42	0	446693376	10	4360
2026-01-09 02:28:59.48	18.46	14.27	-25.4	-27.0	16.4	0.00e+00	0	42	0	452984832	10	4359
2026-01-09 02:29:00.48	18.46	14.37	-25.3	-27.0	16.4	8.81e-05	0	42	0	458227712	10	4345
2026-01-09 02:29:01.49	18.46	14.47	-25.5	-26.8	16.2	0.00e+00	0	42	0	464519168	11	4195
2026-01-09 02:29:02.50	18.46	14.58	-25.6	-26.9	16.2	0.00e+00	0	42	0	469762048	11	4217
2026-01-09 02:29:03.51	18.46	14.68	-25.6	-27.0	16.2	1.30e-04	0	42	0	475004928	11	4234
2026-01-09 02:29:04.51	18.46	14.79	-25.6	-27.0	16.2	0.00e+00	0	42	0	481296384	11	4233
2026-01-09 02:29:05.52	18.46	14.90	-25.6	-27.0	16.2	1.23e-03	0	42	0	486539264	11	4241
2026-01-09 02:29:06.53	18.46	15.00	-25.5	-26.9	16.2	0.00e+00	0	42	0	492830720	11	4207
2026-01-09 02:29:07.53	18.46	15.11	-25.4	-26.7	16.4	1.26e-03	0	42	0	498073600	11	4144
2026-01-09 02:29:08.54	18.46	15.22	-24.8	-26.0	16.1	1.15e-03	0	42	0	503316480	11	4129
2026-01-09 02:29:09.55	18.46	15.33	-25.4	-27.1	14.7	9.72e-05	0	42	0	509607936	10	4389
2026-01-09 02:29:10.56	18.46	15.44	-25.2	-26.7	16.6	1.14e-03	0	42	0	514850816	10	4257
2026-01-09 02:29:11.57	18.46	15.55	-25.1	-26.4	16.8	0.00e+00	0	42	0	521142272	10	4179
2026-01-09 02:29:12.57	18.46	15.65	-25.0	-26.3	16.9	9.95e-05	0	42	0	526385152	10	4157
2026-01-09 02:29:13.58	18.46	15.77	-25.1	-26.4	16.8	1.32e-03	0	42	0	532676608	10	4183
2026-01-09 02:29:14.58	18.45	15.88	-25.0	-26.3	16.9	1.25e-03	0	42	0	537919488	10	4160
2026-01-09 02:29:15.59	18.45	15.99	-24.9	-26.4	17.0	1.17e-04	0	42	0	543162368	9	4314
2026-01-09 02:29:16.59	18.45	16.10	-24.9	-26.6	17.0	1.26e-03	0	42	0	549453824	9	4345
2026-01-09 02:29:17.59	18.45	16.21	-24.9	-26.5	17.1	1.15e-03	0	42	0	554696704	9	4331
2026-01-09 02:29:18.59	18.45	16.32	-24.9	-26.5	17.1	4.77e-04	0	42	0	559939584	9	4323
2026-01-09 02:29:19.60	18.45	16.44	-24.9	-26.4	17.1	1.16e-03	0	42	0	566231040	9	4301
2026-01-09 02:29:20.60	18.45	16.55	-24.9	-26.5	17.1	4.58e-04	0	42	0	571473920	9	4325
2026-01-09 02:29:21.61	18.45	16.66	-24.9	-26.1	17.0	5.37e-04	0	42	0	576716800	10	4102
2026-01-09 02:29:22.61	18.45	16.78	-24.8	-25.8	17.2	1.30e-03	0	42	0	583008256	10	4036
2026-01-09 02:29:23.61	18.45	16.89	-24.7	-26.1	17.2	1.52e-03	0	42	0	588251136	9	4235
2026-01-09 02:29:24.62	18.45	17.01	-24.7	-26.1	17.3	6.98e-05	0	42	0	594542592	9	4229
2026-01-09 02:29:25.63	18.45	17.12	-24.9	-26.4	17.1	0.00e+00	0	42	0	599785472	9	4309
2026-01-09 02:29:26.63	18.45	17.24	-24.8	-26.3	17.2	1.15e-03	0	42	0	606076928	9	4269
2026-01-09 02:29:27.64	18.44	17.36	-24.7	-26.1	17.3	4.27e-04	0	42	0	611319808	9	4215
2026-01-09 02:29:28.64	18.44	17.48	-24.7	-26.1	17.3	1.11e-03	0	42	0	616562688	9	4218
2026-01-09 02:29:29.65	18.44	17.60	-24.7	-26.1	17.3	4.36e-04	0	42	0	622854144	9	4209
2026-01-09 02:29:30.66	18.44	17.72	-24.7	-26.1	17.3	4.40e-04	0	42	0	628097024	9	4235
2026-01-09 02:29:31.67	18.44	17.84	-24.7	-26.0	17.4	0.00e+00	0	42	0	633339904	9	4197
2026-01-09 02:29:32.67	18.44	17.96	-24.7	-26.0	17.4	3.55e-04	0	42	0	639631360	9	4203
2026-01-09 02:29:33.67	18.44	18.08	-24.7	-26.0	17.4	3.48e-04	0	42	0	644874240	9	4201
2026-01-09 02:29:34.67	18.44	18.20	-24.7	-26.1	17.3	0.00e+00	0	42	0	650117120	9	4209
2026-01-09 02:29:35.68	18.43	18.32	-24.7	-26.1	17.3	1.43e-03	0	42	0	656408576	9	4216
2026-01-09 02:29:36.68	18.43	18.44	-24.7	-26.0	17.3	2.88e-04	0	42	0	661651456	9	4196
2026-01-09 02:29:37.69	18.43	18.57	-24.6	-25.8	17.4	0.00e+00	0	42	0	667942912	9	4154
2026-01-09 02:29:38.69	18.43	18.69	-24.6	-25.9	17.4	0.00e+00	0	42	0	673185792	9	4185
2026-01-09 02:29:39.70	18.43	18.81	-24.6	-25.8	17.5	2.68e-04	0	42	0	679477248	9	4154
2026-01-09 02:29:40.70	18.43	18.94	-24.5	-25.7	17.6	0.00e+00	0	42	0	684720128	9	4109
2026-01-09 02:29:41.71	18.43	19.07	-24.5	-25.6	17.6	2.64e-04	0	42	0	689963008	9	4088
2026-01-09 02:29:42.71	18.42	19.19	-24.5	-25.5	17.6	2.80e-04	0	42	0	696254464	9	4077
2026-01-09 02:29:43.71	18.42	19.32	-24.6	-25.8	17.5	0.00e+00	0	43	0	701497344	9	4140
2026-01-09 02:29:44.71	18.42	19.45	-24.6	-25.8	17.5	2.64e-04	0	42	0	706740224	9	4150
2026-01-09 02:29:45.72	18.42	19.57	-24.6	-25.8	17.5	0.00e+00	0	42	0	713031680	9	4140
2026-01-09 02:29:46.73	18.42	19.70	-24.6	-25.9	17.5	0.00e+00	0	43	0	718274560	9	4163
2026-01-09 02:29:47.73	18.42	19.83	-24.6	-25.8	17.5	0.00e+00	0	42	0	724566016	9	4128
2026-01-09 02:29:48.74	18.41	19.97	-24.5	-25.6	17.6	2.66e-04	0	43	0	729808896	9	4090
2026-01-09 02:29:49.74	18.41	20.10	-24.4	-25.3	17.8	0.00e+00	0	42	0	735051776	9	4022
2026-01-09 02:29:50.74	18.41	20.23	-24.4	-25.9	17.7	0.00e+00	0	42	0	741343232	8	4292
2026-01-09 02:29:51.74	18.41	20.36	-24.5	-26.0	17.7	0.00e+00	0	43	0	746586112	8	4311
2026-01-09 02:29:52.75	18.40	20.49	-24.2	-25.5	18.0	0.00e+00	0	42	0	752877568	8	4184
2026-01-09 02:29:53.75	18.40	20.63	-24.2	-25.4	18.0	2.49e-04	0	42	0	758120448	8	4154
2026-01-09 02:29:54.76	18.40	20.76	-24.1	-25.3	18.1	0.00e+00	0	43	0	763363328	8	4136
2026-01-09 02:29:55.76	18.40	20.90	-24.1	-25.3	18.1	0.00e+00	0	43	0	769654784	8	4122
2026-01-09 02:29:56.77	18.40	21.03	-24.1	-25.4	18.0	0.00e+00	0	43	0	774897664	8	4143
2026-01-09 02:29:57.78	18.39	21.17	-24.4	-25.9	17.7	0.00e+00	0	42	0	781189120	8	4293
2026-01-09 02:29:58.79	18.39	21.31	-24.3	-25.7	17.9	0.00e+00	0	43	0	786432000	8	4230
2026-01-09 02:29:59.79	18.39	21.45	-24.2	-25.5	18.0	0.00e+00	0	42	0	791674880	8	4175
2026-01-09 02:30:00.80	18.39	21.59	-24.1	-25.4	18.0	0.00e+00	0	43	0	797966336	8	4140
2026-01-09 02:30:01.81	18.38	21.73	-24.2	-25.5	18.0	0.00e+00	0	42	0	803209216	8	4193
2026-01-09 02:30:02.82	18.38	21.87	-24.2	-25.4	18.0	0.00e+00	0	42	0	808452096	8	4164
2026-01-09 02:30:03.83	18.38	22.01	-24.1	-25.2	18.1	0.00e+00	0	42	0	814743552	8	4112
2026-01-09 02:30:04.83	18.37	22.15	-24.1	-25.2	18.2	0.00e+00	0	42	0	819986432	8	4100
2026-01-09 02:30:05.83	18.37	22.30	-24.0	-25.2	18.2	0.00e+00	0	42	0	826277888	8	4097
2026-01-09 02:30:06.84	18.37	22.44	-24.2	-25.4	18.0	0.00e+00	0	43	0	831520768	8	4161
2026-01-09 02:30:07.84	18.36	22.59	-23.9	-24.9	18.3	0.00e+00	0	42	0	837812224	8	4026
2026-01-09 02:30:08.84	18.36	22.73	-23.8	-24.6	18.5	0.00e+00	0	42	0	843055104	8	3950
2026-01-09 02:30:09.85	18.36	22.88	-23.8	-24.6	18.5	0.00e+00	0	42	0	848297984	8	3965
2026-01-09 02:30:10.86	18.36	23.03	-23.7	-24.3	18.6	0.00e+00	0	42	0	854589440	8	3892
2026-01-09 02:30:11.86	18.35	23.17	-23.7	-24.9	18.6	0.00e+00	0	43	0	859832320	7	4134
2026-01-09 02:30:12.87	18.35	23.32	-23.5	-24.5	18.8	0.00e+00	0	43	0	865075200	7	4049
2026-01-09 02:30:13.88	18.34	23.47	-23.5	-24.5	13.6	0.00e+00	0	42	0	871366656	7	4047
2026-01-09 02:30:14.89	18.34	23.63	-23.5	-24.4	18.9	0.00e+00	0	43	0	876609536	7	4017
2026-01-09 02:30:15.89	18.34	23.78	-23.6	-24.7	18.7	0.00e+00	0	42	0	882900992	7	4096
2026-01-09 02:30:16.90	18.33	23.93	-23.6	-24.7	18.7	0.00e+00	0	42	0	888143872	7	4088
2026-01-09 02:30:17.91	18.33	24.08	-23.5	-24.5	18.8	0.00e+00	0	43	0	893386752	7	4043
2026-01-09 02:30:18.91	18.33	24.24	-23.8	-25.1	18.5	0.00e+00	0	43	0	899678208	7	4189
2026-01-09 02:30:19.92	18.32	24.39	-23.8	-25.1	18.6	0.00e+00	0	43	0	904921088	7	4180
2026-01-09 02:30:20.92	18.32	24.55	-23.6	-24.8	18.7	0.00e+00	0	43	0	911212544	7	4102
2026-01-09 02:30:21.92	18.31	24.71	-23.6	-24.6	18.8	0.00e+00	0	43	0	916455424	7	4068
2026-01-09 02:30:22.93	18.31	24.86	-23.6	-24.8	18.7	1.16e-03	0	43	0	922746880	7	4105
2026-01-09 02:30:23.93	18.31	25.02	-24.0	-25.5	18.3	0.00e+00	0	43	0	927989760	7	4280
2026-01-09 02:30:24.93	18.30	25.18	-23.9	-24.8	18.5	1.18e-03	0	43	0	933232640	8	3987
2026-01-09 02:30:25.94	18.30	25.34	-23.8	-24.6	18.6	1.14e-03	0	43	0	939524096	8	3962
2026-01-09 02:30:26.94	18.29	25.51	-23.7	-24.4	18.7	0.00e+00	0	42	0	944766976	8	3896
2026-01-09 02:30:27.95	18.29	25.67	-23.9	-25.3	18.5	1.11e-03	0	43	0	950009856	7	4224
2026-01-09 02:30:28.96	18.28	25.83	-23.7	-24.9	18.7	0.00e+00	0	43	0	956301312	7	4139
2026-01-09 02:30:29.96	18.28	26.00	-23.6	-24.7	18.8	0.00e+00	0	43	0	961544192	7	4091
2026-01-09 02:30:30.97	18.27	26.17	-23.4	-24.4	18.9	3.25e-04	0	43	0	966787072	7	4001
2026-01-09 02:30:31.98	18.27	26.33	-23.3	-24.0	19.1	1.06e-03	0	42	0	973078528	7	3926
2026-01-09 02:30:32.99	18.26	26.50	-23.3	-24.0	19.1	0.00e+00	0	43	0	978321408	7	3920
2026-01-09 02:30:33.99	18.26	26.67	-23.2	-24.4	19.2	1.07e-03	0	43	0	984612864	6	4123
2026-01-09 02:30:35.00	18.25	26.84	-23.3	-24.5	19.2	1.04e-03	0	42	0	989855744	6	4135
2026-01-09 02:30:36.00	18.25	27.01	-23.2	-24.4	19.2	0.00e+00	0	43	0	996147200	6	4127
2026-01-09 02:30:37.01	18.24	27.19	-23.3	-24.6	19.1	1.05e-03	0	43	0	1001390080	6	4168
2026-01-09 02:30:38.02	18.24	27.36	-23.2	-24.4	19.2	9.66e-04	0	43	0	1006632960	6	4119
2026-01-09 02:30:39.03	18.23	27.54	-23.3	-24.6	19.1	1.54e-04	0	42	0	1012924416	6	4173
2026-01-09 02:30:40.03	18.22	27.71	-23.3	-24.5	19.2	9.18e-04	0	42	0	1018167296	6	4145
2026-01-09 02:30:41.05	18.22	27.89	-23.3	-24.6	19.1	1.08e-03	0	43	0	1024458752	6	4175
2026-01-09 02:30:42.05	18.21	28.07	-23.2	-24.4	19.2	0.00e+00	0	43	0	1029701632	6	4127
2026-01-09 02:30:43.06	18.21	28.25	-23.3	-24.5	19.2	0.00e+00	0	42	0	1034944512	6	4148
2026-01-09 02:30:44.07	18.20	28.43	-23.2	-24.3	19.3	1.02e-03	0	42	0	1041235968	6	4101
2026-01-09 02:30:45.08	18.19	28.61	-23.2	-24.4	19.2	1.33e-04	0	42	0	1046478848	6	4115
2026-01-09 02:30:46.08	18.19	28.79	-23.3	-24.6	19.1	8.97e-04	0	43	0	1052770304	6	4180
2026-01-09 02:30:47.09	18.18	28.98	-23.2	-24.4	19.2	1.28e-04	0	43	0	1058013184	6	4119
2026-01-09 02:30:48.09	18.17	29.16	-23.4	-24.8	19.0	1.05e-04	0	42	0	1063256064	6	4229
2026-01-09 02:30:49.09	18.17	29.35	-23.2	-24.4	19.2	8.18e-04	0	43	0	1069547520	6	4126
2026-01-09 02:30:50.10	18.16	29.54	-23.2	-24.3	19.3	1.10e-04	0	43	0	1074790400	6	4100
2026-01-09 02:30:51.11	18.15	29.73	-23.2	-24.5	19.2	1.12e-04	0	43	0	1081081856	6	4138
2026-01-09 02:30:52.11	18.15	29.92	-23.1	-24.3	19.4	0.00e+00	0	43	0	1086324736	6	4091
2026-01-09 02:30:53.11	18.14	30.11	-23.1	-24.3	19.3	8.38e-04	0	43	0	1091567616	6	4089
2026-01-09 02:30:54.12	18.13	30.30	-23.4	-24.7	19.1	1.02e-04	0	43	0	1097859072	6	4198
2026-01-09 02:30:55.13	18.12	30.50	-23.4	-24.9	19.0	0.00e+00	0	43	0	1103101952	6	4246
2026-01-09 02:30:56.13	18.12	30.69	-23.3	-24.5	19.2	0.00e+00	0	43	0	1109393408	6	4157
2026-01-09 02:30:57.13	18.11	30.89	-23.2	-24.4	19.3	5.72e-05	0	43	0	1114636288	6	4114
2026-01-09 02:30:58.14	18.10	31.09	-23.2	-24.3	19.3	7.12e-04	0	43	0	1119879168	6	4099
2026-01-09 02:30:59.15	18.09	31.29	-23.3	-24.6	19.2	9.38e-05	0	43	0	1126170624	6	4160
2026-01-09 02:31:00.15	18.08	31.49	-23.2	-24.4	19.3	1.04e-04	0	43	0	1131413504	6	4125
2026-01-09 02:31:01.17	18.07	31.69	-23.5	-24.5	19.0	0.00e+00	0	43	0	1136656384	7	4038
2026-01-09 02:31:02.18	18.07	31.90	-23.2	-23.9	19.3	8.23e-05	0	43	0	1142947840	7	3885
2026-01-09 02:31:03.18	18.06	32.10	-23.1	-23.6	19.4	0.00e+00	0	43	0	1148190720	7	3823
2026-01-09 02:31:04.19	18.05	32.31	-23.0	-24.0	19.5	0.00e+00	0	43	0	1154482176	6	4030
2026-01-09 02:31:05.19	18.04	32.52	-23.1	-24.2	19.4	0.00e+00	0	43	0	1159725056	6	4072
2026-01-09 02:31:06.20	18.03	32.73	-23.2	-24.4	19.3	0.00e+00	0	43	0	1166016512	6	4118
2026-01-09 02:31:07.21	18.02	32.94	-23.3	-24.6	19.2	0.00e+00	0	43	0	1171259392	6	4162
2026-01-09 02:31:08.21	18.01	33.15	-23.3	-24.5	19.3	0.00e+00	0	43	0	1176502272	6	4142
2026-01-09 02:31:09.22	18.00	33.37	-23.4	-24.7	19.1	1.33e-04	0	42	0	1182793728	6	4203
2026-01-09 02:31:10.22	17.99	33.58	-23.2	-24.4	19.3	0.00e+00	0	43	0	1188036608	6	4127
2026-01-09 02:31:11.23	17.98	33.80	-23.1	-24.1	19.4	2.74e-05	0	43	0	1194328064	6	4060
2026-01-09 02:31:12.24	17.97	34.02	-23.0	-23.9	19.5	0.00e+00	0	43	0	1199570944	6	4011
2026-01-09 02:31:13.25	17.96	34.24	-23.0	-24.0	19.5	0.00e+00	0	43	0	1204813824	6	4029
2026-01-09 02:31:14.25	17.95	34.46	-23.2	-24.3	19.3	0.00e+00	0	43	0	1211105280	6	4102
2026-01-09 02:31:15.26	17.94	34.68	-23.0	-24.0	19.5	0.00e+00	0	43	0	1216348160	6	4032
2026-01-09 02:31:16.27	17.93	34.91	-23.3	-24.5	19.2	0.00e+00	0	43	0	1221591040	6	4158
2026-01-09 02:31:17.27	17.91	35.14	-23.2	-24.3	19.4	0.00e+00	0	43	0	1227882496	6	4086
2026-01-09 02:31:18.28	17.90	35.37	-23.1	-24.1	19.5	0.00e+00	0	43	0	1233125376	6	4041
2026-01-09 02:31:19.29	17.89	35.60	-23.1	-24.1	19.5	0.00e+00	0	43	0	1239416832	6	4052
2026-01-09 02:31:20.30	17.88	35.83	-23.1	-24.2	19.4	0.00e+00	0	43	0	1244659712	6	4065
2026-01-09 02:31:21.30	17.87	36.06	-23.0	-23.9	19.6	0.00e+00	0	43	0	1250951168	6	4005
2026-01-09 02:31:22.30	17.85	36.30	-22.9	-23.7	19.6	0.00e+00	0	43	0	1256194048	6	3964
2026-01-09 02:31:23.30	17.84	36.53	-23.0	-24.0	19.5	0.00e+00	0	43	0	1261436928	6	4023
2026-01-09 02:31:24.30	17.83	36.77	-23.3	-24.5	19.2	0.00e+00	0	43	0	1267728384	6	4156
2026-01-09 02:31:25.30	17.81	37.01	-23.4	-24.8	19.1	0.00e+00	0	43	0	1272971264	6	4228
2026-01-09 02:31:26.30	17.80	37.25	-23.1	-24.2	19.4	0.00e+00	0	43	0	1278214144	6	4072
2026-01-09 02:31:27.31	17.79	37.49	-23.0	-24.0	19.5	0.00e+00	0	43	0	1284505600	6	4021
2026-01-09 02:31:28.32	17.77	37.74	-22.9	-23.7	19.7	0.00e+00	0	43	0	1289748480	6	3952
2026-01-09 02:31:29.32	17.76	37.99	-22.9	-23.6	19.7	0.00e+00	0	43	0	1294991360	6	3933
2026-01-09 02:31:30.32	17.74	38.23	-22.9	-23.8	19.7	0.00e+00	0	43	0	1301282816	6	3967
2026-01-09 02:31:31.33	17.73	38.49	-23.0	-23.9	19.6	0.00e+00	0	43	0	1306525696	6	3992
2026-01-09 02:31:32.34	17.71	38.74	-23.2	-24.3	19.4	0.00e+00	0	43	0	1312817152	6	4086
2026-01-09 02:31:33.35	17.70	39.00	-22.8	-23.6	19.7	0.00e+00	0	43	0	1318060032	6	3930
2026-01-09 02:31:34.36	17.68	39.25	-22.6	-23.2	20.0	0.00e+00	0	43	0	1324351488	6	3828
2026-01-09 02:31:35.36	17.67	39.51	-22.5	-23.0	20.1	0.00e+00	0	43	0	1329594368	6	3783
2026-01-09 02:31:36.37	17.65	39.77	-22.6	-23.1	20.0	0.00e+00	0	43	0	1334837248	6	3806
2026-01-09 02:31:37.38	17.63	40.04	-22.7	-23.7	19.9	0.00e+00	0	43	0	1341128704	5	4059
2026-01-09 02:31:38.39	17.62	40.30	-22.7	-23.8	19.9	0.00e+00	0	43	0	1346371584	5	4084
2026-01-09 02:31:39.39	17.60	40.57	-22.9	-24.2	19.7	0.00e+00	0	43	0	1352663040	5	4177
2026-01-09 02:31:40.40	17.58	40.84	-22.9	-24.1	19.7	6.68e-04	0	43	0	1357905920	5	4170
2026-01-09 02:31:41.40	17.56	41.11	-23.0	-24.4	19.6	0.00e+00	0	43	0	1363148800	5	4228
2026-01-09 02:31:42.41	17.54	41.38	-23.1	-24.2	19.5	0.00e+00	0	43	0	1369440256	6	4063
2026-01-09 02:31:43.41	17.52	41.66	-23.3	-24.5	19.3	0.00e+00	0	43	0	1374683136	6	4160
2026-01-09 02:31:44.42	17.50	41.93	-23.3	-24.5	19.3	0.00e+00	0	43	0	1379926016	6	4146
2026-01-09 02:31:45.42	17.49	42.21	-23.2	-24.3	19.4	6.71e-04	0	43	0	1386217472	6	4095
2026-01-09 02:31:46.42	17.47	42.49	-23.0	-23.9	19.6	0.00e+00	0	43	0	1391460352	6	3990
2026-01-09 02:31:47.43	17.44	42.78	-23.1	-24.2	19.5	0.00e+00	0	43	0	1397751808	6	4078
2026-01-09 02:31:48.44	17.42	43.06	-23.2	-24.4	19.4	0.00e+00	0	43	0	1402994688	6	4114
2026-01-09 02:31:49.45	17.40	43.35	-23.1	-24.2	19.5	6.24e-04	0	43	0	1409286144	6	4077
2026-01-09 02:31:50.45	17.38	43.64	-23.1	-24.2	19.5	0.00e+00	0	43	0	1414529024	6	4076
2026-01-09 02:31:51.46	17.36	43.93	-23.1	-24.2	19.4	0.00e+00	0	42	0	1419771904	6	4087
2026-01-09 02:31:52.46	17.33	44.23	-23.1	-24.1	19.5	3.44e-04	0	43	0	1426063360	6	4051
2026-01-09 02:31:53.46	17.31	44.52	-23.2	-24.2	19.5	0.00e+00	0	43	0	1431306240	6	4082
2026-01-09 02:31:54.47	17.29	44.82	-23.3	-24.5	19.3	3.35e-04	0	43	0	1436549120	6	4142
2026-01-09 02:31:55.48	17.26	45.12	-23.3	-24.6	19.3	2.99e-04	0	43	0	1442840576	6	4175
2026-01-09 02:31:56.48	17.24	45.42	-23.5	-24.4	19.2	6.17e-05	0	43	0	1448083456	7	4003
2026-01-09 02:31:57.49	17.21	45.73	-23.3	-24.1	19.3	3.66e-04	0	43	0	1454374912	7	3948
2026-01-09 02:31:58.49	17.19	46.04	-23.3	-24.1	19.3	3.26e-04	0	43	0	1459617792	7	3941
2026-01-09 02:31:59.50	17.16	46.35	-23.4	-24.3	19.2	0.00e+00	0	43	0	1464860672	7	3991
2026-01-09 02:32:00.49	17.13	46.66	-23.6	-24.7	19.0	3.19e-04	0	43	0	1471152128	7	4084
2026-01-09 02:32:01.50	17.10	46.97	-23.7	-24.9	18.9	3.33e-04	0	43	0	1476395008	7	4126
2026-01-09 02:32:02.51	17.08	47.29	-23.4	-24.2	19.3	0.00e+00	0	43	0	1482686464	7	3961
2026-01-09 02:32:03.51	17.05	47.61	-23.1	-23.6	19.5	3.27e-04	0	43	0	1487929344	7	3818
2026-01-09 02:32:04.52	17.02	47.93	-23.1	-24.1	19.6	3.28e-04	0	43	0	1493172224	6	4038
2026-01-09 02:32:05.53	16.99	48.26	-23.0	-24.0	19.6	0.00e+00	0	43	0	1499463680	6	4017
2026-01-09 02:32:06.54	16.95	48.59	-23.1	-24.1	19.5	3.04e-04	0	43	0	1504706560	6	4049
2026-01-09 02:32:07.54	16.92	48.92	-23.3	-24.6	19.3	0.00e+00	0	43	0	1510998016	6	4168
2026-01-09 02:32:08.55	16.89	49.25	-23.3	-24.5	19.3	0.00e+00	0	43	0	1516240896	6	4148
2026-01-09 02:32:09.55	16.86	49.58	-23.1	-24.1	19.5	0.00e+00	0	43	0	1521483776	6	4060
2026-01-09 02:32:10.56	16.82	49.92	-23.2	-24.4	19.4	3.17e-04	0	43	0	1527775232	6	4126
2026-01-09 02:32:11.56	16.79	50.26	-23.4	-24.7	19.3	0.00e+00	0	43	0	1533018112	6	4195
2026-01-09 02:32:12.57	16.75	50.60	-23.1	-24.2	19.5	0.00e+00	0	43	0	1538260992	6	4072
2026-01-09 02:32:13.57	16.71	50.95	-23.2	-24.2	19.5	2.36e-04	0	43	0	1544552448	6	4073
2026-01-09 02:32:14.58	16.67	51.29	-23.3	-24.5	19.3	0.00e+00	0	43	0	1549795328	6	4146
2026-01-09 02:32:15.58	16.63	51.64	-23.7	-24.8	19.0	2.04e-04	0	43	0	1556086784	7	4114
2026-01-09 02:32:16.58	16.59	51.99	-23.9	-25.3	18.7	5.70e-06	0	43	0	1561329664	7	4231
2026-01-09 02:32:17.59	16.55	52.35	-24.3	-25.6	18.3	0.00e+00	0	43	0	1567621120	8	4193
2026-01-09 02:32:18.60	16.51	52.71	-24.5	-25.6	18.1	0.00e+00	0	43	0	1572864000	9	4071
2026-01-09 02:32:19.61	16.47	53.07	-24.5	-25.7	18.0	1.37e-05	0	43	0	1578106880	9	4098
2026-01-09 02:32:20.62	16.42	53.43	-24.5	-25.6	18.1	0.00e+00	0	43	0	1584398336	9	4078
2026-01-09 02:32:21.63	16.37	53.80	-24.3	-25.2	18.3	0.00e+00	0	43	0	1589641216	9	3975
2026-01-09 02:32:22.64	16.33	54.17	-24.3	-25.2	18.3	0.00e+00	0	43	0	1595932672	9	3984
2026-01-09 02:32:23.64	16.28	54.54	-24.4	-25.3	18.3	0.00e+00	0	43	0	1601175552	9	3995
2026-01-09 02:32:24.64	16.23	54.91	-24.6	-25.8	18.0	0.00e+00	0	43	0	1606418432	9	4131
2026-01-09 02:32:25.64	16.18	55.28	-24.9	-26.4	17.7	0.00e+00	0	43	0	1612709888	9	4288
2026-01-09 02:32:26.66	16.12	55.67	-24.8	-26.3	17.7	5.70e-06	0	43	0	1617952768	9	4262
2026-01-09 02:32:27.66	16.07	56.05	-24.3	-25.2	18.3	0.00e+00	0	43	0	1624244224	9	3993
2026-01-09 02:32:28.67	16.01	56.43	-24.0	-24.5	18.6	0.00e+00	0	43	0	1629487104	9	3823
2026-01-09 02:32:29.68	15.96	56.82	-24.0	-24.4	18.7	0.00e+00	0	43	0	1635778560	9	3805
2026-01-09 02:32:30.69	15.90	57.21	-23.9	-24.4	18.7	0.00e+00	0	43	0	1641021440	9	3792
2026-01-09 02:32:31.69	15.83	57.60	-23.5	-24.0	19.1	0.00e+00	0	43	0	1646264320	8	3814
2026-01-09 02:32:32.70	15.77	58.00	-23.5	-23.9	19.3	0.00e+00	0	43	0	1652555776	8	3774
2026-01-09 02:32:33.71	15.71	58.40	-23.5	-24.0	19.2	0.00e+00	0	43	0	1657798656	8	3813
2026-01-09 02:32:34.71	15.64	58.79	-23.6	-24.1	19.1	0.00e+00	0	43	0	1663041536	8	3836
2026-01-09 02:32:35.71	15.57	59.19	-23.6	-24.1	19.2	0.00e+00	0	43	0	1669332992	8	3826
2026-01-09 02:32:36.72	15.50	59.60	-23.9	-24.8	18.8	0.00e+00	0	43	0	1674575872	8	3987
2026-01-09 02:32:37.73	15.42	60.01	-23.6	-24.3	19.0	0.00e+00	0	43	0	1680867328	8	3867
2026-01-09 02:32:38.73	15.35	60.42	-23.1	-23.7	19.5	0.00e+00	0	43	0	1686110208	7	3841
2026-01-09 02:32:39.74	15.27	60.83	-23.3	-24.1	19.4	0.00e+00	0	43	0	1691353088	7	3930
2026-01-09 02:32:40.75	15.18	61.25	-23.4	-24.3	19.3	0.00e+00	0	43	0	1697644544	7	3981
2026-01-09 02:32:41.76	15.10	61.67	-22.8	-22.9	19.9	0.00e+00	0	43	0	1702887424	7	3672
2026-01-09 02:32:42.77	15.01	62.09	-22.3	-22.6	20.4	0.00e+00	0	43	0	1709178880	6	3686
2026-01-09 02:32:43.78	14.92	62.52	-22.4	-22.7	20.3	0.00e+00	0	43	0	1714421760	6	3719
2026-01-09 02:32:44.78	14.82	62.94	-22.6	-23.1	20.1	0.00e+00	0	43	0	1720713216	6	3821
2026-01-09 02:32:45.79	14.72	63.37	-22.9	-23.7	19.8	0.00e+00	0	43	0	1725956096	6	3965
2026-01-09 02:32:46.80	14.62	63.81	-22.6	-23.0	20.2	0.00e+00	0	43	0	1731198976	6	3788
2026-01-09 02:32:47.81	14.51	64.24	-22.4	-22.6	20.4	0.00e+00	0	43	0	1737490432	6	3697
2026-01-09 02:32:48.81	14.40	64.68	-22.6	-23.2	20.1	0.00e+00	0	43	0	1742733312	6	3823
2026-01-09 02:32:49.82	14.29	65.12	-23.0	-24.0	19.7	0.00e+00	0	43	0	1747976192	6	4016
2026-01-09 02:32:50.82	14.17	65.55	-22.9	-23.8	19.8	0.00e+00	0	43	0	1754267648	6	3972
2026-01-09 02:32:51.83	14.04	66.00	-22.8	-23.5	19.9	0.00e+00	0	43	0	1759510528	6	3916
2026-01-09 02:32:52.83	13.91	66.44	-23.3	-24.6	19.4	0.00e+00	0	43	0	1765801984	6	4162
2026-01-09 02:32:53.84	13.78	66.89	-22.9	-23.7	19.8	0.00e+00	0	43	0	1771044864	6	3937
2026-01-09 02:32:54.85	13.63	67.35	-22.4	-22.8	20.3	0.00e+00	0	43	0	1776287744	6	3736
2026-01-09 02:32:55.86	13.48	67.80	-22.2	-22.7	20.5	0.00e+00	0	43	0	1782579200	5	3837
2026-01-09 02:32:56.87	13.33	68.26	-22.0	-22.3	20.7	0.00e+00	0	43	0	1787822080	5	3728
2026-01-09 02:32:57.87	13.17	68.71	-21.8	-22.0	20.9	0.00e+00	0	43	0	1794113536	5	3674
2026-01-09 02:32:58.88	12.99	69.17	-22.0	-22.4	20.7	0.00e+00	0	43	0	1799356416	5	3750
2026-01-09 02:32:59.88	12.82	69.63	-21.9	-22.1	20.8	0.00e+00	0	43	0	1805647872	5	3698
2026-01-09 02:33:00.88	12.63	70.09	-21.6	-21.9	21.2	0.00e+00	0	43	0	1810890752	4	3760
2026-01-09 02:33:01.89	12.43	70.56	-21.8	-22.5	20.9	0.00e+00	0	43	0	1816133632	4	3883
2026-01-09 02:33:02.89	12.22	71.03	-21.7	-22.2	21.1	0.00e+00	0	43	0	1822425088	4	3820
2026-01-09 02:33:03.89	12.00	71.49	-21.7	-22.2	21.1	0.00e+00	0	43	0	1827667968	4	3810
2026-01-09 02:33:04.90	11.77	71.97	-22.1	-23.1	20.5	0.00e+00	0	43	0	1832910848	4	4043
2026-01-09 02:33:05.90	11.52	72.44	-21.9	-22.7	20.8	0.00e+00	0	43	0	1839202304	4	3940
2026-01-09 02:33:06.90	11.26	72.91	-21.4	-21.6	21.3	2.10e-04	0	43	0	1844445184	4	3693
2026-01-09 02:33:07.91	10.99	73.39	-21.4	-21.5	21.4	0.00e+00	0	43	0	1849688064	4	3673
2026-01-09 02:33:08.91	10.69	73.86	-21.8	-22.5	20.9	0.00e+00	0	43	0	1855979520	4	3882
2026-01-09 02:33:09.92	10.38	74.34	-21.8	-22.4	21.0	2.29e-04	0	43	0	1861222400	4	3864
2026-01-09 02:33:10.93	10.04	74.83	-21.4	-21.6	21.4	0.00e+00	0	43	0	1867513856	4	3697
2026-01-09 02:33:11.93	9.69	75.30	-21.7	-22.2	21.1	2.37e-04	0	43	0	1872756736	4	3824
2026-01-09 02:33:12.94	9.30	75.79	-21.8	-22.5	20.9	0.00e+00	0	43	0	1879048192	4	3906
2026-01-09 02:33:13.95	8.89	76.28	-21.5	-21.8	21.3	0.00e+00	0	43	0	1884291072	4	3726
2026-01-09 02:33:14.96	8.45	76.76	-21.4	-21.6	21.3	0.00e+00	0	43	0	1889533952	4	3695
2026-01-09 02:33:15.96	7.97	77.25	-22.0	-22.8	20.8	2.76e-04	0	43	0	1895825408	4	3960
2026-01-09 02:33:16.96	7.46	77.73	-21.3	-21.5	21.4	0.00e+00	0	43	0	1901068288	4	3668
2026-01-09 02:33:17.97	6.89	78.22	-20.9	-21.5	21.9	0.00e+00	0	43	0	1906311168	2	3877
2026-01-09 02:33:18.97	6.29	78.70	-21.1	-22.0	21.7	5.24e-04	0	43	0	1912602624	2	4001
2026-01-09 02:33:19.99	5.61	79.20	-20.9	-21.5	21.9	0.00e+00	0	43	0	1917845504	2	3875
2026-01-09 02:33:20.99	4.88	79.68	-20.6	-21.0	22.1	5.17e-04	0	43	0	1924136960	2	3752
2026-01-09 02:33:22.00	4.07	80.17	-20.8	-21.4	22.0	5.40e-04	0	43	0	1929379840	2	3845
2026-01-09 02:33:23.01	3.17	80.66	-20.8	-21.5	21.9	0.00e+00	0	43	0	1934622720	2	3874
2026-01-09 02:33:24.01	2.18	81.14	-21.0	-21.9	21.7	2.29e-04	0	43	0	1940914176	2	3961
2026-01-09 02:33:25.02	1.07	81.62	-20.4	-20.5	22.4	0.00e+00	0	43	0	1946157056	2	3657
2026-01-09 02:33:26.03	359.82	82.11	-20.3	-20.9	22.5	0.00e+00	0	43	0	1952448512	1	3847
2026-01-09 02:33:27.04	358.40	82.58	-20.6	-21.4	22.2	0.00e+00	0	43	0	1957691392	1	3966
2026-01-09 02:33:28.05	356.79	83.06	-20.8	-21.8	22.0	0.00e+00	0	43	0	1963982848	1	4060
2026-01-09 02:33:29.05	354.95	83.52	-21.2	-22.2	21.6	0.00e+00	0	43	0	1969225728	2	4044
2026-01-09 02:33:30.06	352.82	83.98	-22.0	-23.3	20.9	4.06e-04	0	43	0	1974468608	3	4189
2026-01-09 02:33:31.07	350.32	84.44	-22.8	-23.9	20.1	3.11e-04	0	43	0	1980760064	5	4112
2026-01-09 02:33:32.07	347.42	84.87	-23.9	-25.4	18.8	0.00e+00	0	43	0	1986002944	7	4261
2026-01-09 02:33:33.08	343.95	85.30	-24.3	-25.7	18.4	2.72e-04	0	43	0	1992294400	8	4220
2026-01-09 02:33:34.08	339.85	85.70	-24.6	-25.7	18.2	0.00e+00	0	43	0	1997537280	9	4113
2026-01-09 02:33:35.09	334.88	86.08	-24.4	-25.4	18.3	0.00e+00	0	43	0	2002780160	9	4029
2026-01-09 02:33:36.09	328.96	86.42	-24.5	-25.5	18.3	0.00e+00	0	43	0	2009071616	9	4055
2026-01-09 02:33:37.10	321.81	86.72	-24.7	-26.1	18.0	2.28e-05	0	43	0	2014314496	9	4197
2026-01-09 02:33:38.10	313.49	86.95	-24.7	-26.0	18.1	0.00e+00	0	43	0	2019557376	9	4183
2026-01-09 02:33:39.11	303.91	87.11	-24.7	-26.0	18.1	0.00e+00	0	43	0	2025848832	9	4187
2026-01-09 02:33:40.12	293.52	87.19	-24.8	-26.1	18.0	0.00e+00	0	43	0	2031091712	9	4199
2026-01-09 02:33:41.13	282.93	87.17	-24.6	-25.7	18.2	0.00e+00	0	43	0	2037383168	9	4103
2026-01-09 02:33:42.13	272.94	87.05	-24.3	-25.2	18.5	0.00e+00	0	43	0	2042626048	9	3967
2026-01-09 02:33:43.14	263.85	86.85	-24.3	-25.1	18.6	0.00e+00	0	43	0	2048917504	9	3947
2026-01-09 02:33:44.15	256.01	86.59	-24.2	-25.0	18.6	0.00e+00	0	43	0	2054160384	9	3924
2026-01-09 02:33:45.15	249.47	86.27	-23.9	-24.4	18.9	0.00e+00	0	43	0	2059403264	9	3789
2026-01-09 02:33:46.16	243.97	85.91	-24.1	-24.8	18.6	0.00e+00	0	43	0	2065694720	9	3892
2026-01-09 02:33:47.17	239.39	85.52	-24.0	-24.5	18.7	0.00e+00	0	43	0	2070937600	9	3823
2026-01-09 02:33:48.18	235.58	85.10	-23.4	-23.7	19.4	0.00e+00	0	43	0	2077229056	8	3729
2026-01-09 02:33:49.19	232.37	84.67	-23.2	-23.8	19.6	0.00e+00	0	43	0	2082471936	7	3857
2026-01-09 02:33:50.20	229.66	84.22	-23.3	-24.0	19.5	0.00e+00	0	43	0	2087714816	7	3919
2026-01-09 02:33:51.21	227.35	83.77	-23.4	-24.2	19.3	0.00e+00	0	43	0	2094006272	7	3970
2026-01-09 02:33:52.21	225.37	83.30	-23.2	-24.2	19.6	0.00e+00	0	43	0	2099249152	6	4084
2026-01-09 02:33:53.21	223.65	82.84	-22.8	-23.6	19.9	0.00e+00	0	43	0	2104492032	6	3917
2026-01-09 02:33:54.22	222.13	82.36	-22.7	-23.3	20.0	0.00e+00	0	43	0	2110783488	6	3858
2026-01-09 02:33:55.22	220.81	81.89	-22.2	-22.8	20.5	0.00e+00	0	43	0	2116026368	5	3845
2026-01-09 02:33:56.23	219.62	81.40	-21.8	-22.4	21.0	0.00e+00	0	43	0	2122317824	4	3859
2026-01-09 02:33:57.24	218.56	80.92	-21.7	-22.3	21.0	0.00e+00	0	43	0	2127560704	4	3842
2026-01-09 02:33:58.25	217.61	80.43	-22.2	-23.3	20.5	0.00e+00	0	43	0	2133852160	4	4089
2026-01-09 02:33:59.26	216.76	79.94	-22.3	-23.0	20.4	0.00e+00	0	43	0	2139095040	5	3895
2026-01-09 02:34:00.26	215.99	79.46	-21.5	-21.9	21.2	0.00e+00	0	43	0	2144337920	4	3752
2026-01-09 02:34:01.27	215.28	78.97	-21.3	-21.9	21.4	0.00e+00	0	43	0	2150629376	3	3862
2026-01-09 02:34:02.28	214.64	78.48	-21.1	-21.6	21.6	0.00e+00	0	43	0	2155872256	3	3787
2026-01-09 02:34:03.29	214.05	77.99	-21.1	-21.5	21.7	0.00e+00	0	43	0	2162163712	3	3761
2026-01-09 02:34:04.30	213.51	77.50	-21.3	-21.9	21.4	0.00e+00	0	43	0	2167406592	3	3856
2026-01-09 02:34:05.31	213.01	77.01	-21.2	-21.7	21.5	0.00e+00	0	43	0	2172649472	3	3815
2026-01-09 02:34:06.32	212.54	76.52	-20.9	-21.1	21.8	0.00e+00	0	43	0	2178940928	3	3694
2026-01-09 02:34:07.32	212.12	76.04	-20.8	-21.0	21.9	0.00e+00	0	43	0	2184183808	3	3656
2026-01-09 02:34:08.33	211.72	75.55	-21.0	-21.3	21.7	0.00e+00	0	43	0	2190475264	3	3729
2026-01-09 02:34:09.33	211.35	75.07	-21.1	-21.5	21.6	0.00e+00	0	43	0	2195718144	3	3767
2026-01-09 02:34:10.34	211.00	74.58	-21.0	-21.2	21.7	0.00e+00	0	43	0	2200961024	3	3706
2026-01-09 02:34:11.34	210.68	74.11	-21.0	-21.3	21.7	0.00e+00	0	43	0	2207252480	3	3717
2026-01-09 02:34:12.35	210.38	73.63	-21.4	-22.0	21.3	0.00e+00	0	43	0	2212495360	3	3894
2026-01-09 02:34:13.36	210.09	73.14	-21.6	-22.5	21.1	0.00e+00	0	43	0	2218786816	3	4002
2026-01-09 02:34:14.36	209.82	72.67	-21.4	-22.2	21.3	0.00e+00	0	43	0	2224029696	3	3930
2026-01-09 02:34:15.37	209.57	72.19	-21.3	-21.9	21.4	0.00e+00	0	43	0	2229272576	3	3864
2026-01-09 02:34:16.37	209.33	71.72	-21.6	-22.6	21.1	0.00e+00	0	43	0	2235564032	3	4024
2026-01-09 02:34:17.38	209.10	71.25	-21.7	-22.6	21.0	0.00e+00	0	43	0	2240806912	3	4018
2026-01-09 02:34:18.38	208.89	70.78	-21.7	-22.8	19.1	0.00e+00	0	43	0	2247098368	3	4064
2026-01-09 02:34:19.39	208.68	70.31	-21.9	-23.2	20.7	0.00e+00	0	43	0	2252341248	3	4180
2026-01-09 02:34:20.40	208.49	69.85	-21.9	-23.2	20.7	0.00e+00	0	43	0	2257584128	3	4162
2026-01-09 02:34:21.40	208.30	69.39	-22.5	-23.9	20.1	0.00e+00	0	43	0	2263875584	4	4231
2026-01-09 02:34:22.40	208.13	68.93	-22.8	-24.1	19.8	0.00e+00	0	43	0	2269118464	5	4167
2026-01-09 02:34:23.41	207.96	68.47	-22.2	-22.8	20.4	0.00e+00	0	43	0	2274361344	5	3848
2026-01-09 02:34:24.42	207.80	68.01	-22.0	-22.3	20.6	1.61e-04	0	43	0	2280652800	5	3743
2026-01-09 02:34:25.42	207.65	67.55	-22.4	-23.1	20.3	0.00e+00	0	43	0	2285895680	5	3941
2026-01-09 02:34:26.43	207.50	67.10	-22.4	-23.2	20.2	3.02e-04	0	43	0	2292187136	5	3944
2026-01-09 02:34:27.44	207.36	66.65	-22.3	-23.0	20.3	3.40e-06	0	43	0	2297430016	5	3885
2026-01-09 02:34:28.45	207.23	66.20	-22.5	-23.3	20.2	0.00e+00	0	43	0	2303721472	5	3963
2026-01-09 02:34:29.45	207.10	65.75	-22.6	-23.6	20.1	0.00e+00	0	43	0	2308964352	5	4029
2026-01-09 02:34:30.46	206.98	65.31	-22.7	-23.7	20.0	4.50e-06	0	43	0	2314207232	5	4077
2026-01-09 02:34:31.47	206.86	64.87	-22.8	-24.0	19.8	0.00e+00	0	43	0	2320498688	5	4138
2026-01-09 02:34:32.48	206.75	64.43	-22.5	-23.4	20.1	0.00e+00	0	43	0	2325741568	5	3995
2026-01-09 02:34:33.48	206.64	63.99	-22.7	-23.8	19.9	1.61e-04	0	43	0	2332033024	5	4078
2026-01-09 02:34:34.49	206.53	63.56	-22.8	-23.9	19.9	0.00e+00	0	43	0	2337275904	5	4110
2026-01-09 02:34:35.49	206.43	63.13	-22.4	-23.2	20.2	2.43e-04	0	43	0	2342518784	5	3957
2026-01-09 02:34:36.49	206.34	62.70	-22.1	-22.6	20.5	2.83e-04	0	43	0	2348810240	5	3809
2026-01-09 02:34:37.50	206.24	62.27	-22.2	-22.8	20.4	1.25e-05	0	43	0	2354053120	5	3839
2026-01-09 02:34:38.49	206.15	61.86	-22.4	-23.3	20.2	4.15e-04	0	43	0	2359296000	5	3955
2026-01-09 02:34:39.50	206.07	61.44	-22.7	-23.9	19.9	0.00e+00	0	43	0	2365587456	5	4100
2026-01-09 02:34:40.50	205.98	61.02	-22.9	-24.2	19.7	9.15e-05	0	43	0	2370830336	5	4177
2026-01-09 02:34:41.50	205.90	60.61	-22.7	-23.7	20.0	3.24e-04	0	43	0	2377121792	5	4075
2026-01-09 02:34:42.51	205.82	60.19	-22.6	-23.6	20.0	3.51e-04	0	43	0	2382364672	5	4043
2026-01-09 02:34:43.51	205.75	59.78	-22.5	-23.4	20.1	2.86e-05	0	43	0	2387607552	5	3992
2026-01-09 02:34:44.52	205.67	59.37	-22.7	-23.7	19.9	3.49e-04	0	43	0	2393899008	5	4071
2026-01-09 02:34:45.52	205.60	58.97	-23.1	-24.1	19.5	3.81e-04	0	43	0	2399141888	6	4057
2026-01-09 02:34:46.52	205.54	58.57	-23.3	-24.5	19.3	7.20e-05	0	43	0	2404384768	6	4159
2026-01-09 02:34:47.53	205.47	58.17	-23.0	-24.0	19.6	3.26e-04	0	43	0	2410676224	6	4011
2026-01-09 02:34:48.54	205.40	57.77	-23.1	-24.1	19.6	0.00e+00	0	43	0	2415919104	6	4040
2026-01-09 02:34:49.54	205.34	57.38	-23.4	-24.8	19.2	4.46e-05	0	43	0	2422210560	6	4223
2026-01-09 02:34:50.56	205.28	56.98	-23.9	-25.4	18.6	2.80e-04	0	43	0	2427453440	7	4252
2026-01-09 02:34:51.56	205.22	56.59	-24.2	-25.4	18.4	4.03e-04	0	43	0	2432696320	8	4143
2026-01-09 02:34:52.57	205.16	56.21	-23.9	-24.9	18.6	8.69e-05	0	43	0	2438987776	8	4009
2026-01-09 02:34:53.57	205.11	55.82	-24.0	-25.0	18.6	0.00e+00	0	43	0	2444230656	8	4043
2026-01-09 02:34:54.58	205.05	55.44	-24.3	-25.6	18.3	4.34e-04	0	43	0	2450522112	8	4194
2026-01-09 02:34:55.58	205.00	55.06	-24.6	-25.9	17.9	0.00e+00	0	43	0	2455764992	9	4168
2026-01-09 02:34:56.59	204.95	54.69	-24.6	-25.9	17.8	4.78e-04	0	43	0	2462056448	9	4165
2026-01-09 02:34:57.60	204.90	54.31	-24.4	-25.4	18.1	0.00e+00	0	43	0	2467299328	9	4040
2026-01-09 02:34:58.61	204.85	53.94	-24.6	-25.7	17.9	0.00e+00	0	43	0	2472542208	9	4106
2026-01-09 02:34:59.62	204.80	53.57	-24.4	-25.3	18.2	7.14e-04	0	43	0	2478833664	9	4011
2026-01-09 02:35:00.63	204.76	53.20	-24.0	-25.0	18.6	0.00e+00	0	43	0	2484076544	8	4046
2026-01-09 02:35:01.64	204.71	52.84	-23.8	-24.6	18.8	1.14e-05	0	43	0	2490368000	8	3961
2026-01-09 02:35:02.64	204.67	52.48	-23.5	-24.5	19.0	0.00e+00	0	43	0	2495610880	7	4041
2026-01-09 02:35:03.64	204.63	52.13	-23.3	-24.0	19.3	7.75e-04	0	43	0	2500853760	7	3929
2026-01-09 02:35:04.65	204.59	51.77	-23.0	-23.5	19.5	0.00e+00	0	43	0	2507145216	7	3810
2026-01-09 02:35:05.66	204.55	51.41	-23.0	-24.0	19.6	0.00e+00	0	43	0	2512388096	6	4019
2026-01-09 02:35:06.66	204.51	51.07	-22.8	-23.4	19.8	0.00e+00	0	43	0	2517630976	6	3879
2026-01-09 02:35:07.67	204.47	50.72	-22.7	-23.2	19.9	0.00e+00	0	43	0	2523922432	6	3834
2026-01-09 02:35:08.67	204.43	50.38	-22.7	-23.3	19.9	0.00e+00	0	43	0	2529165312	6	3853
2026-01-09 02:35:09.67	204.40	50.04	-22.7	-23.8	19.9	0.00e+00	0	43	0	2535456768	5	4100
2026-01-09 02:35:10.68	204.36	49.69	-22.8	-24.1	19.7	0.00e+00	0	43	0	2540699648	5	4153
2026-01-09 02:35:11.69	204.33	49.36	-22.8	-24.0	19.8	0.00e+00	0	43	0	2546991104	5	4146
2026-01-09 02:35:12.70	204.29	49.02	-22.8	-24.1	19.8	0.00e+00	0	43	0	2552233984	5	4152
2026-01-09 02:35:13.71	204.26	48.69	-23.1	-24.1	19.5	0.00e+00	0	43	0	2557476864	6	4057
2026-01-09 02:35:14.72	204.23	48.36	-23.0	-23.9	19.6	0.00e+00	0	43	0	2563768320	6	3999
2026-01-09 02:35:15.73	204.20	48.03	-23.0	-23.8	19.6	0.00e+00	0	43	0	2569011200	6	3981
2026-01-09 02:35:16.73	204.17	47.70	-23.1	-24.1	19.5	0.00e+00	0	43	0	2575302656	6	4053
2026-01-09 02:35:17.74	204.14	47.38	-23.2	-24.3	19.4	0.00e+00	0	43	0	2580545536	6	4097
2026-01-09 02:35:18.74	204.11	47.06	-23.2	-24.4	19.3	0.00e+00	0	43	0	2585788416	6	4138
2026-01-09 02:35:19.75	204.08	46.74	-23.0	-23.9	19.6	0.00e+00	0	43	0	2592079872	6	4002
2026-01-09 02:35:20.76	204.05	46.43	-22.8	-23.6	19.7	0.00e+00	0	43	0	2597322752	6	3929
2026-01-09 02:35:21.76	204.02	46.12	-22.8	-23.6	19.8	0.00e+00	0	43	0	2602565632	6	3926
2026-01-09 02:35:22.77	204.00	45.80	-22.8	-23.5	19.8	0.00e+00	0	43	0	2608857088	6	3911
2026-01-09 02:35:23.77	203.97	45.50	-22.8	-23.4	19.8	0.00e+00	0	43	0	2614099968	6	3892
2026-01-09 02:35:24.78	203.95	45.19	-22.9	-23.7	19.7	0.00e+00	0	43	0	2620391424	6	3951
2026-01-09 02:35:25.79	203.92	44.89	-22.8	-23.6	19.7	0.00e+00	0	43	0	2625634304	6	3927
2026-01-09 02:35:26.79	203.90	44.59	-22.8	-23.6	19.7	0.00e+00	0	43	0	2631925760	6	3922
2026-01-09 02:35:27.81	203.87	44.28	-22.6	-23.2	20.0	0.00e+00	0	43	0	2637168640	6	3825
2026-01-09 02:35:28.82	203.85	43.99	-22.6	-23.0	20.0	0.00e+00	0	43	0	2642411520	6	3787
2026-01-09 02:35:29.82	203.82	43.69	-22.7	-23.2	19.9	0.00e+00	0	43	0	2648702976	6	3834
2026-01-09 02:35:30.83	203.80	43.40	-22.6	-23.7	19.9	0.00e+00	0	43	0	2653945856	5	4049
2026-01-09 02:35:31.83	203.78	43.11	-22.9	-24.3	19.6	0.00e+00	0	43	0	2660237312	5	4220
2026-01-09 02:35:32.84	203.76	42.82	-23.0	-24.1	19.5	1.10e-06	0	43	0	2665480192	6	4043
2026-01-09 02:35:33.85	203.74	42.54	-23.2	-24.3	19.4	0.00e+00	0	43	0	2670723072	6	4108
2026-01-09 02:35:34.84	203.72	42.26	-23.1	-24.2	19.4	0.00e+00	0	43	0	2677014528	6	4077
2026-01-09 02:35:35.85	203.70	41.98	-23.0	-24.0	19.5	0.00e+00	0	43	0	2682257408	6	4019
2026-01-09 02:35:36.86	203.68	41.70	-22.9	-23.8	19.6	0.00e+00	0	43	0	2687500288	6	3979
2026-01-09 02:35:37.86	203.66	41.42	-23.1	-24.1	19.5	0.00e+00	0	43	0	2693791744	6	4038
2026-01-09 02:35:38.87	203.64	41.14	-22.9	-23.7	19.6	1.10e-06	0	43	0	2699034624	6	3962
2026-01-09 02:35:39.87	203.62	40.87	-23.1	-24.1	19.4	0.00e+00	0	43	0	2705326080	6	4055
2026-01-09 02:35:40.88	203.60	40.60	-22.9	-23.6	19.7	0.00e+00	0	43	0	2710568960	6	3943
2026-01-09 02:35:41.88	203.58	40.33	-22.6	-23.1	20.0	1.62e-04	0	43	0	2716860416	6	3817
2026-01-09 02:35:42.89	203.57	40.07	-22.5	-23.4	20.0	0.00e+00	0	43	0	2722103296	5	3992
2026-01-09 02:35:43.89	203.55	39.80	-22.5	-23.4	20.1	0.00e+00	0	43	0	2727346176	5	3979
2026-01-09 02:35:44.90	203.53	39.54	-22.6	-23.7	19.9	4.50e-06	0	43	0	2733637632	5	4060
2026-01-09 02:35:45.91	203.51	39.28	-22.8	-24.1	19.7	0.00e+00	0	43	0	2738880512	5	4154
2026-01-09 02:35:46.91	203.50	39.02	-22.8	-24.0	17.2	0.00e+00	0	43	0	2744123392	5	4136
2026-01-09 02:35:47.92	203.48	38.76	-22.7	-23.8	17.4	5.70e-06	0	43	0	2750414848	5	4083
2026-01-09 02:35:48.93	203.47	38.51	-22.6	-23.6	19.9	1.34e-04	0	43	0	2755657728	5	4045
2026-01-09 02:35:49.94	203.45	38.25	-22.5	-23.4	20.0	0.00e+00	0	43	0	2761949184	5	4002
2026-01-09 02:35:50.94	203.44	38.00	-22.5	-23.4	20.0	3.68e-04	0	43	0	2767192064	5	3994
2026-01-09 02:35:51.95	203.42	37.75	-22.7	-23.8	19.8	0.00e+00	0	43	0	2772434944	5	4087
2026-01-09 02:35:52.95	203.41	37.51	-22.6	-23.5	19.9	2.60e-04	0	43	0	2778726400	5	4017
2026-01-09 02:35:53.95	203.39	37.26	-22.9	-24.2	19.6	4.46e-05	0	43	0	2783969280	5	4178
2026-01-09 02:35:54.96	203.38	37.02	-22.6	-23.5	19.9	0.00e+00	0	43	0	2790260736	5	4021
2026-01-09 02:35:55.96	203.36	36.78	-22.4	-23.2	20.1	0.00e+00	0	43	0	2795503616	5	3952
2026-01-09 02:35:56.95	203.35	36.54	-22.5	-23.4	20.0	1.10e-06	0	43	0	2800746496	5	3988
2026-01-09 02:35:57.96	203.34	36.30	-22.7	-23.8	19.8	1.83e-05	0	43	0	2807037952	5	4088
2026-01-09 02:35:58.97	203.32	36.06	-22.7	-23.8	19.8	0.00e+00	0	43	0	2812280832	5	4102
2026-01-09 02:35:59.97	203.31	35.83	-22.8	-24.0	19.7	6.01e-04	0	43	0	2817523712	5	4151
2026-01-09 02:36:00.97	203.30	35.60	-23.1	-24.1	19.4	6.80e-06	0	43	0	2823815168	6	4046
2026-01-09 02:36:01.98	203.29	35.36	-22.9	-23.7	19.6	6.19e-04	0	43	0	2829058048	6	3948
2026-01-09 02:36:02.97	203.27	35.14	-22.6	-23.6	19.9	6.49e-04	0	43	0	2834300928	5	4033
2026-01-09 02:36:03.98	203.26	34.91	-22.3	-23.0	20.1	0.00e+00	0	43	0	2840592384	5	3909
2026-01-09 02:36:04.98	203.25	34.68	-22.2	-22.8	20.3	6.37e-04	0	43	0	2845835264	5	3847
2026-01-09 02:36:05.99	203.24	34.46	-22.2	-22.8	20.3	0.00e+00	0	43	0	2852126720	5	3853
2026-01-09 02:36:06.99	203.23	34.23	-22.2	-22.8	20.3	0.00e+00	0	43	0	2857369600	5	3840
2026-01-09 02:36:07.99	203.22	34.01	-22.5	-23.3	20.0	0.00e+00	0	43	0	2863661056	5	3965
2026-01-09 02:36:08.99	203.21	33.79	-22.2	-22.8	20.2	5.49e-04	0	43	0	2868903936	5	3860
2026-01-09 02:36:10.01	203.19	33.57	-22.3	-23.0	20.2	0.00e+00	0	43	0	2874146816	5	3887
2026-01-09 02:36:11.01	203.18	33.36	-22.5	-23.3	20.0	5.65e-04	0	43	0	2880438272	5	3976
2026-01-09 02:36:12.02	203.17	33.14	-22.6	-23.6	19.9	5.55e-04	0	43	0	2885681152	5	4031
2026-01-09 02:36:13.03	203.16	32.93	-22.8	-24.0	19.6	0.00e+00	0	43	0	2891972608	5	4147
2026-01-09 02:36:14.04	203.15	32.71	-23.0	-24.4	19.5	3.57e-04	0	43	0	2897215488	5	4246
2026-01-09 02:36:15.05	203.14	32.50	-22.9	-24.3	19.5	3.23e-04	0	43	0	2902458368	5	4217
2026-01-09 02:36:16.05	203.13	32.29	-23.1	-24.1	19.4	1.10e-06	0	43	0	2908749824	6	4061
2026-01-09 02:36:17.05	203.12	32.08	-23.3	-24.5	19.1	1.98e-04	0	43	0	2913992704	6	4158
2026-01-09 02:36:18.05	203.12	31.88	-23.2	-24.3	19.2	1.33e-04	0	43	0	2919235584	6	4103
2026-01-09 02:36:19.06	203.11	31.67	-23.1	-24.1	19.4	1.82e-04	0	43	0	2925527040	6	4049
2026-01-09 02:36:20.06	203.10	31.47	-23.1	-24.1	19.3	0.00e+00	0	43	0	2930769920	6	4056
2026-01-09 02:36:21.07	203.09	31.27	-23.1	-24.1	19.3	1.97e-04	0	43	0	2937061376	6	4061
2026-01-09 02:36:22.08	203.08	31.06	-23.3	-24.5	19.1	0.00e+00	0	43	0	2942304256	6	4156
2026-01-09 02:36:23.08	203.07	30.87	-23.1	-24.1	19.3	8.81e-05	0	43	0	2948595712	6	4057
2026-01-09 02:36:24.08	203.06	30.67	-23.0	-24.0	19.4	0.00e+00	0	43	0	2953838592	6	4019
2026-01-09 02:36:25.09	203.05	30.47	-23.1	-24.1	19.4	0.00e+00	0	43	0	2959081472	6	4040
2026-01-09 02:36:26.10	203.05	30.27	-23.0	-24.0	19.4	2.49e-04	0	43	0	2965372928	6	4016
2026-01-09 02:36:27.10	203.04	30.08	-23.1	-24.1	19.4	0.00e+00	0	43	0	2970615808	6	4042
2026-01-09 02:36:28.10	203.03	29.89	-23.3	-24.6	19.1	0.00e+00	0	43	0	2975858688	6	4176
2026-01-09 02:36:29.11	203.02	29.70	-23.3	-24.6	19.1	0.00e+00	0	43	0	2982150144	6	4175
2026-01-09 02:36:30.11	203.01	29.51	-23.2	-24.5	19.1	7.63e-04	0	43	0	2987393024	6	4146
2026-01-09 02:36:31.12	203.01	29.32	-23.4	-24.7	19.0	0.00e+00	0	43	0	2992635904	6	4214
2026-01-09 02:36:32.13	203.00	29.13	-23.3	-24.6	19.0	0.00e+00	0	43	0	2998927360	6	4194
2026-01-09 02:36:33.13	202.99	28.94	-23.3	-24.7	19.0	0.00e+00	0	43	0	3004170240	6	4198
2026-01-09 02:36:34.14	202.98	28.76	-23.3	-24.6	19.0	0.00e+00	0	43	0	3010461696	6	4183
2026-01-09 02:36:35.14	202.98	28.57	-23.1	-24.2	19.3	9.15e-04	0	43	0	3015704576	6	4073
2026-01-09 02:36:36.15	202.97	28.39	-23.0	-24.0	19.3	0.00e+00	0	43	0	3021996032	6	4028
2026-01-09 02:36:37.15	202.96	28.21	-23.0	-24.0	19.4	0.00e+00	0	43	0	3027238912	6	4042
2026-01-09 02:36:38.16	202.96	28.03	-22.9	-23.8	19.5	0.00e+00	0	43	0	3032481792	6	3980
2026-01-09 02:36:39.16	202.95	27.85	-22.9	-23.8	19.4	0.00e+00	0	43	0	3038773248	6	3989
2026-01-09 02:36:40.17	202.94	27.67	-23.1	-24.2	19.2	0.00e+00	0	43	0	3044016128	6	4086
2026-01-09 02:36:41.18	202.94	27.49	-23.0	-24.0	19.3	0.00e+00	0	43	0	3050307584	6	4037
2026-01-09 02:36:42.18	202.93	27.32	-23.0	-24.0	19.3	0.00e+00	0	43	0	3055550464	6	4026
2026-01-09 02:36:43.19	202.93	27.14	-23.1	-24.1	19.3	0.00e+00	0	43	0	3060793344	6	4047
2026-01-09 02:36:44.20	202.92	26.97	-23.0	-24.0	19.3	5.70e-06	0	43	0	3067084800	6	4031
2026-01-09 02:36:45.21	202.91	26.79	-23.1	-24.1	19.3	0.00e+00	0	43	0	3072327680	6	4057
2026-01-09 02:36:46.21	202.91	26.62	-23.3	-24.6	19.0	0.00e+00	0	43	0	3077570560	6	4174
2026-01-09 02:36:47.21	202.90	26.45	-23.1	-24.2	19.2	0.00e+00	0	43	0	3083862016	6	4090
2026-01-09 02:36:48.21	202.90	26.28	-23.1	-24.1	19.3	0.00e+00	0	43	0	3089104896	6	4055
2026-01-09 02:36:49.21	202.89	26.12	-23.2	-24.3	19.2	0.00e+00	0	43	0	3095396352	6	4108
2026-01-09 02:36:50.22	202.89	25.95	-23.3	-24.5	19.0	0.00e+00	0	43	0	3100639232	6	4158
2026-01-09 02:36:51.22	202.88	25.78	-23.3	-24.6	19.0	0.00e+00	0	43	0	3105882112	6	4183
2026-01-09 02:36:52.23	202.87	25.62	-23.5	-24.5	18.8	0.00e+00	0	43	0	3112173568	7	4059
2026-01-09 02:36:53.23	202.87	25.45	-23.4	-24.4	18.8	1.10e-06	0	43	0	3117416448	7	4023
2026-01-09 02:36:54.23	202.86	25.29	-23.7	-24.9	18.5	0.00e+00	0	43	0	3123707904	7	4157
2026-01-09 02:36:55.24	202.86	25.13	-23.5	-24.4	18.8	0.00e+00	0	43	0	3128950784	7	4030
2026-01-09 02:36:56.24	202.85	24.97	-23.3	-24.1	19.0	0.00e+00	0	43	0	3134193664	7	3960
2026-01-09 02:36:57.25	202.85	24.81	-23.2	-24.4	19.0	0.00e+00	0	43	0	3140485120	6	4147
2026-01-09 02:36:58.26	202.84	24.65	-23.3	-24.7	18.9	0.00e+00	0	43	0	3145728000	6	4212
2026-01-09 02:36:59.26	202.84	24.49	-23.2	-24.5	19.0	4.50e-06	0	43	0	3150970880	6	4148
2026-01-09 02:37:00.27	202.84	24.33	-23.2	-24.5	19.0	0.00e+00	0	43	0	3157262336	6	4153
2026-01-09 02:37:01.28	202.83	24.17	-23.3	-24.6	18.9	0.00e+00	0	43	0	3162505216	6	4177
2026-01-09 02:37:02.28	202.83	24.02	-23.2	-24.5	19.0	1.10e-06	0	43	0	3168796672	6	4160
2026-01-09 02:37:03.29	202.82	23.86	-23.3	-24.6	18.9	0.00e+00	0	43	0	3174039552	6	4190
2026-01-09 02:37:04.30	202.82	23.71	-23.3	-24.6	18.9	0.00e+00	0	43	0	3180331008	6	4174
2026-01-09 02:37:05.30	202.81	23.56	-23.4	-24.9	18.7	1.10e-06	0	43	0	3185573888	6	4278
2026-01-09 02:37:06.30	202.81	23.41	-23.6	-24.7	17.0	0.00e+00	0	43	0	3190816768	7	4089
2026-01-09 02:37:07.31	202.81	23.26	-23.8	-25.2	18.3	0.00e+00	0	43	0	3197108224	7	4225
2026-01-09 02:37:08.31	202.80	23.11	-23.6	-24.6	18.2	8.00e-06	0	43	0	3202351104	7	4073
2026-01-09 02:37:09.31	202.80	22.96	-23.5	-24.5	18.7	0.00e+00	0	43	0	3207593984	7	4041
2026-01-09 02:37:10.32	202.79	22.81	-23.5	-24.4	18.7	0.00e+00	0	43	0	3213885440	7	4026
2026-01-09 02:37:11.34	202.79	22.66	-23.5	-24.6	18.6	3.02e-04	0	43	0	3219128320	7	4066
2026-01-09 02:37:12.34	202.79	22.51	-23.7	-24.9	18.5	0.00e+00	0	43	0	3225419776	7	4136
2026-01-09 02:37:13.35	202.78	22.37	-23.5	-24.5	18.7	0.00e+00	0	43	0	3230662656	7	4032
2026-01-09 02:37:14.36	202.78	22.22	-23.4	-24.4	18.8	2.20e-06	0	43	0	3235905536	7	4012
2026-01-09 02:37:15.36	202.77	22.08	-23.5	-24.4	18.7	2.93e-04	0	43	0	3242196992	7	4024
2026-01-09 02:37:16.37	202.77	21.93	-23.5	-24.5	18.7	0.00e+00	0	43	0	3247439872	7	4038
2026-01-09 02:37:17.37	202.77	21.79	-23.5	-24.5	18.6	3.40e-06	0	43	0	3253731328	7	4016
2026-01-09 02:37:18.38	202.76	21.65	-23.6	-24.7	18.6	2.71e-04	0	43	0	3258974208	7	4095
2026-01-09 02:37:19.39	202.76	21.51	-23.7	-24.8	18.5	0.00e+00	0	43	0	3265265664	7	4119
2026-01-09 02:37:20.38	202.76	21.37	-23.6	-24.8	18.5	2.83e-04	0	43	0	3270508544	7	4122
2026-01-09 02:37:21.39	202.75	21.23	-23.7	-24.9	18.5	0.00e+00	0	43	0	3275751424	7	4138
2026-01-09 02:37:22.39	202.75	21.09	-23.9	-25.3	18.2	7.78e-04	0	43	0	3282042880	7	4243
2026-01-09 02:37:23.39	202.75	20.95	-23.8	-25.1	18.3	2.29e-04	0	43	0	3287285760	7	4199
2026-01-09 02:37:24.40	202.74	20.82	-23.8	-25.2	18.3	2.35e-04	0	43	0	3292528640	7	4231
2026-01-09 02:37:25.41	202.74	20.68	-23.9	-25.3	18.2	0.00e+00	0	43	0	3298820096	7	4252
2026-01-09 02:37:26.41	202.74	20.54	-23.9	-25.3	18.2	0.00e+00	0	43	0	3304062976	7	4257
2026-01-09 02:37:27.42	202.74	20.41	-23.9	-25.4	18.1	2.06e-04	0	43	0	3309305856	7	4283
2026-01-09 02:37:28.43	202.73	20.27	-24.0	-25.5	18.1	0.00e+00	0	43	0	3315597312	7	4297
2026-01-09 02:37:29.44	202.73	20.14	-24.2	-25.4	17.9	9.96e-04	0	43	0	3320840192	8	4167
2026-01-09 02:37:30.44	202.73	20.01	-24.2	-25.6	17.8	2.15e-04	0	43	0	3327131648	8	4209
2026-01-09 02:37:31.45	202.72	19.88	-24.1	-25.4	17.9	7.77e-04	0	43	0	3332374528	8	4152
2026-01-09 02:37:32.45	202.72	19.75	-24.2	-25.5	17.8	2.02e-04	0	43	0	3338665984	8	4196
2026-01-09 02:37:33.46	202.72	19.61	-24.3	-25.6	17.8	0.00e+00	0	43	0	3343908864	8	4218
2026-01-09 02:37:34.47	202.72	19.48	-24.3	-25.7	17.7	8.51e-04	0	43	0	3349151744	8	4240
2026-01-09 02:37:35.48	202.71	19.35	-24.3	-25.7	17.7	7.88e-04	0	43	0	3355443200	8	4238
2026-01-09 02:37:36.48	202.71	19.23	-24.4	-26.0	17.6	2.31e-04	0	43	0	3360686080	8	4307
2026-01-09 02:37:37.49	202.71	19.10	-24.6	-26.0	17.3	7.95e-04	0	43	0	3366977536	9	4189
2026-01-09 02:37:38.49	202.71	18.97	-24.7	-26.0	17.3	9.44e-04	0	43	0	3372220416	9	4206
2026-01-09 02:37:39.49	202.71	18.84	-24.5	-25.6	17.5	2.14e-04	0	43	0	3377463296	9	4096
2026-01-09 02:37:40.50	202.70	18.72	-24.4	-25.5	17.6	7.93e-04	0	43	0	3383754752	9	4066
2026-01-09 02:37:41.51	202.70	18.59	-24.5	-25.6	17.5	1.04e-03	0	43	0	3388997632	9	4104
2026-01-09 02:37:42.51	202.70	18.47	-24.5	-25.7	17.5	1.60e-05	0	43	0	3394240512	9	4126
2026-01-09 02:37:43.52	202.70	18.34	-24.5	-25.6	17.5	8.03e-04	0	43	0	3400531968	9	4109
2026-01-09 02:37:44.52	202.69	18.22	-24.5	-25.7	17.4	8.49e-04	0	43	0	3405774848	9	4133
2026-01-09 02:37:45.53	202.69	18.10	-24.6	-25.8	17.4	6.29e-05	0	43	0	3412066304	9	4160
2026-01-09 02:37:46.54	202.69	17.97	-24.5	-25.7	17.4	0.00e+00	0	43	0	3417309184	9	4136
2026-01-09 02:37:47.54	202.69	17.85	-24.5	-25.6	17.5	7.72e-04	0	43	0	3423600640	9	4097
2026-01-09 02:37:48.55	202.69	17.73	-24.5	-25.7	17.4	1.13e-04	0	43	0	3428843520	9	4110
2026-01-09 02:37:49.56	202.68	17.61	-24.5	-25.7	17.4	8.37e-04	0	43	0	3434086400	9	4117
2026-01-09 02:37:50.57	202.68	17.49	-24.6	-25.8	17.4	9.22e-04	0	43	0	3440377856	9	4144
2026-01-09 02:37:51.58	202.68	17.37	-24.6	-25.9	17.3	0.00e+00	0	43	0	3445620736	9	4175
2026-01-09 02:37:52.58	202.68	17.25	-24.7	-26.0	17.3	9.21e-04	0	43	0	3451912192	9	4188
2026-01-09 02:37:53.58	202.68	17.13	-24.7	-26.0	17.2	0.00e+00	0	43	0	3457155072	9	4202
2026-01-09 02:37:54.57	202.68	17.02	-24.7	-26.0	17.3	0.00e+00	0	43	0	3462397952	9	4193
2026-01-09 02:37:55.58	202.67	16.90	-24.7	-26.1	17.1	0.00e+00	0	43	0	3468689408	9	4221
2026-01-09 02:37:56.58	202.67	16.79	-24.7	-26.1	17.2	9.10e-06	0	43	0	3473932288	9	4226
2026-01-09 02:37:57.59	202.67	16.67	-24.7	-26.1	17.1	0.00e+00	0	43	0	3479175168	9	4237
2026-01-09 02:37:58.59	202.67	16.55	-24.8	-26.2	17.1	0.00e+00	0	43	0	3485466624	9	4260
2026-01-09 02:37:59.60	202.67	16.44	-24.8	-26.3	17.1	9.03e-04	0	43	0	3490709504	9	4262
2026-01-09 02:38:00.61	202.67	16.32	-24.9	-26.4	17.0	0.00e+00	0	43	0	3497000960	9	4316
2026-01-09 02:38:01.62	202.66	16.21	-24.9	-26.5	16.9	8.51e-04	0	43	0	3502243840	9	4324
2026-01-09 02:38:02.63	202.66	16.10	-24.9	-26.5	16.9	0.00e+00	0	43	0	3508535296	9	4344
2026-01-09 02:38:03.64	202.66	15.98	-24.9	-26.5	16.9	0.00e+00	0	43	0	3513778176	9	4338
2026-01-09 02:38:04.64	202.66	15.87	-24.9	-26.6	16.9	1.71e-05	0	43	0	3519021056	9	4351
2026-01-09 02:38:05.65	202.66	15.76	-25.0	-26.6	16.9	0.00e+00	0	43	0	3525312512	9	4368
2026-01-09 02:38:06.65	202.66	15.65	-25.0	-26.3	16.8	0.00e+00	0	43	0	3530555392	10	4171
2026-01-09 02:38:07.66	202.66	15.54	-25.3	-26.8	16.5	0.00e+00	0	43	0	3535798272	10	4301
2026-01-09 02:38:08.67	202.66	15.43	-25.3	-26.8	16.5	0.00e+00	0	43	0	3542089728	10	4305
2026-01-09 02:38:09.67	202.65	15.32	-25.2	-26.6	16.6	0.00e+00	0	43	0	3547332608	10	4250
2026-01-09 02:38:10.68	202.65	15.21	-25.2	-26.7	16.6	2.20e-06	0	43	0	3553624064	10	4264
2026-01-09 02:38:11.69	202.65	15.10	-25.3	-26.9	16.4	0.00e+00	0	43	0	3558866944	10	4315
2026-01-09 02:38:12.70	202.65	14.99	-25.4	-27.0	16.3	0.00e+00	0	43	0	3564109824	10	4363
2026-01-09 02:38:13.71	202.65	14.88	-25.4	-27.1	16.3	8.00e-06	0	43	0	3570401280	10	4367
2026-01-09 02:38:14.72	202.65	14.78	-25.3	-26.9	16.4	0.00e+00	0	43	0	3575644160	10	4323
2026-01-09 02:38:15.72	202.65	14.67	-25.2	-26.7	16.5	0.00e+00	0	43	0	3581935616	10	4267
2026-01-09 02:38:16.73	202.65	14.56	-25.2	-26.7	16.5	1.02e-05	0	43	0	3587178496	10	4278
2026-01-09 02:38:17.73	202.65	14.46	-25.2	-26.8	16.5	0.00e+00	0	43	0	3593469952	10	4287
2026-01-09 02:38:18.74	202.64	14.35	-25.3	-27.0	16.4	0.00e+00	0	43	0	3598712832	10	4346
2026-01-09 02:38:19.74	202.64	14.25	-25.3	-26.9	16.4	0.00e+00	0	43	0	3603955712	10	4324
2026-01-09 02:38:20.75	202.64	14.14	-25.3	-26.9	16.4	0.00e+00	0	43	0	3610247168	10	4315
2026-01-09 02:38:21.75	202.64	14.04	-25.4	-27.1	16.3	0.00e+00	0	43	0	3615490048	10	4378
2026-01-09 02:38:22.76	202.64	13.93	-25.3	-27.0	16.3	8.00e-06	0	43	0	3620732928	10	4348
2026-01-09 02:38:23.76	202.64	13.83	-25.3	-27.0	16.3	0.00e+00	0	43	0	3627024384	10	4344
2026-01-09 02:38:24.76	202.64	13.73	-25.3	-27.0	16.3	0.00e+00	0	43	0	3632267264	10	4349
2026-01-09 02:38:25.77	202.64	13.63	-25.4	-27.1	16.2	1.14e-05	0	43	0	3637510144	10	4375
2026-01-09 02:38:26.78	202.64	13.53	-25.4	-27.0	16.3	0.00e+00	0	43	0	3643801600	10	4367
2026-01-09 02:38:27.79	202.64	13.42	-25.4	-27.2	16.2	0.00e+00	0	43	0	3649044480	10	4418
2026-01-09 02:38:28.80	202.64	13.32	-25.5	-27.3	16.1	0.00e+00	0	43	0	3655335936	10	4424
2026-01-09 02:38:29.81	202.64	13.22	-25.5	-26.8	16.1	0.00e+00	0	43	0	3660578816	11	4186
2026-01-09 02:38:30.82	202.64	13.12	-25.6	-27.0	16.0	0.00e+00	0	43	0	3666870272	11	4248
2026-01-09 02:38:31.83	202.64	13.02	-25.6	-27.0	16.0	0.00e+00	0	43	0	3672113152	11	4243
2026-01-09 02:38:32.83	202.63	12.92	-25.6	-27.0	16.0	1.37e-05	0	43	0	3678404608	11	4227
2026-01-09 02:38:33.84	202.63	12.82	-25.5	-26.9	16.0	0.00e+00	0	43	0	3683647488	11	4201
2026-01-09 02:38:34.85	202.63	12.72	-25.8	-27.4	15.8	0.00e+00	0	43	0	3688890368	11	4357
2026-01-09 02:38:35.85	202.63	12.63	-25.7	-27.3	15.8	2.63e-05	0	43	0	3695181824	11	4328
2026-01-09 02:38:36.86	202.63	12.53	-25.7	-27.3	15.8	0.00e+00	0	43	0	3700424704	11	4315
2026-01-09 02:38:37.87	202.63	12.43	-25.7	-27.2	15.8	3.20e-05	0	43	0	3705667584	11	4303
2026-01-09 02:38:38.88	202.63	12.33	-25.7	-27.2	15.8	3.66e-05	0	43	0	3711959040	11	4301
2026-01-09 02:38:39.88	202.63	12.24	-25.6	-27.2	15.8	0.00e+00	0	43	0	3717201920	11	4286
2026-01-09 02:38:40.89	202.63	12.14	-25.7	-27.3	15.8	2.86e-05	0	43	0	3723493376	11	4325
2026-01-09 02:38:41.90	202.63	12.04	-25.7	-27.2	15.7	1.09e-03	0	43	0	3728736256	11	4309
2026-01-09 02:38:42.91	202.63	11.95	-25.8	-27.6	15.5	0.00e+00	0	43	0	3733979136	11	4412
2026-01-09 02:38:43.91	202.63	11.85	-25.8	-27.5	15.6	1.11e-03	0	43	0	3740270592	11	4369
2026-01-09 02:38:44.92	202.63	11.76	-25.7	-27.4	15.7	1.71e-05	0	43	0	3745513472	11	4346
2026-01-09 02:38:45.93	202.63	11.66	-25.8	-27.4	15.6	9.84e-05	0	43	0	3751804928	11	4366
2026-01-09 02:38:46.94	202.63	11.57	-25.7	-27.4	15.6	1.25e-03	0	43	0	3757047808	11	4352
2026-01-09 02:38:47.94	202.63	11.48	-25.8	-27.5	15.6	6.80e-06	0	43	0	3763339264	11	4376
2026-01-09 02:38:48.95	202.63	11.38	-25.8	-27.5	15.5	5.95e-05	0	43	0	3768582144	11	4391
2026-01-09 02:38:49.95	202.63	11.29	-25.9	-27.7	15.5	0.00e+00	0	43	0	3773825024	11	4429
2026-01-09 02:38:50.95	202.63	11.20	-25.9	-27.7	15.5	1.09e-03	0	43	0	3780116480	11	4442
2026-01-09 02:38:51.96	202.63	11.11	-26.0	-27.9	15.3	0.00e+00	0	43	0	3785359360	11	4503
2026-01-09 02:38:52.96	202.63	11.01	-25.9	-27.8	15.4	1.13e-03	0	43	0	3790602240	11	4470
2026-01-09 02:38:53.97	202.63	10.92	-25.9	-27.8	15.4	1.24e-03	0	43	0	3796893696	11	4460
2026-01-09 02:38:54.98	202.63	10.83	-25.9	-27.8	15.3	3.20e-05	0	43	0	3802136576	11	4481
2026-01-09 02:38:55.99	202.63	10.74	-26.0	-27.6	15.1	1.26e-03	0	43	0	3808428032	12	4294
2026-01-09 02:38:56.99	202.63	10.65	-26.3	-28.2	14.8	1.14e-05	0	43	0	3813670912	12	4459
2026-01-09 02:38:58.00	202.63	10.56	-26.1	-27.8	15.0	7.20e-05	0	43	0	3818913792	12	4364
2026-01-09 02:38:59.01	202.63	10.47	-26.0	-27.5	15.2	1.09e-03	0	43	0	3825205248	12	4277
2026-01-09 02:39:00.01	202.63	10.38	-26.0	-27.5	15.2	9.96e-04	0	43	0	3830448128	12	4285
2026-01-09 02:39:01.01	202.63	10.29	-26.0	-27.6	15.2	4.80e-05	0	43	0	3836739584	12	4300
2026-01-09 02:39:02.02	202.63	10.20	-26.0	-27.6	15.1	1.00e-03	0	43	0	3841982464	12	4299
2026-01-09 02:39:03.03	202.63	10.11	-26.0	-27.5	15.2	9.86e-04	0	43	0	3848273920	12	4274
2026-01-09 02:39:04.03	202.63	10.03	-26.1	-27.7	15.1	0.00e+00	0	43	0	3853516800	12	4331
2026-01-09 02:39:05.03	202.63	9.94	-26.1	-27.7	15.1	1.10e-03	0	43	0	3858759680	12	4344
2026-01-09 02:39:06.03	202.63	9.85	-26.1	-27.7	15.1	1.10e-06	0	43	0	3865051136	12	4333
2026-01-09 02:39:07.03	202.63	9.76	-26.1	-27.7	15.1	1.32e-04	0	43	0	3870294016	12	4336
2026-01-09 02:39:08.04	202.63	9.68	-26.1	-27.8	15.0	1.10e-03	0	43	0	3875536896	12	4363
2026-01-09 02:39:09.04	202.63	9.59	-26.2	-27.9	14.9	9.75e-04	0	43	0	3881828352	12	4392
