passes_logs/2026/01/09/R2M6_AANII_01/R2M6_AANII_01__20260109_030820_SUOMI_NPP_rec.log

#Pass ID: 20260109_030820_SUOMI NPP
#Satellite: SUOMI NPP
#Configuration: NPP
#almurnet v.1.7.20240730
#Start time: 2026-01-09 03:08:20

#Version: 2.2.20231116
#Station: R2M6_AANII_01
#Location: 30.233357 lon 59.946436 lat
#TLE: 1 37849U 11061A   26008.05542337  .00000108  00000+0  71976-4 0  9997
#TLE: 2 37849  98.7805 310.1641 0002540  75.6410 284.5048 14.19523335735721

#Time	Az	El	Level	Level2	SNR	BER	BlckErr	Temp	State	Recorded	gain1	gain2
2026-01-09 03:08:20.63	8.07	7.01	-32.4	-41.4	3.9	1.47e+00	0	40	0	0	24	10142
2026-01-09 03:08:21.63	7.95	7.06	-32.1	-39.3	4.3	1.39e+00	0	40	104	0	24	8221
2026-01-09 03:08:22.64	7.83	7.11	-32.1	-38.9	5.4	5.81e-01	0	40	0	0	24	7889
2026-01-09 03:08:23.64	7.71	7.16	-32.1	-39.1	5.3	5.13e-01	0	40	0	1048576	24	7990
2026-01-09 03:08:24.65	7.59	7.22	-32.1	-39.0	5.4	5.18e-01	0	40	0	3145728	24	7939
2026-01-09 03:08:25.65	7.47	7.27	-32.1	-39.0	5.4	5.57e-01	0	41	0	5242880	24	7918
2026-01-09 03:08:26.65	7.34	7.32	-32.1	-39.1	5.3	5.09e-01	0	40	0	7340032	24	8059
2026-01-09 03:08:27.66	7.22	7.37	-32.2	-39.7	5.0	6.14e-01	0	41	0	9437184	24	8494
2026-01-09 03:08:28.66	7.10	7.42	-32.2	-39.4	5.1	7.17e-01	0	40	0	10485760	24	8276
2026-01-09 03:08:29.67	6.97	7.47	-32.1	-38.5	5.6	5.41e-01	0	41	0	12582912	24	7555
2026-01-09 03:08:30.68	6.85	7.53	-31.9	-37.4	6.4	3.04e-01	0	41	0	14680064	24	6763
2026-01-09 03:08:31.68	6.72	7.58	-31.7	-37.0	7.1	1.68e-01	0	40	0	16777216	23	6568
2026-01-09 03:08:32.69	6.60	7.63	-31.5	-35.9	7.9	1.01e-01	0	41	0	18874368	23	5968
2026-01-09 03:08:33.69	6.47	7.68	-31.3	-35.4	8.7	4.43e-02	0	41	0	19922944	22	5791
2026-01-09 03:08:34.70	6.34	7.73	-31.1	-34.6	9.3	2.29e-02	0	41	0	22020096	22	5425
2026-01-09 03:08:35.71	6.22	7.78	-31.0	-34.3	9.6	1.36e-02	0	41	0	24117248	22	5282
2026-01-09 03:08:36.71	6.09	7.83	-30.9	-34.4	9.8	1.40e-02	0	41	0	26214400	21	5394
2026-01-09 03:08:37.72	5.96	7.89	-30.8	-34.3	9.9	1.12e-02	0	41	0	28311552	21	5366
2026-01-09 03:08:38.72	5.83	7.94	-31.0	-34.3	9.6	1.38e-02	0	41	0	29360128	22	5277
2026-01-09 03:08:39.72	5.71	7.99	-31.0	-34.7	9.7	1.46e-02	0	41	0	31457280	21	5534
2026-01-09 03:08:40.73	5.58	8.04	-30.9	-34.5	9.8	1.04e-02	0	41	0	33554432	21	5448
2026-01-09 03:08:41.73	5.45	8.09	-30.9	-34.6	9.8	1.06e-02	0	41	0	35651584	21	5477
2026-01-09 03:08:42.74	5.32	8.14	-31.0	-34.1	9.8	1.41e-02	0	41	0	37748736	22	5185
2026-01-09 03:08:43.74	5.19	8.19	-30.9	-34.4	9.9	8.57e-03	0	41	0	38797312	21	5385
2026-01-09 03:08:44.74	5.06	8.24	-31.0	-34.3	9.7	1.00e-02	0	41	0	40894464	22	5261
2026-01-09 03:08:45.75	4.92	8.30	-31.1	-34.7	9.4	1.45e-02	0	41	0	42991616	22	5440
2026-01-09 03:08:46.76	4.79	8.35	-31.2	-34.9	9.2	2.38e-02	0	41	0	45088768	22	5502
2026-01-09 03:08:47.76	4.66	8.40	-31.3	-35.4	8.9	2.27e-02	0	41	0	46137344	22	5739
2026-01-09 03:08:48.77	4.53	8.45	-31.2	-35.0	9.1	2.87e-02	0	41	0	48234496	22	5568
2026-01-09 03:08:49.78	4.39	8.50	-31.0	-34.4	9.6	2.01e-02	0	41	0	50331648	22	5286
2026-01-09 03:08:50.79	4.26	8.55	-30.9	-34.0	9.9	9.71e-03	0	41	0	52428800	22	5105
2026-01-09 03:08:51.79	4.12	8.60	-31.0	-34.6	9.8	1.12e-02	0	41	0	54525952	21	5477
2026-01-09 03:08:52.79	3.99	8.65	-30.9	-34.4	10.1	1.08e-02	0	41	0	56623104	21	5382
2026-01-09 03:08:53.80	3.85	8.70	-30.9	-34.5	10.0	6.97e-03	0	41	0	57671680	21	5409
2026-01-09 03:08:54.80	3.72	8.76	-30.9	-34.4	10.0	7.64e-03	0	41	0	59768832	21	5364
2026-01-09 03:08:55.81	3.58	8.81	-30.8	-34.1	10.2	9.02e-03	0	41	0	61865984	21	5257
2026-01-09 03:08:56.82	3.44	8.86	-30.9	-34.5	10.0	6.07e-03	0	41	0	63963136	21	5419
2026-01-09 03:08:57.82	3.31	8.91	-31.0	-34.5	9.9	8.74e-03	0	41	0	65011712	21	5424
2026-01-09 03:08:58.83	3.17	8.96	-30.9	-33.9	10.1	8.98e-03	0	41	0	67108864	22	5073
2026-01-09 03:08:59.84	3.03	9.01	-30.9	-33.8	10.2	6.82e-03	0	41	0	69206016	22	5036
2026-01-09 03:09:00.85	2.89	9.06	-30.9	-34.3	10.1	6.21e-03	0	42	0	71303168	21	5319
2026-01-09 03:09:01.86	2.75	9.11	-30.8	-34.0	10.3	5.73e-03	0	41	0	73400320	21	5203
2026-01-09 03:09:02.86	2.61	9.16	-30.7	-33.8	10.5	4.51e-03	0	41	0	74448896	21	5099
2026-01-09 03:09:03.87	2.47	9.21	-30.8	-33.9	10.4	5.41e-03	0	41	0	76546048	21	5167
2026-01-09 03:09:04.88	2.33	9.26	-30.8	-33.9	10.4	4.76e-03	0	41	0	78643200	21	5159
2026-01-09 03:09:05.88	2.19	9.31	-30.9	-34.3	10.1	4.99e-03	0	42	0	80740352	21	5331
2026-01-09 03:09:06.88	2.05	9.36	-30.9	-33.8	10.2	6.82e-03	0	42	0	82837504	22	5008
2026-01-09 03:09:07.88	1.91	9.41	-30.9	-34.4	10.0	6.51e-03	0	42	0	84934656	21	5389
2026-01-09 03:09:08.89	1.76	9.46	-31.2	-34.9	9.4	9.20e-03	0	42	0	85983232	22	5498
2026-01-09 03:09:09.90	1.62	9.51	-31.2	-34.8	9.4	1.47e-02	0	42	0	88080384	22	5481
2026-01-09 03:09:10.91	1.47	9.56	-31.1	-34.6	9.5	1.53e-02	0	42	0	90177536	22	5379
2026-01-09 03:09:11.92	1.33	9.61	-31.1	-34.5	9.7	1.35e-02	0	42	0	92274688	22	5312
2026-01-09 03:09:12.92	1.18	9.66	-31.1	-34.5	9.7	1.20e-02	0	42	0	93323264	22	5316
2026-01-09 03:09:13.92	1.04	9.71	-31.1	-34.6	9.6	1.37e-02	0	42	0	95420416	22	5344
2026-01-09 03:09:14.93	0.89	9.76	-31.2	-34.9	9.4	1.53e-02	0	42	0	97517568	22	5502
2026-01-09 03:09:15.94	0.75	9.81	-31.2	-34.9	9.4	1.84e-02	0	42	0	99614720	22	5483
2026-01-09 03:09:16.94	0.60	9.86	-31.2	-35.0	9.3	1.49e-02	0	42	0	101711872	22	5571
2026-01-09 03:09:17.95	0.45	9.91	-31.3	-35.1	9.2	1.74e-02	0	42	0	102760448	22	5577
2026-01-09 03:09:18.95	0.31	9.96	-31.2	-34.9	9.4	1.73e-02	0	42	0	104857600	22	5498
2026-01-09 03:09:19.96	0.16	10.01	-30.4	-33.8	9.8	1.38e-02	0	42	0	106954752	22	5287
2026-01-09 03:09:20.96	0.01	10.05	-30.2	-34.1	9.3	1.28e-02	0	42	0	109051904	21	5681
2026-01-09 03:09:21.96	359.86	10.10	-31.5	-34.9	9.4	1.05e-02	0	42	0	111149056	22	5319
2026-01-09 03:09:22.97	359.71	10.15	-31.0	-34.0	10.0	7.41e-03	0	42	0	112197632	22	5117
2026-01-09 03:09:23.97	359.56	10.20	-31.1	-34.5	9.3	9.80e-03	0	42	0	114294784	22	5303
2026-01-09 03:09:24.98	359.41	10.25	-30.8	-33.8	10.5	6.59e-03	0	42	0	116391936	21	5122
2026-01-09 03:09:25.98	359.26	10.30	-30.7	-33.4	10.8	2.72e-03	0	42	0	118489088	21	4963
2026-01-09 03:09:26.99	359.10	10.35	-30.6	-33.4	10.9	4.41e-03	0	42	0	120586240	21	4942
2026-01-09 03:09:27.99	358.95	10.39	-30.6	-33.3	11.0	1.72e-03	0	42	0	121634816	21	4914
2026-01-09 03:09:29.00	358.80	10.44	-30.6	-33.3	11.0	1.77e-03	0	42	0	123731968	21	4895
2026-01-09 03:09:30.01	358.64	10.49	-30.5	-33.1	11.0	1.85e-03	0	42	0	125829120	21	4850
2026-01-09 03:09:31.02	358.49	10.54	-30.4	-33.3	11.3	4.00e-03	0	42	0	127926272	20	5002
2026-01-09 03:09:32.02	358.34	10.59	-30.5	-33.1	11.1	1.55e-03	0	42	0	130023424	21	4827
2026-01-09 03:09:33.03	358.18	10.63	-30.3	-32.9	11.6	1.19e-03	0	42	0	131072000	20	4856
2026-01-09 03:09:34.04	358.02	10.68	-30.2	-32.5	11.8	2.85e-03	0	42	0	133169152	20	4695
2026-01-09 03:09:35.04	357.87	10.73	-30.2	-32.5	11.8	4.72e-04	0	42	0	135266304	20	4719
2026-01-09 03:09:36.05	357.71	10.78	-30.3	-32.9	11.6	4.59e-04	0	42	0	137363456	20	4850
2026-01-09 03:09:37.06	357.55	10.82	-30.3	-32.8	11.7	3.24e-03	0	42	0	139460608	20	4789
2026-01-09 03:09:38.06	357.40	10.87	-30.2	-32.5	11.7	9.12e-04	0	42	0	140509184	20	4720
2026-01-09 03:09:39.07	357.24	10.92	-30.2	-32.6	11.8	6.36e-04	0	42	0	142606336	20	4721
2026-01-09 03:09:40.08	357.08	10.97	-30.2	-32.4	12.0	3.24e-03	0	42	0	144703488	20	4653
2026-01-09 03:09:41.08	356.92	11.01	-30.1	-32.3	12.1	5.77e-04	0	42	0	146800640	20	4611
2026-01-09 03:09:42.08	356.76	11.06	-30.1	-32.2	12.1	1.34e-03	0	42	0	148897792	20	4603
2026-01-09 03:09:43.08	356.60	11.10	-30.3	-32.7	11.7	3.07e-04	0	42	0	149946368	20	4765
2026-01-09 03:09:44.09	356.44	11.15	-30.3	-32.8	11.8	7.06e-04	0	42	0	152043520	20	4796
2026-01-09 03:09:45.10	356.28	11.20	-30.1	-32.4	12.0	2.43e-03	0	42	0	154140672	20	4656
2026-01-09 03:09:46.11	356.12	11.24	-30.2	-32.4	12.0	2.86e-04	0	42	0	156237824	20	4663
2026-01-09 03:09:47.12	355.95	11.29	-30.3	-32.9	11.7	9.92e-04	0	42	0	158334976	20	4851
2026-01-09 03:09:48.12	355.79	11.34	-30.4	-33.1	11.5	2.97e-03	0	42	0	159383552	20	4921
2026-01-09 03:09:49.13	355.63	11.38	-30.5	-33.0	11.2	3.33e-03	0	42	0	161480704	21	4792
2026-01-09 03:09:50.14	355.46	11.43	-30.5	-33.1	11.2	1.74e-03	0	42	0	163577856	21	4812
2026-01-09 03:09:51.13	355.30	11.47	-30.4	-33.3	11.4	3.14e-03	0	42	0	165675008	20	4981
2026-01-09 03:09:52.14	355.13	11.52	-30.5	-33.2	11.5	2.90e-03	0	42	0	167772160	20	4954
2026-01-09 03:09:53.15	354.97	11.56	-30.3	-32.3	11.8	8.57e-04	0	42	0	168820736	21	4517
2026-01-09 03:09:54.15	354.80	11.61	-30.2	-32.4	12.0	2.25e-03	0	42	0	170917888	20	4660
2026-01-09 03:09:55.16	354.64	11.65	-30.2	-32.4	12.0	2.17e-03	0	42	0	173015040	20	4649
2026-01-09 03:09:56.16	354.47	11.70	-30.3	-32.7	11.8	6.54e-04	0	42	0	175112192	20	4755
2026-01-09 03:09:57.16	354.30	11.74	-30.2	-32.5	11.9	2.11e-03	0	42	0	177209344	20	4696
2026-01-09 03:09:58.17	354.13	11.79	-30.4	-33.0	11.7	2.31e-03	0	42	0	178257920	20	4863
2026-01-09 03:09:59.17	353.97	11.83	-30.1	-32.1	12.2	6.42e-04	0	42	0	180355072	20	4550
2026-01-09 03:10:00.18	353.80	11.87	-29.9	-31.6	12.6	1.71e-03	0	42	0	182452224	20	4404
2026-01-09 03:10:01.18	353.63	11.92	-29.8	-31.9	12.7	1.71e-03	0	42	0	184549376	19	4570
2026-01-09 03:10:02.19	353.46	11.96	-29.8	-31.7	12.9	4.37e-04	0	42	0	186646528	19	4493
2026-01-09 03:10:03.19	353.29	12.01	-29.9	-32.0	12.7	1.38e-03	0	42	0	187695104	19	4609
2026-01-09 03:10:04.20	353.12	12.05	-29.8	-31.9	12.8	1.43e-03	0	42	0	189792256	19	4557
2026-01-09 03:10:05.20	352.95	12.09	-30.0	-32.3	12.5	4.71e-04	0	42	0	191889408	19	4717
2026-01-09 03:10:06.20	352.77	12.13	-30.2	-32.6	11.9	1.65e-03	0	42	0	193986560	20	4720
2026-01-09 03:10:07.21	352.60	12.18	-30.2	-32.4	12.0	5.23e-04	0	42	0	196083712	20	4671
2026-01-09 03:10:08.21	352.43	12.22	-30.2	-32.4	12.0	7.11e-04	0	42	0	197132288	20	4680
2026-01-09 03:10:09.22	352.25	12.26	-29.9	-31.7	12.4	1.69e-03	0	42	0	199229440	20	4418
2026-01-09 03:10:10.23	352.08	12.30	-30.0	-32.0	12.3	3.35e-04	0	42	0	201326592	20	4508
2026-01-09 03:10:11.23	351.91	12.35	-29.9	-31.9	12.8	2.97e-04	0	42	0	203423744	19	4565
2026-01-09 03:10:12.24	351.73	12.39	-29.5	-31.0	13.4	1.28e-03	0	42	0	205520896	19	4257
2026-01-09 03:10:13.24	351.55	12.43	-29.4	-30.8	13.6	1.13e-03	0	42	0	206569472	19	4194
2026-01-09 03:10:14.25	351.38	12.47	-29.4	-30.8	13.6	2.12e-04	0	42	0	208666624	19	4192
2026-01-09 03:10:15.26	351.20	12.51	-29.7	-31.4	13.3	6.20e-04	0	42	0	210763776	19	4379
2026-01-09 03:10:16.26	351.02	12.55	-29.7	-31.3	13.2	8.77e-04	0	42	0	212860928	19	4367
2026-01-09 03:10:17.27	350.85	12.60	-29.7	-31.6	13.1	2.01e-04	0	42	0	214958080	19	4438
2026-01-09 03:10:18.28	350.67	12.64	-29.8	-31.9	12.9	4.57e-05	0	43	0	216006656	19	4539
2026-01-09 03:10:19.28	350.49	12.68	-29.9	-32.1	12.7	1.58e-03	0	42	0	218103808	19	4614
2026-01-09 03:10:20.29	350.31	12.72	-29.8	-31.8	12.9	4.95e-05	0	42	0	220200960	19	4514
2026-01-09 03:10:21.29	350.13	12.76	-29.7	-31.5	13.1	3.12e-05	0	42	0	222298112	19	4408
2026-01-09 03:10:22.30	349.95	12.80	-29.9	-32.0	12.8	1.95e-03	0	43	0	224395264	19	4579
2026-01-09 03:10:23.30	349.77	12.84	-30.0	-32.2	12.7	2.68e-04	0	42	0	225443840	19	4643
2026-01-09 03:10:24.31	349.59	12.88	-29.9	-31.6	12.7	8.16e-05	0	42	0	227540992	20	4372
2026-01-09 03:10:25.31	349.41	12.91	-30.1	-32.0	12.3	2.62e-04	0	43	0	229638144	20	4523
2026-01-09 03:10:26.32	349.22	12.95	-30.1	-32.3	12.2	3.71e-04	0	43	0	231735296	20	4600
2026-01-09 03:10:27.32	349.04	12.99	-30.2	-32.3	12.2	2.19e-04	0	43	0	232783872	20	4615
2026-01-09 03:10:28.33	348.86	13.03	-30.1	-32.1	12.3	3.62e-04	0	43	0	234881024	20	4556
2026-01-09 03:10:29.34	348.67	13.07	-30.1	-32.2	12.2	3.81e-04	0	43	0	236978176	20	4582
2026-01-09 03:10:30.34	348.49	13.11	-29.9	-31.7	12.6	1.30e-04	0	43	0	239075328	20	4404
2026-01-09 03:10:31.35	348.30	13.15	-29.9	-32.1	12.8	6.25e-05	0	43	0	241172480	19	4607
2026-01-09 03:10:32.36	348.12	13.18	-29.9	-31.6	12.7	2.57e-04	0	42	0	243269632	20	4379
2026-01-09 03:10:33.36	347.93	13.22	-30.0	-31.8	12.5	1.69e-03	0	43	0	244318208	20	4428
2026-01-09 03:10:34.37	347.75	13.26	-30.1	-32.2	12.2	2.13e-04	0	43	0	246415360	20	4593
2026-01-09 03:10:35.37	347.56	13.29	-30.3	-32.8	11.9	5.24e-04	0	43	0	248512512	20	4784
2026-01-09 03:10:36.38	347.37	13.33	-30.3	-32.8	11.8	4.42e-04	0	42	0	250609664	20	4803
2026-01-09 03:10:37.39	347.18	13.37	-30.2	-32.5	12.1	2.73e-04	0	43	0	252706816	20	4673
2026-01-09 03:10:38.39	347.00	13.40	-30.1	-32.0	12.4	1.81e-04	0	42	0	253755392	20	4525
2026-01-09 03:10:39.40	346.81	13.44	-30.1	-32.0	12.5	1.52e-04	0	42	0	255852544	20	4504
2026-01-09 03:10:40.40	346.62	13.48	-30.2	-32.4	12.2	1.65e-04	0	42	0	257949696	20	4622
2026-01-09 03:10:41.40	346.43	13.51	-30.2	-32.5	12.1	4.02e-04	0	42	0	260046848	20	4659
2026-01-09 03:10:42.41	346.24	13.55	-30.1	-32.1	12.4	2.11e-04	0	43	0	261095424	20	4529
2026-01-09 03:10:43.41	346.05	13.58	-30.0	-31.8	12.6	2.94e-04	0	43	0	263192576	20	4418
2026-01-09 03:10:44.41	345.86	13.61	-29.9	-31.7	12.6	9.00e-05	0	42	0	265289728	20	4387
2026-01-09 03:10:45.42	345.67	13.65	-29.9	-31.6	12.7	9.07e-05	0	43	0	267386880	20	4369
2026-01-09 03:10:46.42	345.48	13.68	-30.0	-31.7	12.6	2.48e-04	0	42	0	269484032	20	4403
2026-01-09 03:10:47.42	345.29	13.72	-29.9	-31.6	12.7	1.01e-04	0	43	0	270532608	20	4370
2026-01-09 03:10:48.43	345.10	13.75	-29.8	-31.6	11.9	4.57e-05	0	43	0	272629760	19	4461
2026-01-09 03:10:49.44	344.90	13.78	-29.7	-31.5	13.2	2.05e-05	0	43	0	274726912	19	4414
2026-01-09 03:10:50.45	344.71	13.82	-29.7	-31.5	12.5	2.28e-05	0	43	0	276824064	19	4402
2026-01-09 03:10:51.45	344.51	13.85	-29.7	-31.5	13.0	1.83e-05	0	43	0	278921216	19	4419
2026-01-09 03:10:52.46	344.32	13.88	-29.8	-31.8	13.0	4.95e-05	0	43	0	279969792	19	4504
2026-01-09 03:10:53.47	344.12	13.91	-29.9	-31.9	12.8	9.91e-05	0	43	0	282066944	19	4552
2026-01-09 03:10:54.47	343.93	13.95	-29.9	-32.0	12.8	4.88e-05	0	43	0	284164096	19	4587
2026-01-09 03:10:55.48	343.73	13.98	-29.8	-31.3	12.9	7.17e-05	0	43	0	286261248	20	4268
2026-01-09 03:10:56.49	343.54	14.01	-29.9	-32.0	12.9	4.57e-05	0	43	0	288358400	19	4564
2026-01-09 03:10:57.50	343.34	14.04	-29.9	-32.1	12.8	2.50e-03	0	43	0	289406976	19	4618
2026-01-09 03:10:58.51	343.14	14.07	-29.8	-31.9	12.9	5.03e-05	0	43	0	291504128	19	4541
2026-01-09 03:10:59.50	342.95	14.10	-29.9	-31.9	12.9	4.80e-05	0	43	0	293601280	19	4566
2026-01-09 03:11:00.51	342.75	14.13	-29.9	-31.6	12.7	2.51e-03	0	43	0	295698432	20	4363
2026-01-09 03:11:01.51	342.55	14.16	-30.0	-31.8	12.5	9.68e-05	0	43	0	297795584	20	4449
2026-01-09 03:11:02.52	342.35	14.19	-29.9	-31.6	12.7	1.15e-04	0	43	0	298844160	20	4366
2026-01-09 03:11:03.52	342.15	14.22	-29.8	-31.7	13.0	5.79e-05	0	42	0	300941312	19	4500
2026-01-09 03:11:04.53	341.95	14.25	-29.5	-30.8	13.6	5.18e-05	0	43	0	303038464	19	4213
2026-01-09 03:11:05.53	341.76	14.28	-29.3	-30.9	13.9	5.30e-06	0	43	0	305135616	18	4319
2026-01-09 03:11:06.54	341.55	14.30	-29.1	-30.4	14.2	2.20e-06	0	43	0	307232768	18	4162
2026-01-09 03:11:07.55	341.35	14.33	-29.0	-30.0	14.5	3.58e-05	0	43	0	308281344	18	4057
2026-01-09 03:11:08.55	341.15	14.36	-29.2	-30.5	14.1	2.01e-03	0	43	0	310378496	18	4199
2026-01-09 03:11:09.56	340.95	14.39	-29.4	-31.0	13.8	4.50e-06	0	43	0	312475648	18	4352
2026-01-09 03:11:10.57	340.75	14.41	-29.3	-30.8	14.0	8.54e-05	0	43	0	314572800	18	4280
2026-01-09 03:11:11.57	340.55	14.44	-29.5	-30.8	13.7	2.44e-03	0	43	0	316669952	19	4194
2026-01-09 03:11:12.57	340.35	14.47	-29.6	-31.2	13.4	1.06e-05	0	43	0	317718528	19	4325
2026-01-09 03:11:13.58	340.14	14.49	-29.5	-31.0	13.6	1.41e-04	0	43	0	319815680	19	4239
2026-01-09 03:11:14.59	339.94	14.52	-29.5	-31.0	13.5	2.30e-03	0	43	0	321912832	19	4249
2026-01-09 03:11:15.59	339.74	14.54	-29.5	-30.8	13.6	2.52e-03	0	43	0	324009984	19	4203
2026-01-09 03:11:16.60	339.53	14.57	-29.3	-30.4	13.9	4.50e-06	0	43	0	326107136	19	4062
2026-01-09 03:11:17.61	339.33	14.59	-29.3	-30.7	14.0	2.51e-03	0	43	0	327155712	18	4253
2026-01-09 03:11:18.61	339.12	14.62	-29.3	-30.8	14.0	2.46e-03	0	43	0	329252864	18	4275
2026-01-09 03:11:19.62	338.92	14.64	-29.2	-30.7	14.1	1.83e-04	0	43	0	331350016	18	4238
2026-01-09 03:11:20.63	338.71	14.66	-29.7	-31.3	13.3	2.49e-03	0	43	0	333447168	19	4350
2026-01-09 03:11:21.64	338.51	14.69	-29.8	-31.6	13.2	2.38e-03	0	43	0	335544320	19	4434
2026-01-09 03:11:22.64	338.30	14.71	-29.9	-31.5	12.8	1.57e-04	0	43	0	336592896	20	4322
2026-01-09 03:11:23.65	338.09	14.73	-30.1	-32.1	12.4	2.61e-03	0	43	0	338690048	20	4516
2026-01-09 03:11:24.65	337.89	14.75	-30.1	-32.1	12.4	2.87e-03	0	43	0	340787200	20	4517
2026-01-09 03:11:25.66	337.68	14.78	-30.0	-31.8	12.6	2.46e-04	0	43	0	342884352	20	4420
2026-01-09 03:11:26.67	337.47	14.80	-29.9	-32.0	12.8	2.67e-03	0	43	0	344981504	19	4578
2026-01-09 03:11:27.68	337.27	14.82	-29.9	-32.0	12.9	2.54e-03	0	43	0	346030080	19	4572
2026-01-09 03:11:28.68	337.06	14.84	-29.9	-32.0	12.8	3.39e-04	0	43	0	348127232	19	4579
2026-01-09 03:11:29.69	336.85	14.86	-29.9	-31.5	12.8	2.49e-03	0	43	0	350224384	20	4320
2026-01-09 03:11:30.70	336.64	14.88	-29.9	-32.0	12.8	2.61e-03	0	43	0	352321536	19	4590
2026-01-09 03:11:31.70	336.43	14.90	-30.0	-31.8	12.5	5.40e-04	0	43	0	354418688	20	4438
2026-01-09 03:11:32.70	336.23	14.92	-30.0	-31.7	12.6	2.30e-03	0	43	0	355467264	20	4411
2026-01-09 03:11:33.71	336.02	14.94	-29.9	-31.4	12.8	4.48e-04	0	43	0	357564416	20	4310
2026-01-09 03:11:34.72	335.81	14.96	-30.0	-32.1	12.8	3.79e-04	0	43	0	359661568	19	4625
2026-01-09 03:11:35.72	335.60	14.97	-29.8	-31.7	13.1	2.65e-03	0	43	0	361758720	19	4461
2026-01-09 03:11:36.72	335.39	14.99	-29.7	-31.3	13.3	2.60e-03	0	43	0	363855872	19	4345
2026-01-09 03:11:37.72	335.18	15.01	-29.6	-31.1	13.4	9.38e-05	0	43	0	364904448	19	4277
2026-01-09 03:11:38.73	334.97	15.03	-29.7	-31.5	13.2	2.67e-03	0	43	0	367001600	19	4410
2026-01-09 03:11:39.73	334.76	15.04	-29.6	-31.2	13.4	2.37e-03	0	43	0	369098752	19	4298
2026-01-09 03:11:40.74	334.55	15.06	-29.6	-31.2	13.4	1.06e-05	0	43	0	371195904	19	4312
2026-01-09 03:11:41.74	334.34	15.08	-29.6	-31.2	13.4	2.30e-03	0	43	0	373293056	19	4308
2026-01-09 03:11:42.74	334.13	15.09	-29.6	-31.0	13.5	2.48e-03	0	43	0	374341632	19	4255
2026-01-09 03:11:43.75	333.92	15.11	-29.3	-30.4	13.9	3.00e-06	0	43	0	376438784	19	4071
2026-01-09 03:11:44.75	333.71	15.12	-29.3	-30.9	13.9	2.20e-06	0	43	0	378535936	18	4317
2026-01-09 03:11:45.76	333.49	15.14	-29.3	-30.9	13.9	2.56e-03	0	43	0	380633088	18	4316
2026-01-09 03:11:46.75	333.28	15.15	-29.4	-31.0	13.8	1.30e-04	0	42	0	382730240	18	4348
2026-01-09 03:11:47.76	333.07	15.16	-29.4	-31.1	13.8	7.60e-06	0	43	0	383778816	18	4382
2026-01-09 03:11:48.77	332.86	15.18	-29.6	-31.2	13.4	2.39e-03	0	43	0	385875968	19	4314
2026-01-09 03:11:49.77	332.65	15.19	-29.6	-31.2	13.4	1.02e-04	0	43	0	387973120	19	4311
2026-01-09 03:11:50.78	332.43	15.20	-29.8	-31.8	13.0	3.28e-05	0	43	0	390070272	19	4517
2026-01-09 03:11:51.78	332.22	15.21	-29.9	-32.0	12.8	1.92e-04	0	43	0	392167424	19	4574
2026-01-09 03:11:52.78	332.01	15.22	-30.0	-31.9	12.5	2.25e-04	0	43	0	393216000	20	4455
2026-01-09 03:11:53.79	331.79	15.24	-30.2	-32.4	12.1	1.95e-04	0	43	0	395313152	20	4653
2026-01-09 03:11:54.79	331.58	15.25	-30.1	-32.2	12.3	5.80e-04	0	43	0	397410304	20	4577
2026-01-09 03:11:55.79	331.37	15.26	-30.1	-32.1	12.3	4.57e-04	0	43	0	399507456	20	4536
2026-01-09 03:11:56.80	331.15	15.27	-30.2	-32.3	12.2	2.84e-03	0	43	0	401604608	20	4608
2026-01-09 03:11:57.81	330.94	15.28	-30.1	-32.1	12.3	2.08e-04	0	43	0	402653184	20	4532
2026-01-09 03:11:58.81	330.73	15.29	-30.0	-32.0	12.5	1.84e-04	0	43	0	404750336	20	4495
2026-01-09 03:11:59.82	330.51	15.30	-30.1	-32.1	12.4	2.60e-03	0	43	0	406847488	20	4545
2026-01-09 03:12:00.82	330.30	15.30	-30.1	-32.2	12.2	1.80e-04	0	43	0	408944640	20	4572
2026-01-09 03:12:01.82	330.08	15.31	-30.3	-32.8	11.9	2.60e-04	0	43	0	409993216	20	4793
2026-01-09 03:12:02.83	329.87	15.32	-30.2	-32.4	12.1	3.97e-04	0	43	0	412090368	20	4663
2026-01-09 03:12:03.83	329.65	15.33	-30.1	-32.2	12.3	1.91e-04	0	43	0	414187520	20	4584
2026-01-09 03:12:04.84	329.44	15.33	-30.0	-31.8	12.5	1.48e-04	0	43	0	416284672	20	4466
2026-01-09 03:12:05.83	329.23	15.34	-30.0	-31.9	12.4	1.43e-04	0	43	0	418381824	20	4465
2026-01-09 03:12:06.84	329.01	15.35	-30.0	-31.8	12.5	1.09e-03	0	43	0	419430400	20	4435
2026-01-09 03:12:07.85	328.80	15.35	-30.0	-31.8	12.6	9.23e-05	0	43	0	421527552	20	4439
2026-01-09 03:12:08.85	328.58	15.36	-29.9	-31.7	12.6	9.46e-05	0	43	0	423624704	20	4406
2026-01-09 03:12:09.85	328.37	15.36	-30.1	-32.2	12.3	5.20e-04	0	43	0	425721856	20	4574
2026-01-09 03:12:10.86	328.15	15.37	-29.8	-31.4	12.8	9.07e-05	0	43	0	427819008	20	4301
2026-01-09 03:12:11.86	327.94	15.37	-29.8	-31.7	13.0	4.80e-05	0	43	0	428867584	19	4493
2026-01-09 03:12:12.86	327.72	15.37	-29.9	-31.9	12.9	2.74e-05	0	43	0	430964736	19	4546
2026-01-09 03:12:13.86	327.51	15.38	-29.7	-31.4	13.2	3.89e-05	0	43	0	433061888	19	4370
2026-01-09 03:12:14.87	327.29	15.38	-29.7	-31.4	13.2	2.89e-05	0	43	0	435159040	19	4391
2026-01-09 03:12:15.88	327.07	15.38	-29.6	-31.2	13.4	1.37e-05	0	43	0	437256192	19	4312
2026-01-09 03:12:16.88	326.86	15.38	-29.7	-31.4	13.2	1.01e-04	0	43	0	438304768	19	4384
2026-01-09 03:12:17.89	326.64	15.39	-29.7	-31.4	13.2	1.14e-05	0	43	0	440401920	19	4386
2026-01-09 03:12:18.89	326.43	15.39	-29.7	-31.5	13.2	2.44e-05	0	43	0	442499072	19	4431
2026-01-09 03:12:19.89	326.21	15.39	-29.9	-31.9	12.9	2.51e-05	0	43	0	444596224	19	4547
2026-01-09 03:12:20.90	326.00	15.39	-30.0	-31.9	12.5	1.11e-04	0	43	0	446693376	20	4465
2026-01-09 03:12:21.91	325.78	15.39	-29.3	-31.2	12.5	1.68e-04	0	43	0	447741952	20	4494
2026-01-09 03:12:22.91	325.57	15.39	-30.1	-32.5	12.1	1.31e-04	0	43	0	449839104	19	4745
2026-01-09 03:12:23.92	325.35	15.39	-30.0	-32.2	12.0	8.31e-05	0	43	0	451936256	19	4649
2026-01-09 03:12:24.92	325.14	15.39	-29.9	-31.9	12.7	7.09e-05	0	43	0	454033408	19	4538
2026-01-09 03:12:25.92	324.92	15.38	-29.9	-31.9	12.2	5.34e-05	0	43	0	456130560	19	4557
2026-01-09 03:12:26.92	324.71	15.38	-29.9	-31.9	12.4	3.50e-05	0	43	0	457179136	19	4538
2026-01-09 03:12:27.92	324.49	15.38	-29.6	-31.3	13.2	3.28e-05	0	43	0	459276288	19	4351
2026-01-09 03:12:28.93	324.28	15.38	-29.4	-30.6	13.6	1.90e-05	0	43	0	461373440	19	4158
2026-01-09 03:12:29.94	324.06	15.37	-29.4	-31.2	13.6	3.80e-06	0	43	0	463470592	18	4408
2026-01-09 03:12:30.95	323.84	15.37	-29.4	-31.1	13.7	1.29e-05	0	43	0	465567744	18	4378
2026-01-09 03:12:31.95	323.63	15.37	-29.4	-31.2	13.6	3.80e-06	0	43	0	466616320	18	4422
2026-01-09 03:12:32.95	323.41	15.36	-29.5	-30.9	13.5	3.80e-06	0	43	0	468713472	19	4231
2026-01-09 03:12:33.96	323.20	15.36	-29.6	-31.2	13.4	1.52e-05	0	43	0	470810624	19	4322
2026-01-09 03:12:34.96	322.98	15.35	-29.8	-31.7	12.9	3.35e-05	0	43	0	472907776	19	4505
2026-01-09 03:12:35.97	322.77	15.35	-29.9	-32.1	12.6	3.73e-05	0	43	0	475004928	19	4624
2026-01-09 03:12:36.97	322.55	15.34	-30.0	-32.3	12.5	4.65e-05	0	43	0	476053504	19	4693
2026-01-09 03:12:37.98	322.34	15.33	-29.8	-31.9	12.8	2.51e-03	0	43	0	478150656	19	4567
2026-01-09 03:12:38.99	322.12	15.33	-30.0	-32.2	12.6	5.79e-05	0	43	0	480247808	19	4664
2026-01-09 03:12:39.99	321.91	15.32	-29.9	-31.9	12.8	6.33e-05	0	43	0	482344960	19	4564
2026-01-09 03:12:41.00	321.69	15.31	-29.9	-31.6	12.7	2.59e-03	0	43	0	484442112	20	4376
2026-01-09 03:12:42.00	321.48	15.30	-29.9	-32.1	12.8	2.63e-03	0	43	0	485490688	19	4631
2026-01-09 03:12:43.00	321.27	15.29	-30.0	-31.9	12.5	7.09e-05	0	43	0	487587840	20	4483
2026-01-09 03:12:44.01	321.05	15.28	-30.3	-32.8	11.9	3.03e-03	0	43	0	489684992	20	4783
2026-01-09 03:12:45.01	320.84	15.28	-30.3	-32.7	11.9	3.48e-03	0	43	0	491782144	20	4749
2026-01-09 03:12:46.02	320.62	15.27	-30.2	-32.4	12.0	3.46e-04	0	43	0	492830720	20	4658
2026-01-09 03:12:47.03	320.41	15.26	-30.2	-32.5	12.0	3.09e-04	0	43	0	494927872	20	4707
2026-01-09 03:12:48.03	320.19	15.25	-30.3	-32.7	11.9	3.28e-03	0	43	0	497025024	20	4776
2026-01-09 03:12:49.04	319.98	15.23	-30.0	-31.8	12.4	5.52e-04	0	43	0	499122176	20	4451
2026-01-09 03:12:50.05	319.77	15.22	-29.9	-32.2	12.6	8.39e-05	0	43	0	501219328	19	4659
2026-01-09 03:12:51.06	319.55	15.21	-29.9	-31.8	12.5	2.33e-03	0	43	0	503316480	20	4432
2026-01-09 03:12:52.07	319.34	15.20	-29.9	-31.7	12.5	4.71e-04	0	43	0	504365056	20	4415
2026-01-09 03:12:53.06	319.13	15.19	-29.9	-32.0	12.8	2.14e-03	0	43	0	506462208	19	4576
2026-01-09 03:12:54.07	318.91	15.17	-29.8	-31.9	12.9	2.66e-03	0	43	0	508559360	19	4544
2026-01-09 03:12:55.08	318.70	15.16	-29.9	-32.0	12.8	2.49e-04	0	43	0	510656512	19	4574
2026-01-09 03:12:56.08	318.49	15.15	-29.7	-31.6	13.0	2.40e-03	0	43	0	512753664	19	4459
2026-01-09 03:12:57.08	318.28	15.13	-29.8	-31.8	12.9	3.73e-05	0	43	0	513802240	19	4522
2026-01-09 03:12:58.09	318.07	15.12	-29.9	-32.0	12.8	1.83e-04	0	43	0	515899392	19	4574
2026-01-09 03:12:59.10	317.85	15.10	-29.9	-31.5	12.7	2.43e-03	0	43	0	517996544	20	4352
2026-01-09 03:13:00.10	317.64	15.09	-30.0	-32.0	12.4	2.21e-03	0	43	0	520093696	20	4502
2026-01-09 03:13:01.10	317.43	15.07	-30.0	-31.7	12.6	2.58e-04	0	43	0	521142272	20	4403
2026-01-09 03:13:02.11	317.22	15.06	-29.7	-31.5	13.1	2.13e-03	0	43	0	523239424	19	4425
2026-01-09 03:13:03.11	317.01	15.04	-29.8	-31.7	13.0	2.39e-03	0	43	0	525336576	19	4471
2026-01-09 03:13:04.11	316.80	15.02	-29.9	-31.6	12.7	3.97e-04	0	43	0	527433728	20	4346
2026-01-09 03:13:05.12	316.59	15.01	-29.7	-31.4	13.2	2.38e-03	0	43	0	529530880	19	4398
2026-01-09 03:13:06.13	316.38	14.99	-29.6	-31.2	13.4	2.49e-03	0	43	0	530579456	19	4315
2026-01-09 03:13:07.13	316.17	14.97	-29.7	-31.5	13.2	3.04e-04	0	43	0	532676608	19	4404
2026-01-09 03:13:08.13	315.96	14.95	-29.7	-31.4	13.2	2.35e-03	0	43	0	534773760	19	4396
2026-01-09 03:13:09.13	315.75	14.93	-29.8	-31.8	13.0	1.88e-03	0	43	0	536870912	19	4499
2026-01-09 03:13:10.13	315.54	14.92	-29.8	-31.8	13.0	3.03e-04	0	43	0	538968064	19	4508
2026-01-09 03:13:11.14	315.33	14.90	-29.9	-31.7	12.6	7.17e-05	0	43	0	540016640	20	4383
2026-01-09 03:13:12.15	315.12	14.88	-30.0	-31.8	12.6	1.23e-03	0	43	0	542113792	20	4416
2026-01-09 03:13:13.15	314.92	14.86	-30.3	-32.6	12.0	2.08e-04	0	43	0	544210944	20	4704
2026-01-09 03:13:14.16	314.71	14.84	-30.1	-32.1	12.4	1.81e-04	0	43	0	546308096	20	4536
2026-01-09 03:13:15.17	314.50	14.81	-29.9	-31.6	12.7	2.65e-03	0	43	0	548405248	20	4370
2026-01-09 03:13:16.18	314.29	14.79	-29.8	-31.4	12.9	1.90e-04	0	43	0	549453824	20	4289
2026-01-09 03:13:17.17	314.09	14.77	-29.8	-31.8	13.0	2.69e-03	0	43	0	551550976	19	4514
2026-01-09 03:13:18.18	313.88	14.75	-29.9	-31.8	12.9	1.84e-04	0	43	0	553648128	19	4526
2026-01-09 03:13:19.19	313.67	14.73	-29.9	-32.1	12.8	4.18e-04	0	43	0	555745280	19	4598
2026-01-09 03:13:20.20	313.47	14.71	-29.8	-31.4	12.8	2.65e-03	0	43	0	557842432	20	4289
2026-01-09 03:13:21.20	313.26	14.68	-29.8	-31.7	13.0	4.80e-05	0	43	0	558891008	19	4494
2026-01-09 03:13:22.21	313.05	14.66	-29.9	-32.1	12.8	5.95e-05	0	43	0	560988160	19	4613
2026-01-09 03:13:23.22	312.85	14.64	-29.8	-31.3	12.9	2.54e-03	0	43	0	563085312	20	4287
2026-01-09 03:13:24.22	312.64	14.61	-29.8	-31.8	12.9	5.34e-05	0	43	0	565182464	19	4523
2026-01-09 03:13:25.23	312.44	14.59	-29.8	-31.7	13.0	9.46e-05	0	43	0	567279616	19	4496
2026-01-09 03:13:26.23	312.23	14.56	-29.8	-31.6	13.1	5.54e-04	0	43	0	568328192	19	4450
2026-01-09 03:13:27.23	312.03	14.54	-29.7	-31.4	13.2	1.33e-03	0	43	0	570425344	19	4387
2026-01-09 03:13:28.24	311.83	14.51	-29.3	-30.4	13.8	4.50e-06	0	43	0	572522496	19	4066
2026-01-09 03:13:29.24	311.63	14.49	-29.3	-30.8	13.9	2.20e-06	0	43	0	574619648	18	4284
2026-01-09 03:13:30.25	311.42	14.46	-29.3	-30.9	13.8	2.24e-03	0	43	0	576716800	18	4327
2026-01-09 03:13:31.26	311.22	14.43	-29.4	-30.7	13.7	1.29e-05	0	43	0	577765376	19	4163
2026-01-09 03:13:32.26	311.02	14.41	-29.6	-31.2	13.4	1.90e-05	0	43	0	579862528	19	4301
2026-01-09 03:13:33.27	310.81	14.38	-29.5	-30.9	13.5	1.11e-03	0	43	0	581959680	19	4217
2026-01-09 03:13:34.28	310.61	14.35	-29.5	-30.9	13.6	4.50e-06	0	43	0	584056832	19	4233
2026-01-09 03:13:35.28	310.41	14.33	-29.6	-31.2	13.3	9.90e-06	0	43	0	586153984	19	4311
2026-01-09 03:13:36.28	310.21	14.30	-29.8	-31.6	13.1	9.10e-04	0	43	0	587202560	19	4448
2026-01-09 03:13:37.29	310.01	14.27	-29.6	-31.1	13.5	1.08e-03	0	43	0	589299712	19	4273
2026-01-09 03:13:38.29	309.81	14.24	-29.6	-31.0	13.4	1.83e-05	0	43	0	591396864	19	4252
2026-01-09 03:13:39.30	309.61	14.21	-29.8	-31.8	13.0	2.44e-05	0	43	0	593494016	19	4509
2026-01-09 03:13:40.30	309.41	14.18	-29.9	-31.7	12.6	6.30e-04	0	43	0	595591168	20	4387
2026-01-09 03:13:41.31	309.21	14.15	-30.3	-32.7	11.9	2.24e-04	0	43	0	596639744	20	4736
2026-01-09 03:13:42.31	309.02	14.12	-30.6	-33.0	11.3	7.04e-04	0	43	0	598736896	21	4758
2026-01-09 03:13:43.31	308.82	14.09	-30.5	-32.9	11.3	1.08e-03	0	43	0	600834048	21	4736
2026-01-09 03:13:44.32	308.62	14.06	-30.3	-32.3	11.8	5.46e-04	0	43	0	602931200	21	4514
2026-01-09 03:13:45.32	308.43	14.03	-30.1	-32.1	12.3	2.78e-04	0	43	0	605028352	20	4534
2026-01-09 03:13:46.33	308.23	14.00	-30.1	-32.2	12.2	1.67e-04	0	43	0	606076928	20	4584
2026-01-09 03:13:47.34	308.03	13.97	-30.1	-32.2	12.2	2.66e-04	0	43	0	608174080	20	4572
2026-01-09 03:13:48.35	307.83	13.94	-30.1	-32.1	12.3	1.76e-04	0	43	0	610271232	20	4539
2026-01-09 03:13:49.35	307.64	13.91	-30.2	-32.6	11.9	2.20e-04	0	43	0	612368384	20	4711
2026-01-09 03:13:50.35	307.45	13.87	-30.3	-32.8	11.8	2.91e-04	0	43	0	614465536	20	4782
2026-01-09 03:13:51.36	307.25	13.84	-30.3	-32.8	11.8	4.73e-04	0	43	0	615514112	20	4799
2026-01-09 03:13:52.36	307.06	13.81	-30.2	-32.6	11.9	3.87e-04	0	43	0	617611264	20	4714
2026-01-09 03:13:53.37	306.86	13.78	-30.1	-32.2	12.2	3.23e-04	0	43	0	619708416	20	4585
2026-01-09 03:13:54.37	306.67	13.74	-29.9	-31.6	12.6	1.04e-04	0	43	0	621805568	20	4364
2026-01-09 03:13:55.38	306.48	13.71	-29.8	-31.9	12.8	6.40e-05	0	43	0	623902720	19	4558
2026-01-09 03:13:56.39	306.28	13.68	-29.8	-31.7	12.9	6.86e-05	0	43	0	624951296	19	4482
2026-01-09 03:13:57.40	306.09	13.64	-29.6	-31.2	13.2	3.81e-05	0	43	0	627048448	19	4341
2026-01-09 03:13:58.40	305.90	13.61	-29.7	-31.6	12.9	3.58e-05	0	43	0	629145600	19	4470
2026-01-09 03:13:59.41	305.71	13.57	-29.7	-31.5	13.0	4.57e-05	0	43	0	631242752	19	4438
2026-01-09 03:14:00.42	305.52	13.54	-29.7	-31.5	13.0	3.66e-05	0	43	0	633339904	19	4430
2026-01-09 03:14:01.42	305.33	13.50	-29.7	-31.5	13.0	2.40e-03	0	43	0	634388480	19	4424
2026-01-09 03:14:02.43	305.14	13.47	-29.9	-32.0	12.6	5.34e-05	0	43	0	636485632	19	4589
2026-01-09 03:14:03.44	304.95	13.43	-30.0	-32.3	12.5	9.76e-05	0	43	0	638582784	19	4690
2026-01-09 03:14:04.44	304.76	13.39	-29.9	-32.1	12.6	2.16e-03	0	43	0	640679936	19	4624
2026-01-09 03:14:05.44	304.57	13.36	-29.9	-32.1	12.6	8.46e-05	0	43	0	642777088	19	4646
2026-01-09 03:14:06.45	304.38	13.32	-30.0	-32.4	12.5	8.46e-05	0	43	0	643825664	19	4718
2026-01-09 03:14:07.46	304.19	13.29	-30.0	-31.9	12.4	1.34e-04	0	43	0	645922816	20	4471
2026-01-09 03:14:08.46	304.01	13.25	-30.1	-32.1	12.2	2.18e-03	0	43	0	648019968	20	4548
2026-01-09 03:14:09.46	303.82	13.21	-30.1	-32.3	12.1	1.55e-04	0	43	0	650117120	20	4608
2026-01-09 03:14:10.46	303.64	13.17	-30.2	-32.4	12.0	3.63e-04	0	43	0	652214272	20	4637
2026-01-09 03:14:11.46	303.45	13.14	-29.9	-32.0	12.6	2.15e-03	0	43	0	653262848	19	4594
2026-01-09 03:14:12.47	303.27	13.10	-29.9	-32.1	12.6	7.24e-05	0	43	0	655360000	19	4618
2026-01-09 03:14:13.47	303.08	13.06	-30.1	-32.3	12.0	1.24e-04	0	43	0	657457152	20	4610
2026-01-09 03:14:14.48	302.90	13.02	-30.2	-32.5	11.9	3.02e-03	0	43	0	659554304	20	4696
2026-01-09 03:14:15.49	302.72	12.98	-30.3	-32.7	11.8	2.60e-04	0	43	0	661651456	20	4764
2026-01-09 03:14:16.50	302.53	12.94	-30.3	-32.8	11.7	7.68e-04	0	43	0	662700032	20	4788
2026-01-09 03:14:17.51	302.35	12.91	-30.2	-32.4	11.9	2.98e-03	0	43	0	664797184	20	4670
2026-01-09 03:14:18.51	302.17	12.87	-30.2	-32.6	11.8	7.29e-04	0	43	0	666894336	20	4741
2026-01-09 03:14:19.52	301.98	12.83	-30.3	-32.7	11.7	2.84e-03	0	43	0	668991488	20	4780
2026-01-09 03:14:20.53	301.80	12.79	-30.3	-33.0	11.5	7.00e-04	0	43	0	671088640	20	4884
2026-01-09 03:14:21.53	301.62	12.75	-30.3	-33.0	11.5	2.25e-03	0	43	0	672137216	20	4905
2026-01-09 03:14:22.54	301.44	12.71	-30.4	-33.3	11.3	3.52e-03	0	43	0	674234368	20	4996
2026-01-09 03:14:23.55	301.26	12.67	-30.4	-33.2	11.3	2.89e-03	0	43	0	676331520	20	4967
2026-01-09 03:14:24.56	301.08	12.62	-30.5	-33.2	11.0	3.23e-03	0	43	0	678428672	21	4870
2026-01-09 03:14:25.56	300.90	12.58	-30.6	-33.3	10.9	2.67e-03	0	43	0	680525824	21	4926
2026-01-09 03:14:26.57	300.72	12.54	-30.5	-33.0	11.1	3.08e-03	0	43	0	681574400	21	4813
2026-01-09 03:14:27.57	300.55	12.50	-30.5	-33.4	11.2	1.85e-03	0	43	0	683671552	20	5029
2026-01-09 03:14:28.58	300.37	12.46	-30.4	-32.6	11.4	2.71e-03	0	43	0	685768704	21	4653
2026-01-09 03:14:29.59	300.19	12.42	-30.2	-32.7	11.7	2.97e-03	0	43	0	687865856	20	4759
2026-01-09 03:14:30.59	300.02	12.38	-30.2	-32.7	11.7	5.31e-04	0	43	0	689963008	20	4776
2026-01-09 03:14:31.59	299.84	12.34	-30.4	-33.1	11.5	2.04e-03	0	43	0	691011584	20	4935
2026-01-09 03:14:32.60	299.67	12.29	-30.3	-33.0	11.6	2.95e-03	0	43	0	693108736	20	4873
2026-01-09 03:14:33.60	299.49	12.25	-30.5	-33.1	11.0	3.68e-03	0	43	0	695205888	21	4835
2026-01-09 03:14:34.60	299.32	12.21	-30.7	-33.6	10.7	2.69e-03	0	43	0	697303040	21	5030
2026-01-09 03:14:35.61	299.15	12.17	-30.6	-33.3	10.9	3.55e-03	0	43	0	698351616	21	4904
2026-01-09 03:14:36.61	298.97	12.12	-30.6	-33.2	11.0	4.21e-03	0	43	0	700448768	21	4857
2026-01-09 03:14:37.61	298.80	12.08	-30.4	-33.0	11.4	9.95e-04	0	43	0	702545920	20	4900
2026-01-09 03:14:38.61	298.63	12.04	-30.3	-32.8	11.6	3.24e-03	0	43	0	704643072	20	4819
2026-01-09 03:14:39.62	298.46	11.99	-29.9	-31.8	12.2	1.85e-03	0	43	0	706740224	20	4467
2026-01-09 03:14:40.62	298.29	11.95	-29.9	-32.3	12.3	1.62e-03	0	43	0	707788800	19	4726
2026-01-09 03:14:41.63	298.12	11.91	-30.0	-32.0	12.1	1.46e-03	0	43	0	709885952	20	4555
2026-01-09 03:14:42.64	297.95	11.86	-30.1	-32.2	11.9	1.47e-03	0	43	0	711983104	20	4620
2026-01-09 03:14:43.64	297.78	11.82	-30.2	-32.5	11.8	2.47e-03	0	43	0	714080256	20	4733
2026-01-09 03:14:44.65	297.61	11.77	-30.3	-32.9	11.5	7.97e-04	0	43	0	716177408	20	4856
2026-01-09 03:14:45.66	297.44	11.73	-30.3	-33.1	11.4	1.66e-03	0	43	0	717225984	20	4932
2026-01-09 03:14:46.66	297.27	11.68	-30.3	-32.8	11.7	2.64e-03	0	43	0	719323136	20	4810
2026-01-09 03:14:47.66	297.10	11.64	-30.0	-32.1	12.0	3.31e-04	0	43	0	721420288	20	4576
2026-01-09 03:14:48.67	296.94	11.59	-29.8	-31.8	12.6	1.30e-03	0	43	0	723517440	19	4564
2026-01-09 03:14:49.68	296.77	11.55	-29.7	-31.6	12.8	4.26e-04	0	43	0	725614592	19	4479
2026-01-09 03:14:50.69	296.60	11.50	-29.8	-31.8	12.6	1.68e-03	0	43	0	726663168	19	4564
2026-01-09 03:14:51.69	296.44	11.46	-29.7	-31.6	12.7	8.08e-05	0	43	0	728760320	19	4487
2026-01-09 03:14:52.70	296.27	11.41	-29.7	-31.6	12.7	7.24e-05	0	43	0	730857472	19	4502
2026-01-09 03:14:53.70	296.11	11.37	-29.9	-32.3	12.3	2.15e-03	0	43	0	732954624	19	4727
2026-01-09 03:14:54.71	295.95	11.32	-30.0	-32.1	11.9	3.49e-04	0	43	0	735051776	20	4600
2026-01-09 03:14:55.72	295.78	11.28	-30.2	-32.8	11.6	6.48e-04	0	43	0	736100352	20	4822
2026-01-09 03:14:56.72	295.62	11.23	-30.4	-33.3	11.1	2.86e-03	0	43	0	738197504	20	5040
2026-01-09 03:14:57.73	295.46	11.18	-30.5	-33.2	10.8	2.06e-03	0	43	0	740294656	21	4911
2026-01-09 03:14:58.73	295.30	11.14	-30.6	-33.5	10.6	2.53e-03	0	43	0	742391808	21	5034
2026-01-09 03:14:59.74	295.13	11.09	-30.6	-33.4	10.6	5.25e-03	0	43	0	744488960	21	4987
2026-01-09 03:15:00.74	294.97	11.04	-30.5	-33.2	10.7	4.72e-03	0	43	0	745537536	21	4908
2026-01-09 03:15:01.75	294.81	11.00	-30.5	-33.1	10.8	2.45e-03	0	43	0	747634688	21	4888
2026-01-09 03:15:02.76	294.65	10.95	-30.4	-33.3	11.0	1.97e-03	0	43	0	749731840	20	5055
2026-01-09 03:15:03.76	294.49	10.90	-30.4	-33.3	11.1	3.11e-03	0	43	0	751828992	20	5044
2026-01-09 03:15:04.77	294.33	10.86	-30.3	-33.1	11.2	1.46e-03	0	43	0	753926144	20	4948
2026-01-09 03:15:05.78	294.18	10.81	-30.4	-33.2	11.2	1.38e-03	0	43	0	754974720	20	5009
2026-01-09 03:15:06.78	294.02	10.76	-30.4	-32.8	11.1	3.43e-03	0	43	0	757071872	21	4767
2026-01-09 03:15:07.79	293.86	10.71	-30.5	-33.6	10.9	1.77e-03	0	43	0	759169024	20	5155
2026-01-09 03:15:08.79	293.71	10.67	-30.8	-34.0	10.3	4.06e-03	0	43	0	761266176	21	5252
2026-01-09 03:15:09.79	293.55	10.62	-30.9	-34.4	9.9	8.34e-03	0	43	0	763363328	21	5435
2026-01-09 03:15:10.80	293.39	10.57	-31.2	-35.3	8.8	1.37e-02	0	43	0	764411904	22	5766
2026-01-09 03:15:11.80	293.24	10.52	-31.3	-35.8	8.4	4.21e-02	0	43	0	766509056	22	6004
2026-01-09 03:15:12.81	293.08	10.47	-31.5	-36.1	7.7	6.15e-02	0	43	0	768606208	23	6124
2026-01-09 03:15:13.81	292.93	10.43	-31.6	-36.4	7.5	1.03e-01	0	43	0	770703360	23	6284
2026-01-09 03:15:14.81	292.78	10.38	-31.5	-36.3	7.5	8.81e-02	0	43	0	772800512	23	6239
2026-01-09 03:15:15.82	292.63	10.33	-31.5	-36.3	7.7	9.39e-02	0	43	0	773849088	23	6193
2026-01-09 03:15:16.82	292.47	10.28	-31.5	-35.8	8.0	9.04e-02	0	43	0	775946240	23	5935
2026-01-09 03:15:17.82	292.32	10.23	-31.5	-35.8	8.1	6.72e-02	0	43	0	778043392	23	5920
2026-01-09 03:15:18.82	292.17	10.18	-31.4	-35.4	8.4	5.19e-02	0	43	0	780140544	23	5719
2026-01-09 03:15:19.83	292.02	10.14	-31.4	-35.9	8.2	4.38e-02	0	43	0	782237696	22	6055
2026-01-09 03:15:20.84	291.87	10.09	-31.3	-35.8	8.4	4.19e-02	0	43	0	783286272	22	6004
2026-01-09 03:15:21.85	291.72	10.04	-31.3	-35.8	8.3	4.25e-02	0	43	0	785383424	22	6022
2026-01-09 03:15:22.85	291.57	9.99	-31.4	-36.3	8.0	6.04e-02	0	43	0	787480576	22	6277
2026-01-09 03:15:23.85	291.42	9.94	-31.3	-35.6	8.5	5.58e-02	0	43	0	789577728	22	5935
2026-01-09 03:15:24.86	291.27	9.89	-31.2	-35.2	8.8	3.34e-02	0	43	0	791674880	22	5736
2026-01-09 03:15:25.87	291.12	9.84	-31.1	-34.8	9.1	2.33e-02	0	43	0	792723456	22	5511
2026-01-09 03:15:26.87	290.98	9.79	-31.0	-34.3	9.5	1.57e-02	0	43	0	794820608	22	5298
2026-01-09 03:15:27.88	290.83	9.74	-30.9	-34.5	9.7	1.43e-02	0	43	0	796917760	21	5480
2026-01-09 03:15:28.88	290.68	9.69	-30.9	-34.4	9.8	1.13e-02	0	43	0	799014912	21	5443
2026-01-09 03:15:29.89	290.54	9.64	-30.9	-34.7	9.6	1.09e-02	0	43	0	801112064	21	5565
2026-01-09 03:15:30.90	290.39	9.59	-30.9	-34.6	9.6	1.30e-02	0	43	0	802160640	21	5536
2026-01-09 03:15:31.90	290.25	9.54	-30.8	-34.3	9.8	1.29e-02	0	43	0	804257792	21	5402
2026-01-09 03:15:32.91	290.10	9.49	-30.7	-33.9	10.2	8.05e-03	0	43	0	806354944	21	5223
2026-01-09 03:15:33.91	289.96	9.44	-30.6	-33.7	10.2	6.78e-03	0	43	0	808452096	21	5158
2026-01-09 03:15:34.92	289.82	9.39	-30.5	-33.3	10.5	9.42e-03	0	43	0	810549248	21	4990
2026-01-09 03:15:35.92	289.67	9.34	-30.6	-33.6	10.4	4.27e-03	0	43	0	811597824	21	5106
2026-01-09 03:15:36.92	289.53	9.29	-30.4	-33.5	10.8	3.33e-03	0	43	0	813694976	20	5144
2026-01-09 03:15:37.93	289.39	9.24	-30.4	-33.3	10.9	4.80e-03	0	43	0	815792128	20	5077
2026-01-09 03:15:38.93	289.25	9.19	-30.4	-33.4	10.8	2.76e-03	0	43	0	817889280	20	5117
2026-01-09 03:15:39.93	289.11	9.14	-30.3	-33.1	11.1	2.17e-03	0	43	0	819986432	20	4970
2026-01-09 03:15:40.94	288.97	9.09	-30.2	-33.0	11.1	3.49e-03	0	43	0	821035008	20	4948
2026-01-09 03:15:41.94	288.83	9.04	-30.1	-32.7	11.2	2.33e-03	0	43	0	823132160	20	4850
2026-01-09 03:15:42.95	288.69	8.99	-30.2	-33.1	11.0	1.52e-03	0	43	0	825229312	20	4991
2026-01-09 03:15:43.96	288.55	8.94	-30.4	-33.6	10.6	1.73e-03	0	43	0	827326464	20	5193
2026-01-09 03:15:44.96	288.41	8.89	-30.3	-33.2	10.9	3.67e-03	0	43	0	828375040	20	5026
2026-01-09 03:15:45.97	288.27	8.84	-30.2	-33.0	11.0	4.48e-03	0	43	0	830472192	20	4978
2026-01-09 03:15:46.98	288.14	8.79	-30.3	-33.2	10.9	1.70e-03	0	43	0	832569344	20	5028
2026-01-09 03:15:47.98	288.00	8.74	-30.4	-33.7	10.5	4.78e-03	0	43	0	834666496	20	5265
2026-01-09 03:15:48.99	287.86	8.69	-30.3	-33.2	10.8	4.20e-03	0	43	0	836763648	20	5029
2026-01-09 03:15:49.98	287.73	8.64	-30.4	-33.7	10.5	3.16e-03	0	43	0	838860800	20	5252
2026-01-09 03:15:50.98	287.59	8.59	-30.3	-33.5	10.7	5.50e-03	0	43	0	839909376	20	5162
2026-01-09 03:15:51.99	287.46	8.53	-30.5	-33.9	10.3	3.79e-03	0	43	0	842006528	20	5349
2026-01-09 03:15:52.99	287.32	8.48	-30.4	-33.6	10.5	7.11e-03	0	43	0	844103680	20	5227
2026-01-09 03:15:54.00	287.19	8.43	-30.5	-33.9	10.3	4.41e-03	0	43	0	846200832	20	5328
2026-01-09 03:15:55.01	287.06	8.38	-30.4	-33.3	10.3	7.39e-03	0	43	0	847249408	21	5027
2026-01-09 03:15:56.01	286.92	8.33	-30.4	-33.7	10.3	8.95e-03	0	43	0	849346560	20	5271
2026-01-09 03:15:57.02	286.79	8.28	-30.5	-33.6	10.1	5.03e-03	0	43	0	851443712	21	5136
2026-01-09 03:15:58.02	286.66	8.23	-30.4	-33.8	10.3	8.16e-03	0	43	0	853540864	20	5296
2026-01-09 03:15:59.03	286.53	8.18	-30.5	-33.6	10.1	1.05e-02	0	43	0	855638016	21	5138
2026-01-09 03:16:00.03	286.40	8.13	-30.6	-33.7	10.0	9.96e-03	0	43	0	856686592	21	5187
2026-01-09 03:16:01.03	286.27	8.07	-30.4	-33.3	10.3	8.26e-03	0	43	0	858783744	21	5007
2026-01-09 03:16:02.04	286.13	8.02	-30.4	-33.9	10.2	8.93e-03	0	43	0	860880896	20	5337
2026-01-09 03:16:03.05	286.00	7.97	-30.4	-33.7	10.3	6.34e-03	0	43	0	862978048	20	5284
2026-01-09 03:16:04.06	285.87	7.92	-30.4	-33.9	10.2	8.94e-03	0	43	0	865075200	20	5388
2026-01-09 03:16:05.06	285.75	7.87	-30.4	-33.6	10.4	8.89e-03	0	43	0	866123776	20	5247
2026-01-09 03:16:06.07	285.62	7.82	-30.4	-33.6	10.4	5.63e-03	0	43	0	868220928	20	5241
2026-01-09 03:16:07.07	285.49	7.76	-30.3	-33.3	10.6	7.06e-03	0	43	0	870318080	20	5094
2026-01-09 03:16:08.08	285.36	7.71	-30.1	-32.9	10.9	3.42e-03	0	43	0	872415232	20	4941
2026-01-09 03:16:09.08	285.24	7.66	-29.9	-32.2	11.4	2.89e-03	0	43	0	874512384	20	4689
2026-01-09 03:16:10.09	285.11	7.61	-29.8	-32.3	11.7	3.60e-03	0	43	0	875560960	19	4816
2026-01-09 03:16:11.09	284.98	7.56	-29.7	-31.9	12.0	3.27e-04	0	43	0	877658112	19	4661
2026-01-09 03:16:12.10	284.86	7.51	-29.8	-32.2	11.8	1.38e-03	0	43	0	879755264	19	4735
2026-01-09 03:16:13.11	284.73	7.45	-29.9	-32.5	11.6	3.81e-03	0	43	0	881852416	19	4885
2026-01-09 03:16:14.11	284.61	7.40	-29.9	-32.0	11.5	5.80e-03	0	43	0	883949568	20	4618
2026-01-09 03:16:15.12	284.48	7.35	-29.9	-32.5	11.6	1.01e-03	0	43	0	884998144	19	4860
2026-01-09 03:16:16.13	284.36	7.30	-29.9	-32.2	11.3	3.93e-03	0	43	0	887095296	20	4702
2026-01-09 03:16:17.13	284.23	7.25	-30.0	-32.5	11.1	6.94e-03	0	43	0	889192448	20	4810
2026-01-09 03:16:18.14	284.11	7.19	-30.0	-32.4	11.2	1.38e-03	0	43	0	891289600	20	4770
2026-01-09 03:16:19.15	283.99	7.14	-30.2	-33.1	10.7	2.47e-03	0	43	0	893386752	20	5020
2026-01-09 03:16:20.16	283.87	7.09	-29.9	-32.2	11.3	8.29e-03	0	43	0	894435328	20	4691
2026-01-09 03:16:21.16	283.74	7.04	-32.8	-45.4	3.8	1.49e+00	0	43	104	895483904	25	15269
2026-01-09 03:16:22.17	283.62	6.99	-33.3	-45.7	3.8	1.49e+00	0	43	104	895483904	26	15100
2026-01-09 03:16:23.16	283.50	6.94	-33.5	-46.2	3.8	1.49e+00	0	43	104	895483904	26	15588
2026-01-09 03:16:24.17	283.38	6.88	-33.7	-46.2	3.8	1.49e+00	0	43	104	895483904	27	15111

#Closed at: 2026-01-09 03:16:24
#Recorded file [895 MB]: D:/data/31010_260109_060822.dat