passes_logs/2026/01/09/R2M6_AANII_01/R2M6_AANII_01__20260109_114205_NOAA_20_JPSS-1_rec.log

#Pass ID: 20260109_114205_NOAA 20 (JPSS-1)
#Satellite: NOAA 20 (JPSS-1)
#Configuration: NOAA 20
#almurnet v.1.7.20240730
#Start time: 2026-01-09 11:42:07

#Version: 2.2.20231116
#Station: R2M6_AANII_01
#Location: 30.233357 lon 59.946436 lat
#TLE: 1 43013U 17073A   26008.42245989  .00000120  00000+0  77990-4 0  9996
#TLE: 2 43013  98.7631 309.4315 0001737  48.7960 311.3365 14.19534455421802

#Time	Az	El	Level	Level2	SNR	BER	BlckErr	Temp	State	Recorded	gain1	gain2
2026-01-09 11:42:07.29	205.07	7.13	-31.3	-37.6	4.9	1.25e+00	0	40	0	0	23	7438
2026-01-09 11:42:08.29	205.15	7.20	-31.5	-37.6	4.9	1.29e+00	0	40	104	0	24	7327
2026-01-09 11:42:09.29	205.23	7.27	-31.7	-38.6	6.5	2.05e-01	0	40	0	0	24	7997
2026-01-09 11:42:10.30	205.32	7.33	-31.6	-38.3	6.8	1.82e-01	0	40	0	1048576	24	7775
2026-01-09 11:42:11.31	205.40	7.40	-31.6	-38.0	6.9	1.56e-01	0	40	0	3145728	24	7584
2026-01-09 11:42:12.31	205.49	7.47	-31.7	-39.0	6.2	1.99e-01	0	41	0	5242880	24	8290
2026-01-09 11:42:13.32	205.57	7.54	-31.6	-38.1	7.0	1.87e-01	0	41	0	7340032	24	7583
2026-01-09 11:42:14.32	205.66	7.61	-31.6	-38.4	6.5	1.89e-01	0	41	0	9437184	24	7858
2026-01-09 11:42:15.33	205.74	7.68	-31.7	-38.9	6.2	2.79e-01	0	41	0	10485760	24	8298
2026-01-09 11:42:16.34	205.83	7.75	-31.5	-38.0	6.8	2.38e-01	0	41	0	12582912	24	7618
2026-01-09 11:42:17.34	205.92	7.81	-31.4	-37.5	7.1	1.50e-01	0	41	0	14680064	24	7257
2026-01-09 11:42:18.34	206.00	7.88	-31.2	-37.0	7.9	4.85e-02	0	41	0	16777216	23	7026
2026-01-09 11:42:19.35	206.09	7.95	-30.8	-35.7	9.2	3.78e-02	0	41	0	18874368	22	6378
2026-01-09 11:42:20.35	206.18	8.02	-30.8	-36.1	8.9	2.39e-02	0	41	0	19922944	22	6575
2026-01-09 11:42:21.36	206.27	8.09	-30.9	-36.4	8.6	4.20e-02	0	41	0	22020096	22	6790
2026-01-09 11:42:22.37	206.36	8.16	-30.8	-36.1	8.8	5.15e-02	0	41	0	24117248	22	6603
2026-01-09 11:42:23.37	206.45	8.23	-30.8	-35.8	8.9	2.82e-02	0	41	0	26214400	22	6460
2026-01-09 11:42:24.37	206.54	8.30	-30.6	-35.2	9.5	1.62e-02	0	41	0	28311552	22	6088
2026-01-09 11:42:25.38	206.63	8.37	-30.5	-34.7	9.9	1.49e-02	0	41	0	29360128	22	5830
2026-01-09 11:42:26.38	206.72	8.44	-30.9	-36.5	8.5	2.02e-02	0	41	0	31457280	22	6811
2026-01-09 11:42:27.38	206.81	8.51	-31.1	-37.3	7.9	7.84e-02	0	41	0	33554432	22	7300
2026-01-09 11:42:28.39	206.90	8.58	-31.0	-36.8	8.2	4.33e-02	0	41	0	35651584	22	6986
2026-01-09 11:42:29.40	206.99	8.65	-31.2	-37.3	8.0	4.84e-02	0	41	0	37748736	22	7300
2026-01-09 11:42:30.40	207.08	8.72	-31.2	-37.6	7.7	6.18e-02	0	41	0	38797312	22	7470
2026-01-09 11:42:31.41	207.18	8.79	-31.3	-37.5	7.9	5.84e-02	0	41	0	40894464	22	7362
2026-01-09 11:42:32.41	207.27	8.86	-30.8	-35.2	10.0	3.69e-02	0	41	0	42991616	22	6000
2026-01-09 11:42:33.42	207.36	8.93	-30.5	-33.9	11.2	5.68e-03	0	41	0	45088768	22	5370
2026-01-09 11:42:34.43	207.46	9.00	-30.3	-33.8	11.7	5.92e-04	0	41	0	46137344	21	5406
2026-01-09 11:42:35.42	207.55	9.07	-30.4	-34.3	11.4	7.41e-04	0	41	0	48234496	21	5622
2026-01-09 11:42:36.43	207.65	9.15	-30.6	-34.9	10.9	1.63e-03	0	41	0	50331648	21	5894
2026-01-09 11:42:37.43	207.74	9.22	-30.6	-34.8	11.1	1.83e-03	0	41	0	52428800	21	5828
2026-01-09 11:42:38.43	207.84	9.29	-30.4	-34.1	11.5	1.27e-03	0	41	0	54525952	21	5537
2026-01-09 11:42:39.44	207.93	9.36	-30.1	-33.3	12.1	6.73e-04	0	42	0	55574528	21	5196
2026-01-09 11:42:40.44	208.03	9.43	-30.0	-33.0	12.3	1.83e-04	0	41	0	57671680	21	5087
2026-01-09 11:42:41.46	208.13	9.51	-30.0	-32.8	12.5	1.08e-04	0	41	0	59768832	21	5022
2026-01-09 11:42:42.46	208.22	9.58	-30.1	-33.2	12.2	1.27e-04	0	41	0	61865984	21	5143
2026-01-09 11:42:43.47	208.32	9.65	-30.1	-33.1	12.2	2.25e-04	0	41	0	63963136	21	5131
2026-01-09 11:42:44.48	208.42	9.72	-30.0	-32.8	12.5	1.10e-04	0	41	0	65011712	21	5014
2026-01-09 11:42:45.48	208.52	9.80	-30.0	-32.9	12.4	2.10e-04	0	42	0	67108864	21	5051
2026-01-09 11:42:46.49	208.62	9.87	-30.0	-33.1	12.3	2.88e-04	0	42	0	69206016	21	5109
2026-01-09 11:42:47.50	208.72	9.94	-30.1	-33.4	12.2	2.27e-04	0	41	0	71303168	21	5219
2026-01-09 11:42:48.51	208.82	10.02	-30.3	-33.8	11.9	3.03e-04	0	42	0	73400320	21	5391
2026-01-09 11:42:49.51	208.92	10.09	-30.2	-33.6	12.0	5.03e-04	0	42	0	74448896	21	5302
2026-01-09 11:42:50.52	209.02	10.16	-30.1	-33.4	12.1	2.27e-04	0	42	0	76546048	21	5228
2026-01-09 11:42:51.52	209.12	10.24	-30.2	-33.6	11.9	3.75e-04	0	41	0	78643200	21	5324
2026-01-09 11:42:52.53	209.23	10.31	-29.9	-32.6	12.7	2.18e-04	0	42	0	80740352	21	4906
2026-01-09 11:42:53.53	209.33	10.38	-29.9	-32.5	12.7	7.85e-05	0	42	0	82837504	21	4900
2026-01-09 11:42:54.54	209.43	10.46	-29.8	-32.4	12.8	7.47e-05	0	42	0	83886080	21	4859
2026-01-09 11:42:55.54	209.54	10.53	-29.8	-32.4	12.9	5.03e-05	0	42	0	85983232	21	4831
2026-01-09 11:42:56.55	209.64	10.61	-29.8	-32.9	12.8	4.34e-05	0	42	0	88080384	20	5145
2026-01-09 11:42:57.55	209.75	10.68	-29.9	-33.0	12.8	5.72e-05	0	42	0	90177536	20	5149
2026-01-09 11:42:58.56	209.85	10.75	-29.8	-32.9	12.9	4.57e-05	0	42	0	92274688	20	5130
2026-01-09 11:42:59.57	209.96	10.83	-29.9	-33.1	12.7	5.87e-05	0	42	0	93323264	20	5201
2026-01-09 11:43:00.57	210.06	10.90	-29.9	-33.2	12.6	1.07e-04	0	42	0	95420416	20	5245
2026-01-09 11:43:01.58	210.17	10.98	-29.9	-33.1	12.7	8.69e-05	0	42	0	97517568	20	5213
2026-01-09 11:43:02.58	210.28	11.05	-29.9	-33.2	12.7	7.70e-05	0	42	0	99614720	20	5249
2026-01-09 11:43:03.59	210.39	11.13	-29.9	-33.2	12.7	9.61e-05	0	42	0	101711872	20	5230
2026-01-09 11:43:04.60	210.50	11.20	-29.7	-32.7	13.0	7.01e-05	0	42	0	102760448	20	5047
2026-01-09 11:43:05.60	210.60	11.28	-29.7	-32.5	13.1	2.89e-05	0	42	0	104857600	20	4979
2026-01-09 11:43:06.61	210.71	11.36	-29.8	-32.9	12.9	4.27e-05	0	42	0	106954752	20	5136
2026-01-09 11:43:07.61	210.82	11.43	-29.9	-33.0	12.8	7.09e-05	0	42	0	109051904	20	5160
2026-01-09 11:43:08.61	210.93	11.51	-29.8	-33.0	12.8	5.11e-05	0	42	0	111149056	20	5153
2026-01-09 11:43:09.61	211.04	11.58	-29.9	-33.2	12.7	8.01e-05	0	42	0	112197632	20	5226
2026-01-09 11:43:10.62	211.16	11.66	-29.9	-33.1	12.7	8.01e-05	0	42	0	114294784	20	5191
2026-01-09 11:43:11.62	211.27	11.73	-29.9	-33.1	12.7	7.32e-05	0	42	0	116391936	20	5212
2026-01-09 11:43:12.63	211.38	11.81	-29.8	-32.8	12.9	5.95e-05	0	42	0	118489088	20	5085
2026-01-09 11:43:13.63	211.50	11.89	-29.7	-32.5	13.2	3.58e-05	0	42	0	120586240	20	4981
2026-01-09 11:43:14.64	211.61	11.97	-29.6	-32.3	13.3	1.98e-05	0	42	0	121634816	20	4898
2026-01-09 11:43:15.64	211.72	12.04	-29.7	-32.4	13.2	1.67e-05	0	42	0	123731968	20	4936
2026-01-09 11:43:16.65	211.84	12.12	-29.7	-32.4	13.3	1.60e-05	0	42	0	125829120	20	4937
2026-01-09 11:43:17.66	211.96	12.20	-29.7	-32.5	13.2	1.98e-05	0	42	0	127926272	20	4980
2026-01-09 11:43:18.66	212.07	12.27	-29.6	-32.3	13.4	1.52e-05	0	42	0	130023424	20	4885
2026-01-09 11:43:19.67	212.19	12.35	-29.7	-32.5	13.2	1.52e-05	0	42	0	131072000	20	4985
2026-01-09 11:43:20.68	212.31	12.43	-29.7	-32.4	13.3	1.75e-05	0	42	0	133169152	20	4934
2026-01-09 11:43:21.68	212.43	12.51	-29.7	-32.4	13.3	1.83e-05	0	42	0	135266304	20	4945
2026-01-09 11:43:22.68	212.54	12.58	-29.8	-32.7	13.1	2.05e-05	0	42	0	137363456	20	5047
2026-01-09 11:43:23.69	212.66	12.66	-29.8	-32.8	13.0	4.88e-05	0	42	0	139460608	20	5084
2026-01-09 11:43:24.69	212.78	12.74	-29.9	-32.9	12.9	3.58e-05	0	42	0	140509184	20	5134
2026-01-09 11:43:25.70	212.90	12.82	-30.0	-33.2	12.8	4.65e-05	0	42	0	142606336	20	5221
2026-01-09 11:43:26.70	213.02	12.90	-30.0	-33.2	12.8	6.63e-05	0	42	0	144703488	20	5249
2026-01-09 11:43:27.71	213.15	12.98	-30.0	-33.3	12.7	8.77e-05	0	42	0	146800640	20	5280
2026-01-09 11:43:28.71	213.27	13.05	-30.0	-33.2	12.7	9.30e-05	0	42	0	148897792	20	5235
2026-01-09 11:43:29.71	213.39	13.13	-30.1	-33.6	12.4	9.46e-05	0	42	0	149946368	20	5406
2026-01-09 11:43:30.72	213.52	13.21	-30.0	-33.3	12.7	5.72e-05	0	42	0	152043520	20	5247
2026-01-09 11:43:31.73	213.64	13.29	-30.0	-33.4	12.7	1.01e-04	0	42	0	154140672	20	5300
2026-01-09 11:43:32.74	213.77	13.37	-29.8	-32.6	13.2	4.19e-05	0	42	0	156237824	20	5012
2026-01-09 11:43:33.74	213.89	13.45	-30.0	-33.2	12.8	5.41e-05	0	42	0	158334976	20	5234
2026-01-09 11:43:34.75	214.02	13.53	-29.8	-32.8	13.1	5.87e-05	0	42	0	159383552	20	5050
2026-01-09 11:43:35.75	214.14	13.61	-29.7	-32.5	13.3	1.29e-05	0	42	0	161480704	20	4969
2026-01-09 11:43:36.76	214.27	13.69	-29.8	-32.6	13.2	1.83e-05	0	42	0	163577856	20	5000
2026-01-09 11:43:37.77	214.40	13.77	-29.7	-32.5	13.3	1.83e-05	0	42	0	165675008	20	4963
2026-01-09 11:43:38.77	214.53	13.85	-29.8	-32.6	13.3	1.75e-05	0	42	0	167772160	20	5007
2026-01-09 11:43:39.78	214.66	13.93	-29.8	-32.8	13.1	2.51e-05	0	42	0	168820736	20	5079
2026-01-09 11:43:40.79	214.79	14.01	-29.9	-32.8	13.1	3.20e-05	0	42	0	170917888	20	5082
2026-01-09 11:43:41.79	214.92	14.09	-29.7	-32.4	13.4	2.67e-05	0	42	0	173015040	20	4933
2026-01-09 11:43:42.79	215.05	14.17	-29.8	-32.8	13.2	1.06e-05	0	42	0	175112192	20	5069
2026-01-09 11:43:43.80	215.19	14.25	-29.9	-32.9	13.1	3.05e-05	0	42	0	177209344	20	5081
2026-01-09 11:43:44.81	215.32	14.33	-30.0	-33.3	12.8	3.05e-05	0	42	0	178257920	20	5259
2026-01-09 11:43:45.81	215.45	14.41	-29.9	-32.9	13.1	5.26e-05	0	42	0	180355072	20	5107
2026-01-09 11:43:46.81	215.59	14.49	-29.8	-32.7	13.2	2.13e-05	0	42	0	182452224	20	5044
2026-01-09 11:43:47.82	215.72	14.58	-29.9	-32.9	13.1	1.90e-05	0	42	0	184549376	20	5081
2026-01-09 11:43:48.83	215.86	14.66	-29.8	-32.8	13.2	3.20e-05	0	42	0	186646528	20	5063
2026-01-09 11:43:49.83	216.00	14.74	-29.8	-32.6	13.3	2.21e-05	0	42	0	187695104	20	4993
2026-01-09 11:43:50.84	216.13	14.82	-29.8	-32.6	13.3	1.67e-05	0	42	0	189792256	20	4999
2026-01-09 11:43:51.85	216.27	14.90	-29.8	-32.7	13.3	1.75e-05	0	42	0	191889408	20	5021
2026-01-09 11:43:52.85	216.41	14.98	-29.8	-32.7	13.3	2.05e-05	0	42	0	193986560	20	5021
2026-01-09 11:43:53.86	216.55	15.07	-29.8	-32.7	13.3	2.05e-05	0	42	0	196083712	20	5001
2026-01-09 11:43:54.86	216.69	15.15	-29.8	-32.7	13.3	1.22e-05	0	42	0	197132288	20	5037
2026-01-09 11:43:55.87	216.83	15.23	-29.8	-32.8	13.2	1.52e-05	0	42	0	199229440	20	5051
2026-01-09 11:43:56.87	216.97	15.31	-30.1	-33.4	12.8	4.19e-05	0	42	0	201326592	20	5274
2026-01-09 11:43:57.88	217.12	15.40	-30.0	-33.1	13.0	4.88e-05	0	42	0	203423744	20	5174
2026-01-09 11:43:58.89	217.26	15.48	-30.0	-33.2	13.0	2.13e-05	0	42	0	204472320	20	5208
2026-01-09 11:43:59.89	217.40	15.56	-29.9	-33.0	13.2	2.59e-05	0	42	0	206569472	20	5109
2026-01-09 11:44:00.90	217.55	15.64	-29.9	-33.0	13.1	2.74e-05	0	42	0	208666624	20	5124
2026-01-09 11:44:01.90	217.70	15.73	-29.9	-32.9	13.2	3.43e-05	0	42	0	210763776	20	5095
2026-01-09 11:44:02.91	217.84	15.81	-29.9	-32.8	13.3	2.13e-05	0	42	0	212860928	20	5055
2026-01-09 11:44:03.92	217.99	15.89	-29.9	-32.9	13.2	3.66e-05	0	42	0	214958080	20	5101
2026-01-09 11:44:04.93	218.14	15.98	-29.8	-32.6	13.3	2.05e-05	0	42	0	216006656	20	4983
2026-01-09 11:44:05.94	218.29	16.06	-29.7	-32.3	13.6	7.60e-06	0	42	0	218103808	20	4871
2026-01-09 11:44:06.95	218.44	16.14	-29.6	-32.2	13.7	7.60e-06	0	42	0	220200960	20	4822
2026-01-09 11:44:07.96	218.59	16.23	-29.8	-32.7	13.4	1.14e-05	0	42	0	222298112	20	4994
2026-01-09 11:44:08.96	218.74	16.31	-29.8	-32.5	13.5	1.29e-05	0	42	0	224395264	20	4947
2026-01-09 11:44:09.97	218.89	16.40	-29.8	-32.5	13.5	7.60e-06	0	42	0	225443840	20	4951
2026-01-09 11:44:10.97	219.05	16.48	-29.8	-32.7	13.4	1.22e-05	0	42	0	227540992	20	5027
2026-01-09 11:44:11.97	219.20	16.56	-30.0	-33.1	13.1	2.21e-05	0	42	0	229638144	20	5154
2026-01-09 11:44:12.97	219.35	16.65	-30.0	-33.1	13.1	3.28e-05	0	42	0	231735296	20	5149
2026-01-09 11:44:13.97	219.51	16.73	-29.8	-32.6	13.4	1.14e-05	0	42	0	232783872	20	4973
2026-01-09 11:44:14.98	219.67	16.81	-30.0	-33.1	13.2	2.13e-05	0	42	0	234881024	20	5141
2026-01-09 11:44:15.98	219.82	16.90	-29.9	-33.0	13.2	1.52e-05	0	42	0	236978176	20	5127
2026-01-09 11:44:16.99	219.98	16.98	-29.9	-33.0	13.2	1.06e-05	0	42	0	239075328	20	5114
2026-01-09 11:44:18.00	220.14	17.07	-30.2	-33.7	12.7	4.95e-05	0	42	0	241172480	20	5406
2026-01-09 11:44:19.00	220.30	17.15	-29.8	-32.5	13.6	2.28e-05	0	42	0	243269632	20	4915
2026-01-09 11:44:20.01	220.46	17.24	-29.9	-32.7	13.4	1.67e-05	0	42	0	244318208	20	5016
2026-01-09 11:44:21.01	220.62	17.32	-30.0	-33.1	13.1	1.90e-05	0	42	0	246415360	20	5160
2026-01-09 11:44:22.02	220.78	17.41	-30.0	-33.2	13.0	2.13e-05	0	42	0	248512512	20	5209
2026-01-09 11:44:23.02	220.95	17.49	-30.0	-33.3	13.1	3.28e-05	0	42	0	250609664	20	5214
2026-01-09 11:44:24.02	221.11	17.58	-30.3	-34.0	12.6	9.53e-05	0	42	0	251658240	20	5499
2026-01-09 11:44:25.03	221.28	17.66	-30.0	-33.1	13.2	3.66e-05	0	42	0	253755392	20	5148
2026-01-09 11:44:26.04	221.44	17.75	-29.7	-32.3	13.7	1.52e-05	0	42	0	255852544	20	4876
2026-01-09 11:44:27.04	221.61	17.83	-29.5	-31.9	14.0	6.10e-06	0	43	0	257949696	20	4711
2026-01-09 11:44:28.05	221.78	17.92	-29.4	-31.6	14.2	5.30e-06	0	42	0	260046848	20	4611
2026-01-09 11:44:29.06	221.95	18.00	-29.4	-31.4	14.3	2.20e-06	0	42	0	261095424	20	4541
2026-01-09 11:44:30.06	222.12	18.09	-29.6	-32.4	14.0	7.00e-07	0	42	0	263192576	19	4990
2026-01-09 11:44:31.07	222.29	18.17	-29.3	-31.7	14.5	7.00e-07	0	42	0	265289728	19	4727
2026-01-09 11:44:32.08	222.46	18.26	-29.2	-31.3	14.8	0.00e+00	0	42	0	267386880	19	4616
2026-01-09 11:44:33.08	222.63	18.34	-29.0	-31.0	14.9	0.00e+00	0	42	0	269484032	19	4515
2026-01-09 11:44:34.09	222.81	18.43	-29.1	-31.3	14.8	4.50e-06	0	42	0	271581184	19	4603
2026-01-09 11:44:35.10	222.98	18.52	-29.3	-31.6	14.6	1.50e-06	0	42	0	272629760	19	4711
2026-01-09 11:44:36.11	223.16	18.60	-29.1	-31.2	14.8	7.00e-07	0	42	0	274726912	19	4589
2026-01-09 11:44:37.11	223.33	18.69	-29.1	-31.1	14.9	5.30e-06	0	43	0	276824064	19	4559
2026-01-09 11:44:38.12	223.51	18.77	-29.1	-31.2	14.9	0.00e+00	0	43	0	278921216	19	4569
2026-01-09 11:44:39.12	223.69	18.86	-29.3	-31.7	14.5	0.00e+00	0	42	0	279969792	19	4744
2026-01-09 11:44:40.12	223.87	18.94	-29.1	-31.1	14.9	0.00e+00	0	42	0	282066944	19	4563
2026-01-09 11:44:41.12	224.05	19.03	-29.0	-31.0	15.0	0.00e+00	0	43	0	284164096	19	4503
2026-01-09 11:44:42.13	224.23	19.11	-29.1	-31.2	14.9	0.00e+00	0	42	0	286261248	19	4566
2026-01-09 11:44:43.14	224.41	19.20	-29.2	-31.4	14.8	3.80e-06	0	43	0	288358400	19	4636
2026-01-09 11:44:44.14	224.59	19.29	-29.1	-31.2	14.9	0.00e+00	0	43	0	289406976	19	4572
2026-01-09 11:44:45.14	224.78	19.37	-29.2	-31.3	14.8	0.00e+00	0	43	0	291504128	19	4615
2026-01-09 11:44:46.15	224.96	19.46	-29.1	-31.2	14.9	3.00e-06	0	42	0	293601280	19	4570
2026-01-09 11:44:47.15	225.15	19.54	-29.1	-31.1	15.0	0.00e+00	0	42	0	295698432	19	4552
2026-01-09 11:44:48.15	225.33	19.63	-29.0	-31.0	15.1	0.00e+00	0	42	0	297795584	19	4502
2026-01-09 11:44:49.16	225.52	19.71	-29.1	-31.1	15.0	3.00e-06	0	42	0	298844160	19	4536
2026-01-09 11:44:50.16	225.71	19.80	-29.2	-31.4	14.8	7.00e-07	0	42	0	300941312	19	4632
2026-01-09 11:44:51.17	225.90	19.89	-29.0	-30.8	15.2	0.00e+00	0	42	0	303038464	19	4432
2026-01-09 11:44:52.17	226.09	19.97	-29.0	-30.8	15.1	3.80e-06	0	42	0	305135616	19	4459
2026-01-09 11:44:53.18	226.29	20.06	-29.0	-30.9	15.2	0.00e+00	0	43	0	307232768	19	4464
2026-01-09 11:44:54.19	226.48	20.14	-29.0	-30.8	15.2	0.00e+00	0	43	0	308281344	19	4445
2026-01-09 11:44:55.19	226.67	20.23	-28.9	-30.7	15.3	4.50e-06	0	42	0	310378496	19	4403
2026-01-09 11:44:56.20	226.87	20.31	-28.9	-30.6	15.3	0.00e+00	0	42	0	312475648	19	4396
2026-01-09 11:44:57.21	227.07	20.40	-28.8	-30.4	15.4	0.00e+00	0	43	0	314572800	19	4339
2026-01-09 11:44:58.21	227.26	20.49	-28.8	-30.3	15.5	0.00e+00	0	43	0	316669952	19	4301
2026-01-09 11:44:59.22	227.46	20.57	-28.8	-30.8	15.5	0.00e+00	0	43	0	317718528	18	4549
2026-01-09 11:45:00.22	227.66	20.66	-28.7	-30.5	15.7	0.00e+00	0	42	0	319815680	18	4462
2026-01-09 11:45:01.23	227.86	20.74	-28.7	-30.7	15.5	0.00e+00	0	43	0	321912832	18	4530
2026-01-09 11:45:02.23	228.07	20.83	-28.8	-30.9	15.5	0.00e+00	0	43	0	324009984	18	4574
2026-01-09 11:45:03.23	228.27	20.91	-28.9	-31.2	15.2	0.00e+00	0	42	0	326107136	18	4675
2026-01-09 11:45:04.24	228.47	21.00	-28.6	-30.5	15.7	0.00e+00	0	42	0	327155712	18	4445
2026-01-09 11:45:05.24	228.68	21.08	-28.5	-30.0	16.0	0.00e+00	0	42	0	329252864	18	4318
2026-01-09 11:45:06.25	228.88	21.17	-28.5	-30.1	15.9	0.00e+00	0	42	0	331350016	18	4342
2026-01-09 11:45:07.25	229.09	21.25	-28.5	-30.2	15.8	0.00e+00	0	43	0	333447168	18	4373
2026-01-09 11:45:08.26	229.30	21.34	-28.6	-30.3	15.9	0.00e+00	0	43	0	335544320	18	4385
2026-01-09 11:45:09.27	229.51	21.42	-28.8	-30.8	15.5	0.00e+00	0	43	0	336592896	18	4546
2026-01-09 11:45:10.28	229.72	21.51	-28.6	-30.4	15.8	0.00e+00	0	42	0	338690048	18	4415
2026-01-09 11:45:11.28	229.93	21.59	-28.3	-29.7	16.2	0.00e+00	0	43	0	340787200	18	4208
2026-01-09 11:45:12.28	230.15	21.68	-28.2	-29.9	16.3	0.00e+00	0	43	0	342884352	17	4374
2026-01-09 11:45:13.29	230.36	21.76	-28.3	-30.1	16.2	0.00e+00	0	43	0	344981504	17	4440
2026-01-09 11:45:14.30	230.58	21.85	-28.4	-30.4	16.1	0.00e+00	0	43	0	346030080	17	4511
2026-01-09 11:45:15.30	230.79	21.93	-28.4	-30.4	16.1	0.00e+00	0	43	0	348127232	17	4521
2026-01-09 11:45:16.31	231.01	22.01	-28.6	-30.8	15.9	0.00e+00	0	42	0	350224384	17	4642
2026-01-09 11:45:17.31	231.23	22.10	-28.6	-30.9	15.8	0.00e+00	0	43	0	352321536	17	4684
2026-01-09 11:45:18.31	231.45	22.18	-28.7	-31.2	15.6	0.00e+00	0	42	0	354418688	17	4770
2026-01-09 11:45:19.32	231.67	22.26	-28.8	-31.4	15.5	0.00e+00	0	43	0	355467264	17	4842
2026-01-09 11:45:20.32	231.89	22.35	-28.8	-31.4	15.5	0.00e+00	0	43	0	357564416	17	4855
2026-01-09 11:45:21.33	232.12	22.43	-29.0	-31.8	15.3	0.00e+00	0	43	0	359661568	17	4970
2026-01-09 11:45:22.34	232.34	22.51	-29.2	-31.8	15.0	0.00e+00	0	42	0	361758720	18	4858
2026-01-09 11:45:23.34	232.57	22.60	-29.4	-32.3	14.6	0.00e+00	0	42	0	363855872	18	5051
2026-01-09 11:45:24.35	232.79	22.68	-29.2	-31.9	14.9	0.00e+00	0	42	0	364904448	18	4904
2026-01-09 11:45:25.36	233.02	22.76	-29.3	-32.2	14.8	0.00e+00	0	43	0	367001600	18	4987
2026-01-09 11:45:26.36	233.25	22.84	-29.2	-31.9	14.9	0.00e+00	0	43	0	369098752	18	4893
2026-01-09 11:45:27.37	233.48	22.93	-29.3	-32.0	14.9	0.00e+00	0	43	0	371195904	18	4943
2026-01-09 11:45:28.37	233.71	23.01	-29.4	-32.2	14.8	0.00e+00	0	43	0	373293056	18	5008
2026-01-09 11:45:29.37	233.95	23.09	-29.6	-32.2	14.4	1.50e-06	0	43	0	374341632	19	4904
2026-01-09 11:45:30.37	234.18	23.17	-29.3	-31.6	14.8	7.00e-07	0	43	0	376438784	19	4693
2026-01-09 11:45:31.38	234.41	23.25	-29.2	-31.4	15.0	0.00e+00	0	43	0	378535936	19	4607
2026-01-09 11:45:32.39	234.65	23.33	-29.1	-31.1	15.1	7.00e-07	0	43	0	380633088	19	4523
2026-01-09 11:45:33.40	234.89	23.41	-29.3	-31.6	14.8	0.00e+00	0	43	0	382730240	19	4696
2026-01-09 11:45:34.40	235.13	23.49	-29.3	-31.7	14.8	0.00e+00	0	42	0	383778816	19	4720
2026-01-09 11:45:35.41	235.37	23.57	-29.4	-31.9	14.6	1.50e-06	0	43	0	385875968	19	4783
2026-01-09 11:45:36.42	235.61	23.65	-29.5	-32.1	14.5	0.00e+00	0	43	0	387973120	19	4856
2026-01-09 11:45:37.43	235.86	23.73	-29.5	-32.2	14.5	1.50e-06	0	43	0	390070272	19	4877
2026-01-09 11:45:38.44	236.10	23.81	-29.4	-31.7	14.8	7.00e-07	0	43	0	391118848	19	4717
2026-01-09 11:45:39.44	236.34	23.89	-29.3	-31.5	14.8	0.00e+00	0	43	0	393216000	19	4657
2026-01-09 11:45:40.45	236.59	23.97	-29.3	-31.6	14.8	0.00e+00	0	43	0	395313152	19	4696
2026-01-09 11:45:41.45	236.84	24.05	-29.4	-31.9	14.7	0.00e+00	0	42	0	397410304	19	4771
2026-01-09 11:45:42.46	237.09	24.13	-29.5	-32.1	14.5	0.00e+00	0	42	0	399507456	19	4860
2026-01-09 11:45:43.47	237.34	24.21	-29.6	-32.4	14.4	1.50e-06	0	42	0	401604608	19	4932
2026-01-09 11:45:44.48	237.59	24.28	-29.6	-32.3	14.4	1.50e-06	0	43	0	402653184	19	4911
2026-01-09 11:45:45.49	237.84	24.36	-29.5	-32.2	14.6	7.00e-07	0	43	0	404750336	19	4864
2026-01-09 11:45:46.49	238.10	24.44	-29.6	-32.4	14.4	7.00e-07	0	43	0	406847488	19	4948
2026-01-09 11:45:47.50	238.35	24.51	-29.6	-32.3	14.4	2.20e-06	0	43	0	408944640	19	4918
2026-01-09 11:45:48.51	238.61	24.59	-29.6	-32.2	14.5	2.20e-06	0	43	0	411041792	19	4865
2026-01-09 11:45:49.52	238.87	24.67	-29.6	-32.4	14.4	0.00e+00	0	43	0	412090368	19	4948
2026-01-09 11:45:50.52	239.12	24.74	-29.6	-32.4	14.4	7.00e-07	0	42	0	414187520	19	4946
2026-01-09 11:45:51.53	239.38	24.82	-29.6	-32.2	14.5	5.30e-06	0	43	0	416284672	19	4892
2026-01-09 11:45:52.53	239.64	24.89	-29.6	-32.4	14.4	0.00e+00	0	42	0	418381824	19	4935
2026-01-09 11:45:53.54	239.91	24.97	-29.7	-32.6	14.3	0.00e+00	0	43	0	420478976	19	5026
2026-01-09 11:45:54.54	240.17	25.04	-29.9	-33.0	14.0	8.30e-06	0	43	0	421527552	19	5153
2026-01-09 11:45:55.55	240.43	25.11	-29.9	-33.0	14.0	3.00e-06	0	43	0	423624704	19	5175
2026-01-09 11:45:56.56	240.70	25.19	-29.9	-32.7	13.8	7.00e-07	0	43	0	425721856	20	4960
2026-01-09 11:45:57.56	240.96	25.26	-30.1	-33.2	13.5	1.14e-05	0	42	0	427819008	20	5143
2026-01-09 11:45:58.57	241.23	25.33	-30.2	-33.3	13.4	2.51e-05	0	43	0	429916160	20	5183
2026-01-09 11:45:59.57	241.50	25.40	-30.1	-33.1	13.6	1.06e-05	0	43	0	430964736	20	5091
2026-01-09 11:46:00.57	241.77	25.47	-30.1	-33.2	13.5	1.75e-05	0	43	0	433061888	20	5123
2026-01-09 11:46:01.58	242.04	25.54	-30.2	-33.5	13.3	2.36e-05	0	43	0	435159040	20	5252
2026-01-09 11:46:02.58	242.31	25.61	-30.3	-33.8	13.1	2.44e-05	0	43	0	437256192	20	5362
2026-01-09 11:46:03.59	242.59	25.68	-30.4	-34.0	13.0	2.89e-05	0	43	0	438304768	20	5460
2026-01-09 11:46:04.60	242.86	25.75	-30.5	-33.7	12.8	5.34e-05	0	43	0	440401920	21	5216
2026-01-09 11:46:05.60	243.14	25.82	-30.6	-33.9	12.7	4.27e-05	0	42	0	442499072	21	5309
2026-01-09 11:46:06.61	243.42	25.89	-30.6	-34.1	12.6	9.68e-05	0	43	0	444596224	21	5375
2026-01-09 11:46:07.62	243.70	25.96	-30.7	-34.3	12.5	1.15e-04	0	43	0	446693376	21	5434
2026-01-09 11:46:08.62	243.98	26.02	-30.8	-34.7	12.2	1.44e-04	0	43	0	448790528	21	5607
2026-01-09 11:46:09.62	244.25	26.09	-30.7	-34.4	12.4	1.65e-04	0	43	0	449839104	21	5505
2026-01-09 11:46:10.63	244.54	26.15	-30.7	-34.2	12.5	1.05e-04	0	43	0	451936256	21	5413
2026-01-09 11:46:11.62	244.82	26.22	-30.7	-34.3	12.4	1.15e-04	0	43	0	454033408	21	5472
2026-01-09 11:46:12.63	245.10	26.28	-30.7	-34.3	12.4	1.82e-04	0	43	0	456130560	21	5468
2026-01-09 11:46:13.64	245.39	26.35	-30.7	-34.3	12.5	1.05e-04	0	43	0	457179136	21	5449
2026-01-09 11:46:14.64	245.67	26.41	-30.8	-34.6	12.3	1.88e-04	0	43	0	459276288	21	5598
2026-01-09 11:46:15.64	245.96	26.47	-30.9	-34.9	12.0	2.72e-04	0	43	0	461373440	21	5701
2026-01-09 11:46:16.65	246.25	26.54	-31.0	-35.2	11.9	3.24e-04	0	43	0	463470592	21	5855
2026-01-09 11:46:17.66	246.54	26.60	-31.0	-34.7	11.9	4.25e-04	0	43	0	465567744	22	5530
2026-01-09 11:46:18.66	246.83	26.66	-31.1	-35.1	11.6	5.35e-04	0	43	0	466616320	22	5668
2026-01-09 11:46:19.67	247.12	26.72	-31.1	-35.0	11.7	8.18e-04	0	43	0	468713472	22	5621
2026-01-09 11:46:20.68	247.42	26.78	-31.1	-35.0	11.7	5.66e-04	0	43	0	470810624	22	5625
2026-01-09 11:46:21.69	247.71	26.84	-31.1	-35.1	11.5	6.68e-04	0	42	0	472907776	22	5707
2026-01-09 11:46:22.69	248.00	26.90	-31.0	-34.8	11.8	7.70e-04	0	43	0	475004928	22	5556
2026-01-09 11:46:23.70	248.30	26.96	-30.9	-34.5	12.0	3.22e-04	0	43	0	477102080	22	5444
2026-01-09 11:46:24.70	248.60	27.01	-30.9	-34.4	12.1	2.49e-04	0	43	0	478150656	22	5379
2026-01-09 11:46:25.70	248.89	27.07	-30.9	-34.3	12.2	2.41e-04	0	43	0	480247808	22	5356
2026-01-09 11:46:26.71	249.19	27.12	-30.9	-34.4	12.1	2.89e-04	0	43	0	482344960	22	5403
2026-01-09 11:46:27.72	249.50	27.18	-30.8	-34.2	12.2	2.16e-04	0	43	0	484442112	22	5283
2026-01-09 11:46:28.73	249.80	27.23	-30.8	-34.1	12.3	1.88e-04	0	42	0	485490688	22	5270
2026-01-09 11:46:29.73	250.10	27.29	-30.8	-33.9	12.4	1.74e-04	0	43	0	487587840	22	5195
2026-01-09 11:46:30.74	250.40	27.34	-30.7	-33.8	12.6	1.27e-04	0	43	0	489684992	22	5126
2026-01-09 11:46:31.74	250.71	27.39	-30.7	-33.8	12.5	8.85e-05	0	43	0	491782144	22	5125
2026-01-09 11:46:32.75	251.01	27.44	-30.8	-34.1	12.3	1.16e-04	0	43	0	493879296	22	5245
2026-01-09 11:46:33.76	251.32	27.49	-30.7	-33.8	12.6	1.07e-04	0	43	0	494927872	22	5131
2026-01-09 11:46:34.77	251.63	27.54	-30.8	-34.1	12.4	1.14e-04	0	43	0	497025024	22	5254
2026-01-09 11:46:35.77	251.93	27.59	-30.8	-34.0	12.4	1.43e-04	0	43	0	499122176	22	5217
2026-01-09 11:46:36.77	252.24	27.64	-30.8	-34.1	12.4	1.62e-04	0	43	0	501219328	22	5265
2026-01-09 11:46:37.78	252.55	27.69	-30.8	-34.2	12.3	1.65e-04	0	43	0	503316480	22	5299
2026-01-09 11:46:38.79	252.86	27.73	-30.7	-33.7	12.6	1.53e-04	0	43	0	504365056	22	5095
2026-01-09 11:46:39.80	253.18	27.78	-30.7	-33.7	12.6	8.85e-05	0	43	0	506462208	22	5101
2026-01-09 11:46:40.80	253.49	27.82	-30.8	-34.1	12.3	1.04e-04	0	43	0	508559360	22	5262
2026-01-09 11:46:41.81	253.80	27.87	-31.1	-35.0	11.7	2.70e-04	0	43	0	510656512	22	5635
2026-01-09 11:46:42.82	254.12	27.91	-31.2	-35.3	11.5	7.03e-04	0	43	0	512753664	22	5789
2026-01-09 11:46:43.83	254.43	27.95	-31.4	-35.9	11.1	1.28e-03	0	43	0	513802240	22	6042
2026-01-09 11:46:44.83	254.75	28.00	-31.5	-35.8	10.8	2.46e-03	0	43	0	515899392	23	5896
2026-01-09 11:46:45.83	255.06	28.04	-31.5	-35.9	10.6	2.53e-03	0	43	0	517996544	23	5969
2026-01-09 11:46:46.83	255.38	28.08	-31.5	-35.9	10.7	3.06e-03	0	43	0	520093696	23	5955
2026-01-09 11:46:47.84	255.70	28.12	-31.7	-36.3	10.4	3.80e-03	0	43	0	522190848	23	6131
2026-01-09 11:46:48.84	256.02	28.15	-31.5	-35.7	10.7	3.65e-03	0	43	0	523239424	23	5868
2026-01-09 11:46:49.84	256.33	28.19	-31.3	-35.2	11.2	2.17e-03	0	43	0	525336576	23	5608
2026-01-09 11:46:50.85	256.65	28.23	-31.2	-34.9	11.4	1.06e-03	0	43	0	527433728	23	5503
2026-01-09 11:46:51.85	256.97	28.26	-31.3	-34.9	11.4	7.71e-04	0	43	0	529530880	23	5502
2026-01-09 11:46:52.86	257.30	28.30	-31.0	-34.2	11.9	7.70e-04	0	43	0	531628032	23	5191
2026-01-09 11:46:53.87	257.62	28.33	-31.0	-34.1	12.0	3.46e-04	0	43	0	532676608	23	5156
2026-01-09 11:46:54.88	257.94	28.36	-31.0	-34.3	11.8	4.19e-04	0	43	0	534773760	23	5250
2026-01-09 11:46:55.88	258.27	28.39	-31.0	-34.0	12.1	3.55e-04	0	43	0	536870912	23	5130
2026-01-09 11:46:56.89	258.59	28.42	-30.9	-34.0	12.1	3.34e-04	0	43	0	538968064	23	5108
2026-01-09 11:46:57.90	258.92	28.45	-31.0	-34.2	12.0	2.85e-04	0	43	0	541065216	23	5189
2026-01-09 11:46:58.90	259.24	28.48	-31.0	-34.0	12.0	3.10e-04	0	43	0	542113792	23	5126
2026-01-09 11:46:59.90	259.57	28.51	-31.0	-34.3	11.9	2.37e-04	0	43	0	544210944	23	5217
2026-01-09 11:47:00.91	259.89	28.54	-31.1	-34.4	11.8	4.13e-04	0	43	0	546308096	23	5277
2026-01-09 11:47:01.91	260.22	28.56	-31.2	-34.7	11.6	4.99e-04	0	43	0	548405248	23	5417
2026-01-09 11:47:02.92	260.55	28.59	-31.2	-34.9	11.5	8.89e-04	0	43	0	550502400	23	5474
2026-01-09 11:47:03.92	260.87	28.61	-31.4	-35.6	11.0	1.62e-03	0	43	0	551550976	23	5785
2026-01-09 11:47:04.92	261.20	28.63	-31.4	-35.4	11.1	1.93e-03	0	43	0	553648128	23	5719
2026-01-09 11:47:05.93	261.53	28.66	-31.5	-35.6	11.0	1.59e-03	0	43	0	555745280	23	5798
2026-01-09 11:47:06.94	261.86	28.68	-31.5	-35.8	10.7	2.56e-03	0	43	0	557842432	23	5913
2026-01-09 11:47:07.94	262.19	28.70	-31.4	-35.6	11.0	2.19e-03	0	43	0	559939584	23	5790
2026-01-09 11:47:08.95	262.52	28.72	-31.4	-35.4	11.1	1.59e-03	0	43	0	560988160	23	5701
2026-01-09 11:47:09.96	262.85	28.73	-31.3	-35.0	11.4	1.38e-03	0	43	0	563085312	23	5523
2026-01-09 11:47:10.96	263.18	28.75	-31.1	-34.5	11.8	6.42e-04	0	43	0	565182464	23	5302
2026-01-09 11:47:11.96	263.51	28.77	-31.1	-34.5	11.8	5.47e-04	0	43	0	567279616	23	5294
2026-01-09 11:47:12.98	263.85	28.78	-31.2	-34.6	11.6	5.21e-04	0	43	0	569376768	23	5363
2026-01-09 11:47:13.98	264.18	28.80	-31.2	-34.8	11.6	6.62e-04	0	43	0	570425344	23	5423
2026-01-09 11:47:14.98	264.51	28.81	-31.1	-34.6	11.7	5.12e-04	0	43	0	572522496	23	5343
2026-01-09 11:47:15.99	264.84	28.82	-31.1	-34.5	11.8	5.46e-04	0	43	0	574619648	23	5303
2026-01-09 11:47:16.99	265.17	28.83	-31.1	-34.3	11.9	3.91e-04	0	43	0	576716800	23	5226
2026-01-09 11:47:18.00	265.50	28.84	-31.2	-34.6	11.6	5.29e-04	0	42	0	578813952	23	5380
2026-01-09 11:47:19.00	265.83	28.85	-31.1	-34.5	11.7	5.23e-04	0	43	0	579862528	23	5321
2026-01-09 11:47:20.01	266.17	28.86	-31.4	-35.4	11.2	6.56e-04	0	43	0	581959680	23	5698
2026-01-09 11:47:21.02	266.50	28.86	-31.1	-34.4	11.8	7.49e-04	0	43	0	584056832	23	5283
2026-01-09 11:47:22.02	266.83	28.87	-30.8	-33.6	12.3	2.25e-04	0	43	0	586153984	23	4974
2026-01-09 11:47:23.02	267.17	28.88	-30.6	-33.4	12.8	7.85e-05	0	43	0	588251136	22	4972
2026-01-09 11:47:24.03	267.50	28.88	-30.3	-32.7	13.3	3.43e-05	0	43	0	589299712	22	4735
2026-01-09 11:47:25.04	267.83	28.88	-30.5	-33.2	13.0	2.05e-05	0	43	0	591396864	22	4923
2026-01-09 11:47:26.04	268.17	28.88	-30.5	-33.2	12.9	3.35e-05	0	43	0	593494016	22	4915
2026-01-09 11:47:27.05	268.50	28.88	-30.6	-33.5	12.7	6.33e-05	0	43	0	595591168	22	5040
2026-01-09 11:47:28.06	268.84	28.88	-30.8	-34.1	12.4	9.99e-05	0	43	0	597688320	22	5264
2026-01-09 11:47:29.06	269.17	28.88	-30.9	-34.5	12.0	2.29e-04	0	43	0	598736896	22	5413
2026-01-09 11:47:30.07	269.50	28.88	-31.1	-34.9	11.7	3.58e-04	0	43	0	600834048	22	5597
2026-01-09 11:47:31.07	269.83	28.88	-31.0	-34.8	11.8	4.68e-04	0	43	0	602931200	22	5557
2026-01-09 11:47:32.08	270.17	28.87	-31.0	-34.7	11.8	4.14e-04	0	43	0	605028352	22	5534
2026-01-09 11:47:33.09	270.50	28.87	-30.8	-34.1	12.3	2.41e-04	0	43	0	607125504	22	5261
2026-01-09 11:47:34.10	270.84	28.86	-30.5	-33.3	12.8	8.08e-05	0	43	0	608174080	22	4948
2026-01-09 11:47:35.10	271.17	28.85	-30.4	-33.0	13.1	3.28e-05	0	43	0	610271232	22	4849
2026-01-09 11:47:36.10	271.50	28.84	-30.6	-33.5	12.7	4.19e-05	0	43	0	612368384	22	5042
2026-01-09 11:47:37.10	271.83	28.83	-30.5	-33.1	13.0	2.89e-05	0	43	0	614465536	22	4872
2026-01-09 11:47:38.10	272.16	28.82	-30.5	-33.1	13.0	4.42e-05	0	43	0	616562688	22	4880
2026-01-09 11:47:39.10	272.49	28.81	-30.5	-33.3	12.9	3.35e-05	0	43	0	617611264	22	4964
2026-01-09 11:47:40.11	272.82	28.80	-30.8	-34.0	12.5	9.76e-05	0	43	0	619708416	22	5202
2026-01-09 11:47:41.11	273.15	28.78	-30.7	-33.8	12.5	1.10e-04	0	43	0	621805568	22	5145
2026-01-09 11:47:42.12	273.48	28.77	-30.9	-34.5	12.1	1.88e-04	0	43	0	623902720	22	5402
2026-01-09 11:47:43.12	273.81	28.75	-30.8	-34.2	12.3	2.54e-04	0	43	0	624951296	22	5281
2026-01-09 11:47:44.12	274.14	28.74	-30.9	-34.3	12.3	1.71e-04	0	43	0	627048448	22	5322
2026-01-09 11:47:45.12	274.47	28.72	-30.9	-34.4	12.0	2.50e-04	0	43	0	629145600	22	5399
2026-01-09 11:47:46.13	274.80	28.70	-30.8	-34.1	12.3	2.39e-04	0	43	0	631242752	22	5260
2026-01-09 11:47:47.13	275.13	28.68	-30.8	-34.1	12.3	1.47e-04	0	43	0	633339904	22	5277
2026-01-09 11:47:48.14	275.46	28.66	-30.9	-34.4	12.1	2.47e-04	0	43	0	634388480	22	5386
2026-01-09 11:47:49.14	275.79	28.64	-31.1	-35.0	11.7	4.09e-04	0	43	0	636485632	22	5634
2026-01-09 11:47:50.15	276.12	28.61	-31.3	-35.5	11.4	6.11e-04	0	43	0	638582784	22	5854
2026-01-09 11:47:51.16	276.44	28.59	-31.5	-36.1	11.0	1.72e-03	0	43	0	640679936	22	6158
2026-01-09 11:47:52.16	276.77	28.57	-31.5	-35.7	10.8	2.10e-03	0	43	0	642777088	23	5858
2026-01-09 11:47:53.17	277.10	28.54	-31.6	-36.0	10.6	3.93e-03	0	43	0	643825664	23	6009
2026-01-09 11:47:54.18	277.42	28.51	-31.3	-35.0	11.4	1.50e-03	0	43	0	645922816	23	5512
2026-01-09 11:47:55.19	277.75	28.49	-30.9	-33.8	12.2	3.85e-04	0	43	0	648019968	23	5039
2026-01-09 11:47:56.19	278.07	28.46	-30.5	-33.2	13.0	1.01e-04	0	43	0	650117120	22	4902
2026-01-09 11:47:57.20	278.40	28.43	-30.4	-33.1	13.1	3.89e-05	0	43	0	652214272	22	4857
2026-01-09 11:47:58.20	278.72	28.40	-30.6	-33.4	12.9	3.89e-05	0	43	0	653262848	22	4974
2026-01-09 11:47:59.21	279.05	28.37	-30.8	-34.2	12.3	7.78e-05	0	43	0	655360000	22	5296
2026-01-09 11:48:00.22	279.37	28.33	-31.2	-35.3	11.5	3.70e-04	0	43	0	657457152	22	5747
2026-01-09 11:48:01.22	279.69	28.30	-31.5	-36.3	10.8	1.95e-03	0	43	0	659554304	22	6240
2026-01-09 11:48:02.23	280.01	28.27	-31.7	-36.6	10.2	5.08e-03	0	43	0	661651456	23	6317
2026-01-09 11:48:03.24	280.33	28.23	-31.7	-36.4	10.3	6.74e-03	0	43	0	662700032	23	6201
2026-01-09 11:48:04.24	280.65	28.19	-31.5	-35.6	10.9	2.85e-03	0	43	0	664797184	23	5811
2026-01-09 11:48:05.25	280.97	28.16	-31.3	-34.9	11.3	1.20e-03	0	43	0	666894336	23	5505
2026-01-09 11:48:06.25	281.29	28.12	-31.2	-34.6	11.6	9.99e-04	0	43	0	668991488	23	5376
2026-01-09 11:48:07.26	281.61	28.08	-31.0	-34.1	12.1	3.23e-04	0	43	0	671088640	23	5133
2026-01-09 11:48:08.26	281.92	28.04	-31.1	-34.6	11.6	5.40e-04	0	43	0	672137216	23	5346
2026-01-09 11:48:09.27	282.24	28.00	-31.2	-34.7	11.6	5.49e-04	0	43	0	674234368	23	5422
2026-01-09 11:48:10.28	282.56	27.96	-31.2	-34.8	11.6	7.94e-04	0	43	0	676331520	23	5425
2026-01-09 11:48:11.29	282.87	27.92	-30.9	-34.0	12.0	4.49e-04	0	43	0	678428672	23	5114
2026-01-09 11:48:12.29	283.18	27.87	-30.8	-33.6	12.3	1.78e-04	0	43	0	680525824	23	4972
2026-01-09 11:48:13.30	283.50	27.83	-30.8	-33.6	12.4	1.50e-04	0	43	0	681574400	23	4944
2026-01-09 11:48:14.30	283.81	27.79	-30.8	-34.0	12.5	1.51e-04	0	43	0	683671552	22	5194
2026-01-09 11:48:15.31	284.12	27.74	-30.8	-33.9	12.5	1.08e-04	0	43	0	685768704	22	5184
2026-01-09 11:48:16.31	284.43	27.69	-30.9	-34.4	12.1	1.85e-04	0	43	0	687865856	22	5394
2026-01-09 11:48:17.31	284.73	27.65	-30.7	-33.9	12.5	1.42e-04	0	43	0	689963008	22	5182
2026-01-09 11:48:18.32	285.04	27.60	-30.8	-34.0	12.4	1.17e-04	0	43	0	691011584	22	5227
2026-01-09 11:48:19.33	285.35	27.55	-30.8	-33.9	12.4	1.37e-04	0	43	0	693108736	22	5199
2026-01-09 11:48:20.33	285.66	27.50	-30.7	-33.8	12.5	1.19e-04	0	43	0	695205888	22	5135
2026-01-09 11:48:21.33	285.96	27.45	-30.5	-33.2	13.0	6.33e-05	0	43	0	697303040	22	4922
2026-01-09 11:48:22.34	286.27	27.40	-30.4	-32.8	13.2	2.97e-05	0	43	0	699400192	22	4777
2026-01-09 11:48:23.34	286.57	27.35	-30.3	-32.8	13.2	2.51e-05	0	43	0	700448768	22	4759
2026-01-09 11:48:24.35	286.87	27.30	-30.1	-32.5	13.8	5.30e-06	0	43	0	702545920	21	4761
2026-01-09 11:48:25.35	287.17	27.24	-30.0	-32.4	13.8	1.50e-06	0	43	0	704643072	21	4751
2026-01-09 11:48:26.36	287.47	27.19	-30.0	-32.3	13.8	5.30e-06	0	43	0	706740224	21	4710
2026-01-09 11:48:27.36	287.77	27.14	-29.9	-32.0	14.0	1.50e-06	0	43	0	708837376	21	4599
2026-01-09 11:48:28.36	288.07	27.08	-29.8	-32.2	14.2	3.00e-06	0	43	0	709885952	20	4777
2026-01-09 11:48:29.37	288.37	27.02	-29.8	-32.2	14.2	3.00e-06	0	43	0	711983104	20	4782
2026-01-09 11:48:30.38	288.66	26.97	-29.7	-32.1	14.3	1.50e-06	0	43	0	714080256	20	4743
2026-01-09 11:48:31.39	288.96	26.91	-29.8	-32.3	14.2	7.00e-07	0	43	0	716177408	20	4813
2026-01-09 11:48:32.39	289.25	26.85	-29.9	-32.7	13.9	2.20e-06	0	43	0	718274560	20	4943
2026-01-09 11:48:33.40	289.55	26.79	-30.0	-32.7	13.9	3.00e-06	0	43	0	719323136	20	4959
2026-01-09 11:48:34.41	289.84	26.73	-30.0	-32.8	13.9	4.50e-06	0	43	0	721420288	20	4966
2026-01-09 11:48:35.41	290.13	26.67	-29.9	-32.5	14.1	2.20e-06	0	43	0	723517440	20	4855
2026-01-09 11:48:36.42	290.42	26.61	-29.7	-32.0	14.3	1.50e-06	0	43	0	725614592	20	4712
2026-01-09 11:48:37.43	290.71	26.55	-29.7	-31.9	14.4	2.20e-06	0	43	0	727711744	20	4681
2026-01-09 11:48:38.43	291.00	26.49	-29.8	-32.3	14.1	1.50e-06	0	43	0	728760320	20	4812
2026-01-09 11:48:39.44	291.29	26.43	-30.0	-32.7	13.9	3.00e-06	0	43	0	730857472	20	4950
2026-01-09 11:48:40.44	291.57	26.36	-29.9	-32.6	14.0	2.20e-06	0	43	0	732954624	20	4900
2026-01-09 11:48:41.45	291.86	26.30	-29.8	-32.4	14.1	1.50e-06	0	43	0	735051776	20	4833
2026-01-09 11:48:42.46	292.14	26.24	-29.8	-32.3	14.1	7.00e-07	0	43	0	737148928	20	4816
2026-01-09 11:48:43.46	292.42	26.17	-29.8	-32.4	14.1	0.00e+00	0	43	0	738197504	20	4839
2026-01-09 11:48:44.47	292.70	26.11	-29.8	-32.4	14.1	7.00e-07	0	43	0	740294656	20	4830
2026-01-09 11:48:45.48	292.98	26.04	-29.9	-32.5	14.0	2.20e-06	0	43	0	742391808	20	4865
2026-01-09 11:48:46.48	293.26	25.97	-29.8	-32.3	14.1	2.20e-06	0	43	0	744488960	20	4818
2026-01-09 11:48:47.49	293.54	25.91	-29.7	-32.1	14.3	1.50e-06	0	43	0	746586112	20	4738
2026-01-09 11:48:48.50	293.82	25.84	-29.7	-32.0	14.3	1.50e-06	0	43	0	747634688	20	4704
2026-01-09 11:48:49.50	294.09	25.77	-29.7	-32.1	14.3	7.00e-07	0	43	0	749731840	20	4729
2026-01-09 11:48:50.50	294.36	25.70	-29.8	-32.2	14.2	0.00e+00	0	43	0	751828992	20	4781
2026-01-09 11:48:51.50	294.64	25.63	-29.8	-32.3	14.1	2.20e-06	0	43	0	753926144	20	4814
2026-01-09 11:48:52.51	294.91	25.56	-30.0	-32.7	13.9	1.50e-06	0	43	0	756023296	20	4953
2026-01-09 11:48:53.52	295.18	25.49	-30.1	-33.1	13.6	7.00e-07	0	43	0	757071872	20	5096
2026-01-09 11:48:54.52	295.45	25.42	-30.1	-33.2	13.6	1.22e-05	0	43	0	759169024	20	5116
2026-01-09 11:48:55.52	295.71	25.35	-30.1	-33.2	13.5	9.10e-06	0	43	0	761266176	20	5140
2026-01-09 11:48:56.53	295.98	25.28	-30.1	-33.2	13.6	6.80e-06	0	43	0	763363328	20	5116
2026-01-09 11:48:57.54	296.25	25.21	-30.1	-33.1	13.7	6.80e-06	0	43	0	765460480	20	5084
2026-01-09 11:48:58.54	296.51	25.14	-30.0	-32.7	13.9	3.80e-06	0	43	0	766509056	20	4950
2026-01-09 11:48:59.55	296.78	25.06	-30.0	-32.8	13.8	4.50e-06	0	43	0	768606208	20	4993
2026-01-09 11:49:00.55	297.04	24.99	-30.1	-33.0	13.7	6.80e-06	0	43	0	770703360	20	5073
2026-01-09 11:49:01.56	297.30	24.92	-30.1	-33.0	13.6	6.80e-06	0	43	0	772800512	20	5071
2026-01-09 11:49:02.57	297.56	24.84	-30.2	-33.4	13.4	1.14e-05	0	43	0	774897664	20	5207
2026-01-09 11:49:03.57	297.82	24.77	-30.2	-33.3	13.5	1.14e-05	0	43	0	775946240	20	5169
2026-01-09 11:49:04.58	298.08	24.69	-30.1	-33.1	13.6	7.60e-06	0	43	0	778043392	20	5091
2026-01-09 11:49:05.59	298.33	24.62	-30.2	-33.3	13.5	1.06e-05	0	43	0	780140544	20	5152
2026-01-09 11:49:06.59	298.59	24.54	-30.3	-33.8	13.2	9.90e-06	0	43	0	782237696	20	5353
2026-01-09 11:49:07.60	298.84	24.47	-30.4	-33.9	13.1	3.58e-05	0	43	0	784334848	20	5396
2026-01-09 11:49:08.61	299.10	24.39	-30.4	-34.1	13.0	2.67e-05	0	43	0	785383424	20	5478
2026-01-09 11:49:09.61	299.35	24.31	-30.4	-34.1	12.9	5.64e-05	0	43	0	787480576	20	5481
2026-01-09 11:49:10.62	299.60	24.24	-30.4	-33.9	13.1	3.12e-05	0	43	0	789577728	20	5399
2026-01-09 11:49:11.62	299.84	24.16	-30.2	-33.3	13.5	1.75e-05	0	43	0	791674880	20	5178
2026-01-09 11:49:12.63	300.09	24.08	-30.1	-33.1	13.7	1.37e-05	0	43	0	793772032	20	5079
2026-01-09 11:49:13.64	300.34	24.00	-30.1	-33.1	13.6	1.44e-05	0	43	0	794820608	20	5093
2026-01-09 11:49:14.65	300.59	23.93	-30.0	-32.8	13.7	9.90e-06	0	43	0	796917760	20	5000
2026-01-09 11:49:15.65	300.83	23.85	-29.9	-32.6	14.0	1.50e-06	0	43	0	799014912	20	4902
2026-01-09 11:49:16.66	301.07	23.77	-29.9	-32.7	13.9	3.00e-06	0	43	0	801112064	20	4965
2026-01-09 11:49:17.67	301.32	23.69	-30.0	-32.8	13.8	4.50e-06	0	43	0	803209216	20	4993
2026-01-09 11:49:18.68	301.56	23.61	-30.1	-33.2	13.5	7.60e-06	0	43	0	804257792	20	5148
2026-01-09 11:49:19.69	301.80	23.53	-30.1	-33.1	13.5	9.90e-06	0	43	0	806354944	20	5101
2026-01-09 11:49:20.69	302.04	23.45	-29.9	-32.7	13.8	4.50e-06	0	43	0	808452096	20	4944
2026-01-09 11:49:21.69	302.27	23.37	-29.9	-32.7	13.9	1.50e-06	0	43	0	810549248	20	4946
2026-01-09 11:49:22.69	302.51	23.29	-30.1	-33.2	13.5	6.10e-06	0	43	0	812646400	20	5133
2026-01-09 11:49:23.70	302.74	23.21	-30.1	-33.1	13.5	9.10e-06	0	43	0	813694976	20	5116
2026-01-09 11:49:24.70	302.97	23.13	-30.0	-32.9	13.7	9.90e-06	0	43	0	815792128	20	5031
2026-01-09 11:49:25.70	303.20	23.05	-29.9	-32.7	13.8	6.80e-06	0	43	0	817889280	20	4932
2026-01-09 11:49:26.70	303.43	22.97	-29.8	-32.4	14.0	2.20e-06	0	43	0	819986432	20	4843
2026-01-09 11:49:27.71	303.66	22.89	-29.7	-32.2	14.2	0.00e+00	0	43	0	822083584	20	4770
2026-01-09 11:49:28.72	303.89	22.80	-29.8	-32.4	14.1	3.80e-06	0	43	0	823132160	20	4822
2026-01-09 11:49:29.72	304.12	22.72	-29.8	-32.5	14.0	7.00e-07	0	43	0	825229312	20	4880
2026-01-09 11:49:30.73	304.35	22.64	-30.0	-32.8	13.8	6.10e-06	0	43	0	827326464	20	4993
2026-01-09 11:49:31.73	304.57	22.56	-30.1	-33.2	13.5	1.22e-05	0	43	0	829423616	20	5134
2026-01-09 11:49:32.74	304.80	22.48	-30.2	-33.4	13.4	9.10e-06	0	43	0	830472192	20	5217
2026-01-09 11:49:33.74	305.02	22.39	-30.0	-33.0	13.6	7.60e-06	0	43	0	832569344	20	5045
2026-01-09 11:49:34.75	305.24	22.31	-29.9	-32.7	13.8	2.20e-06	0	43	0	834666496	20	4957
2026-01-09 11:49:35.76	305.46	22.23	-29.8	-32.5	14.0	4.50e-06	0	43	0	836763648	20	4864
2026-01-09 11:49:36.76	305.68	22.14	-30.0	-33.0	13.6	1.50e-06	0	43	0	838860800	20	5059
2026-01-09 11:49:37.76	305.90	22.06	-30.3	-33.7	13.1	2.21e-05	0	43	0	839909376	20	5351
2026-01-09 11:49:38.77	306.12	21.98	-30.6	-34.1	12.6	5.11e-05	0	43	0	842006528	21	5373
2026-01-09 11:49:39.78	306.33	21.89	-30.7	-34.3	12.4	1.59e-04	0	43	0	844103680	21	5466
2026-01-09 11:49:40.78	306.55	21.81	-31.0	-35.3	11.7	3.58e-04	0	43	0	846200832	21	5905
2026-01-09 11:49:41.78	306.76	21.73	-30.9	-34.5	11.9	5.23e-04	0	43	0	848297984	22	5446
2026-01-09 11:49:42.79	306.97	21.64	-30.6	-33.7	12.5	2.73e-04	0	43	0	850395136	22	5114
2026-01-09 11:49:43.79	307.18	21.56	-30.4	-32.9	13.0	4.04e-05	0	43	0	851443712	22	4835
2026-01-09 11:49:44.80	307.39	21.48	-30.2	-32.8	13.4	1.52e-05	0	43	0	853540864	21	4899
2026-01-09 11:49:45.80	307.60	21.39	-30.1	-32.7	13.5	1.37e-05	0	43	0	855638016	21	4852
2026-01-09 11:49:46.81	307.81	21.31	-30.2	-33.1	13.2	2.28e-05	0	43	0	857735168	21	4977
2026-01-09 11:49:47.81	308.02	21.22	-30.5	-33.8	12.7	5.41e-05	0	43	0	858783744	21	5283
2026-01-09 11:49:48.82	308.22	21.14	-30.6	-34.2	12.5	1.11e-04	0	43	0	860880896	21	5443
2026-01-09 11:49:49.83	308.43	21.06	-30.8	-34.6	12.2	1.62e-04	0	43	0	862978048	21	5592
2026-01-09 11:49:50.83	308.63	20.97	-30.6	-34.1	12.5	1.43e-04	0	43	0	865075200	21	5393
2026-01-09 11:49:51.84	308.83	20.89	-30.4	-33.4	13.0	5.72e-05	0	43	0	867172352	21	5120
2026-01-09 11:49:52.84	309.03	20.80	-30.1	-32.7	13.4	1.83e-05	0	43	0	868220928	21	4848
2026-01-09 11:49:53.85	309.24	20.72	-30.1	-32.7	13.4	1.14e-05	0	43	0	870318080	21	4853
2026-01-09 11:49:54.86	309.44	20.63	-30.3	-33.2	13.1	2.21e-05	0	43	0	872415232	21	5043
2026-01-09 11:49:55.87	309.64	20.55	-30.4	-33.6	12.8	3.20e-05	0	43	0	874512384	21	5191
2026-01-09 11:49:56.87	309.83	20.46	-30.6	-34.1	12.5	7.17e-05	0	43	0	876609536	21	5378
2026-01-09 11:49:57.88	310.03	20.38	-30.7	-34.4	12.3	2.17e-04	0	43	0	877658112	21	5518
2026-01-09 11:49:58.88	310.22	20.29	-30.7	-34.4	12.3	2.54e-04	0	43	0	879755264	21	5513
2026-01-09 11:49:59.88	310.42	20.21	-30.5	-34.0	12.5	2.11e-04	0	43	0	881852416	21	5349
2026-01-09 11:50:00.89	310.61	20.12	-30.4	-33.6	12.7	1.46e-04	0	43	0	883949568	21	5209
2026-01-09 11:50:01.89	310.80	20.04	-30.2	-33.1	13.1	6.40e-05	0	43	0	886046720	21	5003
2026-01-09 11:50:02.90	310.99	19.95	-30.3	-33.3	13.0	3.43e-05	0	43	0	887095296	21	5070
2026-01-09 11:50:03.91	311.18	19.87	-30.2	-32.9	13.3	3.20e-05	0	43	0	889192448	21	4918
2026-01-09 11:50:04.91	311.37	19.78	-30.6	-34.0	12.5	5.79e-05	0	43	0	891289600	21	5374
2026-01-09 11:50:05.92	311.56	19.70	-30.7	-34.4	12.2	1.19e-04	0	43	0	893386752	21	5515
2026-01-09 11:50:06.92	311.74	19.61	-31.2	-35.3	11.3	3.10e-04	0	43	0	895483904	22	5824
2026-01-09 11:50:07.93	311.93	19.53	-31.1	-35.0	11.5	1.04e-03	0	43	0	896532480	22	5676
2026-01-09 11:50:08.94	312.12	19.44	-31.1	-35.3	11.3	1.01e-03	0	43	0	898629632	22	5821
2026-01-09 11:50:09.95	312.30	19.36	-31.2	-35.5	11.1	1.49e-03	0	43	0	900726784	22	5929
2026-01-09 11:50:10.95	312.48	19.27	-31.2	-35.5	11.1	1.47e-03	0	43	0	902823936	22	5923
2026-01-09 11:50:11.95	312.66	19.19	-31.0	-34.8	11.6	7.80e-04	0	43	0	904921088	22	5573
2026-01-09 11:50:12.96	312.85	19.10	-30.8	-34.3	11.9	5.10e-04	0	43	0	905969664	22	5404
2026-01-09 11:50:13.96	313.02	19.02	-30.7	-34.1	12.1	2.76e-04	0	43	0	908066816	22	5293
2026-01-09 11:50:14.97	313.20	18.93	-30.8	-34.4	11.8	4.36e-04	0	43	0	910163968	22	5433
2026-01-09 11:50:15.97	313.38	18.85	-31.0	-35.0	11.4	6.16e-04	0	43	0	912261120	22	5710
2026-01-09 11:50:16.97	313.56	18.76	-31.3	-35.8	10.9	1.33e-03	0	43	0	914358272	22	6055
2026-01-09 11:50:17.98	313.73	18.68	-31.2	-35.4	11.2	2.05e-03	0	43	0	915406848	22	5889
2026-01-09 11:50:18.99	313.91	18.59	-31.4	-36.4	10.4	2.99e-03	0	43	0	917504000	22	6379
2026-01-09 11:50:19.99	314.08	18.51	-31.0	-35.0	11.4	2.73e-03	0	43	0	919601152	22	5707
2026-01-09 11:50:21.00	314.26	18.42	-30.7	-34.0	12.1	3.38e-04	0	43	0	921698304	22	5269
2026-01-09 11:50:22.00	314.43	18.34	-30.2	-33.1	13.1	7.62e-05	0	43	0	923795456	21	5024
2026-01-09 11:50:23.01	314.60	18.25	-30.0	-32.5	13.4	3.28e-05	0	43	0	924844032	21	4817
2026-01-09 11:50:24.02	314.77	18.17	-29.9	-32.2	13.7	8.30e-06	0	43	0	926941184	21	4694
2026-01-09 11:50:25.02	314.94	18.08	-29.9	-32.3	13.6	3.80e-06	0	43	0	929038336	21	4724
2026-01-09 11:50:26.03	315.11	18.00	-30.0	-32.4	13.5	6.10e-06	0	43	0	931135488	21	4761
2026-01-09 11:50:27.04	315.28	17.91	-30.1	-32.7	13.3	1.37e-05	0	43	0	933232640	21	4869
2026-01-09 11:50:28.05	315.44	17.83	-30.1	-32.8	13.3	1.75e-05	0	43	0	934281216	21	4904
2026-01-09 11:50:29.05	315.61	17.75	-30.1	-32.7	13.3	1.06e-05	0	43	0	936378368	21	4875
2026-01-09 11:50:30.06	315.77	17.66	-30.0	-32.6	13.4	1.44e-05	0	43	0	938475520	21	4836
2026-01-09 11:50:31.06	315.94	17.58	-30.0	-32.6	13.4	2.28e-05	0	43	0	940572672	21	4832
2026-01-09 11:50:32.07	316.10	17.49	-29.9	-32.2	13.7	8.30e-06	0	43	0	942669824	21	4694
2026-01-09 11:50:33.07	316.26	17.41	-29.9	-32.3	13.6	6.10e-06	0	43	0	943718400	21	4734
2026-01-09 11:50:34.08	316.42	17.32	-30.1	-32.7	13.3	1.60e-05	0	43	0	945815552	21	4861
2026-01-09 11:50:35.09	316.59	17.24	-30.0	-32.5	13.4	1.06e-05	0	43	0	947912704	21	4813
2026-01-09 11:50:36.09	316.74	17.16	-30.2	-33.0	13.1	1.37e-05	0	43	0	950009856	21	4967
2026-01-09 11:50:37.10	316.90	17.07	-30.2	-33.1	13.1	2.59e-05	0	43	0	952107008	21	5018
2026-01-09 11:50:38.11	317.06	16.99	-30.4	-33.6	12.7	4.42e-05	0	43	0	953155584	21	5197
2026-01-09 11:50:39.12	317.22	16.91	-30.5	-34.0	12.5	7.62e-05	0	43	0	955252736	21	5355
2026-01-09 11:50:40.12	317.38	16.82	-30.4	-33.5	12.8	9.76e-05	0	43	0	957349888	21	5176
2026-01-09 11:50:41.12	317.53	16.74	-30.2	-33.1	13.1	3.50e-05	0	43	0	959447040	21	5011
2026-01-09 11:50:42.13	317.69	16.66	-30.0	-32.7	13.3	1.90e-05	0	43	0	961544192	21	4871
2026-01-09 11:50:43.14	317.84	16.57	-30.0	-32.6	13.3	1.83e-05	0	43	0	962592768	21	4846
2026-01-09 11:50:44.14	317.99	16.49	-29.8	-32.1	13.7	1.06e-05	0	43	0	964689920	21	4665
2026-01-09 11:50:45.14	318.14	16.41	-29.9	-32.2	13.6	6.10e-06	0	43	0	966787072	21	4717
2026-01-09 11:50:46.15	318.29	16.32	-29.9	-32.3	13.5	4.50e-06	0	43	0	968884224	21	4752
2026-01-09 11:50:47.15	318.44	16.24	-30.1	-32.9	13.2	2.21e-05	0	43	0	970981376	21	4934
2026-01-09 11:50:48.16	318.59	16.16	-30.1	-32.7	13.2	3.28e-05	0	43	0	972029952	21	4887
2026-01-09 11:50:49.16	318.74	16.08	-30.3	-33.3	12.8	4.73e-05	0	43	0	974127104	21	5115
2026-01-09 11:50:50.17	318.89	15.99	-30.1	-32.9	13.2	4.27e-05	0	43	0	976224256	21	4943
2026-01-09 11:50:51.17	319.04	15.91	-30.0	-32.6	13.3	1.60e-05	0	43	0	978321408	21	4835
2026-01-09 11:50:52.18	319.18	15.83	-29.9	-32.4	13.5	1.37e-05	0	43	0	980418560	21	4750
2026-01-09 11:50:53.19	319.33	15.75	-29.9	-32.1	13.7	3.00e-06	0	43	0	981467136	21	4668
2026-01-09 11:50:54.20	319.48	15.66	-29.9	-32.2	13.6	8.30e-06	0	43	0	983564288	21	4691
2026-01-09 11:50:55.20	319.62	15.58	-29.8	-31.9	13.7	6.80e-06	0	43	0	985661440	21	4611
2026-01-09 11:50:56.21	319.76	15.50	-29.8	-32.5	13.7	5.30e-06	0	43	0	987758592	20	4904
2026-01-09 11:50:57.21	319.91	15.42	-29.8	-32.4	13.8	3.00e-06	0	43	0	989855744	20	4856
2026-01-09 11:50:58.22	320.05	15.34	-29.7	-32.3	13.8	3.80e-06	0	43	0	990904320	20	4857
2026-01-09 11:50:59.23	320.19	15.25	-29.8	-32.4	13.8	6.80e-06	0	43	0	993001472	20	4856
2026-01-09 11:51:00.24	320.33	15.17	-29.8	-32.6	13.6	3.00e-06	0	43	0	995098624	20	4929
2026-01-09 11:51:01.24	320.47	15.09	-29.7	-32.3	13.8	6.10e-06	0	43	0	997195776	20	4839
2026-01-09 11:51:02.24	320.61	15.01	-29.8	-32.4	13.8	6.10e-06	0	43	0	999292928	20	4884
2026-01-09 11:51:03.25	320.75	14.93	-29.9	-32.6	13.6	3.80e-06	0	43	0	1000341504	20	4944
2026-01-09 11:51:04.26	320.88	14.85	-29.8	-32.5	13.7	5.30e-06	0	43	0	1002438656	20	4895
2026-01-09 11:51:05.26	321.02	14.77	-29.9	-32.8	13.5	1.75e-05	0	43	0	1004535808	20	5034
2026-01-09 11:51:06.27	321.16	14.69	-29.9	-32.8	13.5	1.37e-05	0	43	0	1006632960	20	5003
2026-01-09 11:51:07.28	321.29	14.61	-30.0	-33.1	13.3	1.98e-05	0	43	0	1008730112	20	5136
2026-01-09 11:51:08.28	321.43	14.53	-30.1	-33.4	13.1	3.66e-05	0	43	0	1009778688	20	5225
2026-01-09 11:51:09.28	321.56	14.45	-30.2	-33.6	13.0	3.43e-05	0	43	0	1011875840	20	5308
2026-01-09 11:51:10.29	321.69	14.37	-30.2	-33.7	12.9	4.04e-05	0	43	0	1013972992	20	5351
2026-01-09 11:51:11.30	321.83	14.28	-30.2	-33.6	12.9	4.27e-05	0	43	0	1016070144	20	5320
2026-01-09 11:51:12.30	321.96	14.21	-30.2	-33.6	12.9	4.65e-05	0	43	0	1018167296	20	5315
2026-01-09 11:51:13.31	322.09	14.12	-30.3	-33.8	12.8	4.88e-05	0	43	0	1019215872	20	5402
2026-01-09 11:51:14.32	322.22	14.04	-30.3	-33.7	12.8	5.56e-05	0	43	0	1021313024	20	5386
2026-01-09 11:51:15.32	322.35	13.97	-30.3	-33.9	12.7	7.55e-05	0	43	0	1023410176	20	5461
2026-01-09 11:51:16.33	322.48	13.89	-30.2	-33.6	12.9	3.89e-05	0	43	0	1025507328	20	5331
2026-01-09 11:51:17.33	322.61	13.81	-30.2	-33.5	13.0	4.19e-05	0	43	0	1027604480	20	5288
2026-01-09 11:51:18.33	322.73	13.73	-30.2	-33.7	12.9	5.79e-05	0	43	0	1028653056	20	5354
2026-01-09 11:51:19.34	322.86	13.65	-30.2	-33.5	13.0	3.58e-05	0	43	0	1030750208	20	5287
2026-01-09 11:51:20.34	322.99	13.57	-30.1	-33.4	13.0	3.35e-05	0	43	0	1032847360	20	5255
2026-01-09 11:51:21.35	323.11	13.49	-30.2	-33.6	12.9	6.02e-05	0	43	0	1034944512	20	5346
2026-01-09 11:51:22.36	323.24	13.41	-30.3	-33.9	12.7	8.69e-05	0	43	0	1037041664	20	5451
2026-01-09 11:51:23.37	323.36	13.33	-30.1	-33.5	13.0	7.47e-05	0	43	0	1038090240	20	5273
2026-01-09 11:51:24.37	323.49	13.26	-30.1	-33.4	13.1	3.28e-05	0	43	0	1040187392	20	5241
2026-01-09 11:51:25.37	323.61	13.18	-30.2	-33.6	12.9	6.48e-05	0	43	0	1042284544	20	5331
2026-01-09 11:51:26.38	323.73	13.10	-30.1	-33.4	13.0	3.12e-05	0	43	0	1044381696	20	5260
2026-01-09 11:51:27.39	323.86	13.02	-30.3	-34.0	12.7	5.41e-05	0	43	0	1045430272	20	5491
2026-01-09 11:51:28.40	323.98	12.94	-30.4	-34.2	12.5	1.51e-04	0	43	0	1047527424	20	5564
2026-01-09 11:51:29.40	324.10	12.87	-30.3	-34.0	12.6	7.78e-05	0	43	0	1049624576	20	5483
2026-01-09 11:51:30.41	324.22	12.79	-30.5	-34.5	12.3	1.46e-04	0	43	0	1051721728	20	5693
2026-01-09 11:51:31.42	324.34	12.71	-30.7	-34.7	11.7	3.19e-04	0	43	0	1053818880	21	5709
2026-01-09 11:51:32.42	324.46	12.63	-30.7	-34.7	11.7	6.90e-04	0	43	0	1055916032	21	5693
2026-01-09 11:51:33.43	324.58	12.56	-30.9	-35.3	11.3	6.66e-04	0	43	0	1056964608	21	5968
2026-01-09 11:51:34.43	324.69	12.48	-31.0	-35.1	11.1	1.54e-03	0	43	0	1059061760	22	5755
2026-01-09 11:51:35.44	324.81	12.40	-31.1	-35.3	11.0	1.34e-03	0	43	0	1061158912	22	5839
2026-01-09 11:51:36.44	324.93	12.33	-31.0	-35.1	11.1	1.39e-03	0	43	0	1063256064	22	5765
2026-01-09 11:51:37.46	325.05	12.25	-31.0	-35.1	11.1	1.54e-03	0	43	0	1065353216	22	5751
2026-01-09 11:51:38.46	325.16	12.17	-31.2	-35.6	10.7	2.66e-03	0	43	0	1066401792	22	6025
2026-01-09 11:51:39.47	325.28	12.10	-31.2	-35.7	10.6	2.85e-03	0	43	0	1068498944	22	6057
2026-01-09 11:51:40.48	325.39	12.02	-31.3	-36.0	10.5	3.34e-03	0	43	0	1070596096	22	6187
2026-01-09 11:51:41.48	325.50	11.94	-31.3	-36.2	10.3	5.68e-03	0	43	0	1072693248	22	6301
2026-01-09 11:51:42.49	325.62	11.87	-31.2	-35.7	10.6	4.18e-03	0	43	0	1073741824	22	6084
2026-01-09 11:51:43.50	325.73	11.79	-31.1	-35.5	10.8	2.45e-03	0	43	0	1075838976	22	5947
2026-01-09 11:51:44.51	325.84	11.72	-31.1	-35.3	11.0	1.91e-03	0	43	0	1077936128	22	5852
2026-01-09 11:51:45.51	325.95	11.64	-31.0	-35.0	11.2	1.38e-03	0	43	0	1080033280	22	5705
2026-01-09 11:51:46.52	326.06	11.56	-31.0	-35.1	11.1	1.49e-03	0	43	0	1082130432	22	5798
2026-01-09 11:51:47.53	326.18	11.49	-30.9	-34.9	11.3	1.48e-03	0	43	0	1084227584	22	5657
2026-01-09 11:51:48.53	326.29	11.41	-31.0	-35.0	11.2	1.32e-03	0	43	0	1085276160	22	5706
2026-01-09 11:51:49.54	326.40	11.34	-30.9	-34.9	11.2	1.71e-03	0	43	0	1087373312	22	5708
2026-01-09 11:51:50.55	326.50	11.26	-30.9	-34.7	11.3	1.17e-03	0	43	0	1089470464	22	5588
2026-01-09 11:51:51.55	326.61	11.19	-31.0	-35.1	11.0	1.42e-03	0	43	0	1091567616	22	5784
2026-01-09 11:51:52.56	326.72	11.11	-31.0	-35.2	11.0	2.14e-03	0	43	0	1093664768	22	5800
2026-01-09 11:51:53.57	326.83	11.04	-30.9	-34.7	11.4	1.18e-03	0	43	0	1094713344	22	5583
2026-01-09 11:51:54.58	326.94	10.97	-31.0	-35.0	11.1	1.58e-03	0	43	0	1096810496	22	5739
2026-01-09 11:51:55.59	327.04	10.89	-30.9	-34.8	11.4	1.24e-03	0	43	0	1098907648	22	5612
2026-01-09 11:51:56.59	327.15	10.82	-30.8	-34.6	11.4	1.01e-03	0	43	0	1101004800	22	5554
2026-01-09 11:51:57.60	327.25	10.74	-30.9	-34.7	11.4	1.35e-03	0	43	0	1103101952	22	5599
2026-01-09 11:51:58.60	327.36	10.67	-30.9	-34.9	11.1	1.00e-03	0	43	0	1104150528	22	5697
2026-01-09 11:51:59.60	327.46	10.60	-30.9	-34.7	11.3	1.35e-03	0	43	0	1106247680	22	5581
2026-01-09 11:52:00.61	327.56	10.52	-30.8	-34.6	11.4	1.13e-03	0	43	0	1108344832	22	5536
2026-01-09 11:52:01.61	327.67	10.45	-30.9	-34.7	11.3	9.62e-04	0	43	0	1110441984	22	5597
2026-01-09 11:52:02.61	327.77	10.38	-30.8	-34.6	11.4	9.23e-04	0	43	0	1112539136	22	5547
2026-01-09 11:52:03.62	327.87	10.31	-30.7	-34.3	11.6	7.18e-04	0	43	0	1113587712	22	5418
2026-01-09 11:52:04.63	327.97	10.23	-30.8	-34.4	11.5	6.23e-04	0	43	0	1115684864	22	5466
2026-01-09 11:52:05.63	328.07	10.16	-30.8	-34.4	11.5	8.90e-04	0	43	0	1117782016	22	5475
2026-01-09 11:52:06.64	328.18	10.09	-30.7	-34.2	11.6	7.64e-04	0	43	0	1119879168	22	5392
2026-01-09 11:52:07.65	328.28	10.01	-30.7	-34.4	11.5	7.19e-04	0	43	0	1121976320	22	5458
2026-01-09 11:52:08.65	328.38	9.94	-30.8	-34.5	11.4	1.04e-03	0	43	0	1123024896	22	5536
2026-01-09 11:52:09.67	328.48	9.87	-31.0	-35.0	11.0	9.86e-04	0	43	0	1125122048	22	5756
2026-01-09 11:52:10.67	328.57	9.80	-31.0	-35.2	10.9	2.04e-03	0	43	0	1127219200	22	5830
2026-01-09 11:52:11.67	328.67	9.73	-30.9	-34.9	11.1	1.93e-03	0	43	0	1129316352	22	5704
2026-01-09 11:52:12.68	328.77	9.65	-31.0	-35.3	10.8	2.24e-03	0	43	0	1130364928	22	5880
2026-01-09 11:52:13.68	328.87	9.58	-31.0	-35.1	10.9	2.26e-03	0	43	0	1132462080	22	5797
2026-01-09 11:52:14.68	328.96	9.51	-31.0	-35.0	10.9	2.09e-03	0	43	0	1134559232	22	5765
2026-01-09 11:52:15.69	329.06	9.44	-31.0	-35.3	10.8	2.34e-03	0	43	0	1136656384	22	5870
2026-01-09 11:52:16.70	329.16	9.37	-30.9	-34.9	11.1	2.00e-03	0	43	0	1138753536	22	5706
2026-01-09 11:52:17.70	329.25	9.30	-30.9	-34.8	11.2	1.39e-03	0	43	0	1140850688	22	5658
2026-01-09 11:52:18.71	329.35	9.23	-30.8	-34.7	11.2	1.67e-03	0	43	0	1141899264	22	5600
2026-01-09 11:52:19.71	329.44	9.16	-30.8	-34.5	11.4	1.24e-03	0	43	0	1143996416	22	5515
2026-01-09 11:52:20.72	329.54	9.09	-30.9	-34.8	11.1	1.40e-03	0	43	0	1146093568	22	5680
2026-01-09 11:52:21.73	329.63	9.02	-30.8	-34.5	11.3	1.62e-03	0	43	0	1148190720	22	5536
2026-01-09 11:52:22.73	329.73	8.95	-30.5	-33.8	11.8	6.53e-04	0	43	0	1149239296	22	5223
2026-01-09 11:52:23.73	329.82	8.88	-30.4	-33.4	12.0	2.96e-04	0	43	0	1151336448	22	5099
2026-01-09 11:52:24.75	329.91	8.80	-30.3	-33.2	12.2	2.50e-04	0	43	0	1153433600	22	5007
2026-01-09 11:52:25.74	330.00	8.74	-30.4	-33.3	12.1	2.66e-04	0	43	0	1155530752	22	5043
2026-01-09 11:52:26.75	330.10	8.67	-30.3	-33.2	12.2	2.30e-04	0	43	0	1157627904	22	4997
2026-01-09 11:52:27.75	330.19	8.60	-30.3	-33.6	12.2	2.38e-04	0	43	0	1158676480	21	5260
2026-01-09 11:52:28.76	330.28	8.53	-30.3	-33.6	12.2	2.84e-04	0	43	0	1160773632	21	5260
2026-01-09 11:52:29.76	330.37	8.46	-30.4	-34.0	11.9	2.62e-04	0	43	0	1162870784	21	5424
2026-01-09 11:52:30.77	330.46	8.39	-30.4	-34.0	11.9	2.59e-04	0	43	0	1164967936	21	5448
2026-01-09 11:52:31.78	330.55	8.32	-30.5	-34.2	11.7	4.23e-04	0	43	0	1167065088	21	5540
2026-01-09 11:52:32.78	330.64	8.25	-30.5	-34.2	11.7	5.58e-04	0	43	0	1168113664	21	5549
2026-01-09 11:52:33.78	330.73	8.18	-30.5	-34.3	11.6	5.69e-04	0	43	0	1170210816	21	5586
2026-01-09 11:52:34.79	330.81	8.11	-30.6	-34.5	11.5	8.44e-04	0	43	0	1172307968	21	5660
2026-01-09 11:52:35.80	330.90	8.04	-30.7	-34.8	11.3	8.14e-04	0	43	0	1174405120	21	5807
2026-01-09 11:52:36.81	330.99	7.97	-30.7	-34.8	11.3	1.09e-03	0	43	0	1176502272	21	5808
2026-01-09 11:52:37.81	331.08	7.91	-30.8	-35.1	11.0	1.38e-03	0	43	0	1177550848	21	5945
2026-01-09 11:52:38.82	331.17	7.84	-30.7	-34.9	11.2	1.44e-03	0	43	0	1179648000	21	5841
2026-01-09 11:52:39.83	331.25	7.77	-30.7	-35.0	11.1	1.66e-03	0	43	0	1181745152	21	5909
2026-01-09 11:52:40.83	331.34	7.70	-30.8	-35.2	11.0	2.04e-03	0	43	0	1183842304	21	5986
2026-01-09 11:52:41.84	331.42	7.63	-30.8	-35.4	10.8	2.22e-03	0	43	0	1185939456	21	6085
2026-01-09 11:52:42.84	331.51	7.57	-30.8	-35.2	10.9	2.37e-03	0	43	0	1186988032	21	6004
2026-01-09 11:52:43.85	331.60	7.50	-30.8	-35.4	10.8	1.94e-03	0	43	0	1189085184	21	6115
2026-01-09 11:52:44.86	331.68	7.43	-30.9	-35.6	10.7	2.37e-03	0	43	0	1191182336	21	6208
2026-01-09 11:52:45.87	331.77	7.36	-30.8	-35.3	10.8	2.24e-03	0	43	0	1193279488	21	6063
2026-01-09 11:52:46.87	331.85	7.30	-30.9	-35.6	10.6	3.13e-03	0	43	0	1195376640	21	6217
2026-01-09 11:52:47.88	331.93	7.23	-30.8	-35.3	10.8	2.61e-03	0	43	0	1196425216	21	6041
2026-01-09 11:52:48.88	332.02	7.16	-30.6	-34.6	11.3	1.53e-03	0	43	0	1198522368	21	5742
2026-01-09 11:52:49.89	332.10	7.10	-30.6	-34.7	11.3	1.35e-03	0	43	0	1200619520	21	5758
2026-01-09 11:52:50.89	332.18	7.03	-33.1	-46.7	3.8	1.28e+00	0	43	104	1201668096	26	17178
2026-01-09 11:52:51.89	332.26	6.96	-33.3	-47.8	3.8	1.49e+00	0	42	104	1201668096	26	18956
2026-01-09 11:52:52.90	332.35	6.90	-33.6	-47.7	3.8	1.49e+00	0	43	104	1201668096	27	18352

#Closed at: 2026-01-09 11:52:53
#Recorded file [1201 MB]: D:/data/31010_260109_144209.dat