passes_logs/2026/01/09/R2M6_AANII_01/R2M6_AANII_01__20260109_225858_NOAA_21_JPSS-2_rec.log

#Pass ID: 20260109_225858_NOAA 21 (JPSS-2)
#Satellite: NOAA 21 (JPSS-2)
#Configuration: NOAA 21
#almurnet v.1.7.20240730
#Start time: 2026-01-09 22:58:59

#Version: 2.2.20231116
#Station: R2M6_AANII_01
#Location: 30.233357 lon 59.946436 lat
#TLE: 1 54234U 22150A   26009.23291724  .00000115  00000+0  75298-4 0  9996
#TLE: 2 54234  98.7494 310.2026 0000856 324.9272  35.1848 14.19533567163994

#Time	Az	El	Level	Level2	SNR	BER	BlckErr	Temp	State	Recorded	gain1	gain2
2026-01-09 22:58:59.44	27.41	7.03	-30.0	-34.1	4.8	1.35e+00	0	40	0	0	20	5780
2026-01-09 22:59:00.42	27.48	7.10	-31.0	-36.2	4.5	1.42e+00	0	40	104	0	22	6566
2026-01-09 22:59:01.43	27.56	7.17	-30.8	-35.4	8.3	4.55e-02	0	40	0	0	21	6116
2026-01-09 22:59:02.42	27.64	7.23	-31.0	-35.4	7.9	8.50e-02	0	40	0	2097152	22	6013
2026-01-09 22:59:03.43	27.73	7.30	-31.0	-35.6	7.8	7.90e-02	0	40	0	5242880	22	6086
2026-01-09 22:59:04.43	27.81	7.37	-30.7	-34.3	8.8	3.72e-02	0	40	0	8388608	22	5467
2026-01-09 22:59:05.43	27.89	7.44	-30.4	-33.9	9.4	2.02e-02	0	40	0	11534336	21	5400
2026-01-09 22:59:06.43	27.97	7.50	-30.0	-33.3	10.2	7.64e-03	0	40	0	14680064	20	5280
2026-01-09 22:59:07.43	28.05	7.57	-29.8	-32.8	10.6	3.59e-03	0	40	0	17825792	20	5073
2026-01-09 22:59:08.42	28.14	7.64	-29.6	-32.3	10.9	2.06e-03	0	40	0	20971520	20	4864
2026-01-09 22:59:09.42	28.22	7.71	-29.7	-32.8	11.0	1.64e-03	0	40	0	24117248	19	5144
2026-01-09 22:59:10.42	28.30	7.77	-29.9	-33.4	10.6	1.94e-03	0	40	0	27262976	19	5387
2026-01-09 22:59:11.42	28.39	7.84	-29.9	-33.0	10.5	5.46e-03	0	40	0	30408704	20	5124
2026-01-09 22:59:12.43	28.47	7.91	-29.6	-32.2	11.0	2.11e-03	0	40	0	33554432	20	4850
2026-01-09 22:59:13.43	28.55	7.98	-29.2	-31.5	11.9	8.70e-04	0	40	0	36700160	19	4694
2026-01-09 22:59:14.44	28.64	8.05	-29.1	-31.2	12.1	6.92e-04	0	40	0	39845888	19	4610
2026-01-09 22:59:15.44	28.73	8.12	-29.1	-31.7	12.1	2.20e-04	0	40	0	42991616	18	4863
2026-01-09 22:59:16.45	28.81	8.19	-28.9	-31.8	12.3	1.78e-04	0	40	0	46137344	17	5001
2026-01-09 22:59:17.45	28.90	8.26	-29.3	-32.2	11.8	8.27e-04	0	40	0	49283072	18	5026
2026-01-09 22:59:18.46	28.99	8.33	-29.1	-31.8	12.0	5.10e-04	0	40	0	52428800	18	4898
2026-01-09 22:59:19.45	29.07	8.40	-29.1	-31.6	12.2	6.87e-04	0	40	0	55574528	18	4828
2026-01-09 22:59:20.45	29.16	8.47	-29.2	-32.1	11.9	8.29e-04	0	40	0	58720256	18	4999
2026-01-09 22:59:21.46	29.25	8.54	-29.0	-31.5	12.3	1.60e-04	0	40	0	61865984	18	4787
2026-01-09 22:59:22.46	29.34	8.61	-29.1	-31.7	12.1	6.83e-04	0	40	0	65011712	18	4872
2026-01-09 22:59:23.46	29.42	8.68	-29.2	-31.9	12.0	5.32e-04	0	40	0	68157440	18	4939
2026-01-09 22:59:24.46	29.51	8.75	-29.2	-31.5	12.0	4.22e-04	0	40	0	71303168	19	4682
2026-01-09 22:59:25.47	29.60	8.82	-29.0	-31.4	12.4	2.30e-04	0	40	0	74448896	18	4753
2026-01-09 22:59:26.47	29.69	8.89	-28.7	-30.8	12.8	7.70e-05	0	41	0	77594624	18	4556
2026-01-09 22:59:27.46	29.78	8.96	-28.6	-30.9	13.0	3.66e-05	0	41	0	80740352	17	4695
2026-01-09 22:59:28.47	29.87	9.03	-28.8	-31.5	12.6	8.62e-05	0	41	0	83886080	17	4888
2026-01-09 22:59:29.47	29.96	9.10	-28.6	-30.5	12.9	9.76e-05	0	41	0	87031808	18	4473
2026-01-09 22:59:30.48	30.06	9.17	-28.4	-30.4	13.4	2.97e-05	0	41	0	90177536	17	4525
2026-01-09 22:59:31.48	30.15	9.24	-28.4	-30.4	13.4	1.46e-04	0	40	0	93323264	17	4532
2026-01-09 22:59:32.47	30.24	9.31	-28.3	-30.2	13.5	2.26e-04	0	41	0	96468992	17	4470
2026-01-09 22:59:33.47	30.33	9.38	-28.3	-30.6	13.6	5.30e-06	0	40	0	99614720	16	4711
2026-01-09 22:59:34.47	30.42	9.46	-28.2	-30.5	13.6	3.65e-04	0	41	0	102760448	16	4673
2026-01-09 22:59:35.47	30.52	9.53	-28.1	-30.3	13.7	2.93e-04	0	41	0	105906176	16	4606
2026-01-09 22:59:36.47	30.61	9.60	-28.2	-30.4	13.7	6.10e-06	0	41	0	109051904	16	4648
2026-01-09 22:59:37.48	30.71	9.67	-28.0	-30.0	13.9	1.14e-05	0	41	0	112197632	16	4530
2026-01-09 22:59:38.48	30.80	9.74	-28.3	-30.7	13.5	5.03e-04	0	41	0	115343360	16	4725
2026-01-09 22:59:39.48	30.90	9.82	-28.5	-30.7	13.2	1.90e-05	0	41	0	118489088	17	4618
2026-01-09 22:59:40.49	30.99	9.89	-28.3	-30.7	13.5	3.76e-04	0	41	0	121634816	16	4728
2026-01-09 22:59:41.49	31.09	9.96	-28.1	-30.2	13.8	6.38e-04	0	41	0	124780544	16	4573
2026-01-09 22:59:42.49	31.19	10.03	-28.4	-31.0	13.3	9.10e-06	0	41	0	127926272	16	4851
2026-01-09 22:59:43.49	31.28	10.11	-28.4	-30.3	13.4	6.80e-06	0	41	0	131072000	17	4513
2026-01-09 22:59:44.50	31.38	10.18	-28.2	-30.6	13.6	3.41e-04	0	41	0	134217728	16	4701
2026-01-09 22:59:45.50	31.48	10.25	-28.2	-30.4	13.7	1.83e-05	0	41	0	137363456	16	4636
2026-01-09 22:59:46.50	31.58	10.33	-28.0	-30.0	14.0	4.27e-04	0	41	0	140509184	16	4520
2026-01-09 22:59:47.50	31.68	10.40	-28.0	-30.1	13.9	5.32e-04	0	41	0	143654912	16	4535
2026-01-09 22:59:48.51	31.78	10.48	-28.1	-30.1	13.9	7.90e-04	0	41	0	146800640	16	4547
2026-01-09 22:59:49.50	31.88	10.55	-28.1	-30.2	13.8	5.26e-04	0	41	0	149946368	16	4588
2026-01-09 22:59:50.50	31.98	10.62	-27.8	-29.9	14.3	4.41e-04	0	41	0	153092096	15	4605
2026-01-09 22:59:51.50	32.08	10.70	-27.6	-29.6	14.3	6.10e-06	0	41	0	156237824	15	4525
2026-01-09 22:59:52.50	32.18	10.77	-27.5	-29.4	14.5	5.02e-04	0	41	0	159383552	15	4442
2026-01-09 22:59:53.50	32.28	10.84	-27.8	-30.1	14.0	5.81e-04	0	41	0	162529280	15	4667
2026-01-09 22:59:54.50	32.38	10.92	-27.7	-29.8	14.2	6.31e-04	0	41	0	165675008	15	4577
2026-01-09 22:59:55.50	32.48	10.99	-27.6	-29.5	14.4	5.04e-04	0	41	0	168820736	15	4477
2026-01-09 22:59:56.51	32.59	11.07	-28.2	-30.3	13.8	3.39e-04	0	41	0	171966464	16	4605
2026-01-09 22:59:57.52	32.69	11.14	-28.1	-30.1	14.0	3.80e-06	0	41	0	175112192	16	4540
2026-01-09 22:59:58.52	32.80	11.22	-28.2	-30.4	13.8	1.44e-05	0	41	0	178257920	16	4626
2026-01-09 22:59:59.51	32.90	11.29	-27.7	-29.1	14.6	2.88e-04	0	41	0	181403648	16	4250
2026-01-09 23:00:00.51	33.01	11.37	-27.9	-29.6	14.3	1.50e-06	0	41	0	184549376	16	4375
2026-01-09 23:00:01.51	33.11	11.45	-27.8	-29.4	14.4	3.80e-06	0	41	0	187695104	16	4344
2026-01-09 23:00:02.51	33.22	11.52	-27.6	-29.5	14.5	1.50e-06	0	41	0	190840832	15	4472
2026-01-09 23:00:03.51	33.33	11.60	-27.6	-29.5	14.4	4.18e-04	0	41	0	193986560	15	4477
2026-01-09 23:00:04.51	33.43	11.67	-27.8	-29.9	14.3	1.50e-06	0	41	0	197132288	15	4595
2026-01-09 23:00:05.51	33.54	11.75	-27.8	-30.0	14.2	3.00e-06	0	41	0	200278016	15	4625
2026-01-09 23:00:06.51	33.65	11.82	-27.8	-29.5	14.4	2.20e-06	0	41	0	203423744	16	4353
2026-01-09 23:00:07.51	33.76	11.90	-27.8	-29.5	14.5	2.67e-05	0	41	0	205520896	16	4355
2026-01-09 23:00:08.51	33.87	11.98	-27.8	-29.5	14.3	4.17e-04	0	41	0	208666624	16	4368
2026-01-09 23:00:09.51	33.98	12.05	-28.9	-31.0	13.0	4.10e-04	0	41	0	211812352	18	4587
2026-01-09 23:00:10.51	34.09	12.13	-28.7	-30.6	13.0	3.58e-05	0	41	0	214958080	18	4482
2026-01-09 23:00:11.51	34.20	12.21	-28.4	-30.4	13.6	2.05e-05	0	41	0	218103808	17	4527
2026-01-09 23:00:12.52	34.31	12.29	-30.2	-33.4	10.6	3.93e-04	0	41	0	221249536	20	5226
2026-01-09 23:00:13.52	34.43	12.36	-28.7	-30.5	13.2	1.44e-05	0	41	0	224395264	18	4432
2026-01-09 23:00:14.52	34.54	12.44	-28.3	-30.6	13.8	2.84e-04	0	41	0	227540992	16	4695
2026-01-09 23:00:15.52	34.65	12.52	-28.2	-30.4	13.9	2.25e-04	0	41	0	230686720	16	4624
2026-01-09 23:00:16.53	34.77	12.60	-28.3	-30.0	13.8	9.90e-06	0	41	0	233832448	17	4410
2026-01-09 23:00:17.53	34.88	12.68	-28.2	-29.8	14.0	3.28e-05	0	41	0	236978176	17	4347
2026-01-09 23:00:18.54	35.00	12.75	-28.3	-30.0	13.7	7.93e-05	0	41	0	240123904	17	4404
2026-01-09 23:00:19.54	35.11	12.83	-28.0	-29.4	14.2	1.50e-06	0	41	0	243269632	17	4241
2026-01-09 23:00:20.55	35.23	12.91	-27.4	-28.5	15.0	1.19e-04	0	41	0	246415360	16	4081
2026-01-09 23:00:21.54	35.35	12.99	-28.7	-31.1	13.2	5.41e-05	0	41	0	249561088	17	4740
2026-01-09 23:00:22.54	35.47	13.07	-28.5	-30.6	13.4	4.50e-06	0	41	0	252706816	17	4567
2026-01-09 23:00:23.54	35.58	13.15	-28.0	-29.3	14.1	1.57e-04	0	41	0	255852544	17	4204
2026-01-09 23:00:24.54	35.70	13.23	-28.1	-30.2	14.0	1.56e-04	0	41	0	258998272	16	4555
2026-01-09 23:00:25.54	35.82	13.30	-28.3	-30.5	13.8	2.82e-05	0	41	0	262144000	16	4664
2026-01-09 23:00:26.54	35.94	13.38	-28.2	-29.9	13.9	1.65e-04	0	41	0	265289728	17	4385
2026-01-09 23:00:27.54	36.06	13.46	-28.1	-29.7	14.0	8.46e-05	0	41	0	268435456	17	4320
2026-01-09 23:00:28.54	36.18	13.54	-28.5	-30.7	13.4	2.28e-05	0	41	0	271581184	17	4613
2026-01-09 23:00:29.54	36.31	13.62	-28.0	-29.9	14.2	1.49e-04	0	41	0	274726912	16	4481
2026-01-09 23:00:30.54	36.43	13.70	-28.2	-30.4	13.9	4.65e-05	0	41	0	277872640	16	4642
2026-01-09 23:00:31.55	36.55	13.78	-28.3	-30.1	13.7	9.90e-06	0	41	0	281018368	17	4439
2026-01-09 23:00:32.55	36.68	13.86	-28.0	-29.4	14.2	1.21e-04	0	41	0	284164096	17	4223
2026-01-09 23:00:33.55	36.80	13.94	-27.7	-29.3	14.6	9.90e-06	0	41	0	287309824	16	4293
2026-01-09 23:00:34.55	36.93	14.02	-27.7	-29.2	14.6	3.80e-06	0	42	0	290455552	16	4275
2026-01-09 23:00:35.56	37.05	14.11	-28.0	-30.0	14.2	7.00e-07	0	41	0	293601280	16	4500
2026-01-09 23:00:36.56	37.18	14.19	-27.9	-29.7	14.3	3.00e-06	0	41	0	296747008	16	4419
2026-01-09 23:00:37.57	37.31	14.27	-27.9	-29.7	14.4	1.50e-06	0	42	0	299892736	16	4427
2026-01-09 23:00:38.57	37.44	14.35	-27.7	-29.1	14.7	2.13e-05	0	41	0	303038464	16	4255
2026-01-09 23:00:39.57	37.56	14.43	-27.6	-28.9	14.9	0.00e+00	0	41	0	306184192	16	4184
2026-01-09 23:00:40.57	37.69	14.51	-27.6	-29.0	14.8	1.75e-05	0	41	0	309329920	16	4203
2026-01-09 23:00:41.57	37.82	14.59	-27.7	-29.1	14.7	0.00e+00	0	41	0	312475648	16	4254
2026-01-09 23:00:42.57	37.95	14.67	-27.7	-29.2	14.7	0.00e+00	0	41	0	315621376	16	4269
2026-01-09 23:00:43.57	38.08	14.76	-27.9	-29.6	14.4	0.00e+00	0	41	0	318767104	16	4385
2026-01-09 23:00:44.57	38.22	14.84	-27.8	-29.5	14.5	3.80e-06	0	41	0	321912832	16	4352
2026-01-09 23:00:45.57	38.35	14.92	-27.9	-29.5	14.5	0.00e+00	0	42	0	325058560	16	4353
2026-01-09 23:00:46.57	38.48	15.00	-27.6	-29.0	14.7	0.00e+00	0	41	0	328204288	16	4227
2026-01-09 23:00:47.58	38.62	15.08	-27.9	-29.6	14.4	0.00e+00	0	42	0	331350016	16	4388
2026-01-09 23:00:48.58	38.75	15.17	-27.9	-29.6	14.4	7.00e-07	0	41	0	334495744	16	4402
2026-01-09 23:00:49.58	38.89	15.25	-28.0	-29.8	14.3	1.50e-06	0	41	0	337641472	16	4449
2026-01-09 23:00:50.58	39.02	15.33	-28.2	-30.2	14.1	7.01e-05	0	41	0	340787200	16	4575
2026-01-09 23:00:51.58	39.16	15.42	-28.1	-30.0	14.2	5.30e-06	0	42	0	343932928	16	4508
2026-01-09 23:00:52.58	39.30	15.50	-28.0	-29.8	14.3	2.20e-06	0	41	0	347078656	16	4438
2026-01-09 23:00:53.59	39.44	15.58	-28.4	-30.7	13.8	7.00e-07	0	41	0	350224384	16	4710
2026-01-09 23:00:54.59	39.58	15.67	-28.1	-30.0	14.2	5.30e-06	0	42	0	353370112	16	4517
2026-01-09 23:00:55.60	39.72	15.75	-28.1	-30.0	14.2	1.50e-06	0	42	0	356515840	16	4494
2026-01-09 23:00:56.59	39.86	15.83	-28.0	-29.8	14.3	2.62e-04	0	41	0	359661568	16	4446
2026-01-09 23:00:57.59	40.00	15.92	-28.0	-29.9	14.3	9.90e-06	0	42	0	362807296	16	4476
2026-01-09 23:00:58.59	40.14	16.00	-28.0	-30.0	14.2	1.50e-06	0	42	0	365953024	16	4492
2026-01-09 23:00:59.59	40.28	16.08	-28.2	-30.2	14.1	1.50e-06	0	42	0	369098752	16	4559
2026-01-09 23:01:00.58	40.43	16.17	-28.1	-30.1	14.1	3.00e-06	0	42	0	372244480	16	4539
2026-01-09 23:01:01.58	40.57	16.25	-28.4	-30.4	13.7	1.06e-05	0	42	0	375390208	17	4505
2026-01-09 23:01:02.58	40.72	16.33	-28.5	-30.5	13.6	2.20e-06	0	42	0	378535936	17	4557
2026-01-09 23:01:03.58	40.86	16.42	-28.6	-30.7	13.5	1.06e-05	0	42	0	381681664	17	4616
2026-01-09 23:01:04.59	41.01	16.50	-28.2	-29.8	14.0	6.10e-06	0	42	0	384827392	17	4344
2026-01-09 23:01:05.58	41.16	16.59	-28.1	-29.5	14.2	2.20e-06	0	42	0	387973120	17	4234
2026-01-09 23:01:06.59	41.31	16.67	-27.9	-29.2	14.4	1.50e-06	0	41	0	391118848	17	4165
2026-01-09 23:01:07.59	41.46	16.76	-27.9	-29.1	14.5	7.00e-07	0	42	0	394264576	17	4135
2026-01-09 23:01:08.59	41.61	16.84	-28.1	-29.5	14.2	1.50e-06	0	42	0	397410304	17	4257
2026-01-09 23:01:09.59	41.76	16.93	-28.0	-29.4	14.3	1.50e-06	0	42	0	400556032	17	4228
2026-01-09 23:01:10.59	41.91	17.01	-28.0	-29.5	14.3	2.20e-06	0	42	0	403701760	17	4242
2026-01-09 23:01:11.59	42.06	17.10	-28.1	-29.6	14.2	1.50e-06	0	42	0	406847488	17	4277
2026-01-09 23:01:12.59	42.21	17.18	-27.9	-29.2	14.5	2.20e-06	0	42	0	409993216	17	4152
2026-01-09 23:01:13.59	42.37	17.27	-28.1	-29.6	14.2	7.00e-07	0	42	0	412090368	17	4264
2026-01-09 23:01:14.60	42.53	17.36	-28.0	-29.2	14.4	0.00e+00	0	42	0	415236096	17	4173
2026-01-09 23:01:15.61	42.68	17.44	-28.0	-29.3	14.4	2.20e-06	0	42	0	418381824	17	4180
2026-01-09 23:01:16.61	42.84	17.53	-28.4	-30.2	13.8	2.20e-06	0	42	0	421527552	17	4455
2026-01-09 23:01:17.60	43.00	17.61	-28.1	-29.5	14.2	7.00e-07	0	42	0	424673280	17	4256
2026-01-09 23:01:18.61	43.16	17.70	-28.2	-29.7	14.1	7.00e-07	0	42	0	427819008	17	4317
2026-01-09 23:01:19.62	43.32	17.79	-28.1	-29.6	14.2	1.50e-06	0	42	0	430964736	17	4276
2026-01-09 23:01:20.62	43.48	17.87	-28.2	-29.8	14.0	2.20e-06	0	42	0	434110464	17	4347
2026-01-09 23:01:21.62	43.64	17.96	-28.2	-29.7	14.2	3.00e-06	0	42	0	437256192	17	4314
2026-01-09 23:01:22.63	43.80	18.05	-28.3	-30.1	13.9	6.10e-06	0	42	0	440401920	17	4429
2026-01-09 23:01:23.62	43.96	18.13	-28.5	-30.5	13.7	4.50e-06	0	42	0	443547648	17	4539
2026-01-09 23:01:24.63	44.13	18.22	-28.4	-30.3	13.8	5.30e-06	0	41	0	446693376	17	4473
2026-01-09 23:01:25.63	44.30	18.31	-28.4	-30.2	13.9	7.00e-07	0	42	0	449839104	17	4433
2026-01-09 23:01:26.63	44.46	18.39	-28.0	-29.4	14.4	1.50e-06	0	42	0	452984832	17	4225
2026-01-09 23:01:27.64	44.63	18.48	-28.1	-29.5	14.4	7.00e-07	0	42	0	456130560	17	4230
2026-01-09 23:01:28.65	44.80	18.57	-28.2	-29.7	14.2	0.00e+00	0	42	0	459276288	17	4294
2026-01-09 23:01:29.65	44.97	18.65	-28.0	-29.5	14.3	7.00e-07	0	42	0	462422016	17	4232
2026-01-09 23:01:30.66	45.14	18.74	-27.9	-29.1	14.6	7.00e-07	0	42	0	465567744	17	4127
2026-01-09 23:01:31.65	45.31	18.83	-28.1	-29.5	14.3	1.50e-06	0	42	0	468713472	17	4251
2026-01-09 23:01:32.65	45.48	18.92	-28.1	-29.5	14.3	7.00e-07	0	42	0	471859200	17	4229
2026-01-09 23:01:33.66	45.65	19.00	-27.9	-29.1	14.6	0.00e+00	0	42	0	475004928	17	4124
2026-01-09 23:01:34.67	45.83	19.09	-27.8	-29.2	14.8	0.00e+00	0	42	0	478150656	16	4272
2026-01-09 23:01:35.67	46.00	19.18	-27.7	-29.1	14.8	0.00e+00	0	42	0	481296384	16	4233
2026-01-09 23:01:36.67	46.18	19.27	-27.8	-29.4	14.7	0.00e+00	0	42	0	484442112	16	4305
2026-01-09 23:01:37.67	46.35	19.35	-27.6	-29.0	14.9	0.00e+00	0	42	0	487587840	16	4190
2026-01-09 23:01:38.67	46.53	19.44	-27.5	-28.7	15.2	0.00e+00	0	42	0	490733568	16	4109
2026-01-09 23:01:39.67	46.71	19.53	-27.8	-29.4	14.7	0.00e+00	0	42	0	493879296	16	4321
2026-01-09 23:01:40.67	46.89	19.62	-27.7	-29.2	14.8	7.00e-07	0	42	0	497025024	16	4245
2026-01-09 23:01:41.66	47.07	19.70	-27.7	-29.2	14.8	0.00e+00	0	42	0	500170752	16	4252
2026-01-09 23:01:42.67	47.25	19.79	-27.0	-28.1	15.6	0.00e+00	0	42	0	503316480	15	4066
2026-01-09 23:01:43.67	47.43	19.88	-27.0	-28.0	15.6	0.00e+00	0	42	0	506462208	15	4055
2026-01-09 23:01:44.66	47.61	19.97	-27.1	-28.7	15.5	0.00e+00	0	42	0	509607936	14	4340
2026-01-09 23:01:45.66	47.80	20.05	-27.0	-28.5	15.6	0.00e+00	0	42	0	512753664	14	4278
2026-01-09 23:01:46.66	47.98	20.14	-27.1	-28.8	15.4	0.00e+00	0	42	0	515899392	14	4376
2026-01-09 23:01:47.66	48.17	20.23	-27.1	-28.9	15.4	0.00e+00	0	42	0	519045120	14	4388
2026-01-09 23:01:48.67	48.36	20.32	-27.1	-28.8	15.4	0.00e+00	0	42	0	522190848	14	4381
2026-01-09 23:01:49.68	48.55	20.41	-27.1	-28.7	15.5	0.00e+00	0	42	0	525336576	14	4345
2026-01-09 23:01:50.68	48.74	20.49	-27.0	-28.5	15.7	0.00e+00	0	42	0	528482304	14	4278
2026-01-09 23:01:51.68	48.93	20.58	-27.3	-29.1	15.3	0.00e+00	0	42	0	531628032	14	4474
2026-01-09 23:01:52.68	49.12	20.67	-27.1	-28.8	15.5	0.00e+00	0	42	0	534773760	14	4370
2026-01-09 23:01:53.69	49.32	20.76	-27.2	-29.0	15.4	0.00e+00	0	42	0	537919488	14	4427
2026-01-09 23:01:54.69	49.51	20.84	-27.1	-28.8	15.5	0.00e+00	0	42	0	541065216	14	4378
2026-01-09 23:01:55.69	49.70	20.93	-27.1	-28.7	15.5	0.00e+00	0	42	0	544210944	14	4343
2026-01-09 23:01:56.70	49.90	21.02	-27.1	-28.7	15.5	0.00e+00	0	42	0	547356672	14	4335
2026-01-09 23:01:57.70	50.10	21.11	-27.1	-28.7	15.5	0.00e+00	0	42	0	550502400	14	4350
2026-01-09 23:01:58.71	50.30	21.20	-27.1	-28.9	15.4	0.00e+00	0	42	0	553648128	14	4391
2026-01-09 23:01:59.71	50.50	21.28	-27.2	-28.9	15.4	0.00e+00	0	42	0	556793856	14	4409
2026-01-09 23:02:00.71	50.70	21.37	-27.0	-28.5	15.6	0.00e+00	0	42	0	559939584	14	4278
2026-01-09 23:02:01.72	50.90	21.46	-26.6	-27.6	16.2	0.00e+00	0	42	0	563085312	14	4047
2026-01-09 23:02:02.72	51.11	21.55	-26.5	-27.3	16.3	0.00e+00	0	42	0	566231040	14	3978
2026-01-09 23:02:03.72	51.31	21.63	-26.4	-27.2	16.4	0.00e+00	0	42	0	569376768	14	3939
2026-01-09 23:02:04.72	51.51	21.72	-26.5	-27.4	16.3	0.00e+00	0	42	0	572522496	14	3983
2026-01-09 23:02:05.72	51.72	21.81	-26.5	-27.4	16.3	0.00e+00	0	42	0	575668224	14	3982
2026-01-09 23:02:06.72	51.93	21.90	-26.8	-28.0	15.9	0.00e+00	0	42	0	578813952	14	4159
2026-01-09 23:02:07.72	52.14	21.98	-26.7	-27.9	16.0	0.00e+00	0	42	0	581959680	14	4126
2026-01-09 23:02:08.72	52.35	22.07	-26.4	-27.2	16.4	0.00e+00	0	42	0	585105408	14	3949
2026-01-09 23:02:09.73	52.56	22.16	-26.6	-27.6	16.2	0.00e+00	0	42	0	588251136	14	4035
2026-01-09 23:02:10.74	52.77	22.25	-26.5	-27.4	16.3	0.00e+00	0	42	0	591396864	14	3988
2026-01-09 23:02:11.74	52.99	22.33	-26.4	-27.6	16.4	0.00e+00	0	42	0	594542592	13	4160
2026-01-09 23:02:12.74	53.20	22.42	-26.4	-27.7	16.4	0.00e+00	0	42	0	597688320	13	4168
2026-01-09 23:02:13.74	53.41	22.51	-26.2	-27.8	16.6	0.00e+00	0	42	0	600834048	12	4306
2026-01-09 23:02:14.74	53.63	22.59	-26.3	-27.9	16.6	0.00e+00	0	42	0	603979776	12	4324
2026-01-09 23:02:15.75	53.85	22.68	-26.3	-27.9	16.6	0.00e+00	0	42	0	607125504	12	4330
2026-01-09 23:02:16.75	54.07	22.77	-26.2	-27.7	16.7	0.00e+00	0	42	0	610271232	12	4275
2026-01-09 23:02:17.75	54.29	22.85	-26.3	-27.9	16.6	0.00e+00	0	42	0	613416960	12	4329
2026-01-09 23:02:18.76	54.51	22.94	-26.2	-27.8	16.6	0.00e+00	0	42	0	616562688	12	4322
2026-01-09 23:02:19.76	54.74	23.02	-26.1	-27.6	16.7	0.00e+00	0	42	0	619708416	12	4261
2026-01-09 23:02:20.76	54.96	23.11	-26.2	-27.8	16.6	0.00e+00	0	42	0	622854144	12	4297
2026-01-09 23:02:21.77	55.19	23.20	-26.3	-28.0	16.5	0.00e+00	0	42	0	625999872	12	4359
2026-01-09 23:02:22.78	55.41	23.28	-26.3	-27.9	16.6	0.00e+00	0	42	0	629145600	12	4331
2026-01-09 23:02:23.77	55.64	23.37	-26.3	-27.9	16.6	0.00e+00	0	42	0	632291328	12	4344
2026-01-09 23:02:24.77	55.87	23.45	-26.4	-28.2	16.4	0.00e+00	0	42	0	635437056	12	4436
2026-01-09 23:02:25.76	56.10	23.53	-26.5	-27.9	16.3	0.00e+00	0	42	0	638582784	13	4232
2026-01-09 23:02:26.76	56.33	23.62	-26.8	-28.5	16.0	0.00e+00	0	42	0	641728512	13	4396
2026-01-09 23:02:27.76	56.56	23.70	-26.7	-28.3	16.1	0.00e+00	0	42	0	643825664	13	4329
2026-01-09 23:02:28.77	56.79	23.79	-26.7	-28.3	16.1	0.00e+00	0	42	0	646971392	13	4330
2026-01-09 23:02:29.77	57.03	23.87	-26.7	-28.3	16.1	0.00e+00	0	42	0	650117120	13	4341
2026-01-09 23:02:30.78	57.27	23.96	-26.9	-28.9	15.8	0.00e+00	0	42	0	653262848	13	4504
2026-01-09 23:02:31.79	57.51	24.04	-26.9	-28.3	15.8	0.00e+00	0	42	0	657457152	14	4231
2026-01-09 23:02:32.80	57.75	24.13	-26.9	-28.3	15.8	0.00e+00	0	42	0	660602880	14	4230
2026-01-09 23:02:33.80	57.99	24.21	-27.1	-28.8	15.6	0.00e+00	0	42	0	663748608	14	4361
2026-01-09 23:02:34.80	58.23	24.29	-27.1	-28.7	15.7	0.00e+00	0	42	0	665845760	14	4326
2026-01-09 23:02:35.81	58.47	24.37	-27.1	-28.7	15.7	0.00e+00	0	42	0	668991488	14	4336
2026-01-09 23:02:36.81	58.71	24.46	-27.3	-29.2	15.4	0.00e+00	0	42	0	672137216	14	4489
2026-01-09 23:02:37.81	58.96	24.54	-27.3	-29.1	15.4	0.00e+00	0	42	0	675282944	14	4446
2026-01-09 23:02:38.81	59.21	24.62	-27.0	-28.6	15.7	0.00e+00	0	42	0	678428672	14	4319
2026-01-09 23:02:39.81	59.45	24.70	-27.0	-28.5	15.8	0.00e+00	0	42	0	681574400	14	4268
2026-01-09 23:02:40.81	59.70	24.78	-27.1	-28.8	15.6	0.00e+00	0	42	0	684720128	14	4378
2026-01-09 23:02:41.81	59.95	24.86	-27.0	-28.6	15.7	0.00e+00	0	42	0	687865856	14	4305
2026-01-09 23:02:42.81	60.20	24.94	-27.0	-28.5	15.8	0.00e+00	0	42	0	691011584	14	4291
2026-01-09 23:02:43.82	60.46	25.02	-27.2	-29.1	15.4	0.00e+00	0	42	0	694157312	14	4436
2026-01-09 23:02:44.82	60.71	25.10	-27.1	-28.8	15.6	0.00e+00	0	42	0	697303040	14	4350
2026-01-09 23:02:45.82	60.96	25.18	-27.0	-28.4	15.8	0.00e+00	0	42	0	700448768	14	4244
2026-01-09 23:02:46.82	61.22	25.26	-27.0	-28.5	15.8	0.00e+00	0	42	0	703594496	14	4272
2026-01-09 23:02:47.83	61.48	25.34	-27.2	-28.9	15.5	1.50e-06	0	42	0	706740224	14	4401
2026-01-09 23:02:48.83	61.74	25.42	-27.3	-29.3	15.3	0.00e+00	0	42	0	709885952	14	4503
2026-01-09 23:02:49.83	62.00	25.50	-27.6	-29.3	15.0	0.00e+00	0	42	0	713031680	15	4402
2026-01-09 23:02:50.84	62.26	25.58	-27.5	-29.2	15.1	7.00e-07	0	42	0	716177408	15	4378
2026-01-09 23:02:51.83	62.52	25.65	-27.3	-28.7	15.4	0.00e+00	0	42	0	719323136	15	4231
2026-01-09 23:02:52.84	62.79	25.73	-27.3	-28.7	15.1	0.00e+00	0	42	0	722468864	15	4240
2026-01-09 23:02:53.84	63.05	25.81	-27.0	-28.0	15.8	0.00e+00	0	42	0	725614592	15	4033
2026-01-09 23:02:54.85	63.32	25.88	-26.8	-27.6	15.9	5.34e-05	0	42	0	728760320	15	3933
2026-01-09 23:02:55.85	63.59	25.96	-26.9	-28.2	15.9	0.00e+00	0	42	0	731906048	14	4197
2026-01-09 23:02:56.85	63.86	26.03	-26.7	-27.8	16.1	7.00e-07	0	42	0	735051776	14	4100
2026-01-09 23:02:57.86	64.13	26.11	-26.8	-28.1	16.0	0.00e+00	0	42	0	738197504	14	4167
2026-01-09 23:02:58.87	64.40	26.18	-26.9	-28.3	15.9	0.00e+00	0	42	0	741343232	14	4230
2026-01-09 23:02:59.87	64.67	26.26	-27.0	-28.4	15.8	0.00e+00	0	42	0	744488960	14	4260
2026-01-09 23:03:00.87	64.95	26.33	-26.9	-28.4	15.8	0.00e+00	0	42	0	747634688	14	4245
2026-01-09 23:03:01.88	65.23	26.41	-27.1	-28.7	15.7	0.00e+00	0	42	0	750780416	14	4327
2026-01-09 23:03:02.88	65.50	26.48	-27.0	-28.6	15.7	7.00e-07	0	42	0	753926144	14	4306
2026-01-09 23:03:03.88	65.78	26.55	-26.8	-28.0	16.1	0.00e+00	0	42	0	757071872	14	4140
2026-01-09 23:03:04.89	66.06	26.62	-26.8	-28.0	16.1	7.00e-07	0	42	0	760217600	14	4136
2026-01-09 23:03:05.88	66.34	26.69	-26.6	-27.7	16.2	0.00e+00	0	42	0	763363328	14	4063
2026-01-09 23:03:06.88	66.62	26.76	-26.9	-28.2	15.9	0.00e+00	0	42	0	766509056	14	4206
2026-01-09 23:03:07.88	66.90	26.83	-27.0	-28.5	15.8	0.00e+00	0	42	0	769654784	14	4283
2026-01-09 23:03:08.89	67.19	26.90	-27.0	-28.5	15.8	0.00e+00	0	42	0	772800512	14	4275
2026-01-09 23:03:09.89	67.47	26.97	-27.0	-28.6	15.7	0.00e+00	0	42	0	775946240	14	4304
2026-01-09 23:03:10.89	67.76	27.04	-27.0	-28.5	15.8	0.00e+00	0	42	0	779091968	14	4272
2026-01-09 23:03:11.89	68.04	27.10	-26.9	-28.3	15.9	0.00e+00	0	42	0	782237696	14	4220
2026-01-09 23:03:12.90	68.33	27.17	-27.2	-29.0	15.5	0.00e+00	0	42	0	785383424	14	4425
2026-01-09 23:03:13.90	68.62	27.24	-27.1	-28.7	15.7	0.00e+00	0	42	0	788529152	14	4331
2026-01-09 23:03:14.89	68.91	27.30	-26.9	-28.3	15.9	0.00e+00	0	42	0	791674880	14	4211
2026-01-09 23:03:15.89	69.20	27.37	-26.8	-28.0	16.0	5.64e-05	0	42	0	794820608	14	4148
2026-01-09 23:03:16.90	69.50	27.43	-26.7	-27.9	16.1	1.48e-04	0	42	0	797966336	14	4113
2026-01-09 23:03:17.90	69.79	27.50	-26.8	-28.1	16.0	0.00e+00	0	42	0	801112064	14	4172
2026-01-09 23:03:18.90	70.09	27.56	-26.7	-27.9	16.1	0.00e+00	0	42	0	804257792	14	4118
2026-01-09 23:03:19.90	70.38	27.62	-26.7	-27.8	16.2	1.85e-04	0	42	0	807403520	14	4087
2026-01-09 23:03:20.90	70.68	27.68	-26.6	-27.5	16.4	0.00e+00	0	42	0	810549248	14	4016
2026-01-09 23:03:21.91	70.98	27.75	-26.5	-27.4	16.4	9.53e-05	0	42	0	813694976	14	3987
2026-01-09 23:03:22.92	71.29	27.81	-26.7	-27.8	16.2	4.04e-05	0	42	0	816840704	14	4102
2026-01-09 23:03:23.92	71.59	27.87	-26.7	-27.8	16.2	0.00e+00	0	42	0	819986432	14	4098
2026-01-09 23:03:24.93	71.89	27.93	-26.8	-28.1	16.0	0.00e+00	0	42	0	823132160	14	4172
2026-01-09 23:03:25.93	72.20	27.98	-26.8	-28.2	16.0	0.00e+00	0	42	0	826277888	14	4184
2026-01-09 23:03:26.93	72.50	28.04	-26.9	-28.3	15.9	0.00e+00	0	42	0	829423616	14	4218
2026-01-09 23:03:27.94	72.81	28.10	-27.0	-28.4	15.9	0.00e+00	0	42	0	832569344	14	4260
2026-01-09 23:03:28.93	73.11	28.15	-27.0	-28.4	15.9	0.00e+00	0	42	0	835715072	14	4259
2026-01-09 23:03:29.94	73.42	28.21	-27.2	-28.8	15.6	0.00e+00	0	42	0	838860800	14	4370
2026-01-09 23:03:30.94	73.73	28.26	-27.0	-28.5	15.8	0.00e+00	0	42	0	842006528	14	4277
2026-01-09 23:03:31.94	74.04	28.32	-27.2	-29.0	15.5	0.00e+00	0	42	0	845152256	14	4427
2026-01-09 23:03:32.94	74.35	28.37	-27.1	-28.8	15.7	0.00e+00	0	42	0	848297984	14	4353
2026-01-09 23:03:33.94	74.66	28.42	-27.3	-29.1	15.5	0.00e+00	0	42	0	851443712	14	4442
2026-01-09 23:03:34.93	74.97	28.47	-27.1	-28.8	15.7	0.00e+00	0	42	0	854589440	14	4363
2026-01-09 23:03:35.93	75.29	28.52	-27.1	-28.7	15.7	0.00e+00	0	42	0	857735168	14	4325
2026-01-09 23:03:36.93	75.60	28.57	-27.2	-28.9	15.6	0.00e+00	0	42	0	860880896	14	4401
2026-01-09 23:03:37.93	75.91	28.62	-27.2	-29.0	15.5	0.00e+00	0	42	0	864026624	14	4428
2026-01-09 23:03:38.93	76.23	28.67	-27.3	-28.7	15.4	0.00e+00	0	42	0	867172352	15	4236
2026-01-09 23:03:39.93	76.55	28.72	-27.5	-29.2	15.1	0.00e+00	0	42	0	870318080	15	4370
2026-01-09 23:03:40.93	76.87	28.76	-27.2	-28.5	15.5	3.00e-06	0	42	0	872415232	15	4156
2026-01-09 23:03:41.93	77.19	28.81	-27.2	-28.4	15.6	0.00e+00	0	42	0	875560960	15	4132
2026-01-09 23:03:42.93	77.51	28.85	-27.8	-29.9	14.8	0.00e+00	0	42	0	878706688	15	4564
2026-01-09 23:03:43.93	77.83	28.90	-27.3	-28.6	15.4	0.00e+00	0	42	0	881852416	15	4205
2026-01-09 23:03:44.93	78.15	28.94	-27.1	-28.2	15.8	0.00e+00	0	42	0	884998144	15	4085
2026-01-09 23:03:45.92	78.47	28.98	-27.4	-28.9	15.3	7.00e-07	0	42	0	888143872	15	4285
2026-01-09 23:03:46.93	78.79	29.02	-27.3	-28.6	15.5	0.00e+00	0	42	0	891289600	15	4195
2026-01-09 23:03:47.93	79.12	29.06	-27.1	-28.3	15.7	0.00e+00	0	42	0	894435328	15	4102
2026-01-09 23:03:48.92	79.44	29.10	-27.0	-28.0	15.8	1.75e-05	0	42	0	897581056	15	4046
2026-01-09 23:03:49.92	79.77	29.14	-27.2	-28.5	15.6	1.27e-04	0	42	0	900726784	15	4157
2026-01-09 23:03:50.92	80.09	29.18	-27.6	-29.3	15.2	0.00e+00	0	42	0	903872512	15	4389
2026-01-09 23:03:51.93	80.42	29.21	-27.3	-28.6	15.5	1.29e-04	0	42	0	907018240	15	4191
2026-01-09 23:03:52.93	80.75	29.25	-27.4	-29.0	15.3	2.51e-05	0	42	0	910163968	15	4294
2026-01-09 23:03:53.93	81.08	29.28	-27.2	-28.5	15.5	0.00e+00	0	42	0	913309696	15	4178
2026-01-09 23:03:54.93	81.41	29.32	-27.3	-28.6	15.5	4.73e-05	0	42	0	916455424	15	4207
2026-01-09 23:03:55.94	81.74	29.35	-27.6	-29.4	15.0	0.00e+00	0	42	0	919601152	15	4426
2026-01-09 23:03:56.94	82.07	29.38	-27.4	-28.9	15.3	0.00e+00	0	42	0	922746880	15	4290
2026-01-09 23:03:57.95	82.41	29.41	-27.4	-28.8	15.4	7.47e-05	0	42	0	925892608	15	4253
2026-01-09 23:03:58.95	82.74	29.44	-27.5	-29.1	15.2	4.57e-05	0	42	0	929038336	15	4344
2026-01-09 23:03:59.95	83.07	29.47	-27.4	-28.8	15.4	0.00e+00	0	42	0	932184064	15	4253
2026-01-09 23:04:00.95	83.41	29.50	-27.2	-28.5	15.6	0.00e+00	0	42	0	935329792	15	4164
2026-01-09 23:04:01.95	83.74	29.52	-27.4	-28.9	15.4	6.56e-05	0	42	0	938475520	15	4264
2026-01-09 23:04:02.94	84.07	29.55	-27.0	-28.0	15.8	0.00e+00	0	42	0	941621248	15	4040
2026-01-09 23:04:03.95	84.41	29.57	-27.2	-28.3	15.6	9.23e-05	0	42	0	944766976	15	4127
2026-01-09 23:04:04.95	84.74	29.60	-27.3	-28.6	15.5	9.46e-05	0	42	0	947912704	15	4185
2026-01-09 23:04:05.94	85.08	29.62	-27.3	-28.6	15.5	0.00e+00	0	42	0	951058432	15	4190
2026-01-09 23:04:06.95	85.42	29.64	-27.2	-28.5	15.6	0.00e+00	0	42	0	954204160	15	4162
2026-01-09 23:04:07.95	85.75	29.66	-27.5	-29.1	15.2	1.11e-04	0	42	0	957349888	15	4348
2026-01-09 23:04:08.95	86.09	29.68	-27.0	-28.1	15.8	0.00e+00	0	42	0	960495616	15	4059
2026-01-09 23:04:09.96	86.43	29.70	-26.9	-27.8	15.9	5.34e-05	0	42	0	963641344	15	3991
2026-01-09 23:04:10.96	86.77	29.71	-27.1	-28.2	15.8	3.73e-05	0	42	0	966787072	15	4085
2026-01-09 23:04:11.96	87.11	29.73	-27.3	-28.7	15.5	0.00e+00	0	42	0	969932800	15	4214
2026-01-09 23:04:12.96	87.44	29.74	-27.3	-28.7	15.4	3.12e-05	0	42	0	973078528	15	4231
2026-01-09 23:04:13.97	87.79	29.76	-27.2	-28.5	15.5	5.30e-06	0	42	0	976224256	15	4176
2026-01-09 23:04:14.97	88.13	29.77	-27.1	-28.2	15.8	0.00e+00	0	42	0	979369984	15	4077
2026-01-09 23:04:15.98	88.47	29.78	-27.1	-28.2	15.8	0.00e+00	0	42	0	982515712	15	4092
2026-01-09 23:04:16.98	88.81	29.79	-27.3	-28.6	15.6	0.00e+00	0	42	0	985661440	15	4183
2026-01-09 23:04:17.98	89.15	29.80	-27.3	-28.7	15.4	0.00e+00	0	42	0	988807168	15	4228
2026-01-09 23:04:18.98	89.49	29.81	-27.4	-28.8	15.5	0.00e+00	0	42	0	991952896	15	4247
2026-01-09 23:04:19.98	89.83	29.82	-27.3	-28.7	15.5	0.00e+00	0	42	0	995098624	15	4215
2026-01-09 23:04:20.98	90.17	29.82	-27.3	-28.7	15.5	0.00e+00	0	42	0	998244352	15	4221
2026-01-09 23:04:21.98	90.51	29.83	-27.2	-28.4	15.6	0.00e+00	0	42	0	1001390080	15	4130
2026-01-09 23:04:22.98	90.85	29.83	-27.2	-28.4	15.6	0.00e+00	0	42	0	1004535808	15	4149
2026-01-09 23:04:23.98	91.19	29.84	-27.4	-28.8	15.4	0.00e+00	0	42	0	1007681536	15	4243
2026-01-09 23:04:24.99	91.53	29.84	-27.5	-29.1	15.3	4.20e-04	0	42	0	1010827264	15	4321
2026-01-09 23:04:25.99	91.87	29.84	-27.3	-28.6	15.5	3.51e-04	0	42	0	1013972992	15	4192
2026-01-09 23:04:27.00	92.22	29.84	-27.3	-28.7	15.5	0.00e+00	0	42	0	1017118720	15	4216
2026-01-09 23:04:27.99	92.56	29.84	-27.3	-28.6	15.6	0.00e+00	0	42	0	1020264448	15	4189
2026-01-09 23:04:29.00	92.90	29.84	-27.3	-28.7	15.5	0.00e+00	0	42	0	1023410176	15	4216
2026-01-09 23:04:30.01	93.24	29.83	-27.2	-28.5	15.6	0.00e+00	0	42	0	1026555904	15	4169
2026-01-09 23:04:31.01	93.59	29.83	-27.1	-28.3	15.7	7.00e-07	0	42	0	1029701632	15	4118
2026-01-09 23:04:32.01	93.93	29.82	-27.2	-28.4	15.6	0.00e+00	0	42	0	1032847360	15	4150
2026-01-09 23:04:33.01	94.27	29.82	-27.4	-28.9	15.4	0.00e+00	0	42	0	1035993088	15	4275
2026-01-09 23:04:34.01	94.61	29.81	-28.0	-30.3	14.6	0.00e+00	0	42	0	1039138816	15	4685
2026-01-09 23:04:35.01	94.95	29.80	-27.5	-29.2	15.2	0.00e+00	0	42	0	1042284544	15	4372
2026-01-09 23:04:36.02	95.29	29.79	-27.4	-28.9	15.4	0.00e+00	0	42	0	1045430272	15	4277
2026-01-09 23:04:37.02	95.63	29.78	-27.6	-29.3	15.1	7.00e-07	0	42	0	1048576000	15	4392
2026-01-09 23:04:38.03	95.97	29.76	-27.7	-29.5	15.0	7.00e-07	0	42	0	1051721728	15	4462
2026-01-09 23:04:39.03	96.31	29.75	-27.6	-29.4	15.0	0.00e+00	0	42	0	1054867456	15	4436
2026-01-09 23:04:40.03	96.65	29.74	-27.4	-28.9	15.4	0.00e+00	0	42	0	1058013184	15	4278
2026-01-09 23:04:41.04	96.99	29.72	-27.3	-28.7	15.5	0.00e+00	0	42	0	1061158912	15	4225
2026-01-09 23:04:42.04	97.33	29.70	-27.3	-28.7	15.5	0.00e+00	0	42	0	1064304640	15	4213
2026-01-09 23:04:43.04	97.67	29.69	-27.4	-29.0	15.3	0.00e+00	0	42	0	1067450368	15	4304
2026-01-09 23:04:44.04	98.01	29.67	-27.3	-28.6	15.5	0.00e+00	0	42	0	1070596096	15	4212
2026-01-09 23:04:45.05	98.35	29.65	-27.4	-28.8	15.4	0.00e+00	0	42	0	1073741824	15	4269
2026-01-09 23:04:46.05	98.68	29.63	-27.4	-29.0	15.3	0.00e+00	0	42	0	1076887552	15	4310
2026-01-09 23:04:47.06	99.02	29.61	-27.4	-28.9	15.4	3.80e-06	0	42	0	1080033280	15	4286
2026-01-09 23:04:48.06	99.36	29.58	-27.0	-28.0	15.9	0.00e+00	0	42	0	1083179008	15	4031
2026-01-09 23:04:49.06	99.69	29.56	-27.1	-28.2	15.7	0.00e+00	0	42	0	1086324736	15	4100
2026-01-09 23:04:50.07	100.03	29.53	-27.1	-28.2	15.7	4.50e-06	0	42	0	1089470464	15	4095
2026-01-09 23:04:51.07	100.37	29.51	-27.0	-28.1	15.8	0.00e+00	0	42	0	1092616192	15	4063
2026-01-09 23:04:52.07	100.70	29.48	-27.1	-28.3	15.7	0.00e+00	0	42	0	1095761920	15	4123
2026-01-09 23:04:53.08	101.04	29.45	-27.3	-28.6	15.5	0.00e+00	0	42	0	1098907648	15	4194
2026-01-09 23:04:54.08	101.37	29.42	-27.1	-28.3	15.7	0.00e+00	0	42	0	1101004800	15	4109
2026-01-09 23:04:55.08	101.70	29.39	-27.0	-28.1	15.8	0.00e+00	0	42	0	1104150528	15	4051
2026-01-09 23:04:56.08	102.03	29.36	-27.3	-28.6	15.5	6.80e-06	0	42	0	1107296256	15	4204
2026-01-09 23:04:57.08	102.36	29.33	-27.2	-28.5	15.6	0.00e+00	0	42	0	1110441984	15	4173
2026-01-09 23:04:58.08	102.69	29.30	-27.2	-28.5	15.6	0.00e+00	0	42	0	1113587712	15	4186
2026-01-09 23:04:59.08	103.02	29.26	-27.4	-28.8	15.4	3.80e-06	0	42	0	1116733440	15	4253
2026-01-09 23:05:00.07	103.35	29.23	-27.0	-27.9	15.9	0.00e+00	0	42	0	1119879168	15	4008
2026-01-09 23:05:01.08	103.68	29.19	-27.5	-29.1	15.2	0.00e+00	0	42	0	1123024896	15	4314
2026-01-09 23:05:02.08	104.01	29.16	-27.2	-28.5	15.6	1.50e-06	0	42	0	1126170624	15	4180
2026-01-09 23:05:03.09	104.34	29.12	-27.2	-28.4	15.7	0.00e+00	0	42	0	1129316352	15	4150
2026-01-09 23:05:04.09	104.67	29.08	-27.3	-28.8	15.4	0.00e+00	0	42	0	1132462080	15	4249
2026-01-09 23:05:05.08	104.99	29.04	-27.5	-29.2	15.3	0.00e+00	0	42	0	1135607808	15	4348
2026-01-09 23:05:06.07	105.31	29.00	-27.3	-28.7	15.5	0.00e+00	0	42	0	1138753536	15	4232
2026-01-09 23:05:07.08	105.64	28.96	-27.1	-28.1	15.8	0.00e+00	0	42	0	1141899264	15	4065
2026-01-09 23:05:08.09	105.96	28.92	-27.0	-28.0	15.8	0.00e+00	0	42	0	1145044992	15	4042
2026-01-09 23:05:09.09	106.28	28.87	-27.1	-28.2	15.7	0.00e+00	0	42	0	1148190720	15	4098
2026-01-09 23:05:10.10	106.61	28.83	-27.2	-28.5	15.5	0.00e+00	0	42	0	1151336448	15	4170
2026-01-09 23:05:11.10	106.93	28.78	-27.1	-28.1	15.8	7.00e-07	0	42	0	1154482176	15	4066
2026-01-09 23:05:12.10	107.25	28.74	-27.1	-28.1	15.8	0.00e+00	0	42	0	1157627904	15	4067
2026-01-09 23:05:13.10	107.57	28.69	-27.1	-28.2	15.7	0.00e+00	0	42	0	1160773632	15	4080
2026-01-09 23:05:14.10	107.88	28.64	-27.0	-28.0	15.8	0.00e+00	0	42	0	1163919360	15	4050
2026-01-09 23:05:15.11	108.20	28.59	-27.0	-28.0	15.8	0.00e+00	0	42	0	1167065088	15	4025
2026-01-09 23:05:16.12	108.52	28.54	-27.0	-27.9	15.8	0.00e+00	0	42	0	1170210816	15	4011
2026-01-09 23:05:17.11	108.83	28.49	-26.8	-28.1	16.0	3.00e-06	0	42	0	1173356544	14	4176
2026-01-09 23:05:18.12	109.15	28.44	-27.0	-28.5	15.7	0.00e+00	0	42	0	1176502272	14	4289
2026-01-09 23:05:19.12	109.46	28.39	-26.9	-28.3	15.9	0.00e+00	0	42	0	1179648000	14	4220
2026-01-09 23:05:20.12	109.77	28.34	-26.9	-28.3	15.9	0.00e+00	0	42	0	1182793728	14	4211
2026-01-09 23:05:21.12	110.09	28.28	-27.0	-28.4	15.9	0.00e+00	0	42	0	1185939456	14	4252
2026-01-09 23:05:22.13	110.40	28.23	-27.3	-29.1	15.4	0.00e+00	0	42	0	1189085184	14	4451
2026-01-09 23:05:23.13	110.71	28.17	-27.1	-28.8	15.6	0.00e+00	0	42	0	1192230912	14	4367
2026-01-09 23:05:24.13	111.01	28.12	-27.4	-29.4	15.2	0.00e+00	0	42	0	1195376640	14	4529
2026-01-09 23:05:25.13	111.32	28.06	-27.2	-29.0	15.5	0.00e+00	0	42	0	1198522368	14	4413
2026-01-09 23:05:26.13	111.63	28.00	-27.0	-28.4	15.8	6.10e-06	0	42	0	1201668096	14	4262
2026-01-09 23:05:27.12	111.93	27.95	-27.0	-28.4	15.8	0.00e+00	0	42	0	1204813824	14	4253
2026-01-09 23:05:28.12	112.23	27.89	-27.0	-28.4	15.8	0.00e+00	0	42	0	1207959552	14	4244
2026-01-09 23:05:29.12	112.53	27.83	-27.0	-28.5	15.8	0.00e+00	0	42	0	1211105280	14	4277
2026-01-09 23:05:30.12	112.83	27.77	-27.2	-28.9	15.5	0.00e+00	0	42	0	1214251008	14	4388
2026-01-09 23:05:31.11	113.13	27.71	-27.3	-29.1	15.4	0.00e+00	0	42	0	1217396736	14	4458
2026-01-09 23:05:32.11	113.43	27.65	-27.7	-29.6	14.8	0.00e+00	0	42	0	1220542464	15	4474
2026-01-09 23:05:33.11	113.73	27.58	-28.1	-30.0	14.4	0.00e+00	0	42	0	1223688192	16	4476
2026-01-09 23:05:34.11	114.03	27.52	-27.9	-29.5	14.8	0.00e+00	0	42	0	1226833920	16	4324
2026-01-09 23:05:35.11	114.32	27.46	-27.6	-28.9	15.1	0.00e+00	0	42	0	1229979648	16	4165
2026-01-09 23:05:36.11	114.62	27.39	-27.3	-28.2	15.5	0.00e+00	0	42	0	1233125376	16	3975
2026-01-09 23:05:37.11	114.91	27.33	-26.9	-28.3	15.8	0.00e+00	0	42	0	1236271104	14	4224
2026-01-09 23:05:38.12	115.20	27.26	-26.8	-28.2	15.9	0.00e+00	0	42	0	1239416832	14	4198
2026-01-09 23:05:39.12	115.49	27.19	-26.7	-28.0	16.0	0.00e+00	0	42	0	1242562560	14	4142
2026-01-09 23:05:40.12	115.78	27.13	-26.9	-28.3	15.8	0.00e+00	0	42	0	1245708288	14	4235
2026-01-09 23:05:41.13	116.08	27.06	-27.0	-28.6	15.6	0.00e+00	0	42	0	1248854016	14	4314
2026-01-09 23:05:42.13	116.36	26.99	-27.0	-28.4	15.7	0.00e+00	0	42	0	1251999744	14	4271
2026-01-09 23:05:43.13	116.65	26.92	-27.0	-28.6	15.6	0.00e+00	0	42	0	1255145472	14	4307
2026-01-09 23:05:44.13	116.93	26.85	-26.9	-28.4	15.7	0.00e+00	0	42	0	1258291200	14	4267
2026-01-09 23:05:45.14	117.22	26.78	-26.9	-28.4	15.7	0.00e+00	0	42	0	1261436928	14	4259
2026-01-09 23:05:46.13	117.50	26.71	-27.1	-28.7	15.5	0.00e+00	0	42	0	1264582656	14	4357
2026-01-09 23:05:47.14	117.78	26.64	-27.3	-29.3	15.2	0.00e+00	0	42	0	1267728384	14	4508
2026-01-09 23:05:48.14	118.06	26.57	-27.2	-28.9	15.4	0.00e+00	0	42	0	1270874112	14	4416
2026-01-09 23:05:49.14	118.34	26.50	-27.3	-29.1	15.3	0.00e+00	0	42	0	1274019840	14	4471
2026-01-09 23:05:50.14	118.62	26.43	-26.9	-28.4	15.7	0.00e+00	0	42	0	1277165568	14	4272
2026-01-09 23:05:51.14	118.90	26.35	-26.9	-28.3	15.8	0.00e+00	0	42	0	1280311296	14	4220
2026-01-09 23:05:52.15	119.17	26.28	-26.7	-28.0	15.9	0.00e+00	0	42	0	1283457024	14	4146
2026-01-09 23:05:53.15	119.45	26.21	-27.0	-28.4	15.7	0.00e+00	0	42	0	1286602752	14	4273
2026-01-09 23:05:54.16	119.72	26.13	-26.9	-28.4	15.7	0.00e+00	0	42	0	1289748480	14	4247
2026-01-09 23:05:55.16	120.00	26.06	-27.0	-28.6	15.6	0.00e+00	0	42	0	1292894208	14	4302
2026-01-09 23:05:56.17	120.27	25.98	-26.7	-27.9	15.9	0.00e+00	0	42	0	1296039936	14	4115
2026-01-09 23:05:57.17	120.54	25.90	-26.6	-27.6	16.1	0.00e+00	0	42	0	1299185664	14	4045
2026-01-09 23:05:58.17	120.80	25.83	-26.6	-28.1	16.1	0.00e+00	0	42	0	1302331392	13	4290
2026-01-09 23:05:59.18	121.07	25.75	-26.6	-28.1	16.1	0.00e+00	0	42	0	1305477120	13	4301
2026-01-09 23:06:00.18	121.34	25.67	-26.7	-28.4	15.9	0.00e+00	0	42	0	1307574272	13	4364
2026-01-09 23:06:01.18	121.60	25.59	-26.7	-28.4	16.0	0.00e+00	0	42	0	1310720000	13	4361
2026-01-09 23:06:02.18	121.86	25.52	-26.8	-28.7	15.7	0.00e+00	0	42	0	1313865728	13	4448
2026-01-09 23:06:03.18	122.13	25.44	-26.3	-27.5	16.4	0.00e+00	0	42	0	1317011456	13	4132
2026-01-09 23:06:04.18	122.39	25.36	-26.1	-27.1	16.7	0.00e+00	0	42	0	1320157184	13	4014
2026-01-09 23:06:05.18	122.64	25.28	-26.2	-27.2	16.6	0.00e+00	0	42	0	1323302912	13	4044
2026-01-09 23:06:06.19	122.90	25.20	-26.5	-27.9	16.2	0.00e+00	0	42	0	1327497216	13	4233
2026-01-09 23:06:07.19	123.16	25.12	-26.5	-27.8	16.3	0.00e+00	0	42	0	1329594368	13	4212
2026-01-09 23:06:08.19	123.42	25.04	-26.7	-28.4	16.0	0.00e+00	0	42	0	1332740096	13	4368
2026-01-09 23:06:09.19	123.67	24.96	-26.5	-28.0	16.3	0.00e+00	0	42	0	1335885824	13	4251
2026-01-09 23:06:10.20	123.92	24.88	-26.6	-28.1	16.1	0.00e+00	0	42	0	1339031552	13	4294
2026-01-09 23:06:11.20	124.17	24.80	-27.0	-28.5	15.7	0.00e+00	0	42	0	1342177280	14	4275
2026-01-09 23:06:12.20	124.42	24.72	-27.0	-28.6	15.6	0.00e+00	0	42	0	1345323008	14	4326
2026-01-09 23:06:13.21	124.68	24.63	-27.2	-29.1	15.3	0.00e+00	0	42	0	1348468736	14	4448
2026-01-09 23:06:14.21	124.92	24.55	-27.2	-28.9	15.4	0.00e+00	0	42	0	1351614464	14	4413
2026-01-09 23:06:15.21	125.17	24.47	-27.3	-29.2	15.3	7.00e-07	0	42	0	1354760192	14	4483
2026-01-09 23:06:16.21	125.41	24.39	-27.1	-28.7	15.4	0.00e+00	0	42	0	1357905920	14	4351
2026-01-09 23:06:17.21	125.66	24.30	-27.6	-29.5	14.8	0.00e+00	0	42	0	1361051648	15	4460
2026-01-09 23:06:18.21	125.90	24.22	-27.6	-28.9	14.9	0.00e+00	0	42	0	1364197376	16	4169
2026-01-09 23:06:19.21	126.14	24.14	-27.5	-28.8	15.2	7.00e-07	0	42	0	1367343104	16	4139
2026-01-09 23:06:20.21	126.38	24.05	-27.7	-29.1	14.9	0.00e+00	0	42	0	1370488832	16	4230
2026-01-09 23:06:21.21	126.62	23.97	-28.0	-29.8	14.5	7.00e-07	0	42	0	1373634560	16	4432
2026-01-09 23:06:22.21	126.86	23.88	-27.4	-28.5	15.2	0.00e+00	0	42	0	1376780288	16	4070
2026-01-09 23:06:23.21	127.09	23.80	-27.0	-28.0	15.6	0.00e+00	0	42	0	1379926016	15	4042
2026-01-09 23:06:24.20	127.32	23.72	-26.9	-27.7	15.8	0.00e+00	0	42	0	1383071744	15	3977
2026-01-09 23:06:25.20	127.56	23.63	-26.9	-27.8	15.7	0.00e+00	0	42	0	1386217472	15	3989
2026-01-09 23:06:26.21	127.79	23.55	-26.9	-28.4	15.7	0.00e+00	0	42	0	1389363200	14	4257
2026-01-09 23:06:27.20	128.02	23.46	-27.1	-28.8	15.4	0.00e+00	0	42	0	1392508928	14	4363
2026-01-09 23:06:28.20	128.25	23.38	-27.1	-28.8	15.5	0.00e+00	0	42	0	1395654656	14	4362
2026-01-09 23:06:29.21	128.48	23.29	-27.2	-28.9	15.4	0.00e+00	0	42	0	1398800384	14	4405
2026-01-09 23:06:30.20	128.71	23.20	-26.8	-28.1	15.8	0.00e+00	0	42	0	1401946112	14	4190
2026-01-09 23:06:31.21	128.94	23.12	-26.6	-27.7	16.0	0.00e+00	0	42	0	1405091840	14	4079
2026-01-09 23:06:32.20	129.16	23.03	-26.6	-27.6	16.1	0.00e+00	0	42	0	1408237568	14	4045
2026-01-09 23:06:33.20	129.38	22.95	-26.8	-28.0	15.8	0.00e+00	0	42	0	1411383296	14	4150
2026-01-09 23:06:34.21	129.61	22.86	-26.7	-27.9	15.9	0.00e+00	0	42	0	1414529024	14	4124
2026-01-09 23:06:35.21	129.83	22.77	-26.9	-28.3	15.7	0.00e+00	0	42	0	1417674752	14	4225
2026-01-09 23:06:36.21	130.05	22.69	-26.6	-27.7	16.0	0.00e+00	0	42	0	1420820480	14	4080
2026-01-09 23:06:37.22	130.27	22.60	-26.7	-27.8	15.9	1.06e-05	0	42	0	1423966208	14	4101
2026-01-09 23:06:38.22	130.49	22.51	-26.9	-28.3	15.7	0.00e+00	0	42	0	1427111936	14	4223
2026-01-09 23:06:39.22	130.71	22.42	-26.8	-28.2	15.7	0.00e+00	0	42	0	1430257664	14	4210
2026-01-09 23:06:40.22	130.92	22.34	-27.2	-28.9	15.3	0.00e+00	0	42	0	1433403392	14	4415
2026-01-09 23:06:41.22	131.14	22.25	-27.2	-29.1	15.2	0.00e+00	0	42	0	1436549120	14	4453
2026-01-09 23:06:42.22	131.35	22.16	-27.4	-29.4	15.0	0.00e+00	0	42	0	1439694848	14	4555
2026-01-09 23:06:43.22	131.56	22.07	-27.2	-28.9	15.3	3.80e-06	0	42	0	1442840576	14	4419
2026-01-09 23:06:44.23	131.77	21.99	-26.9	-28.4	15.6	0.00e+00	0	42	0	1445986304	14	4278
2026-01-09 23:06:45.23	131.98	21.90	-26.8	-28.2	15.7	0.00e+00	0	42	0	1449132032	14	4214
2026-01-09 23:06:46.24	132.19	21.81	-26.9	-28.3	15.2	6.10e-06	0	42	0	1452277760	14	4235
2026-01-09 23:06:47.24	132.40	21.72	-26.8	-28.2	15.6	0.00e+00	0	42	0	1455423488	14	4221
2026-01-09 23:06:48.25	132.61	21.63	-26.8	-28.1	15.4	0.00e+00	0	42	0	1458569216	14	4179
2026-01-09 23:06:49.25	132.81	21.54	-26.7	-28.0	15.5	5.30e-06	0	42	0	1461714944	14	4160
2026-01-09 23:06:50.25	133.02	21.46	-26.9	-28.3	15.7	0.00e+00	0	42	0	1464860672	14	4231
2026-01-09 23:06:51.25	133.22	21.37	-26.9	-28.4	15.2	0.00e+00	0	42	0	1468006400	14	4261
2026-01-09 23:06:52.26	133.42	21.28	-26.8	-28.2	15.4	2.20e-06	0	42	0	1471152128	14	4220
2026-01-09 23:06:53.25	133.62	21.19	-26.8	-28.2	15.6	0.00e+00	0	42	0	1474297856	14	4223
2026-01-09 23:06:54.26	133.82	21.10	-27.0	-28.5	15.5	0.00e+00	0	42	0	1477443584	14	4299
2026-01-09 23:06:55.25	134.02	21.02	-27.0	-28.7	15.4	9.23e-05	0	42	0	1480589312	14	4344
2026-01-09 23:06:56.26	134.22	20.93	-27.0	-28.5	15.4	0.00e+00	0	42	0	1483735040	14	4299
2026-01-09 23:06:57.26	134.42	20.84	-26.8	-28.2	15.6	0.00e+00	0	42	0	1486880768	14	4200
2026-01-09 23:06:58.26	134.61	20.75	-26.7	-28.0	15.8	1.14e-05	0	42	0	1490026496	14	4161
2026-01-09 23:06:59.25	134.80	20.66	-26.7	-27.9	15.8	0.00e+00	0	42	0	1493172224	14	4130
2026-01-09 23:07:00.25	135.00	20.57	-26.7	-27.9	15.8	4.57e-05	0	42	0	1496317952	14	4130
2026-01-09 23:07:01.25	135.19	20.49	-26.7	-27.9	15.8	4.50e-06	0	42	0	1499463680	14	4124
2026-01-09 23:07:02.25	135.38	20.40	-26.7	-27.9	15.8	0.00e+00	0	42	0	1502609408	14	4123
2026-01-09 23:07:03.25	135.57	20.31	-26.7	-27.9	15.8	0.00e+00	0	42	0	1505755136	14	4147
2026-01-09 23:07:04.25	135.76	20.22	-26.8	-28.0	15.7	0.00e+00	0	42	0	1508900864	14	4168
2026-01-09 23:07:05.25	135.94	20.13	-26.9	-28.3	15.6	0.00e+00	0	42	0	1510998016	14	4239
2026-01-09 23:07:06.24	136.13	20.04	-26.8	-28.1	15.7	5.03e-05	0	42	0	1514143744	14	4182
2026-01-09 23:07:07.25	136.32	19.96	-27.0	-28.6	15.3	7.00e-07	0	42	0	1517289472	14	4336
2026-01-09 23:07:08.25	136.50	19.87	-27.3	-29.3	15.0	0.00e+00	0	42	0	1520435200	14	4520
2026-01-09 23:07:09.25	136.68	19.78	-27.2	-29.0	15.1	0.00e+00	0	42	0	1523580928	14	4449
2026-01-09 23:07:10.25	136.87	19.69	-27.3	-29.4	14.9	1.26e-04	0	42	0	1526726656	14	4551
2026-01-09 23:07:11.25	137.05	19.60	-27.2	-29.1	15.0	0.00e+00	0	42	0	1529872384	14	4476
2026-01-09 23:07:12.26	137.23	19.51	-27.3	-29.2	15.0	0.00e+00	0	42	0	1533018112	14	4506
2026-01-09 23:07:13.26	137.41	19.42	-27.2	-29.0	15.1	9.10e-06	0	42	0	1536163840	14	4460
2026-01-09 23:07:14.27	137.59	19.34	-27.2	-29.0	15.1	0.00e+00	0	42	0	1539309568	14	4450
2026-01-09 23:07:15.26	137.76	19.25	-27.1	-28.9	15.1	0.00e+00	0	42	0	1542455296	14	4415
2026-01-09 23:07:16.27	137.94	19.16	-27.1	-28.9	15.1	4.83e-04	0	42	0	1545601024	14	4424
2026-01-09 23:07:17.27	138.12	19.07	-27.2	-29.0	15.0	0.00e+00	0	42	0	1548746752	14	4440
2026-01-09 23:07:18.27	138.29	18.98	-27.1	-28.8	15.1	0.00e+00	0	42	0	1551892480	14	4400
2026-01-09 23:07:19.28	138.47	18.90	-27.2	-29.0	15.0	5.30e-06	0	42	0	1555038208	14	4452
2026-01-09 23:07:20.28	138.64	18.81	-27.3	-29.3	14.8	0.00e+00	0	42	0	1558183936	14	4544
2026-01-09 23:07:21.28	138.81	18.72	-27.1	-28.8	15.1	1.61e-04	0	42	0	1561329664	14	4404
2026-01-09 23:07:22.28	138.98	18.63	-27.1	-29.0	15.0	4.65e-04	0	42	0	1564475392	14	4452
2026-01-09 23:07:23.28	139.15	18.54	-27.0	-28.7	15.2	0.00e+00	0	42	0	1567621120	14	4359
2026-01-09 23:07:24.28	139.32	18.46	-26.9	-28.4	15.3	0.00e+00	0	42	0	1570766848	14	4291
2026-01-09 23:07:25.28	139.49	18.37	-26.9	-28.5	15.3	0.00e+00	0	42	0	1573912576	14	4304
2026-01-09 23:07:26.28	139.65	18.28	-26.8	-28.3	15.4	0.00e+00	0	42	0	1577058304	14	4249
2026-01-09 23:07:27.28	139.82	18.19	-27.0	-28.7	15.2	1.40e-03	0	42	0	1580204032	14	4364
2026-01-09 23:07:28.29	139.99	18.11	-27.3	-29.2	14.9	1.02e-03	0	42	0	1583349760	14	4518
2026-01-09 23:07:29.29	140.15	18.02	-27.1	-28.9	15.1	0.00e+00	0	42	0	1586495488	14	4413
2026-01-09 23:07:30.29	140.31	17.93	-26.9	-29.0	15.2	0.00e+00	0	42	0	1589641216	13	4578
2026-01-09 23:07:31.29	140.48	17.85	-27.2	-29.0	15.0	9.72e-04	0	42	0	1592786944	14	4461
2026-01-09 23:07:32.30	140.64	17.76	-27.1	-28.8	15.1	0.00e+00	0	42	0	1595932672	14	4399
2026-01-09 23:07:33.30	140.80	17.67	-27.1	-28.8	15.0	7.77e-04	0	42	0	1599078400	14	4403
2026-01-09 23:07:34.31	140.96	17.58	-27.2	-29.1	14.8	1.14e-03	0	42	0	1602224128	14	4484
2026-01-09 23:07:35.31	141.12	17.50	-27.1	-28.8	15.0	0.00e+00	0	42	0	1605369856	14	4401
2026-01-09 23:07:36.32	141.28	17.41	-27.3	-29.4	14.6	1.65e-03	0	42	0	1608515584	14	4585
2026-01-09 23:07:37.32	141.43	17.32	-27.5	-29.4	14.3	2.08e-03	0	42	0	1611661312	15	4462
2026-01-09 23:07:38.33	141.59	17.24	-27.4	-29.0	14.6	7.00e-07	0	42	0	1614807040	15	4351
2026-01-09 23:07:39.34	141.75	17.15	-27.3	-29.3	14.7	2.31e-03	0	42	0	1617952768	14	4556
2026-01-09 23:07:40.33	141.90	17.06	-27.2	-29.1	14.8	0.00e+00	0	42	0	1621098496	14	4500
2026-01-09 23:07:41.34	142.06	16.98	-27.2	-29.1	14.7	0.00e+00	0	42	0	1624244224	14	4498
2026-01-09 23:07:42.33	142.21	16.89	-27.2	-29.1	14.7	2.02e-03	0	42	0	1627389952	14	4498
2026-01-09 23:07:43.33	142.36	16.81	-27.3	-29.4	14.5	1.73e-03	0	42	0	1630535680	14	4580
2026-01-09 23:07:44.33	142.51	16.72	-27.2	-29.2	14.6	0.00e+00	0	42	0	1633681408	14	4506
2026-01-09 23:07:45.33	142.66	16.63	-27.1	-28.8	14.9	0.00e+00	0	42	0	1636827136	14	4413
2026-01-09 23:07:46.33	142.81	16.55	-27.1	-28.8	14.9	1.39e-03	0	42	0	1639972864	14	4405
2026-01-09 23:07:47.32	142.95	16.46	-27.2	-29.1	14.7	0.00e+00	0	42	0	1643118592	14	4493
2026-01-09 23:07:48.33	143.10	16.38	-27.2	-29.2	14.6	1.87e-03	0	42	0	1646264320	14	4519
2026-01-09 23:07:49.33	143.25	16.29	-27.3	-29.4	14.5	1.71e-03	0	42	0	1649410048	14	4592
2026-01-09 23:07:50.32	143.39	16.21	-27.4	-29.7	14.3	1.50e-06	0	42	0	1652555776	14	4678
2026-01-09 23:07:51.33	143.54	16.12	-27.3	-29.0	14.4	7.00e-07	0	42	0	1655701504	15	4351
2026-01-09 23:07:52.33	143.69	16.04	-27.4	-29.6	14.3	2.83e-03	0	42	0	1658847232	14	4641
2026-01-09 23:07:53.33	143.83	15.95	-27.4	-29.2	14.2	2.20e-06	0	42	0	1661992960	15	4431
2026-01-09 23:07:54.33	143.97	15.87	-27.7	-29.8	13.9	3.29e-03	0	42	0	1665138688	15	4589
2026-01-09 23:07:55.34	144.12	15.78	-27.8	-30.2	13.7	3.23e-03	0	42	0	1668284416	15	4717
2026-01-09 23:07:56.34	144.26	15.70	-28.0	-30.5	13.5	1.37e-05	0	42	0	1671430144	15	4835
2026-01-09 23:07:57.34	144.40	15.62	-28.1	-30.3	13.5	3.05e-03	0	42	0	1674575872	16	4621
2026-01-09 23:07:58.35	144.54	15.53	-27.8	-30.0	13.7	3.28e-03	0	42	0	1677721600	15	4671
2026-01-09 23:07:59.34	144.68	15.45	-27.7	-29.8	13.9	4.50e-06	0	42	0	1680867328	15	4616
2026-01-09 23:08:00.33	144.81	15.37	-27.8	-30.2	13.7	3.49e-03	0	42	0	1684013056	15	4710
2026-01-09 23:08:01.34	144.95	15.28	-27.8	-30.0	13.8	2.40e-03	0	42	0	1687158784	15	4666
2026-01-09 23:08:02.33	145.09	15.20	-27.6	-29.6	14.0	3.80e-06	0	42	0	1690304512	15	4540
2026-01-09 23:08:03.33	145.22	15.11	-27.6	-29.6	14.0	3.97e-03	0	42	0	1692401664	15	4544
2026-01-09 23:08:04.33	145.36	15.03	-27.6	-29.7	14.0	3.61e-03	0	42	0	1695547392	15	4570
2026-01-09 23:08:05.34	145.49	14.95	-27.9	-29.9	13.7	6.10e-06	0	42	0	1699741696	16	4522
2026-01-09 23:08:06.34	145.63	14.86	-27.7	-30.0	13.8	3.68e-03	0	42	0	1702887424	15	4655
2026-01-09 23:08:07.34	145.76	14.78	-27.6	-29.6	14.0	1.50e-06	0	42	0	1706033152	15	4559
2026-01-09 23:08:08.35	145.89	14.70	-27.7	-29.8	14.0	1.50e-06	0	42	0	1709178880	15	4596
2026-01-09 23:08:09.35	146.03	14.62	-27.7	-29.9	13.9	4.22e-03	0	42	0	1712324608	15	4649
2026-01-09 23:08:10.35	146.16	14.53	-27.8	-30.1	13.8	4.01e-03	0	42	0	1715470336	15	4701
2026-01-09 23:08:11.35	146.29	14.45	-27.8	-30.1	13.7	3.80e-06	0	42	0	1717567488	15	4704
2026-01-09 23:08:12.35	146.42	14.37	-27.9	-30.3	13.7	6.10e-06	0	42	0	1720713216	15	4756
2026-01-09 23:08:13.36	146.55	14.29	-28.0	-30.2	13.6	3.38e-03	0	42	0	1723858944	16	4595
2026-01-09 23:08:14.36	146.67	14.21	-28.1	-30.4	13.5	7.60e-06	0	42	0	1727004672	16	4656
2026-01-09 23:08:15.36	146.80	14.12	-28.3	-30.7	13.3	3.50e-03	0	42	0	1730150400	16	4766
2026-01-09 23:08:16.37	146.93	14.04	-28.2	-30.5	13.4	1.39e-03	0	42	0	1733296128	16	4688
2026-01-09 23:08:17.36	147.05	13.96	-28.1	-30.4	13.5	6.10e-06	0	42	0	1736441856	16	4653
2026-01-09 23:08:18.36	147.18	13.88	-28.1	-30.4	13.5	1.44e-05	0	42	0	1739587584	16	4656
2026-01-09 23:08:19.37	147.31	13.80	-28.0	-30.1	13.6	3.96e-03	0	42	0	1742733312	16	4585
2026-01-09 23:08:20.36	147.43	13.72	-28.1	-30.2	13.6	5.87e-05	0	42	0	1745879040	16	4588
2026-01-09 23:08:21.37	147.55	13.64	-27.8	-30.1	13.7	4.10e-03	0	42	0	1749024768	15	4707
2026-01-09 23:08:22.36	147.68	13.56	-27.8	-30.1	13.7	3.80e-06	0	42	0	1752170496	15	4695
2026-01-09 23:08:23.37	147.80	13.48	-27.9	-30.3	13.6	4.50e-06	0	42	0	1755316224	15	4755
2026-01-09 23:08:24.37	147.92	13.40	-27.7	-29.9	13.9	3.94e-03	0	42	0	1758461952	15	4629
2026-01-09 23:08:25.37	148.04	13.32	-27.8	-30.1	13.8	4.42e-03	0	42	0	1761607680	15	4679
2026-01-09 23:08:26.38	148.16	13.23	-27.8	-30.1	13.7	3.66e-05	0	42	0	1764753408	15	4684
2026-01-09 23:08:27.37	148.28	13.16	-27.8	-30.2	13.7	1.14e-05	0	42	0	1767899136	15	4712
2026-01-09 23:08:28.38	148.40	13.07	-27.8	-30.1	13.7	6.80e-06	0	42	0	1771044864	15	4706
2026-01-09 23:08:29.38	148.52	13.00	-27.8	-30.0	13.8	3.00e-06	0	42	0	1774190592	15	4672
2026-01-09 23:08:30.38	148.64	12.92	-27.9	-30.5	13.5	4.29e-03	0	42	0	1777336320	15	4811
2026-01-09 23:08:31.38	148.75	12.84	-27.9	-30.3	13.6	3.93e-03	0	42	0	1780482048	15	4767
2026-01-09 23:08:32.39	148.87	12.76	-27.9	-30.3	13.6	9.10e-06	0	42	0	1783627776	15	4755
2026-01-09 23:08:33.39	148.99	12.68	-28.1	-30.4	13.4	2.51e-05	0	42	0	1786773504	16	4659
2026-01-09 23:08:34.39	149.10	12.60	-28.1	-30.4	13.3	2.44e-05	0	42	0	1789919232	16	4687
2026-01-09 23:08:35.39	149.22	12.52	-28.1	-30.4	13.4	1.22e-05	0	42	0	1793064960	16	4673
2026-01-09 23:08:36.40	149.33	12.44	-28.2	-30.6	13.2	4.21e-03	0	42	0	1796210688	16	4735
2026-01-09 23:08:37.40	149.45	12.36	-28.1	-30.3	13.4	1.60e-05	0	42	0	1799356416	16	4652
2026-01-09 23:08:38.41	149.56	12.28	-28.0	-30.1	13.6	2.05e-05	0	42	0	1802502144	16	4582
2026-01-09 23:08:39.41	149.67	12.21	-27.9	-30.5	13.4	1.44e-05	0	42	0	1805647872	15	4818
2026-01-09 23:08:40.42	149.79	12.13	-27.9	-30.4	13.4	8.30e-06	0	42	0	1808793600	15	4794
2026-01-09 23:08:41.42	149.90	12.05	-27.8	-30.1	13.6	1.79e-04	0	42	0	1811939328	15	4714
2026-01-09 23:08:42.42	150.01	11.97	-28.0	-30.2	13.5	1.22e-05	0	42	0	1815085056	16	4604
2026-01-09 23:08:43.42	150.12	11.89	-27.9	-30.3	13.5	8.30e-06	0	42	0	1818230784	15	4787
2026-01-09 23:08:44.43	150.23	11.82	-27.9	-30.5	13.3	1.90e-05	0	42	0	1821376512	15	4834
2026-01-09 23:08:45.42	150.34	11.74	-27.8	-30.3	13.4	1.83e-05	0	42	0	1824522240	15	4794
2026-01-09 23:08:46.43	150.45	11.66	-28.1	-30.5	13.2	1.98e-05	0	42	0	1827667968	16	4720
2026-01-09 23:08:47.43	150.56	11.59	-28.1	-30.4	13.2	1.44e-05	0	42	0	1830813696	16	4714
2026-01-09 23:08:48.43	150.66	11.51	-28.0	-30.6	13.2	2.44e-05	0	42	0	1833959424	15	4904
2026-01-09 23:08:49.44	150.77	11.43	-28.1	-30.6	13.1	2.97e-05	0	42	0	1837105152	16	4757
2026-01-09 23:08:50.44	150.88	11.36	-28.0	-30.4	13.2	1.60e-05	0	42	0	1840250880	16	4697
2026-01-09 23:08:51.44	150.98	11.28	-28.0	-30.7	13.1	2.67e-05	0	42	0	1843396608	15	4949
2026-01-09 23:08:52.44	151.09	11.20	-28.2	-30.8	13.0	4.50e-05	0	42	0	1846542336	16	4834
2026-01-09 23:08:53.44	151.19	11.13	-28.2	-30.7	13.0	3.73e-05	0	42	0	1849688064	16	4797
2026-01-09 23:08:54.45	151.30	11.05	-28.2	-30.6	13.1	4.88e-05	0	42	0	1852833792	16	4767
2026-01-09 23:08:55.45	151.40	10.98	-28.2	-30.7	13.0	5.49e-05	0	42	0	1855979520	16	4808
2026-01-09 23:08:56.45	151.51	10.90	-28.3	-30.9	12.9	5.18e-05	0	42	0	1859125248	16	4864
2026-01-09 23:08:57.46	151.61	10.82	-28.3	-30.8	12.9	5.79e-05	0	42	0	1862270976	16	4835
2026-01-09 23:08:58.46	151.71	10.75	-28.2	-30.7	13.0	5.03e-05	0	42	0	1865416704	16	4808
2026-01-09 23:08:59.46	151.81	10.67	-28.3	-30.9	12.9	7.01e-05	0	42	0	1868562432	16	4861
2026-01-09 23:09:00.46	151.91	10.60	-28.4	-31.3	12.6	1.11e-04	0	42	0	1871708160	16	4995
2026-01-09 23:09:01.45	152.01	10.53	-28.6	-31.1	12.4	2.23e-04	0	42	0	1874853888	17	4825
2026-01-09 23:09:02.45	152.11	10.45	-28.5	-31.1	12.4	1.81e-04	0	42	0	1877999616	17	4807
2026-01-09 23:09:03.45	152.21	10.38	-28.7	-31.5	12.1	2.43e-04	0	42	0	1881145344	17	4979
2026-01-09 23:09:04.45	152.31	10.30	-28.8	-31.7	12.0	4.38e-04	0	42	0	1884291072	17	5049
2026-01-09 23:09:05.46	152.41	10.23	-28.6	-31.3	12.2	1.87e-04	0	42	0	1887436800	17	4899
2026-01-09 23:09:06.46	152.51	10.15	-28.4	-30.7	12.6	1.59e-04	0	42	0	1890582528	17	4710
2026-01-09 23:09:07.46	152.61	10.08	-28.3	-31.1	12.7	8.69e-05	0	42	0	1893728256	16	4935
2026-01-09 23:09:08.46	152.71	10.01	-28.3	-31.1	12.6	8.77e-05	0	42	0	1896873984	16	4957
2026-01-09 23:09:09.47	152.80	9.93	-28.5	-31.4	12.5	9.23e-05	0	42	0	1900019712	16	5061
2026-01-09 23:09:10.47	152.90	9.86	-28.3	-30.9	12.8	7.70e-05	0	42	0	1903165440	16	4892
2026-01-09 23:09:11.46	153.00	9.79	-28.5	-31.4	12.4	1.34e-04	0	42	0	1906311168	16	5053
2026-01-09 23:09:12.47	153.09	9.71	-28.5	-30.8	12.5	1.49e-04	0	42	0	1909456896	17	4743
2026-01-09 23:09:13.46	153.19	9.64	-28.2	-30.3	12.8	7.55e-05	0	42	0	1912602624	17	4562
2026-01-09 23:09:14.47	153.28	9.57	-28.3	-30.9	12.7	5.95e-05	0	42	0	1915748352	16	4889
2026-01-09 23:09:15.47	153.38	9.49	-28.0	-30.4	13.1	6.02e-05	0	42	0	1918894080	16	4737
2026-01-09 23:09:16.47	153.47	9.42	-28.2	-30.7	12.8	3.66e-05	0	42	0	1920991232	16	4840
2026-01-09 23:09:17.46	153.56	9.35	-28.2	-30.8	12.8	7.55e-05	0	42	0	1924136960	16	4869
2026-01-09 23:09:18.46	153.66	9.28	-28.2	-30.8	12.7	8.69e-05	0	42	0	1927282688	16	4884
2026-01-09 23:09:19.47	153.75	9.21	-28.3	-31.1	12.6	1.09e-04	0	42	0	1930428416	16	4970
2026-01-09 23:09:20.47	153.84	9.13	-28.2	-30.8	12.8	5.49e-05	0	42	0	1933574144	16	4866
2026-01-09 23:09:21.47	153.93	9.06	-28.1	-30.5	13.0	5.95e-05	0	42	0	1936719872	16	4769
2026-01-09 23:09:22.47	154.02	8.99	-28.0	-30.8	12.9	4.19e-05	0	42	0	1939865600	15	5000
2026-01-09 23:09:23.47	154.11	8.92	-28.2	-30.7	12.9	4.19e-05	0	42	0	1943011328	16	4829
2026-01-09 23:09:24.47	154.20	8.85	-28.3	-30.9	12.8	6.17e-05	0	42	0	1946157056	16	4885
2026-01-09 23:09:25.47	154.29	8.78	-28.2	-30.7	13.0	4.11e-05	0	42	0	1949302784	16	4807
2026-01-09 23:09:26.47	154.38	8.70	-28.5	-31.0	12.4	1.25e-04	0	42	0	1952448512	17	4790
2026-01-09 23:09:27.47	154.47	8.63	-28.5	-30.9	12.5	1.02e-04	0	42	0	1955594240	17	4760
2026-01-09 23:09:28.47	154.56	8.56	-28.5	-31.0	12.4	1.43e-04	0	42	0	1958739968	17	4786
2026-01-09 23:09:29.48	154.65	8.49	-28.5	-30.9	12.5	1.90e-04	0	42	0	1961885696	17	4767
2026-01-09 23:09:30.48	154.74	8.42	-28.8	-31.8	12.0	2.84e-04	0	42	0	1965031424	17	5059
2026-01-09 23:09:31.48	154.82	8.35	-28.5	-31.0	12.4	1.75e-04	0	42	0	1968177152	17	4819
2026-01-09 23:09:32.48	154.91	8.28	-28.5	-31.1	12.3	2.89e-04	0	42	0	1971322880	17	4852
2026-01-09 23:09:33.49	155.00	8.21	-28.8	-31.8	11.9	3.28e-04	0	42	0	1974468608	17	5082
2026-01-09 23:09:34.49	155.08	8.14	-28.6	-31.3	12.2	4.02e-04	0	42	0	1977614336	17	4923
2026-01-09 23:09:35.50	155.17	8.07	-28.7	-31.6	12.0	2.12e-04	0	42	0	1980760064	17	5014
2026-01-09 23:09:36.50	155.26	8.00	-28.6	-31.4	12.2	2.72e-04	0	42	0	1983905792	17	4947
2026-01-09 23:09:37.50	155.34	7.93	-28.7	-31.5	12.1	1.58e-04	0	42	0	1987051520	17	4977
2026-01-09 23:09:38.50	155.43	7.86	-29.0	-31.6	11.8	4.63e-04	0	42	0	1990197248	18	4901
2026-01-09 23:09:39.50	155.51	7.79	-28.8	-31.7	12.0	3.94e-04	0	42	0	1993342976	17	5019
2026-01-09 23:09:40.50	155.59	7.72	-28.8	-31.8	11.9	2.79e-04	0	42	0	1996488704	17	5065
2026-01-09 23:09:41.50	155.68	7.65	-29.1	-31.9	11.6	5.04e-04	0	42	0	1999634432	18	4971
2026-01-09 23:09:42.50	155.76	7.59	-29.7	-33.2	10.2	7.32e-03	0	42	0	2002780160	19	5349
2026-01-09 23:09:43.50	155.84	7.52	-29.4	-32.7	11.0	1.61e-03	0	42	0	2005925888	18	5283
2026-01-09 23:09:44.49	155.92	7.45	-29.3	-32.5	11.1	1.27e-03	0	42	0	2009071616	18	5208
2026-01-09 23:09:45.49	156.01	7.38	-29.2	-32.3	11.3	8.77e-04	0	42	0	2012217344	18	5140
2026-01-09 23:09:46.50	156.09	7.31	-29.0	-31.8	11.5	1.04e-03	0	42	0	2015363072	18	4965
2026-01-09 23:09:47.50	156.17	7.24	-28.8	-31.8	11.8	5.42e-04	0	42	0	2018508800	17	5095
2026-01-09 23:09:48.51	156.25	7.18	-28.6	-31.2	12.2	3.85e-04	0	42	0	2021654528	17	4881
2026-01-09 23:09:49.51	156.33	7.11	-28.8	-31.7	11.9	3.12e-04	0	42	0	2024800256	17	5051
2026-01-09 23:09:50.51	156.41	7.04	-32.2	-43.8	3.8	2.96e-01	0	42	104	2026897408	24	13792
2026-01-09 23:09:51.52	156.49	6.97	-32.7	-44.7	3.8	1.49e+00	0	42	104	2026897408	25	14442

#Closed at: 2026-01-09 23:09:52
#Recorded file [2026 MB]: D:/data/31010_260110_015901.dat